passes_logs/2026/01/17/T1/T1__20260117_225925_NOAA_20_JPSS-1_rec.log

#Pass ID: 20260117_225925_NOAA 20 (JPSS-1)
#Satellite: NOAA 20 (JPSS-1)
#Configuration: NOAA 20
#almurnet v.1.7.20251203
#Start time: 2026-01-17 22:59:26

#Version: 2.0.20230620
#Station: T1
#Location: 37.570604 lon 55.790049 lat
#TLE: 1 43013U 17073A   26017.30359522  .00000067  00000+0  52526-4 0  9990
#TLE: 2 43013  98.7639 318.2187 0001419  36.2087 323.9184 14.19536557423067

#Time	Az	El	Level	Level2	SNR	BER	BlckErr	Temp	State	Recorded	gain1	gain2
2026-01-17 22:59:26.79	21.55	5.08	-48.7	-64.7	3.8	1.49e+00	0	37	0	0	69	22088
2026-01-17 22:59:27.78	21.60	5.15	-48.5	-64.5	3.8	1.49e+00	0	37	104	0	67	24177
2026-01-17 22:59:28.77	21.64	5.22	-48.5	-64.5	3.8	1.49e+00	0	37	104	0	67	24244
2026-01-17 22:59:29.77	21.68	5.29	-48.5	-64.4	3.8	1.49e+00	0	37	104	0	67	24121
2026-01-17 22:59:30.76	21.72	5.36	-48.5	-64.5	3.8	1.49e+00	0	37	104	0	67	24168
2026-01-17 22:59:31.75	21.77	5.42	-48.5	-64.5	3.8	1.49e+00	0	37	104	0	67	24225
2026-01-17 22:59:32.74	21.81	5.49	-48.5	-64.5	3.8	1.49e+00	0	37	104	0	67	24196
2026-01-17 22:59:33.74	21.85	5.56	-48.5	-64.5	3.8	1.49e+00	0	37	104	0	67	24188
2026-01-17 22:59:34.73	21.90	5.63	-48.5	-64.5	3.8	1.49e+00	0	37	104	0	67	24336
2026-01-17 22:59:35.72	21.94	5.70	-48.5	-64.5	3.8	1.49e+00	0	37	104	0	67	24292
2026-01-17 22:59:36.71	21.98	5.77	-48.5	-64.5	3.8	1.49e+00	0	37	104	0	67	24297
2026-01-17 22:59:37.71	22.03	5.84	-48.5	-64.5	3.8	1.49e+00	0	37	104	0	67	24388
2026-01-17 22:59:38.70	22.07	5.91	-48.5	-64.5	3.8	1.49e+00	0	37	104	0	67	24251
2026-01-17 22:59:39.69	22.12	5.98	-48.5	-64.5	3.8	1.49e+00	0	37	104	0	67	24316
2026-01-17 22:59:40.69	22.16	6.05	-48.5	-64.5	3.8	1.49e+00	0	37	104	0	67	24197
2026-01-17 22:59:41.68	22.21	6.12	-48.5	-64.5	3.8	1.49e+00	0	37	104	0	67	24276
2026-01-17 22:59:42.68	22.25	6.19	-48.5	-64.5	3.8	1.49e+00	0	37	104	0	67	24161
2026-01-17 22:59:43.67	22.30	6.26	-48.5	-64.4	3.8	1.49e+00	0	37	104	0	67	24120
2026-01-17 22:59:44.66	22.34	6.33	-48.5	-64.5	3.8	1.49e+00	0	37	104	0	67	24204
2026-01-17 22:59:45.66	22.39	6.41	-48.5	-64.4	3.8	1.49e+00	0	37	104	0	67	24095
2026-01-17 22:59:46.65	22.43	6.48	-48.5	-64.5	3.8	1.49e+00	0	37	104	0	67	24152
2026-01-17 22:59:47.64	22.48	6.55	-48.5	-64.4	3.8	1.49e+00	0	37	104	0	67	24083
2026-01-17 22:59:48.63	22.53	6.62	-48.5	-64.4	3.8	1.49e+00	0	37	104	0	67	24104
2026-01-17 22:59:49.63	22.57	6.69	-48.4	-64.5	3.8	1.49e+00	0	37	104	0	67	24144
2026-01-17 22:59:50.62	22.62	6.76	-48.5	-64.4	3.8	1.49e+00	0	37	104	0	67	24009
2026-01-17 22:59:51.61	22.67	6.84	-48.5	-64.3	3.8	1.49e+00	0	37	104	0	67	23793
2026-01-17 22:59:52.61	22.71	6.91	-48.5	-64.3	3.8	1.49e+00	0	37	104	0	67	23650
2026-01-17 22:59:53.60	22.76	6.98	-48.5	-64.2	3.8	1.49e+00	0	37	104	0	67	23348
2026-01-17 22:59:54.59	22.81	7.05	-48.5	-64.0	3.8	1.49e+00	0	37	104	0	67	22889
2026-01-17 22:59:55.59	22.86	7.13	-48.5	-63.9	3.8	1.49e+00	0	38	104	0	67	22546
2026-01-17 22:59:56.58	22.90	7.20	-48.4	-63.6	3.8	1.49e+00	0	37	104	0	67	21883
2026-01-17 22:59:57.57	22.95	7.27	-48.4	-63.5	3.8	1.49e+00	0	38	104	0	67	21536
2026-01-17 22:59:58.57	23.00	7.35	-48.4	-63.3	3.8	1.49e+00	0	38	104	0	67	21044
2026-01-17 22:59:59.56	23.05	7.42	-48.4	-63.2	3.8	1.49e+00	0	38	104	0	67	20797
2026-01-17 23:00:00.55	23.10	7.49	-48.4	-63.1	3.8	1.49e+00	0	38	104	0	67	20761
2026-01-17 23:00:01.55	23.15	7.57	-48.4	-63.1	3.8	1.49e+00	0	38	104	0	67	20548
2026-01-17 23:00:02.54	23.20	7.64	-48.4	-63.0	3.8	1.49e+00	0	38	104	0	67	20367
2026-01-17 23:00:03.54	23.25	7.72	-48.4	-63.0	3.8	1.49e+00	0	38	104	0	67	20411
2026-01-17 23:00:04.53	23.30	7.79	-48.4	-63.0	3.8	1.49e+00	0	38	104	0	67	20523
2026-01-17 23:00:05.52	23.35	7.87	-48.4	-63.0	3.8	1.49e+00	0	38	104	0	67	20434
2026-01-17 23:00:06.52	23.40	7.94	-48.4	-63.1	3.8	1.49e+00	0	38	104	0	67	20632
2026-01-17 23:00:07.51	23.45	8.02	-48.4	-63.0	3.8	1.49e+00	0	38	104	0	67	20465
2026-01-17 23:00:08.50	23.50	8.09	-48.4	-63.0	3.8	1.49e+00	0	38	104	0	67	20365
2026-01-17 23:00:09.50	23.55	8.17	-48.4	-62.8	3.8	1.49e+00	0	38	104	0	67	19844
2026-01-17 23:00:10.49	23.60	8.25	-48.4	-62.5	3.8	1.49e+00	0	38	104	0	67	19316
2026-01-17 23:00:11.48	23.65	8.32	-48.3	-62.0	4.0	1.49e+00	0	38	104	0	67	18220
2026-01-17 23:00:12.47	23.70	8.40	-48.3	-61.2	4.1	1.47e+00	0	38	0	0	67	16577
2026-01-17 23:00:13.47	23.75	8.48	-48.2	-60.3	4.4	1.37e+00	0	38	0	0	67	14911
2026-01-17 23:00:14.46	23.81	8.55	-48.1	-59.0	4.9	8.17e-01	0	38	0	2097152	67	12916
2026-01-17 23:00:15.45	23.86	8.63	-48.0	-57.8	5.7	5.01e-01	0	38	0	4194304	67	11232
2026-01-17 23:00:16.45	23.91	8.71	-47.7	-56.4	6.8	2.89e-01	0	38	0	5242880	67	9571
2026-01-17 23:00:17.44	23.96	8.79	-47.5	-55.2	7.9	1.32e-01	0	38	0	7340032	67	8287
2026-01-17 23:00:18.43	24.02	8.86	-47.2	-54.3	8.9	3.62e-02	0	38	0	9437184	66	7918
2026-01-17 23:00:19.43	24.07	8.94	-46.9	-53.2	9.9	1.32e-02	0	38	0	11534336	65	7456
2026-01-17 23:00:20.42	24.13	9.02	-46.7	-52.6	10.6	5.67e-03	0	38	0	12582912	65	6913
2026-01-17 23:00:21.41	24.18	9.10	-46.6	-52.5	10.7	2.78e-03	0	38	0	14680064	65	6822
2026-01-17 23:00:22.46	24.24	9.18	-47.2	-54.0	9.3	4.87e-03	0	38	0	16777216	65	8122
2026-01-17 23:00:23.39	24.29	9.26	-47.4	-54.4	8.7	2.23e-01	0	38	0	18874368	66	8012
2026-01-17 23:00:24.52	24.35	9.35	-47.9	-56.9	6.6	3.85e-02	0	38	0	20971520	66	10660
2026-01-17 23:00:25.38	24.40	9.41	-47.9	-57.1	5.0	1.43e+00	0	38	104	20971520	67	10356
2026-01-17 23:00:26.52	24.46	9.51	-44.3	-47.6	15.8	0.00e+00	0	38	0	22020096	60	5215
2026-01-17 23:00:27.37	24.51	9.57	-44.2	-47.5	16.0	0.00e+00	0	38	0	24117248	60	5130
2026-01-17 23:00:28.51	24.57	9.67	-44.0	-47.0	16.4	0.00e+00	0	38	0	26214400	59	5154
2026-01-17 23:00:29.36	24.62	9.74	-44.1	-47.2	16.3	0.00e+00	0	38	0	27262976	59	5245
2026-01-17 23:00:30.50	24.69	9.83	-44.0	-47.1	16.4	0.00e+00	0	38	0	29360128	59	5164
2026-01-17 23:00:31.35	24.73	9.90	-43.9	-46.9	16.5	0.00e+00	0	38	0	31457280	59	5087
2026-01-17 23:00:32.49	24.80	9.99	-44.0	-47.0	16.4	0.00e+00	0	38	0	33554432	59	5151
2026-01-17 23:00:33.34	24.85	10.06	-43.9	-47.0	16.5	0.00e+00	0	38	0	34603008	59	5127
2026-01-17 23:00:34.48	24.92	10.15	-43.8	-46.8	16.7	0.00e+00	0	38	0	36700160	59	5027
2026-01-17 23:00:35.33	24.97	10.22	-43.8	-46.8	16.6	0.00e+00	0	38	0	38797312	59	5025
2026-01-17 23:00:36.47	25.03	10.32	-43.8	-46.7	16.7	0.00e+00	0	38	0	40894464	59	4983
2026-01-17 23:00:37.32	25.08	10.39	-43.8	-46.8	16.7	0.00e+00	0	38	0	41943040	59	4989
2026-01-17 23:00:38.46	25.15	10.48	-43.8	-46.8	16.7	0.00e+00	0	38	0	45088768	59	4999
2026-01-17 23:00:39.31	25.20	10.55	-43.6	-46.6	16.9	0.00e+00	0	38	0	46137344	59	4903
2026-01-17 23:00:40.45	25.27	10.65	-43.6	-46.6	16.9	0.00e+00	0	38	0	48234496	59	4887
2026-01-17 23:00:41.30	25.32	10.72	-43.5	-46.5	17.0	0.00e+00	0	38	0	50331648	59	4840
2026-01-17 23:00:42.63	25.40	10.83	-43.6	-46.6	16.8	0.00e+00	0	38	0	52428800	59	4911
2026-01-17 23:00:43.34	25.44	10.89	-43.6	-46.6	16.8	0.00e+00	0	38	0	53477376	59	4923
2026-01-17 23:00:44.61	25.52	11.00	-43.6	-46.6	16.9	0.00e+00	0	38	0	56623104	59	4873
2026-01-17 23:00:45.33	25.57	11.06	-43.5	-46.5	17.0	0.00e+00	0	38	0	57671680	59	4840
2026-01-17 23:00:46.61	25.65	11.17	-43.6	-46.6	16.9	0.00e+00	0	38	0	59768832	59	4885
2026-01-17 23:00:47.32	25.69	11.23	-43.5	-46.5	17.0	0.00e+00	0	38	0	60817408	59	4839
2026-01-17 23:00:48.60	25.77	11.34	-43.4	-46.3	17.2	0.00e+00	0	38	0	63963136	58	5030
2026-01-17 23:00:49.32	25.81	11.40	-43.3	-46.3	17.2	0.00e+00	0	38	0	65011712	58	5000
2026-01-17 23:00:50.60	25.90	11.51	-43.3	-46.3	17.2	0.00e+00	0	38	0	67108864	58	4990
2026-01-17 23:00:51.31	25.94	11.58	-43.4	-46.3	17.2	0.00e+00	0	38	0	69206016	58	5006
2026-01-17 23:00:52.59	26.02	11.69	-43.3	-46.1	17.4	0.00e+00	0	38	0	71303168	58	4908
2026-01-17 23:00:53.31	26.07	11.75	-43.3	-46.1	17.4	0.00e+00	0	38	0	72351744	58	4908
2026-01-17 23:00:54.63	26.15	11.87	-43.4	-46.2	17.3	0.00e+00	0	38	0	74448896	58	4947
2026-01-17 23:00:55.35	26.20	11.93	-43.4	-46.2	17.3	0.00e+00	0	38	0	76546048	58	4953
2026-01-17 23:00:56.63	26.29	12.04	-43.3	-46.0	17.5	0.00e+00	0	39	0	78643200	58	4859
2026-01-17 23:00:57.68	26.35	12.14	-43.4	-46.1	17.4	0.00e+00	0	39	0	80740352	58	4926
2026-01-17 23:00:58.85	26.43	12.24	-43.3	-46.0	17.6	0.00e+00	0	38	0	82837504	58	4836
2026-01-17 23:00:59.70	26.49	12.32	-43.3	-46.0	17.6	0.00e+00	0	38	0	84934656	58	4824
2026-01-17 23:01:00.84	26.56	12.42	-43.3	-46.0	17.5	0.00e+00	0	39	0	87031808	58	4854
2026-01-17 23:01:01.69	26.62	12.49	-43.3	-46.0	17.5	0.00e+00	0	38	0	88080384	58	4863
2026-01-17 23:01:02.83	26.70	12.60	-43.2	-45.9	17.6	0.00e+00	0	38	0	90177536	58	4788
2026-01-17 23:01:03.68	26.76	12.67	-43.3	-46.0	17.6	0.00e+00	0	39	0	92274688	58	4853
2026-01-17 23:01:04.82	26.84	12.78	-43.2	-45.9	17.6	0.00e+00	0	38	0	94371840	58	4811
2026-01-17 23:01:05.67	26.89	12.85	-43.2	-45.9	17.7	0.00e+00	0	38	0	95420416	58	4767
2026-01-17 23:01:06.87	26.98	12.96	-43.1	-45.8	17.7	0.00e+00	0	38	0	97517568	58	4756
2026-01-17 23:01:07.72	27.04	13.04	-43.2	-45.9	17.6	0.00e+00	0	38	0	99614720	58	4799
2026-01-17 23:01:08.92	27.12	13.15	-43.0	-45.7	17.8	0.00e+00	0	39	0	101711872	58	4705
2026-01-17 23:01:09.77	27.18	13.23	-43.1	-45.8	17.8	0.00e+00	0	38	0	103809024	58	4721
2026-01-17 23:01:10.98	27.27	13.34	-43.1	-45.8	17.7	0.00e+00	0	39	0	105906176	58	4749
2026-01-17 23:01:11.83	27.33	13.42	-43.0	-45.7	17.9	0.00e+00	0	38	0	106954752	58	4659
2026-01-17 23:01:12.97	27.41	13.53	-43.0	-45.7	17.8	0.00e+00	0	38	0	109051904	58	4686
2026-01-17 23:01:13.82	27.47	13.61	-43.0	-45.6	17.9	0.00e+00	0	38	0	111149056	58	4650
2026-01-17 23:01:14.96	27.55	13.71	-43.0	-45.6	17.8	0.00e+00	0	39	0	113246208	58	4641
2026-01-17 23:01:15.81	27.62	13.79	-43.0	-45.6	18.0	0.00e+00	0	39	0	114294784	57	4911
2026-01-17 23:01:16.95	27.70	13.90	-42.8	-45.4	18.1	0.00e+00	0	39	0	116391936	57	4813
2026-01-17 23:01:17.80	27.76	13.98	-42.9	-45.5	18.1	0.00e+00	0	39	0	118489088	57	4843
2026-01-17 23:01:18.94	27.85	14.09	-42.9	-45.5	18.1	0.00e+00	0	38	0	120586240	57	4855
2026-01-17 23:01:19.79	27.91	14.17	-42.9	-45.7	17.9	0.00e+00	0	38	0	121634816	57	4932
2026-01-17 23:01:20.93	28.00	14.28	-42.8	-45.5	18.1	0.00e+00	0	39	0	123731968	57	4830
2026-01-17 23:01:21.78	28.06	14.36	-43.0	-45.6	18.0	0.00e+00	0	39	0	125829120	57	4925
2026-01-17 23:01:22.92	28.15	14.47	-42.9	-45.5	18.0	0.00e+00	0	39	0	127926272	57	4849
2026-01-17 23:01:23.77	28.21	14.55	-43.0	-45.7	17.9	0.00e+00	0	39	0	130023424	57	4931
2026-01-17 23:01:24.91	28.30	14.66	-42.9	-45.5	18.1	0.00e+00	0	39	0	132120576	57	4835
2026-01-17 23:01:25.76	28.37	14.75	-42.8	-45.4	18.2	0.00e+00	0	38	0	133169152	57	4782
2026-01-17 23:01:26.90	28.46	14.86	-42.7	-45.2	18.3	0.00e+00	0	38	0	135266304	57	4705
2026-01-17 23:01:27.75	28.52	14.94	-42.7	-45.2	18.3	0.00e+00	0	38	0	137363456	57	4699
2026-01-17 23:01:29.00	28.62	15.06	-42.7	-45.2	18.4	0.00e+00	0	38	0	139460608	57	4684
2026-01-17 23:01:29.85	28.69	15.15	-42.6	-45.2	18.4	0.00e+00	0	39	0	140509184	57	4675
2026-01-17 23:01:31.07	28.79	15.27	-42.7	-45.2	18.4	0.00e+00	0	39	0	143654912	57	4683
2026-01-17 23:01:31.92	28.86	15.35	-42.6	-45.1	18.5	0.00e+00	0	39	0	144703488	57	4602
2026-01-17 23:01:33.12	28.96	15.47	-42.7	-45.2	18.4	0.00e+00	0	39	0	146800640	57	4677
2026-01-17 23:01:34.40	29.06	15.60	-42.6	-45.1	18.5	0.00e+00	0	39	0	149946368	57	4617
2026-01-17 23:01:35.11	29.12	15.67	-42.7	-45.1	18.5	0.00e+00	0	39	0	150994944	57	4640
2026-01-17 23:01:36.39	29.22	15.80	-42.8	-45.3	18.3	0.00e+00	0	39	0	153092096	57	4720
2026-01-17 23:01:37.11	29.29	15.88	-42.7	-45.2	18.4	0.00e+00	0	39	0	154140672	57	4672
2026-01-17 23:01:38.44	29.40	16.01	-42.8	-45.2	18.4	0.00e+00	0	39	0	157286400	57	4675
2026-01-17 23:01:39.15	29.46	16.09	-42.9	-45.4	18.2	0.00e+00	0	38	0	158334976	57	4765
2026-01-17 23:01:40.52	29.57	16.23	-42.9	-45.4	18.2	0.00e+00	0	39	0	161480704	57	4800
2026-01-17 23:01:41.23	29.63	16.30	-42.9	-45.4	18.2	0.00e+00	0	39	0	162529280	57	4800
2026-01-17 23:01:42.58	29.75	16.44	-42.9	-45.3	18.3	0.00e+00	0	39	0	164626432	57	4754
2026-01-17 23:01:43.29	29.81	16.51	-43.0	-45.5	18.1	0.00e+00	0	39	0	165675008	57	4837
2026-01-17 23:01:44.64	29.93	16.65	-43.0	-45.5	18.1	0.00e+00	0	39	0	168820736	57	4854
2026-01-17 23:01:45.36	29.99	16.73	-43.1	-45.6	18.0	0.00e+00	0	39	0	169869312	57	4898
2026-01-17 23:01:46.64	30.11	16.86	-43.1	-45.7	17.9	0.00e+00	0	39	0	171966464	57	4947
2026-01-17 23:01:47.69	30.20	16.97	-43.1	-45.7	17.9	0.00e+00	0	38	0	174063616	57	4964
2026-01-17 23:01:48.58	30.28	17.07	-43.2	-45.8	17.9	0.00e+00	0	39	0	176160768	57	4998
2026-01-17 23:01:49.71	30.38	17.19	-43.2	-45.8	17.9	0.00e+00	0	38	0	178257920	57	5021
2026-01-17 23:01:50.57	30.46	17.28	-43.1	-45.8	17.9	0.00e+00	0	39	0	179306496	57	4990
2026-01-17 23:01:51.71	30.57	17.40	-43.2	-45.9	17.8	0.00e+00	0	39	0	182452224	57	5043
2026-01-17 23:01:52.56	30.65	17.49	-43.2	-45.8	17.8	0.00e+00	0	38	0	183500800	57	5040
2026-01-17 23:01:53.70	30.75	17.62	-43.2	-45.9	17.8	0.00e+00	0	39	0	185597952	57	5056
2026-01-17 23:01:54.55	30.83	17.71	-43.1	-45.7	18.0	0.00e+00	0	39	0	187695104	57	4977
2026-01-17 23:01:55.69	30.94	17.83	-43.2	-45.9	17.8	0.00e+00	0	39	0	189792256	57	5060
2026-01-17 23:01:56.54	31.02	17.93	-43.3	-45.9	17.8	0.00e+00	0	39	0	190840832	57	5072
2026-01-17 23:01:57.68	31.13	18.05	-43.4	-46.0	17.7	0.00e+00	0	39	0	192937984	57	5130
2026-01-17 23:01:58.53	31.21	18.14	-43.2	-45.8	17.9	0.00e+00	0	39	0	195035136	57	5016
2026-01-17 23:01:59.67	31.32	18.27	-43.4	-46.0	17.7	0.00e+00	0	39	0	197132288	57	5108
2026-01-17 23:02:00.52	31.40	18.36	-43.4	-46.0	17.7	0.00e+00	0	39	0	198180864	57	5107
2026-01-17 23:02:01.66	31.52	18.49	-43.4	-46.1	17.7	0.00e+00	0	39	0	200278016	57	5161
2026-01-17 23:02:02.68	31.62	18.60	-43.5	-46.1	17.6	0.00e+00	0	39	0	202375168	57	5186
2026-01-17 23:02:03.85	31.73	18.74	-43.4	-46.0	17.7	0.00e+00	0	39	0	204472320	57	5106
2026-01-17 23:02:04.71	31.82	18.83	-43.5	-46.1	17.6	0.00e+00	0	39	0	206569472	57	5182
2026-01-17 23:02:05.85	31.94	18.96	-43.5	-46.1	17.5	0.00e+00	0	39	0	208666624	57	5206
2026-01-17 23:02:06.70	32.02	19.06	-43.5	-46.1	17.6	0.00e+00	0	39	0	209715200	57	5209
2026-01-17 23:02:07.83	32.14	19.19	-43.6	-46.2	17.5	0.00e+00	0	39	0	211812352	57	5264
2026-01-17 23:02:08.69	32.23	19.29	-43.5	-46.2	17.5	0.00e+00	0	39	0	213909504	57	5231
2026-01-17 23:02:09.82	32.35	19.42	-43.4	-46.1	17.6	0.00e+00	0	39	0	216006656	57	5180
2026-01-17 23:02:10.68	32.44	19.51	-43.3	-45.9	17.8	0.00e+00	0	39	0	217055232	57	5097
2026-01-17 23:02:11.82	32.56	19.65	-43.3	-45.9	17.8	0.00e+00	0	39	0	219152384	57	5089
2026-01-17 23:02:12.67	32.65	19.74	-43.3	-45.9	17.9	0.00e+00	0	39	0	221249536	57	5060
2026-01-17 23:02:13.80	32.77	19.88	-43.3	-45.9	17.8	0.00e+00	0	39	0	223346688	57	5074
2026-01-17 23:02:14.66	32.86	19.98	-43.3	-45.9	17.8	0.00e+00	0	39	0	225443840	57	5060
2026-01-17 23:02:15.87	32.99	20.12	-43.1	-45.7	18.0	0.00e+00	0	39	0	227540992	57	4973
2026-01-17 23:02:16.72	33.09	20.22	-43.1	-45.6	18.1	0.00e+00	0	39	0	228589568	57	4915
2026-01-17 23:02:17.92	33.22	20.36	-43.2	-45.8	18.0	0.00e+00	0	39	0	230686720	57	4989
2026-01-17 23:02:18.77	33.31	20.46	-43.2	-45.7	18.0	0.00e+00	0	39	0	232783872	57	4965
2026-01-17 23:02:19.91	33.44	20.60	-43.2	-45.8	18.0	0.00e+00	0	39	0	234881024	57	4996
2026-01-17 23:02:20.76	33.54	20.70	-43.2	-45.8	18.0	0.00e+00	0	39	0	235929600	57	4991
2026-01-17 23:02:22.01	33.68	20.85	-43.2	-45.7	18.0	0.00e+00	0	39	0	239075328	57	4954
2026-01-17 23:02:22.86	33.78	20.95	-43.2	-45.8	18.0	0.00e+00	0	39	0	240123904	57	4992
2026-01-17 23:02:24.03	33.91	21.10	-43.3	-45.9	17.9	0.00e+00	0	39	0	242221056	57	5063
2026-01-17 23:02:24.88	34.01	21.20	-43.3	-45.8	17.9	0.00e+00	0	39	0	244318208	57	5028
2026-01-17 23:02:26.08	34.15	21.35	-43.1	-45.6	18.1	0.00e+00	0	39	0	246415360	57	4906
2026-01-17 23:02:26.94	34.25	21.45	-43.2	-45.7	18.1	0.00e+00	0	39	0	247463936	57	4938
2026-01-17 23:02:28.08	34.39	21.59	-43.1	-45.6	18.1	0.00e+00	0	39	0	250609664	57	4907
2026-01-17 23:02:28.93	34.49	21.70	-43.1	-45.6	18.1	0.00e+00	0	39	0	251658240	57	4890
2026-01-17 23:02:30.07	34.63	21.84	-43.2	-45.7	18.1	0.00e+00	0	39	0	253755392	57	4951
2026-01-17 23:02:30.93	34.74	21.95	-43.2	-45.7	18.1	0.00e+00	0	39	0	255852544	57	4944
2026-01-17 23:02:32.07	34.88	22.09	-43.2	-45.7	18.1	0.00e+00	0	39	0	257949696	57	4951
2026-01-17 23:02:33.00	34.99	22.21	-43.2	-45.7	18.1	0.00e+00	0	39	0	258998272	57	4958
2026-01-17 23:02:34.00	35.12	22.33	-43.2	-45.7	18.0	0.00e+00	0	39	0	261095424	57	4975
2026-01-17 23:02:34.99	35.24	22.46	-43.3	-45.8	17.9	0.00e+00	0	39	0	263192576	57	5032
2026-01-17 23:02:35.99	35.37	22.59	-43.3	-45.9	17.9	0.00e+00	0	39	0	265289728	57	5069
2026-01-17 23:02:36.98	35.50	22.71	-43.3	-45.8	17.9	0.00e+00	0	39	0	266338304	57	5040
2026-01-17 23:02:37.98	35.62	22.84	-43.2	-45.7	18.0	0.00e+00	0	39	0	268435456	57	4978
2026-01-17 23:02:38.98	35.75	22.97	-43.2	-45.8	18.0	0.00e+00	0	39	0	270532608	57	4999
2026-01-17 23:02:39.97	35.88	23.10	-43.2	-45.7	18.1	0.00e+00	0	39	0	272629760	57	4946
2026-01-17 23:02:40.97	36.02	23.23	-43.1	-45.7	18.1	0.00e+00	0	39	0	274726912	57	4933
2026-01-17 23:02:41.96	36.15	23.36	-43.0	-45.5	18.2	0.00e+00	0	39	0	275775488	57	4849
2026-01-17 23:02:42.98	36.29	23.49	-43.0	-45.5	18.3	0.00e+00	0	39	0	277872640	57	4838
2026-01-17 23:02:43.97	36.42	23.62	-43.1	-45.5	18.2	0.00e+00	0	39	0	279969792	57	4854
2026-01-17 23:02:44.96	36.55	23.75	-43.1	-45.6	18.2	0.00e+00	0	39	0	282066944	57	4899
2026-01-17 23:02:45.96	36.69	23.88	-43.1	-45.5	18.2	0.00e+00	0	39	0	284164096	57	4863
2026-01-17 23:02:46.95	36.83	24.01	-43.1	-45.6	18.2	0.00e+00	0	39	0	285212672	57	4871
2026-01-17 23:02:47.94	36.97	24.14	-43.1	-45.6	18.2	0.00e+00	0	39	0	287309824	57	4906
2026-01-17 23:02:48.93	37.11	24.28	-43.1	-45.6	18.2	0.00e+00	0	39	0	289406976	57	4902
2026-01-17 23:02:49.93	37.25	24.41	-43.1	-45.6	18.2	0.00e+00	0	39	0	291504128	57	4900
2026-01-17 23:02:50.92	37.39	24.54	-43.2	-45.7	18.1	0.00e+00	0	39	0	292552704	57	4930
2026-01-17 23:02:51.92	37.54	24.68	-43.1	-45.6	18.2	0.00e+00	0	39	0	294649856	57	4905
2026-01-17 23:02:52.91	37.68	24.81	-43.2	-45.7	18.1	0.00e+00	0	39	0	296747008	57	4959
2026-01-17 23:02:53.91	37.83	24.95	-43.2	-45.7	18.1	0.00e+00	0	39	0	298844160	57	4949
2026-01-17 23:02:54.91	37.98	25.09	-43.0	-45.5	18.3	0.00e+00	0	39	0	300941312	57	4838
2026-01-17 23:02:55.93	38.13	25.23	-43.0	-45.4	18.3	0.00e+00	0	39	0	301989888	57	4809
2026-01-17 23:02:56.96	38.28	25.37	-43.0	-45.4	18.4	0.00e+00	0	39	0	304087040	57	4787
2026-01-17 23:02:57.99	38.44	25.51	-42.9	-45.3	18.4	0.00e+00	0	39	0	306184192	57	4759
2026-01-17 23:02:58.98	38.59	25.65	-43.0	-45.4	18.4	0.00e+00	0	39	0	308281344	57	4789
2026-01-17 23:02:59.98	38.75	25.79	-43.0	-45.4	18.3	0.00e+00	0	39	0	310378496	57	4798
2026-01-17 23:03:00.97	38.90	25.93	-43.0	-45.5	18.3	0.00e+00	0	39	0	311427072	57	4837
2026-01-17 23:03:01.97	39.06	26.07	-43.1	-45.6	18.2	0.00e+00	0	39	0	313524224	57	4905
2026-01-17 23:03:02.96	39.22	26.21	-43.2	-45.8	18.1	0.00e+00	0	39	0	315621376	57	4989
2026-01-17 23:03:03.95	39.37	26.35	-43.3	-45.8	18.0	0.00e+00	0	39	0	317718528	57	5011
2026-01-17 23:03:04.95	39.54	26.49	-43.4	-45.9	17.9	0.00e+00	0	39	0	319815680	57	5083
2026-01-17 23:03:05.94	39.70	26.63	-43.5	-46.1	17.7	0.00e+00	0	39	0	320864256	57	5192
2026-01-17 23:03:06.94	39.86	26.78	-43.6	-46.1	17.7	0.00e+00	0	39	0	322961408	57	5218
2026-01-17 23:03:07.93	40.02	26.92	-43.7	-46.3	17.6	0.00e+00	0	39	0	325058560	58	5019
2026-01-17 23:03:08.93	40.19	27.06	-43.8	-46.4	17.5	0.00e+00	0	39	0	327155712	58	5062
2026-01-17 23:03:09.92	40.36	27.20	-43.8	-46.5	17.4	0.00e+00	0	39	0	328204288	58	5113
2026-01-17 23:03:10.92	40.53	27.35	-43.8	-46.5	17.4	0.00e+00	0	39	0	330301440	58	5112
2026-01-17 23:03:11.91	40.70	27.49	-43.9	-46.5	17.4	0.00e+00	0	39	0	332398592	58	5143
2026-01-17 23:03:12.96	40.88	27.65	-43.9	-46.6	17.3	0.00e+00	0	39	0	334495744	58	5184
2026-01-17 23:03:13.90	41.05	27.79	-43.9	-46.6	17.3	0.00e+00	0	39	0	336592896	58	5205
2026-01-17 23:03:14.90	41.22	27.93	-44.0	-46.7	17.2	0.00e+00	0	39	0	337641472	58	5256
2026-01-17 23:03:15.89	41.40	28.08	-43.9	-46.6	17.2	0.00e+00	0	39	0	339738624	58	5207
2026-01-17 23:03:16.89	41.58	28.23	-44.0	-46.7	17.2	0.00e+00	0	39	0	341835776	58	5246
2026-01-17 23:03:17.89	41.76	28.38	-44.1	-46.9	17.0	0.00e+00	0	39	0	343932928	58	5374
2026-01-17 23:03:18.88	41.94	28.52	-44.2	-47.0	16.8	0.00e+00	0	39	0	344981504	59	5151
2026-01-17 23:03:19.88	42.12	28.67	-44.4	-47.2	16.7	0.00e+00	0	39	0	347078656	59	5267
2026-01-17 23:03:20.87	42.31	28.82	-44.5	-47.3	16.5	0.00e+00	0	39	0	349175808	59	5332
2026-01-17 23:03:21.87	42.50	28.97	-44.6	-47.5	16.4	0.00e+00	0	39	0	351272960	59	5442
2026-01-17 23:03:22.86	42.68	29.12	-44.6	-47.6	16.3	0.00e+00	0	39	0	353370112	60	5178
2026-01-17 23:03:23.86	42.88	29.27	-44.8	-47.8	16.1	0.00e+00	0	39	0	354418688	60	5337
2026-01-17 23:03:24.85	43.07	29.42	-44.9	-48.0	15.9	0.00e+00	0	39	0	356515840	60	5415
2026-01-17 23:03:25.86	43.26	29.58	-45.0	-48.1	15.8	0.00e+00	0	39	0	358612992	60	5517
2026-01-17 23:03:26.86	43.46	29.73	-45.0	-48.2	15.8	0.00e+00	0	39	0	360710144	60	5547
2026-01-17 23:03:27.85	43.66	29.88	-45.1	-48.2	15.8	0.00e+00	0	39	0	361758720	60	5551
2026-01-17 23:03:28.84	43.86	30.04	-45.0	-48.1	15.8	0.00e+00	0	39	0	363855872	60	5516
2026-01-17 23:03:29.84	44.06	30.19	-45.0	-48.1	15.9	0.00e+00	0	39	0	365953024	60	5467
2026-01-17 23:03:30.83	44.26	30.34	-44.6	-47.6	16.3	0.00e+00	0	39	0	368050176	60	5189
2026-01-17 23:03:31.82	44.46	30.50	-44.4	-47.3	16.7	0.00e+00	0	39	0	370147328	60	5004
2026-01-17 23:03:32.82	44.67	30.65	-44.2	-47.1	16.8	0.00e+00	0	39	0	371195904	60	4874
2026-01-17 23:03:33.81	44.88	30.81	-44.3	-47.1	17.0	0.00e+00	0	39	0	373293056	60	4882
2026-01-17 23:03:34.80	45.09	30.96	-44.3	-47.2	16.8	0.00e+00	0	39	0	375390208	60	4940
2026-01-17 23:03:35.80	45.30	31.12	-44.3	-47.1	16.8	0.00e+00	0	39	0	377487360	60	4889
2026-01-17 23:03:36.79	45.52	31.28	-44.3	-47.1	16.8	0.00e+00	0	39	0	378535936	60	4926
2026-01-17 23:03:37.79	45.74	31.44	-44.3	-47.2	16.7	0.00e+00	0	39	0	380633088	60	4952
2026-01-17 23:03:38.78	45.95	31.59	-44.4	-47.3	16.7	0.00e+00	0	39	0	382730240	60	4992
2026-01-17 23:03:39.78	46.18	31.75	-44.2	-47.1	16.9	0.00e+00	0	39	0	384827392	60	4882
2026-01-17 23:03:40.85	46.42	31.92	-44.3	-47.1	16.8	0.00e+00	0	39	0	386924544	60	4916
2026-01-17 23:03:41.73	46.62	32.06	-44.2	-47.0	17.0	0.00e+00	0	39	0	387973120	60	4831
2026-01-17 23:03:42.87	46.88	32.24	-44.1	-46.8	17.1	0.00e+00	0	39	0	390070272	60	4737
2026-01-17 23:03:43.77	47.08	32.39	-44.0	-46.7	17.2	0.00e+00	0	39	0	392167424	60	4662
2026-01-17 23:03:44.81	47.33	32.56	-44.1	-46.8	17.2	0.00e+00	0	39	0	394264576	59	4985
2026-01-17 23:03:45.93	47.59	32.74	-44.1	-46.9	17.0	0.00e+00	0	39	0	396361728	59	5042
2026-01-17 23:03:46.82	47.80	32.88	-44.0	-46.7	17.2	0.00e+00	0	39	0	397410304	59	4948
2026-01-17 23:03:47.95	48.07	33.06	-44.1	-46.8	17.1	0.00e+00	0	39	0	399507456	59	5008
2026-01-17 23:03:48.81	48.28	33.20	-44.0	-46.7	17.2	0.00e+00	0	39	0	401604608	59	4944
2026-01-17 23:03:49.94	48.56	33.39	-44.0	-46.7	17.2	0.00e+00	0	39	0	403701760	59	4957
2026-01-17 23:03:50.80	48.77	33.53	-44.0	-46.6	17.2	0.00e+00	0	39	0	405798912	59	4923
2026-01-17 23:03:51.94	49.06	33.71	-44.0	-46.6	17.3	0.00e+00	0	39	0	406847488	59	4908
2026-01-17 23:03:52.79	49.27	33.85	-43.9	-46.6	17.3	0.00e+00	0	39	0	408944640	59	4889
2026-01-17 23:03:53.93	49.56	34.04	-44.0	-46.7	17.2	0.00e+00	0	39	0	411041792	59	4960
2026-01-17 23:03:54.78	49.78	34.18	-44.1	-46.9	16.9	0.00e+00	0	39	0	413138944	59	5087
2026-01-17 23:03:55.92	50.08	34.36	-44.2	-47.1	16.8	0.00e+00	0	39	0	415236096	59	5182
2026-01-17 23:03:56.77	50.30	34.50	-44.1	-46.9	17.0	0.00e+00	0	39	0	416284672	59	5067
2026-01-17 23:03:57.90	50.60	34.69	-44.0	-46.7	17.2	0.00e+00	0	39	0	418381824	59	4967
2026-01-17 23:03:58.75	50.83	34.83	-43.9	-46.6	17.3	0.00e+00	0	39	0	420478976	59	4894
2026-01-17 23:04:00.00	51.17	35.03	-43.9	-46.6	17.3	0.00e+00	0	39	0	422576128	59	4920
2026-01-17 23:04:00.85	51.40	35.17	-44.0	-46.8	17.1	0.00e+00	0	39	0	423624704	59	5011
2026-01-17 23:04:01.99	51.72	35.36	-44.2	-47.0	16.9	0.00e+00	0	39	0	425721856	59	5119
2026-01-17 23:04:02.84	51.95	35.50	-44.4	-47.2	16.7	0.00e+00	0	39	0	427819008	59	5257
2026-01-17 23:04:04.10	52.31	35.71	-44.1	-46.9	17.0	0.00e+00	0	39	0	429916160	59	5068
2026-01-17 23:04:04.91	52.54	35.85	-44.0	-46.8	17.1	0.00e+00	0	39	0	432013312	59	4984
2026-01-17 23:04:06.04	52.86	36.03	-43.7	-46.3	17.6	0.00e+00	0	39	0	434110464	59	4731
2026-01-17 23:04:06.90	53.11	36.17	-43.5	-46.0	17.8	0.00e+00	0	39	0	435159040	59	4588
2026-01-17 23:04:08.03	53.45	36.36	-43.3	-45.8	18.1	0.00e+00	0	39	0	437256192	58	4746
2026-01-17 23:04:08.89	53.70	36.50	-43.2	-45.7	18.2	0.00e+00	0	39	0	439353344	58	4661
2026-01-17 23:04:10.02	54.04	36.69	-43.1	-45.6	18.3	0.00e+00	0	39	0	441450496	57	4896
2026-01-17 23:04:10.88	54.30	36.83	-43.4	-45.9	18.0	0.00e+00	0	39	0	442499072	57	5087
2026-01-17 23:04:12.01	54.64	37.02	-43.5	-46.1	17.7	0.00e+00	0	39	0	444596224	57	5182
2026-01-17 23:04:12.87	54.91	37.16	-43.6	-46.2	17.7	0.00e+00	0	39	0	446693376	57	5224
2026-01-17 23:04:14.00	55.26	37.35	-43.5	-46.1	17.8	0.00e+00	0	39	0	448790528	57	5179
2026-01-17 23:04:14.85	55.53	37.49	-44.2	-46.4	17.6	0.00e+00	0	39	0	450887680	58	5094
2026-01-17 23:04:15.99	55.89	37.68	-43.5	-46.1	17.8	0.00e+00	0	39	0	451936256	58	4887
2026-01-17 23:04:16.84	56.16	37.82	-43.5	-46.0	17.9	0.00e+00	0	39	0	454033408	58	4858
2026-01-17 23:04:18.12	56.58	38.03	-43.2	-45.7	18.2	0.00e+00	0	39	0	456130560	58	4661
2026-01-17 23:04:18.83	56.81	38.15	-43.2	-45.7	18.2	0.00e+00	0	39	0	458227712	58	4690
2026-01-17 23:04:20.11	57.24	38.36	-42.9	-45.3	18.5	0.00e+00	0	39	0	460324864	57	4755
2026-01-17 23:04:20.82	57.47	38.48	-43.0	-45.4	18.4	0.00e+00	0	39	0	461373440	57	4807
2026-01-17 23:04:22.10	57.90	38.68	-43.2	-45.7	18.2	0.00e+00	0	39	0	463470592	57	4939
2026-01-17 23:04:22.81	58.15	38.80	-43.5	-46.0	17.9	0.00e+00	0	39	0	465567744	57	5144
2026-01-17 23:04:24.09	58.59	39.01	-43.7	-46.4	17.5	0.00e+00	0	39	0	467664896	58	5049
2026-01-17 23:04:24.89	58.87	39.14	-43.9	-46.6	17.3	0.00e+00	0	39	0	468713472	58	5189
2026-01-17 23:04:26.03	59.27	39.33	-44.0	-46.7	17.2	0.00e+00	0	39	0	470810624	58	5261
2026-01-17 23:04:26.88	59.57	39.46	-44.0	-46.7	17.2	0.00e+00	0	39	0	472907776	58	5241
2026-01-17 23:04:28.02	59.98	39.65	-44.0	-46.7	17.3	0.00e+00	0	39	0	475004928	58	5241
2026-01-17 23:04:28.88	60.29	39.79	-43.8	-46.5	17.5	0.00e+00	0	39	0	477102080	58	5106
2026-01-17 23:04:30.01	60.70	39.97	-43.7	-46.3	17.6	0.00e+00	0	39	0	479199232	58	5009
2026-01-17 23:04:30.87	61.02	40.11	-43.6	-46.2	17.8	0.00e+00	0	39	0	480247808	58	4936
2026-01-17 23:04:32.00	61.44	40.29	-43.6	-46.2	17.7	0.00e+00	0	39	0	482344960	58	4944
2026-01-17 23:04:32.86	61.76	40.42	-43.6	-46.2	17.7	0.00e+00	0	39	0	484442112	58	4953
2026-01-17 23:04:34.08	62.23	40.62	-43.7	-46.3	17.7	0.00e+00	0	39	0	486539264	58	4987
2026-01-17 23:04:34.93	62.55	40.75	-43.6	-46.1	17.8	0.00e+00	0	39	0	487587840	58	4907
2026-01-17 23:04:36.13	63.02	40.94	-43.6	-46.1	17.8	0.00e+00	0	39	0	490733568	58	4925
2026-01-17 23:04:36.98	63.35	41.07	-43.5	-46.1	17.9	0.00e+00	0	39	0	491782144	58	4879
2026-01-17 23:04:38.12	63.80	41.25	-43.1	-45.5	18.3	0.00e+00	0	39	0	493879296	58	4598
2026-01-17 23:04:38.97	64.14	41.38	-43.0	-45.3	18.5	0.00e+00	0	39	0	495976448	57	4746
2026-01-17 23:04:40.11	64.60	41.55	-43.0	-45.4	18.5	0.00e+00	0	39	0	498073600	57	4790
2026-01-17 23:04:40.96	64.94	41.68	-43.2	-45.7	18.3	0.00e+00	0	39	0	499122176	57	4935
2026-01-17 23:04:42.10	65.41	41.86	-43.4	-46.0	17.9	0.00e+00	0	39	0	501219328	57	5116
2026-01-17 23:04:42.95	65.76	41.98	-43.5	-46.1	17.9	0.00e+00	0	39	0	503316480	57	5167
2026-01-17 23:04:44.09	66.24	42.15	-43.5	-46.0	17.9	0.00e+00	0	39	0	505413632	57	5148
2026-01-17 23:04:45.13	66.68	42.31	-43.4	-45.9	18.0	0.00e+00	0	39	0	507510784	57	5080
2026-01-17 23:04:46.30	67.18	42.48	-43.4	-45.9	18.0	0.00e+00	0	39	0	509607936	57	5078
2026-01-17 23:04:47.15	67.54	42.61	-43.6	-46.2	17.8	0.00e+00	0	39	0	510656512	57	5222
2026-01-17 23:04:48.49	68.12	42.80	-43.8	-46.4	17.5	0.00e+00	0	39	0	513802240	58	5095
2026-01-17 23:04:49.20	68.44	42.90	-44.0	-46.6	17.3	0.00e+00	0	39	0	514850816	58	5196
2026-01-17 23:04:50.68	69.09	43.11	-44.1	-46.8	17.2	0.00e+00	0	39	0	517996544	58	5302
2026-01-17 23:04:51.65	69.52	43.25	-44.3	-47.0	16.9	0.00e+00	0	39	0	519045120	59	5140
2026-01-17 23:04:52.96	70.12	43.43	-44.4	-47.2	16.8	0.00e+00	0	39	0	522190848	59	5252
2026-01-17 23:04:53.67	70.44	43.53	-44.4	-47.2	16.8	0.00e+00	0	39	0	523239424	59	5223
2026-01-17 23:04:54.95	71.03	43.70	-44.4	-47.3	16.7	0.00e+00	0	39	0	525336576	59	5300
2026-01-17 23:04:55.67	71.36	43.80	-44.7	-47.7	16.4	0.00e+00	0	39	0	526385152	60	5228
2026-01-17 23:04:56.96	71.96	43.97	-45.2	-48.3	15.6	0.00e+00	0	39	0	529530880	61	5324
2026-01-17 23:04:57.67	72.30	44.06	-45.2	-48.4	15.6	0.00e+00	0	39	0	530579456	61	5351
2026-01-17 23:04:58.95	72.91	44.23	-44.8	-47.9	16.1	0.00e+00	0	39	0	532676608	61	5063
2026-01-17 23:04:59.66	73.25	44.32	-44.5	-47.3	16.7	0.00e+00	0	39	0	534773760	60	5029
2026-01-17 23:05:00.94	73.87	44.48	-44.2	-47.0	17.0	0.00e+00	0	39	0	536870912	60	4840
2026-01-17 23:05:01.66	74.22	44.57	-44.2	-47.0	17.0	0.00e+00	0	39	0	537919488	60	4828
2026-01-17 23:05:03.02	74.88	44.73	-44.3	-47.0	17.0	0.00e+00	0	39	0	541065216	60	4865
2026-01-17 23:05:03.73	75.23	44.82	-44.4	-47.2	16.8	0.00e+00	0	39	0	542113792	60	4946
2026-01-17 23:05:05.08	75.91	44.98	-44.7	-47.7	16.4	0.00e+00	0	39	0	544210944	60	5232
2026-01-17 23:05:05.79	76.26	45.06	-44.8	-47.8	16.2	0.00e+00	0	39	0	546308096	60	5324
2026-01-17 23:05:07.15	76.95	45.21	-45.1	-48.2	15.9	0.00e+00	0	39	0	548405248	60	5529
2026-01-17 23:05:07.86	77.31	45.29	-44.9	-47.9	16.1	0.00e+00	0	39	0	549453824	60	5376
2026-01-17 23:05:09.14	77.97	45.43	-44.6	-47.5	16.5	0.00e+00	0	39	0	552599552	60	5143
2026-01-17 23:05:10.18	78.50	45.55	-44.6	-47.4	16.6	0.00e+00	0	39	0	553648128	60	5073
2026-01-17 23:05:11.15	79.01	45.65	-44.6	-47.5	16.6	0.00e+00	0	39	0	555745280	60	5120
2026-01-17 23:05:12.15	79.53	45.75	-44.4	-47.2	16.7	0.00e+00	0	39	0	557842432	60	4975
2026-01-17 23:05:13.14	80.05	45.85	-44.2	-47.1	16.9	0.00e+00	0	39	0	559939584	60	4885
2026-01-17 23:05:14.14	80.58	45.95	-44.1	-46.9	17.1	0.00e+00	0	39	0	560988160	60	4809
2026-01-17 23:05:15.13	81.11	46.04	-44.5	-47.5	16.6	0.00e+00	0	39	0	563085312	60	5135
2026-01-17 23:05:16.13	81.65	46.13	-44.8	-47.9	16.1	0.00e+00	0	39	0	565182464	60	5390
2026-01-17 23:05:17.14	82.19	46.22	-44.9	-48.0	16.0	0.00e+00	0	39	0	567279616	60	5463
2026-01-17 23:05:18.15	82.74	46.31	-44.8	-47.9	16.1	0.00e+00	0	39	0	569376768	60	5384
2026-01-17 23:05:19.18	83.30	46.40	-44.4	-47.4	16.6	0.00e+00	0	39	0	570425344	60	5051
2026-01-17 23:05:20.17	83.85	46.48	-44.2	-47.2	16.8	0.00e+00	0	39	0	572522496	60	4952
2026-01-17 23:05:21.17	84.40	46.56	-44.3	-47.3	16.7	0.00e+00	0	39	0	574619648	60	4991
2026-01-17 23:05:22.16	84.95	46.64	-44.1	-46.9	17.1	0.00e+00	0	39	0	576716800	59	5060
2026-01-17 23:05:23.16	85.51	46.71	-44.0	-46.8	17.1	0.00e+00	0	39	0	578813952	59	5019
2026-01-17 23:05:24.15	86.06	46.78	-44.3	-47.1	16.9	0.00e+00	0	39	0	579862528	59	5190
2026-01-17 23:05:25.35	86.73	46.87	-44.3	-47.2	16.8	0.00e+00	0	39	0	583008256	59	5256
2026-01-17 23:05:26.24	87.24	46.92	-44.6	-47.6	16.4	0.00e+00	0	39	0	584056832	59	5473
2026-01-17 23:05:27.37	87.88	47.00	-45.2	-48.4	15.6	0.00e+00	0	39	0	586153984	60	5716
2026-01-17 23:05:28.28	88.40	47.05	-45.1	-48.5	15.5	0.00e+00	0	39	0	588251136	61	5434
2026-01-17 23:05:29.49	89.09	47.12	-44.7	-47.9	16.1	0.00e+00	0	39	0	590348288	61	5045
2026-01-17 23:05:30.35	89.58	47.16	-44.6	-47.6	16.4	0.00e+00	0	39	0	592445440	61	4882
2026-01-17 23:05:31.48	90.23	47.22	-44.2	-47.1	17.0	0.00e+00	0	39	0	593494016	60	4875
2026-01-17 23:05:32.34	90.73	47.26	-44.6	-47.6	16.4	0.00e+00	0	39	0	595591168	60	5190
2026-01-17 23:05:33.47	91.38	47.31	-45.4	-48.7	15.5	0.00e+00	0	39	0	597688320	61	5548
2026-01-17 23:05:34.33	91.88	47.35	-45.3	-48.5	15.6	0.00e+00	0	39	0	599785472	61	5408
2026-01-17 23:05:35.47	92.55	47.39	-45.2	-48.5	15.5	0.00e+00	0	39	0	601882624	61	5440
2026-01-17 23:05:36.32	93.04	47.42	-44.6	-47.6	16.4	0.00e+00	0	39	0	602931200	61	4918
2026-01-17 23:05:37.46	93.71	47.46	-43.7	-46.3	17.6	0.00e+00	0	39	0	605028352	59	4742
2026-01-17 23:05:38.31	94.21	47.48	-43.3	-45.8	18.1	0.00e+00	0	39	0	607125504	58	4712
2026-01-17 23:05:39.45	94.88	47.51	-43.0	-45.4	18.5	0.00e+00	0	39	0	609222656	58	4526
2026-01-17 23:05:40.30	95.38	47.53	-43.1	-45.5	18.4	0.00e+00	0	39	0	610271232	58	4597
2026-01-17 23:05:41.44	96.05	47.55	-43.5	-46.0	17.9	0.00e+00	0	39	0	612368384	58	4841
2026-01-17 23:05:42.29	96.55	47.56	-43.5	-46.0	18.0	0.00e+00	0	39	0	614465536	58	4841
2026-01-17 23:05:43.42	97.22	47.58	-43.4	-45.9	18.0	0.00e+00	0	39	0	616562688	58	4786
2026-01-17 23:05:44.28	97.72	47.59	-43.5	-46.0	17.9	0.00e+00	0	39	0	617611264	58	4865
2026-01-17 23:05:45.41	98.39	47.59	-44.0	-46.7	17.4	0.00e+00	0	39	0	619708416	58	5223
2026-01-17 23:05:46.30	98.92	47.60	-44.2	-47.0	17.0	0.00e+00	0	39	0	621805568	59	5113
2026-01-17 23:05:47.61	99.69	47.60	-44.4	-47.2	16.8	0.00e+00	0	39	0	623902720	59	5274
2026-01-17 23:05:48.32	100.11	47.59	-44.3	-47.1	16.9	0.00e+00	0	39	0	625999872	59	5198
2026-01-17 23:05:49.60	100.87	47.59	-44.0	-46.7	17.3	0.00e+00	0	39	0	628097024	59	4934
2026-01-17 23:05:50.32	101.29	47.58	-44.1	-46.9	17.2	0.00e+00	0	39	0	629145600	59	5051
2026-01-17 23:05:51.61	102.05	47.56	-44.3	-47.1	16.8	0.00e+00	0	39	0	632291328	59	5201
2026-01-17 23:05:52.33	102.48	47.55	-44.3	-47.1	16.9	0.00e+00	0	39	0	633339904	59	5196
2026-01-17 23:05:53.61	103.23	47.52	-44.3	-47.1	17.0	0.00e+00	0	39	0	635437056	59	5163
2026-01-17 23:05:54.32	103.65	47.51	-44.2	-46.9	17.1	0.00e+00	0	39	0	636485632	59	5070
2026-01-17 23:05:55.60	104.40	47.47	-44.4	-47.3	16.8	0.00e+00	0	39	0	639631360	59	5281
2026-01-17 23:05:56.50	104.93	47.45	-44.6	-47.5	16.5	0.00e+00	0	39	0	640679936	59	5420
2026-01-17 23:05:57.60	105.57	47.41	-44.6	-47.5	16.5	0.00e+00	0	39	0	642777088	60	5141
2026-01-17 23:05:58.65	106.18	47.37	-44.3	-47.1	17.0	0.00e+00	0	39	0	644874240	60	4883
2026-01-17 23:05:59.61	106.74	47.33	-43.8	-46.5	17.4	0.00e+00	0	39	0	646971392	59	4841
2026-01-17 23:06:00.87	107.47	47.28	-43.9	-46.5	17.5	0.00e+00	0	39	0	649068544	59	4867
2026-01-17 23:06:01.72	107.97	47.24	-44.1	-46.8	17.2	0.00e+00	0	39	0	651165696	59	5019
2026-01-17 23:06:02.86	108.62	47.18	-44.2	-47.0	17.0	0.00e+00	0	39	0	653262848	59	5105
2026-01-17 23:06:03.71	109.11	47.14	-44.1	-46.7	17.3	0.00e+00	0	39	0	654311424	59	4977
2026-01-17 23:06:05.11	109.91	47.06	-44.2	-46.9	17.2	0.00e+00	0	39	0	657457152	59	5047
2026-01-17 23:06:06.23	110.55	47.00	-44.8	-47.7	16.3	0.00e+00	0	39	0	659554304	60	5268
2026-01-17 23:06:07.08	111.04	46.94	-45.1	-48.3	15.8	0.00e+00	0	39	0	660602880	60	5618
2026-01-17 23:06:08.22	111.68	46.87	-45.7	-49.1	15.0	0.00e+00	0	39	0	662700032	61	5830
2026-01-17 23:06:09.07	112.16	46.81	-45.4	-48.7	15.4	0.00e+00	0	39	0	664797184	62	5229
2026-01-17 23:06:10.21	112.80	46.73	-44.9	-47.9	16.1	0.00e+00	0	39	0	666894336	61	5083
2026-01-17 23:06:11.06	113.27	46.67	-44.8	-47.7	16.3	0.00e+00	0	39	0	667942912	61	4978
2026-01-17 23:06:12.20	113.91	46.58	-45.7	-49.1	15.0	0.00e+00	0	39	0	670040064	61	5817
2026-01-17 23:06:13.05	114.38	46.51	-46.0	-49.6	14.5	7.00e-07	0	39	0	672137216	62	5855
2026-01-17 23:06:14.19	115.01	46.42	-45.8	-49.2	14.8	0.00e+00	0	39	0	674234368	62	5581
2026-01-17 23:06:15.04	115.47	46.35	-45.7	-49.1	15.0	0.00e+00	0	39	0	675282944	62	5484
2026-01-17 23:06:16.18	116.09	46.25	-45.6	-48.9	15.3	0.00e+00	0	39	0	677380096	62	5342
2026-01-17 23:06:17.24	116.67	46.15	-45.5	-48.7	15.4	0.00e+00	0	39	0	679477248	62	5249
2026-01-17 23:06:18.29	117.23	46.06	-45.7	-49.1	15.1	0.00e+00	0	39	0	681574400	62	5476
2026-01-17 23:06:19.33	117.79	45.96	-45.9	-49.4	14.7	0.00e+00	0	39	0	683671552	62	5697
2026-01-17 23:06:20.47	118.39	45.85	-45.4	-48.6	15.5	0.00e+00	0	39	0	685768704	62	5211
2026-01-17 23:06:21.32	118.84	45.76	-45.3	-48.5	15.6	0.00e+00	0	39	0	687865856	62	5129
2026-01-17 23:06:22.46	119.44	45.64	-45.4	-48.7	15.4	0.00e+00	0	39	0	689963008	62	5265
2026-01-17 23:06:23.31	119.88	45.55	-46.3	-50.1	13.9	0.00e+00	0	39	0	691011584	63	5843
2026-01-17 23:06:24.45	120.47	45.43	-46.1	-49.8	14.3	6.10e-06	0	39	0	693108736	63	5612
2026-01-17 23:06:25.31	120.92	45.34	-45.1	-48.3	15.8	0.00e+00	0	39	0	695205888	62	4996
2026-01-17 23:06:26.44	121.49	45.21	-44.7	-47.6	16.4	0.00e+00	0	39	0	697303040	61	4902
2026-01-17 23:06:27.30	121.93	45.11	-44.1	-46.7	17.3	0.00e+00	0	39	0	698351616	60	4700
2026-01-17 23:06:28.43	122.50	44.98	-44.2	-46.9	17.0	0.00e+00	0	39	0	700448768	59	5089
2026-01-17 23:06:29.29	122.93	44.88	-43.8	-46.4	17.6	0.00e+00	0	39	0	702545920	59	4781
2026-01-17 23:06:30.42	123.49	44.75	-43.3	-45.7	18.3	0.00e+00	0	39	0	704643072	58	4672
2026-01-17 23:06:31.28	123.91	44.64	-42.9	-45.2	18.7	0.00e+00	0	39	0	705691648	57	4705
2026-01-17 23:06:32.43	124.48	44.50	-42.9	-45.3	18.7	0.00e+00	0	39	0	707788800	57	4707
2026-01-17 23:06:33.28	124.89	44.39	-43.2	-45.6	18.4	0.00e+00	0	39	0	709885952	57	4880
2026-01-17 23:06:34.42	125.44	44.25	-43.5	-46.0	18.0	0.00e+00	0	39	0	711983104	57	5107
2026-01-17 23:06:35.27	125.84	44.14	-43.4	-45.9	18.1	0.00e+00	0	39	0	714080256	57	5081
2026-01-17 23:06:36.41	126.39	43.99	-43.0	-45.4	18.5	0.00e+00	0	39	0	716177408	57	4781
2026-01-17 23:06:37.26	126.78	43.88	-42.9	-45.3	18.6	0.00e+00	0	39	0	717225984	57	4752
2026-01-17 23:06:38.40	127.32	43.72	-42.9	-45.3	18.6	0.00e+00	0	39	0	719323136	57	4744
2026-01-17 23:06:39.39	127.77	43.59	-42.9	-45.3	18.7	0.00e+00	0	39	0	721420288	57	4708
2026-01-17 23:06:40.39	128.23	43.45	-42.5	-44.8	19.1	0.00e+00	0	39	0	723517440	57	4472
2026-01-17 23:06:41.39	128.69	43.31	-42.6	-44.9	19.1	0.00e+00	0	39	0	724566016	56	4769
2026-01-17 23:06:42.38	129.13	43.18	-42.6	-44.9	19.1	0.00e+00	0	39	0	726663168	56	4792
2026-01-17 23:06:43.37	129.58	43.04	-43.1	-45.6	18.4	0.00e+00	0	39	0	728760320	56	5181
2026-01-17 23:06:44.37	130.02	42.89	-43.1	-45.6	18.3	0.00e+00	0	39	0	730857472	57	4890
2026-01-17 23:06:45.36	130.45	42.75	-42.7	-45.0	18.9	0.00e+00	0	39	0	732954624	57	4573
2026-01-17 23:06:46.36	130.89	42.61	-42.8	-45.1	18.8	0.00e+00	0	39	0	734003200	57	4648
2026-01-17 23:06:47.35	131.31	42.46	-42.7	-45.1	18.9	0.00e+00	0	39	0	736100352	57	4617
2026-01-17 23:06:48.34	131.74	42.31	-43.4	-45.9	18.1	0.00e+00	0	39	0	738197504	57	5057
2026-01-17 23:06:49.34	132.16	42.16	-43.4	-46.0	18.0	0.00e+00	0	39	0	740294656	57	5108
2026-01-17 23:06:50.38	132.60	42.01	-43.1	-45.5	18.5	0.00e+00	0	39	0	742391808	57	4867
2026-01-17 23:06:51.34	133.00	41.86	-42.8	-45.2	18.8	0.00e+00	0	39	0	743440384	57	4675
2026-01-17 23:06:52.34	133.41	41.71	-42.9	-45.3	18.7	0.00e+00	0	39	0	745537536	57	4721
2026-01-17 23:06:53.33	133.81	41.56	-43.4	-45.9	18.2	0.00e+00	0	39	0	747634688	57	5050
2026-01-17 23:06:54.33	134.22	41.41	-44.3	-47.0	17.1	0.00e+00	0	39	0	749731840	59	5127
2026-01-17 23:06:55.32	134.61	41.25	-44.2	-46.9	17.1	0.00e+00	0	39	0	750780416	59	5042
2026-01-17 23:06:56.32	135.01	41.10	-43.1	-45.6	18.4	0.00e+00	0	39	0	752877568	58	4600
2026-01-17 23:06:57.32	135.40	40.94	-42.7	-45.0	18.9	0.00e+00	0	39	0	754974720	57	4585
2026-01-17 23:06:58.31	135.79	40.78	-42.9	-45.3	18.7	0.00e+00	0	39	0	757071872	57	4737
2026-01-17 23:06:59.31	136.18	40.63	-44.0	-46.6	17.4	0.00e+00	0	39	0	759169024	58	5201
2026-01-17 23:07:00.30	136.55	40.47	-44.7	-47.7	16.4	0.00e+00	0	39	0	760217600	60	5246
2026-01-17 23:07:01.30	136.93	40.31	-44.3	-47.1	17.0	0.00e+00	0	39	0	762314752	60	4882
2026-01-17 23:07:02.30	137.31	40.15	-43.8	-46.4	17.6	0.00e+00	0	39	0	764411904	59	4793
2026-01-17 23:07:03.29	137.67	39.99	-43.5	-46.1	17.9	0.00e+00	0	39	0	766509056	59	4614
2026-01-17 23:07:04.29	138.04	39.83	-43.8	-46.4	17.6	0.00e+00	0	39	0	767557632	59	4797
2026-01-17 23:07:05.28	138.40	39.67	-44.8	-47.8	16.3	0.00e+00	0	39	0	769654784	60	5292
2026-01-17 23:07:06.27	138.76	39.51	-45.4	-48.7	15.4	0.00e+00	0	39	0	771751936	61	5547
2026-01-17 23:07:07.27	139.12	39.35	-45.0	-48.2	15.9	0.00e+00	0	39	0	773849088	61	5220
2026-01-17 23:07:08.26	139.47	39.18	-44.2	-47.0	17.0	0.00e+00	0	39	0	775946240	60	4847
2026-01-17 23:07:09.26	139.82	39.02	-43.8	-46.4	17.6	0.00e+00	0	39	0	776994816	59	4765
2026-01-17 23:07:10.25	140.16	38.86	-44.1	-46.8	17.3	0.00e+00	0	39	0	779091968	59	4987
2026-01-17 23:07:11.25	140.50	38.69	-45.3	-48.6	15.5	0.00e+00	0	39	0	781189120	61	5516
2026-01-17 23:07:12.24	140.84	38.53	-46.7	-51.0	13.0	0.00e+00	0	39	0	783286272	64	6105
2026-01-17 23:07:13.24	141.18	38.37	-46.9	-51.3	12.7	1.14e-04	0	39	0	784334848	64	6284
2026-01-17 23:07:14.23	141.50	38.20	-45.5	-48.9	15.2	7.00e-07	0	39	0	786432000	63	5048
2026-01-17 23:07:15.23	141.83	38.04	-44.3	-47.0	17.0	0.00e+00	0	39	0	788529152	60	4847
2026-01-17 23:07:16.54	142.26	37.82	-44.3	-47.0	17.0	0.00e+00	0	39	0	790626304	60	4851
2026-01-17 23:07:17.28	142.50	37.70	-44.9	-47.9	16.2	0.00e+00	0	39	0	792723456	60	5356
2026-01-17 23:07:18.56	142.91	37.48	-46.1	-49.7	14.4	0.00e+00	0	39	0	794820608	62	5918
2026-01-17 23:07:19.29	143.14	37.36	-46.3	-50.2	13.9	7.00e-07	0	39	0	795869184	63	5912
2026-01-17 23:07:20.57	143.54	37.15	-45.4	-48.7	15.4	2.20e-06	0	39	0	799014912	62	5242
2026-01-17 23:07:21.28	143.76	37.03	-44.5	-47.3	16.7	0.00e+00	0	39	0	800063488	60	5020
2026-01-17 23:07:22.56	144.15	36.82	-43.6	-46.2	17.8	0.00e+00	0	39	0	802160640	59	4658
2026-01-17 23:07:23.28	144.37	36.70	-43.6	-46.1	17.8	0.00e+00	0	39	0	803209216	59	4648
2026-01-17 23:07:24.56	144.76	36.48	-44.1	-46.8	17.2	0.00e+00	0	39	0	806354944	59	5019
2026-01-17 23:07:25.29	144.97	36.36	-45.0	-48.1	16.1	0.00e+00	0	39	0	807403520	60	5481
2026-01-17 23:07:26.57	145.35	36.15	-46.1	-49.8	14.4	0.00e+00	0	39	0	809500672	62	5953
2026-01-17 23:07:27.28	145.56	36.03	-46.0	-49.7	14.4	0.00e+00	0	39	0	811597824	63	5567
2026-01-17 23:07:28.73	145.98	35.79	-44.9	-47.9	16.2	0.00e+00	0	39	0	813694976	61	5053
2026-01-17 23:07:29.44	146.18	35.67	-44.4	-47.1	16.9	0.00e+00	0	39	0	814743552	60	4915
2026-01-17 23:07:30.72	146.54	35.46	-44.0	-46.6	17.4	0.00e+00	0	39	0	817889280	60	4641
2026-01-17 23:07:31.43	146.74	35.34	-44.0	-46.6	17.4	0.00e+00	0	39	0	818937856	59	4889
2026-01-17 23:07:32.71	147.10	35.13	-45.0	-48.0	16.1	0.00e+00	0	39	0	821035008	60	5454
2026-01-17 23:07:33.44	147.30	35.01	-45.5	-48.8	15.3	0.00e+00	0	39	0	823132160	61	5639
2026-01-17 23:07:34.72	147.64	34.79	-46.4	-50.4	13.7	7.00e-07	0	39	0	825229312	63	6018
2026-01-17 23:07:35.43	147.83	34.68	-46.4	-50.4	13.7	6.10e-06	0	39	0	826277888	63	6006
2026-01-17 23:07:36.71	148.17	34.47	-45.3	-48.6	15.4	0.00e+00	0	39	0	828375040	62	5181
2026-01-17 23:07:37.42	148.36	34.35	-44.6	-47.6	16.5	0.00e+00	0	39	0	830472192	61	4877
2026-01-17 23:07:38.70	148.70	34.14	-44.1	-46.8	17.3	0.00e+00	0	39	0	832569344	60	4722
2026-01-17 23:07:39.49	148.90	34.01	-44.1	-46.8	17.3	0.00e+00	0	39	0	833617920	60	4713
2026-01-17 23:07:40.67	149.20	33.81	-43.6	-46.1	17.9	0.00e+00	0	39	0	836763648	59	4636
2026-01-17 23:07:41.65	149.45	33.65	-44.4	-47.2	16.8	0.00e+00	0	39	0	837812224	59	5274
2026-01-17 23:07:42.81	149.74	33.46	-45.6	-49.1	15.0	0.00e+00	0	39	0	839909376	61	5795
2026-01-17 23:07:43.66	149.95	33.32	-46.4	-50.4	13.6	1.50e-06	0	39	0	842006528	63	6029
2026-01-17 23:07:45.00	150.28	33.10	-46.4	-50.3	13.8	1.60e-05	0	39	0	844103680	63	5954
2026-01-17 23:07:45.71	150.45	32.99	-45.8	-49.2	14.8	7.00e-07	0	39	0	846200832	63	5251
2026-01-17 23:07:46.99	150.76	32.78	-44.4	-47.3	16.8	0.00e+00	0	39	0	848297984	60	4985
2026-01-17 23:07:47.70	150.93	32.66	-44.0	-46.6	17.4	0.00e+00	0	39	0	849346560	59	4900
2026-01-17 23:07:49.00	151.24	32.45	-43.8	-46.4	17.5	0.00e+00	0	39	0	851443712	59	4800
2026-01-17 23:07:49.71	151.40	32.34	-44.0	-46.7	17.3	0.00e+00	0	39	0	853540864	59	4955
2026-01-17 23:07:50.99	151.70	32.13	-44.8	-47.8	16.3	0.00e+00	0	39	0	855638016	60	5281
2026-01-17 23:07:51.73	151.87	32.01	-45.2	-48.4	15.7	0.00e+00	0	39	0	856686592	61	5341
2026-01-17 23:07:53.00	152.16	31.81	-45.6	-49.0	15.1	0.00e+00	0	39	0	859832320	61	5754
2026-01-17 23:07:53.71	152.32	31.70	-45.3	-48.6	15.4	0.00e+00	0	39	0	860880896	61	5479
2026-01-17 23:07:55.00	152.60	31.49	-44.5	-47.4	16.6	0.00e+00	0	39	0	862978048	61	4781
2026-01-17 23:07:55.70	152.76	31.38	-44.0	-46.8	17.2	0.00e+00	0	39	0	864026624	60	4713
2026-01-17 23:07:57.06	153.05	31.16	-43.3	-45.7	18.2	0.00e+00	0	39	0	867172352	58	4693
2026-01-17 23:07:57.78	153.21	31.05	-43.4	-45.9	18.0	0.00e+00	0	39	0	868220928	58	4767
2026-01-17 23:07:59.06	153.48	30.85	-43.5	-46.0	18.0	0.00e+00	0	39	0	870318080	58	4816
2026-01-17 23:07:59.78	153.64	30.73	-43.8	-46.5	17.5	0.00e+00	0	39	0	872415232	58	5123
2026-01-17 23:08:01.15	153.92	30.52	-44.7	-47.8	16.2	0.00e+00	0	39	0	874512384	60	5321
2026-01-17 23:08:01.87	154.07	30.40	-45.3	-48.7	15.3	0.00e+00	0	39	0	875560960	61	5572
2026-01-17 23:08:03.26	154.36	30.19	-45.7	-49.5	14.5	0.00e+00	0	39	0	878706688	62	5782
2026-01-17 23:08:03.97	154.50	30.08	-45.6	-49.3	14.8	7.00e-07	0	39	0	879755264	62	5625
2026-01-17 23:08:05.25	154.76	29.88	-45.3	-48.8	15.2	0.00e+00	0	39	0	881852416	62	5323
2026-01-17 23:08:05.96	154.90	29.77	-45.0	-48.4	15.7	0.00e+00	0	39	0	883949568	62	5056
2026-01-17 23:08:07.24	155.16	29.57	-44.6	-47.8	16.2	0.00e+00	0	39	0	886046720	61	5004
2026-01-17 23:08:07.95	155.30	29.46	-44.5	-47.6	16.4	0.00e+00	0	39	0	887095296	61	4884
2026-01-17 23:08:09.23	155.54	29.26	-44.2	-47.1	16.9	0.00e+00	0	39	0	890241024	60	4901
2026-01-17 23:08:09.99	155.69	29.15	-44.3	-47.2	16.8	0.00e+00	0	39	0	891289600	60	4939
2026-01-17 23:08:11.27	155.93	28.95	-44.5	-47.4	16.6	0.00e+00	0	39	0	893386752	60	5090
2026-01-17 23:08:11.98	156.07	28.85	-44.8	-47.9	16.1	0.00e+00	0	39	0	894435328	60	5365
2026-01-17 23:08:13.26	156.31	28.65	-45.1	-48.4	15.7	0.00e+00	0	39	0	897581056	60	5663
2026-01-17 23:08:13.98	156.44	28.54	-45.2	-48.6	15.4	0.00e+00	0	39	0	898629632	61	5510
2026-01-17 23:08:15.26	156.68	28.35	-45.1	-48.3	15.7	0.00e+00	0	39	0	900726784	61	5315
2026-01-17 23:08:15.97	156.81	28.24	-44.9	-48.1	15.9	0.00e+00	0	39	0	902823936	61	5191
2026-01-17 23:08:17.25	157.04	28.05	-44.5	-47.5	16.5	0.00e+00	0	39	0	904921088	61	4826
2026-01-17 23:08:18.21	157.21	27.91	-44.1	-46.9	17.1	0.00e+00	0	39	0	907018240	60	4800
2026-01-17 23:08:19.21	157.39	27.76	-44.0	-46.7	17.3	0.00e+00	0	39	0	908066816	60	4689
2026-01-17 23:08:20.20	157.56	27.62	-43.9	-46.6	17.3	0.00e+00	0	39	0	910163968	59	4897
2026-01-17 23:08:21.19	157.73	27.47	-43.7	-46.3	17.6	0.00e+00	0	39	0	912261120	59	4736
2026-01-17 23:08:22.19	157.91	27.32	-43.5	-46.0	17.9	0.00e+00	0	39	0	914358272	59	4570
2026-01-17 23:08:23.19	158.08	27.18	-43.4	-45.9	18.0	0.00e+00	0	39	0	916455424	58	4772
2026-01-17 23:08:24.18	158.24	27.03	-43.4	-45.9	18.0	0.00e+00	0	39	0	917504000	58	4764
2026-01-17 23:08:25.18	158.41	26.89	-43.7	-46.3	17.7	0.00e+00	0	39	0	919601152	58	4989
2026-01-17 23:08:26.24	158.59	26.73	-43.6	-46.1	17.8	0.00e+00	0	39	0	921698304	58	4904
2026-01-17 23:08:27.16	158.74	26.60	-43.8	-46.3	17.6	0.00e+00	0	39	0	923795456	58	5041
2026-01-17 23:08:28.15	158.90	26.46	-43.9	-46.5	17.4	0.00e+00	0	39	0	924844032	58	5155
2026-01-17 23:08:29.32	159.09	26.29	-44.0	-46.7	17.2	0.00e+00	0	39	0	926941184	58	5258
2026-01-17 23:08:30.17	159.23	26.17	-44.2	-46.9	17.0	0.00e+00	0	39	0	929038336	59	5086
2026-01-17 23:08:31.50	159.44	25.98	-44.0	-46.7	17.2	0.00e+00	0	39	0	931135488	59	4952
2026-01-17 23:08:32.21	159.55	25.88	-44.0	-46.7	17.2	0.00e+00	0	39	0	933232640	59	4927
2026-01-17 23:08:33.49	159.75	25.70	-43.6	-46.2	17.7	0.00e+00	0	39	0	935329792	59	4683
2026-01-17 23:08:34.22	159.86	25.60	-43.7	-46.4	17.6	0.00e+00	0	39	0	936378368	59	4765
2026-01-17 23:08:35.49	160.06	25.42	-43.7	-46.3	17.6	0.00e+00	0	39	0	939524096	59	4712
2026-01-17 23:08:36.21	160.17	25.32	-43.5	-46.0	17.9	0.00e+00	0	39	0	940572672	59	4577
2026-01-17 23:08:37.48	160.36	25.14	-43.6	-46.1	17.8	0.00e+00	0	39	0	942669824	59	4634
2026-01-17 23:08:38.22	160.47	25.04	-43.8	-46.4	17.5	0.00e+00	0	39	0	943718400	59	4761
2026-01-17 23:08:39.50	160.66	24.86	-44.1	-46.8	17.2	0.00e+00	0	39	0	946864128	59	4984
2026-01-17 23:08:40.22	160.77	24.77	-44.2	-47.0	16.9	0.00e+00	0	39	0	947912704	59	5130
2026-01-17 23:08:41.50	160.95	24.59	-44.4	-47.3	16.7	0.00e+00	0	39	0	950009856	59	5284
2026-01-17 23:08:42.21	161.06	24.49	-44.5	-47.4	16.5	0.00e+00	0	39	0	952107008	59	5389
2026-01-17 23:08:43.49	161.24	24.32	-44.5	-47.4	16.5	0.00e+00	0	39	0	954204160	59	5399
2026-01-17 23:08:44.20	161.34	24.22	-44.5	-47.4	16.5	0.00e+00	0	39	0	955252736	59	5356
2026-01-17 23:08:45.47	161.52	24.05	-44.2	-46.9	17.0	0.00e+00	0	39	0	957349888	59	5088
2026-01-17 23:08:46.18	161.62	23.96	-44.0	-46.7	17.3	0.00e+00	0	39	0	959447040	59	4941
2026-01-17 23:08:47.46	161.80	23.79	-43.7	-46.3	17.6	0.00e+00	0	39	0	961544192	59	4744
2026-01-17 23:08:48.17	161.90	23.69	-43.7	-46.3	17.6	0.00e+00	0	39	0	962592768	59	4726
2026-01-17 23:08:49.45	162.07	23.52	-43.4	-45.9	18.0	0.00e+00	0	39	0	965738496	58	4778
2026-01-17 23:08:50.18	162.17	23.43	-43.3	-45.8	18.1	0.00e+00	0	39	0	966787072	58	4732
2026-01-17 23:08:51.46	162.34	23.26	-43.3	-45.7	18.1	0.00e+00	0	39	0	968884224	58	4705
2026-01-17 23:08:52.18	162.44	23.16	-43.3	-45.8	18.1	0.00e+00	0	39	0	969932800	58	4745
2026-01-17 23:08:53.46	162.61	23.00	-43.7	-46.3	17.6	0.00e+00	0	39	0	973078528	58	4997
2026-01-17 23:08:54.17	162.70	22.90	-43.5	-46.1	17.8	0.00e+00	0	39	0	974127104	58	4874
2026-01-17 23:08:55.45	162.87	22.74	-43.6	-46.2	17.7	0.00e+00	0	39	0	976224256	58	4938
2026-01-17 23:08:56.16	162.96	22.65	-43.6	-46.3	17.6	0.00e+00	0	39	0	978321408	58	4996
2026-01-17 23:08:57.44	163.12	22.48	-43.6	-46.2	17.7	0.00e+00	0	39	0	980418560	58	4952
2026-01-17 23:08:58.15	163.21	22.39	-43.7	-46.4	17.5	0.00e+00	0	39	0	981467136	58	5066
2026-01-17 23:08:59.43	163.37	22.23	-43.7	-46.3	17.6	0.00e+00	0	39	0	983564288	58	5013
2026-01-17 23:09:00.14	163.46	22.14	-43.8	-46.4	17.5	0.00e+00	0	39	0	985661440	58	5080
2026-01-17 23:09:01.42	163.62	21.97	-43.9	-46.6	17.3	0.00e+00	0	39	0	987758592	58	5161
2026-01-17 23:09:02.13	163.71	21.89	-43.9	-46.6	17.3	0.00e+00	0	39	0	988807168	58	5189
2026-01-17 23:09:03.41	163.87	21.72	-44.2	-46.9	17.0	0.00e+00	0	39	0	990904320	58	5372
2026-01-17 23:09:04.12	163.95	21.64	-44.1	-46.9	17.0	0.00e+00	0	39	0	993001472	58	5347
2026-01-17 23:09:05.40	164.11	21.48	-44.1	-46.8	17.1	0.00e+00	0	39	0	995098624	59	4994
2026-01-17 23:09:06.11	164.19	21.39	-44.0	-46.7	17.2	0.00e+00	0	39	0	996147200	59	4957
2026-01-17 23:09:07.39	164.34	21.23	-43.9	-46.6	17.3	0.00e+00	0	39	0	999292928	59	4871
2026-01-17 23:09:08.10	164.42	21.14	-44.0	-46.7	17.1	0.00e+00	0	39	0	1000341504	59	4982
2026-01-17 23:09:09.38	164.57	20.99	-43.7	-46.4	17.5	0.00e+00	0	39	0	1002438656	59	4766
2026-01-17 23:09:10.09	164.66	20.90	-43.6	-46.2	17.7	0.00e+00	0	39	0	1003487232	59	4655
2026-01-17 23:09:11.37	164.80	20.74	-43.5	-46.1	17.8	0.00e+00	0	39	0	1006632960	59	4602
2026-01-17 23:09:12.16	164.89	20.65	-43.5	-46.1	17.7	0.00e+00	0	39	0	1007681536	59	4630
2026-01-17 23:09:13.65	165.06	20.47	-43.7	-46.3	17.5	0.00e+00	0	39	0	1010827264	59	4743
2026-01-17 23:09:14.36	165.14	20.38	-43.7	-46.4	17.4	0.00e+00	0	39	0	1011875840	59	4783
2026-01-17 23:09:15.64	165.28	20.23	-43.8	-46.5	17.3	0.00e+00	0	39	0	1013972992	59	4840
2026-01-17 23:09:16.36	165.36	20.14	-43.9	-46.7	17.2	0.00e+00	0	39	0	1016070144	59	4936
2026-01-17 23:09:17.65	165.50	19.99	-44.1	-47.0	16.9	0.00e+00	0	39	0	1018167296	59	5114
2026-01-17 23:09:18.36	165.58	19.91	-44.2	-47.0	16.9	0.00e+00	0	39	0	1019215872	59	5120
2026-01-17 23:09:19.63	165.72	19.76	-44.3	-47.2	16.6	0.00e+00	0	39	0	1021313024	59	5273
2026-01-17 23:09:20.35	165.80	19.67	-44.5	-47.4	16.5	0.00e+00	0	39	0	1023410176	59	5383
2026-01-17 23:09:21.63	165.93	19.52	-44.4	-47.3	16.5	0.00e+00	0	39	0	1025507328	59	5333
2026-01-17 23:09:22.34	166.01	19.44	-44.4	-47.3	16.6	0.00e+00	0	39	0	1026555904	59	5305
2026-01-17 23:09:23.62	166.14	19.29	-44.4	-47.4	16.5	0.00e+00	0	39	0	1029701632	59	5357
2026-01-17 23:09:24.34	166.22	19.21	-44.3	-47.2	16.7	0.00e+00	0	39	0	1030750208	59	5239
2026-01-17 23:09:25.63	166.35	19.06	-44.1	-47.0	16.9	0.00e+00	0	39	0	1032847360	59	5113
2026-01-17 23:09:26.34	166.42	18.98	-44.0	-46.8	17.0	0.00e+00	0	39	0	1033895936	59	5022
2026-01-17 23:09:27.65	166.55	18.83	-44.0	-46.8	17.0	0.00e+00	0	39	0	1037041664	59	5036
2026-01-17 23:09:28.36	166.63	18.75	-43.8	-46.5	17.3	0.00e+00	0	39	0	1038090240	59	4849
2026-01-17 23:09:29.64	166.75	18.60	-43.6	-46.2	17.6	0.00e+00	0	39	0	1040187392	59	4671
2026-01-17 23:09:30.70	166.86	18.48	-43.4	-46.0	17.8	0.00e+00	0	39	0	1042284544	58	4838
2026-01-17 23:09:31.55	166.94	18.39	-43.5	-46.1	17.7	0.00e+00	0	39	0	1044381696	58	4896
2026-01-17 23:09:32.69	167.06	18.26	-43.4	-46.0	17.7	0.00e+00	0	39	0	1046478848	58	4852
2026-01-17 23:09:33.54	167.14	18.16	-43.4	-45.9	17.9	0.00e+00	0	39	0	1047527424	58	4809
2026-01-17 23:09:34.68	167.25	18.04	-43.2	-45.7	18.1	0.00e+00	0	39	0	1049624576	58	4694
2026-01-17 23:09:35.53	167.33	17.94	-43.2	-45.7	18.1	0.00e+00	0	39	0	1051721728	58	4689
2026-01-17 23:09:36.67	167.44	17.82	-43.3	-45.8	18.0	0.00e+00	0	39	0	1053818880	58	4739
2026-01-17 23:09:37.52	167.52	17.72	-43.2	-45.8	18.0	0.00e+00	0	39	0	1054867456	58	4712
2026-01-17 23:09:38.66	167.63	17.60	-43.2	-45.7	18.1	0.00e+00	0	39	0	1058013184	58	4689
2026-01-17 23:09:39.62	167.72	17.49	-43.3	-45.8	17.9	0.00e+00	0	39	0	1059061760	58	4743
2026-01-17 23:09:40.62	167.81	17.39	-43.3	-45.8	18.0	0.00e+00	0	39	0	1061158912	58	4737
2026-01-17 23:09:41.61	167.90	17.28	-43.4	-46.0	17.8	0.00e+00	0	39	0	1063256064	58	4856
2026-01-17 23:09:42.61	167.99	17.17	-43.5	-46.1	17.7	0.00e+00	0	39	0	1065353216	58	4911
2026-01-17 23:09:43.60	168.08	17.06	-43.5	-46.1	17.6	0.00e+00	0	39	0	1066401792	58	4924
2026-01-17 23:09:44.60	168.17	16.96	-43.7	-46.4	17.4	0.00e+00	0	39	0	1068498944	58	5053
2026-01-17 23:09:45.59	168.26	16.85	-43.7	-46.4	17.5	0.00e+00	0	39	0	1070596096	58	5046
2026-01-17 23:09:46.59	168.35	16.75	-43.6	-46.3	17.5	0.00e+00	0	39	0	1072693248	58	5009
2026-01-17 23:09:47.58	168.44	16.64	-43.5	-46.2	17.6	0.00e+00	0	39	0	1073741824	58	4934
2026-01-17 23:09:48.58	168.53	16.54	-43.6	-46.3	17.5	0.00e+00	0	39	0	1075838976	58	5029
2026-01-17 23:09:49.57	168.61	16.43	-43.5	-46.2	17.6	0.00e+00	0	39	0	1077936128	58	4948
2026-01-17 23:09:50.57	168.70	16.33	-43.4	-46.0	17.7	0.00e+00	0	39	0	1080033280	58	4854
2026-01-17 23:09:51.56	168.78	16.22	-43.4	-46.0	17.7	0.00e+00	0	39	0	1082130432	58	4870
2026-01-17 23:09:52.56	168.87	16.12	-43.5	-46.1	17.7	0.00e+00	0	39	0	1083179008	58	4911
2026-01-17 23:09:53.55	168.95	16.02	-43.3	-45.9	17.9	0.00e+00	0	39	0	1085276160	58	4766
2026-01-17 23:09:54.54	169.04	15.92	-43.2	-45.8	18.0	0.00e+00	0	39	0	1087373312	58	4726
2026-01-17 23:09:55.54	169.12	15.81	-43.2	-45.8	18.0	0.00e+00	0	39	0	1089470464	58	4728
2026-01-17 23:09:56.53	169.20	15.71	-43.2	-45.7	18.0	0.00e+00	0	39	0	1090519040	58	4699
2026-01-17 23:09:57.53	169.29	15.61	-43.2	-45.7	18.0	0.00e+00	0	39	0	1092616192	58	4699
2026-01-17 23:09:58.52	169.37	15.51	-43.1	-45.6	18.1	0.00e+00	0	39	0	1094713344	58	4635
2026-01-17 23:09:59.52	169.45	15.41	-43.1	-45.6	18.1	0.00e+00	0	39	0	1096810496	58	4649
2026-01-17 23:10:00.51	169.53	15.31	-43.1	-45.7	18.1	0.00e+00	0	39	0	1098907648	58	4666
2026-01-17 23:10:01.51	169.61	15.21	-43.2	-45.8	17.9	0.00e+00	0	39	0	1099956224	58	4728
2026-01-17 23:10:02.50	169.69	15.11	-43.2	-45.8	17.9	0.00e+00	0	39	0	1102053376	58	4755
2026-01-17 23:10:03.50	169.77	15.01	-43.4	-46.0	17.7	0.00e+00	0	39	0	1104150528	58	4853
2026-01-17 23:10:04.49	169.85	14.91	-43.5	-46.1	17.6	0.00e+00	0	39	0	1106247680	58	4916
2026-01-17 23:10:05.49	169.93	14.81	-43.5	-46.2	17.6	0.00e+00	0	39	0	1107296256	58	4946
2026-01-17 23:10:06.49	170.00	14.71	-43.5	-46.3	17.4	0.00e+00	0	39	0	1109393408	58	4989
2026-01-17 23:10:07.48	170.08	14.61	-43.7	-46.5	17.3	0.00e+00	0	39	0	1111490560	58	5126
2026-01-17 23:10:08.47	170.16	14.52	-43.7	-46.6	17.2	0.00e+00	0	39	0	1113587712	58	5175
2026-01-17 23:10:09.47	170.23	14.42	-43.7	-46.6	17.1	0.00e+00	0	39	0	1115684864	58	5184
2026-01-17 23:10:10.58	170.32	14.31	-43.8	-46.7	17.1	0.00e+00	0	39	0	1117782016	58	5221
2026-01-17 23:10:11.43	170.38	14.23	-43.9	-46.8	16.9	0.00e+00	0	39	0	1118830592	58	5321
2026-01-17 23:10:12.57	170.47	14.12	-43.9	-46.8	16.9	0.00e+00	0	39	0	1120927744	58	5328
2026-01-17 23:10:13.42	170.53	14.04	-44.0	-47.0	16.8	0.00e+00	0	39	0	1123024896	58	5405
2026-01-17 23:10:14.56	170.62	13.93	-44.1	-47.1	16.7	0.00e+00	0	39	0	1125122048	58	5470
2026-01-17 23:10:15.41	170.68	13.85	-44.1	-47.1	16.6	0.00e+00	0	39	0	1126170624	58	5500
2026-01-17 23:10:16.55	170.76	13.74	-44.1	-47.1	16.6	0.00e+00	0	39	0	1128267776	59	5190
2026-01-17 23:10:17.40	170.83	13.66	-44.1	-47.0	16.7	0.00e+00	0	39	0	1130364928	59	5125
2026-01-17 23:10:18.54	170.91	13.55	-44.2	-47.1	16.6	0.00e+00	0	39	0	1132462080	59	5212
2026-01-17 23:10:19.39	170.97	13.47	-44.0	-46.8	16.9	0.00e+00	0	39	0	1133510656	59	5004
2026-01-17 23:10:20.53	171.05	13.36	-44.0	-46.9	16.8	0.00e+00	0	39	0	1135607808	59	5061
2026-01-17 23:10:21.38	171.11	13.28	-44.0	-46.8	16.9	0.00e+00	0	39	0	1137704960	59	5006
2026-01-17 23:10:22.52	171.19	13.18	-44.0	-46.8	16.9	0.00e+00	0	39	0	1139802112	59	5017
2026-01-17 23:10:23.37	171.25	13.10	-43.9	-46.7	16.9	0.00e+00	0	39	0	1140850688	59	4974
2026-01-17 23:10:24.51	171.33	12.99	-43.7	-46.5	17.2	0.00e+00	0	39	0	1142947840	59	4830
2026-01-17 23:10:25.36	171.39	12.91	-43.7	-46.4	17.2	0.00e+00	0	39	0	1145044992	59	4800
2026-01-17 23:10:26.50	171.47	12.81	-43.7	-46.4	17.2	0.00e+00	0	39	0	1147142144	59	4810
2026-01-17 23:10:27.35	171.53	12.73	-43.6	-46.4	14.8	0.00e+00	0	39	0	1149239296	59	4799
2026-01-17 23:10:28.49	171.61	12.63	-43.6	-46.3	17.2	0.00e+00	0	39	0	1151336448	59	4745
2026-01-17 23:10:29.34	171.66	12.55	-43.6	-46.4	17.3	0.00e+00	0	39	0	1152385024	59	4787
2026-01-17 23:10:30.72	171.76	12.42	-43.5	-46.3	17.3	3.03e-04	0	39	0	1155530752	59	4753
2026-01-17 23:10:31.43	171.81	12.36	-43.5	-46.3	17.4	0.00e+00	0	39	0	1156579328	58	4984
2026-01-17 23:10:32.71	171.89	12.24	-43.4	-46.2	17.4	0.00e+00	0	39	0	1158676480	58	4966
2026-01-17 23:10:33.43	171.94	12.18	-43.5	-46.3	17.4	1.25e-04	0	39	0	1159725056	58	5006
2026-01-17 23:10:34.71	172.02	12.06	-43.5	-46.3	17.3	0.00e+00	0	39	0	1162870784	58	5040
2026-01-17 23:10:35.51	172.08	11.99	-43.4	-46.3	17.4	0.00e+00	0	39	0	1163919360	58	4986
2026-01-17 23:10:36.65	172.15	11.89	-43.5	-46.5	17.1	0.00e+00	0	39	0	1166016512	58	5122
2026-01-17 23:10:37.65	172.21	11.80	-43.4	-46.4	17.1	0.00e+00	0	39	0	1168113664	58	5083
2026-01-17 23:10:38.81	172.29	11.70	-43.4	-46.5	17.1	0.00e+00	0	39	0	1170210816	58	5119
2026-01-17 23:10:39.70	172.35	11.62	-43.5	-46.6	17.0	7.00e-07	0	39	0	1172307968	58	5189
2026-01-17 23:10:41.03	172.43	11.50	-43.4	-46.6	17.0	0.00e+00	0	39	0	1174405120	58	5216
2026-01-17 23:10:41.74	172.48	11.44	-43.3	-46.6	16.9	0.00e+00	0	39	0	1175453696	58	5218
2026-01-17 23:10:43.02	172.56	11.33	-43.4	-46.8	16.8	0.00e+00	0	39	0	1178599424	58	5321
2026-01-17 23:10:43.73	172.60	11.27	-43.4	-47.0	16.7	0.00e+00	0	39	0	1179648000	58	5411
2026-01-17 23:10:45.04	172.68	11.15	-43.4	-47.0	16.6	0.00e+00	0	39	0	1181745152	58	5444
2026-01-17 23:10:45.75	172.73	11.09	-43.4	-47.0	16.6	0.00e+00	0	39	0	1182793728	58	5415
2026-01-17 23:10:47.03	172.80	10.98	-43.5	-47.2	16.4	0.00e+00	0	39	0	1185939456	58	5569
2026-01-17 23:10:47.75	172.85	10.92	-43.5	-47.1	16.5	0.00e+00	0	39	0	1186988032	58	5522
2026-01-17 23:10:49.03	172.93	10.81	-43.6	-47.3	16.3	0.00e+00	0	39	0	1189085184	58	5648
2026-01-17 23:10:49.74	172.97	10.75	-43.6	-47.4	16.3	0.00e+00	0	39	0	1191182336	58	5657
2026-01-17 23:10:51.02	173.05	10.64	-43.7	-47.4	16.2	0.00e+00	0	39	0	1193279488	58	5697
2026-01-17 23:10:51.74	173.09	10.58	-43.8	-47.5	16.1	0.00e+00	0	39	0	1194328064	58	5740
2026-01-17 23:10:53.02	173.17	10.47	-43.8	-47.5	16.1	0.00e+00	0	39	0	1196425216	58	5781
2026-01-17 23:10:53.73	173.21	10.41	-43.7	-47.4	16.2	1.36e-03	0	39	0	1198522368	58	5698
2026-01-17 23:10:55.01	173.28	10.31	-43.8	-47.5	16.1	0.00e+00	0	39	0	1200619520	58	5778
2026-01-17 23:10:55.73	173.32	10.25	-43.8	-47.5	16.1	0.00e+00	0	39	0	1201668096	58	5735
2026-01-17 23:10:57.18	173.41	10.13	-43.8	-47.4	16.2	0.00e+00	0	39	0	1204813824	58	5686
2026-01-17 23:10:57.89	173.45	10.07	-43.7	-47.4	16.2	0.00e+00	0	39	0	1205862400	58	5664
2026-01-17 23:10:59.22	173.53	9.96	-43.7	-47.2	16.4	5.30e-06	0	39	0	1209008128	58	5561
2026-01-17 23:10:59.93	173.57	9.90	-43.7	-47.3	16.3	0.00e+00	0	39	0	1210056704	58	5623
2026-01-17 23:11:01.24	173.64	9.79	-43.6	-47.1	16.4	0.00e+00	0	39	0	1212153856	58	5514
2026-01-17 23:11:01.95	173.68	9.73	-43.7	-47.2	16.3	0.00e+00	0	39	0	1213202432	58	5565
2026-01-17 23:11:03.26	173.76	9.62	-43.7	-47.2	16.3	0.00e+00	0	39	0	1216348160	58	5552
