passes_logs/2026/01/17/T1/T1__20260117_102830_SUOMI_NPP_rec.log

#Pass ID: 20260117_102830_SUOMI NPP
#Satellite: SUOMI NPP
#Configuration: NPP
#almurnet v.1.7.20251203
#Start time: 2026-01-17 10:28:29

#Version: 2.0.20230620
#Station: T1
#Location: 37.570604 lon 55.790049 lat
#TLE: 1 37849U 11061A   26016.23176763  .00000061  00000+0  49926-4 0  9990
#TLE: 2 37849  98.7812 318.2698 0002434  61.5135 298.6286 14.19525545736883

#Time	Az	El	Level	Level2	SNR	BER	BlckErr	Temp	State	Recorded	gain1	gain2
2026-01-17 10:28:29.85	175.14	4.96	-50.4	-65.9	3.8	1.49e+00	0	40	0	0	72	21468
2026-01-17 10:28:30.84	175.17	5.03	-48.1	-65.4	3.8	1.49e+00	0	40	104	0	68	25514
2026-01-17 10:28:31.83	175.20	5.10	-48.1	-65.4	3.8	1.49e+00	0	40	104	0	68	25514
2026-01-17 10:28:32.82	175.23	5.17	-48.1	-65.4	3.8	1.49e+00	0	40	104	0	68	25466
2026-01-17 10:28:33.82	175.26	5.24	-48.1	-65.4	3.8	1.49e+00	0	41	104	0	68	25453
2026-01-17 10:28:34.81	175.28	5.31	-48.1	-65.4	3.8	1.49e+00	0	40	104	0	68	25351
2026-01-17 10:28:35.80	175.31	5.38	-48.1	-65.4	3.8	1.49e+00	0	40	104	0	68	25409
2026-01-17 10:28:36.79	175.34	5.45	-48.1	-65.3	3.8	1.49e+00	0	41	104	0	68	25194
2026-01-17 10:28:37.79	175.37	5.53	-48.1	-65.3	3.8	1.49e+00	0	41	104	0	68	25121
2026-01-17 10:28:38.78	175.40	5.60	-48.1	-65.3	3.8	1.49e+00	0	41	104	0	68	25042
2026-01-17 10:28:39.78	175.43	5.67	-48.1	-65.3	3.8	1.49e+00	0	41	104	0	68	25077
2026-01-17 10:28:40.77	175.45	5.74	-48.0	-65.2	3.8	1.49e+00	0	41	104	0	68	24888
2026-01-17 10:28:41.76	175.48	5.81	-48.0	-65.2	3.8	1.49e+00	0	41	104	0	68	24877
2026-01-17 10:28:42.76	175.51	5.89	-48.1	-65.2	3.8	1.49e+00	0	41	104	0	68	24846
2026-01-17 10:28:43.75	175.54	5.96	-48.0	-65.2	3.8	1.49e+00	0	41	104	0	68	24900
2026-01-17 10:28:44.74	175.57	6.03	-48.1	-65.3	3.8	1.49e+00	0	41	104	0	68	25010
2026-01-17 10:28:45.73	175.60	6.10	-48.0	-65.2	3.8	1.49e+00	0	41	104	0	68	24807
2026-01-17 10:28:46.73	175.63	6.18	-48.1	-65.3	3.8	1.49e+00	0	41	104	0	68	25033
2026-01-17 10:28:47.72	175.66	6.25	-48.1	-65.2	3.8	1.49e+00	0	41	104	0	68	24833
2026-01-17 10:28:48.71	175.69	6.32	-48.0	-65.2	3.8	1.49e+00	0	41	104	0	68	24761
2026-01-17 10:28:49.71	175.72	6.40	-48.0	-65.1	3.8	1.49e+00	0	41	104	0	68	24433
2026-01-17 10:28:50.70	175.75	6.47	-48.0	-64.9	3.8	1.49e+00	0	41	104	0	68	24046
2026-01-17 10:28:51.69	175.78	6.55	-48.0	-64.8	3.8	1.49e+00	0	41	104	0	68	23749
2026-01-17 10:28:52.69	175.81	6.62	-48.0	-64.6	3.8	1.49e+00	0	41	104	0	68	23213
2026-01-17 10:28:53.68	175.84	6.70	-48.0	-64.4	3.8	1.49e+00	0	41	104	0	68	22658
2026-01-17 10:28:54.67	175.87	6.77	-48.0	-64.2	3.8	1.49e+00	0	41	104	0	68	22096
2026-01-17 10:28:55.67	175.90	6.85	-48.0	-64.0	3.8	1.49e+00	0	41	104	0	68	21674
2026-01-17 10:28:56.66	175.93	6.92	-48.0	-63.9	3.8	1.49e+00	0	41	104	0	68	21379
2026-01-17 10:28:57.65	175.97	7.00	-47.9	-63.5	3.8	1.49e+00	0	41	104	0	67	21634
2026-01-17 10:28:58.65	176.00	7.07	-47.9	-63.2	3.8	1.49e+00	0	41	104	0	67	20887
2026-01-17 10:28:59.64	176.03	7.15	-47.8	-62.9	3.8	1.49e+00	0	41	104	0	67	20260
2026-01-17 10:29:00.64	176.06	7.22	-47.8	-62.0	4.1	1.45e+00	0	42	0	0	67	18264
2026-01-17 10:29:01.63	176.09	7.30	-47.7	-60.5	4.7	1.23e+00	0	42	0	1048576	67	15272
2026-01-17 10:29:02.62	176.12	7.38	-47.6	-59.2	5.4	7.80e-01	0	42	0	2097152	67	13115
2026-01-17 10:29:03.62	176.16	7.45	-47.4	-57.6	6.5	3.09e-01	0	42	0	4194304	66	11675
2026-01-17 10:29:04.61	176.19	7.53	-47.2	-56.1	7.9	1.13e-01	0	42	0	6291456	66	9741
2026-01-17 10:29:05.60	176.22	7.61	-46.9	-54.8	9.2	3.72e-02	0	42	0	8388608	65	8873
2026-01-17 10:29:06.60	176.25	7.69	-46.6	-53.5	10.5	6.72e-03	0	42	0	9437184	65	7692
2026-01-17 10:29:07.59	176.29	7.76	-46.2	-52.4	11.6	1.28e-03	0	42	0	11534336	64	7178
2026-01-17 10:29:08.58	176.32	7.84	-46.0	-51.7	12.3	2.57e-04	0	42	0	13631488	64	6631
2026-01-17 10:29:09.58	176.35	7.92	-45.8	-51.1	13.1	8.01e-05	0	42	0	15728640	63	6526
2026-01-17 10:29:10.57	176.38	8.00	-45.6	-50.8	13.4	1.22e-05	0	42	0	17825792	63	6286
2026-01-17 10:29:11.56	176.42	8.08	-45.5	-50.4	13.8	8.30e-06	0	42	0	18874368	63	6037
2026-01-17 10:29:12.55	176.45	8.16	-45.3	-50.1	14.1	3.00e-06	0	42	0	20971520	62	6146
2026-01-17 10:29:13.55	176.49	8.24	-45.5	-50.4	13.8	2.20e-06	0	42	0	23068672	62	6387
2026-01-17 10:29:14.54	176.52	8.31	-45.5	-50.5	13.7	7.60e-06	0	42	0	25165824	62	6474
2026-01-17 10:29:15.53	176.55	8.39	-45.7	-51.0	13.2	9.10e-06	0	42	0	26214400	62	6809
2026-01-17 10:29:16.53	176.59	8.47	-45.9	-51.3	12.9	4.65e-05	0	42	0	28311552	62	7106
2026-01-17 10:29:17.52	176.62	8.55	-46.3	-52.3	11.8	2.63e-04	0	42	0	30408704	63	7543
2026-01-17 10:29:18.52	176.66	8.64	-46.6	-53.4	10.7	1.21e-03	0	42	0	32505856	63	8509
2026-01-17 10:29:19.51	176.69	8.72	-46.8	-54.4	9.6	5.31e-03	0	42	0	34603008	64	9066
2026-01-17 10:29:20.50	176.73	8.80	-47.1	-55.8	8.2	2.23e-02	0	42	0	35651584	64	10552
2026-01-17 10:29:21.49	176.76	8.88	-47.4	-57.3	6.8	1.34e-01	0	42	0	37748736	65	11888
2026-01-17 10:29:22.49	176.80	8.96	-47.5	-59.1	5.4	3.69e-01	0	42	0	39845888	65	14627
2026-01-17 10:29:23.48	176.83	9.04	-47.9	-57.4	6.4	7.91e-01	0	42	0	41943040	66	11414
2026-01-17 10:29:24.48	176.87	9.12	-48.2	-58.1	6.3	2.80e-02	0	42	0	44040192	67	11590
2026-01-17 10:29:25.47	176.90	9.21	-48.3	-60.4	4.6	1.34e+00	0	42	0	45088768	67	15059
2026-01-17 10:29:26.47	176.94	9.29	-47.2	-52.8	11.1	6.99e-02	0	42	0	47185920	66	6698
2026-01-17 10:29:27.46	176.98	9.37	-47.8	-54.6	9.8	1.50e-06	0	42	0	48234496	66	8241
2026-01-17 10:29:28.46	177.01	9.45	-48.6	-59.1	4.3	1.49e+00	0	42	104	49283072	67	13046
2026-01-17 10:29:29.45	177.05	9.54	-44.9	-48.2	16.0	0.00e+00	0	42	0	50331648	61	5229
2026-01-17 10:29:30.45	177.09	9.62	-44.3	-47.4	16.8	0.00e+00	0	42	0	52428800	60	5056
2026-01-17 10:29:31.44	177.12	9.71	-44.4	-47.5	16.6	0.00e+00	0	42	0	53477376	60	5125
2026-01-17 10:29:32.44	177.16	9.79	-44.0	-47.0	17.1	0.00e+00	0	42	0	55574528	60	4848
2026-01-17 10:29:33.43	177.20	9.87	-44.1	-47.2	16.9	0.00e+00	0	42	0	57671680	59	5241
2026-01-17 10:29:34.43	177.23	9.96	-43.8	-46.8	17.3	0.00e+00	0	42	0	59768832	59	5001
2026-01-17 10:29:35.42	177.27	10.04	-43.8	-46.9	17.2	0.00e+00	0	42	0	60817408	59	5084
2026-01-17 10:29:36.45	177.31	10.13	-43.8	-46.9	17.2	0.00e+00	0	42	0	62914560	59	5065
2026-01-17 10:29:37.48	177.35	10.22	-43.9	-47.0	17.1	0.00e+00	0	42	0	65011712	59	5139
2026-01-17 10:29:38.47	177.39	10.31	-43.8	-46.8	17.3	0.00e+00	0	42	0	67108864	59	5007
2026-01-17 10:29:39.46	177.43	10.39	-43.8	-46.8	17.3	0.00e+00	0	42	0	69206016	59	4991
2026-01-17 10:29:40.46	177.47	10.48	-43.9	-46.9	17.2	0.00e+00	0	42	0	70254592	59	5073
2026-01-17 10:29:41.46	177.51	10.57	-44.0	-47.1	16.9	0.00e+00	0	42	0	72351744	59	5215
2026-01-17 10:29:42.45	177.55	10.65	-44.0	-47.1	17.0	0.00e+00	0	42	0	74448896	59	5192
2026-01-17 10:29:43.45	177.59	10.74	-44.0	-47.0	17.1	0.00e+00	0	42	0	76546048	59	5150
2026-01-17 10:29:44.44	177.62	10.83	-44.1	-47.1	17.0	0.00e+00	0	42	0	77594624	59	5163
2026-01-17 10:29:45.43	177.66	10.92	-44.0	-46.9	17.2	0.00e+00	0	42	0	79691776	59	5091
2026-01-17 10:29:46.43	177.70	11.01	-44.0	-46.8	17.4	0.00e+00	0	42	0	81788928	59	4987
2026-01-17 10:29:47.42	177.74	11.09	-43.9	-46.6	17.5	0.00e+00	0	42	0	83886080	59	4892
2026-01-17 10:29:48.42	177.79	11.18	-43.9	-46.5	17.5	0.00e+00	0	42	0	85983232	59	4862
2026-01-17 10:29:49.41	177.83	11.27	-43.7	-46.3	17.7	0.00e+00	0	42	0	87031808	59	4752
2026-01-17 10:29:50.41	177.87	11.36	-44.1	-46.8	17.3	0.00e+00	0	42	0	89128960	59	5000
2026-01-17 10:29:51.40	177.91	11.45	-44.0	-46.6	17.5	0.00e+00	0	42	0	91226112	59	4905
2026-01-17 10:29:52.39	177.95	11.54	-43.8	-46.4	17.7	0.00e+00	0	42	0	93323264	59	4796
2026-01-17 10:29:53.39	177.99	11.63	-43.7	-46.2	17.8	0.00e+00	0	42	0	94371840	59	4689
2026-01-17 10:29:54.38	178.03	11.72	-43.7	-46.2	17.9	0.00e+00	0	43	0	96468992	59	4687
2026-01-17 10:29:55.44	178.08	11.82	-43.6	-46.1	17.9	0.00e+00	0	42	0	98566144	59	4639
2026-01-17 10:29:56.34	178.12	11.90	-43.7	-46.3	17.8	0.00e+00	0	43	0	100663296	59	4718
2026-01-17 10:29:57.40	178.16	12.00	-43.6	-46.1	18.0	0.00e+00	0	42	0	102760448	59	4609
2026-01-17 10:29:58.42	178.21	12.10	-43.6	-46.1	18.0	0.00e+00	0	43	0	103809024	59	4644
2026-01-17 10:29:59.42	178.25	12.19	-43.5	-46.0	18.1	0.00e+00	0	42	0	105906176	59	4567
2026-01-17 10:30:00.41	178.29	12.28	-43.6	-46.1	18.0	0.00e+00	0	42	0	108003328	58	4914
2026-01-17 10:30:01.41	178.34	12.37	-43.5	-46.0	18.0	0.00e+00	0	43	0	110100480	58	4860
2026-01-17 10:30:02.40	178.38	12.47	-43.5	-46.0	18.1	0.00e+00	0	42	0	112197632	58	4849
2026-01-17 10:30:03.40	178.43	12.56	-43.4	-45.9	18.2	0.00e+00	0	43	0	113246208	58	4794
2026-01-17 10:30:04.39	178.47	12.66	-43.5	-46.0	18.1	0.00e+00	0	42	0	115343360	58	4828
2026-01-17 10:30:05.39	178.52	12.75	-43.3	-45.7	18.3	0.00e+00	0	43	0	117440512	58	4699
2026-01-17 10:30:06.38	178.56	12.85	-43.3	-45.8	18.3	0.00e+00	0	42	0	119537664	58	4742
2026-01-17 10:30:07.38	178.61	12.94	-43.3	-45.7	18.3	0.00e+00	0	43	0	121634816	58	4698
2026-01-17 10:30:08.37	178.65	13.04	-43.3	-45.8	18.3	0.00e+00	0	43	0	122683392	58	4716
2026-01-17 10:30:09.37	178.70	13.13	-43.3	-45.8	18.3	0.00e+00	0	43	0	124780544	58	4743
2026-01-17 10:30:10.36	178.74	13.23	-43.3	-45.8	18.3	0.00e+00	0	43	0	126877696	58	4748
2026-01-17 10:30:11.36	178.79	13.33	-43.3	-45.8	18.3	0.00e+00	0	42	0	128974848	58	4732
2026-01-17 10:30:12.43	178.84	13.43	-43.3	-45.8	18.3	0.00e+00	0	43	0	131072000	58	4714
2026-01-17 10:30:13.32	178.88	13.52	-43.2	-45.7	18.4	0.00e+00	0	43	0	132120576	58	4655
2026-01-17 10:30:14.45	178.94	13.63	-43.2	-45.7	18.4	0.00e+00	0	43	0	134217728	58	4678
2026-01-17 10:30:15.31	178.98	13.72	-43.2	-45.6	18.4	0.00e+00	0	43	0	136314880	58	4651
2026-01-17 10:30:16.44	179.03	13.83	-43.1	-45.6	18.5	0.00e+00	0	43	0	138412032	58	4607
2026-01-17 10:30:17.30	179.07	13.91	-43.3	-45.8	18.3	0.00e+00	0	42	0	139460608	58	4734
2026-01-17 10:30:18.43	179.13	14.03	-43.3	-45.8	18.3	0.00e+00	0	42	0	141557760	58	4737
2026-01-17 10:30:19.28	179.17	14.11	-43.4	-45.8	18.2	0.00e+00	0	43	0	143654912	58	4753
2026-01-17 10:30:20.42	179.23	14.23	-43.4	-45.9	18.3	0.00e+00	0	43	0	145752064	58	4773
2026-01-17 10:30:21.27	179.27	14.31	-43.4	-45.9	18.3	0.00e+00	0	42	0	146800640	58	4765
2026-01-17 10:30:22.41	179.33	14.43	-43.4	-45.9	18.2	0.00e+00	0	43	0	148897792	58	4790
2026-01-17 10:30:23.26	179.37	14.52	-43.5	-46.0	18.2	0.00e+00	0	43	0	150994944	58	4843
2026-01-17 10:30:24.40	179.43	14.63	-43.4	-45.9	18.2	0.00e+00	0	42	0	153092096	58	4812
2026-01-17 10:30:25.25	179.47	14.72	-43.5	-46.1	18.1	0.00e+00	0	43	0	155189248	58	4876
2026-01-17 10:30:26.39	179.53	14.84	-43.4	-45.9	18.2	0.00e+00	0	43	0	156237824	58	4784
2026-01-17 10:30:27.24	179.57	14.93	-43.5	-46.0	18.2	0.00e+00	0	43	0	158334976	58	4831
2026-01-17 10:30:28.38	179.63	15.04	-43.4	-45.9	18.3	0.00e+00	0	42	0	160432128	58	4771
2026-01-17 10:30:29.23	179.68	15.13	-43.6	-46.2	18.0	0.00e+00	0	42	0	162529280	58	4932
2026-01-17 10:30:30.59	179.75	15.28	-43.5	-46.0	18.1	0.00e+00	0	43	0	164626432	58	4867
2026-01-17 10:30:31.71	179.81	15.39	-43.6	-46.1	18.1	0.00e+00	0	43	0	166723584	58	4915
2026-01-17 10:30:32.57	179.86	15.49	-43.5	-46.0	18.1	0.00e+00	0	43	0	168820736	58	4867
2026-01-17 10:30:33.70	179.92	15.61	-43.7	-46.2	18.0	0.00e+00	0	43	0	170917888	58	4952
2026-01-17 10:30:34.56	179.96	15.70	-43.6	-46.2	18.0	0.00e+00	0	43	0	171966464	58	4936
2026-01-17 10:30:35.70	180.03	15.82	-43.8	-46.4	17.8	0.00e+00	0	43	0	174063616	58	5056
2026-01-17 10:30:36.55	180.07	15.91	-43.7	-46.2	18.0	0.00e+00	0	43	0	176160768	58	4944
2026-01-17 10:30:37.68	180.13	16.03	-43.8	-46.3	17.9	0.00e+00	0	43	0	178257920	58	5039
2026-01-17 10:30:38.54	180.18	16.13	-43.9	-46.5	17.7	0.00e+00	0	43	0	179306496	58	5148
2026-01-17 10:30:39.67	180.25	16.25	-43.9	-46.5	17.7	0.00e+00	0	43	0	181403648	58	5129
2026-01-17 10:30:40.53	180.30	16.35	-43.9	-46.5	17.7	0.00e+00	0	43	0	183500800	58	5149
2026-01-17 10:30:41.66	180.36	16.47	-43.9	-46.6	17.7	0.00e+00	0	43	0	185597952	58	5172
2026-01-17 10:30:42.52	180.41	16.56	-43.9	-46.5	17.7	0.00e+00	0	43	0	186646528	58	5131
2026-01-17 10:30:43.65	180.47	16.69	-43.8	-46.4	17.8	0.00e+00	0	43	0	188743680	58	5098
2026-01-17 10:30:44.50	180.52	16.78	-44.0	-46.7	17.6	2.33e-04	0	43	0	190840832	58	5220
2026-01-17 10:30:45.64	180.59	16.91	-44.1	-46.8	17.5	0.00e+00	0	43	0	192937984	58	5306
2026-01-17 10:30:46.81	180.66	17.04	-44.1	-46.7	17.5	0.00e+00	0	43	0	195035136	58	5274
2026-01-17 10:30:47.84	180.72	17.16	-44.1	-46.8	17.5	0.00e+00	0	43	0	197132288	58	5290
2026-01-17 10:30:48.83	180.78	17.27	-44.2	-46.9	17.4	0.00e+00	0	43	0	199229440	59	5061
2026-01-17 10:30:49.82	180.84	17.39	-44.0	-46.7	17.6	0.00e+00	0	43	0	200278016	59	4939
2026-01-17 10:30:50.82	180.90	17.50	-43.9	-46.5	17.8	0.00e+00	0	43	0	202375168	59	4837
2026-01-17 10:30:51.82	180.96	17.62	-44.3	-47.0	17.3	0.00e+00	0	43	0	204472320	59	5112
2026-01-17 10:30:52.81	181.02	17.73	-44.2	-46.8	17.4	6.94e-05	0	43	0	206569472	59	5033
2026-01-17 10:30:53.80	181.08	17.85	-44.1	-46.8	17.4	0.00e+00	0	43	0	208666624	59	5025
2026-01-17 10:30:54.80	181.15	17.96	-44.3	-47.0	17.3	0.00e+00	0	43	0	209715200	59	5148
2026-01-17 10:30:55.79	181.21	18.08	-44.3	-47.0	17.3	0.00e+00	0	43	0	211812352	59	5129
2026-01-17 10:30:56.79	181.27	18.20	-44.2	-46.9	17.4	0.00e+00	0	43	0	213909504	59	5058
2026-01-17 10:30:57.78	181.34	18.31	-44.4	-47.1	17.2	0.00e+00	0	43	0	216006656	59	5175
2026-01-17 10:30:58.78	181.40	18.43	-44.2	-46.8	17.5	0.00e+00	0	43	0	217055232	59	5027
2026-01-17 10:30:59.77	181.46	18.55	-44.3	-47.0	17.3	0.00e+00	0	43	0	219152384	59	5109
2026-01-17 10:31:00.77	181.53	18.67	-44.3	-47.0	17.2	0.00e+00	0	43	0	221249536	59	5137
2026-01-17 10:31:01.78	181.60	18.79	-44.2	-46.9	17.5	0.00e+00	0	43	0	223346688	59	5044
2026-01-17 10:31:02.79	181.66	18.91	-44.5	-47.2	17.1	0.00e+00	0	43	0	225443840	59	5223
2026-01-17 10:31:03.83	181.73	19.04	-44.4	-47.1	17.3	0.00e+00	0	43	0	226492416	59	5168
2026-01-17 10:31:04.80	181.80	19.16	-44.3	-47.0	17.3	0.00e+00	0	43	0	228589568	59	5144
2026-01-17 10:31:05.86	181.87	19.29	-44.5	-47.2	17.1	0.00e+00	0	43	0	230686720	59	5261
2026-01-17 10:31:06.80	181.93	19.40	-44.4	-47.2	17.2	0.00e+00	0	43	0	232783872	59	5234
2026-01-17 10:31:07.80	182.00	19.53	-44.4	-47.2	17.1	0.00e+00	0	43	0	234881024	59	5227
2026-01-17 10:31:08.79	182.07	19.65	-44.5	-47.2	17.1	0.00e+00	0	43	0	235929600	59	5266
2026-01-17 10:31:09.79	182.14	19.78	-44.6	-47.4	17.0	0.00e+00	0	43	0	238026752	59	5373
2026-01-17 10:31:10.78	182.21	19.90	-44.6	-47.4	17.1	0.00e+00	0	43	0	240123904	60	5050
2026-01-17 10:31:11.78	182.28	20.03	-44.5	-47.3	17.1	0.00e+00	0	43	0	242221056	60	5013
2026-01-17 10:31:12.77	182.35	20.15	-44.4	-47.2	17.2	0.00e+00	0	43	0	243269632	60	4938
2026-01-17 10:31:13.77	182.43	20.28	-44.5	-47.2	17.2	0.00e+00	0	43	0	245366784	60	4954
2026-01-17 10:31:14.76	182.50	20.41	-44.4	-47.1	17.3	0.00e+00	0	43	0	247463936	60	4874
2026-01-17 10:31:15.75	182.57	20.53	-44.3	-47.0	17.4	0.00e+00	0	43	0	249561088	60	4835
2026-01-17 10:31:16.75	182.65	20.66	-44.4	-47.1	17.3	0.00e+00	0	43	0	251658240	60	4871
2026-01-17 10:31:17.74	182.72	20.79	-44.5	-47.2	17.2	0.00e+00	0	43	0	252706816	60	4979
2026-01-17 10:31:18.75	182.79	20.92	-44.5	-47.2	17.2	0.00e+00	0	43	0	254803968	60	4957
2026-01-17 10:31:19.78	182.87	21.06	-44.7	-47.5	17.0	0.00e+00	0	43	0	256901120	60	5104
2026-01-17 10:31:20.77	182.95	21.19	-44.6	-47.4	17.1	0.00e+00	0	43	0	258998272	60	5062
2026-01-17 10:31:21.85	183.03	21.33	-44.4	-47.2	17.2	0.00e+00	0	43	0	261095424	60	4964
2026-01-17 10:31:22.73	183.10	21.45	-44.8	-47.7	16.8	0.00e+00	0	43	0	262144000	60	5227
2026-01-17 10:31:24.08	183.21	21.63	-44.8	-47.6	16.8	0.00e+00	0	43	0	265289728	60	5217
2026-01-17 10:31:24.79	183.26	21.73	-44.7	-47.5	17.0	0.00e+00	0	43	0	266338304	60	5114
2026-01-17 10:31:26.06	183.36	21.90	-44.8	-47.7	16.8	0.00e+00	0	43	0	268435456	60	5254
2026-01-17 10:31:26.78	183.42	22.00	-44.8	-47.6	16.9	0.00e+00	0	43	0	269484032	60	5204
2026-01-17 10:31:28.06	183.53	22.17	-44.6	-47.5	17.0	0.00e+00	0	43	0	272629760	60	5110
2026-01-17 10:31:28.77	183.58	22.27	-44.4	-47.2	17.3	0.00e+00	0	43	0	273678336	60	4930
2026-01-17 10:31:30.04	183.69	22.44	-44.3	-47.0	17.4	0.00e+00	0	43	0	275775488	60	4855
2026-01-17 10:31:30.76	183.75	22.54	-43.9	-46.5	17.8	0.00e+00	0	43	0	277872640	59	4852
2026-01-17 10:31:32.03	183.85	22.72	-43.9	-46.4	17.9	0.00e+00	0	43	0	279969792	59	4810
2026-01-17 10:31:32.74	183.91	22.82	-43.9	-46.4	17.9	0.00e+00	0	43	0	281018368	59	4807
2026-01-17 10:31:34.02	184.02	23.00	-43.7	-46.1	18.2	0.00e+00	0	43	0	283115520	59	4647
2026-01-17 10:31:34.73	184.08	23.10	-43.7	-46.2	18.1	0.00e+00	0	43	0	285212672	59	4682
2026-01-17 10:31:36.15	184.21	23.30	-43.3	-45.7	18.6	0.00e+00	0	43	0	287309824	58	4678
2026-01-17 10:31:36.86	184.27	23.40	-43.2	-45.6	18.7	0.00e+00	0	43	0	289406976	58	4615
2026-01-17 10:31:38.14	184.38	23.59	-43.1	-45.3	18.9	0.00e+00	0	43	0	291504128	58	4492
2026-01-17 10:31:39.19	184.48	23.74	-42.8	-45.0	19.2	0.00e+00	0	43	0	293601280	57	4574
2026-01-17 10:31:40.16	184.56	23.88	-42.7	-44.9	19.3	0.00e+00	0	43	0	294649856	57	4510
2026-01-17 10:31:41.16	184.66	24.02	-42.8	-45.0	19.2	0.00e+00	0	43	0	296747008	57	4568
2026-01-17 10:31:42.15	184.75	24.17	-42.5	-44.6	19.5	0.00e+00	0	43	0	298844160	56	4636
2026-01-17 10:31:43.15	184.84	24.32	-42.4	-44.5	19.6	0.00e+00	0	43	0	300941312	56	4588
2026-01-17 10:31:44.14	184.93	24.46	-42.4	-44.6	19.6	0.00e+00	0	43	0	303038464	56	4616
2026-01-17 10:31:45.14	185.03	24.61	-42.4	-44.5	19.6	0.00e+00	0	43	0	304087040	56	4597
2026-01-17 10:31:46.13	185.12	24.76	-42.3	-44.4	19.6	0.00e+00	0	43	0	306184192	56	4541
2026-01-17 10:31:47.16	185.22	24.92	-42.4	-44.6	19.6	0.00e+00	0	43	0	308281344	56	4626
2026-01-17 10:31:48.19	185.32	25.07	-42.4	-44.6	19.6	0.00e+00	0	43	0	310378496	56	4611
2026-01-17 10:31:49.19	185.42	25.22	-42.3	-44.4	19.7	0.00e+00	0	43	0	312475648	56	4538
2026-01-17 10:31:50.18	185.51	25.38	-42.3	-44.4	19.7	0.00e+00	0	43	0	313524224	56	4533
2026-01-17 10:31:51.18	185.61	25.53	-42.4	-44.5	19.6	0.00e+00	0	43	0	315621376	56	4585
2026-01-17 10:31:52.33	185.73	25.71	-42.3	-44.5	19.7	0.00e+00	0	43	0	317718528	56	4566
2026-01-17 10:31:53.23	185.82	25.85	-42.3	-44.5	19.6	0.00e+00	0	43	0	319815680	56	4581
2026-01-17 10:31:54.26	185.93	26.01	-42.4	-44.6	19.6	0.00e+00	0	43	0	321912832	56	4601
2026-01-17 10:31:55.43	186.05	26.19	-42.5	-44.8	19.4	0.00e+00	0	43	0	324009984	56	4709
2026-01-17 10:31:56.31	186.14	26.33	-42.7	-44.9	19.3	0.00e+00	0	43	0	325058560	56	4793
2026-01-17 10:31:57.62	186.28	26.54	-42.7	-44.9	19.3	0.00e+00	0	43	0	328204288	56	4782
2026-01-17 10:31:58.33	186.35	26.65	-43.0	-45.3	19.0	0.00e+00	0	43	0	329252864	56	5018
2026-01-17 10:31:59.60	186.49	26.86	-43.0	-45.3	19.0	0.00e+00	0	43	0	331350016	56	5000
2026-01-17 10:32:00.33	186.57	26.97	-42.9	-45.3	19.0	0.00e+00	0	43	0	332398592	56	4988
2026-01-17 10:32:01.61	186.71	27.18	-43.0	-45.3	19.0	0.00e+00	0	43	0	335544320	57	4715
2026-01-17 10:32:02.34	186.79	27.30	-43.1	-45.4	18.8	0.00e+00	0	43	0	336592896	57	4805
2026-01-17 10:32:03.61	186.94	27.51	-43.1	-45.5	18.8	0.00e+00	0	43	0	338690048	57	4815
2026-01-17 10:32:04.34	187.02	27.63	-43.0	-45.2	19.0	0.00e+00	0	43	0	340787200	57	4691
2026-01-17 10:32:05.62	187.16	27.84	-43.0	-45.3	19.0	0.00e+00	0	43	0	342884352	57	4736
2026-01-17 10:32:06.45	187.26	27.98	-42.8	-45.1	19.2	0.00e+00	0	43	0	343932928	57	4608
2026-01-17 10:32:07.59	187.39	28.17	-42.8	-45.0	19.2	0.00e+00	0	43	0	346030080	57	4572
2026-01-17 10:32:08.60	187.51	28.34	-42.9	-45.1	19.1	0.00e+00	0	43	0	348127232	57	4635
2026-01-17 10:32:09.77	187.65	28.54	-42.9	-45.2	19.1	0.00e+00	0	43	0	350224384	57	4675
2026-01-17 10:32:10.64	187.76	28.69	-43.1	-45.4	18.9	0.00e+00	0	43	0	352321536	57	4784
2026-01-17 10:32:11.78	187.90	28.88	-43.0	-45.3	19.0	0.00e+00	0	43	0	354418688	57	4723
2026-01-17 10:32:12.63	188.00	29.03	-43.0	-45.2	19.1	0.00e+00	0	43	0	355467264	57	4676
2026-01-17 10:32:13.76	188.14	29.23	-43.3	-45.6	18.8	0.00e+00	0	43	0	358612992	57	4891
2026-01-17 10:32:14.62	188.25	29.37	-43.5	-45.8	18.5	0.00e+00	0	43	0	359661568	57	5033
2026-01-17 10:32:16.07	188.44	29.63	-43.3	-45.7	18.7	0.00e+00	0	43	0	362807296	57	4941
2026-01-17 10:32:16.78	188.53	29.75	-43.4	-45.8	18.5	0.00e+00	0	43	0	363855872	57	5020
2026-01-17 10:32:18.06	188.69	29.98	-44.1	-46.7	17.7	0.00e+00	0	43	0	365953024	58	5229
2026-01-17 10:32:18.78	188.79	30.11	-43.9	-46.4	18.0	0.00e+00	0	43	0	367001600	58	5068
2026-01-17 10:32:20.06	188.96	30.34	-44.3	-46.9	17.6	0.00e+00	0	43	0	370147328	59	5075
2026-01-17 10:32:20.78	189.06	30.47	-44.5	-47.1	17.3	0.00e+00	0	43	0	371195904	59	5195
2026-01-17 10:32:22.06	189.23	30.70	-44.4	-47.0	17.4	0.00e+00	0	43	0	373293056	59	5133
2026-01-17 10:32:22.77	189.33	30.83	-44.6	-47.2	17.3	0.00e+00	0	43	0	375390208	59	5260
2026-01-17 10:32:24.05	189.50	31.06	-44.8	-47.5	17.1	0.00e+00	0	43	0	377487360	60	5124
2026-01-17 10:32:24.77	189.61	31.19	-45.0	-47.8	16.8	0.00e+00	0	43	0	378535936	60	5286
2026-01-17 10:32:26.05	189.79	31.43	-45.2	-48.1	16.5	0.00e+00	0	43	0	381681664	61	5178
2026-01-17 10:32:27.00	189.92	31.61	-45.5	-48.5	16.1	0.00e+00	0	43	0	382730240	61	5414
2026-01-17 10:32:27.99	190.07	31.79	-45.8	-49.0	15.7	0.00e+00	0	43	0	384827392	62	5412
2026-01-17 10:32:28.98	190.21	31.98	-46.3	-49.7	15.0	0.00e+00	0	43	0	386924544	63	5544
2026-01-17 10:32:29.98	190.36	32.17	-46.6	-50.2	14.4	7.00e-07	0	43	0	387973120	64	5567
2026-01-17 10:32:30.98	190.51	32.36	-46.5	-50.1	14.5	0.00e+00	0	43	0	390070272	64	5473
2026-01-17 10:32:31.97	190.66	32.55	-46.7	-50.4	14.2	7.00e-07	0	43	0	392167424	64	5722
2026-01-17 10:32:32.96	190.82	32.74	-46.4	-49.9	14.8	0.00e+00	0	43	0	394264576	64	5348
2026-01-17 10:32:33.96	190.97	32.93	-46.1	-49.4	15.2	7.00e-07	0	43	0	396361728	64	5065
2026-01-17 10:32:34.96	191.13	33.12	-46.3	-49.6	15.1	7.00e-07	0	43	0	397410304	63	5519
2026-01-17 10:32:35.95	191.29	33.32	-46.1	-49.3	15.4	0.00e+00	0	43	0	399507456	63	5316
2026-01-17 10:32:36.94	191.45	33.51	-45.6	-48.7	15.9	0.00e+00	0	43	0	401604608	63	4931
2026-01-17 10:32:37.94	191.61	33.71	-45.4	-48.3	16.4	0.00e+00	0	43	0	403701760	62	5006
2026-01-17 10:32:38.94	191.77	33.90	-45.4	-48.3	16.4	0.00e+00	0	43	0	404750336	62	4985
2026-01-17 10:32:39.93	191.94	34.10	-45.2	-48.0	16.6	0.00e+00	0	43	0	406847488	62	4844
2026-01-17 10:32:40.93	192.11	34.30	-45.0	-47.8	16.7	0.00e+00	0	43	0	408944640	61	5040
2026-01-17 10:32:41.92	192.28	34.50	-45.0	-47.9	16.7	0.00e+00	0	43	0	411041792	61	5050
2026-01-17 10:32:42.92	192.45	34.70	-44.8	-47.5	17.0	0.00e+00	0	43	0	413138944	61	4863
2026-01-17 10:32:43.92	192.62	34.91	-44.9	-47.6	17.0	0.00e+00	0	43	0	414187520	61	4912
2026-01-17 10:32:44.91	192.80	35.11	-45.0	-47.7	16.8	0.00e+00	0	43	0	416284672	61	4968
2026-01-17 10:32:45.90	192.98	35.31	-45.0	-47.8	16.9	0.00e+00	0	43	0	418381824	61	4987
2026-01-17 10:32:46.90	193.16	35.52	-45.0	-47.8	16.8	0.00e+00	0	43	0	420478976	61	5001
2026-01-17 10:32:47.89	193.34	35.72	-45.6	-48.6	16.0	0.00e+00	0	43	0	421527552	62	5185
2026-01-17 10:32:48.95	193.54	35.94	-45.7	-48.7	16.1	0.00e+00	0	43	0	423624704	62	5230
2026-01-17 10:32:49.82	193.70	36.12	-45.9	-49.0	15.7	0.00e+00	0	43	0	425721856	62	5408
2026-01-17 10:32:50.96	193.92	36.36	-46.0	-49.1	15.6	0.00e+00	0	43	0	427819008	63	5189
2026-01-17 10:32:51.81	194.08	36.54	-45.9	-49.1	15.6	0.00e+00	0	43	0	429916160	63	5179
2026-01-17 10:32:52.95	194.31	36.78	-45.6	-48.6	16.1	0.00e+00	0	43	0	432013312	63	4892
2026-01-17 10:32:53.80	194.48	36.97	-45.4	-48.3	16.4	0.00e+00	0	43	0	433061888	62	5034
2026-01-17 10:32:54.94	194.70	37.21	-45.7	-48.8	15.9	0.00e+00	0	43	0	435159040	62	5302
2026-01-17 10:32:55.79	194.88	37.39	-45.4	-48.3	16.4	0.00e+00	0	43	0	437256192	62	5024
2026-01-17 10:32:56.93	195.11	37.64	-45.6	-48.6	16.1	0.00e+00	0	43	0	439353344	62	5186
2026-01-17 10:32:57.78	195.29	37.82	-45.8	-48.9	15.8	0.00e+00	0	43	0	440401920	62	5383
2026-01-17 10:32:58.91	195.53	38.07	-46.2	-49.6	15.1	0.00e+00	0	43	0	442499072	63	5509
2026-01-17 10:32:59.77	195.71	38.26	-45.8	-49.0	15.7	0.00e+00	0	43	0	444596224	63	5122
2026-01-17 10:33:01.00	195.98	38.53	-46.0	-49.2	15.5	0.00e+00	0	43	0	446693376	63	5224
2026-01-17 10:33:01.85	196.17	38.72	-45.5	-48.5	16.1	0.00e+00	0	43	0	448790528	63	4833
2026-01-17 10:33:02.99	196.42	38.97	-45.0	-47.8	16.8	0.00e+00	0	43	0	450887680	62	4731
2026-01-17 10:33:03.84	196.61	39.16	-45.3	-48.2	16.5	0.00e+00	0	43	0	451936256	62	4959
2026-01-17 10:33:04.98	196.87	39.42	-45.6	-48.5	16.2	0.00e+00	0	43	0	454033408	62	5130
2026-01-17 10:33:05.83	197.07	39.61	-45.8	-48.9	15.8	0.00e+00	0	43	0	456130560	62	5371
2026-01-17 10:33:06.97	197.34	39.86	-45.8	-48.9	15.7	0.00e+00	0	43	0	458227712	62	5393
2026-01-17 10:33:07.82	197.54	40.06	-46.1	-49.3	15.3	0.00e+00	0	43	0	459276288	62	5656
2026-01-17 10:33:08.96	197.82	40.32	-45.9	-49.1	15.7	0.00e+00	0	43	0	461373440	62	5467
2026-01-17 10:33:09.81	198.03	40.51	-45.7	-48.8	15.9	0.00e+00	0	43	0	463470592	62	5313
2026-01-17 10:33:10.95	198.31	40.77	-45.5	-48.5	16.2	0.00e+00	0	43	0	465567744	62	5101
2026-01-17 10:33:11.80	198.53	40.97	-45.0	-47.8	16.8	0.00e+00	0	43	0	466616320	62	4746
2026-01-17 10:33:12.94	198.82	41.23	-44.6	-47.2	17.3	0.00e+00	0	43	0	468713472	61	4693
2026-01-17 10:33:13.79	199.04	41.43	-44.5	-47.0	17.5	0.00e+00	0	43	0	470810624	60	4861
2026-01-17 10:33:14.97	199.35	41.70	-44.5	-47.1	17.5	0.00e+00	0	43	0	472907776	60	4896
2026-01-17 10:33:15.82	199.58	41.90	-44.7	-47.4	17.3	0.00e+00	0	43	0	473956352	60	5056
2026-01-17 10:33:17.01	199.90	42.18	-44.9	-47.6	17.1	0.00e+00	0	43	0	477102080	60	5190
2026-01-17 10:33:17.86	200.13	42.38	-45.1	-48.0	16.6	0.00e+00	0	43	0	478150656	60	5443
2026-01-17 10:33:19.03	200.46	42.66	-45.5	-48.6	16.1	0.00e+00	0	43	0	480247808	61	5495
2026-01-17 10:33:19.88	200.70	42.86	-45.7	-48.8	15.8	0.00e+00	0	43	0	482344960	62	5333
2026-01-17 10:33:21.15	201.06	43.16	-45.3	-48.3	16.4	0.00e+00	0	43	0	484442112	62	5033
2026-01-17 10:33:21.95	201.30	43.35	-45.2	-48.2	16.6	0.00e+00	0	43	0	485490688	61	5227
2026-01-17 10:33:23.09	201.63	43.63	-45.1	-47.9	16.8	0.00e+00	0	43	0	487587840	61	5062
2026-01-17 10:33:23.94	201.89	43.83	-45.0	-47.7	16.9	0.00e+00	0	43	0	489684992	61	4975
2026-01-17 10:33:25.08	202.24	44.10	-44.5	-47.1	17.5	0.00e+00	0	43	0	491782144	61	4647
2026-01-17 10:33:25.93	202.50	44.31	-44.8	-47.5	17.1	0.00e+00	0	43	0	493879296	61	4859
2026-01-17 10:33:27.07	202.86	44.58	-44.8	-47.5	17.1	0.00e+00	0	43	0	495976448	61	4865
2026-01-17 10:33:27.92	203.13	44.79	-45.4	-48.5	16.3	0.00e+00	0	43	0	497025024	61	5403
2026-01-17 10:33:29.06	203.50	45.07	-45.4	-48.3	16.3	0.00e+00	0	43	0	499122176	61	5340
2026-01-17 10:33:30.23	203.88	45.35	-45.0	-47.8	16.8	0.00e+00	0	43	0	501219328	61	5010
2026-01-17 10:33:31.08	204.17	45.56	-45.1	-47.9	16.7	0.00e+00	0	43	0	503316480	61	5058
2026-01-17 10:33:32.22	204.55	45.84	-45.0	-47.8	16.8	0.00e+00	0	43	0	505413632	61	5028
2026-01-17 10:33:33.29	204.92	46.10	-44.8	-47.6	17.0	0.00e+00	0	43	0	507510784	61	4892
2026-01-17 10:33:34.33	205.29	46.35	-44.6	-47.4	17.3	0.00e+00	0	43	0	509607936	61	4766
2026-01-17 10:33:35.28	205.63	46.58	-44.8	-47.7	17.0	0.00e+00	0	43	0	510656512	60	5225
2026-01-17 10:33:36.27	205.98	46.83	-44.6	-47.3	17.3	0.00e+00	0	43	0	512753664	60	5001
2026-01-17 10:33:37.27	206.35	47.07	-45.0	-47.8	16.9	0.00e+00	0	43	0	514850816	60	5314
2026-01-17 10:33:38.26	206.72	47.32	-44.8	-47.5	17.1	0.00e+00	0	43	0	516947968	60	5106
2026-01-17 10:33:39.26	207.10	47.56	-44.8	-47.5	17.1	0.00e+00	0	43	0	517996544	60	5112
2026-01-17 10:33:40.25	207.48	47.80	-44.9	-47.6	17.1	0.00e+00	0	43	0	520093696	60	5188
2026-01-17 10:33:41.24	207.87	48.05	-44.9	-47.5	17.0	0.00e+00	0	43	0	522190848	60	5150
2026-01-17 10:33:42.24	208.26	48.29	-44.0	-46.4	18.0	0.00e+00	0	43	0	524288000	59	4808
2026-01-17 10:33:43.23	208.66	48.54	-43.5	-45.7	18.6	0.00e+00	0	43	0	525336576	58	4702
2026-01-17 10:33:44.23	209.07	48.78	-43.7	-46.0	18.4	0.00e+00	0	43	0	527433728	58	4870
2026-01-17 10:33:45.24	209.49	49.03	-43.7	-46.1	18.4	0.00e+00	0	43	0	529530880	58	4885
2026-01-17 10:33:46.26	209.92	49.28	-44.6	-47.2	17.4	0.00e+00	0	43	0	531628032	59	5254
2026-01-17 10:33:47.29	210.36	49.53	-46.0	-49.1	15.7	0.00e+00	0	43	0	533725184	62	5513
2026-01-17 10:33:48.28	210.80	49.77	-46.8	-50.4	14.4	0.00e+00	0	43	0	535822336	64	5694
2026-01-17 10:33:49.34	211.27	50.03	-46.5	-49.9	14.7	7.00e-07	0	43	0	536870912	64	5372
2026-01-17 10:33:50.24	211.67	50.25	-45.4	-48.3	16.4	0.00e+00	0	43	0	538968064	62	4991
2026-01-17 10:33:51.48	212.24	50.55	-44.7	-47.3	17.4	0.00e+00	0	43	0	541065216	61	4721
2026-01-17 10:33:52.34	212.64	50.76	-44.8	-47.5	17.2	0.00e+00	0	43	0	543162368	61	4819
2026-01-17 10:33:53.47	213.18	51.03	-45.0	-47.7	16.9	0.00e+00	0	43	0	545259520	61	4964
2026-01-17 10:33:54.33	213.59	51.24	-45.1	-47.9	16.8	0.00e+00	0	43	0	546308096	61	5060
2026-01-17 10:33:55.46	214.14	51.51	-45.1	-47.9	16.7	0.00e+00	0	43	0	548405248	61	5066
2026-01-17 10:33:56.32	214.57	51.72	-44.9	-47.6	17.1	0.00e+00	0	43	0	550502400	61	4895
2026-01-17 10:33:57.45	215.14	51.99	-45.1	-47.8	16.8	0.00e+00	0	43	0	552599552	61	5019
2026-01-17 10:33:58.30	215.57	52.19	-45.1	-47.9	16.8	0.00e+00	0	43	0	553648128	61	5061
2026-01-17 10:33:59.44	216.17	52.45	-45.4	-48.3	16.4	0.00e+00	0	43	0	555745280	61	5323
2026-01-17 10:34:00.30	216.62	52.66	-45.7	-48.7	16.0	0.00e+00	0	43	0	557842432	62	5279
2026-01-17 10:34:01.43	217.23	52.92	-44.1	-46.7	17.9	0.00e+00	0	43	0	559939584	60	4669
2026-01-17 10:34:02.29	217.70	53.12	-43.8	-46.2	18.3	0.00e+00	0	43	0	562036736	59	4659
2026-01-17 10:34:03.43	218.33	53.38	-43.5	-45.9	18.6	0.00e+00	0	43	0	564133888	58	4774
2026-01-17 10:34:04.28	218.81	53.57	-44.1	-46.6	17.8	0.00e+00	0	43	0	565182464	58	5188
2026-01-17 10:34:05.42	219.46	53.83	-44.4	-47.0	17.6	0.00e+00	0	43	0	567279616	59	5137
2026-01-17 10:34:06.27	219.95	54.02	-44.5	-47.1	17.5	0.00e+00	0	43	0	569376768	60	4902
2026-01-17 10:34:07.40	220.62	54.27	-43.9	-46.4	18.0	0.00e+00	0	43	0	571473920	59	4795
2026-01-17 10:34:08.26	221.13	54.46	-43.6	-46.1	18.4	0.00e+00	0	43	0	572522496	58	4872
2026-01-17 10:34:09.50	221.89	54.73	-43.7	-46.1	18.4	0.00e+00	0	43	0	575668224	58	4906
2026-01-17 10:34:10.35	222.41	54.92	-43.7	-46.2	18.3	0.00e+00	0	43	0	576716800	58	4946
2026-01-17 10:34:11.49	223.13	55.16	-43.6	-46.0	18.5	0.00e+00	0	43	0	578813952	58	4845
2026-01-17 10:34:12.35	223.67	55.34	-43.4	-45.7	18.7	0.00e+00	0	43	0	580911104	58	4701
2026-01-17 10:34:13.48	224.40	55.57	-43.8	-46.2	18.3	0.00e+00	0	43	0	583008256	58	4973
2026-01-17 10:34:14.34	224.96	55.75	-44.0	-46.5	18.1	0.00e+00	0	43	0	584056832	58	5109
2026-01-17 10:34:15.47	225.72	55.98	-43.6	-46.0	18.3	0.00e+00	0	43	0	586153984	58	4835
2026-01-17 10:34:16.32	226.29	56.15	-43.6	-46.0	18.5	0.00e+00	0	43	0	588251136	58	4835
2026-01-17 10:34:17.46	227.07	56.37	-44.6	-47.3	17.2	0.00e+00	0	43	0	590348288	59	5318
2026-01-17 10:34:18.31	227.66	56.54	-45.1	-48.0	16.6	0.00e+00	0	43	0	591396864	61	5136
2026-01-17 10:34:19.45	228.46	56.75	-44.9	-47.6	17.0	0.00e+00	0	43	0	593494016	61	4891
2026-01-17 10:34:20.30	229.06	56.91	-44.3	-46.8	17.8	0.00e+00	0	43	0	595591168	60	4738
2026-01-17 10:34:21.44	229.88	57.12	-43.8	-46.2	18.3	0.00e+00	0	43	0	597688320	59	4686
2026-01-17 10:34:22.29	230.50	57.27	-43.5	-45.8	18.7	0.00e+00	0	43	0	598736896	58	4734
2026-01-17 10:34:23.43	231.35	57.47	-43.1	-45.3	19.1	0.00e+00	0	43	0	600834048	58	4458
2026-01-17 10:34:24.29	231.99	57.62	-43.0	-45.2	19.1	0.00e+00	0	43	0	602931200	57	4662
2026-01-17 10:34:25.49	232.90	57.82	-43.5	-45.9	18.7	0.00e+00	0	43	0	605028352	57	5046
2026-01-17 10:34:26.34	233.56	57.95	-43.5	-45.8	18.7	0.00e+00	0	43	0	607125504	58	4727
2026-01-17 10:34:27.48	234.44	58.13	-43.6	-46.0	18.4	0.00e+00	0	43	0	609222656	58	4851
2026-01-17 10:34:28.33	235.11	58.26	-44.2	-46.7	17.8	0.00e+00	0	43	0	610271232	59	4958
2026-01-17 10:34:29.47	236.02	58.43	-45.0	-47.7	17.0	0.00e+00	0	43	0	612368384	60	5266
2026-01-17 10:34:30.32	236.70	58.56	-44.5	-47.1	17.6	0.00e+00	0	43	0	614465536	60	4913
2026-01-17 10:34:31.46	237.63	58.72	-44.1	-46.5	18.0	0.00e+00	0	43	0	616562688	59	4835
2026-01-17 10:34:32.31	238.33	58.83	-43.7	-46.1	18.4	0.00e+00	0	43	0	617611264	59	4612
2026-01-17 10:34:33.70	239.48	59.01	-43.0	-45.2	19.2	0.00e+00	0	43	0	620756992	57	4668
2026-01-17 10:34:34.42	240.09	59.10	-43.0	-45.2	19.1	0.00e+00	0	43	0	621805568	57	4705
2026-01-17 10:34:35.70	241.17	59.25	-43.6	-46.0	18.5	0.00e+00	0	43	0	623902720	57	5116
2026-01-17 10:34:36.42	241.78	59.33	-43.5	-45.8	18.6	0.00e+00	0	43	0	625999872	58	4753
2026-01-17 10:34:37.70	242.89	59.46	-43.8	-46.2	18.3	0.00e+00	0	43	0	628097024	58	4971
2026-01-17 10:34:38.41	243.50	59.53	-44.3	-46.8	17.8	0.00e+00	0	43	0	629145600	59	5006
2026-01-17 10:34:39.69	244.62	59.66	-45.0	-47.7	17.0	0.00e+00	0	43	0	631242752	60	5248
2026-01-17 10:34:40.50	245.33	59.73	-45.3	-48.1	16.6	0.00e+00	0	43	0	633339904	61	5204
2026-01-17 10:34:41.63	246.33	59.82	-45.1	-47.9	16.7	0.00e+00	0	43	0	635437056	61	5093
2026-01-17 10:34:42.69	247.28	59.90	-44.7	-47.4	17.3	0.00e+00	0	43	0	637534208	61	4793
2026-01-17 10:34:43.75	248.23	59.98	-44.2	-46.7	17.9	0.00e+00	0	43	0	639631360	60	4677
2026-01-17 10:34:44.60	249.00	60.03	-44.6	-47.2	17.4	0.00e+00	0	43	0	640679936	60	4943
2026-01-17 10:34:46.14	250.39	60.12	-45.5	-48.5	16.1	0.00e+00	0	43	0	643825664	61	5432
2026-01-17 10:34:46.85	251.04	60.15	-45.7	-48.7	16.1	0.00e+00	0	43	0	644874240	62	5260
2026-01-17 10:34:48.12	252.20	60.21	-44.9	-47.7	16.9	0.00e+00	0	43	0	648019968	61	4955
2026-01-17 10:34:48.85	252.87	60.23	-44.6	-47.3	17.3	0.00e+00	0	43	0	649068544	61	4744
2026-01-17 10:34:50.13	254.05	60.27	-45.3	-48.3	16.5	0.00e+00	0	43	0	651165696	61	5289
2026-01-17 10:34:50.87	254.73	60.29	-45.9	-49.1	15.6	0.00e+00	0	43	0	652214272	62	5511
2026-01-17 10:34:52.15	255.91	60.31	-45.1	-47.9	16.8	0.00e+00	0	43	0	655360000	62	4775
2026-01-17 10:34:52.87	256.57	60.32	-44.3	-46.9	17.8	0.00e+00	0	43	0	656408576	60	4771
2026-01-17 10:34:54.15	257.76	60.32	-44.9	-47.6	17.1	0.00e+00	0	43	0	658505728	60	5183
2026-01-17 10:34:54.86	258.41	60.32	-45.4	-48.5	16.1	0.00e+00	0	43	0	660602880	61	5437
2026-01-17 10:34:56.14	259.59	60.31	-44.6	-47.4	17.2	0.00e+00	0	43	0	662700032	61	4800
2026-01-17 10:34:56.86	260.26	60.30	-44.1	-46.8	17.8	0.00e+00	0	43	0	663748608	60	4710
2026-01-17 10:34:58.14	261.44	60.27	-45.0	-47.9	16.8	0.00e+00	0	43	0	665845760	60	5358
2026-01-17 10:34:58.86	262.10	60.25	-45.2	-48.1	16.6	0.00e+00	0	43	0	667942912	61	5216
2026-01-17 10:35:00.14	263.27	60.20	-44.0	-46.5	18.2	0.00e+00	0	43	0	670040064	60	4577
2026-01-17 10:35:01.21	264.25	60.16	-43.5	-45.8	18.6	0.00e+00	0	43	0	672137216	58	4741
2026-01-17 10:35:02.33	265.27	60.10	-44.0	-46.4	18.1	0.00e+00	0	43	0	674234368	58	5054
2026-01-17 10:35:03.36	266.20	60.04	-43.6	-45.9	18.6	0.00e+00	0	43	0	676331520	58	4784
2026-01-17 10:35:04.35	267.09	59.98	-43.6	-45.9	18.6	0.00e+00	0	43	0	678428672	58	4796
2026-01-17 10:35:05.55	268.17	59.90	-44.0	-46.4	18.1	0.00e+00	0	43	0	680525824	58	5089
2026-01-17 10:35:06.43	268.95	59.83	-43.9	-46.4	18.2	0.00e+00	0	43	0	681574400	59	4760
2026-01-17 10:35:07.57	269.96	59.73	-45.1	-47.9	17.0	0.00e+00	0	43	0	683671552	60	5341
2026-01-17 10:35:08.43	270.72	59.66	-45.5	-48.5	16.3	0.00e+00	0	43	0	685768704	61	5405
2026-01-17 10:35:09.57	271.72	59.55	-45.8	-48.9	15.9	0.00e+00	0	43	0	687865856	62	5354
2026-01-17 10:35:10.42	272.45	59.47	-45.5	-48.5	16.3	0.00e+00	0	43	0	688914432	62	5146
2026-01-17 10:35:11.55	273.43	59.35	-44.8	-47.5	17.2	0.00e+00	0	43	0	691011584	61	4828
2026-01-17 10:35:12.40	274.15	59.25	-44.7	-47.4	17.3	0.00e+00	0	43	0	693108736	60	5086
2026-01-17 10:35:13.54	275.12	59.12	-45.0	-47.7	16.7	0.00e+00	0	43	0	695205888	61	4973
2026-01-17 10:35:14.40	275.84	59.01	-46.1	-49.3	15.6	0.00e+00	0	43	0	696254464	62	5610
2026-01-17 10:35:15.53	276.78	58.87	-45.9	-48.9	15.8	0.00e+00	0	43	0	699400192	62	5391
2026-01-17 10:35:16.39	277.48	58.76	-46.0	-49.1	15.8	0.00e+00	0	43	0	700448768	62	5487
2026-01-17 10:35:17.52	278.40	58.60	-45.9	-49.0	15.7	0.00e+00	0	43	0	702545920	63	5132
2026-01-17 10:35:18.38	279.10	58.48	-45.6	-48.6	16.1	0.00e+00	0	43	0	704643072	63	4922
2026-01-17 10:35:19.58	280.05	58.30	-45.4	-48.3	16.5	0.00e+00	0	43	0	706740224	62	5018
2026-01-17 10:35:20.43	280.72	58.17	-44.7	-47.3	17.3	0.00e+00	0	43	0	707788800	61	4738
2026-01-17 10:35:21.56	281.60	58.00	-43.6	-45.9	18.6	0.00e+00	0	43	0	709885952	59	4497
2026-01-17 10:35:22.41	282.26	57.86	-43.9	-46.3	18.2	0.00e+00	0	43	0	711983104	59	4719
2026-01-17 10:35:23.55	283.12	57.67	-44.5	-47.1	17.5	0.00e+00	0	43	0	714080256	59	5174
2026-01-17 10:35:24.40	283.76	57.53	-44.2	-46.8	17.7	0.00e+00	0	43	0	715128832	59	4992
2026-01-17 10:35:25.54	284.61	57.33	-43.0	-45.2	19.2	0.00e+00	0	43	0	717225984	58	4439
2026-01-17 10:35:26.39	285.23	57.18	-42.3	-44.4	19.9	0.00e+00	0	43	0	719323136	56	4530
2026-01-17 10:35:27.53	286.06	56.97	-42.3	-44.4	19.8	0.00e+00	0	43	0	721420288	56	4511
2026-01-17 10:35:28.38	286.66	56.82	-42.9	-45.2	19.3	0.00e+00	0	43	0	722468864	56	4938
2026-01-17 10:35:29.52	287.47	56.60	-43.5	-45.9	18.5	0.00e+00	0	43	0	725614592	57	5052
2026-01-17 10:35:30.37	288.06	56.44	-42.6	-44.8	19.5	0.00e+00	0	43	0	726663168	57	4457
2026-01-17 10:35:31.51	288.84	56.22	-41.4	-43.4	20.6	0.00e+00	0	44	0	728760320	54	4496
2026-01-17 10:35:32.36	289.41	56.05	-41.3	-43.3	20.6	0.00e+00	0	43	0	730857472	54	4463
2026-01-17 10:35:33.49	290.16	55.82	-42.0	-44.1	20.0	0.00e+00	0	43	0	732954624	54	4906
2026-01-17 10:35:34.35	290.73	55.65	-41.6	-43.6	20.3	0.00e+00	0	43	0	734003200	55	4386
2026-01-17 10:35:35.48	291.46	55.42	-40.7	-42.6	21.2	0.00e+00	0	43	0	736100352	53	4367
2026-01-17 10:35:36.33	292.00	55.24	-40.8	-42.7	21.1	0.00e+00	0	43	0	738197504	53	4412
2026-01-17 10:35:37.53	292.76	54.98	-42.2	-44.3	19.8	0.00e+00	0	43	0	740294656	55	4739
2026-01-17 10:35:38.39	293.29	54.80	-42.8	-45.1	19.3	0.00e+00	0	43	0	741343232	56	4873
2026-01-17 10:35:39.52	293.98	54.56	-41.2	-43.2	20.7	0.00e+00	0	43	0	743440384	54	4413
2026-01-17 10:35:40.37	294.49	54.37	-40.2	-42.1	21.6	0.00e+00	0	43	0	745537536	52	4365
2026-01-17 10:35:41.51	295.16	54.12	-41.0	-43.0	20.9	0.00e+00	0	43	0	747634688	52	4816
2026-01-17 10:35:42.37	295.66	53.93	-42.4	-44.5	19.6	0.00e+00	0	43	0	749731840	55	4862
2026-01-17 10:35:43.68	296.41	53.63	-43.7	-46.2	18.3	0.00e+00	0	43	0	751828992	58	4936
2026-01-17 10:35:44.39	296.81	53.47	-43.2	-45.5	18.9	0.00e+00	0	43	0	752877568	58	4586
2026-01-17 10:35:45.67	297.52	53.18	-43.8	-46.3	18.2	0.00e+00	0	43	0	754974720	58	4991
2026-01-17 10:35:46.38	297.91	53.02	-43.8	-46.2	18.2	0.00e+00	0	43	0	757071872	58	4983
2026-01-17 10:35:47.66	298.60	52.72	-42.4	-44.5	19.8	0.00e+00	0	43	0	759169024	56	4582
2026-01-17 10:35:48.38	298.98	52.55	-41.6	-43.7	20.3	0.00e+00	0	43	0	760217600	55	4403
2026-01-17 10:35:49.66	299.65	52.25	-42.3	-44.5	19.7	0.00e+00	0	43	0	763363328	55	4835
2026-01-17 10:35:50.37	300.01	52.09	-42.6	-44.9	19.3	0.00e+00	0	43	0	764411904	55	5047
2026-01-17 10:35:51.65	300.66	51.78	-42.8	-45.0	19.4	0.00e+00	0	43	0	766509056	56	4827
2026-01-17 10:35:52.39	301.03	51.61	-42.6	-44.8	19.5	0.00e+00	0	43	0	767557632	56	4746
2026-01-17 10:35:53.67	301.66	51.30	-45.5	-48.6	16.0	0.00e+00	0	43	0	770703360	61	5516
2026-01-17 10:35:54.68	302.14	51.06	-46.9	-50.8	13.8	2.20e-06	0	43	0	772800512	64	5990
2026-01-17 10:35:55.96	302.74	50.75	-46.0	-49.3	15.2	7.00e-07	0	43	0	774897664	64	5020
2026-01-17 10:35:56.67	303.07	50.58	-45.6	-48.7	16.1	0.00e+00	0	43	0	775946240	63	4943
2026-01-17 10:35:57.95	303.66	50.27	-46.3	-49.7	15.0	0.00e+00	0	43	0	778043392	63	5559
2026-01-17 10:35:58.66	303.98	50.10	-45.7	-48.7	16.0	0.00e+00	0	43	0	780140544	63	4956
2026-01-17 10:35:59.95	304.55	49.79	-43.9	-46.4	18.1	0.00e+00	0	43	0	782237696	59	4762
2026-01-17 10:36:00.66	304.86	49.61	-43.6	-46.0	18.5	0.00e+00	0	43	0	783286272	59	4570
2026-01-17 10:36:01.93	305.41	49.30	-45.1	-48.1	16.7	0.00e+00	0	43	0	785383424	60	5467
2026-01-17 10:36:02.64	305.71	49.13	-45.9	-49.2	15.6	0.00e+00	0	43	0	787480576	62	5551
2026-01-17 10:36:03.97	306.26	48.81	-46.8	-50.6	14.1	0.00e+00	0	43	0	789577728	64	5834
2026-01-17 10:36:04.68	306.55	48.63	-46.6	-50.3	14.5	1.50e-06	0	43	0	790626304	64	5608
2026-01-17 10:36:05.99	307.08	48.31	-46.4	-49.9	14.8	0.00e+00	0	43	0	793772032	63	5707
2026-01-17 10:36:06.71	307.36	48.14	-45.1	-48.0	16.7	0.00e+00	0	43	0	794820608	62	4828
2026-01-17 10:36:08.01	307.87	47.82	-43.9	-46.4	18.1	0.00e+00	0	43	0	796917760	59	4800
2026-01-17 10:36:08.73	308.15	47.64	-43.6	-46.0	18.5	0.00e+00	0	43	0	799014912	59	4563
2026-01-17 10:36:10.04	308.64	47.32	-45.0	-47.8	16.9	0.00e+00	0	43	0	801112064	60	5313
2026-01-17 10:36:10.75	308.91	47.15	-45.7	-48.9	15.8	0.00e+00	0	43	0	802160640	62	5369
2026-01-17 10:36:12.03	309.38	46.84	-45.9	-49.1	15.6	0.00e+00	0	43	0	805306368	62	5483
2026-01-17 10:36:12.74	309.63	46.66	-44.8	-47.5	17.1	0.00e+00	0	43	0	806354944	61	4863
2026-01-17 10:36:14.02	310.09	46.35	-43.7	-46.1	18.3	0.00e+00	0	43	0	808452096	58	4919
2026-01-17 10:36:14.73	310.34	46.18	-43.9	-46.3	18.2	0.00e+00	0	43	0	809500672	58	5025
2026-01-17 10:36:16.01	310.78	45.87	-44.7	-47.4	17.1	0.00e+00	0	43	0	812646400	60	5083
2026-01-17 10:36:16.72	311.02	45.69	-44.7	-47.4	17.2	0.00e+00	0	43	0	813694976	60	5090
2026-01-17 10:36:18.01	311.45	45.38	-43.7	-46.1	18.3	0.00e+00	0	43	0	815792128	59	4633
2026-01-17 10:36:18.72	311.68	45.21	-43.2	-45.5	18.8	0.00e+00	0	43	0	817889280	58	4598
2026-01-17 10:36:20.00	312.10	44.90	-43.1	-45.4	18.9	0.00e+00	0	43	0	819986432	58	4540
2026-01-17 10:36:20.71	312.33	44.73	-43.1	-45.4	18.9	0.00e+00	0	43	0	821035008	58	4543
2026-01-17 10:36:21.99	312.73	44.42	-43.9	-46.3	18.2	0.00e+00	0	43	0	823132160	58	5019
2026-01-17 10:36:22.70	312.95	44.25	-45.1	-47.9	16.6	0.00e+00	0	43	0	825229312	60	5394
2026-01-17 10:36:23.98	313.34	43.94	-46.3	-49.6	15.1	0.00e+00	0	43	0	827326464	63	5517
2026-01-17 10:36:24.69	313.55	43.77	-46.6	-50.3	14.3	0.00e+00	0	43	0	828375040	64	5608
2026-01-17 10:36:25.98	313.94	43.47	-46.3	-49.7	14.8	3.00e-06	0	43	0	830472192	64	5266
2026-01-17 10:36:26.69	314.15	43.30	-45.2	-48.1	16.6	0.00e+00	0	43	0	832569344	62	4892
2026-01-17 10:36:27.97	314.51	43.00	-43.7	-46.1	18.4	0.00e+00	0	43	0	834666496	59	4608
2026-01-17 10:36:28.71	314.73	42.82	-43.8	-46.3	18.2	0.00e+00	0	43	0	835715072	59	4716
2026-01-17 10:36:29.99	315.08	42.52	-45.5	-48.6	16.2	0.00e+00	0	43	0	838860800	61	5480
2026-01-17 10:36:30.70	315.28	42.35	-46.1	-49.6	15.1	0.00e+00	0	43	0	839909376	62	5844
2026-01-17 10:36:31.98	315.63	42.05	-46.2	-49.8	14.8	0.00e+00	0	43	0	842006528	63	5644
2026-01-17 10:36:32.69	315.82	41.89	-45.5	-48.6	15.9	0.00e+00	0	43	0	843055104	63	4920
2026-01-17 10:36:33.97	316.16	41.59	-44.0	-46.6	17.9	0.00e+00	0	43	0	846200832	60	4614
2026-01-17 10:36:34.70	316.35	41.42	-43.7	-46.2	18.2	0.00e+00	0	43	0	847249408	59	4681
2026-01-17 10:36:35.97	316.67	41.13	-44.3	-46.9	17.6	0.00e+00	0	43	0	849346560	59	5091
2026-01-17 10:36:36.68	316.85	40.97	-44.7	-47.6	17.0	0.00e+00	0	43	0	851443712	60	5164
2026-01-17 10:36:37.96	317.17	40.67	-45.7	-48.9	15.7	0.00e+00	0	43	0	853540864	62	5371
2026-01-17 10:36:38.67	317.35	40.51	-46.1	-49.4	15.2	0.00e+00	0	43	0	854589440	63	5383
2026-01-17 10:36:40.06	317.69	40.20	-46.1	-49.4	15.3	0.00e+00	0	43	0	857735168	63	5384
2026-01-17 10:36:40.78	317.86	40.03	-45.9	-49.1	15.5	0.00e+00	0	43	0	858783744	63	5210
2026-01-17 10:36:42.06	318.16	39.75	-44.8	-47.6	16.9	0.00e+00	0	43	0	860880896	61	4886
2026-01-17 10:36:42.78	318.33	39.58	-44.1	-46.6	17.9	0.00e+00	0	43	0	862978048	60	4633
2026-01-17 10:36:44.06	318.63	39.30	-43.3	-45.7	18.7	0.00e+00	0	43	0	865075200	58	4655
2026-01-17 10:36:44.77	318.79	39.14	-43.5	-45.9	18.5	0.00e+00	0	43	0	866123776	58	4766
2026-01-17 10:36:46.05	319.07	38.86	-44.4	-47.0	17.4	0.00e+00	0	43	0	868220928	59	5146
2026-01-17 10:36:46.79	319.24	38.70	-45.3	-48.2	16.4	0.00e+00	0	43	0	870318080	61	5278
2026-01-17 10:36:48.07	319.52	38.41	-46.7	-50.5	14.2	0.00e+00	0	43	0	872415232	64	5741
2026-01-17 10:36:48.79	319.67	38.26	-47.3	-51.8	12.9	3.80e-06	0	43	0	873463808	65	6277
2026-01-17 10:36:50.07	319.94	37.98	-46.7	-50.7	13.9	1.37e-05	0	43	0	876609536	65	5535
2026-01-17 10:36:50.78	320.09	37.83	-46.2	-49.7	14.7	4.50e-06	0	43	0	877658112	64	5239
2026-01-17 10:36:52.06	320.36	37.55	-45.5	-48.5	16.0	0.00e+00	0	43	0	879755264	62	5157
2026-01-17 10:36:52.79	320.51	37.39	-44.9	-47.8	16.7	0.00e+00	0	43	0	880803840	61	5030
2026-01-17 10:36:54.07	320.76	37.12	-44.5	-47.2	17.3	0.00e+00	0	43	0	883949568	60	4973
2026-01-17 10:36:54.78	320.91	36.97	-44.8	-47.7	16.9	0.00e+00	0	43	0	884998144	60	5238
2026-01-17 10:36:56.06	321.16	36.70	-45.0	-48.1	16.5	0.00e+00	0	43	0	887095296	60	5518
2026-01-17 10:36:56.77	321.29	36.55	-44.9	-48.0	16.6	0.00e+00	0	43	0	889192448	60	5439
2026-01-17 10:36:58.05	321.54	36.28	-44.5	-47.5	17.0	0.00e+00	0	43	0	891289600	60	5132
2026-01-17 10:36:58.77	321.68	36.13	-44.4	-47.4	17.2	0.00e+00	0	43	0	892338176	60	5087
2026-01-17 10:37:00.11	321.93	35.85	-44.2	-47.0	17.4	0.00e+00	0	43	0	895483904	60	4870
2026-01-17 10:37:00.83	322.06	35.70	-44.4	-47.3	17.3	0.00e+00	0	43	0	896532480	60	5038
2026-01-17 10:37:02.17	322.30	35.43	-44.4	-47.3	17.2	0.00e+00	0	44	0	898629632	60	5010
2026-01-17 10:37:02.88	322.43	35.28	-44.3	-47.1	17.4	0.00e+00	0	43	0	899678208	60	4926
2026-01-17 10:37:04.22	322.67	35.01	-44.2	-46.9	17.6	0.00e+00	0	43	0	902823936	60	4761
2026-01-17 10:37:04.93	322.79	34.87	-43.9	-46.4	18.0	0.00e+00	0	43	0	903872512	59	4813
2026-01-17 10:37:06.27	323.03	34.60	-44.9	-47.8	16.7	0.00e+00	0	43	0	907018240	60	5284
2026-01-17 10:37:06.98	323.15	34.46	-45.1	-48.0	16.5	0.00e+00	0	43	0	908066816	61	5126
2026-01-17 10:37:08.27	323.37	34.20	-45.7	-48.8	15.8	0.00e+00	0	43	0	910163968	62	5338
2026-01-17 10:37:08.98	323.49	34.06	-45.7	-48.8	15.8	0.00e+00	0	43	0	911212544	62	5311
2026-01-17 10:37:10.27	323.70	33.81	-45.7	-49.0	15.7	0.00e+00	0	43	0	914358272	62	5408
2026-01-17 10:37:11.00	323.82	33.66	-45.6	-48.8	15.8	0.00e+00	0	43	0	915406848	62	5327
2026-01-17 10:37:12.28	324.02	33.41	-45.2	-48.3	16.2	0.00e+00	0	43	0	917504000	62	5036
2026-01-17 10:37:12.99	324.14	33.28	-45.3	-48.5	16.2	0.00e+00	0	43	0	919601152	62	5127
2026-01-17 10:37:14.29	324.34	33.02	-44.9	-48.0	16.6	0.00e+00	0	43	0	921698304	61	5153
2026-01-17 10:37:15.00	324.45	32.89	-44.8	-47.9	16.5	0.00e+00	0	43	0	922746880	61	5100
2026-01-17 10:37:16.28	324.65	32.64	-44.8	-47.9	16.7	0.00e+00	0	43	0	924844032	61	5051
2026-01-17 10:37:17.03	324.76	32.50	-44.8	-47.9	16.6	0.00e+00	0	43	0	926941184	61	5054
2026-01-17 10:37:18.31	324.96	32.26	-44.8	-47.9	16.6	0.00e+00	0	43	0	929038336	61	5077
2026-01-17 10:37:19.05	325.07	32.12	-44.6	-47.6	16.9	0.00e+00	0	43	0	930086912	61	4881
2026-01-17 10:37:20.33	325.26	31.88	-44.6	-47.5	17.0	0.00e+00	0	43	0	933232640	60	5158
2026-01-17 10:37:21.18	325.38	31.72	-43.8	-46.3	18.0	0.00e+00	0	43	0	934281216	59	4740
2026-01-17 10:37:22.62	325.59	31.46	-43.5	-46.0	18.4	0.00e+00	0	43	0	937426944	58	4817
2026-01-17 10:37:23.33	325.69	31.33	-43.4	-45.9	18.5	0.00e+00	0	43	0	938475520	58	4762
2026-01-17 10:37:24.61	325.87	31.09	-43.5	-45.9	18.4	0.00e+00	0	43	0	940572672	58	4769
2026-01-17 10:37:25.34	325.97	30.96	-43.7	-46.2	18.1	0.00e+00	0	43	0	942669824	58	4978
2026-01-17 10:37:26.62	326.14	30.73	-44.9	-47.8	16.7	0.00e+00	0	43	0	944766976	60	5330
2026-01-17 10:37:27.33	326.24	30.60	-45.1	-48.2	16.4	0.00e+00	0	43	0	945815552	60	5553
2026-01-17 10:37:28.61	326.41	30.37	-46.0	-49.6	15.1	7.00e-07	0	43	0	948961280	62	5799
2026-01-17 10:37:29.34	326.51	30.24	-46.5	-50.4	14.2	7.00e-07	0	43	0	950009856	63	6049
2026-01-17 10:37:30.61	326.68	30.02	-46.4	-50.3	14.2	3.00e-06	0	43	0	952107008	64	5654
2026-01-17 10:37:31.47	326.79	29.87	-46.2	-49.9	14.6	0.00e+00	0	43	0	954204160	64	5385
2026-01-17 10:37:32.60	326.93	29.67	-45.9	-49.4	15.2	0.00e+00	0	43	0	956301312	63	5368
2026-01-17 10:37:33.46	327.04	29.52	-45.1	-48.3	16.3	0.00e+00	0	43	0	957349888	62	4987
2026-01-17 10:37:34.59	327.19	29.32	-44.5	-47.5	17.0	0.00e+00	0	43	0	959447040	61	4818
2026-01-17 10:37:35.70	327.32	29.13	-43.6	-46.3	18.1	0.00e+00	0	43	0	961544192	59	4717
2026-01-17 10:37:36.73	327.45	28.96	-43.1	-45.6	18.6	0.00e+00	0	43	0	963641344	58	4650
2026-01-17 10:37:37.72	327.57	28.79	-42.6	-45.0	19.2	0.00e+00	0	43	0	965738496	57	4580
2026-01-17 10:37:38.94	327.72	28.58	-42.1	-44.4	19.7	0.00e+00	0	43	0	967835648	56	4522
2026-01-17 10:37:39.82	327.82	28.43	-42.4	-44.7	19.4	0.00e+00	0	43	0	969932800	56	4678
2026-01-17 10:37:40.96	327.96	28.24	-42.9	-45.3	19.0	0.00e+00	0	43	0	972029952	56	5019
2026-01-17 10:37:41.81	328.06	28.10	-43.2	-45.6	18.6	0.00e+00	0	43	0	973078528	57	4913
2026-01-17 10:37:42.95	328.19	27.91	-44.0	-46.7	17.7	0.00e+00	0	43	0	975175680	58	5244
2026-01-17 10:37:43.81	328.29	27.77	-44.8	-47.7	16.8	0.00e+00	0	43	0	977272832	60	5253
2026-01-17 10:37:44.94	328.42	27.58	-45.1	-48.1	16.4	0.00e+00	0	43	0	979369984	60	5497
2026-01-17 10:37:45.80	328.51	27.44	-45.2	-48.3	16.2	0.00e+00	0	43	0	980418560	61	5311
2026-01-17 10:37:46.93	328.64	27.26	-45.5	-48.8	15.8	0.00e+00	0	43	0	982515712	61	5600
2026-01-17 10:37:47.78	328.73	27.12	-45.0	-48.1	16.5	0.00e+00	0	43	0	984612864	61	5165
2026-01-17 10:37:48.92	328.86	26.94	-44.7	-47.6	16.8	0.00e+00	0	43	0	986710016	61	4919
2026-01-17 10:37:49.77	328.95	26.80	-44.7	-47.6	16.9	0.00e+00	0	43	0	987758592	61	4900
2026-01-17 10:37:50.91	329.07	26.62	-44.3	-47.1	17.3	0.00e+00	0	43	0	989855744	60	4878
2026-01-17 10:37:51.76	329.16	26.49	-44.3	-47.1	17.3	0.00e+00	0	43	0	991952896	60	4908
2026-01-17 10:37:52.99	329.29	26.30	-44.2	-47.1	17.3	0.00e+00	0	43	0	994050048	60	4873
2026-01-17 10:37:53.85	329.38	26.16	-44.2	-47.0	17.5	0.00e+00	0	43	0	996147200	60	4848
2026-01-17 10:37:55.03	329.50	25.98	-44.6	-47.7	16.8	0.00e+00	0	43	0	998244352	60	5272
2026-01-17 10:37:55.89	329.59	25.85	-44.5	-47.7	16.8	0.00e+00	0	43	0	999292928	60	5227
2026-01-17 10:37:57.02	329.70	25.67	-44.7	-48.1	16.4	0.00e+00	0	43	0	1001390080	60	5475
2026-01-17 10:37:57.88	329.79	25.54	-45.2	-48.7	15.8	0.00e+00	0	43	0	1003487232	61	5580
2026-01-17 10:37:59.13	329.91	25.35	-45.1	-48.6	16.0	0.00e+00	0	43	0	1005584384	61	5475
2026-01-17 10:37:59.98	330.00	25.22	-45.1	-48.5	15.9	0.00e+00	0	43	0	1007681536	61	5454
2026-01-17 10:38:01.12	330.11	25.05	-45.1	-48.3	16.2	7.00e-07	0	43	0	1009778688	61	5331
2026-01-17 10:38:01.97	330.19	24.92	-45.0	-48.1	16.4	0.00e+00	0	43	0	1010827264	61	5192
2026-01-17 10:38:03.11	330.30	24.75	-44.9	-47.9	16.6	0.00e+00	0	43	0	1012924416	61	5059
2026-01-17 10:38:04.04	330.39	24.61	-44.7	-47.6	16.9	0.00e+00	0	43	0	1015021568	61	4885
2026-01-17 10:38:05.03	330.48	24.47	-44.4	-47.1	17.3	0.00e+00	0	43	0	1017118720	60	4908
2026-01-17 10:38:06.03	330.57	24.32	-44.4	-47.2	17.2	0.00e+00	0	43	0	1018167296	60	4962
2026-01-17 10:38:07.03	330.66	24.18	-44.4	-47.1	17.3	0.00e+00	0	43	0	1020264448	60	4915
2026-01-17 10:38:08.02	330.76	24.03	-44.2	-46.9	17.5	0.00e+00	0	44	0	1022361600	60	4769
2026-01-17 10:38:09.02	330.85	23.89	-44.1	-46.8	17.6	0.00e+00	0	43	0	1024458752	60	4742
2026-01-17 10:38:10.01	330.93	23.74	-44.1	-46.9	17.4	0.00e+00	0	43	0	1026555904	60	4770
2026-01-17 10:38:11.01	331.02	23.60	-43.6	-46.1	18.1	0.00e+00	0	43	0	1027604480	59	4625
2026-01-17 10:38:12.00	331.11	23.46	-43.2	-45.7	18.5	0.00e+00	0	43	0	1029701632	58	4686
2026-01-17 10:38:13.00	331.20	23.32	-43.2	-45.6	18.6	0.00e+00	0	43	0	1031798784	58	4618
2026-01-17 10:38:13.99	331.28	23.18	-43.1	-45.5	18.7	0.00e+00	0	43	0	1033895936	58	4586
2026-01-17 10:38:14.99	331.37	23.04	-43.1	-45.5	18.7	0.00e+00	0	43	0	1034944512	58	4558
2026-01-17 10:38:15.98	331.46	22.90	-42.4	-44.6	19.5	0.00e+00	0	43	0	1037041664	56	4637
2026-01-17 10:38:16.97	331.54	22.76	-42.5	-44.7	19.4	0.00e+00	0	43	0	1039138816	56	4690
2026-01-17 10:38:17.97	331.62	22.63	-42.2	-44.5	19.6	0.00e+00	0	43	0	1041235968	56	4559
2026-01-17 10:38:18.97	331.71	22.49	-42.3	-44.5	19.5	0.00e+00	0	43	0	1043333120	56	4594
2026-01-17 10:38:19.96	331.79	22.35	-42.6	-45.0	19.1	0.00e+00	0	43	0	1044381696	56	4837
2026-01-17 10:38:20.96	331.87	22.22	-42.5	-44.9	19.2	0.00e+00	0	43	0	1046478848	56	4803
2026-01-17 10:38:21.95	331.95	22.08	-42.7	-45.2	19.0	0.00e+00	0	43	0	1048576000	56	4952
2026-01-17 10:38:22.95	332.03	21.95	-43.1	-45.6	18.6	0.00e+00	0	43	0	1050673152	56	5206
2026-01-17 10:38:23.94	332.11	21.81	-43.2	-45.8	18.4	0.00e+00	0	43	0	1051721728	57	5031
2026-01-17 10:38:24.94	332.19	21.68	-43.8	-46.5	17.8	0.00e+00	0	43	0	1053818880	58	5141
2026-01-17 10:38:25.93	332.27	21.55	-43.9	-46.7	17.6	0.00e+00	0	43	0	1055916032	58	5241
2026-01-17 10:38:26.93	332.34	21.42	-44.0	-46.7	17.6	0.00e+00	0	43	0	1058013184	58	5267
2026-01-17 10:38:27.92	332.42	21.29	-44.1	-46.9	17.4	0.00e+00	0	43	0	1060110336	59	5089
2026-01-17 10:38:28.92	332.50	21.16	-44.1	-46.8	17.5	0.00e+00	0	43	0	1061158912	59	5017
2026-01-17 10:38:29.96	332.58	21.02	-44.2	-46.9	17.5	0.00e+00	0	43	0	1063256064	59	5050
2026-01-17 10:38:30.91	332.65	20.90	-44.0	-46.6	17.7	0.00e+00	0	43	0	1065353216	59	4903
2026-01-17 10:38:31.90	332.72	20.77	-43.8	-46.3	17.9	0.00e+00	0	43	0	1067450368	59	4751
2026-01-17 10:38:32.90	332.80	20.64	-43.7	-46.2	18.0	0.00e+00	0	43	0	1068498944	59	4699
2026-01-17 10:38:33.89	332.87	20.52	-43.3	-45.8	18.4	0.00e+00	0	43	0	1070596096	58	4737
2026-01-17 10:38:34.89	332.94	20.39	-43.0	-45.4	18.8	0.00e+00	0	43	0	1072693248	57	4766
2026-01-17 10:38:35.89	333.02	20.26	-42.8	-45.2	18.9	0.00e+00	0	43	0	1074790400	57	4687
2026-01-17 10:38:36.88	333.09	20.14	-43.0	-45.4	18.9	0.00e+00	0	43	0	1076887552	57	4789
2026-01-17 10:38:37.88	333.16	20.01	-42.6	-44.9	19.2	0.00e+00	0	43	0	1077936128	57	4515
2026-01-17 10:38:38.87	333.23	19.89	-42.4	-44.8	19.3	0.00e+00	0	43	0	1080033280	56	4719
2026-01-17 10:38:39.87	333.30	19.76	-42.3	-44.7	19.4	0.00e+00	0	43	0	1082130432	56	4656
2026-01-17 10:38:40.86	333.37	19.64	-42.4	-44.7	19.3	0.00e+00	0	43	0	1084227584	56	4681
2026-01-17 10:38:41.85	333.44	19.52	-42.1	-44.5	19.6	0.00e+00	0	43	0	1085276160	56	4563
2026-01-17 10:38:42.85	333.51	19.40	-42.1	-44.5	19.5	0.00e+00	0	43	0	1087373312	56	4579
2026-01-17 10:38:43.84	333.57	19.28	-42.2	-44.6	19.4	0.00e+00	0	43	0	1089470464	56	4635
2026-01-17 10:38:44.89	333.64	19.15	-42.2	-44.7	19.5	0.00e+00	0	43	0	1091567616	56	4686
2026-01-17 10:38:45.85	333.71	19.03	-42.2	-44.7	19.4	0.00e+00	0	43	0	1093664768	56	4684
2026-01-17 10:38:46.93	333.78	18.90	-42.3	-44.8	19.3	0.00e+00	0	43	0	1095761920	56	4732
2026-01-17 10:38:47.82	333.84	18.80	-42.6	-45.1	19.0	0.00e+00	0	43	0	1096810496	56	4903
2026-01-17 10:38:49.13	333.93	18.64	-42.8	-45.4	18.7	0.00e+00	0	43	0	1098907648	56	5075
2026-01-17 10:38:49.84	333.97	18.56	-43.0	-45.6	18.6	0.00e+00	0	43	0	1101004800	56	5165
2026-01-17 10:38:51.12	334.06	18.41	-43.5	-46.2	18.0	0.00e+00	0	43	0	1103101952	57	5234
2026-01-17 10:38:51.83	334.10	18.32	-43.5	-46.1	18.1	0.00e+00	0	43	0	1104150528	57	5212
2026-01-17 10:38:53.10	334.18	18.17	-43.9	-46.7	17.6	0.00e+00	0	43	0	1107296256	58	5262
2026-01-17 10:38:53.89	334.23	18.08	-43.9	-46.7	17.5	0.00e+00	0	43	0	1108344832	58	5239
2026-01-17 10:38:55.07	334.31	17.95	-44.1	-47.0	17.3	0.00e+00	0	43	0	1110441984	58	5464
2026-01-17 10:38:55.92	334.36	17.85	-44.3	-47.4	17.0	0.00e+00	0	43	0	1112539136	59	5342
2026-01-17 10:38:57.06	334.43	17.72	-44.3	-47.3	17.0	0.00e+00	0	43	0	1114636288	59	5338
2026-01-17 10:38:57.92	334.48	17.62	-44.3	-47.4	16.9	0.00e+00	0	43	0	1115684864	59	5343
2026-01-17 10:38:59.05	334.55	17.49	-44.2	-47.4	16.9	0.00e+00	0	43	0	1117782016	59	5345
2026-01-17 10:38:59.91	334.61	17.39	-44.3	-47.4	16.9	0.00e+00	0	43	0	1119879168	59	5346
2026-01-17 10:39:01.04	334.67	17.26	-44.2	-47.3	17.0	0.00e+00	0	43	0	1121976320	59	5318
2026-01-17 10:39:01.89	334.72	17.17	-44.2	-47.3	17.0	0.00e+00	0	43	0	1123024896	59	5298
2026-01-17 10:39:03.03	334.79	17.04	-44.2	-47.2	17.1	0.00e+00	0	43	0	1125122048	59	5232
2026-01-17 10:39:03.89	334.84	16.95	-44.3	-47.3	17.0	0.00e+00	0	43	0	1127219200	59	5283
2026-01-17 10:39:05.10	334.91	16.81	-44.0	-46.8	17.4	0.00e+00	0	43	0	1129316352	59	5029
2026-01-17 10:39:06.37	334.99	16.67	-44.0	-46.8	17.5	0.00e+00	0	43	0	1131413504	59	4999
2026-01-17 10:39:07.15	335.03	16.59	-43.9	-46.6	17.6	0.00e+00	0	43	0	1133510656	59	4922
2026-01-17 10:39:08.34	335.10	16.46	-43.9	-46.6	17.6	0.00e+00	0	43	0	1135607808	59	4883
2026-01-17 10:39:09.19	335.15	16.36	-43.8	-46.5	17.7	0.00e+00	0	43	0	1136656384	59	4859
2026-01-17 10:39:10.33	335.21	16.24	-43.6	-46.2	17.9	0.00e+00	0	43	0	1138753536	59	4701
2026-01-17 10:39:11.18	335.26	16.15	-43.6	-46.2	18.0	0.00e+00	0	44	0	1140850688	59	4672
2026-01-17 10:39:12.32	335.33	16.02	-43.5	-46.1	18.1	0.00e+00	0	43	0	1142947840	58	4899
2026-01-17 10:39:13.18	335.37	15.93	-43.6	-46.2	18.0	0.00e+00	0	43	0	1143996416	58	4935
2026-01-17 10:39:14.31	335.44	15.81	-43.6	-46.3	17.9	0.00e+00	0	43	0	1147142144	58	4996
2026-01-17 10:39:15.16	335.48	15.72	-43.4	-46.0	18.2	0.00e+00	0	43	0	1148190720	58	4833
2026-01-17 10:39:16.41	335.55	15.59	-43.5	-46.1	18.1	0.00e+00	0	43	0	1150287872	58	4884
2026-01-17 10:39:17.26	335.60	15.50	-43.5	-46.1	18.0	0.00e+00	0	43	0	1152385024	58	4926
2026-01-17 10:39:18.40	335.66	15.38	-43.3	-45.9	18.2	0.00e+00	0	43	0	1154482176	58	4775
2026-01-17 10:39:19.26	335.70	15.29	-43.5	-46.1	18.0	0.00e+00	0	43	0	1155530752	58	4892
2026-01-17 10:39:20.39	335.76	15.17	-43.3	-45.8	18.3	0.00e+00	0	43	0	1157627904	58	4752
2026-01-17 10:39:21.25	335.81	15.08	-43.4	-45.9	18.2	0.00e+00	0	43	0	1159725056	58	4787
2026-01-17 10:39:22.61	335.88	14.94	-43.4	-45.9	18.2	0.00e+00	0	43	0	1161822208	58	4773
2026-01-17 10:39:23.31	335.92	14.87	-43.2	-45.7	18.4	0.00e+00	0	43	0	1163919360	58	4678
2026-01-17 10:39:24.59	335.98	14.74	-43.3	-45.8	18.3	0.00e+00	0	43	0	1166016512	58	4720
2026-01-17 10:39:25.31	336.02	14.67	-43.2	-45.6	18.4	0.00e+00	0	44	0	1167065088	58	4647
2026-01-17 10:39:26.58	336.09	14.54	-43.3	-45.7	18.4	0.00e+00	0	43	0	1169162240	58	4669
2026-01-17 10:39:27.30	336.12	14.47	-43.3	-45.7	18.4	0.00e+00	0	43	0	1171259392	58	4703
2026-01-17 10:39:28.58	336.19	14.34	-43.2	-45.6	18.5	0.00e+00	0	43	0	1173356544	58	4636
2026-01-17 10:39:29.31	336.22	14.27	-43.2	-45.7	18.4	0.00e+00	0	43	0	1174405120	58	4660
2026-01-17 10:39:30.59	336.29	14.14	-43.3	-45.7	18.3	0.00e+00	0	43	0	1177550848	58	4696
2026-01-17 10:39:31.32	336.32	14.06	-43.3	-45.7	18.4	0.00e+00	0	43	0	1178599424	58	4690
2026-01-17 10:39:32.60	336.39	13.94	-43.2	-45.7	18.3	0.00e+00	0	43	0	1180696576	58	4699
2026-01-17 10:39:33.47	336.43	13.85	-43.3	-45.8	18.3	0.00e+00	0	43	0	1182793728	58	4744
2026-01-17 10:39:34.60	336.48	13.74	-43.3	-45.9	18.2	0.00e+00	0	43	0	1184890880	58	4763
2026-01-17 10:39:35.66	336.53	13.64	-43.4	-46.0	18.1	0.00e+00	0	43	0	1186988032	58	4845
2026-01-17 10:39:36.72	336.58	13.53	-43.2	-45.8	18.3	0.00e+00	0	43	0	1189085184	58	4737
2026-01-17 10:39:37.71	336.63	13.44	-43.4	-46.1	18.0	0.00e+00	0	43	0	1190133760	58	4908
2026-01-17 10:39:38.88	336.69	13.33	-43.4	-46.1	18.0	0.00e+00	0	43	0	1192230912	58	4902
2026-01-17 10:39:39.77	336.73	13.24	-43.4	-46.2	17.9	0.00e+00	0	43	0	1194328064	58	4955
2026-01-17 10:39:40.90	336.78	13.13	-43.5	-46.3	17.8	0.00e+00	0	43	0	1196425216	58	5013
2026-01-17 10:39:41.75	336.82	13.05	-43.4	-46.3	17.9	0.00e+00	0	43	0	1198522368	58	4984
2026-01-17 10:39:43.08	336.88	12.92	-43.6	-46.5	17.6	0.00e+00	0	43	0	1200619520	58	5123
2026-01-17 10:39:43.79	336.92	12.86	-43.6	-46.5	17.6	0.00e+00	0	43	0	1201668096	58	5128
2026-01-17 10:39:45.07	336.97	12.74	-43.6	-46.5	17.6	0.00e+00	0	43	0	1203765248	58	5150
2026-01-17 10:39:45.78	337.01	12.67	-43.6	-46.5	17.6	0.00e+00	0	43	0	1205862400	58	5145
2026-01-17 10:39:47.07	337.06	12.55	-43.5	-46.3	17.8	0.00e+00	0	43	0	1207959552	58	5029
2026-01-17 10:39:47.79	337.10	12.48	-43.5	-46.4	17.7	0.00e+00	0	43	0	1209008128	58	5087
2026-01-17 10:39:49.07	337.15	12.36	-43.4	-46.3	17.8	0.00e+00	0	43	0	1212153856	58	5022
2026-01-17 10:39:49.78	337.19	12.30	-43.5	-46.4	17.7	0.00e+00	0	43	0	1213202432	58	5060
2026-01-17 10:39:51.06	337.24	12.18	-43.5	-46.5	17.6	0.00e+00	0	43	0	1215299584	58	5103
2026-01-17 10:39:51.77	337.27	12.11	-43.5	-46.5	17.6	0.00e+00	0	43	0	1216348160	58	5103
2026-01-17 10:39:53.04	337.33	12.00	-43.6	-46.5	17.5	0.00e+00	0	44	0	1219493888	58	5154
2026-01-17 10:39:53.77	337.36	11.93	-43.6	-46.5	17.5	0.00e+00	0	43	0	1220542464	58	5152
2026-01-17 10:39:55.05	337.42	11.81	-43.4	-46.4	17.6	0.00e+00	0	43	0	1222639616	58	5089
2026-01-17 10:39:55.76	337.45	11.75	-43.4	-46.4	17.7	0.00e+00	0	43	0	1224736768	58	5077
2026-01-17 10:39:57.04	337.50	11.63	-43.4	-46.4	17.7	0.00e+00	0	43	0	1226833920	58	5054
2026-01-17 10:39:57.75	337.53	11.57	-43.4	-46.4	17.7	0.00e+00	0	43	0	1227882496	58	5043
2026-01-17 10:39:59.03	337.58	11.45	-43.3	-46.2	17.9	0.00e+00	0	43	0	1229979648	58	4947
2026-01-17 10:39:59.75	337.61	11.39	-43.3	-46.2	17.8	0.00e+00	0	43	0	1232076800	58	4966
