passes_logs/2026/01/17/T1/T1__20260117_145159_FENGYUN_3E_rec.log

#Pass ID: 20260117_145159_FENGYUN 3E
#Satellite: FENGYUN 3E
#Configuration: FENGYUN 3E
#almurnet v.1.7.20251203
#Start time: 2026-01-17 14:52:00

#Version: 2.0.20230620
#Station: T1
#Location: 37.570604 lon 55.790049 lat
#TLE: 1 49008U 21062A   26016.55599566  .00000255  00000+0  14071-3 0  9994
#TLE: 2 49008  98.7485  21.6664 0002094 134.5344 225.6004 14.19886148235063

#Time	Az	El	Level	Level2	SNR	BER	BlckErr	Temp	State	Recorded	gain1	gain2
2026-01-17 14:52:00.28	181.11	5.04	-48.5	-59.7	3.8	8.46e-01	0	41	0	0	67	13050
2026-01-17 14:52:01.26	181.15	5.10	-47.9	-59.3	3.8	8.47e-01	0	41	104	0	65	14015
2026-01-17 14:52:02.26	181.19	5.17	-47.9	-59.3	3.8	8.46e-01	0	41	104	0	65	13971
2026-01-17 14:52:03.25	181.22	5.24	-47.9	-59.2	3.8	8.47e-01	0	41	104	0	65	13861
2026-01-17 14:52:04.24	181.26	5.31	-47.9	-59.2	3.8	8.46e-01	0	41	104	0	65	13812
2026-01-17 14:52:05.24	181.30	5.38	-47.9	-59.1	3.8	8.47e-01	0	41	104	0	65	13707
2026-01-17 14:52:06.23	181.34	5.45	-47.9	-59.1	3.8	8.48e-01	0	41	104	0	65	13654
2026-01-17 14:52:07.22	181.38	5.52	-47.9	-59.1	3.8	8.46e-01	0	41	104	0	65	13669
2026-01-17 14:52:08.22	181.42	5.59	-47.9	-59.1	3.8	8.48e-01	0	42	104	0	65	13680
2026-01-17 14:52:09.21	181.46	5.66	-47.9	-59.2	3.8	8.46e-01	0	41	104	0	65	13796
2026-01-17 14:52:10.20	181.50	5.74	-47.9	-59.3	3.8	8.46e-01	0	41	104	0	65	13907
2026-01-17 14:52:11.20	181.54	5.81	-47.9	-59.4	3.8	8.47e-01	0	42	104	0	65	14131
2026-01-17 14:52:12.19	181.57	5.88	-47.9	-59.4	3.8	8.48e-01	0	42	104	0	65	14113
2026-01-17 14:52:13.18	181.61	5.95	-47.9	-59.4	3.8	8.46e-01	0	42	104	0	65	14113
2026-01-17 14:52:14.17	181.65	6.02	-47.9	-59.4	3.8	8.47e-01	0	42	104	0	65	14087
2026-01-17 14:52:15.17	181.70	6.09	-47.9	-59.3	3.8	8.47e-01	0	42	104	0	65	13942
2026-01-17 14:52:16.16	181.74	6.16	-47.9	-59.2	3.8	8.48e-01	0	42	104	0	65	13843
2026-01-17 14:52:17.15	181.78	6.24	-47.9	-59.2	3.8	8.46e-01	0	42	104	0	65	13878
2026-01-17 14:52:18.15	181.82	6.31	-47.9	-59.3	3.8	8.46e-01	0	42	104	0	65	13967
2026-01-17 14:52:19.14	181.86	6.38	-47.9	-59.4	3.8	8.47e-01	0	42	104	0	65	14079
2026-01-17 14:52:20.13	181.90	6.45	-47.9	-59.4	3.8	8.46e-01	0	42	104	0	65	14138
2026-01-17 14:52:21.13	181.94	6.53	-47.9	-59.3	3.8	8.46e-01	0	42	104	0	65	13924
2026-01-17 14:52:22.12	181.98	6.60	-47.9	-58.9	3.8	8.48e-01	0	42	104	0	65	13386
2026-01-17 14:52:23.11	182.02	6.67	-47.8	-58.4	3.8	8.47e-01	0	42	104	0	65	12538
2026-01-17 14:52:24.10	182.07	6.75	-47.7	-57.6	3.8	8.46e-01	0	42	104	0	65	11512
2026-01-17 14:52:25.09	182.11	6.82	-47.6	-56.8	3.9	8.43e-01	0	42	104	0	65	10506
2026-01-17 14:52:26.09	182.15	6.89	-47.5	-56.2	4.1	8.42e-01	0	42	0	0	65	9741
2026-01-17 14:52:27.08	182.19	6.97	-47.5	-56.0	4.1	8.41e-01	0	42	0	0	65	9585
2026-01-17 14:52:28.07	182.24	7.04	-47.5	-56.2	4.1	8.40e-01	0	42	0	0	65	9757
2026-01-17 14:52:29.07	182.28	7.12	-47.6	-56.9	4.0	8.45e-01	0	42	104	0	65	10547
2026-01-17 14:52:30.06	182.32	7.19	-47.8	-58.1	3.8	8.47e-01	0	42	104	0	65	12185
2026-01-17 14:52:31.05	182.37	7.27	-47.9	-59.1	3.8	8.48e-01	0	43	104	0	65	13709
2026-01-17 14:52:32.05	182.41	7.34	-47.7	-57.9	3.8	8.47e-01	0	42	104	0	65	11825
2026-01-17 14:52:33.04	182.45	7.42	-47.2	-54.4	4.7	8.17e-01	0	42	0	0	65	7903
2026-01-17 14:52:34.03	182.50	7.49	-46.2	-51.1	7.1	2.66e-01	0	42	0	3145728	63	6102
2026-01-17 14:52:35.03	182.54	7.57	-44.9	-48.4	9.8	2.11e-02	0	42	0	10485760	60	5326
2026-01-17 14:52:36.02	182.59	7.65	-43.4	-46.0	12.2	3.10e-04	0	42	0	17825792	57	4791
2026-01-17 14:52:37.01	182.63	7.72	-42.1	-44.3	13.8	2.05e-05	0	42	0	25165824	55	4423
2026-01-17 14:52:38.01	182.68	7.80	-40.8	-42.6	15.5	0.00e+00	0	42	0	31457280	52	4324
2026-01-17 14:52:39.00	182.72	7.87	-40.0	-41.7	16.4	0.00e+00	0	42	0	38797312	50	4352
2026-01-17 14:52:39.99	182.77	7.95	-38.6	-40.4	17.4	0.00e+00	0	42	0	46137344	48	4239
2026-01-17 14:52:40.99	182.81	8.03	-38.2	-39.8	18.0	0.00e+00	0	42	0	53477376	47	4155
2026-01-17 14:52:41.98	182.86	8.11	-37.9	-39.4	18.2	0.00e+00	0	42	0	60817408	46	4239
2026-01-17 14:52:42.97	182.90	8.18	-37.9	-39.4	18.3	0.00e+00	0	43	0	68157440	46	4208
2026-01-17 14:52:43.96	182.95	8.26	-37.7	-39.2	18.5	0.00e+00	0	43	0	74448896	46	4104
2026-01-17 14:52:44.96	183.00	8.34	-37.9	-39.4	18.3	0.00e+00	0	42	0	81788928	46	4232
2026-01-17 14:52:45.95	183.04	8.42	-38.4	-40.0	17.8	0.00e+00	0	43	0	89128960	46	4496
2026-01-17 14:52:46.94	183.09	8.50	-39.0	-40.7	17.1	0.00e+00	0	43	0	96468992	47	4618
2026-01-17 14:52:47.94	183.14	8.57	-39.7	-41.4	16.7	0.00e+00	0	43	0	103809024	48	4728
2026-01-17 14:52:48.93	183.18	8.65	-40.7	-42.6	15.6	0.00e+00	0	43	0	111149056	50	4829
2026-01-17 14:52:49.92	183.23	8.73	-41.5	-43.5	14.6	1.10e-06	0	43	0	117440512	52	4772
2026-01-17 14:52:50.92	183.28	8.81	-42.5	-44.8	13.3	5.70e-06	0	43	0	124780544	54	4973
2026-01-17 14:52:51.91	183.33	8.89	-43.7	-46.4	11.8	4.60e-04	0	43	0	132120576	56	5332
2026-01-17 14:52:52.91	183.38	8.97	-44.8	-48.1	10.0	4.03e-03	0	43	0	139460608	58	5775
2026-01-17 14:52:53.90	183.43	9.05	-45.6	-49.8	8.4	3.27e-02	0	43	0	146800640	60	6254
2026-01-17 14:52:54.89	183.47	9.13	-40.6	-42.4	15.7	5.70e-06	0	43	0	154140672	52	4210
2026-01-17 14:52:55.89	183.52	9.21	-46.6	-52.0	6.3	5.70e-02	0	43	0	161480704	62	7153
2026-01-17 14:52:56.88	183.57	9.29	-45.1	-48.6	9.8	1.13e-02	0	43	0	168820736	60	5411
2026-01-17 14:52:57.88	183.62	9.37	-40.0	-41.7	16.4	0.00e+00	0	43	0	175112192	50	4360
2026-01-17 14:52:58.87	183.67	9.46	-47.8	-56.7	4.0	2.22e-01	0	43	0	181403648	64	10953
2026-01-17 14:52:59.87	183.72	9.54	-43.4	-45.9	12.3	4.53e-03	0	43	0	183500800	57	4752
2026-01-17 14:53:00.86	183.77	9.62	-42.0	-44.2	13.9	2.20e-06	0	43	0	190840832	54	4624
2026-01-17 14:53:01.85	183.82	9.70	-40.8	-42.7	15.4	0.00e+00	0	43	0	198180864	52	4369
2026-01-17 14:53:02.88	183.88	9.79	-41.2	-43.1	15.1	0.00e+00	0	43	0	205520896	51	4863
2026-01-17 14:53:03.88	183.93	9.87	-40.7	-42.6	15.6	0.00e+00	0	43	0	212860928	51	4559
2026-01-17 14:53:04.95	183.98	9.96	-40.5	-42.3	15.9	0.00e+00	0	43	0	220200960	51	4439
2026-01-17 14:53:05.84	184.03	10.03	-40.2	-42.0	15.8	0.00e+00	0	43	0	226492416	51	4274
2026-01-17 14:53:06.98	184.09	10.13	-40.1	-41.9	16.3	0.00e+00	0	43	0	234881024	50	4442
2026-01-17 14:53:07.83	184.14	10.20	-40.1	-41.9	16.3	0.00e+00	0	43	0	241172480	50	4458
2026-01-17 14:53:08.97	184.20	10.30	-39.6	-41.2	16.8	0.00e+00	0	43	0	249561088	49	4384
2026-01-17 14:53:09.82	184.24	10.37	-39.4	-41.0	17.1	0.00e+00	0	43	0	254803968	49	4283
2026-01-17 14:53:10.96	184.30	10.47	-38.2	-39.7	18.1	0.00e+00	0	43	0	263192576	47	4134
2026-01-17 14:53:11.81	184.35	10.54	-37.5	-39.0	18.7	0.00e+00	0	43	0	269484032	45	4286
2026-01-17 14:53:12.94	184.41	10.64	-37.4	-38.9	18.9	0.00e+00	0	43	0	277872640	45	4212
2026-01-17 14:53:13.80	184.46	10.71	-37.5	-39.1	18.7	0.00e+00	0	43	0	284164096	45	4292
2026-01-17 14:53:14.94	184.52	10.81	-37.4	-38.9	18.8	0.00e+00	0	43	0	292552704	45	4204
2026-01-17 14:53:15.79	184.57	10.88	-37.0	-38.4	19.2	0.00e+00	0	43	0	298844160	44	4223
2026-01-17 14:53:16.93	184.63	10.98	-36.7	-38.1	19.5	0.00e+00	0	43	0	307232768	44	4083
2026-01-17 14:53:17.78	184.68	11.05	-36.8	-38.2	19.4	0.00e+00	0	43	0	313524224	44	4131
2026-01-17 14:53:19.00	184.75	11.16	-36.5	-37.9	19.5	0.00e+00	0	43	0	321912832	43	4226
2026-01-17 14:53:19.85	184.79	11.23	-36.3	-37.8	19.7	0.00e+00	0	43	0	328204288	43	4154
2026-01-17 14:53:21.07	184.86	11.34	-36.3	-37.7	19.7	0.00e+00	0	43	0	336592896	43	4115
2026-01-17 14:53:21.92	184.91	11.42	-36.3	-37.7	19.7	0.00e+00	0	43	0	342884352	43	4144
2026-01-17 14:53:23.06	184.98	11.52	-36.2	-37.6	19.8	0.00e+00	0	43	0	351272960	43	4070
2026-01-17 14:53:23.92	185.03	11.59	-36.6	-38.1	19.4	0.00e+00	0	43	0	357564416	43	4299
2026-01-17 14:53:25.05	185.09	11.69	-36.3	-37.7	19.7	0.00e+00	0	43	0	364904448	43	4125
2026-01-17 14:53:25.91	185.14	11.77	-36.3	-37.7	19.7	0.00e+00	0	43	0	371195904	43	4117
2026-01-17 14:53:27.04	185.21	11.87	-36.3	-37.7	19.7	0.00e+00	0	43	0	379584512	43	4126
2026-01-17 14:53:27.90	185.26	11.95	-36.2	-37.6	19.8	0.00e+00	0	43	0	385875968	43	4071
2026-01-17 14:53:29.03	185.33	12.05	-36.3	-37.8	19.7	0.00e+00	0	43	0	394264576	43	4157
2026-01-17 14:53:29.89	185.38	12.13	-36.0	-37.4	20.0	0.00e+00	0	43	0	400556032	42	4210
2026-01-17 14:53:31.02	185.45	12.23	-36.1	-37.6	19.8	0.00e+00	0	43	0	407896064	42	4297
2026-01-17 14:53:31.88	185.50	12.31	-36.0	-37.4	20.0	0.00e+00	0	43	0	414187520	42	4225
2026-01-17 14:53:33.01	185.57	12.41	-36.0	-37.4	20.0	0.00e+00	0	43	0	422576128	42	4203
2026-01-17 14:53:33.86	185.62	12.49	-35.8	-37.2	20.1	0.00e+00	0	43	0	428867584	42	4114
2026-01-17 14:53:35.00	185.69	12.60	-36.0	-37.4	20.0	0.00e+00	0	43	0	437256192	42	4225
2026-01-17 14:53:35.85	185.74	12.68	-36.0	-37.4	20.0	0.00e+00	0	43	0	443547648	42	4199
2026-01-17 14:53:37.12	185.82	12.79	-35.8	-37.2	20.2	0.00e+00	0	43	0	451936256	42	4135
2026-01-17 14:53:37.83	185.87	12.86	-35.7	-37.1	20.2	0.00e+00	0	43	0	458227712	42	4087
2026-01-17 14:53:39.11	185.95	12.98	-35.7	-37.1	20.3	0.00e+00	0	43	0	466616320	42	4061
2026-01-17 14:53:39.85	185.99	13.05	-35.8	-37.2	20.2	0.00e+00	0	43	0	471859200	42	4120
2026-01-17 14:53:41.13	186.08	13.17	-35.8	-37.1	20.3	0.00e+00	0	43	0	481296384	42	4091
2026-01-17 14:53:41.84	186.12	13.24	-35.7	-37.1	20.3	0.00e+00	0	43	0	486539264	42	4057
2026-01-17 14:53:43.12	186.20	13.36	-35.5	-36.9	20.5	0.00e+00	0	43	0	495976448	41	4214
2026-01-17 14:53:43.91	186.25	13.43	-35.6	-37.0	20.4	0.00e+00	0	43	0	501219328	41	4269
2026-01-17 14:53:45.10	186.33	13.55	-35.9	-37.3	20.1	0.00e+00	0	43	0	509607936	41	4415
2026-01-17 14:53:45.95	186.39	13.63	-35.6	-37.0	20.3	0.00e+00	0	43	0	515899392	41	4267
2026-01-17 14:53:47.09	186.46	13.74	-35.5	-36.9	20.5	0.00e+00	0	43	0	524288000	41	4209
2026-01-17 14:53:47.94	186.52	13.82	-35.6	-36.9	20.4	0.00e+00	0	43	0	530579456	41	4226
2026-01-17 14:53:49.08	186.60	13.93	-35.6	-37.0	20.4	0.00e+00	0	44	0	538968064	41	4261
2026-01-17 14:53:49.93	186.65	14.01	-35.6	-37.0	20.4	0.00e+00	0	43	0	545259520	41	4247
2026-01-17 14:53:51.07	186.73	14.13	-35.6	-36.9	20.5	0.00e+00	0	44	0	552599552	41	4228
2026-01-17 14:53:51.92	186.79	14.21	-35.5	-36.9	20.5	0.00e+00	0	43	0	558891008	41	4199
2026-01-17 14:53:53.06	186.87	14.32	-35.6	-36.9	20.4	0.00e+00	0	43	0	567279616	41	4242
2026-01-17 14:53:53.91	186.93	14.40	-35.7	-37.1	20.3	0.00e+00	0	44	0	573571072	41	4304
2026-01-17 14:53:55.05	187.01	14.52	-35.6	-37.0	20.4	0.00e+00	0	43	0	581959680	41	4265
2026-01-17 14:53:55.90	187.07	14.60	-35.6	-37.0	20.4	0.00e+00	0	43	0	588251136	41	4264
2026-01-17 14:53:57.04	187.15	14.72	-35.7	-37.1	20.3	0.00e+00	0	43	0	596639744	41	4308
2026-01-17 14:53:57.89	187.21	14.80	-35.4	-36.8	20.6	0.00e+00	0	43	0	602931200	41	4152
2026-01-17 14:53:59.03	187.29	14.92	-35.4	-36.8	20.6	0.00e+00	0	43	0	611319808	41	4161
2026-01-17 14:53:59.88	187.35	15.00	-35.4	-36.9	20.5	0.00e+00	0	43	0	616562688	41	4201
2026-01-17 14:54:01.02	187.43	15.12	-35.5	-36.9	20.5	0.00e+00	0	43	0	624951296	41	4227
2026-01-17 14:54:01.87	187.49	15.20	-35.4	-36.9	20.5	0.00e+00	0	44	0	631242752	41	4202
2026-01-17 14:54:03.01	187.58	15.32	-35.3	-36.7	20.7	0.00e+00	0	43	0	639631360	41	4116
2026-01-17 14:54:03.86	187.64	15.41	-35.3	-36.7	20.7	0.00e+00	0	44	0	645922816	41	4120
2026-01-17 14:54:05.00	187.72	15.52	-35.3	-36.7	20.7	0.00e+00	0	44	0	653262848	41	4122
2026-01-17 14:54:05.85	187.79	15.61	-35.0	-36.4	20.9	0.00e+00	0	43	0	659554304	40	4218
2026-01-17 14:54:06.99	187.87	15.73	-35.3	-36.7	20.6	0.00e+00	0	43	0	667942912	40	4378
2026-01-17 14:54:07.84	187.94	15.82	-35.2	-36.6	20.8	0.00e+00	0	43	0	674234368	40	4323
2026-01-17 14:54:08.98	188.03	15.94	-35.3	-36.8	20.6	0.00e+00	0	44	0	682622976	40	4403
2026-01-17 14:54:09.83	188.09	16.03	-35.3	-36.7	20.7	0.00e+00	0	44	0	688914432	40	4360
2026-01-17 14:54:10.97	188.18	16.15	-35.3	-36.7	20.7	0.00e+00	0	43	0	696254464	40	4390
2026-01-17 14:54:11.82	188.24	16.24	-35.4	-36.9	20.6	0.00e+00	0	44	0	702545920	40	4451
2026-01-17 14:54:13.10	188.34	16.37	-35.2	-36.7	20.7	0.00e+00	0	44	0	711983104	40	4343
2026-01-17 14:54:13.81	188.40	16.45	-35.1	-36.5	20.8	0.00e+00	0	44	0	717225984	40	4284
2026-01-17 14:54:15.09	188.50	16.58	-35.1	-36.5	20.9	0.00e+00	0	43	0	726663168	40	4260
2026-01-17 14:54:15.80	188.56	16.66	-35.2	-36.6	20.8	0.00e+00	0	44	0	731906048	40	4330
2026-01-17 14:54:17.08	188.66	16.80	-35.2	-36.6	20.8	0.00e+00	0	43	0	741343232	40	4318
2026-01-17 14:54:17.79	188.72	16.88	-35.0	-36.4	21.0	0.00e+00	0	43	0	746586112	40	4215
2026-01-17 14:54:19.07	188.82	17.01	-35.1	-36.5	21.0	0.00e+00	0	44	0	754974720	40	4250
2026-01-17 14:54:19.87	188.89	17.10	-35.0	-36.4	21.0	0.00e+00	0	44	0	761266176	40	4210
2026-01-17 14:54:21.01	188.98	17.23	-34.8	-36.2	21.2	0.00e+00	0	44	0	769654784	40	4103
2026-01-17 14:54:21.86	189.06	17.32	-34.7	-36.0	21.3	0.00e+00	0	44	0	774897664	40	4043
2026-01-17 14:54:23.00	189.15	17.45	-34.9	-36.3	21.1	0.00e+00	0	43	0	783286272	40	4162
2026-01-17 14:54:23.85	189.22	17.54	-34.8	-36.2	21.2	0.00e+00	0	44	0	789577728	40	4104
2026-01-17 14:54:24.99	189.32	17.67	-34.7	-36.0	21.4	0.00e+00	0	44	0	797966336	40	4022
2026-01-17 14:54:25.84	189.39	17.76	-34.7	-36.1	21.3	0.00e+00	0	44	0	804257792	40	4052
2026-01-17 14:54:26.98	189.49	17.89	-35.1	-36.5	21.0	0.00e+00	0	44	0	812646400	39	4525
2026-01-17 14:54:27.83	189.56	17.98	-34.6	-35.9	21.6	0.00e+00	0	44	0	818937856	39	4199
2026-01-17 14:54:28.97	189.66	18.11	-34.5	-35.8	21.6	0.00e+00	0	44	0	826277888	39	4161
2026-01-17 14:54:29.82	189.74	18.21	-34.5	-35.8	21.6	0.00e+00	0	44	0	832569344	39	4167
2026-01-17 14:54:30.96	189.84	18.34	-34.3	-35.6	21.8	0.00e+00	0	44	0	840957952	39	4070
2026-01-17 14:54:31.81	189.92	18.44	-34.3	-35.6	21.7	0.00e+00	0	44	0	847249408	39	4080
2026-01-17 14:54:32.95	190.02	18.57	-34.4	-35.7	21.7	0.00e+00	0	43	0	855638016	39	4109
2026-01-17 14:54:33.80	190.10	18.67	-34.3	-35.6	21.8	0.00e+00	0	44	0	861929472	39	4063
2026-01-17 14:54:34.94	190.20	18.80	-34.4	-35.6	21.8	0.00e+00	0	44	0	870318080	39	4093
2026-01-17 14:54:35.79	190.28	18.90	-34.3	-35.5	21.8	0.00e+00	0	43	0	876609536	39	4043
2026-01-17 14:54:36.93	190.38	19.03	-34.3	-35.6	21.8	0.00e+00	0	44	0	883949568	39	4084
2026-01-17 14:54:37.78	190.46	19.13	-34.4	-35.7	21.7	0.00e+00	0	44	0	890241024	39	4109
2026-01-17 14:54:38.92	190.57	19.26	-34.2	-35.4	21.9	0.00e+00	0	44	0	898629632	39	3997
2026-01-17 14:54:39.77	190.65	19.36	-34.2	-35.5	21.9	0.00e+00	0	44	0	904921088	39	4030
2026-01-17 14:54:40.91	190.76	19.50	-34.3	-35.6	21.8	0.00e+00	0	44	0	913309696	39	4066
2026-01-17 14:54:41.76	190.84	19.60	-34.3	-35.5	21.8	0.00e+00	0	44	0	918552576	39	4036
2026-01-17 14:54:42.90	190.95	19.74	-34.4	-35.7	21.7	0.00e+00	0	44	0	926941184	38	4375
2026-01-17 14:54:43.75	191.04	19.84	-34.3	-35.6	21.8	0.00e+00	0	44	0	933232640	38	4303
2026-01-17 14:54:45.09	191.17	20.00	-34.3	-35.6	21.8	0.00e+00	0	44	0	943718400	38	4297
2026-01-17 14:54:45.81	191.24	20.09	-34.4	-35.7	21.7	0.00e+00	0	44	0	947912704	38	4364
2026-01-17 14:54:47.08	191.37	20.24	-34.4	-35.8	21.6	0.00e+00	0	44	0	957349888	38	4392
2026-01-17 14:54:47.81	191.44	20.33	-34.4	-35.7	21.6	0.00e+00	0	44	0	962592768	38	4389
2026-01-17 14:54:49.09	191.57	20.49	-34.3	-35.6	21.8	0.00e+00	0	44	0	972029952	39	4053
2026-01-17 14:54:49.80	191.64	20.58	-34.3	-35.6	21.7	0.00e+00	0	44	0	977272832	39	4071
2026-01-17 14:54:51.08	191.77	20.74	-34.2	-35.5	21.8	0.00e+00	0	44	0	986710016	39	4039
2026-01-17 14:54:51.79	191.85	20.82	-34.2	-35.5	21.8	0.00e+00	0	44	0	991952896	39	4039
2026-01-17 14:54:53.07	191.98	20.98	-34.0	-35.2	22.1	0.00e+00	0	44	0	1000341504	38	4133
2026-01-17 14:54:53.87	192.07	21.08	-34.1	-35.4	21.9	0.00e+00	0	44	0	1006632960	38	4206
2026-01-17 14:54:55.01	192.19	21.23	-34.1	-35.4	21.9	0.00e+00	0	44	0	1015021568	38	4223
2026-01-17 14:54:55.86	192.28	21.34	-34.2	-35.4	21.8	0.00e+00	0	44	0	1021313024	38	4233
2026-01-17 14:54:57.00	192.40	21.48	-34.1	-35.4	21.9	0.00e+00	0	44	0	1028653056	38	4216
2026-01-17 14:54:57.85	192.49	21.59	-34.1	-35.4	21.8	0.00e+00	0	44	0	1034944512	38	4223
2026-01-17 14:54:58.99	192.62	21.73	-34.0	-35.3	21.9	0.00e+00	0	44	0	1043333120	38	4168
2026-01-17 14:54:59.84	192.71	21.84	-33.8	-35.1	22.0	0.00e+00	0	44	0	1049624576	38	4086
2026-01-17 14:55:01.00	192.84	21.99	-33.9	-35.2	22.0	0.00e+00	0	44	0	1058013184	38	4106
2026-01-17 14:55:01.85	192.94	22.10	-33.8	-35.1	22.1	0.00e+00	0	44	0	1064304640	38	4083
2026-01-17 14:55:03.07	193.08	22.26	-33.8	-35.1	22.1	0.00e+00	0	44	0	1072693248	38	4064
2026-01-17 14:55:03.92	193.17	22.37	-33.6	-34.9	22.3	0.00e+00	0	44	0	1078984704	38	3965
2026-01-17 14:55:05.06	193.31	22.52	-33.7	-35.0	22.2	0.00e+00	0	43	0	1087373312	38	4022
2026-01-17 14:55:05.91	193.41	22.64	-33.9	-35.2	22.1	0.00e+00	0	44	0	1093664768	38	4105
2026-01-17 14:55:07.05	193.54	22.79	-33.6	-34.9	22.2	0.00e+00	0	44	0	1102053376	38	3995
2026-01-17 14:55:07.91	193.64	22.90	-33.7	-35.0	22.1	0.00e+00	0	44	0	1108344832	38	4036
2026-01-17 14:55:09.04	193.78	23.05	-34.0	-35.3	21.9	0.00e+00	0	44	0	1115684864	38	4185
2026-01-17 14:55:09.89	193.88	23.17	-33.8	-35.2	22.0	0.00e+00	0	44	0	1121976320	38	4106
2026-01-17 14:55:11.03	194.02	23.32	-33.8	-35.1	22.1	0.00e+00	0	44	0	1130364928	38	4060
2026-01-17 14:55:11.88	194.12	23.44	-33.8	-35.1	22.1	0.00e+00	0	44	0	1136656384	38	4067
2026-01-17 14:55:13.02	194.26	23.59	-33.8	-35.2	22.0	0.00e+00	0	44	0	1145044992	38	4109
2026-01-17 14:55:13.88	194.37	23.71	-33.9	-35.3	21.9	0.00e+00	0	44	0	1150287872	38	4160
2026-01-17 14:55:15.01	194.51	23.86	-33.9	-35.3	21.9	0.00e+00	0	44	0	1158676480	38	4146
2026-01-17 14:55:15.87	194.62	23.98	-33.9	-35.2	21.9	0.00e+00	0	44	0	1164967936	38	4140
2026-01-17 14:55:17.02	194.76	24.14	-33.8	-35.2	22.0	0.00e+00	0	44	0	1173356544	38	4122
2026-01-17 14:55:17.87	194.87	24.26	-34.0	-35.4	21.8	0.00e+00	0	44	0	1179648000	38	4203
2026-01-17 14:55:19.01	195.02	24.42	-33.9	-35.3	21.9	0.00e+00	0	44	0	1188036608	38	4169
2026-01-17 14:55:19.87	195.13	24.54	-33.8	-35.1	22.1	0.00e+00	0	44	0	1194328064	37	4309
2026-01-17 14:55:21.01	195.28	24.70	-33.8	-35.1	22.0	0.00e+00	0	44	0	1202716672	37	4327
2026-01-17 14:55:21.86	195.40	24.82	-33.6	-34.9	22.2	0.00e+00	0	44	0	1209008128	37	4230
2026-01-17 14:55:23.00	195.55	24.98	-33.5	-34.8	22.4	0.00e+00	0	44	0	1216348160	37	4150
2026-01-17 14:55:23.85	195.66	25.10	-33.6	-34.9	22.3	0.00e+00	0	44	0	1222639616	37	4214
2026-01-17 14:55:24.99	195.82	25.27	-33.6	-34.9	22.3	0.00e+00	0	44	0	1231028224	37	4237
2026-01-17 14:55:25.84	195.94	25.39	-33.5	-34.8	22.4	0.00e+00	0	44	0	1237319680	37	4165
2026-01-17 14:55:26.97	196.09	25.55	-33.6	-34.8	22.4	0.00e+00	0	44	0	1245708288	37	4188
2026-01-17 14:55:27.82	196.21	25.67	-33.6	-34.8	22.4	0.00e+00	0	44	0	1251999744	37	4191
2026-01-17 14:55:28.96	196.38	25.84	-33.6	-34.9	22.3	0.00e+00	0	44	0	1259339776	37	4220
2026-01-17 14:55:29.81	196.50	25.96	-33.7	-35.0	22.3	0.00e+00	0	44	0	1265631232	37	4253
2026-01-17 14:55:30.95	196.66	26.13	-33.6	-34.8	22.4	0.00e+00	0	44	0	1274019840	37	4190
2026-01-17 14:55:31.80	196.78	26.26	-33.6	-34.9	22.3	0.00e+00	0	44	0	1280311296	37	4200
2026-01-17 14:55:32.94	196.95	26.43	-33.5	-34.8	22.4	0.00e+00	0	44	0	1288699904	37	4168
2026-01-17 14:55:33.79	197.08	26.55	-33.5	-34.8	22.4	0.00e+00	0	44	0	1294991360	37	4152
2026-01-17 14:55:35.02	197.26	26.74	-33.5	-34.8	22.4	0.00e+00	0	44	0	1303379968	37	4162
2026-01-17 14:55:35.88	197.39	26.86	-33.5	-34.8	22.3	0.00e+00	0	44	0	1309671424	37	4158
2026-01-17 14:55:37.02	197.56	27.04	-33.5	-34.9	22.2	0.00e+00	0	44	0	1318060032	37	4198
2026-01-17 14:55:37.87	197.69	27.17	-33.5	-34.8	22.3	0.00e+00	0	44	0	1324351488	37	4165
2026-01-17 14:55:39.00	197.87	27.34	-33.4	-34.7	22.3	0.00e+00	0	44	0	1332740096	37	4144
2026-01-17 14:55:39.86	198.00	27.47	-33.4	-34.7	22.3	0.00e+00	0	44	0	1337982976	37	4131
2026-01-17 14:55:41.00	198.18	27.64	-33.4	-34.7	22.2	0.00e+00	0	44	0	1346371584	37	4132
2026-01-17 14:55:41.85	198.32	27.77	-33.2	-34.5	22.4	0.00e+00	0	44	0	1352663040	37	4044
2026-01-17 14:55:42.99	198.50	27.95	-33.2	-34.5	22.4	0.00e+00	0	44	0	1361051648	37	4030
2026-01-17 14:55:43.84	198.64	28.08	-33.2	-34.5	22.4	0.00e+00	0	44	0	1367343104	37	4028
2026-01-17 14:55:44.98	198.83	28.26	-33.1	-34.4	22.4	0.00e+00	0	44	0	1375731712	36	4229
2026-01-17 14:55:45.83	198.97	28.39	-33.7	-35.2	21.6	0.00e+00	0	44	0	1382023168	36	4613
2026-01-17 14:55:46.97	199.16	28.57	-33.1	-34.5	22.2	0.00e+00	0	44	0	1389363200	36	4243
2026-01-17 14:55:47.82	199.30	28.70	-33.1	-34.4	22.4	0.00e+00	0	44	0	1395654656	36	4226
2026-01-17 14:55:48.96	199.50	28.88	-33.1	-34.4	22.4	0.00e+00	0	44	0	1404043264	36	4208
2026-01-17 14:55:49.81	199.64	29.02	-33.0	-34.3	22.5	0.00e+00	0	44	0	1410334720	36	4164
2026-01-17 14:55:50.94	199.84	29.20	-33.0	-34.3	22.5	0.00e+00	0	44	0	1418723328	36	4167
2026-01-17 14:55:51.80	199.99	29.34	-33.2	-34.5	22.4	0.00e+00	0	44	0	1425014784	36	4246
2026-01-17 14:55:52.94	200.19	29.52	-33.1	-34.4	22.5	0.00e+00	0	44	0	1433403392	36	4219
2026-01-17 14:55:53.79	200.34	29.66	-33.1	-34.4	22.5	0.00e+00	0	44	0	1439694848	36	4216
2026-01-17 14:55:54.93	200.55	29.84	-33.1	-34.4	22.6	0.00e+00	0	44	0	1447034880	36	4205
2026-01-17 14:55:55.78	200.70	29.98	-33.1	-34.4	22.6	0.00e+00	0	44	0	1453326336	36	4200
2026-01-17 14:55:56.91	200.91	30.16	-33.0	-34.3	22.7	0.00e+00	0	44	0	1461714944	36	4153
2026-01-17 14:55:57.77	201.07	30.30	-33.1	-34.3	22.7	0.00e+00	0	44	0	1468006400	36	4175
2026-01-17 14:55:58.90	201.28	30.49	-33.2	-34.4	22.6	0.00e+00	0	44	0	1476395008	36	4224
2026-01-17 14:55:59.76	201.45	30.63	-33.3	-34.6	22.5	0.00e+00	0	44	0	1481637888	36	4299
2026-01-17 14:56:00.89	201.66	30.82	-33.3	-34.6	22.5	0.00e+00	0	44	0	1490026496	36	4296
2026-01-17 14:56:01.74	201.83	30.96	-33.4	-34.6	22.5	0.00e+00	0	44	0	1496317952	36	4328
2026-01-17 14:56:02.88	202.05	31.15	-33.3	-34.6	22.5	0.00e+00	0	44	0	1504706560	36	4308
2026-01-17 14:56:03.73	202.22	31.29	-33.4	-34.7	22.4	0.00e+00	0	44	0	1510998016	36	4358
2026-01-17 14:56:04.90	202.45	31.49	-33.3	-34.5	22.6	0.00e+00	0	44	0	1519386624	36	4288
2026-01-17 14:56:05.76	202.62	31.63	-33.3	-34.5	22.6	0.00e+00	0	44	0	1525678080	36	4289
2026-01-17 14:56:06.99	202.87	31.84	-33.2	-34.4	22.7	0.00e+00	0	44	0	1534066688	37	3997
2026-01-17 14:56:07.84	203.05	31.98	-33.4	-34.6	22.5	0.00e+00	0	44	0	1540358144	37	4093
2026-01-17 14:56:08.98	203.29	32.18	-33.2	-34.4	22.7	0.00e+00	0	44	0	1548746752	37	4004
2026-01-17 14:56:09.83	203.46	32.32	-33.3	-34.5	22.6	0.00e+00	0	44	0	1555038208	37	4045
2026-01-17 14:56:10.97	203.71	32.52	-33.3	-34.6	22.5	0.00e+00	0	44	0	1563426816	37	4055
2026-01-17 14:56:11.83	203.89	32.67	-33.4	-34.7	22.5	0.00e+00	0	44	0	1568669696	37	4106
2026-01-17 14:56:12.97	204.14	32.86	-33.2	-34.5	22.6	0.00e+00	0	44	0	1577058304	36	4262
2026-01-17 14:56:13.82	204.32	33.01	-33.1	-34.4	22.7	0.00e+00	0	44	0	1583349760	36	4228
2026-01-17 14:56:14.96	204.57	33.21	-33.1	-34.4	22.6	0.00e+00	0	44	0	1591738368	36	4231
2026-01-17 14:56:15.81	204.76	33.36	-33.1	-34.4	22.7	0.00e+00	0	44	0	1598029824	36	4199
2026-01-17 14:56:16.95	205.02	33.56	-33.1	-34.3	22.7	0.00e+00	0	44	0	1606418432	36	4192
2026-01-17 14:56:17.80	205.22	33.70	-33.1	-34.3	22.7	0.00e+00	0	43	0	1612709888	36	4192
2026-01-17 14:56:18.94	205.48	33.90	-33.2	-34.4	22.6	0.00e+00	0	44	0	1621098496	36	4238
2026-01-17 14:56:19.79	205.68	34.05	-33.1	-34.3	22.7	0.00e+00	0	44	0	1626341376	36	4179
2026-01-17 14:56:20.93	205.94	34.26	-33.0	-34.3	22.8	0.00e+00	0	44	0	1634729984	36	4153
2026-01-17 14:56:21.78	206.15	34.41	-33.0	-34.3	22.8	0.00e+00	0	44	0	1641021440	36	4154
2026-01-17 14:56:22.98	206.44	34.62	-33.2	-34.5	22.5	0.00e+00	0	44	0	1650458624	36	4283
2026-01-17 14:56:23.83	206.64	34.77	-33.2	-34.4	22.6	0.00e+00	0	44	0	1655701504	36	4240
2026-01-17 14:56:24.97	206.92	34.97	-33.3	-34.6	22.4	0.00e+00	0	44	0	1664090112	36	4307
2026-01-17 14:56:25.82	207.13	35.13	-33.2	-34.5	22.5	0.00e+00	0	44	0	1670381568	36	4275
2026-01-17 14:56:27.10	207.46	35.36	-33.3	-34.6	22.3	0.00e+00	0	44	0	1679818752	36	4306
2026-01-17 14:56:27.81	207.64	35.48	-33.4	-34.7	22.2	0.00e+00	0	44	0	1685061632	36	4343
2026-01-17 14:56:29.09	207.96	35.71	-33.5	-34.8	22.1	0.00e+00	0	44	0	1694498816	36	4419
2026-01-17 14:56:29.80	208.15	35.84	-33.5	-34.8	22.1	0.00e+00	0	44	0	1698693120	36	4434
2026-01-17 14:56:31.08	208.48	36.07	-33.4	-34.7	22.2	0.00e+00	0	44	0	1708130304	36	4354
2026-01-17 14:56:31.80	208.68	36.20	-33.4	-34.7	22.2	0.00e+00	0	44	0	1713373184	36	4362
2026-01-17 14:56:33.08	209.02	36.44	-33.4	-34.7	22.3	0.00e+00	0	44	0	1722810368	36	4357
2026-01-17 14:56:33.89	209.24	36.58	-33.5	-34.8	22.2	0.00e+00	0	44	0	1729101824	36	4428
2026-01-17 14:56:35.02	209.55	36.79	-33.7	-35.0	22.1	0.00e+00	0	44	0	1736441856	36	4537
2026-01-17 14:56:35.87	209.78	36.94	-33.5	-34.8	22.2	0.00e+00	0	44	0	1742733312	36	4417
2026-01-17 14:56:37.01	210.10	37.15	-33.3	-34.6	22.5	0.00e+00	0	44	0	1751121920	36	4305
2026-01-17 14:56:37.86	210.34	37.31	-33.3	-34.5	22.6	0.00e+00	0	44	0	1757413376	36	4280
2026-01-17 14:56:39.00	210.67	37.52	-33.2	-34.4	22.8	0.00e+00	0	44	0	1765801984	36	4225
2026-01-17 14:56:39.85	210.92	37.67	-33.2	-34.4	22.9	0.00e+00	0	44	0	1772093440	36	4197
2026-01-17 14:56:40.98	211.25	37.88	-33.1	-34.3	22.9	0.00e+00	0	44	0	1779433472	36	4166
2026-01-17 14:56:41.84	211.50	38.04	-33.1	-34.3	22.9	0.00e+00	0	44	0	1785724928	36	4165
2026-01-17 14:56:43.10	211.88	38.27	-33.2	-34.4	22.9	0.00e+00	0	44	0	1795162112	36	4204
2026-01-17 14:56:43.89	212.12	38.42	-33.2	-34.5	22.8	0.00e+00	0	44	0	1800404992	36	4249
2026-01-17 14:56:45.15	212.51	38.65	-33.2	-34.5	22.7	0.00e+00	0	44	0	1809842176	36	4254
2026-01-17 14:56:46.32	212.87	38.86	-33.2	-34.5	22.7	0.00e+00	0	44	0	1818230784	36	4266
2026-01-17 14:56:47.17	213.14	39.02	-33.3	-34.6	22.6	0.00e+00	0	44	0	1824522240	36	4312
2026-01-17 14:56:48.31	213.50	39.23	-33.4	-34.7	22.5	0.00e+00	0	44	0	1832910848	36	4385
2026-01-17 14:56:49.16	213.77	39.39	-33.6	-34.9	22.3	0.00e+00	0	44	0	1839202304	36	4474
2026-01-17 14:56:50.30	214.14	39.60	-33.7	-35.0	22.1	0.00e+00	0	44	0	1846542336	36	4533
2026-01-17 14:56:51.15	214.42	39.75	-33.7	-35.0	22.2	0.00e+00	0	44	0	1852833792	36	4532
2026-01-17 14:56:52.29	214.80	39.96	-33.7	-35.1	22.1	0.00e+00	0	44	0	1861222400	36	4566
2026-01-17 14:56:53.14	215.08	40.12	-33.7	-35.0	22.1	0.00e+00	0	44	0	1867513856	37	4271
2026-01-17 14:56:54.28	215.47	40.33	-33.7	-35.0	22.2	0.00e+00	0	44	0	1875902464	37	4254
2026-01-17 14:56:55.13	215.76	40.49	-33.9	-35.2	22.0	0.00e+00	0	44	0	1882193920	37	4377
2026-01-17 14:56:56.49	216.24	40.74	-33.7	-35.0	22.2	0.00e+00	0	44	0	1891631104	37	4259
2026-01-17 14:56:57.20	216.49	40.87	-33.6	-34.8	22.3	0.00e+00	0	44	0	1896873984	37	4179
2026-01-17 14:56:58.48	216.94	41.10	-33.7	-34.9	22.3	0.00e+00	0	44	0	1906311168	37	4229
2026-01-17 14:56:59.19	217.20	41.23	-33.7	-34.9	22.3	0.00e+00	0	44	0	1911554048	37	4223
2026-01-17 14:57:00.47	217.66	41.46	-33.5	-34.7	22.4	0.00e+00	0	44	0	1919942656	37	4131
2026-01-17 14:57:01.18	217.92	41.59	-33.7	-35.0	22.2	0.00e+00	0	44	0	1926234112	37	4252
2026-01-17 14:57:02.46	218.40	41.83	-33.9	-35.2	22.0	0.00e+00	0	44	0	1934622720	37	4354
2026-01-17 14:57:03.18	218.67	41.96	-33.9	-35.2	21.9	0.00e+00	0	44	0	1939865600	37	4386
2026-01-17 14:57:04.45	219.15	42.19	-34.0	-35.3	21.9	0.00e+00	0	44	0	1949302784	37	4435
2026-01-17 14:57:05.16	219.42	42.31	-34.0	-35.3	22.0	0.00e+00	0	44	0	1954545664	37	4411
2026-01-17 14:57:06.44	219.92	42.54	-33.9	-35.2	22.2	0.00e+00	0	44	0	1963982848	37	4353
2026-01-17 14:57:07.17	220.21	42.68	-34.0	-35.3	22.1	0.00e+00	0	44	0	1968177152	37	4405
2026-01-17 14:57:08.45	220.72	42.90	-33.9	-35.1	22.3	0.00e+00	0	44	0	1977614336	37	4340
2026-01-17 14:57:09.16	221.00	43.03	-33.8	-35.1	22.3	0.00e+00	0	44	0	1982857216	37	4312
2026-01-17 14:57:10.44	221.52	43.26	-33.8	-35.1	22.3	0.00e+00	0	44	0	1992294400	37	4293
2026-01-17 14:57:11.16	221.82	43.38	-33.7	-35.0	22.4	0.00e+00	0	44	0	1997537280	37	4245
2026-01-17 14:57:12.55	222.39	43.63	-33.6	-34.8	22.5	0.00e+00	0	44	0	2008023040	37	4190
2026-01-17 14:57:13.26	222.69	43.75	-33.6	-34.8	22.4	0.00e+00	0	44	0	2012217344	37	4192
2026-01-17 14:57:14.54	223.24	43.97	-33.8	-35.0	22.3	0.00e+00	0	44	0	2021654528	37	4287
2026-01-17 14:57:15.25	223.54	44.10	-33.7	-35.0	22.3	0.00e+00	0	44	0	2026897408	37	4279
2026-01-17 14:57:16.53	224.09	44.32	-33.8	-35.1	22.3	0.00e+00	0	44	0	2036334592	37	4296
2026-01-17 14:57:17.24	224.41	44.44	-33.6	-34.8	22.5	0.00e+00	0	44	0	2041577472	37	4180
2026-01-17 14:57:18.52	224.97	44.66	-33.5	-34.7	22.6	0.00e+00	0	44	0	2051014656	37	4133
2026-01-17 14:57:19.25	225.30	44.78	-33.8	-34.8	22.7	0.00e+00	0	44	0	2056257536	37	4166
2026-01-17 14:57:20.53	225.88	44.99	-33.9	-34.8	23.3	0.00e+00	0	44	0	2064646144	37	4149
2026-01-17 14:57:21.24	226.20	45.11	-34.1	-35.0	23.2	0.00e+00	0	44	0	2070937600	37	4249
2026-01-17 14:57:22.52	226.79	45.32	-34.1	-34.9	23.2	0.00e+00	0	44	0	2079326208	37	4224
2026-01-17 14:57:23.23	227.12	45.44	-34.2	-35.0	23.1	0.00e+00	0	44	0	2084569088	37	4281
2026-01-17 14:57:24.51	227.73	45.64	-34.3	-35.1	23.1	0.00e+00	0	44	0	2094006272	38	4080
2026-01-17 14:57:25.22	228.06	45.76	-34.4	-35.2	22.9	0.00e+00	0	44	0	2099249152	38	4133
2026-01-17 14:57:26.50	228.68	45.96	-34.3	-35.2	23.0	0.00e+00	0	44	0	2108686336	38	4108
2026-01-17 14:57:27.21	229.02	46.07	-34.4	-35.2	23.0	0.00e+00	0	44	0	2112880640	38	4139
2026-01-17 14:57:28.49	229.65	46.27	-34.0	-34.9	23.3	0.00e+00	0	44	0	2122317824	38	3973
2026-01-17 14:57:29.20	230.00	46.38	-33.9	-34.7	23.4	0.00e+00	0	44	0	2127560704	38	3890
2026-01-17 14:57:30.48	230.64	46.58	-34.2	-35.0	23.2	0.00e+00	0	44	0	2136997888	38	4021
2026-01-17 14:57:31.19	231.00	46.68	-34.5	-35.3	22.9	0.00e+00	0	44	0	2142240768	38	4179
2026-01-17 14:57:32.47	231.65	46.87	-34.8	-35.6	22.6	0.00e+00	0	44	0	2151677952	39	4089
2026-01-17 14:57:33.20	232.03	46.98	-34.6	-35.4	22.8	0.00e+00	0	44	0	2156920832	39	3996
2026-01-17 14:57:34.47	232.68	47.17	-34.4	-35.2	23.0	0.00e+00	0	44	0	2165309440	39	3873
2026-01-17 14:57:35.21	233.07	47.27	-34.5	-35.3	22.8	0.00e+00	0	44	0	2171600896	39	3939
2026-01-17 14:57:36.74	233.88	47.49	-34.6	-35.4	22.8	0.00e+00	0	44	0	2182086656	39	4003
2026-01-17 14:57:37.46	234.27	47.59	-34.7	-35.5	22.7	0.00e+00	0	44	0	2187329536	39	4029
2026-01-17 14:57:38.73	234.95	47.76	-34.8	-35.6	22.6	0.00e+00	0	44	0	2196766720	39	4088
2026-01-17 14:57:39.45	235.34	47.85	-34.8	-35.7	22.5	0.00e+00	0	44	0	2202009600	39	4112
2026-01-17 14:57:40.73	236.04	48.02	-34.7	-35.5	22.7	0.00e+00	0	44	0	2211446784	39	4049
2026-01-17 14:57:41.44	236.43	48.11	-34.7	-35.5	22.7	0.00e+00	0	44	0	2216689664	39	4033
2026-01-17 14:57:42.72	237.15	48.28	-34.6	-35.5	22.7	0.00e+00	0	44	0	2225078272	39	4016
2026-01-17 14:57:43.45	237.56	48.37	-34.5	-35.4	22.8	0.00e+00	0	44	0	2230321152	39	3965
2026-01-17 14:57:44.73	238.28	48.52	-34.6	-35.4	22.8	0.00e+00	0	44	0	2239758336	39	3993
2026-01-17 14:57:45.44	238.69	48.60	-34.8	-35.6	22.6	0.00e+00	0	44	0	2245001216	39	4086
2026-01-17 14:57:46.72	239.42	48.75	-35.0	-35.8	22.4	0.00e+00	0	44	0	2254438400	39	4186
2026-01-17 14:57:47.47	239.86	48.84	-35.0	-35.8	22.4	0.00e+00	0	44	0	2259681280	39	4190
2026-01-17 14:57:48.75	240.60	48.98	-35.0	-35.8	22.4	0.00e+00	0	44	0	2269118464	40	3954
2026-01-17 14:57:49.51	241.05	49.06	-34.8	-35.6	22.6	0.00e+00	0	44	0	2274361344	40	3852
2026-01-17 14:57:50.79	241.80	49.19	-34.8	-35.6	22.7	0.00e+00	0	44	0	2283798528	39	4073
2026-01-17 14:57:51.58	242.28	49.27	-34.8	-35.7	22.5	0.00e+00	0	44	0	2289041408	39	4121
2026-01-17 14:57:52.76	242.98	49.39	-35.1	-36.0	22.3	0.00e+00	0	44	0	2297430016	39	4256
2026-01-17 14:57:53.61	243.49	49.47	-35.2	-36.2	22.1	0.00e+00	0	44	0	2303721472	40	4100
2026-01-17 14:57:54.75	244.19	49.57	-35.2	-36.1	22.1	0.00e+00	0	44	0	2312110080	40	4070
2026-01-17 14:57:55.61	244.71	49.65	-35.0	-35.8	22.4	0.00e+00	0	44	0	2318401536	40	3955
2026-01-17 14:57:56.75	245.41	49.75	-35.1	-36.0	22.3	0.00e+00	0	44	0	2326790144	40	4013
2026-01-17 14:57:57.60	245.93	49.82	-35.2	-36.1	22.1	0.00e+00	0	44	0	2333081600	40	4082
2026-01-17 14:57:58.74	246.64	49.91	-35.1	-35.9	22.3	0.00e+00	0	44	0	2341470208	40	4004
2026-01-17 14:57:59.59	247.17	49.97	-35.1	-36.0	22.2	0.00e+00	0	44	0	2347761664	40	4022
2026-01-17 14:58:00.73	247.88	50.05	-34.8	-35.6	22.6	0.00e+00	0	44	0	2355101696	40	3846
2026-01-17 14:58:01.58	248.42	50.11	-34.7	-35.6	22.6	0.00e+00	0	44	0	2361393152	40	3825
2026-01-17 14:58:02.72	249.14	50.19	-34.9	-35.7	22.5	0.00e+00	0	44	0	2369781760	40	3887
2026-01-17 14:58:03.57	249.68	50.24	-35.1	-36.0	22.2	0.00e+00	0	44	0	2376073216	40	4013
2026-01-17 14:58:04.71	250.40	50.30	-35.0	-35.8	22.4	0.00e+00	0	44	0	2384461824	40	3958
2026-01-17 14:58:05.59	250.97	50.35	-35.0	-35.9	22.3	0.00e+00	0	44	0	2390753280	40	3976
2026-01-17 14:58:06.90	251.81	50.42	-34.9	-35.8	22.5	0.00e+00	0	44	0	2400190464	40	3917
2026-01-17 14:58:07.61	252.26	50.45	-34.8	-35.7	22.5	0.00e+00	0	44	0	2405433344	40	3880
2026-01-17 14:58:08.89	253.09	50.51	-35.1	-36.0	22.2	0.00e+00	0	44	0	2414870528	40	4015
2026-01-17 14:58:09.60	253.55	50.53	-35.2	-36.0	22.2	0.00e+00	0	44	0	2419064832	40	4051
2026-01-17 14:58:11.15	254.56	50.59	-35.3	-36.2	22.1	0.00e+00	0	44	0	2430599168	40	4099
2026-01-17 14:58:11.86	255.02	50.61	-35.0	-35.9	22.3	0.00e+00	0	44	0	2435842048	40	3966
2026-01-17 14:58:13.13	255.84	50.64	-34.5	-35.3	22.9	0.00e+00	0	44	0	2445279232	39	3920
2026-01-17 14:58:13.86	256.32	50.66	-34.4	-35.2	22.9	0.00e+00	0	44	0	2450522112	39	3912
2026-01-17 14:58:15.25	257.23	50.69	-34.2	-35.0	23.2	0.00e+00	0	44	0	2459959296	39	3822
2026-01-17 14:58:15.96	257.69	50.70	-34.5	-35.3	22.9	0.00e+00	0	44	0	2465202176	39	3934
2026-01-17 14:58:17.24	258.53	50.71	-34.7	-35.5	22.8	0.00e+00	0	44	0	2474639360	39	4021
2026-01-17 14:58:17.95	259.00	50.72	-34.9	-35.7	22.5	0.00e+00	0	44	0	2479882240	39	4132
2026-01-17 14:58:19.23	259.84	50.72	-35.1	-36.0	22.2	0.00e+00	0	44	0	2489319424	39	4275
2026-01-17 14:58:19.94	260.30	50.72	-34.9	-35.8	22.4	0.00e+00	0	44	0	2494562304	40	3916
2026-01-17 14:58:21.22	261.14	50.71	-34.9	-35.8	22.4	0.00e+00	0	44	0	2502950912	40	3934
2026-01-17 14:58:21.93	261.61	50.71	-34.9	-35.8	22.4	0.00e+00	0	44	0	2508193792	40	3939
2026-01-17 14:58:23.21	262.44	50.69	-35.0	-35.9	22.3	0.00e+00	0	44	0	2517630976	40	3961
2026-01-17 14:58:23.94	262.92	50.68	-34.8	-35.6	22.6	0.00e+00	0	44	0	2522873856	40	3853
2026-01-17 14:58:25.22	263.76	50.65	-35.0	-35.9	22.3	0.00e+00	0	44	0	2532311040	40	3965
2026-01-17 14:58:25.94	264.23	50.64	-35.0	-35.8	22.4	0.00e+00	0	44	0	2537553920	40	3942
2026-01-17 14:58:27.22	265.06	50.60	-35.0	-35.8	22.4	0.00e+00	0	44	0	2546991104	40	3958
2026-01-17 14:58:27.93	265.52	50.58	-35.0	-35.9	22.3	0.00e+00	0	44	0	2552233984	40	3980
2026-01-17 14:58:29.23	266.37	50.53	-34.8	-35.7	22.5	0.00e+00	0	44	0	2560622592	40	3878
2026-01-17 14:58:29.94	266.82	50.51	-34.8	-35.6	22.6	0.00e+00	0	44	0	2565865472	40	3863
2026-01-17 14:58:31.22	267.65	50.45	-34.9	-35.7	22.5	0.00e+00	0	44	0	2575302656	40	3910
2026-01-17 14:58:31.95	268.12	50.42	-34.8	-35.7	22.5	0.00e+00	0	44	0	2580545536	40	3875
2026-01-17 14:58:33.22	268.93	50.36	-34.8	-35.6	22.5	0.00e+00	0	44	0	2589982720	40	3858
2026-01-17 14:58:33.94	269.39	50.32	-34.7	-35.6	22.6	0.00e+00	0	44	0	2595225600	40	3841
2026-01-17 14:58:35.22	270.21	50.24	-34.7	-35.5	22.7	0.00e+00	0	44	0	2604662784	39	4038
2026-01-17 14:58:35.94	270.67	50.20	-34.7	-35.6	22.7	0.00e+00	0	44	0	2609905664	39	4053
2026-01-17 14:58:37.22	271.47	50.12	-34.8	-35.7	22.5	0.00e+00	0	44	0	2618294272	39	4118
2026-01-17 14:58:37.94	271.93	50.07	-34.8	-35.6	22.7	0.00e+00	0	44	0	2624585728	39	4074
2026-01-17 14:58:39.22	272.73	49.98	-35.0	-35.9	22.3	0.00e+00	0	44	0	2632974336	39	4221
2026-01-17 14:58:39.93	273.17	49.92	-35.1	-35.9	22.4	0.00e+00	0	44	0	2638217216	39	4224
2026-01-17 14:58:41.21	273.96	49.82	-35.0	-35.8	22.4	0.00e+00	0	44	0	2647654400	39	4191
2026-01-17 14:58:41.97	274.43	49.76	-34.8	-35.6	22.6	0.00e+00	0	44	0	2652897280	39	4091
2026-01-17 14:58:43.25	275.22	49.65	-34.6	-35.4	22.8	0.00e+00	0	44	0	2662334464	39	3998
2026-01-17 14:58:43.96	275.65	49.59	-34.5	-35.3	22.9	0.00e+00	0	44	0	2667577344	39	3930
2026-01-17 14:58:45.24	276.42	49.47	-34.8	-35.7	22.6	0.00e+00	0	44	0	2677014528	39	4100
2026-01-17 14:58:45.97	276.86	49.40	-35.0	-35.8	22.3	0.00e+00	0	44	0	2682257408	39	4187
2026-01-17 14:58:47.24	277.62	49.28	-34.9	-35.8	22.4	0.00e+00	0	44	0	2691694592	39	4178
2026-01-17 14:58:47.96	278.05	49.21	-34.8	-35.7	22.6	0.00e+00	0	44	0	2695888896	39	4113
2026-01-17 14:58:49.23	278.80	49.08	-34.8	-35.6	22.6	0.00e+00	0	44	0	2705326080	39	4088
2026-01-17 14:58:50.21	279.38	48.97	-34.7	-35.5	22.7	0.00e+00	0	44	0	2712666112	39	4026
2026-01-17 14:58:51.21	279.96	48.86	-34.7	-35.5	22.7	0.00e+00	0	44	0	2720006144	39	4048
2026-01-17 14:58:52.20	280.53	48.75	-34.9	-35.8	22.5	0.00e+00	0	44	0	2727346176	39	4160
2026-01-17 14:58:53.56	281.31	48.59	-35.1	-36.0	22.3	0.00e+00	0	44	0	2736783360	39	4268
2026-01-17 14:58:54.27	281.72	48.51	-35.0	-35.9	22.4	0.00e+00	0	44	0	2742026240	39	4201
2026-01-17 14:58:55.55	282.44	48.35	-34.7	-35.5	22.7	0.00e+00	0	44	0	2751463424	39	4038
2026-01-17 14:58:56.28	282.85	48.26	-34.7	-35.5	22.7	0.00e+00	0	44	0	2756706304	39	4037
2026-01-17 14:58:57.56	283.56	48.10	-34.7	-35.6	22.7	0.00e+00	0	44	0	2765094912	39	4057
2026-01-17 14:58:58.27	283.95	48.01	-34.8	-35.7	22.6	0.00e+00	0	44	0	2770337792	39	4116
2026-01-17 14:58:59.55	284.65	47.84	-34.8	-35.7	22.6	0.00e+00	0	44	0	2779774976	39	4126
2026-01-17 14:59:00.26	285.03	47.75	-34.9	-35.8	22.5	0.00e+00	0	44	0	2785017856	39	4147
2026-01-17 14:59:01.57	285.74	47.57	-34.6	-35.4	22.8	0.00e+00	0	44	0	2794455040	39	3992
2026-01-17 14:59:02.28	286.11	47.47	-34.5	-35.3	22.9	0.00e+00	0	44	0	2799697920	39	3939
2026-01-17 14:59:03.65	286.84	47.28	-34.5	-35.4	22.9	0.00e+00	0	44	0	2809135104	39	3961
2026-01-17 14:59:04.36	287.21	47.18	-34.7	-35.6	22.7	0.00e+00	0	44	0	2814377984	39	4054
2026-01-17 14:59:05.64	287.87	47.00	-34.7	-35.6	22.7	0.00e+00	0	44	0	2823815168	39	4054
2026-01-17 14:59:06.67	288.40	46.85	-34.7	-35.5	22.7	0.00e+00	0	44	0	2831155200	39	4043
2026-01-17 14:59:07.96	289.05	46.65	-34.6	-35.4	22.8	0.00e+00	0	44	0	2840592384	39	3986
2026-01-17 14:59:08.67	289.41	46.55	-34.4	-35.2	23.0	0.00e+00	0	44	0	2845835264	39	3881
2026-01-17 14:59:09.95	290.05	46.35	-34.1	-34.9	23.3	0.00e+00	0	44	0	2855272448	39	3758
2026-01-17 14:59:10.68	290.41	46.24	-34.1	-34.9	23.2	0.00e+00	0	44	0	2860515328	38	3992
2026-01-17 14:59:11.96	291.03	46.04	-34.1	-34.9	23.2	0.00e+00	0	44	0	2869952512	38	3992
2026-01-17 14:59:12.68	291.38	45.93	-34.4	-35.2	23.0	0.00e+00	0	44	0	2875195392	38	4124
2026-01-17 14:59:13.96	291.99	45.72	-34.4	-35.2	23.0	0.00e+00	0	44	0	2883584000	38	4144
2026-01-17 14:59:14.69	292.33	45.61	-34.3	-35.1	23.1	0.00e+00	0	44	0	2889875456	38	4080
2026-01-17 14:59:16.04	292.97	45.39	-34.3	-35.2	23.0	0.00e+00	0	44	0	2899312640	38	4106
2026-01-17 14:59:16.76	293.30	45.27	-34.4	-35.3	22.9	0.00e+00	0	44	0	2904555520	38	4167
2026-01-17 14:59:18.03	293.88	45.06	-34.4	-35.3	22.9	0.00e+00	0	44	0	2913992704	38	4162
2026-01-17 14:59:18.77	294.22	44.94	-34.4	-35.2	22.9	0.00e+00	0	44	0	2918187008	38	4129
2026-01-17 14:59:20.15	294.84	44.71	-34.3	-35.1	23.1	0.00e+00	0	44	0	2928672768	38	4093
2026-01-17 14:59:20.86	295.15	44.59	-34.3	-35.1	23.0	0.00e+00	0	44	0	2933915648	38	4088
2026-01-17 14:59:22.14	295.72	44.37	-34.3	-35.1	23.1	0.00e+00	0	44	0	2943352832	38	4074
2026-01-17 14:59:22.88	296.04	44.25	-34.3	-35.1	23.1	0.00e+00	0	44	0	2948595712	38	4077
2026-01-17 14:59:24.25	296.63	44.01	-34.3	-35.1	23.0	0.00e+00	0	44	0	2958032896	38	4087
2026-01-17 14:59:24.97	296.93	43.89	-34.3	-35.1	23.1	0.00e+00	0	44	0	2963275776	38	4074
2026-01-17 14:59:26.24	297.47	43.67	-34.4	-35.3	23.0	0.00e+00	0	44	0	2972712960	38	4151
2026-01-17 14:59:26.97	297.77	43.54	-34.5	-35.3	22.9	0.00e+00	0	44	0	2977955840	38	4169
2026-01-17 14:59:28.25	298.30	43.31	-34.4	-35.2	23.0	0.00e+00	0	44	0	2987393024	38	4139
2026-01-17 14:59:28.98	298.59	43.19	-34.4	-35.2	23.0	0.00e+00	0	44	0	2992635904	38	4120
2026-01-17 14:59:30.25	299.11	42.96	-34.2	-35.1	23.1	0.00e+00	0	44	0	3002073088	38	4052
2026-01-17 14:59:30.98	299.40	42.83	-34.1	-35.0	23.2	0.00e+00	0	44	0	3007315968	38	4007
2026-01-17 14:59:32.26	299.90	42.60	-34.1	-34.9	23.2	0.00e+00	0	44	0	3015704576	38	3987
2026-01-17 14:59:32.98	300.18	42.47	-34.0	-34.9	23.3	0.00e+00	0	44	0	3021996032	38	3962
2026-01-17 14:59:34.26	300.67	42.25	-34.0	-34.8	23.3	0.00e+00	0	44	0	3030384640	38	3935
2026-01-17 14:59:35.00	300.96	42.11	-33.9	-34.7	23.4	0.00e+00	0	44	0	3035627520	38	3910
2026-01-17 14:59:36.28	301.44	41.88	-33.7	-34.5	23.6	0.00e+00	0	44	0	3045064704	38	3803
2026-01-17 14:59:36.99	301.70	41.75	-33.7	-34.5	23.6	0.00e+00	0	44	0	3050307584	38	3797
2026-01-17 14:59:38.27	302.18	41.52	-33.7	-34.5	23.6	0.00e+00	0	44	0	3059744768	37	4012
2026-01-17 14:59:38.98	302.43	41.39	-33.7	-34.5	23.5	0.00e+00	0	44	0	3064987648	37	4047
2026-01-17 14:59:40.26	302.90	41.16	-34.0	-34.8	23.3	0.00e+00	0	44	0	3073376256	37	4166
2026-01-17 14:59:40.97	303.15	41.03	-34.2	-35.0	23.0	0.00e+00	0	44	0	3078619136	37	4267
2026-01-17 14:59:42.25	303.60	40.80	-34.3	-35.1	22.3	0.00e+00	0	44	0	3088056320	38	4073
2026-01-17 14:59:42.98	303.86	40.66	-34.4	-35.3	22.9	0.00e+00	0	44	0	3093299200	38	4150
2026-01-17 14:59:44.26	304.30	40.43	-34.3	-35.2	23.0	0.00e+00	0	44	0	3102736384	38	4125
2026-01-17 14:59:44.98	304.54	40.30	-34.2	-35.0	23.1	0.00e+00	0	44	0	3107979264	38	4050
2026-01-17 14:59:46.26	304.97	40.06	-33.9	-34.7	23.4	0.00e+00	0	44	0	3117416448	38	3893
2026-01-17 14:59:46.97	305.21	39.93	-33.8	-34.7	23.4	0.00e+00	0	44	0	3122659328	38	3880
2026-01-17 14:59:48.25	305.63	39.70	-33.8	-34.6	23.5	0.00e+00	0	44	0	3132096512	38	3860
2026-01-17 14:59:48.98	305.87	39.56	-33.8	-34.6	23.5	0.00e+00	0	44	0	3137339392	38	3859
2026-01-17 14:59:50.26	306.28	39.33	-34.0	-34.8	23.3	0.00e+00	0	44	0	3145728000	38	3941
2026-01-17 14:59:50.98	306.51	39.20	-34.2	-35.0	23.2	0.00e+00	0	44	0	3150970880	38	4028
2026-01-17 14:59:52.26	306.92	38.96	-34.3	-35.1	23.0	0.00e+00	0	44	0	3160408064	38	4096
2026-01-17 14:59:53.00	307.15	38.83	-34.3	-35.2	22.9	0.00e+00	0	44	0	3165650944	38	4112
2026-01-17 14:59:54.28	307.54	38.59	-34.3	-35.2	22.9	0.00e+00	0	44	0	3175088128	38	4115
2026-01-17 14:59:54.99	307.76	38.46	-34.2	-35.0	23.1	0.00e+00	0	44	0	3180331008	38	4049
2026-01-17 14:59:56.27	308.15	38.23	-33.9	-34.7	23.4	0.00e+00	0	44	0	3189768192	38	3904
2026-01-17 14:59:56.99	308.36	38.10	-33.8	-34.6	23.5	0.00e+00	0	44	0	3195011072	38	3842
2026-01-17 14:59:58.27	308.74	37.86	-33.7	-34.5	23.6	0.00e+00	0	44	0	3203399680	38	3788
2026-01-17 14:59:59.01	308.95	37.73	-33.5	-34.3	23.7	0.00e+00	0	44	0	3209691136	37	3958
2026-01-17 15:00:00.30	309.33	37.49	-33.5	-34.3	23.7	0.00e+00	0	44	0	3218079744	37	3932
2026-01-17 15:00:01.01	309.53	37.36	-33.6	-34.4	23.6	0.00e+00	0	44	0	3223322624	37	3981
2026-01-17 15:00:02.29	309.89	37.13	-33.6	-34.4	23.6	0.00e+00	0	44	0	3232759808	37	3975
2026-01-17 15:00:03.00	310.09	37.00	-33.7	-34.5	23.2	0.00e+00	0	44	0	3238002688	37	4031
2026-01-17 15:00:04.28	310.44	36.77	-33.6	-34.5	23.6	0.00e+00	0	44	0	3247439872	37	4012
2026-01-17 15:00:05.00	310.64	36.64	-33.7	-34.6	23.5	0.00e+00	0	44	0	3252682752	37	4057
2026-01-17 15:00:06.28	310.98	36.41	-33.7	-34.6	23.4	0.00e+00	0	44	0	3262119936	37	4062
2026-01-17 15:00:06.99	311.17	36.28	-33.8	-34.6	23.4	0.00e+00	0	44	0	3267362816	37	4093
2026-01-17 15:00:08.27	311.51	36.05	-33.8	-34.7	23.4	0.00e+00	0	44	0	3275751424	37	4109
2026-01-17 15:00:08.98	311.70	35.92	-33.9	-34.7	23.4	0.00e+00	0	44	0	3280994304	37	4131
2026-01-17 15:00:10.26	312.03	35.69	-34.0	-34.9	23.2	0.00e+00	0	44	0	3290431488	37	4202
2026-01-17 15:00:11.13	312.25	35.53	-34.1	-34.9	23.0	0.00e+00	0	44	0	3296722944	37	4240
2026-01-17 15:00:12.26	312.54	35.33	-34.1	-34.9	23.2	0.00e+00	0	44	0	3305111552	37	4223
2026-01-17 15:00:13.12	312.75	35.18	-34.0	-34.8	23.3	0.00e+00	0	44	0	3311403008	37	4160
2026-01-17 15:00:14.25	313.03	34.98	-33.9	-34.8	23.3	0.00e+00	0	44	0	3319791616	37	4147
2026-01-17 15:00:15.42	313.32	34.77	-33.7	-34.5	23.5	0.00e+00	0	44	0	3327131648	37	4048
2026-01-17 15:00:16.28	313.53	34.62	-33.6	-34.4	23.6	0.00e+00	0	44	0	3333423104	37	3987
2026-01-17 15:00:17.41	313.80	34.42	-33.3	-34.1	23.8	0.00e+00	0	44	0	3341811712	37	3863
2026-01-17 15:00:18.27	314.00	34.27	-33.3	-34.0	23.9	0.00e+00	0	44	0	3348103168	37	3821
2026-01-17 15:00:19.41	314.27	34.07	-33.1	-33.9	24.0	0.00e+00	0	44	0	3356491776	37	3753
2026-01-17 15:00:20.26	314.46	33.92	-33.2	-33.9	24.0	0.00e+00	0	44	0	3362783232	36	4001
2026-01-17 15:00:21.40	314.73	33.72	-33.2	-33.9	24.0	0.00e+00	0	44	0	3371171840	36	3999
2026-01-17 15:00:22.25	314.92	33.57	-33.2	-34.0	23.9	0.00e+00	0	44	0	3377463296	36	4047
2026-01-17 15:00:23.39	315.18	33.38	-33.4	-34.3	23.7	0.00e+00	0	44	0	3384803328	36	4148
2026-01-17 15:00:24.24	315.36	33.23	-33.7	-34.5	23.5	0.00e+00	0	44	0	3391094784	36	4255
2026-01-17 15:00:25.38	315.62	33.03	-33.8	-34.6	23.4	0.00e+00	0	44	0	3399483392	36	4309
2026-01-17 15:00:26.29	315.81	32.88	-33.8	-34.6	23.4	0.00e+00	0	44	0	3405774848	37	4092
2026-01-17 15:00:27.46	316.07	32.67	-33.8	-34.7	23.4	0.00e+00	0	44	0	3414163456	37	4108
2026-01-17 15:00:28.35	316.26	32.52	-33.9	-34.8	23.3	0.00e+00	0	44	0	3421503488	37	4160
2026-01-17 15:00:29.48	316.49	32.33	-34.0	-34.8	23.1	0.00e+00	0	44	0	3428843520	37	4167
2026-01-17 15:00:30.34	316.67	32.18	-33.9	-34.8	23.3	0.00e+00	0	44	0	3435134976	37	4160
2026-01-17 15:00:31.70	316.95	31.95	-34.0	-34.9	23.2	0.00e+00	0	44	0	3445620736	37	4202
2026-01-17 15:00:32.41	317.10	31.84	-34.0	-34.9	23.2	0.00e+00	0	44	0	3449815040	37	4200
2026-01-17 15:00:33.68	317.36	31.62	-34.1	-35.0	23.1	0.00e+00	0	44	0	3459252224	37	4273
2026-01-17 15:00:34.41	317.50	31.50	-34.1	-35.0	23.1	0.00e+00	0	44	0	3464495104	37	4251
2026-01-17 15:00:35.69	317.76	31.29	-34.1	-34.9	23.2	0.00e+00	0	44	0	3473932288	37	4229
2026-01-17 15:00:36.40	317.90	31.17	-33.9	-34.7	23.3	0.00e+00	0	44	0	3479175168	37	4145
2026-01-17 15:00:37.68	318.14	30.96	-33.9	-34.7	23.3	0.00e+00	0	44	0	3488612352	37	4134
2026-01-17 15:00:38.40	318.28	30.84	-33.8	-34.6	23.4	0.00e+00	0	44	0	3493855232	37	4092
2026-01-17 15:00:39.68	318.53	30.63	-33.6	-34.4	23.6	0.00e+00	0	44	0	3503292416	37	3980
2026-01-17 15:00:40.39	318.66	30.51	-33.5	-34.3	23.7	0.00e+00	0	44	0	3508535296	37	3918
2026-01-17 15:00:41.67	318.90	30.30	-33.6	-34.4	23.6	0.00e+00	0	44	0	3516923904	37	3979
2026-01-17 15:00:42.60	319.07	30.15	-33.6	-34.4	23.5	0.00e+00	0	44	0	3524263936	37	4001
2026-01-17 15:00:43.89	319.31	29.94	-33.7	-34.5	23.5	0.00e+00	0	44	0	3533701120	37	4046
2026-01-17 15:00:44.67	319.45	29.82	-33.8	-34.6	23.4	0.00e+00	0	44	0	3538944000	37	4072
2026-01-17 15:00:46.25	319.73	29.56	-33.8	-34.6	23.4	0.00e+00	0	44	0	3550478336	37	4091
2026-01-17 15:00:47.16	319.89	29.42	-33.9	-34.7	23.3	0.00e+00	0	44	0	3556769792	37	4121
2026-01-17 15:00:48.15	320.07	29.26	-33.9	-34.7	23.2	0.00e+00	0	44	0	3564109824	37	4133
2026-01-17 15:00:49.15	320.24	29.10	-33.9	-34.8	23.3	0.00e+00	0	44	0	3571449856	37	4148
2026-01-17 15:00:50.14	320.41	28.95	-33.9	-34.8	23.2	0.00e+00	0	44	0	3578789888	37	4161
2026-01-17 15:00:51.14	320.58	28.79	-34.0	-34.8	23.2	0.00e+00	0	44	0	3586129920	37	4189
2026-01-17 15:00:52.14	320.75	28.63	-34.0	-34.8	23.2	0.00e+00	0	44	0	3592421376	37	4175
2026-01-17 15:00:53.17	320.92	28.47	-34.0	-34.9	23.2	0.00e+00	0	44	0	3599761408	37	4201
2026-01-17 15:00:54.16	321.08	28.32	-34.1	-34.9	23.1	0.00e+00	0	44	0	3607101440	37	4227
2026-01-17 15:00:55.24	321.26	28.15	-34.1	-34.9	23.1	0.00e+00	0	44	0	3615490048	37	4229
2026-01-17 15:00:56.12	321.40	28.02	-34.1	-35.0	23.1	0.00e+00	0	44	0	3621781504	37	4248
2026-01-17 15:00:57.26	321.59	27.84	-34.0	-34.9	23.1	0.00e+00	0	44	0	3630170112	37	4214
2026-01-17 15:00:58.11	321.72	27.71	-34.0	-34.8	23.2	0.00e+00	0	44	0	3635412992	37	4192
2026-01-17 15:00:59.25	321.90	27.54	-34.1	-34.9	23.1	0.00e+00	0	44	0	3643801600	37	4231
2026-01-17 15:01:00.10	322.03	27.41	-33.9	-34.8	23.2	0.00e+00	0	44	0	3650093056	37	4164
2026-01-17 15:01:01.24	322.21	27.24	-34.0	-34.8	23.2	0.00e+00	0	44	0	3658481664	37	4192
2026-01-17 15:01:02.30	322.37	27.08	-33.9	-34.8	23.2	0.00e+00	0	44	0	3665821696	37	4158
2026-01-17 15:01:03.34	322.53	26.92	-33.9	-34.8	23.2	0.00e+00	0	44	0	3674210304	37	4148
2026-01-17 15:01:04.49	322.70	26.75	-33.9	-34.8	23.3	0.00e+00	0	44	0	3681550336	37	4161
2026-01-17 15:01:05.34	322.83	26.63	-34.0	-34.9	23.0	0.00e+00	0	44	0	3687841792	37	4201
2026-01-17 15:01:06.69	323.03	26.43	-34.0	-34.9	23.1	0.00e+00	0	44	0	3698327552	37	4194
2026-01-17 15:01:07.40	323.13	26.32	-34.0	-34.9	23.1	0.00e+00	0	44	0	3702521856	37	4210
2026-01-17 15:01:08.68	323.32	26.13	-34.2	-35.1	22.9	0.00e+00	0	44	0	3711959040	37	4317
2026-01-17 15:01:09.42	323.42	26.03	-34.1	-35.0	23.0	0.00e+00	0	44	0	3717201920	37	4260
2026-01-17 15:01:10.70	323.61	25.84	-34.3	-35.1	22.9	0.00e+00	0	44	0	3726639104	37	4332
2026-01-17 15:01:11.41	323.71	25.74	-34.3	-35.1	23.0	0.00e+00	0	44	0	3731881984	38	4079
2026-01-17 15:01:12.69	323.89	25.55	-34.2	-35.1	23.0	0.00e+00	0	44	0	3741319168	38	4075
2026-01-17 15:01:13.40	323.98	25.45	-34.3	-35.2	22.9	0.00e+00	0	44	0	3746562048	38	4116
2026-01-17 15:01:14.68	324.16	25.27	-34.3	-35.1	22.9	0.00e+00	0	44	0	3755999232	38	4082
2026-01-17 15:01:15.49	324.27	25.15	-34.4	-35.3	22.7	0.00e+00	0	44	0	3761242112	38	4154
2026-01-17 15:01:16.62	324.42	25.00	-34.3	-35.2	22.9	0.00e+00	0	44	0	3769630720	38	4099
2026-01-17 15:01:17.65	324.56	24.85	-34.3	-35.2	22.9	0.00e+00	0	44	0	3776970752	38	4108
2026-01-17 15:01:18.64	324.69	24.71	-34.3	-35.1	23.0	0.00e+00	0	44	0	3784310784	38	4090
2026-01-17 15:01:19.84	324.85	24.54	-34.3	-35.1	22.9	0.00e+00	0	44	0	3792699392	38	4094
2026-01-17 15:01:20.71	324.96	24.42	-34.2	-35.0	23.0	0.00e+00	0	44	0	3798990848	38	4048
2026-01-17 15:01:22.01	325.13	24.24	-34.3	-35.1	22.8	0.00e+00	0	44	0	3808428032	38	4088
2026-01-17 15:01:22.72	325.22	24.15	-34.3	-35.2	22.9	0.00e+00	0	44	0	3813670912	38	4111
2026-01-17 15:01:24.23	325.41	23.94	-34.1	-35.0	23.0	0.00e+00	0	44	0	3824156672	38	4026
2026-01-17 15:01:24.95	325.50	23.84	-34.1	-34.9	23.1	0.00e+00	0	44	0	3829399552	38	4004
2026-01-17 15:01:26.23	325.66	23.67	-34.2	-35.0	22.9	0.00e+00	0	44	0	3838836736	38	4042
2026-01-17 15:01:27.27	325.79	23.53	-34.1	-34.9	23.0	0.00e+00	0	44	0	3846176768	38	3988
2026-01-17 15:01:28.23	325.91	23.40	-34.1	-34.9	22.9	0.00e+00	0	44	0	3853516800	38	3990
2026-01-17 15:01:29.22	326.03	23.26	-34.0	-34.9	23.0	0.00e+00	0	44	0	3859808256	38	3971
2026-01-17 15:01:30.22	326.15	23.13	-34.1	-35.0	23.0	0.00e+00	0	44	0	3867148288	38	4019
2026-01-17 15:01:31.21	326.27	23.00	-34.2	-35.0	23.0	0.00e+00	0	44	0	3874488320	38	4039
2026-01-17 15:01:32.24	326.39	22.86	-34.1	-35.0	23.0	0.00e+00	0	44	0	3881828352	38	4029
2026-01-17 15:01:33.26	326.51	22.73	-34.2	-35.0	23.0	0.00e+00	0	44	0	3889168384	38	4048
2026-01-17 15:01:34.29	326.63	22.59	-34.1	-35.0	23.1	0.00e+00	0	44	0	3897556992	38	4010
2026-01-17 15:01:35.29	326.74	22.46	-34.2	-35.1	22.9	0.00e+00	0	44	0	3903848448	38	4072
2026-01-17 15:01:36.34	326.86	22.33	-34.2	-35.0	23.0	0.00e+00	0	44	0	3912237056	38	4043
2026-01-17 15:01:37.26	326.97	22.21	-34.3	-35.1	22.9	0.00e+00	0	44	0	3918528512	38	4086
2026-01-17 15:01:38.46	327.10	22.05	-34.4	-35.2	22.8	0.00e+00	0	44	0	3926917120	38	4131
2026-01-17 15:01:39.33	327.20	21.94	-34.4	-35.2	22.8	0.00e+00	0	44	0	3933208576	38	4123
2026-01-17 15:01:40.64	327.34	21.77	-34.4	-35.3	22.8	0.00e+00	0	44	0	3942645760	38	4152
2026-01-17 15:01:41.35	327.42	21.68	-34.4	-35.3	22.7	0.00e+00	0	44	0	3947888640	38	4168
2026-01-17 15:01:42.83	327.58	21.50	-34.6	-35.5	22.6	0.00e+00	0	44	0	3958374400	38	4245
2026-01-17 15:01:43.54	327.66	21.41	-34.6	-35.4	22.6	0.00e+00	0	44	0	3963617280	38	4231
2026-01-17 15:01:44.82	327.80	21.25	-34.6	-35.4	22.6	0.00e+00	0	44	0	3973054464	38	4236
2026-01-17 15:01:45.55	327.87	21.15	-34.6	-35.5	22.6	0.00e+00	0	44	0	3978297344	38	4247
2026-01-17 15:01:46.83	328.01	21.00	-34.6	-35.5	22.5	0.00e+00	0	44	0	3987734528	38	4270
2026-01-17 15:01:47.55	328.08	20.91	-34.7	-35.5	22.5	0.00e+00	0	44	0	3992977408	38	4283
2026-01-17 15:01:48.83	328.22	20.75	-34.7	-35.5	22.5	0.00e+00	0	44	0	4002414592	38	4288
2026-01-17 15:01:49.54	328.29	20.66	-34.7	-35.6	22.5	0.00e+00	0	44	0	4007657472	38	4296
2026-01-17 15:01:50.82	328.42	20.50	-34.7	-35.6	22.4	0.00e+00	0	44	0	4016046080	38	4306
2026-01-17 15:01:51.53	328.49	20.42	-34.7	-35.6	22.4	0.00e+00	0	44	0	4021288960	38	4325
2026-01-17 15:01:52.81	328.62	20.26	-34.7	-35.6	22.5	0.00e+00	0	44	0	4030726144	38	4304
2026-01-17 15:01:53.60	328.70	20.17	-34.7	-35.6	22.4	0.00e+00	0	44	0	4035969024	38	4313
2026-01-17 15:01:55.12	328.85	19.98	-34.8	-35.6	22.4	0.00e+00	0	44	0	4047503360	39	4092
2026-01-17 15:01:55.83	328.92	19.90	-34.7	-35.6	22.5	0.00e+00	0	44	0	4052746240	39	4064
2026-01-17 15:01:57.26	329.06	19.73	-34.7	-35.6	22.4	0.00e+00	0	44	0	4063232000	39	4079
2026-01-17 15:01:57.98	329.13	19.64	-34.8	-35.7	22.3	0.00e+00	0	44	0	4067426304	39	4129
2026-01-17 15:01:59.25	329.25	19.49	-34.8	-35.7	22.2	0.00e+00	0	44	0	4076863488	39	4143
2026-01-17 15:01:59.96	329.32	19.41	-34.7	-35.6	22.4	0.00e+00	0	44	0	4082106368	39	4092
2026-01-17 15:02:01.26	329.44	19.26	-34.8	-35.7	22.3	0.00e+00	0	44	0	4091543552	39	4119
2026-01-17 15:02:01.97	329.51	19.18	-34.8	-35.7	22.3	0.00e+00	0	44	0	4096786432	39	4132
2026-01-17 15:02:03.25	329.63	19.03	-34.9	-35.8	22.2	0.00e+00	0	44	0	4106223616	39	4167
2026-01-17 15:02:03.96	329.69	18.94	-35.0	-35.9	22.1	0.00e+00	0	44	0	4111466496	39	4220
2026-01-17 15:02:05.24	329.81	18.80	-34.8	-35.7	22.3	0.00e+00	0	44	0	4120903680	39	4104
2026-01-17 15:02:06.02	329.88	18.71	-34.8	-35.7	22.3	0.00e+00	0	44	0	4126146560	39	4116
2026-01-17 15:02:07.21	329.99	18.57	-34.9	-35.8	22.3	0.00e+00	0	44	0	4134535168	39	4148
2026-01-17 15:02:08.06	330.07	18.47	-34.9	-35.8	22.2	0.00e+00	0	44	0	4140826624	39	4181
2026-01-17 15:02:09.20	330.17	18.35	-34.9	-35.7	22.3	0.00e+00	0	44	0	4149215232	39	4136
2026-01-17 15:02:10.06	330.25	18.25	-35.0	-35.8	22.2	0.00e+00	0	44	0	4155506688	39	4179
2026-01-17 15:02:11.19	330.34	18.12	-34.9	-35.8	22.2	0.00e+00	0	44	0	4163895296	39	4175
2026-01-17 15:02:12.35	330.45	17.99	-35.0	-35.9	22.1	0.00e+00	0	44	0	4172283904	39	4222
2026-01-17 15:02:13.20	330.52	17.90	-35.0	-35.9	22.2	0.00e+00	0	44	0	4177526784	39	4200
2026-01-17 15:02:14.33	330.62	17.77	-35.0	-35.9	22.1	0.00e+00	0	44	0	4185915392	39	4222
2026-01-17 15:02:15.19	330.69	17.68	-35.0	-35.9	22.1	0.00e+00	0	44	0	4192206848	39	4230
2026-01-17 15:02:16.32	330.79	17.55	-35.1	-36.0	22.1	0.00e+00	0	44	0	4200595456	39	4247
2026-01-17 15:02:17.18	330.86	17.46	-35.1	-36.0	22.0	0.00e+00	0	44	0	4206886912	39	4255
2026-01-17 15:02:18.31	330.95	17.33	-35.1	-36.0	21.9	0.00e+00	0	44	0	4214226944	39	4274
2026-01-17 15:02:19.17	331.03	17.24	-35.2	-36.1	22.0	0.00e+00	0	44	0	4220518400	39	4292
2026-01-17 15:02:20.30	331.12	17.12	-35.2	-36.1	21.9	0.00e+00	0	44	0	4228907008	39	4316
2026-01-17 15:02:21.15	331.19	17.03	-35.3	-36.2	21.1	0.00e+00	0	44	0	4235198464	39	4350
2026-01-17 15:02:22.40	331.29	16.89	-35.2	-36.1	21.8	0.00e+00	0	44	0	4244635648	40	4093
2026-01-17 15:02:23.25	331.36	16.80	-35.2	-36.1	21.9	0.00e+00	0	44	0	4250927104	40	4064
2026-01-17 15:02:24.39	331.45	16.68	-35.1	-36.0	21.9	0.00e+00	0	44	0	4258267136	40	4040
2026-01-17 15:02:25.25	331.52	16.59	-35.2	-36.1	21.8	0.00e+00	0	44	0	4264558592	40	4095
2026-01-17 15:02:26.38	331.61	16.47	-35.2	-36.1	21.9	0.00e+00	0	44	0	4272947200	40	4077
2026-01-17 15:02:27.24	331.68	16.38	-35.3	-36.2	21.7	0.00e+00	0	44	0	4279238656	40	4106
2026-01-17 15:02:28.37	331.77	16.26	-35.3	-36.2	21.7	0.00e+00	0	44	0	4287627264	40	4124
2026-01-17 15:02:29.23	331.83	16.17	-35.2	-36.1	21.8	0.00e+00	0	44	0	4293918720	40	4074
2026-01-17 15:02:30.68	331.94	16.02	-35.3	-36.2	21.7	0.00e+00	0	44	0	4304404480	40	4145
2026-01-17 15:02:31.39	332.00	15.94	-35.4	-36.3	21.6	0.00e+00	0	44	0	4309647360	40	4155
2026-01-17 15:02:32.67	332.10	15.81	-35.5	-36.4	21.4	0.00e+00	0	44	0	4318035968	40	4229
2026-01-17 15:02:33.42	332.15	15.73	-35.5	-36.4	21.5	0.00e+00	0	44	0	4323278848	40	4219
2026-01-17 15:02:34.69	332.25	15.60	-35.5	-36.5	21.5	0.00e+00	0	44	0	4332716032	40	4246
2026-01-17 15:02:35.42	332.30	15.53	-35.5	-36.4	21.4	0.00e+00	0	44	0	4337958912	40	4231
2026-01-17 15:02:36.70	332.40	15.40	-35.6	-36.6	21.4	0.00e+00	0	44	0	4347396096	40	4294
2026-01-17 15:02:37.49	332.46	15.32	-35.6	-36.6	21.4	0.00e+00	0	44	0	4353687552	40	4296
2026-01-17 15:02:38.69	332.54	15.20	-35.6	-36.6	21.4	0.00e+00	0	44	0	4362076160	40	4296
2026-01-17 15:02:39.54	332.61	15.11	-35.6	-36.6	21.4	0.00e+00	0	44	0	4368367616	40	4309
2026-01-17 15:02:40.68	332.69	15.00	-35.7	-36.6	21.3	0.00e+00	0	44	0	4376756224	41	4092
2026-01-17 15:02:41.53	332.75	14.91	-35.7	-36.7	21.3	0.00e+00	0	44	0	4383047680	41	4118
2026-01-17 15:02:42.67	332.83	14.80	-35.9	-36.9	21.0	0.00e+00	0	44	0	4390387712	41	4211
2026-01-17 15:02:43.52	332.89	14.72	-35.8	-36.8	21.2	0.00e+00	0	44	0	4396679168	41	4151
2026-01-17 15:02:44.66	332.97	14.60	-35.8	-36.8	21.2	0.00e+00	0	44	0	4405067776	41	4150
2026-01-17 15:02:45.83	333.05	14.49	-35.7	-36.7	21.2	0.00e+00	0	44	0	4413456384	41	4114
2026-01-17 15:02:46.85	333.12	14.39	-35.8	-36.8	21.1	0.00e+00	0	44	0	4420796416	41	4161
2026-01-17 15:02:47.85	333.19	14.29	-36.0	-37.0	21.0	0.00e+00	0	44	0	4428136448	41	4244
2026-01-17 15:02:48.84	333.26	14.19	-35.9	-36.8	21.1	0.00e+00	0	44	0	4435476480	41	4184
2026-01-17 15:02:49.84	333.33	14.10	-36.0	-37.0	20.9	0.00e+00	0	44	0	4442816512	41	4254
2026-01-17 15:02:50.83	333.40	14.00	-35.9	-36.8	21.1	0.00e+00	0	44	0	4450156544	41	4172
2026-01-17 15:02:51.83	333.46	13.91	-35.9	-36.8	21.1	0.00e+00	0	44	0	4456448000	41	4192
2026-01-17 15:02:52.82	333.53	13.81	-35.9	-36.9	21.1	0.00e+00	0	44	0	4463788032	41	4197
2026-01-17 15:02:53.82	333.60	13.72	-35.9	-36.9	21.0	0.00e+00	0	44	0	4471128064	41	4207
2026-01-17 15:02:54.82	333.66	13.62	-36.0	-36.9	21.0	0.00e+00	0	44	0	4478468096	41	4218
2026-01-17 15:02:55.81	333.73	13.53	-36.0	-36.9	21.0	0.00e+00	0	44	0	4485808128	41	4221
2026-01-17 15:02:56.81	333.79	13.43	-36.0	-36.9	21.0	0.00e+00	0	44	0	4493148160	41	4241
2026-01-17 15:02:57.80	333.86	13.34	-36.0	-37.0	20.9	0.00e+00	0	44	0	4499439616	41	4244
2026-01-17 15:02:58.80	333.92	13.25	-36.2	-37.1	20.8	0.00e+00	0	44	0	4506779648	41	4327
2026-01-17 15:02:59.86	333.99	13.15	-36.1	-37.1	20.8	0.00e+00	0	44	0	4515168256	41	4313
2026-01-17 15:03:00.76	334.05	13.06	-36.2	-37.1	20.7	0.00e+00	0	44	0	4521459712	41	4340
2026-01-17 15:03:02.03	334.13	12.94	-36.2	-37.2	20.7	0.00e+00	0	44	0	4530896896	42	4127
2026-01-17 15:03:02.77	334.18	12.88	-36.2	-37.2	20.7	0.00e+00	0	44	0	4535091200	42	4104
2026-01-17 15:03:04.05	334.26	12.76	-36.3	-37.3	20.6	0.00e+00	0	44	0	4544528384	42	4168
2026-01-17 15:03:04.76	334.30	12.69	-36.4	-37.4	20.5	0.00e+00	0	44	0	4549771264	42	4204
2026-01-17 15:03:06.04	334.38	12.58	-36.4	-37.4	20.5	0.00e+00	0	44	0	4559208448	42	4231
2026-01-17 15:03:06.76	334.42	12.51	-36.3	-37.3	20.6	0.00e+00	0	44	0	4564451328	42	4159
2026-01-17 15:03:08.36	334.52	12.37	-36.4	-37.4	20.5	0.00e+00	0	44	0	4575985664	42	4223
2026-01-17 15:03:08.94	334.56	12.31	-36.5	-37.5	20.4	0.00e+00	0	44	0	4580179968	42	4282
2026-01-17 15:03:10.51	334.65	12.17	-36.7	-37.7	20.3	0.00e+00	0	44	0	4591714304	42	4345
2026-01-17 15:03:11.14	334.69	12.11	-36.6	-37.6	20.3	0.00e+00	0	44	0	4595908608	42	4336
2026-01-17 15:03:12.65	334.78	11.98	-36.6	-37.6	20.3	0.00e+00	0	44	0	4607442944	43	4073
2026-01-17 15:03:13.37	334.82	11.92	-36.6	-37.6	20.3	0.00e+00	0	44	0	4611637248	43	4073
2026-01-17 15:03:14.66	334.90	11.80	-36.8	-37.8	20.1	0.00e+00	0	44	0	4621074432	43	4162
2026-01-17 15:03:15.37	334.94	11.74	-36.8	-37.8	20.1	0.00e+00	0	44	0	4626317312	43	4156
2026-01-17 15:03:16.65	335.02	11.63	-36.6	-37.6	20.3	0.00e+00	0	44	0	4635754496	43	4060
2026-01-17 15:03:17.37	335.06	11.56	-36.8	-37.8	20.2	0.00e+00	0	44	0	4640997376	43	4148
2026-01-17 15:03:18.66	335.13	11.45	-36.8	-37.8	20.1	0.00e+00	0	44	0	4650434560	43	4157
2026-01-17 15:03:19.37	335.17	11.39	-36.8	-37.8	20.1	0.00e+00	0	44	0	4655677440	43	4160
2026-01-17 15:03:20.65	335.25	11.28	-36.8	-37.9	20.0	0.00e+00	0	44	0	4665114624	43	4203
2026-01-17 15:03:21.70	335.31	11.18	-36.8	-37.9	20.0	0.00e+00	0	44	0	4672454656	43	4195
2026-01-17 15:03:22.84	335.37	11.09	-37.0	-38.0	19.9	0.00e+00	0	44	0	4680843264	43	4280
2026-01-17 15:03:23.69	335.42	11.01	-36.9	-38.0	19.9	0.00e+00	0	44	0	4687134720	43	4245
2026-01-17 15:03:24.83	335.48	10.91	-37.0	-38.1	19.7	0.00e+00	0	44	0	4695523328	43	4304
2026-01-17 15:03:25.68	335.53	10.84	-36.8	-37.9	20.0	0.00e+00	0	44	0	4700766208	43	4232
2026-01-17 15:03:26.82	335.59	10.74	-37.0	-38.1	19.7	0.00e+00	0	44	0	4709154816	43	4333
2026-01-17 15:03:27.67	335.64	10.67	-37.1	-38.1	19.7	0.00e+00	0	44	0	4715446272	43	4340
