passes_logs/2026/01/17/T1/T1__20260117_104928_NOAA_20_JPSS-1_rec.log

#Pass ID: 20260117_104928_NOAA 20 (JPSS-1)
#Satellite: NOAA 20 (JPSS-1)
#Configuration: NOAA 20
#almurnet v.1.7.20251203
#Start time: 2026-01-17 10:49:29

#Version: 2.0.20230620
#Station: T1
#Location: 37.570604 lon 55.790049 lat
#TLE: 1 43013U 17073A   26016.24631778  .00000038  00000+0  39093-4 0  9990
#TLE: 2 43013  98.7637 317.1726 0001455  37.6755 322.4523 14.19536243422915

#Time	Az	El	Level	Level2	SNR	BER	BlckErr	Temp	State	Recorded	gain1	gain2
2026-01-17 10:49:29.73	188.88	5.06	-48.6	-64.2	3.8	1.49e+00	0	41	0	0	67	23536
2026-01-17 10:49:30.72	188.93	5.13	-49.2	-65.5	3.8	1.49e+00	0	41	104	0	69	24207
2026-01-17 10:49:31.71	188.98	5.20	-49.2	-65.5	3.8	1.49e+00	0	41	104	0	69	24185
2026-01-17 10:49:32.71	189.03	5.26	-49.2	-65.4	3.8	1.49e+00	0	41	104	0	69	23939
2026-01-17 10:49:33.70	189.08	5.33	-49.2	-65.3	3.8	1.49e+00	0	41	104	0	69	23831
2026-01-17 10:49:34.69	189.13	5.40	-49.2	-65.3	3.8	1.49e+00	0	41	104	0	69	23715
2026-01-17 10:49:35.69	189.19	5.47	-49.2	-65.2	3.8	1.49e+00	0	41	104	0	69	23472
2026-01-17 10:49:36.68	189.24	5.54	-49.2	-65.2	3.8	1.49e+00	0	41	104	0	69	23488
2026-01-17 10:49:37.67	189.29	5.60	-49.2	-65.2	3.8	1.49e+00	0	41	104	0	69	23330
2026-01-17 10:49:38.67	189.34	5.67	-49.2	-65.1	3.8	1.49e+00	0	41	104	0	69	23220
2026-01-17 10:49:39.66	189.40	5.74	-49.2	-65.2	3.8	1.49e+00	0	41	104	0	69	23332
2026-01-17 10:49:40.65	189.45	5.81	-49.2	-65.2	3.8	1.49e+00	0	41	104	0	69	23444
2026-01-17 10:49:41.64	189.50	5.88	-49.2	-65.3	3.8	1.49e+00	0	41	104	0	69	23682
2026-01-17 10:49:42.64	189.56	5.95	-49.2	-65.3	3.8	1.49e+00	0	41	104	0	69	23694
2026-01-17 10:49:43.63	189.61	6.02	-49.2	-65.3	3.8	1.49e+00	0	41	104	0	69	23837
2026-01-17 10:49:44.62	189.67	6.09	-49.2	-65.3	3.8	1.49e+00	0	41	104	0	69	23762
2026-01-17 10:49:45.62	189.72	6.16	-49.2	-65.3	3.8	1.49e+00	0	41	104	0	69	23691
2026-01-17 10:49:46.61	189.78	6.23	-49.2	-65.3	3.8	1.49e+00	0	41	104	0	69	23705
2026-01-17 10:49:47.60	189.83	6.30	-49.2	-65.1	3.8	1.49e+00	0	41	104	0	69	23304
2026-01-17 10:49:48.60	189.89	6.37	-49.2	-65.3	3.8	1.49e+00	0	41	104	0	69	23703
2026-01-17 10:49:49.59	189.94	6.44	-49.2	-65.2	3.8	1.49e+00	0	41	104	0	69	23458
2026-01-17 10:49:50.59	190.00	6.51	-49.2	-65.2	3.8	1.49e+00	0	42	104	0	69	23462
2026-01-17 10:49:51.58	190.05	6.58	-49.2	-65.3	3.8	1.49e+00	0	42	104	0	69	23740
2026-01-17 10:49:52.57	190.11	6.65	-49.2	-65.3	3.8	1.49e+00	0	42	104	0	69	23740
2026-01-17 10:49:53.57	190.17	6.72	-49.2	-65.3	3.8	1.49e+00	0	42	104	0	69	23835
2026-01-17 10:49:54.56	190.22	6.80	-49.2	-65.4	3.8	1.49e+00	0	42	104	0	69	23936
2026-01-17 10:49:55.55	190.28	6.87	-49.2	-65.4	3.8	1.49e+00	0	42	104	0	69	23924
2026-01-17 10:49:56.55	190.34	6.94	-49.2	-65.1	3.8	1.49e+00	0	42	104	0	69	23251
2026-01-17 10:49:57.54	190.40	7.01	-49.2	-64.8	3.8	1.49e+00	0	42	104	0	69	22402
2026-01-17 10:49:58.54	190.45	7.08	-49.2	-64.5	3.8	1.49e+00	0	42	104	0	69	21663
2026-01-17 10:49:59.53	190.51	7.16	-49.1	-64.1	3.8	1.49e+00	0	42	104	0	69	20751
2026-01-17 10:50:00.52	190.57	7.23	-49.1	-63.8	3.8	1.49e+00	0	42	104	0	69	19912
2026-01-17 10:50:01.52	190.63	7.30	-49.2	-63.7	3.8	1.49e+00	0	42	104	0	69	19642
2026-01-17 10:50:02.51	190.69	7.37	-49.2	-64.1	3.8	1.49e+00	0	42	104	0	69	20724
2026-01-17 10:50:03.50	190.75	7.45	-49.2	-64.8	3.8	1.49e+00	0	42	104	0	69	22289
2026-01-17 10:50:04.50	190.81	7.52	-49.2	-65.4	3.8	1.49e+00	0	42	104	0	69	24004
2026-01-17 10:50:05.49	190.87	7.59	-49.2	-65.1	3.8	1.49e+00	0	42	104	0	69	23240
2026-01-17 10:50:06.48	190.93	7.67	-49.1	-63.0	3.9	1.49e+00	0	42	104	0	69	18251
2026-01-17 10:50:07.48	190.99	7.74	-48.8	-60.0	4.9	1.11e+00	0	42	0	0	69	12889
2026-01-17 10:50:08.47	191.05	7.81	-48.4	-57.0	7.0	3.61e-01	0	42	0	2097152	68	9695
2026-01-17 10:50:09.46	191.11	7.89	-47.8	-54.7	9.2	7.36e-02	0	42	0	4194304	67	7835
2026-01-17 10:50:10.46	191.17	7.96	-47.0	-52.6	11.4	3.04e-03	0	42	0	6291456	66	6550
2026-01-17 10:50:11.45	191.23	8.04	-46.5	-51.4	12.7	2.11e-04	0	42	0	7340032	65	5997
2026-01-17 10:50:12.45	191.30	8.11	-46.0	-50.4	13.7	1.83e-05	0	42	0	9437184	64	5658
2026-01-17 10:50:13.44	191.36	8.19	-45.7	-49.6	14.5	2.20e-06	0	42	0	11534336	63	5519
2026-01-17 10:50:14.43	191.42	8.26	-45.4	-49.1	15.1	0.00e+00	0	42	0	13631488	62	5492
2026-01-17 10:50:15.42	191.48	8.34	-45.1	-48.7	15.5	0.00e+00	0	42	0	14680064	62	5262
2026-01-17 10:50:16.42	191.55	8.41	-45.2	-48.8	15.4	0.00e+00	0	42	0	16777216	62	5308
2026-01-17 10:50:17.41	191.61	8.49	-45.4	-49.2	15.0	0.00e+00	0	42	0	18874368	62	5531
2026-01-17 10:50:18.40	191.67	8.56	-45.7	-49.7	14.5	0.00e+00	0	42	0	20971520	62	5862
2026-01-17 10:50:19.40	191.74	8.64	-46.1	-50.4	13.9	7.00e-07	0	42	0	23068672	62	6363
2026-01-17 10:50:20.39	191.80	8.72	-46.5	-51.3	12.8	1.67e-05	0	42	0	24117248	63	6701
2026-01-17 10:50:21.39	191.87	8.79	-46.9	-52.3	11.7	2.72e-04	0	42	0	26214400	64	7102
2026-01-17 10:50:22.38	191.93	8.87	-47.3	-53.4	10.6	1.42e-03	0	42	0	28311552	65	7577
2026-01-17 10:50:23.37	192.00	8.95	-47.8	-54.8	9.2	9.72e-03	0	42	0	30408704	66	8422
2026-01-17 10:50:24.36	192.06	9.02	-48.2	-56.4	7.6	4.15e-02	0	42	0	32505856	66	10079
2026-01-17 10:50:25.36	192.13	9.10	-48.0	-55.6	8.3	1.81e-01	0	42	0	33554432	67	8672
2026-01-17 10:50:26.35	192.20	9.18	-46.5	-51.2	13.3	0.00e+00	0	43	0	35651584	63	6571
2026-01-17 10:50:27.35	192.26	9.26	-48.9	-60.2	4.1	8.19e-01	0	42	104	36700160	68	14034
2026-01-17 10:50:28.34	192.33	9.34	-48.2	-55.5	8.5	9.98e-02	0	42	0	37748736	68	8103
2026-01-17 10:50:29.34	192.40	9.41	-47.3	-53.1	11.2	1.60e-05	0	42	0	38797312	65	7364
2026-01-17 10:50:30.33	192.47	9.49	-49.0	-60.5	4.6	1.11e+00	0	42	0	40894464	68	14429
2026-01-17 10:50:31.33	192.54	9.57	-46.1	-50.5	13.6	4.24e-02	0	42	0	41943040	64	5753
2026-01-17 10:50:32.32	192.60	9.65	-45.6	-49.4	14.8	0.00e+00	0	43	0	44040192	63	5361
2026-01-17 10:50:33.31	192.67	9.73	-45.3	-48.7	15.5	0.00e+00	0	42	0	46137344	62	5255
2026-01-17 10:50:34.31	192.74	9.81	-45.1	-48.5	15.7	0.00e+00	0	43	0	48234496	62	5127
2026-01-17 10:50:35.30	192.81	9.89	-45.0	-48.3	15.9	0.00e+00	0	42	0	49283072	62	5037
2026-01-17 10:50:36.30	192.88	9.97	-44.8	-48.0	16.2	0.00e+00	0	43	0	51380224	61	5108
2026-01-17 10:50:37.29	192.95	10.05	-44.6	-47.7	16.4	0.00e+00	0	43	0	53477376	61	4977
2026-01-17 10:50:38.35	193.03	10.13	-44.6	-47.8	16.3	0.00e+00	0	43	0	55574528	61	5007
2026-01-17 10:50:39.25	193.09	10.21	-44.6	-47.8	16.4	0.00e+00	0	43	0	56623104	61	4984
2026-01-17 10:50:40.26	193.17	10.29	-44.6	-47.7	16.4	0.00e+00	0	43	0	58720256	61	4960
2026-01-17 10:50:41.26	193.24	10.37	-44.5	-47.6	16.5	0.00e+00	0	42	0	60817408	61	4911
2026-01-17 10:50:42.25	193.31	10.45	-44.5	-47.5	16.6	0.00e+00	0	42	0	62914560	61	4865
2026-01-17 10:50:43.25	193.38	10.53	-44.5	-47.6	16.6	0.00e+00	0	43	0	65011712	61	4910
2026-01-17 10:50:44.24	193.46	10.61	-44.6	-47.7	16.4	0.00e+00	0	42	0	66060288	61	4954
2026-01-17 10:50:45.24	193.53	10.70	-44.5	-47.5	16.6	0.00e+00	0	43	0	68157440	61	4864
2026-01-17 10:50:46.23	193.60	10.78	-44.5	-47.6	16.7	0.00e+00	0	42	0	70254592	61	4886
2026-01-17 10:50:47.54	193.70	10.89	-44.6	-47.6	16.7	0.00e+00	0	43	0	72351744	61	4889
2026-01-17 10:50:48.25	193.75	10.95	-44.6	-47.7	16.5	0.00e+00	0	43	0	74448896	61	4963
2026-01-17 10:50:49.53	193.85	11.05	-44.5	-47.5	16.8	0.00e+00	0	43	0	76546048	60	5101
2026-01-17 10:50:50.24	193.90	11.11	-44.4	-47.3	16.9	0.00e+00	0	43	0	77594624	60	5028
2026-01-17 10:50:51.52	194.00	11.22	-44.3	-47.3	16.9	0.00e+00	0	43	0	79691776	60	5002
2026-01-17 10:50:52.24	194.06	11.28	-44.4	-47.4	16.8	0.00e+00	0	43	0	81788928	60	5060
2026-01-17 10:50:53.52	194.16	11.39	-44.3	-47.2	16.9	0.00e+00	0	43	0	83886080	60	4960
2026-01-17 10:50:54.24	194.21	11.45	-44.3	-47.2	16.9	0.00e+00	0	43	0	84934656	60	4979
2026-01-17 10:50:55.52	194.31	11.56	-44.2	-47.1	17.0	0.00e+00	0	43	0	88080384	60	4921
2026-01-17 10:50:56.23	194.37	11.62	-44.3	-47.2	16.9	0.00e+00	0	43	0	89128960	60	4959
2026-01-17 10:50:57.69	194.48	11.74	-44.3	-47.2	16.9	0.00e+00	0	43	0	91226112	60	4947
2026-01-17 10:50:58.65	194.56	11.82	-44.3	-47.2	17.0	0.00e+00	0	43	0	93323264	60	4933
2026-01-17 10:50:59.96	194.66	11.94	-44.2	-47.1	17.1	0.00e+00	0	43	0	95420416	60	4904
2026-01-17 10:51:00.67	194.72	12.00	-44.3	-47.2	17.0	0.00e+00	0	43	0	97517568	60	4965
2026-01-17 10:51:02.31	194.85	12.14	-44.4	-47.3	17.0	0.00e+00	0	43	0	100663296	60	5007
2026-01-17 10:51:02.88	194.90	12.19	-44.4	-47.4	16.9	0.00e+00	0	43	0	101711872	60	5043
2026-01-17 10:51:04.59	195.04	12.34	-44.3	-47.1	17.0	0.00e+00	0	43	0	104857600	60	4925
2026-01-17 10:51:05.15	195.09	12.39	-44.2	-47.0	17.2	0.00e+00	0	43	0	105906176	60	4858
2026-01-17 10:51:06.88	195.23	12.54	-44.2	-47.1	17.0	0.00e+00	0	43	0	109051904	60	4894
2026-01-17 10:51:07.44	195.28	12.59	-44.2	-47.1	17.1	0.00e+00	0	43	0	110100480	60	4880
2026-01-17 10:51:09.15	195.42	12.74	-44.2	-47.1	16.9	0.00e+00	0	43	0	113246208	60	4871
2026-01-17 10:51:09.83	195.48	12.80	-44.1	-47.0	17.1	0.00e+00	0	43	0	114294784	60	4817
2026-01-17 10:51:11.25	195.60	12.93	-44.0	-46.9	17.2	0.00e+00	0	43	0	117440512	60	4781
2026-01-17 10:51:12.05	195.67	13.00	-44.0	-46.9	17.1	0.00e+00	0	43	0	118489088	60	4801
2026-01-17 10:51:13.51	195.80	13.13	-44.0	-46.8	17.1	0.00e+00	0	43	0	121634816	59	5018
2026-01-17 10:51:14.22	195.86	13.19	-44.0	-46.9	16.8	0.00e+00	0	43	0	122683392	59	5070
2026-01-17 10:51:15.50	195.97	13.31	-43.9	-47.0	16.2	0.00e+00	0	43	0	124780544	59	5111
2026-01-17 10:51:16.22	196.03	13.37	-43.7	-46.8	16.3	0.00e+00	0	43	0	126877696	59	5008
2026-01-17 10:51:17.50	196.15	13.49	-43.5	-46.5	16.4	0.00e+00	0	43	0	128974848	59	4841
2026-01-17 10:51:18.24	196.21	13.55	-43.5	-46.6	16.4	0.00e+00	0	43	0	130023424	58	5170
2026-01-17 10:51:19.52	196.33	13.67	-43.4	-46.5	16.2	0.00e+00	0	43	0	132120576	58	5120
2026-01-17 10:51:20.25	196.39	13.74	-43.4	-46.4	16.3	0.00e+00	0	43	0	134217728	58	5088
2026-01-17 10:51:21.53	196.51	13.86	-43.4	-46.4	16.5	0.00e+00	0	43	0	136314880	58	5087
2026-01-17 10:51:22.24	196.57	13.92	-43.4	-46.4	16.6	0.00e+00	0	43	0	137363456	58	5065
2026-01-17 10:51:23.52	196.69	14.04	-43.5	-46.4	17.0	0.00e+00	0	43	0	140509184	58	5042
2026-01-17 10:51:24.23	196.76	14.10	-43.5	-46.3	17.4	0.00e+00	0	43	0	141557760	58	5016
2026-01-17 10:51:25.51	196.88	14.22	-43.6	-46.3	17.7	0.00e+00	0	43	0	143654912	58	5030
2026-01-17 10:51:26.22	196.94	14.29	-43.7	-46.4	17.7	0.00e+00	0	43	0	144703488	58	5062
2026-01-17 10:51:27.50	197.06	14.41	-43.7	-46.4	17.8	0.00e+00	0	43	0	147849216	58	5052
2026-01-17 10:51:28.22	197.13	14.48	-43.7	-46.3	17.9	0.00e+00	0	43	0	148897792	58	5030
2026-01-17 10:51:29.60	197.26	14.61	-43.7	-46.3	18.0	0.00e+00	0	43	0	150994944	58	5013
2026-01-17 10:51:30.31	197.33	14.67	-43.7	-46.4	17.9	0.00e+00	0	43	0	153092096	58	5049
2026-01-17 10:51:31.59	197.45	14.79	-43.8	-46.4	17.8	0.00e+00	0	43	0	155189248	58	5087
2026-01-17 10:51:32.30	197.52	14.86	-43.8	-46.5	17.7	0.00e+00	0	43	0	156237824	58	5113
2026-01-17 10:51:33.75	197.66	15.00	-43.8	-46.5	17.7	0.00e+00	0	43	0	159383552	58	5113
2026-01-17 10:51:34.46	197.73	15.07	-43.9	-46.6	17.6	0.00e+00	0	43	0	160432128	58	5175
2026-01-17 10:51:35.74	197.86	15.19	-43.8	-46.5	17.7	0.00e+00	0	43	0	162529280	58	5116
2026-01-17 10:51:36.45	197.93	15.26	-43.9	-46.5	17.7	0.00e+00	0	43	0	164626432	58	5140
2026-01-17 10:51:37.84	198.07	15.39	-43.9	-46.6	17.7	0.00e+00	0	43	0	166723584	58	5173
2026-01-17 10:51:38.55	198.14	15.46	-44.0	-46.7	17.6	0.00e+00	0	43	0	167772160	58	5252
2026-01-17 10:51:39.83	198.27	15.59	-44.1	-46.7	17.5	0.00e+00	0	43	0	170917888	58	5275
2026-01-17 10:51:40.54	198.34	15.65	-44.1	-46.8	17.5	0.00e+00	0	43	0	171966464	58	5293
2026-01-17 10:51:41.82	198.47	15.78	-44.1	-46.8	17.5	0.00e+00	0	43	0	174063616	59	4993
2026-01-17 10:51:42.53	198.55	15.85	-44.2	-46.9	17.4	0.00e+00	0	43	0	176160768	59	5052
2026-01-17 10:51:43.81	198.68	15.97	-44.2	-46.9	17.4	0.00e+00	0	43	0	178257920	59	5064
2026-01-17 10:51:44.52	198.75	16.04	-44.2	-46.9	17.4	0.00e+00	0	43	0	179306496	59	5065
2026-01-17 10:51:45.80	198.89	16.17	-44.2	-46.9	17.5	0.00e+00	0	43	0	181403648	59	5057
2026-01-17 10:51:46.60	198.97	16.25	-44.3	-47.0	17.3	0.00e+00	0	43	0	183500800	59	5127
2026-01-17 10:51:48.04	199.13	16.39	-44.2	-46.9	17.5	0.00e+00	0	43	0	185597952	59	5044
2026-01-17 10:51:48.75	199.20	16.47	-44.3	-47.0	17.4	0.00e+00	0	43	0	187695104	59	5106
2026-01-17 10:51:50.25	199.37	16.62	-44.2	-46.8	17.5	0.00e+00	0	43	0	189792256	59	5021
2026-01-17 10:51:50.96	199.44	16.69	-44.2	-46.9	17.4	0.00e+00	0	43	0	191889408	59	5089
2026-01-17 10:51:52.24	199.58	16.82	-44.3	-46.9	17.4	0.00e+00	0	43	0	193986560	59	5097
2026-01-17 10:51:52.95	199.66	16.89	-44.2	-46.9	17.5	0.00e+00	0	43	0	195035136	59	5082
2026-01-17 10:51:54.23	199.80	17.02	-44.2	-46.9	17.5	0.00e+00	0	43	0	198180864	59	5047
2026-01-17 10:51:54.94	199.88	17.09	-44.0	-46.6	17.8	0.00e+00	0	43	0	199229440	59	4907
2026-01-17 10:51:56.22	200.03	17.22	-44.1	-46.7	17.7	0.00e+00	0	43	0	201326592	59	4947
2026-01-17 10:51:56.93	200.11	17.29	-44.1	-46.8	17.7	0.00e+00	0	43	0	202375168	59	4984
2026-01-17 10:51:58.21	200.25	17.43	-44.0	-46.6	17.8	0.00e+00	0	43	0	205520896	59	4924
2026-01-17 10:51:58.94	200.34	17.50	-43.9	-46.4	17.9	0.00e+00	0	43	0	206569472	59	4808
2026-01-17 10:52:00.22	200.49	17.63	-43.8	-46.4	18.0	0.00e+00	0	43	0	208666624	59	4771
2026-01-17 10:52:01.06	200.58	17.72	-43.9	-46.5	17.9	0.00e+00	0	43	0	210763776	59	4821
2026-01-17 10:52:02.49	200.75	17.87	-43.8	-46.4	17.9	0.00e+00	0	43	0	212860928	59	4791
2026-01-17 10:52:03.21	200.84	17.95	-43.8	-46.4	18.0	0.00e+00	0	43	0	214958080	59	4781
2026-01-17 10:52:04.48	200.99	18.08	-43.9	-46.5	17.9	0.00e+00	0	43	0	217055232	59	4847
2026-01-17 10:52:05.21	201.07	18.16	-43.9	-46.5	17.9	0.00e+00	0	43	0	218103808	59	4849
2026-01-17 10:52:06.49	201.23	18.29	-43.8	-46.3	18.0	0.00e+00	0	43	0	220200960	59	4732
2026-01-17 10:52:07.21	201.32	18.37	-43.8	-46.3	18.1	0.00e+00	0	43	0	222298112	59	4717
2026-01-17 10:52:08.49	201.47	18.50	-43.9	-46.4	18.0	0.00e+00	0	43	0	224395264	59	4762
2026-01-17 10:52:09.21	201.56	18.58	-43.8	-46.3	18.1	0.00e+00	0	43	0	225443840	59	4734
2026-01-17 10:52:10.49	201.72	18.72	-43.8	-46.3	18.1	0.00e+00	0	43	0	228589568	59	4735
2026-01-17 10:52:11.21	201.81	18.79	-44.0	-46.5	17.9	0.00e+00	0	43	0	229638144	59	4847
2026-01-17 10:52:12.49	201.97	18.93	-43.9	-46.4	18.0	0.00e+00	0	43	0	231735296	59	4793
2026-01-17 10:52:13.20	202.06	19.01	-44.0	-46.5	17.9	0.00e+00	0	43	0	232783872	59	4850
2026-01-17 10:52:14.48	202.22	19.15	-44.0	-46.6	17.8	0.00e+00	0	43	0	235929600	59	4872
2026-01-17 10:52:15.19	202.31	19.22	-43.9	-46.5	17.9	0.00e+00	0	43	0	236978176	59	4849
2026-01-17 10:52:16.47	202.48	19.36	-44.0	-46.6	17.8	0.00e+00	0	43	0	239075328	59	4914
2026-01-17 10:52:17.18	202.57	19.44	-44.1	-46.7	17.7	0.00e+00	0	43	0	241172480	59	4968
2026-01-17 10:52:18.46	202.74	19.58	-44.2	-46.8	17.6	0.00e+00	0	43	0	243269632	59	5016
2026-01-17 10:52:19.17	202.83	19.66	-44.2	-46.8	17.6	0.00e+00	0	43	0	244318208	59	4999
2026-01-17 10:52:20.64	203.03	19.82	-44.3	-46.9	17.6	0.00e+00	0	43	0	247463936	59	5063
2026-01-17 10:52:21.35	203.12	19.90	-44.4	-47.0	17.5	0.00e+00	0	43	0	248512512	59	5120
2026-01-17 10:52:22.63	203.29	20.04	-44.3	-47.0	17.5	0.00e+00	0	43	0	250609664	59	5105
2026-01-17 10:52:23.67	203.44	20.16	-44.4	-47.0	17.4	0.00e+00	0	43	0	252706816	59	5156
2026-01-17 10:52:24.90	203.60	20.30	-44.4	-47.0	17.4	0.00e+00	0	43	0	254803968	59	5129
2026-01-17 10:52:25.85	203.74	20.40	-44.4	-47.0	17.4	0.00e+00	0	43	0	256901120	59	5159
2026-01-17 10:52:26.85	203.87	20.52	-44.4	-47.0	17.4	0.00e+00	0	43	0	258998272	59	5141
2026-01-17 10:52:27.84	204.01	20.63	-44.4	-47.1	17.4	0.00e+00	0	43	0	261095424	59	5187
2026-01-17 10:52:28.84	204.15	20.74	-44.4	-47.1	17.3	0.00e+00	0	43	0	262144000	59	5193
2026-01-17 10:52:29.83	204.29	20.85	-44.5	-47.2	17.3	0.00e+00	0	43	0	264241152	59	5226
2026-01-17 10:52:30.83	204.44	20.97	-44.6	-47.3	17.2	0.00e+00	0	43	0	266338304	59	5291
2026-01-17 10:52:31.82	204.58	21.08	-44.4	-47.1	17.4	0.00e+00	0	43	0	268435456	59	5179
2026-01-17 10:52:32.82	204.72	21.20	-44.5	-47.2	17.3	0.00e+00	0	43	0	270532608	59	5225
2026-01-17 10:52:33.81	204.87	21.31	-44.5	-47.1	17.4	0.00e+00	0	43	0	271581184	59	5212
2026-01-17 10:52:34.87	205.02	21.43	-44.4	-47.1	17.3	0.00e+00	0	43	0	273678336	59	5200
2026-01-17 10:52:35.74	205.15	21.53	-44.4	-47.1	17.3	0.00e+00	0	43	0	275775488	59	5204
2026-01-17 10:52:36.88	205.32	21.66	-44.4	-47.1	17.4	0.00e+00	0	43	0	277872640	59	5167
2026-01-17 10:52:37.73	205.45	21.76	-44.5	-47.2	17.3	0.00e+00	0	43	0	278921216	59	5222
2026-01-17 10:52:38.86	205.62	21.90	-44.4	-47.0	17.5	0.00e+00	0	43	0	281018368	59	5152
2026-01-17 10:52:39.72	205.75	22.00	-44.3	-46.9	17.6	0.00e+00	0	43	0	283115520	59	5059
2026-01-17 10:52:40.85	205.93	22.13	-44.3	-47.0	17.5	0.00e+00	0	43	0	285212672	59	5105
2026-01-17 10:52:41.71	206.06	22.23	-44.4	-47.0	17.5	0.00e+00	0	43	0	286261248	59	5120
2026-01-17 10:52:42.85	206.24	22.36	-44.4	-47.0	17.5	0.00e+00	0	43	0	288358400	59	5115
2026-01-17 10:52:43.70	206.37	22.46	-44.4	-47.1	17.4	0.00e+00	0	43	0	290455552	59	5175
2026-01-17 10:52:44.83	206.55	22.60	-44.4	-47.0	17.5	0.00e+00	0	43	0	292552704	59	5138
2026-01-17 10:52:45.69	206.69	22.70	-44.4	-47.0	17.5	0.00e+00	0	43	0	294649856	59	5145
2026-01-17 10:52:46.87	206.88	22.84	-44.5	-47.2	17.3	0.00e+00	0	43	0	296747008	59	5236
2026-01-17 10:52:47.72	207.01	22.94	-44.5	-47.2	17.4	0.00e+00	0	43	0	297795584	59	5226
2026-01-17 10:52:48.86	207.20	23.08	-44.5	-47.2	17.4	0.00e+00	0	43	0	299892736	59	5224
2026-01-17 10:52:49.71	207.34	23.18	-44.5	-47.2	17.3	0.00e+00	0	43	0	301989888	59	5250
2026-01-17 10:52:50.85	207.53	23.32	-44.4	-47.0	17.4	0.00e+00	0	43	0	304087040	59	5156
2026-01-17 10:52:51.70	207.67	23.42	-44.5	-47.1	17.4	0.00e+00	0	43	0	305135616	59	5202
2026-01-17 10:52:52.84	207.86	23.56	-44.6	-47.3	17.2	0.00e+00	0	43	0	307232768	59	5282
2026-01-17 10:52:53.69	208.01	23.66	-44.5	-47.1	17.4	0.00e+00	0	43	0	309329920	59	5200
2026-01-17 10:52:54.83	208.20	23.80	-44.5	-47.2	17.3	0.00e+00	0	43	0	311427072	59	5244
2026-01-17 10:52:55.68	208.35	23.91	-44.6	-47.3	17.2	0.00e+00	0	43	0	312475648	59	5286
2026-01-17 10:52:56.82	208.54	24.05	-44.5	-47.1	17.4	0.00e+00	0	43	0	314572800	59	5202
2026-01-17 10:52:57.67	208.69	24.15	-44.4	-47.1	17.4	0.00e+00	0	43	0	316669952	59	5172
2026-01-17 10:52:58.80	208.89	24.29	-44.5	-47.1	17.4	0.00e+00	0	43	0	318767104	59	5202
2026-01-17 10:52:59.66	209.04	24.40	-44.5	-47.2	17.3	0.00e+00	0	43	0	320864256	59	5234
2026-01-17 10:53:00.79	209.24	24.54	-44.6	-47.2	17.3	0.00e+00	0	43	0	322961408	59	5263
2026-01-17 10:53:01.64	209.40	24.64	-44.6	-47.3	17.3	0.00e+00	0	43	0	324009984	59	5284
2026-01-17 10:53:02.78	209.60	24.78	-44.6	-47.3	17.2	0.00e+00	0	43	0	326107136	59	5305
2026-01-17 10:53:03.63	209.76	24.89	-44.7	-47.4	17.2	0.00e+00	0	43	0	328204288	59	5344
2026-01-17 10:53:04.91	209.99	25.05	-44.7	-47.5	17.1	0.00e+00	0	43	0	330301440	60	5136
2026-01-17 10:53:05.62	210.13	25.14	-44.9	-47.7	16.9	0.00e+00	0	43	0	331350016	60	5254
2026-01-17 10:53:06.90	210.36	25.30	-44.8	-47.6	17.0	0.00e+00	0	43	0	333447168	60	5168
2026-01-17 10:53:07.61	210.50	25.39	-44.8	-47.7	16.9	0.00e+00	0	43	0	335544320	60	5220
2026-01-17 10:53:08.89	210.74	25.55	-44.7	-47.5	17.1	0.00e+00	0	43	0	337641472	60	5144
2026-01-17 10:53:09.62	210.88	25.64	-44.8	-47.5	17.1	0.00e+00	0	43	0	338690048	60	5155
2026-01-17 10:53:10.90	211.13	25.80	-44.7	-47.5	17.1	0.00e+00	0	43	0	341835776	60	5143
2026-01-17 10:53:11.61	211.27	25.89	-44.8	-47.5	17.1	0.00e+00	0	43	0	342884352	60	5155
2026-01-17 10:53:12.89	211.52	26.06	-44.7	-47.4	17.1	0.00e+00	0	43	0	344981504	60	5098
2026-01-17 10:53:13.62	211.66	26.15	-44.6	-47.4	17.2	0.00e+00	0	43	0	346030080	60	5078
2026-01-17 10:53:14.90	211.92	26.31	-44.8	-47.6	17.1	0.00e+00	0	43	0	349175808	60	5163
2026-01-17 10:53:15.61	212.06	26.40	-44.8	-47.6	17.0	0.00e+00	0	43	0	350224384	60	5178
2026-01-17 10:53:16.89	212.32	26.57	-44.8	-47.5	17.1	0.00e+00	0	43	0	352321536	60	5155
2026-01-17 10:53:17.60	212.46	26.66	-44.8	-47.5	17.1	0.00e+00	0	43	0	354418688	60	5154
2026-01-17 10:53:18.88	212.72	26.82	-44.9	-47.8	16.9	0.00e+00	0	43	0	356515840	60	5281
2026-01-17 10:53:19.61	212.87	26.92	-44.9	-47.7	16.9	0.00e+00	0	43	0	357564416	60	5278
2026-01-17 10:53:20.89	213.14	27.08	-45.0	-47.9	16.8	0.00e+00	0	43	0	360710144	60	5355
2026-01-17 10:53:21.60	213.29	27.17	-44.9	-47.7	16.9	0.00e+00	0	43	0	361758720	60	5269
2026-01-17 10:53:22.88	213.56	27.34	-44.9	-47.8	16.8	0.00e+00	0	43	0	363855872	60	5334
2026-01-17 10:53:23.59	213.71	27.43	-45.0	-47.8	16.8	0.00e+00	0	43	0	364904448	60	5328
2026-01-17 10:53:24.87	213.99	27.60	-44.9	-47.7	16.9	0.00e+00	0	43	0	368050176	60	5271
2026-01-17 10:53:25.58	214.14	27.69	-44.9	-47.7	16.9	0.00e+00	0	43	0	369098752	60	5257
2026-01-17 10:53:26.85	214.42	27.85	-44.9	-47.7	16.9	0.00e+00	0	43	0	371195904	60	5269
2026-01-17 10:53:27.56	214.58	27.95	-44.9	-47.7	16.9	0.00e+00	0	43	0	372244480	60	5247
2026-01-17 10:53:28.84	214.86	28.11	-45.0	-47.9	16.8	0.00e+00	0	43	0	375390208	60	5363
2026-01-17 10:53:29.57	215.03	28.21	-45.1	-48.0	16.7	0.00e+00	0	43	0	376438784	60	5408
2026-01-17 10:53:30.85	215.31	28.38	-45.2	-48.1	16.5	0.00e+00	0	43	0	378535936	61	5216
2026-01-17 10:53:31.58	215.48	28.47	-45.2	-48.2	16.5	0.00e+00	0	43	0	380633088	61	5231
2026-01-17 10:53:32.86	215.77	28.64	-45.2	-48.2	16.5	0.00e+00	0	43	0	382730240	61	5228
2026-01-17 10:53:33.59	215.94	28.74	-45.2	-48.1	16.5	0.00e+00	0	43	0	383778816	61	5208
2026-01-17 10:53:34.87	216.24	28.90	-45.2	-48.1	16.6	0.00e+00	0	43	0	385875968	61	5189
2026-01-17 10:53:35.58	216.41	29.00	-45.1	-48.0	16.7	0.00e+00	0	43	0	387973120	61	5103
2026-01-17 10:53:36.86	216.71	29.17	-45.1	-48.0	16.7	0.00e+00	0	43	0	390070272	61	5123
2026-01-17 10:53:37.57	216.88	29.26	-45.0	-47.9	16.8	0.00e+00	0	43	0	391118848	61	5059
2026-01-17 10:53:38.84	217.19	29.43	-45.2	-48.2	16.5	0.00e+00	0	43	0	394264576	61	5232
2026-01-17 10:53:39.55	217.36	29.52	-45.2	-48.1	16.5	0.00e+00	0	43	0	395313152	61	5217
2026-01-17 10:53:40.83	217.67	29.69	-45.2	-48.2	16.5	0.00e+00	0	43	0	397410304	61	5241
2026-01-17 10:53:41.55	217.85	29.78	-45.2	-48.1	16.5	0.00e+00	0	43	0	398458880	61	5211
2026-01-17 10:53:42.83	218.17	29.95	-45.2	-48.1	16.5	0.00e+00	0	43	0	401604608	61	5195
2026-01-17 10:53:43.55	218.35	30.05	-45.2	-48.0	16.6	0.00e+00	0	43	0	402653184	61	5156
2026-01-17 10:53:44.83	218.67	30.22	-45.2	-48.1	16.5	0.00e+00	0	43	0	404750336	61	5216
2026-01-17 10:53:45.67	218.88	30.33	-45.3	-48.3	16.4	0.00e+00	0	43	0	406847488	61	5288
2026-01-17 10:53:46.81	219.18	30.48	-45.4	-48.4	16.2	0.00e+00	0	43	0	408944640	61	5352
2026-01-17 10:53:47.66	219.40	30.59	-45.5	-48.5	16.2	0.00e+00	0	43	0	409993216	61	5427
2026-01-17 10:53:48.80	219.69	30.74	-45.4	-48.4	16.2	0.00e+00	0	43	0	412090368	61	5400
2026-01-17 10:53:49.65	219.92	30.85	-45.3	-48.2	16.4	0.00e+00	0	43	0	414187520	61	5278
2026-01-17 10:53:50.79	220.22	31.00	-45.4	-48.3	16.4	0.00e+00	0	43	0	416284672	61	5320
2026-01-17 10:53:51.64	220.45	31.11	-45.3	-48.2	16.4	0.00e+00	0	43	0	417333248	61	5257
2026-01-17 10:53:52.78	220.75	31.26	-45.3	-48.3	16.4	0.00e+00	0	43	0	419430400	61	5281
2026-01-17 10:53:53.63	220.98	31.38	-45.4	-48.3	16.4	0.00e+00	0	43	0	421527552	61	5297
2026-01-17 10:53:54.89	221.33	31.54	-45.4	-48.3	16.3	0.00e+00	0	44	0	423624704	61	5312
2026-01-17 10:53:55.70	221.55	31.65	-45.5	-48.5	16.2	0.00e+00	0	44	0	425721856	61	5458
2026-01-17 10:53:56.83	221.87	31.80	-45.7	-48.7	16.0	0.00e+00	0	43	0	427819008	62	5252
2026-01-17 10:53:57.69	222.11	31.91	-45.7	-48.8	15.9	0.00e+00	0	43	0	428867584	62	5317
2026-01-17 10:53:59.00	222.48	32.08	-45.8	-48.8	15.9	0.00e+00	0	43	0	432013312	62	5340
2026-01-17 10:53:59.71	222.68	32.17	-45.7	-48.8	15.9	0.00e+00	0	43	0	433061888	62	5322
2026-01-17 10:54:00.99	223.05	32.34	-45.7	-48.7	16.0	0.00e+00	0	43	0	435159040	62	5275
2026-01-17 10:54:01.70	223.25	32.43	-45.9	-49.0	15.7	0.00e+00	0	43	0	436207616	62	5452
2026-01-17 10:54:03.25	223.71	32.63	-46.0	-49.2	15.5	0.00e+00	0	43	0	439353344	62	5565
2026-01-17 10:54:03.96	223.91	32.73	-46.1	-49.4	15.3	0.00e+00	0	43	0	440401920	62	5715
2026-01-17 10:54:05.25	224.30	32.89	-46.1	-49.5	15.2	0.00e+00	0	43	0	443547648	63	5418
2026-01-17 10:54:05.97	224.51	32.98	-46.2	-49.6	15.2	0.00e+00	0	43	0	444596224	63	5465
2026-01-17 10:54:07.24	224.90	33.15	-46.1	-49.5	15.2	0.00e+00	0	43	0	446693376	63	5463
2026-01-17 10:54:07.97	225.12	33.24	-46.1	-49.5	15.2	0.00e+00	0	43	0	448790528	63	5420
2026-01-17 10:54:09.25	225.51	33.41	-46.0	-49.4	15.3	0.00e+00	0	43	0	450887680	63	5371
2026-01-17 10:54:09.96	225.73	33.50	-46.2	-49.6	15.2	7.00e-07	0	43	0	451936256	63	5502
2026-01-17 10:54:11.24	226.13	33.66	-46.3	-49.7	15.1	0.00e+00	0	43	0	455081984	63	5531
2026-01-17 10:54:11.95	226.35	33.75	-46.3	-49.8	15.0	0.00e+00	0	44	0	456130560	63	5607
2026-01-17 10:54:13.23	226.75	33.91	-46.4	-49.9	14.8	0.00e+00	0	43	0	458227712	63	5689
2026-01-17 10:54:13.96	226.99	34.00	-46.4	-49.9	14.8	0.00e+00	0	43	0	459276288	63	5716
2026-01-17 10:54:15.24	227.40	34.16	-46.5	-50.0	14.8	0.00e+00	0	43	0	462422016	63	5743
2026-01-17 10:54:15.95	227.63	34.25	-46.7	-50.3	14.5	7.00e-07	0	43	0	463470592	63	5924
2026-01-17 10:54:17.23	228.04	34.41	-46.8	-50.5	14.1	1.50e-06	0	43	0	465567744	64	5777
2026-01-17 10:54:17.94	228.28	34.50	-46.9	-50.8	13.9	2.20e-06	0	43	0	467664896	64	5977
2026-01-17 10:54:19.22	228.70	34.66	-47.0	-51.0	13.6	6.80e-06	0	43	0	469762048	64	6121
2026-01-17 10:54:19.95	228.94	34.75	-46.7	-50.5	14.1	6.10e-06	0	43	0	470810624	64	5781
2026-01-17 10:54:21.23	229.37	34.91	-46.6	-50.3	14.4	1.50e-06	0	43	0	472907776	64	5624
2026-01-17 10:54:21.94	229.61	34.99	-46.5	-50.1	14.6	7.00e-07	0	43	0	475004928	64	5501
2026-01-17 10:54:23.22	230.05	35.15	-46.4	-49.9	14.7	7.00e-07	0	43	0	477102080	64	5389
2026-01-17 10:54:24.10	230.35	35.25	-46.5	-50.0	14.6	0.00e+00	0	43	0	479199232	64	5437
2026-01-17 10:54:25.24	230.74	35.39	-46.6	-50.2	14.5	0.00e+00	0	43	0	481296384	64	5555
2026-01-17 10:54:26.28	231.10	35.51	-46.7	-50.4	14.3	1.50e-06	0	43	0	482344960	64	5666
2026-01-17 10:54:27.45	231.51	35.65	-46.8	-50.6	14.1	7.00e-07	0	44	0	485490688	64	5791
2026-01-17 10:54:28.34	231.83	35.76	-46.8	-50.5	14.2	1.50e-06	0	43	0	486539264	64	5732
2026-01-17 10:54:29.47	232.23	35.89	-46.8	-50.5	14.2	4.50e-06	0	43	0	488636416	64	5728
2026-01-17 10:54:30.33	232.54	35.99	-46.6	-50.1	14.6	7.00e-07	0	43	0	490733568	64	5511
2026-01-17 10:54:31.46	232.95	36.12	-46.6	-50.1	14.6	7.00e-07	0	44	0	492830720	64	5527
2026-01-17 10:54:32.31	233.26	36.21	-46.4	-50.0	14.7	0.00e+00	0	43	0	493879296	64	5427
2026-01-17 10:54:33.45	233.67	36.34	-46.2	-49.7	15.0	0.00e+00	0	43	0	495976448	64	5229
2026-01-17 10:54:34.30	233.99	36.44	-46.1	-49.4	15.2	0.00e+00	0	43	0	498073600	64	5085
2026-01-17 10:54:35.44	234.41	36.57	-46.2	-49.6	15.1	0.00e+00	0	43	0	500170752	64	5211
2026-01-17 10:54:36.29	234.73	36.66	-46.2	-49.7	15.0	0.00e+00	0	43	0	501219328	64	5221
2026-01-17 10:54:37.43	235.16	36.79	-46.4	-49.9	14.8	0.00e+00	0	43	0	503316480	64	5381
2026-01-17 10:54:38.28	235.48	36.88	-46.5	-50.0	14.7	0.00e+00	0	43	0	505413632	64	5450
2026-01-17 10:54:39.42	235.91	37.00	-46.8	-50.4	14.3	3.00e-06	0	43	0	507510784	64	5691
2026-01-17 10:54:40.27	236.24	37.09	-46.7	-50.2	14.4	0.00e+00	0	43	0	508559360	64	5571
2026-01-17 10:54:41.41	236.68	37.21	-46.3	-49.7	15.0	7.00e-07	0	43	0	510656512	64	5241
2026-01-17 10:54:42.26	237.01	37.30	-46.0	-49.1	15.5	7.00e-07	0	43	0	512753664	63	5174
2026-01-17 10:54:43.40	237.45	37.42	-45.8	-48.9	15.8	0.00e+00	0	43	0	514850816	63	5060
2026-01-17 10:54:44.25	237.79	37.50	-45.6	-48.6	16.1	0.00e+00	0	43	0	516947968	63	4921
2026-01-17 10:54:45.39	238.24	37.62	-45.4	-48.4	16.3	0.00e+00	0	43	0	519045120	62	5049
2026-01-17 10:54:46.24	238.58	37.70	-45.4	-48.4	16.4	0.00e+00	0	43	0	520093696	62	5055
2026-01-17 10:54:47.38	239.03	37.82	-45.7	-48.7	16.0	0.00e+00	0	43	0	522190848	62	5259
2026-01-17 10:54:48.23	239.38	37.90	-45.8	-48.8	15.9	0.00e+00	0	43	0	524288000	62	5330
2026-01-17 10:54:49.37	239.84	38.01	-45.8	-48.8	15.9	0.00e+00	0	43	0	526385152	62	5330
2026-01-17 10:54:50.22	240.18	38.09	-45.6	-48.6	16.2	0.00e+00	0	44	0	527433728	62	5199
2026-01-17 10:54:51.36	240.65	38.19	-45.4	-48.3	16.4	0.00e+00	0	43	0	529530880	62	4992
2026-01-17 10:54:52.22	241.00	38.27	-45.3	-48.2	16.5	0.00e+00	0	43	0	531628032	62	4963
2026-01-17 10:54:53.35	241.47	38.37	-45.5	-48.4	16.3	0.00e+00	0	44	0	533725184	62	5095
2026-01-17 10:54:54.21	241.83	38.45	-45.7	-48.7	16.0	0.00e+00	0	44	0	534773760	62	5273
2026-01-17 10:54:55.34	242.30	38.55	-45.9	-49.1	15.7	0.00e+00	0	44	0	536870912	62	5494
2026-01-17 10:54:56.19	242.66	38.62	-45.9	-49.0	15.7	0.00e+00	0	43	0	538968064	62	5443
2026-01-17 10:54:57.36	243.16	38.72	-45.7	-48.9	15.8	0.00e+00	0	43	0	541065216	62	5359
2026-01-17 10:54:58.22	243.52	38.79	-45.8	-49.0	15.8	0.00e+00	0	43	0	542113792	62	5446
2026-01-17 10:54:59.36	244.01	38.89	-46.2	-49.5	15.3	0.00e+00	0	44	0	545259520	63	5460
2026-01-17 10:55:00.21	244.37	38.95	-46.2	-49.4	15.3	0.00e+00	0	43	0	546308096	63	5397
2026-01-17 10:55:01.35	244.86	39.04	-46.0	-49.2	15.6	0.00e+00	0	44	0	548405248	63	5235
2026-01-17 10:55:02.20	245.23	39.11	-45.9	-49.0	15.8	0.00e+00	0	43	0	550502400	63	5136
2026-01-17 10:55:03.57	245.83	39.21	-45.7	-48.8	16.0	0.00e+00	0	43	0	552599552	63	5001
2026-01-17 10:55:04.28	246.14	39.26	-45.8	-48.9	15.9	0.00e+00	0	43	0	553648128	63	5044
2026-01-17 10:55:05.79	246.80	39.37	-45.9	-49.0	15.8	0.00e+00	0	43	0	556793856	63	5134
2026-01-17 10:55:06.50	247.12	39.42	-45.9	-49.0	15.8	0.00e+00	0	43	0	557842432	63	5135
2026-01-17 10:55:07.78	247.69	39.51	-45.9	-49.0	15.7	0.00e+00	0	43	0	560988160	63	5149
2026-01-17 10:55:08.49	248.00	39.55	-45.8	-48.9	15.9	0.00e+00	0	44	0	562036736	63	5065
2026-01-17 10:55:09.77	248.57	39.64	-45.8	-48.9	15.8	0.00e+00	0	43	0	564133888	63	5088
2026-01-17 10:55:10.48	248.89	39.68	-45.6	-48.6	16.1	0.00e+00	0	43	0	565182464	63	4899
2026-01-17 10:55:11.76	249.47	39.76	-45.3	-48.3	16.5	0.00e+00	0	43	0	568328192	62	4988
2026-01-17 10:55:12.49	249.80	39.80	-45.0	-47.8	16.9	0.00e+00	0	43	0	569376768	62	4759
2026-01-17 10:55:13.76	250.38	39.87	-45.0	-47.8	17.0	0.00e+00	0	43	0	571473920	61	5002
2026-01-17 10:55:14.51	250.72	39.91	-45.0	-47.8	16.9	0.00e+00	0	43	0	573571072	61	4995
2026-01-17 10:55:15.78	251.30	39.98	-45.6	-48.7	16.1	0.00e+00	0	43	0	575668224	61	5530
2026-01-17 10:55:16.51	251.63	40.02	-46.0	-49.2	15.7	0.00e+00	0	43	0	576716800	62	5552
2026-01-17 10:55:17.79	252.22	40.08	-46.2	-49.4	15.3	0.00e+00	0	43	0	579862528	63	5391
2026-01-17 10:55:18.59	252.59	40.12	-45.9	-49.1	15.7	0.00e+00	0	44	0	580911104	63	5174
2026-01-17 10:55:20.01	253.25	40.18	-45.2	-48.0	16.7	0.00e+00	0	43	0	583008256	62	4860
2026-01-17 10:55:20.72	253.57	40.21	-44.9	-47.7	17.0	0.00e+00	0	43	0	585105408	61	4936
2026-01-17 10:55:22.00	254.17	40.26	-44.7	-47.4	17.3	0.00e+00	0	44	0	587202560	61	4765
2026-01-17 10:55:22.71	254.50	40.29	-44.8	-47.4	17.3	0.00e+00	0	43	0	588251136	61	4810
2026-01-17 10:55:23.99	255.10	40.34	-45.0	-47.8	16.9	0.00e+00	0	43	0	591396864	61	5017
2026-01-17 10:55:24.71	255.43	40.36	-45.5	-48.4	16.3	0.00e+00	0	44	0	592445440	61	5392
2026-01-17 10:55:25.98	256.03	40.40	-46.1	-49.3	15.5	0.00e+00	0	43	0	594542592	62	5631
2026-01-17 10:55:26.70	256.37	40.42	-46.2	-49.5	15.3	0.00e+00	0	44	0	595591168	63	5439
2026-01-17 10:55:27.98	256.97	40.46	-46.0	-49.2	15.6	0.00e+00	0	44	0	598736896	63	5234
2026-01-17 10:55:28.69	257.31	40.48	-45.9	-49.0	15.7	0.00e+00	0	43	0	599785472	63	5128
2026-01-17 10:55:29.97	257.91	40.51	-46.0	-49.2	15.6	0.00e+00	0	43	0	601882624	63	5228
2026-01-17 10:55:30.68	258.25	40.52	-46.0	-49.3	15.5	0.00e+00	0	43	0	603979776	63	5283
2026-01-17 10:55:31.96	258.85	40.55	-46.6	-50.2	14.6	0.00e+00	0	43	0	606076928	63	5863
2026-01-17 10:55:32.70	259.20	40.56	-47.1	-51.0	13.7	7.00e-07	0	43	0	607125504	64	6109
2026-01-17 10:55:34.06	259.85	40.58	-47.5	-51.8	12.8	2.59e-05	0	44	0	610271232	65	6321
2026-01-17 10:55:34.77	260.18	40.59	-47.6	-52.1	12.6	7.24e-05	0	43	0	611319808	65	6513
2026-01-17 10:55:36.05	260.79	40.61	-47.5	-51.9	12.7	8.31e-05	0	43	0	613416960	66	6043
2026-01-17 10:55:36.76	261.13	40.61	-47.4	-51.7	13.0	5.64e-05	0	43	0	614465536	66	5891
2026-01-17 10:55:38.17	261.80	40.62	-47.3	-51.4	13.2	2.28e-05	0	43	0	617611264	66	5700
2026-01-17 10:55:38.88	262.14	40.62	-46.9	-50.6	13.9	3.80e-06	0	43	0	618659840	65	5492
2026-01-17 10:55:40.22	262.77	40.63	-46.6	-50.2	14.5	0.00e+00	0	43	0	621805568	65	5272
2026-01-17 10:55:40.93	263.11	40.63	-46.2	-49.7	15.0	7.00e-07	0	43	0	622854144	64	5237
2026-01-17 10:55:42.21	263.72	40.62	-46.3	-49.8	14.9	0.00e+00	0	43	0	624951296	64	5328
2026-01-17 10:55:42.93	264.06	40.62	-46.4	-50.0	14.8	0.00e+00	0	43	0	627048448	64	5405
2026-01-17 10:55:44.21	264.67	40.61	-46.4	-49.8	14.9	0.00e+00	0	44	0	629145600	64	5289
2026-01-17 10:55:44.92	265.01	40.61	-46.2	-49.5	15.1	0.00e+00	0	43	0	630194176	64	5151
2026-01-17 10:55:46.20	265.62	40.59	-45.9	-49.1	15.7	0.00e+00	0	44	0	632291328	63	5175
2026-01-17 10:55:46.91	265.95	40.58	-45.9	-49.0	15.8	0.00e+00	0	43	0	634388480	63	5140
2026-01-17 10:55:48.19	266.56	40.56	-45.9	-49.0	15.7	0.00e+00	0	43	0	636485632	63	5153
2026-01-17 10:55:48.90	266.90	40.55	-45.9	-49.1	15.7	0.00e+00	0	43	0	637534208	63	5185
2026-01-17 10:55:50.18	267.50	40.52	-46.0	-49.2	15.5	0.00e+00	0	43	0	639631360	63	5264
2026-01-17 10:55:50.98	267.88	40.51	-46.1	-49.3	15.5	0.00e+00	0	43	0	641728512	63	5300
2026-01-17 10:55:52.12	268.42	40.48	-45.8	-49.0	15.8	0.00e+00	0	43	0	643825664	63	5117
2026-01-17 10:55:52.98	268.82	40.46	-45.7	-48.8	16.0	0.00e+00	0	43	0	644874240	63	5006
2026-01-17 10:55:54.11	269.35	40.42	-45.6	-48.6	16.1	0.00e+00	0	43	0	646971392	63	4912
2026-01-17 10:55:55.23	269.88	40.39	-45.6	-48.6	16.2	0.00e+00	0	43	0	650117120	63	4897
2026-01-17 10:55:56.26	270.36	40.36	-45.5	-48.5	16.3	0.00e+00	0	43	0	651165696	62	5121
2026-01-17 10:55:57.25	270.82	40.32	-45.8	-48.9	15.8	0.00e+00	0	43	0	653262848	62	5375
2026-01-17 10:55:58.25	271.29	40.29	-45.9	-49.1	15.7	0.00e+00	0	44	0	655360000	62	5511
2026-01-17 10:55:59.24	271.75	40.25	-45.6	-48.6	16.2	0.00e+00	0	43	0	657457152	62	5196
2026-01-17 10:56:00.24	272.21	40.21	-45.6	-48.5	16.2	0.00e+00	0	43	0	658505728	62	5154
2026-01-17 10:56:01.53	272.81	40.15	-46.1	-49.4	15.5	0.00e+00	0	43	0	661651456	62	5665
2026-01-17 10:56:02.28	273.16	40.12	-46.3	-49.7	15.1	0.00e+00	0	43	0	662700032	63	5543
2026-01-17 10:56:03.56	273.75	40.06	-46.4	-49.8	14.9	0.00e+00	0	43	0	664797184	63	5629
2026-01-17 10:56:04.27	274.07	40.02	-46.3	-49.6	15.2	0.00e+00	0	43	0	666894336	63	5491
2026-01-17 10:56:05.55	274.66	39.95	-46.2	-49.5	15.3	0.00e+00	0	43	0	668991488	63	5431
2026-01-17 10:56:06.28	274.99	39.92	-46.4	-49.9	15.0	0.00e+00	0	43	0	670040064	63	5657
2026-01-17 10:56:07.56	275.57	39.85	-46.6	-50.1	14.7	0.00e+00	0	43	0	673185792	63	5854
2026-01-17 10:56:08.28	275.90	39.80	-46.7	-50.4	14.3	7.00e-07	0	43	0	674234368	64	5704
2026-01-17 10:56:09.56	276.47	39.73	-46.9	-50.6	14.0	2.20e-06	0	43	0	676331520	64	5841
2026-01-17 10:56:10.29	276.80	39.68	-46.8	-50.5	14.2	3.00e-06	0	43	0	677380096	64	5736
2026-01-17 10:56:11.61	277.39	39.60	-46.4	-50.1	14.6	0.00e+00	0	43	0	680525824	64	5479
2026-01-17 10:56:12.32	277.71	39.56	-46.3	-49.8	14.9	0.00e+00	0	43	0	681574400	64	5318
2026-01-17 10:56:13.60	278.28	39.47	-46.5	-50.2	14.5	0.00e+00	0	43	0	683671552	64	5544
2026-01-17 10:56:14.69	278.76	39.40	-46.6	-50.2	14.5	1.50e-06	0	43	0	685768704	64	5562
2026-01-17 10:56:15.84	279.27	39.32	-46.1	-49.5	15.2	0.00e+00	0	44	0	687865856	64	5103
2026-01-17 10:56:16.69	279.64	39.26	-46.0	-49.2	15.6	0.00e+00	0	43	0	689963008	63	5260
2026-01-17 10:56:17.83	280.13	39.17	-45.6	-48.7	16.1	0.00e+00	0	43	0	692060160	63	4928
2026-01-17 10:56:18.68	280.50	39.11	-46.1	-49.4	15.4	0.00e+00	0	43	0	693108736	63	5355
2026-01-17 10:56:19.82	281.00	39.02	-46.6	-50.2	14.5	1.50e-06	0	43	0	695205888	64	5544
2026-01-17 10:56:20.67	281.36	38.95	-46.5	-49.9	14.8	0.00e+00	0	43	0	697303040	64	5373
2026-01-17 10:56:21.81	281.85	38.86	-45.9	-49.0	15.7	0.00e+00	0	43	0	699400192	63	5106
2026-01-17 10:56:22.66	282.21	38.79	-45.3	-48.2	16.6	0.00e+00	0	43	0	701497344	62	4942
2026-01-17 10:56:23.80	282.69	38.70	-45.1	-47.9	16.8	0.00e+00	0	44	0	703594496	62	4795
2026-01-17 10:56:24.65	283.05	38.63	-45.2	-48.1	16.7	0.00e+00	0	43	0	704643072	62	4897
2026-01-17 10:56:25.79	283.53	38.53	-45.6	-48.7	16.1	0.00e+00	0	43	0	706740224	62	5239
2026-01-17 10:56:26.64	283.88	38.45	-45.7	-48.8	16.0	0.00e+00	0	43	0	708837376	62	5310
2026-01-17 10:56:27.78	284.36	38.35	-45.1	-47.9	16.8	0.00e+00	0	43	0	710934528	62	4782
2026-01-17 10:56:28.71	284.74	38.27	-44.7	-47.3	17.4	0.00e+00	0	43	0	711983104	61	4742
2026-01-17 10:56:29.89	285.23	38.16	-44.4	-47.0	17.7	0.00e+00	0	43	0	714080256	60	4821
2026-01-17 10:56:30.74	285.57	38.08	-44.6	-47.2	17.5	0.00e+00	0	43	0	716177408	60	4952
2026-01-17 10:56:31.88	286.03	37.97	-44.6	-47.2	17.5	0.00e+00	0	43	0	718274560	60	4955
2026-01-17 10:56:32.81	286.41	37.88	-44.1	-46.6	18.1	0.00e+00	0	44	0	720371712	60	4606
2026-01-17 10:56:33.98	286.88	37.77	-43.4	-45.7	18.8	0.00e+00	0	44	0	722468864	58	4694
2026-01-17 10:56:34.84	287.22	37.69	-43.4	-45.8	18.8	0.00e+00	0	43	0	723517440	58	4723
2026-01-17 10:56:35.98	287.67	37.57	-43.5	-45.8	18.7	0.00e+00	0	43	0	725614592	58	4754
2026-01-17 10:56:36.83	288.01	37.49	-43.7	-46.1	18.5	0.00e+00	0	44	0	727711744	58	4878
2026-01-17 10:56:37.97	288.45	37.37	-44.3	-46.9	17.7	0.00e+00	0	43	0	729808896	59	5062
2026-01-17 10:56:38.82	288.78	37.28	-44.4	-46.9	17.7	0.00e+00	0	44	0	730857472	59	5099
2026-01-17 10:56:39.96	289.22	37.16	-43.9	-46.3	18.3	0.00e+00	0	43	0	732954624	59	4753
2026-01-17 10:56:40.81	289.55	37.08	-43.5	-45.8	18.7	0.00e+00	0	43	0	735051776	59	4472
2026-01-17 10:56:41.95	289.98	36.95	-43.5	-45.8	18.8	0.00e+00	0	43	0	737148928	58	4732
2026-01-17 10:56:42.80	290.30	36.86	-43.6	-46.0	18.6	0.00e+00	0	44	0	739246080	58	4820
2026-01-17 10:56:43.94	290.73	36.74	-43.4	-45.7	18.9	0.00e+00	0	44	0	741343232	58	4662
2026-01-17 10:56:44.79	291.05	36.65	-42.9	-45.2	19.4	0.00e+00	0	44	0	742391808	57	4658
2026-01-17 10:56:46.03	291.51	36.51	-42.5	-44.7	19.8	0.00e+00	0	43	0	744488960	57	4409
2026-01-17 10:56:46.88	291.83	36.41	-42.5	-44.7	19.7	0.00e+00	0	43	0	746586112	56	4697
2026-01-17 10:56:48.08	292.26	36.28	-42.9	-45.2	19.3	0.00e+00	0	43	0	748683264	56	4957
2026-01-17 10:56:48.93	292.57	36.18	-43.5	-45.9	18.6	0.00e+00	0	43	0	749731840	57	5082
2026-01-17 10:56:50.06	292.98	36.06	-43.7	-46.2	18.4	0.00e+00	0	44	0	752877568	58	4930
2026-01-17 10:56:50.92	293.29	35.96	-43.7	-46.2	18.4	0.00e+00	0	43	0	753926144	58	4937
2026-01-17 10:56:52.05	293.69	35.83	-43.2	-45.5	19.1	0.00e+00	0	43	0	756023296	58	4562
2026-01-17 10:56:52.91	294.00	35.73	-43.1	-45.4	19.1	0.00e+00	0	44	0	758120448	58	4534
2026-01-17 10:56:54.04	294.39	35.59	-43.2	-45.5	19.0	0.00e+00	0	43	0	760217600	58	4582
2026-01-17 10:56:54.89	294.69	35.49	-43.7	-46.1	18.5	0.00e+00	0	43	0	761266176	58	4907
2026-01-17 10:56:56.03	295.08	35.36	-44.3	-47.0	17.6	0.00e+00	0	43	0	763363328	59	5127
2026-01-17 10:56:56.89	295.38	35.26	-44.6	-47.4	17.3	0.00e+00	0	44	0	765460480	59	5353
2026-01-17 10:56:58.02	295.76	35.12	-44.5	-47.2	17.5	0.00e+00	0	43	0	767557632	59	5242
2026-01-17 10:56:58.88	296.06	35.02	-44.0	-46.5	18.1	0.00e+00	0	43	0	768606208	59	4860
2026-01-17 10:57:00.01	296.44	34.88	-43.8	-46.2	18.3	0.00e+00	0	43	0	770703360	59	4701
2026-01-17 10:57:00.86	296.72	34.78	-44.0	-46.5	18.1	0.00e+00	0	43	0	772800512	59	4849
2026-01-17 10:57:02.00	297.10	34.64	-44.6	-47.3	17.3	0.00e+00	0	43	0	774897664	59	5295
2026-01-17 10:57:02.85	297.38	34.53	-44.6	-47.2	17.4	0.00e+00	0	43	0	775946240	60	4978
2026-01-17 10:57:03.99	297.75	34.39	-44.2	-46.8	17.9	0.00e+00	0	43	0	778043392	60	4738
2026-01-17 10:57:04.84	298.02	34.29	-44.0	-46.5	18.1	0.00e+00	0	43	0	780140544	60	4557
2026-01-17 10:57:06.12	298.44	34.13	-44.0	-46.5	18.1	0.00e+00	0	43	0	782237696	59	4857
2026-01-17 10:57:06.83	298.66	34.04	-44.5	-47.1	17.5	0.00e+00	0	44	0	784334848	59	5208
2026-01-17 10:57:08.11	299.07	33.88	-45.1	-48.0	16.7	0.00e+00	0	43	0	786432000	60	5450
2026-01-17 10:57:08.84	299.30	33.79	-45.4	-48.4	16.4	0.00e+00	0	43	0	787480576	61	5379
2026-01-17 10:57:10.12	299.70	33.62	-45.2	-48.2	16.6	0.00e+00	0	43	0	789577728	61	5226
2026-01-17 10:57:10.85	299.92	33.53	-44.8	-47.6	17.1	0.00e+00	0	44	0	791674880	61	4915
2026-01-17 10:57:12.12	300.31	33.37	-44.4	-47.1	17.5	0.00e+00	0	43	0	793772032	60	4914
2026-01-17 10:57:12.93	300.56	33.27	-44.6	-47.3	17.4	0.00e+00	0	44	0	794820608	60	5023
2026-01-17 10:57:14.07	300.90	33.12	-45.2	-48.2	16.5	0.00e+00	0	44	0	796917760	61	5256
2026-01-17 10:57:14.92	301.16	33.01	-45.7	-48.9	15.8	0.00e+00	0	44	0	799014912	61	5709
2026-01-17 10:57:16.06	301.50	32.87	-45.9	-49.4	15.4	0.00e+00	0	44	0	801112064	62	5671
2026-01-17 10:57:16.91	301.75	32.76	-45.6	-48.9	15.9	0.00e+00	0	43	0	803209216	62	5389
2026-01-17 10:57:18.05	302.08	32.61	-45.0	-47.9	16.8	0.00e+00	0	44	0	805306368	62	4810
2026-01-17 10:57:18.90	302.33	32.50	-44.8	-47.7	17.0	0.00e+00	0	43	0	806354944	61	4974
2026-01-17 10:57:20.04	302.66	32.35	-45.0	-47.9	16.8	0.00e+00	0	43	0	808452096	61	5093
2026-01-17 10:57:20.89	302.90	32.24	-45.4	-48.5	16.2	0.00e+00	0	43	0	810549248	61	5432
2026-01-17 10:57:22.08	303.24	32.09	-46.3	-49.7	15.1	0.00e+00	0	43	0	812646400	63	5571
2026-01-17 10:57:22.93	303.48	31.98	-46.3	-49.8	14.9	1.50e-06	0	44	0	813694976	63	5638
2026-01-17 10:57:24.13	303.82	31.82	-45.5	-48.6	16.1	0.00e+00	0	44	0	815792128	63	4896
2026-01-17 10:57:24.98	304.05	31.71	-44.8	-47.5	17.2	0.00e+00	0	43	0	817889280	61	4841
2026-01-17 10:57:26.12	304.36	31.56	-44.5	-47.1	17.6	0.00e+00	0	44	0	819986432	60	4901
2026-01-17 10:57:26.97	304.60	31.45	-44.5	-47.1	17.6	0.00e+00	0	44	0	821035008	60	4892
2026-01-17 10:57:28.11	304.90	31.30	-45.2	-48.1	16.7	0.00e+00	0	43	0	824180736	60	5467
2026-01-17 10:57:28.96	305.13	31.19	-46.0	-49.3	15.5	0.00e+00	0	43	0	825229312	62	5630
2026-01-17 10:57:30.10	305.44	31.04	-46.6	-50.3	14.4	7.00e-07	0	43	0	827326464	64	5606
2026-01-17 10:57:30.95	305.66	30.93	-46.5	-50.2	14.4	7.00e-07	0	43	0	829423616	64	5567
2026-01-17 10:57:32.09	305.96	30.78	-46.0	-49.4	15.4	7.00e-07	0	44	0	831520768	63	5352
2026-01-17 10:57:33.13	306.23	30.65	-45.7	-48.8	15.9	0.00e+00	0	43	0	832569344	63	5039
2026-01-17 10:57:34.30	306.53	30.49	-45.5	-48.6	16.1	0.00e+00	0	43	0	835715072	62	5187
2026-01-17 10:57:35.15	306.75	30.38	-45.3	-48.2	16.5	0.00e+00	0	43	0	836763648	62	4976
2026-01-17 10:57:36.49	307.09	30.21	-46.0	-49.4	15.4	0.00e+00	0	43	0	839909376	62	5675
2026-01-17 10:57:37.20	307.27	30.11	-46.4	-49.9	14.8	0.00e+00	0	43	0	840957952	63	5718
2026-01-17 10:57:38.48	307.59	29.95	-46.3	-49.8	14.9	0.00e+00	0	44	0	843055104	63	5631
2026-01-17 10:57:39.19	307.76	29.85	-45.7	-48.9	15.9	0.00e+00	0	43	0	844103680	63	5042
2026-01-17 10:57:40.47	308.08	29.69	-44.4	-47.1	17.5	0.00e+00	0	43	0	847249408	60	4902
2026-01-17 10:57:41.20	308.25	29.59	-43.9	-46.4	18.1	0.00e+00	0	44	0	848297984	59	4789
2026-01-17 10:57:42.48	308.56	29.42	-43.8	-46.2	18.3	0.00e+00	0	44	0	850395136	59	4705
2026-01-17 10:57:43.27	308.75	29.32	-44.0	-46.6	18.0	0.00e+00	0	43	0	852492288	59	4875
2026-01-17 10:57:44.77	309.11	29.12	-45.0	-47.9	16.8	0.00e+00	0	44	0	854589440	60	5365
2026-01-17 10:57:45.48	309.28	29.03	-45.3	-48.3	16.4	0.00e+00	0	44	0	856686592	61	5318
2026-01-17 10:57:46.76	309.57	28.86	-45.1	-47.9	16.8	0.00e+00	0	43	0	858783744	61	5074
2026-01-17 10:57:47.48	309.74	28.77	-44.7	-47.4	17.3	0.00e+00	0	44	0	859832320	61	4775
2026-01-17 10:57:48.76	310.04	28.60	-44.1	-46.7	18.0	0.00e+00	0	43	0	861929472	60	4659
2026-01-17 10:57:49.47	310.20	28.51	-43.9	-46.3	18.1	0.00e+00	0	43	0	864026624	59	4750
2026-01-17 10:57:50.75	310.49	28.34	-43.6	-46.0	18.5	0.00e+00	0	44	0	866123776	59	4581
2026-01-17 10:57:51.46	310.65	28.25	-43.7	-46.2	18.3	0.00e+00	0	43	0	867172352	59	4663
2026-01-17 10:57:52.74	310.93	28.09	-44.3	-47.0	17.6	0.00e+00	0	44	0	870318080	59	5103
2026-01-17 10:57:53.58	311.12	27.98	-44.6	-47.3	17.3	0.00e+00	0	43	0	871366656	59	5319
2026-01-17 10:57:54.71	311.36	27.83	-44.6	-47.3	17.3	0.00e+00	0	44	0	873463808	59	5293
2026-01-17 10:57:55.57	311.55	27.72	-44.4	-47.0	17.5	0.00e+00	0	44	0	875560960	59	5147
2026-01-17 10:57:56.70	311.79	27.58	-43.8	-46.3	18.2	0.00e+00	0	43	0	877658112	59	4722
2026-01-17 10:57:57.56	311.98	27.46	-43.5	-45.9	18.6	0.00e+00	0	44	0	878706688	59	4537
2026-01-17 10:57:58.69	312.22	27.32	-43.5	-45.9	18.5	0.00e+00	0	43	0	880803840	58	4797
2026-01-17 10:57:59.55	312.40	27.21	-43.3	-45.7	18.8	0.00e+00	0	43	0	882900992	58	4684
2026-01-17 10:58:00.68	312.63	27.06	-43.1	-45.5	19.0	0.00e+00	0	43	0	884998144	58	4582
2026-01-17 10:58:01.54	312.81	26.95	-43.4	-45.8	18.7	0.00e+00	0	43	0	886046720	58	4751
2026-01-17 10:58:02.68	313.05	26.81	-43.6	-46.1	18.4	0.00e+00	0	44	0	888143872	58	4918
2026-01-17 10:58:03.53	313.22	26.70	-43.4	-45.9	18.6	0.00e+00	0	43	0	890241024	58	4802
2026-01-17 10:58:04.67	313.45	26.56	-43.1	-45.5	19.0	0.00e+00	0	44	0	892338176	58	4584
2026-01-17 10:58:05.52	313.62	26.45	-42.8	-45.2	19.2	0.00e+00	0	43	0	893386752	57	4660
2026-01-17 10:58:06.66	313.85	26.30	-42.5	-44.8	19.6	0.00e+00	0	44	0	895483904	56	4718
2026-01-17 10:58:07.51	314.02	26.20	-42.0	-44.3	20.0	0.00e+00	0	43	0	897581056	56	4453
2026-01-17 10:58:08.64	314.24	26.05	-41.6	-43.7	20.4	0.00e+00	0	44	0	899678208	55	4432
2026-01-17 10:58:09.50	314.41	25.94	-41.7	-43.9	20.3	0.00e+00	0	43	0	901775360	55	4524
2026-01-17 10:58:10.63	314.63	25.80	-42.1	-44.3	19.9	0.00e+00	0	43	0	903872512	55	4715
2026-01-17 10:58:11.71	314.83	25.67	-42.6	-44.9	19.3	0.00e+00	0	44	0	905969664	55	5097
2026-01-17 10:58:12.73	315.03	25.54	-43.3	-45.7	18.8	0.00e+00	0	43	0	907018240	57	4941
2026-01-17 10:58:13.73	315.21	25.41	-43.4	-45.8	18.6	0.00e+00	0	43	0	909115392	57	5030
2026-01-17 10:58:14.72	315.40	25.29	-43.3	-45.7	18.8	0.00e+00	0	43	0	911212544	57	4927
2026-01-17 10:58:15.96	315.63	25.14	-42.9	-45.1	19.3	0.00e+00	0	44	0	913309696	57	4648
2026-01-17 10:58:16.84	315.79	25.03	-42.6	-44.9	19.5	0.00e+00	0	43	0	915406848	57	4510
2026-01-17 10:58:18.15	316.03	24.87	-42.4	-44.6	19.8	0.00e+00	0	44	0	917504000	56	4605
2026-01-17 10:58:18.86	316.16	24.78	-42.3	-44.4	19.9	0.00e+00	0	43	0	918552576	56	4542
2026-01-17 10:58:20.14	316.39	24.62	-42.3	-44.4	19.9	0.00e+00	0	43	0	921698304	56	4526
2026-01-17 10:58:20.87	316.52	24.53	-42.4	-44.6	19.7	0.00e+00	0	44	0	922746880	56	4650
2026-01-17 10:58:22.15	316.75	24.37	-42.7	-44.9	19.4	0.00e+00	0	43	0	924844032	56	4811
2026-01-17 10:58:22.88	316.87	24.28	-42.9	-45.2	19.2	0.00e+00	0	43	0	925892608	56	4976
2026-01-17 10:58:24.15	317.10	24.13	-43.2	-45.6	18.8	0.00e+00	0	43	0	929038336	57	4892
2026-01-17 10:58:24.87	317.22	24.04	-43.1	-45.5	19.0	0.00e+00	0	43	0	930086912	57	4825
2026-01-17 10:58:26.14	317.44	23.89	-42.7	-45.1	19.3	0.00e+00	0	44	0	932184064	57	4605
2026-01-17 10:58:27.11	317.60	23.77	-42.4	-44.7	19.7	0.00e+00	0	44	0	934281216	56	4668
2026-01-17 10:58:28.10	317.77	23.65	-42.2	-44.4	19.9	0.00e+00	0	44	0	936378368	56	4541
2026-01-17 10:58:29.10	317.94	23.53	-42.0	-44.2	20.0	0.00e+00	0	43	0	938475520	56	4435
2026-01-17 10:58:30.09	318.10	23.41	-41.8	-43.9	20.2	0.00e+00	0	43	0	939524096	55	4545
2026-01-17 10:58:31.08	318.27	23.29	-41.8	-44.0	20.2	0.00e+00	0	43	0	941621248	55	4554
2026-01-17 10:58:32.08	318.43	23.17	-42.1	-44.3	19.9	0.00e+00	0	43	0	943718400	55	4713
2026-01-17 10:58:33.07	318.59	23.06	-42.3	-44.5	19.6	0.00e+00	0	43	0	945815552	55	4863
2026-01-17 10:58:34.07	318.75	22.94	-42.5	-44.8	19.4	0.00e+00	0	44	0	946864128	55	5035
2026-01-17 10:58:35.06	318.91	22.82	-42.9	-45.2	19.2	0.00e+00	0	43	0	948961280	56	4962
2026-01-17 10:58:36.05	319.07	22.70	-42.9	-45.3	19.1	0.00e+00	0	43	0	951058432	56	5013
2026-01-17 10:58:37.05	319.23	22.59	-42.9	-45.3	19.1	0.00e+00	0	44	0	953155584	56	5027
2026-01-17 10:58:38.04	319.38	22.47	-42.8	-45.2	19.2	0.00e+00	0	44	0	955252736	56	4933
2026-01-17 10:58:39.04	319.54	22.35	-42.8	-45.2	19.2	0.00e+00	0	43	0	956301312	56	4962
2026-01-17 10:58:40.03	319.69	22.24	-42.7	-45.1	19.2	0.00e+00	0	43	0	958398464	56	4914
2026-01-17 10:58:41.03	319.85	22.12	-42.7	-45.1	19.2	0.00e+00	0	44	0	960495616	56	4925
2026-01-17 10:58:42.02	320.00	22.00	-42.8	-45.3	19.1	0.00e+00	0	44	0	962592768	56	4987
2026-01-17 10:58:43.02	320.15	21.89	-43.0	-45.4	19.0	0.00e+00	0	43	0	963641344	56	5097
2026-01-17 10:58:44.01	320.30	21.77	-43.1	-45.6	18.8	0.00e+00	0	44	0	965738496	56	5185
2026-01-17 10:58:45.01	320.45	21.66	-43.3	-45.8	18.6	0.00e+00	0	44	0	967835648	57	5006
2026-01-17 10:58:46.00	320.59	21.55	-43.3	-45.8	18.6	0.00e+00	0	44	0	969932800	57	5003
2026-01-17 10:58:47.00	320.74	21.43	-43.2	-45.7	18.7	0.00e+00	0	44	0	972029952	57	4943
2026-01-17 10:58:47.99	320.89	21.32	-42.9	-45.3	19.0	0.00e+00	0	44	0	973078528	57	4750
2026-01-17 10:58:48.99	321.03	21.20	-42.7	-45.1	19.3	0.00e+00	0	43	0	975175680	57	4604
2026-01-17 10:58:49.98	321.17	21.09	-42.6	-44.9	19.4	0.00e+00	0	43	0	977272832	57	4519
2026-01-17 10:58:50.98	321.32	20.98	-42.4	-44.7	19.6	0.00e+00	0	43	0	979369984	56	4690
2026-01-17 10:58:51.97	321.46	20.87	-42.4	-44.7	19.6	0.00e+00	0	43	0	980418560	56	4692
2026-01-17 10:58:52.97	321.60	20.76	-42.5	-44.8	19.6	0.00e+00	0	43	0	982515712	56	4710
2026-01-17 10:58:53.97	321.74	20.64	-42.7	-45.1	19.3	0.00e+00	0	43	0	984612864	56	4881
2026-01-17 10:58:54.96	321.88	20.53	-42.9	-45.3	19.1	0.00e+00	0	44	0	986710016	56	5020
2026-01-17 10:58:55.96	322.01	20.42	-43.1	-45.5	18.9	0.00e+00	0	44	0	988807168	56	5131
2026-01-17 10:58:56.95	322.15	20.31	-43.4	-45.9	18.6	0.00e+00	0	44	0	989855744	57	5043
2026-01-17 10:58:57.95	322.29	20.20	-43.5	-46.1	18.3	0.00e+00	0	44	0	991952896	57	5169
2026-01-17 10:58:58.94	322.42	20.09	-43.6	-46.1	18.3	0.00e+00	0	43	0	994050048	57	5199
2026-01-17 10:58:59.94	322.55	19.98	-43.7	-46.3	18.1	0.00e+00	0	44	0	996147200	58	5007
2026-01-17 10:59:00.93	322.69	19.87	-43.7	-46.3	18.2	0.00e+00	0	43	0	998244352	58	4993
2026-01-17 10:59:01.93	322.82	19.76	-43.7	-46.3	18.1	0.00e+00	0	44	0	999292928	58	5029
2026-01-17 10:59:02.92	322.95	19.65	-43.6	-46.1	18.3	0.00e+00	0	43	0	1001390080	58	4923
2026-01-17 10:59:03.98	323.09	19.54	-43.5	-46.1	18.4	0.00e+00	0	43	0	1003487232	58	4881
2026-01-17 10:59:04.85	323.20	19.44	-43.7	-46.3	18.1	0.00e+00	0	43	0	1005584384	58	5035
2026-01-17 10:59:05.99	323.35	19.32	-43.9	-46.5	17.9	0.00e+00	0	44	0	1007681536	58	5134
2026-01-17 10:59:06.84	323.45	19.23	-44.0	-46.7	17.7	0.00e+00	0	43	0	1008730112	58	5278
2026-01-17 10:59:07.97	323.60	19.11	-44.3	-47.2	17.3	0.00e+00	0	44	0	1010827264	59	5245
2026-01-17 10:59:08.83	323.71	19.02	-44.4	-47.4	17.1	0.00e+00	0	43	0	1012924416	59	5355
2026-01-17 10:59:09.97	323.85	18.90	-44.7	-47.7	16.8	0.00e+00	0	43	0	1015021568	59	5533
2026-01-17 10:59:10.82	323.96	18.80	-44.6	-47.7	16.9	0.00e+00	0	43	0	1016070144	60	5237
2026-01-17 10:59:11.95	324.10	18.68	-44.6	-47.7	16.9	0.00e+00	0	43	0	1018167296	60	5226
2026-01-17 10:59:12.81	324.20	18.59	-44.6	-47.6	17.0	0.00e+00	0	43	0	1020264448	60	5161
2026-01-17 10:59:13.99	324.35	18.47	-44.2	-47.0	17.5	0.00e+00	0	43	0	1022361600	60	4832
2026-01-17 10:59:14.84	324.45	18.38	-44.0	-46.7	17.8	0.00e+00	0	43	0	1023410176	60	4676
2026-01-17 10:59:16.03	324.59	18.26	-43.9	-46.5	17.9	0.00e+00	0	44	0	1025507328	59	4822
2026-01-17 10:59:16.88	324.69	18.17	-43.6	-46.1	18.3	0.00e+00	0	43	0	1027604480	59	4624
2026-01-17 10:59:18.08	324.84	18.04	-43.5	-46.0	18.4	0.00e+00	0	43	0	1029701632	58	4833
2026-01-17 10:59:18.93	324.94	17.95	-43.5	-45.9	18.4	0.00e+00	0	43	0	1031798784	58	4790
2026-01-17 10:59:20.08	325.07	17.83	-43.6	-46.1	18.3	0.00e+00	0	43	0	1033895936	58	4908
2026-01-17 10:59:20.94	325.17	17.75	-43.7	-46.2	18.2	0.00e+00	0	43	0	1034944512	58	4950
2026-01-17 10:59:22.07	325.30	17.63	-43.7	-46.3	18.1	0.00e+00	0	44	0	1037041664	58	4994
2026-01-17 10:59:22.93	325.40	17.54	-43.8	-46.4	18.0	0.00e+00	0	44	0	1039138816	58	5052
2026-01-17 10:59:24.06	325.53	17.43	-43.9	-46.6	17.8	0.00e+00	0	43	0	1041235968	58	5177
2026-01-17 10:59:24.92	325.63	17.34	-44.0	-46.8	17.5	0.00e+00	0	43	0	1042284544	58	5293
2026-01-17 10:59:26.05	325.75	17.22	-44.0	-46.9	17.5	0.00e+00	0	44	0	1044381696	58	5360
2026-01-17 10:59:26.91	325.85	17.14	-44.1	-47.0	17.4	0.00e+00	0	43	0	1046478848	58	5458
2026-01-17 10:59:28.04	325.98	17.02	-44.1	-47.1	17.3	0.00e+00	0	44	0	1048576000	58	5494
2026-01-17 10:59:28.89	326.07	16.94	-44.1	-47.1	17.3	0.00e+00	0	44	0	1050673152	58	5525
2026-01-17 10:59:30.03	326.20	16.82	-44.1	-47.1	17.3	0.00e+00	0	43	0	1052770304	58	5502
2026-01-17 10:59:30.88	326.29	16.74	-44.1	-47.0	17.4	0.00e+00	0	44	0	1053818880	58	5455
2026-01-17 10:59:32.02	326.41	16.63	-44.0	-46.8	17.5	0.00e+00	0	43	0	1055916032	58	5327
2026-01-17 10:59:32.87	326.50	16.54	-44.0	-46.8	17.6	0.00e+00	0	43	0	1058013184	58	5311
2026-01-17 10:59:34.01	326.63	16.43	-43.9	-46.7	17.7	0.00e+00	0	43	0	1060110336	58	5262
2026-01-17 10:59:34.86	326.72	16.34	-43.8	-46.6	17.8	0.00e+00	0	44	0	1061158912	58	5174
2026-01-17 10:59:36.08	326.85	16.22	-43.8	-46.6	17.8	0.00e+00	0	43	0	1063256064	58	5186
2026-01-17 10:59:36.93	326.94	16.14	-43.9	-46.7	17.7	0.00e+00	0	43	0	1065353216	58	5256
2026-01-17 10:59:38.07	327.05	16.03	-43.8	-46.5	17.8	0.00e+00	0	43	0	1067450368	58	5140
2026-01-17 10:59:38.92	327.14	15.95	-43.7	-46.5	17.9	0.00e+00	0	43	0	1068498944	58	5109
2026-01-17 10:59:40.05	327.26	15.84	-43.7	-46.5	17.8	0.00e+00	0	43	0	1070596096	58	5151
2026-01-17 10:59:40.91	327.35	15.75	-43.8	-46.7	17.7	0.00e+00	0	44	0	1072693248	58	5239
2026-01-17 10:59:42.05	327.46	15.64	-43.8	-46.6	17.7	0.00e+00	0	44	0	1074790400	58	5185
2026-01-17 10:59:42.90	327.55	15.56	-43.9	-46.8	17.6	0.00e+00	0	44	0	1076887552	58	5282
2026-01-17 10:59:44.04	327.66	15.45	-44.0	-46.9	17.5	0.00e+00	0	43	0	1078984704	58	5359
2026-01-17 10:59:44.89	327.75	15.37	-44.1	-47.0	17.4	0.00e+00	0	43	0	1080033280	58	5422
2026-01-17 10:59:46.03	327.86	15.26	-44.2	-47.0	17.4	0.00e+00	0	43	0	1082130432	58	5434
2026-01-17 10:59:46.88	327.95	15.18	-44.2	-47.1	17.3	0.00e+00	0	43	0	1084227584	59	5174
2026-01-17 10:59:48.01	328.06	15.07	-44.2	-47.0	17.4	0.00e+00	0	43	0	1086324736	59	5133
2026-01-17 10:59:48.86	328.14	14.99	-44.3	-47.1	17.3	0.00e+00	0	43	0	1087373312	59	5186
2026-01-17 10:59:50.00	328.25	14.89	-44.2	-46.9	17.4	0.00e+00	0	43	0	1089470464	59	5087
2026-01-17 10:59:50.85	328.33	14.81	-44.2	-46.9	17.4	0.00e+00	0	43	0	1091567616	59	5066
2026-01-17 10:59:51.99	328.44	14.70	-44.2	-46.9	17.4	0.00e+00	0	43	0	1093664768	59	5087
2026-01-17 10:59:52.84	328.52	14.62	-44.2	-46.9	17.5	0.00e+00	0	44	0	1094713344	59	5051
2026-01-17 10:59:54.10	328.64	14.50	-44.1	-46.8	17.6	0.00e+00	0	43	0	1097859072	59	4995
2026-01-17 10:59:54.89	328.72	14.43	-44.2	-46.9	17.5	0.00e+00	0	43	0	1098907648	59	5047
2026-01-17 10:59:56.11	328.83	14.32	-44.1	-46.8	17.6	0.00e+00	0	43	0	1101004800	59	5006
2026-01-17 10:59:56.96	328.91	14.24	-44.1	-46.7	17.6	0.00e+00	0	44	0	1103101952	59	4965
2026-01-17 10:59:58.10	329.02	14.14	-43.9	-46.6	17.7	0.00e+00	0	43	0	1105199104	59	4896
2026-01-17 10:59:58.95	329.09	14.06	-44.0	-46.6	17.7	0.00e+00	0	43	0	1106247680	59	4924
2026-01-17 11:00:00.09	329.20	13.95	-44.1	-46.8	17.5	0.00e+00	0	43	0	1108344832	59	5037
2026-01-17 11:00:01.05	329.29	13.87	-44.1	-46.9	17.4	0.00e+00	0	43	0	1110441984	59	5066
2026-01-17 11:00:02.05	329.38	13.78	-44.2	-47.0	17.4	0.00e+00	0	43	0	1112539136	59	5102
2026-01-17 11:00:03.04	329.47	13.69	-44.3	-47.0	17.3	0.00e+00	0	43	0	1114636288	59	5138
2026-01-17 11:00:04.04	329.55	13.60	-44.3	-47.1	17.2	0.00e+00	0	43	0	1115684864	59	5169
2026-01-17 11:00:05.03	329.64	13.51	-44.5	-47.3	17.0	0.00e+00	0	43	0	1117782016	59	5312
2026-01-17 11:00:06.03	329.73	13.42	-44.5	-47.3	17.1	0.00e+00	0	44	0	1119879168	59	5282
2026-01-17 11:00:07.02	329.82	13.33	-44.6	-47.4	16.9	0.00e+00	0	44	0	1121976320	59	5364
2026-01-17 11:00:08.02	329.90	13.24	-44.6	-47.5	16.8	0.00e+00	0	43	0	1123024896	59	5424
2026-01-17 11:00:09.01	329.99	13.15	-44.7	-47.5	16.7	0.00e+00	0	43	0	1125122048	59	5462
2026-01-17 11:00:10.01	330.08	13.06	-44.6	-47.5	16.8	0.00e+00	0	44	0	1127219200	59	5444
2026-01-17 11:00:11.00	330.16	12.98	-44.6	-47.5	16.8	0.00e+00	0	43	0	1129316352	59	5427
2026-01-17 11:00:12.00	330.25	12.89	-44.5	-47.4	16.9	0.00e+00	0	43	0	1131413504	59	5372
2026-01-17 11:00:12.99	330.33	12.80	-44.5	-47.4	16.9	0.00e+00	0	43	0	1132462080	59	5381
2026-01-17 11:00:13.99	330.42	12.71	-44.5	-47.4	16.9	0.00e+00	0	43	0	1134559232	59	5347
2026-01-17 11:00:14.98	330.50	12.63	-44.5	-47.3	16.9	0.00e+00	0	43	0	1136656384	59	5333
2026-01-17 11:00:15.98	330.58	12.54	-44.4	-47.3	17.0	0.00e+00	0	43	0	1138753536	59	5300
2026-01-17 11:00:16.97	330.66	12.46	-44.4	-47.3	17.0	0.00e+00	0	43	0	1139802112	59	5290
2026-01-17 11:00:17.96	330.75	12.37	-44.5	-47.3	17.0	0.00e+00	0	43	0	1141899264	59	5327
2026-01-17 11:00:18.95	330.83	12.28	-44.3	-47.1	17.2	0.00e+00	0	43	0	1143996416	59	5173
2026-01-17 11:00:19.95	330.91	12.20	-44.3	-47.0	17.2	0.00e+00	0	43	0	1146093568	59	5142
2026-01-17 11:00:20.94	330.99	12.11	-44.3	-47.0	17.2	0.00e+00	0	43	0	1148190720	59	5156
2026-01-17 11:00:21.94	331.07	12.03	-44.2	-46.9	17.3	0.00e+00	0	43	0	1149239296	59	5060
2026-01-17 11:00:22.93	331.15	11.94	-44.3	-47.0	17.1	0.00e+00	0	43	0	1151336448	59	5146
2026-01-17 11:00:23.93	331.23	11.86	-44.3	-47.0	17.2	0.00e+00	0	43	0	1153433600	59	5120
2026-01-17 11:00:24.92	331.31	11.78	-44.3	-47.1	17.1	0.00e+00	0	43	0	1155530752	59	5178
2026-01-17 11:00:25.92	331.39	11.69	-44.3	-47.1	17.2	0.00e+00	0	43	0	1156579328	59	5173
2026-01-17 11:00:26.91	331.47	11.61	-44.3	-47.0	17.2	0.00e+00	0	43	0	1158676480	59	5143
2026-01-17 11:00:27.91	331.54	11.52	-44.3	-47.1	17.1	0.00e+00	0	43	0	1160773632	59	5212
2026-01-17 11:00:28.90	331.62	11.44	-44.3	-47.1	17.2	0.00e+00	0	43	0	1162870784	59	5186
2026-01-17 11:00:29.90	331.70	11.36	-44.3	-47.1	17.1	0.00e+00	0	44	0	1164967936	59	5202
2026-01-17 11:00:30.90	331.77	11.27	-44.4	-47.3	16.9	0.00e+00	0	43	0	1166016512	59	5329
2026-01-17 11:00:31.96	331.86	11.19	-44.5	-47.4	16.8	0.00e+00	0	43	0	1168113664	59	5360
2026-01-17 11:00:32.85	331.92	11.11	-44.5	-47.4	16.8	0.00e+00	0	44	0	1170210816	59	5366
2026-01-17 11:00:34.13	332.02	11.01	-44.5	-47.5	16.6	0.00e+00	0	43	0	1172307968	59	5424
2026-01-17 11:00:34.84	332.07	10.95	-44.5	-47.4	16.6	0.00e+00	0	44	0	1173356544	59	5400
2026-01-17 11:00:36.12	332.17	10.84	-44.5	-47.5	16.6	0.00e+00	0	44	0	1176502272	59	5440
2026-01-17 11:00:36.83	332.22	10.79	-44.6	-47.6	16.6	0.00e+00	0	44	0	1177550848	59	5467
2026-01-17 11:00:38.12	332.32	10.68	-44.6	-47.6	16.6	0.00e+00	0	43	0	1179648000	59	5509
2026-01-17 11:00:38.83	332.37	10.62	-44.7	-47.8	16.5	0.00e+00	0	43	0	1181745152	60	5283
2026-01-17 11:00:40.11	332.46	10.52	-44.7	-47.8	16.4	0.00e+00	0	43	0	1183842304	60	5304
2026-01-17 11:00:40.82	332.52	10.46	-44.8	-47.9	16.3	0.00e+00	0	43	0	1184890880	60	5352
2026-01-17 11:00:42.10	332.61	10.36	-44.9	-48.0	16.3	0.00e+00	0	43	0	1186988032	60	5404
2026-01-17 11:00:42.81	332.66	10.30	-44.9	-48.0	16.2	0.00e+00	0	44	0	1189085184	60	5448
2026-01-17 11:00:44.09	332.75	10.20	-45.0	-48.2	15.8	0.00e+00	0	44	0	1191182336	60	5537
2026-01-17 11:00:44.82	332.80	10.14	-45.1	-48.3	15.4	0.00e+00	0	43	0	1192230912	60	5619
2026-01-17 11:00:46.15	332.90	10.04	-44.9	-48.1	14.9	0.00e+00	0	43	0	1195376640	60	5505
2026-01-17 11:00:46.86	332.95	9.98	-44.8	-48.0	14.9	0.00e+00	0	44	0	1196425216	60	5461
2026-01-17 11:00:48.14	333.04	9.88	-45.0	-48.2	14.8	0.00e+00	0	43	0	1198522368	60	5584
2026-01-17 11:00:48.86	333.09	9.82	-44.9	-48.2	14.9	0.00e+00	0	43	0	1200619520	60	5546
2026-01-17 11:00:50.25	333.19	9.71	-45.0	-48.3	14.5	0.00e+00	0	43	0	1202716672	60	5639
2026-01-17 11:00:50.96	333.24	9.66	-45.0	-48.4	14.1	0.00e+00	0	44	0	1203765248	60	5674
2026-01-17 11:00:52.24	333.32	9.55	-45.0	-48.4	14.2	1.50e-06	0	44	0	1206910976	60	5701
2026-01-17 11:00:52.97	333.37	9.50	-45.0	-48.4	14.7	0.00e+00	0	43	0	1207959552	60	5721
2026-01-17 11:00:54.25	333.46	9.40	-45.0	-48.4	15.4	0.00e+00	0	44	0	1210056704	60	5659
2026-01-17 11:00:54.96	333.51	9.34	-45.0	-48.3	15.8	7.00e-07	0	44	0	1211105280	60	5650
2026-01-17 11:00:56.24	333.60	9.24	-45.0	-48.4	15.9	0.00e+00	0	44	0	1214251008	60	5657
2026-01-17 11:00:56.95	333.64	9.19	-45.1	-48.4	15.8	0.00e+00	0	43	0	1215299584	60	5716
2026-01-17 11:00:58.24	333.73	9.09	-45.1	-48.4	15.7	0.00e+00	0	43	0	1217396736	60	5691
2026-01-17 11:00:58.96	333.78	9.03	-45.2	-48.5	15.6	0.00e+00	0	43	0	1219493888	60	5733
2026-01-17 11:01:00.23	333.86	8.94	-49.9	-65.3	3.8	6.29e-02	0	43	104	1220542464	70	22474
2026-01-17 11:01:00.94	333.91	8.88	-50.3	-65.4	3.8	1.49e+00	0	44	104	1220542464	71	21421
2026-01-17 11:01:02.22	333.99	8.78	-50.4	-65.8	3.8	1.49e+00	0	44	104	1220542464	71	22478
