passes_logs/2026/01/17/T1/T1__20260117_075026_KHAYYAM_rec.log

#Pass ID: 20260117_075026_KHAYYAM
#Satellite: KHAYYAM
#Configuration: KHAYYAM_480M
#almurnet v.1.7.20251203
#Start time: 2026-01-17 07:50:27

#Version: 2.0.20230620
#Station: T1
#Location: 37.570604 lon 55.790049 lat
#TLE: 1 53370U 22096A   26016.26944296  .00002688  00000+0  11195-3 0  9997
#TLE: 2 53370  97.3563 283.2565 0001591 106.1097 254.0316 15.24586395191431

#Time	Az	El	Level	Level2	SNR	BER	BlckErr	Temp	State	Recorded	gain1	gain2
2026-01-17 07:50:27.45	163.09	5.08	-50.6	-55.6	3.3	0.00e+00	0	46	0	0	73	24718
2026-01-17 07:50:28.44	163.09	5.16	-50.6	-55.6	3.7	0.00e+00	0	46	104	0	72	26076
2026-01-17 07:50:29.43	163.09	5.24	-50.6	-55.6	3.7	0.00e+00	0	46	104	0	72	26121
2026-01-17 07:50:30.43	163.09	5.33	-50.6	-55.6	3.7	0.00e+00	0	46	104	0	72	26215
2026-01-17 07:50:31.42	163.09	5.41	-50.6	-55.6	3.7	0.00e+00	0	47	104	0	72	26052
2026-01-17 07:50:32.41	163.09	5.49	-50.7	-55.6	3.7	0.00e+00	0	47	104	0	72	26101
2026-01-17 07:50:33.41	163.09	5.58	-50.6	-55.6	3.7	0.00e+00	0	46	104	0	72	26108
2026-01-17 07:50:34.40	163.09	5.66	-50.6	-55.6	3.7	0.00e+00	0	47	104	0	72	26073
2026-01-17 07:50:35.39	163.09	5.74	-50.7	-55.6	3.7	0.00e+00	0	47	104	0	72	26258
2026-01-17 07:50:36.39	163.09	5.83	-50.6	-55.6	3.7	0.00e+00	0	47	104	0	72	25993
2026-01-17 07:50:37.38	163.09	5.91	-50.6	-55.6	3.7	0.00e+00	0	47	104	0	72	26022
2026-01-17 07:50:38.37	163.09	6.00	-50.7	-55.6	3.7	0.00e+00	0	47	104	0	72	26255
2026-01-17 07:50:39.37	163.10	6.08	-50.6	-55.6	3.7	0.00e+00	0	47	104	0	72	26138
2026-01-17 07:50:40.36	163.10	6.17	-50.7	-55.6	3.6	0.00e+00	0	47	104	0	72	26161
2026-01-17 07:50:41.35	163.10	6.26	-50.7	-55.6	3.7	0.00e+00	0	47	104	0	72	26079
2026-01-17 07:50:42.35	163.10	6.34	-50.7	-55.6	3.7	0.00e+00	0	47	104	0	72	26194
2026-01-17 07:50:43.34	163.10	6.43	-50.6	-55.6	3.7	0.00e+00	0	47	104	0	72	26058
2026-01-17 07:50:44.33	163.10	6.52	-50.6	-55.6	3.7	0.00e+00	0	48	104	0	72	26218
2026-01-17 07:50:45.33	163.10	6.61	-50.6	-55.6	3.7	0.00e+00	0	48	104	0	72	26147
2026-01-17 07:50:46.32	163.10	6.69	-50.6	-55.6	3.7	0.00e+00	0	48	104	0	72	26176
2026-01-17 07:50:47.32	163.10	6.78	-50.6	-55.6	3.7	0.00e+00	0	48	104	0	72	26119
2026-01-17 07:50:48.31	163.10	6.87	-50.7	-55.6	3.7	0.00e+00	0	48	104	0	72	26249
2026-01-17 07:50:49.31	163.10	6.96	-50.6	-55.6	3.7	0.00e+00	0	48	104	0	72	26108
2026-01-17 07:50:50.30	163.10	7.05	-50.6	-55.6	3.7	0.00e+00	0	48	104	0	72	26199
2026-01-17 07:50:51.29	163.10	7.14	-50.7	-55.6	3.7	0.00e+00	0	48	104	0	72	26070
2026-01-17 07:50:52.29	163.10	7.23	-50.6	-55.6	3.7	0.00e+00	0	48	104	0	72	26190
2026-01-17 07:50:53.28	163.10	7.33	-50.6	-55.5	3.7	0.00e+00	0	48	104	0	72	25841
2026-01-17 07:50:54.27	163.10	7.42	-50.6	-55.6	3.7	0.00e+00	0	48	104	0	72	25992
2026-01-17 07:50:55.27	163.10	7.51	-50.6	-55.6	3.7	0.00e+00	0	48	104	0	72	26030
2026-01-17 07:50:56.26	163.10	7.60	-50.6	-55.6	3.7	0.00e+00	0	48	104	0	72	26038
2026-01-17 07:50:57.25	163.10	7.70	-50.6	-55.5	3.7	0.00e+00	0	48	104	0	72	25853
2026-01-17 07:50:58.24	163.10	7.79	-50.6	-55.6	3.7	0.00e+00	0	48	104	0	72	26083
2026-01-17 07:50:59.24	163.10	7.88	-50.6	-55.5	3.7	0.00e+00	0	49	104	0	72	25909
2026-01-17 07:51:00.23	163.10	7.98	-50.6	-55.6	3.7	0.00e+00	0	49	104	0	72	26056
2026-01-17 07:51:01.22	163.10	8.07	-50.6	-55.6	3.7	0.00e+00	0	49	104	0	72	26097
2026-01-17 07:51:02.22	163.10	8.17	-50.6	-55.6	3.7	0.00e+00	0	49	104	0	72	26052
2026-01-17 07:51:03.21	163.10	8.26	-50.6	-55.5	3.7	0.00e+00	0	49	104	0	72	25957
2026-01-17 07:51:04.20	163.10	8.36	-50.6	-55.6	3.7	0.00e+00	0	49	104	0	72	26058
2026-01-17 07:51:05.20	163.10	8.46	-50.6	-55.6	3.7	0.00e+00	0	49	104	0	72	26087
2026-01-17 07:51:06.19	163.10	8.56	-50.6	-55.6	3.7	0.00e+00	0	49	104	0	72	26017
2026-01-17 07:51:07.18	163.10	8.65	-50.6	-55.6	3.7	0.00e+00	0	49	104	0	72	26271
2026-01-17 07:51:08.18	163.10	8.75	-50.6	-55.6	3.7	0.00e+00	0	49	104	0	72	26146
2026-01-17 07:51:09.17	163.10	8.85	-50.6	-55.6	3.7	0.00e+00	0	49	104	0	72	26162
2026-01-17 07:51:10.16	163.10	8.95	-50.6	-55.6	3.7	0.00e+00	0	49	104	0	72	26071
2026-01-17 07:51:11.16	163.10	9.05	-50.7	-55.6	3.7	0.00e+00	0	49	104	0	72	26162
2026-01-17 07:51:12.15	163.10	9.15	-52.2	-56.9	3.7	0.00e+00	0	49	104	0	75	25501
2026-01-17 07:51:13.35	163.10	9.28	-50.6	-55.5	3.7	0.00e+00	0	49	104	0	72	25940
2026-01-17 07:51:14.23	163.10	9.37	-52.0	-56.7	3.7	0.00e+00	0	49	104	0	74	26491
2026-01-17 07:51:15.57	163.10	9.50	-51.2	-56.1	3.7	0.00e+00	0	49	104	0	74	24530
2026-01-17 07:51:16.28	163.10	9.58	-50.3	-55.4	3.7	0.00e+00	0	49	104	0	72	25415
2026-01-17 07:51:17.77	163.10	9.73	-50.5	-55.5	3.7	0.00e+00	0	49	104	0	72	25740
2026-01-17 07:51:18.48	163.10	9.81	-50.7	-55.6	3.7	0.00e+00	0	49	104	0	72	26234
2026-01-17 07:51:19.84	163.10	9.95	-50.9	-55.9	3.7	0.00e+00	0	49	104	0	72	26935
2026-01-17 07:51:20.55	163.10	10.03	-51.2	-56.0	3.7	0.00e+00	0	49	104	0	72	27436
2026-01-17 07:51:21.82	163.10	10.16	-51.7	-56.5	3.7	0.00e+00	0	49	104	0	74	25739
2026-01-17 07:51:22.55	163.10	10.24	-52.4	-57.1	3.7	0.00e+00	0	49	104	0	75	26192
2026-01-17 07:51:23.83	163.09	10.38	-52.1	-56.8	3.7	0.00e+00	0	49	104	0	75	25302
2026-01-17 07:51:24.54	163.09	10.46	-52.1	-56.9	3.7	0.00e+00	0	50	104	0	75	25406
2026-01-17 07:51:25.82	163.09	10.60	-52.2	-56.9	3.7	0.00e+00	0	50	104	0	75	25673
2026-01-17 07:51:26.53	163.09	10.68	-52.3	-57.0	3.7	0.00e+00	0	49	104	0	75	25908
2026-01-17 07:51:27.81	163.09	10.82	-52.3	-57.0	3.7	0.00e+00	0	49	104	0	75	25944
2026-01-17 07:51:28.55	163.09	10.90	-52.3	-57.0	3.7	0.00e+00	0	49	104	0	75	25905
2026-01-17 07:51:29.83	163.09	11.05	-52.4	-57.1	3.6	0.00e+00	0	49	104	0	75	25995
2026-01-17 07:51:30.54	163.09	11.13	-52.4	-57.0	3.7	0.00e+00	0	50	104	0	75	25908
2026-01-17 07:51:31.82	163.09	11.27	-52.3	-57.0	3.7	0.00e+00	0	50	104	0	75	25967
2026-01-17 07:51:32.53	163.09	11.35	-52.3	-56.9	3.7	0.00e+00	0	50	104	0	75	25548
2026-01-17 07:51:33.81	163.09	11.50	-52.3	-57.1	3.7	0.00e+00	0	50	104	0	75	26145
2026-01-17 07:51:34.52	163.09	11.58	-52.4	-57.1	3.7	0.00e+00	0	50	104	0	75	26223
2026-01-17 07:51:35.80	163.09	11.73	-52.5	-57.1	3.7	0.00e+00	0	50	104	0	75	26253
2026-01-17 07:51:36.53	163.08	11.82	-52.3	-56.9	3.7	0.00e+00	0	50	104	0	75	25528
2026-01-17 07:51:37.81	163.08	11.97	-52.4	-57.1	3.7	0.00e+00	0	50	104	0	75	26244
2026-01-17 07:51:38.53	163.08	12.06	-52.5	-57.3	3.7	0.00e+00	0	50	104	0	75	26629
2026-01-17 07:51:39.81	163.08	12.21	-52.3	-57.0	3.7	0.00e+00	0	50	104	0	75	25751
2026-01-17 07:51:40.55	163.08	12.30	-52.4	-57.1	3.7	0.00e+00	0	50	104	0	75	26112
2026-01-17 07:51:41.83	163.08	12.45	-52.5	-57.3	3.7	0.00e+00	0	50	104	0	75	26720
2026-01-17 07:51:42.56	163.08	12.54	-52.5	-57.4	3.7	0.00e+00	0	50	104	0	75	26898
2026-01-17 07:51:43.83	163.08	12.70	-52.5	-57.2	3.7	0.00e+00	0	50	104	0	75	26563
2026-01-17 07:51:44.55	163.07	12.79	-52.5	-57.2	3.7	0.00e+00	0	50	104	0	75	26559
2026-01-17 07:51:45.83	163.07	12.95	-52.6	-57.4	3.7	0.00e+00	0	50	104	0	75	27020
2026-01-17 07:51:46.57	163.07	13.04	-52.9	-57.6	3.7	0.00e+00	0	50	104	0	76	26192
2026-01-17 07:51:47.85	163.07	13.20	-52.5	-57.3	3.7	0.00e+00	0	50	104	0	76	25340
2026-01-17 07:51:48.60	163.07	13.30	-52.6	-57.4	3.7	0.00e+00	0	50	104	0	76	25593
2026-01-17 07:51:50.17	163.07	13.50	-53.0	-57.7	3.7	0.00e+00	0	50	104	0	76	26453
2026-01-17 07:51:50.81	163.07	13.58	-52.9	-57.6	3.7	0.00e+00	0	50	104	0	76	26140
2026-01-17 07:51:52.23	163.06	13.77	-52.7	-57.5	3.7	0.00e+00	0	50	104	0	76	25845
2026-01-17 07:51:52.94	163.06	13.86	-53.0	-57.7	3.7	0.00e+00	0	50	104	0	76	26415
2026-01-17 07:51:54.22	163.06	14.03	-53.0	-57.6	3.7	0.00e+00	0	50	104	0	76	26158
2026-01-17 07:51:54.96	163.06	14.13	-53.2	-57.8	3.7	0.00e+00	0	50	104	0	77	25141
2026-01-17 07:51:56.24	163.06	14.30	-52.9	-57.6	3.7	0.00e+00	0	50	104	0	77	24743
2026-01-17 07:51:56.95	163.05	14.40	-53.0	-57.7	3.7	0.00e+00	0	50	104	0	77	24934
2026-01-17 07:51:58.23	163.05	14.57	-53.2	-57.8	3.7	0.00e+00	0	50	104	0	77	25152
2026-01-17 07:51:58.94	163.05	14.67	-53.2	-57.7	3.7	0.00e+00	0	50	104	0	77	25027
2026-01-17 07:52:00.22	163.05	14.84	-53.2	-57.7	3.7	0.00e+00	0	50	104	0	77	25081
2026-01-17 07:52:00.93	163.05	14.94	-53.3	-57.8	3.7	0.00e+00	0	50	104	0	77	25318
2026-01-17 07:52:02.48	163.04	15.16	-53.0	-57.6	3.7	0.00e+00	0	50	104	0	77	24614
2026-01-17 07:52:03.44	163.04	15.30	-53.0	-57.5	3.7	0.00e+00	0	50	104	0	77	24383
2026-01-17 07:52:04.44	163.04	15.44	-53.2	-57.8	3.7	0.00e+00	0	50	104	0	77	25138
2026-01-17 07:52:05.43	163.04	15.58	-52.9	-57.5	3.7	0.00e+00	0	50	104	0	77	24399
2026-01-17 07:52:06.43	163.03	15.73	-52.7	-57.3	3.7	0.00e+00	0	50	104	0	77	23752
2026-01-17 07:52:07.42	163.03	15.87	-52.7	-57.2	3.7	0.00e+00	0	50	104	0	76	25007
2026-01-17 07:52:08.42	163.03	16.02	-52.9	-57.4	3.7	0.00e+00	0	50	104	0	76	25459
2026-01-17 07:52:09.41	163.02	16.17	-52.6	-57.1	3.7	0.00e+00	0	50	104	0	76	24751
2026-01-17 07:52:10.42	163.02	16.32	-52.6	-57.2	3.7	0.00e+00	0	50	104	0	76	25053
2026-01-17 07:52:11.47	163.02	16.48	-52.7	-57.3	3.7	0.00e+00	0	50	104	0	76	25100
2026-01-17 07:52:12.41	163.02	16.62	-52.6	-57.1	3.7	0.00e+00	0	50	104	0	76	24774
2026-01-17 07:52:13.41	163.01	16.77	-52.6	-57.2	3.7	0.00e+00	0	50	104	0	76	25055
2026-01-17 07:52:14.40	163.01	16.92	-52.8	-57.4	3.7	0.00e+00	0	50	104	0	76	25396
2026-01-17 07:52:15.40	163.01	17.08	-52.5	-57.1	3.7	0.00e+00	0	50	104	0	76	24579
2026-01-17 07:52:16.39	163.00	17.24	-52.6	-57.2	3.7	0.00e+00	0	50	104	0	76	25006
2026-01-17 07:52:17.39	163.00	17.39	-52.6	-56.9	3.7	0.00e+00	0	50	104	0	76	24235
2026-01-17 07:52:18.38	163.00	17.55	-52.6	-57.2	3.7	0.00e+00	0	51	104	0	76	24967
2026-01-17 07:52:19.38	162.99	17.71	-52.5	-57.0	3.7	0.00e+00	0	50	104	0	76	24427
2026-01-17 07:52:20.38	162.99	17.88	-52.5	-57.0	3.7	0.00e+00	0	50	104	0	76	24270
2026-01-17 07:52:21.37	162.99	18.04	-52.6	-57.0	3.7	0.00e+00	0	50	104	0	76	24446
2026-01-17 07:52:22.36	162.98	18.20	-52.6	-57.2	3.7	0.00e+00	0	50	104	0	76	24871
2026-01-17 07:52:23.36	162.98	18.37	-52.8	-57.2	3.7	0.00e+00	0	51	104	0	76	24920
2026-01-17 07:52:24.36	162.98	18.54	-52.6	-57.1	3.7	0.00e+00	0	50	104	0	76	24611
2026-01-17 07:52:25.35	162.97	18.70	-52.8	-57.2	3.7	0.00e+00	0	50	104	0	76	24896
2026-01-17 07:52:26.36	162.97	18.88	-53.2	-57.5	3.7	0.00e+00	0	51	104	0	77	24430
2026-01-17 07:52:27.39	162.96	19.06	-53.2	-57.6	3.7	0.00e+00	0	51	104	0	77	24617
2026-01-17 07:52:28.38	162.96	19.23	-53.1	-57.4	3.7	0.00e+00	0	51	104	0	77	24196
2026-01-17 07:52:29.44	162.96	19.41	-53.1	-57.5	3.7	0.00e+00	0	51	104	0	77	24411
2026-01-17 07:52:30.32	162.95	19.57	-53.2	-57.6	3.7	0.00e+00	0	51	104	0	77	24699
2026-01-17 07:52:31.46	162.95	19.77	-53.0	-57.5	3.7	0.00e+00	0	51	104	0	77	24423
2026-01-17 07:52:32.31	162.94	19.93	-53.2	-57.6	3.7	0.00e+00	0	51	104	0	77	24699
2026-01-17 07:52:33.70	162.94	20.18	-53.0	-57.4	3.7	0.00e+00	0	51	104	0	77	24112
2026-01-17 07:52:34.41	162.93	20.31	-53.1	-57.4	3.7	0.00e+00	0	51	104	0	77	24133
2026-01-17 07:52:35.69	162.93	20.55	-53.2	-57.5	3.7	0.00e+00	0	51	104	0	77	24456
2026-01-17 07:52:36.42	162.92	20.69	-53.1	-57.5	3.7	0.00e+00	0	51	104	0	77	24422
2026-01-17 07:52:37.70	162.92	20.93	-53.0	-57.5	3.7	0.00e+00	0	51	104	0	77	24251
2026-01-17 07:52:38.41	162.91	21.07	-53.1	-57.6	3.7	0.00e+00	0	50	104	0	77	24561
2026-01-17 07:52:39.69	162.90	21.31	-53.3	-57.7	3.7	0.00e+00	0	51	104	0	77	25066
2026-01-17 07:52:40.43	162.90	21.46	-53.3	-57.8	3.7	0.00e+00	0	51	104	0	77	25335
2026-01-17 07:52:41.71	162.89	21.71	-53.3	-57.9	3.7	0.00e+00	0	51	104	0	77	25412
2026-01-17 07:52:42.56	162.89	21.88	-53.5	-58.0	3.7	0.00e+00	0	51	104	0	77	25889
2026-01-17 07:52:43.70	162.88	22.11	-53.5	-57.8	3.7	0.00e+00	0	51	104	0	78	23719
2026-01-17 07:52:44.55	162.88	22.28	-53.7	-58.1	3.7	0.00e+00	0	51	104	0	78	24762
2026-01-17 07:52:45.69	162.87	22.52	-53.7	-58.2	3.7	0.00e+00	0	51	104	0	78	24885
2026-01-17 07:52:46.54	162.86	22.69	-53.7	-58.1	3.7	0.00e+00	0	51	104	0	78	24771
2026-01-17 07:52:47.68	162.86	22.93	-52.7	-57.2	3.7	0.00e+00	0	51	104	0	77	23544
2026-01-17 07:52:48.53	162.85	23.11	-53.2	-57.8	3.7	0.00e+00	0	51	104	0	77	25273
2026-01-17 07:52:49.67	162.84	23.36	-53.1	-57.7	3.7	0.00e+00	0	51	104	0	77	25044
2026-01-17 07:52:50.52	162.84	23.54	-52.9	-57.5	3.7	0.00e+00	0	51	104	0	77	24423
2026-01-17 07:52:51.66	162.83	23.79	-53.0	-57.2	3.7	0.00e+00	0	51	104	0	77	23476
2026-01-17 07:52:52.51	162.82	23.98	-53.0	-57.4	3.7	0.00e+00	0	51	104	0	77	24144
2026-01-17 07:52:53.65	162.81	24.23	-53.1	-57.5	3.7	0.00e+00	0	51	104	0	77	24299
2026-01-17 07:52:54.53	162.81	24.43	-53.2	-57.5	3.7	0.00e+00	0	51	104	0	77	24371
2026-01-17 07:52:55.67	162.80	24.69	-53.1	-57.3	3.7	0.00e+00	0	51	104	0	77	23707
2026-01-17 07:52:56.52	162.79	24.88	-53.2	-57.5	3.7	0.00e+00	0	51	104	0	77	24258
2026-01-17 07:52:57.66	162.78	25.15	-53.3	-57.7	3.7	0.00e+00	0	51	104	0	77	24900
2026-01-17 07:52:58.51	162.78	25.35	-53.4	-57.7	3.7	0.00e+00	0	51	104	0	77	24871
2026-01-17 07:52:59.64	162.77	25.62	-53.2	-57.2	3.7	0.00e+00	0	51	104	0	77	23462
2026-01-17 07:53:00.72	162.76	25.88	-53.4	-57.7	3.7	0.00e+00	0	51	104	0	77	24949
2026-01-17 07:53:01.74	162.75	26.12	-53.5	-57.7	3.7	0.00e+00	0	51	104	0	77	25075
2026-01-17 07:53:02.93	162.74	26.42	-53.1	-56.8	3.7	0.00e+00	0	51	104	0	77	22537
2026-01-17 07:53:03.80	162.73	26.63	-53.0	-56.9	3.7	0.00e+00	0	51	104	0	77	22674
2026-01-17 07:53:05.09	162.72	26.96	-53.0	-56.9	3.7	0.00e+00	0	51	104	0	77	22692
2026-01-17 07:53:05.80	162.71	27.14	-52.9	-56.6	3.7	0.00e+00	0	51	104	0	77	22053
2026-01-17 07:53:07.08	162.70	27.47	-52.8	-56.2	3.7	0.00e+00	0	51	104	0	77	21041
2026-01-17 07:53:07.79	162.69	27.66	-52.8	-56.1	3.7	0.00e+00	0	51	104	0	77	20817
2026-01-17 07:53:09.07	162.68	27.99	-53.1	-56.8	3.7	0.00e+00	0	51	104	0	77	22414
2026-01-17 07:53:09.81	162.67	28.19	-53.5	-58.0	3.7	0.00e+00	0	51	104	0	77	25931
2026-01-17 07:53:11.09	162.65	28.54	-53.5	-57.6	3.7	0.00e+00	0	51	104	0	78	23259
2026-01-17 07:53:11.82	162.65	28.74	-52.9	-56.4	3.7	0.00e+00	0	51	104	0	77	21549
2026-01-17 07:53:13.09	162.63	29.09	-52.8	-56.5	3.7	0.00e+00	0	51	104	0	77	21696
2026-01-17 07:53:13.90	162.62	29.31	-52.7	-56.4	3.7	0.00e+00	0	51	104	0	77	21416
2026-01-17 07:53:15.04	162.61	29.64	-52.3	-55.7	3.7	0.00e+00	0	51	104	0	76	21002
2026-01-17 07:53:15.89	162.60	29.88	-52.2	-55.5	3.7	0.00e+00	0	51	104	0	76	20436
2026-01-17 07:53:17.02	162.58	30.21	-52.7	-56.3	3.7	0.00e+00	0	51	104	0	76	22458
2026-01-17 07:53:17.88	162.57	30.46	-52.7	-56.3	3.7	0.00e+00	0	51	104	0	76	22442
2026-01-17 07:53:19.01	162.56	30.80	-53.4	-57.9	3.7	0.00e+00	0	51	104	0	77	25432
2026-01-17 07:53:19.86	162.55	31.05	-52.9	-57.0	3.7	0.00e+00	0	51	104	0	77	22921
2026-01-17 07:53:21.00	162.53	31.40	-52.4	-56.1	3.7	0.00e+00	0	51	104	0	76	22055
2026-01-17 07:53:21.86	162.52	31.67	-52.2	-55.7	3.7	0.00e+00	0	51	104	0	76	21020
2026-01-17 07:53:22.99	162.50	32.02	-52.3	-55.9	3.7	0.00e+00	0	51	104	0	76	21366
2026-01-17 07:53:23.84	162.49	32.29	-52.2	-55.7	3.7	0.00e+00	0	51	104	0	76	20878
2026-01-17 07:53:24.98	162.47	32.65	-51.9	-55.4	3.7	0.00e+00	0	51	104	0	75	21417
2026-01-17 07:53:25.83	162.46	32.93	-51.7	-55.1	3.7	0.00e+00	0	51	104	0	75	20829
2026-01-17 07:53:26.97	162.44	33.30	-51.7	-55.1	3.7	0.00e+00	0	51	104	0	75	20808
2026-01-17 07:53:27.82	162.42	33.58	-53.0	-57.5	3.7	0.00e+00	0	51	104	0	76	25824
2026-01-17 07:53:28.96	162.40	33.97	-52.5	-56.4	3.7	0.00e+00	0	51	104	0	76	22833
2026-01-17 07:53:29.81	162.39	34.26	-53.1	-57.5	3.7	0.00e+00	0	51	104	0	76	25880
2026-01-17 07:53:30.95	162.37	34.65	-53.4	-57.6	3.7	0.00e+00	0	51	104	0	77	24650
2026-01-17 07:53:31.81	162.35	34.95	-53.5	-57.7	3.7	0.00e+00	0	51	104	0	77	24892
2026-01-17 07:53:32.94	162.33	35.35	-53.6	-57.8	3.7	0.00e+00	0	51	104	0	77	25097
2026-01-17 07:53:33.80	162.31	35.66	-53.6	-57.8	3.7	0.00e+00	0	51	104	0	77	25109
2026-01-17 07:53:34.93	162.29	36.07	-53.5	-57.8	3.7	0.00e+00	0	51	104	0	77	25289
2026-01-17 07:53:35.79	162.27	36.39	-53.4	-57.9	3.7	0.00e+00	0	51	104	0	77	25655
2026-01-17 07:53:36.92	162.25	36.81	-53.5	-58.0	3.7	0.00e+00	0	51	104	0	77	25775
2026-01-17 07:53:37.78	162.23	37.14	-53.4	-57.8	3.7	0.00e+00	0	51	104	0	77	25337
2026-01-17 07:53:39.01	162.20	37.61	-53.5	-58.1	3.7	0.00e+00	0	51	104	0	77	26007
2026-01-17 07:53:39.86	162.18	37.94	-54.0	-58.4	3.7	0.00e+00	0	51	104	0	78	25506
2026-01-17 07:53:41.00	162.15	38.39	-53.7	-58.2	3.7	0.00e+00	0	51	104	0	78	24986
2026-01-17 07:53:41.85	162.13	38.73	-53.9	-58.2	3.7	0.00e+00	0	51	104	0	78	25023
2026-01-17 07:53:43.08	162.10	39.23	-53.7	-58.1	3.7	0.00e+00	0	51	104	0	78	24636
2026-01-17 07:53:43.93	162.08	39.58	-53.6	-58.0	3.7	0.00e+00	0	51	104	0	78	24413
2026-01-17 07:53:45.07	162.05	40.05	-53.6	-58.1	3.7	0.00e+00	0	51	104	0	78	24551
2026-01-17 07:53:45.92	162.03	40.41	-53.7	-58.1	3.7	0.00e+00	0	51	104	0	78	24701
2026-01-17 07:53:47.06	161.99	40.90	-53.7	-58.0	3.7	0.00e+00	0	51	104	0	78	24390
2026-01-17 07:53:47.92	161.97	41.27	-53.8	-58.0	3.7	0.00e+00	0	51	104	0	78	24459
2026-01-17 07:53:49.05	161.93	41.77	-53.6	-58.0	3.7	0.00e+00	0	51	104	0	78	24273
2026-01-17 07:53:49.91	161.91	42.15	-53.7	-58.0	3.7	0.00e+00	0	51	104	0	78	24439
2026-01-17 07:53:51.04	161.87	42.66	-53.7	-57.9	3.7	0.00e+00	0	51	104	0	78	24070
2026-01-17 07:53:52.04	161.84	43.12	-53.3	-57.5	3.7	0.00e+00	0	51	104	0	78	23019
2026-01-17 07:53:53.03	161.80	43.58	-53.7	-57.9	3.7	0.00e+00	0	51	104	0	78	24026
2026-01-17 07:53:54.03	161.77	44.05	-53.6	-57.7	3.7	0.00e+00	0	51	104	0	78	23655
2026-01-17 07:53:55.02	161.73	44.53	-53.7	-58.0	3.7	0.00e+00	0	51	104	0	78	24337
2026-01-17 07:53:56.02	161.69	45.01	-53.8	-58.1	3.7	0.00e+00	0	51	104	0	78	24564
2026-01-17 07:53:57.01	161.65	45.50	-53.6	-57.8	3.7	0.00e+00	0	51	104	0	78	23691
2026-01-17 07:53:58.01	161.61	45.99	-53.6	-58.0	3.7	0.00e+00	0	51	104	0	78	24243
2026-01-17 07:53:59.00	161.57	46.49	-53.9	-58.3	3.7	0.00e+00	0	51	104	0	78	25155
2026-01-17 07:54:00.00	161.52	47.01	-53.9	-58.4	3.7	0.00e+00	0	51	104	0	78	25649
2026-01-17 07:54:00.99	161.48	47.52	-53.9	-58.4	3.7	0.00e+00	0	51	104	0	78	25593
2026-01-17 07:54:01.98	161.43	48.04	-54.0	-58.4	3.7	0.00e+00	0	51	104	0	78	25596
2026-01-17 07:54:02.98	161.38	48.57	-54.0	-58.4	3.7	0.00e+00	0	51	104	0	78	25433
2026-01-17 07:54:03.97	161.33	49.11	-53.9	-58.4	3.7	0.00e+00	0	51	104	0	78	25496
2026-01-17 07:54:04.96	161.28	49.65	-53.8	-58.0	3.7	0.00e+00	0	51	104	0	78	24427
2026-01-17 07:54:05.96	161.22	50.20	-53.9	-58.4	3.7	0.00e+00	0	51	104	0	78	25492
2026-01-17 07:54:06.95	161.17	50.76	-53.9	-58.3	3.7	0.00e+00	0	51	104	0	78	25220
2026-01-17 07:54:08.26	161.09	51.51	-53.8	-58.3	3.7	0.00e+00	0	51	104	0	78	25150
2026-01-17 07:54:08.97	161.04	51.92	-54.0	-58.4	3.7	0.00e+00	0	51	104	0	78	25388
2026-01-17 07:54:10.25	160.96	52.67	-53.9	-58.3	3.7	0.00e+00	0	51	104	0	78	25098
2026-01-17 07:54:11.09	160.90	53.17	-54.0	-58.4	3.7	0.00e+00	0	51	104	0	78	25432
2026-01-17 07:54:12.51	160.80	54.02	-53.9	-58.3	3.7	0.00e+00	0	51	104	0	78	25213
2026-01-17 07:54:13.22	160.74	54.46	-53.8	-58.3	3.7	0.00e+00	0	51	104	0	78	25309
2026-01-17 07:54:14.50	160.64	55.25	-53.7	-58.1	3.7	0.00e+00	0	51	104	0	78	24629
2026-01-17 07:54:15.21	160.58	55.70	-53.5	-58.1	3.7	0.00e+00	0	51	104	0	78	24580
2026-01-17 07:54:16.77	160.45	56.69	-53.8	-58.2	3.7	0.00e+00	0	51	104	0	78	25024
2026-01-17 07:54:17.42	160.39	57.11	-54.0	-58.4	3.7	0.00e+00	0	51	104	0	78	25413
2026-01-17 07:54:18.84	160.25	58.04	-54.0	-58.3	3.7	0.00e+00	0	51	104	0	78	25286
2026-01-17 07:54:19.55	160.18	58.51	-54.0	-58.3	3.7	0.00e+00	0	51	104	0	78	25364
2026-01-17 07:54:20.83	160.04	59.37	-53.9	-58.4	3.7	0.00e+00	0	51	104	0	78	25444
2026-01-17 07:54:21.56	159.95	59.86	-53.8	-58.1	3.7	0.00e+00	0	51	104	0	78	24806
2026-01-17 07:54:22.84	159.80	60.74	-53.7	-58.2	3.7	0.00e+00	0	51	104	0	78	25085
2026-01-17 07:54:23.55	159.71	61.23	-53.7	-58.2	3.7	0.00e+00	0	51	104	0	78	24968
2026-01-17 07:54:24.83	159.54	62.13	-54.0	-58.3	3.7	0.00e+00	0	51	104	0	78	25368
2026-01-17 07:54:25.57	159.43	62.66	-54.0	-58.4	3.7	0.00e+00	0	51	104	0	78	25584
2026-01-17 07:54:26.85	159.23	63.57	-53.7	-58.1	3.7	0.00e+00	0	51	104	0	78	24556
2026-01-17 07:54:27.57	159.12	64.10	-53.8	-58.1	3.7	0.00e+00	0	51	104	0	78	24727
2026-01-17 07:54:28.85	158.89	65.03	-52.8	-57.6	3.7	0.00e+00	0	51	104	0	77	24597
2026-01-17 07:54:29.66	158.74	65.63	-53.2	-57.8	3.7	0.00e+00	0	51	104	0	77	25120
2026-01-17 07:54:31.09	158.45	66.71	-53.8	-58.3	3.7	0.00e+00	0	51	104	0	78	25103
2026-01-17 07:54:31.80	158.30	67.24	-53.7	-58.3	3.7	0.00e+00	0	51	104	0	78	25112
2026-01-17 07:54:33.08	158.00	68.22	-53.3	-57.6	3.7	0.00e+00	0	51	104	0	78	23406
2026-01-17 07:54:33.81	157.81	68.78	-53.1	-57.3	3.7	0.00e+00	0	51	104	0	78	22556
2026-01-17 07:54:35.09	157.46	69.78	-53.5	-57.5	3.7	0.00e+00	0	51	104	0	78	23140
2026-01-17 07:54:35.80	157.25	70.33	-53.7	-57.8	3.7	0.00e+00	0	51	104	0	78	23847
2026-01-17 07:54:37.08	156.83	71.34	-53.8	-58.0	3.7	0.00e+00	0	51	104	0	78	24486
2026-01-17 07:54:37.79	156.57	71.91	-53.7	-57.8	3.7	0.00e+00	0	51	104	0	78	23893
2026-01-17 07:54:39.07	156.07	72.93	-53.7	-57.8	3.7	0.00e+00	0	51	104	0	78	23825
2026-01-17 07:54:39.78	155.76	73.51	-53.5	-57.4	3.7	0.00e+00	0	51	104	0	78	22858
2026-01-17 07:54:41.06	155.15	74.55	-53.7	-58.0	3.7	0.00e+00	0	51	104	0	78	24338
2026-01-17 07:54:41.99	154.64	75.30	-53.4	-57.7	3.7	0.00e+00	0	51	104	0	78	23575
2026-01-17 07:54:42.99	154.03	76.12	-53.3	-57.8	3.7	0.00e+00	0	51	104	0	78	23918
2026-01-17 07:54:43.98	153.35	76.94	-53.4	-57.4	3.7	0.00e+00	0	51	104	0	78	22810
2026-01-17 07:54:44.98	152.57	77.77	-53.3	-57.1	3.7	0.00e+00	0	51	104	0	78	22108
2026-01-17 07:54:45.97	151.68	78.58	-53.3	-57.3	3.7	0.00e+00	0	51	104	0	78	22372
2026-01-17 07:54:46.97	150.63	79.41	-53.5	-57.7	3.7	0.00e+00	0	51	104	0	78	23492
2026-01-17 07:54:47.96	149.42	80.23	-53.6	-58.0	3.7	0.00e+00	0	51	104	0	78	24427
2026-01-17 07:54:48.96	147.96	81.06	-53.9	-58.3	3.7	0.00e+00	0	51	104	0	78	25356
2026-01-17 07:54:49.95	146.22	81.88	-53.9	-58.3	3.7	0.00e+00	0	51	104	0	78	25165
2026-01-17 07:54:50.98	144.00	82.72	-53.7	-58.3	3.7	0.00e+00	0	51	104	0	78	25297
2026-01-17 07:54:51.99	141.24	83.53	-53.3	-58.2	3.7	0.00e+00	0	51	104	0	78	24829
2026-01-17 07:54:52.99	137.74	84.32	-53.7	-58.4	3.7	0.00e+00	0	51	104	0	78	25465
2026-01-17 07:54:53.98	133.17	85.08	-53.1	-57.9	3.7	0.00e+00	0	51	104	0	78	24082
2026-01-17 07:54:54.98	126.92	85.80	-52.8	-57.5	3.7	0.00e+00	0	51	104	0	77	24290
2026-01-17 07:54:55.97	118.31	86.45	-53.4	-57.8	3.7	0.00e+00	0	51	104	0	77	25102
2026-01-17 07:54:56.96	106.27	86.99	-52.5	-57.2	3.7	0.00e+00	0	51	104	0	76	24998
2026-01-17 07:54:58.18	85.84	87.38	-52.9	-57.4	3.7	0.00e+00	0	51	104	0	76	25508
2026-01-17 07:54:59.03	69.30	87.42	-53.1	-57.4	3.7	0.00e+00	0	51	104	0	76	25436
2026-01-17 07:55:00.17	48.78	87.15	-53.4	-57.6	3.7	0.00e+00	0	51	104	0	77	24574
2026-01-17 07:55:01.13	35.48	86.70	-53.3	-57.6	3.7	0.00e+00	0	51	104	0	77	24640
2026-01-17 07:55:02.13	25.45	86.08	-53.6	-58.0	3.7	0.00e+00	0	51	104	0	77	25779
2026-01-17 07:55:03.31	17.23	85.26	-53.8	-58.1	3.7	0.00e+00	0	51	104	0	78	24765
2026-01-17 07:55:04.20	12.77	84.58	-53.6	-58.0	3.7	0.00e+00	0	51	104	0	78	24372
2026-01-17 07:55:05.51	7.95	83.56	-53.4	-57.8	3.7	0.00e+00	0	51	104	0	78	23923
2026-01-17 07:55:06.22	5.93	82.98	-53.4	-57.9	3.7	0.00e+00	0	51	104	0	78	23999
2026-01-17 07:55:07.50	3.04	81.94	-53.8	-58.1	3.7	0.00e+00	0	51	104	0	78	24705
2026-01-17 07:55:08.22	1.72	81.35	-53.7	-58.2	3.7	0.00e+00	0	51	104	0	78	24908
2026-01-17 07:55:09.50	359.78	80.29	-53.9	-58.2	3.7	0.00e+00	0	51	104	0	78	25062
2026-01-17 07:55:10.24	358.85	79.68	-53.9	-58.2	3.7	0.00e+00	0	51	104	0	78	25013
2026-01-17 07:55:11.52	357.47	78.62	-53.6	-58.2	3.7	0.00e+00	0	51	104	0	78	24998
2026-01-17 07:55:12.24	356.81	78.02	-53.5	-58.1	3.7	0.00e+00	0	51	104	0	78	24782
2026-01-17 07:55:13.52	355.78	76.97	-53.9	-58.3	3.7	0.00e+00	0	51	104	0	78	25317
2026-01-17 07:55:14.26	355.27	76.36	-54.0	-58.3	3.7	0.00e+00	0	51	104	0	78	25306
2026-01-17 07:55:15.54	354.47	75.31	-54.1	-58.5	3.7	0.00e+00	0	51	104	0	78	25810
2026-01-17 07:55:16.25	354.08	74.73	-54.0	-58.5	3.7	0.00e+00	0	51	104	0	78	25801
2026-01-17 07:55:17.54	353.45	73.69	-53.8	-58.4	3.7	0.00e+00	0	51	104	0	78	25659
2026-01-17 07:55:18.25	353.13	73.11	-53.8	-58.4	3.7	0.00e+00	0	51	104	0	78	25590
2026-01-17 07:55:19.53	352.62	72.09	-54.0	-58.5	3.7	0.00e+00	0	51	104	0	78	25711
2026-01-17 07:55:20.26	352.36	71.51	-53.8	-58.4	3.7	0.00e+00	0	51	104	0	78	25460
2026-01-17 07:55:21.64	351.90	70.42	-54.1	-58.5	3.7	0.00e+00	0	51	104	0	78	25816
2026-01-17 07:55:22.36	351.68	69.86	-54.1	-58.5	3.7	0.00e+00	0	51	104	0	78	25783
2026-01-17 07:55:23.63	351.33	68.87	-53.8	-58.4	3.7	0.00e+00	0	51	104	0	78	25657
2026-01-17 07:55:24.67	351.07	68.07	-53.9	-58.5	3.7	0.00e+00	0	51	104	0	78	25751
2026-01-17 07:55:25.95	350.77	67.10	-54.0	-58.5	3.7	0.00e+00	0	51	104	0	78	25773
2026-01-17 07:55:26.70	350.61	66.53	-53.9	-58.5	3.7	0.00e+00	0	51	104	0	78	25717
2026-01-17 07:55:28.27	350.30	65.37	-53.2	-58.1	3.7	0.00e+00	0	51	104	0	78	24777
2026-01-17 07:55:28.90	350.19	64.90	-53.6	-58.4	3.7	0.00e+00	0	51	104	0	78	25400
2026-01-17 07:55:30.44	349.93	63.78	-53.8	-58.4	3.7	0.00e+00	0	51	104	0	78	25587
2026-01-17 07:55:31.15	349.81	63.27	-53.8	-58.4	3.7	0.00e+00	0	51	104	0	78	25622
2026-01-17 07:55:32.43	349.62	62.36	-53.2	-58.1	3.7	0.00e+00	0	52	104	0	78	24537
2026-01-17 07:55:33.17	349.52	61.84	-54.0	-58.4	3.7	0.00e+00	0	51	104	0	78	25457
2026-01-17 07:55:34.47	349.35	60.93	-53.9	-58.4	3.7	0.00e+00	0	51	104	0	78	25451
2026-01-17 07:55:35.18	349.26	60.44	-53.1	-58.0	3.7	0.00e+00	0	51	104	0	78	24298
2026-01-17 07:55:36.52	349.10	59.53	-53.6	-58.2	3.7	0.00e+00	0	51	104	0	77	26518
2026-01-17 07:55:37.23	349.02	59.06	-53.5	-58.2	3.7	0.00e+00	0	51	104	0	77	26286
2026-01-17 07:55:38.50	348.89	58.21	-53.1	-58.0	3.7	0.00e+00	0	51	104	0	77	25708
2026-01-17 07:55:39.21	348.82	57.75	-53.5	-58.2	3.7	0.00e+00	0	51	104	0	77	26527
2026-01-17 07:55:40.49	348.70	56.92	-53.9	-58.4	3.7	0.00e+00	0	51	104	0	78	25658
2026-01-17 07:55:41.22	348.63	56.45	-53.9	-58.4	3.7	0.00e+00	0	51	104	0	78	25577
2026-01-17 07:55:42.50	348.52	55.64	-53.7	-58.2	3.7	0.00e+00	0	51	104	0	78	25069
2026-01-17 07:55:43.21	348.46	55.20	-53.7	-58.3	3.7	0.00e+00	0	51	104	0	78	25128
2026-01-17 07:55:44.49	348.36	54.41	-53.6	-58.3	3.7	0.00e+00	0	51	104	0	78	25111
2026-01-17 07:55:45.20	348.31	53.98	-53.6	-58.2	3.7	0.00e+00	0	51	104	0	78	24819
2026-01-17 07:55:46.48	348.22	53.21	-53.5	-58.2	3.7	0.00e+00	0	51	104	0	78	24955
2026-01-17 07:55:47.19	348.17	52.79	-53.2	-57.9	3.7	0.00e+00	0	51	104	0	78	24215
2026-01-17 07:55:48.47	348.09	52.04	-53.4	-58.1	3.7	0.00e+00	0	51	104	0	78	24760
2026-01-17 07:55:49.18	348.04	51.63	-53.3	-58.1	3.7	0.00e+00	0	51	104	0	78	24553
2026-01-17 07:55:50.45	347.96	50.91	-53.8	-58.3	3.7	0.00e+00	0	52	104	0	78	25278
2026-01-17 07:55:51.18	347.92	50.50	-53.9	-58.4	3.7	0.00e+00	0	51	104	0	78	25608
2026-01-17 07:55:52.48	347.85	49.77	-53.8	-58.3	3.7	0.00e+00	0	51	104	0	78	25347
2026-01-17 07:55:53.19	347.81	49.39	-53.8	-58.4	3.7	0.00e+00	0	51	104	0	78	25415
2026-01-17 07:55:54.54	347.74	48.66	-53.5	-58.2	3.7	0.00e+00	0	51	104	0	78	25068
2026-01-17 07:55:55.25	347.71	48.28	-53.4	-58.1	3.7	0.00e+00	0	51	104	0	78	24640
2026-01-17 07:55:56.58	347.64	47.58	-53.6	-58.2	3.7	0.00e+00	0	51	104	0	78	24954
2026-01-17 07:55:57.29	347.61	47.22	-53.6	-58.2	3.7	0.00e+00	0	51	104	0	78	24872
2026-01-17 07:55:58.63	347.55	46.53	-53.7	-58.3	3.7	0.00e+00	0	51	104	0	78	25097
2026-01-17 07:55:59.35	347.52	46.17	-53.7	-58.3	3.7	0.00e+00	0	51	104	0	78	25116
2026-01-17 07:56:00.62	347.47	45.54	-53.5	-58.1	3.7	0.00e+00	0	51	104	0	78	24627
2026-01-17 07:56:01.68	347.43	45.02	-52.8	-57.7	3.7	0.00e+00	0	51	104	0	77	25086
2026-01-17 07:56:02.85	347.38	44.46	-52.3	-57.6	3.7	0.00e+00	0	51	104	0	76	26092
2026-01-17 07:56:03.70	347.35	44.06	-53.1	-58.0	3.7	0.00e+00	0	52	104	0	76	27433
2026-01-17 07:56:04.84	347.31	43.52	-52.8	-57.8	3.7	0.00e+00	0	51	104	0	77	25359
2026-01-17 07:56:05.69	347.28	43.13	-53.5	-58.2	3.7	0.00e+00	0	51	104	0	77	26580
2026-01-17 07:56:06.83	347.25	42.61	-53.7	-58.4	3.7	0.00e+00	0	51	104	0	78	25397
2026-01-17 07:56:07.68	347.22	42.23	-53.4	-58.2	3.7	0.00e+00	0	51	104	0	78	24861
2026-01-17 07:56:08.82	347.18	41.72	-53.6	-58.2	3.7	0.00e+00	0	51	104	0	78	25010
2026-01-17 07:56:09.67	347.16	41.35	-52.9	-57.8	3.7	0.00e+00	0	51	104	0	77	25352
2026-01-17 07:56:10.81	347.12	40.86	-53.1	-58.0	3.7	0.00e+00	0	51	104	0	77	25843
2026-01-17 07:56:11.66	347.10	40.50	-53.8	-58.4	3.7	0.00e+00	0	51	104	0	78	25482
2026-01-17 07:56:12.91	347.07	39.98	-53.6	-58.3	3.7	0.00e+00	0	51	104	0	78	25178
2026-01-17 07:56:13.76	347.04	39.62	-53.8	-58.3	3.7	0.00e+00	0	51	104	0	78	25379
2026-01-17 07:56:14.98	347.01	39.13	-53.6	-58.2	3.7	0.00e+00	0	51	104	0	78	24857
2026-01-17 07:56:15.83	346.99	38.78	-53.7	-58.2	3.7	0.00e+00	0	51	104	0	78	24951
2026-01-17 07:56:16.97	346.96	38.33	-53.8	-58.4	3.7	0.00e+00	0	51	104	0	78	25420
2026-01-17 07:56:17.82	346.94	38.00	-53.5	-58.2	3.7	0.00e+00	0	51	104	0	78	25036
2026-01-17 07:56:18.96	346.92	37.56	-52.5	-57.5	3.7	0.00e+00	0	51	104	0	77	24415
2026-01-17 07:56:19.81	346.90	37.24	-52.2	-57.4	3.7	0.00e+00	0	51	104	0	76	25488
2026-01-17 07:56:20.94	346.87	36.81	-52.3	-57.3	3.7	0.00e+00	0	51	104	0	76	25380
2026-01-17 07:56:21.80	346.86	36.49	-52.3	-57.4	3.7	0.00e+00	0	51	104	0	76	25596
2026-01-17 07:56:22.94	346.83	36.07	-52.7	-57.7	3.7	0.00e+00	0	51	104	0	76	26342
2026-01-17 07:56:23.79	346.82	35.77	-53.1	-57.8	3.7	0.00e+00	0	51	104	0	76	26876
2026-01-17 07:56:24.92	346.79	35.36	-53.4	-58.0	3.7	0.00e+00	0	51	104	0	77	25757
2026-01-17 07:56:26.03	346.77	34.97	-53.4	-57.9	3.7	0.00e+00	0	51	104	0	77	25612
2026-01-17 07:56:26.88	346.76	34.68	-53.2	-57.8	3.7	0.00e+00	0	51	104	0	77	25259
2026-01-17 07:56:28.02	346.74	34.29	-53.1	-57.9	3.7	0.00e+00	0	51	104	0	77	25387
2026-01-17 07:56:28.87	346.72	34.00	-52.5	-57.5	3.7	0.00e+00	0	51	104	0	77	24386
2026-01-17 07:56:30.01	346.70	33.62	-53.2	-57.9	3.7	0.00e+00	0	51	104	0	77	25435
2026-01-17 07:56:30.86	346.69	33.34	-52.2	-57.4	3.7	0.00e+00	0	51	104	0	76	25480
2026-01-17 07:56:32.00	346.67	32.96	-51.7	-57.1	3.7	0.00e+00	0	52	104	0	75	26006
2026-01-17 07:56:32.85	346.66	32.69	-52.7	-57.7	3.7	0.00e+00	0	51	104	0	75	27924
2026-01-17 07:56:33.99	346.64	32.33	-51.8	-57.2	3.7	0.00e+00	0	52	104	0	75	26334
2026-01-17 07:56:34.84	346.63	32.06	-52.1	-57.4	3.7	0.00e+00	0	51	104	0	75	27012
2026-01-17 07:56:35.98	346.61	31.71	-52.6	-57.6	3.7	0.00e+00	0	51	104	0	75	27634
2026-01-17 07:56:36.83	346.60	31.45	-52.9	-57.8	3.7	0.00e+00	0	51	104	0	76	26688
2026-01-17 07:56:37.97	346.59	31.10	-53.1	-57.8	3.7	0.00e+00	0	51	104	0	76	26651
2026-01-17 07:56:38.82	346.58	30.85	-52.9	-57.6	3.7	0.00e+00	0	52	104	0	76	26183
2026-01-17 07:56:40.10	346.56	30.47	-52.7	-57.5	3.7	0.00e+00	0	51	104	0	76	25826
2026-01-17 07:56:40.83	346.55	30.26	-53.5	-58.1	3.7	0.00e+00	0	51	104	0	77	25998
2026-01-17 07:56:42.11	346.53	29.89	-53.4	-58.0	3.7	0.00e+00	0	51	104	0	77	25818
2026-01-17 07:56:42.82	346.53	29.69	-53.2	-57.7	3.7	0.00e+00	0	52	104	0	77	24978
2026-01-17 07:56:44.10	346.51	29.33	-52.1	-57.1	3.7	0.00e+00	0	52	104	0	76	24540
2026-01-17 07:56:44.84	346.50	29.12	-53.0	-57.7	3.7	0.00e+00	0	51	104	0	76	26497
2026-01-17 07:56:46.12	346.49	28.77	-52.7	-57.5	3.7	0.00e+00	0	51	104	0	76	25797
2026-01-17 07:56:46.88	346.48	28.57	-52.3	-57.2	3.7	0.00e+00	0	51	104	0	76	24925
2026-01-17 07:56:48.16	346.47	28.22	-52.1	-57.0	3.7	0.00e+00	0	52	104	0	76	24454
2026-01-17 07:56:48.87	346.46	28.03	-52.2	-57.1	3.7	0.00e+00	0	52	104	0	76	24720
2026-01-17 07:56:50.15	346.45	27.70	-52.6	-57.4	3.7	0.00e+00	0	51	104	0	76	25583
2026-01-17 07:56:50.87	346.44	27.51	-53.2	-57.7	3.7	0.00e+00	0	51	104	0	77	24930
2026-01-17 07:56:52.15	346.43	27.18	-53.7	-58.1	3.7	0.00e+00	0	51	104	0	78	24743
2026-01-17 07:56:53.07	346.42	26.95	-53.3	-57.7	3.7	0.00e+00	0	51	104	0	78	23531
2026-01-17 07:56:54.36	346.41	26.63	-52.3	-57.2	3.7	0.00e+00	0	51	104	0	76	25008
2026-01-17 07:56:55.09	346.40	26.45	-52.4	-57.5	3.7	0.00e+00	0	51	104	0	76	25925
2026-01-17 07:56:56.36	346.39	26.14	-53.2	-57.7	3.7	0.00e+00	0	51	104	0	76	26303
2026-01-17 07:56:57.18	346.38	25.94	-53.2	-57.7	3.7	0.00e+00	0	51	104	0	77	25049
2026-01-17 07:56:58.60	346.37	25.60	-53.1	-57.7	3.7	0.00e+00	0	51	104	0	77	24982
2026-01-17 07:56:59.31	346.36	25.44	-53.0	-57.6	3.7	0.00e+00	0	51	104	0	77	24774
2026-01-17 07:57:00.59	346.35	25.14	-52.5	-57.4	3.7	0.00e+00	0	51	104	0	77	24018
2026-01-17 07:57:01.30	346.35	24.97	-52.2	-57.3	3.7	0.00e+00	0	51	104	0	76	25162
2026-01-17 07:57:02.58	346.34	24.68	-52.3	-57.3	3.7	0.00e+00	0	52	104	0	75	26684
2026-01-17 07:57:03.32	346.33	24.51	-52.7	-57.5	3.7	0.00e+00	0	51	104	0	76	25767
2026-01-17 07:57:04.60	346.33	24.23	-52.0	-57.3	3.7	0.00e+00	0	51	104	0	75	26697
2026-01-17 07:57:05.33	346.32	24.07	-52.5	-57.6	3.7	0.00e+00	0	51	104	0	75	27728
2026-01-17 07:57:06.61	346.31	23.79	-52.4	-57.5	3.7	0.00e+00	0	52	104	0	76	25913
2026-01-17 07:57:07.32	346.31	23.63	-52.0	-57.3	3.7	0.00e+00	0	51	104	0	75	26583
2026-01-17 07:57:08.61	346.30	23.36	-52.9	-57.9	3.7	0.00e+00	0	51	104	0	76	26897
2026-01-17 07:57:09.47	346.29	23.18	-53.3	-58.1	3.7	0.00e+00	0	51	104	0	77	26035
2026-01-17 07:57:10.60	346.29	22.94	-52.9	-57.9	3.7	0.00e+00	0	52	104	0	77	25427
2026-01-17 07:57:11.45	346.28	22.76	-52.3	-57.5	3.7	0.00e+00	0	51	104	0	76	25696
2026-01-17 07:57:12.59	346.27	22.53	-51.6	-57.0	3.7	0.00e+00	0	51	104	0	75	25731
2026-01-17 07:57:13.44	346.27	22.36	-51.2	-56.8	3.7	0.00e+00	0	52	104	0	74	26724
2026-01-17 07:57:14.58	346.26	22.13	-51.1	-56.8	3.7	0.00e+00	0	51	104	0	74	26690
2026-01-17 07:57:15.43	346.26	21.96	-51.6	-57.2	3.7	0.00e+00	0	51	104	0	74	27879
2026-01-17 07:57:16.57	346.25	21.73	-52.7	-57.7	3.7	0.00e+00	0	52	104	0	76	26421
2026-01-17 07:57:17.42	346.25	21.56	-52.9	-57.7	3.7	0.00e+00	0	52	104	0	77	25074
2026-01-17 07:57:18.56	346.24	21.34	-51.1	-56.8	3.7	0.00e+00	0	51	104	0	73	28318
2026-01-17 07:57:19.41	346.24	21.18	-51.5	-57.0	3.7	0.00e+00	0	52	104	0	73	28864
2026-01-17 07:57:20.55	346.23	20.96	-52.0	-57.3	3.7	0.00e+00	0	52	104	0	74	28289
2026-01-17 07:57:21.40	346.23	20.80	-52.8	-57.7	3.7	0.00e+00	0	52	104	0	76	26358
2026-01-17 07:57:22.54	346.22	20.59	-53.3	-57.9	3.7	0.00e+00	0	51	104	0	77	25485
2026-01-17 07:57:23.39	346.22	20.43	-53.3	-57.7	3.7	0.00e+00	0	51	104	0	77	25032
2026-01-17 07:57:24.53	346.22	20.22	-52.0	-57.1	3.7	0.00e+00	0	52	104	0	76	24539
2026-01-17 07:57:25.38	346.21	20.07	-52.7	-57.4	3.7	0.00e+00	0	51	104	0	76	25390
2026-01-17 07:57:26.52	346.21	19.87	-52.7	-57.4	3.7	0.00e+00	0	51	104	0	76	25608
2026-01-17 07:57:27.37	346.20	19.71	-53.2	-57.8	3.7	0.00e+00	0	51	104	0	77	25315
2026-01-17 07:57:28.51	346.20	19.51	-52.9	-57.3	3.7	0.00e+00	0	51	104	0	77	23902
2026-01-17 07:57:29.36	346.20	19.36	-52.9	-57.3	3.7	0.00e+00	0	51	104	0	77	23726
2026-01-17 07:57:30.50	346.19	19.17	-52.4	-56.9	3.7	0.00e+00	0	51	104	0	76	24156
2026-01-17 07:57:31.35	346.19	19.02	-52.0	-56.7	3.7	0.00e+00	0	51	104	0	76	23532
2026-01-17 07:57:32.49	346.19	18.83	-51.4	-56.3	3.7	0.00e+00	0	51	104	0	74	25124
2026-01-17 07:57:33.34	346.18	18.68	-51.4	-56.2	3.7	0.00e+00	0	51	104	0	74	25081
2026-01-17 07:57:34.47	346.18	18.49	-51.8	-56.5	3.7	0.00e+00	0	52	104	0	75	24471
2026-01-17 07:57:35.33	346.18	18.35	-51.6	-56.4	3.7	0.00e+00	0	51	104	0	74	25527
2026-01-17 07:57:36.47	346.17	18.16	-52.7	-57.1	3.7	0.00e+00	0	51	104	0	76	24703
2026-01-17 07:57:37.32	346.17	18.02	-52.5	-56.9	3.7	0.00e+00	0	51	104	0	76	23969
2026-01-17 07:57:38.61	346.17	17.82	-52.4	-56.8	3.7	0.00e+00	0	51	104	0	76	23749
2026-01-17 07:57:39.32	346.16	17.70	-52.1	-56.6	3.7	0.00e+00	0	51	104	0	76	23339
2026-01-17 07:57:40.60	346.16	17.50	-51.4	-56.2	3.7	0.00e+00	0	51	104	0	74	25019
2026-01-17 07:57:41.33	346.16	17.38	-50.9	-55.9	3.7	0.00e+00	0	52	104	0	73	25493
2026-01-17 07:57:42.61	346.16	17.18	-50.3	-55.5	3.7	0.00e+00	0	51	104	0	72	25941
2026-01-17 07:57:43.33	346.15	17.07	-50.4	-55.6	3.7	0.00e+00	0	51	104	0	72	26060
2026-01-17 07:57:44.61	346.15	16.88	-49.5	-55.0	3.7	0.00e+00	0	51	104	0	70	27215
2026-01-17 07:57:45.33	346.15	16.77	-49.6	-55.1	3.7	0.00e+00	0	52	104	0	70	27751
2026-01-17 07:57:46.61	346.15	16.57	-49.6	-55.1	3.7	0.00e+00	0	51	104	0	71	26219
2026-01-17 07:57:47.33	346.14	16.46	-49.7	-55.1	3.7	0.00e+00	0	51	104	0	71	26263
2026-01-17 07:57:48.61	346.14	16.27	-50.0	-55.4	3.7	0.00e+00	0	51	104	0	71	26900
2026-01-17 07:57:49.34	346.14	16.17	-50.4	-55.6	3.7	0.00e+00	0	51	104	0	71	27795
2026-01-17 07:57:50.61	346.14	15.98	-51.0	-56.0	3.7	0.00e+00	0	51	104	0	72	27268
2026-01-17 07:57:51.33	346.14	15.87	-50.9	-55.8	3.7	0.00e+00	0	51	104	0	72	26873
2026-01-17 07:57:52.61	346.13	15.69	-51.7	-56.3	3.7	0.00e+00	0	51	104	0	74	25189
2026-01-17 07:57:53.32	346.13	15.59	-51.2	-55.9	3.7	0.00e+00	0	51	104	0	74	24193
2026-01-17 07:57:54.66	346.13	15.40	-51.6	-56.5	3.7	0.00e+00	0	51	104	0	74	25804
2026-01-17 07:57:55.37	346.13	15.30	-51.5	-56.4	3.7	0.00e+00	0	51	104	0	74	25569
2026-01-17 07:57:56.74	346.13	15.11	-51.3	-56.3	3.7	0.00e+00	0	51	104	0	74	25332
2026-01-17 07:57:57.45	346.13	15.01	-51.1	-56.2	3.7	0.00e+00	0	52	104	0	74	24883
2026-01-17 07:57:58.73	346.12	14.83	-50.5	-55.8	3.7	0.00e+00	0	51	104	0	73	25362
2026-01-17 07:57:59.44	346.12	14.73	-50.3	-55.6	3.7	0.00e+00	0	51	104	0	72	26247
2026-01-17 07:58:00.71	346.12	14.56	-50.3	-56.1	3.7	0.00e+00	0	51	104	0	72	27602
2026-01-17 07:58:01.44	346.12	14.46	-50.3	-55.9	3.7	0.00e+00	0	52	104	0	72	27177
2026-01-17 07:58:02.72	346.12	14.29	-51.6	-57.1	3.7	0.00e+00	0	52	104	0	73	29253
2026-01-17 07:58:03.45	346.12	14.20	-51.3	-56.9	3.7	0.00e+00	0	51	104	0	74	27075
2026-01-17 07:58:04.72	346.12	14.03	-50.5	-56.0	3.7	0.00e+00	0	51	104	0	72	27258
2026-01-17 07:58:05.45	346.11	13.93	-50.8	-56.3	3.7	0.00e+00	0	51	104	0	72	28417
2026-01-17 07:58:06.73	346.11	13.77	-51.1	-56.7	3.7	0.00e+00	0	51	104	0	72	29772
2026-01-17 07:58:07.45	346.11	13.67	-51.1	-56.8	3.7	0.00e+00	0	51	104	0	73	28372
2026-01-17 07:58:08.73	346.11	13.51	-51.4	-57.0	3.7	0.00e+00	0	51	104	0	73	28993
2026-01-17 07:58:09.53	346.11	13.41	-51.4	-57.0	3.7	0.00e+00	0	52	104	0	73	29140
2026-01-17 07:58:10.67	346.11	13.26	-50.7	-56.4	3.7	0.00e+00	0	51	104	0	73	27055
2026-01-17 07:58:11.70	346.11	13.13	-50.0	-56.0	3.7	0.00e+00	0	51	104	0	72	27355
2026-01-17 07:58:12.85	346.11	12.99	-51.0	-56.7	3.7	0.00e+00	0	51	104	0	72	29742
2026-01-17 07:58:13.72	346.11	12.88	-50.4	-56.1	3.7	0.00e+00	0	51	104	0	72	27794
2026-01-17 07:58:15.03	346.11	12.72	-50.6	-56.4	3.7	0.00e+00	0	52	104	0	72	28573
2026-01-17 07:58:15.74	346.11	12.64	-50.7	-56.5	3.7	0.00e+00	0	52	104	0	72	28922
2026-01-17 07:58:17.02	346.11	12.48	-51.0	-56.7	3.7	0.00e+00	0	51	104	0	72	29730
2026-01-17 07:58:17.75	346.10	12.39	-51.0	-56.7	3.7	0.00e+00	0	51	104	0	72	29742
2026-01-17 07:58:19.03	346.10	12.24	-51.3	-56.8	3.7	0.00e+00	0	51	104	0	73	28336
2026-01-17 07:58:19.74	346.10	12.16	-50.6	-56.3	3.7	0.00e+00	0	51	104	0	73	26706
2026-01-17 07:58:21.02	346.10	12.01	-50.8	-56.6	3.7	0.00e+00	0	51	104	0	72	29245
2026-01-17 07:58:21.75	346.10	11.92	-51.4	-56.9	3.7	0.00e+00	0	51	104	0	73	28498
2026-01-17 07:58:23.02	346.10	11.77	-51.2	-56.8	3.7	0.00e+00	0	52	104	0	74	26670
2026-01-17 07:58:23.73	346.10	11.69	-51.1	-56.7	3.7	0.00e+00	0	52	104	0	74	26475
2026-01-17 07:58:25.01	346.10	11.54	-51.1	-56.7	3.7	0.00e+00	0	52	104	0	74	26570
2026-01-17 07:58:25.74	346.10	11.46	-50.9	-56.6	3.7	0.00e+00	0	51	104	0	73	27560
2026-01-17 07:58:27.02	346.10	11.31	-48.1	-54.6	3.8	0.00e+00	0	52	104	0	68	29444
2026-01-17 07:58:27.76	346.10	11.23	-49.4	-55.5	3.7	0.00e+00	0	52	104	0	69	30589
2026-01-17 07:58:29.07	346.10	11.08	-48.6	-54.9	3.8	0.00e+00	0	51	104	0	69	28804
2026-01-17 07:58:30.03	346.10	10.98	-48.3	-54.8	3.8	0.00e+00	0	51	104	0	68	30146
2026-01-17 07:58:31.03	346.10	10.87	-49.3	-55.4	3.7	0.00e+00	0	51	104	0	69	30466
2026-01-17 07:58:32.02	346.10	10.76	-48.3	-54.7	3.8	0.00e+00	0	51	104	0	68	29562
2026-01-17 07:58:33.02	346.10	10.65	-48.3	-54.9	3.7	0.00e+00	0	51	104	0	68	30291
2026-01-17 07:58:34.01	346.10	10.54	-48.3	-54.9	3.7	0.00e+00	0	51	104	0	68	30433
2026-01-17 07:58:35.00	346.10	10.43	-48.2	-54.8	3.8	0.00e+00	0	52	104	0	68	30072
2026-01-17 07:58:36.00	346.10	10.33	-48.1	-54.7	3.8	0.00e+00	0	51	104	0	68	29656
2026-01-17 07:58:36.99	346.10	10.22	-46.8	-53.3	3.9	0.00e+00	0	52	104	0	65	30091
2026-01-17 07:58:37.99	346.10	10.11	-47.8	-54.4	3.8	0.00e+00	0	52	104	0	66	32079
2026-01-17 07:58:38.98	346.10	10.01	-48.1	-54.7	3.8	0.00e+00	0	51	104	0	67	31383
2026-01-17 07:58:40.18	346.10	9.88	-46.6	-53.3	3.9	0.00e+00	0	52	104	0	65	29890
2026-01-17 07:58:41.03	346.10	9.79	-48.2	-54.8	3.7	0.00e+00	0	51	104	0	67	31705
2026-01-17 07:58:42.17	346.10	9.68	-46.6	-53.2	3.9	0.00e+00	0	51	104	0	65	29742
2026-01-17 07:58:43.02	346.10	9.59	-46.7	-53.3	3.9	0.00e+00	0	51	104	0	65	30093
2026-01-17 07:58:44.49	346.11	9.44	-46.8	-53.4	3.9	0.00e+00	0	51	104	0	65	30273
2026-01-17 07:58:45.20	346.11	9.37	-46.8	-53.4	3.9	0.00e+00	0	51	104	0	65	30396
2026-01-17 07:58:46.48	346.11	9.24	-46.8	-53.4	3.9	0.00e+00	0	52	104	0	65	30248
2026-01-17 07:58:47.22	346.11	9.16	-46.8	-53.4	3.9	0.00e+00	0	52	104	0	65	30274
2026-01-17 07:58:48.50	346.11	9.03	-46.3	-53.0	3.9	0.00e+00	0	51	104	0	64	30576
2026-01-17 07:58:49.21	346.11	8.96	-48.1	-54.4	3.7	0.00e+00	0	51	104	0	66	32008
2026-01-17 07:58:50.49	346.11	8.84	-51.4	-57.1	3.7	0.00e+00	0	52	104	0	73	29213
2026-01-17 07:58:51.20	346.11	8.77	-52.2	-57.4	3.7	0.00e+00	0	52	104	0	76	25592
2026-01-17 07:58:52.48	346.11	8.64	-51.6	-57.0	3.7	0.00e+00	0	51	104	0	75	25830
2026-01-17 07:58:53.20	346.11	8.57	-50.8	-56.3	3.7	0.00e+00	0	52	104	0	73	26733
2026-01-17 07:58:54.48	346.11	8.45	-52.7	-57.0	3.7	0.00e+00	0	51	104	0	76	24275
2026-01-17 07:58:55.19	346.11	8.38	-53.4	-57.9	3.7	0.00e+00	0	52	104	0	77	25423
2026-01-17 07:58:56.46	346.11	8.25	-53.4	-58.2	3.7	0.00e+00	0	52	104	0	77	26293
2026-01-17 07:58:57.17	346.11	8.19	-52.4	-57.6	3.7	0.00e+00	0	51	104	0	77	24792
2026-01-17 07:58:58.45	346.12	8.07	-53.9	-58.5	3.7	0.00e+00	0	52	104	0	78	25733
2026-01-17 07:58:59.16	346.12	8.00	-53.8	-58.4	3.7	0.00e+00	0	51	104	0	78	25604
2026-01-17 07:59:00.44	346.12	7.88	-53.4	-57.5	3.7	0.00e+00	0	52	104	0	77	24455
2026-01-17 07:59:01.16	346.12	7.81	-53.2	-57.4	3.7	0.00e+00	0	51	104	0	77	24075
2026-01-17 07:59:02.44	346.12	7.69	-53.4	-58.1	3.7	0.00e+00	0	52	104	0	78	24778
2026-01-17 07:59:03.15	346.12	7.62	-53.7	-58.2	3.7	0.00e+00	0	51	104	0	78	25017
2026-01-17 07:59:04.44	346.12	7.51	-53.3	-58.0	3.7	0.00e+00	0	52	104	0	78	24399
2026-01-17 07:59:05.15	346.12	7.44	-53.4	-58.3	3.7	0.00e+00	0	52	104	0	78	25106
2026-01-17 07:59:06.43	346.12	7.32	-54.0	-58.5	3.7	0.00e+00	0	52	104	0	78	25716
2026-01-17 07:59:07.14	346.12	7.26	-53.4	-58.2	3.7	0.00e+00	0	52	104	0	78	25013
2026-01-17 07:59:08.42	346.13	7.14	-53.9	-58.5	3.7	0.00e+00	0	51	104	0	78	25874
2026-01-17 07:59:09.13	346.13	7.08	-54.1	-58.6	3.6	0.00e+00	0	51	104	0	79	24771
2026-01-17 07:59:10.40	346.13	6.97	-54.2	-58.6	3.7	0.00e+00	0	52	104	0	79	24748
2026-01-17 07:59:11.11	346.13	6.90	-54.1	-58.5	3.7	0.00e+00	0	52	104	0	79	24364
2026-01-17 07:59:12.39	346.13	6.79	-54.0	-58.4	3.7	0.00e+00	0	51	104	0	79	24058
2026-01-17 07:59:13.10	346.13	6.73	-53.8	-58.2	3.7	0.00e+00	0	51	104	0	79	23559
2026-01-17 07:59:14.38	346.13	6.61	-53.7	-57.9	3.7	0.00e+00	0	51	104	0	79	22665
2026-01-17 07:59:15.09	346.13	6.55	-53.6	-57.8	3.7	0.00e+00	0	51	104	0	78	23856
2026-01-17 07:59:16.36	346.13	6.44	-53.0	-57.4	3.7	0.00e+00	0	52	104	0	78	22853
2026-01-17 07:59:17.07	346.14	6.38	-53.0	-57.4	3.7	0.00e+00	0	52	104	0	78	22802
2026-01-17 07:59:18.35	346.14	6.27	-53.0	-57.4	3.7	0.00e+00	0	51	104	0	78	22805
2026-01-17 07:59:19.06	346.14	6.21	-53.0	-57.4	3.7	0.00e+00	0	51	104	0	78	22722
2026-01-17 07:59:20.34	346.14	6.10	-53.0	-57.4	3.7	0.00e+00	0	51	104	0	78	22743
2026-01-17 07:59:21.05	346.14	6.04	-53.0	-57.4	3.7	0.00e+00	0	51	104	0	78	22807
2026-01-17 07:59:22.32	346.14	5.93	-53.0	-57.4	3.7	0.00e+00	0	51	104	0	78	22757
2026-01-17 07:59:23.03	346.14	5.87	-53.0	-57.4	3.7	0.00e+00	0	51	104	0	78	22721
2026-01-17 07:59:24.31	346.15	5.76	-53.0	-57.4	3.7	0.00e+00	0	52	104	0	78	22724
2026-01-17 07:59:25.02	346.15	5.70	-53.0	-57.4	3.7	0.00e+00	0	51	104	0	78	22734
2026-01-17 07:59:26.30	346.15	5.59	-53.0	-57.4	3.7	0.00e+00	0	51	104	0	78	22798
2026-01-17 07:59:27.02	346.15	5.53	-53.0	-57.4	3.7	0.00e+00	0	52	104	0	78	22771
2026-01-17 07:59:28.30	346.15	5.43	-53.0	-57.4	3.7	0.00e+00	0	51	104	0	78	22781
2026-01-17 07:59:29.01	346.15	5.37	-53.0	-57.4	3.7	0.00e+00	0	51	104	0	78	22732
2026-01-17 07:59:30.29	346.15	5.27	-53.0	-57.4	3.7	0.00e+00	0	52	104	0	78	22778
2026-01-17 07:59:31.01	346.16	5.21	-53.0	-57.4	3.7	0.00e+00	0	52	104	0	78	22792
2026-01-17 07:59:32.29	346.16	5.10	-53.0	-57.4	3.7	0.00e+00	0	51	104	0	78	22670
2026-01-17 07:59:33.00	346.16	5.04	-53.0	-57.4	3.7	0.00e+00	0	51	104	0	78	22777
2026-01-17 07:59:34.28	346.16	4.94	-53.0	-57.4	3.7	0.00e+00	0	51	104	0	78	22721

#Closed at: 2026-01-17 07:59:34
#Recorded file [0 MB]: D:/Data/31040_260117_105027.dat