passes_logs/2026/01/17/T1/T1__20260117_025938_ZKF01_rec.log

#Pass ID: 20260117_025938_ZKF01
#Satellite: ZKF01
#Configuration: ZKF01
#almurnet v.1.7.20251203
#Start time: 2026-01-17 02:59:37

#Version: 2.0.20230620
#Station: T1
#Location: 37.570604 lon 55.790049 lat
#TLE: 1 61240U 24174C   25363.55210926  .00007200  00000-0  32855-3 0  9995
#TLE: 2 61240  97.4460   8.7269 0013178  79.4267 280.8452 15.20841105 69913

#Time	Az	El	Level	Level2	SNR	BER	BlckErr	Temp	State	Recorded	gain1	gain2
2026-01-17 02:59:37.96	33.35	4.98	-47.9	-49.8	3.7	0.00e+00	0	45	0	0	67	17888
2026-01-17 02:59:38.95	33.47	5.05	-47.9	-49.8	3.8	0.00e+00	0	45	104	0	66	18894
2026-01-17 02:59:39.94	33.60	5.11	-47.9	-49.8	3.8	0.00e+00	0	45	104	0	66	18974
2026-01-17 02:59:40.94	33.72	5.18	-47.9	-49.8	3.8	0.00e+00	0	45	104	0	66	18980
2026-01-17 02:59:41.93	33.84	5.24	-47.9	-49.8	3.8	0.00e+00	0	45	104	0	66	18944
2026-01-17 02:59:42.92	33.97	5.31	-47.9	-49.8	3.8	0.00e+00	0	45	104	0	66	18908
2026-01-17 02:59:43.92	34.09	5.37	-47.9	-49.8	3.8	0.00e+00	0	46	104	0	66	18927
2026-01-17 02:59:44.91	34.22	5.44	-47.8	-49.8	3.8	0.00e+00	0	46	104	0	66	18952
2026-01-17 02:59:45.90	34.34	5.50	-47.9	-49.8	3.8	0.00e+00	0	46	104	0	66	18910
2026-01-17 02:59:46.90	34.47	5.57	-47.9	-49.8	3.8	0.00e+00	0	46	104	0	66	18956
2026-01-17 02:59:47.89	34.60	5.63	-47.9	-49.8	3.8	0.00e+00	0	46	104	0	66	18910
2026-01-17 02:59:48.88	34.73	5.70	-47.9	-49.8	3.8	0.00e+00	0	46	104	0	66	18908
2026-01-17 02:59:49.87	34.86	5.77	-47.9	-49.8	3.8	0.00e+00	0	46	104	0	66	18875
2026-01-17 02:59:50.87	34.99	5.83	-47.9	-49.8	3.8	0.00e+00	0	46	104	0	66	18917
2026-01-17 02:59:51.86	35.12	5.90	-47.9	-49.8	3.8	0.00e+00	0	46	104	0	66	18944
2026-01-17 02:59:52.85	35.25	5.97	-47.8	-49.8	3.8	0.00e+00	0	46	104	0	66	18868
2026-01-17 02:59:53.85	35.38	6.03	-47.8	-49.8	3.8	0.00e+00	0	46	104	0	66	18861
2026-01-17 02:59:54.84	35.51	6.10	-47.9	-49.8	3.8	0.00e+00	0	46	104	0	66	18843
2026-01-17 02:59:55.83	35.65	6.17	-47.9	-49.8	3.8	0.00e+00	0	47	104	0	66	18869
2026-01-17 02:59:56.83	35.78	6.23	-47.9	-49.8	3.8	0.00e+00	0	47	104	0	66	18890
2026-01-17 02:59:57.82	35.91	6.30	-47.8	-49.8	3.8	0.00e+00	0	47	104	0	66	18882
2026-01-17 02:59:58.81	36.05	6.37	-47.8	-49.8	3.8	0.00e+00	0	47	104	0	66	18877
2026-01-17 02:59:59.81	36.19	6.43	-47.8	-49.8	3.8	0.00e+00	0	47	104	0	66	18845
2026-01-17 03:00:00.80	36.32	6.50	-47.8	-49.8	3.8	0.00e+00	0	47	104	0	66	18851
2026-01-17 03:00:01.79	36.46	6.57	-47.8	-49.8	3.8	0.00e+00	0	47	104	0	66	18863
2026-01-17 03:00:02.79	36.60	6.64	-47.9	-49.8	3.8	0.00e+00	0	47	104	0	66	18891
2026-01-17 03:00:03.78	36.74	6.71	-47.9	-49.8	3.8	0.00e+00	0	47	104	0	66	18906
2026-01-17 03:00:04.77	36.88	6.77	-47.9	-49.8	3.8	0.00e+00	0	47	104	0	66	18869
2026-01-17 03:00:05.76	37.02	6.84	-47.8	-49.8	3.8	0.00e+00	0	47	104	0	66	18876
2026-01-17 03:00:06.76	37.16	6.91	-47.9	-49.8	3.8	0.00e+00	0	47	104	0	66	18870
2026-01-17 03:00:07.75	37.31	6.98	-47.9	-49.8	3.8	0.00e+00	0	47	104	0	66	18934
2026-01-17 03:00:08.74	37.45	7.05	-47.9	-49.8	3.8	0.00e+00	0	47	104	0	66	18917
2026-01-17 03:00:09.74	37.59	7.11	-47.8	-49.8	3.8	0.00e+00	0	47	104	0	66	18906
2026-01-17 03:00:10.73	37.74	7.18	-47.8	-49.8	3.8	0.00e+00	0	47	104	0	66	18891
2026-01-17 03:00:11.72	37.88	7.25	-47.9	-49.8	3.8	0.00e+00	0	48	104	0	66	18915
2026-01-17 03:00:12.72	38.03	7.32	-47.9	-49.8	3.8	0.00e+00	0	47	104	0	66	18869
2026-01-17 03:00:13.71	38.18	7.39	-47.8	-49.8	3.8	0.00e+00	0	48	104	0	66	18912
2026-01-17 03:00:14.70	38.33	7.46	-47.8	-49.8	3.8	0.00e+00	0	48	104	0	66	18836
2026-01-17 03:00:15.70	38.48	7.53	-47.8	-49.8	3.8	0.00e+00	0	48	104	0	66	18894
2026-01-17 03:00:16.69	38.63	7.60	-47.9	-49.8	3.8	0.00e+00	0	48	104	0	66	18893
2026-01-17 03:00:17.69	38.78	7.67	-47.9	-49.8	3.8	0.00e+00	0	48	104	0	66	18872
2026-01-17 03:00:18.68	38.93	7.74	-47.9	-49.8	3.8	0.00e+00	0	48	104	0	66	18908
2026-01-17 03:00:19.67	39.08	7.81	-47.8	-49.8	3.8	0.00e+00	0	48	104	0	66	18904
2026-01-17 03:00:20.66	39.24	7.87	-47.8	-49.8	3.8	0.00e+00	0	48	104	0	66	18885
2026-01-17 03:00:21.66	39.39	7.95	-47.9	-49.8	3.8	0.00e+00	0	48	104	0	66	18891
2026-01-17 03:00:22.65	39.55	8.01	-47.8	-49.8	3.8	0.00e+00	0	48	104	0	66	18847
2026-01-17 03:00:23.65	39.70	8.09	-47.9	-49.8	3.8	0.00e+00	0	48	104	0	66	18879
2026-01-17 03:00:24.64	39.86	8.16	-47.9	-49.8	3.8	0.00e+00	0	48	104	0	66	18901
2026-01-17 03:00:25.63	40.02	8.23	-47.8	-49.8	3.8	0.00e+00	0	48	104	0	66	18846
2026-01-17 03:00:26.63	40.18	8.30	-47.8	-49.8	3.8	0.00e+00	0	48	104	0	66	18828
2026-01-17 03:00:27.62	40.34	8.37	-47.8	-49.8	3.8	0.00e+00	0	49	104	0	66	18833
2026-01-17 03:00:28.61	40.50	8.44	-47.8	-49.8	3.8	0.00e+00	0	49	104	0	66	18891
2026-01-17 03:00:29.61	40.66	8.51	-47.8	-49.8	3.8	0.00e+00	0	48	104	0	66	18856
2026-01-17 03:00:30.60	40.83	8.58	-47.8	-49.8	3.8	0.00e+00	0	48	104	0	66	18850
2026-01-17 03:00:31.60	40.99	8.65	-47.8	-49.8	3.8	0.00e+00	0	48	104	0	66	18856
2026-01-17 03:00:32.59	41.15	8.72	-47.8	-49.8	3.8	0.00e+00	0	48	104	0	66	18857
2026-01-17 03:00:33.58	41.32	8.79	-47.9	-49.8	3.8	0.00e+00	0	49	104	0	66	18846
2026-01-17 03:00:34.58	41.49	8.86	-47.8	-49.8	3.8	0.00e+00	0	49	104	0	66	18872
2026-01-17 03:00:35.57	41.65	8.93	-47.8	-49.8	3.8	0.00e+00	0	49	104	0	66	18893
2026-01-17 03:00:36.56	41.82	9.00	-47.9	-49.8	3.8	0.00e+00	0	49	104	0	66	18882
2026-01-17 03:00:37.56	41.99	9.08	-47.9	-49.8	3.8	0.00e+00	0	49	104	0	66	18873
2026-01-17 03:00:38.55	42.16	9.15	-47.2	-49.0	4.0	0.00e+00	0	49	104	0	66	17219
2026-01-17 03:00:39.55	42.34	9.22	-47.7	-49.5	3.9	0.00e+00	0	49	104	0	66	18269
2026-01-17 03:00:40.54	42.51	9.29	-49.2	-51.4	3.8	0.00e+00	0	49	104	0	70	18077
2026-01-17 03:00:41.54	42.68	9.36	-47.2	-48.9	3.8	0.00e+00	0	49	104	0	66	17097
2026-01-17 03:00:42.53	42.86	9.43	-47.0	-48.8	3.9	0.00e+00	0	49	104	0	66	16799
2026-01-17 03:00:43.53	43.04	9.51	-47.5	-49.3	3.8	0.00e+00	0	49	104	0	66	17783
2026-01-17 03:00:44.52	43.21	9.58	-48.0	-49.9	3.8	0.00e+00	0	49	104	0	66	19082
2026-01-17 03:00:45.72	43.43	9.67	-48.5	-50.6	3.8	0.00e+00	0	49	104	0	67	19556
2026-01-17 03:00:46.60	43.59	9.73	-48.6	-50.7	3.8	0.00e+00	0	49	104	0	67	19742
2026-01-17 03:00:47.90	43.82	9.82	-49.1	-51.2	3.8	0.00e+00	0	49	104	0	68	19886
2026-01-17 03:00:48.61	43.95	9.88	-48.9	-50.9	4.0	0.00e+00	0	49	104	0	68	19103
2026-01-17 03:00:50.11	44.23	9.98	-46.4	-48.0	4.3	0.00e+00	0	49	104	0	64	17231
2026-01-17 03:00:50.82	44.36	10.04	-49.4	-51.6	3.7	0.00e+00	0	49	104	0	69	19579
2026-01-17 03:00:52.16	44.61	10.13	-48.7	-50.7	3.9	0.00e+00	0	49	104	0	69	17598
2026-01-17 03:00:52.87	44.74	10.19	-49.3	-51.5	3.8	0.00e+00	0	49	104	0	69	19294
2026-01-17 03:00:54.15	44.98	10.28	-49.9	-52.3	3.7	0.00e+00	0	49	104	0	70	19940
2026-01-17 03:00:54.87	45.12	10.33	-50.0	-52.3	3.7	0.00e+00	0	49	104	0	70	20115
2026-01-17 03:00:56.15	45.36	10.43	-50.7	-53.4	3.7	0.00e+00	0	49	104	0	72	20385
2026-01-17 03:00:56.88	45.50	10.48	-50.5	-53.1	3.7	0.00e+00	0	49	104	0	72	19509
2026-01-17 03:00:58.16	45.75	10.57	-50.5	-53.2	3.7	0.00e+00	0	49	104	0	72	19844
2026-01-17 03:00:58.88	45.89	10.63	-51.7	-55.0	3.7	0.00e+00	0	49	104	0	74	21724
2026-01-17 03:01:00.16	46.14	10.72	-50.6	-53.4	3.7	0.00e+00	0	49	104	0	73	19137
2026-01-17 03:01:00.87	46.28	10.77	-51.1	-54.2	3.7	0.00e+00	0	49	104	0	73	20970
2026-01-17 03:01:02.15	46.53	10.86	-51.6	-54.9	3.7	0.00e+00	0	49	104	0	73	22691
2026-01-17 03:01:02.91	46.68	10.92	-51.7	-55.0	3.7	0.00e+00	0	49	104	0	74	21637
2026-01-17 03:01:04.18	46.94	11.01	-51.4	-54.4	3.7	0.00e+00	0	49	104	0	74	20315
2026-01-17 03:01:04.90	47.08	11.07	-50.9	-53.8	3.7	0.00e+00	0	50	104	0	73	20005
2026-01-17 03:01:06.18	47.34	11.16	-51.6	-54.9	3.7	0.00e+00	0	49	104	0	74	21433
2026-01-17 03:01:06.89	47.48	11.21	-51.3	-54.3	3.7	0.00e+00	0	49	104	0	74	20033
2026-01-17 03:01:08.17	47.75	11.31	-50.5	-53.2	3.7	0.00e+00	0	49	104	0	72	19822
2026-01-17 03:01:08.89	47.90	11.36	-51.4	-54.7	3.7	0.00e+00	0	50	104	0	73	22112
2026-01-17 03:01:10.17	48.16	11.45	-50.9	-53.8	3.7	0.00e+00	0	50	104	0	73	19959
2026-01-17 03:01:10.88	48.31	11.51	-51.3	-54.4	3.7	0.00e+00	0	50	104	0	73	21400
2026-01-17 03:01:12.16	48.58	11.60	-51.3	-54.4	3.7	0.00e+00	0	50	104	0	73	21443
2026-01-17 03:01:12.87	48.73	11.65	-51.0	-53.9	3.7	0.00e+00	0	50	104	0	73	20236
2026-01-17 03:01:14.19	49.01	11.75	-50.3	-52.9	3.7	0.00e+00	0	50	104	0	72	19166
2026-01-17 03:01:14.90	49.16	11.80	-50.4	-53.1	3.7	0.00e+00	0	50	104	0	72	19555
2026-01-17 03:01:16.18	49.43	11.89	-51.2	-54.2	3.7	0.00e+00	0	50	104	0	73	20941
2026-01-17 03:01:17.23	49.66	11.97	-51.4	-54.5	3.6	0.00e+00	0	50	104	0	73	21724
2026-01-17 03:01:18.40	49.91	12.06	-50.9	-53.8	3.7	0.00e+00	0	50	104	0	72	21231
2026-01-17 03:01:19.26	50.10	12.12	-51.2	-54.1	3.7	0.00e+00	0	49	104	0	73	20824
2026-01-17 03:01:20.39	50.35	12.20	-50.8	-53.5	3.7	0.00e+00	0	49	104	0	73	19456
2026-01-17 03:01:21.24	50.54	12.27	-50.6	-53.3	3.7	0.00e+00	0	49	104	0	73	18824
2026-01-17 03:01:22.38	50.79	12.35	-50.8	-53.5	3.7	0.00e+00	0	50	104	0	73	19467
2026-01-17 03:01:23.23	50.98	12.41	-51.1	-53.9	3.7	0.00e+00	0	50	104	0	73	20303
2026-01-17 03:01:24.37	51.24	12.49	-51.4	-54.4	3.7	0.00e+00	0	49	104	0	73	21605
2026-01-17 03:01:25.22	51.43	12.56	-51.1	-54.0	3.7	0.00e+00	0	50	104	0	73	20426
2026-01-17 03:01:26.36	51.69	12.64	-51.4	-54.5	3.7	0.00e+00	0	50	104	0	73	21676
2026-01-17 03:01:27.21	51.89	12.70	-51.5	-54.5	3.7	0.00e+00	0	50	104	0	73	21802
2026-01-17 03:01:28.35	52.15	12.78	-51.3	-54.4	3.7	0.00e+00	0	50	104	0	73	21513
2026-01-17 03:01:29.20	52.35	12.85	-51.3	-54.4	3.7	0.00e+00	0	50	104	0	73	21424
2026-01-17 03:01:30.34	52.62	12.93	-51.5	-54.6	3.7	0.00e+00	0	50	104	0	73	22086
2026-01-17 03:01:31.19	52.82	12.99	-51.6	-54.8	3.7	0.00e+00	0	50	104	0	73	22561
2026-01-17 03:01:32.58	53.14	13.09	-51.7	-54.9	3.7	0.00e+00	0	50	104	0	73	22787
2026-01-17 03:01:33.29	53.31	13.14	-51.7	-54.9	3.7	0.00e+00	0	50	104	0	73	22835
2026-01-17 03:01:34.57	53.62	13.23	-51.7	-55.0	3.7	0.00e+00	0	50	104	0	74	21647
2026-01-17 03:01:35.30	53.79	13.29	-51.6	-54.8	3.7	0.00e+00	0	50	104	0	74	21151
2026-01-17 03:01:36.58	54.10	13.38	-51.6	-54.8	3.7	0.00e+00	0	50	104	0	74	21339
2026-01-17 03:01:37.29	54.28	13.43	-51.6	-54.8	3.7	0.00e+00	0	50	104	0	74	21215
2026-01-17 03:01:38.57	54.59	13.52	-51.8	-55.1	3.7	0.00e+00	0	50	104	0	74	21964
2026-01-17 03:01:39.28	54.76	13.57	-51.9	-55.2	3.7	0.00e+00	0	50	104	0	74	22193
2026-01-17 03:01:40.56	55.08	13.66	-51.8	-55.1	3.7	0.00e+00	0	50	104	0	74	22003
2026-01-17 03:01:41.27	55.26	13.71	-51.9	-55.2	3.7	0.00e+00	0	50	104	0	74	22282
2026-01-17 03:01:42.55	55.58	13.81	-51.9	-55.2	3.7	0.00e+00	0	50	104	0	74	22316
2026-01-17 03:01:43.27	55.76	13.86	-52.0	-55.3	3.7	0.00e+00	0	50	104	0	74	22470
2026-01-17 03:01:44.55	56.08	13.95	-52.0	-55.4	3.7	0.00e+00	0	50	104	0	74	22728
2026-01-17 03:01:45.29	56.27	14.00	-52.1	-55.4	3.7	0.00e+00	0	50	104	0	74	22762
2026-01-17 03:01:46.57	56.60	14.09	-52.1	-55.5	3.7	0.00e+00	0	50	104	0	74	22964
2026-01-17 03:01:47.30	56.79	14.14	-52.1	-55.5	3.7	0.00e+00	0	50	104	0	74	23053
2026-01-17 03:01:48.58	57.12	14.23	-52.0	-55.4	3.7	0.00e+00	0	50	104	0	74	22636
2026-01-17 03:01:49.29	57.30	14.28	-52.0	-55.4	3.7	0.00e+00	0	50	104	0	74	22829
2026-01-17 03:01:50.57	57.64	14.37	-51.8	-55.1	3.7	0.00e+00	0	50	104	0	74	22037
2026-01-17 03:01:51.29	57.83	14.42	-51.8	-55.2	3.8	0.00e+00	0	50	104	0	74	22152
2026-01-17 03:01:52.57	58.16	14.51	-52.0	-55.5	3.7	0.00e+00	0	50	104	0	74	22999
2026-01-17 03:01:53.28	58.35	14.55	-52.1	-55.5	3.7	0.00e+00	0	50	104	0	74	23088
2026-01-17 03:01:54.56	58.70	14.64	-51.5	-54.6	3.7	0.00e+00	0	50	104	0	74	20659
2026-01-17 03:01:55.27	58.89	14.69	-51.6	-54.8	3.7	0.00e+00	0	50	104	0	74	21202
2026-01-17 03:01:56.69	59.27	14.79	-51.7	-54.8	3.7	0.00e+00	0	50	104	0	74	21206
2026-01-17 03:01:57.40	59.46	14.83	-51.5	-54.5	3.7	0.00e+00	0	50	104	0	74	20588
2026-01-17 03:01:58.76	59.83	14.93	-51.4	-54.4	3.7	0.00e+00	0	50	104	0	74	20165
2026-01-17 03:01:59.47	60.03	14.97	-51.4	-54.4	3.7	0.00e+00	0	50	104	0	74	20368
2026-01-17 03:02:00.75	60.38	15.06	-51.5	-54.6	3.7	0.00e+00	0	50	104	0	74	20832
2026-01-17 03:02:01.47	60.58	15.11	-51.8	-55.0	3.7	0.00e+00	0	50	104	0	74	21853
2026-01-17 03:02:02.75	60.94	15.19	-52.1	-55.5	3.7	0.00e+00	0	50	104	0	74	22968
2026-01-17 03:02:03.49	61.15	15.24	-52.0	-55.4	3.7	0.00e+00	0	50	104	0	74	22667
2026-01-17 03:02:04.77	61.51	15.32	-51.8	-55.1	3.7	0.00e+00	0	50	104	0	74	22080
2026-01-17 03:02:05.48	61.71	15.37	-51.6	-54.9	3.7	0.00e+00	0	50	104	0	74	21502
2026-01-17 03:02:06.76	62.07	15.45	-51.7	-55.0	3.7	0.00e+00	0	50	104	0	74	21775
2026-01-17 03:02:07.48	62.28	15.50	-51.7	-54.9	3.7	0.00e+00	0	50	104	0	74	21563
2026-01-17 03:02:08.76	62.65	15.58	-51.9	-55.2	3.7	0.00e+00	0	50	104	0	74	22306
2026-01-17 03:02:09.47	62.85	15.62	-52.1	-55.5	3.7	0.00e+00	0	50	104	0	74	22914
2026-01-17 03:02:10.75	63.22	15.71	-52.1	-55.5	3.7	0.00e+00	0	50	104	0	74	23131
2026-01-17 03:02:11.48	63.44	15.75	-52.1	-55.5	3.7	0.00e+00	0	50	104	0	74	23088
2026-01-17 03:02:12.75	63.81	15.83	-52.1	-55.6	3.7	0.00e+00	0	50	104	0	74	23293
2026-01-17 03:02:13.49	64.03	15.88	-52.1	-55.6	3.7	0.00e+00	0	50	104	0	74	23218
2026-01-17 03:02:14.77	64.41	15.95	-51.8	-55.2	3.7	0.00e+00	0	50	104	0	74	22247
2026-01-17 03:02:15.50	64.62	16.00	-51.9	-55.4	3.7	0.00e+00	0	50	104	0	74	22645
2026-01-17 03:02:16.78	65.01	16.08	-52.1	-55.8	3.7	0.00e+00	0	50	104	0	74	23822
2026-01-17 03:02:17.49	65.22	16.12	-52.1	-55.9	3.7	0.00e+00	0	50	104	0	74	23982
2026-01-17 03:02:18.77	65.61	16.19	-52.1	-55.6	3.7	0.00e+00	0	50	104	0	74	23278
2026-01-17 03:02:19.50	65.83	16.24	-51.9	-55.3	3.7	0.00e+00	0	50	104	0	74	22406
2026-01-17 03:02:20.78	66.22	16.31	-52.0	-55.4	3.7	0.00e+00	0	50	104	0	74	22770
2026-01-17 03:02:21.50	66.44	16.35	-52.0	-55.3	3.7	0.00e+00	0	50	104	0	74	22614
2026-01-17 03:02:22.78	66.83	16.43	-52.0	-55.4	3.7	0.00e+00	0	50	104	0	74	22708
2026-01-17 03:02:23.51	67.05	16.47	-51.9	-55.4	3.7	0.00e+00	0	50	104	0	74	22639
2026-01-17 03:02:24.79	67.45	16.54	-52.1	-55.5	3.7	0.00e+00	0	50	104	0	74	22897
2026-01-17 03:02:25.50	67.67	16.58	-52.0	-55.3	3.7	0.00e+00	0	51	104	0	74	22597
2026-01-17 03:02:26.79	68.07	16.65	-52.1	-55.5	3.7	0.00e+00	0	50	104	0	74	22952
2026-01-17 03:02:27.51	68.30	16.69	-52.2	-55.6	3.7	0.00e+00	0	51	104	0	75	21951
2026-01-17 03:02:28.78	68.70	16.76	-52.0	-55.2	3.7	0.00e+00	0	51	104	0	75	20987
2026-01-17 03:02:29.60	68.96	16.81	-51.9	-55.0	3.7	0.00e+00	0	50	104	0	75	20570
2026-01-17 03:02:31.04	69.42	16.88	-52.0	-55.2	3.7	0.00e+00	0	50	104	0	75	21004
2026-01-17 03:02:31.75	69.65	16.92	-52.3	-55.8	3.7	0.00e+00	0	51	104	0	75	22555
2026-01-17 03:02:33.25	70.13	17.00	-51.8	-54.9	3.7	0.00e+00	0	50	104	0	75	20302
2026-01-17 03:02:33.96	70.35	17.03	-52.1	-55.5	3.7	0.00e+00	0	50	104	0	75	21611
2026-01-17 03:02:35.25	70.77	17.10	-52.1	-55.3	3.7	0.00e+00	0	50	104	0	75	21338
2026-01-17 03:02:35.96	71.00	17.13	-52.2	-55.6	3.7	0.00e+00	0	50	104	0	75	21975
2026-01-17 03:02:37.24	71.42	17.19	-52.3	-55.8	3.7	0.00e+00	0	50	104	0	75	22416
2026-01-17 03:02:37.96	71.65	17.23	-52.3	-55.7	3.7	0.00e+00	0	50	104	0	75	22361
2026-01-17 03:02:39.24	72.08	17.29	-52.3	-55.8	3.7	0.00e+00	0	51	104	0	75	22582
2026-01-17 03:02:39.95	72.31	17.32	-52.3	-55.8	3.7	0.00e+00	0	51	104	0	75	22531
2026-01-17 03:02:41.23	72.73	17.38	-52.3	-55.8	3.7	0.00e+00	0	50	104	0	75	22405
2026-01-17 03:02:41.96	72.97	17.42	-52.2	-55.7	3.7	0.00e+00	0	51	104	0	75	22244
2026-01-17 03:02:43.24	73.40	17.47	-52.1	-55.5	3.7	0.00e+00	0	51	104	0	75	21607
2026-01-17 03:02:43.98	73.65	17.50	-52.2	-55.7	3.7	0.00e+00	0	50	104	0	75	22334
2026-01-17 03:02:45.26	74.08	17.56	-52.1	-55.5	3.7	0.00e+00	0	50	104	0	75	21618
2026-01-17 03:02:46.01	74.33	17.59	-52.2	-55.6	3.7	0.00e+00	0	50	104	0	75	22075
2026-01-17 03:02:47.29	74.76	17.65	-52.2	-55.5	3.7	0.00e+00	0	51	104	0	75	21776
2026-01-17 03:02:48.00	75.00	17.67	-52.2	-55.6	3.7	0.00e+00	0	51	104	0	75	21943
2026-01-17 03:02:49.28	75.43	17.73	-52.1	-55.5	3.7	0.00e+00	0	50	104	0	75	21776
2026-01-17 03:02:49.99	75.68	17.75	-52.1	-55.3	3.7	0.00e+00	0	51	104	0	75	21320
2026-01-17 03:02:51.27	76.11	17.80	-52.0	-55.4	3.7	0.00e+00	0	50	104	0	75	21409
2026-01-17 03:02:51.98	76.36	17.83	-51.9	-55.2	3.7	0.00e+00	0	51	104	0	75	20952
2026-01-17 03:02:53.26	76.80	17.88	-51.7	-54.9	3.7	0.00e+00	0	50	104	0	75	20354
2026-01-17 03:02:53.98	77.04	17.90	-52.0	-55.3	3.7	0.00e+00	0	50	104	0	75	21326
2026-01-17 03:02:55.26	77.49	17.95	-52.3	-55.7	3.7	0.00e+00	0	50	104	0	75	22279
2026-01-17 03:02:55.98	77.73	17.97	-52.2	-55.6	3.7	0.00e+00	0	50	104	0	75	22008
2026-01-17 03:02:57.25	78.18	18.01	-52.2	-55.7	3.7	0.00e+00	0	50	104	0	75	22347
2026-01-17 03:02:57.98	78.43	18.04	-52.0	-55.3	3.7	0.00e+00	0	51	104	0	75	21304
2026-01-17 03:02:59.26	78.88	18.08	-52.2	-55.6	3.7	0.00e+00	0	50	104	0	75	22089
2026-01-17 03:02:59.99	79.13	18.10	-52.0	-55.4	3.7	0.00e+00	0	50	104	0	75	21371
2026-01-17 03:03:01.26	79.58	18.14	-52.1	-55.6	3.7	0.00e+00	0	50	104	0	75	21863
2026-01-17 03:03:01.99	79.83	18.16	-52.1	-55.5	3.7	0.00e+00	0	51	104	0	75	21751
2026-01-17 03:03:03.27	80.28	18.20	-51.9	-55.3	3.7	0.00e+00	0	50	104	0	75	21155
2026-01-17 03:03:03.98	80.53	18.22	-51.3	-54.7	3.7	0.00e+00	0	51	104	0	74	20888
2026-01-17 03:03:05.26	80.99	18.25	-51.6	-54.9	3.7	0.00e+00	0	50	104	0	74	21550
2026-01-17 03:03:05.97	81.24	18.27	-51.2	-54.4	3.7	0.00e+00	0	51	104	0	74	20235
2026-01-17 03:03:07.25	81.69	18.30	-52.0	-55.5	3.7	0.00e+00	0	51	104	0	74	22917
2026-01-17 03:03:07.97	81.95	18.32	-52.0	-55.4	3.7	0.00e+00	0	50	104	0	74	22822
2026-01-17 03:03:09.25	82.40	18.35	-51.9	-55.3	3.7	0.00e+00	0	51	104	0	74	22619
2026-01-17 03:03:09.98	82.66	18.36	-51.5	-54.8	3.7	0.00e+00	0	50	104	0	74	21165
2026-01-17 03:03:11.26	83.12	18.39	-51.2	-54.4	3.7	0.00e+00	0	51	104	0	74	20250
2026-01-17 03:03:11.98	83.38	18.40	-51.3	-54.4	3.7	0.00e+00	0	51	104	0	74	20197
2026-01-17 03:03:13.26	83.84	18.43	-51.4	-54.5	3.7	0.00e+00	0	50	104	0	74	20545
2026-01-17 03:03:13.97	84.09	18.44	-51.3	-54.5	3.7	0.00e+00	0	50	104	0	74	20495
2026-01-17 03:03:15.26	84.55	18.46	-51.2	-54.4	3.7	0.00e+00	0	50	104	0	74	20165
2026-01-17 03:03:15.97	84.81	18.47	-51.6	-54.9	3.7	0.00e+00	0	50	104	0	74	21393
2026-01-17 03:03:17.25	85.27	18.49	-51.2	-54.2	3.7	0.00e+00	0	50	104	0	74	19799
2026-01-17 03:03:17.97	85.53	18.50	-51.3	-54.4	3.7	0.00e+00	0	51	104	0	74	20172
2026-01-17 03:03:19.25	85.99	18.52	-51.5	-54.7	3.7	0.00e+00	0	51	104	0	74	20951
2026-01-17 03:03:19.96	86.25	18.53	-51.6	-54.7	3.7	0.00e+00	0	50	104	0	74	20915
2026-01-17 03:03:21.24	86.71	18.54	-51.4	-54.5	3.7	0.00e+00	0	51	104	0	74	20449
2026-01-17 03:03:21.97	86.98	18.55	-51.3	-54.2	3.7	0.00e+00	0	51	104	0	74	19882
2026-01-17 03:03:23.25	87.44	18.56	-50.9	-53.8	3.7	0.00e+00	0	51	104	0	73	20033
2026-01-17 03:03:23.96	87.70	18.57	-51.5	-54.7	3.7	0.00e+00	0	51	104	0	73	22194
2026-01-17 03:03:25.24	88.16	18.58	-51.0	-54.0	3.7	0.00e+00	0	51	104	0	73	20447
2026-01-17 03:03:25.96	88.42	18.58	-51.6	-54.7	3.7	0.00e+00	0	51	104	0	73	22287
2026-01-17 03:03:27.24	88.89	18.59	-51.7	-54.8	3.7	0.00e+00	0	51	104	0	74	21350
2026-01-17 03:03:27.95	89.14	18.59	-51.6	-54.7	3.7	0.00e+00	0	50	104	0	74	20990
2026-01-17 03:03:29.23	89.61	18.59	-51.5	-54.6	3.7	0.00e+00	0	51	104	0	74	20698
2026-01-17 03:03:30.13	89.94	18.59	-51.6	-54.7	3.7	0.00e+00	0	51	104	0	74	21022
2026-01-17 03:03:31.52	90.44	18.60	-52.0	-55.4	3.7	0.00e+00	0	50	104	0	74	22628
2026-01-17 03:03:32.23	90.70	18.60	-51.7	-54.8	3.7	0.00e+00	0	51	104	0	74	21340
2026-01-17 03:03:33.51	91.16	18.59	-51.8	-55.0	3.7	0.00e+00	0	50	104	0	74	21639
2026-01-17 03:03:34.24	91.43	18.59	-51.6	-54.6	3.7	0.00e+00	0	51	104	0	74	20735
2026-01-17 03:03:35.52	91.89	18.59	-51.8	-54.9	3.7	0.00e+00	0	51	104	0	74	21525
2026-01-17 03:03:36.31	92.18	18.58	-51.9	-55.1	3.7	0.00e+00	0	50	104	0	74	21998
2026-01-17 03:03:37.52	92.62	18.58	-52.1	-55.3	3.7	0.00e+00	0	50	104	0	74	22534
2026-01-17 03:03:38.37	92.93	18.57	-52.1	-55.4	3.7	0.00e+00	0	51	104	0	74	22696
2026-01-17 03:03:39.51	93.34	18.56	-52.2	-55.5	3.7	0.00e+00	0	50	104	0	75	21721
2026-01-17 03:03:40.36	93.65	18.56	-52.3	-55.7	3.7	0.00e+00	0	50	104	0	75	22280
2026-01-17 03:03:41.50	94.06	18.55	-52.2	-55.6	3.7	0.00e+00	0	50	104	0	75	22024
2026-01-17 03:03:42.35	94.37	18.54	-52.3	-55.6	3.7	0.00e+00	0	50	104	0	75	21913
2026-01-17 03:03:43.49	94.78	18.52	-52.3	-55.6	3.7	0.00e+00	0	50	104	0	75	22083
2026-01-17 03:03:44.34	95.09	18.51	-52.3	-55.6	3.7	0.00e+00	0	50	104	0	75	22096
2026-01-17 03:03:45.49	95.50	18.50	-52.2	-55.4	3.7	0.00e+00	0	51	104	0	75	21504
2026-01-17 03:03:46.35	95.81	18.49	-52.3	-55.6	3.7	0.00e+00	0	50	104	0	75	21921
2026-01-17 03:03:47.49	96.22	18.47	-52.3	-55.6	3.7	0.00e+00	0	51	104	0	75	22104
2026-01-17 03:03:48.34	96.53	18.45	-52.3	-55.8	3.7	0.00e+00	0	51	104	0	75	22415
2026-01-17 03:03:49.47	96.93	18.43	-52.3	-55.7	3.7	0.00e+00	0	51	104	0	75	22217
2026-01-17 03:03:50.33	97.24	18.42	-52.3	-55.7	3.7	0.00e+00	0	51	104	0	75	22303
2026-01-17 03:03:51.47	97.65	18.40	-52.3	-55.7	3.7	0.00e+00	0	50	104	0	75	22297
2026-01-17 03:03:52.32	97.96	18.38	-52.4	-55.8	3.7	0.00e+00	0	50	104	0	75	22587
2026-01-17 03:03:53.46	98.36	18.36	-52.3	-55.7	3.7	0.00e+00	0	51	104	0	75	22219
2026-01-17 03:03:54.31	98.67	18.34	-52.2	-55.6	3.7	0.00e+00	0	51	104	0	75	21982
2026-01-17 03:03:55.44	99.07	18.31	-52.3	-55.7	3.7	0.00e+00	0	51	104	0	75	22147
2026-01-17 03:03:56.30	99.37	18.29	-52.3	-55.7	3.7	0.00e+00	0	51	104	0	75	22116
2026-01-17 03:03:57.43	99.77	18.26	-52.2	-55.7	3.7	0.00e+00	0	51	104	0	75	22287
2026-01-17 03:03:58.29	100.08	18.24	-52.3	-55.7	3.7	0.00e+00	0	51	104	0	75	22353
2026-01-17 03:03:59.42	100.48	18.21	-52.3	-55.7	3.7	0.00e+00	0	51	104	0	75	22220
2026-01-17 03:04:00.28	100.78	18.19	-52.4	-55.8	3.7	0.00e+00	0	51	104	0	75	22483
2026-01-17 03:04:01.41	101.18	18.15	-52.4	-55.8	3.7	0.00e+00	0	51	104	0	75	22504
2026-01-17 03:04:02.26	101.48	18.13	-52.3	-55.7	3.7	0.00e+00	0	51	104	0	75	22176
2026-01-17 03:04:03.45	101.90	18.09	-52.3	-55.7	3.7	0.00e+00	0	51	104	0	75	22188
2026-01-17 03:04:04.30	102.19	18.07	-52.3	-55.7	3.7	0.00e+00	0	51	104	0	75	22271
2026-01-17 03:04:05.50	102.61	18.03	-52.4	-55.8	3.7	0.00e+00	0	51	104	0	75	22601
2026-01-17 03:04:06.35	102.91	18.00	-52.4	-55.8	3.7	0.00e+00	0	50	104	0	75	22616
2026-01-17 03:04:07.49	103.30	17.96	-52.4	-55.9	3.7	0.00e+00	0	50	104	0	75	22701
2026-01-17 03:04:08.34	103.60	17.93	-52.3	-55.8	3.7	0.00e+00	0	51	104	0	75	22474
2026-01-17 03:04:09.48	103.99	17.89	-52.4	-55.9	3.7	0.00e+00	0	51	104	0	75	22653
2026-01-17 03:04:10.33	104.28	17.86	-52.3	-55.8	3.7	0.00e+00	0	51	104	0	75	22428
2026-01-17 03:04:11.47	104.67	17.82	-52.3	-55.8	3.7	0.00e+00	0	51	104	0	75	22493
2026-01-17 03:04:12.32	104.97	17.78	-52.4	-55.9	3.7	0.00e+00	0	51	104	0	75	22650
2026-01-17 03:04:13.45	105.35	17.74	-52.4	-55.9	3.7	0.00e+00	0	51	104	0	75	22762
2026-01-17 03:04:14.31	105.64	17.71	-52.4	-55.9	3.7	0.00e+00	0	51	104	0	75	22724
2026-01-17 03:04:15.44	106.03	17.66	-52.4	-55.9	3.7	0.00e+00	0	51	104	0	75	22650
2026-01-17 03:04:16.30	106.32	17.62	-52.2	-55.8	3.7	0.00e+00	0	51	104	0	75	22459
2026-01-17 03:04:17.43	106.70	17.58	-52.3	-55.7	3.7	0.00e+00	0	51	104	0	75	22325
2026-01-17 03:04:18.29	106.99	17.54	-52.1	-55.4	3.7	0.00e+00	0	51	104	0	75	21586
2026-01-17 03:04:19.42	107.37	17.49	-52.1	-55.4	3.7	0.00e+00	0	51	104	0	75	21539
2026-01-17 03:04:20.28	107.65	17.45	-52.1	-55.4	3.7	0.00e+00	0	50	104	0	75	21501
2026-01-17 03:04:21.48	108.05	17.40	-52.1	-55.4	3.7	0.00e+00	0	51	104	0	75	21399
2026-01-17 03:04:22.33	108.34	17.36	-52.3	-55.8	3.7	0.00e+00	0	51	104	0	75	22391
2026-01-17 03:04:23.53	108.73	17.30	-52.3	-55.7	3.7	0.00e+00	0	51	104	0	75	22298
2026-01-17 03:04:24.38	109.01	17.26	-52.4	-55.9	3.7	0.00e+00	0	51	104	0	75	22754
2026-01-17 03:04:25.52	109.39	17.21	-52.2	-55.7	3.7	0.00e+00	0	51	104	0	75	22169
2026-01-17 03:04:26.37	109.66	17.17	-52.1	-55.6	3.7	0.00e+00	0	51	104	0	75	21906
2026-01-17 03:04:27.62	110.07	17.11	-52.2	-55.6	3.7	0.00e+00	0	51	104	0	75	21989
2026-01-17 03:04:28.47	110.35	17.06	-52.2	-55.6	3.7	0.00e+00	0	50	104	0	75	22057
2026-01-17 03:04:29.69	110.74	17.00	-52.1	-55.4	3.7	0.00e+00	0	51	104	0	75	21601
2026-01-17 03:04:30.54	111.02	16.96	-52.2	-55.5	3.7	0.00e+00	0	51	104	0	75	21846
2026-01-17 03:04:31.68	111.38	16.90	-52.0	-55.4	3.7	0.00e+00	0	51	104	0	75	21455
2026-01-17 03:04:32.53	111.65	16.85	-52.0	-55.3	3.7	0.00e+00	0	51	104	0	75	21356
2026-01-17 03:04:33.67	112.01	16.79	-51.9	-55.3	3.7	0.00e+00	0	51	104	0	75	21152
2026-01-17 03:04:34.52	112.28	16.75	-51.9	-55.3	3.7	0.00e+00	0	51	104	0	75	21140
2026-01-17 03:04:35.65	112.64	16.69	-52.0	-55.4	3.7	0.00e+00	0	51	104	0	75	21385
2026-01-17 03:04:36.51	112.91	16.64	-52.3	-55.7	3.7	0.00e+00	0	51	104	0	75	22192
2026-01-17 03:04:37.90	113.35	16.56	-52.4	-55.9	3.7	0.00e+00	0	51	104	0	75	22644
2026-01-17 03:04:38.61	113.57	16.52	-52.3	-55.8	3.7	0.00e+00	0	51	104	0	75	22375
2026-01-17 03:04:39.89	113.96	16.45	-52.4	-55.8	3.7	0.00e+00	0	50	104	0	75	22568
2026-01-17 03:04:40.60	114.18	16.41	-52.5	-56.0	3.7	0.00e+00	0	51	104	0	75	22959
2026-01-17 03:04:42.16	114.66	16.32	-52.4	-55.9	3.6	0.00e+00	0	51	104	0	75	22673
2026-01-17 03:04:43.06	114.94	16.27	-52.4	-55.9	3.7	0.00e+00	0	51	104	0	75	22837
2026-01-17 03:04:44.56	115.39	16.18	-52.4	-55.8	3.7	0.00e+00	0	51	104	0	75	22490
2026-01-17 03:04:45.27	115.61	16.13	-52.4	-55.8	3.7	0.00e+00	0	51	104	0	75	22594
2026-01-17 03:04:46.55	115.99	16.06	-52.4	-55.8	3.7	0.00e+00	0	51	104	0	75	22563
2026-01-17 03:04:47.29	116.21	16.01	-52.3	-55.8	3.7	0.00e+00	0	51	104	0	75	22403
2026-01-17 03:04:48.56	116.59	15.94	-52.4	-55.9	3.7	0.00e+00	0	51	104	0	75	22699
2026-01-17 03:04:49.30	116.81	15.89	-52.3	-55.8	3.7	0.00e+00	0	51	104	0	75	22602
2026-01-17 03:04:50.58	117.19	15.81	-52.1	-55.6	3.7	0.00e+00	0	51	104	0	75	22008
2026-01-17 03:04:51.29	117.40	15.77	-52.2	-55.7	3.7	0.00e+00	0	51	104	0	75	22150
2026-01-17 03:04:52.57	117.77	15.69	-52.0	-55.4	3.7	0.00e+00	0	51	104	0	75	21363
2026-01-17 03:04:53.28	117.98	15.64	-52.0	-55.3	3.7	0.00e+00	0	51	104	0	75	21247
2026-01-17 03:04:54.56	118.35	15.56	-52.1	-55.5	3.7	0.00e+00	0	51	104	0	75	21653
2026-01-17 03:04:55.27	118.55	15.51	-52.0	-55.4	3.7	0.00e+00	0	51	104	0	75	21486
2026-01-17 03:04:56.55	118.92	15.43	-52.3	-55.7	3.7	0.00e+00	0	51	104	0	75	22341
2026-01-17 03:04:57.28	119.13	15.38	-52.3	-55.7	3.7	0.00e+00	0	51	104	0	75	22159
2026-01-17 03:04:58.56	119.49	15.30	-52.2	-55.7	3.7	0.00e+00	0	51	104	0	75	22343
2026-01-17 03:04:59.27	119.69	15.25	-52.3	-55.7	3.7	0.00e+00	0	51	104	0	75	22323
2026-01-17 03:05:00.55	120.05	15.17	-52.2	-55.6	3.7	0.00e+00	0	51	104	0	75	22037
2026-01-17 03:05:01.27	120.25	15.12	-52.1	-55.6	3.7	0.00e+00	0	51	104	0	75	21890
2026-01-17 03:05:02.55	120.61	15.04	-52.1	-55.5	3.7	0.00e+00	0	51	104	0	75	21799
2026-01-17 03:05:03.26	120.81	14.99	-52.2	-55.6	3.7	0.00e+00	0	51	104	0	75	21962
2026-01-17 03:05:04.54	121.16	14.90	-52.2	-55.6	3.7	0.00e+00	0	51	104	0	75	21929
2026-01-17 03:05:05.27	121.36	14.85	-52.1	-55.5	3.7	0.00e+00	0	51	104	0	75	21782
2026-01-17 03:05:06.72	121.75	14.76	-52.1	-55.5	3.7	0.00e+00	0	51	104	0	75	21825
2026-01-17 03:05:07.43	121.95	14.71	-52.1	-55.5	3.7	0.00e+00	0	51	104	0	75	21677
2026-01-17 03:05:08.74	122.30	14.62	-52.1	-55.4	3.7	0.00e+00	0	51	104	0	75	21526
2026-01-17 03:05:09.45	122.49	14.57	-52.1	-55.5	3.7	0.00e+00	0	51	104	0	75	21716
2026-01-17 03:05:10.73	122.83	14.48	-52.1	-55.4	3.7	0.00e+00	0	51	104	0	75	21547
2026-01-17 03:05:11.45	123.02	14.43	-52.1	-55.5	3.7	0.00e+00	0	51	104	0	75	21799
2026-01-17 03:05:12.84	123.39	14.33	-52.2	-55.7	3.7	0.00e+00	0	51	104	0	75	22175
2026-01-17 03:05:13.55	123.57	14.29	-52.2	-55.5	3.7	0.00e+00	0	51	104	0	75	21846
2026-01-17 03:05:14.83	123.91	14.20	-52.1	-55.6	3.7	0.00e+00	0	51	104	0	75	21902
2026-01-17 03:05:15.54	124.09	14.15	-52.2	-55.6	3.7	0.00e+00	0	51	104	0	75	21905
2026-01-17 03:05:16.82	124.42	14.06	-52.0	-55.3	3.7	0.00e+00	0	51	104	0	75	21232
2026-01-17 03:05:17.54	124.60	14.01	-52.0	-55.4	3.7	0.00e+00	0	51	104	0	75	21392
2026-01-17 03:05:18.82	124.93	13.91	-52.1	-55.4	3.7	0.00e+00	0	51	104	0	75	21483
2026-01-17 03:05:19.53	125.11	13.86	-52.2	-55.5	3.7	0.00e+00	0	51	104	0	75	21772
2026-01-17 03:05:20.83	125.44	13.77	-52.1	-55.6	3.7	0.00e+00	0	51	104	0	75	21979
2026-01-17 03:05:21.55	125.62	13.72	-52.2	-55.7	3.7	0.00e+00	0	51	104	0	75	22154
2026-01-17 03:05:22.83	125.94	13.63	-52.1	-55.6	3.7	0.00e+00	0	51	104	0	75	22020
2026-01-17 03:05:23.56	126.12	13.58	-52.1	-55.6	3.7	0.00e+00	0	51	104	0	75	21927
2026-01-17 03:05:24.83	126.43	13.49	-52.1	-55.5	3.7	0.00e+00	0	51	104	0	75	21629
2026-01-17 03:05:25.54	126.61	13.43	-51.9	-55.2	3.7	0.00e+00	0	51	104	0	75	21010
2026-01-17 03:05:26.82	126.92	13.34	-51.9	-55.2	3.7	0.00e+00	0	51	104	0	75	21114
2026-01-17 03:05:27.56	127.10	13.29	-51.8	-55.1	3.7	0.00e+00	0	50	104	0	75	20776
2026-01-17 03:05:28.84	127.40	13.20	-51.6	-54.7	3.6	0.00e+00	0	51	104	0	75	19801
2026-01-17 03:05:29.55	127.57	13.15	-51.4	-54.5	3.7	0.00e+00	0	51	104	0	74	20513
2026-01-17 03:05:30.83	127.88	13.05	-51.3	-54.3	3.7	0.00e+00	0	51	104	0	74	20088
2026-01-17 03:05:31.55	128.05	13.00	-51.3	-54.4	3.7	0.00e+00	0	51	104	0	74	20190
2026-01-17 03:05:32.83	128.35	12.91	-51.5	-54.5	3.7	0.00e+00	0	51	104	0	74	20610
2026-01-17 03:05:33.54	128.52	12.85	-51.4	-54.4	3.7	0.00e+00	0	51	104	0	74	20296
2026-01-17 03:05:34.82	128.81	12.76	-51.4	-54.5	3.7	0.00e+00	0	51	104	0	74	20512
2026-01-17 03:05:35.55	128.98	12.71	-51.4	-54.5	3.7	0.00e+00	0	51	104	0	74	20454
2026-01-17 03:05:36.83	129.28	12.61	-51.6	-54.7	3.7	0.00e+00	0	51	104	0	74	21073
2026-01-17 03:05:37.55	129.44	12.56	-51.7	-54.8	3.7	0.00e+00	0	51	104	0	74	21258
2026-01-17 03:05:38.83	129.73	12.47	-51.6	-54.7	3.7	0.00e+00	0	51	104	0	74	21095
2026-01-17 03:05:39.54	129.89	12.42	-51.6	-54.7	3.7	0.00e+00	0	51	104	0	74	21088
2026-01-17 03:05:40.82	130.18	12.32	-51.6	-54.7	3.7	0.00e+00	0	51	104	0	74	20932
2026-01-17 03:05:41.53	130.34	12.27	-51.6	-54.7	3.7	0.00e+00	0	51	104	0	74	20908
2026-01-17 03:05:42.81	130.62	12.18	-51.5	-54.7	3.7	0.00e+00	0	51	104	0	74	20988
2026-01-17 03:05:43.62	130.80	12.12	-51.7	-54.9	3.7	0.00e+00	0	51	104	0	74	21517
2026-01-17 03:05:45.04	131.11	12.01	-51.5	-54.6	3.7	0.00e+00	0	51	104	0	74	20796
2026-01-17 03:05:45.75	131.27	11.96	-51.3	-54.4	3.7	0.00e+00	0	51	104	0	74	20279
2026-01-17 03:05:47.03	131.55	11.87	-51.3	-54.4	3.7	0.00e+00	0	51	104	0	74	20290
2026-01-17 03:05:47.75	131.70	11.81	-51.6	-54.8	3.7	0.00e+00	0	51	104	0	74	21231
2026-01-17 03:05:49.03	131.97	11.72	-51.4	-54.4	3.7	0.00e+00	0	51	104	0	74	20393
2026-01-17 03:05:49.77	132.13	11.66	-51.8	-55.0	3.7	0.00e+00	0	51	104	0	74	21654
2026-01-17 03:05:51.05	132.40	11.57	-51.6	-54.7	3.7	0.00e+00	0	51	104	0	74	20923
2026-01-17 03:05:51.76	132.55	11.52	-51.8	-55.1	3.7	0.00e+00	0	51	104	0	74	21899
2026-01-17 03:05:53.04	132.82	11.42	-51.7	-54.9	3.7	0.00e+00	0	51	104	0	74	21593
2026-01-17 03:05:53.75	132.97	11.37	-51.8	-55.1	3.7	0.00e+00	0	51	104	0	74	22007
2026-01-17 03:05:55.03	133.23	11.27	-51.7	-54.9	3.7	0.00e+00	0	51	104	0	74	21561
2026-01-17 03:05:55.75	133.38	11.22	-51.8	-55.1	3.7	0.00e+00	0	51	104	0	74	21966
2026-01-17 03:05:57.03	133.64	11.13	-51.9	-55.2	3.7	0.00e+00	0	51	104	0	74	22262
2026-01-17 03:05:57.74	133.78	11.07	-51.8	-55.1	3.7	0.00e+00	0	51	104	0	74	22079
2026-01-17 03:05:59.02	134.04	10.98	-51.9	-55.1	3.7	0.00e+00	0	51	104	0	74	22095
2026-01-17 03:05:59.75	134.19	10.93	-51.9	-55.3	3.7	0.00e+00	0	51	104	0	74	22583
2026-01-17 03:06:01.12	134.46	10.83	-51.6	-54.9	3.7	0.00e+00	0	51	104	0	74	21413
2026-01-17 03:06:01.83	134.60	10.77	-51.6	-54.9	3.7	0.00e+00	0	51	104	0	74	21374
2026-01-17 03:06:03.18	134.87	10.67	-51.9	-55.2	3.7	0.00e+00	0	51	104	0	74	22272
2026-01-17 03:06:03.89	135.01	10.62	-51.8	-55.2	3.7	0.00e+00	0	51	104	0	74	22196
2026-01-17 03:06:05.17	135.25	10.53	-51.7	-55.0	3.7	0.00e+00	0	51	104	0	74	21711
2026-01-17 03:06:05.89	135.39	10.47	-51.8	-55.2	3.7	0.00e+00	0	51	104	0	74	22302
2026-01-17 03:06:07.17	135.64	10.38	-51.7	-55.0	3.7	0.00e+00	0	51	104	0	74	21693
2026-01-17 03:06:07.88	135.77	10.33	-51.8	-55.2	3.7	0.00e+00	0	51	104	0	74	22201
2026-01-17 03:06:09.16	136.02	10.23	-52.0	-55.4	3.7	0.00e+00	0	51	104	0	74	22853
2026-01-17 03:06:09.89	136.15	10.18	-51.8	-55.2	3.7	0.00e+00	0	51	104	0	74	22251
2026-01-17 03:06:11.16	136.39	10.09	-51.8	-55.1	3.7	0.00e+00	0	51	104	0	74	21982
2026-01-17 03:06:11.91	136.53	10.03	-51.7	-55.0	3.7	0.00e+00	0	51	104	0	74	21773
2026-01-17 03:06:13.19	136.77	9.94	-51.9	-55.3	3.7	0.00e+00	0	51	104	0	74	22602
2026-01-17 03:06:14.01	136.92	9.88	-51.9	-55.3	3.7	0.00e+00	0	51	104	0	74	22608
2026-01-17 03:06:15.15	137.13	9.80	-51.9	-55.3	3.7	0.00e+00	0	51	104	0	74	22479
2026-01-17 03:06:16.00	137.28	9.73	-51.8	-55.2	3.7	0.00e+00	0	51	104	0	74	22223
2026-01-17 03:06:17.14	137.49	9.65	-52.0	-55.4	3.7	0.00e+00	0	51	104	0	74	22784
2026-01-17 03:06:17.99	137.64	9.59	-51.8	-55.3	3.7	0.00e+00	0	51	104	0	74	22369
2026-01-17 03:06:19.13	137.85	9.51	-51.9	-55.3	3.7	0.00e+00	0	51	104	0	74	22601
2026-01-17 03:06:20.29	138.05	9.42	-51.8	-55.2	3.7	0.00e+00	0	51	104	0	74	22267
2026-01-17 03:06:21.32	138.23	9.35	-51.8	-55.2	3.7	0.00e+00	0	51	104	0	74	22124
2026-01-17 03:06:22.32	138.41	9.27	-51.7	-55.1	3.7	0.00e+00	0	51	104	0	74	21878
2026-01-17 03:06:23.31	138.58	9.20	-51.8	-55.1	3.7	0.00e+00	0	51	104	0	74	22080
2026-01-17 03:06:24.31	138.75	9.13	-51.7	-55.1	3.7	0.00e+00	0	51	104	0	74	21865
2026-01-17 03:06:25.30	138.92	9.06	-51.7	-55.0	3.7	0.00e+00	0	51	104	0	74	21746
2026-01-17 03:06:26.30	139.10	8.99	-51.5	-54.8	3.7	0.00e+00	0	51	104	0	74	21241
2026-01-17 03:06:27.29	139.26	8.91	-51.9	-55.2	3.7	0.00e+00	0	51	104	0	74	22129
2026-01-17 03:06:28.28	139.43	8.84	-52.1	-55.5	3.7	0.00e+00	0	51	104	0	74	22959
2026-01-17 03:06:29.28	139.60	8.77	-52.0	-55.3	3.7	0.00e+00	0	51	104	0	74	22410
2026-01-17 03:06:30.27	139.77	8.70	-52.1	-55.3	3.7	0.00e+00	0	51	104	0	74	22520
2026-01-17 03:06:31.26	139.93	8.63	-52.3	-55.7	3.7	0.00e+00	0	51	104	0	75	22133
2026-01-17 03:06:32.26	140.09	8.56	-52.1	-55.3	3.7	0.00e+00	0	51	104	0	75	21260
2026-01-17 03:06:33.25	140.26	8.49	-52.6	-56.0	3.7	0.00e+00	0	51	104	0	75	22931
2026-01-17 03:06:34.24	140.42	8.42	-52.5	-55.9	3.7	0.00e+00	0	51	104	0	76	21478
2026-01-17 03:06:35.24	140.58	8.34	-52.5	-55.9	3.7	0.00e+00	0	51	104	0	76	21463
2026-01-17 03:06:36.23	140.74	8.27	-52.5	-55.9	3.7	0.00e+00	0	51	104	0	76	21581
2026-01-17 03:06:37.22	140.90	8.20	-52.2	-55.4	3.7	0.00e+00	0	51	104	0	76	20168
2026-01-17 03:06:38.21	141.06	8.13	-52.8	-56.2	3.7	0.00e+00	0	51	104	0	76	22244
2026-01-17 03:06:39.21	141.22	8.06	-52.2	-55.4	3.7	0.00e+00	0	51
