passes_logs/2026/01/17/T1/T1__20260117_113620_AQUA_rec.log

#Pass ID: 20260117_113620_AQUA
#Satellite: AQUA
#Configuration: AQUA
#almurnet v.1.7.20251203
#Start time: 2026-01-17 11:36:21

#Version: 2.0.20230620
#Station: T1
#Location: 37.570604 lon 55.790049 lat
#TLE: 1 27424U 02022A   26016.26443506  .00000711  00000+0  15228-3 0  9999
#TLE: 2 27424  98.4083 342.7130 0002022  76.7284  27.4473 14.61823291261073

#Time	Az	El	Level	Level2	SNR	BER	BlckErr	Temp	State	Recorded	gain1	gain2
2026-01-17 11:36:21.40	158.47	5.10	-51.5	-70.6	3.8	7.45e-01	0	38	0	0	74	32762
2026-01-17 11:36:22.38	158.46	5.17	-51.5	-69.1	4.0	7.39e-01	0	39	104	0	73	29075
2026-01-17 11:36:23.38	158.46	5.25	-51.5	-69.3	3.8	7.42e-01	0	39	104	0	73	29795
2026-01-17 11:36:24.37	158.45	5.32	-51.5	-69.4	4.0	7.43e-01	0	39	104	0	73	30191
2026-01-17 11:36:25.36	158.45	5.40	-51.5	-69.6	3.8	7.42e-01	0	39	104	0	73	30866
2026-01-17 11:36:26.36	158.45	5.47	-51.5	-70.2	3.8	7.43e-01	0	39	104	0	73	33160
2026-01-17 11:36:27.35	158.44	5.55	-51.5	-70.8	3.8	7.43e-01	0	39	104	0	73	35436
2026-01-17 11:36:28.34	158.44	5.63	-51.5	-71.3	3.8	7.49e-01	0	39	104	0	73	37799
2026-01-17 11:36:29.34	158.43	5.70	-51.5	-71.7	3.8	7.45e-01	0	39	104	0	73	39376
2026-01-17 11:36:30.33	158.43	5.78	-51.5	-71.5	3.8	7.44e-01	0	39	104	0	73	38487
2026-01-17 11:36:31.32	158.43	5.86	-51.5	-70.8	3.8	7.44e-01	0	39	104	0	73	35492
2026-01-17 11:36:32.31	158.42	5.94	-51.5	-69.8	3.8	7.46e-01	0	39	104	0	73	31486
2026-01-17 11:36:33.31	158.42	6.01	-51.5	-68.2	4.2	7.35e-01	0	39	104	0	73	26159
2026-01-17 11:36:34.30	158.41	6.09	-51.4	-67.2	4.0	7.36e-01	0	39	104	0	73	23494
2026-01-17 11:36:35.29	158.41	6.17	-51.4	-66.3	4.9	7.12e-01	0	39	0	0	73	21139
2026-01-17 11:36:36.29	158.40	6.25	-51.4	-65.9	5.1	7.04e-01	0	39	0	0	73	20120
2026-01-17 11:36:37.28	158.40	6.33	-51.3	-65.5	5.4	6.99e-01	0	39	0	0	73	19285
2026-01-17 11:36:38.28	158.39	6.41	-51.4	-65.7	5.3	7.03e-01	0	39	0	524288	73	19629
2026-01-17 11:36:39.27	158.39	6.49	-51.4	-66.3	4.9	7.10e-01	0	39	0	524288	73	21060
2026-01-17 11:36:40.26	158.39	6.57	-51.4	-67.7	3.9	7.41e-01	0	39	104	524288	73	24808
2026-01-17 11:36:41.26	158.38	6.65	-51.5	-68.3	4.2	7.35e-01	0	39	104	524288	73	26561
2026-01-17 11:36:42.25	158.38	6.73	-51.5	-69.6	3.9	7.46e-01	0	39	104	524288	73	30745
2026-01-17 11:36:43.24	158.37	6.81	-51.5	-70.7	3.8	7.45e-01	0	39	104	524288	73	35261
2026-01-17 11:36:44.24	158.37	6.89	-51.5	-71.5	3.8	7.48e-01	0	39	104	524288	73	38639
2026-01-17 11:36:45.23	158.36	6.97	-51.5	-71.7	3.8	7.46e-01	0	39	104	524288	73	39291
2026-01-17 11:36:46.22	158.36	7.05	-51.5	-71.4	3.8	7.45e-01	0	39	104	524288	73	37860
2026-01-17 11:36:47.22	158.35	7.14	-51.5	-70.8	3.8	7.45e-01	0	39	104	524288	73	35334
2026-01-17 11:36:48.21	158.35	7.22	-51.5	-69.8	3.8	7.47e-01	0	39	104	524288	73	31683
2026-01-17 11:36:49.20	158.34	7.30	-51.4	-68.1	4.2	7.34e-01	0	39	104	524288	73	25985
2026-01-17 11:36:50.20	158.34	7.38	-51.4	-66.1	5.0	7.11e-01	0	39	0	524288	73	20730
2026-01-17 11:36:51.19	158.33	7.47	-51.2	-64.2	6.3	6.77e-01	0	39	0	1572864	73	16506
2026-01-17 11:36:52.18	158.33	7.55	-51.0	-61.8	8.5	6.42e-01	0	40	0	3145728	73	12571
2026-01-17 11:36:53.17	158.32	7.63	-50.7	-59.6	10.8	6.17e-01	0	40	0	5242880	73	9801
2026-01-17 11:36:54.17	158.32	7.72	-50.2	-57.7	12.8	6.10e-01	0	40	0	6815744	72	8288
2026-01-17 11:36:55.16	158.31	7.80	-49.8	-56.1	14.5	6.09e-01	0	39	0	8912896	71	7368
2026-01-17 11:36:56.15	158.31	7.89	-49.3	-54.8	15.8	6.07e-01	0	40	0	10485760	70	6671
2026-01-17 11:36:57.15	158.30	7.97	-48.7	-53.6	16.9	6.07e-01	0	40	0	12582912	69	6174
2026-01-17 11:36:58.14	158.30	8.06	-48.2	-52.6	18.0	6.07e-01	0	40	0	14155776	68	5814
2026-01-17 11:36:59.13	158.29	8.14	-47.6	-51.6	18.9	6.07e-01	0	40	0	16252928	67	5472
2026-01-17 11:37:00.13	158.28	8.23	-47.5	-51.5	19.0	6.06e-01	0	40	0	18350080	67	5407
2026-01-17 11:37:01.12	158.28	8.31	-47.5	-51.4	19.1	6.07e-01	0	40	0	19922944	66	5682
2026-01-17 11:37:02.11	158.27	8.40	-47.4	-51.2	19.2	6.08e-01	0	40	0	22020096	66	5574
2026-01-17 11:37:03.11	158.27	8.49	-47.6	-51.6	18.9	6.07e-01	0	40	0	23592960	66	5794
2026-01-17 11:37:04.10	158.26	8.57	-47.7	-51.8	18.7	6.07e-01	0	40	0	25690112	66	5929
2026-01-17 11:37:05.09	158.26	8.66	-47.9	-52.2	18.3	6.08e-01	0	40	0	27262976	66	6221
2026-01-17 11:37:06.08	158.25	8.75	-48.6	-53.4	17.1	6.07e-01	0	40	0	29360128	67	6737
2026-01-17 11:37:07.08	158.24	8.84	-49.2	-54.7	16.0	6.07e-01	0	40	0	30932992	69	6973
2026-01-17 11:37:08.07	158.24	8.93	-49.7	-55.9	14.8	6.06e-01	0	40	0	33030144	70	7555
2026-01-17 11:37:09.06	158.23	9.01	-50.2	-57.5	13.1	6.11e-01	0	40	0	35127296	71	8635
2026-01-17 11:37:10.06	158.23	9.10	-45.7	-48.7	21.7	6.05e-01	0	40	0	36700160	63	4938
2026-01-17 11:37:11.05	158.22	9.19	-51.3	-63.8	6.6	6.70e-01	0	40	0	38797312	73	15902
2026-01-17 11:37:12.05	158.21	9.28	-48.8	-53.8	17.0	6.09e-01	0	40	0	40370176	69	6322
2026-01-17 11:37:13.04	158.21	9.37	-45.3	-48.2	22.1	6.07e-01	0	40	0	42467328	62	4972
2026-01-17 11:37:14.03	158.20	9.47	-51.4	-66.3	4.9	7.14e-01	0	40	0	44040192	73	21203
2026-01-17 11:37:15.03	158.19	9.56	-45.8	-48.8	21.6	6.06e-01	0	40	0	45613056	63	5026
2026-01-17 11:37:16.02	158.19	9.65	-44.9	-47.6	20.8	6.06e-01	0	40	0	47710208	61	4922
2026-01-17 11:37:17.02	158.18	9.74	-44.7	-47.4	23.0	6.08e-01	0	40	0	49283072	61	4787
2026-01-17 11:37:18.01	158.17	9.83	-44.5	-47.2	23.1	6.08e-01	0	40	0	51380224	61	4672
2026-01-17 11:37:19.01	158.17	9.93	-44.4	-47.1	23.1	6.08e-01	0	40	0	52953088	60	4915
2026-01-17 11:37:20.00	158.16	10.02	-44.5	-47.2	23.1	6.06e-01	0	40	0	55050240	60	4970
2026-01-17 11:37:21.00	158.15	10.11	-44.4	-47.0	23.3	6.09e-01	0	40	0	56623104	60	4868
2026-01-17 11:37:21.99	158.15	10.21	-44.5	-47.2	23.1	6.07e-01	0	40	0	58720256	60	4945
2026-01-17 11:37:22.98	158.14	10.30	-44.4	-47.0	23.3	6.07e-01	0	40	0	60293120	60	4856
2026-01-17 11:37:23.98	158.13	10.40	-44.4	-47.1	23.3	6.06e-01	0	40	0	62390272	60	4877
2026-01-17 11:37:24.98	158.13	10.49	-44.5	-47.2	23.2	6.07e-01	0	40	0	64487424	60	4927
2026-01-17 11:37:25.97	158.12	10.59	-44.6	-47.3	22.9	6.07e-01	0	40	0	66060288	60	5041
2026-01-17 11:37:26.97	158.11	10.68	-44.5	-47.2	23.1	6.07e-01	0	40	0	68157440	60	4933
2026-01-17 11:37:27.96	158.11	10.78	-44.5	-47.1	23.2	6.06e-01	0	40	0	69730304	60	4923
2026-01-17 11:37:28.96	158.10	10.88	-44.4	-47.1	23.3	6.08e-01	0	40	0	71827456	60	4888
2026-01-17 11:37:29.95	158.09	10.97	-44.2	-46.9	23.4	6.06e-01	0	40	0	73400320	60	4763
2026-01-17 11:37:30.95	158.08	11.07	-44.1	-46.7	23.6	6.06e-01	0	40	0	75497472	60	4668
2026-01-17 11:37:31.94	158.08	11.17	-44.2	-46.8	23.5	6.05e-01	0	40	0	77070336	60	4723
2026-01-17 11:37:32.94	158.07	11.27	-44.1	-46.7	23.6	6.06e-01	0	40	0	79167488	60	4664
2026-01-17 11:37:33.93	158.06	11.37	-44.1	-46.6	23.7	6.08e-01	0	40	0	81264640	60	4635
2026-01-17 11:37:34.92	158.05	11.47	-44.0	-46.6	23.7	6.05e-01	0	40	0	82837504	60	4609
2026-01-17 11:37:35.92	158.04	11.57	-44.2	-46.7	23.6	6.06e-01	0	40	0	84934656	60	4677
2026-01-17 11:37:36.91	158.04	11.67	-44.1	-46.6	23.7	6.08e-01	0	40	0	86507520	60	4622
2026-01-17 11:37:37.90	158.03	11.77	-44.1	-46.6	23.7	6.07e-01	0	40	0	88604672	60	4638
2026-01-17 11:37:38.90	158.02	11.87	-44.0	-46.5	23.8	6.07e-01	0	40	0	90177536	60	4556
2026-01-17 11:37:39.89	158.01	11.97	-44.1	-46.6	23.8	6.06e-01	0	40	0	92274688	59	4895
2026-01-17 11:37:40.89	158.00	12.07	-44.2	-46.8	23.6	6.06e-01	0	40	0	93847552	59	4993
2026-01-17 11:37:41.93	158.00	12.18	-44.2	-46.7	19.9	6.07e-01	0	40	0	95944704	59	4960
2026-01-17 11:37:42.95	157.99	12.29	-44.1	-46.6	23.8	6.08e-01	0	40	0	98041856	59	4879
2026-01-17 11:37:43.98	157.98	12.39	-44.0	-46.5	23.9	6.08e-01	0	40	0	99614720	59	4869
2026-01-17 11:37:44.98	157.97	12.50	-44.1	-46.6	23.8	6.06e-01	0	40	0	101711872	59	4920
2026-01-17 11:37:45.97	157.96	12.60	-44.1	-46.7	23.7	6.07e-01	0	40	0	103809024	59	4944
2026-01-17 11:37:46.97	157.95	12.71	-44.1	-46.7	23.7	6.07e-01	0	40	0	105381888	59	4950
2026-01-17 11:37:47.96	157.94	12.81	-44.1	-46.6	23.8	6.06e-01	0	40	0	107479040	59	4887
2026-01-17 11:37:48.96	157.93	12.92	-44.0	-46.5	23.9	6.06e-01	0	40	0	109051904	59	4821
2026-01-17 11:37:49.95	157.93	13.03	-44.1	-46.5	23.9	6.06e-01	0	40	0	111149056	59	4865
2026-01-17 11:37:50.94	157.92	13.13	-44.0	-46.5	23.9	6.09e-01	0	40	0	112721920	59	4838
2026-01-17 11:37:51.94	157.91	13.24	-44.0	-46.5	23.9	6.05e-01	0	40	0	114819072	59	4823
2026-01-17 11:37:52.93	157.90	13.35	-44.1	-46.5	23.9	6.08e-01	0	40	0	116391936	59	4861
2026-01-17 11:37:53.93	157.89	13.46	-44.0	-46.5	23.9	6.06e-01	0	40	0	118489088	59	4839
2026-01-17 11:37:54.92	157.88	13.57	-44.0	-46.4	24.0	6.07e-01	0	41	0	120586240	59	4799
2026-01-17 11:37:55.92	157.87	13.68	-44.0	-46.5	23.9	6.07e-01	0	40	0	122159104	59	4833
2026-01-17 11:37:56.91	157.86	13.79	-43.9	-46.3	24.0	6.09e-01	0	40	0	124256256	59	4754
2026-01-17 11:37:57.91	157.85	13.90	-43.9	-46.3	24.1	6.04e-01	0	40	0	125829120	59	4740
2026-01-17 11:37:58.95	157.84	14.02	-43.9	-46.4	24.0	6.09e-01	0	40	0	127926272	59	4787
2026-01-17 11:37:59.97	157.83	14.13	-44.1	-46.6	23.8	6.07e-01	0	40	0	130023424	59	4899
2026-01-17 11:38:01.00	157.82	14.25	-43.9	-46.3	24.1	6.07e-01	0	40	0	131596288	59	4732
2026-01-17 11:38:01.99	157.81	14.36	-44.0	-46.4	24.0	6.07e-01	0	40	0	133693440	59	4812
2026-01-17 11:38:02.99	157.80	14.48	-43.9	-46.4	24.0	6.06e-01	0	40	0	135266304	59	4765
2026-01-17 11:38:03.99	157.79	14.59	-43.8	-46.3	24.1	6.06e-01	0	40	0	137363456	59	4710
2026-01-17 11:38:04.98	157.78	14.71	-43.8	-46.2	24.2	6.06e-01	0	40	0	139460608	59	4686
2026-01-17 11:38:05.98	157.77	14.82	-43.8	-46.2	24.2	6.06e-01	0	40	0	141033472	59	4698
2026-01-17 11:38:06.97	157.76	14.94	-43.8	-46.3	24.1	6.06e-01	0	40	0	143130624	59	4723
2026-01-17 11:38:07.97	157.74	15.06	-43.8	-46.4	24.1	6.09e-01	0	40	0	144703488	59	4762
2026-01-17 11:38:08.96	157.73	15.17	-43.9	-46.4	24.1	6.06e-01	0	41	0	146800640	59	4789
2026-01-17 11:38:09.96	157.72	15.29	-43.9	-46.5	24.0	6.06e-01	0	40	0	148373504	59	4834
2026-01-17 11:38:10.95	157.71	15.41	-43.9	-46.5	24.0	6.08e-01	0	40	0	150470656	59	4815
2026-01-17 11:38:11.94	157.70	15.53	-43.8	-46.3	24.1	6.04e-01	0	40	0	152043520	59	4755
2026-01-17 11:38:12.94	157.69	15.65	-43.9	-46.5	23.9	6.05e-01	0	40	0	154140672	59	4860
2026-01-17 11:38:13.93	157.68	15.77	-44.0	-46.6	23.9	6.06e-01	0	40	0	156237824	59	4920
2026-01-17 11:38:14.97	157.66	15.90	-44.0	-46.6	23.9	6.07e-01	0	40	0	157810688	59	4914
2026-01-17 11:38:15.93	157.65	16.02	-44.1	-46.6	23.9	6.04e-01	0	40	0	159907840	59	4926
2026-01-17 11:38:16.93	157.64	16.14	-44.0	-46.6	23.9	6.06e-01	0	41	0	161480704	59	4892
2026-01-17 11:38:17.92	157.63	16.26	-44.0	-46.6	23.9	6.06e-01	0	41	0	163577856	59	4901
2026-01-17 11:38:18.92	157.62	16.39	-44.0	-46.6	23.9	6.08e-01	0	40	0	165150720	59	4896
2026-01-17 11:38:19.91	157.60	16.51	-44.0	-46.6	23.9	6.07e-01	0	40	0	167247872	59	4875
2026-01-17 11:38:20.91	157.59	16.64	-44.0	-46.5	24.0	6.06e-01	0	40	0	169345024	59	4842
2026-01-17 11:38:21.90	157.58	16.77	-43.9	-46.4	24.1	6.05e-01	0	41	0	170917888	59	4799
2026-01-17 11:38:22.90	157.57	16.89	-43.9	-46.4	24.1	6.04e-01	0	41	0	173015040	59	4790
2026-01-17 11:38:23.89	157.55	17.02	-43.9	-46.4	24.0	6.07e-01	0	40	0	174587904	59	4799
2026-01-17 11:38:24.88	157.54	17.15	-43.9	-46.4	24.0	6.04e-01	0	40	0	176685056	59	4812
2026-01-17 11:38:25.88	157.53	17.28	-43.9	-46.4	24.1	6.08e-01	0	40	0	178257920	59	4780
2026-01-17 11:38:26.87	157.51	17.41	-43.7	-46.2	24.2	6.10e-01	0	40	0	180355072	59	4672
2026-01-17 11:38:27.87	157.50	17.54	-43.7	-46.1	24.3	6.05e-01	0	40	0	181927936	59	4648
2026-01-17 11:38:28.86	157.49	17.67	-43.7	-46.1	24.4	6.08e-01	0	41	0	184025088	59	4620
2026-01-17 11:38:29.86	157.47	17.81	-43.7	-46.1	24.0	6.06e-01	0	40	0	186122240	59	4625
2026-01-17 11:38:30.87	157.46	17.94	-43.6	-46.1	24.4	6.07e-01	0	41	0	187695104	59	4607
2026-01-17 11:38:31.86	157.44	18.07	-43.7	-46.2	24.3	6.08e-01	0	40	0	189792256	59	4666
2026-01-17 11:38:32.86	157.43	18.21	-43.7	-46.2	24.3	6.06e-01	0	40	0	191365120	59	4669
2026-01-17 11:38:33.95	157.41	18.36	-43.9	-46.3	24.1	6.08e-01	0	41	0	193462272	59	4759
2026-01-17 11:38:34.80	157.40	18.48	-43.9	-46.4	24.1	6.06e-01	0	40	0	195035136	59	4788
2026-01-17 11:38:35.94	157.39	18.63	-44.0	-46.5	24.0	6.09e-01	0	41	0	197132288	59	4865
2026-01-17 11:38:36.79	157.37	18.75	-43.9	-46.4	24.1	6.08e-01	0	40	0	198705152	59	4814
2026-01-17 11:38:37.93	157.36	18.91	-43.9	-46.5	24.0	6.05e-01	0	40	0	200802304	59	4827
2026-01-17 11:38:38.78	157.34	19.03	-43.9	-46.5	24.0	6.05e-01	0	40	0	202375168	59	4837
2026-01-17 11:38:39.92	157.32	19.19	-44.0	-46.6	23.9	6.07e-01	0	41	0	204996608	59	4887
2026-01-17 11:38:40.77	157.31	19.31	-44.1	-46.6	23.9	6.09e-01	0	41	0	206569472	59	4906
2026-01-17 11:38:41.91	157.29	19.48	-44.1	-46.6	23.9	6.07e-01	0	41	0	208666624	59	4916
2026-01-17 11:38:42.76	157.28	19.60	-44.1	-46.6	23.9	6.07e-01	0	40	0	210239488	59	4922
2026-01-17 11:38:43.90	157.26	19.77	-44.0	-46.6	24.0	6.04e-01	0	41	0	212336640	59	4888
2026-01-17 11:38:44.75	157.25	19.89	-44.1	-46.6	23.9	6.06e-01	0	41	0	213909504	59	4918
2026-01-17 11:38:45.92	157.23	20.06	-44.1	-46.6	23.9	6.05e-01	0	40	0	216006656	59	4915
2026-01-17 11:38:46.77	157.21	20.19	-44.0	-46.5	24.0	6.06e-01	0	40	0	217579520	59	4845
2026-01-17 11:38:47.91	157.19	20.36	-44.0	-46.5	24.0	6.07e-01	0	40	0	219676672	59	4869
2026-01-17 11:38:48.76	157.18	20.49	-44.1	-46.6	23.9	6.07e-01	0	40	0	221249536	59	4921
2026-01-17 11:38:50.01	157.16	20.67	-44.2	-46.7	23.9	6.07e-01	0	41	0	223870976	59	4968
2026-01-17 11:38:50.86	157.14	20.80	-44.2	-46.7	23.8	6.06e-01	0	40	0	225443840	59	4981
2026-01-17 11:38:52.07	157.12	20.99	-44.3	-46.9	23.7	6.06e-01	0	40	0	227540992	59	5044
2026-01-17 11:38:52.92	157.10	21.12	-44.3	-46.9	23.7	6.06e-01	0	41	0	229113856	59	5063
2026-01-17 11:38:54.11	157.08	21.30	-44.5	-47.0	23.6	6.07e-01	0	40	0	231211008	59	5137
2026-01-17 11:38:54.96	157.07	21.44	-44.5	-47.0	23.6	6.06e-01	0	40	0	232783872	59	5156
2026-01-17 11:38:56.10	157.04	21.62	-44.4	-46.9	23.7	6.06e-01	0	41	0	234881024	59	5062
2026-01-17 11:38:56.95	157.03	21.75	-44.4	-46.9	23.7	6.07e-01	0	40	0	236978176	59	5074
2026-01-17 11:38:58.09	157.01	21.93	-44.4	-46.8	23.8	6.05e-01	0	41	0	238551040	59	5039
2026-01-17 11:38:58.94	156.99	22.07	-44.3	-46.7	23.9	6.07e-01	0	41	0	240648192	59	4980
2026-01-17 11:39:00.07	156.97	22.25	-44.2	-46.7	23.9	6.07e-01	0	40	0	242745344	59	4933
2026-01-17 11:39:01.10	156.95	22.42	-44.1	-46.6	24.0	6.08e-01	0	40	0	244318208	59	4885
2026-01-17 11:39:02.27	156.92	22.61	-44.2	-46.6	23.9	6.08e-01	0	40	0	246415360	59	4917
2026-01-17 11:39:03.12	156.91	22.75	-44.1	-46.6	24.0	6.06e-01	0	41	0	248512512	59	4874
2026-01-17 11:39:04.26	156.88	22.94	-44.1	-46.6	24.0	6.07e-01	0	40	0	250609664	59	4885
2026-01-17 11:39:05.20	156.86	23.10	-44.2	-46.6	24.0	6.09e-01	0	40	0	252182528	59	4910
2026-01-17 11:39:06.19	156.84	23.27	-44.1	-46.6	24.0	6.05e-01	0	41	0	253755392	59	4886
2026-01-17 11:39:07.18	156.82	23.44	-44.2	-46.6	24.0	6.06e-01	0	40	0	255852544	59	4909
2026-01-17 11:39:08.18	156.80	23.61	-44.2	-46.7	23.9	6.07e-01	0	40	0	257949696	59	4942
2026-01-17 11:39:09.18	156.77	23.78	-44.2	-46.7	23.9	6.07e-01	0	41	0	259522560	59	4953
2026-01-17 11:39:10.50	156.74	24.01	-44.3	-46.7	23.9	6.05e-01	0	40	0	262144000	59	4977
2026-01-17 11:39:11.21	156.73	24.13	-44.3	-46.8	23.9	6.07e-01	0	41	0	263192576	59	5009
2026-01-17 11:39:12.49	156.70	24.36	-44.2	-46.6	24.0	6.06e-01	0	41	0	265814016	59	4914
2026-01-17 11:39:13.22	156.68	24.49	-44.2	-46.6	24.0	6.06e-01	0	40	0	267386880	59	4907
2026-01-17 11:39:14.50	156.65	24.72	-44.2	-46.6	24.0	6.09e-01	0	41	0	269484032	59	4916
2026-01-17 11:39:15.22	156.63	24.85	-44.2	-46.6	24.0	6.06e-01	0	41	0	271056896	59	4917
2026-01-17 11:39:16.50	156.60	25.08	-44.2	-46.6	24.0	6.06e-01	0	41	0	273154048	59	4906
2026-01-17 11:39:17.23	156.58	25.22	-44.1	-46.6	24.1	6.09e-01	0	40	0	274726912	59	4892
2026-01-17 11:39:18.54	156.55	25.46	-44.1	-46.6	24.1	6.05e-01	0	41	0	277348352	59	4888
2026-01-17 11:39:19.25	156.53	25.59	-44.2	-46.7	24.0	6.08e-01	0	41	0	278396928	59	4933
2026-01-17 11:39:20.52	156.50	25.83	-44.3	-46.7	23.9	6.08e-01	0	41	0	281018368	59	4969
2026-01-17 11:39:21.25	156.48	25.96	-44.2	-46.7	24.0	6.06e-01	0	40	0	282066944	59	4943
2026-01-17 11:39:22.64	156.44	26.23	-44.1	-46.6	23.4	6.06e-01	0	40	0	284688384	59	4893
2026-01-17 11:39:23.35	156.42	26.37	-44.2	-46.6	24.0	6.07e-01	0	41	0	286261248	59	4915
2026-01-17 11:39:24.63	156.39	26.61	-44.2	-46.7	24.0	6.06e-01	0	40	0	288358400	59	4954
2026-01-17 11:39:25.65	156.36	26.81	-44.1	-46.6	24.0	6.08e-01	0	40	0	290455552	59	4901
2026-01-17 11:39:26.97	156.32	27.07	-44.0	-46.4	24.2	6.08e-01	0	41	0	293076992	59	4795
2026-01-17 11:39:27.68	156.30	27.21	-43.9	-46.3	24.3	6.07e-01	0	41	0	294125568	59	4742
2026-01-17 11:39:28.96	156.27	27.47	-43.6	-46.0	24.5	6.08e-01	0	40	0	296747008	59	4590
2026-01-17 11:39:29.68	156.24	27.61	-43.6	-46.0	24.5	6.06e-01	0	41	0	297795584	59	4566
2026-01-17 11:39:30.96	156.21	27.87	-43.6	-46.1	24.5	6.05e-01	0	40	0	300417024	59	4600
2026-01-17 11:39:31.67	156.18	28.02	-43.6	-46.1	24.5	6.07e-01	0	40	0	301989888	59	4603
2026-01-17 11:39:32.95	156.15	28.28	-43.8	-46.3	24.3	6.07e-01	0	41	0	304087040	59	4752
2026-01-17 11:39:33.67	156.12	28.43	-44.0	-46.5	24.2	6.06e-01	0	40	0	305659904	59	4832
2026-01-17 11:39:34.95	156.08	28.70	-44.0	-46.5	24.1	6.08e-01	0	40	0	307757056	59	4864
2026-01-17 11:39:35.69	156.06	28.86	-43.9	-46.4	24.2	6.07e-01	0	41	0	309329920	59	4814
2026-01-17 11:39:36.97	156.02	29.13	-44.0	-46.5	24.2	6.09e-01	0	40	0	311951360	59	4828
2026-01-17 11:39:37.69	155.99	29.28	-43.9	-46.4	24.2	6.07e-01	0	40	0	312999936	59	4797
2026-01-17 11:39:38.97	155.95	29.56	-43.9	-46.4	24.2	6.07e-01	0	40	0	315621376	59	4786
2026-01-17 11:39:39.71	155.92	29.72	-43.7	-46.2	24.4	6.06e-01	0	40	0	316669952	59	4691
2026-01-17 11:39:41.12	155.87	30.03	-43.4	-45.9	24.6	6.07e-01	0	40	0	319291392	58	4806
2026-01-17 11:39:41.83	155.85	30.19	-43.3	-45.8	24.7	6.09e-01	0	40	0	320864256	58	4735
2026-01-17 11:39:43.11	155.80	30.48	-43.4	-45.8	24.7	6.07e-01	0	40	0	323485696	58	4757
2026-01-17 11:39:43.82	155.78	30.64	-43.5	-46.0	24.6	6.07e-01	0	41	0	324534272	58	4831
2026-01-17 11:39:45.10	155.73	30.93	-43.5	-46.0	24.6	6.09e-01	0	40	0	327155712	58	4870
2026-01-17 11:39:45.82	155.70	31.10	-43.5	-46.0	24.6	6.07e-01	0	41	0	328204288	58	4818
2026-01-17 11:39:47.10	155.65	31.39	-43.5	-45.9	24.7	6.05e-01	0	41	0	330825728	58	4779
2026-01-17 11:39:47.83	155.63	31.56	-43.5	-45.9	24.7	6.05e-01	0	40	0	331874304	58	4783
2026-01-17 11:39:49.11	155.57	31.86	-43.5	-45.8	24.7	6.06e-01	0	41	0	334495744	58	4748
2026-01-17 11:39:49.82	155.55	32.03	-43.6	-46.0	24.6	6.07e-01	0	40	0	336068608	58	4815
2026-01-17 11:39:51.10	155.49	32.34	-43.7	-46.1	24.5	6.07e-01	0	40	0	338165760	58	4914
2026-01-17 11:39:51.83	155.46	32.52	-43.8	-46.2	24.4	6.07e-01	0	40	0	339738624	58	4973
2026-01-17 11:39:53.11	155.41	32.83	-44.0	-46.4	24.2	6.08e-01	0	40	0	341835776	58	5098
2026-01-17 11:39:53.82	155.38	33.00	-44.1	-46.6	24.1	6.05e-01	0	40	0	343408640	58	5179
2026-01-17 11:39:55.09	155.32	33.32	-44.2	-46.7	24.0	6.05e-01	0	40	0	345505792	59	4955
2026-01-17 11:39:56.11	155.28	33.57	-44.4	-46.9	23.9	6.06e-01	0	40	0	347602944	59	5049
2026-01-17 11:39:57.10	155.23	33.82	-44.3	-46.8	24.0	6.08e-01	0	41	0	349700096	59	5009
2026-01-17 11:39:58.10	155.19	34.08	-44.4	-46.8	23.9	6.05e-01	0	40	0	351272960	59	5038
2026-01-17 11:39:59.09	155.14	34.33	-44.3	-46.8	24.0	6.08e-01	0	40	0	353370112	59	5005
2026-01-17 11:40:00.09	155.09	34.59	-44.4	-46.9	23.8	6.08e-01	0	40	0	354942976	59	5095
2026-01-17 11:40:01.54	155.02	34.97	-44.5	-47.0	23.8	6.08e-01	0	40	0	357564416	59	5138
2026-01-17 11:40:02.25	154.99	35.16	-44.7	-47.2	23.6	6.07e-01	0	40	0	359137280	59	5233
2026-01-17 11:40:03.53	154.92	35.50	-44.9	-47.5	23.3	6.04e-01	0	41	0	361758720	60	5122
2026-01-17 11:40:04.24	154.89	35.69	-45.2	-47.9	23.0	6.08e-01	0	41	0	362807296	61	5068
2026-01-17 11:40:05.52	154.82	36.04	-45.5	-48.2	22.6	6.06e-01	0	41	0	365428736	61	5268
2026-01-17 11:40:06.25	154.78	36.24	-45.4	-48.1	22.7	6.06e-01	0	41	0	366477312	61	5193
2026-01-17 11:40:07.53	154.71	36.59	-45.2	-47.9	22.9	6.05e-01	0	40	0	369098752	61	5045
2026-01-17 11:40:08.25	154.67	36.80	-45.1	-47.8	23.0	6.06e-01	0	40	0	370671616	61	5035
2026-01-17 11:40:09.53	154.60	37.16	-45.1	-47.8	23.1	6.05e-01	0	40	0	372768768	61	4987
2026-01-17 11:40:10.27	154.56	37.37	-45.2	-47.9	22.9	6.07e-01	0	41	0	374341632	61	5052
2026-01-17 11:40:11.55	154.48	37.73	-45.3	-48.0	22.8	6.06e-01	0	40	0	376438784	61	5124
2026-01-17 11:40:12.26	154.44	37.94	-45.5	-48.2	22.6	6.06e-01	0	40	0	378011648	61	5263
2026-01-17 11:40:13.54	154.36	38.31	-45.7	-48.4	22.5	6.07e-01	0	41	0	380108800	61	5388
2026-01-17 11:40:14.27	154.32	38.53	-45.7	-48.4	22.4	6.06e-01	0	41	0	381681664	61	5401
2026-01-17 11:40:15.55	154.24	38.91	-45.7	-48.4	22.5	6.08e-01	0	40	0	384303104	62	5085
2026-01-17 11:40:16.26	154.19	39.12	-45.7	-48.5	22.4	6.07e-01	0	40	0	385351680	62	5119
2026-01-17 11:40:17.54	154.11	39.51	-45.6	-48.4	22.5	6.07e-01	0	41	0	387973120	62	5047
2026-01-17 11:40:18.25	154.06	39.72	-45.8	-48.6	22.3	6.07e-01	0	40	0	389021696	62	5165
2026-01-17 11:40:19.53	153.97	40.12	-45.7	-48.5	22.4	6.06e-01	0	41	0	391643136	62	5153
2026-01-17 11:40:20.24	153.92	40.34	-45.5	-48.3	22.6	6.07e-01	0	40	0	392691712	62	5001
2026-01-17 11:40:21.51	153.83	40.74	-45.3	-48.0	22.8	6.11e-01	0	40	0	395313152	62	4858
2026-01-17 11:40:22.24	153.78	40.97	-45.3	-48.0	22.9	6.07e-01	0	40	0	396361728	62	4847
2026-01-17 11:40:23.52	153.69	41.38	-45.2	-47.9	23.0	6.07e-01	0	40	0	398983168	62	4773
2026-01-17 11:40:24.26	153.63	41.62	-45.0	-47.7	23.1	6.06e-01	0	40	0	400556032	62	4656
2026-01-17 11:40:25.54	153.53	42.03	-45.0	-47.7	23.2	6.07e-01	0	40	0	402653184	62	4655
2026-01-17 11:40:26.26	153.48	42.27	-45.0	-47.6	23.2	6.05e-01	0	41	0	404226048	62	4621
2026-01-17 11:40:27.54	153.37	42.69	-44.8	-47.4	23.4	6.05e-01	0	41	0	406323200	61	4764
2026-01-17 11:40:28.25	153.31	42.93	-44.6	-47.1	23.6	6.08e-01	0	41	0	407896064	61	4625
2026-01-17 11:40:29.53	153.21	43.36	-44.6	-47.1	23.6	6.08e-01	0	40	0	410517504	61	4637
2026-01-17 11:40:30.24	153.14	43.60	-44.7	-47.2	23.5	6.06e-01	0	41	0	411566080	61	4688
2026-01-17 11:40:31.52	153.03	44.04	-44.4	-46.8	23.8	6.08e-01	0	41	0	414187520	60	4754
2026-01-17 11:40:32.23	152.97	44.29	-44.1	-46.5	24.1	6.08e-01	0	41	0	415236096	60	4573
2026-01-17 11:40:33.51	152.85	44.74	-44.1	-46.5	24.3	6.05e-01	0	40	0	417857536	59	4816
2026-01-17 11:40:34.24	152.78	45.00	-44.2	-46.6	24.2	6.08e-01	0	40	0	418906112	59	4901
2026-01-17 11:40:35.52	152.66	45.45	-44.4	-46.8	24.0	6.06e-01	0	40	0	421527552	59	5005
2026-01-17 11:40:36.24	152.59	45.71	-44.4	-46.8	24.0	6.08e-01	0	40	0	422576128	59	5008
2026-01-17 11:40:37.52	152.46	46.18	-44.5	-46.9	23.9	6.06e-01	0	41	0	425197568	59	5084
2026-01-17 11:40:38.23	152.38	46.44	-44.3	-46.7	24.0	6.06e-01	0	40	0	426770432	59	4954
2026-01-17 11:40:39.84	152.21	47.03	-44.1	-46.5	24.2	6.04e-01	0	40	0	429391872	59	4844
2026-01-17 11:40:40.43	152.15	47.25	-44.3	-46.8	24.0	6.06e-01	0	40	0	430964736	59	5015
2026-01-17 11:40:41.99	151.97	47.84	-44.5	-47.0	23.8	6.07e-01	0	40	0	433586176	59	5154
2026-01-17 11:40:42.70	151.89	48.11	-44.5	-47.0	23.8	6.07e-01	0	40	0	435159040	59	5132
2026-01-17 11:40:43.98	151.74	48.60	-44.4	-46.8	24.0	6.05e-01	0	40	0	437256192	59	5009
2026-01-17 11:40:44.70	151.65	48.88	-44.3	-46.8	24.0	6.06e-01	0	41	0	438829056	59	4997
2026-01-17 11:40:45.98	151.49	49.38	-44.5	-47.0	23.9	6.06e-01	0	40	0	440926208	59	5104
2026-01-17 11:40:46.69	151.40	49.66	-44.3	-46.8	24.0	6.06e-01	0	40	0	442499072	59	5003
2026-01-17 11:40:48.11	151.21	50.23	-44.0	-46.4	24.3	6.07e-01	0	40	0	445120512	59	4775
2026-01-17 11:40:48.82	151.11	50.51	-43.8	-46.2	24.5	6.07e-01	0	40	0	446693376	59	4659
2026-01-17 11:40:50.12	150.93	51.04	-44.2	-46.6	24.2	6.06e-01	0	40	0	448790528	59	4873
2026-01-17 11:40:51.14	150.78	51.46	-44.0	-46.3	24.4	6.08e-01	0	40	0	450887680	59	4739
2026-01-17 11:40:52.46	150.59	52.00	-43.8	-46.1	24.6	6.04e-01	0	40	0	453509120	59	4613
2026-01-17 11:40:53.17	150.48	52.30	-43.7	-46.1	24.6	6.07e-01	0	40	0	454557696	59	4616
2026-01-17 11:40:54.45	150.27	52.84	-43.6	-45.9	24.7	6.07e-01	0	40	0	457179136	59	4543
2026-01-17 11:40:55.17	150.16	53.15	-43.6	-45.9	24.7	6.05e-01	0	40	0	458227712	59	4521
2026-01-17 11:40:56.45	149.94	53.69	-43.2	-45.5	25.1	6.08e-01	0	40	0	460849152	58	4549
2026-01-17 11:40:57.16	149.82	54.00	-43.3	-45.6	25.0	6.07e-01	0	41	0	461897728	58	4623
2026-01-17 11:40:58.44	149.59	54.56	-43.4	-45.8	24.9	6.06e-01	0	40	0	464519168	58	4706
2026-01-17 11:40:59.18	149.45	54.88	-43.4	-45.7	24.9	6.06e-01	0	41	0	466092032	58	4669
2026-01-17 11:41:00.46	149.21	55.45	-43.6	-45.9	24.8	6.07e-01	0	40	0	468189184	58	4781
2026-01-17 11:41:01.17	149.07	55.76	-43.8	-46.2	24.5	6.04e-01	0	40	0	469762048	58	4936
2026-01-17 11:41:02.56	148.78	56.39	-43.8	-46.2	24.5	6.05e-01	0	41	0	472383488	58	4955
2026-01-17 11:41:03.27	148.63	56.71	-43.9	-46.3	24.4	6.06e-01	0	41	0	473432064	58	5032
2026-01-17 11:41:04.55	148.36	57.29	-44.4	-46.9	23.9	6.06e-01	0	41	0	476053504	59	5064
2026-01-17 11:41:05.27	148.19	57.62	-44.3	-46.8	24.1	6.07e-01	0	41	0	477102080	59	4990
2026-01-17 11:41:06.65	147.87	58.26	-44.6	-47.1	23.7	6.07e-01	0	41	0	479723520	60	4876
2026-01-17 11:41:07.36	147.70	58.59	-44.7	-47.2	23.6	6.05e-01	0	40	0	481296384	60	4932
2026-01-17 11:41:08.64	147.38	59.19	-44.7	-47.2	23.6	6.05e-01	0	40	0	483393536	60	4939
2026-01-17 11:41:09.36	147.19	59.53	-45.0	-47.6	23.3	6.08e-01	0	40	0	484966400	60	5178
2026-01-17 11:41:10.75	146.81	60.19	-44.8	-47.3	23.5	6.04e-01	0	40	0	487587840	60	5025
2026-01-17 11:41:11.46	146.61	60.53	-45.2	-47.9	23.1	6.07e-01	0	41	0	489160704	60	5358
2026-01-17 11:41:12.74	146.23	61.15	-44.9	-47.6	23.3	6.06e-01	0	40	0	491257856	61	4902
2026-01-17 11:41:13.47	146.01	61.51	-45.0	-47.9	23.0	6.07e-01	0	40	0	492830720	61	5076
2026-01-17 11:41:14.75	145.60	62.13	-45.4	-48.4	22.6	6.07e-01	0	40	0	494927872	61	5371
2026-01-17 11:41:15.46	145.37	62.48	-45.3	-48.1	22.8	6.07e-01	0	40	0	496500736	61	5178
2026-01-17 11:41:16.74	144.93	63.11	-45.5	-48.3	22.7	6.07e-01	0	40	0	498597888	61	5317
2026-01-17 11:41:17.48	144.66	63.48	-45.6	-48.5	22.5	6.06e-01	0	40	0	500170752	61	5422
2026-01-17 11:41:18.76	144.18	64.12	-45.9	-48.9	22.2	6.04e-01	0	40	0	502792192	62	5345
2026-01-17 11:41:19.48	143.90	64.48	-46.1	-49.1	22.0	6.09e-01	0	40	0	503840768	62	5513
2026-01-17 11:41:20.76	143.37	65.13	-46.6	-49.9	21.1	6.08e-01	0	41	0	506462208	64	5396
2026-01-17 11:41:21.50	143.05	65.50	-46.7	-50.1	21.0	6.08e-01	0	40	0	507510784	64	5476
2026-01-17 11:41:22.78	142.48	66.15	-47.0	-50.5	20.6	6.07e-01	0	41	0	510132224	64	5771
2026-01-17 11:41:23.49	142.14	66.51	-47.4	-51.0	20.2	6.07e-01	0	41	0	511180800	65	5735
2026-01-17 11:41:24.77	141.51	67.17	-47.4	-50.9	20.2	6.08e-01	0	40	0	513802240	65	5706
2026-01-17 11:41:25.59	141.08	67.59	-47.6	-51.2	20.0	6.07e-01	0	40	0	515375104	65	5866
2026-01-17 11:41:26.73	140.46	68.18	-47.8	-51.3	19.8	6.07e-01	0	40	0	517472256	66	5654
2026-01-17 11:41:27.58	139.96	68.62	-48.0	-51.7	19.5	6.08e-01	0	40	0	519045120	66	5898
2026-01-17 11:41:28.72	139.27	69.21	-47.1	-50.4	20.8	6.05e-01	0	40	0	521142272	66	5042
2026-01-17 11:41:29.57	138.73	69.65	-47.9	-51.5	19.7	6.07e-01	0	40	0	522715136	66	5761
2026-01-17 11:41:30.71	137.95	70.24	-47.1	-50.4	20.7	6.05e-01	0	40	0	524812288	66	5083
2026-01-17 11:41:31.56	137.34	70.68	-47.2	-50.6	20.6	6.06e-01	0	40	0	526385152	65	5491
2026-01-17 11:41:32.70	136.48	71.27	-47.3	-50.8	20.4	6.07e-01	0	41	0	528482304	65	5602
2026-01-17 11:41:33.55	135.79	71.71	-47.2	-50.6	20.5	6.08e-01	0	40	0	530579456	65	5513
2026-01-17 11:41:34.68	134.83	72.29	-46.8	-50.1	21.0	6.05e-01	0	40	0	532676608	65	5172
2026-01-17 11:41:35.54	134.05	72.74	-46.6	-49.8	21.2	6.09e-01	0	41	0	534249472	65	5024
2026-01-17 11:41:36.67	132.95	73.32	-47.3	-50.7	20.4	6.08e-01	0	41	0	536346624	65	5549
2026-01-17 11:41:37.62	131.97	73.80	-47.0	-50.1	21.0	6.09e-01	0	40	0	537919488	65	5190
2026-01-17 11:41:38.62	130.87	74.31	-47.4	-50.8	20.3	6.07e-01	0	40	0	540016640	65	5629
2026-01-17 11:41:39.61	129.70	74.80	-47.4	-50.8	20.3	6.09e-01	0	40	0	541589504	65	5614
2026-01-17 11:41:40.61	128.44	75.30	-47.0	-50.2	20.9	6.05e-01	0	41	0	543686656	65	5255
2026-01-17 11:41:41.60	127.10	75.79	-47.0	-50.2	21.0	6.08e-01	0	40	0	545259520	65	5222
2026-01-17 11:41:42.60	125.64	76.28	-46.6	-49.7	21.3	6.06e-01	0	40	0	547356672	65	4964
2026-01-17 11:41:43.94	123.52	76.92	-46.0	-48.8	22.2	6.06e-01	0	41	0	549978112	63	5004
2026-01-17 11:41:44.68	122.25	77.26	-46.4	-49.3	21.8	6.09e-01	0	41	0	551026688	63	5335
2026-01-17 11:41:45.96	119.89	77.85	-45.7	-48.6	22.4	6.07e-01	0	41	0	553648128	63	4874
2026-01-17 11:41:46.68	118.45	78.17	-45.3	-48.2	22.8	6.07e-01	0	41	0	554696704	62	4933
2026-01-17 11:41:47.95	115.72	78.72	-45.6	-48.4	22.5	6.06e-01	0	40	0	557318144	62	5086
2026-01-17 11:41:48.68	114.03	79.02	-45.2	-47.9	23.1	6.09e-01	0	41	0	558891008	62	4764
2026-01-17 11:41:49.95	110.85	79.53	-45.1	-47.8	23.1	6.06e-01	0	40	0	560988160	62	4752
2026-01-17 11:41:50.68	108.88	79.80	-44.8	-47.6	23.3	6.07e-01	0	41	0	562561024	61	4912
2026-01-17 11:41:51.96	105.16	80.26	-44.9	-47.6	23.2	6.07e-01	0	40	0	564658176	61	4915
2026-01-17 11:41:52.68	102.91	80.49	-44.6	-47.2	23.6	6.06e-01	0	41	0	566231040	61	4669
2026-01-17 11:41:53.96	98.64	80.87	-45.2	-47.9	23.1	6.07e-01	0	41	0	568852480	61	5052
2026-01-17 11:41:54.67	96.12	81.06	-44.8	-47.4	23.4	6.06e-01	0	41	0	569901056	61	4801
2026-01-17 11:41:56.06	90.88	81.38	-44.6	-47.4	23.4	6.07e-01	0	40	0	572522496	61	4771
2026-01-17 11:41:56.78	88.02	81.52	-44.7	-47.5	23.4	6.07e-01	0	41	0	574095360	61	4826
2026-01-17 11:41:58.12	82.48	81.71	-44.5	-47.1	23.7	6.07e-01	0	40	0	576192512	61	4611
2026-01-17 11:41:58.83	79.46	81.78	-44.7	-47.3	23.6	6.07e-01	0	41	0	577765376	60	5027
2026-01-17 11:42:00.11	73.90	81.85	-44.8	-47.3	23.5	6.05e-01	0	40	0	580386816	61	4739
2026-01-17 11:42:01.21	69.08	81.85	-44.7	-47.3	23.5	6.06e-01	0	40	0	581959680	60	5011
2026-01-17 11:42:02.06	65.38	81.81	-45.1	-47.8	23.1	6.06e-01	0	41	0	584056832	60	5316
2026-01-17 11:42:03.20	60.51	81.70	-44.9	-47.4	23.4	6.06e-01	0	40	0	586153984	61	4809
2026-01-17 11:42:04.05	56.97	81.59	-45.1	-47.7	23.1	6.07e-01	0	40	0	587726848	61	4968
2026-01-17 11:42:05.19	52.41	81.38	-45.4	-48.1	22.8	6.06e-01	0	41	0	589824000	61	5187
2026-01-17 11:42:06.04	49.16	81.20	-45.3	-48.0	22.9	6.06e-01	0	40	0	591396864	61	5108
2026-01-17 11:42:07.18	45.04	80.91	-44.9	-47.5	23.3	6.06e-01	0	40	0	593494016	61	4850
2026-01-17 11:42:08.03	42.14	80.66	-45.4	-48.1	22.9	6.06e-01	0	41	0	595066880	61	5200
2026-01-17 11:42:09.17	38.50	80.30	-44.6	-47.1	23.7	6.06e-01	0	40	0	597164032	61	4608
2026-01-17 11:42:10.13	35.66	79.96	-45.1	-47.7	23.2	6.06e-01	0	41	0	598736896	61	4936
2026-01-17 11:42:11.13	32.90	79.59	-45.4	-48.0	22.9	6.08e-01	0	40	0	600834048	61	5135
2026-01-17 11:42:12.12	30.36	79.21	-45.3	-47.9	23.1	6.07e-01	0	41	0	602406912	61	5062
2026-01-17 11:42:13.34	27.49	78.71	-45.5	-48.1	22.8	6.08e-01	0	40	0	605028352	61	5212
2026-01-17 11:42:14.22	25.57	78.33	-45.9	-48.6	22.4	6.06e-01	0	40	0	606601216	62	5199
2026-01-17 11:42:15.36	23.28	77.82	-45.8	-48.6	22.4	6.05e-01	0	40	0	608698368	63	4875
2026-01-17 11:42:16.21	21.69	77.44	-46.4	-49.4	21.7	6.09e-01	0	40	0	610271232	63	5377
2026-01-17 11:42:17.35	19.72	76.90	-47.0	-50.4	20.6	6.07e-01	0	40	0	612368384	65	5357
2026-01-17 11:42:18.20	18.35	76.50	-46.5	-49.5	21.5	6.07e-01	0	41	0	613941248	65	4841
2026-01-17 11:42:19.34	16.65	75.95	-47.1	-50.3	20.8	6.07e-01	0	41	0	616038400	65	5297
2026-01-17 11:42:20.19	15.46	75.53	-47.3	-50.5	20.5	6.07e-01	0	40	0	617611264	65	5428
2026-01-17 11:42:21.33	13.99	74.97	-47.1	-50.3	20.8	6.08e-01	0	40	0	619708416	65	5308
2026-01-17 11:42:22.18	12.96	74.54	-46.9	-50.0	21.1	6.07e-01	0	41	0	621281280	65	5119
2026-01-17 11:42:23.32	11.67	73.97	-46.9	-50.1	21.0	6.08e-01	0	40	0	623902720	65	5163
2026-01-17 11:42:24.17	10.77	73.54	-47.1	-50.3	20.8	6.06e-01	0	40	0	625475584	65	5316
2026-01-17 11:42:25.31	9.64	72.95	-46.7	-49.7	21.4	6.06e-01	0	40	0	627572736	65	4930
2026-01-17 11:42:26.16	8.85	72.52	-46.9	-50.0	21.1	6.08e-01	0	40	0	629145600	65	5106
2026-01-17 11:42:27.33	7.82	71.91	-47.9	-51.5	19.7	6.07e-01	0	41	0	631242752	66	5732
2026-01-17 11:42:28.18	7.12	71.48	-47.3	-50.5	20.7	6.07e-01	0	40	0	632815616	66	5123
2026-01-17 11:42:29.32	6.24	70.89	-48.1	-51.7	19.5	6.07e-01	0	40	0	634912768	66	5905
2026-01-17 11:42:30.18	5.61	70.44	-48.5	-52.3	18.8	6.09e-01	0	41	0	636485632	67	5968
2026-01-17 11:42:31.31	4.83	69.86	-48.5	-52.4	18.9	6.08e-01	0	40	0	638582784	67	6007
2026-01-17 11:42:32.21	4.24	69.39	-48.2	-51.9	19.3	6.06e-01	0	40	0	640155648	67	5666
2026-01-17 11:42:33.34	3.54	68.81	-48.8	-52.9	18.4	6.08e-01	0	41	0	642252800	68	6050
2026-01-17 11:42:34.19	3.04	68.37	-49.2	-53.7	17.7	6.07e-01	0	40	0	643825664	69	6232
2026-01-17 11:42:35.33	2.41	67.78	-48.1	-51.8	19.5	6.08e-01	0	41	0	645922816	68	5293
2026-01-17 11:42:36.18	1.96	67.35	-48.4	-52.2	19.1	6.09e-01	0	40	0	647495680	68	5575
2026-01-17 11:42:37.32	1.38	66.77	-48.8	-53.1	18.2	6.08e-01	0	41	0	650117120	68	6137
2026-01-17 11:42:38.17	0.97	66.33	-48.5	-52.4	18.8	6.07e-01	0	40	0	651689984	68	5705
2026-01-17 11:42:39.31	0.45	65.75	-47.7	-51.4	19.7	6.07e-01	0	40	0	653787136	67	5397
2026-01-17 11:42:40.16	0.08	65.32	-47.2	-50.8	20.4	6.09e-01	0	40	0	655360000	66	5283
2026-01-17 11:42:41.30	359.60	64.75	-46.8	-50.2	20.8	6.05e-01	0	41	0	657457152	65	5251
2026-01-17 11:42:42.15	359.26	64.32	-46.7	-49.9	21.1	6.08e-01	0	40	0	659030016	65	5088
2026-01-17 11:42:43.29	358.83	63.75	-45.8	-48.6	22.3	6.06e-01	0	41	0	661127168	63	4905
2026-01-17 11:42:44.14	358.52	63.33	-45.4	-48.2	22.8	6.07e-01	0	40	0	662700032	62	4947
2026-01-17 11:42:45.40	358.07	62.71	-45.5	-48.3	22.6	6.07e-01	0	40	0	665321472	62	5033
2026-01-17 11:42:46.19	357.81	62.32	-46.0	-49.0	22.0	6.06e-01	0	41	0	666370048	62	5433
2026-01-17 11:42:47.39	357.42	61.74	-45.7	-48.4	22.5	6.07e-01	0	40	0	668991488	63	4811
2026-01-17 11:42:48.24	357.16	61.32	-45.0	-47.7	23.2	6.08e-01	0	40	0	670564352	62	4661
2026-01-17 11:42:49.50	356.79	60.72	-45.1	-47.9	23.0	6.05e-01	0	40	0	672661504	62	4789
2026-01-17 11:42:50.29	356.56	60.34	-45.1	-47.9	23.0	6.06e-01	0	40	0	674234368	62	4808
2026-01-17 11:42:51.49	356.23	59.77	-45.2	-48.0	22.9	6.04e-01	0	40	0	676331520	62	4844
2026-01-17 11:42:52.34	356.01	59.37	-45.0	-47.8	23.1	6.07e-01	0	40	0	677904384	62	4715
2026-01-17 11:42:53.60	355.69	58.77	-44.6	-47.3	23.4	6.06e-01	0	41	0	680525824	61	4759
2026-01-17 11:42:54.38	355.50	58.41	-44.3	-46.9	23.9	6.08e-01	0	40	0	682098688	60	4773
2026-01-17 11:42:55.66	355.19	57.82	-44.3	-46.8	23.9	6.07e-01	0	40	0	684195840	60	4720
2026-01-17 11:42:56.37	355.03	57.49	-44.3	-46.7	24.0	6.07e-01	0	40	0	685768704	60	4705
2026-01-17 11:42:57.65	354.75	56.91	-44.0	-46.4	24.2	6.08e-01	0	40	0	687865856	60	4518
2026-01-17 11:42:58.38	354.59	56.58	-43.7	-46.0	24.6	6.08e-01	0	40	0	689438720	59	4573
2026-01-17 11:42:59.65	354.33	56.01	-43.5	-45.8	24.9	6.05e-01	0	40	0	691535872	58	4716
2026-01-17 11:43:00.38	354.19	55.69	-43.5	-45.8	24.8	6.09e-01	0	40	0	693108736	58	4751
2026-01-17 11:43:01.66	353.94	55.12	-43.2	-45.4	25.1	6.08e-01	0	40	0	695730176	58	4539
2026-01-17 11:43:02.38	353.81	54.80	-43.2	-45.5	25.1	6.06e-01	0	40	0	696778752	58	4565
2026-01-17 11:43:03.66	353.57	54.25	-43.5	-45.8	24.9	6.07e-01	0	40	0	699400192	58	4723
2026-01-17 11:43:04.48	353.43	53.89	-43.4	-45.7	24.9	6.06e-01	0	41	0	700973056	58	4683
2026-01-17 11:43:05.62	353.24	53.41	-43.2	-45.6	25.0	6.08e-01	0	40	0	703070208	58	4617
2026-01-17 11:43:06.47	353.10	53.05	-43.1	-45.4	25.1	6.07e-01	0	40	0	704643072	58	4510
2026-01-17 11:43:07.61	352.91	52.57	-43.3	-45.6	25.0	6.05e-01	0	40	0	706740224	58	4600
2026-01-17 11:43:08.72	352.74	52.10	-43.7	-46.1	24.7	6.08e-01	0	40	0	708837376	58	4876
2026-01-17 11:43:09.57	352.61	51.75	-43.9	-46.3	24.5	6.06e-01	0	40	0	710410240	58	5005
2026-01-17 11:43:10.70	352.45	51.29	-43.9	-46.3	24.4	6.06e-01	0	40	0	712507392	58	5012
2026-01-17 11:43:11.79	352.29	50.85	-44.0	-46.3	24.4	6.07e-01	0	41	0	714604544	58	5013
2026-01-17 11:43:12.82	352.15	50.43	-44.1	-46.5	24.3	6.07e-01	0	40	0	716701696	58	5116
2026-01-17 11:43:13.82	352.02	50.03	-44.2	-46.6	24.1	6.07e-01	0	41	0	718274560	59	4920
2026-01-17 11:43:14.81	351.89	49.64	-44.3	-46.7	24.1	6.05e-01	0	40	0	720371712	59	4963
2026-01-17 11:43:15.80	351.76	49.25	-44.3	-46.7	24.1	6.05e-01	0	40	0	721944576	59	4956
2026-01-17 11:43:16.80	351.64	48.86	-44.3	-46.8	24.1	6.07e-01	0	40	0	724041728	59	4991
2026-01-17 11:43:17.79	351.52	48.48	-44.2	-46.7	24.1	6.06e-01	0	40	0	725614592	59	4931
2026-01-17 11:43:18.79	351.40	48.10	-44.2	-46.7	24.0	6.08e-01	0	40	0	727711744	59	4933
2026-01-17 11:43:19.78	351.29	47.73	-44.2	-46.6	24.2	6.07e-01	0	40	0	729284608	59	4923
2026-01-17 11:43:20.78	351.18	47.35	-44.3	-46.8	24.0	6.07e-01	0	40	0	731381760	59	5002
2026-01-17 11:43:21.77	351.07	46.98	-44.4	-46.8	23.9	6.05e-01	0	40	0	733478912	59	5026
2026-01-17 11:43:22.84	350.96	46.59	-44.2	-46.6	24.1	6.08e-01	0	40	0	735051776	59	4921
2026-01-17 11:43:23.74	350.86	46.26	-44.2	-46.6	24.2	6.05e-01	0	40	0	737148928	59	4889
2026-01-17 11:43:24.85	350.75	45.86	-43.9	-46.4	24.3	6.07e-01	0	40	0	739246080	59	4806
2026-01-17 11:43:25.70	350.67	45.55	-43.9	-46.5	24.2	6.06e-01	0	40	0	740818944	59	4843
2026-01-17 11:43:26.84	350.56	45.15	-43.9	-46.5	24.2	6.07e-01	0	40	0	742916096	59	4851
2026-01-17 11:43:27.69	350.48	44.85	-43.8	-46.4	24.4	6.06e-01	0	40	0	744488960	59	4762
2026-01-17 11:43:28.83	350.37	44.45	-44.0	-46.5	24.3	6.09e-01	0	41	0	746586112	59	4816
2026-01-17 11:43:29.68	350.29	44.16	-44.1	-46.5	24.2	6.08e-01	0	40	0	748158976	59	4858
2026-01-17 11:43:30.82	350.19	43.77	-44.6	-47.1	23.8	6.05e-01	0	40	0	750256128	59	5184
2026-01-17 11:43:31.67	350.12	43.48	-44.6	-47.2	23.7	6.06e-01	0	40	0	751828992	59	5232
2026-01-17 11:43:32.80	350.03	43.10	-44.5	-47.0	23.7	6.07e-01	0	41	0	753926144	60	4858
2026-01-17 11:43:33.66	349.96	42.81	-44.4	-46.9	23.8	6.05e-01	0	40	0	755499008	60	4786
2026-01-17 11:43:34.79	349.86	42.44	-44.3	-46.8	23.8	6.07e-01	0	40	0	757596160	60	4723
2026-01-17 11:43:35.65	349.80	42.16	-44.4	-47.0	23.8	6.07e-01	0	40	0	759169024	60	4827
2026-01-17 11:43:36.78	349.71	41.79	-44.6	-47.3	23.5	6.07e-01	0	40	0	761266176	60	5025
2026-01-17 11:43:37.64	349.64	41.51	-44.8	-47.5	23.3	6.07e-01	0	40	0	762839040	60	5145
2026-01-17 11:43:38.96	349.55	41.09	-45.1	-47.8	23.0	6.09e-01	0	40	0	765460480	60	5322
2026-01-17 11:43:39.67	349.50	40.87	-45.3	-48.0	22.9	6.06e-01	0	41	0	767033344	61	5119
2026-01-17 11:43:40.95	349.40	40.47	-45.2	-47.9	23.0	6.09e-01	0	40	0	769130496	61	5060
2026-01-17 11:43:41.66	349.36	40.25	-45.2	-47.8	23.0	6.08e-01	0	40	0	770703360	61	5031
2026-01-17 11:43:43.24	349.25	39.76	-45.1	-47.7	23.1	6.08e-01	0	40	0	773324800	61	4957
2026-01-17 11:43:43.86	349.21	39.57	-45.3	-47.9	23.0	6.06e-01	0	40	0	774897664	61	5080
2026-01-17 11:43:45.42	349.11	39.10	-45.8	-48.6	22.4	6.06e-01	0	41	0	777519104	62	5164
2026-01-17 11:43:46.13	349.06	38.89	-45.9	-48.8	22.2	6.06e-01	0	40	0	779091968	62	5285
2026-01-17 11:43:47.41	348.98	38.52	-45.6	-48.6	22.3	6.09e-01	0	40	0	781189120	62	5203
2026-01-17 11:43:48.13	348.94	38.31	-45.5	-48.6	22.4	6.08e-01	0	40	0	782761984	62	5161
2026-01-17 11:43:49.41	348.86	37.93	-45.3	-48.5	22.4	6.09e-01	0	40	0	784859136	62	5101
2026-01-17 11:43:50.14	348.82	37.72	-45.2	-48.3	22.6	6.07e-01	0	40	0	786432000	62	5027
2026-01-17 11:43:51.42	348.74	37.36	-45.2	-48.3	22.6	6.06e-01	0	40	0	789053440	62	5011
2026-01-17 11:43:52.14	348.70	37.16	-45.0	-48.1	22.8	6.08e-01	0	40	0	790102016	62	4871
2026-01-17 11:43:53.42	348.63	36.80	-44.8	-47.6	23.1	6.05e-01	0	40	0	792723456	61	4921
2026-01-17 11:43:54.16	348.59	36.59	-44.7	-47.5	23.2	6.04e-01	0	40	0	793772032	61	4845
2026-01-17 11:43:55.44	348.52	36.24	-44.8	-47.5	23.3	6.07e-01	0	40	0	796393472	61	4823
2026-01-17 11:43:56.17	348.49	36.04	-44.6	-47.2	23.5	6.06e-01	0	40	0	797966336	61	4673
2026-01-17 11:43:57.65	348.41	35.65	-44.3	-46.8	23.9	6.06e-01	0	41	0	800587776	60	4712
2026-01-17 11:43:58.36	348.37	35.46	-44.1	-46.7	24.0	6.07e-01	0	40	0	801636352	60	4653
2026-01-17 11:43:59.64	348.31	35.12	-44.1	-46.6	24.1	6.07e-01	0	40	0	804257792	60	4639
2026-01-17 11:44:00.74	348.26	34.83	-44.0	-46.5	24.1	6.06e-01	0	40	0	806354944	60	4588
2026-01-17 11:44:01.85	348.21	34.54	-44.1	-46.7	24.1	6.07e-01	0	40	0	808452096	59	4937
2026-01-17 11:44:02.70	348.17	34.32	-44.0	-46.6	24.1	6.06e-01	0	40	0	810024960	59	4903
2026-01-17 11:44:03.84	348.11	34.03	-43.8	-46.4	24.3	6.07e-01	0	40	0	812122112	59	4766
2026-01-17 11:44:04.69	348.08	33.82	-43.7	-46.3	24.4	6.06e-01	0	40	0	813694976	59	4750
2026-01-17 11:44:05.83	348.02	33.53	-43.6	-46.2	24.4	6.07e-01	0	40	0	815792128	59	4699
2026-01-17 11:44:06.68	347.99	33.32	-43.6	-46.2	24.4	6.06e-01	0	41	0	817364992	59	4669
2026-01-17 11:44:07.80	347.94	33.05	-43.6	-46.2	24.4	6.08e-01	0	40	0	819462144	59	4689
2026-01-17 11:44:08.65	347.90	32.84	-43.6	-46.1	24.5	6.06e-01	0	41	0	821035008	59	4650
2026-01-17 11:44:09.79	347.86	32.56	-43.3	-45.7	24.8	6.06e-01	0	41	0	823132160	58	4695
2026-01-17 11:44:10.65	347.82	32.36	-43.2	-45.6	24.9	6.07e-01	0	40	0	824705024	58	4624
2026-01-17 11:44:11.93	347.77	32.05	-43.2	-45.5	24.9	6.06e-01	0	40	0	827326464	58	4576
2026-01-17 11:44:12.65	347.74	31.88	-43.1	-45.5	25.0	6.07e-01	0	40	0	828899328	58	4552
2026-01-17 11:44:13.93	347.69	31.58	-43.1	-45.5	25.1	6.07e-01	0	40	0	830996480	58	4556
2026-01-17 11:44:14.66	347.66	31.41	-43.0	-45.5	25.0	6.05e-01	0	40	0	832569344	58	4548
2026-01-17 11:44:15.94	347.62	31.12	-43.0	-45.4	25.1	6.06e-01	0	40	0	834666496	57	4786
2026-01-17 11:44:16.68	347.59	30.95	-43.1	-45.5	25.0	6.06e-01	0	40	0	836239360	57	4816
2026-01-17 11:44:18.24	347.53	30.60	-43.3	-45.7	24.9	6.06e-01	0	40	0	838860800	57	4931
2026-01-17 11:44:18.89	347.51	30.45	-43.3	-45.7	24.9	6.06e-01	0	40	0	840433664	57	4944
2026-01-17 11:44:20.31	347.46	30.14	-43.4	-45.8	24.8	6.06e-01	0	40	0	843055104	57	5034
2026-01-17 11:44:21.02	347.44	29.98	-43.5	-45.9	24.7	6.07e-01	0	40	0	844103680	57	5055
2026-01-17 11:44:22.30	347.39	29.70	-43.5	-46.1	24.5	6.09e-01	0	40	0	846725120	57	5170
2026-01-17 11:44:23.02	347.37	29.55	-43.6	-46.2	24.5	6.07e-01	0	40	0	848297984	57	5236
2026-01-17 11:44:24.30	347.33	29.27	-43.6	-46.2	24.4	6.06e-01	0	40	0	850395136	57	5276
2026-01-17 11:44:25.03	347.30	29.12	-43.7	-46.3	24.4	6.07e-01	0	40	0	851968000	58	4998
2026-01-17 11:44:26.31	347.26	28.85	-43.8	-46.3	24.3	6.08e-01	0	40	0	854065152	58	5014
2026-01-17 11:44:27.05	347.24	28.69	-43.9	-46.3	24.3	6.06e-01	0	40	0	855638016	58	5025
2026-01-17 11:44:28.32	347.20	28.43	-43.8	-46.2	24.4	6.08e-01	0	40	0	858259456	58	4953
2026-01-17 11:44:29.05	347.18	28.28	-43.6	-46.0	24.6	6.09e-01	0	40	0	859308032	58	4833
2026-01-17 11:44:30.32	347.14	28.02	-43.7	-46.1	24.5	6.05e-01	0	40	0	861929472	58	4897
2026-01-17 11:44:31.11	347.11	27.86	-43.7	-46.1	24.5	6.07e-01	0	40	0	863502336	58	4915
2026-01-17 11:44:32.31	347.08	27.62	-43.7	-46.1	24.5	6.06e-01	0	40	0	865599488	58	4913
2026-01-17 11:44:33.17	347.05	27.44	-43.6	-46.1	24.5	6.05e-01	0	40	0	867172352	58	4901
2026-01-17 11:44:34.31	347.02	27.22	-43.5	-46.1	24.5	6.06e-01	0	40	0	869269504	58	4877
2026-01-17 11:44:35.16	347.00	27.05	-43.5	-46.1	24.5	6.05e-01	0	40	0	870842368	58	4883
2026-01-17 11:44:36.29	346.97	26.83	-43.7	-46.2	24.3	6.08e-01	0	40	0	872939520	58	4975
2026-01-17 11:44:37.15	346.94	26.66	-43.6	-46.1	24.5	6.06e-01	0	40	0	874512384	58	4887
2026-01-17 11:44:38.28	346.91	26.45	-43.7	-46.1	24.5	6.06e-01	0	40	0	876609536	58	4921
2026-01-17 11:44:39.39	346.88	26.24	-43.7	-46.1	24.4	6.07e-01	0	40	0	878706688	58	4920
2026-01-17 11:44:40.40	346.86	26.05	-43.8	-46.3	24.4	6.07e-01	0	40	0	880803840	58	4990
2026-01-17 11:44:41.55	346.83	25.83	-43.9	-46.3	24.3	6.06e-01	0	40	0	882900992	58	5013
2026-01-17 11:44:42.41	346.81	25.67	-43.9	-46.4	24.3	6.07e-01	0	40	0	884473856	58	5065
2026-01-17 11:44:43.71	346.78	25.43	-44.0	-46.6	24.1	6.05e-01	0	40	0	887095296	58	5190
2026-01-17 11:44:44.42	346.76	25.30	-44.0	-46.7	24.0	6.08e-01	0	40	0	888143872	58	5244
2026-01-17 11:44:45.72	346.73	25.06	-44.2	-47.0	23.7	6.07e-01	0	40	0	890765312	59	5112
2026-01-17 11:44:46.43	346.71	24.94	-44.3	-47.1	23.7	6.05e-01	0	40	0	891813888	59	5170
2026-01-17 11:44:47.70	346.68	24.71	-44.4	-47.2	23.6	6.06e-01	0	40	0	894435328	59	5243
2026-01-17 11:44:48.43	346.66	24.58	-44.4	-47.1	23.6	6.07e-01	0	40	0	895483904	59	5215
2026-01-17 11:44:49.71	346.63	24.35	-44.4	-47.2	23.6	6.06e-01	0	40	0	898105344	59	5225
2026-01-17 11:44:50.50	346.62	24.21	-44.4	-47.1	23.6	6.07e-01	0	40	0	899678208	59	5163
2026-01-17 11:44:51.70	346.59	24.01	-44.4	-47.0	23.7	6.09e-01	0	40	0	901775360	59	5130
2026-01-17 11:44:52.70	346.57	23.83	-44.3	-46.9	23.8	6.07e-01	0	40	0	903872512	59	5070
2026-01-17 11:44:53.88	346.54	23.63	-44.3	-46.9	23.7	6.10e-01	0	40	0	905969664	59	5098
2026-01-17 11:44:54.73	346.52	23.49	-44.2	-46.9	23.7	6.06e-01	0	40	0	907542528	59	5082
2026-01-17 11:44:55.87	346.50	23.29	-44.1	-46.9	23.8	6.06e-01	0	40	0	909639680	59	5056
2026-01-17 11:44:56.72	346.48	23.15	-44.1	-46.9	23.8	6.06e-01	0	40	0	911212544	59	5082
2026-01-17 11:44:57.86	346.46	22.96	-44.0	-46.9	23.7	6.07e-01	0	40	0	913309696	59	5090
2026-01-17 11:44:58.71	346.44	22.82	-43.8	-46.8	23.9	6.05e-01	0	40	0	914882560	59	4984
2026-01-17 11:44:59.85	346.42	22.64	-43.8	-46.7	23.9	6.05e-01	0	40	0	916979712	59	4966
2026-01-17 11:45:00.70	346.40	22.50	-43.9	-46.7	23.9	6.06e-01	0	40	0	918552576	59	4965
2026-01-17 11:45:01.84	346.38	22.31	-44.0	-46.7	23.9	6.08e-01	0	40	0	920649728	59	4975
2026-01-17 11:45:02.69	346.36	22.18	-44.1	-46.8	23.9	6.06e-01	0	40	0	922222592	59	4997
2026-01-17 11:45:03.82	346.34	22.00	-44.3	-46.9	23.8	6.08e-01	0	40	0	924319744	59	5060
2026-01-17 11:45:04.68	346.33	21.86	-44.3	-46.8	23.8	6.08e-01	0	40	0	926416896	59	5020
2026-01-17 11:45:05.92	346.30	21.66	-44.2	-46.7	23.9	6.05e-01	0	40	0	928514048	59	4962
2026-01-17 11:45:06.77	346.29	21.53	-44.3	-46.7	23.9	6.06e-01	0	40	0	930086912	59	4980
2026-01-17 11:45:07.91	346.27	21.35	-44.1	-46.6	24.0	6.04e-01	0	40	0	932184064	59	4906
2026-01-17 11:45:08.76	346.25	21.22	-44.1	-46.7	24.0	6.07e-01	0	41	0	933756928	59	4957
2026-01-17 11:45:10.09	346.23	21.02	-44.0	-46.7	23.9	6.05e-01	0	40	0	936378368	59	4950
2026-01-17 11:45:10.80	346.22	20.91	-44.1	-46.7	23.9	6.09e-01	0	40	0	937951232	59	4976
2026-01-17 11:45:12.08	346.20	20.72	-44.0	-46.7	23.9	6.08e-01	0	40	0	940048384	59	4971
2026-01-17 11:45:12.80	346.18	20.61	-44.1	-46.8	23.9	6.06e-01	0	40	0	941621248	59	5007
2026-01-17 11:45:14.08	346.16	20.42	-44.1	-46.8	23.9	6.06e-01	0	40	0	943718400	59	5017
2026-01-17 11:45:14.81	346.15	20.31	-44.0	-46.7	24.0	6.05e-01	0	40	0	945291264	59	4941
2026-01-17 11:45:16.09	346.13	20.12	-44.1	-46.6	24.0	6.06e-01	0	40	0	947388416	59	4907
2026-01-17 11:45:16.92	346.12	20.00	-44.1	-46.6	24.0	6.06e-01	0	40	0	948961280	59	4921
2026-01-17 11:45:18.06	346.10	19.84	-44.2	-46.7	23.9	6.05e-01	0	40	0	951058432	59	4973
2026-01-17 11:45:18.92	346.09	19.71	-44.2	-46.8	23.9	6.04e-01	0	40	0	952631296	59	5013
2026-01-17 11:45:20.05	346.07	19.55	-44.2	-46.8	23.8	6.09e-01	0	40	0	955252736	59	5014
2026-01-17 11:45:20.90	346.06	19.43	-44.2	-46.9	23.7	6.04e-01	0	40	0	956825600	59	5089
2026-01-17 11:45:22.04	346.04	19.27	-44.1	-46.9	23.8	6.06e-01	0	40	0	958922752	59	5045
2026-01-17 11:45:22.90	346.03	19.15	-44.2	-47.0	23.7	6.06e-01	0	40	0	960495616	59	5107
2026-01-17 11:45:24.03	346.01	18.99	-44.2	-47.1	23.6	6.05e-01	0	40	0	962592768	59	5166
2026-01-17 11:45:24.89	346.00	18.87	-44.2	-47.2	23.5	6.07e-01	0	40	0	964165632	59	5226
2026-01-17 11:45:26.02	345.98	18.71	-44.2	-47.1	23.6	6.08e-01	0	40	0	966262784	59	5188
2026-01-17 11:45:26.88	345.97	18.59	-44.3	-47.2	23.5	6.06e-01	0	40	0	967835648	59	5260
2026-01-17 11:45:28.15	345.95	18.42	-44.4	-47.2	23.5	6.08e-01	0	40	0	970457088	59	5235
2026-01-17 11:45:28.87	345.94	18.32	-44.3	-47.1	23.6	6.02e-01	0	40	0	971505664	59	5174
2026-01-17 11:45:30.14	345.92	18.15	-44.3	-47.0	23.7	6.03e-01	0	40	0	974127104	59	5118
2026-01-17 11:45:30.87	345.91	18.05	-44.3	-47.0	23.7	6.03e-01	0	40	0	975175680	59	5122
2026-01-17 11:45:32.15	345.90	17.88	-44.3	-47.0	23.7	6.04e-01	0	40	0	977797120	59	5120
2026-01-17 11:45:32.86	345.89	17.79	-44.3	-47.0	23.6	6.02e-01	0	40	0	978845696	59	5136
2026-01-17 11:45:34.14	345.87	17.62	-44.3	-47.1	23.6	6.05e-01	0	40	0	981467136	59	5210
2026-01-17 11:45:35.02	345.86	17.50	-44.3	-47.1	23.6	6.05e-01	0	40	0	983040000	59	5208
2026-01-17 11:45:36.16	345.85	17.36	-44.0	-47.0	23.6	6.04e-01	0	40	0	985137152	59	5118
2026-01-17 11:45:37.20	345.83	17.22	-43.7	-46.8	23.7	6.03e-01	0	40	0	987234304	59	5038
2026-01-17 11:45:38.33	345.82	17.08	-43.6	-46.8	23.8	6.04e-01	0	41	0	989331456	59	5027
2026-01-17 11:45:39.25	345.81	16.96	-43.5	-46.8	23.8	6.04e-01	0	40	0	990904320	58	5280
2026-01-17 11:45:40.24	345.80	16.83	-43.4	-46.7	23.9	6.04e-01	0	40	0	993001472	58	5230
2026-01-17 11:45:41.44	345.78	16.68	-43.5	-46.7	23.8	6.02e-01	0	40	0	995098624	58	5273
2026-01-17 11:45:42.32	345.77	16.57	-43.6	-46.8	23.7	6.05e-01	0	40	0	996671488	58	5314
2026-01-17 11:45:43.64	345.76	16.41	-43.7	-46.8	23.8	6.03e-01	0	40	0	999292928	58	5313
2026-01-17 11:45:44.35	345.75	16.32	-43.8	-46.8	23.8	6.03e-01	0	40	0	1000341504	58	5280
2026-01-17 11:45:45.83	345.73	16.14	-43.9	-46.7	23.8	6.03e-01	0	40	0	1003487232	58	5254
2026-01-17 11:45:46.54	345.72	16.05	-43.9	-46.7	23.9	6.04e-01	0	41	0	1004535808	58	5236
2026-01-17 11:45:47.82	345.71	15.89	-43.9	-46.7	23.9	6.03e-01	0	40	0	1007157248	58	5227
2026-01-17 11:45:48.55	345.70	15.81	-43.9	-46.6	23.9	6.04e-01	0	40	0	1008730112	58	5185
2026-01-17 11:45:49.83	345.69	15.65	-43.9	-46.6	23.9	6.04e-01	0	40	0	1010827264	58	5194
2026-01-17 11:45:50.55	345.68	15.57	-43.8	-46.6	23.9	6.02e-01	0	40	0	1012400128	58	5188
2026-01-17 11:45:51.83	345.67	15.41	-43.7	-46.6	24.0	6.06e-01	0	40	0	1014497280	58	5193
2026-01-17 11:45:52.56	345.66	15.33	-43.7	-46.6	23.9	6.03e-01	0	40	0	1016070144	58	5195
2026-01-17 11:45:53.84	345.65	15.18	-43.6	-46.6	24.0	6.02e-01	0	40	0	1018167296	58	5176
2026-01-17 11:45:54.56	345.64	15.09	-43.6	-46.7	23.9	6.05e-01	0	40	0	1019740160	58	5235
2026-01-17 11:45:55.84	345.62	14.94	-43.6	-46.7	23.9	6.04e-01	0	40	0	1021837312	58	5248
2026-01-17 11:45:56.57	345.62	14.86	-43.7	-46.7	23.9	6.02e-01	0	40	0	1023410176	58	5256
2026-01-17 11:45:57.85	345.61	14.71	-43.6	-46.5	24.0	6.05e-01	0	40	0	1026031616	58	5137
2026-01-17 11:45:58.59	345.60	14.62	-43.5	-46.4	24.1	6.04e-01	0	40	0	1027080192	58	5099
2026-01-17 11:45:59.87	345.59	14.48	-43.6	-46.4	24.1	6.04e-01	0	40	0	1029701632	58	5099
2026-01-17 11:46:00.59	345.58	14.40	-43.6	-46.5	24.1	6.02e-01	0	40	0	1030750208	58	5109
2026-01-17 11:46:01.88	345.57	14.25	-43.7	-46.5	24.1	6.03e-01	0	40	0	1033371648	58	5106
2026-01-17 11:46:02.59	345.56	14.17	-43.6	-46.4	24.1	6.03e-01	0	41	0	1034944512	58	5063
2026-01-17 11:46:03.87	345.55	14.03	-43.7	-46.5	24.0	6.03e-01	0	40	0	1037041664	58	5136
2026-01-17 11:46:04.58	345.54	13.95	-43.7	-46.4	24.1	6.03e-01	0	40	0	1038614528	58	5088
2026-01-17 11:46:05.87	345.53	13.81	-43.7	-46.4	24.2	6.05e-01	0	40	0	1040711680	58	5050
2026-01-17 11:46:06.58	345.52	13.73	-43.8	-46.4	24.1	6.04e-01	0	40	0	1042284544	58	5078
2026-01-17 11:46:07.87	345.51	13.59	-43.8	-46.4	24.1	6.02e-01	0	40	0	1044905984	58	5100
2026-01-17 11:46:08.58	345.51	13.51	-43.8	-46.5	24.1	6.01e-01	0	40	0	1045954560	58	5147
2026-01-17 11:46:09.86	345.50	13.37	-43.8	-46.6	24.0	6.04e-01	0	40	0	1048576000	58	5161
2026-01-17 11:46:10.57	345.49	13.29	-43.6	-46.4	24.1	6.02e-01	0	40	0	1049624576	58	5082
2026-01-17 11:46:11.85	345.48	13.16	-43.6	-46.5	24.0	6.01e-01	0	40	0	1052246016	58	5156
2026-01-17 11:46:12.59	345.47	13.08	-43.6	-46.7	23.9	6.04e-01	0	40	0	1053294592	58	5225
2026-01-17 11:46:13.87	345.46	12.94	-43.5	-46.5	24.0	6.03e-01	0	40	0	1055916032	58	5151
2026-01-17 11:46:14.58	345.46	12.87	-43.5	-46.6	23.9	6.04e-01	0	40	0	1056964608	58	5206
2026-01-17 11:46:15.86	345.45	12.73	-43.6	-46.7	23.8	6.04e-01	0	40	0	1059586048	58	5243
2026-01-17 11:46:16.58	345.44	12.66	-43.7	-46.7	23.8	6.04e-01	0	40	0	1061158912	58	5267
2026-01-17 11:46:17.86	345.43	12.52	-43.7	-46.7	23.9	6.03e-01	0	40	0	1063256064	58	5239
2026-01-17 11:46:18.67	345.43	12.44	-43.7	-46.7	23.9	6.04e-01	0	40	0	1064828928	58	5238
2026-01-17 11:46:20.09	345.41	12.29	-43.7	-46.6	23.9	6.04e-01	0	40	0	1067450368	58	5218
2026-01-17 11:46:20.80	345.41	12.22	-43.8	-46.7	23.9	6.04e-01	0	40	0	1069023232	58	5243
2026-01-17 11:46:22.28	345.40	12.07	-43.9	-46.9	23.7	6.04e-01	0	40	0	1071644672	58	5351
2026-01-17 11:46:22.99	345.39	11.99	-43.9	-46.8	23.8	6.03e-01	0	40	0	1073217536	58	5300
2026-01-17 11:46:24.29	345.38	11.86	-44.0	-46.9	23.6	6.03e-01	0	40	0	1075314688	58	5400
2026-01-17 11:46:25.00	345.38	11.79	-44.0	-47.0	23.6	6.04e-01	0	40	0	1076887552	58	5444
2026-01-17 11:46:26.28	345.37	11.66	-44.0	-47.1	23.5	6.05e-01	0	40	0	1078984704	58	5488
2026-01-17 11:46:26.99	345.36	11.59	-43.9	-47.2	23.4	6.03e-01	0	40	0	1080557568	58	5541
2026-01-17 11:46:28.28	345.36	11.46	-43.8	-47.1	23.5	6.03e-01	0	40	0	1082654720	58	5509
2026-01-17 11:46:29.00	345.35	11.39	-43.8	-47.2	23.4	6.02e-01	0	40	0	1084227584	58	5563
2026-01-17 11:46:30.27	345.34	11.27	-43.6	-47.1	23.5	6.02e-01	0	40	0	1086849024	58	5527
2026-01-17 11:46:31.02	345.34	11.19	-43.4	-47.2	23.4	6.02e-01	0	40	0	1087897600	58	5532
2026-01-17 11:46:32.30	345.33	11.07	-43.3	-47.2	23.4	6.03e-01	0	40	0	1090519040	58	5558
2026-01-17 11:46:33.01	345.32	11.00	-43.3	-47.3	23.3	6.03e-01	0	40	0	1091567616	58	5612
2026-01-17 11:46:34.29	345.32	10.88	-43.1	-47.2	23.4	6.05e-01	0	40	0	1094189056	58	5534
2026-01-17 11:46:35.00	345.31	10.81	-43.1	-47.2	23.4	6.04e-01	0	40	0	1095761920	58	5550
2026-01-17 11:46:36.28	345.30	10.68	-43.2	-47.3	23.3	6.02e-01	0	40	0	1097859072	58	5604
2026-01-17 11:46:36.99	345.30	10.62	-43.2	-47.4	23.1	6.05e-01	0	40	0	1099431936	58	5678
2026-01-17 11:46:38.30	345.29	10.49	-43.3	-47.4	23.2	6.03e-01	0	40	0	1101529088	58	5669
2026-01-17 11:46:39.01	345.29	10.42	-43.4	-47.4	23.1	6.02e-01	0	40	0	1103101952	58	5706
2026-01-17 11:46:40.29	345.28	10.30	-43.4	-47.4	23.1	6.03e-01	0	40	0	1105199104	58	5716
2026-01-17 11:46:41.05	345.27	10.23	-43.5	-47.5	23.1	6.03e-01	0	40	0	1106771968	58	5767
2026-01-17 11:46:42.33	345.27	10.11	-43.5	-47.5	23.0	6.02e-01	0	40	0	1109393408	58	5788
2026-01-17 11:46:43.05	345.26	10.05	-43.4	-47.5	23.0	6.04e-01	0	40	0	1110441984	58	5764
2026-01-17 11:46:44.33	345.26	9.93	-43.5	-47.7	22.9	6.04e-01	0	40	0	1113063424	58	5863
2026-01-17 11:46:45.07	345.25	9.86	-43.5	-47.7	22.9	6.02e-01	0	40	0	1114636288	58	5879
2026-01-17 11:46:46.35	345.24	9.74	-43.3	-47.7	22.9	6.04e-01	0	40	0	1116733440	58	5859
2026-01-17 11:46:47.06	345.24	9.68	-43.2	-47.8	22.8	6.04e-01	0	40	0	1118306304	58	5949
2026-01-17 11:46:48.34	345.23	9.56	-42.9	-47.7	22.8	6.04e-01	0	40	0	1120403456	57	6223
2026-01-17 11:46:49.07	345.23	9.49	-42.9	-47.6	22.9	6.03e-01	0	40	0	1121976320	57	6181
2026-01-17 11:46:50.34	345.22	9.38	-42.9	-47.7	22.8	6.03e-01	0	40	0	1124073472	57	6242
2026-01-17 11:46:51.07	345.22	9.31	-42.7	-47.7	22.8	6.05e-01	0	40	0	1125646336	57	6237
2026-01-17 11:46:52.63	345.21	9.17	-42.7	-47.6	22.8	6.03e-01	0	41	0	1128792064	57	6197
2026-01-17 11:46:53.26	345.21	9.12	-42.8	-47.8	22.7	6.05e-01	0	40	0	1129840640	57	6316
2026-01-17 11:46:54.78	345.20	8.98	-44.8	-52.0	19.7	6.03e-01	0	40	0	1132462080	60	8581
2026-01-17 11:46:55.49	345.20	8.92	-49.0	-71.5	3.9	7.41e-01	0	40	104	1132986368	68	51284
2026-01-17 11:46:56.77	345.19	8.81	-49.4	-72.1	3.8	7.42e-01	0	40	104	1132986368	70	49119
2026-01-17 11:46:57.48	345.19	8.74	-50.2	-72.4	3.8	7.44e-01	0	40	104	1132986368	71	47864
2026-01-17 11:46:58.75	345.18	8.63	-51.3	-72.8	3.8	7.42e-01	0	40	104	1132986368	73	44432
2026-01-17 11:46:59.46	345.18	8.57	-50.9	-72.7	3.8	7.44e-01	0	41	104	1132986368	72	47019
2026-01-17 11:47:00.85	345.17	8.45	-50.9	-72.7	3.8	7.45e-01	0	40	104	1132986368	73	43984
2026-01-17 11:47:01.56	345.17	8.39	-51.9	-72.7	3.8	7.46e-01	0	40	104	1132986368	75	39391
2026-01-17 11:47:02.87	345.16	8.28	-52.5	-72.7	3.8	7.47e-01	0	40	104	1132986368	75	39576
2026-01-17 11:47:03.58	345.16	8.21	-51.6	-72.8	3.8	7.46e-01	0	40	104	1132986368	74	41991
2026-01-17 11:47:04.85	345.15	8.11	-52.1	-72.8	3.8	7.45e-01	0	41	104	1132986368	75	39773
2026-01-17 11:47:05.56	345.15	8.05	-52.1	-72.8	3.8	7.43e-01	0	40	104	1132986368	75	39900
2026-01-17 11:47:06.84	345.14	7.94	-52.7	-72.9	3.8	7.42e-01	0	40	104	1132986368	76	37853
2026-01-17 11:47:07.57	345.14	7.88	-52.9	-72.9	3.8	7.46e-01	0	40	104	1132986368	76	37924
2026-01-17 11:47:08.84	345.14	7.77	-52.6	-72.9	3.8	7.45e-01	0	40	104	1132986368	76	37983
2026-01-17 11:47:09.55	345.13	7.71	-52.9	-72.9	3.8	7.44e-01	0	40	104	1132986368	76	38072
2026-01-17 11:47:10.83	345.13	7.60	-52.4	-72.9	3.8	7.47e-01	0	40	104	1132986368	76	38049
2026-01-17 11:47:11.54	345.12	7.54	-52.7	-72.9	3.8	7.47e-01	0	40	104	1132986368	76	38186
2026-01-17 11:47:12.82	345.12	7.44	-52.4	-72.9	3.8	7.47e-01	0	40	104	1132986368	76	38198
2026-01-17 11:47:13.53	345.12	7.38	-52.9	-72.9	3.8	7.47e-01	0	40	104	1132986368	76	38161
2026-01-17 11:47:14.80	345.11	7.27	-53.1	-73.0	3.8	7.47e-01	0	40	104	1132986368	76	38282
2026-01-17 11:47:15.53	345.11	7.21	-53.1	-73.0	3.8	7.48e-01	0	40	104	1132986368	76	38358
2026-01-17 11:47:16.81	345.10	7.11	-53.0	-73.0	3.8	7.47e-01	0	41	104	1132986368	76	38379
2026-01-17 11:47:17.52	345.10	7.05	-52.7	-73.0	3.8	7.45e-01	0	40	104	1132986368	76	38328
2026-01-17 11:47:18.85	345.10	6.94	-52.8	-73.0	3.8	7.43e-01	0	40	104	1132986368	76	38428
2026-01-17 11:47:19.57	345.09	6.88	-52.7	-73.0	3.8	7.49e-01	0	40	104	1132986368	76	38400
2026-01-17 11:47:20.84	345.09	6.78	-52.3	-73.0	3.8	7.44e-01	0	40	104	1132986368	76	38471
2026-01-17 11:47:21.55	345.09	6.72	-52.4	-73.0	3.8	7.42e-01	0	40	104	1132986368	76	38424
2026-01-17 11:47:22.83	345.08	6.62	-52.2	-73.0	3.8	7.48e-01	0	40	104	1132986368	76	38364
2026-01-17 11:47:23.57	345.08	6.56	-52.0	-73.0	3.8	7.46e-01	0	41	104	1132986368	76	38331
2026-01-17 11:47:24.85	345.07	6.46	-52.2	-73.0	3.8	7.45e-01	0	40	104	1132986368	76	38455
2026-01-17 11:47:25.57	345.07	6.40	-52.1	-73.0	3.8	7.45e-01	0	40	104	1132986368	76	38441
2026-01-17 11:47:26.85	345.07	6.30	-52.1	-73.0	3.8	7.44e-01	0	40	104	1132986368	76	38452
2026-01-17 11:47:27.57	345.07	6.25	-52.1	-73.0	3.8	7.45e-01	0	40	104	1132986368	76	38483
2026-01-17 11:47:28.85	345.06	6.15	-52.2	-73.0	3.8	7.47e-01	0	40	104	1132986368	76	38503
2026-01-17 11:47:29.56	345.06	6.09	-52.1	-73.0	3.8	7.47e-01	0	40	104	1132986368	76	38526
2026-01-17 11:47:30.84	345.05	5.99	-52.2	-73.0	3.8	7.47e-01	0	40	104	1132986368	76	38584
2026-01-17 11:47:31.54	345.05	5.94	-52.2	-73.0	3.8	7.48e-01	0	40	104	1132986368	76	38669
2026-01-17 11:47:32.82	345.05	5.84	-52.2	-73.0	3.8	7.43e-01	0	41	104	1132986368	76	38672
2026-01-17 11:47:33.53	345.05	5.78	-52.2	-73.0	3.8	7.45e-01	0	40	104	1132986368	76	38667
2026-01-17 11:47:34.81	345.04	5.68	-52.2	-73.1	3.8	7.41e-01	0	40	104	1132986368	76	38815
2026-01-17 11:47:35.52	345.04	5.63	-52.3	-73.1	3.8	7.46e-01	0	40	104	1132986368	76	38792
2026-01-17 11:47:36.79	345.04	5.53	-52.3	-73.1	3.8	7.43e-01	0	40	104	1132986368	76	38900
2026-01-17 11:47:37.50	345.03	5.48	-52.3	-73.1	3.8	7.45e-01	0	40	104	1132986368	76	38977
2026-01-17 11:47:38.78	345.03	5.38	-52.3	-73.1	3.8	7.49e-01	0	40	104	1132986368	76	39071
2026-01-17 11:47:39.50	345.03	5.33	-52.3	-73.1	3.8	7.45e-01	0	40	104	1132986368	76	39085
2026-01-17 11:47:40.78	345.03	5.23	-52.3	-73.2	3.8	7.43e-01	0	41	104	1132986368	76	39186
2026-01-17 11:47:41.49	345.02	5.18	-52.3	-73.1	3.8	7.47e-01	0	40	104	1132986368	76	39115
2026-01-17 11:47:42.77	345.02	5.08	-52.4	-73.2	3.8	7.49e-01	0	41	104	1132986368	76	39297
2026-01-17 11:47:43.49	345.02	5.03	-52.4	-73.2	3.8	7.48e-01	0	41	104	1132986368	76	39361
2026-01-17 11:47:44.77	345.01	4.93	-52.4	-73.2	3.8	7.48e-01	0	40	104	1132986368	76	39514

#Closed at: 2026-01-17 11:47:45
#Recorded file [1132 MB]: D:/Data/31040_260117_143621.dat