passes_logs/2026/01/17/T1/T1__20260117_223855_SUOMI_NPP_rec.log

#Pass ID: 20260117_223855_SUOMI NPP
#Satellite: SUOMI NPP
#Configuration: NPP
#almurnet v.1.7.20251203
#Start time: 2026-01-17 22:38:57

#Version: 2.0.20230620
#Station: T1
#Location: 37.570604 lon 55.790049 lat
#TLE: 1 37849U 11061A   26017.28905266  .00000074  00000+0  55894-4 0  9999
#TLE: 2 37849  98.7814 319.3179 0002408  59.7048 300.4366 14.19525847737038

#Time	Az	El	Level	Level2	SNR	BER	BlckErr	Temp	State	Recorded	gain1	gain2
2026-01-17 22:38:57.32	25.46	5.15	-47.6	-63.2	3.8	1.49e+00	0	37	0	0	65	23573
2026-01-17 22:38:58.31	25.53	5.21	-47.6	-63.2	3.8	1.49e+00	0	37	104	0	65	23555
2026-01-17 22:38:59.35	25.60	5.28	-47.6	-63.3	3.8	1.49e+00	0	37	104	0	65	23606
2026-01-17 22:39:00.30	25.66	5.34	-47.6	-63.2	3.8	1.49e+00	0	37	104	0	65	23521
2026-01-17 22:39:01.29	25.73	5.40	-47.6	-63.2	3.8	1.49e+00	0	37	104	0	65	23577
2026-01-17 22:39:02.28	25.79	5.47	-47.6	-63.2	3.8	1.49e+00	0	37	104	0	65	23579
2026-01-17 22:39:03.28	25.86	5.53	-47.6	-63.3	3.8	1.49e+00	0	37	104	0	65	23614
2026-01-17 22:39:04.27	25.93	5.60	-47.6	-63.3	3.8	1.49e+00	0	37	104	0	65	23633
2026-01-17 22:39:05.26	25.99	5.66	-47.6	-63.2	3.8	1.49e+00	0	37	104	0	65	23559
2026-01-17 22:39:06.25	26.06	5.73	-47.6	-63.2	3.8	1.49e+00	0	37	104	0	65	23523
2026-01-17 22:39:07.25	26.13	5.79	-47.6	-63.2	3.8	1.49e+00	0	37	104	0	65	23485
2026-01-17 22:39:08.24	26.20	5.86	-47.6	-63.2	3.8	1.49e+00	0	37	104	0	65	23566
2026-01-17 22:39:09.24	26.27	5.92	-47.6	-63.2	3.8	1.49e+00	0	37	104	0	65	23504
2026-01-17 22:39:10.23	26.34	5.99	-47.6	-63.2	3.8	1.49e+00	0	37	104	0	65	23521
2026-01-17 22:39:11.22	26.41	6.05	-47.6	-63.2	3.8	1.49e+00	0	37	104	0	65	23547
2026-01-17 22:39:12.22	26.48	6.12	-47.6	-63.2	3.8	1.49e+00	0	37	104	0	65	23441
2026-01-17 22:39:13.21	26.55	6.19	-47.6	-63.2	3.8	1.49e+00	0	37	104	0	65	23534
2026-01-17 22:39:14.20	26.62	6.25	-47.6	-63.2	3.8	1.49e+00	0	38	104	0	65	23530
2026-01-17 22:39:15.20	26.69	6.32	-47.6	-63.2	3.8	1.49e+00	0	37	104	0	65	23535
2026-01-17 22:39:16.19	26.76	6.39	-47.6	-63.2	3.8	1.49e+00	0	38	104	0	65	23536
2026-01-17 22:39:17.18	26.83	6.45	-47.6	-63.2	3.8	1.49e+00	0	38	104	0	65	23467
2026-01-17 22:39:18.17	26.90	6.52	-47.6	-63.2	3.8	1.49e+00	0	38	104	0	65	23524
2026-01-17 22:39:19.17	26.97	6.59	-47.6	-63.2	3.8	1.49e+00	0	38	104	0	65	23486
2026-01-17 22:39:20.16	27.04	6.65	-47.6	-63.2	3.8	1.49e+00	0	38	104	0	65	23527
2026-01-17 22:39:21.15	27.12	6.72	-47.6	-63.2	3.8	1.49e+00	0	38	104	0	65	23522
2026-01-17 22:39:22.15	27.19	6.79	-47.6	-63.2	3.8	1.49e+00	0	38	104	0	65	23344
2026-01-17 22:39:23.14	27.26	6.85	-47.6	-63.1	3.8	1.49e+00	0	38	104	0	65	23272
2026-01-17 22:39:24.13	27.34	6.92	-47.6	-63.1	3.8	1.49e+00	0	38	104	0	65	23208
2026-01-17 22:39:25.13	27.41	6.99	-47.6	-63.1	3.8	1.49e+00	0	38	104	0	65	23063
2026-01-17 22:39:26.12	27.48	7.06	-47.6	-63.0	3.8	1.49e+00	0	38	104	0	65	23026
2026-01-17 22:39:27.11	27.56	7.12	-47.6	-63.0	3.8	1.49e+00	0	38	104	0	65	23014
2026-01-17 22:39:28.11	27.63	7.19	-47.6	-63.1	3.8	1.49e+00	0	38	104	0	65	23094
2026-01-17 22:39:29.10	27.71	7.26	-47.6	-63.1	3.8	1.49e+00	0	38	104	0	65	23164
2026-01-17 22:39:30.09	27.78	7.33	-47.6	-63.2	3.8	1.49e+00	0	38	104	0	65	23367
2026-01-17 22:39:31.09	27.86	7.40	-47.6	-63.2	3.8	1.49e+00	0	38	104	0	65	23389
2026-01-17 22:39:32.08	27.93	7.47	-47.6	-63.2	3.8	1.49e+00	0	38	104	0	65	23472
2026-01-17 22:39:33.07	28.01	7.53	-47.6	-63.2	3.8	1.49e+00	0	38	104	0	65	23348
2026-01-17 22:39:34.06	28.09	7.60	-47.6	-63.1	3.8	1.49e+00	0	38	104	0	65	23220
2026-01-17 22:39:35.06	28.16	7.67	-47.6	-63.1	3.8	1.49e+00	0	38	104	0	65	23147
2026-01-17 22:39:36.05	28.24	7.74	-47.6	-63.1	3.8	1.49e+00	0	38	104	0	65	23057
2026-01-17 22:39:37.04	28.32	7.81	-47.6	-63.0	3.8	1.49e+00	0	38	104	0	65	22974
2026-01-17 22:39:38.03	28.40	7.88	-47.6	-63.0	3.8	1.49e+00	0	38	104	0	65	22879
2026-01-17 22:39:39.03	28.47	7.95	-47.6	-62.9	3.8	1.49e+00	0	38	104	0	65	22681
2026-01-17 22:39:40.02	28.55	8.02	-47.6	-62.8	3.8	1.49e+00	0	38	104	0	65	22381
2026-01-17 22:39:41.01	28.63	8.09	-47.6	-62.7	3.8	1.49e+00	0	38	104	0	65	22224
2026-01-17 22:39:42.01	28.71	8.16	-47.6	-62.6	3.8	1.49e+00	0	38	104	0	65	21915
2026-01-17 22:39:43.00	28.79	8.23	-47.6	-62.4	3.8	1.49e+00	0	38	104	0	65	21347
2026-01-17 22:39:43.99	28.87	8.30	-47.6	-62.2	3.8	1.49e+00	0	38	104	0	65	20911
2026-01-17 22:39:44.99	28.95	8.37	-47.5	-62.0	3.8	1.49e+00	0	39	104	0	65	20419
2026-01-17 22:39:45.98	29.03	8.44	-47.5	-61.6	3.8	1.49e+00	0	39	104	0	65	19611
2026-01-17 22:39:46.97	29.11	8.51	-47.5	-61.0	3.8	1.49e+00	0	38	104	0	65	18246
2026-01-17 22:39:47.97	29.20	8.58	-47.4	-59.8	4.2	1.45e+00	0	39	0	0	65	15851
2026-01-17 22:39:48.96	29.28	8.66	-47.3	-58.3	4.6	1.26e+00	0	38	0	0	65	13345
2026-01-17 22:39:49.95	29.36	8.73	-47.0	-56.4	5.7	6.31e-01	0	39	0	2097152	65	10742
2026-01-17 22:39:50.95	29.44	8.80	-46.7	-54.7	7.1	2.64e-01	0	39	0	4194304	65	8819
2026-01-17 22:39:51.94	29.53	8.87	-46.3	-53.1	8.7	5.05e-02	0	39	0	5242880	64	7756
2026-01-17 22:39:52.93	29.61	8.94	-46.0	-52.0	10.0	1.31e-02	0	39	0	7340032	63	7209
2026-01-17 22:39:53.93	29.69	9.01	-45.5	-50.8	11.1	3.96e-03	0	39	0	9437184	63	6321
2026-01-17 22:39:54.92	29.78	9.09	-45.7	-51.2	10.8	1.59e-03	0	39	0	11534336	63	6623
2026-01-17 22:39:55.92	29.86	9.16	-47.2	-56.4	5.9	1.03e-01	0	38	0	13631488	64	11308
2026-01-17 22:39:56.91	29.95	9.23	-45.2	-50.1	12.0	3.44e-02	0	39	0	14680064	62	6181
2026-01-17 22:39:57.91	30.03	9.30	-47.6	-60.5	3.8	3.52e-02	0	39	104	16777216	65	17169
2026-01-17 22:39:58.90	30.12	9.38	-42.6	-45.6	16.5	1.10e-03	0	39	0	16777216	57	4894
2026-01-17 22:39:59.90	30.21	9.45	-42.5	-45.4	16.6	0.00e+00	0	38	0	18874368	56	5084
2026-01-17 22:40:00.90	30.29	9.52	-42.4	-45.3	16.7	0.00e+00	0	39	0	20971520	56	5027
2026-01-17 22:40:01.95	30.39	9.60	-42.5	-45.3	16.7	0.00e+00	0	39	0	23068672	56	5040
2026-01-17 22:40:02.81	30.46	9.66	-42.5	-45.4	16.7	0.00e+00	0	39	0	24117248	56	5047
2026-01-17 22:40:03.94	30.56	9.75	-42.3	-45.1	16.9	0.00e+00	0	39	0	26214400	56	4922
2026-01-17 22:40:04.79	30.64	9.81	-42.1	-44.9	17.2	0.00e+00	0	39	0	28311552	56	4780
2026-01-17 22:40:05.93	30.74	9.90	-41.7	-44.4	17.5	0.00e+00	0	39	0	30408704	55	4789
2026-01-17 22:40:06.79	30.82	9.96	-41.7	-44.4	17.5	0.00e+00	0	39	0	31457280	55	4775
2026-01-17 22:40:07.92	30.92	10.04	-41.6	-44.3	17.6	0.00e+00	0	39	0	33554432	55	4719
2026-01-17 22:40:08.78	31.00	10.11	-41.5	-44.1	17.8	0.00e+00	0	39	0	35651584	54	4883
2026-01-17 22:40:09.91	31.10	10.19	-41.6	-44.3	17.6	0.00e+00	0	39	0	37748736	54	5005
2026-01-17 22:40:10.76	31.18	10.26	-41.4	-44.0	17.9	0.00e+00	0	39	0	38797312	54	4824
2026-01-17 22:40:11.90	31.28	10.34	-41.6	-44.2	17.7	0.00e+00	0	39	0	41943040	54	4983
2026-01-17 22:40:12.75	31.36	10.41	-41.4	-44.0	17.8	0.00e+00	0	39	0	42991616	54	4864
2026-01-17 22:40:13.97	31.47	10.50	-41.2	-43.8	18.1	0.00e+00	0	39	0	45088768	54	4714
2026-01-17 22:40:14.82	31.55	10.56	-41.4	-43.9	17.9	0.00e+00	0	39	0	47185920	54	4802
2026-01-17 22:40:16.02	31.67	10.66	-41.4	-44.0	17.9	0.00e+00	0	39	0	49283072	54	4820
2026-01-17 22:40:16.88	31.75	10.72	-41.5	-44.1	17.9	0.00e+00	0	39	0	50331648	54	4903
2026-01-17 22:40:18.08	31.86	10.81	-41.2	-43.8	18.1	0.00e+00	0	39	0	53477376	54	4730
2026-01-17 22:40:18.93	31.94	10.88	-41.4	-44.0	17.9	0.00e+00	0	39	0	54525952	54	4835
2026-01-17 22:40:20.07	32.05	10.97	-41.3	-43.9	18.0	0.00e+00	0	39	0	56623104	54	4771
2026-01-17 22:40:20.92	32.13	11.03	-41.4	-44.1	17.9	0.00e+00	0	39	0	58720256	54	4895
2026-01-17 22:40:22.06	32.24	11.12	-41.5	-44.2	17.7	0.00e+00	0	39	0	60817408	54	4944
2026-01-17 22:40:22.91	32.33	11.19	-41.4	-44.1	17.8	0.00e+00	0	39	0	61865984	54	4896
2026-01-17 22:40:24.05	32.44	11.27	-41.5	-44.2	17.7	0.00e+00	0	39	0	63963136	54	4976
2026-01-17 22:40:24.91	32.52	11.34	-41.6	-44.2	17.7	0.00e+00	0	39	0	66060288	54	4964
2026-01-17 22:40:26.04	32.63	11.43	-41.7	-44.4	17.6	0.00e+00	0	39	0	68157440	54	5088
2026-01-17 22:40:26.90	32.72	11.50	-41.8	-44.6	17.4	0.00e+00	0	39	0	69206016	54	5196
2026-01-17 22:40:28.03	32.83	11.58	-41.6	-44.2	17.7	0.00e+00	0	39	0	71303168	54	4964
2026-01-17 22:40:28.89	32.92	11.65	-41.6	-44.3	17.6	0.00e+00	0	39	0	73400320	54	4993
2026-01-17 22:40:30.02	33.03	11.74	-41.7	-44.4	17.6	0.00e+00	0	39	0	75497472	54	5066
2026-01-17 22:40:30.87	33.12	11.81	-41.6	-44.3	17.7	0.00e+00	0	39	0	76546048	54	5009
2026-01-17 22:40:32.01	33.23	11.90	-41.6	-44.2	17.7	0.00e+00	0	39	0	78643200	54	4972
2026-01-17 22:40:32.86	33.32	11.96	-41.6	-44.2	17.7	0.00e+00	0	39	0	80740352	54	4979
2026-01-17 22:40:34.00	33.44	12.05	-41.6	-44.1	17.8	0.00e+00	0	39	0	82837504	54	4919
2026-01-17 22:40:34.85	33.53	12.12	-41.5	-44.0	18.0	0.00e+00	0	39	0	84934656	54	4846
2026-01-17 22:40:35.99	33.64	12.21	-41.5	-44.1	17.9	0.00e+00	0	39	0	87031808	54	4878
2026-01-17 22:40:36.85	33.73	12.28	-41.4	-43.9	18.1	0.00e+00	0	39	0	88080384	54	4763
2026-01-17 22:40:37.98	33.85	12.37	-41.2	-43.7	18.3	0.00e+00	0	39	0	90177536	54	4660
2026-01-17 22:40:38.84	33.94	12.44	-41.2	-43.6	18.3	0.00e+00	0	39	0	92274688	54	4635
2026-01-17 22:40:39.97	34.06	12.53	-41.2	-43.6	18.3	0.00e+00	0	39	0	94371840	54	4639
2026-01-17 22:40:40.83	34.16	12.60	-41.2	-43.6	18.3	0.00e+00	0	39	0	95420416	54	4635
2026-01-17 22:40:41.97	34.28	12.69	-41.3	-43.7	18.2	0.00e+00	0	39	0	97517568	54	4687
2026-01-17 22:40:42.82	34.37	12.76	-41.2	-43.7	18.3	0.00e+00	0	39	0	99614720	54	4653
2026-01-17 22:40:43.96	34.49	12.85	-41.2	-43.7	18.3	0.00e+00	0	39	0	101711872	54	4658
2026-01-17 22:40:44.81	34.59	12.92	-41.3	-43.7	18.2	0.00e+00	0	39	0	102760448	54	4692
2026-01-17 22:40:45.95	34.71	13.02	-41.2	-43.7	18.3	0.00e+00	0	39	0	104857600	54	4660
2026-01-17 22:40:46.80	34.80	13.08	-41.3	-43.9	18.1	0.00e+00	0	39	0	106954752	54	4782
2026-01-17 22:40:47.94	34.93	13.18	-41.4	-44.0	18.0	0.00e+00	0	39	0	109051904	54	4849
2026-01-17 22:40:48.79	35.02	13.25	-41.5	-44.2	17.8	0.00e+00	0	39	0	110100480	54	4953
2026-01-17 22:40:50.00	35.16	13.35	-41.4	-44.0	18.0	0.00e+00	0	39	0	113246208	54	4855
2026-01-17 22:40:50.86	35.26	13.42	-41.6	-44.2	17.8	0.00e+00	0	39	0	114294784	54	4980
2026-01-17 22:40:52.07	35.39	13.52	-41.5	-44.2	17.8	0.00e+00	0	39	0	116391936	54	4954
2026-01-17 22:40:52.92	35.49	13.59	-41.5	-44.1	17.8	0.00e+00	0	39	0	118489088	54	4895
2026-01-17 22:40:54.09	35.62	13.68	-41.6	-44.3	17.7	0.00e+00	0	39	0	120586240	54	5007
2026-01-17 22:40:54.94	35.72	13.76	-41.5	-44.2	17.9	0.00e+00	0	39	0	122683392	54	4934
2026-01-17 22:40:56.08	35.85	13.85	-41.6	-44.2	17.8	0.00e+00	0	39	0	123731968	54	4941
2026-01-17 22:40:56.93	35.95	13.92	-41.5	-44.2	17.9	0.00e+00	0	39	0	125829120	54	4930
2026-01-17 22:40:58.07	36.09	14.02	-41.6	-44.3	17.7	0.00e+00	0	39	0	127926272	54	4998
2026-01-17 22:40:59.00	36.19	14.09	-41.4	-44.0	18.0	0.00e+00	0	39	0	130023424	54	4839
2026-01-17 22:40:59.99	36.31	14.18	-41.5	-44.1	17.9	0.00e+00	0	39	0	132120576	54	4897
2026-01-17 22:41:00.99	36.43	14.26	-41.7	-44.3	17.7	0.00e+00	0	39	0	133169152	54	5010
2026-01-17 22:41:01.99	36.55	14.35	-41.4	-43.9	18.1	0.00e+00	0	39	0	135266304	54	4788
2026-01-17 22:41:02.98	36.67	14.43	-41.6	-44.2	17.8	0.00e+00	0	39	0	137363456	54	4951
2026-01-17 22:41:03.98	36.79	14.51	-41.6	-44.2	17.8	0.00e+00	0	39	0	139460608	54	4969
2026-01-17 22:41:04.97	36.91	14.60	-41.8	-44.3	17.7	0.00e+00	0	39	0	140509184	54	5029
2026-01-17 22:41:05.97	37.03	14.68	-41.7	-44.3	17.8	0.00e+00	0	39	0	142606336	54	4985
2026-01-17 22:41:06.96	37.15	14.77	-41.8	-44.4	17.7	0.00e+00	0	39	0	144703488	54	5070
2026-01-17 22:41:07.96	37.28	14.85	-41.7	-44.3	17.8	0.00e+00	0	39	0	146800640	54	5005
2026-01-17 22:41:08.95	37.40	14.94	-42.0	-44.7	17.4	0.00e+00	0	39	0	148897792	54	5223
2026-01-17 22:41:09.95	37.52	15.02	-41.8	-44.5	17.6	0.00e+00	0	39	0	149946368	54	5110
2026-01-17 22:41:10.94	37.65	15.11	-41.9	-44.5	17.5	0.00e+00	0	39	0	152043520	54	5140
2026-01-17 22:41:11.94	37.77	15.20	-41.9	-44.6	17.5	0.00e+00	0	39	0	154140672	54	5182
2026-01-17 22:41:12.94	37.90	15.28	-41.8	-44.4	17.6	0.00e+00	0	39	0	156237824	54	5075
2026-01-17 22:41:13.93	38.03	15.37	-41.9	-44.6	17.5	0.00e+00	0	39	0	157286400	54	5172
2026-01-17 22:41:14.93	38.15	15.45	-41.7	-44.3	17.7	0.00e+00	0	39	0	159383552	54	5017
2026-01-17 22:41:15.92	38.28	15.54	-41.8	-44.4	17.7	0.00e+00	0	39	0	161480704	54	5078
2026-01-17 22:41:16.92	38.41	15.63	-41.7	-44.3	17.7	0.00e+00	0	39	0	163577856	54	5025
2026-01-17 22:41:17.91	38.54	15.71	-41.6	-44.1	18.0	0.00e+00	0	39	0	165675008	54	4902
2026-01-17 22:41:18.90	38.67	15.80	-41.6	-44.1	18.0	0.00e+00	0	39	0	166723584	54	4890
2026-01-17 22:41:19.90	38.80	15.89	-41.6	-44.1	18.0	0.00e+00	0	39	0	168820736	54	4886
2026-01-17 22:41:20.89	38.93	15.97	-41.4	-43.9	18.1	0.00e+00	0	39	0	170917888	54	4811
2026-01-17 22:41:21.89	39.07	16.06	-41.3	-43.8	18.2	0.00e+00	0	39	0	173015040	54	4725
2026-01-17 22:41:22.88	39.20	16.15	-41.2	-43.7	18.4	0.00e+00	0	39	0	174063616	54	4652
2026-01-17 22:41:23.88	39.34	16.24	-41.2	-43.7	18.4	0.00e+00	0	39	0	176160768	54	4652
2026-01-17 22:41:24.95	39.48	16.33	-41.1	-43.6	18.5	0.00e+00	0	39	0	178257920	54	4601
2026-01-17 22:41:25.84	39.60	16.41	-41.1	-43.5	18.5	0.00e+00	0	39	0	180355072	53	4853
2026-01-17 22:41:26.98	39.76	16.51	-41.0	-43.4	18.6	0.00e+00	0	39	0	182452224	53	4772
2026-01-17 22:41:27.83	39.88	16.59	-41.0	-43.4	18.6	0.00e+00	0	39	0	183500800	53	4789
2026-01-17 22:41:28.97	40.03	16.69	-41.1	-43.5	18.6	0.00e+00	0	39	0	185597952	53	4817
2026-01-17 22:41:29.82	40.15	16.77	-41.1	-43.5	18.5	0.00e+00	0	39	0	187695104	53	4852
2026-01-17 22:41:30.96	40.31	16.87	-41.2	-43.6	18.4	0.00e+00	0	39	0	189792256	53	4888
2026-01-17 22:41:31.81	40.43	16.94	-41.0	-43.4	18.5	0.00e+00	0	39	0	190840832	53	4787
2026-01-17 22:41:32.95	40.59	17.05	-40.9	-43.3	18.7	0.00e+00	0	39	0	192937984	53	4706
2026-01-17 22:41:33.80	40.72	17.12	-41.0	-43.4	18.6	0.00e+00	0	39	0	195035136	53	4793
2026-01-17 22:41:34.94	40.88	17.23	-41.0	-43.3	18.7	0.00e+00	0	39	0	197132288	53	4753
2026-01-17 22:41:35.79	41.00	17.30	-41.1	-43.5	18.6	0.00e+00	0	39	0	198180864	53	4850
2026-01-17 22:41:36.99	41.18	17.41	-40.9	-43.3	18.7	0.00e+00	0	39	0	201326592	53	4737
2026-01-17 22:41:37.84	41.30	17.49	-41.0	-43.4	18.7	0.00e+00	0	39	0	202375168	53	4780
2026-01-17 22:41:38.98	41.47	17.59	-41.0	-43.4	18.6	0.00e+00	0	39	0	204472320	53	4791
2026-01-17 22:41:39.83	41.60	17.67	-41.0	-43.3	18.7	0.00e+00	0	39	0	206569472	53	4757
2026-01-17 22:41:40.97	41.76	17.77	-41.1	-43.5	18.5	0.00e+00	0	39	0	208666624	53	4841
2026-01-17 22:41:41.82	41.89	17.85	-41.1	-43.5	18.6	0.00e+00	0	39	0	209715200	53	4824
2026-01-17 22:41:42.96	42.06	17.96	-41.0	-43.3	18.7	0.00e+00	0	39	0	211812352	53	4747
2026-01-17 22:41:43.81	42.19	18.03	-41.1	-43.4	18.6	0.00e+00	0	39	0	213909504	53	4809
2026-01-17 22:41:44.95	42.37	18.14	-41.0	-43.3	18.7	0.00e+00	0	39	0	216006656	53	4740
2026-01-17 22:41:45.80	42.50	18.22	-41.0	-43.3	18.7	0.00e+00	0	39	0	217055232	53	4730
2026-01-17 22:41:46.94	42.67	18.32	-41.0	-43.3	18.7	0.00e+00	0	39	0	219152384	53	4758
2026-01-17 22:41:47.79	42.80	18.40	-40.9	-43.3	18.7	0.00e+00	0	39	0	221249536	53	4721
2026-01-17 22:41:48.93	42.98	18.50	-40.8	-43.1	18.8	0.00e+00	0	39	0	223346688	53	4633
2026-01-17 22:41:49.79	43.12	18.58	-41.1	-43.4	18.5	0.00e+00	0	39	0	224395264	53	4796
2026-01-17 22:41:50.93	43.30	18.69	-41.0	-43.4	18.7	0.00e+00	0	39	0	227540992	53	4788
2026-01-17 22:41:51.78	43.43	18.77	-41.1	-43.5	18.6	0.00e+00	0	40	0	228589568	53	4831
2026-01-17 22:41:52.92	43.61	18.87	-40.9	-43.3	18.8	0.00e+00	0	39	0	230686720	53	4720
2026-01-17 22:41:53.77	43.75	18.95	-40.8	-43.1	19.0	0.00e+00	0	39	0	232783872	53	4630
2026-01-17 22:41:55.11	43.97	19.08	-40.5	-42.8	19.3	0.00e+00	0	39	0	234881024	53	4450
2026-01-17 22:41:55.82	44.08	19.14	-40.5	-42.8	19.3	0.00e+00	0	39	0	235929600	52	4738
2026-01-17 22:41:57.10	44.29	19.26	-40.5	-42.8	19.2	0.00e+00	0	39	0	239075328	52	4737
2026-01-17 22:41:57.81	44.41	19.33	-40.3	-42.6	19.4	0.00e+00	0	39	0	240123904	52	4610
2026-01-17 22:41:59.09	44.62	19.45	-40.5	-42.8	19.2	0.00e+00	0	39	0	242221056	52	4739
2026-01-17 22:41:59.87	44.75	19.52	-40.4	-42.6	19.4	0.00e+00	0	39	0	244318208	52	4622
2026-01-17 22:42:01.15	44.96	19.64	-40.5	-42.7	19.3	0.00e+00	0	39	0	246415360	52	4691
2026-01-17 22:42:01.87	45.09	19.71	-40.2	-42.4	19.6	0.00e+00	0	39	0	247463936	52	4538
2026-01-17 22:42:03.15	45.30	19.83	-40.3	-42.5	19.6	0.00e+00	0	39	0	249561088	51	4828
2026-01-17 22:42:03.86	45.42	19.90	-40.1	-42.3	19.8	0.00e+00	0	39	0	251658240	51	4708
2026-01-17 22:42:05.14	45.64	20.02	-40.2	-42.4	19.7	0.00e+00	0	39	0	253755392	51	4786
2026-01-17 22:42:05.85	45.77	20.09	-40.3	-42.6	19.5	0.00e+00	0	39	0	254803968	51	4875
2026-01-17 22:42:07.13	45.99	20.21	-40.3	-42.5	19.6	0.00e+00	0	39	0	257949696	51	4828
2026-01-17 22:42:07.84	46.11	20.28	-40.3	-42.5	19.6	0.00e+00	0	39	0	258998272	51	4852
2026-01-17 22:42:09.17	46.35	20.40	-40.3	-42.5	19.6	0.00e+00	0	39	0	261095424	51	4844
2026-01-17 22:42:09.88	46.47	20.47	-40.3	-42.6	19.5	0.00e+00	0	39	0	262144000	51	4877
2026-01-17 22:42:11.15	46.70	20.59	-40.2	-42.4	19.7	0.00e+00	0	39	0	265289728	51	4779
2026-01-17 22:42:12.19	46.89	20.69	-40.2	-42.4	19.7	0.00e+00	0	39	0	267386880	51	4765
2026-01-17 22:42:13.47	47.12	20.81	-40.1	-42.2	19.8	0.00e+00	0	39	0	269484032	51	4705
2026-01-17 22:42:14.19	47.25	20.88	-40.1	-42.3	19.8	0.00e+00	0	39	0	270532608	51	4720
2026-01-17 22:42:15.47	47.48	21.00	-40.3	-42.4	19.7	0.00e+00	0	39	0	272629760	51	4807
2026-01-17 22:42:16.19	47.61	21.07	-40.2	-42.4	19.7	0.00e+00	0	39	0	274726912	51	4780
2026-01-17 22:42:17.47	47.85	21.19	-40.3	-42.5	19.6	0.00e+00	0	39	0	276824064	51	4855
2026-01-17 22:42:18.20	47.99	21.26	-40.2	-42.4	19.7	0.00e+00	0	39	0	277872640	51	4795
2026-01-17 22:42:19.48	48.23	21.39	-40.4	-42.6	19.5	0.00e+00	0	39	0	281018368	51	4892
2026-01-17 22:42:20.19	48.36	21.45	-40.3	-42.5	19.5	0.00e+00	0	39	0	282066944	51	4855
2026-01-17 22:42:21.51	48.61	21.58	-40.5	-42.7	19.4	0.00e+00	0	39	0	284164096	51	4983
2026-01-17 22:42:22.23	48.75	21.65	-40.4	-42.6	19.5	0.00e+00	0	39	0	286261248	51	4897
2026-01-17 22:42:23.51	48.99	21.77	-40.7	-43.1	19.0	0.00e+00	0	39	0	288358400	52	4871
2026-01-17 22:42:24.22	49.13	21.84	-40.6	-42.9	19.1	0.00e+00	0	39	0	289406976	52	4762
2026-01-17 22:42:25.50	49.38	21.96	-41.2	-43.6	18.6	0.00e+00	0	39	0	291504128	52	5162
2026-01-17 22:42:26.21	49.52	22.03	-41.1	-43.5	18.6	0.00e+00	0	39	0	293601280	52	5115
2026-01-17 22:42:27.49	49.77	22.15	-41.3	-43.7	18.5	0.00e+00	0	39	0	295698432	53	4947
2026-01-17 22:42:28.22	49.91	22.22	-41.2	-43.5	18.6	0.00e+00	0	39	0	296747008	53	4870
2026-01-17 22:42:29.50	50.17	22.35	-41.0	-43.4	18.8	0.00e+00	0	39	0	299892736	53	4769
2026-01-17 22:42:30.22	50.31	22.42	-41.0	-43.3	18.8	0.00e+00	0	39	0	300941312	53	4730
2026-01-17 22:42:31.50	50.57	22.54	-40.8	-43.1	19.0	0.00e+00	0	39	0	303038464	53	4602
2026-01-17 22:42:32.21	50.71	22.61	-40.7	-42.9	19.2	0.00e+00	0	39	0	304087040	53	4541
2026-01-17 22:42:33.49	50.97	22.73	-40.5	-42.8	19.3	0.00e+00	0	39	0	307232768	52	4709
2026-01-17 22:42:34.21	51.12	22.80	-40.5	-42.7	19.4	0.00e+00	0	39	0	308281344	52	4677
2026-01-17 22:42:35.49	51.38	22.92	-40.6	-42.8	19.2	0.00e+00	0	39	0	310378496	52	4752
2026-01-17 22:42:36.22	51.54	22.99	-40.4	-42.6	19.5	0.00e+00	0	39	0	312475648	52	4625
2026-01-17 22:42:37.50	51.80	23.12	-40.6	-42.9	19.3	0.00e+00	0	39	0	314572800	52	4768
2026-01-17 22:42:38.21	51.95	23.18	-40.5	-42.7	19.4	0.00e+00	0	39	0	315621376	52	4696
2026-01-17 22:42:39.55	52.24	23.31	-40.4	-42.7	19.4	0.00e+00	0	39	0	318767104	52	4671
2026-01-17 22:42:40.26	52.39	23.38	-40.4	-42.6	19.5	0.00e+00	0	39	0	319815680	52	4637
2026-01-17 22:42:41.54	52.66	23.50	-40.5	-42.7	19.4	0.00e+00	0	39	0	321912832	52	4699
2026-01-17 22:42:42.25	52.81	23.57	-40.6	-42.8	19.3	0.00e+00	0	39	0	322961408	52	4748
2026-01-17 22:42:43.53	53.09	23.70	-40.5	-42.7	19.3	0.00e+00	0	39	0	326107136	52	4696
2026-01-17 22:42:44.24	53.24	23.76	-40.3	-42.5	19.5	0.00e+00	0	39	0	327155712	52	4597
2026-01-17 22:42:45.52	53.53	23.89	-40.3	-42.5	19.6	0.00e+00	0	39	0	329252864	52	4565
2026-01-17 22:42:46.24	53.68	23.95	-40.3	-42.6	19.5	0.00e+00	0	39	0	330301440	52	4602
2026-01-17 22:42:47.52	53.97	24.08	-40.1	-42.3	19.7	0.00e+00	0	39	0	333447168	52	4478
2026-01-17 22:42:48.23	54.13	24.14	-40.1	-42.3	19.8	0.00e+00	0	39	0	334495744	52	4467
2026-01-17 22:42:49.51	54.41	24.27	-40.0	-42.2	19.9	0.00e+00	0	39	0	336592896	51	4662
2026-01-17 22:42:50.23	54.58	24.34	-40.0	-42.1	20.0	0.00e+00	0	39	0	338690048	51	4636
2026-01-17 22:42:51.51	54.87	24.46	-40.2	-42.4	19.8	0.00e+00	0	39	0	340787200	51	4776
2026-01-17 22:42:52.23	55.03	24.53	-40.2	-42.3	19.8	0.00e+00	0	39	0	341835776	51	4748
2026-01-17 22:42:53.51	55.32	24.65	-40.0	-42.1	20.0	0.00e+00	0	40	0	343932928	51	4609
2026-01-17 22:42:54.23	55.49	24.72	-40.1	-42.3	19.9	0.00e+00	0	39	0	346030080	51	4714
2026-01-17 22:42:55.50	55.79	24.84	-40.4	-42.5	19.6	0.00e+00	0	39	0	348127232	51	4869
2026-01-17 22:42:56.21	55.95	24.90	-40.6	-42.8	19.4	0.00e+00	0	39	0	349175808	51	5030
2026-01-17 22:42:57.50	56.26	25.03	-40.7	-43.0	19.1	0.00e+00	0	39	0	352321536	52	4851
2026-01-17 22:42:58.21	56.42	25.09	-40.9	-43.2	19.0	0.00e+00	0	39	0	353370112	52	4942
2026-01-17 22:42:59.49	56.73	25.21	-41.2	-43.5	18.6	0.00e+00	0	39	0	355467264	52	5156
2026-01-17 22:43:00.20	56.90	25.28	-40.9	-43.2	18.9	0.00e+00	0	39	0	356515840	52	4980
2026-01-17 22:43:01.47	57.20	25.40	-40.8	-43.0	19.1	0.00e+00	0	39	0	359661568	52	4866
2026-01-17 22:43:02.19	57.38	25.47	-40.7	-43.0	19.1	0.00e+00	0	39	0	360710144	52	4858
2026-01-17 22:43:03.47	57.69	25.59	-40.8	-43.1	19.1	0.00e+00	0	39	0	362807296	52	4890
2026-01-17 22:43:04.19	57.87	25.65	-40.5	-42.8	19.3	0.00e+00	0	39	0	364904448	52	4711
2026-01-17 22:43:05.47	58.18	25.77	-40.8	-43.1	19.1	0.00e+00	0	39	0	367001600	52	4902
2026-01-17 22:43:06.18	58.36	25.84	-40.7	-42.9	19.2	0.00e+00	0	39	0	368050176	52	4808
2026-01-17 22:43:07.46	58.68	25.96	-40.7	-43.0	19.2	0.00e+00	0	39	0	370147328	52	4820
2026-01-17 22:43:08.19	58.86	26.02	-40.7	-43.0	19.2	0.00e+00	0	39	0	372244480	52	4835
2026-01-17 22:43:09.46	59.18	26.14	-40.6	-42.9	19.2	0.00e+00	0	39	0	374341632	52	4799
2026-01-17 22:43:10.19	59.37	26.21	-40.7	-43.0	19.2	0.00e+00	0	39	0	375390208	52	4839
2026-01-17 22:43:11.47	59.69	26.32	-40.7	-43.1	19.1	0.00e+00	0	39	0	378535936	52	4874
2026-01-17 22:43:12.18	59.87	26.39	-40.6	-42.9	19.2	0.00e+00	0	40	0	379584512	52	4791
2026-01-17 22:43:13.47	60.21	26.51	-40.7	-42.9	19.2	0.00e+00	0	39	0	381681664	52	4803
2026-01-17 22:43:14.18	60.39	26.57	-40.5	-42.7	19.3	0.00e+00	0	39	0	382730240	52	4699
2026-01-17 22:43:15.46	60.72	26.68	-40.3	-42.5	19.6	0.00e+00	0	39	0	385875968	52	4570
2026-01-17 22:43:16.19	60.92	26.75	-40.3	-42.5	19.6	0.00e+00	0	39	0	386924544	52	4576
2026-01-17 22:43:17.56	61.28	26.87	-40.2	-42.4	19.7	0.00e+00	0	39	0	389021696	52	4537
2026-01-17 22:43:18.27	61.47	26.94	-40.4	-42.6	19.5	0.00e+00	0	39	0	391118848	52	4649
2026-01-17 22:43:19.63	61.83	27.06	-40.7	-42.9	19.2	0.00e+00	0	39	0	393216000	52	4808
2026-01-17 22:43:20.34	62.02	27.12	-40.9	-43.2	19.0	0.00e+00	0	39	0	394264576	52	4961
2026-01-17 22:43:21.62	62.36	27.23	-40.9	-43.2	18.9	0.00e+00	0	39	0	397410304	52	4972
2026-01-17 22:43:22.34	62.56	27.30	-40.9	-43.2	18.9	0.00e+00	0	39	0	398458880	52	4975
2026-01-17 22:43:23.72	62.94	27.42	-41.1	-43.5	18.7	0.00e+00	0	39	0	400556032	53	4822
2026-01-17 22:43:24.43	63.13	27.48	-41.1	-43.4	18.8	0.00e+00	0	39	0	402653184	53	4787
2026-01-17 22:43:25.71	63.48	27.59	-40.9	-43.2	18.9	0.00e+00	0	39	0	404750336	53	4701
2026-01-17 22:43:26.42	63.68	27.65	-40.9	-43.2	19.0	0.00e+00	0	39	0	405798912	53	4657
2026-01-17 22:43:27.70	64.04	27.76	-40.9	-43.1	19.0	0.00e+00	0	39	0	408944640	53	4645
2026-01-17 22:43:28.43	64.24	27.82	-40.7	-42.9	19.2	0.00e+00	0	39	0	409993216	53	4529
2026-01-17 22:43:29.71	64.60	27.93	-40.5	-42.7	19.4	0.00e+00	0	39	0	412090368	52	4657
2026-01-17 22:43:30.44	64.81	27.99	-40.5	-42.7	19.4	0.00e+00	0	39	0	413138944	52	4690
2026-01-17 22:43:31.72	65.17	28.10	-40.7	-42.9	19.3	0.00e+00	0	39	0	416284672	52	4778
2026-01-17 22:43:32.44	65.38	28.16	-40.6	-42.8	19.3	0.00e+00	0	39	0	417333248	52	4759
2026-01-17 22:43:33.72	65.75	28.26	-40.6	-42.8	19.3	0.00e+00	0	39	0	419430400	52	4745
2026-01-17 22:43:34.54	65.99	28.33	-40.6	-42.8	19.4	0.00e+00	0	39	0	421527552	52	4725
2026-01-17 22:43:35.68	66.32	28.42	-41.1	-43.4	18.8	0.00e+00	0	39	0	423624704	53	4771
2026-01-17 22:43:36.72	66.62	28.51	-41.2	-43.5	18.7	0.00e+00	0	39	0	425721856	53	4852
2026-01-17 22:43:37.66	66.90	28.58	-41.6	-44.1	18.2	0.00e+00	0	39	0	426770432	53	5177
2026-01-17 22:43:38.66	67.19	28.66	-41.8	-44.3	17.9	0.00e+00	0	39	0	428867584	54	5037
2026-01-17 22:43:39.65	67.48	28.74	-41.6	-44.0	18.2	0.00e+00	0	39	0	430964736	54	4858
2026-01-17 22:43:40.65	67.78	28.82	-41.3	-43.6	18.6	0.00e+00	0	39	0	433061888	54	4646
2026-01-17 22:43:41.64	68.08	28.90	-41.4	-43.7	18.5	0.00e+00	0	39	0	435159040	54	4701
2026-01-17 22:43:42.64	68.38	28.98	-41.1	-43.4	18.8	0.00e+00	0	39	0	436207616	54	4508
2026-01-17 22:43:43.63	68.68	29.05	-41.4	-43.8	18.5	0.00e+00	0	39	0	438304768	54	4726
2026-01-17 22:43:44.63	68.98	29.13	-41.7	-44.2	18.1	0.00e+00	0	39	0	440401920	54	4927
2026-01-17 22:43:45.62	69.28	29.20	-42.1	-44.7	17.6	0.00e+00	0	39	0	442499072	54	5253
2026-01-17 22:43:46.62	69.59	29.28	-42.1	-44.6	17.7	0.00e+00	0	39	0	443547648	55	4904
2026-01-17 22:43:47.66	69.91	29.36	-41.8	-44.2	18.0	0.00e+00	0	40	0	445644800	55	4681
2026-01-17 22:43:48.67	70.22	29.43	-41.8	-44.2	18.0	0.00e+00	0	39	0	447741952	55	4688
2026-01-17 22:43:49.68	70.54	29.50	-41.9	-44.4	17.9	0.00e+00	0	40	0	449839104	55	4782
2026-01-17 22:43:50.69	70.85	29.58	-41.8	-44.3	18.0	0.00e+00	0	39	0	451936256	55	4706
2026-01-17 22:43:51.69	71.17	29.65	-42.2	-44.7	17.5	0.00e+00	0	39	0	452984832	55	4983
2026-01-17 22:43:52.75	71.50	29.72	-42.3	-44.9	17.4	0.00e+00	0	39	0	455081984	55	5094
2026-01-17 22:43:53.65	71.78	29.79	-42.6	-45.3	17.0	0.00e+00	0	39	0	457179136	55	5318
2026-01-17 22:43:54.88	72.17	29.87	-43.1	-45.9	16.6	0.00e+00	0	39	0	459276288	56	5372
2026-01-17 22:43:55.73	72.45	29.93	-43.4	-46.3	16.3	0.00e+00	0	39	0	461373440	57	5302
2026-01-17 22:43:56.99	72.85	30.01	-43.8	-46.9	15.6	7.00e-07	0	39	0	463470592	58	5363
2026-01-17 22:43:57.78	73.10	30.07	-44.1	-47.3	15.2	0.00e+00	0	39	0	464519168	58	5616
2026-01-17 22:43:59.08	73.52	30.15	-43.8	-47.0	15.6	7.00e-07	0	39	0	467664896	58	5407
2026-01-17 22:44:00.16	73.87	30.22	-43.3	-46.2	16.3	0.00e+00	0	39	0	469762048	58	4964
2026-01-17 22:44:01.34	74.26	30.30	-42.9	-45.7	16.8	0.00e+00	0	39	0	471859200	57	4958
2026-01-17 22:44:02.20	74.54	30.35	-43.2	-46.1	16.5	0.00e+00	0	39	0	472907776	57	5172
2026-01-17 22:44:03.33	74.91	30.42	-43.7	-46.8	15.8	0.00e+00	0	39	0	475004928	57	5598
2026-01-17 22:44:04.19	75.20	30.47	-43.9	-47.0	15.6	0.00e+00	0	39	0	477102080	58	5449
2026-01-17 22:44:05.33	75.57	30.54	-43.8	-46.9	15.6	0.00e+00	0	39	0	479199232	58	5345
2026-01-17 22:44:06.18	75.86	30.59	-43.6	-46.6	16.0	0.00e+00	0	40	0	480247808	58	5180
2026-01-17 22:44:07.31	76.23	30.66	-43.8	-47.0	15.6	0.00e+00	0	40	0	482344960	58	5417
2026-01-17 22:44:08.17	76.52	30.71	-43.5	-46.5	16.0	0.00e+00	0	39	0	484442112	58	5116
2026-01-17 22:44:09.30	76.90	30.77	-43.3	-46.3	16.3	0.00e+00	0	39	0	486539264	58	4989
2026-01-17 22:44:10.16	77.19	30.82	-42.8	-45.5	17.0	0.00e+00	0	39	0	488636416	57	4827
2026-01-17 22:44:11.42	77.62	30.89	-42.6	-45.2	17.2	0.00e+00	0	39	0	490733568	57	4692
2026-01-17 22:44:12.22	77.89	30.93	-42.8	-45.5	17.0	0.00e+00	0	39	0	491782144	57	4816
2026-01-17 22:44:13.36	78.28	30.99	-43.4	-46.3	16.2	0.00e+00	0	39	0	493879296	57	5325
2026-01-17 22:44:14.21	78.57	31.03	-43.6	-46.8	15.7	0.00e+00	0	39	0	495976448	57	5603
2026-01-17 22:44:15.35	78.96	31.09	-43.8	-47.0	15.6	0.00e+00	0	39	0	498073600	58	5408
2026-01-17 22:44:16.20	79.25	31.13	-43.2	-46.1	16.4	0.00e+00	0	39	0	499122176	58	4887
2026-01-17 22:44:17.34	79.64	31.19	-42.8	-45.5	16.9	0.00e+00	0	39	0	501219328	57	4866
2026-01-17 22:44:18.19	79.94	31.23	-42.5	-45.2	17.2	0.00e+00	0	39	0	503316480	57	4694
2026-01-17 22:44:19.33	80.33	31.28	-42.6	-45.4	17.1	0.00e+00	0	39	0	505413632	56	5055
2026-01-17 22:44:20.18	80.63	31.32	-42.4	-45.1	17.4	0.00e+00	0	39	0	506462208	56	4876
2026-01-17 22:44:21.32	81.03	31.37	-41.9	-44.5	17.8	0.00e+00	0	39	0	508559360	55	4829
2026-01-17 22:44:22.17	81.32	31.41	-41.4	-43.9	18.4	0.00e+00	0	39	0	510656512	54	4772
2026-01-17 22:44:23.31	81.72	31.46	-41.1	-43.5	18.7	0.00e+00	0	39	0	512753664	54	4574
2026-01-17 22:44:24.16	82.02	31.49	-41.4	-43.9	18.3	0.00e+00	0	39	0	514850816	54	4784
2026-01-17 22:44:25.30	82.42	31.54	-41.8	-44.4	17.9	0.00e+00	0	39	0	516947968	54	5072
2026-01-17 22:44:26.15	82.72	31.57	-42.2	-44.9	17.4	0.00e+00	0	39	0	517996544	55	5068
2026-01-17 22:44:27.29	83.13	31.61	-42.5	-45.3	17.0	0.00e+00	0	39	0	520093696	55	5293
2026-01-17 22:44:28.14	83.43	31.64	-42.5	-45.4	16.9	0.00e+00	0	39	0	522190848	55	5364
2026-01-17 22:44:29.34	83.85	31.69	-42.2	-44.9	17.4	0.00e+00	0	39	0	524288000	55	5077
2026-01-17 22:44:30.19	84.16	31.72	-42.1	-44.9	17.4	0.00e+00	0	40	0	525336576	55	5046
2026-01-17 22:44:31.33	84.56	31.75	-41.8	-44.4	17.9	0.00e+00	0	39	0	527433728	55	4788
2026-01-17 22:44:32.18	84.87	31.78	-41.6	-44.2	18.2	0.00e+00	0	39	0	529530880	55	4666
2026-01-17 22:44:33.32	85.28	31.82	-41.3	-43.7	18.5	0.00e+00	0	39	0	531628032	54	4694
2026-01-17 22:44:34.17	85.58	31.84	-41.2	-43.6	18.6	0.00e+00	0	39	0	532676608	54	4631
2026-01-17 22:44:35.31	85.99	31.87	-41.3	-43.8	18.4	0.00e+00	0	39	0	535822336	54	4734
2026-01-17 22:44:36.16	86.30	31.90	-41.6	-44.1	18.2	0.00e+00	0	39	0	536870912	54	4899
2026-01-17 22:44:37.55	86.80	31.93	-41.9	-44.5	17.7	0.00e+00	0	39	0	540016640	54	5154
2026-01-17 22:44:38.26	87.06	31.95	-42.1	-44.8	17.5	0.00e+00	0	39	0	541065216	54	5306
2026-01-17 22:44:39.75	87.60	31.98	-42.1	-44.9	17.4	0.00e+00	0	39	0	543162368	55	5049
2026-01-17 22:44:40.46	87.86	32.00	-42.2	-44.9	17.4	0.00e+00	0	39	0	545259520	55	5076
2026-01-17 22:44:41.74	88.32	32.03	-41.8	-44.4	17.9	0.00e+00	0	39	0	547356672	55	4775
2026-01-17 22:44:42.46	88.58	32.04	-41.7	-44.2	18.1	0.00e+00	0	39	0	548405248	55	4672
2026-01-17 22:44:43.74	89.05	32.06	-41.6	-44.1	18.1	0.00e+00	0	39	0	551550976	55	4615
2026-01-17 22:44:44.46	89.31	32.08	-41.7	-44.1	18.2	0.00e+00	0	40	0	552599552	55	4651
2026-01-17 22:44:45.75	89.78	32.10	-41.8	-44.3	18.0	0.00e+00	0	39	0	554696704	55	4735
2026-01-17 22:44:46.46	90.04	32.11	-41.8	-44.3	17.9	0.00e+00	0	40	0	555745280	55	4747
2026-01-17 22:44:47.74	90.51	32.12	-41.8	-44.3	18.0	0.00e+00	0	39	0	558891008	55	4716
2026-01-17 22:44:48.51	90.79	32.13	-41.5	-44.0	18.3	0.00e+00	0	40	0	559939584	55	4557
2026-01-17 22:44:49.79	91.26	32.14	-41.5	-43.9	18.4	0.00e+00	0	39	0	562036736	54	4792
2026-01-17 22:44:50.50	91.52	32.15	-41.4	-43.9	18.3	0.00e+00	0	39	0	564133888	54	4780
2026-01-17 22:44:51.78	91.99	32.16	-41.7	-44.2	18.0	0.00e+00	0	39	0	566231040	54	4983
2026-01-17 22:44:52.61	92.29	32.17	-41.8	-44.4	17.9	0.00e+00	0	39	0	567279616	54	5055
2026-01-17 22:44:53.75	92.71	32.17	-41.8	-44.3	18.0	0.00e+00	0	39	0	570425344	54	5016
2026-01-17 22:44:54.60	93.02	32.18	-41.6	-44.1	18.2	0.00e+00	0	39	0	571473920	54	4872
2026-01-17 22:44:55.74	93.44	32.18	-41.5	-43.9	18.4	0.00e+00	0	39	0	573571072	54	4778
2026-01-17 22:44:56.59	93.75	32.18	-41.8	-44.4	17.9	0.00e+00	0	39	0	575668224	54	5058
2026-01-17 22:44:57.73	94.17	32.18	-42.1	-44.7	17.6	0.00e+00	0	39	0	577765376	54	5267
2026-01-17 22:44:58.58	94.48	32.18	-42.4	-45.1	17.2	0.00e+00	0	39	0	578813952	55	5211
2026-01-17 22:44:59.72	94.90	32.18	-42.3	-45.0	17.3	0.00e+00	0	39	0	580911104	55	5126
2026-01-17 22:45:00.57	95.22	32.17	-41.9	-44.4	17.9	0.00e+00	0	39	0	583008256	55	4809
2026-01-17 22:45:01.71	95.63	32.17	-41.2	-43.5	18.7	0.00e+00	0	39	0	585105408	54	4567
2026-01-17 22:45:02.56	95.95	32.16	-40.8	-43.1	19.1	0.00e+00	0	39	0	586153984	53	4608
2026-01-17 22:45:03.70	96.36	32.16	-40.7	-43.0	19.2	0.00e+00	0	39	0	588251136	53	4551
2026-01-17 22:45:04.55	96.68	32.15	-41.1	-43.4	18.7	0.00e+00	0	39	0	590348288	53	4813
2026-01-17 22:45:05.69	97.09	32.14	-41.6	-44.0	18.2	0.00e+00	0	39	0	592445440	54	4863
2026-01-17 22:45:06.54	97.40	32.13	-41.7	-44.1	18.1	0.00e+00	0	39	0	593494016	54	4919
2026-01-17 22:45:07.68	97.82	32.11	-41.9	-44.5	17.8	0.00e+00	0	39	0	595591168	54	5115
2026-01-17 22:45:08.74	98.21	32.10	-41.7	-44.2	18.1	0.00e+00	0	39	0	597688320	54	4942
2026-01-17 22:45:09.77	98.59	32.08	-41.8	-44.3	18.0	0.00e+00	0	39	0	599785472	54	4986
2026-01-17 22:45:10.92	99.01	32.06	-41.5	-43.9	18.3	0.00e+00	0	39	0	601882624	54	4805
2026-01-17 22:45:11.83	99.34	32.05	-41.6	-44.0	18.2	0.00e+00	0	39	0	603979776	54	4852
2026-01-17 22:45:12.83	99.70	32.03	-41.2	-43.5	18.7	0.00e+00	0	39	0	606076928	54	4566
2026-01-17 22:45:14.01	100.13	32.01	-41.0	-43.3	18.8	0.00e+00	0	39	0	608174080	53	4756
2026-01-17 22:45:14.86	100.44	31.99	-41.2	-43.5	18.7	0.00e+00	0	39	0	609222656	53	4857
2026-01-17 22:45:16.00	100.85	31.96	-41.8	-44.2	18.0	0.00e+00	0	39	0	611319808	54	4983
2026-01-17 22:45:16.85	101.16	31.94	-42.2	-44.8	17.5	0.00e+00	0	40	0	613416960	55	4994
2026-01-17 22:45:17.99	101.57	31.91	-42.7	-45.4	16.8	0.00e+00	0	39	0	615514112	56	5094
2026-01-17 22:45:18.84	101.88	31.89	-42.9	-45.7	16.8	0.00e+00	0	39	0	616562688	56	5238
2026-01-17 22:45:19.98	102.29	31.86	-42.8	-45.6	16.9	0.00e+00	0	39	0	618659840	56	5179
2026-01-17 22:45:20.83	102.60	31.83	-42.9	-45.7	16.8	0.00e+00	0	39	0	620756992	56	5233
2026-01-17 22:45:21.97	103.01	31.80	-42.9	-45.6	16.8	0.00e+00	0	39	0	622854144	56	5214
2026-01-17 22:45:22.82	103.31	31.77	-43.0	-45.8	16.6	0.00e+00	0	39	0	623902720	57	5011
2026-01-17 22:45:23.96	103.72	31.74	-42.7	-45.4	17.1	0.00e+00	0	39	0	627048448	57	4769
2026-01-17 22:45:24.81	104.02	31.71	-42.3	-44.9	17.6	0.00e+00	0	39	0	628097024	56	4803
2026-01-17 22:45:26.01	104.45	31.67	-42.0	-44.5	17.9	0.00e+00	0	39	0	630194176	56	4552
2026-01-17 22:45:26.87	104.76	31.63	-42.2	-44.8	17.4	0.00e+00	0	39	0	632291328	55	5041
2026-01-17 22:45:28.00	105.16	31.59	-43.2	-46.2	16.3	0.00e+00	0	39	0	634388480	57	5219
2026-01-17 22:45:28.85	105.46	31.56	-43.4	-46.5	16.0	0.00e+00	0	39	0	635437056	57	5407
2026-01-17 22:45:29.99	105.86	31.51	-43.3	-46.3	16.2	0.00e+00	0	39	0	637534208	57	5311
2026-01-17 22:45:30.84	106.16	31.48	-42.8	-45.6	16.9	0.00e+00	0	39	0	639631360	57	4884
2026-01-17 22:45:31.98	106.56	31.43	-42.0	-44.6	17.8	0.00e+00	0	39	0	641728512	56	4602
2026-01-17 22:45:32.84	106.86	31.40	-42.0	-44.6	17.7	0.00e+00	0	39	0	642777088	55	4904
2026-01-17 22:45:33.97	107.26	31.35	-41.9	-44.4	17.8	0.00e+00	0	39	0	644874240	55	4797
2026-01-17 22:45:34.82	107.56	31.31	-42.1	-44.7	17.6	0.00e+00	0	39	0	646971392	55	4928
2026-01-17 22:45:35.97	107.96	31.26	-41.9	-44.5	17.8	0.00e+00	0	39	0	649068544	55	4819
2026-01-17 22:45:36.82	108.25	31.22	-41.8	-44.3	18.0	0.00e+00	0	39	0	650117120	55	4709
2026-01-17 22:45:37.95	108.64	31.16	-41.3	-43.7	18.5	0.00e+00	0	39	0	653262848	54	4684
2026-01-17 22:45:38.81	108.94	31.12	-41.7	-44.1	18.1	0.00e+00	0	39	0	654311424	54	4923
2026-01-17 22:45:39.95	109.33	31.06	-41.8	-44.4	17.9	0.00e+00	0	40	0	656408576	54	5052
2026-01-17 22:45:40.80	109.62	31.02	-42.0	-44.6	17.7	0.00e+00	0	39	0	658505728	54	5173
2026-01-17 22:45:41.94	110.01	30.96	-41.8	-44.3	17.9	0.00e+00	0	39	0	660602880	54	4998
2026-01-17 22:45:42.79	110.30	30.91	-41.6	-44.1	18.1	0.00e+00	0	39	0	661651456	54	4872
2026-01-17 22:45:43.92	110.69	30.85	-41.6	-44.1	18.2	0.00e+00	0	39	0	663748608	54	4898
2026-01-17 22:45:44.78	110.98	30.81	-41.6	-44.1	18.2	0.00e+00	0	39	0	665845760	54	4891
2026-01-17 22:45:46.15	111.44	30.73	-41.6	-44.1	18.2	0.00e+00	0	40	0	667942912	54	4889
2026-01-17 22:45:46.86	111.68	30.69	-41.8	-44.4	17.9	0.00e+00	0	39	0	668991488	54	5044
2026-01-17 22:45:48.14	112.11	30.61	-41.9	-44.5	17.7	0.00e+00	0	39	0	672137216	54	5141
2026-01-17 22:45:48.85	112.34	30.57	-41.8	-44.4	17.8	0.00e+00	0	39	0	673185792	54	5083
2026-01-17 22:45:50.13	112.77	30.49	-41.8	-44.3	18.0	0.00e+00	0	39	0	675282944	54	5005
2026-01-17 22:45:50.84	113.01	30.45	-41.6	-44.1	18.2	0.00e+00	0	39	0	677380096	54	4875
2026-01-17 22:45:52.12	113.43	30.37	-41.8	-44.3	18.0	0.00e+00	0	39	0	679477248	54	5035
2026-01-17 22:45:52.98	113.71	30.32	-42.0	-44.7	17.6	0.00e+00	0	39	0	680525824	54	5234
2026-01-17 22:45:54.12	114.08	30.25	-42.3	-45.1	17.3	0.00e+00	0	39	0	682622976	55	5179
2026-01-17 22:45:55.19	114.43	30.18	-42.2	-45.0	17.4	0.00e+00	0	39	0	684720128	55	5102
2026-01-17 22:45:56.22	114.77	30.11	-42.1	-44.8	17.5	0.00e+00	0	40	0	686817280	55	5007
2026-01-17 22:45:57.39	115.15	30.03	-41.7	-44.2	18.1	0.00e+00	0	39	0	688914432	55	4661
2026-01-17 22:45:58.24	115.42	29.97	-41.4	-43.9	18.3	0.00e+00	0	39	0	691011584	54	4778
2026-01-17 22:45:59.58	115.85	29.88	-41.3	-43.7	18.6	0.00e+00	0	39	0	693108736	54	4697
2026-01-17 22:46:00.29	116.08	29.83	-41.7	-44.3	18.0	0.00e+00	0	39	0	695205888	54	4999
2026-01-17 22:46:01.59	116.49	29.74	-42.1	-44.7	17.6	0.00e+00	0	39	0	697303040	54	5245
2026-01-17 22:46:02.30	116.71	29.69	-41.9	-44.5	17.8	0.00e+00	0	39	0	698351616	55	4825
2026-01-17 22:46:03.85	117.20	29.58	-41.9	-44.5	17.8	0.00e+00	0	39	0	701497344	55	4822
2026-01-17 22:46:04.56	117.42	29.53	-42.0	-44.5	17.7	0.00e+00	0	39	0	702545920	55	4852
2026-01-17 22:46:05.85	117.83	29.44	-42.2	-44.9	17.4	0.00e+00	0	39	0	704643072	55	5042
2026-01-17 22:46:06.56	118.05	29.39	-42.2	-44.8	17.5	0.00e+00	0	39	0	706740224	55	5016
2026-01-17 22:46:07.84	118.44	29.29	-42.5	-45.2	17.1	0.00e+00	0	40	0	708837376	55	5238
2026-01-17 22:46:08.56	118.67	29.24	-42.5	-45.3	17.0	0.00e+00	0	39	0	709885952	55	5298
2026-01-17 22:46:09.84	119.06	29.14	-42.9	-45.7	16.7	0.00e+00	0	39	0	713031680	56	5272
2026-01-17 22:46:10.55	119.27	29.08	-43.0	-45.9	16.6	0.00e+00	0	39	0	714080256	56	5347
2026-01-17 22:46:11.83	119.66	28.99	-42.6	-45.4	17.1	0.00e+00	0	40	0	716177408	57	4768
2026-01-17 22:46:12.57	119.89	28.93	-42.4	-45.1	17.3	0.00e+00	0	39	0	717225984	56	4888
2026-01-17 22:46:13.85	120.27	28.83	-42.5	-45.1	17.3	0.00e+00	0	39	0	720371712	56	4905
2026-01-17 22:46:14.61	120.50	28.77	-42.6	-45.3	17.2	0.00e+00	0	39	0	721420288	56	5016
2026-01-17 22:46:16.19	120.97	28.64	-43.3	-46.3	16.2	0.00e+00	0	39	0	724566016	57	5285
2026-01-17 22:46:16.85	121.16	28.59	-43.8	-47.0	15.5	0.00e+00	0	39	0	725614592	58	5415
2026-01-17 22:46:18.39	121.62	28.46	-43.9	-47.0	15.5	0.00e+00	0	40	0	728760320	58	5457
2026-01-17 22:46:19.10	121.83	28.41	-43.7	-46.8	15.7	0.00e+00	0	39	0	729808896	58	5331
2026-01-17 22:46:20.85	122.34	28.26	-43.2	-46.0	16.4	0.00e+00	0	39	0	732954624	58	4861
2026-01-17 22:46:21.42	122.50	28.22	-43.0	-45.8	16.6	0.00e+00	0	39	0	734003200	58	4748
2026-01-17 22:46:23.13	122.99	28.07	-42.9	-45.6	16.9	0.00e+00	0	39	0	737148928	57	4901
2026-01-17 22:46:23.69	123.15	28.03	-42.8	-45.5	16.9	0.00e+00	0	40	0	738197504	57	4847
2026-01-17 22:46:25.45	123.65	27.88	-42.8	-45.5	16.9	0.00e+00	0	39	0	741343232	57	4859
2026-01-17 22:46:26.02	123.81	27.83	-42.8	-45.5	17.0	0.00e+00	0	39	0	742391808	57	4847
2026-01-17 22:46:27.72	124.29	27.68	-43.4	-46.3	16.2	0.00e+00	0	40	0	746586112	57	5315
2026-01-17 22:46:28.29	124.45	27.63	-43.6	-46.7	15.9	0.00e+00	0	39	0	746586112	57	5532
2026-01-17 22:46:30.09	124.95	27.48	-44.5	-47.9	14.6	0.00e+00	0	40	0	750780416	59	5701
2026-01-17 22:46:30.66	125.11	27.43	-44.5	-48.1	14.5	0.00e+00	0	39	0	751828992	59	5791
2026-01-17 22:46:32.65	125.65	27.25	-43.9	-47.2	15.3	0.00e+00	0	39	0	754974720	59	5259
2026-01-17 22:46:33.22	125.81	27.20	-43.9	-47.2	15.3	0.00e+00	0	39	0	756023296	59	5220
2026-01-17 22:46:34.91	126.26	27.05	-43.1	-46.1	16.4	0.00e+00	0	39	0	759169024	58	4890
2026-01-17 22:46:35.48	126.42	27.00	-43.4	-46.5	16.1	0.00e+00	0	40	0	760217600	58	5137
2026-01-17 22:46:37.19	126.87	26.85	-44.1	-47.4	15.0	0.00e+00	0	39	0	763363328	58	5718
2026-01-17 22:46:37.76	127.02	26.80	-44.7	-48.5	14.1	0.00e+00	0	39	0	764411904	60	5766
2026-01-17 22:46:39.46	127.47	26.64	-44.6	-48.2	14.3	0.00e+00	0	39	0	768606208	60	5571
2026-01-17 22:46:40.03	127.62	26.59	-44.1	-47.5	14.9	7.00e-07	0	39	0	769654784	60	5147
2026-01-17 22:46:41.73	128.06	26.44	-43.2	-46.1	16.4	0.00e+00	0	40	0	772800512	58	4919
2026-01-17 22:46:42.37	128.23	26.38	-43.0	-45.9	16.6	0.00e+00	0	39	0	773849088	57	5046
2026-01-17 22:46:43.90	128.62	26.24	-43.1	-46.0	16.5	0.00e+00	0	39	0	775946240	57	5142
2026-01-17 22:46:44.61	128.80	26.17	-43.5	-46.5	15.9	0.00e+00	0	39	0	778043392	57	5463
2026-01-17 22:46:46.13	129.19	26.03	-43.7	-46.9	15.5	0.00e+00	0	39	0	780140544	58	5397
2026-01-17 22:46:46.84	129.37	25.97	-43.9	-47.2	15.4	0.00e+00	0	39	0	782237696	58	5557
2026-01-17 22:46:48.11	129.69	25.85	-43.7	-46.8	15.6	0.00e+00	0	39	0	784334848	58	5332
2026-01-17 22:46:48.83	129.87	25.78	-43.5	-46.6	15.9	0.00e+00	0	39	0	785383424	58	5211
2026-01-17 22:46:50.26	130.22	25.65	-43.8	-47.1	15.3	0.00e+00	0	39	0	788529152	58	5479
2026-01-17 22:46:50.97	130.39	25.58	-43.9	-47.2	15.4	0.00e+00	0	40	0	789577728	58	5540
2026-01-17 22:46:52.25	130.71	25.46	-44.9	-48.8	13.8	2.20e-06	0	39	0	791674880	60	5951
2026-01-17 22:46:52.99	130.89	25.39	-44.9	-48.7	13.8	4.50e-06	0	39	0	793772032	60	5912
2026-01-17 22:46:54.27	131.20	25.27	-44.8	-48.7	13.9	3.00e-06	0	39	0	795869184	60	5869
2026-01-17 22:46:55.00	131.37	25.20	-44.3	-47.8	14.7	0.00e+00	0	39	0	796917760	60	5320
2026-01-17 22:46:56.27	131.68	25.08	-43.0	-45.9	16.5	0.00e+00	0	39	0	800063488	58	4766
2026-01-17 22:46:57.00	131.85	25.01	-43.0	-45.8	16.6	0.00e+00	0	39	0	801112064	57	4995
2026-01-17 22:46:58.28	132.15	24.89	-42.9	-45.7	16.8	0.00e+00	0	39	0	803209216	57	4962
2026-01-17 22:46:59.00	132.32	24.82	-43.3	-46.2	16.2	0.00e+00	0	39	0	804257792	57	5259
2026-01-17 22:47:00.28	132.62	24.70	-43.8	-46.9	15.6	0.00e+00	0	39	0	807403520	58	5387
2026-01-17 22:47:01.00	132.79	24.63	-43.8	-46.9	15.5	0.00e+00	0	39	0	808452096	58	5395
2026-01-17 22:47:02.27	133.08	24.51	-43.2	-46.1	16.4	0.00e+00	0	39	0	810549248	58	4877
2026-01-17 22:47:03.11	133.27	24.43	-42.5	-45.2	17.3	0.00e+00	0	39	0	812646400	57	4652
2026-01-17 22:47:04.24	133.53	24.32	-41.9	-44.4	17.8	0.00e+00	0	39	0	814743552	55	4786
2026-01-17 22:47:05.10	133.73	24.24	-41.7	-44.1	18.1	0.00e+00	0	39	0	815792128	55	4638
2026-01-17 22:47:06.24	133.98	24.13	-42.1	-44.7	17.5	0.00e+00	0	39	0	817889280	55	4983
2026-01-17 22:47:07.09	134.17	24.05	-42.6	-45.4	16.9	0.00e+00	0	39	0	819986432	55	5360
2026-01-17 22:47:08.22	134.42	23.94	-43.2	-46.2	16.2	0.00e+00	0	39	0	822083584	57	5255
2026-01-17 22:47:09.08	134.61	23.85	-43.2	-46.2	16.2	0.00e+00	0	39	0	823132160	57	5231
2026-01-17 22:47:10.21	134.86	23.75	-42.8	-45.6	16.8	0.00e+00	0	40	0	826277888	57	4917
2026-01-17 22:47:11.07	135.05	23.66	-42.4	-45.1	17.4	0.00e+00	0	39	0	827326464	56	4880
2026-01-17 22:47:12.20	135.30	23.55	-42.1	-44.6	17.7	0.00e+00	0	39	0	829423616	56	4629
2026-01-17 22:47:13.06	135.48	23.47	-42.1	-44.7	17.7	0.00e+00	0	39	0	831520768	56	4685
2026-01-17 22:47:14.19	135.73	23.36	-42.5	-45.2	17.2	0.00e+00	0	39	0	833617920	56	4944
2026-01-17 22:47:15.11	135.92	23.27	-43.2	-46.2	16.3	0.00e+00	0	39	0	834666496	57	5222
2026-01-17 22:47:16.27	136.17	23.16	-43.8	-47.0	15.4	0.00e+00	0	39	0	836763648	58	5426
2026-01-17 22:47:17.16	136.36	23.07	-44.1	-47.5	14.9	0.00e+00	0	39	0	838860800	59	5461
2026-01-17 22:47:18.30	136.59	22.96	-43.7	-46.8	15.6	0.00e+00	0	39	0	840957952	59	5005
2026-01-17 22:47:19.21	136.78	22.88	-43.4	-46.4	16.0	0.00e+00	0	39	0	843055104	58	5068
2026-01-17 22:47:20.38	137.03	22.76	-42.9	-45.7	16.6	0.00e+00	0	39	0	845152256	57	4976
2026-01-17 22:47:21.23	137.20	22.68	-42.5	-45.1	17.3	0.00e+00	0	39	0	846200832	56	4910
2026-01-17 22:47:22.37	137.43	22.57	-42.2	-44.8	17.6	0.00e+00	0	39	0	848297984	56	4707
2026-01-17 22:47:23.22	137.61	22.49	-41.9	-44.4	17.7	0.00e+00	0	39	0	850395136	55	4785
2026-01-17 22:47:24.36	137.84	22.38	-41.6	-44.1	18.0	0.00e+00	0	39	0	852492288	55	4643
2026-01-17 22:47:25.22	138.01	22.29	-41.4	-43.9	18.3	0.00e+00	0	39	0	853540864	54	4760
2026-01-17 22:47:26.35	138.23	22.18	-40.9	-43.2	18.8	0.00e+00	0	39	0	855638016	53	4705
2026-01-17 22:47:27.21	138.40	22.10	-40.7	-42.9	19.1	0.00e+00	0	39	0	857735168	53	4534
2026-01-17 22:47:28.35	138.63	21.99	-40.2	-42.4	19.6	0.00e+00	0	39	0	859832320	52	4527
2026-01-17 22:47:29.20	138.80	21.91	-40.1	-42.2	19.8	0.00e+00	0	39	0	860880896	51	4698
2026-01-17 22:47:30.34	139.02	21.80	-40.3	-42.4	19.6	0.00e+00	0	39	0	862978048	51	4804
2026-01-17 22:47:31.19	139.18	21.72	-40.6	-42.8	19.2	0.00e+00	0	39	0	865075200	52	4759
2026-01-17 22:47:32.42	139.42	21.60	-41.0	-43.4	18.7	0.00e+00	0	39	0	867172352	52	5062
2026-01-17 22:47:33.28	139.58	21.51	-41.5	-44.0	18.1	0.00e+00	0	39	0	869269504	53	5146
2026-01-17 22:47:34.41	139.80	21.40	-42.1	-44.7	17.5	0.00e+00	0	39	0	871366656	54	5253
2026-01-17 22:47:35.27	139.96	21.32	-42.3	-45.0	17.2	0.00e+00	0	39	0	872415232	55	5134
2026-01-17 22:47:36.40	140.17	21.21	-42.3	-45.0	17.1	0.00e+00	0	40	0	874512384	55	5156
2026-01-17 22:47:37.25	140.33	21.13	-42.2	-44.9	17.3	0.00e+00	0	40	0	876609536	55	5070
2026-01-17 22:47:38.39	140.54	21.02	-41.9	-44.5	17.7	0.00e+00	0	39	0	878706688	55	4837
2026-01-17 22:47:39.25	140.70	20.94	-41.5	-44.0	18.2	0.00e+00	0	39	0	879755264	54	4822
2026-01-17 22:47:40.38	140.91	20.83	-41.4	-43.8	18.3	0.00e+00	0	39	0	881852416	54	4721
2026-01-17 22:47:41.23	141.06	20.75	-41.2	-43.6	18.5	0.00e+00	0	39	0	883949568	54	4618
2026-01-17 22:47:42.37	141.27	20.64	-41.1	-43.5	18.6	0.00e+00	0	39	0	886046720	54	4572
2026-01-17 22:47:43.22	141.42	20.56	-41.3	-43.7	18.4	0.00e+00	0	39	0	888143872	54	4674
2026-01-17 22:47:44.36	141.63	20.45	-41.0	-43.4	18.7	0.00e+00	0	39	0	890241024	53	4765
2026-01-17 22:47:45.21	141.78	20.37	-41.2	-43.6	18.5	0.00e+00	0	39	0	891289600	53	4918
2026-01-17 22:47:46.33	141.97	20.26	-41.1	-43.6	18.5	0.00e+00	0	39	0	893386752	53	4878
2026-01-17 22:47:47.19	142.13	20.18	-41.1	-43.5	18.6	0.00e+00	0	39	0	895483904	53	4833
2026-01-17 22:47:48.32	142.32	20.07	-40.9	-43.2	18.8	0.00e+00	0	39	0	897581056	53	4685
2026-01-17 22:47:49.18	142.47	19.99	-40.9	-43.2	18.8	0.00e+00	0	39	0	898629632	53	4695
2026-01-17 22:47:50.40	142.68	19.87	-40.8	-43.1	19.0	0.00e+00	0	39	0	900726784	53	4608
2026-01-17 22:47:51.26	142.83	19.79	-40.8	-43.2	18.8	0.00e+00	0	39	0	902823936	53	4657
2026-01-17 22:47:52.40	143.02	19.68	-40.6	-42.9	19.1	0.00e+00	0	39	0	904921088	53	4535
2026-01-17 22:47:53.25	143.17	19.60	-40.6	-42.9	19.0	0.00e+00	0	39	0	905969664	53	4544
2026-01-17 22:47:54.39	143.36	19.49	-40.6	-42.9	19.1	0.00e+00	0	39	0	909115392	53	4524
2026-01-17 22:47:55.24	143.50	19.41	-40.7	-43.0	19.0	0.00e+00	0	39	0	910163968	53	4590
2026-01-17 22:47:56.57	143.72	19.29	-40.9	-43.3	18.8	0.00e+00	0	39	0	912261120	53	4710
2026-01-17 22:47:57.28	143.84	19.22	-40.9	-43.4	18.7	0.00e+00	0	39	0	914358272	53	4776
2026-01-17 22:47:58.76	144.08	19.08	-41.0	-43.6	18.5	0.00e+00	0	39	0	916455424	53	4872
2026-01-17 22:47:59.47	144.20	19.01	-41.1	-43.6	18.5	0.00e+00	0	39	0	918552576	53	4875
2026-01-17 22:48:00.75	144.41	18.89	-41.0	-43.4	18.6	0.00e+00	0	39	0	920649728	53	4812
2026-01-17 22:48:01.46	144.52	18.83	-40.9	-43.4	18.7	0.00e+00	0	39	0	921698304	53	4779
2026-01-17 22:48:02.74	144.72	18.71	-40.5	-42.9	19.1	0.00e+00	0	39	0	923795456	53	4494
2026-01-17 22:48:03.45	144.84	18.64	-40.4	-42.7	19.3	0.00e+00	0	39	0	925892608	52	4674
2026-01-17 22:48:04.73	145.04	18.52	-40.3	-42.5	19.4	0.00e+00	0	39	0	927989760	52	4579
2026-01-17 22:48:05.46	145.16	18.45	-40.0	-42.2	19.8	0.00e+00	0	39	0	929038336	51	4669
2026-01-17 22:48:06.74	145.36	18.33	-40.1	-42.4	19.6	0.00e+00	0	39	0	932184064	51	4771
2026-01-17 22:48:07.48	145.47	18.26	-40.1	-42.3	19.7	0.00e+00	0	39	0	933232640	51	4722
2026-01-17 22:48:08.76	145.67	18.14	-39.9	-42.1	19.9	0.00e+00	0	39	0	935329792	51	4624
2026-01-17 22:48:09.55	145.79	18.07	-40.3	-42.5	19.4	0.00e+00	0	39	0	937426944	51	4838
2026-01-17 22:48:10.72	145.97	17.96	-40.3	-42.6	19.5	0.00e+00	0	39	0	939524096	51	4879
2026-01-17 22:48:11.57	146.10	17.88	-40.5	-42.8	19.3	0.00e+00	0	39	0	940572672	51	5013
2026-01-17 22:48:12.71	146.27	17.78	-40.7	-43.0	19.0	0.00e+00	0	39	0	942669824	52	4828
2026-01-17 22:48:13.57	146.40	17.70	-40.5	-42.8	19.2	0.00e+00	0	39	0	944766976	52	4720
2026-01-17 22:48:14.70	146.57	17.60	-40.5	-42.7	19.2	0.00e+00	0	39	0	946864128	52	4688
2026-01-17 22:48:15.56	146.69	17.52	-40.7	-43.0	18.9	0.00e+00	0	39	0	947912704	52	4823
2026-01-17 22:48:16.69	146.86	17.41	-40.5	-42.8	19.2	0.00e+00	0	39	0	950009856	52	4737
2026-01-17 22:48:17.55	146.99	17.34	-40.8	-43.2	18.8	0.00e+00	0	39	0	952107008	52	4939
2026-01-17 22:48:18.68	147.15	17.23	-40.9	-43.3	18.7	0.00e+00	0	39	0	954204160	52	4985
2026-01-17 22:48:19.53	147.27	17.16	-41.0	-43.4	18.6	0.00e+00	0	39	0	956301312	52	5070
2026-01-17 22:48:20.67	147.44	17.05	-41.4	-43.9	18.0	0.00e+00	0	39	0	957349888	53	5057
2026-01-17 22:48:21.52	147.56	16.97	-41.5	-44.0	18.0	0.00e+00	0	39	0	959447040	53	5113
2026-01-17 22:48:22.66	147.72	16.87	-42.0	-44.6	17.5	0.00e+00	0	39	0	961544192	54	5210
2026-01-17 22:48:23.58	147.85	16.79	-42.1	-44.8	17.2	0.00e+00	0	39	0	963641344	55	5038
2026-01-17 22:48:24.73	148.01	16.68	-42.1	-44.8	17.3	0.00e+00	0	39	0	965738496	55	5003
2026-01-17 22:48:25.59	148.13	16.61	-42.3	-45.0	17.0	0.00e+00	0	39	0	966787072	55	5158
2026-01-17 22:48:26.90	148.32	16.49	-42.1	-44.9	17.2	0.00e+00	0	39	0	969932800	55	5051
2026-01-17 22:48:27.61	148.41	16.43	-42.3	-45.1	17.0	0.00e+00	0	39	0	970981376	55	5195
2026-01-17 22:48:29.11	148.62	16.29	-42.3	-45.1	17.0	0.00e+00	0	39	0	974127104	55	5165
2026-01-17 22:48:29.82	148.72	16.23	-42.1	-44.9	17.3	0.00e+00	0	39	0	975175680	55	5052
2026-01-17 22:48:31.15	148.90	16.11	-42.3	-45.0	17.1	0.00e+00	0	39	0	977272832	55	5127
2026-01-17 22:48:31.86	148.99	16.05	-42.1	-44.7	17.3	0.00e+00	0	39	0	978321408	55	4974
2026-01-17 22:48:33.14	149.16	15.93	-41.8	-44.3	17.7	0.00e+00	0	39	0	981467136	55	4743
2026-01-17 22:48:33.85	149.26	15.87	-41.8	-44.3	17.7	0.00e+00	0	39	0	982515712	55	4738
2026-01-17 22:48:35.26	149.44	15.75	-41.6	-44.2	17.9	0.00e+00	0	39	0	985661440	54	4927
2026-01-17 22:48:36.24	149.57	15.66	-41.6	-44.2	17.8	0.00e+00	0	39	0	986710016	54	4964
2026-01-17 22:48:37.55	149.74	15.54	-41.6	-44.2	17.8	0.00e+00	0	39	0	989855744	54	4932
2026-01-17 22:48:38.26	149.84	15.48	-41.8	-44.4	17.6	0.00e+00	0	39	0	990904320	54	5073
2026-01-17 22:48:39.54	150.00	15.37	-41.8	-44.5	17.5	0.00e+00	0	39	0	993001472	54	5128
2026-01-17 22:48:40.27	150.10	15.31	-42.0	-44.8	17.3	0.00e+00	0	39	0	995098624	54	5280
2026-01-17 22:48:41.55	150.26	15.19	-42.2	-45.0	17.0	0.00e+00	0	39	0	997195776	55	5116
2026-01-17 22:48:42.27	150.35	15.13	-42.2	-45.0	17.1	0.00e+00	0	39	0	998244352	55	5132
2026-01-17 22:48:43.55	150.51	15.02	-42.2	-45.0	17.0	0.00e+00	0	39	0	1000341504	55	5132
2026-01-17 22:48:44.28	150.60	14.96	-42.2	-44.9	17.1	0.00e+00	0	39	0	1002438656	55	5047
2026-01-17 22:48:45.56	150.76	14.85	-41.7	-44.3	17.7	0.00e+00	0	39	0	1004535808	55	4726
2026-01-17 22:48:46.27	150.85	14.78	-41.9	-44.5	17.5	0.00e+00	0	39	0	1005584384	55	4824
2026-01-17 22:48:47.55	151.01	14.67	-41.7	-44.2	17.7	0.00e+00	0	39	0	1008730112	55	4681
2026-01-17 22:48:48.26	151.10	14.61	-41.3	-43.8	18.1	0.00e+00	0	39	0	1009778688	54	4732
2026-01-17 22:48:49.54	151.25	14.50	-41.4	-43.9	18.2	0.00e+00	0	39	0	1011875840	54	4768
2026-01-17 22:48:50.25	151.34	14.44	-41.2	-43.6	18.4	0.00e+00	0	39	0	1012924416	54	4627
2026-01-17 22:48:51.74	151.52	14.32	-41.2	-43.7	18.3	0.00e+00	0	39	0	1016070144	54	4658
2026-01-17 22:48:52.45	151.60	14.25	-41.1	-43.6	18.4	0.00e+00	0	39	0	1017118720	54	4612
2026-01-17 22:48:53.72	151.75	14.15	-41.2	-43.7	18.3	0.00e+00	0	39	0	1020264448	54	4661
2026-01-17 22:48:54.45	151.84	14.08	-41.5	-44.0	18.0	0.00e+00	0	39	0	1021313024	54	4859
2026-01-17 22:48:55.73	151.99	13.98	-41.6	-44.3	17.6	0.00e+00	0	39	0	1023410176	54	5010
2026-01-17 22:48:56.45	152.08	13.92	-41.8	-44.4	17.6	0.00e+00	0	39	0	1024458752	54	5100
2026-01-17 22:48:57.73	152.23	13.81	-41.9	-44.6	17.4	0.00e+00	0	39	0	1027604480	54	5210
2026-01-17 22:48:58.44	152.31	13.75	-41.8	-44.6	16.9	0.00e+00	0	39	0	1028653056	54	5161
2026-01-17 22:48:59.72	152.46	13.64	-41.8	-44.6	17.4	0.00e+00	0	39	0	1030750208	54	5167
2026-01-17 22:49:00.46	152.54	13.58	-41.8	-44.5	17.5	0.00e+00	0	39	0	1032847360	54	5145
2026-01-17 22:49:01.74	152.69	13.47	-41.5	-44.2	17.8	0.00e+00	0	39	0	1034944512	54	4958
2026-01-17 22:49:02.51	152.77	13.41	-41.7	-44.4	17.6	0.00e+00	0	39	0	1035993088	54	5076
2026-01-17 22:49:03.79	152.92	13.30	-41.4	-44.0	17.9	0.00e+00	0	40	0	1039138816	54	4862
2026-01-17 22:49:04.52	153.00	13.24	-41.2	-43.8	18.2	0.00e+00	0	39	0	1040187392	54	4721
2026-01-17 22:49:05.80	153.14	13.13	-41.2	-43.7	18.2	0.00e+00	0	39	0	1042284544	54	4678
2026-01-17 22:49:06.60	153.23	13.07	-41.1	-43.6	18.3	0.00e+00	0	39	0	1044381696	54	4629
2026-01-17 22:49:07.74	153.36	12.97	-41.3	-43.8	18.2	0.00e+00	0	39	0	1046478848	54	4727
2026-01-17 22:49:08.78	153.47	12.89	-41.2	-43.8	18.2	0.00e+00	0	39	0	1048576000	54	4715
2026-01-17 22:49:09.95	153.60	12.79	-41.3	-43.9	17.2	0.00e+00	0	39	0	1050673152	54	4771
2026-01-17 22:49:10.80	153.69	12.72	-41.5	-44.0	17.9	0.00e+00	0	39	0	1051721728	54	4851
2026-01-17 22:49:11.94	153.82	12.63	-41.5	-44.1	17.8	0.00e+00	0	39	0	1053818880	54	4887
2026-01-17 22:49:12.79	153.91	12.56	-41.7	-44.3	17.6	0.00e+00	0	39	0	1055916032	54	5021
2026-01-17 22:49:13.93	154.03	12.47	-41.8	-44.5	17.5	0.00e+00	0	39	0	1058013184	54	5125
2026-01-17 22:49:14.79	154.12	12.40	-41.9	-44.6	17.3	0.00e+00	0	39	0	1059061760	54	5213
2026-01-17 22:49:15.92	154.24	12.31	-42.1	-44.9	17.2	0.00e+00	0	39	0	1061158912	54	5379
2026-01-17 22:49:16.77	154.33	12.24	-42.1	-45.0	17.0	0.00e+00	0	39	0	1063256064	54	5430
2026-01-17 22:49:17.91	154.45	12.15	-42.0	-44.9	17.1	0.00e+00	0	39	0	1065353216	55	5066
2026-01-17 22:49:18.76	154.54	12.08	-41.8	-44.6	17.3	0.00e+00	0	39	0	1066401792	55	4915
2026-01-17 22:49:19.90	154.65	11.99	-42.0	-44.8	17.1	0.00e+00	0	39	0	1068498944	55	5027
2026-01-17 22:49:20.75	154.74	11.92	-42.0	-44.8	17.1	0.00e+00	0	39	0	1070596096	55	5041
2026-01-17 22:49:22.00	154.87	11.82	-41.9	-44.8	17.2	0.00e+00	0	39	0	1072693248	55	5003
2026-01-17 22:49:22.85	154.96	11.75	-41.8	-44.6	17.3	0.00e+00	0	39	0	1074790400	55	4911
2026-01-17 22:49:24.07	155.08	11.66	-41.8	-44.5	17.4	0.00e+00	0	39	0	1076887552	55	4826
2026-01-17 22:49:24.92	155.17	11.59	-41.7	-44.4	17.6	0.00e+00	0	39	0	1077936128	55	4761
2026-01-17 22:49:26.06	155.28	11.50	-41.7	-44.4	17.6	0.00e+00	0	39	0	1080033280	55	4760
2026-01-17 22:49:26.91	155.36	11.43	-42.0	-44.6	17.2	0.00e+00	0	39	0	1082130432	55	4924
2026-01-17 22:49:28.05	155.48	11.34	-42.1	-44.8	17.1	0.00e+00	0	39	0	1084227584	55	5027
2026-01-17 22:49:28.90	155.56	11.27	-41.9	-44.5	17.3	0.00e+00	0	39	0	1086324736	55	4865
2026-01-17 22:49:30.04	155.67	11.18	-42.0	-44.6	17.2	0.00e+00	0	39	0	1088421888	55	4908
2026-01-17 22:49:30.89	155.76	11.12	-42.1	-44.8	17.1	0.00e+00	0	39	0	1089470464	55	4998
2026-01-17 22:49:32.02	155.87	11.03	-41.9	-44.6	17.3	0.00e+00	0	39	0	1091567616	55	4873
2026-01-17 22:49:32.88	155.95	10.96	-41.7	-44.3	17.5	0.00e+00	0	39	0	1093664768	55	4709
2026-01-17 22:49:34.01	156.06	10.88	-41.9	-44.6	17.3	0.00e+00	0	39	0	1095761920	55	4899
2026-01-17 22:49:34.86	156.14	10.81	-42.0	-44.7	17.2	0.00e+00	0	39	0	1096810496	55	4977
2026-01-17 22:49:36.00	156.25	10.72	-42.0	-44.7	17.2	7.25e-03	0	39	0	1098907648	55	4956
2026-01-17 22:49:36.85	156.33	10.66	-42.0	-44.8	17.1	0.00e+00	0	39	0	1101004800	55	4992
2026-01-17 22:49:38.01	156.44	10.57	-42.0	-44.8	17.1	0.00e+00	0	39	0	1103101952	55	4986
2026-01-17 22:49:38.86	156.52	10.50	-41.9	-44.6	17.2	0.00e+00	0	39	0	1104150528	55	4923
2026-01-17 22:49:40.00	156.62	10.41	-41.9	-44.6	17.3	0.00e+00	0	39	0	1106247680	55	4877
2026-01-17 22:49:40.85	156.70	10.35	-41.8	-44.4	17.4	0.00e+00	0	39	0	1108344832	55	4802
2026-01-17 22:49:42.11	156.82	10.25	-41.8	-44.4	17.5	1.84e-02	0	39	0	1110441984	55	4772
2026-01-17 22:49:42.92	156.89	10.19	-41.9	-44.5	17.3	0.00e+00	0	39	0	1112539136	55	4854
2026-01-17 22:49:44.06	157.00	10.10	-41.5	-44.1	17.7	0.00e+00	0	39	0	1114636288	55	4634
2026-01-17 22:49:44.91	157.08	10.04	-41.9	-44.5	17.3	2.33e-02	0	39	0	1115684864	54	5143
2026-01-17 22:49:46.05	157.18	9.95	-41.7	-44.3	17.5	0.00e+00	0	39	0	1117782016	54	5013
2026-01-17 22:49:46.90	157.25	9.89	-41.5	-44.1	17.7	0.00e+00	0	39	0	1119879168	54	4914
2026-01-17 22:49:48.04	157.36	9.80	-41.6	-44.2	17.6	2.43e-02	0	39	0	1121976320	54	4949
2026-01-17 22:49:48.89	157.43	9.74	-41.4	-44.0	17.7	0.00e+00	0	39	0	1123024896	54	4844
2026-01-17 22:49:50.03	157.53	9.65	-41.6	-44.2	17.6	0.00e+00	0	39	0	1125122048	54	4960
2026-01-17 22:49:50.88	157.61	9.59	-41.6	-44.2	17.6	0.00e+00	0	39	0	1127219200	54	4961
2026-01-17 22:49:52.02	157.71	9.51	-41.5	-44.0	17.8	0.00e+00	0	39	0	1129316352	54	4854
2026-01-17 22:49:52.87	157.78	9.44	-41.5	-44.1	17.7	0.00e+00	0	40	0	1130364928	54	4871
2026-01-17 22:49:54.00	157.88	9.36	-41.6	-44.2	17.5	0.00e+00	0	39	0	1132462080	54	4979
2026-01-17 22:49:54.86	157.96	9.30	-41.6	-44.2	17.6	0.00e+00	0	39	0	1134559232	54	4936
2026-01-17 22:49:56.10	158.06	9.20	-41.7	-44.3	17.4	2.17e-02	0	39	0	1136656384	54	5023
2026-01-17 22:49:56.96	158.14	9.14	-41.9	-44.6	17.2	0.00e+00	0	39	0	1138753536	54	5168
2026-01-17 22:49:58.09	158.23	9.06	-42.0	-44.7	17.1	0.00e+00	0	39	0	1140850688	54	5224
2026-01-17 22:49:58.94	158.31	8.99	-47.7	-59.3	4.6	0.00e+00	0	39	0	1141899264	65	14947
2026-01-17 22:50:00.08	158.40	8.91	-47.8	-63.2	3.8	1.49e+00	0	39	104	1141899264	66	22104
2026-01-17 22:50:00.93	158.47	8.85	-47.8	-63.5	3.8	1.49e+00	0	39	104	1141899264	66	22880
2026-01-17 22:50:02.06	158.57	8.77	-48.3	-63.6	3.8	1.49e+00	0	39	104	1141899264	67	21785
2026-01-17 22:50:02.91	158.64	8.70	-48.3	-63.7	3.8	1.49e+00	0	39	104	1141899264	67	22080
2026-01-17 22:50:04.05	158.73	8.62	-48.1	-63.8	3.8	1.49e+00	0	39	104	1141899264	67	22328
2026-01-17 22:50:04.90	158.80	8.56	-48.3	-63.8	3.8	1.49e+00	0	39	104	1141899264	67	22439
2026-01-17 22:50:06.03	158.90	8.48	-48.9	-64.0	3.8	1.49e+00	0	39	104	1141899264	68	21753
2026-01-17 22:50:06.88	158.97	8.42	-48.7	-64.0	3.8	1.49e+00	0	39	104	1141899264	68	21748
2026-01-17 22:50:08.02	159.06	8.34	-48.9	-64.1	3.8	1.49e+00	0	39	104	1141899264	68	21887
2026-01-17 22:50:08.87	159.13	8.27	-48.9	-64.1	3.8	1.49e+00	0	39	104	1141899264	68	21896
2026-01-17 22:50:10.01	159.22	8.19	-48.8	-64.1	3.8	1.49e+00	0	39	104	1141899264	68	21925
2026-01-17 22:50:10.86	159.29	8.13	-49.0	-64.1	3.8	1.49e+00	0	39	104	1141899264	68	21910
2026-01-17 22:50:11.99	159.38	8.05	-49.0	-64.2	3.8	1.49e+00	0	39	104	1141899264	68	22067
2026-01-17 22:50:12.84	159.45	7.99	-49.0	-64.1	3.8	1.49e+00	0	39	104	1141899264	68	21972
2026-01-17 22:50:13.98	159.54	7.91	-49.0	-64.2	3.8	1.49e+00	0	39	104	1141899264	68	22085
2026-01-17 22:50:14.83	159.60	7.85	-48.6	-64.2	3.8	1.49e+00	0	39	104	1141899264	68	22111
2026-01-17 22:50:15.97	159.69	7.77	-48.8	-64.2	3.8	1.49e+00	0	39	104	1141899264	68	22035
2026-01-17 22:50:16.82	159.76	7.71	-49.0	-64.2	3.8	1.49e+00	0	39	104	1141899264	68	22078
2026-01-17 22:50:17.95	159.85	7.63	-49.0	-64.2	3.8	1.49e+00	0	39	104	1141899264	68	22159
2026-01-17 22:50:18.80	159.91	7.57	-48.9	-64.2	3.8	1.49e+00	0	39	104	1141899264	68	22133
2026-01-17 22:50:19.94	160.00	7.49	-49.0	-64.2	3.8	1.49e+00	0	40	104	1141899264	68	22034
2026-01-17 22:50:20.79	160.06	7.43	-48.9	-64.2	3.8	1.49e+00	0	39	104	1141899264	68	22128
2026-01-17 22:50:21.92	160.15	7.35	-48.5	-64.2	3.8	1.49e+00	0	39	104	1141899264	68	22039
2026-01-17 22:50:22.78	160.22	7.29	-48.7	-64.1	3.8	1.49e+00	0	39	104	1141899264	68	21993
2026-01-17 22:50:23.91	160.30	7.21	-48.6	-64.1	3.8	1.49e+00	0	39	104	1141899264	68	21915
2026-01-17 22:50:24.76	160.37	7.15	-48.6	-64.1	3.8	1.49e+00	0	39	104	1141899264	68	21816
2026-01-17 22:50:25.90	160.45	7.07	-48.6	-64.1	3.8	1.49e+00	0	39	104	1141899264	68	21921
2026-01-17 22:50:26.75	160.51	7.02	-48.6	-64.1	3.8	1.49e+00	0	39	104	1141899264	68	21827
2026-01-17 22:50:27.88	160.60	6.94	-48.6	-64.1	3.8	1.49e+00	0	39	104	1141899264	68	21796
2026-01-17 22:50:28.73	160.66	6.88	-48.6	-64.1	3.8	1.49e+00	0	39	104	1141899264	68	21809
2026-01-17 22:50:29.87	160.74	6.80	-48.6	-64.0	3.8	1.49e+00	0	39	104	1141899264	68	21748
2026-01-17 22:50:30.72	160.81	6.74	-48.6	-64.1	3.8	1.49e+00	0	39	104	1141899264	68	21804
2026-01-17 22:50:31.86	160.89	6.67	-48.6	-64.1	3.8	1.49e+00	0	39	104	1141899264	68	21879
2026-01-17 22:50:32.71	160.95	6.61	-48.6	-64.1	3.8	1.49e+00	0	39	104	1141899264	68	21822
2026-01-17 22:50:33.84	161.03	6.53	-48.6	-64.1	3.8	1.49e+00	0	39	104	1141899264	68	21797
2026-01-17 22:50:34.69	161.09	6.47	-48.6	-64.1	3.8	1.49e+00	0	39	104	1141899264	68	21805
2026-01-17 22:50:35.83	161.18	6.40	-48.6	-64.1	3.8	1.49e+00	0	39	104	1141899264	68	21823
2026-01-17 22:50:36.68	161.24	6.34	-48.6	-64.1	3.8	1.49e+00	0	39	104	1141899264	68	21842
