passes_logs/2026/01/17/T1/T1__20260117_043303_ZKF01_rec.log

#Pass ID: 20260117_043303_ZKF01
#Satellite: ZKF01
#Configuration: ZKF01
#almurnet v.1.7.20251203
#Start time: 2026-01-17 04:33:05

#Version: 2.0.20230620
#Station: T1
#Location: 37.570604 lon 55.790049 lat
#TLE: 1 61240U 24174C   25363.55210926  .00007200  00000-0  32855-3 0  9995
#TLE: 2 61240  97.4460   8.7269 0013178  79.4267 280.8452 15.20841105 69913

#Time	Az	El	Level	Level2	SNR	BER	BlckErr	Temp	State	Recorded	gain1	gain2
2026-01-17 04:33:05.28	9.51	5.12	-48.4	-50.9	3.7	0.00e+00	0	43	0	0	67	20390
2026-01-17 04:33:06.28	9.48	5.20	-48.4	-50.9	4.0	0.00e+00	0	44	104	0	67	20245
2026-01-17 04:33:07.27	9.44	5.28	-48.4	-51.0	4.0	0.00e+00	0	44	104	0	67	20500
2026-01-17 04:33:08.27	9.41	5.36	-48.4	-51.0	4.0	0.00e+00	0	44	104	0	67	20398
2026-01-17 04:33:09.27	9.38	5.44	-48.4	-50.9	4.0	0.00e+00	0	44	104	0	67	20316
2026-01-17 04:33:10.27	9.35	5.52	-48.4	-51.0	3.9	0.00e+00	0	44	104	0	67	20519
2026-01-17 04:33:11.26	9.31	5.61	-48.4	-50.9	4.0	0.00e+00	0	44	104	0	67	20363
2026-01-17 04:33:12.26	9.28	5.69	-48.4	-50.9	4.0	0.00e+00	0	44	104	0	67	20356
2026-01-17 04:33:13.26	9.25	5.77	-48.4	-51.0	4.0	0.00e+00	0	44	104	0	67	20419
2026-01-17 04:33:14.26	9.21	5.85	-48.4	-50.8	4.0	0.00e+00	0	44	104	0	67	20113
2026-01-17 04:33:15.26	9.18	5.94	-48.4	-50.9	4.0	0.00e+00	0	44	104	0	67	20259
2026-01-17 04:33:16.26	9.15	6.02	-48.4	-50.9	4.0	0.00e+00	0	45	104	0	67	20396
2026-01-17 04:33:17.26	9.11	6.10	-48.4	-50.9	4.0	0.00e+00	0	45	104	0	67	20337
2026-01-17 04:33:18.26	9.08	6.19	-48.4	-50.9	4.0	0.00e+00	0	45	104	0	67	20357
2026-01-17 04:33:19.26	9.04	6.27	-48.4	-51.1	4.0	0.00e+00	0	45	104	0	67	20645
2026-01-17 04:33:20.26	9.01	6.36	-48.4	-51.0	4.0	0.00e+00	0	45	104	0	67	20509
2026-01-17 04:33:21.25	8.97	6.44	-48.4	-51.0	4.0	0.00e+00	0	45	104	0	67	20528
2026-01-17 04:33:22.25	8.93	6.53	-48.4	-50.9	4.0	0.00e+00	0	45	104	0	67	20306
2026-01-17 04:33:23.26	8.90	6.61	-48.4	-51.0	4.0	0.00e+00	0	45	104	0	67	20577
2026-01-17 04:33:24.25	8.86	6.70	-48.4	-50.9	3.9	0.00e+00	0	45	104	0	67	20386
2026-01-17 04:33:25.25	8.82	6.79	-48.4	-50.9	4.0	0.00e+00	0	45	104	0	67	20341
2026-01-17 04:33:26.25	8.79	6.87	-48.4	-51.0	4.0	0.00e+00	0	45	104	0	67	20580
2026-01-17 04:33:27.25	8.75	6.96	-48.4	-50.9	4.0	0.00e+00	0	45	104	0	67	20377
2026-01-17 04:33:28.24	8.71	7.05	-48.4	-50.9	4.0	0.00e+00	0	46	104	0	67	20287
2026-01-17 04:33:29.24	8.67	7.14	-48.4	-51.0	3.9	0.00e+00	0	45	104	0	67	20586
2026-01-17 04:33:30.24	8.64	7.23	-48.4	-50.9	4.0	0.00e+00	0	46	104	0	67	20196
2026-01-17 04:33:31.23	8.60	7.31	-48.4	-50.9	4.0	0.00e+00	0	46	104	0	67	20353
2026-01-17 04:33:32.23	8.56	7.40	-48.4	-50.9	4.0	0.00e+00	0	46	104	0	67	20377
2026-01-17 04:33:33.23	8.52	7.49	-48.4	-51.0	4.0	0.00e+00	0	46	104	0	67	20476
2026-01-17 04:33:34.23	8.48	7.58	-48.4	-50.9	4.0	0.00e+00	0	46	104	0	67	20274
2026-01-17 04:33:35.23	8.44	7.68	-48.4	-51.0	3.9	0.00e+00	0	46	104	0	67	20464
2026-01-17 04:33:36.23	8.40	7.77	-48.4	-51.0	3.9	0.00e+00	0	46	104	0	67	20472
2026-01-17 04:33:37.23	8.36	7.86	-48.4	-51.0	4.0	0.00e+00	0	46	104	0	67	20441
2026-01-17 04:33:38.22	8.32	7.95	-48.4	-51.0	4.0	0.00e+00	0	46	104	0	67	20444
2026-01-17 04:33:39.22	8.28	8.04	-48.4	-51.0	4.0	0.00e+00	0	46	104	0	67	20484
2026-01-17 04:33:40.22	8.23	8.13	-48.4	-50.9	4.0	0.00e+00	0	46	104	0	67	20383
2026-01-17 04:33:41.23	8.19	8.23	-48.4	-51.0	4.0	0.00e+00	0	46	104	0	67	20491
2026-01-17 04:33:42.22	8.15	8.32	-48.4	-51.0	4.0	0.00e+00	0	46	104	0	67	20470
2026-01-17 04:33:43.22	8.11	8.42	-48.4	-51.0	4.0	0.00e+00	0	46	104	0	67	20547
2026-01-17 04:33:44.22	8.06	8.51	-48.4	-51.0	4.0	0.00e+00	0	46	104	0	67	20412
2026-01-17 04:33:45.22	8.02	8.61	-48.4	-50.9	4.0	0.00e+00	0	47	104	0	67	20354
2026-01-17 04:33:46.22	7.97	8.70	-48.4	-51.0	4.0	0.00e+00	0	46	104	0	67	20467
2026-01-17 04:33:47.21	7.93	8.80	-48.4	-50.9	4.0	0.00e+00	0	47	104	0	67	20251
2026-01-17 04:33:48.21	7.89	8.89	-48.4	-50.8	4.0	0.00e+00	0	46	104	0	67	20143
2026-01-17 04:33:49.21	7.84	8.99	-48.4	-51.0	4.0	0.00e+00	0	46	104	0	67	20572
2026-01-17 04:33:50.20	7.79	9.09	-48.4	-50.9	4.0	0.00e+00	0	47	104	0	67	20382
2026-01-17 04:33:51.20	7.75	9.19	-48.5	-51.2	3.9	0.00e+00	0	47	104	0	67	20938
2026-01-17 04:33:52.20	7.70	9.28	-48.8	-51.5	3.8	0.00e+00	0	47	104	0	68	20464
2026-01-17 04:33:53.19	7.66	9.38	-48.4	-50.9	4.0	0.00e+00	0	47	104	0	68	19074
2026-01-17 04:33:54.19	7.61	9.48	-47.9	-50.4	4.0	0.00e+00	0	47	104	0	67	19173
2026-01-17 04:33:55.19	7.56	9.58	-49.0	-51.6	3.9	0.00e+00	0	47	104	0	68	20844
2026-01-17 04:33:56.19	7.51	9.68	-48.3	-50.9	4.0	0.00e+00	0	47	104	0	68	19075
2026-01-17 04:33:57.19	7.46	9.78	-47.9	-50.3	4.1	0.00e+00	0	47	104	0	67	18972
2026-01-17 04:33:58.18	7.41	9.88	-47.6	-50.1	4.1	0.00e+00	0	47	104	0	67	18391
2026-01-17 04:33:59.18	7.37	9.99	-47.7	-50.3	4.0	0.00e+00	0	47	104	0	67	18937
2026-01-17 04:34:00.18	7.32	10.09	-47.4	-49.9	4.1	0.00e+00	0	47	104	0	66	19167
2026-01-17 04:34:01.17	7.27	10.19	-48.6	-51.3	3.9	0.00e+00	0	47	104	0	67	21223
2026-01-17 04:34:02.17	7.21	10.30	-49.6	-52.6	3.8	0.00e+00	0	47	104	0	69	22109
2026-01-17 04:34:03.17	7.16	10.40	-49.2	-52.0	3.8	0.00e+00	0	47	104	0	69	20507
2026-01-17 04:34:04.16	7.11	10.50	-48.7	-51.5	3.9	0.00e+00	0	47	104	0	69	19398
2026-01-17 04:34:05.17	7.06	10.61	-48.7	-51.4	3.9	0.00e+00	0	47	104	0	69	19252
2026-01-17 04:34:06.17	7.01	10.72	-48.7	-51.4	3.9	0.00e+00	0	47	104	0	69	19067
2026-01-17 04:34:07.16	6.95	10.82	-48.8	-51.5	3.9	0.00e+00	0	47	104	0	69	19439
2026-01-17 04:34:08.16	6.90	10.93	-49.0	-51.7	3.8	0.00e+00	0	47	104	0	69	19928
2026-01-17 04:34:09.16	6.84	11.04	-49.1	-52.0	3.8	0.00e+00	0	47	104	0	69	20507
2026-01-17 04:34:10.16	6.79	11.15	-49.4	-52.4	3.7	0.00e+00	0	47	104	0	69	21449
2026-01-17 04:34:11.15	6.73	11.25	-49.7	-52.7	3.7	0.00e+00	0	47	104	0	70	20911
2026-01-17 04:34:12.15	6.68	11.36	-49.4	-52.3	3.8	0.00e+00	0	47	104	0	70	20095
2026-01-17 04:34:13.14	6.62	11.47	-49.9	-53.2	3.7	0.00e+00	0	47	104	0	70	22358
2026-01-17 04:34:14.14	6.56	11.59	-49.5	-52.4	3.8	0.00e+00	0	47	104	0	70	20258
2026-01-17 04:34:15.14	6.51	11.70	-49.5	-52.3	3.8	0.00e+00	0	47	104	0	70	20157
2026-01-17 04:34:16.14	6.45	11.81	-49.6	-52.4	3.8	0.00e+00	0	47	104	0	70	20392
2026-01-17 04:34:17.14	6.39	11.92	-49.6	-52.5	3.7	0.00e+00	0	47	104	0	70	20424
2026-01-17 04:34:18.14	6.33	12.04	-49.1	-51.8	3.7	0.00e+00	0	47	104	0	70	19005
2026-01-17 04:34:19.13	6.27	12.15	-49.3	-52.1	3.8	0.00e+00	0	48	104	0	70	19668
2026-01-17 04:34:20.13	6.21	12.26	-50.2	-53.2	3.7	0.00e+00	0	48	104	0	71	21044
2026-01-17 04:34:21.13	6.15	12.38	-50.0	-53.0	3.8	0.00e+00	0	48	104	0	71	20608
2026-01-17 04:34:22.13	6.09	12.50	-49.4	-52.2	3.8	0.00e+00	0	47	104	0	70	19780
2026-01-17 04:34:23.13	6.02	12.61	-49.4	-52.3	3.8	0.00e+00	0	48	104	0	70	20127
2026-01-17 04:34:24.12	5.96	12.73	-49.3	-52.2	3.8	0.00e+00	0	48	104	0	70	19908
2026-01-17 04:34:25.12	5.90	12.85	-49.3	-52.2	3.8	0.00e+00	0	47	104	0	70	19834
2026-01-17 04:34:26.12	5.83	12.97	-49.6	-52.6	3.8	0.00e+00	0	47	104	0	70	20739
2026-01-17 04:34:27.11	5.77	13.09	-49.8	-52.8	3.8	0.00e+00	0	48	104	0	70	21123
2026-01-17 04:34:28.11	5.70	13.21	-50.0	-52.9	3.7	0.00e+00	0	48	104	0	70	21585
2026-01-17 04:34:29.10	5.64	13.33	-50.2	-53.1	3.7	0.00e+00	0	48	104	0	71	20730
2026-01-17 04:34:30.10	5.57	13.45	-50.3	-53.3	3.7	0.00e+00	0	48	104	0	71	21310
2026-01-17 04:34:31.10	5.50	13.57	-50.4	-53.3	3.7	0.00e+00	0	48	104	0	71	21273
2026-01-17 04:34:32.09	5.44	13.69	-50.1	-53.1	3.7	0.00e+00	0	48	104	0	71	20661
2026-01-17 04:34:33.09	5.37	13.82	-50.0	-52.9	3.7	0.00e+00	0	48	104	0	71	20313
2026-01-17 04:34:34.09	5.30	13.94	-50.6	-53.8	3.7	0.00e+00	0	48	104	0	71	22390
2026-01-17 04:34:35.09	5.23	14.07	-50.3	-53.3	3.7	0.00e+00	0	48	104	0	71	21140
2026-01-17 04:34:36.09	5.15	14.20	-50.1	-52.9	3.7	0.00e+00	0	48	104	0	71	20278
2026-01-17 04:34:37.09	5.08	14.33	-50.0	-52.9	3.7	0.00e+00	0	48	104	0	71	20253
2026-01-17 04:34:38.08	5.01	14.45	-50.0	-52.7	3.7	0.00e+00	0	48	104	0	71	19895
2026-01-17 04:34:39.08	4.94	14.58	-50.1	-52.9	3.7	0.00e+00	0	48	104	0	71	20261
2026-01-17 04:34:40.08	4.86	14.71	-50.3	-53.3	3.7	0.00e+00	0	48	104	0	71	21284
2026-01-17 04:34:41.08	4.79	14.84	-50.0	-52.8	3.7	0.00e+00	0	48	104	0	71	20054
2026-01-17 04:34:42.07	4.71	14.98	-50.6	-53.7	3.7	0.00e+00	0	48	104	0	72	21064
2026-01-17 04:34:43.07	4.63	15.11	-50.9	-54.1	3.7	0.00e+00	0	48	104	0	72	21999
2026-01-17 04:34:44.07	4.55	15.24	-50.0	-52.8	3.7	0.00e+00	0	48	104	0	72	18981
2026-01-17 04:34:45.06	4.48	15.38	-50.2	-53.1	3.7	0.00e+00	0	48	104	0	71	20768
2026-01-17 04:34:46.07	4.40	15.51	-50.4	-53.3	3.7	0.00e+00	0	48	104	0	71	21206
2026-01-17 04:34:47.07	4.32	15.65	-50.4	-53.3	3.7	0.00e+00	0	48	104	0	71	21181
2026-01-17 04:34:48.06	4.23	15.79	-50.7	-53.7	3.7	0.00e+00	0	48	104	0	71	22328
2026-01-17 04:34:49.06	4.15	15.92	-50.7	-53.7	3.7	0.00e+00	0	48	104	0	72	21027
2026-01-17 04:34:50.06	4.07	16.06	-51.1	-54.5	3.6	0.00e+00	0	48	104	0	72	22969
2026-01-17 04:34:51.06	3.98	16.20	-50.4	-53.2	3.7	0.00e+00	0	48	104	0	72	19914
2026-01-17 04:34:52.05	3.90	16.34	-49.7	-52.2	3.7	0.00e+00	0	48	104	0	71	18761
2026-01-17 04:34:53.05	3.81	16.49	-51.4	-54.7	3.7	0.00e+00	0	48	104	0	73	22252
2026-01-17 04:34:54.05	3.73	16.63	-50.0	-52.8	3.7	0.00e+00	0	48	104	0	72	18882
2026-01-17 04:34:55.05	3.64	16.77	-50.3	-53.1	3.7	0.00e+00	0	48	104	0	72	19504
2026-01-17 04:34:56.05	3.55	16.92	-50.4	-53.2	3.7	0.00e+00	0	48	104	0	72	19724
2026-01-17 04:34:57.05	3.46	17.07	-50.5	-53.3	3.7	0.00e+00	0	48	104	0	72	19981
2026-01-17 04:34:58.04	3.37	17.21	-51.1	-54.2	3.7	0.00e+00	0	48	104	0	73	20919
2026-01-17 04:34:59.04	3.27	17.36	-50.1	-52.8	3.7	0.00e+00	0	48	104	0	72	18962
2026-01-17 04:35:00.03	3.18	17.51	-50.4	-53.3	3.7	0.00e+00	0	48	104	0	72	19973
2026-01-17 04:35:01.03	3.09	17.66	-50.8	-53.8	3.7	0.00e+00	0	48	104	0	72	21228
2026-01-17 04:35:02.03	2.99	17.81	-50.3	-53.0	3.7	0.00e+00	0	48	104	0	71	20513
2026-01-17 04:35:03.02	2.89	17.96	-49.9	-52.5	3.7	0.00e+00	0	48	104	0	71	19473
2026-01-17 04:35:04.02	2.80	18.12	-50.0	-52.7	3.7	0.00e+00	0	48	104	0	71	19868
2026-01-17 04:35:05.02	2.70	18.27	-50.2	-53.0	3.7	0.00e+00	0	48	104	0	71	20548
2026-01-17 04:35:06.02	2.60	18.43	-50.5	-53.5	3.7	0.00e+00	0	48	104	0	71	21628
2026-01-17 04:35:07.02	2.49	18.59	-51.4	-54.7	3.7	0.00e+00	0	48	104	0	73	22252
2026-01-17 04:35:08.01	2.39	18.75	-50.7	-53.7	3.7	0.00e+00	0	48	104	0	73	19757
2026-01-17 04:35:09.01	2.29	18.91	-51.3	-54.6	3.7	0.00e+00	0	48	104	0	74	20648
2026-01-17 04:35:10.01	2.18	19.07	-51.8	-55.2	3.7	0.00e+00	0	48	104	0	74	22174
2026-01-17 04:35:11.01	2.07	19.23	-50.9	-54.0	3.7	0.00e+00	0	48	104	0	73	20619
2026-01-17 04:35:12.01	1.97	19.39	-51.2	-54.5	3.7	0.00e+00	0	48	104	0	73	21728
2026-01-17 04:35:13.01	1.86	19.56	-51.5	-54.8	3.7	0.00e+00	0	48	104	0	73	22398
2026-01-17 04:35:14.00	1.74	19.72	-51.5	-54.8	3.7	0.00e+00	0	48	104	0	73	22403
2026-01-17 04:35:15.00	1.63	19.89	-51.6	-54.9	3.7	0.00e+00	0	48	104	0	73	22833
2026-01-17 04:35:16.00	1.52	20.06	-51.9	-55.3	3.7	0.00e+00	0	48	104	0	74	22497
2026-01-17 04:35:17.00	1.40	20.23	-51.5	-54.8	3.7	0.00e+00	0	48	104	0	74	21304
2026-01-17 04:35:17.99	1.29	20.40	-51.4	-54.8	3.7	0.00e+00	0	48	104	0	73	22420
2026-01-17 04:35:18.99	1.17	20.57	-51.5	-54.8	3.7	0.00e+00	0	48	104	0	73	22431
2026-01-17 04:35:19.99	1.05	20.75	-50.8	-53.9	3.7	0.00e+00	0	48	104	0	73	20270
2026-01-17 04:35:20.99	0.92	20.93	-51.1	-54.2	3.7	0.00e+00	0	48	104	0	73	20876
2026-01-17 04:35:21.99	0.80	21.10	-51.2	-54.3	3.7	0.00e+00	0	48	104	0	73	21233
2026-01-17 04:35:22.98	0.68	21.28	-51.4	-54.6	3.7	0.00e+00	0	48	104	0	73	21934
2026-01-17 04:35:23.98	0.55	21.46	-51.5	-54.8	3.7	0.00e+00	0	48	104	0	73	22546
2026-01-17 04:35:24.98	0.42	21.64	-51.7	-55.0	3.7	0.00e+00	0	48	104	0	73	23067
2026-01-17 04:35:25.97	0.29	21.82	-51.7	-55.1	3.7	0.00e+00	0	48	104	0	74	21925
2026-01-17 04:35:26.97	0.16	22.01	-51.3	-54.3	3.7	0.00e+00	0	48	104	0	74	20133
2026-01-17 04:35:27.97	0.02	22.19	-51.6	-54.7	3.7	0.00e+00	0	48	104	0	74	21007
2026-01-17 04:35:28.97	359.89	22.38	-51.5	-54.7	3.7	0.00e+00	0	48	104	0	74	20901
2026-01-17 04:35:29.97	359.75	22.57	-51.5	-54.6	3.7	0.00e+00	0	48	104	0	74	20736
2026-01-17 04:35:30.97	359.61	22.76	-51.6	-54.7	3.7	0.00e+00	0	48	104	0	74	21071
2026-01-17 04:35:31.97	359.47	22.95	-51.9	-55.0	3.7	0.00e+00	0	48	104	0	74	21832
2026-01-17 04:35:32.97	359.32	23.15	-51.9	-55.2	3.7	0.00e+00	0	48	104	0	74	22267
2026-01-17 04:35:33.96	359.18	23.34	-52.1	-55.6	3.7	0.00e+00	0	48	104	0	74	23228
2026-01-17 04:35:34.96	359.03	23.54	-52.2	-55.6	3.6	0.00e+00	0	48	104	0	75	22014
2026-01-17 04:35:35.95	358.88	23.74	-51.9	-55.1	3.7	0.00e+00	0	48	104	0	75	20778
2026-01-17 04:35:36.95	358.73	23.94	-52.1	-55.5	3.7	0.00e+00	0	48	104	0	75	21742
2026-01-17 04:35:37.95	358.58	24.14	-52.0	-55.3	3.7	0.00e+00	0	48	104	0	75	21128
2026-01-17 04:35:38.94	358.42	24.34	-52.0	-55.4	3.7	0.00e+00	0	48	104	0	75	21405
2026-01-17 04:35:39.94	358.26	24.55	-52.0	-55.3	3.7	0.00e+00	0	48	104	0	75	21341
2026-01-17 04:35:40.94	358.10	24.76	-51.8	-55.1	3.7	0.00e+00	0	48	104	0	75	20815
2026-01-17 04:35:41.94	357.93	24.97	-52.1	-55.5	3.7	0.00e+00	0	48	104	0	75	21721
2026-01-17 04:35:42.93	357.77	25.18	-51.9	-55.2	3.7	0.00e+00	0	48	104	0	75	21103
2026-01-17 04:35:43.93	357.60	25.39	-52.0	-55.3	3.7	0.00e+00	0	48	104	0	75	21262
2026-01-17 04:35:44.93	357.43	25.60	-52.1	-55.4	3.7	0.00e+00	0	48	104	0	75	21365
2026-01-17 04:35:45.92	357.26	25.82	-52.0	-55.3	3.7	0.00e+00	0	48	104	0	75	21266
2026-01-17 04:35:46.92	357.08	26.04	-52.1	-55.3	3.7	0.00e+00	0	48	104	0	75	21210
2026-01-17 04:35:47.92	356.90	26.26	-52.1	-55.4	3.7	0.00e+00	0	48	104	0	75	21413
2026-01-17 04:35:48.91	356.72	26.48	-52.1	-55.4	3.7	0.00e+00	0	48	104	0	75	21412
2026-01-17 04:35:49.91	356.53	26.70	-52.0	-55.1	3.7	0.00e+00	0	48	104	0	75	20753
2026-01-17 04:35:50.91	356.34	26.93	-52.1	-55.4	3.7	0.00e+00	0	48	104	0	75	21604
2026-01-17 04:35:51.91	356.15	27.16	-51.9	-55.1	3.7	0.00e+00	0	48	104	0	75	20781
2026-01-17 04:35:52.91	355.96	27.39	-52.0	-55.4	3.7	0.00e+00	0	48	104	0	75	21438
2026-01-17 04:35:53.90	355.76	27.62	-52.2	-55.5	3.7	0.00e+00	0	48	104	0	75	21781
2026-01-17 04:35:54.90	355.56	27.85	-52.6	-56.1	3.7	0.00e+00	0	48	104	0	75	23177
2026-01-17 04:35:55.90	355.36	28.09	-52.2	-55.6	3.7	0.00e+00	0	48	104	0	75	22019
2026-01-17 04:35:56.90	355.15	28.32	-52.2	-55.5	3.7	0.00e+00	0	48	104	0	75	21785
2026-01-17 04:35:57.89	354.94	28.56	-52.5	-56.0	3.7	0.00e+00	0	48	104	0	75	23060
2026-01-17 04:35:58.89	354.72	28.81	-51.8	-54.9	3.7	0.00e+00	0	48	104	0	75	20356
2026-01-17 04:35:59.89	354.51	29.05	-51.8	-54.9	3.7	0.00e+00	0	48	104	0	75	20277
2026-01-17 04:36:00.88	354.29	29.29	-51.7	-54.9	3.7	0.00e+00	0	48	104	0	75	20273
2026-01-17 04:36:01.88	354.06	29.54	-51.9	-55.1	3.7	0.00e+00	0	48	104	0	75	20816
2026-01-17 04:36:02.88	353.83	29.79	-52.4	-55.8	3.7	0.00e+00	0	48	104	0	75	22452
2026-01-17 04:36:03.88	353.60	30.05	-52.4	-55.8	3.7	0.00e+00	0	48	104	0	75	22428
2026-01-17 04:36:04.88	353.36	30.30	-52.1	-55.4	3.7	0.00e+00	0	49	104	0	75	21450
2026-01-17 04:36:05.88	353.12	30.56	-52.1	-55.3	3.7	0.00e+00	0	48	104	0	75	21146
2026-01-17 04:36:06.87	352.87	30.82	-52.4	-55.9	3.7	0.00e+00	0	48	104	0	75	22759
2026-01-17 04:36:07.87	352.62	31.08	-51.7	-54.7	3.7	0.00e+00	0	48	104	0	75	19916
2026-01-17 04:36:08.87	352.37	31.34	-51.8	-54.8	3.7	0.00e+00	0	48	104	0	75	20133
2026-01-17 04:36:09.86	352.11	31.61	-51.8	-55.0	3.7	0.00e+00	0	48	104	0	75	20564
2026-01-17 04:36:10.86	351.85	31.87	-51.9	-55.0	3.7	0.00e+00	0	48	104	0	75	20619
2026-01-17 04:36:11.86	351.58	32.14	-51.1	-54.0	3.7	0.00e+00	0	48	104	0	74	19398
2026-01-17 04:36:12.85	351.30	32.41	-51.4	-54.3	3.7	0.00e+00	0	48	104	0	74	20133
2026-01-17 04:36:13.85	351.03	32.69	-51.8	-55.0	3.7	0.00e+00	0	49	104	0	74	21733
2026-01-17 04:36:14.85	350.74	32.97	-51.0	-53.9	3.7	0.00e+00	0	48	104	0	74	19214
2026-01-17 04:36:15.85	350.45	33.25	-51.1	-53.9	3.7	0.00e+00	0	48	104	0	74	19256
2026-01-17 04:36:16.85	350.16	33.53	-51.6	-54.7	3.7	0.00e+00	0	48	104	0	73	22190
2026-01-17 04:36:17.85	349.86	33.81	-51.1	-54.0	3.7	0.00e+00	0	48	104	0	74	19335
2026-01-17 04:36:18.85	349.55	34.10	-51.8	-55.1	3.7	0.00e+00	0	49	104	0	74	21869
2026-01-17 04:36:19.84	349.24	34.38	-51.5	-54.6	3.7	0.00e+00	0	49	104	0	74	20661
2026-01-17 04:36:20.84	348.92	34.67	-51.9	-55.0	3.7	0.00e+00	0	49	104	0	74	21853
2026-01-17 04:36:21.84	348.60	34.96	-52.0	-55.2	3.7	0.00e+00	0	48	104	0	74	22110
2026-01-17 04:36:22.83	348.27	35.26	-51.9	-55.0	3.7	0.00e+00	0	48	104	0	74	21703
2026-01-17 04:36:23.83	347.93	35.55	-52.0	-55.1	3.7	0.00e+00	0	48	104	0	74	22091
2026-01-17 04:36:24.83	347.59	35.85	-52.2	-55.5	3.7	0.00e+00	0	48	104	0	75	21721
2026-01-17 04:36:25.83	347.24	36.15	-51.9	-55.0	3.7	0.00e+00	0	49	104	0	75	20585
2026-01-17 04:36:26.83	346.88	36.46	-51.1	-53.9	3.7	0.00e+00	0	48	104	0	74	19242
2026-01-17 04:36:27.83	346.52	36.76	-51.5	-54.6	3.7	0.00e+00	0	48	104	0	74	20636
2026-01-17 04:36:28.83	346.15	37.07	-51.2	-54.2	3.7	0.00e+00	0	48	104	0	74	19837
2026-01-17 04:36:29.83	345.77	37.38	-51.5	-54.5	3.7	0.00e+00	0	48	104	0	74	20573
2026-01-17 04:36:30.82	345.38	37.69	-51.9	-55.1	3.7	0.00e+00	0	48	104	0	74	21954
2026-01-17 04:36:31.82	344.99	38.00	-52.2	-55.5	3.7	0.00e+00	0	48	104	0	75	21844
2026-01-17 04:36:32.82	344.58	38.31	-52.5	-56.0	3.7	0.00e+00	0	48	104	0	75	22918
2026-01-17 04:36:33.82	344.17	38.63	-52.6	-56.1	3.7	0.00e+00	0	48	104	0	75	23157
2026-01-17 04:36:34.82	343.75	38.95	-52.6	-56.0	3.7	0.00e+00	0	48	104	0	75	23058
2026-01-17 04:36:35.82	343.32	39.27	-52.5	-55.8	3.7	0.00e+00	0	48	104	0	75	22551
2026-01-17 04:36:36.82	342.88	39.59	-51.9	-55.1	3.7	0.00e+00	0	48	104	0	75	20639
2026-01-17 04:36:37.82	342.44	39.91	-52.1	-55.4	3.7	0.00e+00	0	49	104	0	75	21511
2026-01-17 04:36:38.82	341.98	40.24	-51.6	-54.7	3.7	0.00e+00	0	49	104	0	75	19747
2026-01-17 04:36:39.82	341.51	40.56	-51.6	-54.6	3.7	0.00e+00	0	48	104	0	75	19617
2026-01-17 04:36:40.81	341.04	40.89	-52.3	-55.6	3.7	0.00e+00	0	49	104	0	75	21954
2026-01-17 04:36:41.81	340.55	41.22	-52.2	-55.6	3.7	0.00e+00	0	48	104	0	75	21861
2026-01-17 04:36:42.81	340.06	41.55	-52.3	-55.7	3.7	0.00e+00	0	48	104	0	75	22126
2026-01-17 04:36:43.80	339.55	41.87	-52.3	-55.7	3.7	0.00e+00	0	48	104	0	75	22136
2026-01-17 04:36:44.80	339.04	42.20	-51.5	-54.5	3.7	0.00e+00	0	48	104	0	75	19416
2026-01-17 04:36:45.80	338.50	42.54	-51.3	-54.3	3.7	0.00e+00	0	48	104	0	74	20063
2026-01-17 04:36:46.80	337.96	42.87	-50.6	-53.5	3.7	0.00e+00	0	49	104	0	73	19311
2026-01-17 04:36:47.80	337.41	43.20	-50.6	-53.4	3.8	0.00e+00	0	48	104	0	73	19180
2026-01-17 04:36:48.79	336.85	43.53	-51.9	-55.1	3.7	0.00e+00	0	48	104	0	74	21926
2026-01-17 04:36:49.79	336.27	43.86	-51.9	-55.1	3.7	0.00e+00	0	48	104	0	74	22006
2026-01-17 04:36:50.78	335.69	44.19	-52.6	-56.0	3.7	0.00e+00	0	49	104	0	75	22954
2026-01-17 04:36:51.78	335.08	44.53	-52.5	-55.9	3.7	0.00e+00	0	49	104	0	75	22814
2026-01-17 04:36:52.77	334.47	44.86	-52.4	-55.7	3.7	0.00e+00	0	48	104	0	75	22198
2026-01-17 04:36:53.77	333.84	45.19	-52.4	-55.7	3.7	0.00e+00	0	49	104	0	75	22137
2026-01-17 04:36:54.77	333.20	45.52	-52.3	-55.5	3.7	0.00e+00	0	49	104	0	75	21813
2026-01-17 04:36:55.76	332.54	45.85	-52.2	-55.5	3.7	0.00e+00	0	49	104	0	75	21787
2026-01-17 04:36:56.76	331.87	46.18	-52.5	-55.9	3.7	0.00e+00	0	49	104	0	75	22732
2026-01-17 04:36:57.75	331.19	46.50	-52.5	-56.0	3.7	0.00e+00	0	49	104	0	75	23006
2026-01-17 04:36:58.75	330.49	46.83	-52.5	-55.9	3.7	0.00e+00	0	49	104	0	75	22644
2026-01-17 04:36:59.74	329.78	47.15	-52.5	-55.9	3.7	0.00e+00	0	49	104	0	75	22882
2026-01-17 04:37:00.74	329.04	47.47	-52.1	-55.2	3.7	0.00e+00	0	49	104	0	75	21033
2026-01-17 04:37:01.73	328.30	47.79	-51.9	-55.1	3.7	0.00e+00	0	49	104	0	75	20658
2026-01-17 04:37:02.73	327.54	48.11	-51.4	-54.4	3.7	0.00e+00	0	49	104	0	74	20248
2026-01-17 04:37:03.73	326.75	48.42	-51.5	-54.5	3.7	0.00e+00	0	49	104	0	74	20605
2026-01-17 04:37:04.73	325.96	48.74	-52.3	-55.5	3.7	0.00e+00	0	49	104	0	75	21746
2026-01-17 04:37:05.73	325.14	49.04	-52.4	-55.6	3.7	0.00e+00	0	48	104	0	75	21948
2026-01-17 04:37:06.72	324.32	49.34	-52.2	-55.4	3.7	0.00e+00	0	49	104	0	75	21427
2026-01-17 04:37:07.72	323.47	49.64	-52.2	-55.4	3.7	0.00e+00	0	49	104	0	75	21391
2026-01-17 04:37:08.72	322.60	49.94	-52.3	-55.7	3.7	0.00e+00	0	49	104	0	75	22201
2026-01-17 04:37:09.72	321.72	50.23	-52.4	-55.6	3.7	0.00e+00	0	48	104	0	75	22037
2026-01-17 04:37:10.72	320.82	50.52	-52.4	-55.6	3.7	0.00e+00	0	49	104	0	75	22036
2026-01-17 04:37:11.71	319.91	50.79	-52.4	-55.6	3.7	0.00e+00	0	49	104	0	75	22084
2026-01-17 04:37:12.71	318.98	51.07	-52.1	-55.2	3.7	0.00e+00	0	49	104	0	75	21094
2026-01-17 04:37:13.71	318.02	51.34	-51.8	-54.8	3.7	0.00e+00	0	49	104	0	75	20083
2026-01-17 04:37:14.71	317.05	51.60	-51.9	-55.0	3.7	0.00e+00	0	49	104	0	75	20473
2026-01-17 04:37:15.70	316.08	51.85	-51.9	-55.0	3.7	0.00e+00	0	49	104	0	75	20493
2026-01-17 04:37:16.70	315.07	52.09	-51.9	-55.1	3.7	0.00e+00	0	49	104	0	75	20645
2026-01-17 04:37:17.70	314.05	52.33	-52.2	-55.4	3.7	0.00e+00	0	49	104	0	75	21424
2026-01-17 04:37:18.70	313.01	52.56	-52.2	-55.6	3.7	0.00e+00	0	48	104	0	75	21863
2026-01-17 04:37:19.70	311.96	52.79	-52.2	-55.5	3.7	0.00e+00	0	49	104	0	75	21664
2026-01-17 04:37:20.70	310.88	53.00	-52.1	-55.2	3.7	0.00e+00	0	49	104	0	75	21034
2026-01-17 04:37:21.70	309.80	53.20	-52.1	-55.2	3.7	0.00e+00	0	49	104	0	75	20945
2026-01-17 04:37:22.69	308.71	53.40	-52.4	-55.6	3.7	0.00e+00	0	48	104	0	75	21977
2026-01-17 04:37:23.69	307.59	53.58	-52.3	-55.5	3.7	0.00e+00	0	48	104	0	75	21681
2026-01-17 04:37:24.69	306.46	53.76	-52.0	-55.0	3.7	0.00e+00	0	48	104	0	75	20417
2026-01-17 04:37:25.68	305.32	53.92	-52.0	-55.1	3.7	0.00e+00	0	49	104	0	75	20635
2026-01-17 04:37:26.68	304.17	54.07	-52.6	-55.9	3.7	0.00e+00	0	48	104	0	75	22767
2026-01-17 04:37:27.68	303.00	54.21	-52.6	-55.9	3.7	0.00e+00	0	49	104	0	75	22671
2026-01-17 04:37:28.68	301.81	54.34	-52.4	-55.6	3.7	0.00e+00	0	48	104	0	75	22065
2026-01-17 04:37:29.68	300.62	54.46	-52.4	-55.5	3.7	0.00e+00	0	48	104	0	75	21833
2026-01-17 04:37:30.67	299.43	54.57	-52.3	-55.5	3.7	0.00e+00	0	48	104	0	75	21733
2026-01-17 04:37:31.67	298.22	54.66	-52.3	-55.5	3.7	0.00e+00	0	48	104	0	75	21750
2026-01-17 04:37:32.67	297.01	54.74	-52.4	-55.8	3.7	0.00e+00	0	49	104	0	75	22412
2026-01-17 04:37:33.66	295.79	54.81	-52.3	-55.4	3.7	0.00e+00	0	49	104	0	75	21391
2026-01-17 04:37:34.66	294.56	54.87	-51.9	-54.9	3.7	0.00e+00	0	49	104	0	75	20290
2026-01-17 04:37:35.66	293.33	54.91	-52.4	-55.6	3.7	0.00e+00	0	48	104	0	75	21950
2026-01-17 04:37:36.66	292.09	54.94	-52.6	-56.0	3.7	0.00e+00	0	49	104	0	75	22896
2026-01-17 04:37:37.65	290.86	54.96	-52.4	-55.6	3.7	0.00e+00	0	49	104	0	75	21980
2026-01-17 04:37:38.65	289.62	54.97	-52.4	-55.6	3.7	0.00e+00	0	48	104	0	75	21944
2026-01-17 04:37:39.65	288.38	54.96	-52.6	-55.8	3.7	0.00e+00	0	48	104	0	75	22616
2026-01-17 04:37:40.65	287.14	54.94	-52.7	-56.1	3.7	0.00e+00	0	49	104	0	76	22051
2026-01-17 04:37:41.65	285.91	54.90	-52.4	-55.5	3.7	0.00e+00	0	48	104	0	76	20560
2026-01-17 04:37:42.64	284.69	54.85	-52.3	-55.5	3.7	0.00e+00	0	48	104	0	76	20415
2026-01-17 04:37:43.64	283.46	54.79	-52.3	-55.6	3.7	0.00e+00	0	48	104	0	76	20713
2026-01-17 04:37:44.64	282.23	54.72	-52.5	-55.8	3.7	0.00e+00	0	48	104	0	76	21264
2026-01-17 04:37:45.64	281.02	54.63	-52.5	-55.8	3.7	0.00e+00	0	49	104	0	76	21340
2026-01-17 04:37:46.64	279.81	54.54	-52.6	-55.9	3.6	0.00e+00	0	48	104	0	76	21421
2026-01-17 04:37:47.64	278.61	54.43	-52.6	-56.0	3.7	0.00e+00	0	49	104	0	76	21628
2026-01-17 04:37:48.64	277.42	54.30	-52.8	-56.2	3.7	0.00e+00	0	48	104	0	76	22222
2026-01-17 04:37:49.64	276.24	54.17	-52.8	-56.1	3.7	0.00e+00	0	48	104	0	76	22065
2026-01-17 04:37:50.64	275.08	54.02	-52.7	-56.1	3.7	0.00e+00	0	48	104	0	76	22091
2026-01-17 04:37:51.63	273.94	53.87	-52.6	-56.0	3.7	0.00e+00	0	48	104	0	76	21614
2026-01-17 04:37:52.63	272.79	53.70	-52.3	-55.6	3.7	0.00e+00	0	49	104	0	76	20791
2026-01-17 04:37:53.63	271.67	53.52	-52.4	-55.6	3.7	0.00e+00	0	49	104	0	76	20666
2026-01-17 04:37:54.62	270.57	53.34	-52.6	-55.8	3.7	0.00e+00	0	48	104	0	76	21310
2026-01-17 04:37:55.62	269.47	53.14	-52.7	-56.0	3.7	0.00e+00	0	49	104	0	76	21684
2026-01-17 04:37:56.61	268.40	52.93	-52.4	-55.6	3.7	0.00e+00	0	48	104	0	76	20726
2026-01-17 04:37:57.61	267.33	52.72	-52.6	-56.1	3.7	0.00e+00	0	49	104	0	76	21880
2026-01-17 04:37:58.61	266.28	52.49	-52.7	-56.2	3.7	0.00e+00	0	48	104	0	76	22140
2026-01-17 04:37:59.61	265.24	52.26	-52.5	-55.7	3.7	0.00e+00	0	48	104	0	76	21111
2026-01-17 04:38:00.60	264.24	52.02	-52.2	-55.4	3.7	0.00e+00	0	48	104	0	76	20210
2026-01-17 04:38:01.60	263.24	51.77	-52.7	-56.2	3.7	0.00e+00	0	49	104	0	76	22120
2026-01-17 04:38:02.60	262.25	51.51	-52.4	-55.8	3.7	0.00e+00	0	48	104	0	76	21195
2026-01-17 04:38:03.60	261.29	51.25	-51.7	-54.7	3.7	0.00e+00	0	49	104	0	75	19891
2026-01-17 04:38:04.59	260.35	50.98	-52.1	-55.1	3.7	0.00e+00	0	48	104	0	75	20849
2026-01-17 04:38:05.59	259.42	50.71	-52.6	-56.0	3.7	0.00e+00	0	48	104	0	75	22943
2026-01-17 04:38:06.59	258.51	50.42	-52.4	-55.8	3.7	0.00e+00	0	48	104	0	75	22446
2026-01-17 04:38:07.59	257.61	50.14	-52.4	-55.7	3.7	0.00e+00	0	49	104	0	75	22158
2026-01-17 04:38:08.59	256.73	49.84	-52.5	-55.9	3.7	0.00e+00	0	48	104	0	75	22660
2026-01-17 04:38:09.58	255.88	49.55	-52.3	-55.5	3.7	0.00e+00	0	48	104	0	75	21680
2026-01-17 04:38:10.59	255.03	49.25	-52.4	-55.6	3.7	0.00e+00	0	48	104	0	75	22051
2026-01-17 04:38:11.59	254.20	48.94	-52.7	-56.1	3.7	0.00e+00	0	49	104	0	75	23154
2026-01-17 04:38:12.59	253.39	48.63	-52.7	-56.1	3.7	0.00e+00	0	49	104	0	76	21996
2026-01-17 04:38:13.59	252.60	48.32	-52.7	-56.1	3.7	0.00e+00	0	49	104	0	76	21910
2026-01-17 04:38:14.59	251.82	48.00	-52.6	-56.0	3.7	0.00e+00	0	49	104	0	76	21643
2026-01-17 04:38:15.59	251.06	47.68	-52.7	-56.0	3.7	0.00e+00	0	48	104	0	76	21704
2026-01-17 04:38:16.59	250.32	47.36	-52.6	-56.0	3.7	0.00e+00	0	49	104	0	76	21661
2026-01-17 04:38:17.59	249.59	47.04	-52.6	-56.0	3.7	0.00e+00	0	49	104	0	76	21716
2026-01-17 04:38:18.58	248.88	46.71	-52.6	-55.9	3.7	0.00e+00	0	48	104	0	76	21559
2026-01-17 04:38:19.58	248.18	46.39	-52.4	-55.7	3.7	0.00e+00	0	48	104	0	76	21065
2026-01-17 04:38:20.58	247.50	46.06	-52.5	-55.9	3.7	0.00e+00	0	48	104	0	76	21374
2026-01-17 04:38:21.58	246.83	45.73	-52.5	-55.9	3.7	0.00e+00	0	48	104	0	76	21498
2026-01-17 04:38:22.58	246.18	45.40	-52.5	-55.9	3.7	0.00e+00	0	49	104	0	76	21458
2026-01-17 04:38:23.57	245.54	45.07	-52.6	-55.9	3.7	0.00e+00	0	48	104	0	76	21471
2026-01-17 04:38:24.57	244.92	44.73	-52.7	-56.1	3.7	0.00e+00	0	48	104	0	76	21982
2026-01-17 04:38:25.57	244.30	44.40	-52.6	-56.0	3.7	0.00e+00	0	48	104	0	76	21839
2026-01-17 04:38:26.56	243.71	44.07	-52.5	-55.9	3.7	0.00e+00	0	49	104	0	76	21514
2026-01-17 04:38:27.56	243.12	43.74	-52.4	-55.7	3.7	0.00e+00	0	49	104	0	76	21073
2026-01-17 04:38:28.56	242.55	43.40	-52.4	-55.7	3.7	0.00e+00	0	49	104	0	76	21097
2026-01-17 04:38:29.56	241.99	43.07	-52.6	-56.0	3.7	0.00e+00	0	49	104	0	76	21751
2026-01-17 04:38:30.55	241.44	42.74	-52.6	-55.9	3.7	0.00e+00	0	49	104	0	76	21560
2026-01-17 04:38:31.55	240.90	42.41	-52.6	-55.9	3.7	0.00e+00	0	48	104	0	76	21471
2026-01-17 04:38:32.55	240.38	42.07	-52.8	-56.2	3.7	0.00e+00	0	48	104	0	76	22354
2026-01-17 04:38:33.54	239.87	41.75	-52.7	-56.1	3.7	0.00e+00	0	49	104	0	76	22070
2026-01-17 04:38:34.54	239.36	41.41	-52.7	-56.2	3.7	0.00e+00	0	48	104	0	76	22148
2026-01-17 04:38:35.54	238.87	41.09	-52.6	-56.1	3.7	0.00e+00	0	49	104	0	76	22074
2026-01-17 04:38:36.54	238.38	40.76	-52.6	-56.1	3.7	0.00e+00	0	49	104	0	76	22061
2026-01-17 04:38:37.53	237.91	40.43	-52.7	-56.2	3.7	0.00e+00	0	48	104	0	76	22155
2026-01-17 04:38:38.53	237.45	40.11	-52.7	-56.2	3.7	0.00e+00	0	48	104	0	76	22200
2026-01-17 04:38:39.53	237.00	39.78	-52.7	-56.2	3.7	0.00e+00	0	49	104	0	76	22207
2026-01-17 04:38:40.52	236.56	39.46	-52.8	-56.2	3.7	0.00e+00	0	48	104	0	76	22315
2026-01-17 04:38:41.52	236.12	39.14	-52.6	-56.0	3.7	0.00e+00	0	48	104	0	76	21707
2026-01-17 04:38:42.51	235.70	38.83	-52.6	-55.9	3.7	0.00e+00	0	48	104	0	76	21578
2026-01-17 04:38:43.52	235.28	38.50	-52.5	-55.8	3.7	0.00e+00	0	49	104	0	76	21284
2026-01-17 04:38:44.51	234.87	38.19	-52.2	-55.5	3.7	0.00e+00	0	48	104	0	76	20601
2026-01-17 04:38:45.51	234.47	37.88	-52.1	-55.4	3.7	0.00e+00	0	48	104	0	76	20226
2026-01-17 04:38:46.51	234.08	37.56	-52.3	-55.6	3.7	0.00e+00	0	48	104	0	76	20852
2026-01-17 04:38:47.51	233.69	37.25	-52.4	-55.8	3.7	0.00e+00	0	48	104	0	76	21231
2026-01-17 04:38:48.51	233.32	36.94	-52.7	-56.2	3.7	0.00e+00	0	48	104	0	76	22183
2026-01-17 04:38:49.51	232.95	36.64	-52.7	-56.3	3.7	0.00e+00	0	49	104	0	76	22382
2026-01-17 04:38:50.50	232.59	36.33	-52.6	-56.0	3.7	0.00e+00	0	49	104	0	76	21809
2026-01-17 04:38:51.50	232.23	36.03	-52.6	-56.0	3.7	0.00e+00	0	49	104	0	76	21641
2026-01-17 04:38:52.49	231.89	35.73	-52.6	-56.0	3.7	0.00e+00	0	48	104	0	76	21659
2026-01-17 04:38:53.49	231.54	35.44	-52.4	-55.8	3.7	0.00e+00	0	48	104	0	76	21246
2026-01-17 04:38:54.49	231.21	35.14	-52.3	-55.7	3.7	0.00e+00	0	48	104	0	76	21054
2026-01-17 04:38:55.49	230.88	34.84	-52.3	-55.7	3.7	0.00e+00	0	49	104	0	76	20984
2026-01-17 04:38:56.48	230.56	34.56	-52.2	-55.5	3.7	0.00e+00	0	48	104	0	76	20417
2026-01-17 04:38:57.48	230.24	34.27	-52.2	-55.6	3.7	0.00e+00	0	48	104	0	76	20672
2026-01-17 04:38:58.48	229.93	33.98	-52.3	-55.7	3.7	0.00e+00	0	49	104	0	76	21062
2026-01-17 04:38:59.48	229.63	33.69	-52.3	-55.7	3.7	0.00e+00	0	49	104	0	76	20911
2026-01-17 04:39:00.47	229.33	33.41	-52.3	-56.0	3.7	0.00e+00	0	48	104	0	76	21621
2026-01-17 04:39:01.47	229.04	33.13	-52.2	-55.9	3.7	0.00e+00	0	48	104	0	76	21565
2026-01-17 04:39:02.47	228.75	32.85	-52.1	-55.7	3.7	0.00e+00	0	48	104	0	76	21077
2026-01-17 04:39:03.46	228.47	32.58	-52.1	-55.8	3.7	0.00e+00	0	49	104	0	76	21283
2026-01-17 04:39:04.46	228.19	32.30	-52.2	-55.7	3.7	0.00e+00	0	48	104	0	76	20875
2026-01-17 04:39:05.46	227.92	32.03	-52.2	-55.7	3.7	0.00e+00	0	48	104	0	76	21036
2026-01-17 04:39:06.46	227.65	31.76	-52.5	-55.9	3.7	0.00e+00	0	49	104	0	76	21531
2026-01-17 04:39:07.45	227.39	31.49	-52.5	-55.8	3.7	0.00e+00	0	49	104	0	76	21233
2026-01-17 04:39:08.45	227.13	31.23	-52.6	-56.0	3.7	0.00e+00	0	48	104	0	76	21691
2026-01-17 04:39:09.44	226.88	30.97	-52.6	-55.9	3.7	0.00e+00	0	49	104	0	76	21603
2026-01-17 04:39:10.44	226.63	30.71	-52.6	-56.0	3.7	0.00e+00	0	48	104	0	76	21708
2026-01-17 04:39:11.44	226.38	30.45	-52.6	-55.9	3.7	0.00e+00	0	48	104	0	76	21524
2026-01-17 04:39:12.44	226.14	30.19	-52.6	-56.1	3.7	0.00e+00	0	49	104	0	76	22033
2026-01-17 04:39:13.43	225.91	29.94	-52.6	-56.1	3.7	0.00e+00	0	49	104	0	76	22049
2026-01-17 04:39:14.43	225.68	29.69	-52.6	-56.2	3.7	0.00e+00	0	48	104	0	76	22204
2026-01-17 04:39:15.43	225.45	29.43	-52.6	-56.1	3.7	0.00e+00	0	48	104	0	76	22095
2026-01-17 04:39:16.42	225.22	29.19	-52.6	-56.1	3.7	0.00e+00	0	49	104	0	76	22037
2026-01-17 04:39:17.42	225.00	28.94	-52.6	-56.0	3.7	0.00e+00	0	48	104	0	76	21786
2026-01-17 04:39:18.42	224.79	28.70	-52.5	-56.1	3.7	0.00e+00	0	49	104	0	76	21902
2026-01-17 04:39:19.42	224.57	28.46	-52.6	-56.1	3.7	0.00e+00	0	48	104	0	76	21924
2026-01-17 04:39:20.42	224.36	28.22	-52.5	-55.9	3.7	0.00e+00	0	48	104	0	76	21489
2026-01-17 04:39:21.42	224.15	27.98	-52.6	-56.1	3.7	0.00e+00	0	49	104	0	76	21921
2026-01-17 04:39:22.41	223.95	27.74	-52.6	-56.0	3.7	0.00e+00	0	48	104	0	76	21713
2026-01-17 04:39:23.41	223.75	27.51	-52.5	-56.0	3.7	0.00e+00	0	48	104	0	76	21640
2026-01-17 04:39:24.41	223.55	27.28	-52.4	-55.8	3.7	0.00e+00	0	49	104	0	76	21184
2026-01-17 04:39:25.41	223.36	27.05	-52.2	-55.4	3.7	0.00e+00	0	48	104	0	76	20344
2026-01-17 04:39:26.40	223.17	26.82	-52.2	-55.5	3.7	0.00e+00	0	49	104	0	76	20522
2026-01-17 04:39:27.40	222.98	26.60	-52.3	-55.5	3.7	0.00e+00	0	48	104	0	76	20498
2026-01-17 04:39:28.40	222.80	26.37	-52.3	-55.6	3.7	0.00e+00	0	48	104	0	76	20753
2026-01-17 04:39:29.40	222.61	26.15	-52.4	-55.8	3.7	0.00e+00	0	49	104	0	76	21228
2026-01-17 04:39:30.40	222.44	25.93	-52.6	-56.1	3.7	0.00e+00	0	48	104	0	76	21857
2026-01-17 04:39:31.39	222.26	25.72	-52.5	-55.9	3.7	0.00e+00	0	49	104	0	76	21454
2026-01-17 04:39:32.39	222.09	25.50	-52.5	-56.1	3.7	0.00e+00	0	49	104	0	76	21878
2026-01-17 04:39:33.39	221.91	25.28	-52.5	-56.1	3.7	0.00e+00	0	49	104	0	76	21935
2026-01-17 04:39:34.38	221.75	25.07	-52.4	-56.0	3.7	0.00e+00	0	48	104	0	76	21671
2026-01-17 04:39:35.38	221.58	24.86	-52.5	-55.9	3.7	0.00e+00	0	48	104	0	76	21578
2026-01-17 04:39:36.38	221.42	24.65	-52.4	-55.8	3.7	0.00e+00	0	48	104	0	76	21214
2026-01-17 04:39:37.38	221.26	24.45	-52.3	-55.7	3.7	0.00e+00	0	48	104	0	76	21085
2026-01-17 04:39:38.37	221.10	24.24	-52.2	-55.6	3.7	0.00e+00	0	49	104	0	76	20736
2026-01-17 04:39:39.37	220.94	24.04	-52.3	-55.8	3.7	0.00e+00	0	49	104	0	76	21116
2026-01-17 04:39:40.37	220.79	23.84	-52.2	-55.6	3.7	0.00e+00	0	48	104	0	76	20665
2026-01-17 04:39:41.36	220.64	23.64	-52.2	-55.4	3.7	0.00e+00	0	49	104	0	76	20307
2026-01-17 04:39:42.36	220.49	23.44	-52.1	-55.4	3.7	0.00e+00	0	48	104	0	76	20286
2026-01-17 04:39:43.36	220.34	23.24	-52.2	-55.5	3.7	0.00e+00	0	49	104	0	76	20591
2026-01-17 04:39:44.36	220.19	23.05	-52.1	-55.4	3.7	0.00e+00	0	49	104	0	76	20313
2026-01-17 04:39:45.36	220.05	22.85	-52.2	-55.4	3.7	0.00e+00	0	49	104	0	76	20166
2026-01-17 04:39:46.35	219.91	22.66	-52.1	-55.2	3.7	0.00e+00	0	48	104	0	76	19860
2026-01-17 04:39:47.35	219.77	22.47	-52.1	-55.3	3.7	0.00e+00	0	49	104	0	76	20152
2026-01-17 04:39:48.35	219.63	22.28	-52.1	-55.2	3.7	0.00e+00	0	49	104	0	76	19881
2026-01-17 04:39:49.34	219.50	22.10	-52.2	-55.5	3.7	0.00e+00	0	49	104	0	76	20590
2026-01-17 04:39:50.34	219.36	21.91	-52.1	-55.4	3.7	0.00e+00	0	49	104	0	76	20301
2026-01-17 04:39:51.34	219.23	21.73	-52.1	-55.3	3.7	0.00e+00	0	49	104	0	76	20138
2026-01-17 04:39:52.34	219.10	21.54	-52.1	-55.4	3.7	0.00e+00	0	48	104	0	76	20238
2026-01-17 04:39:53.33	218.97	21.36	-51.8	-55.1	3.7	0.00e+00	0	49	104	0	75	20733
2026-01-17 04:39:54.33	218.84	21.18	-52.0	-55.3	3.7	0.00e+00	0	49	104	0	75	21117
2026-01-17 04:39:55.33	218.72	21.01	-51.9	-55.1	3.7	0.00e+00	0	48	104	0	75	20763
2026-01-17 04:39:56.32	218.60	20.83	-52.1	-55.5	3.7	0.00e+00	0	48	104	0	75	21623
2026-01-17 04:39:57.32	218.47	20.65	-52.1	-55.3	3.7	0.00e+00	0	48	104	0	75	21262
2026-01-17 04:39:58.32	218.35	20.48	-52.3	-55.7	3.7	0.00e+00	0	48	104	0	75	22202
2026-01-17 04:39:59.33	218.23	20.31	-52.1	-55.4	3.7	0.00e+00	0	48	104	0	75	21544
2026-01-17 04:40:00.32	218.12	20.14	-52.2	-55.7	3.7	0.00e+00	0	48	104	0	75	22151
2026-01-17 04:40:01.32	218.00	19.97	-52.0	-55.4	3.7	0.00e+00	0	48	104	0	75	21558
2026-01-17 04:40:02.32	217.89	19.80	-51.9	-55.2	3.7	0.00e+00	0	49	104	0	75	21043
2026-01-17 04:40:03.32	217.77	19.63	-52.2	-55.6	3.7	0.00e+00	0	48	104	0	75	21878
2026-01-17 04:40:04.31	217.66	19.46	-51.9	-55.2	3.7	0.00e+00	0	49	104	0	75	20933
2026-01-17 04:40:05.31	217.55	19.30	-51.8	-55.1	3.7	0.00e+00	0	48	104	0	75	20698
2026-01-17 04:40:06.30	217.45	19.14	-51.9	-55.1	3.7	0.00e+00	0	49	104	0	75	20794
2026-01-17 04:40:07.30	217.34	18.98	-51.8	-55.1	3.7	0.00e+00	0	48	104	0	75	20799
2026-01-17 04:40:08.30	217.23	18.81	-51.8	-55.0	3.7	0.00e+00	0	49	104	0	75	20507
2026-01-17 04:40:09.30	217.13	18.65	-51.8	-54.9	3.7	0.00e+00	0	48	104	0	75	20383
2026-01-17 04:40:10.30	217.03	18.50	-51.6	-54.7	3.7	0.00e+00	0	48	104	0	75	19799
2026-01-17 04:40:11.29	216.92	18.34	-51.8	-55.0	3.7	0.00e+00	0	48	104	0	75	20430
2026-01-17 04:40:12.29	216.82	18.18	-51.6	-54.8	3.7	0.00e+00	0	48	104	0	75	20006
2026-01-17 04:40:13.28	216.72	18.03	-51.7	-54.8	3.7	0.00e+00	0	48	104	0	75	20067
2026-01-17 04:40:14.28	216.63	17.88	-51.9	-55.1	3.7	0.00e+00	0	48	104	0	75	20727
2026-01-17 04:40:15.28	216.53	17.72	-51.6	-54.7	3.7	0.00e+00	0	48	104	0	75	19894
2026-01-17 04:40:16.27	216.43	17.57	-51.9	-55.1	3.7	0.00e+00	0	48	104	0	75	20832
2026-01-17 04:40:17.27	216.34	17.42	-51.8	-55.1	3.7	0.00e+00	0	48	104	0	75	20667
2026-01-17 04:40:18.27	216.24	17.27	-51.8	-55.1	3.7	0.00e+00	0	48	104	0	75	20679
2026-01-17 04:40:19.27	216.15	17.12	-51.9	-55.1	3.7	0.00e+00	0	48	104	0	75	20774
2026-01-17 04:40:20.26	216.06	16.98	-51.8	-54.9	3.7	0.00e+00	0	48	104	0	75	20373
2026-01-17 04:40:21.26	215.97	16.83	-51.8	-55.0	3.7	0.00e+00	0	48	104	0	75	20462
2026-01-17 04:40:22.25	215.88	16.69	-51.7	-54.9	3.7	0.00e+00	0	48	104	0	75	20173
2026-01-17 04:40:23.25	215.79	16.54	-51.8	-54.9	3.7	0.00e+00	0	48	104	0	75	20371
2026-01-17 04:40:24.25	215.70	16.40	-51.8	-54.9	3.7	0.00e+00	0	49	104	0	75	20303
2026-01-17 04:40:25.25	215.62	16.26	-51.5	-54.5	3.7	0.00e+00	0	49	104	0	75	19436
2026-01-17 04:40:26.25	215.53	16.12	-51.8	-54.9	3.7	0.00e+00	0	48	104	0	75	20238
2026-01-17 04:40:27.25	215.45	15.98	-51.7	-54.8	3.7	0.00e+00	0	49	104	0	75	20020
2026-01-17 04:40:28.25	215.36	15.84	-51.8	-55.0	3.7	0.00e+00	0	49	104	0	75	20527
2026-01-17 04:40:29.25	215.28	15.70	-51.8	-54.9	3.7	0.00e+00	0	49	104	0	75	20168
2026-01-17 04:40:30.24	215.20	15.56	-51.9	-55.2	3.7	0.00e+00	0	49	104	0	75	20894
2026-01-17 04:40:31.24	215.12	15.43	-51.8	-54.9	3.7	0.00e+00	0	48	104	0	75	20355
2026-01-17 04:40:32.24	215.04	15.29	-52.0	-55.4	3.7	0.00e+00	0	48	104	0	75	21392
2026-01-17 04:40:33.24	214.96	15.15	-51.7	-54.9	3.7	0.00e+00	0	48	104	0	75	20265
2026-01-17 04:40:34.24	214.88	15.02	-52.0	-55.2	3.7	0.00e+00	0	48	104	0	75	21039
2026-01-17 04:40:35.24	214.80	14.89	-51.9	-55.2	3.7	0.00e+00	0	48	104	0	75	20908
2026-01-17 04:40:36.23	214.73	14.76	-52.0	-55.3	3.7	0.00e+00	0	49	104	0	75	21330
2026-01-17 04:40:37.23	214.65	14.63	-51.9	-55.2	3.7	0.00e+00	0	48	104	0	75	20911
2026-01-17 04:40:38.23	214.58	14.50	-51.9	-55.1	3.7	0.00e+00	0	48	104	0	75	20809
2026-01-17 04:40:39.23	214.50	14.37	-52.0	-55.2	3.7	0.00e+00	0	48	104	0	75	21063
2026-01-17 04:40:40.23	214.43	14.24	-51.7	-55.0	3.7	0.00e+00	0	49	104	0	75	20538
2026-01-17 04:40:41.23	214.36	14.11	-52.0	-55.3	3.7	0.00e+00	0	49	104	0	75	21248
2026-01-17 04:40:42.23	214.29	13.98	-51.8	-55.0	3.7	0.00e+00	0	48	104	0	75	20595
2026-01-17 04:40:43.22	214.22	13.86	-51.9	-55.1	3.7	0.00e+00	0	48	104	0	75	20872
2026-01-17 04:40:44.23	214.14	13.73	-51.5	-54.8	3.7	0.00e+00	0	48	104	0	74	21137
2026-01-17 04:40:45.23	214.07	13.61	-51.9	-55.2	3.7	0.00e+00	0	49	104	0	74	22166
2026-01-17 04:40:46.22	214.01	13.49	-51.7	-55.0	3.7	0.00e+00	0	49	104	0	74	21824
2026-01-17 04:40:47.22	213.94	13.36	-51.7	-55.0	3.7	0.00e+00	0	48	104	0	74	21748
2026-01-17 04:40:48.22	213.87	13.24	-51.6	-55.0	3.7	0.00e+00	0	48	104	0	74	21715
2026-01-17 04:40:49.22	213.80	13.12	-51.8	-55.1	3.7	0.00e+00	0	48	104	0	74	21984
2026-01-17 04:40:50.22	213.74	13.00	-51.6	-54.8	3.7	0.00e+00	0	48	104	0	74	21130
2026-01-17 04:40:51.21	213.67	12.88	-51.7	-55.0	3.7	0.00e+00	0	49	104	0	74	21811
2026-01-17 04:40:52.21	213.61	12.76	-51.6	-55.0	3.7	0.00e+00	0	49	104	0	74	21689
2026-01-17 04:40:53.21	213.54	12.64	-51.7	-54.9	3.7	0.00e+00	0	49	104	0	74	21483
2026-01-17 04:40:54.20	213.48	12.53	-51.6	-54.9	3.7	0.00e+00	0	48	104	0	74	21390
2026-01-17 04:40:55.20	213.42	12.41	-51.6	-54.9	3.7	0.00e+00	0	49	104	0	74	21374
2026-01-17 04:40:56.19	213.36	12.29	-51.6	-54.8	3.7	0.00e+00	0	49	104	0	74	21221
2026-01-17 04:40:57.20	213.29	12.18	-51.6	-54.8	3.7	0.00e+00	0	49	104	0	74	21325
2026-01-17 04:40:58.19	213.23	12.06	-51.8	-55.3	3.7	0.00e+00	0	49	104	0	74	22378
2026-01-17 04:40:59.19	213.17	11.95	-51.6	-54.8	3.7	0.00e+00	0	49	104	0	74	21280
2026-01-17 04:41:00.19	213.11	11.84	-51.9	-55.3	3.7	0.00e+00	0	48	104	0	74	22491
2026-01-17 04:41:01.19	213.05	11.72	-51.6	-55.2	3.7	0.00e+00	0	49	104	0	74	22161
2026-01-17 04:41:02.18	212.99	11.61	-51.7	-55.4	3.7	0.00e+00	0	48	104	0	74	22794
2026-01-17 04:41:03.18	212.94	11.50	-51.8	-55.2	3.7	0.00e+00	0	48	104	0	74	22257
2026-01-17 04:41:04.18	212.88	11.39	-51.9	-55.4	3.7	0.00e+00	0	49	104	0	74	22833
2026-01-17 04:41:05.18	212.82	11.28	-51.4	-55.3	3.7	0.00e+00	0	48	104	0	74	22380
2026-01-17 04:41:06.18	212.77	11.17	-51.3	-55.4	3.7	0.00e+00	0	49	104	0	74	22734
2026-01-17 04:41:07.18	212.71	11.06	-51.7	-55.3	3.7	0.00e+00	0	48	104	0	74	22509
2026-01-17 04:41:08.17	212.65	10.95	-51.7	-55.6	3.7	0.00e+00	0	48	104	0	74	23241
2026-01-17 04:41:09.17	212.60	10.85	-51.4	-55.4	3.7	0.00e+00	0	49	104	0	74	22798
2026-01-17 04:41:10.17	212.54	10.74	-51.4	-55.3	3.7	0.00e+00	0	49	104	0	74	22455
2026-01-17 04:41:11.17	212.49	10.63	-51.5	-55.5	3.7	0.00e+00	0	49	104	0	74	22976
2026-01-17 04:41:12.16	212.44	10.53	-51.3	-55.1	3.7	0.00e+00	0	48	104	0	74	22101
2026-01-17 04:41:13.16	212.38	10.42	-51.6	-55.4	3.7	0.00e+00	0	48	104	0	74	22873
2026-01-17 04:41:14.17	212.33	10.32	-51.4	-55.0	3.7	0.00e+00	0	48	104	0	74	21769
2026-01-17 04:41:15.16	212.28	10.21	-51.3	-55.3	3.7	0.00e+00	0	48	104	0	74	22390
2026-01-17 04:41:16.16	212.23	10.11	-51.2	-55.0	3.7	0.00e+00	0	49	104	0	74	21650
2026-01-17 04:41:17.15	212.18	10.01	-51.6	-55.2	3.7	0.00e+00	0	49	104	0	74	22244
2026-01-17 04:41:18.15	212.13	9.90	-51.7	-55.2	3.7	0.00e+00	0	48	104	0	74	22162
2026-01-17 04:41:19.15	212.08	9.80	-51.3	-55.2	3.7	0.00e+00	0	48	104	0	74	22194
2026-01-17 04:41:20.15	212.03	9.70	-51.3	-54.7	3.7	0.00e+00	0	48	104	0	74	20985
2026-01-17 04:41:21.15	211.98	9.60	-51.6	-55.0	3.7	0.00e+00	0	48	104	0	74	21626
2026-01-17 04:41:22.15	211.93	9.50	-51.6	-54.8	3.7	0.00e+00	0	48	104	0	74	21318
2026-01-17 04:41:23.15	211.88	9.40	-51.5	-55.0	3.7	0.00e+00	0	48	104	0	74	21830
2026-01-17 04:41:24.15	211.83	9.30	-51.6	-55.0	3.7	0.00e+00	0	48	104	0	74	21710
2026-01-17 04:41:25.14	211.79	9.20	-51.5	-54.8	3.7	0.00e+00	0	48	104	0	74	21147
2026-01-17 04:41:26.14	211.74	9.10	-51.2	-54.3	3.7	0.00e+00	0	48	104	0	74	20024
2026-01-17 04:41:27.14	211.69	9.00	-51.7	-55.1	3.7	0.00e+00	0	48	104	0	74	22004
2026-01-17 04:41:28.13	211.65	8.91	-51.4	-55.5	3.7	0.00e+00	0	48	104	0	74	22920
2026-01-17 04:41:29.13	211.60	8.81	-52.2	-55.5	3.6	0.00e+00	0	49	104	0	74	23030
2026-01-17 04:41:30.13	211.55	8.71	-51.9	-55.2	3.7	0.00e+00	0	48	104	0	74	22161
2026-01-17 04:41:31.12	211.51	8.62	-52.1	-55.4	3.7	0.00e+00	0	48	104	0	75	21469
2026-01-17 04:41:32.12	211.47	8.52	-52.3	-55.7	3.7	0.00e+00	0	48	104	0	75	22251
2026-01-17 04:41:33.12	211.42	8.43	-52.5	-55.8	3.7	0.00e+00	0	48	104	0	75	22425
2026-01-17 04:41:34.12	211.38	8.33	-52.9	-56.4	3.7	0.00e+00	0	48	104	0	76	22792
2026-01-17 04:41:35.12	211.33	8.24	-52.9	-56.3	3.7	0.00e+00	0	48	104	0	76	22407
2026-01-17 04:41:36.11	211.29	8.15	-52.5	-55.8	3.7	0.00e+00	0	48	104	0	76	21295
2026-01-17 04:41:37.11	211.25	8.05	-52.7	-56.1	3.7	0.00e+00	0	48	104	0	76	21954
2026-01-17 04:41:38.10	211.21	7.96	-52.0	-55.2	3.7	0.00e+00	0	49	104	0	76	19711
2026-01-17 04:41:39.10	211.16	7.87	-52.9	-56.3	3.7	0.00e+00	0	48	104	0	76	22590
2026-01-17 04:41:40.10	211.12	7.78	-52.9	-56.2	3.7	0.00e+00	0	48	104	0	76	22207
2026-01-17 04:41:41.09	211.08	7.69	-52.5	-55.8	3.7	0.00e+00	0	49	104	0	76	21275
2026-01-17 04:41:42.09	211.04	7.60	-52.8	-56.1	3.7	0.00e+00	0	49	104	0	76	21892
2026-01-17 04:41:43.09	211.00	7.50	-52.9	-56.3	3.7	0.00e+00	0	48	104	0	76	22394
2026-01-17 04:41:44.09	210.96	7.41	-52.4	-55.6	3.7	0.00e+00	0	49	104	0	76	20836
2026-01-17 04:41:45.08	210.92	7.32	-52.1	-55.1	3.7	0.00e+00	0	49	104	0	75	20868
2026-01-17 04:41:46.08	210.88	7.24	-51.6	-54.4	3.7	0.00e+00	0	49	104	0	75	19248
2026-01-17 04:41:47.08	210.84	7.15	-52.3	-55.6	3.7	0.00e+00	0	49	104	0	75	21950
2026-01-17 04:41:48.07	210.80	7.06	-51.8	-54.9	3.7	0.00e+00	0	49	104	0	75	20188
2026-01-17 04:41:49.07	210.76	6.97	-51.8	-54.9	3.7	0.00e+00	0	48	104	0	75	20265
2026-01-17 04:41:50.07	210.72	6.88	-51.8	-54.9	3.7	0.00e+00	0	48	104	0	75	20229
2026-01-17 04:41:51.07	210.68	6.79	-51.8	-54.9	3.7	0.00e+00	0	48	104	0	75	20166
2026-01-17 04:41:52.07	210.65	6.71	-51.8	-54.8	3.7	0.00e+00	0	49	104	0	75	20126
2026-01-17 04:41:53.07	210.61	6.62	-51.8	-54.9	3.7	0.00e+00	0	48	104	0	75	20172
2026-01-17 04:41:54.07	210.57	6.53	-51.8	-54.8	3.7	0.00e+00	0	48	104	0	75	20145
2026-01-17 04:41:55.06	210.53	6.45	-51.8	-54.9	3.7	0.00e+00	0	48	104	0	75	20203
2026-01-17 04:41:56.06	210.50	6.36	-51.8	-54.9	3.7	0.00e+00	0	48	104	0	75	20210
2026-01-17 04:41:57.06	210.46	6.28	-51.8	-54.9	3.7	0.00e+00	0	48	104	0	75	20258
2026-01-17 04:41:58.06	210.43	6.19	-51.8	-54.9	3.7	0.00e+00	0	48	104	0	75	20172
2026-01-17 04:41:59.06	210.39	6.11	-51.8	-54.9	3.7	0.00e+00	0	48	104	0	75	20353
2026-01-17 04:42:00.06	210.35	6.02	-51.8	-54.8	3.7	0.00e+00	0	49	104	0	75	20075
2026-01-17 04:42:01.06	210.32	5.94	-51.8	-54.9	3.7	0.00e+00	0	48	104	0	75	20233
2026-01-17 04:42:02.05	210.28	5.86	-51.8	-54.8	3.7	0.00e+00	0	48	104	0	75	20056
2026-01-17 04:42:03.05	210.25	5.78	-51.8	-54.9	3.7	0.00e+00	0	48	104	0	75	20258
2026-01-17 04:42:04.05	210.21	5.69	-51.8	-54.9	3.7	0.00e+00	0	48	104	0	75	20199
2026-01-17 04:42:05.05	210.18	5.61	-51.8	-54.9	3.7	0.00e+00	0	49	104	0	75	20184
2026-01-17 04:42:06.04	210.15	5.53	-51.8	-54.9	3.7	0.00e+00	0	49	104	0	75	20239
2026-01-17 04:42:07.04	210.11	5.45	-51.8	-54.9	3.7	0.00e+00	0	48	104	0	75	20333
2026-01-17 04:42:08.04	210.08	5.37	-51.8	-54.9	3.7	0.00e+00	0	48	104	0	75	20224
2026-01-17 04:42:09.04	210.05	5.28	-51.8	-54.9	3.7	0.00e+00	0	48	104	0	75	20279
2026-01-17 04:42:10.04	210.01	5.20	-51.8	-54.9	3.7	0.00e+00	0	48	104	0	75	20164
2026-01-17 04:42:11.03	209.98	5.12	-51.8	-54.9	3.7	0.00e+00	0	48	104	0	75	20244
2026-01-17 04:42:12.03	209.95	5.04	-51.8	-54.8	3.7	0.00e+00	0	49	104	0	75	20150
2026-01-17 04:42:13.02	209.92	4.96	-51.8	-54.9	3.7	0.00e+00	0	48	104	0	75	20166

#Closed at: 2026-01-17 04:42:14
#Recorded file [0 MB]: D:/Data/31040_260117_073305.dat