passes_logs/2026/01/17/T1/T1__20260117_082004_NOAA_21_JPSS-2_rec.log

#Pass ID: 20260117_082004_NOAA 21 (JPSS-2)
#Satellite: NOAA 21 (JPSS-2)
#Configuration: NOAA 21
#almurnet v.1.7.20251203
#Start time: 2026-01-17 08:20:03

#Version: 2.0.20230620
#Station: T1
#Location: 37.570604 lon 55.790049 lat
#TLE: 1 54234U 22150A   26016.21096038  .00000027  00000+0  33607-4 0  9993
#TLE: 2 54234  98.7500 317.0960 0000625 282.3388  77.7718 14.19534911164985

#Time	Az	El	Level	Level2	SNR	BER	BlckErr	Temp	State	Recorded	gain1	gain2
2026-01-17 08:20:03.72	109.81	4.98	-49.9	-62.9	3.8	1.49e+00	0	39	0	0	71	16113
2026-01-17 08:20:04.71	109.73	5.04	-49.9	-62.9	3.8	1.49e+00	0	39	104	0	71	16037
2026-01-17 08:20:05.70	109.65	5.10	-49.8	-62.9	3.8	1.49e+00	0	40	104	0	71	16002
2026-01-17 08:20:06.70	109.57	5.16	-49.9	-62.9	3.8	1.49e+00	0	40	104	0	71	16087
2026-01-17 08:20:07.69	109.49	5.22	-49.9	-62.9	3.8	1.49e+00	0	40	104	0	71	16052
2026-01-17 08:20:08.68	109.41	5.28	-49.9	-62.9	3.8	1.49e+00	0	39	104	0	71	16062
2026-01-17 08:20:09.67	109.33	5.34	-49.9	-62.9	3.8	1.49e+00	0	39	104	0	71	16109
2026-01-17 08:20:10.67	109.25	5.41	-49.8	-62.9	3.8	1.49e+00	0	40	104	0	71	16026
2026-01-17 08:20:11.66	109.17	5.47	-49.9	-62.9	3.8	1.49e+00	0	39	104	0	71	16086
2026-01-17 08:20:12.65	109.09	5.53	-49.8	-63.0	3.8	1.49e+00	0	39	104	0	71	16146
2026-01-17 08:20:13.65	109.00	5.59	-49.8	-62.9	3.8	1.49e+00	0	40	104	0	71	16102
2026-01-17 08:20:14.64	108.92	5.65	-49.9	-62.9	3.8	1.49e+00	0	40	104	0	71	16019
2026-01-17 08:20:15.64	108.84	5.71	-49.8	-62.9	3.8	1.49e+00	0	40	104	0	71	16045
2026-01-17 08:20:16.63	108.75	5.77	-49.8	-62.9	3.8	1.49e+00	0	40	104	0	71	16039
2026-01-17 08:20:17.62	108.67	5.84	-49.9	-62.9	3.8	1.49e+00	0	40	104	0	71	15946
2026-01-17 08:20:18.62	108.59	5.90	-49.8	-62.8	3.8	1.49e+00	0	40	104	0	71	15893
2026-01-17 08:20:19.61	108.50	5.96	-49.9	-62.8	3.8	1.49e+00	0	40	104	0	71	15873
2026-01-17 08:20:20.60	108.42	6.02	-49.8	-62.7	3.8	1.49e+00	0	40	104	0	71	15730
2026-01-17 08:20:21.60	108.33	6.08	-49.8	-62.7	3.8	1.49e+00	0	40	104	0	71	15624
2026-01-17 08:20:22.59	108.25	6.15	-49.9	-62.7	3.8	1.49e+00	0	40	104	0	71	15601
2026-01-17 08:20:23.58	108.16	6.21	-49.8	-62.6	3.8	1.49e+00	0	40	104	0	71	15564
2026-01-17 08:20:24.58	108.07	6.27	-49.8	-62.7	3.8	1.49e+00	0	40	104	0	71	15656
2026-01-17 08:20:25.57	107.99	6.33	-49.9	-62.7	3.8	1.49e+00	0	40	104	0	71	15669
2026-01-17 08:20:26.56	107.90	6.40	-49.9	-62.7	3.8	1.49e+00	0	40	104	0	71	15658
2026-01-17 08:20:27.56	107.81	6.46	-49.9	-62.7	3.8	1.49e+00	0	40	104	0	71	15684
2026-01-17 08:20:28.55	107.72	6.52	-49.8	-62.7	3.8	1.49e+00	0	40	104	0	71	15694
2026-01-17 08:20:29.55	107.64	6.58	-49.9	-62.7	3.8	1.49e+00	0	40	104	0	71	15630
2026-01-17 08:20:30.54	107.55	6.65	-49.9	-62.7	3.8	1.49e+00	0	40	104	0	71	15591
2026-01-17 08:20:31.53	107.46	6.71	-49.8	-62.6	3.8	1.49e+00	0	40	104	0	71	15464
2026-01-17 08:20:32.53	107.37	6.77	-49.8	-62.5	3.8	1.49e+00	0	40	104	0	71	15266
2026-01-17 08:20:33.52	107.28	6.84	-49.8	-62.3	3.8	1.49e+00	0	40	104	0	71	15035
2026-01-17 08:20:34.51	107.19	6.90	-49.8	-62.2	3.8	1.49e+00	0	40	104	0	71	14831
2026-01-17 08:20:35.51	107.10	6.96	-49.7	-62.1	3.8	1.49e+00	0	40	104	0	71	14587
2026-01-17 08:20:36.50	107.01	7.03	-49.7	-62.0	3.8	1.49e+00	0	40	104	0	71	14515
2026-01-17 08:20:37.49	106.92	7.09	-49.8	-61.9	3.8	1.49e+00	0	40	104	0	71	14361
2026-01-17 08:20:38.49	106.82	7.15	-49.7	-62.1	3.8	1.49e+00	0	40	104	0	71	14569
2026-01-17 08:20:39.48	106.73	7.22	-49.7	-62.1	3.8	1.49e+00	0	40	104	0	71	14652
2026-01-17 08:20:40.47	106.64	7.28	-49.8	-62.3	3.8	1.49e+00	0	40	104	0	71	14888
2026-01-17 08:20:41.47	106.54	7.35	-49.8	-62.4	3.8	1.49e+00	0	40	104	0	71	15135
2026-01-17 08:20:42.46	106.45	7.41	-49.8	-62.4	3.8	1.49e+00	0	40	104	0	71	15118
2026-01-17 08:20:43.45	106.36	7.47	-49.8	-62.3	3.8	1.49e+00	0	40	104	0	71	15036
2026-01-17 08:20:44.45	106.26	7.54	-49.8	-62.2	3.8	1.49e+00	0	40	104	0	71	14788
2026-01-17 08:20:45.44	106.17	7.60	-49.8	-61.8	3.8	1.49e+00	0	40	104	0	71	14184
2026-01-17 08:20:46.43	106.07	7.67	-49.7	-61.5	3.8	1.49e+00	0	40	104	0	71	13696
2026-01-17 08:20:47.43	105.98	7.73	-49.7	-61.2	3.8	1.49e+00	0	41	104	0	71	13239
2026-01-17 08:20:48.42	105.88	7.79	-49.7	-60.7	3.9	1.49e+00	0	41	104	0	71	12450
2026-01-17 08:20:49.41	105.79	7.86	-49.7	-61.3	3.8	1.49e+00	0	40	104	0	71	13384
2026-01-17 08:20:50.41	105.69	7.92	-49.8	-61.9	3.8	1.49e+00	0	41	104	0	71	14226
2026-01-17 08:20:51.40	105.59	7.99	-49.8	-62.4	3.8	1.49e+00	0	41	104	0	71	15081
2026-01-17 08:20:52.39	105.49	8.05	-49.7	-61.3	3.8	1.49e+00	0	41	104	0	71	13353
2026-01-17 08:20:53.39	105.39	8.12	-49.2	-58.3	4.0	1.34e+00	0	40	104	0	70	9952
2026-01-17 08:20:54.38	105.30	8.18	-48.3	-54.1	7.5	2.00e-01	0	41	0	0	68	6890
2026-01-17 08:20:55.37	105.20	8.25	-46.9	-51.1	10.4	9.61e-03	0	41	0	0	65	5813
2026-01-17 08:20:56.37	105.10	8.31	-45.7	-48.9	12.6	4.13e-04	0	41	0	0	63	5093
2026-01-17 08:20:57.36	105.00	8.38	-44.4	-47.1	14.5	1.50e-06	0	41	0	0	60	4899
2026-01-17 08:20:58.35	104.90	8.44	-43.6	-46.0	15.5	0.00e+00	0	41	0	0	59	4581
2026-01-17 08:20:59.35	104.79	8.51	-42.9	-45.1	16.4	0.00e+00	0	41	0	0	57	4636
2026-01-17 08:21:00.34	104.69	8.58	-42.6	-44.7	16.8	0.00e+00	0	41	0	0	57	4434
2026-01-17 08:21:01.33	104.59	8.64	-42.4	-44.5	17.0	0.00e+00	0	41	0	0	56	4575
2026-01-17 08:21:02.33	104.49	8.71	-42.7	-44.9	16.6	0.00e+00	0	41	0	0	56	4802
2026-01-17 08:21:03.32	104.39	8.77	-43.5	-45.9	15.7	0.00e+00	0	41	0	0	57	5080
2026-01-17 08:21:04.31	104.28	8.84	-44.2	-46.8	14.8	0.00e+00	0	41	0	0	59	5013
2026-01-17 08:21:05.31	104.18	8.90	-45.4	-48.5	13.2	1.52e-05	0	41	0	0	61	5431
2026-01-17 08:21:06.30	104.07	8.97	-46.7	-50.6	11.0	5.46e-04	0	41	0	0	63	6168
2026-01-17 08:21:07.29	103.97	9.04	-46.5	-50.4	10.9	1.97e-02	0	41	0	0	65	5391
2026-01-17 08:21:08.29	103.86	9.10	-47.7	-52.4	9.0	2.41e-01	0	41	0	0	67	6058
2026-01-17 08:21:09.29	103.76	9.17	-46.9	-50.9	10.5	1.09e-03	0	41	0	0	64	6061
2026-01-17 08:21:10.28	103.65	9.24	-49.3	-58.8	4.3	1.48e+00	0	41	104	0	69	11231
2026-01-17 08:21:11.27	103.55	9.30	-46.7	-50.7	11.0	3.26e-04	0	41	0	0	63	6217
2026-01-17 08:21:12.36	103.43	9.37	-49.7	-61.4	3.8	1.49e+00	0	41	104	0	70	14295
2026-01-17 08:21:13.23	103.33	9.43	-47.7	-52.9	8.5	3.69e-02	0	41	0	0	67	6364
2026-01-17 08:21:14.37	103.21	9.51	-47.4	-52.1	9.3	2.18e-02	0	41	0	0	66	6199
2026-01-17 08:21:15.30	103.11	9.57	-47.0	-51.3	10.2	6.18e-03	0	41	0	0	65	5932
2026-01-17 08:21:16.47	102.98	9.65	-46.5	-50.3	11.2	2.57e-03	0	41	0	0	65	5307
2026-01-17 08:21:17.32	102.88	9.71	-46.1	-49.7	11.9	3.84e-04	0	41	0	0	64	5229
2026-01-17 08:21:18.70	102.73	9.80	-45.3	-48.3	13.4	1.75e-05	0	41	0	0	62	5037
2026-01-17 08:21:19.41	102.65	9.85	-44.8	-47.6	14.2	4.50e-06	0	41	0	0	61	4871
2026-01-17 08:21:20.69	102.51	9.94	-44.0	-46.4	15.2	0.00e+00	0	41	0	0	59	4795
2026-01-17 08:21:21.40	102.43	9.98	-43.9	-46.4	15.3	0.00e+00	0	41	0	0	59	4762
2026-01-17 08:21:23.01	102.24	10.09	-43.9	-46.3	15.4	0.00e+00	0	41	0	0	59	4747
2026-01-17 08:21:23.59	102.18	10.13	-43.6	-45.9	15.7	0.00e+00	0	41	0	0	59	4531
2026-01-17 08:21:25.16	102.00	10.24	-42.8	-44.9	16.7	0.00e+00	0	41	0	0	57	4516
2026-01-17 08:21:26.02	101.90	10.30	-42.4	-44.5	17.1	0.00e+00	0	41	0	0	56	4572
2026-01-17 08:21:27.16	101.77	10.38	-42.1	-44.1	17.4	0.00e+00	0	41	0	0	56	4387
2026-01-17 08:21:28.01	101.67	10.43	-41.8	-43.7	17.7	0.00e+00	0	41	0	0	55	4433
2026-01-17 08:21:29.15	101.54	10.51	-41.7	-43.6	17.8	0.00e+00	0	41	0	0	55	4367
2026-01-17 08:21:30.00	101.44	10.57	-41.6	-43.5	17.9	0.00e+00	0	41	0	0	55	4323
2026-01-17 08:21:31.14	101.30	10.65	-41.7	-43.7	17.8	0.00e+00	0	41	0	0	55	4392
2026-01-17 08:21:31.99	101.20	10.71	-41.4	-43.3	18.1	0.00e+00	0	41	0	0	54	4458
2026-01-17 08:21:33.13	101.06	10.78	-41.2	-43.0	18.4	0.00e+00	0	41	0	0	54	4338
2026-01-17 08:21:33.98	100.96	10.84	-41.3	-43.1	18.3	0.00e+00	0	41	0	0	54	4382
2026-01-17 08:21:35.12	100.83	10.92	-41.2	-43.1	18.3	0.00e+00	0	41	0	0	54	4367
2026-01-17 08:21:35.97	100.72	10.98	-41.2	-43.1	18.3	0.00e+00	0	41	0	0	54	4359
2026-01-17 08:21:37.11	100.58	11.06	-41.1	-43.0	18.4	0.00e+00	0	41	0	0	54	4318
2026-01-17 08:21:37.96	100.48	11.12	-41.2	-43.1	18.3	0.00e+00	0	41	0	0	54	4371
2026-01-17 08:21:39.10	100.34	11.19	-41.2	-43.1	18.3	0.00e+00	0	41	0	0	54	4348
2026-01-17 08:21:39.95	100.24	11.25	-41.1	-43.0	18.4	0.00e+00	0	41	0	0	54	4309
2026-01-17 08:21:41.09	100.10	11.33	-41.2	-43.0	18.4	0.00e+00	0	41	0	0	54	4340
2026-01-17 08:21:41.94	99.99	11.39	-41.1	-43.0	18.4	0.00e+00	0	41	0	0	54	4294
2026-01-17 08:21:43.08	99.85	11.47	-41.1	-43.0	18.4	0.00e+00	0	41	0	0	54	4311
2026-01-17 08:21:44.20	99.71	11.55	-41.2	-43.0	18.4	0.00e+00	0	41	0	0	54	4337
2026-01-17 08:21:45.23	99.58	11.62	-41.0	-42.9	18.6	0.00e+00	0	41	0	0	54	4251
2026-01-17 08:21:46.40	99.43	11.70	-40.8	-42.7	18.7	0.00e+00	0	41	0	0	53	4397
2026-01-17 08:21:47.25	99.32	11.76	-40.9	-42.8	18.6	0.00e+00	0	41	0	0	53	4454
2026-01-17 08:21:48.59	99.15	11.85	-40.8	-42.6	18.7	0.00e+00	0	41	0	0	53	4382
2026-01-17 08:21:49.30	99.06	11.90	-40.8	-42.6	18.7	0.00e+00	0	41	0	0	53	4390
2026-01-17 08:21:50.77	98.87	12.00	-40.7	-42.5	18.8	0.00e+00	0	41	0	0	53	4321
2026-01-17 08:21:51.48	98.77	12.05	-40.7	-42.5	18.8	0.00e+00	0	41	0	0	53	4335
2026-01-17 08:21:52.85	98.59	12.15	-40.8	-42.6	18.8	0.00e+00	0	41	0	0	53	4352
2026-01-17 08:21:53.56	98.50	12.20	-40.8	-42.6	18.7	0.00e+00	0	41	0	0	53	4379
2026-01-17 08:21:54.84	98.33	12.29	-40.9	-42.7	18.6	0.00e+00	0	41	0	0	53	4441
2026-01-17 08:21:55.55	98.24	12.34	-41.0	-42.8	18.5	0.00e+00	0	41	0	0	53	4480
2026-01-17 08:21:56.83	98.07	12.43	-41.1	-43.0	18.4	1.52e-05	0	41	0	0	53	4576
2026-01-17 08:21:57.56	97.97	12.48	-41.0	-42.8	18.5	0.00e+00	0	41	0	0	53	4483
2026-01-17 08:21:58.83	97.80	12.57	-41.0	-42.8	18.6	0.00e+00	0	41	0	0	53	4480
2026-01-17 08:21:59.56	97.70	12.62	-41.0	-42.9	18.5	6.10e-06	0	41	0	0	53	4517
2026-01-17 08:22:00.84	97.52	12.71	-41.0	-42.9	18.6	0.00e+00	0	41	0	0	53	4506
2026-01-17 08:22:01.55	97.43	12.76	-40.9	-42.8	18.7	0.00e+00	0	41	0	0	53	4454
2026-01-17 08:22:02.83	97.25	12.85	-40.8	-42.6	18.9	0.00e+00	0	41	0	0	53	4351
2026-01-17 08:22:03.54	97.15	12.90	-40.7	-42.5	18.9	0.00e+00	0	41	0	0	53	4334
2026-01-17 08:22:04.82	96.98	12.99	-40.6	-42.4	19.0	7.60e-06	0	41	0	0	53	4279
2026-01-17 08:22:05.67	96.86	13.05	-40.7	-42.5	18.9	0.00e+00	0	41	0	0	53	4320
2026-01-17 08:22:06.81	96.70	13.13	-40.7	-42.5	18.9	0.00e+00	0	41	0	0	53	4319
2026-01-17 08:22:07.66	96.58	13.19	-40.6	-42.4	19.0	0.00e+00	0	41	0	0	53	4256
2026-01-17 08:22:08.80	96.42	13.27	-40.7	-42.5	18.9	0.00e+00	0	41	0	0	53	4321
2026-01-17 08:22:09.66	96.30	13.33	-40.6	-42.4	19.0	0.00e+00	0	41	0	0	53	4256
2026-01-17 08:22:10.79	96.13	13.41	-40.7	-42.5	18.9	0.00e+00	0	41	0	0	53	4320
2026-01-17 08:22:11.65	96.01	13.47	-40.7	-42.5	18.9	0.00e+00	0	41	0	0	53	4306
2026-01-17 08:22:12.78	95.85	13.55	-40.6	-42.4	19.0	0.00e+00	0	41	0	0	53	4286
2026-01-17 08:22:13.63	95.72	13.61	-40.6	-42.4	19.1	0.00e+00	0	41	0	0	53	4250
2026-01-17 08:22:14.77	95.56	13.69	-40.6	-42.4	19.0	0.00e+00	0	41	0	0	53	4270
2026-01-17 08:22:15.62	95.43	13.75	-40.4	-42.2	19.2	0.00e+00	0	41	0	0	52	4398
2026-01-17 08:22:16.76	95.27	13.83	-40.5	-42.3	19.2	0.00e+00	0	41	0	0	52	4447
2026-01-17 08:22:17.61	95.14	13.89	-40.5	-42.3	19.1	0.00e+00	0	41	0	0	52	4462
2026-01-17 08:22:18.75	94.97	13.97	-40.7	-42.5	18.9	0.00e+00	0	41	0	0	52	4559
2026-01-17 08:22:19.60	94.85	14.03	-40.8	-42.6	18.8	0.00e+00	0	41	0	0	52	4621
2026-01-17 08:22:20.74	94.67	14.11	-40.9	-42.7	18.8	0.00e+00	0	41	0	0	52	4670
2026-01-17 08:22:21.59	94.55	14.17	-40.9	-42.7	18.7	0.00e+00	0	41	0	0	52	4703
2026-01-17 08:22:22.72	94.38	14.25	-40.9	-42.7	18.7	0.00e+00	0	41	0	0	52	4702
2026-01-17 08:22:23.58	94.25	14.31	-40.8	-42.7	18.8	0.00e+00	0	41	0	0	52	4654
2026-01-17 08:22:24.71	94.07	14.39	-40.8	-42.6	18.8	0.00e+00	0	41	0	0	52	4639
2026-01-17 08:22:25.57	93.94	14.45	-40.8	-42.6	18.8	0.00e+00	0	41	0	0	52	4644
2026-01-17 08:22:26.70	93.77	14.53	-40.8	-42.7	18.8	0.00e+00	0	41	0	0	52	4658
2026-01-17 08:22:27.56	93.63	14.60	-40.8	-42.7	18.8	0.00e+00	0	41	0	0	52	4654
2026-01-17 08:22:28.69	93.46	14.68	-40.8	-42.6	18.8	0.00e+00	0	41	0	0	52	4638
2026-01-17 08:22:29.55	93.32	14.74	-40.8	-42.6	18.8	0.00e+00	0	41	0	0	52	4643
2026-01-17 08:22:30.68	93.15	14.82	-40.9	-42.8	18.7	0.00e+00	0	41	0	0	52	4710
2026-01-17 08:22:31.54	93.01	14.88	-41.0	-42.8	18.7	0.00e+00	0	41	0	0	52	4744
2026-01-17 08:22:32.67	92.83	14.96	-41.1	-43.0	18.5	0.00e+00	0	41	0	0	52	4822
2026-01-17 08:22:33.59	92.68	15.02	-41.1	-42.9	18.6	0.00e+00	0	41	0	0	52	4784
2026-01-17 08:22:34.76	92.50	15.10	-41.1	-42.9	18.6	0.00e+00	0	41	0	0	52	4798
2026-01-17 08:22:35.64	92.35	15.17	-41.1	-42.9	18.6	0.00e+00	0	41	0	0	52	4787
2026-01-17 08:22:36.78	92.17	15.25	-41.1	-43.0	18.6	0.00e+00	0	41	0	0	52	4836
2026-01-17 08:22:37.63	92.03	15.31	-40.9	-42.8	18.8	0.00e+00	0	41	0	0	52	4708
2026-01-17 08:22:38.77	91.85	15.39	-40.8	-42.6	18.9	0.00e+00	0	41	0	0	52	4619
2026-01-17 08:22:39.79	91.68	15.46	-40.7	-42.5	18.9	0.00e+00	0	41	0	0	52	4585
2026-01-17 08:22:40.96	91.49	15.54	-40.7	-42.5	19.0	0.00e+00	0	41	0	0	52	4570
2026-01-17 08:22:41.84	91.34	15.60	-40.7	-42.5	18.9	0.00e+00	0	41	0	0	52	4572
2026-01-17 08:22:42.98	91.15	15.68	-40.8	-42.6	18.9	0.00e+00	0	41	0	0	52	4621
2026-01-17 08:22:43.83	91.01	15.74	-40.8	-42.7	18.8	0.00e+00	0	41	0	0	52	4660
2026-01-17 08:22:44.97	90.82	15.82	-40.7	-42.6	18.9	0.00e+00	0	41	0	0	52	4600
2026-01-17 08:22:45.82	90.67	15.88	-40.7	-42.5	19.0	1.50e-06	0	41	0	0	52	4581
2026-01-17 08:22:46.96	90.48	15.96	-40.6	-42.4	19.1	0.00e+00	0	41	0	0	52	4517
2026-01-17 08:22:47.81	90.33	16.02	-40.6	-42.4	19.1	0.00e+00	0	41	0	0	52	4516
2026-01-17 08:22:49.29	90.08	16.13	-40.3	-42.1	19.4	0.00e+00	0	41	0	0	52	4351
2026-01-17 08:22:50.00	89.96	16.18	-40.2	-42.0	19.5	0.00e+00	0	41	0	0	52	4310
2026-01-17 08:22:51.28	89.73	16.27	-40.3	-42.1	19.3	0.00e+00	0	41	0	0	52	4355
2026-01-17 08:22:52.01	89.61	16.32	-40.3	-42.1	19.3	0.00e+00	0	41	0	0	52	4347
2026-01-17 08:22:53.29	89.38	16.41	-40.5	-42.3	19.1	0.00e+00	0	41	0	0	52	4458
2026-01-17 08:22:54.02	89.26	16.46	-40.6	-42.4	19.1	0.00e+00	0	42	0	0	52	4494
2026-01-17 08:22:55.53	88.99	16.56	-40.4	-42.2	19.2	0.00e+00	0	41	0	0	52	4402
2026-01-17 08:22:56.24	88.86	16.61	-40.4	-42.2	19.3	0.00e+00	0	41	0	0	52	4409
2026-01-17 08:22:57.59	88.62	16.71	-40.6	-42.4	19.1	0.00e+00	0	41	0	0	52	4499
2026-01-17 08:22:58.30	88.49	16.76	-40.4	-42.2	19.3	0.00e+00	0	41	0	0	52	4403
2026-01-17 08:22:59.64	88.25	16.85	-40.4	-42.2	19.2	0.00e+00	0	41	0	0	52	4415
2026-01-17 08:23:00.62	88.08	16.92	-40.4	-42.2	19.2	0.00e+00	0	41	0	0	52	4433
2026-01-17 08:23:01.93	87.84	17.01	-40.6	-42.4	19.1	0.00e+00	0	41	0	0	52	4504
2026-01-17 08:23:02.67	87.70	17.06	-40.5	-42.3	19.1	0.00e+00	0	41	0	0	52	4471
2026-01-17 08:23:03.95	87.47	17.15	-40.6	-42.4	19.1	0.00e+00	0	41	0	0	52	4502
2026-01-17 08:23:04.75	87.32	17.20	-40.7	-42.5	19.0	0.00e+00	0	41	0	0	52	4574
2026-01-17 08:23:05.89	87.11	17.28	-40.8	-42.6	18.9	0.00e+00	0	41	0	0	52	4618
2026-01-17 08:23:06.74	86.95	17.34	-40.8	-42.6	18.9	0.00e+00	0	41	0	0	52	4635
2026-01-17 08:23:07.88	86.74	17.41	-41.2	-43.1	18.4	0.00e+00	0	41	0	0	53	4635
2026-01-17 08:23:08.73	86.58	17.47	-40.7	-42.5	18.9	0.00e+00	0	41	0	0	53	4335
2026-01-17 08:23:09.87	86.36	17.55	-40.7	-42.5	19.0	0.00e+00	0	41	0	0	53	4333
2026-01-17 08:23:10.72	86.20	17.61	-40.7	-42.6	18.9	0.00e+00	0	41	0	0	53	4346
2026-01-17 08:23:11.86	85.98	17.69	-40.6	-42.4	19.0	0.00e+00	0	41	0	0	53	4290
2026-01-17 08:23:12.71	85.82	17.74	-40.7	-42.5	19.0	0.00e+00	0	41	0	0	53	4317
2026-01-17 08:23:13.86	85.60	17.82	-40.7	-42.5	19.0	0.00e+00	0	41	0	0	53	4319
2026-01-17 08:23:14.71	85.43	17.88	-40.6	-42.5	19.0	0.00e+00	0	41	0	0	53	4300
2026-01-17 08:23:15.90	85.20	17.96	-40.6	-42.5	19.0	0.00e+00	0	41	0	0	53	4294
2026-01-17 08:23:16.75	85.04	18.02	-40.6	-42.5	19.1	0.00e+00	0	41	0	0	53	4295
2026-01-17 08:23:17.89	84.81	18.09	-40.5	-42.3	19.1	0.00e+00	0	41	0	0	53	4228
2026-01-17 08:23:18.76	84.64	18.15	-40.5	-42.3	19.1	0.00e+00	0	41	0	0	53	4220
2026-01-17 08:23:20.08	84.38	18.24	-40.5	-42.4	19.1	0.00e+00	0	41	0	0	53	4250
2026-01-17 08:23:20.79	84.24	18.29	-40.6	-42.4	19.1	0.00e+00	0	41	0	0	53	4271
2026-01-17 08:23:22.07	83.99	18.37	-40.5	-42.4	19.2	0.00e+00	0	41	0	0	53	4246
2026-01-17 08:23:22.81	83.84	18.42	-40.6	-42.4	19.1	0.00e+00	0	41	0	0	53	4271
2026-01-17 08:23:24.09	83.58	18.50	-40.5	-42.4	19.1	0.00e+00	0	42	0	0	53	4249
2026-01-17 08:23:24.87	83.42	18.55	-40.5	-42.3	19.2	0.00e+00	0	41	0	0	52	4477
2026-01-17 08:23:26.14	83.17	18.64	-40.4	-42.2	19.3	0.00e+00	0	41	0	0	52	4415
2026-01-17 08:23:26.90	83.01	18.69	-40.5	-42.3	19.1	0.00e+00	0	41	0	0	52	4472
2026-01-17 08:23:28.18	82.75	18.77	-40.3	-42.1	19.3	0.00e+00	0	41	0	0	52	4369
2026-01-17 08:23:28.92	82.60	18.82	-40.3	-42.1	19.3	0.00e+00	0	41	0	0	52	4369
2026-01-17 08:23:30.20	82.33	18.90	-40.4	-42.2	19.3	0.00e+00	0	41	0	0	52	4395
2026-01-17 08:23:31.02	82.16	18.95	-40.3	-42.1	19.3	0.00e+00	0	41	0	0	52	4372
2026-01-17 08:23:32.16	81.92	19.03	-40.3	-42.1	19.3	0.00e+00	0	41	0	0	52	4370
2026-01-17 08:23:33.19	81.71	19.09	-40.3	-42.1	19.4	0.00e+00	0	41	0	0	52	4357
2026-01-17 08:23:34.36	81.46	19.17	-40.3	-42.1	19.4	0.00e+00	0	41	0	0	52	4359
2026-01-17 08:23:35.21	81.28	19.22	-40.3	-42.1	19.4	0.00e+00	0	41	0	0	52	4352
2026-01-17 08:23:36.62	80.98	19.31	-40.2	-42.0	19.4	0.00e+00	0	41	0	0	52	4322
2026-01-17 08:23:37.33	80.83	19.35	-40.3	-42.1	19.3	0.00e+00	0	41	0	0	52	4369
2026-01-17 08:23:38.61	80.56	19.44	-40.3	-42.1	19.4	0.00e+00	0	41	0	0	52	4364
2026-01-17 08:23:39.32	80.41	19.48	-40.4	-42.1	19.3	0.00e+00	0	41	0	0	52	4387
2026-01-17 08:23:40.60	80.13	19.56	-40.3	-42.1	19.4	0.00e+00	0	41	0	0	52	4350
2026-01-17 08:23:41.34	79.97	19.60	-40.3	-42.0	19.4	0.00e+00	0	41	0	0	52	4336
2026-01-17 08:23:42.62	79.69	19.68	-40.1	-41.9	19.6	0.00e+00	0	41	0	0	52	4262
2026-01-17 08:23:43.42	79.52	19.73	-40.0	-41.8	19.6	0.00e+00	0	41	0	0	52	4209
2026-01-17 08:23:44.56	79.27	19.80	-40.1	-41.9	19.6	0.00e+00	0	41	0	0	52	4247
2026-01-17 08:23:45.41	79.08	19.85	-40.2	-42.0	19.5	0.00e+00	0	41	0	0	52	4295
2026-01-17 08:23:46.55	78.83	19.92	-40.1	-41.9	19.6	0.00e+00	0	41	0	0	52	4257
2026-01-17 08:23:47.40	78.64	19.97	-40.2	-42.0	19.5	0.00e+00	0	41	0	0	52	4303
2026-01-17 08:23:48.54	78.39	20.04	-40.2	-41.9	19.5	0.00e+00	0	41	0	0	52	4279
2026-01-17 08:23:49.39	78.20	20.09	-40.3	-42.0	19.5	0.00e+00	0	41	0	0	52	4317
2026-01-17 08:23:50.53	77.94	20.16	-40.3	-42.0	19.5	0.00e+00	0	41	0	0	52	4333
2026-01-17 08:23:51.38	77.75	20.21	-40.2	-41.9	19.6	0.00e+00	0	41	0	0	52	4274
2026-01-17 08:23:52.59	77.48	20.28	-40.2	-41.9	19.6	0.00e+00	0	41	0	0	52	4276
2026-01-17 08:23:53.44	77.28	20.33	-40.1	-41.8	19.6	0.00e+00	0	41	0	0	52	4242
2026-01-17 08:23:54.58	77.02	20.40	-40.0	-41.8	19.7	0.00e+00	0	41	0	0	52	4215
2026-01-17 08:23:55.44	76.83	20.44	-40.0	-41.8	19.7	0.00e+00	0	41	0	0	52	4201
2026-01-17 08:23:56.57	76.57	20.51	-40.1	-41.8	19.6	0.00e+00	0	41	0	0	52	4237
2026-01-17 08:23:57.42	76.37	20.56	-40.1	-41.8	19.6	0.00e+00	0	41	0	0	52	4239
2026-01-17 08:23:58.56	76.11	20.62	-40.1	-41.8	19.7	0.00e+00	0	41	0	0	52	4215
2026-01-17 08:23:59.41	75.91	20.67	-40.1	-41.8	19.7	0.00e+00	0	41	0	0	52	4220
2026-01-17 08:24:00.55	75.64	20.73	-40.1	-41.9	19.6	0.00e+00	0	41	0	0	52	4253
2026-01-17 08:24:01.40	75.45	20.78	-40.2	-41.9	19.6	0.00e+00	0	41	0	0	52	4267
2026-01-17 08:24:02.54	75.18	20.84	-40.1	-41.8	19.7	0.00e+00	0	41	0	0	52	4239
2026-01-17 08:24:03.39	74.98	20.89	-40.1	-41.8	19.7	0.00e+00	0	41	0	0	52	4220
2026-01-17 08:24:04.53	74.71	20.95	-40.1	-41.9	19.6	0.00e+00	0	41	0	0	52	4245
2026-01-17 08:24:05.39	74.50	21.00	-40.1	-41.8	19.6	0.00e+00	0	41	0	0	52	4234
2026-01-17 08:24:06.52	74.23	21.06	-40.0	-41.7	19.8	0.00e+00	0	41	0	0	52	4178
2026-01-17 08:24:07.38	74.03	21.10	-40.0	-41.7	19.8	0.00e+00	0	41	0	0	51	4432
2026-01-17 08:24:08.51	73.76	21.16	-40.0	-41.7	19.8	0.00e+00	0	41	0	0	51	4404
2026-01-17 08:24:09.36	73.55	21.21	-40.0	-41.8	19.7	0.00e+00	0	41	0	0	51	4448
2026-01-17 08:24:10.50	73.28	21.26	-39.9	-41.6	19.9	0.00e+00	0	41	0	0	51	4388
2026-01-17 08:24:11.35	73.07	21.31	-39.9	-41.6	19.9	0.00e+00	0	41	0	0	51	4389
2026-01-17 08:24:12.49	72.80	21.37	-39.8	-41.5	20.0	0.00e+00	0	41	0	0	51	4317
2026-01-17 08:24:13.35	72.59	21.41	-39.8	-41.4	20.0	0.00e+00	0	41	0	0	51	4283
2026-01-17 08:24:14.48	72.31	21.47	-39.7	-41.4	20.1	0.00e+00	0	41	0	0	51	4249
2026-01-17 08:24:15.33	72.10	21.51	-39.7	-41.3	20.1	0.00e+00	0	41	0	0	51	4233
2026-01-17 08:24:16.69	71.77	21.57	-39.7	-41.3	20.1	0.00e+00	0	41	0	0	51	4240
2026-01-17 08:24:17.40	71.59	21.61	-39.7	-41.3	20.2	0.00e+00	0	41	0	0	51	4233
2026-01-17 08:24:18.68	71.28	21.67	-39.6	-41.3	20.2	0.00e+00	0	41	0	0	51	4210
2026-01-17 08:24:19.39	71.10	21.70	-39.7	-41.4	20.1	0.00e+00	0	41	0	0	51	4259
2026-01-17 08:24:20.67	70.78	21.76	-39.7	-41.4	20.1	0.00e+00	0	41	0	0	51	4276
2026-01-17 08:24:21.39	70.60	21.80	-39.8	-41.5	20.0	0.00e+00	0	41	0	0	51	4317
2026-01-17 08:24:22.67	70.28	21.86	-39.9	-41.6	20.0	0.00e+00	0	41	0	0	51	4349
2026-01-17 08:24:23.38	70.10	21.89	-39.8	-41.5	20.0	0.00e+00	0	41	0	0	51	4332
2026-01-17 08:24:24.66	69.78	21.95	-39.9	-41.7	19.9	0.00e+00	0	41	0	0	51	4396
2026-01-17 08:24:25.51	69.56	21.98	-39.9	-41.6	19.9	0.00e+00	0	41	0	0	51	4389
2026-01-17 08:24:26.65	69.27	22.03	-40.0	-41.7	19.9	0.00e+00	0	41	0	0	51	4409
2026-01-17 08:24:27.50	69.06	22.07	-40.0	-41.8	19.8	0.00e+00	0	41	0	0	51	4442
2026-01-17 08:24:28.64	68.77	22.12	-40.1	-41.8	19.8	0.00e+00	0	41	0	0	51	4455
2026-01-17 08:24:29.49	68.55	22.15	-40.0	-41.7	19.9	0.00e+00	0	41	0	0	51	4426
2026-01-17 08:24:30.63	68.26	22.20	-40.0	-41.7	19.9	0.00e+00	0	41	0	0	51	4403
2026-01-17 08:24:31.48	68.04	22.24	-40.1	-41.8	19.8	0.00e+00	0	41	0	0	51	4456
2026-01-17 08:24:32.62	67.75	22.28	-40.1	-41.8	19.8	0.00e+00	0	41	0	0	51	4490
2026-01-17 08:24:33.80	67.44	22.33	-40.2	-41.9	19.8	0.00e+00	0	41	0	0	51	4500
2026-01-17 08:24:34.83	67.17	22.37	-40.2	-42.0	19.7	0.00e+00	0	41	0	0	51	4551
2026-01-17 08:24:35.83	66.91	22.41	-40.0	-41.7	19.9	0.00e+00	0	41	0	0	51	4423
2026-01-17 08:24:36.82	66.66	22.45	-40.0	-41.7	19.8	0.00e+00	0	41	0	0	51	4437
2026-01-17 08:24:37.82	66.39	22.49	-39.9	-41.6	20.0	0.00e+00	0	41	0	0	51	4359
2026-01-17 08:24:38.81	66.14	22.52	-39.8	-41.5	20.1	0.00e+00	0	41	0	0	51	4310
2026-01-17 08:24:39.80	65.88	22.56	-39.8	-41.5	20.1	0.00e+00	0	41	0	0	51	4298
2026-01-17 08:24:40.80	65.61	22.59	-39.8	-41.5	20.1	0.00e+00	0	42	0	0	51	4303
2026-01-17 08:24:41.79	65.35	22.63	-39.8	-41.4	20.1	0.00e+00	0	41	0	0	51	4286
2026-01-17 08:24:42.79	65.09	22.66	-39.7	-41.4	20.2	0.00e+00	0	41	0	0	51	4259
2026-01-17 08:24:43.78	64.83	22.70	-39.8	-41.5	20.0	0.00e+00	0	41	0	0	51	4325
2026-01-17 08:24:44.78	64.56	22.73	-39.8	-41.5	20.1	0.00e+00	0	41	0	0	51	4312
2026-01-17 08:24:45.77	64.30	22.76	-39.9	-41.6	20.0	0.00e+00	0	41	0	0	51	4362
2026-01-17 08:24:46.83	64.01	22.80	-39.8	-41.6	20.0	0.00e+00	0	41	0	0	51	4342
2026-01-17 08:24:47.73	63.77	22.83	-39.9	-41.6	20.0	0.00e+00	0	41	0	0	51	4350
2026-01-17 08:24:48.73	63.51	22.86	-40.0	-41.7	19.9	0.00e+00	0	42	0	0	51	4404
2026-01-17 08:24:49.93	63.18	22.89	-40.0	-41.7	19.9	0.00e+00	0	41	0	0	51	4400
2026-01-17 08:24:50.82	62.95	22.92	-40.0	-41.7	19.9	0.00e+00	0	41	0	0	51	4422
2026-01-17 08:24:51.96	62.64	22.95	-39.8	-41.5	20.0	0.00e+00	0	41	0	0	51	4314
2026-01-17 08:24:52.81	62.41	22.98	-39.9	-41.6	19.9	0.00e+00	0	41	0	0	51	4348
2026-01-17 08:24:53.94	62.10	23.01	-39.8	-41.5	20.0	0.00e+00	0	41	0	0	51	4311
2026-01-17 08:24:54.79	61.87	23.03	-39.6	-41.3	20.2	0.00e+00	0	41	0	0	51	4212
2026-01-17 08:24:55.93	61.57	23.06	-39.6	-41.3	20.2	0.00e+00	0	41	0	0	51	4220
2026-01-17 08:24:56.79	61.33	23.08	-39.7	-41.4	20.1	0.00e+00	0	41	0	0	51	4249
2026-01-17 08:24:57.92	61.02	23.11	-39.8	-41.5	20.0	0.00e+00	0	41	0	0	51	4326
2026-01-17 08:24:58.78	60.79	23.13	-39.9	-41.5	20.0	0.00e+00	0	41	0	0	51	4337
2026-01-17 08:24:59.91	60.48	23.16	-39.9	-41.7	19.9	0.00e+00	0	41	0	0	51	4392
2026-01-17 08:25:00.77	60.25	23.18	-40.0	-41.8	19.8	0.00e+00	0	41	0	0	51	4447
2026-01-17 08:25:01.90	59.94	23.21	-40.1	-41.8	19.8	0.00e+00	0	41	0	0	51	4472
2026-01-17 08:25:02.75	59.71	23.22	-40.1	-41.8	19.7	0.00e+00	0	41	0	0	51	4489
2026-01-17 08:25:03.89	59.39	23.25	-40.0	-41.7	19.8	0.00e+00	0	41	0	0	51	4440
2026-01-17 08:25:04.74	59.16	23.27	-40.0	-41.7	19.9	0.00e+00	0	41	0	0	51	4422
2026-01-17 08:25:05.88	58.85	23.29	-39.9	-41.7	19.9	0.00e+00	0	41	0	0	51	4392
2026-01-17 08:25:06.73	58.61	23.30	-39.9	-41.6	19.9	0.00e+00	0	41	0	0	51	4389
2026-01-17 08:25:08.08	58.24	23.33	-39.9	-41.6	19.9	0.00e+00	0	41	0	0	51	4384
2026-01-17 08:25:08.79	58.04	23.34	-39.9	-41.6	19.9	0.00e+00	0	41	0	0	51	4385
2026-01-17 08:25:10.06	57.69	23.36	-39.9	-41.6	20.0	0.00e+00	0	41	0	0	51	4352
2026-01-17 08:25:10.79	57.49	23.37	-39.8	-41.5	20.0	0.00e+00	0	41	0	0	51	4319
2026-01-17 08:25:12.07	57.14	23.39	-39.9	-41.6	20.0	0.00e+00	0	41	0	0	51	4360
2026-01-17 08:25:12.79	56.94	23.40	-39.9	-41.6	20.0	0.00e+00	0	41	0	0	51	4381
2026-01-17 08:25:14.07	56.58	23.42	-39.9	-41.6	20.0	0.00e+00	0	41	0	0	51	4373
2026-01-17 08:25:14.82	56.37	23.43	-39.9	-41.6	20.0	0.00e+00	0	41	0	0	51	4374
2026-01-17 08:25:16.10	56.02	23.45	-39.8	-41.5	20.1	0.00e+00	0	41	0	0	51	4312
2026-01-17 08:25:16.82	55.82	23.46	-39.8	-41.5	20.1	0.00e+00	0	41	0	0	51	4313
2026-01-17 08:25:18.09	55.46	23.47	-39.9	-41.6	20.0	0.00e+00	0	41	0	0	51	4355
2026-01-17 08:25:18.87	55.25	23.48	-39.9	-41.6	19.9	0.00e+00	0	41	0	0	51	4379
2026-01-17 08:25:20.15	54.89	23.49	-40.0	-41.7	19.9	0.00e+00	0	41	0	0	51	4422
2026-01-17 08:25:20.87	54.69	23.50	-40.1	-41.8	19.8	0.00e+00	0	41	0	0	51	4477
2026-01-17 08:25:22.15	54.33	23.51	-40.0	-41.8	19.8	0.00e+00	0	41	0	0	51	4442
2026-01-17 08:25:22.86	54.13	23.51	-40.0	-41.7	19.8	0.00e+00	0	41	0	0	51	4421
2026-01-17 08:25:24.14	53.78	23.52	-39.9	-41.6	19.9	0.00e+00	0	41	0	0	51	4387
2026-01-17 08:25:24.85	53.58	23.53	-40.0	-41.7	19.9	0.00e+00	0	41	0	0	51	4409
2026-01-17 08:25:26.13	53.22	23.53	-40.0	-41.7	19.8	0.00e+00	0	41	0	0	51	4427
2026-01-17 08:25:26.86	53.02	23.54	-40.0	-41.7	19.9	0.00e+00	0	41	0	0	51	4424
2026-01-17 08:25:28.17	52.65	23.54	-40.0	-41.7	19.9	0.00e+00	0	41	0	0	51	4416
2026-01-17 08:25:28.88	52.45	23.54	-39.9	-41.6	20.0	0.00e+00	0	41	0	0	51	4368
2026-01-17 08:25:30.17	52.09	23.55	-39.8	-41.5	20.1	0.00e+00	0	41	0	0	51	4331
2026-01-17 08:25:30.88	51.89	23.55	-39.8	-41.5	20.1	0.00e+00	0	41	0	0	51	4296
2026-01-17 08:25:32.17	51.53	23.55	-39.9	-41.6	20.1	0.00e+00	0	41	0	0	51	4347
2026-01-17 08:25:32.89	51.33	23.55	-39.9	-41.6	20.1	0.00e+00	0	41	0	0	51	4348
2026-01-17 08:25:34.17	50.97	23.55	-39.7	-41.4	20.2	0.00e+00	0	41	0	0	51	4263
2026-01-17 08:25:34.90	50.77	23.55	-39.8	-41.4	20.1	0.00e+00	0	41	0	0	51	4282
2026-01-17 08:25:36.17	50.41	23.54	-39.8	-41.4	20.1	0.00e+00	0	41	0	0	51	4283
2026-01-17 08:25:36.89	50.21	23.54	-39.8	-41.4	20.1	0.00e+00	0	41	0	0	51	4289
2026-01-17 08:25:38.16	49.86	23.54	-39.8	-41.5	20.1	0.00e+00	0	41	0	0	51	4302
2026-01-17 08:25:38.90	49.65	23.53	-39.9	-41.6	20.0	0.00e+00	0	41	0	0	51	4358
2026-01-17 08:25:40.19	49.29	23.53	-39.9	-41.6	20.0	0.00e+00	0	41	0	0	51	4362
2026-01-17 08:25:40.93	49.08	23.52	-40.0	-41.7	19.8	0.00e+00	0	41	0	0	51	4399
2026-01-17 08:25:42.20	48.73	23.51	-39.8	-41.5	20.0	0.00e+00	0	41	0	0	51	4305
2026-01-17 08:25:43.01	48.50	23.51	-39.8	-41.4	20.0	0.00e+00	0	41	0	0	51	4282
2026-01-17 08:25:44.15	48.19	23.50	-39.8	-41.4	20.0	0.00e+00	0	41	0	0	51	4284
2026-01-17 08:25:45.00	47.95	23.49	-39.7	-41.4	20.1	0.00e+00	0	41	0	0	51	4282
2026-01-17 08:25:46.14	47.63	23.48	-39.8	-41.5	20.0	0.00e+00	0	41	0	0	51	4313
2026-01-17 08:25:46.99	47.39	23.47	-39.7	-41.4	20.0	0.00e+00	0	41	0	0	51	4260
2026-01-17 08:25:48.12	47.08	23.46	-39.6	-41.3	20.0	0.00e+00	0	41	0	0	51	4220
2026-01-17 08:25:48.98	46.84	23.45	-39.6	-41.3	20.1	0.00e+00	0	41	0	0	51	4225
2026-01-17 08:25:50.12	46.52	23.43	-39.6	-41.3	20.1	0.00e+00	0	41	0	0	51	4221
2026-01-17 08:25:51.32	46.19	23.42	-39.5	-41.2	20.2	0.00e+00	0	41	0	0	51	4168
2026-01-17 08:25:52.17	45.96	23.41	-39.5	-41.1	20.3	0.00e+00	0	41	0	0	50	4382
2026-01-17 08:25:53.31	45.64	23.39	-39.5	-41.2	20.3	0.00e+00	0	41	0	0	50	4397
2026-01-17 08:25:54.16	45.41	23.38	-39.6	-41.2	20.3	0.00e+00	0	41	0	0	50	4436
2026-01-17 08:25:55.30	45.09	23.36	-39.6	-41.2	20.3	0.00e+00	0	41	0	0	50	4428
2026-01-17 08:25:56.15	44.86	23.34	-39.6	-41.2	20.3	0.00e+00	0	41	0	0	50	4434
2026-01-17 08:25:57.29	44.54	23.32	-39.8	-41.4	20.1	0.00e+00	0	41	0	0	50	4533
2026-01-17 08:25:58.15	44.30	23.31	-39.7	-41.4	20.1	0.00e+00	0	41	0	0	50	4496
2026-01-17 08:25:59.28	43.99	23.29	-39.8	-41.5	20.0	0.00e+00	0	41	0	0	50	4581
2026-01-17 08:26:00.13	43.76	23.27	-39.8	-41.5	20.1	0.00e+00	0	41	0	0	50	4555
2026-01-17 08:26:01.27	43.45	23.25	-39.8	-41.5	20.0	0.00e+00	0	41	0	0	50	4566
2026-01-17 08:26:02.12	43.21	23.23	-39.8	-41.5	20.0	0.00e+00	0	41	0	0	50	4579
2026-01-17 08:26:03.26	42.90	23.20	-39.9	-41.6	20.0	0.00e+00	0	41	0	0	50	4604
2026-01-17 08:26:04.11	42.67	23.18	-40.0	-41.7	19.9	0.00e+00	0	41	0	0	50	4660
2026-01-17 08:26:05.25	42.36	23.16	-40.0	-41.7	19.9	0.00e+00	0	41	0	0	50	4666
2026-01-17 08:26:06.10	42.13	23.14	-39.9	-41.6	20.0	0.00e+00	0	41	0	0	50	4630
2026-01-17 08:26:07.24	41.82	23.11	-40.0	-41.7	19.9	0.00e+00	0	41	0	0	50	4674
2026-01-17 08:26:08.09	41.59	23.09	-40.0	-41.7	19.9	0.00e+00	0	41	0	0	50	4676
2026-01-17 08:26:09.23	41.28	23.06	-40.0	-41.7	19.9	0.00e+00	0	41	0	0	50	4682
2026-01-17 08:26:10.08	41.05	23.04	-40.0	-41.7	19.9	0.00e+00	0	41	0	0	50	4683
2026-01-17 08:26:11.22	40.74	23.01	-39.9	-41.6	20.0	0.00e+00	0	41	0	0	50	4632
2026-01-17 08:26:12.40	40.42	22.97	-39.9	-41.6	20.0	0.00e+00	0	41	0	0	50	4604
2026-01-17 08:26:13.26	40.19	22.95	-39.7	-41.4	20.2	0.00e+00	0	41	0	0	50	4517
2026-01-17 08:26:14.40	39.88	22.92	-39.7	-41.4	20.2	0.00e+00	0	41	0	0	50	4518
2026-01-17 08:26:15.25	39.66	22.89	-39.7	-41.4	20.1	0.00e+00	0	41	0	0	50	4515
2026-01-17 08:26:16.39	39.35	22.86	-39.9	-41.6	20.0	0.00e+00	0	41	0	0	50	4600
2026-01-17 08:26:17.24	39.12	22.83	-40.0	-41.7	19.9	0.00e+00	0	41	0	0	50	4684
2026-01-17 08:26:18.37	38.82	22.79	-40.2	-41.9	19.7	0.00e+00	0	41	0	0	50	4782
2026-01-17 08:26:19.23	38.60	22.77	-40.2	-42.0	19.7	0.00e+00	0	41	0	0	51	4555
2026-01-17 08:26:20.40	38.28	22.73	-40.1	-41.9	19.8	0.00e+00	0	41	0	0	51	4503
2026-01-17 08:26:21.25	38.06	22.70	-40.1	-41.9	19.8	0.00e+00	0	41	0	0	51	4496
2026-01-17 08:26:22.46	37.74	22.66	-40.0	-41.7	19.9	0.00e+00	0	41	0	0	51	4431
2026-01-17 08:26:23.31	37.52	22.63	-40.0	-41.7	19.9	0.00e+00	0	41	0	0	51	4403
2026-01-17 08:26:24.45	37.22	22.59	-40.1	-41.8	19.8	0.00e+00	0	41	0	0	51	4454
2026-01-17 08:26:25.30	36.99	22.56	-40.1	-41.9	19.7	0.00e+00	0	41	0	0	51	4496
2026-01-17 08:26:26.60	36.65	22.51	-40.0	-41.7	19.8	0.00e+00	0	41	0	0	51	4431
2026-01-17 08:26:27.31	36.47	22.48	-40.0	-41.7	19.9	0.00e+00	0	41	0	0	51	4427
2026-01-17 08:26:28.59	36.13	22.44	-40.0	-41.7	19.8	0.00e+00	0	41	0	0	51	4433
2026-01-17 08:26:29.31	35.95	22.41	-40.0	-41.7	19.8	0.00e+00	0	41	0	0	51	4441
2026-01-17 08:26:30.59	35.62	22.36	-40.2	-41.9	19.7	0.00e+00	0	41	0	0	51	4522
2026-01-17 08:26:31.32	35.43	22.33	-40.2	-41.9	19.7	0.00e+00	0	41	0	0	51	4523
2026-01-17 08:26:32.60	35.10	22.28	-40.2	-41.9	19.7	0.00e+00	0	41	0	0	51	4518
2026-01-17 08:26:33.32	34.91	22.25	-40.2	-42.0	19.6	0.00e+00	0	41	0	0	51	4559
2026-01-17 08:26:34.60	34.58	22.20	-40.4	-42.2	19.4	0.00e+00	0	41	0	0	51	4660
2026-01-17 08:26:35.34	34.39	22.17	-40.5	-42.2	19.4	0.00e+00	0	41	0	0	51	4702
2026-01-17 08:26:36.62	34.07	22.11	-40.5	-42.3	19.3	0.00e+00	0	41	0	0	51	4725
2026-01-17 08:26:37.34	33.88	22.08	-40.5	-42.3	19.3	0.00e+00	0	41	0	0	51	4724
2026-01-17 08:26:38.62	33.56	22.03	-40.4	-42.2	19.4	0.00e+00	0	41	0	0	51	4674
2026-01-17 08:26:39.33	33.38	22.00	-40.2	-42.0	19.6	0.00e+00	0	41	0	0	51	4546
2026-01-17 08:26:40.61	33.06	21.94	-40.2	-42.0	19.5	0.00e+00	0	41	0	0	51	4548
2026-01-17 08:26:41.32	32.88	21.91	-40.2	-42.0	19.5	0.00e+00	0	41	0	0	51	4565
2026-01-17 08:26:42.65	32.55	21.85	-40.4	-42.2	19.3	0.00e+00	0	41	0	0	51	4658
2026-01-17 08:26:43.36	32.37	21.81	-40.4	-42.2	19.3	0.00e+00	0	41	0	0	51	4690
2026-01-17 08:26:44.73	32.03	21.75	-40.6	-42.4	19.2	0.00e+00	0	41	0	0	51	4785
2026-01-17 08:26:45.44	31.85	21.72	-40.6	-42.4	19.2	0.00e+00	0	41	0	0	51	4797
2026-01-17 08:26:46.72	31.53	21.66	-40.6	-42.4	19.1	0.00e+00	0	41	0	0	52	4529
2026-01-17 08:26:47.43	31.36	21.62	-40.6	-42.4	19.1	0.00e+00	0	41	0	0	52	4527
2026-01-17 08:26:48.71	31.04	21.56	-40.5	-42.3	19.2	0.00e+00	0	41	0	0	52	4458
2026-01-17 08:26:49.42	30.87	21.53	-40.3	-42.1	19.4	0.00e+00	0	41	0	0	52	4360
2026-01-17 08:26:50.70	30.56	21.46	-40.2	-41.9	19.6	0.00e+00	0	41	0	0	52	4275
2026-01-17 08:26:51.43	30.38	21.43	-40.2	-42.0	19.5	0.00e+00	0	41	0	0	52	4312
2026-01-17 08:26:52.71	30.07	21.36	-40.2	-41.9	19.6	0.00e+00	0	41	0	0	52	4273
2026-01-17 08:26:53.42	29.90	21.33	-40.3	-42.1	19.5	0.00e+00	0	41	0	0	52	4353
2026-01-17 08:26:54.70	29.59	21.26	-40.3	-42.1	19.4	0.00e+00	0	41	0	0	52	4375
2026-01-17 08:26:55.41	29.42	21.23	-40.4	-42.1	19.3	0.00e+00	0	41	0	0	52	4391
2026-01-17 08:26:56.69	29.11	21.16	-40.3	-42.1	19.3	0.00e+00	0	41	0	0	52	4368
2026-01-17 08:26:57.42	28.94	21.12	-40.3	-42.1	19.3	0.00e+00	0	41	0	0	52	4351
2026-01-17 08:26:58.70	28.63	21.05	-40.2	-42.0	19.4	0.00e+00	0	41	0	0	52	4301
2026-01-17 08:26:59.55	28.43	21.01	-40.1	-41.9	19.5	0.00e+00	0	41	0	0	52	4251
2026-01-17 08:27:00.68	28.16	20.95	-40.1	-41.9	19.6	0.00e+00	0	41	0	0	52	4254
2026-01-17 08:27:01.54	27.96	20.90	-40.2	-41.9	19.5	0.00e+00	0	41	0	0	52	4286
2026-01-17 08:27:02.68	27.69	20.84	-40.2	-41.9	19.6	0.00e+00	0	41	0	0	52	4264
2026-01-17 08:27:03.53	27.49	20.79	-40.1	-41.9	19.6	0.00e+00	0	41	0	0	52	4256
2026-01-17 08:27:04.67	27.23	20.73	-40.1	-41.9	19.6	0.00e+00	0	41	0	0	52	4254
2026-01-17 08:27:05.52	27.03	20.68	-40.1	-41.8	19.6	0.00e+00	0	41	0	0	52	4236
2026-01-17 08:27:06.66	26.77	20.62	-40.0	-41.8	19.6	0.00e+00	0	41	0	0	52	4198
2026-01-17 08:27:07.51	26.57	20.57	-39.9	-41.7	19.8	0.00e+00	0	41	0	0	51	4399
2026-01-17 08:27:08.65	26.31	20.51	-39.9	-41.7	19.8	0.00e+00	0	41	0	0	51	4425
2026-01-17 08:27:09.50	26.12	20.46	-39.9	-41.7	19.8	0.00e+00	0	41	0	0	51	4426
2026-01-17 08:27:10.64	25.86	20.39	-40.0	-41.8	19.8	0.00e+00	0	41	0	0	51	4449
2026-01-17 08:27:11.49	25.66	20.34	-40.2	-41.9	19.7	0.00e+00	0	41	0	0	51	4539
2026-01-17 08:27:12.62	25.41	20.28	-40.3	-42.1	19.5	0.00e+00	0	41	0	0	51	4645
2026-01-17 08:27:13.49	25.21	20.23	-40.4	-42.3	19.4	0.00e+00	0	41	0	0	51	4709
2026-01-17 08:27:14.63	24.96	20.16	-40.4	-42.3	19.3	0.00e+00	0	41	0	0	51	4724
2026-01-17 08:27:15.48	24.77	20.11	-40.5	-42.4	19.2	0.00e+00	0	41	0	0	51	4762
2026-01-17 08:27:16.62	24.51	20.04	-40.1	-41.9	19.6	0.00e+00	0	41	0	0	51	4510
2026-01-17 08:27:17.47	24.32	19.99	-39.9	-41.7	19.7	0.00e+00	0	41	0	0	51	4426
2026-01-17 08:27:18.61	24.07	19.92	-39.8	-41.6	19.8	0.00e+00	0	41	0	0	51	4352
2026-01-17 08:27:19.70	23.83	19.86	-39.8	-41.6	19.9	0.00e+00	0	41	0	0	51	4344
2026-01-17 08:27:20.71	23.61	19.80	-39.8	-41.5	20.0	0.00e+00	0	41	0	0	51	4304
2026-01-17 08:27:21.86	23.36	19.73	-39.8	-41.5	20.1	0.00e+00	0	41	0	0	51	4323
2026-01-17 08:27:22.75	23.17	19.67	-39.9	-41.7	19.9	0.00e+00	0	41	0	0	51	4395
2026-01-17 08:27:23.88	22.92	19.60	-40.0	-41.8	19.9	0.00e+00	0	41	0	0	51	4443
2026-01-17 08:27:24.73	22.74	19.55	-40.2	-42.0	19.7	0.00e+00	0	41	0	0	51	4553
2026-01-17 08:27:25.87	22.49	19.48	-40.4	-42.2	19.5	0.00e+00	0	41	0	0	51	4662
2026-01-17 08:27:26.72	22.31	19.43	-40.5	-42.3	19.4	0.00e+00	0	41	0	0	51	4721
2026-01-17 08:27:27.86	22.07	19.36	-40.5	-42.2	19.4	0.00e+00	0	41	0	0	51	4704
2026-01-17 08:27:28.71	21.89	19.30	-40.4	-42.2	19.4	0.00e+00	0	41	0	0	51	4688
2026-01-17 08:27:29.85	21.65	19.23	-40.5	-42.3	19.3	0.00e+00	0	41	0	0	51	4709
2026-01-17 08:27:30.70	21.47	19.18	-40.4	-42.2	19.4	0.00e+00	0	41	0	0	51	4694
2026-01-17 08:27:31.84	21.23	19.11	-40.3	-42.1	19.4	0.00e+00	0	41	0	0	51	4634
2026-01-17 08:27:32.69	21.06	19.05	-40.3	-42.1	19.5	0.00e+00	0	41	0	0	51	4622
2026-01-17 08:27:33.83	20.82	18.98	-40.3	-42.1	19.4	0.00e+00	0	41	0	0	51	4636
2026-01-17 08:27:34.68	20.64	18.93	-40.3	-42.1	19.4	0.00e+00	0	41	0	0	51	4613
2026-01-17 08:27:35.82	20.41	18.85	-40.2	-42.0	19.5	0.00e+00	0	41	0	0	51	4579
2026-01-17 08:27:36.67	20.23	18.80	-40.0	-41.8	19.7	0.00e+00	0	41	0	0	51	4445
2026-01-17 08:27:38.01	19.96	18.71	-39.9	-41.6	19.9	0.00e+00	0	41	0	0	51	4359
2026-01-17 08:27:38.73	19.82	18.66	-39.9	-41.6	20.0	0.00e+00	0	41	0	0	51	4356
2026-01-17 08:27:40.01	19.56	18.58	-39.9	-41.6	19.9	0.00e+00	0	41	0	0	51	4388
2026-01-17 08:27:40.72	19.41	18.53	-40.0	-41.7	19.9	0.00e+00	0	41	0	0	51	4411
2026-01-17 08:27:42.00	19.16	18.45	-40.1	-41.9	19.7	0.00e+00	0	41	0	0	51	4515
2026-01-17 08:27:42.71	19.02	18.40	-40.3	-42.1	19.6	0.00e+00	0	41	0	0	51	4614
2026-01-17 08:27:43.98	18.76	18.32	-40.5	-42.3	19.3	0.00e+00	0	41	0	0	51	4747
2026-01-17 08:27:44.71	18.62	18.27	-40.6	-42.4	19.3	0.00e+00	0	41	0	0	51	4782
2026-01-17 08:27:46.02	18.36	18.18	-40.7	-42.5	18.9	0.00e+00	0	41	0	0	52	4598
2026-01-17 08:27:46.73	18.22	18.14	-40.6	-42.5	18.9	0.00e+00	0	41	0	0	52	4584
2026-01-17 08:27:48.07	17.96	18.05	-40.6	-42.5	18.8	0.00e+00	0	41	0	0	52	4583
2026-01-17 08:27:48.78	17.82	18.00	-40.5	-42.4	18.9	0.00e+00	0	41	0	0	52	4515
2026-01-17 08:27:50.06	17.58	17.91	-40.4	-42.3	19.0	0.00e+00	0	41	0	0	52	4459
2026-01-17 08:27:50.77	17.44	17.87	-40.5	-42.4	19.0	0.00e+00	0	41	0	0	52	4494
2026-01-17 08:27:52.05	17.19	17.78	-40.4	-42.2	19.1	0.00e+00	0	41	0	0	52	4441
2026-01-17 08:27:52.76	17.06	17.73	-40.3	-42.1	19.3	0.00e+00	0	41	0	0	52	4358
2026-01-17 08:27:54.23	16.78	17.63	-40.3	-42.1	19.3	0.00e+00	0	41	0	0	52	4361
2026-01-17 08:27:54.94	16.65	17.59	-40.4	-42.1	19.3	0.00e+00	0	41	0	0	52	4375
2026-01-17 08:27:56.22	16.40	17.50	-40.3	-42.1	19.4	0.00e+00	0	41	0	0	52	4346
2026-01-17 08:27:56.95	16.27	17.45	-40.2	-41.9	19.5	0.00e+00	0	41	0	0	52	4278
2026-01-17 08:27:58.23	16.03	17.36	-40.1	-41.8	19.6	0.00e+00	0	41	0	0	52	4237
2026-01-17 08:27:58.94	15.90	17.31	-40.0	-41.8	19.6	0.00e+00	0	41	0	0	52	4202
2026-01-17 08:28:00.22	15.66	17.23	-40.1	-41.9	19.6	0.00e+00	0	41	0	0	52	4253
2026-01-17 08:28:00.96	15.53	17.18	-40.0	-41.7	19.8	0.00e+00	0	41	0	0	51	4419
2026-01-17 08:28:02.44	15.26	17.07	-39.8	-41.5	20.0	0.00e+00	0	41	0	0	51	4334
2026-01-17 08:28:03.15	15.13	17.03	-39.9	-41.6	19.9	0.00e+00	0	41	0	0	51	4352
2026-01-17 08:28:04.47	14.89	16.93	-39.9	-41.7	19.8	0.00e+00	0	41	0	0	51	4407
2026-01-17 08:28:05.18	14.76	16.89	-40.1	-41.9	19.7	0.00e+00	0	41	0	0	51	4499
2026-01-17 08:28:06.47	14.53	16.80	-40.2	-42.0	19.6	0.00e+00	0	41	0	0	51	4587
2026-01-17 08:28:07.18	14.40	16.75	-40.3	-42.1	19.4	0.00e+00	0	41	0	0	51	4646
2026-01-17 08:28:08.54	14.16	16.65	-40.4	-42.3	19.3	0.00e+00	0	41	0	0	51	4743
2026-01-17 08:28:09.25	14.03	16.60	-40.3	-42.2	19.3	0.00e+00	0	41	0	0	51	4698
2026-01-17 08:28:10.53	13.81	16.52	-40.3	-42.1	19.3	0.00e+00	0	41	0	0	51	4650
2026-01-17 08:28:11.26	13.68	16.46	-40.2	-42.1	19.4	0.00e+00	0	41	0	0	51	4643
2026-01-17 08:28:12.53	13.46	16.38	-40.3	-42.2	19.3	0.00e+00	0	41	0	0	51	4659
2026-01-17 08:28:13.24	13.34	16.33	-40.3	-42.2	19.2	0.00e+00	0	41	0	0	51	4704
2026-01-17 08:28:14.52	13.12	16.24	-40.3	-42.2	19.3	0.00e+00	0	41	0	0	51	4662
2026-01-17 08:28:15.25	12.99	16.19	-40.3	-42.3	19.3	0.00e+00	0	41	0	0	51	4709
2026-01-17 08:28:16.53	12.77	16.10	-40.5	-42.4	19.1	0.00e+00	0	41	0	0	51	4806
2026-01-17 08:28:17.24	12.65	16.05	-40.5	-42.5	19.1	0.00e+00	0	41	0	0	51	4841
2026-01-17 08:28:18.52	12.43	15.96	-40.6	-42.6	19.0	0.00e+00	0	41	0	0	51	4886
2026-01-17 08:28:19.26	12.31	15.91	-40.6	-42.6	19.0	0.00e+00	0	41	0	0	51	4879
2026-01-17 08:28:20.54	12.09	15.82	-40.7	-42.6	18.9	0.00e+00	0	41	0	0	52	4644
2026-01-17 08:28:21.25	11.98	15.77	-40.6	-42.6	18.9	0.00e+00	0	41	0	0	52	4615
2026-01-17 08:28:22.53	11.76	15.68	-40.6	-42.6	18.9	0.00e+00	0	41	0	0	52	4609
2026-01-17 08:28:23.25	11.64	15.63	-40.6	-42.5	19.0	0.00e+00	0	41	0	0	52	4593
2026-01-17 08:28:24.53	11.43	15.54	-40.6	-42.5	19.0	0.00e+00	0	41	0	0	52	4566
2026-01-17 08:28:25.24	11.32	15.49	-40.6	-42.5	19.0	0.00e+00	0	41	0	0	52	4589
2026-01-17 08:28:26.52	11.11	15.40	-40.6	-42.5	19.0	0.00e+00	0	41	0	0	52	4591
2026-01-17 08:28:27.24	10.99	15.35	-40.6	-42.6	19.0	0.00e+00	0	41	0	0	52	4608
2026-01-17 08:28:28.53	10.78	15.26	-40.7	-42.7	18.9	0.00e+00	0	41	0	0	52	4672
2026-01-17 08:28:29.24	10.67	15.21	-40.7	-42.6	19.0	0.00e+00	0	41	0	0	52	4635
2026-01-17 08:28:30.58	10.46	15.11	-40.6	-42.5	19.0	0.00e+00	0	41	0	0	52	4598
2026-01-17 08:28:31.29	10.34	15.06	-40.7	-42.6	18.9	0.00e+00	0	41	0	0	52	4638
2026-01-17 08:28:32.57	10.14	14.97	-40.7	-42.6	18.9	0.00e+00	0	41	0	0	52	4649
2026-01-17 08:28:33.28	10.03	14.92	-40.7	-42.6	19.0	0.00e+00	0	41	0	0	52	4620
2026-01-17 08:28:34.56	9.83	14.83	-40.6	-42.5	19.0	0.00e+00	0	41	0	0	52	4578
2026-01-17 08:28:35.27	9.72	14.78	-40.6	-42.5	19.0	0.00e+00	0	41	0	0	52	4590
2026-01-17 08:28:36.72	9.49	14.68	-40.6	-42.5	19.0	0.00e+00	0	41	0	0	52	4582
2026-01-17 08:28:37.43	9.38	14.63	-40.6	-42.5	19.0	0.00e+00	0	41	0	0	52	4592
2026-01-17 08:28:38.76	9.18	14.54	-40.6	-42.6	19.0	0.00e+00	0	41	0	0	52	4604
2026-01-17 08:28:39.47	9.07	14.49	-40.8	-42.7	18.9	0.00e+00	0	41	0	0	52	4695
2026-01-17 08:28:40.75	8.87	14.40	-40.8	-42.7	18.9	0.00e+00	0	41	0	0	52	4699
2026-01-17 08:28:41.48	8.76	14.35	-40.8	-42.8	18.8	0.00e+00	0	41	0	0	52	4729
2026-01-17 08:28:42.76	8.57	14.26	-41.0	-43.0	18.7	0.00e+00	0	41	0	0	52	4820
2026-01-17 08:28:43.47	8.46	14.21	-41.1	-43.1	18.5	0.00e+00	0	41	0	0	52	4889
2026-01-17 08:28:44.75	8.27	14.12	-41.1	-43.2	18.4	0.00e+00	0	41	0	0	52	4929
2026-01-17 08:28:45.47	8.17	14.06	-41.1	-43.1	18.4	0.00e+00	0	41	0	0	52	4925
2026-01-17 08:28:46.75	7.98	13.97	-41.1	-43.2	18.3	0.00e+00	0	41	0	0	53	4689
2026-01-17 08:28:47.50	7.87	13.92	-41.0	-43.1	18.3	0.00e+00	0	41	0	0	53	4633
2026-01-17 08:28:48.78	7.68	13.83	-40.8	-42.9	18.5	0.00e+00	0	41	0	0	53	4512
2026-01-17 08:28:49.49	7.57	13.78	-40.7	-42.8	18.6	0.00e+00	0	41	0	0	53	4472
2026-01-17 08:28:50.77	7.39	13.69	-40.7	-42.8	18.7	0.00e+00	0	41	0	0	53	4452
2026-01-17 08:28:51.59	7.27	13.63	-40.6	-42.6	18.8	0.00e+00	0	41	0	0	53	4390
2026-01-17 08:28:52.73	7.11	13.55	-40.6	-42.5	18.9	0.00e+00	0	41	0	0	53	4338
2026-01-17 08:28:53.58	6.99	13.49	-40.7	-42.7	18.8	0.00e+00	0	41	0	0	53	4403
2026-01-17 08:28:54.72	6.82	13.41	-40.8	-42.8	18.8	0.00e+00	0	41	0	0	53	4459
2026-01-17 08:28:55.57	6.70	13.35	-40.9	-42.9	18.6	0.00e+00	0	41	0	0	53	4529
2026-01-17 08:28:56.70	6.54	13.27	-41.1	-43.2	18.4	0.00e+00	0	41	0	0	53	4680
2026-01-17 08:28:57.56	6.42	13.21	-41.3	-43.4	18.2	0.00e+00	0	41	0	0	53	4768
2026-01-17 08:28:58.69	6.27	13.14	-41.4	-43.5	18.1	0.00e+00	0	41	0	0	53	4835
2026-01-17 08:28:59.55	6.15	13.07	-41.5	-43.6	18.0	0.00e+00	0	41	0	0	53	4888
2026-01-17 08:29:00.69	5.99	12.99	-41.5	-43.6	18.0	0.00e+00	0	41	0	0	53	4880
2026-01-17 08:29:01.54	5.87	12.94	-41.5	-43.6	18.0	0.00e+00	0	41	0	0	53	4880
2026-01-17 08:29:02.67	5.72	12.86	-41.4	-43.4	18.1	0.00e+00	0	41	0	0	53	4787
2026-01-17 08:29:03.53	5.60	12.80	-41.4	-43.4	18.1	0.00e+00	0	41	0	0	53	4803
2026-01-17 08:29:04.66	5.45	12.72	-41.2	-43.2	18.3	0.00e+00	0	41	0	0	53	4670
2026-01-17 08:29:05.52	5.33	12.66	-41.2	-43.2	18.2	0.00e+00	0	41	0	0	53	4702
2026-01-17 08:29:06.65	5.18	12.58	-41.1	-43.2	18.3	0.00e+00	0	41	0	0	53	4656
2026-01-17 08:29:07.51	5.07	12.52	-41.0	-43.0	18.4	0.00e+00	0	41	0	0	53	4579
2026-01-17 08:29:08.64	4.92	12.44	-41.0	-43.1	18.4	0.00e+00	0	41	0	0	53	4618
2026-01-17 08:29:09.49	4.80	12.38	-41.1	-43.2	18.3	0.00e+00	0	41	0	0	53	4673
2026-01-17 08:29:10.63	4.65	12.30	-41.2	-43.2	18.3	0.00e+00	0	41	0	0	53	4690
2026-01-17 08:29:11.48	4.54	12.24	-41.4	-43.4	18.2	0.00e+00	0	41	0	0	53	4793
2026-01-17 08:29:12.62	4.39	12.16	-41.5	-43.5	18.1	0.00e+00	0	41	0	0	53	4837
2026-01-17 08:29:13.48	4.28	12.10	-41.6	-43.7	17.9	0.00e+00	0	41	0	0	53	4930
2026-01-17 08:29:14.61	4.14	12.02	-41.8	-43.8	17.8	0.00e+00	0	41	0	0	54	4755
2026-01-17 08:29:15.47	4.02	11.96	-41.7	-43.7	17.9	0.00e+00	0	41	0	0	54	4693
2026-01-17 08:29:16.60	3.88	11.89	-41.8	-43.8	17.8	0.00e+00	0	41	0	0	54	4746
2026-01-17 08:29:17.46	3.77	11.83	-41.8	-43.8	17.8	0.00e+00	0	41	0	0	54	4747
2026-01-17 08:29:18.81	3.60	11.73	-41.6	-43.6	17.9	0.00e+00	0	41	0	0	54	4624
2026-01-17 08:29:19.52	3.51	11.68	-41.5	-43.5	18.0	0.00e+00	0	41	0	0	54	4583
2026-01-17 08:29:20.81	3.35	11.59	-41.4	-43.5	18.0	0.00e+00	0	41	0	0	54	4582
2026-01-17 08:29:21.53	3.26	11.54	-41.4	-43.4	18.1	0.00e+00	0	41	0	0	54	4531
2026-01-17 08:29:22.81	3.10	11.46	-41.2	-43.2	18.2	0.00e+00	0	41	0	0	54	4435
2026-01-17 08:29:23.53	3.01	11.41	-41.2	-43.2	18.3	0.00e+00	0	41	0	0	54	4393
2026-01-17 08:29:24.80	2.86	11.32	-41.2	-43.2	18.3	0.00e+00	0	41	0	0	54	4403
2026-01-17 08:29:25.60	2.76	11.26	-41.3	-43.2	18.3	0.00e+00	0	41	0	0	54	4437
2026-01-17 08:29:26.80	2.61	11.18	-41.4	-43.3	18.2	0.00e+00	0	41	0	0	54	4483
2026-01-17 08:29:27.65	2.51	11.12	-41.4	-43.4	18.2	0.00e+00	0	41	0	0	54	4499
2026-01-17 08:29:28.79	2.37	11.05	-41.4	-43.4	18.1	0.00e+00	0	41	0	0	54	4542
2026-01-17 08:29:29.64	2.27	10.99	-41.4	-43.6	17.9	0.00e+00	0	41	0	0	54	4631
2026-01-17 08:29:30.78	2.13	10.91	-41.6	-43.9	17.7	0.00e+00	0	41	0	0	54	4802
2026-01-17 08:29:31.63	2.03	10.85	-41.6	-44.0	17.6	0.00e+00	0	41	0	0	54	4830
2026-01-17 08:29:32.77	1.90	10.77	-41.7	-44.0	17.6	0.00e+00	0	41	0	0	54	4851
2026-01-17 08:29:33.62	1.80	10.72	-41.6	-43.9	17.7	0.00e+00	0	41	0	0	54	4766
2026-01-17 08:29:34.76	1.66	10.64	-41.7	-44.0	17.6	0.00e+00	0	41	0	0	54	4821
2026-01-17 08:29:35.61	1.56	10.58	-41.7	-43.9	17.6	0.00e+00	0	41	0	0	54	4789
2026-01-17 08:29:36.75	1.43	10.50	-41.7	-43.8	17.6	0.00e+00	0	41	0	0	54	4748
2026-01-17 08:29:37.60	1.33	10.44	-41.5	-43.6	17.8	0.00e+00	0	41	0	0	54	4600
2026-01-17 08:29:38.74	1.20	10.37	-41.3	-43.3	18.0	0.00e+00	0	41	0	0	54	4489
2026-01-17 08:29:39.61	1.10	10.31	-41.1	-43.2	18.2	0.00e+00	0	40	0	0	54	4410
2026-01-17 08:29:40.92	0.95	10.22	-41.0	-43.1	18.3	0.00e+00	0	41	0	0	54	4343
2026-01-17 08:29:41.63	0.87	10.17	-41.1	-43.2	18.2	0.00e+00	0	41	0	0	54	4414
2026-01-17 08:29:42.91	0.73	10.08	-41.0	-43.0	18.3	0.00e+00	0	41	0	0	53	4587
2026-01-17 08:29:43.62	0.65	10.04	-40.9	-43.0	18.4	0.00e+00	0	41	0	0	53	4576
2026-01-17 08:29:44.90	0.51	9.95	-41.0	-43.1	18.4	0.00e+00	0	41	0	0	53	4614
2026-01-17 08:29:45.62	0.43	9.90	-41.1	-43.2	18.2	0.00e+00	0	41	0	0	53	4700
2026-01-17 08:29:47.24	0.25	9.79	-41.4	-43.6	17.9	0.00e+00	0	41	0	0	53	4901
2026-01-17 08:29:47.81	0.19	9.75	-41.5	-43.7	17.9	0.00e+00	0	41	0	0	53	4936
2026-01-17 08:29:49.52	360.00	9.64	-41.9	-44.1	17.5	0.00e+00	0	41	0	0	54	4912
2026-01-17 08:29:50.09	359.94	9.60	-41.9	-44.2	17.4	0.00e+00	0	41	0	0	54	4948
2026-01-17 08:29:51.79	359.75	9.49	-42.1	-44.4	17.2	0.00e+00	0	41	0	0	54	5090
2026-01-17 08:29:52.36	359.69	9.45	-42.2	-44.5	17.1	0.00e+00	0	41	0	0	55	4828
2026-01-17 08:29:54.07	359.51	9.34	-42.2	-44.5	17.0	0.00e+00	0	41	0	0	55	4835
2026-01-17 08:29:54.73	359.44	9.29	-42.3	-44.6	17.0	0.00e+00	0	41	0	0	55	4872
2026-01-17 08:29:56.15	359.29	9.20	-42.2	-44.3	17.1	0.00e+00	0	41	0	0	55	4752
2026-01-17 08:29:56.96	359.20	9.14	-42.1	-44.3	17.2	0.00e+00	0	41	0	0	55	4709
2026-01-17 08:29:58.10	359.08	9.07	-42.2	-44.3	17.1	0.00e+00	0	41	0	0	55	4739
2026-01-17 08:29:58.95	358.99	9.01	-42.0	-44.2	17.2	0.00e+00	0	41	0	0	55	4659
2026-01-17 08:30:00.08	358.88	8.94	-49.0	-59.3	4.4	1.57e-01	0	41	0	0	68	12572
2026-01-17 08:30:00.94	358.79	8.88	-49.3	-63.1	3.8	1.49e+00	0	41	104	0	69	18446
2026-01-17 08:30:02.07	358.67	8.80	-49.9	-63.5	3.8	1.49e+00	0	41	104	0	70	18137
2026-01-17 08:30:02.92	358.59	8.75	-49.6	-63.5	3.8	1.49e+00	0	41	104	0	70	18290
2026-01-17 08:30:04.06	358.47	8.67	-50.2	-63.6	3.8	1.49e+00	0	41	104	0	71	17441
2026-01-17 08:30:04.93	358.38	8.62	-50.2	-63.6	3.8	1.49e+00	0	41	104	0	71	17461
2026-01-17 08:30:06.06	358.27	8.54	-50.5	-63.7	3.8	1.49e+00	0	40	104	0	71	17526
2026-01-17 08:30:06.91	358.18	8.49	-50.3	-63.7	3.8	1.49e+00	0	41	104	0	71	17582
2026-01-17 08:30:08.05	358.07	8.41	-50.2	-63.7	3.8	1.49e+00	0	41	104	0	71	17622
2026-01-17 08:30:08.90	357.98	8.36	-50.5	-63.7	3.8	1.49e+00	0	41	104	0	71	17635
2026-01-17 08:30:10.04	357.87	8.28	-50.5	-63.7	3.8	1.49e+00	0	41	104	0	71	17681
2026-01-17 08:30:10.89	357.79	8.23	-50.5	-63.7	3.8	1.49e+00	0	41	104	0	72	16625
2026-01-17 08:30:12.02	357.67	8.15	-50.4	-63.7	3.8	1.49e+00	0	41	104	0	72	16594
2026-01-17 08:30:12.87	357.59	8.10	-50.6	-63.8	3.8	1.49e+00	0	41	104	0	72	16706
2026-01-17 08:30:14.01	357.48	8.02	-50.6	-63.8	3.8	1.49e+00	0	41	104	0	72	16721
2026-01-17 08:30:14.86	357.40	7.97	-50.6	-63.8	3.8	1.49e+00	0	41	104	0	72	16716
2026-01-17 08:30:15.99	357.29	7.89	-50.6	-63.8	3.8	1.49e+00	0	41	104	0	72	16772
2026-01-17 08:30:16.84	357.21	7.84	-50.7	-63.8	3.8	1.49e+00	0	41	104	0	72	16782
2026-01-17 08:30:17.98	357.10	7.77	-50.4	-63.8	3.8	1.49e+00	0	41	104	0	72	16755
2026-01-17 08:30:18.83	357.02	7.71	-50.4	-63.8	3.8	1.49e+00	0	41	104	0	72	16741
2026-01-17 08:30:19.97	356.91	7.64	-50.5	-63.8	3.8	1.49e+00	0	41	104	0	72	16756
2026-01-17 08:30:20.82	356.83	7.58	-50.7	-63.8	3.8	1.49e+00	0	41	104	0	72	16804
2026-01-17 08:30:21.95	356.72	7.51	-50.7	-63.8	3.8	1.49e+00	0	41	104	0	72	16764
2026-01-17 08:30:22.80	356.64	7.45	-50.7	-63.8	3.8	1.49e+00	0	41	104	0	72	16779
2026-01-17 08:30:23.94	356.54	7.38	-50.7	-63.8	3.8	1.49e+00	0	41	104	0	72	16753
2026-01-17 08:30:24.79	356.46	7.33	-50.7	-63.8	3.8	1.49e+00	0	41	104	0	72	16733
2026-01-17 08:30:25.92	356.36	7.26	-50.6	-63.8	3.8	1.49e+00	0	41	104	0	72	16762
2026-01-17 08:30:26.78	356.28	7.20	-50.7	-63.8	3.8	1.49e+00	0	41	104	0	72	16738
2026-01-17 08:30:27.91	356.17	7.13	-50.7	-63.8	3.8	1.49e+00	0	41	104	0	72	16785
2026-01-17 08:30:28.76	356.10	7.07	-50.4	-63.8	3.8	1.49e+00	0	41	104	0	72	16742
2026-01-17 08:30:29.90	355.99	7.00	-50.4	-63.8	3.8	1.49e+00	0	41	104	0	72	16720
2026-01-17 08:30:30.75	355.92	6.95	-50.4	-63.7	3.8	1.49e+00	0	41	104	0	72	16671
2026-01-17 08:30:31.88	355.82	6.88	-50.4	-63.7	3.8	1.49e+00	0	41	104	0	72	16665
2026-01-17 08:30:32.74	355.74	6.82	-50.4	-63.8	3.8	1.49e+00	0	41	104	0	72	16703
2026-01-17 08:30:33.87	355.64	6.75	-50.4	-63.7	3.8	1.49e+00	0	41	104	0	72	16681
2026-01-17 08:30:34.72	355.56	6.70	-50.4	-63.8	3.8	1.49e+00	0	41	104	0	72	16752
2026-01-17 08:30:35.86	355.46	6.62	-50.4	-63.7	3.8	1.49e+00	0	41	104	0	72	16641
2026-01-17 08:30:36.71	355.39	6.57	-50.4	-63.8	3.8	1.49e+00	0	41	104	0	72	16695
2026-01-17 08:30:37.85	355.29	6.50	-50.4	-63.7	3.8	1.49e+00	0	41	104	0	72	16630
2026-01-17 08:30:38.70	355.22	6.45	-50.3	-63.7	3.8	1.49e+00	0	41	104	0	72	16629
2026-01-17 08:30:39.83	355.12	6.37	-50.4	-63.7	3.8	1.49e+00	0	41	104	0	72	16646
2026-01-17 08:30:40.68	355.04	6.32	-50.4	-63.7	3.8	1.49e+00	0	41	104	0	72	16618
2026-01-17 08:30:41.82	354.95	6.25	-50.4	-63.7	3.8	1.49e+00	0	41	104	0	72	16616
2026-01-17 08:30:42.67	354.87	6.20	-50.4	-63.7	3.8	1.49e+00	0	41	104	0	72	16606
2026-01-17 08:30:43.80	354.78	6.13	-50.4	-63.7	3.8	1.49e+00	0	41	104	0	72	16666
2026-01-17 08:30:44.66	354.71	6.07	-50.4	-63.7	3.8	1.49e+00	0	41	104	0	72	16628
2026-01-17 08:30:45.79	354.61	6.00	-50.3	-63.7	3.8	1.49e+00	0	41	104	0	72	16592
2026-01-17 08:30:46.64	354.54	5.95	-50.3	-63.7	3.8	1.49e+00	0	41	104	0	72	16565
2026-01-17 08:30:47.78	354.44	5.88	-50.3	-63.7	3.8	1.49e+00	0	41	104	0	72	16565
2026-01-17 08:30:48.63	354.37	5.83	-50.3	-63.7	3.8	1.49e+00	0	41	104	0	72	16606
2026-01-17 08:30:49.76	354.28	5.76	-50.3	-63.7	3.8	1.49e+00	0	41	104	0	72	16602
2026-01-17 08:30:50.62	354.21	5.70	-50.3	-63.7	3.8	1.49e+00	0	41	104	0	72	16604
2026-01-17 08:30:51.75	354.12	5.63	-50.3	-63.7	3.8	1.49e+00	0	41	104	0	72	16593
2026-01-17 08:30:52.60	354.05	5.58	-50.3	-63.7	3.8	1.49e+00	0	41	104	0	72	16590
2026-01-17 08:30:53.74	353.95	5.51	-50.3	-63.7	3.8	1.49e+00	0	41	104	0	72	16548
2026-01-17 08:30:54.59	353.88	5.46	-50.3	-63.7	3.8	1.49e+00	0	41	104	0	72	16504
2026-01-17 08:30:55.73	353.79	5.39	-50.3	-63.7	3.8	1.49e+00	0	41	104	0	72	16597
2026-01-17 08:30:56.58	353.72	5.34	-50.3	-63.7	3.8	1.49e+00	0	41	104	0	72	16520
2026-01-17 08:30:57.71	353.63	5.27	-50.3	-63.7	3.8	1.49e+00	0	41	104	0	72	16517
2026-01-17 08:30:58.57	353.57	5.21	-50.3	-63.7	3.8	1.49e+00	0	41	104	0	72	16507
2026-01-17 08:30:59.70	353.48	5.15	-50.3	-63.7	3.8	1.49e+00	0	41	104	0	72	16582
2026-01-17 08:31:00.55	353.41	5.09	-50.3	-63.7	3.8	1.49e+00	0	41	104	0	72	16516
2026-01-17 08:31:01.69	353.32	5.02	-50.3	-63.7	3.8	1.49e+00	0	41	104	0	72	16601
2026-01-17 08:31:02.54	353.25	4.97	-50.3	-63.7	3.8	1.49e+00	0	41	104	0	72	16550

#Closed at: 2026-01-17 08:31:03
#Recorded file [0 MB]: D:/Data/31040_260117_112003.dat