passes_logs/2026/01/17/T1/T1__20260117_233830_FENGYUN_3D_rec.log

#Pass ID: 20260117_233830_FENGYUN 3D
#Satellite: FENGYUN 3D
#Configuration: FENGYUN 3D
#almurnet v.1.7.20251203
#Start time: 2026-01-17 23:38:30

#Version: 2.0.20230620
#Station: T1
#Location: 37.570604 lon 55.790049 lat
#TLE: 1 43010U 17072A   26017.25882587  .00000461  00000+0  23963-3 0  9992
#TLE: 2 43010  98.9934 349.1096 0002357 104.0487 256.0951 14.19697152423579

#Time	Az	El	Level	Level2	SNR	BER	BlckErr	Temp	State	Recorded	gain1	gain2
2026-01-17 23:38:30.06	40.14	4.98	-49.7	-61.8	3.8	8.48e-01	0	39	0	0	71	14206
2026-01-17 23:38:31.05	40.26	5.02	-49.7	-61.8	3.8	8.46e-01	0	39	104	0	71	14201
2026-01-17 23:38:32.05	40.38	5.07	-49.7	-61.8	3.8	8.48e-01	0	39	104	0	71	14151
2026-01-17 23:38:33.04	40.50	5.11	-49.7	-61.9	3.8	8.47e-01	0	39	104	0	71	14244
2026-01-17 23:38:34.03	40.62	5.15	-49.7	-61.8	3.8	8.47e-01	0	39	104	0	71	14135
2026-01-17 23:38:35.03	40.74	5.19	-49.7	-61.8	3.8	8.46e-01	0	39	104	0	71	14144
2026-01-17 23:38:36.02	40.86	5.24	-49.7	-61.8	3.8	8.48e-01	0	39	104	0	71	14160
2026-01-17 23:38:37.01	40.99	5.28	-49.6	-61.8	3.8	8.47e-01	0	39	104	0	71	14161
2026-01-17 23:38:38.00	41.11	5.32	-49.7	-61.9	3.8	8.48e-01	0	39	104	0	71	14233
2026-01-17 23:38:39.00	41.23	5.36	-49.6	-61.8	3.8	8.46e-01	0	39	104	0	71	14130
2026-01-17 23:38:39.99	41.35	5.41	-49.7	-61.8	3.8	8.48e-01	0	39	104	0	71	14168
2026-01-17 23:38:40.98	41.48	5.45	-49.7	-61.8	3.8	8.47e-01	0	39	104	0	71	14180
2026-01-17 23:38:41.98	41.60	5.49	-49.6	-61.8	3.8	8.48e-01	0	39	104	0	71	14187
2026-01-17 23:38:42.97	41.72	5.53	-49.7	-61.8	3.8	8.47e-01	0	39	104	0	71	14145
2026-01-17 23:38:43.96	41.85	5.57	-49.6	-61.8	3.8	8.48e-01	0	39	104	0	71	14159
2026-01-17 23:38:44.95	41.97	5.61	-49.6	-61.8	3.8	8.47e-01	0	39	104	0	71	14130
2026-01-17 23:38:45.95	42.10	5.66	-49.6	-61.8	3.8	8.47e-01	0	39	104	0	71	14137
2026-01-17 23:38:46.94	42.22	5.70	-49.6	-61.8	3.8	8.47e-01	0	39	104	0	71	14113
2026-01-17 23:38:47.93	42.35	5.74	-49.6	-61.8	3.8	8.47e-01	0	40	104	0	71	14116
2026-01-17 23:38:48.93	42.48	5.78	-49.6	-61.8	3.8	8.48e-01	0	40	104	0	71	14107
2026-01-17 23:38:49.92	42.60	5.82	-49.6	-61.8	3.8	8.46e-01	0	39	104	0	71	14088
2026-01-17 23:38:50.91	42.73	5.86	-49.6	-61.8	3.8	8.48e-01	0	39	104	0	71	14120
2026-01-17 23:38:51.91	42.86	5.91	-49.6	-61.8	3.8	8.47e-01	0	40	104	0	71	14131
2026-01-17 23:38:52.90	42.98	5.95	-49.6	-61.8	3.8	8.47e-01	0	40	104	0	71	14087
2026-01-17 23:38:53.89	43.11	5.99	-49.6	-61.8	3.8	8.47e-01	0	40	104	0	71	14065
2026-01-17 23:38:54.89	43.24	6.03	-49.6	-61.8	3.8	8.48e-01	0	40	104	0	71	14075
2026-01-17 23:38:55.88	43.37	6.07	-49.6	-61.8	3.8	8.47e-01	0	40	104	0	71	14102
2026-01-17 23:38:56.87	43.50	6.11	-49.6	-61.8	3.8	8.47e-01	0	40	104	0	71	14063
2026-01-17 23:38:57.87	43.63	6.15	-49.6	-61.8	3.8	8.46e-01	0	40	104	0	71	14072
2026-01-17 23:38:58.86	43.76	6.20	-49.6	-61.8	3.8	8.46e-01	0	40	104	0	71	14118
2026-01-17 23:38:59.85	43.89	6.24	-49.6	-61.8	3.8	8.47e-01	0	40	104	0	71	14147
2026-01-17 23:39:00.84	44.02	6.28	-49.6	-61.8	3.8	8.48e-01	0	40	104	0	71	14085
2026-01-17 23:39:01.84	44.15	6.32	-49.6	-61.8	3.8	8.46e-01	0	40	104	0	71	14095
2026-01-17 23:39:02.83	44.28	6.36	-49.6	-61.8	3.8	8.47e-01	0	40	104	0	71	14061
2026-01-17 23:39:03.82	44.41	6.40	-49.6	-61.8	3.8	8.47e-01	0	40	104	0	71	14101
2026-01-17 23:39:04.82	44.54	6.44	-49.6	-61.7	3.8	8.47e-01	0	40	104	0	71	14027
2026-01-17 23:39:05.81	44.67	6.48	-49.6	-61.8	3.8	8.48e-01	0	40	104	0	71	14092
2026-01-17 23:39:06.80	44.81	6.52	-49.6	-61.8	3.8	8.46e-01	0	40	104	0	71	14120
2026-01-17 23:39:07.80	44.94	6.56	-49.6	-61.8	3.8	8.48e-01	0	40	104	0	71	14073
2026-01-17 23:39:08.79	45.07	6.60	-49.6	-61.8	3.8	8.47e-01	0	40	104	0	71	14076
2026-01-17 23:39:09.79	45.21	6.65	-49.6	-61.8	3.8	8.47e-01	0	40	104	0	71	14089
2026-01-17 23:39:10.78	45.34	6.69	-49.6	-61.8	3.8	8.47e-01	0	40	104	0	71	14122
2026-01-17 23:39:11.78	45.48	6.73	-49.6	-61.8	3.8	8.47e-01	0	40	104	0	71	14101
2026-01-17 23:39:12.77	45.61	6.77	-49.6	-61.8	3.8	8.46e-01	0	40	104	0	71	14071
2026-01-17 23:39:13.76	45.75	6.81	-49.6	-61.7	3.8	8.47e-01	0	40	104	0	71	14015
2026-01-17 23:39:14.75	45.88	6.85	-49.6	-61.7	3.8	8.47e-01	0	40	104	0	71	14036
2026-01-17 23:39:15.75	46.02	6.89	-49.6	-61.7	3.8	8.46e-01	0	40	104	0	71	14034
2026-01-17 23:39:16.74	46.15	6.93	-49.6	-61.8	3.8	8.46e-01	0	40	104	0	71	14050
2026-01-17 23:39:17.73	46.29	6.97	-49.6	-61.8	3.8	8.46e-01	0	40	104	0	71	14083
2026-01-17 23:39:18.73	46.43	7.01	-49.6	-61.8	3.8	8.46e-01	0	40	104	0	71	14055
2026-01-17 23:39:19.72	46.56	7.05	-49.6	-61.7	3.8	8.47e-01	0	40	104	0	71	14041
2026-01-17 23:39:20.72	46.70	7.09	-49.6	-61.8	3.8	8.47e-01	0	40	104	0	71	14074
2026-01-17 23:39:21.71	46.84	7.13	-49.6	-61.8	3.8	8.46e-01	0	40	104	0	71	14103
2026-01-17 23:39:22.70	46.98	7.17	-49.6	-61.7	3.8	8.47e-01	0	40	104	0	71	13978
2026-01-17 23:39:23.70	47.12	7.21	-49.6	-61.7	3.8	8.48e-01	0	40	104	0	71	14004
2026-01-17 23:39:24.69	47.26	7.24	-49.6	-61.7	3.8	8.47e-01	0	40	104	0	71	13979
2026-01-17 23:39:25.68	47.39	7.28	-49.6	-61.7	3.8	8.47e-01	0	40	104	0	71	13988
2026-01-17 23:39:26.68	47.54	7.32	-49.6	-61.7	3.8	8.47e-01	0	41	104	0	71	14016
2026-01-17 23:39:27.67	47.68	7.36	-49.6	-61.7	3.8	8.47e-01	0	40	104	0	71	13993
2026-01-17 23:39:28.67	47.82	7.40	-49.6	-61.7	3.8	8.47e-01	0	40	104	0	71	14000
2026-01-17 23:39:29.66	47.96	7.44	-49.6	-61.7	3.8	8.48e-01	0	40	104	0	71	14007
2026-01-17 23:39:30.65	48.10	7.48	-49.6	-61.7	3.8	8.48e-01	0	41	104	0	71	14035
2026-01-17 23:39:31.65	48.24	7.52	-49.6	-61.7	3.8	8.48e-01	0	40	104	0	71	14035
2026-01-17 23:39:32.64	48.38	7.56	-49.6	-61.7	3.8	8.47e-01	0	41	104	0	71	14044
2026-01-17 23:39:33.64	48.53	7.60	-49.6	-61.8	3.8	8.45e-01	0	41	104	0	71	14095
2026-01-17 23:39:34.63	48.67	7.63	-49.6	-61.8	3.8	8.47e-01	0	41	104	0	71	14071
2026-01-17 23:39:35.62	48.81	7.67	-49.6	-61.8	3.8	8.47e-01	0	41	104	0	71	14136
2026-01-17 23:39:36.62	48.95	7.71	-49.6	-61.8	3.8	8.48e-01	0	41	104	0	71	14095
2026-01-17 23:39:37.61	49.10	7.75	-49.6	-61.8	3.8	8.46e-01	0	41	104	0	71	14052
2026-01-17 23:39:38.60	49.24	7.79	-49.6	-61.7	3.8	8.47e-01	0	41	104	0	71	14018
2026-01-17 23:39:39.60	49.39	7.83	-49.6	-61.7	3.8	8.47e-01	0	41	104	0	71	13897
2026-01-17 23:39:40.59	49.53	7.86	-49.6	-61.6	3.8	8.47e-01	0	41	104	0	71	13805
2026-01-17 23:39:41.58	49.68	7.90	-49.6	-61.6	3.8	8.47e-01	0	41	104	0	71	13772
2026-01-17 23:39:42.58	49.82	7.94	-49.6	-61.4	3.8	8.46e-01	0	41	104	0	71	13538
2026-01-17 23:39:43.57	49.97	7.98	-49.6	-61.4	3.8	8.45e-01	0	41	104	0	71	13448
2026-01-17 23:39:44.56	50.11	8.02	-49.6	-61.3	3.8	8.47e-01	0	41	104	0	71	13393
2026-01-17 23:39:45.56	50.26	8.05	-49.6	-61.3	3.8	8.47e-01	0	41	104	0	71	13398
2026-01-17 23:39:46.55	50.41	8.09	-49.6	-61.4	3.8	8.46e-01	0	41	104	0	71	13533
2026-01-17 23:39:47.54	50.56	8.13	-49.6	-61.5	3.8	8.47e-01	0	41	104	0	71	13575
2026-01-17 23:39:48.54	50.71	8.16	-49.6	-61.5	3.8	8.46e-01	0	41	104	0	71	13597
2026-01-17 23:39:49.53	50.85	8.20	-49.6	-61.5	3.8	8.47e-01	0	41	104	0	71	13686
2026-01-17 23:39:50.52	51.00	8.24	-49.6	-61.6	3.8	8.48e-01	0	41	104	0	71	13783
2026-01-17 23:39:51.52	51.15	8.28	-49.6	-61.7	3.8	8.47e-01	0	41	104	0	71	13921
2026-01-17 23:39:52.51	51.30	8.31	-49.6	-61.8	3.8	8.48e-01	0	41	104	0	71	14047
2026-01-17 23:39:53.50	51.45	8.35	-49.6	-61.8	3.8	8.47e-01	0	41	104	0	71	14064
2026-01-17 23:39:54.50	51.60	8.39	-49.6	-61.7	3.8	8.47e-01	0	41	104	0	71	14040
2026-01-17 23:39:55.49	51.75	8.42	-49.6	-61.7	3.8	8.46e-01	0	41	104	0	71	13994
2026-01-17 23:39:56.48	51.90	8.46	-49.6	-61.8	3.8	8.48e-01	0	41	104	0	71	14072
2026-01-17 23:39:57.48	52.05	8.49	-49.6	-61.8	3.8	8.47e-01	0	41	104	0	71	14091
2026-01-17 23:39:58.47	52.20	8.53	-49.6	-61.8	3.8	8.47e-01	0	41	104	0	71	14117
2026-01-17 23:39:59.46	52.36	8.57	-49.6	-61.8	3.8	8.47e-01	0	41	104	0	71	14051
2026-01-17 23:40:00.46	52.51	8.60	-49.6	-61.7	3.8	8.48e-01	0	41	104	0	71	14018
2026-01-17 23:40:01.45	52.66	8.64	-49.6	-61.7	3.8	8.48e-01	0	41	104	0	71	13980
2026-01-17 23:40:02.45	52.81	8.67	-49.6	-61.7	3.8	8.48e-01	0	41	104	0	71	13953
2026-01-17 23:40:03.44	52.97	8.71	-49.6	-61.5	3.8	8.47e-01	0	41	104	0	71	13701
2026-01-17 23:40:04.43	53.12	8.74	-49.6	-61.2	3.8	8.45e-01	0	41	104	0	71	13230
2026-01-17 23:40:05.43	53.28	8.78	-49.5	-60.8	3.8	8.48e-01	0	41	104	0	71	12563
2026-01-17 23:40:06.42	53.43	8.82	-49.5	-60.4	3.8	8.47e-01	0	41	104	0	70	12783
2026-01-17 23:40:07.41	53.58	8.85	-49.4	-60.1	3.8	8.47e-01	0	41	104	0	70	12285
2026-01-17 23:40:08.40	53.74	8.88	-49.3	-59.5	3.8	8.46e-01	0	41	104	0	70	11432
2026-01-17 23:40:09.40	53.90	8.92	-49.0	-57.3	4.5	8.34e-01	0	41	0	0	70	8963
2026-01-17 23:40:10.39	54.05	8.95	-48.1	-54.1	6.4	5.66e-01	0	41	0	1048576	68	6929
2026-01-17 23:40:11.38	54.21	8.99	-46.7	-51.0	9.2	3.71e-02	0	41	0	7340032	65	5785
2026-01-17 23:40:12.38	54.36	9.02	-45.6	-49.1	11.3	2.28e-03	0	41	0	12582912	63	5172
2026-01-17 23:40:13.50	54.54	9.06	-46.7	-51.1	9.3	3.12e-03	0	41	0	18874368	64	6164
2026-01-17 23:40:14.35	54.68	9.09	-47.7	-53.3	6.9	5.82e-01	0	41	0	22020096	67	6652
2026-01-17 23:40:15.49	54.86	9.13	-46.5	-50.6	10.0	7.54e-04	0	41	0	28311552	63	6152
2026-01-17 23:40:16.34	54.99	9.16	-47.6	-53.0	7.0	7.22e-01	0	41	104	29360128	67	6459
2026-01-17 23:40:17.48	55.17	9.20	-39.9	-41.9	18.3	0.00e+00	0	41	0	34603008	51	4533
2026-01-17 23:40:18.33	55.31	9.23	-39.8	-41.9	18.3	0.00e+00	0	41	0	38797312	51	4504
2026-01-17 23:40:19.47	55.49	9.26	-39.6	-41.6	18.6	0.00e+00	0	41	0	46137344	51	4376
2026-01-17 23:40:20.32	55.63	9.29	-39.6	-41.6	18.6	0.00e+00	0	41	0	50331648	51	4353
2026-01-17 23:40:21.46	55.81	9.33	-39.6	-41.6	18.6	0.00e+00	0	41	0	56623104	51	4382
2026-01-17 23:40:22.31	55.95	9.36	-39.6	-41.6	18.6	0.00e+00	0	41	0	61865984	51	4343
2026-01-17 23:40:23.45	56.13	9.40	-39.5	-41.5	18.7	0.00e+00	0	41	0	68157440	51	4316
2026-01-17 23:40:24.30	56.27	9.42	-39.6	-41.6	18.6	0.00e+00	0	41	0	72351744	51	4343
2026-01-17 23:40:25.44	56.46	9.46	-39.4	-41.4	18.8	0.00e+00	0	41	0	78643200	50	4516
2026-01-17 23:40:26.29	56.59	9.49	-39.2	-41.2	19.0	0.00e+00	0	41	0	83886080	50	4413
2026-01-17 23:40:27.56	56.80	9.53	-39.4	-41.4	18.8	0.00e+00	0	41	0	91226112	50	4498
2026-01-17 23:40:28.34	56.93	9.55	-39.5	-41.4	18.8	0.00e+00	0	41	0	95420416	50	4545
2026-01-17 23:40:29.75	57.16	9.60	-39.4	-41.3	18.9	0.00e+00	0	41	0	103809024	50	4487
2026-01-17 23:40:30.46	57.28	9.62	-39.5	-41.5	18.7	0.00e+00	0	41	0	106954752	50	4556
2026-01-17 23:40:31.74	57.49	9.66	-39.4	-41.4	18.8	0.00e+00	0	41	0	114294784	50	4523
2026-01-17 23:40:32.46	57.61	9.68	-39.5	-41.5	18.7	0.00e+00	0	41	0	118489088	50	4565
2026-01-17 23:40:33.74	57.82	9.73	-39.5	-41.4	18.7	0.00e+00	0	41	0	125829120	50	4545
2026-01-17 23:40:34.45	57.94	9.75	-39.5	-41.5	18.7	0.00e+00	0	41	0	130023424	50	4566
2026-01-17 23:40:35.73	58.15	9.79	-39.5	-41.5	18.7	0.00e+00	0	41	0	137363456	50	4583
2026-01-17 23:40:36.45	58.27	9.81	-39.5	-41.5	18.7	0.00e+00	0	41	0	140509184	50	4585
2026-01-17 23:40:37.73	58.48	9.85	-39.4	-41.3	18.9	0.00e+00	0	41	0	147849216	50	4487
2026-01-17 23:40:38.45	58.60	9.87	-39.3	-41.2	18.9	0.00e+00	0	41	0	152043520	50	4436
2026-01-17 23:40:39.73	58.82	9.91	-39.3	-41.3	18.9	0.00e+00	0	41	0	159383552	50	4460
2026-01-17 23:40:40.60	58.96	9.93	-39.4	-41.4	18.8	0.00e+00	0	41	0	164626432	50	4528
2026-01-17 23:40:41.74	59.15	9.97	-39.4	-41.4	18.8	0.00e+00	0	41	0	170917888	50	4531
2026-01-17 23:40:42.59	59.30	9.99	-39.4	-41.4	18.8	0.00e+00	0	41	0	175112192	50	4534
2026-01-17 23:40:43.73	59.49	10.03	-39.5	-41.6	18.7	0.00e+00	0	41	0	182452224	50	4605
2026-01-17 23:40:44.58	59.63	10.05	-39.4	-41.4	18.8	0.00e+00	0	41	0	186646528	50	4540
2026-01-17 23:40:45.72	59.82	10.09	-39.5	-41.5	18.7	0.00e+00	0	41	0	192937984	50	4585
2026-01-17 23:40:46.57	59.97	10.11	-39.4	-41.4	18.8	0.00e+00	0	41	0	198180864	50	4524
2026-01-17 23:40:47.71	60.16	10.14	-39.3	-41.3	18.9	0.00e+00	0	41	0	204472320	50	4455
2026-01-17 23:40:48.56	60.31	10.17	-39.3	-41.2	19.0	0.00e+00	0	41	0	209715200	50	4433
2026-01-17 23:40:49.70	60.50	10.20	-39.2	-41.2	19.0	0.00e+00	0	41	0	216006656	50	4420
2026-01-17 23:40:50.55	60.65	10.22	-39.2	-41.2	19.0	0.00e+00	0	41	0	220200960	50	4414
2026-01-17 23:40:51.69	60.84	10.26	-39.3	-41.3	18.9	0.00e+00	0	41	0	226492416	50	4451
2026-01-17 23:40:52.54	60.99	10.28	-39.2	-41.2	19.0	0.00e+00	0	41	0	231735296	50	4425
2026-01-17 23:40:53.68	61.18	10.31	-39.3	-41.3	18.9	0.00e+00	0	41	0	238026752	50	4486
2026-01-17 23:40:54.53	61.33	10.33	-39.3	-41.3	18.9	0.00e+00	0	41	0	243269632	50	4458
2026-01-17 23:40:55.67	61.53	10.37	-39.4	-41.4	18.8	0.00e+00	0	41	0	249561088	50	4523
2026-01-17 23:40:56.52	61.67	10.39	-39.4	-41.4	18.8	0.00e+00	0	41	0	253755392	50	4512
2026-01-17 23:40:57.66	61.87	10.42	-39.4	-41.4	18.8	0.00e+00	0	41	0	260046848	50	4504
2026-01-17 23:40:58.51	62.02	10.44	-39.3	-41.3	18.9	0.00e+00	0	41	0	265289728	50	4454
2026-01-17 23:40:59.65	62.22	10.47	-39.2	-41.1	19.1	0.00e+00	0	41	0	271581184	50	4381
2026-01-17 23:41:00.50	62.37	10.49	-39.2	-41.2	19.0	0.00e+00	0	41	0	275775488	50	4432
2026-01-17 23:41:01.64	62.56	10.52	-39.2	-41.2	19.1	0.00e+00	0	41	0	283115520	50	4399
2026-01-17 23:41:02.49	62.71	10.55	-39.1	-41.1	19.2	0.00e+00	0	41	0	287309824	50	4347
2026-01-17 23:41:03.63	62.91	10.58	-39.1	-41.1	19.1	0.00e+00	0	41	0	293601280	50	4372
2026-01-17 23:41:04.48	63.06	10.60	-39.0	-41.0	19.2	0.00e+00	0	41	0	298844160	50	4324
2026-01-17 23:41:05.62	63.26	10.63	-39.2	-41.1	19.1	0.00e+00	0	41	0	305135616	50	4378
2026-01-17 23:41:06.48	63.41	10.65	-39.1	-41.0	19.2	0.00e+00	0	41	0	310378496	50	4340
2026-01-17 23:41:07.61	63.61	10.68	-38.8	-40.8	19.4	0.00e+00	0	41	0	316669952	49	4444
2026-01-17 23:41:08.47	63.76	10.70	-38.8	-40.7	19.5	0.00e+00	0	41	0	320864256	49	4419
2026-01-17 23:41:09.60	63.96	10.72	-38.8	-40.7	19.5	0.00e+00	0	41	0	327155712	49	4433
2026-01-17 23:41:10.45	64.11	10.75	-38.8	-40.7	19.5	0.00e+00	0	41	0	332398592	49	4401
2026-01-17 23:41:11.59	64.32	10.77	-38.8	-40.7	19.5	0.00e+00	0	41	0	338690048	49	4393
2026-01-17 23:41:12.44	64.47	10.79	-38.7	-40.6	19.6	0.00e+00	0	41	0	343932928	49	4367
2026-01-17 23:41:13.58	64.67	10.82	-38.8	-40.7	19.5	0.00e+00	0	41	0	350224384	49	4424
2026-01-17 23:41:14.43	64.82	10.84	-38.9	-40.8	19.4	0.00e+00	0	41	0	354418688	49	4478
2026-01-17 23:41:15.57	65.03	10.87	-38.9	-40.8	19.4	0.00e+00	0	41	0	360710144	49	4490
2026-01-17 23:41:16.42	65.18	10.89	-38.8	-40.8	19.4	0.00e+00	0	41	0	365953024	49	4454
2026-01-17 23:41:17.59	65.39	10.91	-38.9	-40.8	19.4	0.00e+00	0	42	0	372244480	49	4477
2026-01-17 23:41:18.44	65.54	10.93	-38.9	-40.8	19.4	0.00e+00	0	41	0	377487360	49	4453
2026-01-17 23:41:19.58	65.74	10.96	-38.6	-40.6	19.6	0.00e+00	0	41	0	383778816	49	4341
2026-01-17 23:41:20.43	65.90	10.97	-38.6	-40.5	19.7	0.00e+00	0	41	0	387973120	49	4312
2026-01-17 23:41:21.70	66.13	11.00	-38.6	-40.5	19.7	0.00e+00	0	42	0	395313152	49	4303
2026-01-17 23:41:22.42	66.26	11.02	-38.5	-40.4	19.7	0.00e+00	0	41	0	399507456	49	4280
2026-01-17 23:41:23.70	66.49	11.04	-38.6	-40.4	19.7	0.00e+00	0	42	0	406847488	49	4291
2026-01-17 23:41:24.42	66.62	11.06	-38.6	-40.5	19.7	0.00e+00	0	42	0	411041792	49	4306
2026-01-17 23:41:25.70	66.85	11.09	-38.6	-40.5	19.6	0.00e+00	0	42	0	418381824	49	4325
2026-01-17 23:41:26.42	66.98	11.10	-38.7	-40.6	19.5	0.00e+00	0	42	0	422576128	49	4378
2026-01-17 23:41:27.70	67.21	11.13	-38.9	-40.9	19.3	0.00e+00	0	42	0	428867584	49	4502
2026-01-17 23:41:28.51	67.36	11.14	-38.9	-40.8	19.3	0.00e+00	0	41	0	434110464	49	4490
2026-01-17 23:41:29.65	67.57	11.17	-38.8	-40.7	19.4	0.00e+00	0	41	0	440401920	49	4435
2026-01-17 23:41:30.50	67.72	11.18	-38.8	-40.7	19.4	0.00e+00	0	41	0	444596224	49	4435
2026-01-17 23:41:31.64	67.93	11.20	-38.7	-40.6	19.5	0.00e+00	0	41	0	451936256	49	4373
2026-01-17 23:41:32.49	68.09	11.22	-38.6	-40.5	19.6	0.00e+00	0	41	0	456130560	49	4340
2026-01-17 23:41:33.63	68.29	11.24	-38.7	-40.6	19.6	0.00e+00	0	42	0	462422016	49	4351
2026-01-17 23:41:34.79	68.51	11.26	-38.7	-40.7	19.5	0.00e+00	0	42	0	468713472	49	4393
2026-01-17 23:41:35.82	68.70	11.28	-38.8	-40.7	19.5	0.00e+00	0	42	0	475004928	49	4404
2026-01-17 23:41:36.82	68.88	11.30	-38.8	-40.7	19.5	0.00e+00	0	41	0	480247808	49	4410
2026-01-17 23:41:37.81	69.06	11.32	-38.8	-40.8	19.4	0.00e+00	0	41	0	486539264	49	4449
2026-01-17 23:41:38.81	69.25	11.34	-38.9	-40.8	19.3	0.00e+00	0	42	0	491782144	49	4488
2026-01-17 23:41:39.80	69.43	11.35	-38.8	-40.7	19.5	0.00e+00	0	42	0	497025024	49	4414
2026-01-17 23:41:40.80	69.61	11.37	-38.8	-40.7	19.5	0.00e+00	0	41	0	503316480	49	4424
2026-01-17 23:41:41.79	69.80	11.39	-38.8	-40.7	19.5	0.00e+00	0	42	0	508559360	49	4426
2026-01-17 23:41:42.78	69.98	11.40	-38.9	-40.9	19.3	0.00e+00	0	42	0	513802240	49	4508
2026-01-17 23:41:43.78	70.17	11.42	-38.9	-40.9	19.3	0.00e+00	0	41	0	520093696	49	4510
2026-01-17 23:41:44.77	70.35	11.44	-38.9	-40.9	19.3	0.00e+00	0	42	0	525336576	49	4525
2026-01-17 23:41:45.77	70.53	11.45	-38.9	-40.8	19.4	0.00e+00	0	41	0	530579456	49	4486
2026-01-17 23:41:46.76	70.72	11.47	-39.0	-40.9	19.3	0.00e+00	0	42	0	536870912	49	4544
2026-01-17 23:41:47.77	70.91	11.48	-39.1	-41.1	19.2	0.00e+00	0	41	0	542113792	49	4609
2026-01-17 23:41:48.78	71.09	11.50	-39.1	-41.1	19.2	0.00e+00	0	42	0	548405248	49	4607
2026-01-17 23:41:49.79	71.28	11.51	-38.9	-40.8	19.4	0.00e+00	0	41	0	553648128	49	4469
2026-01-17 23:41:50.83	71.48	11.53	-38.8	-40.7	19.5	0.00e+00	0	41	0	559939584	49	4415
2026-01-17 23:41:51.81	71.66	11.54	-38.8	-40.7	19.5	0.00e+00	0	42	0	565182464	49	4397
2026-01-17 23:41:52.89	71.86	11.56	-38.7	-40.6	19.6	0.00e+00	0	41	0	571473920	49	4355
2026-01-17 23:41:53.74	72.02	11.57	-38.8	-40.7	19.5	0.00e+00	0	41	0	575668224	49	4423
2026-01-17 23:41:55.10	72.28	11.59	-38.9	-40.8	19.4	0.00e+00	0	41	0	583008256	49	4471
2026-01-17 23:41:55.81	72.41	11.60	-38.8	-40.8	19.4	0.00e+00	0	41	0	587202560	49	4465
2026-01-17 23:41:57.09	72.65	11.61	-38.8	-40.8	19.4	0.00e+00	0	42	0	594542592	49	4463
2026-01-17 23:41:58.33	72.88	11.63	-38.7	-40.6	19.5	0.00e+00	0	41	0	601882624	49	4384
2026-01-17 23:41:59.19	73.05	11.64	-38.6	-40.6	19.6	0.00e+00	0	41	0	606076928	49	4348
2026-01-17 23:42:00.33	73.26	11.65	-38.5	-40.4	19.4	0.00e+00	0	42	0	613416960	48	4500
2026-01-17 23:42:01.18	73.42	11.66	-38.6	-40.5	19.7	0.00e+00	0	42	0	617611264	48	4553
2026-01-17 23:42:02.32	73.63	11.67	-38.5	-40.4	19.7	0.00e+00	0	42	0	623902720	48	4535
2026-01-17 23:42:03.17	73.80	11.68	-38.5	-40.4	19.8	0.00e+00	0	41	0	629145600	48	4508
2026-01-17 23:42:04.31	74.01	11.70	-38.5	-40.4	19.7	0.00e+00	0	41	0	635437056	48	4531
2026-01-17 23:42:05.16	74.17	11.71	-38.6	-40.5	19.7	0.00e+00	0	41	0	639631360	48	4550
2026-01-17 23:42:06.41	74.41	11.72	-38.5	-40.4	19.7	0.00e+00	0	41	0	646971392	48	4541
2026-01-17 23:42:07.26	74.57	11.73	-38.6	-40.5	19.6	0.00e+00	0	41	0	652214272	48	4587
2026-01-17 23:42:08.48	74.80	11.74	-38.7	-40.6	19.6	0.00e+00	0	41	0	658505728	48	4631
2026-01-17 23:42:09.33	74.96	11.75	-38.7	-40.7	19.5	0.00e+00	0	41	0	663748608	48	4663
2026-01-17 23:42:10.47	75.18	11.76	-38.8	-40.7	19.5	0.00e+00	0	41	0	670040064	48	4676
2026-01-17 23:42:11.32	75.34	11.76	-38.7	-40.7	19.5	0.00e+00	0	41	0	675282944	48	4658
2026-01-17 23:42:12.46	75.55	11.77	-38.7	-40.6	19.6	0.00e+00	0	42	0	680525824	48	4617
2026-01-17 23:42:13.31	75.72	11.78	-38.7	-40.6	19.6	0.00e+00	0	41	0	685768704	48	4635
2026-01-17 23:42:14.45	75.93	11.79	-38.7	-40.6	19.6	0.00e+00	0	42	0	692060160	48	4632
2026-01-17 23:42:15.30	76.09	11.80	-38.6	-40.5	19.6	0.00e+00	0	42	0	697303040	48	4587
2026-01-17 23:42:16.44	76.31	11.81	-38.4	-40.3	19.8	0.00e+00	0	42	0	703594496	48	4484
2026-01-17 23:42:17.30	76.48	11.81	-38.6	-40.5	19.7	0.00e+00	0	42	0	707788800	48	4552
2026-01-17 23:42:18.43	76.69	11.82	-38.6	-40.5	19.6	0.00e+00	0	41	0	715128832	48	4585
2026-01-17 23:42:19.28	76.85	11.83	-38.6	-40.5	19.7	0.00e+00	0	41	0	719323136	48	4553
2026-01-17 23:42:20.42	77.07	11.83	-38.5	-40.4	19.7	0.00e+00	0	41	0	725614592	48	4526
2026-01-17 23:42:21.28	77.23	11.84	-38.6	-40.5	19.7	0.00e+00	0	41	0	730857472	48	4563
2026-01-17 23:42:22.41	77.45	11.84	-38.6	-40.5	19.7	0.00e+00	0	41	0	737148928	48	4577
2026-01-17 23:42:23.27	77.61	11.85	-38.7	-40.6	19.6	0.00e+00	0	41	0	742391808	48	4634
2026-01-17 23:42:24.40	77.83	11.86	-38.6	-40.5	19.6	0.00e+00	0	42	0	748683264	48	4591
2026-01-17 23:42:25.25	77.99	11.86	-38.6	-40.5	19.6	0.00e+00	0	41	0	752877568	48	4595
2026-01-17 23:42:26.39	78.21	11.86	-38.6	-40.6	19.6	0.00e+00	0	42	0	759169024	48	4605
2026-01-17 23:42:27.24	78.37	11.87	-38.6	-40.5	19.7	0.00e+00	0	41	0	764411904	48	4575
2026-01-17 23:42:28.49	78.61	11.87	-38.4	-40.3	19.8	0.00e+00	0	41	0	771751936	48	4492
2026-01-17 23:42:29.34	78.77	11.88	-38.5	-40.4	19.8	0.00e+00	0	42	0	775946240	48	4504
2026-01-17 23:42:30.55	79.01	11.88	-38.6	-40.5	19.7	0.00e+00	0	41	0	783286272	48	4559
2026-01-17 23:42:31.40	79.17	11.88	-38.6	-40.5	19.6	0.00e+00	0	41	0	787480576	48	4585
2026-01-17 23:42:32.60	79.40	11.89	-38.5	-40.5	19.7	0.00e+00	0	41	0	794820608	48	4551
2026-01-17 23:42:33.45	79.56	11.89	-38.5	-40.4	19.7	0.00e+00	0	41	0	799014912	48	4536
2026-01-17 23:42:34.59	79.78	11.89	-38.7	-40.6	19.6	0.00e+00	0	42	0	805306368	48	4623
2026-01-17 23:42:35.44	79.94	11.89	-38.7	-40.7	19.5	0.00e+00	0	41	0	810549248	48	4656
2026-01-17 23:42:36.71	80.19	11.90	-38.7	-40.6	19.6	0.00e+00	0	42	0	817889280	48	4637
2026-01-17 23:42:37.42	80.32	11.90	-38.6	-40.6	19.6	0.00e+00	0	41	0	822083584	48	4599
2026-01-17 23:42:38.70	80.57	11.90	-38.6	-40.6	19.6	0.00e+00	0	42	0	828375040	48	4609
2026-01-17 23:42:39.41	80.70	11.90	-38.5	-40.5	19.7	0.00e+00	0	42	0	832569344	48	4548
2026-01-17 23:42:40.69	80.95	11.90	-38.4	-40.3	19.8	0.00e+00	0	42	0	839909376	48	4462
2026-01-17 23:42:41.46	81.10	11.90	-38.5	-40.4	19.8	0.00e+00	0	42	0	844103680	48	4505
2026-01-17 23:42:42.74	81.34	11.90	-38.4	-40.3	19.8	0.00e+00	0	41	0	851443712	48	4481
2026-01-17 23:42:43.47	81.48	11.90	-38.4	-40.3	19.8	0.00e+00	0	42	0	855638016	48	4457
2026-01-17 23:42:44.75	81.73	11.90	-38.4	-40.4	19.8	0.00e+00	0	42	0	862978048	48	4505
2026-01-17 23:42:45.46	81.86	11.90	-38.4	-40.3	19.8	0.00e+00	0	42	0	866123776	48	4472
2026-01-17 23:42:46.74	82.11	11.90	-38.6	-40.5	19.6	0.00e+00	0	41	0	873463808	48	4589
2026-01-17 23:42:47.45	82.24	11.90	-38.7	-40.6	19.5	0.00e+00	0	41	0	877658112	48	4637
2026-01-17 23:42:48.73	82.49	11.89	-38.7	-40.7	19.5	0.00e+00	0	41	0	884998144	48	4652
2026-01-17 23:42:49.45	82.63	11.89	-38.6	-40.5	19.6	0.00e+00	0	41	0	889192448	48	4582
2026-01-17 23:42:50.75	82.88	11.89	-38.4	-40.3	19.8	0.00e+00	0	42	0	896532480	48	4486
2026-01-17 23:42:51.46	83.01	11.89	-38.6	-40.5	19.7	0.00e+00	0	42	0	900726784	48	4552
2026-01-17 23:42:52.74	83.26	11.88	-38.6	-40.6	19.6	0.00e+00	0	42	0	908066816	48	4600
2026-01-17 23:42:53.45	83.39	11.88	-38.5	-40.4	19.7	0.00e+00	0	41	0	911212544	48	4533
2026-01-17 23:42:54.73	83.64	11.88	-38.6	-40.6	19.6	0.00e+00	0	41	0	918552576	48	4606
2026-01-17 23:42:55.44	83.78	11.88	-38.7	-40.7	19.5	0.00e+00	0	42	0	922746880	48	4663
2026-01-17 23:42:56.71	84.02	11.87	-38.8	-40.8	19.4	0.00e+00	0	41	0	930086912	48	4745
2026-01-17 23:42:57.45	84.16	11.87	-38.7	-40.7	19.5	0.00e+00	0	42	0	934281216	48	4679
2026-01-17 23:42:58.73	84.40	11.86	-38.7	-40.7	19.5	0.00e+00	0	42	0	941621248	48	4678
2026-01-17 23:42:59.49	84.55	11.86	-38.7	-40.7	19.5	0.00e+00	0	42	0	945815552	48	4660
2026-01-17 23:43:00.77	84.79	11.85	-38.7	-40.6	19.6	0.00e+00	0	42	0	953155584	48	4631
2026-01-17 23:43:01.50	84.93	11.85	-38.7	-40.6	19.5	0.00e+00	0	42	0	957349888	48	4644
2026-01-17 23:43:02.78	85.18	11.84	-38.6	-40.5	19.7	0.00e+00	0	41	0	964689920	48	4573
2026-01-17 23:43:03.49	85.31	11.84	-38.7	-40.7	19.5	0.00e+00	0	42	0	967835648	48	4665
2026-01-17 23:43:04.77	85.56	11.83	-38.6	-40.6	19.6	0.00e+00	0	41	0	975175680	48	4619
2026-01-17 23:43:05.68	85.73	11.82	-38.8	-40.8	19.4	0.00e+00	0	42	0	980418560	48	4710
2026-01-17 23:43:06.98	85.98	11.81	-38.7	-40.7	19.5	0.00e+00	0	42	0	987758592	48	4664
2026-01-17 23:43:07.69	86.12	11.81	-38.7	-40.6	19.5	0.00e+00	0	42	0	991952896	48	4647
2026-01-17 23:43:08.97	86.36	11.80	-38.6	-40.5	19.6	0.00e+00	0	41	0	999292928	48	4596
2026-01-17 23:43:09.68	86.49	11.79	-38.8	-40.7	19.5	0.00e+00	0	41	0	1003487232	48	4684
2026-01-17 23:43:10.96	86.74	11.78	-38.6	-40.5	19.7	0.00e+00	0	42	0	1009778688	48	4559
2026-01-17 23:43:11.67	86.87	11.78	-38.6	-40.5	19.7	0.00e+00	0	42	0	1013972992	48	4569
2026-01-17 23:43:12.95	87.12	11.76	-38.6	-40.5	19.6	0.00e+00	0	42	0	1021313024	48	4593
2026-01-17 23:43:13.66	87.25	11.76	-38.6	-40.6	19.6	0.00e+00	0	42	0	1025507328	48	4609
2026-01-17 23:43:14.94	87.50	11.75	-38.6	-40.6	19.6	0.00e+00	0	42	0	1032847360	48	4602
2026-01-17 23:43:15.66	87.63	11.74	-38.5	-40.4	19.7	0.00e+00	0	42	0	1035993088	48	4541
2026-01-17 23:43:16.94	87.87	11.73	-38.7	-40.6	19.6	0.00e+00	0	42	0	1043333120	48	4636
2026-01-17 23:43:17.65	88.01	11.72	-38.7	-40.6	19.6	0.00e+00	0	42	0	1047527424	48	4632
2026-01-17 23:43:19.12	88.29	11.71	-38.8	-40.7	19.5	0.00e+00	0	42	0	1055916032	48	4688
2026-01-17 23:43:19.83	88.42	11.70	-38.7	-40.6	19.5	0.00e+00	0	42	0	1060110336	48	4642
2026-01-17 23:43:21.11	88.66	11.68	-38.7	-40.6	19.6	0.00e+00	0	42	0	1067450368	48	4643
2026-01-17 23:43:21.82	88.80	11.68	-38.7	-40.6	19.6	0.00e+00	0	41	0	1071644672	48	4636
2026-01-17 23:43:23.22	89.06	11.66	-38.5	-40.5	19.7	0.00e+00	0	42	0	1078984704	48	4546
2026-01-17 23:43:23.93	89.20	11.65	-38.5	-40.4	19.8	0.00e+00	0	42	0	1083179008	48	4512
2026-01-17 23:43:25.28	89.45	11.64	-38.5	-40.4	19.7	0.00e+00	0	41	0	1090519040	48	4503
2026-01-17 23:43:26.26	89.64	11.62	-38.6	-40.5	19.7	0.00e+00	0	42	0	1095761920	48	4567
2026-01-17 23:43:27.25	89.82	11.61	-38.5	-40.4	19.7	0.00e+00	0	42	0	1102053376	48	4528
2026-01-17 23:43:28.25	90.01	11.60	-38.6	-40.5	19.6	0.00e+00	0	42	0	1107296256	48	4577
2026-01-17 23:43:29.24	90.20	11.58	-38.6	-40.5	19.7	0.00e+00	0	42	0	1112539136	48	4571
2026-01-17 23:43:30.24	90.38	11.57	-38.7	-40.6	19.5	0.00e+00	0	42	0	1118830592	48	4629
2026-01-17 23:43:31.23	90.57	11.56	-38.8	-40.7	19.4	0.00e+00	0	42	0	1124073472	48	4685
2026-01-17 23:43:32.23	90.76	11.54	-38.9	-40.8	19.4	0.00e+00	0	42	0	1130364928	48	4742
2026-01-17 23:43:33.22	90.94	11.53	-38.6	-40.5	19.6	0.00e+00	0	42	0	1135607808	48	4581
2026-01-17 23:43:34.22	91.13	11.52	-38.8	-40.7	19.4	0.00e+00	0	42	0	1140850688	48	4688
2026-01-17 23:43:35.26	91.33	11.50	-38.9	-40.9	19.3	0.00e+00	0	42	0	1147142144	48	4780
2026-01-17 23:43:36.28	91.52	11.48	-38.8	-40.8	19.4	0.00e+00	0	42	0	1152385024	48	4717
2026-01-17 23:43:37.28	91.70	11.47	-38.7	-40.7	19.4	0.00e+00	0	42	0	1158676480	48	4667
2026-01-17 23:43:38.35	91.90	11.45	-38.9	-40.9	19.3	0.00e+00	0	42	0	1163919360	48	4760
2026-01-17 23:43:39.24	92.07	11.44	-38.9	-40.9	19.3	0.00e+00	0	42	0	1169162240	48	4765
2026-01-17 23:43:40.37	92.28	11.42	-39.0	-40.9	19.2	0.00e+00	0	42	0	1175453696	48	4789
2026-01-17 23:43:41.23	92.44	11.41	-38.9	-40.9	19.2	0.00e+00	0	42	0	1180696576	48	4773
2026-01-17 23:43:42.60	92.69	11.38	-39.0	-41.0	19.2	0.00e+00	0	42	0	1188036608	48	4827
2026-01-17 23:43:43.31	92.82	11.37	-39.1	-41.0	19.1	0.00e+00	0	42	0	1192230912	48	4869
2026-01-17 23:43:44.59	93.06	11.35	-39.0	-41.0	19.2	0.00e+00	0	42	0	1199570944	48	4838
2026-01-17 23:43:45.31	93.19	11.34	-38.9	-40.9	19.3	0.00e+00	0	42	0	1203765248	48	4767
2026-01-17 23:43:46.59	93.43	11.31	-38.8	-40.7	19.4	0.00e+00	0	42	0	1210056704	48	4685
2026-01-17 23:43:47.32	93.57	11.30	-38.8	-40.8	19.4	0.00e+00	0	42	0	1215299584	48	4731
2026-01-17 23:43:48.60	93.80	11.28	-38.8	-40.8	19.4	0.00e+00	0	42	0	1221591040	48	4730
2026-01-17 23:43:49.32	93.93	11.27	-38.8	-40.8	19.4	0.00e+00	0	42	0	1225785344	48	4727
2026-01-17 23:43:50.59	94.17	11.24	-38.8	-40.7	19.4	0.00e+00	0	42	0	1233125376	48	4694
2026-01-17 23:43:51.51	94.34	11.22	-38.9	-40.9	19.3	0.00e+00	0	42	0	1238368256	48	4792
2026-01-17 23:43:52.51	94.52	11.21	-38.8	-40.7	19.4	0.00e+00	0	42	0	1243611136	48	4702
2026-01-17 23:43:53.50	94.70	11.19	-38.8	-40.8	19.4	0.00e+00	0	42	0	1249902592	48	4707
2026-01-17 23:43:54.49	94.88	11.17	-38.9	-40.8	19.3	0.00e+00	0	42	0	1255145472	48	4744
2026-01-17 23:43:55.49	95.06	11.15	-38.9	-40.9	19.3	0.00e+00	0	42	0	1260388352	48	4764
2026-01-17 23:43:56.49	95.25	11.13	-38.9	-40.8	19.3	0.00e+00	0	42	0	1266679808	48	4758
2026-01-17 23:43:57.48	95.43	11.11	-39.0	-40.9	19.3	0.00e+00	0	42	0	1271922688	48	4788
2026-01-17 23:43:58.48	95.61	11.09	-39.1	-41.1	19.1	0.00e+00	0	42	0	1277165568	48	4886
2026-01-17 23:43:59.47	95.79	11.07	-39.0	-41.0	19.2	0.00e+00	0	42	0	1283457024	48	4835
2026-01-17 23:44:00.45	95.97	11.04	-39.0	-41.0	19.2	0.00e+00	0	42	0	1288699904	48	4821
2026-01-17 23:44:01.44	96.15	11.02	-38.9	-40.9	19.2	0.00e+00	0	42	0	1293942784	48	4790
2026-01-17 23:44:02.44	96.33	11.00	-38.9	-40.9	19.3	0.00e+00	0	42	0	1300234240	48	4763
2026-01-17 23:44:03.43	96.51	10.98	-38.9	-40.9	19.2	0.00e+00	0	42	0	1305477120	48	4781
2026-01-17 23:44:04.42	96.69	10.96	-39.0	-40.9	19.2	0.00e+00	0	42	0	1310720000	48	4805
2026-01-17 23:44:05.42	96.87	10.94	-38.9	-40.8	19.3	0.00e+00	0	42	0	1317011456	48	4742
2026-01-17 23:44:06.41	97.04	10.91	-39.0	-40.9	19.2	0.00e+00	0	42	0	1322254336	48	4811
2026-01-17 23:44:07.40	97.22	10.89	-39.1	-41.1	19.0	0.00e+00	0	42	0	1327497216	48	4918
2026-01-17 23:44:08.40	97.40	10.87	-39.2	-41.2	19.0	0.00e+00	0	42	0	1332740096	49	4664
2026-01-17 23:44:09.39	97.58	10.85	-39.2	-41.2	19.0	0.00e+00	0	42	0	1339031552	49	4670
2026-01-17 23:44:10.39	97.76	10.82	-39.2	-41.2	18.9	0.00e+00	0	42	0	1344274432	49	4690
2026-01-17 23:44:11.38	97.93	10.80	-39.2	-41.2	18.9	0.00e+00	0	42	0	1350565888	49	4674
2026-01-17 23:44:12.38	98.11	10.78	-39.1	-41.1	19.0	0.00e+00	0	42	0	1355808768	49	4636
2026-01-17 23:44:13.37	98.29	10.75	-39.1	-41.1	19.1	0.00e+00	0	42	0	1361051648	49	4603
2026-01-17 23:44:14.37	98.47	10.73	-39.2	-41.1	19.0	0.00e+00	0	42	0	1367343104	49	4648
2026-01-17 23:44:15.36	98.64	10.70	-39.1	-41.0	19.1	0.00e+00	0	42	0	1372585984	49	4594
2026-01-17 23:44:16.36	98.82	10.68	-39.1	-41.0	19.1	0.00e+00	0	42	0	1377828864	49	4582
2026-01-17 23:44:17.35	99.00	10.65	-39.2	-41.2	18.9	0.00e+00	0	42	0	1383071744	49	4688
2026-01-17 23:44:18.54	99.21	10.62	-39.2	-41.2	19.0	0.00e+00	0	42	0	1390411776	49	4665
2026-01-17 23:44:19.42	99.36	10.60	-39.2	-41.2	18.9	0.00e+00	0	42	0	1395654656	49	4684
2026-01-17 23:44:20.56	99.56	10.57	-39.1	-41.1	19.0	0.00e+00	0	42	0	1401946112	49	4617
2026-01-17 23:44:21.42	99.71	10.55	-39.2	-41.1	19.0	0.00e+00	0	42	0	1406140416	49	4646
2026-01-17 23:44:22.55	99.91	10.52	-39.2	-41.2	19.0	0.00e+00	0	42	0	1412431872	49	4654
2026-01-17 23:44:23.41	100.06	10.50	-39.1	-41.1	19.0	0.00e+00	0	42	0	1417674752	49	4629
2026-01-17 23:44:24.54	100.26	10.47	-39.0	-41.0	19.1	0.00e+00	0	42	0	1423966208	49	4551
2026-01-17 23:44:25.39	100.41	10.45	-39.1	-41.0	19.1	0.00e+00	0	42	0	1429209088	49	4575
2026-01-17 23:44:26.53	100.61	10.41	-39.1	-41.1	19.0	0.00e+00	0	42	0	1435500544	49	4610
2026-01-17 23:44:27.38	100.75	10.39	-39.1	-41.0	19.1	0.00e+00	0	42	0	1439694848	49	4576
2026-01-17 23:44:28.52	100.95	10.36	-39.2	-41.1	19.0	0.00e+00	0	42	0	1447034880	49	4644
2026-01-17 23:44:29.37	101.10	10.34	-39.3	-41.3	18.9	0.00e+00	0	42	0	1451229184	49	4713
2026-01-17 23:44:30.50	101.29	10.31	-39.2	-41.2	18.9	0.00e+00	0	42	0	1457520640	49	4676
2026-01-17 23:44:31.36	101.44	10.28	-39.2	-41.2	18.9	0.00e+00	0	42	0	1462763520	49	4693
2026-01-17 23:44:32.49	101.64	10.25	-39.3	-41.3	18.8	0.00e+00	0	42	0	1469054976	49	4735
2026-01-17 23:44:33.35	101.79	10.23	-39.2	-41.2	19.0	0.00e+00	0	42	0	1473249280	49	4657
2026-01-17 23:44:34.48	101.98	10.19	-39.3	-41.3	18.8	0.00e+00	0	42	0	1479540736	49	4739
2026-01-17 23:44:35.33	102.13	10.17	-39.3	-41.3	18.8	0.00e+00	0	42	0	1484783616	49	4725
2026-01-17 23:44:36.64	102.35	10.13	-39.4	-41.4	18.8	0.00e+00	0	42	0	1492123648	49	4784
2026-01-17 23:44:37.36	102.47	10.11	-39.5	-41.5	18.6	0.00e+00	0	42	0	1496317952	49	4857
2026-01-17 23:44:38.63	102.69	10.07	-39.4	-41.4	18.7	0.00e+00	0	42	0	1503657984	49	4805
2026-01-17 23:44:39.36	102.81	10.05	-39.4	-41.5	18.7	0.00e+00	0	42	0	1506803712	49	4817
2026-01-17 23:44:40.64	103.03	10.01	-39.5	-41.5	18.6	0.00e+00	0	42	0	1514143744	49	4862
2026-01-17 23:44:41.36	103.15	9.99	-39.5	-41.5	18.6	0.00e+00	0	42	0	1518338048	49	4857
2026-01-17 23:44:42.64	103.37	9.96	-39.5	-41.5	18.6	0.00e+00	0	42	0	1525678080	49	4841
2026-01-17 23:44:43.37	103.49	9.93	-39.4	-41.4	18.7	0.00e+00	0	42	0	1529872384	49	4807
2026-01-17 23:44:44.65	103.71	9.89	-39.3	-41.3	18.8	0.00e+00	0	42	0	1537212416	49	4751
2026-01-17 23:44:45.36	103.83	9.87	-39.5	-41.4	18.6	0.00e+00	0	42	0	1541406720	49	4814
2026-01-17 23:44:46.64	104.04	9.83	-39.8	-41.8	18.3	0.00e+00	0	42	0	1548746752	50	4758
2026-01-17 23:44:47.36	104.16	9.81	-39.5	-41.5	18.6	0.00e+00	0	42	0	1552941056	50	4569
2026-01-17 23:44:48.64	104.38	9.77	-39.5	-41.5	18.6	0.00e+00	0	42	0	1559232512	50	4585
2026-01-17 23:44:49.37	104.50	9.75	-39.6	-41.6	18.5	0.00e+00	0	42	0	1563426816	50	4631
2026-01-17 23:44:50.65	104.71	9.71	-39.7	-41.7	18.5	0.00e+00	0	42	0	1570766848	50	4671
2026-01-17 23:44:51.60	104.87	9.68	-39.8	-41.9	18.3	0.00e+00	0	42	0	1576009728	50	4761
2026-01-17 23:44:52.59	105.03	9.65	-39.6	-41.6	18.5	0.00e+00	0	42	0	1582301184	50	4626
2026-01-17 23:44:53.94	105.26	9.60	-39.6	-41.6	18.5	0.00e+00	0	42	0	1589641216	50	4615
2026-01-17 23:44:54.68	105.38	9.58	-39.8	-41.8	18.3	0.00e+00	0	42	0	1593835520	50	4739
2026-01-17 23:44:55.96	105.59	9.54	-39.6	-41.6	18.5	0.00e+00	0	42	0	1601175552	50	4630
2026-01-17 23:44:56.68	105.71	9.52	-39.6	-41.6	18.5	0.00e+00	0	42	0	1605369856	50	4640
2026-01-17 23:44:57.96	105.92	9.47	-39.6	-41.6	18.5	0.00e+00	0	42	0	1612709888	50	4606
2026-01-17 23:44:58.69	106.03	9.45	-39.6	-41.7	18.5	0.00e+00	0	42	0	1615855616	50	4652
2026-01-17 23:44:59.97	106.24	9.41	-39.8	-41.8	18.3	0.00e+00	0	42	0	1623195648	50	4732
2026-01-17 23:45:00.70	106.36	9.38	-39.8	-41.9	18.2	0.00e+00	0	42	0	1627389952	50	4775
2026-01-17 23:45:01.97	106.57	9.34	-39.8	-41.9	18.2	0.00e+00	0	42	0	1634729984	50	4763
2026-01-17 23:45:02.71	106.69	9.32	-39.7	-41.8	18.3	0.00e+00	0	42	0	1638924288	50	4715
2026-01-17 23:45:04.00	106.90	9.27	-39.8	-41.9	18.2	0.00e+00	0	42	0	1646264320	50	4767
2026-01-17 23:45:04.74	107.02	9.25	-39.8	-41.9	18.2	0.00e+00	0	42	0	1650458624	50	4806
2026-01-17 23:45:06.01	107.22	9.21	-39.7	-41.7	18.3	0.00e+00	0	42	0	1657798656	50	4701
2026-01-17 23:45:06.74	107.34	9.18	-39.6	-41.7	18.4	0.00e+00	0	42	0	1660944384	50	4659
2026-01-17 23:45:08.02	107.54	9.14	-39.8	-41.8	18.2	0.00e+00	0	42	0	1668284416	50	4752
2026-01-17 23:45:08.73	107.66	9.11	-39.7	-41.8	18.3	0.00e+00	0	42	0	1672478720	50	4715
2026-01-17 23:45:10.14	107.88	9.06	-39.6	-41.6	18.4	0.00e+00	0	42	0	1680867328	50	4632
2026-01-17 23:45:10.85	107.99	9.04	-39.6	-41.7	18.4	0.00e+00	0	42	0	1684013056	50	4663
2026-01-17 23:45:12.22	108.21	8.99	-49.6	-61.2	3.8	8.33e-01	0	42	104	1690304512	69	14832
2026-01-17 23:45:12.93	108.32	8.97	-50.0	-61.9	3.8	8.47e-01	0	42	104	1690304512	70	15145
2026-01-17 23:45:14.20	108.52	8.92	-50.3	-62.3	3.8	8.47e-01	0	42	104	1690304512	71	14987
2026-01-17 23:45:14.93	108.64	8.90	-50.2	-62.3	3.8	8.46e-01	0	42	104	1690304512	71	15025
2026-01-17 23:45:16.21	108.84	8.85	-50.2	-62.4	3.8	8.46e-01	0	42	104	1690304512	71	15114
2026-01-17 23:45:16.93	108.95	8.83	-50.1	-62.4	3.8	8.48e-01	0	42	104	1690304512	71	15137
2026-01-17 23:45:18.21	109.15	8.78	-50.2	-62.4	3.8	8.48e-01	0	42	104	1690304512	71	15152
2026-01-17 23:45:19.00	109.28	8.75	-49.9	-62.5	3.8	8.47e-01	0	42	104	1690304512	71	15240
2026-01-17 23:45:20.23	109.47	8.71	-50.0	-62.5	3.8	8.47e-01	0	42	104	1690304512	71	15264
2026-01-17 23:45:21.17	109.61	8.67	-50.0	-62.5	3.8	8.46e-01	0	42	104	1690304512	71	15385
2026-01-17 23:45:22.34	109.80	8.63	-50.0	-62.5	3.8	8.47e-01	0	42	104	1690304512	71	15363
2026-01-17 23:45:23.21	109.93	8.60	-50.1	-62.5	3.8	8.46e-01	0	42	104	1690304512	71	15280
2026-01-17 23:45:24.55	110.14	8.55	-50.1	-62.5	3.8	8.47e-01	0	42	104	1690304512	71	15317
2026-01-17 23:45:25.26	110.25	8.53	-50.2	-62.5	3.8	8.47e-01	0	42	104	1690304512	71	15316
2026-01-17 23:45:26.74	110.47	8.47	-50.1	-62.5	3.8	8.47e-01	0	42	104	1690304512	71	15274
2026-01-17 23:45:27.45	110.58	8.45	-50.2	-62.5	3.8	8.47e-01	0	42	104	1690304512	71	15329
2026-01-17 23:45:28.80	110.79	8.40	-50.0	-62.5	3.8	8.48e-01	0	42	104	1690304512	71	15367
2026-01-17 23:45:29.51	110.90	8.37	-49.9	-62.5	3.8	8.48e-01	0	42	104	1690304512	71	15336
2026-01-17 23:45:30.85	111.10	8.32	-50.0	-62.5	3.8	8.48e-01	0	42	104	1690304512	71	15377
2026-01-17 23:45:31.56	111.21	8.29	-50.0	-62.6	3.8	8.47e-01	0	42	104	1690304512	71	15420
2026-01-17 23:45:32.84	111.40	8.25	-50.1	-62.5	3.8	8.47e-01	0	42	104	1690304512	71	15312
2026-01-17 23:45:33.55	111.51	8.22	-50.0	-62.5	3.8	8.48e-01	0	42	104	1690304512	71	15230
2026-01-17 23:45:34.83	111.70	8.17	-50.0	-62.4	3.8	8.47e-01	0	42	104	1690304512	71	15193
2026-01-17 23:45:35.55	111.81	8.14	-50.0	-62.4	3.8	8.47e-01	0	42	104	1690304512	71	15203
2026-01-17 23:45:36.83	112.00	8.10	-50.0	-62.4	3.8	8.47e-01	0	42	104	1690304512	71	15190
2026-01-17 23:45:37.54	112.10	8.07	-50.0	-62.4	3.8	8.46e-01	0	42	104	1690304512	71	15195
2026-01-17 23:45:38.81	112.29	8.02	-50.0	-62.5	3.8	8.46e-01	0	42	104	1690304512	71	15243
2026-01-17 23:45:39.52	112.40	7.99	-50.0	-62.4	3.8	8.46e-01	0	42	104	1690304512	71	15223
2026-01-17 23:45:40.80	112.59	7.94	-50.0	-62.4	3.8	8.47e-01	0	42	104	1690304512	71	15151
2026-01-17 23:45:41.51	112.69	7.92	-50.0	-62.4	3.8	8.47e-01	0	42	104	1690304512	71	15223
2026-01-17 23:45:42.79	112.88	7.87	-50.0	-62.4	3.8	8.46e-01	0	42	104	1690304512	71	15172
2026-01-17 23:45:43.50	112.99	7.84	-50.0	-62.4	3.8	8.47e-01	0	42	104	1690304512	71	15191
2026-01-17 23:45:44.78	113.17	7.79	-50.0	-62.4	3.8	8.48e-01	0	42	104	1690304512	71	15202
2026-01-17 23:45:45.49	113.28	7.76	-50.0	-62.4	3.8	8.48e-01	0	42	104	1690304512	71	15164
2026-01-17 23:45:46.76	113.46	7.71	-50.0	-62.4	3.8	8.47e-01	0	42	104	1690304512	71	15143
2026-01-17 23:45:47.47	113.57	7.69	-50.0	-62.4	3.8	8.48e-01	0	42	104	1690304512	71	15197
2026-01-17 23:45:48.75	113.75	7.64	-50.0	-62.4	3.8	8.48e-01	0	42	104	1690304512	71	15179
2026-01-17 23:45:49.46	113.85	7.61	-50.0	-62.4	3.8	8.48e-01	0	42	104	1690304512	71	15200
2026-01-17 23:45:50.74	114.04	7.56	-50.0	-62.4	3.8	8.47e-01	0	42	104	1690304512	71	15124
2026-01-17 23:45:51.46	114.14	7.53	-50.0	-62.4	3.8	8.45e-01	0	42	104	1690304512	71	15158
2026-01-17 23:45:52.74	114.33	7.48	-50.0	-62.4	3.8	8.48e-01	0	42	104	1690304512	71	15161
2026-01-17 23:45:53.46	114.43	7.45	-50.0	-62.4	3.8	8.47e-01	0	42	104	1690304512	71	15191
2026-01-17 23:45:54.74	114.61	7.40	-50.0	-62.4	3.8	8.47e-01	0	42	104	1690304512	71	15104
2026-01-17 23:45:55.45	114.71	7.37	-50.0	-62.4	3.8	8.46e-01	0	42	104	1690304512	71	15155
2026-01-17 23:45:56.73	114.90	7.32	-50.0	-62.4	3.8	8.46e-01	0	42	104	1690304512	71	15124
2026-01-17 23:45:57.43	114.99	7.29	-50.0	-62.4	3.8	8.46e-01	0	42	104	1690304512	71	15185
2026-01-17 23:45:58.71	115.18	7.24	-50.0	-62.4	3.8	8.47e-01	0	42	104	1690304512	71	15136
2026-01-17 23:45:59.42	115.28	7.21	-50.0	-62.4	3.8	8.46e-01	0	42	104	1690304512	71	15115
2026-01-17 23:46:00.70	115.46	7.16	-50.0	-62.4	3.8	8.47e-01	0	42	104	1690304512	71	15166
2026-01-17 23:46:01.42	115.56	7.13	-50.0	-62.4	3.8	8.46e-01	0	42	104	1690304512	71	15120
2026-01-17 23:46:02.70	115.74	7.08	-50.0	-62.4	3.8	8.47e-01	0	42	104	1690304512	71	15126
2026-01-17 23:46:03.42	115.84	7.05	-50.0	-62.4	3.8	8.48e-01	0	42	104	1690304512	71	15181
2026-01-17 23:46:04.70	116.01	7.00	-50.0	-62.4	3.8	8.46e-01	0	42	104	1690304512	71	15113
2026-01-17 23:46:05.43	116.11	6.97	-50.0	-62.4	3.8	8.47e-01	0	42	104	1690304512	71	15155
2026-01-17 23:46:06.70	116.29	6.92	-50.0	-62.4	3.8	8.47e-01	0	42	104	1690304512	71	15171
2026-01-17 23:46:07.43	116.39	6.89	-50.0	-62.4	3.8	8.47e-01	0	42	104	1690304512	71	15166
2026-01-17 23:46:08.70	116.57	6.84	-50.0	-62.4	3.8	8.46e-01	0	42	104	1690304512	71	15114
2026-01-17 23:46:09.41	116.66	6.81	-50.0	-62.4	3.8	8.46e-01	0	42	104	1690304512	71	15124
2026-01-17 23:46:10.69	116.84	6.76	-50.0	-62.4	3.8	8.47e-01	0	42	104	1690304512	71	15085
2026-01-17 23:46:11.42	116.94	6.73	-50.0	-62.4	3.8	8.47e-01	0	42	104	1690304512	71	15154
2026-01-17 23:46:12.69	117.11	6.67	-50.0	-62.4	3.8	8.46e-01	0	42	104	1690304512	71	15063
2026-01-17 23:46:13.40	117.21	6.64	-50.0	-62.4	3.8	8.47e-01	0	42	104	1690304512	71	15117
2026-01-17 23:46:14.68	117.38	6.59	-50.0	-62.4	3.8	8.49e-01	0	42	104	1690304512	71	15079
2026-01-17 23:46:15.39	117.48	6.56	-50.0	-62.4	3.8	8.47e-01	0	42	104	1690304512	71	15102
2026-01-17 23:46:16.67	117.65	6.51	-50.0	-62.4	3.8	8.47e-01	0	42	104	1690304512	71	15118
2026-01-17 23:46:17.39	117.75	6.48	-50.0	-62.4	3.8	8.48e-01	0	42	104	1690304512	71	15100
2026-01-17 23:46:18.67	117.92	6.43	-50.0	-62.4	3.8	8.47e-01	0	42	104	1690304512	71	15133
2026-01-17 23:46:19.38	118.01	6.40	-50.0	-62.3	3.8	8.48e-01	0	42	104	1690304512	71	15036
2026-01-17 23:46:20.65	118.18	6.34	-49.9	-62.4	3.8	8.46e-01	0	42	104	1690304512	71	15081
2026-01-17 23:46:21.36	118.28	6.31	-49.9	-62.4	3.8	8.47e-01	0	42	104	1690304512	71	15093
2026-01-17 23:46:22.64	118.44	6.26	-50.0	-62.4	3.8	8.47e-01	0	42	104	1690304512	71	15095
2026-01-17 23:46:23.35	118.54	6.23	-50.0	-62.4	3.8	8.46e-01	0	42	104	1690304512	71	15089
2026-01-17 23:46:24.63	118.71	6.18	-50.0	-62.4	3.8	8.48e-01	0	42	104	1690304512	71	15091
2026-01-17 23:46:25.34	118.80	6.15	-49.9	-62.4	3.8	8.48e-01	0	42	104	1690304512	71	15060
2026-01-17 23:46:26.62	118.97	6.09	-49.9	-62.3	3.8	8.47e-01	0	42	104	1690304512	71	15051
2026-01-17 23:46:27.33	119.06	6.06	-50.0	-62.4	3.8	8.47e-01	0	42	104	1690304512	71	15079
2026-01-17 23:46:28.60	119.23	6.01	-50.0	-62.4	3.8	8.48e-01	0	42	104	1690304512	71	15126
2026-01-17 23:46:29.31	119.32	5.98	-50.0	-62.4	3.8	8.46e-01	0	42	104	1690304512	71	15108
2026-01-17 23:46:30.59	119.48	5.93	-50.0	-62.4	3.8	8.47e-01	0	42	104	1690304512	71	15143
2026-01-17 23:46:31.30	119.58	5.90	-50.0	-62.4	3.8	8.47e-01	0	42	104	1690304512	71	15127
2026-01-17 23:46:32.59	119.74	5.84	-50.0	-62.3	3.8	8.46e-01	0	42	104	1690304512	71	15029
2026-01-17 23:46:33.30	119.83	5.81	-50.0	-62.4	3.8	8.47e-01	0	42	104	1690304512	71	15116
2026-01-17 23:46:34.58	120.00	5.76	-50.0	-62.4	3.8	8.48e-01	0	42	104	1690304512	71	15060
2026-01-17 23:46:35.29	120.09	5.73	-50.0	-62.4	3.8	8.47e-01	0	42	104	1690304512	71	15122
2026-01-17 23:46:36.57	120.25	5.67	-50.0	-62.4	3.8	8.48e-01	0	42	104	1690304512	71	15064
2026-01-17 23:46:37.28	120.34	5.64	-50.0	-62.4	3.8	8.47e-01	0	42	104	1690304512	71	15088
2026-01-17 23:46:38.55	120.50	5.59	-50.0	-62.4	3.8	8.45e-01	0	42	104	1690304512	71	15129
2026-01-17 23:46:39.26	120.59	5.56	-50.0	-62.4	3.8	8.47e-01	0	42	104	1690304512	71	15101
2026-01-17 23:46:40.54	120.75	5.50	-50.0	-62.4	3.8	8.45e-01	0	42	104	1690304512	71	15109
2026-01-17 23:46:41.25	120.84	5.47	-50.0	-62.4	3.8	8.48e-01	0	42	104	1690304512	71	15096
2026-01-17 23:46:42.53	121.00	5.42	-50.0	-62.3	3.8	8.46e-01	0	42	104	1690304512	71	15009
2026-01-17 23:46:43.25	121.09	5.39	-50.0	-62.4	3.8	8.47e-01	0	42	104	1690304512	71	15083
2026-01-17 23:46:44.53	121.25	5.33	-49.9	-62.3	3.8	8.47e-01	0	42	104	1690304512	71	15036
2026-01-17 23:46:45.24	121.34	5.30	-50.0	-62.3	3.8	8.47e-01	0	42	104	1690304512	71	15039
2026-01-17 23:46:46.51	121.50	5.25	-50.0	-62.4	3.8	8.46e-01	0	42	104	1690304512	71	15114
2026-01-17 23:46:47.22	121.59	5.22	-50.0	-62.4	3.8	8.47e-01	0	42	104	1690304512	71	15097
2026-01-17 23:46:48.50	121.74	5.16	-49.9	-62.4	3.8	8.47e-01	0	42	104	1690304512	71	15103
2026-01-17 23:46:49.21	121.83	5.13	-49.9	-62.4	3.8	8.47e-01	0	42	104	1690304512	71	15080
2026-01-17 23:46:50.49	121.99	5.08	-49.9	-62.4	3.8	8.47e-01	0	42	104	1690304512	71	15098
2026-01-17 23:46:51.20	122.07	5.05	-50.0	-62.3	3.8	8.47e-01	0	42	104	1690304512	71	15047
2026-01-17 23:46:52.47	122.23	4.99	-49.9	-62.4	3.8	8.47e-01	0	42	104	1690304512	71	15061

#Closed at: 2026-01-17 23:46:53
#Recorded file [1690 MB]: D:/Data/31040_260118_023830.dat