passes_logs/2026/01/30/R2M6_AANII_01/R2M6_AANII_01__20260130_112735_SUOMI_NPP_rec.log

#Pass ID: 20260130_112735_SUOMI NPP
#Satellite: SUOMI NPP
#Configuration: NPP
#almurnet v.1.7.20240730
#Start time: 2026-01-30 11:27:35

#Version: 2.2.20231116
#Station: R2M6_AANII_01
#Location: 30.233357 lon 59.946436 lat
#TLE: 1 37849U 11061A   26029.48304708  .00000140  00000+0  87283-4 0  9999
#TLE: 2 37849  98.7824 331.4079 0002024  38.4342 321.6978 14.19531488738761

#Time	Az	El	Level	Level2	SNR	BER	BlckErr	Temp	State	Recorded	gain1	gain2
2026-01-30 11:27:35.38	193.98	6.99	-31.2	-35.1	5.1	1.25e+00	0	41	0	0	23	5623
2026-01-30 11:27:36.38	194.04	7.06	-31.8	-37.1	4.7	1.34e+00	0	40	104	0	24	6645
2026-01-30 11:27:37.39	194.11	7.13	-31.7	-36.9	6.6	2.57e-01	0	41	0	0	24	6536
2026-01-30 11:27:38.39	194.17	7.21	-31.7	-36.5	6.9	1.59e-01	0	41	0	1048576	24	6309
2026-01-30 11:27:39.39	194.24	7.28	-31.7	-36.8	6.7	2.06e-01	0	41	0	3145728	24	6479
2026-01-30 11:27:40.40	194.31	7.35	-31.5	-35.9	7.3	1.46e-01	0	41	0	5242880	24	5933
2026-01-30 11:27:41.40	194.37	7.42	-31.3	-35.0	8.1	7.28e-02	0	41	0	7340032	24	5459
2026-01-30 11:27:42.41	194.44	7.50	-31.2	-34.9	8.5	5.00e-02	0	41	0	9437184	23	5496
2026-01-30 11:27:43.41	194.51	7.57	-31.1	-34.5	8.8	3.05e-02	0	41	0	10485760	23	5320
2026-01-30 11:27:44.40	194.57	7.64	-31.3	-35.2	8.3	3.55e-02	0	41	0	12582912	23	5634
2026-01-30 11:27:45.41	194.64	7.71	-31.4	-35.5	8.1	6.45e-02	0	41	0	14680064	23	5789
2026-01-30 11:27:46.41	194.71	7.79	-31.2	-34.8	8.7	4.58e-02	0	41	0	16777216	23	5443
2026-01-30 11:27:47.41	194.77	7.86	-31.2	-34.7	8.8	3.02e-02	0	41	0	17825792	23	5362
2026-01-30 11:27:48.41	194.84	7.93	-31.2	-34.5	9.0	2.36e-02	0	41	0	19922944	23	5266
2026-01-30 11:27:49.40	194.91	8.01	-31.1	-34.3	9.1	2.01e-02	0	41	0	22020096	23	5201
2026-01-30 11:27:50.41	194.98	8.08	-31.1	-34.5	8.9	2.17e-02	0	41	0	24117248	23	5286
2026-01-30 11:27:51.42	195.05	8.16	-31.1	-34.5	8.9	3.13e-02	0	41	0	26214400	23	5279
2026-01-30 11:27:52.42	195.12	8.23	-31.0	-33.8	9.4	1.94e-02	0	41	0	27262976	23	5012
2026-01-30 11:27:53.43	195.19	8.31	-30.6	-33.2	10.2	1.00e-02	0	41	0	29360128	22	4860
2026-01-30 11:27:54.43	195.26	8.38	-30.5	-32.7	10.6	4.67e-03	0	41	0	31457280	22	4658
2026-01-30 11:27:55.44	195.33	8.46	-30.6	-33.0	10.4	3.72e-03	0	41	0	33554432	22	4762
2026-01-30 11:27:56.44	195.40	8.53	-30.5	-32.9	10.5	4.46e-03	0	41	0	35651584	22	4723
2026-01-30 11:27:57.45	195.47	8.61	-30.6	-33.1	10.3	5.48e-03	0	41	0	36700160	22	4817
2026-01-30 11:27:58.45	195.55	8.68	-30.5	-32.9	10.6	3.67e-03	0	41	0	38797312	22	4702
2026-01-30 11:27:59.45	195.62	8.76	-30.6	-32.9	10.6	4.31e-03	0	41	0	40894464	22	4733
2026-01-30 11:28:00.45	195.69	8.83	-30.5	-32.7	10.7	3.34e-03	0	42	0	42991616	22	4642
2026-01-30 11:28:01.46	195.76	8.91	-30.5	-32.8	10.5	3.14e-03	0	41	0	45088768	22	4694
2026-01-30 11:28:02.47	195.84	8.99	-30.6	-33.0	10.4	5.59e-03	0	42	0	46137344	22	4751
2026-01-30 11:28:03.47	195.91	9.06	-30.6	-33.0	10.4	3.62e-03	0	42	0	48234496	22	4756
2026-01-30 11:28:04.47	195.98	9.14	-30.6	-33.0	10.4	5.97e-03	0	41	0	50331648	22	4764
2026-01-30 11:28:05.48	196.06	9.22	-30.3	-32.2	11.0	2.79e-03	0	42	0	52428800	22	4480
2026-01-30 11:28:06.48	196.13	9.29	-30.2	-32.4	11.1	1.55e-03	0	42	0	54525952	21	4617
2026-01-30 11:28:07.48	196.21	9.37	-30.0	-31.9	11.3	1.17e-03	0	42	0	55574528	21	4476
2026-01-30 11:28:08.49	196.28	9.45	-29.9	-31.6	11.3	1.12e-03	0	42	0	57671680	21	4378
2026-01-30 11:28:09.49	196.36	9.53	-29.8	-31.8	11.3	1.33e-03	0	42	0	59768832	20	4551
2026-01-30 11:28:10.49	196.44	9.60	-29.8	-32.0	11.0	1.56e-03	0	42	0	61865984	20	4678
2026-01-30 11:28:11.50	196.51	9.68	-29.6	-31.9	10.8	1.89e-03	0	42	0	63963136	20	4650
2026-01-30 11:28:12.50	196.59	9.76	-29.6	-31.8	10.6	3.90e-03	0	42	0	65011712	20	4658
2026-01-30 11:28:13.51	196.67	9.84	-29.4	-31.4	11.0	2.43e-03	0	42	0	67108864	20	4493
2026-01-30 11:28:14.50	196.74	9.92	-29.5	-31.4	11.2	1.52e-03	0	42	0	69206016	20	4466
2026-01-30 11:28:15.50	196.82	10.00	-29.4	-31.2	11.3	1.08e-03	0	42	0	71303168	20	4408
2026-01-30 11:28:16.50	196.90	10.07	-29.3	-31.0	11.3	1.27e-03	0	42	0	73400320	20	4364
2026-01-30 11:28:17.50	196.98	10.15	-29.4	-31.0	11.2	1.42e-03	0	42	0	74448896	20	4362
2026-01-30 11:28:18.49	197.06	10.23	-29.3	-31.3	11.6	1.07e-03	0	42	0	76546048	19	4511
2026-01-30 11:28:19.50	197.14	10.31	-29.3	-31.4	11.4	9.26e-04	0	42	0	78643200	19	4555
2026-01-30 11:28:20.50	197.22	10.39	-29.3	-31.3	11.5	1.04e-03	0	42	0	80740352	19	4534
2026-01-30 11:28:21.50	197.30	10.47	-29.3	-31.4	11.3	9.45e-04	0	42	0	81788928	19	4573
2026-01-30 11:28:22.51	197.38	10.55	-29.3	-31.5	11.1	1.37e-03	0	42	0	83886080	19	4624
2026-01-30 11:28:23.52	197.46	10.63	-29.2	-31.4	11.0	2.15e-03	0	42	0	85983232	19	4636
2026-01-30 11:28:24.52	197.54	10.71	-29.1	-31.3	10.6	2.30e-03	0	42	0	88080384	19	4654
2026-01-30 11:28:25.52	197.63	10.80	-28.6	-31.1	10.0	3.84e-03	0	42	0	90177536	18	4835
2026-01-30 11:28:26.52	197.71	10.88	-27.8	-30.8	8.7	1.89e-02	0	42	0	91226112	17	5115
2026-01-30 11:28:27.52	197.79	10.96	-26.8	-30.6	7.5	5.73e-02	0	42	0	93323264	15	5614
2026-01-30 11:28:28.53	197.88	11.04	-25.9	-30.5	6.7	1.43e-01	0	42	0	95420416	13	6166
2026-01-30 11:28:29.53	197.96	11.12	-25.2	-31.0	5.9	3.42e-01	0	42	0	97517568	11	6996
2026-01-30 11:28:30.53	198.05	11.20	-24.9	-30.7	5.7	3.87e-01	0	42	0	99614720	11	6967
2026-01-30 11:28:31.53	198.13	11.29	-24.8	-30.9	5.3	4.80e-01	0	42	0	100663296	11	7209
2026-01-30 11:28:32.54	198.22	11.37	-24.3	-30.7	5.0	6.40e-01	0	42	0	102760448	10	7520
2026-01-30 11:28:33.53	198.30	11.45	-23.7	-30.5	5.0	7.39e-01	0	42	0	104857600	8	7907
2026-01-30 11:28:34.53	198.39	11.53	-23.6	-30.2	5.0	7.20e-01	0	42	0	106954752	8	7742
2026-01-30 11:28:35.54	198.47	11.62	-23.9	-30.5	5.3	6.17e-01	0	42	0	109051904	8	7655
2026-01-30 11:28:36.54	198.56	11.70	-24.4	-31.1	5.6	4.58e-01	0	42	0	110100480	8	7802
2026-01-30 11:28:37.55	198.65	11.78	-24.6	-31.0	5.6	4.58e-01	0	42	0	112197632	9	7521
2026-01-30 11:28:38.55	198.74	11.87	-25.2	-31.3	6.0	4.42e-01	0	42	0	114294784	10	7264
2026-01-30 11:28:39.56	198.83	11.95	-25.9	-31.7	6.5	2.31e-01	0	42	0	116391936	11	6999
2026-01-30 11:28:40.57	198.92	12.04	-26.4	-32.1	6.6	1.98e-01	0	42	0	118489088	12	6936
2026-01-30 11:28:41.57	199.01	12.12	-27.2	-31.9	7.6	1.67e-01	0	42	0	119537664	14	6185
2026-01-30 11:28:42.58	199.10	12.21	-27.9	-32.3	8.2	6.23e-02	0	42	0	121634816	15	6008
2026-01-30 11:28:43.58	199.19	12.29	-28.7	-32.3	9.0	3.46e-02	0	42	0	123731968	17	5494
2026-01-30 11:28:44.59	199.28	12.38	-29.0	-32.9	9.2	1.69e-02	0	42	0	125829120	17	5638
2026-01-30 11:28:45.59	199.37	12.46	-29.1	-32.3	9.6	1.85e-02	0	42	0	127926272	18	5226
2026-01-30 11:28:46.59	199.46	12.55	-29.2	-32.3	9.9	9.58e-03	0	42	0	128974848	18	5173
2026-01-30 11:28:47.59	199.56	12.64	-29.2	-32.3	10.1	7.83e-03	0	42	0	131072000	18	5172
2026-01-30 11:28:48.60	199.65	12.72	-29.3	-32.6	10.2	8.02e-03	0	42	0	133169152	18	5223
2026-01-30 11:28:49.60	199.74	12.81	-29.4	-32.6	10.4	4.80e-03	0	42	0	135266304	18	5195
2026-01-30 11:28:50.61	199.84	12.90	-29.5	-32.4	10.4	4.09e-03	0	42	0	136314880	19	4999
2026-01-30 11:28:51.61	199.93	12.98	-29.7	-32.6	10.5	5.70e-03	0	42	0	138412032	19	5039
2026-01-30 11:28:52.61	200.03	13.07	-29.6	-32.0	11.4	2.15e-03	0	42	0	140509184	19	4748
2026-01-30 11:28:53.62	200.13	13.16	-29.5	-31.7	12.0	3.22e-04	0	42	0	142606336	19	4588
2026-01-30 11:28:54.62	200.22	13.25	-29.4	-31.1	12.5	1.12e-04	0	42	0	144703488	19	4382
2026-01-30 11:28:55.62	200.32	13.33	-29.5	-31.2	12.6	1.02e-04	0	42	0	145752064	19	4402
2026-01-30 11:28:56.62	200.42	13.42	-29.5	-31.4	12.4	1.36e-04	0	42	0	147849216	19	4461
2026-01-30 11:28:57.63	200.52	13.51	-29.6	-31.5	12.4	1.40e-04	0	42	0	149946368	19	4494
2026-01-30 11:28:58.64	200.62	13.60	-29.6	-31.5	12.4	1.34e-04	0	43	0	152043520	19	4491
2026-01-30 11:28:59.64	200.71	13.69	-29.4	-31.0	12.7	8.77e-05	0	43	0	154140672	19	4335
2026-01-30 11:29:00.64	200.81	13.78	-29.4	-31.1	12.6	1.06e-04	0	42	0	155189248	19	4379
2026-01-30 11:29:01.64	200.91	13.87	-29.6	-31.6	12.3	1.56e-04	0	42	0	157286400	19	4546
2026-01-30 11:29:02.64	201.02	13.96	-29.6	-31.6	12.4	1.26e-04	0	42	0	159383552	19	4516
2026-01-30 11:29:03.64	201.12	14.05	-29.6	-31.7	12.5	1.47e-04	0	42	0	161480704	19	4536
2026-01-30 11:29:04.65	201.22	14.14	-29.7	-31.7	12.6	5.87e-05	0	42	0	163577856	19	4511
2026-01-30 11:29:05.65	201.32	14.23	-29.6	-31.4	13.1	6.40e-05	0	42	0	164626432	19	4389
2026-01-30 11:29:06.65	201.43	14.32	-29.7	-31.6	13.0	3.05e-05	0	42	0	166723584	19	4456
2026-01-30 11:29:07.65	201.53	14.41	-29.7	-31.5	13.0	4.95e-05	0	42	0	168820736	19	4437
2026-01-30 11:29:08.65	201.63	14.50	-29.9	-32.0	12.7	6.02e-05	0	43	0	170917888	19	4605
2026-01-30 11:29:09.65	201.74	14.59	-29.8	-31.7	12.9	7.40e-05	0	42	0	173015040	19	4474
2026-01-30 11:29:10.64	201.84	14.68	-29.7	-31.4	13.1	4.27e-05	0	42	0	174063616	19	4384
2026-01-30 11:29:11.65	201.95	14.77	-29.8	-31.7	13.0	3.66e-05	0	43	0	176160768	19	4469
2026-01-30 11:29:12.66	202.06	14.87	-29.8	-31.6	13.0	3.35e-05	0	43	0	178257920	19	4442
2026-01-30 11:29:13.66	202.17	14.96	-29.8	-31.6	13.0	4.42e-05	0	42	0	180355072	19	4432
2026-01-30 11:29:14.67	202.28	15.05	-29.7	-31.5	13.1	3.58e-05	0	43	0	181403648	19	4407
2026-01-30 11:29:15.67	202.39	15.15	-29.8	-31.7	13.0	3.35e-05	0	43	0	183500800	19	4469
2026-01-30 11:29:16.67	202.50	15.24	-29.8	-31.7	12.9	5.18e-05	0	43	0	185597952	19	4502
2026-01-30 11:29:17.67	202.61	15.33	-29.7	-31.3	13.2	1.67e-05	0	42	0	187695104	19	4370
2026-01-30 11:29:18.67	202.72	15.43	-29.7	-31.3	13.2	1.52e-05	0	43	0	189792256	19	4350
2026-01-30 11:29:19.68	202.83	15.52	-29.6	-31.2	13.3	3.28e-05	0	43	0	190840832	19	4333
2026-01-30 11:29:20.68	202.94	15.61	-29.7	-31.4	13.2	3.96e-05	0	43	0	192937984	19	4370
2026-01-30 11:29:21.68	203.05	15.71	-29.7	-31.5	13.1	2.67e-05	0	43	0	195035136	19	4420
2026-01-30 11:29:22.68	203.17	15.80	-29.8	-31.8	13.0	3.50e-05	0	43	0	197132288	19	4511
2026-01-30 11:29:23.69	203.28	15.90	-29.8	-31.7	13.0	5.18e-05	0	42	0	199229440	19	4486
2026-01-30 11:29:24.69	203.40	15.99	-29.8	-31.6	13.2	3.12e-05	0	43	0	200278016	19	4426
2026-01-30 11:29:25.70	203.52	16.09	-29.9	-32.0	12.9	3.43e-05	0	43	0	202375168	19	4566
2026-01-30 11:29:26.71	203.63	16.19	-30.0	-31.6	12.8	3.20e-05	0	42	0	204472320	20	4352
2026-01-30 11:29:27.70	203.75	16.28	-30.0	-31.7	12.6	5.26e-05	0	43	0	206569472	20	4400
2026-01-30 11:29:28.71	203.87	16.38	-30.0	-31.8	12.6	8.85e-05	0	43	0	208666624	20	4424
2026-01-30 11:29:29.71	203.99	16.48	-30.1	-31.9	12.6	6.33e-05	0	43	0	209715200	20	4457
2026-01-30 11:29:30.71	204.11	16.57	-30.1	-32.0	12.5	1.45e-04	0	43	0	211812352	20	4489
2026-01-30 11:29:31.72	204.23	16.67	-30.1	-32.0	12.6	9.53e-05	0	43	0	213909504	20	4471
2026-01-30 11:29:32.72	204.35	16.77	-30.4	-32.9	12.0	1.52e-04	0	43	0	216006656	20	4773
2026-01-30 11:29:33.72	204.47	16.87	-30.4	-32.2	12.2	3.17e-04	0	43	0	218103808	21	4437
2026-01-30 11:29:34.72	204.59	16.96	-30.5	-32.6	12.0	4.06e-04	0	43	0	219152384	21	4577
2026-01-30 11:29:35.73	204.72	17.06	-30.6	-32.9	11.7	4.38e-04	0	43	0	221249536	21	4701
2026-01-30 11:29:36.73	204.84	17.16	-30.5	-32.4	12.0	3.65e-04	0	43	0	223346688	21	4525
2026-01-30 11:29:37.73	204.97	17.26	-30.6	-32.8	11.8	4.04e-04	0	43	0	225443840	21	4667
2026-01-30 11:29:38.73	205.09	17.36	-30.5	-32.6	11.9	3.79e-04	0	43	0	226492416	21	4595
2026-01-30 11:29:39.73	205.22	17.46	-30.6	-32.8	11.8	3.27e-04	0	43	0	228589568	21	4651
2026-01-30 11:29:40.74	205.35	17.56	-30.6	-32.8	11.8	3.82e-04	0	43	0	230686720	21	4635
2026-01-30 11:29:41.74	205.47	17.66	-30.8	-33.6	11.2	6.32e-04	0	43	0	232783872	21	4953
2026-01-30 11:29:42.74	205.60	17.76	-30.6	-32.8	11.9	1.01e-03	0	43	0	234881024	21	4632
2026-01-30 11:29:43.74	205.73	17.86	-30.3	-32.0	12.4	2.01e-04	0	43	0	236978176	21	4383
2026-01-30 11:29:44.75	205.86	17.96	-30.2	-31.8	12.5	1.75e-04	0	43	0	238026752	21	4295
2026-01-30 11:29:45.75	206.00	18.06	-29.9	-30.8	13.2	4.88e-05	0	43	0	240123904	21	3980
2026-01-30 11:29:46.75	206.13	18.16	-29.8	-30.6	13.3	2.21e-05	0	43	0	242221056	21	3943
2026-01-30 11:29:47.76	206.26	18.26	-29.9	-30.8	13.3	1.75e-05	0	43	0	244318208	21	3985
2026-01-30 11:29:48.76	206.40	18.37	-29.7	-30.7	13.6	1.60e-05	0	43	0	245366784	20	4055
2026-01-30 11:29:49.77	206.53	18.47	-29.7	-30.6	13.7	9.90e-06	0	43	0	247463936	20	4025
2026-01-30 11:29:50.77	206.67	18.57	-29.8	-31.1	13.4	9.10e-06	0	43	0	249561088	20	4172
2026-01-30 11:29:51.78	206.81	18.67	-29.7	-30.7	13.6	1.37e-05	0	43	0	251658240	20	4060
2026-01-30 11:29:52.78	206.94	18.78	-29.7	-30.8	13.6	4.50e-06	0	43	0	253755392	20	4081
2026-01-30 11:29:53.79	207.08	18.88	-29.7	-30.9	13.5	6.80e-06	0	43	0	254803968	20	4097
2026-01-30 11:29:54.79	207.22	18.98	-29.7	-30.8	13.6	2.28e-05	0	43	0	256901120	20	4072
2026-01-30 11:29:55.80	207.36	19.09	-29.9	-31.2	13.3	9.10e-06	0	43	0	258998272	20	4209
2026-01-30 11:29:56.80	207.50	19.19	-29.9	-31.3	13.3	1.98e-05	0	43	0	261095424	20	4247
2026-01-30 11:29:57.80	207.65	19.30	-30.0	-31.5	13.2	2.59e-05	0	43	0	263192576	20	4298
2026-01-30 11:29:58.81	207.79	19.40	-30.0	-31.6	13.1	3.12e-05	0	43	0	264241152	20	4338
2026-01-30 11:29:59.81	207.94	19.51	-30.1	-31.8	13.0	2.13e-05	0	43	0	266338304	20	4382
2026-01-30 11:30:00.81	208.08	19.61	-30.0	-31.5	13.1	4.04e-05	0	43	0	268435456	20	4300
2026-01-30 11:30:01.81	208.23	19.72	-30.0	-31.7	13.1	2.21e-05	0	43	0	270532608	20	4346
2026-01-30 11:30:02.82	208.37	19.82	-30.1	-31.8	13.0	3.12e-05	0	43	0	272629760	20	4394
2026-01-30 11:30:03.82	208.52	19.93	-30.1	-31.7	13.0	5.03e-05	0	43	0	273678336	20	4350
2026-01-30 11:30:04.83	208.67	20.04	-30.0	-31.5	13.2	2.44e-05	0	43	0	275775488	20	4266
2026-01-30 11:30:05.82	208.82	20.14	-30.1	-31.9	13.0	3.20e-05	0	43	0	277872640	20	4399
2026-01-30 11:30:06.82	208.97	20.25	-30.0	-31.6	13.2	3.35e-05	0	43	0	279969792	20	4297
2026-01-30 11:30:07.83	209.13	20.36	-29.9	-31.3	13.3	2.51e-05	0	43	0	282066944	20	4222
2026-01-30 11:30:08.83	209.28	20.46	-29.9	-31.1	13.4	1.60e-05	0	43	0	283115520	20	4179
2026-01-30 11:30:09.83	209.43	20.57	-30.0	-31.5	13.2	2.21e-05	0	43	0	285212672	20	4303
2026-01-30 11:30:10.83	209.59	20.68	-29.8	-31.1	13.5	3.28e-05	0	43	0	287309824	20	4169
2026-01-30 11:30:11.84	209.74	20.79	-29.7	-30.9	13.6	9.10e-06	0	43	0	289406976	20	4090
2026-01-30 11:30:12.84	209.90	20.89	-29.9	-31.4	13.2	1.75e-05	0	43	0	291504128	20	4263
2026-01-30 11:30:13.84	210.06	21.00	-29.8	-31.0	13.6	1.98e-05	0	43	0	292552704	20	4120
2026-01-30 11:30:14.83	210.22	21.11	-29.8	-30.9	13.5	1.14e-05	0	43	0	294649856	20	4106
2026-01-30 11:30:15.84	210.38	21.22	-29.9	-31.2	13.4	1.60e-05	0	43	0	296747008	20	4177
2026-01-30 11:30:16.84	210.54	21.33	-30.0	-31.6	13.2	1.75e-05	0	43	0	298844160	20	4299
2026-01-30 11:30:17.85	210.71	21.44	-30.2	-31.9	13.0	3.73e-05	0	43	0	299892736	20	4414
2026-01-30 11:30:18.86	210.87	21.55	-30.1	-31.6	13.2	3.58e-05	0	43	0	301989888	20	4322
2026-01-30 11:30:19.87	211.04	21.66	-30.0	-31.4	13.3	2.44e-05	0	43	0	304087040	20	4259
2026-01-30 11:30:20.87	211.20	21.77	-30.1	-31.8	13.1	2.44e-05	0	43	0	306184192	20	4361
2026-01-30 11:30:21.88	211.37	21.88	-30.0	-31.6	13.2	3.50e-05	0	43	0	308281344	20	4311
2026-01-30 11:30:22.89	211.54	21.99	-30.2	-32.1	12.9	3.28e-05	0	43	0	310378496	20	4468
2026-01-30 11:30:23.89	211.71	22.10	-30.2	-32.0	12.9	5.56e-05	0	43	0	311427072	20	4457
2026-01-30 11:30:24.90	211.88	22.22	-30.1	-31.8	13.1	4.95e-05	0	43	0	313524224	20	4387
2026-01-30 11:30:25.90	212.06	22.33	-30.3	-32.3	12.7	5.03e-05	0	43	0	315621376	20	4542
2026-01-30 11:30:26.90	212.23	22.44	-29.9	-31.3	13.4	7.55e-05	0	43	0	317718528	20	4227
2026-01-30 11:30:27.90	212.40	22.55	-29.7	-30.8	13.8	9.90e-06	0	43	0	318767104	20	4052
2026-01-30 11:30:28.91	212.58	22.66	-29.8	-30.9	13.7	6.10e-06	0	43	0	320864256	20	4078
2026-01-30 11:30:29.92	212.76	22.78	-29.6	-30.4	14.0	2.20e-06	0	43	0	322961408	20	3934
2026-01-30 11:30:30.92	212.94	22.89	-29.4	-29.8	14.4	4.50e-06	0	43	0	325058560	20	3782
2026-01-30 11:30:31.92	213.12	23.00	-29.5	-30.2	14.2	0.00e+00	0	43	0	327155712	20	3882
2026-01-30 11:30:32.93	213.30	23.11	-29.5	-30.2	14.2	1.50e-06	0	43	0	328204288	20	3882
2026-01-30 11:30:33.93	213.48	23.23	-29.5	-30.1	14.2	7.00e-07	0	43	0	330301440	20	3867
2026-01-30 11:30:34.93	213.66	23.34	-29.9	-31.0	13.6	3.00e-06	0	43	0	332398592	20	4132
2026-01-30 11:30:35.94	213.85	23.45	-29.7	-30.7	13.8	3.00e-06	0	43	0	334495744	20	4035
2026-01-30 11:30:36.94	214.04	23.57	-29.5	-30.1	14.2	4.50e-06	0	43	0	336592896	20	3862
2026-01-30 11:30:37.95	214.23	23.68	-29.7	-30.7	13.9	2.20e-06	0	43	0	337641472	20	4024
2026-01-30 11:30:38.95	214.41	23.80	-29.5	-30.1	14.3	7.00e-07	0	43	0	339738624	20	3846
2026-01-30 11:30:39.95	214.60	23.91	-29.5	-30.2	14.2	0.00e+00	0	43	0	341835776	20	3899
2026-01-30 11:30:40.95	214.79	24.03	-29.5	-30.1	14.3	7.00e-07	0	43	0	343932928	20	3857
2026-01-30 11:30:41.95	214.99	24.14	-29.6	-30.4	14.0	4.50e-06	0	43	0	346030080	20	3942
2026-01-30 11:30:42.96	215.18	24.26	-29.3	-30.1	14.6	2.20e-06	0	43	0	347078656	19	3932
2026-01-30 11:30:43.97	215.38	24.37	-29.2	-29.8	14.8	0.00e+00	0	43	0	349175808	19	3859
2026-01-30 11:30:44.97	215.58	24.49	-29.2	-29.9	14.8	7.00e-07	0	43	0	351272960	19	3874
2026-01-30 11:30:45.98	215.78	24.60	-29.3	-29.9	14.7	7.00e-07	0	43	0	353370112	19	3896
2026-01-30 11:30:46.98	215.98	24.72	-29.5	-30.6	14.3	1.50e-06	0	43	0	355467264	19	4065
2026-01-30 11:30:47.98	216.18	24.83	-29.6	-30.8	14.2	7.00e-07	0	43	0	356515840	19	4127
2026-01-30 11:30:48.98	216.38	24.95	-29.8	-31.4	13.9	2.20e-06	0	43	0	358612992	19	4315
2026-01-30 11:30:49.98	216.58	25.06	-29.9	-31.7	13.7	8.30e-06	0	43	0	360710144	19	4413
2026-01-30 11:30:50.99	216.79	25.18	-30.2	-32.0	13.1	1.44e-05	0	43	0	362807296	20	4418
2026-01-30 11:30:51.99	217.00	25.30	-29.9	-31.3	13.5	1.14e-05	0	43	0	364904448	20	4192
2026-01-30 11:30:52.99	217.20	25.41	-29.9	-31.1	13.6	5.30e-06	0	43	0	365953024	20	4143
2026-01-30 11:30:53.99	217.41	25.53	-29.7	-30.6	14.0	4.50e-06	0	43	0	368050176	20	4002
2026-01-30 11:30:54.99	217.63	25.64	-29.8	-30.9	13.8	3.80e-06	0	43	0	370147328	20	4099
2026-01-30 11:30:56.00	217.84	25.76	-29.7	-30.5	14.0	3.80e-06	0	43	0	372244480	20	3983
2026-01-30 11:30:57.01	218.06	25.88	-29.7	-30.6	14.0	0.00e+00	0	43	0	374341632	20	4004
2026-01-30 11:30:58.01	218.27	26.00	-29.8	-30.9	13.8	4.50e-06	0	43	0	375390208	20	4073
2026-01-30 11:30:59.02	218.49	26.11	-30.0	-31.5	13.5	1.06e-05	0	43	0	377487360	20	4252
2026-01-30 11:31:00.02	218.71	26.23	-29.9	-31.1	13.7	5.30e-06	0	43	0	379584512	20	4134
2026-01-30 11:31:01.02	218.93	26.35	-30.0	-31.4	13.5	2.20e-06	0	43	0	381681664	20	4232
2026-01-30 11:31:02.03	219.16	26.47	-30.0	-31.5	13.5	1.22e-05	0	43	0	382730240	20	4259
2026-01-30 11:31:03.03	219.38	26.58	-29.9	-31.1	13.7	1.06e-05	0	43	0	384827392	20	4148
2026-01-30 11:31:04.02	219.60	26.70	-29.9	-31.2	13.6	4.50e-06	0	43	0	386924544	20	4169
2026-01-30 11:31:05.03	219.83	26.82	-30.0	-31.4	13.5	7.60e-06	0	43	0	389021696	20	4238
2026-01-30 11:31:06.05	220.07	26.94	-30.2	-31.9	13.2	1.44e-05	0	43	0	391118848	20	4386
2026-01-30 11:31:07.05	220.30	27.05	-30.2	-31.9	13.1	2.82e-05	0	43	0	392167424	20	4409
2026-01-30 11:31:08.05	220.53	27.17	-30.3	-32.4	12.8	4.34e-05	0	43	0	394264576	20	4576
2026-01-30 11:31:09.06	220.76	27.29	-30.1	-31.8	13.2	3.12e-05	0	43	0	396361728	20	4375
2026-01-30 11:31:10.07	221.00	27.41	-30.0	-31.5	13.5	9.10e-06	0	43	0	398458880	20	4256
2026-01-30 11:31:11.07	221.24	27.52	-29.7	-30.7	14.0	8.30e-06	0	43	0	400556032	20	4017
2026-01-30 11:31:12.07	221.48	27.64	-29.8	-30.9	13.8	6.80e-06	0	43	0	401604608	20	4092
2026-01-30 11:31:13.07	221.72	27.76	-29.6	-30.5	14.1	3.00e-06	0	43	0	403701760	20	3954
2026-01-30 11:31:14.07	221.96	27.87	-29.8	-30.8	13.8	1.50e-06	0	43	0	405798912	20	4053
2026-01-30 11:31:15.08	222.21	27.99	-30.0	-31.5	13.4	7.60e-06	0	43	0	407896064	20	4278
2026-01-30 11:31:16.08	222.45	28.11	-29.7	-30.6	14.1	5.30e-06	0	43	0	409993216	20	3990
2026-01-30 11:31:17.09	222.70	28.23	-29.3	-30.1	14.7	0.00e+00	0	43	0	411041792	19	3927
2026-01-30 11:31:18.09	222.95	28.34	-29.4	-30.2	14.6	7.00e-07	0	43	0	413138944	19	3972
2026-01-30 11:31:19.09	223.20	28.46	-29.7	-31.0	14.1	0.00e+00	0	43	0	415236096	19	4204
2026-01-30 11:31:20.10	223.46	28.58	-29.6	-30.8	14.3	0.00e+00	0	43	0	417333248	19	4138
2026-01-30 11:31:21.10	223.71	28.69	-29.8	-31.2	14.0	7.00e-07	0	43	0	419430400	19	4264
2026-01-30 11:31:22.11	223.97	28.81	-29.8	-31.4	13.9	7.00e-07	0	43	0	420478976	19	4314
2026-01-30 11:31:23.11	224.23	28.93	-29.9	-31.5	13.9	1.50e-06	0	43	0	422576128	19	4356
2026-01-30 11:31:24.11	224.49	29.04	-29.9	-31.6	13.8	2.20e-06	0	43	0	424673280	19	4373
2026-01-30 11:31:25.11	224.75	29.16	-30.3	-32.1	13.1	2.51e-05	0	43	0	426770432	20	4446
2026-01-30 11:31:26.11	225.02	29.27	-30.3	-32.3	12.9	2.74e-05	0	43	0	428867584	20	4535
2026-01-30 11:31:27.12	225.28	29.39	-30.5	-32.2	12.7	4.95e-05	0	43	0	429916160	21	4394
2026-01-30 11:31:28.13	225.55	29.51	-30.4	-32.1	12.7	7.85e-05	0	43	0	432013312	21	4364
2026-01-30 11:31:29.13	225.82	29.62	-30.4	-31.9	12.9	5.41e-05	0	43	0	434110464	21	4307
2026-01-30 11:31:30.14	226.10	29.74	-30.4	-32.0	12.8	5.87e-05	0	43	0	436207616	21	4334
2026-01-30 11:31:31.14	226.37	29.85	-30.5	-32.2	12.8	5.64e-05	0	43	0	438304768	21	4383
2026-01-30 11:31:32.14	226.65	29.97	-30.6	-32.5	12.6	1.10e-04	0	43	0	439353344	21	4467
2026-01-30 11:31:33.14	226.92	30.08	-30.7	-32.7	12.4	1.34e-04	0	43	0	441450496	21	4541
2026-01-30 11:31:34.14	227.20	30.19	-30.5	-32.1	12.8	9.00e-05	0	43	0	443547648	21	4347
2026-01-30 11:31:35.15	227.49	30.31	-30.4	-32.0	12.9	5.79e-05	0	43	0	445644800	21	4327
2026-01-30 11:31:36.15	227.77	30.42	-30.4	-31.9	12.9	6.25e-05	0	43	0	447741952	21	4292
2026-01-30 11:31:37.14	228.05	30.53	-30.6	-32.5	12.6	7.24e-05	0	43	0	448790528	21	4494
2026-01-30 11:31:38.15	228.34	30.65	-31.1	-33.3	11.7	2.42e-04	0	43	0	450887680	22	4686
2026-01-30 11:31:39.15	228.63	30.76	-31.0	-33.1	11.8	7.17e-04	0	43	0	452984832	22	4611
2026-01-30 11:31:40.15	228.92	30.87	-31.3	-34.1	11.2	1.17e-03	0	43	0	455081984	22	4966
2026-01-30 11:31:41.15	229.21	30.98	-31.5	-34.1	10.7	3.07e-03	0	43	0	456130560	23	4865
2026-01-30 11:31:42.15	229.51	31.09	-31.5	-34.3	10.6	3.25e-03	0	43	0	458227712	23	4950
2026-01-30 11:31:43.16	229.81	31.21	-31.8	-35.1	10.1	5.87e-03	0	43	0	460324864	23	5293
2026-01-30 11:31:44.16	230.11	31.32	-31.8	-35.1	10.1	8.08e-03	0	43	0	462422016	23	5286
2026-01-30 11:31:45.17	230.41	31.43	-31.7	-34.9	10.2	8.22e-03	0	43	0	464519168	23	5204
2026-01-30 11:31:46.18	230.71	31.54	-31.6	-34.6	10.4	5.80e-03	0	43	0	465567744	23	5093
2026-01-30 11:31:47.18	231.02	31.65	-31.5	-34.4	10.6	5.84e-03	0	43	0	467664896	23	4988
2026-01-30 11:31:48.18	231.33	31.76	-31.7	-34.9	10.2	7.02e-03	0	43	0	469762048	23	5205
2026-01-30 11:31:49.18	231.63	31.86	-32.0	-35.6	9.3	1.26e-02	0	43	0	471859200	24	5431
2026-01-30 11:31:50.19	231.95	31.97	-31.9	-35.1	9.6	1.02e-02	0	43	0	473956352	24	5239
2026-01-30 11:31:51.19	232.26	32.08	-32.1	-35.9	9.0	1.92e-02	0	43	0	475004928	24	5588
2026-01-30 11:31:52.19	232.58	32.19	-32.1	-35.9	9.0	2.51e-02	0	43	0	477102080	24	5593
2026-01-30 11:31:53.20	232.90	32.29	-31.8	-34.8	9.9	1.20e-02	0	43	0	479199232	24	5087
2026-01-30 11:31:54.20	233.21	32.40	-31.6	-34.2	10.3	8.49e-03	0	43	0	481296384	24	4826
2026-01-30 11:31:55.20	233.54	32.50	-31.7	-34.2	10.4	4.51e-03	0	43	0	483393536	24	4835
2026-01-30 11:31:56.20	233.86	32.61	-31.8	-34.5	10.2	5.48e-03	0	43	0	484442112	24	4958
2026-01-30 11:31:57.20	234.18	32.71	-31.7	-34.2	10.4	6.69e-03	0	43	0	486539264	24	4836
2026-01-30 11:31:58.21	234.51	32.81	-31.9	-35.0	9.8	7.40e-03	0	43	0	488636416	24	5144
2026-01-30 11:31:59.22	234.85	32.92	-32.0	-35.2	9.6	1.39e-02	0	43	0	490733568	24	5223
2026-01-30 11:32:00.22	235.18	33.02	-32.1	-35.6	9.2	2.23e-02	0	43	0	492830720	24	5396
2026-01-30 11:32:01.22	235.51	33.12	-32.2	-36.2	8.9	2.21e-02	0	43	0	493879296	24	5699
2026-01-30 11:32:02.22	235.85	33.22	-32.3	-36.6	8.7	3.26e-02	0	43	0	495976448	24	5912
2026-01-30 11:32:03.22	236.18	33.32	-32.1	-35.7	9.2	2.01e-02	0	43	0	498073600	24	5458
2026-01-30 11:32:04.23	236.53	33.42	-31.9	-34.8	9.9	1.15e-02	0	43	0	500170752	24	5070
2026-01-30 11:32:05.23	236.87	33.51	-31.7	-34.3	10.4	5.19e-03	0	43	0	501219328	24	4867
2026-01-30 11:32:06.23	237.21	33.61	-31.6	-33.9	10.6	3.90e-03	0	43	0	503316480	24	4684
2026-01-30 11:32:07.24	237.56	33.71	-31.5	-33.7	10.7	2.65e-03	0	43	0	505413632	24	4638
2026-01-30 11:32:08.24	237.91	33.80	-31.7	-34.2	10.4	4.00e-03	0	43	0	507510784	24	4817
2026-01-30 11:32:09.25	238.26	33.90	-32.0	-35.2	9.6	7.54e-03	0	43	0	509607936	24	5228
2026-01-30 11:32:10.25	238.61	33.99	-32.1	-35.7	9.3	1.66e-02	0	43	0	510656512	24	5454
2026-01-30 11:32:11.26	238.97	34.08	-32.3	-36.5	8.7	1.93e-02	0	43	0	512753664	24	5818
2026-01-30 11:32:12.27	239.32	34.18	-32.0	-35.4	9.6	1.69e-02	0	43	0	514850816	24	5291
2026-01-30 11:32:13.27	239.68	34.27	-31.6	-33.9	10.6	4.42e-03	0	43	0	516947968	24	4700
2026-01-30 11:32:14.27	240.04	34.36	-31.1	-32.7	11.8	1.04e-03	0	43	0	519045120	23	4351
2026-01-30 11:32:15.27	240.40	34.45	-30.9	-32.1	12.4	2.72e-04	0	43	0	520093696	23	4164
2026-01-30 11:32:16.27	240.76	34.53	-31.1	-32.8	11.9	3.51e-04	0	43	0	522190848	23	4366
2026-01-30 11:32:17.28	241.13	34.62	-31.1	-32.7	12.0	3.10e-04	0	43	0	524288000	23	4349
2026-01-30 11:32:18.28	241.50	34.71	-31.6	-34.3	10.9	1.22e-03	0	43	0	526385152	23	4909
2026-01-30 11:32:19.29	241.87	34.79	-31.9	-35.6	9.8	6.85e-03	0	43	0	528482304	23	5460
2026-01-30 11:32:20.29	242.24	34.87	-32.0	-35.4	9.6	1.06e-02	0	43	0	529530880	24	5318
2026-01-30 11:32:21.30	242.62	34.96	-31.9	-35.0	9.9	1.11e-02	0	43	0	531628032	24	5113
2026-01-30 11:32:22.30	242.99	35.04	-31.8	-34.5	10.3	9.12e-03	0	43	0	533725184	24	4900
2026-01-30 11:32:23.30	243.37	35.12	-31.4	-33.1	11.3	1.92e-03	0	43	0	535822336	24	4396
2026-01-30 11:32:24.30	243.75	35.20	-31.1	-32.8	11.8	8.67e-04	0	43	0	537919488	23	4382
2026-01-30 11:32:25.31	244.13	35.28	-31.4	-33.6	11.3	7.16e-04	0	43	0	538968064	23	4653
2026-01-30 11:32:26.32	244.51	35.35	-31.3	-33.4	11.4	1.05e-03	0	43	0	541065216	23	4586
2026-01-30 11:32:27.32	244.90	35.43	-31.0	-32.5	12.1	3.46e-04	0	43	0	543162368	23	4276
2026-01-30 11:32:28.32	245.28	35.50	-30.8	-32.4	12.5	1.46e-04	0	43	0	545259520	22	4313
2026-01-30 11:32:29.32	245.67	35.57	-30.9	-32.7	12.3	1.24e-04	0	43	0	547356672	22	4427
2026-01-30 11:32:30.33	246.06	35.65	-31.1	-33.4	11.8	5.74e-04	0	43	0	548405248	22	4674
2026-01-30 11:32:31.33	246.45	35.72	-30.8	-32.3	12.5	2.47e-04	0	43	0	550502400	22	4295
2026-01-30 11:32:32.33	246.84	35.79	-30.2	-31.3	13.4	3.05e-05	0	43	0	552599552	21	4070
2026-01-30 11:32:33.33	247.24	35.85	-29.9	-30.4	14.0	2.20e-06	0	43	0	554696704	21	3822
2026-01-30 11:32:34.34	247.63	35.92	-29.7	-30.4	14.3	7.00e-07	0	43	0	556793856	20	3917
2026-01-30 11:32:35.34	248.03	35.98	-30.0	-31.1	13.9	2.20e-06	0	43	0	557842432	20	4113
2026-01-30 11:32:36.34	248.43	36.05	-30.4	-32.2	13.2	1.06e-05	0	43	0	559939584	20	4457
2026-01-30 11:32:37.35	248.83	36.11	-30.5	-32.1	13.0	6.63e-05	0	43	0	562036736	21	4319
2026-01-30 11:32:38.35	249.23	36.17	-30.2	-31.3	13.5	2.89e-05	0	43	0	564133888	21	4079
2026-01-30 11:32:39.35	249.63	36.23	-29.8	-30.6	14.3	3.80e-06	0	43	0	566231040	20	3953
2026-01-30 11:32:40.36	250.04	36.29	-29.6	-30.2	14.6	0.00e+00	0	43	0	567279616	20	3846
2026-01-30 11:32:41.36	250.45	36.34	-29.8	-30.6	14.3	3.80e-06	0	43	0	569376768	20	3947
2026-01-30 11:32:42.35	250.85	36.40	-29.9	-31.0	14.0	1.50e-06	0	43	0	571473920	20	4079
2026-01-30 11:32:43.36	251.26	36.45	-29.7	-30.4	14.5	2.20e-06	0	43	0	573571072	20	3906
2026-01-30 11:32:44.36	251.67	36.50	-29.7	-30.4	14.5	3.80e-06	0	43	0	574619648	20	3913
2026-01-30 11:32:45.36	252.08	36.55	-29.5	-30.1	14.6	3.00e-06	0	43	0	576716800	20	3816
2026-01-30 11:32:46.37	252.50	36.60	-29.4	-29.7	14.8	0.00e+00	0	43	0	578813952	20	3727
2026-01-30 11:32:47.36	252.90	36.65	-29.5	-30.0	14.7	3.80e-06	0	43	0	580911104	20	3802
2026-01-30 11:32:48.37	253.32	36.69	-30.0	-31.1	14.0	1.50e-06	0	43	0	583008256	20	4125
2026-01-30 11:32:49.37	253.74	36.74	-30.3	-31.9	13.4	6.10e-06	0	43	0	584056832	20	4359
2026-01-30 11:32:50.38	254.16	36.78	-30.3	-32.1	13.3	2.05e-05	0	43	0	586153984	20	4405
2026-01-30 11:32:51.39	254.58	36.82	-30.3	-31.9	13.5	1.14e-05	0	43	0	588251136	20	4341
2026-01-30 11:32:52.39	255.00	36.86	-30.4	-32.2	13.3	6.80e-06	0	44	0	590348288	20	4431
2026-01-30 11:32:53.40	255.42	36.90	-30.3	-32.1	13.4	1.75e-05	0	43	0	592445440	20	4403
2026-01-30 11:32:54.40	255.84	36.93	-30.0	-31.3	13.9	9.90e-06	0	43	0	593494016	20	4165
2026-01-30 11:32:55.41	256.26	36.97	-29.8	-30.7	14.1	0.00e+00	0	43	0	595591168	20	3999
2026-01-30 11:32:56.42	256.69	37.00	-29.7	-30.5	14.4	4.50e-06	0	43	0	597688320	20	3920
2026-01-30 11:32:57.42	257.11	37.03	-29.8	-30.6	14.3	1.50e-06	0	43	0	599785472	20	3955
2026-01-30 11:32:58.43	257.54	37.06	-29.9	-30.9	14.2	7.00e-07	0	43	0	601882624	20	4044
2026-01-30 11:32:59.43	257.96	37.09	-30.2	-31.6	13.7	8.30e-06	0	43	0	602931200	20	4254
2026-01-30 11:33:00.43	258.39	37.11	-30.5	-32.4	13.2	1.44e-05	0	43	0	605028352	20	4518
2026-01-30 11:33:01.44	258.82	37.14	-30.5	-32.0	13.0	4.80e-05	0	43	0	607125504	21	4297
2026-01-30 11:33:02.44	259.24	37.16	-30.5	-32.0	13.1	3.05e-05	0	43	0	609222656	21	4271
2026-01-30 11:33:03.44	259.67	37.18	-30.7	-32.6	12.7	5.34e-05	0	43	0	611319808	21	4489
2026-01-30 11:33:04.45	260.10	37.20	-30.9	-33.2	12.3	9.00e-05	0	43	0	612368384	21	4679
2026-01-30 11:33:05.45	260.53	37.21	-30.9	-33.1	12.4	1.86e-04	0	43	0	614465536	21	4637
2026-01-30 11:33:06.46	260.96	37.23	-30.7	-32.5	12.8	1.71e-04	0	43	0	616562688	21	4457
2026-01-30 11:33:07.46	261.39	37.24	-30.5	-32.1	13.1	4.42e-05	0	43	0	618659840	21	4308
2026-01-30 11:33:08.47	261.82	37.25	-30.5	-32.1	13.1	2.28e-05	0	43	0	620756992	21	4334
2026-01-30 11:33:09.47	262.25	37.26	-30.6	-32.4	12.8	5.03e-05	0	43	0	621805568	21	4400
2026-01-30 11:33:10.48	262.68	37.27	-30.5	-32.1	13.1	5.56e-05	0	43	0	623902720	21	4331
2026-01-30 11:33:11.48	263.11	37.28	-30.7	-32.5	12.8	4.27e-05	0	43	0	625999872	21	4447
2026-01-30 11:33:12.49	263.54	37.28	-31.0	-32.9	12.2	1.72e-04	0	43	0	628097024	22	4473
2026-01-30 11:33:13.49	263.97	37.28	-31.2	-33.6	11.8	4.65e-04	0	43	0	630194176	22	4726
2026-01-30 11:33:14.49	264.40	37.29	-31.1	-33.4	11.8	4.16e-04	0	43	0	631242752	22	4660
2026-01-30 11:33:15.49	264.83	37.28	-31.1	-33.2	12.0	5.58e-04	0	43	0	633339904	22	4594
2026-01-30 11:33:16.50	265.26	37.28	-30.7	-32.1	12.8	1.21e-04	0	43	0	635437056	22	4210
2026-01-30 11:33:17.50	265.69	37.28	-30.6	-31.8	13.0	6.94e-05	0	43	0	637534208	22	4118
2026-01-30 11:33:18.50	266.12	37.27	-30.7	-32.2	12.7	6.25e-05	0	43	0	639631360	22	4246
2026-01-30 11:33:19.51	266.55	37.26	-30.7	-32.0	12.9	9.38e-05	0	43	0	640679936	22	4197
2026-01-30 11:33:20.52	266.99	37.25	-30.7	-32.1	12.7	6.86e-05	0	43	0	642777088	22	4224
2026-01-30 11:33:21.51	267.41	37.24	-30.9	-32.7	12.4	8.23e-05	0	43	0	644874240	22	4409
2026-01-30 11:33:22.52	267.84	37.23	-31.3	-33.7	11.6	3.11e-04	0	43	0	646971392	22	4770
2026-01-30 11:33:23.52	268.27	37.21	-31.7	-34.6	10.6	2.33e-03	0	43	0	648019968	23	5042
2026-01-30 11:33:24.52	268.70	37.20	-31.9	-34.8	10.1	8.06e-03	0	43	0	650117120	24	5025
2026-01-30 11:33:25.53	269.13	37.18	-31.6	-33.9	10.8	4.25e-03	0	43	0	652214272	24	4693
2026-01-30 11:33:26.53	269.55	37.16	-31.3	-33.3	11.6	1.86e-03	0	43	0	654311424	23	4524
2026-01-30 11:33:27.54	269.98	37.13	-31.1	-32.8	11.9	3.81e-04	0	43	0	656408576	23	4362
2026-01-30 11:33:28.54	270.41	37.11	-31.1	-32.7	11.9	2.58e-04	0	43	0	657457152	23	4338
2026-01-30 11:33:29.54	270.83	37.09	-30.9	-32.3	12.3	3.72e-04	0	43	0	659554304	23	4188
2026-01-30 11:33:30.55	271.26	37.06	-30.7	-32.0	12.8	5.64e-05	0	43	0	661651456	22	4200
2026-01-30 11:33:31.56	271.69	37.03	-30.7	-32.0	12.8	3.96e-05	0	43	0	663748608	22	4185
2026-01-30 11:33:32.56	272.11	37.00	-30.9	-32.7	12.4	7.01e-05	0	43	0	665845760	22	4418
2026-01-30 11:33:33.56	272.53	36.97	-31.4	-34.1	11.4	6.81e-04	0	43	0	666894336	22	4914
2026-01-30 11:33:34.57	272.95	36.93	-31.4	-33.7	11.4	1.35e-03	0	43	0	668991488	23	4682
2026-01-30 11:33:35.57	273.37	36.90	-31.2	-33.0	11.8	8.86e-04	0	43	0	671088640	23	4413
2026-01-30 11:33:36.57	273.79	36.86	-31.1	-32.6	12.1	3.16e-04	0	43	0	673185792	23	4297
2026-01-30 11:33:37.57	274.21	36.82	-31.2	-33.0	11.8	2.32e-04	0	43	0	675282944	23	4428
2026-01-30 11:33:38.58	274.63	36.78	-31.3	-33.1	11.7	3.83e-04	0	43	0	676331520	23	4479
2026-01-30 11:33:39.58	275.04	36.74	-31.1	-32.7	11.9	4.80e-04	0	43	0	678428672	23	4326
2026-01-30 11:33:40.58	275.46	36.69	-30.7	-32.2	12.7	9.99e-05	0	43	0	680525824	22	4240
2026-01-30 11:33:41.59	275.87	36.65	-30.7	-32.0	12.8	5.64e-05	0	43	0	682622976	22	4199
2026-01-30 11:33:42.59	276.29	36.60	-31.0	-32.8	12.3	6.33e-05	0	43	0	684720128	22	4447
2026-01-30 11:33:43.59	276.70	36.55	-31.4	-34.0	11.5	5.19e-04	0	43	0	685768704	22	4890
2026-01-30 11:33:44.60	277.11	36.50	-31.7	-34.5	10.8	1.89e-03	0	44	0	687865856	23	4988
2026-01-30 11:33:45.60	277.52	36.45	-31.6	-34.2	10.9	2.35e-03	0	43	0	689963008	23	4878
2026-01-30 11:33:46.60	277.93	36.40	-31.3	-33.3	11.6	1.09e-03	0	43	0	692060160	23	4527
2026-01-30 11:33:47.60	278.33	36.34	-31.6	-34.1	11.1	1.00e-03	0	43	0	694157312	23	4843
2026-01-30 11:33:48.60	278.74	36.29	-32.1	-35.5	9.6	6.32e-03	0	43	0	695205888	24	5307
2026-01-30 11:33:49.61	279.14	36.23	-32.6	-36.8	8.2	3.13e-02	0	43	0	697303040	25	5879
2026-01-30 11:33:50.62	279.55	36.17	-32.6	-37.1	8.0	7.20e-02	0	43	0	699400192	25	6025
2026-01-30 11:33:51.62	279.95	36.11	-32.5	-36.8	8.2	4.79e-02	0	43	0	701497344	25	5848
2026-01-30 11:33:52.63	280.35	36.05	-32.5	-36.4	8.5	3.88e-02	0	43	0	703594496	25	5665
2026-01-30 11:33:53.63	280.75	35.98	-32.5	-36.6	8.4	4.88e-02	0	43	0	704643072	25	5751
2026-01-30 11:33:54.63	281.14	35.92	-32.8	-38.1	7.3	7.67e-02	0	43	0	706740224	25	6597
2026-01-30 11:33:55.64	281.54	35.85	-32.6	-37.1	8.0	1.05e-01	0	43	0	708837376	25	6018
2026-01-30 11:33:56.64	281.93	35.78	-32.2	-35.3	9.4	5.22e-02	0	43	0	710934528	25	5135
2026-01-30 11:33:57.65	282.33	35.71	-31.8	-34.0	10.4	6.01e-03	0	43	0	713031680	25	4608
2026-01-30 11:33:58.65	282.71	35.64	-31.8	-34.5	10.4	3.00e-03	0	43	0	714080256	24	4877
2026-01-30 11:33:59.66	283.11	35.57	-32.4	-36.5	8.9	1.31e-02	0	43	0	716177408	24	5793
2026-01-30 11:34:00.66	283.49	35.50	-32.9	-38.3	7.1	1.07e-01	0	43	0	718274560	25	6726
2026-01-30 11:34:01.67	283.88	35.43	-33.0	-38.5	6.5	1.87e-01	0	43	0	720371712	26	6756
2026-01-30 11:34:02.68	284.26	35.35	-32.6	-36.3	8.3	1.09e-01	0	43	0	721420288	26	5524
2026-01-30 11:34:03.68	284.64	35.27	-32.2	-35.2	9.4	2.74e-02	0	43	0	723517440	25	5083
2026-01-30 11:34:04.68	285.02	35.20	-31.7	-34.1	10.7	3.99e-03	0	43	0	725614592	24	4731
2026-01-30 11:34:05.68	285.40	35.12	-31.7	-34.2	10.6	3.72e-03	0	43	0	727711744	24	4763
2026-01-30 11:34:06.69	285.78	35.04	-31.8	-34.2	10.6	4.37e-03	0	43	0	729808896	24	4776
2026-01-30 11:34:07.70	286.16	34.96	-31.5	-33.4	11.1	1.71e-03	0	43	0	731906048	24	4494
2026-01-30 11:34:08.69	286.52	34.87	-31.0	-32.3	12.3	3.70e-04	0	43	0	732954624	23	4191
2026-01-30 11:34:09.70	286.90	34.79	-31.1	-32.6	12.0	1.98e-04	0	43	0	735051776	23	4303
2026-01-30 11:34:10.69	287.26	34.71	-31.4	-33.7	11.4	7.09e-04	0	43	0	737148928	23	4658
2026-01-30 11:34:11.70	287.63	34.62	-32.1	-35.3	9.8	4.45e-03	0	43	0	739246080	24	5250
2026-01-30 11:34:12.70	287.99	34.54	-32.4	-36.1	8.8	2.31e-02	0	43	0	740294656	25	5495
2026-01-30 11:34:13.70	288.35	34.45	-32.8	-37.8	7.6	5.56e-02	0	43	0	742391808	25	6392
2026-01-30 11:34:14.71	288.72	34.36	-32.8	-37.6	7.7	1.19e-01	0	43	0	744488960	25	6266
2026-01-30 11:34:15.71	289.07	34.27	-32.6	-37.0	8.1	7.56e-02	0	43	0	746586112	25	5946
2026-01-30 11:34:16.71	289.43	34.18	-32.5	-36.4	8.7	5.44e-02	0	44	0	748683264	25	5626
2026-01-30 11:34:17.71	289.78	34.09	-32.6	-36.7	8.3	4.96e-02	0	44	0	749731840	25	5804
2026-01-30 11:34:18.72	290.14	34.00	-32.6	-36.7	8.3	4.90e-02	0	43	0	751828992	25	5834
2026-01-30 11:34:19.72	290.49	33.90	-32.1	-34.9	9.7	2.01e-02	0	43	0	753926144	25	4957
2026-01-30 11:34:20.72	290.84	33.81	-31.8	-34.3	10.5	8.21e-03	0	43	0	756023296	24	4828
2026-01-30 11:34:21.72	291.18	33.71	-31.3	-32.7	11.7	1.49e-03	0	43	0	758120448	24	4230
2026-01-30 11:34:22.72	291.53	33.62	-30.8	-32.2	12.7	3.46e-04	0	43	0	759169024	22	4260
2026-01-30 11:34:23.72	291.87	33.52	-30.8	-32.3	12.6	1.32e-04	0	43	0	761266176	22	4290
2026-01-30 11:34:24.72	292.21	33.43	-30.8	-32.3	12.7	7.32e-05	0	43	0	763363328	22	4270
2026-01-30 11:34:25.73	292.55	33.33	-31.1	-33.1	12.0	1.04e-04	0	43	0	765460480	22	4534
2026-01-30 11:34:26.73	292.89	33.23	-31.1	-33.2	12.1	3.50e-04	0	43	0	766509056	22	4571
2026-01-30 11:34:27.73	293.22	33.13	-31.2	-33.5	11.8	3.32e-04	0	43	0	768606208	22	4677
2026-01-30 11:34:28.74	293.56	33.03	-30.8	-32.4	12.6	2.24e-04	0	43	0	770703360	22	4317
2026-01-30 11:34:29.74	293.89	32.93	-30.9	-32.6	12.5	1.77e-04	0	43	0	772800512	22	4367
2026-01-30 11:34:30.74	294.21	32.83	-31.3	-33.8	11.7	1.33e-04	0	43	0	774897664	22	4788
2026-01-30 11:34:31.75	294.54	32.72	-31.8	-35.1	10.4	2.14e-03	0	43	0	776994816	23	5208
2026-01-30 11:34:32.76	294.87	32.62	-32.8	-37.8	7.6	3.40e-02	0	43	0	778043392	25	6401
2026-01-30 11:34:33.76	295.19	32.52	-33.2	-39.2	5.9	2.23e-01	0	43	0	780140544	26	7253
2026-01-30 11:34:34.76	295.51	32.41	-32.7	-37.1	7.5	1.79e-01	0	43	0	782237696	26	5935
2026-01-30 11:34:35.76	295.83	32.31	-31.3	-33.0	11.4	1.19e-02	0	43	0	784334848	24	4336
2026-01-30 11:34:36.77	296.15	32.20	-30.2	-31.1	13.6	8.01e-05	0	43	0	785383424	21	4015
2026-01-30 11:34:37.77	296.46	32.09	-29.8	-30.7	14.3	1.50e-06	0	43	0	787480576	20	3989
2026-01-30 11:34:38.78	296.78	31.99	-30.2	-31.7	13.7	7.00e-07	0	43	0	789577728	20	4264
2026-01-30 11:34:39.78	297.09	31.88	-30.8	-32.8	12.7	2.82e-05	0	43	0	791674880	21	4526
2026-01-30 11:34:40.78	297.39	31.77	-30.9	-33.1	12.3	1.02e-04	0	43	0	793772032	21	4634
2026-01-30 11:34:41.78	297.70	31.67	-30.5	-32.1	13.1	4.73e-05	0	44	0	794820608	21	4316
2026-01-30 11:34:42.79	298.01	31.56	-29.9	-30.4	14.1	7.60e-06	0	43	0	796917760	21	3810
2026-01-30 11:34:43.79	298.31	31.45	-29.7	-30.5	14.4	0.00e+00	0	43	0	799014912	20	3924
2026-01-30 11:34:44.80	298.61	31.34	-29.8	-30.7	14.2	7.00e-07	0	43	0	801112064	20	3970
2026-01-30 11:34:45.80	298.91	31.23	-30.0	-31.2	14.0	2.20e-06	0	43	0	803209216	20	4138
2026-01-30 11:34:46.80	299.20	31.12	-30.7	-32.5	12.8	1.67e-05	0	43	0	804257792	21	4461
2026-01-30 11:34:47.81	299.50	31.01	-30.6	-32.3	12.9	9.38e-05	0	43	0	806354944	21	4367
2026-01-30 11:34:48.81	299.79	30.90	-30.1	-30.9	13.8	1.14e-05	0	43	0	808452096	21	3946
2026-01-30 11:34:49.81	300.08	30.78	-29.4	-29.8	14.7	7.00e-07	0	43	0	810549248	20	3733
2026-01-30 11:34:50.81	300.37	30.67	-29.0	-29.1	15.6	0.00e+00	0	44	0	812646400	19	3645
2026-01-30 11:34:51.82	300.66	30.56	-29.3	-29.8	15.1	0.00e+00	0	44	0	813694976	19	3830
2026-01-30 11:34:52.82	300.94	30.45	-29.8	-31.3	14.3	1.50e-06	0	43	0	815792128	19	4233
2026-01-30 11:34:53.82	301.22	30.34	-30.6	-32.3	12.9	9.90e-06	0	43	0	817889280	21	4376
2026-01-30 11:34:54.82	301.50	30.22	-30.8	-32.8	12.6	9.07e-05	0	44	0	819986432	21	4551
2026-01-30 11:34:55.83	301.78	30.11	-30.4	-31.9	13.1	3.66e-05	0	43	0	822083584	21	4249
2026-01-30 11:34:56.83	302.06	29.99	-29.4	-29.6	14.9	1.50e-06	0	43	0	823132160	20	3700
2026-01-30 11:34:57.83	302.33	29.88	-28.8	-29.1	15.9	0.00e+00	0	43	0	825229312	18	3731
2026-01-30 11:34:58.83	302.61	29.77	-29.3	-30.2	15.2	0.00e+00	0	43	0	827326464	18	4036
2026-01-30 11:34:59.84	302.88	29.65	-29.8	-31.0	14.4	0.00e+00	0	43	0	829423616	19	4166
2026-01-30 11:35:00.84	303.15	29.54	-30.6	-32.2	13.0	6.10e-06	0	43	0	831520768	21	4350
2026-01-30 11:35:01.83	303.41	29.42	-30.8	-32.9	12.5	9.15e-05	0	43	0	832569344	21	4580
2026-01-30 11:35:02.84	303.68	29.31	-30.6	-32.3	12.8	4.11e-05	0	43	0	834666496	21	4393
2026-01-30 11:35:03.84	303.94	29.19	-29.9	-30.6	14.0	1.75e-05	0	44	0	836763648	21	3863
2026-01-30 11:35:04.85	304.20	29.08	-29.8	-30.6	14.3	7.00e-07	0	43	0	838860800	20	3964
2026-01-30 11:35:05.85	304.46	28.96	-30.4	-32.2	13.3	7.60e-06	0	43	0	839909376	20	4459
2026-01-30 11:35:06.85	304.72	28.85	-30.5	-32.2	13.0	4.04e-05	0	43	0	842006528	21	4339
2026-01-30 11:35:07.86	304.98	28.73	-30.9	-33.1	12.3	6.94e-05	0	43	0	844103680	21	4667
2026-01-30 11:35:08.86	305.23	28.62	-31.3	-33.8	11.6	6.17e-04	0	43	0	846200832	22	4808
2026-01-30 11:35:09.85	305.48	28.50	-31.0	-33.1	12.0	6.62e-04	0	43	0	848297984	22	4562
2026-01-30 11:35:10.85	305.73	28.39	-30.5	-31.4	13.1	1.59e-04	0	44	0	849346560	22	4032
2026-01-30 11:35:11.86	305.98	28.27	-30.1	-31.1	13.7	7.60e-06	0	43	0	851443712	21	4005
2026-01-30 11:35:12.86	306.23	28.15	-30.0	-30.7	13.9	5.30e-06	0	43	0	853540864	21	3907
2026-01-30 11:35:13.87	306.48	28.04	-30.2	-31.2	13.6	3.80e-06	0	43	0	855638016	21	4045
2026-01-30 11:35:14.87	306.72	27.92	-30.3	-31.6	13.3	1.14e-05	0	43	0	857735168	21	4154
2026-01-30 11:35:15.87	306.96	27.80	-30.7	-32.5	12.7	6.94e-05	0	43	0	858783744	21	4450
2026-01-30 11:35:16.87	307.20	27.69	-30.3	-31.5	13.4	6.17e-05	0	44	0	860880896	21	4125
2026-01-30 11:35:17.87	307.44	27.57	-29.8	-30.2	14.2	1.06e-05	0	43	0	862978048	21	3771
2026-01-30 11:35:18.87	307.68	27.46	-29.0	-29.2	15.4	7.00e-07	0	43	0	865075200	19	3665
2026-01-30 11:35:19.88	307.91	27.34	-28.8	-29.1	15.8	0.00e+00	0	43	0	867172352	18	3738
2026-01-30 11:35:20.88	308.15	27.22	-29.2	-30.2	15.2	0.00e+00	0	43	0	868220928	18	4018
2026-01-30 11:35:21.88	308.38	27.11	-29.8	-31.1	14.3	0.00e+00	0	43	0	870318080	19	4190
2026-01-30 11:35:22.89	308.61	26.99	-30.6	-32.4	12.8	2.89e-05	0	43	0	872415232	21	4436
2026-01-30 11:35:23.90	308.84	26.87	-30.8	-33.1	12.4	1.26e-04	0	43	0	874512384	21	4646
2026-01-30 11:35:24.90	309.06	26.75	-30.8	-33.0	12.3	1.52e-04	0	43	0	876609536	21	4619
2026-01-30 11:35:25.90	309.29	26.64	-30.2	-31.2	13.5	2.21e-05	0	43	0	877658112	21	4036
2026-01-30 11:35:26.91	309.51	26.52	-29.5	-29.8	14.7	1.50e-06	0	43	0	879755264	20	3753
2026-01-30 11:35:27.91	309.74	26.41	-29.1	-29.3	15.4	7.00e-07	0	43	0	881852416	19	3706
2026-01-30 11:35:28.91	309.96	26.29	-29.2	-29.7	15.2	0.00e+00	0	44	0	883949568	19	3813
2026-01-30 11:35:29.92	310.18	26.17	-29.7	-30.9	14.4	7.00e-07	0	43	0	884998144	19	4147
2026-01-30 11:35:30.92	310.39	26.06	-30.0	-31.3	13.9	7.00e-07	0	43	0	887095296	20	4159
2026-01-30 11:35:31.93	310.61	25.94	-30.1	-31.6	13.6	4.50e-06	0	43	0	889192448	20	4275
2026-01-30 11:35:32.93	310.82	25.82	-30.0	-31.2	13.8	5.30e-06	0	43	0	891289600	20	4131
2026-01-30 11:35:33.93	311.04	25.71	-29.7	-30.6	14.2	2.20e-06	0	43	0	893386752	20	3959
2026-01-30 11:35:34.93	311.25	25.59	-29.6	-30.3	14.4	1.50e-06	0	43	0	894435328	20	3882
2026-01-30 11:35:35.94	311.46	25.48	-29.6	-30.2	14.4	7.00e-07	0	43	0	896532480	20	3854
2026-01-30 11:35:36.95	311.67	25.36	-29.9	-31.0	13.9	1.50e-06	0	43	0	898629632	20	4092
2026-01-30 11:35:37.95	311.87	25.25	-30.0	-31.2	13.8	4.50e-06	0	43	0	900726784	20	4142
2026-01-30 11:35:38.95	312.08	25.13	-30.1	-31.5	13.6	7.60e-06	0	43	0	902823936	20	4242
2026-01-30 11:35:39.96	312.28	25.02	-30.4	-32.3	13.1	2.13e-05	0	43	0	903872512	20	4497
2026-01-30 11:35:40.96	312.49	24.90	-30.6	-32.4	12.6	5.87e-05	0	43	0	905969664	21	4434
2026-01-30 11:35:41.95	312.68	24.79	-30.8	-32.9	12.4	1.20e-04	0	43	0	908066816	21	4610
2026-01-30 11:35:42.96	312.89	24.67	-30.8	-33.1	12.3	3.12e-04	0	43	0	910163968	21	4657
2026-01-30 11:35:43.96	313.08	24.56	-30.5	-32.1	12.9	7.47e-05	0	43	0	912261120	21	4316
2026-01-30 11:35:44.96	313.28	24.44	-30.1	-31.1	13.5	6.80e-06	0	43	0	913309696	21	4010
2026-01-30 11:35:45.97	313.48	24.33	-29.8	-30.2	14.1	7.00e-07	0	43	0	915406848	21	3775
2026-01-30 11:35:46.96	313.67	24.22	-29.6	-30.2	14.5	7.00e-07	0	43	0	917504000	20	3845
2026-01-30 11:35:47.97	313.86	24.10	-29.9	-30.9	14.0	3.00e-06	0	43	0	919601152	20	4068
2026-01-30 11:35:48.97	314.05	23.99	-29.8	-30.6	14.1	1.50e-06	0	43	0	921698304	20	3978
2026-01-30 11:35:49.97	314.24	23.88	-29.8	-30.8	14.0	3.00e-06	0	43	0	922746880	20	4011
2026-01-30 11:35:50.97	314.43	23.76	-29.8	-30.8	14.1	7.00e-07	0	43	0	924844032	20	4020
2026-01-30 11:35:51.97	314.62	23.65	-29.5	-29.9	14.6	0.00e+00	0	43	0	926941184	20	3790
2026-01-30 11:35:52.98	314.80	23.54	-29.2	-29.7	15.1	0.00e+00	0	43	0	929038336	19	3803
2026-01-30 11:35:53.98	314.99	23.42	-28.8	-28.7	15.6	0.00e+00	0	43	0	930086912	19	3566
2026-01-30 11:35:54.99	315.17	23.31	-28.8	-29.2	15.6	0.00e+00	0	43	0	932184064	18	3777
2026-01-30 11:35:55.99	315.35	23.20	-28.5	-28.5	16.1	0.00e+00	0	43	0	934281216	18	3589
2026-01-30 11:35:56.99	315.53	23.09	-28.4	-28.3	16.2	0.00e+00	0	43	0	936378368	18	3542
2026-01-30 11:35:58.00	315.71	22.97	-28.7	-28.9	15.8	0.00e+00	0	43	0	938475520	18	3705
2026-01-30 11:35:59.00	315.89	22.86	-28.8	-29.3	15.6	0.00e+00	0	43	0	940572672	18	3795
2026-01-30 11:36:00.01	316.07	22.75	-29.2	-30.1	15.1	0.00e+00	0	43	0	941621248	18	4006
2026-01-30 11:36:01.01	316.25	22.64	-29.3	-30.5	14.9	0.00e+00	0	43	0	943718400	18	4127
2026-01-30 11:36:02.02	316.42	22.53	-29.5	-30.6	14.5	0.00e+00	0	43	0	945815552	19	4053
2026-01-30 11:36:03.01	316.59	22.42	-29.7	-31.0	14.2	7.00e-07	0	43	0	947912704	19	4176
2026-01-30 11:36:04.01	316.76	22.31	-29.5	-30.4	14.6	0.00e+00	0	43	0	948961280	19	4012
2026-01-30 11:36:05.02	316.94	22.20	-29.4	-30.2	14.7	0.00e+00	0	43	0	951058432	19	3955
2026-01-30 11:36:06.03	317.11	22.08	-29.3	-29.9	14.9	0.00e+00	0	43	0	953155584	19	3858
2026-01-30 11:36:07.03	317.27	21.98	-29.3	-29.9	14.9	0.00e+00	0	43	0	955252736	19	3862
2026-01-30 11:36:08.03	317.44	21.87	-29.4	-30.2	14.7	0.00e+00	0	43	0	957349888	19	3952
2026-01-30 11:36:09.04	317.61	21.76	-29.3	-29.8	14.9	0.00e+00	0	43	0	958398464	19	3854
2026-01-30 11:36:10.04	317.77	21.65	-29.5	-30.4	14.6	0.00e+00	0	43	0	960495616	19	4009
2026-01-30 11:36:11.04	317.94	21.54	-29.4	-30.2	14.7	7.00e-07	0	43	0	962592768	19	3939
2026-01-30 11:36:12.05	318.10	21.43	-29.2	-29.8	14.9	0.00e+00	0	43	0	964689920	19	3839
2026-01-30 11:36:13.05	318.26	21.32	-29.2	-29.8	14.9	0.00e+00	0	43	0	966787072	19	3830
2026-01-30 11:36:14.05	318.42	21.21	-29.4	-30.2	14.7	7.00e-07	0	43	0	967835648	19	3962
2026-01-30 11:36:15.05	318.58	21.10	-29.4	-30.2	14.7	0.00e+00	0	43	0	969932800	19	3953
2026-01-30 11:36:16.06	318.74	21.00	-29.4	-30.2	14.7	0.00e+00	0	43	0	972029952	19	3944
2026-01-30 11:36:17.06	318.90	20.89	-29.4	-30.1	14.7	7.00e-07	0	43	0	974127104	19	3927
2026-01-30 11:36:18.06	319.05	20.78	-29.3	-29.9	14.9	7.00e-07	0	43	0	976224256	19	3875
2026-01-30 11:36:19.07	319.21	20.67	-29.4	-30.2	14.7	0.00e+00	0	43	0	977272832	19	3940
2026-01-30 11:36:20.07	319.37	20.57	-29.1	-29.6	15.0	0.00e+00	0	43	0	979369984	19	3789
2026-01-30 11:36:21.07	319.52	20.46	-29.0	-29.3	15.2	0.00e+00	0	43	0	981467136	19	3705
2026-01-30 11:36:22.07	319.67	20.36	-29.0	-29.3	15.2	0.00e+00	0	43	0	983564288	19	3725
2026-01-30 11:36:23.07	319.82	20.25	-29.1	-29.5	15.1	0.00e+00	0	43	0	985661440	19	3765
2026-01-30 11:36:24.08	319.97	20.14	-29.2	-29.8	14.9	0.00e+00	0	43	0	986710016	19	3853
2026-01-30 11:36:25.09	320.12	20.04	-29.2	-29.9	14.9	0.00e+00	0	43	0	988807168	19	3863
2026-01-30 11:36:26.09	320.27	19.93	-29.3	-30.1	14.7	0.00e+00	0	43	0	990904320	19	3933
2026-01-30 11:36:27.10	320.42	19.83	-29.6	-30.8	14.2	0.00e+00	0	43	0	993001472	19	4131
2026-01-30 11:36:28.10	320.56	19.72	-29.5	-30.6	14.4	0.00e+00	0	44	0	995098624	19	4056
2026-01-30 11:36:29.11	320.71	19.62	-29.4	-30.1	14.7	0.00e+00	0	43	0	996147200	19	3934
2026-01-30 11:36:30.11	320.85	19.51	-29.4	-30.1	14.7	7.00e-07	0	43	0	998244352	19	3928
2026-01-30 11:36:31.12	321.00	19.41	-29.3	-29.9	14.8	7.00e-07	0	43	0	1000341504	19	3883
2026-01-30 11:36:32.12	321.14	19.31	-29.1	-29.5	15.1	0.00e+00	0	43	0	1002438656	19	3755
2026-01-30 11:36:33.13	321.28	19.20	-29.0	-29.3	15.2	0.00e+00	0	43	0	1003487232	19	3703
2026-01-30 11:36:34.13	321.42	19.10	-29.0	-29.4	15.1	0.00e+00	0	43	0	1005584384	19	3733
2026-01-30 11:36:35.13	321.56	19.00	-29.0	-29.2	15.2	0.00e+00	0	43	0	1007681536	19	3697
2026-01-30 11:36:36.14	321.70	18.89	-29.1	-29.5	15.1	0.00e+00	0	43	0	1009778688	19	3764
2026-01-30 11:36:37.14	321.84	18.79	-29.1	-29.6	15.0	0.00e+00	0	43	0	1011875840	19	3792
2026-01-30 11:36:38.14	321.98	18.69	-29.2	-29.8	14.9	0.00e+00	0	43	0	1013972992	19	3855
2026-01-30 11:36:39.15	322.11	18.59	-29.5	-30.4	14.5	1.50e-06	0	43	0	1015021568	19	4024
2026-01-30 11:36:40.15	322.25	18.49	-29.8	-31.2	14.0	2.20e-06	0	43	0	1017118720	19	4252
2026-01-30 11:36:41.16	322.38	18.38	-29.9	-31.6	13.7	3.00e-06	0	43	0	1019215872	19	4362
2026-01-30 11:36:42.16	322.52	18.28	-30.2	-31.8	13.2	1.29e-05	0	43	0	1021313024	20	4356
2026-01-30 11:36:43.17	322.65	18.18	-30.4	-32.5	12.8	2.05e-05	0	43	0	1022361600	20	4572
2026-01-30 11:36:44.18	322.78	18.08	-30.7	-32.8	12.2	1.05e-04	0	43	0	1024458752	21	4602
2026-01-30 11:36:45.18	322.91	17.98	-30.8	-33.2	11.9	2.57e-04	0	43	0	1026555904	21	4722
2026-01-30 11:36:46.18	323.04	17.88	-30.8	-33.2	12.0	4.10e-04	0	43	0	1028653056	21	4722
2026-01-30 11:36:47.18	323.17	17.78	-31.0	-33.3	11.5	8.77e-04	0	43	0	1030750208	22	4688
2026-01-30 11:36:48.18	323.30	17.68	-30.9	-33.0	11.8	7.78e-04	0	43	0	1031798784	22	4565
2026-01-30 11:36:49.19	323.43	17.58	-30.9	-33.0	11.7	4.84e-04	0	43	0	1033895936	22	4566
2026-01-30 11:36:50.18	323.55	17.49	-30.9	-33.0	11.7	6.88e-04	0	43	0	1035993088	22	4564
2026-01-30 11:36:51.19	323.68	17.39	-30.7	-32.3	12.2	3.84e-04	0	43	0	1038090240	22	4333
2026-01-30 11:36:52.19	323.81	17.29	-30.8	-32.6	11.9	3.07e-04	0	43	0	1040187392	22	4446
2026-01-30 11:36:53.19	323.93	17.19	-30.6	-32.1	12.2	2.71e-04	0	43	0	1041235968	22	4285
2026-01-30 11:36:54.20	324.05	17.09	-30.2	-31.4	13.1	3.73e-05	0	43	0	1043333120	21	4152
2026-01-30 11:36:55.21	324.18	16.99	-30.1	-31.2	13.2	2.67e-05	0	43	0	1045430272	21	4070
2026-01-30 11:36:56.21	324.30	16.90	-30.0	-31.0	13.3	2.28e-05	0	43	0	1047527424	21	4021
2026-01-30 11:36:57.20	324.42	16.80	-30.2	-31.4	13.1	2.74e-05	0	44	0	1049624576	21	4131
2026-01-30 11:36:58.21	324.54	16.70	-30.2	-31.5	13.0	3.50e-05	0	44	0	1050673152	21	4172
2026-01-30 11:36:59.21	324.66	16.61	-30.0	-30.9	13.4	1.75e-05	0	43	0	1052770304	21	3981
2026-01-30 11:37:00.21	324.78	16.51	-30.4	-31.9	12.8	2.28e-05	0	43	0	1054867456	21	4295
2026-01-30 11:37:01.21	324.90	16.42	-30.4	-31.9	12.7	9.84e-05	0	43	0	1056964608	21	4310
2026-01-30 11:37:02.22	325.02	16.32	-30.4	-32.1	12.6	5.87e-05	0	43	0	1059061760	21	4354
2026-01-30 11:37:03.23	325.13	16.22	-30.6	-32.6	12.2	1.51e-04	0	43	0	1060110336	21	4546
2026-01-30 11:37:04.23	325.25	16.13	-30.5	-32.2	12.5	1.81e-04	0	43	0	1062207488	21	4417
2026-01-30 11:37:05.23	325.37	16.04	-30.5	-32.4	12.4	1.11e-04	0	43	0	1064304640	21	4470
2026-01-30 11:37:06.24	325.48	15.94	-30.5	-32.4	12.3	1.90e-04	0	43	0	1066401792	21	4454
2026-01-30 11:37:07.23	325.59	15.85	-30.3	-31.6	12.8	6.10e-05	0	43	0	1068498944	21	4225
2026-01-30 11:37:08.24	325.71	15.75	-30.3	-31.8	12.6	9.15e-05	0	43	0	1069547520	21	4267
2026-01-30 11:37:09.25	325.82	15.66	-30.1	-31.3	13.1	5.11e-05	0	43	0	1071644672	21	4122
2026-01-30 11:37:10.25	325.93	15.56	-30.0	-31.0	13.3	1.60e-05	0	43	0	1073741824	21	4015
2026-01-30 11:37:11.25	326.04	15.47	-30.0	-30.9	13.3	3.20e-05	0	43	0	1075838976	21	4001
2026-01-30 11:37:12.24	326.15	15.38	-29.7	-30.7	13.8	9.90e-06	0	43	0	1076887552	20	4014
2026-01-30 11:37:13.25	326.26	15.29	-30.0	-31.4	13.3	9.10e-06	0	43	0	1078984704	20	4244
2026-01-30 11:37:14.25	326.37	15.19	-30.0	-31.4	13.4	1.44e-05	0	43	0	1081081856	20	4235
2026-01-30 11:37:15.26	326.48	15.10	-29.9	-31.2	13.5	9.10e-06	0	43	0	1083179008	20	4173
2026-01-30 11:37:16.26	326.59	15.01	-30.2	-32.1	12.8	3.96e-05	0	43	0	1085276160	20	4447
2026-01-30 11:37:17.27	326.70	14.92	-30.0	-31.5	13.2	3.12e-05	0	43	0	1086324736	20	4281
2026-01-30 11:37:18.27	326.81	14.83	-30.0	-31.5	13.2	1.14e-05	0	43	0	1088421888	20	4270
2026-01-30 11:37:19.27	326.91	14.74	-30.1	-31.8	13.0	3.50e-05	0	43	0	1090519040	20	4356
2026-01-30 11:37:20.27	327.02	14.65	-30.0	-31.5	13.2	3.43e-05	0	43	0	1092616192	20	4280
2026-01-30 11:37:21.27	327.12	14.56	-30.2	-32.1	12.8	4.57e-05	0	44	0	1094713344	20	4466
2026-01-30 11:37:22.27	327.23	14.46	-30.3	-32.2	12.7	1.17e-04	0	44	0	1095761920	20	4512
2026-01-30 11:37:23.28	327.33	14.37	-29.9	-31.2	13.4	4.11e-05	0	43	0	1097859072	20	4186
2026-01-30 11:37:24.27	327.43	14.29	-29.9	-31.3	13.3	2.21e-05	0	44	0	1099956224	20	4221
2026-01-30 11:37:25.27	327.54	14.20	-29.8	-30.9	13.6	1.52e-05	0	43	0	1102053376	20	4090
2026-01-30 11:37:26.27	327.64	14.11	-29.8	-30.8	13.6	6.10e-06	0	43	0	1104150528	20	4074
2026-01-30 11:37:27.27	327.74	14.02	-29.9	-31.2	13.3	1.60e-05	0	43	0	1105199104	20	4193
2026-01-30 11:37:28.27	327.84	13.93	-29.6	-30.5	13.8	8.30e-06	0	43	0	1107296256	20	3965
2026-01-30 11:37:29.28	327.94	13.84	-29.7	-30.8	13.6	3.80e-06	0	43	0	1109393408	20	4053
2026-01-30 11:37:30.28	328.04	13.75	-29.6	-30.5	13.8	3.00e-06	0	43	0	1111490560	20	3975
2026-01-30 11:37:31.28	328.14	13.66	-29.6	-30.4	13.9	2.20e-06	0	43	0	1112539136	20	3962
2026-01-30 11:37:32.28	328.24	13.58	-29.9	-31.1	13.3	1.75e-05	0	43	0	1114636288	20	4169
2026-01-30 11:37:33.29	328.34	13.49	-29.8	-31.1	13.4	1.83e-05	0	43	0	1116733440	20	4153
2026-01-30 11:37:34.30	328.43	13.40	-30.0	-31.6	13.1	1.75e-05	0	43	0	1118830592	20	4315
2026-01-30 11:37:35.29	328.53	13.31	-30.2	-32.1	12.8	6.94e-05	0	43	0	1120927744	20	4458
2026-01-30 11:37:36.29	328.63	13.23	-30.0	-31.5	13.2	3.66e-05	0	43	0	1123024896	20	4266
2026-01-30 11:37:37.30	328.72	13.14	-30.1	-31.7	13.0	3.43e-05	0	43	0	1124073472	20	4337
2026-01-30 11:37:38.30	328.82	13.05	-30.1	-31.8	13.0	3.66e-05	0	43	0	1126170624	20	4370
2026-01-30 11:37:39.31	328.91	12.97	-30.2	-32.1	12.8	3.50e-05	0	43	0	1128267776	20	4465
2026-01-30 11:37:40.31	329.01	12.88	-30.3	-32.4	12.5	1.32e-04	0	43	0	1130364928	20	4590
2026-01-30 11:37:41.31	329.10	12.80	-30.2	-32.0	12.7	7.09e-05	0	43	0	1131413504	20	4457
2026-01-30 11:37:42.32	329.20	12.71	-30.3	-32.3	12.6	6.40e-05	0	43	0	1133510656	20	4544
2026-01-30 11:37:43.32	329.29	12.63	-30.4	-32.6	12.4	1.47e-04	0	43	0	1135607808	20	4639
2026-01-30 11:37:44.33	329.38	12.54	-30.1	-31.9	12.8	1.27e-04	0	43	0	1137704960	20	4430
2026-01-30 11:37:45.33	329.47	12.46	-30.2	-32.0	12.7	7.93e-05	0	43	0	1139802112	20	4449
2026-01-30 11:37:46.34	329.56	12.37	-30.2	-32.0	12.8	7.40e-05	0	44	0	1140850688	20	4456
2026-01-30 11:37:47.34	329.66	12.29	-30.2	-32.0	12.8	4.88e-05	0	43	0	1142947840	20	4442
2026-01-30 11:37:48.34	329.75	12.20	-30.4	-32.5	12.4	1.44e-04	0	44	0	1145044992	20	4633
2026-01-30 11:37:49.35	329.84	12.12	-30.2	-32.2	12.6	1.10e-04	0	43	0	1147142144	20	4513
2026-01-30 11:37:50.35	329.92	12.03	-30.2	-32.2	12.6	7.40e-05	0	43	0	1149239296	20	4514
2026-01-30 11:37:51.36	330.01	11.95	-30.3	-32.4	12.4	1.27e-04	0	43	0	1150287872	20	4589
2026-01-30 11:37:52.36	330.10	11.87	-30.2	-32.2	12.6	1.22e-04	0	43	0	1152385024	20	4509
2026-01-30 11:37:53.37	330.19	11.78	-30.4	-32.7	12.3	1.80e-04	0	43	0	1154482176	20	4682
2026-01-30 11:37:54.37	330.28	11.70	-30.5	-32.9	12.1	2.67e-04	0	43	0	1156579328	20	4750
2026-01-30 11:37:55.37	330.36	11.62	-30.4	-32.3	12.2	2.04e-04	0	43	0	1158676480	21	4462
2026-01-30 11:37:56.38	330.45	11.54	-30.6	-32.7	11.9	2.72e-04	0	44	0	1159725056	21	4600
2026-01-30 11:37:57.37	330.54	11.46	-30.6	-32.8	11.7	4.39e-04	0	43	0	1161822208	21	4655
2026-01-30 11:37:58.38	330.62	11.37	-30.7	-33.0	11.6	5.45e-04	0	43	0	1163919360	21	4723
2026-01-30 11:37:59.38	330.71	11.29	-30.7	-33.0	11.6	6.72e-04	0	43	0	1166016512	21	4723
2026-01-30 11:38:00.38	330.79	11.21	-30.5	-32.7	11.8	6.51e-04	0	43	0	1168113664	21	4646
2026-01-30 11:38:01.39	330.88	11.13	-30.6	-32.9	11.7	6.82e-04	0	43	0	1169162240	21	4701
2026-01-30 11:38:02.39	330.96	11.05	-30.5	-32.7	11.7	6.88e-04	0	44	0	1171259392	21	4663
2026-01-30 11:38:03.39	331.04	10.97	-30.6	-32.9	11.6	5.67e-04	0	43	0	1173356544	21	4704
2026-01-30 11:38:04.40	331.13	10.89	-30.6	-33.0	11.6	7.00e-04	0	44	0	1175453696	21	4727
2026-01-30 11:38:05.40	331.21	10.81	-30.5	-32.7	11.8	5.24e-04	0	43	0	1177550848	21	4615
2026-01-30 11:38:06.41	331.29	10.73	-30.6	-32.8	11.8	4.00e-04	0	43	0	1178599424	21	4646
2026-01-30 11:38:07.41	331.37	10.65	-30.5	-32.5	11.9	5.00e-04	0	43	0	1180696576	21	4545
2026-01-30 11:38:08.42	331.46	10.57	-30.4	-32.1	12.2	2.46e-04	0	43	0	1182793728	21	4417
2026-01-30 11:38:09.42	331.54	10.49	-30.5	-32.4	12.0	3.20e-04	0	43	0	1184890880	21	4514
2026-01-30 11:38:10.42	331.62	10.41	-30.5	-32.5	11.9	3.78e-04	0	43	0	1185939456	21	4539
2026-01-30 11:38:11.43	331.70	10.33	-30.2	-31.8	12.4	2.06e-04	0	43	0	1188036608	21	4315
2026-01-30 11:38:12.42	331.78	10.25	-30.2	-31.6	12.6	1.18e-04	0	44	0	1190133760	21	4235
2026-01-30 11:38:13.42	331.85	10.17	-30.0	-31.1	12.8	8.92e-05	0	43	0	1192230912	21	4097
2026-01-30 11:38:14.43	331.93	10.09	-30.1	-31.5	12.6	5.87e-05	0	43	0	1194328064	21	4217
2026-01-30 11:38:15.43	332.01	10.02	-30.1	-31.4	12.6	1.15e-04	0	43	0	1195376640	21	4199
2026-01-30 11:38:16.44	332.09	9.94	-29.9	-30.8	13.0	6.02e-05	0	43	0	1197473792	21	4006
2026-01-30 11:38:17.43	332.17	9.86	-30.0	-31.0	12.9	6.10e-05	0	43	0	1199570944	21	4072
2026-01-30 11:38:18.44	332.25	9.78	-30.0	-31.1	12.8	4.88e-05	0	44	0	1201668096	21	4107
2026-01-30 11:38:19.44	332.32	9.70	-30.1	-31.4	12.6	5.26e-05	0	43	0	1203765248	21	4173
2026-01-30 11:38:20.45	332.40	9.63	-30.1	-31.5	12.5	1.22e-04	0	43	0	1204813824	21	4231
2026-01-30 11:38:21.45	332.47	9.55	-29.9	-30.8	13.0	6.17e-05	0	44	0	1206910976	21	4002
2026-01-30 11:38:22.46	332.55	9.47	-30.0	-31.1	12.8	5.34e-05	0	43	0	1209008128	21	4083
2026-01-30 11:38:23.47	332.63	9.40	-29.9	-31.0	12.9	4.88e-05	0	43	0	1211105280	21	4050
2026-01-30 11:38:24.47	332.70	9.32	-29.9	-31.0	12.8	6.86e-05	0	43	0	1213202432	21	4072
2026-01-30 11:38:25.47	332.78	9.24	-30.0	-31.1	12.8	9.07e-05	0	43	0	1214251008	21	4094
2026-01-30 11:38:26.47	332.85	9.17	-30.1	-31.4	12.6	9.15e-05	0	43	0	1216348160	21	4189
2026-01-30 11:38:27.48	332.92	9.09	-30.1	-31.5	12.5	6.56e-05	0	44	0	1218445312	21	4227
2026-01-30 11:38:28.48	333.00	9.02	-30.1	-31.6	12.4	1.27e-04	0	43	0	1220542464	21	4266
2026-01-30 11:38:29.48	333.07	8.94	-30.2	-31.7	12.4	1.07e-04	0	43	0	1222639616	21	4272
2026-01-30 11:38:30.49	333.14	8.86	-30.3	-32.0	12.2	1.41e-04	0	44	0	1223688192	21	4377
2026-01-30 11:38:31.49	333.22	8.79	-30.3	-32.0	12.1	2.96e-04	0	43	0	1225785344	21	4393
2026-01-30 11:38:32.50	333.29	8.71	-30.2	-31.8	12.2	1.65e-04	0	43	0	1227882496	21	4337
2026-01-30 11:38:33.49	333.36	8.64	-30.3	-32.0	12.1	2.37e-04	0	43	0	1229979648	21	4399
2026-01-30 11:38:34.50	333.43	8.57	-30.3	-32.0	12.1	2.68e-04	0	43	0	1232076800	21	4373
2026-01-30 11:38:35.51	333.50	8.49	-30.3	-32.0	12.1	2.37e-04	0	44	0	1233125376	21	4382
2026-01-30 11:38:36.51	333.57	8.42	-30.4	-32.3	11.9	3.28e-04	0	43	0	1235222528	21	4491
2026-01-30 11:38:37.52	333.64	8.34	-30.4	-32.4	11.8	4.21e-04	0	43	0	1237319680	21	4523
2026-01-30 11:38:38.52	333.71	8.27	-30.4	-32.3	11.9	3.94e-04	0	43	0	1239416832	21	4507
2026-01-30 11:38:39.52	333.78	8.20	-30.4	-32.5	11.7	4.77e-04	0	43	0	1241513984	21	4566
2026-01-30 11:38:40.52	333.85	8.12	-30.5	-32.8	11.5	8.32e-04	0	43	0	1242562560	21	4665
2026-01-30 11:38:41.52	333.92	8.05	-30.4	-32.5	11.7	6.49e-04	0	43	0	1244659712	21	4564
2026-01-30 11:38:42.53	333.99	7.98	-30.3	-32.0	12.0	3.45e-04	0	44	0	1246756864	21	4395
2026-01-30 11:38:43.53	334.06	7.90	-30.3	-32.2	11.9	4.10e-04	0	43	0	1248854016	21	4468
2026-01-30 11:38:44.53	334.13	7.83	-30.3	-32.1	11.9	3.42e-04	0	43	0	1250951168	21	4426
2026-01-30 11:38:45.54	334.20	7.76	-30.4	-32.4	11.7	3.87e-04	0	43	0	1251999744	21	4548
2026-01-30 11:38:46.54	334.26	7.69	-30.4	-32.5	11.7	8.19e-04	0	44	0	1254096896	21	4560
2026-01-30 11:38:47.55	334.33	7.61	-30.5	-32.8	11.4	7.45e-04	0	43	0	1256194048	21	4672
2026-01-30 11:38:48.55	334.40	7.54	-30.5	-32.9	11.3	1.25e-03	0	44	0	1258291200	21	4737
2026-01-30 11:38:49.56	334.46	7.47	-30.4	-32.6	11.6	7.72e-04	0	43	0	1259339776	21	4595
2026-01-30 11:38:50.56	334.53	7.40	-30.5	-32.6	11.6	7.17e-04	0	43	0	1261436928	21	4616
2026-01-30 11:38:51.57	334.60	7.33	-30.5	-32.9	11.3	7.80e-04	0	43	0	1263534080	21	4726
2026-01-30 11:38:52.57	334.66	7.25	-30.6	-33.1	11.2	1.32e-03	0	43	0	1265631232	21	4785
2026-01-30 11:38:53.57	334.73	7.18	-30.7	-33.3	11.1	1.79e-03	0	43	0	1267728384	21	4876
2026-01-30 11:38:54.57	334.79	7.11	-30.8	-33.8	10.6	2.07e-03	0	44	0	1268776960	21	5094
2026-01-30 11:38:55.58	334.86	7.04	-33.2	-45.2	3.7	3.37e-03	0	44	104	1270874112	26	14401
2026-01-30 11:38:56.59	334.92	6.97	-33.5	-45.8	3.8	1.49e+00	0	43	104	1270874112	27	14713
2026-01-30 11:38:57.60	334.99	6.90	-33.8	-46.3	3.8	1.49e+00	0	43	104	1270874112	27	15171

#Closed at: 2026-01-30 11:38:58
#Recorded file [1270 MB]: D:/data/31010_260130_142737.dat