passes_logs/2026/01/30/R2M6_AANII_01/R2M6_AANII_01__20260130_003213_AQUA_rec.log

#Pass ID: 20260130_003213_AQUA
#Satellite: AQUA
#Configuration: AQUA
#almurnet v.1.7.20240730
#Start time: 2026-01-30 00:32:13

#Version: 2.2.20231116
#Station: R2M6_AANII_01
#Location: 30.233357 lon 59.946436 lat
#TLE: 1 27424U 02022A   26028.91948147  .00001781  00000+0  36607-3 0  9997
#TLE: 2 27424  98.4103 355.5827 0001815  62.4290   1.4641 14.61871847262923

#Time	Az	El	Level	Level2	SNR	BER	BlckErr	Temp	State	Recorded	gain1	gain2
2026-01-30 00:32:13.56	32.48	7.01	-31.3	-37.3	5.2	7.09e-01	0	41	0	0	23	7162
2026-01-30 00:32:14.56	32.59	7.07	-32.4	-41.1	4.9	7.13e-01	0	41	104	0	25	9774
2026-01-30 00:32:15.57	32.70	7.14	-32.3	-39.7	12.0	6.07e-01	0	41	0	0	25	8467
2026-01-30 00:32:16.57	32.81	7.21	-32.3	-39.8	12.1	6.09e-01	0	41	0	1572864	25	8487
2026-01-30 00:32:17.57	32.93	7.27	-32.3	-39.6	12.2	6.10e-01	0	41	0	3670016	25	8303
2026-01-30 00:32:18.57	33.04	7.34	-32.2	-38.8	12.8	6.04e-01	0	41	0	5242880	25	7713
2026-01-30 00:32:19.57	33.15	7.40	-32.0	-38.5	13.5	6.02e-01	0	41	0	7340032	24	7600
2026-01-30 00:32:20.58	33.26	7.47	-31.8	-37.7	14.2	6.02e-01	0	41	0	9437184	24	7112
2026-01-30 00:32:21.58	33.38	7.53	-31.5	-37.3	14.9	6.00e-01	0	41	0	11010048	23	6951
2026-01-30 00:32:22.59	33.49	7.60	-31.3	-36.5	15.5	6.00e-01	0	41	0	13107200	23	6522
2026-01-30 00:32:23.59	33.61	7.67	-31.2	-35.9	15.9	6.02e-01	0	41	0	14680064	23	6233
2026-01-30 00:32:24.59	33.73	7.73	-31.0	-35.3	16.3	6.02e-01	0	41	0	16777216	23	5924
2026-01-30 00:32:25.59	33.84	7.80	-30.9	-35.5	16.6	6.00e-01	0	41	0	18350080	22	6090
2026-01-30 00:32:26.60	33.96	7.87	-30.9	-35.4	16.6	6.03e-01	0	41	0	20447232	22	6061
2026-01-30 00:32:27.60	34.08	7.93	-30.8	-35.1	16.9	6.02e-01	0	41	0	22544384	22	5892
2026-01-30 00:32:28.60	34.19	8.00	-30.7	-34.6	17.2	6.01e-01	0	41	0	24117248	22	5693
2026-01-30 00:32:29.59	34.31	8.06	-30.5	-34.7	17.5	6.02e-01	0	41	0	26214400	21	5815
2026-01-30 00:32:30.60	34.43	8.13	-30.5	-34.8	17.4	6.00e-01	0	41	0	27787264	21	5860
2026-01-30 00:32:31.60	34.55	8.20	-30.5	-34.8	17.4	6.01e-01	0	42	0	29884416	21	5875
2026-01-30 00:32:32.60	34.67	8.27	-30.5	-34.6	17.6	6.02e-01	0	41	0	31457280	21	5798
2026-01-30 00:32:33.60	34.79	8.33	-30.6	-35.0	17.3	6.01e-01	0	42	0	33554432	21	5962
2026-01-30 00:32:34.60	34.91	8.40	-30.5	-34.3	17.4	6.03e-01	0	42	0	35651584	22	5577
2026-01-30 00:32:35.61	35.04	8.47	-30.5	-34.7	17.4	6.01e-01	0	42	0	37224448	21	5858
2026-01-30 00:32:36.61	35.16	8.53	-30.5	-34.6	17.5	6.01e-01	0	42	0	39321600	21	5787
2026-01-30 00:32:37.61	35.28	8.60	-30.5	-34.5	17.6	6.02e-01	0	42	0	41418752	21	5749
2026-01-30 00:32:38.62	35.41	8.67	-30.4	-34.5	17.7	6.02e-01	0	42	0	42991616	21	5721
2026-01-30 00:32:39.62	35.53	8.74	-30.4	-34.5	17.7	6.01e-01	0	42	0	45088768	21	5727
2026-01-30 00:32:40.63	35.66	8.81	-30.5	-34.5	17.6	6.00e-01	0	42	0	46661632	21	5752
2026-01-30 00:32:41.63	35.78	8.87	-30.4	-34.2	17.9	6.03e-01	0	42	0	48758784	21	5607
2026-01-30 00:32:42.63	35.91	8.94	-30.3	-34.1	18.0	6.02e-01	0	42	0	50331648	21	5543
2026-01-30 00:32:43.63	36.03	9.01	-30.3	-34.0	18.0	6.03e-01	0	42	0	52428800	21	5497
2026-01-30 00:32:44.64	36.16	9.08	-30.4	-34.3	17.8	6.03e-01	0	42	0	54525952	21	5633
2026-01-30 00:32:45.65	36.29	9.15	-30.3	-34.1	17.9	6.00e-01	0	42	0	56098816	21	5553
2026-01-30 00:32:46.65	36.42	9.22	-30.2	-33.8	18.0	5.99e-01	0	42	0	58195968	21	5465
2026-01-30 00:32:47.65	36.55	9.28	-30.2	-34.0	18.0	6.02e-01	0	42	0	59768832	21	5571
2026-01-30 00:32:48.65	36.68	9.35	-30.0	-33.6	18.1	5.99e-01	0	42	0	61865984	21	5456
2026-01-30 00:32:49.66	36.81	9.42	-30.0	-33.6	18.2	6.00e-01	0	42	0	63438848	21	5443
2026-01-30 00:32:50.67	36.94	9.49	-30.1	-33.9	18.0	6.03e-01	0	42	0	65536000	21	5525
2026-01-30 00:32:51.67	37.08	9.56	-30.2	-33.8	18.1	6.01e-01	0	42	0	67633152	21	5488
2026-01-30 00:32:52.68	37.21	9.63	-30.1	-33.6	18.3	6.03e-01	0	42	0	69206016	21	5368
2026-01-30 00:32:53.68	37.34	9.70	-30.1	-33.6	18.3	6.02e-01	0	42	0	71303168	21	5387
2026-01-30 00:32:54.69	37.48	9.77	-30.0	-33.5	18.3	6.00e-01	0	42	0	73400320	21	5377
2026-01-30 00:32:55.69	37.61	9.84	-29.9	-33.5	18.2	6.01e-01	0	42	0	74973184	21	5395
2026-01-30 00:32:56.69	37.75	9.91	-30.0	-33.6	18.1	6.01e-01	0	42	0	77070336	21	5474
2026-01-30 00:32:57.70	37.88	9.98	-30.0	-33.5	18.2	6.03e-01	0	42	0	78643200	21	5396
2026-01-30 00:32:58.70	38.02	10.04	-30.1	-33.6	18.3	6.02e-01	0	42	0	80740352	21	5388
2026-01-30 00:32:59.70	38.16	10.11	-30.3	-34.1	18.0	6.01e-01	0	42	0	82313216	21	5570
2026-01-30 00:33:00.70	38.30	10.18	-30.3	-34.1	18.0	6.01e-01	0	42	0	84410368	21	5550
2026-01-30 00:33:01.71	38.44	10.25	-30.2	-33.6	18.3	6.04e-01	0	42	0	86507520	21	5364
2026-01-30 00:33:02.71	38.57	10.32	-30.1	-33.5	18.5	6.00e-01	0	42	0	88080384	21	5285
2026-01-30 00:33:03.72	38.72	10.39	-30.1	-33.4	18.5	6.01e-01	0	42	0	90177536	21	5260
2026-01-30 00:33:04.72	38.86	10.46	-30.1	-33.5	18.5	6.01e-01	0	42	0	91750400	21	5290
2026-01-30 00:33:05.72	39.00	10.53	-30.2	-33.7	18.3	6.02e-01	0	42	0	93847552	21	5382
2026-01-30 00:33:06.73	39.14	10.60	-30.2	-33.6	18.4	6.01e-01	0	42	0	95944704	21	5329
2026-01-30 00:33:07.73	39.28	10.67	-30.1	-33.4	18.5	6.01e-01	0	42	0	97517568	21	5236
2026-01-30 00:33:08.73	39.43	10.74	-30.1	-33.3	18.6	6.03e-01	0	42	0	99614720	21	5227
2026-01-30 00:33:09.74	39.57	10.82	-30.1	-33.3	18.6	6.01e-01	0	42	0	101187584	21	5224
2026-01-30 00:33:10.74	39.72	10.89	-30.2	-33.5	18.5	5.99e-01	0	42	0	103284736	21	5282
2026-01-30 00:33:11.75	39.86	10.96	-30.1	-33.3	18.6	6.01e-01	0	42	0	104857600	21	5201
2026-01-30 00:33:12.75	40.01	11.03	-30.0	-33.0	18.8	6.02e-01	0	42	0	106954752	21	5109
2026-01-30 00:33:13.76	40.16	11.10	-30.0	-33.5	18.8	6.03e-01	0	42	0	109051904	20	5401
2026-01-30 00:33:14.77	40.31	11.17	-30.0	-33.5	18.9	6.00e-01	0	42	0	110624768	20	5386
2026-01-30 00:33:15.77	40.46	11.24	-30.0	-33.4	18.9	6.03e-01	0	42	0	112721920	20	5368
2026-01-30 00:33:16.77	40.61	11.31	-30.0	-33.6	18.8	6.01e-01	0	42	0	114819072	20	5434
2026-01-30 00:33:17.77	40.76	11.38	-30.0	-33.5	18.9	6.02e-01	0	42	0	116391936	20	5399
2026-01-30 00:33:18.78	40.91	11.45	-29.9	-33.4	19.0	6.01e-01	0	42	0	118489088	20	5336
2026-01-30 00:33:19.78	41.06	11.52	-29.9	-33.3	19.0	6.01e-01	0	42	0	120061952	20	5328
2026-01-30 00:33:20.78	41.21	11.59	-29.9	-33.2	19.0	6.02e-01	0	43	0	122159104	20	5289
2026-01-30 00:33:21.78	41.37	11.67	-29.9	-33.3	19.1	6.01e-01	0	43	0	123731968	20	5303
2026-01-30 00:33:22.78	41.52	11.74	-30.0	-33.4	19.0	6.02e-01	0	43	0	125829120	20	5348
2026-01-30 00:33:23.78	41.67	11.81	-29.9	-33.3	19.0	6.02e-01	0	42	0	127926272	20	5329
2026-01-30 00:33:24.78	41.83	11.88	-30.0	-33.6	18.9	6.03e-01	0	43	0	129499136	20	5404
2026-01-30 00:33:25.79	41.99	11.95	-30.1	-33.4	18.7	6.02e-01	0	43	0	131596288	21	5214
2026-01-30 00:33:26.79	42.14	12.02	-30.5	-34.2	18.5	6.02e-01	0	43	0	133169152	21	5488
2026-01-30 00:33:27.79	42.30	12.09	-30.2	-33.5	18.7	6.00e-01	0	43	0	135266304	21	5249
2026-01-30 00:33:28.79	42.46	12.16	-30.0	-33.0	19.1	6.01e-01	0	43	0	136839168	21	5055
2026-01-30 00:33:29.80	42.62	12.24	-30.0	-32.8	19.2	6.02e-01	0	42	0	138936320	21	4991
2026-01-30 00:33:30.80	42.78	12.31	-30.0	-33.0	19.1	6.04e-01	0	43	0	141033472	21	5059
2026-01-30 00:33:31.81	42.94	12.38	-30.0	-32.9	19.1	6.01e-01	0	43	0	142606336	21	5039
2026-01-30 00:33:32.81	43.11	12.45	-30.1	-33.1	19.0	6.02e-01	0	43	0	144703488	21	5118
2026-01-30 00:33:33.81	43.27	12.52	-30.2	-33.4	18.8	6.00e-01	0	43	0	146800640	21	5212
2026-01-30 00:33:34.82	43.43	12.60	-30.0	-32.9	19.1	6.01e-01	0	42	0	148373504	21	5040
2026-01-30 00:33:35.82	43.60	12.67	-29.9	-32.7	19.3	6.00e-01	0	43	0	150470656	21	4953
2026-01-30 00:33:36.82	43.76	12.74	-29.9	-33.1	19.4	6.02e-01	0	43	0	152043520	20	5194
2026-01-30 00:33:37.83	43.93	12.81	-29.9	-33.1	19.4	6.02e-01	0	43	0	154140672	20	5199
2026-01-30 00:33:38.83	44.10	12.88	-29.9	-33.2	19.3	5.99e-01	0	43	0	155713536	20	5259
2026-01-30 00:33:39.84	44.27	12.96	-29.9	-33.1	19.4	6.02e-01	0	43	0	157810688	20	5193
2026-01-30 00:33:40.83	44.43	13.03	-29.8	-33.0	19.4	6.01e-01	0	43	0	159907840	20	5168
2026-01-30 00:33:41.83	44.60	13.10	-29.9	-33.1	19.4	6.03e-01	0	43	0	161480704	20	5199
2026-01-30 00:33:42.83	44.77	13.17	-29.9	-33.2	19.3	6.01e-01	0	43	0	163577856	20	5260
2026-01-30 00:33:43.84	44.95	13.24	-29.9	-33.2	19.4	6.02e-01	0	43	0	165150720	20	5248
2026-01-30 00:33:44.84	45.12	13.32	-29.9	-33.2	19.2	6.00e-01	0	43	0	167247872	20	5280
2026-01-30 00:33:45.84	45.29	13.39	-30.1	-33.7	19.0	6.01e-01	0	43	0	168820736	20	5434
2026-01-30 00:33:46.85	45.47	13.46	-30.0	-32.8	19.2	6.02e-01	0	43	0	170917888	21	4991
2026-01-30 00:33:47.86	45.64	13.53	-29.9	-32.5	19.4	6.03e-01	0	43	0	173015040	21	4874
2026-01-30 00:33:48.86	45.82	13.60	-29.9	-32.5	19.3	6.04e-01	0	43	0	174587904	21	4861
2026-01-30 00:33:49.87	46.00	13.68	-29.9	-32.5	19.5	5.99e-01	0	43	0	176685056	21	4872
2026-01-30 00:33:50.87	46.18	13.75	-29.9	-32.5	19.4	6.02e-01	0	43	0	178782208	21	4877
2026-01-30 00:33:51.86	46.35	13.82	-29.9	-32.6	19.4	6.01e-01	0	43	0	180355072	21	4895
2026-01-30 00:33:52.87	46.53	13.89	-29.9	-32.5	19.5	5.99e-01	0	43	0	182452224	21	4851
2026-01-30 00:33:53.87	46.71	13.96	-29.8	-32.8	19.5	6.03e-01	0	43	0	184025088	20	5100
2026-01-30 00:33:54.88	46.90	14.04	-29.8	-32.9	19.6	6.01e-01	0	43	0	186122240	20	5117
2026-01-30 00:33:55.88	47.08	14.11	-29.8	-32.9	19.6	6.01e-01	0	43	0	187695104	20	5107
2026-01-30 00:33:56.88	47.26	14.18	-29.9	-33.1	19.5	6.00e-01	0	43	0	189792256	20	5192
2026-01-30 00:33:57.88	47.45	14.25	-29.9	-33.0	19.5	6.02e-01	0	43	0	191889408	20	5162
2026-01-30 00:33:58.88	47.63	14.33	-29.9	-33.0	19.5	6.01e-01	0	43	0	193462272	20	5173
2026-01-30 00:33:59.89	47.82	14.40	-29.8	-32.7	19.7	6.02e-01	0	43	0	195559424	20	5038
2026-01-30 00:34:00.89	48.00	14.47	-29.7	-32.4	19.8	5.99e-01	0	43	0	197132288	20	4960
2026-01-30 00:34:01.89	48.19	14.54	-29.7	-32.5	19.8	6.02e-01	0	43	0	199229440	20	4993
2026-01-30 00:34:02.89	48.38	14.61	-29.8	-32.8	19.7	6.02e-01	0	43	0	200802304	20	5091
2026-01-30 00:34:03.89	48.57	14.68	-29.8	-32.8	19.7	5.99e-01	0	43	0	202899456	20	5068
2026-01-30 00:34:04.90	48.76	14.76	-29.8	-32.9	19.6	6.01e-01	0	43	0	204996608	20	5100
2026-01-30 00:34:05.91	48.96	14.83	-29.8	-32.7	19.7	6.03e-01	0	43	0	206569472	20	5025
2026-01-30 00:34:06.91	49.15	14.90	-29.7	-32.6	19.8	6.03e-01	0	43	0	208666624	20	4993
2026-01-30 00:34:07.91	49.34	14.97	-29.8	-32.8	19.6	6.05e-01	0	43	0	210239488	20	5075
2026-01-30 00:34:08.91	49.54	15.04	-29.8	-32.7	19.8	6.00e-01	0	43	0	212336640	20	5024
2026-01-30 00:34:09.92	49.73	15.12	-29.7	-32.5	19.9	6.02e-01	0	43	0	214433792	20	4977
2026-01-30 00:34:10.91	49.93	15.19	-29.8	-32.7	19.7	6.02e-01	0	43	0	216006656	20	5058
2026-01-30 00:34:11.92	50.13	15.26	-29.9	-33.0	19.6	6.01e-01	0	43	0	218103808	20	5139
2026-01-30 00:34:12.92	50.32	15.33	-29.8	-32.7	19.7	6.00e-01	0	43	0	219676672	20	5041
2026-01-30 00:34:13.92	50.52	15.40	-29.7	-32.6	19.8	6.03e-01	0	43	0	221773824	20	5021
2026-01-30 00:34:14.93	50.73	15.47	-29.8	-32.7	19.8	6.03e-01	0	43	0	223870976	20	5055
2026-01-30 00:34:15.92	50.93	15.54	-29.8	-32.8	19.7	6.01e-01	0	43	0	225443840	20	5061
2026-01-30 00:34:16.93	51.13	15.61	-29.8	-32.8	19.7	6.03e-01	0	43	0	227540992	20	5056
2026-01-30 00:34:17.93	51.33	15.68	-29.9	-33.0	19.5	6.01e-01	0	43	0	229113856	20	5157
2026-01-30 00:34:18.93	51.54	15.76	-29.7	-32.6	19.8	6.00e-01	0	43	0	231211008	20	4994
2026-01-30 00:34:19.93	51.74	15.83	-29.7	-32.4	19.9	6.01e-01	0	43	0	232783872	20	4926
2026-01-30 00:34:20.93	51.95	15.90	-29.7	-32.5	19.8	6.02e-01	0	43	0	234881024	20	4973
2026-01-30 00:34:21.94	52.16	15.97	-29.7	-32.5	19.8	6.01e-01	0	43	0	236978176	20	4976
2026-01-30 00:34:22.95	52.37	16.04	-29.8	-32.7	19.7	6.01e-01	0	43	0	238551040	20	5037
2026-01-30 00:34:23.95	52.58	16.11	-29.7	-32.5	19.9	6.02e-01	0	43	0	240648192	20	4958
2026-01-30 00:34:24.96	52.79	16.18	-29.8	-32.6	19.8	6.01e-01	0	43	0	242221056	20	5018
2026-01-30 00:34:25.96	53.00	16.25	-29.9	-33.0	19.6	6.03e-01	0	43	0	244318208	20	5131
2026-01-30 00:34:26.97	53.22	16.32	-29.7	-32.5	19.9	6.00e-01	0	43	0	246415360	20	4966
2026-01-30 00:34:27.97	53.43	16.39	-29.6	-32.3	20.1	6.02e-01	0	43	0	247988224	20	4899
2026-01-30 00:34:28.97	53.64	16.46	-29.6	-32.3	20.0	6.02e-01	0	43	0	250085376	20	4911
2026-01-30 00:34:29.98	53.86	16.53	-29.6	-32.3	20.0	6.03e-01	0	43	0	251658240	20	4888
2026-01-30 00:34:30.97	54.08	16.60	-29.6	-32.3	20.0	6.03e-01	0	43	0	253755392	20	4900
2026-01-30 00:34:31.98	54.30	16.67	-29.7	-32.4	20.0	6.03e-01	0	43	0	255328256	20	4915
2026-01-30 00:34:32.98	54.51	16.74	-29.7	-32.5	19.9	6.03e-01	0	43	0	257425408	20	4945
2026-01-30 00:34:33.99	54.74	16.80	-29.6	-32.2	20.0	6.01e-01	0	43	0	259522560	20	4875
2026-01-30 00:34:34.99	54.96	16.87	-29.7	-32.4	19.9	6.01e-01	0	43	0	261095424	20	4923
2026-01-30 00:34:36.00	55.18	16.94	-29.9	-33.0	19.6	6.02e-01	0	43	0	263192576	20	5133
2026-01-30 00:34:37.00	55.40	17.01	-30.0	-33.2	19.5	6.01e-01	0	43	0	264765440	20	5203
2026-01-30 00:34:38.01	55.63	17.08	-30.0	-33.2	19.6	6.02e-01	0	43	0	266862592	20	5196
2026-01-30 00:34:39.01	55.86	17.15	-29.9	-33.1	19.6	6.03e-01	0	43	0	268959744	20	5172
2026-01-30 00:34:40.01	56.08	17.21	-30.1	-33.0	19.3	6.01e-01	0	43	0	270532608	21	5031
2026-01-30 00:34:41.02	56.31	17.28	-30.0	-32.8	19.5	6.01e-01	0	43	0	272629760	21	4947
2026-01-30 00:34:42.02	56.54	17.35	-30.0	-32.8	19.4	6.02e-01	0	43	0	274202624	21	4948
2026-01-30 00:34:43.02	56.77	17.42	-30.0	-33.3	19.4	6.01e-01	0	43	0	276299776	20	5258
2026-01-30 00:34:44.02	57.00	17.48	-29.8	-32.7	19.8	5.98e-01	0	43	0	278396928	20	5020
2026-01-30 00:34:45.02	57.23	17.55	-29.7	-32.4	20.0	6.00e-01	0	43	0	279969792	20	4919
2026-01-30 00:34:46.03	57.46	17.62	-29.8	-32.6	19.9	6.01e-01	0	43	0	282066944	20	4987
2026-01-30 00:34:47.03	57.70	17.68	-29.8	-32.7	19.8	6.01e-01	0	43	0	283639808	20	5031
2026-01-30 00:34:48.03	57.93	17.75	-29.8	-32.6	19.9	6.03e-01	0	43	0	285736960	20	5004
2026-01-30 00:34:49.03	58.17	17.81	-29.9	-32.8	19.8	6.03e-01	0	43	0	287309824	20	5075
2026-01-30 00:34:50.03	58.40	17.88	-29.7	-32.4	20.0	6.00e-01	0	43	0	289406976	20	4926
2026-01-30 00:34:51.04	58.64	17.94	-29.9	-32.9	19.8	6.02e-01	0	43	0	291504128	20	5093
2026-01-30 00:34:52.04	58.88	18.01	-29.8	-32.7	19.9	5.99e-01	0	43	0	293076992	20	5023
2026-01-30 00:34:53.05	59.13	18.07	-29.9	-32.8	19.8	6.01e-01	0	43	0	295174144	20	5075
2026-01-30 00:34:54.05	59.37	18.14	-30.1	-33.3	19.5	6.01e-01	0	43	0	296747008	20	5260
2026-01-30 00:34:55.05	59.61	18.20	-29.9	-32.8	19.8	6.02e-01	0	43	0	298844160	20	5070
2026-01-30 00:34:56.06	59.85	18.27	-29.8	-32.7	19.9	6.02e-01	0	43	0	300941312	20	5007
2026-01-30 00:34:57.06	60.10	18.33	-29.8	-32.6	19.9	5.99e-01	0	43	0	302514176	20	4981
2026-01-30 00:34:58.07	60.35	18.39	-29.7	-32.5	19.9	6.03e-01	0	43	0	304611328	20	4963
2026-01-30 00:34:59.07	60.59	18.46	-29.8	-32.6	19.9	6.01e-01	0	43	0	306184192	20	4986
2026-01-30 00:35:00.07	60.84	18.52	-29.8	-32.8	19.8	5.98e-01	0	43	0	308281344	20	5071
2026-01-30 00:35:01.07	61.09	18.58	-29.7	-32.6	20.0	6.02e-01	0	43	0	310378496	20	4979
2026-01-30 00:35:02.07	61.34	18.64	-29.7	-32.5	20.0	6.02e-01	0	43	0	311951360	20	4951
2026-01-30 00:35:03.07	61.59	18.70	-29.8	-32.7	19.9	6.00e-01	0	43	0	314048512	20	5009
2026-01-30 00:35:04.07	61.84	18.76	-29.7	-32.6	20.0	6.00e-01	0	43	0	315621376	20	4978
2026-01-30 00:35:05.07	62.09	18.83	-29.8	-32.8	19.8	6.02e-01	0	43	0	317718528	20	5055
2026-01-30 00:35:06.08	62.35	18.89	-29.7	-32.5	20.0	5.99e-01	0	43	0	319291392	20	4965
2026-01-30 00:35:07.08	62.60	18.95	-29.7	-32.4	20.1	6.02e-01	0	43	0	321388544	20	4905
2026-01-30 00:35:08.08	62.86	19.01	-29.7	-32.4	20.1	6.00e-01	0	43	0	323485696	20	4916
2026-01-30 00:35:09.09	63.12	19.07	-29.7	-32.3	20.1	6.02e-01	0	43	0	325058560	20	4898
2026-01-30 00:35:10.10	63.38	19.13	-29.8	-32.6	19.9	6.01e-01	0	43	0	327155712	20	4987
2026-01-30 00:35:11.10	63.64	19.18	-29.9	-32.9	19.8	6.03e-01	0	43	0	328728576	20	5081
2026-01-30 00:35:12.11	63.90	19.24	-29.7	-32.4	20.0	6.03e-01	0	43	0	330825728	20	4928
2026-01-30 00:35:13.11	64.16	19.30	-29.8	-32.6	20.0	5.99e-01	0	43	0	332922880	20	4990
2026-01-30 00:35:14.11	64.42	19.36	-30.0	-33.1	19.7	6.00e-01	0	43	0	334495744	20	5169
2026-01-30 00:35:15.12	64.69	19.41	-29.8	-32.7	19.9	5.99e-01	0	43	0	336592896	20	5021
2026-01-30 00:35:16.12	64.95	19.47	-29.8	-32.6	20.0	6.01e-01	0	43	0	338165760	20	4982
2026-01-30 00:35:17.13	65.22	19.53	-29.9	-32.9	19.9	6.03e-01	0	43	0	340262912	20	5079
2026-01-30 00:35:18.13	65.49	19.58	-29.8	-32.7	19.9	5.99e-01	0	43	0	342360064	20	5018
2026-01-30 00:35:19.13	65.75	19.64	-29.8	-32.6	19.9	6.00e-01	0	43	0	343932928	20	5003
2026-01-30 00:35:20.13	66.02	19.69	-29.8	-32.7	20.0	6.00e-01	0	43	0	346030080	20	5002
2026-01-30 00:35:21.13	66.29	19.75	-29.8	-32.7	19.9	6.00e-01	0	43	0	347602944	20	5012
2026-01-30 00:35:22.13	66.56	19.80	-29.9	-32.9	19.8	6.01e-01	0	43	0	349700096	20	5076
2026-01-30 00:35:23.14	66.83	19.85	-29.8	-32.6	20.0	6.00e-01	0	43	0	351272960	20	4981
2026-01-30 00:35:24.14	67.10	19.91	-29.8	-32.7	19.9	6.01e-01	0	43	0	353370112	20	5024
2026-01-30 00:35:25.14	67.38	19.96	-29.8	-32.8	19.9	6.01e-01	0	43	0	355467264	20	5068
2026-01-30 00:35:26.14	67.65	20.01	-29.8	-32.8	19.9	6.02e-01	0	43	0	357040128	20	5047
2026-01-30 00:35:27.15	67.93	20.06	-29.9	-32.8	19.8	6.01e-01	0	43	0	359137280	20	5071
2026-01-30 00:35:28.15	68.20	20.11	-30.1	-33.4	19.4	6.04e-01	0	43	0	360710144	20	5281
2026-01-30 00:35:29.16	68.48	20.16	-30.0	-33.3	19.5	6.01e-01	0	43	0	362807296	20	5235
2026-01-30 00:35:30.16	68.76	20.21	-30.2	-33.2	19.3	6.03e-01	0	43	0	364380160	21	5099
2026-01-30 00:35:31.16	69.04	20.26	-30.4	-33.8	18.9	6.03e-01	0	43	0	366477312	21	5303
2026-01-30 00:35:32.17	69.32	20.31	-30.2	-33.3	19.2	6.02e-01	0	43	0	368574464	21	5137
2026-01-30 00:35:33.17	69.60	20.36	-30.2	-33.3	19.2	6.02e-01	0	43	0	370147328	21	5138
2026-01-30 00:35:34.18	69.89	20.41	-30.1	-33.1	19.4	5.99e-01	0	43	0	372244480	21	5048
2026-01-30 00:35:35.19	70.17	20.45	-30.2	-33.3	19.2	6.02e-01	0	43	0	374341632	21	5126
2026-01-30 00:35:36.19	70.46	20.50	-30.3	-33.6	18.9	6.02e-01	0	43	0	375914496	21	5236
2026-01-30 00:35:37.18	70.74	20.54	-30.3	-33.4	19.2	6.01e-01	0	43	0	378011648	21	5173
2026-01-30 00:35:38.18	71.02	20.59	-30.3	-33.4	19.1	6.02e-01	0	43	0	379584512	21	5147
2026-01-30 00:35:39.18	71.31	20.63	-30.1	-32.9	19.4	6.00e-01	0	43	0	381681664	21	4989
2026-01-30 00:35:40.18	71.59	20.68	-30.0	-32.7	19.6	6.00e-01	0	43	0	383254528	21	4906
2026-01-30 00:35:41.18	71.88	20.72	-30.0	-32.5	19.8	6.02e-01	0	43	0	385351680	21	4847
2026-01-30 00:35:42.18	72.17	20.76	-30.0	-32.7	19.7	6.01e-01	0	43	0	387448832	21	4912
2026-01-30 00:35:43.18	72.46	20.81	-30.0	-32.7	19.7	6.01e-01	0	43	0	389021696	21	4900
2026-01-30 00:35:44.19	72.75	20.85	-30.0	-32.7	19.6	6.03e-01	0	43	0	391118848	21	4904
2026-01-30 00:35:45.20	73.05	20.89	-30.1	-32.9	19.6	6.01e-01	0	43	0	392691712	21	4961
2026-01-30 00:35:46.20	73.34	20.93	-30.2	-33.3	19.3	6.02e-01	0	43	0	394788864	21	5124
2026-01-30 00:35:47.21	73.63	20.97	-30.1	-33.0	19.4	6.01e-01	0	43	0	396361728	21	5006
2026-01-30 00:35:48.21	73.93	21.01	-30.0	-32.7	19.6	6.03e-01	0	43	0	398458880	21	4892
2026-01-30 00:35:49.22	74.22	21.05	-30.1	-33.0	19.5	6.02e-01	0	43	0	400556032	21	5000
2026-01-30 00:35:50.22	74.52	21.08	-30.2	-33.2	19.3	6.01e-01	0	43	0	402128896	21	5088
2026-01-30 00:35:51.22	74.81	21.12	-30.2	-33.1	19.4	6.02e-01	0	43	0	404226048	21	5047
2026-01-30 00:35:52.23	75.11	21.16	-30.2	-33.2	19.3	6.03e-01	0	43	0	405798912	21	5077
2026-01-30 00:35:53.23	75.41	21.19	-30.0	-32.7	19.6	6.00e-01	0	43	0	407896064	21	4903
2026-01-30 00:35:54.24	75.71	21.23	-29.9	-32.5	19.8	6.04e-01	0	43	0	409993216	21	4837
2026-01-30 00:35:55.24	76.01	21.26	-30.0	-32.6	19.7	6.01e-01	0	43	0	411566080	21	4853
2026-01-30 00:35:56.25	76.31	21.29	-30.1	-32.9	19.5	6.02e-01	0	43	0	413663232	21	4966
2026-01-30 00:35:57.25	76.61	21.33	-30.1	-32.8	19.6	6.02e-01	0	43	0	415236096	21	4952
2026-01-30 00:35:58.26	76.91	21.36	-29.9	-32.5	19.7	5.99e-01	0	43	0	417333248	21	4845
2026-01-30 00:35:59.26	77.21	21.39	-30.0	-32.7	19.7	6.03e-01	0	43	0	419430400	21	4890
2026-01-30 00:36:00.27	77.52	21.42	-30.0	-32.8	19.6	6.00e-01	0	43	0	421003264	21	4943
2026-01-30 00:36:01.27	77.82	21.45	-29.9	-32.4	19.8	5.99e-01	0	43	0	423100416	21	4797
2026-01-30 00:36:02.28	78.13	21.48	-30.0	-32.8	19.6	6.02e-01	0	43	0	424673280	21	4934
2026-01-30 00:36:03.29	78.43	21.51	-30.1	-33.0	19.5	6.04e-01	0	43	0	426770432	21	5005
2026-01-30 00:36:04.30	78.74	21.54	-30.1	-32.9	19.5	5.98e-01	0	43	0	428867584	21	4987
2026-01-30 00:36:05.30	79.04	21.56	-30.1	-33.0	19.4	6.03e-01	0	43	0	430440448	21	5018
2026-01-30 00:36:06.30	79.35	21.59	-30.0	-32.7	19.6	6.03e-01	0	43	0	432537600	21	4919
2026-01-30 00:36:07.30	79.66	21.61	-30.0	-32.6	19.7	6.01e-01	0	43	0	434110464	21	4878
2026-01-30 00:36:08.30	79.96	21.64	-30.0	-32.7	19.7	6.03e-01	0	43	0	436207616	21	4902
2026-01-30 00:36:09.30	80.27	21.66	-30.1	-33.4	19.6	6.01e-01	0	43	0	437780480	20	5263
2026-01-30 00:36:10.30	80.57	21.69	-30.2	-33.2	19.4	6.02e-01	0	43	0	439877632	21	5076
2026-01-30 00:36:11.31	80.89	21.71	-30.2	-33.1	19.4	6.00e-01	0	43	0	441974784	21	5050
2026-01-30 00:36:12.31	81.19	21.73	-30.1	-33.3	19.6	6.02e-01	0	43	0	443547648	20	5233
2026-01-30 00:36:13.32	81.51	21.75	-30.0	-33.2	19.7	6.02e-01	0	43	0	445644800	20	5183
2026-01-30 00:36:14.32	81.81	21.77	-30.1	-33.4	19.6	6.01e-01	0	43	0	447741952	20	5273
2026-01-30 00:36:15.32	82.12	21.79	-30.3	-33.3	19.3	6.02e-01	0	43	0	449314816	21	5126
2026-01-30 00:36:16.32	82.43	21.81	-30.4	-33.6	19.1	6.02e-01	0	43	0	451411968	21	5245
2026-01-30 00:36:17.32	82.74	21.82	-30.2	-33.2	19.4	6.00e-01	0	43	0	452984832	21	5068
2026-01-30 00:36:18.33	83.06	21.84	-30.2	-33.2	19.4	6.02e-01	0	43	0	455081984	21	5062
2026-01-30 00:36:19.33	83.37	21.86	-30.2	-33.2	19.4	6.03e-01	0	43	0	456654848	21	5074
2026-01-30 00:36:20.33	83.68	21.87	-30.2	-33.1	19.4	6.00e-01	0	43	0	458752000	21	5042
2026-01-30 00:36:21.34	83.99	21.89	-30.2	-33.1	19.5	6.00e-01	0	43	0	460849152	21	5036
2026-01-30 00:36:22.33	84.30	21.90	-30.3	-33.4	19.2	6.00e-01	0	43	0	462422016	21	5160
2026-01-30 00:36:23.34	84.62	21.91	-30.3	-33.5	19.2	6.01e-01	0	43	0	464519168	21	5198
2026-01-30 00:36:24.34	84.93	21.92	-30.4	-33.6	19.1	6.01e-01	0	43	0	466092032	21	5240
2026-01-30 00:36:25.34	85.24	21.93	-30.0	-32.7	19.7	6.01e-01	0	43	0	468189184	21	4906
2026-01-30 00:36:26.34	85.55	21.94	-30.0	-32.8	19.6	6.01e-01	0	43	0	469762048	21	4940
2026-01-30 00:36:27.35	85.87	21.95	-30.1	-33.0	19.5	6.04e-01	0	43	0	471859200	21	5025
2026-01-30 00:36:28.36	86.19	21.96	-30.1	-33.0	19.5	6.00e-01	0	43	0	473956352	21	5003
2026-01-30 00:36:29.36	86.50	21.97	-30.0	-32.7	19.6	6.01e-01	0	43	0	475529216	21	4911
2026-01-30 00:36:30.36	86.81	21.98	-30.0	-32.6	19.7	6.01e-01	0	43	0	477626368	21	4871
2026-01-30 00:36:31.36	87.13	21.98	-30.0	-32.7	19.7	6.03e-01	0	43	0	479199232	21	4912
2026-01-30 00:36:32.36	87.44	21.99	-30.1	-33.3	19.6	6.03e-01	0	44	0	481296384	20	5238
2026-01-30 00:36:33.36	87.75	21.99	-30.1	-32.8	19.6	6.00e-01	0	43	0	482869248	21	4935
2026-01-30 00:36:34.37	88.07	21.99	-30.0	-32.8	19.6	6.02e-01	0	43	0	484966400	21	4941
2026-01-30 00:36:35.37	88.39	22.00	-30.0	-32.7	19.7	6.03e-01	0	43	0	487063552	21	4907
2026-01-30 00:36:36.37	88.70	22.00	-30.0	-32.7	19.6	6.00e-01	0	43	0	488636416	21	4915
2026-01-30 00:36:37.38	89.02	22.00	-30.0	-32.8	19.6	6.01e-01	0	43	0	490733568	21	4942
2026-01-30 00:36:38.39	89.33	22.00	-30.0	-32.7	19.6	6.01e-01	0	43	0	492830720	21	4915
2026-01-30 00:36:39.39	89.65	22.00	-30.1	-33.0	19.5	6.00e-01	0	43	0	494403584	21	5009
2026-01-30 00:36:40.39	89.96	22.00	-30.0	-32.8	19.6	6.00e-01	0	43	0	496500736	21	4946
2026-01-30 00:36:41.39	90.28	21.99	-30.0	-32.7	19.7	6.02e-01	0	43	0	498073600	21	4908
2026-01-30 00:36:42.40	90.59	21.99	-30.0	-32.6	19.7	6.02e-01	0	43	0	500170752	21	4889
2026-01-30 00:36:43.40	90.91	21.99	-29.9	-32.5	19.8	6.01e-01	0	43	0	501743616	21	4857
2026-01-30 00:36:44.40	91.22	21.98	-30.0	-32.7	19.6	6.03e-01	0	43	0	503840768	21	4924
2026-01-30 00:36:45.41	91.54	21.97	-30.0	-32.7	19.6	6.01e-01	0	43	0	505937920	21	4923
2026-01-30 00:36:46.41	91.85	21.97	-30.1	-33.0	19.5	6.04e-01	0	43	0	507510784	21	5010
2026-01-30 00:36:47.42	92.17	21.96	-30.1	-33.0	19.4	6.00e-01	0	43	0	509607936	21	5023
2026-01-30 00:36:48.42	92.48	21.95	-30.0	-32.7	19.7	6.00e-01	0	43	0	511180800	21	4908
2026-01-30 00:36:49.43	92.80	21.94	-29.9	-32.5	19.8	6.01e-01	0	43	0	513277952	21	4847
2026-01-30 00:36:50.43	93.11	21.93	-29.9	-32.6	19.8	6.00e-01	0	43	0	515375104	21	4870
2026-01-30 00:36:51.44	93.43	21.92	-30.0	-32.8	19.6	5.99e-01	0	43	0	516947968	21	4963
2026-01-30 00:36:52.45	93.74	21.91	-30.0	-32.7	19.6	6.01e-01	0	43	0	519045120	21	4929
2026-01-30 00:36:53.45	94.05	21.90	-29.9	-32.5	19.7	6.04e-01	0	43	0	520617984	21	4840
2026-01-30 00:36:54.45	94.37	21.88	-30.0	-32.7	19.6	6.02e-01	0	43	0	522715136	21	4932
2026-01-30 00:36:55.46	94.68	21.87	-30.0	-32.7	19.6	6.00e-01	0	43	0	524812288	21	4918
2026-01-30 00:36:56.46	94.99	21.85	-29.9	-32.5	19.7	6.00e-01	0	43	0	526385152	21	4854
2026-01-30 00:36:57.46	95.30	21.84	-30.0	-32.6	19.7	6.02e-01	0	43	0	528482304	21	4894
2026-01-30 00:36:58.46	95.61	21.82	-30.0	-32.8	19.6	6.02e-01	0	43	0	530055168	21	4938
2026-01-30 00:36:59.47	95.93	21.80	-30.1	-32.9	19.5	6.03e-01	0	43	0	532152320	21	4970
2026-01-30 00:37:00.47	96.24	21.78	-30.0	-32.7	19.6	6.01e-01	0	43	0	534249472	21	4898
2026-01-30 00:37:01.47	96.55	21.77	-30.0	-32.7	19.6	6.03e-01	0	43	0	535822336	21	4897
2026-01-30 00:37:02.48	96.86	21.75	-30.0	-32.7	19.6	6.02e-01	0	43	0	537919488	21	4915
2026-01-30 00:37:03.48	97.17	21.72	-30.0	-32.6	19.7	6.01e-01	0	43	0	539492352	21	4878
2026-01-30 00:37:04.48	97.48	21.70	-30.0	-32.7	19.6	6.02e-01	0	43	0	541589504	21	4930
2026-01-30 00:37:05.49	97.79	21.68	-30.0	-32.7	19.6	6.01e-01	0	43	0	543162368	21	4911
2026-01-30 00:37:06.49	98.09	21.66	-29.9	-32.4	19.8	6.01e-01	0	43	0	545259520	21	4810
2026-01-30 00:37:07.50	98.40	21.63	-29.9	-32.5	19.8	6.00e-01	0	43	0	547356672	21	4835
2026-01-30 00:37:08.50	98.71	21.61	-30.0	-32.7	19.6	6.02e-01	0	43	0	548929536	21	4933
2026-01-30 00:37:09.51	99.02	21.58	-30.1	-32.8	19.5	6.01e-01	0	43	0	551026688	21	4952
2026-01-30 00:37:10.52	99.33	21.56	-30.0	-32.6	19.6	6.03e-01	0	43	0	553123840	21	4877
2026-01-30 00:37:11.52	99.63	21.53	-30.1	-32.9	19.5	6.02e-01	0	43	0	554696704	21	4981
2026-01-30 00:37:12.53	99.94	21.50	-30.2	-33.3	19.2	6.01e-01	0	43	0	556793856	21	5139
2026-01-30 00:37:13.54	100.25	21.47	-30.2	-33.4	19.1	6.02e-01	0	43	0	558366720	21	5190
2026-01-30 00:37:14.54	100.55	21.44	-30.2	-33.2	19.2	6.01e-01	0	43	0	560463872	21	5107
2026-01-30 00:37:15.54	100.85	21.41	-30.0	-32.8	19.5	6.03e-01	0	43	0	562036736	21	4955
2026-01-30 00:37:16.54	101.16	21.38	-30.1	-33.0	19.4	6.01e-01	0	43	0	564133888	21	5014
2026-01-30 00:37:17.54	101.46	21.35	-30.1	-33.0	19.3	6.02e-01	0	43	0	566231040	21	5045
2026-01-30 00:37:18.54	101.76	21.32	-30.1	-32.9	19.5	6.00e-01	0	43	0	567803904	21	4985
2026-01-30 00:37:19.55	102.06	21.29	-30.0	-32.7	19.5	6.00e-01	0	43	0	569901056	21	4920
2026-01-30 00:37:20.55	102.36	21.25	-29.9	-32.4	19.7	6.00e-01	0	43	0	571473920	21	4825
2026-01-30 00:37:21.56	102.66	21.22	-30.0	-32.6	19.6	6.03e-01	0	43	0	573571072	21	4887
2026-01-30 00:37:22.56	102.96	21.18	-30.0	-32.8	19.5	6.03e-01	0	43	0	575143936	21	4951
2026-01-30 00:37:23.57	103.26	21.15	-29.9	-32.4	19.7	6.02e-01	0	43	0	577241088	21	4820
2026-01-30 00:37:24.57	103.56	21.11	-29.8	-32.3	19.8	5.99e-01	0	43	0	579338240	21	4802
2026-01-30 00:37:25.58	103.86	21.07	-29.9	-32.5	19.7	6.03e-01	0	43	0	580911104	21	4844
2026-01-30 00:37:26.58	104.15	21.03	-29.9	-32.6	19.6	5.99e-01	0	43	0	583008256	21	4887
2026-01-30 00:37:27.58	104.45	21.00	-29.9	-32.5	19.6	6.00e-01	0	43	0	584581120	21	4848
2026-01-30 00:37:28.58	104.74	20.96	-29.9	-32.4	19.7	6.01e-01	0	43	0	586678272	21	4827
2026-01-30 00:37:29.59	105.04	20.92	-29.9	-32.6	19.6	6.02e-01	0	43	0	588775424	21	4870
2026-01-30 00:37:30.59	105.33	20.88	-30.0	-32.7	19.6	6.02e-01	0	43	0	590348288	21	4905
2026-01-30 00:37:31.59	105.62	20.84	-29.9	-32.4	19.7	6.00e-01	0	43	0	592445440	21	4811
2026-01-30 00:37:32.60	105.91	20.79	-29.8	-32.7	19.8	5.99e-01	0	43	0	594018304	20	5039
2026-01-30 00:37:33.60	106.20	20.75	-29.9	-32.9	19.7	6.02e-01	0	43	0	596115456	20	5113
2026-01-30 00:37:34.61	106.50	20.71	-30.1	-33.4	19.4	5.98e-01	0	43	0	598212608	20	5275
2026-01-30 00:37:35.61	106.78	20.66	-30.0	-33.2	19.5	6.03e-01	0	43	0	599785472	20	5197
2026-01-30 00:37:36.61	107.07	20.62	-29.8	-32.8	19.7	6.02e-01	0	43	0	601882624	20	5069
2026-01-30 00:37:37.62	107.36	20.57	-29.8	-32.7	19.8	6.00e-01	0	44	0	603455488	20	5053
2026-01-30 00:37:38.63	107.65	20.53	-29.9	-33.0	19.7	6.02e-01	0	43	0	605552640	20	5128
2026-01-30 00:37:39.63	107.93	20.48	-29.9	-33.1	19.5	6.02e-01	0	43	0	607649792	20	5188
2026-01-30 00:37:40.64	108.22	20.44	-29.9	-33.0	19.7	6.00e-01	0	43	0	609222656	20	5146
2026-01-30 00:37:41.64	108.50	20.39	-30.0	-33.2	19.5	6.04e-01	0	43	0	611319808	20	5233
2026-01-30 00:37:42.65	108.79	20.34	-30.0	-33.2	19.4	6.02e-01	0	43	0	612892672	20	5237
2026-01-30 00:37:43.65	109.07	20.29	-30.1	-33.1	19.2	6.02e-01	0	43	0	614989824	21	5088
2026-01-30 00:37:44.65	109.35	20.24	-30.3	-33.6	18.9	6.02e-01	0	43	0	616562688	21	5266
2026-01-30 00:37:45.65	109.63	20.19	-30.2	-33.4	19.0	6.03e-01	0	43	0	618659840	21	5188
2026-01-30 00:37:46.65	109.91	20.14	-30.1	-33.1	19.2	6.02e-01	0	43	0	620756992	21	5057
2026-01-30 00:37:47.66	110.19	20.09	-30.1	-33.5	19.3	6.03e-01	0	43	0	622329856	20	5325
2026-01-30 00:37:48.66	110.46	20.04	-30.1	-33.1	19.2	6.03e-01	0	43	0	624427008	21	5072
2026-01-30 00:37:49.67	110.74	19.99	-30.1	-33.1	19.3	6.03e-01	0	43	0	626524160	21	5063
2026-01-30 00:37:50.67	111.02	19.94	-30.1	-33.2	19.2	6.02e-01	0	43	0	628097024	21	5118
2026-01-30 00:37:51.67	111.29	19.89	-30.1	-33.1	19.2	6.01e-01	0	43	0	630194176	21	5102
2026-01-30 00:37:52.67	111.56	19.83	-30.0	-32.8	19.4	6.02e-01	0	43	0	631767040	21	4976
2026-01-30 00:37:53.68	111.84	19.78	-29.9	-33.0	19.5	6.00e-01	0	43	0	633864192	20	5194
2026-01-30 00:37:54.68	112.11	19.72	-29.9	-33.1	19.5	6.01e-01	0	43	0	635437056	20	5200
2026-01-30 00:37:55.68	112.38	19.67	-30.0	-33.4	19.3	6.01e-01	0	43	0	637534208	20	5323
2026-01-30 00:37:56.69	112.65	19.61	-29.9	-33.1	19.4	6.05e-01	0	43	0	639631360	20	5215
2026-01-30 00:37:57.69	112.92	19.56	-29.8	-32.8	19.7	6.04e-01	0	43	0	641204224	20	5083
2026-01-30 00:37:58.70	113.19	19.50	-29.7	-32.6	19.7	6.00e-01	0	43	0	643301376	20	5051
2026-01-30 00:37:59.70	113.45	19.45	-29.7	-32.7	19.6	5.99e-01	0	43	0	644874240	20	5079
2026-01-30 00:38:00.70	113.72	19.39	-29.7	-32.8	19.6	6.05e-01	0	43	0	646971392	20	5119
2026-01-30 00:38:01.70	113.98	19.33	-29.8	-33.1	19.4	6.00e-01	0	43	0	648544256	20	5241
2026-01-30 00:38:02.70	114.24	19.27	-29.8	-33.0	19.4	6.04e-01	0	43	0	650641408	20	5221
2026-01-30 00:38:03.71	114.51	19.22	-30.0	-33.4	19.2	6.02e-01	0	43	0	652738560	20	5359
2026-01-30 00:38:04.71	114.77	19.16	-30.0	-33.4	19.2	6.02e-01	0	43	0	654311424	20	5342
2026-01-30 00:38:05.71	115.03	19.10	-29.9	-33.0	19.5	6.01e-01	0	43	0	656408576	20	5190
2026-01-30 00:38:06.71	115.29	19.04	-29.7	-32.5	19.7	6.00e-01	0	43	0	657981440	20	4999
2026-01-30 00:38:07.71	115.54	18.98	-29.6	-32.4	19.9	6.03e-01	0	43	0	660078592	20	4934
2026-01-30 00:38:08.71	115.80	18.92	-29.8	-32.8	19.7	6.04e-01	0	43	0	662175744	20	5085
2026-01-30 00:38:09.71	116.06	18.86	-29.8	-32.9	19.6	6.00e-01	0	43	0	663748608	20	5126
2026-01-30 00:38:10.72	116.31	18.80	-29.8	-32.8	19.6	6.03e-01	0	43	0	665845760	20	5116
2026-01-30 00:38:11.71	116.56	18.74	-29.8	-32.9	19.6	6.01e-01	0	43	0	667418624	20	5158
2026-01-30 00:38:12.72	116.82	18.67	-29.8	-33.1	19.4	6.03e-01	0	43	0	669515776	20	5236
2026-01-30 00:38:13.73	117.07	18.61	-29.7	-32.8	19.5	5.99e-01	0	43	0	671612928	20	5132
2026-01-30 00:38:14.73	117.32	18.55	-29.7	-32.6	19.6	5.98e-01	0	43	0	673185792	20	5075
2026-01-30 00:38:15.74	117.57	18.49	-29.7	-32.8	19.6	6.03e-01	0	43	0	675282944	20	5107
2026-01-30 00:38:16.75	117.82	18.42	-29.8	-32.9	19.5	6.03e-01	0	43	0	676855808	20	5139
2026-01-30 00:38:17.75	118.07	18.36	-29.8	-33.0	19.5	6.02e-01	0	43	0	678952960	20	5172
2026-01-30 00:38:18.75	118.32	18.30	-29.7	-32.6	19.7	6.01e-01	0	43	0	680525824	20	5033
2026-01-30 00:38:19.75	118.56	18.23	-29.6	-32.4	19.9	6.00e-01	0	43	0	682622976	20	4950
2026-01-30 00:38:20.76	118.81	18.17	-29.6	-32.4	19.9	6.00e-01	0	43	0	684720128	20	4956
2026-01-30 00:38:21.76	119.05	18.10	-29.7	-32.5	19.8	6.01e-01	0	43	0	686292992	20	5016
2026-01-30 00:38:22.76	119.29	18.04	-29.7	-32.6	19.7	6.02e-01	0	43	0	688390144	20	5053
2026-01-30 00:38:23.77	119.54	17.97	-29.7	-32.7	19.6	6.01e-01	0	43	0	689963008	20	5087
2026-01-30 00:38:24.78	119.78	17.91	-29.7	-32.6	19.7	6.04e-01	0	43	0	692060160	20	5042
2026-01-30 00:38:25.79	120.02	17.84	-29.7	-32.6	19.7	6.03e-01	0	43	0	694157312	20	5050
2026-01-30 00:38:26.79	120.26	17.78	-29.7	-32.6	19.6	6.02e-01	0	43	0	695730176	20	5047
2026-01-30 00:38:27.80	120.49	17.71	-29.7	-32.7	19.6	6.01e-01	0	43	0	697827328	20	5081
2026-01-30 00:38:28.80	120.73	17.64	-29.6	-32.6	19.7	6.02e-01	0	43	0	699400192	20	5050
2026-01-30 00:38:29.80	120.96	17.58	-29.6	-32.5	19.7	6.02e-01	0	43	0	701497344	20	5015
2026-01-30 00:38:30.80	121.20	17.51	-29.6	-32.3	19.8	6.01e-01	0	43	0	703594496	20	4956
2026-01-30 00:38:31.81	121.43	17.44	-29.6	-32.5	19.7	6.01e-01	0	43	0	705167360	20	5003
2026-01-30 00:38:32.82	121.66	17.37	-29.8	-32.9	19.5	6.00e-01	0	43	0	707264512	20	5142
2026-01-30 00:38:33.82	121.89	17.31	-29.7	-32.6	19.6	6.01e-01	0	43	0	708837376	20	5040
2026-01-30 00:38:34.82	122.12	17.24	-29.6	-32.3	19.8	6.01e-01	0	43	0	710934528	20	4936
2026-01-30 00:38:35.82	122.35	17.17	-29.6	-32.3	19.8	6.01e-01	0	44	0	713031680	20	4918
2026-01-30 00:38:36.83	122.58	17.10	-29.6	-32.3	19.9	6.00e-01	0	43	0	714604544	20	4905
2026-01-30 00:38:37.84	122.81	17.03	-29.6	-32.5	19.7	6.01e-01	0	43	0	716701696	20	4987
2026-01-30 00:38:38.84	123.03	16.96	-29.5	-32.3	19.8	6.01e-01	0	44	0	718274560	20	4925
2026-01-30 00:38:39.84	123.26	16.89	-29.4	-32.1	19.9	6.00e-01	0	43	0	720371712	20	4881
2026-01-30 00:38:40.84	123.48	16.83	-29.5	-32.3	19.8	6.00e-01	0	43	0	721944576	20	4944
2026-01-30 00:38:41.84	123.70	16.76	-29.5	-32.2	19.9	6.01e-01	0	43	0	724041728	20	4914
2026-01-30 00:38:42.85	123.92	16.69	-29.5	-32.3	19.8	6.00e-01	0	43	0	726138880	20	4943
2026-01-30 00:38:43.85	124.14	16.62	-29.6	-32.6	19.6	6.03e-01	0	44	0	727711744	20	5044
2026-01-30 00:38:44.85	124.36	16.55	-29.6	-32.5	19.7	6.02e-01	0	43	0	729808896	20	5006
2026-01-30 00:38:45.85	124.58	16.48	-29.7	-32.6	19.6	6.00e-01	0	43	0	731381760	20	5032
2026-01-30 00:38:46.85	124.79	16.41	-29.8	-32.8	19.5	6.02e-01	0	43	0	733478912	20	5108
2026-01-30 00:38:47.85	125.01	16.34	-29.7	-32.5	19.6	6.01e-01	0	43	0	735051776	20	5013
2026-01-30 00:38:48.85	125.22	16.27	-29.6	-32.3	19.8	6.01e-01	0	43	0	737148928	20	4951
2026-01-30 00:38:49.85	125.44	16.20	-29.5	-32.3	19.8	6.01e-01	0	43	0	739246080	20	4934
2026-01-30 00:38:50.85	125.65	16.13	-29.5	-32.1	19.8	5.99e-01	0	43	0	740818944	20	4899
2026-01-30 00:38:51.85	125.86	16.06	-29.5	-32.4	19.6	6.00e-01	0	43	0	742916096	20	4984
2026-01-30 00:38:52.85	126.07	15.99	-29.4	-32.2	19.7	6.04e-01	0	43	0	744488960	20	4930
2026-01-30 00:38:53.85	126.28	15.92	-29.5	-32.2	19.7	6.00e-01	0	43	0	746586112	20	4940
2026-01-30 00:38:54.86	126.49	15.84	-29.5	-32.2	19.7	6.01e-01	0	43	0	748683264	20	4953
2026-01-30 00:38:55.86	126.69	15.77	-29.6	-32.5	19.6	6.01e-01	0	43	0	750256128	20	5051
2026-01-30 00:38:56.86	126.90	15.70	-29.6	-32.4	19.7	6.04e-01	0	43	0	752353280	20	4996
2026-01-30 00:38:57.86	127.11	15.63	-29.7	-32.6	19.6	6.01e-01	0	43	0	753926144	20	5053
2026-01-30 00:38:58.87	127.31	15.56	-29.6	-32.5	19.6	6.00e-01	0	43	0	756023296	20	5008
2026-01-30 00:38:59.86	127.51	15.49	-29.5	-32.4	19.6	6.00e-01	0	43	0	758120448	20	4997
2026-01-30 00:39:00.86	127.71	15.42	-29.6	-32.6	19.4	6.01e-01	0	43	0	759693312	20	5085
2026-01-30 00:39:01.87	127.92	15.34	-29.4	-32.4	19.3	6.02e-01	0	43	0	761790464	20	5048
2026-01-30 00:39:02.87	128.12	15.27	-29.3	-32.2	19.6	6.02e-01	0	43	0	763363328	20	5022
2026-01-30 00:39:03.87	128.32	15.20	-29.4	-33.0	19.0	6.01e-01	0	43	0	765460480	19	5417
2026-01-30 00:39:04.87	128.51	15.13	-29.4	-32.9	19.4	6.00e-01	0	43	0	767033344	19	5356
2026-01-30 00:39:05.88	128.71	15.06	-29.5	-32.7	19.2	6.03e-01	0	43	0	769130496	20	5170
2026-01-30 00:39:06.88	128.91	14.98	-29.9	-33.5	18.8	6.02e-01	0	43	0	771227648	20	5470
2026-01-30 00:39:07.88	129.10	14.91	-29.8	-33.2	19.0	5.99e-01	0	44	0	772800512	20	5300
2026-01-30 00:39:08.88	129.30	14.84	-29.7	-32.8	19.3	6.02e-01	0	44	0	774897664	20	5131
2026-01-30 00:39:09.89	129.49	14.77	-29.6	-32.5	19.6	6.02e-01	0	43	0	776470528	20	4996
2026-01-30 00:39:10.89	129.68	14.69	-29.6	-32.5	19.5	6.02e-01	0	43	0	778567680	20	5025
2026-01-30 00:39:11.90	129.88	14.62	-29.6	-32.5	19.5	6.02e-01	0	43	0	780140544	20	5031
2026-01-30 00:39:12.90	130.07	14.55	-29.6	-32.6	19.5	6.02e-01	0	43	0	782237696	20	5061
2026-01-30 00:39:13.91	130.26	14.48	-29.7	-32.8	19.3	6.02e-01	0	43	0	784334848	20	5144
2026-01-30 00:39:14.90	130.44	14.40	-29.6	-32.6	19.4	6.00e-01	0	43	0	785907712	20	5100
2026-01-30 00:39:15.90	130.63	14.33	-29.5	-32.5	19.4	6.01e-01	0	43	0	788004864	20	5058
2026-01-30 00:39:16.90	130.82	14.26	-29.5	-32.5	19.4	6.00e-01	0	43	0	789577728	20	5042
2026-01-30 00:39:17.91	131.00	14.19	-29.6	-32.7	19.3	6.01e-01	0	43	0	791674880	20	5118
2026-01-30 00:39:18.90	131.19	14.11	-29.7	-32.7	19.3	6.03e-01	0	43	0	793772032	20	5111
2026-01-30 00:39:19.91	131.37	14.04	-29.7	-32.7	19.3	6.03e-01	0	43	0	795344896	20	5097
2026-01-30 00:39:20.91	131.55	13.97	-29.8	-33.0	19.1	6.01e-01	0	43	0	797442048	20	5219
2026-01-30 00:39:21.91	131.74	13.90	-29.6	-32.8	19.1	6.03e-01	0	43	0	799014912	20	5184
2026-01-30 00:39:22.92	131.92	13.82	-29.6	-32.8	19.1	6.02e-01	0	43	0	801112064	20	5208
2026-01-30 00:39:23.92	132.10	13.75	-29.5	-32.8	19.0	6.01e-01	0	43	0	803209216	20	5252
2026-01-30 00:39:24.93	132.28	13.68	-29.6	-33.5	18.9	6.03e-01	0	44	0	804782080	19	5647
2026-01-30 00:39:25.92	132.45	13.61	-29.5	-33.3	19.1	6.00e-01	0	43	0	806879232	19	5554
2026-01-30 00:39:26.93	132.63	13.53	-29.6	-32.8	19.0	6.00e-01	0	43	0	808452096	20	5232
2026-01-30 00:39:27.93	132.81	13.46	-29.8	-33.1	18.9	6.00e-01	0	43	0	810549248	20	5287
2026-01-30 00:39:28.94	132.99	13.39	-29.8	-33.1	18.9	6.00e-01	0	43	0	812122112	20	5277
2026-01-30 00:39:29.94	133.16	13.31	-29.9	-33.3	18.9	6.00e-01	0	43	0	814219264	20	5330
2026-01-30 00:39:30.94	133.33	13.24	-29.8	-33.1	19.0	6.02e-01	0	43	0	816316416	20	5259
2026-01-30 00:39:31.95	133.51	13.17	-29.9	-33.5	18.7	6.01e-01	0	43	0	817889280	20	5436
2026-01-30 00:39:32.96	133.68	13.09	-29.7	-33.1	18.9	6.01e-01	0	43	0	819986432	20	5327
2026-01-30 00:39:33.96	133.85	13.02	-29.6	-33.4	19.0	6.02e-01	0	43	0	822083584	19	5591
2026-01-30 00:39:34.96	134.02	12.95	-29.6	-33.1	18.8	6.03e-01	0	43	0	823656448	20	5350
2026-01-30 00:39:35.97	134.19	12.88	-29.8	-33.6	18.5	6.00e-01	0	43	0	825753600	20	5546
2026-01-30 00:39:36.97	134.36	12.80	-29.7	-33.2	18.7	6.00e-01	0	44	0	827326464	20	5366
2026-01-30 00:39:37.97	134.53	12.73	-29.7	-33.0	18.8	6.02e-01	0	43	0	829423616	20	5300
2026-01-30 00:39:38.98	134.69	12.66	-29.8	-33.2	18.8	6.02e-01	0	43	0	830996480	20	5366
2026-01-30 00:39:39.98	134.86	12.59	-29.8	-33.2	18.8	5.99e-01	0	43	0	833093632	20	5349
2026-01-30 00:39:40.99	135.03	12.51	-29.8	-33.2	18.7	6.03e-01	0	43	0	835190784	20	5363
2026-01-30 00:39:42.00	135.19	12.44	-29.9	-33.6	18.5	6.01e-01	0	44	0	836763648	20	5501
2026-01-30 00:39:43.00	135.36	12.37	-29.8	-33.3	18.6	6.02e-01	0	44	0	838860800	20	5421
2026-01-30 00:39:44.01	135.52	12.30	-29.9	-33.8	18.3	6.01e-01	0	43	0	840433664	20	5628
2026-01-30 00:39:45.01	135.68	12.22	-29.7	-33.3	18.6	6.01e-01	0	43	0	842530816	20	5448
2026-01-30 00:39:46.02	135.84	12.15	-29.6	-33.1	18.8	5.99e-01	0	43	0	844627968	20	5365
2026-01-30 00:39:47.03	136.00	12.08	-29.6	-33.0	18.8	6.01e-01	0	43	0	846200832	20	5306
2026-01-30 00:39:48.03	136.16	12.01	-29.7	-33.2	18.7	5.98e-01	0	43	0	848297984	20	5413
2026-01-30 00:39:49.04	136.32	11.93	-29.6	-33.1	18.7	6.02e-01	0	43	0	849870848	20	5386
2026-01-30 00:39:50.05	136.48	11.86	-29.5	-33.0	18.6	6.00e-01	0	43	0	851968000	20	5412
2026-01-30 00:39:51.06	136.64	11.79	-29.4	-32.9	18.6	6.03e-01	0	43	0	853540864	20	5379
2026-01-30 00:39:52.06	136.79	11.72	-29.4	-33.5	18.7	6.03e-01	0	43	0	855638016	19	5719
2026-01-30 00:39:53.07	136.95	11.64	-29.4	-33.3	18.7	6.01e-01	0	44	0	857735168	19	5645
2026-01-30 00:39:54.07	137.10	11.57	-29.5	-33.6	18.5	6.00e-01	0	44	0	859308032	19	5749
2026-01-30 00:39:55.09	137.26	11.50	-29.6	-33.3	18.3	6.01e-01	0	44	0	861405184	20	5529
2026-01-30 00:39:56.09	137.41	11.43	-29.8	-33.9	17.9	6.01e-01	0	43	0	863502336	20	5771
2026-01-30 00:39:57.10	137.57	11.35	-29.8	-33.6	18.2	6.01e-01	0	43	0	865075200	20	5574
2026-01-30 00:39:58.10	137.72	11.28	-30.0	-34.1	18.0	6.01e-01	0	43	0	867172352	20	5754
2026-01-30 00:39:59.10	137.87	11.21	-30.0	-33.9	18.2	6.00e-01	0	43	0	868745216	20	5639
2026-01-30 00:40:00.11	138.02	11.14	-30.1	-34.1	17.9	5.99e-01	0	44	0	870842368	20	5756
2026-01-30 00:40:01.11	138.17	11.07	-30.2	-34.1	17.6	5.99e-01	0	44	0	872415232	21	5678
2026-01-30 00:40:02.11	138.31	11.00	-30.3	-34.7	17.1	6.01e-01	0	43	0	874512384	21	5995
2026-01-30 00:40:03.11	138.46	10.93	-30.0	-33.9	17.7	6.03e-01	0	43	0	876609536	21	5632
2026-01-30 00:40:04.10	138.61	10.86	-30.0	-33.7	17.8	6.01e-01	0	44	0	878182400	21	5547
2026-01-30 00:40:05.11	138.75	10.78	-30.1	-33.9	17.7	6.01e-01	0	43	0	880279552	21	5597
2026-01-30 00:40:06.11	138.90	10.71	-30.1	-34.0	17.6	6.02e-01	0	44	0	881852416	21	5621
2026-01-30 00:40:07.12	139.04	10.64	-30.2	-34.1	17.6	6.02e-01	0	43	0	883949568	21	5626
2026-01-30 00:40:08.13	139.19	10.57	-30.3	-34.2	17.6	6.00e-01	0	43	0	886046720	21	5688
2026-01-30 00:40:09.13	139.33	10.50	-30.3	-34.3	17.5	6.01e-01	0	43	0	887619584	21	5730
2026-01-30 00:40:10.13	139.47	10.43	-30.4	-34.9	17.1	6.02e-01	0	43	0	889716736	21	6003
2026-01-30 00:40:11.14	139.62	10.36	-30.1	-34.1	17.6	6.03e-01	0	43	0	891289600	21	5662
2026-01-30 00:40:12.14	139.76	10.29	-29.9	-33.3	18.0	6.02e-01	0	43	0	893386752	21	5348
2026-01-30 00:40:13.15	139.90	10.22	-29.7	-33.5	18.2	6.03e-01	0	43	0	895483904	20	5570
2026-01-30 00:40:14.15	140.04	10.15	-29.8	-33.8	18.0	6.01e-01	0	43	0	897056768	20	5693
2026-01-30 00:40:15.15	140.18	10.08	-29.7	-33.5	18.2	6.02e-01	0	43	0	899153920	20	5586
2026-01-30 00:40:16.15	140.31	10.01	-29.7	-33.4	18.3	6.01e-01	0	44	0	900726784	20	5526
2026-01-30 00:40:17.15	140.45	9.94	-29.8	-33.6	18.1	6.03e-01	0	43	0	902823936	20	5602
2026-01-30 00:40:18.15	140.59	9.87	-29.9	-33.8	17.9	6.03e-01	0	43	0	904396800	20	5693
2026-01-30 00:40:19.15	140.72	9.80	-29.9	-33.8	18.0	6.02e-01	0	43	0	906493952	20	5656
2026-01-30 00:40:20.16	140.86	9.73	-29.9	-34.0	17.9	6.01e-01	0	43	0	908591104	20	5731
2026-01-30 00:40:21.16	140.99	9.66	-30.0	-34.1	17.8	6.01e-01	0	44	0	910163968	20	5769
2026-01-30 00:40:22.17	141.13	9.59	-30.0	-34.1	17.7	6.00e-01	0	44	0	912261120	20	5777
2026-01-30 00:40:23.17	141.26	9.52	-30.1	-33.9	17.5	6.02e-01	0	43	0	913833984	21	5568
2026-01-30 00:40:24.18	141.40	9.45	-30.1	-34.0	17.6	6.03e-01	0	43	0	915931136	21	5592
2026-01-30 00:40:25.18	141.53	9.38	-30.2	-34.2	17.4	5.99e-01	0	44	0	918028288	21	5688
2026-01-30 00:40:26.18	141.66	9.31	-30.3	-34.3	17.3	6.03e-01	0	44	0	919601152	21	5730
2026-01-30 00:40:27.19	141.79	9.24	-30.3	-34.4	17.3	6.02e-01	0	43	0	921698304	21	5770
2026-01-30 00:40:28.19	141.92	9.17	-30.3	-34.4	17.2	5.99e-01	0	43	0	923271168	21	5787
2026-01-30 00:40:29.20	142.05	9.10	-30.3	-34.5	17.1	6.00e-01	0	43	0	925368320	21	5851
2026-01-30 00:40:30.20	142.18	9.03	-30.4	-34.8	16.9	5.99e-01	0	44	0	927465472	21	5981
2026-01-30 00:40:31.21	142.31	8.96	-30.3	-34.4	17.1	6.02e-01	0	44	0	929038336	21	5788
2026-01-30 00:40:32.22	142.44	8.89	-30.2	-34.1	17.3	6.03e-01	0	44	0	931135488	21	5678
2026-01-30 00:40:33.22	142.56	8.82	-30.2	-34.2	17.1	6.01e-01	0	44	0	932708352	21	5738
2026-01-30 00:40:34.22	142.69	8.76	-30.2	-34.4	17.1	6.01e-01	0	43	0	934805504	21	5794
2026-01-30 00:40:35.22	142.81	8.69	-30.1	-34.2	17.2	6.01e-01	0	44	0	936902656	21	5726
2026-01-30 00:40:36.22	142.94	8.62	-28.7	-33.1	16.8	5.99e-01	0	43	0	938475520	20	5983
2026-01-30 00:40:37.22	143.06	8.55	-30.2	-34.4	17.0	6.01e-01	0	44	0	940572672	21	5833
2026-01-30 00:40:38.21	143.18	8.48	-30.3	-34.7	16.7	6.00e-01	0	43	0	942145536	21	5984
2026-01-30 00:40:39.22	143.31	8.42	-30.2	-34.2	16.8	6.02e-01	0	43	0	944242688	21	5755
2026-01-30 00:40:40.22	143.43	8.35	-30.1	-34.5	16.2	6.04e-01	0	43	0	945815552	20	6032
2026-01-30 00:40:41.22	143.55	8.28	-30.0	-34.6	17.0	6.02e-01	0	43	0	947912704	20	6084
2026-01-30 00:40:42.22	143.67	8.21	-30.0	-34.5	16.0	6.04e-01	0	43	0	950009856	20	6051
2026-01-30 00:40:43.22	143.79	8.14	-30.0	-34.5	16.1	6.00e-01	0	44	0	951582720	20	6083
2026-01-30 00:40:44.22	143.91	8.08	-30.0	-34.6	16.9	6.02e-01	0	43	0	953679872	20	6143
2026-01-30 00:40:45.23	144.03	8.01	-30.0	-34.9	15.9	6.02e-01	0	43	0	955252736	20	6310
2026-01-30 00:40:46.23	144.15	7.94	-29.9	-34.6	16.5	5.99e-01	0	44	0	957349888	20	6192
2026-01-30 00:40:47.24	144.27	7.87	-29.8	-34.4	17.0	5.99e-01	0	44	0	958922752	20	6110
2026-01-30 00:40:48.24	144.39	7.81	-29.7	-34.2	16.9	6.00e-01	0	44	0	961019904	20	6034
2026-01-30 00:40:49.23	144.51	7.74	-29.8	-34.4	16.9	6.00e-01	0	44	0	963117056	20	6105
2026-01-30 00:40:50.23	144.62	7.67	-30.0	-34.7	16.9	6.02e-01	0	44	0	964689920	20	6209
2026-01-30 00:40:51.24	144.74	7.61	-30.3	-34.9	16.4	6.02e-01	0	44	0	966787072	21	6112
2026-01-30 00:40:52.24	144.85	7.54	-30.4	-35.2	16.2	6.00e-01	0	44	0	968359936	21	6256
2026-01-30 00:40:53.24	144.97	7.47	-30.4	-35.2	16.3	6.02e-01	0	43	0	970457088	21	6253
2026-01-30 00:40:54.24	145.08	7.41	-30.5	-35.5	16.0	6.01e-01	0	44	0	972554240	21	6403
2026-01-30 00:40:55.24	145.20	7.34	-30.4	-35.1	16.4	6.00e-01	0	43	0	974127104	21	6193
2026-01-30 00:40:56.24	145.31	7.27	-30.5	-35.3	16.2	6.01e-01	0	43	0	976224256	21	6283
2026-01-30 00:40:57.24	145.42	7.21	-30.4	-35.2	16.3	6.02e-01	0	43	0	977797120	21	6256
2026-01-30 00:40:58.25	145.54	7.14	-30.5	-35.4	16.1	6.01e-01	0	43	0	979894272	21	6371
2026-01-30 00:40:59.25	145.65	7.08	-31.8	-39.1	13.2	6.06e-01	0	43	0	981467136	24	8311
2026-01-30 00:41:00.25	145.76	7.01	-32.9	-52.2	3.9	7.42e-01	0	43	104	981991424	27	33087
2026-01-30 00:41:01.25	145.87	6.94	-33.8	-53.4	3.8	7.50e-01	0	43	104	981991424	28	34261
2026-01-30 00:41:02.25	145.98	6.88	-34.2	-53.6	3.8	7.45e-01	0	44	104	981991424	29	33768

#Closed at: 2026-01-30 00:41:02
#Recorded file [981 MB]: D:/data/31010_260130_033215.dat