passes_logs/2026/01/30/R2M6_AANII_01/R2M6_AANII_01__20260130_073959_NOAA_21_JPSS-2_rec.log

#Pass ID: 20260130_073959_NOAA 21 (JPSS-2)
#Satellite: NOAA 21 (JPSS-2)
#Configuration: NOAA 21
#almurnet v.1.7.20240730
#Start time: 2026-01-30 07:40:00

#Version: 2.2.20231116
#Station: R2M6_AANII_01
#Location: 30.233357 lon 59.946436 lat
#TLE: 1 54234U 22150A   26029.46216196  .00000141  00000+0  87503-4 0  9994
#TLE: 2 54234  98.7512 330.1880 0000955 196.3413 163.7732 14.19540905166865

#Time	Az	El	Level	Level2	SNR	BER	BlckErr	Temp	State	Recorded	gain1	gain2
2026-01-30 07:40:00.77	77.27	7.07	-32.2	-40.0	4.0	1.47e+00	0	40	0	0	25	8856
2026-01-30 07:40:01.77	77.15	7.13	-31.7	-37.9	4.3	1.43e+00	0	40	104	0	24	7300
2026-01-30 07:40:02.78	77.03	7.18	-31.7	-36.9	6.4	2.66e-01	0	40	0	0	24	6562
2026-01-30 07:40:03.78	76.91	7.23	-31.6	-36.6	6.6	2.16e-01	0	40	0	3145728	24	6387
2026-01-30 07:40:04.79	76.79	7.28	-31.5	-36.3	6.7	1.92e-01	0	40	0	6291456	24	6251
2026-01-30 07:40:05.79	76.66	7.34	-31.5	-36.2	6.8	1.83e-01	0	40	0	9437184	24	6210
2026-01-30 07:40:06.79	76.54	7.39	-31.5	-36.2	6.9	1.64e-01	0	40	0	12582912	24	6172
2026-01-30 07:40:07.80	76.42	7.44	-31.3	-35.3	7.5	1.33e-01	0	41	0	15728640	24	5738
2026-01-30 07:40:08.80	76.29	7.49	-30.9	-34.6	8.4	5.81e-02	0	41	0	18874368	23	5498
2026-01-30 07:40:09.80	76.17	7.54	-30.5	-33.6	9.4	2.05e-02	0	41	0	22020096	22	5178
2026-01-30 07:40:10.80	76.05	7.60	-30.1	-33.1	10.1	7.59e-03	0	41	0	24117248	21	5051
2026-01-30 07:40:11.80	75.92	7.65	-29.7	-32.4	11.0	3.06e-03	0	41	0	27262976	20	4891
2026-01-30 07:40:12.80	75.80	7.70	-29.4	-31.5	11.6	9.90e-04	0	41	0	30408704	20	4596
2026-01-30 07:40:13.81	75.67	7.75	-29.1	-31.3	12.1	3.75e-04	0	41	0	33554432	19	4621
2026-01-30 07:40:14.81	75.55	7.81	-29.0	-31.0	12.3	1.64e-04	0	41	0	36700160	19	4521
2026-01-30 07:40:15.81	75.42	7.86	-28.9	-30.6	12.6	1.11e-04	0	41	0	39845888	19	4405
2026-01-30 07:40:16.81	75.29	7.91	-28.9	-30.6	12.6	7.40e-05	0	41	0	42991616	19	4389
2026-01-30 07:40:17.81	75.17	7.96	-28.8	-30.5	12.7	1.07e-04	0	41	0	46137344	19	4356
2026-01-30 07:40:18.81	75.04	8.01	-29.0	-30.9	12.5	9.76e-05	0	41	0	49283072	19	4481
2026-01-30 07:40:19.82	74.91	8.07	-28.8	-30.4	12.7	8.62e-05	0	41	0	52428800	19	4331
2026-01-30 07:40:20.82	74.78	8.12	-28.7	-30.5	13.0	4.80e-05	0	41	0	55574528	18	4474
2026-01-30 07:40:21.83	74.65	8.17	-28.8	-30.8	12.8	5.41e-05	0	41	0	58720256	18	4557
2026-01-30 07:40:22.83	74.52	8.22	-28.6	-30.5	13.0	4.11e-05	0	41	0	61865984	18	4446
2026-01-30 07:40:23.83	74.39	8.27	-28.5	-30.2	13.2	2.21e-05	0	41	0	65011712	18	4367
2026-01-30 07:40:24.84	74.26	8.32	-28.5	-30.1	13.3	1.52e-05	0	41	0	68157440	18	4344
2026-01-30 07:40:25.84	74.13	8.38	-28.5	-30.0	13.3	2.05e-05	0	41	0	71303168	18	4316
2026-01-30 07:40:26.85	73.99	8.43	-28.6	-30.3	13.1	2.67e-05	0	41	0	74448896	18	4403
2026-01-30 07:40:27.85	73.86	8.48	-28.6	-30.3	13.2	3.66e-05	0	41	0	77594624	18	4386
2026-01-30 07:40:28.86	73.73	8.53	-28.6	-30.4	13.1	3.28e-05	0	41	0	80740352	18	4438
2026-01-30 07:40:29.86	73.60	8.58	-28.6	-30.4	13.1	2.28e-05	0	41	0	83886080	18	4446
2026-01-30 07:40:30.86	73.46	8.64	-28.7	-30.6	13.0	2.97e-05	0	41	0	87031808	18	4495
2026-01-30 07:40:31.87	73.33	8.69	-28.6	-30.3	13.2	4.27e-05	0	41	0	90177536	18	4406
2026-01-30 07:40:32.87	73.19	8.74	-28.6	-30.4	13.1	2.36e-05	0	41	0	93323264	18	4423
2026-01-30 07:40:33.87	73.06	8.79	-28.6	-30.4	13.1	2.44e-05	0	41	0	96468992	18	4433
2026-01-30 07:40:34.88	72.92	8.84	-28.5	-30.1	13.3	2.21e-05	0	41	0	99614720	18	4346
2026-01-30 07:40:35.88	72.79	8.89	-28.5	-30.2	13.3	1.22e-05	0	41	0	102760448	18	4364
2026-01-30 07:40:36.88	72.65	8.94	-28.7	-30.6	13.1	2.74e-05	0	41	0	105906176	18	4472
2026-01-30 07:40:37.88	72.51	8.99	-28.6	-30.5	13.1	3.20e-05	0	41	0	109051904	18	4458
2026-01-30 07:40:38.88	72.38	9.05	-28.7	-30.6	13.1	4.34e-05	0	41	0	112197632	18	4485
2026-01-30 07:40:39.89	72.24	9.10	-28.7	-30.7	13.0	4.11e-05	0	41	0	115343360	18	4520
2026-01-30 07:40:40.89	72.10	9.15	-28.8	-30.8	13.0	3.58e-05	0	41	0	118489088	18	4556
2026-01-30 07:40:41.90	71.96	9.20	-28.9	-31.2	12.7	5.87e-05	0	41	0	121634816	18	4679
2026-01-30 07:40:42.90	71.82	9.25	-28.9	-31.1	12.8	7.70e-05	0	41	0	124780544	18	4641
2026-01-30 07:40:43.91	71.68	9.30	-29.0	-31.4	12.6	9.00e-05	0	41	0	127926272	18	4735
2026-01-30 07:40:44.90	71.54	9.35	-28.9	-31.1	12.8	7.01e-05	0	41	0	131072000	18	4634
2026-01-30 07:40:45.91	71.40	9.40	-28.8	-30.9	12.9	4.11e-05	0	42	0	134217728	18	4581
2026-01-30 07:40:46.92	71.26	9.45	-28.8	-30.9	12.9	3.66e-05	0	41	0	137363456	18	4579
2026-01-30 07:40:47.92	71.11	9.50	-28.9	-31.1	12.8	6.17e-05	0	41	0	140509184	18	4654
2026-01-30 07:40:48.93	70.97	9.56	-28.9	-31.0	12.8	5.79e-05	0	41	0	143654912	18	4625
2026-01-30 07:40:49.93	70.83	9.61	-29.0	-31.4	12.6	7.55e-05	0	41	0	146800640	18	4730
2026-01-30 07:40:50.93	70.69	9.66	-28.9	-31.2	12.7	8.23e-05	0	41	0	149946368	18	4684
2026-01-30 07:40:51.93	70.54	9.71	-29.0	-31.4	12.7	7.93e-05	0	42	0	153092096	18	4731
2026-01-30 07:40:52.93	70.40	9.76	-29.1	-31.6	12.5	1.01e-04	0	42	0	156237824	18	4795
2026-01-30 07:40:53.94	70.25	9.81	-29.1	-31.5	12.6	1.14e-04	0	42	0	159383552	18	4781
2026-01-30 07:40:54.94	70.11	9.86	-29.3	-32.1	12.2	1.56e-04	0	41	0	162529280	18	4962
2026-01-30 07:40:55.95	69.96	9.91	-29.2	-31.7	12.5	1.65e-04	0	41	0	165675008	18	4838
2026-01-30 07:40:56.95	69.81	9.96	-28.9	-31.0	12.9	5.72e-05	0	42	0	168820736	18	4616
2026-01-30 07:40:57.96	69.66	10.01	-28.7	-30.7	13.1	3.12e-05	0	41	0	171966464	18	4513
2026-01-30 07:40:58.96	69.52	10.06	-28.7	-30.5	13.2	2.51e-05	0	42	0	175112192	18	4453
2026-01-30 07:40:59.97	69.37	10.11	-28.8	-30.9	13.0	2.67e-05	0	42	0	178257920	18	4556
2026-01-30 07:41:00.97	69.22	10.16	-28.6	-30.3	13.4	1.83e-05	0	42	0	181403648	18	4393
2026-01-30 07:41:01.98	69.07	10.21	-28.6	-30.3	13.4	1.52e-05	0	42	0	184549376	18	4383
2026-01-30 07:41:02.97	68.92	10.26	-28.6	-30.3	13.4	9.90e-06	0	42	0	187695104	18	4376
2026-01-30 07:41:03.98	68.77	10.31	-28.7	-30.5	13.2	1.52e-05	0	42	0	190840832	18	4446
2026-01-30 07:41:04.98	68.62	10.36	-28.7	-30.4	13.3	1.29e-05	0	42	0	193986560	18	4422
2026-01-30 07:41:05.99	68.47	10.40	-28.7	-30.5	13.3	2.51e-05	0	42	0	197132288	18	4437
2026-01-30 07:41:06.99	68.32	10.45	-28.6	-30.3	13.4	1.14e-05	0	42	0	200278016	18	4397
2026-01-30 07:41:08.00	68.16	10.50	-28.5	-30.2	13.5	6.10e-06	0	42	0	203423744	18	4341
2026-01-30 07:41:09.00	68.01	10.55	-28.5	-30.1	13.5	6.80e-06	0	42	0	206569472	18	4322
2026-01-30 07:41:10.00	67.86	10.60	-28.6	-30.3	13.4	9.90e-06	0	42	0	209715200	18	4372
2026-01-30 07:41:11.00	67.71	10.65	-28.5	-30.0	13.5	7.60e-06	0	42	0	212860928	18	4309
2026-01-30 07:41:12.00	67.55	10.70	-28.3	-29.6	13.8	3.80e-06	0	42	0	216006656	18	4192
2026-01-30 07:41:13.01	67.40	10.75	-28.5	-30.0	13.6	5.30e-06	0	42	0	219152384	18	4286
2026-01-30 07:41:14.01	67.24	10.79	-28.4	-29.8	13.7	1.29e-05	0	42	0	222298112	18	4250
2026-01-30 07:41:15.01	67.09	10.84	-28.5	-30.1	13.5	8.30e-06	0	42	0	225443840	18	4336
2026-01-30 07:41:16.02	66.93	10.89	-28.6	-30.2	13.5	1.06e-05	0	42	0	228589568	18	4362
2026-01-30 07:41:17.02	66.77	10.94	-28.7	-30.5	13.3	1.22e-05	0	42	0	231735296	18	4443
2026-01-30 07:41:18.02	66.61	10.99	-28.6	-30.4	13.4	1.98e-05	0	42	0	234881024	18	4406
2026-01-30 07:41:19.03	66.46	11.04	-28.6	-30.3	13.4	1.75e-05	0	42	0	238026752	18	4382
2026-01-30 07:41:20.04	66.30	11.08	-28.6	-30.3	13.5	8.30e-06	0	42	0	241172480	18	4361
2026-01-30 07:41:21.04	66.14	11.13	-28.7	-30.5	13.4	1.67e-05	0	42	0	244318208	18	4420
2026-01-30 07:41:22.04	65.98	11.18	-28.6	-30.4	13.5	6.10e-06	0	42	0	247463936	18	4389
2026-01-30 07:41:23.04	65.82	11.23	-28.6	-30.2	13.6	6.10e-06	0	42	0	250609664	18	4322
2026-01-30 07:41:24.05	65.66	11.27	-28.5	-30.0	13.6	1.22e-05	0	42	0	253755392	18	4290
2026-01-30 07:41:25.05	65.50	11.32	-28.6	-30.4	13.5	8.30e-06	0	42	0	256901120	18	4388
2026-01-30 07:41:26.06	65.33	11.37	-28.5	-30.0	13.6	4.50e-06	0	42	0	260046848	18	4296
2026-01-30 07:41:27.06	65.17	11.41	-28.5	-30.0	13.7	4.50e-06	0	42	0	263192576	18	4273
2026-01-30 07:41:28.06	65.01	11.46	-28.6	-30.1	13.6	4.50e-06	0	42	0	266338304	18	4319
2026-01-30 07:41:29.07	64.85	11.51	-28.5	-30.0	13.7	3.80e-06	0	42	0	269484032	18	4274
2026-01-30 07:41:30.07	64.68	11.55	-28.7	-30.6	13.3	1.22e-05	0	42	0	272629760	18	4449
2026-01-30 07:41:31.07	64.52	11.60	-28.5	-29.9	13.7	7.60e-06	0	42	0	275775488	18	4266
2026-01-30 07:41:32.07	64.35	11.65	-28.3	-29.5	14.0	4.50e-06	0	42	0	278921216	18	4137
2026-01-30 07:41:33.08	64.19	11.69	-28.2	-29.9	14.0	0.00e+00	0	42	0	282066944	17	4355
2026-01-30 07:41:34.08	64.02	11.74	-28.3	-30.0	14.0	3.00e-06	0	42	0	285212672	17	4381
2026-01-30 07:41:35.09	63.86	11.78	-28.3	-30.1	13.9	3.00e-06	0	42	0	288358400	17	4421
2026-01-30 07:41:36.09	63.69	11.83	-28.3	-30.1	13.9	7.00e-07	0	42	0	291504128	17	4432
2026-01-30 07:41:37.10	63.52	11.88	-28.2	-29.8	14.1	2.20e-06	0	42	0	294649856	17	4333
2026-01-30 07:41:38.10	63.35	11.92	-28.3	-30.0	14.0	2.20e-06	0	42	0	297795584	17	4393
2026-01-30 07:41:39.11	63.18	11.97	-28.3	-30.1	13.9	6.10e-06	0	42	0	300941312	17	4415
2026-01-30 07:41:40.11	63.01	12.01	-28.3	-30.0	14.0	3.80e-06	0	42	0	304087040	17	4375
2026-01-30 07:41:41.11	62.85	12.05	-28.4	-30.2	13.8	2.20e-06	0	42	0	307232768	17	4446
2026-01-30 07:41:42.11	62.68	12.10	-28.3	-30.1	13.9	4.50e-06	0	42	0	310378496	17	4428
2026-01-30 07:41:43.11	62.51	12.14	-28.5	-30.5	13.7	8.30e-06	0	42	0	313524224	17	4534
2026-01-30 07:41:44.11	62.34	12.19	-28.3	-30.1	14.0	3.80e-06	0	42	0	316669952	17	4407
2026-01-30 07:41:45.11	62.16	12.23	-28.1	-29.6	14.2	2.20e-06	0	42	0	319815680	17	4263
2026-01-30 07:41:46.12	61.99	12.28	-28.0	-29.4	14.3	1.50e-06	0	42	0	322961408	17	4216
2026-01-30 07:41:47.13	61.82	12.32	-28.0	-29.3	14.4	7.00e-07	0	42	0	326107136	17	4180
2026-01-30 07:41:48.13	61.65	12.36	-28.1	-29.6	14.2	0.00e+00	0	42	0	329252864	17	4261
2026-01-30 07:41:49.13	61.47	12.41	-28.2	-29.8	14.1	7.00e-07	0	42	0	332398592	17	4319
2026-01-30 07:41:50.14	61.30	12.45	-28.1	-29.6	14.2	1.50e-06	0	42	0	335544320	17	4279
2026-01-30 07:41:51.15	61.12	12.49	-28.3	-30.0	14.0	1.50e-06	0	42	0	338690048	17	4379
2026-01-30 07:41:52.16	60.94	12.54	-28.2	-29.7	14.2	7.00e-07	0	42	0	341835776	17	4304
2026-01-30 07:41:53.16	60.77	12.58	-28.2	-29.8	14.2	1.50e-06	0	42	0	344981504	17	4323
2026-01-30 07:41:54.17	60.59	12.62	-28.2	-29.9	14.1	1.50e-06	0	42	0	348127232	17	4368
2026-01-30 07:41:55.18	60.41	12.66	-28.4	-30.3	13.9	3.00e-06	0	42	0	351272960	17	4473
2026-01-30 07:41:56.18	60.24	12.71	-28.4	-30.3	13.8	3.00e-06	0	42	0	354418688	17	4490
2026-01-30 07:41:57.18	60.06	12.75	-28.4	-30.4	13.8	6.80e-06	0	42	0	357564416	17	4496
2026-01-30 07:41:58.19	59.88	12.79	-28.4	-30.2	13.9	4.50e-06	0	42	0	360710144	17	4452
2026-01-30 07:41:59.19	59.70	12.83	-28.4	-30.2	13.9	2.20e-06	0	42	0	363855872	17	4447
2026-01-30 07:42:00.19	59.52	12.87	-28.4	-30.2	13.9	3.00e-06	0	42	0	367001600	17	4432
2026-01-30 07:42:01.19	59.34	12.91	-28.5	-30.5	13.8	5.30e-06	0	42	0	370147328	17	4533
2026-01-30 07:42:02.20	59.16	12.95	-28.3	-30.1	14.0	4.50e-06	0	42	0	372244480	17	4413
2026-01-30 07:42:03.20	58.98	12.99	-28.3	-30.0	14.1	2.20e-06	0	42	0	375390208	17	4384
2026-01-30 07:42:04.19	58.80	13.03	-28.3	-30.0	14.0	2.20e-06	0	42	0	378535936	17	4388
2026-01-30 07:42:05.19	58.62	13.07	-28.4	-30.2	14.0	2.20e-06	0	42	0	381681664	17	4440
2026-01-30 07:42:06.19	58.44	13.11	-28.2	-29.9	14.2	7.00e-07	0	42	0	384827392	17	4347
2026-01-30 07:42:07.19	58.26	13.15	-28.1	-29.6	14.3	7.00e-07	0	42	0	387973120	17	4267
2026-01-30 07:42:08.18	58.08	13.19	-28.1	-29.6	14.3	1.50e-06	0	42	0	391118848	17	4272
2026-01-30 07:42:09.17	57.90	13.23	-28.3	-30.0	14.1	2.20e-06	0	42	0	394264576	17	4367
2026-01-30 07:42:10.17	57.71	13.27	-28.3	-29.9	14.1	0.00e+00	0	42	0	397410304	17	4364
2026-01-30 07:42:11.17	57.53	13.31	-28.2	-29.9	14.1	2.20e-06	0	42	0	400556032	17	4339
2026-01-30 07:42:12.17	57.34	13.35	-28.3	-30.0	14.0	2.20e-06	0	42	0	403701760	17	4394
2026-01-30 07:42:13.17	57.16	13.39	-28.2	-29.9	14.2	7.00e-07	0	42	0	406847488	17	4340
2026-01-30 07:42:14.18	56.97	13.42	-28.3	-29.9	14.1	2.20e-06	0	42	0	409993216	17	4362
2026-01-30 07:42:15.18	56.79	13.46	-28.3	-30.1	14.0	3.00e-06	0	42	0	413138944	17	4421
2026-01-30 07:42:16.19	56.60	13.50	-28.4	-30.2	14.0	7.00e-07	0	42	0	416284672	17	4439
2026-01-30 07:42:17.19	56.41	13.54	-28.3	-29.9	14.1	7.00e-07	0	42	0	419430400	17	4352
2026-01-30 07:42:18.20	56.22	13.58	-28.3	-30.0	14.1	0.00e+00	0	42	0	422576128	17	4372
2026-01-30 07:42:19.19	56.03	13.61	-28.3	-30.1	14.1	1.50e-06	0	42	0	425721856	17	4410
2026-01-30 07:42:20.20	55.84	13.65	-28.2	-29.9	14.2	4.50e-06	0	42	0	428867584	17	4337
2026-01-30 07:42:21.20	55.66	13.68	-28.3	-30.0	14.1	1.50e-06	0	42	0	432013312	17	4374
2026-01-30 07:42:22.19	55.47	13.72	-28.3	-30.0	14.1	7.00e-07	0	42	0	435159040	17	4373
2026-01-30 07:42:23.19	55.28	13.76	-28.3	-29.9	14.2	2.20e-06	0	42	0	438304768	17	4349
2026-01-30 07:42:24.18	55.09	13.79	-28.3	-29.9	14.2	1.50e-06	0	42	0	441450496	17	4351
2026-01-30 07:42:25.19	54.90	13.83	-28.2	-29.8	14.2	3.00e-06	0	42	0	444596224	17	4324
2026-01-30 07:42:26.20	54.70	13.86	-28.2	-29.7	14.3	1.50e-06	0	42	0	447741952	17	4303
2026-01-30 07:42:27.20	54.51	13.90	-28.2	-29.8	14.3	0.00e+00	0	42	0	450887680	17	4325
2026-01-30 07:42:28.21	54.32	13.93	-28.2	-29.7	14.3	7.00e-07	0	42	0	454033408	17	4290
2026-01-30 07:42:29.21	54.13	13.97	-28.2	-29.7	14.3	7.00e-07	0	42	0	457179136	17	4277
2026-01-30 07:42:30.21	53.93	14.00	-28.0	-29.4	14.5	0.00e+00	0	42	0	460324864	17	4205
2026-01-30 07:42:31.22	53.74	14.03	-28.0	-29.3	14.6	0.00e+00	0	42	0	463470592	17	4175
2026-01-30 07:42:32.22	53.54	14.07	-28.1	-29.4	14.5	7.00e-07	0	42	0	466616320	17	4211
2026-01-30 07:42:33.23	53.35	14.10	-28.2	-29.8	14.2	0.00e+00	0	42	0	469762048	17	4329
2026-01-30 07:42:34.23	53.15	14.13	-28.1	-29.5	14.5	0.00e+00	0	42	0	472907776	17	4224
2026-01-30 07:42:35.23	52.96	14.17	-27.9	-29.1	14.7	7.00e-07	0	42	0	476053504	17	4130
2026-01-30 07:42:36.23	52.76	14.20	-28.0	-29.3	14.6	0.00e+00	0	42	0	479199232	17	4169
2026-01-30 07:42:37.23	52.57	14.23	-28.0	-29.4	14.5	0.00e+00	0	42	0	482344960	17	4192
2026-01-30 07:42:38.23	52.37	14.26	-28.0	-29.3	14.5	0.00e+00	0	42	0	485490688	17	4190
2026-01-30 07:42:39.23	52.17	14.29	-28.0	-29.3	14.6	7.00e-07	0	42	0	488636416	17	4178
2026-01-30 07:42:40.23	51.97	14.32	-28.0	-29.3	14.6	1.50e-06	0	42	0	491782144	17	4189
2026-01-30 07:42:41.24	51.77	14.35	-27.9	-29.2	14.7	0.00e+00	0	42	0	494927872	17	4140
2026-01-30 07:42:42.24	51.58	14.38	-27.9	-29.1	14.7	7.00e-07	0	42	0	498073600	17	4116
2026-01-30 07:42:43.25	51.38	14.42	-28.0	-29.3	14.6	0.00e+00	0	42	0	501219328	17	4175
2026-01-30 07:42:44.24	51.18	14.44	-28.2	-29.7	14.3	0.00e+00	0	42	0	504365056	17	4293
2026-01-30 07:42:45.25	50.98	14.47	-28.3	-29.9	14.2	0.00e+00	0	42	0	507510784	17	4357
2026-01-30 07:42:46.25	50.78	14.50	-28.3	-30.0	14.2	2.20e-06	0	42	0	510656512	17	4379
2026-01-30 07:42:47.25	50.58	14.53	-28.4	-30.2	14.0	2.20e-06	0	42	0	513802240	17	4435
2026-01-30 07:42:48.25	50.38	14.56	-28.3	-30.0	14.2	3.00e-06	0	42	0	516947968	17	4385
2026-01-30 07:42:49.25	50.18	14.59	-28.3	-30.0	14.2	7.00e-07	0	42	0	520093696	17	4377
2026-01-30 07:42:50.25	49.98	14.62	-28.4	-30.2	14.1	3.00e-06	0	42	0	523239424	17	4423
2026-01-30 07:42:51.26	49.77	14.64	-28.4	-30.2	14.1	7.00e-07	0	42	0	526385152	17	4435
2026-01-30 07:42:52.26	49.57	14.67	-28.5	-30.4	14.0	7.00e-07	0	42	0	529530880	17	4491
2026-01-30 07:42:53.27	49.37	14.70	-28.3	-29.9	14.3	0.00e+00	0	42	0	532676608	17	4352
2026-01-30 07:42:54.27	49.16	14.73	-28.0	-29.4	14.6	1.50e-06	0	42	0	535822336	17	4187
2026-01-30 07:42:55.28	48.96	14.75	-27.9	-29.1	14.7	0.00e+00	0	42	0	538968064	17	4119
2026-01-30 07:42:56.28	48.75	14.78	-28.0	-29.2	14.7	0.00e+00	0	42	0	542113792	17	4147
2026-01-30 07:42:57.28	48.55	14.80	-28.0	-29.3	14.6	7.00e-07	0	43	0	545259520	17	4172
2026-01-30 07:42:58.29	48.34	14.83	-28.0	-29.3	14.6	0.00e+00	0	42	0	548405248	17	4171
2026-01-30 07:42:59.30	48.14	14.85	-28.0	-29.1	14.7	0.00e+00	0	42	0	551550976	17	4129
2026-01-30 07:43:00.29	47.93	14.88	-28.1	-29.5	14.5	7.00e-07	0	42	0	554696704	17	4219
2026-01-30 07:43:01.29	47.73	14.90	-28.1	-29.6	14.4	7.00e-07	0	42	0	557842432	17	4257
2026-01-30 07:43:02.29	47.52	14.93	-28.0	-29.2	14.6	7.00e-07	0	42	0	560988160	17	4152
2026-01-30 07:43:03.29	47.32	14.95	-27.9	-29.0	14.8	0.00e+00	0	42	0	564133888	17	4096
2026-01-30 07:43:04.29	47.11	14.97	-27.9	-29.0	14.8	0.00e+00	0	42	0	567279616	17	4092
2026-01-30 07:43:05.30	46.90	15.00	-27.9	-29.1	14.7	0.00e+00	0	42	0	570425344	17	4113
2026-01-30 07:43:06.30	46.70	15.02	-28.0	-29.2	14.7	7.00e-07	0	42	0	573571072	17	4138
2026-01-30 07:43:07.31	46.49	15.04	-28.0	-29.2	14.6	7.00e-07	0	42	0	576716800	17	4148
2026-01-30 07:43:08.30	46.28	15.06	-27.9	-29.1	14.7	0.00e+00	0	43	0	578813952	17	4121
2026-01-30 07:43:09.30	46.07	15.08	-28.0	-29.3	14.6	0.00e+00	0	43	0	581959680	17	4175
2026-01-30 07:43:10.30	45.87	15.10	-28.1	-29.4	14.5	7.00e-07	0	42	0	585105408	17	4205
2026-01-30 07:43:11.29	45.66	15.13	-27.9	-29.1	14.7	0.00e+00	0	42	0	588251136	17	4117
2026-01-30 07:43:12.30	45.45	15.15	-28.0	-29.2	14.7	0.00e+00	0	42	0	591396864	17	4161
2026-01-30 07:43:13.30	45.24	15.17	-28.1	-29.5	14.5	7.00e-07	0	42	0	594542592	17	4229
2026-01-30 07:43:14.30	45.03	15.19	-28.0	-29.2	14.6	7.00e-07	0	42	0	597688320	17	4152
2026-01-30 07:43:15.31	44.82	15.20	-28.0	-29.2	14.7	0.00e+00	0	43	0	600834048	17	4138
2026-01-30 07:43:16.31	44.61	15.22	-28.0	-29.2	14.7	0.00e+00	0	43	0	603979776	17	4155
2026-01-30 07:43:17.32	44.40	15.24	-28.1	-29.4	14.6	7.00e-07	0	42	0	607125504	17	4201
2026-01-30 07:43:18.32	44.19	15.26	-28.2	-29.7	14.4	0.00e+00	0	42	0	610271232	17	4293
2026-01-30 07:43:19.33	43.97	15.28	-28.0	-29.2	14.7	7.00e-07	0	42	0	613416960	17	4157
2026-01-30 07:43:20.34	43.76	15.30	-27.9	-29.1	14.7	0.00e+00	0	43	0	616562688	17	4107
2026-01-30 07:43:21.34	43.55	15.31	-27.8	-28.9	14.9	0.00e+00	0	43	0	619708416	17	4052
2026-01-30 07:43:22.35	43.34	15.33	-27.8	-28.9	14.9	0.00e+00	0	42	0	622854144	17	4059
2026-01-30 07:43:23.35	43.12	15.35	-27.8	-29.3	14.9	0.00e+00	0	42	0	625999872	16	4275
2026-01-30 07:43:24.34	42.92	15.36	-27.8	-29.2	15.0	0.00e+00	0	43	0	629145600	16	4251
2026-01-30 07:43:25.34	42.70	15.38	-27.7	-29.1	15.0	0.00e+00	0	42	0	632291328	16	4211
2026-01-30 07:43:26.35	42.49	15.39	-27.7	-29.0	15.1	0.00e+00	0	42	0	635437056	16	4189
2026-01-30 07:43:27.35	42.28	15.41	-27.6	-28.9	15.1	0.00e+00	0	43	0	638582784	16	4171
2026-01-30 07:43:28.36	42.06	15.42	-27.8	-29.2	15.0	0.00e+00	0	42	0	641728512	16	4250
2026-01-30 07:43:29.36	41.85	15.43	-27.8	-29.4	14.9	0.00e+00	0	42	0	644874240	16	4298
2026-01-30 07:43:30.36	41.64	15.45	-27.8	-29.3	14.9	0.00e+00	0	43	0	648019968	16	4266
2026-01-30 07:43:31.37	41.42	15.46	-27.9	-29.5	14.8	0.00e+00	0	43	0	651165696	16	4337
2026-01-30 07:43:32.37	41.21	15.47	-28.0	-29.7	14.7	0.00e+00	0	43	0	654311424	16	4385
2026-01-30 07:43:33.38	40.99	15.49	-28.0	-29.9	14.6	0.00e+00	0	43	0	657457152	16	4437
2026-01-30 07:43:34.39	40.78	15.50	-28.0	-29.8	14.6	0.00e+00	0	43	0	660602880	16	4429
2026-01-30 07:43:35.39	40.56	15.51	-28.1	-30.0	14.5	1.50e-06	0	42	0	663748608	16	4477
2026-01-30 07:43:36.39	40.35	15.52	-28.0	-29.8	14.6	0.00e+00	0	42	0	666894336	16	4421
2026-01-30 07:43:37.39	40.13	15.53	-27.9	-29.5	14.8	0.00e+00	0	43	0	670040064	16	4341
2026-01-30 07:43:38.39	39.92	15.54	-27.9	-29.5	14.8	0.00e+00	0	43	0	673185792	16	4342
2026-01-30 07:43:39.39	39.71	15.55	-27.9	-29.5	14.8	0.00e+00	0	43	0	676331520	16	4334
2026-01-30 07:43:40.39	39.49	15.56	-27.9	-29.5	14.8	0.00e+00	0	43	0	679477248	16	4333
2026-01-30 07:43:41.39	39.28	15.57	-27.8	-29.4	14.9	0.00e+00	0	42	0	682622976	16	4300
2026-01-30 07:43:42.40	39.06	15.58	-27.9	-29.4	14.9	0.00e+00	0	43	0	685768704	16	4321
2026-01-30 07:43:43.40	38.84	15.59	-27.9	-29.5	14.8	0.00e+00	0	43	0	688914432	16	4323
2026-01-30 07:43:44.40	38.63	15.59	-28.0	-29.7	14.7	7.00e-07	0	42	0	692060160	16	4396
2026-01-30 07:43:45.41	38.41	15.60	-28.0	-29.7	14.7	0.00e+00	0	43	0	695205888	16	4385
2026-01-30 07:43:46.41	38.20	15.61	-28.0	-29.8	14.6	0.00e+00	0	43	0	698351616	16	4416
2026-01-30 07:43:47.42	37.98	15.62	-28.0	-29.8	14.7	0.00e+00	0	42	0	701497344	16	4418
2026-01-30 07:43:48.42	37.76	15.62	-28.0	-29.8	14.7	0.00e+00	0	43	0	704643072	16	4416
2026-01-30 07:43:49.43	37.55	15.63	-28.0	-29.8	14.6	0.00e+00	0	43	0	707788800	16	4422
2026-01-30 07:43:50.44	37.33	15.63	-28.0	-29.9	14.6	0.00e+00	0	43	0	710934528	16	4440
2026-01-30 07:43:51.44	37.11	15.64	-28.1	-30.0	14.5	7.00e-07	0	42	0	714080256	16	4485
2026-01-30 07:43:52.45	36.89	15.64	-28.1	-30.0	14.5	7.00e-07	0	42	0	717225984	16	4487
2026-01-30 07:43:53.44	36.68	15.65	-28.1	-30.0	14.6	7.00e-07	0	43	0	720371712	16	4468
2026-01-30 07:43:54.45	36.46	15.65	-28.0	-29.9	14.6	0.00e+00	0	43	0	723517440	16	4435
2026-01-30 07:43:55.45	36.25	15.65	-28.1	-29.9	14.6	0.00e+00	0	43	0	726663168	16	4449
2026-01-30 07:43:56.45	36.03	15.66	-28.1	-30.0	14.6	7.00e-07	0	43	0	729808896	16	4468
2026-01-30 07:43:57.45	35.81	15.66	-28.1	-29.9	14.6	7.00e-07	0	43	0	732954624	16	4453
2026-01-30 07:43:58.46	35.60	15.66	-28.1	-29.9	14.6	7.00e-07	0	43	0	736100352	16	4461
2026-01-30 07:43:59.46	35.38	15.66	-28.1	-30.0	14.5	0.00e+00	0	43	0	739246080	16	4469
2026-01-30 07:44:00.46	35.16	15.66	-28.1	-30.1	14.5	0.00e+00	0	43	0	742391808	16	4497
2026-01-30 07:44:01.46	34.95	15.67	-28.1	-30.1	14.5	0.00e+00	0	43	0	745537536	16	4495
2026-01-30 07:44:02.46	34.73	15.67	-28.2	-30.2	14.4	1.50e-06	0	43	0	748683264	16	4524
2026-01-30 07:44:03.46	34.52	15.67	-28.2	-30.2	14.4	1.50e-06	0	42	0	751828992	16	4544
2026-01-30 07:44:04.47	34.30	15.67	-28.3	-30.4	14.3	1.50e-06	0	43	0	754974720	16	4584
2026-01-30 07:44:05.48	34.08	15.66	-28.2	-30.3	14.4	1.50e-06	0	43	0	758120448	16	4567
2026-01-30 07:44:06.47	33.87	15.66	-28.0	-29.8	14.7	0.00e+00	0	43	0	761266176	16	4419
2026-01-30 07:44:07.48	33.65	15.66	-28.0	-29.7	14.8	0.00e+00	0	43	0	764411904	16	4378
2026-01-30 07:44:08.48	33.43	15.66	-27.9	-29.6	14.8	0.00e+00	0	43	0	767557632	16	4356
2026-01-30 07:44:09.48	33.22	15.66	-27.9	-29.5	14.8	0.00e+00	0	43	0	770703360	16	4341
2026-01-30 07:44:10.48	33.00	15.65	-27.9	-29.5	14.8	0.00e+00	0	43	0	773849088	16	4344
2026-01-30 07:44:11.49	32.78	15.65	-27.9	-29.5	14.8	0.00e+00	0	43	0	776994816	16	4324
2026-01-30 07:44:12.49	32.57	15.65	-27.9	-29.5	14.8	0.00e+00	0	43	0	780140544	16	4338
2026-01-30 07:44:13.49	32.35	15.64	-27.9	-29.6	14.8	0.00e+00	0	42	0	783286272	16	4357
2026-01-30 07:44:14.49	32.13	15.64	-27.9	-29.6	14.8	0.00e+00	0	43	0	786432000	16	4353
2026-01-30 07:44:15.49	31.92	15.63	-27.9	-29.6	14.8	0.00e+00	0	43	0	789577728	16	4363
2026-01-30 07:44:16.49	31.70	15.63	-28.0	-29.7	14.7	0.00e+00	0	43	0	792723456	16	4390
2026-01-30 07:44:17.50	31.48	15.62	-28.0	-29.7	14.7	0.00e+00	0	43	0	795869184	16	4378
2026-01-30 07:44:18.50	31.27	15.62	-28.1	-30.0	14.5	0.00e+00	0	43	0	799014912	16	4466
2026-01-30 07:44:19.50	31.05	15.61	-28.2	-30.2	14.4	1.50e-06	0	43	0	802160640	16	4532
2026-01-30 07:44:20.51	30.84	15.60	-28.0	-29.9	14.6	7.00e-07	0	43	0	805306368	16	4439
2026-01-30 07:44:21.52	30.62	15.60	-28.0	-29.7	14.7	0.00e+00	0	43	0	808452096	16	4389
2026-01-30 07:44:22.52	30.40	15.59	-27.9	-29.5	14.8	0.00e+00	0	43	0	811597824	16	4332
2026-01-30 07:44:23.53	30.19	15.58	-27.9	-29.4	14.8	0.00e+00	0	43	0	814743552	16	4313
2026-01-30 07:44:24.53	29.97	15.57	-28.0	-29.8	14.7	0.00e+00	0	43	0	817889280	16	4404
2026-01-30 07:44:25.54	29.76	15.56	-28.0	-29.6	14.7	0.00e+00	0	43	0	821035008	16	4371
2026-01-30 07:44:26.54	29.54	15.55	-27.8	-29.2	15.0	0.00e+00	0	43	0	824180736	16	4258
2026-01-30 07:44:27.54	29.33	15.54	-27.7	-29.1	15.1	0.00e+00	0	43	0	827326464	16	4210
2026-01-30 07:44:28.55	29.11	15.53	-27.7	-29.1	15.0	0.00e+00	0	42	0	830472192	16	4228
2026-01-30 07:44:29.54	28.90	15.52	-27.7	-29.1	15.0	0.00e+00	0	43	0	833617920	16	4233
2026-01-30 07:44:30.54	28.68	15.51	-27.7	-29.1	15.0	0.00e+00	0	43	0	836763648	16	4216
2026-01-30 07:44:31.55	28.47	15.50	-27.8	-29.3	14.9	0.00e+00	0	43	0	839909376	16	4288
2026-01-30 07:44:32.55	28.26	15.49	-27.8	-29.3	14.9	7.00e-07	0	43	0	843055104	16	4279
2026-01-30 07:44:33.55	28.04	15.48	-27.8	-29.3	14.9	0.00e+00	0	43	0	846200832	16	4274
2026-01-30 07:44:34.56	27.83	15.46	-27.9	-29.5	14.8	0.00e+00	0	43	0	849346560	16	4340
2026-01-30 07:44:35.58	27.61	15.45	-27.9	-29.5	14.8	0.00e+00	0	42	0	852492288	16	4332
2026-01-30 07:44:36.58	27.40	15.44	-27.9	-29.6	14.8	1.50e-06	0	43	0	854589440	16	4354
2026-01-30 07:44:37.59	27.18	15.42	-27.9	-29.5	14.8	0.00e+00	0	43	0	857735168	16	4339
2026-01-30 07:44:38.60	26.97	15.41	-27.8	-29.3	14.9	0.00e+00	0	43	0	861929472	16	4294
2026-01-30 07:44:39.60	26.76	15.39	-27.8	-29.4	14.9	0.00e+00	0	43	0	865075200	16	4305
2026-01-30 07:44:40.61	26.54	15.38	-27.8	-29.3	14.9	0.00e+00	0	43	0	868220928	16	4271
2026-01-30 07:44:41.61	26.33	15.36	-27.7	-29.0	15.1	0.00e+00	0	42	0	871366656	16	4198
2026-01-30 07:44:42.61	26.12	15.35	-27.7	-29.0	15.1	0.00e+00	0	43	0	874512384	16	4183
2026-01-30 07:44:43.61	25.91	15.33	-27.7	-29.1	15.0	0.00e+00	0	43	0	877658112	16	4211
2026-01-30 07:44:44.61	25.70	15.31	-27.7	-29.1	15.0	0.00e+00	0	43	0	879755264	16	4224
2026-01-30 07:44:45.61	25.48	15.30	-27.8	-29.3	15.0	0.00e+00	0	43	0	882900992	16	4271
2026-01-30 07:44:46.61	25.27	15.28	-27.9	-29.5	14.8	0.00e+00	0	43	0	886046720	16	4344
2026-01-30 07:44:47.61	25.06	15.26	-27.9	-29.6	14.7	7.00e-07	0	43	0	889192448	16	4367
2026-01-30 07:44:48.61	24.85	15.24	-27.9	-29.6	14.7	0.00e+00	0	43	0	892338176	16	4371
2026-01-30 07:44:49.61	24.64	15.23	-28.0	-29.8	14.6	0.00e+00	0	43	0	895483904	16	4404
2026-01-30 07:44:50.62	24.43	15.21	-27.9	-29.6	14.7	0.00e+00	0	43	0	898629632	16	4357
2026-01-30 07:44:51.62	24.22	15.19	-27.8	-29.3	14.9	0.00e+00	0	43	0	901775360	16	4276
2026-01-30 07:44:52.63	24.01	15.17	-27.9	-29.5	14.8	0.00e+00	0	43	0	904921088	16	4323
2026-01-30 07:44:53.64	23.80	15.15	-27.9	-29.5	14.8	7.00e-07	0	43	0	908066816	16	4323
2026-01-30 07:44:54.65	23.59	15.13	-27.8	-29.3	14.9	0.00e+00	0	43	0	911212544	16	4273
2026-01-30 07:44:55.65	23.38	15.11	-27.8	-29.3	14.9	7.00e-07	0	43	0	914358272	16	4293
2026-01-30 07:44:56.66	23.17	15.09	-27.8	-29.2	14.9	0.00e+00	0	43	0	917504000	16	4253
2026-01-30 07:44:57.66	22.97	15.07	-27.8	-29.4	14.8	0.00e+00	0	43	0	920649728	16	4297
2026-01-30 07:44:58.66	22.76	15.04	-27.8	-29.3	14.9	0.00e+00	0	43	0	923795456	16	4290
2026-01-30 07:44:59.66	22.55	15.02	-27.7	-29.1	15.0	0.00e+00	0	43	0	926941184	16	4218
2026-01-30 07:45:00.65	22.35	15.00	-27.8	-29.4	14.8	0.00e+00	0	43	0	930086912	16	4296
2026-01-30 07:45:01.66	22.14	14.98	-27.9	-29.5	14.8	0.00e+00	0	43	0	933232640	16	4340
2026-01-30 07:45:02.67	21.93	14.95	-27.9	-29.5	14.7	0.00e+00	0	43	0	936378368	16	4348
2026-01-30 07:45:03.67	21.72	14.93	-28.0	-29.8	14.6	1.50e-06	0	43	0	939524096	16	4413
2026-01-30 07:45:04.67	21.52	14.91	-28.0	-29.8	14.6	0.00e+00	0	43	0	942669824	16	4413
2026-01-30 07:45:05.68	21.31	14.88	-28.0	-29.9	14.6	0.00e+00	0	43	0	945815552	16	4441
2026-01-30 07:45:06.68	21.11	14.86	-28.0	-29.7	14.6	0.00e+00	0	43	0	948961280	16	4401
2026-01-30 07:45:07.69	20.90	14.83	-27.9	-29.6	14.7	0.00e+00	0	43	0	952107008	16	4377
2026-01-30 07:45:08.70	20.70	14.81	-27.9	-29.6	14.7	7.00e-07	0	43	0	955252736	16	4362
2026-01-30 07:45:09.69	20.49	14.78	-27.8	-29.4	14.8	0.00e+00	0	43	0	958398464	16	4306
2026-01-30 07:45:10.69	20.29	14.76	-27.9	-29.4	14.8	0.00e+00	0	43	0	961544192	16	4320
2026-01-30 07:45:11.69	20.09	14.73	-27.8	-29.3	14.9	0.00e+00	0	43	0	964689920	16	4283
2026-01-30 07:45:12.70	19.88	14.70	-27.8	-29.3	14.8	0.00e+00	0	43	0	967835648	16	4286
2026-01-30 07:45:13.71	19.68	14.68	-27.9	-29.6	14.7	1.50e-06	0	43	0	970981376	16	4369
2026-01-30 07:45:14.71	19.48	14.65	-28.0	-29.7	14.6	0.00e+00	0	43	0	974127104	16	4379
2026-01-30 07:45:15.72	19.27	14.62	-28.0	-29.8	14.6	1.50e-06	0	43	0	977272832	16	4421
2026-01-30 07:45:16.72	19.07	14.59	-28.1	-30.0	14.5	0.00e+00	0	43	0	980418560	16	4478
2026-01-30 07:45:17.72	18.87	14.56	-28.1	-30.1	14.4	7.00e-07	0	43	0	983564288	16	4517
2026-01-30 07:45:18.72	18.67	14.54	-28.1	-30.0	14.4	0.00e+00	0	43	0	986710016	16	4496
2026-01-30 07:45:19.72	18.47	14.51	-28.0	-29.8	14.6	0.00e+00	0	43	0	989855744	16	4437
2026-01-30 07:45:20.72	18.27	14.48	-28.1	-30.0	14.5	7.00e-07	0	43	0	993001472	16	4476
2026-01-30 07:45:21.73	18.07	14.45	-28.1	-30.0	14.5	0.00e+00	0	43	0	996147200	16	4473
2026-01-30 07:45:22.73	17.87	14.42	-28.0	-29.9	14.5	1.50e-06	0	43	0	999292928	16	4452
2026-01-30 07:45:23.73	17.67	14.39	-28.0	-29.8	14.6	0.00e+00	0	43	0	1002438656	16	4408
2026-01-30 07:45:24.73	17.48	14.36	-28.0	-29.9	14.5	1.50e-06	0	43	0	1005584384	16	4441
2026-01-30 07:45:25.73	17.28	14.33	-28.0	-29.8	14.5	7.00e-07	0	43	0	1008730112	16	4439
2026-01-30 07:45:26.73	17.08	14.30	-27.9	-29.5	14.7	0.00e+00	0	43	0	1011875840	16	4331
2026-01-30 07:45:27.74	16.88	14.27	-27.8	-29.3	14.8	7.00e-07	0	43	0	1015021568	16	4290
2026-01-30 07:45:28.74	16.69	14.23	-27.9	-29.6	14.7	0.00e+00	0	43	0	1018167296	16	4350
2026-01-30 07:45:29.75	16.49	14.20	-27.9	-29.5	14.7	0.00e+00	0	43	0	1021313024	16	4332
2026-01-30 07:45:30.75	16.30	14.17	-27.9	-29.5	14.7	0.00e+00	0	43	0	1024458752	16	4334
2026-01-30 07:45:31.76	16.10	14.14	-27.9	-29.5	14.7	0.00e+00	0	43	0	1027604480	16	4342
2026-01-30 07:45:32.76	15.90	14.10	-27.9	-29.6	14.7	0.00e+00	0	43	0	1030750208	16	4360
2026-01-30 07:45:33.77	15.71	14.07	-28.0	-29.8	14.5	0.00e+00	0	43	0	1033895936	16	4423
2026-01-30 07:45:34.77	15.51	14.04	-28.0	-29.8	14.5	0.00e+00	0	43	0	1037041664	16	4431
2026-01-30 07:45:35.78	15.32	14.00	-28.1	-30.0	14.4	7.00e-07	0	43	0	1040187392	16	4482
2026-01-30 07:45:36.78	15.13	13.97	-28.2	-30.2	14.3	1.50e-06	0	43	0	1043333120	16	4556
2026-01-30 07:45:37.77	14.94	13.94	-28.2	-30.3	14.3	2.20e-06	0	43	0	1046478848	16	4561
2026-01-30 07:45:38.78	14.74	13.90	-28.2	-30.1	14.4	1.50e-06	0	43	0	1049624576	16	4525
2026-01-30 07:45:39.78	14.55	13.87	-28.3	-30.4	14.2	7.00e-07	0	43	0	1052770304	16	4612
2026-01-30 07:45:40.79	14.36	13.83	-28.2	-30.2	14.3	1.50e-06	0	43	0	1055916032	16	4553
2026-01-30 07:45:41.79	14.17	13.80	-28.1	-30.1	14.4	0.00e+00	0	43	0	1059061760	16	4503
2026-01-30 07:45:42.80	13.98	13.76	-28.1	-30.0	14.4	0.00e+00	0	43	0	1062207488	16	4492
2026-01-30 07:45:43.80	13.79	13.73	-28.0	-29.8	14.5	0.00e+00	0	43	0	1065353216	16	4435
2026-01-30 07:45:44.81	13.60	13.69	-28.1	-30.0	14.4	0.00e+00	0	43	0	1068498944	16	4475
2026-01-30 07:45:45.81	13.41	13.65	-28.0	-29.8	14.5	0.00e+00	0	43	0	1071644672	16	4436
2026-01-30 07:45:46.81	13.22	13.62	-28.0	-29.7	14.6	7.00e-07	0	43	0	1074790400	16	4398
2026-01-30 07:45:47.81	13.03	13.58	-28.0	-29.8	14.5	0.00e+00	0	43	0	1077936128	16	4434
2026-01-30 07:45:48.81	12.85	13.54	-28.1	-30.0	14.4	0.00e+00	0	43	0	1081081856	16	4487
2026-01-30 07:45:49.82	12.66	13.51	-28.0	-29.8	14.5	7.00e-07	0	43	0	1084227584	16	4419
2026-01-30 07:45:50.82	12.47	13.47	-28.0	-29.8	14.5	0.00e+00	0	43	0	1087373312	16	4423
2026-01-30 07:45:51.82	12.29	13.43	-28.1	-29.9	14.4	0.00e+00	0	43	0	1090519040	16	4464
2026-01-30 07:45:52.83	12.10	13.39	-28.0	-29.7	14.5	0.00e+00	0	43	0	1093664768	16	4393
2026-01-30 07:45:53.84	11.91	13.35	-27.9	-29.7	14.5	7.00e-07	0	43	0	1096810496	16	4388
2026-01-30 07:45:54.85	11.73	13.31	-27.9	-29.5	14.6	7.00e-07	0	43	0	1099956224	16	4342
2026-01-30 07:45:55.86	11.54	13.28	-27.9	-29.5	14.6	7.00e-07	0	43	0	1103101952	16	4342
2026-01-30 07:45:56.86	11.36	13.24	-28.1	-30.0	14.4	1.50e-06	0	43	0	1106247680	16	4482
2026-01-30 07:45:57.85	11.18	13.20	-28.2	-30.3	14.2	4.50e-06	0	43	0	1109393408	16	4583
2026-01-30 07:45:58.86	10.99	13.16	-28.2	-30.2	14.2	1.50e-06	0	43	0	1112539136	16	4562
2026-01-30 07:45:59.86	10.81	13.12	-28.3	-30.5	14.1	6.10e-06	0	43	0	1115684864	16	4637
2026-01-30 07:46:00.85	10.63	13.08	-28.2	-30.3	14.2	1.50e-06	0	43	0	1118830592	16	4584
2026-01-30 07:46:01.85	10.45	13.04	-28.1	-30.1	14.3	0.00e+00	0	43	0	1121976320	16	4517
2026-01-30 07:46:02.86	10.27	13.00	-28.1	-30.0	14.3	7.00e-07	0	43	0	1125122048	16	4486
2026-01-30 07:46:03.86	10.09	12.96	-28.1	-30.0	14.3	7.00e-07	0	43	0	1128267776	16	4485
2026-01-30 07:46:04.86	9.91	12.92	-28.0	-29.9	14.4	0.00e+00	0	43	0	1131413504	16	4454
2026-01-30 07:46:05.86	9.73	12.88	-28.2	-30.3	14.1	0.00e+00	0	43	0	1134559232	16	4578
2026-01-30 07:46:06.87	9.55	12.84	-28.0	-29.9	14.4	1.50e-06	0	43	0	1137704960	16	4443
2026-01-30 07:46:07.87	9.37	12.79	-27.9	-29.5	14.6	7.00e-07	0	43	0	1140850688	16	4347
2026-01-30 07:46:08.88	9.19	12.75	-27.8	-29.4	14.6	3.00e-06	0	43	0	1143996416	16	4321
2026-01-30 07:46:09.88	9.02	12.71	-27.9	-29.6	14.6	1.50e-06	0	43	0	1147142144	16	4374
2026-01-30 07:46:10.88	8.84	12.67	-28.0	-29.8	14.4	0.00e+00	0	43	0	1150287872	16	4435
2026-01-30 07:46:11.89	8.66	12.63	-28.1	-30.0	14.3	0.00e+00	0	43	0	1153433600	16	4491
2026-01-30 07:46:12.88	8.49	12.58	-28.3	-30.4	14.1	2.20e-06	0	43	0	1155530752	16	4612
2026-01-30 07:46:13.89	8.31	12.54	-28.3	-30.4	14.1	3.00e-06	0	43	0	1158676480	16	4617
2026-01-30 07:46:14.89	8.14	12.50	-28.3	-30.4	14.1	1.50e-06	0	43	0	1161822208	16	4607
2026-01-30 07:46:15.89	7.97	12.46	-28.2	-30.4	14.1	1.50e-06	0	43	0	1164967936	16	4599
2026-01-30 07:46:16.89	7.79	12.41	-28.3	-30.6	14.0	3.00e-06	0	43	0	1168113664	16	4663
2026-01-30 07:46:17.89	7.62	12.37	-28.3	-30.4	14.0	4.50e-06	0	43	0	1171259392	16	4622
2026-01-30 07:46:18.89	7.45	12.33	-28.3	-30.6	14.0	1.50e-06	0	43	0	1174405120	16	4667
2026-01-30 07:46:19.90	7.28	12.28	-28.2	-30.3	14.1	3.80e-06	0	43	0	1177550848	16	4576
2026-01-30 07:46:20.90	7.10	12.24	-28.2	-30.2	14.2	1.50e-06	0	43	0	1180696576	16	4565
2026-01-30 07:46:21.90	6.93	12.20	-28.2	-30.3	14.1	7.00e-07	0	43	0	1183842304	16	4570
2026-01-30 07:46:22.90	6.76	12.15	-28.4	-30.7	13.9	6.10e-06	0	43	0	1186988032	16	4719
2026-01-30 07:46:23.91	6.59	12.11	-28.3	-30.5	14.0	1.50e-06	0	43	0	1190133760	16	4650
2026-01-30 07:46:24.91	6.42	12.06	-28.3	-30.5	14.0	2.20e-06	0	43	0	1193279488	16	4658
2026-01-30 07:46:25.91	6.26	12.02	-28.4	-30.8	13.8	3.80e-06	0	43	0	1196425216	16	4742
2026-01-30 07:46:26.90	6.09	11.97	-28.4	-30.8	13.8	6.80e-06	0	43	0	1199570944	16	4752
2026-01-30 07:46:27.91	5.92	11.93	-28.5	-30.6	13.6	7.60e-06	0	43	0	1202716672	17	4567
2026-01-30 07:46:28.91	5.75	11.88	-28.6	-30.9	13.5	6.80e-06	0	43	0	1205862400	17	4654
2026-01-30 07:46:29.91	5.59	11.84	-28.6	-30.7	13.6	1.06e-05	0	43	0	1209008128	17	4599
2026-01-30 07:46:30.92	5.42	11.79	-28.6	-30.9	13.4	1.14e-05	0	43	0	1212153856	17	4648
2026-01-30 07:46:31.93	5.25	11.75	-28.5	-30.4	13.7	1.29e-05	0	43	0	1215299584	17	4518
2026-01-30 07:46:32.93	5.09	11.70	-28.4	-30.3	13.8	3.80e-06	0	43	0	1218445312	17	4466
2026-01-30 07:46:33.94	4.92	11.66	-28.4	-30.2	13.8	6.80e-06	0	43	0	1221591040	17	4453
2026-01-30 07:46:34.94	4.76	11.61	-28.3	-30.1	13.9	4.50e-06	0	43	0	1224736768	17	4413
2026-01-30 07:46:35.95	4.59	11.56	-28.3	-30.1	13.9	3.00e-06	0	43	0	1227882496	17	4418
2026-01-30 07:46:36.95	4.43	11.52	-28.4	-30.3	13.7	2.20e-06	0	43	0	1231028224	17	4470
2026-01-30 07:46:37.96	4.27	11.47	-28.6	-30.9	13.4	1.22e-05	0	43	0	1234173952	17	4647
2026-01-30 07:46:38.96	4.11	11.42	-28.5	-30.6	13.6	7.60e-06	0	43	0	1237319680	17	4561
2026-01-30 07:46:39.96	3.94	11.38	-28.5	-30.6	13.6	6.80e-06	0	43	0	1240465408	17	4560
2026-01-30 07:46:40.97	3.78	11.33	-28.5	-30.6	13.5	9.90e-06	0	43	0	1243611136	17	4578
2026-01-30 07:46:41.97	3.62	11.28	-28.5	-30.6	13.6	6.80e-06	0	43	0	1246756864	17	4562
2026-01-30 07:46:42.98	3.46	11.24	-28.5	-30.7	13.5	1.14e-05	0	43	0	1249902592	17	4597
2026-01-30 07:46:43.98	3.30	11.19	-28.6	-30.8	13.4	9.10e-06	0	43	0	1253048320	17	4627
2026-01-30 07:46:44.98	3.14	11.14	-28.6	-30.8	13.4	1.06e-05	0	43	0	1256194048	17	4636
2026-01-30 07:46:45.98	2.99	11.09	-28.8	-31.2	13.2	2.05e-05	0	43	0	1259339776	17	4759
2026-01-30 07:46:46.98	2.83	11.05	-28.7	-31.1	13.2	2.05e-05	0	43	0	1262485504	17	4743
2026-01-30 07:46:47.99	2.67	11.00	-28.9	-31.6	12.9	4.27e-05	0	43	0	1265631232	17	4885
2026-01-30 07:46:49.00	2.51	10.95	-28.8	-31.3	13.1	3.43e-05	0	43	0	1268776960	17	4792
2026-01-30 07:46:50.00	2.36	10.90	-28.8	-31.3	13.1	2.67e-05	0	43	0	1271922688	17	4790
2026-01-30 07:46:51.00	2.20	10.85	-28.8	-31.4	13.0	3.89e-05	0	43	0	1275068416	17	4833
2026-01-30 07:46:52.01	2.04	10.81	-28.9	-31.6	12.9	4.80e-05	0	43	0	1278214144	17	4900
2026-01-30 07:46:53.02	1.89	10.76	-28.8	-31.3	13.0	4.04e-05	0	43	0	1281359872	17	4805
2026-01-30 07:46:54.02	1.73	10.71	-28.8	-31.2	13.1	3.58e-05	0	43	0	1284505600	17	4772
2026-01-30 07:46:55.02	1.58	10.66	-28.7	-31.0	13.2	2.13e-05	0	43	0	1287651328	17	4714
2026-01-30 07:46:56.03	1.43	10.61	-28.7	-31.1	13.2	2.28e-05	0	43	0	1290797056	17	4736
2026-01-30 07:46:57.04	1.27	10.56	-28.6	-30.8	13.3	2.21e-05	0	43	0	1293942784	17	4627
2026-01-30 07:46:58.05	1.12	10.51	-28.7	-31.1	13.1	2.28e-05	0	43	0	1297088512	17	4726
2026-01-30 07:46:59.05	0.97	10.46	-28.5	-30.7	13.4	2.13e-05	0	43	0	1300234240	17	4592
2026-01-30 07:47:00.05	0.82	10.42	-28.5	-30.6	13.5	9.10e-06	0	43	0	1303379968	17	4578
2026-01-30 07:47:01.06	0.67	10.37	-28.6	-30.7	13.4	9.10e-06	0	43	0	1306525696	17	4614
2026-01-30 07:47:02.06	0.52	10.32	-28.4	-30.4	13.6	6.10e-06	0	43	0	1309671424	17	4506
2026-01-30 07:47:03.07	0.37	10.27	-28.5	-30.6	13.5	8.30e-06	0	43	0	1312817152	17	4564
2026-01-30 07:47:04.08	0.22	10.22	-28.5	-30.6	13.5	1.06e-05	0	43	0	1315962880	17	4569
2026-01-30 07:47:05.08	0.07	10.17	-28.6	-30.8	13.3	9.10e-06	0	43	0	1319108608	17	4649
2026-01-30 07:47:06.09	359.92	10.12	-28.5	-30.6	13.4	1.90e-05	0	43	0	1322254336	17	4593
2026-01-30 07:47:07.10	359.77	10.07	-28.6	-30.8	13.3	1.44e-05	0	43	0	1325400064	17	4642
2026-01-30 07:47:08.10	359.62	10.02	-28.8	-31.3	13.0	3.35e-05	0	43	0	1328545792	17	4798
2026-01-30 07:47:09.10	359.48	9.97	-28.7	-31.0	13.2	3.43e-05	0	43	0	1331691520	17	4706
2026-01-30 07:47:10.10	359.33	9.92	-28.8	-31.2	13.1	4.11e-05	0	43	0	1334837248	17	4767
2026-01-30 07:47:11.11	359.19	9.87	-28.8	-31.4	12.9	4.04e-05	0	43	0	1337982976	17	4829
2026-01-30 07:47:12.12	359.04	9.82	-29.0	-31.7	12.7	7.70e-05	0	43	0	1341128704	17	4951
2026-01-30 07:47:13.11	358.90	9.77	-28.9	-31.6	12.8	4.80e-05	0	43	0	1344274432	17	4897
2026-01-30 07:47:14.12	358.75	9.72	-28.9	-31.5	12.8	6.10e-05	0	43	0	1347420160	17	4868
2026-01-30 07:47:15.12	358.61	9.67	-29.0	-31.7	12.7	5.95e-05	0	43	0	1350565888	17	4938
2026-01-30 07:47:16.13	358.47	9.62	-28.9	-31.7	12.7	6.40e-05	0	43	0	1353711616	17	4931
2026-01-30 07:47:17.13	358.32	9.57	-29.1	-31.7	12.4	1.38e-04	0	43	0	1356857344	18	4819
2026-01-30 07:47:18.13	358.18	9.52	-28.9	-31.1	12.8	5.79e-05	0	43	0	1360003072	18	4634
2026-01-30 07:47:19.13	358.04	9.47	-28.8	-30.9	13.0	4.65e-05	0	43	0	1363148800	18	4554
2026-01-30 07:47:20.12	357.90	9.42	-28.8	-30.7	13.0	4.04e-05	0	43	0	1366294528	18	4505
2026-01-30 07:47:21.12	357.76	9.37	-28.9	-31.0	12.8	4.57e-05	0	43	0	1369440256	18	4609
2026-01-30 07:47:22.12	357.62	9.32	-28.8	-30.8	13.0	4.27e-05	0	43	0	1372585984	18	4525
2026-01-30 07:47:23.13	357.48	9.26	-28.8	-30.7	13.0	2.67e-05	0	43	0	1375731712	18	4505
2026-01-30 07:47:24.13	357.34	9.21	-28.8	-30.8	12.9	4.95e-05	0	43	0	1378877440	18	4543
2026-01-30 07:47:25.14	357.20	9.16	-28.9	-31.1	12.7	5.87e-05	0	43	0	1382023168	18	4647
2026-01-30 07:47:26.14	357.07	9.11	-28.7	-30.7	13.0	4.73e-05	0	43	0	1385168896	18	4501
2026-01-30 07:47:27.15	356.93	9.06	-28.6	-30.4	13.2	2.82e-05	0	43	0	1388314624	18	4410
2026-01-30 07:47:28.15	356.79	9.01	-28.6	-30.3	13.3	1.98e-05	0	43	0	1391460352	18	4383
2026-01-30 07:47:29.16	356.65	8.96	-28.6	-30.4	13.2	2.36e-05	0	43	0	1394606080	18	4415
2026-01-30 07:47:30.16	356.52	8.91	-28.5	-30.1	13.4	2.36e-05	0	43	0	1397751808	18	4315
2026-01-30 07:47:31.16	356.38	8.86	-28.5	-30.1	13.4	1.83e-05	0	43	0	1400897536	18	4316
2026-01-30 07:47:32.17	356.25	8.80	-28.5	-30.2	13.3	1.52e-05	0	43	0	1404043264	18	4342
2026-01-30 07:47:33.17	356.11	8.75	-28.6	-30.2	13.3	1.98e-05	0	43	0	1407188992	18	4366
2026-01-30 07:47:34.17	355.98	8.70	-28.7	-30.5	13.1	2.51e-05	0	43	0	1410334720	18	4447
2026-01-30 07:47:35.18	355.85	8.65	-28.7	-30.5	13.0	3.05e-05	0	43	0	1413480448	18	4443
2026-01-30 07:47:36.18	355.71	8.60	-28.7	-30.6	13.0	4.04e-05	0	43	0	1416626176	18	4489
2026-01-30 07:47:37.18	355.58	8.55	-28.8	-30.8	12.9	4.19e-05	0	43	0	1419771904	18	4531
2026-01-30 07:47:38.19	355.45	8.49	-28.8	-30.7	12.9	4.50e-05	0	43	0	1422917632	18	4519
2026-01-30 07:47:39.19	355.32	8.44	-28.8	-30.8	12.8	4.42e-05	0	43	0	1426063360	18	4558
2026-01-30 07:47:40.19	355.19	8.39	-28.8	-30.9	12.8	6.02e-05	0	43	0	1429209088	18	4586
2026-01-30 07:47:41.19	355.05	8.34	-29.1	-31.5	12.4	1.53e-04	0	43	0	1432354816	18	4771
2026-01-30 07:47:42.20	354.92	8.29	-28.8	-31.0	12.7	7.47e-05	0	43	0	1435500544	18	4602
2026-01-30 07:47:43.19	354.80	8.24	-28.9	-31.1	12.6	9.53e-05	0	43	0	1438646272	18	4634
2026-01-30 07:47:44.19	354.67	8.19	-28.8	-30.9	12.7	7.62e-05	0	43	0	1441792000	18	4585
2026-01-30 07:47:45.20	354.54	8.13	-28.8	-30.9	12.8	5.11e-05	0	43	0	1444937728	18	4582
2026-01-30 07:47:46.20	354.41	8.08	-28.9	-31.2	12.5	8.85e-05	0	43	0	1448083456	18	4686
2026-01-30 07:47:47.20	354.28	8.03	-28.9	-31.0	12.6	8.46e-05	0	43	0	1451229184	18	4612
2026-01-30 07:47:48.21	354.15	7.98	-28.9	-31.1	12.6	9.15e-05	0	43	0	1454374912	18	4639
2026-01-30 07:47:49.21	354.03	7.93	-28.9	-31.1	12.6	7.62e-05	0	43	0	1457520640	18	4635
2026-01-30 07:47:50.22	353.90	7.87	-29.0	-31.3	12.5	1.20e-04	0	43	0	1460666368	18	4707
2026-01-30 07:47:51.22	353.77	7.82	-28.9	-31.1	12.6	8.77e-05	0	43	0	1463812096	18	4656
2026-01-30 07:47:52.22	353.65	7.77	-28.9	-31.1	12.6	1.05e-04	0	43	0	1466957824	18	4638
2026-01-30 07:47:53.22	353.52	7.72	-28.9	-31.0	12.6	1.01e-04	0	43	0	1470103552	18	4619
2026-01-30 07:47:54.22	353.40	7.67	-28.9	-31.3	12.4	1.17e-04	0	43	0	1473249280	18	4707
2026-01-30 07:47:55.23	353.28	7.61	-28.9	-31.1	12.5	1.07e-04	0	43	0	1476395008	18	4648
2026-01-30 07:47:56.23	353.15	7.56	-29.0	-31.4	12.4	1.52e-04	0	43	0	1478492160	18	4742
2026-01-30 07:47:57.23	353.03	7.51	-28.9	-31.1	12.5	1.10e-04	0	43	0	1481637888	18	4652
2026-01-30 07:47:58.24	352.91	7.46	-29.0	-31.5	12.3	1.42e-04	0	43	0	1484783616	18	4768
2026-01-30 07:47:59.24	352.78	7.40	-29.1	-31.7	12.1	2.43e-04	0	43	0	1487929344	18	4867
2026-01-30 07:48:00.24	352.66	7.35	-29.0	-31.4	12.3	1.87e-04	0	43	0	1491075072	18	4756
2026-01-30 07:48:01.24	352.54	7.30	-28.9	-31.1	12.5	1.05e-04	0	43	0	1494220800	18	4645
2026-01-30 07:48:02.25	352.42	7.25	-28.9	-31.2	12.4	1.46e-04	0	43	0	1497366528	18	4699
2026-01-30 07:48:03.25	352.30	7.20	-29.0	-31.4	12.3	1.47e-04	0	43	0	1500512256	18	4764
2026-01-30 07:48:04.25	352.18	7.14	-29.0	-31.5	12.3	2.10e-04	0	43	0	1503657984	18	4773
2026-01-30 07:48:05.25	352.06	7.09	-28.9	-31.2	12.4	1.50e-04	0	43	0	1506803712	18	4689
2026-01-30 07:48:06.26	351.94	7.04	-29.8	-33.1	11.1	9.84e-05	0	43	0	1509949440	19	5254
2026-01-30 07:48:07.26	351.82	6.99	-33.4	-45.6	3.8	1.49e+00	0	43	104	1510998016	26	14655

#Closed at: 2026-01-30 07:48:07
#Recorded file [1510 MB]: D:/data/31010_260130_104002.dat