passes_logs/2026/01/30/R2M6_AANII_01/R2M6_AANII_01__20260130_132336_AQUA_rec.log

#Pass ID: 20260130_132336_AQUA
#Satellite: AQUA
#Configuration: AQUA
#almurnet v.1.7.20240730
#Start time: 2026-01-30 13:23:37

#Version: 2.2.20231116
#Station: R2M6_AANII_01
#Location: 30.233357 lon 59.946436 lat
#TLE: 1 27424U 02022A   26029.54575153  .00001738  00000+0  35736-3 0  9994
#TLE: 2 27424  98.4104 356.2197 0001804  61.7823  56.0643 14.61874165263019

#Time	Az	El	Level	Level2	SNR	BER	BlckErr	Temp	State	Recorded	gain1	gain2
2026-01-30 13:23:37.48	205.99	7.06	-30.7	-36.2	5.2	7.08e-01	0	41	0	0	22	6793
2026-01-30 13:23:38.49	206.09	7.13	-31.5	-38.2	5.0	7.10e-01	0	41	104	0	24	7798
2026-01-30 13:23:39.51	206.19	7.21	-31.4	-37.4	13.6	6.05e-01	0	40	0	0	24	7104
2026-01-30 13:23:40.52	206.29	7.28	-31.5	-37.5	13.5	6.10e-01	0	41	0	1572864	24	7178
2026-01-30 13:23:41.53	206.39	7.35	-31.3	-36.5	14.3	6.07e-01	0	40	0	3670016	24	6568
2026-01-30 13:23:42.54	206.49	7.42	-31.1	-35.8	14.9	6.05e-01	0	41	0	5767168	24	6168
2026-01-30 13:23:43.55	206.59	7.49	-30.8	-35.2	15.7	6.05e-01	0	41	0	7340032	23	5958
2026-01-30 13:23:44.56	206.69	7.56	-30.6	-34.6	16.1	6.09e-01	0	41	0	9437184	23	5707
2026-01-30 13:23:45.57	206.79	7.64	-30.5	-34.1	16.5	6.08e-01	0	41	0	11010048	23	5447
2026-01-30 13:23:46.58	206.89	7.71	-30.3	-34.1	16.8	6.05e-01	0	41	0	13107200	22	5551
2026-01-30 13:23:47.59	206.99	7.78	-30.3	-34.1	16.9	6.07e-01	0	41	0	15204352	22	5554
2026-01-30 13:23:48.60	207.09	7.85	-30.5	-34.5	16.6	6.05e-01	0	41	0	16777216	22	5723
2026-01-30 13:23:49.61	207.20	7.93	-30.5	-34.5	16.6	6.08e-01	0	41	0	18874368	22	5708
2026-01-30 13:23:50.62	207.30	8.00	-30.2	-33.7	17.2	6.06e-01	0	41	0	20447232	22	5383
2026-01-30 13:23:51.63	207.41	8.07	-30.1	-33.2	17.5	6.07e-01	0	41	0	22544384	22	5188
2026-01-30 13:23:52.64	207.51	8.15	-30.0	-32.9	17.7	6.07e-01	0	41	0	24641536	22	5050
2026-01-30 13:23:53.65	207.62	8.22	-30.0	-32.9	17.8	6.05e-01	0	41	0	26214400	22	5058
2026-01-30 13:23:54.66	207.72	8.29	-29.9	-32.8	17.8	6.07e-01	0	41	0	28311552	22	5010
2026-01-30 13:23:55.67	207.83	8.37	-30.0	-33.1	17.7	6.08e-01	0	41	0	29884416	22	5107
2026-01-30 13:23:56.68	207.94	8.44	-30.0	-33.0	17.7	6.05e-01	0	41	0	31981568	22	5105
2026-01-30 13:23:57.69	208.04	8.52	-29.9	-32.8	17.9	6.05e-01	0	41	0	34078720	22	5005
2026-01-30 13:23:58.70	208.15	8.59	-29.8	-33.0	18.1	6.05e-01	0	41	0	35651584	21	5192
2026-01-30 13:23:59.71	208.26	8.67	-29.8	-32.9	18.2	6.08e-01	0	41	0	37748736	21	5136
2026-01-30 13:24:00.72	208.37	8.74	-29.8	-33.1	18.0	6.05e-01	0	41	0	39321600	21	5209
2026-01-30 13:24:01.73	208.48	8.82	-29.9	-33.2	18.0	6.08e-01	0	41	0	41418752	21	5255
2026-01-30 13:24:02.74	208.59	8.89	-29.8	-33.0	18.1	6.07e-01	0	41	0	43515904	21	5190
2026-01-30 13:24:03.75	208.70	8.97	-29.8	-32.9	18.2	6.05e-01	0	41	0	45088768	21	5142
2026-01-30 13:24:04.76	208.81	9.04	-29.8	-32.8	18.2	6.07e-01	0	41	0	47185920	21	5107
2026-01-30 13:24:05.77	208.93	9.12	-29.8	-33.0	18.1	6.09e-01	0	41	0	49283072	21	5171
2026-01-30 13:24:06.78	209.04	9.19	-29.8	-32.9	18.2	6.05e-01	0	41	0	50855936	21	5137
2026-01-30 13:24:07.79	209.15	9.27	-29.9	-33.1	18.1	6.05e-01	0	41	0	52953088	21	5212
2026-01-30 13:24:08.80	209.27	9.34	-29.8	-32.9	18.2	6.07e-01	0	41	0	54525952	21	5126
2026-01-30 13:24:09.81	209.38	9.42	-29.7	-32.5	18.4	6.08e-01	0	41	0	56623104	21	4998
2026-01-30 13:24:10.82	209.50	9.50	-29.6	-32.4	18.6	6.07e-01	0	41	0	58720256	21	4950
2026-01-30 13:24:11.84	209.61	9.57	-29.6	-32.4	18.5	6.05e-01	0	41	0	60293120	21	4950
2026-01-30 13:24:12.84	209.73	9.65	-29.6	-32.4	18.5	6.06e-01	0	41	0	62390272	21	4968
2026-01-30 13:24:13.86	209.85	9.73	-29.7	-32.6	18.4	6.08e-01	0	41	0	64487424	21	5042
2026-01-30 13:24:14.87	209.97	9.80	-29.7	-32.5	18.4	6.06e-01	0	42	0	66060288	21	5003
2026-01-30 13:24:15.88	210.08	9.88	-29.8	-32.8	18.3	6.08e-01	0	41	0	68157440	21	5082
2026-01-30 13:24:16.89	210.20	9.96	-29.7	-32.7	18.4	6.05e-01	0	41	0	69730304	21	5048
2026-01-30 13:24:17.90	210.32	10.04	-29.8	-32.8	18.3	6.06e-01	0	41	0	71827456	21	5100
2026-01-30 13:24:18.91	210.44	10.11	-29.8	-33.0	18.2	6.05e-01	0	41	0	73924608	21	5179
2026-01-30 13:24:19.92	210.57	10.19	-29.7	-32.7	18.3	6.08e-01	0	42	0	75497472	21	5063
2026-01-30 13:24:20.93	210.69	10.27	-29.8	-33.0	18.2	6.05e-01	0	42	0	77594624	21	5169
2026-01-30 13:24:21.94	210.81	10.35	-29.7	-32.7	18.3	6.07e-01	0	41	0	79167488	21	5077
2026-01-30 13:24:22.95	210.93	10.43	-29.6	-32.3	18.6	6.08e-01	0	41	0	81264640	21	4926
2026-01-30 13:24:23.96	211.06	10.51	-29.5	-32.2	18.7	6.06e-01	0	42	0	83361792	21	4883
2026-01-30 13:24:24.97	211.18	10.58	-29.5	-32.2	18.7	6.07e-01	0	42	0	84934656	21	4866
2026-01-30 13:24:25.98	211.31	10.66	-29.6	-32.4	18.6	6.07e-01	0	42	0	87031808	21	4942
2026-01-30 13:24:26.99	211.43	10.74	-29.7	-32.7	18.3	6.08e-01	0	42	0	89128960	21	5071
2026-01-30 13:24:28.00	211.56	10.82	-29.6	-32.3	18.7	6.08e-01	0	42	0	90701824	21	4911
2026-01-30 13:24:29.01	211.69	10.90	-29.5	-32.2	18.8	6.07e-01	0	42	0	92798976	21	4867
2026-01-30 13:24:30.02	211.82	10.98	-29.5	-32.1	18.8	6.05e-01	0	42	0	94371840	21	4848
2026-01-30 13:24:31.03	211.95	11.06	-29.6	-32.2	18.7	6.06e-01	0	42	0	96468992	21	4898
2026-01-30 13:24:32.04	212.08	11.14	-29.6	-32.2	18.7	6.06e-01	0	42	0	98566144	21	4888
2026-01-30 13:24:33.05	212.21	11.22	-29.7	-32.5	18.5	6.04e-01	0	42	0	100139008	21	4991
2026-01-30 13:24:34.07	212.34	11.30	-29.5	-32.1	18.8	6.06e-01	0	42	0	102236160	21	4860
2026-01-30 13:24:35.08	212.47	11.38	-29.5	-32.0	18.9	6.06e-01	0	42	0	104333312	21	4804
2026-01-30 13:24:36.09	212.60	11.46	-29.4	-31.9	19.0	6.06e-01	0	42	0	105906176	21	4763
2026-01-30 13:24:37.10	212.74	11.54	-29.4	-31.7	19.0	6.07e-01	0	42	0	108003328	21	4721
2026-01-30 13:24:38.11	212.87	11.62	-29.5	-31.9	19.0	6.07e-01	0	42	0	109576192	21	4783
2026-01-30 13:24:39.12	213.01	11.71	-29.6	-32.2	18.8	6.08e-01	0	42	0	111673344	21	4867
2026-01-30 13:24:40.13	213.14	11.79	-29.5	-32.1	18.9	6.08e-01	0	42	0	113770496	21	4843
2026-01-30 13:24:41.14	213.28	11.87	-29.6	-32.4	18.7	6.06e-01	0	42	0	115343360	21	4945
2026-01-30 13:24:42.15	213.42	11.95	-29.5	-32.0	18.9	6.06e-01	0	42	0	117440512	21	4797
2026-01-30 13:24:43.16	213.56	12.03	-29.5	-32.0	18.9	6.05e-01	0	42	0	119013376	21	4815
2026-01-30 13:24:44.17	213.70	12.11	-29.5	-31.9	19.0	6.06e-01	0	42	0	121110528	21	4782
2026-01-30 13:24:45.18	213.84	12.19	-29.6	-32.2	18.8	6.06e-01	0	42	0	123207680	21	4882
2026-01-30 13:24:46.19	213.98	12.28	-29.5	-32.0	19.0	6.04e-01	0	42	0	124780544	21	4793
2026-01-30 13:24:47.20	214.12	12.36	-29.6	-32.4	18.7	6.08e-01	0	42	0	126877696	21	4930
2026-01-30 13:24:48.21	214.26	12.44	-29.4	-31.9	19.1	6.06e-01	0	42	0	128450560	21	4752
2026-01-30 13:24:49.22	214.40	12.52	-29.4	-31.6	19.2	6.06e-01	0	42	0	130547712	21	4678
2026-01-30 13:24:50.23	214.55	12.61	-29.3	-31.8	19.4	6.06e-01	0	42	0	132644864	20	4841
2026-01-30 13:24:51.24	214.69	12.69	-29.3	-31.9	19.3	6.04e-01	0	42	0	134217728	20	4872
2026-01-30 13:24:52.25	214.84	12.77	-29.2	-31.8	19.4	6.07e-01	0	42	0	136314880	20	4815
2026-01-30 13:24:53.26	214.98	12.86	-29.3	-31.8	19.4	6.07e-01	0	42	0	137887744	20	4832
2026-01-30 13:24:54.27	215.13	12.94	-29.3	-31.9	19.4	6.08e-01	0	42	0	139984896	20	4861
2026-01-30 13:24:55.28	215.28	13.02	-29.3	-32.0	19.3	6.03e-01	0	42	0	142082048	20	4907
2026-01-30 13:24:56.30	215.43	13.11	-29.3	-31.9	19.4	6.08e-01	0	42	0	143654912	20	4873
2026-01-30 13:24:57.31	215.58	13.19	-29.4	-32.2	19.2	6.07e-01	0	42	0	145752064	20	4970
2026-01-30 13:24:58.32	215.73	13.28	-29.5	-32.6	19.0	6.06e-01	0	42	0	147324928	20	5099
2026-01-30 13:24:59.32	215.88	13.36	-29.6	-32.6	19.0	6.05e-01	0	42	0	149422080	20	5113
2026-01-30 13:25:00.34	216.04	13.45	-29.6	-32.7	18.9	6.07e-01	0	42	0	151519232	20	5130
2026-01-30 13:25:01.35	216.19	13.53	-29.6	-32.8	18.9	6.06e-01	0	42	0	153092096	20	5184
2026-01-30 13:25:02.36	216.35	13.61	-29.6	-32.7	18.9	6.06e-01	0	42	0	155189248	20	5127
2026-01-30 13:25:03.37	216.50	13.70	-29.6	-32.6	18.9	6.06e-01	0	42	0	157286400	20	5121
2026-01-30 13:25:04.38	216.66	13.78	-29.6	-32.6	19.0	6.05e-01	0	42	0	158859264	20	5120
2026-01-30 13:25:05.39	216.81	13.87	-29.7	-32.9	18.8	6.06e-01	0	42	0	160956416	20	5217
2026-01-30 13:25:06.40	216.97	13.95	-29.4	-32.2	19.2	6.06e-01	0	42	0	162529280	20	4961
2026-01-30 13:25:07.41	217.13	14.04	-29.2	-31.7	19.5	6.05e-01	0	42	0	164626432	20	4803
2026-01-30 13:25:08.42	217.29	14.13	-29.2	-31.6	19.6	6.08e-01	0	42	0	166723584	20	4740
2026-01-30 13:25:09.43	217.45	14.21	-29.2	-31.5	19.7	6.06e-01	0	42	0	168296448	20	4726
2026-01-30 13:25:10.44	217.62	14.30	-29.3	-31.8	19.5	6.06e-01	0	42	0	170393600	20	4813
2026-01-30 13:25:11.45	217.78	14.38	-29.3	-31.9	19.4	6.07e-01	0	42	0	172490752	20	4862
2026-01-30 13:25:12.46	217.94	14.47	-29.3	-31.9	19.4	6.06e-01	0	42	0	174063616	20	4861
2026-01-30 13:25:13.47	218.11	14.56	-29.3	-31.9	19.5	6.07e-01	0	42	0	176160768	20	4842
2026-01-30 13:25:14.48	218.27	14.64	-29.3	-31.9	19.4	6.05e-01	0	42	0	177733632	20	4866
2026-01-30 13:25:15.49	218.44	14.73	-29.3	-31.9	19.5	6.06e-01	0	42	0	179830784	20	4862
2026-01-30 13:25:16.50	218.61	14.82	-29.4	-32.0	19.5	6.08e-01	0	42	0	181927936	20	4878
2026-01-30 13:25:17.51	218.78	14.90	-29.3	-31.9	19.5	6.06e-01	0	42	0	183500800	20	4855
2026-01-30 13:25:18.52	218.95	14.99	-29.3	-31.9	19.5	6.06e-01	0	42	0	185597952	20	4857
2026-01-30 13:25:19.53	219.12	15.08	-29.2	-31.5	19.8	6.07e-01	0	42	0	187170816	20	4708
2026-01-30 13:25:20.54	219.29	15.16	-29.1	-31.4	19.8	6.07e-01	0	42	0	189267968	20	4673
2026-01-30 13:25:21.55	219.47	15.25	-29.2	-31.5	19.8	6.08e-01	0	42	0	191365120	20	4715
2026-01-30 13:25:22.56	219.64	15.34	-29.2	-31.5	19.8	6.09e-01	0	42	0	192937984	20	4720
2026-01-30 13:25:23.57	219.82	15.42	-29.1	-31.4	19.8	6.08e-01	0	42	0	195035136	20	4684
2026-01-30 13:25:24.58	219.99	15.51	-29.1	-31.2	19.9	6.06e-01	0	42	0	197132288	20	4626
2026-01-30 13:25:25.59	220.17	15.60	-29.2	-31.5	19.8	6.08e-01	0	42	0	198705152	20	4710
2026-01-30 13:25:26.60	220.35	15.69	-29.1	-31.4	19.9	6.07e-01	0	42	0	200802304	20	4656
2026-01-30 13:25:27.61	220.53	15.78	-29.1	-31.2	20.0	6.07e-01	0	42	0	202375168	20	4601
2026-01-30 13:25:28.62	220.71	15.86	-29.0	-31.2	20.0	6.08e-01	0	42	0	204472320	20	4592
2026-01-30 13:25:29.63	220.89	15.95	-29.1	-31.2	20.0	6.06e-01	0	42	0	206569472	20	4596
2026-01-30 13:25:30.64	221.07	16.04	-29.1	-31.2	20.0	6.05e-01	0	43	0	208142336	20	4620
2026-01-30 13:25:31.65	221.26	16.13	-29.1	-31.2	20.0	6.10e-01	0	42	0	210239488	20	4605
2026-01-30 13:25:32.67	221.45	16.22	-29.1	-31.4	19.8	6.08e-01	0	42	0	211812352	20	4679
2026-01-30 13:25:33.68	221.63	16.31	-29.1	-31.3	19.9	6.08e-01	0	42	0	213909504	20	4648
2026-01-30 13:25:34.69	221.82	16.39	-29.0	-31.2	20.0	6.04e-01	0	42	0	216006656	20	4591
2026-01-30 13:25:35.70	222.01	16.48	-29.0	-31.1	20.1	6.07e-01	0	42	0	217579520	20	4571
2026-01-30 13:25:36.71	222.20	16.57	-29.2	-31.5	19.8	6.07e-01	0	42	0	219676672	20	4704
2026-01-30 13:25:37.72	222.39	16.66	-29.1	-31.3	19.9	6.07e-01	0	42	0	221249536	20	4632
2026-01-30 13:25:38.73	222.58	16.75	-29.1	-31.2	20.0	6.06e-01	0	42	0	223346688	20	4607
2026-01-30 13:25:39.74	222.78	16.84	-29.1	-31.2	20.0	6.06e-01	0	42	0	225443840	20	4612
2026-01-30 13:25:40.75	222.97	16.93	-29.2	-31.5	19.9	6.06e-01	0	42	0	227016704	20	4691
2026-01-30 13:25:41.76	223.17	17.01	-29.2	-31.4	19.9	6.07e-01	0	42	0	229113856	20	4672
2026-01-30 13:25:42.77	223.36	17.10	-29.2	-31.4	19.9	6.07e-01	0	43	0	230686720	20	4682
2026-01-30 13:25:43.78	223.56	17.19	-29.1	-31.4	20.0	6.09e-01	0	43	0	232783872	20	4653
2026-01-30 13:25:44.79	223.76	17.28	-29.1	-31.2	20.1	6.07e-01	0	42	0	234881024	20	4589
2026-01-30 13:25:45.80	223.96	17.37	-29.1	-31.2	20.1	6.06e-01	0	43	0	236453888	20	4581
2026-01-30 13:25:46.81	224.16	17.46	-29.0	-30.9	20.2	6.07e-01	0	42	0	238551040	20	4513
2026-01-30 13:25:47.82	224.37	17.55	-29.1	-31.2	20.1	6.06e-01	0	42	0	240648192	20	4592
2026-01-30 13:25:48.83	224.57	17.64	-29.1	-31.2	20.1	6.08e-01	0	42	0	242221056	20	4606
2026-01-30 13:25:49.84	224.78	17.73	-29.2	-31.6	19.9	6.07e-01	0	42	0	244318208	20	4719
2026-01-30 13:25:50.85	224.98	17.82	-29.1	-31.3	20.0	6.06e-01	0	43	0	245891072	20	4645
2026-01-30 13:25:51.86	225.19	17.91	-29.0	-31.1	20.1	6.08e-01	0	42	0	247988224	20	4564
2026-01-30 13:25:52.87	225.40	17.99	-29.1	-31.2	20.1	6.05e-01	0	42	0	250085376	20	4588
2026-01-30 13:25:53.89	225.61	18.08	-29.1	-31.2	20.1	6.06e-01	0	43	0	251658240	20	4580
2026-01-30 13:25:54.90	225.82	18.17	-29.1	-31.2	20.1	6.07e-01	0	43	0	253755392	20	4612
2026-01-30 13:25:55.91	226.04	18.26	-29.0	-31.0	20.2	6.03e-01	0	43	0	255328256	20	4553
2026-01-30 13:25:56.92	226.25	18.35	-29.1	-31.3	20.0	6.05e-01	0	43	0	257425408	20	4629
2026-01-30 13:25:57.93	226.47	18.44	-29.0	-31.0	20.1	6.06e-01	0	43	0	259522560	20	4549
2026-01-30 13:25:58.94	226.69	18.53	-28.9	-30.9	20.2	6.05e-01	0	42	0	261095424	20	4509
2026-01-30 13:25:59.95	226.90	18.62	-29.0	-31.1	20.1	6.06e-01	0	42	0	263192576	20	4560
2026-01-30 13:26:00.96	227.12	18.71	-29.0	-31.1	20.1	6.06e-01	0	42	0	265289728	20	4577
2026-01-30 13:26:01.97	227.34	18.80	-29.1	-31.4	20.0	6.06e-01	0	42	0	266862592	20	4649
2026-01-30 13:26:02.98	227.57	18.89	-29.1	-31.2	20.1	6.09e-01	0	42	0	268959744	20	4607
2026-01-30 13:26:03.99	227.79	18.98	-29.0	-31.1	20.1	6.05e-01	0	42	0	270532608	20	4575
2026-01-30 13:26:05.00	228.02	19.06	-29.1	-31.2	20.1	6.07e-01	0	43	0	272629760	20	4604
2026-01-30 13:26:06.01	228.24	19.15	-29.1	-31.1	20.1	6.07e-01	0	43	0	274726912	20	4582
2026-01-30 13:26:07.02	228.47	19.24	-29.0	-31.0	20.2	6.03e-01	0	42	0	276299776	20	4542
2026-01-30 13:26:08.03	228.70	19.33	-29.1	-31.2	20.1	6.07e-01	0	42	0	278396928	20	4585
2026-01-30 13:26:09.04	228.93	19.42	-29.1	-31.2	20.1	6.06e-01	0	43	0	280494080	20	4586
2026-01-30 13:26:10.05	229.16	19.51	-29.0	-31.1	20.2	6.06e-01	0	43	0	282066944	20	4571
2026-01-30 13:26:11.06	229.40	19.60	-29.1	-31.2	20.1	6.07e-01	0	43	0	284164096	20	4596
2026-01-30 13:26:12.07	229.63	19.68	-28.9	-30.9	20.3	6.06e-01	0	43	0	285736960	20	4492
2026-01-30 13:26:13.08	229.87	19.77	-29.0	-31.0	20.2	6.08e-01	0	43	0	287834112	20	4537
2026-01-30 13:26:14.09	230.10	19.86	-29.0	-31.1	20.2	6.08e-01	0	43	0	289931264	20	4565
2026-01-30 13:26:15.10	230.34	19.95	-29.1	-31.2	20.1	6.07e-01	0	43	0	291504128	20	4606
2026-01-30 13:26:16.11	230.58	20.04	-29.2	-31.4	20.0	6.07e-01	0	43	0	293601280	20	4668
2026-01-30 13:26:17.12	230.82	20.12	-29.2	-31.5	20.0	6.06e-01	0	43	0	295174144	20	4684
2026-01-30 13:26:18.13	231.07	20.21	-29.2	-31.6	19.9	6.06e-01	0	42	0	297271296	20	4724
2026-01-30 13:26:19.14	231.31	20.30	-29.1	-31.3	20.1	6.07e-01	0	43	0	299368448	20	4617
2026-01-30 13:26:20.15	231.56	20.38	-29.0	-31.1	20.2	6.06e-01	0	43	0	300941312	20	4559
2026-01-30 13:26:21.16	231.81	20.47	-29.2	-31.5	20.0	6.07e-01	0	43	0	303038464	20	4681
2026-01-30 13:26:22.17	232.05	20.56	-29.2	-31.6	20.0	6.06e-01	0	43	0	305135616	20	4714
2026-01-30 13:26:23.18	232.31	20.64	-29.4	-32.0	19.6	6.07e-01	0	43	0	306708480	20	4869
2026-01-30 13:26:24.19	232.56	20.73	-29.2	-31.4	20.0	6.09e-01	0	43	0	308805632	20	4649
2026-01-30 13:26:25.20	232.81	20.82	-29.0	-30.9	20.3	6.08e-01	0	42	0	310378496	20	4496
2026-01-30 13:26:26.22	233.07	20.90	-29.1	-31.1	20.2	6.07e-01	0	43	0	312475648	20	4571
2026-01-30 13:26:27.23	233.32	20.99	-29.1	-31.2	20.2	6.08e-01	0	43	0	314572800	20	4578
2026-01-30 13:26:28.24	233.58	21.07	-29.1	-31.3	20.1	6.05e-01	0	43	0	316145664	20	4611
2026-01-30 13:26:29.25	233.84	21.16	-29.1	-31.2	20.2	6.06e-01	0	43	0	318242816	20	4576
2026-01-30 13:26:30.26	234.10	21.24	-29.2	-31.5	20.0	6.04e-01	0	43	0	319815680	20	4672
2026-01-30 13:26:31.27	234.36	21.33	-29.3	-31.7	19.9	6.07e-01	0	43	0	321912832	20	4739
2026-01-30 13:26:32.28	234.63	21.41	-29.2	-31.4	20.1	6.07e-01	0	43	0	324009984	20	4639
2026-01-30 13:26:33.29	234.89	21.50	-29.1	-31.3	20.2	6.06e-01	0	43	0	325582848	20	4601
2026-01-30 13:26:34.30	235.16	21.58	-29.2	-31.4	20.1	6.07e-01	0	43	0	327680000	20	4628
2026-01-30 13:26:35.31	235.43	21.67	-29.2	-31.3	20.2	6.07e-01	0	43	0	329252864	20	4601
2026-01-30 13:26:36.32	235.70	21.75	-29.2	-31.4	20.1	6.08e-01	0	42	0	331350016	20	4623
2026-01-30 13:26:37.33	235.97	21.83	-29.2	-31.4	20.1	6.06e-01	0	43	0	333447168	20	4637
2026-01-30 13:26:38.34	236.24	21.91	-29.1	-31.2	20.2	6.06e-01	0	43	0	335020032	20	4569
2026-01-30 13:26:39.35	236.51	22.00	-29.1	-31.3	20.2	6.07e-01	0	43	0	337117184	20	4596
2026-01-30 13:26:40.36	236.79	22.08	-29.2	-31.4	20.1	6.07e-01	0	43	0	338690048	20	4633
2026-01-30 13:26:41.37	237.07	22.16	-29.2	-31.4	20.0	6.06e-01	0	43	0	340787200	20	4657
2026-01-30 13:26:42.38	237.34	22.24	-29.3	-31.7	19.9	6.08e-01	0	43	0	342884352	20	4741
2026-01-30 13:26:43.39	237.62	22.32	-29.3	-31.7	19.9	6.09e-01	0	43	0	344457216	20	4751
2026-01-30 13:26:44.40	237.90	22.40	-29.3	-31.7	19.9	6.07e-01	0	43	0	346554368	20	4734
2026-01-30 13:26:45.41	238.19	22.48	-29.2	-31.5	20.1	6.06e-01	0	43	0	348651520	20	4655
2026-01-30 13:26:46.42	238.47	22.56	-29.3	-31.7	19.9	6.02e-01	0	43	0	350224384	20	4723
2026-01-30 13:26:47.43	238.76	22.64	-29.4	-31.9	19.8	6.08e-01	0	43	0	352321536	20	4793
2026-01-30 13:26:48.44	239.05	22.72	-29.4	-31.9	19.8	6.06e-01	0	43	0	353894400	20	4799
2026-01-30 13:26:49.45	239.33	22.80	-29.4	-31.9	19.8	6.05e-01	0	43	0	355991552	20	4789
2026-01-30 13:26:50.46	239.62	22.87	-29.4	-31.9	19.8	6.07e-01	0	43	0	358088704	20	4799
2026-01-30 13:26:51.47	239.92	22.95	-29.4	-31.9	19.8	6.04e-01	0	43	0	359661568	20	4803
2026-01-30 13:26:52.48	240.21	23.03	-29.4	-31.8	19.9	6.06e-01	0	43	0	361758720	20	4781
2026-01-30 13:26:53.49	240.50	23.10	-29.4	-31.9	19.8	6.06e-01	0	43	0	363331584	20	4803
2026-01-30 13:26:54.50	240.80	23.18	-29.5	-32.0	19.8	6.07e-01	0	43	0	365428736	20	4840
2026-01-30 13:26:55.51	241.10	23.26	-29.5	-32.2	19.7	6.07e-01	0	43	0	367525888	20	4881
2026-01-30 13:26:56.52	241.40	23.33	-29.3	-31.6	20.0	6.06e-01	0	43	0	369098752	20	4707
2026-01-30 13:26:57.53	241.70	23.40	-29.2	-31.3	20.2	6.07e-01	0	42	0	371195904	20	4609
2026-01-30 13:26:58.55	242.00	23.48	-29.3	-31.6	20.0	6.07e-01	0	43	0	373293056	20	4706
2026-01-30 13:26:59.56	242.31	23.55	-29.5	-32.0	19.9	6.05e-01	0	43	0	374865920	20	4824
2026-01-30 13:27:00.57	242.61	23.62	-29.5	-32.0	19.8	6.05e-01	0	43	0	376963072	20	4846
2026-01-30 13:27:01.58	242.92	23.70	-29.4	-31.9	19.9	6.07e-01	0	43	0	378535936	20	4777
2026-01-30 13:27:02.59	243.23	23.77	-29.3	-31.5	20.1	6.04e-01	0	43	0	380633088	20	4674
2026-01-30 13:27:03.60	243.53	23.84	-29.4	-31.8	20.0	6.08e-01	0	43	0	382730240	20	4761
2026-01-30 13:27:04.61	243.84	23.91	-29.4	-31.9	19.9	6.07e-01	0	42	0	384303104	20	4780
2026-01-30 13:27:05.62	244.16	23.98	-29.4	-31.7	20.0	6.08e-01	0	43	0	386400256	20	4727
2026-01-30 13:27:06.63	244.47	24.05	-29.5	-32.0	19.9	6.08e-01	0	43	0	388497408	20	4829
2026-01-30 13:27:07.64	244.79	24.11	-29.5	-32.1	19.8	6.09e-01	0	43	0	390070272	20	4858
2026-01-30 13:27:08.65	245.10	24.18	-29.4	-31.8	20.0	6.07e-01	0	43	0	392167424	20	4745
2026-01-30 13:27:09.66	245.42	24.25	-29.5	-32.0	19.9	6.07e-01	0	43	0	393740288	20	4830
2026-01-30 13:27:10.67	245.74	24.31	-29.5	-32.0	19.8	6.06e-01	0	43	0	395837440	20	4839
2026-01-30 13:27:11.68	246.06	24.38	-29.2	-31.4	20.2	6.04e-01	0	43	0	397934592	20	4630
2026-01-30 13:27:12.69	246.38	24.44	-29.5	-32.0	19.9	6.07e-01	0	43	0	399507456	20	4817
2026-01-30 13:27:13.70	246.70	24.51	-29.6	-32.3	19.7	6.07e-01	0	43	0	401604608	20	4937
2026-01-30 13:27:14.71	247.03	24.57	-29.5	-32.2	19.8	6.09e-01	0	43	0	403177472	20	4882
2026-01-30 13:27:15.72	247.35	24.63	-29.7	-32.6	19.6	6.04e-01	0	42	0	405274624	20	5019
2026-01-30 13:27:16.73	247.68	24.69	-29.6	-32.2	19.7	6.05e-01	0	42	0	407371776	20	4904
2026-01-30 13:27:17.74	248.01	24.75	-29.4	-31.7	20.1	6.06e-01	0	43	0	408944640	20	4730
2026-01-30 13:27:18.75	248.34	24.81	-29.4	-31.9	20.0	6.04e-01	0	43	0	411041792	20	4798
2026-01-30 13:27:19.77	248.67	24.87	-29.5	-32.2	19.8	6.07e-01	0	43	0	412614656	20	4881
2026-01-30 13:27:20.78	249.00	24.93	-29.5	-32.1	19.8	6.07e-01	0	43	0	414711808	20	4837
2026-01-30 13:27:21.79	249.34	24.99	-29.5	-32.0	19.9	6.06e-01	0	43	0	416808960	20	4814
2026-01-30 13:27:22.80	249.67	25.05	-29.7	-32.5	19.6	6.07e-01	0	43	0	418381824	20	4997
2026-01-30 13:27:23.81	250.01	25.10	-29.5	-32.1	19.8	6.06e-01	0	43	0	420478976	20	4843
2026-01-30 13:27:24.82	250.35	25.16	-29.5	-32.1	19.9	6.06e-01	0	43	0	422051840	20	4840
2026-01-30 13:27:25.83	250.68	25.21	-29.6	-32.2	19.8	6.08e-01	0	43	0	424148992	20	4901
2026-01-30 13:27:26.84	251.02	25.26	-29.5	-32.0	19.9	6.08e-01	0	43	0	426246144	20	4807
2026-01-30 13:27:27.85	251.36	25.32	-29.7	-32.6	19.6	6.06e-01	0	43	0	427819008	20	5039
2026-01-30 13:27:28.86	251.70	25.37	-29.7	-32.6	19.6	6.06e-01	0	43	0	429916160	20	5034
2026-01-30 13:27:29.87	252.05	25.42	-29.7	-32.7	19.5	6.07e-01	0	43	0	431489024	20	5066
2026-01-30 13:27:30.88	252.39	25.47	-29.6	-32.2	19.8	6.08e-01	0	43	0	433586176	20	4895
2026-01-30 13:27:31.89	252.74	25.52	-29.6	-32.2	19.8	6.06e-01	0	43	0	435683328	20	4901
2026-01-30 13:27:32.90	253.08	25.56	-29.5	-32.1	19.8	6.07e-01	0	43	0	437256192	20	4859
2026-01-30 13:27:33.91	253.43	25.61	-29.6	-32.3	19.8	6.07e-01	0	42	0	439353344	20	4909
2026-01-30 13:27:34.92	253.78	25.66	-29.6	-32.3	19.8	6.07e-01	0	43	0	441450496	20	4919
2026-01-30 13:27:35.93	254.13	25.70	-29.5	-32.1	19.8	6.07e-01	0	43	0	443023360	20	4868
2026-01-30 13:27:36.94	254.48	25.74	-29.5	-32.0	19.9	6.07e-01	0	43	0	445120512	20	4823
2026-01-30 13:27:37.95	254.83	25.79	-29.7	-32.6	19.6	6.08e-01	0	43	0	446693376	20	5020
2026-01-30 13:27:38.96	255.18	25.83	-29.5	-32.2	19.8	6.07e-01	0	43	0	448790528	20	4870
2026-01-30 13:27:39.98	255.54	25.87	-29.7	-32.6	19.6	6.06e-01	0	43	0	450887680	20	5020
2026-01-30 13:27:40.99	255.89	25.91	-29.5	-32.2	19.8	6.06e-01	0	43	0	452460544	20	4890
2026-01-30 13:27:42.00	256.24	25.95	-29.4	-31.8	20.0	6.05e-01	0	43	0	454557696	20	4757
2026-01-30 13:27:43.01	256.60	25.98	-29.4	-31.9	20.0	6.07e-01	0	43	0	456654848	20	4777
2026-01-30 13:27:44.02	256.96	26.02	-29.4	-31.8	20.1	6.06e-01	0	43	0	458227712	20	4745
2026-01-30 13:27:45.03	257.31	26.05	-29.5	-32.1	19.9	6.06e-01	0	43	0	460324864	20	4863
2026-01-30 13:27:46.04	257.67	26.09	-29.4	-31.8	20.1	6.07e-01	0	43	0	461897728	20	4734
2026-01-30 13:27:47.05	258.03	26.12	-29.3	-31.7	20.1	6.07e-01	0	43	0	463994880	20	4720
2026-01-30 13:27:48.06	258.39	26.15	-29.4	-32.0	20.0	6.05e-01	0	43	0	466092032	20	4806
2026-01-30 13:27:49.07	258.75	26.18	-29.3	-31.6	20.1	6.07e-01	0	43	0	467664896	20	4704
2026-01-30 13:27:50.08	259.11	26.21	-29.3	-31.7	20.1	6.06e-01	0	43	0	469762048	20	4716
2026-01-30 13:27:51.09	259.47	26.24	-29.3	-31.5	20.2	6.07e-01	0	43	0	471334912	20	4671
2026-01-30 13:27:52.10	259.83	26.27	-29.5	-32.0	19.9	6.07e-01	0	43	0	473432064	20	4824
2026-01-30 13:27:53.11	260.20	26.30	-29.2	-31.4	20.2	6.08e-01	0	43	0	475529216	20	4640
2026-01-30 13:27:54.12	260.56	26.32	-29.3	-31.5	20.2	6.05e-01	0	43	0	477102080	20	4654
2026-01-30 13:27:55.13	260.92	26.34	-29.3	-31.6	20.1	6.05e-01	0	43	0	479199232	20	4698
2026-01-30 13:27:56.14	261.29	26.37	-29.3	-31.7	20.1	6.05e-01	0	43	0	481296384	20	4712
2026-01-30 13:27:57.15	261.65	26.39	-29.3	-31.6	20.1	6.05e-01	0	43	0	482869248	20	4695
2026-01-30 13:27:58.16	262.02	26.41	-29.6	-32.3	19.7	6.07e-01	0	43	0	484966400	20	4916
2026-01-30 13:27:59.17	262.39	26.43	-29.3	-31.7	20.1	6.07e-01	0	43	0	486539264	20	4710
2026-01-30 13:28:00.19	262.76	26.45	-29.2	-31.4	20.3	6.07e-01	0	43	0	488636416	20	4609
2026-01-30 13:28:01.20	263.12	26.46	-29.4	-31.8	20.0	6.08e-01	0	43	0	490733568	20	4750
2026-01-30 13:28:02.21	263.49	26.48	-29.4	-31.8	20.0	6.04e-01	0	43	0	492306432	20	4755
2026-01-30 13:28:03.22	263.86	26.49	-29.4	-31.8	20.0	6.06e-01	0	43	0	494403584	20	4752
2026-01-30 13:28:04.23	264.22	26.51	-29.4	-31.9	20.0	6.07e-01	0	43	0	496500736	20	4773
2026-01-30 13:28:05.24	264.59	26.52	-29.7	-32.5	19.6	6.04e-01	0	43	0	498073600	20	5008
2026-01-30 13:28:06.25	264.96	26.53	-29.7	-32.6	19.5	6.07e-01	0	43	0	500170752	20	5033
2026-01-30 13:28:07.26	265.33	26.54	-29.7	-32.5	19.6	6.07e-01	0	43	0	501743616	20	5001
2026-01-30 13:28:08.27	265.70	26.55	-29.7	-32.5	19.6	6.05e-01	0	43	0	503840768	20	4991
2026-01-30 13:28:09.28	266.07	26.56	-29.7	-32.7	19.5	6.07e-01	0	43	0	505937920	20	5044
2026-01-30 13:28:10.29	266.44	26.56	-29.7	-32.6	19.6	6.06e-01	0	43	0	507510784	20	5013
2026-01-30 13:28:11.30	266.81	26.57	-29.6	-32.2	19.8	6.06e-01	0	43	0	509607936	20	4889
2026-01-30 13:28:12.31	267.17	26.57	-29.7	-32.6	19.6	6.08e-01	0	43	0	511180800	20	5033
2026-01-30 13:28:13.32	267.54	26.57	-30.0	-33.3	19.1	6.06e-01	0	43	0	513277952	20	5288
2026-01-30 13:28:14.33	267.91	26.57	-29.8	-32.9	19.4	6.07e-01	0	43	0	515375104	20	5127
2026-01-30 13:28:15.34	268.28	26.57	-29.8	-32.9	19.3	6.08e-01	0	43	0	516947968	20	5141
2026-01-30 13:28:16.35	268.65	26.57	-29.6	-32.4	19.7	6.07e-01	0	43	0	519045120	20	4941
2026-01-30 13:28:17.36	269.02	26.57	-29.4	-31.8	20.0	6.05e-01	0	43	0	520617984	20	4737
2026-01-30 13:28:18.37	269.39	26.57	-29.4	-31.7	20.1	6.05e-01	0	43	0	522715136	20	4726
2026-01-30 13:28:19.38	269.76	26.56	-29.5	-32.1	19.8	6.04e-01	0	43	0	524812288	20	4864
2026-01-30 13:28:20.39	270.13	26.55	-29.5	-32.0	19.9	6.06e-01	0	43	0	526385152	20	4810
2026-01-30 13:28:21.40	270.50	26.55	-29.5	-32.0	19.9	6.06e-01	0	43	0	528482304	20	4826
2026-01-30 13:28:22.41	270.87	26.54	-29.4	-31.7	20.1	6.05e-01	0	43	0	530055168	20	4714
2026-01-30 13:28:23.42	271.23	26.53	-29.2	-31.3	20.3	6.07e-01	0	43	0	532152320	20	4600
2026-01-30 13:28:24.43	271.60	26.52	-29.4	-31.7	20.1	6.05e-01	0	43	0	534249472	20	4722
2026-01-30 13:28:25.44	271.97	26.51	-29.4	-31.9	20.0	6.05e-01	0	43	0	535822336	20	4770
2026-01-30 13:28:26.46	272.34	26.49	-29.3	-31.7	20.1	6.07e-01	0	43	0	537919488	20	4702
2026-01-30 13:28:27.47	272.71	26.48	-29.3	-31.5	20.3	6.06e-01	0	43	0	539492352	20	4643
2026-01-30 13:28:28.48	273.08	26.46	-29.5	-32.0	20.0	6.06e-01	0	43	0	541589504	20	4806
2026-01-30 13:28:29.49	273.44	26.45	-29.3	-31.6	20.2	6.08e-01	0	43	0	543686656	20	4683
2026-01-30 13:28:30.50	273.81	26.43	-29.5	-32.1	19.9	6.05e-01	0	43	0	545259520	20	4857
2026-01-30 13:28:31.51	274.17	26.41	-29.6	-32.4	19.7	6.09e-01	0	43	0	547356672	20	4963
2026-01-30 13:28:32.52	274.54	26.39	-29.4	-31.9	20.0	6.08e-01	0	43	0	549453824	20	4779
2026-01-30 13:28:33.53	274.90	26.37	-29.5	-31.9	20.0	6.06e-01	0	43	0	551026688	20	4783
2026-01-30 13:28:34.54	275.27	26.34	-29.5	-32.1	19.9	6.06e-01	0	43	0	553123840	20	4840
2026-01-30 13:28:35.55	275.63	26.32	-29.4	-31.8	20.1	6.05e-01	0	43	0	554696704	20	4746
2026-01-30 13:28:36.56	275.99	26.29	-29.5	-32.1	19.9	6.07e-01	0	43	0	556793856	20	4844
2026-01-30 13:28:37.57	276.35	26.27	-29.6	-32.4	19.7	6.07e-01	0	43	0	558891008	20	4962
2026-01-30 13:28:38.58	276.72	26.24	-29.6	-32.2	19.8	6.08e-01	0	43	0	560463872	20	4883
2026-01-30 13:28:39.59	277.08	26.21	-29.5	-32.2	19.9	6.06e-01	0	43	0	562561024	20	4875
2026-01-30 13:28:40.60	277.44	26.18	-29.6	-32.2	19.8	6.07e-01	0	43	0	564658176	20	4901
2026-01-30 13:28:41.61	277.80	26.15	-29.6	-32.3	19.8	6.07e-01	0	43	0	566231040	20	4919
2026-01-30 13:28:42.62	278.16	26.12	-29.5	-32.0	20.0	6.09e-01	0	43	0	568328192	20	4807
2026-01-30 13:28:43.63	278.51	26.09	-29.5	-32.0	20.0	6.06e-01	0	43	0	569901056	20	4806
2026-01-30 13:28:44.64	278.87	26.05	-29.5	-32.1	19.9	6.07e-01	0	43	0	571998208	20	4854
2026-01-30 13:28:45.65	279.23	26.02	-29.7	-32.4	19.7	6.06e-01	0	43	0	574095360	20	4956
2026-01-30 13:28:46.66	279.58	25.98	-29.6	-32.2	19.9	6.08e-01	0	43	0	575668224	20	4875
2026-01-30 13:28:47.67	279.94	25.94	-29.7	-42.0	3.8	7.46e-01	0	43	104	576716800	20	14781
2026-01-30 13:28:48.68	280.29	25.91	-29.7	-41.8	3.8	7.42e-01	0	43	104	576716800	20	14597
2026-01-30 13:28:49.69	280.64	25.87	-29.9	-42.2	3.8	7.44e-01	0	43	104	576716800	20	14973
2026-01-30 13:28:50.70	281.00	25.83	-30.2	-42.5	3.8	7.43e-01	0	43	104	576716800	21	14963
2026-01-30 13:28:51.72	281.35	25.78	-30.4	-43.2	3.8	7.42e-01	0	43	104	576716800	21	15720
2026-01-30 13:28:52.72	281.70	25.74	-30.4	-43.2	3.8	7.43e-01	0	43	104	576716800	21	15766
2026-01-30 13:28:53.74	282.05	25.70	-30.6	-43.6	3.8	7.46e-01	0	43	104	576716800	21	16121
2026-01-30 13:28:54.74	282.39	25.65	-30.8	-43.7	3.8	7.45e-01	0	43	104	576716800	22	15875
2026-01-30 13:28:55.76	282.75	25.61	-31.0	-44.2	3.8	7.44e-01	0	43	104	576716800	22	16568
2026-01-30 13:28:56.77	283.09	25.56	-31.3	-44.8	3.8	7.43e-01	0	43	104	576716800	23	16861
2026-01-30 13:28:57.78	283.44	25.51	-31.7	-45.3	3.8	7.46e-01	0	43	104	576716800	24	17235
2026-01-30 13:28:58.79	283.78	25.47	-32.0	-46.4	3.8	7.45e-01	0	43	104	576716800	24	18914
2026-01-30 13:28:59.80	284.12	25.42	-32.4	-47.2	3.8	7.45e-01	0	43	104	576716800	25	19729
2026-01-30 13:29:00.81	284.46	25.37	-32.5	-47.6	3.8	7.43e-01	0	43	104	576716800	25	20344
2026-01-30 13:29:01.82	284.81	25.32	-32.8	-48.0	3.8	7.47e-01	0	43	104	576716800	26	20661
2026-01-30 13:29:02.83	285.14	25.26	-33.0	-48.8	3.8	7.47e-01	0	43	104	576716800	26	22336
2026-01-30 13:29:03.84	285.48	25.21	-33.1	-49.3	3.8	7.46e-01	0	43	104	576716800	26	23153
2026-01-30 13:29:04.85	285.82	25.16	-33.2	-49.0	3.8	7.43e-01	0	43	104	576716800	27	22414
2026-01-30 13:29:05.86	286.16	25.10	-33.2	-49.5	3.8	7.46e-01	0	43	104	576716800	27	23345
2026-01-30 13:29:06.87	286.49	25.05	-33.2	-49.3	3.8	7.45e-01	0	43	104	576716800	27	23014
2026-01-30 13:29:07.88	286.82	24.99	-33.1	-48.9	3.8	7.43e-01	0	43	104	576716800	27	22203
2026-01-30 13:29:08.90	287.16	24.93	-33.1	-48.8	3.8	7.46e-01	0	43	104	576716800	27	21926
2026-01-30 13:29:09.91	287.49	24.87	-33.1	-48.6	3.8	7.46e-01	0	43	104	576716800	27	21646
2026-01-30 13:29:10.92	287.82	24.82	-33.1	-48.7	3.8	7.45e-01	0	43	104	576716800	27	21776
2026-01-30 13:29:11.93	288.15	24.76	-33.2	-49.2	3.8	7.44e-01	0	43	104	576716800	27	22807
2026-01-30 13:29:12.94	288.48	24.70	-33.1	-49.0	3.8	7.43e-01	0	43	104	576716800	27	22419
2026-01-30 13:29:13.95	288.80	24.63	-33.0	-48.7	3.8	7.42e-01	0	43	104	576716800	27	21828
2026-01-30 13:29:14.96	289.13	24.57	-32.9	-48.0	3.8	7.45e-01	0	43	104	576716800	27	20533
2026-01-30 13:29:15.97	289.45	24.51	-32.7	-47.0	3.8	7.43e-01	0	43	104	576716800	27	18838
2026-01-30 13:29:16.98	289.77	24.45	-32.5	-46.6	3.8	7.43e-01	0	43	104	576716800	27	18208
2026-01-30 13:29:17.99	290.09	24.38	-32.5	-46.5	3.8	7.46e-01	0	43	104	576716800	27	18070
2026-01-30 13:29:19.00	290.41	24.32	-32.5	-46.4	3.8	7.44e-01	0	43	104	576716800	27	17838
2026-01-30 13:29:20.01	290.73	24.25	-32.5	-46.5	3.8	7.42e-01	0	43	104	576716800	27	17963
2026-01-30 13:29:21.02	291.04	24.18	-32.6	-46.8	3.8	7.44e-01	0	43	104	576716800	27	18509
2026-01-30 13:29:22.04	291.36	24.12	-32.7	-47.2	3.8	7.45e-01	0	43	104	576716800	27	19150
2026-01-30 13:29:23.05	291.68	24.05	-32.3	-46.5	3.8	7.47e-01	0	43	104	576716800	26	18400
2026-01-30 13:29:24.06	291.99	23.98	-32.0	-45.2	3.8	7.42e-01	0	43	104	576716800	26	16461
2026-01-30 13:29:25.07	292.30	23.91	-31.5	-44.4	3.8	7.47e-01	0	43	104	576716800	25	15803
2026-01-30 13:29:26.08	292.61	23.84	-31.2	-43.8	3.8	7.43e-01	0	43	104	576716800	24	15484
2026-01-30 13:29:27.09	292.92	23.77	-30.8	-43.2	3.8	7.49e-01	0	43	104	576716800	23	15030
2026-01-30 13:29:28.10	293.22	23.70	-30.5	-42.3	3.8	7.44e-01	0	43	104	576716800	23	14112
2026-01-30 13:29:29.11	293.53	23.63	-30.2	-42.2	3.8	7.42e-01	0	43	104	576716800	22	14252
2026-01-30 13:29:30.12	293.83	23.56	-30.5	-42.9	3.8	7.44e-01	0	43	104	576716800	22	15076
2026-01-30 13:29:31.13	294.13	23.49	-30.7	-43.6	3.8	7.41e-01	0	43	104	576716800	22	15841
2026-01-30 13:29:32.15	294.44	23.41	-30.5	-42.9	3.8	7.42e-01	0	43	104	576716800	22	15041
2026-01-30 13:29:33.16	294.74	23.34	-30.2	-42.4	3.8	7.42e-01	0	43	104	576716800	22	14514
2026-01-30 13:29:34.17	295.03	23.26	-30.1	-41.9	3.8	7.42e-01	0	43	104	576716800	22	14046
2026-01-30 13:29:35.18	295.33	23.19	-30.0	-41.6	3.8	7.42e-01	0	43	104	576716800	22	13709
2026-01-30 13:29:36.19	295.63	23.11	-29.8	-41.7	3.8	7.45e-01	0	43	104	576716800	21	14125
2026-01-30 13:29:37.20	295.92	23.04	-30.0	-42.2	3.8	7.48e-01	0	43	104	576716800	21	14579
2026-01-30 13:29:38.21	296.21	22.96	-30.3	-43.0	3.8	7.42e-01	0	43	104	576716800	21	15455
2026-01-30 13:29:39.22	296.50	22.88	-30.7	-43.5	3.8	7.44e-01	0	43	104	576716800	22	15756
2026-01-30 13:29:40.23	296.79	22.81	-31.2	-44.4	3.8	7.44e-01	0	43	104	576716800	23	16513
2026-01-30 13:29:41.24	297.08	22.73	-31.4	-45.2	3.8	7.46e-01	0	43	104	576716800	23	17527
2026-01-30 13:29:42.25	297.36	22.65	-31.5	-45.2	3.8	7.45e-01	0	43	104	576716800	23	17547
2026-01-30 13:29:43.26	297.65	22.57	-31.5	-45.2	3.8	7.44e-01	0	43	104	576716800	23	17520
2026-01-30 13:29:44.28	297.93	22.49	-31.6	-45.4	3.8	7.48e-01	0	43	104	576716800	23	17789
2026-01-30 13:29:45.29	298.22	22.41	-31.7	-45.6	3.8	7.40e-01	0	43	104	576716800	24	17655
2026-01-30 13:29:46.30	298.50	22.33	-32.0	-46.4	3.8	7.43e-01	0	43	104	576716800	24	18955
2026-01-30 13:29:47.31	298.77	22.25	-32.2	-46.7	3.8	7.44e-01	0	43	104	576716800	25	19046
2026-01-30 13:29:48.32	299.05	22.17	-32.4	-47.3	3.8	7.47e-01	0	43	104	576716800	25	20033
2026-01-30 13:29:49.33	299.33	22.09	-32.7	-47.9	3.8	7.44e-01	0	43	104	576716800	26	20626
2026-01-30 13:29:50.34	299.60	22.01	-32.9	-48.7	3.8	7.45e-01	0	43	104	576716800	26	22266
2026-01-30 13:29:51.35	299.87	21.93	-33.0	-49.2	3.8	7.42e-01	0	43	104	576716800	26	23256
2026-01-30 13:29:52.36	300.14	21.85	-33.1	-49.5	3.8	7.43e-01	0	43	104	576716800	26	23831
2026-01-30 13:29:53.37	300.41	21.77	-33.1	-49.1	3.8	7.44e-01	0	43	104	576716800	27	22638
2026-01-30 13:29:54.38	300.68	21.68	-33.1	-49.1	3.8	7.45e-01	0	43	104	576716800	27	22614
2026-01-30 13:29:55.39	300.95	21.60	-33.2	-49.2	3.8	7.42e-01	0	43	104	576716800	27	22806
2026-01-30 13:29:56.41	301.22	21.52	-33.2	-49.3	3.8	7.43e-01	0	43	104	576716800	27	23137
2026-01-30 13:29:57.42	301.48	21.43	-33.2	-49.3	3.8	7.47e-01	0	43	104	576716800	27	23091
2026-01-30 13:29:58.43	301.74	21.35	-33.2	-49.2	3.8	7.46e-01	0	43	104	576716800	27	22963
2026-01-30 13:29:59.44	302.00	21.26	-33.1	-49.2	3.8	7.44e-01	0	43	104	576716800	27	22796
2026-01-30 13:30:00.45	302.26	21.18	-33.1	-49.1	3.8	7.46e-01	0	43	104	576716800	27	22523
2026-01-30 13:30:01.46	302.52	21.10	-33.0	-48.7	3.8	7.46e-01	0	43	104	576716800	27	21793
2026-01-30 13:30:02.47	302.78	21.01	-32.9	-48.3	3.8	7.45e-01	0	43	104	576716800	27	21073
2026-01-30 13:30:03.48	303.03	20.93	-32.8	-47.6	3.8	7.42e-01	0	43	104	576716800	27	19917
2026-01-30 13:30:04.49	303.29	20.84	-32.5	-46.7	3.8	7.47e-01	0	43	104	576716800	27	18461
2026-01-30 13:30:05.51	303.54	20.75	-32.3	-46.3	3.8	7.42e-01	0	43	104	576716800	26	18055
2026-01-30 13:30:06.52	303.79	20.67	-32.1	-45.6	3.8	7.47e-01	0	43	104	576716800	26	17155
2026-01-30 13:30:07.53	304.04	20.58	-31.9	-45.2	3.8	7.43e-01	0	43	104	576716800	26	16648
2026-01-30 13:30:08.54	304.29	20.50	-31.8	-45.4	3.8	7.44e-01	0	43	104	576716800	25	17114
2026-01-30 13:30:09.55	304.53	20.41	-31.9	-45.6	3.8	7.47e-01	0	43	104	576716800	25	17458
2026-01-30 13:30:10.56	304.78	20.32	-32.0	-45.9	3.8	7.49e-01	0	43	104	576716800	25	17822
2026-01-30 13:30:11.57	305.02	20.24	-32.1	-46.1	3.8	7.42e-01	0	43	104	576716800	25	18176
2026-01-30 13:30:12.58	305.26	20.15	-31.9	-45.6	3.8	7.46e-01	0	43	104	576716800	25	17332
2026-01-30 13:30:13.59	305.50	20.06	-31.5	-44.4	3.8	7.43e-01	0	43	104	576716800	25	15851
2026-01-30 13:30:14.60	305.74	19.98	-31.1	-43.8	3.8	7.46e-01	0	43	104	576716800	24	15455
2026-01-30 13:30:15.61	305.98	19.89	-30.8	-43.3	3.8	7.42e-01	0	43	104	576716800	23	15251
2026-01-30 13:30:16.62	306.22	19.80	-30.4	-42.4	3.8	7.44e-01	0	43	104	576716800	23	14326
2026-01-30 13:30:17.63	306.45	19.72	-30.1	-42.1	3.8	7.46e-01	0	43	104	576716800	22	14249
2026-01-30 13:30:18.64	306.69	19.63	-30.2	-42.2	3.8	7.45e-01	0	43	104	576716800	22	14319
2026-01-30 13:30:19.66	306.92	19.54	-30.4	-42.8	3.8	7.43e-01	0	43	104	576716800	22	14884
2026-01-30 13:30:20.67	307.15	19.45	-30.7	-43.4	3.8	7.43e-01	0	43	104	576716800	22	15668
2026-01-30 13:30:21.68	307.38	19.36	-30.6	-43.3	3.8	7.43e-01	0	43	104	576716800	22	15575
2026-01-30 13:30:22.69	307.61	19.28	-30.3	-42.5	3.8	7.45e-01	0	43	104	576716800	22	14752
2026-01-30 13:30:23.70	307.84	19.19	-30.1	-42.1	3.8	7.46e-01	0	43	104	576716800	22	14235
2026-01-30 13:30:24.71	308.06	19.10	-30.0	-41.7	3.8	7.46e-01	0	43	104	576716800	22	13901
2026-01-30 13:30:25.72	308.29	19.01	-30.2	-42.3	3.8	7.46e-01	0	43	104	576716800	22	14442
2026-01-30 13:30:26.73	308.51	18.92	-30.6	-43.3	3.8	7.46e-01	0	43	104	576716800	22	15626
2026-01-30 13:30:27.74	308.73	18.84	-31.0	-44.5	3.8	7.43e-01	0	43	104	576716800	22	16976
2026-01-30 13:30:28.75	308.95	18.75	-31.4	-45.1	3.8	7.45e-01	0	43	104	576716800	23	17480
2026-01-30 13:30:29.77	309.17	18.66	-31.8	-45.9	3.8	7.43e-01	0	43	104	576716800	24	18141
2026-01-30 13:30:30.78	309.39	18.57	-32.2	-46.7	3.8	7.43e-01	0	43	104	576716800	25	19165
2026-01-30 13:30:31.79	309.60	18.48	-32.3	-46.9	3.8	7.45e-01	0	43	104	576716800	25	19429
2026-01-30 13:30:32.80	309.82	18.39	-32.3	-46.9	3.8	7.44e-01	0	43	104	576716800	25	19432
2026-01-30 13:30:33.81	310.03	18.30	-32.3	-47.0	3.8	7.48e-01	0	43	104	576716800	25	19640
2026-01-30 13:30:34.82	310.24	18.22	-32.3	-47.2	3.8	7.46e-01	0	43	104	576716800	25	20023
2026-01-30 13:30:35.83	310.46	18.13	-32.4	-47.5	3.8	7.43e-01	0	43	104	576716800	25	20391
2026-01-30 13:30:36.84	310.67	18.04	-32.5	-47.9	3.8	7.44e-01	0	43	104	576716800	25	21129
2026-01-30 13:30:37.85	310.87	17.95	-32.8	-48.3	3.8	7.43e-01	0	43	104	576716800	26	21491
2026-01-30 13:30:38.86	311.08	17.86	-32.9	-48.8	3.8	7.44e-01	0	43	104	576716800	26	22508
2026-01-30 13:30:39.88	311.29	17.77	-32.9	-49.1	3.8	7.45e-01	0	43	104	576716800	26	23022
2026-01-30 13:30:40.89	311.49	17.69	-33.0	-49.3	3.8	7.47e-01	0	43	104	576716800	26	23447
2026-01-30 13:30:41.90	311.70	17.60	-33.0	-49.4	3.8	7.46e-01	0	43	104	576716800	26	23766
2026-01-30 13:30:42.91	311.90	17.51	-33.0	-49.3	3.8	7.46e-01	0	43	104	576716800	26	23684
2026-01-30 13:30:43.92	312.10	17.42	-33.0	-49.2	3.8	7.46e-01	0	43	104	576716800	26	23407
2026-01-30 13:30:44.93	312.30	17.33	-33.0	-49.4	3.8	7.43e-01	0	43	104	576716800	26	23765
2026-01-30 13:30:45.94	312.50	17.24	-33.1	-49.8	3.8	7.43e-01	0	43	104	576716800	26	24739
2026-01-30 13:30:46.95	312.70	17.16	-33.0	-49.0	3.8	7.46e-01	0	43	104	576716800	27	22559
2026-01-30 13:30:47.96	312.89	17.07	-33.0	-48.7	3.8	7.42e-01	0	43	104	576716800	27	22140
2026-01-30 13:30:48.98	313.09	16.98	-32.9	-48.5	3.8	7.44e-01	0	43	104	576716800	27	21729
2026-01-30 13:30:49.99	313.28	16.89	-32.9	-48.4	3.8	7.49e-01	0	43	104	576716800	27	21601
2026-01-30 13:30:51.00	313.47	16.80	-32.8	-48.0	3.8	7.48e-01	0	43	104	576716800	27	20848
2026-01-30 13:30:52.01	313.67	16.71	-32.6	-47.4	3.8	7.43e-01	0	43	104	576716800	27	19736
2026-01-30 13:30:53.02	313.86	16.63	-32.4	-46.6	3.8	7.43e-01	0	43	104	576716800	27	18441
2026-01-30 13:30:54.03	314.05	16.54	-32.1	-45.8	3.8	7.47e-01	0	43	104	576716800	26	17540
2026-01-30 13:30:55.04	314.23	16.45	-31.8	-45.3	3.8	7.44e-01	0	43	104	576716800	25	17023
2026-01-30 13:30:56.05	314.42	16.36	-31.4	-44.1	3.8	7.45e-01	0	43	104	576716800	25	15510
2026-01-30 13:30:57.06	314.61	16.28	-31.3	-44.2	3.8	7.44e-01	0	43	104	576716800	24	15965
2026-01-30 13:30:58.07	314.79	16.19	-31.2	-44.0	3.8	7.45e-01	0	43	104	576716800	24	15705
2026-01-30 13:30:59.08	314.97	16.10	-31.1	-43.9	3.8	7.44e-01	0	43	104	576716800	24	15711
2026-01-30 13:31:00.10	315.16	16.01	-31.2	-44.1	3.8	7.46e-01	0	43	104	576716800	24	15934
2026-01-30 13:31:01.11	315.34	15.93	-31.3	-44.5	3.8	7.45e-01	0	43	104	576716800	24	16442
2026-01-30 13:31:02.12	315.52	15.84	-31.5	-45.1	3.8	7.46e-01	0	43	104	576716800	24	17217
2026-01-30 13:31:03.13	315.70	15.75	-31.1	-43.9	3.8	7.41e-01	0	43	104	576716800	24	15732
2026-01-30 13:31:04.14	315.88	15.66	-30.7	-43.2	3.8	7.42e-01	0	43	104	576716800	23	15282
2026-01-30 13:31:05.15	316.05	15.58	-30.4	-42.6	3.8	7.46e-01	0	43	104	576716800	23	14665
2026-01-30 13:31:06.16	316.23	15.49	-30.1	-42.5	3.8	7.47e-01	0	43	104	576716800	22	14841
2026-01-30 13:31:07.17	316.40	15.40	-30.5	-43.2	3.8	7.48e-01	0	43	104	576716800	22	15526
2026-01-30 13:31:08.19	316.58	15.32	-30.8	-44.2	3.8	7.45e-01	0	43	104	576716800	22	16734
2026-01-30 13:31:09.20	316.75	15.23	-31.1	-44.5	3.8	7.43e-01	0	43	104	576716800	23	16844
2026-01-30 13:31:10.21	316.92	15.14	-31.3	-45.1	3.8	7.43e-01	0	43	104	576716800	23	17594
2026-01-30 13:31:11.22	317.09	15.06	-31.5	-45.6	3.8	7.45e-01	0	43	104	576716800	23	18227
2026-01-30 13:31:12.23	317.26	14.97	-31.2	-44.8	3.8	7.43e-01	0	43	104	576716800	23	17209
2026-01-30 13:31:13.24	317.43	14.89	-31.1	-44.3	3.8	7.45e-01	0	43	104	576716800	23	16500
2026-01-30 13:31:14.25	317.60	14.80	-30.9	-43.9	3.8	7.47e-01	0	43	104	576716800	23	16001
2026-01-30 13:31:15.26	317.77	14.71	-30.9	-43.8	3.8	7.45e-01	0	43	104	576716800	23	15897
2026-01-30 13:31:16.27	317.93	14.63	-31.3	-45.1	3.8	7.44e-01	0	43	104	576716800	23	17595
2026-01-30 13:31:17.28	318.10	14.54	-31.7	-46.0	3.8	7.47e-01	0	43	104	576716800	24	18498
2026-01-30 13:31:18.29	318.26	14.46	-32.1	-47.1	3.8	7.46e-01	0	43	104	576716800	24	20364
2026-01-30 13:31:19.30	318.42	14.37	-32.3	-47.6	3.8	7.44e-01	0	43	104	576716800	25	20844
2026-01-30 13:31:20.31	318.58	14.29	-32.6	-48.6	3.8	7.45e-01	0	43	104	576716800	25	22842
2026-01-30 13:31:21.32	318.74	14.20	-32.7	-48.6	3.8	7.47e-01	0	43	104	576716800	26	22558
2026-01-30 13:31:22.33	318.90	14.12	-32.7	-48.5	3.8	7.48e-01	0	43	104	576716800	26	22056
2026-01-30 13:31:23.34	319.06	14.03	-32.7	-48.5	3.8	7.46e-01	0	43	104	576716800	26	22154
2026-01-30 13:31:24.36	319.22	13.95	-32.7	-48.5	3.8	7.47e-01	0	43	104	576716800	26	22229
2026-01-30 13:31:25.37	319.38	13.86	-32.7	-48.6	3.8	7.45e-01	0	43	104	576716800	26	22401
2026-01-30 13:31:26.38	319.54	13.78	-32.8	-48.9	3.8	7.46e-01	0	43	104	576716800	26	23038
2026-01-30 13:31:27.39	319.69	13.69	-32.9	-49.2	3.8	7.47e-01	0	43	104	576716800	26	23663
2026-01-30 13:31:28.40	319.85	13.61	-32.9	-49.4	3.8	7.46e-01	0	43	104	576716800	26	23911
2026-01-30 13:31:29.41	320.00	13.53	-32.9	-49.4	3.8	7.45e-01	0	43	104	576716800	26	23967
2026-01-30 13:31:30.42	320.15	13.44	-32.9	-49.4	3.8	7.43e-01	0	43	104	576716800	26	23994
2026-01-30 13:31:31.43	320.30	13.36	-32.9	-49.3	3.8	7.45e-01	0	43	104	576716800	26	23868
2026-01-30 13:31:32.44	320.45	13.28	-32.9	-49.3	3.8	7.48e-01	0	43	104	576716800	26	23875
2026-01-30 13:31:33.45	320.60	13.19	-32.8	-49.1	3.8	7.48e-01	0	43	104	576716800	26	23472
2026-01-30 13:31:34.47	320.75	13.11	-32.8	-49.0	3.8	7.45e-01	0	43	104	576716800	26	23322
2026-01-30 13:31:35.48	320.90	13.03	-32.9	-49.5	3.8	7.44e-01	0	43	104	576716800	26	24296
2026-01-30 13:31:36.49	321.05	12.94	-32.9	-49.6	3.8	7.51e-01	0	43	104	576716800	26	24621
2026-01-30 13:31:37.50	321.19	12.86	-32.8	-49.0	3.8	7.44e-01	0	43	104	576716800	26	23158
2026-01-30 13:31:38.51	321.34	12.78	-32.7	-48.7	3.8	7.40e-01	0	43	104	576716800	26	22557
2026-01-30 13:31:39.52	321.48	12.70	-32.6	-48.3	3.8	7.47e-01	0	43	104	576716800	26	21792
2026-01-30 13:31:40.53	321.63	12.61	-32.5	-47.8	3.8	7.46e-01	0	43	104	576716800	26	20877
2026-01-30 13:31:41.54	321.77	12.53	-32.3	-46.8	3.8	7.43e-01	0	43	104	576716800	26	19222
2026-01-30 13:31:42.55	321.91	12.45	-32.0	-45.9	3.8	7.45e-01	0	43	104	576716800	26	17826
2026-01-30 13:31:43.57	322.06	12.37	-31.7	-45.3	3.8	7.43e-01	0	43	104	576716800	25	17354
2026-01-30 13:31:44.58	322.20	12.29	-31.3	-44.6	3.8	7.44e-01	0	43	104	576716800	24	16748
2026-01-30 13:31:45.59	322.34	12.21	-31.0	-43.6	3.8	7.45e-01	0	43	104	576716800	24	15356
2026-01-30 13:31:46.60	322.47	12.12	-30.8	-43.5	3.8	7.45e-01	0	43	104	576716800	23	15529
2026-01-30 13:31:47.61	322.61	12.04	-30.7	-43.4	3.8	7.47e-01	0	43	104	576716800	23	15456
2026-01-30 13:31:48.62	322.75	11.96	-30.7	-43.4	3.8	7.42e-01	0	43	104	576716800	23	15512
2026-01-30 13:31:49.63	322.89	11.88	-30.8	-43.5	3.8	7.45e-01	0	43	104	576716800	23	15565
2026-01-30 13:31:50.64	323.02	11.80	-30.9	-43.8	3.8	7.46e-01	0	43	104	576716800	23	15980
2026-01-30 13:31:51.65	323.16	11.72	-31.0	-44.4	3.8	7.44e-01	0	43	104	576716800	23	16659
2026-01-30 13:31:52.66	323.29	11.64	-30.9	-44.0	3.8	7.46e-01	0	43	104	576716800	23	16180
2026-01-30 13:31:53.67	323.42	11.56	-30.7	-43.2	3.8	7.46e-01	0	43	104	576716800	23	15330
2026-01-30 13:31:54.68	323.56	11.48	-30.7	-43.4	3.8	7.49e-01	0	43	104	576716800	23	15453
2026-01-30 13:31:55.69	323.69	11.40	-31.0	-44.3	3.8	7.41e-01	0	43	104	576716800	23	16641
2026-01-30 13:31:56.70	323.82	11.32	-31.4	-45.4	3.8	7.45e-01	0	43	104	576716800	23	18110
2026-01-30 13:31:57.71	323.95	11.24	-31.7	-46.1	3.8	7.43e-01	0	43	104	576716800	24	18863
2026-01-30 13:31:58.72	324.08	11.16	-32.0	-47.1	3.8	7.44e-01	0	43	104	576716800	24	20514
2026-01-30 13:31:59.74	324.21	11.08	-32.2	-47.5	3.8	7.44e-01	0	43	104	576716800	25	20967
2026-01-30 13:32:00.75	324.34	11.00	-32.4	-48.0	3.8	7.44e-01	0	43	104	576716800	25	21865
2026-01-30 13:32:01.76	324.47	10.93	-32.2	-47.6	3.8	7.46e-01	0	43	104	576716800	25	21134
2026-01-30 13:32:02.77	324.59	10.85	-32.2	-47.2	3.8	7.44e-01	0	43	104	576716800	25	20406
2026-01-30 13:32:03.78	324.72	10.77	-32.0	-46.7	3.8	7.46e-01	0	43	104	576716800	25	19423
2026-01-30 13:32:04.79	324.84	10.69	-32.0	-46.4	3.8	7.46e-01	0	43	104	576716800	25	19075
2026-01-30 13:32:05.80	324.97	10.61	-32.1	-47.1	3.8	7.45e-01	0	43	104	576716800	25	20247
2026-01-30 13:32:06.81	325.09	10.53	-32.4	-48.4	3.8	7.47e-01	0	43	104	576716800	25	22559
2026-01-30 13:32:07.82	325.22	10.46	-32.6	-48.7	3.8	7.42e-01	0	43	104	576716800	26	22887
2026-01-30 13:32:08.83	325.34	10.38	-32.7	-49.1	3.8	7.45e-01	0	43	104	576716800	26	23810
2026-01-30 13:32:09.84	325.46	10.30	-32.8	-49.6	3.8	7.46e-01	0	43	104	576716800	26	24891
2026-01-30 13:32:10.86	325.58	10.22	-32.9	-50.0	3.8	7.48e-01	0	43	104	576716800	26	25775
2026-01-30 13:32:11.87	325.70	10.15	-32.9	-49.9	3.8	7.44e-01	0	43	104	576716800	26	25479
2026-01-30 13:32:12.88	325.82	10.07	-32.8	-49.7	3.8	7.46e-01	0	43	104	576716800	26	25118
2026-01-30 13:32:13.89	325.94	9.99	-32.8	-49.5	3.8	7.44e-01	0	43	104	576716800	26	24719
2026-01-30 13:32:14.90	326.06	9.92	-32.8	-49.5	3.8	7.44e-01	0	43	104	576716800	26	24649
2026-01-30 13:32:15.91	326.18	9.84	-32.8	-49.5	3.8	7.46e-01	0	43	104	576716800	26	24553
2026-01-30 13:32:16.92	326.30	9.76	-32.8	-49.6	3.8	7.46e-01	0	43	104	576716800	26	24794
2026-01-30 13:32:17.93	326.41	9.69	-32.8	-49.7	3.8	7.43e-01	0	43	104	576716800	26	25087
2026-01-30 13:32:18.94	326.53	9.61	-32.8	-49.6	3.8	7.44e-01	0	43	104	576716800	26	24988
2026-01-30 13:32:19.95	326.65	9.54	-32.8	-49.7	3.8	7.44e-01	0	43	104	576716800	26	25015
2026-01-30 13:32:20.97	326.76	9.46	-32.8	-49.5	3.8	7.45e-01	0	43	104	576716800	26	24744
2026-01-30 13:32:21.98	326.88	9.38	-32.7	-49.2	3.8	7.45e-01	0	43	104	576716800	26	24036
2026-01-30 13:32:22.99	326.99	9.31	-32.6	-48.7	3.8	7.46e-01	0	43	104	576716800	26	23047
2026-01-30 13:32:24.00	327.10	9.23	-32.5	-48.0	3.8	7.46e-01	0	43	104	576716800	26	21615
2026-01-30 13:32:25.01	327.22	9.16	-32.5	-48.4	3.8	7.44e-01	0	43	104	576716800	26	22429
2026-01-30 13:32:26.02	327.33	9.08	-32.7	-49.0	3.8	7.44e-01	0	43	104	576716800	26	23587
2026-01-30 13:32:27.03	327.44	9.01	-32.6	-48.5	3.8	7.44e-01	0	43	104	576716800	26	22436
2026-01-30 13:32:28.04	327.55	8.94	-32.4	-48.0	3.8	7.46e-01	0	43	104	576716800	26	21638
2026-01-30 13:32:29.05	327.66	8.86	-32.4	-47.7	3.8	7.44e-01	0	43	104	576716800	26	20955
2026-01-30 13:32:30.06	327.77	8.79	-32.3	-47.6	3.8	7.46e-01	0	43	104	576716800	26	20804
2026-01-30 13:32:31.08	327.88	8.71	-32.1	-46.7	3.8	7.45e-01	0	43	104	576716800	26	19283
2026-01-30 13:32:32.09	327.99	8.64	-31.8	-46.2	3.8	7.46e-01	0	43	104	576716800	25	18743
2026-01-30 13:32:33.10	328.09	8.56	-31.6	-45.2	3.8	7.45e-01	0	43	104	576716800	25	17384
2026-01-30 13:32:34.11	328.20	8.49	-31.2	-44.7	3.8	7.45e-01	0	43	104	576716800	24	16965
2026-01-30 13:32:35.12	328.31	8.42	-31.0	-43.9	3.8	7.48e-01	0	43	104	576716800	24	15912
2026-01-30 13:32:36.13	328.41	8.34	-30.8	-43.8	3.8	7.48e-01	0	43	104	576716800	23	16137
2026-01-30 13:32:37.14	328.52	8.27	-30.7	-43.6	3.8	7.44e-01	0	43	104	576716800	23	15814
2026-01-30 13:32:38.15	328.63	8.20	-30.7	-43.5	3.8	7.44e-01	0	43	104	576716800	23	15803
2026-01-30 13:32:39.17	328.73	8.13	-30.7	-43.6	3.8	7.46e-01	0	43	104	576716800	23	15861
2026-01-30 13:32:40.18	328.83	8.05	-30.8	-43.7	3.8	7.46e-01	0	43	104	576716800	23	16040
2026-01-30 13:32:41.19	328.94	7.98	-30.9	-44.3	3.8	7.42e-01	0	43	104	576716800	23	16733
2026-01-30 13:32:42.20	329.04	7.91	-31.1	-44.9	3.8	7.46e-01	0	43	104	576716800	23	17581
2026-01-30 13:32:43.21	329.14	7.84	-31.4	-45.7	3.8	7.47e-01	0	43	104	576716800	23	18815
2026-01-30 13:32:44.22	329.24	7.77	-31.6	-46.6	3.8	7.42e-01	0	43	104	576716800	23	20155
2026-01-30 13:32:45.23	329.35	7.69	-31.8	-47.0	3.8	7.47e-01	0	43	104	576716800	24	20582
2026-01-30 13:32:46.24	329.45	7.62	-32.1	-48.0	3.8	7.44e-01	0	43	104	576716800	24	22545
2026-01-30 13:32:47.25	329.55	7.55	-32.3	-48.4	3.8	7.43e-01	0	43	104	576716800	25	23078
2026-01-30 13:32:48.26	329.65	7.48	-32.4	-49.2	3.8	7.45e-01	0	43	104	576716800	25	24724
2026-01-30 13:32:49.27	329.75	7.41	-32.6	-49.8	3.8	7.49e-01	0	43	104	576716800	25	26317
2026-01-30 13:32:50.28	329.84	7.34	-32.6	-49.7	3.8	7.45e-01	0	43	104	576716800	26	25647
2026-01-30 13:32:51.29	329.94	7.27	-32.7	-49.9	3.8	7.44e-01	0	43	104	576716800	26	26135
2026-01-30 13:32:52.30	330.04	7.20	-32.6	-49.5	3.8	7.45e-01	0	43	104	576716800	26	25274
2026-01-30 13:32:53.32	330.14	7.12	-32.5	-49.2	3.8	7.43e-01	0	43	104	576716800	26	24636
2026-01-30 13:32:54.33	330.24	7.05	-32.5	-48.6	3.8	7.46e-01	0	43	104	576716800	26	23055
2026-01-30 13:32:55.34	330.33	6.98	-33.4	-53.0	3.8	7.45e-01	0	43	104	576716800	27	34230

#Closed at: 2026-01-30 13:32:56
#Recorded file [576 MB]: D:/data/31010_260130_162339.dat