passes_logs/2026/01/30/R2M6_AANII_01/R2M6_AANII_01__20260130_105723_NOAA_21_JPSS-2_rec.log

#Pass ID: 20260130_105723_NOAA 21 (JPSS-2)
#Satellite: NOAA 21 (JPSS-2)
#Configuration: NOAA 21
#almurnet v.1.7.20240730
#Start time: 2026-01-30 10:57:22

#Version: 2.2.20231116
#Station: R2M6_AANII_01
#Location: 30.233357 lon 59.946436 lat
#TLE: 1 54234U 22150A   26029.46216196  .00000141  00000+0  87503-4 0  9994
#TLE: 2 54234  98.7512 330.1880 0000955 196.3413 163.7732 14.19540905166865

#Time	Az	El	Level	Level2	SNR	BER	BlckErr	Temp	State	Recorded	gain1	gain2
2026-01-30 10:57:22.97	180.10	6.96	-29.6	-33.5	4.9	1.35e+00	0	41	0	0	19	5636
2026-01-30 10:57:23.97	180.14	7.04	-30.9	-36.6	4.5	1.41e+00	0	41	104	0	21	6961
2026-01-30 10:57:24.98	180.18	7.11	-30.9	-35.5	7.6	9.73e-02	0	41	0	0	22	6111
2026-01-30 10:57:25.98	180.22	7.19	-30.7	-34.5	8.4	5.51e-02	0	41	0	3145728	22	5598
2026-01-30 10:57:26.99	180.26	7.27	-30.9	-35.4	7.8	7.22e-02	0	41	0	6291456	22	6035
2026-01-30 10:57:27.99	180.30	7.34	-30.5	-34.1	8.7	3.81e-02	0	41	0	9437184	22	5423
2026-01-30 10:57:28.99	180.35	7.42	-30.3	-33.2	9.4	1.91e-02	0	41	0	12582912	22	5031
2026-01-30 10:57:29.99	180.39	7.49	-29.9	-32.6	10.1	9.18e-03	0	41	0	15728640	21	4922
2026-01-30 10:57:30.99	180.43	7.57	-29.6	-32.1	10.8	3.12e-03	0	41	0	18874368	20	4823
2026-01-30 10:57:31.99	180.47	7.65	-29.3	-31.8	11.4	1.15e-03	0	41	0	22020096	19	4819
2026-01-30 10:57:32.99	180.51	7.72	-29.0	-31.0	12.0	4.03e-04	0	41	0	24117248	19	4541
2026-01-30 10:57:33.99	180.55	7.80	-28.8	-30.5	12.3	2.19e-04	0	41	0	27262976	19	4394
2026-01-30 10:57:35.00	180.60	7.88	-28.7	-30.7	12.5	1.33e-04	0	41	0	30408704	18	4554
2026-01-30 10:57:36.00	180.64	7.96	-28.6	-30.6	12.6	9.99e-05	0	41	0	33554432	18	4518
2026-01-30 10:57:37.00	180.68	8.04	-28.7	-30.6	12.5	1.08e-04	0	42	0	36700160	18	4532
2026-01-30 10:57:38.00	180.73	8.11	-28.7	-30.7	12.5	8.69e-05	0	42	0	39845888	18	4554
2026-01-30 10:57:39.00	180.77	8.19	-28.8	-30.9	12.4	1.36e-04	0	41	0	42991616	18	4617
2026-01-30 10:57:40.00	180.81	8.27	-28.6	-30.5	12.7	1.09e-04	0	41	0	46137344	18	4468
2026-01-30 10:57:41.00	180.86	8.35	-28.5	-30.3	12.8	5.64e-05	0	42	0	49283072	18	4437
2026-01-30 10:57:42.00	180.90	8.43	-28.6	-30.5	12.7	8.54e-05	0	41	0	52428800	18	4493
2026-01-30 10:57:43.01	180.94	8.51	-28.5	-30.3	12.8	5.34e-05	0	42	0	55574528	18	4410
2026-01-30 10:57:44.01	180.99	8.59	-28.5	-30.3	12.8	5.49e-05	0	42	0	58720256	18	4438
2026-01-30 10:57:45.01	181.03	8.67	-28.4	-30.0	13.0	3.73e-05	0	42	0	61865984	18	4342
2026-01-30 10:57:46.01	181.08	8.75	-28.3	-29.9	13.1	3.28e-05	0	42	0	65011712	18	4287
2026-01-30 10:57:47.01	181.12	8.83	-28.3	-29.8	13.2	2.44e-05	0	42	0	68157440	18	4275
2026-01-30 10:57:48.01	181.17	8.91	-28.4	-29.9	13.1	3.20e-05	0	42	0	71303168	18	4311
2026-01-30 10:57:49.01	181.21	8.99	-28.3	-29.8	13.2	3.50e-05	0	42	0	74448896	18	4266
2026-01-30 10:57:50.02	181.26	9.07	-28.2	-30.1	13.3	1.60e-05	0	42	0	77594624	17	4454
2026-01-30 10:57:51.03	181.31	9.15	-28.1	-29.9	13.4	2.05e-05	0	42	0	80740352	17	4388
2026-01-30 10:57:52.03	181.35	9.24	-28.1	-29.7	13.5	9.10e-06	0	42	0	83886080	17	4353
2026-01-30 10:57:53.03	181.40	9.32	-28.3	-30.3	13.2	1.60e-05	0	42	0	87031808	17	4524
2026-01-30 10:57:54.03	181.45	9.40	-28.3	-30.2	13.3	2.59e-05	0	42	0	90177536	17	4495
2026-01-30 10:57:55.04	181.49	9.48	-28.3	-30.3	13.2	2.44e-05	0	42	0	93323264	17	4522
2026-01-30 10:57:56.04	181.54	9.57	-28.2	-30.0	13.4	1.52e-05	0	42	0	96468992	17	4442
2026-01-30 10:57:57.05	181.59	9.65	-28.2	-29.9	13.5	1.44e-05	0	42	0	99614720	17	4393
2026-01-30 10:57:58.05	181.64	9.73	-28.1	-29.8	13.5	1.06e-05	0	42	0	102760448	17	4371
2026-01-30 10:57:59.05	181.68	9.82	-28.2	-29.9	13.5	7.60e-06	0	42	0	105906176	17	4385
2026-01-30 10:58:00.06	181.73	9.90	-28.0	-29.6	13.7	6.10e-06	0	42	0	109051904	17	4306
2026-01-30 10:58:01.06	181.78	9.98	-28.1	-29.8	13.6	9.10e-06	0	42	0	112197632	17	4359
2026-01-30 10:58:02.06	181.83	10.07	-28.1	-29.7	13.7	6.80e-06	0	42	0	115343360	17	4318
2026-01-30 10:58:03.07	181.88	10.15	-28.1	-29.6	13.6	1.50e-06	0	42	0	118489088	17	4315
2026-01-30 10:58:04.07	181.93	10.24	-28.1	-29.7	13.6	6.10e-06	0	42	0	121634816	17	4331
2026-01-30 10:58:05.08	181.98	10.32	-28.2	-30.0	13.4	9.10e-06	0	42	0	124780544	17	4434
2026-01-30 10:58:06.07	182.03	10.41	-28.0	-29.6	13.7	6.80e-06	0	42	0	127926272	17	4295
2026-01-30 10:58:07.08	182.08	10.49	-27.9	-29.3	13.9	2.20e-06	0	42	0	131072000	17	4208
2026-01-30 10:58:08.07	182.13	10.58	-27.9	-29.2	13.9	2.20e-06	0	42	0	134217728	17	4180
2026-01-30 10:58:09.08	182.18	10.67	-28.0	-29.4	13.8	3.80e-06	0	42	0	137363456	17	4253
2026-01-30 10:58:10.08	182.23	10.75	-27.9	-29.2	14.0	1.50e-06	0	42	0	140509184	17	4179
2026-01-30 10:58:11.09	182.28	10.84	-27.9	-29.2	13.9	2.20e-06	0	42	0	143654912	17	4177
2026-01-30 10:58:12.09	182.33	10.93	-27.9	-29.2	13.9	2.20e-06	0	42	0	146800640	17	4202
2026-01-30 10:58:13.09	182.38	11.02	-28.0	-29.5	13.7	2.20e-06	0	42	0	149946368	17	4265
2026-01-30 10:58:14.09	182.44	11.10	-27.8	-29.0	14.0	1.50e-06	0	42	0	153092096	17	4142
2026-01-30 10:58:15.09	182.49	11.19	-27.7	-29.3	14.2	0.00e+00	0	42	0	156237824	16	4332
2026-01-30 10:58:16.09	182.54	11.28	-27.8	-29.4	14.1	7.00e-07	0	42	0	159383552	16	4356
2026-01-30 10:58:17.09	182.59	11.37	-27.9	-29.7	14.0	4.50e-06	0	42	0	162529280	16	4432
2026-01-30 10:58:18.10	182.65	11.46	-27.7	-29.3	14.2	2.20e-06	0	42	0	165675008	16	4329
2026-01-30 10:58:19.10	182.70	11.55	-27.7	-29.2	14.3	0.00e+00	0	42	0	168820736	16	4288
2026-01-30 10:58:20.10	182.76	11.64	-27.6	-29.1	14.4	3.00e-06	0	42	0	171966464	16	4258
2026-01-30 10:58:21.11	182.81	11.73	-27.7	-29.3	14.3	1.50e-06	0	42	0	175112192	16	4305
2026-01-30 10:58:22.10	182.86	11.81	-27.6	-29.1	14.4	1.50e-06	0	42	0	178257920	16	4249
2026-01-30 10:58:23.11	182.92	11.91	-27.7	-29.2	14.3	0.00e+00	0	43	0	181403648	16	4298
2026-01-30 10:58:24.11	182.97	12.00	-27.5	-28.9	14.5	0.00e+00	0	43	0	184549376	16	4199
2026-01-30 10:58:25.12	183.03	12.09	-27.5	-28.8	14.5	0.00e+00	0	43	0	187695104	16	4181
2026-01-30 10:58:26.12	183.09	12.18	-27.5	-28.8	14.5	0.00e+00	0	43	0	190840832	16	4190
2026-01-30 10:58:27.12	183.14	12.27	-27.6	-29.0	14.4	0.00e+00	0	43	0	193986560	16	4243
2026-01-30 10:58:28.12	183.20	12.36	-27.4	-28.6	14.6	1.50e-06	0	42	0	197132288	16	4123
2026-01-30 10:58:29.13	183.26	12.46	-27.4	-28.5	14.7	1.50e-06	0	43	0	200278016	16	4084
2026-01-30 10:58:30.13	183.31	12.55	-27.4	-28.4	14.7	1.67e-05	0	43	0	203423744	16	4083
2026-01-30 10:58:31.13	183.37	12.64	-27.5	-28.7	14.6	0.00e+00	0	43	0	206569472	16	4154
2026-01-30 10:58:32.13	183.43	12.73	-27.4	-28.6	14.7	7.00e-07	0	42	0	209715200	16	4112
2026-01-30 10:58:33.13	183.49	12.83	-27.4	-28.5	14.7	0.00e+00	0	42	0	212860928	16	4092
2026-01-30 10:58:34.13	183.54	12.92	-27.4	-28.6	14.7	7.00e-07	0	43	0	216006656	16	4123
2026-01-30 10:58:35.14	183.60	13.02	-27.4	-28.5	14.7	0.00e+00	0	42	0	219152384	16	4087
2026-01-30 10:58:36.14	183.66	13.11	-27.3	-28.4	14.8	1.29e-05	0	42	0	222298112	16	4059
2026-01-30 10:58:37.14	183.72	13.21	-27.4	-28.5	14.7	7.00e-07	0	42	0	225443840	16	4100
2026-01-30 10:58:38.14	183.78	13.30	-27.3	-28.4	14.8	0.00e+00	0	43	0	228589568	16	4059
2026-01-30 10:58:39.14	183.84	13.40	-27.3	-28.3	14.9	1.60e-05	0	43	0	231735296	16	4051
2026-01-30 10:58:40.14	183.90	13.49	-27.4	-28.5	14.8	0.00e+00	0	42	0	234881024	16	4090
2026-01-30 10:58:41.15	183.96	13.59	-27.4	-28.5	14.9	0.00e+00	0	43	0	238026752	16	4075
2026-01-30 10:58:42.15	184.03	13.69	-27.4	-28.5	14.9	1.29e-05	0	43	0	241172480	16	4080
2026-01-30 10:58:43.16	184.09	13.79	-27.5	-28.7	14.7	0.00e+00	0	43	0	244318208	16	4151
2026-01-30 10:58:44.16	184.15	13.88	-27.4	-28.4	14.9	1.50e-06	0	43	0	247463936	16	4057
2026-01-30 10:58:45.17	184.21	13.98	-27.3	-28.3	15.0	5.30e-06	0	43	0	250609664	16	4019
2026-01-30 10:58:46.17	184.28	14.08	-27.2	-28.5	15.0	0.00e+00	0	43	0	253755392	15	4185
2026-01-30 10:58:47.17	184.34	14.18	-27.1	-28.3	15.1	0.00e+00	0	42	0	255852544	15	4155
2026-01-30 10:58:48.16	184.40	14.28	-27.1	-28.3	15.1	4.50e-06	0	43	0	258998272	15	4154
2026-01-30 10:58:49.17	184.47	14.38	-27.2	-28.5	15.0	7.00e-07	0	43	0	262144000	15	4194
2026-01-30 10:58:50.16	184.53	14.47	-27.1	-28.3	15.1	0.00e+00	0	43	0	265289728	15	4149
2026-01-30 10:58:51.16	184.60	14.57	-27.2	-28.5	15.1	7.60e-06	0	43	0	268435456	15	4187
2026-01-30 10:58:52.16	184.66	14.67	-27.2	-28.7	14.9	1.50e-06	0	43	0	271581184	15	4236
2026-01-30 10:58:53.16	184.73	14.78	-27.1	-28.4	15.1	0.00e+00	0	42	0	274726912	15	4164
2026-01-30 10:58:54.16	184.79	14.88	-27.1	-28.2	15.2	9.90e-06	0	43	0	277872640	15	4117
2026-01-30 10:58:55.16	184.86	14.98	-27.1	-28.3	15.2	0.00e+00	0	43	0	281018368	15	4132
2026-01-30 10:58:56.16	184.93	15.08	-27.0	-28.2	15.3	0.00e+00	0	42	0	284164096	15	4110
2026-01-30 10:58:57.16	184.99	15.18	-27.1	-28.3	15.2	0.00e+00	0	43	0	287309824	15	4146
2026-01-30 10:58:58.16	185.06	15.28	-27.0	-28.1	15.3	0.00e+00	0	43	0	290455552	15	4080
2026-01-30 10:58:59.17	185.13	15.39	-27.0	-28.1	15.3	0.00e+00	0	43	0	293601280	15	4095
2026-01-30 10:59:00.18	185.20	15.49	-27.0	-28.1	15.3	2.20e-06	0	43	0	296747008	15	4079
2026-01-30 10:59:01.18	185.27	15.60	-27.0	-28.2	15.3	0.00e+00	0	43	0	299892736	15	4113
2026-01-30 10:59:02.18	185.34	15.70	-27.0	-28.1	15.3	0.00e+00	0	43	0	303038464	15	4080
2026-01-30 10:59:03.18	185.41	15.81	-27.0	-28.1	15.3	0.00e+00	0	42	0	306184192	15	4091
2026-01-30 10:59:04.18	185.48	15.91	-26.9	-28.0	15.4	0.00e+00	0	43	0	309329920	15	4051
2026-01-30 10:59:05.19	185.55	16.02	-27.0	-28.2	15.3	0.00e+00	0	42	0	312475648	15	4103
2026-01-30 10:59:06.19	185.62	16.12	-26.9	-27.9	15.4	0.00e+00	0	43	0	315621376	15	4045
2026-01-30 10:59:07.19	185.70	16.23	-27.0	-28.0	15.4	0.00e+00	0	43	0	318767104	15	4068
2026-01-30 10:59:08.19	185.77	16.34	-26.9	-27.9	15.5	0.00e+00	0	43	0	321912832	15	4030
2026-01-30 10:59:09.19	185.84	16.44	-26.9	-28.0	15.4	0.00e+00	0	42	0	325058560	15	4057
2026-01-30 10:59:10.18	185.91	16.55	-27.0	-28.0	15.4	0.00e+00	0	43	0	328204288	15	4061
2026-01-30 10:59:11.19	185.99	16.66	-26.9	-28.0	15.4	0.00e+00	0	43	0	331350016	15	4060
2026-01-30 10:59:12.20	186.06	16.77	-26.9	-28.0	15.4	0.00e+00	0	43	0	334495744	15	4057
2026-01-30 10:59:13.20	186.14	16.88	-27.0	-28.0	15.3	7.00e-07	0	43	0	337641472	15	4062
2026-01-30 10:59:14.20	186.21	16.99	-26.9	-27.9	15.4	0.00e+00	0	43	0	340787200	15	4036
2026-01-30 10:59:15.21	186.29	17.10	-27.0	-28.0	15.3	0.00e+00	0	43	0	343932928	15	4075
2026-01-30 10:59:16.21	186.37	17.21	-26.9	-28.0	15.3	0.00e+00	0	43	0	347078656	15	4052
2026-01-30 10:59:17.21	186.45	17.32	-27.0	-28.1	15.2	0.00e+00	0	43	0	350224384	15	4092
2026-01-30 10:59:18.21	186.52	17.43	-27.0	-28.2	15.2	0.00e+00	0	43	0	353370112	15	4104
2026-01-30 10:59:19.20	186.60	17.54	-27.0	-28.2	15.2	0.00e+00	0	43	0	356515840	15	4104
2026-01-30 10:59:20.20	186.68	17.65	-27.0	-28.1	15.3	0.00e+00	0	43	0	359661568	15	4089
2026-01-30 10:59:21.20	186.76	17.77	-27.0	-28.1	15.2	0.00e+00	0	43	0	362807296	15	4097
2026-01-30 10:59:22.21	186.84	17.88	-27.0	-28.0	15.3	0.00e+00	0	43	0	365953024	15	4076
2026-01-30 10:59:23.21	186.92	17.99	-27.1	-28.3	15.2	0.00e+00	0	43	0	369098752	15	4148
2026-01-30 10:59:24.21	187.00	18.11	-27.1	-28.3	15.2	0.00e+00	0	43	0	372244480	15	4134
2026-01-30 10:59:25.22	187.08	18.22	-27.1	-28.4	15.2	0.00e+00	0	43	0	375390208	15	4163
2026-01-30 10:59:26.21	187.16	18.34	-27.1	-28.4	15.2	0.00e+00	0	43	0	378535936	15	4159
2026-01-30 10:59:27.22	187.25	18.45	-27.2	-28.5	15.1	0.00e+00	0	43	0	381681664	15	4210
2026-01-30 10:59:28.21	187.33	18.57	-27.1	-28.4	15.2	0.00e+00	0	43	0	384827392	15	4184
2026-01-30 10:59:29.22	187.42	18.69	-27.1	-28.4	15.2	0.00e+00	0	42	0	387973120	15	4181
2026-01-30 10:59:30.22	187.50	18.80	-27.1	-28.4	15.2	0.00e+00	0	43	0	391118848	15	4175
2026-01-30 10:59:31.23	187.59	18.92	-27.2	-28.6	15.2	0.00e+00	0	43	0	394264576	15	4216
2026-01-30 10:59:32.23	187.67	19.04	-27.2	-28.6	15.2	0.00e+00	0	43	0	397410304	15	4215
2026-01-30 10:59:33.23	187.76	19.16	-27.2	-28.5	15.2	0.00e+00	0	43	0	400556032	15	4196
2026-01-30 10:59:34.23	187.85	19.28	-27.2	-28.5	15.2	0.00e+00	0	43	0	403701760	15	4204
2026-01-30 10:59:35.24	187.94	19.40	-27.2	-28.6	15.1	0.00e+00	0	43	0	406847488	15	4226
2026-01-30 10:59:36.24	188.02	19.52	-27.3	-28.8	15.1	0.00e+00	0	43	0	409993216	15	4279
2026-01-30 10:59:37.25	188.11	19.64	-27.2	-28.5	15.2	7.00e-07	0	43	0	413138944	15	4179
2026-01-30 10:59:38.25	188.20	19.76	-27.2	-28.5	15.2	0.00e+00	0	43	0	416284672	15	4179
2026-01-30 10:59:39.26	188.30	19.88	-27.2	-28.6	15.1	0.00e+00	0	43	0	419430400	15	4209
2026-01-30 10:59:40.25	188.39	20.01	-27.2	-28.5	15.2	0.00e+00	0	43	0	422576128	15	4194
2026-01-30 10:59:41.26	188.48	20.13	-27.2	-28.5	15.2	0.00e+00	0	43	0	425721856	15	4202
2026-01-30 10:59:42.26	188.57	20.25	-27.3	-28.7	15.1	0.00e+00	0	43	0	428867584	15	4249
2026-01-30 10:59:43.26	188.67	20.38	-27.1	-28.3	15.4	0.00e+00	0	43	0	432013312	15	4145
2026-01-30 10:59:44.25	188.76	20.50	-27.1	-28.4	15.4	0.00e+00	0	43	0	435159040	15	4152
2026-01-30 10:59:45.26	188.85	20.62	-27.1	-28.3	15.4	0.00e+00	0	43	0	438304768	15	4146
2026-01-30 10:59:46.26	188.95	20.75	-27.0	-28.1	15.5	0.00e+00	0	43	0	441450496	15	4085
2026-01-30 10:59:47.26	189.05	20.88	-27.0	-28.1	15.5	0.00e+00	0	43	0	444596224	15	4082
2026-01-30 10:59:48.26	189.14	21.00	-27.0	-28.2	15.5	0.00e+00	0	43	0	447741952	15	4102
2026-01-30 10:59:49.27	189.24	21.13	-26.9	-27.8	15.7	0.00e+00	0	43	0	450887680	15	3999
2026-01-30 10:59:50.27	189.34	21.26	-26.9	-27.8	15.7	0.00e+00	0	43	0	454033408	15	4015
2026-01-30 10:59:51.27	189.44	21.39	-27.0	-28.0	15.5	0.00e+00	0	43	0	457179136	15	4073
2026-01-30 10:59:52.28	189.54	21.52	-26.7	-28.0	15.8	0.00e+00	0	43	0	460324864	14	4174
2026-01-30 10:59:53.28	189.64	21.65	-26.8	-28.2	15.7	0.00e+00	0	43	0	463470592	14	4234
2026-01-30 10:59:54.28	189.74	21.78	-26.5	-27.6	16.1	0.00e+00	0	43	0	466616320	14	4060
2026-01-30 10:59:55.29	189.85	21.91	-26.3	-27.1	16.4	0.00e+00	0	43	0	469762048	14	3926
2026-01-30 10:59:56.29	189.95	22.04	-26.3	-27.1	16.4	0.00e+00	0	43	0	472907776	14	3949
2026-01-30 10:59:57.29	190.06	22.17	-26.2	-27.4	16.5	0.00e+00	0	43	0	476053504	13	4127
2026-01-30 10:59:58.29	190.16	22.30	-26.1	-27.2	16.6	0.00e+00	0	43	0	479199232	13	4070
2026-01-30 10:59:59.30	190.27	22.44	-26.2	-27.3	16.5	3.80e-06	0	43	0	482344960	13	4096
2026-01-30 11:00:00.29	190.38	22.57	-26.2	-27.4	16.5	0.00e+00	0	43	0	484442112	13	4114
2026-01-30 11:00:01.30	190.48	22.70	-26.2	-27.2	16.6	0.00e+00	0	43	0	487587840	13	4074
2026-01-30 11:00:02.30	190.59	22.84	-26.2	-27.2	16.6	0.00e+00	0	43	0	490733568	13	4064
2026-01-30 11:00:03.30	190.70	22.97	-26.1	-27.1	16.7	0.00e+00	0	43	0	493879296	13	4045
2026-01-30 11:00:04.31	190.81	23.11	-26.1	-27.1	16.7	0.00e+00	0	43	0	497025024	13	4028
2026-01-30 11:00:05.30	190.92	23.25	-26.2	-27.3	16.6	1.50e-06	0	43	0	500170752	13	4088
2026-01-30 11:00:06.29	191.04	23.38	-26.3	-27.5	16.5	0.00e+00	0	43	0	503316480	13	4139
2026-01-30 11:00:07.29	191.15	23.52	-26.1	-27.1	16.7	0.00e+00	0	43	0	506462208	13	4028
2026-01-30 11:00:08.29	191.26	23.66	-26.1	-27.0	16.8	0.00e+00	0	43	0	509607936	13	3991
2026-01-30 11:00:09.29	191.38	23.80	-26.1	-27.0	16.7	0.00e+00	0	43	0	512753664	13	4006
2026-01-30 11:00:10.29	191.50	23.93	-26.1	-27.1	16.7	0.00e+00	0	43	0	515899392	13	4030
2026-01-30 11:00:11.29	191.61	24.08	-26.2	-27.3	16.6	0.00e+00	0	43	0	519045120	13	4075
2026-01-30 11:00:12.29	191.73	24.22	-26.2	-27.3	16.6	0.00e+00	0	43	0	522190848	13	4091
2026-01-30 11:00:13.28	191.85	24.36	-26.2	-27.3	16.6	0.00e+00	0	43	0	525336576	13	4088
2026-01-30 11:00:14.29	191.97	24.50	-26.2	-27.3	16.6	2.20e-06	0	43	0	528482304	13	4092
2026-01-30 11:00:15.29	192.09	24.64	-26.3	-27.4	16.6	0.00e+00	0	43	0	531628032	13	4118
2026-01-30 11:00:16.30	192.22	24.79	-26.3	-27.5	16.6	0.00e+00	0	43	0	534773760	13	4134
2026-01-30 11:00:17.30	192.34	24.93	-26.4	-27.6	16.5	0.00e+00	0	43	0	537919488	13	4159
2026-01-30 11:00:18.29	192.46	25.07	-26.5	-27.9	16.4	0.00e+00	0	43	0	541065216	13	4235
2026-01-30 11:00:19.30	192.59	25.22	-26.3	-27.6	16.5	0.00e+00	0	43	0	544210944	13	4147
2026-01-30 11:00:20.31	192.72	25.37	-26.2	-27.2	16.7	2.20e-06	0	43	0	547356672	13	4053
2026-01-30 11:00:21.31	192.85	25.51	-26.3	-27.5	16.6	0.00e+00	0	43	0	550502400	13	4117
2026-01-30 11:00:22.31	192.98	25.66	-26.3	-27.5	16.6	0.00e+00	0	43	0	553648128	13	4128
2026-01-30 11:00:23.31	193.11	25.81	-26.4	-27.7	16.5	9.10e-06	0	43	0	556793856	13	4164
2026-01-30 11:00:24.31	193.24	25.96	-26.4	-27.8	16.4	0.00e+00	0	43	0	559939584	13	4192
2026-01-30 11:00:25.32	193.37	26.11	-26.5	-27.9	16.4	0.00e+00	0	43	0	563085312	13	4238
2026-01-30 11:00:26.32	193.51	26.26	-26.6	-28.2	16.2	0.00e+00	0	43	0	566231040	13	4314
2026-01-30 11:00:27.33	193.65	26.41	-26.7	-28.4	16.1	0.00e+00	0	43	0	569376768	13	4356
2026-01-30 11:00:28.33	193.78	26.56	-26.7	-28.4	16.1	0.00e+00	0	43	0	572522496	13	4370
2026-01-30 11:00:29.34	193.92	26.72	-27.0	-28.9	15.8	0.00e+00	0	43	0	575668224	13	4519
2026-01-30 11:00:30.34	194.06	26.87	-27.1	-28.8	15.7	0.00e+00	0	43	0	578813952	14	4357
2026-01-30 11:00:31.34	194.20	27.02	-27.1	-28.8	15.6	0.00e+00	0	43	0	581959680	14	4372
2026-01-30 11:00:32.34	194.34	27.18	-27.1	-28.7	15.7	0.00e+00	0	43	0	585105408	14	4321
2026-01-30 11:00:33.34	194.49	27.33	-27.2	-29.1	15.5	0.00e+00	0	43	0	588251136	14	4434
2026-01-30 11:00:34.35	194.63	27.49	-27.4	-29.3	15.4	0.00e+00	0	43	0	591396864	14	4496
2026-01-30 11:00:35.35	194.78	27.64	-27.2	-28.9	15.6	0.00e+00	0	43	0	594542592	14	4395
2026-01-30 11:00:36.35	194.93	27.80	-27.1	-28.7	15.7	0.00e+00	0	43	0	597688320	14	4322
2026-01-30 11:00:37.35	195.07	27.96	-27.0	-28.6	15.8	0.00e+00	0	43	0	600834048	14	4296
2026-01-30 11:00:38.35	195.22	28.12	-27.1	-28.8	15.7	0.00e+00	0	43	0	603979776	14	4356
2026-01-30 11:00:39.35	195.38	28.28	-27.2	-29.0	15.6	0.00e+00	0	43	0	607125504	14	4400
2026-01-30 11:00:40.36	195.53	28.44	-27.0	-28.5	15.8	0.00e+00	0	43	0	610271232	14	4279
2026-01-30 11:00:41.36	195.69	28.60	-27.0	-28.5	15.8	0.00e+00	0	43	0	613416960	14	4276
2026-01-30 11:00:42.36	195.84	28.76	-27.0	-28.5	15.8	0.00e+00	0	43	0	616562688	14	4280
2026-01-30 11:00:43.36	196.00	28.92	-27.1	-28.8	15.7	0.00e+00	0	43	0	619708416	14	4359
2026-01-30 11:00:44.36	196.16	29.08	-27.1	-28.7	15.7	0.00e+00	0	43	0	622854144	14	4332
2026-01-30 11:00:45.36	196.32	29.25	-27.2	-29.0	15.6	0.00e+00	0	43	0	625999872	14	4408
2026-01-30 11:00:46.37	196.48	29.41	-27.2	-28.9	15.7	0.00e+00	0	43	0	629145600	14	4378
2026-01-30 11:00:47.36	196.65	29.58	-27.1	-28.7	15.7	0.00e+00	0	43	0	632291328	14	4339
2026-01-30 11:00:48.36	196.81	29.74	-27.1	-28.7	15.8	0.00e+00	0	43	0	635437056	14	4316
2026-01-30 11:00:49.36	196.98	29.91	-27.1	-28.8	15.7	0.00e+00	0	43	0	638582784	14	4349
2026-01-30 11:00:50.37	197.15	30.07	-27.0	-28.5	15.8	0.00e+00	0	43	0	641728512	14	4288
2026-01-30 11:00:51.37	197.32	30.24	-27.1	-28.7	15.8	0.00e+00	0	43	0	644874240	14	4332
2026-01-30 11:00:52.38	197.49	30.41	-27.1	-28.7	15.7	0.00e+00	0	43	0	648019968	14	4342
2026-01-30 11:00:53.39	197.67	30.58	-27.1	-28.7	15.8	0.00e+00	0	43	0	651165696	14	4328
2026-01-30 11:00:54.39	197.85	30.75	-27.1	-28.6	15.8	0.00e+00	0	43	0	654311424	14	4306
2026-01-30 11:00:55.40	198.03	30.92	-27.0	-28.5	15.9	0.00e+00	0	43	0	657457152	14	4288
2026-01-30 11:00:56.40	198.21	31.10	-27.1	-28.6	15.8	0.00e+00	0	43	0	660602880	14	4304
2026-01-30 11:00:57.40	198.39	31.27	-27.0	-28.5	15.9	0.00e+00	0	43	0	663748608	14	4269
2026-01-30 11:00:58.41	198.57	31.44	-27.0	-28.5	15.9	0.00e+00	0	43	0	666894336	14	4268
2026-01-30 11:00:59.41	198.76	31.61	-27.0	-28.4	15.9	0.00e+00	0	43	0	670040064	14	4258
2026-01-30 11:01:00.41	198.95	31.79	-27.0	-28.4	15.9	0.00e+00	0	43	0	673185792	14	4247
2026-01-30 11:01:01.42	199.14	31.96	-27.0	-28.5	15.9	0.00e+00	0	43	0	676331520	14	4283
2026-01-30 11:01:02.41	199.33	32.14	-27.1	-28.6	15.9	0.00e+00	0	43	0	679477248	14	4303
2026-01-30 11:01:03.40	199.52	32.31	-27.0	-28.5	15.9	0.00e+00	0	43	0	682622976	14	4285
2026-01-30 11:01:04.40	199.71	32.49	-27.2	-29.0	15.7	0.00e+00	0	43	0	685768704	14	4410
2026-01-30 11:01:05.40	199.91	32.67	-27.2	-28.9	15.7	0.00e+00	0	43	0	688914432	14	4389
2026-01-30 11:01:06.41	200.11	32.85	-27.3	-29.2	15.5	0.00e+00	0	43	0	691011584	14	4470
2026-01-30 11:01:07.41	200.31	33.02	-27.3	-29.2	15.5	0.00e+00	0	43	0	694157312	14	4465
2026-01-30 11:01:08.41	200.52	33.20	-27.6	-29.3	15.2	0.00e+00	0	43	0	697303040	15	4394
2026-01-30 11:01:09.41	200.72	33.38	-27.6	-29.2	15.2	0.00e+00	0	43	0	700448768	15	4371
2026-01-30 11:01:10.41	200.93	33.56	-27.6	-29.4	15.2	0.00e+00	0	43	0	703594496	15	4414
2026-01-30 11:01:11.41	201.14	33.75	-27.7	-29.6	15.1	0.00e+00	0	43	0	706740224	15	4465
2026-01-30 11:01:12.41	201.36	33.93	-27.8	-29.8	14.9	7.00e-07	0	43	0	709885952	15	4541
2026-01-30 11:01:13.41	201.57	34.11	-27.8	-29.9	14.9	7.00e-07	0	43	0	713031680	15	4560
2026-01-30 11:01:14.42	201.79	34.29	-28.2	-30.1	14.7	7.00e-07	0	43	0	716177408	16	4492
2026-01-30 11:01:15.43	202.02	34.48	-28.2	-30.2	14.6	0.00e+00	0	43	0	719323136	16	4523
2026-01-30 11:01:16.43	202.24	34.67	-28.3	-30.3	14.6	7.00e-07	0	43	0	722468864	16	4551
2026-01-30 11:01:17.44	202.47	34.85	-28.2	-30.2	14.6	0.00e+00	0	43	0	725614592	16	4515
2026-01-30 11:01:18.43	202.69	35.04	-28.3	-30.3	14.6	7.00e-07	0	43	0	728760320	16	4554
2026-01-30 11:01:19.44	202.92	35.22	-28.4	-30.5	14.4	7.60e-06	0	43	0	731906048	16	4622
2026-01-30 11:01:20.44	203.16	35.41	-28.3	-30.4	14.5	0.00e+00	0	43	0	735051776	16	4587
2026-01-30 11:01:21.44	203.39	35.60	-28.3	-30.5	14.5	1.50e-06	0	43	0	738197504	16	4612
2026-01-30 11:01:22.44	203.63	35.79	-28.4	-30.7	14.4	0.00e+00	0	43	0	741343232	16	4666
2026-01-30 11:01:23.44	203.87	35.97	-28.4	-30.7	14.3	1.50e-06	0	43	0	744488960	16	4693
2026-01-30 11:01:24.44	204.11	36.16	-28.5	-30.4	14.2	1.50e-06	0	43	0	747634688	17	4489
2026-01-30 11:01:25.43	204.36	36.35	-28.8	-31.1	13.9	9.90e-06	0	43	0	750780416	17	4690
2026-01-30 11:01:26.43	204.61	36.54	-29.0	-31.5	13.6	3.80e-06	0	43	0	753926144	17	4823
2026-01-30 11:01:27.44	204.86	36.73	-29.2	-31.5	13.3	2.51e-05	0	43	0	757071872	18	4714
2026-01-30 11:01:28.45	205.12	36.93	-29.0	-31.1	13.5	2.05e-05	0	43	0	760217600	18	4580
2026-01-30 11:01:29.46	205.38	37.12	-29.0	-31.1	13.5	6.80e-06	0	43	0	763363328	18	4592
2026-01-30 11:01:30.46	205.64	37.31	-28.9	-30.9	13.7	6.80e-06	0	43	0	766509056	18	4515
2026-01-30 11:01:31.46	205.91	37.51	-29.0	-31.0	13.6	9.10e-06	0	43	0	769654784	18	4565
2026-01-30 11:01:32.47	206.18	37.70	-29.0	-31.2	13.5	1.06e-05	0	43	0	772800512	18	4597
2026-01-30 11:01:33.47	206.45	37.89	-29.0	-31.2	13.5	1.22e-05	0	43	0	775946240	18	4624
2026-01-30 11:01:34.48	206.72	38.09	-29.1	-31.3	13.4	1.75e-05	0	43	0	779091968	18	4642
2026-01-30 11:01:35.48	207.00	38.28	-29.1	-31.3	13.4	1.90e-05	0	43	0	782237696	18	4643
2026-01-30 11:01:36.48	207.28	38.48	-29.0	-31.2	13.5	6.10e-06	0	43	0	785383424	18	4622
2026-01-30 11:01:37.48	207.56	38.67	-29.0	-31.2	13.5	1.29e-05	0	43	0	788529152	18	4610
2026-01-30 11:01:38.48	207.85	38.87	-29.0	-31.0	13.6	5.30e-06	0	43	0	791674880	18	4536
2026-01-30 11:01:39.48	208.14	39.07	-28.9	-30.9	13.7	3.80e-06	0	43	0	794820608	18	4501
2026-01-30 11:01:40.48	208.43	39.26	-29.1	-31.2	13.5	1.22e-05	0	43	0	797966336	18	4613
2026-01-30 11:01:41.49	208.73	39.46	-29.1	-31.3	13.5	9.90e-06	0	43	0	801112064	18	4623
2026-01-30 11:01:42.49	209.03	39.66	-29.0	-31.1	13.6	1.06e-05	0	43	0	804257792	18	4583
2026-01-30 11:01:43.50	209.34	39.86	-29.0	-31.1	13.6	1.06e-05	0	43	0	807403520	18	4591
2026-01-30 11:01:44.50	209.65	40.05	-29.0	-31.0	13.7	4.50e-06	0	43	0	810549248	18	4552
2026-01-30 11:01:45.51	209.96	40.25	-29.1	-31.2	13.5	9.90e-06	0	43	0	813694976	18	4606
2026-01-30 11:01:46.52	210.28	40.45	-29.1	-31.4	13.4	1.14e-05	0	43	0	816840704	18	4667
2026-01-30 11:01:47.52	210.60	40.65	-29.0	-31.0	13.6	6.80e-06	0	43	0	819986432	18	4558
2026-01-30 11:01:48.52	210.92	40.85	-28.8	-30.6	13.9	6.10e-06	0	43	0	823132160	18	4421
2026-01-30 11:01:49.52	211.25	41.04	-28.8	-30.7	13.9	4.50e-06	0	43	0	826277888	18	4439
2026-01-30 11:01:50.52	211.58	41.24	-28.9	-30.8	13.8	3.80e-06	0	43	0	829423616	18	4493
2026-01-30 11:01:51.52	211.92	41.44	-28.9	-30.9	13.8	6.80e-06	0	43	0	832569344	18	4498
2026-01-30 11:01:52.53	212.26	41.64	-29.2	-31.5	13.4	6.80e-06	0	43	0	835715072	18	4696
2026-01-30 11:01:53.53	212.60	41.84	-29.3	-31.7	13.3	2.74e-05	0	43	0	838860800	18	4773
2026-01-30 11:01:54.52	212.95	42.03	-29.3	-31.8	13.2	1.98e-05	0	43	0	842006528	18	4812
2026-01-30 11:01:55.53	213.30	42.23	-29.3	-31.7	13.3	2.28e-05	0	43	0	845152256	18	4763
2026-01-30 11:01:56.52	213.65	42.43	-29.1	-31.2	13.6	7.60e-06	0	43	0	848297984	18	4602
2026-01-30 11:01:57.53	214.02	42.63	-29.2	-31.5	13.4	1.14e-05	0	43	0	851443712	18	4701
2026-01-30 11:01:58.53	214.38	42.82	-29.4	-32.1	13.1	2.44e-05	0	43	0	854589440	18	4887
2026-01-30 11:01:59.53	214.75	43.02	-29.5	-31.9	13.0	3.35e-05	0	43	0	857735168	19	4699
2026-01-30 11:02:00.53	215.13	43.22	-29.6	-32.0	12.8	6.17e-05	0	43	0	860880896	19	4731
2026-01-30 11:02:01.53	215.50	43.41	-29.6	-31.9	12.8	5.56e-05	0	43	0	864026624	19	4708
2026-01-30 11:02:02.53	215.89	43.61	-29.5	-31.7	13.0	4.34e-05	0	43	0	867172352	19	4649
2026-01-30 11:02:03.54	216.28	43.80	-29.6	-31.9	12.9	3.81e-05	0	43	0	870318080	19	4697
2026-01-30 11:02:04.53	216.66	44.00	-29.6	-32.0	12.8	7.62e-05	0	43	0	873463808	19	4745
2026-01-30 11:02:05.53	217.06	44.19	-29.6	-32.0	12.9	3.89e-05	0	43	0	876609536	19	4721
2026-01-30 11:02:06.54	217.47	44.39	-29.6	-31.9	12.9	7.24e-05	0	43	0	879755264	19	4710
2026-01-30 11:02:07.54	217.87	44.58	-29.5	-31.6	13.1	5.11e-05	0	43	0	882900992	19	4626
2026-01-30 11:02:08.54	218.28	44.77	-29.3	-31.1	13.4	1.83e-05	0	43	0	886046720	19	4465
2026-01-30 11:02:09.54	218.70	44.97	-29.2	-30.9	13.5	1.14e-05	0	43	0	889192448	19	4407
2026-01-30 11:02:10.54	219.12	45.16	-29.3	-31.1	13.4	1.52e-05	0	43	0	892338176	19	4450
2026-01-30 11:02:11.54	219.55	45.35	-29.3	-31.2	13.3	1.52e-05	0	43	0	895483904	19	4488
2026-01-30 11:02:12.53	219.98	45.53	-29.5	-31.6	13.1	2.82e-05	0	43	0	898629632	19	4619
2026-01-30 11:02:13.54	220.42	45.72	-29.7	-32.2	12.8	6.79e-05	0	43	0	901775360	19	4795
2026-01-30 11:02:14.54	220.86	45.91	-29.8	-32.3	12.7	7.09e-05	0	43	0	904921088	19	4840
2026-01-30 11:02:15.54	221.30	46.10	-29.8	-32.3	12.6	9.00e-05	0	43	0	908066816	19	4845
2026-01-30 11:02:16.54	221.76	46.28	-29.9	-32.8	12.3	1.05e-04	0	43	0	911212544	19	5003
2026-01-30 11:02:17.55	222.22	46.47	-29.9	-32.2	12.4	1.67e-04	0	43	0	914358272	20	4689
2026-01-30 11:02:18.56	222.69	46.66	-29.7	-31.9	12.6	1.14e-04	0	43	0	917504000	20	4601
2026-01-30 11:02:19.56	223.15	46.84	-29.6	-31.5	12.8	7.17e-05	0	43	0	919601152	20	4477
2026-01-30 11:02:20.56	223.63	47.02	-29.5	-31.3	12.9	4.95e-05	0	43	0	922746880	20	4433
2026-01-30 11:02:21.56	224.11	47.20	-29.4	-31.1	13.1	2.89e-05	0	43	0	925892608	20	4341
2026-01-30 11:02:22.56	224.59	47.38	-29.7	-31.6	12.8	4.34e-05	0	43	0	929038336	20	4516
2026-01-30 11:02:23.56	225.08	47.55	-29.7	-31.6	12.7	8.62e-05	0	43	0	932184064	20	4518
2026-01-30 11:02:24.56	225.58	47.73	-29.4	-30.9	13.2	2.97e-05	0	43	0	935329792	20	4304
2026-01-30 11:02:25.57	226.08	47.90	-29.3	-30.7	13.2	1.90e-05	0	43	0	938475520	20	4244
2026-01-30 11:02:26.57	226.59	48.08	-29.3	-30.7	13.3	2.21e-05	0	43	0	941621248	20	4255
2026-01-30 11:02:27.57	227.10	48.25	-29.4	-31.0	13.2	2.21e-05	0	43	0	944766976	20	4335
2026-01-30 11:02:28.57	227.62	48.41	-29.4	-30.9	13.3	2.89e-05	0	43	0	947912704	20	4288
2026-01-30 11:02:29.57	228.14	48.58	-29.6	-31.4	12.9	4.04e-05	0	43	0	951058432	20	4438
2026-01-30 11:02:30.58	228.67	48.75	-29.7	-31.7	12.7	9.23e-05	0	43	0	954204160	20	4556
2026-01-30 11:02:31.58	229.21	48.91	-29.8	-32.1	12.4	9.53e-05	0	43	0	957349888	20	4684
2026-01-30 11:02:32.58	229.75	49.07	-29.9	-32.2	12.4	1.71e-04	0	43	0	960495616	20	4691
2026-01-30 11:02:33.58	230.29	49.23	-29.5	-31.3	13.0	4.80e-05	0	43	0	963641344	20	4402
2026-01-30 11:02:34.59	230.85	49.39	-29.0	-30.5	13.8	9.10e-06	0	43	0	966787072	19	4276
2026-01-30 11:02:35.60	231.41	49.54	-28.8	-30.4	14.2	2.20e-06	0	43	0	969932800	18	4351
2026-01-30 11:02:36.59	231.97	49.69	-28.7	-30.2	14.3	1.50e-06	0	43	0	973078528	18	4309
2026-01-30 11:02:37.60	232.54	49.84	-28.6	-30.0	14.4	7.00e-07	0	43	0	976224256	18	4251
2026-01-30 11:02:38.60	233.12	49.99	-28.6	-30.1	14.4	0.00e+00	0	43	0	979369984	18	4263
2026-01-30 11:02:39.61	233.70	50.13	-28.6	-30.0	14.4	1.50e-06	0	43	0	982515712	18	4226
2026-01-30 11:02:40.61	234.29	50.28	-28.6	-30.0	14.4	0.00e+00	0	43	0	985661440	18	4238
2026-01-30 11:02:41.62	234.88	50.42	-28.7	-30.2	14.3	7.00e-07	0	43	0	988807168	18	4287
2026-01-30 11:02:42.62	235.48	50.55	-28.7	-30.4	14.2	3.00e-06	0	43	0	991952896	18	4339
2026-01-30 11:02:43.62	236.08	50.68	-28.8	-30.6	14.1	7.00e-07	0	44	0	995098624	18	4402
2026-01-30 11:02:44.62	236.68	50.81	-29.1	-31.1	13.8	2.20e-06	0	43	0	998244352	18	4572
2026-01-30 11:02:45.63	237.30	50.94	-29.3	-31.8	13.4	1.52e-05	0	43	0	1001390080	18	4790
2026-01-30 11:02:46.64	237.92	51.07	-29.4	-31.9	13.3	2.44e-05	0	43	0	1004535808	18	4817
2026-01-30 11:02:47.64	238.54	51.19	-29.3	-31.8	13.4	1.60e-05	0	43	0	1007681536	18	4791
2026-01-30 11:02:48.63	239.16	51.31	-29.2	-31.4	13.6	9.90e-06	0	43	0	1010827264	18	4644
2026-01-30 11:02:49.64	239.80	51.42	-29.2	-31.5	13.5	8.30e-06	0	43	0	1013972992	18	4665
2026-01-30 11:02:50.65	240.44	51.53	-29.3	-31.6	13.5	8.30e-06	0	43	0	1017118720	18	4712
2026-01-30 11:02:51.66	241.09	51.64	-29.3	-31.7	13.4	1.44e-05	0	43	0	1020264448	18	4760
2026-01-30 11:02:52.66	241.73	51.75	-29.2	-31.6	13.6	6.80e-06	0	43	0	1023410176	18	4698
2026-01-30 11:02:53.67	242.39	51.85	-29.1	-31.2	13.7	7.60e-06	0	43	0	1026555904	18	4599
2026-01-30 11:02:54.67	243.04	51.95	-29.1	-31.1	13.8	4.50e-06	0	43	0	1029701632	18	4553
2026-01-30 11:02:55.67	243.70	52.04	-29.3	-31.6	13.4	1.14e-05	0	43	0	1032847360	18	4725
2026-01-30 11:02:56.67	244.36	52.13	-29.5	-31.7	13.1	2.97e-05	0	43	0	1035993088	19	4640
2026-01-30 11:02:57.68	245.03	52.22	-29.5	-31.7	13.2	3.50e-05	0	43	0	1039138816	19	4625
2026-01-30 11:02:58.69	245.71	52.30	-29.0	-30.5	13.9	6.10e-06	0	43	0	1042284544	19	4252
2026-01-30 11:02:59.69	246.38	52.38	-28.5	-29.7	14.7	7.00e-07	0	43	0	1045430272	18	4132
2026-01-30 11:03:00.69	247.05	52.45	-28.5	-29.7	14.6	0.00e+00	0	44	0	1048576000	18	4153
2026-01-30 11:03:01.70	247.74	52.52	-28.6	-30.1	14.4	7.00e-07	0	43	0	1051721728	18	4252
2026-01-30 11:03:02.70	248.42	52.59	-28.6	-29.9	14.5	7.00e-07	0	43	0	1054867456	18	4208
2026-01-30 11:03:03.71	249.12	52.65	-28.3	-29.3	14.9	8.30e-06	0	44	0	1058013184	18	4053
2026-01-30 11:03:04.70	249.80	52.71	-28.2	-29.6	14.9	0.00e+00	0	44	0	1061158912	17	4235
2026-01-30 11:03:05.71	250.49	52.77	-28.4	-30.1	14.5	3.00e-06	0	44	0	1064304640	17	4367
2026-01-30 11:03:06.72	251.20	52.82	-28.7	-30.7	14.3	7.00e-07	0	43	0	1067450368	17	4553
2026-01-30 11:03:07.72	251.89	52.86	-28.8	-31.1	14.1	3.00e-06	0	43	0	1070596096	17	4671
2026-01-30 11:03:08.72	252.59	52.90	-28.4	-30.1	14.6	7.00e-07	0	44	0	1073741824	17	4372
2026-01-30 11:03:09.72	253.29	52.94	-28.3	-29.9	14.8	0.00e+00	0	44	0	1076887552	17	4295
2026-01-30 11:03:10.73	254.00	52.98	-28.2	-29.5	15.0	0.00e+00	0	44	0	1080033280	17	4200
2026-01-30 11:03:11.73	254.70	53.00	-28.2	-29.7	14.9	0.00e+00	0	44	0	1083179008	17	4244
2026-01-30 11:03:12.73	255.40	53.03	-28.2	-29.5	15.1	0.00e+00	0	44	0	1086324736	17	4184
2026-01-30 11:03:13.74	256.12	53.05	-28.3	-29.7	15.0	0.00e+00	0	44	0	1089470464	17	4241
2026-01-30 11:03:14.74	256.82	53.06	-28.4	-30.1	14.7	0.00e+00	0	43	0	1092616192	17	4362
2026-01-30 11:03:15.74	257.53	53.08	-28.6	-30.5	14.4	7.00e-07	0	43	0	1095761920	17	4489
2026-01-30 11:03:16.74	258.23	53.08	-28.5	-30.3	14.6	7.00e-07	0	43	0	1098907648	17	4416
2026-01-30 11:03:17.75	258.95	53.08	-28.2	-29.6	15.0	0.00e+00	0	44	0	1102053376	17	4227
2026-01-30 11:03:18.74	259.65	53.08	-28.3	-29.7	15.0	7.00e-07	0	44	0	1105199104	17	4236
2026-01-30 11:03:19.74	260.36	53.08	-28.3	-29.9	14.9	0.00e+00	0	44	0	1108344832	17	4291
2026-01-30 11:03:20.75	261.07	53.07	-28.7	-30.6	14.4	0.00e+00	0	44	0	1111490560	17	4516
2026-01-30 11:03:21.74	261.77	53.05	-28.4	-30.1	14.7	0.00e+00	0	43	0	1114636288	17	4359
2026-01-30 11:03:22.75	262.48	53.03	-28.2	-29.4	15.2	0.00e+00	0	44	0	1117782016	17	4171
2026-01-30 11:03:23.75	263.18	53.01	-28.1	-29.3	15.3	0.00e+00	0	43	0	1120927744	17	4125
2026-01-30 11:03:24.76	263.89	52.98	-28.1	-29.3	15.3	7.00e-07	0	44	0	1124073472	17	4129
2026-01-30 11:03:25.76	264.59	52.95	-28.1	-29.4	15.2	0.00e+00	0	44	0	1127219200	17	4157
2026-01-30 11:03:26.77	265.30	52.91	-28.0	-29.0	15.3	0.00e+00	0	44	0	1130364928	17	4072
2026-01-30 11:03:27.78	266.01	52.87	-28.1	-29.4	15.2	0.00e+00	0	43	0	1133510656	17	4146
2026-01-30 11:03:28.78	266.70	52.82	-28.2	-29.6	15.0	0.00e+00	0	44	0	1136656384	17	4231
2026-01-30 11:03:29.77	267.39	52.77	-28.4	-30.0	14.9	0.00e+00	0	44	0	1139802112	17	4318
2026-01-30 11:03:30.78	268.09	52.72	-28.1	-29.4	15.1	0.00e+00	0	44	0	1142947840	17	4167
2026-01-30 11:03:31.79	268.78	52.66	-28.0	-29.1	15.4	0.00e+00	0	44	0	1146093568	17	4074
2026-01-30 11:03:32.79	269.47	52.60	-28.2	-29.6	15.1	0.00e+00	0	44	0	1149239296	17	4205
2026-01-30 11:03:33.79	270.15	52.53	-29.0	-31.4	14.0	7.00e-07	0	44	0	1152385024	17	4749
2026-01-30 11:03:34.79	270.83	52.46	-29.5	-31.7	13.2	1.75e-05	0	44	0	1155530752	19	4638
2026-01-30 11:03:35.80	271.51	52.39	-29.5	-31.7	13.3	2.36e-05	0	43	0	1158676480	19	4644
2026-01-30 11:03:36.80	272.18	52.31	-29.2	-30.9	13.8	4.50e-06	0	44	0	1161822208	19	4382
2026-01-30 11:03:37.81	272.86	52.23	-29.0	-30.5	13.9	2.20e-06	0	44	0	1164967936	19	4279
2026-01-30 11:03:38.81	273.52	52.14	-29.1	-30.7	13.8	3.80e-06	0	44	0	1168113664	19	4332
2026-01-30 11:03:39.81	274.18	52.05	-28.9	-30.2	14.2	3.00e-06	0	44	0	1171259392	19	4174
2026-01-30 11:03:40.82	274.85	51.96	-28.7	-30.3	14.4	0.00e+00	0	44	0	1174405120	18	4308
2026-01-30 11:03:41.82	275.50	51.86	-28.7	-30.2	14.4	1.50e-06	0	44	0	1177550848	18	4280
2026-01-30 11:03:42.82	276.15	51.76	-29.0	-31.0	14.0	2.20e-06	0	44	0	1180696576	18	4527
2026-01-30 11:03:43.83	276.80	51.66	-28.7	-30.2	14.4	7.00e-07	0	44	0	1183842304	18	4278
2026-01-30 11:03:44.83	277.44	51.55	-28.2	-29.4	15.2	0.00e+00	0	44	0	1186988032	17	4174
2026-01-30 11:03:45.83	278.08	51.44	-28.1	-29.3	15.2	0.00e+00	0	44	0	1190133760	17	4129
2026-01-30 11:03:46.84	278.71	51.33	-28.5	-30.2	14.7	0.00e+00	0	44	0	1193279488	17	4392
2026-01-30 11:03:47.84	279.34	51.21	-28.7	-30.7	14.4	2.20e-06	0	44	0	1196425216	17	4525
2026-01-30 11:03:48.84	279.96	51.09	-28.8	-31.0	14.2	1.50e-06	0	44	0	1199570944	17	4617
2026-01-30 11:03:49.84	280.57	50.97	-28.8	-31.0	14.3	1.50e-06	0	44	0	1202716672	17	4629
2026-01-30 11:03:50.84	281.18	50.84	-29.2	-31.5	13.7	3.80e-06	0	44	0	1205862400	18	4677
2026-01-30 11:03:51.84	281.79	50.71	-29.2	-31.5	13.7	5.30e-06	0	44	0	1209008128	18	4656
2026-01-30 11:03:52.85	282.40	50.58	-29.4	-31.8	13.5	7.60e-06	0	44	0	1212153856	18	4777
2026-01-30 11:03:53.86	283.00	50.44	-29.1	-31.3	13.8	4.50e-06	0	44	0	1215299584	18	4593
2026-01-30 11:03:54.86	283.59	50.30	-29.0	-31.0	14.0	7.00e-07	0	44	0	1218445312	18	4511
2026-01-30 11:03:55.86	284.17	50.16	-29.3	-31.6	13.6	5.30e-06	0	44	0	1220542464	18	4686
2026-01-30 11:03:56.86	284.75	50.02	-29.2	-31.5	13.7	5.30e-06	0	44	0	1223688192	18	4661
2026-01-30 11:03:57.87	285.33	49.87	-29.5	-32.1	13.3	7.60e-06	0	44	0	1226833920	18	4867
2026-01-30 11:03:58.88	285.90	49.72	-29.4	-31.3	13.5	1.67e-05	0	44	0	1231028224	19	4497
2026-01-30 11:03:59.88	286.46	49.57	-29.3	-31.2	13.6	9.90e-06	0	44	0	1234173952	19	4461
2026-01-30 11:04:00.88	287.02	49.42	-29.2	-30.8	13.8	4.50e-06	0	43	0	1237319680	19	4342
2026-01-30 11:04:01.89	287.58	49.26	-29.1	-30.6	13.9	2.20e-06	0	44	0	1240465408	19	4297
2026-01-30 11:04:02.89	288.12	49.10	-29.1	-30.5	14.0	9.10e-06	0	44	0	1243611136	19	4256
2026-01-30 11:04:03.90	288.67	48.94	-29.4	-31.3	13.5	2.20e-06	0	44	0	1245708288	19	4507
2026-01-30 11:04:04.90	289.20	48.78	-29.5	-31.7	13.3	1.52e-05	0	44	0	1248854016	19	4614
2026-01-30 11:04:05.90	289.73	48.62	-29.5	-31.5	13.5	1.29e-05	0	44	0	1251999744	19	4555
2026-01-30 11:04:06.91	290.26	48.45	-29.6	-31.7	13.2	2.44e-05	0	44	0	1255145472	19	4628
2026-01-30 11:04:07.92	290.78	48.28	-29.4	-31.4	13.4	1.44e-05	0	44	0	1258291200	19	4515
2026-01-30 11:04:08.92	291.29	48.11	-29.2	-31.0	13.7	8.30e-06	0	44	0	1261436928	19	4400
2026-01-30 11:04:09.92	291.80	47.94	-29.2	-30.8	13.9	3.00e-06	0	44	0	1264582656	19	4323
2026-01-30 11:04:10.93	292.30	47.77	-29.2	-30.9	13.8	1.50e-06	0	44	0	1267728384	19	4358
2026-01-30 11:04:11.93	292.80	47.59	-29.3	-31.2	13.7	8.30e-06	0	44	0	1270874112	19	4446
2026-01-30 11:04:12.93	293.29	47.42	-29.7	-32.0	13.1	1.83e-05	0	44	0	1274019840	19	4718
2026-01-30 11:04:13.93	293.77	47.24	-29.5	-31.6	13.4	1.29e-05	0	44	0	1277165568	19	4584
2026-01-30 11:04:14.94	294.26	47.06	-29.4	-31.4	13.4	1.14e-05	0	44	0	1280311296	19	4521
2026-01-30 11:04:15.94	294.73	46.88	-29.7	-32.0	13.0	2.74e-05	0	44	0	1283457024	19	4705
2026-01-30 11:04:16.94	295.20	46.70	-29.5	-31.5	13.4	9.90e-06	0	44	0	1286602752	19	4561
2026-01-30 11:04:17.94	295.66	46.52	-29.2	-30.9	13.8	5.30e-06	0	44	0	1289748480	19	4362
2026-01-30 11:04:18.94	296.12	46.33	-29.1	-30.6	14.0	3.80e-06	0	44	0	1292894208	19	4274
2026-01-30 11:04:19.95	296.57	46.15	-29.4	-31.2	13.6	3.00e-06	0	44	0	1296039936	19	4463
2026-01-30 11:04:20.95	297.02	45.96	-29.3	-31.2	13.6	6.80e-06	0	44	0	1299185664	19	4454
2026-01-30 11:04:21.95	297.46	45.77	-29.4	-31.3	13.6	6.80e-06	0	44	0	1302331392	19	4496
2026-01-30 11:04:22.95	297.90	45.58	-29.5	-31.5	13.4	1.22e-05	0	44	0	1305477120	19	4565
2026-01-30 11:04:23.95	298.33	45.40	-29.4	-31.4	13.5	1.14e-05	0	44	0	1308622848	19	4521
2026-01-30 11:04:24.96	298.76	45.20	-29.4	-31.4	13.4	1.06e-05	0	44	0	1311768576	19	4534
2026-01-30 11:04:25.95	299.18	45.02	-29.5	-31.5	13.4	7.60e-06	0	44	0	1314914304	19	4550
2026-01-30 11:04:26.96	299.60	44.82	-29.6	-31.8	13.2	1.44e-05	0	44	0	1318060032	19	4655
2026-01-30 11:04:27.95	300.00	44.63	-29.5	-31.7	13.3	1.67e-05	0	44	0	1321205760	19	4606
2026-01-30 11:04:28.96	300.41	44.44	-29.6	-31.8	13.2	2.21e-05	0	44	0	1324351488	19	4642
2026-01-30 11:04:29.97	300.82	44.25	-30.1	-32.6	12.4	7.17e-05	0	44	0	1327497216	20	4794
2026-01-30 11:04:30.98	301.22	44.05	-30.2	-32.8	12.2	1.71e-04	0	44	0	1330642944	20	4879
2026-01-30 11:04:31.98	301.61	43.86	-30.4	-33.5	11.8	4.13e-04	0	44	0	1333788672	20	5126
2026-01-30 11:04:32.99	302.00	43.66	-30.2	-33.0	12.0	3.85e-04	0	44	0	1336934400	20	4949
2026-01-30 11:04:33.99	302.38	43.47	-30.0	-32.3	12.5	1.55e-04	0	44	0	1340080128	20	4710
2026-01-30 11:04:34.99	302.76	43.27	-29.8	-32.0	12.7	7.01e-05	0	44	0	1343225856	20	4618
2026-01-30 11:04:36.00	303.14	43.07	-30.0	-32.5	12.4	1.06e-04	0	44	0	1346371584	20	4785
2026-01-30 11:04:37.00	303.51	42.88	-29.9	-32.2	12.6	9.99e-05	0	44	0	1349517312	20	4670
2026-01-30 11:04:38.00	303.87	42.68	-29.9	-32.1	12.6	8.31e-05	0	44	0	1352663040	20	4661
2026-01-30 11:04:39.01	304.24	42.48	-30.0	-32.4	12.5	1.14e-04	0	44	0	1355808768	20	4735
2026-01-30 11:04:40.01	304.59	42.29	-29.6	-31.4	13.0	4.42e-05	0	44	0	1358954496	20	4445
2026-01-30 11:04:41.02	304.95	42.09	-29.3	-30.8	13.4	1.52e-05	0	44	0	1362100224	20	4241
2026-01-30 11:04:42.02	305.29	41.89	-29.1	-30.6	13.9	7.60e-06	0	44	0	1365245952	19	4300
2026-01-30 11:04:43.03	305.64	41.69	-28.8	-30.0	14.2	7.00e-07	0	44	0	1368391680	19	4121
2026-01-30 11:04:44.03	305.98	41.50	-28.9	-30.3	14.1	7.00e-07	0	44	0	1371537408	19	4188
2026-01-30 11:04:45.03	306.31	41.30	-28.9	-30.3	14.1	3.00e-06	0	44	0	1374683136	19	4196
2026-01-30 11:04:46.04	306.65	41.10	-29.3	-31.2	13.6	7.60e-06	0	44	0	1377828864	19	4462
2026-01-30 11:04:47.04	306.97	40.90	-29.4	-31.3	13.5	1.06e-05	0	44	0	1380974592	19	4507
2026-01-30 11:04:48.05	307.30	40.71	-29.8	-32.5	12.8	3.12e-05	0	44	0	1384120320	19	4881
2026-01-30 11:04:49.06	307.62	40.51	-30.0	-32.4	12.4	1.17e-04	0	44	0	1387266048	20	4749
2026-01-30 11:04:50.06	307.94	40.31	-30.1	-32.8	12.1	2.11e-04	0	44	0	1390411776	20	4887
2026-01-30 11:04:51.06	308.25	40.11	-29.9	-32.3	12.4	1.36e-04	0	44	0	1393557504	20	4743
2026-01-30 11:04:52.07	308.56	39.92	-29.6	-31.5	12.9	5.79e-05	0	44	0	1396703232	20	4468
2026-01-30 11:04:53.07	308.86	39.72	-29.5	-31.1	13.1	2.82e-05	0	44	0	1399848960	20	4351
2026-01-30 11:04:54.07	309.16	39.53	-29.4	-30.9	13.3	1.75e-05	0	44	0	1402994688	20	4295
2026-01-30 11:04:55.07	309.46	39.33	-29.7	-31.6	12.9	3.66e-05	0	44	0	1406140416	20	4492
2026-01-30 11:04:56.07	309.75	39.13	-29.5	-31.2	13.1	3.66e-05	0	44	0	1409286144	20	4375
2026-01-30 11:04:57.08	310.05	38.94	-29.3	-30.8	13.3	2.51e-05	0	44	0	1412431872	20	4278
2026-01-30 11:04:58.08	310.33	38.74	-29.3	-31.2	13.5	1.37e-05	0	44	0	1415577600	19	4468
2026-01-30 11:04:59.08	310.62	38.55	-29.2	-30.8	13.7	8.30e-06	0	44	0	1418723328	19	4360
2026-01-30 11:05:00.08	310.90	38.36	-29.1	-30.6	13.9	3.80e-06	0	44	0	1421869056	19	4297
2026-01-30 11:05:01.08	311.17	38.16	-29.2	-31.0	13.5	3.80e-06	0	44	0	1425014784	19	4418
2026-01-30 11:05:02.08	311.45	37.97	-29.3	-31.1	13.5	9.10e-06	0	44	0	1428160512	19	4457
2026-01-30 11:05:03.08	311.72	37.78	-29.3	-31.3	13.4	1.67e-05	0	44	0	1431306240	19	4513
2026-01-30 11:05:04.09	311.99	37.58	-29.0	-30.5	13.9	6.10e-06	0	43	0	1434451968	19	4262
2026-01-30 11:05:05.10	312.25	37.39	-28.5	-29.7	14.6	1.50e-06	0	43	0	1437597696	18	4146
2026-01-30 11:05:06.10	312.51	37.20	-28.4	-29.4	14.8	0.00e+00	0	44	0	1440743424	18	4052
2026-01-30 11:05:07.10	312.77	37.01	-28.5	-29.8	14.6	0.00e+00	0	43	0	1443889152	18	4165
2026-01-30 11:05:08.11	313.03	36.82	-28.5	-29.7	14.6	7.00e-07	0	44	0	1447034880	18	4133
2026-01-30 11:05:09.11	313.28	36.63	-28.7	-30.2	14.4	0.00e+00	0	44	0	1450180608	18	4270
2026-01-30 11:05:10.12	313.53	36.43	-28.8	-30.4	14.2	2.20e-06	0	44	0	1453326336	18	4344
2026-01-30 11:05:11.11	313.78	36.25	-29.0	-31.0	13.8	2.20e-06	0	44	0	1456472064	18	4532
2026-01-30 11:05:12.12	314.02	36.06	-28.9	-30.6	14.0	2.20e-06	0	44	0	1459617792	18	4406
2026-01-30 11:05:13.12	314.26	35.87	-28.9	-30.8	14.0	7.00e-07	0	44	0	1462763520	18	4461
2026-01-30 11:05:14.13	314.50	35.68	-28.9	-30.7	14.0	2.20e-06	0	44	0	1465909248	18	4428
2026-01-30 11:05:15.13	314.74	35.49	-28.8	-30.5	14.1	7.00e-07	0	44	0	1469054976	18	4382
2026-01-30 11:05:16.13	314.97	35.31	-28.8	-30.6	14.1	2.20e-06	0	44	0	1472200704	18	4399
2026-01-30 11:05:17.14	315.20	35.12	-29.0	-30.9	13.9	1.50e-06	0	44	0	1475346432	18	4507
2026-01-30 11:05:18.14	315.43	34.94	-28.9	-30.7	13.9	3.00e-06	0	44	0	1478492160	18	4443
2026-01-30 11:05:19.14	315.66	34.75	-29.1	-31.2	13.7	6.10e-06	0	44	0	1481637888	18	4585
2026-01-30 11:05:20.15	315.88	34.57	-29.1	-31.2	13.7	4.50e-06	0	44	0	1484783616	18	4595
2026-01-30 11:05:21.15	316.10	34.38	-29.0	-31.0	13.8	3.80e-06	0	44	0	1487929344	18	4523
2026-01-30 11:05:22.16	316.32	34.20	-28.8	-30.5	14.1	2.20e-06	0	43	0	1491075072	18	4391
2026-01-30 11:05:23.16	316.54	34.02	-28.6	-30.0	14.4	7.00e-07	0	43	0	1494220800	18	4228
2026-01-30 11:05:24.17	316.75	33.84	-28.4	-29.5	14.7	7.00e-07	0	44	0	1497366528	18	4099
2026-01-30 11:05:25.18	316.97	33.65	-28.4	-29.6	14.6	0.00e+00	0	44	0	1500512256	18	4107
2026-01-30 11:05:26.18	317.17	33.47	-28.0	-29.3	15.1	0.00e+00	0	44	0	1503657984	17	4137
2026-01-30 11:05:27.18	317.38	33.29	-28.0	-29.1	15.2	0.00e+00	0	44	0	1506803712	17	4086
2026-01-30 11:05:28.19	317.59	33.11	-28.0	-29.3	15.1	0.00e+00	0	43	0	1509949440	17	4138
2026-01-30 11:05:29.19	317.79	32.94	-28.0	-29.1	15.1	0.00e+00	0	44	0	1513095168	17	4108
2026-01-30 11:05:30.20	317.99	32.76	-28.0	-29.1	15.2	0.00e+00	0	44	0	1516240896	17	4094
2026-01-30 11:05:31.20	318.19	32.58	-27.9	-29.0	15.2	7.00e-07	0	44	0	1519386624	17	4054
2026-01-30 11:05:32.20	318.38	32.41	-28.0	-29.1	15.1	0.00e+00	0	44	0	1522532352	17	4094
2026-01-30 11:05:33.20	318.58	32.23	-27.7	-28.8	15.6	0.00e+00	0	44	0	1525678080	16	4125
2026-01-30 11:05:34.21	318.77	32.05	-27.7	-28.9	15.5	0.00e+00	0	44	0	1528823808	16	4138
2026-01-30 11:05:35.20	318.96	31.88	-27.7	-29.0	15.4	0.00e+00	0	43	0	1531969536	16	4168
2026-01-30 11:05:36.20	319.14	31.71	-27.6	-28.6	15.7	0.00e+00	0	44	0	1535115264	16	4066
2026-01-30 11:05:37.20	319.33	31.54	-27.6	-28.6	15.6	0.00e+00	0	44	0	1538260992	16	4072
2026-01-30 11:05:38.20	319.51	31.37	-27.7	-28.9	15.5	7.00e-07	0	44	0	1541406720	16	4138
2026-01-30 11:05:39.21	319.70	31.19	-27.7	-29.0	15.4	0.00e+00	0	44	0	1543503872	16	4161
2026-01-30 11:05:40.21	319.88	31.02	-27.8	-29.3	15.3	0.00e+00	0	44	0	1546649600	16	4247
2026-01-30 11:05:41.21	320.05	30.85	-27.3	-28.1	15.9	0.00e+00	0	44	0	1549795328	16	3939
2026-01-30 11:05:42.21	320.23	30.69	-26.9	-27.7	16.2	0.00e+00	0	44	0	1552941056	15	3953
2026-01-30 11:05:43.22	320.41	30.52	-26.8	-27.6	16.3	0.00e+00	0	44	0	1556086784	15	3909
2026-01-30 11:05:44.22	320.58	30.35	-26.9	-27.6	16.3	0.00e+00	0	43	0	1559232512	15	3916
2026-01-30 11:05:45.22	320.75	30.18	-27.0	-27.8	16.2	0.00e+00	0	44	0	1563426816	15	3982
2026-01-30 11:05:46.22	320.92	30.02	-26.9	-27.6	16.3	0.00e+00	0	44	0	1565523968	15	3924
2026-01-30 11:05:47.22	321.09	29.85	-26.9	-27.7	16.3	0.00e+00	0	44	0	1568669696	15	3948
2026-01-30 11:05:48.22	321.25	29.69	-27.1	-28.1	16.1	0.00e+00	0	43	0	1571815424	15	4044
2026-01-30 11:05:49.22	321.42	29.52	-27.1	-28.1	16.0	0.00e+00	0	43	0	1574961152	15	4054
2026-01-30 11:05:50.23	321.58	29.36	-27.3	-28.6	15.7	0.00e+00	0	44	0	1578106880	15	4194
2026-01-30 11:05:51.23	321.74	29.19	-27.4	-28.7	15.7	0.00e+00	0	43	0	1581252608	15	4220
2026-01-30 11:05:52.24	321.90	29.03	-27.5	-29.1	15.5	0.00e+00	0	44	0	1584398336	15	4316
2026-01-30 11:05:53.24	322.06	28.87	-27.5	-29.0	15.5	0.00e+00	0	43	0	1587544064	15	4290
2026-01-30 11:05:54.24	322.22	28.71	-27.5	-29.0	15.5	7.00e-07	0	44	0	1590689792	15	4302
2026-01-30 11:05:55.25	322.37	28.55	-27.5	-29.0	15.5	0.00e+00	0	44	0	1593835520	15	4287
2026-01-30 11:05:56.25	322.53	28.39	-27.5	-29.0	15.5	0.00e+00	0	44	0	1596981248	15	4287
2026-01-30 11:05:57.26	322.68	28.23	-27.4	-28.9	15.6	0.00e+00	0	44	0	1600126976	15	4253
2026-01-30 11:05:58.26	322.83	28.07	-27.1	-28.1	16.0	0.00e+00	0	44	0	1603272704	15	4051
2026-01-30 11:05:59.26	322.98	27.92	-26.9	-27.8	16.2	0.00e+00	0	44	0	1606418432	15	3973
2026-01-30 11:06:00.27	323.13	27.76	-27.0	-27.9	16.1	0.00e+00	0	44	0	1609564160	15	4008
2026-01-30 11:06:01.27	323.28	27.60	-27.1	-28.2	15.9	0.00e+00	0	43	0	1612709888	15	4067
2026-01-30 11:06:02.26	323.42	27.45	-27.1	-28.2	16.0	0.00e+00	0	44	0	1615855616	15	4074
2026-01-30 11:06:03.27	323.56	27.29	-27.2	-28.5	15.8	0.00e+00	0	44	0	1619001344	15	4146
2026-01-30 11:06:04.27	323.71	27.14	-27.4	-28.8	15.6	0.00e+00	0	44	0	1622147072	15	4252
2026-01-30 11:06:05.28	323.85	26.99	-27.1	-28.1	16.0	0.00e+00	0	44	0	1625292800	15	4060
2026-01-30 11:06:06.28	323.99	26.83	-26.9	-27.8	16.1	0.00e+00	0	44	0	1628438528	15	3965
2026-01-30 11:06:07.28	324.13	26.68	-26.9	-27.6	16.3	0.00e+00	0	43	0	1631584256	15	3931
2026-01-30 11:06:08.29	324.26	26.53	-26.9	-27.6	16.2	0.00e+00	0	44	0	1634729984	15	3923
2026-01-30 11:06:09.29	324.40	26.38	-26.8	-27.9	16.3	0.00e+00	0	44	0	1637875712	14	4110
2026-01-30 11:06:10.30	324.54	26.23	-26.7	-27.8	16.4	0.00e+00	0	44	0	1641021440	14	4085
2026-01-30 11:06:11.31	324.67	26.08	-26.7	-27.8	16.4	0.00e+00	0	43	0	1644167168	14	4086
2026-01-30 11:06:12.31	324.80	25.93	-26.8	-27.9	16.4	0.00e+00	0	44	0	1647312896	14	4101
2026-01-30 11:06:13.32	324.93	25.78	-26.7	-27.9	16.4	0.00e+00	0	44	0	1650458624	14	4092
2026-01-30 11:06:14.32	325.06	25.64	-26.8	-27.9	16.3	0.00e+00	0	44	0	1653604352	14	4108
2026-01-30 11:06:15.32	325.19	25.49	-26.9	-28.2	16.2	0.00e+00	0	44	0	1656750080	14	4179
2026-01-30 11:06:16.32	325.32	25.35	-26.9	-28.3	16.1	0.00e+00	0	44	0	1659895808	14	4206
2026-01-30 11:06:17.33	325.45	25.20	-26.9	-28.3	16.1	0.00e+00	0	44	0	1663041536	14	4216
2026-01-30 11:06:18.33	325.57	25.06	-27.0	-28.5	16.0	0.00e+00	0	44	0	1666187264	14	4272
2026-01-30 11:06:19.33	325.70	24.91	-27.1	-28.7	15.9	0.00e+00	0	43	0	1669332992	14	4312
2026-01-30 11:06:20.34	325.82	24.77	-27.0	-28.3	16.1	0.00e+00	0	44	0	1672478720	14	4226
2026-01-30 11:06:21.34	325.94	24.63	-26.9	-28.3	16.1	0.00e+00	0	44	0	1675624448	14	4221
2026-01-30 11:06:22.34	326.06	24.49	-27.0	-28.4	16.1	0.00e+00	0	43	0	1678770176	14	4243
2026-01-30 11:06:23.35	326.18	24.34	-27.0	-28.3	16.1	0.00e+00	0	43	0	1681915904	14	4223
2026-01-30 11:06:24.35	326.30	24.20	-27.0	-28.4	16.1	0.00e+00	0	44	0	1685061632	14	4231
2026-01-30 11:06:25.35	326.42	24.06	-27.0	-28.5	16.0	0.00e+00	0	44	0	1688207360	14	4281
2026-01-30 11:06:26.36	326.54	23.92	-27.1	-28.6	15.9	0.00e+00	0	44	0	1691353088	14	4287
2026-01-30 11:06:27.36	326.65	23.79	-27.1	-28.7	15.8	0.00e+00	0	44	0	1694498816	14	4334
2026-01-30 11:06:28.37	326.77	23.65	-27.2	-28.8	15.8	7.00e-07	0	43	0	1697644544	14	4351
2026-01-30 11:06:29.37	326.88	23.51	-27.3	-29.1	15.7	0.00e+00	0	43	0	1700790272	14	4429
2026-01-30 11:06:30.37	327.00	23.37	-27.3	-29.2	15.6	0.00e+00	0	43	0	1703936000	14	4473
2026-01-30 11:06:31.37	327.11	23.24	-27.3	-29.2	15.6	0.00e+00	0	43	0	1707081728	14	4454
2026-01-30 11:06:32.37	327.22	23.10	-27.3	-29.1	15.6	0.00e+00	0	44	0	1710227456	14	4444
2026-01-30 11:06:33.37	327.33	22.97	-27.2	-29.0	15.7	7.00e-07	0	44	0	1713373184	14	4407
2026-01-30 11:06:34.38	327.44	22.83	-27.3	-29.1	15.6	0.00e+00	0	44	0	1716518912	14	4433
2026-01-30 11:06:35.39	327.55	22.70	-27.3	-29.1	15.6	0.00e+00	0	43	0	1719664640	14	4457
2026-01-30 11:06:36.38	327.66	22.57	-27.3	-29.1	15.6	0.00e+00	0	44	0	1722810368	14	4439
2026-01-30 11:06:37.39	327.76	22.43	-27.2	-28.8	15.7	0.00e+00	0	43	0	1725956096	14	4362
2026-01-30 11:06:38.39	327.87	22.30	-27.1	-28.7	15.8	0.00e+00	0	44	0	1729101824	14	4330
2026-01-30 11:06:39.39	327.97	22.17	-27.1	-28.6	15.9	0.00e+00	0	44	0	1732247552	14	4300
2026-01-30 11:06:40.39	328.08	22.04	-27.1	-28.6	15.8	0.00e+00	0	44	0	1735393280	14	4308
2026-01-30 11:06:41.39	328.18	21.91	-27.1	-28.6	15.9	0.00e+00	0	44	0	1738539008	14	4301
2026-01-30 11:06:42.39	328.28	21.78	-27.0	-28.5	15.9	0.00e+00	0	44	0	1741684736	14	4280
2026-01-30 11:06:43.40	328.39	21.65	-27.1	-28.6	15.8	0.00e+00	0	44	0	1744830464	14	4309
2026-01-30 11:06:44.40	328.49	21.52	-27.1	-28.6	15.8	0.00e+00	0	44	0	1747976192	14	4303
2026-01-30 11:06:45.41	328.59	21.39	-27.2	-28.9	15.7	0.00e+00	0	43	0	1751121920	14	4384
2026-01-30 11:06:46.42	328.69	21.27	-27.2	-29.0	15.6	0.00e+00	0	44	0	1754267648	14	4414
2026-01-30 11:06:47.42	328.79	21.14	-27.1	-28.7	15.8	0.00e+00	0	43	0	1757413376	14	4331
2026-01-30 11:06:48.42	328.88	21.01	-27.1	-28.8	15.8	0.00e+00	0	44	0	1760559104	14	4339
2026-01-30 11:06:49.42	328.98	20.89	-27.1	-28.8	15.8	0.00e+00	0	44	0	1763704832	14	4340
2026-01-30 11:06:50.43	329.08	20.76	-27.2	-28.8	15.7	0.00e+00	0	43	0	1766850560	14	4366
2026-01-30 11:06:51.43	329.17	20.64	-27.1	-28.7	15.7	0.00e+00	0	44	0	1769996288	14	4331
2026-01-30 11:06:52.43	329.27	20.52	-27.1	-28.8	15.7	0.00e+00	0	44	0	1773142016	14	4351
2026-01-30 11:06:53.44	329.36	20.39	-27.2	-28.9	15.7	0.00e+00	0	44	0	1776287744	14	4372
2026-01-30 11:06:54.45	329.46	20.27	-27.1	-28.8	15.7	0.00e+00	0	43	0	1779433472	14	4343
2026-01-30 11:06:55.45	329.55	20.15	-27.2	-28.9	15.7	0.00e+00	0	44	0	1782579200	14	4383
2026-01-30 11:06:56.46	329.64	20.02	-27.3	-29.1	15.6	0.00e+00	0	43	0	1785724928	14	4427
2026-01-30 11:06:57.47	329.73	19.90	-27.3	-29.2	15.5	0.00e+00	0	43	0	1788870656	14	4467
2026-01-30 11:06:58.47	329.82	19.78	-27.4	-29.4	15.3	0.00e+00	0	44	0	1792016384	14	4531
2026-01-30 11:06:59.48	329.91	19.66	-27.5	-29.5	15.3	0.00e+00	0	44	0	1795162112	14	4574
2026-01-30 11:07:00.48	330.00	19.54	-27.7	-29.6	15.0	7.00e-07	0	43	0	1798307840	15	4480
2026-01-30 11:07:01.48	330.09	19.42	-27.8	-29.7	14.9	0.00e+00	0	44	0	1801453568	15	4516
2026-01-30 11:07:02.49	330.18	19.30	-27.6	-29.4	15.0	0.00e+00	0	43	0	1804599296	15	4424
2026-01-30 11:07:03.50	330.27	19.18	-27.6	-29.5	15.0	0.00e+00	0	44	0	1807745024	15	4434
2026-01-30 11:07:04.51	330.35	19.06	-27.6	-29.4	15.1	0.00e+00	0	44	0	1810890752	15	4417
2026-01-30 11:07:05.51	330.44	18.95	-27.5	-29.2	15.2	0.00e+00	0	44	0	1814036480	15	4357
2026-01-30 11:07:06.51	330.53	18.83	-27.5	-29.2	15.1	0.00e+00	0	44	0	1817182208	15	4377
2026-01-30 11:07:07.51	330.61	18.71	-27.5	-29.1	15.2	0.00e+00	0	43	0	1820327936	15	4328
2026-01-30 11:07:08.52	330.69	18.60	-27.3	-28.8	15.4	0.00e+00	0	44	0	1823473664	15	4250
2026-01-30 11:07:09.52	330.78	18.48	-27.2	-28.5	15.5	0.00e+00	0	44	0	1826619392	15	4175
2026-01-30 11:07:10.53	330.86	18.37	-27.2	-28.5	15.5	0.00e+00	0	44	0	1829765120	15	4167
2026-01-30 11:07:11.52	330.94	18.25	-27.2	-28.5	15.5	0.00e+00	0	43	0	1832910848	15	4167
2026-01-30 11:07:12.53	331.03	18.14	-27.2	-28.5	15.5	0.00e+00	0	43	0	1836056576	15	4182
2026-01-30 11:07:13.54	331.11	18.03	-27.2	-28.5	15.5	0.00e+00	0	43	0	1839202304	15	4177
2026-01-30 11:07:14.54	331.19	17.91	-27.3	-28.6	15.4	0.00e+00	0	44	0	1842348032	15	4202
2026-01-30 11:07:15.55	331.27	17.80	-27.2	-28.4	15.5	0.00e+00	0	44	0	1845493760	15	4157
2026-01-30 11:07:16.56	331.35	17.69	-27.1	-28.3	15.6	0.00e+00	0	43	0	1848639488	15	4120
2026-01-30 11:07:17.56	331.43	17.58	-27.1	-28.3	15.6	0.00e+00	0	44	0	1851785216	15	4110
2026-01-30 11:07:18.56	331.51	17.47	-27.1	-28.3	15.6	0.00e+00	0	43	0	1854930944	15	4117
2026-01-30 11:07:19.57	331.58	17.35	-27.2	-28.3	15.6	0.00e+00	0	43	0	1858076672	15	4131
2026-01-30 11:07:20.57	331.66	17.24	-27.1	-28.1	15.7	0.00e+00	0	44	0	1861222400	15	4075
2026-01-30 11:07:21.58	331.74	17.13	-27.1	-28.2	15.6	0.00e+00	0	44	0	1864368128	15	4094
2026-01-30 11:07:22.58	331.81	17.02	-27.1	-28.2	15.7	0.00e+00	0	43	0	1867513856	15	4077
2026-01-30 11:07:23.58	331.89	16.92	-27.1	-28.1	15.7	0.00e+00	0	43	0	1870659584	15	4076
2026-01-30 11:07:24.58	331.96	16.81	-27.2	-28.3	15.5	0.00e+00	0	43	0	1873805312	15	4127
2026-01-30 11:07:25.59	332.04	16.70	-27.1	-28.3	15.6	0.00e+00	0	44	0	1876951040	15	4121
2026-01-30 11:07:26.59	332.11	16.59	-27.1	-28.3	15.6	0.00e+00	0	43	0	1880096768	15	4108
2026-01-30 11:07:27.60	332.19	16.48	-27.2	-28.4	15.5	0.00e+00	0	44	0	1883242496	15	4142
2026-01-30 11:07:28.60	332.26	16.38	-27.2	-28.4	15.5	0.00e+00	0	43	0	1886388224	15	4151
2026-01-30 11:07:29.60	332.33	16.27	-27.3	-28.7	15.3	0.00e+00	0	44	0	1889533952	15	4214
2026-01-30 11:07:30.59	332.41	16.17	-27.3	-28.7	15.3	0.00e+00	0	43	0	1891631104	15	4223
2026-01-30 11:07:31.59	332.48	16.06	-27.3	-28.7	15.3	0.00e+00	0	44	0	1894776832	15	4229
2026-01-30 11:07:32.60	332.55	15.96	-27.4	-28.9	15.2	0.00e+00	0	43	0	1897922560	15	4288
2026-01-30 11:07:33.60	332.62	15.85	-27.4	-28.9	15.2	0.00e+00	0	43	0	1901068288	15	4286
2026-01-30 11:07:34.61	332.69	15.75	-27.4	-28.8	15.2	0.00e+00	0	43	0	1904214016	15	4256
2026-01-30 11:07:35.62	332.76	15.64	-27.4	-28.9	15.2	0.00e+00	0	43	0	1907359744	15	4287
2026-01-30 11:07:36.62	332.83	15.54	-27.4	-29.0	15.1	7.00e-07	0	43	0	1910505472	15	4314
2026-01-30 11:07:37.62	332.90	15.44	-27.5	-29.1	15.1	0.00e+00	0	43	0	1913651200	15	4327
2026-01-30 11:07:38.63	332.97	15.34	-27.5	-29.1	15.1	0.00e+00	0	43	0	1916796928	15	4337
2026-01-30 11:07:39.63	333.04	15.23	-27.6	-29.4	14.9	0.00e+00	0	43	0	1919942656	15	4425
2026-01-30 11:07:40.64	333.10	15.13	-27.6	-29.5	14.8	0.00e+00	0	43	0	1923088384	15	4444
2026-01-30 11:07:41.65	333.17	15.03	-27.6	-29.3	14.9	0.00e+00	0	44	0	1926234112	15	4400
2026-01-30 11:07:42.66	333.24	14.93	-27.6	-29.4	14.9	0.00e+00	0	43	0	1929379840	15	4418
2026-01-30 11:07:43.66	333.31	14.83	-27.6	-29.5	14.8	0.00e+00	0	43	0	1932525568	15	4451
2026-01-30 11:07:44.66	333.37	14.73	-27.7	-29.5	14.8	0.00e+00	0	43	0	1935671296	15	4461
2026-01-30 11:07:45.65	333.44	14.63	-27.7	-29.6	14.7	7.00e-07	0	43	0	1938817024	15	4491
2026-01-30 11:07:46.66	333.50	14.53	-27.7	-29.6	14.7	0.00e+00	0	43	0	1941962752	15	4491
2026-01-30 11:07:47.67	333.57	14.43	-27.7	-29.7	14.7	0.00e+00	0	44	0	1945108480	15	4529
2026-01-30 11:07:48.67	333.63	14.33	-27.8	-29.8	14.6	7.00e-07	0	43	0	1948254208	15	4550
2026-01-30 11:07:49.68	333.70	14.23	-27.8	-29.8	14.6	0.00e+00	0	43	0	1951399936	15	4561
2026-01-30 11:07:50.68	333.76	14.13	-27.9	-30.1	14.4	7.00e-07	0	43	0	1954545664	15	4631
2026-01-30 11:07:51.68	333.82	14.04	-27.9	-30.2	14.4	0.00e+00	0	44	0	1957691392	15	4665
2026-01-30 11:07:52.68	333.89	13.94	-27.9	-30.2	14.3	1.50e-06	0	43	0	1960837120	15	4670
2026-01-30 11:07:53.69	333.95	13.84	-28.0	-30.3	14.3	1.50e-06	0	44	0	1963982848	15	4697
2026-01-30 11:07:54.68	334.01	13.75	-28.2	-30.2	14.2	0.00e+00	0	43	0	1967128576	16	4539
2026-01-30 11:07:55.69	334.07	13.65	-28.3	-30.5	14.1	0.00e+00	0	43	0	1970274304	16	4625
2026-01-30 11:07:56.69	334.13	13.56	-28.3	-30.5	14.0	1.50e-06	0	43	0	1973420032	16	4636
2026-01-30 11:07:57.69	334.19	13.46	-28.3	-30.6	14.0	7.00e-07	0	43	0	1976565760	16	4664
2026-01-30 11:07:58.68	334.25	13.37	-28.3	-30.5	14.1	2.20e-06	0	43	0	1979711488	16	4633
2026-01-30 11:07:59.69	334.32	13.27	-28.3	-30.4	14.1	2.20e-06	0	43	0	1982857216	16	4616
2026-01-30 11:08:00.69	334.38	13.18	-28.3	-30.5	14.0	0.00e+00	0	43	0	1986002944	16	4643
2026-01-30 11:08:01.70	334.44	13.08	-28.2	-30.4	14.1	1.50e-06	0	43	0	1989148672	16	4602
2026-01-30 11:08:02.69	334.49	12.99	-28.4	-30.7	13.9	3.00e-06	0	43	0	1992294400	16	4688
2026-01-30 11:08:03.69	334.55	12.90	-28.4	-30.7	13.9	1.50e-06	0	44	0	1995440128	16	4699
2026-01-30 11:08:04.69	334.61	12.80	-28.2	-30.4	14.1	4.50e-06	0	43	0	1998585856	16	4609
2026-01-30 11:08:05.69	334.67	12.71	-28.2	-30.3	14.1	2.20e-06	0	43	0	2001731584	16	4577
2026-01-30 11:08:06.70	334.73	12.62	-28.2	-30.3	14.1	2.20e-06	0	43	0	2004877312	16	4592
2026-01-30 11:08:07.70	334.78	12.53	-28.3	-30.6	13.9	4.50e-06	0	43	0	2008023040	16	4672
2026-01-30 11:08:08.71	334.84	12.43	-28.3	-30.5	14.0	3.80e-06	0	43	0	2011168768	16	4648
2026-01-30 11:08:09.71	334.90	12.34	-28.4	-30.7	13.9	1.50e-06	0	43	0	2014314496	16	4698
2026-01-30 11:08:10.72	334.96	12.25	-28.4	-30.7	13.8	6.10e-06	0	43	0	2017460224	16	4716
2026-01-30 11:08:11.72	335.01	12.16	-28.3	-30.6	13.9	2.20e-06	0	43	0	2020605952	16	4673
2026-01-30 11:08:12.72	335.07	12.07	-28.4	-30.7	13.8	3.80e-06	0	43	0	2023751680	16	4717
2026-01-30 11:08:13.72	335.12	11.98	-28.4	-30.7	13.8	9.10e-06	0	44	0	2026897408	16	4715
2026-01-30 11:08:14.73	335.18	11.89	-28.4	-30.9	13.7	3.80e-06	0	43	0	2030043136	16	4764
2026-01-30 11:08:15.73	335.23	11.80	-28.4	-30.7	13.8	7.60e-06	0	43	0	2033188864	16	4709
2026-01-30 11:08:16.74	335.29	11.71	-28.4	-30.9	13.7	8.30e-06	0	43	0	2036334592	16	4761
2026-01-30 11:08:17.74	335.34	11.62	-28.5	-30.9	13.7	9.10e-06	0	43	0	2039480320	16	4791
2026-01-30 11:08:18.74	335.40	11.53	-28.6	-30.7	13.5	1.29e-05	0	44	0	2042626048	17	4589
2026-01-30 11:08:19.74	335.45	11.45	-28.7	-31.0	13.3	1.44e-05	0	43	0	2045771776	17	4696
2026-01-30 11:08:20.74	335.50	11.36	-28.7	-31.0	13.3	1.44e-05	0	44	0	2048917504	17	4699
2026-01-30 11:08:21.74	335.56	11.27	-28.7	-31.1	13.2	1.75e-05	0	43	0	2052063232	17	4728
2026-01-30 11:08:22.75	335.61	11.18	-28.7	-31.0	13.3	1.98e-05	0	43	0	2055208960	17	4687
2026-01-30 11:08:23.75	335.66	11.10	-28.6	-30.7	13.4	9.90e-06	0	44	0	2058354688	17	4614
2026-01-30 11:08:24.75	335.72	11.01	-28.5	-30.7	13.5	1.37e-05	0	43	0	2061500416	17	4587
2026-01-30 11:08:25.76	335.77	10.92	-28.6	-30.8	13.4	1.67e-05	0	43	0	2064646144	17	4630
2026-01-30 11:08:26.76	335.82	10.84	-28.6	-30.8	13.4	1.37e-05	0	43	0	2067791872	17	4646
2026-01-30 11:08:27.76	335.87	10.75	-28.7	-31.1	13.2	1.06e-05	0	43	0	2070937600	17	4719
2026-01-30 11:08:28.76	335.92	10.67	-28.7	-31.0	13.2	2.74e-05	0	43	0	2074083328	17	4702
2026-01-30 11:08:29.76	335.97	10.58	-28.6	-30.8	13.4	2.13e-05	0	43	0	2077229056	17	4646
2026-01-30 11:08:30.77	336.02	10.49	-28.6	-30.8	13.4	1.60e-05	0	43	0	2080374784	17	4620
2026-01-30 11:08:31.77	336.07	10.41	-28.6	-30.8	13.3	1.75e-05	0	43	0	2083520512	17	4649
2026-01-30 11:08:32.78	336.12	10.32	-28.6	-30.8	13.3	1.52e-05	0	44	0	2086666240	17	4641
2026-01-30 11:08:33.79	336.17	10.24	-28.7	-31.1	13.2	3.12e-05	0	43	0	2089811968	17	4737
2026-01-30 11:08:34.79	336.22	10.16	-28.7	-31.1	13.2	2.74e-05	0	43	0	2092957696	17	4718
2026-01-30 11:08:35.79	336.27	10.07	-28.8	-31.2	13.1	3.50e-05	0	43	0	2096103424	17	4778
2026-01-30 11:08:36.80	336.32	9.99	-28.7	-31.0	13.2	2.51e-05	0	43	0	2099249152	17	4705
2026-01-30 11:08:37.80	336.37	9.91	-28.7	-31.0	13.2	2.59e-05	0	43	0	2102394880	17	4698
2026-01-30 11:08:38.80	336.42	9.82	-28.7	-31.0	13.2	1.60e-05	0	43	0	2105540608	17	4709
2026-01-30 11:08:39.81	336.47	9.74	-28.7	-31.2	13.1	2.82e-05	0	43	0	2108686336	17	4751
2026-01-30 11:08:40.82	336.52	9.66	-28.7	-31.0	13.2	2.82e-05	0	43	0	2111832064	17	4700
2026-01-30 11:08:41.82	336.57	9.57	-28.7	-30.9	13.2	2.51e-05	0	43	0	2114977792	17	4681
2026-01-30 11:08:42.83	336.61	9.49	-28.7	-31.1	13.1	2.82e-05	0	43	0	2118123520	17	4740
2026-01-30 11:08:43.83	336.66	9.41	-28.6	-30.9	13.2	2.74e-05	0	43	0	2121269248	17	4670
2026-01-30 11:08:44.84	336.71	9.33	-28.6	-30.8	13.3	2.21e-05	0	43	0	2124414976	17	4626
