passes_logs/2026/01/30/R2M6_AANII_01/R2M6_AANII_01__20260130_055314_FENGYUN_3E_rec.log

#Pass ID: 20260130_055314_FENGYUN 3E
#Satellite: FENGYUN 3E
#Configuration: FENGYUN 3E
#almurnet v.1.7.20240730
#Start time: 2026-01-30 05:53:15

#Version: 2.2.20231116
#Station: R2M6_AANII_01
#Location: 30.233357 lon 59.946436 lat
#TLE: 1 49008U 21062A   26029.52207456 -.00000035  00000+0  41692-5 0  9997
#TLE: 2 49008  98.7499  34.4814 0002557 110.8023 249.3427 14.19887743236900

#Time	Az	El	Level	Level2	SNR	BER	BlckErr	Temp	State	Recorded	gain1	gain2
2026-01-30 05:53:15.39	12.52	7.04	-30.7	-33.7	4.9	8.01e-01	0	41	0	0	22	5046
2026-01-30 05:53:16.38	12.46	7.11	-30.3	-32.9	5.0	7.91e-01	0	41	104	0	21	4824
2026-01-30 05:53:17.39	12.40	7.19	-30.2	-32.8	8.4	4.41e-02	0	41	0	0	20	4894
2026-01-30 05:53:18.39	12.34	7.26	-30.3	-33.3	8.1	6.17e-02	0	42	0	7340032	20	5093
2026-01-30 05:53:19.40	12.28	7.33	-30.2	-32.8	8.4	5.37e-02	0	41	0	14680064	20	4888
2026-01-30 05:53:20.40	12.21	7.40	-30.2	-32.8	8.5	4.56e-02	0	42	0	22020096	20	4879
2026-01-30 05:53:21.41	12.15	7.48	-30.2	-32.8	8.5	4.19e-02	0	42	0	28311552	20	4885
2026-01-30 05:53:22.41	12.09	7.55	-30.4	-33.5	8.0	5.57e-02	0	42	0	35651584	20	5137
2026-01-30 05:53:23.42	12.02	7.62	-30.5	-33.2	7.9	8.92e-02	0	42	0	42991616	21	4910
2026-01-30 05:53:24.42	11.96	7.69	-29.9	-32.1	9.0	2.93e-02	0	42	0	50331648	20	4626
2026-01-30 05:53:25.43	11.89	7.77	-29.5	-31.0	9.7	1.15e-02	0	42	0	57671680	20	4259
2026-01-30 05:53:26.43	11.83	7.84	-28.9	-29.8	10.9	3.08e-03	0	42	0	65011712	19	4005
2026-01-30 05:53:27.43	11.76	7.91	-28.2	-29.3	11.8	5.10e-04	0	42	0	72351744	17	4049
2026-01-30 05:53:28.44	11.70	7.99	-27.8	-28.6	12.6	1.38e-04	0	42	0	79691776	16	3980
2026-01-30 05:53:29.45	11.63	8.06	-27.3	-28.0	13.0	2.28e-05	0	42	0	87031808	15	3925
2026-01-30 05:53:30.45	11.56	8.14	-27.0	-27.9	13.4	1.14e-05	0	42	0	94371840	14	3997
2026-01-30 05:53:31.45	11.50	8.21	-27.1	-28.0	13.3	3.04e-04	0	42	0	101711872	14	4028
2026-01-30 05:53:32.46	11.43	8.29	-27.2	-28.3	13.1	2.63e-05	0	42	0	108003328	14	4108
2026-01-30 05:53:33.46	11.36	8.36	-27.4	-28.8	12.9	5.37e-05	0	42	0	115343360	14	4225
2026-01-30 05:53:34.46	11.29	8.43	-27.3	-28.5	13.0	3.54e-04	0	42	0	122683392	14	4167
2026-01-30 05:53:35.46	11.23	8.51	-27.2	-28.4	13.1	1.71e-05	0	42	0	130023424	14	4118
2026-01-30 05:53:36.47	11.16	8.58	-27.2	-28.4	13.2	3.28e-04	0	42	0	137363456	14	4114
2026-01-30 05:53:37.48	11.09	8.66	-27.2	-28.3	13.2	1.14e-05	0	42	0	144703488	14	4106
2026-01-30 05:53:38.48	11.02	8.73	-27.4	-28.8	12.9	2.74e-05	0	42	0	152043520	14	4243
2026-01-30 05:53:39.48	10.95	8.81	-27.5	-29.2	12.7	2.85e-04	0	42	0	159383552	14	4341
2026-01-30 05:53:40.48	10.88	8.89	-27.1	-28.2	13.3	2.40e-05	0	42	0	166723584	14	4086
2026-01-30 05:53:41.49	10.81	8.96	-26.9	-27.8	13.6	6.80e-06	0	42	0	174063616	14	3963
2026-01-30 05:53:42.49	10.74	9.04	-26.9	-27.6	13.7	2.28e-04	0	42	0	181403648	14	3917
2026-01-30 05:53:43.50	10.67	9.12	-26.9	-28.1	13.7	1.97e-04	0	42	0	188743680	13	4146
2026-01-30 05:53:44.50	10.59	9.19	-26.9	-28.2	13.6	8.00e-06	0	42	0	195035136	13	4172
2026-01-30 05:53:45.51	10.52	9.27	-26.9	-28.2	13.6	8.00e-06	0	42	0	202375168	13	4177
2026-01-30 05:53:46.51	10.45	9.35	-26.9	-28.1	13.7	1.80e-04	0	43	0	209715200	13	4155
2026-01-30 05:53:47.51	10.38	9.42	-26.8	-28.0	13.7	5.70e-06	0	42	0	217055232	13	4125
2026-01-30 05:53:48.51	10.30	9.50	-26.7	-27.7	13.9	2.06e-04	0	42	0	224395264	13	4055
2026-01-30 05:53:49.51	10.23	9.58	-26.7	-27.7	14.0	2.04e-04	0	42	0	231735296	13	4047
2026-01-30 05:53:50.52	10.16	9.65	-26.7	-27.7	13.9	2.20e-06	0	42	0	239075328	13	4051
2026-01-30 05:53:51.52	10.08	9.73	-26.7	-27.8	13.9	2.28e-04	0	42	0	246415360	13	4064
2026-01-30 05:53:52.53	10.01	9.81	-26.8	-27.9	13.9	2.43e-04	0	43	0	252706816	13	4087
2026-01-30 05:53:53.54	9.93	9.89	-26.8	-27.9	13.8	3.40e-06	0	43	0	260046848	13	4096
2026-01-30 05:53:54.54	9.85	9.97	-26.7	-27.8	13.9	2.39e-04	0	42	0	268435456	13	4066
2026-01-30 05:53:55.55	9.78	10.05	-27.0	-28.5	13.5	5.70e-06	0	43	0	274726912	13	4246
2026-01-30 05:53:56.55	9.70	10.13	-26.7	-27.7	13.9	1.10e-06	0	43	0	282066944	13	4052
2026-01-30 05:53:57.56	9.62	10.21	-26.5	-27.4	14.2	2.20e-06	0	43	0	289406976	13	3950
2026-01-30 05:53:58.56	9.55	10.28	-26.5	-27.7	14.3	1.91e-04	0	43	0	296747008	12	4140
2026-01-30 05:53:59.57	9.47	10.36	-26.5	-27.8	14.2	1.10e-06	0	43	0	304087040	12	4157
2026-01-30 05:54:00.57	9.39	10.44	-26.5	-27.8	14.2	1.10e-06	0	43	0	311427072	12	4170
2026-01-30 05:54:01.58	9.31	10.52	-26.3	-27.4	14.4	2.05e-04	0	43	0	318767104	12	4067
2026-01-30 05:54:02.58	9.23	10.60	-26.3	-27.3	14.5	0.00e+00	0	43	0	326107136	12	4042
2026-01-30 05:54:03.58	9.15	10.68	-26.3	-27.2	14.6	0.00e+00	0	43	0	333447168	12	4011
2026-01-30 05:54:04.58	9.07	10.76	-26.2	-27.0	14.7	2.40e-04	0	43	0	339738624	12	3953
2026-01-30 05:54:05.58	8.99	10.85	-26.2	-27.1	14.7	1.10e-06	0	43	0	347078656	12	3990
2026-01-30 05:54:06.58	8.91	10.93	-26.1	-26.9	14.8	2.30e-04	0	43	0	354418688	12	3932
2026-01-30 05:54:07.59	8.83	11.01	-26.2	-27.0	14.7	0.00e+00	0	43	0	361758720	12	3966
2026-01-30 05:54:08.58	8.75	11.09	-26.2	-27.2	14.6	0.00e+00	0	43	0	369098752	12	4008
2026-01-30 05:54:09.58	8.66	11.17	-26.3	-27.2	14.6	1.43e-04	0	43	0	376438784	12	4018
2026-01-30 05:54:10.58	8.58	11.25	-26.2	-27.2	14.6	1.10e-06	0	43	0	383778816	12	4001
2026-01-30 05:54:11.59	8.50	11.33	-26.2	-27.1	14.7	0.00e+00	0	43	0	391118848	12	3993
2026-01-30 05:54:12.59	8.41	11.42	-26.2	-27.0	14.7	0.00e+00	0	43	0	398458880	12	3963
2026-01-30 05:54:13.60	8.33	11.50	-26.3	-27.3	14.6	0.00e+00	0	43	0	405798912	12	4024
2026-01-30 05:54:14.60	8.24	11.58	-26.2	-27.1	14.7	2.20e-06	0	43	0	413138944	12	3994
2026-01-30 05:54:15.61	8.16	11.66	-26.3	-27.3	14.6	1.10e-06	0	43	0	420478976	12	4039
2026-01-30 05:54:16.61	8.07	11.75	-26.3	-27.3	14.5	1.10e-06	0	43	0	426770432	12	4040
2026-01-30 05:54:17.62	7.98	11.83	-26.2	-27.0	14.8	0.00e+00	0	43	0	434110464	12	3958
2026-01-30 05:54:18.62	7.90	11.91	-26.1	-26.9	14.8	0.00e+00	0	43	0	441450496	12	3931
2026-01-30 05:54:19.62	7.81	12.00	-26.1	-26.8	14.9	0.00e+00	0	43	0	448790528	12	3920
2026-01-30 05:54:20.62	7.72	12.08	-26.1	-26.8	14.9	0.00e+00	0	43	0	456130560	12	3902
2026-01-30 05:54:21.63	7.63	12.17	-26.3	-27.3	14.6	0.00e+00	0	43	0	463470592	12	4044
2026-01-30 05:54:22.63	7.54	12.25	-26.2	-27.2	14.7	1.10e-06	0	43	0	470810624	12	4001
2026-01-30 05:54:23.63	7.45	12.33	-26.2	-27.0	14.8	0.00e+00	0	43	0	478150656	12	3963
2026-01-30 05:54:24.64	7.36	12.42	-26.1	-26.8	14.9	0.00e+00	0	43	0	485490688	12	3908
2026-01-30 05:54:25.64	7.27	12.50	-26.0	-26.7	15.0	0.00e+00	0	43	0	492830720	12	3876
2026-01-30 05:54:26.64	7.18	12.59	-25.9	-26.4	15.1	0.00e+00	0	43	0	500170752	12	3811
2026-01-30 05:54:27.64	7.09	12.67	-26.0	-26.7	15.0	0.00e+00	0	43	0	506462208	12	3888
2026-01-30 05:54:28.65	7.00	12.76	-26.2	-27.0	14.8	0.00e+00	0	43	0	513802240	12	3965
2026-01-30 05:54:29.64	6.90	12.85	-26.1	-26.9	14.9	1.10e-06	0	43	0	521142272	12	3937
2026-01-30 05:54:30.64	6.81	12.93	-26.0	-26.6	15.0	0.00e+00	0	43	0	528482304	12	3872
2026-01-30 05:54:31.64	6.72	13.02	-25.9	-26.4	15.2	0.00e+00	0	43	0	535822336	12	3820
2026-01-30 05:54:32.64	6.62	13.10	-26.0	-26.6	15.1	0.00e+00	0	43	0	543162368	12	3853
2026-01-30 05:54:33.65	6.53	13.19	-26.0	-26.6	15.1	0.00e+00	0	43	0	550502400	12	3857
2026-01-30 05:54:34.66	6.43	13.28	-25.9	-26.5	15.1	0.00e+00	0	43	0	557842432	12	3827
2026-01-30 05:54:35.65	6.34	13.37	-26.0	-26.7	15.0	0.00e+00	0	43	0	565182464	12	3886
2026-01-30 05:54:36.65	6.24	13.45	-25.9	-26.4	15.2	0.00e+00	0	43	0	571473920	12	3821
2026-01-30 05:54:37.66	6.14	13.54	-25.7	-25.9	15.4	0.00e+00	0	43	0	578813952	12	3700
2026-01-30 05:54:38.65	6.04	13.63	-25.7	-26.0	15.4	0.00e+00	0	43	0	586153984	12	3723
2026-01-30 05:54:39.66	5.94	13.72	-25.7	-25.9	15.5	0.00e+00	0	43	0	593494016	12	3690
2026-01-30 05:54:40.67	5.84	13.81	-25.7	-26.4	15.5	0.00e+00	0	43	0	600834048	11	3918
2026-01-30 05:54:41.67	5.74	13.89	-25.8	-26.6	15.5	0.00e+00	0	43	0	608174080	11	3949
2026-01-30 05:54:42.67	5.64	13.98	-25.8	-26.7	15.4	0.00e+00	0	43	0	615514112	11	3975
2026-01-30 05:54:43.68	5.54	14.07	-25.7	-26.5	15.6	0.00e+00	0	43	0	622854144	11	3933
2026-01-30 05:54:44.69	5.44	14.16	-25.8	-26.6	15.5	0.00e+00	0	43	0	630194176	11	3950
2026-01-30 05:54:45.69	5.34	14.25	-25.8	-26.6	15.5	0.00e+00	0	43	0	637534208	11	3960
2026-01-30 05:54:46.69	5.23	14.34	-25.8	-26.7	15.4	0.00e+00	0	43	0	644874240	11	3987
2026-01-30 05:54:47.69	5.13	14.43	-26.1	-27.2	15.2	1.10e-06	0	43	0	652214272	11	4113
2026-01-30 05:54:48.69	5.02	14.52	-25.8	-26.2	15.4	0.00e+00	0	43	0	658505728	12	3759
2026-01-30 05:54:49.70	4.92	14.61	-25.7	-26.0	15.5	0.00e+00	0	43	0	665845760	12	3725
2026-01-30 05:54:50.71	4.81	14.70	-25.8	-26.3	15.4	0.00e+00	0	43	0	673185792	12	3780
2026-01-30 05:54:51.72	4.70	14.80	-25.7	-25.9	15.5	0.00e+00	0	43	0	680525824	12	3700
2026-01-30 05:54:52.72	4.60	14.89	-25.7	-26.0	15.5	0.00e+00	0	43	0	687865856	12	3702
2026-01-30 05:54:53.72	4.49	14.98	-25.6	-25.7	15.7	0.00e+00	0	43	0	695205888	12	3643
2026-01-30 05:54:54.73	4.38	15.07	-25.8	-26.1	15.5	0.00e+00	0	43	0	702545920	12	3737
2026-01-30 05:54:55.73	4.27	15.16	-25.6	-25.8	15.6	0.00e+00	0	43	0	709885952	12	3666
2026-01-30 05:54:56.73	4.16	15.25	-25.4	-25.3	15.9	0.00e+00	0	43	0	716177408	12	3564
2026-01-30 05:54:57.74	4.05	15.35	-25.4	-25.8	16.0	0.00e+00	0	43	0	724566016	11	3759
2026-01-30 05:54:58.74	3.94	15.44	-25.4	-25.8	16.0	0.00e+00	0	43	0	731906048	11	3764
2026-01-30 05:54:59.75	3.83	15.53	-25.4	-25.7	16.0	0.00e+00	0	43	0	738197504	11	3751
2026-01-30 05:55:00.75	3.71	15.63	-25.4	-25.7	16.0	0.00e+00	0	43	0	745537536	11	3747
2026-01-30 05:55:01.76	3.60	15.72	-25.2	-25.4	16.2	0.00e+00	0	43	0	752877568	11	3679
2026-01-30 05:55:02.76	3.48	15.81	-25.1	-25.2	16.3	0.00e+00	0	43	0	760217600	11	3626
2026-01-30 05:55:03.77	3.37	15.91	-25.2	-25.4	16.2	0.00e+00	0	44	0	767557632	11	3658
2026-01-30 05:55:04.77	3.25	16.00	-25.0	-24.9	16.5	0.00e+00	0	43	0	774897664	11	3567
2026-01-30 05:55:05.77	3.14	16.10	-25.0	-24.9	16.5	0.00e+00	0	44	0	782237696	11	3565
2026-01-30 05:55:06.78	3.02	16.19	-25.2	-25.4	16.2	0.00e+00	0	43	0	789577728	11	3666
2026-01-30 05:55:07.78	2.90	16.29	-25.3	-25.5	16.2	0.00e+00	0	44	0	796917760	11	3694
2026-01-30 05:55:08.78	2.78	16.38	-25.7	-26.4	15.7	0.00e+00	0	43	0	803209216	11	3893
2026-01-30 05:55:09.79	2.66	16.48	-25.3	-25.6	16.1	1.10e-06	0	44	0	811597824	11	3726
2026-01-30 05:55:10.79	2.54	16.57	-25.4	-25.8	16.0	0.00e+00	0	43	0	818937856	11	3764
2026-01-30 05:55:11.79	2.42	16.67	-25.3	-25.6	16.2	0.00e+00	0	43	0	825229312	11	3710
2026-01-30 05:55:12.79	2.30	16.76	-25.2	-25.4	16.3	0.00e+00	0	43	0	832569344	11	3668
2026-01-30 05:55:13.80	2.17	16.86	-25.2	-25.4	16.3	0.00e+00	0	43	0	839909376	11	3671
2026-01-30 05:55:14.80	2.05	16.96	-25.1	-25.1	16.4	0.00e+00	0	44	0	847249408	11	3607
2026-01-30 05:55:15.81	1.93	17.06	-25.3	-25.5	16.2	0.00e+00	0	43	0	854589440	11	3685
2026-01-30 05:55:16.81	1.80	17.15	-25.1	-25.1	16.4	1.10e-06	0	43	0	861929472	11	3599
2026-01-30 05:55:17.81	1.67	17.25	-24.9	-24.7	16.7	0.00e+00	0	44	0	869269504	11	3505
2026-01-30 05:55:18.81	1.55	17.35	-24.9	-25.1	16.7	0.00e+00	0	44	0	876609536	10	3702
2026-01-30 05:55:19.82	1.42	17.45	-24.8	-25.0	16.7	0.00e+00	0	43	0	882900992	10	3681
2026-01-30 05:55:20.83	1.29	17.54	-25.0	-25.4	16.6	0.00e+00	0	43	0	890241024	10	3769
2026-01-30 05:55:21.83	1.16	17.64	-24.9	-25.3	16.6	0.00e+00	0	43	0	897581056	10	3748
2026-01-30 05:55:22.83	1.03	17.74	-25.0	-25.3	16.6	0.00e+00	0	44	0	904921088	10	3751
2026-01-30 05:55:23.84	0.90	17.84	-24.9	-25.2	16.7	2.97e-05	0	44	0	912261120	10	3730
2026-01-30 05:55:24.84	0.77	17.94	-24.8	-25.0	16.8	2.97e-05	0	43	0	919601152	10	3682
2026-01-30 05:55:25.84	0.63	18.04	-24.8	-25.0	16.8	0.00e+00	0	43	0	926941184	10	3681
2026-01-30 05:55:26.85	0.50	18.14	-24.7	-24.8	16.9	4.50e-06	0	44	0	934281216	10	3626
2026-01-30 05:55:27.85	0.36	18.24	-24.7	-24.7	16.9	0.00e+00	0	43	0	941621248	10	3623
2026-01-30 05:55:28.86	0.23	18.34	-24.7	-24.7	17.0	0.00e+00	0	43	0	948961280	10	3618
2026-01-30 05:55:29.85	0.09	18.44	-25.0	-25.4	16.6	1.14e-05	0	43	0	956301312	10	3762
2026-01-30 05:55:30.86	359.95	18.54	-24.8	-24.9	16.9	0.00e+00	0	43	0	963641344	10	3659
2026-01-30 05:55:31.86	359.81	18.64	-24.8	-24.9	16.8	0.00e+00	0	44	0	969932800	10	3666
2026-01-30 05:55:32.87	359.67	18.74	-24.7	-24.9	16.9	1.36e-04	0	44	0	977272832	10	3648
2026-01-30 05:55:33.87	359.53	18.84	-24.9	-25.1	16.8	1.54e-04	0	44	0	984612864	10	3705
2026-01-30 05:55:34.88	359.39	18.94	-24.8	-25.0	16.8	0.00e+00	0	43	0	991952896	10	3687
2026-01-30 05:55:35.88	359.25	19.05	-24.7	-25.4	16.9	0.00e+00	0	44	0	999292928	9	3866
2026-01-30 05:55:36.88	359.11	19.15	-24.8	-25.4	16.9	8.58e-05	0	44	0	1006632960	9	3875
2026-01-30 05:55:37.89	358.96	19.25	-25.0	-25.9	16.6	0.00e+00	0	44	0	1013972992	9	3986
2026-01-30 05:55:38.89	358.82	19.35	-24.8	-25.5	16.8	0.00e+00	0	43	0	1021313024	9	3898
2026-01-30 05:55:39.88	358.67	19.45	-24.7	-25.3	16.9	2.14e-04	0	43	0	1028653056	9	3861
2026-01-30 05:55:40.89	358.52	19.56	-24.8	-25.6	16.8	0.00e+00	0	44	0	1035993088	9	3916
2026-01-30 05:55:41.90	358.37	19.66	-24.8	-25.4	16.9	2.45e-04	0	44	0	1043333120	9	3887
2026-01-30 05:55:42.90	358.22	19.76	-24.8	-25.4	16.9	0.00e+00	0	44	0	1050673152	9	3880
2026-01-30 05:55:43.90	358.07	19.87	-24.7	-25.3	16.9	0.00e+00	0	44	0	1056964608	9	3853
2026-01-30 05:55:44.90	357.92	19.97	-24.7	-25.3	17.0	0.00e+00	0	44	0	1064304640	9	3854
2026-01-30 05:55:45.91	357.77	20.07	-24.8	-25.5	16.8	0.00e+00	0	44	0	1071644672	9	3894
2026-01-30 05:55:46.91	357.62	20.18	-24.6	-25.0	17.1	0.00e+00	0	44	0	1078984704	9	3787
2026-01-30 05:55:47.91	357.46	20.28	-24.3	-24.3	17.5	0.00e+00	0	44	0	1086324736	9	3632
2026-01-30 05:55:48.91	357.31	20.39	-24.2	-24.7	17.5	0.00e+00	0	44	0	1093664768	8	3813
2026-01-30 05:55:49.91	357.15	20.49	-24.1	-24.5	17.6	0.00e+00	0	44	0	1101004800	8	3769
2026-01-30 05:55:50.91	356.99	20.60	-24.2	-24.7	17.5	0.00e+00	0	44	0	1108344832	8	3821
2026-01-30 05:55:51.92	356.83	20.70	-24.1	-24.4	17.7	0.00e+00	0	44	0	1114636288	8	3750
2026-01-30 05:55:52.92	356.67	20.81	-24.0	-24.2	17.8	0.00e+00	0	44	0	1121976320	8	3707
2026-01-30 05:55:53.93	356.51	20.91	-24.1	-24.5	17.7	0.00e+00	0	44	0	1129316352	8	3756
2026-01-30 05:55:54.93	356.35	21.02	-24.0	-24.7	17.7	0.00e+00	0	44	0	1136656384	7	3925
2026-01-30 05:55:55.93	356.18	21.12	-24.4	-25.0	17.3	0.00e+00	0	44	0	1143996416	8	3889
2026-01-30 05:55:56.93	356.02	21.23	-24.2	-24.6	17.6	0.00e+00	0	44	0	1151336448	8	3792
2026-01-30 05:55:57.93	355.85	21.34	-24.4	-25.1	17.3	0.00e+00	0	44	0	1158676480	8	3901
2026-01-30 05:55:58.94	355.68	21.44	-24.4	-25.1	17.3	0.00e+00	0	44	0	1166016512	8	3899
2026-01-30 05:55:59.94	355.52	21.55	-24.6	-25.5	17.1	0.00e+00	0	44	0	1173356544	8	3991
2026-01-30 05:56:00.94	355.35	21.66	-24.6	-25.1	17.1	0.00e+00	0	44	0	1180696576	9	3806
2026-01-30 05:56:01.95	355.18	21.76	-24.5	-24.9	17.2	0.00e+00	0	44	0	1188036608	9	3747
2026-01-30 05:56:02.95	355.00	21.87	-24.6	-25.1	17.1	0.00e+00	0	44	0	1195376640	9	3801
2026-01-30 05:56:03.95	354.83	21.98	-24.4	-24.7	17.3	0.00e+00	0	44	0	1201668096	9	3705
2026-01-30 05:56:04.95	354.66	22.09	-24.4	-24.7	17.3	0.00e+00	0	44	0	1209008128	9	3711
2026-01-30 05:56:05.96	354.48	22.19	-24.6	-25.0	17.1	0.00e+00	0	44	0	1216348160	9	3776
2026-01-30 05:56:06.96	354.30	22.30	-24.4	-25.2	17.3	0.00e+00	0	44	0	1223688192	8	3933
2026-01-30 05:56:07.97	354.12	22.41	-24.4	-25.2	17.3	0.00e+00	0	44	0	1231028224	8	3924
2026-01-30 05:56:08.97	353.95	22.52	-24.7	-25.2	17.1	0.00e+00	0	44	0	1238368256	9	3830
2026-01-30 05:56:09.96	353.77	22.63	-24.8	-25.5	16.9	0.00e+00	0	44	0	1245708288	9	3890
2026-01-30 05:56:10.97	353.58	22.74	-24.6	-24.9	17.2	0.00e+00	0	44	0	1253048320	9	3761
2026-01-30 05:56:11.97	353.40	22.84	-24.7	-25.2	17.1	0.00e+00	0	44	0	1260388352	9	3819
2026-01-30 05:56:12.97	353.22	22.95	-24.8	-25.5	16.9	0.00e+00	0	44	0	1266679808	9	3907
2026-01-30 05:56:13.98	353.03	23.06	-24.5	-24.9	17.2	0.00e+00	0	44	0	1274019840	9	3747
2026-01-30 05:56:14.97	352.85	23.17	-24.3	-24.4	17.5	0.00e+00	0	44	0	1281359872	9	3643
2026-01-30 05:56:15.97	352.66	23.28	-24.2	-24.1	17.6	0.00e+00	0	44	0	1288699904	9	3586
2026-01-30 05:56:16.98	352.47	23.39	-24.2	-24.2	17.6	0.00e+00	0	44	0	1296039936	9	3592
2026-01-30 05:56:17.99	352.27	23.50	-24.2	-24.1	17.7	0.00e+00	0	44	0	1303379968	9	3579
2026-01-30 05:56:18.99	352.08	23.61	-23.9	-23.6	17.9	0.00e+00	0	44	0	1310720000	9	3464
2026-01-30 05:56:19.99	351.89	23.72	-23.8	-23.8	18.1	0.00e+00	0	44	0	1318060032	8	3611
2026-01-30 05:56:21.00	351.69	23.83	-23.9	-24.0	18.0	0.00e+00	0	44	0	1325400064	8	3643
2026-01-30 05:56:22.00	351.49	23.94	-23.9	-24.0	18.0	0.00e+00	0	44	0	1332740096	8	3656
2026-01-30 05:56:23.01	351.29	24.05	-23.7	-23.7	18.1	0.00e+00	0	44	0	1340080128	8	3590
2026-01-30 05:56:24.02	351.09	24.16	-23.9	-24.1	17.9	0.00e+00	0	44	0	1346371584	8	3685
2026-01-30 05:56:25.02	350.89	24.27	-23.8	-23.9	18.0	0.00e+00	0	44	0	1353711616	8	3621
2026-01-30 05:56:26.02	350.69	24.38	-23.9	-24.1	17.9	0.00e+00	0	44	0	1361051648	8	3667
2026-01-30 05:56:27.03	350.49	24.49	-24.0	-24.2	17.8	0.00e+00	0	44	0	1368391680	8	3708
2026-01-30 05:56:28.03	350.28	24.60	-23.8	-24.0	18.0	0.00e+00	0	44	0	1375731712	8	3648
2026-01-30 05:56:29.03	350.07	24.71	-23.7	-23.8	18.1	0.00e+00	0	44	0	1383071744	8	3603
2026-01-30 05:56:30.04	349.86	24.82	-23.8	-23.8	18.1	0.00e+00	0	44	0	1390411776	8	3605
2026-01-30 05:56:31.05	349.65	24.93	-23.9	-24.0	18.0	0.00e+00	0	44	0	1397751808	8	3665
2026-01-30 05:56:32.05	349.44	25.04	-23.9	-24.0	18.0	0.00e+00	0	44	0	1405091840	8	3658
2026-01-30 05:56:33.05	349.23	25.15	-23.7	-23.7	18.1	0.00e+00	0	44	0	1412431872	8	3584
2026-01-30 05:56:34.05	349.02	25.26	-23.6	-23.5	18.2	0.00e+00	0	44	0	1419771904	8	3543
2026-01-30 05:56:35.06	348.80	25.38	-23.7	-23.7	18.2	0.00e+00	0	44	0	1427111936	8	3594
2026-01-30 05:56:36.07	348.58	25.49	-23.6	-23.4	18.3	0.00e+00	0	44	0	1433403392	8	3527
2026-01-30 05:56:37.07	348.36	25.60	-23.5	-23.2	18.4	0.00e+00	0	44	0	1440743424	8	3488
2026-01-30 05:56:38.08	348.14	25.71	-23.6	-23.4	18.3	0.00e+00	0	44	0	1448083456	8	3519
2026-01-30 05:56:39.08	347.92	25.82	-23.5	-23.3	18.4	0.00e+00	0	44	0	1455423488	8	3493
2026-01-30 05:56:40.09	347.69	25.93	-23.8	-23.7	18.1	0.00e+00	0	44	0	1462763520	8	3594
2026-01-30 05:56:41.09	347.47	26.04	-23.4	-23.1	18.3	0.00e+00	0	44	0	1470103552	8	3457
2026-01-30 05:56:42.09	347.24	26.15	-23.3	-23.2	18.6	0.00e+00	0	44	0	1477443584	7	3583
2026-01-30 05:56:43.09	347.01	26.26	-23.3	-23.4	18.5	0.00e+00	0	44	0	1484783616	7	3612
2026-01-30 05:56:44.10	346.78	26.37	-23.2	-23.1	18.7	0.00e+00	0	44	0	1492123648	7	3558
2026-01-30 05:56:45.11	346.55	26.48	-23.3	-23.3	18.6	0.00e+00	0	44	0	1499463680	7	3597
2026-01-30 05:56:46.11	346.32	26.59	-23.4	-23.4	18.5	0.00e+00	0	44	0	1506803712	7	3632
2026-01-30 05:56:47.11	346.08	26.70	-23.5	-23.6	18.4	2.24e-04	0	44	0	1513095168	7	3665
2026-01-30 05:56:48.11	345.84	26.81	-23.5	-24.1	18.4	0.00e+00	0	44	0	1520435200	6	3890
2026-01-30 05:56:49.11	345.61	26.92	-23.5	-24.2	18.3	0.00e+00	0	44	0	1527775232	6	3915
2026-01-30 05:56:50.11	345.37	27.03	-23.5	-24.2	18.4	2.99e-04	0	44	0	1535115264	6	3908
2026-01-30 05:56:51.11	345.13	27.14	-23.6	-24.3	18.3	0.00e+00	0	44	0	1542455296	6	3940
2026-01-30 05:56:52.12	344.88	27.25	-23.6	-23.9	18.3	0.00e+00	0	44	0	1549795328	7	3740
2026-01-30 05:56:53.12	344.64	27.36	-23.8	-24.3	18.1	0.00e+00	0	44	0	1557135360	7	3828
2026-01-30 05:56:54.12	344.39	27.47	-23.7	-24.2	18.1	0.00e+00	0	44	0	1564475392	7	3810
2026-01-30 05:56:55.13	344.14	27.58	-23.9	-24.5	17.9	0.00e+00	0	44	0	1571815424	7	3883
2026-01-30 05:56:56.14	343.89	27.69	-23.8	-24.3	18.0	0.00e+00	0	44	0	1578106880	7	3830
2026-01-30 05:56:57.14	343.64	27.80	-23.8	-24.3	18.1	3.70e-04	0	44	0	1586495488	7	3817
2026-01-30 05:56:58.15	343.38	27.91	-23.8	-24.4	18.0	0.00e+00	0	44	0	1593835520	7	3837
2026-01-30 05:56:59.16	343.12	28.02	-23.8	-24.4	18.0	5.50e-04	0	44	0	1600126976	7	3851
2026-01-30 05:57:00.16	342.87	28.13	-23.9	-24.5	18.0	5.84e-04	0	44	0	1607467008	7	3865
2026-01-30 05:57:01.16	342.61	28.24	-23.6	-24.0	18.2	0.00e+00	0	44	0	1614807040	7	3757
2026-01-30 05:57:02.16	342.35	28.34	-23.5	-23.8	18.3	4.02e-04	0	44	0	1622147072	7	3711
2026-01-30 05:57:03.17	342.08	28.45	-23.6	-23.9	18.3	4.42e-04	0	44	0	1629487104	7	3732
2026-01-30 05:57:04.17	341.82	28.56	-23.5	-23.7	18.4	0.00e+00	0	44	0	1636827136	7	3681
2026-01-30 05:57:05.18	341.55	28.67	-23.6	-23.9	18.3	5.09e-04	0	44	0	1644167168	7	3731
2026-01-30 05:57:06.18	341.28	28.77	-23.7	-24.1	18.2	0.00e+00	0	44	0	1651507200	7	3783
2026-01-30 05:57:07.18	341.01	28.88	-23.7	-24.1	18.2	0.00e+00	0	44	0	1658847232	7	3772
2026-01-30 05:57:08.18	340.74	28.99	-23.7	-24.1	18.2	7.05e-04	0	44	0	1665138688	7	3778
2026-01-30 05:57:09.18	340.47	29.09	-23.7	-24.2	18.1	7.72e-04	0	44	0	1672478720	7	3802
2026-01-30 05:57:10.18	340.20	29.20	-23.7	-24.2	18.1	0.00e+00	0	44	0	1679818752	7	3806
2026-01-30 05:57:11.19	339.92	29.30	-23.6	-24.0	18.2	0.00e+00	0	44	0	1687158784	7	3752
2026-01-30 05:57:12.19	339.64	29.41	-23.6	-24.4	18.3	7.09e-04	0	44	0	1694498816	6	3952
2026-01-30 05:57:13.19	339.36	29.51	-23.6	-23.9	18.3	0.00e+00	0	44	0	1701838848	7	3727
2026-01-30 05:57:14.20	339.07	29.62	-23.6	-24.0	18.2	5.60e-04	0	44	0	1709178880	7	3760
2026-01-30 05:57:15.20	338.79	29.72	-23.8	-24.4	18.0	5.03e-04	0	44	0	1716518912	7	3845
2026-01-30 05:57:16.20	338.50	29.82	-23.5	-23.7	18.4	0.00e+00	0	44	0	1723858944	7	3680
2026-01-30 05:57:17.21	338.21	29.93	-23.7	-24.1	18.2	3.41e-04	0	44	0	1731198976	7	3766
2026-01-30 05:57:18.21	337.92	30.03	-23.8	-24.4	18.0	0.00e+00	0	44	0	1738539008	7	3850
2026-01-30 05:57:19.21	337.63	30.13	-23.6	-23.9	18.3	0.00e+00	0	44	0	1744830464	7	3730
2026-01-30 05:57:20.21	337.34	30.23	-23.4	-23.4	18.5	3.23e-04	0	44	0	1752170496	7	3631
2026-01-30 05:57:21.21	337.04	30.33	-23.3	-23.8	18.6	0.00e+00	0	44	0	1759510528	6	3824
2026-01-30 05:57:22.21	336.75	30.43	-23.2	-23.6	18.7	0.00e+00	0	44	0	1766850560	6	3765
2026-01-30 05:57:23.22	336.45	30.53	-22.9	-23.0	19.0	0.00e+00	0	44	0	1774190592	6	3642
2026-01-30 05:57:24.22	336.15	30.63	-22.8	-22.8	19.1	0.00e+00	0	44	0	1781530624	6	3598
2026-01-30 05:57:25.23	335.84	30.73	-22.8	-22.8	19.1	0.00e+00	0	44	0	1788870656	6	3581
2026-01-30 05:57:26.23	335.54	30.83	-22.9	-23.0	19.0	0.00e+00	0	44	0	1796210688	6	3642
2026-01-30 05:57:27.23	335.23	30.92	-23.1	-23.4	18.8	0.00e+00	0	44	0	1803550720	6	3733
2026-01-30 05:57:28.24	334.92	31.02	-23.2	-23.5	18.7	0.00e+00	0	44	0	1809842176	6	3757
2026-01-30 05:57:29.24	334.61	31.12	-23.3	-23.7	18.6	0.00e+00	0	44	0	1818230784	6	3796
2026-01-30 05:57:30.24	334.30	31.21	-23.3	-23.9	18.6	0.00e+00	0	44	0	1825570816	6	3827
2026-01-30 05:57:31.24	333.98	31.31	-23.5	-24.1	18.4	0.00e+00	0	44	0	1831862272	6	3893
2026-01-30 05:57:32.25	333.66	31.40	-23.4	-23.9	18.5	0.00e+00	0	44	0	1839202304	6	3844
2026-01-30 05:57:33.25	333.35	31.50	-23.4	-23.9	18.5	0.00e+00	0	44	0	1846542336	6	3846
2026-01-30 05:57:34.25	333.03	31.59	-23.4	-24.1	18.5	0.00e+00	0	44	0	1853882368	6	3881
2026-01-30 05:57:35.25	332.71	31.68	-23.2	-23.7	18.7	0.00e+00	0	44	0	1861222400	6	3789
2026-01-30 05:57:36.26	332.38	31.77	-23.4	-24.0	18.5	0.00e+00	0	44	0	1868562432	6	3857
2026-01-30 05:57:37.26	332.06	31.86	-23.4	-24.0	18.5	0.00e+00	0	44	0	1875902464	6	3852
2026-01-30 05:57:38.26	331.73	31.95	-23.1	-23.4	18.8	0.00e+00	0	44	0	1883242496	6	3716
2026-01-30 05:57:39.27	331.40	32.04	-23.0	-23.2	18.9	0.00e+00	0	44	0	1890582528	6	3678
2026-01-30 05:57:40.26	331.07	32.13	-22.9	-23.0	19.0	0.00e+00	0	44	0	1896873984	6	3638
2026-01-30 05:57:41.27	330.74	32.22	-22.8	-22.8	19.1	0.00e+00	0	44	0	1904214016	6	3589
2026-01-30 05:57:42.27	330.40	32.31	-22.8	-23.3	19.1	0.00e+00	0	44	0	1911554048	5	3804
2026-01-30 05:57:43.27	330.07	32.39	-22.8	-23.4	19.1	0.00e+00	0	44	0	1918894080	5	3819
2026-01-30 05:57:44.28	329.73	32.48	-23.0	-23.6	18.9	0.00e+00	0	44	0	1926234112	5	3884
2026-01-30 05:57:45.28	329.39	32.56	-23.1	-23.5	18.8	0.00e+00	0	44	0	1933574144	6	3734
2026-01-30 05:57:46.29	329.04	32.64	-23.0	-23.2	18.9	0.00e+00	0	44	0	1940914176	6	3668
2026-01-30 05:57:47.30	328.70	32.73	-23.0	-23.2	18.9	0.00e+00	0	44	0	1948254208	6	3681
2026-01-30 05:57:48.30	328.35	32.81	-23.1	-23.3	18.9	0.00e+00	0	44	0	1955594240	6	3697
2026-01-30 05:57:49.30	328.00	32.89	-23.1	-23.3	18.9	0.00e+00	0	44	0	1962934272	6	3696
2026-01-30 05:57:50.30	327.66	32.97	-23.0	-23.3	18.9	0.00e+00	0	44	0	1970274304	6	3692
2026-01-30 05:57:51.31	327.30	33.05	-23.2	-23.5	18.7	0.00e+00	0	44	0	1976565760	6	3744
2026-01-30 05:57:52.31	326.95	33.12	-22.9	-23.0	19.0	0.00e+00	0	44	0	1983905792	6	3636
2026-01-30 05:57:53.31	326.60	33.20	-22.9	-23.0	19.0	0.00e+00	0	44	0	1991245824	6	3626
2026-01-30 05:57:54.32	326.24	33.27	-22.9	-23.5	19.0	0.00e+00	0	44	0	1998585856	5	3845
2026-01-30 05:57:55.33	325.88	33.35	-22.9	-23.5	19.0	0.00e+00	0	44	0	2005925888	5	3842
2026-01-30 05:57:56.33	325.52	33.42	-23.0	-23.7	18.9	0.00e+00	0	44	0	2013265920	5	3890
2026-01-30 05:57:57.34	325.16	33.49	-22.9	-23.4	19.1	0.00e+00	0	44	0	2020605952	5	3837
2026-01-30 05:57:58.34	324.80	33.56	-22.9	-23.5	19.0	0.00e+00	0	44	0	2027945984	5	3862
2026-01-30 05:57:59.35	324.43	33.63	-23.1	-23.8	18.9	0.00e+00	0	44	0	2035286016	5	3915
2026-01-30 05:58:00.34	324.07	33.70	-23.1	-23.5	18.8	0.00e+00	0	44	0	2042626048	6	3739
2026-01-30 05:58:01.35	323.70	33.77	-22.8	-22.7	19.1	0.00e+00	0	44	0	2049966080	6	3578
2026-01-30 05:58:02.36	323.33	33.84	-22.5	-22.7	19.4	0.00e+00	0	44	0	2057306112	5	3677
2026-01-30 05:58:03.36	322.96	33.90	-22.6	-22.9	19.3	0.00e+00	0	44	0	2063597568	5	3702
2026-01-30 05:58:04.37	322.59	33.96	-22.7	-23.1	19.2	0.00e+00	0	44	0	2070937600	5	3768
2026-01-30 05:58:05.37	322.22	34.03	-22.9	-23.4	19.1	0.00e+00	0	44	0	2078277632	5	3826
2026-01-30 05:58:06.38	321.84	34.09	-22.9	-23.6	19.0	0.00e+00	0	44	0	2085617664	5	3865
2026-01-30 05:58:07.38	321.46	34.15	-22.9	-23.5	19.0	0.00e+00	0	44	0	2092957696	5	3841
2026-01-30 05:58:08.38	321.09	34.21	-23.0	-23.6	18.9	0.00e+00	0	44	0	2100297728	5	3875
2026-01-30 05:58:09.38	320.71	34.26	-22.9	-23.4	19.0	0.00e+00	0	44	0	2107637760	5	3838
2026-01-30 05:58:10.37	320.34	34.32	-23.0	-23.6	19.0	0.00e+00	0	44	0	2114977792	5	3881
2026-01-30 05:58:11.38	319.95	34.37	-22.9	-23.4	19.1	0.00e+00	0	44	0	2122317824	5	3823
2026-01-30 05:58:12.38	319.57	34.43	-23.0	-23.7	19.0	0.00e+00	0	44	0	2128609280	5	3893
2026-01-30 05:58:13.38	319.19	34.48	-23.0	-23.6	18.9	0.00e+00	0	44	0	2135949312	5	3873
2026-01-30 05:58:14.38	318.80	34.53	-22.8	-23.2	19.2	0.00e+00	0	44	0	2143289344	5	3780
2026-01-30 05:58:15.38	318.42	34.58	-22.7	-23.0	19.2	0.00e+00	0	44	0	2150629376	5	3749
2026-01-30 05:58:16.38	318.03	34.62	-22.7	-23.1	19.2	0.00e+00	0	44	0	2157969408	5	3770
2026-01-30 05:58:17.39	317.64	34.67	-22.8	-23.2	19.2	0.00e+00	0	44	0	2165309440	5	3772
2026-01-30 05:58:18.39	317.25	34.72	-22.7	-23.1	19.2	0.00e+00	0	44	0	2172649472	5	3765
2026-01-30 05:58:19.39	316.86	34.76	-22.7	-23.1	19.2	0.00e+00	0	44	0	2179989504	5	3770
2026-01-30 05:58:20.40	316.47	34.80	-22.7	-23.0	19.3	0.00e+00	0	44	0	2187329536	5	3735
2026-01-30 05:58:21.40	316.08	34.84	-22.7	-23.0	19.2	0.00e+00	0	44	0	2194669568	5	3741
2026-01-30 05:58:22.40	315.69	34.88	-22.8	-23.3	19.1	0.00e+00	0	44	0	2202009600	5	3795
2026-01-30 05:58:23.40	315.29	34.92	-22.7	-23.0	19.3	0.00e+00	0	44	0	2208301056	5	3727
2026-01-30 05:58:24.40	314.90	34.95	-22.6	-22.9	19.3	0.00e+00	0	44	0	2215641088	5	3708
2026-01-30 05:58:25.41	314.50	34.99	-22.6	-22.9	19.3	0.00e+00	0	44	0	2222981120	5	3707
2026-01-30 05:58:26.41	314.10	35.02	-22.5	-22.7	19.4	0.00e+00	0	44	0	2230321152	5	3664
2026-01-30 05:58:27.41	313.71	35.05	-22.6	-22.8	19.4	0.00e+00	0	44	0	2237661184	5	3702
2026-01-30 05:58:28.41	313.31	35.08	-22.6	-22.9	18.9	0.00e+00	0	44	0	2245001216	5	3723
2026-01-30 05:58:29.40	312.91	35.11	-22.6	-22.8	19.2	0.00e+00	0	44	0	2252341248	5	3694
2026-01-30 05:58:30.41	312.51	35.14	-22.6	-22.8	19.4	0.00e+00	0	44	0	2259681280	5	3684
2026-01-30 05:58:31.41	312.11	35.16	-22.7	-23.0	19.3	0.00e+00	0	44	0	2267021312	5	3741
2026-01-30 05:58:32.42	311.71	35.19	-22.7	-23.0	19.2	3.08e-05	0	44	0	2273312768	5	3745
2026-01-30 05:58:33.42	311.31	35.21	-22.8	-23.2	19.2	0.00e+00	0	44	0	2280652800	5	3784
2026-01-30 05:58:34.42	310.91	35.23	-22.8	-23.3	19.1	0.00e+00	0	44	0	2287992832	5	3809
2026-01-30 05:58:35.42	310.50	35.25	-22.9	-23.6	19.0	0.00e+00	0	44	0	2295332864	5	3867
2026-01-30 05:58:36.43	310.10	35.26	-22.9	-23.4	19.1	0.00e+00	0	44	0	2302672896	5	3818
2026-01-30 05:58:37.43	309.70	35.28	-22.9	-23.4	19.1	1.52e-04	0	44	0	2310012928	5	3831
2026-01-30 05:58:38.44	309.29	35.29	-22.8	-23.2	19.2	0.00e+00	0	44	0	2317352960	5	3787
2026-01-30 05:58:39.44	308.89	35.31	-22.8	-23.2	19.2	0.00e+00	0	44	0	2324692992	5	3774
2026-01-30 05:58:40.44	308.48	35.32	-22.7	-23.1	19.2	2.91e-04	0	44	0	2332033024	5	3757
2026-01-30 05:58:41.44	308.08	35.33	-22.8	-23.2	19.2	0.00e+00	0	44	0	2339373056	5	3785
2026-01-30 05:58:42.44	307.67	35.33	-22.8	-23.3	19.1	0.00e+00	0	44	0	2346713088	5	3815
2026-01-30 05:58:43.44	307.27	35.34	-22.8	-23.4	19.1	0.00e+00	0	44	0	2353004544	5	3817
2026-01-30 05:58:44.45	306.86	35.34	-22.7	-23.0	19.2	5.71e-04	0	44	0	2360344576	5	3742
2026-01-30 05:58:45.45	306.46	35.35	-22.7	-23.0	19.3	0.00e+00	0	44	0	2367684608	5	3739
2026-01-30 05:58:46.46	306.05	35.35	-22.7	-23.1	19.2	0.00e+00	0	44	0	2375024640	5	3754
2026-01-30 05:58:47.46	305.64	35.35	-22.8	-23.4	19.1	3.73e-04	0	44	0	2382364672	5	3820
2026-01-30 05:58:48.46	305.24	35.34	-22.8	-23.3	19.2	0.00e+00	0	44	0	2389704704	5	3798
2026-01-30 05:58:49.46	304.83	35.34	-22.9	-23.4	19.1	3.07e-04	0	44	0	2397044736	5	3836
2026-01-30 05:58:50.46	304.43	35.33	-22.9	-23.4	19.0	2.55e-04	0	44	0	2404384768	5	3835
2026-01-30 05:58:51.47	304.02	35.33	-22.7	-23.1	19.2	0.00e+00	0	44	0	2411724800	5	3763
2026-01-30 05:58:52.47	303.62	35.32	-22.7	-23.1	19.2	2.17e-05	0	44	0	2418016256	5	3770
2026-01-30 05:58:53.48	303.21	35.31	-22.8	-23.2	19.2	0.00e+00	0	44	0	2425356288	5	3790
2026-01-30 05:58:54.49	302.80	35.29	-22.8	-23.2	19.2	0.00e+00	0	44	0	2432696320	5	3782
2026-01-30 05:58:55.50	302.40	35.28	-22.9	-23.5	19.0	0.00e+00	0	44	0	2440036352	5	3865
2026-01-30 05:58:56.50	301.99	35.27	-22.9	-23.5	19.0	0.00e+00	0	44	0	2447376384	5	3847
2026-01-30 05:58:57.50	301.59	35.25	-22.8	-23.2	19.2	0.00e+00	0	44	0	2454716416	5	3776
2026-01-30 05:58:58.50	301.19	35.23	-22.6	-22.9	19.3	0.00e+00	0	44	0	2462056448	5	3724
2026-01-30 05:58:59.51	300.78	35.21	-22.6	-22.8	19.4	0.00e+00	0	44	0	2469396480	5	3680
2026-01-30 05:59:00.52	300.38	35.19	-22.6	-22.9	19.3	0.00e+00	0	44	0	2476736512	5	3714
2026-01-30 05:59:01.52	299.98	35.16	-22.8	-23.2	19.1	0.00e+00	0	44	0	2484076544	5	3780
2026-01-30 05:59:02.53	299.57	35.14	-22.8	-23.3	19.1	0.00e+00	0	44	0	2491416576	5	3806
2026-01-30 05:59:03.52	299.18	35.11	-23.0	-23.6	18.9	0.00e+00	0	44	0	2498756608	5	3875
2026-01-30 05:59:04.53	298.77	35.08	-23.0	-23.7	18.9	0.00e+00	0	44	0	2505048064	5	3900
2026-01-30 05:59:05.53	298.38	35.05	-23.1	-23.4	18.8	5.03e-05	0	44	0	2512388096	6	3733
2026-01-30 05:59:06.53	297.98	35.02	-23.3	-23.7	18.7	0.00e+00	0	44	0	2519728128	6	3800
2026-01-30 05:59:07.54	297.58	34.99	-23.3	-23.7	18.7	3.41e-04	0	44	0	2527068160	6	3791
2026-01-30 05:59:08.54	297.18	34.96	-23.3	-23.7	18.7	0.00e+00	0	44	0	2534408192	6	3797
2026-01-30 05:59:09.54	296.79	34.92	-23.2	-23.6	18.7	0.00e+00	0	44	0	2541748224	6	3781
2026-01-30 05:59:10.54	296.40	34.88	-22.9	-22.9	19.1	0.00e+00	0	44	0	2549088256	6	3611
2026-01-30 05:59:11.55	296.00	34.84	-22.7	-22.6	19.2	0.00e+00	0	44	0	2556428288	6	3547
2026-01-30 05:59:12.55	295.61	34.80	-22.7	-22.5	19.2	0.00e+00	0	44	0	2563768320	6	3533
2026-01-30 05:59:13.56	295.21	34.76	-22.8	-22.8	19.1	0.00e+00	0	44	0	2571108352	6	3590
2026-01-30 05:59:14.56	294.82	34.72	-22.8	-22.8	19.1	0.00e+00	0	44	0	2578448384	6	3589
2026-01-30 05:59:15.57	294.43	34.67	-22.7	-22.5	19.2	0.00e+00	0	44	0	2584739840	6	3535
2026-01-30 05:59:16.57	294.04	34.63	-22.5	-22.2	19.4	0.00e+00	0	44	0	2592079872	6	3461
2026-01-30 05:59:17.57	293.65	34.58	-22.5	-22.2	19.4	0.00e+00	0	44	0	2599419904	6	3466
2026-01-30 05:59:18.58	293.26	34.53	-22.7	-22.5	19.2	0.00e+00	0	44	0	2606759936	6	3533
2026-01-30 05:59:19.58	292.88	34.48	-22.8	-22.8	19.1	0.00e+00	0	44	0	2614099968	6	3588
2026-01-30 05:59:20.58	292.50	34.43	-22.9	-23.0	19.0	0.00e+00	0	44	0	2621440000	6	3626
2026-01-30 05:59:21.58	292.12	34.38	-23.1	-23.4	18.8	0.00e+00	0	44	0	2628780032	6	3715
2026-01-30 05:59:22.58	291.73	34.32	-23.1	-23.4	18.8	0.00e+00	0	44	0	2636120064	6	3733
2026-01-30 05:59:23.59	291.35	34.26	-23.1	-23.3	18.8	0.00e+00	0	44	0	2643460096	6	3701
2026-01-30 05:59:24.60	290.97	34.21	-23.1	-23.4	18.8	0.00e+00	0	44	0	2650800128	6	3718
2026-01-30 05:59:25.60	290.59	34.15	-23.2	-23.7	18.7	0.00e+00	0	44	0	2658140160	6	3783
2026-01-30 05:59:26.60	290.22	34.09	-23.2	-23.5	18.7	0.00e+00	0	44	0	2665480192	6	3748
2026-01-30 05:59:27.60	289.84	34.03	-23.0	-23.2	18.9	0.00e+00	0	44	0	2671771648	6	3676
2026-01-30 05:59:28.60	289.47	33.97	-22.9	-23.1	18.9	0.00e+00	0	44	0	2679111680	6	3650
2026-01-30 05:59:29.61	289.10	33.90	-23.0	-23.1	18.9	0.00e+00	0	44	0	2686451712	6	3658
2026-01-30 05:59:30.61	288.73	33.84	-23.3	-23.7	18.6	0.00e+00	0	44	0	2693791744	6	3803
2026-01-30 05:59:31.61	288.36	33.77	-23.2	-23.6	18.7	0.00e+00	0	44	0	2701131776	6	3762
2026-01-30 05:59:32.62	287.99	33.70	-22.9	-23.6	18.9	0.00e+00	0	44	0	2708471808	5	3872
2026-01-30 05:59:33.62	287.62	33.64	-23.0	-23.6	18.9	0.00e+00	0	44	0	2715811840	5	3875
2026-01-30 05:59:34.63	287.26	33.56	-22.9	-23.6	18.9	0.00e+00	0	44	0	2723151872	5	3865
2026-01-30 05:59:35.63	286.89	33.49	-22.8	-23.3	19.1	0.00e+00	0	44	0	2729443328	5	3801
2026-01-30 05:59:36.63	286.53	33.42	-22.8	-23.2	19.1	0.00e+00	0	44	0	2736783360	5	3790
2026-01-30 05:59:37.63	286.17	33.35	-22.8	-23.3	19.1	0.00e+00	0	44	0	2744123392	5	3798
2026-01-30 05:59:38.63	285.82	33.28	-23.0	-23.6	18.8	0.00e+00	0	44	0	2751463424	5	3879
2026-01-30 05:59:39.63	285.46	33.20	-22.8	-23.2	19.1	0.00e+00	0	44	0	2758803456	5	3787
2026-01-30 05:59:40.63	285.11	33.12	-22.5	-22.6	19.3	0.00e+00	0	44	0	2766143488	5	3646
2026-01-30 05:59:41.64	284.75	33.05	-22.6	-22.8	19.3	0.00e+00	0	44	0	2773483520	5	3683
2026-01-30 05:59:42.64	284.40	32.97	-22.5	-22.6	19.4	0.00e+00	0	44	0	2780823552	5	3648
2026-01-30 05:59:43.65	284.05	32.89	-22.6	-22.8	19.3	0.00e+00	0	44	0	2788163584	5	3694
2026-01-30 05:59:44.65	283.70	32.81	-22.7	-23.0	19.2	0.00e+00	0	44	0	2795503616	5	3746
2026-01-30 05:59:45.66	283.35	32.73	-22.9	-23.4	19.0	0.00e+00	0	44	0	2802843648	5	3827
2026-01-30 05:59:46.66	283.01	32.64	-23.0	-23.6	18.9	0.00e+00	0	44	0	2810183680	5	3883
2026-01-30 05:59:47.66	282.67	32.56	-23.0	-23.7	18.8	0.00e+00	0	44	0	2816475136	5	3904
2026-01-30 05:59:48.67	282.32	32.48	-22.9	-23.6	18.9	0.00e+00	0	44	0	2823815168	5	3873
2026-01-30 05:59:49.67	281.98	32.39	-22.8	-23.3	19.0	0.00e+00	0	44	0	2831155200	5	3820
2026-01-30 05:59:50.68	281.64	32.30	-22.9	-23.4	19.0	0.00e+00	0	44	0	2838495232	5	3826
2026-01-30 05:59:51.68	281.31	32.22	-22.7	-23.0	19.2	0.00e+00	0	44	0	2845835264	5	3727
2026-01-30 05:59:52.69	280.97	32.13	-22.5	-22.6	19.3	0.00e+00	0	44	0	2853175296	5	3655
2026-01-30 05:59:53.69	280.64	32.04	-22.4	-22.4	19.5	0.00e+00	0	44	0	2860515328	5	3601
2026-01-30 05:59:54.69	280.31	31.95	-22.4	-22.5	19.4	0.00e+00	0	44	0	2867855360	5	3624
2026-01-30 05:59:55.69	279.99	31.86	-22.3	-22.3	19.5	0.00e+00	0	44	0	2875195392	5	3578
2026-01-30 05:59:56.69	279.66	31.77	-22.3	-22.3	19.5	0.00e+00	0	44	0	2882535424	5	3576
2026-01-30 05:59:57.69	279.34	31.68	-22.4	-22.4	19.4	0.00e+00	0	44	0	2889875456	5	3612
2026-01-30 05:59:58.70	279.01	31.59	-22.6	-22.8	19.2	0.00e+00	0	44	0	2897215488	5	3691
2026-01-30 05:59:59.71	278.69	31.49	-22.5	-22.7	19.3	0.00e+00	0	44	0	2903506944	5	3676
2026-01-30 06:00:00.70	278.37	31.40	-22.6	-22.9	19.2	0.00e+00	0	44	0	2910846976	5	3704
2026-01-30 06:00:01.71	278.05	31.31	-22.8	-23.2	19.0	0.00e+00	0	44	0	2918187008	5	3779
2026-01-30 06:00:02.71	277.74	31.21	-22.8	-23.3	19.0	0.00e+00	0	44	0	2925527040	5	3807
2026-01-30 06:00:03.72	277.42	31.11	-22.9	-23.5	18.9	0.00e+00	0	44	0	2932867072	5	3860
2026-01-30 06:00:04.72	277.11	31.02	-22.9	-23.4	18.9	0.00e+00	0	44	0	2940207104	5	3835
2026-01-30 06:00:05.72	276.80	30.92	-22.9	-23.5	18.9	0.00e+00	0	44	0	2947547136	5	3845
2026-01-30 06:00:06.72	276.49	30.82	-23.0	-23.7	18.7	0.00e+00	0	44	0	2954887168	5	3900
2026-01-30 06:00:07.72	276.19	30.72	-23.4	-23.9	18.4	0.00e+00	0	44	0	2961178624	6	3847
2026-01-30 06:00:08.72	275.88	30.63	-23.2	-23.5	18.6	0.00e+00	0	44	0	2968518656	6	3754
2026-01-30 06:00:09.72	275.58	30.53	-22.9	-22.9	19.0	0.00e+00	0	44	0	2975858688	6	3615
2026-01-30 06:00:10.72	275.28	30.43	-22.7	-22.7	19.0	0.00e+00	0	44	0	2983198720	6	3560
2026-01-30 06:00:11.72	274.99	30.33	-22.9	-22.9	18.8	0.00e+00	0	44	0	2990538752	6	3624
2026-01-30 06:00:12.73	274.69	30.22	-22.9	-22.9	18.9	0.00e+00	0	44	0	2997878784	6	3611
2026-01-30 06:00:13.73	274.39	30.12	-23.0	-23.2	18.8	0.00e+00	0	44	0	3005218816	6	3678
2026-01-30 06:00:14.73	274.10	30.02	-23.0	-23.3	18.7	0.00e+00	0	44	0	3012558848	6	3700
2026-01-30 06:00:15.74	273.81	29.92	-23.1	-23.4	18.7	2.20e-06	0	44	0	3019898880	6	3716
2026-01-30 06:00:16.74	273.52	29.81	-23.1	-23.4	18.7	0.00e+00	0	44	0	3027238912	6	3721
2026-01-30 06:00:17.75	273.23	29.71	-23.1	-23.4	18.6	0.00e+00	0	44	0	3034578944	6	3722
2026-01-30 06:00:18.74	272.95	29.61	-23.1	-23.5	18.6	4.50e-06	0	44	0	3041918976	6	3739
2026-01-30 06:00:19.75	272.66	29.50	-23.2	-23.7	18.5	0.00e+00	0	44	0	3048210432	6	3791
2026-01-30 06:00:20.76	272.38	29.40	-23.1	-23.4	18.6	0.00e+00	0	44	0	3055550464	6	3735
2026-01-30 06:00:21.76	272.10	29.29	-23.0	-23.3	18.7	1.10e-06	0	44	0	3062890496	6	3697
2026-01-30 06:00:22.76	271.82	29.19	-23.1	-23.4	18.6	0.00e+00	0	44	0	3070230528	6	3730
2026-01-30 06:00:23.77	271.54	29.08	-23.1	-23.5	18.6	0.00e+00	0	44	0	3077570560	6	3748
2026-01-30 06:00:24.78	271.26	28.97	-23.1	-23.4	18.7	0.00e+00	0	44	0	3084910592	6	3725
2026-01-30 06:00:25.78	270.99	28.87	-23.2	-23.6	18.6	0.00e+00	0	44	0	3092250624	6	3760
2026-01-30 06:00:26.78	270.72	28.76	-23.1	-23.4	18.6	0.00e+00	0	44	0	3099590656	6	3734
2026-01-30 06:00:27.78	270.45	28.65	-23.3	-23.7	18.4	0.00e+00	0	44	0	3106930688	6	3800
2026-01-30 06:00:28.78	270.19	28.55	-23.3	-23.7	18.5	0.00e+00	0	44	0	3113222144	6	3797
2026-01-30 06:00:29.79	269.92	28.44	-23.2	-23.7	18.5	0.00e+00	0	44	0	3121610752	6	3793
2026-01-30 06:00:30.80	269.65	28.33	-23.3	-23.7	18.4	0.00e+00	0	44	0	3128950784	6	3806
2026-01-30 06:00:31.80	269.39	28.22	-23.5	-24.2	18.2	0.00e+00	0	44	0	3135242240	6	3918
2026-01-30 06:00:32.80	269.13	28.11	-23.3	-23.8	18.4	0.00e+00	0	44	0	3142582272	6	3826
2026-01-30 06:00:33.81	268.87	28.00	-23.2	-23.6	18.5	0.00e+00	0	44	0	3149922304	6	3769
2026-01-30 06:00:34.81	268.62	27.89	-23.0	-23.3	18.7	0.00e+00	0	44	0	3157262336	6	3696
2026-01-30 06:00:35.82	268.36	27.78	-23.1	-23.5	18.6	0.00e+00	0	44	0	3164602368	6	3739
2026-01-30 06:00:36.82	268.11	27.68	-22.9	-23.1	18.8	0.00e+00	0	44	0	3171942400	6	3654
2026-01-30 06:00:37.83	267.85	27.56	-22.8	-22.9	18.9	0.00e+00	0	44	0	3179282432	6	3604
2026-01-30 06:00:38.83	267.61	27.46	-22.9	-23.0	18.8	0.00e+00	0	44	0	3186622464	6	3638
2026-01-30 06:00:39.84	267.36	27.34	-23.0	-23.1	18.7	0.00e+00	0	44	0	3193962496	6	3666
2026-01-30 06:00:40.84	267.11	27.24	-23.2	-23.5	18.5	0.00e+00	0	44	0	3201302528	6	3756
2026-01-30 06:00:41.85	266.86	27.12	-23.1	-23.3	18.6	0.00e+00	0	44	0	3208642560	6	3705
2026-01-30 06:00:42.85	266.62	27.01	-22.9	-23.0	18.7	0.00e+00	0	44	0	3214934016	6	3647
2026-01-30 06:00:43.86	266.38	26.90	-23.1	-23.4	18.6	0.00e+00	0	44	0	3222274048	6	3730
2026-01-30 06:00:44.85	266.14	26.79	-23.0	-23.3	18.6	0.00e+00	0	44	0	3229614080	6	3705
2026-01-30 06:00:45.86	265.90	26.68	-23.0	-23.3	18.6	1.65e-04	0	44	0	3236954112	6	3693
2026-01-30 06:00:46.86	265.67	26.57	-23.1	-23.5	18.6	0.00e+00	0	44	0	3244294144	6	3749
2026-01-30 06:00:47.87	265.43	26.46	-23.2	-23.7	18.4	0.00e+00	0	44	0	3251634176	6	3794
2026-01-30 06:00:48.87	265.20	26.35	-23.2	-23.5	18.5	0.00e+00	0	44	0	3258974208	6	3754
2026-01-30 06:00:49.88	264.97	26.24	-23.2	-23.6	18.5	2.79e-04	0	44	0	3266314240	6	3760
2026-01-30 06:00:50.88	264.74	26.13	-23.2	-23.6	18.5	0.00e+00	0	44	0	3273654272	6	3776
2026-01-30 06:00:51.88	264.51	26.02	-23.2	-23.7	18.4	0.00e+00	0	44	0	3279945728	6	3785
2026-01-30 06:00:52.88	264.28	25.91	-23.2	-23.7	18.4	8.01e-04	0	44	0	3287285760	6	3802
2026-01-30 06:00:53.88	264.06	25.79	-23.4	-24.0	18.2	0.00e+00	0	44	0	3294625792	6	3876
2026-01-30 06:00:54.88	263.84	25.68	-23.3	-23.8	18.4	0.00e+00	0	44	0	3301965824	6	3809
2026-01-30 06:00:55.89	263.61	25.57	-23.2	-23.6	18.4	0.00e+00	0	44	0	3309305856	6	3774
2026-01-30 06:00:56.89	263.39	25.46	-23.3	-23.9	18.3	0.00e+00	0	44	0	3316645888	6	3833
2026-01-30 06:00:57.89	263.18	25.35	-23.2	-23.6	18.5	0.00e+00	0	44	0	3323985920	6	3767
2026-01-30 06:00:58.90	262.96	25.24	-23.1	-23.5	18.5	0.00e+00	0	44	0	3331325952	6	3748
2026-01-30 06:00:59.90	262.74	25.13	-23.2	-23.6	18.4	0.00e+00	0	44	0	3338665984	6	3776
2026-01-30 06:01:00.90	262.53	25.02	-23.0	-23.3	18.6	0.00e+00	0	44	0	3346006016	6	3698
2026-01-30 06:01:01.91	262.32	24.91	-23.2	-23.5	18.5	0.00e+00	0	44	0	3353346048	6	3754
2026-01-30 06:01:02.91	262.11	24.79	-23.0	-23.2	18.6	0.00e+00	0	44	0	3359637504	6	3691
2026-01-30 06:01:03.91	261.90	24.68	-23.0	-23.2	18.6	0.00e+00	0	44	0	3366977536	6	3676
2026-01-30 06:01:04.92	261.69	24.57	-23.2	-23.6	18.4	0.00e+00	0	44	0	3374317568	6	3766
2026-01-30 06:01:05.93	261.48	24.46	-23.2	-23.6	18.4	0.00e+00	0	44	0	3381657600	6	3773
2026-01-30 06:01:06.94	261.27	24.35	-23.4	-24.1	18.2	0.00e+00	0	44	0	3388997632	6	3888
2026-01-30 06:01:07.94	261.07	24.24	-23.5	-24.3	18.1	0.00e+00	0	44	0	3396337664	6	3927
2026-01-30 06:01:08.94	260.87	24.13	-23.4	-24.0	18.2	0.00e+00	0	44	0	3403677696	6	3864
2026-01-30 06:01:09.94	260.67	24.02	-23.3	-23.8	18.3	0.00e+00	0	44	0	3411017728	6	3822
2026-01-30 06:01:10.94	260.47	23.91	-23.4	-23.9	18.2	0.00e+00	0	44	0	3418357760	6	3853
2026-01-30 06:01:11.95	260.27	23.80	-23.1	-23.5	18.5	0.00e+00	0	44	0	3425697792	6	3748
2026-01-30 06:01:12.95	260.07	23.69	-23.1	-23.8	18.5	0.00e+00	0	44	0	3433037824	5	3934
2026-01-30 06:01:13.95	259.88	23.58	-23.0	-23.8	18.6	0.00e+00	0	44	0	3440377856	5	3919
2026-01-30 06:01:14.95	259.69	23.47	-23.3	-23.7	18.3	0.00e+00	0	44	0	3446669312	6	3799
2026-01-30 06:01:15.95	259.50	23.36	-23.7	-24.1	17.9	0.00e+00	0	44	0	3454009344	7	3790
2026-01-30 06:01:16.95	259.30	23.25	-23.5	-23.6	18.1	0.00e+00	0	44	0	3461349376	7	3678
2026-01-30 06:01:17.96	259.11	23.14	-23.3	-23.4	18.2	0.00e+00	0	44	0	3468689408	7	3621
2026-01-30 06:01:18.96	258.93	23.03	-23.3	-23.7	18.3	0.00e+00	0	44	0	3476029440	6	3804
2026-01-30 06:01:19.97	258.74	22.92	-23.4	-24.1	18.1	0.00e+00	0	44	0	3483369472	6	3879
2026-01-30 06:01:20.97	258.55	22.81	-23.4	-23.9	18.2	0.00e+00	0	44	0	3490709504	6	3854
2026-01-30 06:01:21.97	258.37	22.70	-23.5	-24.2	18.0	0.00e+00	0	44	0	3498049536	6	3922
2026-01-30 06:01:22.98	258.18	22.59	-23.4	-24.1	18.1	0.00e+00	0	44	0	3505389568	6	3881
2026-01-30 06:01:23.99	258.00	22.48	-23.4	-24.1	18.1	0.00e+00	0	44	0	3512729600	6	3881
2026-01-30 06:01:24.99	257.82	22.37	-23.6	-24.4	17.9	0.00e+00	0	44	0	3520069632	6	3960
2026-01-30 06:01:26.00	257.64	22.26	-23.6	-24.0	17.9	0.00e+00	0	44	0	3527409664	7	3760
2026-01-30 06:01:27.00	257.46	22.15	-23.8	-24.4	17.7	0.00e+00	0	44	0	3533701120	7	3846
2026-01-30 06:01:28.00	257.29	22.05	-23.7	-24.2	17.8	0.00e+00	0	44	0	3541041152	7	3811
2026-01-30 06:01:29.01	257.11	21.94	-23.9	-24.6	17.6	0.00e+00	0	44	0	3548381184	7	3899
2026-01-30 06:01:30.01	256.94	21.83	-23.8	-24.4	17.7	0.00e+00	0	44	0	3555721216	7	3844
2026-01-30 06:01:31.01	256.77	21.72	-23.7	-24.2	17.8	0.00e+00	0	44	0	3563061248	7	3819
2026-01-30 06:01:32.01	256.59	21.62	-23.7	-24.2	17.8	0.00e+00	0	44	0	3570401280	7	3806
2026-01-30 06:01:33.02	256.42	21.51	-23.6	-23.9	17.9	0.00e+00	0	44	0	3577741312	7	3739
2026-01-30 06:01:34.02	256.25	21.40	-23.6	-23.9	17.9	0.00e+00	0	44	0	3585081344	7	3732
2026-01-30 06:01:35.02	256.09	21.29	-23.6	-24.0	17.9	0.00e+00	0	44	0	3591372800	7	3758
2026-01-30 06:01:36.03	255.92	21.19	-23.5	-23.7	18.0	2.20e-06	0	44	0	3598712832	7	3694
2026-01-30 06:01:37.03	255.75	21.08	-23.5	-24.3	17.9	0.00e+00	0	44	0	3606052864	6	3941
2026-01-30 06:01:38.04	255.59	20.97	-23.5	-24.3	17.9	0.00e+00	0	44	0	3613392896	6	3942
2026-01-30 06:01:39.04	255.42	20.87	-23.6	-24.0	17.8	0.00e+00	0	44	0	3620732928	7	3760
2026-01-30 06:01:40.05	255.26	20.76	-23.6	-24.0	17.9	0.00e+00	0	44	0	3628072960	7	3760
2026-01-30 06:01:41.05	255.10	20.65	-23.7	-24.2	17.7	0.00e+00	0	44	0	3635412992	7	3818
2026-01-30 06:01:42.05	254.94	20.55	-23.7	-24.1	17.8	0.00e+00	0	44	0	3642753024	7	3792
2026-01-30 06:01:43.05	254.78	20.44	-23.9	-24.5	17.6	0.00e+00	0	44	0	3650093056	7	3879
2026-01-30 06:01:44.06	254.62	20.34	-23.7	-24.1	17.8	0.00e+00	0	44	0	3657433088	7	3793
2026-01-30 06:01:45.07	254.46	20.23	-23.5	-23.7	17.9	0.00e+00	0	44	0	3664773120	7	3697
2026-01-30 06:01:46.07	254.31	20.13	-23.6	-23.9	17.9	0.00e+00	0	44	0	3672113152	7	3730
2026-01-30 06:01:47.07	254.15	20.02	-23.5	-23.8	17.9	0.00e+00	0	44	0	3678404608	7	3707
2026-01-30 06:01:48.08	254.00	19.92	-23.6	-24.0	17.8	0.00e+00	0	44	0	3685744640	7	3756
2026-01-30 06:01:49.08	253.85	19.81	-23.5	-23.8	17.8	0.00e+00	0	44	0	3693084672	7	3725
2026-01-30 06:01:50.08	253.70	19.71	-23.7	-24.1	17.7	0.00e+00	0	44	0	3700424704	7	3794
2026-01-30 06:01:51.09	253.55	19.61	-23.7	-24.3	17.6	0.00e+00	0	44	0	3707764736	7	3820
2026-01-30 06:01:52.09	253.40	19.50	-23.9	-24.6	17.5	0.00e+00	0	44	0	3715104768	7	3893
2026-01-30 06:01:53.10	253.25	19.40	-24.0	-24.8	17.4	0.00e+00	0	44	0	3722444800	7	3955
2026-01-30 06:01:54.11	253.10	19.30	-24.1	-24.6	17.2	0.00e+00	0	44	0	3729784832	8	3802
2026-01-30 06:01:55.11	252.95	19.19	-24.2	-24.8	17.1	4.40e-04	0	44	0	3737124864	8	3841
2026-01-30 06:01:56.12	252.81	19.09	-24.2	-24.8	17.1	0.00e+00	0	44	0	3744464896	8	3853
2026-01-30 06:01:57.12	252.66	18.99	-24.2	-24.7	17.2	0.00e+00	0	44	0	3751804928	8	3820
2026-01-30 06:01:58.13	252.52	18.89	-24.3	-24.8	17.1	8.52e-04	0	44	0	3758096384	8	3854
2026-01-30 06:01:59.13	252.38	18.78	-24.4	-25.1	17.0	0.00e+00	0	44	0	3765436416	8	3910
2026-01-30 06:02:00.14	252.23	18.68	-24.1	-24.6	17.2	8.39e-04	0	44	0	3772776448	8	3807
2026-01-30 06:02:01.14	252.09	18.58	-24.0	-24.9	17.3	9.22e-04	0	44	0	3780116480	7	3964
2026-01-30 06:02:02.14	251.95	18.48	-24.0	-24.9	17.3	0.00e+00	0	44	0	3787456512	7	3971
2026-01-30 06:02:03.15	251.81	18.38	-24.0	-24.8	17.3	8.46e-04	0	44	0	3794796544	7	3949
2026-01-30 06:02:04.15	251.68	18.28	-24.2	-24.7	17.1	0.00e+00	0	44	0	3802136576	8	3827
2026-01-30 06:02:05.16	251.54	18.18	-24.5	-25.3	16.8	0.00e+00	0	44	0	3809476608	8	3959
2026-01-30 06:02:06.16	251.40	18.08	-24.3	-24.9	17.0	9.26e-04	0	44	0	3816816640	8	3871
2026-01-30 06:02:07.16	251.27	17.98	-24.2	-24.8	17.1	8.56e-04	0	44	0	3824156672	8	3842
2026-01-30 06:02:08.16	251.14	17.88	-24.3	-25.0	17.0	0.00e+00	0	44	0	3831496704	8	3880
2026-01-30 06:02:09.16	251.00	17.78	-24.4	-25.1	16.9	8.88e-04	0	44	0	3838836736	8	3925
2026-01-30 06:02:10.17	250.87	17.68	-24.5	-25.4	16.8	8.88e-04	0	44	0	3845128192	8	3987
2026-01-30 06:02:11.18	250.74	17.58	-24.6	-25.1	16.6	0.00e+00	0	44	0	3852468224	9	3815
2026-01-30 06:02:12.19	250.61	17.48	-24.7	-25.3	16.5	6.27e-04	0	44	0	3860856832	9	3862
2026-01-30 06:02:13.19	250.48	17.38	-24.9	-25.7	16.3	5.33e-04	0	44	0	3867148288	9	3958
2026-01-30 06:02:14.20	250.35	17.28	-24.9	-25.7	16.3	1.10e-06	0	44	0	3874488320	9	3962
2026-01-30 06:02:15.21	250.22	17.18	-25.0	-25.9	16.2	3.16e-04	0	44	0	3881828352	9	4013
2026-01-30 06:02:16.21	250.09	17.09	-25.0	-25.9	16.1	0.00e+00	0	44	0	3889168384	9	4008
2026-01-30 06:02:17.21	249.97	16.99	-25.0	-26.0	16.1	1.10e-06	0	44	0	3896508416	9	4039
2026-01-30 06:02:18.22	249.84	16.89	-24.8	-25.6	16.3	0.00e+00	0	44	0	3903848448	9	3927
2026-01-30 06:02:19.22	249.72	16.79	-24.8	-25.4	16.4	0.00e+00	0	44	0	3911188480	9	3897
2026-01-30 06:02:20.22	249.59	16.70	-24.7	-25.4	16.4	0.00e+00	0	44	0	3918528512	9	3884
2026-01-30 06:02:21.22	249.47	16.60	-24.7	-25.4	16.4	0.00e+00	0	44	0	3925868544	9	3883
2026-01-30 06:02:22.23	249.35	16.50	-24.5	-24.9	16.7	0.00e+00	0	44	0	3932160000	9	3758
2026-01-30 06:02:23.23	249.23	16.41	-24.5	-24.9	16.7	0.00e+00	0	44	0	3939500032	9	3762
2026-01-30 06:02:24.24	249.10	16.31	-24.5	-24.9	16.7	0.00e+00	0	44	0	3946840064	9	3774
2026-01-30 06:02:25.24	248.98	16.22	-24.4	-24.7	16.8	0.00e+00	0	44	0	3954180096	9	3727
2026-01-30 06:02:26.25	248.87	16.12	-24.5	-24.9	16.7	0.00e+00	0	44	0	3961520128	9	3761
2026-01-30 06:02:27.24	248.75	16.03	-24.6	-25.5	16.6	0.00e+00	0	44	0	3968860160	8	4018
2026-01-30 06:02:28.24	248.63	15.93	-24.6	-25.0	16.6	0.00e+00	0	44	0	3976200192	9	3799
2026-01-30 06:02:29.25	248.51	15.84	-24.6	-25.2	16.5	1.10e-06	0	44	0	3983540224	9	3836
2026-01-30 06:02:30.25	248.40	15.74	-24.8	-25.5	16.3	0.00e+00	0	44	0	3990880256	9	3913
2026-01-30 06:02:31.26	248.28	15.65	-24.8	-25.6	16.3	0.00e+00	0	44	0	3998220288	9	3936
2026-01-30 06:02:32.27	248.17	15.55	-24.9	-25.7	16.2	0.00e+00	0	44	0	4005560320	9	3963
2026-01-30 06:02:33.27	248.05	15.46	-24.9	-25.8	16.1	0.00e+00	0	44	0	4011851776	9	3983
2026-01-30 06:02:34.27	247.94	15.37	-25.0	-26.0	16.1	0.00e+00	0	44	0	4019191808	9	4018
2026-01-30 06:02:35.28	247.83	15.27	-25.1	-26.1	16.0	0.00e+00	0	44	0	4026531840	9	4049
2026-01-30 06:02:36.28	247.72	15.18	-25.0	-26.0	16.0	0.00e+00	0	44	0	4033871872	9	4019
2026-01-30 06:02:37.29	247.60	15.09	-25.0	-26.0	16.0	0.00e+00	0	44	0	4041211904	9	4028
2026-01-30 06:02:38.29	247.49	15.00	-25.0	-26.0	16.0	0.00e+00	0	44	0	4048551936	9	4043
2026-01-30 06:02:39.29	247.39	14.90	-25.1	-25.8	15.9	0.00e+00	0	44	0	4055891968	10	3867
2026-01-30 06:02:40.30	247.28	14.81	-25.2	-26.0	15.8	0.00e+00	0	44	0	4063232000	10	3925
2026-01-30 06:02:41.29	247.17	14.72	-25.2	-26.0	15.8	0.00e+00	0	44	0	4070572032	10	3927
2026-01-30 06:02:42.30	247.06	14.63	-25.3	-26.2	15.7	0.00e+00	0	44	0	4077912064	10	3967
2026-01-30 06:02:43.30	246.95	14.54	-25.4	-26.3	15.6	0.00e+00	0	44	0	4085252096	10	4001
2026-01-30 06:02:44.30	246.85	14.45	-25.5	-26.5	15.5	0.00e+00	0	44	0	4092592128	10	4043
2026-01-30 06:02:45.30	246.74	14.36	-25.4	-26.4	15.5	0.00e+00	0	44	0	4098883584	10	4015
2026-01-30 06:02:46.31	246.64	14.27	-25.6	-26.7	15.3	0.00e+00	0	44	0	4106223616	10	4109
2026-01-30 06:02:47.32	246.53	14.18	-25.4	-26.3	15.5	0.00e+00	0	44	0	4113563648	10	4014
2026-01-30 06:02:48.32	246.43	14.09	-25.4	-26.4	15.5	0.00e+00	0	44	0	4120903680	10	4038
2026-01-30 06:02:49.33	246.33	14.00	-25.4	-26.4	15.5	0.00e+00	0	44	0	4128243712	10	4024
2026-01-30 06:02:50.33	246.22	13.91	-25.3	-26.1	15.6	0.00e+00	0	44	0	4135583744	10	3963
2026-01-30 06:02:51.34	246.12	13.82	-25.3	-26.2	15.6	0.00e+00	0	44	0	4142923776	10	3982
2026-01-30 06:02:52.34	246.02	13.73	-25.3	-26.2	15.6	0.00e+00	0	44	0	4150263808	10	3973
2026-01-30 06:02:53.34	245.92	13.64	-25.2	-26.0	15.7	0.00e+00	0	44	0	4157603840	10	3922
2026-01-30 06:02:54.35	245.82	13.55	-25.2	-25.8	15.7	0.00e+00	0	44	0	4164943872	10	3886
2026-01-30 06:02:55.36	245.72	13.46	-25.2	-25.9	15.7	0.00e+00	0	44	0	4172283904	10	3899
2026-01-30 06:02:56.37	245.62	13.37	-25.2	-26.0	15.7	0.00e+00	0	44	0	4178575360	10	3926
2026-01-30 06:02:57.37	245.52	13.28	-25.2	-26.0	15.7	0.00e+00	0	44	0	4185915392	10	3926
2026-01-30 06:02:58.37	245.43	13.20	-25.3	-26.0	15.6	0.00e+00	0	44	0	4193255424	10	3942
2026-01-30 06:02:59.37	245.33	13.11	-25.3	-26.0	15.6	0.00e+00	0	44	0	4200595456	10	3940
2026-01-30 06:03:00.37	245.23	13.02	-25.3	-26.1	15.6	0.00e+00	0	44	0	4207935488	10	3943
2026-01-30 06:03:01.38	245.14	12.94	-25.4	-26.3	15.5	0.00e+00	0	44	0	4215275520	10	4005
2026-01-30 06:03:02.38	245.04	12.85	-25.4	-26.3	15.5	0.00e+00	0	44	0	4222615552	10	3993
2026-01-30 06:03:03.39	244.95	12.76	-25.5	-26.5	15.4	0.00e+00	0	44	0	4229955584	10	4053
2026-01-30 06:03:04.38	244.86	12.68	-25.5	-26.6	15.3	0.00e+00	0	44	0	4237295616	10	4088
2026-01-30 06:03:05.38	244.76	12.59	-25.6	-26.2	15.2	0.00e+00	0	44	0	4243587072	11	3882
2026-01-30 06:03:06.39	244.67	12.51	-25.5	-26.0	15.3	0.00e+00	0	44	0	4251975680	11	3831
2026-01-30 06:03:07.39	244.58	12.42	-25.5	-26.1	15.3	0.00e+00	0	44	0	4259315712	11	3843
2026-01-30 06:03:08.40	244.49	12.33	-25.6	-26.2	15.2	0.00e+00	0	44	0	4265607168	11	3883
2026-01-30 06:03:09.40	244.39	12.25	-25.6	-26.3	15.2	0.00e+00	0	44	0	4272947200	11	3906
2026-01-30 06:03:10.40	244.30	12.16	-25.6	-26.4	15.1	0.00e+00	0	44	0	4280287232	11	3921
2026-01-30 06:03:11.40	244.21	12.08	-25.7	-26.5	15.1	0.00e+00	0	44	0	4287627264	11	3945
2026-01-30 06:03:12.41	244.12	12.00	-25.6	-26.4	15.1	0.00e+00	0	44	0	4294967296	11	3930
2026-01-30 06:03:13.41	244.04	11.91	-25.7	-26.6	15.0	0.00e+00	0	44	0	4302307328	11	3982
2026-01-30 06:03:14.41	243.95	11.83	-25.8	-26.7	15.0	0.00e+00	0	44	0	4309647360	11	3994
2026-01-30 06:03:15.41	243.86	11.74	-25.8	-26.8	14.9	0.00e+00	0	44	0	4316987392	11	4025
2026-01-30 06:03:16.42	243.77	11.66	-25.8	-26.7	14.9	0.00e+00	0	44	0	4324327424	11	4005
2026-01-30 06:03:17.41	243.69	11.58	-25.9	-27.1	14.7	0.00e+00	0	44	0	4330618880	11	4094
2026-01-30 06:03:18.42	243.60	11.49	-26.1	-27.4	14.5	0.00e+00	0	44	0	4337958912	11	4178
2026-01-30 06:03:19.43	243.51	11.41	-26.3	-27.3	14.2	0.00e+00	0	44	0	4345298944	12	4050
2026-01-30 06:03:20.42	243.43	11.33	-26.3	-27.5	14.1	4.50e-06	0	44	0	4352638976	12	4100
2026-01-30 06:03:21.43	243.34	11.25	-26.1	-27.0	14.3	0.00e+00	0	44	0	4359979008	12	3981
2026-01-30 06:03:22.43	243.26	11.16	-26.0	-26.8	14.5	1.10e-06	0	44	0	4367319040	12	3918
2026-01-30 06:03:23.44	243.17	11.08	-26.0	-26.7	14.5	0.00e+00	0	44	0	4374659072	12	3900
2026-01-30 06:03:24.44	243.09	11.00	-26.0	-26.6	14.6	1.10e-06	0	44	0	4381999104	12	3886
2026-01-30 06:03:25.45	243.01	10.92	-26.0	-26.8	14.4	0.00e+00	0	44	0	4389339136	12	3923
2026-01-30 06:03:26.45	242.92	10.84	-26.0	-26.7	14.5	1.10e-06	0	44	0	4396679168	12	3900
2026-01-30 06:03:27.45	242.84	10.76	-25.8	-26.8	14.7	0.00e+00	0	44	0	4404019200	11	4030
2026-01-30 06:03:28.45	242.76	10.67	-25.8	-26.8	14.8	0.00e+00	0	44	0	4410310656	11	4019
2026-01-30 06:03:29.45	242.68	10.59	-25.8	-26.7	14.8	1.10e-06	0	44	0	4417650688	11	3995
2026-01-30 06:03:30.44	242.60	10.51	-25.6	-26.3	15.0	1.10e-04	0	44	0	4424990720	11	3911
2026-01-30 06:03:31.45	242.52	10.43	-25.6	-26.3	15.0	0.00e+00	0	44	0	4432330752	11	3909
2026-01-30 06:03:32.45	242.44	10.35	-25.5	-26.1	15.2	1.10e-06	0	44	0	4439670784	11	3853
2026-01-30 06:03:33.46	242.36	10.27	-25.5	-26.2	15.1	9.38e-05	0	44	0	4447010816	11	3873
2026-01-30 06:03:34.46	242.28	10.19	-25.6	-26.3	15.1	0.00e+00	0	44	0	4454350848	11	3894
2026-01-30 06:03:35.47	242.20	10.11	-25.5	-26.1	15.1	1.09e-04	0	44	0	4461690880	11	3849
2026-01-30 06:03:36.48	242.12	10.03	-25.7	-26.5	14.9	1.29e-04	0	44	0	4469030912	11	3950
2026-01-30 06:03:37.48	242.05	9.96	-25.7	-26.5	14.9	0.00e+00	0	44	0	4475322368	11	3940
2026-01-30 06:03:38.49	241.97	9.88	-25.6	-26.4	14.9	1.21e-04	0	44	0	4483710976	11	3930
2026-01-30 06:03:39.49	241.89	9.80	-25.7	-26.5	14.9	1.22e-04	0	44	0	4491051008	11	3966
2026-01-30 06:03:40.50	241.82	9.72	-25.8	-26.8	14.7	0.00e+00	0	44	0	4497342464	11	4034
2026-01-30 06:03:41.51	241.74	9.64	-25.9	-27.0	14.6	1.04e-04	0	44	0	4504682496	11	4090
2026-01-30 06:03:42.51	241.67	9.56	-26.0	-27.3	14.5	1.32e-04	0	44	0	4512022528	11	4152
2026-01-30 06:03:43.51	241.59	9.48	-26.0	-26.8	14.3	3.40e-06	0	44	0	4519362560	12	3938
2026-01-30 06:03:44.51	241.52	9.41	-26.1	-27.0	14.2	2.20e-06	0	44	0	4526702592	12	3978
2026-01-30 06:03:45.52	241.44	9.33	-26.2	-27.2	14.1	1.50e-04	0	44	0	4534042624	12	4023
2026-01-30 06:03:46.52	241.37	9.25	-26.3	-27.5	14.0	4.50e-06	0	44	0	4541382656	12	4110
2026-01-30 06:03:47.52	241.29	9.17	-26.4	-27.7	13.8	1.26e-04	0	44	0	4548722688	12	4175
2026-01-30 06:03:48.53	241.22	9.10	-26.5	-27.9	13.6	1.36e-04	0	44	0	4556062720	12	4234
2026-01-30 06:03:49.53	241.15	9.02	-26.6	-27.6	13.5	1.14e-05	0	44	0	4562354176	13	4043
2026-01-30 06:03:50.54	241.08	8.94	-26.7	-27.9	13.4	9.04e-05	0	44	0	4570742784	13	4127
2026-01-30 06:03:51.54	241.00	8.87	-26.8	-28.1	13.3	1.25e-05	0	44	0	4577034240	13	4170
2026-01-30 06:03:52.55	240.93	8.79	-26.8	-28.1	13.2	1.14e-05	0	44	0	4584374272	13	4175
2026-01-30 06:03:53.56	240.86	8.71	-26.9	-28.4	13.1	6.75e-05	0	44	0	4591714304	13	4252
2026-01-30 06:03:54.56	240.79	8.64	-26.9	-28.4	13.1	2.17e-05	0	44	0	4599054336	13	4272
2026-01-30 06:03:55.56	240.72	8.56	-26.9	-28.4	13.0	4.00e-05	0	44	0	4606394368	13	4259
2026-01-30 06:03:56.56	240.65	8.49	-26.9	-28.4	13.1	2.17e-05	0	44	0	4613734400	13	4248
2026-01-30 06:03:57.57	240.58	8.41	-26.9	-28.3	13.1	2.97e-05	0	44	0	4621074432	13	4237
2026-01-30 06:03:58.58	240.51	8.34	-26.9	-28.3	13.1	3.66e-05	0	44	0	4628414464	13	4218
2026-01-30 06:03:59.58	240.44	8.26	-26.9	-28.4	13.0	2.74e-05	0	44	0	4635754496	13	4254
2026-01-30 06:04:00.58	240.38	8.19	-26.9	-28.2	13.1	1.71e-05	0	44	0	4642045952	13	4213
2026-01-30 06:04:01.59	240.31	8.11	-26.9	-28.3	13.1	2.28e-05	0	44	0	4650434560	13	4230
2026-01-30 06:04:02.59	240.24	8.04	-26.9	-28.3	13.0	3.20e-05	0	44	0	4656726016	13	4223
2026-01-30 06:04:03.59	240.17	7.96	-26.9	-28.3	13.0	2.51e-05	0	44	0	4664066048	13	4218
2026-01-30 06:04:04.60	240.10	7.89	-26.7	-27.8	13.3	2.40e-05	0	44	0	4671406080	13	4109
2026-01-30 06:04:05.60	240.04	7.82	-26.8	-28.2	13.1	2.17e-05	0	44	0	4678746112	13	4200
2026-01-30 06:04:06.61	239.97	7.74	-26.8	-28.1	13.1	1.94e-05	0	44	0	4686086144	13	4179
2026-01-30 06:04:07.61	239.91	7.67	-26.7	-27.9	13.2	2.17e-05	0	44	0	4693426176	13	4130
2026-01-30 06:04:08.62	239.84	7.60	-26.8	-28.0	13.2	2.40e-05	0	44	0	4700766208	13	4151
2026-01-30 06:04:09.63	239.77	7.52	-26.7	-27.8	13.2	2.28e-05	0	44	0	4708106240	13	4109
2026-01-30 06:04:10.63	239.71	7.45	-26.7	-27.9	13.2	2.86e-05	0	44	0	4715446272	13	4136
2026-01-30 06:04:11.64	239.64	7.38	-26.7	-27.9	13.2	2.05e-05	0	44	0	4722786304	13	4131
2026-01-30 06:04:12.64	239.58	7.30	-26.8	-28.1	13.1	2.28e-05	0	44	0	4730126336	13	4180
2026-01-30 06:04:13.64	239.52	7.23	-26.8	-28.1	13.0	3.89e-05	0	44	0	4737466368	13	4195
2026-01-30 06:04:14.64	239.45	7.16	-26.7	-27.9	13.2	1.48e-05	0	44	0	4744806400	13	4118
2026-01-30 06:04:15.64	239.39	7.09	-32.7	-42.0	3.8	7.14e-01	0	44	104	4750049280	25	10465
2026-01-30 06:04:16.65	239.33	7.01	-33.3	-42.9	3.8	8.47e-01	0	44	104	4750049280	26	10941

#Closed at: 2026-01-30 06:04:16
#Recorded file [4750 MB]: D:/data/31010_260130_085317.dat