passes_logs/2026/01/30/R2M6_AANII_01/R2M6_AANII_01__20260130_080851_SUOMI_NPP_rec.log

#Pass ID: 20260130_080851_SUOMI NPP
#Satellite: SUOMI NPP
#Configuration: NPP
#almurnet v.1.7.20240730
#Start time: 2026-01-30 08:08:50

#Version: 2.2.20231116
#Station: R2M6_AANII_01
#Location: 30.233357 lon 59.946436 lat
#TLE: 1 37849U 11061A   26029.48304708  .00000140  00000+0  87283-4 0  9999
#TLE: 2 37849  98.7824 331.4079 0002024  38.4342 321.6978 14.19531488738761

#Time	Az	El	Level	Level2	SNR	BER	BlckErr	Temp	State	Recorded	gain1	gain2
2026-01-30 08:08:50.59	90.30	6.97	-32.6	-41.1	3.9	1.48e+00	0	40	0	0	26	9625
2026-01-30 08:08:51.59	90.20	7.03	-32.2	-38.9	4.3	1.40e+00	0	41	104	0	25	7747
2026-01-30 08:08:52.60	90.09	7.09	-32.3	-39.0	4.7	5.33e-01	0	41	104	0	25	7789
2026-01-30 08:08:53.59	89.99	7.14	-32.2	-38.8	4.3	1.39e+00	0	41	104	0	25	7626
2026-01-30 08:08:54.60	89.88	7.20	-32.2	-38.5	5.5	4.96e-01	0	41	0	0	25	7435
2026-01-30 08:08:55.60	89.78	7.26	-32.3	-38.8	5.4	4.29e-01	0	41	0	2097152	25	7621
2026-01-30 08:08:56.61	89.67	7.32	-32.2	-38.3	5.7	4.47e-01	0	41	0	3145728	25	7274
2026-01-30 08:08:57.61	89.56	7.38	-32.3	-38.4	5.7	4.26e-01	0	41	0	5242880	25	7321
2026-01-30 08:08:58.62	89.45	7.44	-32.3	-38.4	5.7	4.28e-01	0	41	0	7340032	25	7319
2026-01-30 08:08:59.62	89.34	7.50	-32.3	-39.0	5.4	4.43e-01	0	41	0	9437184	25	7749
2026-01-30 08:09:00.62	89.23	7.56	-32.4	-39.0	5.4	5.37e-01	0	41	0	10485760	25	7709
2026-01-30 08:09:01.62	89.13	7.62	-32.2	-37.9	6.0	3.94e-01	0	41	0	12582912	25	6962
2026-01-30 08:09:02.62	89.02	7.68	-32.0	-36.6	6.9	2.46e-01	0	41	0	14680064	25	6122
2026-01-30 08:09:03.63	88.90	7.74	-31.8	-36.3	7.6	1.17e-01	0	41	0	16777216	24	6043
2026-01-30 08:09:04.63	88.79	7.80	-31.6	-35.2	8.5	5.12e-02	0	41	0	18874368	24	5464
2026-01-30 08:09:05.64	88.68	7.86	-31.3	-34.2	9.3	2.64e-02	0	41	0	20971520	24	5000
2026-01-30 08:09:06.64	88.57	7.92	-31.2	-34.3	9.7	1.48e-02	0	41	0	22020096	23	5112
2026-01-30 08:09:07.65	88.46	7.98	-31.4	-34.9	9.2	1.64e-02	0	41	0	24117248	23	5376
2026-01-30 08:09:08.64	88.35	8.04	-31.5	-35.2	9.0	2.69e-02	0	41	0	26214400	23	5506
2026-01-30 08:09:09.65	88.23	8.10	-31.5	-35.5	8.7	3.67e-02	0	41	0	28311552	23	5648
2026-01-30 08:09:10.65	88.12	8.16	-31.5	-35.1	9.1	2.68e-02	0	41	0	29360128	23	5475
2026-01-30 08:09:11.65	88.00	8.22	-31.5	-35.1	9.1	1.98e-02	0	41	0	31457280	23	5444
2026-01-30 08:09:12.66	87.89	8.28	-31.3	-34.5	9.5	1.43e-02	0	41	0	33554432	23	5198
2026-01-30 08:09:13.66	87.77	8.34	-31.3	-34.3	9.6	1.11e-02	0	41	0	35651584	23	5124
2026-01-30 08:09:14.66	87.66	8.40	-31.5	-35.2	9.0	2.03e-02	0	41	0	37748736	23	5532
2026-01-30 08:09:15.67	87.54	8.46	-31.5	-35.3	8.9	2.65e-02	0	41	0	38797312	23	5557
2026-01-30 08:09:16.66	87.43	8.52	-31.6	-35.8	8.6	2.43e-02	0	41	0	40894464	23	5794
2026-01-30 08:09:17.66	87.31	8.58	-31.7	-36.2	8.3	5.97e-02	0	41	0	42991616	23	5995
2026-01-30 08:09:18.66	87.19	8.64	-31.7	-35.9	8.5	4.32e-02	0	41	0	45088768	23	5881
2026-01-30 08:09:19.66	87.08	8.70	-31.8	-36.6	8.0	4.90e-02	0	42	0	47185920	23	6217
2026-01-30 08:09:20.67	86.96	8.76	-31.6	-35.6	8.7	4.15e-02	0	42	0	48234496	23	5709
2026-01-30 08:09:21.67	86.84	8.82	-31.4	-34.6	9.5	1.91e-02	0	41	0	50331648	23	5215
2026-01-30 08:09:22.68	86.72	8.88	-31.2	-34.1	10.0	1.05e-02	0	42	0	52428800	23	4997
2026-01-30 08:09:23.69	86.60	8.94	-31.1	-33.6	10.3	5.16e-03	0	42	0	54525952	23	4815
2026-01-30 08:09:24.69	86.48	9.00	-31.2	-33.8	10.2	5.23e-03	0	42	0	56623104	23	4882
2026-01-30 08:09:25.69	86.35	9.06	-31.3	-34.5	9.7	7.99e-03	0	42	0	57671680	23	5174
2026-01-30 08:09:26.69	86.23	9.12	-31.4	-34.9	9.4	1.37e-02	0	42	0	59768832	23	5332
2026-01-30 08:09:27.69	86.11	9.18	-31.5	-34.9	9.4	1.51e-02	0	42	0	61865984	23	5349
2026-01-30 08:09:28.70	85.99	9.24	-31.3	-34.1	10.1	9.87e-03	0	42	0	63963136	23	4979
2026-01-30 08:09:29.70	85.87	9.31	-31.2	-34.0	10.2	7.32e-03	0	42	0	66060288	23	4928
2026-01-30 08:09:30.70	85.74	9.37	-31.1	-33.6	10.5	4.87e-03	0	42	0	67108864	23	4775
2026-01-30 08:09:31.71	85.62	9.43	-31.2	-33.7	10.5	3.50e-03	0	42	0	69206016	23	4808
2026-01-30 08:09:32.71	85.49	9.49	-31.2	-33.7	10.4	4.28e-03	0	42	0	71303168	23	4812
2026-01-30 08:09:33.71	85.37	9.55	-31.2	-34.0	10.2	4.94e-03	0	42	0	73400320	23	4937
2026-01-30 08:09:34.71	85.24	9.61	-31.2	-33.9	10.3	5.68e-03	0	42	0	74448896	23	4890
2026-01-30 08:09:35.71	85.12	9.67	-31.2	-33.7	10.4	3.80e-03	0	42	0	76546048	23	4824
2026-01-30 08:09:36.72	84.99	9.73	-31.0	-33.0	10.9	2.46e-03	0	42	0	78643200	23	4575
2026-01-30 08:09:37.72	84.86	9.79	-30.9	-33.0	11.0	1.98e-03	0	42	0	80740352	23	4547
2026-01-30 08:09:38.73	84.73	9.85	-30.9	-32.9	11.0	2.01e-03	0	42	0	82837504	23	4524
2026-01-30 08:09:39.72	84.61	9.91	-30.8	-32.6	11.2	1.42e-03	0	42	0	83886080	23	4429
2026-01-30 08:09:40.73	84.48	9.97	-30.9	-32.8	11.1	1.38e-03	0	42	0	85983232	23	4490
2026-01-30 08:09:41.73	84.35	10.03	-30.9	-32.9	11.1	1.53e-03	0	42	0	88080384	23	4499
2026-01-30 08:09:42.74	84.22	10.09	-30.9	-32.7	11.2	1.67e-03	0	42	0	90177536	23	4448
2026-01-30 08:09:43.74	84.08	10.15	-30.9	-32.7	11.2	1.35e-03	0	42	0	92274688	23	4434
2026-01-30 08:09:44.75	83.95	10.22	-30.9	-32.7	11.3	1.26e-03	0	42	0	93323264	23	4424
2026-01-30 08:09:45.76	83.82	10.28	-30.9	-32.8	11.2	1.36e-03	0	42	0	95420416	23	4466
2026-01-30 08:09:46.76	83.69	10.34	-30.9	-32.8	11.1	1.45e-03	0	42	0	97517568	23	4485
2026-01-30 08:09:47.76	83.56	10.40	-31.1	-33.3	10.8	2.20e-03	0	42	0	99614720	23	4641
2026-01-30 08:09:48.76	83.42	10.46	-31.1	-33.4	10.7	2.33e-03	0	42	0	101711872	23	4686
2026-01-30 08:09:49.77	83.29	10.52	-31.0	-33.0	11.1	1.77e-03	0	42	0	102760448	23	4529
2026-01-30 08:09:50.77	83.15	10.58	-31.0	-33.3	10.8	1.96e-03	0	42	0	104857600	23	4640
2026-01-30 08:09:51.77	83.02	10.64	-30.9	-32.9	11.1	1.85e-03	0	42	0	106954752	23	4495
2026-01-30 08:09:52.77	82.88	10.70	-30.9	-32.7	11.2	1.22e-03	0	42	0	109051904	23	4438
2026-01-30 08:09:53.78	82.75	10.76	-31.0	-33.0	11.1	1.73e-03	0	42	0	111149056	23	4529
2026-01-30 08:09:54.78	82.61	10.82	-31.0	-33.0	11.0	1.56e-03	0	42	0	112197632	23	4533
2026-01-30 08:09:55.78	82.47	10.88	-31.0	-32.9	11.1	2.04e-03	0	42	0	114294784	23	4522
2026-01-30 08:09:56.78	82.33	10.94	-30.9	-32.9	11.0	1.71e-03	0	42	0	116391936	23	4544
2026-01-30 08:09:57.78	82.20	11.00	-30.9	-32.9	11.1	2.04e-03	0	42	0	118489088	23	4546
2026-01-30 08:09:58.79	82.06	11.07	-30.8	-32.8	11.2	1.34e-03	0	42	0	120586240	23	4493
2026-01-30 08:09:59.79	81.92	11.13	-30.7	-32.9	11.4	1.12e-03	0	42	0	121634816	22	4628
2026-01-30 08:10:00.79	81.78	11.19	-30.7	-32.7	11.5	7.76e-04	0	42	0	123731968	22	4547
2026-01-30 08:10:01.80	81.63	11.25	-30.8	-33.0	11.3	1.01e-03	0	42	0	125829120	22	4667
2026-01-30 08:10:02.80	81.49	11.31	-30.7	-33.0	11.4	1.29e-03	0	42	0	127926272	22	4647
2026-01-30 08:10:03.80	81.35	11.37	-30.8	-33.2	11.2	1.09e-03	0	43	0	130023424	22	4723
2026-01-30 08:10:04.80	81.21	11.43	-30.8	-33.2	11.2	1.30e-03	0	42	0	131072000	22	4722
2026-01-30 08:10:05.80	81.07	11.49	-30.8	-33.1	11.3	1.01e-03	0	42	0	133169152	22	4707
2026-01-30 08:10:06.80	80.92	11.55	-30.7	-32.9	11.4	8.18e-04	0	42	0	135266304	22	4623
2026-01-30 08:10:07.79	80.78	11.61	-30.8	-33.2	11.3	8.57e-04	0	42	0	137363456	22	4719
2026-01-30 08:10:08.80	80.63	11.67	-30.8	-33.0	11.3	1.03e-03	0	42	0	138412032	22	4669
2026-01-30 08:10:09.80	80.49	11.73	-30.8	-33.1	11.3	1.01e-03	0	42	0	140509184	22	4709
2026-01-30 08:10:10.80	80.34	11.79	-30.9	-33.4	11.1	1.31e-03	0	42	0	142606336	22	4816
2026-01-30 08:10:11.81	80.19	11.85	-31.0	-33.7	10.9	2.11e-03	0	42	0	144703488	22	4919
2026-01-30 08:10:12.81	80.05	11.91	-31.0	-33.8	10.8	2.64e-03	0	42	0	146800640	22	4975
2026-01-30 08:10:13.81	79.90	11.97	-31.2	-34.4	10.4	3.51e-03	0	42	0	147849216	22	5193
2026-01-30 08:10:14.82	79.75	12.03	-31.1	-34.2	10.6	4.83e-03	0	43	0	149946368	22	5109
2026-01-30 08:10:15.82	79.60	12.09	-31.0	-33.7	10.8	2.91e-03	0	43	0	152043520	22	4939
2026-01-30 08:10:16.82	79.45	12.15	-30.9	-33.5	11.0	2.31e-03	0	43	0	154140672	22	4841
2026-01-30 08:10:17.83	79.30	12.21	-31.0	-33.8	10.8	2.31e-03	0	42	0	156237824	22	4965
2026-01-30 08:10:18.83	79.15	12.27	-31.1	-34.2	10.5	3.88e-03	0	42	0	157286400	22	5141
2026-01-30 08:10:19.83	79.00	12.33	-31.2	-34.6	10.2	5.60e-03	0	42	0	159383552	22	5276
2026-01-30 08:10:20.83	78.84	12.39	-31.3	-34.7	10.1	7.42e-03	0	43	0	161480704	22	5324
2026-01-30 08:10:21.83	78.69	12.45	-31.3	-34.9	10.0	5.44e-03	0	42	0	163577856	22	5409
2026-01-30 08:10:22.83	78.54	12.51	-31.3	-34.6	10.3	6.04e-03	0	43	0	164626432	22	5304
2026-01-30 08:10:23.84	78.38	12.57	-31.1	-34.2	10.6	4.45e-03	0	42	0	166723584	22	5109
2026-01-30 08:10:24.85	78.23	12.63	-31.0	-33.9	10.8	3.20e-03	0	43	0	168820736	22	4978
2026-01-30 08:10:25.86	78.07	12.69	-31.1	-34.1	10.7	2.85e-03	0	43	0	170917888	22	5084
2026-01-30 08:10:26.86	77.91	12.75	-31.0	-33.9	10.8	2.56e-03	0	42	0	173015040	22	4988
2026-01-30 08:10:27.87	77.76	12.81	-31.0	-33.8	10.9	2.27e-03	0	43	0	175112192	22	4961
2026-01-30 08:10:28.87	77.60	12.87	-31.0	-33.8	10.9	2.75e-03	0	42	0	176160768	22	4951
2026-01-30 08:10:29.88	77.44	12.93	-31.0	-33.8	11.0	2.05e-03	0	42	0	178257920	22	4931
2026-01-30 08:10:30.88	77.28	12.99	-31.0	-33.8	10.9	2.34e-03	0	43	0	180355072	22	4946
2026-01-30 08:10:31.89	77.12	13.05	-31.0	-33.6	11.0	1.54e-03	0	43	0	182452224	22	4863
2026-01-30 08:10:32.89	76.96	13.11	-31.1	-33.8	10.9	1.86e-03	0	43	0	184549376	22	4963
2026-01-30 08:10:33.89	76.80	13.17	-31.0	-33.6	11.0	2.13e-03	0	43	0	185597952	22	4871
2026-01-30 08:10:34.90	76.64	13.22	-30.9	-33.3	11.3	1.38e-03	0	43	0	187695104	22	4774
2026-01-30 08:10:35.90	76.48	13.28	-31.0	-33.9	10.9	2.28e-03	0	43	0	189792256	22	4973
2026-01-30 08:10:36.91	76.31	13.34	-31.0	-33.6	11.0	2.26e-03	0	43	0	191889408	22	4856
2026-01-30 08:10:37.91	76.15	13.40	-31.0	-33.8	10.9	2.07e-03	0	43	0	192937984	22	4946
2026-01-30 08:10:38.91	75.98	13.46	-31.0	-33.6	11.1	1.74e-03	0	43	0	195035136	22	4871
2026-01-30 08:10:39.91	75.82	13.52	-31.0	-33.6	11.1	1.20e-03	0	43	0	197132288	22	4860
2026-01-30 08:10:40.92	75.65	13.58	-31.0	-33.5	11.2	1.21e-03	0	43	0	199229440	22	4811
2026-01-30 08:10:41.92	75.49	13.64	-30.8	-33.0	11.5	1.09e-03	0	43	0	201326592	22	4643
2026-01-30 08:10:42.92	75.32	13.69	-30.8	-33.2	11.4	7.57e-04	0	43	0	202375168	22	4700
2026-01-30 08:10:43.93	75.15	13.75	-30.7	-32.8	11.7	5.94e-04	0	43	0	204472320	22	4558
2026-01-30 08:10:44.93	74.99	13.81	-30.7	-32.8	11.6	5.91e-04	0	43	0	206569472	22	4566
2026-01-30 08:10:45.94	74.82	13.87	-30.8	-33.1	11.5	7.20e-04	0	43	0	208666624	22	4665
2026-01-30 08:10:46.94	74.65	13.93	-30.6	-32.3	12.0	4.81e-04	0	43	0	210763776	22	4403
2026-01-30 08:10:47.95	74.47	13.98	-30.5	-32.1	12.2	2.53e-04	0	43	0	211812352	22	4322
2026-01-30 08:10:48.95	74.30	14.04	-30.3	-31.6	12.5	1.31e-04	0	43	0	213909504	22	4158
2026-01-30 08:10:49.96	74.13	14.10	-30.3	-32.1	12.5	9.15e-05	0	43	0	216006656	21	4428
2026-01-30 08:10:50.96	73.96	14.16	-30.3	-32.0	12.5	1.17e-04	0	42	0	218103808	21	4402
2026-01-30 08:10:51.97	73.79	14.21	-30.1	-31.4	12.9	6.56e-05	0	43	0	220200960	21	4209
2026-01-30 08:10:52.97	73.61	14.27	-30.2	-31.8	12.7	6.10e-05	0	43	0	221249536	21	4321
2026-01-30 08:10:53.98	73.44	14.33	-30.3	-32.0	12.6	8.39e-05	0	43	0	223346688	21	4375
2026-01-30 08:10:54.98	73.26	14.38	-30.2	-31.7	12.7	8.54e-05	0	43	0	225443840	21	4304
2026-01-30 08:10:55.98	73.09	14.44	-30.1	-31.4	13.0	5.18e-05	0	43	0	227540992	21	4185
2026-01-30 08:10:56.98	72.91	14.50	-30.1	-31.4	13.0	4.11e-05	0	43	0	229638144	21	4199
2026-01-30 08:10:57.98	72.74	14.55	-29.9	-31.0	13.2	3.28e-05	0	43	0	230686720	21	4072
2026-01-30 08:10:58.98	72.56	14.61	-29.9	-31.0	13.3	2.28e-05	0	43	0	232783872	21	4055
2026-01-30 08:10:59.99	72.38	14.67	-30.1	-31.5	12.9	3.43e-05	0	43	0	234881024	21	4219
2026-01-30 08:11:00.99	72.20	14.72	-30.0	-31.1	13.2	2.36e-05	0	43	0	236978176	21	4100
2026-01-30 08:11:02.00	72.02	14.78	-29.8	-30.6	13.5	1.44e-05	0	43	0	239075328	21	3953
2026-01-30 08:11:03.00	71.84	14.83	-29.8	-30.6	13.5	9.90e-06	0	43	0	240123904	21	3947
2026-01-30 08:11:04.00	71.66	14.89	-29.9	-31.0	13.3	1.44e-05	0	43	0	242221056	21	4057
2026-01-30 08:11:05.01	71.48	14.94	-30.0	-31.1	13.3	1.60e-05	0	43	0	244318208	21	4081
2026-01-30 08:11:06.01	71.30	15.00	-30.1	-31.4	13.0	2.82e-05	0	43	0	246415360	21	4183
2026-01-30 08:11:07.01	71.11	15.05	-30.1	-31.3	13.1	4.73e-05	0	43	0	248512512	21	4171
2026-01-30 08:11:08.02	70.93	15.11	-30.2	-31.8	12.8	4.80e-05	0	43	0	249561088	21	4313
2026-01-30 08:11:09.02	70.74	15.16	-30.3	-32.0	12.6	7.24e-05	0	43	0	251658240	21	4389
2026-01-30 08:11:10.02	70.56	15.22	-30.3	-32.0	12.6	8.46e-05	0	43	0	253755392	21	4392
2026-01-30 08:11:11.02	70.37	15.27	-30.3	-32.0	12.7	6.86e-05	0	43	0	255852544	21	4386
2026-01-30 08:11:12.03	70.19	15.33	-30.3	-32.1	12.5	9.15e-05	0	43	0	256901120	21	4438
2026-01-30 08:11:13.03	70.00	15.38	-30.2	-31.9	12.7	6.94e-05	0	43	0	258998272	21	4365
2026-01-30 08:11:14.03	69.81	15.43	-30.3	-32.0	12.6	8.69e-05	0	43	0	261095424	21	4400
2026-01-30 08:11:15.03	69.62	15.49	-30.2	-31.6	12.9	8.92e-05	0	43	0	263192576	21	4268
2026-01-30 08:11:16.03	69.44	15.54	-30.1	-31.4	13.1	2.74e-05	0	43	0	265289728	21	4191
2026-01-30 08:11:17.04	69.25	15.59	-30.1	-31.4	13.1	3.43e-05	0	43	0	266338304	21	4181
2026-01-30 08:11:18.04	69.06	15.65	-30.2	-31.6	13.0	2.89e-05	0	43	0	268435456	21	4227
2026-01-30 08:11:19.05	68.86	15.70	-30.1	-31.3	13.1	2.74e-05	0	43	0	270532608	21	4150
2026-01-30 08:11:20.05	68.67	15.75	-30.1	-31.3	13.2	2.59e-05	0	43	0	272629760	21	4151
2026-01-30 08:11:21.05	68.48	15.80	-30.0	-31.0	13.4	2.59e-05	0	43	0	274726912	21	4067
2026-01-30 08:11:22.06	68.28	15.86	-30.0	-31.1	13.3	1.14e-05	0	43	0	275775488	21	4091
2026-01-30 08:11:23.06	68.09	15.91	-30.2	-31.5	13.1	2.44e-05	0	43	0	277872640	21	4199
2026-01-30 08:11:24.06	67.90	15.96	-30.2	-31.7	13.0	3.35e-05	0	43	0	279969792	21	4253
2026-01-30 08:11:25.07	67.70	16.01	-29.9	-30.9	13.5	1.98e-05	0	43	0	282066944	21	4026
2026-01-30 08:11:26.07	67.51	16.06	-29.9	-30.9	13.5	9.90e-06	0	43	0	284164096	21	4017
2026-01-30 08:11:27.06	67.31	16.11	-29.9	-30.7	13.6	1.37e-05	0	43	0	285212672	21	3973
2026-01-30 08:11:28.07	67.11	16.16	-29.9	-31.2	13.6	8.30e-06	0	43	0	287309824	20	4209
2026-01-30 08:11:29.07	66.92	16.21	-30.0	-31.6	13.3	1.52e-05	0	43	0	289406976	20	4324
2026-01-30 08:11:30.07	66.72	16.26	-30.0	-31.5	13.4	1.22e-05	0	43	0	291504128	20	4276
2026-01-30 08:11:31.07	66.52	16.31	-30.0	-31.6	13.4	1.37e-05	0	43	0	293601280	20	4321
2026-01-30 08:11:32.08	66.32	16.36	-29.8	-31.1	13.7	9.10e-06	0	43	0	294649856	20	4174
2026-01-30 08:11:33.08	66.12	16.41	-29.8	-30.9	13.8	3.80e-06	0	43	0	296747008	20	4091
2026-01-30 08:11:34.09	65.91	16.46	-29.8	-31.1	13.7	3.80e-06	0	43	0	298844160	20	4152
2026-01-30 08:11:35.10	65.71	16.51	-29.7	-30.8	13.9	1.50e-06	0	43	0	300941312	20	4064
2026-01-30 08:11:36.10	65.51	16.56	-29.6	-30.5	14.2	4.50e-06	0	43	0	303038464	20	3977
2026-01-30 08:11:37.11	65.30	16.61	-29.5	-30.1	14.4	2.20e-06	0	43	0	304087040	20	3860
2026-01-30 08:11:38.10	65.10	16.66	-29.4	-29.9	14.5	0.00e+00	0	43	0	306184192	20	3802
2026-01-30 08:11:39.11	64.90	16.71	-29.5	-30.2	14.3	7.00e-07	0	43	0	308281344	20	3900
2026-01-30 08:11:40.12	64.69	16.75	-29.4	-29.9	14.6	0.00e+00	0	43	0	310378496	20	3810
2026-01-30 08:11:41.12	64.49	16.80	-29.5	-30.2	14.3	2.20e-06	0	43	0	311427072	20	3886
2026-01-30 08:11:42.12	64.28	16.85	-29.5	-30.2	14.4	0.00e+00	0	43	0	313524224	20	3885
2026-01-30 08:11:43.13	64.07	16.89	-29.6	-30.3	14.3	7.00e-07	0	43	0	315621376	20	3920
2026-01-30 08:11:44.13	63.86	16.94	-29.3	-29.7	14.7	0.00e+00	0	43	0	317718528	20	3742
2026-01-30 08:11:45.14	63.65	16.99	-29.4	-29.7	14.6	7.00e-07	0	43	0	319815680	20	3762
2026-01-30 08:11:46.15	63.44	17.03	-29.6	-30.3	14.3	7.00e-07	0	43	0	321912832	20	3923
2026-01-30 08:11:47.15	63.23	17.08	-29.7	-30.7	14.1	1.50e-06	0	43	0	322961408	20	4019
2026-01-30 08:11:48.15	63.02	17.12	-29.7	-30.5	14.1	7.00e-07	0	43	0	325058560	20	3978
2026-01-30 08:11:49.15	62.81	17.17	-29.6	-30.3	14.3	7.00e-07	0	43	0	327155712	20	3928
2026-01-30 08:11:50.16	62.60	17.21	-29.5	-30.2	14.3	1.50e-06	0	43	0	329252864	20	3890
2026-01-30 08:11:51.17	62.39	17.26	-29.8	-31.0	13.9	2.20e-06	0	43	0	330301440	20	4120
2026-01-30 08:11:52.17	62.17	17.30	-29.9	-31.2	13.7	3.00e-06	0	43	0	332398592	20	4179
2026-01-30 08:11:53.18	61.96	17.35	-30.0	-31.4	13.6	3.80e-06	0	43	0	334495744	20	4258
2026-01-30 08:11:54.18	61.75	17.39	-30.0	-31.5	13.5	8.30e-06	0	43	0	336592896	20	4268
2026-01-30 08:11:55.19	61.53	17.43	-30.0	-31.5	13.5	9.10e-06	0	43	0	338690048	20	4273
2026-01-30 08:11:56.19	61.31	17.47	-29.9	-31.3	13.6	7.60e-06	0	43	0	339738624	20	4230
2026-01-30 08:11:57.19	61.10	17.52	-30.0	-31.3	13.7	6.80e-06	0	43	0	341835776	20	4213
2026-01-30 08:11:58.19	60.88	17.56	-30.0	-31.4	13.6	6.80e-06	0	43	0	343932928	20	4225
2026-01-30 08:11:59.19	60.67	17.60	-29.8	-30.8	14.0	4.50e-06	0	43	0	346030080	20	4065
2026-01-30 08:12:00.19	60.45	17.64	-29.6	-30.4	14.2	2.20e-06	0	43	0	348127232	20	3947
2026-01-30 08:12:01.19	60.23	17.68	-29.5	-30.2	14.4	0.00e+00	0	43	0	349175808	20	3888
2026-01-30 08:12:02.20	60.01	17.72	-29.5	-30.2	14.4	7.00e-07	0	43	0	351272960	20	3885
2026-01-30 08:12:03.20	59.79	17.76	-29.4	-29.7	14.7	7.00e-07	0	43	0	353370112	20	3757
2026-01-30 08:12:04.20	59.57	17.80	-29.1	-29.7	15.1	0.00e+00	0	43	0	355467264	19	3820
2026-01-30 08:12:05.21	59.35	17.84	-29.2	-29.9	15.0	0.00e+00	0	43	0	357564416	19	3867
2026-01-30 08:12:06.21	59.13	17.88	-29.2	-29.9	15.0	0.00e+00	0	43	0	358612992	19	3874
2026-01-30 08:12:07.21	58.91	17.92	-29.2	-29.8	15.0	0.00e+00	0	43	0	360710144	19	3852
2026-01-30 08:12:08.22	58.69	17.96	-29.1	-29.6	15.1	0.00e+00	0	43	0	362807296	19	3791
2026-01-30 08:12:09.22	58.46	17.99	-29.0	-29.3	15.4	0.00e+00	0	43	0	364904448	19	3722
2026-01-30 08:12:10.23	58.24	18.03	-29.2	-29.7	15.1	0.00e+00	0	43	0	367001600	19	3827
2026-01-30 08:12:11.23	58.01	18.07	-29.3	-30.0	14.9	0.00e+00	0	43	0	368050176	19	3913
2026-01-30 08:12:12.23	57.79	18.11	-29.2	-29.6	15.1	0.00e+00	0	43	0	370147328	19	3806
2026-01-30 08:12:13.23	57.57	18.14	-29.1	-29.6	15.2	0.00e+00	0	43	0	372244480	19	3805
2026-01-30 08:12:14.23	57.34	18.18	-29.4	-30.2	14.8	0.00e+00	0	43	0	374341632	19	3976
2026-01-30 08:12:15.24	57.11	18.21	-29.4	-30.2	14.8	7.00e-07	0	43	0	376438784	19	3952
2026-01-30 08:12:16.24	56.89	18.25	-29.5	-30.6	14.6	0.00e+00	0	43	0	377487360	19	4060
2026-01-30 08:12:17.25	56.66	18.28	-29.6	-30.8	14.5	1.50e-06	0	43	0	379584512	19	4120
2026-01-30 08:12:18.25	56.43	18.32	-29.5	-30.4	14.7	7.00e-07	0	43	0	381681664	19	4015
2026-01-30 08:12:19.25	56.20	18.35	-29.6	-30.8	14.4	1.50e-06	0	43	0	383778816	19	4122
2026-01-30 08:12:20.26	55.97	18.38	-29.7	-31.1	14.2	3.00e-06	0	43	0	385875968	19	4220
2026-01-30 08:12:21.26	55.74	18.42	-29.7	-31.1	14.2	7.00e-07	0	43	0	386924544	19	4218
2026-01-30 08:12:22.27	55.51	18.45	-29.7	-31.0	14.3	1.50e-06	0	43	0	389021696	19	4185
2026-01-30 08:12:23.27	55.28	18.48	-29.6	-30.8	14.4	1.50e-06	0	43	0	391118848	19	4130
2026-01-30 08:12:24.27	55.05	18.51	-29.6	-30.9	14.3	1.50e-06	0	43	0	393216000	19	4176
2026-01-30 08:12:25.28	54.82	18.54	-29.6	-30.9	14.4	1.50e-06	0	43	0	394264576	19	4153
2026-01-30 08:12:26.28	54.59	18.58	-29.8	-31.4	14.1	2.20e-06	0	43	0	396361728	19	4301
2026-01-30 08:12:27.29	54.35	18.61	-30.0	-31.4	13.7	3.80e-06	0	43	0	398458880	20	4217
2026-01-30 08:12:28.29	54.12	18.64	-30.2	-32.0	13.3	1.60e-05	0	43	0	400556032	20	4407
2026-01-30 08:12:29.30	53.89	18.66	-30.2	-31.8	13.4	1.37e-05	0	43	0	402653184	20	4375
2026-01-30 08:12:30.30	53.66	18.69	-30.3	-32.3	13.1	2.67e-05	0	43	0	403701760	20	4521
2026-01-30 08:12:31.30	53.42	18.72	-30.2	-31.9	13.3	1.98e-05	0	43	0	405798912	20	4385
2026-01-30 08:12:32.30	53.19	18.75	-30.2	-32.0	13.3	1.67e-05	0	43	0	407896064	20	4411
2026-01-30 08:12:33.30	52.95	18.78	-30.2	-32.0	13.3	2.13e-05	0	43	0	409993216	20	4422
2026-01-30 08:12:34.31	52.72	18.80	-30.2	-31.9	13.3	9.90e-06	0	43	0	412090368	20	4370
2026-01-30 08:12:35.31	52.48	18.83	-30.2	-31.8	13.4	1.29e-05	0	43	0	413138944	20	4361
2026-01-30 08:12:36.31	52.25	18.86	-30.1	-31.8	13.5	1.22e-05	0	43	0	415236096	20	4336
2026-01-30 08:12:37.32	52.01	18.88	-30.0	-31.3	13.8	6.80e-06	0	43	0	417333248	20	4193
2026-01-30 08:12:38.32	51.77	18.91	-30.1	-31.6	13.6	6.10e-06	0	43	0	419430400	20	4283
2026-01-30 08:12:39.32	51.54	18.93	-30.3	-32.1	13.3	1.52e-05	0	43	0	421527552	20	4452
2026-01-30 08:12:40.32	51.30	18.96	-30.3	-32.3	13.1	1.29e-05	0	43	0	422576128	20	4507
2026-01-30 08:12:41.33	51.06	18.98	-30.3	-32.2	13.2	2.44e-05	0	43	0	424673280	20	4480
2026-01-30 08:12:42.34	50.82	19.00	-30.2	-32.0	13.3	2.59e-05	0	43	0	426770432	20	4422
2026-01-30 08:12:43.34	50.58	19.03	-30.3	-32.3	13.1	3.05e-05	0	43	0	428867584	20	4512
2026-01-30 08:12:44.34	50.34	19.05	-30.2	-32.0	13.2	2.59e-05	0	43	0	430964736	20	4432
2026-01-30 08:12:45.35	50.10	19.07	-30.1	-31.8	13.4	1.52e-05	0	43	0	432013312	20	4360
2026-01-30 08:12:46.35	49.86	19.09	-30.2	-31.9	13.3	1.67e-05	0	43	0	434110464	20	4394
2026-01-30 08:12:47.35	49.62	19.11	-30.3	-32.2	13.1	1.75e-05	0	43	0	436207616	20	4481
2026-01-30 08:12:48.35	49.38	19.13	-30.3	-32.3	13.1	2.44e-05	0	43	0	438304768	20	4522
2026-01-30 08:12:49.35	49.14	19.15	-30.6	-32.6	12.5	4.57e-05	0	43	0	440401920	21	4539
2026-01-30 08:12:50.35	48.90	19.17	-30.9	-33.5	11.9	1.72e-04	0	43	0	441450496	21	4850
2026-01-30 08:12:51.35	48.66	19.19	-30.9	-33.6	11.8	3.40e-04	0	43	0	443547648	21	4889
2026-01-30 08:12:52.35	48.42	19.21	-30.9	-33.2	11.8	7.51e-04	0	43	0	445644800	22	4663
2026-01-30 08:12:53.36	48.18	19.22	-30.8	-32.6	12.2	4.00e-04	0	43	0	447741952	22	4460
2026-01-30 08:12:54.36	47.94	19.24	-30.7	-32.5	12.3	2.21e-04	0	43	0	448790528	22	4436
2026-01-30 08:12:55.37	47.69	19.26	-30.7	-32.5	12.3	2.08e-04	0	43	0	450887680	22	4403
2026-01-30 08:12:56.37	47.45	19.27	-30.5	-31.9	12.7	1.07e-04	0	43	0	452984832	22	4218
2026-01-30 08:12:57.38	47.21	19.29	-30.3	-31.4	13.0	3.89e-05	0	43	0	455081984	22	4068
2026-01-30 08:12:58.38	46.96	19.30	-30.2	-31.6	13.1	3.43e-05	0	43	0	457179136	21	4216
2026-01-30 08:12:59.39	46.72	19.32	-30.2	-31.6	13.1	4.11e-05	0	43	0	458227712	21	4225
2026-01-30 08:13:00.39	46.47	19.33	-30.5	-32.5	12.6	4.11e-05	0	43	0	460324864	21	4495
2026-01-30 08:13:01.40	46.23	19.35	-30.6	-32.6	12.5	1.73e-04	0	43	0	462422016	21	4547
2026-01-30 08:13:02.40	45.99	19.36	-30.5	-32.5	12.6	7.09e-05	0	43	0	464519168	21	4519
2026-01-30 08:13:03.41	45.74	19.37	-30.5	-32.4	12.6	1.36e-04	0	43	0	466616320	21	4482
2026-01-30 08:13:04.41	45.50	19.38	-30.2	-31.5	13.2	5.26e-05	0	43	0	467664896	21	4200
2026-01-30 08:13:05.41	45.25	19.39	-30.1	-31.3	13.4	2.97e-05	0	43	0	469762048	21	4119
2026-01-30 08:13:06.42	45.01	19.40	-30.2	-31.4	13.3	1.14e-05	0	43	0	471859200	21	4168
2026-01-30 08:13:07.42	44.76	19.41	-30.2	-31.6	13.2	1.37e-05	0	43	0	473956352	21	4227
2026-01-30 08:13:08.42	44.52	19.42	-30.2	-31.4	13.3	2.21e-05	0	43	0	476053504	21	4148
2026-01-30 08:13:09.42	44.27	19.43	-30.0	-31.0	13.6	9.90e-06	0	43	0	477102080	21	4038
2026-01-30 08:13:10.42	44.03	19.44	-30.1	-31.2	13.4	6.10e-06	0	43	0	479199232	21	4087
2026-01-30 08:13:11.42	43.78	19.45	-30.0	-31.0	13.5	1.22e-05	0	43	0	481296384	21	4043
2026-01-30 08:13:12.43	43.54	19.46	-30.1	-31.2	13.4	9.90e-06	0	43	0	483393536	21	4109
2026-01-30 08:13:13.43	43.29	19.46	-30.2	-31.4	13.3	1.60e-05	0	43	0	485490688	21	4152
2026-01-30 08:13:14.43	43.05	19.47	-30.2	-31.6	13.1	2.21e-05	0	43	0	486539264	21	4232
2026-01-30 08:13:15.44	42.80	19.48	-30.3	-31.8	13.1	2.67e-05	0	43	0	488636416	21	4285
2026-01-30 08:13:16.44	42.55	19.48	-30.3	-31.9	12.9	5.56e-05	0	43	0	490733568	21	4304
2026-01-30 08:13:17.45	42.30	19.49	-30.2	-31.4	13.2	1.98e-05	0	43	0	492830720	21	4171
2026-01-30 08:13:18.45	42.06	19.49	-30.0	-31.0	13.5	1.14e-05	0	43	0	494927872	21	4054
2026-01-30 08:13:19.45	41.81	19.49	-30.0	-31.0	13.5	4.50e-06	0	43	0	495976448	21	4049
2026-01-30 08:13:20.45	41.57	19.50	-30.1	-31.3	13.4	9.10e-06	0	43	0	498073600	21	4119
2026-01-30 08:13:21.45	41.32	19.50	-30.2	-31.6	13.2	1.37e-05	0	43	0	500170752	21	4220
2026-01-30 08:13:22.45	41.08	19.50	-30.3	-31.7	13.1	3.12e-05	0	43	0	502267904	21	4233
2026-01-30 08:13:23.46	40.83	19.50	-30.3	-31.8	13.0	3.81e-05	0	43	0	504365056	21	4278
2026-01-30 08:13:24.46	40.58	19.50	-30.4	-32.0	12.9	6.40e-05	0	43	0	505413632	21	4330
2026-01-30 08:13:25.47	40.34	19.50	-30.5	-32.2	12.8	8.23e-05	0	43	0	507510784	21	4401
2026-01-30 08:13:26.47	40.09	19.50	-30.6	-32.5	12.6	7.17e-05	0	43	0	509607936	21	4496
2026-01-30 08:13:27.47	39.84	19.50	-30.6	-32.8	12.3	1.09e-04	0	43	0	511705088	21	4588
2026-01-30 08:13:28.48	39.60	19.50	-30.6	-32.7	12.4	1.40e-04	0	43	0	512753664	21	4576
2026-01-30 08:13:29.49	39.35	19.50	-30.8	-33.2	12.0	1.71e-04	0	43	0	514850816	21	4761
2026-01-30 08:13:30.49	39.10	19.49	-30.7	-32.9	12.2	3.73e-04	0	43	0	516947968	21	4650
2026-01-30 08:13:31.49	38.86	19.49	-30.7	-33.0	12.2	2.66e-04	0	43	0	519045120	21	4661
2026-01-30 08:13:32.50	38.61	19.49	-30.6	-32.6	12.5	1.87e-04	0	43	0	521142272	21	4546
2026-01-30 08:13:33.50	38.36	19.48	-30.5	-32.3	12.7	8.08e-05	0	43	0	522190848	21	4437
2026-01-30 08:13:34.50	38.12	19.48	-30.4	-32.0	12.9	4.65e-05	0	43	0	524288000	21	4338
2026-01-30 08:13:35.50	37.87	19.47	-30.3	-31.8	13.1	3.81e-05	0	43	0	526385152	21	4272
2026-01-30 08:13:36.51	37.63	19.47	-30.1	-31.1	13.5	4.04e-05	0	43	0	528482304	21	4036
2026-01-30 08:13:37.51	37.38	19.46	-29.6	-30.4	14.2	1.50e-06	0	43	0	530579456	20	3933
2026-01-30 08:13:38.52	37.13	19.45	-29.6	-30.3	14.3	1.50e-06	0	43	0	531628032	20	3904
2026-01-30 08:13:39.52	36.89	19.45	-29.4	-29.9	14.6	2.20e-06	0	43	0	533725184	20	3793
2026-01-30 08:13:40.52	36.64	19.44	-29.5	-29.9	14.5	7.00e-07	0	43	0	535822336	20	3810
2026-01-30 08:13:41.53	36.40	19.43	-29.4	-29.9	14.6	7.00e-07	0	43	0	537919488	20	3791
2026-01-30 08:13:42.53	36.15	19.42	-29.6	-30.2	14.4	0.00e+00	0	43	0	540016640	20	3884
2026-01-30 08:13:43.53	35.91	19.41	-29.6	-30.4	14.2	2.20e-06	0	43	0	541065216	20	3925
2026-01-30 08:13:44.53	35.66	19.40	-29.6	-30.3	14.4	7.00e-07	0	43	0	543162368	20	3894
2026-01-30 08:13:45.54	35.42	19.39	-29.3	-29.9	14.9	7.00e-07	0	43	0	545259520	19	3883
2026-01-30 08:13:46.54	35.17	19.38	-29.3	-29.9	14.9	0.00e+00	0	43	0	547356672	19	3889
2026-01-30 08:13:47.55	34.93	19.37	-29.3	-30.1	14.8	0.00e+00	0	43	0	549453824	19	3943
2026-01-30 08:13:48.56	34.68	19.35	-29.3	-30.1	14.8	0.00e+00	0	43	0	550502400	19	3933
2026-01-30 08:13:49.56	34.44	19.34	-29.5	-30.5	14.6	0.00e+00	0	43	0	552599552	19	4031
2026-01-30 08:13:50.56	34.20	19.33	-29.4	-30.3	14.7	7.00e-07	0	43	0	554696704	19	3985
2026-01-30 08:13:51.57	33.95	19.31	-29.4	-30.3	14.7	0.00e+00	0	43	0	556793856	19	4002
2026-01-30 08:13:52.57	33.71	19.30	-29.5	-30.4	14.7	0.00e+00	0	43	0	558891008	19	4022
2026-01-30 08:13:53.57	33.47	19.28	-29.5	-30.5	14.6	0.00e+00	0	43	0	559939584	19	4041
2026-01-30 08:13:54.58	33.22	19.27	-29.2	-29.8	15.0	0.00e+00	0	43	0	562036736	19	3857
2026-01-30 08:13:55.58	32.98	19.25	-29.1	-29.6	15.1	1.50e-06	0	43	0	564133888	19	3796
2026-01-30 08:13:56.58	32.74	19.24	-29.1	-29.5	15.2	0.00e+00	0	43	0	566231040	19	3771
2026-01-30 08:13:57.59	32.50	19.22	-29.0	-29.1	15.4	0.00e+00	0	43	0	567279616	19	3678
2026-01-30 08:13:58.59	32.26	19.20	-29.1	-29.6	15.2	0.00e+00	0	43	0	569376768	19	3786
2026-01-30 08:13:59.59	32.01	19.18	-29.3	-29.9	15.0	0.00e+00	0	43	0	571473920	19	3857
2026-01-30 08:14:00.60	31.77	19.16	-29.2	-29.7	15.1	0.00e+00	0	43	0	573571072	19	3811
2026-01-30 08:14:01.61	31.53	19.14	-29.3	-30.0	14.9	0.00e+00	0	43	0	575668224	19	3905
2026-01-30 08:14:02.61	31.29	19.12	-29.3	-29.9	15.0	0.00e+00	0	43	0	577765376	19	3883
2026-01-30 08:14:03.61	31.05	19.10	-29.3	-29.9	15.0	0.00e+00	0	43	0	578813952	19	3882
2026-01-30 08:14:04.61	30.81	19.08	-29.2	-29.8	15.0	0.00e+00	0	43	0	580911104	19	3854
2026-01-30 08:14:05.62	30.57	19.06	-29.4	-30.2	14.9	0.00e+00	0	43	0	583008256	19	3954
2026-01-30 08:14:06.62	30.33	19.04	-29.3	-30.0	14.9	1.50e-06	0	43	0	585105408	19	3896
2026-01-30 08:14:07.62	30.09	19.02	-29.4	-30.2	14.8	0.00e+00	0	43	0	586153984	19	3947
2026-01-30 08:14:08.63	29.85	19.00	-29.5	-30.4	14.7	0.00e+00	0	43	0	588251136	19	4014
2026-01-30 08:14:09.62	29.62	18.97	-29.4	-30.2	14.8	7.00e-07	0	43	0	590348288	19	3956
2026-01-30 08:14:10.62	29.38	18.95	-29.2	-29.8	15.0	0.00e+00	0	43	0	592445440	19	3852
2026-01-30 08:14:11.62	29.15	18.92	-29.5	-30.5	14.6	7.00e-07	0	43	0	594542592	19	4027
2026-01-30 08:14:12.63	28.91	18.90	-29.6	-30.9	14.4	2.20e-06	0	43	0	595591168	19	4147
2026-01-30 08:14:13.63	28.67	18.87	-30.0	-31.7	13.8	2.20e-06	0	43	0	597688320	19	4405
2026-01-30 08:14:14.63	28.44	18.85	-30.0	-31.3	13.7	8.30e-06	0	43	0	599785472	20	4184
2026-01-30 08:14:15.63	28.20	18.82	-30.3	-32.3	13.1	1.22e-05	0	43	0	601882624	20	4510
2026-01-30 08:14:16.63	27.97	18.80	-30.3	-32.2	13.0	3.12e-05	0	43	0	603979776	20	4491
2026-01-30 08:14:17.63	27.73	18.77	-30.4	-32.6	12.9	6.17e-05	0	43	0	605028352	20	4603
2026-01-30 08:14:18.63	27.50	18.74	-30.5	-32.2	12.8	8.77e-05	0	43	0	607125504	21	4375
2026-01-30 08:14:19.63	27.27	18.71	-30.4	-32.1	12.8	1.04e-04	0	43	0	609222656	21	4345
2026-01-30 08:14:20.63	27.03	18.69	-30.5	-32.1	12.8	6.10e-05	0	43	0	611319808	21	4362
2026-01-30 08:14:21.64	26.80	18.66	-30.3	-31.7	13.1	3.28e-05	0	43	0	613416960	21	4234
2026-01-30 08:14:22.64	26.57	18.63	-30.3	-31.8	13.0	3.66e-05	0	43	0	614465536	21	4261
2026-01-30 08:14:23.64	26.34	18.60	-30.3	-31.8	13.1	3.58e-05	0	43	0	616562688	21	4254
2026-01-30 08:14:24.65	26.10	18.57	-30.5	-32.3	12.7	5.56e-05	0	43	0	618659840	21	4411
2026-01-30 08:14:25.65	25.87	18.54	-30.4	-32.0	12.8	8.08e-05	0	43	0	620756992	21	4344
2026-01-30 08:14:26.65	25.64	18.51	-30.6	-32.6	12.5	1.19e-04	0	43	0	622854144	21	4518
2026-01-30 08:14:27.66	25.41	18.47	-30.5	-32.3	12.7	9.00e-05	0	43	0	623902720	21	4408
2026-01-30 08:14:28.67	25.18	18.44	-30.5	-32.4	12.6	6.48e-05	0	43	0	625999872	21	4458
2026-01-30 08:14:29.67	24.95	18.41	-30.7	-32.9	12.3	1.50e-04	0	43	0	628097024	21	4629
2026-01-30 08:14:30.66	24.73	18.38	-30.7	-32.9	12.2	1.43e-04	0	43	0	630194176	21	4636
2026-01-30 08:14:31.67	24.50	18.34	-30.7	-32.8	12.3	2.14e-04	0	43	0	631242752	21	4598
2026-01-30 08:14:32.68	24.27	18.31	-30.9	-33.4	11.9	3.01e-04	0	43	0	633339904	21	4812
2026-01-30 08:14:33.68	24.04	18.27	-30.8	-33.2	12.1	3.41e-04	0	43	0	635437056	21	4730
2026-01-30 08:14:34.68	23.81	18.24	-30.6	-32.5	12.6	2.24e-04	0	43	0	637534208	21	4487
2026-01-30 08:14:35.67	23.59	18.21	-30.2	-31.5	13.2	5.34e-05	0	43	0	639631360	21	4177
2026-01-30 08:14:36.68	23.36	18.17	-30.0	-30.9	13.6	1.14e-05	0	43	0	640679936	21	3991
2026-01-30 08:14:37.68	23.14	18.13	-29.9	-30.6	13.8	5.30e-06	0	43	0	642777088	21	3907
2026-01-30 08:14:38.69	22.91	18.10	-29.9	-30.5	13.8	4.50e-06	0	43	0	644874240	21	3888
2026-01-30 08:14:39.69	22.69	18.06	-30.0	-30.8	13.6	9.90e-06	0	43	0	646971392	21	3975
2026-01-30 08:14:40.69	22.47	18.02	-30.1	-31.2	13.4	1.44e-05	0	43	0	649068544	21	4080
2026-01-30 08:14:41.70	22.24	17.99	-30.1	-31.2	13.4	9.90e-06	0	43	0	650117120	21	4095
2026-01-30 08:14:42.70	22.02	17.95	-30.2	-31.4	13.2	2.74e-05	0	43	0	652214272	21	4135
2026-01-30 08:14:43.69	21.80	17.91	-30.1	-31.1	13.4	2.05e-05	0	43	0	654311424	21	4048
2026-01-30 08:14:44.70	21.58	17.87	-30.1	-31.0	13.4	8.30e-06	0	43	0	656408576	21	4037
2026-01-30 08:14:45.70	21.36	17.83	-30.1	-31.3	13.3	2.13e-05	0	43	0	658505728	21	4104
2026-01-30 08:14:46.70	21.14	17.79	-30.0	-31.0	13.5	1.22e-05	0	43	0	659554304	21	4034
2026-01-30 08:14:47.70	20.92	17.75	-29.8	-30.4	13.8	1.50e-06	0	43	0	661651456	21	3863
2026-01-30 08:14:48.70	20.70	17.71	-29.8	-30.9	13.9	2.20e-06	0	43	0	663748608	20	4079
2026-01-30 08:14:49.71	20.48	17.67	-29.6	-30.4	14.1	3.00e-06	0	43	0	665845760	20	3952
2026-01-30 08:14:50.70	20.27	17.63	-29.4	-29.9	14.5	0.00e+00	0	43	0	667942912	20	3803
2026-01-30 08:14:51.71	20.05	17.59	-29.4	-29.8	14.5	0.00e+00	0	43	0	668991488	20	3788
2026-01-30 08:14:52.72	19.83	17.55	-29.3	-29.7	14.6	0.00e+00	0	43	0	671088640	20	3751
2026-01-30 08:14:53.71	19.62	17.51	-29.4	-29.8	14.5	1.50e-06	0	43	0	673185792	20	3764
2026-01-30 08:14:54.72	19.40	17.47	-29.3	-30.0	14.8	0.00e+00	0	43	0	675282944	19	3915
2026-01-30 08:14:55.72	19.19	17.42	-29.4	-30.4	14.5	0.00e+00	0	43	0	676331520	19	4021
2026-01-30 08:14:56.72	18.98	17.38	-29.3	-30.2	14.7	0.00e+00	0	43	0	678428672	19	3958
2026-01-30 08:14:57.73	18.76	17.34	-29.6	-30.7	14.3	2.20e-06	0	43	0	680525824	19	4113
2026-01-30 08:14:58.73	18.55	17.29	-29.8	-31.5	13.9	2.20e-06	0	43	0	682622976	19	4339
2026-01-30 08:14:59.73	18.34	17.25	-30.3	-32.3	12.9	1.83e-05	0	43	0	684720128	20	4522
2026-01-30 08:15:00.74	18.13	17.21	-30.6	-32.8	12.2	1.26e-04	0	43	0	685768704	21	4602
2026-01-30 08:15:01.74	17.92	17.16	-30.7	-33.0	12.1	1.82e-04	0	43	0	687865856	21	4687
2026-01-30 08:15:02.75	17.70	17.12	-30.7	-32.9	12.2	2.52e-04	0	43	0	689963008	21	4644
2026-01-30 08:15:03.75	17.49	17.07	-30.5	-32.4	12.5	1.46e-04	0	43	0	692060160	21	4478
2026-01-30 08:15:04.75	17.29	17.03	-30.6	-32.7	12.3	1.46e-04	0	43	0	694157312	21	4563
2026-01-30 08:15:05.76	17.08	16.98	-30.5	-32.4	12.4	2.12e-04	0	43	0	695205888	21	4483
2026-01-30 08:15:06.76	16.87	16.93	-30.6	-32.8	12.2	2.27e-04	0	43	0	697303040	21	4607
2026-01-30 08:15:07.77	16.66	16.89	-30.6	-32.7	12.3	1.97e-04	0	43	0	699400192	21	4573
2026-01-30 08:15:08.77	16.46	16.84	-30.7	-33.0	12.1	1.94e-04	0	43	0	701497344	21	4688
2026-01-30 08:15:09.77	16.25	16.79	-31.0	-33.8	11.5	6.35e-04	0	43	0	703594496	21	4992
2026-01-30 08:15:10.77	16.05	16.75	-31.1	-33.6	11.4	6.89e-04	0	43	0	704643072	22	4813
2026-01-30 08:15:11.78	15.84	16.70	-30.9	-33.2	11.6	9.71e-04	0	43	0	706740224	22	4669
2026-01-30 08:15:12.78	15.64	16.65	-31.0	-33.4	11.4	8.57e-04	0	43	0	708837376	22	4738
2026-01-30 08:15:13.78	15.43	16.60	-30.9	-33.0	11.7	6.89e-04	0	43	0	710934528	22	4608
2026-01-30 08:15:14.78	15.23	16.56	-30.6	-32.1	12.3	2.52e-04	0	43	0	713031680	22	4301
2026-01-30 08:15:15.78	15.03	16.51	-30.3	-31.3	12.9	1.05e-04	0	43	0	714080256	22	4035
2026-01-30 08:15:16.79	14.83	16.46	-30.1	-31.1	13.2	1.83e-05	0	43	0	716177408	21	4078
2026-01-30 08:15:17.78	14.63	16.41	-30.0	-31.1	13.4	1.90e-05	0	43	0	718274560	21	4051
2026-01-30 08:15:18.79	14.43	16.36	-29.8	-30.4	13.8	1.22e-05	0	43	0	720371712	21	3858
2026-01-30 08:15:19.79	14.23	16.31	-29.7	-30.8	13.8	3.80e-06	0	43	0	722468864	20	4053
2026-01-30 08:15:20.79	14.03	16.26	-29.7	-30.6	13.9	5.30e-06	0	43	0	723517440	20	4013
2026-01-30 08:15:21.79	13.84	16.21	-29.8	-30.9	13.7	3.00e-06	0	43	0	725614592	20	4103
2026-01-30 08:15:22.79	13.64	16.16	-29.8	-31.0	13.7	9.10e-06	0	43	0	727711744	20	4137
2026-01-30 08:15:23.79	13.45	16.11	-29.9	-31.2	13.5	1.37e-05	0	43	0	729808896	20	4190
2026-01-30 08:15:24.79	13.25	16.06	-30.2	-31.9	13.1	1.22e-05	0	43	0	730857472	20	4423
2026-01-30 08:15:25.80	13.05	16.01	-30.2	-32.2	12.9	2.36e-05	0	43	0	732954624	20	4496
2026-01-30 08:15:26.80	12.86	15.96	-30.4	-32.7	12.6	7.93e-05	0	43	0	735051776	20	4678
2026-01-30 08:15:27.80	12.67	15.90	-30.4	-32.2	12.5	1.25e-04	0	43	0	737148928	21	4435
2026-01-30 08:15:28.81	12.47	15.85	-30.5	-32.6	12.3	1.78e-04	0	43	0	739246080	21	4546
2026-01-30 08:15:29.81	12.28	15.80	-30.6	-32.6	12.2	2.17e-04	0	43	0	740294656	21	4567
2026-01-30 08:15:30.81	12.09	15.75	-30.4	-32.1	12.5	1.14e-04	0	43	0	742391808	21	4392
2026-01-30 08:15:31.82	11.90	15.70	-30.1	-31.4	13.0	4.19e-05	0	43	0	744488960	21	4174
2026-01-30 08:15:32.82	11.71	15.64	-30.0	-31.0	13.4	1.83e-05	0	43	0	746586112	21	4030
2026-01-30 08:15:33.82	11.52	15.59	-30.1	-31.3	13.1	3.05e-05	0	43	0	748683264	21	4136
2026-01-30 08:15:34.83	11.33	15.54	-30.0	-31.1	13.2	1.52e-05	0	43	0	749731840	21	4064
2026-01-30 08:15:35.84	11.14	15.48	-30.2	-31.5	13.0	2.89e-05	0	43	0	751828992	21	4207
2026-01-30 08:15:36.84	10.95	15.43	-30.3	-31.8	12.8	4.65e-05	0	43	0	753926144	21	4288
2026-01-30 08:15:37.84	10.77	15.38	-30.5	-32.6	12.3	1.20e-04	0	43	0	756023296	21	4543
2026-01-30 08:15:38.84	10.58	15.32	-30.7	-33.0	11.9	2.44e-04	0	43	0	758120448	21	4710
2026-01-30 08:15:39.85	10.39	15.27	-30.9	-33.8	11.3	7.01e-04	0	43	0	759169024	21	5016
2026-01-30 08:15:40.84	10.21	15.22	-31.0	-33.6	11.2	1.61e-03	0	43	0	761266176	22	4820
2026-01-30 08:15:41.84	10.03	15.16	-31.1	-33.8	10.9	1.82e-03	0	43	0	763363328	22	4934
2026-01-30 08:15:42.85	9.84	15.11	-31.2	-34.2	10.7	2.35e-03	0	43	0	765460480	22	5058
2026-01-30 08:15:43.86	9.66	15.05	-31.2	-34.0	10.9	2.18e-03	0	43	0	767557632	22	4998
2026-01-30 08:15:44.86	9.48	15.00	-31.0	-33.5	11.3	1.39e-03	0	43	0	768606208	22	4793
2026-01-30 08:15:45.86	9.30	14.94	-30.8	-32.9	11.7	9.22e-04	0	43	0	770703360	22	4568
2026-01-30 08:15:46.87	9.11	14.89	-30.7	-32.7	11.8	6.66e-04	0	43	0	772800512	22	4499
2026-01-30 08:15:47.87	8.93	14.83	-30.7	-32.7	11.8	3.91e-04	0	43	0	774897664	22	4493
2026-01-30 08:15:48.87	8.76	14.78	-31.0	-33.5	11.4	5.77e-04	0	43	0	776994816	22	4776
2026-01-30 08:15:49.88	8.58	14.72	-30.8	-32.7	11.8	9.88e-04	0	43	0	778043392	22	4512
2026-01-30 08:15:50.88	8.40	14.66	-30.8	-32.9	11.6	6.69e-04	0	43	0	780140544	22	4570
2026-01-30 08:15:51.88	8.22	14.61	-30.7	-32.7	11.8	6.38e-04	0	43	0	782237696	22	4497
2026-01-30 08:15:52.88	8.05	14.55	-30.8	-32.8	11.7	5.79e-04	0	43	0	784334848	22	4528
2026-01-30 08:15:53.88	7.87	14.50	-30.6	-32.4	11.9	3.91e-04	0	43	0	786432000	22	4411
2026-01-30 08:15:54.89	7.69	14.44	-30.5	-32.1	12.2	2.57e-04	0	43	0	787480576	22	4317
2026-01-30 08:15:55.90	7.52	14.38	-30.6	-32.1	12.2	2.19e-04	0	43	0	789577728	22	4324
2026-01-30 08:15:56.91	7.34	14.33	-30.8	-32.8	11.8	3.40e-04	0	44	0	791674880	22	4530
2026-01-30 08:15:57.91	7.17	14.27	-31.0	-33.5	11.2	7.96e-04	0	43	0	793772032	22	4784
2026-01-30 08:15:58.91	7.00	14.21	-31.0	-33.4	11.2	1.25e-03	0	43	0	794820608	22	4775
2026-01-30 08:15:59.92	6.83	14.16	-31.1	-33.8	11.0	1.45e-03	0	43	0	796917760	22	4909
2026-01-30 08:16:00.92	6.65	14.10	-31.1	-33.9	10.8	2.22e-03	0	44	0	799014912	22	4974
2026-01-30 08:16:01.92	6.48	14.04	-31.1	-33.7	11.0	1.97e-03	0	43	0	801112064	22	4871
2026-01-30 08:16:02.93	6.31	13.98	-31.0	-33.5	11.2	1.59e-03	0	43	0	803209216	22	4782
2026-01-30 08:16:03.93	6.14	13.93	-30.8	-32.7	11.7	6.90e-04	0	43	0	805306368	22	4516
2026-01-30 08:16:04.93	5.98	13.87	-30.8	-32.8	11.8	5.40e-04	0	43	0	806354944	22	4531
2026-01-30 08:16:05.94	5.81	13.81	-30.8	-32.8	11.7	5.23e-04	0	43	0	808452096	22	4524
2026-01-30 08:16:06.95	5.64	13.75	-30.7	-32.4	12.0	4.85e-04	0	43	0	810549248	22	4417
2026-01-30 08:16:07.95	5.47	13.69	-30.8	-32.9	11.7	4.26e-04	0	43	0	812646400	22	4556
2026-01-30 08:16:08.95	5.31	13.64	-30.7	-32.6	11.8	5.87e-04	0	43	0	813694976	22	4470
2026-01-30 08:16:09.95	5.14	13.58	-31.0	-33.4	11.2	6.71e-04	0	44	0	815792128	22	4774
2026-01-30 08:16:10.95	4.98	13.52	-30.8	-32.9	11.6	9.31e-04	0	44	0	817889280	22	4575
2026-01-30 08:16:11.95	4.82	13.46	-30.7	-32.6	11.8	5.52e-04	0	43	0	819986432	22	4462
2026-01-30 08:16:12.95	4.65	13.40	-30.6	-32.2	12.1	3.49e-04	0	43	0	822083584	22	4325
2026-01-30 08:16:13.96	4.49	13.35	-30.5	-32.1	12.1	2.67e-04	0	43	0	823132160	22	4303
2026-01-30 08:16:14.97	4.33	13.29	-30.5	-32.1	12.1	2.72e-04	0	43	0	825229312	22	4322
2026-01-30 08:16:15.97	4.17	13.23	-30.6	-32.4	12.0	3.16e-04	0	43	0	827326464	22	4399
2026-01-30 08:16:16.97	4.01	13.17	-30.7	-32.6	11.8	3.51e-04	0	43	0	829423616	22	4470
2026-01-30 08:16:17.98	3.84	13.11	-30.5	-32.1	12.1	2.65e-04	0	43	0	831520768	22	4312
2026-01-30 08:16:18.98	3.69	13.05	-30.5	-31.9	12.2	2.16e-04	0	43	0	832569344	22	4260
2026-01-30 08:16:19.98	3.53	12.99	-30.4	-31.7	12.4	1.62e-04	0	43	0	834666496	22	4173
2026-01-30 08:16:20.98	3.37	12.93	-30.4	-31.6	12.4	1.33e-04	0	43	0	836763648	22	4157
2026-01-30 08:16:21.98	3.21	12.87	-30.4	-31.7	12.4	1.46e-04	0	43	0	838860800	22	4165
2026-01-30 08:16:22.98	3.06	12.82	-30.3	-31.3	12.6	1.43e-04	0	43	0	840957952	22	4057
2026-01-30 08:16:23.99	2.90	12.76	-30.1	-31.5	12.8	7.01e-05	0	43	0	842006528	21	4195
2026-01-30 08:16:25.00	2.74	12.70	-30.2	-31.7	12.7	7.17e-05	0	43	0	844103680	21	4272
2026-01-30 08:16:25.99	2.59	12.64	-30.0	-31.1	13.1	5.41e-05	0	43	0	846200832	21	4086
2026-01-30 08:16:27.00	2.44	12.58	-29.8	-30.6	13.4	2.51e-05	0	43	0	848297984	21	3933
2026-01-30 08:16:28.00	2.28	12.52	-29.7	-30.9	13.6	3.80e-06	0	43	0	850395136	20	4092
2026-01-30 08:16:29.00	2.13	12.46	-29.5	-30.2	14.0	3.00e-06	0	43	0	851443712	20	3892
2026-01-30 08:16:30.01	1.98	12.40	-29.3	-30.2	14.4	0.00e+00	0	43	0	853540864	19	3991
2026-01-30 08:16:31.02	1.82	12.34	-29.3	-30.2	14.4	7.00e-07	0	43	0	855638016	19	3979
2026-01-30 08:16:32.02	1.67	12.28	-29.2	-30.0	14.5	0.00e+00	0	43	0	857735168	19	3922
2026-01-30 08:16:33.02	1.52	12.22	-29.2	-30.0	14.5	0.00e+00	0	43	0	858783744	19	3934
2026-01-30 08:16:34.02	1.37	12.16	-29.3	-30.2	14.4	0.00e+00	0	43	0	860880896	19	3972
2026-01-30 08:16:35.02	1.23	12.10	-29.5	-30.7	14.0	1.50e-06	0	43	0	862978048	19	4126
2026-01-30 08:16:36.03	1.08	12.04	-29.7	-31.2	13.7	5.30e-06	0	43	0	865075200	19	4288
2026-01-30 08:16:37.03	0.93	11.98	-29.8	-31.6	13.5	3.00e-06	0	43	0	867172352	19	4399
2026-01-30 08:16:38.03	0.78	11.92	-30.0	-32.0	13.3	2.21e-05	0	43	0	868220928	19	4526
2026-01-30 08:16:39.03	0.64	11.86	-30.0	-31.6	13.0	2.67e-05	0	43	0	870318080	20	4323
2026-01-30 08:16:40.04	0.49	11.80	-30.0	-31.6	13.0	3.05e-05	0	43	0	872415232	20	4325
2026-01-30 08:16:41.04	0.34	11.74	-30.1	-31.9	12.8	4.95e-05	0	43	0	874512384	20	4433
2026-01-30 08:16:42.04	0.20	11.68	-30.1	-31.8	12.9	6.02e-05	0	43	0	876609536	20	4407
2026-01-30 08:16:43.04	0.06	11.62	-30.0	-31.5	13.1	3.43e-05	0	43	0	877658112	20	4305
2026-01-30 08:16:44.04	359.91	11.56	-30.0	-31.4	13.1	3.12e-05	0	43	0	879755264	20	4275
2026-01-30 08:16:45.04	359.77	11.50	-30.0	-31.5	13.0	3.20e-05	0	43	0	881852416	20	4296
2026-01-30 08:16:46.05	359.63	11.44	-29.7	-30.8	13.5	2.59e-05	0	43	0	883949568	20	4089
2026-01-30 08:16:47.05	359.49	11.38	-29.6	-30.5	13.7	6.10e-06	0	43	0	886046720	20	4005
2026-01-30 08:16:48.06	359.34	11.32	-29.6	-30.4	13.8	3.80e-06	0	43	0	887095296	20	3950
2026-01-30 08:16:49.07	359.20	11.26	-29.4	-30.1	14.0	5.30e-06	0	43	0	889192448	20	3872
2026-01-30 08:16:50.07	359.06	11.20	-29.5	-30.3	13.8	3.00e-06	0	43	0	891289600	20	3939
2026-01-30 08:16:51.07	358.92	11.14	-29.6	-30.4	13.7	3.80e-06	0	44	0	893386752	20	3975
2026-01-30 08:16:52.07	358.78	11.08	-29.5	-30.4	13.7	7.60e-06	0	43	0	895483904	20	3968
2026-01-30 08:16:53.08	358.65	11.01	-29.8	-31.2	13.2	1.14e-05	0	43	0	896532480	20	4206
2026-01-30 08:16:54.08	358.51	10.95	-29.8	-31.0	13.4	1.90e-05	0	43	0	898629632	20	4139
2026-01-30 08:16:55.07	358.37	10.89	-29.9	-31.4	13.1	1.60e-05	0	43	0	900726784	20	4277
2026-01-30 08:16:56.07	358.24	10.83	-29.8	-31.1	13.2	3.28e-05	0	43	0	902823936	20	4185
2026-01-30 08:16:57.08	358.10	10.77	-30.1	-31.9	12.7	4.11e-05	0	43	0	903872512	20	4451
2026-01-30 08:16:58.08	357.96	10.71	-30.3	-32.5	12.4	1.30e-04	0	43	0	905969664	20	4633
2026-01-30 08:16:59.08	357.83	10.65	-30.2	-32.3	12.4	1.26e-04	0	43	0	908066816	20	4579
2026-01-30 08:17:00.09	357.70	10.59	-30.4	-32.7	12.2	1.63e-04	0	43	0	910163968	20	4688
2026-01-30 08:17:01.09	357.56	10.53	-30.3	-32.4	12.4	2.48e-04	0	43	0	912261120	20	4605
2026-01-30 08:17:02.09	357.43	10.47	-30.4	-32.9	12.0	3.13e-04	0	43	0	913309696	20	4801
2026-01-30 08:17:03.10	357.30	10.41	-30.5	-32.5	11.9	3.86e-04	0	43	0	915406848	21	4553
2026-01-30 08:17:04.10	357.16	10.35	-30.7	-33.1	11.5	4.20e-04	0	43	0	917504000	21	4768
2026-01-30 08:17:05.11	357.03	10.29	-30.4	-32.2	12.2	2.98e-04	0	43	0	919601152	21	4432
2026-01-30 08:17:06.11	356.90	10.23	-30.1	-31.3	12.7	1.17e-04	0	43	0	921698304	21	4165
2026-01-30 08:17:07.12	356.77	10.17	-30.0	-31.0	12.9	8.77e-05	0	43	0	922746880	21	4074
2026-01-30 08:17:08.12	356.64	10.11	-29.9	-30.8	13.1	4.19e-05	0	43	0	924844032	21	3997
2026-01-30 08:17:09.12	356.51	10.05	-30.0	-31.5	13.0	2.44e-05	0	43	0	926941184	20	4308
2026-01-30 08:17:10.13	356.38	9.99	-29.6	-30.5	13.6	6.80e-06	0	43	0	929038336	20	3994
2026-01-30 08:17:11.13	356.26	9.93	-29.5	-30.4	13.7	9.90e-06	0	43	0	931135488	20	3976
2026-01-30 08:17:12.13	356.13	9.87	-29.6	-30.5	13.6	1.22e-05	0	43	0	932184064	20	4006
2026-01-30 08:17:13.13	356.00	9.81	-29.5	-30.3	13.7	5.30e-06	0	43	0	934281216	20	3952
2026-01-30 08:17:14.12	355.88	9.75	-29.7	-30.7	13.5	4.50e-06	0	43	0	936378368	20	4066
2026-01-30 08:17:15.12	355.75	9.69	-29.8	-31.0	13.3	1.22e-05	0	43	0	938475520	20	4149
2026-01-30 08:17:16.12	355.63	9.63	-30.0	-31.5	12.9	3.89e-05	0	43	0	940572672	20	4313
2026-01-30 08:17:17.13	355.50	9.56	-30.1	-32.0	12.6	8.77e-05	0	43	0	941621248	20	4451
2026-01-30 08:17:18.13	355.38	9.50	-30.5	-32.6	11.8	2.16e-04	0	43	0	943718400	21	4593
2026-01-30 08:17:19.13	355.25	9.44	-30.6	-32.8	11.7	5.04e-04	0	43	0	945815552	21	4649
2026-01-30 08:17:20.13	355.13	9.38	-30.6	-32.8	11.7	4.23e-04	0	43	0	947912704	21	4664
2026-01-30 08:17:21.13	355.01	9.32	-30.5	-32.6	11.8	5.61e-04	0	43	0	950009856	21	4578
2026-01-30 08:17:22.14	354.88	9.26	-30.5	-32.5	11.9	4.90e-04	0	43	0	951058432	21	4565
2026-01-30 08:17:23.14	354.76	9.20	-30.4	-32.5	11.9	5.02e-04	0	43	0	953155584	21	4547
2026-01-30 08:17:24.15	354.64	9.14	-30.3	-32.1	12.2	2.69e-04	0	43	0	955252736	21	4411
2026-01-30 08:17:25.15	354.52	9.08	-30.3	-32.2	12.1	1.81e-04	0	43	0	957349888	21	4440
2026-01-30 08:17:26.15	354.40	9.02	-30.2	-31.8	12.3	1.75e-04	0	44	0	958398464	21	4334
2026-01-30 08:17:27.16	354.28	8.96	-30.2	-31.8	12.3	2.02e-04	0	43	0	960495616	21	4310
2026-01-30 08:17:28.16	354.16	8.90	-30.0	-31.3	12.6	1.41e-04	0	43	0	962592768	21	4165
2026-01-30 08:17:29.16	354.04	8.84	-30.0	-31.2	12.7	7.62e-05	0	43	0	964689920	21	4135
2026-01-30 08:17:30.17	353.92	8.78	-30.0	-31.4	12.6	7.70e-05	0	43	0	966787072	21	4186
2026-01-30 08:17:31.18	353.81	8.72	-30.1	-31.4	12.5	7.78e-05	0	43	0	967835648	21	4215
2026-01-30 08:17:32.18	353.69	8.66	-30.2	-31.8	12.3	1.57e-04	0	43	0	969932800	21	4333
2026-01-30 08:17:33.18	353.57	8.60	-30.2	-31.7	12.3	1.73e-04	0	43	0	972029952	21	4301
2026-01-30 08:17:34.18	353.46	8.54	-30.3	-32.0	12.1	2.10e-04	0	43	0	974127104	21	4391
2026-01-30 08:17:35.18	353.34	8.48	-30.2	-31.8	12.3	2.42e-04	0	43	0	976224256	21	4321
2026-01-30 08:17:36.18	353.23	8.42	-30.3	-32.1	12.1	2.55e-04	0	43	0	977272832	21	4424
2026-01-30 08:17:37.19	353.11	8.36	-30.4	-32.5	11.7	4.81e-04	0	43	0	979369984	21	4579
2026-01-30 08:17:38.19	353.00	8.30	-30.4	-32.5	11.7	6.42e-04	0	44	0	981467136	21	4575
2026-01-30 08:17:39.19	352.88	8.24	-30.5	-32.9	11.5	7.35e-04	0	43	0	983564288	21	4709
2026-01-30 08:17:40.19	352.77	8.18	-30.6	-33.2	11.2	1.21e-03	0	43	0	985661440	21	4830
2026-01-30 08:17:41.20	352.66	8.12	-30.7	-33.3	11.1	1.43e-03	0	44	0	986710016	21	4890
2026-01-30 08:17:42.20	352.55	8.06	-30.8	-33.7	10.9	1.69e-03	0	43	0	988807168	21	5019
2026-01-30 08:17:43.20	352.43	8.00	-30.8	-33.6	10.9	2.00e-03	0	43	0	990904320	21	5007
2026-01-30 08:17:44.21	352.32	7.94	-30.8	-33.8	10.7	3.47e-03	0	43	0	993001472	21	5058
2026-01-30 08:17:45.21	352.21	7.88	-30.7	-33.5	10.9	2.40e-03	0	43	0	995098624	21	4963
2026-01-30 08:17:46.21	352.10	7.82	-30.7	-33.4	11.1	1.38e-03	0	43	0	996147200	21	4919
2026-01-30 08:17:47.22	351.99	7.76	-30.6	-33.1	11.2	1.30e-03	0	43	0	998244352	21	4813
2026-01-30 08:17:48.22	351.88	7.70	-30.6	-33.2	11.2	1.51e-03	0	43	0	1000341504	21	4838
2026-01-30 08:17:49.22	351.77	7.64	-30.5	-32.9	11.4	1.18e-03	0	43	0	1002438656	21	4708
2026-01-30 08:17:50.22	351.67	7.59	-30.6	-33.0	11.2	1.41e-03	0	43	0	1003487232	21	4784
2026-01-30 08:17:51.22	351.56	7.53	-30.6	-33.0	11.3	9.65e-04	0	43	0	1005584384	21	4781
2026-01-30 08:17:52.23	351.45	7.47	-30.6	-33.1	11.2	1.16e-03	0	43	0	1007681536	21	4819
2026-01-30 08:17:53.23	351.34	7.41	-30.5	-32.7	11.5	9.20e-04	0	43	0	1009778688	21	4676
2026-01-30 08:17:54.24	351.24	7.35	-30.5	-32.9	11.4	1.18e-03	0	43	0	1011875840	21	4726
2026-01-30 08:17:55.24	351.13	7.29	-30.7	-33.4	10.9	1.37e-03	0	43	0	1013972992	21	4933
2026-01-30 08:17:56.24	351.02	7.23	-30.8	-33.7	10.7	2.45e-03	0	43	0	1015021568	21	5058
2026-01-30 08:17:57.24	350.92	7.17	-30.8	-34.0	10.5	3.52e-03	0	43	0	1017118720	21	5157
2026-01-30 08:17:58.24	350.81	7.11	-31.0	-34.1	10.1	6.52e-03	0	43	0	1019215872	22	5127
2026-01-30 08:17:59.25	350.71	7.05	-31.5	-35.7	9.2	7.36e-03	0	43	0	1021313024	22	5865
2026-01-30 08:18:00.25	350.60	6.99	-33.3	-45.6	3.8	1.49e+00	0	43	104	1021313024	26	14782

#Closed at: 2026-01-30 08:18:01
#Recorded file [1021 MB]: D:/data/31010_260130_110854.dat