passes_logs/2026/01/30/R2M6_AANII_01/R2M6_AANII_01__20260130_122320_FENGYUN_3D_rec.log

#Pass ID: 20260130_122320_FENGYUN 3D
#Satellite: FENGYUN 3D
#Configuration: FENGYUN 3D
#almurnet v.1.7.20240730
#Start time: 2026-01-30 12:23:21

#Version: 2.2.20231116
#Station: R2M6_AANII_01
#Location: 30.233357 lon 59.946436 lat
#TLE: 1 43010U 17072A   26029.52179110  .00000394  00000+0  20818-3 0  9997
#TLE: 2 43010  98.9957   1.5649 0002507  83.7772 276.3689 14.19703315425310

#Time	Az	El	Level	Level2	SNR	BER	BlckErr	Temp	State	Recorded	gain1	gain2
2026-01-30 12:23:21.07	159.89	7.06	-29.8	-32.9	5.2	7.95e-01	0	41	0	0	21	5100
2026-01-30 12:23:22.07	159.89	7.14	-29.4	-31.9	5.4	7.89e-01	0	41	104	0	20	4835
2026-01-30 12:23:23.08	159.90	7.22	-29.6	-32.6	9.5	1.03e-02	0	41	0	0	20	5067
2026-01-30 12:23:24.09	159.90	7.30	-29.4	-31.8	10.0	8.02e-03	0	41	0	5242880	20	4792
2026-01-30 12:23:25.11	159.91	7.38	-29.3	-32.2	10.2	5.01e-03	0	41	0	11534336	19	5003
2026-01-30 12:23:26.12	159.91	7.46	-29.5	-32.6	9.9	6.09e-03	0	41	0	16777216	19	5154
2026-01-30 12:23:27.13	159.92	7.54	-29.3	-32.3	10.1	5.16e-03	0	41	0	23068672	19	5036
2026-01-30 12:23:28.14	159.92	7.62	-29.6	-32.9	9.7	6.30e-03	0	41	0	28311552	19	5277
2026-01-30 12:23:29.15	159.93	7.70	-30.0	-33.6	8.9	1.72e-02	0	41	0	33554432	20	5475
2026-01-30 12:23:30.16	159.93	7.78	-29.8	-33.1	9.2	1.81e-02	0	42	0	39845888	20	5281
2026-01-30 12:23:31.17	159.94	7.86	-29.4	-32.0	9.9	1.10e-02	0	41	0	45088768	20	4862
2026-01-30 12:23:32.18	159.94	7.94	-29.0	-31.3	10.8	2.75e-03	0	41	0	51380224	19	4714
2026-01-30 12:23:33.19	159.95	8.02	-28.5	-30.6	11.5	8.64e-04	0	41	0	56623104	18	4607
2026-01-30 12:23:34.20	159.95	8.10	-28.0	-30.0	12.3	1.96e-04	0	41	0	61865984	17	4503
2026-01-30 12:23:35.21	159.96	8.18	-27.6	-29.6	12.8	6.06e-05	0	41	0	68157440	16	4489
2026-01-30 12:23:36.22	159.96	8.27	-27.1	-28.8	13.4	8.00e-06	0	42	0	73400320	15	4376
2026-01-30 12:23:37.23	159.97	8.35	-26.7	-28.4	13.9	3.40e-06	0	42	0	79691776	14	4383
2026-01-30 12:23:38.24	159.98	8.43	-26.6	-28.1	14.1	2.20e-06	0	42	0	84934656	14	4284
2026-01-30 12:23:39.25	159.98	8.51	-26.6	-28.1	14.1	3.40e-06	0	42	0	90177536	14	4303
2026-01-30 12:23:40.26	159.99	8.60	-26.6	-28.2	14.0	1.10e-06	0	42	0	96468992	14	4333
2026-01-30 12:23:41.28	159.99	8.68	-26.7	-28.3	14.0	5.70e-06	0	42	0	101711872	14	4349
2026-01-30 12:23:42.29	160.00	8.77	-26.6	-28.2	14.0	1.10e-06	0	41	0	108003328	14	4325
2026-01-30 12:23:43.30	160.00	8.85	-26.7	-28.4	13.9	1.10e-06	0	42	0	113246208	14	4386
2026-01-30 12:23:44.31	160.01	8.93	-26.8	-28.5	13.9	9.10e-06	0	42	0	119537664	14	4389
2026-01-30 12:23:45.32	160.01	9.02	-26.8	-28.6	13.9	1.10e-06	0	42	0	124780544	14	4403
2026-01-30 12:23:46.33	160.02	9.10	-26.9	-28.7	13.8	1.10e-06	0	42	0	130023424	14	4451
2026-01-30 12:23:47.34	160.02	9.19	-26.8	-28.5	14.0	2.20e-06	0	42	0	136314880	14	4377
2026-01-30 12:23:48.35	160.03	9.28	-26.9	-28.6	13.9	4.50e-06	0	42	0	141557760	14	4414
2026-01-30 12:23:49.36	160.04	9.36	-27.1	-29.2	13.6	4.50e-06	0	42	0	147849216	14	4598
2026-01-30 12:23:50.37	160.04	9.45	-27.1	-29.2	13.6	1.10e-06	0	42	0	153092096	14	4573
2026-01-30 12:23:51.38	160.05	9.53	-27.2	-29.3	13.5	3.40e-06	0	42	0	159383552	14	4629
2026-01-30 12:23:52.40	160.05	9.62	-27.2	-29.4	13.5	1.37e-05	0	42	0	164626432	14	4644
2026-01-30 12:23:53.41	160.06	9.71	-27.3	-29.6	13.3	1.37e-05	0	42	0	169869312	14	4721
2026-01-30 12:23:54.42	160.06	9.80	-27.2	-29.4	13.5	5.70e-06	0	42	0	176160768	14	4657
2026-01-30 12:23:55.43	160.07	9.88	-27.2	-29.4	13.5	1.02e-05	0	42	0	181403648	14	4663
2026-01-30 12:23:56.44	160.07	9.97	-27.2	-29.5	13.4	9.10e-06	0	42	0	187695104	14	4690
2026-01-30 12:23:57.45	160.08	10.06	-27.3	-29.6	13.4	5.70e-06	0	42	0	192937984	14	4705
2026-01-30 12:23:58.46	160.09	10.15	-27.2	-29.6	13.4	4.50e-06	0	42	0	198180864	14	4701
2026-01-30 12:23:59.47	160.09	10.24	-27.3	-29.8	13.2	1.71e-05	0	42	0	204472320	14	4788
2026-01-30 12:24:00.48	160.10	10.33	-27.3	-29.7	13.3	5.70e-06	0	42	0	209715200	14	4751
2026-01-30 12:24:01.50	160.10	10.42	-27.5	-29.8	13.0	6.80e-06	0	42	0	216006656	15	4677
2026-01-30 12:24:02.51	160.11	10.51	-27.6	-30.0	12.9	4.00e-05	0	42	0	221249536	15	4733
2026-01-30 12:24:03.52	160.11	10.60	-27.5	-29.6	13.1	2.74e-05	0	42	0	227540992	15	4596
2026-01-30 12:24:04.53	160.12	10.69	-27.1	-28.8	13.6	6.80e-06	0	42	0	232783872	15	4356
2026-01-30 12:24:05.53	160.13	10.78	-26.8	-28.1	14.0	2.20e-06	0	42	0	238026752	15	4166
2026-01-30 12:24:06.54	160.13	10.87	-26.5	-27.9	14.4	1.10e-06	0	42	0	244318208	14	4199
2026-01-30 12:24:07.55	160.14	10.96	-26.2	-27.7	14.8	0.00e+00	0	42	0	249561088	13	4281
2026-01-30 12:24:08.57	160.14	11.05	-26.2	-27.7	14.8	0.00e+00	0	42	0	255852544	13	4260
2026-01-30 12:24:09.58	160.15	11.15	-26.3	-27.8	14.7	0.00e+00	0	42	0	261095424	13	4297
2026-01-30 12:24:10.59	160.16	11.24	-26.4	-27.9	14.7	0.00e+00	0	43	0	267386880	13	4309
2026-01-30 12:24:11.60	160.16	11.33	-26.4	-28.0	14.7	0.00e+00	0	43	0	272629760	13	4321
2026-01-30 12:24:12.61	160.17	11.43	-26.3	-27.8	14.8	0.00e+00	0	42	0	277872640	13	4260
2026-01-30 12:24:13.62	160.17	11.52	-26.3	-27.8	14.8	0.00e+00	0	42	0	284164096	13	4281
2026-01-30 12:24:14.63	160.18	11.61	-26.3	-27.7	14.9	0.00e+00	0	42	0	289406976	13	4247
2026-01-30 12:24:15.64	160.19	11.71	-26.3	-27.8	14.8	0.00e+00	0	42	0	295698432	13	4270
2026-01-30 12:24:16.65	160.19	11.80	-26.4	-27.9	14.8	0.00e+00	0	42	0	300941312	13	4283
2026-01-30 12:24:17.66	160.20	11.90	-26.1	-27.3	15.1	0.00e+00	0	42	0	306184192	13	4135
2026-01-30 12:24:18.67	160.20	11.99	-26.0	-27.0	15.3	0.00e+00	0	42	0	312475648	13	4056
2026-01-30 12:24:19.68	160.21	12.09	-25.9	-26.7	15.4	4.50e-06	0	42	0	317718528	13	3979
2026-01-30 12:24:20.69	160.22	12.19	-25.9	-26.8	15.4	0.00e+00	0	43	0	324009984	13	4002
2026-01-30 12:24:21.70	160.22	12.28	-25.8	-26.7	15.5	0.00e+00	0	42	0	329252864	13	3963
2026-01-30 12:24:22.71	160.23	12.38	-25.8	-26.6	15.5	6.80e-06	0	42	0	334495744	13	3945
2026-01-30 12:24:23.72	160.23	12.48	-25.8	-27.2	15.5	0.00e+00	0	42	0	340787200	12	4203
2026-01-30 12:24:24.73	160.24	12.57	-25.7	-27.0	15.6	0.00e+00	0	42	0	346030080	12	4150
2026-01-30 12:24:25.74	160.25	12.67	-25.7	-26.8	15.7	8.00e-06	0	42	0	352321536	12	4117
2026-01-30 12:24:26.75	160.25	12.77	-25.6	-26.7	15.8	0.00e+00	0	42	0	357564416	12	4079
2026-01-30 12:24:27.76	160.26	12.87	-25.8	-27.0	15.6	0.00e+00	0	42	0	363855872	12	4154
2026-01-30 12:24:28.77	160.27	12.97	-25.6	-26.6	15.9	9.10e-06	0	42	0	369098752	12	4042
2026-01-30 12:24:29.78	160.27	13.07	-25.6	-26.6	15.8	0.00e+00	0	43	0	375390208	12	4057
2026-01-30 12:24:30.79	160.28	13.17	-25.6	-26.6	15.9	0.00e+00	0	42	0	380633088	12	4054
2026-01-30 12:24:31.80	160.28	13.27	-25.6	-26.5	15.9	6.80e-06	0	42	0	385875968	12	4031
2026-01-30 12:24:32.81	160.29	13.37	-25.5	-26.4	15.9	0.00e+00	0	43	0	392167424	12	4009
2026-01-30 12:24:33.83	160.30	13.47	-25.4	-26.3	16.0	0.00e+00	0	43	0	397410304	12	3969
2026-01-30 12:24:34.84	160.30	13.58	-25.5	-26.5	16.0	0.00e+00	0	43	0	403701760	12	4015
2026-01-30 12:24:35.85	160.31	13.68	-25.4	-26.3	16.0	0.00e+00	0	43	0	408944640	12	3975
2026-01-30 12:24:36.86	160.32	13.78	-25.4	-26.2	16.1	0.00e+00	0	43	0	414187520	12	3949
2026-01-30 12:24:37.87	160.32	13.88	-25.4	-26.3	16.1	0.00e+00	0	42	0	420478976	12	3968
2026-01-30 12:24:38.88	160.33	13.99	-25.5	-26.5	16.0	0.00e+00	0	43	0	425721856	12	4029
2026-01-30 12:24:39.89	160.34	14.09	-25.4	-26.2	16.1	0.00e+00	0	43	0	432013312	12	3944
2026-01-30 12:24:40.90	160.34	14.20	-25.3	-26.6	16.2	0.00e+00	0	43	0	437256192	11	4154
2026-01-30 12:24:41.91	160.35	14.30	-25.3	-26.6	16.2	0.00e+00	0	43	0	442499072	11	4172
2026-01-30 12:24:42.92	160.36	14.41	-25.4	-26.7	16.2	0.00e+00	0	43	0	448790528	11	4175
2026-01-30 12:24:43.94	160.36	14.51	-25.4	-26.8	16.1	0.00e+00	0	43	0	454033408	11	4209
2026-01-30 12:24:44.94	160.37	14.62	-25.4	-26.6	16.2	0.00e+00	0	43	0	460324864	11	4169
2026-01-30 12:24:45.96	160.38	14.73	-25.2	-26.3	16.4	0.00e+00	0	43	0	465567744	11	4084
2026-01-30 12:24:46.97	160.38	14.84	-25.1	-26.1	16.5	0.00e+00	0	43	0	471859200	11	4029
2026-01-30 12:24:47.98	160.39	14.94	-25.1	-26.1	16.5	0.00e+00	0	43	0	477102080	11	4036
2026-01-30 12:24:48.99	160.40	15.05	-25.1	-26.1	16.6	0.00e+00	0	43	0	483393536	11	4032
2026-01-30 12:24:50.00	160.40	15.16	-25.3	-26.4	16.4	0.00e+00	0	43	0	488636416	11	4110
2026-01-30 12:24:51.01	160.41	15.27	-25.1	-26.0	16.6	0.00e+00	0	43	0	493879296	11	4007
2026-01-30 12:24:52.02	160.42	15.38	-25.0	-25.8	16.7	0.00e+00	0	43	0	500170752	11	3956
2026-01-30 12:24:53.03	160.42	15.49	-25.1	-26.0	16.7	0.00e+00	0	43	0	505413632	11	3990
2026-01-30 12:24:54.04	160.43	15.60	-24.9	-25.7	16.8	0.00e+00	0	43	0	511705088	11	3920
2026-01-30 12:24:55.05	160.44	15.71	-25.0	-25.8	16.8	0.00e+00	0	43	0	516947968	11	3947
2026-01-30 12:24:56.07	160.44	15.83	-25.2	-26.3	16.5	0.00e+00	0	43	0	523239424	11	4077
2026-01-30 12:24:57.08	160.45	15.94	-25.2	-26.2	16.6	0.00e+00	0	43	0	528482304	11	4048
2026-01-30 12:24:58.09	160.46	16.05	-25.1	-26.0	16.7	0.00e+00	0	43	0	533725184	11	4009
2026-01-30 12:24:59.10	160.46	16.16	-25.1	-26.0	16.7	1.10e-06	0	43	0	540016640	11	3998
2026-01-30 12:25:00.11	160.47	16.28	-25.1	-26.0	16.7	0.00e+00	0	43	0	545259520	11	4001
2026-01-30 12:25:01.12	160.48	16.39	-25.2	-26.3	16.6	0.00e+00	0	43	0	551550976	11	4067
2026-01-30 12:25:02.13	160.49	16.51	-25.1	-26.0	16.7	0.00e+00	0	43	0	556793856	11	4003
2026-01-30 12:25:03.14	160.49	16.62	-24.9	-25.5	16.9	0.00e+00	0	43	0	562036736	11	3881
2026-01-30 12:25:04.15	160.50	16.74	-24.8	-25.4	17.0	4.50e-06	0	43	0	568328192	11	3859
2026-01-30 12:25:05.16	160.51	16.86	-24.8	-25.4	17.0	0.00e+00	0	43	0	573571072	11	3851
2026-01-30 12:25:06.17	160.51	16.97	-24.8	-25.8	17.1	0.00e+00	0	43	0	579862528	10	4050
2026-01-30 12:25:07.18	160.52	17.09	-24.8	-25.8	17.1	1.25e-05	0	43	0	585105408	10	4048
2026-01-30 12:25:08.19	160.53	17.21	-24.7	-25.6	17.2	0.00e+00	0	43	0	591396864	10	4014
2026-01-30 12:25:09.20	160.54	17.33	-24.6	-25.4	17.3	0.00e+00	0	43	0	596639744	10	3962
2026-01-30 12:25:10.21	160.54	17.45	-24.5	-25.3	17.4	0.00e+00	0	43	0	601882624	10	3921
2026-01-30 12:25:11.23	160.55	17.57	-24.5	-25.3	17.4	0.00e+00	0	43	0	608174080	10	3935
2026-01-30 12:25:12.24	160.56	17.69	-24.4	-25.1	17.5	0.00e+00	0	43	0	613416960	10	3881
2026-01-30 12:25:13.25	160.57	17.81	-24.4	-25.1	17.5	0.00e+00	0	43	0	619708416	10	3882
2026-01-30 12:25:14.26	160.57	17.93	-24.5	-25.1	17.5	0.00e+00	0	43	0	624951296	10	3890
2026-01-30 12:25:15.27	160.58	18.06	-24.5	-25.2	17.5	0.00e+00	0	43	0	631242752	10	3902
2026-01-30 12:25:16.28	160.59	18.18	-24.4	-24.9	17.6	1.10e-06	0	43	0	636485632	10	3846
2026-01-30 12:25:17.29	160.60	18.30	-24.4	-25.0	17.6	0.00e+00	0	43	0	641728512	10	3853
2026-01-30 12:25:18.30	160.60	18.43	-24.3	-24.9	17.7	0.00e+00	0	43	0	648019968	10	3827
2026-01-30 12:25:19.31	160.61	18.55	-24.5	-25.2	17.5	0.00e+00	0	43	0	653262848	10	3904
2026-01-30 12:25:20.33	160.62	18.68	-24.5	-25.3	17.4	0.00e+00	0	43	0	659554304	10	3922
2026-01-30 12:25:21.34	160.63	18.81	-24.3	-24.8	17.7	0.00e+00	0	43	0	664797184	10	3814
2026-01-30 12:25:22.35	160.63	18.93	-24.4	-25.0	17.5	0.00e+00	0	43	0	670040064	10	3855
2026-01-30 12:25:23.36	160.64	19.06	-24.5	-25.2	17.5	0.00e+00	0	43	0	676331520	10	3897
2026-01-30 12:25:24.37	160.65	19.19	-24.4	-24.9	17.7	0.00e+00	0	43	0	681574400	10	3825
2026-01-30 12:25:25.38	160.66	19.32	-24.2	-25.1	17.8	0.00e+00	0	43	0	687865856	9	3979
2026-01-30 12:25:26.39	160.67	19.45	-24.1	-24.9	17.9	0.00e+00	0	43	0	693108736	9	3935
2026-01-30 12:25:27.40	160.67	19.58	-24.2	-25.0	17.8	0.00e+00	0	43	0	699400192	9	3964
2026-01-30 12:25:28.41	160.68	19.71	-24.3	-25.2	17.8	0.00e+00	0	43	0	704643072	9	4007
2026-01-30 12:25:29.42	160.69	19.84	-24.0	-24.7	18.0	0.00e+00	0	43	0	710934528	9	3896
2026-01-30 12:25:30.44	160.70	19.97	-24.0	-24.6	18.1	0.00e+00	0	43	0	716177408	9	3857
2026-01-30 12:25:31.45	160.71	20.11	-24.0	-24.6	18.0	0.00e+00	0	43	0	721420288	9	3865
2026-01-30 12:25:32.46	160.71	20.24	-24.0	-24.6	18.0	0.00e+00	0	43	0	727711744	9	3871
2026-01-30 12:25:33.47	160.72	20.38	-24.0	-24.6	18.1	0.00e+00	0	43	0	732954624	9	3855
2026-01-30 12:25:34.48	160.73	20.51	-23.8	-24.3	18.2	0.00e+00	0	43	0	739246080	9	3786
2026-01-30 12:25:35.49	160.74	20.65	-23.9	-24.3	18.2	0.00e+00	0	43	0	744488960	9	3802
2026-01-30 12:25:36.50	160.75	20.78	-23.8	-24.3	18.3	0.00e+00	0	43	0	749731840	9	3793
2026-01-30 12:25:37.51	160.76	20.92	-23.7	-24.6	18.3	0.00e+00	0	43	0	756023296	8	3959
2026-01-30 12:25:38.52	160.76	21.06	-23.7	-24.5	18.4	0.00e+00	0	43	0	761266176	8	3956
2026-01-30 12:25:39.53	160.77	21.20	-23.7	-24.5	18.4	0.00e+00	0	43	0	767557632	8	3945
2026-01-30 12:25:40.54	160.78	21.34	-23.7	-24.5	18.4	0.00e+00	0	43	0	772800512	8	3956
2026-01-30 12:25:41.56	160.79	21.48	-23.7	-24.4	18.4	0.00e+00	0	43	0	778043392	8	3939
2026-01-30 12:25:42.57	160.80	21.62	-23.7	-24.6	18.4	0.00e+00	0	43	0	784334848	8	3968
2026-01-30 12:25:43.58	160.81	21.76	-23.8	-24.7	18.3	0.00e+00	0	43	0	789577728	8	3996
2026-01-30 12:25:44.59	160.82	21.91	-23.8	-24.8	18.3	0.00e+00	0	43	0	795869184	8	4024
2026-01-30 12:25:45.60	160.83	22.05	-24.0	-25.1	18.1	0.00e+00	0	43	0	801112064	8	4094
2026-01-30 12:25:46.61	160.83	22.19	-24.1	-25.4	18.0	0.00e+00	0	43	0	807403520	8	4175
2026-01-30 12:25:47.62	160.84	22.34	-24.2	-25.5	17.9	0.00e+00	0	43	0	812646400	8	4203
2026-01-30 12:25:48.63	160.85	22.49	-24.1	-25.4	18.0	0.00e+00	0	43	0	818937856	8	4176
2026-01-30 12:25:49.65	160.86	22.64	-24.1	-25.4	18.0	0.00e+00	0	43	0	824180736	8	4171
2026-01-30 12:25:50.65	160.87	22.78	-24.1	-25.3	18.0	0.00e+00	0	43	0	829423616	8	4155
2026-01-30 12:25:51.67	160.88	22.93	-24.1	-25.3	18.0	0.00e+00	0	43	0	835715072	8	4140
2026-01-30 12:25:52.68	160.89	23.08	-24.1	-25.3	18.0	0.00e+00	0	43	0	840957952	8	4143
2026-01-30 12:25:53.69	160.90	23.23	-24.2	-25.6	17.9	0.00e+00	0	43	0	847249408	8	4222
2026-01-30 12:25:54.70	160.91	23.38	-24.1	-25.4	18.0	0.00e+00	0	43	0	852492288	8	4165
2026-01-30 12:25:55.71	160.92	23.54	-23.8	-24.7	18.4	0.00e+00	0	43	0	857735168	8	3988
2026-01-30 12:25:56.72	160.93	23.69	-23.6	-24.3	18.6	0.00e+00	0	43	0	864026624	8	3904
2026-01-30 12:25:57.73	160.94	23.84	-23.5	-24.1	18.7	0.00e+00	0	43	0	869269504	8	3859
2026-01-30 12:25:58.74	160.95	24.00	-23.6	-24.3	18.6	0.00e+00	0	43	0	875560960	8	3902
2026-01-30 12:25:59.76	160.95	24.16	-23.4	-23.9	18.7	0.00e+00	0	43	0	880803840	8	3816
2026-01-30 12:26:00.77	160.96	24.31	-23.3	-23.7	18.9	0.00e+00	0	43	0	887095296	8	3761
2026-01-30 12:26:01.78	160.97	24.47	-23.3	-24.1	18.9	0.00e+00	0	43	0	892338176	7	3963
2026-01-30 12:26:02.79	160.98	24.63	-23.2	-24.0	18.9	0.00e+00	0	43	0	897581056	7	3946
2026-01-30 12:26:03.80	160.99	24.79	-23.2	-23.9	19.0	0.00e+00	0	43	0	903872512	7	3906
2026-01-30 12:26:04.81	161.00	24.95	-23.2	-24.0	19.0	0.00e+00	0	43	0	909115392	7	3928
2026-01-30 12:26:05.82	161.01	25.11	-23.2	-24.0	19.0	0.00e+00	0	43	0	915406848	7	3935
2026-01-30 12:26:06.83	161.02	25.28	-23.2	-24.0	19.0	0.00e+00	0	43	0	920649728	7	3928
2026-01-30 12:26:07.84	161.03	25.44	-23.3	-24.2	18.9	0.00e+00	0	43	0	926941184	7	3992
2026-01-30 12:26:08.86	161.04	25.61	-23.3	-24.1	19.0	0.00e+00	0	43	0	932184064	7	3957
2026-01-30 12:26:09.86	161.05	25.77	-23.3	-24.1	18.9	0.00e+00	0	43	0	937426944	7	3970
2026-01-30 12:26:10.88	161.07	25.94	-23.3	-24.1	19.0	0.00e+00	0	43	0	943718400	7	3953
2026-01-30 12:26:11.89	161.08	26.11	-23.3	-24.1	18.9	0.00e+00	0	43	0	948961280	7	3971
2026-01-30 12:26:12.90	161.09	26.28	-23.5	-24.5	18.7	0.00e+00	0	43	0	955252736	7	4062
2026-01-30 12:26:13.91	161.10	26.45	-23.5	-24.7	18.7	0.00e+00	0	43	0	960495616	7	4100
2026-01-30 12:26:14.92	161.11	26.62	-23.5	-24.6	18.7	0.00e+00	0	43	0	966787072	7	4080
2026-01-30 12:26:15.93	161.12	26.79	-23.5	-24.6	18.7	0.00e+00	0	43	0	972029952	7	4074
2026-01-30 12:26:16.94	161.13	26.96	-23.6	-24.7	18.7	0.00e+00	0	43	0	977272832	7	4103
2026-01-30 12:26:17.95	161.14	27.14	-23.5	-24.6	18.7	0.00e+00	0	43	0	983564288	7	4086
2026-01-30 12:26:18.97	161.15	27.31	-23.6	-24.7	18.7	0.00e+00	0	43	0	988807168	7	4095
2026-01-30 12:26:19.98	161.16	27.49	-23.9	-25.5	18.3	0.00e+00	0	43	0	995098624	7	4300
2026-01-30 12:26:20.99	161.17	27.67	-23.6	-24.7	18.7	0.00e+00	0	43	0	1000341504	7	4100
2026-01-30 12:26:22.00	161.18	27.85	-23.3	-24.2	19.0	0.00e+00	0	43	0	1005584384	7	3978
2026-01-30 12:26:23.01	161.20	28.03	-23.2	-23.9	19.1	0.00e+00	0	43	0	1011875840	7	3913
2026-01-30 12:26:24.02	161.21	28.21	-23.2	-24.0	19.1	0.00e+00	0	43	0	1017118720	7	3921
2026-01-30 12:26:25.02	161.22	28.39	-23.2	-24.0	19.1	0.00e+00	0	43	0	1023410176	7	3928
2026-01-30 12:26:26.03	161.23	28.57	-23.1	-23.8	19.2	0.00e+00	0	43	0	1028653056	7	3886
2026-01-30 12:26:27.04	161.24	28.76	-23.1	-23.7	19.2	0.00e+00	0	43	0	1034944512	7	3856
2026-01-30 12:26:28.05	161.25	28.94	-23.1	-23.7	19.2	0.00e+00	0	43	0	1040187392	7	3855
2026-01-30 12:26:29.06	161.27	29.13	-23.1	-23.7	19.2	0.00e+00	0	43	0	1045430272	7	3874
2026-01-30 12:26:30.08	161.28	29.32	-23.2	-23.9	19.1	0.00e+00	0	43	0	1051721728	7	3907
2026-01-30 12:26:31.09	161.29	29.51	-23.4	-24.3	18.9	0.00e+00	0	43	0	1056964608	7	4008
2026-01-30 12:26:32.10	161.30	29.70	-23.3	-24.2	19.0	0.00e+00	0	43	0	1063256064	7	3989
2026-01-30 12:26:33.11	161.31	29.90	-23.3	-24.2	19.0	0.00e+00	0	43	0	1068498944	7	3989
2026-01-30 12:26:34.12	161.33	30.09	-23.5	-24.5	18.9	0.00e+00	0	43	0	1074790400	7	4046
2026-01-30 12:26:35.13	161.34	30.29	-23.4	-24.3	19.0	0.00e+00	0	43	0	1080033280	7	3997
2026-01-30 12:26:36.14	161.35	30.48	-23.3	-24.2	19.0	0.00e+00	0	43	0	1085276160	7	3971
2026-01-30 12:26:37.15	161.37	30.68	-23.4	-24.3	19.0	0.00e+00	0	43	0	1091567616	7	4007
2026-01-30 12:26:38.16	161.38	30.88	-23.3	-24.0	19.1	0.00e+00	0	43	0	1096810496	7	3935
2026-01-30 12:26:39.17	161.39	31.08	-23.5	-24.5	18.9	0.00e+00	0	43	0	1103101952	7	4053
2026-01-30 12:26:40.18	161.40	31.28	-23.4	-24.4	18.9	0.00e+00	0	43	0	1108344832	7	4037
2026-01-30 12:26:41.19	161.42	31.49	-23.6	-24.8	18.7	0.00e+00	0	43	0	1113587712	7	4129
2026-01-30 12:26:42.20	161.43	31.69	-23.4	-24.4	18.9	0.00e+00	0	43	0	1119879168	7	4027
2026-01-30 12:26:43.21	161.44	31.90	-23.1	-23.8	19.2	0.00e+00	0	43	0	1125122048	7	3880
2026-01-30 12:26:44.22	161.46	32.10	-22.9	-23.3	19.4	0.00e+00	0	43	0	1131413504	7	3782
2026-01-30 12:26:45.23	161.47	32.31	-22.8	-23.2	19.5	0.00e+00	0	43	0	1136656384	7	3744
2026-01-30 12:26:46.24	161.49	32.52	-22.9	-23.2	19.5	0.00e+00	0	43	0	1142947840	7	3755
2026-01-30 12:26:47.25	161.50	32.74	-22.9	-23.3	19.4	0.00e+00	0	43	0	1148190720	7	3778
2026-01-30 12:26:48.27	161.51	32.95	-22.9	-23.3	19.5	0.00e+00	0	43	0	1154482176	7	3773
2026-01-30 12:26:49.28	161.53	33.17	-23.0	-23.4	19.4	0.00e+00	0	43	0	1159725056	7	3797
2026-01-30 12:26:50.29	161.54	33.38	-23.0	-23.5	19.4	0.00e+00	0	43	0	1164967936	7	3813
2026-01-30 12:26:51.30	161.56	33.60	-22.7	-23.5	19.6	0.00e+00	0	43	0	1171259392	6	3919
2026-01-30 12:26:52.31	161.57	33.82	-22.6	-23.2	19.7	0.00e+00	0	43	0	1176502272	6	3863
2026-01-30 12:26:53.32	161.59	34.04	-22.6	-23.1	19.8	0.00e+00	0	43	0	1182793728	6	3837
2026-01-30 12:26:54.33	161.60	34.27	-22.6	-23.2	19.8	0.00e+00	0	43	0	1188036608	6	3849
2026-01-30 12:26:55.34	161.62	34.49	-22.8	-23.6	19.6	0.00e+00	0	43	0	1193279488	6	3940
2026-01-30 12:26:56.35	161.63	34.72	-22.8	-23.6	19.6	0.00e+00	0	43	0	1199570944	6	3943
2026-01-30 12:26:57.36	161.65	34.95	-22.9	-23.9	19.5	0.00e+00	0	43	0	1204813824	6	4012
2026-01-30 12:26:58.37	161.66	35.18	-22.8	-23.6	19.6	0.00e+00	0	43	0	1211105280	6	3947
2026-01-30 12:26:59.38	161.68	35.41	-22.8	-23.7	19.6	0.00e+00	0	43	0	1216348160	6	3959
2026-01-30 12:27:00.39	161.70	35.64	-22.9	-23.7	19.6	0.00e+00	0	43	0	1221591040	6	3968
2026-01-30 12:27:01.41	161.71	35.88	-22.7	-23.4	19.7	0.00e+00	0	43	0	1227882496	6	3895
2026-01-30 12:27:02.42	161.73	36.11	-22.8	-23.5	19.7	0.00e+00	0	43	0	1233125376	6	3921
2026-01-30 12:27:03.43	161.75	36.35	-22.7	-23.4	19.7	0.00e+00	0	43	0	1239416832	6	3906
2026-01-30 12:27:04.44	161.76	36.59	-22.6	-23.2	19.8	0.00e+00	0	43	0	1244659712	6	3857
2026-01-30 12:27:05.45	161.78	36.83	-22.6	-23.2	19.8	0.00e+00	0	43	0	1250951168	6	3847
2026-01-30 12:27:06.46	161.80	37.08	-22.7	-23.4	19.8	0.00e+00	0	43	0	1256194048	6	3891
2026-01-30 12:27:07.47	161.82	37.32	-22.9	-23.7	19.6	0.00e+00	0	43	0	1262485504	6	3971
2026-01-30 12:27:08.48	161.83	37.57	-22.7	-23.3	19.8	0.00e+00	0	43	0	1267728384	6	3867
2026-01-30 12:27:09.49	161.85	37.82	-22.5	-23.0	19.9	0.00e+00	0	43	0	1272971264	6	3802
2026-01-30 12:27:10.50	161.87	38.07	-22.5	-22.9	20.0	0.00e+00	0	43	0	1279262720	6	3783
2026-01-30 12:27:11.51	161.89	38.32	-22.5	-23.0	19.9	0.00e+00	0	43	0	1284505600	6	3809
2026-01-30 12:27:12.52	161.91	38.58	-22.5	-23.1	19.9	0.00e+00	0	43	0	1290797056	6	3827
2026-01-30 12:27:13.53	161.92	38.83	-22.6	-23.3	19.8	0.00e+00	0	43	0	1296039936	6	3873
2026-01-30 12:27:14.54	161.94	39.09	-22.7	-23.3	19.8	0.00e+00	0	43	0	1301282816	6	3877
2026-01-30 12:27:15.55	161.96	39.35	-22.6	-23.3	19.8	0.00e+00	0	43	0	1307574272	6	3872
2026-01-30 12:27:16.57	161.98	39.62	-22.7	-23.4	19.8	0.00e+00	0	43	0	1312817152	6	3898
2026-01-30 12:27:17.58	162.00	39.88	-22.7	-23.4	19.8	0.00e+00	0	43	0	1319108608	6	3904
2026-01-30 12:27:18.59	162.02	40.15	-22.7	-23.3	19.8	0.00e+00	0	43	0	1324351488	6	3878
2026-01-30 12:27:19.60	162.04	40.42	-22.8	-23.5	19.7	0.00e+00	0	43	0	1329594368	6	3913
2026-01-30 12:27:20.61	162.06	40.69	-22.9	-23.8	19.6	0.00e+00	0	43	0	1335885824	6	3992
2026-01-30 12:27:21.62	162.09	40.96	-23.1	-24.2	19.3	0.00e+00	0	43	0	1341128704	6	4098
2026-01-30 12:27:22.63	162.11	41.23	-23.3	-24.6	19.2	0.00e+00	0	43	0	1347420160	6	4190
2026-01-30 12:27:23.64	162.13	41.51	-23.3	-24.6	19.2	0.00e+00	0	43	0	1352663040	6	4184
2026-01-30 12:27:24.65	162.15	41.79	-23.2	-24.5	19.2	0.00e+00	0	43	0	1358954496	6	4169
2026-01-30 12:27:25.67	162.17	42.07	-23.3	-24.7	19.1	0.00e+00	0	43	0	1364197376	6	4209
2026-01-30 12:27:26.68	162.20	42.36	-23.3	-24.7	19.1	0.00e+00	0	43	0	1370488832	6	4229
2026-01-30 12:27:27.69	162.22	42.64	-23.2	-24.5	19.2	0.00e+00	0	43	0	1375731712	6	4171
2026-01-30 12:27:28.70	162.24	42.93	-23.2	-24.4	19.3	0.00e+00	0	43	0	1380974592	6	4137
2026-01-30 12:27:29.71	162.27	43.22	-23.4	-24.8	19.1	0.00e+00	0	43	0	1387266048	6	4228
2026-01-30 12:27:30.72	162.29	43.51	-23.2	-24.3	19.4	0.00e+00	0	43	0	1392508928	6	4112
2026-01-30 12:27:31.73	162.31	43.80	-23.2	-24.3	19.4	0.00e+00	0	43	0	1398800384	6	4119
2026-01-30 12:27:32.74	162.34	44.10	-23.3	-24.6	19.2	1.10e-06	0	43	0	1404043264	6	4192
2026-01-30 12:27:33.75	162.36	44.40	-23.4	-24.7	19.2	0.00e+00	0	43	0	1409286144	6	4221
2026-01-30 12:27:34.76	162.39	44.70	-23.5	-24.6	19.0	0.00e+00	0	43	0	1415577600	7	4062
2026-01-30 12:27:35.78	162.42	45.01	-23.9	-25.4	18.6	0.00e+00	0	43	0	1420820480	7	4270
2026-01-30 12:27:36.78	162.44	45.31	-23.9	-24.9	18.7	0.00e+00	0	43	0	1427111936	8	4028
2026-01-30 12:27:37.80	162.47	45.62	-23.6	-24.2	19.0	0.00e+00	0	43	0	1432354816	8	3873
2026-01-30 12:27:38.81	162.50	45.93	-23.6	-24.2	19.0	0.00e+00	0	43	0	1437597696	8	3852
2026-01-30 12:27:39.82	162.52	46.24	-23.8	-24.7	18.8	0.00e+00	0	43	0	1443889152	8	3982
2026-01-30 12:27:40.83	162.55	46.56	-23.8	-24.6	18.8	0.00e+00	0	43	0	1449132032	8	3969
2026-01-30 12:27:41.84	162.58	46.87	-23.7	-24.4	18.9	0.00e+00	0	43	0	1455423488	8	3915
2026-01-30 12:27:42.85	162.61	47.19	-23.7	-24.5	18.9	0.00e+00	0	43	0	1460666368	8	3933
2026-01-30 12:27:43.86	162.64	47.52	-23.5	-24.1	19.1	0.00e+00	0	43	0	1466957824	8	3833
2026-01-30 12:27:44.87	162.67	47.84	-23.2	-23.9	19.4	0.00e+00	0	43	0	1472200704	7	3898
2026-01-30 12:27:45.88	162.70	48.17	-23.0	-23.5	19.6	0.00e+00	0	43	0	1478492160	7	3814
2026-01-30 12:27:46.89	162.73	48.50	-22.9	-23.3	19.7	0.00e+00	0	43	0	1483735040	7	3765
2026-01-30 12:27:47.90	162.77	48.83	-22.8	-23.1	19.8	0.00e+00	0	43	0	1488977920	7	3722
2026-01-30 12:27:48.91	162.80	49.16	-22.9	-23.2	19.7	0.00e+00	0	43	0	1495269376	7	3746
2026-01-30 12:27:49.93	162.83	49.51	-23.0	-23.5	19.6	0.00e+00	0	43	0	1500512256	7	3810
2026-01-30 12:27:50.94	162.87	49.84	-23.7	-25.1	18.8	0.00e+00	0	43	0	1506803712	7	4188
2026-01-30 12:27:51.95	162.90	50.19	-24.0	-25.5	18.6	0.00e+00	0	43	0	1512046592	7	4312
2026-01-30 12:27:52.96	162.94	50.53	-24.1	-25.4	18.4	0.00e+00	0	43	0	1517289472	8	4162
2026-01-30 12:27:53.97	162.97	50.88	-24.4	-25.8	18.2	0.00e+00	0	43	0	1523580928	8	4263
2026-01-30 12:27:54.98	163.01	51.23	-24.0	-25.1	18.5	0.00e+00	0	43	0	1528823808	8	4084
2026-01-30 12:27:55.99	163.05	51.58	-24.0	-25.1	18.5	0.00e+00	0	43	0	1535115264	8	4092
2026-01-30 12:27:57.00	163.09	51.94	-24.4	-26.0	18.1	0.00e+00	0	43	0	1540358144	8	4308
2026-01-30 12:27:58.01	163.13	52.30	-24.5	-25.8	17.9	0.00e+00	0	43	0	1545601024	9	4138
2026-01-30 12:27:59.03	163.17	52.66	-23.8	-24.2	18.7	0.00e+00	0	43	0	1551892480	9	3769
2026-01-30 12:28:00.04	163.21	53.02	-23.4	-23.9	19.2	0.00e+00	0	43	0	1557135360	8	3782
2026-01-30 12:28:01.05	163.25	53.39	-23.7	-24.5	18.9	0.00e+00	0	43	0	1563426816	8	3922
2026-01-30 12:28:02.06	163.29	53.76	-24.0	-25.1	18.5	0.00e+00	0	43	0	1568669696	8	4080
2026-01-30 12:28:03.07	163.34	54.13	-24.5	-26.1	18.0	0.00e+00	0	43	0	1574961152	8	4354
2026-01-30 12:28:04.08	163.38	54.50	-24.3	-25.2	18.2	0.00e+00	0	43	0	1580204032	9	3999
2026-01-30 12:28:05.09	163.43	54.88	-24.1	-24.8	18.5	0.00e+00	0	43	0	1586495488	9	3885
2026-01-30 12:28:06.10	163.48	55.26	-24.1	-24.7	18.6	0.00e+00	0	43	0	1591738368	9	3872
2026-01-30 12:28:07.11	163.53	55.64	-24.0	-24.6	18.6	0.00e+00	0	43	0	1596981248	9	3856
2026-01-30 12:28:08.12	163.58	56.02	-24.2	-25.1	18.4	0.00e+00	0	43	0	1603272704	9	3968
2026-01-30 12:28:09.13	163.63	56.41	-24.3	-25.3	18.3	0.00e+00	0	43	0	1608515584	9	4027
2026-01-30 12:28:10.14	163.68	56.80	-24.0	-24.6	18.6	0.00e+00	0	43	0	1614807040	9	3862
2026-01-30 12:28:11.15	163.74	57.19	-24.1	-24.9	18.5	0.00e+00	0	43	0	1620049920	9	3926
2026-01-30 12:28:12.17	163.79	57.59	-24.1	-24.8	18.5	0.00e+00	0	43	0	1626341376	9	3890
2026-01-30 12:28:13.18	163.85	57.99	-23.9	-24.3	18.8	0.00e+00	0	43	0	1631584256	9	3771
2026-01-30 12:28:14.19	163.91	58.39	-23.9	-24.4	18.8	0.00e+00	0	43	0	1636827136	9	3815
2026-01-30 12:28:15.20	163.97	58.79	-24.2	-25.0	18.4	0.00e+00	0	43	0	1643118592	9	3957
2026-01-30 12:28:16.21	164.03	59.20	-23.6	-24.1	19.1	0.00e+00	0	43	0	1648361472	8	3846
2026-01-30 12:28:17.22	164.10	59.61	-23.0	-23.3	19.8	0.00e+00	0	43	0	1654652928	7	3767
2026-01-30 12:28:18.23	164.16	60.02	-23.1	-23.7	19.7	0.00e+00	0	44	0	1659895808	7	3847
2026-01-30 12:28:19.24	164.23	60.44	-23.7	-25.0	18.9	0.00e+00	0	43	0	1665138688	7	4184
2026-01-30 12:28:20.25	164.30	60.85	-23.8	-25.1	18.9	0.00e+00	0	43	0	1671430144	7	4193
2026-01-30 12:28:21.26	164.37	61.27	-23.6	-24.7	19.2	0.00e+00	0	43	0	1676673024	7	4095
2026-01-30 12:28:22.27	164.45	61.69	-23.5	-24.5	19.2	0.00e+00	0	43	0	1682964480	7	4041
2026-01-30 12:28:23.28	164.53	62.12	-23.3	-24.1	19.5	0.00e+00	0	43	0	1688207360	7	3939
2026-01-30 12:28:24.29	164.61	62.55	-23.1	-23.7	19.6	0.00e+00	0	43	0	1694498816	7	3865
2026-01-30 12:28:25.30	164.69	62.98	-22.7	-23.3	20.0	0.00e+00	0	43	0	1699741696	6	3865
2026-01-30 12:28:26.32	164.78	63.41	-22.6	-23.1	20.1	0.00e+00	0	44	0	1706033152	6	3817
2026-01-30 12:28:27.33	164.86	63.85	-22.8	-23.6	19.8	0.00e+00	0	43	0	1711276032	6	3950
2026-01-30 12:28:28.34	164.96	64.29	-22.7	-23.4	19.9	0.00e+00	0	44	0	1716518912	6	3894
2026-01-30 12:28:29.35	165.05	64.73	-22.6	-23.2	20.0	0.00e+00	0	43	0	1722810368	6	3852
2026-01-30 12:28:30.36	165.15	65.17	-22.3	-22.6	20.3	0.00e+00	0	44	0	1728053248	6	3711
2026-01-30 12:28:31.37	165.25	65.61	-21.9	-22.2	20.8	0.00e+00	0	44	0	1734344704	5	3720
2026-01-30 12:28:32.38	165.36	66.06	-22.2	-22.9	20.5	0.00e+00	0	43	0	1739587584	5	3880
2026-01-30 12:28:33.39	165.47	66.51	-22.3	-23.0	20.4	0.00e+00	0	43	0	1744830464	5	3898
2026-01-30 12:28:34.40	165.59	66.96	-22.3	-23.0	20.4	0.00e+00	0	43	0	1751121920	5	3909
2026-01-30 12:28:35.42	165.71	67.42	-22.5	-23.4	20.2	0.00e+00	0	43	0	1756364800	5	3999
2026-01-30 12:28:36.43	165.84	67.88	-22.4	-23.1	20.4	0.00e+00	0	44	0	1762656256	5	3930
2026-01-30 12:28:37.44	165.97	68.34	-22.5	-23.5	20.2	0.00e+00	0	43	0	1767899136	5	4014
2026-01-30 12:28:38.45	166.11	68.80	-22.7	-23.8	20.0	0.00e+00	0	43	0	1773142016	5	4099
2026-01-30 12:28:39.46	166.25	69.27	-22.4	-23.3	20.3	0.00e+00	0	43	0	1779433472	5	3970
2026-01-30 12:28:40.47	166.41	69.73	-21.9	-22.3	20.7	0.00e+00	0	44	0	1784676352	5	3754
2026-01-30 12:28:41.48	166.57	70.20	-21.8	-22.5	20.8	0.00e+00	0	43	0	1790967808	4	3902
2026-01-30 12:28:42.49	166.73	70.67	-21.9	-22.7	20.8	0.00e+00	0	43	0	1796210688	4	3940
2026-01-30 12:28:43.50	166.91	71.14	-21.6	-22.1	21.1	0.00e+00	0	43	0	1802502144	4	3801
2026-01-30 12:28:44.52	167.10	71.62	-21.6	-22.1	21.1	0.00e+00	0	43	0	1807745024	4	3803
2026-01-30 12:28:45.53	167.29	72.10	-21.5	-21.9	21.2	0.00e+00	0	43	0	1814036480	4	3763
2026-01-30 12:28:46.54	167.50	72.58	-21.3	-21.5	21.4	0.00e+00	0	43	0	1819279360	4	3675
2026-01-30 12:28:47.55	167.72	73.06	-21.6	-22.2	21.0	0.00e+00	0	44	0	1824522240	4	3828
2026-01-30 12:28:48.56	167.95	73.54	-21.6	-22.2	21.0	0.00e+00	0	43	0	1830813696	4	3824
2026-01-30 12:28:49.57	168.20	74.03	-21.7	-22.3	21.0	0.00e+00	0	44	0	1836056576	4	3864
2026-01-30 12:28:50.58	168.46	74.51	-21.6	-22.2	21.0	0.00e+00	0	44	0	1842348032	4	3826
2026-01-30 12:28:51.59	168.74	75.00	-21.6	-22.1	21.1	0.00e+00	0	44	0	1847590912	4	3815
2026-01-30 12:28:52.60	169.04	75.49	-21.6	-22.1	21.1	0.00e+00	0	44	0	1852833792	4	3817
2026-01-30 12:28:53.62	169.37	75.98	-21.2	-21.7	21.6	0.00e+00	0	44	0	1859125248	3	3821
2026-01-30 12:28:54.62	169.71	76.47	-21.3	-22.1	21.4	0.00e+00	0	43	0	1864368128	3	3908
2026-01-30 12:28:55.63	170.08	76.96	-21.6	-22.6	21.1	0.00e+00	0	44	0	1870659584	3	4045
2026-01-30 12:28:56.65	170.48	77.46	-21.3	-21.9	21.5	0.00e+00	0	43	0	1875902464	3	3879
2026-01-30 12:28:57.66	170.92	77.95	-20.9	-21.1	21.9	0.00e+00	0	43	0	1881145344	3	3692
2026-01-30 12:28:58.67	171.39	78.45	-21.2	-21.7	21.6	0.00e+00	0	44	0	1887436800	3	3837
2026-01-30 12:28:59.68	171.91	78.94	-21.3	-21.8	21.8	0.00e+00	0	44	0	1892679680	3	3842
2026-01-30 12:29:00.69	172.47	79.44	-21.4	-22.0	21.7	0.00e+00	0	44	0	1898971136	3	3888
2026-01-30 12:29:01.70	173.09	79.93	-21.2	-21.7	21.9	0.00e+00	0	43	0	1904214016	3	3814
2026-01-30 12:29:02.71	173.78	80.43	-21.3	-21.8	21.8	0.00e+00	0	43	0	1910505472	3	3845
2026-01-30 12:29:03.72	174.54	80.93	-21.2	-21.7	21.9	0.00e+00	0	44	0	1915748352	3	3805
2026-01-30 12:29:04.73	175.40	81.42	-21.2	-21.7	21.9	0.00e+00	0	44	0	1922039808	3	3799
2026-01-30 12:29:05.74	176.35	81.92	-20.9	-21.0	22.3	0.00e+00	0	43	0	1927282688	3	3654
2026-01-30 12:29:06.76	177.45	82.41	-20.6	-20.9	22.5	0.00e+00	0	43	0	1932525568	2	3748
2026-01-30 12:29:07.77	178.68	82.90	-20.4	-20.6	22.7	0.00e+00	0	43	0	1938817024	2	3676
2026-01-30 12:29:08.78	180.10	83.39	-20.3	-20.4	22.8	0.00e+00	0	43	0	1944059904	2	3636
2026-01-30 12:29:09.79	181.74	83.88	-20.4	-21.0	22.7	0.00e+00	0	43	0	1950351360	1	3856
2026-01-30 12:29:10.80	183.67	84.35	-21.3	-22.4	21.9	3.40e-06	0	43	0	1955594240	2	4080
2026-01-30 12:29:11.81	185.95	84.83	-22.0	-23.3	21.2	0.00e+00	0	44	0	1960837120	3	4186
2026-01-30 12:29:12.82	188.69	85.29	-22.8	-23.9	20.4	0.00e+00	0	43	0	1967128576	5	4111
2026-01-30 12:29:13.83	192.02	85.74	-23.1	-24.1	20.1	0.00e+00	0	44	0	1972371456	6	4047
2026-01-30 12:29:14.84	196.11	86.17	-22.9	-23.7	20.3	0.00e+00	0	43	0	1978662912	6	3938
2026-01-30 12:29:15.85	201.22	86.58	-23.0	-23.8	20.3	0.00e+00	0	44	0	1983905792	6	3971
2026-01-30 12:29:16.86	207.64	86.96	-23.0	-23.9	20.3	0.00e+00	0	43	0	1989148672	6	3989
2026-01-30 12:29:17.88	215.83	87.28	-22.9	-23.7	20.4	0.00e+00	0	43	0	1995440128	6	3937
2026-01-30 12:29:18.89	225.90	87.54	-22.9	-23.6	20.4	0.00e+00	0	43	0	2000683008	6	3927
2026-01-30 12:29:19.90	237.86	87.71	-22.7	-23.2	20.7	0.00e+00	0	43	0	2006974464	6	3824
2026-01-30 12:29:20.91	251.02	87.76	-22.7	-23.2	20.6	0.00e+00	0	44	0	2012217344	6	3824
2026-01-30 12:29:21.92	264.13	87.70	-22.9	-23.7	20.4	0.00e+00	0	43	0	2018508800	6	3933
2026-01-30 12:29:22.93	275.94	87.52	-22.8	-23.6	20.4	0.00e+00	0	44	0	2023751680	6	3911
2026-01-30 12:29:23.94	285.83	87.26	-22.8	-23.4	20.4	0.00e+00	0	44	0	2030043136	6	3872
2026-01-30 12:29:24.95	293.78	86.93	-22.5	-23.0	20.6	0.00e+00	0	43	0	2035286016	6	3775
2026-01-30 12:29:25.96	300.10	86.55	-22.5	-22.8	20.6	0.00e+00	0	43	0	2040528896	6	3753
2026-01-30 12:29:26.97	305.12	86.14	-22.3	-22.4	20.8	0.00e+00	0	44	0	2046820352	6	3661
2026-01-30 12:29:27.98	309.14	85.71	-22.1	-22.5	21.0	0.00e+00	0	44	0	2052063232	5	3780
2026-01-30 12:29:28.99	312.42	85.25	-22.0	-22.3	21.0	0.00e+00	0	44	0	2058354688	5	3737
2026-01-30 12:29:30.00	315.11	84.79	-21.8	-21.9	21.2	0.00e+00	0	43	0	2063597568	5	3658
2026-01-30 12:29:31.02	317.38	84.31	-21.8	-22.5	21.2	0.00e+00	0	44	0	2069889024	4	3888
2026-01-30 12:29:32.03	319.28	83.84	-21.7	-22.3	21.2	0.00e+00	0	43	0	2075131904	4	3830
2026-01-30 12:29:33.04	320.91	83.35	-21.9	-22.6	21.1	0.00e+00	0	44	0	2080374784	4	3907
2026-01-30 12:29:34.05	322.31	82.86	-22.3	-23.4	20.6	0.00e+00	0	44	0	2086666240	4	4109
2026-01-30 12:29:35.06	323.53	82.37	-22.0	-22.8	20.9	0.00e+00	0	43	0	2091909120	4	3952
2026-01-30 12:29:36.07	324.60	81.88	-21.6	-22.0	21.3	0.00e+00	0	44	0	2098200576	4	3765
2026-01-30 12:29:37.08	325.55	81.39	-21.7	-22.3	21.1	0.00e+00	0	44	0	2103443456	4	3858
2026-01-30 12:29:38.09	326.39	80.89	-21.8	-22.5	21.1	0.00e+00	0	43	0	2108686336	4	3898
2026-01-30 12:29:39.11	327.16	80.39	-21.6	-22.1	21.3	0.00e+00	0	43	0	2114977792	4	3795
2026-01-30 12:29:40.12	327.84	79.90	-21.7	-22.2	21.2	0.00e+00	0	43	0	2120220672	4	3806
2026-01-30 12:29:41.13	328.45	79.40	-22.1	-23.1	20.8	0.00e+00	0	43	0	2126512128	4	4026
2026-01-30 12:29:42.14	329.01	78.91	-22.2	-23.3	20.7	0.00e+00	0	43	0	2131755008	4	4072
2026-01-30 12:29:43.15	329.53	78.41	-21.6	-22.0	21.3	0.00e+00	0	44	0	2138046464	4	3785
2026-01-30 12:29:44.16	330.00	77.92	-21.3	-21.5	21.6	0.00e+00	0	43	0	2143289344	4	3660
2026-01-30 12:29:45.17	330.43	77.42	-21.3	-21.9	21.6	0.00e+00	0	43	0	2149580800	3	3874
2026-01-30 12:29:46.18	330.83	76.93	-21.1	-21.6	21.8	0.00e+00	0	44	0	2154823680	3	3783
2026-01-30 12:29:47.19	331.20	76.44	-21.2	-21.6	21.8	0.00e+00	0	44	0	2160066560	3	3800
2026-01-30 12:29:48.20	331.54	75.95	-21.3	-21.8	21.7	0.00e+00	0	43	0	2166358016	3	3833
2026-01-30 12:29:49.21	331.86	75.46	-21.3	-21.9	21.7	0.00e+00	0	43	0	2171600896	3	3851
2026-01-30 12:29:50.23	332.16	74.97	-21.6	-22.5	21.3	0.00e+00	0	43	0	2177892352	3	4003
2026-01-30 12:29:51.24	332.44	74.48	-21.3	-21.9	21.6	0.00e+00	0	44	0	2183135232	3	3857
2026-01-30 12:29:52.25	332.70	74.00	-21.5	-22.3	21.4	0.00e+00	0	43	0	2188378112	3	3958
2026-01-30 12:29:53.26	332.95	73.51	-21.9	-23.2	21.0	0.00e+00	0	43	0	2194669568	3	4158
2026-01-30 12:29:54.27	333.18	73.03	-21.7	-22.6	21.3	0.00e+00	0	43	0	2199912448	3	4028
2026-01-30 12:29:55.28	333.39	72.55	-21.7	-22.8	21.2	0.00e+00	0	44	0	2206203904	3	4073
2026-01-30 12:29:56.29	333.60	72.08	-21.9	-23.2	21.0	0.00e+00	0	43	0	2211446784	3	4162
2026-01-30 12:29:57.30	333.80	71.60	-21.6	-22.5	21.3	0.00e+00	0	44	0	2216689664	3	4005
2026-01-30 12:29:58.31	333.98	71.13	-21.5	-22.3	21.4	0.00e+00	0	43	0	2222981120	3	3954
2026-01-30 12:29:59.33	334.16	70.65	-21.8	-22.9	21.1	0.00e+00	0	43	0	2228224000	3	4091
2026-01-30 12:30:00.34	334.33	70.18	-21.7	-22.8	21.2	0.00e+00	0	43	0	2234515456	3	4062
2026-01-30 12:30:01.35	334.48	69.71	-21.9	-23.1	21.0	0.00e+00	0	43	0	2239758336	3	4131
2026-01-30 12:30:02.36	334.64	69.25	-22.2	-23.2	20.7	0.00e+00	0	43	0	2246049792	4	4054
2026-01-30 12:30:03.37	334.78	68.79	-22.5	-23.5	20.3	0.00e+00	0	43	0	2251292672	5	3999
2026-01-30 12:30:04.38	334.92	68.32	-22.9	-24.1	20.0	0.00e+00	0	43	0	2257584128	5	4173
2026-01-30 12:30:05.39	335.05	67.87	-23.1	-24.1	19.7	0.00e+00	0	43	0	2262827008	6	4048
2026-01-30 12:30:06.40	335.18	67.41	-23.0	-23.9	19.9	0.00e+00	0	43	0	2268069888	6	3990
2026-01-30 12:30:07.41	335.30	66.96	-23.2	-24.3	19.7	0.00e+00	0	43	0	2274361344	6	4093
2026-01-30 12:30:08.43	335.41	66.50	-23.7	-24.9	19.1	0.00e+00	0	43	0	2279604224	7	4144
2026-01-30 12:30:09.44	335.52	66.05	-23.4	-24.3	19.4	0.00e+00	0	43	0	2285895680	7	3988
2026-01-30 12:30:10.45	335.63	65.61	-23.1	-23.7	19.7	0.00e+00	0	43	0	2291138560	7	3837
2026-01-30 12:30:11.46	335.73	65.16	-22.9	-23.2	20.0	0.00e+00	0	43	0	2296381440	7	3729
2026-01-30 12:30:12.47	335.83	64.72	-22.8	-22.9	20.1	0.00e+00	0	44	0	2302672896	7	3671
2026-01-30 12:30:13.48	335.93	64.28	-22.7	-23.2	20.2	0.00e+00	0	43	0	2307915776	6	3842
2026-01-30 12:30:14.49	336.02	63.84	-22.9	-23.6	20.0	0.00e+00	0	43	0	2314207232	6	3925
2026-01-30 12:30:15.50	336.11	63.41	-23.1	-24.1	19.8	0.00e+00	0	43	0	2319450112	6	4045
2026-01-30 12:30:16.51	336.20	62.98	-23.3	-24.6	19.5	0.00e+00	0	44	0	2324692992	6	4161
2026-01-30 12:30:17.52	336.28	62.55	-23.4	-24.3	19.4	0.00e+00	0	43	0	2330984448	7	3993
2026-01-30 12:30:18.53	336.36	62.12	-23.0	-23.5	19.8	0.00e+00	0	43	0	2336227328	7	3787
2026-01-30 12:30:19.54	336.44	61.70	-22.7	-23.2	20.1	0.00e+00	0	43	0	2342518784	6	3832
2026-01-30 12:30:20.56	336.51	61.28	-22.5	-22.9	20.3	0.00e+00	0	43	0	2347761664	6	3762
2026-01-30 12:30:21.57	336.58	60.86	-22.6	-23.1	20.2	0.00e+00	0	43	0	2354053120	6	3806
2026-01-30 12:30:22.58	336.65	60.44	-22.6	-23.1	20.2	0.00e+00	0	44	0	2359296000	6	3822
2026-01-30 12:30:23.59	336.72	60.03	-22.7	-23.2	20.1	0.00e+00	0	43	0	2365587456	6	3846
2026-01-30 12:30:24.60	336.79	59.62	-22.9	-23.7	19.9	0.00e+00	0	43	0	2370830336	6	3940
2026-01-30 12:30:25.61	336.85	59.21	-23.1	-24.2	19.6	0.00e+00	0	44	0	2376073216	6	4066
2026-01-30 12:30:26.62	336.92	58.81	-23.2	-24.3	19.6	0.00e+00	0	44	0	2382364672	6	4085
2026-01-30 12:30:27.63	336.98	58.40	-23.1	-24.2	19.7	0.00e+00	0	43	0	2387607552	6	4067
2026-01-30 12:30:28.64	337.04	58.01	-23.4	-24.7	19.4	0.00e+00	0	44	0	2393899008	6	4186
2026-01-30 12:30:29.65	337.09	57.61	-23.7	-24.8	19.1	0.00e+00	0	44	0	2399141888	7	4117
2026-01-30 12:30:30.66	337.15	57.21	-23.6	-24.7	19.1	0.00e+00	0	43	0	2404384768	7	4083
2026-01-30 12:30:31.67	337.20	56.82	-23.4	-24.3	19.3	0.00e+00	0	43	0	2410676224	7	3982
2026-01-30 12:30:32.68	337.26	56.43	-23.8	-25.0	19.0	0.00e+00	0	44	0	2415919104	7	4149
2026-01-30 12:30:33.70	337.31	56.05	-24.1	-25.3	18.6	0.00e+00	0	44	0	2422210560	8	4119
2026-01-30 12:30:34.71	337.36	55.66	-24.5	-26.0	18.2	0.00e+00	0	43	0	2427453440	8	4301
2026-01-30 12:30:35.72	337.41	55.28	-24.5	-25.7	18.1	0.00e+00	0	43	0	2433744896	9	4099
2026-01-30 12:30:36.73	337.46	54.90	-24.5	-25.5	18.2	0.00e+00	0	43	0	2438987776	9	4056
2026-01-30 12:30:37.74	337.50	54.53	-24.4	-25.4	18.2	0.00e+00	0	43	0	2444230656	9	4034
2026-01-30 12:30:38.75	337.55	54.16	-24.6	-25.7	18.1	0.00e+00	0	43	0	2450522112	9	4108
2026-01-30 12:30:39.76	337.59	53.79	-24.5	-25.6	18.1	0.00e+00	0	43	0	2455764992	9	4096
2026-01-30 12:30:40.77	337.64	53.42	-24.4	-25.3	18.3	0.00e+00	0	43	0	2462056448	9	4009
2026-01-30 12:30:41.78	337.68	53.05	-24.5	-25.5	18.2	0.00e+00	0	43	0	2467299328	9	4045
2026-01-30 12:30:42.79	337.72	52.69	-24.4	-25.4	18.2	0.00e+00	0	43	0	2473590784	9	4037
2026-01-30 12:30:43.80	337.76	52.33	-24.6	-25.9	18.0	0.00e+00	0	44	0	2478833664	9	4148
2026-01-30 12:30:44.82	337.80	51.97	-24.3	-25.1	18.4	0.00e+00	0	43	0	2485125120	9	3953
2026-01-30 12:30:45.83	337.84	51.62	-23.7	-24.5	18.9	0.00e+00	0	43	0	2490368000	8	3911
2026-01-30 12:30:46.84	337.88	51.27	-23.4	-23.8	19.3	0.00e+00	0	44	0	2495610880	8	3769
2026-01-30 12:30:47.85	337.91	50.92	-23.3	-23.6	19.3	0.00e+00	0	44	0	2501902336	8	3728
2026-01-30 12:30:48.86	337.95	50.57	-23.2	-24.0	19.4	0.00e+00	0	43	0	2507145216	7	3917
2026-01-30 12:30:49.87	337.99	50.23	-23.0	-23.5	19.6	0.00e+00	0	43	0	2513436672	7	3798
2026-01-30 12:30:50.88	338.02	49.89	-22.6	-23.1	20.1	0.00e+00	0	44	0	2518679552	6	3824
2026-01-30 12:30:51.89	338.06	49.55	-22.5	-22.9	20.1	0.00e+00	0	43	0	2523922432	6	3774
2026-01-30 12:30:52.90	338.09	49.21	-22.7	-23.3	20.0	0.00e+00	0	44	0	2530213888	6	3863
2026-01-30 12:30:53.91	338.12	48.88	-22.8	-23.5	19.9	0.00e+00	0	44	0	2535456768	6	3903
2026-01-30 12:30:54.92	338.15	48.55	-23.0	-23.9	19.7	0.00e+00	0	44	0	2541748224	6	4004
2026-01-30 12:30:55.94	338.19	48.22	-22.8	-23.5	19.9	0.00e+00	0	43	0	2546991104	6	3911
2026-01-30 12:30:56.94	338.22	47.90	-22.7	-23.2	20.0	0.00e+00	0	43	0	2552233984	6	3843
2026-01-30 12:30:57.96	338.25	47.57	-22.6	-23.1	20.1	0.00e+00	0	44	0	2558525440	6	3809
2026-01-30 12:30:58.97	338.28	47.25	-22.9	-23.7	19.8	0.00e+00	0	44	0	2563768320	6	3955
2026-01-30 12:30:59.98	338.31	46.93	-22.8	-23.5	19.9	0.00e+00	0	44	0	2570059776	6	3892
2026-01-30 12:31:00.99	338.34	46.61	-22.6	-23.1	20.0	0.00e+00	0	44	0	2575302656	6	3818
2026-01-30 12:31:02.00	338.37	46.30	-22.5	-22.9	20.2	0.00e+00	0	44	0	2581594112	6	3758
2026-01-30 12:31:03.01	338.39	45.99	-22.5	-22.9	20.1	0.00e+00	0	43	0	2586836992	6	3766
2026-01-30 12:31:04.02	338.42	45.68	-22.6	-23.1	20.0	0.00e+00	0	44	0	2593128448	6	3817
2026-01-30 12:31:05.03	338.45	45.37	-22.9	-23.7	19.8	0.00e+00	0	43	0	2598371328	6	3944
2026-01-30 12:31:06.04	338.48	45.07	-22.7	-23.4	19.9	0.00e+00	0	44	0	2603614208	6	3883
2026-01-30 12:31:07.05	338.50	44.77	-22.7	-23.4	19.9	0.00e+00	0	43	0	2609905664	6	3877
2026-01-30 12:31:08.06	338.53	44.47	-22.6	-23.2	20.0	0.00e+00	0	44	0	2615148544	6	3830
2026-01-30 12:31:09.07	338.55	44.17	-22.7	-23.3	20.0	0.00e+00	0	43	0	2621440000	6	3855
2026-01-30 12:31:10.08	338.58	43.87	-22.9	-23.6	19.8	0.00e+00	0	43	0	2626682880	6	3935
2026-01-30 12:31:11.09	338.60	43.58	-22.6	-23.2	20.0	0.00e+00	0	43	0	2631925760	6	3828
2026-01-30 12:31:12.10	338.63	43.29	-22.8	-23.6	19.8	0.00e+00	0	43	0	2638217216	6	3924
2026-01-30 12:31:13.11	338.65	43.00	-22.8	-23.5	19.8	0.00e+00	0	43	0	2643460096	6	3907
2026-01-30 12:31:14.12	338.67	42.71	-22.9	-23.8	19.7	0.00e+00	0	44	0	2649751552	6	3968
2026-01-30 12:31:15.13	338.70	42.43	-22.8	-23.5	19.8	0.00e+00	0	44	0	2654994432	6	3902
2026-01-30 12:31:16.14	338.72	42.15	-22.7	-23.2	20.0	0.00e+00	0	43	0	2660237312	6	3839
2026-01-30 12:31:17.15	338.74	41.87	-22.6	-23.2	20.0	0.00e+00	0	43	0	2666528768	6	3837
2026-01-30 12:31:18.16	338.77	41.59	-22.7	-23.4	19.9	0.00e+00	0	43	0	2671771648	6	3877
2026-01-30 12:31:19.17	338.79	41.32	-22.6	-23.0	20.1	0.00e+00	0	44	0	2678063104	6	3798
2026-01-30 12:31:20.18	338.81	41.04	-22.4	-22.7	20.2	0.00e+00	0	43	0	2683305984	6	3733
2026-01-30 12:31:21.20	338.83	40.77	-22.4	-22.6	20.2	0.00e+00	0	43	0	2689597440	6	3711
2026-01-30 12:31:22.21	338.85	40.50	-22.4	-22.6	20.2	0.00e+00	0	43	0	2694840320	6	3710
2026-01-30 12:31:23.22	338.87	40.23	-22.5	-22.9	20.1	0.00e+00	0	43	0	2701131776	6	3778
2026-01-30 12:31:24.23	338.89	39.97	-22.7	-23.3	19.9	0.00e+00	0	44	0	2706374656	6	3852
2026-01-30 12:31:25.24	338.91	39.70	-22.4	-22.8	20.1	0.00e+00	0	43	0	2711617536	6	3745
2026-01-30 12:31:26.25	338.93	39.44	-22.5	-22.9	20.1	0.00e+00	0	44	0	2717908992	6	3759
2026-01-30 12:31:27.26	338.95	39.18	-22.5	-22.9	20.1	0.00e+00	0	43	0	2723151872	6	3771
2026-01-30 12:31:28.27	338.97	38.92	-22.4	-22.8	20.1	0.00e+00	0	43	0	2729443328	6	3743
2026-01-30 12:31:29.28	338.99	38.67	-22.4	-22.7	20.2	0.00e+00	0	43	0	2734686208	6	3729
2026-01-30 12:31:30.29	339.01	38.41	-22.4	-22.6	20.2	0.00e+00	0	43	0	2739929088	6	3711
2026-01-30 12:31:31.30	339.03	38.16	-22.3	-22.6	20.2	0.00e+00	0	43	0	2746220544	6	3695
2026-01-30 12:31:32.31	339.05	37.91	-22.2	-22.8	20.3	0.00e+00	0	44	0	2751463424	5	3858
2026-01-30 12:31:33.32	339.07	37.66	-22.4	-23.1	20.2	0.00e+00	0	44	0	2757754880	5	3924
2026-01-30 12:31:34.33	339.08	37.42	-22.5	-23.3	20.1	0.00e+00	0	43	0	2762997760	5	3976
2026-01-30 12:31:35.35	339.10	37.17	-22.3	-22.9	20.3	0.00e+00	0	43	0	2768240640	5	3884
2026-01-30 12:31:36.36	339.12	36.93	-22.3	-22.9	20.3	0.00e+00	0	43	0	2774532096	5	3879
2026-01-30 12:31:37.37	339.14	36.69	-22.3	-23.0	20.2	0.00e+00	0	43	0	2779774976	5	3901
2026-01-30 12:31:38.38	339.15	36.45	-22.4	-23.1	20.2	0.00e+00	0	44	0	2786066432	5	3927
2026-01-30 12:31:39.39	339.17	36.21	-22.4	-23.3	20.1	0.00e+00	0	43	0	2791309312	5	3966
2026-01-30 12:31:40.40	339.19	35.98	-22.4	-23.2	20.1	0.00e+00	0	44	0	2797600768	5	3947
2026-01-30 12:31:41.41	339.21	35.74	-22.5	-23.5	20.0	0.00e+00	0	43	0	2802843648	5	4012
2026-01-30 12:31:42.42	339.22	35.51	-22.7	-23.8	19.8	0.00e+00	0	43	0	2809135104	5	4086
2026-01-30 12:31:43.43	339.24	35.28	-22.6	-23.7	19.9	0.00e+00	0	43	0	2814377984	5	4056
2026-01-30 12:31:44.44	339.25	35.05	-22.8	-24.1	19.7	0.00e+00	0	43	0	2819620864	5	4160
2026-01-30 12:31:45.46	339.27	34.82	-22.9	-24.2	19.6	0.00e+00	0	43	0	2825912320	5	4199
2026-01-30 12:31:46.46	339.29	34.60	-23.0	-24.4	19.6	0.00e+00	0	43	0	2831155200	5	4228
2026-01-30 12:31:47.48	339.30	34.37	-23.3	-24.5	19.3	0.00e+00	0	43	0	2837446656	6	4139
2026-01-30 12:31:48.49	339.32	34.15	-23.4	-24.7	19.1	0.00e+00	0	43	0	2842689536	6	4201
2026-01-30 12:31:49.50	339.33	33.93	-23.3	-24.6	19.2	0.00e+00	0	43	0	2847932416	6	4182
2026-01-30 12:31:50.51	339.35	33.71	-23.4	-24.7	19.1	0.00e+00	0	44	0	2854223872	6	4211
2026-01-30 12:31:51.52	339.36	33.49	-23.3	-24.6	19.2	0.00e+00	0	43	0	2859466752	6	4180
2026-01-30 12:31:52.53	339.38	33.28	-23.0	-24.0	19.5	0.00e+00	0	44	0	2865758208	6	4013
2026-01-30 12:31:53.54	339.39	33.06	-22.8	-23.5	19.8	0.00e+00	0	44	0	2871001088	6	3898
2026-01-30 12:31:54.55	339.41	32.85	-22.6	-23.1	19.9	0.00e+00	0	43	0	2876243968	6	3825
2026-01-30 12:31:55.56	339.42	32.64	-22.6	-23.1	19.9	0.00e+00	0	44	0	2882535424	6	3811
2026-01-30 12:31:56.57	339.44	32.43	-22.6	-23.2	19.9	0.00e+00	0	43	0	2887778304	6	3833
2026-01-30 12:31:57.58	339.45	32.22	-22.6	-23.1	19.9	0.00e+00	0	44	0	2894069760	6	3817
2026-01-30 12:31:58.60	339.46	32.01	-22.6	-23.1	19.9	0.00e+00	0	43	0	2899312640	6	3820
2026-01-30 12:31:59.61	339.48	31.81	-22.6	-23.2	19.9	0.00e+00	0	43	0	2905604096	6	3840
2026-01-30 12:32:00.62	339.49	31.60	-22.7	-23.3	19.8	0.00e+00	0	44	0	2910846976	6	3866
2026-01-30 12:32:01.63	339.51	31.40	-22.7	-23.3	19.8	0.00e+00	0	43	0	2917138432	6	3857
2026-01-30 12:32:02.64	339.52	31.20	-22.7	-23.4	19.8	0.00e+00	0	44	0	2922381312	6	3879
2026-01-30 12:32:03.65	339.53	31.00	-22.7	-23.4	19.7	0.00e+00	0	43	0	2927624192	6	3892
2026-01-30 12:32:04.66	339.55	30.80	-22.8	-23.6	19.7	0.00e+00	0	44	0	2933915648	6	3921
2026-01-30 12:32:05.67	339.56	30.60	-22.8	-23.6	19.6	0.00e+00	0	43	0	2939158528	6	3931
2026-01-30 12:32:06.68	339.57	30.41	-22.8	-23.6	19.6	0.00e+00	0	43	0	2945449984	6	3945
2026-01-30 12:32:07.70	339.59	30.21	-22.9	-23.7	19.6	0.00e+00	0	44	0	2950692864	6	3962
2026-01-30 12:32:08.71	339.60	30.02	-22.9	-23.8	19.5	0.00e+00	0	44	0	2955935744	6	3979
2026-01-30 12:32:09.72	339.61	29.82	-23.0	-24.0	19.4	0.00e+00	0	43	0	2962227200	6	4036
2026-01-30 12:32:10.73	339.62	29.63	-23.1	-24.2	19.3	0.00e+00	0	43	0	2967470080	6	4087
2026-01-30 12:32:11.74	339.64	29.44	-23.1	-24.2	19.4	0.00e+00	0	43	0	2973761536	6	4069
2026-01-30 12:32:12.75	339.65	29.26	-23.1	-24.2	19.3	0.00e+00	0	43	0	2979004416	6	4070
2026-01-30 12:32:13.76	339.66	29.07	-23.1	-24.1	19.4	0.00e+00	0	43	0	2984247296	6	4054
2026-01-30 12:32:14.77	339.67	28.88	-23.1	-24.2	19.3	0.00e+00	0	43	0	2990538752	6	4076
2026-01-30 12:32:15.78	339.69	28.70	-23.1	-24.1	19.4	0.00e+00	0	43	0	2995781632	6	4049
2026-01-30 12:32:16.79	339.70	28.52	-23.1	-24.2	19.3	0.00e+00	0	44	0	3002073088	6	4078
2026-01-30 12:32:17.81	339.71	28.33	-23.1	-24.1	19.3	0.00e+00	0	43	0	3007315968	6	4054
2026-01-30 12:32:18.82	339.72	28.15	-22.8	-23.6	19.6	0.00e+00	0	43	0	3013607424	6	3923
2026-01-30 12:32:19.83	339.73	27.97	-22.7	-23.2	19.8	0.00e+00	0	43	0	3018850304	6	3843
2026-01-30 12:32:20.84	339.75	27.79	-22.6	-23.0	19.9	0.00e+00	0	43	0	3025141760	6	3800
2026-01-30 12:32:21.85	339.76	27.62	-22.6	-23.1	19.8	0.00e+00	0	43	0	3030384640	6	3822
2026-01-30 12:32:22.86	339.77	27.44	-22.6	-23.0	19.9	0.00e+00	0	43	0	3035627520	6	3801
2026-01-30 12:32:23.87	339.78	27.26	-22.6	-23.2	19.8	0.00e+00	0	43	0	3041918976	6	3826
2026-01-30 12:32:24.88	339.79	27.09	-22.6	-23.1	19.8	0.00e+00	0	43	0	3047161856	6	3819
2026-01-30 12:32:25.89	339.80	26.92	-22.7	-23.3	19.7	0.00e+00	0	43	0	3053453312	6	3855
2026-01-30 12:32:26.90	339.81	26.75	-22.7	-23.3	19.7	0.00e+00	0	43	0	3058696192	6	3857
2026-01-30 12:32:27.91	339.83	26.58	-22.8	-23.5	19.6	0.00e+00	0	43	0	3063939072	6	3901
2026-01-30 12:32:28.92	339.84	26.41	-22.8	-23.5	19.6	0.00e+00	0	44	0	3070230528	6	3919
2026-01-30 12:32:29.94	339.85	26.24	-22.9	-23.8	19.5	0.00e+00	0	44	0	3075473408	6	3988
2026-01-30 12:32:30.94	339.86	26.07	-23.0	-24.1	19.3	0.00e+00	0	44	0	3081764864	6	4046
2026-01-30 12:32:31.96	339.87	25.90	-23.0	-24.1	19.3	0.00e+00	0	44	0	3087007744	6	4048
2026-01-30 12:32:32.97	339.88	25.74	-23.1	-24.2	19.2	0.00e+00	0	44	0	3093299200	6	4093
2026-01-30 12:32:33.98	339.89	25.57	-23.1	-24.2	19.2	0.00e+00	0	43	0	3098542080	6	4091
2026-01-30 12:32:34.99	339.90	25.41	-23.2	-24.3	19.2	0.00e+00	0	43	0	3103784960	6	4107
2026-01-30 12:32:36.00	339.91	25.25	-23.2	-24.4	19.1	0.00e+00	0	44	0	3110076416	6	4137
2026-01-30 12:32:37.01	339.92	25.09	-23.2	-24.4	19.1	0.00e+00	0	44	0	3115319296	6	4125
2026-01-30 12:32:38.02	339.93	24.93	-23.3	-24.6	19.1	0.00e+00	0	43	0	3121610752	6	4175
2026-01-30 12:32:39.03	339.94	24.77	-23.2	-24.4	19.1	0.00e+00	0	44	0	3126853632	6	4144
2026-01-30 12:32:40.04	339.95	24.61	-23.3	-24.5	19.1	0.00e+00	0	43	0	3133145088	6	4170
2026-01-30 12:32:41.05	339.96	24.45	-23.4	-24.9	18.9	0.00e+00	0	43	0	3138387968	6	4258
2026-01-30 12:32:42.06	339.98	24.29	-23.2	-24.5	19.1	0.00e+00	0	43	0	3143630848	6	4147
2026-01-30 12:32:43.08	339.99	24.14	-23.3	-24.6	19.0	0.00e+00	0	44	0	3149922304	6	4181
2026-01-30 12:32:44.09	340.00	23.98	-23.6	-24.6	18.7	0.00e+00	0	43	0	3155165184	7	4076
2026-01-30 12:32:45.10	340.01	23.83	-23.4	-24.3	18.9	0.00e+00	0	43	0	3161456640	7	4004
2026-01-30 12:32:46.11	340.02	23.68	-23.2	-23.9	19.1	0.00e+00	0	44	0	3166699520	7	3887
2026-01-30 12:32:47.12	340.03	23.52	-23.1	-23.7	19.2	0.00e+00	0	43	0	3172990976	7	3841
2026-01-30 12:32:48.13	340.04	23.37	-23.0	-23.5	19.3	0.00e+00	0	44	0	3178233856	7	3811
2026-01-30 12:32:49.14	340.05	23.22	-23.1	-23.7	19.2	0.00e+00	0	43	0	3183476736	7	3837
2026-01-30 12:32:50.15	340.05	23.07	-23.1	-23.6	19.3	0.00e+00	0	44	0	3189768192	7	3813
2026-01-30 12:32:51.17	340.06	22.92	-23.0	-23.5	19.3	0.00e+00	0	43	0	3195011072	7	3793
2026-01-30 12:32:52.18	340.07	22.78	-23.2	-23.8	19.2	0.00e+00	0	43	0	3201302528	7	3859
2026-01-30 12:32:53.19	340.08	22.63	-23.1	-23.6	19.3	0.00e+00	0	44	0	3206545408	7	3820
2026-01-30 12:32:54.20	340.09	22.48	-23.2	-23.8	19.2	0.00e+00	0	44	0	3211788288	7	3865
2026-01-30 12:32:55.21	340.10	22.34	-23.2	-23.8	19.2	0.00e+00	0	44	0	3218079744	7	3862
2026-01-30 12:32:56.22	340.11	22.19	-23.3	-24.0	19.1	0.00e+00	0	43	0	3223322624	7	3908
2026-01-30 12:32:57.23	340.12	22.05	-23.4	-24.4	18.8	0.00e+00	0	44	0	3229614080	7	4003
2026-01-30 12:32:58.24	340.13	21.91	-23.5	-24.5	18.8	0.00e+00	0	44	0	3234856960	7	4046
2026-01-30 12:32:59.25	340.14	21.77	-23.5	-24.5	18.8	0.00e+00	0	44	0	3241148416	7	4047
2026-01-30 12:33:00.26	340.15	21.63	-23.6	-24.6	18.7	0.00e+00	0	44	0	3246391296	7	4069
2026-01-30 12:33:01.28	340.16	21.48	-23.6	-24.7	18.6	0.00e+00	0	43	0	3251634176	7	4085
2026-01-30 12:33:02.29	340.17	21.35	-23.6	-24.8	18.6	0.00e+00	0	44	0	3257925632	7	4107
2026-01-30 12:33:03.30	340.18	21.21	-23.8	-25.1	18.4	0.00e+00	0	43	0	3263168512	7	4185
2026-01-30 12:33:04.31	340.19	21.07	-23.9	-24.9	18.3	0.00e+00	0	43	0	3269459968	8	4038
2026-01-30 12:33:05.32	340.20	20.93	-23.7	-24.5	18.5	0.00e+00	0	43	0	3274702848	8	3926
2026-01-30 12:33:06.33	340.20	20.80	-23.6	-24.2	18.7	0.00e+00	0	43	0	3280994304	8	3861
2026-01-30 12:33:07.34	340.21	20.66	-23.6	-24.2	18.6	0.00e+00	0	43	0	3286237184	8	3872
2026-01-30 12:33:08.35	340.22	20.52	-23.7	-24.5	18.5	0.00e+00	0	43	0	3291480064	8	3934
2026-01-30 12:33:09.36	340.23	20.39	-23.9	-24.9	18.3	0.00e+00	0	43	0	3297771520	8	4025
2026-01-30 12:33:10.37	340.24	20.26	-24.0	-25.0	18.3	0.00e+00	0	44	0	3303014400	8	4045
2026-01-30 12:33:11.38	340.25	20.12	-24.0	-25.0	18.2	0.00e+00	0	43	0	3309305856	8	4062
2026-01-30 12:33:12.40	340.26	19.99	-24.0	-25.1	18.2	0.00e+00	0	43	0	3314548736	8	4083
2026-01-30 12:33:13.41	340.27	19.86	-24.1	-25.3	18.1	0.00e+00	0	44	0	3319791616	8	4116
2026-01-30 12:33:14.42	340.28	19.73	-24.1	-25.3	18.1	0.00e+00	0	44	0	3326083072	8	4128
2026-01-30 12:33:15.43	340.28	19.60	-24.2	-25.4	18.0	0.00e+00	0	43	0	3331325952	8	4161
2026-01-30 12:33:16.44	340.29	19.47	-24.1	-25.2	18.1	0.00e+00	0	44	0	3337617408	8	4112
2026-01-30 12:33:17.45	340.30	19.34	-24.1	-25.3	18.1	0.00e+00	0	43	0	3342860288	8	4127
2026-01-30 12:33:18.46	340.31	19.21	-24.2	-25.4	18.0	0.00e+00	0	43	0	3348103168	8	4149
2026-01-30 12:33:19.47	340.32	19.09	-24.2	-25.5	17.9	0.00e+00	0	43	0	3354394624	8	4191
2026-01-30 12:33:20.48	340.33	18.96	-24.2	-25.5	17.9	0.00e+00	0	44	0	3359637504	8	4187
2026-01-30 12:33:21.49	340.33	18.83	-24.3	-25.7	17.8	0.00e+00	0	43	0	3365928960	8	4233
2026-01-30 12:33:22.50	340.34	18.71	-24.4	-26.0	17.7	0.00e+00	0	43	0	3371171840	8	4305
2026-01-30 12:33:23.52	340.35	18.58	-24.7	-26.0	17.4	0.00e+00	0	43	0	3377463296	9	4205
2026-01-30 12:33:24.53	340.36	18.46	-24.9	-26.5	17.2	0.00e+00	0	43	0	3382706176	9	4314
2026-01-30 12:33:25.54	340.37	18.34	-24.9	-26.5	17.1	0.00e+00	0	43	0	3388997632	9	4321
2026-01-30 12:33:26.55	340.38	18.21	-25.0	-26.2	17.0	0.00e+00	0	44	0	3394240512	10	4147
2026-01-30 12:33:27.56	340.38	18.09	-24.9	-26.0	17.1	0.00e+00	0	43	0	3399483392	10	4097
2026-01-30 12:33:28.57	340.39	17.97	-24.7	-25.6	17.3	0.00e+00	0	44	0	3405774848	10	3997
2026-01-30 12:33:29.58	340.40	17.85	-24.7	-25.5	17.4	0.00e+00	0	43	0	3411017728	10	3952
2026-01-30 12:33:30.59	340.41	17.73	-24.6	-25.5	17.4	0.00e+00	0	43	0	3417309184	10	3956
2026-01-30 12:33:31.60	340.42	17.61	-24.8	-25.7	17.3	0.00e+00	0	44	0	3422552064	10	4017
2026-01-30 12:33:32.61	340.43	17.49	-24.8	-25.7	17.2	0.00e+00	0	43	0	3427794944	10	4026
2026-01-30 12:33:33.63	340.43	17.37	-24.8	-25.8	17.2	0.00e+00	0	43	0	3434086400	10	4029
2026-01-30 12:33:34.64	340.44	17.25	-24.8	-25.8	17.2	0.00e+00	0	44	0	3439329280	10	4040
2026-01-30 12:33:35.65	340.45	17.13	-24.9	-26.0	17.1	0.00e+00	0	44	0	3445620736	10	4087
2026-01-30 12:33:36.66	340.46	17.02	-24.9	-26.0	17.1	0.00e+00	0	43	0	3450863616	10	4086
2026-01-30 12:33:37.67	340.46	16.90	-25.0	-26.2	17.0	0.00e+00	0	44	0	3457155072	10	4146
2026-01-30 12:33:38.68	340.47	16.78	-25.1	-26.4	16.9	0.00e+00	0	43	0	3462397952	10	4188
2026-01-30 12:33:39.69	340.48	16.67	-25.1	-26.4	16.8	0.00e+00	0	43	0	3467640832	10	4202
2026-01-30 12:33:40.70	340.49	16.55	-25.1	-26.4	16.9	0.00e+00	0	43	0	3473932288	10	4186
2026-01-30 12:33:41.71	340.50	16.44	-24.9	-26.1	17.0	1.10e-06	0	44	0	3479175168	10	4119
2026-01-30 12:33:42.72	340.50	16.33	-24.9	-26.1	17.0	0.00e+00	0	44	0	3485466624	10	4108
2026-01-30 12:33:43.73	340.51	16.21	-24.9	-26.0	17.1	0.00e+00	0	43	0	3490709504	10	4083
2026-01-30 12:33:44.74	340.52	16.10	-25.1	-26.3	16.9	0.00e+00	0	43	0	3497000960	10	4173
2026-01-30 12:33:45.75	340.53	15.99	-25.0	-26.3	16.9	0.00e+00	0	44	0	3502243840	10	4166
2026-01-30 12:33:46.76	340.53	15.88	-25.0	-26.1	17.0	0.00e+00	0	44	0	3507486720	10	4119
2026-01-30 12:33:47.78	340.54	15.76	-25.1	-26.3	16.9	0.00e+00	0	44	0	3513778176	10	4170
2026-01-30 12:33:48.79	340.55	15.65	-25.0	-26.3	16.9	0.00e+00	0	43	0	3519021056	10	4152
2026-01-30 12:33:49.80	340.56	15.54	-25.0	-26.2	16.9	0.00e+00	0	43	0	3525312512	10	4141
2026-01-30 12:33:50.81	340.57	15.43	-25.2	-26.5	16.7	0.00e+00	0	44	0	3530555392	10	4225
2026-01-30 12:33:51.82	340.57	15.33	-25.2	-26.6	16.7	0.00e+00	0	43	0	3536846848	10	4229
2026-01-30 12:33:52.83	340.58	15.22	-25.2	-26.6	16.7	0.00e+00	0	43	0	3542089728	10	4235
2026-01-30 12:33:53.84	340.59	15.11	-25.2	-26.7	16.7	0.00e+00	0	43	0	3547332608	10	4254
2026-01-30 12:33:54.85	340.60	15.00	-25.2	-26.7	16.7	0.00e+00	0	44	0	3553624064	10	4268
2026-01-30 12:33:55.86	340.60	14.89	-25.3	-26.9	16.6	0.00e+00	0	43	0	3558866944	10	4305
2026-01-30 12:33:56.87	340.61	14.79	-25.3	-26.8	16.6	0.00e+00	0	44	0	3565158400	10	4291
2026-01-30 12:33:57.88	340.62	14.68	-25.5	-26.8	16.3	0.00e+00	0	43	0	3570401280	11	4179
2026-01-30 12:33:58.90	340.63	14.57	-25.3	-26.4	16.5	1.10e-06	0	43	0	3575644160	11	4087
2026-01-30 12:33:59.91	340.63	14.47	-25.2	-26.1	16.7	0.00e+00	0	43	0	3581935616	11	4009
2026-01-30 12:34:00.92	340.64	14.36	-25.1	-25.9	16.8	0.00e+00	0	43	0	3587178496	11	3959
2026-01-30 12:34:01.93	340.65	14.26	-25.2	-26.2	16.6	1.10e-06	0	44	0	3593469952	11	4040
2026-01-30 12:34:02.94	340.65	14.16	-25.2	-26.1	16.6	0.00e+00	0	44	0	3598712832	11	4015
2026-01-30 12:34:03.95	340.66	14.05	-25.2	-26.1	16.6	0.00e+00	0	44	0	3605004288	11	4011
2026-01-30 12:34:04.96	340.67	13.95	-25.4	-26.5	16.4	0.00e+00	0	43	0	3610247168	11	4115
2026-01-30 12:34:05.97	340.68	13.85	-25.3	-26.4	16.5	0.00e+00	0	43	0	3616538624	11	4074
2026-01-30 12:34:06.98	340.68	13.74	-25.2	-26.3	16.5	0.00e+00	0	44	0	3621781504	11	4043
2026-01-30 12:34:07.99	340.69	13.64	-25.2	-26.1	16.6	0.00e+00	0	44	0	3627024384	11	4003
2026-01-30 12:34:09.01	340.70	13.54	-25.2	-26.2	16.5	1.10e-06	0	43	0	3633315840	11	4042
2026-01-30 12:34:10.02	340.70	13.44	-25.2	-26.2	16.5	0.00e+00	0	44	0	3638558720	11	4034
2026-01-30 12:34:11.03	340.71	13.34	-25.3	-26.3	16.5	0.00e+00	0	44	0	3644850176	11	4061
2026-01-30 12:34:12.04	340.72	13.24	-25.3	-26.3	16.5	0.00e+00	0	44	0	3650093056	11	4051
2026-01-30 12:34:13.05	340.73	13.14	-25.4	-26.5	16.4	0.00e+00	0	44	0	3655335936	11	4103
2026-01-30 12:34:14.06	340.73	13.04	-25.3	-26.4	16.4	0.00e+00	0	43	0	3661627392	11	4088
2026-01-30 12:34:15.07	340.74	12.94	-25.3	-26.4	16.4	0.00e+00	0	44	0	3666870272	11	4090
2026-01-30 12:34:16.08	340.75	12.84	-25.3	-26.5	16.4	0.00e+00	0	43	0	3673161728	11	4095
2026-01-30 12:34:17.09	340.75	12.75	-25.5	-26.9	16.1	0.00e+00	0	43	0	3678404608	11	4218
2026-01-30 12:34:18.10	340.76	12.65	-25.3	-26.4	16.4	0.00e+00	0	44	0	3683647488	11	4086
2026-01-30 12:34:19.11	340.77	12.55	-25.4	-26.5	16.4	0.00e+00	0	44	0	3689938944	11	4114
2026-01-30 12:34:20.12	340.78	12.45	-25.5	-26.9	16.2	0.00e+00	0	43	0	3695181824	11	4208
2026-01-30 12:34:21.14	340.78	12.36	-25.5	-26.7	16.3	0.00e+00	0	44	0	3701473280	11	4165
2026-01-30 12:34:22.15	340.79	12.26	-25.5	-26.9	16.1	0.00e+00	0	44	0	3706716160	11	4224
2026-01-30 12:34:23.16	340.80	12.16	-25.7	-27.2	16.0	0.00e+00	0	44	0	3713007616	11	4297
2026-01-30 12:34:24.17	340.80	12.07	-25.6	-27.1	16.0	0.00e+00	0	44	0	3718250496	11	4256
2026-01-30 12:34:25.18	340.81	11.97	-25.7	-27.2	16.0	1.10e-06	0	44	0	3724541952	11	4285
2026-01-30 12:34:26.19	340.82	11.88	-25.6	-27.1	16.0	0.00e+00	0	43	0	3729784832	11	4272
2026-01-30 12:34:27.20	340.82	11.79	-25.8	-27.6	15.7	0.00e+00	0	43	0	3735027712	11	4397
2026-01-30 12:34:28.21	340.83	11.69	-25.6	-27.1	16.0	2.20e-06	0	44	0	3741319168	11	4281
2026-01-30 12:34:29.22	340.84	11.60	-25.7	-27.3	15.9	0.00e+00	0	43	0	3746562048	11	4321
2026-01-30 12:34:30.23	340.84	11.50	-25.9	-27.7	15.7	0.00e+00	0	43	0	3752853504	11	4427
2026-01-30 12:34:31.24	340.85	11.41	-26.0	-27.4	15.5	0.00e+00	0	44	0	3758096384	12	4244
2026-01-30 12:34:32.25	340.86	11.32	-25.9	-27.2	15.6	0.00e+00	0	44	0	3763339264	12	4192
2026-01-30 12:34:33.27	340.86	11.23	-25.9	-27.2	15.6	0.00e+00	0	44	0	3769630720	12	4194
2026-01-30 12:34:34.28	340.87	11.14	-25.9	-27.1	15.6	0.00e+00	0	43	0	3774873600	12	4173
2026-01-30 12:34:35.29	340.88	11.04	-25.8	-27.1	15.6	0.00e+00	0	44	0	3781165056	12	4168
2026-01-30 12:34:36.30	340.88	10.95	-25.9	-27.3	15.5	0.00e+00	0	44	0	3786407936	12	4225
2026-01-30 12:34:37.31	340.89	10.86	-25.9	-27.2	15.6	1.10e-06	0	44	0	3791650816	12	4187
2026-01-30 12:34:38.32	340.90	10.77	-25.8	-27.1	15.6	0.00e+00	0	44	0	3797942272	12	4159
2026-01-30 12:34:39.33	340.90	10.68	-25.9	-27.2	15.6	0.00e+00	0	44	0	3803185152	12	4184
2026-01-30 12:34:40.34	340.91	10.59	-25.8	-27.0	15.6	0.00e+00	0	44	0	3809476608	12	4153
2026-01-30 12:34:41.35	340.92	10.50	-26.0	-27.4	15.4	0.00e+00	0	44	0	3814719488	12	4259
2026-01-30 12:34:42.36	340.92	10.41	-25.9	-27.4	15.4	0.00e+00	0	44	0	3821010944	12	4237
2026-01-30 12:34:43.37	340.93	10.32	-26.0	-27.4	15.4	0.00e+00	0	44	0	3826253824	12	4242
2026-01-30 12:34:44.38	340.94	10.24	-26.0	-27.5	15.4	0.00e+00	0	44	0	3832545280	12	4265
2026-01-30 12:34:45.39	340.94	10.15	-25.9	-27.3	15.4	0.00e+00	0	43	0	3837788160	12	4233
2026-01-30 12:34:46.41	340.95	10.06	-26.0	-27.4	15.3	0.00e+00	0	44	0	3843031040	12	4262
2026-01-30 12:34:47.42	340.96	9.97	-26.0	-27.6	15.3	0.00e+00	0	44	0	3849322496	12	4291
2026-01-30 12:34:48.43	340.96	9.88	-26.1	-27.6	15.2	0.00e+00	0	43	0	3854565376	12	4315
2026-01-30 12:34:49.44	340.97	9.80	-26.0	-27.5	15.3	0.00e+00	0	44	0	3860856832	12	4284
2026-01-30 12:34:50.45	340.98	9.71	-26.0	-27.6	15.2	0.00e+00	0	44	0	3866099712	12	4296
2026-01-30 12:34:51.46	340.98	9.63	-26.0	-27.6	15.2	0.00e+00	0	44	0	3871342592	12	4306
2026-01-30 12:34:52.47	340.99	9.54	-26.0	-27.6	15.2	0.00e+00	0	44	0	3877634048	12	4304
