passes_logs/2026/01/30/R2M6_AANII_01/R2M6_AANII_01__20260130_091724_NOAA_21_JPSS-2_rec.log

#Pass ID: 20260130_091724_NOAA 21 (JPSS-2)
#Satellite: NOAA 21 (JPSS-2)
#Configuration: NOAA 21
#almurnet v.1.7.20240730
#Start time: 2026-01-30 09:17:26

#Version: 2.2.20231116
#Station: R2M6_AANII_01
#Location: 30.233357 lon 59.946436 lat
#TLE: 1 54234U 22150A   26029.46216196  .00000141  00000+0  87503-4 0  9994
#TLE: 2 54234  98.7512 330.1880 0000955 196.3413 163.7732 14.19540905166865

#Time	Az	El	Level	Level2	SNR	BER	BlckErr	Temp	State	Recorded	gain1	gain2
2026-01-30 09:17:26.67	128.29	7.13	-30.7	-35.3	4.6	1.40e+00	0	41	0	0	22	6096
2026-01-30 09:17:27.67	128.24	7.20	-30.7	-35.2	4.6	1.40e+00	0	41	104	0	22	6074
2026-01-30 09:17:28.67	128.19	7.27	-30.8	-34.8	8.4	5.04e-02	0	41	0	0	22	5739
2026-01-30 09:17:29.68	128.14	7.35	-30.6	-34.3	8.8	3.96e-02	0	41	0	3145728	22	5508
2026-01-30 09:17:30.68	128.09	7.42	-30.5	-33.7	9.2	2.16e-02	0	41	0	6291456	22	5237
2026-01-30 09:17:31.68	128.04	7.50	-30.3	-33.2	9.6	1.33e-02	0	41	0	9437184	22	5036
2026-01-30 09:17:32.68	127.98	7.57	-30.2	-33.4	9.8	1.03e-02	0	41	0	12582912	21	5199
2026-01-30 09:17:33.69	127.93	7.65	-30.3	-33.6	9.7	1.02e-02	0	41	0	15728640	21	5294
2026-01-30 09:17:34.69	127.88	7.73	-30.5	-34.2	9.3	1.63e-02	0	41	0	18874368	21	5519
2026-01-30 09:17:35.69	127.83	7.80	-30.3	-33.8	9.6	1.51e-02	0	41	0	22020096	21	5349
2026-01-30 09:17:36.69	127.77	7.88	-29.9	-32.6	10.4	6.10e-03	0	41	0	24117248	21	4875
2026-01-30 09:17:37.70	127.72	7.95	-29.5	-32.0	11.2	2.23e-03	0	41	0	27262976	20	4772
2026-01-30 09:17:38.70	127.66	8.03	-29.3	-31.8	11.7	7.73e-04	0	41	0	30408704	19	4796
2026-01-30 09:17:39.71	127.61	8.11	-29.0	-31.0	12.2	2.84e-04	0	41	0	33554432	19	4513
2026-01-30 09:17:40.71	127.56	8.18	-28.8	-30.5	12.5	1.23e-04	0	41	0	36700160	19	4387
2026-01-30 09:17:41.71	127.50	8.26	-28.7	-30.6	12.8	6.63e-05	0	41	0	39845888	18	4503
2026-01-30 09:17:42.71	127.45	8.34	-28.7	-30.6	12.8	7.40e-05	0	41	0	42991616	18	4510
2026-01-30 09:17:43.72	127.39	8.42	-28.8	-30.9	12.6	7.93e-05	0	41	0	46137344	18	4605
2026-01-30 09:17:44.72	127.34	8.49	-28.7	-30.8	12.7	8.01e-05	0	41	0	49283072	18	4552
2026-01-30 09:17:45.73	127.28	8.57	-28.6	-30.4	12.9	6.40e-05	0	41	0	52428800	18	4454
2026-01-30 09:17:46.72	127.22	8.65	-28.6	-30.4	13.0	4.73e-05	0	41	0	55574528	18	4434
2026-01-30 09:17:47.73	127.17	8.73	-28.5	-30.3	13.0	2.82e-05	0	41	0	58720256	18	4411
2026-01-30 09:17:48.73	127.11	8.81	-28.5	-30.2	13.1	3.35e-05	0	41	0	61865984	18	4387
2026-01-30 09:17:49.73	127.05	8.89	-28.6	-30.4	13.0	2.97e-05	0	41	0	65011712	18	4449
2026-01-30 09:17:50.73	127.00	8.96	-28.5	-30.1	13.2	3.05e-05	0	42	0	68157440	18	4350
2026-01-30 09:17:51.74	126.94	9.04	-28.4	-30.0	13.2	2.13e-05	0	42	0	71303168	18	4321
2026-01-30 09:17:52.74	126.88	9.12	-28.5	-30.2	13.2	3.43e-05	0	42	0	74448896	18	4371
2026-01-30 09:17:53.74	126.82	9.20	-28.4	-30.0	13.3	2.13e-05	0	42	0	77594624	18	4325
2026-01-30 09:17:54.75	126.76	9.28	-28.4	-29.9	13.3	1.52e-05	0	42	0	80740352	18	4295
2026-01-30 09:17:55.76	126.70	9.36	-28.4	-29.9	13.3	1.52e-05	0	41	0	83886080	18	4279
2026-01-30 09:17:56.76	126.64	9.44	-28.4	-30.0	13.3	1.75e-05	0	41	0	87031808	18	4319
2026-01-30 09:17:57.77	126.58	9.53	-28.3	-29.8	13.4	1.67e-05	0	42	0	90177536	18	4264
2026-01-30 09:17:58.77	126.52	9.61	-28.3	-29.6	13.5	8.30e-06	0	42	0	93323264	18	4205
2026-01-30 09:17:59.77	126.46	9.69	-28.3	-30.2	13.5	1.14e-05	0	42	0	96468992	17	4463
2026-01-30 09:18:00.77	126.40	9.77	-28.3	-30.2	13.5	9.10e-06	0	42	0	99614720	17	4478
2026-01-30 09:18:01.78	126.34	9.85	-28.3	-30.1	13.6	9.10e-06	0	42	0	102760448	17	4429
2026-01-30 09:18:02.78	126.28	9.93	-28.2	-29.9	13.7	8.30e-06	0	42	0	105906176	17	4385
2026-01-30 09:18:03.79	126.22	10.01	-28.3	-30.2	13.5	7.60e-06	0	42	0	109051904	17	4471
2026-01-30 09:18:04.78	126.15	10.10	-28.2	-30.0	13.6	8.30e-06	0	42	0	112197632	17	4427
2026-01-30 09:18:05.78	126.09	10.18	-28.2	-30.0	13.7	1.14e-05	0	42	0	115343360	17	4405
2026-01-30 09:18:06.79	126.03	10.26	-28.1	-29.7	13.8	3.00e-06	0	42	0	118489088	17	4338
2026-01-30 09:18:07.80	125.96	10.34	-28.2	-30.1	13.6	1.14e-05	0	42	0	121634816	17	4439
2026-01-30 09:18:08.80	125.90	10.43	-28.2	-29.8	13.7	8.30e-06	0	42	0	124780544	17	4369
2026-01-30 09:18:09.80	125.84	10.51	-28.1	-29.8	13.8	5.30e-06	0	42	0	127926272	17	4345
2026-01-30 09:18:10.81	125.77	10.59	-28.2	-30.0	13.6	1.06e-05	0	42	0	131072000	17	4426
2026-01-30 09:18:11.82	125.71	10.68	-28.2	-30.0	13.7	3.80e-06	0	42	0	134217728	17	4404
2026-01-30 09:18:12.82	125.64	10.76	-28.0	-29.6	13.9	3.00e-06	0	42	0	137363456	17	4297
2026-01-30 09:18:13.83	125.57	10.85	-28.0	-29.4	14.0	2.20e-06	0	42	0	140509184	17	4243
2026-01-30 09:18:14.83	125.51	10.93	-28.0	-29.5	14.0	7.00e-07	0	42	0	143654912	17	4272
2026-01-30 09:18:15.84	125.44	11.02	-27.9	-29.2	14.1	0.00e+00	0	42	0	146800640	17	4195
2026-01-30 09:18:16.84	125.37	11.10	-27.8	-29.0	14.2	1.06e-05	0	42	0	149946368	17	4137
2026-01-30 09:18:17.84	125.31	11.19	-27.9	-29.6	14.2	3.80e-06	0	42	0	153092096	16	4395
2026-01-30 09:18:18.85	125.24	11.28	-27.8	-29.3	14.4	7.00e-07	0	42	0	156237824	16	4317
2026-01-30 09:18:19.85	125.17	11.36	-27.8	-29.4	14.3	5.30e-06	0	42	0	159383552	16	4347
2026-01-30 09:18:20.85	125.10	11.45	-27.9	-29.5	14.3	1.50e-06	0	42	0	162529280	16	4370
2026-01-30 09:18:21.86	125.03	11.53	-27.8	-29.5	14.3	7.00e-07	0	42	0	165675008	16	4354
2026-01-30 09:18:22.87	124.96	11.62	-27.8	-29.4	14.4	5.30e-06	0	42	0	168820736	16	4317
2026-01-30 09:18:23.87	124.89	11.71	-27.9	-29.6	14.3	7.00e-07	0	42	0	171966464	16	4380
2026-01-30 09:18:24.88	124.82	11.80	-27.8	-29.3	14.4	0.00e+00	0	42	0	175112192	16	4315
2026-01-30 09:18:25.88	124.75	11.88	-27.8	-29.4	14.5	6.10e-06	0	42	0	178257920	16	4328
2026-01-30 09:18:26.89	124.68	11.97	-27.7	-29.3	14.5	7.00e-07	0	42	0	181403648	16	4290
2026-01-30 09:18:27.89	124.61	12.06	-27.8	-29.4	14.4	7.00e-07	0	42	0	184549376	16	4338
2026-01-30 09:18:28.90	124.54	12.15	-27.7	-29.3	14.5	0.00e+00	0	42	0	187695104	16	4291
2026-01-30 09:18:29.90	124.46	12.24	-27.9	-29.6	14.3	7.00e-07	0	42	0	190840832	16	4388
2026-01-30 09:18:30.91	124.39	12.33	-27.8	-29.3	14.5	0.00e+00	0	42	0	193986560	16	4310
2026-01-30 09:18:31.91	124.32	12.42	-27.7	-29.1	14.6	6.10e-06	0	42	0	197132288	16	4246
2026-01-30 09:18:32.91	124.24	12.51	-27.6	-29.0	14.7	7.00e-07	0	42	0	200278016	16	4226
2026-01-30 09:18:33.91	124.17	12.60	-27.8	-29.3	14.5	1.50e-06	0	42	0	203423744	16	4314
2026-01-30 09:18:34.91	124.09	12.68	-27.6	-28.9	14.7	0.00e+00	0	42	0	206569472	16	4198
2026-01-30 09:18:35.92	124.02	12.78	-27.6	-28.9	14.8	0.00e+00	0	42	0	209715200	16	4185
2026-01-30 09:18:36.92	123.94	12.87	-27.6	-28.9	14.8	0.00e+00	0	42	0	212860928	16	4180
2026-01-30 09:18:37.93	123.87	12.96	-27.5	-28.7	14.9	0.00e+00	0	42	0	216006656	16	4151
2026-01-30 09:18:38.93	123.79	13.05	-27.5	-28.8	14.8	0.00e+00	0	42	0	219152384	16	4178
2026-01-30 09:18:39.94	123.71	13.14	-27.5	-28.6	14.9	7.00e-07	0	42	0	222298112	16	4124
2026-01-30 09:18:40.95	123.63	13.23	-27.4	-28.6	15.0	7.00e-07	0	43	0	225443840	16	4106
2026-01-30 09:18:41.96	123.55	13.33	-27.6	-28.9	14.8	0.00e+00	0	42	0	228589568	16	4183
2026-01-30 09:18:42.96	123.48	13.42	-27.4	-28.4	15.1	0.00e+00	0	42	0	231735296	16	4053
2026-01-30 09:18:43.97	123.40	13.51	-27.5	-28.7	14.9	0.00e+00	0	42	0	234881024	16	4135
2026-01-30 09:18:44.97	123.32	13.60	-27.3	-28.4	15.1	7.00e-07	0	42	0	238026752	16	4044
2026-01-30 09:18:45.97	123.24	13.70	-27.4	-28.5	15.1	0.00e+00	0	42	0	241172480	16	4079
2026-01-30 09:18:46.97	123.15	13.79	-27.4	-28.5	15.0	0.00e+00	0	42	0	244318208	16	4087
2026-01-30 09:18:47.98	123.07	13.89	-27.4	-28.4	15.1	0.00e+00	0	42	0	247463936	16	4050
2026-01-30 09:18:48.98	122.99	13.98	-27.5	-28.6	15.0	0.00e+00	0	42	0	250609664	16	4100
2026-01-30 09:18:49.99	122.91	14.07	-27.4	-28.5	15.1	0.00e+00	0	43	0	253755392	16	4083
2026-01-30 09:18:50.99	122.83	14.17	-27.4	-28.4	15.2	0.00e+00	0	43	0	256901120	16	4037
2026-01-30 09:18:51.99	122.74	14.26	-27.5	-28.7	15.0	0.00e+00	0	42	0	260046848	16	4116
2026-01-30 09:18:52.99	122.66	14.36	-27.4	-28.4	15.1	7.00e-07	0	42	0	263192576	16	4050
2026-01-30 09:18:54.00	122.57	14.46	-27.4	-28.5	15.1	7.00e-07	0	43	0	266338304	16	4077
2026-01-30 09:18:54.99	122.49	14.55	-27.4	-28.5	15.1	0.00e+00	0	42	0	269484032	16	4065
2026-01-30 09:18:55.99	122.40	14.65	-27.5	-28.8	15.0	0.00e+00	0	42	0	272629760	16	4143
2026-01-30 09:18:56.99	122.32	14.74	-27.4	-28.5	15.1	0.00e+00	0	43	0	275775488	16	4072
2026-01-30 09:18:57.99	122.23	14.84	-27.5	-28.6	15.1	0.00e+00	0	43	0	278921216	16	4114
2026-01-30 09:18:59.00	122.14	14.94	-27.5	-28.7	15.0	0.00e+00	0	42	0	282066944	16	4140
2026-01-30 09:19:00.00	122.05	15.04	-27.5	-28.6	15.1	0.00e+00	0	43	0	285212672	16	4096
2026-01-30 09:19:01.01	121.96	15.13	-27.5	-28.7	15.1	0.00e+00	0	43	0	288358400	16	4118
2026-01-30 09:19:02.02	121.87	15.23	-27.5	-28.7	15.1	0.00e+00	0	42	0	291504128	16	4114
2026-01-30 09:19:03.02	121.79	15.33	-27.6	-28.8	15.0	7.00e-07	0	42	0	294649856	16	4155
2026-01-30 09:19:04.03	121.69	15.43	-27.7	-29.2	14.8	7.00e-07	0	43	0	297795584	16	4260
2026-01-30 09:19:05.04	121.60	15.53	-27.7	-29.1	14.9	0.00e+00	0	43	0	300941312	16	4235
2026-01-30 09:19:06.04	121.51	15.63	-27.7	-29.2	14.8	0.00e+00	0	43	0	304087040	16	4267
2026-01-30 09:19:07.05	121.42	15.73	-27.8	-29.3	14.8	0.00e+00	0	43	0	307232768	16	4294
2026-01-30 09:19:08.05	121.32	15.83	-27.9	-29.6	14.6	0.00e+00	0	43	0	310378496	16	4368
2026-01-30 09:19:09.05	121.23	15.93	-27.7	-29.2	14.8	0.00e+00	0	43	0	313524224	16	4261
2026-01-30 09:19:10.05	121.14	16.03	-27.8	-29.3	14.8	0.00e+00	0	43	0	316669952	16	4279
2026-01-30 09:19:11.06	121.04	16.13	-27.8	-29.4	14.7	7.00e-07	0	43	0	319815680	16	4311
2026-01-30 09:19:12.07	120.94	16.24	-28.1	-30.1	14.3	0.00e+00	0	43	0	322961408	16	4510
2026-01-30 09:19:13.06	120.85	16.34	-27.8	-29.5	14.7	1.50e-06	0	43	0	326107136	16	4336
2026-01-30 09:19:14.06	120.75	16.44	-27.7	-29.2	14.8	0.00e+00	0	42	0	329252864	16	4261
2026-01-30 09:19:15.06	120.66	16.54	-27.6	-28.9	15.0	0.00e+00	0	43	0	332398592	16	4195
2026-01-30 09:19:16.06	120.56	16.64	-27.7	-29.1	14.9	5.30e-06	0	43	0	335544320	16	4241
2026-01-30 09:19:17.07	120.46	16.75	-27.7	-29.0	15.0	0.00e+00	0	43	0	338690048	16	4208
2026-01-30 09:19:18.07	120.36	16.85	-27.8	-29.4	14.8	0.00e+00	0	43	0	341835776	16	4316
2026-01-30 09:19:19.09	120.26	16.96	-27.7	-29.2	14.9	0.00e+00	0	43	0	344981504	16	4252
2026-01-30 09:19:20.09	120.16	17.06	-27.8	-29.4	14.8	0.00e+00	0	43	0	348127232	16	4307
2026-01-30 09:19:21.09	120.05	17.17	-28.0	-29.8	14.5	0.00e+00	0	43	0	351272960	16	4428
2026-01-30 09:19:22.10	119.95	17.27	-27.8	-29.5	14.8	3.80e-06	0	43	0	354418688	16	4332
2026-01-30 09:19:23.10	119.85	17.38	-27.7	-29.2	14.9	0.00e+00	0	43	0	357564416	16	4267
2026-01-30 09:19:24.11	119.74	17.48	-27.7	-29.2	14.9	0.00e+00	0	43	0	360710144	16	4248
2026-01-30 09:19:25.11	119.64	17.59	-27.8	-29.4	14.8	5.30e-06	0	43	0	363855872	16	4320
2026-01-30 09:19:26.12	119.53	17.70	-27.8	-29.4	14.8	0.00e+00	0	43	0	367001600	16	4313
2026-01-30 09:19:27.12	119.42	17.80	-27.8	-29.4	14.8	0.00e+00	0	43	0	370147328	16	4310
2026-01-30 09:19:28.12	119.32	17.91	-27.8	-29.3	14.9	3.00e-06	0	43	0	372244480	16	4288
2026-01-30 09:19:29.12	119.21	18.02	-27.8	-29.5	14.8	0.00e+00	0	43	0	376438784	16	4331
2026-01-30 09:19:30.13	119.10	18.13	-27.9	-29.6	14.7	0.00e+00	0	43	0	379584512	16	4377
2026-01-30 09:19:31.13	118.99	18.23	-27.8	-29.3	14.9	3.80e-06	0	43	0	382730240	16	4276
2026-01-30 09:19:32.13	118.88	18.34	-27.6	-28.9	15.1	0.00e+00	0	43	0	385875968	16	4170
2026-01-30 09:19:33.13	118.77	18.45	-27.6	-28.9	15.1	0.00e+00	0	43	0	389021696	16	4179
2026-01-30 09:19:34.13	118.66	18.56	-27.7	-29.1	15.0	7.00e-07	0	43	0	392167424	16	4219
2026-01-30 09:19:35.14	118.55	18.67	-27.5	-28.7	15.2	0.00e+00	0	43	0	395313152	16	4135
2026-01-30 09:19:36.14	118.43	18.78	-27.5	-28.7	15.3	0.00e+00	0	43	0	397410304	16	4117
2026-01-30 09:19:37.15	118.32	18.89	-27.6	-28.9	15.1	3.80e-06	0	43	0	400556032	16	4188
2026-01-30 09:19:38.15	118.20	19.00	-27.5	-28.7	15.2	0.00e+00	0	43	0	403701760	16	4139
2026-01-30 09:19:39.16	118.08	19.12	-27.6	-28.9	15.1	0.00e+00	0	43	0	406847488	16	4189
2026-01-30 09:19:40.16	117.97	19.23	-27.6	-29.0	15.1	0.00e+00	0	43	0	409993216	16	4200
2026-01-30 09:19:41.17	117.85	19.34	-27.7	-29.1	15.1	0.00e+00	0	43	0	413138944	16	4227
2026-01-30 09:19:42.17	117.73	19.45	-27.7	-29.0	15.1	7.00e-07	0	43	0	417333248	16	4220
2026-01-30 09:19:43.18	117.61	19.57	-27.7	-29.1	15.1	0.00e+00	0	43	0	419430400	16	4231
2026-01-30 09:19:44.18	117.49	19.68	-27.5	-28.8	15.2	0.00e+00	0	43	0	422576128	16	4143
2026-01-30 09:19:45.18	117.37	19.79	-27.5	-28.8	15.3	0.00e+00	0	43	0	425721856	16	4139
2026-01-30 09:19:46.18	117.25	19.91	-27.4	-28.5	15.4	0.00e+00	0	43	0	428867584	16	4071
2026-01-30 09:19:47.18	117.12	20.02	-27.1	-28.4	15.6	0.00e+00	0	43	0	432013312	15	4146
2026-01-30 09:19:48.18	117.00	20.13	-27.2	-28.4	15.5	0.00e+00	0	43	0	435159040	15	4169
2026-01-30 09:19:49.19	116.87	20.25	-27.0	-28.1	15.7	0.00e+00	0	43	0	438304768	15	4071
2026-01-30 09:19:50.20	116.75	20.37	-27.0	-28.0	15.8	0.00e+00	0	43	0	441450496	15	4051
2026-01-30 09:19:51.20	116.62	20.48	-27.0	-28.0	15.8	0.00e+00	0	43	0	444596224	15	4050
2026-01-30 09:19:52.20	116.49	20.60	-27.1	-28.2	15.7	0.00e+00	0	43	0	447741952	15	4104
2026-01-30 09:19:53.21	116.36	20.72	-26.9	-27.9	15.8	0.00e+00	0	43	0	450887680	15	4020
2026-01-30 09:19:54.21	116.23	20.83	-26.9	-27.7	15.9	0.00e+00	0	43	0	454033408	15	3981
2026-01-30 09:19:55.21	116.10	20.95	-27.0	-28.0	15.8	0.00e+00	0	43	0	457179136	15	4053
2026-01-30 09:19:56.21	115.97	21.07	-27.0	-27.9	15.8	0.00e+00	0	43	0	460324864	15	4028
2026-01-30 09:19:57.21	115.84	21.18	-27.0	-28.1	15.7	0.00e+00	0	43	0	463470592	15	4083
2026-01-30 09:19:58.22	115.70	21.30	-27.2	-28.5	15.5	0.00e+00	0	43	0	466616320	15	4176
2026-01-30 09:19:59.22	115.56	21.42	-27.1	-28.2	15.7	0.00e+00	0	43	0	469762048	15	4087
2026-01-30 09:20:00.21	115.43	21.54	-27.0	-28.1	15.8	0.00e+00	0	43	0	472907776	15	4064
2026-01-30 09:20:01.21	115.29	21.66	-27.0	-28.1	15.8	0.00e+00	0	43	0	476053504	15	4077
2026-01-30 09:20:02.21	115.15	21.78	-27.1	-28.2	15.7	0.00e+00	0	43	0	479199232	15	4088
2026-01-30 09:20:03.21	115.02	21.90	-26.9	-27.7	16.0	0.00e+00	0	43	0	482344960	15	3980
2026-01-30 09:20:04.22	114.87	22.02	-26.8	-27.5	16.1	0.00e+00	0	43	0	485490688	15	3918
2026-01-30 09:20:05.21	114.73	22.14	-26.8	-28.0	16.2	0.00e+00	0	43	0	488636416	14	4133
2026-01-30 09:20:06.22	114.59	22.26	-26.6	-27.7	16.4	0.00e+00	0	43	0	491782144	14	4054
2026-01-30 09:20:07.22	114.45	22.39	-26.6	-27.6	16.4	0.00e+00	0	43	0	494927872	14	4039
2026-01-30 09:20:08.23	114.30	22.51	-26.5	-27.5	16.5	0.00e+00	0	43	0	498073600	14	4003
2026-01-30 09:20:09.23	114.15	22.63	-26.6	-27.6	16.4	0.00e+00	0	43	0	501219328	14	4027
2026-01-30 09:20:10.24	114.00	22.76	-26.5	-27.4	16.5	0.00e+00	0	43	0	504365056	14	3993
2026-01-30 09:20:11.25	113.85	22.88	-26.5	-27.3	16.6	0.00e+00	0	43	0	507510784	14	3967
2026-01-30 09:20:12.25	113.71	23.00	-26.5	-27.4	16.5	0.00e+00	0	43	0	510656512	14	3995
2026-01-30 09:20:13.26	113.55	23.13	-26.5	-27.4	16.5	0.00e+00	0	43	0	513802240	14	3980
2026-01-30 09:20:14.25	113.40	23.25	-26.5	-27.4	16.5	0.00e+00	0	43	0	516947968	14	3994
2026-01-30 09:20:15.26	113.25	23.38	-26.5	-27.3	16.6	0.00e+00	0	43	0	520093696	14	3967
2026-01-30 09:20:16.26	113.09	23.50	-26.5	-27.4	16.6	0.00e+00	0	43	0	523239424	14	3991
2026-01-30 09:20:17.26	112.94	23.63	-26.6	-27.5	16.5	0.00e+00	0	43	0	526385152	14	4018
2026-01-30 09:20:18.27	112.78	23.76	-26.6	-27.6	16.5	0.00e+00	0	43	0	529530880	14	4025
2026-01-30 09:20:19.27	112.62	23.88	-26.5	-27.4	16.5	0.00e+00	0	43	0	532676608	14	3997
2026-01-30 09:20:20.28	112.46	24.01	-26.5	-27.3	16.6	0.00e+00	0	43	0	535822336	14	3970
2026-01-30 09:20:21.28	112.30	24.14	-26.5	-27.5	16.6	0.00e+00	0	43	0	538968064	14	4002
2026-01-30 09:20:22.28	112.14	24.26	-26.5	-27.5	16.6	0.00e+00	0	43	0	542113792	14	3998
2026-01-30 09:20:23.29	111.97	24.39	-26.7	-27.8	16.4	0.00e+00	0	43	0	545259520	14	4082
2026-01-30 09:20:24.29	111.80	24.52	-26.6	-27.6	16.5	0.00e+00	0	43	0	548405248	14	4033
2026-01-30 09:20:25.29	111.64	24.65	-26.7	-27.7	16.5	0.00e+00	0	43	0	551550976	14	4055
2026-01-30 09:20:26.30	111.47	24.78	-26.8	-28.1	16.3	0.00e+00	0	43	0	554696704	14	4154
2026-01-30 09:20:27.30	111.30	24.91	-26.8	-28.1	16.3	0.00e+00	0	43	0	557842432	14	4152
2026-01-30 09:20:28.30	111.13	25.04	-27.0	-28.4	16.1	0.00e+00	0	43	0	560988160	14	4246
2026-01-30 09:20:29.31	110.95	25.17	-27.0	-28.4	16.1	0.00e+00	0	43	0	564133888	14	4249
2026-01-30 09:20:30.31	110.78	25.30	-27.0	-28.5	16.1	0.00e+00	0	43	0	567279616	14	4265
2026-01-30 09:20:31.31	110.61	25.43	-27.0	-28.5	16.1	0.00e+00	0	43	0	570425344	14	4268
2026-01-30 09:20:32.31	110.43	25.56	-27.1	-28.6	16.0	0.00e+00	0	43	0	573571072	14	4295
2026-01-30 09:20:33.31	110.25	25.69	-27.1	-28.6	16.0	0.00e+00	0	43	0	576716800	14	4296
2026-01-30 09:20:34.31	110.07	25.83	-27.2	-28.9	15.9	0.00e+00	0	43	0	579862528	14	4366
2026-01-30 09:20:35.31	109.89	25.96	-27.3	-29.0	15.9	0.00e+00	0	43	0	583008256	14	4409
2026-01-30 09:20:36.31	109.71	26.09	-27.4	-29.3	15.7	7.00e-07	0	43	0	586153984	14	4501
2026-01-30 09:20:37.32	109.52	26.22	-27.4	-29.4	15.6	0.00e+00	0	43	0	589299712	14	4509
2026-01-30 09:20:38.32	109.34	26.36	-27.4	-29.4	15.6	0.00e+00	0	43	0	592445440	14	4507
2026-01-30 09:20:39.32	109.15	26.49	-27.4	-29.2	15.7	0.00e+00	0	43	0	595591168	14	4470
2026-01-30 09:20:40.33	108.96	26.62	-27.3	-29.1	15.8	0.00e+00	0	43	0	598736896	14	4437
2026-01-30 09:20:41.34	108.77	26.76	-27.3	-29.0	15.8	0.00e+00	0	43	0	601882624	14	4406
2026-01-30 09:20:42.35	108.57	26.90	-27.3	-29.2	15.7	7.00e-07	0	43	0	605028352	14	4452
2026-01-30 09:20:43.35	108.38	27.03	-27.4	-29.3	15.6	0.00e+00	0	43	0	608174080	14	4494
2026-01-30 09:20:44.36	108.18	27.17	-27.5	-29.2	15.5	0.00e+00	0	43	0	611319808	15	4339
2026-01-30 09:20:45.36	107.99	27.30	-27.5	-29.1	15.5	7.00e-07	0	43	0	614465536	15	4321
2026-01-30 09:20:46.37	107.78	27.44	-27.6	-29.2	15.5	7.00e-07	0	43	0	617611264	15	4361
2026-01-30 09:20:47.37	107.58	27.57	-27.5	-29.1	15.5	0.00e+00	0	43	0	620756992	15	4327
2026-01-30 09:20:48.37	107.38	27.71	-27.6	-29.2	15.5	0.00e+00	0	43	0	623902720	15	4345
2026-01-30 09:20:49.38	107.18	27.85	-27.7	-29.6	15.3	0.00e+00	0	43	0	627048448	15	4451
2026-01-30 09:20:50.38	106.97	27.98	-27.7	-29.4	15.4	0.00e+00	0	43	0	630194176	15	4401
2026-01-30 09:20:51.38	106.76	28.12	-27.4	-28.7	15.7	7.00e-07	0	43	0	633339904	15	4216
2026-01-30 09:20:52.38	106.55	28.26	-27.3	-28.6	15.8	0.00e+00	0	43	0	636485632	15	4169
2026-01-30 09:20:53.38	106.34	28.39	-27.2	-28.4	15.9	0.00e+00	0	43	0	639631360	15	4117
2026-01-30 09:20:54.39	106.13	28.53	-27.3	-28.6	15.8	0.00e+00	0	43	0	642777088	15	4171
2026-01-30 09:20:55.39	105.91	28.67	-27.3	-28.7	15.8	0.00e+00	0	43	0	645922816	15	4200
2026-01-30 09:20:56.40	105.69	28.81	-27.4	-28.9	15.6	0.00e+00	0	43	0	649068544	15	4269
2026-01-30 09:20:57.40	105.48	28.95	-27.5	-29.1	15.5	1.50e-06	0	43	0	652214272	15	4310
2026-01-30 09:20:58.41	105.25	29.09	-27.5	-29.0	15.6	0.00e+00	0	43	0	655360000	15	4305
2026-01-30 09:20:59.42	105.03	29.23	-27.6	-29.3	15.5	0.00e+00	0	43	0	658505728	15	4367
2026-01-30 09:21:00.42	104.80	29.37	-27.4	-28.7	15.8	0.00e+00	0	43	0	661651456	15	4218
2026-01-30 09:21:01.42	104.58	29.51	-27.3	-28.5	15.9	0.00e+00	0	43	0	664797184	15	4165
2026-01-30 09:21:02.43	104.35	29.65	-27.3	-28.7	15.8	0.00e+00	0	43	0	667942912	15	4201
2026-01-30 09:21:03.44	104.11	29.79	-27.4	-28.7	15.8	0.00e+00	0	43	0	671088640	15	4217
2026-01-30 09:21:04.44	103.88	29.93	-27.3	-28.7	15.8	0.00e+00	0	43	0	674234368	15	4199
2026-01-30 09:21:05.44	103.65	30.07	-27.5	-29.0	15.6	0.00e+00	0	43	0	677380096	15	4285
2026-01-30 09:21:06.43	103.41	30.20	-27.5	-29.1	15.6	0.00e+00	0	43	0	680525824	15	4318
2026-01-30 09:21:07.44	103.17	30.35	-27.6	-29.3	15.5	0.00e+00	0	43	0	683671552	15	4364
2026-01-30 09:21:08.44	102.93	30.49	-27.6	-29.3	15.5	0.00e+00	0	43	0	686817280	15	4372
2026-01-30 09:21:09.44	102.69	30.63	-27.5	-29.1	15.6	0.00e+00	0	43	0	689963008	15	4304
2026-01-30 09:21:10.45	102.44	30.77	-27.5	-29.1	15.6	0.00e+00	0	43	0	693108736	15	4308
2026-01-30 09:21:11.45	102.19	30.91	-27.5	-29.0	15.7	0.00e+00	0	43	0	696254464	15	4283
2026-01-30 09:21:12.46	101.94	31.05	-27.4	-28.8	15.8	0.00e+00	0	43	0	698351616	15	4232
2026-01-30 09:21:13.47	101.69	31.19	-27.3	-28.6	15.9	0.00e+00	0	43	0	701497344	15	4174
2026-01-30 09:21:14.47	101.44	31.33	-27.3	-28.6	15.9	0.00e+00	0	43	0	704643072	15	4166
2026-01-30 09:21:15.48	101.18	31.47	-27.2	-28.4	16.0	0.00e+00	0	43	0	708837376	15	4113
2026-01-30 09:21:16.48	100.92	31.61	-27.2	-28.4	16.0	0.00e+00	0	43	0	711983104	15	4137
2026-01-30 09:21:17.49	100.66	31.75	-27.2	-28.3	16.1	0.00e+00	0	43	0	715128832	15	4084
2026-01-30 09:21:18.49	100.39	31.90	-27.3	-28.6	15.9	0.00e+00	0	43	0	718274560	15	4165
2026-01-30 09:21:19.49	100.13	32.04	-27.4	-28.7	15.8	0.00e+00	0	43	0	720371712	15	4209
2026-01-30 09:21:20.50	99.86	32.18	-27.4	-28.9	15.7	0.00e+00	0	43	0	723517440	15	4251
2026-01-30 09:21:21.50	99.59	32.32	-27.6	-29.1	15.6	0.00e+00	0	43	0	726663168	15	4325
2026-01-30 09:21:22.51	99.31	32.46	-27.7	-29.4	15.4	0.00e+00	0	43	0	729808896	15	4406
2026-01-30 09:21:23.51	99.04	32.60	-27.8	-29.6	15.4	0.00e+00	0	43	0	732954624	15	4446
2026-01-30 09:21:24.52	98.76	32.74	-28.2	-30.0	15.0	0.00e+00	0	43	0	736100352	16	4446
2026-01-30 09:21:25.52	98.48	32.88	-28.3	-30.4	14.8	7.00e-07	0	43	0	739246080	16	4561
2026-01-30 09:21:26.52	98.20	33.02	-28.3	-30.4	14.8	0.00e+00	0	43	0	743440384	16	4565
2026-01-30 09:21:27.53	97.91	33.16	-28.4	-30.6	14.7	0.00e+00	0	43	0	745537536	16	4636
2026-01-30 09:21:28.54	97.62	33.30	-28.5	-30.3	14.6	0.00e+00	0	43	0	748683264	17	4436
2026-01-30 09:21:29.54	97.33	33.44	-28.5	-30.2	14.6	7.00e-07	0	43	0	751828992	17	4406
2026-01-30 09:21:30.55	97.04	33.58	-28.6	-30.5	14.5	0.00e+00	0	43	0	754974720	17	4494
2026-01-30 09:21:31.56	96.74	33.72	-28.8	-30.9	14.2	2.20e-06	0	43	0	758120448	17	4611
2026-01-30 09:21:32.56	96.45	33.86	-28.8	-30.9	14.2	3.00e-06	0	43	0	761266176	17	4612
2026-01-30 09:21:33.57	96.14	34.00	-28.7	-30.8	14.3	1.50e-06	0	43	0	764411904	17	4583
2026-01-30 09:21:34.57	95.84	34.14	-28.7	-30.8	14.3	0.00e+00	0	43	0	767557632	17	4586
2026-01-30 09:21:35.57	95.54	34.28	-28.7	-30.8	14.3	0.00e+00	0	43	0	770703360	17	4569
2026-01-30 09:21:36.56	95.23	34.41	-28.8	-30.8	14.3	7.00e-07	0	43	0	773849088	17	4578
2026-01-30 09:21:37.57	94.92	34.55	-28.8	-30.9	14.3	0.00e+00	0	43	0	776994816	17	4588
2026-01-30 09:21:38.58	94.61	34.69	-28.9	-31.2	14.1	2.20e-06	0	43	0	780140544	17	4685
2026-01-30 09:21:39.58	94.29	34.82	-28.9	-31.2	14.1	5.30e-06	0	43	0	783286272	17	4700
2026-01-30 09:21:40.58	93.97	34.96	-28.9	-31.1	14.2	7.00e-07	0	43	0	786432000	17	4671
2026-01-30 09:21:41.58	93.65	35.10	-28.8	-30.9	14.3	1.50e-06	0	43	0	789577728	17	4581
2026-01-30 09:21:42.59	93.33	35.23	-28.6	-30.6	14.5	2.20e-06	0	43	0	792723456	17	4503
2026-01-30 09:21:43.59	93.00	35.37	-28.7	-30.6	14.4	0.00e+00	0	43	0	795869184	17	4500
2026-01-30 09:21:44.59	92.67	35.50	-28.6	-30.6	14.5	1.50e-06	0	43	0	799014912	17	4493
2026-01-30 09:21:45.60	92.34	35.64	-28.7	-30.8	14.3	0.00e+00	0	43	0	802160640	17	4555
2026-01-30 09:21:46.60	92.01	35.77	-28.6	-30.5	14.5	0.00e+00	0	43	0	805306368	17	4489
2026-01-30 09:21:47.60	91.67	35.90	-28.5	-30.1	14.7	7.00e-07	0	43	0	808452096	17	4374
2026-01-30 09:21:48.61	91.33	36.03	-28.4	-29.9	14.8	0.00e+00	0	43	0	811597824	17	4312
2026-01-30 09:21:49.61	90.98	36.16	-28.3	-29.7	14.9	0.00e+00	0	43	0	814743552	17	4246
2026-01-30 09:21:50.61	90.64	36.30	-28.4	-30.0	14.9	0.00e+00	0	43	0	817889280	17	4317
2026-01-30 09:21:51.62	90.29	36.43	-28.5	-30.3	14.6	7.00e-07	0	43	0	821035008	17	4419
2026-01-30 09:21:52.62	89.94	36.56	-28.7	-30.7	14.4	0.00e+00	0	43	0	824180736	17	4544
2026-01-30 09:21:53.63	89.58	36.68	-28.9	-31.1	14.2	0.00e+00	0	43	0	827326464	17	4652
2026-01-30 09:21:54.63	89.23	36.81	-29.0	-31.0	14.0	3.00e-06	0	43	0	830472192	18	4505
2026-01-30 09:21:55.63	88.87	36.94	-29.0	-30.9	14.0	2.20e-06	0	43	0	833617920	18	4473
2026-01-30 09:21:56.63	88.51	37.07	-28.7	-30.2	14.5	0.00e+00	0	43	0	836763648	18	4269
2026-01-30 09:21:57.63	88.14	37.19	-28.7	-30.1	14.5	0.00e+00	0	43	0	839909376	18	4243
2026-01-30 09:21:58.63	87.77	37.31	-28.6	-29.9	14.6	7.00e-07	0	43	0	843055104	18	4193
2026-01-30 09:21:59.63	87.40	37.44	-28.6	-29.9	14.6	1.50e-06	0	43	0	846200832	18	4204
2026-01-30 09:22:00.63	87.03	37.56	-28.6	-29.9	14.6	0.00e+00	0	43	0	849346560	18	4195
2026-01-30 09:22:01.64	86.65	37.68	-28.5	-29.8	14.7	0.00e+00	0	43	0	852492288	18	4173
2026-01-30 09:22:02.64	86.27	37.80	-28.4	-29.5	14.9	0.00e+00	0	43	0	855638016	18	4067
2026-01-30 09:22:03.64	85.89	37.92	-28.4	-29.4	14.9	0.00e+00	0	43	0	858783744	18	4054
2026-01-30 09:22:04.65	85.50	38.04	-28.6	-30.0	14.6	0.00e+00	0	43	0	861929472	18	4208
2026-01-30 09:22:05.65	85.12	38.16	-28.7	-30.3	14.5	7.00e-07	0	43	0	865075200	18	4292
2026-01-30 09:22:06.65	84.73	38.28	-29.0	-30.8	14.1	7.00e-07	0	43	0	868220928	18	4451
2026-01-30 09:22:07.65	84.34	38.39	-29.0	-30.8	14.1	7.00e-07	0	43	0	871366656	18	4460
2026-01-30 09:22:08.66	83.94	38.51	-28.8	-30.5	14.3	7.00e-07	0	43	0	874512384	18	4365
2026-01-30 09:22:09.66	83.54	38.62	-28.8	-30.5	14.3	7.00e-07	0	43	0	877658112	18	4348
2026-01-30 09:22:10.67	83.13	38.73	-28.7	-30.2	14.5	0.00e+00	0	43	0	880803840	18	4279
2026-01-30 09:22:11.67	82.73	38.84	-28.9	-30.7	14.2	1.50e-06	0	43	0	883949568	18	4417
2026-01-30 09:22:12.68	82.32	38.95	-29.0	-30.9	14.1	5.30e-06	0	43	0	887095296	18	4493
2026-01-30 09:22:13.69	81.91	39.06	-29.3	-31.5	13.7	1.50e-06	0	43	0	890241024	18	4660
2026-01-30 09:22:14.69	81.50	39.17	-29.4	-31.8	13.5	1.37e-05	0	43	0	893386752	18	4764
2026-01-30 09:22:15.69	81.08	39.27	-29.3	-31.7	13.6	9.10e-06	0	43	0	896532480	18	4721
2026-01-30 09:22:16.69	80.66	39.38	-29.3	-31.7	13.6	7.60e-06	0	43	0	899678208	18	4708
2026-01-30 09:22:17.70	80.24	39.48	-29.3	-31.7	13.7	9.90e-06	0	43	0	902823936	18	4720
2026-01-30 09:22:18.69	79.82	39.58	-29.6	-31.8	13.2	7.60e-06	0	43	0	905969664	19	4663
2026-01-30 09:22:19.70	79.39	39.68	-29.8	-32.5	12.9	2.82e-05	0	43	0	909115392	19	4864
2026-01-30 09:22:20.71	78.96	39.78	-29.9	-32.1	12.7	9.53e-05	0	43	0	912261120	20	4645
2026-01-30 09:22:21.71	78.53	39.88	-30.0	-32.5	12.5	1.27e-04	0	43	0	915406848	20	4769
2026-01-30 09:22:22.72	78.09	39.97	-29.8	-31.8	12.9	6.10e-05	0	43	0	918552576	20	4549
2026-01-30 09:22:23.73	77.65	40.06	-29.5	-31.2	13.3	1.67e-05	0	43	0	921698304	20	4347
2026-01-30 09:22:24.73	77.22	40.16	-29.4	-30.9	13.5	9.10e-06	0	43	0	924844032	20	4266
2026-01-30 09:22:25.73	76.78	40.25	-29.3	-31.1	13.7	5.30e-06	0	43	0	927989760	19	4434
2026-01-30 09:22:26.72	76.34	40.33	-29.3	-31.0	13.8	9.10e-06	0	43	0	931135488	19	4393
2026-01-30 09:22:27.73	75.89	40.42	-29.3	-31.0	13.7	9.90e-06	0	43	0	934281216	19	4403
2026-01-30 09:22:28.73	75.44	40.50	-29.6	-31.7	13.3	1.22e-05	0	43	0	937426944	19	4607
2026-01-30 09:22:29.73	74.99	40.59	-29.5	-31.7	13.3	1.52e-05	0	43	0	940572672	19	4628
2026-01-30 09:22:30.73	74.54	40.67	-29.5	-31.5	13.5	1.14e-05	0	43	0	943718400	19	4544
2026-01-30 09:22:31.74	74.08	40.75	-29.3	-31.2	13.6	1.37e-05	0	43	0	946864128	19	4455
2026-01-30 09:22:32.74	73.62	40.82	-29.5	-31.6	13.4	1.37e-05	0	43	0	950009856	19	4583
2026-01-30 09:22:33.75	73.16	40.90	-29.8	-32.2	13.0	2.74e-05	0	43	0	953155584	19	4783
2026-01-30 09:22:34.76	72.70	40.97	-29.8	-32.4	12.9	3.89e-05	0	43	0	956301312	19	4847
2026-01-30 09:22:35.76	72.23	41.04	-30.1	-32.7	12.3	8.16e-05	0	43	0	959447040	20	4851
2026-01-30 09:22:36.76	71.77	41.11	-30.3	-33.1	12.1	2.69e-04	0	43	0	962592768	20	4987
2026-01-30 09:22:37.76	71.30	41.18	-30.2	-32.8	12.3	2.64e-04	0	43	0	965738496	20	4884
2026-01-30 09:22:38.77	70.83	41.25	-30.2	-32.8	12.3	1.67e-04	0	43	0	968884224	20	4877
2026-01-30 09:22:39.78	70.35	41.31	-30.1	-32.7	12.4	1.59e-04	0	43	0	972029952	20	4842
2026-01-30 09:22:40.78	69.88	41.37	-30.2	-33.0	12.2	1.86e-04	0	43	0	975175680	20	4937
2026-01-30 09:22:41.79	69.40	41.43	-30.2	-32.8	12.3	2.05e-04	0	43	0	978321408	20	4871
2026-01-30 09:22:42.79	68.93	41.49	-30.0	-32.3	12.6	1.14e-04	0	44	0	981467136	20	4699
2026-01-30 09:22:43.80	68.45	41.54	-29.7	-31.6	13.0	4.73e-05	0	43	0	984612864	20	4487
2026-01-30 09:22:44.80	67.97	41.59	-29.8	-31.9	12.9	6.02e-05	0	43	0	987758592	20	4576
2026-01-30 09:22:45.81	67.48	41.64	-30.0	-32.5	12.5	1.04e-04	0	43	0	990904320	20	4766
2026-01-30 09:22:46.81	67.00	41.69	-30.1	-32.6	12.4	1.36e-04	0	43	0	994050048	20	4819
2026-01-30 09:22:47.81	66.52	41.74	-30.1	-32.7	12.4	1.50e-04	0	43	0	997195776	20	4834
2026-01-30 09:22:48.81	66.03	41.78	-30.0	-32.3	12.6	1.07e-04	0	43	0	1000341504	20	4698
2026-01-30 09:22:49.82	65.54	41.82	-29.6	-31.4	13.1	2.44e-05	0	43	0	1003487232	20	4405
2026-01-30 09:22:50.82	65.05	41.86	-29.6	-31.4	13.1	1.83e-05	0	43	0	1006632960	20	4438
2026-01-30 09:22:51.83	64.56	41.90	-29.8	-31.8	12.9	5.03e-05	0	43	0	1009778688	20	4556
2026-01-30 09:22:52.84	64.07	41.93	-29.8	-32.0	12.8	6.79e-05	0	43	0	1012924416	20	4599
2026-01-30 09:22:53.84	63.58	41.96	-29.8	-31.9	12.8	6.94e-05	0	43	0	1016070144	20	4575
2026-01-30 09:22:54.85	63.08	41.99	-30.1	-32.6	12.4	1.13e-04	0	43	0	1019215872	20	4812
2026-01-30 09:22:55.85	62.59	42.02	-29.8	-31.9	12.8	7.70e-05	0	43	0	1022361600	20	4587
2026-01-30 09:22:56.86	62.09	42.04	-29.4	-30.9	13.5	1.60e-05	0	43	0	1025507328	20	4256
2026-01-30 09:22:57.86	61.60	42.07	-29.3	-30.7	13.6	1.44e-05	0	43	0	1028653056	20	4229
2026-01-30 09:22:58.86	61.10	42.09	-29.5	-31.0	13.4	2.36e-05	0	43	0	1031798784	20	4298
2026-01-30 09:22:59.86	60.61	42.10	-29.4	-30.8	13.5	1.22e-05	0	43	0	1034944512	20	4233
2026-01-30 09:23:00.87	60.11	42.12	-29.6	-31.4	13.2	1.67e-05	0	44	0	1038090240	20	4425
2026-01-30 09:23:01.86	59.62	42.13	-29.7	-31.6	13.1	3.28e-05	0	43	0	1041235968	20	4471
2026-01-30 09:23:02.87	59.12	42.14	-29.8	-31.9	12.9	4.19e-05	0	43	0	1044381696	20	4565
2026-01-30 09:23:03.88	58.61	42.15	-29.5	-31.0	13.4	2.28e-05	0	43	0	1047527424	20	4307
2026-01-30 09:23:04.88	58.12	42.15	-29.3	-31.0	13.8	6.10e-06	0	43	0	1050673152	19	4389
2026-01-30 09:23:05.88	57.62	42.16	-29.4	-31.2	13.7	6.80e-06	0	43	0	1053818880	19	4465
2026-01-30 09:23:06.88	57.13	42.16	-29.3	-31.2	13.7	4.50e-06	0	43	0	1056964608	19	4447
2026-01-30 09:23:07.89	56.62	42.15	-29.2	-30.8	13.9	2.20e-06	0	43	0	1060110336	19	4342
2026-01-30 09:23:08.89	56.13	42.15	-29.3	-31.1	13.8	6.80e-06	0	43	0	1063256064	19	4431
2026-01-30 09:23:09.90	55.63	42.14	-29.5	-31.6	13.4	1.29e-05	0	43	0	1066401792	19	4586
2026-01-30 09:23:10.91	55.13	42.13	-29.6	-31.9	13.2	2.05e-05	0	43	0	1068498944	19	4684
2026-01-30 09:23:11.90	54.63	42.12	-29.6	-31.8	13.3	2.36e-05	0	43	0	1071644672	19	4631
2026-01-30 09:23:12.91	54.13	42.11	-29.3	-31.0	13.8	8.30e-06	0	43	0	1074790400	19	4407
2026-01-30 09:23:13.91	53.64	42.09	-29.3	-31.2	13.7	6.10e-06	0	43	0	1077936128	19	4455
2026-01-30 09:23:14.92	53.14	42.07	-29.4	-31.4	13.6	6.80e-06	0	43	0	1082130432	19	4514
2026-01-30 09:23:15.93	52.64	42.05	-29.8	-32.3	13.0	2.74e-05	0	43	0	1085276160	19	4808
2026-01-30 09:23:16.93	52.15	42.03	-29.6	-31.9	13.2	3.58e-05	0	43	0	1088421888	19	4672
2026-01-30 09:23:17.93	51.66	42.00	-29.6	-31.8	13.3	1.98e-05	0	43	0	1091567616	19	4647
2026-01-30 09:23:18.94	51.16	41.97	-29.4	-31.3	13.6	1.06e-05	0	43	0	1093664768	19	4481
2026-01-30 09:23:19.95	50.67	41.94	-29.3	-31.1	13.7	7.60e-06	0	43	0	1096810496	19	4435
2026-01-30 09:23:20.95	50.18	41.91	-29.6	-31.8	13.3	1.06e-05	0	43	0	1099956224	19	4648
2026-01-30 09:23:21.95	49.69	41.87	-29.6	-31.7	13.4	1.44e-05	0	43	0	1103101952	19	4622
2026-01-30 09:23:22.95	49.20	41.83	-29.5	-31.7	13.4	1.29e-05	0	43	0	1106247680	19	4605
2026-01-30 09:23:23.96	48.71	41.79	-29.6	-31.9	13.2	1.90e-05	0	43	0	1109393408	19	4684
2026-01-30 09:23:24.96	48.23	41.75	-29.8	-32.4	12.9	4.11e-05	0	43	0	1112539136	19	4841
2026-01-30 09:23:25.96	47.74	41.70	-29.8	-32.2	13.1	3.05e-05	0	43	0	1115684864	19	4774
2026-01-30 09:23:26.97	47.26	41.66	-29.8	-32.4	12.9	4.88e-05	0	43	0	1118830592	19	4842
2026-01-30 09:23:27.97	46.78	41.61	-29.7	-32.2	13.1	3.43e-05	0	43	0	1121976320	19	4760
2026-01-30 09:23:28.97	46.30	41.55	-29.7	-32.0	13.2	1.60e-05	0	43	0	1125122048	19	4699
2026-01-30 09:23:29.98	45.82	41.50	-29.8	-32.2	13.1	2.97e-05	0	43	0	1128267776	19	4775
2026-01-30 09:23:30.98	45.34	41.44	-29.9	-32.6	12.8	4.57e-05	0	43	0	1131413504	19	4901
2026-01-30 09:23:31.98	44.87	41.39	-29.9	-32.2	12.7	6.56e-05	0	43	0	1134559232	20	4662
2026-01-30 09:23:32.99	44.39	41.33	-29.9	-32.2	12.6	8.54e-05	0	43	0	1137704960	20	4670
2026-01-30 09:23:33.99	43.92	41.26	-29.6	-31.4	13.2	4.04e-05	0	43	0	1140850688	20	4402
2026-01-30 09:23:34.99	43.45	41.20	-29.2	-30.9	13.8	8.30e-06	0	43	0	1143996416	19	4370
2026-01-30 09:23:35.99	42.98	41.13	-29.1	-30.5	14.1	7.00e-07	0	43	0	1147142144	19	4250
2026-01-30 09:23:36.99	42.52	41.06	-29.3	-31.0	13.8	3.00e-06	0	43	0	1150287872	19	4406
2026-01-30 09:23:37.99	42.06	40.99	-29.3	-31.0	13.8	4.50e-06	0	43	0	1153433600	19	4392
2026-01-30 09:23:39.00	41.59	40.92	-29.5	-31.7	13.4	9.10e-06	0	43	0	1156579328	19	4594
2026-01-30 09:23:40.01	41.13	40.85	-30.0	-32.7	12.8	5.95e-05	0	43	0	1159725056	19	4922
2026-01-30 09:23:41.01	40.67	40.77	-29.7	-32.0	13.2	3.12e-05	0	43	0	1162870784	19	4697
2026-01-30 09:23:42.01	40.22	40.69	-29.1	-30.6	14.0	6.80e-06	0	43	0	1166016512	19	4286
2026-01-30 09:23:43.02	39.76	40.61	-28.8	-30.3	14.5	0.00e+00	0	43	0	1169162240	18	4294
2026-01-30 09:23:44.02	39.31	40.53	-28.7	-30.0	14.6	7.00e-07	0	43	0	1172307968	18	4223
2026-01-30 09:23:45.02	38.87	40.45	-28.7	-30.1	14.6	0.00e+00	0	43	0	1175453696	18	4244
2026-01-30 09:23:46.02	38.42	40.36	-29.1	-31.0	14.1	7.00e-07	0	43	0	1178599424	18	4515
2026-01-30 09:23:47.03	37.97	40.27	-29.4	-31.9	13.5	2.20e-06	0	43	0	1181745152	18	4773
2026-01-30 09:23:48.03	37.53	40.18	-29.5	-31.5	13.4	9.90e-06	0	43	0	1184890880	19	4550
2026-01-30 09:23:49.02	37.10	40.09	-29.1	-30.7	13.9	4.50e-06	0	43	0	1188036608	19	4299
2026-01-30 09:23:50.03	36.66	40.00	-28.6	-30.0	14.7	0.00e+00	0	43	0	1191182336	18	4211
2026-01-30 09:23:51.03	36.23	39.91	-28.3	-29.3	15.0	0.00e+00	0	43	0	1194328064	18	4031
2026-01-30 09:23:52.03	35.80	39.81	-28.9	-30.6	14.3	7.00e-07	0	44	0	1197473792	18	4390
2026-01-30 09:23:53.03	35.37	39.71	-29.4	-31.7	13.6	7.00e-07	0	43	0	1200619520	18	4728
2026-01-30 09:23:54.04	34.94	39.61	-29.9	-32.5	12.8	3.66e-05	0	43	0	1203765248	19	4869
2026-01-30 09:23:55.04	34.52	39.51	-30.1	-32.6	12.3	1.72e-04	0	43	0	1206910976	20	4813
2026-01-30 09:23:56.05	34.10	39.41	-30.0	-32.4	12.5	1.36e-04	0	43	0	1210056704	20	4723
2026-01-30 09:23:57.05	33.68	39.31	-29.5	-31.2	13.2	2.36e-05	0	44	0	1213202432	20	4357
2026-01-30 09:23:58.05	33.26	39.21	-29.3	-31.1	13.7	3.80e-06	0	43	0	1216348160	19	4420
2026-01-30 09:23:59.06	32.85	39.10	-29.4	-31.3	13.6	1.29e-05	0	43	0	1219493888	19	4483
2026-01-30 09:24:00.07	32.44	38.99	-29.4	-31.3	13.6	9.90e-06	0	43	0	1222639616	19	4485
2026-01-30 09:24:01.08	32.02	38.88	-29.6	-31.9	13.2	2.21e-05	0	43	0	1225785344	19	4692
2026-01-30 09:24:02.09	31.62	38.77	-29.8	-32.3	12.9	3.66e-05	0	43	0	1228931072	19	4823
2026-01-30 09:24:03.09	31.22	38.66	-29.7	-32.0	13.1	4.27e-05	0	43	0	1232076800	19	4721
2026-01-30 09:24:04.09	30.82	38.55	-29.3	-31.0	13.7	6.10e-06	0	43	0	1235222528	19	4400
2026-01-30 09:24:05.09	30.42	38.43	-29.1	-30.5	14.0	3.00e-06	0	43	0	1238368256	19	4267
2026-01-30 09:24:06.09	30.03	38.32	-29.3	-31.0	13.7	3.80e-06	0	43	0	1241513984	19	4402
2026-01-30 09:24:07.10	29.64	38.20	-29.3	-31.0	13.6	2.20e-06	0	43	0	1244659712	19	4419
2026-01-30 09:24:08.10	29.25	38.09	-29.2	-30.9	13.6	8.30e-06	0	43	0	1247805440	19	4364
2026-01-30 09:24:09.11	28.86	37.97	-29.4	-31.4	13.4	1.37e-05	0	43	0	1250951168	19	4527
2026-01-30 09:24:10.11	28.48	37.85	-29.6	-32.0	13.0	4.04e-05	0	43	0	1254096896	19	4718
2026-01-30 09:24:11.12	28.10	37.73	-28.9	-30.3	14.0	7.60e-06	0	43	0	1257242624	19	4194
2026-01-30 09:24:12.12	27.73	37.61	-28.2	-29.6	14.9	2.20e-06	0	43	0	1260388352	17	4212
2026-01-30 09:24:13.12	27.35	37.48	-27.8	-29.0	15.6	0.00e+00	0	43	0	1263534080	16	4173
2026-01-30 09:24:14.12	26.98	37.36	-27.8	-29.0	15.6	0.00e+00	0	43	0	1266679808	16	4173
2026-01-30 09:24:15.12	26.62	37.24	-28.0	-29.5	15.3	0.00e+00	0	43	0	1269825536	16	4300
2026-01-30 09:24:16.12	26.25	37.11	-28.7	-30.7	14.3	7.00e-07	0	43	0	1272971264	17	4540
2026-01-30 09:24:17.13	25.89	36.99	-29.1	-31.1	13.8	3.80e-06	0	44	0	1276116992	18	4553
2026-01-30 09:24:18.14	25.53	36.86	-29.1	-31.3	13.7	6.10e-06	0	43	0	1279262720	18	4615
2026-01-30 09:24:19.14	25.17	36.73	-28.6	-29.9	14.5	0.00e+00	0	43	0	1282408448	18	4213
2026-01-30 09:24:20.14	24.82	36.60	-27.9	-28.8	15.4	0.00e+00	0	43	0	1285554176	17	4019
2026-01-30 09:24:21.15	24.46	36.47	-27.4	-28.3	15.9	0.00e+00	0	43	0	1288699904	16	3992
2026-01-30 09:24:22.16	24.11	36.34	-27.5	-28.4	15.9	0.00e+00	0	43	0	1291845632	16	3992
2026-01-30 09:24:23.16	23.77	36.21	-28.0	-29.6	15.3	0.00e+00	0	43	0	1294991360	16	4324
2026-01-30 09:24:24.16	23.43	36.08	-28.4	-30.6	14.7	0.00e+00	0	43	0	1298137088	16	4626
2026-01-30 09:24:25.17	23.08	35.95	-29.2	-31.4	13.6	4.50e-06	0	43	0	1301282816	18	4658
2026-01-30 09:24:26.17	22.75	35.82	-29.3	-31.8	13.3	1.60e-05	0	43	0	1304428544	18	4784
2026-01-30 09:24:27.16	22.42	35.69	-29.1	-31.1	13.6	1.29e-05	0	43	0	1307574272	18	4556
2026-01-30 09:24:28.17	22.08	35.55	-28.5	-29.8	14.4	7.00e-07	0	43	0	1310720000	18	4178
2026-01-30 09:24:29.17	21.76	35.42	-28.2	-29.5	14.9	0.00e+00	0	43	0	1313865728	17	4192
2026-01-30 09:24:30.17	21.43	35.29	-28.3	-29.8	14.8	0.00e+00	0	43	0	1317011456	17	4289
2026-01-30 09:24:31.17	21.11	35.15	-28.9	-31.1	14.0	4.50e-06	0	43	0	1320157184	17	4664
2026-01-30 09:24:32.18	20.78	35.02	-28.9	-31.2	14.0	3.00e-06	0	43	0	1323302912	17	4690
2026-01-30 09:24:33.18	20.47	34.88	-29.3	-31.7	13.4	6.80e-06	0	43	0	1326448640	18	4741
2026-01-30 09:24:34.19	20.15	34.74	-29.8	-32.5	12.6	6.71e-05	0	43	0	1329594368	19	4908
2026-01-30 09:24:35.19	19.84	34.61	-29.9	-32.7	12.4	1.21e-04	0	43	0	1332740096	19	4973
2026-01-30 09:24:36.20	19.53	34.47	-29.9	-32.7	12.5	1.11e-04	0	43	0	1335885824	19	4963
2026-01-30 09:24:37.19	19.22	34.33	-29.8	-32.4	12.7	9.30e-05	0	43	0	1339031552	19	4861
2026-01-30 09:24:38.20	18.91	34.20	-29.6	-32.0	12.9	4.80e-05	0	43	0	1342177280	19	4741
2026-01-30 09:24:39.20	18.61	34.06	-29.7	-32.0	12.9	2.74e-05	0	43	0	1345323008	19	4742
2026-01-30 09:24:40.20	18.31	33.92	-29.8	-32.5	12.6	9.68e-05	0	43	0	1348468736	19	4889
2026-01-30 09:24:41.20	18.02	33.78	-29.4	-31.4	13.3	2.13e-05	0	43	0	1351614464	19	4539
2026-01-30 09:24:42.21	17.72	33.64	-29.5	-31.6	13.1	2.67e-05	0	43	0	1354760192	19	4608
2026-01-30 09:24:43.21	17.43	33.51	-29.7	-32.2	12.8	6.02e-05	0	43	0	1357905920	19	4792
2026-01-30 09:24:44.21	17.14	33.37	-29.8	-32.5	12.6	1.02e-04	0	43	0	1361051648	19	4895
2026-01-30 09:24:45.21	16.85	33.23	-29.4	-31.5	13.2	4.34e-05	0	43	0	1364197376	19	4565
2026-01-30 09:24:46.22	16.57	33.09	-28.9	-30.2	14.0	4.50e-06	0	43	0	1367343104	19	4175
2026-01-30 09:24:47.23	16.28	32.95	-28.6	-30.0	14.4	1.50e-06	0	43	0	1370488832	18	4240
2026-01-30 09:24:48.23	16.00	32.81	-28.7	-30.1	14.3	2.20e-06	0	43	0	1373634560	18	4269
2026-01-30 09:24:49.24	15.73	32.67	-28.9	-30.8	13.9	4.50e-06	0	43	0	1376780288	18	4457
2026-01-30 09:24:50.24	15.45	32.53	-29.2	-31.3	13.6	6.10e-06	0	43	0	1379926016	18	4629
2026-01-30 09:24:51.25	15.18	32.39	-29.6	-31.8	13.0	3.89e-05	0	43	0	1383071744	19	4679
2026-01-30 09:24:52.25	14.91	32.25	-29.2	-30.9	13.6	1.37e-05	0	43	0	1386217472	19	4377
2026-01-30 09:24:53.25	14.64	32.11	-28.7	-30.2	14.2	3.00e-06	0	43	0	1389363200	18	4281
2026-01-30 09:24:54.25	14.38	31.97	-28.3	-29.4	14.7	7.00e-07	0	43	0	1392508928	18	4074
2026-01-30 09:24:55.26	14.11	31.83	-28.3	-29.8	14.8	7.00e-07	0	43	0	1394606080	17	4285
2026-01-30 09:24:56.26	13.85	31.69	-28.5	-30.3	14.4	0.00e+00	0	43	0	1397751808	17	4437
2026-01-30 09:24:57.26	13.59	31.55	-28.5	-30.3	14.4	7.00e-07	0	43	0	1400897536	17	4419
2026-01-30 09:24:58.26	13.34	31.41	-28.1	-29.4	14.9	0.00e+00	0	43	0	1404043264	17	4174
2026-01-30 09:24:59.27	13.08	31.27	-28.1	-29.4	14.9	7.00e-07	0	43	0	1408237568	17	4164
2026-01-30 09:25:00.27	12.83	31.13	-28.2	-29.7	14.8	0.00e+00	0	43	0	1411383296	17	4255
2026-01-30 09:25:01.28	12.58	30.98	-28.4	-30.2	14.4	0.00e+00	0	43	0	1414529024	17	4404
2026-01-30 09:25:02.28	12.33	30.84	-28.5	-30.3	14.4	1.50e-06	0	43	0	1416626176	17	4425
2026-01-30 09:25:03.29	12.08	30.70	-28.3	-29.8	14.6	0.00e+00	0	43	0	1419771904	17	4284
2026-01-30 09:25:04.29	11.84	30.56	-28.0	-29.1	15.0	0.00e+00	0	43	0	1422917632	17	4104
2026-01-30 09:25:05.29	11.60	30.42	-27.6	-28.8	15.4	0.00e+00	0	43	0	1426063360	16	4130
2026-01-30 09:25:06.30	11.36	30.28	-27.3	-28.1	15.8	0.00e+00	0	43	0	1429209088	16	3936
2026-01-30 09:25:07.29	11.13	30.15	-27.0	-27.9	16.0	0.00e+00	0	43	0	1432354816	15	4004
2026-01-30 09:25:08.30	10.89	30.01	-27.0	-27.9	16.0	0.00e+00	0	43	0	1435500544	15	4003
2026-01-30 09:25:09.31	10.66	29.87	-27.1	-28.0	15.9	0.00e+00	0	43	0	1438646272	15	4032
2026-01-30 09:25:10.32	10.42	29.73	-26.8	-27.9	16.3	0.00e+00	0	43	0	1441792000	14	4095
2026-01-30 09:25:11.32	10.20	29.59	-27.0	-28.4	16.0	0.00e+00	0	43	0	1444937728	14	4242
2026-01-30 09:25:12.33	9.97	29.45	-27.2	-28.9	15.7	0.00e+00	0	43	0	1448083456	14	4370
2026-01-30 09:25:13.34	9.74	29.31	-27.4	-29.4	15.5	0.00e+00	0	43	0	1451229184	14	4502
2026-01-30 09:25:14.34	9.52	29.17	-27.5	-29.5	15.4	0.00e+00	0	43	0	1454374912	14	4541
2026-01-30 09:25:15.34	9.30	29.03	-27.6	-29.4	15.2	0.00e+00	0	43	0	1457520640	15	4392
2026-01-30 09:25:16.35	9.08	28.89	-27.7	-29.5	15.1	0.00e+00	0	43	0	1460666368	15	4423
2026-01-30 09:25:17.36	8.86	28.75	-27.4	-28.8	15.5	0.00e+00	0	43	0	1463812096	15	4235
2026-01-30 09:25:18.36	8.65	28.62	-27.1	-28.2	15.9	0.00e+00	0	43	0	1466957824	15	4073
2026-01-30 09:25:19.36	8.43	28.48	-27.0	-27.9	16.0	0.00e+00	0	43	0	1470103552	15	4009
2026-01-30 09:25:20.36	8.22	28.34	-27.0	-28.0	15.9	0.00e+00	0	43	0	1473249280	15	4035
2026-01-30 09:25:21.36	8.01	28.21	-27.1	-28.1	15.9	0.00e+00	0	43	0	1476395008	15	4043
2026-01-30 09:25:22.37	7.80	28.07	-27.1	-28.2	15.9	0.00e+00	0	43	0	1479540736	15	4085
2026-01-30 09:25:23.38	7.60	27.93	-27.2	-28.3	15.8	0.00e+00	0	43	0	1482686464	15	4116
2026-01-30 09:25:24.38	7.39	27.80	-27.2	-28.4	15.7	7.00e-07	0	43	0	1485832192	15	4139
2026-01-30 09:25:25.39	7.19	27.66	-27.3	-28.6	15.6	0.00e+00	0	43	0	1488977920	15	4179
2026-01-30 09:25:26.40	6.99	27.52	-27.3	-28.7	15.6	0.00e+00	0	43	0	1492123648	15	4209
2026-01-30 09:25:27.40	6.79	27.39	-27.4	-28.8	15.5	0.00e+00	0	43	0	1495269376	15	4251
2026-01-30 09:25:28.41	6.59	27.25	-27.3	-28.6	15.6	0.00e+00	0	43	0	1498415104	15	4194
2026-01-30 09:25:29.42	6.39	27.12	-27.3	-28.6	15.6	0.00e+00	0	43	0	1501560832	15	4186
2026-01-30 09:25:30.42	6.20	26.98	-27.2	-28.5	15.6	0.00e+00	0	43	0	1504706560	15	4152
2026-01-30 09:25:31.43	6.01	26.85	-27.2	-28.3	15.7	0.00e+00	0	43	0	1507852288	15	4122
2026-01-30 09:25:32.43	5.82	26.71	-27.1	-28.3	15.8	0.00e+00	0	43	0	1510998016	15	4099
2026-01-30 09:25:33.43	5.63	26.58	-27.1	-28.3	15.8	0.00e+00	0	43	0	1514143744	15	4100
2026-01-30 09:25:34.44	5.44	26.45	-27.0	-27.9	15.9	0.00e+00	0	43	0	1517289472	15	4005
2026-01-30 09:25:35.44	5.25	26.31	-26.9	-27.8	16.0	0.00e+00	0	43	0	1520435200	15	3976
2026-01-30 09:25:36.44	5.07	26.18	-26.9	-27.7	16.1	0.00e+00	0	43	0	1523580928	15	3945
2026-01-30 09:25:37.45	4.89	26.05	-26.9	-27.6	16.1	0.00e+00	0	43	0	1526726656	15	3942
2026-01-30 09:25:38.45	4.70	25.92	-26.9	-27.8	16.0	0.00e+00	0	43	0	1529872384	15	3978
2026-01-30 09:25:39.46	4.52	25.78	-26.7	-27.8	16.3	0.00e+00	0	44	0	1533018112	14	4081
2026-01-30 09:25:40.46	4.35	25.65	-26.6	-27.5	16.4	0.00e+00	0	43	0	1536163840	14	4014
2026-01-30 09:25:41.47	4.17	25.52	-26.6	-27.6	16.4	0.00e+00	0	43	0	1539309568	14	4025
2026-01-30 09:25:42.47	3.99	25.39	-26.5	-27.4	16.4	0.00e+00	0	43	0	1542455296	14	3995
2026-01-30 09:25:43.47	3.82	25.26	-26.4	-27.1	16.6	0.00e+00	0	43	0	1545601024	14	3904
2026-01-30 09:25:44.48	3.65	25.13	-26.4	-27.1	16.6	0.00e+00	0	43	0	1548746752	14	3921
2026-01-30 09:25:45.49	3.48	25.00	-26.5	-27.3	16.5	0.00e+00	0	43	0	1551892480	14	3969
2026-01-30 09:25:46.49	3.31	24.87	-26.7	-27.7	16.3	0.00e+00	0	43	0	1555038208	14	4063
2026-01-30 09:25:47.49	3.14	24.74	-26.8	-28.0	16.1	0.00e+00	0	43	0	1558183936	14	4153
2026-01-30 09:25:48.49	2.97	24.61	-27.0	-28.5	15.9	0.00e+00	0	43	0	1561329664	14	4278
2026-01-30 09:25:49.49	2.81	24.49	-27.4	-29.3	15.4	0.00e+00	0	43	0	1564475392	14	4515
2026-01-30 09:25:50.50	2.64	24.36	-27.6	-29.3	15.2	0.00e+00	0	43	0	1567621120	15	4385
2026-01-30 09:25:51.49	2.48	24.23	-27.7	-29.5	15.0	0.00e+00	0	43	0	1570766848	15	4455
2026-01-30 09:25:52.49	2.32	24.11	-27.8	-29.9	14.8	0.00e+00	0	43	0	1573912576	15	4571
2026-01-30 09:25:53.50	2.16	23.98	-27.5	-29.3	15.1	0.00e+00	0	43	0	1577058304	15	4385
2026-01-30 09:25:54.50	2.00	23.85	-27.4	-29.0	15.3	0.00e+00	0	43	0	1580204032	15	4299
2026-01-30 09:25:55.49	1.85	23.73	-27.4	-29.0	15.3	0.00e+00	0	43	0	1583349760	15	4296
2026-01-30 09:25:56.49	1.69	23.60	-27.4	-28.8	15.4	0.00e+00	0	43	0	1586495488	15	4270
2026-01-30 09:25:57.50	1.54	23.48	-27.5	-29.0	15.3	0.00e+00	0	43	0	1589641216	15	4316
2026-01-30 09:25:58.51	1.38	23.35	-27.4	-28.9	15.3	0.00e+00	0	43	0	1592786944	15	4279
2026-01-30 09:25:59.51	1.23	23.23	-27.1	-28.3	15.6	0.00e+00	0	43	0	1595932672	15	4114
2026-01-30 09:26:00.51	1.08	23.10	-27.0	-28.0	15.8	0.00e+00	0	43	0	1599078400	15	4035
2026-01-30 09:26:01.51	0.93	22.98	-27.0	-27.9	15.8	0.00e+00	0	43	0	1602224128	15	4019
2026-01-30 09:26:02.52	0.78	22.86	-27.1	-28.2	15.7	0.00e+00	0	43	0	1605369856	15	4080
2026-01-30 09:26:03.52	0.64	22.73	-27.0	-28.0	15.8	0.00e+00	0	43	0	1608515584	15	4038
2026-01-30 09:26:04.53	0.49	22.61	-26.9	-27.8	15.9	0.00e+00	0	43	0	1611661312	15	3979
2026-01-30 09:26:05.54	0.34	22.49	-27.0	-28.0	15.8	7.00e-07	0	43	0	1614807040	15	4045
2026-01-30 09:26:06.54	0.20	22.37	-26.9	-27.8	15.9	0.00e+00	0	43	0	1617952768	15	3989
2026-01-30 09:26:07.54	0.06	22.25	-26.8	-28.0	16.1	0.00e+00	0	43	0	1621098496	14	4135
2026-01-30 09:26:08.55	359.91	22.12	-26.7	-27.8	16.2	6.10e-06	0	43	0	1624244224	14	4087
2026-01-30 09:26:09.55	359.77	22.00	-26.8	-28.0	16.1	0.00e+00	0	43	0	1627389952	14	4141
2026-01-30 09:26:10.55	359.64	21.88	-26.7	-27.9	16.1	0.00e+00	0	43	0	1630535680	14	4117
2026-01-30 09:26:11.55	359.50	21.76	-26.6	-27.5	16.3	0.00e+00	0	43	0	1633681408	14	4010
2026-01-30 09:26:12.56	359.36	21.64	-26.5	-27.4	16.4	0.00e+00	0	43	0	1636827136	14	3993
2026-01-30 09:26:13.57	359.22	21.52	-26.6	-27.7	16.3	0.00e+00	0	43	0	1639972864	14	4055
2026-01-30 09:26:14.57	359.09	21.41	-26.7	-27.7	16.2	0.00e+00	0	43	0	1643118592	14	4069
2026-01-30 09:26:15.58	358.95	21.29	-26.7	-27.7	16.2	0.00e+00	0	43	0	1646264320	14	4073
2026-01-30 09:26:16.58	358.82	21.17	-26.8	-27.9	16.2	0.00e+00	0	43	0	1649410048	14	4124
2026-01-30 09:26:17.59	358.69	21.05	-26.8	-28.1	16.1	0.00e+00	0	43	0	1652555776	14	4165
2026-01-30 09:26:18.59	358.56	20.93	-27.0	-28.5	15.8	0.00e+00	0	43	0	1655701504	14	4286
2026-01-30 09:26:19.59	358.43	20.82	-27.0	-28.4	15.9	0.00e+00	0	43	0	1658847232	14	4249
2026-01-30 09:26:20.60	358.30	20.70	-26.9	-28.4	15.8	0.00e+00	0	43	0	1661992960	14	4246
2026-01-30 09:26:21.60	358.17	20.59	-26.9	-28.3	15.9	0.00e+00	0	43	0	1665138688	14	4220
2026-01-30 09:26:22.60	358.05	20.47	-27.0	-28.5	15.8	0.00e+00	0	43	0	1668284416	14	4272
2026-01-30 09:26:23.60	357.92	20.36	-27.0	-28.5	15.8	0.00e+00	0	43	0	1671430144	14	4290
2026-01-30 09:26:24.60	357.80	20.24	-27.1	-28.6	15.7	0.00e+00	0	43	0	1674575872	14	4321
2026-01-30 09:26:25.61	357.67	20.13	-27.0	-28.6	15.7	0.00e+00	0	43	0	1677721600	14	4297
2026-01-30 09:26:26.61	357.55	20.01	-27.0	-28.6	15.7	0.00e+00	0	43	0	1680867328	14	4298
2026-01-30 09:26:27.61	357.43	19.90	-27.1	-28.8	15.6	0.00e+00	0	43	0	1684013056	14	4360
2026-01-30 09:26:28.61	357.31	19.79	-27.0	-28.6	15.7	0.00e+00	0	43	0	1687158784	14	4301
2026-01-30 09:26:29.62	357.19	19.67	-26.8	-28.2	16.0	0.00e+00	0	43	0	1690304512	14	4188
2026-01-30 09:26:30.62	357.07	19.56	-26.7	-27.8	16.1	7.00e-07	0	43	0	1693450240	14	4098
2026-01-30 09:26:31.63	356.95	19.45	-26.7	-27.9	16.1	7.00e-07	0	43	0	1696595968	14	4105
2026-01-30 09:26:32.63	356.83	19.34	-26.8	-28.1	15.9	0.00e+00	0	43	0	1699741696	14	4183
2026-01-30 09:26:33.64	356.71	19.22	-26.9	-28.2	15.9	0.00e+00	0	43	0	1702887424	14	4184
2026-01-30 09:26:34.64	356.60	19.11	-26.8	-28.0	16.0	0.00e+00	0	44	0	1706033152	14	4156
2026-01-30 09:26:35.64	356.48	19.00	-26.8	-28.2	16.0	0.00e+00	0	43	0	1709178880	14	4186
2026-01-30 09:26:36.65	356.37	18.89	-26.8	-28.1	16.0	0.00e+00	0	43	0	1712324608	14	4166
2026-01-30 09:26:37.65	356.26	18.78	-26.8	-28.1	16.0	0.00e+00	0	43	0	1715470336	14	4180
2026-01-30 09:26:38.65	356.14	18.67	-26.9	-28.2	15.9	0.00e+00	0	43	0	1718616064	14	4206
2026-01-30 09:26:39.65	356.03	18.56	-27.1	-28.7	15.6	0.00e+00	0	43	0	1721761792	14	4326
2026-01-30 09:26:40.65	355.92	18.45	-27.1	-28.7	15.6	0.00e+00	0	43	0	1724907520	14	4340
2026-01-30 09:26:41.66	355.81	18.35	-26.9	-28.3	15.8	0.00e+00	0	43	0	1728053248	14	4227
2026-01-30 09:26:42.66	355.70	18.24	-26.8	-28.1	15.9	0.00e+00	0	43	0	1731198976	14	4177
2026-01-30 09:26:43.66	355.60	18.13	-27.0	-28.4	15.8	0.00e+00	0	43	0	1734344704	14	4253
2026-01-30 09:26:44.66	355.49	18.02	-27.0	-28.6	15.7	0.00e+00	0	43	0	1737490432	14	4301
2026-01-30 09:26:45.67	355.38	17.92	-27.2	-28.9	15.5	0.00e+00	0	43	0	1739587584	14	4403
2026-01-30 09:26:46.67	355.28	17.81	-27.2	-29.0	15.5	0.00e+00	0	43	0	1742733312	14	4411
2026-01-30 09:26:47.67	355.17	17.70	-27.3	-29.1	15.4	0.00e+00	0	43	0	1746927616	14	4459
2026-01-30 09:26:48.68	355.07	17.60	-27.3	-29.3	15.3	0.00e+00	0	43	0	1750073344	14	4497
2026-01-30 09:26:49.69	354.96	17.49	-27.4	-29.4	15.2	0.00e+00	0	44	0	1753219072	14	4539
2026-01-30 09:26:50.69	354.86	17.39	-27.3	-29.2	15.3	0.00e+00	0	43	0	1756364800	14	4490
2026-01-30 09:26:51.69	354.76	17.28	-27.4	-29.4	15.2	0.00e+00	0	43	0	1759510528	14	4525
2026-01-30 09:26:52.69	354.66	17.18	-27.3	-29.2	15.3	0.00e+00	0	43	0	1762656256	14	4486
2026-01-30 09:26:53.69	354.56	17.07	-27.2	-29.0	15.4	0.00e+00	0	43	0	1764753408	14	4435
2026-01-30 09:26:54.70	354.45	16.97	-27.3	-29.2	15.3	0.00e+00	0	43	0	1767899136	14	4474
2026-01-30 09:26:55.70	354.36	16.86	-27.2	-29.0	15.4	0.00e+00	0	43	0	1771044864	14	4434
2026-01-30 09:26:56.70	354.26	16.76	-27.2	-29.0	15.4	0.00e+00	0	43	0	1774190592	14	4431
2026-01-30 09:26:57.71	354.16	16.66	-27.3	-29.1	15.3	0.00e+00	0	43	0	1777336320	14	4467
2026-01-30 09:26:58.71	354.06	16.56	-27.3	-29.2	15.3	0.00e+00	0	43	0	1780482048	14	4467
2026-01-30 09:26:59.71	353.97	16.45	-27.2	-29.0	15.4	0.00e+00	0	43	0	1783627776	14	4434
2026-01-30 09:27:00.71	353.87	16.35	-27.3	-29.3	15.2	0.00e+00	0	43	0	1786773504	14	4518
2026-01-30 09:27:01.72	353.77	16.25	-27.3	-29.2	15.3	7.00e-07	0	43	0	1789919232	14	4485
2026-01-30 09:27:02.73	353.68	16.15	-27.3	-29.3	15.2	0.00e+00	0	43	0	1793064960	14	4514
2026-01-30 09:27:03.73	353.59	16.05	-27.5	-29.2	15.0	0.00e+00	0	43	0	1796210688	15	4370
2026-01-30 09:27:04.74	353.49	15.95	-27.7	-29.5	14.8	0.00e+00	0	43	0	1799356416	15	4462
2026-01-30 09:27:05.74	353.40	15.85	-27.7	-29.6	14.7	0.00e+00	0	43	0	1802502144	15	4487
2026-01-30 09:27:06.74	353.31	15.75	-27.8	-29.8	14.6	0.00e+00	0	43	0	1805647872	15	4552
2026-01-30 09:27:07.75	353.22	15.65	-27.8	-29.8	14.6	0.00e+00	0	43	0	1808793600	15	4556
2026-01-30 09:27:08.76	353.13	15.55	-27.9	-30.0	14.5	0.00e+00	0	43	0	1811939328	15	4624
2026-01-30 09:27:09.77	353.03	15.45	-27.9	-30.1	14.4	0.00e+00	0	43	0	1815085056	15	4635
2026-01-30 09:27:10.77	352.95	15.35	-28.2	-30.3	14.2	7.00e-07	0	43	0	1818230784	16	4565
2026-01-30 09:27:11.78	352.86	15.25	-28.1	-30.1	14.3	2.20e-06	0	43	0	1821376512	16	4527
2026-01-30 09:27:12.78	352.77	15.15	-28.3	-30.5	14.1	7.00e-07	0	43	0	1824522240	16	4654
2026-01-30 09:27:13.78	352.68	15.06	-28.2	-30.3	14.2	0.00e+00	0	43	0	1827667968	16	4590
2026-01-30 09:27:14.78	352.59	14.96	-28.1	-30.1	14.3	7.00e-07	0	43	0	1830813696	16	4524
2026-01-30 09:27:15.79	352.51	14.86	-28.1	-29.9	14.4	2.20e-06	0	43	0	1833959424	16	4467
2026-01-30 09:27:16.79	352.42	14.77	-28.2	-30.2	14.2	1.50e-06	0	43	0	1837105152	16	4550
2026-01-30 09:27:17.79	352.34	14.67	-28.1	-30.1	14.3	7.00e-07	0	43	0	1840250880	16	4525
2026-01-30 09:27:18.80	352.25	14.57	-28.1	-30.2	14.3	1.50e-06	0	43	0	1843396608	16	4538
2026-01-30 09:27:19.80	352.17	14.48	-28.2	-30.3	14.2	1.50e-06	0	44	0	1846542336	16	4589
2026-01-30 09:27:20.81	352.08	14.38	-28.2	-30.3	14.1	7.00e-07	0	43	0	1849688064	16	4575
2026-01-30 09:27:21.81	352.00	14.29	-28.2	-30.2	14.2	1.50e-06	0	43	0	1852833792	16	4567
2026-01-30 09:27:22.81	351.92	14.19	-28.2	-30.3	14.1	5.30e-06	0	43	0	1855979520	16	4588
2026-01-30 09:27:23.82	351.84	14.10	-28.2	-30.3	14.1	4.50e-06	0	43	0	1859125248	16	4585
2026-01-30 09:27:24.82	351.76	14.01	-28.4	-30.8	13.8	0.00e+00	0	43	0	1862270976	16	4748
2026-01-30 09:27:25.82	351.67	13.91	-28.4	-30.8	13.8	6.10e-06	0	43	0	1865416704	16	4746
2026-01-30 09:27:26.82	351.59	13.82	-28.4	-30.8	13.8	3.80e-06	0	43	0	1868562432	16	4733
2026-01-30 09:27:27.82	351.52	13.73	-28.5	-30.5	13.7	4.50e-06	0	43	0	1871708160	17	4542
2026-01-30 09:27:28.83	351.44	13.63	-28.6	-30.8	13.5	9.10e-06	0	43	0	1874853888	17	4632
2026-01-30 09:27:29.83	351.36	13.54	-28.5	-30.6	13.6	1.22e-05	0	44	0	1877999616	17	4567
2026-01-30 09:27:30.83	351.28	13.45	-28.4	-30.3	13.8	6.10e-06	0	43	0	1881145344	17	4481
2026-01-30 09:27:31.83	351.20	13.36	-28.4	-30.3	13.8	4.50e-06	0	44	0	1884291072	17	4479
2026-01-30 09:27:32.84	351.12	13.26	-28.4	-30.3	13.8	3.00e-06	0	43	0	1887436800	17	4476
2026-01-30 09:27:33.84	351.05	13.17	-28.6	-30.8	13.5	3.80e-06	0	43	0	1890582528	17	4626
2026-01-30 09:27:34.84	350.97	13.08	-28.4	-30.4	13.7	9.90e-06	0	43	0	1893728256	17	4501
2026-01-30 09:27:35.85	350.90	12.99	-28.3	-30.0	14.0	3.00e-06	0	44	0	1896873984	17	4378
2026-01-30 09:27:36.85	350.82	12.90	-28.1	-29.7	14.1	1.50e-06	0	43	0	1900019712	17	4294
2026-01-30 09:27:37.86	350.75	12.81	-28.1	-29.6	14.2	1.50e-06	0	43	0	1903165440	17	4268
2026-01-30 09:27:38.87	350.67	12.72	-28.2	-29.8	14.0	3.00e-06	0	43	0	1906311168	17	4336
2026-01-30 09:27:39.87	350.60	12.63	-28.2	-29.8	14.0	1.50e-06	0	43	0	1909456896	17	4327
2026-01-30 09:27:40.88	350.52	12.54	-28.2	-29.7	14.1	3.00e-06	0	43	0	1912602624	17	4312
2026-01-30 09:27:41.88	350.45	12.45	-28.3	-30.0	13.9	2.20e-06	0	43	0	1915748352	17	4399
2026-01-30 09:27:42.88	350.38	12.36	-28.2	-29.8	14.0	2.20e-06	0	43	0	1918894080	17	4331
2026-01-30 09:27:43.88	350.31	12.27	-28.2	-29.7	14.0	3.00e-06	0	43	0	1922039808	17	4309
2026-01-30 09:27:44.88	350.24	12.19	-28.2	-29.9	13.9	3.00e-06	0	43	0	1925185536	17	4356
2026-01-30 09:27:45.88	350.17	12.10	-28.4	-30.2	13.7	6.10e-06	0	43	0	1928331264	17	4468
2026-01-30 09:27:46.88	350.09	12.01	-28.5	-30.5	13.6	2.20e-06	0	43	0	1931476992	17	4541
2026-01-30 09:27:47.88	350.03	11.92	-28.5	-30.6	13.5	1.06e-05	0	43	0	1934622720	17	4585
2026-01-30 09:27:48.89	349.95	11.84	-28.6	-30.8	13.4	1.67e-05	0	43	0	1937768448	17	4649
2026-01-30 09:27:49.89	349.89	11.75	-28.6	-30.8	13.3	1.67e-05	0	43	0	1940914176	17	4657
2026-01-30 09:27:50.90	349.82	11.66	-28.7	-31.0	13.2	1.60e-05	0	43	0	1944059904	17	4702
2026-01-30 09:27:51.90	349.75	11.58	-28.7	-30.9	13.3	2.36e-05	0	43	0	1947205632	17	4686
2026-01-30 09:27:52.90	349.68	11.49	-28.8	-31.2	13.1	1.98e-05	0	43	0	1950351360	17	4785
2026-01-30 09:27:53.90	349.61	11.41	-28.9	-31.6	12.9	4.50e-05	0	43	0	1953497088	17	4889
2026-01-30 09:27:54.91	349.55	11.32	-28.8	-31.4	13.0	4.42e-05	0	43	0	1956642816	17	4821
2026-01-30 09:27:55.91	349.48	11.23	-28.7	-31.1	13.1	3.35e-05	0	43	0	1959788544	17	4754
2026-01-30 09:27:56.91	349.41	11.15	-28.8	-31.3	13.0	3.12e-05	0	43	0	1962934272	17	4803
2026-01-30 09:27:57.92	349.35	11.06	-28.8	-31.3	13.0	3.66e-05	0	43	0	1966080000	17	4797
2026-01-30 09:27:58.93	349.28	10.98	-28.8	-31.4	12.9	3.50e-05	0	43	0	1969225728	17	4856
2026-01-30 09:27:59.93	349.22	10.89	-28.9	-31.6	12.8	6.56e-05	0	43	0	1972371456	17	4900
2026-01-30 09:28:00.93	349.15	10.81	-28.9	-31.7	12.7	5.72e-05	0	43	0	1975517184	17	4939
2026-01-30 09:28:01.94	349.09	10.73	-28.9	-31.5	12.9	4.19e-05	0	43	0	1978662912	17	4881
2026-01-30 09:28:02.94	349.02	10.64	-28.8	-31.5	12.9	5.34e-05	0	43	0	1981808640	17	4875
2026-01-30 09:28:03.95	348.96	10.56	-28.9	-31.6	12.8	6.33e-05	0	43	0	1984954368	17	4918
2026-01-30 09:28:04.94	348.90	10.48	-28.9	-31.6	12.8	6.63e-05	0	43	0	1988100096	17	4906
2026-01-30 09:28:05.95	348.83	10.39	-28.9	-31.7	12.7	7.01e-05	0	43	0	1991245824	17	4951
2026-01-30 09:28:06.95	348.77	10.31	-29.0	-31.4	12.6	9.30e-05	0	44	0	1994391552	18	4750
2026-01-30 09:28:07.96	348.71	10.23	-29.2	-31.9	12.2	1.97e-04	0	43	0	1997537280	18	4914
2026-01-30 09:28:08.96	348.65	10.15	-29.0	-31.5	12.5	1.18e-04	0	43	0	2000683008	18	4752
2026-01-30 09:28:09.97	348.59	10.06	-28.9	-31.2	12.7	7.17e-05	0	43	0	2003828736	18	4664
2026-01-30 09:28:10.97	348.53	9.98	-28.8	-30.9	12.9	6.10e-05	0	43	0	2006974464	18	4575
2026-01-30 09:28:11.98	348.46	9.90	-28.9	-31.1	12.7	7.40e-05	0	43	0	2010120192	18	4640
2026-01-30 09:28:12.98	348.40	9.82	-28.8	-30.9	12.9	6.25e-05	0	43	0	2013265920	18	4575
2026-01-30 09:28:13.99	348.34	9.74	-29.0	-31.3	12.6	6.94e-05	0	44	0	2016411648	18	4691
2026-01-30 09:28:14.98	348.29	9.66	-28.9	-31.1	12.8	7.78e-05	0	43	0	2019557376	18	4627
2026-01-30 09:28:15.99	348.23	9.58	-28.8	-30.9	12.8	5.26e-05	0	43	0	2022703104	18	4576
2026-01-30 09:28:16.99	348.17	9.50	-28.8	-30.9	12.8	5.87e-05	0	43	0	2025848832	18	4570
2026-01-30 09:28:18.00	348.11	9.42	-28.8	-30.8	12.9	4.42e-05	0	43	0	2028994560	18	4553
2026-01-30 09:28:19.01	348.05	9.34	-28.8	-30.9	12.8	4.73e-05	0	43	0	2032140288	18	4583
2026-01-30 09:28:20.02	347.99	9.26	-28.9	-31.0	12.7	8.46e-05	0	43	0	2035286016	18	4617
2026-01-30 09:28:21.02	347.93	9.18	-28.9	-31.0	12.7	7.62e-05	0	43	0	2038431744	18	4612
2026-01-30 09:28:22.02	347.88	9.10	-28.9	-31.1	12.7	8.08e-05	0	43	0	2041577472	18	4626
2026-01-30 09:28:23.02	347.82	9.02	-29.0	-31.3	12.6	1.17e-04	0	43	0	2044723200	18	4700
2026-01-30 09:28:24.03	347.76	8.94	-28.8	-30.9	12.7	6.71e-05	0	43	0	2047868928	18	4587
2026-01-30 09:28:25.03	347.71	8.86	-28.9	-31.1	12.6	8.08e-05	0	43	0	2051014656	18	4632
2026-01-30 09:28:26.03	347.65	8.78	-28.9	-31.0	12.7	7.17e-05	0	44	0	2054160384	18	4622
2026-01-30 09:28:27.04	347.60	8.71	-28.8	-30.9	12.8	7.01e-05	0	43	0	2057306112	18	4561
2026-01-30 09:28:28.05	347.54	8.63	-28.7	-30.7	12.9	5.64e-05	0	43	0	2060451840	18	4513
2026-01-30 09:28:29.06	347.49	8.55	-28.7	-30.7	12.9	4.50e-05	0	43	0	2063597568	18	4499
2026-01-30 09:28:30.06	347.43	8.47	-28.7	-30.7	12.9	6.48e-05	0	43	0	2066743296	18	4506
2026-01-30 09:28:31.06	347.38	8.39	-28.8	-30.8	12.8	7.01e-05	0	43	0	2069889024	18	4554
2026-01-30 09:28:32.06	347.32	8.32	-28.9	-31.0	12.6	7.47e-05	0	43	0	2073034752	18	4632
2026-01-30 09:28:33.06	347.27	8.24	-28.9	-31.2	12.6	9.99e-05	0	43	0	2076180480	18	4665
2026-01-30 09:28:34.06	347.22	8.17	-28.9	-31.2	12.5	1.08e-04	0	43	0	2079326208	18	4668
2026-01-30 09:28:35.07	347.16	8.09	-29.0	-31.3	12.4	1.30e-04	0	43	0	2082471936	18	4718
2026-01-30 09:28:36.07	347.11	8.01	-28.9	-31.1	12.6	9.68e-05	0	43	0	2085617664	18	4647
2026-01-30 09:28:37.08	347.06	7.94	-29.0	-31.3	12.4	1.51e-04	0	43	0	2088763392	18	4727
2026-01-30 09:28:38.08	347.01	7.86	-28.9	-31.3	12.4	1.34e-04	0	43	0	2091909120	18	4721
2026-01-30 09:28:39.08	346.95	7.78	-28.9	-31.1	12.5	1.15e-04	0	43	0	2095054848	18	4645
2026-01-30 09:28:40.08	346.90	7.71	-28.9	-31.2	12.5	9.61e-05	0	43	0	2098200576	18	4680
2026-01-30 09:28:41.08	346.85	7.63	-28.9	-31.1	12.5	1.07e-04	0	43	0	2101346304	18	4649
2026-01-30 09:28:42.09	346.80	7.56	-29.0	-31.4	12.3	1.50e-04	0	43	0	2104492032	18	4757
2026-01-30 09:28:43.09	346.75	7.48	-29.0	-31.4	12.3	1.52e-04	0	43	0	2107637760	18	4746
2026-01-30 09:28:44.10	346.70	7.41	-29.1	-31.6	12.1	2.30e-04	0	43	0	2109734912	18	4836
2026-01-30 09:28:45.10	346.65	7.34	-29.0	-31.5	12.3	2.08e-04	0	43	0	2112880640	18	4779
2026-01-30 09:28:46.10	346.60	7.26	-29.1	-31.7	12.1	1.96e-04	0	44	0	2116026368	18	4845
2026-01-30 09:28:47.10	346.55	7.19	-29.1	-31.6	12.1	2.74e-04	0	43	0	2119172096	18	4838
2026-01-30 09:28:48.10	346.50	7.11	-29.0	-31.6	12.2	2.51e-04	0	43	0	2122317824	18	4817
2026-01-30 09:28:49.11	346.45	7.04	-33.1	-43.5	3.8	1.48e+00	0	43	104	2124414976	26	12000
2026-01-30 09:28:50.11	346.40	6.97	-33.5	-45.2	3.8	1.49e+00	0	43	104	2124414976	27	13830
2026-01-30 09:28:51.11	346.35	6.89	-33.8	-45.9	3.8	1.49e+00	0	43	104	2124414976	27	14477
2026-01-30 09:28:52.12	346.31	6.82	-34.0	-46.3	3.8	1.49e+00	0	43	104	2124414976	27	14865

#Closed at: 2026-01-30 09:28:52
#Recorded file [2124 MB]: D:/data/31010_260130_121728.dat