passes_logs/2026/01/30/R2M6_AANII_01/R2M6_AANII_01__20260130_034711_AQUA_rec.log

#Pass ID: 20260130_034711_AQUA
#Satellite: AQUA
#Configuration: AQUA
#almurnet v.1.7.20240730
#Start time: 2026-01-30 03:47:12

#Version: 2.2.20231116
#Station: R2M6_AANII_01
#Location: 30.233357 lon 59.946436 lat
#TLE: 1 27424U 02022A   26028.91948147  .00001781  00000+0  36607-3 0  9997
#TLE: 2 27424  98.4103 355.5827 0001815  62.4290   1.4641 14.61871847262923

#Time	Az	El	Level	Level2	SNR	BER	BlckErr	Temp	State	Recorded	gain1	gain2
2026-01-30 03:47:12.87	5.94	7.06	-32.5	-47.8	3.8	7.45e-01	0	41	0	0	26	20823
2026-01-30 03:47:13.87	5.83	7.13	-32.3	-47.5	3.8	7.46e-01	0	41	104	0	25	20659
2026-01-30 03:47:14.88	5.73	7.20	-32.3	-47.4	3.8	7.49e-01	0	41	104	0	25	20437
2026-01-30 03:47:15.88	5.62	7.26	-32.3	-47.4	3.8	7.45e-01	0	41	104	0	25	20456
2026-01-30 03:47:16.89	5.51	7.33	-32.4	-47.5	3.8	7.42e-01	0	41	104	0	25	20572
2026-01-30 03:47:17.89	5.40	7.40	-32.4	-47.8	3.8	7.42e-01	0	41	104	0	25	21012
2026-01-30 03:47:18.90	5.29	7.46	-32.2	-47.0	3.8	7.45e-01	0	41	104	0	25	19641
2026-01-30 03:47:19.91	5.18	7.53	-32.0	-46.0	3.8	7.41e-01	0	41	104	0	25	18173
2026-01-30 03:47:20.91	5.07	7.60	-31.7	-45.2	3.8	7.45e-01	0	41	104	0	25	17008
2026-01-30 03:47:21.92	4.96	7.67	-31.5	-44.6	3.8	7.44e-01	0	41	104	0	25	16199
2026-01-30 03:47:22.93	4.85	7.74	-31.4	-44.7	3.8	7.44e-01	0	41	104	0	24	16632
2026-01-30 03:47:23.93	4.74	7.80	-31.3	-44.8	3.8	7.47e-01	0	41	104	0	23	17107
2026-01-30 03:47:24.94	4.62	7.87	-31.5	-45.4	3.8	7.44e-01	0	41	104	0	23	17879
2026-01-30 03:47:25.93	4.51	7.94	-31.3	-44.9	3.8	7.46e-01	0	41	104	0	23	17130
2026-01-30 03:47:26.94	4.40	8.01	-31.1	-44.2	3.8	7.44e-01	0	41	104	0	23	16290
2026-01-30 03:47:27.94	4.28	8.08	-31.0	-43.8	3.8	7.43e-01	0	41	104	0	23	15841
2026-01-30 03:47:28.94	4.17	8.15	-30.9	-43.6	3.8	7.41e-01	0	41	104	0	23	15562
2026-01-30 03:47:29.95	4.05	8.21	-30.8	-43.5	3.8	7.46e-01	0	41	104	0	23	15510
2026-01-30 03:47:30.95	3.93	8.28	-30.9	-43.8	3.8	7.49e-01	0	41	104	0	23	15881
2026-01-30 03:47:31.95	3.82	8.35	-31.1	-44.3	3.8	7.48e-01	0	41	104	0	23	16422
2026-01-30 03:47:32.96	3.70	8.42	-31.3	-45.0	3.8	7.43e-01	0	41	104	0	23	17321
2026-01-30 03:47:33.96	3.58	8.49	-31.5	-45.6	3.8	7.44e-01	0	41	104	0	23	18190
2026-01-30 03:47:34.97	3.46	8.56	-31.9	-46.2	3.8	7.45e-01	0	41	104	0	24	18747
2026-01-30 03:47:35.97	3.34	8.63	-32.2	-46.8	3.8	7.43e-01	0	41	104	0	25	19270
2026-01-30 03:47:36.97	3.22	8.70	-32.3	-47.0	3.8	7.45e-01	0	41	104	0	25	19615
2026-01-30 03:47:37.97	3.10	8.77	-32.3	-47.1	3.8	7.44e-01	0	41	104	0	25	19749
2026-01-30 03:47:38.97	2.98	8.83	-32.4	-47.4	3.8	7.44e-01	0	42	104	0	25	20194
2026-01-30 03:47:39.98	2.86	8.90	-32.5	-47.8	3.8	7.44e-01	0	42	104	0	25	20962
2026-01-30 03:47:40.97	2.74	8.97	-32.6	-47.8	3.9	7.45e-01	0	42	104	0	26	20687
2026-01-30 03:47:41.97	2.61	9.04	-32.8	-48.4	3.8	7.44e-01	0	42	104	0	26	21683
2026-01-30 03:47:42.97	2.49	9.11	-32.9	-48.9	3.8	7.46e-01	0	42	104	0	26	22822
2026-01-30 03:47:43.98	2.37	9.18	-33.1	-49.7	3.8	7.46e-01	0	42	104	0	26	24548
2026-01-30 03:47:44.98	2.24	9.25	-33.2	-50.1	3.8	7.45e-01	0	42	104	0	27	24964
2026-01-30 03:47:45.99	2.11	9.32	-33.4	-50.7	3.8	7.44e-01	0	42	104	0	27	26542
2026-01-30 03:47:47.00	1.99	9.39	-33.4	-51.2	3.8	7.40e-01	0	42	104	0	27	27690
2026-01-30 03:47:48.00	1.86	9.46	-33.5	-51.6	3.8	7.46e-01	0	42	104	0	27	28956
2026-01-30 03:47:49.01	1.73	9.53	-33.6	-52.0	3.8	7.44e-01	0	42	104	0	27	30016
2026-01-30 03:47:50.01	1.60	9.61	-33.6	-51.8	3.8	7.44e-01	0	42	104	0	27	29358
2026-01-30 03:47:51.01	1.47	9.68	-33.5	-51.5	3.8	7.45e-01	0	42	104	0	27	28459
2026-01-30 03:47:52.02	1.34	9.75	-33.5	-51.1	3.8	7.45e-01	0	42	104	0	27	27532
2026-01-30 03:47:53.03	1.21	9.82	-33.4	-50.8	3.8	7.44e-01	0	42	104	0	27	26701
2026-01-30 03:47:54.04	1.08	9.89	-33.4	-50.5	3.8	7.44e-01	0	42	104	0	27	25963
2026-01-30 03:47:55.03	0.95	9.96	-33.3	-50.3	3.8	7.46e-01	0	42	104	0	27	25306
2026-01-30 03:47:56.03	0.82	10.03	-33.2	-49.8	3.8	7.47e-01	0	42	104	0	27	24164
2026-01-30 03:47:57.03	0.68	10.10	-33.1	-49.2	3.8	7.47e-01	0	42	104	0	27	22989
2026-01-30 03:47:58.04	0.55	10.17	-33.0	-48.5	3.8	7.45e-01	0	42	104	0	27	21521
2026-01-30 03:47:59.05	0.41	10.24	-32.7	-47.9	3.8	7.45e-01	0	42	104	0	26	20778
2026-01-30 03:48:00.05	0.28	10.31	-32.4	-46.8	3.8	7.47e-01	0	42	104	0	26	18894
2026-01-30 03:48:01.05	0.14	10.39	-32.1	-45.7	3.8	7.44e-01	0	42	104	0	26	17178
2026-01-30 03:48:02.05	0.00	10.46	-32.1	-46.1	3.8	7.44e-01	0	42	104	0	25	18055
2026-01-30 03:48:03.05	359.86	10.53	-32.1	-46.0	3.8	7.47e-01	0	42	104	0	25	18016
2026-01-30 03:48:04.06	359.72	10.60	-32.1	-46.2	3.8	7.42e-01	0	42	104	0	25	18204
2026-01-30 03:48:05.07	359.58	10.67	-32.2	-46.4	3.8	7.45e-01	0	42	104	0	25	18500
2026-01-30 03:48:06.07	359.44	10.74	-32.3	-46.8	3.8	7.46e-01	0	42	104	0	25	19224
2026-01-30 03:48:07.08	359.30	10.82	-32.5	-47.4	3.8	7.45e-01	0	42	104	0	25	20170
2026-01-30 03:48:08.08	359.16	10.89	-32.3	-46.8	3.8	7.43e-01	0	42	104	0	25	19115
2026-01-30 03:48:09.09	359.02	10.96	-32.0	-45.8	3.8	7.46e-01	0	42	104	0	25	17661
2026-01-30 03:48:10.10	358.87	11.03	-31.7	-45.2	3.8	7.46e-01	0	42	104	0	24	17187
2026-01-30 03:48:11.10	358.73	11.11	-31.4	-44.6	3.8	7.47e-01	0	42	104	0	24	16347
2026-01-30 03:48:12.10	358.58	11.18	-31.3	-44.0	3.8	7.43e-01	0	42	104	0	24	15598
2026-01-30 03:48:13.10	358.44	11.25	-31.1	-44.1	3.8	7.47e-01	0	42	104	0	23	16065
2026-01-30 03:48:14.11	358.29	11.32	-31.1	-43.9	3.8	7.46e-01	0	42	104	0	23	15877
2026-01-30 03:48:15.12	358.14	11.40	-30.8	-43.3	3.8	7.43e-01	0	42	104	0	23	15188
2026-01-30 03:48:16.12	358.00	11.47	-30.7	-42.9	3.8	7.43e-01	0	42	104	0	23	14750
2026-01-30 03:48:17.13	357.85	11.54	-30.6	-43.1	3.8	7.43e-01	0	42	104	0	22	15264
2026-01-30 03:48:18.13	357.70	11.61	-30.5	-42.9	3.8	7.47e-01	0	42	104	0	22	15101
2026-01-30 03:48:19.13	357.55	11.69	-30.5	-42.9	3.8	7.42e-01	0	42	104	0	22	15047
2026-01-30 03:48:20.13	357.39	11.76	-30.5	-43.4	3.8	7.45e-01	0	42	104	0	21	15913
2026-01-30 03:48:21.14	357.24	11.83	-30.7	-43.4	3.8	7.44e-01	0	42	104	0	22	15534
2026-01-30 03:48:22.14	357.09	11.90	-30.8	-43.8	3.8	7.43e-01	0	42	104	0	22	16014
2026-01-30 03:48:23.15	356.93	11.98	-31.1	-44.5	3.8	7.43e-01	0	42	104	0	22	16921
2026-01-30 03:48:24.15	356.78	12.05	-31.4	-44.9	3.8	7.46e-01	0	42	104	0	23	17008
2026-01-30 03:48:25.16	356.62	12.12	-31.7	-45.5	3.8	7.44e-01	0	42	104	0	24	17463
2026-01-30 03:48:26.16	356.47	12.20	-32.1	-46.5	3.8	7.45e-01	0	42	104	0	24	19034
2026-01-30 03:48:27.16	356.31	12.27	-32.2	-46.3	3.8	7.46e-01	0	43	104	0	25	18431
2026-01-30 03:48:28.17	356.15	12.34	-32.3	-46.7	3.8	7.43e-01	0	42	104	0	25	18913
2026-01-30 03:48:29.18	355.99	12.42	-32.4	-47.1	3.8	7.47e-01	0	43	104	0	25	19635
2026-01-30 03:48:30.18	355.83	12.49	-32.6	-47.7	3.8	7.47e-01	0	42	104	0	25	20564
2026-01-30 03:48:31.19	355.67	12.56	-32.7	-47.7	3.8	7.47e-01	0	42	104	0	26	20236
2026-01-30 03:48:32.19	355.51	12.63	-32.5	-47.1	3.8	7.42e-01	0	42	104	0	26	19158
2026-01-30 03:48:33.20	355.34	12.71	-32.4	-46.7	3.8	7.48e-01	0	43	104	0	26	18542
2026-01-30 03:48:34.20	355.18	12.78	-32.7	-47.7	3.8	7.46e-01	0	43	104	0	26	20174
2026-01-30 03:48:35.20	355.02	12.85	-33.0	-48.7	3.8	7.41e-01	0	43	104	0	26	22111
2026-01-30 03:48:36.21	354.85	12.93	-33.2	-49.2	3.8	7.47e-01	0	42	104	0	27	22640
2026-01-30 03:48:37.22	354.68	13.00	-33.4	-50.0	3.8	7.45e-01	0	42	104	0	27	24475
2026-01-30 03:48:38.23	354.52	13.08	-33.5	-50.8	3.8	7.42e-01	0	42	104	0	27	26229
2026-01-30 03:48:39.23	354.35	13.15	-33.5	-50.5	3.8	7.44e-01	0	42	104	0	28	25436
2026-01-30 03:48:40.24	354.18	13.22	-33.4	-50.2	3.8	7.46e-01	0	43	104	0	28	24652
2026-01-30 03:48:41.25	354.01	13.30	-33.5	-50.5	3.8	7.42e-01	0	43	104	0	27	25624
2026-01-30 03:48:42.25	353.84	13.37	-33.4	-50.2	3.8	7.42e-01	0	43	104	0	27	24790
2026-01-30 03:48:43.25	353.67	13.44	-33.4	-49.9	3.8	7.46e-01	0	43	104	0	27	24198
2026-01-30 03:48:44.26	353.49	13.52	-33.3	-49.8	3.8	7.44e-01	0	43	104	0	27	23931
2026-01-30 03:48:45.26	353.32	13.59	-33.3	-49.6	3.8	7.47e-01	0	43	104	0	27	23437
2026-01-30 03:48:46.27	353.14	13.66	-33.2	-49.1	3.8	7.44e-01	0	43	104	0	27	22366
2026-01-30 03:48:47.28	352.97	13.74	-33.0	-48.4	3.8	7.48e-01	0	43	104	0	27	21172
2026-01-30 03:48:48.28	352.79	13.81	-32.8	-47.6	3.8	7.47e-01	0	43	104	0	27	19717
2026-01-30 03:48:49.29	352.61	13.88	-32.6	-47.2	3.8	7.45e-01	0	43	104	0	26	19306
2026-01-30 03:48:50.29	352.43	13.96	-32.3	-46.0	3.8	7.44e-01	0	43	104	0	26	17593
2026-01-30 03:48:51.29	352.26	14.03	-32.0	-45.2	3.8	7.45e-01	0	43	104	0	26	16478
2026-01-30 03:48:52.30	352.07	14.10	-32.1	-46.0	3.8	7.49e-01	0	43	104	0	25	17775
2026-01-30 03:48:53.30	351.89	14.18	-32.2	-46.3	3.8	7.45e-01	0	43	104	0	25	18258
2026-01-30 03:48:54.30	351.71	14.25	-32.4	-46.8	3.8	7.46e-01	0	43	104	0	25	19009
2026-01-30 03:48:55.31	351.53	14.32	-32.5	-47.1	3.8	7.41e-01	0	43	104	0	25	19506
2026-01-30 03:48:56.31	351.34	14.40	-32.3	-46.5	3.8	7.42e-01	0	43	104	0	25	18560
2026-01-30 03:48:57.32	351.16	14.47	-32.1	-46.0	3.8	7.44e-01	0	43	104	0	25	17788
2026-01-30 03:48:58.32	350.97	14.54	-31.9	-45.8	3.8	7.45e-01	0	43	104	0	24	17916
2026-01-30 03:48:59.33	350.78	14.62	-31.5	-44.6	3.8	7.41e-01	0	43	104	0	24	16318
2026-01-30 03:49:00.33	350.60	14.69	-31.1	-43.8	3.8	7.46e-01	0	43	104	0	23	15502
2026-01-30 03:49:01.33	350.41	14.76	-30.9	-43.6	3.8	7.48e-01	0	43	104	0	22	15660
2026-01-30 03:49:02.33	350.22	14.84	-30.6	-43.1	3.8	7.47e-01	0	43	104	0	22	15155
2026-01-30 03:49:03.33	350.03	14.91	-30.5	-42.9	3.8	7.41e-01	0	43	104	0	22	14913
2026-01-30 03:49:04.33	349.84	14.98	-30.4	-43.1	3.8	7.45e-01	0	43	104	0	21	15547
2026-01-30 03:49:05.33	349.64	15.05	-30.3	-43.0	3.8	7.43e-01	0	43	104	0	21	15420
2026-01-30 03:49:06.33	349.45	15.13	-30.3	-42.8	3.8	7.46e-01	0	43	104	0	21	15167
2026-01-30 03:49:07.33	349.25	15.20	-30.2	-42.6	3.8	7.43e-01	0	43	104	0	21	15035
2026-01-30 03:49:08.33	349.06	15.27	-30.2	-42.7	3.8	7.44e-01	0	43	104	0	21	15081
2026-01-30 03:49:09.33	348.86	15.34	-30.4	-43.0	3.8	7.44e-01	0	43	104	0	21	15469
2026-01-30 03:49:10.33	348.66	15.41	-30.5	-43.4	3.8	7.41e-01	0	43	104	0	21	15857
2026-01-30 03:49:11.34	348.46	15.49	-30.7	-43.4	3.8	7.43e-01	0	43	104	0	22	15485
2026-01-30 03:49:12.35	348.26	15.56	-30.9	-44.0	3.8	7.44e-01	0	43	104	0	22	16191
2026-01-30 03:49:13.35	348.06	15.63	-31.2	-44.4	3.8	7.44e-01	0	43	104	0	23	16360
2026-01-30 03:49:14.35	347.86	15.70	-31.6	-45.4	3.8	7.40e-01	0	43	104	0	23	17632
2026-01-30 03:49:15.35	347.66	15.77	-31.9	-45.9	3.8	7.47e-01	0	43	104	0	24	18056
2026-01-30 03:49:16.36	347.45	15.85	-32.2	-46.3	3.8	7.46e-01	0	43	104	0	25	18158
2026-01-30 03:49:17.37	347.24	15.92	-32.4	-46.7	3.8	7.46e-01	0	43	104	0	25	18820
2026-01-30 03:49:18.37	347.04	15.99	-32.6	-47.4	3.8	7.44e-01	0	43	104	0	25	19981
2026-01-30 03:49:19.38	346.83	16.06	-32.6	-47.2	3.8	7.47e-01	0	43	104	0	26	19218
2026-01-30 03:49:20.38	346.62	16.13	-32.4	-46.4	3.8	7.43e-01	0	43	104	0	26	18059
2026-01-30 03:49:21.37	346.41	16.20	-32.2	-45.8	3.8	7.44e-01	0	43	104	0	26	17186
2026-01-30 03:49:22.38	346.20	16.27	-32.1	-45.7	3.9	7.42e-01	0	43	104	0	25	17318
2026-01-30 03:49:23.38	345.99	16.34	-32.1	-45.8	3.8	7.46e-01	0	43	104	0	25	17547
2026-01-30 03:49:24.39	345.77	16.41	-32.3	-38.5	5.1	7.07e-01	0	43	104	0	25	7304
2026-01-30 03:49:25.39	345.56	16.48	-32.7	-38.7	13.6	6.03e-01	0	43	104	0	26	7185
2026-01-30 03:49:26.40	345.34	16.55	-32.8	-39.2	13.2	6.04e-01	0	43	0	524288	26	7526
2026-01-30 03:49:27.40	345.13	16.62	-32.5	-38.1	14.2	6.03e-01	0	43	0	2097152	26	6799
2026-01-30 03:49:28.40	344.91	16.69	-32.2	-36.6	15.3	6.03e-01	0	43	0	4194304	26	6010
2026-01-30 03:49:29.40	344.69	16.76	-31.7	-35.5	16.4	6.00e-01	0	43	0	5767168	25	5591
2026-01-30 03:49:30.41	344.47	16.83	-31.3	-34.7	17.3	6.05e-01	0	43	0	7864320	24	5357
2026-01-30 03:49:31.42	344.25	16.90	-30.9	-33.6	18.0	6.03e-01	0	43	0	9437184	24	4906
2026-01-30 03:49:32.42	344.03	16.97	-30.5	-33.1	18.7	6.04e-01	0	43	0	11534336	23	4823
2026-01-30 03:49:33.43	343.80	17.04	-30.3	-32.9	19.1	6.03e-01	0	43	0	13631488	22	4861
2026-01-30 03:49:34.43	343.58	17.11	-30.3	-33.4	19.1	6.03e-01	0	43	0	15204352	21	5173
2026-01-30 03:49:35.43	343.35	17.18	-30.5	-34.0	18.7	6.04e-01	0	43	0	17301504	21	5403
2026-01-30 03:49:36.43	343.13	17.25	-30.6	-33.7	18.6	6.02e-01	0	43	0	19398656	22	5155
2026-01-30 03:49:37.44	342.90	17.31	-30.4	-33.2	18.9	6.02e-01	0	43	0	20971520	22	4991
2026-01-30 03:49:38.44	342.67	17.38	-30.4	-33.1	19.0	6.03e-01	0	43	0	23068672	22	4938
2026-01-30 03:49:39.44	342.44	17.45	-30.3	-33.0	19.0	6.04e-01	0	43	0	24641536	22	4919
2026-01-30 03:49:40.44	342.21	17.52	-30.4	-33.3	18.9	6.04e-01	0	43	0	26738688	22	4995
2026-01-30 03:49:41.44	341.98	17.58	-30.4	-33.2	18.9	6.02e-01	0	43	0	28311552	22	4958
2026-01-30 03:49:42.44	341.75	17.65	-30.2	-32.8	19.2	6.05e-01	0	43	0	30408704	22	4837
2026-01-30 03:49:43.44	341.52	17.72	-30.2	-32.6	19.3	6.03e-01	0	43	0	32505856	22	4767
2026-01-30 03:49:44.45	341.28	17.78	-30.2	-32.7	19.3	6.04e-01	0	43	0	34078720	22	4801
2026-01-30 03:49:45.45	341.04	17.85	-30.2	-32.8	19.3	6.00e-01	0	43	0	36175872	22	4816
2026-01-30 03:49:46.46	340.80	17.91	-30.2	-32.6	19.3	6.05e-01	0	43	0	37748736	22	4781
2026-01-30 03:49:47.46	340.57	17.98	-30.3	-32.8	19.2	6.01e-01	0	43	0	39845888	22	4841
2026-01-30 03:49:48.47	340.33	18.04	-30.2	-32.7	19.2	6.02e-01	0	43	0	41418752	22	4802
2026-01-30 03:49:49.47	340.09	18.11	-30.1	-32.4	19.5	6.04e-01	0	43	0	43515904	22	4678
2026-01-30 03:49:50.47	339.84	18.17	-30.1	-32.3	19.5	6.02e-01	0	43	0	45613056	22	4668
2026-01-30 03:49:51.47	339.60	18.24	-30.1	-32.5	19.4	6.03e-01	0	43	0	47185920	22	4738
2026-01-30 03:49:52.48	339.36	18.30	-30.1	-32.5	19.4	6.02e-01	0	43	0	49283072	22	4744
2026-01-30 03:49:53.48	339.11	18.36	-30.1	-32.5	19.4	6.03e-01	0	43	0	50855936	22	4720
2026-01-30 03:49:54.49	338.86	18.43	-30.1	-32.5	19.4	6.03e-01	0	43	0	52953088	22	4718
2026-01-30 03:49:55.49	338.62	18.49	-30.2	-32.7	19.3	6.04e-01	0	43	0	55050240	22	4787
2026-01-30 03:49:56.50	338.37	18.55	-30.2	-32.7	19.3	6.01e-01	0	43	0	56623104	22	4814
2026-01-30 03:49:57.50	338.12	18.61	-30.2	-33.3	19.2	6.05e-01	0	43	0	58720256	21	5104
2026-01-30 03:49:58.50	337.87	18.68	-30.1	-33.0	19.4	6.02e-01	0	43	0	60293120	21	5025
2026-01-30 03:49:59.51	337.62	18.74	-30.2	-33.2	19.3	6.02e-01	0	43	0	62390272	21	5102
2026-01-30 03:50:00.51	337.36	18.80	-30.3	-33.5	19.1	6.02e-01	0	43	0	64487424	21	5195
2026-01-30 03:50:01.51	337.11	18.86	-30.3	-33.6	19.0	6.04e-01	0	43	0	66060288	21	5220
2026-01-30 03:50:02.51	336.86	18.92	-30.4	-33.8	18.9	6.04e-01	0	43	0	68157440	21	5304
2026-01-30 03:50:03.52	336.60	18.98	-30.4	-33.8	18.9	6.02e-01	0	43	0	69730304	21	5313
2026-01-30 03:50:04.53	336.34	19.04	-30.4	-33.7	18.9	6.02e-01	0	43	0	71827456	21	5285
2026-01-30 03:50:05.54	336.08	19.10	-30.4	-33.8	18.9	6.04e-01	0	43	0	73924608	21	5299
2026-01-30 03:50:06.54	335.82	19.15	-30.5	-34.0	18.8	6.00e-01	0	43	0	75497472	21	5389
2026-01-30 03:50:07.54	335.56	19.21	-30.5	-33.4	18.8	6.05e-01	0	43	0	77594624	22	5030
2026-01-30 03:50:08.55	335.30	19.27	-30.3	-32.8	19.2	6.02e-01	0	43	0	79167488	22	4840
2026-01-30 03:50:09.55	335.04	19.33	-30.1	-32.9	19.4	6.02e-01	0	43	0	81264640	21	4995
2026-01-30 03:50:10.55	334.77	19.38	-30.2	-33.1	19.3	6.03e-01	0	43	0	82837504	21	5056
2026-01-30 03:50:11.55	334.51	19.44	-30.3	-33.5	19.1	6.02e-01	0	43	0	84934656	21	5195
2026-01-30 03:50:12.55	334.25	19.49	-30.3	-33.4	19.1	6.05e-01	0	43	0	87031808	21	5150
2026-01-30 03:50:13.56	333.98	19.55	-30.2	-33.3	19.2	6.02e-01	0	43	0	88604672	21	5118
2026-01-30 03:50:14.56	333.71	19.60	-30.2	-33.3	19.2	6.03e-01	0	43	0	90701824	21	5122
2026-01-30 03:50:15.56	333.44	19.66	-30.2	-33.2	19.3	6.05e-01	0	43	0	92274688	21	5079
2026-01-30 03:50:16.56	333.17	19.71	-30.2	-33.2	19.3	6.04e-01	0	43	0	94371840	21	5078
2026-01-30 03:50:17.56	332.91	19.76	-30.2	-33.3	19.2	6.01e-01	0	43	0	96468992	21	5128
2026-01-30 03:50:18.57	332.63	19.82	-30.3	-33.5	19.1	6.04e-01	0	43	0	98041856	21	5210
2026-01-30 03:50:19.58	332.36	19.87	-30.3	-33.6	19.0	6.04e-01	0	43	0	100139008	21	5221
2026-01-30 03:50:20.58	332.08	19.92	-30.3	-33.4	19.2	6.03e-01	0	43	0	101711872	21	5156
2026-01-30 03:50:21.59	331.81	19.97	-30.3	-33.3	19.2	6.03e-01	0	43	0	103809024	21	5136
2026-01-30 03:50:22.59	331.53	20.02	-30.2	-33.2	19.2	6.02e-01	0	43	0	105906176	21	5088
2026-01-30 03:50:23.60	331.26	20.07	-30.2	-33.2	19.2	6.00e-01	0	43	0	107479040	21	5080
2026-01-30 03:50:24.60	330.98	20.12	-30.2	-33.3	19.2	6.03e-01	0	43	0	109576192	21	5109
2026-01-30 03:50:25.60	330.70	20.17	-30.2	-33.3	19.2	6.02e-01	0	43	0	111149056	21	5109
2026-01-30 03:50:26.61	330.42	20.22	-30.3	-33.4	19.2	6.03e-01	0	43	0	113246208	21	5150
2026-01-30 03:50:27.61	330.14	20.27	-30.3	-33.4	19.2	6.02e-01	0	43	0	114819072	21	5152
2026-01-30 03:50:28.61	329.86	20.31	-30.3	-33.5	19.1	6.02e-01	0	43	0	116916224	21	5189
2026-01-30 03:50:29.62	329.58	20.36	-30.2	-33.3	19.2	6.03e-01	0	43	0	119013376	21	5114
2026-01-30 03:50:30.62	329.29	20.41	-30.1	-33.0	19.4	6.03e-01	0	43	0	120586240	21	5014
2026-01-30 03:50:31.63	329.01	20.45	-30.2	-33.2	19.3	6.03e-01	0	43	0	122683392	21	5074
2026-01-30 03:50:32.63	328.72	20.50	-30.2	-33.2	19.2	6.04e-01	0	43	0	124780544	21	5088
2026-01-30 03:50:33.63	328.44	20.54	-30.3	-33.4	19.1	6.05e-01	0	43	0	126353408	21	5163
2026-01-30 03:50:34.63	328.15	20.58	-30.2	-33.3	19.2	6.04e-01	0	43	0	128450560	21	5123
2026-01-30 03:50:35.64	327.86	20.63	-30.2	-33.6	19.1	6.03e-01	0	43	0	130023424	20	5337
2026-01-30 03:50:36.64	327.58	20.67	-30.1	-33.1	19.2	6.05e-01	0	43	0	132120576	21	5067
2026-01-30 03:50:37.64	327.29	20.71	-30.1	-33.0	19.3	6.02e-01	0	43	0	133693440	21	5020
2026-01-30 03:50:38.64	327.00	20.75	-30.3	-33.4	18.6	6.03e-01	0	43	0	135790592	21	5157
2026-01-30 03:50:39.64	326.71	20.79	-30.4	-33.7	18.5	6.03e-01	0	43	0	137887744	21	5272
2026-01-30 03:50:40.64	326.42	20.83	-30.4	-33.7	18.8	6.03e-01	0	43	0	139460608	21	5287
2026-01-30 03:50:41.65	326.13	20.87	-30.3	-33.6	18.7	6.03e-01	0	43	0	141557760	21	5221
2026-01-30 03:50:42.65	325.83	20.90	-30.4	-33.7	18.8	6.03e-01	0	43	0	143130624	21	5291
2026-01-30 03:50:43.66	325.54	20.94	-30.4	-33.7	18.9	6.02e-01	0	43	0	145227776	21	5287
2026-01-30 03:50:44.66	325.24	20.98	-30.3	-33.5	19.0	6.02e-01	0	43	0	146800640	21	5203
2026-01-30 03:50:45.66	324.95	21.01	-30.4	-33.6	19.0	6.03e-01	0	43	0	148897792	21	5246
2026-01-30 03:50:46.67	324.65	21.05	-30.5	-33.9	18.8	6.05e-01	0	43	0	150994944	21	5352
2026-01-30 03:50:47.67	324.36	21.08	-30.3	-33.4	19.1	6.03e-01	0	43	0	152567808	21	5175
2026-01-30 03:50:48.66	324.06	21.12	-30.2	-33.1	19.3	6.03e-01	0	43	0	154664960	21	5058
2026-01-30 03:50:49.66	323.76	21.15	-30.2	-33.2	19.3	6.02e-01	0	43	0	156237824	21	5068
2026-01-30 03:50:50.67	323.46	21.18	-30.1	-33.0	19.4	6.01e-01	0	43	0	158334976	21	5017
2026-01-30 03:50:51.67	323.17	21.21	-30.2	-33.3	19.3	6.04e-01	0	43	0	159907840	21	5107
2026-01-30 03:50:52.67	322.87	21.24	-30.2	-33.3	19.2	6.06e-01	0	43	0	162004992	21	5123
2026-01-30 03:50:53.67	322.57	21.27	-30.3	-33.4	19.1	6.04e-01	0	43	0	164102144	21	5157
2026-01-30 03:50:54.67	322.27	21.30	-30.3	-33.3	19.2	6.02e-01	0	43	0	165675008	21	5128
2026-01-30 03:50:55.67	321.97	21.33	-30.2	-33.2	19.3	6.04e-01	0	43	0	167772160	21	5074
2026-01-30 03:50:56.67	321.66	21.36	-30.1	-33.0	19.4	6.03e-01	0	43	0	169869312	21	4994
2026-01-30 03:50:57.67	321.36	21.38	-30.2	-33.1	19.3	6.01e-01	0	43	0	171442176	21	5063
2026-01-30 03:50:58.67	321.06	21.41	-30.3	-33.5	19.1	6.03e-01	0	43	0	173015040	21	5175
2026-01-30 03:50:59.68	320.75	21.44	-30.3	-33.4	19.2	6.01e-01	0	43	0	175112192	21	5144
2026-01-30 03:51:00.67	320.45	21.46	-30.3	-33.6	19.1	6.03e-01	0	43	0	177209344	21	5220
2026-01-30 03:51:01.67	320.15	21.48	-30.3	-33.5	19.1	6.02e-01	0	43	0	178782208	21	5192
2026-01-30 03:51:02.68	319.84	21.51	-30.2	-33.2	19.3	6.03e-01	0	43	0	180879360	21	5088
2026-01-30 03:51:03.68	319.53	21.53	-30.3	-33.3	19.2	6.05e-01	0	43	0	182976512	21	5123
2026-01-30 03:51:04.68	319.23	21.55	-30.2	-33.3	19.2	6.04e-01	0	43	0	184549376	21	5119
2026-01-30 03:51:05.68	318.92	21.57	-30.3	-33.4	19.1	6.04e-01	0	43	0	186646528	21	5166
2026-01-30 03:51:06.69	318.61	21.59	-30.2	-33.2	19.3	5.99e-01	0	43	0	188219392	21	5099
2026-01-30 03:51:07.69	318.31	21.61	-30.2	-33.1	19.3	6.04e-01	0	43	0	190316544	21	5051
2026-01-30 03:51:08.69	318.00	21.63	-30.3	-33.4	19.2	6.04e-01	0	43	0	191889408	21	5160
2026-01-30 03:51:09.70	317.69	21.64	-30.2	-33.2	19.3	6.02e-01	0	43	0	193986560	21	5076
2026-01-30 03:51:10.70	317.38	21.66	-30.2	-33.2	19.3	6.04e-01	0	43	0	196083712	21	5081
2026-01-30 03:51:11.71	317.07	21.67	-30.3	-33.5	19.2	6.04e-01	0	43	0	197656576	21	5189
2026-01-30 03:51:12.71	316.76	21.69	-30.3	-33.3	19.2	6.03e-01	0	43	0	199753728	21	5118
2026-01-30 03:51:13.71	316.45	21.70	-30.3	-33.3	19.2	6.01e-01	0	43	0	201326592	21	5129
2026-01-30 03:51:14.71	316.14	21.71	-30.3	-33.4	19.2	6.04e-01	0	43	0	203423744	21	5156
2026-01-30 03:51:15.72	315.83	21.73	-30.3	-33.5	19.2	6.02e-01	0	43	0	204996608	21	5172
2026-01-30 03:51:16.72	315.52	21.74	-30.3	-33.5	19.2	6.03e-01	0	43	0	207093760	21	5180
2026-01-30 03:51:17.72	315.21	21.75	-30.5	-33.9	18.8	6.05e-01	0	43	0	209190912	21	5354
2026-01-30 03:51:18.72	314.90	21.76	-30.4	-33.8	18.9	6.02e-01	0	43	0	210763776	21	5317
2026-01-30 03:51:19.73	314.59	21.77	-30.3	-33.5	19.1	6.02e-01	0	43	0	212860928	21	5200
2026-01-30 03:51:20.73	314.28	21.77	-30.4	-33.7	19.0	6.03e-01	0	43	0	214958080	21	5261
2026-01-30 03:51:21.74	313.96	21.78	-30.5	-33.9	18.8	6.03e-01	0	43	0	216530944	21	5342
2026-01-30 03:51:22.75	313.65	21.79	-30.4	-33.6	19.0	6.02e-01	0	43	0	218628096	21	5236
2026-01-30 03:51:23.75	313.34	21.79	-30.4	-33.6	19.1	6.02e-01	0	43	0	220200960	21	5224
2026-01-30 03:51:24.76	313.02	21.80	-30.4	-33.8	18.9	6.04e-01	0	43	0	222298112	21	5306
2026-01-30 03:51:25.76	312.71	21.80	-30.5	-34.1	18.8	6.02e-01	0	43	0	223870976	21	5418
2026-01-30 03:51:26.77	312.40	21.80	-30.6	-33.7	18.7	6.00e-01	0	43	0	225968128	22	5151
2026-01-30 03:51:27.77	312.09	21.80	-30.4	-33.7	19.0	6.06e-01	0	43	0	228065280	21	5261
2026-01-30 03:51:28.78	311.77	21.80	-30.2	-33.3	19.2	6.06e-01	0	43	0	229638144	21	5109
2026-01-30 03:51:29.78	311.46	21.80	-30.6	-34.1	18.7	6.01e-01	0	43	0	231735296	21	5433
2026-01-30 03:51:30.79	311.14	21.80	-30.4	-33.7	19.0	6.04e-01	0	43	0	233308160	21	5263
2026-01-30 03:51:31.79	310.83	21.80	-30.4	-33.6	19.1	6.04e-01	0	43	0	235405312	21	5230
2026-01-30 03:51:32.79	310.52	21.80	-30.4	-33.7	19.0	6.03e-01	0	43	0	237502464	21	5274
2026-01-30 03:51:33.79	310.21	21.79	-30.3	-33.4	19.2	6.02e-01	0	43	0	239075328	21	5152
2026-01-30 03:51:34.79	309.90	21.79	-30.3	-33.4	19.2	6.01e-01	0	43	0	241172480	21	5162
2026-01-30 03:51:35.79	309.59	21.78	-30.4	-33.7	19.0	6.03e-01	0	43	0	242745344	21	5260
2026-01-30 03:51:36.80	309.27	21.78	-30.4	-33.7	19.0	6.05e-01	0	43	0	244842496	21	5262
2026-01-30 03:51:37.79	308.97	21.77	-30.3	-33.4	19.2	6.05e-01	0	43	0	246415360	21	5155
2026-01-30 03:51:38.79	308.66	21.76	-30.3	-33.3	19.2	6.05e-01	0	43	0	248512512	21	5128
2026-01-30 03:51:39.80	308.34	21.75	-30.2	-33.0	19.4	6.02e-01	0	43	0	250609664	21	5022
2026-01-30 03:51:40.80	308.03	21.74	-30.1	-32.9	19.5	6.03e-01	0	43	0	252182528	21	4981
2026-01-30 03:51:41.81	307.72	21.73	-30.3	-33.5	19.1	6.02e-01	0	43	0	254279680	21	5207
2026-01-30 03:51:42.81	307.41	21.72	-30.3	-33.4	19.2	6.02e-01	0	43	0	255852544	21	5168
2026-01-30 03:51:43.81	307.10	21.71	-30.0	-32.6	19.6	6.04e-01	0	43	0	257949696	21	4871
2026-01-30 03:51:44.82	306.79	21.70	-30.3	-33.5	19.0	6.02e-01	0	43	0	260046848	21	5199
2026-01-30 03:51:45.82	306.48	21.68	-30.3	-33.6	19.1	6.02e-01	0	43	0	261619712	21	5212
2026-01-30 03:51:46.82	306.17	21.67	-30.0	-32.6	19.7	6.03e-01	0	43	0	263716864	21	4875
2026-01-30 03:51:47.82	305.86	21.65	-30.3	-33.5	19.1	6.03e-01	0	43	0	265289728	21	5211
2026-01-30 03:51:48.82	305.55	21.64	-30.4	-33.7	19.0	6.03e-01	0	43	0	267386880	21	5263
2026-01-30 03:51:49.83	305.24	21.62	-30.1	-33.1	19.4	6.05e-01	0	43	0	269484032	21	5028
2026-01-30 03:51:50.84	304.93	21.60	-30.2	-33.2	19.2	6.03e-01	0	43	0	271056896	21	5085
2026-01-30 03:51:51.84	304.62	21.58	-30.4	-33.9	18.8	6.02e-01	0	43	0	273154048	21	5337
2026-01-30 03:51:52.84	304.32	21.56	-30.3	-33.4	19.2	6.00e-01	0	43	0	274726912	21	5142
2026-01-30 03:51:53.85	304.01	21.54	-30.4	-33.7	18.9	6.03e-01	0	43	0	276824064	21	5275
2026-01-30 03:51:54.85	303.70	21.52	-30.3	-33.6	19.1	6.01e-01	0	43	0	278396928	21	5216
2026-01-30 03:51:55.85	303.40	21.50	-30.1	-32.9	19.5	6.04e-01	0	43	0	280494080	21	4962
2026-01-30 03:51:56.84	303.09	21.48	-30.6	-34.2	18.6	6.04e-01	0	43	0	282591232	21	5468
2026-01-30 03:51:57.85	302.79	21.45	-30.3	-33.4	19.2	6.05e-01	0	43	0	284164096	21	5173
2026-01-30 03:51:58.85	302.48	21.43	-30.3	-33.4	19.1	6.03e-01	0	43	0	286261248	21	5142
2026-01-30 03:51:59.86	302.18	21.40	-30.5	-34.0	18.7	6.03e-01	0	43	0	287834112	21	5384
2026-01-30 03:52:00.86	301.87	21.37	-30.4	-33.7	19.0	6.03e-01	0	43	0	289931264	21	5267
2026-01-30 03:52:01.86	301.57	21.35	-30.6	-33.8	18.6	6.01e-01	0	43	0	292028416	22	5178
2026-01-30 03:52:02.87	301.27	21.32	-30.4	-33.3	18.9	6.03e-01	0	43	0	293601280	22	4996
2026-01-30 03:52:03.87	300.97	21.29	-30.3	-32.9	19.1	6.00e-01	0	43	0	295698432	22	4858
2026-01-30 03:52:04.87	300.66	21.26	-30.3	-32.9	19.2	6.00e-01	0	43	0	297271296	22	4876
2026-01-30 03:52:05.88	300.36	21.23	-29.7	-32.0	19.8	6.04e-01	0	43	0	299368448	21	4669
2026-01-30 03:52:06.87	300.07	21.20	-30.6	-33.9	18.4	6.05e-01	0	43	0	301465600	22	5266
2026-01-30 03:52:07.88	299.76	21.17	-29.9	-32.5	19.6	6.02e-01	0	43	0	303038464	21	4836
2026-01-30 03:52:08.88	299.47	21.14	-29.7	-31.9	19.8	5.99e-01	0	43	0	305135616	21	4639
2026-01-30 03:52:09.89	299.17	21.10	-30.5	-34.1	18.6	6.02e-01	0	43	0	306708480	21	5458
2026-01-30 03:52:10.90	298.87	21.07	-30.0	-32.6	19.6	6.05e-01	0	43	0	308805632	21	4875
2026-01-30 03:52:11.90	298.57	21.03	-30.5	-34.0	18.8	6.03e-01	0	43	0	310378496	21	5412
2026-01-30 03:52:12.91	298.27	21.00	-29.4	-31.2	20.4	6.02e-01	0	43	0	312475648	21	4401
2026-01-30 03:52:13.91	297.98	20.96	-30.6	-33.8	18.3	6.03e-01	0	43	0	314572800	22	5220
2026-01-30 03:52:14.91	297.68	20.93	-29.8	-32.3	19.8	6.06e-01	0	43	0	316145664	21	4768
2026-01-30 03:52:15.92	297.39	20.89	-30.1	-32.4	19.2	6.06e-01	0	43	0	318242816	22	4689
2026-01-30 03:52:16.92	297.09	20.85	-30.4	-33.7	18.9	6.05e-01	0	43	0	320339968	21	5271
2026-01-30 03:52:17.93	296.80	20.81	-30.0	-32.6	19.5	6.03e-01	0	43	0	321912832	21	4885
2026-01-30 03:52:18.93	296.51	20.77	-30.1	-32.9	19.4	6.04e-01	0	43	0	324009984	21	4987
2026-01-30 03:52:19.93	296.22	20.73	-29.9	-31.8	19.6	6.02e-01	0	43	0	325582848	22	4506
2026-01-30 03:52:20.93	295.93	20.69	-31.1	-34.9	17.5	6.01e-01	0	43	0	327680000	23	5540
2026-01-30 03:52:21.93	295.64	20.65	-29.7	-31.8	20.0	6.03e-01	0	43	0	329252864	21	4612
2026-01-30 03:52:22.94	295.35	20.61	-30.6	-33.8	18.4	6.01e-01	0	43	0	331350016	22	5203
2026-01-30 03:52:23.94	295.06	20.56	-30.0	-32.8	19.5	6.02e-01	0	43	0	333447168	21	4934
2026-01-30 03:52:24.94	294.78	20.52	-30.4	-33.7	18.8	6.04e-01	0	43	0	335020032	21	5296
2026-01-30 03:52:25.94	294.49	20.48	-30.0	-32.7	19.5	6.04e-01	0	43	0	337117184	21	4905
2026-01-30 03:52:26.95	294.21	20.43	-30.6	-33.8	18.4	6.03e-01	0	43	0	338690048	22	5236
2026-01-30 03:52:27.95	293.92	20.39	-30.0	-32.6	19.6	6.03e-01	0	43	0	340787200	21	4879
2026-01-30 03:52:28.95	293.64	20.34	-30.1	-33.1	19.2	6.04e-01	0	43	0	342360064	21	5043
2026-01-30 03:52:29.96	293.36	20.29	-30.2	-33.3	19.1	6.02e-01	0	43	0	344457216	21	5123
2026-01-30 03:52:30.96	293.07	20.25	-30.3	-33.5	18.9	6.02e-01	0	43	0	346554368	21	5212
2026-01-30 03:52:31.96	292.79	20.20	-30.0	-33.3	19.4	6.05e-01	0	43	0	348127232	20	5243
2026-01-30 03:52:32.96	292.52	20.15	-30.3	-33.5	19.0	6.03e-01	0	43	0	350224384	21	5205
2026-01-30 03:52:33.96	292.24	20.10	-29.8	-32.1	19.7	6.04e-01	0	43	0	351797248	21	4700
2026-01-30 03:52:34.97	291.96	20.05	-30.3	-33.6	18.9	6.04e-01	0	43	0	353894400	21	5268
2026-01-30 03:52:35.97	291.68	20.00	-29.7	-32.5	19.8	6.00e-01	0	43	0	355467264	20	4968
2026-01-30 03:52:36.97	291.41	19.95	-30.1	-33.1	19.2	6.05e-01	0	43	0	357564416	21	5066
2026-01-30 03:52:37.98	291.13	19.90	-29.8	-32.7	19.7	6.04e-01	0	43	0	359661568	20	5039
2026-01-30 03:52:38.98	290.86	19.85	-30.1	-33.1	19.2	6.03e-01	0	43	0	361234432	21	5065
2026-01-30 03:52:39.98	290.59	19.80	-29.8	-32.2	19.7	6.03e-01	0	43	0	363331584	21	4753
2026-01-30 03:52:40.99	290.31	19.74	-29.8	-32.8	19.6	6.03e-01	0	43	0	365428736	20	5080
2026-01-30 03:52:41.99	290.04	19.69	-29.9	-33.0	19.4	6.01e-01	0	43	0	367001600	20	5153
2026-01-30 03:52:43.00	289.77	19.63	-29.8	-32.8	19.6	6.02e-01	0	43	0	369098752	20	5066
2026-01-30 03:52:44.00	289.50	19.58	-30.2	-33.2	19.1	6.02e-01	0	43	0	370671616	21	5119
2026-01-30 03:52:45.00	289.23	19.53	-29.7	-31.9	19.9	6.04e-01	0	43	0	372768768	21	4659
2026-01-30 03:52:46.01	288.97	19.47	-30.2	-33.3	19.1	6.03e-01	0	43	0	374341632	21	5154
2026-01-30 03:52:47.01	288.70	19.41	-29.6	-31.7	20.0	6.03e-01	0	43	0	376438784	21	4580
2026-01-30 03:52:48.01	288.44	19.36	-30.3	-33.7	18.8	6.03e-01	0	43	0	378535936	21	5294
2026-01-30 03:52:49.02	288.17	19.30	-29.6	-31.6	20.0	6.01e-01	0	43	0	380108800	21	4562
2026-01-30 03:52:50.02	287.91	19.24	-30.1	-33.1	19.2	6.04e-01	0	43	0	382205952	21	5059
2026-01-30 03:52:51.03	287.65	19.18	-29.7	-32.5	19.7	6.04e-01	0	43	0	383778816	20	4957
2026-01-30 03:52:52.04	287.38	19.13	-30.0	-33.4	19.2	6.03e-01	0	43	0	385875968	20	5311
2026-01-30 03:52:53.04	287.12	19.07	-29.8	-32.2	19.6	6.03e-01	0	43	0	387973120	21	4754
2026-01-30 03:52:54.05	286.86	19.01	-30.0	-33.2	19.4	6.05e-01	0	43	0	389545984	20	5221
2026-01-30 03:52:55.05	286.61	18.95	-29.6	-32.2	19.9	6.04e-01	0	43	0	391643136	20	4848
2026-01-30 03:52:56.06	286.35	18.89	-30.0	-33.2	19.3	6.06e-01	0	43	0	393216000	20	5247
2026-01-30 03:52:57.05	286.10	18.83	-29.9	-32.5	19.4	6.04e-01	0	43	0	395313152	21	4875
2026-01-30 03:52:58.06	285.84	18.77	-29.7	-31.9	19.9	6.05e-01	0	43	0	396886016	21	4639
2026-01-30 03:52:59.07	285.59	18.71	-30.0	-32.9	19.1	6.02e-01	0	43	0	398983168	21	5008
2026-01-30 03:53:00.07	285.33	18.65	-29.4	-32.3	20.3	6.02e-01	0	43	0	401080320	19	4985
2026-01-30 03:53:01.07	285.08	18.58	-30.3	-33.8	18.6	6.04e-01	0	43	0	402653184	21	5341
2026-01-30 03:53:02.07	284.83	18.52	-29.4	-31.7	20.2	6.02e-01	0	43	0	404750336	20	4689
2026-01-30 03:53:03.07	284.59	18.46	-30.2	-33.4	18.9	6.02e-01	0	43	0	406323200	21	5185
2026-01-30 03:53:04.07	284.34	18.40	-29.4	-31.2	20.1	6.01e-01	0	43	0	408420352	21	4427
2026-01-30 03:53:05.07	284.09	18.33	-29.9	-33.1	19.3	6.02e-01	0	43	0	410517504	20	5204
2026-01-30 03:53:06.07	283.85	18.27	-29.9	-32.5	19.4	6.04e-01	0	43	0	412090368	21	4854
2026-01-30 03:53:07.07	283.61	18.21	-29.6	-31.7	20.0	6.03e-01	0	43	0	414187520	21	4594
2026-01-30 03:53:08.08	283.36	18.14	-30.2	-33.3	18.9	6.02e-01	0	43	0	415760384	21	5143
2026-01-30 03:53:09.08	283.12	18.08	-29.6	-32.2	19.9	6.02e-01	0	43	0	417857536	20	4880
2026-01-30 03:53:10.08	282.88	18.01	-29.9	-33.1	19.4	6.02e-01	0	43	0	419954688	20	5189
2026-01-30 03:53:11.09	282.64	17.95	-29.6	-32.2	19.9	6.03e-01	0	43	0	421527552	20	4879
2026-01-30 03:53:12.09	282.40	17.88	-29.9	-33.0	19.4	6.01e-01	0	43	0	423624704	20	5168
2026-01-30 03:53:13.10	282.16	17.81	-30.2	-33.4	18.8	6.02e-01	0	43	0	425197568	21	5190
2026-01-30 03:53:14.09	281.92	17.75	-29.5	-32.0	20.0	6.00e-01	0	43	0	427294720	20	4794
2026-01-30 03:53:15.09	281.69	17.68	-30.0	-33.3	19.2	6.05e-01	0	43	0	428867584	20	5287
2026-01-30 03:53:16.10	281.45	17.62	-29.9	-32.6	19.2	6.03e-01	0	43	0	430964736	21	4911
2026-01-30 03:53:17.10	281.22	17.55	-29.4	-31.3	20.1	6.03e-01	0	43	0	433061888	21	4469
2026-01-30 03:53:18.10	280.99	17.48	-29.8	-32.2	19.6	6.03e-01	0	43	0	434634752	21	4764
2026-01-30 03:53:19.09	280.76	17.41	-29.6	-31.7	19.9	6.03e-01	0	43	0	436731904	21	4610
2026-01-30 03:53:20.10	280.53	17.35	-29.9	-32.4	19.4	6.03e-01	0	43	0	438304768	21	4850
2026-01-30 03:53:21.10	280.30	17.28	-29.9	-32.5	19.4	6.03e-01	0	43	0	440401920	21	4881
2026-01-30 03:53:22.10	280.07	17.21	-29.8	-32.4	19.5	6.04e-01	0	43	0	441974784	21	4841
2026-01-30 03:53:23.11	279.85	17.14	-30.0	-32.9	19.1	6.03e-01	0	43	0	444071936	21	5015
2026-01-30 03:53:24.11	279.62	17.07	-29.8	-32.4	19.4	6.02e-01	0	43	0	446169088	21	4831
2026-01-30 03:53:25.11	279.40	17.00	-29.6	-31.9	19.7	6.04e-01	0	43	0	447741952	21	4665
2026-01-30 03:53:26.12	279.17	16.94	-29.7	-32.0	19.7	6.01e-01	0	43	0	449839104	21	4685
2026-01-30 03:53:27.12	278.95	16.87	-29.9	-33.1	19.3	6.05e-01	0	43	0	451936256	20	5186
2026-01-30 03:53:28.12	278.73	16.80	-29.7	-32.5	19.7	6.03e-01	0	43	0	453509120	20	4979
2026-01-30 03:53:29.12	278.51	16.73	-29.7	-32.7	19.5	6.03e-01	0	43	0	455606272	20	5051
2026-01-30 03:53:30.12	278.29	16.66	-29.8	-32.9	19.4	6.02e-01	0	43	0	457179136	20	5143
2026-01-30 03:53:31.13	278.07	16.59	-29.8	-32.8	19.5	6.07e-01	0	43	0	459276288	20	5094
2026-01-30 03:53:32.12	277.86	16.52	-30.0	-33.3	19.1	6.04e-01	0	43	0	460849152	20	5289
2026-01-30 03:53:33.12	277.64	16.45	-29.8	-32.9	19.4	6.04e-01	0	43	0	462946304	20	5118
2026-01-30 03:53:34.12	277.43	16.38	-29.5	-32.0	19.9	6.01e-01	0	43	0	465043456	20	4825
2026-01-30 03:53:35.13	277.21	16.31	-29.7	-32.5	19.7	6.02e-01	0	43	0	466616320	20	4968
2026-01-30 03:53:36.13	277.00	16.23	-29.9	-33.1	19.2	6.04e-01	0	43	0	468713472	20	5222
2026-01-30 03:53:37.14	276.79	16.16	-29.7	-32.7	19.5	6.02e-01	0	43	0	470286336	20	5058
2026-01-30 03:53:38.14	276.58	16.09	-29.6	-32.4	19.6	6.04e-01	0	43	0	472383488	20	4969
2026-01-30 03:53:39.14	276.37	16.02	-29.8	-32.8	19.4	6.04e-01	0	43	0	473956352	20	5082
2026-01-30 03:53:40.14	276.16	15.95	-29.9	-33.0	19.3	6.02e-01	0	43	0	476053504	20	5170
2026-01-30 03:53:41.14	275.95	15.88	-29.7	-32.7	19.4	6.04e-01	0	43	0	478150656	20	5065
2026-01-30 03:53:42.14	275.75	15.81	-29.6	-32.4	19.6	6.06e-01	0	43	0	479723520	20	4953
2026-01-30 03:53:43.14	275.54	15.74	-29.6	-32.4	19.6	6.03e-01	0	43	0	481820672	20	4964
2026-01-30 03:53:44.15	275.34	15.66	-29.7	-32.5	19.6	6.04e-01	0	44	0	483393536	20	4985
2026-01-30 03:53:45.15	275.13	15.59	-29.8	-32.8	19.4	6.01e-01	0	43	0	485490688	20	5092
2026-01-30 03:53:46.16	274.93	15.52	-29.8	-32.9	19.3	6.04e-01	0	43	0	487587840	20	5139
2026-01-30 03:53:47.16	274.73	15.45	-29.7	-32.6	19.5	6.03e-01	0	43	0	489160704	20	5027
2026-01-30 03:53:48.16	274.53	15.37	-29.8	-32.9	19.3	6.02e-01	0	43	0	491257856	20	5143
2026-01-30 03:53:49.17	274.33	15.30	-29.8	-32.9	19.3	6.02e-01	0	43	0	492830720	20	5154
2026-01-30 03:53:50.17	274.13	15.23	-29.8	-32.9	19.3	6.05e-01	0	43	0	494927872	20	5142
2026-01-30 03:53:51.18	273.93	15.16	-29.8	-33.0	19.3	6.02e-01	0	43	0	497025024	20	5156
2026-01-30 03:53:52.18	273.74	15.08	-29.7	-32.7	19.5	6.05e-01	0	44	0	498597888	20	5046
2026-01-30 03:53:53.18	273.55	15.01	-29.8	-32.9	19.3	6.01e-01	0	43	0	500695040	20	5138
2026-01-30 03:53:54.18	273.35	14.94	-29.9	-33.3	19.1	6.05e-01	0	43	0	502267904	20	5283
2026-01-30 03:53:55.18	273.16	14.86	-29.7	-32.6	19.5	6.02e-01	0	43	0	504365056	20	5031
2026-01-30 03:53:56.19	272.97	14.79	-29.6	-32.3	19.7	6.02e-01	0	43	0	505937920	20	4906
2026-01-30 03:53:57.19	272.78	14.72	-29.7	-32.7	19.5	6.03e-01	0	43	0	508035072	20	5057
2026-01-30 03:53:58.19	272.59	14.64	-29.8	-33.0	19.2	6.02e-01	0	43	0	510132224	20	5186
2026-01-30 03:53:59.19	272.40	14.57	-29.9	-33.1	19.2	6.03e-01	0	43	0	511705088	20	5205
2026-01-30 03:54:00.19	272.21	14.50	-29.7	-32.7	19.4	6.01e-01	0	44	0	513802240	20	5087
2026-01-30 03:54:01.20	272.02	14.42	-30.3	-33.7	18.9	6.06e-01	0	43	0	515375104	20	5318
2026-01-30 03:54:02.20	271.84	14.35	-29.8	-32.9	18.0	6.05e-01	0	43	0	517472256	20	5146
2026-01-30 03:54:03.21	271.65	14.28	-29.6	-32.5	19.5	6.02e-01	0	43	0	519045120	20	4990
2026-01-30 03:54:04.21	271.47	14.20	-29.7	-32.7	17.7	6.07e-01	0	43	0	521142272	20	5077
2026-01-30 03:54:05.21	271.29	14.13	-29.8	-32.9	17.5	6.03e-01	0	43	0	523239424	20	5137
2026-01-30 03:54:06.21	271.11	14.06	-29.7	-32.8	19.3	6.05e-01	0	43	0	524812288	20	5091
2026-01-30 03:54:07.22	270.92	13.98	-29.8	-33.0	18.6	6.05e-01	0	43	0	526909440	20	5172
2026-01-30 03:54:08.22	270.74	13.91	-29.8	-32.8	19.3	6.04e-01	0	43	0	529006592	20	5109
2026-01-30 03:54:09.22	270.57	13.84	-29.8	-33.0	19.2	6.00e-01	0	43	0	530579456	20	5184
2026-01-30 03:54:10.23	270.39	13.76	-29.9	-33.1	19.1	6.04e-01	0	43	0	532676608	20	5240
2026-01-30 03:54:11.23	270.21	13.69	-29.9	-33.2	19.0	6.05e-01	0	43	0	534249472	20	5277
2026-01-30 03:54:12.23	270.03	13.62	-29.8	-33.0	19.2	6.05e-01	0	43	0	536346624	20	5172
2026-01-30 03:54:13.24	269.86	13.54	-29.8	-32.9	19.2	6.04e-01	0	43	0	537919488	20	5132
2026-01-30 03:54:14.24	269.68	13.47	-29.8	-32.8	19.3	6.04e-01	0	43	0	540016640	20	5112
2026-01-30 03:54:15.24	269.51	13.40	-29.9	-33.1	19.1	6.02e-01	0	43	0	542113792	20	5236
2026-01-30 03:54:16.25	269.34	13.32	-29.9	-33.2	19.0	6.04e-01	0	43	0	543686656	20	5261
2026-01-30 03:54:17.26	269.17	13.25	-30.0	-33.4	18.9	6.02e-01	0	43	0	545783808	20	5345
2026-01-30 03:54:18.26	269.00	13.17	-29.9	-33.2	18.9	6.04e-01	0	43	0	547356672	20	5287
2026-01-30 03:54:19.26	268.83	13.10	-29.8	-33.0	19.1	6.02e-01	0	43	0	549453824	20	5211
2026-01-30 03:54:20.26	268.66	13.03	-29.8	-32.9	19.1	6.04e-01	0	43	0	551026688	20	5144
2026-01-30 03:54:21.26	268.49	12.95	-29.8	-33.1	19.0	6.05e-01	0	43	0	553123840	20	5222
2026-01-30 03:54:22.27	268.32	12.88	-29.7	-32.8	19.2	6.04e-01	0	43	0	555220992	20	5116
2026-01-30 03:54:23.27	268.16	12.81	-29.9	-33.2	19.0	6.03e-01	0	43	0	556793856	20	5257
2026-01-30 03:54:24.28	267.99	12.73	-29.9	-33.3	18.9	6.04e-01	0	43	0	558891008	20	5301
2026-01-30 03:54:25.28	267.83	12.66	-30.0	-33.6	18.7	5.99e-01	0	43	0	560988160	20	5418
2026-01-30 03:54:26.28	267.67	12.59	-29.9	-33.2	18.9	6.04e-01	0	43	0	562561024	20	5277
2026-01-30 03:54:27.29	267.50	12.51	-29.8	-33.1	19.0	6.04e-01	0	43	0	564658176	20	5224
2026-01-30 03:54:28.29	267.34	12.44	-29.8	-33.0	19.1	6.03e-01	0	43	0	566231040	20	5182
2026-01-30 03:54:29.29	267.18	12.37	-29.7	-32.8	19.1	6.02e-01	0	43	0	568328192	20	5140
2026-01-30 03:54:30.30	267.02	12.29	-29.8	-32.9	19.1	6.01e-01	0	43	0	569901056	20	5160
2026-01-30 03:54:31.30	266.86	12.22	-29.7	-32.8	19.2	6.05e-01	0	43	0	571998208	20	5116
2026-01-30 03:54:32.30	266.70	12.15	-29.8	-33.1	19.0	6.02e-01	0	43	0	574095360	20	5237
2026-01-30 03:54:33.30	266.55	12.07	-29.9	-33.2	18.9	6.03e-01	0	43	0	575668224	20	5292
2026-01-30 03:54:34.31	266.39	12.00	-30.0	-33.4	18.7	6.03e-01	0	43	0	577765376	20	5365
2026-01-30 03:54:35.32	266.23	11.92	-29.9	-33.3	18.8	6.04e-01	0	43	0	579338240	20	5304
2026-01-30 03:54:36.32	266.08	11.85	-29.8	-33.1	18.9	6.03e-01	0	43	0	581435392	20	5254
2026-01-30 03:54:37.32	265.93	11.78	-29.9	-33.2	18.9	6.01e-01	0	43	0	583532544	20	5272
2026-01-30 03:54:38.33	265.77	11.71	-29.9	-33.4	18.8	6.04e-01	0	43	0	585105408	20	5342
2026-01-30 03:54:39.33	265.62	11.63	-29.8	-33.2	18.9	6.02e-01	0	43	0	587202560	20	5275
2026-01-30 03:54:40.34	265.47	11.56	-29.9	-33.2	18.8	6.04e-01	0	43	0	588775424	20	5292
2026-01-30 03:54:41.34	265.32	11.49	-29.9	-33.4	18.7	6.02e-01	0	43	0	590872576	20	5376
2026-01-30 03:54:42.36	265.17	11.41	-29.9	-33.5	18.7	6.04e-01	0	43	0	592445440	20	5390
2026-01-30 03:54:43.35	265.02	11.34	-29.9	-33.5	18.7	6.06e-01	0	43	0	594542592	20	5390
2026-01-30 03:54:44.35	264.87	11.27	-30.0	-33.7	18.5	6.02e-01	0	43	0	596639744	20	5485
2026-01-30 03:54:45.35	264.72	11.20	-30.1	-33.4	18.4	6.05e-01	0	43	0	598212608	21	5274
2026-01-30 03:54:46.36	264.58	11.12	-30.0	-33.7	18.5	6.05e-01	0	43	0	600309760	20	5506
2026-01-30 03:54:47.36	264.43	11.05	-30.1	-33.5	18.3	6.03e-01	0	43	0	601882624	21	5298
2026-01-30 03:54:48.36	264.29	10.98	-30.2	-33.6	18.3	6.02e-01	0	43	0	603979776	21	5325
2026-01-30 03:54:49.37	264.14	10.91	-30.2	-33.7	18.2	6.04e-01	0	43	0	606076928	21	5380
2026-01-30 03:54:50.38	264.00	10.83	-30.2	-33.6	18.2	6.01e-01	0	43	0	607649792	21	5349
2026-01-30 03:54:51.38	263.86	10.76	-30.3	-33.9	18.0	6.03e-01	0	43	0	609746944	21	5475
2026-01-30 03:54:52.38	263.71	10.69	-30.3	-33.9	18.0	6.03e-01	0	43	0	611319808	21	5480
2026-01-30 03:54:53.38	263.57	10.62	-30.3	-34.0	17.9	6.02e-01	0	43	0	613416960	21	5499
2026-01-30 03:54:54.38	263.43	10.55	-30.1	-33.3	18.4	6.01e-01	0	43	0	615514112	21	5236
2026-01-30 03:54:55.38	263.29	10.47	-29.9	-33.3	18.7	6.02e-01	0	43	0	617086976	20	5362
2026-01-30 03:54:56.38	263.16	10.40	-29.9	-33.2	18.7	5.99e-01	0	43	0	619184128	20	5322
2026-01-30 03:54:57.38	263.02	10.33	-29.9	-33.4	18.6	6.03e-01	0	43	0	620756992	20	5375
2026-01-30 03:54:58.38	262.88	10.26	-29.9	-33.4	18.6	6.01e-01	0	43	0	622854144	20	5383
2026-01-30 03:54:59.39	262.74	10.19	-29.9	-33.4	18.6	6.03e-01	0	43	0	624427008	20	5371
2026-01-30 03:55:00.40	262.61	10.12	-29.9	-33.5	18.5	6.03e-01	0	43	0	626524160	20	5442
2026-01-30 03:55:01.40	262.47	10.05	-29.9	-33.4	18.6	6.03e-01	0	43	0	628621312	20	5388
2026-01-30 03:55:02.41	262.34	9.97	-29.9	-33.5	18.5	6.00e-01	0	43	0	630194176	20	5437
2026-01-30 03:55:03.42	262.20	9.90	-30.0	-33.7	18.3	6.01e-01	0	43	0	632291328	20	5519
2026-01-30 03:55:04.42	262.07	9.83	-30.0	-33.7	18.4	6.02e-01	0	43	0	634388480	20	5513
2026-01-30 03:55:05.43	261.94	9.76	-30.2	-33.7	18.1	6.02e-01	0	43	0	635961344	21	5411
2026-01-30 03:55:06.43	261.81	9.69	-30.3	-34.1	17.8	6.06e-01	0	43	0	638058496	21	5575
2026-01-30 03:55:07.43	261.67	9.62	-30.4	-34.3	17.6	6.04e-01	0	43	0	639631360	21	5643
2026-01-30 03:55:08.44	261.54	9.55	-30.2	-33.8	17.9	6.03e-01	0	43	0	641728512	21	5432
2026-01-30 03:55:09.44	261.41	9.48	-30.0	-33.4	18.2	6.03e-01	0	43	0	643301376	21	5277
2026-01-30 03:55:10.45	261.29	9.41	-30.0	-33.3	18.2	6.04e-01	0	43	0	645398528	21	5268
2026-01-30 03:55:11.46	261.16	9.33	-30.0	-33.3	18.3	6.02e-01	0	43	0	647495680	21	5267
2026-01-30 03:55:12.46	261.03	9.26	-30.1	-33.5	18.2	6.04e-01	0	43	0	649068544	21	5314
2026-01-30 03:55:13.46	260.90	9.19	-30.0	-33.8	18.3	6.02e-01	0	43	0	651165696	20	5555
2026-01-30 03:55:14.46	260.78	9.12	-30.1	-33.6	18.1	6.02e-01	0	43	0	652738560	21	5362
2026-01-30 03:55:15.46	260.65	9.05	-30.2	-33.9	17.8	6.02e-01	0	44	0	654835712	21	5493
2026-01-30 03:55:16.47	260.53	8.98	-30.3	-34.2	17.6	6.02e-01	0	43	0	656408576	21	5627
2026-01-30 03:55:17.47	260.40	8.91	-30.3	-34.2	17.7	6.02e-01	0	43	0	658505728	21	5631
2026-01-30 03:55:18.48	260.28	8.84	-30.4	-34.4	17.5	6.03e-01	0	43	0	660602880	21	5699
2026-01-30 03:55:19.47	260.16	8.77	-30.3	-34.1	17.7	6.03e-01	0	43	0	662175744	21	5574
2026-01-30 03:55:20.48	260.03	8.70	-30.1	-33.7	17.9	6.04e-01	0	43	0	664272896	21	5412
2026-01-30 03:55:21.48	259.91	8.64	-30.2	-33.8	17.9	6.04e-01	0	43	0	666370048	21	5448
2026-01-30 03:55:22.49	259.79	8.57	-30.1	-33.6	18.0	6.03e-01	0	43	0	667942912	21	5402
2026-01-30 03:55:23.49	259.67	8.50	-30.1	-33.6	17.9	6.03e-01	0	43	0	670040064	21	5406
2026-01-30 03:55:24.50	259.55	8.43	-30.1	-33.7	17.9	6.03e-01	0	43	0	671612928	21	5409
2026-01-30 03:55:25.50	259.43	8.36	-30.0	-33.5	18.0	6.01e-01	0	43	0	673710080	21	5329
2026-01-30 03:55:26.51	259.31	8.29	-30.1	-33.7	17.8	6.05e-01	0	43	0	675282944	21	5437
2026-01-30 03:55:27.51	259.20	8.22	-30.2	-33.8	17.8	6.04e-01	0	43	0	677380096	21	5469
2026-01-30 03:55:28.51	259.08	8.15	-30.1	-33.6	17.9	6.05e-01	0	43	0	679477248	21	5380
2026-01-30 03:55:29.52	258.96	8.08	-30.1	-33.7	17.8	6.05e-01	0	43	0	681050112	21	5426
2026-01-30 03:55:30.53	258.85	8.01	-30.2	-34.2	17.7	6.04e-01	0	43	0	683147264	20	5767
2026-01-30 03:55:31.53	258.73	7.94	-30.2	-33.9	17.4	6.02e-01	0	43	0	684720128	21	5508
2026-01-30 03:55:32.53	258.62	7.88	-30.2	-33.9	17.7	6.02e-01	0	43	0	686817280	21	5530
2026-01-30 03:55:33.53	258.50	7.81	-30.2	-33.9	17.4	6.05e-01	0	43	0	688914432	21	5514
2026-01-30 03:55:34.53	258.39	7.74	-30.3	-34.2	17.2	6.00e-01	0	43	0	690487296	21	5643
2026-01-30 03:55:35.53	258.28	7.67	-30.3	-34.2	17.5	6.03e-01	0	43	0	692584448	21	5623
2026-01-30 03:55:36.54	258.16	7.60	-30.2	-33.9	17.5	6.02e-01	0	43	0	694157312	21	5536
2026-01-30 03:55:37.54	258.05	7.54	-30.1	-33.7	17.7	6.04e-01	0	43	0	696254464	21	5444
2026-01-30 03:55:38.54	257.94	7.47	-30.1	-33.8	17.7	6.04e-01	0	43	0	697827328	21	5479
2026-01-30 03:55:39.55	257.83	7.40	-30.2	-34.1	17.5	6.01e-01	0	43	0	699924480	21	5597
2026-01-30 03:55:40.56	257.72	7.33	-30.2	-34.0	17.5	6.04e-01	0	43	0	702021632	21	5586
2026-01-30 03:55:41.56	257.61	7.26	-30.2	-33.9	17.6	6.03e-01	0	43	0	703594496	21	5516
2026-01-30 03:55:42.56	257.50	7.20	-30.2	-34.0	17.6	6.03e-01	0	43	0	705691648	21	5566
2026-01-30 03:55:43.56	257.39	7.13	-30.1	-33.8	17.7	6.02e-01	0	43	0	707264512	21	5479
2026-01-30 03:55:44.57	257.29	7.06	-33.3	-51.3	3.5	7.37e-01	0	43	104	708837376	27	28578
2026-01-30 03:55:45.57	257.18	7.00	-33.8	-53.1	3.8	7.47e-01	0	43	104	708837376	28	33245
2026-01-30 03:55:46.57	257.07	6.93	-34.1	-53.0	3.8	7.44e-01	0	43	104	708837376	29	31700

#Closed at: 2026-01-30 03:55:47
#Recorded file [708 MB]: D:/data/31010_260130_064926.dat