passes_logs/2026/01/30/R2M6_AANII_01/R2M6_AANII_01__20260130_005042_FENGYUN_3D_rec.log

#Pass ID: 20260130_005042_FENGYUN 3D
#Satellite: FENGYUN 3D
#Configuration: FENGYUN 3D
#almurnet v.1.7.20240730
#Start time: 2026-01-30 00:50:44

#Version: 2.2.20231116
#Station: R2M6_AANII_01
#Location: 30.233357 lon 59.946436 lat
#TLE: 1 43010U 17072A   26028.95797775  .00000451  00000+0  23492-3 0  9991
#TLE: 2 43010  98.9958   0.9922 0002505  85.7480 274.3981 14.19703224425237

#Time	Az	El	Level	Level2	SNR	BER	BlckErr	Temp	State	Recorded	gain1	gain2
2026-01-30 00:50:44.19	30.73	7.12	-29.4	-32.4	5.5	7.67e-01	0	41	0	0	18	5108
2026-01-30 00:50:45.19	30.82	7.19	-30.1	-33.5	5.3	7.80e-01	0	41	104	0	20	5321
2026-01-30 00:50:46.20	30.92	7.25	-30.4	-34.1	9.2	1.70e-02	0	41	0	0	20	5528
2026-01-30 00:50:47.20	31.01	7.31	-30.0	-33.0	10.0	8.83e-03	0	41	0	5242880	20	5092
2026-01-30 00:50:48.20	31.11	7.38	-29.6	-32.5	10.7	4.02e-03	0	41	0	11534336	19	5011
2026-01-30 00:50:49.20	31.21	7.44	-29.2	-31.5	11.5	8.63e-04	0	41	0	16777216	19	4653
2026-01-30 00:50:50.21	31.31	7.50	-28.9	-31.1	12.0	7.60e-04	0	41	0	22020096	18	4626
2026-01-30 00:50:51.22	31.40	7.57	-28.6	-30.9	12.5	8.46e-05	0	41	0	28311552	17	4678
2026-01-30 00:50:52.22	31.50	7.63	-28.3	-30.1	12.9	3.54e-05	0	41	0	33554432	17	4447
2026-01-30 00:50:53.22	31.60	7.69	-28.1	-30.2	13.2	1.60e-05	0	41	0	38797312	16	4586
2026-01-30 00:50:54.23	31.70	7.76	-28.0	-30.0	13.4	3.88e-04	0	41	0	45088768	16	4498
2026-01-30 00:50:55.23	31.80	7.82	-28.0	-30.0	13.3	9.10e-06	0	42	0	50331648	16	4522
2026-01-30 00:50:56.24	31.90	7.88	-27.8	-29.3	13.7	1.27e-04	0	42	0	55574528	16	4318
2026-01-30 00:50:57.24	32.00	7.95	-27.2	-28.6	14.3	1.10e-06	0	42	0	61865984	15	4218
2026-01-30 00:50:58.25	32.10	8.01	-27.2	-28.5	14.4	0.00e+00	0	42	0	67108864	15	4210
2026-01-30 00:50:59.25	32.20	8.08	-27.2	-29.0	14.4	4.20e-04	0	42	0	73400320	14	4448
2026-01-30 00:51:00.26	32.31	8.14	-27.2	-29.1	14.3	0.00e+00	0	42	0	78643200	14	4480
2026-01-30 00:51:01.27	32.41	8.21	-27.1	-29.0	14.4	0.00e+00	0	42	0	84934656	14	4440
2026-01-30 00:51:02.27	32.51	8.27	-27.2	-29.2	14.2	1.10e-06	0	42	0	90177536	14	4512
2026-01-30 00:51:03.28	32.61	8.33	-27.3	-29.3	14.1	0.00e+00	0	42	0	95420416	14	4545
2026-01-30 00:51:04.29	32.72	8.40	-27.2	-29.2	14.3	0.00e+00	0	42	0	101711872	14	4505
2026-01-30 00:51:05.29	32.82	8.46	-27.2	-29.0	14.4	1.10e-06	0	42	0	106954752	14	4457
2026-01-30 00:51:06.30	32.93	8.53	-27.2	-29.0	14.4	0.00e+00	0	42	0	113246208	14	4460
2026-01-30 00:51:07.30	33.03	8.59	-27.2	-29.1	14.4	0.00e+00	0	42	0	118489088	14	4464
2026-01-30 00:51:08.30	33.14	8.66	-27.1	-28.8	14.6	0.00e+00	0	42	0	123731968	14	4380
2026-01-30 00:51:09.30	33.24	8.72	-27.1	-28.8	14.5	0.00e+00	0	42	0	130023424	14	4393
2026-01-30 00:51:10.31	33.35	8.79	-26.9	-28.5	14.8	0.00e+00	0	42	0	135266304	14	4297
2026-01-30 00:51:11.31	33.46	8.85	-26.8	-28.3	14.9	1.10e-06	0	42	0	140509184	14	4236
2026-01-30 00:51:12.31	33.56	8.92	-26.8	-28.6	14.9	0.00e+00	0	42	0	146800640	13	4450
2026-01-30 00:51:13.32	33.67	8.98	-26.8	-28.5	15.0	0.00e+00	0	42	0	152043520	13	4426
2026-01-30 00:51:14.32	33.78	9.05	-26.8	-28.6	14.9	0.00e+00	0	42	0	158334976	13	4432
2026-01-30 00:51:15.32	33.89	9.11	-27.0	-29.0	14.7	2.20e-06	0	42	0	163577856	13	4553
2026-01-30 00:51:16.32	33.99	9.18	-27.0	-28.7	14.6	0.00e+00	0	42	0	168820736	14	4345
2026-01-30 00:51:17.32	34.10	9.25	-27.0	-28.6	14.7	0.00e+00	0	42	0	175112192	14	4314
2026-01-30 00:51:18.33	34.21	9.31	-27.0	-28.5	14.7	0.00e+00	0	42	0	180355072	14	4304
2026-01-30 00:51:19.33	34.32	9.38	-27.0	-28.7	14.6	0.00e+00	0	42	0	185597952	14	4358
2026-01-30 00:51:20.33	34.43	9.44	-27.0	-28.6	14.7	0.00e+00	0	42	0	191889408	14	4329
2026-01-30 00:51:21.33	34.55	9.51	-27.0	-28.7	14.7	0.00e+00	0	42	0	197132288	14	4345
2026-01-30 00:51:22.34	34.66	9.58	-27.1	-28.8	14.6	0.00e+00	0	42	0	202375168	14	4380
2026-01-30 00:51:23.34	34.77	9.64	-26.8	-28.1	15.0	0.00e+00	0	42	0	208666624	14	4201
2026-01-30 00:51:24.35	34.88	9.71	-26.5	-27.5	15.3	1.50e-04	0	42	0	213909504	14	4041
2026-01-30 00:51:25.35	35.00	9.77	-26.5	-27.4	15.4	0.00e+00	0	42	0	220200960	14	4010
2026-01-30 00:51:26.34	35.11	9.84	-26.5	-27.5	15.4	0.00e+00	0	42	0	225443840	14	4028
2026-01-30 00:51:27.35	35.22	9.91	-26.5	-27.9	15.4	1.26e-04	0	42	0	231735296	13	4235
2026-01-30 00:51:28.35	35.34	9.97	-26.3	-27.5	15.6	0.00e+00	0	42	0	236978176	13	4136
2026-01-30 00:51:29.36	35.45	10.04	-26.4	-27.6	15.6	5.70e-06	0	42	0	242221056	13	4173
2026-01-30 00:51:30.37	35.57	10.11	-26.4	-27.7	15.5	0.00e+00	0	42	0	248512512	13	4191
2026-01-30 00:51:31.37	35.69	10.17	-26.3	-27.6	15.6	0.00e+00	0	42	0	253755392	13	4156
2026-01-30 00:51:32.37	35.80	10.24	-26.3	-28.0	15.7	0.00e+00	0	42	0	258998272	12	4384
2026-01-30 00:51:33.37	35.92	10.31	-26.4	-28.2	15.5	1.14e-05	0	42	0	265289728	12	4442
2026-01-30 00:51:34.38	36.04	10.37	-26.4	-28.2	15.6	0.00e+00	0	42	0	270532608	12	4425
2026-01-30 00:51:35.38	36.16	10.44	-26.6	-28.3	15.3	0.00e+00	0	42	0	275775488	13	4341
2026-01-30 00:51:36.39	36.28	10.51	-26.7	-28.3	15.2	0.00e+00	0	42	0	282066944	13	4360
2026-01-30 00:51:37.40	36.40	10.58	-26.4	-27.8	15.5	0.00e+00	0	42	0	287309824	13	4214
2026-01-30 00:51:38.40	36.52	10.64	-26.4	-27.7	15.6	0.00e+00	0	42	0	293601280	13	4177
2026-01-30 00:51:39.41	36.64	10.71	-26.4	-27.6	15.6	1.10e-06	0	42	0	298844160	13	4176
2026-01-30 00:51:40.41	36.76	10.78	-26.4	-27.7	15.6	0.00e+00	0	43	0	305135616	13	4184
2026-01-30 00:51:41.41	36.88	10.85	-26.4	-27.7	15.6	5.14e-05	0	43	0	310378496	13	4190
2026-01-30 00:51:42.42	37.00	10.92	-26.4	-27.8	15.5	9.61e-05	0	43	0	315621376	13	4217
2026-01-30 00:51:43.42	37.12	10.98	-26.4	-27.8	15.5	0.00e+00	0	42	0	321912832	13	4214
2026-01-30 00:51:44.43	37.25	11.05	-26.4	-27.8	15.5	3.08e-05	0	43	0	327155712	13	4203
2026-01-30 00:51:45.43	37.37	11.12	-26.4	-27.7	15.6	6.52e-05	0	42	0	332398592	13	4201
2026-01-30 00:51:46.44	37.50	11.19	-26.5	-28.0	15.4	0.00e+00	0	42	0	338690048	13	4285
2026-01-30 00:51:47.44	37.62	11.26	-26.6	-28.3	15.3	1.02e-05	0	43	0	343932928	13	4345
2026-01-30 00:51:48.44	37.75	11.32	-26.5	-28.1	15.4	4.50e-06	0	42	0	350224384	13	4295
2026-01-30 00:51:49.44	37.87	11.39	-26.5	-27.9	15.5	0.00e+00	0	43	0	355467264	13	4240
2026-01-30 00:51:50.44	38.00	11.46	-26.4	-27.8	15.6	1.10e-06	0	43	0	360710144	13	4228
2026-01-30 00:51:51.45	38.12	11.53	-26.4	-27.7	15.6	0.00e+00	0	42	0	367001600	13	4189
2026-01-30 00:51:52.45	38.25	11.60	-26.2	-27.4	15.8	0.00e+00	0	42	0	372244480	13	4108
2026-01-30 00:51:53.45	38.38	11.66	-26.3	-27.4	15.8	0.00e+00	0	43	0	378535936	13	4115
2026-01-30 00:51:54.45	38.51	11.73	-26.4	-27.6	15.7	1.93e-04	0	43	0	383778816	13	4166
2026-01-30 00:51:55.45	38.64	11.80	-26.4	-27.7	15.6	0.00e+00	0	43	0	389021696	13	4192
2026-01-30 00:51:56.45	38.77	11.87	-26.3	-27.6	15.8	0.00e+00	0	43	0	395313152	13	4149
2026-01-30 00:51:57.46	38.90	11.94	-26.3	-27.5	15.8	1.34e-04	0	43	0	400556032	13	4136
2026-01-30 00:51:58.46	39.03	12.01	-26.3	-27.6	15.8	0.00e+00	0	43	0	405798912	13	4151
2026-01-30 00:51:59.46	39.16	12.08	-26.4	-27.8	15.6	1.18e-04	0	43	0	412090368	13	4203
2026-01-30 00:52:00.46	39.29	12.14	-26.5	-27.9	15.6	0.00e+00	0	43	0	417333248	13	4232
2026-01-30 00:52:01.46	39.42	12.21	-26.5	-28.1	15.4	0.00e+00	0	43	0	422576128	13	4286
2026-01-30 00:52:02.46	39.56	12.28	-26.6	-28.3	15.4	5.72e-05	0	43	0	428867584	13	4340
2026-01-30 00:52:03.47	39.69	12.35	-26.4	-27.6	15.8	0.00e+00	0	43	0	434110464	13	4163
2026-01-30 00:52:04.47	39.83	12.42	-26.2	-27.2	16.0	0.00e+00	0	43	0	440401920	13	4049
2026-01-30 00:52:05.48	39.96	12.49	-26.1	-26.9	16.1	0.00e+00	0	43	0	445644800	13	3989
2026-01-30 00:52:06.49	40.10	12.56	-26.1	-27.0	16.1	1.60e-05	0	43	0	450887680	13	3992
2026-01-30 00:52:07.49	40.24	12.63	-26.0	-26.8	16.2	0.00e+00	0	43	0	457179136	13	3950
2026-01-30 00:52:08.50	40.37	12.70	-25.9	-26.5	16.4	0.00e+00	0	43	0	462422016	13	3886
2026-01-30 00:52:09.50	40.51	12.77	-25.9	-26.7	16.3	0.00e+00	0	43	0	468713472	13	3915
2026-01-30 00:52:10.50	40.65	12.84	-25.9	-26.6	16.3	0.00e+00	0	43	0	473956352	13	3903
2026-01-30 00:52:11.50	40.79	12.91	-25.8	-27.0	16.4	1.54e-04	0	43	0	479199232	12	4103
2026-01-30 00:52:12.50	40.93	12.98	-25.8	-26.9	16.5	0.00e+00	0	43	0	485490688	12	4074
2026-01-30 00:52:13.51	41.07	13.05	-25.8	-26.9	16.5	0.00e+00	0	43	0	490733568	12	4079
2026-01-30 00:52:14.51	41.21	13.12	-25.8	-26.9	16.5	0.00e+00	0	43	0	495976448	12	4082
2026-01-30 00:52:15.51	41.35	13.19	-25.7	-26.7	16.6	0.00e+00	0	43	0	502267904	12	4030
2026-01-30 00:52:16.51	41.49	13.26	-25.7	-26.7	16.5	0.00e+00	0	43	0	507510784	12	4038
2026-01-30 00:52:17.51	41.63	13.32	-25.9	-27.1	16.3	0.00e+00	0	43	0	513802240	12	4140
2026-01-30 00:52:18.51	41.78	13.39	-25.9	-27.2	16.3	0.00e+00	0	43	0	519045120	12	4152
2026-01-30 00:52:19.51	41.92	13.46	-25.8	-26.8	16.5	0.00e+00	0	43	0	524288000	12	4062
2026-01-30 00:52:20.51	42.07	13.53	-25.8	-26.8	16.5	0.00e+00	0	43	0	530579456	12	4058
2026-01-30 00:52:21.52	42.21	13.60	-25.8	-26.8	16.5	0.00e+00	0	43	0	535822336	12	4069
2026-01-30 00:52:22.53	42.36	13.67	-25.9	-27.0	16.4	0.00e+00	0	43	0	541065216	12	4113
2026-01-30 00:52:23.53	42.51	13.74	-25.9	-27.0	16.4	0.00e+00	0	43	0	547356672	12	4116
2026-01-30 00:52:24.54	42.65	13.82	-25.8	-26.9	16.5	0.00e+00	0	43	0	552599552	12	4076
2026-01-30 00:52:25.54	42.80	13.88	-25.7	-26.8	16.6	0.00e+00	0	43	0	557842432	12	4046
2026-01-30 00:52:26.54	42.95	13.95	-25.7	-26.7	16.6	0.00e+00	0	43	0	564133888	12	4030
2026-01-30 00:52:27.55	43.10	14.03	-25.7	-26.6	16.7	0.00e+00	0	43	0	569376768	12	4007
2026-01-30 00:52:28.55	43.25	14.10	-25.7	-26.7	16.6	0.00e+00	0	43	0	575668224	12	4029
2026-01-30 00:52:29.55	43.40	14.17	-25.8	-26.8	16.6	0.00e+00	0	43	0	580911104	12	4060
2026-01-30 00:52:30.56	43.55	14.24	-25.7	-26.7	16.6	0.00e+00	0	43	0	587202560	12	4030
2026-01-30 00:52:31.56	43.71	14.31	-25.7	-26.8	16.6	0.00e+00	0	43	0	592445440	12	4049
2026-01-30 00:52:32.56	43.86	14.38	-25.8	-27.5	16.6	0.00e+00	0	43	0	597688320	11	4342
2026-01-30 00:52:33.56	44.01	14.45	-25.9	-27.5	16.6	0.00e+00	0	43	0	603979776	11	4339
2026-01-30 00:52:34.57	44.17	14.52	-25.8	-27.4	16.6	0.00e+00	0	43	0	609222656	11	4335
2026-01-30 00:52:35.57	44.32	14.59	-25.9	-27.6	16.5	0.00e+00	0	43	0	614465536	11	4370
2026-01-30 00:52:36.58	44.48	14.66	-25.8	-26.8	16.6	0.00e+00	0	43	0	620756992	12	4064
2026-01-30 00:52:37.57	44.63	14.73	-25.6	-26.4	16.8	0.00e+00	0	43	0	625999872	12	3959
2026-01-30 00:52:38.57	44.79	14.80	-25.4	-26.1	17.0	0.00e+00	0	43	0	631242752	12	3886
2026-01-30 00:52:39.58	44.95	14.87	-25.4	-26.5	17.1	0.00e+00	0	43	0	637534208	11	4097
2026-01-30 00:52:40.59	45.11	14.94	-25.5	-26.6	17.0	0.00e+00	0	43	0	642777088	11	4117
2026-01-30 00:52:41.59	45.27	15.01	-25.4	-26.5	17.1	0.00e+00	0	43	0	649068544	11	4085
2026-01-30 00:52:42.60	45.43	15.08	-25.4	-26.5	17.2	0.00e+00	0	43	0	654311424	11	4076
2026-01-30 00:52:43.60	45.59	15.15	-25.5	-26.7	17.1	0.00e+00	0	43	0	660602880	11	4127
2026-01-30 00:52:44.61	45.75	15.22	-25.5	-26.6	17.1	0.00e+00	0	43	0	665845760	11	4109
2026-01-30 00:52:45.61	45.92	15.29	-25.4	-26.4	17.2	0.00e+00	0	43	0	671088640	11	4051
2026-01-30 00:52:46.61	46.08	15.36	-25.4	-26.5	17.2	0.00e+00	0	43	0	677380096	11	4085
2026-01-30 00:52:47.62	46.24	15.43	-25.4	-26.5	17.2	0.00e+00	0	43	0	682622976	11	4091
2026-01-30 00:52:48.62	46.41	15.50	-25.4	-26.5	17.1	0.00e+00	0	43	0	687865856	11	4090
2026-01-30 00:52:49.63	46.57	15.57	-25.5	-26.7	17.0	0.00e+00	0	43	0	694157312	11	4145
2026-01-30 00:52:50.62	46.74	15.64	-25.5	-26.7	17.1	0.00e+00	0	43	0	699400192	11	4122
2026-01-30 00:52:51.62	46.90	15.71	-25.4	-26.6	17.1	0.00e+00	0	43	0	704643072	11	4101
2026-01-30 00:52:52.63	47.07	15.78	-25.5	-26.7	17.1	0.00e+00	0	43	0	710934528	11	4121
2026-01-30 00:52:53.63	47.24	15.85	-25.5	-26.7	17.1	0.00e+00	0	43	0	716177408	11	4135
2026-01-30 00:52:54.64	47.41	15.92	-25.4	-26.6	17.1	0.00e+00	0	43	0	722468864	11	4105
2026-01-30 00:52:55.65	47.58	15.99	-25.5	-26.8	17.0	0.00e+00	0	43	0	727711744	11	4152
2026-01-30 00:52:56.66	47.76	16.07	-25.5	-26.6	17.1	0.00e+00	0	43	0	734003200	11	4112
2026-01-30 00:52:57.66	47.93	16.14	-25.2	-26.1	17.4	0.00e+00	0	43	0	739246080	11	3983
2026-01-30 00:52:58.66	48.10	16.21	-25.1	-25.8	17.5	0.00e+00	0	43	0	744488960	11	3917
2026-01-30 00:52:59.66	48.27	16.28	-25.2	-26.0	17.4	0.00e+00	0	43	0	750780416	11	3958
2026-01-30 00:53:00.66	48.44	16.34	-25.1	-25.9	17.5	0.00e+00	0	43	0	756023296	11	3939
2026-01-30 00:53:01.67	48.62	16.42	-25.2	-25.9	17.5	0.00e+00	0	43	0	761266176	11	3944
2026-01-30 00:53:02.67	48.80	16.49	-25.2	-26.0	17.5	0.00e+00	0	43	0	767557632	11	3954
2026-01-30 00:53:03.68	48.97	16.56	-25.2	-26.1	17.4	0.00e+00	0	43	0	772800512	11	3991
2026-01-30 00:53:04.69	49.15	16.63	-25.3	-26.2	17.4	0.00e+00	0	43	0	778043392	11	4008
2026-01-30 00:53:05.69	49.33	16.70	-25.3	-26.3	17.3	0.00e+00	0	43	0	784334848	11	4023
2026-01-30 00:53:06.69	49.51	16.76	-25.3	-26.4	17.3	0.00e+00	0	43	0	789577728	11	4047
2026-01-30 00:53:07.69	49.69	16.83	-25.4	-26.5	17.2	0.00e+00	0	43	0	795869184	11	4086
2026-01-30 00:53:08.70	49.87	16.90	-25.3	-26.3	17.3	0.00e+00	0	43	0	801112064	11	4042
2026-01-30 00:53:09.70	50.05	16.97	-25.3	-26.2	17.4	0.00e+00	0	43	0	807403520	11	4005
2026-01-30 00:53:10.70	50.23	17.04	-25.3	-26.2	17.4	0.00e+00	0	43	0	812646400	11	4009
2026-01-30 00:53:11.71	50.41	17.11	-25.5	-26.6	17.2	0.00e+00	0	43	0	817889280	11	4105
2026-01-30 00:53:12.72	50.60	17.18	-25.3	-26.3	17.3	0.00e+00	0	43	0	824180736	11	4035
2026-01-30 00:53:13.72	50.78	17.25	-25.1	-25.9	17.6	0.00e+00	0	43	0	829423616	11	3922
2026-01-30 00:53:14.72	50.97	17.32	-25.0	-25.6	17.7	0.00e+00	0	43	0	834666496	11	3864
2026-01-30 00:53:15.73	51.16	17.39	-25.0	-25.7	17.7	0.00e+00	0	43	0	840957952	11	3875
2026-01-30 00:53:16.73	51.34	17.46	-25.0	-25.6	17.7	0.00e+00	0	43	0	846200832	11	3862
2026-01-30 00:53:17.73	51.53	17.53	-25.1	-26.4	17.6	4.57e-04	0	43	0	851443712	10	4163
2026-01-30 00:53:18.73	51.72	17.59	-25.1	-26.3	17.6	0.00e+00	0	43	0	857735168	10	4140
2026-01-30 00:53:19.72	51.90	17.66	-24.9	-25.9	17.8	3.92e-04	0	43	0	862978048	10	4044
2026-01-30 00:53:20.73	52.10	17.73	-24.9	-25.8	17.9	0.00e+00	0	43	0	869269504	10	4017
2026-01-30 00:53:21.73	52.29	17.80	-24.8	-25.8	17.9	0.00e+00	0	43	0	874512384	10	4013
2026-01-30 00:53:22.74	52.48	17.87	-25.0	-26.0	17.8	0.00e+00	0	43	0	879755264	10	4074
2026-01-30 00:53:23.74	52.67	17.94	-24.9	-26.5	17.7	5.98e-04	0	43	0	886046720	9	4312
2026-01-30 00:53:24.75	52.87	18.00	-25.1	-26.3	17.6	0.00e+00	0	43	0	891289600	10	4134
2026-01-30 00:53:25.75	53.06	18.07	-25.3	-26.9	17.4	0.00e+00	0	43	0	897581056	10	4291
2026-01-30 00:53:26.76	53.26	18.14	-25.2	-26.5	17.5	2.66e-04	0	43	0	902823936	10	4194
2026-01-30 00:53:27.77	53.46	18.21	-25.0	-26.1	17.7	0.00e+00	0	43	0	908066816	10	4103
2026-01-30 00:53:28.78	53.65	18.28	-24.9	-26.0	17.8	2.28e-05	0	43	0	914358272	10	4057
2026-01-30 00:53:29.77	53.85	18.34	-25.0	-26.2	17.7	7.20e-05	0	43	0	919601152	10	4103
2026-01-30 00:53:30.78	54.05	18.41	-25.1	-26.3	17.6	0.00e+00	0	43	0	924844032	10	4139
2026-01-30 00:53:31.79	54.25	18.48	-24.9	-26.0	17.8	1.45e-04	0	43	0	931135488	10	4056
2026-01-30 00:53:32.79	54.45	18.55	-24.9	-25.8	17.9	1.76e-04	0	43	0	936378368	10	4017
2026-01-30 00:53:33.79	54.65	18.61	-24.8	-25.8	17.9	0.00e+00	0	43	0	942669824	10	4005
2026-01-30 00:53:34.79	54.85	18.68	-24.8	-25.7	18.0	3.77e-05	0	43	0	947912704	10	3992
2026-01-30 00:53:35.80	55.06	18.74	-24.8	-25.6	18.0	1.81e-04	0	43	0	954204160	10	3969
2026-01-30 00:53:36.80	55.26	18.81	-24.9	-25.8	17.9	0.00e+00	0	43	0	959447040	10	4023
2026-01-30 00:53:37.81	55.47	18.88	-24.8	-25.7	17.9	9.72e-05	0	43	0	964689920	10	3983
2026-01-30 00:53:38.81	55.67	18.94	-25.0	-26.1	17.7	8.12e-05	0	43	0	970981376	10	4083
2026-01-30 00:53:39.81	55.88	19.01	-24.9	-25.9	17.8	0.00e+00	0	43	0	976224256	10	4039
2026-01-30 00:53:40.80	56.09	19.07	-24.8	-25.6	18.0	1.53e-04	0	44	0	981467136	10	3964
2026-01-30 00:53:41.81	56.29	19.14	-24.7	-25.5	18.1	0.00e+00	0	43	0	987758592	10	3938
2026-01-30 00:53:42.82	56.51	19.20	-24.7	-25.4	18.1	0.00e+00	0	43	0	993001472	10	3918
2026-01-30 00:53:43.82	56.72	19.27	-24.5	-25.0	18.4	1.74e-04	0	43	0	999292928	10	3823
2026-01-30 00:53:44.82	56.93	19.33	-24.4	-24.8	18.5	2.63e-04	0	43	0	1004535808	10	3761
2026-01-30 00:53:45.83	57.14	19.40	-24.5	-25.0	18.3	0.00e+00	0	43	0	1009778688	10	3821
2026-01-30 00:53:46.83	57.35	19.46	-24.5	-25.5	18.3	0.00e+00	0	43	0	1016070144	9	4047
2026-01-30 00:53:47.84	57.57	19.53	-24.7	-26.0	18.1	2.48e-04	0	43	0	1021313024	9	4168
2026-01-30 00:53:48.84	57.78	19.59	-24.7	-26.0	18.1	0.00e+00	0	43	0	1026555904	9	4179
2026-01-30 00:53:49.84	58.00	19.65	-24.7	-26.0	18.1	2.59e-04	0	43	0	1032847360	9	4173
2026-01-30 00:53:50.84	58.21	19.72	-24.7	-26.0	18.1	2.87e-04	0	43	0	1038090240	9	4164
2026-01-30 00:53:51.85	58.43	19.78	-24.7	-26.0	18.0	0.00e+00	0	43	0	1044381696	9	4182
2026-01-30 00:53:52.85	58.65	19.84	-24.8	-26.2	18.0	2.66e-04	0	43	0	1049624576	9	4217
2026-01-30 00:53:53.85	58.87	19.91	-24.9	-26.4	17.9	0.00e+00	0	43	0	1054867456	9	4282
2026-01-30 00:53:54.86	59.09	19.97	-25.1	-26.4	17.6	0.00e+00	0	43	0	1061158912	10	4152
2026-01-30 00:53:55.86	59.31	20.03	-24.9	-25.9	17.9	0.00e+00	0	44	0	1066401792	10	4030
2026-01-30 00:53:56.86	59.53	20.09	-24.7	-25.5	18.1	8.23e-05	0	43	0	1072693248	10	3929
2026-01-30 00:53:57.85	59.75	20.15	-24.7	-25.5	18.1	0.00e+00	0	43	0	1077936128	10	3930
2026-01-30 00:53:58.86	59.97	20.22	-24.8	-25.8	18.0	0.00e+00	0	43	0	1083179008	10	4002
2026-01-30 00:53:59.87	60.20	20.28	-24.8	-25.7	18.0	2.40e-05	0	43	0	1089470464	10	3992
2026-01-30 00:54:00.87	60.42	20.34	-25.1	-26.3	17.7	0.00e+00	0	43	0	1094713344	10	4133
2026-01-30 00:54:01.87	60.65	20.40	-24.8	-25.7	18.0	1.11e-04	0	43	0	1099956224	10	3995
2026-01-30 00:54:02.88	60.88	20.46	-24.6	-25.3	18.3	0.00e+00	0	43	0	1106247680	10	3895
2026-01-30 00:54:03.88	61.10	20.52	-24.4	-24.8	18.5	0.00e+00	0	43	0	1111490560	10	3779
2026-01-30 00:54:04.89	61.33	20.58	-24.3	-24.7	18.5	0.00e+00	0	43	0	1116733440	10	3757
2026-01-30 00:54:05.88	61.56	20.64	-24.3	-24.7	18.5	0.00e+00	0	43	0	1123024896	10	3757
2026-01-30 00:54:06.89	61.79	20.70	-24.2	-24.9	18.7	0.00e+00	0	43	0	1128267776	9	3913
2026-01-30 00:54:07.89	62.02	20.75	-24.2	-25.0	18.6	0.00e+00	0	43	0	1134559232	9	3922
2026-01-30 00:54:08.89	62.25	20.81	-24.1	-24.7	18.9	0.00e+00	0	43	0	1139802112	9	3848
2026-01-30 00:54:09.90	62.49	20.87	-24.0	-24.6	18.9	0.00e+00	0	43	0	1146093568	9	3821
2026-01-30 00:54:10.91	62.72	20.93	-24.2	-24.8	18.8	0.00e+00	0	43	0	1151336448	9	3882
2026-01-30 00:54:11.91	62.96	20.99	-24.1	-24.8	18.8	0.00e+00	0	44	0	1156579328	9	3872
2026-01-30 00:54:12.91	63.19	21.04	-24.3	-25.2	18.6	0.00e+00	0	43	0	1162870784	9	3970
2026-01-30 00:54:13.91	63.43	21.10	-24.3	-25.0	18.6	0.00e+00	0	44	0	1168113664	9	3935
2026-01-30 00:54:14.91	63.67	21.16	-24.2	-25.0	18.7	0.00e+00	0	43	0	1173356544	9	3926
2026-01-30 00:54:15.91	63.90	21.21	-24.2	-25.0	18.6	0.00e+00	0	43	0	1179648000	9	3917
2026-01-30 00:54:16.90	64.14	21.27	-24.3	-25.7	18.5	0.00e+00	0	43	0	1184890880	8	4212
2026-01-30 00:54:17.91	64.38	21.32	-24.1	-25.2	18.8	0.00e+00	0	43	0	1190133760	8	4095
2026-01-30 00:54:18.91	64.62	21.38	-24.0	-25.1	18.8	0.00e+00	0	43	0	1196425216	8	4062
2026-01-30 00:54:19.91	64.86	21.43	-24.0	-24.9	19.0	0.00e+00	0	43	0	1201668096	8	4020
2026-01-30 00:54:20.91	65.10	21.48	-24.0	-25.1	18.9	0.00e+00	0	43	0	1207959552	8	4050
2026-01-30 00:54:21.92	65.35	21.54	-23.9	-24.8	19.0	0.00e+00	0	44	0	1213202432	8	3992
2026-01-30 00:54:22.92	65.59	21.59	-24.0	-25.1	18.9	0.00e+00	0	43	0	1218445312	8	4057
2026-01-30 00:54:23.92	65.83	21.64	-24.2	-25.3	18.8	0.00e+00	0	43	0	1224736768	8	4116
2026-01-30 00:54:24.93	66.08	21.70	-24.2	-25.5	18.7	0.00e+00	0	43	0	1229979648	8	4169
2026-01-30 00:54:25.93	66.33	21.75	-24.2	-25.4	18.7	0.00e+00	0	44	0	1235222528	8	4152
2026-01-30 00:54:26.93	66.57	21.80	-24.3	-25.6	18.6	0.00e+00	0	43	0	1241513984	8	4193
2026-01-30 00:54:27.94	66.82	21.85	-24.0	-25.1	18.8	0.00e+00	0	44	0	1246756864	8	4062
2026-01-30 00:54:28.94	67.07	21.90	-23.9	-24.8	19.0	0.00e+00	0	44	0	1253048320	8	3987
2026-01-30 00:54:29.95	67.32	21.95	-24.0	-25.0	18.9	0.00e+00	0	43	0	1258291200	8	4029
2026-01-30 00:54:30.96	67.57	22.00	-24.0	-24.9	18.9	0.00e+00	0	44	0	1263534080	8	4018
2026-01-30 00:54:31.96	67.83	22.05	-24.1	-25.2	18.8	0.00e+00	0	43	0	1269825536	8	4096
2026-01-30 00:54:32.96	68.08	22.10	-24.1	-25.2	18.8	0.00e+00	0	43	0	1275068416	8	4091
2026-01-30 00:54:33.97	68.33	22.15	-24.2	-25.4	18.7	0.00e+00	0	43	0	1281359872	8	4140
2026-01-30 00:54:34.97	68.58	22.20	-24.4	-25.8	18.5	0.00e+00	0	43	0	1286602752	8	4241
2026-01-30 00:54:35.98	68.84	22.24	-24.2	-25.4	18.7	0.00e+00	0	43	0	1291845632	8	4145
2026-01-30 00:54:36.98	69.09	22.29	-24.1	-25.2	18.9	0.00e+00	0	44	0	1298137088	8	4076
2026-01-30 00:54:37.98	69.35	22.34	-24.1	-25.1	18.9	0.00e+00	0	43	0	1303379968	8	4069
2026-01-30 00:54:38.99	69.61	22.38	-23.9	-24.8	19.0	0.00e+00	0	44	0	1308622848	8	3997
2026-01-30 00:54:39.99	69.86	22.43	-23.9	-24.8	19.0	0.00e+00	0	43	0	1314914304	8	3986
2026-01-30 00:54:40.99	70.12	22.47	-24.1	-25.1	18.9	0.00e+00	0	43	0	1320157184	8	4073
2026-01-30 00:54:42.00	70.38	22.52	-24.0	-25.0	18.9	0.00e+00	0	44	0	1326448640	8	4045
2026-01-30 00:54:42.99	70.64	22.56	-24.0	-25.0	19.0	0.00e+00	0	43	0	1331691520	8	4028
2026-01-30 00:54:44.00	70.90	22.61	-24.1	-25.3	18.8	0.00e+00	0	43	0	1336934400	8	4104
2026-01-30 00:54:45.00	71.16	22.65	-24.0	-25.0	19.0	0.00e+00	0	43	0	1343225856	8	4028
2026-01-30 00:54:46.00	71.42	22.69	-24.0	-24.9	19.0	0.00e+00	0	44	0	1348468736	8	4020
2026-01-30 00:54:47.00	71.68	22.73	-24.0	-25.1	18.7	0.00e+00	0	43	0	1354760192	8	4086
2026-01-30 00:54:48.00	71.95	22.77	-24.0	-25.1	18.7	0.00e+00	0	44	0	1360003072	8	4088
2026-01-30 00:54:49.00	72.21	22.82	-24.3	-25.7	18.4	0.00e+00	0	44	0	1365245952	8	4223
2026-01-30 00:54:50.00	72.47	22.86	-23.9	-24.9	18.8	0.00e+00	0	43	0	1371537408	8	4035
2026-01-30 00:54:51.00	72.74	22.89	-23.7	-24.5	19.0	0.00e+00	0	43	0	1376780288	8	3933
2026-01-30 00:54:51.99	73.00	22.93	-23.8	-24.6	19.0	0.00e+00	0	44	0	1382023168	8	3950
2026-01-30 00:54:53.00	73.27	22.97	-23.9	-24.8	18.9	0.00e+00	0	43	0	1388314624	8	4009
2026-01-30 00:54:54.01	73.54	23.01	-23.8	-24.7	18.9	0.00e+00	0	44	0	1393557504	8	3988
2026-01-30 00:54:55.01	73.80	23.05	-23.9	-24.9	18.8	0.00e+00	0	44	0	1398800384	8	4019
2026-01-30 00:54:56.02	74.07	23.08	-24.0	-25.1	18.7	0.00e+00	0	43	0	1405091840	8	4081
2026-01-30 00:54:57.02	74.34	23.12	-23.8	-24.7	18.9	0.00e+00	0	43	0	1410334720	8	3992
2026-01-30 00:54:58.03	74.61	23.16	-23.8	-24.6	19.0	0.00e+00	0	43	0	1416626176	8	3961
2026-01-30 00:54:59.03	74.88	23.19	-23.8	-24.5	19.0	0.00e+00	0	43	0	1421869056	8	3944
2026-01-30 00:55:00.03	75.15	23.23	-23.6	-24.2	19.2	0.00e+00	0	43	0	1427111936	8	3853
2026-01-30 00:55:01.03	75.42	23.26	-23.5	-24.1	19.2	0.00e+00	0	43	0	1433403392	8	3830
2026-01-30 00:55:02.04	75.70	23.29	-23.7	-24.3	19.1	0.00e+00	0	43	0	1438646272	8	3890
2026-01-30 00:55:03.04	75.97	23.33	-23.5	-24.0	19.3	0.00e+00	0	43	0	1443889152	8	3819
2026-01-30 00:55:04.04	76.24	23.36	-23.5	-24.0	19.3	0.00e+00	0	44	0	1450180608	8	3822
2026-01-30 00:55:05.05	76.52	23.39	-23.6	-24.3	19.1	0.00e+00	0	44	0	1455423488	8	3888
2026-01-30 00:55:06.05	76.79	23.42	-23.5	-24.0	19.3	0.00e+00	0	43	0	1461714944	8	3816
2026-01-30 00:55:07.05	77.06	23.45	-23.5	-24.0	19.3	0.00e+00	0	43	0	1466957824	8	3808
2026-01-30 00:55:08.05	77.34	23.48	-23.6	-24.2	19.2	1.76e-04	0	43	0	1472200704	8	3868
2026-01-30 00:55:09.06	77.61	23.51	-23.4	-23.9	19.4	0.00e+00	0	43	0	1478492160	8	3780
2026-01-30 00:55:10.07	77.89	23.54	-23.5	-24.0	19.3	0.00e+00	0	44	0	1483735040	8	3825
2026-01-30 00:55:11.08	78.17	23.56	-23.6	-24.1	19.2	0.00e+00	0	43	0	1490026496	8	3846
2026-01-30 00:55:12.08	78.45	23.59	-23.6	-24.3	19.1	0.00e+00	0	44	0	1495269376	8	3880
2026-01-30 00:55:13.09	78.73	23.62	-23.5	-23.9	19.3	0.00e+00	0	44	0	1500512256	8	3803
2026-01-30 00:55:14.09	79.00	23.64	-23.4	-23.8	19.3	0.00e+00	0	44	0	1506803712	8	3777
2026-01-30 00:55:15.09	79.28	23.67	-23.6	-24.2	19.2	0.00e+00	0	44	0	1512046592	8	3853
2026-01-30 00:55:16.10	79.56	23.69	-23.5	-24.0	19.3	2.20e-06	0	44	0	1518338048	8	3811
2026-01-30 00:55:17.10	79.84	23.71	-23.6	-24.3	19.1	6.80e-06	0	43	0	1523580928	8	3879
2026-01-30 00:55:18.10	80.12	23.74	-23.8	-24.7	18.9	0.00e+00	0	43	0	1528823808	8	3988
2026-01-30 00:55:19.10	80.40	23.76	-23.8	-24.6	18.9	4.80e-05	0	43	0	1535115264	8	3974
2026-01-30 00:55:20.11	80.68	23.78	-23.8	-24.7	18.9	7.66e-05	0	44	0	1540358144	8	3982
2026-01-30 00:55:21.11	80.96	23.80	-23.6	-24.3	19.1	0.00e+00	0	43	0	1545601024	8	3889
2026-01-30 00:55:22.11	81.24	23.82	-23.7	-24.3	19.1	1.74e-04	0	43	0	1551892480	8	3892
2026-01-30 00:55:23.11	81.52	23.84	-23.8	-24.6	19.0	0.00e+00	0	44	0	1557135360	8	3948
2026-01-30 00:55:24.11	81.81	23.86	-23.6	-24.3	19.1	0.00e+00	0	43	0	1563426816	8	3876
2026-01-30 00:55:25.11	82.09	23.88	-23.6	-24.2	19.1	5.14e-05	0	43	0	1568669696	8	3864
2026-01-30 00:55:26.11	82.37	23.89	-23.6	-24.2	19.1	6.29e-05	0	44	0	1573912576	8	3866
2026-01-30 00:55:27.11	82.65	23.91	-23.7	-24.5	19.0	0.00e+00	0	43	0	1580204032	8	3929
2026-01-30 00:55:28.12	82.94	23.93	-23.7	-24.4	19.0	0.00e+00	0	44	0	1585446912	8	3904
2026-01-30 00:55:29.13	83.22	23.94	-23.7	-24.4	19.0	7.09e-05	0	43	0	1590689792	8	3917
2026-01-30 00:55:30.13	83.50	23.96	-23.7	-24.5	19.0	0.00e+00	0	43	0	1596981248	8	3942
2026-01-30 00:55:31.13	83.79	23.97	-23.8	-24.7	18.9	1.37e-05	0	44	0	1602224128	8	3971
2026-01-30 00:55:32.13	84.07	23.98	-23.5	-24.0	19.2	4.50e-06	0	44	0	1607467008	8	3820
2026-01-30 00:55:33.12	84.35	24.00	-23.4	-23.9	19.3	0.00e+00	0	43	0	1613758464	8	3780
2026-01-30 00:55:34.12	84.64	24.01	-23.6	-24.2	19.1	0.00e+00	0	44	0	1619001344	8	3860
2026-01-30 00:55:35.12	84.92	24.02	-23.5	-24.1	19.1	0.00e+00	0	43	0	1625292800	8	3848
2026-01-30 00:55:36.12	85.20	24.03	-23.6	-24.3	19.1	0.00e+00	0	44	0	1630535680	8	3881
2026-01-30 00:55:37.12	85.49	24.04	-23.6	-24.3	19.1	1.27e-04	0	44	0	1635778560	8	3884
2026-01-30 00:55:38.12	85.77	24.05	-23.8	-24.7	18.8	1.68e-04	0	44	0	1642070016	8	3988
2026-01-30 00:55:39.12	86.06	24.05	-23.5	-24.1	19.2	0.00e+00	0	44	0	1647312896	8	3838
2026-01-30 00:55:40.13	86.35	24.06	-23.4	-23.8	19.3	7.09e-05	0	44	0	1652555776	8	3770
2026-01-30 00:55:41.13	86.63	24.07	-23.4	-23.7	19.4	6.98e-05	0	43	0	1658847232	8	3763
2026-01-30 00:55:42.13	86.92	24.07	-23.4	-23.8	19.3	0.00e+00	0	44	0	1664090112	8	3766
2026-01-30 00:55:43.13	87.20	24.08	-23.2	-24.0	19.4	1.19e-04	0	44	0	1669332992	7	3916
2026-01-30 00:55:44.14	87.49	24.08	-23.3	-24.2	19.4	0.00e+00	0	44	0	1675624448	7	3964
2026-01-30 00:55:45.14	87.78	24.09	-23.2	-24.0	19.4	0.00e+00	0	43	0	1680867328	7	3919
2026-01-30 00:55:46.14	88.06	24.09	-23.4	-24.4	19.3	2.39e-04	0	43	0	1687158784	7	4009
2026-01-30 00:55:47.14	88.35	24.09	-23.3	-24.1	19.4	0.00e+00	0	43	0	1692401664	7	3953
2026-01-30 00:55:48.14	88.63	24.09	-23.3	-24.1	19.4	0.00e+00	0	43	0	1698693120	7	3951
2026-01-30 00:55:49.14	88.92	24.09	-23.4	-24.4	19.2	0.00e+00	0	43	0	1703936000	7	4015
2026-01-30 00:55:50.14	89.20	24.09	-23.3	-24.0	19.4	2.67e-04	0	44	0	1709178880	7	3934
2026-01-30 00:55:51.14	89.49	24.09	-23.3	-24.1	19.4	0.00e+00	0	43	0	1715470336	7	3954
2026-01-30 00:55:52.14	89.78	24.09	-23.4	-24.3	19.3	1.96e-04	0	43	0	1720713216	7	3998
2026-01-30 00:55:53.14	90.06	24.09	-23.3	-24.0	19.5	1.52e-04	0	43	0	1725956096	7	3920
2026-01-30 00:55:54.14	90.35	24.09	-23.3	-24.0	19.4	0.00e+00	0	43	0	1731198976	7	3932
2026-01-30 00:55:55.14	90.63	24.08	-23.4	-24.2	19.3	2.25e-04	0	43	0	1737490432	7	3973
2026-01-30 00:55:56.15	90.92	24.08	-23.3	-24.1	19.4	0.00e+00	0	43	0	1742733312	7	3959
2026-01-30 00:55:57.15	91.21	24.07	-23.3	-24.1	19.4	0.00e+00	0	43	0	1749024768	7	3953
2026-01-30 00:55:58.15	91.49	24.07	-23.4	-24.2	19.3	0.00e+00	0	43	0	1754267648	7	3984
2026-01-30 00:55:59.16	91.78	24.06	-23.6	-24.7	19.1	0.00e+00	0	43	0	1760559104	7	4084
2026-01-30 00:56:00.16	92.06	24.05	-23.4	-24.4	19.2	0.00e+00	0	43	0	1765801984	7	4022
2026-01-30 00:56:01.16	92.35	24.04	-23.4	-24.3	19.2	0.00e+00	0	44	0	1771044864	7	4011
2026-01-30 00:56:02.17	92.64	24.04	-23.4	-24.4	19.2	4.34e-05	0	44	0	1777336320	7	4024
2026-01-30 00:56:03.17	92.92	24.03	-23.3	-24.2	19.3	0.00e+00	0	44	0	1782579200	7	3965
2026-01-30 00:56:04.17	93.21	24.02	-23.3	-24.1	19.4	0.00e+00	0	43	0	1787822080	7	3949
2026-01-30 00:56:05.18	93.49	24.00	-23.3	-24.2	19.3	0.00e+00	0	44	0	1794113536	7	3961
2026-01-30 00:56:06.18	93.78	23.99	-23.3	-24.0	19.4	0.00e+00	0	44	0	1799356416	7	3926
2026-01-30 00:56:07.19	94.06	23.98	-23.3	-24.0	19.4	0.00e+00	0	43	0	1805647872	7	3934
2026-01-30 00:56:08.19	94.35	23.97	-23.3	-24.1	19.3	0.00e+00	0	44	0	1810890752	7	3958
2026-01-30 00:56:09.19	94.63	23.95	-23.3	-24.1	19.3	0.00e+00	0	44	0	1816133632	7	3955
2026-01-30 00:56:10.20	94.92	23.94	-23.3	-24.1	19.3	0.00e+00	0	44	0	1822425088	7	3958
2026-01-30 00:56:11.20	95.20	23.92	-23.2	-24.0	19.4	0.00e+00	0	43	0	1827667968	7	3913
2026-01-30 00:56:12.21	95.49	23.91	-23.3	-24.0	19.4	0.00e+00	0	43	0	1833959424	7	3926
2026-01-30 00:56:13.20	95.77	23.89	-23.4	-24.4	19.2	0.00e+00	0	44	0	1839202304	7	4020
2026-01-30 00:56:14.21	96.05	23.87	-23.3	-24.2	19.3	0.00e+00	0	43	0	1844445184	7	3975
2026-01-30 00:56:15.21	96.33	23.85	-23.4	-24.4	19.2	0.00e+00	0	43	0	1850736640	7	4020
2026-01-30 00:56:16.21	96.61	23.84	-23.5	-24.5	19.1	0.00e+00	0	43	0	1855979520	7	4053
2026-01-30 00:56:17.21	96.89	23.82	-23.4	-24.3	19.2	0.00e+00	0	43	0	1861222400	7	4002
2026-01-30 00:56:18.22	97.18	23.80	-23.4	-24.2	19.3	0.00e+00	0	43	0	1867513856	7	3977
2026-01-30 00:56:19.23	97.46	23.77	-23.5	-24.5	19.1	0.00e+00	0	43	0	1872756736	7	4033
2026-01-30 00:56:20.23	97.74	23.75	-23.6	-24.7	19.0	0.00e+00	0	44	0	1879048192	7	4097
2026-01-30 00:56:21.23	98.02	23.73	-23.4	-24.3	19.2	0.00e+00	0	43	0	1884291072	7	4000
2026-01-30 00:56:22.23	98.30	23.71	-23.5	-24.5	19.1	0.00e+00	0	43	0	1889533952	7	4039
2026-01-30 00:56:23.23	98.58	23.68	-23.4	-24.4	19.1	0.00e+00	0	44	0	1895825408	7	4025
2026-01-30 00:56:24.23	98.86	23.66	-23.5	-24.5	19.1	0.00e+00	0	44	0	1901068288	7	4050
2026-01-30 00:56:25.24	99.14	23.63	-23.5	-24.6	19.0	0.00e+00	0	44	0	1906311168	7	4079
2026-01-30 00:56:26.24	99.42	23.61	-23.7	-24.9	18.9	0.00e+00	0	43	0	1912602624	7	4149
2026-01-30 00:56:27.25	99.70	23.58	-23.7	-25.0	18.9	0.00e+00	0	44	0	1917845504	7	4162
2026-01-30 00:56:28.25	99.97	23.56	-23.9	-25.5	18.6	0.00e+00	0	43	0	1924136960	7	4294
2026-01-30 00:56:29.25	100.25	23.53	-24.1	-25.4	18.5	0.00e+00	0	44	0	1929379840	8	4154
2026-01-30 00:56:30.26	100.53	23.50	-23.9	-25.0	18.7	0.00e+00	0	44	0	1934622720	8	4051
2026-01-30 00:56:31.26	100.80	23.47	-23.8	-24.6	18.8	0.00e+00	0	43	0	1940914176	8	3971
2026-01-30 00:56:32.26	101.08	23.44	-23.7	-24.5	18.8	0.00e+00	0	44	0	1946157056	8	3947
2026-01-30 00:56:33.27	101.35	23.41	-23.7	-24.5	18.9	1.10e-06	0	44	0	1952448512	8	3940
2026-01-30 00:56:34.27	101.63	23.38	-23.6	-24.3	19.0	0.00e+00	0	44	0	1957691392	8	3896
2026-01-30 00:56:35.28	101.90	23.35	-23.7	-24.5	18.8	0.00e+00	0	43	0	1962934272	8	3943
2026-01-30 00:56:36.28	102.18	23.32	-23.5	-24.0	19.1	1.10e-06	0	43	0	1969225728	8	3825
2026-01-30 00:56:37.28	102.45	23.28	-23.4	-23.9	19.2	0.00e+00	0	44	0	1974468608	8	3792
2026-01-30 00:56:38.28	102.72	23.25	-23.4	-23.9	19.1	0.00e+00	0	44	0	1979711488	8	3799
2026-01-30 00:56:39.29	102.99	23.22	-23.5	-24.0	19.1	0.00e+00	0	44	0	1986002944	8	3815
2026-01-30 00:56:40.29	103.26	23.18	-23.6	-24.3	19.0	0.00e+00	0	43	0	1991245824	8	3893
2026-01-30 00:56:41.29	103.53	23.15	-23.7	-24.6	18.8	0.00e+00	0	44	0	1997537280	8	3954
2026-01-30 00:56:42.29	103.80	23.11	-23.7	-24.5	18.8	0.00e+00	0	44	0	2002780160	8	3948
2026-01-30 00:56:43.30	104.08	23.07	-23.8	-24.6	18.8	0.00e+00	0	44	0	2008023040	8	3955
2026-01-30 00:56:44.30	104.34	23.04	-23.8	-24.7	18.8	0.00e+00	0	44	0	2014314496	8	3984
2026-01-30 00:56:45.30	104.61	23.00	-23.7	-24.5	18.8	0.00e+00	0	44	0	2019557376	8	3939
2026-01-30 00:56:46.31	104.88	22.96	-23.7	-24.6	18.8	0.00e+00	0	44	0	2025848832	8	3955
2026-01-30 00:56:47.31	105.15	22.92	-23.7	-24.6	18.8	0.00e+00	0	44	0	2031091712	8	3955
2026-01-30 00:56:48.31	105.41	22.88	-23.7	-24.5	18.8	0.00e+00	0	44	0	2036334592	8	3932
2026-01-30 00:56:49.31	105.68	22.84	-23.7	-24.4	18.9	0.00e+00	0	44	0	2042626048	8	3918
2026-01-30 00:56:50.31	105.94	22.80	-23.6	-24.3	18.9	0.00e+00	0	44	0	2047868928	8	3898
2026-01-30 00:56:51.31	106.20	22.76	-23.7	-24.4	18.9	0.00e+00	0	44	0	2053111808	8	3903
2026-01-30 00:56:52.32	106.47	22.72	-23.6	-24.2	19.0	0.00e+00	0	43	0	2059403264	8	3854
2026-01-30 00:56:53.32	106.73	22.68	-23.6	-24.3	18.9	0.00e+00	0	44	0	2064646144	8	3890
2026-01-30 00:56:54.32	106.99	22.63	-23.7	-24.4	18.9	0.00e+00	0	44	0	2069889024	8	3924
2026-01-30 00:56:55.33	107.26	22.59	-23.8	-24.7	18.8	0.00e+00	0	43	0	2076180480	8	3979
2026-01-30 00:56:56.34	107.52	22.55	-23.8	-24.7	18.7	0.00e+00	0	44	0	2081423360	8	3998
2026-01-30 00:56:57.34	107.78	22.50	-23.8	-24.7	18.7	0.00e+00	0	44	0	2087714816	8	4000
2026-01-30 00:56:58.34	108.04	22.46	-23.8	-24.7	18.7	0.00e+00	0	44	0	2092957696	8	3993
2026-01-30 00:56:59.35	108.30	22.41	-23.9	-24.9	18.6	0.00e+00	0	44	0	2099249152	8	4041
2026-01-30 00:57:00.35	108.55	22.37	-24.0	-25.1	18.5	0.00e+00	0	44	0	2104492032	8	4087
2026-01-30 00:57:01.35	108.81	22.32	-24.0	-25.1	18.5	1.18e-04	0	44	0	2109734912	8	4094
2026-01-30 00:57:02.36	109.07	22.27	-24.1	-25.2	18.5	0.00e+00	0	44	0	2116026368	8	4124
2026-01-30 00:57:03.37	109.33	22.23	-24.1	-25.3	18.4	0.00e+00	0	44	0	2121269248	8	4133
2026-01-30 00:57:04.37	109.58	22.18	-24.1	-25.3	18.4	0.00e+00	0	43	0	2126512128	8	4135
2026-01-30 00:57:05.37	109.83	22.13	-24.1	-25.4	18.4	0.00e+00	0	44	0	2132803584	8	4168
2026-01-30 00:57:06.38	110.09	22.08	-24.2	-25.5	18.3	0.00e+00	0	44	0	2138046464	8	4188
2026-01-30 00:57:07.38	110.34	22.03	-24.2	-25.5	18.3	0.00e+00	0	44	0	2143289344	8	4197
2026-01-30 00:57:08.38	110.59	21.98	-24.4	-25.9	18.1	0.00e+00	0	43	0	2149580800	8	4281
2026-01-30 00:57:09.39	110.84	21.93	-24.1	-25.3	18.4	0.00e+00	0	43	0	2154823680	8	4142
2026-01-30 00:57:10.39	111.09	21.88	-23.9	-25.0	18.5	2.84e-04	0	44	0	2161115136	8	4069
2026-01-30 00:57:11.39	111.34	21.83	-23.9	-25.0	18.5	0.00e+00	0	44	0	2166358016	8	4062
2026-01-30 00:57:12.39	111.59	21.78	-23.9	-25.0	18.6	2.24e-04	0	44	0	2172649472	8	4058
2026-01-30 00:57:13.40	111.84	21.73	-23.9	-24.9	18.6	1.83e-04	0	44	0	2177892352	8	4040
2026-01-30 00:57:14.41	112.09	21.67	-23.9	-25.0	18.5	0.00e+00	0	44	0	2183135232	8	4066
2026-01-30 00:57:15.41	112.33	21.62	-24.0	-25.1	18.4	7.43e-05	0	44	0	2189426688	8	4094
2026-01-30 00:57:16.41	112.58	21.57	-24.0	-25.0	18.5	0.00e+00	0	44	0	2194669568	8	4072
2026-01-30 00:57:17.41	112.82	21.51	-24.1	-25.3	18.4	0.00e+00	0	44	0	2199912448	8	4144
2026-01-30 00:57:18.42	113.07	21.46	-24.1	-25.3	18.3	5.14e-05	0	44	0	2206203904	8	4144
2026-01-30 00:57:19.42	113.31	21.41	-24.2	-25.5	18.3	6.29e-05	0	44	0	2211446784	8	4186
2026-01-30 00:57:20.42	113.55	21.35	-24.2	-25.5	18.2	0.00e+00	0	44	0	2216689664	8	4206
2026-01-30 00:57:21.42	113.79	21.30	-24.1	-25.4	18.3	0.00e+00	0	44	0	2222981120	8	4167
2026-01-30 00:57:22.43	114.03	21.24	-24.2	-25.5	18.3	1.85e-04	0	44	0	2228224000	8	4186
2026-01-30 00:57:23.43	114.27	21.18	-24.1	-25.4	18.3	0.00e+00	0	44	0	2234515456	8	4173
2026-01-30 00:57:24.43	114.51	21.13	-24.0	-25.0	18.5	2.47e-04	0	44	0	2239758336	8	4067
2026-01-30 00:57:25.44	114.75	21.07	-23.9	-24.8	18.6	2.06e-04	0	44	0	2245001216	8	4003
2026-01-30 00:57:26.44	114.99	21.01	-24.0	-25.0	18.5	0.00e+00	0	44	0	2251292672	8	4057
2026-01-30 00:57:27.45	115.22	20.96	-24.1	-25.3	18.3	5.03e-05	0	44	0	2256535552	8	4135
2026-01-30 00:57:28.45	115.46	20.90	-24.1	-25.4	18.3	3.54e-05	0	44	0	2262827008	8	4176
2026-01-30 00:57:29.45	115.69	20.84	-24.3	-25.7	18.1	0.00e+00	0	44	0	2268069888	8	4250
2026-01-30 00:57:30.46	115.93	20.78	-24.4	-26.0	17.9	0.00e+00	0	44	0	2273312768	8	4323
2026-01-30 00:57:31.45	116.16	20.72	-24.5	-26.2	17.8	0.00e+00	0	44	0	2279604224	8	4376
2026-01-30 00:57:32.46	116.39	20.66	-24.6	-25.8	17.8	0.00e+00	0	44	0	2284847104	9	4172
2026-01-30 00:57:33.45	116.62	20.61	-24.5	-25.8	17.8	0.00e+00	0	43	0	2290089984	9	4167
2026-01-30 00:57:34.46	116.85	20.55	-24.4	-25.6	17.9	0.00e+00	0	44	0	2296381440	9	4095
2026-01-30 00:57:35.46	117.08	20.49	-24.4	-25.5	17.9	0.00e+00	0	44	0	2301624320	9	4088
2026-01-30 00:57:36.47	117.31	20.42	-24.5	-25.6	17.9	0.00e+00	0	44	0	2307915776	9	4109
2026-01-30 00:57:37.47	117.53	20.36	-24.4	-25.6	17.9	0.00e+00	0	44	0	2313158656	9	4103
2026-01-30 00:57:38.48	117.76	20.30	-24.5	-25.6	17.9	0.00e+00	0	44	0	2318401536	9	4110
2026-01-30 00:57:39.48	117.99	20.24	-24.4	-25.5	17.9	5.70e-06	0	44	0	2324692992	9	4089
2026-01-30 00:57:40.48	118.21	20.18	-24.4	-25.6	17.9	4.80e-05	0	44	0	2329935872	9	4103
2026-01-30 00:57:41.49	118.44	20.12	-24.4	-25.5	17.9	0.00e+00	0	44	0	2336227328	9	4081
2026-01-30 00:57:42.49	118.66	20.06	-24.3	-25.4	18.0	0.00e+00	0	44	0	2341470208	9	4045
2026-01-30 00:57:43.48	118.88	19.99	-24.4	-25.6	17.9	1.89e-04	0	44	0	2346713088	9	4095
2026-01-30 00:57:44.49	119.10	19.93	-24.5	-25.7	17.8	0.00e+00	0	44	0	2351955968	9	4127
2026-01-30 00:57:45.49	119.32	19.87	-24.5	-25.6	17.9	1.80e-04	0	44	0	2358247424	9	4102
2026-01-30 00:57:46.49	119.54	19.81	-24.5	-25.6	17.9	0.00e+00	0	44	0	2363490304	9	4110
2026-01-30 00:57:47.50	119.76	19.74	-24.5	-25.6	17.9	0.00e+00	0	44	0	2369781760	9	4110
2026-01-30 00:57:48.50	119.98	19.68	-24.4	-25.6	17.9	7.55e-05	0	44	0	2375024640	9	4093
2026-01-30 00:57:49.51	120.20	19.61	-24.4	-25.5	17.9	0.00e+00	0	43	0	2381316096	9	4082
2026-01-30 00:57:50.51	120.41	19.55	-24.4	-25.4	18.0	0.00e+00	0	44	0	2386558976	9	4050
2026-01-30 00:57:51.51	120.63	19.49	-24.5	-25.6	17.9	0.00e+00	0	44	0	2391801856	9	4102
2026-01-30 00:57:52.51	120.84	19.42	-24.6	-25.9	17.7	0.00e+00	0	44	0	2398093312	9	4169
2026-01-30 00:57:53.52	121.05	19.36	-24.7	-26.0	17.6	0.00e+00	0	44	0	2403336192	9	4211
2026-01-30 00:57:54.52	121.27	19.29	-24.7	-26.1	17.6	0.00e+00	0	44	0	2408579072	9	4231
2026-01-30 00:57:55.52	121.48	19.23	-24.6	-26.0	17.6	0.00e+00	0	44	0	2414870528	9	4209
2026-01-30 00:57:56.53	121.69	19.16	-24.7	-26.0	17.6	0.00e+00	0	43	0	2420113408	9	4219
2026-01-30 00:57:57.54	121.90	19.09	-24.8	-26.3	17.5	4.50e-06	0	44	0	2425356288	9	4275
2026-01-30 00:57:58.55	122.11	19.03	-24.8	-26.3	17.5	0.00e+00	0	44	0	2431647744	9	4297
2026-01-30 00:57:59.55	122.32	18.96	-24.8	-26.4	17.4	0.00e+00	0	44	0	2436890624	9	4312
2026-01-30 00:58:00.55	122.53	18.90	-24.9	-26.5	17.4	0.00e+00	0	44	0	2443182080	9	4342
2026-01-30 00:58:01.55	122.73	18.83	-24.9	-26.6	17.3	0.00e+00	0	44	0	2448424960	9	4362
2026-01-30 00:58:02.56	122.94	18.76	-25.0	-26.3	17.2	0.00e+00	0	44	0	2454716416	10	4183
2026-01-30 00:58:03.56	123.14	18.70	-25.2	-26.6	17.0	0.00e+00	0	43	0	2459959296	10	4268
2026-01-30 00:58:04.56	123.35	18.63	-25.1	-26.5	17.1	0.00e+00	0	44	0	2465202176	10	4235
2026-01-30 00:58:05.56	123.55	18.56	-24.9	-26.0	17.3	0.00e+00	0	44	0	2471493632	10	4113
2026-01-30 00:58:06.56	123.75	18.49	-24.8	-25.8	17.5	0.00e+00	0	44	0	2476736512	10	4044
2026-01-30 00:58:07.57	123.95	18.43	-24.8	-25.9	17.4	0.00e+00	0	44	0	2481979392	10	4065
2026-01-30 00:58:08.57	124.15	18.36	-24.8	-25.9	17.4	0.00e+00	0	43	0	2488270848	10	4086
2026-01-30 00:58:09.57	124.35	18.29	-24.9	-26.0	17.3	0.00e+00	0	44	0	2493513728	10	4101
2026-01-30 00:58:10.57	124.55	18.22	-25.0	-26.2	17.2	0.00e+00	0	44	0	2498756608	10	4157
2026-01-30 00:58:11.57	124.74	18.16	-25.0	-26.3	17.2	0.00e+00	0	43	0	2505048064	10	4168
2026-01-30 00:58:12.57	124.94	18.09	-24.8	-25.9	17.4	0.00e+00	0	44	0	2510290944	10	4079
2026-01-30 00:58:13.58	125.14	18.02	-24.8	-25.8	17.4	0.00e+00	0	43	0	2516582400	10	4065
2026-01-30 00:58:14.58	125.33	17.95	-24.8	-25.8	17.4	0.00e+00	0	44	0	2521825280	10	4052
2026-01-30 00:58:15.58	125.53	17.88	-24.7	-25.6	17.5	0.00e+00	0	44	0	2527068160	10	4009
2026-01-30 00:58:16.58	125.72	17.81	-24.8	-25.8	17.5	0.00e+00	0	44	0	2533359616	10	4055
2026-01-30 00:58:17.58	125.91	17.75	-24.7	-25.7	17.5	0.00e+00	0	44	0	2538602496	10	4030
2026-01-30 00:58:18.59	126.10	17.68	-24.7	-25.7	17.5	0.00e+00	0	44	0	2543845376	10	4021
2026-01-30 00:58:19.58	126.29	17.61	-24.8	-25.9	17.4	0.00e+00	0	43	0	2550136832	10	4078
2026-01-30 00:58:20.59	126.48	17.54	-25.0	-26.2	17.2	0.00e+00	0	44	0	2555379712	10	4148
2026-01-30 00:58:21.59	126.67	17.47	-25.1	-26.6	17.0	0.00e+00	0	44	0	2561671168	10	4250
2026-01-30 00:58:22.60	126.86	17.40	-25.3	-26.9	16.8	0.00e+00	0	43	0	2566914048	10	4333
2026-01-30 00:58:23.60	127.05	17.33	-25.4	-27.1	16.8	0.00e+00	0	44	0	2572156928	10	4382
2026-01-30 00:58:24.60	127.23	17.26	-25.4	-27.2	16.7	0.00e+00	0	44	0	2578448384	10	4412
2026-01-30 00:58:25.61	127.42	17.19	-25.3	-27.0	16.8	0.00e+00	0	44	0	2583691264	10	4366
2026-01-30 00:58:26.61	127.61	17.12	-25.2	-26.6	16.9	0.00e+00	0	44	0	2589982720	10	4273
2026-01-30 00:58:27.61	127.79	17.05	-25.1	-26.5	17.0	0.00e+00	0	44	0	2595225600	10	4241
2026-01-30 00:58:28.62	127.97	16.98	-25.2	-26.7	16.9	1.10e-06	0	44	0	2600468480	10	4300
2026-01-30 00:58:29.62	128.16	16.91	-25.2	-26.8	16.9	0.00e+00	0	43	0	2606759936	10	4309
2026-01-30 00:58:30.63	128.34	16.84	-25.2	-26.8	16.8	0.00e+00	0	44	0	2612002816	10	4317
2026-01-30 00:58:31.63	128.52	16.77	-25.3	-26.9	16.8	0.00e+00	0	44	0	2617245696	10	4340
2026-01-30 00:58:32.64	128.70	16.70	-25.3	-27.0	16.8	0.00e+00	0	44	0	2623537152	10	4350
2026-01-30 00:58:33.65	128.88	16.63	-25.3	-27.0	16.7	0.00e+00	0	44	0	2628780032	10	4360
2026-01-30 00:58:34.65	129.06	16.56	-25.4	-27.1	16.7	0.00e+00	0	43	0	2635071488	10	4395
2026-01-30 00:58:35.66	129.24	16.49	-25.3	-27.0	16.7	0.00e+00	0	44	0	2640314368	10	4349
2026-01-30 00:58:36.66	129.41	16.42	-25.3	-26.8	16.8	0.00e+00	0	44	0	2645557248	10	4308
2026-01-30 00:58:37.65	129.59	16.35	-25.3	-27.0	16.7	0.00e+00	0	43	0	2651848704	10	4356
2026-01-30 00:58:38.65	129.76	16.28	-25.3	-27.0	16.7	0.00e+00	0	43	0	2657091584	10	4356
2026-01-30 00:58:39.65	129.94	16.21	-25.3	-27.0	16.7	0.00e+00	0	44	0	2663383040	10	4360
2026-01-30 00:58:40.66	130.11	16.14	-25.3	-27.0	16.7	0.00e+00	0	44	0	2668625920	10	4363
2026-01-30 00:58:41.66	130.28	16.07	-25.3	-27.1	16.7	0.00e+00	0	44	0	2673868800	10	4379
2026-01-30 00:58:42.67	130.46	16.00	-25.3	-27.0	16.7	0.00e+00	0	44	0	2680160256	10	4373
2026-01-30 00:58:43.67	130.63	15.92	-25.3	-26.9	16.7	0.00e+00	0	44	0	2685403136	10	4336
2026-01-30 00:58:44.66	130.79	15.85	-25.4	-27.1	16.6	0.00e+00	0	44	0	2690646016	10	4395
2026-01-30 00:58:45.67	130.96	15.78	-25.4	-27.2	16.6	0.00e+00	0	44	0	2696937472	10	4414
2026-01-30 00:58:46.67	131.13	15.71	-25.4	-27.1	16.6	0.00e+00	0	44	0	2702180352	10	4411
2026-01-30 00:58:47.68	131.30	15.64	-25.4	-27.2	16.5	0.00e+00	0	43	0	2707423232	10	4429
2026-01-30 00:58:48.68	131.47	15.57	-25.6	-27.1	16.4	0.00e+00	0	43	0	2713714688	11	4272
2026-01-30 00:58:49.69	131.64	15.50	-25.6	-27.2	16.3	0.00e+00	0	44	0	2718957568	11	4313
2026-01-30 00:58:50.69	131.80	15.43	-25.7	-27.2	15.7	0.00e+00	0	44	0	2725249024	11	4311
2026-01-30 00:58:51.70	131.97	15.36	-25.6	-27.2	16.2	0.00e+00	0	44	0	2730491904	11	4299
2026-01-30 00:58:52.70	132.13	15.29	-25.7	-27.4	16.2	0.00e+00	0	44	0	2736783360	11	4349
2026-01-30 00:58:53.71	132.30	15.22	-25.6	-27.1	16.3	0.00e+00	0	43	0	2742026240	11	4272
2026-01-30 00:58:54.71	132.46	15.14	-25.5	-26.9	16.4	0.00e+00	0	44	0	2747269120	11	4215
2026-01-30 00:58:55.72	132.62	15.07	-25.5	-27.0	16.4	0.00e+00	0	44	0	2753560576	11	4243
2026-01-30 00:58:56.72	132.78	15.00	-25.6	-27.0	16.3	3.41e-04	0	44	0	2758803456	11	4253
2026-01-30 00:58:57.73	132.94	14.93	-25.8	-27.4	16.1	0.00e+00	0	43	0	2764046336	11	4371
2026-01-30 00:58:58.72	133.10	14.86	-25.7	-27.4	16.1	0.00e+00	0	43	0	2770337792	11	4367
2026-01-30 00:58:59.72	133.26	14.79	-25.7	-27.3	16.2	0.00e+00	0	44	0	2775580672	11	4332
2026-01-30 00:59:00.72	133.42	14.72	-25.6	-27.2	16.2	0.00e+00	0	43	0	2780823552	11	4311
2026-01-30 00:59:01.72	133.58	14.65	-25.6	-27.2	16.1	0.00e+00	0	44	0	2787115008	11	4332
2026-01-30 00:59:02.73	133.73	14.58	-25.8	-27.6	15.9	0.00e+00	0	44	0	2792357888	11	4427
2026-01-30 00:59:03.73	133.89	14.51	-25.9	-27.8	15.8	3.29e-04	0	44	0	2798649344	11	4487
2026-01-30 00:59:04.74	134.05	14.43	-25.8	-27.6	15.9	0.00e+00	0	44	0	2803892224	11	4443
2026-01-30 00:59:05.74	134.20	14.36	-25.8	-27.6	15.7	2.96e-04	0	44	0	2810183680	11	4457
2026-01-30 00:59:06.75	134.35	14.29	-25.9	-27.9	15.6	0.00e+00	0	44	0	2815426560	11	4529
2026-01-30 00:59:07.75	134.51	14.22	-25.9	-27.8	15.7	1.10e-06	0	44	0	2820669440	11	4489
2026-01-30 00:59:08.75	134.66	14.15	-25.8	-27.6	15.7	3.65e-04	0	44	0	2826960896	11	4445
2026-01-30 00:59:09.75	134.81	14.08	-25.9	-27.9	15.7	0.00e+00	0	44	0	2832203776	11	4514
2026-01-30 00:59:10.75	134.96	14.01	-26.0	-28.0	15.7	0.00e+00	0	43	0	2837446656	11	4522
2026-01-30 00:59:11.76	135.11	13.94	-26.1	-27.7	15.4	0.00e+00	0	43	0	2843738112	12	4341
2026-01-30 00:59:12.77	135.26	13.87	-26.4	-28.3	15.1	3.50e-04	0	44	0	2848980992	12	4512
2026-01-30 00:59:13.77	135.41	13.80	-26.3	-28.1	15.2	2.20e-06	0	44	0	2854223872	12	4458
2026-01-30 00:59:14.78	135.56	13.73	-26.1	-27.7	15.4	2.70e-04	0	44	0	2860515328	12	4353
2026-01-30 00:59:15.77	135.71	13.66	-25.9	-27.4	15.6	2.06e-04	0	44	0	2865758208	12	4270
2026-01-30 00:59:16.78	135.86	13.59	-25.9	-27.3	15.6	0.00e+00	0	44	0	2872049664	12	4239
2026-01-30 00:59:17.78	136.00	13.51	-25.9	-27.4	15.5	2.71e-04	0	44	0	2877292544	12	4261
2026-01-30 00:59:18.78	136.15	13.44	-26.0	-27.5	15.5	0.00e+00	0	44	0	2882535424	12	4291
2026-01-30 00:59:19.79	136.29	13.37	-26.0	-27.5	15.5	0.00e+00	0	44	0	2888826880	12	4282
2026-01-30 00:59:20.80	136.44	13.30	-26.0	-27.6	15.4	3.02e-04	0	44	0	2894069760	12	4316
2026-01-30 00:59:21.80	136.58	13.23	-26.0	-27.6	15.5	2.77e-04	0	43	0	2900361216	12	4300
2026-01-30 00:59:22.80	136.72	13.16	-26.0	-27.4	15.5	0.00e+00	0	44	0	2905604096	12	4269
2026-01-30 00:59:23.81	136.87	13.09	-26.0	-27.6	15.4	2.77e-04	0	44	0	2910846976	12	4311
2026-01-30 00:59:24.81	137.01	13.02	-25.9	-27.3	15.6	2.68e-04	0	44	0	2917138432	12	4248
2026-01-30 00:59:25.81	137.15	12.95	-26.0	-27.5	15.6	0.00e+00	0	43	0	2922381312	12	4289
2026-01-30 00:59:26.82	137.29	12.88	-25.9	-27.4	15.6	1.94e-04	0	44	0	2927624192	12	4265
2026-01-30 00:59:27.82	137.43	12.81	-26.0	-27.5	15.5	1.35e-04	0	44	0	2933915648	12	4309
2026-01-30 00:59:28.83	137.57	12.74	-26.0	-27.5	15.5	0.00e+00	0	43	0	2939158528	12	4299
2026-01-30 00:59:29.83	137.71	12.67	-26.0	-27.6	15.4	1.64e-04	0	44	0	2945449984	12	4323
2026-01-30 00:59:30.83	137.84	12.60	-26.1	-27.7	15.4	1.82e-04	0	44	0	2950692864	12	4332
2026-01-30 00:59:31.83	137.98	12.53	-26.2	-27.9	15.3	0.00e+00	0	44	0	2955935744	12	4391
2026-01-30 00:59:32.84	138.12	12.46	-26.2	-27.9	15.3	0.00e+00	0	44	0	2962227200	12	4390
2026-01-30 00:59:33.85	138.25	12.39	-26.3	-28.2	15.2	2.67e-04	0	44	0	2967470080	12	4473
2026-01-30 00:59:34.85	138.39	12.32	-26.3	-28.1	15.2	1.10e-06	0	44	0	2973761536	12	4447
2026-01-30 00:59:35.84	138.52	12.25	-26.2	-28.1	15.2	1.88e-04	0	44	0	2979004416	12	4437
2026-01-30 00:59:36.85	138.66	12.18	-26.2	-28.0	15.3	1.18e-04	0	44	0	2984247296	12	4416
2026-01-30 00:59:37.86	138.79	12.11	-26.3	-28.2	15.1	0.00e+00	0	44	0	2990538752	12	4484
2026-01-30 00:59:38.86	138.92	12.04	-26.2	-28.0	15.2	1.36e-04	0	43	0	2995781632	12	4447
2026-01-30 00:59:39.86	139.06	11.97	-26.2	-28.1	15.2	0.00e+00	0	44	0	3002073088	12	4455
2026-01-30 00:59:40.86	139.19	11.90	-26.2	-28.0	15.2	0.00e+00	0	44	0	3007315968	12	4434
2026-01-30 00:59:41.86	139.32	11.83	-26.2	-27.9	15.2	0.00e+00	0	43	0	3012558848	12	4404
2026-01-30 00:59:42.86	139.45	11.76	-26.3	-28.1	15.1	6.98e-05	0	44	0	3018850304	12	4468
2026-01-30 00:59:43.87	139.58	11.69	-26.2	-27.9	15.3	0.00e+00	0	44	0	3024093184	12	4395
2026-01-30 00:59:44.86	139.71	11.63	-26.2	-27.9	15.3	0.00e+00	0	44	0	3029336064	12	4398
2026-01-30 00:59:45.87	139.84	11.56	-26.2	-27.9	15.3	5.42e-04	0	43	0	3035627520	12	4399
2026-01-30 00:59:46.87	139.96	11.49	-26.2	-28.0	15.2	0.00e+00	0	44	0	3040870400	12	4437
2026-01-30 00:59:47.88	140.09	11.42	-26.2	-27.9	15.2	4.83e-04	0	44	0	3046113280	12	4389
2026-01-30 00:59:48.88	140.22	11.35	-26.1	-27.9	15.2	0.00e+00	0	44	0	3052404736	12	4382
2026-01-30 00:59:49.89	140.35	11.28	-26.2	-27.9	15.2	0.00e+00	0	44	0	3057647616	12	4400
2026-01-30 00:59:50.89	140.47	11.21	-26.3	-28.2	15.0	0.00e+00	0	44	0	3063939072	12	4480
2026-01-30 00:59:51.89	140.60	11.14	-26.2	-28.1	15.1	0.00e+00	0	44	0	3069181952	12	4443
2026-01-30 00:59:52.89	140.72	11.07	-26.3	-28.2	15.0	0.00e+00	0	44	0	3074424832	12	4489
2026-01-30 00:59:53.90	140.84	11.01	-26.2	-28.1	15.1	0.00e+00	0	44	0	3080716288	12	4445
2026-01-30 00:59:54.89	140.97	10.94	-26.3	-28.2	15.0	1.10e-06	0	44	0	3085959168	12	4483
2026-01-30 00:59:55.90	141.09	10.87	-26.3	-28.3	14.9	0.00e+00	0	44	0	3092250624	12	4511
2026-01-30 00:59:56.90	141.21	10.80	-26.4	-28.5	14.8	0.00e+00	0	44	0	3097493504	12	4591
2026-01-30 00:59:57.91	141.34	10.73	-26.4	-28.6	14.7	0.00e+00	0	44	0	3102736384	12	4605
2026-01-30 00:59:58.91	141.46	10.66	-26.6	-28.4	14.5	0.00e+00	0	44	0	3109027840	13	4443
2026-01-30 00:59:59.91	141.58	10.60	-26.8	-28.9	14.1	0.00e+00	0	44	0	3114270720	13	4607
2026-01-30 01:00:00.92	141.70	10.53	-26.6	-28.5	14.4	1.10e-06	0	44	0	3119513600	13	4474
2026-01-30 01:00:01.92	141.82	10.46	-26.5	-28.2	14.5	0.00e+00	0	44	0	3125805056	13	4398
2026-01-30 01:00:02.92	141.94	10.39	-26.5	-28.3	14.5	0.00e+00	0	44	0	3131047936	13	4410
2026-01-30 01:00:03.92	142.05	10.33	-26.6	-28.3	14.5	0.00e+00	0	44	0	3137339392	13	4424
2026-01-30 01:00:04.93	142.17	10.26	-26.7	-28.7	14.3	0.00e+00	0	44	0	3142582272	13	4520
2026-01-30 01:00:05.93	142.29	10.19	-26.8	-29.0	14.1	1.10e-06	0	44	0	3147825152	13	4603
2026-01-30 01:00:06.93	142.41	10.12	-26.8	-28.8	14.1	1.10e-06	0	44	0	3154116608	13	4567
2026-01-30 01:00:07.93	142.52	10.06	-26.8	-28.9	14.1	0.00e+00	0	44	0	3159359488	13	4576
2026-01-30 01:00:08.94	142.64	9.99	-26.7	-28.8	14.1	2.20e-06	0	44	0	3164602368	13	4575
2026-01-30 01:00:09.95	142.76	9.92	-26.9	-29.2	13.9	1.10e-06	0	44	0	3170893824	13	4678
2026-01-30 01:00:10.96	142.87	9.85	-26.8	-29.0	14.0	2.20e-06	0	44	0	3176136704	13	4629
2026-01-30 01:00:11.96	142.99	9.78	-27.0	-29.1	13.6	3.40e-06	0	44	0	3182428160	14	4567
2026-01-30 01:00:12.96	143.10	9.72	-26.9	-28.7	13.9	4.50e-06	0	44	0	3187671040	14	4434
2026-01-30 01:00:13.97	143.21	9.65	-26.7	-28.4	14.0	2.20e-06	0	44	0	3192913920	14	4352
2026-01-30 01:00:14.97	143.33	9.58	-26.7	-28.8	14.0	6.80e-06	0	44	0	3199205376	13	4597
2026-01-30 01:00:15.97	143.44	9.52	-26.8	-29.1	13.9	1.10e-06	0	44	0	3204448256	13	4678
2026-01-30 01:00:16.97	143.55	9.45	-26.8	-29.0	13.9	2.20e-06	0	44	0	3210739712	13	4663
2026-01-30 01:00:17.98	143.66	9.38	-26.9	-29.4	13.6	6.80e-06	0	44	0	3215982592	13	4799
2026-01-30 01:00:18.99	143.77	9.32	-26.9	-29.3	13.7	4.50e-06	0	44	0	3221225472	13	4754
2026-01-30 01:00:19.99	143.88	9.25	-26.9	-29.2	13.7	4.50e-06	0	44	0	3227516928	13	4744
2026-01-30 01:00:20.99	143.99	9.18	-26.8	-29.3	13.7	1.48e-05	0	44	0	3232759808	13	4757
2026-01-30 01:00:22.00	144.10	9.12	-27.0	-29.5	13.5	6.80e-06	0	44	0	3239051264	13	4831
2026-01-30 01:00:23.00	144.21	9.05	-26.9	-29.3	13.7	4.50e-06	0	44	0	3244294144	13	4761
2026-01-30 01:00:24.00	144.32	8.99	-27.0	-29.5	13.6	1.02e-05	0	44	0	3249537024	13	4821
2026-01-30 01:00:25.01	144.43	8.92	-26.9	-29.4	13.6	2.20e-06	0	44	0	3255828480	13	4798
2026-01-30 01:00:26.02	144.54	8.85	-26.9	-29.4	13.6	6.80e-06	0	44	0	3261071360	13	4807
2026-01-30 01:00:27.02	144.65	8.79	-27.1	-29.3	13.3	3.40e-06	0	44	0	3266314240	14	4682
2026-01-30 01:00:28.03	144.75	8.72	-26.9	-29.0	13.5	4.50e-06	0	44	0	3272605696	14	4568
2026-01-30 01:00:29.04	144.86	8.65	-26.9	-28.9	13.6	4.50e-06	0	44	0	3277848576	14	4518
2026-01-30 01:00:30.05	144.97	8.59	-26.9	-29.4	13.6	3.40e-06	0	44	0	3284140032	13	4804
2026-01-30 01:00:31.05	145.07	8.52	-26.9	-29.3	13.6	1.10e-06	0	44	0	3289382912	13	4783
2026-01-30 01:00:32.06	145.18	8.46	-27.1	-29.3	13.3	9.10e-06	0	44	0	3295674368	14	4667
2026-01-30 01:00:33.07	145.28	8.39	-26.9	-29.1	13.5	9.10e-06	0	44	0	3300917248	14	4594
2026-01-30 01:00:34.07	145.39	8.33	-26.9	-29.5	13.4	9.10e-06	0	44	0	3306160128	13	4866
2026-01-30 01:00:35.08	145.49	8.26	-27.0	-29.7	13.4	1.02e-05	0	44	0	3312451584	13	4913
2026-01-30 01:00:36.08	145.59	8.20	-26.1	-28.6	13.0	8.00e-06	0	44	0	3317694464	13	4774
2026-01-30 01:00:37.08	145.69	8.13	-27.1	-29.4	13.2	2.05e-05	0	44	0	3322937344	14	4716
2026-01-30 01:00:38.08	145.80	8.07	-27.2	-29.7	11.8	2.17e-05	0	44	0	3329228800	14	4790
2026-01-30 01:00:39.09	145.90	8.00	-27.1	-29.4	13.1	1.71e-05	0	44	0	3334471680	14	4695
2026-01-30 01:00:40.09	146.00	7.94	-27.1	-29.5	13.2	4.11e-05	0	44	0	3340763136	14	4719
2026-01-30 01:00:41.09	146.10	7.87	-27.2	-29.6	13.2	1.02e-05	0	43	0	3346006016	14	4750
2026-01-30 01:00:42.09	146.20	7.81	-27.2	-29.8	13.0	2.63e-05	0	44	0	3351248896	14	4827
2026-01-30 01:00:43.10	146.30	7.74	-27.2	-29.7	13.1	1.48e-05	0	44	0	3357540352	14	4795
2026-01-30 01:00:44.10	146.40	7.68	-27.2	-29.7	13.0	2.17e-05	0	44	0	3362783232	14	4805
2026-01-30 01:00:45.10	146.50	7.62	-27.0	-29.4	13.2	1.13e-03	0	44	0	3369074688	14	4734
2026-01-30 01:00:46.11	146.60	7.55	-26.9	-29.2	13.3	1.37e-05	0	44	0	3374317568	14	4689
2026-01-30 01:00:47.11	146.70	7.49	-26.9	-29.9	13.0	1.25e-03	0	44	0	3379560448	13	5064
2026-01-30 01:00:48.12	146.80	7.42	-26.8	-29.7	13.2	9.10e-06	0	44	0	3385851904	13	4994
2026-01-30 01:00:49.12	146.89	7.36	-26.8	-29.9	13.0	1.28e-04	0	44	0	3391094784	13	5104
2026-01-30 01:00:50.12	146.99	7.30	-26.8	-29.9	12.9	1.36e-03	0	44	0	3396337664	13	5135
2026-01-30 01:00:51.13	147.09	7.23	-26.8	-29.8	13.0	1.48e-05	0	44	0	3402629120	13	5084
2026-01-30 01:00:52.13	147.18	7.17	-26.8	-29.7	13.0	9.15e-05	0	44	0	3407872000	13	5065
2026-01-30 01:00:53.13	147.28	7.11	-26.7	-29.6	13.1	2.05e-05	0	44	0	3413114880	13	5006
2026-01-30 01:00:54.13	147.37	7.04	-32.8	-44.1	3.8	8.47e-01	0	44	104	3415212032	25	13232
2026-01-30 01:00:55.13	147.47	6.98	-33.6	-44.8	3.8	8.46e-01	0	44	104	3415212032	27	13085
2026-01-30 01:00:56.14	147.56	6.92	-33.9	-45.5	3.8	8.46e-01	0	44	104	3415212032	27	13578
2026-01-30 01:00:57.15	147.66	6.85	-34.1	-45.3	3.8	8.45e-01	0	44	104	3415212032	28	13096

#Closed at: 2026-01-30 01:00:57
#Recorded file [3415 MB]: D:/data/31010_260130_035046.dat