passes_logs/2026/01/30/R2M6_AANII_01/R2M6_AANII_01__20260130_024511_NOAA_21_JPSS-2_rec.log

#Pass ID: 20260130_024511_NOAA 21 (JPSS-2)
#Satellite: NOAA 21 (JPSS-2)
#Configuration: NOAA 21
#almurnet v.1.7.20240730
#Start time: 2026-01-30 02:45:12

#Version: 2.2.20231116
#Station: R2M6_AANII_01
#Location: 30.233357 lon 59.946436 lat
#TLE: 1 54234U 22150A   26028.89828222  .00000145  00000+0  89569-4 0  9997
#TLE: 2 54234  98.7511 329.6308 0000927 198.8651 161.2491 14.19540676166783

#Time	Az	El	Level	Level2	SNR	BER	BlckErr	Temp	State	Recorded	gain1	gain2
2026-01-30 02:45:12.61	8.76	7.07	-31.8	-37.1	4.3	1.43e+00	0	42	0	0	25	6637
2026-01-30 02:45:13.61	8.65	7.13	-31.3	-36.1	4.6	1.40e+00	0	42	104	0	23	6291
2026-01-30 02:45:14.61	8.54	7.19	-31.3	-35.3	8.2	5.51e-02	0	42	0	0	23	5716
2026-01-30 02:45:15.60	8.43	7.24	-31.3	-35.5	8.1	6.14e-02	0	42	0	2097152	23	5803
2026-01-30 02:45:16.61	8.32	7.30	-31.3	-35.4	8.2	5.44e-02	0	42	0	5242880	23	5781
2026-01-30 02:45:17.61	8.21	7.36	-31.3	-35.5	8.2	5.51e-02	0	43	0	8388608	23	5792
2026-01-30 02:45:18.61	8.09	7.41	-31.2	-34.8	8.6	4.78e-02	0	42	0	11534336	23	5508
2026-01-30 02:45:19.62	7.98	7.47	-30.8	-34.2	9.5	1.99e-02	0	42	0	15728640	22	5317
2026-01-30 02:45:20.62	7.87	7.53	-30.4	-32.9	10.3	6.40e-03	0	43	0	18874368	22	4827
2026-01-30 02:45:21.62	7.75	7.59	-30.0	-32.5	10.9	2.59e-03	0	43	0	22020096	21	4792
2026-01-30 02:45:22.63	7.64	7.64	-29.8	-31.8	11.4	1.03e-03	0	42	0	24117248	21	4543
2026-01-30 02:45:23.63	7.53	7.70	-29.6	-31.8	11.8	5.83e-04	0	43	0	27262976	20	4661
2026-01-30 02:45:24.64	7.41	7.76	-29.4	-31.2	12.2	2.62e-04	0	43	0	30408704	20	4439
2026-01-30 02:45:25.65	7.29	7.82	-29.3	-31.1	12.3	2.05e-04	0	43	0	33554432	20	4414
2026-01-30 02:45:26.65	7.18	7.87	-29.4	-31.6	12.3	1.56e-04	0	43	0	36700160	19	4671
2026-01-30 02:45:27.65	7.06	7.93	-29.3	-31.4	12.5	1.10e-04	0	43	0	39845888	19	4593
2026-01-30 02:45:28.64	6.95	7.99	-29.1	-31.1	12.7	7.62e-05	0	43	0	42991616	19	4505
2026-01-30 02:45:29.64	6.83	8.04	-29.1	-31.1	12.7	8.85e-05	0	43	0	46137344	19	4515
2026-01-30 02:45:30.64	6.71	8.10	-29.2	-31.3	12.6	9.15e-05	0	43	0	49283072	19	4569
2026-01-30 02:45:31.65	6.59	8.16	-29.2	-31.1	12.7	8.85e-05	0	43	0	52428800	19	4506
2026-01-30 02:45:32.66	6.47	8.21	-29.1	-31.0	12.8	6.63e-05	0	43	0	55574528	19	4462
2026-01-30 02:45:33.66	6.36	8.27	-29.2	-31.2	12.6	8.85e-05	0	43	0	58720256	19	4537
2026-01-30 02:45:34.66	6.24	8.33	-29.1	-31.1	12.7	7.24e-05	0	43	0	61865984	19	4500
2026-01-30 02:45:35.66	6.12	8.39	-29.1	-31.0	12.7	7.47e-05	0	43	0	65011712	19	4483
2026-01-30 02:45:36.65	6.00	8.44	-29.1	-31.1	12.7	7.09e-05	0	43	0	68157440	19	4496
2026-01-30 02:45:37.66	5.88	8.50	-29.1	-31.1	12.7	8.16e-05	0	43	0	71303168	19	4507
2026-01-30 02:45:38.66	5.75	8.56	-29.3	-31.5	12.4	9.07e-05	0	43	0	74448896	19	4639
2026-01-30 02:45:39.66	5.63	8.61	-29.2	-31.3	12.6	1.19e-04	0	43	0	77594624	19	4571
2026-01-30 02:45:40.66	5.51	8.67	-29.1	-30.9	12.9	6.86e-05	0	43	0	80740352	19	4445
2026-01-30 02:45:41.66	5.39	8.73	-29.1	-30.9	12.9	5.34e-05	0	43	0	83886080	19	4438
2026-01-30 02:45:42.67	5.26	8.79	-29.0	-30.7	13.0	4.73e-05	0	43	0	87031808	19	4383
2026-01-30 02:45:43.66	5.14	8.84	-28.8	-30.8	13.2	2.74e-05	0	43	0	90177536	18	4519
2026-01-30 02:45:44.66	5.02	8.90	-28.8	-30.7	13.3	1.60e-05	0	43	0	93323264	18	4476
2026-01-30 02:45:45.66	4.89	8.96	-28.8	-30.6	13.4	1.44e-05	0	43	0	96468992	18	4455
2026-01-30 02:45:46.66	4.77	9.01	-28.9	-30.9	13.2	2.44e-05	0	43	0	99614720	18	4534
2026-01-30 02:45:47.66	4.64	9.07	-28.8	-30.7	13.4	1.90e-05	0	43	0	102760448	18	4469
2026-01-30 02:45:48.66	4.51	9.13	-28.6	-30.2	13.7	4.50e-06	0	43	0	105906176	18	4320
2026-01-30 02:45:49.67	4.39	9.19	-28.5	-29.9	13.8	5.30e-06	0	43	0	109051904	18	4250
2026-01-30 02:45:50.67	4.26	9.24	-28.5	-29.9	13.8	5.30e-06	0	43	0	112197632	18	4247
2026-01-30 02:45:51.68	4.13	9.30	-28.5	-30.0	13.8	3.80e-06	0	43	0	115343360	18	4268
2026-01-30 02:45:52.68	4.00	9.36	-28.6	-30.1	13.7	3.80e-06	0	43	0	118489088	18	4301
2026-01-30 02:45:53.69	3.87	9.41	-28.5	-30.1	13.7	6.80e-06	0	43	0	121634816	18	4291
2026-01-30 02:45:54.69	3.74	9.47	-28.5	-30.0	13.7	5.30e-06	0	43	0	124780544	18	4272
2026-01-30 02:45:55.70	3.61	9.53	-28.6	-30.2	13.7	4.50e-06	0	43	0	127926272	18	4325
2026-01-30 02:45:56.70	3.48	9.59	-28.5	-30.0	13.8	6.10e-06	0	43	0	131072000	18	4267
2026-01-30 02:45:57.71	3.35	9.64	-28.4	-29.7	14.0	8.30e-06	0	43	0	134217728	18	4178
2026-01-30 02:45:58.72	3.22	9.70	-28.4	-29.8	13.9	3.80e-06	0	43	0	137363456	18	4208
2026-01-30 02:45:59.72	3.08	9.76	-28.3	-29.6	14.0	1.50e-06	0	43	0	140509184	18	4147
2026-01-30 02:46:00.72	2.95	9.82	-28.4	-29.6	14.1	7.00e-07	0	43	0	143654912	18	4163
2026-01-30 02:46:01.72	2.82	9.87	-28.3	-29.6	14.1	7.00e-07	0	43	0	146800640	18	4146
2026-01-30 02:46:02.73	2.68	9.93	-28.2	-29.8	14.2	1.50e-06	0	43	0	149946368	17	4323
2026-01-30 02:46:03.73	2.55	9.99	-28.2	-29.9	14.2	7.00e-07	0	43	0	153092096	17	4336
2026-01-30 02:46:04.73	2.42	10.04	-28.3	-30.0	14.1	2.20e-06	0	43	0	156237824	17	4383
2026-01-30 02:46:05.74	2.28	10.10	-28.3	-30.0	14.1	3.00e-06	0	43	0	159383552	17	4375
2026-01-30 02:46:06.74	2.14	10.16	-28.3	-30.1	14.0	1.50e-06	0	43	0	162529280	17	4408
2026-01-30 02:46:07.75	2.01	10.21	-28.3	-30.1	14.0	1.50e-06	0	43	0	165675008	17	4411
2026-01-30 02:46:08.76	1.87	10.27	-28.4	-30.1	14.0	3.00e-06	0	43	0	168820736	17	4412
2026-01-30 02:46:09.76	1.73	10.33	-28.4	-30.2	14.0	5.30e-06	0	43	0	171966464	17	4430
2026-01-30 02:46:10.75	1.59	10.38	-28.3	-30.1	14.1	2.20e-06	0	43	0	175112192	17	4394
2026-01-30 02:46:11.76	1.45	10.44	-28.5	-30.4	13.9	2.20e-06	0	43	0	178257920	17	4488
2026-01-30 02:46:12.76	1.32	10.50	-28.4	-30.2	14.0	3.80e-06	0	43	0	181403648	17	4423
2026-01-30 02:46:13.77	1.17	10.56	-28.2	-29.7	14.3	0.00e+00	0	43	0	184549376	17	4296
2026-01-30 02:46:14.78	1.03	10.61	-28.1	-29.6	14.3	7.00e-07	0	43	0	187695104	17	4254
2026-01-30 02:46:15.78	0.89	10.67	-28.2	-29.7	14.3	0.00e+00	0	43	0	190840832	17	4286
2026-01-30 02:46:16.78	0.75	10.73	-28.1	-29.6	14.4	1.50e-06	0	43	0	193986560	17	4267
2026-01-30 02:46:17.78	0.61	10.78	-28.1	-29.5	14.4	0.00e+00	0	43	0	197132288	17	4233
2026-01-30 02:46:18.78	0.47	10.84	-28.1	-29.6	14.4	7.00e-07	0	43	0	200278016	17	4252
2026-01-30 02:46:19.79	0.32	10.90	-27.8	-29.3	14.4	0.00e+00	0	43	0	203423744	17	4250
2026-01-30 02:46:20.79	0.18	10.95	-28.1	-29.5	14.4	1.50e-06	0	43	0	206569472	17	4233
2026-01-30 02:46:21.79	0.03	11.01	-28.2	-29.6	14.3	1.50e-06	0	43	0	209715200	17	4265
2026-01-30 02:46:22.80	359.89	11.07	-28.2	-29.8	14.3	0.00e+00	0	43	0	212860928	17	4315
2026-01-30 02:46:23.80	359.74	11.12	-28.2	-29.6	14.4	0.00e+00	0	43	0	216006656	17	4264
2026-01-30 02:46:24.80	359.60	11.18	-28.1	-29.5	14.5	0.00e+00	0	43	0	219152384	17	4224
2026-01-30 02:46:25.81	359.45	11.23	-28.1	-29.6	14.4	1.12e-04	0	43	0	222298112	17	4245
2026-01-30 02:46:26.81	359.30	11.29	-28.2	-29.6	14.4	0.00e+00	0	43	0	225443840	17	4264
2026-01-30 02:46:27.80	359.16	11.35	-28.2	-29.8	14.3	0.00e+00	0	43	0	228589568	17	4305
2026-01-30 02:46:28.80	359.01	11.40	-28.3	-29.8	14.2	7.00e-07	0	43	0	231735296	17	4325
2026-01-30 02:46:29.81	358.86	11.46	-28.3	-30.0	14.2	3.80e-06	0	44	0	234881024	17	4383
2026-01-30 02:46:30.82	358.71	11.51	-28.5	-30.4	13.9	1.19e-04	0	43	0	238026752	17	4498
2026-01-30 02:46:31.81	358.56	11.57	-28.5	-30.4	14.0	1.53e-04	0	43	0	241172480	17	4476
2026-01-30 02:46:32.82	358.41	11.63	-28.4	-30.1	14.1	1.50e-06	0	43	0	244318208	17	4398
2026-01-30 02:46:33.82	358.26	11.68	-28.3	-29.9	14.2	7.00e-07	0	43	0	247463936	17	4349
2026-01-30 02:46:34.83	358.10	11.74	-28.4	-30.2	14.1	1.50e-06	0	43	0	250609664	17	4415
2026-01-30 02:46:35.83	357.95	11.79	-28.3	-29.9	14.2	1.50e-06	0	43	0	253755392	17	4350
2026-01-30 02:46:36.83	357.80	11.85	-28.3	-29.9	14.3	1.74e-04	0	43	0	256901120	17	4338
2026-01-30 02:46:37.83	357.65	11.90	-28.3	-29.9	14.2	2.34e-04	0	44	0	260046848	17	4352
2026-01-30 02:46:38.84	357.49	11.96	-28.4	-30.1	14.2	7.00e-07	0	43	0	263192576	17	4406
2026-01-30 02:46:39.84	357.34	12.01	-28.3	-30.0	14.3	2.20e-06	0	43	0	266338304	17	4352
2026-01-30 02:46:40.84	357.18	12.07	-28.4	-30.1	14.2	2.31e-04	0	43	0	269484032	17	4394
2026-01-30 02:46:41.84	357.03	12.12	-28.4	-30.1	14.2	7.00e-07	0	44	0	272629760	17	4391
2026-01-30 02:46:42.84	356.87	12.18	-28.4	-30.1	14.2	2.20e-04	0	44	0	275775488	17	4391
2026-01-30 02:46:43.85	356.71	12.23	-28.4	-30.3	14.1	2.64e-04	0	44	0	277872640	17	4440
2026-01-30 02:46:44.86	356.55	12.29	-28.4	-30.2	14.1	1.50e-06	0	43	0	281018368	17	4435
2026-01-30 02:46:45.86	356.39	12.34	-28.4	-30.2	14.1	3.10e-04	0	43	0	284164096	17	4425
2026-01-30 02:46:46.86	356.24	12.40	-28.5	-30.4	14.0	3.17e-04	0	44	0	287309824	17	4498
2026-01-30 02:46:47.86	356.08	12.45	-28.4	-30.2	14.1	1.50e-06	0	43	0	290455552	17	4434
2026-01-30 02:46:48.86	355.92	12.51	-28.4	-30.1	14.2	3.14e-04	0	44	0	293601280	17	4382
2026-01-30 02:46:49.87	355.75	12.56	-28.5	-30.3	14.0	2.20e-06	0	43	0	297795584	17	4461
2026-01-30 02:46:50.88	355.59	12.62	-28.5	-30.3	14.0	1.50e-06	0	43	0	299892736	17	4474
2026-01-30 02:46:51.88	355.43	12.67	-28.3	-30.6	14.2	4.13e-04	0	44	0	303038464	16	4646
2026-01-30 02:46:52.89	355.27	12.72	-28.4	-30.8	14.1	4.07e-04	0	43	0	306184192	16	4728
2026-01-30 02:46:53.89	355.10	12.78	-28.3	-30.0	14.2	7.00e-07	0	43	0	309329920	17	4374
2026-01-30 02:46:54.89	354.94	12.83	-28.2	-29.7	14.4	0.00e+00	0	43	0	312475648	17	4275
2026-01-30 02:46:55.89	354.78	12.88	-28.2	-30.2	14.5	2.81e-04	0	44	0	315621376	16	4536
2026-01-30 02:46:56.89	354.61	12.94	-28.1	-30.0	14.5	0.00e+00	0	44	0	318767104	16	4486
2026-01-30 02:46:57.89	354.45	12.99	-28.2	-30.2	14.4	2.97e-04	0	43	0	321912832	16	4546
2026-01-30 02:46:58.89	354.28	13.04	-28.2	-30.2	14.5	3.35e-04	0	43	0	325058560	16	4520
2026-01-30 02:46:59.89	354.11	13.10	-28.2	-30.3	14.4	7.00e-07	0	43	0	328204288	16	4550
2026-01-30 02:47:00.89	353.95	13.15	-28.2	-30.3	14.4	7.00e-07	0	44	0	331350016	16	4549
2026-01-30 02:47:01.89	353.78	13.20	-28.3	-30.4	14.3	2.88e-04	0	43	0	334495744	16	4590
2026-01-30 02:47:02.89	353.61	13.26	-28.3	-30.4	14.3	1.50e-06	0	43	0	337641472	16	4596
2026-01-30 02:47:03.90	353.44	13.31	-28.3	-30.5	14.3	1.50e-06	0	44	0	340787200	16	4628
2026-01-30 02:47:04.90	353.27	13.36	-28.3	-30.5	14.3	3.00e-06	0	44	0	343932928	16	4638
2026-01-30 02:47:05.91	353.10	13.41	-28.3	-30.4	14.3	7.00e-07	0	43	0	347078656	16	4598
2026-01-30 02:47:06.90	352.93	13.47	-28.3	-30.5	14.3	2.37e-04	0	44	0	350224384	16	4637
2026-01-30 02:47:07.91	352.76	13.52	-28.3	-30.4	14.4	2.23e-04	0	43	0	353370112	16	4592
2026-01-30 02:47:08.91	352.58	13.57	-28.3	-30.4	14.4	0.00e+00	0	43	0	356515840	16	4596
2026-01-30 02:47:09.91	352.41	13.62	-28.2	-30.3	14.5	0.00e+00	0	44	0	359661568	16	4549
2026-01-30 02:47:10.91	352.24	13.67	-28.4	-30.6	14.3	1.50e-06	0	44	0	362807296	16	4662
2026-01-30 02:47:11.92	352.06	13.73	-28.3	-30.4	14.4	3.00e-06	0	44	0	365953024	16	4597
2026-01-30 02:47:12.92	351.89	13.78	-28.3	-30.3	14.4	7.00e-07	0	44	0	369098752	16	4565
2026-01-30 02:47:13.92	351.71	13.83	-28.2	-30.2	14.5	0.00e+00	0	44	0	372244480	16	4535
2026-01-30 02:47:14.92	351.54	13.88	-28.2	-30.1	14.5	0.00e+00	0	44	0	375390208	16	4501
2026-01-30 02:47:15.92	351.36	13.93	-28.2	-30.2	14.5	7.00e-07	0	44	0	378535936	16	4543
2026-01-30 02:47:16.92	351.18	13.98	-28.1	-29.9	14.7	0.00e+00	0	44	0	381681664	16	4432
2026-01-30 02:47:17.92	351.01	14.03	-28.2	-30.1	14.6	7.00e-07	0	44	0	384827392	16	4497
2026-01-30 02:47:18.92	350.83	14.08	-28.1	-29.8	14.7	0.00e+00	0	44	0	387973120	16	4414
2026-01-30 02:47:19.92	350.65	14.13	-28.1	-30.0	14.7	0.00e+00	0	44	0	391118848	16	4457
2026-01-30 02:47:20.92	350.47	14.18	-28.2	-30.1	14.6	0.00e+00	0	43	0	394264576	16	4495
2026-01-30 02:47:21.93	350.29	14.23	-28.3	-30.4	14.4	1.50e-06	0	43	0	397410304	16	4585
2026-01-30 02:47:22.94	350.10	14.28	-28.3	-30.4	14.4	7.00e-07	0	44	0	400556032	16	4589
2026-01-30 02:47:23.94	349.92	14.33	-28.4	-30.6	14.3	1.50e-06	0	43	0	403701760	16	4633
2026-01-30 02:47:24.95	349.74	14.38	-28.3	-30.3	14.5	1.50e-06	0	44	0	406847488	16	4560
2026-01-30 02:47:25.95	349.56	14.43	-28.2	-30.2	14.5	0.00e+00	0	44	0	409993216	16	4535
2026-01-30 02:47:26.95	349.37	14.48	-28.3	-30.4	14.4	7.00e-07	0	43	0	413138944	16	4583
2026-01-30 02:47:27.95	349.19	14.53	-28.2	-30.3	14.5	0.00e+00	0	44	0	416284672	16	4546
2026-01-30 02:47:28.95	349.01	14.57	-28.3	-30.4	14.4	1.50e-06	0	44	0	419430400	16	4596
2026-01-30 02:47:29.95	348.82	14.62	-28.3	-30.5	14.4	0.00e+00	0	44	0	422576128	16	4608
2026-01-30 02:47:30.96	348.63	14.67	-28.3	-30.5	14.4	7.00e-07	0	44	0	425721856	16	4607
2026-01-30 02:47:31.96	348.45	14.72	-28.5	-30.8	14.2	0.00e+00	0	44	0	428867584	16	4696
2026-01-30 02:47:32.96	348.26	14.77	-28.4	-30.6	14.3	7.00e-07	0	44	0	432013312	16	4661
2026-01-30 02:47:33.96	348.07	14.81	-28.3	-30.5	14.4	0.00e+00	0	44	0	435159040	16	4606
2026-01-30 02:47:34.96	347.89	14.86	-28.4	-30.7	14.3	2.20e-06	0	44	0	438304768	16	4669
2026-01-30 02:47:35.97	347.69	14.91	-28.3	-30.5	14.4	2.20e-06	0	44	0	441450496	16	4611
2026-01-30 02:47:36.98	347.50	14.95	-28.3	-30.4	14.4	7.00e-07	0	44	0	444596224	16	4598
2026-01-30 02:47:37.98	347.31	15.00	-28.4	-30.7	14.3	1.50e-06	0	44	0	447741952	16	4665
2026-01-30 02:47:38.98	347.12	15.05	-28.3	-30.3	14.5	0.00e+00	0	44	0	450887680	16	4565
2026-01-30 02:47:39.98	346.93	15.09	-28.2	-30.3	14.5	0.00e+00	0	44	0	454033408	16	4540
2026-01-30 02:47:40.98	346.74	15.14	-28.3	-30.3	14.5	1.50e-06	0	44	0	457179136	16	4566
2026-01-30 02:47:41.99	346.55	15.18	-28.4	-30.5	14.4	0.00e+00	0	44	0	460324864	16	4615
2026-01-30 02:47:42.99	346.35	15.23	-28.4	-30.6	14.4	1.50e-06	0	44	0	463470592	16	4655
2026-01-30 02:47:43.99	346.16	15.27	-28.3	-30.4	14.5	0.00e+00	0	44	0	466616320	16	4593
2026-01-30 02:47:45.00	345.96	15.32	-28.3	-30.4	14.5	0.00e+00	0	44	0	469762048	16	4570
2026-01-30 02:47:46.01	345.77	15.36	-28.4	-30.6	14.4	7.00e-07	0	44	0	472907776	16	4656
2026-01-30 02:47:47.01	345.57	15.41	-28.3	-30.3	14.5	1.50e-06	0	44	0	476053504	16	4546
2026-01-30 02:47:48.00	345.38	15.45	-28.3	-30.4	14.5	0.00e+00	0	44	0	479199232	16	4574
2026-01-30 02:47:49.01	345.18	15.50	-28.3	-30.5	14.4	7.00e-07	0	44	0	482344960	16	4599
2026-01-30 02:47:50.00	344.99	15.54	-28.3	-30.4	14.5	7.00e-07	0	44	0	485490688	16	4576
2026-01-30 02:47:51.01	344.79	15.58	-28.2	-30.3	14.6	1.50e-06	0	44	0	488636416	16	4540
2026-01-30 02:47:52.01	344.59	15.63	-28.3	-30.3	14.6	7.00e-07	0	44	0	491782144	16	4549
2026-01-30 02:47:53.01	344.39	15.67	-28.3	-30.5	14.4	7.00e-07	0	44	0	494927872	16	4604
2026-01-30 02:47:54.02	344.19	15.71	-28.2	-30.2	14.6	7.00e-07	0	44	0	498073600	16	4524
2026-01-30 02:47:55.02	343.99	15.75	-28.2	-30.1	14.7	1.50e-06	0	44	0	501219328	16	4493
2026-01-30 02:47:56.02	343.79	15.79	-28.2	-30.1	14.7	7.00e-07	0	44	0	504365056	16	4482
2026-01-30 02:47:57.03	343.58	15.84	-28.2	-30.2	14.6	7.00e-07	0	44	0	507510784	16	4534
2026-01-30 02:47:58.04	343.38	15.88	-28.0	-29.7	14.9	0.00e+00	0	44	0	510656512	16	4389
2026-01-30 02:47:59.04	343.18	15.92	-27.9	-29.6	15.0	0.00e+00	0	44	0	513802240	16	4338
2026-01-30 02:48:00.04	342.98	15.96	-27.9	-29.6	15.0	0.00e+00	0	44	0	516947968	16	4332
2026-01-30 02:48:01.04	342.77	16.00	-28.1	-29.9	14.8	0.00e+00	0	44	0	520093696	16	4431
2026-01-30 02:48:02.04	342.57	16.04	-27.8	-29.3	15.1	0.00e+00	0	44	0	523239424	16	4267
2026-01-30 02:48:03.05	342.36	16.08	-27.8	-29.3	15.1	7.00e-07	0	44	0	526385152	16	4253
2026-01-30 02:48:04.05	342.16	16.12	-27.9	-29.5	15.0	0.00e+00	0	44	0	529530880	16	4319
2026-01-30 02:48:05.05	341.95	16.16	-27.7	-29.0	15.3	0.00e+00	0	44	0	531628032	16	4192
2026-01-30 02:48:06.06	341.74	16.20	-27.6	-28.8	15.4	0.00e+00	0	44	0	534773760	16	4131
2026-01-30 02:48:07.07	341.54	16.24	-27.6	-28.9	15.4	0.00e+00	0	44	0	538968064	16	4146
2026-01-30 02:48:08.07	341.33	16.27	-27.7	-29.0	15.3	0.00e+00	0	44	0	542113792	16	4190
2026-01-30 02:48:09.07	341.12	16.31	-27.7	-28.9	15.3	1.11e-04	0	44	0	545259520	16	4148
2026-01-30 02:48:10.07	340.91	16.35	-27.6	-28.8	15.4	1.05e-04	0	44	0	548405248	16	4125
2026-01-30 02:48:11.07	340.70	16.39	-27.6	-28.8	15.4	0.00e+00	0	44	0	551550976	16	4114
2026-01-30 02:48:12.07	340.49	16.42	-27.7	-29.1	15.3	0.00e+00	0	44	0	553648128	16	4199
2026-01-30 02:48:13.08	340.28	16.46	-27.6	-28.7	15.4	0.00e+00	0	43	0	556793856	16	4110
2026-01-30 02:48:14.08	340.07	16.50	-27.6	-28.7	15.5	0.00e+00	0	44	0	559939584	16	4098
2026-01-30 02:48:15.08	339.86	16.53	-27.7	-28.9	15.3	7.00e-07	0	44	0	563085312	16	4157
2026-01-30 02:48:16.08	339.65	16.57	-27.8	-29.2	15.2	0.00e+00	0	44	0	566231040	16	4227
2026-01-30 02:48:17.08	339.44	16.60	-27.8	-29.2	15.2	0.00e+00	0	44	0	569376768	16	4222
2026-01-30 02:48:18.08	339.23	16.64	-27.8	-29.2	15.2	0.00e+00	0	44	0	572522496	16	4248
2026-01-30 02:48:19.09	339.01	16.67	-27.8	-29.2	15.2	3.50e-05	0	44	0	575668224	16	4242
2026-01-30 02:48:20.08	338.80	16.71	-27.8	-29.3	15.1	0.00e+00	0	44	0	578813952	16	4265
2026-01-30 02:48:21.08	338.59	16.74	-27.9	-29.6	15.0	7.00e-07	0	44	0	581959680	16	4338
2026-01-30 02:48:22.09	338.37	16.77	-27.8	-29.3	15.2	7.00e-07	0	44	0	585105408	16	4263
2026-01-30 02:48:23.10	338.15	16.81	-27.9	-29.5	15.0	0.00e+00	0	44	0	588251136	16	4323
2026-01-30 02:48:24.09	337.94	16.84	-27.8	-29.2	15.2	2.82e-04	0	44	0	591396864	16	4221
2026-01-30 02:48:25.09	337.72	16.87	-27.8	-29.1	15.2	2.05e-04	0	44	0	594542592	16	4217
2026-01-30 02:48:26.10	337.51	16.90	-27.9	-29.4	15.1	0.00e+00	0	44	0	597688320	16	4292
2026-01-30 02:48:27.10	337.29	16.94	-27.8	-29.2	15.2	0.00e+00	0	44	0	600834048	16	4235
2026-01-30 02:48:28.09	337.07	16.97	-27.8	-29.3	15.1	0.00e+00	0	44	0	603979776	16	4264
2026-01-30 02:48:29.10	336.86	17.00	-27.9	-29.5	15.0	0.00e+00	0	44	0	607125504	16	4320
2026-01-30 02:48:30.10	336.64	17.03	-27.9	-29.4	15.1	0.00e+00	0	44	0	610271232	16	4294
2026-01-30 02:48:31.11	336.42	17.06	-27.7	-29.1	15.3	1.30e-04	0	44	0	613416960	16	4200
2026-01-30 02:48:32.12	336.20	17.09	-27.7	-29.0	15.3	0.00e+00	0	44	0	616562688	16	4171
2026-01-30 02:48:33.12	335.98	17.12	-27.6	-29.4	15.2	3.55e-04	0	44	0	619708416	15	4397
2026-01-30 02:48:34.12	335.76	17.14	-27.6	-29.3	15.2	4.94e-04	0	44	0	622854144	15	4389
2026-01-30 02:48:35.12	335.54	17.17	-27.6	-29.2	15.3	0.00e+00	0	44	0	625999872	15	4355
2026-01-30 02:48:36.12	335.32	17.20	-27.7	-29.5	15.1	5.71e-04	0	44	0	629145600	15	4433
2026-01-30 02:48:37.13	335.09	17.23	-27.5	-29.1	15.4	0.00e+00	0	44	0	632291328	15	4332
2026-01-30 02:48:38.13	334.87	17.26	-27.5	-29.2	15.4	0.00e+00	0	44	0	635437056	15	4340
2026-01-30 02:48:39.14	334.65	17.28	-27.6	-29.4	15.2	2.33e-04	0	44	0	638582784	15	4412
2026-01-30 02:48:40.14	334.43	17.31	-27.6	-29.3	15.3	1.60e-05	0	44	0	641728512	15	4392
2026-01-30 02:48:41.13	334.20	17.34	-27.6	-29.4	15.2	0.00e+00	0	44	0	644874240	15	4414
2026-01-30 02:48:42.14	333.98	17.36	-27.7	-29.6	15.1	0.00e+00	0	44	0	648019968	15	4473
2026-01-30 02:48:43.14	333.76	17.39	-27.7	-29.5	15.2	0.00e+00	0	44	0	651165696	15	4426
2026-01-30 02:48:44.14	333.53	17.41	-27.7	-29.5	15.2	0.00e+00	0	44	0	654311424	15	4433
2026-01-30 02:48:45.14	333.31	17.43	-27.7	-29.6	15.1	2.43e-04	0	44	0	657457152	15	4457
2026-01-30 02:48:46.15	333.08	17.46	-27.7	-29.5	15.1	0.00e+00	0	44	0	660602880	15	4438
2026-01-30 02:48:47.15	332.86	17.48	-27.7	-29.5	15.1	0.00e+00	0	44	0	663748608	15	4436
2026-01-30 02:48:48.15	332.63	17.50	-27.8	-29.8	15.0	0.00e+00	0	44	0	666894336	15	4537
2026-01-30 02:48:49.15	332.41	17.53	-27.8	-29.8	14.9	3.48e-04	0	44	0	670040064	15	4543
2026-01-30 02:48:50.15	332.18	17.55	-28.2	-30.2	14.6	7.00e-07	0	44	0	673185792	16	4518
2026-01-30 02:48:51.15	331.95	17.57	-27.9	-29.6	15.0	0.00e+00	0	44	0	676331520	16	4343
2026-01-30 02:48:52.15	331.73	17.59	-27.8	-29.1	15.3	0.00e+00	0	44	0	679477248	16	4211
2026-01-30 02:48:53.15	331.50	17.61	-27.7	-28.9	15.4	0.00e+00	0	44	0	682622976	16	4162
2026-01-30 02:48:54.15	331.27	17.63	-27.6	-29.2	15.3	0.00e+00	0	44	0	685768704	15	4360
2026-01-30 02:48:55.16	331.04	17.65	-27.4	-28.9	15.5	6.89e-04	0	44	0	688914432	15	4282
2026-01-30 02:48:56.16	330.82	17.67	-27.4	-28.8	15.5	0.00e+00	0	44	0	692060160	15	4255
2026-01-30 02:48:57.16	330.59	17.69	-27.4	-29.4	15.5	0.00e+00	0	44	0	695205888	14	4527
2026-01-30 02:48:58.16	330.36	17.71	-27.5	-29.5	15.4	7.00e-07	0	44	0	698351616	14	4559
2026-01-30 02:48:59.17	330.13	17.73	-27.5	-29.1	15.4	0.00e+00	0	44	0	701497344	15	4329
2026-01-30 02:49:00.18	329.90	17.75	-27.7	-29.4	15.2	0.00e+00	0	44	0	704643072	15	4425
2026-01-30 02:49:01.18	329.67	17.76	-27.5	-29.1	15.4	0.00e+00	0	44	0	707788800	15	4327
2026-01-30 02:49:02.17	329.44	17.78	-27.5	-29.1	15.4	0.00e+00	0	44	0	710934528	15	4319
2026-01-30 02:49:03.18	329.21	17.80	-27.6	-29.2	15.4	0.00e+00	0	44	0	714080256	15	4340
2026-01-30 02:49:04.19	328.98	17.81	-27.5	-29.0	15.5	7.00e-07	0	44	0	717225984	15	4289
2026-01-30 02:49:05.19	328.75	17.83	-27.5	-29.0	15.4	7.00e-07	0	44	0	720371712	15	4301
2026-01-30 02:49:06.19	328.52	17.84	-27.5	-29.2	15.3	0.00e+00	0	44	0	723517440	15	4348
2026-01-30 02:49:07.19	328.29	17.86	-27.6	-29.4	15.2	0.00e+00	0	44	0	726663168	15	4405
2026-01-30 02:49:08.20	328.05	17.87	-27.8	-29.7	15.1	0.00e+00	0	44	0	729808896	15	4486
2026-01-30 02:49:09.20	327.82	17.88	-27.7	-29.6	15.1	0.00e+00	0	44	0	732954624	15	4452
2026-01-30 02:49:10.20	327.59	17.90	-27.7	-29.5	15.1	0.00e+00	0	44	0	736100352	15	4439
2026-01-30 02:49:11.20	327.36	17.91	-27.7	-29.5	15.2	0.00e+00	0	44	0	739246080	15	4438
2026-01-30 02:49:12.20	327.13	17.92	-27.7	-29.6	15.1	0.00e+00	0	44	0	742391808	15	4471
2026-01-30 02:49:13.20	326.90	17.93	-27.8	-29.8	15.0	0.00e+00	0	44	0	745537536	15	4524
2026-01-30 02:49:14.21	326.66	17.94	-27.7	-29.5	15.1	7.00e-07	0	44	0	748683264	15	4451
2026-01-30 02:49:15.21	326.43	17.95	-27.7	-29.6	15.1	7.00e-07	0	44	0	751828992	15	4464
2026-01-30 02:49:16.22	326.19	17.96	-27.6	-29.3	15.3	0.00e+00	0	44	0	754974720	15	4376
2026-01-30 02:49:17.22	325.96	17.97	-27.6	-29.3	15.3	0.00e+00	0	44	0	758120448	15	4363
2026-01-30 02:49:18.22	325.73	17.98	-27.7	-29.4	15.2	0.00e+00	0	44	0	761266176	15	4418
2026-01-30 02:49:19.22	325.50	17.99	-27.6	-29.3	15.3	0.00e+00	0	44	0	764411904	15	4381
2026-01-30 02:49:20.22	325.26	18.00	-27.6	-29.4	15.2	0.00e+00	0	44	0	767557632	15	4397
2026-01-30 02:49:21.23	325.03	18.01	-27.6	-29.2	15.3	0.00e+00	0	44	0	770703360	15	4352
2026-01-30 02:49:22.24	324.79	18.01	-27.5	-29.0	15.4	0.00e+00	0	44	0	773849088	15	4289
2026-01-30 02:49:23.24	324.56	18.02	-27.5	-29.0	15.5	0.00e+00	0	44	0	776994816	15	4287
2026-01-30 02:49:24.25	324.32	18.03	-27.6	-29.2	15.3	0.00e+00	0	44	0	780140544	15	4359
2026-01-30 02:49:25.25	324.09	18.03	-27.6	-29.2	15.3	0.00e+00	0	44	0	782237696	15	4364
2026-01-30 02:49:26.25	323.86	18.04	-27.6	-29.2	15.3	0.00e+00	0	44	0	785383424	15	4359
2026-01-30 02:49:27.25	323.62	18.04	-27.6	-29.2	15.3	0.00e+00	0	44	0	788529152	15	4355
2026-01-30 02:49:28.24	323.39	18.04	-27.7	-29.5	15.2	0.00e+00	0	44	0	791674880	15	4425
2026-01-30 02:49:29.25	323.15	18.05	-27.6	-29.3	15.3	0.00e+00	0	44	0	794820608	15	4374
2026-01-30 02:49:30.24	322.92	18.05	-27.6	-29.4	15.2	0.00e+00	0	44	0	797966336	15	4392
2026-01-30 02:49:31.25	322.69	18.05	-27.7	-29.5	15.1	0.00e+00	0	44	0	801112064	15	4426
2026-01-30 02:49:32.26	322.45	18.06	-27.7	-29.6	15.1	0.00e+00	0	44	0	804257792	15	4467
2026-01-30 02:49:33.27	322.21	18.06	-27.8	-29.7	15.0	7.00e-07	0	43	0	807403520	15	4505
2026-01-30 02:49:34.26	321.98	18.06	-27.8	-29.8	15.0	0.00e+00	0	44	0	810549248	15	4526
2026-01-30 02:49:35.27	321.75	18.06	-27.8	-29.7	15.0	0.00e+00	0	44	0	813694976	15	4514
2026-01-30 02:49:36.27	321.51	18.06	-27.8	-29.9	14.9	7.00e-07	0	44	0	816840704	15	4548
2026-01-30 02:49:37.27	321.28	18.06	-27.8	-29.8	15.0	7.00e-07	0	44	0	819986432	15	4524
2026-01-30 02:49:38.27	321.04	18.06	-27.7	-29.5	15.2	0.00e+00	0	44	0	823132160	15	4426
2026-01-30 02:49:39.27	320.81	18.06	-27.5	-29.1	15.4	0.00e+00	0	44	0	826277888	15	4319
2026-01-30 02:49:40.28	320.57	18.06	-27.4	-28.9	15.5	0.00e+00	0	44	0	829423616	15	4260
2026-01-30 02:49:41.28	320.34	18.05	-27.4	-28.9	15.5	0.00e+00	0	44	0	832569344	15	4274
2026-01-30 02:49:42.29	320.10	18.05	-27.5	-29.0	15.4	0.00e+00	0	44	0	835715072	15	4297
2026-01-30 02:49:43.29	319.87	18.05	-27.4	-28.8	15.5	0.00e+00	0	44	0	838860800	15	4252
2026-01-30 02:49:44.29	319.64	18.04	-27.5	-29.1	15.4	0.00e+00	0	44	0	842006528	15	4313
2026-01-30 02:49:45.29	319.40	18.04	-27.5	-29.1	15.4	0.00e+00	0	44	0	845152256	15	4332
2026-01-30 02:49:46.29	319.17	18.03	-27.3	-28.7	15.6	7.00e-07	0	44	0	848297984	15	4203
2026-01-30 02:49:47.29	318.93	18.03	-27.3	-28.6	15.7	0.00e+00	0	44	0	851443712	15	4171
2026-01-30 02:49:48.30	318.70	18.02	-27.3	-28.6	15.7	0.00e+00	0	44	0	854589440	15	4183
2026-01-30 02:49:49.30	318.47	18.02	-27.3	-28.5	15.7	0.00e+00	0	44	0	857735168	15	4165
2026-01-30 02:49:50.30	318.23	18.01	-27.2	-28.3	15.8	2.13e-05	0	44	0	860880896	15	4113
2026-01-30 02:49:51.31	318.00	18.00	-27.2	-28.4	15.7	1.44e-05	0	44	0	864026624	15	4142
2026-01-30 02:49:52.31	317.76	17.99	-27.3	-28.7	15.6	0.00e+00	0	44	0	867172352	15	4200
2026-01-30 02:49:53.32	317.53	17.99	-27.4	-28.8	15.6	0.00e+00	0	44	0	870318080	15	4238
2026-01-30 02:49:54.32	317.29	17.98	-27.4	-29.0	15.5	0.00e+00	0	44	0	873463808	15	4286
2026-01-30 02:49:55.33	317.06	17.97	-27.4	-28.9	15.5	0.00e+00	0	44	0	876609536	15	4271
2026-01-30 02:49:56.33	316.83	17.96	-27.5	-29.1	15.4	1.96e-04	0	44	0	879755264	15	4332
2026-01-30 02:49:57.33	316.59	17.95	-27.6	-29.3	15.3	5.72e-05	0	44	0	882900992	15	4379
2026-01-30 02:49:58.33	316.36	17.94	-27.5	-29.1	15.4	0.00e+00	0	44	0	886046720	15	4333
2026-01-30 02:49:59.33	316.13	17.93	-27.5	-29.1	15.4	0.00e+00	0	44	0	889192448	15	4313
2026-01-30 02:50:00.34	315.90	17.92	-27.5	-29.1	15.4	8.54e-05	0	44	0	892338176	15	4317
2026-01-30 02:50:01.34	315.66	17.90	-27.4	-28.9	15.5	0.00e+00	0	44	0	895483904	15	4255
2026-01-30 02:50:02.35	315.43	17.89	-27.5	-29.0	15.4	0.00e+00	0	44	0	898629632	15	4284
2026-01-30 02:50:03.36	315.20	17.88	-27.5	-29.0	15.4	0.00e+00	0	44	0	901775360	15	4303
2026-01-30 02:50:04.36	314.97	17.86	-27.5	-29.1	15.4	0.00e+00	0	44	0	904921088	15	4313
2026-01-30 02:50:05.36	314.73	17.85	-27.5	-29.1	15.4	3.20e-04	0	44	0	908066816	15	4332
2026-01-30 02:50:06.36	314.50	17.84	-27.5	-29.0	15.4	5.01e-04	0	44	0	911212544	15	4305
2026-01-30 02:50:07.36	314.27	17.82	-27.4	-28.8	15.5	0.00e+00	0	44	0	914358272	15	4251
2026-01-30 02:50:08.36	314.04	17.81	-27.4	-28.9	15.5	5.90e-04	0	44	0	917504000	15	4277
2026-01-30 02:50:09.36	313.81	17.79	-27.4	-29.5	15.4	6.79e-04	0	44	0	920649728	14	4550
2026-01-30 02:50:10.36	313.58	17.77	-27.5	-29.5	15.4	0.00e+00	0	44	0	923795456	14	4551
2026-01-30 02:50:11.37	313.35	17.76	-27.6	-29.4	15.3	1.26e-03	0	44	0	926941184	15	4406
2026-01-30 02:50:12.37	313.12	17.74	-27.7	-29.6	15.1	1.66e-03	0	44	0	930086912	15	4465
2026-01-30 02:50:13.38	312.89	17.72	-27.6	-29.4	15.2	0.00e+00	0	44	0	933232640	15	4409
2026-01-30 02:50:14.38	312.66	17.70	-27.7	-29.4	15.2	0.00e+00	0	44	0	936378368	15	4420
2026-01-30 02:50:15.39	312.43	17.68	-27.7	-29.5	15.1	0.00e+00	0	44	0	939524096	15	4432
2026-01-30 02:50:16.38	312.20	17.66	-27.6	-29.4	15.2	0.00e+00	0	44	0	942669824	15	4415
2026-01-30 02:50:17.38	311.98	17.65	-27.7	-29.6	15.1	1.29e-03	0	44	0	945815552	15	4479
2026-01-30 02:50:18.38	311.75	17.63	-27.8	-29.8	14.9	0.00e+00	0	44	0	948961280	15	4537
2026-01-30 02:50:19.38	311.52	17.61	-27.8	-29.8	14.9	7.00e-07	0	44	0	952107008	15	4534
2026-01-30 02:50:20.39	311.29	17.58	-27.8	-29.8	14.9	0.00e+00	0	44	0	955252736	15	4538
2026-01-30 02:50:21.39	311.07	17.56	-27.7	-29.5	15.1	1.83e-03	0	44	0	958398464	15	4440
2026-01-30 02:50:22.39	310.84	17.54	-27.6	-29.2	15.2	0.00e+00	0	44	0	961544192	15	4367
2026-01-30 02:50:23.40	310.61	17.52	-27.6	-29.2	15.2	0.00e+00	0	44	0	964689920	15	4364
2026-01-30 02:50:24.41	310.38	17.50	-27.6	-29.3	15.2	0.00e+00	0	44	0	967835648	15	4387
2026-01-30 02:50:25.42	310.15	17.47	-27.5	-29.1	15.3	0.00e+00	0	44	0	970981376	15	4335
2026-01-30 02:50:26.42	309.93	17.45	-27.5	-29.2	15.3	0.00e+00	0	44	0	974127104	15	4351
2026-01-30 02:50:27.42	309.71	17.42	-27.6	-29.2	15.3	1.74e-03	0	44	0	977272832	15	4363
2026-01-30 02:50:28.43	309.48	17.40	-27.6	-29.4	15.1	0.00e+00	0	44	0	980418560	15	4417
2026-01-30 02:50:29.44	309.25	17.37	-27.7	-29.5	15.1	0.00e+00	0	44	0	983564288	15	4449
2026-01-30 02:50:30.44	309.03	17.35	-27.6	-29.3	15.2	0.00e+00	0	44	0	986710016	15	4388
2026-01-30 02:50:31.44	308.81	17.32	-27.6	-29.3	15.2	0.00e+00	0	44	0	989855744	15	4394
2026-01-30 02:50:32.44	308.58	17.30	-27.6	-29.4	15.2	0.00e+00	0	44	0	993001472	15	4409
2026-01-30 02:50:33.44	308.36	17.27	-27.6	-29.2	15.2	0.00e+00	0	44	0	996147200	15	4367
2026-01-30 02:50:34.45	308.14	17.24	-27.5	-29.2	15.3	0.00e+00	0	44	0	999292928	15	4345
2026-01-30 02:50:35.45	307.91	17.22	-27.6	-29.2	15.2	0.00e+00	0	44	0	1002438656	15	4368
2026-01-30 02:50:36.46	307.69	17.19	-27.7	-29.5	15.1	0.00e+00	0	44	0	1005584384	15	4431
2026-01-30 02:50:37.46	307.47	17.16	-27.7	-29.6	15.0	0.00e+00	0	44	0	1008730112	15	4463
2026-01-30 02:50:38.47	307.25	17.13	-27.5	-29.1	15.3	0.00e+00	0	44	0	1011875840	15	4340
2026-01-30 02:50:39.47	307.03	17.10	-27.4	-29.0	15.3	0.00e+00	0	44	0	1015021568	15	4298
2026-01-30 02:50:40.47	306.81	17.07	-27.4	-29.0	15.3	0.00e+00	0	44	0	1018167296	15	4304
2026-01-30 02:50:41.48	306.59	17.04	-27.4	-28.9	15.4	0.00e+00	0	44	0	1021313024	15	4258
2026-01-30 02:50:42.48	306.37	17.01	-27.4	-29.0	15.4	0.00e+00	0	44	0	1024458752	15	4287
2026-01-30 02:50:43.48	306.15	16.98	-27.4	-29.0	15.4	0.00e+00	0	44	0	1027604480	15	4287
2026-01-30 02:50:44.48	305.93	16.95	-27.5	-29.6	15.3	0.00e+00	0	44	0	1030750208	14	4583
2026-01-30 02:50:45.48	305.71	16.92	-27.6	-29.4	15.1	0.00e+00	0	44	0	1033895936	15	4410
2026-01-30 02:50:46.49	305.50	16.89	-27.7	-29.5	15.0	0.00e+00	0	44	0	1037041664	15	4450
2026-01-30 02:50:47.48	305.28	16.86	-27.6	-29.4	15.1	0.00e+00	0	44	0	1040187392	15	4406
2026-01-30 02:50:48.49	305.06	16.82	-27.6	-29.3	15.2	0.00e+00	0	44	0	1043333120	15	4387
2026-01-30 02:50:49.49	304.85	16.79	-27.5	-29.2	15.2	2.20e-06	0	44	0	1046478848	15	4357
2026-01-30 02:50:50.50	304.63	16.76	-27.5	-29.1	15.3	0.00e+00	0	44	0	1049624576	15	4335
2026-01-30 02:50:51.50	304.42	16.72	-27.5	-29.2	15.2	0.00e+00	0	44	0	1052770304	15	4350
2026-01-30 02:50:52.50	304.20	16.69	-27.5	-29.1	15.3	0.00e+00	0	44	0	1055916032	15	4322
2026-01-30 02:50:53.51	303.99	16.66	-27.4	-28.8	15.4	0.00e+00	0	44	0	1059061760	15	4239
2026-01-30 02:50:54.51	303.77	16.62	-27.4	-29.3	15.4	0.00e+00	0	44	0	1062207488	14	4485
2026-01-30 02:50:55.52	303.56	16.59	-27.5	-29.5	15.3	7.00e-07	0	44	0	1065353216	14	4568
2026-01-30 02:50:56.53	303.34	16.55	-27.6	-29.3	15.2	0.00e+00	0	44	0	1068498944	15	4378
2026-01-30 02:50:57.53	303.13	16.51	-27.7	-29.5	15.0	0.00e+00	0	44	0	1071644672	15	4458
2026-01-30 02:50:58.54	302.92	16.48	-27.6	-29.4	15.1	3.80e-06	0	44	0	1074790400	15	4427
2026-01-30 02:50:59.54	302.71	16.44	-27.6	-29.4	15.1	0.00e+00	0	44	0	1077936128	15	4406
2026-01-30 02:51:00.55	302.50	16.40	-27.6	-29.4	15.1	0.00e+00	0	44	0	1081081856	15	4416
2026-01-30 02:51:01.55	302.29	16.37	-27.7	-29.6	15.0	0.00e+00	0	44	0	1083179008	15	4466
2026-01-30 02:51:02.56	302.08	16.33	-27.7	-29.5	15.0	0.00e+00	0	44	0	1086324736	15	4454
2026-01-30 02:51:03.56	301.87	16.29	-27.6	-29.3	15.1	0.00e+00	0	44	0	1089470464	15	4375
2026-01-30 02:51:04.57	301.66	16.25	-27.6	-29.3	15.1	3.00e-06	0	44	0	1093664768	15	4379
2026-01-30 02:51:05.56	301.45	16.22	-27.6	-29.3	15.1	0.00e+00	0	44	0	1096810496	15	4381
2026-01-30 02:51:06.57	301.24	16.18	-27.6	-29.3	15.1	0.00e+00	0	44	0	1099956224	15	4392
2026-01-30 02:51:07.57	301.04	16.14	-27.5	-29.2	15.1	0.00e+00	0	44	0	1103101952	15	4362
2026-01-30 02:51:08.58	300.83	16.10	-27.5	-29.0	15.2	0.00e+00	0	44	0	1106247680	15	4318
2026-01-30 02:51:09.58	300.62	16.06	-27.6	-29.3	15.1	0.00e+00	0	44	0	1108344832	15	4400
2026-01-30 02:51:10.59	300.42	16.02	-27.6	-29.4	15.0	0.00e+00	0	44	0	1111490560	15	4429
2026-01-30 02:51:11.59	300.21	15.98	-27.7	-29.5	15.0	0.00e+00	0	44	0	1114636288	15	4438
2026-01-30 02:51:12.59	300.01	15.94	-27.6	-29.4	15.0	0.00e+00	0	44	0	1117782016	15	4432
2026-01-30 02:51:13.59	299.81	15.90	-27.6	-29.3	15.1	0.00e+00	0	44	0	1120927744	15	4383
2026-01-30 02:51:14.60	299.60	15.86	-27.7	-29.5	15.0	1.50e-06	0	44	0	1124073472	15	4450
2026-01-30 02:51:15.61	299.40	15.81	-27.6	-29.3	15.1	0.00e+00	0	44	0	1127219200	15	4387
2026-01-30 02:51:16.60	299.20	15.77	-27.5	-29.1	15.2	0.00e+00	0	44	0	1130364928	15	4321
2026-01-30 02:51:17.60	299.00	15.73	-27.5	-29.2	15.1	0.00e+00	0	44	0	1133510656	15	4360
2026-01-30 02:51:18.61	298.79	15.69	-27.5	-29.1	15.1	0.00e+00	0	44	0	1136656384	15	4333
2026-01-30 02:51:19.61	298.59	15.64	-27.4	-29.0	15.2	0.00e+00	0	44	0	1139802112	15	4298
2026-01-30 02:51:20.61	298.40	15.60	-27.5	-29.1	15.2	0.00e+00	0	44	0	1142947840	15	4337
2026-01-30 02:51:21.61	298.20	15.56	-27.5	-29.1	15.2	0.00e+00	0	44	0	1146093568	15	4346
2026-01-30 02:51:22.62	298.00	15.52	-27.5	-29.2	15.1	0.00e+00	0	44	0	1149239296	15	4361
2026-01-30 02:51:23.62	297.80	15.47	-27.6	-29.3	15.1	0.00e+00	0	44	0	1152385024	15	4399
2026-01-30 02:51:24.62	297.60	15.43	-27.7	-29.5	14.9	0.00e+00	0	44	0	1155530752	15	4449
2026-01-30 02:51:25.63	297.41	15.38	-27.7	-29.7	14.9	7.00e-07	0	44	0	1158676480	15	4495
2026-01-30 02:51:26.63	297.21	15.34	-27.7	-29.6	14.9	7.00e-07	0	44	0	1161822208	15	4472
2026-01-30 02:51:27.63	297.01	15.29	-27.6	-29.4	15.0	0.00e+00	0	44	0	1164967936	15	4409
2026-01-30 02:51:28.63	296.82	15.25	-27.6	-29.4	15.0	4.59e-04	0	44	0	1168113664	15	4415
2026-01-30 02:51:29.64	296.62	15.20	-27.6	-29.3	15.0	5.27e-04	0	44	0	1171259392	15	4396
2026-01-30 02:51:30.64	296.43	15.16	-27.5	-29.0	15.2	0.00e+00	0	44	0	1174405120	15	4310
2026-01-30 02:51:31.64	296.24	15.11	-27.5	-29.1	15.1	0.00e+00	0	44	0	1177550848	15	4348
2026-01-30 02:51:32.65	296.04	15.07	-27.5	-29.1	15.2	0.00e+00	0	44	0	1180696576	15	4328
2026-01-30 02:51:33.65	295.85	15.02	-27.6	-29.3	15.0	0.00e+00	0	44	0	1183842304	15	4385
2026-01-30 02:51:34.65	295.66	14.97	-27.6	-29.4	15.0	0.00e+00	0	44	0	1186988032	15	4422
2026-01-30 02:51:35.66	295.47	14.93	-27.8	-29.8	14.7	0.00e+00	0	44	0	1190133760	15	4543
2026-01-30 02:51:36.66	295.28	14.88	-27.9	-30.0	14.6	7.00e-07	0	44	0	1193279488	15	4606
2026-01-30 02:51:37.67	295.09	14.83	-28.2	-30.1	14.5	0.00e+00	0	44	0	1196425216	16	4502
2026-01-30 02:51:38.67	294.90	14.78	-28.1	-30.0	14.5	4.03e-04	0	44	0	1199570944	16	4490
2026-01-30 02:51:39.67	294.71	14.74	-28.0	-29.8	14.6	0.00e+00	0	44	0	1202716672	16	4405
2026-01-30 02:51:40.67	294.53	14.69	-27.9	-29.6	14.7	6.58e-04	0	44	0	1205862400	16	4365
2026-01-30 02:51:41.68	294.34	14.64	-27.8	-29.7	14.7	7.26e-04	0	44	0	1209008128	15	4518
2026-01-30 02:51:42.68	294.15	14.59	-27.7	-29.7	14.8	0.00e+00	0	44	0	1212153856	15	4511
2026-01-30 02:51:43.69	293.96	14.54	-27.7	-29.7	14.8	5.89e-04	0	44	0	1215299584	15	4511
2026-01-30 02:51:44.69	293.78	14.50	-27.8	-29.8	14.7	3.41e-04	0	44	0	1218445312	15	4535
2026-01-30 02:51:45.70	293.59	14.45	-27.8	-29.9	14.6	0.00e+00	0	44	0	1221591040	15	4572
2026-01-30 02:51:46.71	293.41	14.40	-27.8	-29.8	14.7	0.00e+00	0	44	0	1224736768	15	4542
2026-01-30 02:51:47.72	293.22	14.35	-27.7	-29.5	14.9	0.00e+00	0	44	0	1227882496	15	4452
2026-01-30 02:51:48.72	293.04	14.30	-27.7	-29.5	14.9	7.00e-07	0	44	0	1231028224	15	4449
2026-01-30 02:51:49.73	292.86	14.25	-27.6	-29.4	14.9	6.77e-04	0	44	0	1234173952	15	4423
2026-01-30 02:51:50.74	292.67	14.20	-27.6	-29.5	14.9	1.90e-03	0	44	0	1237319680	15	4444
2026-01-30 02:51:51.74	292.49	14.15	-27.6	-29.5	14.9	7.00e-07	0	44	0	1240465408	15	4450
2026-01-30 02:51:52.74	292.31	14.10	-27.7	-29.6	14.8	0.00e+00	0	44	0	1243611136	15	4487
2026-01-30 02:51:53.75	292.13	14.05	-27.6	-29.4	14.9	0.00e+00	0	44	0	1246756864	15	4434
2026-01-30 02:51:54.75	291.95	14.00	-27.7	-29.6	14.8	0.00e+00	0	44	0	1249902592	15	4478
2026-01-30 02:51:55.75	291.78	13.95	-27.7	-29.5	14.8	2.29e-03	0	44	0	1253048320	15	4461
2026-01-30 02:51:56.75	291.60	13.89	-27.8	-29.8	14.7	1.98e-03	0	44	0	1256194048	15	4550
2026-01-30 02:51:57.75	291.42	13.84	-27.8	-29.8	14.6	7.00e-07	0	44	0	1259339776	15	4545
2026-01-30 02:51:58.76	291.24	13.79	-27.8	-29.9	14.6	7.00e-07	0	44	0	1262485504	15	4576
2026-01-30 02:51:59.76	291.07	13.74	-27.8	-30.0	14.6	7.00e-07	0	44	0	1265631232	15	4592
2026-01-30 02:52:00.76	290.89	13.69	-28.0	-30.2	14.4	7.00e-07	0	44	0	1268776960	15	4676
2026-01-30 02:52:01.77	290.72	13.64	-28.2	-30.2	14.3	7.00e-07	0	44	0	1271922688	16	4548
2026-01-30 02:52:02.78	290.54	13.59	-28.3	-30.4	14.2	2.20e-06	0	44	0	1275068416	16	4598
2026-01-30 02:52:03.78	290.37	13.53	-28.2	-30.4	14.2	3.00e-06	0	44	0	1278214144	16	4591
2026-01-30 02:52:04.79	290.19	13.48	-28.2	-30.3	14.2	1.50e-06	0	44	0	1281359872	16	4574
2026-01-30 02:52:05.79	290.02	13.43	-28.2	-30.2	14.3	7.00e-07	0	44	0	1284505600	16	4558
2026-01-30 02:52:06.80	289.85	13.38	-28.1	-30.1	14.3	0.00e+00	0	44	0	1287651328	16	4521
2026-01-30 02:52:07.80	289.68	13.32	-28.2	-30.3	14.2	3.00e-06	0	44	0	1290797056	16	4562
2026-01-30 02:52:08.80	289.51	13.27	-28.2	-30.1	14.3	1.50e-06	0	44	0	1293942784	16	4527
2026-01-30 02:52:09.81	289.34	13.22	-28.1	-30.1	14.3	0.00e+00	0	44	0	1297088512	16	4521
2026-01-30 02:52:10.81	289.17	13.16	-28.1	-30.1	14.3	1.50e-06	0	44	0	1300234240	16	4520
2026-01-30 02:52:11.81	289.00	13.11	-28.2	-30.2	14.3	2.20e-06	0	44	0	1303379968	16	4539
2026-01-30 02:52:12.82	288.83	13.06	-28.1	-30.0	14.4	0.00e+00	0	44	0	1306525696	16	4482
2026-01-30 02:52:13.82	288.66	13.00	-28.1	-30.0	14.4	7.00e-07	0	44	0	1309671424	16	4477
2026-01-30 02:52:14.83	288.50	12.95	-28.0	-29.9	14.4	0.00e+00	0	44	0	1312817152	16	4462
2026-01-30 02:52:15.84	288.33	12.90	-28.0	-29.9	14.4	0.00e+00	0	44	0	1315962880	16	4445
2026-01-30 02:52:16.84	288.16	12.84	-28.1	-30.0	14.4	1.50e-06	0	44	0	1319108608	16	4492
2026-01-30 02:52:17.84	288.00	12.79	-28.1	-29.9	14.4	1.50e-06	0	44	0	1322254336	16	4475
2026-01-30 02:52:18.84	287.84	12.74	-28.1	-30.0	14.3	0.00e+00	0	44	0	1325400064	16	4494
2026-01-30 02:52:19.85	287.67	12.68	-28.0	-29.9	14.4	7.00e-07	0	44	0	1328545792	16	4454
2026-01-30 02:52:20.85	287.51	12.63	-28.1	-29.9	14.4	1.50e-06	0	44	0	1331691520	16	4474
2026-01-30 02:52:21.86	287.34	12.57	-28.1	-30.2	14.2	2.20e-06	0	44	0	1334837248	16	4541
2026-01-30 02:52:22.86	287.18	12.52	-28.2	-30.2	14.2	1.50e-06	0	44	0	1337982976	16	4554
2026-01-30 02:52:23.87	287.02	12.46	-28.2	-30.2	14.2	1.50e-06	0	44	0	1341128704	16	4550
2026-01-30 02:52:24.88	286.86	12.41	-28.2	-30.3	14.1	7.00e-07	0	44	0	1344274432	16	4592
2026-01-30 02:52:25.88	286.70	12.35	-28.4	-30.7	13.9	4.50e-06	0	44	0	1347420160	16	4707
2026-01-30 02:52:26.88	286.54	12.30	-28.3	-30.4	14.0	2.20e-06	0	44	0	1350565888	16	4626
2026-01-30 02:52:27.88	286.38	12.24	-28.1	-30.1	14.2	1.50e-06	0	44	0	1353711616	16	4524
2026-01-30 02:52:28.88	286.22	12.19	-28.1	-30.1	14.2	7.00e-07	0	44	0	1356857344	16	4527
2026-01-30 02:52:29.88	286.07	12.13	-28.2	-30.2	14.1	3.80e-06	0	44	0	1360003072	16	4550
2026-01-30 02:52:30.88	285.91	12.08	-28.3	-30.6	13.9	2.20e-06	0	44	0	1363148800	16	4665
2026-01-30 02:52:31.89	285.75	12.02	-28.2	-30.3	14.1	2.20e-06	0	44	0	1366294528	16	4582
2026-01-30 02:52:32.90	285.59	11.97	-28.1	-30.0	14.2	7.00e-07	0	44	0	1369440256	16	4489
2026-01-30 02:52:33.90	285.44	11.91	-28.1	-30.1	14.2	7.00e-07	0	44	0	1372585984	16	4518
2026-01-30 02:52:34.90	285.29	11.86	-28.3	-30.5	13.9	1.50e-06	0	44	0	1375731712	16	4654
2026-01-30 02:52:35.91	285.13	11.80	-28.4	-30.8	13.8	6.10e-06	0	44	0	1378877440	16	4734
2026-01-30 02:52:36.91	284.98	11.74	-28.6	-30.7	13.6	5.30e-06	0	44	0	1382023168	17	4593
2026-01-30 02:52:37.91	284.82	11.69	-28.7	-31.0	13.4	9.90e-06	0	44	0	1385168896	17	4695
2026-01-30 02:52:38.92	284.67	11.63	-28.7	-31.0	13.3	1.37e-05	0	44	0	1388314624	17	4697
2026-01-30 02:52:39.92	284.52	11.58	-28.7	-31.1	13.3	1.83e-05	0	44	0	1391460352	17	4735
2026-01-30 02:52:40.92	284.37	11.52	-28.7	-31.0	13.3	1.37e-05	0	44	0	1394606080	17	4687
2026-01-30 02:52:41.92	284.22	11.47	-28.7	-31.0	13.4	1.67e-05	0	44	0	1397751808	17	4687
2026-01-30 02:52:42.92	284.07	11.41	-28.7	-31.1	13.3	1.60e-05	0	44	0	1400897536	17	4714
2026-01-30 02:52:43.92	283.92	11.35	-28.8	-31.3	13.2	1.90e-05	0	44	0	1404043264	17	4800
2026-01-30 02:52:44.92	283.77	11.30	-28.7	-31.1	13.3	2.97e-05	0	44	0	1407188992	17	4715
2026-01-30 02:52:45.92	283.62	11.24	-27.7	-29.9	13.0	1.29e-05	0	44	0	1410334720	17	4635
2026-01-30 02:52:46.92	283.48	11.18	-28.6	-31.2	12.3	6.10e-06	0	44	0	1413480448	16	4871
2026-01-30 02:52:47.93	283.33	11.13	-28.5	-30.6	13.5	1.06e-05	0	44	0	1416626176	17	4573
2026-01-30 02:52:48.94	283.18	11.07	-28.5	-30.6	13.5	9.10e-06	0	44	0	1419771904	17	4585
2026-01-30 02:52:49.94	283.03	11.01	-28.6	-30.8	13.4	1.22e-05	0	44	0	1422917632	17	4648
2026-01-30 02:52:50.94	282.89	10.96	-28.6	-30.8	13.4	1.37e-05	0	44	0	1426063360	17	4641
2026-01-30 02:52:51.95	282.74	10.90	-28.5	-30.7	13.5	9.90e-06	0	44	0	1429209088	17	4585
2026-01-30 02:52:52.95	282.60	10.84	-28.6	-30.8	13.4	3.33e-03	0	44	0	1431306240	17	4621
2026-01-30 02:52:53.96	282.45	10.79	-28.8	-31.4	13.0	1.98e-05	0	44	0	1434451968	17	4818
2026-01-30 02:52:54.97	282.31	10.73	-28.7	-31.1	13.2	1.83e-05	0	44	0	1438646272	17	4721
2026-01-30 02:52:55.97	282.17	10.67	-28.7	-31.0	13.2	2.51e-05	0	44	0	1441792000	17	4702
2026-01-30 02:52:56.97	282.03	10.62	-28.8	-31.3	13.0	3.05e-05	0	44	0	1444937728	17	4799
2026-01-30 02:52:57.97	281.89	10.56	-28.6	-30.9	13.3	2.82e-03	0	44	0	1448083456	17	4665
2026-01-30 02:52:58.98	281.74	10.50	-28.5	-30.5	13.5	2.62e-03	0	44	0	1451229184	17	4551
2026-01-30 02:52:59.98	281.60	10.45	-28.4	-30.4	13.6	1.37e-05	0	44	0	1453326336	17	4523
2026-01-30 02:53:00.98	281.46	10.39	-28.4	-30.8	13.7	9.10e-06	0	44	0	1456472064	16	4744
2026-01-30 02:53:01.99	281.32	10.33	-28.3	-30.6	13.8	7.97e-04	0	44	0	1459617792	16	4693
2026-01-30 02:53:02.99	281.19	10.28	-28.3	-30.6	13.7	3.80e-06	0	44	0	1462763520	16	4700
2026-01-30 02:53:03.99	281.05	10.22	-28.4	-30.8	13.7	5.58e-04	0	44	0	1465909248	16	4738
2026-01-30 02:53:04.99	280.91	10.16	-28.4	-30.8	13.6	8.30e-06	0	44	0	1469054976	16	4762
2026-01-30 02:53:06.00	280.77	10.10	-28.5	-31.0	13.5	9.90e-06	0	44	0	1472200704	16	4822
2026-01-30 02:53:07.00	280.64	10.05	-28.5	-31.0	13.5	3.10e-03	0	44	0	1475346432	16	4830
2026-01-30 02:53:08.01	280.50	9.99	-28.6	-30.7	13.4	3.35e-03	0	44	0	1478492160	17	4616
2026-01-30 02:53:09.01	280.36	9.93	-28.6	-30.9	13.2	2.67e-05	0	44	0	1481637888	17	4680
2026-01-30 02:53:10.01	280.23	9.88	-28.5	-30.6	13.4	3.46e-03	0	44	0	1484783616	17	4573
2026-01-30 02:53:11.02	280.09	9.82	-28.5	-30.5	13.5	7.60e-06	0	44	0	1487929344	17	4552
2026-01-30 02:53:12.02	279.96	9.76	-28.5	-30.6	13.4	1.14e-05	0	44	0	1491075072	17	4594
2026-01-30 02:53:13.02	279.83	9.70	-28.4	-30.8	13.6	3.61e-03	0	44	0	1494220800	16	4745
2026-01-30 02:53:14.03	279.69	9.65	-28.4	-30.9	13.5	3.60e-03	0	44	0	1497366528	16	4797
2026-01-30 02:53:15.04	279.56	9.59	-28.3	-30.7	13.6	9.10e-06	0	44	0	1500512256	16	4718
2026-01-30 02:53:16.04	279.43	9.53	-28.3	-30.6	13.7	7.60e-06	0	44	0	1503657984	16	4697
2026-01-30 02:53:17.04	279.30	9.47	-28.3	-30.7	13.6	3.49e-03	0	44	0	1506803712	16	4723
2026-01-30 02:53:18.04	279.17	9.42	-28.3	-30.7	13.6	6.10e-06	0	44	0	1509949440	16	4727
2026-01-30 02:53:19.04	279.04	9.36	-28.4	-30.9	13.5	3.25e-03	0	44	0	1513095168	16	4787
2026-01-30 02:53:20.05	278.91	9.30	-28.6	-30.9	13.2	3.25e-03	0	44	0	1516240896	17	4669
2026-01-30 02:53:21.05	278.78	9.24	-29.0	-31.7	12.6	7.93e-05	0	44	0	1519386624	17	4954
2026-01-30 02:53:22.05	278.65	9.19	-28.7	-31.0	13.1	2.44e-05	0	44	0	1522532352	17	4710
2026-01-30 02:53:23.06	278.52	9.13	-28.5	-30.7	13.3	5.97e-04	0	44	0	1525678080	17	4605
2026-01-30 02:53:24.06	278.39	9.07	-28.5	-30.5	13.4	1.75e-05	0	44	0	1528823808	17	4564
2026-01-30 02:53:25.06	278.27	9.01	-28.5	-30.6	13.4	2.85e-04	0	44	0	1531969536	17	4580
2026-01-30 02:53:26.07	278.14	8.96	-28.5	-30.7	13.3	1.37e-05	0	44	0	1535115264	17	4600
2026-01-30 02:53:27.08	278.01	8.90	-28.7	-31.0	13.1	3.73e-05	0	44	0	1538260992	17	4723
2026-01-30 02:53:28.08	277.89	8.84	-28.7	-31.0	13.1	2.97e-05	0	44	0	1541406720	17	4710
2026-01-30 02:53:29.08	277.76	8.78	-28.7	-31.1	13.0	3.38e-03	0	44	0	1544552448	17	4755
2026-01-30 02:53:30.08	277.64	8.73	-28.7	-31.1	13.0	3.50e-05	0	44	0	1547698176	17	4737
2026-01-30 02:53:31.09	277.51	8.67	-28.8	-31.2	12.9	4.27e-05	0	44	0	1550843904	17	4788
2026-01-30 02:53:32.09	277.39	8.61	-28.7	-31.2	13.0	3.96e-05	0	44	0	1553989632	17	4782
2026-01-30 02:53:33.09	277.27	8.55	-28.7	-31.1	13.0	3.28e-05	0	44	0	1557135360	17	4740
2026-01-30 02:53:34.10	277.14	8.50	-28.7	-31.1	13.0	3.39e-03	0	44	0	1560281088	17	4734
2026-01-30 02:53:35.10	277.02	8.44	-28.9	-31.5	12.7	4.95e-05	0	44	0	1563426816	17	4899
2026-01-30 02:53:36.10	276.90	8.38	-28.8	-31.4	12.8	6.40e-05	0	44	0	1566572544	17	4850
2026-01-30 02:53:37.10	276.78	8.33	-29.0	-31.5	12.4	1.01e-04	0	44	0	1569718272	18	4758
2026-01-30 02:53:38.11	276.66	8.27	-28.8	-31.0	12.7	9.68e-05	0	44	0	1572864000	18	4602
2026-01-30 02:53:39.11	276.54	8.21	-28.8	-30.8	12.8	6.25e-05	0	44	0	1576009728	18	4542
2026-01-30 02:53:40.12	276.42	8.15	-28.8	-31.3	12.8	5.41e-05	0	44	0	1579155456	17	4821
2026-01-30 02:53:41.12	276.30	8.10	-28.8	-31.5	12.7	6.48e-05	0	44	0	1582301184	17	4890
2026-01-30 02:53:42.12	276.18	8.04	-28.9	-31.7	12.6	7.93e-05	0	44	0	1585446912	17	4945
2026-01-30 02:53:43.13	276.06	7.98	-28.8	-31.3	12.8	7.78e-05	0	44	0	1588592640	17	4813
2026-01-30 02:53:44.14	275.94	7.92	-28.7	-31.2	12.9	5.41e-05	0	44	0	1591738368	17	4777
2026-01-30 02:53:45.14	275.83	7.87	-28.7	-31.0	13.0	5.11e-05	0	44	0	1594884096	17	4721
2026-01-30 02:53:46.14	275.71	7.81	-28.7	-31.0	12.9	5.11e-05	0	44	0	1598029824	17	4732
2026-01-30 02:53:47.14	275.59	7.75	-28.6	-30.8	13.1	2.82e-05	0	44	0	1601175552	17	4656
2026-01-30 02:53:48.14	275.48	7.69	-28.7	-31.1	12.9	5.18e-05	0	44	0	1604321280	17	4746
2026-01-30 02:53:49.15	275.36	7.64	-28.6	-30.8	13.1	3.73e-05	0	44	0	1607467008	17	4666
2026-01-30 02:53:50.15	275.25	7.58	-28.6	-30.9	13.1	3.89e-05	0	44	0	1610612736	17	4673
2026-01-30 02:53:51.16	275.13	7.52	-28.7	-31.2	12.9	4.73e-05	0	44	0	1613758464	17	4786
2026-01-30 02:53:52.17	275.02	7.46	-28.8	-31.4	12.7	6.79e-05	0	44	0	1616904192	17	4854
2026-01-30 02:53:53.17	274.90	7.41	-28.9	-31.7	12.5	8.46e-05	0	44	0	1620049920	17	4975
2026-01-30 02:53:54.17	274.79	7.35	-29.0	-31.5	12.3	1.38e-04	0	44	0	1623195648	18	4781
2026-01-30 02:53:55.17	274.68	7.29	-29.2	-31.9	12.2	2.51e-04	0	44	0	1626341376	18	4903
2026-01-30 02:53:56.18	274.57	7.24	-29.0	-31.5	12.3	1.85e-04	0	44	0	1629487104	18	4782
2026-01-30 02:53:57.18	274.45	7.18	-28.9	-31.1	12.6	1.01e-04	0	44	0	1632632832	18	4652
2026-01-30 02:53:58.18	274.34	7.12	-28.9	-31.2	12.6	9.53e-05	0	44	0	1635778560	18	4661
2026-01-30 02:53:59.19	274.23	7.07	-29.4	-32.4	11.9	1.28e-04	0	44	0	1638924288	18	5102
2026-01-30 02:54:00.20	274.12	7.01	-33.4	-45.6	3.8	1.49e+00	0	44	104	1639972864	26	14701
2026-01-30 02:54:01.21	274.01	6.95	-33.8	-45.9	3.8	1.49e+00	0	44	104	1639972864	27	14546

#Closed at: 2026-01-30 02:54:01
#Recorded file [1639 MB]: D:/data/31010_260130_054514.dat