passes_logs/2026/01/30/R2M6_AANII_01/R2M6_AANII_01__20260130_041111_FENGYUN_3D_rec.log

#Pass ID: 20260130_041111_FENGYUN 3D
#Satellite: FENGYUN 3D
#Configuration: FENGYUN 3D
#almurnet v.1.7.20240730
#Start time: 2026-01-30 04:11:11

#Version: 2.2.20231116
#Station: R2M6_AANII_01
#Location: 30.233357 lon 59.946436 lat
#TLE: 1 43010U 17072A   26028.95797775  .00000451  00000+0  23492-3 0  9991
#TLE: 2 43010  98.9958   0.9922 0002505  85.7480 274.3981 14.19703224425237

#Time	Az	El	Level	Level2	SNR	BER	BlckErr	Temp	State	Recorded	gain1	gain2
2026-01-30 04:11:11.08	11.67	6.95	-30.8	-34.0	5.1	7.98e-01	0	41	0	0	23	5182
2026-01-30 04:11:12.09	11.59	7.02	-30.3	-33.8	5.3	7.84e-01	0	41	104	0	20	5429
2026-01-30 04:11:13.08	11.51	7.08	-30.2	-33.5	9.4	1.91e-02	0	41	0	0	20	5306
2026-01-30 04:11:14.08	11.42	7.15	-30.1	-33.2	9.8	1.49e-02	0	41	0	5242880	20	5181
2026-01-30 04:11:15.09	11.34	7.22	-30.2	-33.5	9.6	1.57e-02	0	41	0	10485760	20	5274
2026-01-30 04:11:16.09	11.26	7.28	-30.2	-33.6	9.5	1.80e-02	0	41	0	16777216	20	5327
2026-01-30 04:11:17.10	11.17	7.35	-30.1	-33.3	9.7	1.52e-02	0	41	0	22020096	20	5209
2026-01-30 04:11:18.09	11.09	7.42	-30.1	-33.3	9.8	1.33e-02	0	41	0	28311552	20	5200
2026-01-30 04:11:19.09	11.01	7.48	-30.0	-33.0	10.0	1.12e-02	0	41	0	33554432	20	5108
2026-01-30 04:11:20.10	10.92	7.55	-30.1	-33.2	9.9	1.02e-02	0	41	0	38797312	20	5161
2026-01-30 04:11:21.10	10.84	7.62	-30.0	-33.0	10.0	1.08e-02	0	41	0	45088768	20	5099
2026-01-30 04:11:22.10	10.75	7.69	-29.5	-31.7	10.9	3.42e-03	0	41	0	50331648	20	4628
2026-01-30 04:11:23.10	10.66	7.75	-29.1	-31.1	11.7	1.12e-03	0	41	0	55574528	19	4547
2026-01-30 04:11:24.11	10.58	7.82	-28.7	-30.6	12.3	4.68e-04	0	41	0	61865984	18	4491
2026-01-30 04:11:25.11	10.49	7.89	-28.3	-29.7	12.9	1.83e-04	0	41	0	67108864	18	4211
2026-01-30 04:11:26.11	10.40	7.96	-28.1	-29.5	13.3	5.49e-05	0	41	0	73400320	17	4272
2026-01-30 04:11:27.12	10.31	8.03	-27.8	-29.0	13.6	8.12e-05	0	41	0	78643200	17	4117
2026-01-30 04:11:28.13	10.23	8.10	-27.7	-29.3	13.8	9.10e-06	0	42	0	83886080	16	4296
2026-01-30 04:11:29.13	10.14	8.16	-27.7	-29.3	13.7	3.40e-06	0	42	0	90177536	16	4302
2026-01-30 04:11:30.13	10.05	8.23	-27.6	-29.0	13.9	7.78e-05	0	42	0	95420416	16	4233
2026-01-30 04:11:31.14	9.96	8.30	-27.5	-28.8	14.0	9.04e-05	0	41	0	101711872	16	4169
2026-01-30 04:11:32.14	9.87	8.37	-27.7	-29.1	13.9	5.70e-06	0	41	0	106954752	16	4247
2026-01-30 04:11:33.15	9.78	8.44	-27.5	-28.8	14.1	4.50e-06	0	42	0	112197632	16	4171
2026-01-30 04:11:34.16	9.69	8.51	-27.6	-29.0	13.9	7.20e-05	0	42	0	118489088	16	4229
2026-01-30 04:11:35.16	9.59	8.58	-27.7	-29.1	13.9	4.50e-06	0	42	0	123731968	16	4245
2026-01-30 04:11:36.16	9.50	8.65	-27.4	-28.6	14.2	7.89e-05	0	42	0	128974848	16	4104
2026-01-30 04:11:37.17	9.41	8.72	-27.7	-29.1	13.9	1.13e-04	0	42	0	135266304	16	4244
2026-01-30 04:11:38.17	9.32	8.79	-27.5	-28.7	14.2	3.40e-06	0	42	0	140509184	16	4128
2026-01-30 04:11:39.17	9.22	8.86	-27.0	-28.1	14.6	1.50e-04	0	42	0	146800640	15	4099
2026-01-30 04:11:40.18	9.13	8.93	-27.1	-28.7	14.6	1.80e-04	0	42	0	152043520	14	4368
2026-01-30 04:11:41.19	9.04	9.00	-27.0	-28.6	14.6	0.00e+00	0	42	0	158334976	14	4319
2026-01-30 04:11:42.19	8.94	9.07	-27.0	-28.7	14.6	1.10e-06	0	42	0	163577856	14	4359
2026-01-30 04:11:43.20	8.85	9.14	-27.1	-28.9	14.5	1.64e-04	0	42	0	168820736	14	4413
2026-01-30 04:11:44.21	8.75	9.21	-27.0	-28.6	14.7	0.00e+00	0	42	0	175112192	14	4317
2026-01-30 04:11:45.21	8.65	9.28	-27.1	-28.8	14.6	9.26e-05	0	42	0	180355072	14	4382
2026-01-30 04:11:46.22	8.56	9.35	-27.0	-28.6	14.6	1.13e-04	0	42	0	185597952	14	4335
2026-01-30 04:11:47.23	8.46	9.42	-26.9	-28.4	14.8	0.00e+00	0	42	0	191889408	14	4277
2026-01-30 04:11:48.23	8.36	9.49	-27.0	-28.5	14.7	4.46e-05	0	42	0	197132288	14	4308
2026-01-30 04:11:49.23	8.26	9.56	-27.0	-28.7	14.6	1.10e-06	0	42	0	202375168	14	4345
2026-01-30 04:11:50.24	8.16	9.63	-26.9	-28.4	14.8	0.00e+00	0	42	0	208666624	14	4274
2026-01-30 04:11:51.24	8.07	9.71	-27.0	-28.7	14.7	0.00e+00	0	42	0	213909504	14	4348
2026-01-30 04:11:52.24	7.97	9.78	-26.9	-28.4	14.8	1.10e-06	0	42	0	220200960	14	4284
2026-01-30 04:11:53.24	7.87	9.85	-26.9	-28.5	14.8	1.10e-06	0	42	0	225443840	14	4293
2026-01-30 04:11:54.25	7.76	9.92	-27.0	-28.6	14.7	0.00e+00	0	42	0	231735296	14	4314
2026-01-30 04:11:55.25	7.66	9.99	-26.9	-28.4	14.8	7.09e-05	0	42	0	236978176	14	4284
2026-01-30 04:11:56.26	7.56	10.06	-27.0	-28.7	14.7	0.00e+00	0	42	0	242221056	14	4350
2026-01-30 04:11:57.26	7.46	10.13	-27.2	-29.0	14.5	0.00e+00	0	42	0	248512512	14	4438
2026-01-30 04:11:58.27	7.36	10.21	-27.1	-28.9	14.6	0.00e+00	0	42	0	253755392	14	4407
2026-01-30 04:11:59.27	7.25	10.28	-26.9	-28.5	14.8	0.00e+00	0	42	0	258998272	14	4288
2026-01-30 04:12:00.27	7.15	10.35	-26.9	-28.4	14.8	0.00e+00	0	42	0	265289728	14	4265
2026-01-30 04:12:01.27	7.05	10.42	-27.0	-28.5	14.8	0.00e+00	0	42	0	270532608	14	4304
2026-01-30 04:12:02.28	6.94	10.50	-27.0	-28.6	14.7	0.00e+00	0	42	0	275775488	14	4337
2026-01-30 04:12:03.28	6.84	10.57	-27.0	-28.5	14.8	0.00e+00	0	42	0	282066944	14	4290
2026-01-30 04:12:04.29	6.73	10.64	-27.1	-28.9	14.6	1.10e-06	0	42	0	287309824	14	4401
2026-01-30 04:12:05.29	6.62	10.71	-26.8	-28.1	15.0	1.10e-06	0	42	0	293601280	14	4187
2026-01-30 04:12:06.29	6.52	10.79	-26.5	-27.4	15.4	0.00e+00	0	42	0	298844160	14	4004
2026-01-30 04:12:07.30	6.41	10.86	-26.4	-27.3	15.5	0.00e+00	0	42	0	305135616	14	3967
2026-01-30 04:12:08.30	6.30	10.93	-26.4	-27.3	15.5	0.00e+00	0	42	0	310378496	14	3979
2026-01-30 04:12:09.30	6.19	11.01	-26.5	-27.4	15.5	0.00e+00	0	42	0	315621376	14	4003
2026-01-30 04:12:10.31	6.08	11.08	-26.5	-27.5	15.4	0.00e+00	0	42	0	321912832	14	4028
2026-01-30 04:12:11.31	5.97	11.15	-26.4	-27.3	15.5	0.00e+00	0	42	0	327155712	14	3993
2026-01-30 04:12:12.31	5.86	11.23	-26.5	-28.0	15.4	0.00e+00	0	42	0	332398592	13	4285
2026-01-30 04:12:13.31	5.75	11.30	-26.6	-28.1	15.3	0.00e+00	0	43	0	338690048	13	4297
2026-01-30 04:12:14.31	5.64	11.37	-26.6	-28.2	15.3	0.00e+00	0	42	0	343932928	13	4320
2026-01-30 04:12:15.31	5.53	11.45	-26.6	-28.2	15.3	0.00e+00	0	43	0	349175808	13	4313
2026-01-30 04:12:16.31	5.42	11.52	-26.5	-28.0	15.4	0.00e+00	0	43	0	355467264	13	4275
2026-01-30 04:12:17.32	5.30	11.60	-26.5	-28.0	15.4	0.00e+00	0	42	0	360710144	13	4282
2026-01-30 04:12:18.32	5.19	11.67	-26.6	-28.1	15.3	0.00e+00	0	43	0	367001600	13	4302
2026-01-30 04:12:19.33	5.08	11.75	-26.4	-27.8	15.5	0.00e+00	0	43	0	372244480	13	4219
2026-01-30 04:12:20.33	4.96	11.82	-26.5	-27.9	15.5	0.00e+00	0	43	0	377487360	13	4232
2026-01-30 04:12:21.34	4.84	11.90	-26.5	-27.9	15.5	0.00e+00	0	43	0	383778816	13	4232
2026-01-30 04:12:22.34	4.73	11.97	-26.5	-28.0	15.4	0.00e+00	0	42	0	389021696	13	4279
2026-01-30 04:12:23.33	4.61	12.04	-26.5	-28.0	15.5	0.00e+00	0	43	0	394264576	13	4260
2026-01-30 04:12:24.33	4.50	12.12	-26.5	-27.9	15.5	1.10e-06	0	43	0	400556032	13	4243
2026-01-30 04:12:25.33	4.38	12.19	-26.5	-28.1	15.4	0.00e+00	0	42	0	405798912	13	4283
2026-01-30 04:12:26.33	4.26	12.27	-26.5	-27.9	15.5	0.00e+00	0	43	0	411041792	13	4245
2026-01-30 04:12:27.33	4.14	12.34	-26.4	-27.8	15.6	0.00e+00	0	43	0	417333248	13	4217
2026-01-30 04:12:28.33	4.02	12.42	-26.4	-27.8	15.5	0.00e+00	0	42	0	422576128	13	4228
2026-01-30 04:12:29.34	3.90	12.49	-26.3	-27.6	15.7	0.00e+00	0	43	0	428867584	13	4166
2026-01-30 04:12:30.34	3.78	12.57	-26.3	-27.6	15.7	0.00e+00	0	43	0	434110464	13	4153
2026-01-30 04:12:31.34	3.66	12.65	-26.4	-27.7	15.6	0.00e+00	0	43	0	440401920	13	4177
2026-01-30 04:12:32.35	3.53	12.72	-26.3	-27.4	15.8	0.00e+00	0	43	0	445644800	13	4110
2026-01-30 04:12:33.34	3.41	12.80	-26.3	-27.4	15.8	0.00e+00	0	43	0	450887680	13	4112
2026-01-30 04:12:34.35	3.29	12.87	-26.3	-27.4	15.8	0.00e+00	0	43	0	457179136	13	4109
2026-01-30 04:12:35.35	3.16	12.95	-26.2	-27.3	15.9	0.00e+00	0	43	0	462422016	13	4072
2026-01-30 04:12:36.35	3.04	13.03	-26.2	-27.3	15.9	0.00e+00	0	43	0	467664896	13	4087
2026-01-30 04:12:37.35	2.91	13.10	-26.2	-27.3	15.9	0.00e+00	0	43	0	473956352	13	4078
2026-01-30 04:12:38.36	2.79	13.18	-26.3	-27.4	15.8	0.00e+00	0	43	0	479199232	13	4112
2026-01-30 04:12:39.36	2.66	13.25	-26.3	-27.4	15.8	0.00e+00	0	43	0	484442112	13	4105
2026-01-30 04:12:40.36	2.53	13.33	-26.2	-27.2	16.0	0.00e+00	0	43	0	490733568	13	4044
2026-01-30 04:12:41.37	2.40	13.41	-26.1	-27.1	16.0	0.00e+00	0	43	0	495976448	13	4018
2026-01-30 04:12:42.38	2.27	13.49	-26.1	-27.1	16.0	0.00e+00	0	43	0	502267904	13	4024
2026-01-30 04:12:43.38	2.14	13.56	-26.1	-27.1	16.0	0.00e+00	0	43	0	507510784	13	4020
2026-01-30 04:12:44.37	2.01	13.64	-26.1	-27.1	16.0	0.00e+00	0	43	0	512753664	13	4029
2026-01-30 04:12:45.37	1.88	13.72	-26.0	-26.8	16.2	0.00e+00	0	43	0	519045120	13	3958
2026-01-30 04:12:46.37	1.75	13.79	-26.0	-26.8	16.2	0.00e+00	0	43	0	524288000	13	3952
2026-01-30 04:12:47.38	1.62	13.87	-25.9	-26.7	16.3	0.00e+00	0	43	0	529530880	13	3917
2026-01-30 04:12:48.38	1.49	13.95	-25.7	-26.8	16.5	0.00e+00	0	43	0	535822336	12	4054
2026-01-30 04:12:49.38	1.35	14.02	-25.7	-26.7	16.5	0.00e+00	0	43	0	541065216	12	4028
2026-01-30 04:12:50.39	1.22	14.10	-25.7	-26.6	16.5	0.00e+00	0	43	0	547356672	12	4018
2026-01-30 04:12:51.39	1.08	14.18	-25.7	-26.7	16.4	0.00e+00	0	43	0	552599552	12	4036
2026-01-30 04:12:52.40	0.94	14.26	-25.7	-26.6	16.6	0.00e+00	0	43	0	557842432	12	4018
2026-01-30 04:12:53.41	0.81	14.34	-25.8	-26.8	16.3	0.00e+00	0	43	0	564133888	12	4067
2026-01-30 04:12:54.41	0.67	14.41	-25.8	-26.9	16.4	0.00e+00	0	43	0	569376768	12	4076
2026-01-30 04:12:55.41	0.53	14.49	-25.7	-26.7	16.6	0.00e+00	0	43	0	575668224	12	4028
2026-01-30 04:12:56.42	0.39	14.57	-25.7	-26.7	16.5	0.00e+00	0	43	0	580911104	12	4025
2026-01-30 04:12:57.42	0.25	14.65	-25.7	-26.6	16.6	0.00e+00	0	43	0	586153984	12	3996
2026-01-30 04:12:58.42	0.11	14.73	-25.6	-26.5	16.6	0.00e+00	0	43	0	592445440	12	3990
2026-01-30 04:12:59.41	359.97	14.80	-25.7	-26.6	16.6	9.72e-05	0	43	0	597688320	12	4012
2026-01-30 04:13:00.41	359.83	14.88	-25.7	-26.8	16.5	0.00e+00	0	43	0	602931200	12	4049
2026-01-30 04:13:01.41	359.69	14.96	-25.6	-26.5	16.7	0.00e+00	0	43	0	609222656	12	3980
2026-01-30 04:13:02.42	359.54	15.04	-25.6	-26.5	16.7	0.00e+00	0	43	0	614465536	12	3973
2026-01-30 04:13:03.42	359.40	15.12	-25.6	-26.4	16.7	0.00e+00	0	43	0	619708416	12	3960
2026-01-30 04:13:04.42	359.25	15.20	-25.6	-26.4	16.7	0.00e+00	0	43	0	625999872	12	3964
2026-01-30 04:13:05.42	359.11	15.28	-25.6	-26.5	16.7	0.00e+00	0	43	0	631242752	12	3973
2026-01-30 04:13:06.43	358.96	15.35	-25.5	-26.3	16.8	1.57e-04	0	43	0	637534208	12	3943
2026-01-30 04:13:07.43	358.81	15.43	-25.5	-26.3	16.8	0.00e+00	0	43	0	642777088	12	3926
2026-01-30 04:13:08.43	358.66	15.51	-25.5	-26.7	16.9	0.00e+00	0	43	0	648019968	11	4148
2026-01-30 04:13:09.43	358.51	15.59	-25.5	-26.6	17.0	0.00e+00	0	43	0	654311424	11	4115
2026-01-30 04:13:10.44	358.36	15.67	-25.5	-26.7	16.9	0.00e+00	0	43	0	659554304	11	4132
2026-01-30 04:13:11.45	358.21	15.75	-25.4	-26.6	17.0	2.41e-04	0	43	0	665845760	11	4110
2026-01-30 04:13:12.46	358.06	15.83	-25.4	-26.5	17.0	0.00e+00	0	43	0	671088640	11	4090
2026-01-30 04:13:13.46	357.91	15.91	-25.5	-26.7	17.0	0.00e+00	0	43	0	676331520	11	4126
2026-01-30 04:13:14.46	357.75	15.99	-25.5	-26.8	16.9	0.00e+00	0	43	0	682622976	11	4154
2026-01-30 04:13:15.46	357.60	16.07	-25.6	-26.9	16.9	2.21e-04	0	43	0	687865856	11	4178
2026-01-30 04:13:16.46	357.45	16.15	-25.6	-27.0	16.8	0.00e+00	0	43	0	693108736	11	4199
2026-01-30 04:13:17.47	357.29	16.23	-25.6	-26.9	16.8	2.54e-04	0	43	0	699400192	11	4200
2026-01-30 04:13:18.47	357.13	16.30	-25.5	-26.8	16.9	2.52e-04	0	43	0	704643072	11	4158
2026-01-30 04:13:19.47	356.97	16.38	-25.5	-26.8	16.9	0.00e+00	0	43	0	710934528	11	4152
2026-01-30 04:13:20.48	356.82	16.46	-25.5	-26.7	17.0	2.35e-04	0	43	0	716177408	11	4136
2026-01-30 04:13:21.49	356.65	16.54	-25.4	-26.6	17.0	2.88e-04	0	43	0	722468864	11	4107
2026-01-30 04:13:22.49	356.49	16.62	-25.4	-26.5	17.1	0.00e+00	0	43	0	727711744	11	4086
2026-01-30 04:13:23.50	356.33	16.70	-25.5	-27.1	17.0	3.20e-04	0	43	0	732954624	10	4359
2026-01-30 04:13:24.51	356.17	16.78	-25.5	-26.6	17.0	2.87e-04	0	43	0	739246080	11	4113
2026-01-30 04:13:25.51	356.01	16.86	-25.3	-26.2	17.3	0.00e+00	0	43	0	744488960	11	4007
2026-01-30 04:13:26.52	355.84	16.94	-25.2	-26.6	17.3	0.00e+00	0	43	0	749731840	10	4214
2026-01-30 04:13:27.52	355.68	17.02	-25.2	-26.5	17.4	2.91e-04	0	43	0	756023296	10	4187
2026-01-30 04:13:28.53	355.51	17.10	-25.1	-26.3	17.4	0.00e+00	0	43	0	761266176	10	4148
2026-01-30 04:13:29.53	355.35	17.18	-25.2	-26.5	17.4	3.08e-04	0	43	0	766509056	10	4185
2026-01-30 04:13:30.54	355.18	17.26	-25.2	-26.5	17.4	0.00e+00	0	43	0	772800512	10	4187
2026-01-30 04:13:31.54	355.01	17.34	-25.1	-26.4	17.4	0.00e+00	0	43	0	778043392	10	4162
2026-01-30 04:13:32.55	354.84	17.42	-25.1	-26.4	17.4	2.95e-04	0	43	0	784334848	10	4178
2026-01-30 04:13:33.55	354.67	17.50	-25.1	-26.3	17.4	0.00e+00	0	43	0	789577728	10	4152
2026-01-30 04:13:34.56	354.50	17.58	-25.1	-26.4	17.4	0.00e+00	0	43	0	795869184	10	4185
2026-01-30 04:13:35.56	354.33	17.66	-25.2	-26.5	17.4	0.00e+00	0	43	0	801112064	10	4195
2026-01-30 04:13:36.56	354.15	17.74	-25.1	-26.4	17.4	3.20e-04	0	43	0	806354944	10	4183
2026-01-30 04:13:37.56	353.98	17.82	-25.1	-26.4	17.4	0.00e+00	0	43	0	812646400	10	4179
2026-01-30 04:13:38.57	353.80	17.90	-25.1	-26.3	17.5	0.00e+00	0	43	0	817889280	10	4147
2026-01-30 04:13:39.57	353.63	17.98	-25.0	-26.2	17.6	2.72e-04	0	43	0	823132160	10	4109
2026-01-30 04:13:40.57	353.45	18.06	-24.9	-25.9	17.7	0.00e+00	0	43	0	829423616	10	4039
2026-01-30 04:13:41.57	353.28	18.14	-24.9	-26.0	17.6	2.39e-04	0	43	0	834666496	10	4059
2026-01-30 04:13:42.58	353.10	18.22	-24.9	-26.0	17.6	0.00e+00	0	43	0	839909376	10	4070
2026-01-30 04:13:43.59	352.92	18.30	-24.9	-25.8	17.7	0.00e+00	0	43	0	846200832	10	4025
2026-01-30 04:13:44.59	352.74	18.38	-24.9	-26.0	17.6	0.00e+00	0	43	0	851443712	10	4067
2026-01-30 04:13:45.59	352.56	18.46	-25.0	-26.2	17.6	0.00e+00	0	43	0	857735168	10	4107
2026-01-30 04:13:46.58	352.38	18.54	-25.1	-26.3	17.5	0.00e+00	0	43	0	862978048	10	4134
2026-01-30 04:13:47.59	352.19	18.62	-25.1	-26.4	17.4	0.00e+00	0	43	0	869269504	10	4176
2026-01-30 04:13:48.58	352.01	18.69	-25.1	-26.4	17.4	0.00e+00	0	43	0	874512384	10	4173
2026-01-30 04:13:49.58	351.82	18.77	-25.1	-26.4	17.5	0.00e+00	0	43	0	879755264	10	4165
2026-01-30 04:13:50.59	351.64	18.85	-25.1	-26.4	17.5	0.00e+00	0	43	0	886046720	10	4168
2026-01-30 04:13:51.59	351.45	18.93	-25.1	-26.3	17.5	0.00e+00	0	43	0	891289600	10	4135
2026-01-30 04:13:52.59	351.26	19.01	-25.0	-26.0	17.7	0.00e+00	0	43	0	896532480	10	4070
2026-01-30 04:13:53.59	351.07	19.09	-25.0	-26.2	17.6	0.00e+00	0	43	0	902823936	10	4105
2026-01-30 04:13:54.60	350.88	19.17	-24.9	-25.9	17.7	0.00e+00	0	43	0	908066816	10	4048
2026-01-30 04:13:55.60	350.69	19.25	-24.8	-25.6	17.9	0.00e+00	0	43	0	914358272	10	3978
2026-01-30 04:13:56.61	350.50	19.33	-24.8	-25.6	17.9	0.00e+00	0	43	0	919601152	10	3968
2026-01-30 04:13:57.61	350.31	19.40	-24.7	-25.5	18.0	0.00e+00	0	43	0	924844032	10	3935
2026-01-30 04:13:58.61	350.11	19.48	-24.6	-25.3	18.0	0.00e+00	0	43	0	931135488	10	3895
2026-01-30 04:13:59.61	349.92	19.56	-24.6	-25.2	18.1	0.00e+00	0	43	0	936378368	10	3879
2026-01-30 04:14:00.61	349.72	19.64	-24.6	-25.2	18.1	0.00e+00	0	43	0	941621248	10	3876
2026-01-30 04:14:01.61	349.52	19.72	-24.6	-25.2	18.1	0.00e+00	0	43	0	947912704	10	3870
2026-01-30 04:14:02.62	349.33	19.80	-24.7	-25.6	17.9	0.00e+00	0	43	0	953155584	10	3961
2026-01-30 04:14:03.62	349.13	19.87	-24.7	-25.6	17.9	0.00e+00	0	43	0	958398464	10	3962
2026-01-30 04:14:04.62	348.93	19.95	-24.7	-25.6	17.9	0.00e+00	0	43	0	964689920	10	3966
2026-01-30 04:14:05.62	348.73	20.03	-24.7	-25.6	17.9	0.00e+00	0	43	0	969932800	10	3971
2026-01-30 04:14:06.62	348.52	20.11	-24.7	-25.6	17.9	0.00e+00	0	43	0	976224256	10	3962
2026-01-30 04:14:07.62	348.32	20.18	-24.7	-25.6	17.9	0.00e+00	0	43	0	981467136	10	3960
2026-01-30 04:14:08.62	348.12	20.26	-24.7	-25.4	18.0	0.00e+00	0	43	0	986710016	10	3920
2026-01-30 04:14:09.62	347.91	20.34	-24.5	-25.0	18.2	0.00e+00	0	43	0	993001472	10	3821
2026-01-30 04:14:10.63	347.70	20.42	-24.5	-25.1	18.2	0.00e+00	0	43	0	998244352	10	3847
2026-01-30 04:14:11.63	347.50	20.49	-24.5	-25.1	18.2	0.00e+00	0	43	0	1003487232	10	3839
2026-01-30 04:14:12.64	347.29	20.57	-24.4	-24.9	18.3	0.00e+00	0	43	0	1009778688	10	3808
2026-01-30 04:14:13.64	347.08	20.65	-24.4	-24.9	18.2	0.00e+00	0	43	0	1015021568	10	3809
2026-01-30 04:14:14.65	346.87	20.72	-24.5	-25.0	18.2	0.00e+00	0	43	0	1021313024	10	3830
2026-01-30 04:14:15.66	346.65	20.80	-24.4	-24.9	18.3	0.00e+00	0	43	0	1026555904	10	3807
2026-01-30 04:14:16.66	346.44	20.87	-24.3	-24.7	18.4	0.00e+00	0	43	0	1031798784	10	3754
2026-01-30 04:14:17.66	346.23	20.95	-24.4	-24.8	18.4	0.00e+00	0	43	0	1038090240	10	3769
2026-01-30 04:14:18.65	346.01	21.03	-24.4	-24.8	18.3	0.00e+00	0	43	0	1043333120	10	3781
2026-01-30 04:14:19.66	345.80	21.10	-24.4	-24.8	18.3	0.00e+00	0	43	0	1049624576	10	3786
2026-01-30 04:14:20.66	345.58	21.18	-24.4	-25.0	18.3	0.00e+00	0	43	0	1054867456	10	3816
2026-01-30 04:14:21.67	345.36	21.25	-24.4	-24.8	18.3	0.00e+00	0	43	0	1060110336	10	3771
2026-01-30 04:14:22.67	345.14	21.33	-24.2	-24.9	18.5	0.00e+00	0	43	0	1066401792	9	3908
2026-01-30 04:14:23.68	344.92	21.40	-24.1	-24.8	18.6	0.00e+00	0	43	0	1071644672	9	3885
2026-01-30 04:14:24.68	344.70	21.47	-24.3	-25.1	18.4	0.00e+00	0	43	0	1076887552	9	3948
2026-01-30 04:14:25.69	344.47	21.55	-24.2	-24.9	18.5	0.00e+00	0	43	0	1083179008	9	3922
2026-01-30 04:14:26.70	344.25	21.62	-24.1	-24.8	18.5	0.00e+00	0	43	0	1088421888	9	3892
2026-01-30 04:14:27.70	344.02	21.70	-24.3	-25.1	18.4	0.00e+00	0	43	0	1094713344	9	3954
2026-01-30 04:14:28.70	343.80	21.77	-24.2	-24.9	18.5	0.00e+00	0	43	0	1099956224	9	3902
2026-01-30 04:14:29.70	343.57	21.84	-24.1	-24.7	18.6	0.00e+00	0	43	0	1105199104	9	3857
2026-01-30 04:14:30.71	343.34	21.92	-24.1	-24.6	18.7	0.00e+00	0	43	0	1111490560	9	3849
2026-01-30 04:14:31.71	343.11	21.99	-24.2	-24.9	18.5	0.00e+00	0	43	0	1116733440	9	3900
2026-01-30 04:14:32.72	342.88	22.06	-24.3	-25.2	18.3	0.00e+00	0	43	0	1123024896	9	3986
2026-01-30 04:14:33.72	342.65	22.13	-24.4	-25.3	18.3	0.00e+00	0	43	0	1128267776	9	4000
2026-01-30 04:14:34.72	342.42	22.20	-24.4	-25.4	18.2	0.00e+00	0	43	0	1133510656	9	4035
2026-01-30 04:14:35.73	342.19	22.28	-24.4	-25.4	18.3	0.00e+00	0	43	0	1139802112	9	4030
2026-01-30 04:14:36.73	341.95	22.35	-24.3	-25.2	18.4	0.00e+00	0	43	0	1145044992	9	3984
2026-01-30 04:14:37.73	341.72	22.42	-24.3	-25.1	18.4	0.00e+00	0	43	0	1151336448	9	3963
2026-01-30 04:14:38.73	341.48	22.49	-24.3	-25.3	18.3	0.00e+00	0	43	0	1156579328	9	3997
2026-01-30 04:14:39.74	341.24	22.56	-24.3	-25.1	18.4	0.00e+00	0	43	0	1161822208	9	3961
2026-01-30 04:14:40.74	341.00	22.63	-24.4	-25.4	18.3	5.70e-06	0	43	0	1168113664	9	4019
2026-01-30 04:14:41.75	340.76	22.70	-24.3	-25.2	18.4	0.00e+00	0	43	0	1173356544	9	3974
2026-01-30 04:14:42.75	340.52	22.77	-24.1	-24.7	18.6	0.00e+00	0	43	0	1178599424	9	3859
2026-01-30 04:14:43.75	340.28	22.83	-24.0	-24.5	18.8	0.00e+00	0	43	0	1184890880	9	3807
2026-01-30 04:14:44.75	340.04	22.90	-23.9	-24.4	18.8	0.00e+00	0	43	0	1190133760	9	3783
2026-01-30 04:14:45.75	339.79	22.97	-23.9	-24.4	18.8	0.00e+00	0	43	0	1196425216	9	3786
2026-01-30 04:14:46.75	339.55	23.04	-23.9	-24.3	18.9	0.00e+00	0	43	0	1201668096	9	3757
2026-01-30 04:14:47.76	339.30	23.10	-23.9	-24.3	18.9	5.14e-05	0	43	0	1206910976	9	3756
2026-01-30 04:14:48.77	339.05	23.17	-23.9	-24.4	18.8	0.00e+00	0	43	0	1213202432	9	3782
2026-01-30 04:14:49.77	338.80	23.24	-23.9	-24.4	18.8	0.00e+00	0	43	0	1218445312	9	3789
2026-01-30 04:14:50.77	338.55	23.30	-23.8	-24.7	18.9	1.14e-04	0	43	0	1223688192	8	3966
2026-01-30 04:14:51.78	338.30	23.37	-23.7	-24.4	19.0	0.00e+00	0	43	0	1229979648	8	3902
2026-01-30 04:14:52.78	338.05	23.43	-23.7	-24.4	19.0	1.29e-04	0	43	0	1235222528	8	3905
2026-01-30 04:14:53.79	337.80	23.50	-23.9	-24.8	18.8	0.00e+00	0	43	0	1241513984	8	4000
2026-01-30 04:14:54.79	337.54	23.56	-23.8	-24.6	19.0	0.00e+00	0	43	0	1246756864	8	3939
2026-01-30 04:14:55.79	337.29	23.63	-23.8	-24.6	18.9	0.00e+00	0	43	0	1251999744	8	3948
2026-01-30 04:14:56.79	337.03	23.69	-23.8	-25.2	18.9	4.65e-04	0	43	0	1258291200	7	4193
2026-01-30 04:14:57.80	336.77	23.75	-23.9	-25.2	18.8	0.00e+00	0	44	0	1263534080	7	4215
2026-01-30 04:14:58.80	336.52	23.81	-23.9	-25.4	18.8	6.38e-04	0	43	0	1269825536	7	4251
2026-01-30 04:14:59.80	336.26	23.87	-23.8	-25.2	18.9	6.27e-04	0	43	0	1275068416	7	4193
2026-01-30 04:15:00.81	336.00	23.94	-23.8	-25.1	18.9	0.00e+00	0	43	0	1280311296	7	4173
2026-01-30 04:15:01.81	335.74	24.00	-23.9	-25.3	18.9	5.80e-04	0	43	0	1286602752	7	4224
2026-01-30 04:15:02.82	335.47	24.06	-23.8	-25.2	18.9	4.73e-04	0	43	0	1291845632	7	4202
2026-01-30 04:15:03.83	335.21	24.12	-23.6	-24.7	19.1	0.00e+00	0	43	0	1297088512	7	4076
2026-01-30 04:15:04.83	334.94	24.18	-23.5	-24.4	19.3	4.47e-04	0	43	0	1303379968	7	4001
2026-01-30 04:15:05.83	334.68	24.24	-23.4	-24.3	19.3	5.31e-04	0	43	0	1308622848	7	3976
2026-01-30 04:15:06.84	334.41	24.29	-23.5	-24.5	19.2	0.00e+00	0	43	0	1314914304	7	4041
2026-01-30 04:15:07.84	334.14	24.35	-23.4	-24.7	19.3	0.00e+00	0	43	0	1320157184	6	4200
2026-01-30 04:15:08.84	333.88	24.41	-23.6	-24.7	19.1	5.49e-04	0	43	0	1325400064	7	4088
2026-01-30 04:15:09.84	333.61	24.46	-24.1	-25.3	18.6	0.00e+00	0	44	0	1331691520	8	4106
2026-01-30 04:15:10.85	333.34	24.52	-24.3	-25.6	18.5	6.33e-04	0	43	0	1336934400	8	4181
2026-01-30 04:15:11.85	333.07	24.58	-24.2	-25.4	18.6	6.46e-04	0	43	0	1343225856	8	4129
2026-01-30 04:15:12.86	332.79	24.63	-24.1	-25.2	18.6	0.00e+00	0	43	0	1348468736	8	4101
2026-01-30 04:15:13.86	332.52	24.68	-24.2	-25.4	18.5	6.79e-04	0	43	0	1353711616	8	4137
2026-01-30 04:15:14.86	332.25	24.74	-24.2	-25.3	18.6	0.00e+00	0	43	0	1360003072	8	4124
2026-01-30 04:15:15.86	331.97	24.79	-24.2	-25.5	18.5	0.00e+00	0	43	0	1365245952	8	4166
2026-01-30 04:15:16.86	331.70	24.84	-23.9	-24.9	18.8	6.06e-04	0	44	0	1370488832	8	4012
2026-01-30 04:15:17.86	331.42	24.89	-23.6	-24.6	19.1	6.28e-04	0	43	0	1376780288	7	4060
2026-01-30 04:15:18.86	331.14	24.94	-23.4	-24.2	19.4	0.00e+00	0	43	0	1382023168	7	3965
2026-01-30 04:15:19.87	330.86	25.00	-23.3	-24.1	19.4	0.00e+00	0	43	0	1387266048	7	3940
2026-01-30 04:15:20.88	330.58	25.05	-23.4	-24.3	19.3	3.66e-04	0	44	0	1393557504	7	3982
2026-01-30 04:15:21.88	330.30	25.09	-23.3	-24.1	19.4	0.00e+00	0	43	0	1398800384	7	3937
2026-01-30 04:15:22.88	330.02	25.14	-23.3	-24.0	19.5	1.29e-04	0	44	0	1405091840	7	3905
2026-01-30 04:15:23.88	329.74	25.19	-23.2	-23.9	19.5	0.00e+00	0	43	0	1410334720	7	3891
2026-01-30 04:15:24.88	329.46	25.24	-23.4	-24.2	19.4	0.00e+00	0	43	0	1415577600	7	3949
2026-01-30 04:15:25.88	329.17	25.28	-23.2	-23.9	19.5	0.00e+00	0	43	0	1421869056	7	3891
2026-01-30 04:15:26.89	328.89	25.33	-23.3	-24.5	19.5	0.00e+00	0	43	0	1427111936	6	4144
2026-01-30 04:15:27.89	328.60	25.37	-23.3	-24.6	19.4	0.00e+00	0	43	0	1433403392	6	4155
2026-01-30 04:15:28.89	328.32	25.42	-23.5	-24.9	19.3	0.00e+00	0	43	0	1438646272	6	4243
2026-01-30 04:15:29.90	328.03	25.46	-23.3	-24.0	19.5	5.37e-05	0	43	0	1443889152	7	3917
2026-01-30 04:15:30.91	327.74	25.51	-23.2	-23.8	19.6	0.00e+00	0	43	0	1450180608	7	3862
2026-01-30 04:15:31.91	327.45	25.55	-23.2	-23.9	19.5	0.00e+00	0	44	0	1455423488	7	3885
2026-01-30 04:15:32.91	327.16	25.59	-23.1	-23.6	19.7	0.00e+00	0	43	0	1460666368	7	3828
2026-01-30 04:15:33.91	326.87	25.63	-23.1	-23.5	19.7	0.00e+00	0	43	0	1466957824	7	3806
2026-01-30 04:15:34.91	326.58	25.67	-23.2	-23.9	19.5	1.14e-05	0	43	0	1472200704	7	3878
2026-01-30 04:15:35.91	326.29	25.71	-23.2	-23.8	19.6	0.00e+00	0	43	0	1478492160	7	3853
2026-01-30 04:15:36.92	326.00	25.75	-23.3	-24.1	19.4	0.00e+00	0	44	0	1483735040	7	3944
2026-01-30 04:15:37.93	325.70	25.78	-23.5	-24.4	19.3	0.00e+00	0	43	0	1488977920	7	4006
2026-01-30 04:15:38.94	325.40	25.82	-23.5	-24.5	19.2	0.00e+00	0	43	0	1495269376	7	4039
2026-01-30 04:15:39.94	325.11	25.86	-23.5	-24.4	19.3	0.00e+00	0	43	0	1500512256	7	3996
2026-01-30 04:15:40.94	324.82	25.89	-23.4	-24.3	19.3	0.00e+00	0	43	0	1506803712	7	3976
2026-01-30 04:15:41.94	324.52	25.93	-23.3	-24.1	19.5	0.00e+00	0	43	0	1512046592	7	3925
2026-01-30 04:15:42.94	324.23	25.96	-23.2	-23.8	19.6	0.00e+00	0	43	0	1517289472	7	3871
2026-01-30 04:15:43.94	323.93	25.99	-23.2	-24.3	19.5	0.00e+00	0	44	0	1523580928	6	4103
2026-01-30 04:15:44.94	323.63	26.03	-23.1	-24.2	19.6	0.00e+00	0	43	0	1528823808	6	4067
2026-01-30 04:15:45.95	323.33	26.06	-23.2	-24.4	19.5	0.00e+00	0	43	0	1534066688	6	4108
2026-01-30 04:15:46.96	323.03	26.09	-23.4	-24.7	19.4	0.00e+00	0	43	0	1540358144	6	4192
2026-01-30 04:15:47.96	322.73	26.12	-23.2	-24.2	19.6	0.00e+00	0	43	0	1545601024	6	4071
2026-01-30 04:15:48.96	322.43	26.15	-23.2	-24.3	19.6	0.00e+00	0	43	0	1551892480	6	4102
2026-01-30 04:15:49.96	322.13	26.17	-23.4	-24.7	19.4	0.00e+00	0	43	0	1557135360	6	4179
2026-01-30 04:15:50.97	321.83	26.20	-23.3	-24.5	19.5	0.00e+00	0	43	0	1562378240	6	4130
2026-01-30 04:15:51.98	321.53	26.23	-23.4	-24.8	19.4	0.00e+00	0	43	0	1568669696	6	4207
2026-01-30 04:15:52.98	321.22	26.25	-23.3	-24.6	19.4	0.00e+00	0	43	0	1573912576	6	4158
2026-01-30 04:15:53.98	320.92	26.28	-23.3	-24.6	19.5	0.00e+00	0	43	0	1580204032	6	4157
2026-01-30 04:15:54.99	320.62	26.30	-23.4	-24.7	19.4	0.00e+00	0	44	0	1585446912	6	4186
2026-01-30 04:15:56.00	320.31	26.32	-23.3	-24.5	19.5	0.00e+00	0	43	0	1590689792	6	4131
2026-01-30 04:15:57.00	320.01	26.35	-23.3	-24.5	19.5	0.00e+00	0	44	0	1596981248	6	4141
2026-01-30 04:15:57.99	319.71	26.37	-23.5	-24.9	19.3	0.00e+00	0	43	0	1602224128	6	4244
2026-01-30 04:15:59.00	319.40	26.39	-23.3	-24.6	19.4	0.00e+00	0	44	0	1607467008	6	4181
2026-01-30 04:16:00.00	319.09	26.41	-23.3	-24.5	19.5	0.00e+00	0	43	0	1613758464	6	4131
2026-01-30 04:16:01.01	318.79	26.43	-23.3	-24.6	19.4	0.00e+00	0	44	0	1619001344	6	4166
2026-01-30 04:16:02.01	318.48	26.44	-23.6	-24.6	19.2	0.00e+00	0	44	0	1625292800	7	4053
2026-01-30 04:16:03.01	318.18	26.46	-23.8	-25.1	19.0	0.00e+00	0	44	0	1630535680	7	4172
2026-01-30 04:16:04.01	317.87	26.47	-23.6	-24.7	19.2	0.00e+00	0	43	0	1635778560	7	4077
2026-01-30 04:16:05.01	317.56	26.49	-23.5	-24.6	19.2	0.00e+00	0	44	0	1642070016	7	4042
2026-01-30 04:16:06.02	317.25	26.50	-23.6	-24.7	19.2	0.00e+00	0	43	0	1647312896	7	4070
2026-01-30 04:16:07.03	316.94	26.52	-23.6	-24.7	19.2	0.00e+00	0	43	0	1652555776	7	4068
2026-01-30 04:16:08.03	316.64	26.53	-23.7	-24.8	19.1	0.00e+00	0	43	0	1658847232	7	4101
2026-01-30 04:16:09.04	316.33	26.54	-23.5	-24.4	19.3	0.00e+00	0	43	0	1664090112	7	4001
2026-01-30 04:16:10.03	316.02	26.55	-23.4	-24.2	19.4	0.00e+00	0	43	0	1670381568	7	3960
2026-01-30 04:16:11.04	315.71	26.56	-23.4	-24.2	19.4	0.00e+00	0	44	0	1675624448	7	3960
2026-01-30 04:16:12.04	315.40	26.57	-23.2	-23.7	19.6	0.00e+00	0	43	0	1680867328	7	3850
2026-01-30 04:16:13.05	315.09	26.58	-23.1	-23.7	19.7	0.00e+00	0	43	0	1687158784	7	3837
2026-01-30 04:16:14.05	314.79	26.58	-23.2	-23.9	19.6	0.00e+00	0	43	0	1692401664	7	3882
2026-01-30 04:16:15.05	314.48	26.59	-23.4	-24.2	19.4	0.00e+00	0	43	0	1698693120	7	3967
2026-01-30 04:16:16.05	314.17	26.59	-23.1	-23.7	19.7	0.00e+00	0	43	0	1703936000	7	3832
2026-01-30 04:16:17.04	313.86	26.60	-23.0	-23.8	19.8	0.00e+00	0	43	0	1709178880	6	3985
2026-01-30 04:16:18.04	313.56	26.60	-23.1	-24.0	19.7	0.00e+00	0	43	0	1715470336	6	4025
2026-01-30 04:16:19.05	313.24	26.60	-23.0	-23.9	19.8	0.00e+00	0	43	0	1720713216	6	4002
2026-01-30 04:16:20.04	312.94	26.60	-23.1	-24.1	19.7	0.00e+00	0	44	0	1725956096	6	4038
2026-01-30 04:16:21.05	312.63	26.60	-23.1	-24.2	19.7	0.00e+00	0	43	0	1732247552	6	4059
2026-01-30 04:16:22.04	312.32	26.60	-23.0	-24.0	19.7	0.00e+00	0	43	0	1737490432	6	4019
2026-01-30 04:16:23.04	312.01	26.60	-23.2	-24.3	19.6	0.00e+00	0	43	0	1742733312	6	4080
2026-01-30 04:16:24.03	311.71	26.60	-23.4	-24.8	19.4	0.00e+00	0	43	0	1749024768	6	4210
2026-01-30 04:16:25.04	311.40	26.60	-23.5	-24.9	19.3	0.00e+00	0	43	0	1754267648	6	4239
2026-01-30 04:16:26.05	311.08	26.59	-23.5	-24.9	19.3	0.00e+00	0	43	0	1760559104	6	4236
2026-01-30 04:16:27.06	310.77	26.59	-23.4	-24.7	19.4	0.00e+00	0	43	0	1765801984	6	4183
2026-01-30 04:16:28.06	310.46	26.58	-23.4	-24.7	19.4	0.00e+00	0	44	0	1771044864	6	4200
2026-01-30 04:16:29.07	310.15	26.57	-23.2	-24.3	19.6	0.00e+00	0	43	0	1777336320	6	4091
2026-01-30 04:16:30.07	309.84	26.57	-23.3	-24.5	19.5	0.00e+00	0	43	0	1782579200	6	4130
2026-01-30 04:16:31.07	309.54	26.56	-23.4	-24.7	19.4	0.00e+00	0	44	0	1787822080	6	4193
2026-01-30 04:16:32.07	309.23	26.55	-23.1	-24.2	19.6	0.00e+00	0	44	0	1794113536	6	4067
2026-01-30 04:16:33.07	308.92	26.54	-22.9	-23.8	19.8	0.00e+00	0	44	0	1799356416	6	3965
2026-01-30 04:16:34.07	308.61	26.52	-22.9	-23.7	19.9	0.00e+00	0	44	0	1805647872	6	3952
2026-01-30 04:16:35.08	308.30	26.51	-22.9	-23.6	19.9	0.00e+00	0	44	0	1810890752	6	3929
2026-01-30 04:16:36.08	308.00	26.50	-22.9	-23.7	19.9	0.00e+00	0	44	0	1816133632	6	3934
2026-01-30 04:16:37.08	307.69	26.48	-23.2	-24.2	19.6	0.00e+00	0	43	0	1822425088	6	4075
2026-01-30 04:16:38.08	307.38	26.47	-23.1	-24.2	19.6	0.00e+00	0	44	0	1827667968	6	4072
2026-01-30 04:16:39.09	307.08	26.45	-23.3	-24.6	19.4	0.00e+00	0	43	0	1833959424	6	4174
2026-01-30 04:16:40.09	306.77	26.44	-23.2	-24.4	19.5	0.00e+00	0	44	0	1839202304	6	4124
2026-01-30 04:16:41.10	306.46	26.42	-23.2	-24.4	19.5	0.00e+00	0	43	0	1844445184	6	4113
2026-01-30 04:16:42.10	306.16	26.40	-23.4	-24.7	19.4	0.00e+00	0	43	0	1850736640	6	4186
2026-01-30 04:16:43.10	305.85	26.38	-23.4	-24.7	19.4	1.05e-04	0	43	0	1855979520	6	4184
2026-01-30 04:16:44.10	305.55	26.36	-23.5	-24.4	19.2	2.16e-04	0	43	0	1861222400	7	4020
2026-01-30 04:16:45.11	305.24	26.34	-23.3	-24.0	19.5	0.00e+00	0	44	0	1867513856	7	3914
2026-01-30 04:16:46.11	304.94	26.31	-23.1	-23.7	19.6	2.60e-04	0	43	0	1872756736	7	3835
2026-01-30 04:16:47.11	304.64	26.29	-23.1	-24.1	19.6	0.00e+00	0	44	0	1879048192	6	4049
2026-01-30 04:16:48.11	304.33	26.27	-23.3	-24.5	19.5	0.00e+00	0	43	0	1884291072	6	4145
2026-01-30 04:16:49.11	304.03	26.24	-23.1	-24.2	19.6	8.12e-05	0	43	0	1889533952	6	4073
2026-01-30 04:16:50.12	303.73	26.22	-23.2	-24.3	19.6	1.27e-04	0	44	0	1895825408	6	4092
2026-01-30 04:16:51.12	303.43	26.19	-23.2	-24.3	19.5	0.00e+00	0	44	0	1901068288	6	4098
2026-01-30 04:16:52.12	303.12	26.16	-23.2	-24.4	19.5	1.83e-04	0	43	0	1906311168	6	4112
2026-01-30 04:16:53.12	302.82	26.13	-22.9	-23.7	19.9	2.07e-04	0	43	0	1912602624	6	3943
2026-01-30 04:16:54.12	302.53	26.11	-22.8	-23.4	20.0	0.00e+00	0	43	0	1917845504	6	3888
2026-01-30 04:16:55.13	302.22	26.08	-22.9	-23.7	19.9	2.13e-04	0	43	0	1923088384	6	3945
2026-01-30 04:16:56.13	301.92	26.04	-23.0	-24.0	19.7	2.67e-04	0	43	0	1929379840	6	4019
2026-01-30 04:16:57.13	301.63	26.01	-23.3	-24.5	19.4	0.00e+00	0	44	0	1934622720	6	4146
2026-01-30 04:16:58.13	301.33	25.98	-23.2	-24.3	19.5	2.61e-04	0	43	0	1940914176	6	4084
2026-01-30 04:16:59.14	301.03	25.95	-23.2	-24.3	19.6	2.47e-04	0	44	0	1946157056	6	4092
2026-01-30 04:17:00.14	300.73	25.91	-23.3	-24.5	19.5	0.00e+00	0	43	0	1952448512	6	4136
2026-01-30 04:17:01.14	300.44	25.88	-23.2	-24.3	19.5	0.00e+00	0	43	0	1957691392	6	4102
2026-01-30 04:17:02.14	300.14	25.84	-23.2	-24.2	19.6	0.00e+00	0	43	0	1962934272	6	4077
2026-01-30 04:17:03.15	299.85	25.81	-23.2	-24.3	19.5	0.00e+00	0	43	0	1969225728	6	4092
2026-01-30 04:17:04.15	299.55	25.77	-23.3	-24.6	19.4	0.00e+00	0	43	0	1974468608	6	4166
2026-01-30 04:17:05.16	299.26	25.73	-23.1	-24.1	19.6	0.00e+00	0	44	0	1979711488	6	4046
2026-01-30 04:17:06.16	298.97	25.69	-22.9	-23.7	19.8	0.00e+00	0	43	0	1986002944	6	3960
2026-01-30 04:17:07.16	298.68	25.65	-22.8	-23.6	19.9	0.00e+00	0	43	0	1991245824	6	3927
2026-01-30 04:17:08.17	298.38	25.61	-22.9	-23.7	19.9	0.00e+00	0	43	0	1996488704	6	3939
2026-01-30 04:17:09.18	298.09	25.57	-22.8	-23.5	20.0	0.00e+00	0	43	0	2002780160	6	3891
2026-01-30 04:17:10.18	297.80	25.53	-23.0	-24.0	19.7	0.00e+00	0	43	0	2008023040	6	4014
2026-01-30 04:17:11.19	297.51	25.49	-23.0	-23.9	19.7	0.00e+00	0	43	0	2014314496	6	4001
2026-01-30 04:17:12.20	297.22	25.44	-23.1	-24.2	19.6	0.00e+00	0	44	0	2019557376	6	4073
2026-01-30 04:17:13.20	296.93	25.40	-22.9	-23.8	19.8	0.00e+00	0	43	0	2025848832	6	3970
2026-01-30 04:17:14.21	296.64	25.35	-22.9	-23.8	19.8	0.00e+00	0	43	0	2031091712	6	3968
2026-01-30 04:17:15.20	296.36	25.31	-23.1	-24.1	19.6	0.00e+00	0	44	0	2036334592	6	4044
2026-01-30 04:17:16.21	296.08	25.26	-23.2	-24.3	19.5	0.00e+00	0	44	0	2042626048	6	4091
2026-01-30 04:17:17.22	295.79	25.22	-23.3	-24.6	19.4	0.00e+00	0	43	0	2047868928	6	4166
2026-01-30 04:17:18.22	295.51	25.17	-23.1	-24.2	19.6	1.10e-06	0	43	0	2053111808	6	4068
2026-01-30 04:17:19.22	295.23	25.12	-23.1	-24.1	19.6	0.00e+00	0	43	0	2059403264	6	4048
2026-01-30 04:17:20.23	294.94	25.07	-23.2	-24.3	19.5	0.00e+00	0	43	0	2064646144	6	4092
2026-01-30 04:17:21.23	294.66	25.02	-23.1	-24.2	19.5	0.00e+00	0	43	0	2070937600	6	4070
2026-01-30 04:17:22.24	294.38	24.97	-23.3	-24.4	19.4	0.00e+00	0	43	0	2076180480	6	4130
2026-01-30 04:17:23.24	294.10	24.92	-23.4	-24.7	19.3	0.00e+00	0	44	0	2081423360	6	4187
2026-01-30 04:17:24.25	293.82	24.87	-23.3	-24.6	19.3	0.00e+00	0	44	0	2087714816	6	4180
2026-01-30 04:17:25.26	293.54	24.82	-23.2	-24.4	19.4	0.00e+00	0	43	0	2092957696	6	4117
2026-01-30 04:17:26.26	293.27	24.77	-23.3	-24.5	19.4	0.00e+00	0	44	0	2099249152	6	4153
2026-01-30 04:17:27.26	292.99	24.71	-23.3	-24.6	19.3	0.00e+00	0	44	0	2104492032	6	4179
2026-01-30 04:17:28.27	292.72	24.66	-23.1	-24.2	19.6	0.00e+00	0	44	0	2109734912	6	4062
2026-01-30 04:17:29.27	292.44	24.60	-23.0	-24.0	19.6	0.00e+00	0	44	0	2116026368	6	4014
2026-01-30 04:17:30.27	292.17	24.55	-23.1	-24.1	19.6	0.00e+00	0	44	0	2121269248	6	4036
2026-01-30 04:17:31.28	291.90	24.49	-23.1	-24.1	19.6	0.00e+00	0	44	0	2126512128	6	4046
2026-01-30 04:17:32.29	291.63	24.44	-22.9	-23.8	19.7	0.00e+00	0	43	0	2132803584	6	3970
2026-01-30 04:17:33.29	291.36	24.38	-22.9	-23.7	19.8	0.00e+00	0	43	0	2138046464	6	3951
2026-01-30 04:17:34.30	291.09	24.32	-22.9	-23.7	19.8	0.00e+00	0	43	0	2144337920	6	3952
2026-01-30 04:17:35.30	290.82	24.26	-22.8	-23.5	19.8	0.00e+00	0	43	0	2149580800	6	3912
2026-01-30 04:17:36.31	290.55	24.20	-22.9	-23.7	19.7	0.00e+00	0	44	0	2154823680	6	3963
2026-01-30 04:17:37.32	290.29	24.15	-23.0	-24.0	19.6	0.00e+00	0	43	0	2161115136	6	4028
2026-01-30 04:17:38.31	290.02	24.09	-23.1	-24.2	19.5	0.00e+00	0	43	0	2166358016	6	4069
2026-01-30 04:17:39.31	289.76	24.03	-23.2	-24.3	19.4	0.00e+00	0	44	0	2172649472	6	4094
2026-01-30 04:17:40.32	289.50	23.97	-23.2	-24.3	19.4	0.00e+00	0	43	0	2177892352	6	4100
2026-01-30 04:17:41.32	289.24	23.90	-23.2	-24.4	19.4	0.00e+00	0	44	0	2183135232	6	4123
2026-01-30 04:17:42.33	288.97	23.84	-23.3	-24.6	19.3	0.00e+00	0	43	0	2189426688	6	4166
2026-01-30 04:17:43.33	288.72	23.78	-23.3	-24.5	19.3	0.00e+00	0	44	0	2194669568	6	4132
2026-01-30 04:17:44.33	288.46	23.72	-23.1	-24.2	19.5	0.00e+00	0	44	0	2199912448	6	4071
2026-01-30 04:17:45.34	288.20	23.66	-23.1	-24.1	19.5	0.00e+00	0	44	0	2206203904	6	4036
2026-01-30 04:17:46.35	287.94	23.59	-23.1	-24.2	19.5	0.00e+00	0	43	0	2211446784	6	4074
2026-01-30 04:17:47.35	287.69	23.53	-23.2	-24.4	19.4	0.00e+00	0	43	0	2217738240	6	4126
2026-01-30 04:17:48.35	287.43	23.46	-23.1	-24.2	19.5	0.00e+00	0	43	0	2222981120	6	4064
2026-01-30 04:17:49.35	287.18	23.40	-23.1	-24.1	19.5	0.00e+00	0	43	0	2228224000	6	4038
2026-01-30 04:17:50.35	286.93	23.33	-23.1	-24.1	19.5	0.00e+00	0	43	0	2234515456	6	4041
2026-01-30 04:17:51.36	286.68	23.27	-23.1	-24.1	19.5	0.00e+00	0	44	0	2239758336	6	4039
2026-01-30 04:17:52.36	286.43	23.20	-22.9	-23.8	19.7	0.00e+00	0	43	0	2246049792	6	3970
2026-01-30 04:17:53.36	286.18	23.13	-23.0	-23.9	19.6	0.00e+00	0	43	0	2251292672	6	4005
2026-01-30 04:17:54.37	285.93	23.07	-23.1	-24.1	19.5	0.00e+00	0	43	0	2256535552	6	4052
2026-01-30 04:17:55.37	285.68	23.00	-23.2	-24.3	19.4	0.00e+00	0	43	0	2262827008	6	4100
2026-01-30 04:17:56.37	285.44	22.93	-23.2	-24.4	19.4	0.00e+00	0	44	0	2268069888	6	4115
2026-01-30 04:17:57.38	285.19	22.86	-23.2	-24.4	19.4	0.00e+00	0	43	0	2273312768	6	4125
2026-01-30 04:17:58.38	284.95	22.80	-23.1	-24.2	19.5	0.00e+00	0	44	0	2279604224	6	4057
2026-01-30 04:17:59.38	284.71	22.73	-23.2	-24.2	19.4	0.00e+00	0	43	0	2284847104	6	4079
2026-01-30 04:18:00.38	284.47	22.66	-23.3	-24.6	19.2	0.00e+00	0	44	0	2290089984	6	4175
2026-01-30 04:18:01.38	284.23	22.59	-23.4	-24.8	19.1	0.00e+00	0	43	0	2296381440	6	4226
2026-01-30 04:18:02.38	283.99	22.52	-23.5	-24.4	19.1	0.00e+00	0	44	0	2301624320	7	4015
2026-01-30 04:18:03.39	283.75	22.45	-23.4	-24.2	19.2	0.00e+00	0	43	0	2307915776	7	3958
2026-01-30 04:18:04.39	283.51	22.38	-23.3	-24.1	19.3	0.00e+00	0	43	0	2313158656	7	3932
2026-01-30 04:18:05.39	283.28	22.31	-23.4	-24.3	19.2	0.00e+00	0	43	0	2319450112	7	3982
2026-01-30 04:18:06.40	283.04	22.23	-23.6	-24.8	18.9	3.55e-04	0	43	0	2324692992	7	4092
2026-01-30 04:18:07.41	282.81	22.16	-23.7	-24.8	18.9	0.00e+00	0	44	0	2329935872	7	4106
2026-01-30 04:18:08.41	282.57	22.09	-23.5	-24.6	19.0	0.00e+00	0	44	0	2336227328	7	4053
2026-01-30 04:18:09.42	282.34	22.02	-23.5	-24.5	19.1	0.00e+00	0	43	0	2341470208	7	4039
2026-01-30 04:18:10.43	282.11	21.95	-23.5	-24.5	19.0	0.00e+00	0	43	0	2346713088	7	4045
2026-01-30 04:18:11.43	281.88	21.87	-23.6	-24.7	18.9	0.00e+00	0	44	0	2353004544	7	4084
2026-01-30 04:18:12.44	281.65	21.80	-23.7	-24.8	18.9	0.00e+00	0	44	0	2358247424	7	4114
2026-01-30 04:18:13.44	281.42	21.73	-23.7	-25.0	18.8	5.94e-04	0	44	0	2364538880	7	4149
2026-01-30 04:18:14.44	281.20	21.65	-23.9	-25.2	18.7	0.00e+00	0	44	0	2369781760	7	4215
2026-01-30 04:18:15.44	280.97	21.58	-23.7	-24.9	18.8	5.81e-04	0	44	0	2375024640	7	4131
2026-01-30 04:18:16.44	280.75	21.51	-23.5	-24.6	19.0	0.00e+00	0	44	0	2381316096	7	4055
2026-01-30 04:18:17.45	280.53	21.43	-23.5	-24.6	19.0	0.00e+00	0	44	0	2386558976	7	4063
2026-01-30 04:18:18.44	280.31	21.36	-23.6	-24.6	19.0	4.26e-04	0	44	0	2392850432	7	4055
2026-01-30 04:18:19.45	280.08	21.28	-23.6	-24.7	18.9	0.00e+00	0	44	0	2398093312	7	4079
2026-01-30 04:18:20.45	279.86	21.21	-23.6	-24.7	18.9	0.00e+00	0	43	0	2403336192	7	4076
2026-01-30 04:18:21.45	279.65	21.13	-23.5	-24.4	19.1	0.00e+00	0	44	0	2409627648	7	3996
2026-01-30 04:18:22.45	279.43	21.06	-23.4	-24.2	19.1	5.72e-05	0	44	0	2414870528	7	3972
2026-01-30 04:18:23.46	279.21	20.98	-23.4	-24.3	19.1	0.00e+00	0	44	0	2420113408	7	3994
2026-01-30 04:18:24.46	279.00	20.90	-23.5	-24.5	19.0	0.00e+00	0	44	0	2426404864	7	4038
2026-01-30 04:18:25.47	278.78	20.83	-23.8	-25.1	18.7	0.00e+00	0	43	0	2431647744	7	4181
2026-01-30 04:18:26.48	278.57	20.75	-23.9	-25.4	18.6	1.10e-06	0	43	0	2436890624	7	4255
2026-01-30 04:18:27.48	278.35	20.67	-23.9	-25.3	18.6	0.00e+00	0	44	0	2443182080	7	4227
2026-01-30 04:18:28.48	278.14	20.60	-23.8	-25.2	18.6	0.00e+00	0	43	0	2448424960	7	4209
2026-01-30 04:18:29.48	277.93	20.52	-24.0	-25.5	18.5	0.00e+00	0	44	0	2454716416	7	4275
2026-01-30 04:18:30.49	277.72	20.44	-24.3	-25.7	18.2	0.00e+00	0	44	0	2459959296	8	4219
2026-01-30 04:18:31.49	277.52	20.37	-24.4	-25.4	18.0	0.00e+00	0	44	0	2466250752	9	4031
2026-01-30 04:18:32.49	277.31	20.29	-24.4	-25.3	18.1	0.00e+00	0	43	0	2471493632	9	4007
2026-01-30 04:18:33.49	277.10	20.21	-24.4	-25.5	18.0	0.00e+00	0	44	0	2476736512	9	4057
2026-01-30 04:18:34.50	276.90	20.13	-24.4	-25.3	18.1	0.00e+00	0	43	0	2483027968	9	4006
2026-01-30 04:18:35.50	276.70	20.06	-24.3	-25.2	18.1	0.00e+00	0	43	0	2488270848	9	3974
2026-01-30 04:18:36.50	276.49	19.98	-24.4	-25.3	18.0	0.00e+00	0	44	0	2493513728	9	4012
2026-01-30 04:18:37.50	276.29	19.90	-24.4	-25.5	17.9	0.00e+00	0	44	0	2499805184	9	4051
2026-01-30 04:18:38.51	276.09	19.82	-24.7	-25.9	17.7	0.00e+00	0	43	0	2505048064	9	4171
2026-01-30 04:18:39.52	275.89	19.74	-24.8	-26.2	17.6	0.00e+00	0	44	0	2510290944	9	4230
2026-01-30 04:18:40.53	275.69	19.66	-24.5	-25.7	17.8	0.00e+00	0	44	0	2516582400	9	4121
2026-01-30 04:18:41.53	275.49	19.59	-24.4	-25.3	18.0	0.00e+00	0	44	0	2521825280	9	4010
2026-01-30 04:18:42.53	275.30	19.51	-24.2	-25.0	18.2	0.00e+00	0	44	0	2528116736	9	3944
2026-01-30 04:18:43.53	275.10	19.43	-24.2	-25.0	18.2	3.40e-06	0	43	0	2533359616	9	3936
2026-01-30 04:18:44.53	274.91	19.35	-24.2	-25.0	18.2	0.00e+00	0	44	0	2538602496	9	3933
2026-01-30 04:18:45.54	274.71	19.27	-24.1	-24.7	18.3	0.00e+00	0	44	0	2544893952	9	3868
2026-01-30 04:18:46.54	274.52	19.19	-24.0	-24.6	18.4	6.75e-05	0	43	0	2550136832	9	3849
2026-01-30 04:18:47.54	274.33	19.11	-24.2	-24.9	18.3	0.00e+00	0	43	0	2556428288	9	3905
2026-01-30 04:18:48.55	274.14	19.03	-24.2	-24.9	18.2	1.25e-04	0	44	0	2561671168	9	3915
2026-01-30 04:18:49.55	273.95	18.95	-24.2	-24.9	18.2	0.00e+00	0	44	0	2566914048	9	3911
2026-01-30 04:18:50.56	273.76	18.87	-24.1	-24.8	18.3	0.00e+00	0	43	0	2573205504	9	3882
2026-01-30 04:18:51.56	273.57	18.80	-24.2	-25.0	18.2	0.00e+00	0	43	0	2578448384	9	3937
2026-01-30 04:18:52.57	273.38	18.72	-24.4	-25.4	18.0	0.00e+00	0	44	0	2583691264	9	4040
2026-01-30 04:18:53.57	273.20	18.64	-24.4	-25.5	17.9	0.00e+00	0	44	0	2589982720	9	4053
2026-01-30 04:18:54.58	273.01	18.56	-24.3	-25.1	18.1	0.00e+00	0	44	0	2595225600	9	3973
2026-01-30 04:18:55.58	272.83	18.48	-24.2	-25.0	18.2	2.20e-06	0	44	0	2601517056	9	3938
2026-01-30 04:18:56.59	272.64	18.40	-24.4	-25.4	17.9	0.00e+00	0	44	0	2606759936	9	4042
2026-01-30 04:18:57.59	272.46	18.32	-24.4	-25.4	17.9	0.00e+00	0	44	0	2613051392	9	4029
2026-01-30 04:18:58.60	272.28	18.24	-24.5	-25.6	17.8	2.20e-06	0	44	0	2618294272	9	4076
2026-01-30 04:18:59.61	272.10	18.16	-24.5	-25.5	17.8	0.00e+00	0	43	0	2623537152	9	4070
2026-01-30 04:19:00.61	271.92	18.08	-24.4	-25.4	17.9	0.00e+00	0	44	0	2629828608	9	4025
2026-01-30 04:19:01.62	271.74	18.00	-24.3	-25.3	18.0	0.00e+00	0	44	0	2635071488	9	4005
2026-01-30 04:19:02.62	271.57	17.92	-24.4	-25.5	17.9	0.00e+00	0	44	0	2640314368	9	4058
2026-01-30 04:19:03.62	271.39	17.84	-24.5	-25.5	17.8	0.00e+00	0	43	0	2646605824	9	4076
2026-01-30 04:19:04.61	271.22	17.76	-24.6	-25.8	17.7	0.00e+00	0	44	0	2651848704	9	4129
2026-01-30 04:19:05.62	271.04	17.68	-24.6	-25.8	17.7	0.00e+00	0	44	0	2657091584	9	4149
2026-01-30 04:19:06.62	270.87	17.60	-24.5	-25.6	17.8	0.00e+00	0	43	0	2663383040	9	4096
2026-01-30 04:19:07.62	270.70	17.52	-24.5	-25.7	17.8	0.00e+00	0	44	0	2668625920	9	4105
2026-01-30 04:19:08.62	270.53	17.44	-24.5	-25.6	17.8	0.00e+00	0	43	0	2674917376	9	4100
2026-01-30 04:19:09.62	270.36	17.36	-24.5	-26.1	17.8	0.00e+00	0	43	0	2680160256	8	4331
2026-01-30 04:19:10.62	270.19	17.28	-24.6	-25.9	17.6	0.00e+00	0	44	0	2685403136	9	4160
2026-01-30 04:19:11.63	270.02	17.20	-24.7	-26.1	17.5	0.00e+00	0	43	0	2691694592	9	4204
2026-01-30 04:19:12.63	269.85	17.12	-24.6	-25.9	17.6	0.00e+00	0	44	0	2696937472	9	4155
2026-01-30 04:19:13.64	269.68	17.04	-24.6	-25.8	17.7	0.00e+00	0	44	0	2703228928	9	4123
2026-01-30 04:19:14.64	269.52	16.96	-24.6	-25.8	17.7	0.00e+00	0	44	0	2708471808	9	4125
2026-01-30 04:19:15.64	269.35	16.88	-24.7	-26.1	17.5	0.00e+00	0	44	0	2713714688	9	4203
2026-01-30 04:19:16.64	269.19	16.80	-24.7	-26.0	17.5	0.00e+00	0	44	0	2720006144	9	4199
2026-01-30 04:19:17.64	269.03	16.72	-24.9	-26.5	17.3	0.00e+00	0	44	0	2725249024	9	4321
2026-01-30 04:19:18.65	268.86	16.64	-24.9	-25.9	17.3	0.00e+00	0	44	0	2730491904	10	4064
2026-01-30 04:19:19.65	268.70	16.56	-24.7	-26.1	17.5	3.40e-06	0	44	0	2736783360	9	4207
2026-01-30 04:19:20.64	268.54	16.48	-24.7	-26.0	17.5	0.00e+00	0	44	0	2742026240	9	4195
2026-01-30 04:19:21.65	268.38	16.40	-24.8	-26.2	17.4	0.00e+00	0	44	0	2748317696	9	4234
2026-01-30 04:19:22.64	268.23	16.32	-24.8	-26.2	17.4	2.20e-06	0	43	0	2753560576	9	4234
2026-01-30 04:19:23.65	268.07	16.24	-24.9	-26.4	17.3	0.00e+00	0	44	0	2758803456	9	4286
2026-01-30 04:19:24.65	267.91	16.16	-24.8	-26.3	17.3	0.00e+00	0	44	0	2765094912	9	4278
2026-01-30 04:19:25.65	267.75	16.08	-24.9	-26.4	17.3	0.00e+00	0	43	0	2770337792	9	4290
2026-01-30 04:19:26.65	267.60	16.00	-24.8	-26.3	17.4	0.00e+00	0	44	0	2775580672	9	4272
2026-01-30 04:19:27.65	267.45	15.92	-24.9	-26.4	17.3	0.00e+00	0	44	0	2781872128	9	4295
2026-01-30 04:19:28.66	267.29	15.84	-24.8	-26.3	17.4	0.00e+00	0	43	0	2787115008	9	4265
2026-01-30 04:19:29.66	267.14	15.76	-24.8	-26.3	17.3	0.00e+00	0	44	0	2792357888	9	4275
2026-01-30 04:19:30.66	266.99	15.69	-24.9	-26.5	17.3	0.00e+00	0	43	0	2798649344	9	4310
2026-01-30 04:19:31.67	266.83	15.61	-24.9	-26.6	17.2	0.00e+00	0	43	0	2803892224	9	4341
2026-01-30 04:19:32.66	266.68	15.53	-25.0	-26.2	17.2	0.00e+00	0	44	0	2810183680	10	4118
2026-01-30 04:19:33.66	266.54	15.45	-25.0	-26.2	17.1	0.00e+00	0	44	0	2815426560	10	4140
2026-01-30 04:19:34.66	266.39	15.37	-25.0	-26.3	17.1	0.00e+00	0	44	0	2820669440	10	4158
2026-01-30 04:19:35.67	266.24	15.29	-25.1	-26.3	17.1	0.00e+00	0	44	0	2826960896	10	4163
2026-01-30 04:19:36.67	266.09	15.21	-25.2	-26.5	17.0	0.00e+00	0	44	0	2832203776	10	4210
2026-01-30 04:19:37.67	265.94	15.13	-25.1	-26.4	17.0	0.00e+00	0	43	0	2837446656	10	4185
2026-01-30 04:19:38.68	265.80	15.05	-25.1	-26.4	17.0	0.00e+00	0	44	0	2843738112	10	4168
2026-01-30 04:19:39.68	265.65	14.97	-25.1	-26.4	17.0	0.00e+00	0	44	0	2848980992	10	4193
2026-01-30 04:19:40.68	265.51	14.90	-25.1	-26.5	16.9	0.00e+00	0	44	0	2854223872	10	4209
2026-01-30 04:19:41.68	265.37	14.82	-25.1	-26.5	16.9	0.00e+00	0	44	0	2860515328	10	4203
2026-01-30 04:19:42.69	265.22	14.74	-25.3	-26.8	16.7	0.00e+00	0	44	0	2865758208	10	4298
2026-01-30 04:19:43.69	265.08	14.66	-25.3	-26.8	16.8	0.00e+00	0	44	0	2872049664	10	4288
2026-01-30 04:19:44.68	264.94	14.58	-25.2	-26.6	16.9	0.00e+00	0	44	0	2877292544	10	4238
2026-01-30 04:19:45.69	264.80	14.50	-25.2	-26.7	16.8	4.20e-04	0	44	0	2883584000	10	4266
2026-01-30 04:19:46.69	264.66	14.43	-25.2	-26.6	16.9	0.00e+00	0	44	0	2888826880	10	4243
2026-01-30 04:19:47.70	264.52	14.35	-25.1	-26.5	16.9	0.00e+00	0	44	0	2894069760	10	4206
2026-01-30 04:19:48.71	264.38	14.27	-25.2	-26.7	16.8	0.00e+00	0	44	0	2900361216	10	4261
2026-01-30 04:19:49.71	264.24	14.19	-25.2	-26.7	16.8	0.00e+00	0	44	0	2905604096	10	4249
2026-01-30 04:19:50.71	264.11	14.11	-25.2	-26.7	16.8	0.00e+00	0	43	0	2910846976	10	4270
2026-01-30 04:19:51.71	263.97	14.03	-25.3	-26.8	16.8	0.00e+00	0	43	0	2917138432	10	4281
2026-01-30 04:19:52.71	263.84	13.96	-25.3	-27.0	16.6	0.00e+00	0	44	0	2922381312	10	4338
2026-01-30 04:19:53.72	263.70	13.88	-25.4	-27.1	16.5	0.00e+00	0	44	0	2927624192	10	4364
2026-01-30 04:19:54.72	263.57	13.80	-25.5	-27.2	16.5	0.00e+00	0	44	0	2933915648	10	4394
2026-01-30 04:19:55.73	263.43	13.72	-25.7	-27.2	16.2	0.00e+00	0	44	0	2939158528	11	4292
2026-01-30 04:19:56.73	263.30	13.65	-25.6	-27.0	16.3	0.00e+00	0	44	0	2945449984	11	4228
2026-01-30 04:19:57.73	263.17	13.57	-25.6	-26.9	16.4	6.72e-04	0	44	0	2950692864	11	4207
2026-01-30 04:19:58.73	263.04	13.49	-25.6	-27.1	16.3	0.00e+00	0	44	0	2956984320	11	4247
2026-01-30 04:19:59.74	262.91	13.41	-25.6	-26.9	16.3	7.36e-04	0	43	0	2962227200	11	4214
2026-01-30 04:20:00.74	262.78	13.34	-25.5	-26.8	16.4	0.00e+00	0	44	0	2967470080	11	4181
2026-01-30 04:20:01.75	262.65	13.26	-25.7	-27.3	16.1	0.00e+00	0	44	0	2973761536	11	4310
2026-01-30 04:20:02.75	262.52	13.18	-25.8	-27.4	16.1	7.63e-04	0	44	0	2979004416	11	4327
2026-01-30 04:20:03.75	262.39	13.11	-25.8	-27.4	16.0	0.00e+00	0	44	0	2984247296	11	4352
2026-01-30 04:20:04.76	262.27	13.03	-26.0	-27.3	15.8	0.00e+00	0	44	0	2990538752	12	4206
2026-01-30 04:20:05.75	262.14	12.95	-26.2	-27.9	15.4	0.00e+00	0	44	0	2995781632	12	4370
2026-01-30 04:20:06.76	262.02	12.88	-26.0	-27.5	15.6	7.01e-04	0	44	0	3002073088	12	4261
2026-01-30 04:20:07.76	261.89	12.80	-25.8	-27.0	15.9	0.00e+00	0	44	0	3007315968	12	4123
2026-01-30 04:20:08.77	261.77	12.72	-25.8	-27.4	16.1	6.81e-04	0	44	0	3012558848	11	4330
2026-01-30 04:20:09.77	261.64	12.65	-25.9	-27.6	15.9	7.15e-04	0	44	0	3018850304	11	4390
2026-01-30 04:20:10.77	261.52	12.57	-25.9	-27.6	15.9	0.00e+00	0	44	0	3024093184	11	4394
2026-01-30 04:20:11.77	261.40	12.50	-25.9	-27.3	15.8	8.40e-04	0	44	0	3029336064	12	4207
2026-01-30 04:20:12.77	261.28	12.42	-26.3	-28.0	15.3	9.27e-04	0	44	0	3035627520	12	4399
2026-01-30 04:20:13.77	261.16	12.35	-26.2	-27.9	15.4	0.00e+00	0	44	0	3040870400	12	4365
2026-01-30 04:20:14.77	261.04	12.27	-26.1	-27.6	15.6	1.03e-03	0	44	0	3046113280	12	4280
2026-01-30 04:20:15.77	260.92	12.19	-26.0	-27.4	15.7	1.07e-03	0	44	0	3052404736	12	4236
2026-01-30 04:20:16.78	260.80	12.12	-26.1	-27.5	15.6	0.00e+00	0	44	0	3057647616	12	4274
2026-01-30 04:20:17.78	260.68	12.04	-26.0	-27.5	15.6	1.06e-03	0	44	0	3063939072	12	4266
2026-01-30 04:20:18.78	260.56	11.97	-26.2	-27.8	15.4	1.00e-03	0	44	0	3069181952	12	4348
2026-01-30 04:20:19.78	260.44	11.89	-26.0	-27.5	15.5	0.00e+00	0	44	0	3075473408	12	4274
2026-01-30 04:20:20.79	260.33	11.82	-25.9	-27.2	15.7	8.08e-04	0	44	0	3080716288	12	4178
2026-01-30 04:20:21.79	260.21	11.74	-25.9	-27.7	15.8	8.23e-04	0	44	0	3085959168	11	4417
2026-01-30 04:20:22.80	260.09	11.67	-25.9	-27.7	15.8	0.00e+00	0	44	0	3092250624	11	4426
2026-01-30 04:20:23.80	259.98	11.59	-26.0	-27.9	15.7	4.74e-04	0	44	0	3097493504	11	4487
2026-01-30 04:20:24.80	259.86	11.52	-26.0	-27.5	15.6	0.00e+00	0	44	0	3102736384	12	4260
2026-01-30 04:20:25.81	259.75	11.45	-26.2	-27.8	15.4	0.00e+00	0	44	0	3109027840	12	4358
2026-01-30 04:20:26.81	259.64	11.37	-26.1	-27.6	15.5	0.00e+00	0	44	0	3114270720	12	4304
2026-01-30 04:20:27.81	259.52	11.30	-26.0	-27.4	15.6	0.00e+00	0	44	0	3119513600	12	4248
2026-01-30 04:20:28.82	259.41	11.22	-26.0	-27.5	15.5	0.00e+00	0	44	0	3125805056	12	4275
2026-01-30 04:20:29.82	259.30	11.15	-26.0	-27.5	15.5	0.00e+00	0	44	0	3131047936	12	4261
2026-01-30 04:20:30.82	259.19	11.08	-26.1	-27.6	15.5	1.02e-05	0	44	0	3137339392	12	4284
2026-01-30 04:20:31.83	259.08	11.00	-25.9	-27.3	15.6	0.00e+00	0	44	0	3142582272	12	4203
2026-01-30 04:20:32.84	258.97	10.93	-25.8	-27.0	15.8	5.49e-05	0	44	0	3148873728	12	4133
2026-01-30 04:20:33.84	258.86	10.85	-25.8	-27.0	15.8	0.00e+00	0	44	0	3154116608	12	4142
2026-01-30 04:20:34.84	258.75	10.78	-25.9	-27.2	15.6	0.00e+00	0	44	0	3159359488	12	4198
2026-01-30 04:20:35.85	258.64	10.71	-26.0	-27.4	15.5	0.00e+00	0	44	0	3165650944	12	4230
2026-01-30 04:20:36.85	258.54	10.63	-26.0	-27.4	15.5	0.00e+00	0	43	0	3170893824	12	4247
2026-01-30 04:20:37.85	258.43	10.56	-26.1	-27.6	15.4	0.00e+00	0	44	0	3176136704	12	4297
2026-01-30 04:20:38.85	258.32	10.49	-26.1	-27.7	15.3	0.00e+00	0	44	0	3182428160	12	4333
2026-01-30 04:20:39.86	258.22	10.42	-26.2	-27.9	15.3	2.30e-04	0	44	0	3187671040	12	4366
2026-01-30 04:20:40.85	258.11	10.34	-26.2	-27.9	15.2	0.00e+00	0	43	0	3192913920	12	4377
2026-01-30 04:20:41.86	258.01	10.27	-26.3	-28.1	15.1	0.00e+00	0	43	0	3199205376	12	4429
2026-01-30 04:20:42.86	257.90	10.20	-26.2	-27.9	15.2	1.10e-06	0	43	0	3204448256	12	4381
2026-01-30 04:20:43.87	257.80	10.13	-26.2	-28.0	15.2	0.00e+00	0	44	0	3210739712	12	4394
2026-01-30 04:20:44.88	257.69	10.05	-26.2	-27.9	15.2	0.00e+00	0	44	0	3215982592	12	4365
2026-01-30 04:20:45.87	257.59	9.98	-26.2	-27.9	15.2	0.00e+00	0	44	0	3221225472	12	4368
2026-01-30 04:20:46.88	257.49	9.91	-26.2	-27.8	15.2	0.00e+00	0	44	0	3227516928	12	4349
2026-01-30 04:20:47.89	257.39	9.84	-26.3	-28.1	15.1	0.00e+00	0	44	0	3232759808	12	4433
2026-01-30 04:20:48.89	257.29	9.77	-26.2	-28.0	15.1	0.00e+00	0	44	0	3239051264	12	4394
2026-01-30 04:20:49.89	257.19	9.69	-26.2	-28.0	15.2	0.00e+00	0	44	0	3244294144	12	4398
2026-01-30 04:20:50.89	257.09	9.62	-26.3	-28.1	15.1	1.10e-06	0	43	0	3249537024	12	4451
2026-01-30 04:20:51.89	256.99	9.55	-26.3	-28.2	15.0	0.00e+00	0	44	0	3255828480	12	4471
2026-01-30 04:20:52.90	256.89	9.48	-26.4	-28.3	15.0	0.00e+00	0	44	0	3261071360	12	4494
2026-01-30 04:20:53.90	256.79	9.41	-26.5	-28.5	14.8	0.00e+00	0	44	0	3266314240	12	4572
2026-01-30 04:20:54.91	256.69	9.34	-26.4	-27.9	14.9	0.00e+00	0	44	0	3272605696	13	4268
2026-01-30 04:20:55.90	256.59	9.27	-26.4	-27.9	14.9	0.00e+00	0	44	0	3277848576	13	4263
2026-01-30 04:20:56.91	256.50	9.20	-26.4	-27.9	14.8	0.00e+00	0	44	0	3284140032	13	4275
2026-01-30 04:20:57.92	256.40	9.13	-26.4	-27.9	14.8	0.00e+00	0	44	0	3289382912	13	4265
2026-01-30 04:20:58.92	256.30	9.06	-26.4	-27.8	14.9	1.10e-06	0	44	0	3294625792	13	4249
2026-01-30 04:20:59.92	256.21	8.99	-26.4	-28.0	14.8	0.00e+00	0	44	0	3300917248	13	4291
2026-01-30 04:21:00.92	256.11	8.92	-26.4	-27.9	14.8	0.00e+00	0	44	0	3306160128	13	4262
2026-01-30 04:21:01.93	256.02	8.85	-26.5	-28.0	14.7	1.10e-06	0	44	0	3311403008	13	4304
2026-01-30 04:21:02.93	255.92	8.78	-26.5	-28.1	14.7	2.20e-06	0	44	0	3317694464	13	4324
2026-01-30 04:21:03.93	255.83	8.71	-26.4	-28.5	14.7	2.20e-06	0	44	0	3322937344	12	4550
2026-01-30 04:21:04.93	255.74	8.64	-26.5	-28.5	14.7	0.00e+00	0	44	0	3329228800	12	4568
2026-01-30 04:21:05.94	255.64	8.57	-26.6	-28.4	14.5	1.10e-06	0	44	0	3334471680	13	4424
2026-01-30 04:21:06.94	255.55	8.50	-26.8	-28.8	14.2	0.00e+00	0	44	0	3339714560	13	4526
2026-01-30 04:21:07.95	255.46	8.43	-26.7	-28.5	14.4	1.10e-06	0	44	0	3346006016	13	4441
2026-01-30 04:21:08.95	255.37	8.36	-26.6	-28.3	14.5	1.10e-06	0	44	0	3351248896	13	4394
2026-01-30 04:21:09.95	255.27	8.29	-26.6	-28.5	14.4	2.20e-06	0	44	0	3357540352	13	4438
2026-01-30 04:21:10.95	255.18	8.22	-26.7	-28.5	14.4	1.10e-06	0	44	0	3362783232	13	4456
2026-01-30 04:21:11.96	255.09	8.15	-26.7	-28.6	14.3	3.40e-06	0	44	0	3368026112	13	4472
2026-01-30 04:21:12.96	255.00	8.08	-26.7	-28.5	14.4	1.10e-06	0	44	0	3374317568	13	4453
2026-01-30 04:21:13.97	254.91	8.01	-26.8	-28.7	14.3	1.10e-06	0	44	0	3379560448	13	4510
2026-01-30 04:21:14.97	254.83	7.95	-26.7	-28.6	14.3	8.00e-06	0	44	0	3384803328	13	4477
2026-01-30 04:21:15.97	254.74	7.88	-26.7	-28.7	14.2	6.80e-06	0	44	0	3391094784	13	4509
2026-01-30 04:21:16.97	254.65	7.81	-26.7	-28.5	14.3	1.10e-06	0	44	0	3396337664	13	4453
2026-01-30 04:21:17.97	254.56	7.74	-26.7	-28.7	14.2	5.70e-06	0	44	0	3401580544	13	4498
2026-01-30 04:21:18.98	254.47	7.67	-26.7	-28.5	14.3	1.10e-06	0	44	0	3407872000	13	4451
2026-01-30 04:21:19.98	254.39	7.61	-26.7	-28.5	14.4	1.10e-06	0	44	0	3413114880	13	4438
2026-01-30 04:21:20.98	254.30	7.54	-26.7	-28.5	14.3	8.00e-06	0	44	0	3419406336	13	4451
2026-01-30 04:21:21.98	254.22	7.47	-26.6	-28.4	14.3	1.10e-06	0	44	0	3424649216	13	4430
2026-01-30 04:21:22.99	254.13	7.40	-26.1	-28.0	14.0	2.20e-06	0	44	0	3430940672	13	4454
2026-01-30 04:21:23.99	254.04	7.33	-26.7	-28.5	12.9	2.20e-06	0	44	0	3436183552	13	4461
2026-01-30 04:21:25.00	253.96	7.27	-26.7	-28.5	14.3	2.20e-06	0	44	0	3441426432	13	4463
2026-01-30 04:21:26.00	253.87	7.20	-26.7	-28.6	14.2	1.10e-06	0	44	0	3447717888	13	4465
2026-01-30 04:21:27.01	253.79	7.13	-26.7	-28.5	14.3	5.70e-06	0	44	0	3452960768	13	4447
2026-01-30 04:21:28.02	253.71	7.06	-33.0	-44.1	3.8	8.46e-01	0	44	104	3455057920	25	13063
2026-01-30 04:21:29.02	253.62	7.00	-33.5	-44.6	3.8	8.46e-01	0	44	104	3455057920	27	12886
2026-01-30 04:21:30.03	253.54	6.93	-33.8	-45.2	3.8	8.47e-01	0	44	104	3455057920	27	13296

#Closed at: 2026-01-30 04:21:30
#Recorded file [3455 MB]: D:/data/31010_260130_071112.dat