passes_logs/2026/01/30/R2M6_AANII_01/R2M6_AANII_01__20260130_015457_NOAA_20_JPSS-1_rec.log

#Pass ID: 20260130_015457_NOAA 20 (JPSS-1)
#Satellite: NOAA 20 (JPSS-1)
#Configuration: NOAA 20
#almurnet v.1.7.20240730
#Start time: 2026-01-30 01:54:58

#Version: 2.2.20231116
#Station: R2M6_AANII_01
#Location: 30.233357 lon 59.946436 lat
#TLE: 1 43013U 17073A   26028.86313978  .00000144  00000+0  89200-4 0  9993
#TLE: 2 43013  98.7648 329.6571 0000891  20.0014 340.1197 14.19541559424709

#Time	Az	El	Level	Level2	SNR	BER	BlckErr	Temp	State	Recorded	gain1	gain2
2026-01-30 01:54:58.99	11.45	7.10	-32.7	-41.3	4.4	1.41e+00	0	41	0	0	25	9739
2026-01-30 01:54:59.98	11.38	7.17	-32.6	-40.4	4.5	1.35e+00	0	41	104	0	25	8899
2026-01-30 01:55:00.98	11.30	7.24	-32.6	-40.3	6.0	3.36e-01	0	41	0	0	25	8759
2026-01-30 01:55:01.99	11.22	7.31	-32.5	-40.2	6.1	3.21e-01	0	41	0	1048576	25	8654
2026-01-30 01:55:02.99	11.15	7.37	-32.6	-40.3	6.1	3.18e-01	0	41	0	3145728	25	8748
2026-01-30 01:55:04.00	11.07	7.44	-32.5	-40.0	6.2	3.02e-01	0	41	0	5242880	25	8504
2026-01-30 01:55:05.00	10.99	7.51	-32.4	-39.6	6.9	2.41e-01	0	41	0	7340032	24	8242
2026-01-30 01:55:06.00	10.91	7.58	-32.2	-38.6	7.7	1.11e-01	0	41	0	9437184	24	7510
2026-01-30 01:55:07.00	10.84	7.65	-32.0	-37.7	8.3	6.36e-02	0	41	0	10485760	24	6958
2026-01-30 01:55:08.01	10.76	7.72	-31.8	-37.3	9.1	3.47e-02	0	41	0	12582912	23	6765
2026-01-30 01:55:09.00	10.68	7.79	-31.6	-36.6	9.6	1.48e-02	0	41	0	14680064	23	6418
2026-01-30 01:55:10.00	10.60	7.86	-31.4	-36.0	10.1	7.87e-03	0	41	0	16777216	23	6068
2026-01-30 01:55:11.00	10.52	7.93	-31.3	-36.0	10.5	5.58e-03	0	41	0	17825792	22	6181
2026-01-30 01:55:12.00	10.44	8.00	-31.4	-36.4	10.3	4.49e-03	0	42	0	19922944	22	6365
2026-01-30 01:55:13.00	10.36	8.07	-31.4	-36.4	10.2	6.12e-03	0	41	0	22020096	22	6383
2026-01-30 01:55:14.00	10.28	8.14	-31.4	-36.4	10.2	5.88e-03	0	42	0	24117248	22	6403
2026-01-30 01:55:15.01	10.20	8.21	-31.5	-36.6	10.2	6.45e-03	0	42	0	26214400	22	6462
2026-01-30 01:55:16.02	10.11	8.28	-31.5	-36.2	10.0	6.94e-03	0	42	0	27262976	23	6176
2026-01-30 01:55:17.02	10.03	8.35	-31.7	-36.7	9.7	9.76e-03	0	42	0	29360128	23	6424
2026-01-30 01:55:18.02	9.95	8.42	-31.5	-36.2	10.1	9.26e-03	0	42	0	31457280	23	6146
2026-01-30 01:55:19.02	9.87	8.49	-31.6	-36.6	9.8	9.30e-03	0	42	0	33554432	23	6379
2026-01-30 01:55:20.02	9.78	8.56	-31.5	-36.1	10.2	7.60e-03	0	41	0	35651584	23	6108
2026-01-30 01:55:21.03	9.70	8.64	-31.4	-36.2	10.4	5.50e-03	0	42	0	36700160	22	6289
2026-01-30 01:55:22.02	9.61	8.71	-31.4	-36.4	10.3	7.26e-03	0	42	0	38797312	22	6346
2026-01-30 01:55:23.02	9.53	8.78	-31.6	-36.4	10.0	6.52e-03	0	42	0	40894464	23	6251
2026-01-30 01:55:24.03	9.44	8.85	-31.6	-36.6	9.7	8.85e-03	0	42	0	42991616	23	6384
2026-01-30 01:55:25.03	9.36	8.92	-31.8	-37.1	9.4	1.35e-02	0	42	0	45088768	23	6634
2026-01-30 01:55:26.03	9.27	8.99	-31.7	-36.6	9.7	1.20e-02	0	42	0	46137344	23	6401
2026-01-30 01:55:27.03	9.18	9.07	-31.6	-36.4	9.9	8.43e-03	0	42	0	48234496	23	6278
2026-01-30 01:55:28.04	9.10	9.14	-31.5	-36.2	10.1	7.47e-03	0	42	0	50331648	23	6178
2026-01-30 01:55:29.04	9.01	9.21	-31.5	-36.1	10.2	6.04e-03	0	42	0	52428800	23	6115
2026-01-30 01:55:30.05	8.92	9.28	-31.5	-36.1	10.1	6.18e-03	0	42	0	54525952	23	6127
2026-01-30 01:55:31.05	8.83	9.36	-31.5	-36.0	10.2	5.75e-03	0	42	0	55574528	23	6072
2026-01-30 01:55:32.05	8.74	9.43	-31.7	-36.7	9.7	7.06e-03	0	42	0	57671680	23	6407
2026-01-30 01:55:33.06	8.65	9.50	-31.5	-35.9	10.3	5.92e-03	0	42	0	59768832	23	6006
2026-01-30 01:55:34.06	8.56	9.58	-31.2	-35.6	11.0	3.17e-03	0	42	0	61865984	22	5974
2026-01-30 01:55:35.06	8.47	9.65	-31.4	-36.3	10.4	2.82e-03	0	42	0	62914560	22	6332
2026-01-30 01:55:36.06	8.38	9.72	-31.2	-35.7	10.9	2.15e-03	0	42	0	65011712	22	5987
2026-01-30 01:55:37.06	8.29	9.80	-31.0	-35.0	11.5	1.26e-03	0	42	0	67108864	22	5664
2026-01-30 01:55:38.06	8.20	9.87	-31.0	-34.9	11.6	7.52e-04	0	42	0	69206016	22	5635
2026-01-30 01:55:39.06	8.11	9.94	-31.0	-34.8	11.7	6.16e-04	0	42	0	71303168	22	5565
2026-01-30 01:55:40.06	8.02	10.02	-31.0	-35.2	11.7	5.74e-04	0	42	0	72351744	21	5884
2026-01-30 01:55:41.07	7.92	10.09	-30.9	-35.2	11.7	5.68e-04	0	42	0	74448896	21	5858
2026-01-30 01:55:42.08	7.83	10.17	-30.3	-34.1	11.6	6.33e-04	0	42	0	76546048	22	5634
2026-01-30 01:55:43.08	7.73	10.24	-31.1	-35.6	11.1	9.47e-04	0	42	0	78643200	21	6063
2026-01-30 01:55:44.08	7.64	10.32	-31.0	-34.9	11.5	7.24e-04	0	42	0	80740352	22	5628
2026-01-30 01:55:45.08	7.54	10.39	-30.9	-35.1	11.1	6.26e-04	0	42	0	81788928	21	5824
2026-01-30 01:55:46.09	7.45	10.47	-31.0	-35.2	11.7	2.97e-03	0	42	0	83886080	21	5862
2026-01-30 01:55:47.09	7.35	10.54	-31.0	-34.7	11.7	5.63e-04	0	42	0	85983232	22	5550
2026-01-30 01:55:48.08	7.25	10.62	-31.0	-35.2	11.7	6.00e-04	0	42	0	88080384	21	5871
2026-01-30 01:55:49.09	7.16	10.69	-31.1	-35.1	11.4	7.16e-04	0	42	0	90177536	22	5701
2026-01-30 01:55:50.10	7.06	10.77	-31.0	-34.8	11.7	7.41e-04	0	42	0	91226112	22	5573
2026-01-30 01:55:51.10	6.96	10.84	-31.0	-35.2	11.8	5.32e-04	0	42	0	93323264	21	5848
2026-01-30 01:55:52.10	6.86	10.92	-31.0	-34.8	11.6	5.38e-04	0	42	0	95420416	22	5584
2026-01-30 01:55:53.11	6.76	11.00	-31.0	-34.7	11.8	5.35e-04	0	42	0	97517568	22	5499
2026-01-30 01:55:54.11	6.66	11.07	-31.0	-34.8	11.7	5.16e-04	0	43	0	99614720	22	5574
2026-01-30 01:55:55.11	6.56	11.15	-30.9	-35.1	11.8	4.29e-04	0	42	0	100663296	21	5792
2026-01-30 01:55:56.10	6.46	11.22	-30.9	-34.9	11.9	3.74e-04	0	42	0	102760448	21	5731
2026-01-30 01:55:57.11	6.36	11.30	-31.0	-35.1	11.9	2.81e-03	0	43	0	104857600	21	5818
2026-01-30 01:55:58.11	6.26	11.38	-31.0	-34.9	11.7	5.42e-04	0	43	0	106954752	22	5588
2026-01-30 01:55:59.11	6.15	11.45	-31.0	-34.6	11.9	4.70e-04	0	42	0	108003328	22	5480
2026-01-30 01:56:00.12	6.05	11.53	-30.9	-35.0	11.9	2.69e-03	0	42	0	110100480	21	5767
2026-01-30 01:56:01.13	5.95	11.61	-30.9	-34.9	12.0	2.91e-03	0	42	0	112197632	21	5738
2026-01-30 01:56:02.13	5.84	11.69	-30.9	-35.0	12.0	3.92e-04	0	43	0	114294784	21	5766
2026-01-30 01:56:03.13	5.74	11.76	-31.0	-35.1	11.8	3.45e-04	0	42	0	116391936	21	5812
2026-01-30 01:56:04.13	5.63	11.84	-31.1	-34.9	11.7	3.11e-03	0	43	0	117440512	22	5623
2026-01-30 01:56:05.13	5.53	11.92	-31.2	-35.5	11.3	9.84e-04	0	43	0	119537664	22	5879
2026-01-30 01:56:06.13	5.42	12.00	-31.1	-35.0	11.7	8.79e-04	0	43	0	121634816	22	5649
2026-01-30 01:56:07.14	5.31	12.07	-31.0	-34.6	11.9	5.46e-04	0	42	0	123731968	22	5477
2026-01-30 01:56:08.14	5.20	12.15	-30.9	-34.5	12.0	3.41e-04	0	42	0	125829120	22	5411
2026-01-30 01:56:09.14	5.09	12.23	-30.9	-34.5	12.0	3.09e-04	0	43	0	126877696	22	5432
2026-01-30 01:56:10.15	4.98	12.31	-30.9	-34.5	12.0	4.77e-04	0	43	0	128974848	22	5418
2026-01-30 01:56:11.15	4.88	12.39	-30.9	-34.4	12.1	5.16e-04	0	43	0	131072000	22	5396
2026-01-30 01:56:12.15	4.77	12.47	-31.0	-34.8	11.9	3.24e-04	0	42	0	133169152	22	5544
2026-01-30 01:56:13.15	4.65	12.55	-31.1	-35.0	11.7	5.32e-04	0	43	0	135266304	22	5637
2026-01-30 01:56:14.16	4.54	12.63	-31.0	-34.6	12.0	4.61e-04	0	43	0	136314880	22	5463
2026-01-30 01:56:15.16	4.43	12.70	-30.9	-34.4	12.1	2.80e-04	0	43	0	138412032	22	5379
2026-01-30 01:56:16.17	4.32	12.78	-30.9	-34.4	12.2	2.17e-04	0	43	0	140509184	22	5365
2026-01-30 01:56:17.16	4.20	12.86	-30.9	-34.3	12.2	2.57e-04	0	43	0	142606336	22	5338
2026-01-30 01:56:18.17	4.09	12.94	-30.9	-34.4	12.1	2.17e-04	0	43	0	144703488	22	5374
2026-01-30 01:56:19.17	3.98	13.02	-30.9	-34.2	12.2	2.79e-04	0	43	0	145752064	22	5316
2026-01-30 01:56:20.18	3.86	13.10	-31.0	-34.8	11.9	2.91e-04	0	42	0	147849216	22	5527
2026-01-30 01:56:21.18	3.74	13.18	-31.2	-35.2	11.6	6.67e-04	0	43	0	149946368	22	5713
2026-01-30 01:56:22.18	3.63	13.26	-31.0	-34.7	11.9	4.67e-04	0	43	0	152043520	22	5487
2026-01-30 01:56:23.19	3.51	13.34	-31.0	-34.5	12.1	3.49e-04	0	43	0	153092096	22	5432
2026-01-30 01:56:24.20	3.39	13.43	-31.0	-34.6	12.1	2.65e-04	0	43	0	155189248	22	5455
2026-01-30 01:56:25.20	3.27	13.51	-31.0	-34.5	12.1	2.57e-04	0	43	0	157286400	22	5424
2026-01-30 01:56:26.20	3.15	13.59	-31.0	-34.7	11.9	3.20e-04	0	43	0	159383552	22	5510
2026-01-30 01:56:27.20	3.03	13.67	-31.0	-34.6	12.1	3.25e-04	0	43	0	161480704	22	5444
2026-01-30 01:56:28.20	2.91	13.75	-31.1	-34.9	11.8	4.05e-04	0	43	0	163577856	22	5585
2026-01-30 01:56:29.21	2.79	13.83	-31.2	-35.1	11.7	5.24e-04	0	43	0	164626432	22	5686
2026-01-30 01:56:30.20	2.67	13.91	-31.1	-34.9	11.9	4.82e-04	0	43	0	166723584	22	5569
2026-01-30 01:56:31.21	2.55	13.99	-31.0	-34.7	11.9	3.52e-04	0	43	0	168820736	22	5519
2026-01-30 01:56:32.21	2.42	14.07	-31.1	-34.9	11.8	4.13e-04	0	43	0	170917888	22	5578
2026-01-30 01:56:33.22	2.30	14.16	-31.1	-34.9	11.9	3.56e-04	0	43	0	171966464	22	5582
2026-01-30 01:56:34.22	2.17	14.24	-31.1	-35.0	11.8	4.50e-04	0	43	0	174063616	22	5617
2026-01-30 01:56:35.22	2.05	14.32	-31.2	-35.1	11.7	6.09e-04	0	43	0	176160768	22	5661
2026-01-30 01:56:36.22	1.92	14.40	-31.1	-35.0	11.8	5.44e-04	0	43	0	178257920	22	5622
2026-01-30 01:56:37.23	1.79	14.49	-31.1	-35.0	11.8	4.92e-04	0	43	0	180355072	22	5601
2026-01-30 01:56:38.23	1.67	14.57	-31.1	-34.8	11.9	4.57e-04	0	43	0	181403648	22	5541
2026-01-30 01:56:39.23	1.54	14.65	-31.2	-35.1	11.8	4.03e-04	0	43	0	183500800	22	5638
2026-01-30 01:56:40.24	1.41	14.73	-31.2	-35.3	11.6	5.90e-04	0	43	0	185597952	22	5741
2026-01-30 01:56:41.24	1.28	14.82	-31.1	-34.8	12.0	4.24e-04	0	43	0	187695104	22	5522
2026-01-30 01:56:42.24	1.15	14.90	-31.0	-34.4	12.2	2.39e-04	0	43	0	189792256	22	5369
2026-01-30 01:56:43.25	1.02	14.98	-30.9	-34.1	12.4	1.81e-04	0	43	0	190840832	22	5250
2026-01-30 01:56:44.25	0.89	15.07	-30.9	-34.2	12.4	1.36e-04	0	43	0	192937984	22	5273
2026-01-30 01:56:45.25	0.75	15.15	-30.9	-34.3	12.4	1.64e-04	0	43	0	195035136	22	5318
2026-01-30 01:56:46.25	0.62	15.23	-30.9	-34.3	12.3	3.31e-04	0	43	0	197132288	22	5304
2026-01-30 01:56:47.26	0.48	15.32	-30.9	-34.2	12.4	1.50e-04	0	43	0	199229440	22	5273
2026-01-30 01:56:48.26	0.35	15.40	-30.9	-34.1	12.5	1.25e-04	0	43	0	200278016	22	5220
2026-01-30 01:56:49.26	0.21	15.48	-30.9	-34.3	12.4	2.80e-04	0	43	0	202375168	22	5305
2026-01-30 01:56:50.27	0.08	15.57	-31.0	-34.5	12.2	2.70e-04	0	43	0	204472320	22	5390
2026-01-30 01:56:51.27	359.94	15.65	-30.9	-34.2	12.5	1.20e-04	0	43	0	206569472	22	5251
2026-01-30 01:56:52.27	359.80	15.74	-31.0	-34.4	12.3	2.94e-04	0	43	0	208666624	22	5351
2026-01-30 01:56:53.28	359.66	15.82	-30.9	-34.2	12.4	3.21e-04	0	43	0	209715200	22	5290
2026-01-30 01:56:54.28	359.52	15.91	-30.9	-34.2	12.4	9.99e-05	0	43	0	211812352	22	5284
2026-01-30 01:56:55.28	359.38	15.99	-30.9	-34.3	12.4	1.37e-04	0	43	0	213909504	22	5293
2026-01-30 01:56:56.29	359.24	16.08	-30.8	-34.4	12.6	3.28e-04	0	43	0	216006656	21	5468
2026-01-30 01:56:57.29	359.10	16.16	-30.8	-34.5	12.5	1.02e-04	0	43	0	218103808	21	5495
2026-01-30 01:56:58.29	358.95	16.25	-30.8	-34.3	12.7	8.62e-05	0	43	0	219152384	21	5431
2026-01-30 01:56:59.29	358.81	16.33	-30.8	-34.5	12.6	6.86e-05	0	43	0	221249536	21	5485
2026-01-30 01:57:00.30	358.66	16.42	-30.8	-34.5	12.6	1.04e-04	0	43	0	223346688	21	5499
2026-01-30 01:57:01.31	358.52	16.50	-30.7	-34.0	12.9	5.11e-05	0	43	0	225443840	21	5303
2026-01-30 01:57:02.31	358.37	16.59	-30.5	-33.7	13.2	2.28e-05	0	43	0	226492416	21	5175
2026-01-30 01:57:03.32	358.22	16.67	-30.5	-33.6	13.2	2.59e-05	0	43	0	228589568	21	5130
2026-01-30 01:57:04.33	358.07	16.76	-30.4	-33.4	13.3	1.98e-05	0	43	0	230686720	21	5076
2026-01-30 01:57:05.33	357.92	16.85	-30.4	-33.9	13.4	9.90e-06	0	43	0	232783872	20	5345
2026-01-30 01:57:06.34	357.77	16.93	-30.4	-33.9	13.3	1.90e-05	0	43	0	234881024	20	5353
2026-01-30 01:57:07.35	357.62	17.02	-30.4	-33.9	13.4	1.44e-05	0	43	0	236978176	20	5378
2026-01-30 01:57:08.35	357.47	17.11	-30.5	-33.5	13.3	1.75e-05	0	43	0	238026752	21	5102
2026-01-30 01:57:09.35	357.32	17.19	-30.6	-33.8	13.1	2.67e-05	0	43	0	240123904	21	5237
2026-01-30 01:57:10.35	357.16	17.28	-30.5	-33.5	13.3	2.82e-05	0	43	0	242221056	21	5097
2026-01-30 01:57:11.35	357.01	17.36	-30.4	-33.9	13.4	1.44e-05	0	43	0	244318208	20	5371
2026-01-30 01:57:12.36	356.85	17.45	-30.4	-33.3	13.4	1.90e-05	0	43	0	245366784	21	5038
2026-01-30 01:57:13.36	356.70	17.54	-30.4	-33.4	13.3	1.98e-05	0	43	0	247463936	21	5078
2026-01-30 01:57:14.36	356.54	17.62	-30.6	-33.7	13.1	2.89e-05	0	43	0	249561088	21	5179
2026-01-30 01:57:15.36	356.38	17.71	-30.6	-33.8	13.1	3.12e-05	0	43	0	251658240	21	5222
2026-01-30 01:57:16.36	356.22	17.80	-30.4	-33.4	13.4	2.13e-05	0	43	0	253755392	21	5058
2026-01-30 01:57:17.37	356.06	17.88	-30.4	-33.7	13.4	1.14e-05	0	43	0	254803968	20	5280
2026-01-30 01:57:18.37	355.90	17.97	-30.5	-33.9	13.4	1.37e-05	0	43	0	256901120	20	5372
2026-01-30 01:57:19.37	355.74	18.06	-30.6	-33.8	13.1	2.21e-05	0	43	0	258998272	21	5220
2026-01-30 01:57:20.37	355.58	18.14	-30.6	-33.9	13.0	4.88e-05	0	43	0	261095424	21	5265
2026-01-30 01:57:21.38	355.41	18.23	-30.6	-33.9	13.1	2.89e-05	0	43	0	263192576	21	5246
2026-01-30 01:57:22.38	355.25	18.32	-30.7	-34.1	13.0	5.79e-05	0	43	0	264241152	21	5327
2026-01-30 01:57:23.38	355.08	18.41	-30.6	-33.9	13.0	3.58e-05	0	43	0	266338304	21	5260
2026-01-30 01:57:24.38	354.92	18.49	-30.5	-33.4	13.3	2.21e-05	0	43	0	268435456	21	5070
2026-01-30 01:57:25.39	354.75	18.58	-30.4	-33.7	13.5	9.10e-06	0	43	0	270532608	20	5291
2026-01-30 01:57:26.38	354.58	18.67	-30.5	-34.0	13.4	9.90e-06	0	43	0	272629760	20	5394
2026-01-30 01:57:27.39	354.41	18.75	-30.6	-33.9	13.0	1.75e-05	0	43	0	273678336	21	5242
2026-01-30 01:57:28.39	354.24	18.84	-30.6	-33.9	13.1	4.65e-05	0	43	0	275775488	21	5246
2026-01-30 01:57:29.39	354.07	18.93	-30.5	-33.4	13.4	2.44e-05	0	43	0	277872640	21	5060
2026-01-30 01:57:30.39	353.89	19.02	-30.4	-33.8	13.5	1.22e-05	0	43	0	279969792	20	5316
2026-01-30 01:57:31.39	353.72	19.10	-30.4	-33.6	13.6	4.29e-04	0	43	0	282066944	20	5248
2026-01-30 01:57:32.40	353.55	19.19	-30.5	-33.5	13.4	8.30e-06	0	43	0	283115520	21	5083
2026-01-30 01:57:33.40	353.37	19.28	-30.7	-34.0	13.0	2.28e-05	0	43	0	285212672	21	5296
2026-01-30 01:57:34.40	353.19	19.37	-30.7	-34.2	12.9	2.74e-05	0	43	0	287309824	21	5345
2026-01-30 01:57:35.40	353.02	19.45	-30.6	-33.9	13.1	3.05e-05	0	43	0	289406976	21	5230
2026-01-30 01:57:36.40	352.84	19.54	-30.5	-33.6	13.2	2.36e-05	0	43	0	290455552	21	5130
2026-01-30 01:57:37.41	352.66	19.63	-30.6	-33.7	13.2	2.51e-05	0	43	0	292552704	21	5181
2026-01-30 01:57:38.41	352.48	19.72	-30.7	-34.0	13.1	2.89e-05	0	43	0	294649856	21	5262
2026-01-30 01:57:39.41	352.29	19.80	-30.7	-34.2	12.9	5.11e-05	0	43	0	296747008	21	5342
2026-01-30 01:57:40.41	352.11	19.89	-30.8	-34.3	12.9	3.35e-05	0	43	0	298844160	21	5382
2026-01-30 01:57:41.42	351.93	19.98	-30.8	-34.3	12.8	6.63e-05	0	43	0	299892736	21	5415
2026-01-30 01:57:42.42	351.74	20.07	-30.8	-34.2	12.9	2.80e-04	0	43	0	301989888	21	5370
2026-01-30 01:57:43.42	351.56	20.16	-30.7	-34.2	13.0	3.73e-05	0	43	0	304087040	21	5344
2026-01-30 01:57:44.42	351.37	20.24	-30.8	-34.4	12.8	4.73e-05	0	43	0	306184192	21	5431
2026-01-30 01:57:45.43	351.18	20.33	-30.9	-34.5	12.7	2.27e-04	0	43	0	308281344	21	5496
2026-01-30 01:57:46.43	350.99	20.42	-30.8	-34.4	12.8	1.94e-04	0	43	0	309329920	21	5427
2026-01-30 01:57:47.43	350.80	20.51	-30.9	-34.7	12.6	9.46e-05	0	43	0	311427072	21	5553
2026-01-30 01:57:48.44	350.61	20.59	-30.8	-34.5	12.8	1.88e-04	0	43	0	313524224	21	5477
2026-01-30 01:57:49.45	350.41	20.68	-30.8	-34.4	12.8	1.76e-04	0	43	0	315621376	21	5460
2026-01-30 01:57:50.45	350.22	20.77	-30.9	-34.7	12.6	8.16e-05	0	43	0	317718528	21	5544
2026-01-30 01:57:51.45	350.02	20.86	-30.9	-34.7	12.6	9.53e-05	0	43	0	318767104	21	5583
2026-01-30 01:57:52.46	349.83	20.95	-30.9	-34.7	12.6	1.69e-04	0	43	0	320864256	21	5566
2026-01-30 01:57:53.46	349.63	21.03	-31.0	-34.5	12.5	1.06e-04	0	43	0	322961408	22	5356
2026-01-30 01:57:54.46	349.43	21.12	-31.1	-34.8	12.2	1.27e-04	0	43	0	325058560	22	5488
2026-01-30 01:57:55.47	349.23	21.21	-31.1	-34.8	12.2	2.77e-04	0	43	0	327155712	22	5488
2026-01-30 01:57:56.48	349.03	21.30	-30.9	-34.2	12.6	1.29e-04	0	43	0	328204288	22	5256
2026-01-30 01:57:57.49	348.82	21.38	-30.7	-33.6	13.0	5.26e-05	0	43	0	330301440	22	5011
2026-01-30 01:57:58.50	348.62	21.47	-30.8	-33.7	13.0	3.12e-05	0	43	0	332398592	22	5062
2026-01-30 01:57:59.50	348.41	21.56	-30.8	-33.8	13.0	3.96e-05	0	43	0	334495744	22	5069
2026-01-30 01:58:00.50	348.21	21.64	-30.9	-34.1	12.8	3.81e-05	0	43	0	336592896	22	5191
2026-01-30 01:58:01.51	348.00	21.73	-30.9	-34.0	12.8	9.07e-05	0	43	0	337641472	22	5177
2026-01-30 01:58:02.51	347.79	21.82	-30.7	-33.5	13.1	4.27e-05	0	43	0	339738624	22	4983
2026-01-30 01:58:03.51	347.59	21.90	-30.6	-33.3	13.3	2.28e-05	0	43	0	341835776	22	4895
2026-01-30 01:58:04.50	347.38	21.99	-30.5	-33.0	13.4	1.52e-05	0	43	0	343932928	22	4812
2026-01-30 01:58:05.51	347.17	22.08	-30.5	-33.0	13.5	8.30e-06	0	43	0	346030080	22	4803
2026-01-30 01:58:06.51	346.95	22.16	-30.5	-33.0	13.5	6.10e-06	0	43	0	347078656	22	4802
2026-01-30 01:58:07.51	346.74	22.25	-30.5	-33.0	13.5	1.37e-05	0	43	0	349175808	22	4782
2026-01-30 01:58:08.51	346.53	22.33	-30.5	-33.1	13.4	1.29e-05	0	43	0	351272960	22	4833
2026-01-30 01:58:09.52	346.31	22.42	-30.6	-33.4	13.3	1.22e-05	0	43	0	353370112	22	4929
2026-01-30 01:58:10.52	346.09	22.50	-30.6	-33.2	13.3	2.97e-05	0	43	0	354418688	22	4864
2026-01-30 01:58:11.52	345.87	22.59	-30.3	-32.5	13.7	2.21e-05	0	43	0	356515840	22	4639
2026-01-30 01:58:12.53	345.65	22.68	-30.2	-32.6	14.0	2.20e-06	0	43	0	358612992	21	4773
2026-01-30 01:58:13.52	345.43	22.76	-30.2	-32.7	14.0	4.50e-06	0	43	0	360710144	21	4781
2026-01-30 01:58:14.53	345.21	22.84	-30.2	-32.6	14.0	3.80e-06	0	43	0	362807296	21	4766
2026-01-30 01:58:15.53	344.99	22.93	-30.3	-32.9	13.9	6.10e-06	0	43	0	363855872	21	4874
2026-01-30 01:58:16.54	344.76	23.01	-30.3	-33.0	13.8	4.50e-06	0	43	0	365953024	21	4908
2026-01-30 01:58:17.54	344.53	23.10	-30.2	-32.7	13.9	6.10e-06	0	43	0	368050176	21	4810
2026-01-30 01:58:18.54	344.31	23.18	-30.2	-32.6	14.0	7.00e-07	0	43	0	370147328	21	4751
2026-01-30 01:58:19.54	344.08	23.27	-30.2	-32.7	14.1	1.50e-06	0	43	0	372244480	21	4784
2026-01-30 01:58:20.55	343.85	23.35	-30.1	-32.5	14.1	4.50e-06	0	43	0	373293056	21	4711
2026-01-30 01:58:21.54	343.62	23.43	-30.1	-32.3	14.2	0.00e+00	0	43	0	375390208	21	4669
2026-01-30 01:58:22.55	343.39	23.52	-30.2	-32.7	14.0	1.50e-06	0	43	0	377487360	21	4782
2026-01-30 01:58:23.55	343.15	23.60	-30.1	-32.5	14.1	4.50e-06	0	43	0	379584512	21	4728
2026-01-30 01:58:24.56	342.92	23.68	-30.0	-32.1	14.3	2.13e-05	0	43	0	381681664	21	4609
2026-01-30 01:58:25.56	342.68	23.76	-29.9	-31.9	14.5	7.00e-07	0	43	0	382730240	21	4544
2026-01-30 01:58:26.57	342.44	23.85	-29.9	-31.9	14.5	0.00e+00	0	43	0	384827392	21	4541
2026-01-30 01:58:27.57	342.20	23.93	-29.9	-32.0	14.4	5.26e-05	0	43	0	386924544	21	4552
2026-01-30 01:58:28.57	341.96	24.01	-29.9	-31.8	14.6	7.00e-07	0	43	0	389021696	21	4490
2026-01-30 01:58:29.56	341.73	24.09	-29.8	-32.1	14.7	0.00e+00	0	43	0	391118848	20	4679
2026-01-30 01:58:30.56	341.48	24.17	-29.7	-31.9	14.8	0.00e+00	0	43	0	392167424	20	4630
2026-01-30 01:58:31.57	341.24	24.25	-29.8	-32.1	14.7	0.00e+00	0	43	0	394264576	20	4692
2026-01-30 01:58:32.57	340.99	24.33	-29.9	-32.5	14.5	0.00e+00	0	43	0	396361728	20	4815
2026-01-30 01:58:33.56	340.75	24.41	-29.9	-32.4	14.5	7.00e-07	0	43	0	398458880	20	4794
2026-01-30 01:58:34.56	340.51	24.49	-29.9	-32.4	14.5	1.60e-04	0	43	0	399507456	20	4786
2026-01-30 01:58:35.56	340.26	24.57	-29.9	-32.4	14.5	0.00e+00	0	43	0	401604608	20	4789
2026-01-30 01:58:36.57	340.01	24.65	-30.1	-32.8	14.3	7.00e-07	0	43	0	403701760	20	4940
2026-01-30 01:58:37.57	339.75	24.73	-30.1	-32.9	14.2	5.30e-06	0	43	0	405798912	20	4948
2026-01-30 01:58:38.58	339.50	24.81	-30.0	-32.6	14.4	0.00e+00	0	43	0	407896064	20	4853
2026-01-30 01:58:39.58	339.25	24.88	-30.0	-32.5	14.4	0.00e+00	0	43	0	408944640	20	4839
2026-01-30 01:58:40.59	338.99	24.96	-30.0	-32.7	14.3	0.00e+00	0	43	0	411041792	20	4897
2026-01-30 01:58:41.59	338.73	25.04	-30.2	-33.1	14.1	2.20e-06	0	43	0	413138944	20	5048
2026-01-30 01:58:42.59	338.48	25.11	-30.2	-33.1	14.1	7.00e-07	0	44	0	415236096	20	5042
2026-01-30 01:58:43.60	338.22	25.19	-30.1	-33.0	14.2	2.20e-06	0	43	0	417333248	20	5013
2026-01-30 01:58:44.60	337.96	25.27	-30.2	-33.1	14.1	1.50e-06	0	43	0	418381824	20	5020
2026-01-30 01:58:45.61	337.69	25.34	-30.2	-33.2	14.1	5.76e-04	0	43	0	420478976	20	5064
2026-01-30 01:58:46.61	337.43	25.42	-30.1	-33.0	14.1	1.50e-06	0	43	0	422576128	20	4995
2026-01-30 01:58:47.62	337.17	25.49	-30.0	-32.7	14.3	0.00e+00	0	44	0	424673280	20	4909
2026-01-30 01:58:48.62	336.90	25.57	-30.1	-33.0	14.2	1.50e-06	0	43	0	426770432	20	4994
2026-01-30 01:58:49.62	336.64	25.64	-30.3	-33.4	13.9	7.00e-07	0	43	0	427819008	20	5152
2026-01-30 01:58:50.63	336.37	25.71	-30.3	-33.5	13.8	2.20e-06	0	43	0	429916160	20	5173
2026-01-30 01:58:51.63	336.10	25.79	-30.4	-33.6	13.8	6.80e-06	0	43	0	432013312	20	5216
2026-01-30 01:58:52.63	335.83	25.86	-30.5	-33.8	13.6	1.38e-03	0	43	0	434110464	20	5304
2026-01-30 01:58:53.63	335.56	25.93	-30.3	-33.1	13.8	4.50e-06	0	43	0	436207616	21	4918
2026-01-30 01:58:54.63	335.29	26.00	-30.2	-33.2	14.1	3.00e-06	0	43	0	437256192	20	5066
2026-01-30 01:58:55.63	335.01	26.07	-30.2	-33.1	14.1	5.30e-06	0	43	0	439353344	20	5054
2026-01-30 01:58:56.64	334.74	26.14	-30.3	-33.4	13.9	2.20e-06	0	43	0	441450496	20	5142
2026-01-30 01:58:57.64	334.46	26.21	-30.3	-33.5	13.8	4.50e-06	0	43	0	443547648	20	5210
2026-01-30 01:58:58.64	334.18	26.28	-30.4	-33.8	13.7	4.50e-06	0	43	0	445644800	20	5294
2026-01-30 01:58:59.64	333.91	26.35	-30.3	-33.5	13.8	6.10e-06	0	43	0	446693376	20	5171
2026-01-30 01:59:00.64	333.63	26.41	-30.2	-33.0	14.1	1.50e-06	0	43	0	448790528	20	5013
2026-01-30 01:59:01.64	333.35	26.48	-30.1	-33.0	14.2	0.00e+00	0	43	0	450887680	20	5001
2026-01-30 01:59:02.65	333.06	26.55	-30.1	-32.9	14.3	1.50e-06	0	43	0	452984832	20	4949
2026-01-30 01:59:03.65	332.78	26.61	-30.1	-32.8	14.3	0.00e+00	0	43	0	454033408	20	4930
2026-01-30 01:59:04.66	332.49	26.68	-30.1	-32.8	14.3	1.50e-06	0	43	0	456130560	20	4926
2026-01-30 01:59:05.66	332.21	26.74	-30.0	-32.7	14.4	0.00e+00	0	43	0	458227712	20	4878
2026-01-30 01:59:06.65	331.92	26.81	-29.9	-32.4	14.5	0.00e+00	0	43	0	460324864	20	4797
2026-01-30 01:59:07.66	331.63	26.87	-29.9	-32.3	14.6	7.00e-07	0	43	0	462422016	20	4758
2026-01-30 01:59:08.66	331.34	26.93	-30.0	-32.7	14.4	0.00e+00	0	43	0	463470592	20	4887
2026-01-30 01:59:09.66	331.06	27.00	-30.1	-32.8	14.3	1.50e-06	0	43	0	465567744	20	4919
2026-01-30 01:59:10.66	330.76	27.06	-30.1	-32.8	14.3	7.00e-07	0	43	0	467664896	20	4927
2026-01-30 01:59:11.66	330.47	27.12	-29.5	-32.3	14.1	1.50e-06	0	44	0	469762048	20	4986
2026-01-30 01:59:12.67	330.18	27.18	-30.2	-33.2	14.0	7.00e-07	0	43	0	471859200	20	5078
2026-01-30 01:59:13.68	329.88	27.24	-30.2	-33.2	14.1	7.00e-07	0	43	0	472907776	20	5072
2026-01-30 01:59:14.68	329.58	27.30	-30.3	-33.3	14.0	6.10e-06	0	43	0	475004928	20	5098
2026-01-30 01:59:15.68	329.29	27.35	-30.3	-33.4	13.9	3.00e-06	0	43	0	477102080	20	5163
2026-01-30 01:59:16.68	328.99	27.41	-30.4	-33.6	13.8	1.50e-06	0	43	0	479199232	20	5220
2026-01-30 01:59:17.69	328.69	27.47	-30.2	-33.3	14.0	6.10e-06	0	43	0	481296384	20	5095
2026-01-30 01:59:18.70	328.39	27.52	-30.0	-32.5	14.5	7.00e-07	0	43	0	482344960	20	4840
2026-01-30 01:59:19.70	328.08	27.58	-29.9	-32.3	14.6	0.00e+00	0	43	0	484442112	20	4750
2026-01-30 01:59:20.70	327.78	27.63	-29.9	-32.5	14.5	0.00e+00	0	43	0	486539264	20	4810
2026-01-30 01:59:21.71	327.48	27.69	-30.1	-32.9	14.2	0.00e+00	0	43	0	488636416	20	4980
2026-01-30 01:59:22.71	327.17	27.74	-30.2	-33.2	14.1	1.50e-06	0	43	0	490733568	20	5056
2026-01-30 01:59:23.71	326.87	27.79	-30.3	-33.3	14.0	3.53e-04	0	43	0	491782144	20	5106
2026-01-30 01:59:24.72	326.56	27.84	-30.2	-33.2	14.0	2.20e-06	0	43	0	493879296	20	5064
2026-01-30 01:59:25.72	326.25	27.89	-30.2	-33.0	14.1	7.00e-07	0	43	0	495976448	20	5006
2026-01-30 01:59:26.72	325.94	27.94	-30.2	-33.0	14.2	7.00e-07	0	43	0	498073600	20	4997
2026-01-30 01:59:27.72	325.64	27.99	-30.3	-33.4	14.0	3.84e-04	0	43	0	499122176	20	5152
2026-01-30 01:59:28.73	325.32	28.04	-30.5	-33.8	13.7	4.50e-06	0	43	0	501219328	20	5298
2026-01-30 01:59:29.73	325.01	28.08	-30.6	-33.6	13.5	5.30e-06	0	43	0	503316480	21	5119
2026-01-30 01:59:30.73	324.70	28.13	-30.7	-33.9	13.3	3.67e-04	0	44	0	505413632	21	5222
2026-01-30 01:59:31.74	324.39	28.17	-30.7	-33.9	13.3	1.52e-05	0	44	0	507510784	21	5200
2026-01-30 01:59:32.74	324.07	28.22	-30.8	-34.2	13.1	1.67e-05	0	43	0	509607936	21	5354
2026-01-30 01:59:33.75	323.76	28.26	-30.7	-34.1	13.1	4.84e-04	0	43	0	510656512	21	5304
2026-01-30 01:59:34.75	323.44	28.30	-30.9	-34.6	12.8	5.56e-05	0	43	0	512753664	21	5508
2026-01-30 01:59:35.76	323.12	28.34	-30.9	-34.1	12.9	6.94e-05	0	43	0	514850816	22	5178
2026-01-30 01:59:36.77	322.80	28.38	-30.8	-33.8	13.0	4.95e-05	0	43	0	516947968	22	5081
2026-01-30 01:59:37.77	322.48	28.42	-30.8	-33.6	13.1	2.74e-05	0	44	0	517996544	22	5005
2026-01-30 01:59:38.77	322.17	28.46	-30.7	-33.4	13.3	1.59e-04	0	44	0	520093696	22	4920
2026-01-30 01:59:39.77	321.85	28.50	-30.8	-34.2	13.1	3.05e-05	0	43	0	522190848	21	5328
2026-01-30 01:59:40.77	321.53	28.54	-30.6	-33.8	13.4	1.52e-05	0	43	0	524288000	21	5177
2026-01-30 01:59:41.78	321.20	28.57	-30.5	-33.5	13.5	1.72e-04	0	43	0	526385152	21	5081
2026-01-30 01:59:42.78	320.88	28.61	-30.6	-33.8	13.4	2.20e-04	0	43	0	527433728	21	5168
2026-01-30 01:59:43.79	320.56	28.64	-30.5	-33.6	13.6	9.90e-06	0	43	0	529530880	21	5087
2026-01-30 01:59:44.79	320.23	28.67	-30.6	-33.6	13.5	3.70e-04	0	43	0	531628032	21	5091
2026-01-30 01:59:45.80	319.91	28.70	-30.7	-33.9	13.3	3.85e-04	0	44	0	533725184	21	5209
2026-01-30 01:59:46.80	319.58	28.74	-30.8	-34.1	13.1	2.51e-05	0	43	0	535822336	21	5315
2026-01-30 01:59:47.81	319.26	28.77	-30.8	-34.4	13.0	3.68e-04	0	43	0	536870912	21	5406
2026-01-30 01:59:48.81	318.93	28.79	-30.8	-34.3	13.0	2.96e-04	0	43	0	538968064	21	5353
2026-01-30 01:59:49.81	318.61	28.82	-30.8	-34.3	13.1	3.12e-05	0	43	0	541065216	21	5370
2026-01-30 01:59:50.81	318.28	28.85	-30.8	-34.3	13.1	4.08e-04	0	44	0	543162368	21	5385
2026-01-30 01:59:51.82	317.95	28.87	-31.1	-34.4	12.7	5.59e-04	0	43	0	545259520	22	5320
2026-01-30 01:59:52.82	317.62	28.90	-31.0	-34.2	12.8	7.70e-05	0	43	0	546308096	22	5238
2026-01-30 01:59:53.82	317.29	28.92	-31.1	-34.6	12.5	4.01e-04	0	43	0	548405248	22	5401
2026-01-30 01:59:54.83	316.96	28.95	-31.3	-35.1	12.2	5.01e-04	0	43	0	550502400	22	5609
2026-01-30 01:59:55.83	316.63	28.97	-31.3	-35.1	12.2	2.17e-04	0	43	0	552599552	22	5572
2026-01-30 01:59:56.84	316.30	28.99	-31.2	-35.0	12.3	4.34e-04	0	43	0	554696704	22	5527
2026-01-30 01:59:57.84	315.97	29.01	-31.2	-34.8	12.4	4.22e-04	0	43	0	555745280	22	5455
2026-01-30 01:59:58.84	315.64	29.03	-31.3	-35.1	12.2	1.50e-04	0	43	0	557842432	22	5585
2026-01-30 01:59:59.85	315.31	29.04	-31.3	-35.3	12.1	4.65e-04	0	43	0	559939584	22	5652
2026-01-30 02:00:00.85	314.98	29.06	-31.6	-35.6	11.5	5.84e-04	0	43	0	562036736	23	5704
2026-01-30 02:00:01.85	314.65	29.07	-31.6	-35.7	11.5	9.36e-04	0	44	0	564133888	23	5752
2026-01-30 02:00:02.86	314.31	29.09	-31.7	-36.1	11.1	1.11e-03	0	44	0	565182464	23	5911
2026-01-30 02:00:03.86	313.98	29.10	-31.6	-35.7	11.4	1.24e-03	0	44	0	567279616	23	5756
2026-01-30 02:00:04.86	313.65	29.11	-31.4	-35.0	12.0	5.18e-04	0	43	0	569376768	23	5455
2026-01-30 02:00:05.86	313.32	29.12	-31.3	-34.6	12.2	2.98e-04	0	44	0	571473920	23	5263
2026-01-30 02:00:06.86	312.98	29.13	-31.2	-34.5	12.3	2.17e-04	0	43	0	573571072	23	5226
2026-01-30 02:00:07.86	312.65	29.14	-31.2	-34.3	12.4	1.72e-04	0	43	0	574619648	23	5171
2026-01-30 02:00:08.87	312.31	29.15	-31.1	-34.1	12.5	2.37e-04	0	44	0	576716800	23	5088
2026-01-30 02:00:09.88	311.98	29.16	-31.1	-34.5	12.6	2.22e-04	0	43	0	578813952	22	5336
2026-01-30 02:00:10.88	311.64	29.16	-31.1	-34.7	12.4	1.09e-04	0	43	0	580911104	22	5422
2026-01-30 02:00:11.89	311.31	29.17	-31.3	-35.2	12.1	2.14e-04	0	44	0	581959680	22	5637
2026-01-30 02:00:12.89	310.98	29.17	-31.4	-35.4	12.0	7.06e-04	0	43	0	584056832	22	5732
2026-01-30 02:00:13.89	310.64	29.17	-31.4	-35.6	11.9	3.90e-04	0	43	0	586153984	22	5788
2026-01-30 02:00:14.90	310.30	29.17	-31.4	-35.5	11.9	4.00e-04	0	43	0	588251136	22	5763
2026-01-30 02:00:15.90	309.97	29.17	-31.4	-35.5	11.9	4.89e-04	0	43	0	590348288	22	5781
2026-01-30 02:00:16.90	309.64	29.17	-31.6	-35.6	11.5	4.96e-04	0	43	0	591396864	23	5683
2026-01-30 02:00:17.90	309.30	29.17	-31.9	-36.5	10.9	1.77e-03	0	43	0	593494016	23	6142
2026-01-30 02:00:18.90	308.97	29.17	-31.7	-35.9	11.2	1.83e-03	0	44	0	595591168	23	5822
2026-01-30 02:00:19.90	308.64	29.16	-31.5	-35.3	11.7	1.11e-03	0	43	0	597688320	23	5558
2026-01-30 02:00:20.90	308.30	29.16	-31.4	-35.0	12.0	4.10e-04	0	43	0	599785472	23	5424
2026-01-30 02:00:21.91	307.97	29.15	-31.3	-34.6	12.1	2.88e-04	0	43	0	600834048	23	5291
2026-01-30 02:00:22.91	307.64	29.15	-31.2	-34.5	12.3	2.25e-04	0	44	0	602931200	23	5216
2026-01-30 02:00:23.91	307.30	29.14	-31.1	-34.1	12.5	1.27e-04	0	43	0	605028352	23	5077
2026-01-30 02:00:24.92	306.97	29.13	-31.1	-34.1	12.6	1.01e-04	0	43	0	607125504	23	5075
2026-01-30 02:00:25.92	306.63	29.12	-31.0	-33.8	12.7	1.03e-04	0	44	0	609222656	23	4973
2026-01-30 02:00:26.93	306.30	29.10	-31.1	-34.5	12.6	3.39e-04	0	43	0	610271232	22	5325
2026-01-30 02:00:27.92	305.97	29.09	-31.0	-34.2	12.8	6.71e-05	0	43	0	612368384	22	5232
2026-01-30 02:00:28.92	305.64	29.08	-30.8	-33.8	13.1	4.80e-05	0	43	0	614465536	22	5055
2026-01-30 02:00:29.93	305.30	29.06	-30.8	-34.1	13.1	2.59e-05	0	43	0	616562688	21	5303
2026-01-30 02:00:30.93	304.97	29.05	-30.7	-33.9	13.3	4.87e-04	0	43	0	618659840	21	5216
2026-01-30 02:00:31.93	304.64	29.03	-30.8	-34.1	13.2	2.59e-05	0	43	0	619708416	21	5303
2026-01-30 02:00:32.93	304.31	29.01	-30.7	-34.0	13.3	2.59e-05	0	44	0	621805568	21	5254
2026-01-30 02:00:33.93	303.98	28.99	-30.8	-34.3	13.0	2.74e-05	0	44	0	623902720	21	5356
2026-01-30 02:00:34.93	303.65	28.97	-30.7	-34.0	13.2	2.21e-05	0	44	0	625999872	21	5271
2026-01-30 02:00:35.93	303.32	28.95	-30.7	-33.9	13.3	2.13e-05	0	43	0	627048448	21	5231
2026-01-30 02:00:36.93	303.00	28.93	-30.5	-33.3	13.6	1.67e-05	0	43	0	629145600	21	5004
2026-01-30 02:00:37.93	302.67	28.90	-30.5	-33.4	13.6	6.10e-06	0	43	0	631242752	21	5023
2026-01-30 02:00:38.93	302.34	28.88	-30.4	-33.2	13.7	6.10e-06	0	43	0	633339904	21	4973
2026-01-30 02:00:39.93	302.01	28.85	-30.6	-33.6	13.5	1.90e-05	0	43	0	635437056	21	5120
2026-01-30 02:00:40.94	301.68	28.83	-30.5	-33.5	13.6	1.37e-05	0	43	0	636485632	21	5065
2026-01-30 02:00:41.94	301.36	28.80	-30.5	-33.3	13.7	9.10e-06	0	43	0	638582784	21	5012
2026-01-30 02:00:42.94	301.03	28.77	-30.5	-33.5	13.6	3.00e-06	0	43	0	640679936	21	5069
2026-01-30 02:00:43.94	300.71	28.74	-30.4	-33.0	13.8	9.90e-06	0	43	0	642777088	21	4909
2026-01-30 02:00:44.94	300.38	28.71	-30.3	-32.8	14.0	6.10e-06	0	43	0	644874240	21	4830
2026-01-30 02:00:45.94	300.06	28.68	-30.2	-32.7	14.0	1.50e-06	0	44	0	645922816	21	4775
2026-01-30 02:00:46.94	299.73	28.65	-30.0	-32.2	14.4	7.00e-07	0	43	0	648019968	21	4618
2026-01-30 02:00:47.95	299.41	28.61	-30.0	-32.1	14.4	7.00e-07	0	43	0	650117120	21	4592
2026-01-30 02:00:48.95	299.09	28.58	-30.1	-32.4	14.3	1.50e-06	0	44	0	652214272	21	4686
2026-01-30 02:00:49.96	298.76	28.54	-30.0	-32.2	14.4	0.00e+00	0	44	0	654311424	21	4607
2026-01-30 02:00:50.96	298.44	28.51	-30.1	-32.4	14.2	1.50e-06	0	43	0	655360000	21	4679
2026-01-30 02:00:51.96	298.12	28.47	-30.1	-32.4	14.2	1.50e-06	0	43	0	657457152	21	4672
2026-01-30 02:00:52.97	297.80	28.43	-30.2	-32.8	14.0	7.00e-07	0	43	0	659554304	21	4806
2026-01-30 02:00:53.97	297.48	28.39	-30.4	-33.1	13.8	2.20e-06	0	43	0	661651456	21	4931
2026-01-30 02:00:54.97	297.17	28.35	-30.2	-32.7	14.0	4.50e-06	0	44	0	663748608	21	4777
2026-01-30 02:00:55.97	296.85	28.31	-30.2	-32.6	14.1	3.00e-06	0	43	0	664797184	21	4740
2026-01-30 02:00:56.97	296.53	28.27	-30.1	-32.5	14.0	3.00e-06	0	44	0	666894336	21	4710
2026-01-30 02:00:57.98	296.21	28.23	-30.1	-32.5	14.2	0.00e+00	0	44	0	668991488	21	4703
2026-01-30 02:00:58.98	295.90	28.18	-30.3	-33.5	13.7	2.20e-06	0	43	0	671088640	20	5169
2026-01-30 02:00:59.98	295.59	28.14	-30.2	-33.1	14.0	4.50e-06	0	43	0	672137216	20	5040
2026-01-30 02:01:00.98	295.28	28.09	-30.2	-33.2	14.0	3.80e-06	0	43	0	674234368	20	5086
2026-01-30 02:01:01.99	294.96	28.04	-30.5	-33.9	13.6	2.20e-06	0	43	0	676331520	20	5313
2026-01-30 02:01:02.99	294.65	28.00	-30.4	-33.2	13.7	6.10e-06	0	44	0	678428672	21	4974
2026-01-30 02:01:04.00	294.34	27.95	-30.4	-33.1	13.7	8.30e-06	0	43	0	680525824	21	4944
2026-01-30 02:01:05.00	294.03	27.90	-30.5	-33.5	13.4	9.10e-06	0	43	0	681574400	21	5089
2026-01-30 02:01:06.00	293.72	27.85	-30.6	-33.7	13.4	9.99e-04	0	43	0	683671552	21	5140
2026-01-30 02:01:07.01	293.41	27.80	-30.5	-33.4	13.5	1.14e-05	0	43	0	685768704	21	5044
2026-01-30 02:01:08.00	293.11	27.75	-30.4	-33.8	13.6	9.10e-06	0	43	0	687865856	20	5295
2026-01-30 02:01:09.01	292.80	27.70	-30.4	-33.8	13.6	3.75e-04	0	43	0	689963008	20	5310
2026-01-30 02:01:10.02	292.50	27.64	-30.5	-33.4	13.5	1.37e-05	0	43	0	691011584	21	5030
2026-01-30 02:01:11.02	292.19	27.59	-30.5	-33.6	13.4	1.06e-05	0	43	0	693108736	21	5118
2026-01-30 02:01:12.02	291.89	27.53	-30.4	-33.1	13.7	1.44e-05	0	43	0	695205888	21	4940
2026-01-30 02:01:13.03	291.59	27.48	-30.3	-32.9	13.8	5.30e-06	0	43	0	697303040	21	4878
2026-01-30 02:01:14.03	291.29	27.42	-30.4	-33.2	13.6	6.80e-06	0	44	0	699400192	21	4963
2026-01-30 02:01:15.04	290.99	27.36	-30.4	-33.3	13.6	8.30e-06	0	44	0	700448768	21	4989
2026-01-30 02:01:16.04	290.69	27.31	-30.6	-33.7	13.3	1.37e-05	0	43	0	702545920	21	5171
2026-01-30 02:01:17.05	290.39	27.25	-30.7	-34.0	13.1	1.67e-05	0	43	0	704643072	21	5284
2026-01-30 02:01:18.06	290.09	27.19	-30.9	-34.6	12.7	4.57e-05	0	44	0	706740224	21	5512
2026-01-30 02:01:19.06	289.80	27.13	-31.1	-34.8	12.3	1.25e-04	0	44	0	708837376	22	5479
2026-01-30 02:01:20.06	289.50	27.07	-31.3	-35.2	12.0	2.52e-04	0	43	0	709885952	22	5645
2026-01-30 02:01:21.07	289.21	27.01	-30.9	-34.1	12.7	1.85e-04	0	44	0	711983104	22	5219
2026-01-30 02:01:22.07	288.92	26.94	-30.7	-33.6	13.0	7.32e-05	0	43	0	714080256	22	5024
2026-01-30 02:01:23.07	288.63	26.88	-30.6	-33.3	13.2	2.44e-05	0	43	0	716177408	22	4907
2026-01-30 02:01:24.08	288.34	26.82	-30.7	-33.4	13.2	1.90e-05	0	43	0	718274560	22	4946
2026-01-30 02:01:25.08	288.05	26.75	-30.7	-33.4	13.2	2.51e-05	0	43	0	719323136	22	4947
2026-01-30 02:01:26.08	287.76	26.69	-30.7	-33.5	13.1	3.66e-05	0	43	0	721420288	22	4988
2026-01-30 02:01:27.08	287.48	26.62	-30.9	-34.0	12.8	3.96e-05	0	44	0	723517440	22	5169
2026-01-30 02:01:28.08	287.20	26.56	-30.9	-34.2	12.6	6.79e-05	0	44	0	725614592	22	5251
2026-01-30 02:01:29.09	286.91	26.49	-31.1	-34.6	12.3	2.18e-04	0	43	0	726663168	22	5406
2026-01-30 02:01:30.09	286.63	26.42	-31.1	-34.7	12.3	2.80e-04	0	43	0	728760320	22	5457
2026-01-30 02:01:31.10	286.35	26.36	-31.1	-34.8	12.3	1.88e-04	0	43	0	730857472	22	5479
2026-01-30 02:01:32.11	286.06	26.29	-31.1	-34.7	12.3	1.85e-04	0	43	0	732954624	22	5433
2026-01-30 02:01:33.12	285.78	26.22	-31.0	-34.5	12.5	1.50e-04	0	44	0	735051776	22	5364
2026-01-30 02:01:34.12	285.51	26.15	-31.1	-34.6	12.4	1.56e-04	0	44	0	737148928	22	5388
2026-01-30 02:01:35.12	285.23	26.08	-31.2	-35.0	12.1	1.94e-04	0	44	0	738197504	22	5556
2026-01-30 02:01:36.12	284.96	26.01	-31.0	-34.5	12.4	1.61e-04	0	43	0	740294656	22	5366
2026-01-30 02:01:37.12	284.68	25.94	-30.9	-34.2	12.6	1.04e-04	0	44	0	742391808	22	5238
2026-01-30 02:01:38.13	284.41	25.86	-30.9	-34.1	12.7	1.27e-04	0	43	0	744488960	22	5206
2026-01-30 02:01:39.13	284.14	25.79	-30.9	-34.2	12.6	9.76e-05	0	43	0	745537536	22	5242
2026-01-30 02:01:40.13	283.87	25.72	-30.9	-34.1	12.7	8.31e-05	0	43	0	747634688	22	5210
2026-01-30 02:01:41.14	283.60	25.65	-31.1	-34.7	12.3	3.30e-04	0	44	0	749731840	22	5430
2026-01-30 02:01:42.14	283.33	25.57	-31.0	-34.4	12.5	3.97e-04	0	44	0	751828992	22	5345
2026-01-30 02:01:43.14	283.07	25.50	-31.1	-34.6	12.3	1.48e-04	0	44	0	753926144	22	5402
2026-01-30 02:01:44.14	282.80	25.43	-31.2	-34.9	12.1	3.64e-04	0	44	0	754974720	22	5534
2026-01-30 02:01:45.14	282.54	25.35	-30.8	-33.9	12.8	2.30e-04	0	43	0	757071872	22	5131
2026-01-30 02:01:46.14	282.28	25.27	-30.6	-33.2	13.2	2.44e-05	0	43	0	759169024	22	4889
2026-01-30 02:01:47.14	282.02	25.20	-30.4	-32.6	13.6	9.38e-05	0	43	0	761266176	22	4678
2026-01-30 02:01:48.15	281.76	25.12	-30.4	-33.1	13.6	8.77e-05	0	43	0	763363328	21	4962
2026-01-30 02:01:49.15	281.50	25.05	-30.4	-33.3	13.5	1.14e-05	0	43	0	764411904	21	5019
2026-01-30 02:01:50.15	281.24	24.97	-30.5	-33.6	13.3	1.13e-04	0	44	0	766509056	21	5117
2026-01-30 02:01:51.16	280.98	24.89	-30.5	-33.5	13.3	7.47e-05	0	43	0	768606208	21	5094
2026-01-30 02:01:52.16	280.73	24.81	-30.5	-33.5	13.3	1.75e-05	0	43	0	770703360	21	5112
2026-01-30 02:01:53.16	280.48	24.73	-30.5	-33.5	13.3	2.13e-05	0	44	0	772800512	21	5106
2026-01-30 02:01:54.17	280.22	24.66	-30.6	-33.7	13.2	2.05e-05	0	44	0	773849088	21	5166
2026-01-30 02:01:55.16	279.97	24.58	-30.6	-33.9	13.1	3.20e-05	0	44	0	775946240	21	5233
2026-01-30 02:01:56.17	279.72	24.50	-30.6	-33.7	13.2	2.67e-05	0	43	0	778043392	21	5181
2026-01-30 02:01:57.17	279.47	24.42	-30.6	-33.8	13.1	2.67e-05	0	43	0	780140544	21	5215
2026-01-30 02:01:58.18	279.23	24.34	-30.6	-33.8	13.2	1.75e-05	0	44	0	782237696	21	5214
2026-01-30 02:01:59.17	278.98	24.26	-30.7	-34.0	13.0	4.42e-05	0	44	0	783286272	21	5297
2026-01-30 02:02:00.18	278.74	24.18	-30.6	-33.8	13.2	3.43e-05	0	44	0	785383424	21	5202
2026-01-30 02:02:01.19	278.49	24.09	-30.5	-33.5	13.3	2.82e-05	0	44	0	787480576	21	5095
2026-01-30 02:02:02.19	278.25	24.01	-30.5	-33.4	13.3	2.21e-05	0	44	0	789577728	21	5076
2026-01-30 02:02:03.20	278.01	23.93	-30.4	-33.4	13.4	1.22e-05	0	43	0	791674880	21	5051
2026-01-30 02:02:04.20	277.77	23.85	-30.6	-33.8	13.1	2.82e-05	0	44	0	792723456	21	5207
2026-01-30 02:02:05.20	277.53	23.77	-30.2	-32.9	13.7	1.84e-04	0	43	0	794820608	21	4872
2026-01-30 02:02:06.20	277.29	23.68	-30.0	-32.2	14.1	3.00e-06	0	44	0	796917760	21	4636
2026-01-30 02:02:07.20	277.06	23.60	-29.8	-31.7	14.4	1.50e-06	0	43	0	799014912	21	4495
2026-01-30 02:02:08.20	276.82	23.52	-29.8	-32.1	14.5	7.00e-07	0	44	0	800063488	20	4708
2026-01-30 02:02:09.20	276.59	23.44	-29.8	-32.1	14.5	1.62e-04	0	43	0	802160640	20	4719
2026-01-30 02:02:10.21	276.36	23.35	-29.8	-32.1	14.5	0.00e+00	0	44	0	804257792	20	4717
2026-01-30 02:02:11.21	276.13	23.27	-29.9	-32.9	14.4	7.00e-07	0	43	0	806354944	19	5103
2026-01-30 02:02:12.21	275.90	23.18	-29.7	-32.5	14.6	1.41e-04	0	43	0	808452096	19	4957
2026-01-30 02:02:13.21	275.67	23.10	-29.7	-32.3	14.7	7.00e-07	0	43	0	809500672	19	4900
2026-01-30 02:02:14.22	275.44	23.01	-29.7	-32.4	14.7	0.00e+00	0	43	0	811597824	19	4911
2026-01-30 02:02:15.22	275.22	22.93	-29.8	-32.7	14.5	0.00e+00	0	43	0	813694976	19	5008
2026-01-30 02:02:16.23	274.99	22.84	-29.7	-32.3	14.8	1.50e-06	0	44	0	815792128	19	4879
2026-01-30 02:02:17.23	274.77	22.76	-29.7	-32.5	14.6	0.00e+00	0	44	0	817889280	19	4953
2026-01-30 02:02:18.24	274.54	22.67	-29.8	-32.8	14.4	7.00e-07	0	44	0	818937856	19	5053
2026-01-30 02:02:19.24	274.32	22.59	-29.6	-32.3	14.7	0.00e+00	0	43	0	821035008	19	4879
2026-01-30 02:02:20.24	274.10	22.50	-29.6	-32.1	14.9	0.00e+00	0	43	0	823132160	19	4801
2026-01-30 02:02:21.23	273.89	22.42	-29.5	-31.8	15.0	7.00e-07	0	43	0	825229312	19	4728
2026-01-30 02:02:22.24	273.67	22.33	-29.6	-32.1	14.9	0.00e+00	0	43	0	827326464	19	4807
2026-01-30 02:02:23.24	273.45	22.25	-29.5	-31.9	14.9	1.50e-06	0	44	0	828375040	19	4759
2026-01-30 02:02:24.25	273.24	22.16	-29.3	-31.5	15.2	0.00e+00	0	44	0	830472192	19	4633
2026-01-30 02:02:25.25	273.02	22.07	-29.2	-31.3	15.3	0.00e+00	0	44	0	832569344	19	4552
2026-01-30 02:02:26.26	272.81	21.99	-29.2	-31.6	15.4	0.00e+00	0	43	0	834666496	18	4749
2026-01-30 02:02:27.26	272.60	21.90	-29.0	-31.1	15.7	0.00e+00	0	43	0	836763648	18	4607
2026-01-30 02:02:28.26	272.39	21.81	-29.0	-31.1	15.7	0.00e+00	0	43	0	837812224	18	4610
2026-01-30 02:02:29.27	272.18	21.73	-28.9	-31.5	15.8	0.00e+00	0	43	0	839909376	17	4840
2026-01-30 02:02:30.26	271.97	21.64	-29.0	-31.7	15.7	1.50e-06	0	43	0	842006528	17	4904
2026-01-30 02:02:31.27	271.76	21.55	-29.0	-31.3	15.6	0.00e+00	0	44	0	844103680	18	4665
2026-01-30 02:02:32.27	271.56	21.46	-28.9	-31.0	15.8	0.00e+00	0	43	0	846200832	18	4576
2026-01-30 02:02:33.27	271.36	21.38	-28.9	-31.0	15.7	0.00e+00	0	44	0	847249408	18	4581
2026-01-30 02:02:34.28	271.15	21.29	-28.9	-30.9	15.8	0.00e+00	0	43	0	849346560	18	4555
2026-01-30 02:02:35.28	270.95	21.20	-28.7	-30.4	16.1	0.00e+00	0	44	0	851443712	18	4382
2026-01-30 02:02:36.29	270.75	21.11	-28.6	-30.2	16.2	0.00e+00	0	44	0	853540864	18	4335
2026-01-30 02:02:37.30	270.55	21.03	-28.6	-30.1	16.0	0.00e+00	0	44	0	855638016	18	4306
2026-01-30 02:02:38.31	270.35	20.94	-28.5	-30.4	16.4	0.00e+00	0	44	0	856686592	17	4484
2026-01-30 02:02:39.31	270.15	20.85	-28.4	-30.4	16.4	0.00e+00	0	44	0	858783744	17	4482
2026-01-30 02:02:40.32	269.95	20.76	-28.4	-30.2	16.4	4.20e-04	0	44	0	860880896	17	4452
2026-01-30 02:02:41.32	269.76	20.67	-28.4	-30.7	16.5	0.00e+00	0	43	0	862978048	16	4714
2026-01-30 02:02:42.33	269.56	20.59	-28.4	-30.8	16.4	0.00e+00	0	44	0	864026624	16	4749
2026-01-30 02:02:43.33	269.37	20.50	-28.5	-30.9	16.3	0.00e+00	0	44	0	866123776	16	4775
2026-01-30 02:02:44.33	269.18	20.41	-28.6	-30.7	16.2	0.00e+00	0	44	0	868220928	17	4596
2026-01-30 02:02:45.33	268.99	20.32	-28.6	-30.7	16.2	1.50e-06	0	43	0	870318080	17	4589
2026-01-30 02:02:46.34	268.80	20.23	-28.5	-30.5	16.3	0.00e+00	0	44	0	872415232	17	4526
2026-01-30 02:02:47.35	268.61	20.15	-28.5	-30.5	16.3	1.27e-03	0	43	0	874512384	17	4528
2026-01-30 02:02:48.35	268.42	20.06	-28.4	-30.3	16.4	3.00e-06	0	44	0	875560960	17	4477
2026-01-30 02:02:49.35	268.23	19.97	-28.5	-30.9	16.3	0.00e+00	0	43	0	877658112	16	4763
2026-01-30 02:02:50.35	268.05	19.88	-28.5	-30.6	16.2	1.45e-03	0	44	0	879755264	17	4573
2026-01-30 02:02:51.35	267.87	19.79	-28.5	-30.6	16.2	3.00e-06	0	43	0	881852416	17	4560
2026-01-30 02:02:52.36	267.68	19.71	-28.5	-30.6	16.2	0.00e+00	0	43	0	882900992	17	4577
2026-01-30 02:02:53.36	267.50	19.62	-28.6	-30.8	16.1	0.00e+00	0	43	0	884998144	17	4619
2026-01-30 02:02:54.37	267.32	19.53	-28.6	-30.9	16.1	0.00e+00	0	43	0	887095296	17	4652
2026-01-30 02:02:55.37	267.14	19.44	-28.7	-30.9	16.0	0.00e+00	0	43	0	889192448	17	4657
2026-01-30 02:02:56.37	266.96	19.35	-28.6	-30.7	16.1	0.00e+00	0	43	0	891289600	17	4590
2026-01-30 02:02:57.38	266.78	19.26	-28.6	-30.8	16.1	0.00e+00	0	43	0	892338176	17	4617
2026-01-30 02:02:58.38	266.60	19.18	-28.6	-30.8	16.0	1.65e-03	0	43	0	894435328	17	4643
2026-01-30 02:02:59.38	266.43	19.09	-28.6	-30.7	16.1	0.00e+00	0	43	0	896532480	17	4588
2026-01-30 02:03:00.38	266.25	19.00	-28.6	-30.7	16.1	2.20e-06	0	44	0	898629632	17	4611
2026-01-30 02:03:01.38	266.08	18.91	-28.7	-30.9	16.0	1.88e-03	0	43	0	900726784	17	4653
2026-01-30 02:03:02.39	265.91	18.83	-28.7	-31.1	15.8	1.51e-03	0	44	0	901775360	17	4728
2026-01-30 02:03:03.38	265.74	18.74	-28.8	-31.2	15.9	7.00e-07	0	43	0	903872512	17	4746
2026-01-30 02:03:04.38	265.57	18.65	-29.0	-31.6	15.6	1.81e-03	0	43	0	905969664	17	4890
2026-01-30 02:03:05.38	265.40	18.56	-29.0	-31.7	15.5	1.85e-03	0	43	0	908066816	17	4923
2026-01-30 02:03:06.38	265.23	18.48	-29.1	-31.6	15.3	3.00e-06	0	44	0	909115392	18	4770
2026-01-30 02:03:07.39	265.06	18.39	-29.3	-31.8	15.2	0.00e+00	0	44	0	911212544	18	4853
2026-01-30 02:03:08.39	264.89	18.30	-29.1	-31.4	15.4	1.41e-03	0	43	0	913309696	18	4711
2026-01-30 02:03:09.40	264.73	18.21	-29.0	-31.3	15.5	3.80e-06	0	43	0	915406848	18	4663
2026-01-30 02:03:10.40	264.56	18.13	-28.9	-31.6	15.6	0.00e+00	0	43	0	917504000	17	4893
2026-01-30 02:03:11.41	264.40	18.04	-29.1	-31.4	15.4	1.27e-04	0	43	0	919601152	18	4715
2026-01-30 02:03:12.41	264.23	17.95	-29.2	-31.8	15.1	0.00e+00	0	44	0	920649728	18	4860
2026-01-30 02:03:13.41	264.07	17.86	-29.3	-32.0	15.0	0.00e+00	0	44	0	922746880	18	4913
2026-01-30 02:03:14.41	263.91	17.78	-29.4	-32.2	14.9	0.00e+00	0	43	0	924844032	18	4984
2026-01-30 02:03:15.42	263.75	17.69	-29.6	-32.4	14.4	0.00e+00	0	43	0	926941184	19	4949
2026-01-30 02:03:16.42	263.59	17.60	-29.7	-32.7	14.3	4.57e-05	0	43	0	927989760	19	5036
2026-01-30 02:03:17.42	263.43	17.52	-29.6	-32.4	14.4	7.00e-07	0	43	0	930086912	19	4944
2026-01-30 02:03:18.43	263.28	17.43	-29.7	-32.5	14.4	7.00e-07	0	43	0	932184064	19	4985
2026-01-30 02:03:19.43	263.12	17.34	-29.8	-32.8	14.1	2.20e-06	0	44	0	934281216	19	5098
2026-01-30 02:03:20.43	262.96	17.25	-29.9	-33.0	14.0	1.52e-05	0	43	0	936378368	19	5165
2026-01-30 02:03:21.42	262.81	17.17	-29.7	-32.6	14.3	1.50e-06	0	44	0	937426944	19	5031
2026-01-30 02:03:22.42	262.66	17.08	-29.7	-32.5	14.4	5.49e-05	0	43	0	939524096	19	4983
2026-01-30 02:03:23.42	262.51	17.00	-29.7	-32.4	14.4	8.77e-05	0	44	0	941621248	19	4961
2026-01-30 02:03:24.43	262.35	16.91	-29.7	-32.6	14.3	1.50e-06	0	43	0	943718400	19	5024
2026-01-30 02:03:25.44	262.20	16.82	-29.7	-32.7	14.2	1.75e-04	0	44	0	945815552	19	5056
2026-01-30 02:03:26.44	262.05	16.74	-29.8	-32.7	14.2	3.24e-04	0	43	0	946864128	19	5068
2026-01-30 02:03:27.44	261.90	16.65	-29.8	-32.7	14.2	1.50e-06	0	44	0	948961280	19	5067
2026-01-30 02:03:28.45	261.75	16.56	-29.8	-32.9	14.1	4.63e-04	0	43	0	951058432	19	5131
2026-01-30 02:03:29.45	261.60	16.48	-29.8	-32.9	14.1	6.26e-04	0	43	0	953155584	19	5127
2026-01-30 02:03:30.45	261.46	16.39	-29.7	-32.5	14.3	4.50e-06	0	43	0	955252736	19	4976
2026-01-30 02:03:31.45	261.31	16.31	-29.6	-32.4	14.4	7.00e-07	0	44	0	956301312	19	4949
2026-01-30 02:03:32.46	261.17	16.22	-29.6	-32.4	14.4	7.70e-04	0	43	0	958398464	19	4959
2026-01-30 02:03:33.46	261.02	16.14	-29.6	-32.4	14.3	1.50e-06	0	44	0	960495616	19	4951
2026-01-30 02:03:34.46	260.88	16.05	-29.7	-32.5	14.3	7.00e-07	0	43	0	962592768	19	4984
2026-01-30 02:03:35.46	260.74	15.97	-29.8	-32.9	14.0	5.38e-04	0	44	0	964689920	19	5141
2026-01-30 02:03:36.47	260.59	15.88	-29.9	-33.1	13.9	4.50e-06	0	43	0	965738496	19	5226
2026-01-30 02:03:37.48	260.45	15.80	-29.8	-32.9	14.1	2.86e-04	0	43	0	967835648	19	5122
2026-01-30 02:03:38.48	260.31	15.71	-29.8	-32.9	14.1	5.30e-06	0	43	0	969932800	19	5116
2026-01-30 02:03:39.48	260.17	15.63	-29.8	-32.8	14.1	0.00e+00	0	43	0	972029952	19	5112
2026-01-30 02:03:40.48	260.03	15.54	-29.9	-33.2	13.8	0.00e+00	0	43	0	973078528	19	5263
2026-01-30 02:03:41.49	259.90	15.46	-29.9	-32.7	13.8	7.60e-06	0	43	0	975175680	20	4957
2026-01-30 02:03:42.49	259.76	15.37	-29.9	-32.6	13.8	3.00e-06	0	43	0	977272832	20	4926
2026-01-30 02:03:43.50	259.62	15.29	-29.9	-32.7	13.7	1.03e-04	0	43	0	979369984	20	4980
2026-01-30 02:03:44.49	259.49	15.21	-29.9	-32.7	13.7	7.60e-06	0	44	0	981467136	20	4974
2026-01-30 02:03:45.50	259.35	15.12	-29.9	-32.8	13.7	5.30e-06	0	43	0	982515712	20	4996
2026-01-30 02:03:46.50	259.22	15.04	-30.0	-32.9	13.6	1.32e-03	0	43	0	984612864	20	5035
2026-01-30 02:03:47.51	259.08	14.95	-30.0	-33.0	13.5	1.62e-03	0	43	0	986710016	20	5085
2026-01-30 02:03:48.51	258.95	14.87	-29.9	-32.7	13.7	7.60e-06	0	43	0	988807168	20	4972
2026-01-30 02:03:49.52	258.82	14.79	-29.9	-33.3	13.7	7.60e-06	0	43	0	990904320	19	5278
2026-01-30 02:03:50.52	258.69	14.70	-29.9	-32.8	13.6	1.91e-03	0	44	0	991952896	20	5005
2026-01-30 02:03:51.52	258.56	14.62	-29.9	-32.8	13.6	9.10e-06	0	43	0	994050048	20	5023
2026-01-30 02:03:52.52	258.43	14.54	-30.0	-33.0	13.5	8.30e-06	0	43	0	996147200	20	5072
2026-01-30 02:03:53.52	258.30	14.45	-30.1	-33.3	13.3	1.37e-05	0	43	0	998244352	20	5192
2026-01-30 02:03:54.53	258.17	14.37	-30.2	-33.5	13.2	2.51e-05	0	44	0	1000341504	20	5257
2026-01-30 02:03:55.53	258.05	14.29	-30.0	-33.0	13.4	1.37e-05	0	43	0	1001390080	20	5097
2026-01-30 02:03:56.54	257.92	14.21	-30.0	-33.1	13.4	1.14e-05	0	43	0	1003487232	20	5120
2026-01-30 02:03:57.55	257.79	14.12	-30.0	-33.0	13.5	1.60e-05	0	44	0	1005584384	20	5067
2026-01-30 02:03:58.54	257.67	14.04	-30.0	-33.0	13.4	1.37e-05	0	43	0	1007681536	20	5092
2026-01-30 02:03:59.54	257.54	13.96	-30.0	-33.1	13.4	1.29e-05	0	43	0	1009778688	20	5115
2026-01-30 02:04:00.55	257.42	13.88	-30.1	-33.2	13.3	1.60e-05	0	44	0	1010827264	20	5173
2026-01-30 02:04:01.55	257.30	13.80	-30.1	-33.2	13.3	1.83e-05	0	43	0	1012924416	20	5162
2026-01-30 02:04:02.56	257.17	13.71	-30.1	-33.2	13.3	2.21e-05	0	44	0	1015021568	20	5164
2026-01-30 02:04:03.56	257.05	13.63	-30.2	-33.5	13.1	2.51e-05	0	43	0	1017118720	20	5268
2026-01-30 02:04:04.57	256.93	13.55	-30.2	-33.6	13.0	2.26e-04	0	43	0	1019215872	20	5313
2026-01-30 02:04:05.57	256.81	13.47	-30.3	-34.0	12.8	4.04e-05	0	43	0	1020264448	20	5460
2026-01-30 02:04:06.57	256.69	13.39	-30.3	-33.8	12.9	6.79e-05	0	44	0	1022361600	20	5393
2026-01-30 02:04:07.57	256.57	13.31	-30.2	-33.7	12.9	3.66e-05	0	43	0	1024458752	20	5369
2026-01-30 02:04:08.58	256.45	13.23	-30.3	-33.8	12.9	4.27e-05	0	44	0	1026555904	20	5409
2026-01-30 02:04:09.59	256.34	13.15	-30.3	-34.0	12.7	5.64e-05	0	43	0	1027604480	20	5480
2026-01-30 02:04:10.58	256.22	13.07	-30.4	-34.1	12.7	9.84e-05	0	44	0	1029701632	20	5517
2026-01-30 02:04:11.59	256.10	12.99	-30.3	-33.9	12.8	8.39e-05	0	44	0	1031798784	20	5447
2026-01-30 02:04:12.59	255.99	12.91	-30.4	-34.0	12.7	8.39e-05	0	43	0	1033895936	20	5504
2026-01-30 02:04:13.59	255.87	12.83	-30.4	-34.1	12.6	8.01e-05	0	43	0	1035993088	20	5546
2026-01-30 02:04:14.59	255.76	12.75	-30.5	-34.0	12.3	1.03e-04	0	44	0	1038090240	21	5381
2026-01-30 02:04:15.60	255.64	12.67	-30.7	-34.5	12.0	2.59e-04	0	44	0	1039138816	21	5585
2026-01-30 02:04:16.60	255.53	12.59	-30.7	-34.5	12.0	4.18e-04	0	43	0	1041235968	21	5595
2026-01-30 02:04:17.60	255.42	12.51	-30.7	-34.7	11.8	3.23e-04	0	43	0	1043333120	21	5673
2026-01-30 02:04:18.60	255.31	12.43	-30.7	-34.7	11.8	5.58e-04	0	43	0	1045430272	21	5703
2026-01-30 02:04:19.61	255.20	12.35	-30.7	-34.5	12.0	3.84e-04	0	44	0	1046478848	21	5596
2026-01-30 02:04:20.61	255.09	12.27	-30.6	-34.2	12.1	2.88e-04	0	44	0	1048576000	21	5476
2026-01-30 02:04:21.61	254.98	12.19	-30.6	-34.4	12.0	2.62e-04	0	43	0	1050673152	21	5551
2026-01-30 02:04:22.61	254.87	12.11	-30.6	-34.4	11.8	4.09e-04	0	43	0	1052770304	21	5566
2026-01-30 02:04:23.62	254.76	12.03	-30.7	-34.5	11.9	3.58e-04	0	43	0	1054867456	21	5603
2026-01-30 02:04:24.62	254.65	11.96	-30.7	-34.8	11.7	4.29e-04	0	44	0	1055916032	21	5719
2026-01-30 02:04:25.62	254.54	11.88	-30.7	-34.7	11.8	5.29e-04	0	43	0	1058013184	21	5681
2026-01-30 02:04:26.62	254.43	11.80	-30.7	-34.6	11.8	4.19e-04	0	43	0	1060110336	21	5636
2026-01-30 02:04:27.62	254.33	11.72	-30.7	-34.5	11.9	3.76e-04	0	43	0	1062207488	21	5610
2026-01-30 02:04:28.63	254.22	11.64	-30.7	-34.7	11.7	4.59e-04	0	43	0	1064304640	21	5713
2026-01-30 02:04:29.63	254.12	11.57	-30.7	-34.7	11.7	6.27e-04	0	43	0	1065353216	21	5681
2026-01-30 02:04:30.63	254.01	11.49	-30.6	-34.4	11.9	4.25e-04	0	43	0	1067450368	21	5559
2026-01-30 02:04:31.63	253.91	11.41	-30.6	-34.3	12.0	3.00e-04	0	43	0	1069547520	21	5531
2026-01-30 02:04:32.63	253.80	11.33	-30.6	-34.3	12.0	3.00e-04	0	44	0	1071644672	21	5523
2026-01-30 02:04:33.64	253.70	11.26	-30.6	-34.4	11.9	3.41e-04	0	43	0	1072693248	21	5570
2026-01-30 02:04:34.65	253.60	11.18	-30.6	-34.4	11.9	4.10e-04	0	43	0	1074790400	21	5567
2026-01-30 02:04:35.65	253.49	11.10	-30.6	-34.4	11.9	3.77e-04	0	44	0	1076887552	21	5572
2026-01-30 02:04:36.66	253.39	11.03	-30.7	-34.6	11.8	4.36e-04	0	43	0	1078984704	21	5664
2026-01-30 02:04:37.66	253.29	10.95	-30.7	-34.7	11.7	5.85e-04	0	44	0	1081081856	21	5685
2026-01-30 02:04:38.67	253.19	10.87	-30.8	-34.9	11.6	5.71e-04	0	43	0	1083179008	21	5785
2026-01-30 02:04:39.67	253.09	10.80	-30.8	-34.9	11.5	1.54e-03	0	44	0	1084227584	21	5775
2026-01-30 02:04:40.67	252.99	10.72	-30.8	-35.0	11.5	7.93e-04	0	44	0	1086324736	21	5830
2026-01-30 02:04:41.67	252.89	10.65	-30.8	-35.0	11.5	1.04e-03	0	43	0	1088421888	21	5829
2026-01-30 02:04:42.67	252.80	10.57	-30.7	-34.7	11.7	1.09e-03	0	44	0	1090519040	21	5707
2026-01-30 02:04:43.67	252.70	10.50	-30.7	-34.6	11.7	9.27e-04	0	43	0	1091567616	21	5653
2026-01-30 02:04:44.67	252.60	10.42	-30.7	-34.6	11.7	5.72e-04	0	44	0	1093664768	21	5686
2026-01-30 02:04:45.67	252.50	10.34	-30.6	-34.5	11.8	5.61e-04	0	44	0	1095761920	21	5616
2026-01-30 02:04:46.67	252.41	10.27	-30.6	-34.4	11.8	6.35e-04	0	43	0	1097859072	21	5595
2026-01-30 02:04:47.67	252.31	10.20	-30.6	-34.3	11.9	4.77e-04	0	44	0	1099956224	21	5553
2026-01-30 02:04:48.67	252.22	10.12	-30.6	-34.3	11.9	4.07e-04	0	43	0	1101004800	21	5555
2026-01-30 02:04:49.66	252.12	10.05	-30.6	-34.5	11.8	4.74e-04	0	43	0	1103101952	21	5637
2026-01-30 02:04:50.67	252.03	9.97	-30.7	-34.9	11.5	6.35e-04	0	43	0	1105199104	21	5796
2026-01-30 02:04:51.67	251.94	9.90	-30.7	-34.7	11.6	9.09e-04	0	44	0	1107296256	21	5726
2026-01-30 02:04:52.67	251.84	9.82	-30.7	-34.6	11.6	6.80e-04	0	44	0	1109393408	21	5693
2026-01-30 02:04:53.68	251.75	9.75	-30.6	-34.5	11.7	5.75e-04	0	43	0	1110441984	21	5644
2026-01-30 02:04:54.68	251.66	9.68	-30.7	-34.8	11.5	6.76e-04	0	43	0	1112539136	21	5764
2026-01-30 02:04:55.68	251.56	9.60	-30.7	-34.9	11.4	8.59e-04	0	43	0	1114636288	21	5817
2026-01-30 02:04:56.69	251.47	9.53	-30.8	-35.1	11.2	1.21e-03	0	44	0	1116733440	21	5920
2026-01-30 02:04:57.69	251.38	9.45	-30.8	-35.2	11.2	1.45e-03	0	43	0	1118830592	21	5978
2026-01-30 02:04:58.70	251.29	9.38	-30.8	-35.2	11.1	1.55e-03	0	44	0	1119879168	21	5979
2026-01-30 02:04:59.71	251.20	9.31	-30.9	-35.3	11.0	1.72e-03	0	44	0	1121976320	21	6030
2026-01-30 02:05:00.70	251.11	9.24	-30.9	-35.4	11.0	1.87e-03	0	44	0	1124073472	21	6070
2026-01-30 02:05:01.71	251.02	9.16	-30.9	-35.5	10.9	1.93e-03	0	44	0	1126170624	21	6122
2026-01-30 02:05:02.71	250.93	9.09	-30.9	-35.6	10.8	2.44e-03	0	44	0	1128267776	21	6147
2026-01-30 02:05:03.71	250.85	9.02	-31.0	-35.7	10.8	2.38e-03	0	44	0	1129316352	21	6203
2026-01-30 02:05:04.71	250.76	8.94	-30.9	-35.6	10.8	2.98e-03	0	44	0	1131413504	21	6152
2026-01-30 02:05:05.71	250.67	8.87	-30.9	-35.5	10.9	2.26e-03	0	43	0	1133510656	21	6108
2026-01-30 02:05:06.72	250.58	8.80	-30.9	-35.4	10.9	2.18e-03	0	43	0	1135607808	21	6072
2026-01-30 02:05:07.73	250.50	8.73	-30.9	-35.6	10.8	2.70e-03	0	44	0	1136656384	21	6160
2026-01-30 02:05:08.72	250.41	8.66	-30.9	-35.6	10.7	2.97e-03	0	44	0	1138753536	21	6190
2026-01-30 02:05:09.73	250.33	8.58	-30.9	-35.7	10.7	3.15e-03	0	44	0	1140850688	21	6216
2026-01-30 02:05:10.73	250.24	8.51	-30.9	-35.6	10.7	3.13e-03	0	43	0	1142947840	21	6193
2026-01-30 02:05:11.74	250.16	8.44	-31.0	-35.7	10.7	2.83e-03	0	43	0	1145044992	21	6237
2026-01-30 02:05:12.75	250.07	8.37	-30.9	-35.7	10.7	3.03e-03	0	44	0	1146093568	21	6205
2026-01-30 02:05:13.76	249.99	8.30	-30.9	-35.7	10.6	3.08e-03	0	44	0	1148190720	21	6242
2026-01-30 02:05:14.76	249.90	8.23	-31.0	-35.8	10.6	3.42e-03	0	43	0	1150287872	21	6288
2026-01-30 02:05:15.77	249.82	8.16	-30.9	-35.2	10.7	4.19e-03	0	43	0	1152385024	22	5886
2026-01-30 02:05:16.77	249.74	8.08	-31.0	-35.8	10.6	3.41e-03	0	43	0	1154482176	21	6293
2026-01-30 02:05:17.77	249.66	8.01	-30.9	-35.8	10.6	3.30e-03	0	44	0	1155530752	21	6267
2026-01-30 02:05:18.77	249.57	7.94	-30.9	-35.6	10.6	3.77e-03	0	44	0	1157627904	21	6200
2026-01-30 02:05:19.78	249.49	7.87	-30.9	-35.7	10.6	3.56e-03	0	44	0	1159725056	21	6266
2026-01-30 02:05:20.78	249.41	7.80	-30.9	-35.6	10.6	3.31e-03	0	43	0	1161822208	21	6205
2026-01-30 02:05:21.78	249.33	7.73	-30.8	-35.5	10.7	3.35e-03	0	43	0	1163919360	21	6166
2026-01-30 02:05:22.79	249.25	7.66	-30.8	-35.4	10.7	3.24e-03	0	43	0	1164967936	21	6118
2026-01-30 02:05:23.79	249.17	7.59	-30.8	-35.4	10.7	3.09e-03	0	44	0	1167065088	21	6113
2026-01-30 02:05:24.79	249.09	7.52	-30.9	-35.8	10.5	3.64e-03	0	44	0	1169162240	21	6301
2026-01-30 02:05:25.79	249.01	7.45	-30.9	-35.6	10.5	4.40e-03	0	44	0	1171259392	21	6228
2026-01-30 02:05:26.80	248.93	7.38	-30.8	-35.5	10.7	3.08e-03	0	44	0	1173356544	21	6151
2026-01-30 02:05:27.80	248.86	7.32	-30.8	-35.6	10.6	3.56e-03	0	43	0	1174405120	21	6192
2026-01-30 02:05:28.81	248.78	7.25	-30.9	-35.9	10.4	4.04e-03	0	43	0	1176502272	21	6361
2026-01-30 02:05:29.81	248.70	7.18	-30.9	-35.9	10.3	5.27e-03	0	43	0	1178599424	21	6368
2026-01-30 02:05:30.81	248.62	7.11	-30.9	-35.8	10.4	4.75e-03	0	43	0	1180696576	21	6297
2026-01-30 02:05:31.82	248.55	7.04	-33.1	-46.9	3.8	4.86e-01	0	43	104	1181745152	26	17522
2026-01-30 02:05:32.82	248.47	6.97	-33.5	-47.7	3.8	1.49e+00	0	43	104	1181745152	27	18319

#Closed at: 2026-01-30 02:05:33
#Recorded file [1181 MB]: D:/data/31010_260130_045500.dat