passes_logs/2026/01/30/R2M6_AANII_01/R2M6_AANII_01__20260130_140520_FENGYUN_3D_rec.log

#Pass ID: 20260130_140520_FENGYUN 3D
#Satellite: FENGYUN 3D
#Configuration: FENGYUN 3D
#almurnet v.1.7.20240730
#Start time: 2026-01-30 14:05:20

#Version: 2.2.20231116
#Station: R2M6_AANII_01
#Location: 30.233357 lon 59.946436 lat
#TLE: 1 43010U 17072A   26030.15608130 -.00000008  00000+0  17846-4 0  9998
#TLE: 2 43010  98.9957   2.2091 0002519  83.4285 276.7177 14.19702268425400

#Time	Az	El	Level	Level2	SNR	BER	BlckErr	Temp	State	Recorded	gain1	gain2
2026-01-30 14:05:20.08	215.94	6.98	-27.2	-28.9	5.8	7.54e-01	0	39	0	0	15	4385
2026-01-30 14:05:21.08	216.04	7.05	-29.2	-32.6	5.4	7.74e-01	0	39	104	0	18	5302
2026-01-30 14:05:22.09	216.14	7.11	-29.4	-33.0	9.5	1.84e-02	0	39	0	0	18	5453
2026-01-30 14:05:23.10	216.24	7.17	-29.0	-31.8	10.3	8.13e-03	0	39	0	5242880	18	4999
2026-01-30 14:05:24.11	216.35	7.23	-29.2	-32.6	9.8	1.27e-02	0	39	0	11534336	18	5291
2026-01-30 14:05:25.12	216.45	7.29	-28.8	-31.3	10.7	6.90e-03	0	39	0	16777216	18	4812
2026-01-30 14:05:26.14	216.55	7.36	-28.4	-30.4	11.3	1.84e-03	0	39	0	23068672	18	4515
2026-01-30 14:05:27.14	216.65	7.42	-28.1	-30.0	11.9	7.64e-04	0	39	0	28311552	17	4480
2026-01-30 14:05:28.16	216.76	7.48	-27.6	-29.4	12.6	2.38e-04	0	39	0	33554432	16	4413
2026-01-30 14:05:29.17	216.86	7.54	-27.4	-28.7	13.0	6.17e-05	0	39	0	39845888	16	4211
2026-01-30 14:05:30.18	216.97	7.61	-27.1	-28.6	13.3	3.77e-05	0	39	0	45088768	15	4280
2026-01-30 14:05:31.19	217.07	7.67	-27.0	-28.4	13.4	1.71e-05	0	39	0	51380224	15	4233
2026-01-30 14:05:32.20	217.18	7.73	-27.0	-28.4	13.4	3.20e-05	0	39	0	56623104	15	4218
2026-01-30 14:05:33.21	217.28	7.80	-27.1	-28.6	13.3	3.08e-05	0	39	0	61865984	15	4290
2026-01-30 14:05:34.22	217.39	7.86	-27.4	-29.3	12.8	1.18e-04	0	39	0	68157440	15	4495
2026-01-30 14:05:35.23	217.50	7.92	-27.0	-28.3	13.4	3.66e-05	0	39	0	73400320	15	4215
2026-01-30 14:05:36.25	217.61	7.99	-26.7	-28.2	13.8	1.83e-05	0	39	0	79691776	14	4285
2026-01-30 14:05:37.26	217.71	8.05	-26.5	-27.6	14.1	2.20e-06	0	39	0	84934656	14	4126
2026-01-30 14:05:38.27	217.82	8.11	-26.3	-27.4	14.3	3.40e-06	0	39	0	90177536	14	4051
2026-01-30 14:05:39.28	217.93	8.17	-26.2	-27.5	14.5	2.20e-06	0	39	0	96468992	13	4204
2026-01-30 14:05:40.29	218.04	8.24	-26.2	-27.4	14.5	1.10e-06	0	39	0	101711872	13	4178
2026-01-30 14:05:41.30	218.15	8.30	-26.2	-27.6	14.5	0.00e+00	0	40	0	108003328	13	4213
2026-01-30 14:05:42.31	218.26	8.37	-26.3	-27.7	14.4	2.20e-06	0	39	0	113246208	13	4256
2026-01-30 14:05:43.32	218.37	8.43	-26.1	-27.3	14.6	0.00e+00	0	39	0	118489088	13	4139
2026-01-30 14:05:44.34	218.48	8.49	-26.0	-27.0	14.8	1.10e-06	0	40	0	124780544	13	4054
2026-01-30 14:05:45.35	218.59	8.56	-26.0	-27.0	14.8	1.10e-06	0	40	0	130023424	13	4049
2026-01-30 14:05:46.36	218.71	8.62	-26.0	-27.0	14.9	0.00e+00	0	39	0	136314880	13	4049
2026-01-30 14:05:47.37	218.82	8.68	-25.9	-26.9	14.9	0.00e+00	0	40	0	141557760	13	4040
2026-01-30 14:05:48.38	218.93	8.75	-26.1	-27.3	14.7	2.20e-06	0	40	0	147849216	13	4137
2026-01-30 14:05:49.39	219.05	8.81	-26.0	-27.0	14.9	0.00e+00	0	40	0	153092096	13	4060
2026-01-30 14:05:50.40	219.16	8.88	-26.0	-27.0	14.8	0.00e+00	0	40	0	159383552	13	4058
2026-01-30 14:05:51.41	219.27	8.94	-26.0	-27.1	14.8	0.00e+00	0	40	0	164626432	13	4084
2026-01-30 14:05:52.42	219.39	9.00	-26.1	-27.3	14.7	2.20e-06	0	40	0	169869312	13	4132
2026-01-30 14:05:53.43	219.50	9.07	-26.0	-27.0	14.9	0.00e+00	0	40	0	176160768	13	4070
2026-01-30 14:05:54.44	219.62	9.13	-26.0	-27.2	14.8	1.10e-06	0	40	0	181403648	13	4102
2026-01-30 14:05:55.45	219.74	9.20	-26.0	-27.1	14.9	0.00e+00	0	40	0	187695104	13	4077
2026-01-30 14:05:56.47	219.85	9.26	-25.8	-26.7	15.0	0.00e+00	0	40	0	192937984	13	3983
2026-01-30 14:05:57.48	219.97	9.33	-25.8	-26.6	15.1	0.00e+00	0	40	0	199229440	13	3941
2026-01-30 14:05:58.49	220.09	9.39	-25.8	-27.1	15.1	0.00e+00	0	40	0	204472320	12	4194
2026-01-30 14:05:59.50	220.21	9.46	-25.7	-26.8	15.3	0.00e+00	0	40	0	209715200	12	4110
2026-01-30 14:06:00.51	220.33	9.52	-25.7	-26.8	15.3	0.00e+00	0	40	0	216006656	12	4115
2026-01-30 14:06:01.52	220.45	9.59	-25.8	-27.0	15.2	0.00e+00	0	40	0	221249536	12	4174
2026-01-30 14:06:02.53	220.57	9.65	-25.9	-27.3	15.0	0.00e+00	0	40	0	227540992	12	4238
2026-01-30 14:06:03.54	220.69	9.72	-25.9	-27.3	15.1	0.00e+00	0	40	0	232783872	12	4224
2026-01-30 14:06:04.55	220.81	9.78	-26.0	-27.6	14.9	0.00e+00	0	40	0	238026752	12	4312
2026-01-30 14:06:05.57	220.93	9.85	-26.0	-27.5	14.9	0.00e+00	0	40	0	244318208	12	4282
2026-01-30 14:06:06.58	221.05	9.91	-26.0	-27.5	14.9	0.00e+00	0	40	0	249561088	12	4296
2026-01-30 14:06:07.59	221.17	9.98	-26.0	-27.6	14.9	0.00e+00	0	40	0	255852544	12	4315
2026-01-30 14:06:08.60	221.30	10.04	-26.1	-27.8	14.8	0.00e+00	0	40	0	261095424	12	4367
2026-01-30 14:06:09.61	221.42	10.11	-26.0	-27.6	14.9	1.10e-06	0	40	0	267386880	12	4310
2026-01-30 14:06:10.62	221.54	10.17	-25.7	-26.8	15.3	0.00e+00	0	40	0	272629760	12	4092
2026-01-30 14:06:11.63	221.67	10.24	-25.4	-26.3	15.6	0.00e+00	0	40	0	278921216	12	3980
2026-01-30 14:06:12.64	221.79	10.30	-25.4	-26.1	15.7	0.00e+00	0	40	0	284164096	12	3937
2026-01-30 14:06:13.65	221.92	10.37	-25.3	-26.0	15.8	0.00e+00	0	40	0	289406976	12	3897
2026-01-30 14:06:14.66	222.05	10.43	-25.4	-26.1	15.8	0.00e+00	0	40	0	295698432	12	3934
2026-01-30 14:06:15.67	222.17	10.50	-25.3	-26.0	15.9	0.00e+00	0	40	0	300941312	12	3886
2026-01-30 14:06:16.68	222.30	10.56	-25.3	-26.6	15.9	0.00e+00	0	40	0	307232768	11	4143
2026-01-30 14:06:17.70	222.43	10.63	-25.3	-26.5	15.9	0.00e+00	0	40	0	312475648	11	4119
2026-01-30 14:06:18.71	222.56	10.70	-25.4	-26.6	15.9	0.00e+00	0	40	0	317718528	11	4145
2026-01-30 14:06:19.72	222.69	10.76	-25.4	-26.7	15.8	0.00e+00	0	40	0	324009984	11	4175
2026-01-30 14:06:20.73	222.82	10.83	-25.4	-26.7	15.8	0.00e+00	0	40	0	329252864	11	4184
2026-01-30 14:06:21.74	222.95	10.89	-25.6	-27.1	15.6	0.00e+00	0	40	0	335544320	11	4282
2026-01-30 14:06:22.75	223.08	10.96	-25.6	-27.2	15.6	0.00e+00	0	40	0	340787200	11	4306
2026-01-30 14:06:23.76	223.21	11.03	-25.5	-26.9	15.7	0.00e+00	0	40	0	346030080	11	4224
2026-01-30 14:06:24.77	223.34	11.09	-25.5	-26.9	15.7	0.00e+00	0	40	0	352321536	11	4231
2026-01-30 14:06:25.78	223.47	11.16	-25.5	-27.0	15.7	0.00e+00	0	40	0	357564416	11	4255
2026-01-30 14:06:26.79	223.61	11.22	-25.5	-26.9	15.7	0.00e+00	0	40	0	363855872	11	4240
2026-01-30 14:06:27.80	223.74	11.29	-25.5	-27.0	15.7	0.00e+00	0	40	0	369098752	11	4255
2026-01-30 14:06:28.81	223.87	11.36	-25.5	-26.9	15.7	0.00e+00	0	40	0	375390208	11	4224
2026-01-30 14:06:29.82	224.01	11.42	-25.5	-26.8	15.8	0.00e+00	0	40	0	380633088	11	4211
2026-01-30 14:06:30.84	224.14	11.49	-25.4	-26.7	15.9	0.00e+00	0	40	0	386924544	11	4191
2026-01-30 14:06:31.85	224.28	11.56	-25.5	-26.8	15.8	0.00e+00	0	40	0	392167424	11	4221
2026-01-30 14:06:32.86	224.42	11.62	-25.5	-27.0	15.7	0.00e+00	0	40	0	397410304	11	4258
2026-01-30 14:06:33.87	224.55	11.69	-25.4	-26.8	15.8	0.00e+00	0	40	0	403701760	11	4200
2026-01-30 14:06:34.88	224.69	11.76	-25.4	-26.7	15.8	0.00e+00	0	40	0	408944640	11	4193
2026-01-30 14:06:35.89	224.83	11.82	-25.3	-26.6	15.9	0.00e+00	0	40	0	415236096	11	4154
2026-01-30 14:06:36.90	224.97	11.89	-25.3	-26.5	15.9	0.00e+00	0	40	0	420478976	11	4136
2026-01-30 14:06:37.91	225.11	11.95	-25.4	-26.6	15.9	0.00e+00	0	41	0	425721856	11	4164
2026-01-30 14:06:38.92	225.25	12.02	-25.3	-26.4	16.1	0.00e+00	0	40	0	432013312	11	4088
2026-01-30 14:06:39.93	225.39	12.09	-25.1	-26.1	16.2	4.50e-06	0	40	0	437256192	11	4026
2026-01-30 14:06:40.94	225.53	12.15	-25.2	-26.2	16.2	0.00e+00	0	40	0	443547648	11	4041
2026-01-30 14:06:41.95	225.67	12.22	-25.3	-26.6	16.0	0.00e+00	0	40	0	448790528	11	4140
2026-01-30 14:06:42.96	225.82	12.29	-25.4	-26.6	16.0	0.00e+00	0	40	0	454033408	11	4148
2026-01-30 14:06:43.98	225.96	12.35	-25.4	-26.7	15.9	0.00e+00	0	40	0	460324864	11	4178
2026-01-30 14:06:44.99	226.10	12.42	-25.4	-26.6	16.0	0.00e+00	0	40	0	465567744	11	4152
2026-01-30 14:06:46.00	226.25	12.49	-25.5	-26.8	15.9	0.00e+00	0	41	0	471859200	11	4196
2026-01-30 14:06:47.01	226.39	12.56	-25.3	-26.5	16.0	0.00e+00	0	40	0	477102080	11	4136
2026-01-30 14:06:48.02	226.54	12.62	-25.4	-26.6	16.0	0.00e+00	0	40	0	483393536	11	4159
2026-01-30 14:06:49.03	226.69	12.69	-25.4	-26.8	15.9	0.00e+00	0	40	0	488636416	11	4198
2026-01-30 14:06:50.04	226.83	12.76	-25.2	-26.3	16.2	0.00e+00	0	40	0	494927872	11	4072
2026-01-30 14:06:51.05	226.98	12.82	-25.0	-25.8	16.5	0.00e+00	0	41	0	500170752	11	3936
2026-01-30 14:06:52.06	227.13	12.89	-24.9	-25.5	16.6	0.00e+00	0	41	0	505413632	11	3877
2026-01-30 14:06:53.08	227.28	12.96	-24.9	-25.6	16.5	0.00e+00	0	40	0	511705088	11	3894
2026-01-30 14:06:54.09	227.43	13.02	-24.8	-25.4	16.7	0.00e+00	0	40	0	516947968	11	3843
2026-01-30 14:06:55.10	227.58	13.09	-24.8	-25.5	16.6	0.00e+00	0	41	0	523239424	11	3862
2026-01-30 14:06:56.11	227.73	13.16	-24.8	-25.4	16.7	0.00e+00	0	41	0	528482304	11	3842
2026-01-30 14:06:57.12	227.88	13.22	-25.0	-25.7	16.5	0.00e+00	0	41	0	533725184	11	3930
2026-01-30 14:06:58.13	228.04	13.29	-24.7	-25.7	16.8	2.20e-06	0	41	0	540016640	10	4026
2026-01-30 14:06:59.14	228.19	13.36	-24.7	-25.6	16.9	0.00e+00	0	41	0	545259520	10	3988
2026-01-30 14:07:00.15	228.34	13.42	-24.8	-25.7	16.8	0.00e+00	0	41	0	551550976	10	4032
2026-01-30 14:07:01.16	228.50	13.49	-24.7	-25.7	16.8	0.00e+00	0	41	0	556793856	10	4032
2026-01-30 14:07:02.17	228.65	13.56	-24.8	-25.9	16.7	0.00e+00	0	41	0	562036736	10	4074
2026-01-30 14:07:03.18	228.81	13.62	-24.9	-26.1	16.6	0.00e+00	0	41	0	568328192	10	4121
2026-01-30 14:07:04.19	228.96	13.69	-24.9	-26.0	16.6	0.00e+00	0	41	0	573571072	10	4091
2026-01-30 14:07:05.20	229.12	13.76	-24.9	-26.0	16.7	0.00e+00	0	41	0	579862528	10	4089
2026-01-30 14:07:06.22	229.28	13.83	-24.9	-26.1	16.6	0.00e+00	0	41	0	585105408	10	4136
2026-01-30 14:07:07.23	229.44	13.89	-25.0	-26.2	16.6	0.00e+00	0	41	0	591396864	10	4151
2026-01-30 14:07:08.24	229.60	13.96	-25.0	-26.2	16.6	0.00e+00	0	41	0	596639744	10	4155
2026-01-30 14:07:09.25	229.76	14.03	-25.1	-26.5	16.3	0.00e+00	0	41	0	602931200	10	4242
2026-01-30 14:07:10.26	229.92	14.09	-24.9	-26.1	16.6	0.00e+00	0	41	0	608174080	10	4130
2026-01-30 14:07:11.27	230.08	14.16	-24.8	-25.8	16.8	0.00e+00	0	41	0	613416960	10	4062
2026-01-30 14:07:12.28	230.24	14.23	-24.8	-25.8	16.8	0.00e+00	0	41	0	619708416	10	4059
2026-01-30 14:07:13.29	230.40	14.29	-24.8	-25.9	16.7	0.00e+00	0	41	0	624951296	10	4075
2026-01-30 14:07:14.30	230.57	14.36	-24.7	-25.6	16.9	0.00e+00	0	41	0	631242752	10	4010
2026-01-30 14:07:15.31	230.73	14.43	-24.7	-25.7	16.8	0.00e+00	0	41	0	636485632	10	4021
2026-01-30 14:07:16.33	230.90	14.49	-24.8	-25.8	16.8	0.00e+00	0	41	0	642777088	10	4061
2026-01-30 14:07:17.34	231.06	14.56	-24.7	-25.5	17.0	0.00e+00	0	41	0	648019968	10	3984
2026-01-30 14:07:18.35	231.23	14.63	-24.7	-25.6	16.9	0.00e+00	0	41	0	653262848	10	4004
2026-01-30 14:07:19.36	231.40	14.69	-24.7	-25.7	16.9	0.00e+00	0	41	0	659554304	10	4021
2026-01-30 14:07:20.37	231.56	14.76	-24.7	-25.7	16.8	0.00e+00	0	41	0	664797184	10	4032
2026-01-30 14:07:21.38	231.73	14.82	-24.6	-25.4	17.1	0.00e+00	0	41	0	671088640	10	3947
2026-01-30 14:07:22.39	231.90	14.89	-24.5	-25.2	17.2	0.00e+00	0	41	0	676331520	10	3905
2026-01-30 14:07:23.40	232.07	14.96	-24.4	-25.1	17.3	0.00e+00	0	41	0	681574400	10	3866
2026-01-30 14:07:24.42	232.24	15.02	-24.4	-24.9	17.3	0.00e+00	0	41	0	687865856	10	3829
2026-01-30 14:07:25.43	232.41	15.09	-24.4	-24.9	17.3	0.00e+00	0	41	0	693108736	10	3822
2026-01-30 14:07:26.44	232.59	15.16	-24.4	-25.0	17.2	0.00e+00	0	41	0	699400192	10	3854
2026-01-30 14:07:27.45	232.76	15.22	-24.3	-24.8	17.4	0.00e+00	0	41	0	704643072	10	3794
2026-01-30 14:07:28.46	232.93	15.29	-24.4	-24.9	17.3	0.00e+00	0	41	0	710934528	10	3817
2026-01-30 14:07:29.47	233.11	15.35	-24.4	-25.1	17.2	0.00e+00	0	41	0	716177408	10	3867
2026-01-30 14:07:30.48	233.28	15.42	-24.4	-25.0	17.3	0.00e+00	0	41	0	722468864	10	3851
2026-01-30 14:07:31.49	233.46	15.48	-24.3	-24.8	17.4	0.00e+00	0	41	0	727711744	10	3802
2026-01-30 14:07:32.50	233.63	15.55	-24.5	-25.1	17.2	0.00e+00	0	41	0	732954624	10	3872
2026-01-30 14:07:33.51	233.81	15.62	-24.4	-25.0	17.2	1.10e-06	0	41	0	739246080	10	3855
2026-01-30 14:07:34.52	233.99	15.68	-24.3	-24.8	17.4	0.00e+00	0	41	0	744488960	10	3793
2026-01-30 14:07:35.53	234.17	15.75	-24.3	-25.2	17.4	0.00e+00	0	41	0	750780416	9	4011
2026-01-30 14:07:36.54	234.35	15.81	-24.3	-25.2	17.4	1.10e-06	0	41	0	756023296	9	4006
2026-01-30 14:07:37.56	234.53	15.88	-24.3	-25.4	17.3	0.00e+00	0	41	0	761266176	9	4045
2026-01-30 14:07:38.57	234.71	15.94	-24.3	-25.2	17.4	0.00e+00	0	41	0	767557632	9	4006
2026-01-30 14:07:39.58	234.89	16.01	-24.1	-24.9	17.6	0.00e+00	0	41	0	772800512	9	3939
2026-01-30 14:07:40.59	235.08	16.07	-24.1	-24.9	17.6	0.00e+00	0	41	0	779091968	9	3928
2026-01-30 14:07:41.60	235.26	16.14	-24.1	-24.9	17.6	0.00e+00	0	41	0	784334848	9	3926
2026-01-30 14:07:42.61	235.44	16.20	-24.1	-24.8	17.7	1.10e-06	0	41	0	789577728	9	3906
2026-01-30 14:07:43.62	235.63	16.27	-24.1	-24.9	17.6	0.00e+00	0	41	0	795869184	9	3929
2026-01-30 14:07:44.63	235.81	16.33	-24.2	-25.1	17.5	0.00e+00	0	41	0	801112064	9	3975
2026-01-30 14:07:45.64	236.00	16.40	-24.2	-25.1	17.5	1.10e-06	0	41	0	807403520	9	3988
2026-01-30 14:07:46.65	236.19	16.46	-24.4	-25.4	17.3	0.00e+00	0	41	0	812646400	9	4060
2026-01-30 14:07:47.66	236.38	16.52	-24.3	-25.2	17.5	0.00e+00	0	41	0	818937856	9	4008
2026-01-30 14:07:48.68	236.57	16.59	-24.2	-25.1	17.5	0.00e+00	0	41	0	824180736	9	3981
2026-01-30 14:07:49.69	236.76	16.65	-24.3	-25.2	17.5	0.00e+00	0	41	0	830472192	9	4008
2026-01-30 14:07:50.70	236.95	16.72	-24.2	-25.0	17.6	0.00e+00	0	41	0	835715072	9	3946
2026-01-30 14:07:51.71	237.14	16.78	-24.1	-24.9	17.7	0.00e+00	0	41	0	840957952	9	3919
2026-01-30 14:07:52.72	237.33	16.84	-24.1	-24.7	17.8	0.00e+00	0	41	0	847249408	9	3886
2026-01-30 14:07:53.73	237.52	16.91	-24.0	-24.7	17.7	0.00e+00	0	41	0	852492288	9	3881
2026-01-30 14:07:54.74	237.72	16.97	-24.2	-25.0	17.6	0.00e+00	0	41	0	858783744	9	3954
2026-01-30 14:07:55.75	237.91	17.03	-24.0	-24.7	17.8	0.00e+00	0	41	0	864026624	9	3879
2026-01-30 14:07:56.76	238.11	17.10	-24.0	-24.5	17.8	0.00e+00	0	41	0	869269504	9	3838
2026-01-30 14:07:57.77	238.30	17.16	-23.9	-24.4	17.9	1.10e-06	0	41	0	875560960	9	3816
2026-01-30 14:07:58.78	238.50	17.22	-24.1	-24.8	17.7	0.00e+00	0	41	0	880803840	9	3893
2026-01-30 14:07:59.79	238.70	17.28	-24.0	-24.6	17.8	0.00e+00	0	41	0	887095296	9	3853
2026-01-30 14:08:00.80	238.89	17.35	-23.9	-24.5	17.9	0.00e+00	0	41	0	892338176	9	3830
2026-01-30 14:08:01.82	239.10	17.41	-23.9	-24.5	17.9	0.00e+00	0	41	0	897581056	9	3831
2026-01-30 14:08:02.83	239.30	17.47	-24.0	-24.6	17.9	0.00e+00	0	41	0	903872512	9	3846
2026-01-30 14:08:03.84	239.50	17.53	-24.0	-24.6	17.8	0.00e+00	0	41	0	909115392	9	3861
2026-01-30 14:08:04.85	239.70	17.59	-24.0	-24.7	17.8	0.00e+00	0	41	0	915406848	9	3886
2026-01-30 14:08:05.86	239.90	17.65	-24.0	-24.7	17.8	0.00e+00	0	41	0	920649728	9	3882
2026-01-30 14:08:06.87	240.10	17.72	-24.0	-24.6	17.9	0.00e+00	0	41	0	926941184	9	3856
2026-01-30 14:08:07.88	240.31	17.78	-24.1	-24.7	17.8	0.00e+00	0	41	0	932184064	9	3893
2026-01-30 14:08:08.89	240.51	17.84	-24.0	-24.7	17.8	0.00e+00	0	41	0	938475520	9	3879
2026-01-30 14:08:09.90	240.72	17.90	-24.1	-24.8	17.8	0.00e+00	0	41	0	943718400	9	3895
2026-01-30 14:08:10.91	240.92	17.96	-24.2	-25.0	17.6	0.00e+00	0	41	0	948961280	9	3950
2026-01-30 14:08:11.93	241.13	18.02	-24.0	-24.6	17.9	0.00e+00	0	41	0	955252736	9	3852
2026-01-30 14:08:12.94	241.34	18.08	-23.8	-24.2	18.1	0.00e+00	0	41	0	960495616	9	3759
2026-01-30 14:08:13.95	241.55	18.14	-23.7	-24.5	18.2	0.00e+00	0	41	0	966787072	8	3939
2026-01-30 14:08:14.96	241.76	18.20	-23.7	-24.4	18.2	0.00e+00	0	41	0	972029952	8	3903
2026-01-30 14:08:15.97	241.97	18.26	-23.6	-24.3	18.3	0.00e+00	0	41	0	977272832	8	3900
2026-01-30 14:08:16.98	242.18	18.32	-23.8	-24.6	18.1	0.00e+00	0	41	0	983564288	8	3969
2026-01-30 14:08:17.99	242.39	18.37	-23.7	-24.4	18.2	0.00e+00	0	41	0	988807168	8	3925
2026-01-30 14:08:19.00	242.60	18.43	-23.7	-24.4	18.2	0.00e+00	0	41	0	995098624	8	3920
2026-01-30 14:08:20.01	242.82	18.49	-23.7	-24.5	18.2	0.00e+00	0	41	0	1000341504	8	3931
2026-01-30 14:08:21.02	243.03	18.55	-23.8	-24.7	18.1	0.00e+00	0	41	0	1005584384	8	3976
2026-01-30 14:08:22.03	243.25	18.61	-23.7	-24.4	18.3	0.00e+00	0	41	0	1011875840	8	3903
2026-01-30 14:08:23.04	243.46	18.66	-23.6	-24.3	18.3	0.00e+00	0	41	0	1017118720	8	3892
2026-01-30 14:08:24.05	243.68	18.72	-23.7	-24.5	18.2	0.00e+00	0	41	0	1023410176	8	3939
2026-01-30 14:08:25.06	243.90	18.78	-23.5	-24.0	18.4	0.00e+00	0	41	0	1028653056	8	3821
2026-01-30 14:08:26.07	244.12	18.84	-23.4	-23.8	18.5	0.00e+00	0	41	0	1034944512	8	3772
2026-01-30 14:08:27.09	244.34	18.89	-23.5	-24.1	18.4	0.00e+00	0	41	0	1040187392	8	3829
2026-01-30 14:08:28.10	244.56	18.95	-23.6	-24.2	18.4	0.00e+00	0	41	0	1046478848	8	3865
2026-01-30 14:08:29.11	244.78	19.00	-23.7	-24.5	18.2	0.00e+00	0	41	0	1051721728	8	3938
2026-01-30 14:08:30.12	245.00	19.06	-23.7	-24.5	18.2	0.00e+00	0	41	0	1056964608	8	3927
2026-01-30 14:08:31.13	245.22	19.12	-23.7	-24.4	18.3	0.00e+00	0	41	0	1063256064	8	3927
2026-01-30 14:08:32.14	245.44	19.17	-23.7	-24.5	18.3	0.00e+00	0	41	0	1068498944	8	3929
2026-01-30 14:08:33.15	245.67	19.22	-23.6	-24.3	18.3	0.00e+00	0	41	0	1074790400	8	3891
2026-01-30 14:08:34.16	245.89	19.28	-23.6	-24.1	18.4	0.00e+00	0	41	0	1080033280	8	3855
2026-01-30 14:08:35.17	246.12	19.33	-23.6	-24.2	18.4	0.00e+00	0	41	0	1085276160	8	3873
2026-01-30 14:08:36.18	246.34	19.39	-23.5	-24.0	18.5	0.00e+00	0	41	0	1091567616	8	3810
2026-01-30 14:08:37.19	246.57	19.44	-23.6	-24.2	18.4	0.00e+00	0	41	0	1096810496	8	3861
2026-01-30 14:08:38.21	246.80	19.49	-23.8	-24.6	18.2	0.00e+00	0	41	0	1103101952	8	3954
2026-01-30 14:08:39.22	247.03	19.55	-23.6	-24.2	18.4	1.10e-06	0	41	0	1108344832	8	3864
2026-01-30 14:08:40.23	247.26	19.60	-23.5	-24.0	18.5	0.00e+00	0	41	0	1114636288	8	3821
2026-01-30 14:08:41.24	247.49	19.65	-23.5	-24.0	18.5	0.00e+00	0	41	0	1119879168	8	3815
2026-01-30 14:08:42.25	247.72	19.70	-23.6	-24.2	18.4	0.00e+00	0	41	0	1125122048	8	3861
2026-01-30 14:08:43.26	247.95	19.75	-23.7	-24.5	18.3	0.00e+00	0	41	0	1131413504	8	3925
2026-01-30 14:08:44.27	248.18	19.80	-23.8	-24.6	18.2	0.00e+00	0	41	0	1136656384	8	3965
2026-01-30 14:08:45.28	248.42	19.86	-23.5	-24.1	18.5	0.00e+00	0	41	0	1142947840	8	3838
2026-01-30 14:08:46.29	248.65	19.91	-23.5	-24.0	18.5	0.00e+00	0	41	0	1148190720	8	3826
2026-01-30 14:08:47.31	248.89	19.96	-23.5	-24.1	18.4	0.00e+00	0	41	0	1154482176	8	3834
2026-01-30 14:08:48.32	249.12	20.01	-23.5	-24.1	18.5	0.00e+00	0	41	0	1159725056	8	3833
2026-01-30 14:08:49.33	249.36	20.05	-23.4	-23.8	18.6	0.00e+00	0	41	0	1166016512	8	3776
2026-01-30 14:08:50.34	249.59	20.10	-23.5	-24.0	18.5	0.00e+00	0	41	0	1171259392	8	3823
2026-01-30 14:08:51.35	249.83	20.15	-23.3	-23.6	18.7	0.00e+00	0	41	0	1176502272	8	3734
2026-01-30 14:08:52.36	250.07	20.20	-23.3	-24.2	18.7	0.00e+00	0	41	0	1182793728	7	3963
2026-01-30 14:08:53.37	250.31	20.25	-23.4	-24.4	18.6	0.00e+00	0	41	0	1188036608	7	4010
2026-01-30 14:08:54.38	250.55	20.29	-23.4	-24.2	18.7	0.00e+00	0	41	0	1194328064	7	3974
2026-01-30 14:08:55.39	250.79	20.34	-23.3	-24.1	18.7	0.00e+00	0	41	0	1199570944	7	3955
2026-01-30 14:08:56.41	251.03	20.39	-23.3	-24.1	18.7	0.00e+00	0	41	0	1204813824	7	3959
2026-01-30 14:08:57.42	251.27	20.43	-23.2	-23.8	18.9	0.00e+00	0	41	0	1211105280	7	3873
2026-01-30 14:08:58.43	251.51	20.48	-23.2	-23.9	18.8	0.00e+00	0	41	0	1216348160	7	3904
2026-01-30 14:08:59.44	251.76	20.52	-23.2	-23.8	18.9	0.00e+00	0	41	0	1222639616	7	3888
2026-01-30 14:09:00.45	252.00	20.57	-23.0	-23.5	19.1	0.00e+00	0	41	0	1227882496	7	3797
2026-01-30 14:09:01.46	252.25	20.61	-23.0	-23.5	19.0	0.00e+00	0	41	0	1233125376	7	3809
2026-01-30 14:09:02.47	252.49	20.66	-23.2	-23.8	18.9	0.00e+00	0	41	0	1239416832	7	3876
2026-01-30 14:09:03.48	252.74	20.70	-23.3	-24.1	18.7	0.00e+00	0	41	0	1244659712	7	3949
2026-01-30 14:09:04.49	252.98	20.74	-23.5	-24.4	18.6	0.00e+00	0	41	0	1250951168	7	4032
2026-01-30 14:09:05.50	253.23	20.79	-23.4	-24.4	18.6	0.00e+00	0	41	0	1256194048	7	4026
2026-01-30 14:09:06.51	253.48	20.83	-23.4	-24.3	18.7	0.00e+00	0	41	0	1262485504	7	3997
2026-01-30 14:09:07.53	253.73	20.87	-23.2	-24.0	18.8	0.00e+00	0	41	0	1267728384	7	3927
2026-01-30 14:09:08.54	253.98	20.91	-23.3	-24.1	18.8	0.00e+00	0	41	0	1274019840	7	3937
2026-01-30 14:09:09.55	254.23	20.95	-23.3	-24.1	18.8	0.00e+00	0	41	0	1279262720	7	3940
2026-01-30 14:09:10.56	254.48	20.99	-23.3	-24.0	18.8	0.00e+00	0	41	0	1284505600	7	3924
2026-01-30 14:09:11.57	254.73	21.03	-23.3	-24.0	18.8	0.00e+00	0	41	0	1290797056	7	3931
2026-01-30 14:09:12.58	254.98	21.07	-23.3	-24.0	18.8	0.00e+00	0	41	0	1296039936	7	3924
2026-01-30 14:09:13.59	255.23	21.11	-23.3	-24.1	18.8	0.00e+00	0	41	0	1302331392	7	3941
2026-01-30 14:09:14.60	255.49	21.15	-23.3	-24.1	18.7	0.00e+00	0	41	0	1307574272	7	3953
2026-01-30 14:09:15.62	255.74	21.18	-23.4	-24.2	18.7	0.00e+00	0	41	0	1312817152	7	3980
2026-01-30 14:09:16.62	255.99	21.22	-23.2	-23.9	18.9	0.00e+00	0	41	0	1319108608	7	3897
2026-01-30 14:09:17.64	256.25	21.26	-23.2	-23.8	18.9	3.40e-06	0	41	0	1324351488	7	3872
2026-01-30 14:09:18.65	256.51	21.29	-23.3	-24.0	18.8	0.00e+00	0	41	0	1330642944	7	3924
2026-01-30 14:09:19.66	256.76	21.33	-23.1	-23.8	18.9	0.00e+00	0	41	0	1335885824	7	3873
2026-01-30 14:09:20.67	257.02	21.36	-23.0	-23.4	19.1	1.10e-06	0	41	0	1341128704	7	3779
2026-01-30 14:09:21.68	257.27	21.40	-22.9	-23.3	19.2	0.00e+00	0	41	0	1347420160	7	3762
2026-01-30 14:09:22.69	257.53	21.43	-22.9	-23.2	19.2	0.00e+00	0	41	0	1352663040	7	3734
2026-01-30 14:09:23.70	257.79	21.47	-22.8	-23.0	19.3	3.40e-06	0	41	0	1358954496	7	3698
2026-01-30 14:09:24.71	258.05	21.50	-22.8	-23.1	19.3	0.00e+00	0	41	0	1364197376	7	3705
2026-01-30 14:09:25.72	258.31	21.53	-22.9	-23.3	19.2	0.00e+00	0	41	0	1370488832	7	3759
2026-01-30 14:09:26.73	258.57	21.56	-23.0	-23.4	19.2	0.00e+00	0	41	0	1375731712	7	3789
2026-01-30 14:09:27.74	258.83	21.59	-23.0	-23.5	19.1	0.00e+00	0	41	0	1382023168	7	3802
2026-01-30 14:09:28.76	259.09	21.63	-23.0	-23.4	19.1	0.00e+00	0	41	0	1387266048	7	3793
2026-01-30 14:09:29.77	259.35	21.66	-23.0	-23.4	19.1	0.00e+00	0	41	0	1392508928	7	3778
2026-01-30 14:09:30.78	259.61	21.69	-23.1	-23.7	19.0	0.00e+00	0	41	0	1398800384	7	3845
2026-01-30 14:09:31.79	259.88	21.71	-23.0	-23.4	19.1	0.00e+00	0	41	0	1404043264	7	3794
2026-01-30 14:09:32.80	260.14	21.74	-23.0	-23.5	19.1	4.50e-06	0	41	0	1410334720	7	3798
2026-01-30 14:09:33.81	260.40	21.77	-23.1	-23.6	19.0	0.00e+00	0	41	0	1415577600	7	3840
2026-01-30 14:09:34.82	260.66	21.80	-23.0	-23.5	19.0	0.00e+00	0	41	0	1420820480	7	3820
2026-01-30 14:09:35.83	260.93	21.82	-23.0	-23.5	19.1	0.00e+00	0	41	0	1427111936	7	3813
2026-01-30 14:09:36.84	261.19	21.85	-23.1	-23.6	19.0	0.00e+00	0	41	0	1432354816	7	3827
2026-01-30 14:09:37.86	261.46	21.88	-23.2	-23.8	18.9	0.00e+00	0	41	0	1438646272	7	3881
2026-01-30 14:09:38.87	261.72	21.90	-23.1	-23.7	19.0	0.00e+00	0	41	0	1443889152	7	3863
2026-01-30 14:09:39.88	261.99	21.93	-23.1	-23.7	19.0	0.00e+00	0	41	0	1450180608	7	3859
2026-01-30 14:09:40.89	262.26	21.95	-23.0	-23.6	19.1	0.00e+00	0	41	0	1455423488	7	3823
2026-01-30 14:09:41.90	262.52	21.97	-23.2	-23.9	18.9	0.00e+00	0	41	0	1460666368	7	3893
2026-01-30 14:09:42.91	262.79	21.99	-23.0	-23.5	19.1	0.00e+00	0	41	0	1466957824	7	3809
2026-01-30 14:09:43.92	263.06	22.02	-23.1	-23.8	18.9	0.00e+00	0	41	0	1472200704	7	3864
2026-01-30 14:09:44.93	263.32	22.04	-23.2	-23.8	18.9	0.00e+00	0	41	0	1478492160	7	3883
2026-01-30 14:09:45.94	263.59	22.06	-23.2	-23.9	18.9	0.00e+00	0	41	0	1483735040	7	3903
2026-01-30 14:09:46.95	263.86	22.08	-23.0	-23.4	19.1	0.00e+00	0	41	0	1490026496	7	3789
2026-01-30 14:09:47.96	264.13	22.10	-22.9	-23.2	19.2	0.00e+00	0	41	0	1495269376	7	3740
2026-01-30 14:09:48.97	264.40	22.12	-22.9	-23.2	19.2	0.00e+00	0	41	0	1500512256	7	3742
2026-01-30 14:09:49.98	264.67	22.13	-23.2	-23.9	18.9	0.00e+00	0	41	0	1506803712	7	3896
2026-01-30 14:09:51.00	264.94	22.15	-23.1	-23.6	19.0	0.00e+00	0	41	0	1512046592	7	3838
2026-01-30 14:09:52.01	265.21	22.17	-23.4	-24.2	18.7	0.00e+00	0	41	0	1518338048	7	3976
2026-01-30 14:09:53.02	265.48	22.19	-23.2	-23.9	18.9	0.00e+00	0	41	0	1523580928	7	3902
2026-01-30 14:09:54.03	265.75	22.20	-23.0	-23.5	19.1	0.00e+00	0	41	0	1529872384	7	3796
2026-01-30 14:09:55.04	266.02	22.22	-22.9	-23.2	19.3	0.00e+00	0	41	0	1535115264	7	3737
2026-01-30 14:09:56.05	266.29	22.23	-22.9	-23.1	19.3	0.00e+00	0	41	0	1540358144	7	3724
2026-01-30 14:09:57.06	266.56	22.24	-22.7	-23.4	19.4	0.00e+00	0	41	0	1546649600	6	3886
2026-01-30 14:09:58.07	266.83	22.26	-23.1	-24.1	19.1	0.00e+00	0	41	0	1551892480	6	4059
2026-01-30 14:09:59.08	267.10	22.27	-22.9	-23.8	19.2	2.20e-06	0	41	0	1558183936	6	3987
2026-01-30 14:10:00.09	267.37	22.28	-22.9	-23.7	19.2	0.00e+00	0	41	0	1563426816	6	3967
2026-01-30 14:10:01.10	267.65	22.29	-23.0	-23.9	19.2	0.00e+00	0	41	0	1568669696	6	4020
2026-01-30 14:10:02.11	267.92	22.30	-22.9	-23.8	19.2	0.00e+00	0	41	0	1574961152	6	3991
2026-01-30 14:10:03.12	268.19	22.31	-23.0	-23.9	19.1	0.00e+00	0	41	0	1580204032	6	4022
2026-01-30 14:10:04.13	268.46	22.32	-22.8	-23.5	19.4	0.00e+00	0	41	0	1586495488	6	3908
2026-01-30 14:10:05.14	268.74	22.33	-22.7	-23.4	19.4	0.00e+00	0	41	0	1591738368	6	3899
2026-01-30 14:10:06.15	269.01	22.34	-22.8	-23.6	19.3	0.00e+00	0	41	0	1598029824	6	3932
2026-01-30 14:10:07.17	269.28	22.35	-22.8	-23.5	19.4	0.00e+00	0	41	0	1603272704	6	3910
2026-01-30 14:10:08.18	269.56	22.35	-22.9	-23.9	19.2	0.00e+00	0	41	0	1609564160	6	3997
2026-01-30 14:10:09.19	269.83	22.36	-22.9	-23.9	19.2	0.00e+00	0	41	0	1614807040	6	4005
2026-01-30 14:10:10.20	270.10	22.36	-23.0	-24.0	19.1	0.00e+00	0	41	0	1620049920	6	4036
2026-01-30 14:10:11.21	270.38	22.37	-23.1	-24.1	19.0	0.00e+00	0	41	0	1626341376	6	4071
2026-01-30 14:10:12.22	270.65	22.37	-23.0	-23.9	19.2	0.00e+00	0	41	0	1631584256	6	4011
2026-01-30 14:10:13.23	270.92	22.38	-22.9	-23.8	19.2	0.00e+00	0	41	0	1637875712	6	3977
2026-01-30 14:10:14.24	271.19	22.38	-23.2	-24.4	18.9	0.00e+00	0	41	0	1643118592	6	4124
2026-01-30 14:10:15.25	271.47	22.38	-23.0	-24.0	19.1	0.00e+00	0	41	0	1648361472	6	4037
2026-01-30 14:10:16.26	271.74	22.38	-23.0	-23.9	19.2	0.00e+00	0	41	0	1654652928	6	4003
2026-01-30 14:10:17.27	272.01	22.38	-23.2	-24.4	18.9	1.10e-06	0	41	0	1659895808	6	4125
2026-01-30 14:10:18.28	272.29	22.38	-23.0	-23.9	19.2	0.00e+00	0	41	0	1666187264	6	3995
2026-01-30 14:10:19.29	272.56	22.38	-23.1	-24.1	19.0	0.00e+00	0	41	0	1671430144	6	4067
2026-01-30 14:10:20.30	272.83	22.38	-23.0	-24.0	19.1	4.50e-06	0	41	0	1676673024	6	4027
2026-01-30 14:10:21.32	273.11	22.38	-22.9	-23.7	19.3	0.00e+00	0	41	0	1682964480	6	3966
2026-01-30 14:10:22.33	273.38	22.38	-23.0	-24.0	19.1	0.00e+00	0	41	0	1688207360	6	4041
2026-01-30 14:10:23.34	273.66	22.37	-23.0	-24.0	19.1	0.00e+00	0	41	0	1694498816	6	4019
2026-01-30 14:10:24.35	273.93	22.37	-22.8	-23.6	19.3	0.00e+00	0	41	0	1699741696	6	3941
2026-01-30 14:10:25.36	274.20	22.36	-22.9	-23.6	19.3	0.00e+00	0	41	0	1706033152	6	3945
2026-01-30 14:10:26.37	274.48	22.36	-22.9	-23.8	19.2	0.00e+00	0	41	0	1711276032	6	3983
2026-01-30 14:10:27.38	274.75	22.35	-23.0	-23.9	19.1	0.00e+00	0	41	0	1717567488	6	4014
2026-01-30 14:10:28.39	275.02	22.35	-23.0	-23.9	19.2	0.00e+00	0	41	0	1722810368	6	4010
2026-01-30 14:10:29.40	275.29	22.34	-23.0	-24.0	19.1	0.00e+00	0	41	0	1728053248	6	4027
2026-01-30 14:10:30.41	275.57	22.33	-23.1	-24.1	19.1	0.00e+00	0	41	0	1734344704	6	4064
2026-01-30 14:10:31.43	275.84	22.32	-23.0	-23.9	19.1	0.00e+00	0	41	0	1739587584	6	4016
2026-01-30 14:10:32.44	276.11	22.31	-23.0	-24.0	19.1	0.00e+00	0	41	0	1745879040	6	4041
2026-01-30 14:10:33.45	276.39	22.30	-23.0	-24.0	19.1	0.00e+00	0	41	0	1751121920	6	4034
2026-01-30 14:10:34.46	276.66	22.29	-23.0	-24.0	19.1	0.00e+00	0	41	0	1756364800	6	4029
2026-01-30 14:10:35.47	276.93	22.28	-23.0	-23.9	19.1	0.00e+00	0	41	0	1762656256	6	4012
2026-01-30 14:10:36.48	277.20	22.27	-23.0	-24.0	19.1	0.00e+00	0	41	0	1767899136	6	4033
2026-01-30 14:10:37.49	277.47	22.26	-23.1	-24.2	19.0	0.00e+00	0	41	0	1774190592	6	4083
2026-01-30 14:10:38.50	277.74	22.25	-23.2	-24.4	18.9	0.00e+00	0	41	0	1779433472	6	4131
2026-01-30 14:10:39.51	278.01	22.23	-23.2	-24.4	18.9	0.00e+00	0	41	0	1784676352	6	4128
2026-01-30 14:10:40.52	278.28	22.22	-23.0	-23.9	19.2	0.00e+00	0	41	0	1790967808	6	4001
2026-01-30 14:10:41.54	278.56	22.20	-22.8	-23.6	19.3	0.00e+00	0	41	0	1796210688	6	3938
2026-01-30 14:10:42.55	278.83	22.19	-22.9	-23.8	19.2	0.00e+00	0	41	0	1802502144	6	3988
2026-01-30 14:10:43.56	279.10	22.17	-22.9	-23.8	19.2	0.00e+00	0	41	0	1807745024	6	3983
2026-01-30 14:10:44.57	279.37	22.15	-22.9	-23.8	19.2	0.00e+00	0	41	0	1814036480	6	3980
2026-01-30 14:10:45.58	279.63	22.14	-23.0	-23.9	19.2	0.00e+00	0	41	0	1819279360	6	4005
2026-01-30 14:10:46.59	279.90	22.12	-23.0	-23.9	19.2	0.00e+00	0	41	0	1825570816	6	4005
2026-01-30 14:10:47.60	280.17	22.10	-23.0	-24.0	19.1	0.00e+00	0	41	0	1830813696	6	4026
2026-01-30 14:10:48.61	280.44	22.08	-23.1	-24.1	19.1	0.00e+00	0	41	0	1836056576	6	4062
2026-01-30 14:10:49.62	280.71	22.06	-23.1	-24.2	19.0	0.00e+00	0	41	0	1842348032	6	4079
2026-01-30 14:10:50.63	280.97	22.04	-23.1	-24.1	19.1	0.00e+00	0	41	0	1847590912	6	4065
2026-01-30 14:10:51.64	281.24	22.02	-23.1	-24.1	19.1	0.00e+00	0	41	0	1853882368	6	4066
2026-01-30 14:10:52.65	281.51	22.00	-23.2	-24.3	19.0	0.00e+00	0	41	0	1859125248	6	4103
2026-01-30 14:10:53.66	281.78	21.97	-23.2	-24.4	18.9	0.00e+00	0	41	0	1864368128	6	4125
2026-01-30 14:10:54.68	282.04	21.95	-23.1	-24.2	19.0	0.00e+00	0	41	0	1870659584	6	4076
2026-01-30 14:10:55.69	282.31	21.93	-23.1	-24.2	19.1	0.00e+00	0	41	0	1875902464	6	4079
2026-01-30 14:10:56.70	282.57	21.90	-23.1	-24.1	19.0	0.00e+00	0	41	0	1882193920	6	4060
2026-01-30 14:10:57.71	282.84	21.88	-23.1	-24.1	19.1	0.00e+00	0	41	0	1887436800	6	4066
2026-01-30 14:10:58.72	283.10	21.85	-23.1	-24.1	19.1	0.00e+00	0	41	0	1892679680	6	4046
2026-01-30 14:10:59.73	283.37	21.83	-23.1	-24.1	19.1	0.00e+00	0	41	0	1898971136	6	4055
2026-01-30 14:11:00.74	283.63	21.80	-23.2	-24.4	18.9	0.00e+00	0	41	0	1904214016	6	4133
2026-01-30 14:11:01.75	283.89	21.77	-23.1	-24.2	19.0	0.00e+00	0	41	0	1910505472	6	4075
2026-01-30 14:11:02.76	284.16	21.75	-23.1	-24.1	19.1	0.00e+00	0	41	0	1915748352	6	4061
2026-01-30 14:11:03.78	284.42	21.72	-23.2	-24.3	18.9	0.00e+00	0	41	0	1922039808	6	4115
2026-01-30 14:11:04.79	284.68	21.69	-23.2	-24.5	18.9	0.00e+00	0	41	0	1927282688	6	4153
2026-01-30 14:11:05.80	284.94	21.66	-23.3	-24.5	18.9	0.00e+00	0	41	0	1933574144	6	4169
2026-01-30 14:11:06.81	285.20	21.63	-23.4	-24.8	18.7	0.00e+00	0	41	0	1938817024	6	4229
2026-01-30 14:11:07.82	285.46	21.60	-23.3	-24.6	18.8	0.00e+00	0	41	0	1944059904	6	4187
2026-01-30 14:11:08.83	285.72	21.57	-23.4	-24.7	18.8	0.00e+00	0	41	0	1950351360	6	4220
2026-01-30 14:11:09.84	285.98	21.54	-23.2	-24.5	18.9	0.00e+00	0	41	0	1955594240	6	4144
2026-01-30 14:11:10.85	286.24	21.50	-23.2	-24.3	19.0	0.00e+00	0	41	0	1961885696	6	4114
2026-01-30 14:11:11.86	286.50	21.47	-23.2	-24.3	19.0	0.00e+00	0	41	0	1967128576	6	4105
2026-01-30 14:11:12.87	286.76	21.44	-23.4	-24.7	18.8	0.00e+00	0	41	0	1973420032	6	4210
2026-01-30 14:11:13.89	287.02	21.40	-23.5	-25.0	18.6	0.00e+00	0	41	0	1978662912	6	4269
2026-01-30 14:11:14.90	287.27	21.37	-23.4	-24.8	18.7	0.00e+00	0	41	0	1983905792	6	4233
2026-01-30 14:11:15.91	287.53	21.34	-23.4	-24.8	18.7	0.00e+00	0	41	0	1990197248	6	4223
2026-01-30 14:11:16.92	287.78	21.30	-23.6	-24.6	18.5	0.00e+00	0	41	0	1995440128	7	4075
2026-01-30 14:11:17.93	288.04	21.26	-23.8	-25.2	18.2	0.00e+00	0	41	0	2001731584	7	4211
2026-01-30 14:11:18.94	288.29	21.23	-23.7	-24.9	18.4	0.00e+00	0	41	0	2006974464	7	4136
2026-01-30 14:11:19.95	288.54	21.19	-24.0	-25.2	18.0	0.00e+00	0	41	0	2012217344	8	4098
2026-01-30 14:11:20.96	288.80	21.15	-23.7	-24.3	18.4	0.00e+00	0	41	0	2018508800	8	3896
2026-01-30 14:11:21.97	289.05	21.12	-23.4	-23.8	18.8	0.00e+00	0	41	0	2023751680	8	3765
2026-01-30 14:11:22.98	289.30	21.08	-23.2	-23.9	18.9	0.00e+00	0	41	0	2030043136	7	3896
2026-01-30 14:11:23.99	289.55	21.04	-23.4	-24.3	18.7	0.00e+00	0	41	0	2035286016	7	3998
2026-01-30 14:11:25.01	289.81	21.00	-23.3	-24.2	18.8	0.00e+00	0	41	0	2041577472	7	3966
2026-01-30 14:11:26.02	290.05	20.96	-23.4	-24.2	18.7	0.00e+00	0	41	0	2046820352	7	3983
2026-01-30 14:11:27.03	290.30	20.92	-23.3	-24.2	18.8	0.00e+00	0	41	0	2053111808	7	3974
2026-01-30 14:11:28.04	290.55	20.88	-23.4	-24.2	18.8	0.00e+00	0	41	0	2058354688	7	3973
2026-01-30 14:11:29.05	290.80	20.84	-23.3	-24.0	18.9	0.00e+00	0	41	0	2063597568	7	3921
2026-01-30 14:11:30.06	291.05	20.80	-23.3	-24.0	18.8	0.00e+00	0	41	0	2069889024	7	3924
2026-01-30 14:11:31.07	291.29	20.75	-23.4	-24.4	18.6	0.00e+00	0	41	0	2075131904	7	4013
2026-01-30 14:11:32.08	291.54	20.71	-23.5	-24.5	18.6	0.00e+00	0	41	0	2081423360	7	4042
2026-01-30 14:11:33.09	291.78	20.67	-23.8	-25.1	18.3	0.00e+00	0	41	0	2086666240	7	4196
2026-01-30 14:11:34.10	292.03	20.62	-23.8	-25.1	18.3	0.00e+00	0	41	0	2091909120	7	4208
2026-01-30 14:11:35.11	292.27	20.58	-23.8	-25.2	18.2	0.00e+00	0	41	0	2098200576	7	4224
2026-01-30 14:11:36.12	292.52	20.54	-23.9	-25.4	18.1	0.00e+00	0	41	0	2103443456	7	4261
2026-01-30 14:11:37.13	292.76	20.49	-24.2	-25.5	17.9	0.00e+00	0	41	0	2109734912	8	4173
2026-01-30 14:11:38.15	293.00	20.45	-24.4	-26.0	17.6	0.00e+00	0	41	0	2114977792	8	4299
2026-01-30 14:11:39.16	293.24	20.40	-24.1	-25.2	18.0	0.00e+00	0	41	0	2120220672	8	4106
2026-01-30 14:11:40.17	293.48	20.35	-24.2	-25.5	17.8	0.00e+00	0	41	0	2126512128	8	4184
2026-01-30 14:11:41.18	293.72	20.31	-24.1	-25.3	18.0	0.00e+00	0	41	0	2131755008	8	4118
2026-01-30 14:11:42.19	293.96	20.26	-23.9	-24.9	18.1	0.00e+00	0	41	0	2138046464	8	4036
2026-01-30 14:11:43.20	294.20	20.21	-24.1	-25.2	18.0	0.00e+00	0	41	0	2143289344	8	4111
2026-01-30 14:11:44.21	294.44	20.17	-24.1	-25.3	17.9	0.00e+00	0	41	0	2149580800	8	4136
2026-01-30 14:11:45.22	294.67	20.12	-24.2	-25.5	17.8	0.00e+00	0	41	0	2154823680	8	4172
2026-01-30 14:11:46.23	294.91	20.07	-23.9	-24.9	18.1	0.00e+00	0	41	0	2161115136	8	4039
2026-01-30 14:11:47.24	295.14	20.02	-23.8	-24.6	18.2	0.00e+00	0	41	0	2166358016	8	3973
2026-01-30 14:11:48.25	295.38	19.97	-23.8	-24.7	18.3	0.00e+00	0	41	0	2171600896	8	3976
2026-01-30 14:11:49.26	295.61	19.92	-23.9	-24.9	18.1	0.00e+00	0	41	0	2177892352	8	4032
2026-01-30 14:11:50.27	295.85	19.87	-23.9	-24.8	18.2	0.00e+00	0	41	0	2183135232	8	4009
2026-01-30 14:11:51.28	296.08	19.82	-23.9	-24.9	18.1	0.00e+00	0	41	0	2189426688	8	4037
2026-01-30 14:11:52.29	296.31	19.77	-24.0	-25.1	18.0	0.00e+00	0	41	0	2194669568	8	4090
2026-01-30 14:11:53.30	296.54	19.72	-23.9	-25.0	18.1	0.00e+00	0	41	0	2199912448	8	4047
2026-01-30 14:11:54.32	296.77	19.67	-23.9	-25.0	18.1	0.00e+00	0	41	0	2206203904	8	4047
2026-01-30 14:11:55.33	297.00	19.62	-23.9	-24.9	18.1	0.00e+00	0	41	0	2211446784	8	4036
2026-01-30 14:11:56.34	297.23	19.56	-24.0	-25.1	18.0	0.00e+00	0	41	0	2217738240	8	4090
2026-01-30 14:11:57.35	297.46	19.51	-24.1	-25.3	17.9	0.00e+00	0	41	0	2222981120	8	4144
2026-01-30 14:11:58.36	297.68	19.46	-24.2	-25.4	17.8	0.00e+00	0	41	0	2228224000	8	4164
2026-01-30 14:11:59.37	297.91	19.41	-24.4	-25.9	17.6	0.00e+00	0	41	0	2234515456	8	4275
2026-01-30 14:12:00.38	298.14	19.35	-24.1	-25.3	17.9	0.00e+00	0	41	0	2239758336	8	4125
2026-01-30 14:12:01.39	298.36	19.30	-24.0	-25.2	18.0	0.00e+00	0	41	0	2246049792	8	4103
2026-01-30 14:12:02.40	298.58	19.25	-24.0	-25.1	18.0	0.00e+00	0	41	0	2251292672	8	4095
2026-01-30 14:12:03.41	298.81	19.19	-24.1	-25.3	17.9	0.00e+00	0	41	0	2257584128	8	4123
2026-01-30 14:12:04.42	299.03	19.14	-24.1	-25.2	17.9	0.00e+00	0	41	0	2262827008	8	4120
2026-01-30 14:12:05.43	299.25	19.08	-24.1	-25.3	17.9	0.00e+00	0	41	0	2269118464	8	4144
2026-01-30 14:12:06.44	299.47	19.03	-24.0	-25.1	18.0	0.00e+00	0	41	0	2274361344	8	4098
2026-01-30 14:12:07.45	299.69	18.97	-24.0	-25.0	18.0	1.10e-06	0	41	0	2279604224	8	4066
2026-01-30 14:12:08.46	299.91	18.92	-24.0	-25.2	18.0	0.00e+00	0	41	0	2285895680	8	4103
2026-01-30 14:12:09.48	300.13	18.86	-24.1	-25.4	17.9	0.00e+00	0	41	0	2291138560	8	4150
2026-01-30 14:12:10.49	300.35	18.80	-24.0	-25.1	18.0	0.00e+00	0	41	0	2297430016	8	4087
2026-01-30 14:12:11.50	300.56	18.75	-24.1	-25.4	17.8	0.00e+00	0	41	0	2302672896	8	4160
2026-01-30 14:12:12.51	300.78	18.69	-24.1	-25.3	17.8	0.00e+00	0	41	0	2307915776	8	4145
2026-01-30 14:12:13.52	301.00	18.63	-23.9	-24.8	18.1	0.00e+00	0	41	0	2314207232	8	4014
2026-01-30 14:12:14.53	301.21	18.58	-23.9	-24.8	18.2	0.00e+00	0	41	0	2319450112	8	4000
2026-01-30 14:12:15.54	301.42	18.52	-23.8	-24.7	18.2	0.00e+00	0	41	0	2325741568	8	3992
2026-01-30 14:12:16.55	301.64	18.46	-23.9	-24.9	18.1	0.00e+00	0	41	0	2330984448	8	4027
2026-01-30 14:12:17.56	301.85	18.40	-24.2	-25.4	17.8	0.00e+00	0	41	0	2336227328	8	4163
2026-01-30 14:12:18.57	302.06	18.34	-24.3	-25.6	17.7	0.00e+00	0	41	0	2342518784	8	4224
2026-01-30 14:12:19.58	302.27	18.29	-24.4	-25.9	17.6	0.00e+00	0	41	0	2347761664	8	4277
2026-01-30 14:12:20.60	302.48	18.23	-24.4	-26.0	17.5	0.00e+00	0	41	0	2354053120	8	4322
2026-01-30 14:12:21.61	302.69	18.17	-24.5	-26.1	17.4	0.00e+00	0	41	0	2359296000	8	4347
2026-01-30 14:12:22.62	302.90	18.11	-24.4	-25.9	17.6	0.00e+00	0	41	0	2365587456	8	4288
2026-01-30 14:12:23.63	303.11	18.05	-24.5	-25.7	17.4	0.00e+00	0	41	0	2370830336	9	4120
2026-01-30 14:12:24.64	303.31	17.99	-24.7	-26.1	17.1	0.00e+00	0	41	0	2377121792	9	4235
2026-01-30 14:12:25.65	303.52	17.93	-24.6	-25.9	17.3	0.00e+00	0	41	0	2382364672	9	4181
2026-01-30 14:12:26.66	303.72	17.87	-24.4	-25.4	17.5	0.00e+00	0	41	0	2387607552	9	4045
2026-01-30 14:12:27.67	303.93	17.81	-24.3	-25.1	17.7	0.00e+00	0	41	0	2393899008	9	3982
2026-01-30 14:12:28.68	304.13	17.75	-24.3	-25.2	17.7	0.00e+00	0	41	0	2399141888	9	3988
2026-01-30 14:12:29.69	304.33	17.69	-24.3	-25.2	17.6	0.00e+00	0	41	0	2405433344	9	4003
2026-01-30 14:12:30.71	304.54	17.63	-24.3	-25.3	17.6	0.00e+00	0	41	0	2410676224	9	4025
2026-01-30 14:12:31.72	304.74	17.57	-24.5	-25.7	17.4	0.00e+00	0	41	0	2415919104	9	4135
2026-01-30 14:12:32.73	304.94	17.50	-24.4	-25.4	17.6	0.00e+00	0	41	0	2422210560	9	4039
2026-01-30 14:12:33.74	305.14	17.44	-24.2	-25.0	17.8	0.00e+00	0	41	0	2427453440	9	3938
2026-01-30 14:12:34.75	305.33	17.38	-24.1	-24.8	17.9	0.00e+00	0	41	0	2433744896	9	3904
2026-01-30 14:12:35.76	305.53	17.32	-24.1	-24.8	17.8	0.00e+00	0	41	0	2438987776	9	3909
2026-01-30 14:12:36.77	305.73	17.26	-24.1	-24.9	17.8	0.00e+00	0	41	0	2444230656	9	3925
2026-01-30 14:12:37.78	305.92	17.20	-24.2	-25.1	17.7	0.00e+00	0	41	0	2450522112	9	3967
2026-01-30 14:12:38.79	306.12	17.13	-24.3	-25.2	17.6	0.00e+00	0	41	0	2455764992	9	4007
2026-01-30 14:12:39.80	306.31	17.07	-24.5	-25.6	17.4	0.00e+00	0	41	0	2462056448	9	4090
2026-01-30 14:12:40.81	306.51	17.01	-24.5	-25.7	17.3	0.00e+00	0	41	0	2467299328	9	4139
2026-01-30 14:12:41.82	306.70	16.95	-24.6	-25.9	17.3	0.00e+00	0	41	0	2473590784	9	4173
2026-01-30 14:12:42.83	306.89	16.88	-24.6	-25.9	17.2	0.00e+00	0	41	0	2478833664	9	4182
2026-01-30 14:12:43.85	307.09	16.82	-24.7	-26.0	17.2	0.00e+00	0	41	0	2485125120	9	4191
2026-01-30 14:12:44.86	307.28	16.76	-24.8	-26.2	17.1	0.00e+00	0	41	0	2490368000	9	4260
2026-01-30 14:12:45.87	307.47	16.69	-24.8	-26.3	17.0	0.00e+00	0	41	0	2495610880	9	4267
2026-01-30 14:12:46.88	307.66	16.63	-24.9	-26.5	17.0	0.00e+00	0	41	0	2501902336	9	4323
2026-01-30 14:12:47.89	307.84	16.57	-25.0	-26.7	16.8	0.00e+00	0	41	0	2507145216	9	4387
2026-01-30 14:12:48.90	308.03	16.50	-25.1	-26.5	16.7	0.00e+00	0	41	0	2513436672	10	4209
2026-01-30 14:12:49.91	308.22	16.44	-25.2	-26.7	16.6	0.00e+00	0	41	0	2518679552	10	4271
2026-01-30 14:12:50.92	308.40	16.38	-25.1	-26.5	16.7	0.00e+00	0	41	0	2524971008	10	4211
2026-01-30 14:12:51.94	308.59	16.31	-25.2	-26.6	16.6	0.00e+00	0	41	0	2530213888	10	4255
2026-01-30 14:12:52.95	308.78	16.25	-24.9	-26.1	15.2	7.22e-04	0	41	0	2535456768	10	4119
2026-01-30 14:12:53.96	308.96	16.18	-24.7	-26.1	17.0	0.00e+00	0	41	0	2541748224	9	4229
2026-01-30 14:12:54.97	309.14	16.12	-24.7	-26.1	17.1	0.00e+00	0	41	0	2546991104	9	4229
2026-01-30 14:12:55.98	309.32	16.06	-24.7	-26.1	17.1	0.00e+00	0	41	0	2553282560	9	4232
2026-01-30 14:12:56.99	309.51	15.99	-24.8	-26.3	17.0	0.00e+00	0	41	0	2558525440	9	4281
2026-01-30 14:12:58.00	309.69	15.93	-24.9	-26.4	16.9	0.00e+00	0	41	0	2563768320	9	4322
2026-01-30 14:12:59.01	309.87	15.86	-24.8	-26.4	17.0	0.00e+00	0	41	0	2570059776	9	4314
2026-01-30 14:13:00.02	310.04	15.80	-24.9	-26.6	16.9	0.00e+00	0	41	0	2575302656	9	4352
2026-01-30 14:13:01.03	310.22	15.73	-24.8	-26.2	17.0	0.00e+00	0	41	0	2581594112	9	4264
2026-01-30 14:13:02.04	310.40	15.67	-24.7	-26.1	17.1	0.00e+00	0	41	0	2586836992	9	4234
2026-01-30 14:13:03.05	310.58	15.60	-24.7	-26.2	17.1	0.00e+00	0	41	0	2593128448	9	4250
2026-01-30 14:13:04.06	310.75	15.54	-24.6	-25.9	17.2	0.00e+00	0	41	0	2598371328	9	4186
2026-01-30 14:13:05.08	310.93	15.47	-24.9	-26.5	16.9	0.00e+00	0	41	0	2604662784	9	4325
2026-01-30 14:13:06.09	311.10	15.41	-24.7	-26.1	17.1	0.00e+00	0	41	0	2609905664	9	4236
2026-01-30 14:13:07.10	311.28	15.34	-24.7	-26.0	17.2	0.00e+00	0	41	0	2615148544	9	4201
2026-01-30 14:13:08.11	311.45	15.28	-24.7	-26.1	17.1	0.00e+00	0	41	0	2621440000	9	4237
2026-01-30 14:13:09.12	311.62	15.21	-24.8	-26.3	17.0	0.00e+00	0	41	0	2626682880	9	4273
2026-01-30 14:13:10.13	311.80	15.15	-24.8	-26.3	17.0	0.00e+00	0	41	0	2632974336	9	4291
2026-01-30 14:13:11.14	311.97	15.08	-24.9	-26.5	16.9	0.00e+00	0	41	0	2638217216	9	4332
2026-01-30 14:13:12.15	312.14	15.01	-24.9	-26.6	16.8	0.00e+00	0	41	0	2643460096	9	4365
2026-01-30 14:13:13.16	312.31	14.95	-24.9	-26.6	16.8	0.00e+00	0	41	0	2649751552	9	4359
2026-01-30 14:13:14.17	312.47	14.88	-25.0	-26.3	16.7	0.00e+00	0	41	0	2654994432	10	4174
2026-01-30 14:13:15.18	312.64	14.82	-25.1	-26.4	16.7	0.00e+00	0	41	0	2661285888	10	4192
2026-01-30 14:13:16.19	312.81	14.75	-25.1	-26.4	16.7	0.00e+00	0	41	0	2666528768	10	4198
2026-01-30 14:13:17.20	312.98	14.69	-25.0	-26.3	16.7	0.00e+00	0	41	0	2671771648	10	4179
2026-01-30 14:13:18.22	313.14	14.62	-25.2	-26.6	16.5	0.00e+00	0	41	0	2678063104	10	4258
2026-01-30 14:13:19.23	313.31	14.55	-25.1	-26.4	16.6	0.00e+00	0	41	0	2683305984	10	4205
2026-01-30 14:13:20.24	313.47	14.49	-25.2	-26.7	16.5	0.00e+00	0	41	0	2689597440	10	4267
2026-01-30 14:13:21.25	313.64	14.42	-25.1	-26.6	16.6	0.00e+00	0	41	0	2694840320	10	4238
2026-01-30 14:13:22.26	313.80	14.36	-25.2	-26.8	16.4	0.00e+00	0	41	0	2701131776	10	4303
2026-01-30 14:13:23.27	313.96	14.29	-25.3	-27.0	16.3	0.00e+00	0	41	0	2706374656	10	4353
2026-01-30 14:13:24.28	314.12	14.22	-25.4	-27.2	16.2	0.00e+00	0	41	0	2712666112	10	4402
2026-01-30 14:13:25.29	314.28	14.16	-25.4	-27.2	16.2	0.00e+00	0	41	0	2717908992	10	4408
2026-01-30 14:13:26.30	314.44	14.09	-25.5	-27.3	16.2	0.00e+00	0	41	0	2723151872	10	4433
2026-01-30 14:13:27.31	314.60	14.03	-25.4	-27.1	16.2	0.00e+00	0	41	0	2729443328	10	4380
2026-01-30 14:13:28.33	314.76	13.96	-25.4	-27.1	16.3	0.00e+00	0	41	0	2734686208	10	4373
2026-01-30 14:13:29.34	314.92	13.89	-25.4	-27.1	16.2	0.00e+00	0	41	0	2740977664	10	4394
2026-01-30 14:13:30.35	315.08	13.83	-25.4	-27.1	16.2	0.00e+00	0	41	0	2746220544	10	4388
2026-01-30 14:13:31.36	315.24	13.76	-25.3	-26.9	16.3	0.00e+00	0	41	0	2751463424	10	4320
2026-01-30 14:13:32.37	315.39	13.69	-25.3	-26.9	16.3	0.00e+00	0	41	0	2757754880	10	4331
2026-01-30 14:13:33.38	315.55	13.63	-25.4	-27.1	16.2	0.00e+00	0	41	0	2762997760	10	4372
2026-01-30 14:13:34.39	315.70	13.56	-25.3	-27.0	16.3	0.00e+00	0	41	0	2769289216	10	4345
2026-01-30 14:13:35.40	315.86	13.50	-25.4	-27.1	16.2	0.00e+00	0	41	0	2774532096	10	4385
2026-01-30 14:13:36.41	316.01	13.43	-25.5	-26.8	16.1	0.00e+00	0	41	0	2779774976	11	4189
2026-01-30 14:13:37.42	316.16	13.36	-25.5	-26.8	16.1	0.00e+00	0	41	0	2786066432	11	4181
2026-01-30 14:13:38.43	316.31	13.30	-25.4	-26.7	16.1	0.00e+00	0	41	0	2791309312	11	4178
2026-01-30 14:13:39.44	316.47	13.23	-25.5	-26.9	16.1	0.00e+00	0	41	0	2797600768	11	4208
2026-01-30 14:13:40.45	316.62	13.16	-25.5	-27.0	16.0	0.00e+00	0	41	0	2802843648	11	4237
2026-01-30 14:13:41.46	316.77	13.10	-25.4	-26.7	16.2	0.00e+00	0	41	0	2809135104	11	4164
2026-01-30 14:13:42.47	316.92	13.03	-25.4	-26.7	16.1	0.00e+00	0	41	0	2814377984	11	4178
2026-01-30 14:13:43.48	317.07	12.97	-25.5	-26.9	16.0	0.00e+00	0	41	0	2820669440	11	4208
2026-01-30 14:13:44.50	317.21	12.90	-25.6	-27.0	15.9	0.00e+00	0	41	0	2825912320	11	4246
2026-01-30 14:13:45.51	317.36	12.83	-25.6	-27.1	15.9	0.00e+00	0	41	0	2831155200	11	4267
2026-01-30 14:13:46.52	317.51	12.77	-25.4	-26.6	16.2	0.00e+00	0	41	0	2837446656	11	4138
2026-01-30 14:13:47.53	317.66	12.70	-25.3	-26.4	16.3	0.00e+00	0	41	0	2842689536	11	4088
2026-01-30 14:13:48.54	317.80	12.63	-25.3	-26.4	16.2	0.00e+00	0	41	0	2848980992	11	4097
2026-01-30 14:13:49.55	317.95	12.57	-25.3	-26.5	16.2	1.10e-06	0	41	0	2854223872	11	4108
2026-01-30 14:13:50.56	318.09	12.50	-25.4	-26.6	16.1	0.00e+00	0	41	0	2859466752	11	4141
2026-01-30 14:13:51.57	318.23	12.44	-25.4	-26.6	16.1	0.00e+00	0	41	0	2865758208	11	4137
2026-01-30 14:13:52.58	318.38	12.37	-25.5	-26.8	16.0	0.00e+00	0	41	0	2871001088	11	4200
2026-01-30 14:13:53.59	318.52	12.30	-25.6	-27.0	16.0	0.00e+00	0	41	0	2877292544	11	4239
2026-01-30 14:13:54.61	318.66	12.24	-25.6	-27.1	15.9	0.00e+00	0	41	0	2882535424	11	4270
2026-01-30 14:13:55.62	318.80	12.17	-25.7	-27.3	15.8	0.00e+00	0	41	0	2887778304	11	4322
2026-01-30 14:13:56.63	318.94	12.11	-25.7	-27.3	15.7	0.00e+00	0	41	0	2894069760	11	4339
2026-01-30 14:13:57.64	319.08	12.04	-25.8	-27.5	15.7	0.00e+00	0	41	0	2899312640	11	4372
2026-01-30 14:13:58.65	319.22	11.97	-25.8	-27.4	15.7	0.00e+00	0	41	0	2905604096	11	4370
2026-01-30 14:13:59.66	319.36	11.91	-25.8	-27.6	15.6	0.00e+00	0	41	0	2910846976	11	4415
2026-01-30 14:14:00.67	319.50	11.84	-25.8	-27.5	15.6	1.10e-06	0	41	0	2916089856	11	4385
2026-01-30 14:14:01.68	319.64	11.78	-25.7	-27.3	15.7	0.00e+00	0	41	0	2922381312	11	4321
2026-01-30 14:14:02.69	319.77	11.71	-25.6	-27.2	15.8	0.00e+00	0	41	0	2927624192	11	4292
2026-01-30 14:14:03.70	319.91	11.64	-25.6	-27.1	15.8	0.00e+00	0	41	0	2933915648	11	4274
2026-01-30 14:14:04.72	320.05	11.58	-25.6	-27.1	15.8	0.00e+00	0	41	0	2939158528	11	4274
2026-01-30 14:14:05.73	320.18	11.51	-25.6	-27.0	15.9	0.00e+00	0	41	0	2945449984	11	4240
2026-01-30 14:14:06.74	320.32	11.45	-25.6	-27.0	15.9	0.00e+00	0	41	0	2950692864	11	4245
2026-01-30 14:14:07.75	320.45	11.38	-25.6	-27.1	15.9	0.00e+00	0	41	0	2956984320	11	4259
2026-01-30 14:14:08.76	320.59	11.32	-25.7	-27.3	15.7	0.00e+00	0	41	0	2962227200	11	4319
2026-01-30 14:14:09.77	320.72	11.25	-25.8	-27.5	15.6	0.00e+00	0	41	0	2967470080	11	4377
2026-01-30 14:14:10.78	320.85	11.19	-25.8	-27.6	15.5	0.00e+00	0	41	0	2973761536	11	4401
2026-01-30 14:14:11.79	320.98	11.12	-25.9	-27.8	15.4	0.00e+00	0	41	0	2979004416	11	4464
2026-01-30 14:14:12.80	321.11	11.05	-26.0	-27.9	15.3	0.00e+00	0	41	0	2985295872	11	4500
2026-01-30 14:14:13.81	321.24	10.99	-26.0	-27.4	15.3	0.00e+00	0	41	0	2990538752	12	4253
2026-01-30 14:14:14.82	321.37	10.92	-26.0	-27.6	15.1	1.10e-06	0	41	0	2995781632	12	4315
2026-01-30 14:14:15.84	321.51	10.86	-26.1	-27.7	15.1	0.00e+00	0	41	0	3002073088	12	4323
2026-01-30 14:14:16.84	321.63	10.79	-26.1	-27.7	15.1	1.10e-06	0	41	0	3007315968	12	4333
2026-01-30 14:14:17.86	321.76	10.73	-26.1	-27.7	15.0	0.00e+00	0	41	0	3013607424	12	4344
2026-01-30 14:14:18.87	321.89	10.66	-26.3	-28.1	14.8	1.10e-06	0	41	0	3018850304	12	4459
2026-01-30 14:14:19.88	322.02	10.60	-26.2	-27.9	15.0	0.00e+00	0	41	0	3025141760	12	4384
2026-01-30 14:14:20.89	322.14	10.53	-26.0	-27.6	15.1	1.10e-06	0	41	0	3030384640	12	4306
2026-01-30 14:14:21.90	322.27	10.47	-26.1	-27.6	15.1	0.00e+00	0	41	0	3035627520	12	4313
2026-01-30 14:14:22.91	322.40	10.40	-26.1	-27.6	15.1	0.00e+00	0	41	0	3041918976	12	4317
2026-01-30 14:14:23.92	322.52	10.34	-26.0	-27.5	15.1	0.00e+00	0	41	0	3047161856	12	4289
2026-01-30 14:14:24.93	322.65	10.27	-26.1	-27.7	15.1	0.00e+00	0	41	0	3053453312	12	4323
2026-01-30 14:14:25.94	322.77	10.21	-26.1	-27.7	15.1	0.00e+00	0	41	0	3058696192	12	4329
2026-01-30 14:14:26.95	322.89	10.14	-26.2	-27.9	15.0	0.00e+00	0	41	0	3064987648	12	4381
2026-01-30 14:14:27.96	323.02	10.08	-26.4	-28.4	14.6	1.10e-06	0	41	0	3070230528	12	4534
2026-01-30 14:14:28.98	323.14	10.01	-26.2	-28.1	14.8	1.10e-06	0	41	0	3076521984	12	4452
2026-01-30 14:14:29.99	323.26	9.95	-26.1	-27.9	15.0	0.00e+00	0	41	0	3081764864	12	4381
2026-01-30 14:14:31.00	323.38	9.89	-26.2	-28.0	14.9	0.00e+00	0	41	0	3087007744	12	4421
2026-01-30 14:14:32.01	323.51	9.82	-26.2	-28.0	14.9	0.00e+00	0	41	0	3093299200	12	4412
2026-01-30 14:14:33.02	323.63	9.76	-26.2	-28.0	14.8	0.00e+00	0	41	0	3098542080	12	4429
2026-01-30 14:14:34.03	323.75	9.69	-26.2	-27.9	14.9	1.10e-06	0	41	0	3104833536	12	4390
2026-01-30 14:14:35.04	323.86	9.63	-26.2	-27.9	14.9	0.00e+00	0	41	0	3110076416	12	4400
2026-01-30 14:14:36.05	323.98	9.56	-26.3	-28.2	14.8	2.20e-06	0	41	0	3115319296	12	4469
2026-01-30 14:14:37.06	324.10	9.50	-26.2	-27.9	14.9	0.00e+00	0	41	0	3121610752	12	4404
2026-01-30 14:14:38.08	324.22	9.44	-26.2	-27.9	14.9	0.00e+00	0	41	0	3126853632	12	4397
2026-01-30 14:14:39.09	324.34	9.37	-26.2	-28.0	14.8	0.00e+00	0	41	0	3133145088	12	4402
2026-01-30 14:14:40.10	324.46	9.31	-26.1	-27.8	14.9	0.00e+00	0	41	0	3138387968	12	4363
2026-01-30 14:14:41.11	324.57	9.24	-26.2	-28.0	14.8	0.00e+00	0	41	0	3143630848	12	4431
2026-01-30 14:14:42.12	324.69	9.18	-26.1	-27.8	14.9	0.00e+00	0	41	0	3149922304	12	4352
2026-01-30 14:14:43.13	324.80	9.12	-26.1	-27.8	14.9	0.00e+00	0	41	0	3155165184	12	4357
2026-01-30 14:14:44.14	324.92	9.05	-26.1	-27.7	14.9	0.00e+00	0	41	0	3161456640	12	4342
2026-01-30 14:14:45.15	325.03	8.99	-26.2	-27.9	14.8	0.00e+00	0	41	0	3166699520	12	4381
2026-01-30 14:14:46.16	325.15	8.93	-26.4	-28.4	14.5	1.10e-06	0	41	0	3172990976	12	4535
2026-01-30 14:14:47.17	325.26	8.86	-26.6	-28.3	14.3	2.20e-06	0	41	0	3178233856	13	4376
2026-01-30 14:14:48.18	325.37	8.80	-26.4	-28.0	14.5	2.20e-06	0	41	0	3184525312	13	4315
2026-01-30 14:14:49.19	325.49	8.74	-26.5	-28.1	14.4	3.40e-06	0	41	0	3189768192	13	4332
2026-01-30 14:14:50.20	325.60	8.67	-26.6	-28.3	14.3	1.10e-06	0	41	0	3195011072	13	4398
2026-01-30 14:14:51.22	325.71	8.61	-26.7	-28.5	14.1	1.10e-06	0	41	0	3201302528	13	4466
2026-01-30 14:14:52.23	325.82	8.55	-26.7	-28.6	14.1	3.40e-06	0	41	0	3206545408	13	4481
2026-01-30 14:14:53.24	325.93	8.48	-26.6	-28.3	14.2	5.70e-06	0	41	0	3212836864	13	4397
2026-01-30 14:14:54.25	326.04	8.42	-26.5	-28.2	14.4	1.10e-06	0	41	0	3218079744	13	4358
2026-01-30 14:14:55.26	326.15	8.36	-26.5	-28.2	14.3	3.40e-06	0	41	0	3223322624	13	4375
2026-01-30 14:14:56.27	326.26	8.29	-26.6	-28.4	14.2	1.10e-06	0	41	0	3229614080	13	4440
2026-01-30 14:14:57.28	326.37	8.23	-26.7	-28.5	14.1	9.10e-06	0	41	0	3234856960	13	4476
2026-01-30 14:14:58.29	326.48	8.17	-26.5	-28.2	14.3	0.00e+00	0	41	0	3241148416	13	4389
2026-01-30 14:14:59.30	326.59	8.11	-26.5	-28.2	14.3	0.00e+00	0	41	0	3246391296	13	4369
2026-01-30 14:15:00.31	326.70	8.04	-26.5	-28.3	14.3	3.40e-06	0	41	0	3251634176	13	4389
2026-01-30 14:15:01.33	326.80	7.98	-26.4	-28.0	14.4	1.10e-06	0	41	0	3257925632	13	4315
2026-01-30 14:15:02.33	326.91	7.92	-26.5	-28.1	14.3	0.00e+00	0	41	0	3263168512	13	4344
2026-01-30 14:15:03.35	327.02	7.86	-26.5	-28.3	14.2	3.40e-06	0	41	0	3269459968	13	4391
2026-01-30 14:15:04.36	327.12	7.79	-26.4	-27.9	14.4	0.00e+00	0	41	0	3274702848	13	4282
2026-01-30 14:15:05.37	327.23	7.73	-26.3	-27.8	14.5	2.20e-06	0	41	0	3280994304	13	4252
2026-01-30 14:15:06.38	327.33	7.67	-26.4	-27.9	14.4	1.10e-06	0	41	0	3286237184	13	4296
2026-01-30 14:15:07.39	327.44	7.61	-26.5	-28.1	14.3	2.20e-06	0	41	0	3292528640	13	4354
2026-01-30 14:15:08.40	327.54	7.55	-26.6	-28.3	14.2	2.20e-06	0	41	0	3297771520	13	4401
2026-01-30 14:15:09.41	327.65	7.48	-26.5	-28.2	14.2	0.00e+00	0	41	0	3303014400	13	4363
2026-01-30 14:15:10.42	327.75	7.42	-26.6	-28.4	14.1	5.70e-06	0	41	0	3309305856	13	4429
2026-01-30 14:15:11.43	327.85	7.36	-26.7	-28.6	13.9	9.10e-06	0	41	0	3314548736	13	4480
2026-01-30 14:15:12.44	327.95	7.30	-26.7	-28.6	13.9	5.70e-06	0	41	0	3320840192	13	4484
2026-01-30 14:15:13.45	328.06	7.24	-26.7	-28.7	13.9	5.70e-06	0	41	0	3326083072	13	4521
2026-01-30 14:15:14.46	328.16	7.18	-26.8	-28.8	13.8	9.10e-06	0	41	0	3331325952	13	4562
2026-01-30 14:15:15.48	328.26	7.11	-26.9	-29.1	13.7	1.37e-05	0	41	0	3337617408	13	4632
2026-01-30 14:15:16.48	328.36	7.05	-32.2	-40.4	4.4	1.71e-05	0	41	0	3342860288	24	9254
2026-01-30 14:15:17.50	328.46	6.99	-33.0	-44.5	3.8	8.46e-01	0	41	104	3342860288	25	13577

#Closed at: 2026-01-30 14:15:17
#Recorded file [3342 MB]: D:/data/31010_260130_170521.dat