passes_logs/2026/01/30/R2M6_AANII_01/R2M6_AANII_01__20260130_104425_FENGYUN_3D_rec.log

#Pass ID: 20260130_104425_FENGYUN 3D
#Satellite: FENGYUN 3D
#Configuration: FENGYUN 3D
#almurnet v.1.7.20240730
#Start time: 2026-01-30 10:44:26

#Version: 2.2.20231116
#Station: R2M6_AANII_01
#Location: 30.233357 lon 59.946436 lat
#TLE: 1 43010U 17072A   26029.52179110  .00000394  00000+0  20818-3 0  9997
#TLE: 2 43010  98.9957   1.5649 0002507  83.7772 276.3689 14.19703315425310

#Time	Az	El	Level	Level2	SNR	BER	BlckErr	Temp	State	Recorded	gain1	gain2
2026-01-30 10:44:26.18	109.03	7.05	-29.5	-32.2	5.3	7.83e-01	0	40	0	0	20	4921
2026-01-30 10:44:27.19	108.95	7.12	-29.4	-32.0	5.4	7.82e-01	0	40	104	0	20	4823
2026-01-30 10:44:28.20	108.87	7.19	-29.4	-31.8	10.0	9.47e-03	0	40	0	0	20	4778
2026-01-30 10:44:29.20	108.79	7.25	-29.4	-31.8	10.0	1.24e-02	0	40	0	5242880	20	4757
2026-01-30 10:44:30.21	108.71	7.32	-29.4	-31.9	10.1	8.67e-03	0	40	0	10485760	20	4802
2026-01-30 10:44:31.22	108.63	7.39	-29.6	-32.3	9.8	1.02e-02	0	40	0	16777216	20	4938
2026-01-30 10:44:32.23	108.55	7.46	-29.6	-32.3	9.8	1.25e-02	0	40	0	22020096	20	4945
2026-01-30 10:44:33.23	108.46	7.53	-29.8	-32.9	9.3	2.45e-02	0	40	0	28311552	20	5158
2026-01-30 10:44:34.24	108.38	7.60	-29.3	-32.1	10.4	1.05e-02	0	40	0	33554432	19	4929
2026-01-30 10:44:35.25	108.30	7.67	-28.8	-30.8	11.2	2.87e-03	0	40	0	39845888	19	4501
2026-01-30 10:44:36.25	108.21	7.74	-28.3	-29.9	12.1	6.88e-04	0	40	0	45088768	18	4314
2026-01-30 10:44:37.26	108.13	7.81	-28.0	-29.7	12.6	2.04e-04	0	40	0	50331648	17	4378
2026-01-30 10:44:38.26	108.05	7.88	-27.7	-29.5	13.0	1.02e-04	0	40	0	56623104	16	4414
2026-01-30 10:44:39.27	107.96	7.95	-27.1	-28.6	13.7	1.60e-05	0	40	0	61865984	15	4273
2026-01-30 10:44:40.27	107.88	8.02	-26.9	-28.2	13.9	6.80e-06	0	40	0	67108864	15	4154
2026-01-30 10:44:41.27	107.79	8.09	-26.8	-28.3	14.2	3.40e-06	0	40	0	73400320	14	4305
2026-01-30 10:44:42.28	107.71	8.16	-26.9	-28.5	14.1	2.20e-06	0	41	0	78643200	14	4346
2026-01-30 10:44:43.28	107.62	8.23	-26.8	-28.3	14.2	3.40e-06	0	41	0	84934656	14	4291
2026-01-30 10:44:44.28	107.53	8.30	-26.8	-28.4	14.1	2.20e-06	0	41	0	90177536	14	4324
2026-01-30 10:44:45.29	107.45	8.37	-26.9	-28.7	14.0	1.02e-05	0	40	0	96468992	14	4399
2026-01-30 10:44:46.29	107.36	8.44	-26.9	-28.5	14.1	0.00e+00	0	41	0	101711872	14	4354
2026-01-30 10:44:47.29	107.27	8.51	-26.8	-28.4	14.1	4.50e-06	0	41	0	106954752	14	4333
2026-01-30 10:44:48.29	107.18	8.58	-26.7	-28.2	14.3	1.10e-06	0	41	0	113246208	14	4254
2026-01-30 10:44:49.30	107.09	8.65	-26.9	-28.5	14.1	3.40e-06	0	41	0	118489088	14	4366
2026-01-30 10:44:50.30	107.00	8.72	-26.9	-28.6	14.0	2.20e-06	0	41	0	123731968	14	4379
2026-01-30 10:44:51.30	106.91	8.79	-26.9	-28.7	14.0	2.20e-06	0	41	0	130023424	14	4416
2026-01-30 10:44:52.30	106.83	8.86	-26.9	-28.6	14.0	6.80e-06	0	41	0	135266304	14	4380
2026-01-30 10:44:53.30	106.73	8.93	-26.7	-28.2	14.3	3.40e-06	0	41	0	140509184	14	4263
2026-01-30 10:44:54.30	106.64	9.01	-26.8	-28.4	14.2	1.10e-06	0	41	0	146800640	14	4324
2026-01-30 10:44:55.31	106.55	9.08	-27.0	-28.8	14.0	2.20e-06	0	41	0	152043520	14	4430
2026-01-30 10:44:56.31	106.46	9.15	-26.9	-28.5	14.2	8.00e-06	0	41	0	158334976	14	4345
2026-01-30 10:44:57.31	106.37	9.22	-26.8	-28.3	14.2	3.40e-06	0	41	0	163577856	14	4296
2026-01-30 10:44:58.32	106.27	9.29	-26.7	-28.2	14.3	1.10e-06	0	41	0	168820736	14	4267
2026-01-30 10:44:59.33	106.18	9.37	-26.9	-28.6	14.1	1.10e-06	0	41	0	175112192	14	4362
2026-01-30 10:45:00.33	106.09	9.44	-26.7	-28.1	14.4	0.00e+00	0	41	0	180355072	14	4242
2026-01-30 10:45:01.33	105.99	9.51	-26.5	-27.7	14.7	1.10e-06	0	41	0	186646528	14	4122
2026-01-30 10:45:02.34	105.90	9.58	-26.5	-27.7	14.6	1.10e-06	0	41	0	191889408	14	4140
2026-01-30 10:45:03.35	105.80	9.66	-26.5	-27.7	14.6	0.00e+00	0	41	0	197132288	14	4131
2026-01-30 10:45:04.35	105.71	9.73	-26.6	-27.9	14.5	0.00e+00	0	41	0	203423744	14	4187
2026-01-30 10:45:05.36	105.61	9.80	-26.6	-27.9	14.5	0.00e+00	0	41	0	208666624	14	4180
2026-01-30 10:45:06.37	105.51	9.88	-26.4	-27.5	14.8	0.00e+00	0	41	0	213909504	14	4063
2026-01-30 10:45:07.37	105.41	9.95	-26.4	-27.4	14.9	0.00e+00	0	41	0	220200960	14	4036
2026-01-30 10:45:08.37	105.32	10.02	-26.4	-27.3	14.9	0.00e+00	0	41	0	225443840	14	4026
2026-01-30 10:45:09.38	105.22	10.10	-26.4	-27.4	14.8	0.00e+00	0	41	0	231735296	14	4051
2026-01-30 10:45:10.39	105.12	10.17	-26.4	-27.4	14.8	1.10e-06	0	41	0	236978176	14	4043
2026-01-30 10:45:11.39	105.02	10.25	-26.4	-27.4	14.8	0.00e+00	0	41	0	243269632	14	4042
2026-01-30 10:45:12.39	104.92	10.32	-26.4	-27.5	14.8	0.00e+00	0	41	0	248512512	14	4070
2026-01-30 10:45:13.39	104.82	10.39	-26.3	-27.3	14.9	2.20e-06	0	41	0	253755392	14	4015
2026-01-30 10:45:14.40	104.72	10.47	-26.2	-27.6	15.0	0.00e+00	0	41	0	260046848	13	4200
2026-01-30 10:45:15.40	104.62	10.54	-26.3	-27.7	15.0	1.10e-06	0	41	0	265289728	13	4228
2026-01-30 10:45:16.40	104.52	10.62	-26.3	-27.6	15.0	0.00e+00	0	41	0	270532608	13	4212
2026-01-30 10:45:17.41	104.41	10.69	-26.3	-27.7	15.0	0.00e+00	0	41	0	276824064	13	4233
2026-01-30 10:45:18.41	104.31	10.77	-26.3	-27.8	14.9	0.00e+00	0	41	0	282066944	13	4255
2026-01-30 10:45:19.42	104.21	10.84	-26.2	-27.5	15.1	0.00e+00	0	42	0	287309824	13	4173
2026-01-30 10:45:20.43	104.10	10.92	-26.2	-27.5	15.1	0.00e+00	0	41	0	293601280	13	4187
2026-01-30 10:45:21.44	104.00	11.00	-26.2	-27.6	15.0	1.10e-06	0	41	0	298844160	13	4201
2026-01-30 10:45:22.44	103.89	11.07	-26.3	-27.6	15.0	0.00e+00	0	41	0	305135616	13	4208
2026-01-30 10:45:23.45	103.78	11.15	-26.2	-27.5	15.1	0.00e+00	0	41	0	310378496	13	4178
2026-01-30 10:45:24.45	103.68	11.22	-26.2	-27.6	15.0	0.00e+00	0	42	0	316669952	13	4197
2026-01-30 10:45:25.45	103.57	11.30	-26.3	-27.6	15.0	0.00e+00	0	42	0	321912832	13	4220
2026-01-30 10:45:26.45	103.46	11.37	-26.3	-27.8	14.9	0.00e+00	0	41	0	327155712	13	4262
2026-01-30 10:45:27.46	103.36	11.45	-26.2	-27.6	15.1	0.00e+00	0	42	0	333447168	13	4201
2026-01-30 10:45:28.46	103.25	11.53	-26.2	-27.5	15.1	1.10e-06	0	42	0	338690048	13	4176
2026-01-30 10:45:29.47	103.14	11.60	-26.2	-27.6	15.1	0.00e+00	0	42	0	343932928	13	4193
2026-01-30 10:45:30.47	103.03	11.68	-26.2	-27.4	15.2	0.00e+00	0	41	0	350224384	13	4145
2026-01-30 10:45:31.47	102.92	11.76	-26.2	-27.4	15.2	0.00e+00	0	41	0	355467264	13	4155
2026-01-30 10:45:32.47	102.81	11.83	-26.1	-27.3	15.3	0.00e+00	0	42	0	360710144	13	4124
2026-01-30 10:45:33.48	102.70	11.91	-26.1	-27.2	15.3	0.00e+00	0	42	0	367001600	13	4094
2026-01-30 10:45:34.48	102.58	11.99	-26.0	-27.1	15.4	0.00e+00	0	42	0	372244480	13	4067
2026-01-30 10:45:35.49	102.47	12.06	-26.0	-27.1	15.4	0.00e+00	0	41	0	378535936	13	4071
2026-01-30 10:45:36.49	102.36	12.14	-26.1	-27.2	15.3	0.00e+00	0	42	0	383778816	13	4099
2026-01-30 10:45:37.49	102.24	12.22	-26.1	-27.3	15.3	0.00e+00	0	42	0	390070272	13	4111
2026-01-30 10:45:38.50	102.13	12.30	-26.0	-27.1	15.4	0.00e+00	0	42	0	395313152	13	4068
2026-01-30 10:45:39.51	102.01	12.38	-26.1	-27.2	15.3	0.00e+00	0	42	0	400556032	13	4101
2026-01-30 10:45:40.51	101.90	12.45	-26.1	-27.2	15.3	0.00e+00	0	42	0	406847488	13	4099
2026-01-30 10:45:41.51	101.78	12.53	-26.1	-27.2	15.3	0.00e+00	0	42	0	412090368	13	4103
2026-01-30 10:45:42.51	101.66	12.61	-26.1	-27.3	15.3	0.00e+00	0	42	0	417333248	13	4113
2026-01-30 10:45:43.52	101.55	12.69	-26.2	-27.4	15.2	0.00e+00	0	42	0	423624704	13	4142
2026-01-30 10:45:44.51	101.43	12.77	-26.0	-27.0	15.4	0.00e+00	0	42	0	428867584	13	4052
2026-01-30 10:45:45.52	101.31	12.84	-25.8	-26.7	15.7	0.00e+00	0	42	0	434110464	13	3955
2026-01-30 10:45:46.52	101.19	12.92	-25.9	-26.9	15.5	0.00e+00	0	42	0	440401920	13	4013
2026-01-30 10:45:47.52	101.07	13.00	-25.9	-26.7	15.6	0.00e+00	0	42	0	445644800	13	3973
2026-01-30 10:45:48.52	100.95	13.08	-25.8	-27.0	15.7	0.00e+00	0	42	0	451936256	12	4148
2026-01-30 10:45:49.53	100.83	13.16	-25.7	-26.9	15.8	0.00e+00	0	42	0	457179136	12	4120
2026-01-30 10:45:50.53	100.70	13.24	-25.6	-26.6	16.0	1.10e-06	0	42	0	463470592	12	4050
2026-01-30 10:45:51.54	100.58	13.32	-25.6	-26.6	15.9	0.00e+00	0	42	0	468713472	12	4054
2026-01-30 10:45:52.55	100.46	13.40	-25.5	-26.4	16.1	0.00e+00	0	42	0	473956352	12	4001
2026-01-30 10:45:53.55	100.33	13.48	-25.5	-26.4	16.1	0.00e+00	0	42	0	480247808	12	4005
2026-01-30 10:45:54.56	100.21	13.56	-25.5	-26.4	16.1	0.00e+00	0	42	0	485490688	12	4005
2026-01-30 10:45:55.56	100.08	13.64	-25.5	-26.4	16.1	0.00e+00	0	42	0	490733568	12	3996
2026-01-30 10:45:56.57	99.95	13.72	-25.4	-26.2	16.2	0.00e+00	0	42	0	497025024	12	3949
2026-01-30 10:45:57.58	99.83	13.80	-25.3	-26.1	16.3	0.00e+00	0	42	0	502267904	12	3914
2026-01-30 10:45:58.59	99.70	13.88	-25.5	-26.4	16.1	1.10e-06	0	42	0	508559360	12	3994
2026-01-30 10:45:59.59	99.57	13.96	-25.5	-26.5	16.1	0.00e+00	0	42	0	513802240	12	4009
2026-01-30 10:46:00.59	99.44	14.04	-25.4	-26.2	16.2	0.00e+00	0	42	0	519045120	12	3951
2026-01-30 10:46:01.60	99.31	14.12	-25.4	-26.3	16.2	0.00e+00	0	42	0	525336576	12	3970
2026-01-30 10:46:02.60	99.18	14.20	-25.4	-26.2	16.3	0.00e+00	0	42	0	530579456	12	3940
2026-01-30 10:46:03.61	99.05	14.28	-25.5	-26.4	16.2	0.00e+00	0	42	0	536870912	12	3996
2026-01-30 10:46:04.61	98.92	14.36	-25.4	-26.2	16.3	0.00e+00	0	42	0	542113792	12	3955
2026-01-30 10:46:05.62	98.78	14.45	-25.3	-26.0	16.4	0.00e+00	0	42	0	547356672	12	3900
2026-01-30 10:46:06.62	98.65	14.53	-25.3	-26.0	16.4	0.00e+00	0	42	0	553648128	12	3900
2026-01-30 10:46:07.62	98.52	14.61	-25.3	-26.0	16.4	0.00e+00	0	42	0	558891008	12	3906
2026-01-30 10:46:08.62	98.38	14.69	-25.3	-26.5	16.5	0.00e+00	0	42	0	565182464	11	4116
2026-01-30 10:46:09.63	98.24	14.77	-25.3	-26.5	16.5	0.00e+00	0	42	0	570425344	11	4132
2026-01-30 10:46:10.63	98.11	14.85	-25.4	-26.6	16.5	0.00e+00	0	42	0	575668224	11	4136
2026-01-30 10:46:11.63	97.97	14.93	-25.3	-26.4	16.6	0.00e+00	0	42	0	581959680	11	4096
2026-01-30 10:46:12.63	97.83	15.01	-25.3	-26.4	16.6	0.00e+00	0	42	0	587202560	11	4089
2026-01-30 10:46:13.63	97.69	15.10	-25.2	-26.2	16.7	0.00e+00	0	42	0	592445440	11	4049
2026-01-30 10:46:14.64	97.55	15.18	-25.2	-26.1	16.7	0.00e+00	0	42	0	598736896	11	4024
2026-01-30 10:46:15.64	97.41	15.26	-25.2	-26.1	16.7	0.00e+00	0	42	0	603979776	11	4026
2026-01-30 10:46:16.65	97.27	15.34	-25.1	-26.1	16.7	0.00e+00	0	42	0	610271232	11	4019
2026-01-30 10:46:17.65	97.13	15.43	-25.2	-26.2	16.7	0.00e+00	0	42	0	615514112	11	4033
2026-01-30 10:46:18.66	96.99	15.51	-25.1	-26.0	16.8	0.00e+00	0	42	0	620756992	11	4001
2026-01-30 10:46:19.66	96.84	15.59	-25.2	-26.2	16.7	0.00e+00	0	42	0	627048448	11	4034
2026-01-30 10:46:20.66	96.70	15.67	-25.2	-26.3	16.7	0.00e+00	0	42	0	632291328	11	4059
2026-01-30 10:46:21.67	96.55	15.76	-25.2	-26.3	16.7	0.00e+00	0	42	0	637534208	11	4053
2026-01-30 10:46:22.67	96.41	15.84	-25.3	-26.3	16.7	0.00e+00	0	42	0	643825664	11	4070
2026-01-30 10:46:23.67	96.26	15.92	-25.3	-26.5	16.6	0.00e+00	0	42	0	649068544	11	4121
2026-01-30 10:46:24.67	96.11	16.01	-25.3	-26.5	16.6	0.00e+00	0	42	0	654311424	11	4110
2026-01-30 10:46:25.68	95.96	16.09	-25.2	-26.2	16.8	0.00e+00	0	42	0	660602880	11	4040
2026-01-30 10:46:26.69	95.81	16.17	-25.2	-26.1	16.8	0.00e+00	0	42	0	665845760	11	4023
2026-01-30 10:46:27.70	95.66	16.26	-25.3	-26.5	16.6	0.00e+00	0	42	0	672137216	11	4114
2026-01-30 10:46:28.70	95.51	16.34	-25.2	-26.3	16.7	0.00e+00	0	42	0	677380096	11	4054
2026-01-30 10:46:29.71	95.36	16.42	-25.1	-26.1	16.9	0.00e+00	0	42	0	683671552	11	4007
2026-01-30 10:46:30.71	95.21	16.51	-25.0	-25.8	17.0	0.00e+00	0	42	0	688914432	11	3935
2026-01-30 10:46:31.72	95.05	16.59	-24.9	-25.6	17.1	0.00e+00	0	42	0	694157312	11	3883
2026-01-30 10:46:32.71	94.90	16.67	-24.9	-25.5	17.2	0.00e+00	0	42	0	700448768	11	3862
2026-01-30 10:46:33.72	94.74	16.76	-24.8	-25.4	17.2	0.00e+00	0	42	0	705691648	11	3842
2026-01-30 10:46:34.72	94.59	16.84	-24.8	-25.7	17.3	0.00e+00	0	42	0	710934528	10	4030
2026-01-30 10:46:35.72	94.43	16.92	-24.8	-25.8	17.3	0.00e+00	0	42	0	717225984	10	4033
2026-01-30 10:46:36.73	94.27	17.01	-24.8	-25.8	17.3	0.00e+00	0	42	0	722468864	10	4041
2026-01-30 10:46:37.73	94.11	17.09	-24.8	-25.9	17.3	0.00e+00	0	42	0	728760320	10	4072
2026-01-30 10:46:38.73	93.95	17.18	-24.8	-25.9	17.3	0.00e+00	0	42	0	734003200	10	4066
2026-01-30 10:46:39.73	93.79	17.26	-24.8	-25.9	17.2	0.00e+00	0	42	0	739246080	10	4080
2026-01-30 10:46:40.73	93.63	17.34	-25.0	-26.2	17.1	0.00e+00	0	42	0	745537536	10	4161
2026-01-30 10:46:41.73	93.47	17.43	-24.9	-26.2	17.1	0.00e+00	0	42	0	750780416	10	4140
2026-01-30 10:46:42.74	93.31	17.51	-24.8	-25.9	17.3	0.00e+00	0	42	0	757071872	10	4075
2026-01-30 10:46:43.75	93.14	17.60	-24.8	-25.9	17.3	0.00e+00	0	42	0	762314752	10	4081
2026-01-30 10:46:44.76	92.97	17.68	-24.7	-25.7	17.4	0.00e+00	0	42	0	767557632	10	4020
2026-01-30 10:46:45.77	92.81	17.77	-24.7	-25.6	17.4	0.00e+00	0	42	0	773849088	10	4001
2026-01-30 10:46:46.77	92.64	17.85	-24.7	-25.5	17.5	0.00e+00	0	42	0	779091968	10	3981
2026-01-30 10:46:47.77	92.47	17.94	-24.8	-25.7	17.4	1.10e-06	0	42	0	784334848	10	4028
2026-01-30 10:46:48.77	92.30	18.02	-24.7	-25.6	17.4	0.00e+00	0	42	0	790626304	10	3990
2026-01-30 10:46:49.77	92.13	18.11	-24.6	-25.4	17.6	0.00e+00	0	42	0	795869184	10	3955
2026-01-30 10:46:50.78	91.96	18.19	-24.7	-25.6	17.5	0.00e+00	0	42	0	802160640	10	3990
2026-01-30 10:46:51.78	91.79	18.27	-24.7	-25.7	17.4	0.00e+00	0	42	0	807403520	10	4008
2026-01-30 10:46:52.79	91.62	18.36	-24.8	-25.9	17.3	0.00e+00	0	42	0	812646400	10	4065
2026-01-30 10:46:53.79	91.44	18.44	-24.8	-25.9	17.3	0.00e+00	0	42	0	818937856	10	4059
2026-01-30 10:46:54.80	91.27	18.53	-24.9	-26.0	17.3	0.00e+00	0	42	0	824180736	10	4094
2026-01-30 10:46:55.80	91.09	18.61	-24.8	-25.9	17.3	0.00e+00	0	42	0	830472192	10	4066
2026-01-30 10:46:56.80	90.91	18.70	-24.7	-25.5	17.5	0.00e+00	0	42	0	835715072	10	3981
2026-01-30 10:46:57.81	90.74	18.78	-24.6	-25.5	17.6	0.00e+00	0	42	0	840957952	10	3962
2026-01-30 10:46:58.81	90.56	18.87	-24.6	-25.3	17.6	0.00e+00	0	42	0	847249408	10	3931
2026-01-30 10:46:59.81	90.38	18.95	-24.7	-25.5	17.6	0.00e+00	0	42	0	852492288	10	3974
2026-01-30 10:47:00.78	90.20	19.03	-24.6	-25.3	17.7	0.00e+00	0	42	0	857735168	10	3917
2026-01-30 10:47:01.79	90.02	19.12	-24.6	-25.3	17.7	0.00e+00	0	42	0	864026624	10	3923
2026-01-30 10:47:02.79	89.84	19.20	-24.5	-25.1	17.8	0.00e+00	0	42	0	869269504	10	3875
2026-01-30 10:47:03.79	89.65	19.29	-24.5	-25.2	17.7	0.00e+00	0	42	0	874512384	10	3894
2026-01-30 10:47:04.79	89.47	19.37	-24.5	-25.1	17.8	0.00e+00	0	42	0	880803840	10	3879
2026-01-30 10:47:05.80	89.28	19.46	-24.5	-25.1	17.8	0.00e+00	0	42	0	886046720	10	3883
2026-01-30 10:47:06.80	89.09	19.54	-24.6	-25.4	17.7	0.00e+00	0	42	0	892338176	10	3941
2026-01-30 10:47:07.80	88.91	19.63	-24.4	-25.0	17.9	0.00e+00	0	42	0	897581056	10	3845
2026-01-30 10:47:08.81	88.72	19.71	-24.3	-25.2	18.0	0.00e+00	0	42	0	902823936	9	3992
2026-01-30 10:47:09.81	88.53	19.80	-24.3	-25.2	18.0	0.00e+00	0	42	0	909115392	9	4012
2026-01-30 10:47:10.81	88.34	19.88	-24.4	-25.5	17.8	0.00e+00	0	42	0	914358272	9	4084
2026-01-30 10:47:11.82	88.14	19.96	-24.5	-25.6	17.8	0.00e+00	0	42	0	919601152	9	4116
2026-01-30 10:47:12.81	87.95	20.05	-24.5	-25.7	17.7	1.10e-06	0	42	0	925892608	9	4133
2026-01-30 10:47:13.82	87.76	20.13	-24.4	-25.5	17.9	0.00e+00	0	42	0	931135488	9	4076
2026-01-30 10:47:14.82	87.56	20.22	-24.4	-25.5	17.9	0.00e+00	0	42	0	936378368	9	4066
2026-01-30 10:47:15.83	87.36	20.30	-24.3	-25.2	18.0	0.00e+00	0	42	0	942669824	9	4004
2026-01-30 10:47:16.84	87.16	20.38	-24.4	-25.4	17.9	0.00e+00	0	42	0	947912704	9	4064
2026-01-30 10:47:17.84	86.97	20.47	-24.2	-25.1	18.1	0.00e+00	0	42	0	954204160	9	3976
2026-01-30 10:47:18.84	86.77	20.55	-24.1	-24.9	18.2	0.00e+00	0	43	0	959447040	9	3926
2026-01-30 10:47:19.84	86.57	20.64	-24.2	-25.0	18.2	0.00e+00	0	42	0	965738496	9	3947
2026-01-30 10:47:20.84	86.36	20.72	-24.1	-24.8	18.2	0.00e+00	0	42	0	970981376	9	3908
2026-01-30 10:47:21.85	86.16	20.80	-24.1	-24.8	18.2	0.00e+00	0	42	0	976224256	9	3915
2026-01-30 10:47:22.84	85.96	20.89	-24.0	-24.6	18.4	0.00e+00	0	42	0	982515712	9	3861
2026-01-30 10:47:23.85	85.75	20.97	-23.9	-24.5	18.4	0.00e+00	0	42	0	987758592	9	3831
2026-01-30 10:47:24.85	85.54	21.05	-24.1	-24.8	18.3	0.00e+00	0	42	0	993001472	9	3912
2026-01-30 10:47:25.86	85.34	21.14	-24.1	-24.8	18.3	0.00e+00	0	42	0	999292928	9	3897
2026-01-30 10:47:26.85	85.13	21.22	-24.0	-24.7	18.3	0.00e+00	0	42	0	1004535808	9	3878
2026-01-30 10:47:27.85	84.92	21.30	-24.1	-24.8	18.3	0.00e+00	0	42	0	1009778688	9	3909
2026-01-30 10:47:28.85	84.71	21.38	-24.2	-24.9	18.2	0.00e+00	0	42	0	1016070144	9	3941
2026-01-30 10:47:29.86	84.50	21.47	-24.2	-25.0	18.2	0.00e+00	0	42	0	1021313024	9	3959
2026-01-30 10:47:30.86	84.28	21.55	-24.2	-24.9	18.2	0.00e+00	0	42	0	1027604480	9	3938
2026-01-30 10:47:31.87	84.07	21.63	-24.2	-25.1	18.1	0.00e+00	0	42	0	1032847360	9	3981
2026-01-30 10:47:32.87	83.85	21.71	-24.2	-25.1	18.1	0.00e+00	0	42	0	1038090240	9	3989
2026-01-30 10:47:33.88	83.63	21.79	-24.3	-25.2	18.1	0.00e+00	0	42	0	1044381696	9	4012
2026-01-30 10:47:34.88	83.42	21.88	-24.2	-25.0	18.2	0.00e+00	0	42	0	1049624576	9	3953
2026-01-30 10:47:35.89	83.20	21.96	-24.3	-25.3	18.0	0.00e+00	0	42	0	1055916032	9	4039
2026-01-30 10:47:36.89	82.98	22.04	-24.1	-24.9	18.3	0.00e+00	0	42	0	1061158912	9	3931
2026-01-30 10:47:37.90	82.75	22.12	-23.9	-24.4	18.5	0.00e+00	0	42	0	1066401792	9	3813
2026-01-30 10:47:38.90	82.53	22.20	-23.8	-24.1	18.7	0.00e+00	0	42	0	1072693248	9	3745
2026-01-30 10:47:39.91	82.31	22.28	-23.8	-24.7	18.6	0.00e+00	0	42	0	1077936128	8	3981
2026-01-30 10:47:40.91	82.08	22.36	-23.7	-24.6	18.7	0.00e+00	0	42	0	1084227584	8	3956
2026-01-30 10:47:41.91	81.86	22.44	-23.9	-24.8	18.6	0.00e+00	0	43	0	1089470464	8	4019
2026-01-30 10:47:42.92	81.63	22.52	-23.8	-24.7	18.6	0.00e+00	0	42	0	1094713344	8	3992
2026-01-30 10:47:43.92	81.40	22.60	-23.8	-24.7	18.6	0.00e+00	0	42	0	1101004800	8	4002
2026-01-30 10:47:44.92	81.17	22.68	-24.0	-25.1	18.4	0.00e+00	0	42	0	1106247680	8	4092
2026-01-30 10:47:45.92	80.94	22.76	-23.8	-24.7	18.6	0.00e+00	0	42	0	1112539136	8	3994
2026-01-30 10:47:46.93	80.71	22.84	-23.7	-24.5	18.7	0.00e+00	0	42	0	1117782016	8	3950
2026-01-30 10:47:47.93	80.47	22.92	-23.8	-24.7	18.7	0.00e+00	0	42	0	1123024896	8	3979
2026-01-30 10:47:48.93	80.24	23.00	-23.7	-24.6	18.7	0.00e+00	0	42	0	1129316352	8	3958
2026-01-30 10:47:49.94	80.00	23.08	-23.9	-24.8	18.6	0.00e+00	0	43	0	1134559232	8	4015
2026-01-30 10:47:50.95	79.76	23.15	-23.8	-24.8	18.6	0.00e+00	0	42	0	1139802112	8	4011
2026-01-30 10:47:51.95	79.53	23.23	-23.9	-25.0	18.5	1.10e-06	0	42	0	1146093568	8	4058
2026-01-30 10:47:52.96	79.29	23.31	-23.8	-24.7	18.6	0.00e+00	0	42	0	1151336448	8	3998
2026-01-30 10:47:53.96	79.05	23.39	-23.8	-24.7	18.6	0.00e+00	0	42	0	1157627904	8	3985
2026-01-30 10:47:54.97	78.80	23.46	-23.8	-24.6	18.7	0.00e+00	0	42	0	1162870784	8	3969
2026-01-30 10:47:55.97	78.56	23.54	-23.8	-24.7	18.7	0.00e+00	0	42	0	1168113664	8	3990
2026-01-30 10:47:56.97	78.32	23.62	-24.0	-25.2	18.4	0.00e+00	0	42	0	1174405120	8	4106
2026-01-30 10:47:57.98	78.07	23.69	-23.9	-24.9	18.6	0.00e+00	0	42	0	1179648000	8	4035
2026-01-30 10:47:58.98	77.82	23.77	-23.8	-24.6	18.7	0.00e+00	0	42	0	1185939456	8	3973
2026-01-30 10:47:59.98	77.58	23.84	-23.8	-24.6	18.7	0.00e+00	0	42	0	1191182336	8	3960
2026-01-30 10:48:00.99	77.33	23.92	-23.6	-24.2	18.9	0.00e+00	0	43	0	1196425216	8	3874
2026-01-30 10:48:01.98	77.08	23.99	-23.6	-24.3	18.9	0.00e+00	0	42	0	1202716672	8	3895
2026-01-30 10:48:02.98	76.83	24.06	-23.6	-24.2	18.9	0.00e+00	0	42	0	1207959552	8	3871
2026-01-30 10:48:03.99	76.58	24.14	-23.8	-24.6	18.8	0.00e+00	0	42	0	1213202432	8	3966
2026-01-30 10:48:04.99	76.32	24.21	-23.8	-24.8	18.6	0.00e+00	0	42	0	1219493888	8	4009
2026-01-30 10:48:06.00	76.07	24.28	-23.8	-24.7	18.7	0.00e+00	0	42	0	1224736768	8	3989
2026-01-30 10:48:07.00	75.81	24.36	-23.8	-24.6	18.8	0.00e+00	0	42	0	1231028224	8	3957
2026-01-30 10:48:08.01	75.55	24.43	-23.7	-24.5	18.8	0.00e+00	0	42	0	1236271104	8	3945
2026-01-30 10:48:09.01	75.30	24.50	-23.9	-24.8	18.7	0.00e+00	0	42	0	1241513984	8	4007
2026-01-30 10:48:10.02	75.03	24.57	-23.6	-24.3	18.9	0.00e+00	0	42	0	1247805440	8	3884
2026-01-30 10:48:11.03	74.77	24.64	-23.4	-23.9	19.1	0.00e+00	0	42	0	1253048320	8	3796
2026-01-30 10:48:12.03	74.51	24.71	-23.4	-23.8	19.2	0.00e+00	0	42	0	1259339776	8	3779
2026-01-30 10:48:13.03	74.25	24.78	-23.5	-24.1	19.0	0.00e+00	0	42	0	1264582656	8	3846
2026-01-30 10:48:14.03	73.99	24.85	-23.3	-23.6	19.3	0.00e+00	0	42	0	1269825536	8	3739
2026-01-30 10:48:15.04	73.72	24.92	-23.4	-23.9	19.1	0.00e+00	0	42	0	1276116992	8	3805
2026-01-30 10:48:16.04	73.45	24.99	-23.3	-23.7	19.2	0.00e+00	0	43	0	1281359872	8	3755
2026-01-30 10:48:17.05	73.18	25.05	-23.4	-23.9	19.1	0.00e+00	0	42	0	1286602752	8	3796
2026-01-30 10:48:18.06	72.91	25.12	-23.5	-24.0	19.1	0.00e+00	0	42	0	1292894208	8	3814
2026-01-30 10:48:19.06	72.64	25.19	-23.5	-24.1	19.0	0.00e+00	0	42	0	1298137088	8	3842
2026-01-30 10:48:20.06	72.37	25.25	-23.5	-24.1	19.0	0.00e+00	0	42	0	1304428544	8	3858
2026-01-30 10:48:21.06	72.10	25.32	-23.7	-24.6	18.8	0.00e+00	0	42	0	1309671424	8	3951
2026-01-30 10:48:22.07	71.83	25.38	-23.6	-24.2	19.0	0.00e+00	0	42	0	1314914304	8	3875
2026-01-30 10:48:23.07	71.55	25.45	-23.5	-24.1	19.0	0.00e+00	0	43	0	1321205760	8	3856
2026-01-30 10:48:24.07	71.28	25.51	-23.6	-24.2	19.0	0.00e+00	0	42	0	1326448640	8	3877
2026-01-30 10:48:25.08	71.00	25.57	-23.5	-24.0	19.1	0.00e+00	0	43	0	1332740096	8	3823
2026-01-30 10:48:26.08	70.72	25.64	-23.5	-24.1	19.0	0.00e+00	0	42	0	1337982976	8	3847
2026-01-30 10:48:27.08	70.45	25.70	-23.7	-24.4	18.9	0.00e+00	0	43	0	1343225856	8	3918
2026-01-30 10:48:28.09	70.16	25.76	-23.5	-24.0	19.1	0.00e+00	0	42	0	1349517312	8	3814
2026-01-30 10:48:29.09	69.88	25.82	-23.6	-24.3	18.9	0.00e+00	0	43	0	1354760192	8	3887
2026-01-30 10:48:30.09	69.60	25.88	-23.5	-24.0	19.1	0.00e+00	0	42	0	1360003072	8	3835
2026-01-30 10:48:31.09	69.32	25.94	-23.4	-23.9	19.1	0.00e+00	0	43	0	1366294528	8	3803
2026-01-30 10:48:32.10	69.03	26.00	-23.4	-23.9	19.2	0.00e+00	0	42	0	1371537408	8	3788
2026-01-30 10:48:33.10	68.75	26.06	-23.5	-24.1	19.1	0.00e+00	0	43	0	1377828864	8	3836
2026-01-30 10:48:34.09	68.47	26.11	-23.3	-24.0	19.5	0.00e+00	0	42	0	1383071744	7	3916
2026-01-30 10:48:35.10	68.18	26.17	-23.3	-24.1	19.5	0.00e+00	0	42	0	1388314624	7	3931
2026-01-30 10:48:36.10	67.89	26.23	-23.5	-24.4	19.3	0.00e+00	0	42	0	1394606080	7	4006
2026-01-30 10:48:37.10	67.60	26.28	-23.5	-24.4	19.4	0.00e+00	0	43	0	1399848960	7	3999
2026-01-30 10:48:38.11	67.31	26.34	-23.5	-24.4	19.3	0.00e+00	0	42	0	1405091840	7	4012
2026-01-30 10:48:39.11	67.02	26.39	-23.5	-24.4	19.3	0.00e+00	0	43	0	1411383296	7	4009
2026-01-30 10:48:40.11	66.73	26.45	-23.5	-24.4	19.3	0.00e+00	0	42	0	1416626176	7	4014
2026-01-30 10:48:41.11	66.43	26.50	-23.6	-24.6	19.2	0.00e+00	0	42	0	1421869056	7	4045
2026-01-30 10:48:42.11	66.14	26.55	-23.6	-24.7	19.2	0.00e+00	0	42	0	1428160512	7	4084
2026-01-30 10:48:43.12	65.84	26.60	-23.5	-24.5	19.3	0.00e+00	0	42	0	1433403392	7	4021
2026-01-30 10:48:44.12	65.55	26.65	-23.6	-24.7	19.2	0.00e+00	0	42	0	1439694848	7	4073
2026-01-30 10:48:45.12	65.25	26.70	-23.7	-24.9	19.1	0.00e+00	0	43	0	1444937728	7	4136
2026-01-30 10:48:46.13	64.95	26.75	-23.7	-24.8	19.1	0.00e+00	0	42	0	1451229184	7	4115
2026-01-30 10:48:47.13	64.65	26.80	-23.6	-24.8	19.2	0.00e+00	0	42	0	1456472064	7	4096
2026-01-30 10:48:48.13	64.36	26.85	-23.8	-25.1	19.0	0.00e+00	0	43	0	1461714944	7	4179
2026-01-30 10:48:49.14	64.05	26.89	-23.4	-24.3	19.4	0.00e+00	0	42	0	1468006400	7	3990
2026-01-30 10:48:50.14	63.75	26.94	-23.2	-23.8	19.6	0.00e+00	0	43	0	1473249280	7	3868
2026-01-30 10:48:51.14	63.45	26.98	-23.2	-23.7	19.7	0.00e+00	0	43	0	1478492160	7	3846
2026-01-30 10:48:52.14	63.15	27.03	-23.3	-24.0	19.6	0.00e+00	0	43	0	1484783616	7	3900
2026-01-30 10:48:53.14	62.84	27.07	-23.2	-23.9	19.6	0.00e+00	0	43	0	1490026496	7	3892
2026-01-30 10:48:54.15	62.54	27.11	-23.3	-24.1	19.5	0.00e+00	0	42	0	1495269376	7	3934
2026-01-30 10:48:55.15	62.23	27.16	-23.2	-23.7	19.7	0.00e+00	0	42	0	1501560832	7	3844
2026-01-30 10:48:56.16	61.92	27.20	-23.1	-23.6	19.7	0.00e+00	0	43	0	1506803712	7	3827
2026-01-30 10:48:57.16	61.62	27.24	-23.2	-23.7	19.7	0.00e+00	0	43	0	1513095168	7	3846
2026-01-30 10:48:58.17	61.31	27.28	-23.1	-23.6	19.7	0.00e+00	0	43	0	1518338048	7	3823
2026-01-30 10:48:59.18	61.00	27.31	-23.2	-23.8	19.7	0.00e+00	0	43	0	1524629504	7	3867
2026-01-30 10:49:00.18	60.69	27.35	-23.2	-23.8	19.7	0.00e+00	0	43	0	1529872384	7	3857
2026-01-30 10:49:01.18	60.38	27.39	-23.2	-23.8	19.7	0.00e+00	0	43	0	1535115264	7	3871
2026-01-30 10:49:02.18	60.07	27.42	-23.1	-23.7	19.7	0.00e+00	0	43	0	1541406720	7	3840
2026-01-30 10:49:03.19	59.75	27.46	-23.1	-23.7	19.7	0.00e+00	0	42	0	1546649600	7	3834
2026-01-30 10:49:04.19	59.44	27.49	-23.1	-23.6	19.8	0.00e+00	0	43	0	1551892480	7	3808
2026-01-30 10:49:05.19	59.13	27.53	-23.1	-23.7	19.7	0.00e+00	0	43	0	1558183936	7	3837
2026-01-30 10:49:06.20	58.81	27.56	-23.1	-23.6	19.8	0.00e+00	0	43	0	1563426816	7	3818
2026-01-30 10:49:07.21	58.50	27.59	-23.2	-23.7	19.7	0.00e+00	0	42	0	1568669696	7	3851
2026-01-30 10:49:08.22	58.18	27.62	-23.2	-23.9	19.7	0.00e+00	0	43	0	1574961152	7	3881
2026-01-30 10:49:09.22	57.87	27.65	-23.3	-24.0	19.6	0.00e+00	0	43	0	1580204032	7	3897
2026-01-30 10:49:10.23	57.55	27.68	-23.0	-23.5	19.8	0.00e+00	0	43	0	1586495488	7	3792
2026-01-30 10:49:11.22	57.24	27.70	-22.9	-23.1	20.0	0.00e+00	0	43	0	1591738368	7	3710
2026-01-30 10:49:12.22	56.92	27.73	-22.9	-23.2	19.9	0.00e+00	0	43	0	1596981248	7	3732
2026-01-30 10:49:13.22	56.60	27.76	-22.9	-23.1	20.0	0.00e+00	0	43	0	1603272704	7	3705
2026-01-30 10:49:14.23	56.28	27.78	-22.9	-23.2	20.0	0.00e+00	0	43	0	1608515584	7	3717
2026-01-30 10:49:15.23	55.96	27.80	-22.9	-23.1	20.0	0.00e+00	0	43	0	1614807040	7	3715
2026-01-30 10:49:16.23	55.65	27.83	-22.9	-23.1	20.1	0.00e+00	0	43	0	1620049920	7	3703
2026-01-30 10:49:17.24	55.32	27.85	-22.9	-23.1	20.0	0.00e+00	0	43	0	1625292800	7	3709
2026-01-30 10:49:18.24	55.01	27.87	-22.7	-23.2	20.2	0.00e+00	0	43	0	1631584256	6	3838
2026-01-30 10:49:19.24	54.69	27.89	-22.9	-23.6	20.0	0.00e+00	0	43	0	1636827136	6	3920
2026-01-30 10:49:20.24	54.37	27.91	-22.9	-23.7	20.0	0.00e+00	0	42	0	1642070016	6	3941
2026-01-30 10:49:21.24	54.05	27.93	-23.2	-24.3	19.7	0.00e+00	0	43	0	1648361472	6	4082
2026-01-30 10:49:22.24	53.73	27.94	-23.2	-24.3	19.7	0.00e+00	0	43	0	1653604352	6	4104
2026-01-30 10:49:23.24	53.40	27.96	-23.2	-24.2	19.7	0.00e+00	0	43	0	1659895808	6	4074
2026-01-30 10:49:24.24	53.08	27.97	-23.1	-24.2	19.8	0.00e+00	0	43	0	1665138688	6	4058
2026-01-30 10:49:25.25	52.76	27.99	-23.2	-24.3	19.7	0.00e+00	0	43	0	1670381568	6	4083
2026-01-30 10:49:26.26	52.43	28.00	-23.0	-24.0	19.9	0.00e+00	0	42	0	1676673024	6	4013
2026-01-30 10:49:27.26	52.11	28.01	-23.0	-24.0	19.8	0.00e+00	0	43	0	1681915904	6	4016
2026-01-30 10:49:28.27	51.79	28.02	-23.1	-24.2	19.8	0.00e+00	0	42	0	1687158784	6	4057
2026-01-30 10:49:29.27	51.46	28.03	-23.2	-24.3	19.7	0.00e+00	0	42	0	1693450240	6	4084
2026-01-30 10:49:30.28	51.14	28.04	-23.4	-24.7	19.5	0.00e+00	0	43	0	1698693120	6	4188
2026-01-30 10:49:31.28	50.82	28.05	-23.1	-24.2	19.7	0.00e+00	0	43	0	1704984576	6	4068
2026-01-30 10:49:32.28	50.49	28.06	-23.0	-24.0	19.8	0.00e+00	0	43	0	1710227456	6	4026
2026-01-30 10:49:33.29	50.17	28.06	-23.0	-24.0	19.9	0.00e+00	0	43	0	1715470336	6	4016
2026-01-30 10:49:34.29	49.84	28.07	-23.0	-23.9	19.9	0.00e+00	0	43	0	1721761792	6	3999
2026-01-30 10:49:35.29	49.52	28.07	-22.9	-23.7	20.0	0.00e+00	0	43	0	1727004672	6	3939
2026-01-30 10:49:36.30	49.19	28.07	-23.0	-23.9	19.9	0.00e+00	0	42	0	1733296128	6	3986
2026-01-30 10:49:37.30	48.87	28.07	-23.1	-24.1	19.8	0.00e+00	0	43	0	1738539008	6	4052
2026-01-30 10:49:38.30	48.55	28.07	-23.1	-24.1	19.8	0.00e+00	0	43	0	1743781888	6	4047
2026-01-30 10:49:39.31	48.22	28.07	-23.0	-24.0	19.9	0.00e+00	0	43	0	1750073344	6	4022
2026-01-30 10:49:40.31	47.90	28.07	-23.1	-24.1	19.8	0.00e+00	0	43	0	1755316224	6	4050
2026-01-30 10:49:41.31	47.58	28.07	-23.2	-24.4	19.7	0.00e+00	0	43	0	1760559104	6	4113
2026-01-30 10:49:42.32	47.25	28.07	-23.1	-24.2	19.8	0.00e+00	0	43	0	1766850560	6	4054
2026-01-30 10:49:43.33	46.92	28.06	-23.0	-24.0	19.9	0.00e+00	0	43	0	1772093440	6	4005
2026-01-30 10:49:44.33	46.60	28.06	-23.1	-24.0	19.8	0.00e+00	0	43	0	1778384896	6	4030
2026-01-30 10:49:45.33	46.28	28.05	-23.1	-24.2	19.8	0.00e+00	0	43	0	1783627776	6	4070
2026-01-30 10:49:46.33	45.96	28.04	-23.2	-24.3	19.7	0.00e+00	0	43	0	1788870656	6	4086
2026-01-30 10:49:47.33	45.63	28.03	-23.3	-24.6	19.6	0.00e+00	0	43	0	1795162112	6	4161
2026-01-30 10:49:48.34	45.31	28.02	-23.1	-24.1	19.8	0.00e+00	0	43	0	1800404992	6	4046
2026-01-30 10:49:49.35	44.98	28.01	-23.0	-23.9	19.9	0.00e+00	0	43	0	1806696448	6	3994
2026-01-30 10:49:50.35	44.66	28.00	-23.0	-24.0	19.9	0.00e+00	0	43	0	1811939328	6	4014
2026-01-30 10:49:51.35	44.34	27.99	-23.0	-24.0	19.9	0.00e+00	0	43	0	1817182208	6	4021
2026-01-30 10:49:52.36	44.01	27.98	-23.0	-23.9	19.9	0.00e+00	0	42	0	1823473664	6	3987
2026-01-30 10:49:53.37	43.69	27.96	-23.0	-23.9	19.9	0.00e+00	0	43	0	1828716544	6	4004
2026-01-30 10:49:54.38	43.37	27.95	-23.1	-24.2	19.8	0.00e+00	0	43	0	1835008000	6	4071
2026-01-30 10:49:55.37	43.05	27.93	-23.1	-24.1	19.8	0.00e+00	0	43	0	1840250880	6	4047
2026-01-30 10:49:56.38	42.73	27.91	-23.2	-24.2	19.7	0.00e+00	0	43	0	1845493760	6	4076
2026-01-30 10:49:57.37	42.41	27.89	-23.2	-24.2	19.7	0.00e+00	0	43	0	1850736640	6	4074
2026-01-30 10:49:58.38	42.09	27.87	-23.0	-23.9	19.9	0.00e+00	0	43	0	1857028096	6	3993
2026-01-30 10:49:59.38	41.77	27.85	-23.1	-24.0	19.8	0.00e+00	0	43	0	1862270976	6	4023
2026-01-30 10:50:00.38	41.45	27.83	-23.1	-24.1	19.8	0.00e+00	0	43	0	1868562432	6	4040
2026-01-30 10:50:01.38	41.13	27.81	-22.9	-23.8	20.0	0.00e+00	0	43	0	1873805312	6	3957
2026-01-30 10:50:02.39	40.81	27.79	-22.9	-23.7	20.0	0.00e+00	0	43	0	1880096768	6	3937
2026-01-30 10:50:03.39	40.49	27.76	-22.9	-23.8	20.0	0.00e+00	0	43	0	1885339648	6	3969
2026-01-30 10:50:04.40	40.17	27.74	-22.9	-23.8	20.0	0.00e+00	0	43	0	1890582528	6	3971
2026-01-30 10:50:05.40	39.86	27.71	-22.9	-23.7	20.0	0.00e+00	0	42	0	1896873984	6	3942
2026-01-30 10:50:06.41	39.54	27.68	-22.8	-23.4	20.1	0.00e+00	0	43	0	1902116864	6	3876
2026-01-30 10:50:07.42	39.22	27.65	-22.8	-23.5	20.1	0.00e+00	0	43	0	1907359744	6	3900
2026-01-30 10:50:08.42	38.91	27.62	-22.9	-23.7	20.0	0.00e+00	0	43	0	1913651200	6	3940
2026-01-30 10:50:09.43	38.59	27.59	-22.9	-23.8	20.0	0.00e+00	0	43	0	1918894080	6	3963
2026-01-30 10:50:10.44	38.27	27.56	-23.0	-23.8	20.0	0.00e+00	0	43	0	1925185536	6	3972
2026-01-30 10:50:11.44	37.96	27.53	-23.0	-23.9	19.9	0.00e+00	0	43	0	1930428416	6	3995
2026-01-30 10:50:12.44	37.65	27.50	-23.0	-24.0	19.9	0.00e+00	0	43	0	1935671296	6	4004
2026-01-30 10:50:13.44	37.34	27.47	-22.9	-23.8	20.0	0.00e+00	0	43	0	1941962752	6	3963
2026-01-30 10:50:14.44	37.03	27.43	-22.9	-23.8	20.0	0.00e+00	0	43	0	1947205632	6	3966
2026-01-30 10:50:15.44	36.72	27.40	-22.9	-23.7	20.0	0.00e+00	0	43	0	1953497088	6	3949
2026-01-30 10:50:16.45	36.41	27.36	-22.8	-23.4	20.1	0.00e+00	0	43	0	1958739968	6	3883
2026-01-30 10:50:17.44	36.10	27.32	-22.8	-23.4	20.1	0.00e+00	0	43	0	1963982848	6	3883
2026-01-30 10:50:18.44	35.79	27.28	-22.8	-23.5	20.1	0.00e+00	0	43	0	1970274304	6	3896
2026-01-30 10:50:19.44	35.49	27.25	-22.7	-23.3	20.2	0.00e+00	0	43	0	1975517184	6	3862
2026-01-30 10:50:20.44	35.18	27.21	-22.8	-23.4	20.1	0.00e+00	0	43	0	1980760064	6	3886
2026-01-30 10:50:21.45	34.87	27.16	-22.7	-23.4	20.2	0.00e+00	0	43	0	1987051520	6	3871
2026-01-30 10:50:22.45	34.57	27.12	-22.9	-23.6	20.0	0.00e+00	0	43	0	1992294400	6	3921
2026-01-30 10:50:23.46	34.26	27.08	-22.9	-23.7	20.0	0.00e+00	0	42	0	1997537280	6	3946
2026-01-30 10:50:24.46	33.96	27.04	-22.8	-23.6	20.0	0.00e+00	0	43	0	2003828736	6	3914
2026-01-30 10:50:25.46	33.66	26.99	-23.0	-23.8	20.0	0.00e+00	0	43	0	2009071616	6	3974
2026-01-30 10:50:26.47	33.35	26.95	-23.1	-24.2	19.7	0.00e+00	0	43	0	2015363072	6	4075
2026-01-30 10:50:27.47	33.05	26.90	-23.2	-24.4	19.6	0.00e+00	0	43	0	2020605952	6	4125
2026-01-30 10:50:28.47	32.75	26.86	-23.1	-24.2	19.8	0.00e+00	0	43	0	2025848832	6	4062
2026-01-30 10:50:29.47	32.45	26.81	-23.1	-24.1	19.8	0.00e+00	0	43	0	2032140288	6	4048
2026-01-30 10:50:30.47	32.16	26.76	-23.2	-24.3	19.7	0.00e+00	0	43	0	2037383168	6	4080
2026-01-30 10:50:31.48	31.86	26.71	-23.1	-24.2	19.7	0.00e+00	0	43	0	2043674624	6	4060
2026-01-30 10:50:32.49	31.56	26.66	-23.0	-23.9	19.9	0.00e+00	0	43	0	2048917504	6	4007
2026-01-30 10:50:33.49	31.26	26.61	-23.0	-23.9	19.9	0.00e+00	0	43	0	2054160384	6	3995
2026-01-30 10:50:34.49	30.97	26.56	-23.0	-23.8	19.9	0.00e+00	0	43	0	2060451840	6	3977
2026-01-30 10:50:35.50	30.67	26.51	-23.0	-23.9	19.9	0.00e+00	0	43	0	2065694720	6	3983
2026-01-30 10:50:36.51	30.38	26.46	-22.9	-23.8	19.9	0.00e+00	0	43	0	2071986176	6	3965
2026-01-30 10:50:37.51	30.09	26.40	-22.8	-23.5	20.1	0.00e+00	0	43	0	2077229056	6	3897
2026-01-30 10:50:38.52	29.79	26.35	-22.8	-23.6	20.0	0.00e+00	0	43	0	2082471936	6	3914
2026-01-30 10:50:39.53	29.50	26.30	-22.9	-23.7	20.0	0.00e+00	0	43	0	2088763392	6	3941
2026-01-30 10:50:40.53	29.21	26.24	-23.0	-23.8	19.9	0.00e+00	0	43	0	2094006272	6	3975
2026-01-30 10:50:41.54	28.92	26.18	-23.0	-24.0	19.8	0.00e+00	0	42	0	2100297728	6	4022
2026-01-30 10:50:42.54	28.64	26.13	-23.0	-23.9	19.9	0.00e+00	0	43	0	2105540608	6	3991
2026-01-30 10:50:43.55	28.35	26.07	-22.9	-23.7	20.0	0.00e+00	0	43	0	2110783488	6	3948
2026-01-30 10:50:44.55	28.07	26.01	-23.0	-23.9	19.8	0.00e+00	0	43	0	2117074944	6	3995
2026-01-30 10:50:45.55	27.78	25.95	-23.0	-23.9	19.9	0.00e+00	0	43	0	2122317824	6	3993
2026-01-30 10:50:46.55	27.50	25.89	-22.9	-23.7	20.0	0.00e+00	0	43	0	2127560704	6	3939
2026-01-30 10:50:47.55	27.22	25.83	-22.9	-23.7	20.0	0.00e+00	0	43	0	2133852160	6	3948
2026-01-30 10:50:48.54	26.94	25.77	-23.1	-24.2	19.7	0.00e+00	0	43	0	2139095040	6	4056
2026-01-30 10:50:49.54	26.67	25.71	-23.2	-24.4	19.6	0.00e+00	0	43	0	2145386496	6	4115
2026-01-30 10:50:50.54	26.39	25.65	-23.2	-24.3	19.7	0.00e+00	0	43	0	2150629376	6	4083
2026-01-30 10:50:51.55	26.11	25.59	-23.2	-24.3	19.7	0.00e+00	0	43	0	2155872256	6	4083
2026-01-30 10:50:52.55	25.83	25.53	-23.3	-24.6	19.5	0.00e+00	0	43	0	2162163712	6	4164
2026-01-30 10:50:53.55	25.56	25.46	-23.4	-24.7	19.5	0.00e+00	0	43	0	2167406592	6	4178
2026-01-30 10:50:54.56	25.28	25.40	-23.4	-24.8	19.4	0.00e+00	0	43	0	2172649472	6	4210
2026-01-30 10:50:55.57	25.01	25.33	-23.5	-24.4	19.4	0.00e+00	0	43	0	2178940928	7	4001
2026-01-30 10:50:56.57	24.74	25.27	-23.3	-24.1	19.5	0.00e+00	0	43	0	2184183808	7	3941
2026-01-30 10:50:57.57	24.47	25.20	-23.3	-24.0	19.5	0.00e+00	0	43	0	2189426688	7	3909
2026-01-30 10:50:58.57	24.20	25.14	-23.4	-24.3	19.4	0.00e+00	0	43	0	2195718144	7	3974
2026-01-30 10:50:59.57	23.93	25.07	-23.4	-24.3	19.4	0.00e+00	0	43	0	2200961024	7	3989
2026-01-30 10:51:00.57	23.67	25.00	-23.4	-24.1	19.5	0.00e+00	0	43	0	2207252480	7	3939
2026-01-30 10:51:01.58	23.40	24.94	-23.3	-24.1	19.5	0.00e+00	0	43	0	2212495360	7	3939
2026-01-30 10:51:02.58	23.14	24.87	-23.3	-24.0	19.5	0.00e+00	0	43	0	2218786816	7	3912
2026-01-30 10:51:03.58	22.87	24.80	-23.2	-23.9	19.6	0.00e+00	0	43	0	2224029696	7	3879
2026-01-30 10:51:04.58	22.61	24.73	-23.3	-24.1	19.5	0.00e+00	0	43	0	2229272576	7	3926
2026-01-30 10:51:05.59	22.35	24.66	-23.4	-24.2	19.4	0.00e+00	0	43	0	2235564032	7	3954
2026-01-30 10:51:06.58	22.09	24.59	-23.3	-24.1	19.5	0.00e+00	0	43	0	2240806912	7	3927
2026-01-30 10:51:07.59	21.83	24.52	-23.3	-24.1	19.5	0.00e+00	0	43	0	2246049792	7	3934
2026-01-30 10:51:08.59	21.57	24.45	-23.2	-23.9	19.5	0.00e+00	0	43	0	2252341248	7	3890
2026-01-30 10:51:09.60	21.32	24.38	-23.2	-23.9	19.6	0.00e+00	0	43	0	2257584128	7	3875
2026-01-30 10:51:10.60	21.06	24.31	-23.2	-23.7	19.6	0.00e+00	0	43	0	2262827008	7	3850
2026-01-30 10:51:11.61	20.81	24.23	-23.0	-23.4	19.8	0.00e+00	0	43	0	2269118464	7	3779
2026-01-30 10:51:12.61	20.55	24.16	-23.0	-23.5	19.8	0.00e+00	0	43	0	2274361344	7	3792
2026-01-30 10:51:13.62	20.30	24.09	-22.9	-23.3	19.9	0.00e+00	0	43	0	2280652800	7	3737
2026-01-30 10:51:14.63	20.05	24.01	-22.9	-23.3	19.9	0.00e+00	0	43	0	2285895680	7	3742
2026-01-30 10:51:15.63	19.80	23.94	-23.1	-23.5	19.7	1.10e-06	0	43	0	2292187136	7	3805
2026-01-30 10:51:16.62	19.55	23.87	-23.3	-24.0	19.5	0.00e+00	0	43	0	2297430016	7	3925
2026-01-30 10:51:17.62	19.31	23.79	-23.4	-24.2	19.4	0.00e+00	0	43	0	2302672896	7	3962
2026-01-30 10:51:18.62	19.06	23.72	-23.4	-24.3	19.3	0.00e+00	0	43	0	2307915776	7	3974
2026-01-30 10:51:19.63	18.82	23.64	-23.5	-24.4	19.3	0.00e+00	0	43	0	2314207232	7	3992
2026-01-30 10:51:20.63	18.57	23.57	-23.3	-24.0	19.5	0.00e+00	0	43	0	2319450112	7	3906
2026-01-30 10:51:21.64	18.33	23.49	-23.1	-23.6	19.7	0.00e+00	0	43	0	2325741568	7	3823
2026-01-30 10:51:22.64	18.09	23.41	-23.2	-23.7	19.6	0.00e+00	0	43	0	2330984448	7	3846
2026-01-30 10:51:23.65	17.85	23.34	-23.3	-24.0	19.5	0.00e+00	0	43	0	2336227328	7	3899
2026-01-30 10:51:24.65	17.61	23.26	-23.3	-24.1	19.4	0.00e+00	0	43	0	2342518784	7	3937
2026-01-30 10:51:25.66	17.37	23.18	-23.3	-24.1	19.4	0.00e+00	0	43	0	2347761664	7	3934
2026-01-30 10:51:26.66	17.14	23.10	-23.3	-24.0	19.4	0.00e+00	0	43	0	2354053120	7	3920
2026-01-30 10:51:27.67	16.90	23.03	-23.4	-24.3	19.3	0.00e+00	0	43	0	2359296000	7	3982
2026-01-30 10:51:28.68	16.66	22.95	-23.5	-24.4	19.3	0.00e+00	0	43	0	2365587456	7	4004
2026-01-30 10:51:29.69	16.43	22.87	-23.5	-24.6	19.2	0.00e+00	0	43	0	2370830336	7	4047
2026-01-30 10:51:30.69	16.20	22.79	-23.5	-24.4	19.2	0.00e+00	0	43	0	2376073216	7	4016
2026-01-30 10:51:31.69	15.97	22.71	-23.5	-24.5	19.2	0.00e+00	0	43	0	2382364672	7	4017
2026-01-30 10:51:32.69	15.74	22.63	-23.4	-24.3	19.3	0.00e+00	0	43	0	2387607552	7	3979
2026-01-30 10:51:33.69	15.51	22.55	-23.4	-24.2	19.4	0.00e+00	0	43	0	2392850432	7	3950
2026-01-30 10:51:34.70	15.29	22.47	-23.5	-24.4	19.2	0.00e+00	0	43	0	2399141888	7	4013
2026-01-30 10:51:35.70	15.06	22.39	-23.6	-24.7	19.1	0.00e+00	0	43	0	2404384768	7	4090
2026-01-30 10:51:36.70	14.84	22.31	-23.7	-25.0	18.9	0.00e+00	0	43	0	2409627648	7	4154
2026-01-30 10:51:37.71	14.61	22.23	-23.9	-25.2	18.8	0.00e+00	0	43	0	2415919104	7	4213
2026-01-30 10:51:38.71	14.39	22.15	-23.8	-25.1	18.9	0.00e+00	0	43	0	2421161984	7	4169
2026-01-30 10:51:39.72	14.17	22.07	-23.8	-25.0	18.9	0.00e+00	0	43	0	2427453440	7	4153
2026-01-30 10:51:40.72	13.95	21.99	-23.8	-25.0	18.9	0.00e+00	0	43	0	2432696320	7	4161
2026-01-30 10:51:41.73	13.73	21.91	-23.8	-25.2	18.8	0.00e+00	0	43	0	2438987776	7	4195
2026-01-30 10:51:42.72	13.51	21.83	-23.8	-25.1	18.9	0.00e+00	0	43	0	2444230656	7	4180
2026-01-30 10:51:43.72	13.30	21.75	-23.9	-25.3	18.8	0.00e+00	0	43	0	2449473536	7	4215
2026-01-30 10:51:44.73	13.08	21.66	-24.1	-25.3	18.5	0.00e+00	0	43	0	2455764992	8	4104
2026-01-30 10:51:45.73	12.87	21.58	-24.5	-25.6	18.1	0.00e+00	0	43	0	2461007872	9	4077
2026-01-30 10:51:46.74	12.65	21.50	-24.4	-25.4	18.2	0.00e+00	0	43	0	2466250752	9	4018
2026-01-30 10:51:47.74	12.44	21.42	-24.2	-24.9	18.5	0.00e+00	0	43	0	2472542208	9	3905
2026-01-30 10:51:48.73	12.24	21.34	-24.0	-24.5	18.6	0.00e+00	0	43	0	2477785088	9	3819
2026-01-30 10:51:49.74	12.03	21.25	-23.9	-24.3	18.7	0.00e+00	0	43	0	2483027968	9	3771
2026-01-30 10:51:50.74	11.82	21.17	-23.9	-24.2	18.8	0.00e+00	0	43	0	2489319424	9	3749
2026-01-30 10:51:51.75	11.61	21.09	-23.8	-24.2	18.8	0.00e+00	0	43	0	2494562304	9	3737
2026-01-30 10:51:52.75	11.40	21.01	-23.9	-24.4	18.7	0.00e+00	0	43	0	2500853760	9	3789
2026-01-30 10:51:53.76	11.20	20.92	-23.9	-24.4	18.7	0.00e+00	0	43	0	2506096640	9	3786
2026-01-30 10:51:54.75	11.00	20.84	-24.0	-24.6	18.6	0.00e+00	0	43	0	2511339520	9	3830
2026-01-30 10:51:55.75	10.79	20.76	-24.0	-24.5	18.6	0.00e+00	0	43	0	2517630976	9	3822
2026-01-30 10:51:56.75	10.59	20.67	-24.0	-24.4	18.7	0.00e+00	0	43	0	2522873856	9	3799
2026-01-30 10:51:57.75	10.39	20.59	-24.0	-24.4	18.7	0.00e+00	0	42	0	2528116736	9	3795
2026-01-30 10:51:58.76	10.19	20.51	-24.1	-24.7	18.6	0.00e+00	0	43	0	2534408192	9	3858
2026-01-30 10:51:59.76	10.00	20.42	-24.1	-24.6	18.6	0.00e+00	0	43	0	2539651072	9	3850
2026-01-30 10:52:00.76	9.80	20.34	-24.1	-24.8	18.5	0.00e+00	0	43	0	2544893952	9	3887
2026-01-30 10:52:01.78	9.60	20.25	-24.0	-24.6	18.6	0.00e+00	0	43	0	2551185408	9	3836
2026-01-30 10:52:02.78	9.41	20.17	-24.0	-24.5	18.6	0.00e+00	0	43	0	2556428288	9	3819
2026-01-30 10:52:03.78	9.21	20.09	-24.0	-24.5	18.6	0.00e+00	0	43	0	2562719744	9	3811
2026-01-30 10:52:04.79	9.02	20.00	-23.8	-24.1	18.8	0.00e+00	0	43	0	2567962624	9	3732
2026-01-30 10:52:05.79	8.83	19.92	-23.7	-24.4	18.9	0.00e+00	0	43	0	2574254080	8	3907
2026-01-30 10:52:06.79	8.64	19.84	-23.8	-24.6	18.8	0.00e+00	0	43	0	2579496960	8	3943
2026-01-30 10:52:07.79	8.45	19.75	-24.0	-24.9	18.7	0.00e+00	0	43	0	2584739840	8	4022
2026-01-30 10:52:08.80	8.26	19.67	-24.0	-25.0	18.6	0.00e+00	0	43	0	2591031296	8	4055
2026-01-30 10:52:09.81	8.07	19.58	-24.1	-25.2	18.5	0.00e+00	0	43	0	2596274176	8	4101
2026-01-30 10:52:10.81	7.88	19.50	-24.1	-25.2	18.5	0.00e+00	0	43	0	2601517056	8	4098
2026-01-30 10:52:11.81	7.70	19.41	-24.2	-25.4	18.4	0.00e+00	0	43	0	2607808512	8	4147
2026-01-30 10:52:12.81	7.51	19.33	-24.1	-25.3	18.4	0.00e+00	0	43	0	2613051392	8	4124
2026-01-30 10:52:13.82	7.33	19.25	-24.3	-25.6	18.3	0.00e+00	0	43	0	2618294272	8	4182
2026-01-30 10:52:14.82	7.15	19.16	-24.2	-25.5	18.3	0.00e+00	0	43	0	2624585728	8	4166
2026-01-30 10:52:15.82	6.97	19.08	-24.2	-25.5	18.3	0.00e+00	0	43	0	2629828608	8	4171
2026-01-30 10:52:16.82	6.79	18.99	-24.3	-25.7	18.2	0.00e+00	0	43	0	2636120064	8	4205
2026-01-30 10:52:17.82	6.61	18.91	-24.3	-25.6	18.2	0.00e+00	0	43	0	2641362944	8	4190
2026-01-30 10:52:18.83	6.43	18.82	-24.3	-25.7	18.2	0.00e+00	0	43	0	2647654400	8	4215
2026-01-30 10:52:19.83	6.25	18.74	-24.4	-25.8	18.1	0.00e+00	0	43	0	2652897280	8	4251
2026-01-30 10:52:20.84	6.08	18.66	-24.6	-25.7	17.9	0.00e+00	0	43	0	2658140160	9	4101
2026-01-30 10:52:21.84	5.90	18.57	-24.8	-26.2	17.7	0.00e+00	0	43	0	2664431616	9	4233
2026-01-30 10:52:22.84	5.73	18.49	-24.7	-26.0	17.8	0.00e+00	0	43	0	2669674496	9	4180
2026-01-30 10:52:23.84	5.55	18.40	-24.6	-25.8	17.8	0.00e+00	0	43	0	2674917376	9	4145
2026-01-30 10:52:24.84	5.38	18.32	-24.6	-25.8	17.8	0.00e+00	0	43	0	2681208832	9	4142
2026-01-30 10:52:25.85	5.21	18.23	-24.6	-25.8	17.9	0.00e+00	0	43	0	2686451712	9	4138
2026-01-30 10:52:26.85	5.04	18.15	-24.6	-25.8	17.9	0.00e+00	0	43	0	2691694592	9	4131
2026-01-30 10:52:27.86	4.87	18.07	-24.7	-26.1	17.7	0.00e+00	0	43	0	2697986048	9	4196
2026-01-30 10:52:28.85	4.70	17.98	-24.6	-25.7	17.9	0.00e+00	0	43	0	2703228928	9	4118
2026-01-30 10:52:29.85	4.54	17.90	-24.5	-25.6	17.9	0.00e+00	0	43	0	2709520384	9	4093
2026-01-30 10:52:30.86	4.37	17.81	-24.6	-25.8	17.9	0.00e+00	0	43	0	2714763264	9	4131
2026-01-30 10:52:31.86	4.20	17.73	-24.6	-25.8	17.9	0.00e+00	0	43	0	2720006144	9	4120
2026-01-30 10:52:32.86	4.04	17.65	-24.6	-25.7	17.8	0.00e+00	0	43	0	2726297600	9	4120
2026-01-30 10:52:33.87	3.87	17.56	-24.8	-26.2	17.6	0.00e+00	0	43	0	2731540480	9	4247
2026-01-30 10:52:34.87	3.71	17.48	-24.7	-26.1	17.6	0.00e+00	0	43	0	2736783360	9	4204
2026-01-30 10:52:35.87	3.55	17.39	-24.7	-26.1	17.7	0.00e+00	0	43	0	2743074816	9	4199
2026-01-30 10:52:36.88	3.39	17.31	-24.8	-26.2	17.6	0.00e+00	0	43	0	2748317696	9	4246
2026-01-30 10:52:37.88	3.23	17.23	-24.8	-26.2	17.6	0.00e+00	0	43	0	2754609152	9	4245
2026-01-30 10:52:38.89	3.07	17.14	-24.9	-26.5	17.4	0.00e+00	0	43	0	2759852032	9	4321
2026-01-30 10:52:39.89	2.91	17.06	-24.9	-26.5	17.4	0.00e+00	0	43	0	2765094912	9	4332
2026-01-30 10:52:40.90	2.75	16.97	-24.9	-26.4	17.4	0.00e+00	0	43	0	2771386368	9	4300
2026-01-30 10:52:41.90	2.60	16.89	-24.9	-26.4	17.4	0.00e+00	0	43	0	2776629248	9	4289
2026-01-30 10:52:42.90	2.44	16.81	-25.1	-26.3	17.3	0.00e+00	0	43	0	2782920704	10	4144
2026-01-30 10:52:43.91	2.29	16.72	-25.2	-26.7	17.1	0.00e+00	0	43	0	2788163584	10	4247
2026-01-30 10:52:44.91	2.13	16.64	-25.1	-26.4	17.2	0.00e+00	0	43	0	2793406464	10	4176
2026-01-30 10:52:45.91	1.98	16.56	-25.4	-27.0	16.8	0.00e+00	0	43	0	2799697920	10	4327
2026-01-30 10:52:46.91	1.83	16.48	-25.3	-26.8	16.9	0.00e+00	0	43	0	2804940800	10	4285
2026-01-30 10:52:47.92	1.68	16.39	-25.1	-26.4	17.2	0.00e+00	0	43	0	2810183680	10	4173
2026-01-30 10:52:48.92	1.53	16.31	-25.0	-26.3	17.2	0.00e+00	0	43	0	2816475136	10	4144
2026-01-30 10:52:49.93	1.38	16.23	-25.1	-26.5	17.1	0.00e+00	0	43	0	2821718016	10	4200
2026-01-30 10:52:50.93	1.23	16.14	-25.1	-26.3	17.2	0.00e+00	0	43	0	2828009472	10	4163
2026-01-30 10:52:51.93	1.08	16.06	-25.1	-26.4	17.1	0.00e+00	0	43	0	2833252352	10	4173
2026-01-30 10:52:52.93	0.93	15.98	-25.0	-26.1	17.3	0.00e+00	0	43	0	2838495232	10	4116
2026-01-30 10:52:53.93	0.79	15.89	-25.2	-26.6	17.0	0.00e+00	0	43	0	2844786688	10	4239
2026-01-30 10:52:54.93	0.64	15.81	-25.2	-26.6	17.0	0.00e+00	0	43	0	2850029568	10	4231
2026-01-30 10:52:55.94	0.50	15.73	-25.4	-27.1	16.7	0.00e+00	0	43	0	2856321024	10	4370
2026-01-30 10:52:56.94	0.35	15.65	-25.3	-26.9	16.8	0.00e+00	0	43	0	2861563904	10	4314
2026-01-30 10:52:57.94	0.21	15.57	-25.3	-26.8	16.9	0.00e+00	0	43	0	2866806784	10	4282
2026-01-30 10:52:58.94	0.07	15.48	-25.3	-26.7	16.9	0.00e+00	0	43	0	2873098240	10	4259
2026-01-30 10:52:59.95	359.93	15.40	-25.2	-26.5	17.0	0.00e+00	0	43	0	2878341120	10	4209
2026-01-30 10:53:00.95	359.79	15.32	-25.2	-26.7	16.9	0.00e+00	0	43	0	2883584000	10	4249
2026-01-30 10:53:01.96	359.65	15.24	-25.1	-26.3	17.1	0.00e+00	0	43	0	2889875456	10	4164
2026-01-30 10:53:02.95	359.51	15.16	-25.1	-26.5	17.0	0.00e+00	0	43	0	2895118336	10	4195
2026-01-30 10:53:03.96	359.37	15.07	-25.1	-26.3	17.1	0.00e+00	0	43	0	2900361216	10	4155
2026-01-30 10:53:04.96	359.23	14.99	-25.2	-26.6	17.0	0.00e+00	0	43	0	2906652672	10	4221
2026-01-30 10:53:05.97	359.10	14.91	-25.2	-26.5	17.0	0.00e+00	0	43	0	2911895552	10	4220
2026-01-30 10:53:06.98	358.96	14.83	-25.3	-26.8	16.9	0.00e+00	0	43	0	2918187008	10	4282
2026-01-30 10:53:07.98	358.82	14.75	-25.2	-26.7	16.9	0.00e+00	0	43	0	2923429888	10	4252
2026-01-30 10:53:08.98	358.69	14.67	-25.3	-26.8	16.8	0.00e+00	0	43	0	2929721344	10	4293
2026-01-30 10:53:09.99	358.56	14.59	-25.5	-27.2	16.6	0.00e+00	0	43	0	2934964224	10	4388
2026-01-30 10:53:11.00	358.42	14.50	-25.3	-26.7	16.9	0.00e+00	0	43	0	2940207104	10	4269
2026-01-30 10:53:12.00	358.29	14.42	-25.1	-26.4	17.0	0.00e+00	0	43	0	2946498560	10	4192
2026-01-30 10:53:13.00	358.16	14.34	-25.1	-26.4	17.0	0.00e+00	0	43	0	2951741440	10	4182
2026-01-30 10:53:14.00	358.03	14.26	-25.2	-26.6	16.9	0.00e+00	0	43	0	2956984320	10	4241
2026-01-30 10:53:15.01	357.90	14.18	-25.2	-26.6	16.9	0.00e+00	0	43	0	2963275776	10	4234
2026-01-30 10:53:16.01	357.77	14.10	-25.4	-27.0	16.7	0.00e+00	0	43	0	2968518656	10	4336
2026-01-30 10:53:17.01	357.64	14.02	-25.4	-27.1	16.7	0.00e+00	0	43	0	2973761536	10	4357
2026-01-30 10:53:18.01	357.51	13.94	-25.6	-26.9	16.5	0.00e+00	0	43	0	2980052992	11	4196
2026-01-30 10:53:19.01	357.39	13.86	-25.7	-27.3	16.2	0.00e+00	0	43	0	2985295872	11	4314
2026-01-30 10:53:20.01	357.26	13.78	-25.6	-27.1	16.3	0.00e+00	0	43	0	2991587328	11	4260
2026-01-30 10:53:21.01	357.14	13.70	-25.8	-27.5	16.2	0.00e+00	0	43	0	2996830208	11	4351
2026-01-30 10:53:22.01	357.01	13.62	-26.0	-27.4	15.8	0.00e+00	0	43	0	3002073088	12	4231
2026-01-30 10:53:23.02	356.89	13.54	-26.1	-27.7	15.7	0.00e+00	0	43	0	3008364544	12	4303
2026-01-30 10:53:24.02	356.76	13.46	-26.0	-27.5	15.8	0.00e+00	0	43	0	3013607424	12	4243
2026-01-30 10:53:25.03	356.64	13.38	-26.0	-27.4	15.9	0.00e+00	0	43	0	3019898880	12	4217
2026-01-30 10:53:26.03	356.52	13.31	-26.1	-27.5	15.8	0.00e+00	0	43	0	3025141760	12	4251
2026-01-30 10:53:27.03	356.40	13.23	-26.0	-27.5	15.8	0.00e+00	0	43	0	3030384640	12	4247
2026-01-30 10:53:28.04	356.27	13.15	-26.1	-27.6	15.7	0.00e+00	0	43	0	3036676096	12	4288
2026-01-30 10:53:29.04	356.15	13.07	-25.9	-27.1	16.0	0.00e+00	0	43	0	3041918976	12	4154
2026-01-30 10:53:30.04	356.04	12.99	-25.7	-26.7	16.2	0.00e+00	0	43	0	3047161856	12	4043
2026-01-30 10:53:31.05	355.92	12.91	-25.6	-26.6	16.3	0.00e+00	0	43	0	3053453312	12	4022
2026-01-30 10:53:32.05	355.80	12.83	-25.7	-26.7	16.2	0.00e+00	0	43	0	3058696192	12	4046
2026-01-30 10:53:33.05	355.68	12.76	-25.6	-26.6	16.2	0.00e+00	0	43	0	3064987648	12	4023
2026-01-30 10:53:34.05	355.56	12.68	-25.7	-26.7	16.2	0.00e+00	0	43	0	3070230528	12	4049
2026-01-30 10:53:35.05	355.45	12.60	-25.6	-26.5	16.3	0.00e+00	0	43	0	3075473408	12	4004
2026-01-30 10:53:36.06	355.33	12.52	-25.7	-26.7	16.2	1.10e-06	0	43	0	3081764864	12	4049
2026-01-30 10:53:37.06	355.22	12.44	-25.9	-27.1	15.9	0.00e+00	0	43	0	3087007744	12	4156
2026-01-30 10:53:38.07	355.10	12.37	-25.7	-26.7	16.2	0.00e+00	0	43	0	3092250624	12	4053
2026-01-30 10:53:39.06	354.99	12.29	-25.7	-26.6	16.2	0.00e+00	0	43	0	3098542080	12	4025
2026-01-30 10:53:40.06	354.88	12.21	-25.7	-26.8	16.1	0.00e+00	0	43	0	3103784960	12	4064
2026-01-30 10:53:41.06	354.76	12.14	-25.7	-26.8	16.1	0.00e+00	0	43	0	3109027840	12	4060
2026-01-30 10:53:42.06	354.65	12.06	-25.8	-27.0	16.0	0.00e+00	0	43	0	3115319296	12	4133
2026-01-30 10:53:43.07	354.54	11.98	-25.9	-27.1	15.9	0.00e+00	0	43	0	3120562176	12	4149
2026-01-30 10:53:44.08	354.43	11.90	-25.9	-27.3	15.8	0.00e+00	0	43	0	3126853632	12	4199
2026-01-30 10:53:45.08	354.32	11.83	-25.9	-27.2	15.9	0.00e+00	0	43	0	3132096512	12	4173
2026-01-30 10:53:46.09	354.21	11.75	-26.0	-27.4	15.8	0.00e+00	0	43	0	3138387968	12	4231
2026-01-30 10:53:47.09	354.10	11.68	-26.0	-27.4	15.7	0.00e+00	0	43	0	3143630848	12	4238
2026-01-30 10:53:48.10	353.99	11.60	-26.0	-27.5	15.7	0.00e+00	0	43	0	3148873728	12	4251
2026-01-30 10:53:49.10	353.88	11.52	-26.1	-27.6	15.7	0.00e+00	0	43	0	3155165184	12	4279
2026-01-30 10:53:50.10	353.78	11.45	-26.1	-27.6	15.6	0.00e+00	0	43	0	3160408064	12	4281
2026-01-30 10:53:51.11	353.67	11.37	-26.2	-27.7	15.5	0.00e+00	0	43	0	3165650944	12	4324
2026-01-30 10:53:52.11	353.56	11.30	-26.3	-28.0	15.4	0.00e+00	0	43	0	3171942400	12	4399
2026-01-30 10:53:53.12	353.46	11.22	-26.1	-27.7	15.6	0.00e+00	0	43	0	3177185280	12	4299
2026-01-30 10:53:54.12	353.35	11.14	-26.0	-27.5	15.7	0.00e+00	0	43	0	3182428160	12	4253
2026-01-30 10:53:55.12	353.25	11.07	-26.1	-27.6	15.6	0.00e+00	0	43	0	3188719616	12	4291
2026-01-30 10:53:56.12	353.14	10.99	-26.1	-27.7	15.5	0.00e+00	0	43	0	3193962496	12	4322
2026-01-30 10:53:57.12	353.04	10.92	-26.4	-28.2	15.2	0.00e+00	0	43	0	3200253952	12	4462
2026-01-30 10:53:58.12	352.94	10.84	-26.2	-27.9	15.4	0.00e+00	0	43	0	3205496832	12	4368
2026-01-30 10:53:59.13	352.84	10.77	-26.2	-27.9	15.4	0.00e+00	0	43	0	3211788288	12	4370
2026-01-30 10:54:00.13	352.73	10.69	-26.3	-28.1	15.3	1.10e-06	0	43	0	3217031168	12	4419
2026-01-30 10:54:01.13	352.63	10.62	-26.5	-28.5	15.1	0.00e+00	0	43	0	3222274048	12	4540
2026-01-30 10:54:02.14	352.53	10.55	-26.3	-28.0	15.3	0.00e+00	0	43	0	3228565504	12	4412
2026-01-30 10:54:03.14	352.43	10.47	-26.4	-28.3	15.2	0.00e+00	0	43	0	3233808384	12	4483
2026-01-30 10:54:04.13	352.33	10.40	-26.6	-28.3	14.9	0.00e+00	0	43	0	3239051264	13	4368
2026-01-30 10:54:05.14	352.23	10.32	-26.8	-28.6	14.7	0.00e+00	0	43	0	3245342720	13	4462
2026-01-30 10:54:06.15	352.13	10.25	-26.5	-28.1	15.0	0.00e+00	0	43	0	3250585600	13	4316
2026-01-30 10:54:07.15	352.04	10.18	-26.3	-27.7	15.2	0.00e+00	0	43	0	3256877056	13	4196
2026-01-30 10:54:08.15	351.94	10.10	-26.3	-27.5	15.3	0.00e+00	0	43	0	3262119936	13	4152
2026-01-30 10:54:09.16	351.84	10.03	-26.3	-27.6	15.3	0.00e+00	0	43	0	3267362816	13	4167
2026-01-30 10:54:10.16	351.75	9.96	-26.3	-27.5	15.3	0.00e+00	0	43	0	3273654272	13	4151
2026-01-30 10:54:11.16	351.65	9.88	-26.3	-27.5	15.3	0.00e+00	0	43	0	3278897152	13	4141
2026-01-30 10:54:12.16	351.55	9.81	-26.3	-27.6	15.2	0.00e+00	0	43	0	3284140032	13	4179
2026-01-30 10:54:13.16	351.46	9.74	-26.3	-27.6	15.2	0.00e+00	0	43	0	3290431488	13	4171
2026-01-30 10:54:14.17	351.36	9.67	-26.4	-27.8	15.1	0.00e+00	0	43	0	3295674368	13	4221
2026-01-30 10:54:15.18	351.27	9.59	-26.4	-27.8	15.1	0.00e+00	0	43	0	3301965824	13	4236
2026-01-30 10:54:16.19	351.18	9.52	-26.4	-27.9	15.1	0.00e+00	0	43	0	3307208704	13	4245
2026-01-30 10:54:17.19	351.08	9.45	-26.6	-28.2	14.9	0.00e+00	0	43	0	3312451584	13	4340
2026-01-30 10:54:18.20	350.99	9.37	-26.5	-28.2	14.9	0.00e+00	0	43	0	3318743040	13	4334
2026-01-30 10:54:19.21	350.90	9.30	-26.6	-28.3	14.8	1.10e-06	0	43	0	3323985920	13	4364
2026-01-30 10:54:20.21	350.80	9.23	-26.6	-28.4	14.8	0.00e+00	0	43	0	3330277376	13	4387
2026-01-30 10:54:21.21	350.71	9.16	-26.7	-28.4	14.7	1.10e-06	0	43	0	3335520256	13	4403
2026-01-30 10:54:22.22	350.62	9.09	-26.6	-28.3	14.7	0.00e+00	0	43	0	3340763136	13	4376
2026-01-30 10:54:23.22	350.53	9.02	-26.7	-28.5	14.7	0.00e+00	0	43	0	3347054592	13	4422
2026-01-30 10:54:24.23	350.44	8.94	-26.9	-29.0	14.3	3.40e-06	0	43	0	3352297472	13	4581
2026-01-30 10:54:25.22	350.35	8.87	-26.7	-28.5	14.6	2.20e-06	0	43	0	3357540352	13	4440
2026-01-30 10:54:26.22	350.27	8.80	-26.6	-28.2	14.8	0.00e+00	0	43	0	3363831808	13	4337
2026-01-30 10:54:27.22	350.18	8.73	-26.5	-28.1	14.9	0.00e+00	0	43	0	3369074688	13	4310
2026-01-30 10:54:28.23	350.09	8.66	-26.6	-28.2	14.8	0.00e+00	0	43	0	3375366144	13	4335
2026-01-30 10:54:29.24	350.00	8.59	-26.6	-28.2	14.8	0.00e+00	0	43	0	3380609024	13	4343
2026-01-30 10:54:30.24	349.91	8.52	-26.6	-28.2	14.8	0.00e+00	0	43	0	3385851904	13	4345
2026-01-30 10:54:31.25	349.83	8.45	-26.6	-28.4	14.7	0.00e+00	0	43	0	3392143360	13	4387
2026-01-30 10:54:32.25	349.74	8.38	-26.7	-28.4	14.6	0.00e+00	0	43	0	3397386240	13	4405
2026-01-30 10:54:33.25	349.65	8.31	-26.7	-28.4	14.6	0.00e+00	0	43	0	3403677696	13	4406
2026-01-30 10:54:34.26	349.57	8.24	-26.7	-28.5	14.6	1.10e-06	0	43	0	3408920576	13	4423
2026-01-30 10:54:35.27	349.48	8.17	-26.7	-28.4	14.6	0.00e+00	0	43	0	3414163456	13	4412
2026-01-30 10:54:36.27	349.40	8.10	-26.7	-28.6	14.5	1.10e-06	0	43	0	3420454912	13	4456
2026-01-30 10:54:37.27	349.31	8.03	-26.8	-28.8	14.4	1.10e-06	0	43	0	3425697792	13	4514
2026-01-30 10:54:38.27	349.23	7.96	-26.8	-28.9	14.3	3.40e-06	0	43	0	3430940672	13	4542
2026-01-30 10:54:39.27	349.15	7.89	-26.8	-28.9	14.3	3.40e-06	0	43	0	3437232128	13	4550
2026-01-30 10:54:40.28	349.07	7.82	-26.8	-28.7	14.4	0.00e+00	0	43	0	3442475008	13	4481
2026-01-30 10:54:41.29	348.98	7.75	-26.7	-28.5	14.5	0.00e+00	0	43	0	3448766464	13	4436
2026-01-30 10:54:42.29	348.90	7.68	-26.8	-28.7	14.4	0.00e+00	0	43	0	3454009344	13	4506
2026-01-30 10:54:43.30	348.82	7.61	-26.7	-28.6	14.4	1.10e-06	0	43	0	3459252224	13	4460
2026-01-30 10:54:44.30	348.74	7.54	-26.7	-28.6	14.4	2.20e-06	0	43	0	3465543680	13	4471
2026-01-30 10:54:45.30	348.66	7.48	-26.8	-28.7	14.4	0.00e+00	0	43	0	3470786560	13	4479
2026-01-30 10:54:46.31	348.58	7.41	-26.7	-28.6	14.4	1.10e-06	0	43	0	3477078016	13	4482
2026-01-30 10:54:47.31	348.50	7.34	-26.8	-28.9	14.3	6.80e-06	0	43	0	3482320896	13	4551
2026-01-30 10:54:48.32	348.42	7.27	-26.9	-29.0	14.2	2.20e-06	0	43	0	3487563776	13	4582
2026-01-30 10:54:49.32	348.34	7.20	-26.9	-28.9	14.2	0.00e+00	0	43	0	3493855232	13	4553
2026-01-30 10:54:50.32	348.26	7.14	-26.9	-28.9	14.2	3.40e-06	0	43	0	3499098112	13	4572
2026-01-30 10:54:51.32	348.18	7.07	-29.0	-32.1	11.5	4.50e-06	0	43	0	3505389568	17	5108
2026-01-30 10:54:52.33	348.10	7.00	-33.1	-43.6	3.8	8.41e-01	0	43	104	3506438144	26	12029
2026-01-30 10:54:53.33	348.02	6.93	-33.5	-44.8	3.8	8.47e-01	0	43	104	3506438144	26	13332
2026-01-30 10:54:54.33	347.95	6.87	-33.7	-45.0	3.8	8.47e-01	0	43	104	3506438144	27	13159

#Closed at: 2026-01-30 10:54:54
#Recorded file [3506 MB]: D:/data/31010_260130_134428.dat