passes_logs/2026/01/30/R2M6_AANII_01/R2M6_AANII_01__20260130_094651_SUOMI_NPP_rec.log

#Pass ID: 20260130_094651_SUOMI NPP
#Satellite: SUOMI NPP
#Configuration: NPP
#almurnet v.1.7.20240730
#Start time: 2026-01-30 09:46:52

#Version: 2.2.20231116
#Station: R2M6_AANII_01
#Location: 30.233357 lon 59.946436 lat
#TLE: 1 37849U 11061A   26029.48304708  .00000140  00000+0  87283-4 0  9999
#TLE: 2 37849  98.7824 331.4079 0002024  38.4342 321.6978 14.19531488738761

#Time	Az	El	Level	Level2	SNR	BER	BlckErr	Temp	State	Recorded	gain1	gain2
2026-01-30 09:46:52.35	141.01	7.08	-31.1	-35.9	4.9	1.32e+00	0	41	0	0	23	6269
2026-01-30 09:46:53.35	140.98	7.16	-31.0	-35.5	4.9	1.32e+00	0	41	104	0	23	6051
2026-01-30 09:46:54.35	140.96	7.24	-30.9	-34.9	8.1	7.50e-02	0	41	0	0	23	5724
2026-01-30 09:46:55.36	140.93	7.31	-31.0	-35.4	7.7	7.61e-02	0	41	0	1048576	23	5999
2026-01-30 09:46:56.36	140.90	7.39	-31.0	-35.6	7.6	1.08e-01	0	41	0	3145728	23	6086
2026-01-30 09:46:57.36	140.87	7.47	-30.8	-34.5	8.4	7.01e-02	0	41	0	5242880	23	5552
2026-01-30 09:46:58.36	140.84	7.55	-30.6	-34.6	8.7	3.42e-02	0	41	0	7340032	22	5698
2026-01-30 09:46:59.37	140.81	7.63	-30.5	-34.2	9.1	2.74e-02	0	41	0	9437184	22	5465
2026-01-30 09:47:00.36	140.78	7.70	-30.5	-34.1	9.2	1.86e-02	0	41	0	10485760	22	5419
2026-01-30 09:47:01.35	140.75	7.78	-30.6	-34.3	9.0	2.06e-02	0	41	0	12582912	22	5526
2026-01-30 09:47:02.36	140.72	7.86	-30.6	-34.4	9.0	2.29e-02	0	41	0	14680064	22	5558
2026-01-30 09:47:03.36	140.68	7.94	-30.7	-34.6	8.8	3.30e-02	0	41	0	16777216	22	5662
2026-01-30 09:47:04.37	140.65	8.02	-30.6	-34.4	9.0	2.42e-02	0	41	0	17825792	22	5572
2026-01-30 09:47:05.37	140.62	8.10	-30.8	-35.0	8.6	4.22e-02	0	41	0	19922944	22	5803
2026-01-30 09:47:06.38	140.59	8.18	-30.6	-34.2	9.2	2.31e-02	0	41	0	22020096	22	5422
2026-01-30 09:47:07.38	140.56	8.26	-30.5	-33.5	9.8	1.26e-02	0	41	0	24117248	22	5105
2026-01-30 09:47:08.38	140.53	8.34	-30.3	-32.9	10.3	7.69e-03	0	42	0	26214400	22	4845
2026-01-30 09:47:09.39	140.49	8.42	-30.2	-32.8	10.7	3.90e-03	0	41	0	27262976	21	4884
2026-01-30 09:47:10.39	140.46	8.50	-30.1	-32.6	10.9	2.03e-03	0	41	0	29360128	21	4794
2026-01-30 09:47:11.39	140.43	8.58	-30.3	-33.0	10.6	2.60e-03	0	41	0	31457280	21	4945
2026-01-30 09:47:12.40	140.40	8.66	-30.3	-33.2	10.5	3.55e-03	0	42	0	33554432	21	5023
2026-01-30 09:47:13.40	140.37	8.74	-30.3	-33.1	10.7	3.04e-03	0	42	0	35651584	21	4958
2026-01-30 09:47:14.40	140.33	8.83	-30.3	-33.1	10.7	2.62e-03	0	42	0	36700160	21	4934
2026-01-30 09:47:15.41	140.30	8.91	-30.3	-33.0	10.8	2.56e-03	0	42	0	38797312	21	4915
2026-01-30 09:47:16.41	140.27	8.99	-30.3	-33.0	10.8	2.44e-03	0	42	0	40894464	21	4914
2026-01-30 09:47:17.42	140.23	9.07	-30.4	-33.2	10.6	2.81e-03	0	42	0	42991616	21	4987
2026-01-30 09:47:18.42	140.20	9.16	-30.4	-33.4	10.4	5.22e-03	0	41	0	45088768	21	5078
2026-01-30 09:47:19.43	140.16	9.24	-30.2	-32.6	11.1	2.38e-03	0	42	0	46137344	21	4738
2026-01-30 09:47:20.43	140.13	9.32	-30.0	-31.8	11.7	8.28e-04	0	42	0	48234496	21	4436
2026-01-30 09:47:21.44	140.10	9.41	-29.8	-31.2	12.2	2.91e-04	0	42	0	50331648	21	4232
2026-01-30 09:47:22.44	140.06	9.49	-29.7	-31.3	12.4	1.72e-04	0	42	0	52428800	20	4353
2026-01-30 09:47:23.44	140.03	9.58	-29.7	-31.4	12.3	1.04e-04	0	42	0	54525952	20	4407
2026-01-30 09:47:24.45	139.99	9.66	-29.7	-31.6	12.3	1.65e-04	0	42	0	55574528	20	4458
2026-01-30 09:47:25.45	139.96	9.75	-29.7	-31.4	12.4	1.28e-04	0	42	0	57671680	20	4393
2026-01-30 09:47:26.45	139.92	9.83	-29.7	-31.5	12.3	1.95e-04	0	42	0	59768832	20	4426
2026-01-30 09:47:27.45	139.88	9.92	-29.5	-30.9	12.7	1.24e-04	0	42	0	61865984	20	4247
2026-01-30 09:47:28.46	139.85	10.00	-29.6	-31.2	12.6	8.69e-05	0	42	0	63963136	20	4320
2026-01-30 09:47:29.46	139.81	10.09	-29.6	-31.2	12.6	8.31e-05	0	42	0	65011712	20	4337
2026-01-30 09:47:30.46	139.78	10.17	-29.8	-31.7	12.3	1.43e-04	0	42	0	67108864	20	4474
2026-01-30 09:47:31.46	139.74	10.26	-30.1	-32.6	11.7	3.22e-04	0	42	0	69206016	20	4790
2026-01-30 09:47:32.47	139.70	10.35	-30.2	-32.7	11.6	7.59e-04	0	42	0	71303168	20	4809
2026-01-30 09:47:33.47	139.67	10.44	-30.0	-32.3	11.9	4.35e-04	0	42	0	73400320	20	4673
2026-01-30 09:47:34.48	139.63	10.52	-30.2	-32.8	11.6	4.81e-04	0	42	0	74448896	20	4841
2026-01-30 09:47:35.48	139.59	10.61	-30.2	-32.6	11.7	7.47e-04	0	42	0	76546048	20	4772
2026-01-30 09:47:36.49	139.55	10.70	-30.0	-32.1	12.1	3.48e-04	0	42	0	78643200	20	4577
2026-01-30 09:47:37.50	139.51	10.79	-29.8	-31.5	12.6	1.38e-04	0	42	0	80740352	20	4352
2026-01-30 09:47:38.50	139.48	10.88	-29.8	-31.3	12.7	1.05e-04	0	42	0	82837504	20	4279
2026-01-30 09:47:39.50	139.44	10.97	-29.6	-30.9	13.0	4.65e-05	0	42	0	83886080	20	4157
2026-01-30 09:47:40.50	139.40	11.06	-29.5	-30.6	13.2	3.58e-05	0	42	0	85983232	20	4082
2026-01-30 09:47:41.50	139.36	11.14	-29.4	-30.3	13.4	3.73e-05	0	42	0	88080384	20	3976
2026-01-30 09:47:42.50	139.32	11.23	-29.3	-30.5	13.7	6.10e-06	0	42	0	90177536	19	4128
2026-01-30 09:47:43.50	139.28	11.32	-29.3	-30.4	13.7	6.10e-06	0	42	0	91226112	19	4106
2026-01-30 09:47:44.50	139.24	11.41	-29.3	-30.6	13.6	3.80e-06	0	42	0	93323264	19	4154
2026-01-30 09:47:45.51	139.20	11.51	-29.5	-30.9	13.4	8.30e-06	0	42	0	95420416	19	4269
2026-01-30 09:47:46.51	139.16	11.60	-29.4	-30.9	13.4	1.29e-05	0	42	0	97517568	19	4255
2026-01-30 09:47:47.51	139.12	11.69	-29.7	-31.7	12.9	1.67e-05	0	42	0	99614720	19	4532
2026-01-30 09:47:48.52	139.08	11.78	-30.0	-32.0	12.3	8.23e-05	0	42	0	100663296	20	4549
2026-01-30 09:47:49.53	139.04	11.87	-30.1	-32.2	12.1	2.01e-04	0	42	0	102760448	20	4619
2026-01-30 09:47:50.53	139.00	11.97	-30.1	-32.4	12.0	2.79e-04	0	42	0	104857600	20	4675
2026-01-30 09:47:51.54	138.95	12.06	-30.2	-32.6	11.9	5.35e-04	0	43	0	106954752	20	4747
2026-01-30 09:47:52.55	138.91	12.15	-29.9	-31.7	12.5	1.27e-04	0	42	0	109051904	20	4422
2026-01-30 09:47:53.55	138.87	12.25	-29.6	-30.7	13.2	3.50e-05	0	42	0	110100480	20	4108
2026-01-30 09:47:54.55	138.83	12.34	-29.3	-30.0	13.7	1.52e-05	0	43	0	112197632	20	3897
2026-01-30 09:47:55.56	138.78	12.44	-29.1	-30.0	14.1	7.60e-06	0	42	0	114294784	19	3969
2026-01-30 09:47:56.56	138.74	12.53	-29.0	-29.6	14.3	0.00e+00	0	43	0	116391936	19	3864
2026-01-30 09:47:57.57	138.70	12.63	-29.0	-29.6	14.3	7.00e-07	0	43	0	118489088	19	3874
2026-01-30 09:47:58.56	138.65	12.72	-28.9	-29.3	14.5	0.00e+00	0	43	0	119537664	19	3767
2026-01-30 09:47:59.57	138.61	12.82	-28.7	-29.4	14.8	0.00e+00	0	42	0	121634816	18	3896
2026-01-30 09:48:00.57	138.56	12.91	-28.9	-29.7	14.6	0.00e+00	0	42	0	123731968	18	3982
2026-01-30 09:48:01.58	138.52	13.01	-28.9	-29.9	14.5	0.00e+00	0	42	0	125829120	18	4042
2026-01-30 09:48:02.59	138.47	13.11	-29.1	-30.3	14.3	2.20e-06	0	42	0	127926272	18	4148
2026-01-30 09:48:03.59	138.43	13.20	-29.3	-31.0	13.8	4.50e-06	0	42	0	128974848	18	4357
2026-01-30 09:48:04.60	138.38	13.30	-29.7	-31.5	13.2	1.44e-05	0	43	0	131072000	19	4426
2026-01-30 09:48:05.60	138.34	13.40	-29.9	-32.1	12.8	2.51e-05	0	43	0	133169152	19	4624
2026-01-30 09:48:06.61	138.29	13.50	-29.9	-31.8	12.6	7.17e-05	0	43	0	135266304	20	4433
2026-01-30 09:48:07.62	138.24	13.60	-29.8	-31.4	12.8	7.62e-05	0	43	0	137363456	20	4306
2026-01-30 09:48:08.61	138.20	13.69	-29.8	-31.4	12.9	4.27e-05	0	43	0	138412032	20	4299
2026-01-30 09:48:09.61	138.15	13.79	-29.6	-30.7	13.3	1.83e-05	0	43	0	140509184	20	4104
2026-01-30 09:48:10.62	138.10	13.89	-29.3	-30.1	13.7	1.37e-05	0	43	0	142606336	20	3909
2026-01-30 09:48:11.62	138.05	13.99	-29.3	-29.9	13.9	7.60e-06	0	43	0	144703488	20	3855
2026-01-30 09:48:12.62	138.01	14.09	-29.1	-29.9	14.2	2.20e-06	0	43	0	146800640	19	3941
2026-01-30 09:48:13.62	137.96	14.19	-28.9	-29.8	14.6	0.00e+00	0	43	0	147849216	18	3995
2026-01-30 09:48:14.62	137.91	14.30	-28.7	-29.5	14.8	0.00e+00	0	43	0	149946368	18	3913
2026-01-30 09:48:15.63	137.86	14.40	-28.6	-29.3	14.9	0.00e+00	0	43	0	152043520	18	3878
2026-01-30 09:48:16.63	137.81	14.50	-28.9	-29.9	14.5	0.00e+00	0	43	0	154140672	18	4066
2026-01-30 09:48:17.62	137.76	14.60	-29.0	-30.4	14.2	1.50e-06	0	43	0	155189248	18	4194
2026-01-30 09:48:18.63	137.71	14.71	-29.1	-30.5	14.2	3.00e-06	0	43	0	157286400	18	4248
2026-01-30 09:48:19.64	137.66	14.81	-29.4	-31.2	13.7	3.00e-06	0	43	0	159383552	18	4472
2026-01-30 09:48:20.64	137.61	14.91	-29.5	-31.2	13.4	1.67e-05	0	43	0	161480704	19	4353
2026-01-30 09:48:21.64	137.55	15.02	-29.5	-31.1	13.5	2.20e-06	0	43	0	163577856	19	4325
2026-01-30 09:48:22.64	137.50	15.12	-29.4	-30.9	13.6	6.80e-06	0	43	0	164626432	19	4268
2026-01-30 09:48:23.65	137.45	15.23	-29.3	-30.5	13.9	6.80e-06	0	43	0	166723584	19	4121
2026-01-30 09:48:24.65	137.40	15.33	-29.3	-30.5	14.0	2.20e-06	0	43	0	168820736	19	4092
2026-01-30 09:48:25.66	137.34	15.44	-29.2	-30.1	14.3	3.00e-06	0	43	0	170917888	19	3975
2026-01-30 09:48:26.66	137.29	15.54	-29.1	-29.7	14.6	0.00e+00	0	43	0	173015040	19	3854
2026-01-30 09:48:27.67	137.24	15.65	-29.0	-29.5	14.7	7.00e-07	0	43	0	174063616	19	3817
2026-01-30 09:48:28.67	137.18	15.76	-29.1	-29.8	14.5	0.00e+00	0	43	0	176160768	19	3894
2026-01-30 09:48:29.67	137.13	15.87	-29.3	-30.3	14.2	0.00e+00	0	43	0	178257920	19	4027
2026-01-30 09:48:30.68	137.07	15.98	-29.4	-30.5	14.0	3.80e-06	0	43	0	180355072	19	4082
2026-01-30 09:48:31.67	137.02	16.08	-29.6	-30.9	13.8	3.00e-06	0	43	0	182452224	19	4207
2026-01-30 09:48:32.68	136.96	16.19	-29.8	-31.6	13.3	1.37e-05	0	43	0	183500800	19	4435
2026-01-30 09:48:33.68	136.90	16.30	-29.8	-31.7	13.3	2.13e-05	0	43	0	185597952	19	4458
2026-01-30 09:48:34.68	136.85	16.41	-29.8	-31.6	13.4	1.98e-05	0	43	0	187695104	19	4423
2026-01-30 09:48:35.68	136.79	16.52	-29.7	-31.5	13.4	1.90e-05	0	43	0	189792256	19	4415
2026-01-30 09:48:36.69	136.73	16.63	-29.6	-31.3	13.6	9.10e-06	0	43	0	191889408	19	4344
2026-01-30 09:48:37.69	136.67	16.74	-29.4	-30.7	14.0	4.50e-06	0	43	0	192937984	19	4158
2026-01-30 09:48:38.69	136.62	16.86	-29.4	-30.8	13.9	4.50e-06	0	43	0	195035136	19	4190
2026-01-30 09:48:39.69	136.56	16.97	-29.1	-29.8	14.5	1.50e-06	0	43	0	197132288	19	3897
2026-01-30 09:48:40.70	136.50	17.08	-28.9	-29.2	14.9	0.00e+00	0	43	0	199229440	19	3746
2026-01-30 09:48:41.70	136.44	17.19	-29.0	-29.3	15.0	0.00e+00	0	43	0	201326592	19	3753
2026-01-30 09:48:42.70	136.38	17.31	-29.0	-29.5	14.8	0.00e+00	0	43	0	202375168	19	3798
2026-01-30 09:48:43.71	136.32	17.42	-29.1	-29.7	14.7	0.00e+00	0	43	0	204472320	19	3838
2026-01-30 09:48:44.71	136.25	17.54	-29.3	-30.2	14.4	0.00e+00	0	43	0	206569472	19	3978
2026-01-30 09:48:45.72	136.19	17.65	-29.6	-31.0	13.9	7.00e-07	0	43	0	208666624	19	4209
2026-01-30 09:48:46.72	136.13	17.77	-29.9	-31.4	13.3	5.30e-06	0	43	0	209715200	20	4247
2026-01-30 09:48:47.72	136.07	17.89	-29.8	-31.0	13.6	2.21e-05	0	43	0	211812352	20	4139
2026-01-30 09:48:48.72	136.00	18.00	-29.8	-31.0	13.5	6.80e-06	0	43	0	213909504	20	4135
2026-01-30 09:48:49.72	135.94	18.12	-29.6	-30.5	14.0	9.90e-06	0	43	0	216006656	20	3982
2026-01-30 09:48:50.72	135.88	18.24	-29.3	-30.2	14.5	7.00e-07	0	43	0	218103808	19	3987
2026-01-30 09:48:51.73	135.81	18.36	-29.3	-30.2	14.4	0.00e+00	0	43	0	219152384	19	3993
2026-01-30 09:48:52.73	135.74	18.47	-29.2	-30.0	14.6	0.00e+00	0	43	0	221249536	19	3942
2026-01-30 09:48:53.73	135.68	18.59	-29.3	-30.3	14.4	7.00e-07	0	43	0	223346688	19	4013
2026-01-30 09:48:54.74	135.61	18.71	-29.4	-30.3	14.4	0.00e+00	0	43	0	225443840	19	4011
2026-01-30 09:48:55.74	135.54	18.84	-29.5	-30.7	14.2	7.00e-07	0	43	0	227540992	19	4115
2026-01-30 09:48:56.75	135.48	18.96	-29.6	-30.8	14.1	2.20e-06	0	43	0	228589568	19	4156
2026-01-30 09:48:57.75	135.41	19.08	-29.8	-31.3	13.9	1.50e-06	0	43	0	230686720	19	4299
2026-01-30 09:48:58.75	135.34	19.20	-29.8	-31.0	13.7	9.90e-06	0	43	0	232783872	20	4110
2026-01-30 09:48:59.75	135.27	19.32	-29.7	-30.6	13.9	5.30e-06	0	43	0	234881024	20	3992
2026-01-30 09:49:00.75	135.20	19.45	-29.5	-30.2	14.3	0.00e+00	0	43	0	236978176	20	3872
2026-01-30 09:49:01.75	135.13	19.57	-29.5	-30.1	14.3	0.00e+00	0	43	0	238026752	20	3857
2026-01-30 09:49:02.75	135.06	19.69	-29.5	-30.1	14.3	3.00e-06	0	43	0	240123904	20	3845
2026-01-30 09:49:03.75	134.99	19.82	-29.4	-29.7	14.5	7.00e-07	0	43	0	242221056	20	3747
2026-01-30 09:49:04.76	134.91	19.94	-29.4	-29.8	14.5	0.00e+00	0	43	0	244318208	20	3768
2026-01-30 09:49:05.76	134.84	20.07	-29.6	-30.3	14.2	7.00e-07	0	43	0	246415360	20	3899
2026-01-30 09:49:06.76	134.77	20.20	-29.7	-30.6	14.1	7.00e-07	0	43	0	247463936	20	3979
2026-01-30 09:49:07.77	134.69	20.33	-29.9	-31.1	13.7	5.30e-06	0	43	0	249561088	20	4130
2026-01-30 09:49:08.78	134.62	20.45	-29.9	-31.1	13.8	5.30e-06	0	43	0	251658240	20	4129
2026-01-30 09:49:09.78	134.54	20.58	-29.9	-31.2	13.6	3.80e-06	0	43	0	253755392	20	4181
2026-01-30 09:49:10.78	134.47	20.71	-30.1	-31.7	13.3	1.06e-05	0	43	0	254803968	20	4316
2026-01-30 09:49:11.79	134.39	20.84	-29.9	-31.2	13.7	1.75e-05	0	43	0	256901120	20	4151
2026-01-30 09:49:12.80	134.31	20.97	-29.7	-30.7	14.0	6.80e-06	0	43	0	258998272	20	4004
2026-01-30 09:49:13.80	134.23	21.10	-29.7	-30.4	14.2	1.50e-06	0	43	0	261095424	20	3938
2026-01-30 09:49:14.80	134.15	21.24	-29.5	-30.0	14.4	3.80e-06	0	43	0	263192576	20	3824
2026-01-30 09:49:15.80	134.07	21.37	-29.7	-30.4	14.2	1.50e-06	0	43	0	265289728	20	3941
2026-01-30 09:49:16.81	133.99	21.50	-29.8	-30.7	14.0	2.20e-06	0	43	0	266338304	20	4017
2026-01-30 09:49:17.81	133.91	21.64	-29.9	-31.1	13.8	4.50e-06	0	43	0	268435456	20	4133
2026-01-30 09:49:18.81	133.83	21.77	-29.9	-31.0	13.9	3.80e-06	0	43	0	270532608	20	4105
2026-01-30 09:49:19.81	133.75	21.90	-30.1	-31.7	13.4	7.60e-06	0	43	0	272629760	20	4318
2026-01-30 09:49:20.82	133.66	22.04	-30.1	-31.6	13.5	1.06e-05	0	43	0	273678336	20	4278
2026-01-30 09:49:21.82	133.58	22.18	-30.0	-31.4	13.6	7.60e-06	0	43	0	275775488	20	4216
2026-01-30 09:49:22.83	133.49	22.31	-29.9	-31.0	13.9	6.80e-06	0	43	0	277872640	20	4099
2026-01-30 09:49:23.82	133.41	22.45	-30.1	-31.6	13.5	8.30e-06	0	43	0	279969792	20	4283
2026-01-30 09:49:24.83	133.32	22.59	-29.8	-30.8	14.0	6.80e-06	0	43	0	282066944	20	4043
2026-01-30 09:49:25.83	133.24	22.73	-29.8	-30.9	14.0	7.00e-07	0	43	0	283115520	20	4041
2026-01-30 09:49:26.83	133.15	22.87	-29.9	-31.1	13.9	2.20e-06	0	43	0	285212672	20	4131
2026-01-30 09:49:27.83	133.06	23.01	-30.1	-31.5	13.6	4.50e-06	0	43	0	287309824	20	4250
2026-01-30 09:49:28.84	132.97	23.15	-30.1	-31.6	13.6	8.30e-06	0	43	0	289406976	20	4266
2026-01-30 09:49:29.84	132.88	23.29	-30.2	-32.0	13.3	9.90e-06	0	43	0	291504128	20	4398
2026-01-30 09:49:30.84	132.79	23.43	-30.3	-32.1	13.2	3.20e-05	0	43	0	292552704	20	4421
2026-01-30 09:49:31.85	132.69	23.58	-30.3	-32.1	13.3	2.36e-05	0	43	0	294649856	20	4444
2026-01-30 09:49:32.85	132.60	23.72	-30.5	-32.2	12.8	2.05e-05	0	43	0	296747008	21	4395
2026-01-30 09:49:33.86	132.51	23.86	-30.2	-31.4	13.3	3.12e-05	0	43	0	298844160	21	4128
2026-01-30 09:49:34.87	132.41	24.01	-30.0	-30.9	13.7	1.06e-05	0	43	0	300941312	21	3981
2026-01-30 09:49:35.86	132.32	24.15	-30.1	-31.1	13.6	1.29e-05	0	43	0	301989888	21	4039
2026-01-30 09:49:36.87	132.22	24.30	-30.3	-31.6	13.3	1.22e-05	0	43	0	304087040	21	4184
2026-01-30 09:49:37.86	132.12	24.45	-30.3	-31.6	13.2	2.82e-05	0	43	0	306184192	21	4186
2026-01-30 09:49:38.86	132.03	24.60	-30.5	-32.2	12.9	4.50e-05	0	43	0	308281344	21	4363
2026-01-30 09:49:39.86	131.93	24.74	-30.4	-32.0	13.0	5.95e-05	0	43	0	310378496	21	4292
2026-01-30 09:49:40.86	131.83	24.89	-30.5	-32.1	13.0	3.05e-05	0	43	0	311427072	21	4338
2026-01-30 09:49:41.87	131.72	25.04	-30.6	-32.4	12.8	3.20e-05	0	43	0	313524224	21	4417
2026-01-30 09:49:42.87	131.62	25.20	-30.4	-31.7	13.2	4.73e-05	0	43	0	315621376	21	4200
2026-01-30 09:49:43.87	131.52	25.35	-30.4	-31.9	13.2	1.37e-05	0	43	0	317718528	21	4246
2026-01-30 09:49:44.88	131.41	25.50	-30.3	-31.6	13.4	2.21e-05	0	43	0	318767104	21	4162
2026-01-30 09:49:45.88	131.31	25.65	-30.3	-31.5	13.4	7.60e-06	0	43	0	320864256	21	4133
2026-01-30 09:49:46.88	131.20	25.81	-30.1	-30.9	13.8	1.37e-05	0	43	0	322961408	21	3977
2026-01-30 09:49:47.88	131.09	25.96	-30.3	-31.6	13.3	8.30e-06	0	43	0	325058560	21	4190
2026-01-30 09:49:48.89	130.98	26.12	-30.2	-31.3	13.5	1.60e-05	0	43	0	327155712	21	4093
2026-01-30 09:49:49.90	130.87	26.28	-30.1	-30.9	13.8	8.30e-06	0	43	0	329252864	21	3965
2026-01-30 09:49:50.90	130.76	26.43	-30.2	-31.2	13.6	8.30e-06	0	43	0	330301440	21	4060
2026-01-30 09:49:51.91	130.65	26.59	-30.5	-32.1	13.0	2.44e-05	0	43	0	332398592	21	4313
2026-01-30 09:49:52.91	130.54	26.75	-30.6	-32.3	12.9	3.81e-05	0	43	0	334495744	21	4385
2026-01-30 09:49:53.91	130.42	26.91	-30.8	-33.0	12.5	4.88e-05	0	43	0	336592896	21	4624
2026-01-30 09:49:54.92	130.31	27.07	-30.8	-32.9	12.6	1.59e-04	0	43	0	337641472	21	4563
2026-01-30 09:49:55.91	130.19	27.23	-31.1	-33.1	12.1	1.60e-04	0	43	0	339738624	22	4564
2026-01-30 09:49:56.92	130.07	27.40	-31.3	-33.8	11.8	3.25e-04	0	43	0	341835776	22	4814
2026-01-30 09:49:57.92	129.95	27.56	-31.0	-32.9	12.2	6.16e-04	0	43	0	343932928	22	4482
2026-01-30 09:49:58.93	129.83	27.72	-31.2	-33.4	11.9	2.46e-04	0	43	0	346030080	22	4661
2026-01-30 09:49:59.93	129.71	27.89	-31.4	-34.1	11.5	4.46e-04	0	43	0	347078656	22	4902
2026-01-30 09:50:00.94	129.59	28.05	-31.0	-32.9	12.3	4.84e-04	0	43	0	349175808	22	4478
2026-01-30 09:50:01.94	129.46	28.22	-30.9	-32.5	12.5	1.22e-04	0	43	0	351272960	22	4333
2026-01-30 09:50:02.94	129.34	28.39	-30.9	-32.6	12.5	1.25e-04	0	44	0	353370112	22	4367
2026-01-30 09:50:03.94	129.21	28.55	-31.1	-33.1	12.1	1.59e-04	0	43	0	355467264	22	4558
2026-01-30 09:50:04.95	129.08	28.72	-31.2	-33.5	11.8	3.20e-04	0	43	0	356515840	22	4708
2026-01-30 09:50:05.95	128.95	28.89	-31.0	-32.9	12.3	3.68e-04	0	43	0	358612992	22	4473
2026-01-30 09:50:06.95	128.82	29.06	-30.7	-32.1	12.7	1.32e-04	0	43	0	360710144	22	4226
2026-01-30 09:50:07.96	128.69	29.24	-30.7	-31.9	13.0	3.66e-05	0	43	0	362807296	22	4165
2026-01-30 09:50:08.96	128.55	29.41	-30.4	-31.1	13.5	1.22e-05	0	43	0	364904448	22	3908
2026-01-30 09:50:09.96	128.42	29.58	-30.5	-31.6	13.2	2.51e-05	0	43	0	365953024	22	4046
2026-01-30 09:50:10.97	128.28	29.76	-30.3	-30.9	13.6	1.98e-05	0	43	0	368050176	22	3861
2026-01-30 09:50:11.97	128.14	29.93	-30.6	-31.7	13.2	1.44e-05	0	43	0	370147328	22	4073
2026-01-30 09:50:12.98	128.00	30.11	-30.3	-31.5	13.5	8.30e-06	0	43	0	372244480	21	4131
2026-01-30 09:50:13.98	127.86	30.29	-30.4	-31.7	13.5	2.44e-05	0	43	0	374341632	21	4180
2026-01-30 09:50:14.98	127.72	30.46	-30.3	-31.3	13.7	6.80e-06	0	43	0	375390208	21	4068
2026-01-30 09:50:15.98	127.57	30.64	-30.1	-30.8	14.0	3.00e-06	0	43	0	377487360	21	3926
2026-01-30 09:50:16.98	127.43	30.82	-30.3	-31.3	13.7	4.50e-06	0	44	0	379584512	21	4059
2026-01-30 09:50:17.98	127.28	31.00	-30.4	-31.7	13.5	5.30e-06	0	43	0	381681664	21	4169
2026-01-30 09:50:18.98	127.13	31.18	-30.7	-32.6	12.9	3.28e-05	0	43	0	382730240	21	4460
2026-01-30 09:50:19.98	126.98	31.36	-30.9	-33.0	12.6	6.79e-05	0	43	0	384827392	21	4587
2026-01-30 09:50:20.98	126.82	31.54	-31.1	-33.1	12.2	1.12e-04	0	43	0	386924544	22	4543
2026-01-30 09:50:21.98	126.67	31.73	-30.9	-32.6	12.5	1.36e-04	0	43	0	389021696	22	4384
2026-01-30 09:50:22.98	126.51	31.91	-31.0	-32.9	12.4	1.37e-04	0	43	0	391118848	22	4466
2026-01-30 09:50:23.99	126.35	32.10	-31.1	-33.0	12.4	1.21e-04	0	43	0	392167424	22	4501
2026-01-30 09:50:25.00	126.19	32.29	-31.5	-33.8	11.5	3.65e-04	0	43	0	394264576	23	4689
2026-01-30 09:50:26.01	126.03	32.48	-31.5	-33.8	11.4	1.02e-03	0	43	0	396361728	23	4704
2026-01-30 09:50:27.01	125.86	32.66	-31.5	-33.7	11.5	4.44e-04	0	43	0	398458880	23	4663
2026-01-30 09:50:28.01	125.70	32.85	-31.7	-34.4	11.0	1.34e-03	0	43	0	400556032	23	4901
2026-01-30 09:50:29.02	125.53	33.04	-31.4	-33.3	11.7	7.72e-04	0	43	0	401604608	23	4523
2026-01-30 09:50:30.02	125.36	33.24	-31.3	-33.0	12.1	3.17e-04	0	43	0	403701760	23	4386
2026-01-30 09:50:31.03	125.18	33.43	-31.2	-33.0	12.0	2.75e-04	0	43	0	405798912	23	4403
2026-01-30 09:50:32.03	125.01	33.62	-31.1	-32.6	12.3	1.40e-04	0	43	0	407896064	23	4275
2026-01-30 09:50:33.04	124.83	33.82	-31.2	-33.0	12.1	3.75e-04	0	43	0	409993216	23	4394
2026-01-30 09:50:34.04	124.65	34.01	-31.3	-33.0	12.0	4.13e-04	0	43	0	411041792	23	4416
2026-01-30 09:50:35.04	124.47	34.21	-31.5	-33.7	11.5	6.98e-04	0	43	0	413138944	23	4658
2026-01-30 09:50:36.05	124.29	34.40	-31.4	-33.8	11.3	1.20e-03	0	43	0	415236096	23	4757
2026-01-30 09:50:37.05	124.10	34.60	-31.7	-34.8	7.6	8.15e-02	0	43	0	417333248	23	5160
2026-01-30 09:50:38.05	123.92	34.80	-31.4	-34.1	7.9	2.12e-01	0	43	0	419430400	23	4937
2026-01-30 09:50:39.05	123.73	35.00	-31.5	-34.5	7.8	1.75e-01	0	43	0	420478976	23	5095
2026-01-30 09:50:40.06	123.53	35.20	-31.7	-35.2	7.3	2.04e-01	0	43	0	422576128	23	5403
2026-01-30 09:50:41.07	123.34	35.40	-31.9	-35.8	7.0	2.29e-01	0	43	0	424673280	23	5630
2026-01-30 09:50:42.07	123.14	35.60	-32.3	-36.3	6.1	3.68e-01	0	43	0	426770432	24	5737
2026-01-30 09:50:43.07	122.94	35.81	-32.3	-36.6	8.8	2.31e-02	0	43	0	428867584	24	5919
2026-01-30 09:50:44.08	122.74	36.01	-32.4	-37.0	8.5	3.78e-02	0	43	0	429916160	24	6124
2026-01-30 09:50:45.08	122.53	36.22	-32.2	-36.3	8.9	4.22e-02	0	43	0	432013312	24	5751
2026-01-30 09:50:46.08	122.33	36.42	-32.2	-36.3	9.0	2.76e-02	0	43	0	434110464	24	5752
2026-01-30 09:50:47.09	122.11	36.63	-31.9	-35.2	9.9	1.32e-02	0	43	0	436207616	24	5233
2026-01-30 09:50:48.09	121.90	36.84	-31.5	-33.8	11.0	3.57e-03	0	43	0	437256192	24	4661
2026-01-30 09:50:49.09	121.69	37.04	-31.2	-33.3	11.6	5.66e-04	0	43	0	439353344	23	4581
2026-01-30 09:50:50.09	121.47	37.25	-30.8	-32.1	12.5	1.92e-04	0	43	0	441450496	23	4172
2026-01-30 09:50:51.09	121.25	37.46	-30.7	-32.4	12.6	3.66e-05	0	43	0	443547648	22	4364
2026-01-30 09:50:52.09	121.02	37.67	-30.6	-32.1	12.8	6.71e-05	0	43	0	445644800	22	4252
2026-01-30 09:50:53.09	120.80	37.88	-30.3	-31.7	13.6	4.04e-05	0	44	0	446693376	21	4214
2026-01-30 09:50:54.09	120.57	38.09	-30.5	-32.3	13.0	3.35e-05	0	43	0	448790528	21	4424
2026-01-30 09:50:55.10	120.33	38.31	-30.3	-31.5	13.6	2.21e-05	0	43	0	450887680	21	4166
2026-01-30 09:50:56.10	120.10	38.52	-30.3	-31.7	13.5	9.10e-06	0	43	0	452984832	21	4229
2026-01-30 09:50:57.10	119.86	38.74	-30.7	-32.7	12.9	2.74e-05	0	43	0	455081984	21	4521
2026-01-30 09:50:58.10	119.62	38.95	-30.9	-33.4	12.4	4.04e-05	0	43	0	456130560	21	4789
2026-01-30 09:50:59.11	119.37	39.17	-31.4	-34.5	11.2	1.06e-03	0	43	0	458227712	22	5106
2026-01-30 09:51:00.11	119.12	39.39	-31.5	-34.3	11.0	2.12e-03	0	43	0	460324864	23	4931
2026-01-30 09:51:01.11	118.87	39.60	-32.0	-35.8	10.0	3.57e-03	0	43	0	462422016	23	5596
2026-01-30 09:51:02.11	118.61	39.82	-31.9	-35.0	10.1	4.79e-03	0	43	0	464519168	24	5161
2026-01-30 09:51:03.11	118.35	40.04	-31.8	-34.8	10.3	4.98e-03	0	43	0	465567744	24	5062
2026-01-30 09:51:04.12	118.09	40.26	-31.9	-35.1	10.1	9.68e-03	0	43	0	467664896	24	5184
2026-01-30 09:51:05.12	117.82	40.48	-32.3	-36.8	8.7	1.19e-02	0	43	0	469762048	24	6017
2026-01-30 09:51:06.13	117.55	40.70	-32.4	-36.4	8.5	4.86e-02	0	43	0	471859200	25	5745
2026-01-30 09:51:07.13	117.27	40.92	-32.7	-37.6	7.7	7.15e-02	0	43	0	473956352	25	6377
2026-01-30 09:51:08.13	117.00	41.15	-32.8	-38.2	7.2	1.26e-01	0	43	0	475004928	25	6727
2026-01-30 09:51:09.13	116.72	41.37	-32.6	-37.2	8.0	9.49e-02	0	43	0	477102080	25	6133
2026-01-30 09:51:10.13	116.43	41.59	-32.4	-36.5	8.6	4.10e-02	0	43	0	479199232	25	5742
2026-01-30 09:51:11.13	116.14	41.81	-32.4	-36.7	8.3	5.07e-02	0	43	0	481296384	25	5886
2026-01-30 09:51:12.13	115.85	42.04	-32.0	-35.2	9.6	2.35e-02	0	43	0	482344960	25	5160
2026-01-30 09:51:13.13	115.55	42.26	-32.0	-35.0	9.7	7.79e-03	0	44	0	484442112	25	5080
2026-01-30 09:51:14.14	115.25	42.49	-32.0	-35.0	9.6	1.21e-02	0	43	0	486539264	25	5084
2026-01-30 09:51:15.14	114.94	42.72	-31.9	-34.5	10.1	5.63e-03	0	43	0	488636416	25	4857
2026-01-30 09:51:16.14	114.63	42.94	-31.3	-33.1	11.5	1.97e-03	0	43	0	490733568	24	4419
2026-01-30 09:51:17.14	114.32	43.17	-30.9	-32.4	12.4	2.68e-04	0	43	0	491782144	23	4254
2026-01-30 09:51:18.14	114.00	43.39	-30.9	-32.6	12.6	8.46e-05	0	43	0	493879296	22	4392
2026-01-30 09:51:19.14	113.67	43.62	-31.0	-33.0	12.3	9.07e-05	0	43	0	495976448	22	4524
2026-01-30 09:51:20.14	113.34	43.85	-31.1	-33.3	12.1	1.82e-04	0	44	0	498073600	22	4640
2026-01-30 09:51:21.14	113.01	44.08	-30.9	-32.8	12.5	1.59e-04	0	43	0	500170752	22	4475
2026-01-30 09:51:22.15	112.67	44.30	-31.1	-33.4	12.2	9.53e-05	0	43	0	501219328	22	4679
2026-01-30 09:51:23.15	112.33	44.53	-31.4	-34.1	11.7	2.49e-04	0	43	0	503316480	22	4909
2026-01-30 09:51:24.14	111.98	44.76	-31.4	-33.8	11.5	7.75e-04	0	43	0	505413632	23	4730
2026-01-30 09:51:25.15	111.63	44.99	-31.8	-34.8	10.9	2.09e-03	0	43	0	507510784	23	5095
2026-01-30 09:51:26.15	111.27	45.22	-31.8	-34.9	10.9	3.16e-03	0	44	0	509607936	23	5124
2026-01-30 09:51:27.16	110.90	45.45	-31.6	-34.4	11.2	1.44e-03	0	44	0	510656512	23	4917
2026-01-30 09:51:28.16	110.53	45.67	-31.6	-34.2	11.3	1.10e-03	0	44	0	512753664	23	4869
2026-01-30 09:51:29.17	110.15	45.91	-31.3	-33.3	12.0	5.26e-04	0	43	0	514850816	23	4531
2026-01-30 09:51:30.17	109.77	46.13	-31.1	-32.8	12.2	2.78e-04	0	43	0	516947968	23	4376
2026-01-30 09:51:31.18	109.38	46.36	-30.8	-32.4	12.9	8.23e-05	0	44	0	519045120	22	4320
2026-01-30 09:51:32.18	108.99	46.59	-31.0	-32.8	12.6	7.85e-05	0	44	0	520093696	22	4441
2026-01-30 09:51:33.18	108.60	46.82	-31.0	-33.0	12.5	1.66e-04	0	43	0	522190848	22	4518
2026-01-30 09:51:34.19	108.19	47.05	-31.3	-33.9	11.8	3.89e-04	0	43	0	524288000	22	4850
2026-01-30 09:51:35.20	107.78	47.28	-31.2	-33.8	11.9	4.29e-04	0	43	0	526385152	22	4837
2026-01-30 09:51:36.20	107.36	47.50	-31.5	-34.2	11.3	7.99e-04	0	43	0	528482304	23	4866
2026-01-30 09:51:37.21	106.94	47.73	-31.6	-34.4	11.1	1.90e-03	0	43	0	529530880	23	4956
2026-01-30 09:51:38.21	106.51	47.96	-31.1	-32.7	12.3	4.33e-04	0	43	0	531628032	23	4342
2026-01-30 09:51:39.21	106.08	48.18	-30.2	-31.2	14.0	1.52e-05	0	44	0	533725184	21	4043
2026-01-30 09:51:40.21	105.64	48.40	-30.2	-31.3	13.9	6.80e-06	0	43	0	535822336	21	4078
2026-01-30 09:51:41.22	105.19	48.63	-30.7	-32.7	13.0	2.51e-05	0	43	0	537919488	21	4539
2026-01-30 09:51:42.22	104.74	48.85	-31.2	-33.8	11.9	1.66e-04	0	43	0	538968064	22	4816
2026-01-30 09:51:43.23	104.27	49.08	-31.3	-34.0	11.8	5.06e-04	0	43	0	541065216	22	4901
2026-01-30 09:51:44.24	103.80	49.30	-30.9	-32.8	12.6	1.56e-04	0	43	0	543162368	22	4485
2026-01-30 09:51:45.24	103.33	49.52	-30.8	-32.5	12.7	5.64e-05	0	43	0	545259520	22	4408
2026-01-30 09:51:46.24	102.85	49.74	-30.9	-32.8	12.6	1.04e-04	0	43	0	546308096	22	4497
2026-01-30 09:51:47.24	102.36	49.95	-31.2	-33.8	11.8	3.15e-04	0	43	0	548405248	22	4857
2026-01-30 09:51:48.25	101.87	50.17	-31.0	-33.1	12.4	1.69e-04	0	44	0	550502400	22	4581
2026-01-30 09:51:49.26	101.36	50.39	-30.5	-31.7	13.3	6.71e-05	0	43	0	552599552	22	4120
2026-01-30 09:51:50.26	100.85	50.60	-29.8	-30.2	14.6	2.20e-06	0	43	0	554696704	21	3776
2026-01-30 09:51:51.26	100.34	50.82	-29.2	-29.6	15.6	0.00e+00	0	43	0	555745280	19	3783
2026-01-30 09:51:52.26	99.81	51.03	-29.2	-29.6	15.7	0.00e+00	0	44	0	557842432	19	3784
2026-01-30 09:51:53.26	99.29	51.24	-29.2	-29.8	15.6	0.00e+00	0	43	0	559939584	19	3816
2026-01-30 09:51:54.27	98.74	51.44	-29.3	-29.8	15.5	0.00e+00	0	43	0	562036736	19	3832
2026-01-30 09:51:55.27	98.20	51.65	-29.4	-30.2	15.3	0.00e+00	0	44	0	564133888	19	3935
2026-01-30 09:51:56.27	97.65	51.85	-29.0	-29.2	15.9	0.00e+00	0	43	0	565182464	19	3675
2026-01-30 09:51:57.28	97.08	52.06	-29.3	-29.8	15.5	0.00e+00	0	43	0	567279616	19	3843
2026-01-30 09:51:58.28	96.51	52.26	-29.9	-31.1	14.4	0.00e+00	0	43	0	569376768	20	4103
2026-01-30 09:51:59.28	95.94	52.45	-30.4	-32.5	13.4	3.00e-06	0	43	0	571473920	20	4565
2026-01-30 09:52:00.28	95.35	52.65	-30.3	-31.5	13.8	3.00e-06	0	44	0	573571072	21	4153
2026-01-30 09:52:01.29	94.76	52.84	-30.1	-31.0	14.1	3.80e-06	0	44	0	574619648	21	4015
2026-01-30 09:52:02.29	94.16	53.03	-30.4	-31.9	13.5	2.20e-06	0	43	0	576716800	21	4266
2026-01-30 09:52:03.29	93.55	53.22	-31.0	-33.1	12.4	3.50e-05	0	43	0	578813952	22	4588
2026-01-30 09:52:04.30	92.93	53.41	-30.5	-31.6	13.3	5.79e-05	0	43	0	580911104	22	4100
2026-01-30 09:52:05.30	92.31	53.59	-30.0	-30.9	14.0	0.00e+00	0	43	0	583008256	21	3969
2026-01-30 09:52:06.31	91.67	53.77	-29.7	-30.6	14.6	1.50e-06	0	43	0	584056832	20	3984
2026-01-30 09:52:07.31	91.03	53.95	-29.7	-30.5	14.7	0.00e+00	0	43	0	586153984	20	3955
2026-01-30 09:52:08.32	90.38	54.13	-29.9	-31.1	14.3	7.00e-07	0	43	0	588251136	20	4145
2026-01-30 09:52:09.32	89.73	54.30	-29.8	-30.9	14.5	1.50e-06	0	43	0	590348288	20	4058
2026-01-30 09:52:10.32	89.07	54.46	-29.7	-30.6	14.6	7.00e-07	0	43	0	592445440	20	3992
2026-01-30 09:52:11.32	88.40	54.63	-29.6	-30.2	14.8	7.00e-07	0	43	0	593494016	20	3878
2026-01-30 09:52:12.33	87.71	54.79	-29.5	-30.0	15.1	0.00e+00	0	43	0	595591168	20	3818
2026-01-30 09:52:13.33	87.03	54.95	-29.7	-30.7	14.6	0.00e+00	0	43	0	597688320	20	4039
2026-01-30 09:52:14.33	86.34	55.10	-30.4	-32.5	13.4	3.80e-06	0	43	0	599785472	20	4606
2026-01-30 09:52:15.33	85.64	55.25	-30.8	-33.1	12.7	6.48e-05	0	43	0	600834048	21	4705
2026-01-30 09:52:16.34	84.92	55.39	-30.3	-31.6	13.7	4.65e-05	0	44	0	602931200	21	4191
2026-01-30 09:52:17.34	84.21	55.54	-29.9	-30.5	14.4	7.00e-07	0	43	0	605028352	21	3878
2026-01-30 09:52:18.35	83.48	55.67	-29.7	-30.5	14.7	1.50e-06	0	43	0	607125504	20	3959
2026-01-30 09:52:19.35	82.75	55.81	-29.1	-29.5	15.6	7.00e-07	0	43	0	609222656	19	3781
2026-01-30 09:52:20.35	82.02	55.94	-28.8	-29.3	16.1	0.00e+00	0	44	0	611319808	18	3810
2026-01-30 09:52:21.35	81.28	56.06	-29.3	-30.6	15.3	0.00e+00	0	44	0	612368384	18	4176
2026-01-30 09:52:22.36	80.52	56.18	-29.8	-31.4	14.5	0.00e+00	0	44	0	614465536	19	4330
2026-01-30 09:52:23.36	79.77	56.30	-29.6	-31.0	14.7	1.50e-06	0	44	0	616562688	19	4210
2026-01-30 09:52:24.36	79.01	56.41	-29.6	-30.9	14.8	0.00e+00	0	44	0	618659840	19	4177
2026-01-30 09:52:25.35	78.25	56.51	-29.5	-30.7	14.9	0.00e+00	0	43	0	619708416	19	4113
2026-01-30 09:52:26.36	77.47	56.61	-29.1	-29.5	15.6	0.00e+00	0	43	0	621805568	19	3790
2026-01-30 09:52:27.37	76.68	56.71	-29.0	-29.3	15.8	0.00e+00	0	43	0	623902720	19	3719
2026-01-30 09:52:28.37	75.90	56.80	-29.2	-29.8	15.5	0.00e+00	0	44	0	625999872	19	3857
2026-01-30 09:52:29.38	75.10	56.89	-29.6	-31.0	14.8	7.00e-07	0	44	0	628097024	19	4197
2026-01-30 09:52:30.39	74.30	56.97	-30.0	-31.9	14.3	0.00e+00	0	44	0	629145600	19	4477
2026-01-30 09:52:31.39	73.50	57.05	-30.1	-31.8	13.8	3.80e-06	0	43	0	631242752	20	4370
2026-01-30 09:52:32.39	72.70	57.12	-30.0	-31.5	14.0	3.00e-06	0	43	0	633339904	20	4247
2026-01-30 09:52:33.40	71.89	57.18	-28.9	-29.1	16.0	0.00e+00	0	43	0	635437056	19	3654
2026-01-30 09:52:34.40	71.08	57.24	-28.3	-28.4	17.0	7.00e-07	0	44	0	637534208	17	3668
2026-01-30 09:52:35.40	70.26	57.30	-28.3	-28.5	17.0	0.00e+00	0	43	0	638582784	17	3671
2026-01-30 09:52:36.41	69.44	57.35	-28.6	-29.1	16.6	0.00e+00	0	43	0	640679936	17	3816
2026-01-30 09:52:37.41	68.62	57.39	-29.1	-29.9	16.0	0.00e+00	0	43	0	642777088	18	3947
2026-01-30 09:52:38.42	67.79	57.43	-29.8	-31.2	14.8	0.00e+00	0	43	0	644874240	19	4220
2026-01-30 09:52:39.42	66.96	57.46	-29.0	-29.1	16.0	0.00e+00	0	44	0	646971392	19	3644
2026-01-30 09:52:40.42	66.14	57.48	-27.9	-27.7	17.3	0.00e+00	0	44	0	648019968	17	3492
2026-01-30 09:52:41.42	65.31	57.51	-27.9	-28.2	17.3	0.00e+00	0	43	0	650117120	16	3724
2026-01-30 09:52:42.43	64.48	57.52	-27.8	-28.0	17.4	0.00e+00	0	44	0	652214272	16	3664
2026-01-30 09:52:43.43	63.65	57.53	-28.5	-29.4	16.7	0.00e+00	0	44	0	654311424	16	4015
2026-01-30 09:52:44.44	62.81	57.53	-28.6	-29.2	16.5	0.00e+00	0	43	0	656408576	17	3857
2026-01-30 09:52:45.44	61.98	57.53	-28.7	-29.4	16.4	0.00e+00	0	44	0	657457152	17	3917
2026-01-30 09:52:46.44	61.15	57.52	-28.8	-29.1	16.2	0.00e+00	0	43	0	659554304	18	3756
2026-01-30 09:52:47.44	60.32	57.51	-28.5	-28.5	16.6	0.00e+00	0	43	0	661651456	18	3589
2026-01-30 09:52:48.44	59.50	57.49	-28.6	-28.7	16.5	0.00e+00	0	43	0	663748608	18	3650
2026-01-30 09:52:49.45	58.66	57.46	-28.3	-28.1	16.8	0.00e+00	0	44	0	665845760	18	3521
2026-01-30 09:52:50.45	57.84	57.43	-27.6	-27.4	17.8	0.00e+00	0	44	0	666894336	16	3530
2026-01-30 09:52:51.46	57.01	57.40	-27.5	-27.1	18.0	0.00e+00	0	43	0	668991488	16	3457
2026-01-30 09:52:52.46	56.19	57.35	-27.2	-27.0	18.1	0.00e+00	0	43	0	671088640	15	3526
2026-01-30 09:52:53.46	55.37	57.31	-27.1	-26.7	18.2	0.00e+00	0	44	0	673185792	15	3468
2026-01-30 09:52:54.47	54.55	57.25	-27.3	-27.3	17.9	0.00e+00	0	43	0	675282944	15	3584
2026-01-30 09:52:55.47	53.74	57.19	-27.7	-28.2	17.4	0.00e+00	0	43	0	676331520	15	3816
2026-01-30 09:52:56.47	52.94	57.13	-27.5	-27.8	17.6	0.00e+00	0	43	0	678428672	15	3710
2026-01-30 09:52:57.47	52.13	57.06	-27.7	-28.2	17.4	0.00e+00	0	43	0	680525824	15	3819
2026-01-30 09:52:58.48	51.33	56.99	-28.3	-29.1	16.8	0.00e+00	0	43	0	682622976	16	3941
2026-01-30 09:52:59.49	50.53	56.91	-27.9	-27.7	17.2	0.00e+00	0	43	0	683671552	17	3502
2026-01-30 09:53:00.50	49.73	56.82	-27.5	-27.2	17.8	0.00e+00	0	44	0	685768704	16	3476
2026-01-30 09:53:01.50	48.95	56.73	-28.0	-28.3	17.3	0.00e+00	0	43	0	687865856	16	3724
2026-01-30 09:53:02.50	48.17	56.63	-28.1	-28.6	17.1	0.00e+00	0	44	0	689963008	16	3819
2026-01-30 09:53:03.50	47.39	56.53	-27.7	-27.5	17.7	0.00e+00	0	44	0	692060160	16	3549
2026-01-30 09:53:04.50	46.63	56.43	-27.9	-28.1	17.4	0.00e+00	0	43	0	693108736	16	3685
2026-01-30 09:53:05.50	45.87	56.32	-28.1	-28.6	17.1	0.00e+00	0	43	0	695205888	16	3799
2026-01-30 09:53:06.50	45.11	56.21	-28.6	-29.4	16.3	0.00e+00	0	43	0	697303040	17	3912
2026-01-30 09:53:07.51	44.35	56.09	-29.2	-30.3	15.6	0.00e+00	0	44	0	699400192	18	4075
2026-01-30 09:53:08.51	43.61	55.96	-29.5	-30.5	15.2	0.00e+00	0	43	0	701497344	19	4024
2026-01-30 09:53:09.51	42.88	55.84	-29.3	-29.8	15.6	0.00e+00	0	43	0	702545920	19	3834
2026-01-30 09:53:10.52	42.14	55.70	-29.3	-29.8	15.6	0.00e+00	0	43	0	704643072	19	3830
2026-01-30 09:53:11.52	41.42	55.57	-29.8	-31.0	15.0	0.00e+00	0	43	0	706740224	19	4134
2026-01-30 09:53:12.52	40.71	55.43	-30.3	-31.9	13.9	1.50e-06	0	43	0	708837376	20	4349
2026-01-30 09:53:13.53	39.99	55.28	-30.8	-32.8	13.0	1.75e-05	0	43	0	710934528	21	4557
2026-01-30 09:53:14.53	39.29	55.13	-30.6	-32.3	13.4	4.57e-05	0	43	0	711983104	21	4390
2026-01-30 09:53:15.53	38.60	54.98	-30.5	-32.1	13.4	2.97e-05	0	43	0	714080256	21	4312
2026-01-30 09:53:16.53	37.91	54.82	-30.1	-30.9	14.3	2.20e-06	0	44	0	716177408	21	3947
2026-01-30 09:53:17.53	37.24	54.67	-29.9	-30.4	14.6	7.00e-07	0	43	0	718274560	21	3804
2026-01-30 09:53:18.53	36.57	54.50	-30.1	-30.9	14.3	2.20e-06	0	43	0	720371712	21	3942
2026-01-30 09:53:19.54	35.90	54.33	-30.3	-31.3	14.2	3.00e-06	0	43	0	721420288	21	4048
2026-01-30 09:53:20.54	35.24	54.17	-30.0	-30.6	14.5	0.00e+00	0	43	0	723517440	21	3843
2026-01-30 09:53:21.54	34.60	53.99	-30.1	-30.8	14.4	0.00e+00	0	43	0	725614592	21	3894
2026-01-30 09:53:22.55	33.95	53.82	-30.5	-32.0	13.6	9.10e-06	0	44	0	727711744	21	4257
2026-01-30 09:53:23.55	33.32	53.64	-30.4	-31.7	13.9	3.00e-06	0	43	0	729808896	21	4161
2026-01-30 09:53:24.55	32.70	53.46	-30.8	-32.9	13.1	2.20e-06	0	43	0	730857472	21	4542
2026-01-30 09:53:25.56	32.08	53.27	-31.4	-34.1	11.9	1.20e-04	0	44	0	732954624	22	4894
2026-01-30 09:53:26.56	31.47	53.08	-31.4	-33.5	12.0	3.71e-04	0	43	0	735051776	23	4568
2026-01-30 09:53:27.56	30.87	52.89	-31.0	-32.1	12.8	1.44e-04	0	43	0	737148928	23	4108
2026-01-30 09:53:28.57	30.27	52.70	-31.1	-32.5	12.7	4.73e-05	0	43	0	738197504	23	4231
2026-01-30 09:53:29.57	29.69	52.51	-31.4	-33.4	12.1	2.87e-04	0	44	0	740294656	23	4530
2026-01-30 09:53:30.58	29.11	52.31	-31.7	-34.1	11.6	4.35e-04	0	43	0	742391808	23	4788
2026-01-30 09:53:31.58	28.54	52.11	-32.0	-34.9	10.7	3.77e-03	0	43	0	744488960	24	4987
2026-01-30 09:53:32.57	27.99	51.91	-31.7	-33.7	11.5	9.63e-04	0	43	0	746586112	24	4553
2026-01-30 09:53:33.58	27.43	51.71	-31.4	-33.1	11.9	7.52e-04	0	43	0	747634688	24	4349
2026-01-30 09:53:34.58	26.88	51.50	-31.4	-33.0	11.9	3.68e-04	0	44	0	749731840	24	4329
2026-01-30 09:53:35.58	26.35	51.30	-31.3	-33.3	12.5	1.89e-04	0	43	0	751828992	23	4511
2026-01-30 09:53:36.58	25.81	51.09	-31.4	-33.4	12.0	1.96e-04	0	44	0	753926144	23	4583
2026-01-30 09:53:37.57	25.30	50.88	-31.9	-35.2	10.7	2.05e-03	0	44	0	756023296	23	5257
2026-01-30 09:53:38.58	24.78	50.67	-31.4	-33.6	11.8	1.83e-03	0	44	0	757071872	23	4612
2026-01-30 09:53:39.58	24.27	50.45	-30.4	-31.1	13.8	4.88e-05	0	43	0	759169024	22	3928
2026-01-30 09:53:40.58	23.77	50.24	-30.6	-31.9	13.3	4.50e-06	0	43	0	761266176	22	4152
2026-01-30 09:53:41.57	23.28	50.03	-31.0	-33.0	12.5	6.48e-05	0	43	0	763363328	22	4499
2026-01-30 09:53:42.58	22.79	49.81	-30.9	-32.5	12.8	7.24e-05	0	44	0	765460480	22	4353
2026-01-30 09:53:43.58	22.31	49.59	-30.7	-32.1	13.1	4.95e-05	0	43	0	766509056	22	4225
2026-01-30 09:53:44.59	21.83	49.37	-31.2	-33.3	12.3	5.87e-05	0	44	0	768606208	22	4592
2026-01-30 09:53:45.60	21.36	49.15	-31.0	-32.7	12.7	1.48e-04	0	43	0	770703360	22	4392
2026-01-30 09:53:46.60	20.90	48.93	-30.9	-32.6	12.7	3.28e-05	0	43	0	772800512	22	4363
2026-01-30 09:53:47.61	20.44	48.70	-31.2	-33.4	12.3	6.25e-05	0	43	0	774897664	22	4634
2026-01-30 09:53:48.61	19.99	48.48	-31.5	-33.8	11.7	5.98e-04	0	44	0	775946240	23	4677
2026-01-30 09:53:49.61	19.55	48.26	-31.1	-32.5	12.4	1.08e-04	0	44	0	778043392	23	4242
2026-01-30 09:53:50.62	19.12	48.03	-31.7	-34.3	11.3	3.29e-04	0	44	0	780140544	23	4871
2026-01-30 09:53:51.62	18.69	47.81	-31.8	-34.7	11.0	2.35e-03	0	43	0	782237696	23	5012
2026-01-30 09:53:52.62	18.27	47.58	-31.6	-34.0	11.5	1.57e-03	0	43	0	783286272	23	4758
2026-01-30 09:53:53.62	17.85	47.36	-31.7	-34.3	11.4	8.69e-04	0	43	0	785383424	23	4844
2026-01-30 09:53:54.62	17.44	47.13	-31.9	-34.6	10.8	2.08e-03	0	44	0	787480576	24	4889
2026-01-30 09:53:55.62	17.04	46.91	-32.8	-37.5	8.2	3.27e-02	0	43	0	789577728	25	6175
2026-01-30 09:53:56.62	16.64	46.68	-33.4	-39.8	6.1	1.51e-01	0	43	0	791674880	26	7490
2026-01-30 09:53:57.63	16.25	46.45	-33.1	-38.4	7.1	3.13e-01	0	43	0	792723456	26	6582
2026-01-30 09:53:58.62	15.87	46.23	-32.3	-35.2	9.8	9.66e-02	0	43	0	794820608	25	5061
2026-01-30 09:53:59.63	15.48	46.00	-31.4	-33.1	11.6	1.42e-03	0	43	0	796917760	24	4344
2026-01-30 09:54:00.64	15.10	45.77	-31.4	-33.0	11.8	4.17e-04	0	43	0	799014912	24	4319
2026-01-30 09:54:01.64	14.73	45.54	-31.6	-33.7	11.2	6.62e-04	0	43	0	801112064	24	4572
2026-01-30 09:54:02.64	14.37	45.31	-31.7	-33.9	11.1	1.62e-03	0	43	0	802160640	24	4646
2026-01-30 09:54:03.65	14.01	45.08	-30.9	-31.9	12.8	2.17e-04	0	43	0	804257792	23	4052
2026-01-30 09:54:04.65	13.65	44.86	-30.2	-31.2	13.9	1.06e-05	0	44	0	806354944	21	4011
2026-01-30 09:54:05.65	13.31	44.63	-30.2	-31.2	14.0	5.30e-06	0	44	0	808452096	21	4024
2026-01-30 09:54:06.65	12.96	44.40	-30.4	-31.7	13.6	6.10e-06	0	43	0	810549248	21	4161
2026-01-30 09:54:07.65	12.62	44.18	-30.3	-31.5	13.8	3.00e-06	0	43	0	811597824	21	4107
2026-01-30 09:54:08.66	12.29	43.95	-30.8	-32.7	13.0	2.44e-05	0	44	0	813694976	21	4474
2026-01-30 09:54:09.65	11.96	43.72	-31.1	-33.0	12.4	9.76e-05	0	43	0	815792128	22	4496
2026-01-30 09:54:10.66	11.63	43.50	-31.3	-33.7	11.9	1.46e-04	0	43	0	817889280	22	4760
2026-01-30 09:54:11.66	11.31	43.27	-31.2	-33.4	12.1	3.61e-04	0	44	0	819986432	22	4629
2026-01-30 09:54:12.66	11.00	43.05	-31.7	-34.4	11.2	1.11e-03	0	43	0	821035008	23	4922
2026-01-30 09:54:13.65	10.69	42.82	-31.7	-34.6	11.0	2.46e-03	0	44	0	823132160	23	4982
2026-01-30 09:54:14.65	10.39	42.60	-31.8	-34.6	10.9	2.56e-03	0	43	0	825229312	23	5001
2026-01-30 09:54:15.65	10.08	42.37	-31.6	-34.2	11.3	1.69e-03	0	44	0	827326464	23	4852
2026-01-30 09:54:16.66	9.78	42.15	-31.8	-34.7	10.9	2.84e-03	0	43	0	828375040	23	5042
2026-01-30 09:54:17.66	9.49	41.93	-31.7	-34.6	11.0	2.39e-03	0	44	0	830472192	23	4975
2026-01-30 09:54:18.67	9.20	41.70	-32.1	-35.4	10.0	3.36e-03	0	44	0	832569344	24	5223
2026-01-30 09:54:19.67	8.91	41.48	-31.9	-34.7	10.6	3.54e-03	0	43	0	834666496	24	4934
2026-01-30 09:54:20.67	8.63	41.26	-31.8	-34.3	10.9	2.55e-03	0	43	0	836763648	24	4781
2026-01-30 09:54:21.67	8.35	41.04	-31.5	-33.3	11.6	2.07e-03	0	44	0	837812224	24	4430
2026-01-30 09:54:22.67	8.08	40.82	-31.5	-33.4	11.4	9.60e-04	0	44	0	839909376	24	4471
2026-01-30 09:54:23.68	7.81	40.59	-31.8	-34.4	10.8	2.49e-03	0	43	0	842006528	24	4839
2026-01-30 09:54:24.68	7.54	40.37	-32.0	-35.1	10.2	6.38e-03	0	43	0	844103680	24	5091
2026-01-30 09:54:25.69	7.27	40.15	-32.2	-35.7	9.8	5.42e-03	0	43	0	846200832	24	5359
2026-01-30 09:54:26.69	7.01	39.94	-32.3	-36.2	9.4	1.55e-02	0	44	0	847249408	24	5600
2026-01-30 09:54:27.70	6.76	39.72	-32.4	-36.5	9.2	2.05e-02	0	43	0	849346560	24	5735
2026-01-30 09:54:28.69	6.51	39.50	-32.4	-36.0	9.2	2.41e-02	0	44	0	851443712	25	5434
2026-01-30 09:54:29.70	6.25	39.28	-32.3	-35.6	9.4	1.54e-02	0	43	0	853540864	25	5275
2026-01-30 09:54:30.69	6.01	39.07	-32.1	-34.8	10.0	9.59e-03	0	44	0	855638016	25	4913
2026-01-30 09:54:31.70	5.77	38.86	-31.7	-33.9	11.0	5.71e-03	0	44	0	856686592	24	4633
2026-01-30 09:54:32.69	5.53	38.64	-31.6	-33.8	11.1	1.70e-03	0	43	0	858783744	24	4614
2026-01-30 09:54:33.70	5.29	38.43	-31.6	-33.5	11.3	1.69e-03	0	44	0	860880896	24	4510
2026-01-30 09:54:34.71	5.06	38.22	-31.7	-33.9	11.0	1.02e-03	0	44	0	862978048	24	4668
2026-01-30 09:54:35.71	4.83	38.00	-31.3	-33.3	11.8	8.13e-04	0	43	0	865075200	23	4523
2026-01-30 09:54:36.70	4.60	37.80	-31.8	-34.9	10.7	1.52e-03	0	43	0	866123776	23	5132
2026-01-30 09:54:37.71	4.38	37.58	-32.1	-35.3	9.9	7.33e-03	0	43	0	868220928	24	5232
2026-01-30 09:54:38.71	4.16	37.38	-32.3	-36.3	9.2	7.80e-03	0	43	0	870318080	24	5685
2026-01-30 09:54:39.71	3.94	37.17	-32.0	-35.2	10.1	2.01e-02	0	44	0	872415232	24	5164
2026-01-30 09:54:40.71	3.72	36.96	-31.6	-33.7	11.1	2.03e-03	0	43	0	873463808	24	4572
2026-01-30 09:54:41.72	3.51	36.75	-30.9	-32.0	12.7	3.00e-04	0	44	0	875560960	23	4103
2026-01-30 09:54:42.72	3.30	36.55	-30.4	-31.3	13.5	5.49e-05	0	44	0	877658112	22	3973
2026-01-30 09:54:43.73	3.09	36.34	-30.9	-32.6	12.8	2.67e-05	0	43	0	879755264	22	4374
2026-01-30 09:54:44.73	2.88	36.14	-31.3	-34.0	11.6	2.01e-04	0	43	0	881852416	22	4886
2026-01-30 09:54:45.73	2.68	35.93	-31.9	-35.2	10.3	2.79e-03	0	44	0	882900992	23	5293
2026-01-30 09:54:46.73	2.48	35.73	-31.7	-34.6	10.7	5.18e-03	0	44	0	884998144	23	5051
2026-01-30 09:54:47.74	2.28	35.53	-31.4	-33.7	11.4	1.20e-03	0	44	0	887095296	23	4699
2026-01-30 09:54:48.74	2.09	35.33	-31.2	-33.2	11.7	6.58e-04	0	44	0	889192448	23	4501
2026-01-30 09:54:49.75	1.90	35.13	-31.5	-33.9	11.2	7.94e-04	0	44	0	891289600	23	4784
2026-01-30 09:54:50.75	1.71	34.93	-31.4	-33.7	11.5	6.48e-04	0	44	0	892338176	23	4689
2026-01-30 09:54:51.75	1.52	34.73	-31.4	-33.6	11.4	1.13e-03	0	43	0	894435328	23	4680
2026-01-30 09:54:52.75	1.33	34.54	-30.7	-32.2	12.7	2.84e-04	0	44	0	896532480	22	4282
2026-01-30 09:54:53.75	1.15	34.34	-30.6	-31.9	12.9	3.43e-05	0	44	0	898629632	22	4176
2026-01-30 09:54:54.75	0.97	34.15	-30.6	-31.9	12.9	2.36e-05	0	44	0	900726784	22	4169
2026-01-30 09:54:55.76	0.79	33.95	-31.0	-33.0	12.2	9.38e-05	0	44	0	901775360	22	4526
2026-01-30 09:54:56.75	0.62	33.76	-31.3	-34.0	11.5	4.16e-04	0	44	0	903872512	22	4912
2026-01-30 09:54:57.76	0.44	33.57	-31.7	-34.6	10.8	2.54e-03	0	44	0	905969664	23	5044
2026-01-30 09:54:58.76	0.27	33.37	-31.6	-34.3	11.0	2.88e-03	0	43	0	908066816	23	4923
2026-01-30 09:54:59.76	0.10	33.18	-31.3	-33.3	11.7	9.57e-04	0	43	0	910163968	23	4539
2026-01-30 09:55:00.76	359.93	33.00	-31.2	-33.0	11.8	3.62e-04	0	44	0	911212544	23	4434
2026-01-30 09:55:01.76	359.77	32.81	-31.5	-33.9	11.3	3.86e-04	0	43	0	913309696	23	4753
2026-01-30 09:55:02.76	359.60	32.62	-31.8	-34.9	10.6	2.42e-03	0	44	0	915406848	23	5165
2026-01-30 09:55:03.77	359.44	32.43	-32.4	-36.5	8.9	7.44e-03	0	44	0	917504000	24	5788
2026-01-30 09:55:04.77	359.28	32.25	-32.4	-36.5	8.5	5.53e-02	0	44	0	918552576	25	5720
2026-01-30 09:55:05.78	359.12	32.06	-32.0	-35.0	9.6	2.14e-02	0	44	0	920649728	25	5041
2026-01-30 09:55:06.77	358.96	31.88	-31.5	-33.7	10.9	6.04e-03	0	44	0	922746880	24	4607
2026-01-30 09:55:07.78	358.81	31.69	-30.9	-32.1	12.3	2.08e-04	0	44	0	924844032	23	4174
2026-01-30 09:55:08.79	358.65	31.51	-30.7	-32.2	12.7	6.71e-05	0	44	0	926941184	22	4273
2026-01-30 09:55:09.79	358.50	31.33	-30.9	-32.7	12.3	1.35e-04	0	44	0	927989760	22	4423
2026-01-30 09:55:10.80	358.35	31.14	-31.3	-33.9	11.5	4.74e-04	0	44	0	930086912	22	4872
2026-01-30 09:55:11.80	358.20	30.96	-31.2	-33.6	11.7	5.52e-04	0	44	0	932184064	22	4747
2026-01-30 09:55:12.80	358.06	30.79	-30.8	-32.4	12.6	1.60e-04	0	44	0	934281216	22	4333
2026-01-30 09:55:13.80	357.91	30.61	-30.4	-31.5	13.1	6.02e-05	0	44	0	936378368	22	4049
2026-01-30 09:55:14.81	357.77	30.43	-30.2	-31.2	13.6	1.06e-05	0	44	0	937426944	21	4062
2026-01-30 09:55:15.81	357.63	30.25	-30.6	-32.4	12.9	2.82e-05	0	44	0	939524096	21	4423
2026-01-30 09:55:16.81	357.49	30.08	-30.8	-33.2	12.4	7.32e-05	0	44	0	941621248	21	4708
2026-01-30 09:55:17.81	357.35	29.91	-31.3	-33.9	11.5	6.09e-04	0	44	0	943718400	22	4862
2026-01-30 09:55:18.82	357.21	29.73	-31.7	-34.8	10.5	2.27e-03	0	44	0	945815552	23	5153
2026-01-30 09:55:19.82	357.08	29.56	-31.6	-34.4	10.8	4.06e-03	0	43	0	946864128	23	4987
2026-01-30 09:55:20.83	356.94	29.38	-31.3	-33.6	11.3	1.47e-03	0	43	0	948961280	23	4654
2026-01-30 09:55:21.83	356.81	29.21	-30.9	-32.3	12.2	4.26e-04	0	44	0	951058432	23	4234
2026-01-30 09:55:22.84	356.68	29.04	-30.9	-32.2	12.4	1.50e-04	0	43	0	953155584	23	4172
2026-01-30 09:55:23.85	356.55	28.87	-30.6	-32.0	12.9	9.84e-05	0	43	0	955252736	22	4197
2026-01-30 09:55:24.85	356.42	28.70	-30.6	-31.8	13.0	4.34e-05	0	44	0	956301312	22	4158
2026-01-30 09:55:25.86	356.29	28.54	-30.8	-32.4	12.5	6.25e-05	0	44	0	958398464	22	4330
2026-01-30 09:55:26.87	356.16	28.37	-31.0	-33.0	12.1	2.13e-04	0	44	0	960495616	22	4527
2026-01-30 09:55:27.87	356.04	28.20	-30.9	-32.8	12.3	2.35e-04	0	44	0	962592768	22	4462
2026-01-30 09:55:28.88	355.92	28.04	-30.9	-32.7	12.3	1.24e-04	0	44	0	964689920	22	4442
2026-01-30 09:55:29.87	355.80	27.87	-30.7	-32.2	12.6	1.26e-04	0	44	0	965738496	22	4264
2026-01-30 09:55:30.88	355.68	27.71	-30.8	-32.4	12.6	1.06e-04	0	44	0	967835648	22	4322
2026-01-30 09:55:31.88	355.56	27.55	-30.6	-31.8	12.9	5.49e-05	0	44	0	969932800	22	4129
2026-01-30 09:55:32.87	355.44	27.39	-30.7	-32.0	12.7	3.89e-05	0	44	0	972029952	22	4212
2026-01-30 09:55:33.88	355.32	27.22	-30.9	-32.8	12.3	1.16e-04	0	44	0	974127104	22	4464
2026-01-30 09:55:34.88	355.21	27.06	-31.2	-33.6	11.8	3.93e-04	0	44	0	975175680	22	4733
2026-01-30 09:55:35.88	355.09	26.91	-31.7	-34.6	10.7	1.36e-03	0	44	0	977272832	23	5029
2026-01-30 09:55:36.88	354.98	26.75	-31.7	-34.7	10.7	3.99e-03	0	44	0	979369984	23	5071
2026-01-30 09:55:37.88	354.87	26.59	-31.8	-35.2	10.2	5.74e-03	0	44	0	981467136	23	5277
2026-01-30 09:55:38.88	354.76	26.43	-31.9	-35.3	10.1	7.41e-03	0	44	0	982515712	23	5336
2026-01-30 09:55:39.89	354.65	26.28	-31.6	-34.3	10.8	3.86e-03	0	44	0	984612864	23	4944
2026-01-30 09:55:40.89	354.54	26.12	-31.5	-33.9	11.1	1.71e-03	0	43	0	986710016	23	4793
2026-01-30 09:55:41.89	354.43	25.97	-31.4	-33.8	11.1	1.34e-03	0	43	0	988807168	23	4737
2026-01-30 09:55:42.89	354.33	25.81	-31.2	-33.1	11.7	6.74e-04	0	43	0	990904320	23	4493
2026-01-30 09:55:43.89	354.22	25.66	-31.2	-33.0	11.8	7.38e-04	0	43	0	991952896	23	4436
2026-01-30 09:55:44.89	354.12	25.51	-31.3	-33.3	11.6	5.64e-04	0	43	0	994050048	23	4537
2026-01-30 09:55:45.89	354.02	25.36	-31.1	-32.9	11.8	4.59e-04	0	44	0	996147200	23	4407
2026-01-30 09:55:46.89	353.91	25.21	-30.9	-32.2	12.3	2.01e-04	0	44	0	998244352	23	4188
2026-01-30 09:55:47.89	353.81	25.06	-30.8	-32.3	12.5	1.17e-04	0	44	0	1000341504	22	4316
2026-01-30 09:55:48.90	353.71	24.91	-30.6	-31.7	13.0	4.88e-05	0	44	0	1001390080	22	4131
2026-01-30 09:55:49.91	353.61	24.76	-30.7	-32.1	12.8	5.11e-05	0	44	0	1003487232	22	4226
2026-01-30 09:55:50.91	353.52	24.61	-30.7	-32.2	12.7	5.64e-05	0	43	0	1005584384	22	4272
2026-01-30 09:55:51.91	353.42	24.46	-30.8	-32.4	12.5	9.84e-05	0	43	0	1007681536	22	4337
2026-01-30 09:55:52.92	353.32	24.32	-30.9	-32.7	12.3	1.42e-04	0	44	0	1009778688	22	4444
2026-01-30 09:55:53.91	353.23	24.17	-31.1	-33.3	11.9	2.37e-04	0	44	0	1010827264	22	4656
2026-01-30 09:55:54.92	353.13	24.03	-31.1	-33.2	12.0	3.91e-04	0	44	0	1012924416	22	4593
2026-01-30 09:55:55.92	353.04	23.88	-31.2	-33.7	11.6	5.31e-04	0	43	0	1015021568	22	4773
2026-01-30 09:55:56.92	352.95	23.74	-31.0	-33.2	11.9	4.32e-04	0	44	0	1017118720	22	4603
2026-01-30 09:55:57.92	352.85	23.60	-30.8	-32.6	12.3	2.10e-04	0	43	0	1019215872	22	4394
2026-01-30 09:55:58.93	352.76	23.45	-30.5	-31.7	13.0	4.57e-05	0	44	0	1020264448	22	4127
2026-01-30 09:55:59.93	352.67	23.31	-30.5	-31.6	13.0	4.04e-05	0	44	0	1022361600	22	4082
2026-01-30 09:56:00.93	352.58	23.17	-30.2	-31.2	13.5	1.83e-05	0	43	0	1024458752	21	4069
2026-01-30 09:56:01.93	352.50	23.03	-30.0	-30.8	13.8	6.10e-06	0	43	0	1026555904	21	3956
2026-01-30 09:56:02.93	352.41	22.89	-30.2	-31.2	13.6	1.22e-05	0	44	0	1027604480	21	4050
2026-01-30 09:56:03.93	352.32	22.76	-30.3	-31.5	13.4	1.14e-05	0	43	0	1029701632	21	4146
2026-01-30 09:56:04.93	352.24	22.62	-30.4	-31.9	13.1	1.67e-05	0	44	0	1031798784	21	4262
2026-01-30 09:56:05.94	352.15	22.48	-30.8	-33.0	12.4	8.01e-05	0	44	0	1033895936	21	4656
2026-01-30 09:56:06.94	352.07	22.34	-31.3	-33.9	11.4	4.99e-04	0	44	0	1035993088	22	4891
2026-01-30 09:56:07.94	351.98	22.21	-31.6	-34.5	10.6	1.85e-03	0	44	0	1037041664	23	5030
2026-01-30 09:56:08.94	351.90	22.07	-31.9	-35.7	9.7	8.12e-03	0	43	0	1039138816	23	5587
2026-01-30 09:56:09.94	351.82	21.94	-32.2	-36.2	9.1	1.98e-02	0	44	0	1041235968	24	5719
2026-01-30 09:56:10.95	351.74	21.80	-32.0	-35.7	9.3	2.81e-02	0	44	0	1043333120	24	5465
2026-01-30 09:56:11.95	351.65	21.67	-32.0	-35.4	9.5	1.42e-02	0	44	0	1045430272	24	5337
2026-01-30 09:56:12.96	351.57	21.54	-31.7	-34.3	10.3	4.87e-03	0	44	0	1046478848	24	4866
2026-01-30 09:56:13.96	351.50	21.41	-31.5	-33.9	10.6	2.89e-03	0	44	0	1048576000	24	4718
2026-01-30 09:56:14.97	351.42	21.27	-31.2	-33.4	11.4	1.86e-03	0	44	0	1050673152	23	4599
2026-01-30 09:56:15.96	351.34	21.14	-31.3	-33.5	11.3	1.11e-03	0	43	0	1052770304	23	4631
2026-01-30 09:56:16.97	351.26	21.01	-30.8	-32.1	12.2	5.55e-04	0	44	0	1054867456	23	4178
2026-01-30 09:56:17.97	351.19	20.88	-30.9	-32.7	12.2	2.10e-04	0	44	0	1055916032	22	4456
2026-01-30 09:56:18.97	351.11	20.76	-30.7	-32.2	12.4	1.68e-04	0	44	0	1058013184	22	4300
2026-01-30 09:56:19.98	351.03	20.63	-30.6	-31.8	12.8	7.32e-05	0	44	0	1060110336	22	4170
2026-01-30 09:56:20.98	350.96	20.50	-30.6	-31.9	12.7	9.30e-05	0	44	0	1062207488	22	4184
2026-01-30 09:56:21.98	350.89	20.37	-30.5	-31.8	12.8	1.04e-04	0	43	0	1064304640	22	4157
2026-01-30 09:56:22.98	350.81	20.25	-30.7	-32.2	12.5	7.93e-05	0	43	0	1065353216	22	4286
2026-01-30 09:56:23.99	350.74	20.12	-30.5	-31.8	12.7	6.40e-05	0	44	0	1067450368	22	4173
2026-01-30 09:56:24.99	350.67	19.99	-30.4	-31.3	13.1	3.20e-05	0	44	0	1069547520	22	4017
2026-01-30 09:56:26.00	350.60	19.87	-30.1	-31.2	13.5	1.60e-05	0	44	0	1071644672	21	4062
2026-01-30 09:56:27.00	350.53	19.74	-30.0	-30.9	13.6	8.30e-06	0	43	0	1073741824	21	3990
2026-01-30 09:56:28.01	350.45	19.62	-30.1	-31.2	13.4	9.90e-06	0	44	0	1074790400	21	4069
2026-01-30 09:56:29.02	350.38	19.50	-29.7	-30.6	14.2	2.20e-06	0	43	0	1076887552	20	3971
2026-01-30 09:56:30.01	350.32	19.37	-29.5	-30.1	14.4	1.50e-06	0	43	0	1078984704	20	3833
2026-01-30 09:56:31.02	350.25	19.25	-29.3	-29.6	14.7	7.00e-07	0	44	0	1081081856	20	3720
2026-01-30 09:56:32.02	350.18	19.13	-29.4	-30.3	14.7	0.00e+00	0	44	0	1083179008	19	3984
2026-01-30 09:56:33.03	350.11	19.01	-29.4	-30.3	14.7	7.00e-07	0	44	0	1084227584	19	3972
2026-01-30 09:56:34.04	350.05	18.89	-29.4	-30.4	14.6	0.00e+00	0	43	0	1086324736	19	3996
2026-01-30 09:56:35.04	349.98	18.77	-29.4	-30.4	14.6	0.00e+00	0	43	0	1088421888	19	4000
2026-01-30 09:56:36.05	349.91	18.65	-29.6	-30.8	14.4	7.00e-07	0	44	0	1090519040	19	4122
2026-01-30 09:56:37.06	349.85	18.53	-29.6	-30.7	14.4	0.00e+00	0	44	0	1092616192	19	4098
2026-01-30 09:56:38.06	349.78	18.41	-29.8	-31.2	14.1	0.00e+00	0	43	0	1093664768	19	4231
2026-01-30 09:56:39.07	349.72	18.29	-29.8	-31.3	14.0	4.50e-06	0	43	0	1095761920	19	4288
2026-01-30 09:56:40.07	349.66	18.18	-29.9	-31.2	13.7	5.30e-06	0	44	0	1097859072	20	4172
2026-01-30 09:56:41.07	349.59	18.06	-29.8	-30.9	13.8	6.80e-06	0	44	0	1099956224	20	4090
2026-01-30 09:56:42.08	349.53	17.94	-30.2	-31.8	13.3	7.60e-06	0	43	0	1101004800	20	4355
2026-01-30 09:56:43.08	349.47	17.83	-30.3	-32.2	13.1	2.82e-05	0	43	0	1103101952	20	4469
2026-01-30 09:56:44.09	349.41	17.71	-30.4	-32.6	12.8	3.35e-05	0	44	0	1105199104	20	4615
2026-01-30 09:56:45.09	349.35	17.60	-30.7	-32.7	12.4	6.79e-05	0	44	0	1107296256	21	4570
2026-01-30 09:56:46.10	349.28	17.48	-30.7	-32.8	12.3	1.92e-04	0	44	0	1109393408	21	4609
2026-01-30 09:56:47.11	349.22	17.37	-30.7	-33.0	12.1	1.79e-04	0	44	0	1111490560	21	4664
2026-01-30 09:56:48.12	349.16	17.25	-30.8	-33.0	12.1	2.25e-04	0	44	0	1112539136	21	4682
2026-01-30 09:56:49.11	349.11	17.14	-31.0	-33.3	11.6	7.39e-04	0	43	0	1114636288	22	4694
2026-01-30 09:56:50.12	349.05	17.03	-31.1	-33.6	11.3	1.24e-03	0	44	0	1116733440	22	4805
2026-01-30 09:56:51.12	348.99	16.92	-31.2	-34.0	11.1	1.51e-03	0	44	0	1118830592	22	4933
2026-01-30 09:56:52.12	348.93	16.81	-31.4	-34.4	10.8	2.09e-03	0	44	0	1119879168	22	5126
2026-01-30 09:56:53.12	348.87	16.70	-31.5	-34.7	10.5	2.97e-03	0	44	0	1121976320	22	5255
2026-01-30 09:56:54.12	348.82	16.59	-31.6	-34.8	10.1	4.17e-03	0	44	0	1124073472	23	5169
2026-01-30 09:56:55.13	348.76	16.48	-31.8	-35.5	9.6	1.08e-02	0	44	0	1126170624	23	5491
2026-01-30 09:56:56.13	348.71	16.37	-31.6	-34.6	10.3	7.43e-03	0	44	0	1128267776	23	5106
2026-01-30 09:56:57.13	348.65	16.26	-31.4	-34.0	10.6	4.86e-03	0	44	0	1129316352	23	4880
2026-01-30 09:56:58.13	348.60	16.15	-31.3	-33.6	11.0	2.77e-03	0	44	0	1131413504	23	4726
2026-01-30 09:56:59.13	348.54	16.04	-31.0	-32.9	11.4	1.21e-03	0	44	0	1133510656	23	4477
2026-01-30 09:57:00.13	348.49	15.94	-31.0	-32.7	11.5	6.08e-04	0	44	0	1135607808	23	4409
2026-01-30 09:57:01.13	348.43	15.83	-30.9	-32.4	11.7	5.93e-04	0	44	0	1137704960	23	4292
2026-01-30 09:57:02.14	348.38	15.72	-30.8	-32.6	12.0	4.32e-04	0	44	0	1138753536	22	4434
2026-01-30 09:57:03.15	348.33	15.61	-30.7	-32.3	12.2	2.23e-04	0	44	0	1140850688	22	4348
2026-01-30 09:57:04.15	348.27	15.51	-30.5	-31.9	12.4	1.57e-04	0	44	0	1142947840	22	4218
2026-01-30 09:57:05.15	348.22	15.40	-30.2	-31.4	13.1	6.94e-05	0	44	0	1145044992	21	4140
2026-01-30 09:57:06.15	348.17	15.30	-30.1	-31.4	13.2	2.13e-05	0	44	0	1147142144	21	4149
2026-01-30 09:57:07.15	348.12	15.20	-30.2	-31.5	13.0	4.50e-05	0	44	0	1148190720	21	4186
2026-01-30 09:57:08.16	348.07	15.09	-30.0	-31.1	13.3	2.59e-05	0	44	0	1150287872	21	4053
2026-01-30 09:57:09.16	348.02	14.99	-30.0	-30.8	13.4	1.52e-05	0	44	0	1152385024	21	3980
2026-01-30 09:57:10.17	347.97	14.88	-30.1	-31.3	13.2	1.75e-05	0	44	0	1154482176	21	4122
2026-01-30 09:57:11.17	347.92	14.78	-30.0	-31.0	13.3	1.75e-05	0	44	0	1156579328	21	4047
2026-01-30 09:57:12.17	347.87	14.68	-30.1	-31.3	13.1	2.51e-05	0	44	0	1157627904	21	4133
2026-01-30 09:57:13.17	347.82	14.58	-30.2	-31.7	12.9	3.43e-05	0	44	0	1159725056	21	4246
2026-01-30 09:57:14.17	347.77	14.48	-30.4	-32.0	12.6	6.10e-05	0	44	0	1161822208	21	4367
2026-01-30 09:57:15.16	347.72	14.38	-30.3	-31.9	12.7	8.92e-05	0	44	0	1163919360	21	4328
2026-01-30 09:57:16.17	347.67	14.27	-30.4	-32.1	12.5	8.77e-05	0	43	0	1164967936	21	4392
2026-01-30 09:57:17.17	347.63	14.17	-30.5	-32.6	12.2	2.14e-04	0	44	0	1167065088	21	4543
2026-01-30 09:57:18.17	347.58	14.07	-30.6	-32.9	12.0	2.49e-04	0	44	0	1169162240	21	4660
2026-01-30 09:57:19.18	347.53	13.97	-30.7	-32.9	11.9	2.96e-04	0	44	0	1171259392	21	4677
2026-01-30 09:57:20.18	347.49	13.88	-30.7	-33.2	11.8	4.96e-04	0	44	0	1173356544	21	4754
2026-01-30 09:57:21.19	347.44	13.78	-31.0	-33.9	11.3	8.41e-04	0	44	0	1174405120	21	5034
2026-01-30 09:57:22.19	347.39	13.68	-30.9	-33.1	11.3	9.31e-04	0	43	0	1176502272	22	4636
2026-01-30 09:57:23.19	347.35	13.58	-31.0	-33.3	11.3	7.19e-04	0	44	0	1178599424	22	4719
2026-01-30 09:57:24.19	347.30	13.48	-31.0	-33.3	11.3	1.12e-03	0	44	0	1180696576	22	4733
2026-01-30 09:57:25.20	347.26	13.38	-30.9	-33.1	11.4	1.05e-03	0	44	0	1182793728	22	4656
2026-01-30 09:57:26.20	347.21	13.29	-31.0	-33.3	11.3	1.05e-03	0	44	0	1183842304	22	4734
2026-01-30 09:57:27.20	347.17	13.19	-31.1	-33.9	10.9	1.64e-03	0	44	0	1185939456	22	4956
2026-01-30 09:57:28.21	347.12	13.09	-30.9	-33.1	11.5	1.54e-03	0	44	0	1188036608	22	4632
2026-01-30 09:57:29.21	347.08	13.00	-31.0	-33.4	11.3	1.27e-03	0	44	0	1190133760	22	4742
2026-01-30 09:57:30.20	347.04	12.90	-31.0	-33.6	11.2	1.47e-03	0	44	0	1192230912	22	4821
2026-01-30 09:57:31.21	347.00	12.81	-31.1	-33.8	10.9	1.57e-03	0	44	0	1193279488	22	4928
2026-01-30 09:57:32.21	346.95	12.71	-31.2	-34.1	10.7	2.59e-03	0	44	0	1195376640	22	5009
2026-01-30 09:57:33.22	346.91	12.62	-31.0	-33.5	11.1	1.72e-03	0	44	0	1197473792	22	4795
2026-01-30 09:57:34.22	346.87	12.53	-31.1	-33.9	10.9	2.47e-03	0	43	0	1199570944	22	4941
2026-01-30 09:57:35.23	346.83	12.43	-30.8	-32.9	11.5	1.31e-03	0	44	0	1201668096	22	4584
2026-01-30 09:57:36.23	346.78	12.34	-30.6	-32.2	12.0	7.66e-04	0	44	0	1202716672	22	4345
2026-01-30 09:57:37.23	346.74	12.24	-30.5	-32.0	12.2	2.53e-04	0	44	0	1204813824	22	4267
2026-01-30 09:57:38.24	346.70	12.15	-30.5	-32.1	12.1	1.74e-04	0	44	0	1206910976	22	4301
2026-01-30 09:57:39.24	346.66	12.06	-30.5	-32.0	12.2	1.94e-04	0	43	0	1209008128	22	4263
2026-01-30 09:57:40.24	346.62	11.97	-30.4	-31.7	12.4	1.75e-04	0	44	0	1210056704	22	4165
2026-01-30 09:57:41.24	346.58	11.88	-30.3	-31.5	12.5	1.26e-04	0	44	0	1212153856	22	4121
2026-01-30 09:57:42.25	346.54	11.78	-30.4	-31.6	12.4	1.10e-04	0	44	0	1214251008	22	4164
2026-01-30 09:57:43.24	346.50	11.69	-30.2	-31.8	12.6	8.39e-05	0	44	0	1216348160	21	4293
2026-01-30 09:57:44.24	346.46	11.60	-30.4	-32.3	12.2	1.45e-04	0	44	0	1218445312	21	4456
2026-01-30 09:57:45.25	346.42	11.51	-30.4	-32.2	12.3	1.69e-04	0	44	0	1219493888	21	4449
2026-01-30 09:57:46.24	346.38	11.42	-30.4	-32.4	12.2	2.01e-04	0	44	0	1221591040	21	4491
2026-01-30 09:57:47.24	346.35	11.33	-30.4	-32.2	12.3	2.64e-04	0	44	0	1223688192	21	4452
2026-01-30 09:57:48.25	346.31	11.24	-30.5	-32.4	12.1	2.31e-04	0	44	0	1225785344	21	4513
2026-01-30 09:57:49.25	346.27	11.16	-30.6	-32.8	11.9	4.76e-04	0	43	0	1227882496	21	4631
2026-01-30 09:57:50.25	346.23	11.07	-30.5	-32.6	12.0	3.62e-04	0	44	0	1228931072	21	4566
2026-01-30 09:57:51.25	346.19	10.98	-30.6	-32.9	11.8	4.36e-04	0	43	0	1231028224	21	4679
2026-01-30 09:57:52.26	346.16	10.89	-30.8	-33.3	11.4	7.36e-04	0	44	0	1233125376	21	4824
2026-01-30 09:57:53.26	346.12	10.80	-30.7	-33.1	11.6	5.95e-04	0	43	0	1235222528	21	4756
2026-01-30 09:57:54.26	346.08	10.71	-30.7	-33.3	11.5	7.80e-04	0	44	0	1237319680	21	4822
2026-01-30 09:57:55.27	346.05	10.63	-30.8	-33.4	11.4	8.45e-04	0	44	0	1238368256	21	4859
2026-01-30 09:57:56.27	346.01	10.54	-30.8	-33.5	11.3	1.04e-03	0	44	0	1240465408	21	4914
2026-01-30 09:57:57.28	345.97	10.45	-30.7	-33.3	11.4	7.93e-04	0	44	0	1242562560	21	4858
2026-01-30 09:57:58.28	345.94	10.37	-30.9	-33.7	11.1	1.14e-03	0	44	0	1244659712	21	5003
2026-01-30 09:57:59.28	345.90	10.28	-30.9	-33.8	11.0	1.58e-03	0	44	0	1246756864	21	5024
2026-01-30 09:58:00.28	345.87	10.19	-30.8	-33.4	11.3	1.22e-03	0	44	0	1247805440	21	4867
2026-01-30 09:58:01.29	345.83	10.11	-30.8	-33.7	11.2	1.35e-03	0	43	0	1249902592	21	4989
2026-01-30 09:58:02.29	345.80	10.02	-30.8	-33.6	11.2	2.10e-03	0	43	0	1251999744	21	4959
2026-01-30 09:58:03.30	345.76	9.94	-30.9	-33.8	11.1	1.49e-03	0	44	0	1254096896	21	5023
2026-01-30 09:58:04.30	345.73	9.85	-30.9	-33.8	11.0	1.76e-03	0	44	0	1256194048	21	5049
2026-01-30 09:58:05.30	345.69	9.77	-30.9	-33.9	10.9	2.02e-03	0	44	0	1257242624	21	5078
2026-01-30 09:58:06.31	345.66	9.68	-30.9	-33.8	11.0	1.87e-03	0	44	0	1259339776	21	5049
2026-01-30 09:58:07.30	345.62	9.60	-30.9	-33.8	11.0	1.90e-03	0	43	0	1261436928	21	5053
2026-01-30 09:58:08.31	345.59	9.52	-30.9	-33.8	11.0	1.99e-03	0	44	0	1263534080	21	5042
2026-01-30 09:58:09.31	345.56	9.43	-30.9	-33.8	11.0	2.11e-03	0	44	0	1264582656	21	5034
2026-01-30 09:58:10.32	345.52	9.35	-30.8	-33.6	11.2	1.85e-03	0	44	0	1266679808	21	4962
2026-01-30 09:58:11.33	345.49	9.27	-30.9	-34.1	10.8	1.82e-03	0	44	0	1268776960	21	5148
2026-01-30 09:58:12.34	345.46	9.18	-31.0	-33.7	10.7	3.16e-03	0	44	0	1270874112	22	4924
2026-01-30 09:58:13.34	345.43	9.10	-30.9	-33.3	11.0	2.11e-03	0	43	0	1272971264	22	4753
2026-01-30 09:58:14.34	345.39	9.02	-31.0	-33.7	10.7	2.76e-03	0	44	0	1274019840	22	4925
2026-01-30 09:58:15.35	345.36	8.94	-31.1	-34.0	10.4	5.45e-03	0	44	0	1276116992	22	5048
2026-01-30 09:58:16.35	345.33	8.86	-30.9	-33.4	10.9	3.74e-03	0	44	0	1278214144	22	4798
2026-01-30 09:58:17.36	345.30	8.77	-30.9	-33.4	10.8	2.24e-03	0	44	0	1280311296	22	4809
2026-01-30 09:58:18.37	345.27	8.69	-30.9	-33.6	10.7	2.70e-03	0	44	0	1282408448	22	4888
2026-01-30 09:58:19.36	345.23	8.61	-30.9	-33.5	10.8	2.86e-03	0	44	0	1283457024	22	4835
2026-01-30 09:58:20.37	345.20	8.53	-31.0	-33.7	10.6	2.70e-03	0	43	0	1285554176	22	4936
