passes_logs/2026/01/30/R2M6_AANII_01/R2M6_AANII_01__20260130_010430_NOAA_21_JPSS-2_rec.log

#Pass ID: 20260130_010430_NOAA 21 (JPSS-2)
#Satellite: NOAA 21 (JPSS-2)
#Configuration: NOAA 21
#almurnet v.1.7.20240730
#Start time: 2026-01-30 01:04:32

#Version: 2.2.20231116
#Station: R2M6_AANII_01
#Location: 30.233357 lon 59.946436 lat
#TLE: 1 54234U 22150A   26028.89828222  .00000145  00000+0  89569-4 0  9997
#TLE: 2 54234  98.7511 329.6308 0000927 198.8651 161.2491 14.19540676166783

#Time	Az	El	Level	Level2	SNR	BER	BlckErr	Temp	State	Recorded	gain1	gain2
2026-01-30 01:04:32.10	14.63	7.14	-31.1	-36.2	4.6	1.41e+00	0	42	0	0	22	6435
2026-01-30 01:04:33.10	14.59	7.22	-31.1	-35.9	4.7	1.40e+00	0	42	104	0	22	6289
2026-01-30 01:04:34.11	14.55	7.29	-31.2	-35.8	8.3	4.60e-02	0	42	0	0	22	6050
2026-01-30 01:04:35.11	14.52	7.37	-31.4	-36.4	7.8	7.47e-02	0	42	0	3145728	22	6357
2026-01-30 01:04:36.11	14.48	7.45	-31.2	-35.5	8.4	5.34e-02	0	42	0	6291456	22	5941
2026-01-30 01:04:37.12	14.45	7.52	-30.9	-34.7	9.1	2.78e-02	0	42	0	9437184	22	5546
2026-01-30 01:04:38.13	14.41	7.60	-30.7	-34.5	9.5	1.80e-02	0	42	0	12582912	21	5556
2026-01-30 01:04:39.13	14.37	7.68	-30.6	-34.1	9.8	9.93e-03	0	42	0	15728640	21	5403
2026-01-30 01:04:40.13	14.34	7.75	-30.5	-33.9	10.0	8.01e-03	0	42	0	18874368	21	5296
2026-01-30 01:04:41.14	14.30	7.83	-30.5	-34.3	10.1	6.34e-03	0	42	0	22020096	20	5574
2026-01-30 01:04:42.15	14.26	7.91	-30.5	-33.9	10.0	7.05e-03	0	42	0	24117248	21	5304
2026-01-30 01:04:43.15	14.22	7.99	-30.9	-34.9	9.3	1.89e-02	0	42	0	27262976	21	5752
2026-01-30 01:04:44.15	14.19	8.07	-30.5	-33.8	10.1	8.08e-03	0	42	0	31457280	21	5286
2026-01-30 01:04:45.15	14.15	8.14	-30.2	-33.3	10.8	3.74e-03	0	42	0	33554432	20	5191
2026-01-30 01:04:46.15	14.11	8.22	-29.8	-32.5	11.3	1.35e-03	0	42	0	36700160	20	4878
2026-01-30 01:04:47.15	14.07	8.30	-29.6	-32.4	11.8	5.60e-04	0	42	0	40894464	19	4941
2026-01-30 01:04:48.16	14.03	8.38	-29.4	-31.7	12.3	2.03e-04	0	42	0	44040192	19	4696
2026-01-30 01:04:49.16	13.99	8.46	-29.2	-31.6	12.7	1.05e-04	0	42	0	47185920	18	4784
2026-01-30 01:04:50.17	13.96	8.54	-29.0	-31.3	12.9	4.50e-05	0	42	0	49283072	18	4675
2026-01-30 01:04:51.17	13.92	8.62	-28.9	-31.5	13.0	3.96e-05	0	42	0	52428800	17	4863
2026-01-30 01:04:52.17	13.88	8.70	-28.8	-31.4	13.1	3.35e-05	0	42	0	55574528	17	4805
2026-01-30 01:04:53.18	13.84	8.78	-28.9	-31.5	13.1	2.51e-05	0	42	0	58720256	17	4854
2026-01-30 01:04:54.18	13.80	8.86	-28.9	-31.4	13.1	2.97e-05	0	42	0	61865984	17	4815
2026-01-30 01:04:55.19	13.76	8.94	-28.9	-31.5	13.1	2.59e-05	0	42	0	65011712	17	4846
2026-01-30 01:04:56.19	13.72	9.02	-28.8	-31.3	13.2	2.89e-05	0	42	0	68157440	17	4785
2026-01-30 01:04:57.20	13.67	9.10	-28.8	-31.4	13.2	2.28e-05	0	42	0	71303168	17	4806
2026-01-30 01:04:58.20	13.63	9.18	-28.9	-31.5	13.1	2.89e-05	0	42	0	74448896	17	4846
2026-01-30 01:04:59.20	13.59	9.27	-28.8	-31.3	13.2	2.74e-05	0	42	0	77594624	17	4776
2026-01-30 01:05:00.20	13.55	9.35	-28.9	-31.6	13.1	3.28e-05	0	42	0	80740352	17	4870
2026-01-30 01:05:01.20	13.51	9.43	-29.2	-31.6	12.8	5.87e-05	0	42	0	83886080	18	4768
2026-01-30 01:05:02.20	13.47	9.51	-29.3	-32.1	12.5	1.43e-04	0	42	0	87031808	18	4930
2026-01-30 01:05:03.20	13.42	9.59	-29.1	-31.4	12.9	6.25e-05	0	43	0	90177536	18	4700
2026-01-30 01:05:04.19	13.38	9.68	-28.8	-31.3	13.3	2.36e-05	0	42	0	93323264	17	4775
2026-01-30 01:05:05.19	13.34	9.76	-28.7	-30.9	13.5	1.06e-05	0	42	0	96468992	17	4653
2026-01-30 01:05:06.19	13.30	9.84	-28.6	-30.6	13.7	8.30e-06	0	42	0	99614720	17	4561
2026-01-30 01:05:07.19	13.25	9.93	-28.5	-30.6	13.7	8.30e-06	0	42	0	102760448	17	4548
2026-01-30 01:05:08.20	13.21	10.01	-28.5	-30.4	13.8	5.30e-06	0	43	0	105906176	17	4505
2026-01-30 01:05:09.20	13.17	10.09	-28.5	-30.4	13.8	3.00e-06	0	42	0	109051904	17	4494
2026-01-30 01:05:10.20	13.12	10.18	-28.4	-30.8	13.9	3.80e-06	0	42	0	112197632	16	4736
2026-01-30 01:05:11.21	13.08	10.26	-28.4	-30.8	13.9	1.50e-06	0	43	0	115343360	16	4727
2026-01-30 01:05:12.21	13.03	10.35	-28.5	-30.4	13.8	3.80e-06	0	43	0	118489088	17	4509
2026-01-30 01:05:13.21	12.99	10.43	-28.4	-30.7	14.0	3.00e-06	0	42	0	121634816	16	4682
2026-01-30 01:05:14.22	12.94	10.52	-28.3	-30.6	14.1	2.20e-06	0	43	0	124780544	16	4667
2026-01-30 01:05:15.23	12.89	10.61	-28.4	-30.7	14.0	3.80e-06	0	43	0	127926272	16	4690
2026-01-30 01:05:16.23	12.85	10.69	-28.3	-30.5	14.1	7.00e-07	0	43	0	131072000	16	4643
2026-01-30 01:05:17.23	12.80	10.78	-28.4	-30.6	14.0	1.50e-06	0	43	0	134217728	16	4668
2026-01-30 01:05:18.24	12.76	10.87	-28.4	-30.7	14.0	3.80e-06	0	43	0	137363456	16	4706
2026-01-30 01:05:19.24	12.71	10.95	-28.3	-30.4	14.1	2.20e-06	0	42	0	140509184	16	4612
2026-01-30 01:05:20.24	12.66	11.04	-28.2	-30.2	14.3	0.00e+00	0	43	0	143654912	16	4528
2026-01-30 01:05:21.24	12.61	11.13	-28.2	-30.3	14.3	7.00e-07	0	43	0	146800640	16	4555
2026-01-30 01:05:22.24	12.57	11.21	-28.2	-30.3	14.3	1.50e-06	0	43	0	149946368	16	4572
2026-01-30 01:05:23.24	12.52	11.30	-28.2	-30.2	14.3	1.50e-06	0	43	0	153092096	16	4543
2026-01-30 01:05:24.25	12.47	11.39	-28.2	-30.2	14.3	2.20e-06	0	43	0	156237824	16	4547
2026-01-30 01:05:25.25	12.42	11.48	-28.3	-30.4	14.2	2.20e-06	0	43	0	159383552	16	4606
2026-01-30 01:05:26.25	12.37	11.57	-28.2	-30.1	14.4	0.00e+00	0	43	0	162529280	16	4511
2026-01-30 01:05:27.26	12.32	11.66	-28.1	-30.0	14.5	0.00e+00	0	43	0	165675008	16	4473
2026-01-30 01:05:28.27	12.27	11.75	-27.1	-29.2	13.4	1.50e-06	0	43	0	168820736	16	4564
2026-01-30 01:05:29.27	12.22	11.84	-28.2	-30.2	14.0	1.50e-06	0	43	0	171966464	16	4545
2026-01-30 01:05:30.27	12.17	11.93	-27.9	-30.0	12.3	0.00e+00	0	43	0	175112192	15	4592
2026-01-30 01:05:31.27	12.12	12.02	-27.9	-30.0	13.8	7.00e-07	0	43	0	178257920	15	4589
2026-01-30 01:05:32.27	12.07	12.11	-27.9	-30.0	14.6	7.00e-07	0	43	0	181403648	15	4591
2026-01-30 01:05:33.28	12.02	12.20	-27.9	-30.1	14.6	0.00e+00	0	43	0	184549376	15	4621
2026-01-30 01:05:34.29	11.97	12.29	-27.8	-29.8	14.7	5.23e-04	0	43	0	187695104	15	4552
2026-01-30 01:05:35.29	11.92	12.39	-27.8	-29.7	14.8	8.02e-04	0	43	0	190840832	15	4517
2026-01-30 01:05:36.29	11.86	12.48	-27.8	-29.8	14.8	7.00e-07	0	43	0	193986560	15	4528
2026-01-30 01:05:37.30	11.81	12.57	-27.7	-29.5	14.9	1.50e-06	0	43	0	197132288	15	4447
2026-01-30 01:05:38.29	11.76	12.66	-27.6	-29.4	15.0	0.00e+00	0	43	0	200278016	15	4406
2026-01-30 01:05:39.30	11.70	12.76	-27.6	-29.4	15.0	9.10e-06	0	43	0	203423744	15	4429
2026-01-30 01:05:40.30	11.65	12.85	-27.6	-29.3	15.0	4.33e-03	0	43	0	206569472	15	4401
2026-01-30 01:05:41.31	11.60	12.94	-27.6	-29.4	15.0	6.16e-04	0	43	0	209715200	15	4409
2026-01-30 01:05:42.31	11.54	13.04	-27.6	-29.3	15.1	0.00e+00	0	43	0	212860928	15	4383
2026-01-30 01:05:43.32	11.49	13.13	-27.6	-29.4	15.0	0.00e+00	0	43	0	216006656	15	4418
2026-01-30 01:05:44.32	11.43	13.23	-27.8	-29.7	14.8	6.42e-04	0	43	0	219152384	15	4504
2026-01-30 01:05:45.32	11.37	13.32	-27.8	-29.8	14.8	3.68e-03	0	43	0	222298112	15	4522
2026-01-30 01:05:46.32	11.32	13.42	-27.8	-29.8	14.8	4.45e-03	0	43	0	225443840	15	4545
2026-01-30 01:05:47.33	11.26	13.51	-27.9	-30.0	14.7	0.00e+00	0	43	0	228589568	15	4588
2026-01-30 01:05:48.33	11.21	13.61	-27.8	-29.8	14.8	0.00e+00	0	43	0	231735296	15	4527
2026-01-30 01:05:49.33	11.15	13.71	-27.8	-29.8	14.8	4.29e-03	0	43	0	234881024	15	4536
2026-01-30 01:05:50.33	11.09	13.80	-27.9	-29.9	14.7	6.77e-04	0	43	0	238026752	15	4577
2026-01-30 01:05:51.33	11.03	13.90	-28.0	-29.8	14.7	3.97e-03	0	43	0	241172480	16	4416
2026-01-30 01:05:52.33	10.97	14.00	-27.8	-29.8	14.9	4.06e-03	0	43	0	244318208	15	4521
2026-01-30 01:05:53.34	10.91	14.10	-27.7	-29.5	15.0	3.96e-04	0	43	0	247463936	15	4447
2026-01-30 01:05:54.34	10.86	14.20	-27.7	-29.5	15.0	3.67e-03	0	43	0	250609664	15	4441
2026-01-30 01:05:55.34	10.80	14.29	-27.7	-29.7	14.9	4.40e-03	0	43	0	253755392	15	4493
2026-01-30 01:05:56.34	10.74	14.39	-27.7	-29.6	15.0	6.50e-04	0	43	0	256901120	15	4459
2026-01-30 01:05:57.35	10.67	14.49	-27.7	-29.7	14.9	4.12e-03	0	43	0	260046848	15	4491
2026-01-30 01:05:58.35	10.61	14.59	-27.8	-29.7	14.9	3.90e-04	0	43	0	263192576	15	4507
2026-01-30 01:05:59.36	10.55	14.69	-27.7	-29.6	15.0	6.29e-04	0	43	0	266338304	15	4485
2026-01-30 01:06:00.36	10.49	14.79	-27.7	-29.6	15.0	4.00e-03	0	43	0	269484032	15	4488
2026-01-30 01:06:01.36	10.43	14.89	-27.8	-29.8	14.9	4.03e-03	0	43	0	272629760	15	4532
2026-01-30 01:06:02.37	10.36	15.00	-27.8	-29.8	14.9	7.38e-04	0	43	0	275775488	15	4535
2026-01-30 01:06:03.38	10.30	15.10	-27.9	-30.0	14.8	3.66e-03	0	43	0	278921216	15	4585
2026-01-30 01:06:04.38	10.24	15.20	-27.8	-29.9	14.8	0.00e+00	0	43	0	282066944	15	4563
2026-01-30 01:06:05.38	10.17	15.30	-27.8	-29.9	14.9	7.39e-04	0	43	0	285212672	15	4548
2026-01-30 01:06:06.38	10.11	15.41	-27.8	-29.9	14.9	4.01e-03	0	43	0	288358400	15	4549
2026-01-30 01:06:07.38	10.04	15.51	-27.9	-30.1	14.7	3.88e-03	0	43	0	291504128	15	4618
2026-01-30 01:06:08.38	9.98	15.61	-27.9	-30.1	14.7	2.77e-04	0	43	0	294649856	15	4610
2026-01-30 01:06:09.39	9.91	15.72	-27.9	-29.9	14.8	0.00e+00	0	43	0	297795584	15	4572
2026-01-30 01:06:10.39	9.85	15.82	-27.9	-30.1	14.8	3.90e-03	0	43	0	300941312	15	4620
2026-01-30 01:06:11.39	9.78	15.93	-28.2	-30.1	14.6	5.34e-04	0	43	0	303038464	16	4493
2026-01-30 01:06:12.40	9.71	16.03	-28.0	-29.8	14.8	3.55e-03	0	43	0	306184192	16	4410
2026-01-30 01:06:13.40	9.64	16.14	-28.0	-29.8	14.8	0.00e+00	0	43	0	309329920	16	4408
2026-01-30 01:06:14.41	9.57	16.24	-28.1	-29.9	14.7	0.00e+00	0	43	0	313524224	16	4450
2026-01-30 01:06:15.41	9.50	16.35	-28.2	-30.1	14.6	0.00e+00	0	43	0	316669952	16	4498
2026-01-30 01:06:16.41	9.43	16.46	-28.2	-30.2	14.6	4.11e-03	0	43	0	319815680	16	4532
2026-01-30 01:06:17.41	9.36	16.57	-28.1	-29.9	14.8	1.41e-04	0	43	0	322961408	16	4441
2026-01-30 01:06:18.41	9.29	16.67	-28.1	-30.0	14.7	0.00e+00	0	43	0	325058560	16	4462
2026-01-30 01:06:19.41	9.22	16.78	-28.1	-29.9	14.8	7.00e-07	0	43	0	328204288	16	4442
2026-01-30 01:06:20.41	9.15	16.89	-28.1	-29.8	14.8	0.00e+00	0	43	0	331350016	16	4413
2026-01-30 01:06:21.41	9.08	17.00	-28.2	-30.1	14.7	0.00e+00	0	43	0	334495744	16	4483
2026-01-30 01:06:22.41	9.01	17.11	-28.1	-30.0	14.7	3.82e-03	0	43	0	337641472	16	4455
2026-01-30 01:06:23.42	8.93	17.22	-28.0	-29.6	14.9	0.00e+00	0	43	0	340787200	16	4358
2026-01-30 01:06:24.42	8.86	17.33	-27.8	-29.8	15.0	0.00e+00	0	43	0	343932928	15	4526
2026-01-30 01:06:25.42	8.78	17.44	-27.9	-29.9	14.9	7.00e-07	0	43	0	347078656	15	4545
2026-01-30 01:06:26.42	8.71	17.55	-28.0	-30.1	14.8	0.00e+00	0	43	0	350224384	15	4621
2026-01-30 01:06:27.42	8.63	17.66	-28.1	-29.9	14.8	3.73e-03	0	43	0	353370112	16	4435
2026-01-30 01:06:28.43	8.56	17.78	-28.1	-29.9	14.8	0.00e+00	0	43	0	356515840	16	4431
2026-01-30 01:06:29.43	8.48	17.89	-28.3	-30.5	14.5	0.00e+00	0	43	0	359661568	16	4593
2026-01-30 01:06:30.44	8.40	18.00	-28.4	-30.0	14.5	1.50e-06	0	43	0	362807296	17	4348
2026-01-30 01:06:31.44	8.32	18.12	-28.2	-30.0	14.8	0.00e+00	0	43	0	365953024	16	4474
2026-01-30 01:06:32.44	8.25	18.23	-28.1	-30.0	14.8	0.00e+00	0	43	0	369098752	16	4444
2026-01-30 01:06:33.44	8.17	18.34	-28.1	-30.0	14.8	7.00e-07	0	43	0	372244480	16	4461
2026-01-30 01:06:34.45	8.09	18.46	-28.1	-29.9	14.9	0.00e+00	0	43	0	375390208	16	4429
2026-01-30 01:06:35.45	8.01	18.57	-28.0	-29.6	15.0	0.00e+00	0	43	0	378535936	16	4341
2026-01-30 01:06:36.45	7.92	18.69	-27.7	-29.6	15.2	0.00e+00	0	43	0	381681664	15	4457
2026-01-30 01:06:37.46	7.84	18.81	-27.8	-29.6	15.1	0.00e+00	0	43	0	384827392	15	4468
2026-01-30 01:06:38.46	7.76	18.93	-27.7	-29.5	15.3	0.00e+00	0	43	0	387973120	15	4432
2026-01-30 01:06:39.46	7.68	19.04	-27.8	-29.7	15.1	0.00e+00	0	43	0	391118848	15	4489
2026-01-30 01:06:40.47	7.59	19.16	-27.8	-29.7	15.1	0.00e+00	0	44	0	394264576	15	4479
2026-01-30 01:06:41.46	7.51	19.28	-27.6	-29.4	15.3	0.00e+00	0	43	0	397410304	15	4396
2026-01-30 01:06:42.45	7.42	19.40	-27.7	-29.5	15.2	0.00e+00	0	43	0	400556032	15	4441
2026-01-30 01:06:43.46	7.34	19.52	-27.6	-29.3	15.3	0.00e+00	0	43	0	403701760	15	4362
2026-01-30 01:06:44.46	7.25	19.64	-27.4	-28.9	15.5	0.00e+00	0	43	0	406847488	15	4278
2026-01-30 01:06:45.47	7.16	19.76	-27.5	-29.5	15.5	0.00e+00	0	44	0	409993216	14	4544
2026-01-30 01:06:46.47	7.07	19.88	-27.4	-28.8	15.6	0.00e+00	0	43	0	413138944	15	4229
2026-01-30 01:06:47.47	6.99	20.00	-27.3	-29.1	15.7	0.00e+00	0	43	0	416284672	14	4432
2026-01-30 01:06:48.48	6.90	20.12	-27.3	-29.0	15.8	0.00e+00	0	43	0	419430400	14	4415
2026-01-30 01:06:49.49	6.80	20.25	-27.2	-28.9	15.9	0.00e+00	0	43	0	422576128	14	4367
2026-01-30 01:06:50.50	6.71	20.37	-27.3	-29.0	15.8	0.00e+00	0	43	0	425721856	14	4412
2026-01-30 01:06:51.49	6.62	20.49	-27.2	-28.8	15.9	7.00e-07	0	43	0	428867584	14	4338
2026-01-30 01:06:52.50	6.53	20.62	-27.1	-28.6	16.0	0.00e+00	0	43	0	432013312	14	4297
2026-01-30 01:06:53.50	6.43	20.74	-27.2	-28.8	15.9	0.00e+00	0	43	0	435159040	14	4339
2026-01-30 01:06:54.51	6.34	20.87	-27.2	-28.8	15.9	0.00e+00	0	43	0	438304768	14	4338
2026-01-30 01:06:55.51	6.24	20.99	-26.9	-28.3	16.2	0.00e+00	0	43	0	441450496	14	4209
2026-01-30 01:06:56.51	6.15	21.12	-26.9	-28.2	16.2	0.00e+00	0	43	0	444596224	14	4192
2026-01-30 01:06:57.52	6.05	21.25	-27.0	-28.4	16.2	0.00e+00	0	43	0	447741952	14	4227
2026-01-30 01:06:58.52	5.95	21.38	-27.0	-28.5	16.1	0.00e+00	0	43	0	450887680	14	4274
2026-01-30 01:06:59.52	5.86	21.50	-27.1	-28.7	16.0	0.00e+00	0	43	0	454033408	14	4313
2026-01-30 01:07:00.53	5.76	21.63	-27.0	-28.4	16.2	0.00e+00	0	43	0	457179136	14	4245
2026-01-30 01:07:01.53	5.66	21.76	-26.8	-28.5	16.3	0.00e+00	0	43	0	460324864	13	4384
2026-01-30 01:07:02.53	5.56	21.89	-26.7	-28.2	16.5	0.00e+00	0	43	0	463470592	13	4308
2026-01-30 01:07:03.53	5.45	22.02	-26.7	-28.3	16.4	0.00e+00	0	43	0	466616320	13	4334
2026-01-30 01:07:04.53	5.35	22.15	-26.7	-28.3	16.5	0.00e+00	0	43	0	469762048	13	4313
2026-01-30 01:07:05.54	5.25	22.28	-26.7	-28.3	16.5	0.00e+00	0	43	0	472907776	13	4324
2026-01-30 01:07:06.54	5.14	22.42	-26.8	-28.4	16.4	0.00e+00	0	44	0	476053504	13	4340
2026-01-30 01:07:07.54	5.04	22.55	-26.5	-27.8	16.7	0.00e+00	0	43	0	479199232	13	4185
2026-01-30 01:07:08.55	4.93	22.68	-26.4	-27.6	16.9	0.00e+00	0	43	0	482344960	13	4120
2026-01-30 01:07:09.55	4.82	22.82	-26.4	-28.1	16.9	0.00e+00	0	43	0	485490688	12	4367
2026-01-30 01:07:10.55	4.72	22.95	-26.4	-28.0	16.9	0.00e+00	0	44	0	488636416	12	4356
2026-01-30 01:07:11.55	4.61	23.08	-26.5	-27.7	16.8	0.00e+00	0	44	0	491782144	13	4157
2026-01-30 01:07:12.56	4.50	23.22	-26.3	-28.0	16.9	1.56e-04	0	44	0	494927872	12	4338
2026-01-30 01:07:13.57	4.38	23.36	-26.4	-28.1	16.9	3.20e-05	0	44	0	498073600	12	4375
2026-01-30 01:07:14.58	4.27	23.50	-26.5	-28.2	16.8	0.00e+00	0	44	0	501219328	12	4407
2026-01-30 01:07:15.58	4.16	23.63	-26.4	-28.1	16.9	0.00e+00	0	43	0	504365056	12	4384
2026-01-30 01:07:16.58	4.04	23.77	-26.6	-28.0	16.7	0.00e+00	0	44	0	507510784	13	4230
2026-01-30 01:07:17.59	3.93	23.91	-26.8	-28.4	16.5	0.00e+00	0	43	0	510656512	13	4358
2026-01-30 01:07:18.59	3.81	24.05	-26.8	-28.4	16.4	1.37e-05	0	43	0	513802240	13	4358
2026-01-30 01:07:19.59	3.69	24.19	-26.7	-28.3	16.5	0.00e+00	0	43	0	516947968	13	4312
2026-01-30 01:07:20.59	3.58	24.33	-26.8	-28.4	16.5	0.00e+00	0	43	0	520093696	13	4345
2026-01-30 01:07:21.59	3.46	24.47	-26.8	-28.5	16.4	0.00e+00	0	44	0	523239424	13	4362
2026-01-30 01:07:22.60	3.33	24.61	-26.8	-28.5	16.4	2.89e-05	0	44	0	526385152	13	4368
2026-01-30 01:07:23.60	3.21	24.75	-26.8	-28.4	16.5	0.00e+00	0	44	0	529530880	13	4352
2026-01-30 01:07:24.60	3.09	24.90	-26.8	-28.5	16.4	0.00e+00	0	43	0	532676608	13	4380
2026-01-30 01:07:25.60	2.97	25.04	-27.0	-28.5	16.2	0.00e+00	0	44	0	535822336	14	4252
2026-01-30 01:07:26.60	2.84	25.18	-27.3	-29.1	15.9	0.00e+00	0	43	0	538968064	14	4431
2026-01-30 01:07:27.61	2.71	25.33	-27.3	-29.2	15.8	0.00e+00	0	43	0	542113792	14	4453
2026-01-30 01:07:28.61	2.59	25.47	-27.1	-28.7	16.1	0.00e+00	0	43	0	545259520	14	4308
2026-01-30 01:07:29.62	2.46	25.62	-27.0	-28.4	16.3	3.75e-03	0	43	0	548405248	14	4227
2026-01-30 01:07:30.62	2.33	25.77	-27.1	-28.6	16.2	3.47e-03	0	44	0	551550976	14	4290
2026-01-30 01:07:31.63	2.19	25.92	-27.1	-28.6	16.1	0.00e+00	0	44	0	554696704	14	4297
2026-01-30 01:07:32.64	2.06	26.07	-27.2	-28.8	16.0	0.00e+00	0	44	0	557842432	14	4351
2026-01-30 01:07:33.65	1.92	26.22	-27.3	-29.0	15.9	0.00e+00	0	43	0	560988160	14	4396
2026-01-30 01:07:34.65	1.79	26.36	-27.3	-29.1	15.9	8.30e-06	0	43	0	564133888	14	4412
2026-01-30 01:07:35.66	1.65	26.52	-27.4	-29.3	15.8	3.86e-03	0	44	0	567279616	14	4477
2026-01-30 01:07:36.66	1.51	26.67	-27.5	-29.1	15.6	3.81e-03	0	44	0	570425344	15	4315
2026-01-30 01:07:37.67	1.37	26.82	-27.7	-29.4	15.4	0.00e+00	0	44	0	573571072	15	4399
2026-01-30 01:07:38.67	1.23	26.97	-27.7	-29.5	15.4	7.00e-07	0	44	0	576716800	15	4432
2026-01-30 01:07:39.68	1.09	27.12	-27.7	-29.5	15.4	3.47e-03	0	44	0	579862528	15	4422
2026-01-30 01:07:40.69	0.95	27.28	-27.8	-29.7	15.3	6.10e-06	0	44	0	583008256	15	4468
2026-01-30 01:07:41.70	0.80	27.43	-27.8	-29.7	15.3	3.44e-03	0	44	0	586153984	15	4496
2026-01-30 01:07:42.70	0.65	27.59	-27.8	-29.7	15.3	3.84e-03	0	44	0	589299712	15	4476
2026-01-30 01:07:43.70	0.51	27.74	-27.8	-29.8	15.3	0.00e+00	0	43	0	592445440	15	4504
2026-01-30 01:07:44.70	0.36	27.90	-27.8	-29.7	15.3	3.88e-03	0	44	0	595591168	15	4484
2026-01-30 01:07:45.70	0.21	28.05	-27.7	-29.4	15.5	3.75e-03	0	44	0	598736896	15	4384
2026-01-30 01:07:46.71	0.05	28.21	-27.8	-29.6	15.3	7.17e-05	0	44	0	601882624	15	4463
2026-01-30 01:07:47.71	359.90	28.37	-27.7	-29.5	15.4	3.76e-03	0	44	0	605028352	15	4429
2026-01-30 01:07:48.71	359.74	28.53	-27.9	-30.0	15.2	3.48e-03	0	44	0	608174080	15	4556
2026-01-30 01:07:49.72	359.59	28.69	-27.8	-29.8	15.2	1.75e-05	0	44	0	611319808	15	4501
2026-01-30 01:07:50.72	359.43	28.85	-27.8	-29.7	15.3	3.42e-03	0	44	0	614465536	15	4489
2026-01-30 01:07:51.72	359.27	29.01	-27.8	-29.8	15.3	3.81e-03	0	44	0	617611264	15	4508
2026-01-30 01:07:52.73	359.11	29.17	-27.7	-29.6	15.4	7.47e-05	0	44	0	620756992	15	4440
2026-01-30 01:07:53.73	358.94	29.33	-27.7	-29.5	15.4	3.88e-03	0	44	0	623902720	15	4416
2026-01-30 01:07:54.74	358.78	29.50	-27.7	-29.5	15.4	3.75e-03	0	44	0	625999872	15	4426
2026-01-30 01:07:55.75	358.61	29.66	-27.5	-29.0	15.7	1.52e-04	0	44	0	629145600	15	4273
2026-01-30 01:07:56.75	358.44	29.82	-27.5	-29.0	15.7	3.76e-03	0	44	0	632291328	15	4267
2026-01-30 01:07:57.75	358.27	29.99	-27.6	-29.2	15.6	3.53e-03	0	44	0	635437056	15	4323
2026-01-30 01:07:58.76	358.10	30.16	-27.5	-28.9	15.8	4.50e-05	0	44	0	639631360	15	4261
2026-01-30 01:07:59.76	357.92	30.32	-27.5	-29.4	15.8	0.00e+00	0	44	0	642777088	14	4512
2026-01-30 01:08:00.77	357.74	30.49	-27.5	-29.4	15.7	0.00e+00	0	44	0	645922816	14	4509
2026-01-30 01:08:01.77	357.57	30.66	-27.5	-29.1	15.7	2.28e-04	0	44	0	649068544	15	4308
2026-01-30 01:08:02.77	357.39	30.82	-27.8	-29.8	15.3	3.84e-03	0	44	0	651165696	15	4496
2026-01-30 01:08:03.78	357.20	30.99	-27.6	-29.3	15.5	0.00e+00	0	44	0	654311424	15	4369
2026-01-30 01:08:04.78	357.02	31.16	-27.6	-29.2	15.6	0.00e+00	0	44	0	657457152	15	4335
2026-01-30 01:08:05.78	356.84	31.33	-27.5	-29.1	15.7	0.00e+00	0	44	0	660602880	15	4309
2026-01-30 01:08:06.78	356.65	31.50	-27.4	-28.7	15.9	3.26e-03	0	44	0	663748608	15	4201
2026-01-30 01:08:07.77	356.46	31.67	-27.3	-28.4	16.1	8.85e-05	0	44	0	666894336	15	4129
2026-01-30 01:08:08.77	356.27	31.84	-27.3	-29.0	16.0	0.00e+00	0	44	0	670040064	14	4392
2026-01-30 01:08:09.78	356.08	32.02	-27.2	-28.7	16.2	0.00e+00	0	44	0	673185792	14	4305
2026-01-30 01:08:10.78	355.88	32.19	-27.1	-28.6	16.2	0.00e+00	0	44	0	676331520	14	4282
2026-01-30 01:08:11.78	355.68	32.36	-27.2	-28.8	16.1	0.00e+00	0	44	0	679477248	14	4334
2026-01-30 01:08:12.79	355.48	32.54	-27.2	-28.9	16.1	3.10e-03	0	44	0	682622976	14	4359
2026-01-30 01:08:13.79	355.28	32.71	-27.2	-28.8	16.1	0.00e+00	0	44	0	685768704	14	4345
2026-01-30 01:08:14.80	355.07	32.89	-27.4	-29.3	15.9	0.00e+00	0	44	0	688914432	14	4465
2026-01-30 01:08:15.80	354.87	33.06	-27.5	-29.0	15.7	0.00e+00	0	44	0	692060160	15	4277
2026-01-30 01:08:16.80	354.66	33.24	-27.6	-29.3	15.6	0.00e+00	0	44	0	695205888	15	4362
2026-01-30 01:08:17.80	354.45	33.42	-27.7	-29.6	15.4	0.00e+00	0	44	0	698351616	15	4448
2026-01-30 01:08:18.80	354.23	33.59	-27.7	-29.6	15.4	0.00e+00	0	44	0	701497344	15	4444
2026-01-30 01:08:19.80	354.02	33.77	-28.5	-30.4	15.1	0.00e+00	0	44	0	704643072	16	4469
2026-01-30 01:08:20.80	353.80	33.95	-28.1	-29.8	15.2	0.00e+00	0	44	0	707788800	16	4394
2026-01-30 01:08:21.81	353.58	34.13	-28.2	-30.0	15.1	0.00e+00	0	44	0	710934528	16	4436
2026-01-30 01:08:22.81	353.35	34.31	-28.3	-30.3	14.9	0.00e+00	0	44	0	714080256	16	4538
2026-01-30 01:08:23.81	353.13	34.49	-28.6	-30.4	14.6	0.00e+00	0	44	0	717225984	17	4453
2026-01-30 01:08:24.81	352.90	34.67	-28.7	-30.7	14.4	7.00e-07	0	44	0	720371712	17	4540
2026-01-30 01:08:25.82	352.67	34.85	-28.9	-31.2	14.1	7.00e-07	0	44	0	723517440	17	4695
2026-01-30 01:08:26.82	352.44	35.04	-28.9	-31.1	14.2	7.00e-07	0	44	0	726663168	17	4660
2026-01-30 01:08:27.82	352.20	35.22	-29.0	-30.9	14.0	1.50e-06	0	44	0	729808896	18	4481
2026-01-30 01:08:28.83	351.96	35.40	-29.0	-30.9	14.0	4.50e-06	0	44	0	732954624	18	4481
2026-01-30 01:08:29.83	351.72	35.59	-29.1	-31.3	13.8	6.80e-06	0	44	0	736100352	18	4595
2026-01-30 01:08:30.83	351.47	35.77	-29.0	-30.8	14.1	2.20e-06	0	44	0	739246080	18	4456
2026-01-30 01:08:31.84	351.22	35.96	-28.7	-30.3	14.4	1.50e-06	0	44	0	742391808	18	4295
2026-01-30 01:08:32.84	350.97	36.14	-28.6	-30.5	14.6	1.50e-06	0	44	0	745537536	17	4463
2026-01-30 01:08:33.84	350.72	36.33	-28.7	-30.8	14.4	0.00e+00	0	44	0	748683264	17	4548
2026-01-30 01:08:34.85	350.46	36.51	-28.9	-31.1	14.2	1.50e-06	0	44	0	751828992	17	4649
2026-01-30 01:08:35.86	350.20	36.70	-29.0	-31.0	14.0	1.50e-06	0	44	0	754974720	18	4501
2026-01-30 01:08:36.86	349.94	36.89	-29.1	-31.3	13.9	1.50e-06	0	44	0	758120448	18	4589
2026-01-30 01:08:37.86	349.67	37.07	-29.0	-31.0	14.0	3.80e-06	0	44	0	761266176	18	4512
2026-01-30 01:08:38.87	349.40	37.26	-29.0	-31.0	14.0	3.80e-06	0	44	0	764411904	18	4504
2026-01-30 01:08:39.87	349.13	37.45	-29.1	-31.2	13.9	3.00e-06	0	44	0	767557632	18	4558
2026-01-30 01:08:40.88	348.86	37.64	-29.3	-31.6	13.6	4.50e-06	0	44	0	770703360	18	4699
2026-01-30 01:08:41.89	348.58	37.83	-29.3	-31.5	13.7	9.90e-06	0	44	0	773849088	18	4678
2026-01-30 01:08:42.89	348.30	38.02	-29.4	-31.9	13.5	9.90e-06	0	44	0	776994816	18	4793
2026-01-30 01:08:43.89	348.01	38.21	-29.4	-31.9	13.5	9.10e-06	0	44	0	780140544	18	4783
2026-01-30 01:08:44.90	347.72	38.40	-29.3	-31.8	13.5	6.80e-06	0	44	0	783286272	18	4748
2026-01-30 01:08:45.90	347.43	38.59	-29.4	-31.9	13.5	9.10e-06	0	44	0	786432000	18	4775
2026-01-30 01:08:46.90	347.14	38.77	-29.6	-31.8	13.2	1.06e-05	0	44	0	789577728	19	4636
2026-01-30 01:08:47.90	346.84	38.96	-29.6	-31.9	13.1	1.83e-05	0	44	0	792723456	19	4671
2026-01-30 01:08:48.91	346.53	39.15	-29.7	-32.2	13.0	2.44e-05	0	44	0	795869184	19	4778
2026-01-30 01:08:49.91	346.23	39.34	-29.7	-32.2	13.0	2.74e-05	0	44	0	799014912	19	4780
2026-01-30 01:08:50.91	345.92	39.53	-29.9	-32.6	12.7	8.01e-05	0	44	0	802160640	19	4903
2026-01-30 01:08:51.92	345.61	39.73	-29.9	-32.7	12.7	1.70e-04	0	44	0	805306368	19	4945
2026-01-30 01:08:52.91	345.29	39.91	-29.7	-32.2	12.9	5.18e-05	0	44	0	808452096	19	4768
2026-01-30 01:08:53.92	344.97	40.11	-29.6	-31.9	13.1	3.35e-05	0	44	0	811597824	19	4677
2026-01-30 01:08:54.92	344.65	40.29	-29.6	-31.9	13.1	3.50e-05	0	44	0	814743552	19	4691
2026-01-30 01:08:55.93	344.32	40.49	-29.8	-32.4	12.8	4.19e-05	0	44	0	817889280	19	4850
2026-01-30 01:08:56.93	343.99	40.68	-29.7	-32.0	13.1	5.03e-05	0	44	0	821035008	19	4700
2026-01-30 01:08:57.93	343.65	40.87	-30.0	-32.4	12.5	1.04e-04	0	44	0	824180736	20	4757
2026-01-30 01:08:58.94	343.31	41.06	-29.8	-31.9	12.8	8.23e-05	0	44	0	827326464	20	4581
2026-01-30 01:08:59.95	342.96	41.25	-29.5	-31.6	13.3	2.51e-05	0	44	0	830472192	19	4595
2026-01-30 01:09:00.95	342.61	41.44	-29.5	-31.6	13.4	1.40e-04	0	44	0	833617920	19	4576
2026-01-30 01:09:01.95	342.26	41.63	-29.5	-31.5	13.4	9.90e-06	0	44	0	836763648	19	4569
2026-01-30 01:09:02.96	341.90	41.82	-29.6	-31.7	13.3	1.81e-04	0	44	0	839909376	19	4622
2026-01-30 01:09:03.97	341.54	42.01	-29.7	-32.0	13.1	2.13e-04	0	44	0	843055104	19	4714
2026-01-30 01:09:04.97	341.18	42.19	-30.1	-32.6	12.2	1.02e-04	0	44	0	846200832	20	4808
2026-01-30 01:09:05.98	340.80	42.38	-30.1	-32.6	12.3	4.13e-04	0	44	0	849346560	20	4823
2026-01-30 01:09:06.98	340.43	42.57	-30.2	-33.0	12.1	3.69e-04	0	44	0	852492288	20	4956
2026-01-30 01:09:07.98	340.05	42.76	-30.0	-32.4	12.5	1.65e-04	0	44	0	855638016	20	4731
2026-01-30 01:09:08.99	339.67	42.95	-29.8	-31.8	12.9	6.10e-05	0	44	0	858783744	20	4541
2026-01-30 01:09:09.99	339.28	43.13	-29.7	-32.0	13.1	2.89e-05	0	44	0	861929472	19	4723
2026-01-30 01:09:10.99	338.89	43.32	-29.6	-31.9	13.2	3.05e-05	0	44	0	865075200	19	4682
2026-01-30 01:09:12.00	338.49	43.50	-29.0	-31.3	13.1	2.36e-05	0	44	0	868220928	19	4713
2026-01-30 01:09:13.00	338.09	43.69	-30.0	-32.7	12.6	3.73e-05	0	44	0	871366656	19	4964
2026-01-30 01:09:14.01	337.68	43.87	-30.0	-32.3	12.6	9.84e-05	0	44	0	874512384	20	4715
2026-01-30 01:09:15.00	337.28	44.05	-30.1	-32.6	12.3	1.62e-04	0	44	0	877658112	20	4824
2026-01-30 01:09:16.01	336.86	44.24	-30.0	-32.3	12.5	2.65e-04	0	44	0	880803840	20	4709
2026-01-30 01:09:17.01	336.44	44.42	-29.9	-32.6	12.7	8.85e-05	0	44	0	883949568	19	4898
2026-01-30 01:09:18.01	336.02	44.60	-30.0	-32.3	12.5	8.85e-05	0	44	0	887095296	20	4720
2026-01-30 01:09:19.02	335.58	44.78	-30.1	-32.6	12.4	1.69e-04	0	44	0	890241024	20	4812
2026-01-30 01:09:20.02	335.15	44.96	-30.1	-32.6	12.4	1.55e-04	0	44	0	893386752	20	4826
2026-01-30 01:09:21.02	334.71	45.13	-30.0	-32.9	12.6	1.06e-03	0	44	0	896532480	19	5012
2026-01-30 01:09:22.02	334.27	45.31	-29.9	-32.3	12.6	1.02e-04	0	44	0	899678208	20	4700
2026-01-30 01:09:23.03	333.81	45.48	-30.0	-32.4	12.5	1.09e-04	0	44	0	902823936	20	4760
2026-01-30 01:09:24.02	333.37	45.66	-30.4	-33.3	11.8	2.99e-04	0	44	0	905969664	20	5073
2026-01-30 01:09:25.03	332.90	45.83	-30.1	-32.8	12.2	2.14e-04	0	44	0	909115392	20	4874
2026-01-30 01:09:26.03	332.44	46.00	-30.0	-32.3	12.5	1.16e-03	0	44	0	912261120	20	4721
2026-01-30 01:09:27.03	331.97	46.17	-29.9	-32.5	12.8	1.73e-03	0	44	0	915406848	19	4885
2026-01-30 01:09:28.03	331.50	46.34	-29.8	-32.4	12.8	6.63e-05	0	44	0	918552576	19	4854
2026-01-30 01:09:29.04	331.01	46.50	-29.8	-32.4	12.9	5.26e-05	0	44	0	921698304	19	4840
2026-01-30 01:09:30.04	330.53	46.67	-29.9	-32.6	12.8	2.14e-03	0	44	0	924844032	19	4903
2026-01-30 01:09:31.04	330.04	46.83	-29.8	-32.3	13.0	5.18e-05	0	44	0	926941184	19	4803
2026-01-30 01:09:32.04	329.55	46.99	-29.6	-31.8	13.2	1.15e-03	0	44	0	930086912	19	4647
2026-01-30 01:09:33.04	329.05	47.15	-29.9	-32.5	12.8	2.08e-04	0	44	0	933232640	19	4879
2026-01-30 01:09:34.05	328.54	47.31	-29.8	-32.3	13.0	1.90e-04	0	44	0	936378368	19	4811
2026-01-30 01:09:35.06	328.02	47.47	-30.1	-32.6	12.3	3.27e-03	0	44	0	940572672	20	4828
2026-01-30 01:09:36.06	327.51	47.62	-30.0	-32.3	12.5	3.45e-03	0	44	0	943718400	20	4715
2026-01-30 01:09:37.07	326.98	47.78	-29.8	-31.8	12.8	7.40e-05	0	44	0	946864128	20	4548
2026-01-30 01:09:38.08	326.45	47.93	-29.8	-32.4	12.9	3.35e-03	0	44	0	950009856	19	4827
2026-01-30 01:09:39.08	325.92	48.08	-29.8	-32.4	12.9	3.51e-03	0	44	0	952107008	19	4853
2026-01-30 01:09:40.07	325.39	48.22	-30.0	-32.3	12.5	8.92e-05	0	44	0	955252736	20	4716
2026-01-30 01:09:41.07	324.85	48.36	-30.1	-32.8	12.3	3.16e-03	0	44	0	958398464	20	4862
2026-01-30 01:09:42.08	324.30	48.51	-30.4	-33.3	11.9	3.02e-03	0	44	0	961544192	20	5040
2026-01-30 01:09:43.08	323.75	48.65	-29.8	-31.9	12.8	9.07e-05	0	44	0	964689920	20	4574
2026-01-30 01:09:44.08	323.20	48.78	-29.5	-31.7	13.3	2.64e-03	0	44	0	967835648	19	4601
2026-01-30 01:09:45.09	322.63	48.92	-29.3	-31.5	13.7	2.61e-03	0	44	0	970981376	18	4661
2026-01-30 01:09:46.09	322.06	49.05	-29.1	-31.2	13.9	6.10e-06	0	44	0	974127104	18	4569
2026-01-30 01:09:47.09	321.49	49.18	-29.1	-31.1	13.9	2.44e-03	0	44	0	977272832	18	4544
2026-01-30 01:09:48.10	320.91	49.30	-29.2	-31.4	13.7	2.27e-03	0	44	0	980418560	18	4636
2026-01-30 01:09:49.09	320.34	49.43	-29.1	-31.1	13.9	2.20e-06	0	44	0	983564288	18	4523
2026-01-30 01:09:50.09	319.76	49.55	-29.3	-31.5	13.6	8.30e-06	0	44	0	986710016	18	4667
2026-01-30 01:09:51.09	319.17	49.66	-29.1	-31.1	13.9	6.10e-06	0	44	0	989855744	18	4545
2026-01-30 01:09:52.10	318.57	49.78	-29.0	-31.0	14.0	1.50e-06	0	44	0	993001472	18	4512
2026-01-30 01:09:53.11	317.96	49.89	-29.4	-31.9	13.5	6.80e-06	0	44	0	996147200	18	4787
2026-01-30 01:09:54.11	317.36	50.00	-29.5	-31.7	13.3	2.23e-04	0	44	0	999292928	19	4613
2026-01-30 01:09:55.12	316.75	50.10	-29.7	-32.1	13.0	3.50e-05	0	44	0	1002438656	19	4752
2026-01-30 01:09:56.12	316.14	50.21	-29.7	-32.2	13.0	4.34e-05	0	44	0	1005584384	19	4774
2026-01-30 01:09:57.13	315.52	50.30	-29.9	-32.5	12.8	1.25e-03	0	44	0	1008730112	19	4897
2026-01-30 01:09:58.13	314.90	50.40	-29.6	-32.0	13.1	3.81e-05	0	44	0	1011875840	19	4717
2026-01-30 01:09:59.13	314.27	50.49	-29.5	-31.7	13.2	3.18e-04	0	44	0	1015021568	19	4633
2026-01-30 01:10:00.13	313.65	50.58	-29.5	-31.6	13.3	1.90e-05	0	44	0	1018167296	19	4591
2026-01-30 01:10:01.14	313.01	50.67	-29.6	-32.0	13.1	2.05e-05	0	44	0	1021313024	19	4699
2026-01-30 01:10:02.14	312.38	50.75	-29.4	-31.4	13.5	1.19e-03	0	44	0	1024458752	19	4537
2026-01-30 01:10:03.14	311.74	50.82	-29.3	-31.7	13.5	1.57e-03	0	44	0	1027604480	18	4748
2026-01-30 01:10:04.15	311.09	50.90	-29.4	-32.0	13.4	1.22e-05	0	44	0	1030750208	18	4828
2026-01-30 01:10:05.16	310.44	50.97	-29.1	-31.1	13.9	5.30e-06	0	44	0	1033895936	18	4541
2026-01-30 01:10:06.16	309.80	51.04	-29.2	-31.5	13.7	5.30e-06	0	44	0	1037041664	18	4658
2026-01-30 01:10:07.17	309.14	51.10	-29.5	-31.7	13.3	1.67e-05	0	44	0	1040187392	19	4617
2026-01-30 01:10:08.17	308.49	51.16	-29.3	-31.2	13.6	9.90e-06	0	44	0	1043333120	19	4459
2026-01-30 01:10:09.18	307.83	51.21	-29.2	-31.5	13.7	1.78e-03	0	44	0	1046478848	18	4661
2026-01-30 01:10:10.19	307.17	51.27	-29.4	-31.9	13.4	1.06e-05	0	44	0	1049624576	18	4797
2026-01-30 01:10:11.19	306.51	51.31	-29.6	-31.9	13.1	2.36e-05	0	44	0	1052770304	19	4691
2026-01-30 01:10:12.20	305.84	51.36	-29.8	-32.3	12.9	6.25e-05	0	44	0	1055916032	19	4815
2026-01-30 01:10:13.20	305.18	51.40	-29.5	-31.6	13.3	1.52e-05	0	44	0	1059061760	19	4596
2026-01-30 01:10:14.20	304.51	51.43	-29.1	-31.2	13.8	5.19e-04	0	44	0	1062207488	18	4588
2026-01-30 01:10:15.20	303.85	51.46	-28.9	-30.8	14.1	5.30e-06	0	44	0	1065353216	18	4456
2026-01-30 01:10:16.21	303.17	51.49	-29.1	-31.1	13.9	3.80e-06	0	44	0	1068498944	18	4550
2026-01-30 01:10:17.21	302.50	51.51	-29.4	-32.0	13.4	1.37e-05	0	44	0	1071644672	18	4832
2026-01-30 01:10:18.21	301.83	51.53	-29.1	-31.2	13.9	7.60e-06	0	44	0	1074790400	18	4570
2026-01-30 01:10:19.22	301.16	51.55	-29.2	-31.4	13.8	1.50e-06	0	44	0	1077936128	18	4627
2026-01-30 01:10:20.22	300.49	51.56	-29.4	-31.8	13.5	1.37e-05	0	44	0	1081081856	18	4747
2026-01-30 01:10:21.22	299.81	51.56	-29.1	-31.2	13.8	5.30e-06	0	44	0	1084227584	18	4576
2026-01-30 01:10:22.23	299.14	51.57	-29.4	-31.8	13.5	6.80e-06	0	44	0	1087373312	18	4773
2026-01-30 01:10:23.23	298.46	51.56	-29.3	-31.6	13.6	9.10e-06	0	44	0	1090519040	18	4710
2026-01-30 01:10:24.24	297.79	51.56	-29.2	-31.5	13.6	6.10e-06	0	44	0	1093664768	18	4675
2026-01-30 01:10:25.24	297.12	51.55	-29.4	-31.9	13.3	1.14e-05	0	44	0	1096810496	18	4814
2026-01-30 01:10:26.25	296.44	51.53	-29.3	-31.6	13.5	8.30e-06	0	44	0	1099956224	18	4698
2026-01-30 01:10:27.26	295.76	51.51	-29.1	-31.3	13.7	1.37e-05	0	44	0	1103101952	18	4605
2026-01-30 01:10:28.26	295.09	51.49	-28.7	-30.2	14.3	1.50e-06	0	44	0	1106247680	18	4283
2026-01-30 01:10:29.26	294.42	51.47	-28.5	-30.2	14.6	0.00e+00	0	44	0	1109393408	17	4404
2026-01-30 01:10:30.27	293.75	51.44	-28.6	-30.4	14.5	3.05e-05	0	44	0	1112539136	17	4465
2026-01-30 01:10:31.27	293.09	51.40	-28.6	-30.4	14.5	0.00e+00	0	44	0	1115684864	17	4453
2026-01-30 01:10:32.26	292.43	51.36	-28.8	-30.9	14.3	7.00e-07	0	44	0	1118830592	17	4591
2026-01-30 01:10:33.27	291.76	51.32	-28.9	-31.1	14.2	7.00e-07	0	44	0	1121976320	17	4661
2026-01-30 01:10:34.28	291.09	51.27	-29.1	-31.1	13.8	3.00e-06	0	44	0	1125122048	18	4551
2026-01-30 01:10:35.28	290.44	51.22	-29.2	-31.5	13.7	8.30e-06	0	44	0	1128267776	18	4658
2026-01-30 01:10:36.29	289.78	51.17	-29.1	-31.1	13.9	2.20e-06	0	44	0	1131413504	18	4556
2026-01-30 01:10:37.29	289.12	51.11	-29.2	-31.5	13.6	3.80e-06	0	44	0	1134559232	18	4671
2026-01-30 01:10:38.30	288.47	51.05	-29.3	-31.6	13.6	1.52e-05	0	44	0	1137704960	18	4717
2026-01-30 01:10:39.30	287.82	50.98	-29.0	-31.0	13.9	9.90e-06	0	44	0	1140850688	18	4502
2026-01-30 01:10:40.30	287.17	50.91	-29.2	-31.4	13.7	6.10e-06	0	44	0	1143996416	18	4647
2026-01-30 01:10:41.31	286.53	50.84	-29.0	-30.9	14.0	4.50e-06	0	44	0	1147142144	18	4485
2026-01-30 01:10:42.31	285.89	50.76	-29.0	-30.9	14.0	6.80e-06	0	44	0	1150287872	18	4491
2026-01-30 01:10:43.32	285.25	50.68	-29.0	-31.0	13.9	4.50e-06	0	44	0	1153433600	18	4521
2026-01-30 01:10:44.33	284.61	50.59	-28.8	-30.4	14.3	3.00e-06	0	44	0	1156579328	18	4333
2026-01-30 01:10:45.33	283.98	50.51	-28.9	-31.2	14.1	3.80e-06	0	44	0	1159725056	17	4688
2026-01-30 01:10:46.33	283.36	50.41	-28.8	-31.1	14.1	4.50e-06	0	44	0	1162870784	17	4651
2026-01-30 01:10:47.33	282.74	50.32	-28.8	-30.9	14.2	7.00e-07	0	44	0	1166016512	17	4602
2026-01-30 01:10:48.33	282.12	50.22	-28.8	-31.0	14.2	2.20e-06	0	44	0	1169162240	17	4631
2026-01-30 01:10:49.34	281.50	50.12	-28.7	-30.7	14.4	0.00e+00	0	44	0	1172307968	17	4533
2026-01-30 01:10:50.34	280.89	50.01	-28.7	-30.8	14.4	0.00e+00	0	44	0	1175453696	17	4560
2026-01-30 01:10:51.35	280.28	49.91	-28.6	-30.5	14.4	2.20e-06	0	44	0	1178599424	17	4489
2026-01-30 01:10:52.36	279.68	49.79	-28.5	-30.2	14.6	0.00e+00	0	44	0	1181745152	17	4393
2026-01-30 01:10:53.36	279.08	49.68	-28.7	-30.7	14.3	1.50e-06	0	44	0	1184890880	17	4534
2026-01-30 01:10:54.36	278.49	49.56	-28.7	-30.7	14.3	7.00e-07	0	44	0	1188036608	17	4545
2026-01-30 01:10:55.36	277.91	49.44	-28.7	-30.8	14.3	7.00e-07	0	44	0	1191182336	17	4564
2026-01-30 01:10:56.36	277.32	49.32	-28.7	-30.7	14.3	1.50e-06	0	44	0	1194328064	17	4547
2026-01-30 01:10:57.36	276.75	49.19	-28.5	-30.3	14.6	0.00e+00	0	44	0	1197473792	17	4433
2026-01-30 01:10:58.37	276.17	49.07	-28.8	-30.9	14.2	7.00e-07	0	44	0	1200619520	17	4614
2026-01-30 01:10:59.38	275.60	48.93	-29.3	-31.7	13.5	6.80e-06	0	44	0	1203765248	18	4737
2026-01-30 01:11:00.38	275.03	48.80	-29.7	-32.1	12.9	4.04e-05	0	44	0	1206910976	19	4767
2026-01-30 01:11:01.39	274.47	48.66	-30.2	-32.9	12.1	2.48e-04	0	44	0	1210056704	20	4939
2026-01-30 01:11:02.39	273.92	48.52	-29.8	-31.8	12.7	3.00e-04	0	44	0	1213202432	20	4569
2026-01-30 01:11:03.40	273.37	48.38	-28.8	-30.0	14.2	7.60e-06	0	44	0	1216348160	19	4122
2026-01-30 01:11:04.40	272.82	48.24	-28.3	-29.9	14.0	0.00e+00	0	44	0	1219493888	17	4303
2026-01-30 01:11:05.40	272.29	48.09	-28.7	-30.7	13.1	7.00e-07	0	44	0	1222639616	17	4534
2026-01-30 01:11:06.40	271.76	47.94	-29.2	-31.5	13.6	3.80e-06	0	44	0	1225785344	18	4680
2026-01-30 01:11:07.41	271.22	47.79	-30.1	-32.7	12.2	3.26e-03	0	44	0	1228931072	20	4846
2026-01-30 01:11:08.41	270.70	47.64	-30.7	-33.8	11.1	7.51e-04	0	44	0	1232076800	21	5146
2026-01-30 01:11:09.42	270.18	47.48	-30.8	-34.1	10.9	3.23e-03	0	44	0	1235222528	21	5290
2026-01-30 01:11:10.43	269.66	47.33	-29.9	-32.1	12.4	4.10e-04	0	44	0	1238368256	20	4665
2026-01-30 01:11:11.42	269.16	47.17	-28.6	-30.4	14.4	3.58e-03	0	44	0	1241513984	17	4453
2026-01-30 01:11:12.43	268.66	47.01	-27.8	-29.1	15.5	0.00e+00	0	44	0	1244659712	16	4175
2026-01-30 01:11:13.43	268.16	46.85	-27.7	-29.4	15.4	0.00e+00	0	44	0	1247805440	15	4380
2026-01-30 01:11:14.43	267.67	46.68	-28.5	-30.3	14.4	0.00e+00	0	44	0	1250951168	17	4424
2026-01-30 01:11:15.44	267.18	46.52	-29.5	-31.7	13.0	1.22e-05	0	44	0	1254096896	19	4620
2026-01-30 01:11:16.45	266.69	46.35	-30.4	-33.4	11.7	1.02e-03	0	44	0	1257242624	20	5112
2026-01-30 01:11:17.46	266.21	46.18	-30.1	-32.8	11.9	7.26e-04	0	44	0	1260388352	20	4911
2026-01-30 01:11:18.46	265.74	46.01	-29.4	-31.3	13.2	2.88e-04	0	44	0	1263534080	19	4504
2026-01-30 01:11:19.46	265.28	45.84	-28.9	-30.1	14.0	1.17e-04	0	44	0	1266679808	19	4146
2026-01-30 01:11:20.47	264.81	45.66	-28.9	-30.6	14.0	2.20e-06	0	44	0	1269825536	18	4410
2026-01-30 01:11:21.47	264.36	45.49	-29.1	-31.2	13.7	1.46e-04	0	44	0	1272971264	18	4585
2026-01-30 01:11:22.47	263.91	45.32	-29.3	-31.7	13.5	8.24e-04	0	44	0	1276116992	18	4722
2026-01-30 01:11:23.48	263.46	45.14	-30.0	-32.5	12.3	2.20e-03	0	44	0	1279262720	20	4782
2026-01-30 01:11:24.48	263.02	44.96	-30.6	-33.6	11.2	1.21e-03	0	44	0	1282408448	21	5075
2026-01-30 01:11:25.48	262.58	44.78	-30.4	-33.5	11.5	1.15e-03	0	44	0	1285554176	20	5138
2026-01-30 01:11:26.48	262.15	44.60	-29.8	-32.4	12.6	2.64e-03	0	44	0	1288699904	19	4867
2026-01-30 01:11:27.49	261.72	44.42	-29.0	-30.5	13.8	1.29e-05	0	44	0	1291845632	19	4271
2026-01-30 01:11:28.49	261.30	44.24	-28.8	-30.4	14.2	3.51e-03	0	44	0	1294991360	18	4335
2026-01-30 01:11:29.50	260.88	44.06	-28.9	-31.2	14.0	3.65e-03	0	44	0	1298137088	17	4707
2026-01-30 01:11:30.51	260.47	43.87	-29.7	-32.2	12.8	3.12e-05	0	44	0	1301282816	19	4797
2026-01-30 01:11:31.50	260.06	43.69	-30.7	-33.7	11.1	1.25e-03	0	44	0	1304428544	21	5124
2026-01-30 01:11:32.51	259.66	43.50	-31.2	-34.8	10.0	6.89e-03	0	44	0	1307574272	22	5442
2026-01-30 01:11:33.51	259.26	43.32	-31.1	-34.5	10.2	1.02e-02	0	44	0	1310720000	22	5326
2026-01-30 01:11:34.52	258.86	43.13	-30.3	-32.9	11.6	4.76e-03	0	44	0	1313865728	21	4815
2026-01-30 01:11:35.53	258.47	42.94	-29.6	-31.9	12.9	3.56e-03	0	44	0	1317011456	19	4689
2026-01-30 01:11:36.53	258.09	42.75	-28.9	-30.3	13.9	3.80e-06	0	44	0	1320157184	19	4211
2026-01-30 01:11:37.54	257.71	42.56	-28.6	-30.6	14.3	3.35e-03	0	44	0	1322254336	17	4508
2026-01-30 01:11:38.54	257.33	42.38	-29.0	-31.0	13.8	3.71e-03	0	44	0	1325400064	18	4539
2026-01-30 01:11:39.55	256.96	42.19	-29.9	-32.7	12.4	6.40e-05	0	44	0	1328545792	19	4954
2026-01-30 01:11:40.55	256.59	42.00	-30.6	-33.6	11.1	5.42e-03	0	44	0	1331691520	21	5078
2026-01-30 01:11:41.55	256.23	41.81	-30.6	-33.6	11.1	1.61e-03	0	44	0	1334837248	21	5097
2026-01-30 01:11:42.56	255.87	41.62	-30.2	-32.5	11.8	6.58e-04	0	44	0	1339031552	21	4683
2026-01-30 01:11:43.56	255.52	41.43	-29.8	-32.5	12.5	4.05e-03	0	44	0	1342177280	19	4897
2026-01-30 01:11:44.56	255.17	41.24	-29.4	-31.4	13.1	4.08e-03	0	44	0	1345323008	19	4546
2026-01-30 01:11:45.57	254.82	41.05	-29.1	-31.3	13.6	1.29e-05	0	44	0	1347420160	18	4599
2026-01-30 01:11:46.57	254.48	40.86	-29.1	-31.3	13.6	9.10e-06	0	44	0	1350565888	18	4613
2026-01-30 01:11:47.57	254.14	40.67	-29.5	-32.2	13.1	2.44e-05	0	44	0	1353711616	18	4902
2026-01-30 01:11:48.58	253.81	40.47	-29.9	-32.7	12.4	1.25e-04	0	44	0	1356857344	19	4959
2026-01-30 01:11:49.58	253.48	40.28	-30.4	-33.5	11.5	4.12e-03	0	44	0	1360003072	20	5158
2026-01-30 01:11:50.58	253.16	40.09	-30.7	-33.9	10.9	1.65e-03	0	44	0	1363148800	21	5189
2026-01-30 01:11:51.59	252.83	39.90	-30.8	-34.1	10.8	2.65e-03	0	44	0	1366294528	21	5281
2026-01-30 01:11:52.59	252.51	39.71	-30.6	-33.6	11.1	1.76e-03	0	44	0	1369440256	21	5090
2026-01-30 01:11:53.59	252.20	39.52	-30.3	-33.2	11.7	6.82e-04	0	44	0	1372585984	20	5045
2026-01-30 01:11:54.60	251.89	39.33	-30.0	-32.5	12.1	3.26e-04	0	44	0	1375731712	20	4815
2026-01-30 01:11:55.61	251.58	39.13	-30.2	-33.0	11.9	3.03e-04	0	44	0	1378877440	20	4960
2026-01-30 01:11:56.61	251.28	38.94	-30.0	-32.5	12.1	4.59e-04	0	44	0	1382023168	20	4800
2026-01-30 01:11:57.61	250.98	38.75	-29.7	-31.8	12.6	1.02e-04	0	44	0	1385168896	20	4562
2026-01-30 01:11:58.62	250.68	38.56	-29.7	-32.3	12.7	7.85e-05	0	44	0	1388314624	19	4841
2026-01-30 01:11:59.62	250.39	38.37	-30.0	-32.4	12.3	1.65e-04	0	44	0	1391460352	20	4773
2026-01-30 01:12:00.62	250.10	38.18	-30.1	-32.8	12.0	3.32e-04	0	44	0	1394606080	20	4904
2026-01-30 01:12:01.62	249.81	37.99	-30.0	-32.5	12.1	2.27e-04	0	44	0	1397751808	20	4807
2026-01-30 01:12:02.62	249.53	37.80	-30.1	-32.6	12.1	2.89e-04	0	44	0	1400897536	20	4833
2026-01-30 01:12:03.61	249.25	37.62	-30.0	-32.5	12.2	2.74e-04	0	44	0	1404043264	20	4802
2026-01-30 01:12:04.61	248.98	37.43	-29.9	-32.6	12.4	1.30e-04	0	44	0	1407188992	19	4948
2026-01-30 01:12:05.62	248.70	37.24	-29.8	-32.6	12.5	1.35e-04	0	44	0	1410334720	19	4931
2026-01-30 01:12:06.63	248.43	37.05	-29.5	-31.6	13.1	6.79e-05	0	44	0	1413480448	19	4624
2026-01-30 01:12:07.63	248.17	36.86	-28.9	-30.7	14.0	7.60e-06	0	44	0	1416626176	18	4428
2026-01-30 01:12:08.63	247.90	36.67	-28.4	-30.1	14.5	7.00e-07	0	44	0	1419771904	17	4387
2026-01-30 01:12:09.64	247.64	36.49	-28.4	-30.1	14.5	0.00e+00	0	44	0	1422917632	17	4369
2026-01-30 01:12:10.64	247.38	36.30	-28.5	-30.4	14.4	0.00e+00	0	44	0	1426063360	17	4458
2026-01-30 01:12:11.64	247.13	36.11	-28.7	-30.7	14.2	7.00e-07	0	44	0	1429209088	17	4551
2026-01-30 01:12:12.64	246.88	35.93	-28.6	-30.5	14.3	7.00e-07	0	44	0	1432354816	17	4482
2026-01-30 01:12:13.65	246.63	35.74	-28.1	-30.0	14.9	0.00e+00	0	44	0	1435500544	16	4440
2026-01-30 01:12:14.65	246.38	35.56	-27.7	-29.5	15.3	0.00e+00	0	44	0	1438646272	15	4415
2026-01-30 01:12:15.64	246.14	35.37	-27.6	-29.3	15.4	0.00e+00	0	44	0	1441792000	15	4376
2026-01-30 01:12:16.64	245.90	35.19	-27.5	-29.0	15.5	0.00e+00	0	44	0	1444937728	15	4300
2026-01-30 01:12:17.64	245.67	35.01	-27.5	-29.0	15.6	0.00e+00	0	44	0	1448083456	15	4302
2026-01-30 01:12:18.65	245.43	34.82	-27.6	-29.2	15.5	0.00e+00	0	44	0	1451229184	15	4340
2026-01-30 01:12:19.65	245.20	34.64	-27.7	-29.5	15.3	0.00e+00	0	44	0	1454374912	15	4425
2026-01-30 01:12:20.64	244.97	34.46	-27.7	-29.5	15.2	0.00e+00	0	44	0	1457520640	15	4444
2026-01-30 01:12:21.65	244.74	34.28	-27.8	-29.7	15.1	0.00e+00	0	44	0	1460666368	15	4488
2026-01-30 01:12:22.65	244.52	34.10	-27.8	-29.8	15.1	1.50e-06	0	44	0	1463812096	15	4512
2026-01-30 01:12:23.65	244.30	33.92	-27.9	-30.0	15.0	1.50e-06	0	44	0	1466957824	15	4578
2026-01-30 01:12:24.66	244.07	33.74	-27.9	-29.9	15.1	0.00e+00	0	44	0	1470103552	15	4544
2026-01-30 01:12:25.66	243.86	33.56	-28.0	-30.1	14.9	2.04e-04	0	44	0	1473249280	15	4612
2026-01-30 01:12:26.67	243.64	33.38	-28.2	-30.2	14.8	2.57e-04	0	44	0	1476395008	16	4505
2026-01-30 01:12:27.66	243.43	33.20	-28.3	-30.5	14.6	7.00e-07	0	44	0	1479540736	16	4597
2026-01-30 01:12:28.66	243.22	33.03	-28.3	-30.3	14.7	3.80e-06	0	44	0	1482686464	16	4538
2026-01-30 01:12:29.67	243.01	32.85	-27.9	-29.5	15.1	2.44e-04	0	44	0	1485832192	16	4318
2026-01-30 01:12:30.67	242.81	32.67	-27.7	-28.9	15.5	0.00e+00	0	44	0	1488977920	16	4145
2026-01-30 01:12:31.67	242.60	32.50	-27.5	-29.1	15.4	2.19e-04	0	44	0	1492123648	15	4312
2026-01-30 01:12:32.67	242.40	32.32	-27.6	-29.2	15.4	0.00e+00	0	44	0	1495269376	15	4348
2026-01-30 01:12:33.68	242.20	32.15	-27.7	-29.6	15.2	0.00e+00	0	44	0	1498415104	15	4452
2026-01-30 01:12:34.69	242.00	31.97	-27.8	-29.8	15.0	8.77e-05	0	44	0	1501560832	15	4523
2026-01-30 01:12:35.69	241.81	31.80	-27.8	-29.9	15.0	3.20e-05	0	44	0	1504706560	15	4547
2026-01-30 01:12:36.69	241.62	31.63	-27.8	-29.7	15.1	0.00e+00	0	44	0	1507852288	15	4503
2026-01-30 01:12:37.70	241.43	31.45	-27.6	-29.2	15.4	7.60e-06	0	44	0	1510998016	15	4342
2026-01-30 01:12:38.70	241.24	31.28	-27.4	-28.8	15.6	0.00e+00	0	44	0	1514143744	15	4244
2026-01-30 01:12:39.70	241.05	31.11	-27.3	-28.7	15.7	0.00e+00	0	44	0	1517289472	15	4195
2026-01-30 01:12:40.71	240.87	30.94	-27.0	-28.4	16.0	8.30e-06	0	44	0	1520435200	14	4235
2026-01-30 01:12:41.72	240.68	30.77	-26.8	-28.0	16.3	0.00e+00	0	44	0	1523580928	14	4140
2026-01-30 01:12:42.72	240.50	30.60	-27.0	-28.4	16.1	0.00e+00	0	44	0	1526726656	14	4230
2026-01-30 01:12:43.72	240.32	30.43	-27.3	-29.1	15.7	0.00e+00	0	44	0	1529872384	14	4429
2026-01-30 01:12:44.73	240.14	30.26	-27.6	-29.3	15.3	0.00e+00	0	44	0	1533018112	15	4382
2026-01-30 01:12:45.73	239.97	30.10	-27.9	-30.0	14.9	0.00e+00	0	44	0	1536163840	15	4587
2026-01-30 01:12:46.73	239.80	29.93	-28.1	-30.0	14.8	9.90e-06	0	44	0	1539309568	16	4478
2026-01-30 01:12:47.73	239.63	29.77	-28.1	-29.9	14.9	0.00e+00	0	44	0	1542455296	16	4425
2026-01-30 01:12:48.73	239.46	29.60	-27.8	-29.3	15.2	0.00e+00	0	44	0	1545601024	16	4254
2026-01-30 01:12:49.74	239.29	29.44	-27.6	-28.8	15.5	0.00e+00	0	44	0	1548746752	16	4122
2026-01-30 01:12:50.74	239.12	29.27	-27.6	-28.7	15.6	0.00e+00	0	44	0	1551892480	16	4092
2026-01-30 01:12:51.74	238.96	29.11	-27.6	-28.8	15.5	0.00e+00	0	44	0	1555038208	16	4118
2026-01-30 01:12:52.74	238.79	28.95	-26.6	-28.0	15.4	0.00e+00	0	44	0	1558183936	15	4205
2026-01-30 01:12:53.75	238.63	28.79	-27.2	-28.5	15.7	0.00e+00	0	44	0	1561329664	15	4154
2026-01-30 01:12:54.76	238.47	28.63	-27.2	-28.3	15.9	0.00e+00	0	44	0	1564475392	15	4100
2026-01-30 01:12:55.76	238.31	28.47	-27.2	-28.9	15.8	0.00e+00	0	44	0	1567621120	14	4362
2026-01-30 01:12:56.76	238.16	28.31	-27.1	-28.6	15.9	0.00e+00	0	44	0	1570766848	14	4288
2026-01-30 01:12:57.77	238.00	28.15	-27.0	-28.4	16.1	4.71e-04	0	44	0	1573912576	14	4229
2026-01-30 01:12:58.77	237.85	27.99	-27.0	-28.9	16.0	0.00e+00	0	44	0	1577058304	13	4496
2026-01-30 01:12:59.78	237.70	27.83	-26.9	-28.2	16.1	0.00e+00	0	44	0	1580204032	14	4185
2026-01-30 01:13:00.78	237.55	27.68	-26.9	-28.8	16.1	0.00e+00	0	44	0	1583349760	13	4454
2026-01-30 01:13:01.78	237.40	27.52	-27.0	-28.9	16.0	2.23e-03	0	44	0	1586495488	13	4506
2026-01-30 01:13:02.78	237.25	27.36	-27.0	-28.9	16.0	1.04e-04	0	44	0	1589641216	13	4512
2026-01-30 01:13:03.78	237.11	27.21	-26.9	-28.3	16.1	0.00e+00	0	44	0	1592786944	14	4210
2026-01-30 01:13:04.79	236.96	27.06	-26.8	-28.5	16.2	0.00e+00	0	44	0	1595932672	13	4398
2026-01-30 01:13:05.80	236.82	26.90	-26.6	-28.1	16.4	0.00e+00	0	44	0	1598029824	13	4286
2026-01-30 01:13:06.80	236.67	26.75	-26.7	-28.3	16.3	1.75e-03	0	44	0	1601175552	13	4321
2026-01-30 01:13:07.80	236.53	26.60	-26.7	-28.4	16.3	8.14e-04	0	44	0	1604321280	13	4345
2026-01-30 01:13:08.80	236.40	26.45	-26.8	-28.5	16.2	0.00e+00	0	44	0	1607467008	13	4390
2026-01-30 01:13:09.80	236.26	26.30	-26.9	-28.7	16.1	0.00e+00	0	44	0	1611661312	13	4448
2026-01-30 01:13:10.81	236.12	26.14	-27.0	-28.9	15.9	4.88e-05	0	44	0	1614807040	13	4503
2026-01-30 01:13:11.80	235.99	26.00	-27.1	-28.8	15.8	0.00e+00	0	44	0	1616904192	14	4346
2026-01-30 01:13:12.80	235.86	25.85	-27.2	-28.9	15.7	0.00e+00	0	44	0	1621098496	14	4397
2026-01-30 01:13:13.81	235.72	25.70	-27.2	-28.9	15.7	0.00e+00	0	44	0	1623195648	14	4379
2026-01-30 01:13:14.82	235.59	25.55	-27.1	-28.7	15.8	0.00e+00	0	44	0	1626341376	14	4345
2026-01-30 01:13:15.82	235.46	25.40	-27.2	-29.0	15.6	0.00e+00	0	44	0	1629487104	14	4427
2026-01-30 01:13:16.82	235.33	25.26	-27.2	-29.0	15.6	9.90e-06	0	44	0	1632632832	14	4426
2026-01-30 01:13:17.82	235.20	25.11	-27.3	-29.3	15.4	0.00e+00	0	44	0	1635778560	14	4506
2026-01-30 01:13:18.83	235.08	24.97	-27.5	-29.2	15.2	4.95e-04	0	44	0	1638924288	15	4361
2026-01-30 01:13:19.83	234.95	24.82	-27.5	-29.1	15.3	8.25e-04	0	44	0	1642070016	15	4329
2026-01-30 01:13:20.83	234.83	24.68	-27.5	-29.0	15.3	0.00e+00	0	44	0	1645215744	15	4319
2026-01-30 01:13:21.84	234.71	24.54	-27.5	-29.2	15.2	2.09e-03	0	44	0	1648361472	15	4379
2026-01-30 01:13:22.84	234.58	24.39	-27.5	-29.2	15.2	2.23e-03	0	44	0	1651507200	15	4360
2026-01-30 01:13:23.84	234.46	24.25	-27.5	-29.2	15.2	5.49e-05	0	44	0	1654652928	15	4369
2026-01-30 01:13:24.84	234.34	24.11	-27.7	-29.6	15.0	1.84e-03	0	44	0	1657798656	15	4474
2026-01-30 01:13:25.85	234.23	23.97	-27.5	-29.2	15.2	0.00e+00	0	44	0	1660944384	15	4348
2026-01-30 01:13:26.86	234.11	23.83	-27.3	-29.2	15.5	0.00e+00	0	44	0	1664090112	14	4474
2026-01-30 01:13:27.86	233.99	23.69	-27.4	-29.3	15.4	8.18e-04	0	44	0	1667235840	14	4516
2026-01-30 01:13:28.87	233.87	23.55	-27.6	-29.3	15.1	2.59e-04	0	44	0	1670381568	15	4406
2026-01-30 01:13:29.87	233.76	23.41	-27.4	-29.0	15.3	0.00e+00	0	44	0	1673527296	15	4304
2026-01-30 01:13:30.88	233.65	23.27	-27.4	-28.9	15.3	1.50e-06	0	44	0	1676673024	15	4288
2026-01-30 01:13:31.88	233.54	23.14	-26.8	-28.2	15.3	0.00e+00	0	44	0	1679818752	15	4234
2026-01-30 01:13:32.88	233.42	23.00	-27.4	-29.4	15.3	0.00e+00	0	44	0	1682964480	14	4546
2026-01-30 01:13:33.88	233.31	22.87	-27.4	-29.4	15.1	7.24e-04	0	44	0	1686110208	14	4530
2026-01-30 01:13:34.88	233.21	22.73	-27.5	-29.6	15.2	0.00e+00	0	44	0	1689255936	14	4596
2026-01-30 01:13:35.89	233.10	22.60	-27.5	-29.2	15.1	0.00e+00	0	44	0	1692401664	15	4374
2026-01-30 01:13:36.89	232.99	22.46	-27.8	-30.0	14.7	0.00e+00	0	44	0	1695547392	15	4592
2026-01-30 01:13:37.89	232.88	22.33	-27.7	-29.6	14.9	2.80e-03	0	44	0	1698693120	15	4483
2026-01-30 01:13:38.89	232.78	22.20	-27.4	-28.9	15.3	4.11e-05	0	44	0	1701838848	15	4273
2026-01-30 01:13:39.89	232.67	22.07	-27.1	-28.8	15.6	0.00e+00	0	44	0	1704984576	14	4367
2026-01-30 01:13:40.88	232.57	21.94	-27.0	-28.6	15.7	0.00e+00	0	44	0	1708130304	14	4321
2026-01-30 01:13:41.89	232.47	21.80	-27.1	-28.7	15.7	0.00e+00	0	44	0	1711276032	14	4333
2026-01-30 01:13:42.89	232.37	21.67	-27.1	-28.9	15.6	1.98e-04	0	44	0	1714421760	14	4394
2026-01-30 01:13:43.90	232.27	21.54	-27.2	-29.0	15.5	3.95e-03	0	44	0	1717567488	14	4423
2026-01-30 01:13:44.90	232.17	21.41	-27.1	-28.8	15.6	0.00e+00	0	44	0	1720713216	14	4377
2026-01-30 01:13:45.91	232.07	21.29	-27.0	-28.6	15.7	0.00e+00	0	44	0	1723858944	14	4304
2026-01-30 01:13:46.92	231.97	21.16	-27.1	-28.7	15.6	2.91e-04	0	44	0	1727004672	14	4354
2026-01-30 01:13:47.92	231.87	21.03	-27.0	-28.5	15.8	0.00e+00	0	44	0	1730150400	14	4272
2026-01-30 01:13:48.93	231.77	20.90	-26.8	-28.7	15.9	2.94e-04	0	44	0	1733296128	13	4448
2026-01-30 01:13:49.93	231.68	20.77	-26.7	-28.4	16.1	0.00e+00	0	44	0	1736441856	13	4372
2026-01-30 01:13:50.94	231.58	20.65	-26.9	-28.8	15.8	0.00e+00	0	44	0	1739587584	13	4492
2026-01-30 01:13:51.94	231.49	20.52	-26.7	-28.5	16.0	2.25e-04	0	44	0	1742733312	13	4392
2026-01-30 01:13:52.94	231.39	20.40	-26.5	-28.0	16.3	1.95e-04	0	44	0	1745879040	13	4259
2026-01-30 01:13:53.95	231.30	20.27	-26.5	-27.8	16.4	0.00e+00	0	44	0	1749024768	13	4211
2026-01-30 01:13:54.95	231.21	20.15	-26.5	-28.4	16.3	1.61e-04	0	44	0	1752170496	12	4479
2026-01-30 01:13:55.95	231.12	20.03	-26.6	-28.1	16.2	1.37e-05	0	44	0	1755316224	13	4274
2026-01-30 01:13:56.95	231.03	19.90	-26.7	-28.4	16.0	0.00e+00	0	44	0	1758461952	13	4362
2026-01-30 01:13:57.95	230.94	19.78	-26.7	-28.5	16.0	0.00e+00	0	44	0	1761607680	13	4391
2026-01-30 01:13:58.96	230.85	19.66	-26.9	-28.8	15.8	0.00e+00	0	44	0	1764753408	13	4475
2026-01-30 01:13:59.96	230.76	19.54	-26.9	-28.7	15.9	0.00e+00	0	44	0	1767899136	13	4456
2026-01-30 01:14:00.96	230.67	19.42	-27.0	-29.0	15.7	0.00e+00	0	44	0	1771044864	13	4557
2026-01-30 01:14:01.96	230.58	19.30	-27.0	-28.5	15.7	0.00e+00	0	44	0	1774190592	14	4296
2026-01-30 01:14:02.97	230.50	19.18	-27.1	-28.8	15.5	0.00e+00	0	44	0	1777336320	14	4365
2026-01-30 01:14:03.97	230.41	19.06	-27.1	-28.8	15.5	0.00e+00	0	44	0	1780482048	14	4377
2026-01-30 01:14:04.98	230.33	18.94	-27.2	-29.1	15.3	0.00e+00	0	44	0	1783627776	14	4463
2026-01-30 01:14:05.98	230.24	18.82	-27.2	-29.0	15.4	0.00e+00	0	44	0	1786773504	14	4432
2026-01-30 01:14:06.98	230.16	18.71	-27.3	-29.2	15.3	0.00e+00	0	44	0	1789919232	14	4475
2026-01-30 01:14:07.98	230.08	18.59	-27.3	-29.2	15.3	0.00e+00	0	44	0	1793064960	14	4493
2026-01-30 01:14:08.99	229.99	18.47	-27.4	-29.4	15.2	0.00e+00	0	44	0	1796210688	14	4563
2026-01-30 01:14:09.99	229.91	18.36	-27.5	-29.7	15.0	0.00e+00	0	44	0	1799356416	14	4626
2026-01-30 01:14:10.99	229.83	18.24	-27.5	-29.1	15.0	0.00e+00	0	44	0	1802502144	15	4345
2026-01-30 01:14:12.00	229.75	18.12	-27.4	-29.0	15.1	0.00e+00	0	44	0	1805647872	15	4308
2026-01-30 01:14:13.00	229.67	18.01	-27.6	-29.3	14.9	0.00e+00	0	44	0	1808793600	15	4415
2026-01-30 01:14:14.01	229.59	17.89	-27.4	-29.0	15.1	0.00e+00	0	44	0	1811939328	15	4309
2026-01-30 01:14:15.01	229.52	17.78	-27.3	-28.8	15.2	0.00e+00	0	44	0	1815085056	15	4270
2026-01-30 01:14:16.01	229.44	17.67	-27.4	-28.9	15.1	0.00e+00	0	44	0	1818230784	15	4286
2026-01-30 01:14:17.01	229.36	17.56	-27.3	-29.3	15.2	0.00e+00	0	44	0	1821376512	14	4501
2026-01-30 01:14:18.01	229.28	17.44	-27.2	-29.0	15.4	0.00e+00	0	44	0	1824522240	14	4422
2026-01-30 01:14:19.01	229.21	17.33	-27.2	-28.9	15.4	0.00e+00	0	44	0	1827667968	14	4409
2026-01-30 01:14:20.01	229.13	17.22	-27.3	-29.2	15.2	0.00e+00	0	44	0	1830813696	14	4484
2026-01-30 01:14:21.01	229.06	17.11	-27.2	-28.9	15.4	0.00e+00	0	44	0	1833959424	14	4405
2026-01-30 01:14:22.01	228.98	17.00	-27.2	-29.0	15.3	7.00e-07	0	44	0	1837105152	14	4438
2026-01-30 01:14:23.02	228.91	16.89	-27.3	-29.3	15.2	0.00e+00	0	44	0	1840250880	14	4514
2026-01-30 01:14:24.03	228.84	16.78	-27.4	-29.4	15.1	0.00e+00	0	44	0	1843396608	14	4542
2026-01-30 01:14:25.03	228.76	16.67	-27.5	-29.6	14.9	7.00e-07	0	44	0	1846542336	14	4620
2026-01-30 01:14:26.03	228.69	16.56	-27.3	-29.3	15.2	0.00e+00	0	44	0	1849688064	14	4504
2026-01-30 01:14:27.03	228.62	16.45	-27.2	-29.0	15.3	0.00e+00	0	44	0	1852833792	14	4437
2026-01-30 01:14:28.03	228.55	16.35	-27.2	-29.0	15.3	0.00e+00	0	44	0	1855979520	14	4442
2026-01-30 01:14:29.04	228.48	16.24	-27.3	-29.3	15.1	0.00e+00	0	44	0	1859125248	14	4525
2026-01-30 01:14:30.05	228.41	16.13	-27.2	-29.1	15.2	0.00e+00	0	44	0	1862270976	14	4448
2026-01-30 01:14:31.05	228.34	16.02	-27.4	-29.4	15.0	0.00e+00	0	44	0	1865416704	14	4559
2026-01-30 01:14:32.06	228.27	15.92	-27.3	-29.1	15.2	0.00e+00	0	44	0	1868562432	14	4463
2026-01-30 01:14:33.06	228.20	15.81	-27.2	-29.0	15.3	0.00e+00	0	44	0	1871708160	14	4429
2026-01-30 01:14:34.06	228.13	15.71	-27.2	-29.1	15.2	0.00e+00	0	44	0	1874853888	14	4454
2026-01-30 01:14:35.06	228.07	15.60	-27.3	-29.1	15.2	0.00e+00	0	44	0	1877999616	14	4470
2026-01-30 01:14:36.07	228.00	15.50	-27.3	-29.2	15.1	0.00e+00	0	44	0	1881145344	14	4504
2026-01-30 01:14:37.08	227.93	15.39	-27.2	-29.2	15.1	0.00e+00	0	44	0	1884291072	14	4517
2026-01-30 01:14:38.08	227.87	15.29	-27.3	-29.3	14.6	0.00e+00	0	44	0	1887436800	14	4517
2026-01-30 01:14:39.09	227.80	15.18	-27.4	-29.5	12.6	7.00e-07	0	44	0	1890582528	14	4569
2026-01-30 01:14:40.09	227.74	15.08	-27.6	-29.4	14.0	0.00e+00	0	44	0	1893728256	15	4433
2026-01-30 01:14:41.09	227.67	14.98	-27.8	-29.9	14.4	3.96e-04	0	44	0	1896873984	15	4587
2026-01-30 01:14:42.10	227.61	14.88	-27.6	-29.5	14.6	3.40e-03	0	44	0	1900019712	15	4474
2026-01-30 01:14:43.10	227.54	14.77	-27.6	-29.5	14.6	0.00e+00	0	44	0	1903165440	15	4461
2026-01-30 01:14:44.10	227.48	14.67	-27.6	-29.5	14.6	0.00e+00	0	44	0	1906311168	15	4466
2026-01-30 01:14:45.09	227.42	14.57	-27.6	-29.5	14.6	0.00e+00	0	44	0	1909456896	15	4468
2026-01-30 01:14:46.10	227.35	14.47	-27.6	-29.5	14.6	3.68e-03	0	44	0	1912602624	15	4477
2026-01-30 01:14:47.10	227.29	14.37	-27.7	-29.7	14.5	3.15e-04	0	44	0	1915748352	15	4536
2026-01-30 01:14:48.11	227.23	14.27	-27.7	-29.6	14.5	0.00e+00	0	44	0	1918894080	15	4514
2026-01-30 01:14:49.11	227.17	14.17	-27.7	-29.7	14.5	2.20e-06	0	44	0	1920991232	15	4540
2026-01-30 01:14:50.12	227.11	14.07	-27.7	-29.8	14.5	7.00e-07	0	44	0	1924136960	15	4554
2026-01-30 01:14:51.12	227.05	13.97	-27.8	-29.9	14.3	3.38e-03	0	44	0	1927282688	15	4598
2026-01-30 01:14:52.12	226.99	13.88	-27.8	-30.0	14.3	3.85e-03	0	44	0	1930428416	15	4622
2026-01-30 01:14:53.12	226.93	13.78	-27.8	-30.0	14.2	3.04e-04	0	44	0	1933574144	15	4640
2026-01-30 01:14:54.13	226.87	13.68	-27.8	-30.0	14.2	1.50e-06	0	44	0	1936719872	15	4628
2026-01-30 01:14:55.13	226.81	13.58	-27.9	-30.1	14.2	1.50e-06	0	44	0	1939865600	15	4659
2026-01-30 01:14:56.14	226.75	13.48	-27.9	-30.3	14.0	2.56e-04	0	44	0	1943011328	15	4729
2026-01-30 01:14:57.14	226.70	13.39	-27.9	-30.2	14.1	3.68e-03	0	44	0	1946157056	15	4682
2026-01-30 01:14:58.15	226.64	13.29	-28.1	-30.2	14.0	3.29e-03	0	44	0	1949302784	16	4577
2026-01-30 01:14:59.16	226.58	13.20	-28.0	-29.8	14.2	2.01e-04	0	44	0	1952448512	16	4450
2026-01-30 01:15:00.16	226.53	13.10	-27.9	-29.8	14.2	0.00e+00	0	44	0	1955594240	16	4448
2026-01-30 01:15:01.17	226.47	13.00	-27.8	-30.1	14.2	3.76e-03	0	44	0	1958739968	15	4654
2026-01-30 01:15:02.17	226.41	12.91	-27.8	-29.9	14.2	1.37e-04	0	44	0	1961885696	15	4602
2026-01-30 01:15:03.17	226.36	12.82	-27.8	-30.0	14.2	3.54e-03	0	44	0	1965031424	15	4630
2026-01-30 01:15:04.17	226.30	12.72	-27.8	-30.1	14.1	3.45e-03	0	44	0	1968177152	15	4666
2026-01-30 01:15:05.18	226.25	12.63	-27.7	-29.8	14.3	7.00e-07	0	44	0	1971322880	15	4564
2026-01-30 01:15:06.18	226.19	12.53	-27.8	-29.9	14.2	2.98e-03	0	44	0	1974468608	15	4611
2026-01-30 01:15:07.19	226.14	12.44	-27.8	-29.9	14.2	2.71e-03	0	44	0	1977614336	15	4606
2026-01-30 01:15:08.19	226.09	12.35	-27.8	-29.9	14.2	4.50e-06	0	44	0	1980760064	15	4620
2026-01-30 01:15:09.19	226.03	12.25	-27.8	-30.1	14.1	2.56e-03	0	44	0	1983905792	15	4664
2026-01-30 01:15:10.19	225.98	12.16	-27.7	-29.9	14.2	0.00e+00	0	44	0	1987051520	15	4591
2026-01-30 01:15:11.19	225.93	12.07	-27.7	-29.7	14.3	7.00e-07	0	44	0	1990197248	15	4530
2026-01-30 01:15:12.19	225.87	11.98	-27.7	-29.7	14.3	2.01e-03	0	44	0	1993342976	15	4545
2026-01-30 01:15:13.20	225.82	11.89	-27.6	-29.6	14.3	1.99e-03	0	44	0	1996488704	15	4521
2026-01-30 01:15:14.20	225.77	11.80	-27.6	-29.6	14.4	7.00e-07	0	44	0	1999634432	15	4509
2026-01-30 01:15:15.20	225.72	11.71	-27.7	-29.7	14.3	0.00e+00	0	44	0	2002780160	15	4555
2026-01-30 01:15:16.20	225.67	11.62	-27.7	-29.7	14.3	9.46e-05	0	44	0	2005925888	15	4533
2026-01-30 01:15:17.21	225.62	11.53	-27.7	-29.9	14.2	1.50e-06	0	44	0	2009071616	15	4594
2026-01-30 01:15:18.21	225.57	11.44	-27.9	-30.3	13.9	2.49e-03	0	44	0	2012217344	15	4733
2026-01-30 01:15:19.21	225.52	11.35	-28.2	-30.4	13.7	2.76e-03	0	44	0	2015363072	16	4649
2026-01-30 01:15:20.21	225.47	11.26	-28.1	-30.1	13.9	2.20e-06	0	44	0	2018508800	16	4545
2026-01-30 01:15:21.21	225.42	11.17	-28.1	-30.2	13.8	4.80e-05	0	44	0	2021654528	16	4583
2026-01-30 01:15:22.22	225.37	11.08	-28.1	-30.2	13.8	2.67e-05	0	44	0	2024800256	16	4571
2026-01-30 01:15:23.22	225.32	10.99	-28.2	-30.3	13.7	8.30e-06	0	44	0	2027945984	16	4609
2026-01-30 01:15:24.22	225.27	10.91	-28.0	-30.5	13.8	2.98e-03	0	44	0	2031091712	15	4798
2026-01-30 01:15:25.23	225.23	10.82	-28.2	-30.5	13.6	6.10e-06	0	44	0	2034237440	16	4676
2026-01-30 01:15:26.24	225.18	10.73	-28.1	-30.2	13.8	1.37e-05	0	44	0	2037383168	16	4595
2026-01-30 01:15:27.25	225.13	10.64	-28.0	-30.0	13.9	3.80e-06	0	44	0	2040528896	16	4520
2026-01-30 01:15:28.26	225.08	10.55	-28.0	-30.0	13.9	2.20e-06	0	44	0	2043674624	16	4529
2026-01-30 01:15:29.26	225.04	10.47	-28.1	-30.1	13.9	2.20e-06	0	44	0	2046820352	16	4548
2026-01-30 01:15:30.26	224.99	10.38	-27.9	-30.2	13.9	3.00e-06	0	44	0	2049966080	15	4722
2026-01-30 01:15:31.26	224.94	10.30	-27.9	-30.2	13.9	2.20e-06	0	44	0	2053111808	15	4705
2026-01-30 01:15:32.26	224.90	10.21	-28.0	-30.4	13.8	5.30e-06	0	44	0	2056257536	15	4774
2026-01-30 01:15:33.26	224.85	10.13	-28.2	-30.5	13.6	6.80e-06	0	44	0	2059403264	16	4682
2026-01-30 01:15:34.27	224.81	10.04	-28.3	-30.6	13.5	1.37e-05	0	44	0	2062548992	16	4725
2026-01-30 01:15:35.27	224.76	9.96	-28.3	-30.7	13.5	1.22e-05	0	44	0	2065694720	16	4727
2026-01-30 01:15:36.27	224.72	9.87	-28.3	-30.8	13.4	1.44e-05	0	44	0	2068840448	16	4771
2026-01-30 01:15:37.27	224.67	9.79	-28.3	-30.7	13.4	4.50e-06	0	44	0	2071986176	16	4752
2026-01-30 01:15:38.27	224.63	9.70	-28.4	-31.0	13.2	1.44e-05	0	44	0	2075131904	16	4831
2026-01-30 01:15:39.28	224.58	9.62	-28.6	-30.9	13.0	4.04e-05	0	44	0	2078277632	17	4714
2026-01-30 01:15:40.28	224.54	9.54	-28.7	-31.2	12.8	5.95e-05	0	44	0	2081423360	17	4802
2026-01-30 01:15:41.28	224.50	9.45	-28.7	-31.1	12.8	5.79e-05	0	44	0	2084569088	17	4766
2026-01-30 01:15:42.29	224.45	9.37	-28.8	-31.4	12.6	8.16e-05	0	44	0	2087714816	17	4863
2026-01-30 01:15:43.29	224.41	9.29	-28.7	-31.2	12.8	7.32e-05	0	44	0	2090860544	17	4809
2026-01-30 01:15:44.29	224.37	9.21	-28.9	-31.6	12.5	1.28e-04	0	44	0	2094006272	17	4946
2026-01-30 01:15:45.29	224.32	9.12	-28.8	-31.4	12.6	8.39e-05	0	44	0	2097152000	17	4866
2026-01-30 01:15:46.30	224.28	9.04	-28.9	-31.8	12.4	1.55e-04	0	44	0	2100297728	17	5001
2026-01-30 01:15:47.31	224.24	8.96	-28.7	-31.4	12.6	1.17e-04	0	44	0	2103443456	17	4863
2026-01-30 01:15:48.31	224.20	8.88	-28.6	-31.1	12.8	5.26e-05	0	44	0	2106589184	17	4761
2026-01-30 01:15:49.31	224.16	8.80	-28.6	-31.0	12.8	4.80e-05	0	44	0	2109734912	17	4749
2026-01-30 01:15:50.31	224.11	8.72	-28.7	-31.1	12.8	6.02e-05	0	44	0	2112880640	17	4777
2026-01-30 01:15:51.31	224.07	8.64	-28.7	-31.3	12.6	7.40e-05	0	44	0	2116026368	17	4837
2026-01-30 01:15:52.32	224.03	8.56	-28.8	-31.6	12.4	1.48e-04	0	44	0	2119172096	17	4944
2026-01-30 01:15:53.32	223.99	8.48	-28.7	-31.2	12.7	9.15e-05	0	44	0	2122317824	17	4805
2026-01-30 01:15:54.33	223.95	8.40	-28.7	-31.2	12.7	7.09e-05	0	44	0	2125463552	17	4803
2026-01-30 01:15:55.33	223.91	8.32	-28.7	-31.3	12.6	8.39e-05	0	44	0	2128609280	17	4861
2026-01-30 01:15:56.33	223.87	8.24	-28.7	-31.3	12.6	1.01e-04	0	44	0	2131755008	17	4863
2026-01-30 01:15:57.34	223.83	8.16	-28.9	-31.7	12.4	1.57e-04	0	44	0	2134900736	17	4972
