passes_logs/2026/01/30/R2M6_AANII_01/R2M6_AANII_01__20260130_020919_AQUA_rec.log

#Pass ID: 20260130_020919_AQUA
#Satellite: AQUA
#Configuration: AQUA
#almurnet v.1.7.20240730
#Start time: 2026-01-30 02:09:20

#Version: 2.2.20231116
#Station: R2M6_AANII_01
#Location: 30.233357 lon 59.946436 lat
#TLE: 1 27424U 02022A   26028.91948147  .00001781  00000+0  36607-3 0  9997
#TLE: 2 27424  98.4103 355.5827 0001815  62.4290   1.4641 14.61871847262923

#Time	Az	El	Level	Level2	SNR	BER	BlckErr	Temp	State	Recorded	gain1	gain2
2026-01-30 02:09:20.31	16.71	7.05	-32.0	-38.8	5.1	7.07e-01	0	41	0	0	24	7949
2026-01-30 02:09:21.30	16.70	7.13	-32.4	-40.3	4.9	7.09e-01	0	41	104	0	25	8960
2026-01-30 02:09:22.31	16.70	7.21	-32.3	-38.8	13.0	6.07e-01	0	41	0	0	25	7656
2026-01-30 02:09:23.31	16.70	7.29	-32.4	-39.5	12.4	6.08e-01	0	41	0	1572864	25	8157
2026-01-30 02:09:24.31	16.69	7.38	-32.1	-38.3	13.5	6.06e-01	0	41	0	3670016	25	7270
2026-01-30 02:09:25.32	16.69	7.46	-31.9	-37.3	14.3	6.05e-01	0	41	0	5242880	25	6652
2026-01-30 02:09:26.32	16.68	7.54	-31.7	-37.0	15.0	6.03e-01	0	41	0	7340032	24	6614
2026-01-30 02:09:27.32	16.68	7.63	-31.5	-36.1	15.6	6.02e-01	0	41	0	9437184	24	6126
2026-01-30 02:09:28.33	16.68	7.71	-31.4	-35.6	16.0	6.02e-01	0	42	0	11010048	24	5900
2026-01-30 02:09:29.33	16.67	7.79	-31.4	-36.1	16.0	6.02e-01	0	41	0	13107200	23	6245
2026-01-30 02:09:30.34	16.67	7.88	-31.4	-36.3	15.8	6.04e-01	0	41	0	14680064	23	6346
2026-01-30 02:09:31.34	16.66	7.96	-31.5	-36.5	15.7	6.03e-01	0	41	0	16777216	23	6421
2026-01-30 02:09:32.34	16.66	8.05	-31.4	-36.2	15.9	6.02e-01	0	41	0	18350080	23	6266
2026-01-30 02:09:33.35	16.65	8.13	-31.2	-35.5	16.5	6.04e-01	0	42	0	20447232	23	5923
2026-01-30 02:09:34.36	16.65	8.22	-30.9	-34.8	16.9	6.02e-01	0	42	0	22544384	23	5592
2026-01-30 02:09:35.37	16.64	8.31	-30.8	-34.7	17.4	6.04e-01	0	42	0	24117248	22	5667
2026-01-30 02:09:36.37	16.64	8.39	-30.7	-34.4	17.5	6.03e-01	0	42	0	26214400	22	5532
2026-01-30 02:09:37.38	16.63	8.48	-30.6	-34.1	17.8	6.03e-01	0	42	0	28311552	22	5402
2026-01-30 02:09:38.38	16.63	8.57	-30.5	-34.5	17.9	6.01e-01	0	42	0	29884416	21	5685
2026-01-30 02:09:39.38	16.63	8.66	-30.6	-34.2	17.7	6.03e-01	0	42	0	31981568	22	5445
2026-01-30 02:09:40.39	16.62	8.74	-30.8	-34.7	17.4	6.04e-01	0	42	0	33554432	22	5673
2026-01-30 02:09:41.39	16.62	8.83	-30.8	-34.9	17.3	6.02e-01	0	42	0	35651584	22	5727
2026-01-30 02:09:42.39	16.61	8.92	-30.6	-34.2	17.7	6.02e-01	0	42	0	37224448	22	5453
2026-01-30 02:09:43.40	16.61	9.01	-30.6	-34.1	17.9	6.04e-01	0	42	0	39321600	22	5383
2026-01-30 02:09:44.40	16.60	9.10	-30.5	-34.3	18.1	6.02e-01	0	42	0	41418752	21	5584
2026-01-30 02:09:45.40	16.59	9.19	-30.5	-34.3	18.0	6.02e-01	0	42	0	42991616	21	5602
2026-01-30 02:09:46.40	16.59	9.28	-30.5	-34.4	18.0	6.01e-01	0	42	0	45088768	21	5638
2026-01-30 02:09:47.41	16.58	9.37	-30.5	-34.3	17.8	6.04e-01	0	42	0	46661632	21	5588
2026-01-30 02:09:48.41	16.58	9.46	-30.5	-34.4	18.0	6.04e-01	0	42	0	48758784	21	5634
2026-01-30 02:09:49.41	16.57	9.55	-30.6	-34.2	17.9	6.03e-01	0	42	0	50855936	22	5414
2026-01-30 02:09:50.42	16.57	9.64	-30.8	-34.6	17.6	6.02e-01	0	42	0	52428800	22	5601
2026-01-30 02:09:51.42	16.56	9.73	-30.8	-34.7	17.5	6.03e-01	0	42	0	54525952	22	5643
2026-01-30 02:09:52.43	16.56	9.83	-30.8	-34.6	17.6	6.05e-01	0	42	0	56098816	22	5608
2026-01-30 02:09:53.43	16.55	9.92	-30.8	-34.6	17.6	6.03e-01	0	42	0	58195968	22	5606
2026-01-30 02:09:54.44	16.54	10.01	-30.6	-34.1	17.9	6.00e-01	0	42	0	59768832	22	5388
2026-01-30 02:09:55.44	16.54	10.10	-30.6	-34.5	18.0	6.03e-01	0	42	0	61865984	21	5669
2026-01-30 02:09:56.44	16.53	10.20	-30.5	-34.4	18.1	6.03e-01	0	42	0	63963136	21	5615
2026-01-30 02:09:57.45	16.53	10.29	-30.5	-34.4	18.1	6.02e-01	0	42	0	65536000	21	5635
2026-01-30 02:09:58.45	16.52	10.39	-30.6	-34.1	18.0	6.06e-01	0	42	0	67633152	22	5372
2026-01-30 02:09:59.45	16.51	10.48	-30.4	-34.1	18.3	6.03e-01	0	42	0	69206016	21	5490
2026-01-30 02:10:00.45	16.51	10.58	-30.4	-34.0	18.4	6.03e-01	0	42	0	71303168	21	5448
2026-01-30 02:10:01.45	16.50	10.67	-30.4	-34.1	18.3	6.01e-01	0	42	0	73400320	21	5500
2026-01-30 02:10:02.46	16.50	10.77	-30.5	-34.3	18.2	6.03e-01	0	42	0	74973184	21	5571
2026-01-30 02:10:03.46	16.49	10.86	-30.4	-33.9	18.4	6.03e-01	0	42	0	77070336	21	5418
2026-01-30 02:10:04.47	16.48	10.96	-30.3	-33.6	18.6	6.03e-01	0	42	0	78643200	21	5293
2026-01-30 02:10:05.46	16.48	11.06	-30.2	-33.4	18.8	6.03e-01	0	42	0	80740352	21	5219
2026-01-30 02:10:06.47	16.47	11.16	-30.2	-33.3	18.9	6.03e-01	0	42	0	82837504	21	5182
2026-01-30 02:10:07.47	16.46	11.25	-30.2	-33.3	18.9	6.02e-01	0	42	0	84410368	21	5173
2026-01-30 02:10:08.48	16.46	11.35	-30.1	-33.2	18.9	6.02e-01	0	42	0	86507520	21	5133
2026-01-30 02:10:09.48	16.45	11.45	-30.2	-33.3	18.9	6.05e-01	0	42	0	88080384	21	5172
2026-01-30 02:10:10.48	16.44	11.55	-30.2	-33.4	18.8	6.03e-01	0	42	0	90177536	21	5196
2026-01-30 02:10:11.49	16.43	11.65	-30.1	-33.6	19.0	6.03e-01	0	42	0	91750400	20	5386
2026-01-30 02:10:12.49	16.43	11.75	-30.0	-33.4	19.1	6.02e-01	0	42	0	93847552	20	5335
2026-01-30 02:10:13.49	16.42	11.85	-30.1	-33.2	19.0	6.03e-01	0	43	0	95944704	21	5134
2026-01-30 02:10:14.49	16.41	11.96	-30.3	-33.6	18.7	6.04e-01	0	43	0	97517568	21	5298
2026-01-30 02:10:15.50	16.40	12.06	-30.4	-33.9	18.4	6.03e-01	0	43	0	99614720	21	5420
2026-01-30 02:10:16.50	16.40	12.16	-30.4	-34.0	18.4	6.02e-01	0	42	0	101187584	21	5436
2026-01-30 02:10:17.50	16.39	12.26	-30.4	-33.9	18.5	6.05e-01	0	42	0	103284736	21	5414
2026-01-30 02:10:18.50	16.38	12.37	-30.3	-33.8	18.6	6.04e-01	0	42	0	104857600	21	5345
2026-01-30 02:10:19.50	16.37	12.47	-30.4	-33.9	18.6	6.02e-01	0	43	0	106954752	21	5389
2026-01-30 02:10:20.51	16.37	12.57	-30.4	-34.0	18.5	6.03e-01	0	43	0	109051904	21	5444
2026-01-30 02:10:21.50	16.36	12.68	-30.4	-33.9	18.6	6.03e-01	0	42	0	110624768	21	5392
2026-01-30 02:10:22.50	16.35	12.78	-30.1	-33.1	19.1	6.00e-01	0	43	0	112721920	21	5085
2026-01-30 02:10:23.50	16.34	12.89	-30.0	-33.3	19.3	6.02e-01	0	43	0	114294784	20	5267
2026-01-30 02:10:24.50	16.33	12.99	-30.0	-33.2	19.3	6.03e-01	0	42	0	116391936	20	5247
2026-01-30 02:10:25.50	16.33	13.10	-30.1	-33.6	19.1	6.03e-01	0	42	0	118489088	20	5373
2026-01-30 02:10:26.50	16.32	13.21	-30.3	-33.6	18.8	6.03e-01	0	43	0	120061952	21	5255
2026-01-30 02:10:27.50	16.31	13.32	-30.3	-33.5	18.8	6.01e-01	0	43	0	122159104	21	5238
2026-01-30 02:10:28.50	16.30	13.42	-30.2	-33.3	19.0	6.04e-01	0	43	0	123731968	21	5166
2026-01-30 02:10:29.50	16.29	13.53	-30.2	-33.4	18.9	6.02e-01	0	43	0	125829120	21	5192
2026-01-30 02:10:30.50	16.28	13.64	-30.1	-33.2	19.1	6.02e-01	0	43	0	127401984	21	5106
2026-01-30 02:10:31.51	16.27	13.75	-30.0	-33.4	19.3	6.04e-01	0	43	0	129499136	20	5294
2026-01-30 02:10:32.51	16.26	13.86	-29.9	-33.2	19.4	6.04e-01	0	42	0	131596288	20	5230
2026-01-30 02:10:33.51	16.26	13.97	-30.0	-33.3	19.3	6.05e-01	0	43	0	133169152	20	5278
2026-01-30 02:10:34.51	16.25	14.08	-30.1	-33.5	19.2	6.04e-01	0	43	0	135266304	20	5341
2026-01-30 02:10:35.52	16.24	14.20	-30.1	-33.1	19.1	6.02e-01	0	43	0	136839168	21	5077
2026-01-30 02:10:36.52	16.23	14.31	-30.4	-33.9	18.7	6.03e-01	0	43	0	138936320	21	5372
2026-01-30 02:10:37.52	16.22	14.42	-30.4	-33.9	18.7	6.03e-01	0	43	0	141033472	21	5359
2026-01-30 02:10:38.51	16.21	14.54	-30.1	-33.1	19.1	6.04e-01	0	43	0	142606336	21	5066
2026-01-30 02:10:39.52	16.20	14.65	-29.9	-32.6	19.5	6.00e-01	0	43	0	144703488	21	4890
2026-01-30 02:10:40.52	16.19	14.77	-29.8	-32.8	19.6	6.01e-01	0	43	0	146276352	20	5076
2026-01-30 02:10:41.52	16.18	14.88	-29.8	-32.8	19.6	6.03e-01	0	43	0	148373504	20	5075
2026-01-30 02:10:42.53	16.17	15.00	-29.9	-32.9	19.5	6.02e-01	0	43	0	150470656	20	5126
2026-01-30 02:10:43.53	16.16	15.12	-30.0	-33.2	19.4	6.03e-01	0	43	0	152043520	20	5224
2026-01-30 02:10:44.53	16.15	15.23	-30.0	-33.3	19.4	6.03e-01	0	43	0	154140672	20	5258
2026-01-30 02:10:45.54	16.14	15.35	-30.0	-33.2	19.4	6.03e-01	0	43	0	155713536	20	5225
2026-01-30 02:10:46.54	16.13	15.47	-30.1	-33.1	19.2	6.00e-01	0	43	0	157810688	21	5069
2026-01-30 02:10:47.54	16.11	15.59	-30.4	-33.7	18.8	6.06e-01	0	43	0	159383552	21	5293
2026-01-30 02:10:48.55	16.10	15.71	-30.5	-33.9	18.6	6.03e-01	0	43	0	161480704	21	5376
2026-01-30 02:10:49.55	16.09	15.83	-30.4	-33.8	18.7	6.03e-01	0	43	0	163577856	21	5327
2026-01-30 02:10:50.56	16.08	15.95	-30.5	-34.0	18.6	6.03e-01	0	43	0	165150720	21	5415
2026-01-30 02:10:51.56	16.07	16.08	-30.5	-34.0	18.6	6.01e-01	0	43	0	167247872	21	5400
2026-01-30 02:10:52.57	16.06	16.20	-30.4	-33.7	18.8	6.01e-01	0	43	0	168820736	21	5288
2026-01-30 02:10:53.56	16.05	16.32	-30.4	-33.7	18.8	6.04e-01	0	43	0	170917888	21	5268
2026-01-30 02:10:54.57	16.04	16.45	-30.3	-33.6	18.9	6.03e-01	0	43	0	173015040	21	5233
2026-01-30 02:10:55.57	16.02	16.57	-30.4	-33.8	18.8	6.03e-01	0	43	0	174587904	21	5325
2026-01-30 02:10:56.58	16.01	16.70	-30.5	-33.6	18.6	6.05e-01	0	43	0	176685056	22	5121
2026-01-30 02:10:57.58	16.00	16.83	-30.3	-33.0	18.9	6.03e-01	0	43	0	178257920	22	4915
2026-01-30 02:10:58.59	15.99	16.95	-30.1	-33.0	19.3	6.03e-01	0	43	0	180355072	21	5004
2026-01-30 02:10:59.59	15.97	17.08	-30.1	-32.9	19.3	6.05e-01	0	43	0	181927936	21	4971
2026-01-30 02:11:00.60	15.96	17.21	-30.1	-32.9	19.3	6.05e-01	0	43	0	184025088	21	4995
2026-01-30 02:11:01.60	15.95	17.34	-30.1	-33.4	19.3	6.03e-01	0	43	0	186122240	20	5284
2026-01-30 02:11:02.61	15.94	17.47	-30.2	-33.3	19.1	6.03e-01	0	43	0	187695104	21	5120
2026-01-30 02:11:03.61	15.92	17.60	-30.2	-33.3	19.0	6.03e-01	0	43	0	189792256	21	5140
2026-01-30 02:11:04.62	15.91	17.73	-30.3	-33.4	19.0	6.03e-01	0	43	0	191889408	21	5156
2026-01-30 02:11:05.62	15.90	17.87	-30.4	-33.7	18.8	6.04e-01	0	43	0	193462272	21	5274
2026-01-30 02:11:06.62	15.88	18.00	-30.4	-33.6	18.9	6.02e-01	0	43	0	195559424	21	5250
2026-01-30 02:11:07.62	15.87	18.13	-30.3	-33.4	19.0	6.04e-01	0	43	0	197132288	21	5165
2026-01-30 02:11:08.63	15.86	18.27	-30.3	-33.5	19.0	6.03e-01	0	43	0	199229440	21	5201
2026-01-30 02:11:09.63	15.84	18.40	-30.3	-33.4	19.1	6.02e-01	0	43	0	200802304	21	5152
2026-01-30 02:11:10.63	15.83	18.54	-30.4	-33.6	19.0	6.02e-01	0	43	0	202899456	21	5249
2026-01-30 02:11:11.64	15.81	18.68	-30.4	-33.7	18.9	6.01e-01	0	43	0	204996608	21	5269
2026-01-30 02:11:12.64	15.80	18.82	-30.2	-33.3	19.2	6.03e-01	0	43	0	206569472	21	5118
2026-01-30 02:11:13.64	15.78	18.95	-30.0	-32.8	19.5	6.04e-01	0	43	0	208666624	21	4936
2026-01-30 02:11:14.64	15.77	19.09	-30.0	-33.1	19.6	6.03e-01	0	43	0	210239488	20	5172
2026-01-30 02:11:15.64	15.75	19.23	-30.1	-33.4	19.5	6.03e-01	0	43	0	212336640	20	5271
2026-01-30 02:11:16.65	15.74	19.38	-30.2	-33.3	19.2	6.04e-01	0	43	0	213909504	21	5115
2026-01-30 02:11:17.65	15.72	19.52	-30.2	-33.3	19.2	6.00e-01	0	43	0	216006656	21	5129
2026-01-30 02:11:18.64	15.71	19.66	-30.2	-33.3	19.3	6.03e-01	0	43	0	218103808	21	5113
2026-01-30 02:11:19.64	15.69	19.81	-30.3	-33.5	19.1	6.02e-01	0	43	0	219676672	21	5189
2026-01-30 02:11:20.64	15.67	19.95	-30.3	-33.5	19.1	6.03e-01	0	43	0	221773824	21	5192
2026-01-30 02:11:21.64	15.66	20.10	-30.4	-33.8	19.0	6.04e-01	0	43	0	223346688	21	5285
2026-01-30 02:11:22.65	15.64	20.24	-30.4	-33.6	19.1	6.03e-01	0	43	0	225443840	21	5241
2026-01-30 02:11:23.65	15.63	20.39	-30.3	-33.4	19.2	6.04e-01	0	43	0	227016704	21	5142
2026-01-30 02:11:24.65	15.61	20.54	-30.1	-33.0	19.5	6.01e-01	0	43	0	229113856	21	5016
2026-01-30 02:11:25.65	15.59	20.69	-30.1	-33.1	19.6	6.05e-01	0	43	0	231211008	20	5092
2026-01-30 02:11:26.66	15.57	20.84	-30.1	-33.4	19.6	6.04e-01	0	43	0	232783872	20	5260
2026-01-30 02:11:27.66	15.56	20.99	-30.2	-33.1	19.4	6.02e-01	0	43	0	234881024	21	5029
2026-01-30 02:11:28.65	15.54	21.15	-30.2	-33.1	18.9	6.03e-01	0	43	0	236453888	21	5034
2026-01-30 02:11:29.66	15.52	21.30	-30.3	-33.5	19.2	6.01e-01	0	43	0	238551040	21	5171
2026-01-30 02:11:30.66	15.50	21.46	-30.3	-33.3	19.3	6.02e-01	0	43	0	240648192	21	5117
2026-01-30 02:11:31.66	15.48	21.61	-30.2	-33.0	19.5	6.03e-01	0	43	0	242221056	21	5009
2026-01-30 02:11:32.66	15.47	21.77	-30.1	-33.0	19.6	6.03e-01	0	43	0	244318208	21	4987
2026-01-30 02:11:33.66	15.45	21.93	-30.2	-33.0	19.5	6.05e-01	0	43	0	245891072	21	5000
2026-01-30 02:11:34.66	15.43	22.08	-30.2	-33.2	19.4	6.02e-01	0	43	0	247988224	21	5087
2026-01-30 02:11:35.67	15.41	22.25	-30.3	-33.4	19.3	6.02e-01	0	43	0	250085376	21	5158
2026-01-30 02:11:36.67	15.39	22.41	-30.3	-33.3	19.3	6.01e-01	0	43	0	251658240	21	5120
2026-01-30 02:11:37.67	15.37	22.57	-30.2	-33.1	19.5	6.01e-01	0	43	0	253755392	21	5049
2026-01-30 02:11:38.68	15.35	22.73	-30.2	-33.1	19.5	6.02e-01	0	43	0	255328256	21	5019
2026-01-30 02:11:39.68	15.33	22.90	-30.2	-33.1	19.5	6.02e-01	0	43	0	257425408	21	5034
2026-01-30 02:11:40.69	15.31	23.07	-30.2	-33.0	19.5	6.04e-01	0	43	0	258998272	21	5012
2026-01-30 02:11:41.68	15.29	23.23	-30.3	-33.3	19.4	6.00e-01	0	43	0	261095424	21	5095
2026-01-30 02:11:42.68	15.26	23.40	-30.2	-33.1	19.5	6.04e-01	0	43	0	263192576	21	5016
2026-01-30 02:11:43.68	15.24	23.57	-30.0	-32.7	19.7	6.06e-01	0	43	0	264765440	21	4872
2026-01-30 02:11:44.68	15.22	23.74	-29.9	-32.4	19.9	6.04e-01	0	43	0	266862592	21	4803
2026-01-30 02:11:45.68	15.20	23.91	-29.9	-33.0	19.8	6.02e-01	0	43	0	268435456	20	5095
2026-01-30 02:11:46.69	15.18	24.09	-29.9	-32.9	19.9	6.01e-01	0	43	0	270532608	20	5081
2026-01-30 02:11:47.69	15.15	24.26	-30.0	-33.0	19.8	6.03e-01	0	43	0	272629760	20	5120
2026-01-30 02:11:48.70	15.13	24.44	-30.1	-32.9	19.6	6.03e-01	0	43	0	274202624	21	4963
2026-01-30 02:11:49.70	15.11	24.61	-30.3	-33.5	19.4	6.04e-01	0	43	0	276299776	21	5160
2026-01-30 02:11:50.70	15.08	24.79	-30.4	-33.5	19.3	6.03e-01	0	43	0	277872640	21	5187
2026-01-30 02:11:51.70	15.06	24.97	-30.4	-33.6	19.3	6.03e-01	0	43	0	279969792	21	5208
2026-01-30 02:11:52.70	15.03	25.15	-30.4	-33.5	19.3	6.04e-01	0	43	0	281542656	21	5168
2026-01-30 02:11:53.71	15.01	25.34	-30.2	-33.0	19.6	6.04e-01	0	43	0	283639808	21	4990
2026-01-30 02:11:54.71	14.98	25.52	-30.0	-33.0	19.9	6.04e-01	0	43	0	285736960	20	5119
2026-01-30 02:11:55.72	14.96	25.70	-29.9	-32.8	20.0	6.03e-01	0	43	0	287309824	20	5036
2026-01-30 02:11:56.72	14.93	25.89	-29.9	-32.8	20.0	6.04e-01	0	43	0	289406976	20	5046
2026-01-30 02:11:57.73	14.91	26.08	-29.9	-32.8	20.1	6.03e-01	0	43	0	290979840	20	5014
2026-01-30 02:11:58.73	14.88	26.27	-29.9	-32.8	20.1	6.03e-01	0	43	0	293076992	20	5025
2026-01-30 02:11:59.73	14.85	26.46	-30.0	-33.1	19.9	6.00e-01	0	43	0	295174144	20	5126
2026-01-30 02:12:00.74	14.83	26.65	-30.0	-33.0	19.9	6.02e-01	0	43	0	296747008	20	5088
2026-01-30 02:12:01.74	14.80	26.85	-29.9	-32.8	20.0	6.03e-01	0	43	0	298844160	20	5039
2026-01-30 02:12:02.74	14.77	27.04	-29.9	-32.8	20.0	6.02e-01	0	43	0	300417024	20	5036
2026-01-30 02:12:03.74	14.74	27.24	-29.8	-32.6	20.2	6.04e-01	0	43	0	302514176	20	4964
2026-01-30 02:12:04.75	14.71	27.44	-29.9	-32.8	20.1	6.01e-01	0	43	0	304087040	20	5024
2026-01-30 02:12:05.75	14.68	27.64	-29.9	-32.7	20.1	6.03e-01	0	43	0	306184192	20	5000
2026-01-30 02:12:06.75	14.65	27.84	-29.9	-32.8	20.1	6.02e-01	0	43	0	308281344	20	5014
2026-01-30 02:12:07.76	14.62	28.04	-30.0	-33.2	19.8	6.03e-01	0	43	0	309854208	20	5159
2026-01-30 02:12:08.76	14.59	28.25	-29.9	-32.4	20.0	6.03e-01	0	43	0	311951360	21	4769
2026-01-30 02:12:09.76	14.56	28.45	-29.7	-31.8	20.4	6.04e-01	0	43	0	314048512	21	4579
2026-01-30 02:12:10.76	14.53	28.66	-29.5	-31.8	20.6	6.04e-01	0	43	0	315621376	20	4705
2026-01-30 02:12:11.77	14.50	28.87	-29.5	-31.7	20.7	6.04e-01	0	43	0	317718528	20	4654
2026-01-30 02:12:12.78	14.46	29.08	-29.4	-31.6	20.7	6.03e-01	0	43	0	319291392	20	4638
2026-01-30 02:12:13.78	14.43	29.30	-29.6	-32.0	20.6	6.04e-01	0	43	0	321388544	20	4757
2026-01-30 02:12:14.78	14.40	29.51	-29.6	-32.1	20.5	6.04e-01	0	43	0	322961408	20	4797
2026-01-30 02:12:15.79	14.36	29.73	-29.8	-32.4	20.3	6.01e-01	0	43	0	325058560	20	4902
2026-01-30 02:12:16.79	14.33	29.95	-29.7	-32.3	20.4	6.02e-01	0	43	0	327155712	20	4841
2026-01-30 02:12:17.79	14.29	30.17	-29.7	-32.2	20.5	6.02e-01	0	43	0	328728576	20	4817
2026-01-30 02:12:18.79	14.26	30.39	-29.7	-32.3	20.5	6.01e-01	0	43	0	330825728	20	4839
2026-01-30 02:12:19.80	14.22	30.61	-29.7	-32.3	20.4	6.03e-01	0	43	0	332398592	20	4847
2026-01-30 02:12:20.80	14.18	30.84	-29.8	-32.4	20.3	6.04e-01	0	43	0	334495744	20	4893
2026-01-30 02:12:21.81	14.15	31.07	-29.6	-32.0	20.6	6.01e-01	0	43	0	336592896	20	4762
2026-01-30 02:12:22.81	14.11	31.30	-29.5	-32.3	20.8	6.03e-01	0	43	0	338165760	19	4953
2026-01-30 02:12:23.82	14.07	31.53	-29.5	-31.9	20.7	6.03e-01	0	43	0	340262912	20	4720
2026-01-30 02:12:24.82	14.03	31.76	-29.8	-32.6	20.3	6.02e-01	0	43	0	341835776	20	4969
2026-01-30 02:12:25.82	13.99	32.00	-29.8	-32.6	20.3	6.03e-01	0	43	0	343932928	20	4958
2026-01-30 02:12:26.83	13.95	32.24	-29.9	-32.7	20.2	6.00e-01	0	43	0	346030080	20	5001
2026-01-30 02:12:27.83	13.91	32.48	-29.8	-32.5	20.3	6.03e-01	0	43	0	347602944	20	4903
2026-01-30 02:12:28.84	13.86	32.72	-29.7	-32.2	20.5	6.02e-01	0	43	0	349700096	20	4831
2026-01-30 02:12:29.84	13.82	32.96	-29.7	-32.3	20.4	6.01e-01	0	43	0	351272960	20	4858
2026-01-30 02:12:30.84	13.78	33.21	-29.6	-32.0	20.6	6.04e-01	0	43	0	353370112	20	4759
2026-01-30 02:12:31.85	13.73	33.46	-29.7	-32.2	20.5	6.01e-01	0	43	0	354942976	20	4820
2026-01-30 02:12:32.85	13.69	33.70	-29.8	-32.5	20.3	6.01e-01	0	43	0	357040128	20	4928
2026-01-30 02:12:33.84	13.64	33.95	-30.2	-32.9	19.9	6.03e-01	0	43	0	359137280	21	4945
2026-01-30 02:12:34.84	13.60	34.21	-30.2	-33.0	19.8	6.03e-01	0	43	0	360710144	21	4977
2026-01-30 02:12:35.85	13.55	34.47	-30.3	-33.2	19.6	6.05e-01	0	43	0	362807296	21	5058
2026-01-30 02:12:36.85	13.50	34.72	-30.3	-33.1	19.7	6.01e-01	0	43	0	364380160	21	5024
2026-01-30 02:12:37.86	13.45	34.99	-30.2	-33.0	19.8	6.03e-01	0	43	0	366477312	21	4979
2026-01-30 02:12:38.86	13.40	35.25	-30.3	-33.4	19.6	6.01e-01	0	43	0	368574464	21	5104
2026-01-30 02:12:39.86	13.35	35.51	-30.5	-33.7	19.4	6.03e-01	0	43	0	370147328	21	5222
2026-01-30 02:12:40.87	13.30	35.78	-30.5	-33.8	19.3	6.02e-01	0	43	0	372244480	21	5278
2026-01-30 02:12:41.87	13.24	36.05	-30.5	-33.7	19.3	6.02e-01	0	43	0	373817344	21	5218
2026-01-30 02:12:42.87	13.19	36.33	-30.6	-33.6	19.1	6.05e-01	0	43	0	375914496	22	5071
2026-01-30 02:12:43.88	13.14	36.60	-30.9	-34.4	18.6	6.01e-01	0	43	0	377487360	22	5367
2026-01-30 02:12:44.88	13.08	36.88	-31.0	-34.6	18.5	6.04e-01	0	43	0	379584512	22	5442
2026-01-30 02:12:45.88	13.02	37.16	-31.0	-34.7	18.4	6.03e-01	0	43	0	381681664	22	5476
2026-01-30 02:12:46.88	12.97	37.44	-31.0	-34.7	18.4	6.04e-01	0	43	0	383254528	22	5478
2026-01-30 02:12:47.89	12.91	37.73	-30.9	-34.4	18.6	6.04e-01	0	43	0	385351680	22	5384
2026-01-30 02:12:48.88	12.85	38.01	-31.0	-34.6	18.5	6.02e-01	0	43	0	386924544	22	5466
2026-01-30 02:12:49.89	12.78	38.30	-31.1	-34.3	18.4	6.03e-01	0	43	0	389021696	23	5213
2026-01-30 02:12:50.89	12.72	38.60	-31.1	-34.3	18.5	6.02e-01	0	43	0	391118848	23	5219
2026-01-30 02:12:51.90	12.66	38.89	-31.2	-34.6	18.2	6.01e-01	0	43	0	392691712	23	5347
2026-01-30 02:12:52.90	12.59	39.19	-31.4	-35.3	17.8	6.03e-01	0	43	0	394788864	23	5604
2026-01-30 02:12:53.90	12.53	39.49	-31.3	-35.0	17.9	6.03e-01	0	43	0	396361728	23	5499
2026-01-30 02:12:54.90	12.46	39.79	-31.1	-34.5	18.3	6.01e-01	0	43	0	398458880	23	5287
2026-01-30 02:12:55.90	12.39	40.10	-31.0	-34.1	18.5	6.02e-01	0	43	0	400031744	23	5143
2026-01-30 02:12:56.90	12.32	40.41	-31.1	-34.3	18.4	6.03e-01	0	43	0	402128896	23	5213
2026-01-30 02:12:57.91	12.25	40.72	-31.0	-34.6	18.5	6.03e-01	0	43	0	404226048	22	5436
2026-01-30 02:12:58.91	12.17	41.04	-30.8	-34.1	18.8	6.01e-01	0	43	0	405798912	22	5263
2026-01-30 02:12:59.92	12.10	41.36	-30.8	-34.0	19.0	6.03e-01	0	43	0	407896064	22	5199
2026-01-30 02:13:00.92	12.02	41.68	-30.7	-33.8	19.0	6.02e-01	0	43	0	409468928	22	5124
2026-01-30 02:13:01.92	11.94	42.00	-30.8	-34.0	18.9	6.02e-01	0	43	0	411566080	22	5222
2026-01-30 02:13:02.92	11.86	42.33	-30.6	-33.5	19.3	6.00e-01	0	43	0	413663232	22	5020
2026-01-30 02:13:03.92	11.78	42.65	-30.4	-32.9	19.6	6.02e-01	0	43	0	415236096	22	4832
2026-01-30 02:13:04.92	11.70	42.99	-30.3	-33.2	19.8	6.02e-01	0	43	0	417333248	21	5021
2026-01-30 02:13:05.92	11.61	43.32	-30.6	-34.0	19.3	6.03e-01	0	43	0	418906112	21	5313
2026-01-30 02:13:06.93	11.53	43.66	-30.7	-33.7	19.0	6.05e-01	0	43	0	421003264	22	5117
2026-01-30 02:13:07.93	11.44	44.00	-30.4	-32.9	19.4	6.04e-01	0	43	0	423100416	22	4829
2026-01-30 02:13:08.94	11.34	44.35	-30.4	-33.1	19.4	6.04e-01	0	43	0	424673280	22	4899
2026-01-30 02:13:09.94	11.25	44.70	-30.3	-33.2	19.7	6.01e-01	0	43	0	426770432	21	5031
2026-01-30 02:13:10.94	11.16	45.05	-30.0	-32.6	20.0	6.01e-01	0	43	0	428343296	21	4821
2026-01-30 02:13:11.95	11.06	45.40	-30.0	-32.6	19.8	6.01e-01	0	43	0	430440448	21	4827
2026-01-30 02:13:12.95	10.96	45.76	-30.2	-32.9	19.5	6.04e-01	0	43	0	432013312	21	4955
2026-01-30 02:13:13.95	10.85	46.12	-30.2	-33.0	19.7	6.03e-01	0	43	0	434110464	21	4990
2026-01-30 02:13:14.96	10.75	46.49	-30.0	-32.4	20.1	6.04e-01	0	43	0	436207616	21	4784
2026-01-30 02:13:15.96	10.64	46.85	-29.8	-32.6	20.2	6.03e-01	0	43	0	437780480	20	4950
2026-01-30 02:13:16.96	10.53	47.22	-30.0	-32.9	20.1	6.04e-01	0	43	0	439877632	20	5069
2026-01-30 02:13:17.97	10.42	47.60	-29.9	-32.6	20.3	6.02e-01	0	43	0	441450496	20	4964
2026-01-30 02:13:18.97	10.30	47.98	-30.0	-32.9	20.2	6.03e-01	0	43	0	443547648	20	5054
2026-01-30 02:13:19.98	10.18	48.36	-30.4	-33.4	19.6	6.03e-01	0	43	0	445644800	21	5125
2026-01-30 02:13:20.98	10.06	48.74	-30.0	-32.4	20.2	6.02e-01	0	43	0	447217664	21	4752
2026-01-30 02:13:21.98	9.93	49.13	-29.9	-32.1	20.4	6.03e-01	0	43	0	449314816	21	4674
2026-01-30 02:13:22.99	9.80	49.53	-30.1	-32.8	19.9	6.03e-01	0	43	0	450887680	21	4906
2026-01-30 02:13:23.99	9.67	49.92	-29.9	-32.2	20.2	6.02e-01	0	43	0	452984832	21	4711
2026-01-30 02:13:24.99	9.53	50.32	-29.8	-32.4	20.4	6.01e-01	0	43	0	454557696	20	4886
2026-01-30 02:13:25.99	9.39	50.72	-29.6	-31.9	20.7	6.05e-01	0	43	0	456654848	20	4719
2026-01-30 02:13:27.00	9.25	51.12	-29.7	-32.2	20.6	6.04e-01	0	43	0	458752000	20	4799
2026-01-30 02:13:28.01	9.10	51.53	-29.6	-31.9	20.7	6.03e-01	0	43	0	460324864	20	4709
2026-01-30 02:13:29.01	8.95	51.95	-29.5	-31.7	20.9	6.05e-01	0	43	0	462422016	20	4648
2026-01-30 02:13:30.01	8.79	52.36	-29.5	-31.7	20.8	6.03e-01	0	43	0	464519168	20	4667
2026-01-30 02:13:31.02	8.63	52.78	-29.6	-32.0	20.6	6.04e-01	0	43	0	466092032	20	4764
2026-01-30 02:13:32.03	8.46	53.21	-29.3	-31.3	21.1	6.03e-01	0	43	0	468189184	20	4523
2026-01-30 02:13:33.03	8.29	53.63	-29.5	-32.2	21.0	6.03e-01	0	43	0	469762048	19	4911
2026-01-30 02:13:34.04	8.11	54.06	-29.5	-32.2	20.9	6.03e-01	0	43	0	471859200	19	4924
2026-01-30 02:13:35.04	7.93	54.50	-29.4	-32.0	21.1	6.01e-01	0	43	0	473432064	19	4851
2026-01-30 02:13:36.04	7.74	54.93	-29.8	-32.5	20.5	6.02e-01	0	43	0	475529216	20	4902
2026-01-30 02:13:37.04	7.55	55.37	-29.6	-32.0	20.6	6.00e-01	0	43	0	477626368	20	4741
2026-01-30 02:13:38.05	7.35	55.82	-29.7	-32.2	20.6	6.03e-01	0	43	0	479199232	20	4815
2026-01-30 02:13:39.05	7.14	56.26	-29.7	-32.4	20.5	6.02e-01	0	43	0	481296384	20	4864
2026-01-30 02:13:40.06	6.93	56.71	-29.8	-32.6	20.4	6.02e-01	0	43	0	482869248	20	4933
2026-01-30 02:13:41.06	6.70	57.17	-30.4	-33.5	19.6	6.05e-01	0	43	0	484966400	21	5142
2026-01-30 02:13:42.07	6.47	57.63	-30.1	-32.7	20.0	6.01e-01	0	43	0	487063552	21	4859
2026-01-30 02:13:43.07	6.24	58.09	-30.1	-32.8	19.9	6.02e-01	0	43	0	488636416	21	4910
2026-01-30 02:13:44.08	5.99	58.55	-30.2	-33.0	19.8	6.03e-01	0	43	0	490733568	21	4965
2026-01-30 02:13:45.08	5.74	59.02	-30.3	-33.2	19.7	6.02e-01	0	43	0	492306432	21	5052
2026-01-30 02:13:46.09	5.47	59.49	-30.3	-33.3	19.6	6.03e-01	0	43	0	494403584	21	5094
2026-01-30 02:13:47.09	5.20	59.96	-30.7	-33.8	19.0	6.04e-01	0	43	0	496500736	22	5151
2026-01-30 02:13:48.09	4.91	60.44	-30.4	-33.1	19.4	6.03e-01	0	43	0	498073600	22	4904
2026-01-30 02:13:49.10	4.61	60.92	-30.9	-34.4	18.7	6.04e-01	0	43	0	500170752	22	5391
2026-01-30 02:13:50.10	4.31	61.40	-30.8	-34.1	19.0	6.03e-01	0	43	0	501743616	22	5243
2026-01-30 02:13:51.10	3.99	61.89	-30.8	-34.2	18.8	6.00e-01	0	43	0	503840768	22	5289
2026-01-30 02:13:52.11	3.65	62.38	-30.8	-34.2	18.8	6.01e-01	0	43	0	505413632	22	5296
2026-01-30 02:13:53.11	3.31	62.87	-31.2	-34.6	18.2	6.02e-01	0	43	0	507510784	23	5336
2026-01-30 02:13:54.11	2.95	63.36	-31.4	-35.3	17.8	6.02e-01	0	43	0	509607936	23	5623
2026-01-30 02:13:55.11	2.57	63.85	-31.3	-35.0	18.0	6.03e-01	0	43	0	511180800	23	5496
2026-01-30 02:13:56.12	2.17	64.36	-31.5	-35.6	17.7	6.03e-01	0	43	0	513277952	23	5749
2026-01-30 02:13:57.12	1.76	64.85	-31.8	-35.9	17.1	6.04e-01	0	43	0	514850816	24	5798
2026-01-30 02:13:58.12	1.33	65.36	-31.8	-36.0	17.0	6.04e-01	0	43	0	516947968	24	5856
2026-01-30 02:13:59.12	0.88	65.86	-32.0	-36.5	16.7	6.01e-01	0	43	0	519045120	24	6072
2026-01-30 02:14:00.12	0.41	66.37	-32.1	-36.8	16.5	6.02e-01	0	43	0	520617984	24	6215
2026-01-30 02:14:01.12	359.92	66.87	-32.4	-37.5	15.7	6.02e-01	0	43	0	522715136	25	6436
2026-01-30 02:14:02.13	359.39	67.39	-32.4	-37.4	15.8	6.02e-01	0	43	0	524288000	25	6404
2026-01-30 02:14:03.13	358.85	67.90	-32.5	-37.7	15.6	6.04e-01	0	43	0	526385152	25	6548
2026-01-30 02:14:04.13	358.28	68.41	-32.7	-38.0	15.0	6.02e-01	0	43	0	527958016	26	6608
2026-01-30 02:14:05.13	357.67	68.92	-32.8	-38.1	14.9	6.05e-01	0	43	0	530055168	26	6620
2026-01-30 02:14:06.13	357.03	69.44	-32.4	-36.6	16.0	6.03e-01	0	43	0	532152320	26	5881
2026-01-30 02:14:07.14	356.35	69.95	-32.7	-37.6	15.4	6.05e-01	0	43	0	533725184	26	6331
2026-01-30 02:14:08.14	355.64	70.47	-32.5	-37.0	15.7	6.01e-01	0	43	0	535822336	26	6034
2026-01-30 02:14:09.15	354.88	70.99	-32.4	-36.7	16.0	6.02e-01	0	43	0	537395200	26	5869
2026-01-30 02:14:10.15	354.08	71.50	-32.4	-36.6	16.1	6.02e-01	0	43	0	539492352	26	5825
2026-01-30 02:14:11.16	353.23	72.02	-32.7	-37.8	15.2	6.04e-01	0	43	0	541589504	26	6436
2026-01-30 02:14:12.16	352.33	72.53	-32.2	-35.8	16.6	6.04e-01	0	43	0	543162368	26	5487
2026-01-30 02:14:13.16	351.37	73.03	-32.1	-35.7	16.8	6.04e-01	0	43	0	545259520	26	5432
2026-01-30 02:14:14.16	350.35	73.54	-32.5	-37.0	15.8	6.02e-01	0	43	0	546832384	26	6034
2026-01-30 02:14:15.17	349.25	74.05	-32.0	-35.5	16.8	6.06e-01	0	43	0	548929536	26	5336
2026-01-30 02:14:16.17	348.09	74.55	-32.4	-36.6	16.2	6.02e-01	0	43	0	551026688	26	5837
2026-01-30 02:14:17.17	346.85	75.04	-32.8	-38.0	15.0	6.02e-01	0	43	0	552599552	26	6541
2026-01-30 02:14:18.17	345.52	75.53	-32.5	-36.8	15.9	6.04e-01	0	43	0	554696704	26	5939
2026-01-30 02:14:19.17	344.09	76.01	-32.2	-35.9	16.6	6.02e-01	0	43	0	556269568	26	5527
2026-01-30 02:14:20.18	342.54	76.49	-32.3	-36.3	16.3	6.02e-01	0	43	0	558366720	26	5714
2026-01-30 02:14:21.18	340.89	76.96	-32.0	-35.5	16.9	6.03e-01	0	43	0	559939584	26	5356
2026-01-30 02:14:22.18	339.11	77.42	-31.9	-35.5	17.2	6.02e-01	0	43	0	562036736	25	5489
2026-01-30 02:14:23.19	337.18	77.87	-32.0	-36.0	16.8	6.02e-01	0	43	0	564133888	25	5685
2026-01-30 02:14:24.18	335.15	78.30	-31.6	-34.7	17.7	6.04e-01	0	43	0	565706752	25	5146
2026-01-30 02:14:25.17	332.95	78.71	-31.4	-34.1	18.1	6.05e-01	0	43	0	567803904	25	4914
2026-01-30 02:14:26.17	330.56	79.11	-31.6	-34.6	17.7	6.04e-01	0	43	0	569376768	25	5077
2026-01-30 02:14:27.18	327.97	79.50	-31.3	-34.3	18.4	6.02e-01	0	43	0	571473920	24	5079
2026-01-30 02:14:28.18	325.20	79.86	-31.3	-34.3	18.4	6.02e-01	0	43	0	573571072	24	5093
2026-01-30 02:14:29.18	322.24	80.19	-31.5	-35.0	18.0	6.02e-01	0	43	0	575143936	24	5341
2026-01-30 02:14:30.18	319.07	80.50	-31.5	-34.7	18.1	6.04e-01	0	43	0	577241088	24	5225
2026-01-30 02:14:31.19	315.66	80.78	-31.8	-35.7	17.6	6.04e-01	0	43	0	578813952	24	5630
2026-01-30 02:14:32.20	312.05	81.03	-31.6	-35.1	17.9	6.05e-01	0	43	0	580911104	24	5393
2026-01-30 02:14:33.20	308.28	81.24	-31.6	-35.2	17.9	6.02e-01	0	43	0	583008256	24	5445
2026-01-30 02:14:34.21	304.30	81.41	-31.4	-34.7	18.0	6.03e-01	0	43	0	584581120	24	5260
2026-01-30 02:14:35.22	300.18	81.54	-31.7	-35.5	17.7	6.02e-01	0	43	0	586678272	24	5573
2026-01-30 02:14:36.23	295.96	81.62	-31.8	-35.3	17.3	6.04e-01	0	43	0	588251136	25	5370
2026-01-30 02:14:37.23	291.71	81.66	-31.4	-34.5	18.3	6.03e-01	0	43	0	590348288	24	5154
2026-01-30 02:14:38.23	287.45	81.65	-31.7	-35.4	17.7	6.04e-01	0	43	0	591921152	24	5507
2026-01-30 02:14:39.23	283.22	81.60	-31.4	-34.5	18.3	6.01e-01	0	43	0	594018304	24	5147
2026-01-30 02:14:40.24	279.02	81.50	-31.6	-35.2	17.7	6.02e-01	0	43	0	596115456	24	5420
2026-01-30 02:14:41.24	274.98	81.36	-31.8	-35.7	17.4	6.03e-01	0	43	0	597688320	24	5632
2026-01-30 02:14:42.24	271.09	81.18	-31.8	-35.8	17.4	6.03e-01	0	43	0	599785472	24	5695
2026-01-30 02:14:43.24	267.38	80.96	-31.6	-35.0	17.9	6.04e-01	0	43	0	601358336	24	5347
2026-01-30 02:14:44.24	263.86	80.70	-31.4	-34.6	18.1	6.01e-01	0	43	0	603455488	24	5194
2026-01-30 02:14:45.25	260.51	80.41	-30.8	-33.6	19.0	6.06e-01	0	43	0	605552640	23	4937
2026-01-30 02:14:46.25	257.40	80.10	-30.6	-33.1	19.4	6.05e-01	0	43	0	607125504	23	4764
2026-01-30 02:14:47.25	254.49	79.75	-31.1	-34.4	18.6	6.02e-01	0	43	0	609222656	23	5246
2026-01-30 02:14:48.25	251.78	79.38	-30.8	-33.6	19.0	6.03e-01	0	43	0	610795520	23	4931
2026-01-30 02:14:49.26	249.24	78.99	-31.1	-34.5	18.5	6.02e-01	0	43	0	612892672	23	5274
2026-01-30 02:14:50.26	246.91	78.59	-31.4	-35.3	18.1	6.02e-01	0	43	0	614989824	23	5590
2026-01-30 02:14:51.27	244.72	78.16	-31.5	-34.9	17.9	6.02e-01	0	43	0	616562688	24	5321
2026-01-30 02:14:52.28	242.68	77.72	-31.4	-34.7	18.0	6.03e-01	0	43	0	618659840	24	5253
2026-01-30 02:14:53.29	240.80	77.26	-31.6	-35.2	17.6	6.05e-01	0	43	0	620232704	24	5478
2026-01-30 02:14:54.29	239.07	76.80	-31.5	-34.9	17.9	6.03e-01	0	43	0	622329856	24	5349
2026-01-30 02:14:55.29	237.46	76.33	-31.7	-35.5	17.4	6.04e-01	0	43	0	623902720	24	5599
2026-01-30 02:14:56.29	235.96	75.85	-31.8	-35.8	17.2	6.04e-01	0	43	0	625999872	24	5718
2026-01-30 02:14:57.29	234.56	75.37	-32.1	-36.5	16.4	6.01e-01	0	43	0	628097024	25	5973
2026-01-30 02:14:58.30	233.25	74.87	-32.5	-37.8	15.5	6.03e-01	0	43	0	629669888	25	6621
2026-01-30 02:14:59.30	232.03	74.37	-31.8	-35.4	17.0	6.01e-01	0	44	0	631767040	25	5455
2026-01-30 02:15:00.31	230.88	73.87	-31.9	-35.6	17.0	6.04e-01	0	43	0	633339904	25	5528
2026-01-30 02:15:01.31	229.82	73.36	-31.9	-35.7	16.8	6.03e-01	0	43	0	635437056	25	5596
2026-01-30 02:15:02.32	228.81	72.85	-32.1	-36.3	16.6	6.03e-01	0	43	0	637534208	25	5828
2026-01-30 02:15:03.32	227.87	72.34	-32.0	-36.0	16.6	6.04e-01	0	43	0	639107072	25	5725
2026-01-30 02:15:04.32	226.99	71.83	-32.2	-36.6	16.3	6.04e-01	0	43	0	641204224	25	6000
2026-01-30 02:15:05.33	226.15	71.31	-32.3	-36.9	16.0	6.03e-01	0	43	0	642777088	25	6147
2026-01-30 02:15:06.33	225.37	70.80	-32.3	-37.0	16.0	6.03e-01	0	43	0	644874240	25	6193
2026-01-30 02:15:07.33	224.63	70.28	-32.4	-37.5	15.6	6.05e-01	0	43	0	646971392	25	6450
2026-01-30 02:15:08.33	223.93	69.77	-32.8	-38.2	14.7	6.05e-01	0	43	0	648544256	26	6764
2026-01-30 02:15:09.33	223.27	69.25	-32.8	-38.4	14.7	6.02e-01	0	43	0	650641408	26	6838
2026-01-30 02:15:10.34	222.64	68.73	-32.7	-38.2	14.7	6.02e-01	0	43	0	652214272	26	6728
2026-01-30 02:15:11.35	222.04	68.22	-32.7	-38.0	14.7	6.04e-01	0	43	0	654311424	26	6633
2026-01-30 02:15:12.35	221.47	67.70	-32.6	-37.5	15.1	6.04e-01	0	43	0	656408576	26	6373
2026-01-30 02:15:13.35	220.94	67.19	-32.9	-39.0	14.1	6.05e-01	0	43	0	657981440	26	7243
2026-01-30 02:15:14.35	220.43	66.68	-32.3	-36.5	15.8	6.05e-01	0	43	0	660078592	26	5875
2026-01-30 02:15:15.36	219.93	66.17	-31.7	-35.2	17.1	6.04e-01	0	43	0	661651456	25	5361
2026-01-30 02:15:16.36	219.47	65.66	-32.3	-37.1	15.8	6.05e-01	0	44	0	663748608	25	6267
2026-01-30 02:15:17.36	219.03	65.16	-32.2	-36.7	16.1	6.03e-01	0	43	0	665321472	25	6081
2026-01-30 02:15:18.36	218.60	64.66	-31.8	-35.4	17.0	6.03e-01	0	43	0	667418624	25	5449
2026-01-30 02:15:19.36	218.20	64.16	-31.8	-35.6	16.9	6.04e-01	0	43	0	669515776	25	5535
2026-01-30 02:15:20.36	217.81	63.66	-32.0	-36.2	16.5	6.02e-01	0	43	0	671088640	25	5816
2026-01-30 02:15:21.37	217.44	63.16	-31.7	-35.2	17.1	6.04e-01	0	43	0	673185792	25	5385
2026-01-30 02:15:22.37	217.08	62.67	-31.4	-34.4	17.6	6.01e-01	0	43	0	674758656	25	5085
2026-01-30 02:15:23.37	216.74	62.18	-31.0	-33.6	18.5	6.01e-01	0	44	0	676855808	24	4867
2026-01-30 02:15:24.37	216.41	61.69	-30.6	-33.0	19.2	6.03e-01	0	43	0	678428672	23	4757
2026-01-30 02:15:25.38	216.09	61.20	-31.0	-34.3	18.3	6.03e-01	0	44	0	680525824	23	5263
2026-01-30 02:15:26.39	215.79	60.72	-31.1	-34.7	18.1	6.02e-01	0	44	0	682622976	23	5390
2026-01-30 02:15:27.39	215.50	60.24	-30.9	-33.8	18.5	6.04e-01	0	43	0	684195840	23	5062
2026-01-30 02:15:28.40	215.21	59.76	-30.3	-32.7	19.6	6.02e-01	0	43	0	686292992	22	4788
2026-01-30 02:15:29.40	214.94	59.29	-30.2	-32.6	19.7	6.01e-01	0	43	0	688390144	22	4733
2026-01-30 02:15:30.40	214.68	58.82	-30.4	-33.3	19.3	6.05e-01	0	43	0	689963008	22	4972
2026-01-30 02:15:31.41	214.43	58.35	-30.3	-32.7	19.6	6.01e-01	0	43	0	692060160	22	4777
2026-01-30 02:15:32.42	214.19	57.88	-30.1	-32.2	19.8	6.02e-01	0	43	0	693633024	22	4620
2026-01-30 02:15:33.42	213.95	57.42	-29.9	-32.3	20.1	6.02e-01	0	43	0	695730176	21	4738
2026-01-30 02:15:34.42	213.73	56.96	-29.8	-32.0	20.3	6.05e-01	0	43	0	697303040	21	4653
2026-01-30 02:15:35.42	213.51	56.51	-29.5	-31.8	20.7	6.02e-01	0	43	0	699400192	20	4679
2026-01-30 02:15:36.42	213.30	56.06	-29.6	-32.0	20.6	6.03e-01	0	43	0	701497344	20	4768
2026-01-30 02:15:37.42	213.09	55.62	-29.4	-31.7	20.7	6.02e-01	0	43	0	703070208	20	4667
2026-01-30 02:15:38.42	212.89	55.18	-29.2	-31.2	21.0	6.01e-01	0	43	0	705167360	20	4515
2026-01-30 02:15:39.43	212.70	54.73	-29.0	-31.1	21.4	6.04e-01	0	43	0	706740224	19	4589
2026-01-30 02:15:40.43	212.51	54.30	-28.8	-30.5	21.8	6.04e-01	0	43	0	708837376	19	4403
2026-01-30 02:15:41.44	212.33	53.86	-28.7	-30.3	21.9	6.06e-01	0	43	0	710410240	19	4348
2026-01-30 02:15:42.43	212.16	53.44	-29.0	-31.0	21.4	6.03e-01	0	43	0	712507392	19	4574
2026-01-30 02:15:43.44	211.99	53.01	-29.1	-31.4	21.2	6.02e-01	0	43	0	714604544	19	4673
2026-01-30 02:15:44.45	211.82	52.58	-29.0	-31.2	21.3	6.03e-01	0	43	0	716177408	19	4625
2026-01-30 02:15:45.45	211.66	52.17	-29.0	-31.6	21.4	6.00e-01	0	43	0	718274560	18	4871
2026-01-30 02:15:46.44	211.51	51.76	-29.1	-31.4	21.3	6.02e-01	0	43	0	719847424	19	4668
2026-01-30 02:15:47.45	211.36	51.34	-28.9	-30.8	21.6	6.03e-01	0	43	0	721944576	19	4490
2026-01-30 02:15:48.45	211.21	50.93	-29.0	-31.6	21.4	6.03e-01	0	43	0	724041728	18	4871
2026-01-30 02:15:49.45	211.07	50.53	-29.5	-32.4	20.6	6.04e-01	0	43	0	725614592	19	5005
2026-01-30 02:15:50.45	210.93	50.13	-29.7	-32.5	20.2	6.04e-01	0	43	0	727711744	20	4941
2026-01-30 02:15:51.45	210.79	49.73	-29.9	-33.0	20.0	6.02e-01	0	43	0	729284608	20	5110
2026-01-30 02:15:52.45	210.66	49.34	-29.8	-32.7	20.1	6.01e-01	0	44	0	731381760	20	5026
2026-01-30 02:15:53.45	210.53	48.95	-29.5	-32.0	20.5	6.04e-01	0	43	0	733478912	20	4766
2026-01-30 02:15:54.45	210.41	48.56	-29.5	-31.8	20.6	6.05e-01	0	43	0	735051776	20	4714
2026-01-30 02:15:55.45	210.29	48.18	-29.5	-31.9	20.6	6.03e-01	0	43	0	737148928	20	4740
2026-01-30 02:15:56.45	210.17	47.80	-29.7	-32.3	20.3	6.03e-01	0	43	0	738721792	20	4877
2026-01-30 02:15:57.45	210.05	47.42	-29.9	-33.0	19.9	6.02e-01	0	43	0	740818944	20	5122
2026-01-30 02:15:58.46	209.94	47.04	-29.9	-32.9	20.0	6.02e-01	0	43	0	742391808	20	5082
2026-01-30 02:15:59.46	209.83	46.68	-29.9	-32.9	20.0	6.03e-01	0	43	0	744488960	20	5079
2026-01-30 02:16:00.46	209.72	46.31	-30.0	-33.1	19.8	6.03e-01	0	43	0	746586112	20	5166
2026-01-30 02:16:01.47	209.62	45.94	-29.8	-32.6	20.1	6.03e-01	0	43	0	748158976	20	4978
2026-01-30 02:16:02.47	209.52	45.58	-29.7	-32.3	20.3	6.04e-01	0	43	0	750256128	20	4867
2026-01-30 02:16:03.48	209.42	45.22	-29.6	-32.2	20.3	6.03e-01	0	43	0	751828992	20	4854
2026-01-30 02:16:04.49	209.32	44.86	-29.6	-32.1	20.4	6.03e-01	0	44	0	753926144	20	4798
2026-01-30 02:16:05.49	209.22	44.51	-29.5	-31.9	20.6	6.03e-01	0	43	0	755499008	20	4743
2026-01-30 02:16:06.49	209.13	44.17	-29.7	-32.5	20.2	6.01e-01	0	43	0	757596160	20	4935
2026-01-30 02:16:07.50	209.04	43.82	-30.1	-33.3	19.7	6.03e-01	0	43	0	759693312	20	5236
2026-01-30 02:16:08.50	208.95	43.48	-30.2	-33.2	19.5	6.01e-01	0	43	0	761266176	21	5086
2026-01-30 02:16:09.49	208.86	43.14	-30.2	-33.1	19.5	6.03e-01	0	43	0	763363328	21	5037
2026-01-30 02:16:10.49	208.78	42.81	-30.1	-32.9	19.7	6.03e-01	0	43	0	764936192	21	4984
2026-01-30 02:16:11.50	208.69	42.47	-30.0	-32.6	19.8	6.03e-01	0	43	0	767033344	21	4868
2026-01-30 02:16:12.50	208.61	42.14	-30.0	-32.7	19.8	6.02e-01	0	43	0	769130496	21	4918
2026-01-30 02:16:13.51	208.53	41.81	-30.2	-33.2	19.5	6.02e-01	0	43	0	770703360	21	5096
2026-01-30 02:16:14.51	208.45	41.49	-30.2	-33.1	19.5	6.02e-01	0	43	0	772800512	21	5060
2026-01-30 02:16:15.51	208.38	41.17	-30.2	-33.3	19.4	6.04e-01	0	43	0	774373376	21	5106
2026-01-30 02:16:16.51	208.30	40.85	-30.3	-33.3	19.4	6.02e-01	0	43	0	776470528	21	5131
2026-01-30 02:16:17.52	208.23	40.54	-30.3	-33.4	19.4	6.00e-01	0	43	0	778567680	21	5153
2026-01-30 02:16:18.51	208.16	40.23	-30.4	-33.6	19.2	6.04e-01	0	43	0	780140544	21	5235
2026-01-30 02:16:19.52	208.09	39.92	-30.5	-34.0	19.0	6.01e-01	0	43	0	782237696	21	5392
2026-01-30 02:16:20.53	208.02	39.61	-30.6	-33.8	18.8	6.03e-01	0	43	0	783810560	22	5185
2026-01-30 02:16:21.52	207.95	39.31	-30.8	-34.3	18.6	6.03e-01	0	43	0	785907712	22	5375
2026-01-30 02:16:22.53	207.88	39.01	-30.8	-34.3	18.4	6.02e-01	0	43	0	787480576	22	5391
2026-01-30 02:16:23.53	207.82	38.71	-30.8	-34.2	18.6	6.04e-01	0	43	0	789577728	22	5329
2026-01-30 02:16:24.54	207.75	38.41	-30.7	-34.0	18.6	6.03e-01	0	43	0	791674880	22	5284
2026-01-30 02:16:25.54	207.69	38.12	-30.6	-33.9	18.7	6.03e-01	0	43	0	793247744	22	5227
2026-01-30 02:16:26.54	207.63	37.83	-30.6	-33.9	18.7	6.02e-01	0	43	0	795344896	22	5238
2026-01-30 02:16:27.55	207.57	37.54	-30.7	-34.1	18.6	6.03e-01	0	43	0	797442048	22	5316
2026-01-30 02:16:28.55	207.51	37.25	-30.7	-34.1	18.5	6.04e-01	0	44	0	799014912	22	5339
2026-01-30 02:16:29.55	207.45	36.97	-30.5	-33.6	18.9	6.04e-01	0	43	0	801112064	22	5120
2026-01-30 02:16:30.56	207.40	36.69	-30.3	-33.1	19.2	6.01e-01	0	43	0	802684928	22	4926
2026-01-30 02:16:31.57	207.34	36.41	-30.3	-32.9	19.3	6.06e-01	0	44	0	804782080	22	4866
2026-01-30 02:16:32.57	207.29	36.14	-30.3	-32.9	19.3	6.03e-01	0	43	0	806354944	22	4876
2026-01-30 02:16:33.57	207.23	35.86	-30.2	-32.7	19.5	6.02e-01	0	43	0	808452096	22	4802
2026-01-30 02:16:34.58	207.18	35.59	-30.1	-32.5	19.5	6.05e-01	0	43	0	810549248	22	4749
2026-01-30 02:16:35.58	207.13	35.32	-29.9	-31.9	19.9	6.01e-01	0	43	0	812122112	22	4547
2026-01-30 02:16:36.59	207.07	35.06	-29.8	-32.1	20.1	6.02e-01	0	43	0	814219264	21	4714
2026-01-30 02:16:37.59	207.02	34.79	-29.7	-32.0	20.1	6.03e-01	0	43	0	815792128	21	4671
2026-01-30 02:16:38.59	206.98	34.53	-29.5	-31.5	20.4	6.01e-01	0	43	0	817889280	21	4509
2026-01-30 02:16:39.60	206.93	34.27	-29.5	-31.4	20.5	6.03e-01	0	43	0	819462144	21	4479
2026-01-30 02:16:40.59	206.88	34.02	-29.5	-31.4	20.4	6.02e-01	0	43	0	821559296	21	4483
2026-01-30 02:16:41.60	206.83	33.76	-29.4	-31.2	20.6	6.04e-01	0	43	0	823656448	21	4420
2026-01-30 02:16:42.60	206.79	33.51	-29.3	-31.5	20.6	6.03e-01	0	44	0	825229312	20	4634
2026-01-30 02:16:43.61	206.74	33.26	-29.3	-31.4	20.8	6.02e-01	0	44	0	827326464	20	4587
2026-01-30 02:16:44.61	206.70	33.01	-29.2	-31.3	20.8	6.04e-01	0	43	0	828899328	20	4572
2026-01-30 02:16:45.61	206.65	32.77	-29.3	-31.5	20.7	6.01e-01	0	43	0	830996480	20	4633
2026-01-30 02:16:46.62	206.61	32.52	-29.3	-31.5	20.7	6.01e-01	0	43	0	833093632	20	4640
2026-01-30 02:16:47.62	206.57	32.28	-29.2	-31.3	20.8	6.03e-01	0	43	0	834666496	20	4576
2026-01-30 02:16:48.63	206.53	32.04	-29.2	-31.1	20.9	6.01e-01	0	43	0	836763648	20	4513
2026-01-30 02:16:49.63	206.49	31.80	-29.3	-31.9	20.8	6.03e-01	0	43	0	838336512	19	4856
2026-01-30 02:16:50.64	206.44	31.57	-29.3	-31.9	20.8	6.05e-01	0	43	0	840433664	19	4867
2026-01-30 02:16:51.64	206.40	31.33	-29.2	-31.6	20.9	6.02e-01	0	43	0	842530816	19	4776
2026-01-30 02:16:52.63	206.37	31.11	-29.2	-31.7	20.9	5.99e-01	0	43	0	844103680	19	4794
2026-01-30 02:16:53.64	206.33	30.87	-29.3	-31.9	20.7	6.04e-01	0	43	0	846200832	19	4852
2026-01-30 02:16:54.63	206.29	30.65	-29.2	-31.7	20.9	6.03e-01	0	43	0	847773696	19	4806
2026-01-30 02:16:55.64	206.25	30.42	-29.2	-31.7	20.9	6.04e-01	0	43	0	849870848	19	4785
2026-01-30 02:16:56.64	206.22	30.20	-29.1	-31.4	21.0	6.02e-01	0	43	0	851443712	19	4716
2026-01-30 02:16:57.64	206.18	29.98	-29.0	-31.2	21.1	6.06e-01	0	44	0	853540864	19	4642
2026-01-30 02:16:58.65	206.14	29.76	-29.0	-31.6	21.1	6.02e-01	0	43	0	855638016	18	4902
2026-01-30 02:16:59.65	206.11	29.54	-28.9	-31.6	21.2	6.01e-01	0	43	0	857210880	18	4877
2026-01-30 02:17:00.66	206.07	29.32	-28.8	-31.3	21.3	6.02e-01	0	43	0	859308032	18	4783
2026-01-30 02:17:01.67	206.04	29.10	-28.8	-31.3	21.3	6.03e-01	0	43	0	860880896	18	4792
2026-01-30 02:17:02.67	206.01	28.89	-28.9	-31.5	21.3	6.04e-01	0	43	0	862978048	18	4850
2026-01-30 02:17:03.68	205.97	28.68	-28.9	-31.6	21.2	6.05e-01	0	43	0	865075200	18	4901
2026-01-30 02:17:04.68	205.94	28.47	-29.0	-31.8	21.1	6.04e-01	0	43	0	866648064	18	4962
2026-01-30 02:17:05.69	205.91	28.26	-29.1	-31.6	20.9	6.02e-01	0	44	0	868745216	19	4771
2026-01-30 02:17:06.69	205.88	28.05	-29.3	-31.9	20.7	6.06e-01	0	43	0	870318080	19	4893
2026-01-30 02:17:07.69	205.85	27.85	-29.3	-31.9	20.7	6.03e-01	0	44	0	872415232	19	4895
2026-01-30 02:17:08.69	205.82	27.65	-29.4	-32.3	20.5	6.02e-01	0	43	0	873988096	19	5014
2026-01-30 02:17:09.70	205.79	27.44	-29.5	-32.4	20.4	6.02e-01	0	43	0	876085248	19	5069
2026-01-30 02:17:10.70	205.76	27.24	-29.5	-32.5	20.4	6.02e-01	0	43	0	878182400	19	5095
2026-01-30 02:17:11.71	205.73	27.04	-29.6	-32.2	20.1	6.02e-01	0	43	0	879755264	20	4896
2026-01-30 02:17:12.71	205.70	26.85	-29.8	-32.7	19.9	6.01e-01	0	43	0	881852416	20	5049
2026-01-30 02:17:13.71	205.67	26.65	-29.7	-32.6	19.9	6.02e-01	0	43	0	883949568	20	5001
2026-01-30 02:17:14.72	205.64	26.46	-29.6	-32.4	20.0	6.04e-01	0	44	0	885522432	20	4945
2026-01-30 02:17:15.72	205.61	26.26	-29.7	-32.5	20.0	6.03e-01	0	43	0	887619584	20	4964
2026-01-30 02:17:16.72	205.59	26.07	-29.7	-32.5	20.0	6.00e-01	0	43	0	889192448	20	4988
2026-01-30 02:17:17.72	205.56	25.89	-29.8	-32.7	19.8	6.03e-01	0	44	0	891289600	20	5051
2026-01-30 02:17:18.72	205.53	25.70	-29.7	-32.6	19.8	6.02e-01	0	43	0	892862464	20	5017
2026-01-30 02:17:19.72	205.51	25.51	-29.7	-32.5	19.9	6.02e-01	0	43	0	894959616	20	4997
2026-01-30 02:17:20.72	205.48	25.33	-29.7	-32.6	19.9	6.03e-01	0	43	0	897056768	20	4999
2026-01-30 02:17:21.73	205.46	25.14	-29.8	-32.7	19.8	6.02e-01	0	43	0	898629632	20	5071
2026-01-30 02:17:22.74	205.43	24.96	-29.8	-32.8	19.7	6.03e-01	0	43	0	900726784	20	5089
2026-01-30 02:17:23.74	205.41	24.78	-29.8	-32.9	19.7	6.03e-01	0	43	0	902299648	20	5106
2026-01-30 02:17:24.74	205.38	24.60	-29.8	-32.8	19.7	6.02e-01	0	43	0	904396800	20	5095
2026-01-30 02:17:25.74	205.36	24.42	-29.9	-33.1	19.6	6.01e-01	0	43	0	905969664	20	5174
2026-01-30 02:17:26.75	205.33	24.24	-29.9	-32.9	19.6	6.02e-01	0	43	0	908066816	20	5136
2026-01-30 02:17:27.76	205.31	24.06	-29.8	-32.7	19.8	6.05e-01	0	43	0	910163968	20	5034
2026-01-30 02:17:28.76	205.29	23.89	-29.8	-32.7	19.8	6.05e-01	0	43	0	911736832	20	5048
2026-01-30 02:17:29.77	205.26	23.72	-29.8	-32.8	19.7	6.03e-01	0	43	0	913833984	20	5098
2026-01-30 02:17:30.77	205.24	23.54	-29.9	-33.0	19.6	6.03e-01	0	43	0	915931136	20	5153
2026-01-30 02:17:31.78	205.22	23.37	-30.0	-33.2	19.5	6.02e-01	0	43	0	917504000	20	5245
2026-01-30 02:17:32.78	205.20	23.20	-29.9	-33.1	19.5	6.03e-01	0	44	0	919601152	20	5208
2026-01-30 02:17:33.78	205.17	23.03	-29.9	-32.9	19.6	6.03e-01	0	43	0	921174016	20	5135
2026-01-30 02:17:34.79	205.15	22.87	-29.8	-32.8	19.7	6.01e-01	0	44	0	923271168	20	5079
2026-01-30 02:17:35.80	205.13	22.70	-29.8	-32.8	19.7	6.03e-01	0	43	0	925368320	20	5069
2026-01-30 02:17:36.81	205.11	22.53	-29.8	-32.8	19.7	6.03e-01	0	43	0	926941184	20	5066
2026-01-30 02:17:37.81	205.09	22.37	-29.9	-32.9	19.6	6.05e-01	0	43	0	929038336	20	5133
2026-01-30 02:17:38.81	205.07	22.21	-29.8	-32.9	19.7	6.03e-01	0	43	0	930611200	20	5103
2026-01-30 02:17:39.82	205.05	22.04	-29.8	-32.8	19.7	6.02e-01	0	43	0	932708352	20	5080
2026-01-30 02:17:40.82	205.03	21.88	-29.9	-33.0	19.5	6.01e-01	0	43	0	934281216	20	5165
2026-01-30 02:17:41.82	205.01	21.73	-29.8	-32.9	19.6	6.03e-01	0	44	0	936378368	20	5117
2026-01-30 02:17:42.83	204.99	21.57	-29.9	-33.0	19.6	6.06e-01	0	43	0	938475520	20	5146
2026-01-30 02:17:43.83	204.97	21.41	-29.9	-33.0	19.6	6.05e-01	0	43	0	940048384	20	5141
2026-01-30 02:17:44.84	204.95	21.25	-29.9	-33.1	19.5	6.01e-01	0	43	0	942145536	20	5182
2026-01-30 02:17:45.84	204.93	21.10	-30.0	-33.4	19.3	6.02e-01	0	44	0	943718400	20	5310
2026-01-30 02:17:46.84	204.92	20.94	-30.0	-33.3	19.4	6.03e-01	0	43	0	945815552	20	5263
2026-01-30 02:17:47.84	204.90	20.79	-29.9	-33.0	19.5	6.03e-01	0	43	0	947388416	20	5165
2026-01-30 02:17:48.85	204.88	20.64	-29.8	-32.9	19.5	6.03e-01	0	43	0	949485568	20	5136
2026-01-30 02:17:49.85	204.86	20.49	-29.8	-32.8	19.6	6.04e-01	0	43	0	951582720	20	5083
2026-01-30 02:17:50.85	204.84	20.34	-29.9	-33.1	19.4	6.03e-01	0	43	0	953155584	20	5203
2026-01-30 02:17:51.85	204.83	20.19	-29.8	-32.7	19.6	6.03e-01	0	44	0	955252736	20	5057
2026-01-30 02:17:52.86	204.81	20.04	-29.6	-32.4	19.8	6.03e-01	0	43	0	957349888	20	4940
2026-01-30 02:17:53.86	204.79	19.89	-29.6	-32.4	19.9	6.01e-01	0	44	0	958922752	20	4942
2026-01-30 02:17:54.86	204.78	19.75	-29.6	-32.4	19.8	6.03e-01	0	43	0	961019904	20	4944
2026-01-30 02:17:55.86	204.76	19.60	-29.7	-32.7	19.6	6.01e-01	0	43	0	962592768	20	5048
2026-01-30 02:17:56.87	204.74	19.46	-29.8	-32.7	19.6	6.03e-01	0	43	0	964689920	20	5073
2026-01-30 02:17:57.88	204.73	19.31	-29.8	-32.8	19.6	6.02e-01	0	44	0	966262784	20	5106
2026-01-30 02:17:58.88	204.71	19.17	-29.9	-33.0	19.4	6.04e-01	0	43	0	968359936	20	5187
2026-01-30 02:17:59.89	204.69	19.03	-29.8	-33.0	19.4	6.02e-01	0	43	0	970457088	20	5162
2026-01-30 02:18:00.89	204.68	18.89	-29.9	-33.1	19.3	6.02e-01	0	43	0	972029952	20	5202
2026-01-30 02:18:01.89	204.66	18.75	-30.0	-33.5	19.1	6.02e-01	0	43	0	974127104	20	5356
2026-01-30 02:18:02.90	204.65	18.61	-30.0	-33.4	19.1	6.03e-01	0	43	0	975699968	20	5328
2026-01-30 02:18:03.90	204.63	18.47	-30.1	-33.6	18.9	6.03e-01	0	43	0	977797120	20	5391
2026-01-30 02:18:04.91	204.62	18.33	-30.2	-33.5	18.7	6.02e-01	0	44	0	979894272	21	5244
2026-01-30 02:18:05.91	204.60	18.19	-30.5	-34.1	18.4	6.02e-01	0	43	0	981467136	21	5510
2026-01-30 02:18:06.91	204.59	18.06	-30.2	-33.4	18.8	6.03e-01	0	43	0	983564288	21	5221
2026-01-30 02:18:07.91	204.57	17.93	-30.0	-32.9	19.1	6.03e-01	0	44	0	985137152	21	5031
2026-01-30 02:18:08.91	204.56	17.79	-29.9	-32.7	19.2	6.04e-01	0	43	0	987234304	21	4957
2026-01-30 02:18:09.91	204.55	17.66	-29.8	-32.5	19.4	6.02e-01	0	43	0	989331456	21	4879
2026-01-30 02:18:10.91	204.53	17.53	-29.9	-32.7	19.2	6.03e-01	0	43	0	990904320	21	4967
2026-01-30 02:18:11.92	204.52	17.39	-29.9	-32.6	19.3	6.02e-01	0	43	0	993001472	21	4919
2026-01-30 02:18:12.93	204.50	17.26	-30.1	-33.1	19.0	6.03e-01	0	43	0	994574336	21	5092
2026-01-30 02:18:13.93	204.49	17.13	-29.9	-32.8	19.2	6.02e-01	0	43	0	996671488	21	4986
2026-01-30 02:18:14.93	204.48	17.00	-29.8	-32.4	19.4	6.03e-01	0	43	0	998244352	21	4867
2026-01-30 02:18:15.94	204.46	16.87	-29.7	-32.1	19.6	6.01e-01	0	43	0	1000341504	21	4745
2026-01-30 02:18:16.94	204.45	16.75	-29.6	-31.8	19.7	6.03e-01	0	43	0	1002438656	21	4667
2026-01-30 02:18:17.94	204.44	16.62	-29.6	-31.8	19.7	6.04e-01	0	43	0	1004011520	21	4669
2026-01-30 02:18:18.95	204.43	16.49	-29.6	-31.9	19.7	6.04e-01	0	44	0	1006108672	21	4707
2026-01-30 02:18:19.95	204.41	16.37	-29.6	-32.0	19.6	6.01e-01	0	44	0	1007681536	21	4718
2026-01-30 02:18:20.95	204.40	16.24	-29.7	-32.1	19.6	6.04e-01	0	44	0	1009778688	21	4746
2026-01-30 02:18:21.95	204.39	16.12	-29.6	-31.9	19.6	6.05e-01	0	43	0	1011875840	21	4708
2026-01-30 02:18:22.95	204.38	15.99	-29.7	-32.1	19.6	6.02e-01	0	43	0	1013448704	21	4745
2026-01-30 02:18:23.95	204.36	15.87	-29.7	-32.1	19.6	6.04e-01	0	43	0	1015545856	21	4753
2026-01-30 02:18:24.96	204.35	15.75	-29.7	-32.2	19.5	6.02e-01	0	43	0	1017118720	21	4796
2026-01-30 02:18:25.96	204.34	15.63	-29.7	-32.1	19.5	6.03e-01	0	43	0	1019215872	21	4760
2026-01-30 02:18:26.97	204.33	15.51	-29.6	-32.0	19.6	6.03e-01	0	43	0	1021313024	21	4738
2026-01-30 02:18:27.98	204.32	15.38	-29.7	-32.1	19.5	6.02e-01	0	43	0	1022885888	21	4775
2026-01-30 02:18:28.98	204.31	15.27	-29.8	-32.4	19.3	6.01e-01	0	43	0	1024983040	21	4876
2026-01-30 02:18:29.98	204.29	15.15	-29.7	-32.3	19.4	6.05e-01	0	43	0	1026555904	21	4824
2026-01-30 02:18:30.99	204.28	15.03	-29.7	-32.2	19.5	6.01e-01	0	43	0	1028653056	21	4784
2026-01-30 02:18:31.99	204.27	14.91	-29.7	-32.2	19.4	6.03e-01	0	43	0	1030225920	21	4808
2026-01-30 02:18:32.99	204.26	14.79	-29.8	-32.4	19.3	6.05e-01	0	43	0	1032323072	21	4879
2026-01-30 02:18:34.00	204.25	14.68	-29.7	-32.2	19.4	6.03e-01	0	43	0	1034420224	21	4809
2026-01-30 02:18:35.00	204.24	14.56	-29.7	-32.3	19.4	6.04e-01	0	43	0	1035993088	21	4815
2026-01-30 02:18:36.00	204.23	14.45	-29.8	-32.5	19.2	6.01e-01	0	43	0	1038090240	21	4919
2026-01-30 02:18:37.01	204.22	14.33	-29.7	-32.2	19.4	6.01e-01	0	43	0	1039663104	21	4794
2026-01-30 02:18:38.00	204.21	14.22	-29.7	-32.1	19.4	6.03e-01	0	43	0	1041760256	21	4773
2026-01-30 02:18:39.00	204.20	14.10	-29.8	-32.4	19.3	6.04e-01	0	43	0	1043857408	21	4868
2026-01-30 02:18:39.99	204.19	13.99	-29.7	-32.1	19.4	6.01e-01	0	43	0	1045430272	21	4775
2026-01-30 02:18:40.99	204.18	13.88	-29.8	-32.5	19.2	6.03e-01	0	43	0	1047527424	21	4916
2026-01-30 02:18:42.00	204.17	13.77	-29.8	-32.4	19.2	6.02e-01	0	43	0	1049100288	21	4864
2026-01-30 02:18:43.00	204.16	13.66	-29.9	-32.7	19.1	6.03e-01	0	43	0	1051197440	21	4974
2026-01-30 02:18:44.00	204.15	13.55	-29.8	-32.5	19.2	6.01e-01	0	43	0	1052770304	21	4894
2026-01-30 02:18:45.01	204.14	13.44	-29.9	-32.7	19.0	6.03e-01	0	43	0	1054867456	21	4982
2026-01-30 02:18:46.01	204.13	13.33	-30.1	-33.2	18.7	6.04e-01	0	44	0	1056964608	21	5171
2026-01-30 02:18:47.02	204.12	13.22	-30.0	-33.0	18.8	6.03e-01	0	43	0	1058537472	21	5082
2026-01-30 02:18:48.02	204.11	13.11	-30.0	-32.9	18.8	6.03e-01	0	43	0	1060634624	21	5072
2026-01-30 02:18:49.02	204.10	13.00	-30.1	-33.3	18.6	6.02e-01	0	43	0	1062207488	21	5221
2026-01-30 02:18:50.03	204.09	12.89	-30.0	-32.9	18.8	6.02e-01	0	44	0	1064304640	21	5073
2026-01-30 02:18:51.04	204.08	12.79	-30.0	-33.0	18.8	6.05e-01	0	43	0	1066401792	21	5074
2026-01-30 02:18:52.04	204.07	12.68	-30.0	-33.1	18.8	6.02e-01	0	43	0	1067974656	21	5126
2026-01-30 02:18:53.05	204.07	12.57	-30.1	-33.5	18.5	6.03e-01	0	43	0	1070071808	21	5269
2026-01-30 02:18:54.05	204.06	12.47	-30.3	-33.8	18.3	6.00e-01	0	43	0	1071644672	21	5401
2026-01-30 02:18:55.05	204.05	12.36	-30.1	-33.4	18.5	6.04e-01	0	44	0	1073741824	21	5265
2026-01-30 02:18:56.06	204.04	12.26	-30.1	-33.3	18.5	6.04e-01	0	44	0	1075838976	21	5218
2026-01-30 02:18:57.06	204.03	12.16	-30.0	-33.0	18.7	6.03e-01	0	43	0	1077411840	21	5114
2026-01-30 02:18:58.07	204.02	12.05	-30.0	-33.0	18.7	6.04e-01	0	43	0	1079508992	21	5092
2026-01-30 02:18:59.07	204.01	11.95	-30.0	-33.0	18.7	6.04e-01	0	44	0	1081081856	21	5103
2026-01-30 02:19:00.07	204.01	11.85	-30.2	-33.6	18.3	6.03e-01	0	44	0	1083179008	21	5332
2026-01-30 02:19:01.08	204.00	11.74	-30.0	-33.0	18.7	6.03e-01	0	43	0	1084751872	21	5105
2026-01-30 02:19:02.09	203.99	11.64	-29.9	-32.7	18.8	6.03e-01	0	43	0	1086849024	21	4992
2026-01-30 02:19:03.09	203.98	11.54	-29.9	-32.7	18.8	6.03e-01	0	43	0	1088946176	21	5000
2026-01-30 02:19:04.09	203.97	11.44	-29.9	-32.7	18.8	6.02e-01	0	43	0	1090519040	21	4999
2026-01-30 02:19:05.10	203.97	11.34	-29.9	-33.0	18.6	6.03e-01	0	43	0	1092616192	21	5093
2026-01-30 02:19:06.11	203.96	11.24	-29.9	-32.9	18.7	6.00e-01	0	44	0	1094713344	21	5062
2026-01-30 02:19:07.11	203.95	11.14	-30.0	-33.0	18.6	6.02e-01	0	44	0	1096286208	21	5114
2026-01-30 02:19:08.11	203.94	11.04	-30.0	-33.2	18.4	6.04e-01	0	43	0	1098383360	21	5191
2026-01-30 02:19:09.11	203.94	10.94	-30.0	-33.1	18.4	6.03e-01	0	43	0	1099956224	21	5151
2026-01-30 02:19:10.11	203.93	10.85	-30.0	-33.2	18.5	6.00e-01	0	43	0	1102053376	21	5165
2026-01-30 02:19:11.12	203.92	10.75	-30.1	-33.4	18.3	6.03e-01	0	43	0	1103626240	21	5278
2026-01-30 02:19:12.12	203.91	10.65	-30.1	-33.3	18.4	6.04e-01	0	43	0	1105723392	21	5234
2026-01-30 02:19:13.12	203.91	10.56	-30.2	-33.8	18.0	6.03e-01	0	43	0	1107820544	21	5418
2026-01-30 02:19:14.12	203.90	10.46	-30.1	-33.3	18.3	6.03e-01	0	43	0	1109393408	21	5235
2026-01-30 02:19:15.12	203.89	10.37	-29.9	-32.9	18.6	6.01e-01	0	44	0	1111490560	21	5064
2026-01-30 02:19:16.13	203.88	10.27	-29.9	-32.8	18.7	6.02e-01	0	43	0	1113063424	21	5022
2026-01-30 02:19:17.13	203.88	10.17	-29.9	-32.9	18.6	6.02e-01	0	43	0	1115160576	21	5084
2026-01-30 02:19:18.13	203.87	10.08	-29.9	-32.9	18.6	6.00e-01	0	43	0	1116733440	21	5074
2026-01-30 02:19:19.14	203.86	9.99	-30.0	-33.1	18.4	6.05e-01	0	43	0	1118830592	21	5156
2026-01-30 02:19:20.14	203.86	9.89	-29.9	-33.0	18.6	6.04e-01	0	44	0	1120927744	21	5102
2026-01-30 02:19:21.14	203.85	9.80	-30.0	-33.2	18.4	6.02e-01	0	43	0	1122500608	21	5191
2026-01-30 02:19:22.14	203.84	9.71	-30.2	-33.6	18.1	6.02e-01	0	43	0	1124597760	21	5348
2026-01-30 02:19:23.14	203.84	9.61	-30.0	-33.2	18.3	6.03e-01	0	43	0	1126170624	21	5202
2026-01-30 02:19:24.15	203.83	9.52	-30.0	-33.2	18.4	6.05e-01	0	43	0	1128267776	21	5179
2026-01-30 02:19:25.16	203.82	9.43	-29.9	-32.9	18.5	6.02e-01	0	43	0	1130364928	21	5098
2026-01-30 02:19:26.17	203.82	9.34	-29.9	-32.9	18.6	6.00e-01	0	43	0	1131937792	21	5065
2026-01-30 02:19:27.17	203.81	9.25	-29.9	-32.8	18.6	6.03e-01	0	43	0	1134034944	21	5052
2026-01-30 02:19:28.17	203.81	9.16	-29.9	-32.9	18.5	6.02e-01	0	43	0	1135607808	21	5078
2026-01-30 02:19:29.17	203.80	9.07	-29.9	-32.9	18.6	6.03e-01	0	44	0	1137704960	21	5077
2026-01-30 02:19:30.18	203.79	8.98	-30.0	-33.1	18.4	6.03e-01	0	44	0	1139802112	21	5170
2026-01-30 02:19:31.18	203.79	8.89	-29.9	-33.0	18.4	6.03e-01	0	43	0	1141374976	21	5146
2026-01-30 02:19:32.18	203.78	8.80	-29.9	-32.9	18.5	6.03e-01	0	44	0	1143472128	21	5096
2026-01-30 02:19:33.18	203.78	8.71	-30.0	-33.3	18.3	6.05e-01	0	43	0	1145044992	21	5235
2026-01-30 02:19:34.18	203.77	8.62	-30.1	-33.6	18.1	6.00e-01	0	43	0	1147142144	21	5370
2026-01-30 02:19:35.19	203.76	8.53	-30.2	-33.8	17.9	6.02e-01	0	43	0	1148715008	21	5465
2026-01-30 02:19:36.19	203.76	8.44	-30.2	-33.8	17.9	6.05e-01	0	43	0	1150812160	21	5461
2026-01-30 02:19:37.19	203.75	8.36	-30.2	-33.8	17.9	6.02e-01	0	44	0	1152909312	21	5453
2026-01-30 02:19:38.19	203.75	8.27	-30.3	-34.0	17.7	6.02e-01	0	44	0	1154482176	21	5555
2026-01-30 02:19:39.20	203.74	8.18	-30.2	-33.9	17.8	6.02e-01	0	43	0	1156579328	21	5508
2026-01-30 02:19:40.20	203.74	8.10	-30.3	-34.1	17.7	6.03e-01	0	43	0	1158152192	21	5599
2026-01-30 02:19:41.20	203.73	8.01	-30.4	-34.4	17.5	6.03e-01	0	44	0	1160249344	21	5690
2026-01-30 02:19:42.20	203.72	7.93	-30.3	-34.1	17.7	6.01e-01	0	43	0	1162346496	21	5569
2026-01-30 02:19:43.20	203.72	7.84	-30.3	-34.2	17.6	6.04e-01	0	43	0	1163919360	21	5608
2026-01-30 02:19:44.21	203.71	7.75	-30.3	-34.2	17.6	6.02e-01	0	44	0	1166016512	21	5648
2026-01-30 02:19:45.21	203.71	7.67	-30.3	-34.2	17.6	6.01e-01	0	44	0	1167589376	21	5615
2026-01-30 02:19:46.21	203.70	7.59	-30.4	-34.3	17.5	6.03e-01	0	43	0	1169686528	21	5694
2026-01-30 02:19:47.22	203.70	7.50	-30.5	-34.8	17.1	6.02e-01	0	43	0	1171259392	21	5886
2026-01-30 02:19:48.21	203.69	7.42	-30.4	-34.6	17.3	6.03e-01	0	43	0	1173356544	21	5824
2026-01-30 02:19:49.22	203.69	7.33	-30.4	-34.4	17.4	6.03e-01	0	43	0	1175453696	21	5731
2026-01-30 02:19:50.22	203.68	7.25	-30.5	-34.7	17.2	6.03e-01	0	43	0	1177026560	21	5873
2026-01-30 02:19:51.22	203.68	7.17	-30.5	-34.8	17.1	6.02e-01	0	43	0	1179123712	21	5896
2026-01-30 02:19:52.23	203.67	7.08	-30.1	-33.8	17.7	6.05e-01	0	43	0	1180696576	21	5460
2026-01-30 02:19:53.22	203.67	7.00	-33.6	-53.1	3.7	7.48e-01	0	43	104	1181220864	27	33868
2026-01-30 02:19:54.22	203.66	6.92	-33.9	-53.3	3.8	7.44e-01	0	43	104	1181220864	28	33735

#Closed at: 2026-01-30 02:19:54
#Recorded file [1181 MB]: D:/data/31010_260130_050922.dat