passes_logs/2026/01/30/R2M6_AANII_01/R2M6_AANII_01__20260130_082835_NOAA_20_JPSS-1_rec.log

#Pass ID: 20260130_082835_NOAA 20 (JPSS-1)
#Satellite: NOAA 20 (JPSS-1)
#Configuration: NOAA 20
#almurnet v.1.7.20240730
#Start time: 2026-01-30 08:28:36

#Version: 2.2.20231116
#Station: R2M6_AANII_01
#Location: 30.233357 lon 59.946436 lat
#TLE: 1 43013U 17073A   26029.42702672  .00000137  00000+0  85918-4 0  9993
#TLE: 2 43013  98.7646 330.2153 0000804  19.9045 340.2162 14.19525092424781

#Time	Az	El	Level	Level2	SNR	BER	BlckErr	Temp	State	Recorded	gain1	gain2
2026-01-30 08:28:36.54	102.93	7.05	-32.3	-40.9	4.2	1.43e+00	0	41	0	0	26	9625
2026-01-30 08:28:37.54	102.84	7.11	-32.1	-39.5	4.5	1.35e+00	0	41	104	0	25	8473
2026-01-30 08:28:38.54	102.75	7.18	-32.1	-39.4	6.0	3.43e-01	0	41	0	0	25	8377
2026-01-30 08:28:39.55	102.66	7.24	-32.2	-39.8	5.8	3.72e-01	0	41	0	1048576	25	8709
2026-01-30 08:28:40.55	102.57	7.31	-32.2	-40.1	5.6	4.35e-01	0	41	0	3145728	25	8894
2026-01-30 08:28:41.56	102.48	7.37	-32.2	-40.2	5.5	4.71e-01	0	41	0	5242880	25	9008
2026-01-30 08:28:42.57	102.39	7.44	-32.3	-40.6	5.3	4.71e-01	0	41	0	7340032	25	9356
2026-01-30 08:28:43.57	102.30	7.51	-32.2	-40.3	5.5	5.69e-01	0	41	0	9437184	25	9110
2026-01-30 08:28:44.57	102.21	7.57	-32.1	-39.0	6.3	3.77e-01	0	41	0	10485760	25	8036
2026-01-30 08:28:45.57	102.12	7.64	-31.9	-38.3	6.8	2.23e-01	0	41	0	12582912	25	7496
2026-01-30 08:28:46.57	102.02	7.70	-31.7	-37.6	7.7	1.06e-01	0	41	0	14680064	24	7124
2026-01-30 08:28:47.58	101.93	7.77	-31.5	-36.7	8.5	5.61e-02	0	41	0	16777216	24	6525
2026-01-30 08:28:48.57	101.84	7.84	-31.4	-36.1	8.9	3.66e-02	0	41	0	17825792	24	6210
2026-01-30 08:28:49.58	101.74	7.90	-31.2	-36.1	9.4	1.77e-02	0	41	0	19922944	23	6286
2026-01-30 08:28:50.58	101.65	7.97	-31.3	-36.1	9.4	1.40e-02	0	41	0	22020096	23	6316
2026-01-30 08:28:51.59	101.55	8.04	-31.3	-36.2	9.3	2.00e-02	0	41	0	24117248	23	6364
2026-01-30 08:28:52.59	101.46	8.10	-31.2	-36.0	9.4	1.63e-02	0	41	0	26214400	23	6266
2026-01-30 08:28:53.59	101.36	8.17	-31.2	-36.1	9.3	1.48e-02	0	41	0	28311552	23	6302
2026-01-30 08:28:54.59	101.27	8.24	-31.2	-36.1	9.3	1.92e-02	0	41	0	29360128	23	6301
2026-01-30 08:28:55.60	101.17	8.30	-31.2	-36.1	9.3	1.79e-02	0	41	0	31457280	23	6317
2026-01-30 08:28:56.60	101.07	8.37	-31.2	-36.1	9.3	1.91e-02	0	41	0	33554432	23	6309
2026-01-30 08:28:57.61	100.97	8.44	-31.2	-36.3	9.1	1.97e-02	0	41	0	35651584	23	6422
2026-01-30 08:28:58.60	100.88	8.50	-31.2	-35.9	9.3	2.84e-02	0	41	0	36700160	23	6244
2026-01-30 08:28:59.62	100.78	8.57	-30.9	-35.0	10.1	8.73e-03	0	41	0	38797312	23	5776
2026-01-30 08:29:00.62	100.68	8.64	-30.8	-34.5	10.6	4.89e-03	0	41	0	40894464	23	5497
2026-01-30 08:29:01.62	100.58	8.71	-30.7	-34.8	10.6	2.71e-03	0	42	0	42991616	22	5768
2026-01-30 08:29:02.62	100.48	8.78	-30.9	-35.4	10.2	4.04e-03	0	42	0	45088768	22	6026
2026-01-30 08:29:03.63	100.38	8.84	-31.1	-36.1	9.7	1.09e-02	0	41	0	46137344	22	6416
2026-01-30 08:29:04.63	100.28	8.91	-31.2	-36.4	9.4	1.40e-02	0	42	0	48234496	22	6576
2026-01-30 08:29:05.63	100.18	8.98	-31.2	-36.4	9.4	1.62e-02	0	41	0	50331648	22	6571
2026-01-30 08:29:06.63	100.07	9.05	-31.2	-36.5	9.4	1.64e-02	0	42	0	52428800	22	6623
2026-01-30 08:29:07.64	99.97	9.12	-31.2	-36.3	9.6	1.42e-02	0	42	0	54525952	22	6478
2026-01-30 08:29:08.64	99.87	9.18	-31.1	-36.1	9.7	1.25e-02	0	42	0	55574528	22	6416
2026-01-30 08:29:09.64	99.77	9.25	-31.1	-36.2	9.7	1.11e-02	0	42	0	57671680	22	6417
2026-01-30 08:29:10.65	99.66	9.32	-31.2	-36.4	9.5	1.19e-02	0	42	0	59768832	22	6574
2026-01-30 08:29:11.66	99.56	9.39	-31.2	-36.5	9.5	1.83e-02	0	42	0	61865984	22	6632
2026-01-30 08:29:12.66	99.45	9.46	-31.3	-36.8	9.3	1.37e-02	0	42	0	63963136	22	6750
2026-01-30 08:29:13.66	99.35	9.53	-31.2	-36.4	9.5	1.81e-02	0	42	0	65011712	22	6563
2026-01-30 08:29:14.66	99.24	9.60	-31.1	-35.9	10.0	9.43e-03	0	42	0	67108864	22	6280
2026-01-30 08:29:15.66	99.13	9.67	-31.0	-35.6	10.3	6.48e-03	0	42	0	69206016	22	6087
2026-01-30 08:29:16.66	99.03	9.73	-30.9	-35.3	10.5	3.67e-03	0	42	0	71303168	22	5975
2026-01-30 08:29:17.66	98.92	9.80	-31.1	-35.8	10.2	5.11e-03	0	42	0	73400320	22	6182
2026-01-30 08:29:18.66	98.81	9.87	-31.1	-36.0	10.0	7.76e-03	0	42	0	74448896	22	6326
2026-01-30 08:29:19.67	98.70	9.94	-31.2	-36.1	9.9	9.29e-03	0	42	0	76546048	22	6375
2026-01-30 08:29:20.67	98.60	10.01	-31.1	-35.9	10.1	7.57e-03	0	42	0	78643200	22	6245
2026-01-30 08:29:21.68	98.48	10.08	-31.1	-35.9	10.1	6.73e-03	0	42	0	80740352	22	6273
2026-01-30 08:29:22.68	98.38	10.15	-31.1	-35.9	10.0	7.93e-03	0	42	0	81788928	22	6259
2026-01-30 08:29:23.69	98.26	10.22	-31.2	-36.2	9.8	8.62e-03	0	42	0	83886080	22	6419
2026-01-30 08:29:24.69	98.15	10.29	-31.2	-36.3	9.8	9.30e-03	0	42	0	85983232	22	6456
2026-01-30 08:29:25.69	98.04	10.36	-31.2	-36.0	10.0	7.72e-03	0	42	0	88080384	22	6314
2026-01-30 08:29:26.70	97.93	10.43	-31.2	-36.2	9.9	8.11e-03	0	42	0	90177536	22	6403
2026-01-30 08:29:27.69	97.82	10.50	-31.2	-36.2	9.9	8.37e-03	0	42	0	91226112	22	6409
2026-01-30 08:29:28.68	97.71	10.57	-31.2	-36.3	9.8	9.90e-03	0	42	0	93323264	22	6478
2026-01-30 08:29:29.68	97.59	10.64	-31.1	-35.8	10.2	1.05e-02	0	42	0	95420416	22	6210
2026-01-30 08:29:30.68	97.48	10.71	-31.1	-35.8	10.3	5.08e-03	0	42	0	97517568	22	6175
2026-01-30 08:29:31.68	97.36	10.78	-31.2	-36.0	10.2	6.37e-03	0	42	0	99614720	22	6255
2026-01-30 08:29:32.68	97.25	10.85	-31.2	-36.1	10.1	5.43e-03	0	42	0	100663296	22	6310
2026-01-30 08:29:33.68	97.13	10.92	-31.2	-36.1	10.1	6.72e-03	0	42	0	102760448	22	6303
2026-01-30 08:29:34.68	97.02	10.99	-31.1	-35.9	10.3	5.86e-03	0	42	0	104857600	22	6208
2026-01-30 08:29:35.69	96.90	11.06	-31.1	-35.7	10.4	4.02e-03	0	42	0	106954752	22	6103
2026-01-30 08:29:36.70	96.78	11.13	-31.1	-35.7	10.5	4.46e-03	0	42	0	109051904	22	6087
2026-01-30 08:29:37.70	96.66	11.21	-31.1	-35.5	10.6	3.45e-03	0	42	0	110100480	22	5994
2026-01-30 08:29:38.70	96.54	11.28	-30.9	-35.1	11.0	2.47e-03	0	42	0	112197632	22	5783
2026-01-30 08:29:39.71	96.42	11.35	-30.8	-34.7	11.3	1.53e-03	0	42	0	114294784	22	5613
2026-01-30 08:29:40.72	96.30	11.42	-30.8	-34.5	11.5	8.44e-04	0	42	0	116391936	22	5505
2026-01-30 08:29:41.72	96.18	11.49	-30.8	-34.6	11.4	8.33e-04	0	42	0	118489088	22	5581
2026-01-30 08:29:42.72	96.06	11.56	-30.8	-34.5	11.5	9.70e-04	0	42	0	119537664	22	5544
2026-01-30 08:29:43.72	95.94	11.63	-30.8	-34.5	11.5	8.87e-04	0	42	0	121634816	22	5520
2026-01-30 08:29:44.72	95.81	11.70	-30.7	-34.3	11.6	7.39e-04	0	42	0	123731968	22	5446
2026-01-30 08:29:45.72	95.69	11.78	-30.7	-34.3	11.7	5.97e-04	0	42	0	125829120	22	5440
2026-01-30 08:29:46.73	95.57	11.85	-30.8	-34.3	11.6	6.61e-04	0	42	0	126877696	22	5447
2026-01-30 08:29:47.73	95.44	11.92	-30.8	-34.5	11.6	6.92e-04	0	42	0	128974848	22	5507
2026-01-30 08:29:48.73	95.32	11.99	-30.8	-34.4	11.6	7.20e-04	0	42	0	131072000	22	5463
2026-01-30 08:29:49.73	95.19	12.06	-30.8	-34.4	11.6	6.00e-04	0	42	0	133169152	22	5463
2026-01-30 08:29:50.73	95.07	12.14	-30.8	-34.4	11.6	6.00e-04	0	42	0	135266304	22	5478
2026-01-30 08:29:51.73	94.94	12.21	-30.8	-34.5	11.6	6.33e-04	0	42	0	136314880	22	5498
2026-01-30 08:29:52.74	94.81	12.28	-31.0	-35.0	11.2	1.02e-03	0	42	0	138412032	22	5741
2026-01-30 08:29:53.74	94.68	12.35	-30.9	-34.9	11.3	1.79e-03	0	42	0	140509184	22	5670
2026-01-30 08:29:54.75	94.55	12.43	-31.1	-35.4	10.9	1.73e-03	0	42	0	142606336	22	5891
2026-01-30 08:29:55.76	94.42	12.50	-31.0	-35.0	11.2	2.10e-03	0	42	0	144703488	22	5731
2026-01-30 08:29:56.76	94.29	12.57	-30.8	-34.5	11.7	8.34e-04	0	42	0	145752064	22	5478
2026-01-30 08:29:57.76	94.16	12.64	-30.7	-34.2	11.8	4.27e-04	0	42	0	147849216	22	5367
2026-01-30 08:29:58.76	94.03	12.72	-30.8	-34.3	11.8	3.64e-04	0	42	0	149946368	22	5392
2026-01-30 08:29:59.77	93.90	12.79	-30.7	-34.1	12.0	4.13e-04	0	43	0	152043520	22	5325
2026-01-30 08:30:00.76	93.77	12.86	-30.8	-34.3	11.8	4.59e-04	0	42	0	154140672	22	5399
2026-01-30 08:30:01.76	93.64	12.93	-30.7	-34.2	11.9	4.36e-04	0	43	0	155189248	22	5346
2026-01-30 08:30:02.77	93.50	13.01	-30.7	-34.0	12.1	2.91e-04	0	42	0	157286400	22	5263
2026-01-30 08:30:03.77	93.37	13.08	-30.7	-34.0	12.1	2.39e-04	0	42	0	159383552	22	5245
2026-01-30 08:30:04.77	93.23	13.15	-30.7	-34.0	12.2	2.53e-04	0	43	0	161480704	22	5249
2026-01-30 08:30:05.78	93.09	13.23	-30.6	-33.7	12.4	1.73e-04	0	42	0	163577856	22	5128
2026-01-30 08:30:06.77	92.96	13.30	-30.6	-33.7	12.4	1.80e-04	0	42	0	164626432	22	5138
2026-01-30 08:30:07.78	92.82	13.37	-30.7	-33.9	12.2	1.97e-04	0	43	0	166723584	22	5224
2026-01-30 08:30:08.78	92.68	13.44	-30.6	-33.5	12.5	1.79e-04	0	43	0	168820736	22	5076
2026-01-30 08:30:09.79	92.54	13.52	-30.5	-33.4	12.6	8.62e-05	0	43	0	170917888	22	5042
2026-01-30 08:30:10.79	92.40	13.59	-30.5	-33.4	12.6	1.07e-04	0	43	0	171966464	22	5031
2026-01-30 08:30:11.79	92.26	13.66	-30.6	-33.8	12.3	1.45e-04	0	42	0	174063616	22	5185
2026-01-30 08:30:12.80	92.12	13.74	-30.6	-33.6	12.4	1.92e-04	0	43	0	176160768	22	5126
2026-01-30 08:30:13.80	91.98	13.81	-30.5	-33.5	12.5	1.37e-04	0	43	0	178257920	22	5063
2026-01-30 08:30:14.80	91.84	13.89	-30.5	-33.4	12.6	9.91e-05	0	43	0	180355072	22	5029
2026-01-30 08:30:15.81	91.69	13.96	-30.6	-33.6	12.5	1.10e-04	0	43	0	181403648	22	5110
2026-01-30 08:30:16.81	91.55	14.03	-30.5	-33.5	12.6	1.04e-04	0	43	0	183500800	22	5032
2026-01-30 08:30:17.81	91.41	14.11	-30.6	-33.7	12.5	1.20e-04	0	43	0	185597952	22	5124
2026-01-30 08:30:18.81	91.26	14.18	-30.6	-33.6	12.5	1.01e-04	0	43	0	187695104	22	5102
2026-01-30 08:30:19.81	91.11	14.25	-30.6	-33.7	12.5	1.23e-04	0	43	0	189792256	22	5106
2026-01-30 08:30:20.81	90.97	14.33	-30.7	-33.8	12.4	1.14e-04	0	43	0	190840832	22	5157
2026-01-30 08:30:21.80	90.82	14.40	-30.7	-34.0	12.3	1.33e-04	0	43	0	192937984	22	5247
2026-01-30 08:30:22.81	90.67	14.47	-30.7	-33.9	12.4	1.27e-04	0	43	0	195035136	22	5193
2026-01-30 08:30:23.81	90.52	14.55	-30.8	-34.1	12.2	1.48e-04	0	43	0	197132288	22	5284
2026-01-30 08:30:24.81	90.37	14.62	-30.8	-34.1	12.3	2.10e-04	0	43	0	199229440	22	5273
2026-01-30 08:30:25.81	90.22	14.70	-30.8	-34.3	12.2	2.18e-04	0	43	0	200278016	22	5362
2026-01-30 08:30:26.82	90.07	14.77	-30.8	-34.3	12.2	2.35e-04	0	43	0	202375168	22	5343
2026-01-30 08:30:27.83	89.92	14.84	-30.8	-34.2	12.2	1.94e-04	0	43	0	204472320	22	5332
2026-01-30 08:30:28.83	89.77	14.92	-30.9	-34.5	12.0	3.19e-04	0	43	0	206569472	22	5430
2026-01-30 08:30:29.83	89.61	14.99	-30.9	-34.3	12.1	2.97e-04	0	43	0	208666624	22	5368
2026-01-30 08:30:30.82	89.46	15.06	-30.8	-34.2	12.2	2.33e-04	0	43	0	209715200	22	5327
2026-01-30 08:30:31.83	89.30	15.14	-30.9	-34.3	12.2	2.18e-04	0	43	0	211812352	22	5349
2026-01-30 08:30:32.83	89.15	15.21	-31.0	-34.7	11.9	3.31e-04	0	43	0	213909504	22	5508
2026-01-30 08:30:33.83	88.99	15.29	-31.0	-34.6	12.0	3.49e-04	0	43	0	216006656	22	5455
2026-01-30 08:30:34.83	88.84	15.36	-30.9	-34.4	12.1	2.85e-04	0	43	0	217055232	22	5390
2026-01-30 08:30:35.84	88.68	15.44	-31.0	-34.7	11.9	2.94e-04	0	43	0	219152384	22	5513
2026-01-30 08:30:36.84	88.52	15.51	-31.0	-34.8	11.9	4.20e-04	0	43	0	221249536	22	5555
2026-01-30 08:30:37.85	88.36	15.58	-31.1	-34.9	11.8	4.29e-04	0	43	0	223346688	22	5619
2026-01-30 08:30:38.85	88.20	15.66	-31.1	-34.9	11.8	4.96e-04	0	43	0	225443840	22	5603
2026-01-30 08:30:39.86	88.03	15.73	-31.0	-34.7	12.0	3.94e-04	0	43	0	226492416	22	5515
2026-01-30 08:30:40.85	87.87	15.81	-30.9	-34.5	12.1	3.36e-04	0	43	0	228589568	22	5445
2026-01-30 08:30:41.86	87.71	15.88	-31.0	-34.6	12.0	3.23e-04	0	43	0	230686720	22	5463
2026-01-30 08:30:42.86	87.55	15.95	-31.0	-34.7	12.0	3.46e-04	0	43	0	232783872	22	5519
2026-01-30 08:30:43.87	87.38	16.03	-30.9	-34.4	12.2	3.11e-04	0	43	0	234881024	22	5398
2026-01-30 08:30:44.87	87.21	16.10	-31.0	-34.6	12.0	2.69e-04	0	43	0	235929600	22	5478
2026-01-30 08:30:45.88	87.05	16.18	-31.0	-34.6	12.0	3.17e-04	0	43	0	238026752	22	5480
2026-01-30 08:30:46.88	86.88	16.25	-31.1	-34.8	11.9	3.34e-04	0	43	0	240123904	22	5555
2026-01-30 08:30:47.88	86.71	16.32	-31.0	-34.7	12.0	3.50e-04	0	43	0	242221056	22	5507
2026-01-30 08:30:48.89	86.54	16.40	-31.0	-34.7	12.0	2.96e-04	0	43	0	244318208	22	5510
2026-01-30 08:30:49.89	86.37	16.47	-31.1	-35.1	11.7	4.26e-04	0	43	0	245366784	22	5662
2026-01-30 08:30:50.89	86.20	16.55	-31.1	-35.0	11.7	5.16e-04	0	43	0	247463936	22	5661
2026-01-30 08:30:51.90	86.03	16.62	-31.2	-35.3	11.6	6.79e-04	0	43	0	249561088	22	5757
2026-01-30 08:30:52.90	85.86	16.69	-31.3	-35.7	11.3	1.06e-03	0	43	0	251658240	22	5972
2026-01-30 08:30:53.91	85.68	16.77	-31.3	-35.5	11.4	1.17e-03	0	43	0	253755392	22	5855
2026-01-30 08:30:54.91	85.51	16.84	-31.3	-35.5	11.5	8.78e-04	0	43	0	254803968	22	5854
2026-01-30 08:30:55.92	85.33	16.92	-31.3	-35.5	11.5	8.19e-04	0	43	0	256901120	22	5838
2026-01-30 08:30:56.91	85.16	16.99	-31.4	-35.8	11.3	9.64e-04	0	43	0	258998272	22	5992
2026-01-30 08:30:57.92	84.98	17.06	-31.3	-35.5	11.5	1.03e-03	0	43	0	261095424	22	5860
2026-01-30 08:30:58.93	84.80	17.14	-31.3	-35.6	11.4	1.06e-03	0	43	0	263192576	22	5878
2026-01-30 08:30:59.94	84.62	17.21	-31.5	-35.8	10.9	1.70e-03	0	43	0	264241152	23	5892
2026-01-30 08:31:00.94	84.44	17.28	-31.4	-35.3	11.3	1.89e-03	0	43	0	266338304	23	5654
2026-01-30 08:31:01.95	84.26	17.36	-31.2	-34.9	11.5	7.90e-04	0	43	0	268435456	23	5484
2026-01-30 08:31:02.95	84.08	17.43	-31.1	-34.5	11.8	5.68e-04	0	43	0	270532608	23	5323
2026-01-30 08:31:03.96	83.90	17.50	-31.1	-34.3	11.9	3.92e-04	0	43	0	272629760	23	5250
2026-01-30 08:31:04.97	83.72	17.58	-31.1	-34.5	11.9	3.46e-04	0	43	0	273678336	23	5309
2026-01-30 08:31:05.97	83.53	17.65	-31.0	-34.1	12.1	3.18e-04	0	43	0	275775488	23	5168
2026-01-30 08:31:06.97	83.35	17.72	-30.9	-33.9	12.3	2.39e-04	0	43	0	277872640	23	5080
2026-01-30 08:31:07.98	83.16	17.80	-31.0	-34.0	12.2	2.11e-04	0	43	0	279969792	23	5107
2026-01-30 08:31:08.98	82.98	17.87	-30.9	-33.9	12.3	2.03e-04	0	43	0	282066944	23	5074
2026-01-30 08:31:09.98	82.79	17.94	-30.9	-33.9	12.3	1.88e-04	0	43	0	283115520	23	5077
2026-01-30 08:31:10.98	82.60	18.01	-31.0	-34.1	12.2	1.92e-04	0	43	0	285212672	23	5131
2026-01-30 08:31:11.99	82.41	18.08	-30.9	-33.7	12.4	1.91e-04	0	43	0	287309824	23	4984
2026-01-30 08:31:12.99	82.22	18.16	-30.8	-34.0	12.6	9.61e-05	0	43	0	289406976	22	5189
2026-01-30 08:31:13.99	82.03	18.23	-30.8	-34.1	12.5	9.76e-05	0	43	0	290455552	22	5246
2026-01-30 08:31:15.00	81.84	18.30	-30.8	-34.1	12.5	1.09e-04	0	43	0	292552704	22	5257
2026-01-30 08:31:16.01	81.64	18.37	-30.7	-33.8	12.7	9.91e-05	0	43	0	294649856	22	5128
2026-01-30 08:31:17.01	81.45	18.45	-30.8	-34.0	12.6	9.61e-05	0	43	0	296747008	22	5230
2026-01-30 08:31:18.01	81.26	18.52	-30.6	-33.4	12.9	8.69e-05	0	43	0	298844160	22	4996
2026-01-30 08:31:19.02	81.06	18.59	-30.6	-33.3	13.1	3.89e-05	0	43	0	300941312	22	4938
2026-01-30 08:31:20.03	80.86	18.66	-30.5	-33.1	13.2	2.44e-05	0	43	0	301989888	22	4864
2026-01-30 08:31:21.03	80.66	18.73	-30.5	-33.0	13.3	1.75e-05	0	43	0	304087040	22	4839
2026-01-30 08:31:22.03	80.47	18.80	-30.3	-32.5	13.6	2.05e-05	0	43	0	306184192	22	4661
2026-01-30 08:31:23.04	80.26	18.87	-30.1	-32.6	13.9	1.14e-05	0	43	0	308281344	21	4783
2026-01-30 08:31:24.04	80.07	18.94	-30.2	-32.7	13.8	3.80e-06	0	43	0	309329920	21	4828
2026-01-30 08:31:25.04	79.86	19.01	-30.3	-33.1	13.6	3.80e-06	0	43	0	311427072	21	4952
2026-01-30 08:31:26.04	79.66	19.08	-30.0	-32.4	14.0	1.50e-06	0	43	0	313524224	21	4722
2026-01-30 08:31:27.05	79.46	19.15	-29.9	-32.0	14.3	1.50e-06	0	43	0	315621376	21	4582
2026-01-30 08:31:28.05	79.25	19.22	-29.9	-31.9	14.3	1.50e-06	0	43	0	317718528	21	4552
2026-01-30 08:31:29.04	79.05	19.29	-30.0	-32.2	14.1	7.00e-07	0	43	0	318767104	21	4639
2026-01-30 08:31:30.04	78.85	19.36	-29.9	-32.1	14.2	1.50e-06	0	43	0	320864256	21	4614
2026-01-30 08:31:31.04	78.64	19.43	-29.9	-32.0	14.3	2.20e-06	0	43	0	322961408	21	4585
2026-01-30 08:31:32.05	78.43	19.50	-29.9	-31.9	14.3	2.20e-06	0	43	0	325058560	21	4551
2026-01-30 08:31:33.05	78.22	19.57	-29.8	-32.1	14.5	0.00e+00	0	43	0	327155712	20	4727
2026-01-30 08:31:34.06	78.01	19.64	-30.0	-32.6	14.2	0.00e+00	0	43	0	328204288	20	4896
2026-01-30 08:31:35.06	77.80	19.71	-29.8	-32.2	14.4	2.20e-06	0	43	0	330301440	20	4762
2026-01-30 08:31:36.06	77.59	19.78	-29.6	-31.8	14.7	7.00e-07	0	43	0	332398592	20	4613
2026-01-30 08:31:37.06	77.38	19.84	-29.6	-31.6	14.8	0.00e+00	0	43	0	334495744	20	4565
2026-01-30 08:31:38.06	77.17	19.91	-29.5	-31.5	14.9	0.00e+00	0	43	0	336592896	20	4529
2026-01-30 08:31:39.06	76.95	19.98	-29.6	-31.7	14.8	0.00e+00	0	43	0	337641472	20	4571
2026-01-30 08:31:40.06	76.74	20.05	-29.6	-31.7	14.8	0.00e+00	0	43	0	339738624	20	4580
2026-01-30 08:31:41.07	76.52	20.11	-29.7	-32.0	14.6	0.00e+00	0	43	0	341835776	20	4680
2026-01-30 08:31:42.06	76.31	20.18	-29.4	-31.3	15.0	0.00e+00	0	43	0	343932928	20	4461
2026-01-30 08:31:43.07	76.09	20.25	-29.4	-31.2	15.1	0.00e+00	0	43	0	346030080	20	4420
2026-01-30 08:31:44.07	75.87	20.31	-29.5	-31.4	15.0	0.00e+00	0	43	0	347078656	20	4496
2026-01-30 08:31:45.07	75.65	20.38	-29.4	-31.2	15.1	0.00e+00	0	43	0	349175808	20	4428
2026-01-30 08:31:46.07	75.43	20.45	-29.4	-31.3	15.1	0.00e+00	0	43	0	351272960	20	4441
2026-01-30 08:31:47.07	75.21	20.51	-29.4	-31.1	15.2	0.00e+00	0	43	0	353370112	20	4382
2026-01-30 08:31:48.07	74.98	20.58	-29.4	-31.3	15.1	0.00e+00	0	43	0	354418688	20	4447
2026-01-30 08:31:49.08	74.76	20.64	-29.5	-31.5	14.9	0.00e+00	0	43	0	356515840	20	4526
2026-01-30 08:31:50.09	74.53	20.71	-29.5	-31.4	15.0	1.50e-06	0	43	0	358612992	20	4468
2026-01-30 08:31:51.09	74.31	20.77	-29.4	-31.2	15.1	0.00e+00	0	43	0	360710144	20	4412
2026-01-30 08:31:52.10	74.08	20.84	-29.4	-31.2	15.1	0.00e+00	0	43	0	362807296	20	4431
2026-01-30 08:31:53.10	73.85	20.90	-29.5	-31.4	15.0	1.50e-06	0	43	0	363855872	20	4470
2026-01-30 08:31:54.11	73.62	20.96	-29.5	-31.4	15.0	0.00e+00	0	43	0	365953024	20	4490
2026-01-30 08:31:55.11	73.39	21.03	-29.5	-31.4	15.1	0.00e+00	0	43	0	368050176	20	4474
2026-01-30 08:31:56.11	73.16	21.09	-29.7	-31.9	14.7	0.00e+00	0	43	0	370147328	20	4637
2026-01-30 08:31:57.12	72.93	21.15	-29.7	-31.9	14.8	7.00e-07	0	43	0	372244480	20	4640
2026-01-30 08:31:58.11	72.70	21.21	-29.7	-32.0	14.7	0.00e+00	0	43	0	373293056	20	4673
2026-01-30 08:31:59.12	72.46	21.27	-29.7	-31.8	14.8	0.00e+00	0	43	0	375390208	20	4617
2026-01-30 08:32:00.13	72.23	21.34	-29.6	-31.7	14.9	0.00e+00	0	43	0	377487360	20	4562
2026-01-30 08:32:01.13	71.99	21.40	-29.6	-31.6	14.9	0.00e+00	0	43	0	379584512	20	4559
2026-01-30 08:32:02.14	71.76	21.46	-29.8	-32.1	14.6	7.00e-07	0	43	0	381681664	20	4694
2026-01-30 08:32:03.14	71.52	21.52	-29.7	-31.8	14.7	7.00e-07	0	43	0	382730240	20	4625
2026-01-30 08:32:04.15	71.28	21.58	-29.6	-31.7	14.9	0.00e+00	0	43	0	384827392	20	4579
2026-01-30 08:32:05.14	71.04	21.64	-29.6	-31.7	14.8	7.00e-07	0	43	0	386924544	20	4577
2026-01-30 08:32:06.15	70.80	21.70	-29.7	-31.8	14.8	0.00e+00	0	43	0	389021696	20	4612
2026-01-30 08:32:07.16	70.56	21.76	-29.6	-31.6	14.9	0.00e+00	0	43	0	391118848	20	4539
2026-01-30 08:32:08.16	70.32	21.81	-29.6	-31.8	14.8	7.00e-07	0	43	0	392167424	20	4592
2026-01-30 08:32:09.16	70.08	21.87	-29.5	-31.4	15.1	0.00e+00	0	43	0	394264576	20	4466
2026-01-30 08:32:10.17	69.83	21.93	-29.3	-31.0	15.3	0.00e+00	0	43	0	396361728	20	4356
2026-01-30 08:32:11.18	69.58	21.99	-29.4	-31.7	15.3	0.00e+00	0	43	0	398458880	19	4660
2026-01-30 08:32:12.18	69.34	22.04	-29.5	-31.9	15.1	0.00e+00	0	43	0	400556032	19	4746
2026-01-30 08:32:13.18	69.09	22.10	-29.4	-31.5	15.3	0.00e+00	0	43	0	401604608	19	4608
2026-01-30 08:32:14.19	68.85	22.16	-29.3	-31.5	15.4	0.00e+00	0	43	0	403701760	19	4598
2026-01-30 08:32:15.19	68.60	22.21	-29.5	-31.8	15.2	0.00e+00	0	43	0	405798912	19	4696
2026-01-30 08:32:16.20	68.35	22.27	-29.3	-31.5	15.4	7.00e-07	0	43	0	407896064	19	4603
2026-01-30 08:32:17.20	68.10	22.32	-29.3	-31.4	15.5	0.00e+00	0	43	0	409993216	19	4574
2026-01-30 08:32:18.20	67.85	22.37	-29.4	-31.6	15.4	0.00e+00	0	43	0	411041792	19	4628
2026-01-30 08:32:19.21	67.59	22.43	-29.5	-31.8	15.2	0.00e+00	0	43	0	413138944	19	4693
2026-01-30 08:32:20.21	67.34	22.48	-29.5	-32.0	15.1	0.00e+00	0	43	0	415236096	19	4751
2026-01-30 08:32:21.21	67.09	22.53	-29.3	-31.4	15.5	0.00e+00	0	43	0	417333248	19	4571
2026-01-30 08:32:22.21	66.84	22.58	-29.2	-31.0	15.7	0.00e+00	0	43	0	419430400	19	4466
2026-01-30 08:32:23.21	66.58	22.64	-29.1	-30.9	15.7	0.00e+00	0	43	0	420478976	19	4424
2026-01-30 08:32:24.22	66.32	22.69	-29.2	-31.0	15.7	0.00e+00	0	43	0	422576128	19	4451
2026-01-30 08:32:25.22	66.07	22.74	-29.3	-31.4	15.5	0.00e+00	0	43	0	424673280	19	4564
2026-01-30 08:32:26.23	65.81	22.79	-29.2	-31.1	15.6	0.00e+00	0	43	0	426770432	19	4481
2026-01-30 08:32:27.23	65.55	22.84	-29.3	-31.4	15.5	0.00e+00	0	43	0	427819008	19	4561
2026-01-30 08:32:28.23	65.29	22.89	-29.2	-31.0	15.7	0.00e+00	0	43	0	429916160	19	4452
2026-01-30 08:32:29.23	65.03	22.93	-29.1	-30.8	15.8	0.00e+00	0	43	0	432013312	19	4397
2026-01-30 08:32:30.24	64.77	22.98	-29.1	-30.8	15.8	0.00e+00	0	43	0	434110464	19	4398
2026-01-30 08:32:31.24	64.51	23.03	-29.2	-31.0	15.7	0.00e+00	0	43	0	436207616	19	4460
2026-01-30 08:32:32.25	64.25	23.08	-29.3	-31.3	15.5	0.00e+00	0	43	0	437256192	19	4531
2026-01-30 08:32:33.25	63.98	23.12	-29.5	-31.8	15.2	7.00e-07	0	43	0	439353344	19	4717
2026-01-30 08:32:34.26	63.72	23.17	-29.4	-31.5	15.4	0.00e+00	0	43	0	441450496	19	4603
2026-01-30 08:32:35.26	63.45	23.21	-29.3	-31.5	15.4	0.00e+00	0	43	0	443547648	19	4597
2026-01-30 08:32:36.27	63.19	23.26	-29.3	-31.3	15.6	0.00e+00	0	43	0	445644800	19	4532
2026-01-30 08:32:37.27	62.92	23.30	-29.2	-31.2	15.6	0.00e+00	0	43	0	446693376	19	4500
2026-01-30 08:32:38.27	62.66	23.34	-29.3	-31.3	15.5	0.00e+00	0	43	0	448790528	19	4549
2026-01-30 08:32:39.27	62.39	23.39	-29.2	-31.1	15.6	0.00e+00	0	43	0	450887680	19	4487
2026-01-30 08:32:40.28	62.12	23.43	-29.3	-31.4	15.5	0.00e+00	0	43	0	452984832	19	4556
2026-01-30 08:32:41.29	61.85	23.47	-29.4	-31.5	15.4	0.00e+00	0	43	0	455081984	19	4606
2026-01-30 08:32:42.29	61.58	23.51	-29.5	-31.8	15.3	0.00e+00	0	43	0	456130560	19	4694
2026-01-30 08:32:43.30	61.31	23.55	-29.6	-32.1	15.1	0.00e+00	0	43	0	458227712	19	4783
2026-01-30 08:32:44.30	61.04	23.59	-29.7	-32.3	14.9	0.00e+00	0	43	0	460324864	19	4871
2026-01-30 08:32:45.31	60.76	23.63	-29.9	-32.8	14.7	0.00e+00	0	43	0	462422016	19	5018
2026-01-30 08:32:46.31	60.49	23.67	-30.0	-32.7	14.4	0.00e+00	0	43	0	464519168	20	4891
2026-01-30 08:32:47.31	60.22	23.70	-30.2	-33.0	14.1	7.00e-07	0	43	0	465567744	20	5016
2026-01-30 08:32:48.31	59.95	23.74	-30.2	-33.1	14.1	7.00e-07	0	43	0	467664896	20	5028
2026-01-30 08:32:49.32	59.67	23.78	-30.3	-33.4	13.8	3.00e-06	0	43	0	469762048	20	5160
2026-01-30 08:32:50.32	59.39	23.81	-30.3	-33.4	13.9	1.50e-06	0	43	0	471859200	20	5138
2026-01-30 08:32:51.32	59.12	23.85	-30.2	-33.3	14.0	6.80e-06	0	43	0	473956352	20	5098
2026-01-30 08:32:52.33	58.84	23.88	-30.2	-33.0	14.1	0.00e+00	0	43	0	475004928	20	5013
2026-01-30 08:32:53.33	58.57	23.92	-30.3	-33.3	13.9	7.00e-07	0	43	0	477102080	20	5113
2026-01-30 08:32:54.34	58.29	23.95	-30.4	-33.7	13.7	3.80e-06	0	43	0	479199232	20	5248
2026-01-30 08:32:55.34	58.01	23.98	-30.5	-33.9	13.6	7.60e-06	0	43	0	481296384	20	5327
2026-01-30 08:32:56.35	57.73	24.01	-30.6	-33.8	13.3	1.06e-05	0	43	0	483393536	21	5202
2026-01-30 08:32:57.35	57.45	24.04	-30.6	-33.7	13.4	2.51e-05	0	43	0	484442112	21	5157
2026-01-30 08:32:58.35	57.17	24.07	-30.5	-33.4	13.6	8.30e-06	0	43	0	486539264	21	5040
2026-01-30 08:32:59.34	56.89	24.10	-30.4	-33.3	13.7	3.00e-06	0	43	0	488636416	21	4994
2026-01-30 08:33:00.34	56.61	24.13	-30.5	-33.5	13.5	1.22e-05	0	43	0	490733568	21	5078
2026-01-30 08:33:01.35	56.33	24.16	-30.6	-33.7	13.4	1.52e-05	0	43	0	492830720	21	5144
2026-01-30 08:33:02.35	56.05	24.19	-30.6	-33.7	13.4	1.98e-05	0	43	0	493879296	21	5149
2026-01-30 08:33:03.36	55.77	24.21	-30.6	-33.8	13.3	1.90e-05	0	43	0	495976448	21	5189
2026-01-30 08:33:04.36	55.48	24.24	-30.8	-34.3	13.0	3.43e-05	0	43	0	498073600	21	5380
2026-01-30 08:33:05.36	55.20	24.26	-30.9	-34.2	12.8	6.40e-05	0	43	0	500170752	22	5235
2026-01-30 08:33:06.36	54.92	24.29	-30.8	-33.7	13.1	4.65e-05	0	43	0	501219328	22	5052
2026-01-30 08:33:07.37	54.63	24.31	-30.7	-33.5	13.2	1.98e-05	0	43	0	503316480	22	4980
2026-01-30 08:33:08.37	54.35	24.33	-30.8	-33.6	13.1	2.51e-05	0	43	0	505413632	22	5020
2026-01-30 08:33:09.37	54.07	24.35	-30.9	-33.9	13.0	3.20e-05	0	43	0	507510784	22	5120
2026-01-30 08:33:10.38	53.78	24.38	-30.9	-33.9	13.0	4.42e-05	0	43	0	509607936	22	5114
2026-01-30 08:33:11.38	53.49	24.40	-30.9	-34.2	12.8	5.41e-05	0	43	0	510656512	22	5212
2026-01-30 08:33:12.38	53.21	24.42	-31.0	-34.2	12.8	8.77e-05	0	43	0	512753664	22	5235
2026-01-30 08:33:13.39	52.92	24.44	-30.7	-33.6	13.2	4.27e-05	0	43	0	514850816	22	5001
2026-01-30 08:33:14.39	52.63	24.45	-30.6	-33.3	13.4	1.06e-05	0	43	0	516947968	22	4877
2026-01-30 08:33:15.40	52.34	24.47	-30.6	-33.3	13.4	1.14e-05	0	43	0	519045120	22	4884
2026-01-30 08:33:16.40	52.06	24.49	-30.6	-33.2	13.5	1.14e-05	0	43	0	520093696	22	4859
2026-01-30 08:33:17.40	51.77	24.50	-30.6	-33.1	13.5	9.90e-06	0	43	0	522190848	22	4829
2026-01-30 08:33:18.41	51.48	24.52	-30.6	-33.3	13.4	1.14e-05	0	43	0	524288000	22	4878
2026-01-30 08:33:19.41	51.19	24.53	-30.7	-33.4	13.3	1.29e-05	0	43	0	526385152	22	4930
2026-01-30 08:33:20.42	50.90	24.55	-30.7	-33.5	13.3	2.05e-05	0	43	0	528482304	22	4958
2026-01-30 08:33:21.43	50.61	24.56	-30.8	-33.6	13.2	1.67e-05	0	43	0	529530880	22	5001
2026-01-30 08:33:22.42	50.33	24.57	-30.8	-33.6	13.2	1.83e-05	0	43	0	531628032	22	4994
2026-01-30 08:33:23.43	50.04	24.58	-30.8	-33.8	13.1	2.59e-05	0	43	0	533725184	22	5078
2026-01-30 08:33:24.43	49.75	24.59	-30.9	-33.9	13.0	2.97e-05	0	43	0	535822336	22	5115
2026-01-30 08:33:25.44	49.46	24.60	-30.9	-33.9	13.0	3.73e-05	0	43	0	537919488	22	5107
2026-01-30 08:33:26.44	49.17	24.61	-30.8	-33.8	13.1	2.82e-05	0	43	0	538968064	22	5057
2026-01-30 08:33:27.44	48.88	24.62	-30.7	-33.4	13.3	1.90e-05	0	43	0	541065216	22	4912
2026-01-30 08:33:28.45	48.59	24.63	-30.6	-33.2	13.5	1.29e-05	0	43	0	543162368	22	4860
2026-01-30 08:33:29.45	48.30	24.63	-30.7	-33.3	13.4	9.90e-06	0	43	0	545259520	22	4904
2026-01-30 08:33:30.45	48.01	24.64	-30.8	-33.7	13.1	1.83e-05	0	43	0	547356672	22	5036
2026-01-30 08:33:31.46	47.72	24.64	-30.9	-33.9	13.0	5.11e-05	0	43	0	548405248	22	5115
2026-01-30 08:33:32.46	47.43	24.65	-30.6	-33.1	13.6	1.67e-05	0	43	0	550502400	22	4824
2026-01-30 08:33:33.46	47.14	24.65	-30.3	-32.4	14.0	5.30e-06	0	43	0	552599552	22	4570
2026-01-30 08:33:34.46	46.85	24.65	-30.1	-32.4	14.3	1.50e-06	0	43	0	554696704	21	4671
2026-01-30 08:33:35.46	46.56	24.66	-30.2	-32.7	14.1	3.00e-06	0	43	0	555745280	21	4788
2026-01-30 08:33:36.46	46.27	24.66	-30.3	-32.8	14.0	2.20e-06	0	43	0	557842432	21	4828
2026-01-30 08:33:37.46	45.98	24.66	-30.2	-32.5	14.2	3.80e-06	0	43	0	559939584	21	4726
2026-01-30 08:33:38.45	45.69	24.66	-30.1	-32.4	14.2	0.00e+00	0	43	0	562036736	21	4692
2026-01-30 08:33:39.45	45.40	24.65	-30.1	-32.4	14.2	0.00e+00	0	43	0	564133888	21	4691
2026-01-30 08:33:40.45	45.11	24.65	-30.2	-32.7	14.1	2.20e-06	0	43	0	565182464	21	4780
2026-01-30 08:33:41.45	44.82	24.65	-30.3	-32.8	14.0	3.00e-06	0	43	0	567279616	21	4811
2026-01-30 08:33:42.46	44.53	24.64	-30.0	-32.2	14.3	1.50e-06	0	43	0	569376768	21	4617
2026-01-30 08:33:43.47	44.24	24.64	-29.9	-31.8	14.6	0.00e+00	0	43	0	571473920	21	4502
2026-01-30 08:33:44.47	43.95	24.63	-29.8	-32.0	14.8	0.00e+00	0	43	0	573571072	20	4652
2026-01-30 08:33:45.47	43.66	24.63	-29.6	-31.6	15.1	0.00e+00	0	43	0	574619648	20	4516
2026-01-30 08:33:46.47	43.37	24.62	-29.4	-31.2	15.3	0.00e+00	0	43	0	576716800	20	4408
2026-01-30 08:33:47.48	43.08	24.61	-29.4	-31.0	15.4	0.00e+00	0	44	0	578813952	20	4351
2026-01-30 08:33:48.48	42.79	24.60	-29.4	-31.0	15.4	0.00e+00	0	43	0	580911104	20	4346
2026-01-30 08:33:49.48	42.50	24.59	-29.3	-30.9	15.5	0.00e+00	0	43	0	583008256	20	4312
2026-01-30 08:33:50.49	42.21	24.58	-29.2	-31.0	15.8	0.00e+00	0	43	0	584056832	19	4453
2026-01-30 08:33:51.48	41.93	24.57	-29.1	-30.9	15.9	0.00e+00	0	43	0	586153984	19	4401
2026-01-30 08:33:52.49	41.64	24.56	-29.2	-31.1	15.8	0.00e+00	0	43	0	588251136	19	4460
2026-01-30 08:33:53.49	41.35	24.55	-29.2	-31.1	15.7	0.00e+00	0	43	0	590348288	19	4479
2026-01-30 08:33:54.49	41.06	24.54	-29.2	-31.1	15.7	0.00e+00	0	43	0	591396864	19	4460
2026-01-30 08:33:55.49	40.78	24.52	-29.2	-31.2	15.7	0.00e+00	0	43	0	593494016	19	4495
2026-01-30 08:33:56.49	40.49	24.51	-29.2	-31.0	15.8	0.00e+00	0	43	0	595591168	19	4457
2026-01-30 08:33:57.50	40.20	24.49	-29.2	-31.1	15.7	0.00e+00	0	43	0	597688320	19	4475
2026-01-30 08:33:58.50	39.91	24.47	-29.4	-31.5	15.5	0.00e+00	0	43	0	599785472	19	4594
2026-01-30 08:33:59.50	39.63	24.46	-29.4	-31.6	15.4	0.00e+00	0	43	0	601882624	19	4617
2026-01-30 08:34:00.50	39.34	24.44	-29.2	-31.1	15.7	0.00e+00	0	43	0	602931200	19	4480
2026-01-30 08:34:01.50	39.06	24.42	-29.2	-31.2	15.7	0.00e+00	0	43	0	605028352	19	4502
2026-01-30 08:34:02.51	38.77	24.40	-29.2	-31.1	15.7	0.00e+00	0	43	0	607125504	19	4487
2026-01-30 08:34:03.51	38.48	24.38	-29.4	-31.5	15.6	0.00e+00	0	43	0	609222656	19	4578
2026-01-30 08:34:04.51	38.20	24.36	-29.3	-31.3	15.6	7.00e-07	0	43	0	610271232	19	4525
2026-01-30 08:34:05.51	37.92	24.34	-29.2	-31.1	15.7	0.00e+00	0	43	0	612368384	19	4476
2026-01-30 08:34:06.52	37.63	24.31	-29.2	-31.2	15.7	0.00e+00	0	43	0	614465536	19	4499
2026-01-30 08:34:07.51	37.35	24.29	-29.3	-31.2	15.6	0.00e+00	0	43	0	616562688	19	4514
2026-01-30 08:34:08.51	37.07	24.27	-29.5	-31.7	15.4	0.00e+00	0	43	0	618659840	19	4679
2026-01-30 08:34:09.52	36.78	24.24	-29.5	-31.9	15.2	0.00e+00	0	43	0	619708416	19	4726
2026-01-30 08:34:10.53	36.50	24.22	-29.3	-31.4	15.5	0.00e+00	0	43	0	621805568	19	4573
2026-01-30 08:34:11.53	36.22	24.19	-29.1	-30.9	15.9	0.00e+00	0	43	0	623902720	19	4419
2026-01-30 08:34:12.53	35.94	24.16	-29.1	-30.7	15.9	0.00e+00	0	43	0	625999872	19	4366
2026-01-30 08:34:13.53	35.66	24.14	-29.1	-30.7	15.9	0.00e+00	0	43	0	628097024	19	4364
2026-01-30 08:34:14.53	35.38	24.11	-29.1	-30.9	15.8	0.00e+00	0	43	0	629145600	19	4412
2026-01-30 08:34:15.54	35.09	24.08	-29.2	-31.1	15.7	0.00e+00	0	43	0	631242752	19	4480
2026-01-30 08:34:16.54	34.82	24.05	-29.3	-31.3	15.6	0.00e+00	0	43	0	633339904	19	4539
2026-01-30 08:34:17.55	34.53	24.02	-29.4	-31.7	15.4	0.00e+00	0	43	0	635437056	19	4658
2026-01-30 08:34:18.55	34.26	23.99	-29.5	-31.8	15.3	7.00e-07	0	43	0	637534208	19	4687
2026-01-30 08:34:19.56	33.98	23.95	-29.4	-31.7	15.4	0.00e+00	0	43	0	638582784	19	4649
2026-01-30 08:34:20.56	33.70	23.92	-29.5	-31.9	15.2	0.00e+00	0	43	0	640679936	19	4721
2026-01-30 08:34:21.56	33.43	23.89	-29.6	-32.0	15.2	0.00e+00	0	43	0	642777088	19	4752
2026-01-30 08:34:22.56	33.15	23.85	-29.6	-32.1	15.1	0.00e+00	0	43	0	644874240	19	4806
2026-01-30 08:34:23.56	32.88	23.82	-29.7	-32.3	15.0	0.00e+00	0	43	0	646971392	19	4844
2026-01-30 08:34:24.57	32.60	23.78	-29.7	-32.4	14.9	0.00e+00	0	43	0	648019968	19	4902
2026-01-30 08:34:25.57	32.33	23.75	-29.8	-32.6	14.8	0.00e+00	0	43	0	650117120	19	4953
2026-01-30 08:34:26.58	32.05	23.71	-29.8	-32.5	14.8	0.00e+00	0	43	0	652214272	19	4918
2026-01-30 08:34:27.58	31.78	23.67	-29.9	-32.7	14.7	0.00e+00	0	43	0	654311424	19	4999
2026-01-30 08:34:28.58	31.51	23.64	-30.0	-33.0	14.6	0.00e+00	0	43	0	655360000	19	5085
2026-01-30 08:34:29.59	31.23	23.60	-30.1	-32.8	14.2	7.00e-07	0	43	0	657457152	20	4942
2026-01-30 08:34:30.59	30.96	23.56	-30.2	-33.0	14.1	7.00e-07	0	43	0	659554304	20	5014
2026-01-30 08:34:31.58	30.70	23.52	-30.2	-33.2	14.0	0.00e+00	0	43	0	661651456	20	5075
2026-01-30 08:34:32.59	30.43	23.48	-30.4	-33.5	13.8	7.60e-06	0	43	0	663748608	20	5196
2026-01-30 08:34:33.59	30.16	23.44	-30.4	-33.8	13.7	9.10e-06	0	43	0	664797184	20	5298
2026-01-30 08:34:34.60	29.89	23.39	-30.7	-34.1	13.2	1.22e-05	0	43	0	666894336	21	5290
2026-01-30 08:34:35.61	29.62	23.35	-30.7	-34.0	13.2	3.12e-05	0	43	0	668991488	21	5245
2026-01-30 08:34:36.62	29.35	23.31	-30.5	-33.6	13.5	1.29e-05	0	43	0	671088640	21	5109
2026-01-30 08:34:37.62	29.09	23.27	-30.4	-33.2	13.7	6.10e-06	0	43	0	673185792	21	4967
2026-01-30 08:34:38.62	28.82	23.22	-30.4	-33.2	13.7	6.10e-06	0	43	0	674234368	21	4976
2026-01-30 08:34:39.62	28.56	23.18	-30.4	-33.2	13.7	3.00e-06	0	43	0	676331520	21	4978
2026-01-30 08:34:40.62	28.30	23.13	-30.4	-33.2	13.7	6.80e-06	0	43	0	678428672	21	4967
2026-01-30 08:34:41.62	28.03	23.09	-30.4	-33.2	13.7	8.30e-06	0	43	0	680525824	21	4963
2026-01-30 08:34:42.62	27.77	23.04	-30.6	-33.8	13.3	1.29e-05	0	43	0	682622976	21	5192
2026-01-30 08:34:43.63	27.51	22.99	-30.7	-33.9	13.3	3.28e-05	0	43	0	683671552	21	5221
2026-01-30 08:34:44.63	27.25	22.94	-30.8	-34.3	12.9	1.90e-05	0	43	0	685768704	21	5395
2026-01-30 08:34:45.63	26.99	22.90	-30.8	-34.3	12.9	6.33e-05	0	43	0	687865856	21	5382
2026-01-30 08:34:46.63	26.74	22.85	-30.6	-33.7	13.4	2.28e-05	0	43	0	689963008	21	5136
2026-01-30 08:34:47.64	26.48	22.80	-30.3	-33.0	13.8	7.60e-06	0	43	0	692060160	21	4912
2026-01-30 08:34:48.64	26.22	22.75	-30.2	-32.7	14.0	4.50e-06	0	43	0	693108736	21	4787
2026-01-30 08:34:49.64	25.96	22.70	-30.2	-32.7	14.0	3.80e-06	0	43	0	695205888	21	4809
2026-01-30 08:34:50.64	25.71	22.65	-30.3	-32.8	13.9	3.00e-06	0	43	0	697303040	21	4844
2026-01-30 08:34:51.65	25.45	22.60	-30.3	-33.0	13.8	4.50e-06	0	43	0	699400192	21	4893
2026-01-30 08:34:52.65	25.20	22.55	-30.3	-33.0	13.8	5.30e-06	0	43	0	701497344	21	4906
2026-01-30 08:34:53.65	24.95	22.49	-30.4	-33.2	13.7	3.80e-06	0	43	0	702545920	21	4974
2026-01-30 08:34:54.65	24.70	22.44	-30.5	-33.5	13.5	6.10e-06	0	43	0	704643072	21	5064
2026-01-30 08:34:55.66	24.44	22.39	-30.6	-33.7	13.3	1.29e-05	0	43	0	706740224	21	5155
2026-01-30 08:34:56.66	24.19	22.33	-30.6	-33.9	13.2	1.98e-05	0	43	0	708837376	21	5247
2026-01-30 08:34:57.66	23.95	22.28	-30.7	-34.2	13.0	3.43e-05	0	43	0	709885952	21	5351
2026-01-30 08:34:58.66	23.70	22.23	-30.7	-33.9	13.2	3.35e-05	0	43	0	711983104	21	5242
2026-01-30 08:34:59.66	23.45	22.17	-30.6	-33.9	13.2	1.98e-05	0	43	0	714080256	21	5224
2026-01-30 08:35:00.67	23.20	22.12	-30.6	-33.8	13.3	1.83e-05	0	43	0	716177408	21	5195
2026-01-30 08:35:01.67	22.96	22.06	-30.8	-34.4	12.9	3.50e-05	0	43	0	718274560	21	5428
2026-01-30 08:35:02.67	22.71	22.00	-30.8	-34.3	12.9	5.95e-05	0	43	0	719323136	21	5376
2026-01-30 08:35:03.67	22.47	21.95	-30.8	-34.4	12.8	4.11e-05	0	43	0	721420288	21	5440
2026-01-30 08:35:04.68	22.23	21.89	-30.8	-34.3	12.9	6.02e-05	0	43	0	723517440	21	5392
2026-01-30 08:35:05.68	21.99	21.83	-30.7	-33.9	13.1	3.73e-05	0	43	0	725614592	21	5253
2026-01-30 08:35:06.69	21.74	21.77	-30.6	-33.7	13.3	1.44e-05	0	43	0	727711744	21	5168
2026-01-30 08:35:07.69	21.50	21.71	-30.6	-33.7	13.3	1.60e-05	0	43	0	728760320	21	5156
2026-01-30 08:35:08.70	21.26	21.66	-30.5	-33.6	13.4	1.14e-05	0	43	0	730857472	21	5122
2026-01-30 08:35:09.70	21.02	21.60	-30.5	-33.5	13.4	1.44e-05	0	43	0	732954624	21	5089
2026-01-30 08:35:10.71	20.79	21.54	-30.5	-33.5	13.4	1.14e-05	0	43	0	735051776	21	5083
2026-01-30 08:35:11.71	20.55	21.48	-30.6	-33.7	13.3	1.37e-05	0	43	0	737148928	21	5173
2026-01-30 08:35:12.72	20.31	21.42	-30.8	-34.2	13.0	2.36e-05	0	43	0	738197504	21	5374
2026-01-30 08:35:13.73	20.08	21.35	-30.6	-33.8	13.2	3.05e-05	0	43	0	740294656	21	5213
2026-01-30 08:35:14.73	19.84	21.29	-30.4	-33.3	13.6	1.06e-05	0	43	0	742391808	21	4997
2026-01-30 08:35:15.74	19.61	21.23	-30.3	-32.9	13.8	4.50e-06	0	43	0	744488960	21	4872
2026-01-30 08:35:16.74	19.38	21.17	-30.2	-32.8	13.8	4.50e-06	0	43	0	746586112	21	4840
2026-01-30 08:35:17.74	19.15	21.11	-30.2	-32.7	13.9	3.00e-06	0	43	0	747634688	21	4805
2026-01-30 08:35:18.75	18.92	21.04	-30.2	-32.8	13.9	3.80e-06	0	43	0	749731840	21	4821
2026-01-30 08:35:19.75	18.69	20.98	-30.4	-33.2	13.6	6.80e-06	0	43	0	751828992	21	4987
2026-01-30 08:35:20.74	18.46	20.92	-30.3	-33.1	13.7	8.30e-06	0	43	0	753926144	21	4929
2026-01-30 08:35:21.74	18.24	20.86	-30.1	-32.5	14.0	0.00e+00	0	43	0	754974720	21	4739
2026-01-30 08:35:22.74	18.01	20.79	-30.0	-32.1	14.3	1.50e-06	0	43	0	757071872	21	4604
2026-01-30 08:35:23.74	17.79	20.73	-29.9	-31.9	14.4	7.00e-07	0	43	0	759169024	21	4531
2026-01-30 08:35:24.75	17.56	20.66	-29.8	-31.7	14.5	7.00e-07	0	43	0	761266176	21	4481
2026-01-30 08:35:25.75	17.34	20.60	-29.8	-31.7	14.5	1.50e-06	0	43	0	763363328	21	4472
2026-01-30 08:35:26.76	17.11	20.53	-29.9	-32.0	14.3	7.00e-07	0	43	0	765460480	21	4560
2026-01-30 08:35:27.77	16.89	20.47	-29.9	-31.9	14.4	7.00e-07	0	43	0	766509056	21	4530
2026-01-30 08:35:28.78	16.67	20.40	-29.8	-31.8	14.5	7.00e-07	0	43	0	768606208	21	4489
2026-01-30 08:35:29.78	16.45	20.34	-29.9	-32.0	14.3	7.00e-07	0	43	0	770703360	21	4560
2026-01-30 08:35:30.79	16.23	20.27	-29.9	-32.0	14.3	1.50e-06	0	43	0	772800512	21	4568
2026-01-30 08:35:31.78	16.01	20.20	-30.0	-32.2	14.2	1.50e-06	0	43	0	773849088	21	4619
2026-01-30 08:35:32.79	15.80	20.14	-30.1	-32.5	14.0	2.20e-06	0	43	0	775946240	21	4747
2026-01-30 08:35:33.80	15.58	20.07	-30.1	-32.3	14.1	2.20e-06	0	43	0	778043392	21	4676
2026-01-30 08:35:34.79	15.37	20.00	-29.9	-32.0	14.3	0.00e+00	0	43	0	780140544	21	4568
2026-01-30 08:35:35.80	15.15	19.94	-29.9	-31.8	14.4	0.00e+00	0	43	0	782237696	21	4516
2026-01-30 08:35:36.80	14.94	19.87	-29.9	-32.0	14.3	1.50e-06	0	43	0	783286272	21	4574
2026-01-30 08:35:37.80	14.73	19.80	-29.9	-31.9	14.3	0.00e+00	0	43	0	785383424	21	4551
2026-01-30 08:35:38.81	14.52	19.73	-29.9	-32.1	14.3	7.00e-07	0	43	0	787480576	21	4588
2026-01-30 08:35:39.81	14.31	19.66	-29.9	-31.9	14.3	1.50e-06	0	43	0	789577728	21	4540
2026-01-30 08:35:40.81	14.10	19.60	-29.9	-32.0	14.3	1.50e-06	0	43	0	791674880	21	4560
2026-01-30 08:35:41.81	13.89	19.53	-29.9	-32.1	14.2	3.80e-06	0	43	0	792723456	21	4608
2026-01-30 08:35:42.82	13.68	19.46	-29.9	-31.9	14.3	1.50e-06	0	43	0	794820608	21	4537
2026-01-30 08:35:43.82	13.48	19.39	-29.9	-31.9	14.3	7.00e-07	0	43	0	796917760	21	4553
2026-01-30 08:35:44.83	13.27	19.32	-30.0	-32.2	14.2	7.00e-07	0	43	0	799014912	21	4625
2026-01-30 08:35:45.83	13.07	19.25	-30.0	-32.1	14.2	2.20e-06	0	43	0	801112064	21	4609
2026-01-30 08:35:46.83	12.86	19.18	-30.0	-32.3	14.1	0.00e+00	0	43	0	802160640	21	4666
2026-01-30 08:35:47.83	12.66	19.11	-29.9	-31.9	14.3	7.00e-07	0	43	0	804257792	21	4536
2026-01-30 08:35:48.84	12.46	19.04	-29.8	-31.7	14.4	0.00e+00	0	43	0	806354944	21	4477
2026-01-30 08:35:49.84	12.26	18.97	-29.9	-31.8	14.3	0.00e+00	0	43	0	808452096	21	4525
2026-01-30 08:35:50.84	12.06	18.90	-30.0	-32.1	14.2	7.00e-07	0	43	0	810549248	21	4607
2026-01-30 08:35:51.84	11.86	18.83	-29.8	-31.8	14.4	1.50e-06	0	43	0	811597824	21	4513
2026-01-30 08:35:52.84	11.67	18.76	-29.7	-31.9	14.6	0.00e+00	0	43	0	813694976	20	4645
2026-01-30 08:35:53.85	11.47	18.69	-29.7	-32.0	14.5	7.00e-07	0	43	0	815792128	20	4687
2026-01-30 08:35:54.85	11.27	18.62	-29.6	-31.7	14.7	0.00e+00	0	43	0	817889280	20	4573
2026-01-30 08:35:55.86	11.08	18.55	-29.5	-31.4	14.9	0.00e+00	0	43	0	819986432	20	4496
2026-01-30 08:35:56.86	10.88	18.47	-29.5	-31.4	14.9	0.00e+00	0	43	0	821035008	20	4499
2026-01-30 08:35:57.86	10.69	18.40	-29.4	-31.2	15.0	7.00e-07	0	43	0	823132160	20	4430
2026-01-30 08:35:58.86	10.50	18.33	-29.6	-31.6	14.7	0.00e+00	0	43	0	825229312	20	4558
2026-01-30 08:35:59.86	10.31	18.26	-29.4	-31.2	14.9	0.00e+00	0	43	0	827326464	20	4442
2026-01-30 08:36:00.87	10.12	18.19	-29.3	-31.4	15.3	0.00e+00	0	43	0	828375040	19	4580
2026-01-30 08:36:01.88	9.93	18.12	-29.3	-31.3	15.3	0.00e+00	0	43	0	830472192	19	4550
2026-01-30 08:36:02.87	9.74	18.05	-29.4	-31.7	15.1	0.00e+00	0	44	0	832569344	19	4678
2026-01-30 08:36:03.88	9.55	17.97	-29.2	-31.2	15.3	0.00e+00	0	43	0	834666496	19	4536
2026-01-30 08:36:04.88	9.36	17.90	-29.1	-30.9	15.5	0.00e+00	0	43	0	836763648	19	4439
2026-01-30 08:36:05.88	9.18	17.83	-29.2	-31.1	15.4	0.00e+00	0	43	0	837812224	19	4491
2026-01-30 08:36:06.89	8.99	17.76	-29.2	-31.2	15.4	0.00e+00	0	43	0	839909376	19	4516
2026-01-30 08:36:07.89	8.81	17.68	-29.3	-31.3	15.3	0.00e+00	0	43	0	842006528	19	4571
2026-01-30 08:36:08.89	8.63	17.61	-29.3	-31.4	15.3	7.00e-07	0	43	0	844103680	19	4578
2026-01-30 08:36:09.89	8.45	17.54	-29.3	-31.5	15.2	0.00e+00	0	43	0	846200832	19	4622
2026-01-30 08:36:10.90	8.26	17.47	-29.3	-31.4	15.2	0.00e+00	0	43	0	847249408	19	4606
2026-01-30 08:36:11.90	8.08	17.39	-29.3	-31.5	15.2	0.00e+00	0	43	0	849346560	19	4625
2026-01-30 08:36:12.90	7.90	17.32	-29.4	-31.8	15.0	0.00e+00	0	43	0	851443712	19	4709
2026-01-30 08:36:13.90	7.73	17.25	-29.4	-31.6	15.1	0.00e+00	0	43	0	853540864	19	4662
2026-01-30 08:36:14.91	7.55	17.17	-29.4	-31.6	15.1	0.00e+00	0	43	0	855638016	19	4637
2026-01-30 08:36:15.91	7.37	17.10	-29.4	-31.7	15.0	0.00e+00	0	43	0	856686592	19	4697
2026-01-30 08:36:16.91	7.20	17.03	-29.3	-31.5	15.1	0.00e+00	0	43	0	858783744	19	4618
2026-01-30 08:36:17.92	7.02	16.95	-29.3	-31.5	15.1	0.00e+00	0	43	0	860880896	19	4639
2026-01-30 08:36:18.92	6.85	16.88	-29.5	-31.9	14.9	0.00e+00	0	43	0	862978048	19	4760
2026-01-30 08:36:19.93	6.67	16.81	-29.5	-31.9	14.8	0.00e+00	0	43	0	865075200	19	4770
2026-01-30 08:36:20.93	6.50	16.73	-29.7	-32.6	14.5	0.00e+00	0	43	0	866123776	19	4987
2026-01-30 08:36:21.93	6.33	16.66	-29.6	-32.2	14.7	0.00e+00	0	43	0	868220928	19	4848
2026-01-30 08:36:22.93	6.16	16.59	-29.5	-32.0	14.8	0.00e+00	0	44	0	870318080	19	4777
2026-01-30 08:36:23.93	5.99	16.51	-29.4	-31.7	15.0	0.00e+00	0	43	0	872415232	19	4685
2026-01-30 08:36:24.94	5.82	16.44	-29.4	-31.6	15.1	0.00e+00	0	43	0	873463808	19	4661
2026-01-30 08:36:25.94	5.65	16.37	-29.4	-31.6	15.0	0.00e+00	0	43	0	875560960	19	4665
2026-01-30 08:36:26.94	5.48	16.29	-29.3	-31.6	15.1	0.00e+00	0	43	0	877658112	19	4647
2026-01-30 08:36:27.94	5.32	16.22	-29.3	-31.4	15.2	0.00e+00	0	43	0	879755264	19	4581
2026-01-30 08:36:28.95	5.15	16.15	-29.4	-31.7	15.0	0.00e+00	0	43	0	881852416	19	4685
2026-01-30 08:36:29.95	4.99	16.07	-29.3	-31.5	15.1	0.00e+00	0	43	0	883949568	19	4638
2026-01-30 08:36:30.95	4.82	16.00	-29.3	-31.5	15.0	0.00e+00	0	43	0	884998144	19	4639
2026-01-30 08:36:31.96	4.66	15.92	-29.3	-31.6	15.0	0.00e+00	0	43	0	887095296	19	4651
2026-01-30 08:36:32.96	4.50	15.85	-29.4	-31.7	15.0	3.80e-06	0	43	0	889192448	19	4683
2026-01-30 08:36:33.96	4.33	15.78	-29.4	-31.7	14.9	0.00e+00	0	43	0	891289600	19	4708
2026-01-30 08:36:34.97	4.17	15.70	-29.4	-31.8	14.8	7.00e-07	0	43	0	892338176	19	4750
2026-01-30 08:36:35.96	4.01	15.63	-29.4	-31.9	14.8	7.00e-07	0	43	0	894435328	19	4761
2026-01-30 08:36:36.97	3.85	15.56	-29.5	-32.1	14.7	0.00e+00	0	43	0	896532480	19	4833
2026-01-30 08:36:37.97	3.70	15.48	-29.6	-32.2	14.6	0.00e+00	0	43	0	898629632	19	4853
2026-01-30 08:36:38.97	3.54	15.41	-29.7	-32.5	14.5	7.00e-07	0	43	0	900726784	19	4949
2026-01-30 08:36:39.98	3.38	15.33	-29.7	-32.6	14.3	1.50e-06	0	43	0	901775360	19	5018
2026-01-30 08:36:40.98	3.23	15.26	-29.9	-33.0	14.2	0.00e+00	0	43	0	903872512	19	5141
2026-01-30 08:36:41.98	3.07	15.19	-29.9	-33.0	14.1	7.00e-07	0	43	0	905969664	19	5171
2026-01-30 08:36:42.98	2.92	15.11	-30.0	-32.8	13.8	3.00e-06	0	44	0	908066816	20	4981
2026-01-30 08:36:43.99	2.76	15.04	-30.1	-33.2	13.5	7.60e-06	0	43	0	910163968	20	5139
2026-01-30 08:36:44.99	2.61	14.97	-30.0	-33.0	13.7	4.50e-06	0	43	0	911212544	20	5055
2026-01-30 08:36:45.99	2.46	14.89	-30.0	-32.9	13.8	5.30e-06	0	43	0	913309696	20	4999
2026-01-30 08:36:46.99	2.31	14.82	-30.0	-32.8	13.8	6.80e-06	0	43	0	915406848	20	4996
2026-01-30 08:36:47.99	2.16	14.75	-30.0	-32.7	13.8	6.10e-06	0	44	0	917504000	20	4958
2026-01-30 08:36:49.00	2.01	14.67	-29.9	-32.6	13.9	3.00e-06	0	43	0	919601152	20	4914
2026-01-30 08:36:50.00	1.86	14.60	-30.0	-32.9	13.8	6.10e-06	0	43	0	920649728	20	5003
2026-01-30 08:36:51.01	1.71	14.52	-29.9	-32.5	14.0	6.10e-06	0	43	0	922746880	20	4870
2026-01-30 08:36:52.01	1.56	14.45	-29.9	-32.5	14.0	3.00e-06	0	43	0	924844032	20	4879
2026-01-30 08:36:53.02	1.41	14.38	-29.9	-32.6	13.9	6.80e-06	0	43	0	926941184	20	4920
2026-01-30 08:36:54.02	1.27	14.30	-29.9	-32.6	13.9	5.30e-06	0	44	0	929038336	20	4922
2026-01-30 08:36:55.03	1.12	14.23	-30.0	-32.9	13.8	6.80e-06	0	43	0	930086912	20	5007
2026-01-30 08:36:56.03	0.98	14.16	-29.9	-32.7	13.8	3.00e-06	0	43	0	932184064	20	4969
2026-01-30 08:36:57.03	0.83	14.08	-30.0	-33.0	13.6	3.80e-06	0	43	0	934281216	20	5074
2026-01-30 08:36:58.04	0.69	14.01	-30.0	-33.0	13.6	2.20e-06	0	43	0	936378368	20	5048
2026-01-30 08:36:59.03	0.55	13.94	-30.1	-33.1	13.5	9.10e-06	0	43	0	937426944	20	5116
2026-01-30 08:37:00.04	0.41	13.86	-30.1	-33.3	13.3	1.44e-05	0	43	0	939524096	20	5199
2026-01-30 08:37:01.04	0.26	13.79	-30.0	-32.9	13.6	1.37e-05	0	43	0	941621248	20	5040
2026-01-30 08:37:02.04	0.12	13.72	-30.0	-32.9	13.6	8.30e-06	0	43	0	943718400	20	5027
2026-01-30 08:37:03.04	359.99	13.64	-30.1	-33.2	13.4	1.06e-05	0	43	0	945815552	20	5148
2026-01-30 08:37:04.04	359.85	13.57	-30.0	-32.9	13.6	1.83e-05	0	43	0	946864128	20	5031
2026-01-30 08:37:05.04	359.71	13.50	-30.1	-33.3	13.3	1.37e-05	0	43	0	948961280	20	5190
2026-01-30 08:37:06.05	359.57	13.42	-30.1	-33.3	13.4	1.14e-05	0	43	0	951058432	20	5176
2026-01-30 08:37:07.05	359.43	13.35	-30.2	-33.6	13.2	1.37e-05	0	44	0	953155584	20	5296
2026-01-30 08:37:08.06	359.30	13.28	-30.5	-34.3	12.7	6.25e-05	0	43	0	955252736	20	5585
2026-01-30 08:37:09.06	359.16	13.21	-30.4	-34.0	12.9	5.72e-05	0	44	0	956301312	20	5444
2026-01-30 08:37:10.07	359.03	13.13	-30.5	-33.8	12.6	6.86e-05	0	43	0	958398464	21	5291
2026-01-30 08:37:11.07	358.89	13.06	-30.4	-33.4	12.9	7.93e-05	0	43	0	960495616	21	5132
2026-01-30 08:37:12.07	358.76	12.99	-30.3	-33.2	13.0	4.57e-05	0	44	0	962592768	21	5050
2026-01-30 08:37:13.07	358.63	12.92	-30.3	-33.3	13.0	3.43e-05	0	43	0	964689920	21	5071
2026-01-30 08:37:14.07	358.50	12.84	-30.2	-33.1	13.1	3.43e-05	0	43	0	965738496	21	5016
2026-01-30 08:37:15.07	358.36	12.77	-30.4	-33.6	12.7	5.41e-05	0	43	0	967835648	21	5210
2026-01-30 08:37:16.08	358.23	12.70	-30.3	-33.2	13.0	3.89e-05	0	43	0	969932800	21	5053
2026-01-30 08:37:17.08	358.10	12.63	-30.2	-33.1	13.1	2.74e-05	0	43	0	972029952	21	4990
2026-01-30 08:37:18.08	357.97	12.55	-30.2	-33.0	13.1	2.74e-05	0	43	0	974127104	21	4987
2026-01-30 08:37:19.09	357.84	12.48	-30.3	-33.3	12.9	3.20e-05	0	43	0	975175680	21	5091
2026-01-30 08:37:20.08	357.72	12.41	-30.4	-33.5	12.8	5.64e-05	0	44	0	977272832	21	5170
2026-01-30 08:37:21.08	357.59	12.34	-30.4	-33.5	12.8	5.03e-05	0	43	0	979369984	21	5172
2026-01-30 08:37:22.08	357.46	12.27	-30.4	-33.5	12.8	6.25e-05	0	43	0	981467136	21	5173
2026-01-30 08:37:23.08	357.34	12.19	-30.4	-33.6	12.7	7.78e-05	0	44	0	982515712	21	5208
2026-01-30 08:37:24.09	357.21	12.12	-30.5	-33.8	12.5	7.32e-05	0	43	0	984612864	21	5290
2026-01-30 08:37:25.09	357.09	12.05	-30.4	-33.6	12.7	6.94e-05	0	43	0	986710016	21	5185
2026-01-30 08:37:26.10	356.96	11.98	-30.3	-33.4	12.9	4.34e-05	0	43	0	988807168	21	5117
2026-01-30 08:37:27.09	356.84	11.91	-30.3	-33.4	12.8	6.86e-05	0	43	0	990904320	21	5128
2026-01-30 08:37:28.10	356.72	11.84	-30.3	-33.4	12.8	6.56e-05	0	43	0	993001472	21	5138
2026-01-30 08:37:29.10	356.59	11.76	-30.4	-33.6	12.7	7.55e-05	0	43	0	994050048	21	5193
2026-01-30 08:37:30.11	356.47	11.69	-30.3	-33.4	12.8	5.49e-05	0	43	0	996147200	21	5112
2026-01-30 08:37:31.11	356.35	11.62	-30.4	-33.6	12.7	6.25e-05	0	43	0	998244352	21	5210
2026-01-30 08:37:32.11	356.23	11.55	-30.4	-33.6	12.7	7.78e-05	0	43	0	1000341504	21	5210
2026-01-30 08:37:33.12	356.11	11.48	-30.5	-33.8	12.5	1.02e-04	0	43	0	1001390080	21	5291
2026-01-30 08:37:34.12	355.99	11.41	-30.5	-33.9	12.5	1.48e-04	0	43	0	1003487232	21	5344
2026-01-30 08:37:35.12	355.87	11.34	-30.6	-34.2	12.3	1.52e-04	0	43	0	1005584384	21	5442
2026-01-30 08:37:36.13	355.75	11.27	-30.6	-34.1	12.3	1.89e-04	0	43	0	1007681536	21	5413
2026-01-30 08:37:37.13	355.64	11.20	-30.6	-34.3	12.1	2.11e-04	0	44	0	1009778688	21	5509
2026-01-30 08:37:38.13	355.52	11.13	-30.6	-34.4	12.1	2.46e-04	0	44	0	1010827264	21	5526
2026-01-30 08:37:39.14	355.40	11.05	-30.6	-34.4	12.1	2.78e-04	0	43	0	1012924416	21	5527
2026-01-30 08:37:40.14	355.29	10.98	-30.6	-34.4	12.1	2.74e-04	0	43	0	1015021568	21	5536
2026-01-30 08:37:41.15	355.17	10.91	-30.7	-34.6	11.9	3.13e-04	0	43	0	1017118720	21	5631
2026-01-30 08:37:42.15	355.06	10.84	-30.8	-34.8	11.8	4.47e-04	0	43	0	1019215872	21	5730
2026-01-30 08:37:43.15	354.94	10.77	-30.7	-34.6	11.9	4.28e-04	0	43	0	1020264448	21	5653
2026-01-30 08:37:44.15	354.83	10.70	-30.8	-35.0	11.6	5.37e-04	0	44	0	1022361600	21	5791
2026-01-30 08:37:45.15	354.72	10.63	-30.8	-34.8	11.8	5.82e-04	0	43	0	1024458752	21	5710
2026-01-30 08:37:46.16	354.60	10.56	-30.8	-35.1	11.6	6.51e-04	0	43	0	1026555904	21	5842
2026-01-30 08:37:47.16	354.49	10.49	-31.0	-35.4	11.3	8.80e-04	0	43	0	1028653056	21	6006
2026-01-30 08:37:48.16	354.38	10.42	-30.9	-35.3	11.4	1.10e-03	0	43	0	1029701632	21	5959
2026-01-30 08:37:49.16	354.27	10.35	-31.1	-35.3	11.1	1.41e-03	0	43	0	1031798784	22	5827
2026-01-30 08:37:50.16	354.16	10.28	-31.2	-35.7	10.8	2.43e-03	0	44	0	1033895936	22	6026
2026-01-30 08:37:51.17	354.05	10.21	-31.1	-35.4	10.9	2.21e-03	0	43	0	1035993088	22	5902
2026-01-30 08:37:52.17	353.94	10.14	-31.1	-35.3	11.0	1.88e-03	0	43	0	1038090240	22	5849
2026-01-30 08:37:53.17	353.83	10.08	-31.1	-35.4	11.0	1.93e-03	0	43	0	1039138816	22	5875
2026-01-30 08:37:54.18	353.72	10.01	-31.1	-35.4	11.0	1.91e-03	0	43	0	1041235968	22	5881
2026-01-30 08:37:55.19	353.61	9.94	-31.2	-35.7	10.7	2.52e-03	0	44	0	1043333120	22	6046
2026-01-30 08:37:56.19	353.51	9.87	-31.0	-35.2	11.1	1.91e-03	0	43	0	1045430272	22	5793
2026-01-30 08:37:57.20	353.40	9.80	-30.9	-34.8	11.3	1.27e-03	0	43	0	1047527424	22	5650
2026-01-30 08:37:58.21	353.29	9.73	-30.9	-34.6	11.5	9.68e-04	0	43	0	1048576000	22	5547
2026-01-30 08:37:59.21	353.19	9.66	-30.8	-34.6	11.5	7.60e-04	0	43	0	1050673152	22	5527
2026-01-30 08:38:00.21	353.08	9.59	-30.8	-34.6	11.4	8.28e-04	0	44	0	1052770304	22	5549
2026-01-30 08:38:01.21	352.98	9.52	-30.9	-34.7	11.4	8.78e-04	0	43	0	1054867456	22	5599
2026-01-30 08:38:02.22	352.87	9.45	-30.9	-34.9	11.2	1.17e-03	0	43	0	1055916032	22	5675
2026-01-30 08:38:03.22	352.77	9.39	-30.9	-34.6	11.4	1.00e-03	0	43	0	1058013184	22	5557
2026-01-30 08:38:04.22	352.67	9.32	-30.8	-34.5	11.5	8.45e-04	0	44	0	1060110336	22	5518
2026-01-30 08:38:05.22	352.56	9.25	-30.8	-34.5	11.5	9.19e-04	0	43	0	1062207488	22	5501
2026-01-30 08:38:06.22	352.46	9.18	-30.9	-34.7	11.4	1.01e-03	0	43	0	1064304640	22	5589
2026-01-30 08:38:07.22	352.36	9.11	-30.8	-34.6	11.4	1.08e-03	0	43	0	1065353216	22	5546
2026-01-30 08:38:08.22	352.26	9.05	-30.8	-34.6	11.4	9.92e-04	0	43	0	1067450368	22	5562
2026-01-30 08:38:09.22	352.16	8.98	-30.9	-34.8	11.2	1.15e-03	0	43	0	1069547520	22	5653
2026-01-30 08:38:10.22	352.06	8.91	-30.9	-34.7	11.3	1.39e-03	0	43	0	1071644672	22	5612
2026-01-30 08:38:11.22	351.96	8.84	-30.9	-34.9	11.2	1.23e-03	0	43	0	1073741824	22	5699
2026-01-30 08:38:12.22	351.86	8.78	-31.1	-35.4	10.8	1.78e-03	0	43	0	1074790400	22	5901
2026-01-30 08:38:13.22	351.76	8.71	-31.1	-35.3	10.8	2.52e-03	0	43	0	1076887552	22	5899
2026-01-30 08:38:14.23	351.66	8.64	-31.0	-35.1	10.9	2.28e-03	0	43	0	1078984704	22	5807
2026-01-30 08:38:15.24	351.57	8.57	-31.1	-35.5	10.7	2.51e-03	0	43	0	1081081856	22	5952
2026-01-30 08:38:16.24	351.47	8.51	-31.0	-35.3	10.8	2.80e-03	0	43	0	1083179008	22	5902
2026-01-30 08:38:17.25	351.37	8.44	-31.1	-35.7	10.5	3.27e-03	0	43	0	1084227584	22	6079
2026-01-30 08:38:18.25	351.28	8.37	-31.2	-35.9	10.3	5.24e-03	0	43	0	1086324736	22	6207
2026-01-30 08:38:19.25	351.18	8.31	-31.2	-35.9	10.3	5.04e-03	0	43	0	1088421888	22	6205
2026-01-30 08:38:20.25	351.09	8.24	-31.3	-36.2	10.1	7.66e-03	0	43	0	1090519040	22	6335
2026-01-30 08:38:21.25	350.99	8.17	-31.2	-36.0	10.3	6.04e-03	0	44	0	1092616192	22	6229
2026-01-30 08:38:22.25	350.90	8.11	-31.2	-35.8	10.4	4.71e-03	0	43	0	1093664768	22	6147
2026-01-30 08:38:23.25	350.80	8.04	-31.1	-35.6	10.5	3.91e-03	0	43	0	1095761920	22	6035
2026-01-30 08:38:24.25	350.71	7.97	-31.1	-35.5	10.6	3.43e-03	0	43	0	1097859072	22	6011
2026-01-30 08:38:25.26	350.62	7.91	-31.1	-35.8	10.4	3.94e-03	0	44	0	1099956224	22	6125
2026-01-30 08:38:26.26	350.52	7.84	-31.1	-35.8	10.4	4.61e-03	0	43	0	1101004800	22	6136
2026-01-30 08:38:27.27	350.43	7.77	-31.2	-36.0	10.1	5.61e-03	0	43	0	1103101952	22	6254
2026-01-30 08:38:28.28	350.34	7.71	-31.3	-36.3	9.9	7.79e-03	0	43	0	1105199104	22	6424
2026-01-30 08:38:29.28	350.25	7.64	-31.2	-36.1	10.1	8.17e-03	0	43	0	1107296256	22	6327
2026-01-30 08:38:30.29	350.15	7.58	-31.3	-36.3	9.9	9.57e-03	0	43	0	1109393408	22	6447
2026-01-30 08:38:31.29	350.06	7.51	-31.2	-36.1	10.0	8.46e-03	0	43	0	1110441984	22	6341
2026-01-30 08:38:32.29	349.97	7.44	-31.2	-36.1	10.1	6.90e-03	0	44	0	1112539136	22	6297
2026-01-30 08:38:33.29	349.88	7.38	-31.2	-36.0	10.1	6.78e-03	0	44	0	1114636288	22	6284
2026-01-30 08:38:34.28	349.80	7.32	-31.2	-36.2	9.9	8.32e-03	0	43	0	1116733440	22	6396
2026-01-30 08:38:35.28	349.71	7.25	-31.3	-36.4	9.8	8.74e-03	0	43	0	1118830592	22	6479
2026-01-30 08:38:36.29	349.62	7.18	-31.3	-36.5	9.7	1.04e-02	0	43	0	1119879168	22	6564
2026-01-30 08:38:37.29	349.53	7.12	-31.3	-36.3	9.8	1.01e-02	0	44	0	1121976320	22	6463
2026-01-30 08:38:38.30	349.44	7.05	-31.7	-37.5	8.7	1.09e-02	0	43	0	1124073472	23	7032
2026-01-30 08:38:39.30	349.36	6.99	-33.4	-47.5	3.8	1.46e+00	0	43	104	1124073472	26	18250
2026-01-30 08:38:40.30	349.27	6.92	-33.7	-47.9	3.8	1.49e+00	0	43	104	1124073472	27	18477

#Closed at: 2026-01-30 08:38:41
#Recorded file [1124 MB]: D:/data/31010_260130_112838.dat