passes_logs/2026/01/30/R2M6_AANII_01/R2M6_AANII_01__20260130_114511_AQUA_rec.log

#Pass ID: 20260130_114511_AQUA
#Satellite: AQUA
#Configuration: AQUA
#almurnet v.1.7.20240730
#Start time: 2026-01-30 11:45:11

#Version: 2.2.20231116
#Station: R2M6_AANII_01
#Location: 30.233357 lon 59.946436 lat
#TLE: 1 27424U 02022A   26029.54575153  .00001738  00000+0  35736-3 0  9994
#TLE: 2 27424  98.4104 356.2197 0001804  61.7823  56.0643 14.61874165263019

#Time	Az	El	Level	Level2	SNR	BER	BlckErr	Temp	State	Recorded	gain1	gain2
2026-01-30 11:45:11.75	149.34	7.04	-29.7	-38.5	5.0	7.15e-01	0	41	0	0	21	9936
2026-01-30 11:45:12.75	149.32	7.12	-29.9	-40.2	4.8	7.12e-01	0	41	104	0	21	11802
2026-01-30 11:45:13.75	149.30	7.20	-30.1	-38.9	11.8	6.14e-01	0	41	0	0	21	9992
2026-01-30 11:45:14.75	149.28	7.28	-30.3	-39.5	11.5	6.15e-01	0	41	0	1572864	21	10367
2026-01-30 11:45:15.76	149.26	7.37	-30.2	-38.8	12.1	6.13e-01	0	41	0	3670016	21	9723
2026-01-30 11:45:16.77	149.24	7.45	-29.9	-38.1	12.5	6.12e-01	0	41	0	5242880	21	9311
2026-01-30 11:45:17.77	149.22	7.53	-29.6	-37.3	13.1	6.09e-01	0	41	0	7340032	21	8724
2026-01-30 11:45:18.78	149.20	7.62	-29.4	-36.9	13.3	6.07e-01	0	41	0	9437184	21	8554
2026-01-30 11:45:19.79	149.18	7.70	-29.4	-37.2	13.5	6.07e-01	0	41	0	11010048	20	8856
2026-01-30 11:45:20.80	149.16	7.79	-29.2	-36.8	13.7	6.08e-01	0	41	0	13107200	20	8678
2026-01-30 11:45:21.80	149.14	7.87	-29.0	-36.0	14.3	6.09e-01	0	41	0	14680064	20	8095
2026-01-30 11:45:22.80	149.12	7.96	-28.7	-35.4	15.2	6.06e-01	0	41	0	16777216	19	7776
2026-01-30 11:45:23.81	149.10	8.04	-28.6	-34.9	15.7	6.06e-01	0	41	0	18874368	19	7384
2026-01-30 11:45:24.81	149.08	8.13	-28.4	-34.7	16.2	6.09e-01	0	41	0	20447232	18	7420
2026-01-30 11:45:25.81	149.05	8.22	-28.2	-33.9	16.7	6.04e-01	0	41	0	22544384	18	6991
2026-01-30 11:45:26.80	149.03	8.30	-28.1	-33.4	17.2	6.06e-01	0	41	0	24117248	18	6659
2026-01-30 11:45:27.80	149.01	8.39	-28.1	-33.1	17.5	6.06e-01	0	41	0	26214400	18	6426
2026-01-30 11:45:28.80	148.99	8.47	-28.0	-32.9	17.7	6.07e-01	0	41	0	28311552	18	6280
2026-01-30 11:45:29.81	148.97	8.56	-28.2	-33.0	17.8	6.07e-01	0	41	0	29884416	18	6238
2026-01-30 11:45:30.81	148.95	8.65	-28.2	-32.9	17.8	6.07e-01	0	41	0	31981568	18	6215
2026-01-30 11:45:31.81	148.92	8.74	-28.2	-33.0	17.8	6.08e-01	0	42	0	33554432	18	6264
2026-01-30 11:45:32.81	148.90	8.83	-28.3	-33.2	17.6	6.07e-01	0	41	0	35651584	18	6376
2026-01-30 11:45:33.82	148.88	8.92	-28.2	-33.0	17.8	6.06e-01	0	41	0	37224448	18	6210
2026-01-30 11:45:34.82	148.85	9.00	-28.4	-33.1	18.0	6.07e-01	0	41	0	39321600	18	6142
2026-01-30 11:45:35.82	148.83	9.09	-28.6	-33.2	18.0	6.08e-01	0	42	0	41418752	18	6159
2026-01-30 11:45:36.83	148.81	9.18	-28.7	-33.4	17.9	6.04e-01	0	42	0	42991616	18	6168
2026-01-30 11:45:37.83	148.79	9.27	-28.8	-33.4	18.0	6.08e-01	0	42	0	45088768	18	6164
2026-01-30 11:45:38.83	148.76	9.36	-28.8	-33.6	17.9	6.07e-01	0	42	0	46661632	18	6208
2026-01-30 11:45:39.84	148.74	9.46	-28.9	-33.5	18.0	6.07e-01	0	42	0	48758784	18	6110
2026-01-30 11:45:40.83	148.71	9.55	-29.0	-33.6	18.1	6.07e-01	0	42	0	50331648	18	6061
2026-01-30 11:45:41.83	148.69	9.64	-29.3	-33.5	18.0	6.06e-01	0	42	0	52428800	19	5833
2026-01-30 11:45:42.83	148.67	9.73	-29.5	-33.9	17.7	6.06e-01	0	42	0	54525952	19	6019
2026-01-30 11:45:43.83	148.64	9.82	-29.5	-33.8	17.9	6.06e-01	0	42	0	56098816	19	5900
2026-01-30 11:45:44.83	148.62	9.91	-29.6	-34.0	17.8	6.04e-01	0	42	0	58195968	19	5965
2026-01-30 11:45:45.84	148.59	10.01	-29.6	-33.7	18.0	6.07e-01	0	42	0	59768832	19	5818
2026-01-30 11:45:46.84	148.57	10.10	-29.6	-33.6	18.1	6.09e-01	0	42	0	61865984	19	5738
2026-01-30 11:45:47.84	148.54	10.19	-29.5	-33.5	18.2	6.08e-01	0	42	0	63438848	19	5707
2026-01-30 11:45:48.85	148.52	10.29	-29.5	-32.8	18.3	6.07e-01	0	42	0	65536000	20	5313
2026-01-30 11:45:49.85	148.49	10.38	-29.5	-33.0	18.2	6.07e-01	0	42	0	67633152	20	5376
2026-01-30 11:45:50.85	148.46	10.48	-29.5	-33.0	18.2	6.06e-01	0	42	0	69206016	20	5366
2026-01-30 11:45:51.86	148.44	10.58	-29.5	-33.1	18.1	6.06e-01	0	42	0	71303168	20	5438
2026-01-30 11:45:52.86	148.41	10.67	-29.4	-32.8	18.3	6.05e-01	0	42	0	73400320	20	5321
2026-01-30 11:45:53.87	148.38	10.77	-29.4	-32.6	18.4	6.08e-01	0	42	0	74973184	20	5248
2026-01-30 11:45:54.87	148.36	10.86	-29.3	-32.5	18.5	6.05e-01	0	42	0	77070336	20	5170
2026-01-30 11:45:55.87	148.33	10.96	-29.3	-32.3	18.6	6.05e-01	0	42	0	78643200	20	5103
2026-01-30 11:45:56.88	148.30	11.06	-29.3	-32.4	18.6	6.06e-01	0	42	0	80740352	20	5151
2026-01-30 11:45:57.88	148.28	11.16	-29.3	-32.4	18.6	6.07e-01	0	42	0	82313216	20	5154
2026-01-30 11:45:58.88	148.25	11.26	-29.4	-32.5	18.5	6.10e-01	0	42	0	84410368	20	5184
2026-01-30 11:45:59.89	148.22	11.36	-29.5	-33.0	18.2	6.05e-01	0	42	0	86507520	20	5379
2026-01-30 11:46:00.89	148.19	11.46	-29.4	-32.7	18.4	6.04e-01	0	42	0	88080384	20	5257
2026-01-30 11:46:01.89	148.17	11.55	-29.4	-32.6	18.5	6.06e-01	0	42	0	90177536	20	5191
2026-01-30 11:46:02.90	148.14	11.66	-29.5	-32.9	18.4	6.07e-01	0	42	0	91750400	20	5290
2026-01-30 11:46:03.90	148.11	11.76	-29.5	-32.8	18.5	6.08e-01	0	42	0	93847552	20	5256
2026-01-30 11:46:04.90	148.08	11.86	-29.5	-32.8	18.5	6.06e-01	0	42	0	95944704	20	5253
2026-01-30 11:46:05.91	148.05	11.96	-29.6	-33.0	18.3	6.07e-01	0	42	0	97517568	20	5336
2026-01-30 11:46:06.91	148.02	12.06	-29.5	-32.7	18.5	6.07e-01	0	42	0	99614720	20	5236
2026-01-30 11:46:07.92	147.99	12.16	-29.4	-32.6	18.6	6.08e-01	0	42	0	101187584	20	5185
2026-01-30 11:46:08.92	147.96	12.27	-29.4	-32.6	18.6	6.07e-01	0	42	0	103284736	20	5170
2026-01-30 11:46:09.93	147.93	12.37	-29.4	-32.5	18.7	6.06e-01	0	42	0	104857600	20	5149
2026-01-30 11:46:10.93	147.90	12.48	-29.4	-32.5	18.7	6.06e-01	0	42	0	106954752	20	5140
2026-01-30 11:46:11.93	147.87	12.58	-29.5	-32.8	18.5	6.05e-01	0	42	0	109051904	20	5253
2026-01-30 11:46:12.93	147.84	12.68	-29.3	-32.4	18.7	6.08e-01	0	42	0	110624768	20	5146
2026-01-30 11:46:13.93	147.81	12.79	-29.3	-32.4	18.8	6.09e-01	0	42	0	112721920	20	5116
2026-01-30 11:46:14.93	147.78	12.90	-29.3	-32.4	18.8	6.09e-01	0	42	0	114294784	20	5127
2026-01-30 11:46:15.93	147.74	13.00	-29.4	-32.7	18.5	6.06e-01	0	42	0	116391936	20	5267
2026-01-30 11:46:16.94	147.71	13.11	-29.3	-32.3	18.8	6.06e-01	0	42	0	118489088	20	5087
2026-01-30 11:46:17.94	147.68	13.22	-29.3	-32.3	18.8	6.06e-01	0	42	0	120061952	20	5088
2026-01-30 11:46:18.93	147.65	13.32	-29.4	-32.6	18.6	6.07e-01	0	42	0	122159104	20	5240
2026-01-30 11:46:19.94	147.62	13.43	-29.4	-32.6	18.6	6.05e-01	0	42	0	123731968	20	5203
2026-01-30 11:46:20.95	147.58	13.54	-29.5	-32.9	18.4	6.06e-01	0	42	0	125829120	20	5345
2026-01-30 11:46:21.94	147.55	13.65	-29.4	-32.6	18.6	6.05e-01	0	42	0	127401984	20	5185
2026-01-30 11:46:22.95	147.52	13.76	-29.4	-32.2	18.9	6.06e-01	0	42	0	129499136	20	5015
2026-01-30 11:46:23.95	147.48	13.87	-29.4	-32.2	19.0	6.04e-01	0	42	0	131596288	20	4981
2026-01-30 11:46:24.96	147.45	13.98	-29.4	-32.3	19.0	6.06e-01	0	42	0	133169152	20	5021
2026-01-30 11:46:25.96	147.41	14.10	-29.3	-32.0	19.2	6.06e-01	0	42	0	135266304	20	4926
2026-01-30 11:46:26.96	147.38	14.21	-29.4	-32.2	19.1	6.07e-01	0	42	0	136839168	20	4995
2026-01-30 11:46:27.97	147.34	14.32	-29.4	-32.3	19.0	6.05e-01	0	42	0	138936320	20	5019
2026-01-30 11:46:28.97	147.31	14.43	-29.4	-32.3	19.0	6.08e-01	0	42	0	141033472	20	5027
2026-01-30 11:46:29.97	147.27	14.55	-29.5	-32.5	18.9	6.06e-01	0	42	0	142606336	20	5097
2026-01-30 11:46:30.98	147.23	14.66	-29.3	-32.2	19.1	6.04e-01	0	42	0	144703488	20	4992
2026-01-30 11:46:31.99	147.20	14.78	-29.3	-32.0	19.1	6.06e-01	0	42	0	146276352	20	4942
2026-01-30 11:46:32.99	147.16	14.90	-29.3	-32.1	19.2	6.06e-01	0	43	0	148373504	20	4942
2026-01-30 11:46:34.00	147.12	15.01	-29.3	-31.9	19.3	6.05e-01	0	42	0	150470656	20	4887
2026-01-30 11:46:35.01	147.09	15.13	-29.3	-32.0	19.2	6.07e-01	0	42	0	152043520	20	4904
2026-01-30 11:46:36.01	147.05	15.25	-29.5	-32.4	19.0	6.05e-01	0	42	0	154140672	20	5063
2026-01-30 11:46:37.01	147.01	15.37	-29.3	-32.0	19.2	6.07e-01	0	42	0	155713536	20	4923
2026-01-30 11:46:38.01	146.97	15.49	-29.2	-31.7	19.4	6.07e-01	0	43	0	157810688	20	4826
2026-01-30 11:46:39.02	146.93	15.61	-29.1	-31.6	19.5	6.05e-01	0	42	0	159907840	20	4786
2026-01-30 11:46:40.01	146.89	15.72	-29.2	-31.7	19.4	6.07e-01	0	42	0	161480704	20	4814
2026-01-30 11:46:41.02	146.85	15.85	-29.2	-31.8	19.4	6.06e-01	0	42	0	163577856	20	4855
2026-01-30 11:46:42.02	146.82	15.97	-29.3	-32.0	19.2	6.08e-01	0	43	0	165150720	20	4932
2026-01-30 11:46:43.02	146.77	16.09	-29.2	-31.7	19.4	6.06e-01	0	42	0	167247872	20	4824
2026-01-30 11:46:44.02	146.73	16.21	-29.2	-31.8	19.4	6.05e-01	0	43	0	168820736	20	4846
2026-01-30 11:46:45.03	146.69	16.34	-29.3	-32.0	19.3	6.05e-01	0	42	0	170917888	20	4908
2026-01-30 11:46:46.04	146.65	16.46	-29.3	-31.9	19.4	6.06e-01	0	42	0	173015040	20	4878
2026-01-30 11:46:47.04	146.61	16.59	-29.4	-32.2	19.2	6.08e-01	0	43	0	174587904	20	4989
2026-01-30 11:46:48.05	146.57	16.71	-29.3	-32.1	19.3	6.07e-01	0	42	0	176685056	20	4928
2026-01-30 11:46:49.05	146.52	16.84	-29.4	-32.2	19.2	6.06e-01	0	42	0	178257920	20	4970
2026-01-30 11:46:50.05	146.48	16.96	-29.4	-32.1	19.2	6.09e-01	0	43	0	180355072	20	4946
2026-01-30 11:46:51.05	146.44	17.09	-29.5	-32.4	19.1	6.05e-01	0	42	0	182452224	20	5032
2026-01-30 11:46:52.05	146.39	17.22	-29.5	-32.4	19.1	6.05e-01	0	43	0	184025088	20	5024
2026-01-30 11:46:53.06	146.35	17.35	-29.5	-32.4	19.1	6.07e-01	0	43	0	186122240	20	5032
2026-01-30 11:46:54.07	146.31	17.48	-29.6	-32.8	18.9	6.07e-01	0	43	0	187695104	20	5161
2026-01-30 11:46:55.07	146.26	17.61	-29.5	-32.4	19.1	6.06e-01	0	43	0	189792256	20	5022
2026-01-30 11:46:56.07	146.21	17.74	-29.5	-32.3	19.2	6.07e-01	0	43	0	191889408	20	5006
2026-01-30 11:46:57.07	146.17	17.87	-29.5	-32.3	19.2	6.06e-01	0	43	0	193462272	20	4992
2026-01-30 11:46:58.08	146.12	18.01	-29.5	-32.5	19.1	6.06e-01	0	43	0	195559424	20	5051
2026-01-30 11:46:59.09	146.07	18.14	-29.4	-32.1	19.4	6.08e-01	0	43	0	197132288	20	4917
2026-01-30 11:47:00.09	146.03	18.28	-29.3	-32.0	19.4	6.06e-01	0	43	0	199229440	20	4898
2026-01-30 11:47:01.08	145.98	18.41	-29.3	-32.0	19.4	6.08e-01	0	43	0	200802304	20	4905
2026-01-30 11:47:02.08	145.93	18.55	-29.4	-32.2	19.3	6.07e-01	0	43	0	202899456	20	4977
2026-01-30 11:47:03.08	145.88	18.68	-29.3	-31.9	19.5	6.04e-01	0	43	0	204996608	20	4846
2026-01-30 11:47:04.08	145.83	18.82	-29.2	-31.6	19.7	6.06e-01	0	43	0	206569472	20	4738
2026-01-30 11:47:05.08	145.78	18.96	-29.1	-31.4	19.9	6.06e-01	0	43	0	208666624	20	4667
2026-01-30 11:47:06.09	145.73	19.10	-29.1	-31.4	19.9	6.07e-01	0	43	0	210239488	20	4686
2026-01-30 11:47:07.09	145.68	19.24	-29.2	-31.5	19.8	6.05e-01	0	43	0	212336640	20	4691
2026-01-30 11:47:08.10	145.63	19.38	-29.2	-31.5	19.8	6.07e-01	0	43	0	214433792	20	4706
2026-01-30 11:47:09.10	145.58	19.52	-29.3	-31.8	19.7	6.07e-01	0	43	0	216006656	20	4807
2026-01-30 11:47:10.10	145.53	19.66	-29.3	-31.8	19.6	6.07e-01	0	43	0	218103808	20	4813
2026-01-30 11:47:11.10	145.47	19.81	-29.3	-31.9	19.6	6.06e-01	0	43	0	219676672	20	4831
2026-01-30 11:47:12.10	145.42	19.95	-29.4	-32.0	19.6	6.05e-01	0	43	0	221773824	20	4858
2026-01-30 11:47:13.10	145.37	20.10	-29.4	-32.1	19.5	6.06e-01	0	43	0	223870976	20	4897
2026-01-30 11:47:14.10	145.31	20.24	-29.4	-32.2	19.4	6.05e-01	0	43	0	225443840	20	4943
2026-01-30 11:47:15.10	145.26	20.39	-29.4	-32.1	19.5	6.05e-01	0	43	0	227540992	20	4928
2026-01-30 11:47:16.11	145.20	20.54	-29.4	-32.1	19.5	6.05e-01	0	43	0	229113856	20	4909
2026-01-30 11:47:17.11	145.14	20.69	-29.4	-32.1	19.5	6.08e-01	0	43	0	231211008	20	4918
2026-01-30 11:47:18.11	145.09	20.84	-29.5	-32.3	19.4	6.08e-01	0	43	0	232783872	20	4977
2026-01-30 11:47:19.11	145.03	20.99	-29.4	-32.2	19.5	6.06e-01	0	43	0	234881024	20	4945
2026-01-30 11:47:20.11	144.97	21.14	-29.5	-32.4	19.4	6.08e-01	0	43	0	236978176	20	5034
2026-01-30 11:47:21.11	144.91	21.29	-29.6	-32.8	19.1	6.03e-01	0	43	0	238551040	20	5155
2026-01-30 11:47:22.11	144.85	21.45	-29.5	-32.4	19.4	6.05e-01	0	43	0	240648192	20	5021
2026-01-30 11:47:23.11	144.79	21.60	-29.4	-32.2	19.5	6.07e-01	0	43	0	242221056	20	4956
2026-01-30 11:47:24.12	144.73	21.76	-29.5	-32.3	19.4	6.06e-01	0	43	0	244318208	20	4986
2026-01-30 11:47:25.11	144.67	21.91	-29.5	-32.3	19.5	6.06e-01	0	43	0	245891072	20	4990
2026-01-30 11:47:26.12	144.61	22.07	-29.5	-32.5	19.4	6.05e-01	0	43	0	247988224	20	5038
2026-01-30 11:47:27.12	144.55	22.23	-29.5	-32.4	19.4	6.08e-01	0	43	0	250085376	20	5021
2026-01-30 11:47:28.12	144.48	22.39	-29.6	-32.7	19.3	6.04e-01	0	43	0	251658240	20	5103
2026-01-30 11:47:29.13	144.42	22.55	-29.8	-33.1	19.0	6.06e-01	0	43	0	253755392	20	5267
2026-01-30 11:47:30.13	144.35	22.71	-29.7	-32.9	19.1	6.06e-01	0	43	0	255328256	20	5200
2026-01-30 11:47:31.14	144.29	22.88	-29.8	-33.1	19.0	6.06e-01	0	43	0	257425408	20	5270
2026-01-30 11:47:32.14	144.22	23.04	-29.8	-33.0	19.1	6.04e-01	0	43	0	258998272	20	5216
2026-01-30 11:47:33.15	144.15	23.21	-29.9	-33.4	18.9	6.08e-01	0	43	0	261095424	20	5357
2026-01-30 11:47:34.16	144.08	23.38	-29.8	-33.1	19.1	6.05e-01	0	43	0	263192576	20	5227
2026-01-30 11:47:35.16	144.01	23.54	-29.8	-33.0	19.2	6.06e-01	0	43	0	264765440	20	5195
2026-01-30 11:47:36.16	143.94	23.71	-29.8	-33.0	19.2	6.08e-01	0	43	0	266862592	20	5211
2026-01-30 11:47:37.17	143.87	23.88	-30.0	-33.4	18.9	6.06e-01	0	43	0	268959744	20	5362
2026-01-30 11:47:38.17	143.80	24.05	-30.0	-33.4	19.0	6.07e-01	0	43	0	270532608	20	5352
2026-01-30 11:47:39.17	143.73	24.22	-30.1	-33.3	18.7	6.07e-01	0	43	0	272629760	21	5202
2026-01-30 11:47:40.17	143.66	24.40	-29.9	-32.7	19.1	6.06e-01	0	43	0	274202624	21	4984
2026-01-30 11:47:41.18	143.58	24.57	-29.7	-32.2	19.4	6.07e-01	0	43	0	276299776	21	4789
2026-01-30 11:47:42.18	143.51	24.75	-29.6	-32.0	19.5	6.04e-01	0	43	0	277872640	21	4735
2026-01-30 11:47:43.18	143.43	24.93	-29.6	-31.9	19.6	6.05e-01	0	43	0	279969792	21	4709
2026-01-30 11:47:44.19	143.35	25.11	-29.5	-31.7	19.7	6.06e-01	0	43	0	282066944	21	4636
2026-01-30 11:47:45.19	143.28	25.28	-29.5	-31.7	19.7	6.05e-01	0	43	0	283639808	21	4636
2026-01-30 11:47:46.19	143.20	25.47	-29.5	-31.7	19.8	6.07e-01	0	43	0	285736960	21	4641
2026-01-30 11:47:47.20	143.12	25.65	-29.5	-31.8	19.7	6.06e-01	0	43	0	287309824	21	4657
2026-01-30 11:47:48.20	143.04	25.83	-29.6	-31.9	19.6	6.07e-01	0	43	0	289406976	21	4708
2026-01-30 11:47:49.20	142.95	26.02	-29.5	-31.7	19.8	6.06e-01	0	43	0	291504128	21	4632
2026-01-30 11:47:50.21	142.87	26.20	-29.5	-31.7	19.8	6.07e-01	0	43	0	293076992	21	4624
2026-01-30 11:47:51.21	142.79	26.39	-29.5	-31.6	19.8	6.05e-01	0	43	0	295174144	21	4607
2026-01-30 11:47:52.21	142.70	26.58	-29.5	-31.7	19.8	6.06e-01	0	43	0	296747008	21	4612
2026-01-30 11:47:53.21	142.62	26.77	-29.6	-31.9	19.6	6.06e-01	0	43	0	298844160	21	4700
2026-01-30 11:47:54.22	142.53	26.96	-29.5	-31.8	19.7	6.08e-01	0	43	0	300941312	21	4648
2026-01-30 11:47:55.22	142.44	27.15	-29.5	-31.7	19.8	6.06e-01	0	43	0	302514176	21	4621
2026-01-30 11:47:56.23	142.35	27.35	-29.4	-31.8	20.0	6.05e-01	0	43	0	304611328	20	4755
2026-01-30 11:47:57.23	142.26	27.54	-29.3	-31.6	20.1	6.07e-01	0	43	0	306184192	20	4697
2026-01-30 11:47:58.23	142.17	27.74	-29.1	-31.2	20.4	6.06e-01	0	43	0	308281344	20	4559
2026-01-30 11:47:59.24	142.08	27.94	-29.2	-31.4	20.3	6.07e-01	0	43	0	309854208	20	4633
2026-01-30 11:48:00.24	141.98	28.14	-29.4	-31.7	20.1	6.08e-01	0	43	0	311951360	20	4731
2026-01-30 11:48:01.24	141.89	28.34	-29.3	-31.7	20.2	6.05e-01	0	43	0	314048512	20	4711
2026-01-30 11:48:02.24	141.79	28.54	-29.5	-32.1	19.9	6.07e-01	0	43	0	315621376	20	4854
2026-01-30 11:48:03.24	141.69	28.75	-29.5	-32.1	20.0	6.05e-01	0	43	0	317718528	20	4830
2026-01-30 11:48:04.24	141.59	28.95	-29.6	-32.4	19.8	6.05e-01	0	43	0	319291392	20	4950
2026-01-30 11:48:05.25	141.49	29.16	-29.7	-32.5	19.7	6.05e-01	0	43	0	321388544	20	4979
2026-01-30 11:48:06.25	141.39	29.37	-29.5	-32.1	20.0	6.07e-01	0	43	0	323485696	20	4836
2026-01-30 11:48:07.25	141.28	29.58	-29.5	-32.0	20.1	6.08e-01	0	43	0	325058560	20	4794
2026-01-30 11:48:08.25	141.18	29.79	-29.4	-31.9	20.1	6.04e-01	0	43	0	327155712	20	4777
2026-01-30 11:48:09.26	141.07	30.01	-29.3	-31.5	20.3	6.07e-01	0	43	0	328728576	20	4648
2026-01-30 11:48:10.26	140.96	30.22	-29.3	-31.6	20.3	6.06e-01	0	43	0	330825728	20	4668
2026-01-30 11:48:11.26	140.86	30.44	-29.3	-31.6	20.3	6.06e-01	0	43	0	332398592	20	4682
2026-01-30 11:48:12.26	140.74	30.66	-29.4	-31.8	20.2	6.06e-01	0	43	0	334495744	20	4751
2026-01-30 11:48:13.27	140.63	30.88	-29.5	-32.2	20.0	6.05e-01	0	43	0	336592896	20	4864
2026-01-30 11:48:14.27	140.52	31.10	-29.2	-31.4	20.4	6.08e-01	0	43	0	338165760	20	4610
2026-01-30 11:48:15.28	140.40	31.33	-29.1	-31.0	20.7	6.06e-01	0	43	0	340262912	20	4484
2026-01-30 11:48:16.28	140.28	31.55	-29.1	-30.9	20.7	6.08e-01	0	43	0	341835776	20	4469
2026-01-30 11:48:17.29	140.16	31.78	-29.1	-31.1	20.6	6.06e-01	0	43	0	343932928	20	4528
2026-01-30 11:48:18.29	140.04	32.01	-29.2	-31.3	20.5	6.09e-01	0	43	0	346030080	20	4578
2026-01-30 11:48:19.29	139.92	32.24	-29.2	-31.3	20.5	6.06e-01	0	43	0	347602944	20	4568
2026-01-30 11:48:20.29	139.79	32.47	-29.2	-31.3	20.5	6.07e-01	0	43	0	349700096	20	4567
2026-01-30 11:48:21.30	139.66	32.71	-29.3	-31.4	20.5	6.07e-01	0	43	0	351272960	20	4611
2026-01-30 11:48:22.30	139.54	32.94	-29.2	-31.4	20.4	6.07e-01	0	43	0	353370112	20	4610
2026-01-30 11:48:23.30	139.40	33.18	-29.1	-31.1	20.6	6.06e-01	0	43	0	355467264	20	4517
2026-01-30 11:48:24.30	139.27	33.42	-29.3	-31.4	20.4	6.07e-01	0	43	0	357040128	20	4633
2026-01-30 11:48:25.31	139.14	33.66	-29.5	-32.2	20.0	6.05e-01	0	43	0	359137280	20	4873
2026-01-30 11:48:26.31	139.00	33.91	-29.6	-32.4	19.9	6.05e-01	0	43	0	360710144	20	4956
2026-01-30 11:48:27.32	138.86	34.15	-29.7	-32.7	19.7	6.07e-01	0	43	0	362807296	20	5038
2026-01-30 11:48:28.32	138.72	34.40	-29.8	-32.7	19.7	6.06e-01	0	43	0	364380160	20	5064
2026-01-30 11:48:29.33	138.57	34.65	-29.8	-32.9	19.6	6.06e-01	0	43	0	366477312	20	5107
2026-01-30 11:48:30.33	138.43	34.90	-29.7	-32.4	19.9	6.07e-01	0	43	0	368574464	20	4949
2026-01-30 11:48:31.34	138.28	35.15	-29.7	-32.6	19.9	6.07e-01	0	43	0	370147328	20	4989
2026-01-30 11:48:32.34	138.13	35.41	-29.9	-33.0	19.5	6.08e-01	0	43	0	372244480	20	5153
2026-01-30 11:48:33.34	137.97	35.67	-30.2	-33.3	19.2	6.06e-01	0	43	0	373817344	21	5126
2026-01-30 11:48:34.35	137.82	35.93	-30.3	-33.6	18.9	6.07e-01	0	43	0	375914496	21	5265
2026-01-30 11:48:35.35	137.66	36.19	-30.3	-33.5	19.0	6.07e-01	0	43	0	378011648	21	5241
2026-01-30 11:48:36.34	137.50	36.45	-30.2	-33.2	19.1	6.06e-01	0	43	0	379584512	21	5133
2026-01-30 11:48:37.34	137.33	36.71	-30.3	-33.7	18.9	6.06e-01	0	43	0	381681664	21	5305
2026-01-30 11:48:38.34	137.17	36.98	-30.6	-34.0	18.4	6.07e-01	0	43	0	383254528	22	5310
2026-01-30 11:48:39.35	137.00	37.25	-30.7	-34.3	18.2	6.06e-01	0	43	0	385351680	22	5455
2026-01-30 11:48:40.36	136.82	37.52	-30.9	-34.9	17.9	6.07e-01	0	43	0	387448832	22	5682
2026-01-30 11:48:41.36	136.65	37.79	-30.8	-34.6	18.0	6.03e-01	0	43	0	389021696	22	5563
2026-01-30 11:48:42.36	136.47	38.07	-30.9	-34.7	18.0	6.08e-01	0	43	0	391118848	22	5599
2026-01-30 11:48:43.36	136.29	38.34	-30.8	-34.6	18.0	6.07e-01	0	43	0	392691712	22	5563
2026-01-30 11:48:44.36	136.10	38.62	-30.7	-34.2	18.3	6.07e-01	0	43	0	394788864	22	5400
2026-01-30 11:48:45.36	135.92	38.90	-30.9	-34.7	18.0	6.08e-01	0	43	0	396361728	22	5595
2026-01-30 11:48:46.37	135.72	39.19	-31.1	-35.1	17.5	6.05e-01	0	43	0	398458880	23	5691
2026-01-30 11:48:47.37	135.53	39.47	-31.3	-35.5	17.1	6.06e-01	0	43	0	400556032	23	5816
2026-01-30 11:48:48.37	135.33	39.76	-31.2	-35.2	17.3	6.05e-01	0	43	0	402128896	23	5709
2026-01-30 11:48:49.37	135.13	40.04	-31.0	-34.6	17.7	6.06e-01	0	43	0	404226048	23	5426
2026-01-30 11:48:50.37	134.92	40.34	-30.8	-33.9	18.2	6.08e-01	0	43	0	405798912	23	5146
2026-01-30 11:48:51.38	134.71	40.63	-30.5	-33.2	18.7	6.07e-01	0	43	0	407896064	23	4883
2026-01-30 11:48:52.39	134.49	40.93	-30.5	-33.3	18.6	6.05e-01	0	43	0	409468928	23	4937
2026-01-30 11:48:53.39	134.27	41.23	-30.7	-33.7	18.4	6.06e-01	0	43	0	411566080	23	5095
2026-01-30 11:48:54.39	134.05	41.53	-30.6	-33.5	18.4	6.05e-01	0	43	0	413663232	23	5028
2026-01-30 11:48:55.40	133.82	41.83	-30.6	-33.4	18.5	6.09e-01	0	43	0	415236096	23	4983
2026-01-30 11:48:56.41	133.59	42.14	-30.8	-34.1	18.1	6.08e-01	0	43	0	417333248	23	5261
2026-01-30 11:48:57.41	133.36	42.44	-30.8	-34.1	18.0	6.05e-01	0	43	0	419430400	23	5253
2026-01-30 11:48:58.41	133.12	42.75	-30.4	-33.0	18.8	6.05e-01	0	43	0	421003264	23	4834
2026-01-30 11:48:59.41	132.87	43.06	-30.3	-33.3	19.0	6.07e-01	0	43	0	423100416	22	5035
2026-01-30 11:49:00.42	132.62	43.37	-30.4	-33.5	18.8	6.06e-01	0	43	0	424673280	22	5140
2026-01-30 11:49:01.42	132.36	43.69	-30.2	-32.9	19.1	6.05e-01	0	43	0	426770432	22	4910
2026-01-30 11:49:02.42	132.10	44.00	-30.0	-32.3	19.6	6.05e-01	0	43	0	428343296	22	4708
2026-01-30 11:49:03.42	131.84	44.32	-30.4	-33.3	19.0	6.07e-01	0	43	0	430440448	22	5033
2026-01-30 11:49:04.43	131.56	44.65	-30.6	-33.8	18.7	6.06e-01	0	43	0	432537600	22	5220
2026-01-30 11:49:05.42	131.29	44.96	-30.4	-33.2	19.0	6.06e-01	0	43	0	434110464	22	4990
2026-01-30 11:49:06.42	131.01	45.29	-30.3	-32.9	19.3	6.07e-01	0	43	0	436207616	22	4845
2026-01-30 11:49:07.42	130.72	45.61	-30.5	-33.4	19.0	6.07e-01	0	43	0	437780480	22	5030
2026-01-30 11:49:08.42	130.43	45.94	-30.2	-32.7	19.4	6.07e-01	0	43	0	439877632	22	4785
2026-01-30 11:49:09.43	130.12	46.28	-30.2	-32.6	19.5	6.09e-01	0	43	0	441450496	22	4764
2026-01-30 11:49:10.44	129.81	46.61	-30.4	-33.1	19.2	6.07e-01	0	43	0	443547648	22	4912
2026-01-30 11:49:11.43	129.50	46.94	-30.2	-32.5	19.5	6.07e-01	0	43	0	445644800	22	4730
2026-01-30 11:49:12.44	129.18	47.28	-30.4	-33.2	19.2	6.05e-01	0	43	0	447217664	22	4961
2026-01-30 11:49:13.44	128.85	47.62	-30.4	-33.2	19.1	6.07e-01	0	43	0	449314816	22	4961
2026-01-30 11:49:14.45	128.51	47.96	-30.1	-32.3	19.7	6.06e-01	0	43	0	451411968	22	4660
2026-01-30 11:49:15.45	128.17	48.30	-30.4	-33.1	19.2	6.07e-01	0	43	0	452984832	22	4938
2026-01-30 11:49:16.46	127.81	48.65	-30.4	-33.0	19.2	6.10e-01	0	43	0	455081984	22	4902
2026-01-30 11:49:17.46	127.45	48.99	-30.4	-33.1	19.3	6.07e-01	0	43	0	456654848	22	4930
2026-01-30 11:49:18.46	127.08	49.34	-30.5	-33.5	19.0	6.05e-01	0	43	0	458752000	22	5084
2026-01-30 11:49:19.46	126.71	49.68	-29.9	-31.9	20.0	6.07e-01	0	43	0	460324864	22	4534
2026-01-30 11:49:20.47	126.32	50.03	-30.0	-32.6	19.9	6.08e-01	0	43	0	462422016	21	4868
2026-01-30 11:49:21.47	125.92	50.38	-30.1	-32.9	19.7	6.04e-01	0	43	0	464519168	21	4974
2026-01-30 11:49:22.47	125.52	50.74	-30.1	-33.0	19.6	6.08e-01	0	43	0	466092032	21	5003
2026-01-30 11:49:23.47	125.11	51.09	-29.8	-32.1	20.1	6.07e-01	0	43	0	468189184	21	4698
2026-01-30 11:49:24.47	124.68	51.44	-29.6	-31.7	20.4	6.07e-01	0	43	0	469762048	21	4564
2026-01-30 11:49:25.47	124.25	51.80	-30.0	-32.6	19.8	6.06e-01	0	43	0	471859200	21	4881
2026-01-30 11:49:26.48	123.80	52.16	-29.8	-32.2	20.0	6.06e-01	0	43	0	473432064	21	4731
2026-01-30 11:49:27.48	123.35	52.51	-29.7	-31.9	20.3	6.06e-01	0	43	0	475529216	21	4629
2026-01-30 11:49:28.48	122.88	52.87	-29.9	-32.4	19.9	6.07e-01	0	43	0	477626368	21	4800
2026-01-30 11:49:29.49	122.40	53.23	-29.7	-32.0	20.2	6.08e-01	0	43	0	479199232	21	4652
2026-01-30 11:49:30.50	121.90	53.59	-30.0	-32.7	19.8	6.06e-01	0	43	0	481296384	21	4883
2026-01-30 11:49:31.50	121.40	53.95	-29.9	-32.3	20.0	6.06e-01	0	43	0	482869248	21	4762
2026-01-30 11:49:32.50	120.88	54.31	-29.9	-32.3	20.0	6.07e-01	0	43	0	484966400	21	4780
2026-01-30 11:49:33.50	120.35	54.67	-29.4	-31.1	20.7	6.08e-01	0	43	0	487063552	21	4382
2026-01-30 11:49:34.50	119.81	55.03	-29.7	-31.7	20.4	6.07e-01	0	43	0	488636416	21	4581
2026-01-30 11:49:35.50	119.25	55.39	-29.8	-32.2	20.1	6.08e-01	0	43	0	490733568	21	4727
2026-01-30 11:49:36.50	118.68	55.75	-29.7	-31.8	20.3	6.07e-01	0	43	0	492306432	21	4614
2026-01-30 11:49:37.50	118.10	56.11	-29.8	-32.2	20.1	6.06e-01	0	43	0	494403584	21	4730
2026-01-30 11:49:38.50	117.49	56.47	-30.1	-32.8	19.8	6.08e-01	0	43	0	496500736	21	4935
2026-01-30 11:49:39.51	116.87	56.83	-30.2	-33.2	19.5	6.05e-01	0	43	0	498073600	21	5085
2026-01-30 11:49:40.51	116.23	57.18	-30.0	-32.6	19.9	6.05e-01	0	43	0	500170752	21	4874
2026-01-30 11:49:41.52	115.58	57.54	-30.4	-33.6	19.3	6.06e-01	0	43	0	501743616	21	5236
2026-01-30 11:49:42.52	114.91	57.90	-30.6	-33.7	18.9	6.03e-01	0	43	0	503840768	22	5135
2026-01-30 11:49:43.52	114.22	58.25	-30.5	-33.3	19.1	6.04e-01	0	43	0	505413632	22	4997
2026-01-30 11:49:44.52	113.51	58.60	-30.7	-33.9	18.9	6.07e-01	0	43	0	507510784	22	5196
2026-01-30 11:49:45.52	112.79	58.95	-30.7	-34.0	18.7	6.06e-01	0	43	0	509607936	22	5262
2026-01-30 11:49:46.53	112.04	59.30	-30.6	-33.6	19.0	6.07e-01	0	43	0	511180800	22	5112
2026-01-30 11:49:47.53	111.27	59.64	-30.5	-33.4	19.1	6.08e-01	0	43	0	513277952	22	5040
2026-01-30 11:49:48.53	110.49	59.98	-30.9	-34.6	18.4	6.07e-01	0	43	0	514850816	22	5513
2026-01-30 11:49:49.54	109.68	60.32	-30.4	-33.2	19.2	6.04e-01	0	43	0	516947968	22	4947
2026-01-30 11:49:50.53	108.86	60.66	-30.8	-34.3	18.7	6.05e-01	0	43	0	518520832	22	5365
2026-01-30 11:49:51.53	108.01	60.99	-30.7	-33.9	18.9	6.07e-01	0	43	0	520617984	22	5216
2026-01-30 11:49:52.53	107.13	61.31	-30.8	-34.1	18.6	6.06e-01	0	43	0	522715136	22	5290
2026-01-30 11:49:53.53	106.24	61.64	-30.8	-34.2	18.7	6.07e-01	0	43	0	524288000	22	5306
2026-01-30 11:49:54.52	105.33	61.95	-31.2	-34.8	18.0	6.05e-01	0	43	0	526385152	23	5441
2026-01-30 11:49:55.52	104.38	62.26	-31.1	-34.4	18.2	6.06e-01	0	43	0	527958016	23	5295
2026-01-30 11:49:56.53	103.41	62.58	-31.1	-34.4	18.3	6.09e-01	0	43	0	530055168	23	5292
2026-01-30 11:49:57.52	102.42	62.87	-31.0	-34.3	18.4	6.06e-01	0	43	0	531628032	23	5222
2026-01-30 11:49:58.53	101.39	63.17	-31.3	-35.1	17.7	6.05e-01	0	43	0	533725184	23	5579
2026-01-30 11:49:59.54	100.34	63.47	-30.9	-33.8	18.7	6.08e-01	0	43	0	535822336	23	5048
2026-01-30 11:50:00.54	99.27	63.75	-31.2	-34.7	18.0	6.08e-01	0	43	0	537395200	23	5402
2026-01-30 11:50:01.54	98.17	64.02	-31.5	-35.7	17.5	6.05e-01	0	43	0	539492352	23	5807
2026-01-30 11:50:02.54	97.05	64.29	-31.1	-34.5	18.3	6.04e-01	0	43	0	541065216	23	5314
2026-01-30 11:50:03.54	95.90	64.55	-31.6	-35.2	17.4	6.08e-01	0	43	0	543162368	24	5497
2026-01-30 11:50:04.55	94.71	64.81	-31.8	-36.0	17.0	6.05e-01	0	43	0	545259520	24	5820
2026-01-30 11:50:05.55	93.51	65.05	-31.7	-35.6	17.2	6.06e-01	0	43	0	546832384	24	5658
2026-01-30 11:50:06.56	92.27	65.28	-31.8	-36.0	17.0	6.08e-01	0	43	0	548929536	24	5832
2026-01-30 11:50:07.56	91.02	65.51	-32.2	-36.8	16.1	6.07e-01	0	43	0	550502400	25	6131
2026-01-30 11:50:08.57	89.73	65.72	-31.9	-35.9	16.7	6.08e-01	0	43	0	552599552	25	5684
2026-01-30 11:50:09.58	88.42	65.92	-32.1	-36.3	16.4	6.07e-01	0	43	0	554696704	25	5868
2026-01-30 11:50:10.58	87.09	66.12	-32.4	-37.4	15.6	6.06e-01	0	43	0	556269568	25	6433
2026-01-30 11:50:11.58	85.74	66.30	-32.0	-36.1	16.5	6.07e-01	0	43	0	558366720	25	5772
2026-01-30 11:50:12.58	84.37	66.46	-32.4	-37.4	15.7	6.08e-01	0	43	0	559939584	25	6411
2026-01-30 11:50:13.58	82.98	66.62	-32.1	-36.4	16.4	6.05e-01	0	43	0	562036736	25	5922
2026-01-30 11:50:14.58	81.57	66.76	-32.2	-36.8	16.1	6.06e-01	0	43	0	563609600	25	6109
2026-01-30 11:50:15.58	80.13	66.89	-32.0	-36.1	16.5	6.10e-01	0	43	0	565706752	25	5774
2026-01-30 11:50:16.58	78.69	67.01	-32.3	-37.0	16.1	6.09e-01	0	43	0	567803904	25	6194
2026-01-30 11:50:17.59	77.21	67.11	-32.0	-36.1	16.6	6.07e-01	0	43	0	569376768	25	5726
2026-01-30 11:50:18.59	75.73	67.20	-32.1	-36.4	16.4	6.07e-01	0	43	0	571473920	25	5878
2026-01-30 11:50:19.59	74.25	67.28	-32.0	-35.9	16.8	6.06e-01	0	43	0	573046784	25	5671
2026-01-30 11:50:20.59	72.75	67.34	-32.4	-46.3	3.8	7.47e-01	0	43	104	574619648	25	18029
2026-01-30 11:50:21.60	71.23	67.39	-32.4	-46.2	3.8	7.43e-01	0	43	104	574619648	25	17577
2026-01-30 11:50:22.60	69.71	67.42	-32.5	-46.5	3.8	7.46e-01	0	43	104	574619648	25	18146
2026-01-30 11:50:23.60	68.20	67.44	-32.5	-46.9	3.8	7.47e-01	0	43	104	574619648	25	18766
2026-01-30 11:50:24.61	66.67	67.45	-32.6	-46.8	3.8	7.44e-01	0	43	104	574619648	25	18552
2026-01-30 11:50:25.61	65.15	67.44	-32.6	-46.1	3.8	7.45e-01	0	43	104	574619648	26	17140
2026-01-30 11:50:26.62	63.62	67.41	-32.8	-47.4	3.8	7.45e-01	0	43	104	574619648	26	19195
2026-01-30 11:50:27.62	62.11	67.37	-33.0	-47.3	3.8	7.45e-01	0	43	104	574619648	26	18869
2026-01-30 11:50:28.62	60.61	67.32	-33.1	-47.8	3.9	7.42e-01	0	43	104	574619648	26	19593
2026-01-30 11:50:29.62	59.11	67.25	-33.1	-47.5	3.8	7.47e-01	0	43	104	574619648	27	18968
2026-01-30 11:50:30.63	57.62	67.17	-33.2	-48.1	3.8	7.43e-01	0	43	104	574619648	27	19876
2026-01-30 11:50:31.63	56.15	67.07	-33.4	-48.4	3.8	7.46e-01	0	43	104	574619648	27	20349
2026-01-30 11:50:32.63	54.69	66.96	-33.3	-48.3	3.8	7.45e-01	0	43	104	574619648	27	20172
2026-01-30 11:50:33.63	53.25	66.84	-33.3	-48.3	3.8	7.46e-01	0	43	104	574619648	27	20298
2026-01-30 11:50:34.63	51.83	66.71	-33.2	-47.7	3.8	7.47e-01	0	43	104	574619648	27	19135
2026-01-30 11:50:35.64	50.41	66.56	-33.3	-47.9	3.8	7.42e-01	0	43	104	574619648	27	19482
2026-01-30 11:50:36.64	49.03	66.39	-33.5	-49.4	3.8	7.46e-01	0	43	104	574619648	27	22376
2026-01-30 11:50:37.65	47.66	66.22	-33.7	-49.6	3.8	7.47e-01	0	43	104	574619648	28	22649
2026-01-30 11:50:38.66	46.30	66.03	-33.7	-49.6	3.8	7.45e-01	0	43	104	574619648	28	22507
2026-01-30 11:50:39.66	44.99	65.84	-33.9	-51.3	3.8	7.44e-01	0	43	104	574619648	28	26551
2026-01-30 11:50:40.66	43.70	65.63	-34.0	-51.7	3.8	7.43e-01	0	43	104	574619648	28	27514
2026-01-30 11:50:41.66	42.43	65.41	-34.0	-51.5	3.8	7.44e-01	0	43	104	574619648	28	27071
2026-01-30 11:50:42.66	41.19	65.19	-34.0	-51.4	3.8	7.46e-01	0	43	104	574619648	28	26842
2026-01-30 11:50:43.66	39.98	64.95	-34.1	-52.1	3.8	7.46e-01	0	43	104	574619648	28	28734
2026-01-30 11:50:44.67	38.78	64.70	-34.1	-51.9	3.8	7.47e-01	0	43	104	574619648	28	28048
2026-01-30 11:50:45.66	37.63	64.45	-34.2	-51.7	3.8	7.45e-01	0	43	104	574619648	29	27160
2026-01-30 11:50:46.66	36.49	64.19	-34.2	-51.7	3.8	7.44e-01	0	43	104	574619648	29	26969
2026-01-30 11:50:47.66	35.38	63.92	-34.3	-52.3	3.8	7.48e-01	0	43	104	574619648	29	28622
2026-01-30 11:50:48.66	34.29	63.64	-34.3	-51.9	3.8	7.44e-01	0	43	104	574619648	29	27464
2026-01-30 11:50:49.66	33.24	63.36	-34.2	-51.5	3.8	7.48e-01	0	43	104	574619648	29	26464
2026-01-30 11:50:50.66	32.20	63.07	-34.1	-51.2	3.8	7.44e-01	0	43	104	574619648	29	25882
2026-01-30 11:50:51.66	31.20	62.77	-34.0	-50.2	3.8	7.46e-01	0	43	104	574619648	29	23467
2026-01-30 11:50:52.67	30.20	62.46	-33.8	-49.6	3.8	7.44e-01	0	43	104	574619648	29	22129
2026-01-30 11:50:53.67	29.25	62.15	-33.8	-49.9	3.8	7.44e-01	0	43	104	574619648	29	22937
2026-01-30 11:50:54.68	28.31	61.83	-33.9	-50.5	3.8	7.46e-01	0	43	104	574619648	29	24124
2026-01-30 11:50:55.68	27.40	61.51	-33.9	-50.2	3.8	7.43e-01	0	43	104	574619648	29	23413
2026-01-30 11:50:56.69	26.50	61.19	-33.8	-50.0	3.8	7.46e-01	0	43	104	574619648	29	23066
2026-01-30 11:50:57.69	25.64	60.86	-33.8	-50.0	3.8	7.45e-01	0	43	104	574619648	29	23206
2026-01-30 11:50:58.69	24.80	60.53	-33.6	-48.8	3.8	7.43e-01	0	43	104	574619648	29	20741
2026-01-30 11:50:59.70	23.98	60.19	-33.3	-48.3	3.8	7.48e-01	0	43	104	574619648	28	20136
2026-01-30 11:51:00.70	23.18	59.85	-33.2	-47.6	3.8	7.44e-01	0	43	104	574619648	28	18941
2026-01-30 11:51:01.71	22.40	59.51	-33.0	-47.2	3.8	7.46e-01	0	43	104	574619648	28	18545
2026-01-30 11:51:02.72	21.64	59.16	-32.9	-46.8	3.8	7.41e-01	0	43	104	574619648	28	17899
2026-01-30 11:51:03.72	20.90	58.81	-32.7	-46.5	3.8	7.45e-01	0	43	104	574619648	27	17488
2026-01-30 11:51:04.72	20.19	58.46	-32.7	-46.1	3.8	7.47e-01	0	43	104	574619648	27	16847
2026-01-30 11:51:05.73	19.48	58.11	-32.8	-46.8	3.8	7.44e-01	0	43	104	574619648	27	18128
2026-01-30 11:51:06.73	18.81	57.76	-32.5	-45.7	3.8	7.47e-01	0	43	104	574619648	27	16445
2026-01-30 11:51:07.73	18.15	57.40	-31.9	-44.4	3.8	7.46e-01	0	43	104	574619648	26	15248
2026-01-30 11:51:08.74	17.50	57.05	-31.2	-43.4	3.8	7.44e-01	0	43	104	574619648	24	14589
2026-01-30 11:51:09.74	16.87	56.69	-30.8	-42.9	3.8	7.47e-01	0	43	104	574619648	23	14414
2026-01-30 11:51:10.74	16.26	56.33	-30.4	-42.2	3.8	7.45e-01	0	43	104	574619648	23	13979
2026-01-30 11:51:11.75	15.66	55.97	-29.8	-41.3	3.8	7.46e-01	0	43	104	574619648	21	13488
2026-01-30 11:51:12.75	15.08	55.61	-29.9	-41.9	3.8	7.46e-01	0	43	104	574619648	21	14313
2026-01-30 11:51:13.75	14.52	55.26	-29.6	-40.8	3.8	7.45e-01	0	43	104	574619648	21	13027
2026-01-30 11:51:14.75	13.97	54.90	-29.5	-40.9	3.8	7.45e-01	0	43	104	574619648	21	13277
2026-01-30 11:51:15.76	13.43	54.54	-29.5	-40.9	3.8	7.42e-01	0	43	104	574619648	21	13313
2026-01-30 11:51:16.76	12.90	54.18	-29.5	-40.9	3.8	7.45e-01	0	43	104	574619648	21	13296
2026-01-30 11:51:17.77	12.39	53.82	-29.6	-40.8	3.8	7.47e-01	0	43	104	574619648	21	13085
2026-01-30 11:51:18.78	11.89	53.45	-29.6	-41.2	3.8	7.45e-01	0	43	104	574619648	21	13736
2026-01-30 11:51:19.79	11.40	53.09	-29.5	-40.7	3.8	7.44e-01	0	43	104	574619648	21	13082
2026-01-30 11:51:20.79	10.93	52.74	-29.5	-40.7	3.8	7.45e-01	0	43	104	574619648	21	13087
2026-01-30 11:51:21.79	10.47	52.38	-29.7	-41.1	3.8	7.44e-01	0	43	104	574619648	21	13397
2026-01-30 11:51:22.79	10.02	52.03	-30.0	-42.1	3.8	7.45e-01	0	43	104	574619648	21	14471
2026-01-30 11:51:23.79	9.58	51.67	-30.5	-43.2	3.8	7.42e-01	0	43	104	574619648	21	15495
2026-01-30 11:51:24.80	9.15	51.32	-31.0	-44.2	3.8	7.45e-01	0	43	104	574619648	22	16447
2026-01-30 11:51:25.80	8.73	50.97	-31.3	-44.3	3.8	7.45e-01	0	43	104	574619648	23	15966
2026-01-30 11:51:26.81	8.32	50.61	-31.7	-44.9	3.8	7.43e-01	0	43	104	574619648	24	16373
2026-01-30 11:51:27.82	7.91	50.26	-32.1	-45.8	3.8	7.46e-01	0	43	104	574619648	24	17606
2026-01-30 11:51:28.83	7.52	49.91	-32.4	-46.4	3.8	7.44e-01	0	43	104	574619648	25	18050
2026-01-30 11:51:29.83	7.14	49.56	-32.8	-47.2	3.8	7.42e-01	0	43	104	574619648	26	18831
2026-01-30 11:51:30.83	6.77	49.22	-33.2	-48.2	3.8	7.41e-01	0	43	104	574619648	27	20322
2026-01-30 11:51:31.84	6.40	48.87	-33.4	-49.0	3.8	7.44e-01	0	43	104	574619648	27	21639
2026-01-30 11:51:32.84	6.05	48.53	-33.5	-49.2	3.8	7.44e-01	0	43	104	574619648	28	21902
2026-01-30 11:51:33.84	5.70	48.19	-33.6	-49.5	3.8	7.42e-01	0	43	104	574619648	28	22314
2026-01-30 11:51:34.85	5.36	47.84	-33.7	-50.0	3.8	7.47e-01	0	43	104	574619648	28	23287
2026-01-30 11:51:35.85	5.03	47.51	-33.9	-50.7	3.8	7.45e-01	0	43	104	574619648	28	25035
2026-01-30 11:51:36.85	4.70	47.17	-33.9	-51.3	3.8	7.44e-01	0	43	104	574619648	28	26514
2026-01-30 11:51:37.86	4.38	46.84	-34.0	-51.8	3.8	7.44e-01	0	43	104	574619648	28	27764
2026-01-30 11:51:38.86	4.07	46.50	-34.0	-51.3	3.8	7.44e-01	0	43	104	574619648	28	26417
2026-01-30 11:51:39.86	3.77	46.17	-33.8	-50.7	3.8	7.45e-01	0	43	104	574619648	28	24948
2026-01-30 11:51:40.86	3.47	45.85	-33.7	-50.0	3.8	7.44e-01	0	43	104	574619648	28	23428
2026-01-30 11:51:41.86	3.18	45.52	-33.6	-49.4	3.8	7.45e-01	0	43	104	574619648	28	22297
2026-01-30 11:51:42.87	2.89	45.19	-33.5	-49.2	3.8	7.44e-01	0	43	104	574619648	28	21790
2026-01-30 11:51:43.87	2.62	44.87	-33.6	-49.6	3.8	7.44e-01	0	43	104	574619648	28	22576
2026-01-30 11:51:44.88	2.34	44.55	-33.6	-49.5	3.8	7.46e-01	0	43	104	574619648	28	22674
2026-01-30 11:51:45.87	2.07	44.23	-33.5	-49.2	3.8	7.45e-01	0	43	104	574619648	28	21977
2026-01-30 11:51:46.88	1.81	43.92	-33.3	-48.3	3.8	7.45e-01	0	43	104	574619648	28	20373
2026-01-30 11:51:47.88	1.55	43.60	-33.0	-47.2	3.8	7.47e-01	0	43	104	574619648	28	18454
2026-01-30 11:51:48.88	1.30	43.29	-32.8	-46.8	3.8	7.41e-01	0	43	104	574619648	27	17987
2026-01-30 11:51:49.88	1.05	42.98	-32.6	-46.1	3.8	7.43e-01	0	43	104	574619648	27	17037
2026-01-30 11:51:50.89	0.81	42.67	-32.5	-45.8	3.8	7.43e-01	0	43	104	574619648	27	16777
2026-01-30 11:51:51.90	0.57	42.36	-32.4	-45.7	3.8	7.45e-01	0	43	104	574619648	27	16681
2026-01-30 11:51:52.91	0.34	42.05	-32.4	-45.5	3.8	7.45e-01	0	43	104	574619648	27	16207
2026-01-30 11:51:53.91	0.11	41.75	-32.5	-45.7	3.8	7.42e-01	0	43	104	574619648	27	16475
2026-01-30 11:51:54.92	359.88	41.45	-32.6	-46.1	3.8	7.47e-01	0	43	104	574619648	27	16958
2026-01-30 11:51:55.92	359.66	41.15	-32.9	-46.8	3.8	7.43e-01	0	43	104	574619648	27	18022
2026-01-30 11:51:56.92	359.45	40.86	-32.6	-45.9	3.8	7.47e-01	0	43	104	574619648	27	16702
2026-01-30 11:51:57.93	359.23	40.56	-32.1	-45.2	3.8	7.46e-01	0	43	104	574619648	26	16146
2026-01-30 11:51:58.93	359.03	40.27	-31.9	-45.2	3.8	7.45e-01	0	43	104	574619648	25	16604
2026-01-30 11:51:59.94	358.82	39.98	-31.6	-44.0	3.8	7.45e-01	0	44	104	574619648	25	15127
2026-01-30 11:52:00.94	358.62	39.69	-31.3	-43.7	3.8	7.43e-01	0	43	104	574619648	24	14958
2026-01-30 11:52:01.95	358.42	39.41	-31.2	-43.5	3.8	7.45e-01	0	43	104	574619648	24	14826
2026-01-30 11:52:02.95	358.23	39.13	-31.4	-44.4	3.8	7.43e-01	0	43	104	574619648	24	16092
2026-01-30 11:52:03.96	358.04	38.84	-31.1	-43.5	3.8	7.42e-01	0	43	104	574619648	24	14963
2026-01-30 11:52:04.96	357.85	38.56	-30.9	-42.8	3.8	7.47e-01	0	43	104	574619648	24	14073
2026-01-30 11:52:05.97	357.67	38.28	-30.8	-42.8	3.8	7.45e-01	0	43	104	574619648	23	14383
2026-01-30 11:52:06.98	357.49	38.01	-30.8	-42.9	3.8	7.45e-01	0	43	104	574619648	23	14518
2026-01-30 11:52:07.98	357.31	37.74	-30.9	-43.3	3.8	7.44e-01	0	43	104	574619648	23	15108
2026-01-30 11:52:08.99	357.14	37.46	-31.0	-43.8	3.8	7.43e-01	0	43	104	574619648	23	15745
2026-01-30 11:52:09.99	356.97	37.20	-31.2	-44.2	3.8	7.43e-01	0	43	104	574619648	23	16033
2026-01-30 11:52:11.00	356.80	36.93	-31.5	-44.9	3.8	7.43e-01	0	43	104	574619648	23	16851
2026-01-30 11:52:12.00	356.63	36.66	-31.9	-45.4	3.8	7.42e-01	0	43	104	574619648	24	17019
2026-01-30 11:52:13.01	356.47	36.40	-32.2	-46.2	3.8	7.43e-01	0	43	104	574619648	25	18045
2026-01-30 11:52:14.01	356.31	36.14	-32.6	-47.3	3.8	7.47e-01	0	43	104	574619648	25	19716
2026-01-30 11:52:15.01	356.15	35.88	-32.9	-47.8	3.8	7.47e-01	0	43	104	574619648	26	20133
2026-01-30 11:52:16.02	356.00	35.62	-32.9	-47.8	3.8	7.46e-01	0	43	104	574619648	26	20068
2026-01-30 11:52:17.02	355.85	35.37	-32.9	-47.9	3.8	7.43e-01	0	43	104	574619648	26	20154
2026-01-30 11:52:18.03	355.70	35.11	-33.0	-48.3	3.8	7.47e-01	0	43	104	574619648	26	20867
2026-01-30 11:52:19.03	355.55	34.86	-33.1	-48.4	3.8	7.44e-01	0	43	104	574619648	27	20792
2026-01-30 11:52:20.04	355.40	34.61	-33.3	-48.9	3.8	7.46e-01	0	43	104	574619648	27	21792
2026-01-30 11:52:21.04	355.26	34.37	-33.4	-49.4	3.8	7.43e-01	0	43	104	574619648	27	22753
2026-01-30 11:52:22.05	355.12	34.12	-33.5	-50.0	3.8	7.45e-01	0	43	104	574619648	27	23921
2026-01-30 11:52:23.06	354.98	33.87	-33.6	-50.0	3.8	7.45e-01	0	43	104	574619648	28	23767
2026-01-30 11:52:24.05	354.85	33.64	-33.7	-50.5	3.8	7.43e-01	0	43	104	574619648	28	25006
2026-01-30 11:52:25.05	354.72	33.40	-33.8	-50.9	3.8	7.45e-01	0	43	104	574619648	28	25863
2026-01-30 11:52:26.05	354.58	33.16	-33.8	-51.3	3.8	7.46e-01	0	43	104	574619648	28	26804
2026-01-30 11:52:27.05	354.46	32.92	-33.8	-50.9	3.8	7.43e-01	0	43	104	574619648	28	26001
2026-01-30 11:52:28.05	354.33	32.69	-33.8	-51.4	3.8	7.43e-01	0	43	104	574619648	28	27175
2026-01-30 11:52:29.06	354.20	32.46	-33.7	-50.9	3.8	7.45e-01	0	43	104	574619648	28	26170
2026-01-30 11:52:30.06	354.08	32.23	-33.6	-50.3	3.8	7.44e-01	0	43	104	574619648	28	24633
2026-01-30 11:52:31.07	353.96	32.00	-33.5	-49.6	3.8	7.42e-01	0	43	104	574619648	28	23097
2026-01-30 11:52:32.07	353.84	31.77	-33.4	-49.1	3.8	7.45e-01	0	43	104	574619648	28	22078
2026-01-30 11:52:33.07	353.72	31.54	-33.3	-48.5	3.8	7.42e-01	0	43	104	574619648	28	20893
2026-01-30 11:52:34.08	353.60	31.32	-33.1	-47.9	3.8	7.45e-01	0	43	104	574619648	28	19788
2026-01-30 11:52:35.08	353.49	31.10	-32.9	-47.4	3.8	7.46e-01	0	43	104	574619648	28	18927
2026-01-30 11:52:36.09	353.37	30.87	-32.8	-47.1	3.8	7.44e-01	0	43	104	574619648	27	18750
2026-01-30 11:52:37.09	353.26	30.66	-32.4	-45.9	3.8	7.38e-01	0	43	104	574619648	27	16955
2026-01-30 11:52:38.10	353.15	30.44	-32.1	-45.2	3.8	7.46e-01	0	43	104	574619648	26	16335
2026-01-30 11:52:39.10	353.04	30.22	-31.7	-44.5	3.8	7.47e-01	0	44	104	574619648	25	15846
2026-01-30 11:52:40.10	352.94	30.01	-31.2	-43.9	3.8	7.45e-01	0	43	104	574619648	24	15429
2026-01-30 11:52:41.11	352.83	29.80	-31.1	-43.6	3.9	7.44e-01	0	43	104	574619648	24	15101
2026-01-30 11:52:42.11	352.73	29.59	-31.1	-43.6	3.8	7.43e-01	0	43	104	574619648	24	15190
2026-01-30 11:52:43.11	352.62	29.38	-31.1	-43.6	3.8	7.45e-01	0	43	104	574619648	24	15126
2026-01-30 11:52:44.11	352.52	29.17	-31.3	-44.1	3.8	7.43e-01	0	43	104	574619648	24	15688
2026-01-30 11:52:45.12	352.42	28.96	-31.4	-44.4	3.8	7.46e-01	0	43	104	574619648	24	16158
2026-01-30 11:52:46.12	352.32	28.76	-31.7	-45.2	3.8	7.45e-01	0	43	104	574619648	24	17127
2026-01-30 11:52:47.13	352.23	28.55	-31.3	-44.0	3.9	7.46e-01	0	43	104	574619648	24	15599
2026-01-30 11:52:48.13	352.13	28.35	-31.0	-43.1	3.8	7.45e-01	0	43	104	574619648	24	14529
2026-01-30 11:52:49.13	352.04	28.15	-30.7	-42.6	3.8	7.44e-01	0	43	104	574619648	23	14282
2026-01-30 11:52:50.14	351.94	27.95	-30.5	-42.2	3.8	7.47e-01	0	43	104	574619648	23	13903
2026-01-30 11:52:51.13	351.85	27.76	-30.8	-43.2	3.8	7.47e-01	0	43	104	574619648	23	14918
2026-01-30 11:52:52.14	351.76	27.56	-31.1	-44.1	3.8	7.47e-01	0	43	104	574619648	23	16034
2026-01-30 11:52:53.14	351.67	27.37	-31.4	-45.1	3.8	7.43e-01	0	43	104	574619648	23	17233
2026-01-30 11:52:54.15	351.58	27.17	-31.2	-44.4	3.9	7.42e-01	0	43	104	574619648	23	16481
2026-01-30 11:52:55.16	351.50	26.98	-30.9	-43.6	3.8	7.44e-01	0	43	104	574619648	23	15531
2026-01-30 11:52:56.16	351.41	26.79	-30.8	-43.2	3.8	7.40e-01	0	43	104	574619648	23	14953
2026-01-30 11:52:57.16	351.32	26.60	-30.6	-42.6	3.8	7.44e-01	0	43	104	574619648	23	14262
2026-01-30 11:52:58.17	351.24	26.41	-30.7	-42.6	3.8	7.44e-01	0	44	104	574619648	23	14226
2026-01-30 11:52:59.18	351.16	26.23	-31.1	-43.8	3.8	7.44e-01	0	43	104	574619648	23	15503
2026-01-30 11:53:00.18	351.08	26.04	-31.6	-45.0	3.8	7.48e-01	0	43	104	574619648	23	16974
2026-01-30 11:53:01.19	350.99	25.86	-32.1	-46.0	3.8	7.45e-01	0	43	104	574619648	24	17838
2026-01-30 11:53:02.19	350.91	25.68	-32.4	-46.8	3.8	7.47e-01	0	44	104	574619648	25	18821
2026-01-30 11:53:03.20	350.84	25.49	-32.8	-47.7	3.8	7.47e-01	0	43	104	574619648	26	19997
2026-01-30 11:53:04.20	350.76	25.31	-33.0	-48.6	3.8	7.45e-01	0	43	104	574619648	26	21653
2026-01-30 11:53:05.20	350.68	25.14	-33.2	-48.8	3.8	7.50e-01	0	43	104	574619648	27	21625
2026-01-30 11:53:06.21	350.60	24.96	-33.2	-48.9	3.8	7.41e-01	0	44	104	574619648	27	21861
2026-01-30 11:53:07.21	350.53	24.78	-33.3	-49.1	3.8	7.44e-01	0	43	104	574619648	27	22142
2026-01-30 11:53:08.22	350.46	24.61	-33.3	-49.4	3.8	7.46e-01	0	43	104	574619648	27	22752
2026-01-30 11:53:09.22	350.38	24.43	-33.4	-49.8	3.8	7.47e-01	0	43	104	574619648	27	23679
2026-01-30 11:53:10.23	350.31	24.26	-33.5	-50.3	3.8	7.46e-01	0	43	104	574619648	27	24705
2026-01-30 11:53:11.23	350.24	24.09	-33.5	-50.1	3.8	7.46e-01	0	43	104	574619648	28	24363
2026-01-30 11:53:12.24	350.17	23.92	-33.6	-50.6	3.8	7.44e-01	0	43	104	574619648	28	25533
2026-01-30 11:53:13.24	350.10	23.75	-33.7	-51.1	3.8	7.46e-01	0	43	104	574619648	28	26837
2026-01-30 11:53:14.25	350.03	23.58	-33.7	-51.5	3.8	7.46e-01	0	43	104	574619648	28	27767
2026-01-30 11:53:15.25	349.96	23.42	-33.7	-51.1	3.8	7.46e-01	0	43	104	574619648	28	26778
2026-01-30 11:53:16.26	349.89	23.25	-33.6	-50.7	3.8	7.45e-01	0	43	104	574619648	28	25838
2026-01-30 11:53:17.26	349.83	23.09	-33.5	-50.3	3.8	7.47e-01	0	43	104	574619648	28	24944
2026-01-30 11:53:18.26	349.76	22.92	-33.6	-50.5	3.8	7.48e-01	0	43	104	574619648	28	25342
2026-01-30 11:53:19.26	349.70	22.76	-33.5	-50.0	3.8	7.46e-01	0	43	104	574619648	28	24141
2026-01-30 11:53:20.27	349.63	22.60	-33.4	-49.5	3.8	7.46e-01	0	43	104	574619648	28	23082
2026-01-30 11:53:21.26	349.57	22.44	-33.3	-49.1	3.8	7.43e-01	0	44	104	574619648	28	22172
2026-01-30 11:53:22.27	349.51	22.28	-33.2	-48.7	3.8	7.45e-01	0	43	104	574619648	28	21401
2026-01-30 11:53:23.28	349.44	22.12	-33.1	-48.3	3.8	7.47e-01	0	43	104	574619648	28	20673
2026-01-30 11:53:24.28	349.38	21.97	-32.9	-47.5	3.8	7.45e-01	0	43	104	574619648	28	19329
2026-01-30 11:53:25.29	349.32	21.81	-32.7	-47.3	3.8	7.45e-01	0	43	104	574619648	27	19188
2026-01-30 11:53:26.29	349.26	21.65	-32.4	-46.3	3.8	7.42e-01	0	44	104	574619648	27	17689
2026-01-30 11:53:27.30	349.20	21.50	-32.1	-45.5	3.8	7.45e-01	0	43	104	574619648	26	16853
2026-01-30 11:53:28.31	349.14	21.34	-31.6	-44.7	3.8	7.43e-01	0	43	104	574619648	25	16168
2026-01-30 11:53:29.30	349.08	21.19	-31.2	-44.1	3.8	7.45e-01	0	43	104	574619648	24	15846
2026-01-30 11:53:30.31	349.03	21.04	-31.0	-43.3	3.8	7.43e-01	0	43	104	574619648	24	14915
2026-01-30 11:53:31.31	348.97	20.89	-30.9	-43.3	3.8	7.43e-01	0	43	104	574619648	24	14937
2026-01-30 11:53:32.31	348.91	20.74	-30.9	-43.2	3.8	7.45e-01	0	43	104	574619648	24	14847
2026-01-30 11:53:33.31	348.86	20.60	-31.0	-43.5	3.8	7.45e-01	0	43	104	574619648	24	15198
2026-01-30 11:53:34.32	348.80	20.45	-31.2	-44.1	3.8	7.45e-01	0	43	104	574619648	24	15874
2026-01-30 11:53:35.32	348.75	20.30	-31.4	-44.7	3.8	7.44e-01	0	43	104	574619648	24	16614
2026-01-30 11:53:36.33	348.69	20.16	-31.4	-44.8	3.8	7.42e-01	0	43	104	574619648	24	16742
2026-01-30 11:53:37.33	348.64	20.01	-31.2	-44.2	3.8	7.46e-01	0	43	104	574619648	24	16057
2026-01-30 11:53:38.33	348.59	19.87	-31.1	-43.8	3.8	7.47e-01	0	43	104	574619648	24	15543
2026-01-30 11:53:39.34	348.54	19.73	-31.3	-44.5	3.8	7.44e-01	0	43	104	574619648	24	16443
2026-01-30 11:53:40.34	348.49	19.58	-31.7	-45.6	3.8	7.44e-01	0	43	104	574619648	24	17844
2026-01-30 11:53:41.34	348.43	19.44	-31.9	-46.3	3.8	7.44e-01	0	43	104	574619648	24	18788
2026-01-30 11:53:42.35	348.38	19.30	-32.3	-47.0	3.8	7.41e-01	0	43	104	574619648	25	19461
2026-01-30 11:53:43.35	348.33	19.16	-32.3	-47.1	3.8	7.44e-01	0	43	104	574619648	25	19688
2026-01-30 11:53:44.35	348.28	19.03	-32.1	-46.4	3.8	7.46e-01	0	43	104	574619648	25	18607
2026-01-30 11:53:45.35	348.24	18.89	-31.9	-45.6	3.8	7.46e-01	0	43	104	574619648	25	17450
2026-01-30 11:53:46.36	348.19	18.75	-31.8	-45.2	3.8	7.47e-01	0	43	104	574619648	25	16867
2026-01-30 11:53:47.36	348.14	18.61	-31.8	-45.2	3.8	7.45e-01	0	43	104	574619648	25	16803
2026-01-30 11:53:48.36	348.09	18.48	-31.8	-45.3	3.8	7.44e-01	0	43	104	574619648	25	16883
2026-01-30 11:53:49.37	348.04	18.34	-32.1	-46.2	3.8	7.46e-01	0	43	104	574619648	25	18281
2026-01-30 11:53:50.37	348.00	18.21	-32.5	-47.4	3.8	7.45e-01	0	43	104	574619648	25	20118
2026-01-30 11:53:51.37	347.95	18.08	-32.7	-47.9	3.8	7.47e-01	0	43	104	574619648	26	20649
2026-01-30 11:53:52.37	347.91	17.95	-32.9	-48.6	3.8	7.43e-01	0	43	104	574619648	26	22058
2026-01-30 11:53:53.37	347.86	17.82	-33.0	-49.3	3.8	7.44e-01	0	44	104	574619648	26	23344
2026-01-30 11:53:54.38	347.82	17.68	-33.1	-49.1	3.8	7.44e-01	0	43	104	574619648	27	22713
2026-01-30 11:53:55.38	347.77	17.56	-33.2	-49.4	3.8	7.45e-01	0	43	104	574619648	27	23298
2026-01-30 11:53:56.39	347.73	17.43	-33.2	-49.5	3.8	7.42e-01	0	43	104	574619648	27	23566
2026-01-30 11:53:57.39	347.69	17.30	-33.2	-49.8	3.8	7.46e-01	0	43	104	574619648	27	24234
2026-01-30 11:53:58.40	347.64	17.17	-33.3	-50.1	3.8	7.46e-01	0	43	104	574619648	27	25020
2026-01-30 11:53:59.40	347.60	17.04	-33.3	-50.4	3.8	7.45e-01	0	43	104	574619648	27	25644
2026-01-30 11:54:00.41	347.56	16.92	-33.4	-50.8	3.8	7.46e-01	0	43	104	574619648	27	26578
2026-01-30 11:54:01.41	347.52	16.79	-33.5	-51.1	3.8	7.46e-01	0	43	104	574619648	27	27542
2026-01-30 11:54:02.42	347.47	16.66	-33.5	-51.3	3.8	7.43e-01	0	44	104	574619648	27	27888
2026-01-30 11:54:03.42	347.43	16.54	-33.4	-50.9	3.8	7.44e-01	0	43	104	574619648	27	26946
2026-01-30 11:54:04.42	347.39	16.42	-33.3	-50.4	3.8	7.47e-01	0	43	104	574619648	27	25680
2026-01-30 11:54:05.42	347.35	16.29	-33.2	-49.9	3.8	7.47e-01	0	43	104	574619648	27	24558
2026-01-30 11:54:06.43	347.31	16.17	-33.1	-49.2	3.8	7.43e-01	0	43	104	574619648	27	23165
2026-01-30 11:54:07.44	347.27	16.05	-33.0	-48.9	3.8	7.43e-01	0	43	104	574619648	27	22464
2026-01-30 11:54:08.45	347.23	15.93	-33.0	-49.1	3.8	7.44e-01	0	43	104	574619648	27	22935
2026-01-30 11:54:09.45	347.20	15.81	-32.9	-48.6	3.8	7.46e-01	0	43	104	574619648	27	21839
2026-01-30 11:54:10.45	347.16	15.69	-32.8	-48.1	3.8	7.45e-01	0	43	104	574619648	27	20984
2026-01-30 11:54:11.46	347.12	15.57	-32.7	-47.7	3.8	7.43e-01	0	43	104	574619648	27	20220
2026-01-30 11:54:12.46	347.08	15.45	-32.7	-47.5	3.8	7.43e-01	0	43	104	574619648	27	19895
2026-01-30 11:54:13.47	347.04	15.33	-32.5	-46.9	3.8	7.49e-01	0	44	104	574619648	27	18860
2026-01-30 11:54:14.47	347.01	15.22	-32.2	-46.2	3.8	7.44e-01	0	43	104	574619648	26	18116
2026-01-30 11:54:15.48	346.97	15.10	-31.8	-45.5	3.8	7.46e-01	0	43	104	574619648	25	17400
2026-01-30 11:54:16.48	346.93	14.98	-31.5	-44.5	3.8	7.45e-01	0	43	104	574619648	25	16036
2026-01-30 11:54:17.49	346.90	14.87	-31.1	-43.8	3.8	7.46e-01	0	43	104	574619648	24	15571
2026-01-30 11:54:18.49	346.86	14.75	-30.7	-43.1	3.8	7.45e-01	0	43	104	574619648	23	15029
2026-01-30 11:54:19.49	346.83	14.64	-30.3	-42.7	3.8	7.46e-01	0	43	104	574619648	22	14943
2026-01-30 11:54:20.49	346.79	14.53	-30.2	-42.2	3.8	7.41e-01	0	43	104	574619648	22	14394
2026-01-30 11:54:21.50	346.76	14.41	-30.2	-42.3	3.8	7.46e-01	0	43	104	574619648	22	14443
2026-01-30 11:54:22.50	346.72	14.30	-30.3	-42.5	3.8	7.46e-01	0	43	104	574619648	22	14749
2026-01-30 11:54:23.51	346.69	14.19	-30.4	-42.8	3.8	7.45e-01	0	43	104	574619648	22	15051
2026-01-30 11:54:24.51	346.66	14.08	-30.6	-43.6	3.8	7.44e-01	0	43	104	574619648	22	15960
2026-01-30 11:54:25.52	346.62	13.97	-30.9	-44.2	3.8	7.45e-01	0	43	104	574619648	22	16767
2026-01-30 11:54:26.53	346.59	13.85	-31.2	-44.7	3.8	7.48e-01	0	43	104	574619648	23	17057
2026-01-30 11:54:27.53	346.56	13.75	-31.4	-45.3	3.8	7.43e-01	0	43	104	574619648	23	17859
2026-01-30 11:54:28.53	346.52	13.64	-31.7	-45.7	3.8	7.42e-01	0	43	104	574619648	24	18096
2026-01-30 11:54:29.53	346.49	13.53	-32.0	-46.7	3.8	7.45e-01	0	43	104	574619648	24	19649
2026-01-30 11:54:30.53	346.46	13.42	-32.2	-47.1	3.8	7.42e-01	0	43	104	574619648	25	19885
2026-01-30 11:54:31.54	346.43	13.31	-32.5	-48.3	3.8	7.47e-01	0	43	104	574619648	25	22182
2026-01-30 11:54:32.54	346.40	13.21	-32.7	-48.6	3.8	7.47e-01	0	43	104	574619648	26	22301
2026-01-30 11:54:33.55	346.37	13.10	-32.8	-48.7	3.8	7.47e-01	0	43	104	574619648	26	22608
2026-01-30 11:54:34.55	346.33	12.99	-32.7	-48.5	3.8	7.43e-01	0	43	104	574619648	26	22088
2026-01-30 11:54:35.56	346.30	12.89	-32.6	-48.1	3.8	7.47e-01	0	43	104	574619648	26	21459
2026-01-30 11:54:36.56	346.27	12.78	-32.5	-47.7	3.8	7.44e-01	0	43	104	574619648	26	20675
2026-01-30 11:54:37.56	346.24	12.68	-32.4	-47.4	3.8	7.46e-01	0	43	104	574619648	26	20163
2026-01-30 11:54:38.57	346.21	12.57	-32.5	-47.8	3.8	7.43e-01	0	43	104	574619648	26	20826
2026-01-30 11:54:39.58	346.18	12.47	-32.7	-48.4	3.8	7.44e-01	0	43	104	574619648	26	21987
2026-01-30 11:54:40.59	346.15	12.37	-32.8	-48.9	3.8	7.45e-01	0	43	104	574619648	26	23131
2026-01-30 11:54:41.59	346.13	12.26	-32.9	-49.4	3.8	7.44e-01	0	43	104	574619648	26	24118
2026-01-30 11:54:42.59	346.10	12.16	-33.0	-49.7	3.8	7.45e-01	0	43	104	574619648	26	24815
2026-01-30 11:54:43.60	346.07	12.06	-33.0	-50.0	3.8	7.45e-01	0	44	104	574619648	26	25493
2026-01-30 11:54:44.61	346.04	11.96	-33.0	-49.8	3.8	7.41e-01	0	43	104	574619648	26	25142
2026-01-30 11:54:45.62	346.01	11.86	-33.0	-49.8	3.8	7.44e-01	0	44	104	574619648	26	25099
2026-01-30 11:54:46.63	345.98	11.75	-33.0	-50.1	3.8	7.47e-01	0	43	104	574619648	26	25779
2026-01-30 11:54:47.64	345.96	11.65	-33.0	-50.2	3.8	7.46e-01	0	43	104	574619648	26	26071
2026-01-30 11:54:48.65	345.93	11.55	-33.1	-50.4	3.8	7.45e-01	0	43	104	574619648	26	26594
2026-01-30 11:54:49.66	345.90	11.45	-33.1	-50.6	3.8	7.46e-01	0	44	104	574619648	26	27133
2026-01-30 11:54:50.66	345.87	11.36	-33.1	-50.6	3.8	7.46e-01	0	43	104	574619648	27	26730
2026-01-30 11:54:51.66	345.85	11.26	-33.1	-50.5	3.8	7.46e-01	0	43	104	574619648	27	26463
2026-01-30 11:54:52.67	345.82	11.16	-33.1	-50.1	3.8	7.43e-01	0	43	104	574619648	27	25631
2026-01-30 11:54:53.68	345.79	11.06	-33.0	-49.6	3.8	7.45e-01	0	44	104	574619648	27	24529
2026-01-30 11:54:54.68	345.77	10.97	-32.8	-49.0	3.8	7.44e-01	0	43	104	574619648	27	23273
2026-01-30 11:54:55.68	345.74	10.87	-32.7	-48.5	3.8	7.48e-01	0	44	104	574619648	27	22091
2026-01-30 11:54:56.69	345.72	10.77	-32.5	-47.5	3.8	7.43e-01	0	43	104	574619648	27	20185
2026-01-30 11:54:57.69	345.69	10.68	-32.5	-47.3	3.8	7.43e-01	0	43	104	574619648	27	19980
2026-01-30 11:54:58.70	345.67	10.58	-32.4	-47.2	3.8	7.45e-01	0	43	104	574619648	27	19707
2026-01-30 11:54:59.70	345.64	10.49	-32.3	-47.4	3.8	7.43e-01	0	44	104	574619648	26	20420
2026-01-30 11:55:00.71	345.62	10.39	-32.2	-47.1	3.8	7.48e-01	0	43	104	574619648	26	19824
2026-01-30 11:55:01.72	345.59	10.30	-32.2	-46.9	3.8	7.46e-01	0	43	104	574619648	26	19506
2026-01-30 11:55:02.73	345.57	10.21	-32.1	-46.7	3.8	7.43e-01	0	43	104	574619648	26	19197
2026-01-30 11:55:03.73	345.54	10.11	-31.9	-46.0	3.8	7.47e-01	0	44	104	574619648	26	18223
2026-01-30 11:55:04.74	345.52	10.02	-31.6	-45.4	3.8	7.46e-01	0	43	104	574619648	25	17572
2026-01-30 11:55:05.74	345.50	9.93	-31.3	-44.9	3.8	7.43e-01	0	43	104	574619648	24	17284
2026-01-30 11:55:06.75	345.47	9.83	-31.0	-43.9	3.8	7.44e-01	0	43	104	574619648	24	15954
2026-01-30 11:55:07.74	345.45	9.74	-30.7	-43.6	3.8	7.43e-01	0	43	104	574619648	23	15973
2026-01-30 11:55:08.74	345.43	9.65	-30.8	-43.9	3.8	7.47e-01	0	43	104	574619648	23	16315
2026-01-30 11:55:09.74	345.40	9.56	-31.1	-44.9	3.8	7.46e-01	0	43	104	574619648	23	17510
2026-01-30 11:55:10.74	345.38	9.47	-31.2	-45.2	3.8	7.45e-01	0	43	104	574619648	23	17928
2026-01-30 11:55:11.75	345.36	9.38	-31.2	-45.1	3.8	7.48e-01	0	43	104	574619648	23	17803
2026-01-30 11:55:12.76	345.33	9.29	-31.4	-45.5	3.8	7.44e-01	0	43	104	574619648	23	18252
2026-01-30 11:55:13.76	345.31	9.20	-31.5	-45.8	3.8	7.45e-01	0	43	104	574619648	23	18799
2026-01-30 11:55:14.77	345.29	9.11	-31.6	-45.8	3.9	7.46e-01	0	43	104	574619648	24	18478
2026-01-30 11:55:15.77	345.27	9.02	-31.8	-46.5	3.8	7.48e-01	0	43	104	574619648	24	19452
2026-01-30 11:55:16.77	345.25	8.94	-32.0	-47.3	3.8	7.42e-01	0	43	104	574619648	24	20942
2026-01-30 11:55:17.78	345.22	8.85	-32.3	-47.7	3.8	7.45e-01	0	43	104	574619648	25	21346
2026-01-30 11:55:18.78	345.20	8.76	-32.5	-48.6	3.8	7.42e-01	0	43	104	574619648	25	22960
2026-01-30 11:55:19.79	345.18	8.67	-32.6	-48.8	3.8	7.46e-01	0	43	104	574619648	26	23228
2026-01-30 11:55:20.79	345.16	8.58	-32.7	-49.3	3.8	7.45e-01	0	43	104	574619648	26	24137
2026-01-30 11:55:21.80	345.14	8.50	-32.8	-49.7	3.8	7.45e-01	0	43	104	574619648	26	25082
2026-01-30 11:55:22.80	345.12	8.41	-32.8	-49.9	3.8	7.46e-01	0	44	104	574619648	26	25648
2026-01-30 11:55:23.80	345.10	8.33	-32.8	-49.8	3.8	7.48e-01	0	43	104	574619648	26	25400
2026-01-30 11:55:24.81	345.08	8.24	-32.8	-49.5	3.8	7.43e-01	0	43	104	574619648	26	24864
2026-01-30 11:55:25.82	345.06	8.15	-32.7	-49.5	3.8	7.45e-01	0	44	104	574619648	26	24691
2026-01-30 11:55:26.82	345.04	8.07	-32.7	-49.1	3.8	7.45e-01	0	43	104	574619648	26	23962
2026-01-30 11:55:27.83	345.02	7.98	-32.6	-49.1	3.8	7.42e-01	0	43	104	574619648	26	23875
2026-01-30 11:55:28.83	345.00	7.90	-32.7	-49.3	3.8	7.44e-01	0	43	104	574619648	26	24402
2026-01-30 11:55:29.83	344.98	7.82	-32.7	-49.7	3.8	7.41e-01	0	43	104	574619648	26	25380
2026-01-30 11:55:30.83	344.96	7.73	-32.7	-49.8	3.8	7.44e-01	0	43	104	574619648	26	25674
2026-01-30 11:55:31.84	344.94	7.65	-32.8	-50.0	3.8	7.46e-01	0	44	104	574619648	26	26256
2026-01-30 11:55:32.84	344.92	7.56	-32.8	-50.0	3.8	7.43e-01	0	43	104	574619648	26	26083
2026-01-30 11:55:33.85	344.90	7.48	-32.7	-49.7	3.8	7.42e-01	0	43	104	574619648	26	25584
2026-01-30 11:55:34.86	344.88	7.40	-32.7	-49.5	3.8	7.44e-01	0	43	104	574619648	26	24950
2026-01-30 11:55:35.86	344.86	7.32	-32.7	-49.6	3.8	7.49e-01	0	43	104	574619648	26	25184
2026-01-30 11:55:36.87	344.84	7.23	-32.7	-49.6	3.8	7.44e-01	0	43	104	574619648	26	25261
2026-01-30 11:55:37.88	344.82	7.15	-32.6	-49.4	3.8	7.43e-01	0	43	104	574619648	26	24770
2026-01-30 11:55:38.88	344.81	7.07	-30.4	-42.6	3.8	7.43e-01	0	44	104	574619648	23	14706
2026-01-30 11:55:39.88	344.79	6.99	-33.6	-52.7	3.8	7.46e-01	0	43	104	574619648	28	32478

#Closed at: 2026-01-30 11:55:40
#Recorded file [574 MB]: D:/data/31010_260130_144513.dat