passes_logs/2026/01/30/R2M6_AANII_01/R2M6_AANII_01__20260130_100712_NOAA_20_JPSS-1_rec.log

#Pass ID: 20260130_100712_NOAA 20 (JPSS-1)
#Satellite: NOAA 20 (JPSS-1)
#Configuration: NOAA 20
#almurnet v.1.7.20240730
#Start time: 2026-01-30 10:07:14

#Version: 2.2.20231116
#Station: R2M6_AANII_01
#Location: 30.233357 lon 59.946436 lat
#TLE: 1 43013U 17073A   26029.42702672  .00000137  00000+0  85918-4 0  9993
#TLE: 2 43013  98.7646 330.2153 0000804  19.9045 340.2162 14.19525092424781

#Time	Az	El	Level	Level2	SNR	BER	BlckErr	Temp	State	Recorded	gain1	gain2
2026-01-30 10:07:14.08	153.80	7.10	-30.9	-38.4	4.8	1.33e+00	0	41	0	0	22	8509
2026-01-30 10:07:15.08	153.79	7.18	-31.2	-38.2	4.8	1.35e+00	0	41	104	0	23	8056
2026-01-30 10:07:16.08	153.79	7.26	-31.3	-38.8	6.4	2.09e-01	0	41	0	0	23	8475
2026-01-30 10:07:17.09	153.78	7.34	-31.3	-38.0	7.2	1.67e-01	0	41	0	1048576	23	7775
2026-01-30 10:07:18.09	153.77	7.42	-31.1	-37.1	7.8	8.99e-02	0	41	0	3145728	23	7201
2026-01-30 10:07:19.10	153.77	7.50	-30.8	-36.3	8.4	6.67e-02	0	41	0	5242880	23	6758
2026-01-30 10:07:20.10	153.76	7.58	-30.6	-36.2	8.8	3.38e-02	0	41	0	7340032	22	6842
2026-01-30 10:07:21.10	153.75	7.65	-30.4	-35.7	9.1	2.54e-02	0	41	0	9437184	22	6585
2026-01-30 10:07:22.10	153.75	7.73	-30.4	-35.6	9.2	1.94e-02	0	41	0	10485760	22	6543
2026-01-30 10:07:23.11	153.74	7.82	-30.5	-35.9	9.0	2.15e-02	0	41	0	12582912	22	6702
2026-01-30 10:07:24.11	153.73	7.90	-30.5	-35.9	9.0	2.44e-02	0	41	0	14680064	22	6692
2026-01-30 10:07:25.11	153.73	7.98	-30.5	-36.4	8.6	3.49e-02	0	41	0	16777216	22	7027
2026-01-30 10:07:26.11	153.72	8.06	-30.5	-36.1	8.9	3.31e-02	0	41	0	17825792	22	6809
2026-01-30 10:07:27.11	153.71	8.14	-30.5	-35.7	9.3	1.92e-02	0	41	0	19922944	22	6482
2026-01-30 10:07:28.12	153.70	8.22	-30.5	-35.1	9.9	1.20e-02	0	41	0	22020096	22	6113
2026-01-30 10:07:29.13	153.70	8.30	-30.5	-34.9	10.1	7.14e-03	0	41	0	24117248	22	5977
2026-01-30 10:07:30.13	153.69	8.38	-30.4	-34.7	10.3	5.97e-03	0	42	0	26214400	22	5883
2026-01-30 10:07:31.12	153.68	8.46	-30.4	-34.5	10.5	4.42e-03	0	41	0	27262976	22	5781
2026-01-30 10:07:32.13	153.67	8.55	-30.4	-34.5	10.5	4.44e-03	0	41	0	29360128	22	5766
2026-01-30 10:07:33.14	153.67	8.63	-30.3	-34.4	10.5	3.78e-03	0	41	0	31457280	22	5736
2026-01-30 10:07:34.14	153.66	8.71	-30.4	-34.4	10.5	3.80e-03	0	42	0	33554432	22	5758
2026-01-30 10:07:35.14	153.65	8.80	-30.4	-34.5	10.4	4.23e-03	0	42	0	35651584	22	5814
2026-01-30 10:07:36.15	153.64	8.88	-30.2	-34.7	10.5	3.97e-03	0	42	0	36700160	21	6047
2026-01-30 10:07:37.15	153.64	8.96	-30.2	-34.8	10.5	4.12e-03	0	42	0	38797312	21	6089
2026-01-30 10:07:38.16	153.63	9.05	-30.1	-34.5	10.7	3.40e-03	0	42	0	40894464	21	5976
2026-01-30 10:07:39.16	153.62	9.13	-30.0	-34.4	10.7	2.75e-03	0	42	0	42991616	21	5958
2026-01-30 10:07:40.16	153.61	9.22	-29.9	-34.5	10.6	2.89e-03	0	42	0	45088768	21	6082
2026-01-30 10:07:41.17	153.60	9.30	-29.9	-34.6	10.4	4.67e-03	0	42	0	46137344	21	6209
2026-01-30 10:07:42.17	153.60	9.39	-29.8	-34.3	10.6	3.55e-03	0	42	0	48234496	21	6052
2026-01-30 10:07:43.18	153.59	9.47	-29.9	-34.4	10.6	2.97e-03	0	42	0	50331648	21	6036
2026-01-30 10:07:44.18	153.58	9.56	-30.0	-34.5	10.6	3.47e-03	0	42	0	52428800	21	6040
2026-01-30 10:07:45.18	153.57	9.64	-29.9	-34.4	10.7	3.23e-03	0	42	0	54525952	21	6004
2026-01-30 10:07:46.19	153.56	9.73	-30.0	-34.5	10.7	2.86e-03	0	42	0	55574528	21	6029
2026-01-30 10:07:47.19	153.55	9.82	-30.1	-34.7	10.5	3.80e-03	0	42	0	57671680	21	6131
2026-01-30 10:07:48.19	153.54	9.91	-30.1	-34.6	10.7	3.29e-03	0	42	0	59768832	21	6036
2026-01-30 10:07:49.20	153.54	9.99	-30.2	-34.7	10.7	3.24e-03	0	42	0	61865984	21	6049
2026-01-30 10:07:50.19	153.53	10.08	-30.3	-34.8	10.6	3.28e-03	0	42	0	63963136	21	6080
2026-01-30 10:07:51.20	153.52	10.17	-30.2	-34.5	10.8	2.48e-03	0	42	0	65011712	21	5942
2026-01-30 10:07:52.21	153.51	10.26	-30.2	-34.5	10.8	2.40e-03	0	42	0	67108864	21	5925
2026-01-30 10:07:53.21	153.50	10.35	-30.2	-34.6	10.8	2.73e-03	0	42	0	69206016	21	5976
2026-01-30 10:07:54.22	153.49	10.43	-30.3	-34.6	10.9	2.15e-03	0	42	0	71303168	21	5894
2026-01-30 10:07:55.22	153.48	10.52	-30.4	-34.7	10.9	1.90e-03	0	42	0	73400320	21	5907
2026-01-30 10:07:56.23	153.47	10.61	-30.3	-34.4	11.1	1.73e-03	0	42	0	74448896	21	5779
2026-01-30 10:07:57.23	153.46	10.70	-30.4	-34.7	11.0	1.99e-03	0	42	0	76546048	21	5896
2026-01-30 10:07:58.23	153.45	10.79	-30.4	-34.6	11.0	1.79e-03	0	42	0	78643200	21	5847
2026-01-30 10:07:59.23	153.45	10.88	-30.4	-34.7	11.0	1.62e-03	0	42	0	80740352	21	5888
2026-01-30 10:08:00.24	153.44	10.98	-30.5	-34.9	10.9	2.09e-03	0	42	0	82837504	21	5961
2026-01-30 10:08:01.24	153.43	11.07	-30.4	-34.5	11.2	1.68e-03	0	42	0	83886080	21	5775
2026-01-30 10:08:02.24	153.42	11.16	-30.3	-34.3	11.3	1.24e-03	0	42	0	85983232	21	5690
2026-01-30 10:08:03.24	153.41	11.25	-30.3	-34.2	11.4	9.44e-04	0	42	0	88080384	21	5639
2026-01-30 10:08:04.23	153.40	11.34	-30.3	-34.1	11.5	7.95e-04	0	42	0	90177536	21	5604
2026-01-30 10:08:05.23	153.39	11.43	-30.3	-34.2	11.4	9.09e-04	0	42	0	91226112	21	5643
2026-01-30 10:08:06.24	153.38	11.53	-30.3	-34.2	11.4	8.62e-04	0	42	0	93323264	21	5635
2026-01-30 10:08:07.24	153.37	11.62	-30.3	-34.3	11.3	7.67e-04	0	42	0	95420416	21	5685
2026-01-30 10:08:08.25	153.36	11.71	-30.3	-34.4	11.3	1.32e-03	0	42	0	97517568	21	5720
2026-01-30 10:08:09.25	153.35	11.81	-30.2	-34.1	11.5	9.60e-04	0	42	0	99614720	21	5584
2026-01-30 10:08:10.26	153.34	11.90	-30.2	-33.9	11.7	6.61e-04	0	42	0	100663296	21	5528
2026-01-30 10:08:11.27	153.33	12.00	-30.2	-34.0	11.6	6.02e-04	0	42	0	102760448	21	5544
2026-01-30 10:08:12.27	153.32	12.09	-30.1	-33.7	11.8	4.75e-04	0	42	0	104857600	21	5466
2026-01-30 10:08:13.27	153.31	12.19	-30.1	-33.7	11.8	4.54e-04	0	42	0	106954752	21	5451
2026-01-30 10:08:14.28	153.30	12.28	-30.1	-33.8	11.8	4.96e-04	0	42	0	109051904	21	5478
2026-01-30 10:08:15.28	153.28	12.38	-30.1	-33.8	11.7	4.97e-04	0	42	0	110100480	21	5500
2026-01-30 10:08:16.28	153.27	12.48	-30.2	-34.1	11.6	7.22e-04	0	42	0	112197632	21	5601
2026-01-30 10:08:17.28	153.26	12.57	-30.1	-33.9	11.7	6.52e-04	0	42	0	114294784	21	5536
2026-01-30 10:08:18.28	153.25	12.67	-30.2	-34.1	11.5	7.80e-04	0	43	0	116391936	21	5664
2026-01-30 10:08:19.28	153.24	12.77	-30.3	-34.5	11.2	1.20e-03	0	42	0	118489088	21	5800
2026-01-30 10:08:20.28	153.23	12.87	-30.3	-34.5	11.3	1.15e-03	0	42	0	119537664	21	5800
2026-01-30 10:08:21.29	153.22	12.96	-30.3	-34.5	11.2	1.26e-03	0	42	0	121634816	21	5823
2026-01-30 10:08:22.29	153.21	13.06	-30.4	-34.8	11.0	1.51e-03	0	43	0	123731968	21	5958
2026-01-30 10:08:23.30	153.20	13.16	-30.4	-34.9	11.0	2.18e-03	0	43	0	125829120	21	6014
2026-01-30 10:08:24.30	153.18	13.26	-30.4	-34.6	11.2	1.70e-03	0	42	0	127926272	21	5858
2026-01-30 10:08:25.30	153.17	13.36	-30.4	-34.5	11.3	1.15e-03	0	42	0	128974848	21	5791
2026-01-30 10:08:26.31	153.16	13.46	-30.4	-34.6	11.3	1.08e-03	0	42	0	131072000	21	5783
2026-01-30 10:08:27.31	153.15	13.56	-30.5	-34.8	11.2	1.05e-03	0	42	0	133169152	21	5894
2026-01-30 10:08:28.31	153.14	13.67	-30.6	-35.0	11.1	1.70e-03	0	42	0	135266304	21	5964
2026-01-30 10:08:29.31	153.13	13.77	-30.5	-34.7	11.3	1.47e-03	0	42	0	136314880	21	5835
2026-01-30 10:08:30.32	153.11	13.87	-30.3	-34.1	11.7	7.55e-04	0	43	0	138412032	21	5556
2026-01-30 10:08:31.32	153.10	13.97	-30.3	-33.8	12.0	4.88e-04	0	43	0	140509184	21	5410
2026-01-30 10:08:32.32	153.09	14.08	-30.1	-33.4	12.3	2.42e-04	0	43	0	142606336	21	5250
2026-01-30 10:08:33.32	153.08	14.18	-30.1	-33.2	12.4	1.56e-04	0	43	0	144703488	21	5176
2026-01-30 10:08:34.33	153.06	14.28	-30.0	-33.1	12.5	1.48e-04	0	43	0	145752064	21	5118
2026-01-30 10:08:35.33	153.05	14.39	-30.0	-33.1	12.5	1.17e-04	0	43	0	147849216	21	5120
2026-01-30 10:08:36.33	153.04	14.49	-30.0	-33.0	12.6	1.11e-04	0	42	0	149946368	21	5076
2026-01-30 10:08:37.33	153.03	14.60	-30.0	-33.1	12.5	1.11e-04	0	42	0	152043520	21	5110
2026-01-30 10:08:38.34	153.01	14.70	-30.0	-33.1	12.5	1.04e-04	0	43	0	154140672	21	5116
2026-01-30 10:08:39.34	153.00	14.81	-30.1	-33.2	12.5	1.07e-04	0	43	0	155189248	21	5151
2026-01-30 10:08:40.34	152.99	14.92	-30.1	-33.2	12.5	1.36e-04	0	43	0	157286400	21	5150
2026-01-30 10:08:41.34	152.97	15.02	-30.0	-33.0	12.6	1.18e-04	0	43	0	159383552	21	5084
2026-01-30 10:08:42.34	152.96	15.13	-30.0	-33.0	12.7	8.16e-05	0	43	0	161480704	21	5066
2026-01-30 10:08:43.34	152.95	15.24	-30.0	-33.0	12.6	7.78e-05	0	43	0	163577856	21	5086
2026-01-30 10:08:44.35	152.93	15.35	-30.1	-33.1	12.6	9.61e-05	0	43	0	164626432	21	5119
2026-01-30 10:08:45.35	152.92	15.46	-30.0	-32.8	12.8	5.49e-05	0	43	0	166723584	21	4981
2026-01-30 10:08:46.35	152.91	15.57	-30.0	-32.8	12.9	5.41e-05	0	43	0	168820736	21	4973
2026-01-30 10:08:47.35	152.89	15.68	-30.0	-32.8	12.9	5.79e-05	0	43	0	170917888	21	4968
2026-01-30 10:08:48.36	152.88	15.79	-30.1	-32.9	12.8	6.17e-05	0	43	0	173015040	21	5012
2026-01-30 10:08:49.36	152.86	15.90	-30.1	-33.1	12.7	8.46e-05	0	43	0	174063616	21	5057
2026-01-30 10:08:50.37	152.85	16.01	-30.0	-32.8	12.9	4.95e-05	0	43	0	176160768	21	4952
2026-01-30 10:08:51.37	152.83	16.12	-29.9	-32.6	13.1	3.81e-05	0	43	0	178257920	21	4901
2026-01-30 10:08:52.37	152.82	16.23	-29.9	-32.4	13.2	1.67e-05	0	43	0	180355072	21	4824
2026-01-30 10:08:53.38	152.80	16.35	-29.8	-32.3	13.3	2.36e-05	0	43	0	181403648	21	4788
2026-01-30 10:08:54.38	152.79	16.46	-29.8	-32.3	13.3	1.67e-05	0	43	0	183500800	21	4783
2026-01-30 10:08:55.38	152.77	16.58	-29.8	-32.3	13.3	1.90e-05	0	43	0	185597952	21	4765
2026-01-30 10:08:56.38	152.76	16.69	-29.8	-32.3	13.3	1.83e-05	0	43	0	187695104	21	4798
2026-01-30 10:08:57.39	152.74	16.81	-29.8	-32.6	13.4	1.22e-05	0	43	0	189792256	20	5013
2026-01-30 10:08:58.39	152.73	16.92	-29.7	-32.4	13.5	1.29e-05	0	43	0	191889408	20	4933
2026-01-30 10:08:59.39	152.71	17.04	-29.8	-32.6	13.5	5.30e-06	0	42	0	192937984	20	4972
2026-01-30 10:09:00.40	152.70	17.16	-29.7	-32.4	13.6	1.14e-05	0	43	0	195035136	20	4916
2026-01-30 10:09:01.40	152.68	17.27	-29.6	-32.2	13.8	9.10e-06	0	43	0	197132288	20	4833
2026-01-30 10:09:02.41	152.66	17.39	-29.6	-32.0	13.9	4.50e-06	0	43	0	199229440	20	4784
2026-01-30 10:09:03.41	152.65	17.51	-29.6	-32.0	13.9	4.50e-06	0	43	0	200278016	20	4783
2026-01-30 10:09:04.41	152.63	17.63	-29.6	-32.0	13.9	5.30e-06	0	43	0	202375168	20	4779
2026-01-30 10:09:05.41	152.62	17.75	-29.6	-32.1	13.8	5.30e-06	0	43	0	204472320	20	4805
2026-01-30 10:09:06.41	152.60	17.87	-29.6	-32.1	13.9	6.10e-06	0	43	0	206569472	20	4778
2026-01-30 10:09:07.42	152.58	17.99	-29.7	-32.1	13.9	4.50e-06	0	43	0	208666624	20	4786
2026-01-30 10:09:08.43	152.56	18.11	-29.6	-32.0	14.0	6.80e-06	0	43	0	209715200	20	4744
2026-01-30 10:09:09.42	152.55	18.23	-29.6	-32.0	14.0	1.50e-06	0	43	0	211812352	20	4725
2026-01-30 10:09:10.42	152.53	18.35	-29.6	-32.0	14.0	1.50e-06	0	43	0	213909504	20	4744
2026-01-30 10:09:11.42	152.51	18.48	-29.5	-31.8	14.2	2.20e-06	0	43	0	216006656	20	4671
2026-01-30 10:09:12.43	152.50	18.60	-29.5	-31.8	14.2	0.00e+00	0	43	0	218103808	20	4679
2026-01-30 10:09:13.43	152.48	18.73	-29.5	-31.6	14.3	7.00e-07	0	43	0	219152384	20	4597
2026-01-30 10:09:14.43	152.46	18.85	-29.4	-31.4	14.4	0.00e+00	0	43	0	221249536	20	4552
2026-01-30 10:09:15.44	152.44	18.98	-29.4	-31.5	14.4	0.00e+00	0	43	0	223346688	20	4585
2026-01-30 10:09:16.45	152.42	19.11	-29.4	-31.4	14.4	7.00e-07	0	43	0	225443840	20	4548
2026-01-30 10:09:17.45	152.40	19.23	-29.4	-31.3	14.6	0.00e+00	0	43	0	227540992	20	4486
2026-01-30 10:09:18.45	152.39	19.36	-29.3	-31.3	14.6	7.00e-07	0	43	0	228589568	20	4492
2026-01-30 10:09:19.46	152.37	19.49	-29.4	-31.3	14.6	0.00e+00	0	43	0	230686720	20	4493
2026-01-30 10:09:20.46	152.35	19.62	-29.4	-31.3	14.6	0.00e+00	0	43	0	232783872	20	4502
2026-01-30 10:09:21.47	152.33	19.75	-29.4	-31.3	14.6	7.00e-07	0	43	0	234881024	20	4500
2026-01-30 10:09:22.46	152.31	19.88	-29.4	-31.4	14.5	7.00e-07	0	43	0	236978176	20	4534
2026-01-30 10:09:23.46	152.29	20.01	-29.5	-31.6	14.5	7.00e-07	0	43	0	238026752	20	4585
2026-01-30 10:09:24.47	152.27	20.14	-29.4	-31.4	14.6	7.00e-07	0	43	0	240123904	20	4516
2026-01-30 10:09:25.48	152.25	20.27	-29.4	-31.4	14.6	0.00e+00	0	43	0	242221056	20	4525
2026-01-30 10:09:26.48	152.23	20.41	-29.4	-31.4	14.6	7.00e-07	0	43	0	244318208	20	4530
2026-01-30 10:09:27.49	152.21	20.54	-29.3	-31.2	14.7	0.00e+00	0	43	0	246415360	20	4455
2026-01-30 10:09:28.49	152.19	20.68	-29.3	-31.6	14.8	0.00e+00	0	43	0	247463936	19	4697
2026-01-30 10:09:29.50	152.17	20.81	-29.3	-31.5	14.9	0.00e+00	0	43	0	249561088	19	4658
2026-01-30 10:09:30.50	152.15	20.95	-29.2	-31.4	14.9	0.00e+00	0	43	0	251658240	19	4622
2026-01-30 10:09:31.50	152.12	21.09	-29.3	-31.6	14.8	7.00e-07	0	43	0	253755392	19	4692
2026-01-30 10:09:32.50	152.10	21.22	-29.3	-31.5	14.9	0.00e+00	0	43	0	255852544	19	4649
2026-01-30 10:09:33.50	152.08	21.36	-29.3	-31.6	14.9	1.50e-06	0	43	0	256901120	19	4670
2026-01-30 10:09:34.50	152.06	21.50	-29.3	-31.6	14.9	7.00e-07	0	43	0	258998272	19	4673
2026-01-30 10:09:35.51	152.04	21.64	-29.3	-31.5	14.9	0.00e+00	0	43	0	261095424	19	4652
2026-01-30 10:09:36.52	152.01	21.78	-29.3	-31.6	14.9	0.00e+00	0	43	0	263192576	19	4695
2026-01-30 10:09:37.52	151.99	21.92	-29.3	-31.6	14.9	2.20e-06	0	43	0	264241152	19	4673
2026-01-30 10:09:38.52	151.97	22.06	-29.3	-31.6	14.9	0.00e+00	0	43	0	266338304	19	4677
2026-01-30 10:09:39.53	151.95	22.21	-29.4	-31.7	14.8	0.00e+00	0	43	0	268435456	19	4729
2026-01-30 10:09:40.52	151.92	22.35	-29.2	-31.3	15.1	3.80e-06	0	43	0	270532608	19	4581
2026-01-30 10:09:41.52	151.90	22.49	-29.1	-31.0	15.3	0.00e+00	0	43	0	272629760	19	4486
2026-01-30 10:09:42.52	151.88	22.64	-29.0	-30.8	15.4	0.00e+00	0	43	0	273678336	19	4430
2026-01-30 10:09:43.52	151.85	22.79	-29.0	-30.8	15.4	3.00e-06	0	43	0	275775488	19	4430
2026-01-30 10:09:44.52	151.83	22.93	-29.0	-30.7	15.5	0.00e+00	0	43	0	277872640	19	4394
2026-01-30 10:09:45.52	151.80	23.08	-28.9	-30.6	15.6	0.00e+00	0	43	0	279969792	19	4362
2026-01-30 10:09:46.52	151.78	23.23	-28.9	-30.6	15.6	1.50e-06	0	43	0	282066944	19	4341
2026-01-30 10:09:47.53	151.75	23.38	-29.0	-30.8	15.5	0.00e+00	0	43	0	283115520	19	4416
2026-01-30 10:09:48.53	151.73	23.53	-29.1	-30.9	15.4	0.00e+00	0	43	0	285212672	19	4449
2026-01-30 10:09:49.53	151.70	23.68	-29.1	-31.0	15.4	0.00e+00	0	43	0	287309824	19	4470
2026-01-30 10:09:50.54	151.68	23.83	-29.1	-30.9	15.4	7.00e-07	0	43	0	289406976	19	4448
2026-01-30 10:09:51.55	151.65	23.99	-29.0	-30.8	15.5	7.00e-07	0	43	0	291504128	19	4429
2026-01-30 10:09:52.55	151.62	24.14	-29.0	-30.8	15.5	0.00e+00	0	43	0	292552704	19	4416
2026-01-30 10:09:53.55	151.60	24.29	-29.1	-31.0	15.4	0.00e+00	0	43	0	294649856	19	4474
2026-01-30 10:09:54.55	151.57	24.45	-29.1	-31.0	15.4	0.00e+00	0	43	0	296747008	19	4459
2026-01-30 10:09:55.56	151.54	24.61	-29.0	-30.8	15.5	7.00e-07	0	43	0	298844160	19	4426
2026-01-30 10:09:56.56	151.51	24.77	-29.1	-30.8	15.5	0.00e+00	0	43	0	300941312	19	4424
2026-01-30 10:09:57.56	151.49	24.92	-29.1	-31.0	15.4	0.00e+00	0	43	0	301989888	19	4469
2026-01-30 10:09:58.56	151.46	25.08	-29.2	-31.1	15.4	7.00e-07	0	43	0	304087040	19	4503
2026-01-30 10:09:59.56	151.43	25.24	-29.3	-31.3	15.3	0.00e+00	0	43	0	306184192	19	4561
2026-01-30 10:10:00.56	151.40	25.40	-29.3	-31.3	15.2	0.00e+00	0	43	0	308281344	19	4575
2026-01-30 10:10:01.57	151.37	25.57	-29.4	-31.7	15.1	0.00e+00	0	43	0	309329920	19	4679
2026-01-30 10:10:02.57	151.34	25.73	-29.5	-32.0	14.9	0.00e+00	0	43	0	311427072	19	4779
2026-01-30 10:10:03.57	151.31	25.89	-29.5	-32.1	14.8	0.00e+00	0	43	0	313524224	19	4829
2026-01-30 10:10:04.57	151.28	26.06	-29.7	-32.4	14.6	7.00e-07	0	43	0	315621376	19	4917
2026-01-30 10:10:05.58	151.25	26.23	-29.7	-32.5	14.6	0.00e+00	0	43	0	317718528	19	4978
2026-01-30 10:10:06.58	151.22	26.39	-29.8	-32.7	14.4	0.00e+00	0	43	0	318767104	19	5037
2026-01-30 10:10:07.58	151.19	26.56	-29.9	-33.0	14.3	7.00e-07	0	43	0	320864256	19	5123
2026-01-30 10:10:08.58	151.16	26.73	-29.9	-33.0	14.3	0.00e+00	0	43	0	322961408	19	5132
2026-01-30 10:10:09.58	151.12	26.90	-30.0	-32.7	14.1	0.00e+00	0	43	0	325058560	20	4925
2026-01-30 10:10:10.58	151.09	27.07	-30.1	-32.9	13.9	4.50e-06	0	43	0	327155712	20	5005
2026-01-30 10:10:11.59	151.06	27.25	-30.1	-33.0	14.0	2.20e-06	0	43	0	328204288	20	5014
2026-01-30 10:10:12.59	151.02	27.42	-30.2	-33.3	13.8	3.80e-06	0	43	0	330301440	20	5118
2026-01-30 10:10:13.59	150.99	27.59	-30.3	-33.4	13.7	7.60e-06	0	43	0	332398592	20	5185
2026-01-30 10:10:14.59	150.96	27.77	-30.4	-33.8	13.4	1.37e-05	0	43	0	334495744	20	5327
2026-01-30 10:10:15.59	150.92	27.95	-30.5	-33.6	13.2	1.83e-05	0	43	0	336592896	21	5137
2026-01-30 10:10:16.59	150.89	28.12	-30.5	-33.7	13.2	1.83e-05	0	43	0	337641472	21	5163
2026-01-30 10:10:17.59	150.85	28.30	-30.7	-34.1	13.0	2.89e-05	0	43	0	339738624	21	5313
2026-01-30 10:10:18.59	150.82	28.48	-30.8	-34.4	12.7	4.57e-05	0	43	0	341835776	21	5446
2026-01-30 10:10:19.59	150.78	28.66	-30.8	-34.5	12.7	9.23e-05	0	43	0	343932928	21	5499
2026-01-30 10:10:20.60	150.74	28.85	-30.9	-34.7	12.6	1.07e-04	0	43	0	346030080	21	5563
2026-01-30 10:10:21.60	150.71	29.03	-30.9	-34.8	12.5	1.40e-04	0	43	0	347078656	21	5622
2026-01-30 10:10:22.61	150.67	29.22	-31.0	-34.5	12.4	1.47e-04	0	43	0	349175808	22	5371
2026-01-30 10:10:23.61	150.63	29.40	-31.1	-34.7	12.2	1.95e-04	0	43	0	351272960	22	5478
2026-01-30 10:10:24.62	150.59	29.59	-31.1	-34.7	12.2	2.45e-04	0	43	0	353370112	22	5477
2026-01-30 10:10:25.62	150.55	29.78	-31.2	-35.0	12.1	2.53e-04	0	43	0	354418688	22	5572
2026-01-30 10:10:26.63	150.51	29.97	-31.2	-35.0	12.0	3.01e-04	0	43	0	356515840	22	5587
2026-01-30 10:10:27.64	150.47	30.17	-31.3	-35.3	11.8	3.34e-04	0	43	0	358612992	22	5728
2026-01-30 10:10:28.64	150.43	30.36	-31.4	-35.6	11.7	4.83e-04	0	43	0	360710144	22	5836
2026-01-30 10:10:29.64	150.39	30.55	-31.4	-35.8	11.5	7.64e-04	0	43	0	362807296	22	5926
2026-01-30 10:10:30.64	150.35	30.75	-31.4	-35.7	11.6	6.74e-04	0	43	0	363855872	22	5908
2026-01-30 10:10:31.65	150.31	30.95	-31.5	-35.3	11.5	1.03e-03	0	43	0	365953024	23	5598
2026-01-30 10:10:32.65	150.26	31.14	-31.5	-35.3	11.5	8.19e-04	0	43	0	368050176	23	5618
2026-01-30 10:10:33.66	150.22	31.34	-31.5	-35.5	11.4	1.00e-03	0	43	0	370147328	23	5670
2026-01-30 10:10:34.66	150.18	31.54	-31.5	-35.6	11.3	1.11e-03	0	43	0	372244480	23	5720
2026-01-30 10:10:35.66	150.13	31.74	-31.7	-35.9	11.1	1.56e-03	0	43	0	373293056	23	5878
2026-01-30 10:10:36.66	150.09	31.95	-31.6	-35.8	11.2	1.84e-03	0	43	0	375390208	23	5842
2026-01-30 10:10:37.66	150.04	32.15	-31.7	-36.0	11.0	1.51e-03	0	43	0	377487360	23	5929
2026-01-30 10:10:38.66	150.00	32.36	-31.6	-35.8	11.2	1.53e-03	0	43	0	379584512	23	5829
2026-01-30 10:10:39.67	149.95	32.57	-31.6	-35.7	11.3	1.38e-03	0	43	0	381681664	23	5757
2026-01-30 10:10:40.67	149.90	32.77	-31.5	-35.5	11.4	1.07e-03	0	43	0	382730240	23	5684
2026-01-30 10:10:41.68	149.85	32.99	-31.7	-35.9	11.2	1.28e-03	0	43	0	384827392	23	5857
2026-01-30 10:10:42.68	149.80	33.20	-31.7	-36.1	11.0	1.44e-03	0	43	0	386924544	23	5928
2026-01-30 10:10:43.69	149.75	33.41	-31.7	-35.9	11.1	1.48e-03	0	43	0	389021696	23	5842
2026-01-30 10:10:44.69	149.70	33.63	-31.8	-36.2	10.9	1.95e-03	0	43	0	391118848	23	6012
2026-01-30 10:10:45.69	149.65	33.84	-31.7	-35.9	11.1	2.11e-03	0	43	0	392167424	23	5869
2026-01-30 10:10:46.69	149.60	34.06	-31.6	-35.6	11.3	1.12e-03	0	43	0	394264576	23	5736
2026-01-30 10:10:47.69	149.55	34.28	-31.6	-35.7	11.3	9.83e-04	0	43	0	396361728	23	5778
2026-01-30 10:10:48.69	149.50	34.50	-31.5	-35.4	11.5	1.01e-03	0	43	0	398458880	23	5648
2026-01-30 10:10:49.70	149.44	34.72	-31.5	-35.6	11.3	1.14e-03	0	43	0	400556032	23	5770
2026-01-30 10:10:50.70	149.39	34.95	-31.3	-35.0	11.7	7.45e-04	0	43	0	401604608	23	5483
2026-01-30 10:10:51.70	149.33	35.17	-31.2	-34.4	12.1	2.42e-04	0	43	0	403701760	23	5248
2026-01-30 10:10:52.70	149.28	35.40	-31.1	-34.3	12.2	2.19e-04	0	43	0	405798912	23	5211
2026-01-30 10:10:53.70	149.22	35.62	-31.1	-34.3	12.3	1.75e-04	0	43	0	407896064	23	5185
2026-01-30 10:10:54.71	149.16	35.86	-31.2	-34.6	12.1	2.74e-04	0	43	0	408944640	23	5297
2026-01-30 10:10:55.71	149.10	36.09	-31.0	-33.9	12.5	2.37e-04	0	43	0	411041792	23	5034
2026-01-30 10:10:56.72	149.04	36.32	-30.7	-33.4	13.2	4.19e-05	0	43	0	413138944	22	4950
2026-01-30 10:10:57.72	148.98	36.56	-30.4	-32.6	13.8	6.80e-06	0	43	0	415236096	22	4653
2026-01-30 10:10:58.73	148.92	36.80	-30.1	-32.5	14.1	1.50e-06	0	43	0	417333248	21	4713
2026-01-30 10:10:59.73	148.86	37.03	-30.2	-32.5	14.1	7.00e-07	0	43	0	419430400	21	4733
2026-01-30 10:11:00.74	148.79	37.28	-30.1	-32.4	14.2	2.20e-06	0	43	0	420478976	21	4676
2026-01-30 10:11:01.74	148.73	37.52	-30.0	-32.1	14.4	0.00e+00	0	43	0	422576128	21	4585
2026-01-30 10:11:02.74	148.66	37.76	-29.9	-32.0	14.5	7.00e-07	0	43	0	424673280	21	4564
2026-01-30 10:11:03.74	148.60	38.00	-30.0	-32.0	14.4	7.00e-07	0	43	0	426770432	21	4579
2026-01-30 10:11:04.74	148.53	38.25	-30.0	-32.2	14.3	7.00e-07	0	43	0	427819008	21	4620
2026-01-30 10:11:05.74	148.46	38.50	-29.9	-31.8	14.6	0.00e+00	0	43	0	429916160	21	4513
2026-01-30 10:11:06.75	148.39	38.75	-30.0	-32.3	14.3	0.00e+00	0	43	0	432013312	21	4652
2026-01-30 10:11:07.75	148.32	39.00	-30.1	-32.5	14.1	7.00e-07	0	43	0	434110464	21	4730
2026-01-30 10:11:08.75	148.25	39.26	-30.2	-32.8	14.0	7.00e-07	0	43	0	436207616	21	4827
2026-01-30 10:11:09.75	148.17	39.51	-30.3	-33.0	13.9	7.00e-07	0	43	0	437256192	21	4907
2026-01-30 10:11:10.76	148.10	39.77	-30.5	-33.4	13.7	6.10e-06	0	43	0	439353344	21	5023
2026-01-30 10:11:11.76	148.02	40.03	-30.5	-33.3	13.7	6.10e-06	0	43	0	441450496	21	5012
2026-01-30 10:11:12.76	147.95	40.29	-30.6	-33.8	13.4	1.06e-05	0	43	0	443547648	21	5204
2026-01-30 10:11:13.76	147.87	40.55	-30.8	-34.2	13.1	2.51e-05	0	43	0	445644800	21	5333
2026-01-30 10:11:14.76	147.79	40.82	-31.0	-34.7	12.8	6.63e-05	0	43	0	446693376	21	5547
2026-01-30 10:11:15.77	147.71	41.09	-31.1	-34.5	12.6	8.39e-05	0	43	0	448790528	22	5363
2026-01-30 10:11:16.77	147.62	41.36	-31.0	-34.2	12.8	7.01e-05	0	43	0	450887680	22	5237
2026-01-30 10:11:17.77	147.54	41.63	-31.0	-34.4	12.6	6.48e-05	0	43	0	452984832	22	5324
2026-01-30 10:11:18.78	147.45	41.90	-31.0	-34.2	12.8	6.71e-05	0	43	0	454033408	22	5230
2026-01-30 10:11:19.78	147.37	42.18	-31.0	-34.3	12.7	5.72e-05	0	43	0	456130560	22	5268
2026-01-30 10:11:20.79	147.28	42.46	-31.1	-34.7	12.5	1.01e-04	0	43	0	458227712	22	5442
2026-01-30 10:11:21.79	147.19	42.73	-31.1	-34.5	12.6	1.26e-04	0	43	0	460324864	22	5356
2026-01-30 10:11:22.79	147.10	43.01	-31.0	-34.3	12.6	7.78e-05	0	43	0	462422016	22	5291
2026-01-30 10:11:23.80	147.00	43.30	-31.0	-34.5	12.6	7.55e-05	0	43	0	464519168	22	5355
2026-01-30 10:11:24.81	146.91	43.59	-31.1	-34.6	12.5	7.78e-05	0	43	0	465567744	22	5407
2026-01-30 10:11:25.81	146.81	43.87	-31.1	-34.5	12.6	9.30e-05	0	43	0	467664896	22	5341
2026-01-30 10:11:26.82	146.71	44.16	-31.3	-35.1	12.3	1.36e-04	0	43	0	469762048	22	5576
2026-01-30 10:11:27.82	146.61	44.45	-31.3	-35.0	12.3	2.61e-04	0	43	0	471859200	22	5566
2026-01-30 10:11:28.82	146.51	44.75	-31.4	-35.4	12.1	2.31e-04	0	43	0	472907776	22	5709
2026-01-30 10:11:29.82	146.40	45.04	-31.3	-35.3	12.1	3.11e-04	0	43	0	475004928	22	5668
2026-01-30 10:11:30.83	146.30	45.34	-31.3	-35.2	12.2	2.00e-04	0	43	0	477102080	22	5636
2026-01-30 10:11:31.83	146.19	45.64	-31.3	-35.2	12.2	2.59e-04	0	43	0	479199232	22	5607
2026-01-30 10:11:32.84	146.08	45.94	-31.6	-35.5	11.6	3.85e-04	0	43	0	481296384	23	5660
2026-01-30 10:11:33.84	145.96	46.25	-31.8	-36.0	11.3	6.82e-04	0	43	0	482344960	23	5897
2026-01-30 10:11:34.85	145.85	46.55	-31.7	-35.8	11.4	9.46e-04	0	43	0	484442112	23	5787
2026-01-30 10:11:35.85	145.73	46.86	-31.7	-35.9	11.3	1.01e-03	0	43	0	486539264	23	5847
2026-01-30 10:11:36.85	145.61	47.17	-31.9	-36.6	10.9	1.38e-03	0	43	0	488636416	23	6158
2026-01-30 10:11:37.86	145.49	47.49	-31.9	-36.5	10.9	2.33e-03	0	43	0	490733568	23	6137
2026-01-30 10:11:38.86	145.36	47.80	-31.9	-36.5	10.9	2.42e-03	0	43	0	491782144	23	6131
2026-01-30 10:11:39.87	145.23	48.12	-32.0	-36.6	10.4	3.18e-03	0	43	0	493879296	24	6086
2026-01-30 10:11:40.88	145.10	48.44	-32.2	-37.0	10.1	5.97e-03	0	43	0	495976448	24	6299
2026-01-30 10:11:41.88	144.97	48.76	-31.9	-36.2	10.7	4.86e-03	0	43	0	498073600	24	5876
2026-01-30 10:11:42.88	144.83	49.08	-31.6	-35.0	11.6	1.31e-03	0	43	0	500170752	24	5342
2026-01-30 10:11:43.88	144.69	49.41	-31.2	-34.4	12.4	2.93e-04	0	43	0	501219328	23	5187
2026-01-30 10:11:44.88	144.55	49.73	-31.0	-33.7	12.9	4.95e-05	0	43	0	503316480	23	4915
2026-01-30 10:11:45.89	144.41	50.07	-30.8	-33.2	13.2	4.11e-05	0	43	0	505413632	23	4763
2026-01-30 10:11:46.89	144.26	50.40	-30.8	-33.6	13.3	1.52e-05	0	43	0	507510784	22	4988
2026-01-30 10:11:47.90	144.11	50.73	-30.3	-32.4	14.1	5.30e-06	0	43	0	509607936	22	4560
2026-01-30 10:11:48.90	143.95	51.07	-30.0	-32.2	14.5	0.00e+00	0	43	0	510656512	21	4603
2026-01-30 10:11:49.91	143.79	51.41	-29.8	-31.7	14.8	0.00e+00	0	43	0	512753664	21	4447
2026-01-30 10:11:50.91	143.63	51.75	-29.8	-32.1	14.9	0.00e+00	0	43	0	514850816	20	4702
2026-01-30 10:11:51.92	143.46	52.09	-29.5	-31.3	15.4	0.00e+00	0	43	0	516947968	20	4440
2026-01-30 10:11:52.92	143.29	52.44	-29.3	-31.4	15.7	0.00e+00	0	43	0	519045120	19	4559
2026-01-30 10:11:53.93	143.11	52.79	-29.5	-31.7	15.5	0.00e+00	0	43	0	520093696	19	4670
2026-01-30 10:11:54.94	142.93	53.14	-29.4	-31.7	15.5	0.00e+00	0	43	0	522190848	19	4642
2026-01-30 10:11:55.94	142.75	53.49	-29.4	-31.5	15.6	0.00e+00	0	43	0	524288000	19	4599
2026-01-30 10:11:56.94	142.56	53.84	-29.4	-31.4	15.7	0.00e+00	0	43	0	526385152	19	4566
2026-01-30 10:11:57.94	142.37	54.20	-29.2	-31.1	15.9	0.00e+00	0	43	0	528482304	19	4468
2026-01-30 10:11:58.95	142.17	54.56	-29.3	-31.2	15.8	0.00e+00	0	43	0	529530880	19	4484
2026-01-30 10:11:59.95	141.97	54.92	-29.2	-31.0	15.9	0.00e+00	0	43	0	531628032	19	4433
2026-01-30 10:12:00.95	141.76	55.28	-29.4	-31.6	15.6	0.00e+00	0	43	0	533725184	19	4601
2026-01-30 10:12:01.96	141.55	55.65	-29.8	-32.5	15.1	0.00e+00	0	43	0	535822336	19	4895
2026-01-30 10:12:02.96	141.33	56.01	-30.0	-33.0	14.8	0.00e+00	0	43	0	537919488	19	5093
2026-01-30 10:12:03.97	141.10	56.38	-30.5	-33.8	13.9	7.00e-07	0	43	0	538968064	20	5276
2026-01-30 10:12:04.98	140.87	56.75	-30.6	-33.5	13.7	4.50e-06	0	43	0	541065216	21	5077
2026-01-30 10:12:05.98	140.63	57.13	-30.8	-34.3	13.3	7.60e-06	0	43	0	543162368	21	5354
2026-01-30 10:12:06.99	140.38	57.50	-31.1	-34.5	12.8	3.20e-05	0	43	0	545259520	22	5324
2026-01-30 10:12:07.99	140.13	57.88	-31.4	-35.3	12.2	9.30e-05	0	43	0	547356672	22	5663
2026-01-30 10:12:08.99	139.87	58.25	-31.7	-35.7	11.6	4.97e-04	0	43	0	548405248	23	5724
2026-01-30 10:12:09.99	139.61	58.63	-31.6	-35.5	11.8	7.38e-04	0	43	0	550502400	23	5662
2026-01-30 10:12:11.00	139.33	59.02	-31.3	-34.6	12.3	3.26e-04	0	43	0	552599552	23	5272
2026-01-30 10:12:12.00	139.05	59.40	-31.1	-34.1	12.7	9.07e-05	0	43	0	554696704	23	5062
2026-01-30 10:12:13.01	138.76	59.79	-31.0	-33.7	12.9	7.62e-05	0	43	0	556793856	23	4930
2026-01-30 10:12:14.00	138.46	60.17	-30.6	-33.1	13.7	1.98e-05	0	43	0	557842432	22	4800
2026-01-30 10:12:15.01	138.15	60.56	-30.5	-32.8	14.0	2.20e-06	0	43	0	559939584	22	4699
2026-01-30 10:12:16.01	137.83	60.95	-30.8	-33.5	13.5	6.10e-06	0	43	0	562036736	22	4957
2026-01-30 10:12:17.01	137.50	61.34	-30.1	-32.4	14.5	2.20e-06	0	43	0	564133888	21	4664
2026-01-30 10:12:18.01	137.17	61.73	-29.9	-31.8	14.8	7.00e-07	0	43	0	565182464	21	4484
2026-01-30 10:12:19.00	136.82	62.12	-29.9	-31.7	14.9	7.00e-07	0	43	0	567279616	21	4441
2026-01-30 10:12:20.00	136.46	62.52	-30.3	-32.7	14.3	0.00e+00	0	43	0	569376768	21	4774
2026-01-30 10:12:21.00	136.08	62.91	-30.2	-32.6	14.4	1.50e-06	0	43	0	571473920	21	4728
2026-01-30 10:12:22.00	135.70	63.31	-30.3	-32.8	14.3	7.00e-07	0	43	0	573571072	21	4783
2026-01-30 10:12:23.01	135.30	63.71	-30.5	-33.3	14.0	7.00e-07	0	43	0	574619648	21	4958
2026-01-30 10:12:24.01	134.88	64.11	-31.0	-34.2	13.0	5.30e-06	0	43	0	576716800	22	5182
2026-01-30 10:12:25.01	134.45	64.51	-30.6	-33.1	13.7	2.05e-05	0	43	0	578813952	22	4806
2026-01-30 10:12:26.02	134.01	64.91	-30.4	-32.6	14.1	3.00e-06	0	43	0	580911104	22	4623
2026-01-30 10:12:27.02	133.55	65.32	-30.2	-32.4	14.4	2.20e-06	0	43	0	583008256	21	4666
2026-01-30 10:12:28.02	133.07	65.72	-30.1	-32.1	14.6	0.00e+00	0	43	0	584056832	21	4576
2026-01-30 10:12:29.02	132.58	66.12	-30.3	-32.9	14.2	0.00e+00	0	43	0	586153984	21	4825
2026-01-30 10:12:30.02	132.06	66.52	-30.6	-33.7	13.7	6.10e-06	0	43	0	588251136	21	5108
2026-01-30 10:12:31.03	131.52	66.93	-30.3	-32.8	14.2	6.10e-06	0	43	0	590348288	21	4782
2026-01-30 10:12:32.04	130.96	67.34	-30.2	-32.5	14.4	0.00e+00	0	43	0	592445440	21	4679
2026-01-30 10:12:33.04	130.39	67.74	-30.5	-33.2	14.1	2.20e-06	0	43	0	593494016	21	4922
2026-01-30 10:12:34.04	129.79	68.14	-30.4	-33.1	14.1	2.20e-06	0	43	0	595591168	21	4896
2026-01-30 10:12:35.04	129.16	68.54	-30.2	-32.6	14.4	7.00e-07	0	43	0	597688320	21	4722
2026-01-30 10:12:36.05	128.51	68.95	-30.3	-32.7	14.4	0.00e+00	0	43	0	599785472	21	4756
2026-01-30 10:12:37.05	127.83	69.35	-30.4	-33.0	14.2	1.50e-06	0	43	0	601882624	21	4864
2026-01-30 10:12:38.05	127.12	69.75	-30.1	-32.2	14.6	7.00e-07	0	43	0	602931200	21	4585
2026-01-30 10:12:39.06	126.38	70.15	-29.9	-31.8	14.9	0.00e+00	0	43	0	605028352	21	4462
2026-01-30 10:12:40.07	125.60	70.55	-30.1	-32.2	14.6	0.00e+00	0	43	0	607125504	21	4584
2026-01-30 10:12:41.07	124.79	70.95	-29.8	-31.9	15.1	0.00e+00	0	43	0	609222656	20	4612
2026-01-30 10:12:42.07	123.95	71.34	-29.3	-30.8	15.8	0.00e+00	0	43	0	610271232	20	4252
2026-01-30 10:12:43.07	123.07	71.73	-29.5	-31.2	15.6	0.00e+00	0	43	0	612368384	20	4372
2026-01-30 10:12:44.07	122.15	72.11	-30.1	-32.7	14.8	0.00e+00	0	43	0	614465536	20	4849
2026-01-30 10:12:45.07	121.19	72.50	-30.3	-33.2	14.4	1.50e-06	0	43	0	616562688	20	5031
2026-01-30 10:12:46.08	120.17	72.88	-30.3	-33.3	14.3	7.00e-07	0	43	0	618659840	20	5081
2026-01-30 10:12:47.08	119.11	73.26	-30.9	-34.2	13.4	3.80e-06	0	43	0	619708416	21	5314
2026-01-30 10:12:48.08	118.01	73.63	-31.4	-35.4	12.3	3.28e-05	0	43	0	621805568	22	5693
2026-01-30 10:12:49.08	116.84	74.00	-31.7	-35.6	11.9	5.11e-04	0	43	0	623902720	23	5665
2026-01-30 10:12:50.09	115.61	74.36	-31.4	-34.7	12.5	2.08e-04	0	43	0	625999872	23	5252
2026-01-30 10:12:51.09	114.34	74.71	-31.5	-35.1	12.2	1.54e-04	0	43	0	628097024	23	5425
2026-01-30 10:12:52.10	112.98	75.06	-32.1	-36.4	10.9	6.11e-04	0	43	0	629145600	24	5896
2026-01-30 10:12:53.09	111.59	75.40	-32.4	-37.3	10.2	5.54e-03	0	43	0	631242752	24	6368
2026-01-30 10:12:54.10	110.10	75.74	-31.9	-35.7	11.4	2.46e-03	0	43	0	633339904	24	5576
2026-01-30 10:12:55.10	108.55	76.06	-31.4	-34.2	12.5	5.74e-04	0	43	0	635437056	24	4966
2026-01-30 10:12:56.11	106.91	76.38	-31.0	-33.6	13.3	2.05e-05	0	43	0	637534208	23	4845
2026-01-30 10:12:57.11	105.21	76.68	-31.1	-33.9	13.1	2.59e-05	0	44	0	638582784	23	4949
2026-01-30 10:12:58.12	103.41	76.97	-31.3	-34.6	12.7	7.17e-05	0	43	0	640679936	23	5214
2026-01-30 10:12:59.12	101.54	77.25	-31.1	-33.9	13.1	4.95e-05	0	43	0	642777088	23	4966
2026-01-30 10:13:00.11	99.62	77.52	-30.7	-33.2	13.9	6.10e-06	0	43	0	644874240	22	4788
2026-01-30 10:13:01.12	97.56	77.77	-30.8	-33.6	13.7	4.50e-06	0	43	0	646971392	22	4923
2026-01-30 10:13:02.12	95.44	78.01	-31.3	-34.7	13.0	1.22e-05	0	43	0	648019968	22	5356
2026-01-30 10:13:03.12	93.24	78.23	-31.6	-35.3	12.3	1.15e-04	0	43	0	650117120	23	5492
2026-01-30 10:13:04.13	90.93	78.43	-31.2	-34.2	12.9	6.63e-05	0	43	0	652214272	23	5039
2026-01-30 10:13:05.13	88.57	78.62	-30.8	-33.1	13.7	2.59e-05	0	43	0	654311424	23	4651
2026-01-30 10:13:06.14	86.10	78.78	-31.0	-33.5	13.4	1.29e-05	0	43	0	656408576	23	4804
2026-01-30 10:13:07.14	83.59	78.92	-31.2	-34.1	13.1	2.13e-05	0	43	0	657457152	23	5032
2026-01-30 10:13:08.14	81.02	79.05	-31.6	-35.2	12.4	9.84e-05	0	43	0	659554304	23	5435
2026-01-30 10:13:09.14	78.39	79.15	-31.1	-33.8	13.3	7.85e-05	0	43	0	661651456	23	4902
2026-01-30 10:13:10.15	75.70	79.23	-30.6	-32.9	14.2	4.50e-06	0	43	0	663748608	22	4698
2026-01-30 10:13:11.15	72.99	79.28	-30.7	-33.1	14.1	1.50e-06	0	43	0	664797184	22	4763
2026-01-30 10:13:12.16	70.24	79.31	-30.5	-32.8	14.2	4.50e-06	0	43	0	666894336	22	4641
2026-01-30 10:13:13.16	67.50	79.32	-30.3	-32.6	14.7	0.00e+00	0	43	0	668991488	21	4699
2026-01-30 10:13:14.16	64.77	79.30	-29.8	-31.4	15.4	0.00e+00	0	43	0	671088640	21	4313
2026-01-30 10:13:15.16	62.05	79.26	-29.7	-31.6	15.5	0.00e+00	0	43	0	673185792	20	4498
2026-01-30 10:13:16.17	59.34	79.19	-29.8	-31.9	15.5	0.00e+00	0	43	0	674234368	20	4566
2026-01-30 10:13:17.17	56.69	79.10	-29.6	-31.3	15.7	0.00e+00	0	43	0	676331520	20	4394
2026-01-30 10:13:18.17	54.09	78.99	-29.6	-31.4	15.7	0.00e+00	0	43	0	678428672	20	4421
2026-01-30 10:13:19.18	51.52	78.86	-30.2	-32.8	14.9	0.00e+00	0	43	0	680525824	20	4891
2026-01-30 10:13:20.18	49.04	78.70	-30.7	-33.7	14.0	7.00e-07	0	43	0	682622976	21	5086
2026-01-30 10:13:21.17	46.66	78.53	-30.7	-33.8	13.9	3.80e-06	0	43	0	683671552	21	5108
2026-01-30 10:13:22.18	44.31	78.34	-31.0	-34.3	13.5	4.50e-06	0	43	0	685768704	21	5320
2026-01-30 10:13:23.19	42.04	78.12	-31.2	-34.4	13.2	1.98e-05	0	43	0	687865856	22	5241
2026-01-30 10:13:24.19	39.88	77.90	-31.7	-35.6	12.1	1.25e-04	0	43	0	689963008	23	5605
2026-01-30 10:13:25.20	37.79	77.65	-32.4	-37.1	10.7	8.83e-04	0	43	0	692060160	24	6186
2026-01-30 10:13:26.20	35.79	77.39	-32.7	-37.7	9.9	6.19e-03	0	43	0	693108736	25	6419
2026-01-30 10:13:27.21	33.87	77.12	-32.8	-38.3	9.3	1.55e-02	0	43	0	695205888	25	6743
2026-01-30 10:13:28.22	32.03	76.83	-32.9	-38.6	9.2	1.92e-02	0	43	0	697303040	25	6959
2026-01-30 10:13:29.22	30.29	76.53	-32.9	-38.1	9.2	2.83e-02	0	43	0	699400192	26	6531
2026-01-30 10:13:30.23	28.61	76.22	-32.8	-37.8	9.3	1.74e-02	0	43	0	701497344	26	6376
2026-01-30 10:13:31.23	27.03	75.90	-32.9	-37.9	9.2	2.88e-02	0	43	0	702545920	26	6440
2026-01-30 10:13:32.23	25.52	75.58	-32.8	-37.5	9.4	1.48e-02	0	43	0	704643072	26	6232
2026-01-30 10:13:33.24	24.06	75.24	-32.7	-37.4	9.6	1.50e-02	0	43	0	706740224	26	6155
2026-01-30 10:13:34.23	22.71	74.90	-32.2	-35.9	11.0	4.13e-03	0	43	0	708837376	25	5565
2026-01-30 10:13:35.24	21.38	74.54	-31.8	-34.8	11.8	1.04e-03	0	43	0	710934528	25	5098
2026-01-30 10:13:36.24	20.14	74.18	-31.8	-35.2	11.9	3.81e-04	0	43	0	711983104	24	5368
2026-01-30 10:13:37.25	18.94	73.82	-31.9	-35.5	11.7	6.72e-04	0	43	0	714080256	24	5486
2026-01-30 10:13:38.26	17.79	73.45	-31.5	-34.4	12.4	2.90e-04	0	43	0	716177408	24	5039
2026-01-30 10:13:39.26	16.71	73.07	-31.0	-33.6	13.4	3.89e-05	0	43	0	718274560	23	4839
2026-01-30 10:13:40.26	15.68	72.70	-30.5	-32.7	14.2	1.50e-06	0	43	0	720371712	22	4646
2026-01-30 10:13:41.27	14.69	72.31	-30.4	-32.5	14.3	0.00e+00	0	43	0	721420288	22	4567
2026-01-30 10:13:42.27	13.75	71.93	-30.2	-32.4	14.8	0.00e+00	0	43	0	723517440	21	4652
2026-01-30 10:13:43.28	12.84	71.54	-30.0	-31.8	15.1	0.00e+00	0	43	0	725614592	21	4451
2026-01-30 10:13:44.29	11.97	71.14	-29.8	-31.4	15.3	0.00e+00	0	43	0	727711744	21	4341
2026-01-30 10:13:45.28	11.16	70.75	-30.1	-32.1	14.9	0.00e+00	0	43	0	729808896	21	4558
2026-01-30 10:13:46.28	10.37	70.36	-30.5	-33.3	14.2	1.50e-06	0	43	0	730857472	21	4932
2026-01-30 10:13:47.28	9.62	69.96	-30.7	-33.8	13.8	6.80e-06	0	43	0	732954624	21	5136
2026-01-30 10:13:48.28	8.90	69.56	-30.6	-33.5	14.0	2.20e-06	0	43	0	735051776	21	5025
2026-01-30 10:13:49.29	8.20	69.16	-30.6	-33.4	14.1	7.00e-07	0	43	0	737148928	21	4958
2026-01-30 10:13:50.29	7.54	68.76	-31.1	-34.3	13.3	7.60e-06	0	43	0	738197504	22	5202
2026-01-30 10:13:51.29	6.90	68.36	-31.9	-36.1	11.6	1.96e-04	0	43	0	740294656	23	5868
2026-01-30 10:13:52.30	6.28	67.95	-32.5	-37.3	9.9	3.42e-03	0	44	0	742391808	25	6267
2026-01-30 10:13:53.30	5.69	67.55	-32.5	-37.3	9.9	9.75e-03	0	43	0	744488960	25	6233
2026-01-30 10:13:54.30	5.13	67.15	-32.0	-35.7	11.1	3.01e-03	0	43	0	746586112	25	5480
2026-01-30 10:13:55.31	4.58	66.74	-31.7	-35.2	12.0	6.00e-04	0	43	0	747634688	24	5349
2026-01-30 10:13:56.31	4.06	66.34	-31.6	-34.9	12.1	4.00e-04	0	43	0	749731840	24	5235
2026-01-30 10:13:57.31	3.56	65.94	-31.7	-35.1	11.9	4.38e-04	0	43	0	751828992	24	5322
2026-01-30 10:13:58.31	3.07	65.54	-31.3	-34.0	12.6	2.49e-04	0	43	0	753926144	24	4887
2026-01-30 10:13:59.31	2.60	65.14	-30.8	-33.5	13.7	2.74e-05	0	43	0	756023296	22	4924
2026-01-30 10:14:00.32	2.15	64.74	-30.4	-32.5	14.3	2.20e-06	0	43	0	757071872	22	4582
2026-01-30 10:14:01.32	1.71	64.34	-30.0	-32.0	14.9	0.00e+00	0	43	0	759169024	21	4511
2026-01-30 10:14:02.32	1.29	63.94	-29.8	-31.9	15.3	0.00e+00	0	43	0	761266176	20	4605
2026-01-30 10:14:03.33	0.88	63.54	-29.8	-31.9	15.2	0.00e+00	0	43	0	763363328	20	4582
2026-01-30 10:14:04.33	0.49	63.14	-29.6	-31.4	15.6	0.00e+00	0	43	0	765460480	20	4442
2026-01-30 10:14:05.33	0.11	62.74	-29.5	-31.3	15.6	0.00e+00	0	43	0	766509056	20	4404
2026-01-30 10:14:06.34	359.74	62.35	-29.2	-31.0	16.1	0.00e+00	0	43	0	768606208	19	4432
2026-01-30 10:14:07.34	359.38	61.95	-29.1	-30.6	16.4	0.00e+00	0	43	0	770703360	19	4302
2026-01-30 10:14:08.34	359.04	61.56	-29.4	-31.4	15.9	0.00e+00	0	43	0	772800512	19	4521
2026-01-30 10:14:09.35	358.71	61.17	-30.0	-32.3	15.0	0.00e+00	0	43	0	774897664	20	4740
2026-01-30 10:14:10.36	358.38	60.78	-30.4	-33.4	14.3	0.00e+00	0	43	0	775946240	20	5093
2026-01-30 10:14:11.37	358.06	60.38	-30.4	-33.5	14.3	0.00e+00	0	43	0	778043392	20	5143
2026-01-30 10:14:12.36	357.76	60.00	-30.4	-33.5	14.3	2.20e-06	0	43	0	780140544	20	5124
2026-01-30 10:14:13.37	357.47	59.62	-30.9	-34.4	13.4	2.20e-06	0	43	0	782237696	21	5366
2026-01-30 10:14:14.36	357.18	59.24	-31.6	-35.3	12.1	1.65e-04	0	43	0	783286272	23	5522
2026-01-30 10:14:15.37	356.91	58.85	-32.0	-36.2	11.1	1.07e-03	0	43	0	785383424	24	5818
2026-01-30 10:14:16.37	356.64	58.47	-32.2	-36.6	10.7	3.12e-03	0	43	0	787480576	24	6001
2026-01-30 10:14:17.37	356.37	58.10	-32.1	-36.4	10.9	2.23e-03	0	43	0	789577728	24	5886
2026-01-30 10:14:18.38	356.12	57.72	-32.0	-35.9	11.2	1.53e-03	0	43	0	791674880	24	5687
2026-01-30 10:14:19.38	355.87	57.35	-31.9	-35.9	11.2	2.13e-03	0	43	0	793772032	24	5668
2026-01-30 10:14:20.39	355.63	56.97	-31.6	-34.7	12.1	3.98e-04	0	43	0	794820608	24	5178
2026-01-30 10:14:21.39	355.40	56.60	-31.3	-34.0	12.6	1.67e-04	0	43	0	796917760	24	4883
2026-01-30 10:14:22.40	355.17	56.23	-30.9	-33.4	13.3	3.28e-05	0	43	0	799014912	23	4770
2026-01-30 10:14:23.39	354.95	55.87	-30.6	-33.1	13.8	7.60e-06	0	43	0	801112064	22	4769
2026-01-30 10:14:24.39	354.73	55.51	-30.1	-32.3	14.6	0.00e+00	0	43	0	802160640	21	4620
2026-01-30 10:14:25.40	354.52	55.14	-29.7	-31.8	15.2	7.00e-07	0	43	0	804257792	20	4546
2026-01-30 10:14:26.40	354.31	54.79	-29.7	-31.7	15.2	0.00e+00	0	43	0	806354944	20	4540
2026-01-30 10:14:27.40	354.12	54.43	-29.6	-31.6	15.3	0.00e+00	0	43	0	808452096	20	4486
2026-01-30 10:14:28.41	353.92	54.07	-29.5	-31.3	15.4	0.00e+00	0	43	0	810549248	20	4410
2026-01-30 10:14:29.41	353.73	53.72	-29.7	-31.7	15.2	7.00e-07	0	43	0	811597824	20	4522
2026-01-30 10:14:30.41	353.54	53.37	-29.6	-31.5	15.3	0.00e+00	0	43	0	813694976	20	4470
2026-01-30 10:14:31.42	353.36	53.02	-29.6	-31.5	15.4	0.00e+00	0	43	0	815792128	20	4467
2026-01-30 10:14:32.41	353.19	52.67	-29.7	-31.6	15.3	0.00e+00	0	43	0	817889280	20	4512
2026-01-30 10:14:33.42	353.01	52.33	-29.7	-31.8	15.2	0.00e+00	0	43	0	819986432	20	4560
2026-01-30 10:14:34.43	352.84	51.98	-30.0	-32.5	14.8	7.00e-07	0	43	0	821035008	20	4778
2026-01-30 10:14:35.42	352.68	51.64	-30.2	-33.0	14.4	1.50e-06	0	43	0	823132160	20	4965
2026-01-30 10:14:36.42	352.52	51.31	-30.2	-32.9	14.5	0.00e+00	0	43	0	825229312	20	4943
2026-01-30 10:14:37.43	352.36	50.97	-30.7	-33.7	13.7	4.50e-06	0	43	0	827326464	21	5115
2026-01-30 10:14:38.44	352.21	50.63	-31.4	-35.2	12.4	9.84e-05	0	43	0	829423616	22	5593
2026-01-30 10:14:39.43	352.06	50.30	-31.6	-35.5	11.8	2.47e-04	0	43	0	830472192	23	5602
2026-01-30 10:14:40.43	351.92	49.97	-31.9	-36.5	11.1	9.76e-04	0	43	0	832569344	23	6091
2026-01-30 10:14:41.43	351.77	49.65	-32.1	-36.5	10.7	2.42e-03	0	43	0	834666496	24	5998
2026-01-30 10:14:42.43	351.63	49.32	-32.3	-37.3	10.0	4.98e-03	0	43	0	836763648	24	6389
2026-01-30 10:14:43.43	351.49	49.00	-32.4	-37.2	9.8	1.03e-02	0	43	0	838860800	25	6218
2026-01-30 10:14:44.44	351.36	48.68	-32.4	-37.2	9.8	1.00e-02	0	43	0	839909376	25	6200
2026-01-30 10:14:45.43	351.23	48.36	-32.4	-37.0	10.0	8.98e-03	0	44	0	842006528	25	6113
2026-01-30 10:14:46.43	351.10	48.05	-32.5	-37.3	9.7	8.65e-03	0	43	0	844103680	25	6286
2026-01-30 10:14:47.43	350.98	47.73	-32.6	-37.8	9.3	1.95e-02	0	43	0	846200832	25	6553
2026-01-30 10:14:48.43	350.85	47.42	-32.5	-37.5	9.6	1.47e-02	0	43	0	847249408	25	6392
2026-01-30 10:14:49.44	350.73	47.11	-32.2	-36.5	10.3	9.44e-03	0	43	0	849346560	25	5880
2026-01-30 10:14:50.45	350.61	46.80	-31.8	-35.1	11.4	2.50e-03	0	43	0	851443712	25	5233
2026-01-30 10:14:51.45	350.49	46.49	-31.5	-34.6	12.0	3.78e-04	0	44	0	853540864	24	5129
2026-01-30 10:14:52.46	350.38	46.19	-31.4	-34.3	12.3	1.77e-04	0	43	0	855638016	24	5018
2026-01-30 10:14:53.46	350.27	45.89	-31.3	-34.1	12.4	1.82e-04	0	43	0	856686592	24	4935
2026-01-30 10:14:54.46	350.16	45.59	-31.2	-34.2	12.6	9.91e-05	0	43	0	858783744	23	5079
2026-01-30 10:14:55.47	350.05	45.29	-31.2	-34.3	12.6	8.77e-05	0	43	0	860880896	23	5110
2026-01-30 10:14:56.47	349.95	44.99	-31.5	-35.2	12.0	1.85e-04	0	44	0	862978048	23	5483
2026-01-30 10:14:57.47	349.84	44.70	-31.8	-35.9	11.4	5.11e-04	0	43	0	865075200	23	5818
2026-01-30 10:14:58.48	349.74	44.41	-32.0	-36.3	10.9	1.82e-03	0	43	0	866123776	24	5884
2026-01-30 10:14:59.48	349.64	44.12	-32.1	-36.6	10.6	3.10e-03	0	44	0	868220928	24	6045
2026-01-30 10:15:00.47	349.55	43.84	-32.1	-36.7	10.5	3.53e-03	0	43	0	870318080	24	6094
2026-01-30 10:15:01.48	349.45	43.55	-32.1	-36.4	10.7	3.00e-03	0	43	0	872415232	24	5952
2026-01-30 10:15:02.48	349.36	43.27	-31.8	-35.5	11.3	1.39e-03	0	43	0	874512384	24	5542
2026-01-30 10:15:03.49	349.26	42.98	-31.9	-35.7	11.2	1.21e-03	0	43	0	875560960	24	5615
2026-01-30 10:15:04.49	349.17	42.70	-31.9	-35.9	11.1	1.61e-03	0	43	0	877658112	24	5686
2026-01-30 10:15:05.50	349.08	42.43	-31.7	-35.3	11.5	1.01e-03	0	43	0	879755264	24	5429
2026-01-30 10:15:06.51	348.99	42.15	-31.5	-34.8	11.9	4.98e-04	0	43	0	881852416	24	5210
2026-01-30 10:15:07.52	348.91	41.87	-31.6	-34.9	11.8	4.63e-04	0	43	0	883949568	24	5289
2026-01-30 10:15:08.53	348.82	41.60	-31.6	-34.8	11.8	4.60e-04	0	43	0	884998144	24	5240
2026-01-30 10:15:09.52	348.74	41.33	-31.6	-35.0	11.6	7.36e-04	0	44	0	887095296	24	5333
2026-01-30 10:15:10.52	348.66	41.07	-31.8	-35.6	11.2	1.28e-03	0	43	0	889192448	24	5590
2026-01-30 10:15:11.53	348.58	40.80	-32.0	-36.2	10.9	2.04e-03	0	43	0	891289600	24	5830
2026-01-30 10:15:12.52	348.50	40.54	-32.0	-36.3	10.8	2.94e-03	0	43	0	892338176	24	5878
2026-01-30 10:15:13.52	348.42	40.28	-32.0	-36.4	10.7	2.52e-03	0	44	0	894435328	24	5920
2026-01-30 10:15:14.53	348.35	40.02	-32.0	-36.3	10.8	3.01e-03	0	43	0	896532480	24	5900
2026-01-30 10:15:15.53	348.27	39.76	-31.9	-36.0	11.0	2.45e-03	0	43	0	898629632	24	5737
2026-01-30 10:15:16.53	348.20	39.50	-31.8	-35.8	11.2	1.95e-03	0	43	0	900726784	24	5655
2026-01-30 10:15:17.53	348.13	39.25	-31.9	-35.8	11.1	1.68e-03	0	44	0	902823936	24	5658
2026-01-30 10:15:18.54	348.05	39.00	-31.7	-35.4	11.4	1.48e-03	0	44	0	903872512	24	5497
2026-01-30 10:15:19.54	347.98	38.75	-31.5	-34.8	11.8	5.19e-04	0	43	0	905969664	24	5235
2026-01-30 10:15:20.55	347.91	38.49	-31.4	-34.4	12.1	3.16e-04	0	43	0	908066816	24	5085
2026-01-30 10:15:21.55	347.85	38.25	-31.5	-34.6	12.0	3.42e-04	0	43	0	910163968	24	5152
2026-01-30 10:15:22.55	347.78	38.00	-31.5	-34.8	11.8	4.75e-04	0	43	0	911212544	24	5242
2026-01-30 10:15:23.56	347.71	37.76	-31.6	-35.0	11.7	4.79e-04	0	44	0	913309696	24	5313
2026-01-30 10:15:24.56	347.65	37.52	-31.6	-35.1	11.6	5.87e-04	0	43	0	915406848	24	5353
2026-01-30 10:15:25.57	347.59	37.27	-31.5	-34.8	11.7	6.42e-04	0	44	0	917504000	24	5251
2026-01-30 10:15:26.58	347.52	37.03	-31.4	-34.5	12.0	3.37e-04	0	43	0	919601152	24	5129
2026-01-30 10:15:27.58	347.46	36.80	-31.3	-34.2	12.2	2.48e-04	0	43	0	920649728	24	5003
2026-01-30 10:15:28.59	347.40	36.56	-31.3	-34.2	12.1	2.30e-04	0	44	0	922746880	24	5029
2026-01-30 10:15:29.58	347.34	36.33	-31.2	-34.4	12.3	2.30e-04	0	43	0	924844032	23	5199
2026-01-30 10:15:30.58	347.28	36.10	-31.1	-34.1	12.6	9.53e-05	0	43	0	926941184	23	5054
2026-01-30 10:15:31.58	347.22	35.87	-31.1	-33.9	12.7	1.20e-04	0	43	0	929038336	23	5005
2026-01-30 10:15:32.58	347.17	35.64	-30.9	-33.6	13.0	5.64e-05	0	43	0	930086912	23	4863
2026-01-30 10:15:33.59	347.11	35.41	-30.8	-33.2	13.2	2.97e-05	0	43	0	932184064	23	4733
2026-01-30 10:15:34.59	347.05	35.19	-30.9	-33.4	13.1	3.81e-05	0	43	0	934281216	23	4805
2026-01-30 10:15:35.60	347.00	34.96	-30.9	-33.4	13.1	3.73e-05	0	43	0	936378368	23	4790
2026-01-30 10:15:36.61	346.94	34.74	-30.3	-32.6	13.2	2.74e-05	0	43	0	938475520	22	4721
2026-01-30 10:15:37.61	346.89	34.52	-30.8	-33.8	13.1	2.59e-05	0	43	0	939524096	22	5046
2026-01-30 10:15:38.62	346.84	34.30	-30.8	-33.6	13.2	2.82e-05	0	44	0	941621248	22	4995
2026-01-30 10:15:39.63	346.79	34.08	-30.8	-33.7	13.2	1.67e-05	0	43	0	943718400	22	5025
2026-01-30 10:15:40.63	346.74	33.86	-30.8	-33.7	13.2	2.59e-05	0	43	0	945815552	22	5010
2026-01-30 10:15:41.63	346.69	33.65	-31.1	-34.4	12.7	3.73e-05	0	43	0	947912704	22	5296
2026-01-30 10:15:42.64	346.64	33.43	-31.4	-35.3	12.1	1.52e-04	0	43	0	948961280	22	5666
2026-01-30 10:15:43.64	346.59	33.22	-31.6	-35.5	11.6	4.62e-04	0	43	0	951058432	23	5662
2026-01-30 10:15:44.64	346.54	33.01	-31.8	-36.2	11.1	9.65e-04	0	43	0	953155584	23	5989
2026-01-30 10:15:45.65	346.49	32.80	-32.0	-36.8	10.7	2.20e-03	0	43	0	955252736	23	6262
2026-01-30 10:15:46.65	346.44	32.59	-32.0	-36.5	10.5	3.69e-03	0	43	0	957349888	24	6027
2026-01-30 10:15:47.65	346.40	32.39	-32.0	-36.4	10.6	3.22e-03	0	43	0	958398464	24	5975
2026-01-30 10:15:48.66	346.35	32.18	-32.0	-36.3	10.7	3.24e-03	0	43	0	960495616	24	5910
2026-01-30 10:15:49.66	346.31	31.98	-31.8	-35.7	11.1	2.44e-03	0	43	0	962592768	24	5653
2026-01-30 10:15:50.66	346.26	31.78	-31.8	-35.7	11.1	1.45e-03	0	43	0	964689920	24	5625
2026-01-30 10:15:51.67	346.22	31.58	-31.8	-35.7	11.1	1.48e-03	0	43	0	965738496	24	5624
2026-01-30 10:15:52.67	346.18	31.38	-31.7	-35.4	11.3	1.61e-03	0	43	0	967835648	24	5504
2026-01-30 10:15:53.67	346.13	31.18	-31.5	-34.9	11.6	9.95e-04	0	43	0	969932800	24	5296
2026-01-30 10:15:54.68	346.09	30.98	-31.4	-34.6	11.9	4.97e-04	0	43	0	972029952	24	5169
2026-01-30 10:15:55.68	346.05	30.79	-31.5	-34.8	11.7	4.48e-04	0	43	0	974127104	24	5241
2026-01-30 10:15:56.68	346.01	30.59	-31.4	-34.5	12.0	4.55e-04	0	43	0	976224256	24	5116
2026-01-30 10:15:57.69	345.97	30.40	-31.4	-34.6	11.9	3.75e-04	0	43	0	977272832	24	5168
2026-01-30 10:15:58.69	345.93	30.21	-31.5	-34.7	11.8	4.26e-04	0	43	0	979369984	24	5213
2026-01-30 10:15:59.69	345.89	30.02	-31.5	-34.8	11.7	5.87e-04	0	43	0	981467136	24	5277
2026-01-30 10:16:00.70	345.85	29.83	-31.6	-35.1	11.5	7.10e-04	0	43	0	983564288	24	5390
2026-01-30 10:16:01.69	345.81	29.64	-31.7	-35.5	11.2	9.27e-04	0	43	0	984612864	24	5556
2026-01-30 10:16:02.70	345.77	29.46	-31.8	-35.7	11.1	1.62e-03	0	43	0	986710016	24	5661
2026-01-30 10:16:03.71	345.74	29.27	-31.8	-35.8	11.0	1.70e-03	0	43	0	988807168	24	5688
2026-01-30 10:16:04.71	345.70	29.09	-31.8	-35.7	11.1	1.86e-03	0	43	0	990904320	24	5651
2026-01-30 10:16:05.71	345.66	28.90	-31.7	-35.3	11.3	1.33e-03	0	43	0	993001472	24	5486
2026-01-30 10:16:06.72	345.63	28.72	-31.6	-35.3	11.4	8.54e-04	0	43	0	994050048	24	5453
2026-01-30 10:16:07.72	345.59	28.54	-31.5	-34.8	11.7	9.22e-04	0	43	0	996147200	24	5267
2026-01-30 10:16:08.72	345.56	28.36	-31.4	-34.3	12.0	3.49e-04	0	43	0	998244352	24	5078
2026-01-30 10:16:09.73	345.52	28.18	-31.3	-34.5	12.2	2.43e-04	0	43	0	1000341504	23	5256
2026-01-30 10:16:10.73	345.49	28.00	-31.2	-34.3	12.4	1.78e-04	0	44	0	1002438656	23	5144
2026-01-30 10:16:11.74	345.45	27.83	-31.2	-34.2	12.4	1.41e-04	0	43	0	1003487232	23	5135
2026-01-30 10:16:12.74	345.42	27.65	-31.0	-33.8	12.7	9.30e-05	0	43	0	1005584384	23	4980
2026-01-30 10:16:13.75	345.39	27.48	-31.0	-33.7	12.8	5.26e-05	0	43	0	1007681536	23	4938
2026-01-30 10:16:14.74	345.35	27.31	-30.9	-33.6	12.8	5.56e-05	0	43	0	1009778688	23	4905
2026-01-30 10:16:15.75	345.32	27.13	-30.9	-33.5	12.9	3.89e-05	0	43	0	1011875840	23	4871
2026-01-30 10:16:16.75	345.29	26.96	-30.9	-33.4	12.9	5.34e-05	0	43	0	1012924416	23	4833
2026-01-30 10:16:17.75	345.26	26.79	-30.9	-33.4	13.0	3.89e-05	0	43	0	1015021568	23	4837
2026-01-30 10:16:18.75	345.23	26.63	-30.8	-33.2	13.0	4.50e-05	0	43	0	1017118720	23	4769
2026-01-30 10:16:19.76	345.20	26.46	-30.8	-33.7	13.1	2.74e-05	0	43	0	1019215872	22	5043
2026-01-30 10:16:20.75	345.17	26.29	-30.7	-33.5	13.2	2.51e-05	0	43	0	1021313024	22	4982
2026-01-30 10:16:21.76	345.14	26.13	-30.6	-33.1	13.4	1.44e-05	0	43	0	1022361600	22	4836
2026-01-30 10:16:22.76	345.11	25.96	-30.6	-33.2	13.4	1.60e-05	0	43	0	1024458752	22	4863
2026-01-30 10:16:23.76	345.08	25.80	-30.5	-33.1	13.5	1.75e-05	0	43	0	1026555904	22	4811
2026-01-30 10:16:24.76	345.05	25.64	-30.4	-32.8	13.6	9.10e-06	0	43	0	1028653056	22	4720
2026-01-30 10:16:25.77	345.02	25.48	-30.5	-32.9	13.6	7.60e-06	0	43	0	1030750208	22	4772
2026-01-30 10:16:26.77	344.99	25.32	-30.5	-32.9	13.5	1.29e-05	0	43	0	1031798784	22	4771
2026-01-30 10:16:27.78	344.96	25.15	-30.5	-32.9	13.5	6.80e-06	0	43	0	1033895936	22	4768
2026-01-30 10:16:28.78	344.94	25.00	-30.6	-33.1	13.4	9.90e-06	0	43	0	1035993088	22	4829
2026-01-30 10:16:29.79	344.91	24.84	-30.7	-33.5	13.2	2.44e-05	0	43	0	1038090240	22	4966
2026-01-30 10:16:30.79	344.88	24.68	-30.6	-33.3	13.3	1.98e-05	0	43	0	1039138816	22	4907
2026-01-30 10:16:31.79	344.86	24.53	-30.5	-33.1	13.4	1.44e-05	0	43	0	1041235968	22	4817
2026-01-30 10:16:32.78	344.83	24.37	-30.5	-33.1	13.4	9.90e-06	0	43	0	1043333120	22	4821
2026-01-30 10:16:33.78	344.80	24.22	-30.5	-33.0	13.5	1.83e-05	0	43	0	1045430272	22	4791
2026-01-30 10:16:34.78	344.78	24.07	-30.5	-33.0	13.4	1.52e-05	0	43	0	1047527424	22	4808
2026-01-30 10:16:35.79	344.75	23.91	-30.7	-33.6	13.1	2.28e-05	0	43	0	1048576000	22	5006
2026-01-30 10:16:36.79	344.73	23.76	-30.6	-33.2	13.3	2.28e-05	0	43	0	1050673152	22	4863
2026-01-30 10:16:37.80	344.70	23.61	-30.5	-33.1	13.3	1.14e-05	0	43	0	1052770304	22	4844
2026-01-30 10:16:38.80	344.68	23.46	-30.5	-32.9	13.5	1.75e-05	0	43	0	1054867456	22	4773
2026-01-30 10:16:39.80	344.65	23.31	-30.6	-33.2	13.4	1.29e-05	0	43	0	1056964608	22	4858
2026-01-30 10:16:40.80	344.63	23.17	-30.5	-33.0	13.4	1.83e-05	0	43	0	1058013184	22	4811
2026-01-30 10:16:41.81	344.60	23.02	-30.5	-33.1	13.4	1.44e-05	0	43	0	1060110336	22	4833
2026-01-30 10:16:42.81	344.58	22.87	-30.5	-32.9	13.5	1.14e-05	0	43	0	1062207488	22	4777
2026-01-30 10:16:43.82	344.56	22.73	-30.5	-32.9	13.5	1.06e-05	0	43	0	1064304640	22	4761
2026-01-30 10:16:44.83	344.53	22.58	-30.4	-32.8	13.5	1.06e-05	0	43	0	1066401792	22	4745
2026-01-30 10:16:45.84	344.51	22.44	-30.4	-32.8	13.6	1.22e-05	0	43	0	1067450368	22	4724
2026-01-30 10:16:46.84	344.49	22.29	-30.4	-32.7	13.6	1.06e-05	0	43	0	1069547520	22	4704
2026-01-30 10:16:47.84	344.47	22.15	-30.4	-32.7	13.6	8.30e-06	0	43	0	1071644672	22	4687
2026-01-30 10:16:48.85	344.44	22.01	-30.4	-32.7	13.6	6.10e-06	0	43	0	1073741824	22	4715
2026-01-30 10:16:49.85	344.42	21.87	-30.6	-33.3	13.2	1.60e-05	0	44	0	1075838976	22	4907
2026-01-30 10:16:50.86	344.40	21.73	-30.4	-32.8	13.5	1.52e-05	0	43	0	1076887552	22	4735
2026-01-30 10:16:51.86	344.38	21.59	-30.2	-32.6	13.9	2.20e-06	0	43	0	1078984704	21	4777
2026-01-30 10:16:52.87	344.36	21.45	-30.2	-32.6	13.9	5.30e-06	0	43	0	1081081856	21	4790
2026-01-30 10:16:53.87	344.34	21.31	-30.2	-32.6	13.9	2.20e-06	0	43	0	1083179008	21	4778
2026-01-30 10:16:54.87	344.32	21.18	-30.2	-32.8	13.8	3.00e-06	0	43	0	1085276160	21	4839
2026-01-30 10:16:55.87	344.29	21.04	-30.2	-32.8	13.8	4.50e-06	0	43	0	1086324736	21	4849
2026-01-30 10:16:56.87	344.27	20.91	-30.2	-32.9	13.7	8.30e-06	0	43	0	1088421888	21	4877
2026-01-30 10:16:57.88	344.25	20.77	-30.3	-33.0	13.6	9.90e-06	0	43	0	1090519040	21	4932
2026-01-30 10:16:58.89	344.23	20.64	-30.4	-33.3	13.4	7.60e-06	0	43	0	1092616192	21	5032
2026-01-30 10:16:59.89	344.21	20.50	-30.4	-33.4	13.4	1.44e-05	0	44	0	1094713344	21	5057
2026-01-30 10:17:00.89	344.19	20.37	-30.4	-33.4	13.3	1.90e-05	0	43	0	1095761920	21	5067
2026-01-30 10:17:01.89	344.18	20.24	-30.6	-33.7	13.1	2.21e-05	0	43	0	1097859072	21	5196
2026-01-30 10:17:02.90	344.16	20.11	-30.5	-33.6	13.2	2.44e-05	0	43	0	1099956224	21	5138
2026-01-30 10:17:03.91	344.14	19.98	-30.6	-33.8	13.1	2.67e-05	0	43	0	1102053376	21	5210
2026-01-30 10:17:04.91	344.12	19.85	-30.6	-34.0	12.9	4.57e-05	0	43	0	1103101952	21	5290
2026-01-30 10:17:05.91	344.10	19.72	-30.7	-34.0	12.9	4.19e-05	0	43	0	1105199104	21	5315
2026-01-30 10:17:06.90	344.08	19.59	-30.8	-34.3	12.7	7.24e-05	0	43	0	1107296256	21	5431
2026-01-30 10:17:07.91	344.06	19.46	-30.7	-34.2	12.7	7.24e-05	0	43	0	1109393408	21	5391
2026-01-30 10:17:08.91	344.05	19.33	-30.7	-34.2	12.7	6.86e-05	0	44	0	1111490560	21	5397
2026-01-30 10:17:09.91	344.03	19.21	-30.9	-34.7	12.4	7.62e-05	0	43	0	1112539136	21	5577
2026-01-30 10:17:10.91	344.01	19.08	-30.8	-34.4	12.7	1.19e-04	0	43	0	1114636288	21	5443
2026-01-30 10:17:11.91	343.99	18.96	-30.7	-34.2	12.7	7.40e-05	0	43	0	1116733440	21	5373
2026-01-30 10:17:12.91	343.98	18.83	-30.7	-34.2	12.7	8.31e-05	0	43	0	1118830592	21	5388
2026-01-30 10:17:13.92	343.96	18.71	-30.7	-34.1	12.8	7.40e-05	0	43	0	1120927744	21	5354
2026-01-30 10:17:14.92	343.94	18.59	-30.7	-34.1	12.8	5.79e-05	0	43	0	1121976320	21	5334
2026-01-30 10:17:15.93	343.92	18.46	-30.7	-34.2	12.7	4.80e-05	0	43	0	1124073472	21	5374
2026-01-30 10:17:16.93	343.91	18.34	-30.8	-34.6	12.5	1.05e-04	0	43	0	1126170624	21	5558
2026-01-30 10:17:17.94	343.89	18.22	-30.8	-34.4	12.6	1.01e-04	0	43	0	1128267776	21	5452
2026-01-30 10:17:18.94	343.88	18.10	-30.9	-34.7	12.4	1.17e-04	0	43	0	1130364928	21	5575
2026-01-30 10:17:19.95	343.86	17.98	-30.8	-34.5	12.5	1.48e-04	0	43	0	1131413504	21	5509
2026-01-30 10:17:20.95	343.84	17.86	-30.8	-34.6	12.4	1.11e-04	0	43	0	1133510656	21	5575
2026-01-30 10:17:21.96	343.83	17.74	-31.0	-35.0	12.1	1.79e-04	0	43	0	1135607808	21	5721
2026-01-30 10:17:22.96	343.81	17.62	-30.9	-34.8	12.3	2.78e-04	0	43	0	1137704960	21	5628
2026-01-30 10:17:23.97	343.80	17.50	-30.9	-34.7	12.3	1.62e-04	0	43	0	1139802112	21	5595
2026-01-30 10:17:24.97	343.78	17.38	-30.9	-35.0	12.1	2.25e-04	0	43	0	1140850688	21	5714
2026-01-30 10:17:25.97	343.77	17.27	-30.9	-34.8	12.2	2.14e-04	0	43	0	1142947840	21	5665
2026-01-30 10:17:26.97	343.75	17.15	-30.9	-34.8	12.2	1.80e-04	0	43	0	1145044992	21	5651
2026-01-30 10:17:27.98	343.74	17.03	-31.0	-35.0	12.0	2.46e-04	0	43	0	1147142144	21	5752
2026-01-30 10:17:28.98	343.72	16.92	-30.9	-34.9	12.2	2.14e-04	0	44	0	1149239296	21	5679
2026-01-30 10:17:29.98	343.71	16.81	-31.1	-34.8	11.9	2.68e-04	0	43	0	1150287872	22	5524
2026-01-30 10:17:30.98	343.69	16.69	-31.1	-34.9	11.8	4.99e-04	0	43	0	1152385024	22	5580
2026-01-30 10:17:31.98	343.68	16.58	-31.0	-34.7	12.0	4.00e-04	0	43	0	1154482176	22	5506
2026-01-30 10:17:32.99	343.66	16.46	-31.1	-35.0	11.8	4.00e-04	0	43	0	1156579328	22	5618
2026-01-30 10:17:33.99	343.65	16.35	-31.1	-34.8	11.8	4.23e-04	0	43	0	1157627904	22	5563
2026-01-30 10:17:35.00	343.64	16.24	-31.1	-35.0	11.8	5.14e-04	0	43	0	1159725056	22	5613
2026-01-30 10:17:36.00	343.62	16.13	-31.1	-35.0	11.7	5.45e-04	0	43	0	1161822208	22	5610
2026-01-30 10:17:37.01	343.61	16.02	-31.1	-35.0	11.7	4.76e-04	0	43	0	1163919360	22	5633
2026-01-30 10:17:38.01	343.59	15.91	-31.2	-35.4	11.4	8.09e-04	0	43	0	1166016512	22	5814
2026-01-30 10:17:39.01	343.58	15.80	-31.2	-35.1	11.6	7.94e-04	0	43	0	1167065088	22	5696
2026-01-30 10:17:40.01	343.57	15.69	-31.2	-35.4	11.4	7.96e-04	0	43	0	1169162240	22	5818
2026-01-30 10:17:41.02	343.55	15.58	-31.4	-36.0	11.0	1.68e-03	0	43	0	1171259392	22	6114
2026-01-30 10:17:42.02	343.54	15.47	-31.3	-35.6	11.2	1.61e-03	0	43	0	1173356544	22	5918
2026-01-30 10:17:43.03	343.53	15.36	-31.2	-35.2	11.5	1.04e-03	0	43	0	1175453696	22	5722
2026-01-30 10:17:44.03	343.52	15.25	-31.1	-35.0	11.6	6.19e-04	0	43	0	1176502272	22	5654
2026-01-30 10:17:45.04	343.50	15.14	-31.1	-35.2	11.6	7.05e-04	0	43	0	1178599424	22	5708
2026-01-30 10:17:46.03	343.49	15.04	-31.1	-35.1	11.7	6.59e-04	0	43	0	1180696576	22	5665
2026-01-30 10:17:47.03	343.48	14.93	-31.1	-34.9	11.7	5.68e-04	0	43	0	1182793728	22	5621
2026-01-30 10:17:48.03	343.47	14.83	-31.0	-34.8	11.8	5.20e-04	0	43	0	1184890880	22	5560
2026-01-30 10:17:49.04	343.45	14.72	-31.0	-34.8	11.8	4.98e-04	0	43	0	1185939456	22	5558
2026-01-30 10:17:50.03	343.44	14.62	-31.1	-35.1	11.6	5.32e-04	0	43	0	1188036608	22	5673
2026-01-30 10:17:51.04	343.43	14.51	-31.0	-34.8	11.8	6.13e-04	0	43	0	1190133760	22	5562
2026-01-30 10:17:52.05	343.42	14.41	-31.0	-34.7	11.8	4.49e-04	0	43	0	1192230912	22	5512
2026-01-30 10:17:53.05	343.41	14.30	-31.0	-34.8	11.7	5.47e-04	0	43	0	1194328064	22	5560
2026-01-30 10:17:54.06	343.40	14.20	-31.0	-34.9	11.7	5.89e-04	0	43	0	1195376640	22	5612
2026-01-30 10:17:55.06	343.38	14.10	-31.1	-35.0	11.6	6.19e-04	0	43	0	1197473792	22	5639
2026-01-30 10:17:56.06	343.37	14.00	-31.0	-34.9	11.7	6.10e-04	0	43	0	1199570944	22	5613
2026-01-30 10:17:57.06	343.36	13.90	-31.0	-34.8	11.7	5.80e-04	0	43	0	1201668096	22	5577
2026-01-30 10:17:58.07	343.35	13.79	-31.1	-35.1	11.5	7.78e-04	0	43	0	1202716672	22	5703
2026-01-30 10:17:59.07	343.34	13.69	-31.0	-34.9	11.6	7.22e-04	0	43	0	1204813824	22	5627
2026-01-30 10:18:00.08	343.33	13.59	-31.1	-35.0	11.6	6.46e-04	0	43	0	1206910976	22	5650
2026-01-30 10:18:01.08	343.32	13.49	-31.1	-35.0	11.5	7.65e-04	0	43	0	1209008128	22	5664
2026-01-30 10:18:02.08	343.31	13.39	-31.0	-34.9	11.6	7.45e-04	0	43	0	1211105280	22	5619
2026-01-30 10:18:03.09	343.30	13.29	-31.0	-35.0	11.5	6.45e-04	0	43	0	1213202432	22	5655
2026-01-30 10:18:04.09	343.29	13.19	-31.1	-35.0	11.5	8.54e-04	0	43	0	1214251008	22	5672
2026-01-30 10:18:05.09	343.27	13.10	-31.0	-35.0	11.5	7.59e-04	0	43	0	1216348160	22	5648
2026-01-30 10:18:06.10	343.26	13.00	-31.0	-34.9	11.6	7.55e-04	0	43	0	1218445312	22	5639
2026-01-30 10:18:07.10	343.25	12.90	-31.0	-34.9	11.6	7.09e-04	0	43	0	1220542464	22	5617
2026-01-30 10:18:08.10	343.24	12.80	-31.1	-35.0	11.5	8.56e-04	0	43	0	1221591040	22	5689
2026-01-30 10:18:09.10	343.23	12.71	-31.2	-35.5	11.1	1.34e-03	0	43	0	1223688192	22	5887
2026-01-30 10:18:10.10	343.22	12.61	-31.1	-35.1	11.4	1.28e-03	0	43	0	1225785344	22	5734
2026-01-30 10:18:11.11	343.21	12.51	-31.1	-35.1	11.3	1.02e-03	0	43	0	1227882496	22	5741
2026-01-30 10:18:12.10	343.20	12.42	-31.1	-35.1	11.4	1.05e-03	0	43	0	1229979648	22	5728
2026-01-30 10:18:13.10	343.19	12.32	-31.1	-35.2	11.3	1.13e-03	0	43	0	1231028224	22	5777
2026-01-30 10:18:14.11	343.18	12.23	-31.2	-35.5	11.1	1.26e-03	0	43	0	1233125376	22	5883
2026-01-30 10:18:15.11	343.18	12.13	-31.2	-35.4	11.1	1.49e-03	0	43	0	1235222528	22	5881
2026-01-30 10:18:16.11	343.17	12.04	-31.2	-35.6	11.0	1.73e-03	0	43	0	1237319680	22	5945
2026-01-30 10:18:17.11	343.16	11.94	-31.2	-35.5	11.1	1.78e-03	0	43	0	1239416832	22	5915
2026-01-30 10:18:18.12	343.15	11.85	-31.2	-35.6	11.0	1.63e-03	0	43	0	1240465408	22	5944
2026-01-30 10:18:19.13	343.14	11.76	-31.2	-35.5	11.0	1.89e-03	0	43	0	1242562560	22	5939
2026-01-30 10:18:20.13	343.13	11.66	-31.3	-35.7	10.9	2.12e-03	0	43	0	1244659712	22	6032
2026-01-30 10:18:21.14	343.12	11.57	-31.2	-35.7	10.9	2.18e-03	0	43	0	1246756864	22	5998
2026-01-30 10:18:22.14	343.11	11.48	-31.2	-35.7	10.9	1.94e-03	0	43	0	1248854016	22	6007
2026-01-30 10:18:23.15	343.10	11.39	-31.2	-35.8	10.8	2.18e-03	0	43	0	1249902592	22	6052
2026-01-30 10:18:24.15	343.09	11.30	-31.2	-35.7	10.8	2.41e-03	0	43	0	1251999744	22	6030
2026-01-30 10:18:25.16	343.08	11.20	-31.3	-35.8	10.8	2.62e-03	0	43	0	1254096896	22	6069
2026-01-30 10:18:26.17	343.08	11.11	-31.3	-36.0	10.6	3.17e-03	0	43	0	1256194048	22	6179
2026-01-30 10:18:27.18	343.07	11.02	-31.3	-35.9	10.7	3.25e-03	0	43	0	1258291200	22	6136
2026-01-30 10:18:28.18	343.06	10.93	-31.3	-36.0	10.6	3.22e-03	0	43	0	1259339776	22	6159
2026-01-30 10:18:29.18	343.05	10.84	-31.3	-36.1	10.5	3.64e-03	0	43	0	1261436928	22	6220
2026-01-30 10:18:30.19	343.04	10.75	-31.4	-36.3	10.3	4.12e-03	0	43	0	1263534080	22	6349
2026-01-30 10:18:31.20	343.03	10.66	-31.4	-36.3	10.4	4.48e-03	0	43	0	1265631232	22	6321
2026-01-30 10:18:32.20	343.03	10.57	-31.4	-36.3	10.3	5.03e-03	0	43	0	1267728384	22	6335
2026-01-30 10:18:33.21	343.02	10.48	-31.4	-36.5	10.1	5.93e-03	0	43	0	1268776960	22	6445
2026-01-30 10:18:34.21	343.01	10.40	-31.4	-36.4	10.2	5.87e-03	0	43	0	1270874112	22	6387
2026-01-30 10:18:35.21	343.00	10.31	-31.5	-36.7	10.0	6.90e-03	0	43	0	1272971264	22	6545
2026-01-30 10:18:36.21	342.99	10.22	-31.6	-36.5	9.7	8.79e-03	0	44	0	1275068416	23	6348
2026-01-30 10:18:37.22	342.99	10.13	-31.7	-36.9	9.4	1.32e-02	0	43	0	1277165568	23	6547
2026-01-30 10:18:38.22	342.98	10.05	-31.6	-36.4	9.8	1.08e-02	0	43	0	1278214144	23	6304
2026-01-30 10:18:39.23	342.97	9.96	-31.6	-36.7	9.6	1.16e-02	0	43	0	1280311296	23	6436
2026-01-30 10:18:40.23	342.96	9.87	-31.5	-36.4	9.8	1.18e-02	0	43	0	1282408448	23	6299
