passes_logs/2026/01/30/R2M6_AANII_01/R2M6_AANII_01__20260130_154627_FENGYUN_3E_rec.log

#Pass ID: 20260130_154627_FENGYUN 3E
#Satellite: FENGYUN 3E
#Configuration: FENGYUN 3E
#almurnet v.1.7.20240730
#Start time: 2026-01-30 15:46:26

#Version: 2.2.20231116
#Station: R2M6_AANII_01
#Location: 30.233357 lon 59.946436 lat
#TLE: 1 49008U 21062A   26030.15628484 -.00000231  00000+0 -88238-4 0  9991
#TLE: 2 49008  98.7496  35.1082 0002567 110.3408 249.8045 14.19886954236998

#Time	Az	El	Level	Level2	SNR	BER	BlckErr	Temp	State	Recorded	gain1	gain2
2026-01-30 15:46:26.86	197.66	6.97	-27.0	-28.6	5.7	7.50e-01	0	40	0	0	13	4354
2026-01-30 15:46:27.86	197.73	7.04	-29.3	-32.0	5.2	7.75e-01	0	40	104	0	18	4892
2026-01-30 15:46:28.87	197.80	7.11	-29.5	-32.3	8.8	3.14e-02	0	40	0	0	18	4993
2026-01-30 15:46:29.88	197.87	7.18	-29.1	-31.1	9.6	1.65e-02	0	40	0	7340032	18	4576
2026-01-30 15:46:30.89	197.95	7.25	-29.2	-31.7	9.2	1.78e-02	0	40	0	14680064	18	4757
2026-01-30 15:46:31.90	198.02	7.32	-29.1	-31.1	9.6	1.25e-02	0	40	0	22020096	18	4568
2026-01-30 15:46:32.91	198.09	7.40	-28.5	-29.6	10.6	4.99e-03	0	40	0	29360128	18	4091
2026-01-30 15:46:33.93	198.17	7.47	-28.0	-28.9	11.3	1.29e-03	0	40	0	36700160	17	4017
2026-01-30 15:46:34.94	198.24	7.54	-27.6	-28.4	12.0	4.61e-04	0	40	0	44040192	16	3966
2026-01-30 15:46:35.95	198.31	7.61	-27.0	-27.6	12.6	9.95e-05	0	40	0	51380224	15	3853
2026-01-30 15:46:36.96	198.39	7.68	-26.7	-27.4	13.0	3.89e-05	0	40	0	58720256	14	3900
2026-01-30 15:46:37.97	198.46	7.76	-26.4	-26.8	13.4	1.25e-05	0	40	0	66060288	14	3745
2026-01-30 15:46:38.98	198.54	7.83	-26.3	-26.9	13.6	1.14e-05	0	40	0	73400320	13	3877
2026-01-30 15:46:39.99	198.61	7.90	-26.3	-27.0	13.6	9.10e-06	0	40	0	80740352	13	3900
2026-01-30 15:46:41.00	198.69	7.97	-26.2	-26.7	13.7	5.70e-06	0	40	0	87031808	13	3832
2026-01-30 15:46:42.01	198.76	8.05	-25.9	-26.1	14.1	1.14e-05	0	40	0	95420416	13	3689
2026-01-30 15:46:43.02	198.84	8.12	-26.0	-26.4	14.0	2.20e-06	0	40	0	102760448	13	3736
2026-01-30 15:46:44.03	198.92	8.19	-25.9	-26.2	14.1	2.20e-06	0	40	0	109051904	13	3697
2026-01-30 15:46:45.04	198.99	8.27	-26.0	-26.3	14.0	5.70e-06	0	40	0	116391936	13	3731
2026-01-30 15:46:46.05	199.07	8.34	-26.2	-26.6	13.8	0.00e+00	0	40	0	123731968	13	3804
2026-01-30 15:46:47.06	199.15	8.41	-26.3	-26.9	13.6	5.70e-06	0	40	0	131072000	13	3884
2026-01-30 15:46:48.07	199.23	8.49	-26.2	-26.7	13.8	1.25e-05	0	40	0	138412032	13	3831
2026-01-30 15:46:49.09	199.31	8.56	-26.3	-27.0	13.6	9.10e-06	0	40	0	145752064	13	3901
2026-01-30 15:46:50.10	199.38	8.64	-26.5	-27.4	13.4	1.37e-05	0	40	0	153092096	13	3994
2026-01-30 15:46:51.11	199.46	8.71	-26.2	-26.8	13.8	5.70e-06	0	41	0	160432128	13	3843
2026-01-30 15:46:52.12	199.54	8.79	-25.9	-26.0	14.2	3.40e-06	0	41	0	167772160	13	3644
2026-01-30 15:46:53.13	199.62	8.86	-26.0	-26.8	14.1	1.10e-06	0	40	0	175112192	12	3932
2026-01-30 15:46:54.14	199.70	8.94	-26.0	-26.9	14.0	5.70e-06	0	40	0	182452224	12	3954
2026-01-30 15:46:55.15	199.79	9.01	-25.8	-26.3	14.4	0.00e+00	0	41	0	189792256	12	3808
2026-01-30 15:46:56.16	199.87	9.09	-25.6	-25.9	14.6	0.00e+00	0	41	0	197132288	12	3725
2026-01-30 15:46:57.17	199.95	9.16	-25.3	-25.8	15.0	6.80e-06	0	41	0	204472320	11	3788
2026-01-30 15:46:58.18	200.03	9.24	-25.7	-26.6	14.6	0.00e+00	0	41	0	211812352	11	3977
2026-01-30 15:46:59.19	200.11	9.31	-25.6	-26.4	14.7	1.10e-06	0	41	0	219152384	11	3939
2026-01-30 15:47:00.20	200.20	9.39	-25.7	-26.7	14.6	0.00e+00	0	41	0	226492416	11	4008
2026-01-30 15:47:01.21	200.28	9.47	-25.7	-26.7	14.5	0.00e+00	0	41	0	233832448	11	4015
2026-01-30 15:47:02.23	200.36	9.54	-25.7	-26.6	14.6	1.10e-06	0	41	0	241172480	11	3997
2026-01-30 15:47:03.24	200.45	9.62	-25.9	-27.0	14.3	0.00e+00	0	41	0	248512512	11	4104
2026-01-30 15:47:04.25	200.53	9.70	-25.7	-26.6	14.6	0.00e+00	0	41	0	255852544	11	3994
2026-01-30 15:47:05.26	200.62	9.77	-25.7	-26.7	14.6	1.10e-06	0	41	0	263192576	11	4019
2026-01-30 15:47:06.27	200.70	9.85	-25.7	-26.7	14.6	0.00e+00	0	41	0	270532608	11	4009
2026-01-30 15:47:07.28	200.79	9.93	-25.8	-26.7	14.6	0.00e+00	0	41	0	277872640	11	4027
2026-01-30 15:47:08.29	200.88	10.01	-25.6	-26.0	14.7	0.00e+00	0	41	0	284164096	12	3731
2026-01-30 15:47:09.30	200.96	10.08	-25.7	-26.1	14.6	1.10e-06	0	41	0	291504128	12	3768
2026-01-30 15:47:10.31	201.05	10.16	-25.6	-26.0	14.7	1.10e-06	0	41	0	299892736	12	3740
2026-01-30 15:47:11.32	201.14	10.24	-25.6	-26.0	14.7	0.00e+00	0	41	0	306184192	12	3741
2026-01-30 15:47:12.33	201.23	10.32	-25.7	-26.1	14.6	0.00e+00	0	41	0	313524224	12	3773
2026-01-30 15:47:13.34	201.31	10.40	-25.6	-25.9	14.7	0.00e+00	0	41	0	320864256	12	3729
2026-01-30 15:47:14.35	201.40	10.48	-25.6	-25.8	14.8	0.00e+00	0	41	0	328204288	12	3697
2026-01-30 15:47:15.37	201.49	10.56	-25.6	-25.8	14.8	0.00e+00	0	41	0	335544320	12	3690
2026-01-30 15:47:16.38	201.58	10.64	-25.6	-25.8	14.8	0.00e+00	0	41	0	342884352	12	3697
2026-01-30 15:47:17.39	201.67	10.71	-25.6	-25.9	14.8	0.00e+00	0	41	0	350224384	12	3717
2026-01-30 15:47:18.40	201.76	10.79	-25.8	-26.8	14.6	0.00e+00	0	41	0	357564416	11	4039
2026-01-30 15:47:19.41	201.86	10.87	-25.7	-26.6	14.7	1.10e-06	0	41	0	364904448	11	3983
2026-01-30 15:47:20.42	201.95	10.95	-25.7	-26.5	14.8	1.10e-06	0	41	0	372244480	11	3970
2026-01-30 15:47:21.43	202.04	11.03	-25.7	-26.5	14.8	0.00e+00	0	41	0	379584512	11	3958
2026-01-30 15:47:22.44	202.13	11.11	-25.7	-26.5	14.8	0.00e+00	0	41	0	386924544	11	3959
2026-01-30 15:47:23.45	202.23	11.19	-25.8	-26.7	14.7	0.00e+00	0	41	0	394264576	11	4015
2026-01-30 15:47:24.46	202.32	11.28	-25.7	-26.5	14.8	0.00e+00	0	41	0	401604608	11	3955
2026-01-30 15:47:25.47	202.41	11.36	-25.6	-26.3	15.0	0.00e+00	0	41	0	408944640	11	3904
2026-01-30 15:47:26.49	202.51	11.44	-25.7	-26.6	14.8	0.00e+00	0	41	0	416284672	11	3978
2026-01-30 15:47:27.50	202.61	11.52	-25.7	-26.5	14.8	0.00e+00	0	41	0	423624704	11	3968
2026-01-30 15:47:28.51	202.70	11.60	-25.6	-26.3	14.9	0.00e+00	0	41	0	430964736	11	3920
2026-01-30 15:47:29.52	202.80	11.68	-25.6	-26.3	14.9	0.00e+00	0	41	0	438304768	11	3917
2026-01-30 15:47:30.53	202.89	11.77	-25.5	-26.2	15.0	1.10e-06	0	41	0	445644800	11	3892
2026-01-30 15:47:31.54	202.99	11.85	-25.6	-26.4	14.9	0.00e+00	0	41	0	451936256	11	3926
2026-01-30 15:47:32.55	203.09	11.93	-25.5	-26.2	15.0	0.00e+00	0	41	0	459276288	11	3876
2026-01-30 15:47:33.56	203.19	12.01	-25.5	-26.2	15.0	0.00e+00	0	41	0	467664896	11	3888
2026-01-30 15:47:34.57	203.29	12.09	-25.5	-26.1	15.1	0.00e+00	0	41	0	473956352	11	3869
2026-01-30 15:47:35.58	203.39	12.18	-25.4	-25.9	15.2	2.20e-06	0	41	0	481296384	11	3810
2026-01-30 15:47:36.60	203.49	12.26	-25.4	-25.9	15.2	0.00e+00	0	41	0	488636416	11	3807
2026-01-30 15:47:37.61	203.59	12.35	-25.2	-25.5	15.4	0.00e+00	0	41	0	495976448	11	3721
2026-01-30 15:47:38.62	203.69	12.43	-25.3	-25.7	15.4	1.10e-06	0	41	0	503316480	11	3756
2026-01-30 15:47:39.63	203.79	12.51	-25.3	-25.6	15.4	0.00e+00	0	41	0	510656512	11	3727
2026-01-30 15:47:40.64	203.89	12.60	-25.3	-25.6	15.4	0.00e+00	0	41	0	517996544	11	3744
2026-01-30 15:47:41.65	204.00	12.68	-25.3	-25.6	15.4	3.40e-06	0	41	0	525336576	11	3734
2026-01-30 15:47:42.66	204.10	12.77	-25.2	-25.5	15.5	0.00e+00	0	42	0	532676608	11	3717
2026-01-30 15:47:43.67	204.20	12.85	-25.2	-25.4	15.5	0.00e+00	0	42	0	540016640	11	3691
2026-01-30 15:47:44.68	204.31	12.93	-25.1	-25.2	15.7	0.00e+00	0	42	0	547356672	11	3635
2026-01-30 15:47:45.69	204.41	13.02	-25.3	-25.6	15.4	0.00e+00	0	41	0	554696704	11	3735
2026-01-30 15:47:46.70	204.52	13.11	-25.2	-25.6	15.5	0.00e+00	0	42	0	562036736	11	3732
2026-01-30 15:47:47.71	204.63	13.19	-25.2	-25.4	15.5	0.00e+00	0	42	0	569376768	11	3699
2026-01-30 15:47:48.72	204.73	13.28	-25.2	-25.5	15.5	0.00e+00	0	41	0	576716800	11	3708
2026-01-30 15:47:49.73	204.84	13.36	-25.3	-25.6	15.4	0.00e+00	0	42	0	584056832	11	3749
2026-01-30 15:47:50.75	204.95	13.45	-25.3	-25.6	15.4	0.00e+00	0	42	0	591396864	11	3742
2026-01-30 15:47:51.76	205.06	13.54	-25.3	-25.7	15.4	0.00e+00	0	42	0	598736896	11	3758
2026-01-30 15:47:52.77	205.17	13.62	-25.1	-25.2	15.6	0.00e+00	0	41	0	606076928	11	3658
2026-01-30 15:47:53.78	205.28	13.71	-25.1	-25.2	15.6	0.00e+00	0	42	0	613416960	11	3654
2026-01-30 15:47:54.79	205.39	13.80	-25.0	-25.1	15.7	0.00e+00	0	41	0	620756992	11	3620
2026-01-30 15:47:55.80	205.50	13.88	-25.0	-25.1	15.7	0.00e+00	0	42	0	627048448	11	3626
2026-01-30 15:47:56.81	205.61	13.97	-25.0	-25.0	15.8	0.00e+00	0	42	0	635437056	11	3594
2026-01-30 15:47:57.82	205.72	14.06	-25.0	-25.0	15.8	0.00e+00	0	42	0	642777088	11	3604
2026-01-30 15:47:58.83	205.84	14.15	-25.0	-25.0	15.9	0.00e+00	0	42	0	649068544	11	3596
2026-01-30 15:47:59.85	205.95	14.24	-24.8	-25.1	16.0	0.00e+00	0	42	0	656408576	10	3723
2026-01-30 15:48:00.85	206.06	14.32	-24.9	-25.4	15.9	0.00e+00	0	42	0	663748608	10	3790
2026-01-30 15:48:01.87	206.18	14.41	-24.9	-25.4	15.9	0.00e+00	0	42	0	671088640	10	3786
2026-01-30 15:48:02.88	206.30	14.50	-25.0	-25.6	15.8	0.00e+00	0	42	0	678428672	10	3827
2026-01-30 15:48:03.89	206.41	14.59	-25.0	-25.5	15.9	0.00e+00	0	42	0	685768704	10	3817
2026-01-30 15:48:04.90	206.53	14.68	-24.9	-25.4	15.9	0.00e+00	0	42	0	693108736	10	3789
2026-01-30 15:48:05.91	206.65	14.77	-25.0	-25.5	15.9	0.00e+00	0	42	0	700448768	10	3821
2026-01-30 15:48:06.92	206.77	14.86	-25.1	-25.8	15.7	0.00e+00	0	42	0	707788800	10	3889
2026-01-30 15:48:07.93	206.89	14.95	-25.0	-25.5	15.9	0.00e+00	0	42	0	715128832	10	3808
2026-01-30 15:48:08.94	207.01	15.04	-24.9	-25.2	16.0	0.00e+00	0	42	0	722468864	10	3749
2026-01-30 15:48:09.95	207.13	15.13	-25.1	-25.6	15.8	0.00e+00	0	42	0	729808896	10	3839
2026-01-30 15:48:10.96	207.25	15.22	-24.9	-25.2	16.0	0.00e+00	0	42	0	737148928	10	3745
2026-01-30 15:48:11.98	207.37	15.31	-24.8	-25.0	16.1	0.00e+00	0	42	0	744488960	10	3697
2026-01-30 15:48:12.99	207.49	15.40	-24.8	-25.1	16.1	0.00e+00	0	42	0	751828992	10	3725
2026-01-30 15:48:14.00	207.62	15.49	-24.7	-24.9	16.2	0.00e+00	0	42	0	759169024	10	3676
2026-01-30 15:48:15.01	207.74	15.58	-24.6	-24.7	16.3	0.00e+00	0	42	0	766509056	10	3639
2026-01-30 15:48:16.02	207.87	15.68	-24.7	-24.8	16.2	0.00e+00	0	42	0	773849088	10	3659
2026-01-30 15:48:17.03	207.99	15.77	-24.7	-24.8	16.3	0.00e+00	0	42	0	781189120	10	3656
2026-01-30 15:48:18.04	208.12	15.86	-24.6	-24.6	16.4	0.00e+00	0	42	0	788529152	10	3599
2026-01-30 15:48:19.06	208.25	15.95	-24.5	-24.4	16.5	0.00e+00	0	42	0	794820608	10	3559
2026-01-30 15:48:20.07	208.37	16.05	-24.5	-24.4	16.5	2.20e-06	0	42	0	803209216	10	3559
2026-01-30 15:48:21.08	208.50	16.14	-24.5	-24.4	16.5	0.00e+00	0	42	0	810549248	10	3571
2026-01-30 15:48:22.09	208.63	16.23	-24.4	-24.7	16.6	0.00e+00	0	42	0	817889280	9	3725
2026-01-30 15:48:23.10	208.76	16.32	-24.3	-24.5	16.7	0.00e+00	0	42	0	824180736	9	3677
2026-01-30 15:48:24.11	208.89	16.42	-24.3	-24.5	16.7	0.00e+00	0	42	0	832569344	9	3670
2026-01-30 15:48:25.12	209.02	16.51	-24.3	-24.6	16.7	0.00e+00	0	42	0	838860800	9	3707
2026-01-30 15:48:26.13	209.16	16.60	-24.4	-24.6	16.7	0.00e+00	0	42	0	846200832	9	3702
2026-01-30 15:48:27.14	209.29	16.70	-24.1	-24.1	17.0	0.00e+00	0	42	0	853540864	9	3588
2026-01-30 15:48:28.15	209.43	16.79	-24.1	-24.2	16.9	0.00e+00	0	42	0	860880896	9	3609
2026-01-30 15:48:29.16	209.56	16.89	-24.1	-24.0	17.0	0.00e+00	0	42	0	868220928	9	3571
2026-01-30 15:48:30.17	209.70	16.98	-24.0	-23.9	17.1	0.00e+00	0	42	0	875560960	9	3543
2026-01-30 15:48:31.18	209.83	17.08	-24.1	-24.1	16.9	0.00e+00	0	42	0	882900992	9	3595
2026-01-30 15:48:32.19	209.97	17.17	-24.1	-24.1	16.9	1.10e-06	0	42	0	890241024	9	3586
2026-01-30 15:48:33.20	210.11	17.27	-24.2	-24.2	16.9	0.00e+00	0	42	0	897581056	9	3623
2026-01-30 15:48:34.21	210.25	17.36	-24.2	-24.3	16.9	0.00e+00	0	42	0	904921088	9	3631
2026-01-30 15:48:35.23	210.39	17.46	-24.2	-24.3	16.8	2.20e-06	0	42	0	912261120	9	3647
2026-01-30 15:48:36.24	210.53	17.56	-24.2	-24.4	16.8	0.00e+00	0	42	0	919601152	9	3654
2026-01-30 15:48:37.25	210.67	17.65	-24.3	-24.4	16.8	0.00e+00	0	42	0	926941184	9	3664
2026-01-30 15:48:38.26	210.81	17.75	-24.3	-24.5	16.8	0.00e+00	0	42	0	934281216	9	3680
2026-01-30 15:48:39.27	210.96	17.84	-24.3	-24.5	16.7	0.00e+00	0	42	0	941621248	9	3696
2026-01-30 15:48:40.28	211.10	17.94	-24.3	-24.4	16.8	0.00e+00	0	42	0	948961280	9	3665
2026-01-30 15:48:41.29	211.25	18.04	-24.4	-24.7	16.7	0.00e+00	0	42	0	956301312	9	3727
2026-01-30 15:48:42.30	211.39	18.14	-24.2	-24.3	16.9	0.00e+00	0	42	0	963641344	9	3633
2026-01-30 15:48:43.31	211.54	18.23	-24.1	-24.1	17.0	0.00e+00	0	42	0	970981376	9	3589
2026-01-30 15:48:44.32	211.69	18.33	-24.1	-24.0	17.0	0.00e+00	0	42	0	978321408	9	3579
2026-01-30 15:48:45.34	211.84	18.43	-24.0	-23.9	17.1	0.00e+00	0	42	0	985661440	9	3556
2026-01-30 15:48:46.35	211.99	18.53	-24.1	-24.0	17.0	0.00e+00	0	42	0	991952896	9	3572
2026-01-30 15:48:47.36	212.14	18.63	-24.0	-23.9	17.1	0.00e+00	0	42	0	1000341504	9	3555
2026-01-30 15:48:48.37	212.29	18.72	-23.9	-24.1	17.3	0.00e+00	0	42	0	1007681536	8	3692
2026-01-30 15:48:49.38	212.45	18.82	-23.8	-24.0	17.3	0.00e+00	0	42	0	1013972992	8	3658
2026-01-30 15:48:50.39	212.60	18.92	-23.7	-23.7	17.5	0.00e+00	0	42	0	1021313024	8	3612
2026-01-30 15:48:51.40	212.75	19.02	-23.8	-23.8	17.4	0.00e+00	0	42	0	1028653056	8	3635
2026-01-30 15:48:52.41	212.91	19.12	-23.8	-23.8	17.4	0.00e+00	0	42	0	1035993088	8	3633
2026-01-30 15:48:53.42	213.07	19.22	-23.9	-24.0	17.3	0.00e+00	0	42	0	1043333120	8	3674
2026-01-30 15:48:54.43	213.22	19.32	-23.7	-23.7	17.5	0.00e+00	0	42	0	1050673152	8	3592
2026-01-30 15:48:55.45	213.38	19.42	-23.6	-23.5	17.6	0.00e+00	0	42	0	1058013184	8	3557
2026-01-30 15:48:56.46	213.54	19.52	-23.6	-23.6	17.6	0.00e+00	0	42	0	1065353216	8	3570
2026-01-30 15:48:57.47	213.71	19.62	-23.7	-23.7	17.5	0.00e+00	0	42	0	1072693248	8	3597
2026-01-30 15:48:58.48	213.87	19.72	-23.7	-23.7	17.5	0.00e+00	0	42	0	1080033280	8	3593
2026-01-30 15:48:59.49	214.03	19.82	-23.8	-23.9	17.4	0.00e+00	0	42	0	1087373312	8	3649
2026-01-30 15:49:00.50	214.19	19.92	-23.8	-24.0	17.4	0.00e+00	0	42	0	1094713344	8	3669
2026-01-30 15:49:01.51	214.36	20.02	-24.0	-24.3	17.2	0.00e+00	0	42	0	1102053376	8	3740
2026-01-30 15:49:02.52	214.52	20.12	-24.0	-24.4	17.1	0.00e+00	0	42	0	1109393408	8	3760
2026-01-30 15:49:03.53	214.69	20.22	-24.1	-24.5	17.1	0.00e+00	0	42	0	1116733440	8	3784
2026-01-30 15:49:04.54	214.86	20.33	-24.0	-24.5	17.1	0.00e+00	0	42	0	1124073472	8	3772
2026-01-30 15:49:05.55	215.03	20.43	-23.8	-23.9	17.4	0.00e+00	0	42	0	1131413504	8	3657
2026-01-30 15:49:06.56	215.20	20.53	-23.6	-23.5	17.6	0.00e+00	0	42	0	1138753536	8	3555
2026-01-30 15:49:07.57	215.37	20.63	-23.7	-23.7	17.6	0.00e+00	0	42	0	1146093568	8	3603
2026-01-30 15:49:08.58	215.54	20.73	-23.6	-23.6	17.6	0.00e+00	0	42	0	1153433600	8	3578
2026-01-30 15:49:09.59	215.72	20.84	-23.6	-23.5	17.6	0.00e+00	0	42	0	1160773632	8	3566
2026-01-30 15:49:10.60	215.89	20.94	-23.6	-23.5	17.7	0.00e+00	0	42	0	1167065088	8	3559
2026-01-30 15:49:11.62	216.07	21.04	-23.5	-23.4	17.7	0.00e+00	0	42	0	1175453696	8	3535
2026-01-30 15:49:12.63	216.25	21.14	-23.6	-23.6	17.6	0.00e+00	0	42	0	1182793728	8	3576
2026-01-30 15:49:13.64	216.42	21.25	-23.5	-23.3	17.7	0.00e+00	0	42	0	1189085184	8	3517
2026-01-30 15:49:14.65	216.60	21.35	-23.4	-23.1	17.9	0.00e+00	0	42	0	1196425216	8	3479
2026-01-30 15:49:15.66	216.78	21.45	-23.5	-23.2	17.8	0.00e+00	0	42	0	1203765248	8	3489
2026-01-30 15:49:16.67	216.97	21.56	-23.5	-23.3	17.8	0.00e+00	0	42	0	1211105280	8	3524
2026-01-30 15:49:17.68	217.15	21.66	-23.5	-23.2	17.8	0.00e+00	0	42	0	1218445312	8	3495
2026-01-30 15:49:18.69	217.33	21.76	-23.5	-23.7	17.8	0.00e+00	0	42	0	1225785344	7	3703
2026-01-30 15:49:19.70	217.52	21.87	-23.4	-23.6	17.9	0.00e+00	0	42	0	1233125376	7	3669
2026-01-30 15:49:20.71	217.71	21.97	-23.5	-23.8	17.8	0.00e+00	0	42	0	1240465408	7	3714
2026-01-30 15:49:21.72	217.89	22.07	-23.5	-23.7	17.8	0.00e+00	0	42	0	1247805440	7	3703
2026-01-30 15:49:22.74	218.08	22.18	-23.3	-23.5	17.9	0.00e+00	0	42	0	1255145472	7	3646
2026-01-30 15:49:23.75	218.27	22.28	-23.5	-23.8	17.8	0.00e+00	0	42	0	1262485504	7	3718
2026-01-30 15:49:24.76	218.47	22.39	-23.3	-23.4	18.0	0.00e+00	0	42	0	1269825536	7	3628
2026-01-30 15:49:25.77	218.66	22.49	-23.2	-23.2	18.1	0.00e+00	0	42	0	1277165568	7	3585
2026-01-30 15:49:26.78	218.85	22.60	-23.2	-23.1	18.1	0.00e+00	0	42	0	1284505600	7	3571
2026-01-30 15:49:27.79	219.05	22.70	-23.3	-23.3	18.1	0.00e+00	0	42	0	1291845632	7	3602
2026-01-30 15:49:28.80	219.24	22.81	-23.2	-23.1	18.2	1.10e-06	0	42	0	1299185664	7	3574
2026-01-30 15:49:29.81	219.44	22.91	-23.1	-22.9	18.2	0.00e+00	0	42	0	1306525696	7	3535
2026-01-30 15:49:30.82	219.64	23.02	-23.1	-22.9	18.3	0.00e+00	0	42	0	1313865728	7	3519
2026-01-30 15:49:31.83	219.84	23.12	-23.1	-23.0	18.2	0.00e+00	0	42	0	1321205760	7	3555
2026-01-30 15:49:32.85	220.04	23.23	-23.4	-23.5	18.0	0.00e+00	0	42	0	1328545792	7	3655
2026-01-30 15:49:33.86	220.25	23.33	-23.2	-23.1	18.1	0.00e+00	0	42	0	1334837248	7	3577
2026-01-30 15:49:34.87	220.45	23.44	-23.3	-23.3	18.1	0.00e+00	0	42	0	1343225856	7	3615
2026-01-30 15:49:35.88	220.66	23.54	-23.2	-23.1	18.2	0.00e+00	0	42	0	1350565888	7	3565
2026-01-30 15:49:36.89	220.87	23.65	-23.3	-23.4	18.0	0.00e+00	0	42	0	1356857344	7	3643
2026-01-30 15:49:37.90	221.07	23.75	-23.1	-23.0	18.2	0.00e+00	0	42	0	1364197376	7	3543
2026-01-30 15:49:38.91	221.28	23.86	-23.2	-23.2	18.1	0.00e+00	0	42	0	1372585984	7	3597
2026-01-30 15:49:39.92	221.49	23.96	-23.2	-23.1	18.2	0.00e+00	0	42	0	1378877440	7	3562
2026-01-30 15:49:40.93	221.71	24.07	-23.2	-23.1	18.2	0.00e+00	0	42	0	1386217472	7	3564
2026-01-30 15:49:41.94	221.92	24.17	-23.1	-23.0	18.2	0.00e+00	0	42	0	1393557504	7	3558
2026-01-30 15:49:42.95	222.14	24.28	-23.3	-23.3	18.1	0.00e+00	0	42	0	1400897536	7	3618
2026-01-30 15:49:43.97	222.36	24.38	-23.2	-23.1	18.2	0.00e+00	0	42	0	1408237568	7	3571
2026-01-30 15:49:44.98	222.57	24.49	-23.3	-23.3	18.1	0.00e+00	0	42	0	1415577600	7	3615
2026-01-30 15:49:45.99	222.79	24.59	-23.2	-23.1	18.2	0.00e+00	0	42	0	1422917632	7	3579
2026-01-30 15:49:47.00	223.01	24.70	-23.2	-23.2	18.1	0.00e+00	0	42	0	1430257664	7	3600
2026-01-30 15:49:48.01	223.24	24.81	-23.1	-23.0	18.3	0.00e+00	0	42	0	1437597696	7	3547
2026-01-30 15:49:49.02	223.46	24.91	-23.2	-23.1	18.2	0.00e+00	0	42	0	1444937728	7	3569
2026-01-30 15:49:50.03	223.69	25.02	-23.3	-23.3	18.1	0.00e+00	0	42	0	1452277760	7	3611
2026-01-30 15:49:51.04	223.91	25.12	-23.1	-22.9	18.3	0.00e+00	0	42	0	1459617792	7	3523
2026-01-30 15:49:52.05	224.14	25.23	-23.0	-22.8	18.4	0.00e+00	0	42	0	1466957824	7	3512
2026-01-30 15:49:53.06	224.37	25.33	-23.0	-22.8	18.4	0.00e+00	0	42	0	1474297856	7	3502
2026-01-30 15:49:54.07	224.60	25.44	-23.1	-22.9	18.3	0.00e+00	0	42	0	1481637888	7	3532
2026-01-30 15:49:55.08	224.84	25.54	-22.9	-22.5	18.5	0.00e+00	0	42	0	1488977920	7	3440
2026-01-30 15:49:56.09	225.07	25.65	-22.9	-23.0	18.6	0.00e+00	0	42	0	1496317952	6	3639
2026-01-30 15:49:57.10	225.31	25.75	-23.0	-23.1	18.5	0.00e+00	0	42	0	1503657984	6	3674
2026-01-30 15:49:58.11	225.54	25.86	-22.9	-23.0	18.6	0.00e+00	0	42	0	1510998016	6	3635
2026-01-30 15:49:59.12	225.78	25.96	-22.7	-22.7	18.7	0.00e+00	0	42	0	1518338048	6	3573
2026-01-30 15:50:00.14	226.03	26.07	-22.8	-22.8	18.6	0.00e+00	0	42	0	1525678080	6	3594
2026-01-30 15:50:01.15	226.27	26.17	-22.8	-22.9	18.6	0.00e+00	0	42	0	1531969536	6	3614
2026-01-30 15:50:02.16	226.51	26.27	-22.8	-22.7	18.6	0.00e+00	0	42	0	1540358144	6	3591
2026-01-30 15:50:03.17	226.76	26.38	-22.8	-22.8	18.6	0.00e+00	0	42	0	1547698176	6	3608
2026-01-30 15:50:04.18	227.00	26.48	-22.8	-22.9	18.6	0.00e+00	0	42	0	1553989632	6	3618
2026-01-30 15:50:05.19	227.25	26.59	-22.9	-23.0	18.5	0.00e+00	0	42	0	1561329664	6	3653
2026-01-30 15:50:06.20	227.50	26.69	-23.0	-23.3	18.4	0.00e+00	0	42	0	1568669696	6	3714
2026-01-30 15:50:07.22	227.76	26.79	-22.8	-22.9	18.6	0.00e+00	0	42	0	1576009728	6	3610
2026-01-30 15:50:08.23	228.01	26.90	-22.8	-22.8	18.7	0.00e+00	0	42	0	1583349760	6	3605
2026-01-30 15:50:09.24	228.26	27.00	-22.9	-22.9	18.6	0.00e+00	0	42	0	1590689792	6	3629
2026-01-30 15:50:10.25	228.52	27.10	-22.9	-23.0	18.6	0.00e+00	0	42	0	1598029824	6	3634
2026-01-30 15:50:11.26	228.78	27.21	-22.9	-22.9	18.6	0.00e+00	0	42	0	1605369856	6	3630
2026-01-30 15:50:12.27	229.04	27.31	-22.8	-22.8	18.7	0.00e+00	0	42	0	1612709888	6	3600
2026-01-30 15:50:13.28	229.30	27.41	-22.8	-22.9	18.6	0.00e+00	0	42	0	1620049920	6	3623
2026-01-30 15:50:14.29	229.56	27.51	-22.8	-22.9	18.7	0.00e+00	0	42	0	1627389952	6	3619
2026-01-30 15:50:15.30	229.83	27.61	-22.8	-22.8	18.7	0.00e+00	0	42	0	1634729984	6	3603
2026-01-30 15:50:16.31	230.09	27.71	-22.7	-22.6	18.8	0.00e+00	0	42	0	1642070016	6	3562
2026-01-30 15:50:17.32	230.36	27.82	-22.6	-22.4	18.9	0.00e+00	0	42	0	1649410048	6	3523
2026-01-30 15:50:18.33	230.63	27.92	-22.7	-22.5	18.9	0.00e+00	0	42	0	1656750080	6	3530
2026-01-30 15:50:19.34	230.90	28.02	-22.6	-22.3	18.9	0.00e+00	0	42	0	1664090112	6	3498
2026-01-30 15:50:20.35	231.18	28.12	-22.5	-22.2	19.0	0.00e+00	0	42	0	1671430144	6	3476
2026-01-30 15:50:21.37	231.45	28.22	-22.6	-22.4	18.9	0.00e+00	0	42	0	1678770176	6	3513
2026-01-30 15:50:22.38	231.73	28.32	-22.6	-22.3	18.9	0.00e+00	0	42	0	1686110208	6	3504
2026-01-30 15:50:23.39	232.01	28.42	-22.6	-22.4	18.9	0.00e+00	0	42	0	1693450240	6	3514
2026-01-30 15:50:24.40	232.29	28.52	-22.6	-22.3	19.0	0.00e+00	0	42	0	1699741696	6	3495
2026-01-30 15:50:25.41	232.57	28.61	-22.6	-22.4	18.9	0.00e+00	0	42	0	1708130304	6	3521
2026-01-30 15:50:26.42	232.85	28.71	-22.7	-22.5	18.9	0.00e+00	0	42	0	1715470336	6	3543
2026-01-30 15:50:27.43	233.14	28.81	-22.8	-22.7	18.8	0.00e+00	0	42	0	1721761792	6	3580
2026-01-30 15:50:28.44	233.42	28.91	-22.8	-22.9	18.7	0.00e+00	0	42	0	1729101824	6	3620
2026-01-30 15:50:29.45	233.71	29.00	-22.9	-22.9	18.6	0.00e+00	0	42	0	1736441856	6	3627
2026-01-30 15:50:30.46	234.00	29.10	-23.1	-23.4	18.4	0.00e+00	0	42	0	1743781888	6	3740
2026-01-30 15:50:31.47	234.29	29.19	-23.0	-23.3	18.5	0.00e+00	0	42	0	1751121920	6	3707
2026-01-30 15:50:32.48	234.59	29.29	-23.0	-23.3	18.5	0.00e+00	0	42	0	1758461952	6	3704
2026-01-30 15:50:33.49	234.88	29.38	-23.0	-23.3	18.5	0.00e+00	0	42	0	1765801984	6	3715
2026-01-30 15:50:34.50	235.18	29.48	-23.0	-23.2	18.5	0.00e+00	0	42	0	1773142016	6	3697
2026-01-30 15:50:35.51	235.48	29.57	-22.9	-23.0	18.6	0.00e+00	0	42	0	1780482048	6	3644
2026-01-30 15:50:36.52	235.78	29.67	-22.9	-23.0	18.6	0.00e+00	0	42	0	1787822080	6	3645
2026-01-30 15:50:37.54	236.08	29.76	-22.9	-23.0	18.6	0.00e+00	0	42	0	1795162112	6	3633
2026-01-30 15:50:38.55	236.38	29.85	-23.0	-23.2	18.5	0.00e+00	0	42	0	1802502144	6	3697
2026-01-30 15:50:39.56	236.69	29.94	-22.9	-23.0	18.6	0.00e+00	0	42	0	1809842176	6	3648
2026-01-30 15:50:40.57	237.00	30.03	-22.8	-22.9	18.7	0.00e+00	0	42	0	1817182208	6	3620
2026-01-30 15:50:41.58	237.30	30.12	-22.8	-22.9	18.7	0.00e+00	0	42	0	1824522240	6	3613
2026-01-30 15:50:42.59	237.61	30.21	-22.9	-22.9	18.7	0.00e+00	0	43	0	1831862272	6	3624
2026-01-30 15:50:43.60	237.93	30.30	-22.6	-22.4	18.9	0.00e+00	0	42	0	1839202304	6	3513
2026-01-30 15:50:44.61	238.24	30.39	-22.5	-22.1	19.1	0.00e+00	0	42	0	1846542336	6	3454
2026-01-30 15:50:45.62	238.56	30.48	-22.5	-22.2	19.0	0.00e+00	0	42	0	1853882368	6	3474
2026-01-30 15:50:46.63	238.87	30.57	-22.7	-22.5	18.9	0.00e+00	0	42	0	1861222400	6	3542
2026-01-30 15:50:47.65	239.19	30.65	-22.6	-22.4	18.9	0.00e+00	0	42	0	1868562432	6	3518
2026-01-30 15:50:48.66	239.51	30.74	-22.6	-22.3	19.0	0.00e+00	0	42	0	1874853888	6	3495
2026-01-30 15:50:49.67	239.84	30.83	-22.7	-22.5	18.9	0.00e+00	0	42	0	1883242496	6	3531
2026-01-30 15:50:50.68	240.16	30.91	-22.7	-22.5	18.9	0.00e+00	0	42	0	1890582528	6	3532
2026-01-30 15:50:51.69	240.49	30.99	-22.6	-22.3	19.0	0.00e+00	0	42	0	1896873984	6	3501
2026-01-30 15:50:52.70	240.81	31.08	-22.6	-22.4	18.9	0.00e+00	0	42	0	1904214016	6	3518
2026-01-30 15:50:53.71	241.14	31.16	-22.8	-22.8	18.8	0.00e+00	0	42	0	1912602624	6	3588
2026-01-30 15:50:54.72	241.47	31.24	-22.9	-22.9	18.7	0.00e+00	0	42	0	1918894080	6	3630
2026-01-30 15:50:55.73	241.80	31.32	-23.0	-23.3	18.5	0.00e+00	0	42	0	1926234112	6	3711
2026-01-30 15:50:56.74	242.14	31.40	-23.0	-23.3	18.5	0.00e+00	0	42	0	1933574144	6	3720
2026-01-30 15:50:57.75	242.47	31.48	-23.0	-23.1	18.6	0.00e+00	0	42	0	1940914176	6	3672
2026-01-30 15:50:58.77	242.81	31.56	-23.2	-23.6	18.4	0.00e+00	0	42	0	1948254208	6	3782
2026-01-30 15:50:59.78	243.15	31.63	-23.0	-23.1	18.6	0.00e+00	0	42	0	1955594240	6	3670
2026-01-30 15:51:00.79	243.49	31.71	-22.7	-22.7	18.8	0.00e+00	0	42	0	1962934272	6	3569
2026-01-30 15:51:01.80	243.83	31.79	-22.6	-22.4	18.9	0.00e+00	0	42	0	1970274304	6	3517
2026-01-30 15:51:02.81	244.17	31.86	-22.8	-22.8	18.8	0.00e+00	0	42	0	1977614336	6	3600
2026-01-30 15:51:03.82	244.52	31.93	-22.6	-22.4	19.0	0.00e+00	0	42	0	1984954368	6	3502
2026-01-30 15:51:04.83	244.86	32.01	-22.6	-22.4	19.0	0.00e+00	0	42	0	1992294400	6	3504
2026-01-30 15:51:05.84	245.21	32.08	-22.7	-22.6	18.9	0.00e+00	0	42	0	1999634432	6	3548
2026-01-30 15:51:06.85	245.56	32.15	-22.7	-22.6	18.9	0.00e+00	0	42	0	2006974464	6	3552
2026-01-30 15:51:07.86	245.91	32.22	-22.8	-22.7	18.8	0.00e+00	0	42	0	2014314496	6	3583
2026-01-30 15:51:08.87	246.26	32.29	-22.6	-22.4	19.0	0.00e+00	0	42	0	2021654528	6	3507
2026-01-30 15:51:09.88	246.62	32.35	-22.7	-22.6	18.9	0.00e+00	0	42	0	2028994560	6	3545
2026-01-30 15:51:10.89	246.97	32.42	-22.6	-22.4	19.0	0.00e+00	0	42	0	2036334592	6	3509
2026-01-30 15:51:11.90	247.33	32.49	-22.6	-22.4	19.0	0.00e+00	0	42	0	2042626048	6	3519
2026-01-30 15:51:12.91	247.69	32.55	-22.6	-22.4	19.0	1.10e-06	0	42	0	2051014656	6	3506
2026-01-30 15:51:13.92	248.04	32.61	-22.5	-22.2	19.1	0.00e+00	0	42	0	2058354688	6	3471
2026-01-30 15:51:14.93	248.40	32.67	-22.3	-22.2	19.3	0.00e+00	0	42	0	2064646144	5	3562
2026-01-30 15:51:15.95	248.77	32.74	-22.1	-21.8	19.5	0.00e+00	0	42	0	2071986176	5	3487
2026-01-30 15:51:16.96	249.13	32.80	-22.2	-22.1	19.4	0.00e+00	0	42	0	2079326208	5	3534
2026-01-30 15:51:17.97	249.50	32.85	-22.2	-21.9	19.4	0.00e+00	0	42	0	2086666240	5	3510
2026-01-30 15:51:18.98	249.86	32.91	-22.2	-22.1	19.4	0.00e+00	0	43	0	2094006272	5	3536
2026-01-30 15:51:19.99	250.23	32.97	-22.3	-22.3	19.3	0.00e+00	0	42	0	2101346304	5	3581
2026-01-30 15:51:21.00	250.60	33.02	-22.4	-22.5	19.2	0.00e+00	0	42	0	2108686336	5	3641
2026-01-30 15:51:22.01	250.97	33.08	-22.6	-22.8	19.0	0.00e+00	0	42	0	2116026368	5	3708
2026-01-30 15:51:23.02	251.34	33.13	-22.7	-23.1	18.9	0.00e+00	0	42	0	2123366400	5	3770
2026-01-30 15:51:24.03	251.71	33.18	-22.7	-23.1	18.8	0.00e+00	0	43	0	2130706432	5	3772
2026-01-30 15:51:25.04	252.08	33.23	-22.9	-23.4	18.7	0.00e+00	0	42	0	2138046464	5	3840
2026-01-30 15:51:26.06	252.46	33.28	-23.1	-23.5	18.5	0.00e+00	0	42	0	2145386496	6	3747
2026-01-30 15:51:27.07	252.83	33.33	-22.9	-23.1	18.7	0.00e+00	0	42	0	2152726528	6	3655
2026-01-30 15:51:28.08	253.21	33.38	-22.9	-23.0	18.7	0.00e+00	0	43	0	2160066560	6	3641
2026-01-30 15:51:29.09	253.59	33.42	-23.0	-23.2	18.6	0.00e+00	0	42	0	2167406592	6	3678
2026-01-30 15:51:30.10	253.97	33.47	-23.0	-23.2	18.6	0.00e+00	0	42	0	2174746624	6	3683
2026-01-30 15:51:31.11	254.35	33.51	-22.9	-23.1	18.7	0.00e+00	0	42	0	2182086656	6	3658
2026-01-30 15:51:32.12	254.73	33.55	-22.9	-23.0	18.7	0.00e+00	0	42	0	2189426688	6	3633
2026-01-30 15:51:33.13	255.11	33.59	-22.6	-22.4	19.0	0.00e+00	0	42	0	2196766720	6	3516
2026-01-30 15:51:34.14	255.49	33.63	-22.5	-22.2	19.1	0.00e+00	0	42	0	2204106752	6	3473
2026-01-30 15:51:35.15	255.87	33.67	-22.6	-22.4	19.0	0.00e+00	0	42	0	2211446784	6	3519
2026-01-30 15:51:36.16	256.25	33.70	-22.8	-22.9	18.8	0.00e+00	0	42	0	2218786816	6	3609
2026-01-30 15:51:37.17	256.64	33.74	-22.5	-22.2	19.1	0.00e+00	0	42	0	2226126848	6	3474
2026-01-30 15:51:38.18	257.02	33.77	-22.9	-22.9	18.7	0.00e+00	0	42	0	2233466880	6	3624
2026-01-30 15:51:39.19	257.41	33.80	-22.8	-22.9	18.7	0.00e+00	0	42	0	2239758336	6	3618
2026-01-30 15:51:40.20	257.80	33.83	-23.1	-23.4	18.5	0.00e+00	0	42	0	2247098368	6	3741
2026-01-30 15:51:41.22	258.19	33.86	-23.0	-23.3	18.6	0.00e+00	0	42	0	2255486976	6	3708
2026-01-30 15:51:42.23	258.58	33.89	-23.2	-23.6	18.4	0.00e+00	0	42	0	2261778432	6	3772
2026-01-30 15:51:43.24	258.96	33.92	-22.9	-22.9	18.7	0.00e+00	0	42	0	2269118464	6	3629
2026-01-30 15:51:44.25	259.35	33.94	-22.8	-22.9	18.8	0.00e+00	0	42	0	2276458496	6	3609
2026-01-30 15:51:45.26	259.74	33.96	-22.9	-23.0	18.7	0.00e+00	0	42	0	2283798528	6	3645
2026-01-30 15:51:46.27	260.13	33.99	-23.1	-23.4	18.5	0.00e+00	0	43	0	2291138560	6	3729
2026-01-30 15:51:47.28	260.53	34.01	-23.3	-23.9	18.2	0.00e+00	0	42	0	2298478592	6	3856
2026-01-30 15:51:48.29	260.92	34.03	-23.1	-23.5	18.5	0.00e+00	0	43	0	2305818624	6	3747
2026-01-30 15:51:49.30	261.31	34.04	-22.9	-23.0	18.7	0.00e+00	0	42	0	2313158656	6	3641
2026-01-30 15:51:50.31	261.70	34.06	-22.7	-22.7	18.9	0.00e+00	0	42	0	2320498688	6	3564
2026-01-30 15:51:51.32	262.09	34.07	-22.7	-22.6	18.9	0.00e+00	0	43	0	2327838720	6	3563
2026-01-30 15:51:52.33	262.49	34.09	-22.8	-22.8	18.8	0.00e+00	0	43	0	2335178752	6	3589
2026-01-30 15:51:53.35	262.88	34.10	-23.0	-23.3	18.6	0.00e+00	0	42	0	2342518784	6	3708
2026-01-30 15:51:54.36	263.28	34.11	-23.0	-23.2	18.6	0.00e+00	0	43	0	2349858816	6	3683
2026-01-30 15:51:55.37	263.67	34.12	-23.0	-23.3	18.6	0.00e+00	0	42	0	2357198848	6	3698
2026-01-30 15:51:56.38	264.06	34.13	-23.1	-23.3	18.6	0.00e+00	0	42	0	2364538880	6	3705
2026-01-30 15:51:57.39	264.46	34.13	-23.0	-23.2	18.6	0.00e+00	0	42	0	2371878912	6	3673
2026-01-30 15:51:58.40	264.85	34.14	-23.1	-23.4	18.5	0.00e+00	0	42	0	2379218944	6	3728
2026-01-30 15:51:59.41	265.25	34.14	-23.0	-23.2	18.6	0.00e+00	0	42	0	2386558976	6	3682
2026-01-30 15:52:00.43	265.64	34.14	-23.1	-23.3	18.5	0.00e+00	0	43	0	2393899008	6	3718
2026-01-30 15:52:01.43	266.03	34.14	-23.1	-23.5	18.5	0.00e+00	0	42	0	2401239040	6	3744
2026-01-30 15:52:02.45	266.43	34.14	-22.9	-22.9	18.7	0.00e+00	0	42	0	2407530496	6	3623
2026-01-30 15:52:03.46	266.83	34.14	-22.7	-22.6	18.9	4.50e-06	0	42	0	2415919104	6	3565
2026-01-30 15:52:04.47	267.22	34.13	-22.6	-22.4	19.0	0.00e+00	0	42	0	2423259136	6	3517
2026-01-30 15:52:05.48	267.61	34.13	-22.6	-22.5	19.0	0.00e+00	0	42	0	2429550592	6	3525
2026-01-30 15:52:06.49	268.01	34.12	-22.6	-22.5	19.0	1.10e-06	0	43	0	2436890624	6	3523
2026-01-30 15:52:07.50	268.40	34.11	-22.5	-22.2	19.1	0.00e+00	0	42	0	2444230656	6	3473
2026-01-30 15:52:08.51	268.79	34.10	-22.7	-22.6	18.9	0.00e+00	0	42	0	2451570688	6	3550
2026-01-30 15:52:09.52	269.19	34.09	-22.8	-22.7	18.9	0.00e+00	0	42	0	2458910720	6	3575
2026-01-30 15:52:10.53	269.58	34.07	-22.9	-22.9	18.7	0.00e+00	0	42	0	2466250752	6	3629
2026-01-30 15:52:11.54	269.97	34.06	-22.8	-22.9	18.8	0.00e+00	0	42	0	2473590784	6	3609
2026-01-30 15:52:12.55	270.36	34.04	-22.7	-22.6	18.9	0.00e+00	0	42	0	2480930816	6	3561
2026-01-30 15:52:13.57	270.76	34.02	-22.8	-22.7	18.9	0.00e+00	0	42	0	2488270848	6	3573
2026-01-30 15:52:14.58	271.15	34.00	-22.8	-22.7	18.9	0.00e+00	0	42	0	2495610880	6	3579
2026-01-30 15:52:15.59	271.54	33.98	-22.8	-22.8	18.8	0.00e+00	0	42	0	2502950912	6	3589
2026-01-30 15:52:16.60	271.93	33.96	-22.8	-22.8	18.8	0.00e+00	0	42	0	2510290944	6	3600
2026-01-30 15:52:17.61	272.32	33.94	-22.8	-22.7	18.9	0.00e+00	0	42	0	2517630976	6	3584
2026-01-30 15:52:18.62	272.71	33.91	-22.8	-22.8	18.8	0.00e+00	0	42	0	2524971008	6	3608
2026-01-30 15:52:19.63	273.10	33.89	-22.9	-22.9	18.8	0.00e+00	0	42	0	2532311040	6	3628
2026-01-30 15:52:20.64	273.48	33.86	-22.9	-23.0	18.7	0.00e+00	0	43	0	2539651072	6	3634
2026-01-30 15:52:21.65	273.87	33.83	-22.9	-23.0	18.7	0.00e+00	0	42	0	2546991104	6	3629
2026-01-30 15:52:22.66	274.26	33.80	-22.7	-22.5	19.0	0.00e+00	0	43	0	2554331136	6	3545
2026-01-30 15:52:23.68	274.65	33.77	-22.6	-22.4	19.0	0.00e+00	0	42	0	2561671168	6	3518
2026-01-30 15:52:24.69	275.03	33.73	-22.6	-22.4	19.0	0.00e+00	0	42	0	2569011200	6	3506
2026-01-30 15:52:25.70	275.42	33.70	-22.9	-22.9	18.8	0.00e+00	0	42	0	2576351232	6	3617
2026-01-30 15:52:26.71	275.80	33.66	-22.9	-23.0	18.7	0.00e+00	0	42	0	2583691264	6	3636
2026-01-30 15:52:27.72	276.18	33.63	-23.0	-23.2	18.6	0.00e+00	0	42	0	2591031296	6	3688
2026-01-30 15:52:28.73	276.56	33.59	-23.2	-23.6	18.5	0.00e+00	0	42	0	2598371328	6	3763
2026-01-30 15:52:29.74	276.94	33.55	-23.3	-23.9	18.3	0.00e+00	0	42	0	2604662784	6	3851
2026-01-30 15:52:30.75	277.32	33.50	-23.4	-24.1	18.2	0.00e+00	0	42	0	2612002816	6	3889
2026-01-30 15:52:31.76	277.70	33.46	-23.5	-24.1	18.1	0.00e+00	0	42	0	2620391424	6	3900
2026-01-30 15:52:32.77	278.08	33.42	-23.2	-23.7	18.4	0.00e+00	0	42	0	2626682880	6	3796
2026-01-30 15:52:33.79	278.46	33.37	-23.0	-23.2	18.6	0.00e+00	0	43	0	2634022912	6	3684
2026-01-30 15:52:34.80	278.83	33.33	-22.9	-22.9	18.8	0.00e+00	0	43	0	2641362944	6	3626
2026-01-30 15:52:35.81	279.21	33.28	-22.9	-23.0	18.7	0.00e+00	0	42	0	2648702976	6	3640
2026-01-30 15:52:36.82	279.58	33.23	-22.9	-22.9	18.7	0.00e+00	0	43	0	2656043008	6	3624
2026-01-30 15:52:37.83	279.95	33.18	-22.9	-23.0	18.7	0.00e+00	0	42	0	2663383040	6	3647
2026-01-30 15:52:38.84	280.32	33.13	-22.9	-23.0	18.7	0.00e+00	0	42	0	2670723072	6	3637
2026-01-30 15:52:39.85	280.69	33.07	-23.0	-23.1	18.7	0.00e+00	0	42	0	2678063104	6	3666
2026-01-30 15:52:40.86	281.06	33.02	-22.7	-22.6	19.0	0.00e+00	0	43	0	2685403136	6	3545
2026-01-30 15:52:41.87	281.43	32.96	-22.7	-22.5	19.0	0.00e+00	0	43	0	2692743168	6	3527
2026-01-30 15:52:42.88	281.79	32.91	-22.7	-22.5	19.0	0.00e+00	0	42	0	2700083200	6	3528
2026-01-30 15:52:43.89	282.16	32.85	-22.6	-22.3	19.1	0.00e+00	0	43	0	2707423232	6	3483
2026-01-30 15:52:44.90	282.52	32.79	-22.5	-22.2	19.1	0.00e+00	0	42	0	2714763264	6	3466
2026-01-30 15:52:45.92	282.89	32.73	-22.6	-22.4	19.0	0.00e+00	0	43	0	2722103296	6	3518
2026-01-30 15:52:46.93	283.25	32.67	-22.8	-22.8	18.8	0.00e+00	0	43	0	2729443328	6	3587
2026-01-30 15:52:47.94	283.61	32.61	-22.7	-22.5	19.0	0.00e+00	0	43	0	2736783360	6	3541
2026-01-30 15:52:48.95	283.97	32.55	-22.7	-22.6	18.9	0.00e+00	0	43	0	2744123392	6	3543
2026-01-30 15:52:49.96	284.32	32.48	-22.9	-22.9	18.8	0.00e+00	0	42	0	2751463424	6	3627
2026-01-30 15:52:50.97	284.68	32.42	-22.8	-22.9	18.8	0.00e+00	0	42	0	2758803456	6	3613
2026-01-30 15:52:51.98	285.03	32.35	-22.8	-22.9	18.8	0.00e+00	0	42	0	2766143488	6	3605
2026-01-30 15:52:52.99	285.39	32.28	-23.0	-23.2	18.6	0.00e+00	0	42	0	2772434944	6	3693
2026-01-30 15:52:54.00	285.74	32.21	-22.9	-22.9	18.7	0.00e+00	0	42	0	2779774976	6	3623
2026-01-30 15:52:55.01	286.09	32.14	-22.8	-22.9	18.8	0.00e+00	0	42	0	2788163584	6	3608
2026-01-30 15:52:56.03	286.44	32.07	-22.9	-22.9	18.8	0.00e+00	0	42	0	2794455040	6	3620
2026-01-30 15:52:57.04	286.78	32.00	-22.7	-22.6	19.0	0.00e+00	0	42	0	2801795072	6	3551
2026-01-30 15:52:58.05	287.13	31.93	-22.7	-22.6	18.9	0.00e+00	0	42	0	2809135104	6	3545
2026-01-30 15:52:59.06	287.47	31.86	-22.7	-22.7	18.9	0.00e+00	0	42	0	2816475136	6	3567
2026-01-30 15:53:00.07	287.81	31.78	-22.6	-22.4	19.0	0.00e+00	0	42	0	2823815168	6	3517
2026-01-30 15:53:01.08	288.15	31.71	-22.9	-23.0	18.8	0.00e+00	0	43	0	2831155200	6	3637
2026-01-30 15:53:02.09	288.49	31.63	-22.7	-22.6	19.0	0.00e+00	0	42	0	2838495232	6	3549
2026-01-30 15:53:03.10	288.83	31.55	-22.6	-22.3	19.1	0.00e+00	0	42	0	2845835264	6	3489
2026-01-30 15:53:04.11	289.17	31.48	-22.6	-22.4	19.0	0.00e+00	0	42	0	2853175296	6	3506
2026-01-30 15:53:05.12	289.50	31.40	-22.7	-22.5	18.9	0.00e+00	0	43	0	2860515328	6	3540
2026-01-30 15:53:06.14	289.84	31.32	-22.6	-22.4	19.0	0.00e+00	0	43	0	2867855360	6	3522
2026-01-30 15:53:07.15	290.17	31.24	-22.8	-22.7	18.8	0.00e+00	0	42	0	2875195392	6	3580
2026-01-30 15:53:08.16	290.50	31.16	-22.9	-23.1	18.7	0.00e+00	0	42	0	2882535424	6	3661
2026-01-30 15:53:09.17	290.82	31.08	-23.0	-23.1	18.6	0.00e+00	0	42	0	2889875456	6	3666
2026-01-30 15:53:10.18	291.15	30.99	-23.1	-23.5	18.4	0.00e+00	0	42	0	2897215488	6	3761
2026-01-30 15:53:11.19	291.47	30.91	-23.1	-23.4	18.5	0.00e+00	0	42	0	2904555520	6	3723
2026-01-30 15:53:12.20	291.80	30.83	-23.1	-23.4	18.5	0.00e+00	0	43	0	2911895552	6	3734
2026-01-30 15:53:13.21	292.12	30.74	-23.1	-23.5	18.5	0.00e+00	0	42	0	2919235584	6	3744
2026-01-30 15:53:14.23	292.44	30.65	-22.9	-23.1	18.6	0.00e+00	0	43	0	2926575616	6	3658
2026-01-30 15:53:15.24	292.76	30.57	-23.0	-23.2	18.6	0.00e+00	0	42	0	2933915648	6	3673
2026-01-30 15:53:16.25	293.07	30.48	-22.9	-23.0	18.7	0.00e+00	0	43	0	2941255680	6	3632
2026-01-30 15:53:17.26	293.39	30.39	-22.9	-23.0	18.7	0.00e+00	0	43	0	2948595712	6	3629
2026-01-30 15:53:18.27	293.70	30.31	-22.9	-23.1	18.6	0.00e+00	0	42	0	2955935744	6	3658
2026-01-30 15:53:19.28	294.01	30.22	-22.9	-23.0	18.7	0.00e+00	0	42	0	2963275776	6	3648
2026-01-30 15:53:20.29	294.32	30.13	-22.7	-22.5	18.9	0.00e+00	0	42	0	2969567232	6	3522
2026-01-30 15:53:21.30	294.63	30.04	-22.7	-22.5	19.0	0.00e+00	0	42	0	2976907264	6	3524
2026-01-30 15:53:22.31	294.93	29.95	-22.7	-22.6	18.9	0.00e+00	0	42	0	2985295872	6	3548
2026-01-30 15:53:23.32	295.24	29.86	-22.7	-22.5	18.9	0.00e+00	0	43	0	2991587328	6	3533
2026-01-30 15:53:24.34	295.54	29.76	-22.5	-22.1	19.1	0.00e+00	0	42	0	2998927360	6	3450
2026-01-30 15:53:25.35	295.84	29.67	-22.5	-22.2	19.1	0.00e+00	0	43	0	3006267392	6	3461
2026-01-30 15:53:26.36	296.14	29.58	-22.6	-22.4	19.0	0.00e+00	0	42	0	3013607424	6	3504
2026-01-30 15:53:27.37	296.44	29.49	-22.6	-22.4	18.9	0.00e+00	0	42	0	3020947456	6	3520
2026-01-30 15:53:28.38	296.73	29.39	-22.7	-22.6	18.9	0.00e+00	0	43	0	3028287488	6	3546
2026-01-30 15:53:29.39	297.03	29.30	-22.7	-22.5	18.9	0.00e+00	0	43	0	3035627520	6	3530
2026-01-30 15:53:30.40	297.32	29.20	-22.7	-22.6	18.9	0.00e+00	0	42	0	3042967552	6	3551
2026-01-30 15:53:31.41	297.61	29.11	-22.8	-22.8	18.7	0.00e+00	0	42	0	3050307584	6	3596
2026-01-30 15:53:32.42	297.90	29.01	-22.9	-22.9	18.7	0.00e+00	0	42	0	3057647616	6	3619
2026-01-30 15:53:33.43	298.19	28.91	-22.9	-23.1	18.6	0.00e+00	0	43	0	3064987648	6	3661
2026-01-30 15:53:34.44	298.47	28.82	-22.9	-23.1	18.6	0.00e+00	0	43	0	3072327680	6	3657
2026-01-30 15:53:35.46	298.76	28.72	-23.0	-23.2	18.6	0.00e+00	0	42	0	3079667712	6	3693
2026-01-30 15:53:36.47	299.04	28.62	-23.0	-23.3	18.6	0.00e+00	0	43	0	3087007744	6	3702
2026-01-30 15:53:37.48	299.32	28.53	-23.2	-23.6	18.4	0.00e+00	0	42	0	3094347776	6	3763
2026-01-30 15:53:38.49	299.60	28.43	-23.1	-23.5	18.4	0.00e+00	0	43	0	3101687808	6	3745
2026-01-30 15:53:39.50	299.88	28.33	-23.0	-23.1	18.6	0.00e+00	0	43	0	3109027840	6	3672
2026-01-30 15:53:40.51	300.15	28.23	-22.9	-22.9	18.7	0.00e+00	0	43	0	3116367872	6	3617
2026-01-30 15:53:41.52	300.42	28.13	-22.9	-22.9	18.7	0.00e+00	0	43	0	3123707904	6	3620
2026-01-30 15:53:42.53	300.70	28.03	-22.8	-22.8	18.8	0.00e+00	0	42	0	3131047936	6	3597
2026-01-30 15:53:43.54	300.97	27.93	-22.7	-22.6	18.8	0.00e+00	0	43	0	3137339392	6	3560
2026-01-30 15:53:44.55	301.24	27.83	-22.7	-22.6	18.8	0.00e+00	0	43	0	3144679424	6	3552
2026-01-30 15:53:45.57	301.51	27.73	-22.8	-22.7	18.8	0.00e+00	0	42	0	3153068032	6	3578
2026-01-30 15:53:46.58	301.77	27.63	-22.8	-22.8	18.7	0.00e+00	0	43	0	3159359488	6	3603
2026-01-30 15:53:47.59	302.03	27.53	-23.0	-23.1	18.6	0.00e+00	0	42	0	3166699520	6	3660
2026-01-30 15:53:48.60	302.30	27.43	-23.0	-23.3	18.5	0.00e+00	0	42	0	3174039552	6	3703
2026-01-30 15:53:49.61	302.56	27.32	-23.1	-23.4	18.4	0.00e+00	0	42	0	3181379584	6	3740
2026-01-30 15:53:50.62	302.82	27.22	-23.1	-23.4	18.4	0.00e+00	0	42	0	3188719616	6	3734
2026-01-30 15:53:51.63	303.07	27.12	-23.0	-23.1	18.5	0.00e+00	0	42	0	3196059648	6	3672
2026-01-30 15:53:52.64	303.33	27.02	-23.0	-23.2	18.5	0.00e+00	0	43	0	3203399680	6	3685
2026-01-30 15:53:53.65	303.58	26.92	-22.9	-22.9	18.7	0.00e+00	0	43	0	3210739712	6	3629
2026-01-30 15:53:54.66	303.83	26.81	-22.8	-22.8	18.7	0.00e+00	0	42	0	3218079744	6	3593
2026-01-30 15:53:55.67	304.08	26.71	-22.7	-22.6	18.8	0.00e+00	0	43	0	3225419776	6	3555
2026-01-30 15:53:56.68	304.33	26.61	-22.7	-22.6	18.8	0.00e+00	0	43	0	3232759808	6	3551
2026-01-30 15:53:57.70	304.58	26.50	-22.8	-22.8	18.7	0.00e+00	0	42	0	3240099840	6	3600
2026-01-30 15:53:58.71	304.83	26.40	-22.8	-22.8	18.7	0.00e+00	0	43	0	3247439872	6	3589
2026-01-30 15:53:59.72	305.07	26.30	-22.8	-22.7	18.8	0.00e+00	0	43	0	3254779904	6	3571
2026-01-30 15:54:00.73	305.32	26.19	-22.9	-22.9	18.7	0.00e+00	0	43	0	3262119936	6	3618
2026-01-30 15:54:01.74	305.56	26.09	-23.0	-23.2	18.5	0.00e+00	0	43	0	3269459968	6	3675
2026-01-30 15:54:02.75	305.80	25.99	-23.1	-23.3	18.4	0.00e+00	0	42	0	3276800000	6	3715
2026-01-30 15:54:03.76	306.04	25.88	-23.1	-23.5	18.3	0.00e+00	0	43	0	3284140032	6	3743
2026-01-30 15:54:04.77	306.27	25.78	-23.2	-23.6	18.3	0.00e+00	0	43	0	3291480064	6	3782
2026-01-30 15:54:05.78	306.51	25.67	-23.3	-23.7	18.2	0.00e+00	0	42	0	3298820096	6	3807
2026-01-30 15:54:06.79	306.74	25.57	-23.4	-24.0	18.1	0.00e+00	0	43	0	3306160128	6	3869
2026-01-30 15:54:07.80	306.97	25.47	-23.4	-24.1	18.0	0.00e+00	0	42	0	3312451584	6	3888
2026-01-30 15:54:08.81	307.20	25.36	-23.5	-24.2	18.0	0.00e+00	0	43	0	3320840192	6	3911
2026-01-30 15:54:09.83	307.44	25.26	-23.3	-23.8	18.2	0.00e+00	0	43	0	3328180224	6	3830
2026-01-30 15:54:10.84	307.66	25.15	-23.2	-23.7	18.2	0.00e+00	0	42	0	3334471680	6	3787
2026-01-30 15:54:11.85	307.89	25.05	-23.2	-23.5	18.3	0.00e+00	0	43	0	3341811712	6	3762
2026-01-30 15:54:12.86	308.11	24.94	-23.2	-23.6	18.3	0.00e+00	0	43	0	3349151744	6	3770
2026-01-30 15:54:13.87	308.34	24.84	-23.4	-24.0	18.1	0.00e+00	0	42	0	3356491776	6	3857
2026-01-30 15:54:14.88	308.56	24.73	-23.4	-24.0	18.1	0.00e+00	0	43	0	3363831808	6	3863
2026-01-30 15:54:15.89	308.78	24.63	-23.5	-24.2	17.9	0.00e+00	0	42	0	3371171840	6	3923
2026-01-30 15:54:16.90	309.00	24.52	-23.5	-24.2	17.9	0.00e+00	0	42	0	3378511872	6	3919
2026-01-30 15:54:17.91	309.22	24.42	-23.6	-24.1	17.7	0.00e+00	0	43	0	3385851904	7	3778
2026-01-30 15:54:18.92	309.43	24.32	-23.9	-24.7	17.5	0.00e+00	0	43	0	3393191936	7	3917
2026-01-30 15:54:19.93	309.65	24.21	-23.8	-24.3	17.6	0.00e+00	0	42	0	3400531968	7	3838
2026-01-30 15:54:20.94	309.86	24.11	-24.2	-24.7	17.2	0.00e+00	0	42	0	3407872000	8	3818
2026-01-30 15:54:21.95	310.07	24.00	-23.9	-24.2	17.5	0.00e+00	0	42	0	3415212032	8	3703
2026-01-30 15:54:22.96	310.28	23.90	-23.7	-23.6	17.8	0.00e+00	0	43	0	3422552064	8	3571
2026-01-30 15:54:23.98	310.49	23.79	-23.6	-23.5	17.8	0.00e+00	0	43	0	3429892096	8	3554
2026-01-30 15:54:24.99	310.70	23.69	-23.6	-23.5	17.8	0.00e+00	0	43	0	3437232128	8	3548
2026-01-30 15:54:26.00	310.91	23.58	-23.7	-23.6	17.7	0.00e+00	0	43	0	3444572160	8	3582
2026-01-30 15:54:27.01	311.11	23.48	-23.5	-23.2	18.0	0.00e+00	0	42	0	3451912192	8	3488
2026-01-30 15:54:28.02	311.32	23.37	-23.3	-23.2	18.2	0.00e+00	0	43	0	3459252224	7	3597
2026-01-30 15:54:29.03	311.52	23.27	-23.3	-23.3	18.1	0.00e+00	0	43	0	3466592256	7	3616
2026-01-30 15:54:30.04	311.72	23.17	-23.2	-23.1	18.2	0.00e+00	0	43	0	3473932288	7	3573
2026-01-30 15:54:31.05	311.92	23.06	-23.2	-23.2	18.1	0.00e+00	0	43	0	3480223744	7	3591
2026-01-30 15:54:32.06	312.12	22.96	-23.4	-23.5	18.0	0.00e+00	0	43	0	3488612352	7	3642
2026-01-30 15:54:33.07	312.32	22.85	-23.4	-23.6	18.0	0.00e+00	0	42	0	3495952384	7	3677
2026-01-30 15:54:34.09	312.51	22.75	-23.6	-24.0	17.8	0.00e+00	0	43	0	3502243840	7	3765
2026-01-30 15:54:35.10	312.71	22.64	-23.6	-24.0	17.7	0.00e+00	0	42	0	3509583872	7	3756
2026-01-30 15:54:36.11	312.90	22.54	-23.7	-24.3	17.6	0.00e+00	0	43	0	3517972480	7	3836
2026-01-30 15:54:37.12	313.09	22.44	-23.7	-24.2	17.6	0.00e+00	0	43	0	3524263936	7	3802
2026-01-30 15:54:38.13	313.29	22.33	-23.7	-24.3	17.6	0.00e+00	0	42	0	3531603968	7	3822
2026-01-30 15:54:39.14	313.47	22.23	-23.8	-24.4	17.5	0.00e+00	0	43	0	3538944000	7	3848
2026-01-30 15:54:40.15	313.66	22.13	-23.7	-24.3	17.6	0.00e+00	0	42	0	3546284032	7	3833
2026-01-30 15:54:41.16	313.85	22.02	-23.8	-24.4	17.5	0.00e+00	0	42	0	3553624064	7	3847
2026-01-30 15:54:42.18	314.04	21.92	-23.6	-24.0	17.7	0.00e+00	0	43	0	3560964096	7	3772
2026-01-30 15:54:43.19	314.22	21.82	-23.6	-23.9	17.7	0.00e+00	0	42	0	3568304128	7	3749
2026-01-30 15:54:44.20	314.41	21.71	-23.6	-23.9	17.8	0.00e+00	0	42	0	3575644160	7	3737
2026-01-30 15:54:45.21	314.59	21.61	-23.5	-23.7	17.9	0.00e+00	0	42	0	3582984192	7	3697
2026-01-30 15:54:46.22	314.77	21.51	-23.5	-23.7	17.9	0.00e+00	0	43	0	3590324224	7	3702
2026-01-30 15:54:47.23	314.95	21.41	-23.4	-23.6	17.9	0.00e+00	0	43	0	3597664256	7	3680
2026-01-30 15:54:48.24	315.13	21.30	-23.4	-23.7	17.9	0.00e+00	0	43	0	3605004288	7	3688
2026-01-30 15:54:49.25	315.31	21.20	-23.4	-23.6	17.9	0.00e+00	0	42	0	3612344320	7	3677
2026-01-30 15:54:50.26	315.48	21.10	-23.5	-23.8	17.8	0.00e+00	0	43	0	3619684352	7	3729
2026-01-30 15:54:51.27	315.66	21.00	-23.5	-23.8	17.8	0.00e+00	0	42	0	3627024384	7	3717
2026-01-30 15:54:52.28	315.83	20.90	-23.7	-24.1	17.6	0.00e+00	0	43	0	3634364416	7	3787
2026-01-30 15:54:53.30	316.01	20.79	-23.8	-24.3	17.5	0.00e+00	0	43	0	3641704448	7	3836
2026-01-30 15:54:54.31	316.18	20.69	-23.8	-24.3	17.5	0.00e+00	0	43	0	3649044480	7	3839
2026-01-30 15:54:55.32	316.35	20.59	-23.9	-24.5	17.4	0.00e+00	0	43	0	3656384512	7	3888
2026-01-30 15:54:56.33	316.52	20.49	-23.9	-24.6	17.4	0.00e+00	0	43	0	3663724544	7	3911
2026-01-30 15:54:57.34	316.69	20.39	-23.9	-24.7	17.3	0.00e+00	0	43	0	3670016000	7	3924
2026-01-30 15:54:58.35	316.86	20.29	-24.0	-24.9	17.2	0.00e+00	0	43	0	3677356032	7	3973
2026-01-30 15:54:59.36	317.03	20.19	-24.3	-25.0	16.9	0.00e+00	0	42	0	3685744640	8	3894
2026-01-30 15:55:00.37	317.19	20.09	-24.4	-25.2	16.8	0.00e+00	0	43	0	3692036096	8	3926
2026-01-30 15:55:01.38	317.36	19.99	-24.1	-24.6	17.1	0.00e+00	0	43	0	3699376128	8	3792
2026-01-30 15:55:02.39	317.52	19.89	-23.9	-24.2	17.3	0.00e+00	0	43	0	3706716160	8	3709
2026-01-30 15:55:03.40	317.68	19.79	-23.9	-24.0	17.4	0.00e+00	0	43	0	3714056192	8	3664
2026-01-30 15:55:04.42	317.84	19.69	-23.8	-24.0	17.4	0.00e+00	0	43	0	3721396224	8	3657
2026-01-30 15:55:05.43	318.01	19.59	-23.8	-23.9	17.4	0.00e+00	0	43	0	3728736256	8	3644
2026-01-30 15:55:06.44	318.16	19.49	-23.8	-23.9	17.4	0.00e+00	0	43	0	3736076288	8	3631
2026-01-30 15:55:07.45	318.32	19.39	-23.8	-23.8	17.5	0.00e+00	0	42	0	3743416320	8	3609
2026-01-30 15:55:08.46	318.48	19.29	-23.8	-23.9	17.4	0.00e+00	0	43	0	3750756352	8	3646
2026-01-30 15:55:09.47	318.64	19.19	-23.9	-24.1	17.4	0.00e+00	0	43	0	3758096384	8	3687
2026-01-30 15:55:10.48	318.79	19.09	-24.0	-24.3	17.3	0.00e+00	0	43	0	3765436416	8	3723
2026-01-30 15:55:11.49	318.95	19.00	-24.1	-24.6	17.1	0.00e+00	0	43	0	3772776448	8	3789
2026-01-30 15:55:12.50	319.10	18.90	-24.2	-24.7	17.0	0.00e+00	0	43	0	3780116480	8	3831
2026-01-30 15:55:13.51	319.25	18.80	-24.3	-24.8	16.9	0.00e+00	0	43	0	3787456512	8	3855
2026-01-30 15:55:14.52	319.41	18.70	-24.3	-24.9	16.9	0.00e+00	0	43	0	3794796544	8	3871
2026-01-30 15:55:15.54	319.56	18.60	-24.3	-25.0	16.9	0.00e+00	0	42	0	3802136576	8	3887
2026-01-30 15:55:16.55	319.71	18.51	-24.4	-25.2	16.7	0.00e+00	0	43	0	3809476608	8	3945
2026-01-30 15:55:17.56	319.86	18.41	-24.4	-25.2	16.7	0.00e+00	0	43	0	3816816640	8	3944
2026-01-30 15:55:18.57	320.00	18.31	-24.5	-25.4	16.7	0.00e+00	0	43	0	3824156672	8	3982
2026-01-30 15:55:19.58	320.15	18.22	-24.5	-25.0	16.6	0.00e+00	0	43	0	3831496704	9	3779
2026-01-30 15:55:20.59	320.30	18.12	-24.5	-24.8	16.7	0.00e+00	0	43	0	3838836736	9	3739
2026-01-30 15:55:21.60	320.44	18.02	-24.5	-24.8	16.7	1.10e-06	0	43	0	3845128192	9	3743
2026-01-30 15:55:22.61	320.59	17.93	-24.5	-24.9	16.6	0.00e+00	0	43	0	3853516800	9	3769
2026-01-30 15:55:23.62	320.73	17.83	-24.6	-25.1	16.5	1.10e-06	0	43	0	3860856832	9	3820
2026-01-30 15:55:24.63	320.87	17.73	-24.8	-25.6	16.3	0.00e+00	0	43	0	3867148288	9	3929
2026-01-30 15:55:25.64	321.01	17.64	-24.8	-25.5	16.3	0.00e+00	0	43	0	3874488320	9	3907
2026-01-30 15:55:26.65	321.16	17.54	-24.6	-25.2	16.5	0.00e+00	0	43	0	3881828352	9	3842
2026-01-30 15:55:27.67	321.30	17.45	-24.7	-25.2	16.5	0.00e+00	0	43	0	3889168384	9	3845
2026-01-30 15:55:28.68	321.44	17.35	-24.7	-25.2	16.4	0.00e+00	0	43	0	3896508416	9	3847
2026-01-30 15:55:29.69	321.57	17.26	-24.6	-25.2	16.5	0.00e+00	0	43	0	3903848448	9	3832
2026-01-30 15:55:30.70	321.71	17.16	-24.8	-25.4	16.3	0.00e+00	0	43	0	3911188480	9	3899
2026-01-30 15:55:31.71	321.85	17.07	-24.7	-25.2	16.4	0.00e+00	0	43	0	3918528512	9	3848
2026-01-30 15:55:32.72	321.98	16.98	-24.5	-25.0	16.6	0.00e+00	0	43	0	3925868544	9	3780
2026-01-30 15:55:33.73	322.12	16.88	-24.5	-24.9	16.6	0.00e+00	0	43	0	3933208576	9	3772
2026-01-30 15:55:34.74	322.25	16.79	-24.6	-25.0	16.5	0.00e+00	0	43	0	3940548608	9	3800
2026-01-30 15:55:35.75	322.39	16.70	-24.5	-24.8	16.6	0.00e+00	0	43	0	3947888640	9	3746
2026-01-30 15:55:36.76	322.52	16.60	-24.7	-25.3	16.4	0.00e+00	0	43	0	3955228672	9	3854
2026-01-30 15:55:37.78	322.65	16.51	-24.6	-25.0	16.5	1.10e-06	0	43	0	3962568704	9	3799
2026-01-30 15:55:38.79	322.78	16.42	-24.5	-24.9	16.6	0.00e+00	0	43	0	3969908736	9	3772
2026-01-30 15:55:39.80	322.91	16.32	-24.6	-25.2	16.5	0.00e+00	0	43	0	3977248768	9	3830
2026-01-30 15:55:40.81	323.04	16.23	-24.6	-25.1	16.5	0.00e+00	0	43	0	3984588800	9	3823
2026-01-30 15:55:41.82	323.17	16.14	-24.7	-25.3	16.4	0.00e+00	0	43	0	3991928832	9	3856
2026-01-30 15:55:42.83	323.30	16.05	-24.8	-25.4	16.3	0.00e+00	0	43	0	3999268864	9	3900
2026-01-30 15:55:43.84	323.43	15.96	-24.8	-25.6	16.2	0.00e+00	0	43	0	4006608896	9	3942
2026-01-30 15:55:44.85	323.55	15.86	-24.9	-25.7	16.1	0.00e+00	0	43	0	4012900352	9	3972
2026-01-30 15:55:45.86	323.68	15.77	-24.9	-25.9	16.0	0.00e+00	0	43	0	4021288960	9	4008
2026-01-30 15:55:46.87	323.80	15.68	-24.9	-25.7	16.1	0.00e+00	0	43	0	4028628992	9	3975
2026-01-30 15:55:47.88	323.93	15.59	-24.9	-25.7	16.1	0.00e+00	0	43	0	4034920448	9	3970
2026-01-30 15:55:48.90	324.05	15.50	-25.0	-25.9	16.0	0.00e+00	0	42	0	4042260480	9	4020
2026-01-30 15:55:49.91	324.18	15.41	-24.9	-25.8	16.0	0.00e+00	0	43	0	4049600512	9	3988
2026-01-30 15:55:50.92	324.30	15.32	-24.9	-25.7	16.1	0.00e+00	0	43	0	4056940544	9	3974
2026-01-30 15:55:51.93	324.42	15.23	-24.9	-25.8	16.0	0.00e+00	0	43	0	4064280576	9	3998
2026-01-30 15:55:52.94	324.54	15.14	-25.1	-26.2	15.8	0.00e+00	0	43	0	4071620608	9	4081
2026-01-30 15:55:53.95	324.66	15.05	-25.0	-25.4	16.0	0.00e+00	0	43	0	4078960640	10	3788
2026-01-30 15:55:54.96	324.78	14.96	-24.9	-25.2	16.1	0.00e+00	0	43	0	4086300672	10	3748
2026-01-30 15:55:55.97	324.90	14.87	-24.9	-25.3	16.0	0.00e+00	0	42	0	4093640704	10	3769
2026-01-30 15:55:56.99	325.02	14.78	-25.0	-25.4	16.0	0.00e+00	0	43	0	4100980736	10	3794
2026-01-30 15:55:58.00	325.13	14.69	-24.9	-25.3	16.0	0.00e+00	0	43	0	4108320768	10	3764
2026-01-30 15:55:59.01	325.25	14.61	-25.1	-25.6	15.9	0.00e+00	0	43	0	4115660800	10	3838
2026-01-30 15:56:00.02	325.37	14.52	-25.0	-25.6	15.9	0.00e+00	0	43	0	4123000832	10	3836
2026-01-30 15:56:01.03	325.48	14.43	-25.2	-26.0	15.7	0.00e+00	0	43	0	4130340864	10	3920
2026-01-30 15:56:02.04	325.60	14.34	-25.2	-25.9	15.7	0.00e+00	0	43	0	4137680896	10	3899
2026-01-30 15:56:03.05	325.71	14.25	-25.3	-26.1	15.6	0.00e+00	0	43	0	4145020928	10	3948
2026-01-30 15:56:04.06	325.82	14.17	-25.4	-26.3	15.5	0.00e+00	0	43	0	4152360960	10	4004
2026-01-30 15:56:05.07	325.94	14.08	-25.4	-26.4	15.4	0.00e+00	0	43	0	4159700992	10	4020
2026-01-30 15:56:06.09	326.05	13.99	-25.5	-26.5	15.3	0.00e+00	0	43	0	4167041024	10	4056
2026-01-30 15:56:07.10	326.16	13.91	-25.5	-26.5	15.3	0.00e+00	0	43	0	4174381056	10	4068
2026-01-30 15:56:08.11	326.27	13.82	-25.5	-26.6	15.3	0.00e+00	0	43	0	4181721088	10	4080
2026-01-30 15:56:09.12	326.38	13.73	-25.6	-26.7	15.2	1.10e-06	0	43	0	4189061120	10	4108
2026-01-30 15:56:10.13	326.49	13.65	-25.7	-26.4	15.1	2.20e-06	0	43	0	4196401152	11	3934
2026-01-30 15:56:11.14	326.60	13.56	-25.8	-26.8	14.9	1.10e-06	0	43	0	4203741184	11	4019
2026-01-30 15:56:12.15	326.71	13.48	-25.7	-26.5	15.1	0.00e+00	0	43	0	4210032640	11	3941
2026-01-30 15:56:13.16	326.82	13.39	-25.6	-26.2	15.2	0.00e+00	0	43	0	4218421248	11	3881
2026-01-30 15:56:14.17	326.92	13.31	-25.6	-26.3	15.2	0.00e+00	0	43	0	4225761280	11	3894
2026-01-30 15:56:15.18	327.03	13.22	-25.6	-26.2	15.2	0.00e+00	0	43	0	4232052736	11	3884
2026-01-30 15:56:16.19	327.14	13.14	-25.6	-26.4	15.1	0.00e+00	0	43	0	4239392768	11	3915
2026-01-30 15:56:17.20	327.24	13.05	-25.8	-26.7	14.9	1.10e-06	0	43	0	4246732800	11	3990
2026-01-30 15:56:18.22	327.35	12.97	-25.5	-26.1	15.2	0.00e+00	0	43	0	4254072832	11	3859
2026-01-30 15:56:19.23	327.45	12.88	-25.4	-25.9	15.3	0.00e+00	0	42	0	4261412864	11	3812
2026-01-30 15:56:20.24	327.56	12.80	-25.4	-26.0	15.3	0.00e+00	0	43	0	4268752896	11	3819
2026-01-30 15:56:21.25	327.66	12.71	-25.5	-26.1	15.2	0.00e+00	0	43	0	4276092928	11	3850
2026-01-30 15:56:22.26	327.76	12.63	-25.5	-26.1	15.2	0.00e+00	0	43	0	4283432960	11	3857
2026-01-30 15:56:23.27	327.86	12.55	-25.7	-26.5	15.0	0.00e+00	0	43	0	4290772992	11	3939
2026-01-30 15:56:24.28	327.97	12.46	-25.5	-26.1	15.2	0.00e+00	0	43	0	4298113024	11	3843
2026-01-30 15:56:25.29	328.07	12.38	-25.5	-26.1	15.2	0.00e+00	0	43	0	4305453056	11	3848
2026-01-30 15:56:26.30	328.17	12.30	-25.6	-26.2	15.1	0.00e+00	0	43	0	4312793088	11	3890
2026-01-30 15:56:27.32	328.27	12.22	-25.6	-26.2	15.2	0.00e+00	0	43	0	4320133120	11	3879
2026-01-30 15:56:28.33	328.37	12.13	-25.7	-26.5	15.0	1.10e-06	0	43	0	4327473152	11	3945
2026-01-30 15:56:29.34	328.47	12.05	-25.7	-26.6	14.9	1.10e-06	0	43	0	4334813184	11	3972
2026-01-30 15:56:30.35	328.56	11.97	-25.7	-26.5	15.0	0.00e+00	0	43	0	4342153216	11	3954
2026-01-30 15:56:31.36	328.66	11.89	-25.8	-26.7	14.9	1.10e-06	0	43	0	4349493248	11	3999
2026-01-30 15:56:32.37	328.76	11.81	-25.8	-26.7	14.9	0.00e+00	0	43	0	4356833280	11	4000
2026-01-30 15:56:33.38	328.86	11.73	-25.8	-26.7	14.9	0.00e+00	0	43	0	4364173312	11	3996
2026-01-30 15:56:34.39	328.95	11.64	-25.8	-26.7	14.8	0.00e+00	0	43	0	4371513344	11	4009
2026-01-30 15:56:35.41	329.05	11.56	-25.9	-27.0	14.7	0.00e+00	0	43	0	4377804800	11	4072
2026-01-30 15:56:36.42	329.14	11.48	-25.9	-27.0	14.6	0.00e+00	0	43	0	4386193408	11	4086
2026-01-30 15:56:37.43	329.24	11.40	-25.8	-26.9	14.7	0.00e+00	0	43	0	4393533440	11	4045
2026-01-30 15:56:38.44	329.33	11.32	-25.9	-27.0	14.7	0.00e+00	0	43	0	4399824896	11	4078
2026-01-30 15:56:39.45	329.43	11.24	-25.9	-27.0	14.6	0.00e+00	0	43	0	4407164928	11	4080
2026-01-30 15:56:40.46	329.52	11.16	-25.9	-27.0	14.7	0.00e+00	0	43	0	4415553536	11	4077
2026-01-30 15:56:41.47	329.61	11.08	-25.9	-27.0	14.6	0.00e+00	0	43	0	4421844992	11	4088
2026-01-30 15:56:42.48	329.71	11.00	-26.0	-27.2	14.5	0.00e+00	0	43	0	4429185024	11	4138
2026-01-30 15:56:43.49	329.80	10.92	-26.0	-27.2	14.5	0.00e+00	0	43	0	4436525056	11	4132
2026-01-30 15:56:44.50	329.89	10.84	-26.0	-27.2	14.5	0.00e+00	0	43	0	4443865088	11	4144
2026-01-30 15:56:45.51	329.98	10.77	-26.1	-27.4	14.4	1.10e-06	0	43	0	4451205120	11	4191
2026-01-30 15:56:46.53	330.07	10.69	-26.2	-27.2	14.2	2.20e-06	0	43	0	4458545152	12	4022
2026-01-30 15:56:47.54	330.16	10.61	-26.2	-27.2	14.1	1.10e-06	0	43	0	4465885184	12	4045
2026-01-30 15:56:48.55	330.25	10.53	-26.2	-27.2	14.2	2.20e-06	0	43	0	4473225216	12	4033
2026-01-30 15:56:49.56	330.34	10.45	-26.2	-27.2	14.1	1.10e-06	0	43	0	4480565248	12	4041
2026-01-30 15:56:50.57	330.43	10.37	-26.1	-26.9	14.3	2.20e-06	0	43	0	4487905280	12	3966
2026-01-30 15:56:51.58	330.52	10.30	-26.1	-27.1	14.2	0.00e+00	0	43	0	4495245312	12	3997
2026-01-30 15:56:52.59	330.60	10.22	-26.2	-27.1	14.2	0.00e+00	0	43	0	4502585344	12	4013
2026-01-30 15:56:53.60	330.69	10.14	-26.2	-27.1	14.1	1.10e-06	0	43	0	4509925376	12	4018
2026-01-30 15:56:54.62	330.78	10.06	-26.1	-27.0	14.2	2.20e-06	0	43	0	4517265408	12	3986
2026-01-30 15:56:55.63	330.87	9.99	-25.9	-26.6	14.4	0.00e+00	0	43	0	4524605440	12	3888
2026-01-30 15:56:56.64	330.95	9.91	-26.0	-26.7	14.4	2.20e-06	0	43	0	4531945472	12	3901
2026-01-30 15:56:57.65	331.04	9.83	-26.0	-26.7	14.3	0.00e+00	0	43	0	4539285504	12	3917
2026-01-30 15:56:58.66	331.12	9.76	-26.1	-26.9	14.2	1.10e-06	0	43	0	4546625536	12	3958
2026-01-30 15:56:59.67	331.21	9.68	-26.1	-27.1	14.2	1.10e-06	0	43	0	4553965568	12	3997
2026-01-30 15:57:00.68	331.29	9.60	-26.2	-27.3	14.0	1.10e-06	0	43	0	4561305600	12	4055
2026-01-30 15:57:01.69	331.37	9.53	-26.3	-27.3	14.0	3.40e-06	0	43	0	4568645632	12	4074
2026-01-30 15:57:02.70	331.46	9.45	-26.3	-27.5	13.9	1.10e-06	0	43	0	4574937088	12	4107
2026-01-30 15:57:03.71	331.54	9.38	-26.3	-27.4	13.9	6.80e-06	0	43	0	4583325696	12	4093
2026-01-30 15:57:04.72	331.62	9.30	-26.3	-27.4	13.9	1.10e-06	0	43	0	4590665728	12	4091
2026-01-30 15:57:05.73	331.71	9.23	-26.3	-27.4	13.9	0.00e+00	0	43	0	4596957184	12	4088
2026-01-30 15:57:06.74	331.79	9.15	-26.3	-27.5	13.9	2.20e-06	0	43	0	4604297216	12	4109
2026-01-30 15:57:07.75	331.87	9.08	-26.5	-27.8	13.7	2.20e-06	0	43	0	4611637248	12	4203
2026-01-30 15:57:08.76	331.95	9.00	-26.4	-27.7	13.8	6.80e-06	0	43	0	4618977280	12	4162
2026-01-30 15:57:09.77	332.03	8.93	-26.3	-27.5	13.8	5.70e-06	0	43	0	4626317312	12	4120
2026-01-30 15:57:10.79	332.11	8.85	-26.3	-27.5	13.8	1.10e-06	0	43	0	4633657344	12	4119
2026-01-30 15:57:11.80	332.19	8.78	-26.4	-27.6	13.7	4.50e-06	0	43	0	4640997376	12	4152
2026-01-30 15:57:12.81	332.27	8.71	-26.4	-27.5	13.8	9.10e-06	0	43	0	4648337408	12	4132
2026-01-30 15:57:13.82	332.35	8.63	-26.4	-27.7	13.7	6.80e-06	0	43	0	4655677440	12	4181
2026-01-30 15:57:14.83	332.43	8.56	-26.3	-27.5	13.8	2.20e-06	0	43	0	4663017472	12	4114
2026-01-30 15:57:15.84	332.51	8.49	-26.3	-27.5	13.8	5.70e-06	0	43	0	4670357504	12	4101
2026-01-30 15:57:16.85	332.59	8.41	-26.3	-27.5	13.8	3.40e-06	0	43	0	4677697536	12	4115
2026-01-30 15:57:17.86	332.66	8.34	-26.5	-27.9	13.6	9.10e-06	0	43	0	4685037568	12	4211
2026-01-30 15:57:18.87	332.74	8.27	-26.4	-27.7	13.7	6.80e-06	0	43	0	4692377600	12	4171
2026-01-30 15:57:19.88	332.82	8.19	-26.5	-27.8	13.6	1.10e-06	0	43	0	4699717632	12	4187
2026-01-30 15:57:20.90	332.90	8.12	-26.4	-27.6	13.8	8.00e-06	0	43	0	4707057664	12	4133
2026-01-30 15:57:21.91	332.97	8.05	-26.4	-27.6	13.7	4.50e-06	0	43	0	4714397696	12	4151
2026-01-30 15:57:22.92	333.05	7.98	-26.4	-27.7	13.7	4.50e-06	0	43	0	4721737728	12	4169
2026-01-30 15:57:23.93	333.12	7.90	-26.5	-27.8	13.6	1.02e-05	0	43	0	4729077760	12	4203
2026-01-30 15:57:24.94	333.20	7.83	-26.4	-27.7	13.6	4.50e-06	0	43	0	4736417792	12	4184
2026-01-30 15:57:25.95	333.27	7.76	-26.4	-27.5	13.7	5.70e-06	0	43	0	4742709248	12	4127
2026-01-30 15:57:26.96	333.35	7.69	-26.3	-27.5	13.7	2.20e-06	0	43	0	4751097856	12	4113
2026-01-30 15:57:27.97	333.42	7.62	-26.4	-27.6	13.7	2.20e-06	0	43	0	4758437888	12	4140
2026-01-30 15:57:28.98	333.50	7.55	-26.3	-27.5	13.7	3.40e-06	0	43	0	4764729344	12	4121
2026-01-30 15:57:29.99	333.57	7.48	-26.3	-27.5	13.7	4.50e-06	0	43	0	4772069376	12	4134
2026-01-30 15:57:31.00	333.64	7.41	-26.5	-27.8	13.5	1.37e-05	0	43	0	4779409408	12	4211
2026-01-30 15:57:32.01	333.72	7.33	-26.4	-27.7	13.6	5.70e-06	0	43	0	4786749440	12	4161
2026-01-30 15:57:33.03	333.79	7.26	-26.5	-27.9	13.4	1.71e-05	0	43	0	4794089472	12	4225
2026-01-30 15:57:34.04	333.86	7.19	-26.5	-27.8	13.5	1.25e-05	0	43	0	4801429504	12	4209
2026-01-30 15:57:35.05	333.93	7.12	-26.6	-27.6	13.3	1.83e-05	0	43	0	4808769536	13	4047
2026-01-30 15:57:36.06	334.00	7.05	-32.9	-42.3	3.8	8.45e-01	0	43	104	4811915264	25	10651
2026-01-30 15:57:37.07	334.08	6.98	-33.3	-42.9	3.8	8.47e-01	0	43	104	4811915264	26	10919
2026-01-30 15:57:38.08	334.15	6.91	-33.5	-43.4	3.8	8.47e-01	0	43	104	4811915264	26	11245
2026-01-30 15:57:39.09	334.22	6.84	-33.6	-43.1	3.8	8.46e-01	0	43	104	4811915264	27	10728

#Closed at: 2026-01-30 15:57:39
#Recorded file [4811 MB]: D:/data/31010_260130_184628.dat