passes_logs/2026/01/30/R2M6_AANII_01/R2M6_AANII_01__20260130_001424_NOAA_20_JPSS-1_rec.log

#Pass ID: 20260130_001424_NOAA 20 (JPSS-1)
#Satellite: NOAA 20 (JPSS-1)
#Configuration: NOAA 20
#almurnet v.1.7.20240730
#Start time: 2026-01-30 00:14:24

#Version: 2.2.20231116
#Station: R2M6_AANII_01
#Location: 30.233357 lon 59.946436 lat
#TLE: 1 43013U 17073A   26028.86313978  .00000144  00000+0  89200-4 0  9993
#TLE: 2 43013  98.7648 329.6571 0000891  20.0014 340.1197 14.19541559424709

#Time	Az	El	Level	Level2	SNR	BER	BlckErr	Temp	State	Recorded	gain1	gain2
2026-01-30 00:14:24.94	18.71	7.06	-31.7	-38.5	4.9	1.32e+00	0	41	0	0	23	7892
2026-01-30 00:14:25.94	18.72	7.14	-31.7	-38.5	4.9	1.31e+00	0	41	104	0	23	7893
2026-01-30 00:14:26.94	18.73	7.21	-31.7	-38.3	7.4	1.27e-01	0	41	0	0	23	7732
2026-01-30 00:14:27.95	18.74	7.29	-31.7	-38.3	7.4	1.19e-01	0	41	0	1048576	23	7718
2026-01-30 00:14:28.96	18.75	7.37	-31.7	-38.6	7.1	1.33e-01	0	41	0	3145728	23	7969
2026-01-30 00:14:29.96	18.76	7.45	-31.7	-38.3	7.4	1.26e-01	0	41	0	5242880	23	7732
2026-01-30 00:14:30.95	18.77	7.53	-31.7	-38.3	7.4	1.13e-01	0	41	0	7340032	23	7734
2026-01-30 00:14:31.95	18.78	7.60	-31.7	-38.4	7.4	1.14e-01	0	41	0	9437184	23	7802
2026-01-30 00:14:32.96	18.79	7.68	-31.8	-39.0	6.9	1.40e-01	0	41	0	10485760	23	8231
2026-01-30 00:14:33.96	18.80	7.76	-31.8	-38.8	7.1	1.64e-01	0	41	0	12582912	23	8030
2026-01-30 00:14:34.97	18.81	7.84	-31.6	-37.9	7.8	1.02e-01	0	41	0	14680064	23	7433
2026-01-30 00:14:35.97	18.82	7.92	-31.4	-37.1	8.4	5.82e-02	0	41	0	16777216	23	6921
2026-01-30 00:14:36.97	18.83	8.00	-31.5	-37.5	8.1	5.58e-02	0	42	0	17825792	23	7138
2026-01-30 00:14:37.96	18.84	8.08	-31.4	-37.4	8.5	4.89e-02	0	41	0	19922944	22	7199
2026-01-30 00:14:38.97	18.85	8.16	-31.2	-36.7	9.1	2.78e-02	0	42	0	22020096	22	6761
2026-01-30 00:14:39.97	18.86	8.24	-31.1	-36.1	9.6	1.64e-02	0	42	0	24117248	22	6397
2026-01-30 00:14:40.97	18.87	8.32	-30.8	-35.7	10.3	9.77e-03	0	42	0	26214400	21	6288
2026-01-30 00:14:41.98	18.88	8.40	-30.7	-35.2	10.6	3.69e-03	0	42	0	27262976	21	6041
2026-01-30 00:14:42.98	18.89	8.49	-30.6	-34.8	11.0	3.72e-03	0	42	0	29360128	21	5867
2026-01-30 00:14:43.98	18.90	8.57	-30.4	-34.8	11.3	1.64e-03	0	42	0	31457280	20	5974
2026-01-30 00:14:44.99	18.91	8.65	-30.5	-35.0	11.2	1.50e-03	0	42	0	33554432	20	6039
2026-01-30 00:14:45.99	18.92	8.73	-30.6	-34.8	11.0	4.03e-03	0	41	0	35651584	21	5858
2026-01-30 00:14:47.00	18.93	8.81	-30.7	-35.2	10.7	2.29e-03	0	42	0	36700160	21	6044
2026-01-30 00:14:48.00	18.94	8.90	-30.5	-34.7	11.1	2.09e-03	0	42	0	38797312	21	5806
2026-01-30 00:14:49.00	18.95	8.98	-30.4	-34.8	11.4	3.72e-03	0	42	0	40894464	20	5945
2026-01-30 00:14:50.00	18.96	9.06	-30.5	-34.7	11.1	3.68e-03	0	42	0	42991616	21	5793
2026-01-30 00:14:51.01	18.97	9.15	-30.7	-35.1	10.8	1.99e-03	0	42	0	45088768	21	5991
2026-01-30 00:14:52.01	18.99	9.23	-30.5	-34.5	11.2	4.13e-03	0	42	0	46137344	21	5721
2026-01-30 00:14:53.01	19.00	9.31	-30.5	-34.6	11.1	3.74e-03	0	42	0	48234496	21	5772
2026-01-30 00:14:54.02	19.01	9.40	-30.7	-35.0	10.9	1.59e-03	0	42	0	50331648	21	5931
2026-01-30 00:14:55.03	19.02	9.48	-30.6	-34.7	11.1	4.10e-03	0	42	0	52428800	21	5808
2026-01-30 00:14:56.04	19.03	9.57	-30.5	-34.8	11.4	3.76e-03	0	42	0	54525952	20	5971
2026-01-30 00:14:57.04	19.04	9.65	-30.5	-34.9	11.4	1.12e-03	0	42	0	55574528	20	6019
2026-01-30 00:14:58.04	19.05	9.74	-30.6	-34.8	10.9	4.62e-03	0	42	0	57671680	21	5844
2026-01-30 00:14:59.05	19.06	9.83	-30.7	-35.2	10.8	4.81e-03	0	42	0	59768832	21	6011
2026-01-30 00:15:00.05	19.07	9.91	-30.9	-35.7	10.4	3.64e-03	0	42	0	61865984	21	6280
2026-01-30 00:15:01.05	19.08	10.00	-30.7	-35.2	10.8	6.27e-03	0	42	0	63963136	21	6031
2026-01-30 00:15:02.05	19.09	10.08	-30.6	-34.9	11.1	4.30e-03	0	42	0	65011712	21	5876
2026-01-30 00:15:03.06	19.11	10.17	-30.6	-34.9	11.1	1.94e-03	0	42	0	67108864	21	5866
2026-01-30 00:15:04.06	19.12	10.26	-30.6	-34.8	11.1	3.83e-03	0	42	0	69206016	21	5839
2026-01-30 00:15:05.06	19.13	10.35	-30.7	-35.1	10.9	4.26e-03	0	42	0	71303168	21	5969
2026-01-30 00:15:06.06	19.14	10.43	-30.7	-35.0	11.0	2.13e-03	0	42	0	73400320	21	5900
2026-01-30 00:15:07.07	19.15	10.52	-30.8	-35.4	10.8	4.92e-03	0	42	0	74448896	21	6092
2026-01-30 00:15:08.07	19.16	10.61	-30.7	-35.0	11.1	5.00e-03	0	42	0	76546048	21	5900
2026-01-30 00:15:09.07	19.17	10.70	-30.8	-35.3	10.8	3.01e-03	0	42	0	78643200	21	6080
2026-01-30 00:15:10.08	19.18	10.79	-30.9	-35.8	10.5	6.33e-03	0	42	0	80740352	21	6297
2026-01-30 00:15:11.08	19.20	10.88	-30.9	-35.6	10.6	6.30e-03	0	42	0	81788928	21	6186
2026-01-30 00:15:12.08	19.21	10.97	-31.0	-36.0	10.3	5.11e-03	0	42	0	83886080	21	6419
2026-01-30 00:15:13.09	19.22	11.06	-30.9	-35.6	10.7	6.02e-03	0	42	0	85983232	21	6185
2026-01-30 00:15:14.10	19.23	11.15	-30.9	-35.5	10.7	5.84e-03	0	42	0	88080384	21	6167
2026-01-30 00:15:15.10	19.24	11.24	-30.8	-35.3	10.9	2.99e-03	0	42	0	90177536	21	6049
2026-01-30 00:15:16.10	19.25	11.33	-30.9	-35.6	10.6	6.08e-03	0	42	0	91226112	21	6216
2026-01-30 00:15:17.10	19.27	11.42	-30.8	-35.4	10.8	5.71e-03	0	42	0	93323264	21	6124
2026-01-30 00:15:18.10	19.28	11.52	-30.8	-35.5	10.8	2.98e-03	0	42	0	95420416	21	6119
2026-01-30 00:15:19.10	19.29	11.61	-31.0	-36.0	10.4	4.45e-03	0	42	0	97517568	21	6411
2026-01-30 00:15:20.11	19.30	11.70	-31.2	-36.2	9.8	9.68e-03	0	42	0	99614720	22	6415
2026-01-30 00:15:21.11	19.31	11.79	-31.1	-35.6	10.3	7.62e-03	0	42	0	100663296	22	6097
2026-01-30 00:15:22.11	19.33	11.89	-30.8	-35.2	11.0	2.99e-03	0	42	0	102760448	21	6005
2026-01-30 00:15:23.12	19.34	11.98	-30.6	-34.6	11.4	3.93e-03	0	42	0	104857600	21	5715
2026-01-30 00:15:24.12	19.35	12.07	-30.4	-34.5	11.9	7.96e-04	0	42	0	106954752	20	5781
2026-01-30 00:15:25.12	19.36	12.17	-30.3	-34.1	12.2	2.93e-03	0	42	0	109051904	20	5589
2026-01-30 00:15:26.13	19.37	12.26	-30.1	-33.7	12.4	1.69e-04	0	42	0	110100480	20	5426
2026-01-30 00:15:27.14	19.39	12.36	-30.1	-33.7	12.5	6.81e-04	0	42	0	112197632	20	5407
2026-01-30 00:15:28.14	19.40	12.45	-30.1	-33.7	12.5	2.52e-03	0	42	0	114294784	20	5412
2026-01-30 00:15:29.14	19.41	12.55	-30.1	-33.6	12.5	9.07e-05	0	43	0	116391936	20	5378
2026-01-30 00:15:30.14	19.42	12.65	-30.3	-34.1	12.2	5.61e-04	0	42	0	118489088	20	5591
2026-01-30 00:15:31.15	19.44	12.74	-30.0	-33.3	12.7	2.66e-03	0	42	0	119537664	20	5278
2026-01-30 00:15:32.15	19.45	12.84	-29.9	-33.1	12.9	4.73e-05	0	43	0	121634816	20	5180
2026-01-30 00:15:33.15	19.46	12.94	-30.0	-33.4	12.7	4.13e-04	0	42	0	123731968	20	5300
2026-01-30 00:15:34.16	19.47	13.04	-29.9	-32.9	13.0	2.82e-03	0	42	0	125829120	20	5096
2026-01-30 00:15:35.16	19.49	13.13	-29.9	-33.3	13.2	2.35e-03	0	43	0	127926272	19	5373
2026-01-30 00:15:36.16	19.50	13.23	-29.9	-33.5	13.0	3.47e-04	0	43	0	128974848	19	5445
2026-01-30 00:15:37.16	19.51	13.33	-29.9	-33.4	13.1	3.22e-04	0	42	0	131072000	19	5400
2026-01-30 00:15:38.16	19.52	13.43	-29.9	-33.4	13.2	2.17e-03	0	43	0	133169152	19	5377
2026-01-30 00:15:39.16	19.54	13.53	-29.9	-33.5	13.1	3.57e-04	0	42	0	135266304	19	5435
2026-01-30 00:15:40.17	19.55	13.63	-30.0	-33.6	13.0	3.77e-04	0	42	0	136314880	19	5476
2026-01-30 00:15:41.17	19.56	13.73	-29.9	-33.4	13.1	3.66e-05	0	43	0	138412032	19	5392
2026-01-30 00:15:42.17	19.58	13.83	-29.8	-33.2	13.3	4.65e-04	0	43	0	140509184	19	5298
2026-01-30 00:15:43.17	19.59	13.93	-29.8	-33.2	13.3	3.04e-04	0	42	0	142606336	19	5310
2026-01-30 00:15:44.17	19.60	14.03	-29.8	-33.3	13.3	2.44e-05	0	42	0	144703488	19	5336
2026-01-30 00:15:45.18	19.61	14.14	-29.9	-33.5	13.1	4.42e-04	0	43	0	145752064	19	5451
2026-01-30 00:15:46.19	19.63	14.24	-29.8	-33.1	13.3	3.47e-04	0	43	0	147849216	19	5269
2026-01-30 00:15:47.19	19.64	14.34	-29.7	-32.9	13.5	1.06e-05	0	43	0	149946368	19	5186
2026-01-30 00:15:48.20	19.65	14.45	-29.7	-32.9	13.5	3.16e-04	0	43	0	152043520	19	5202
2026-01-30 00:15:49.20	19.67	14.55	-29.7	-32.9	13.5	1.14e-05	0	43	0	154140672	19	5192
2026-01-30 00:15:50.20	19.68	14.66	-29.7	-33.0	13.5	1.44e-05	0	43	0	155189248	19	5212
2026-01-30 00:15:51.21	19.70	14.76	-29.7	-32.9	13.5	3.00e-04	0	43	0	157286400	19	5181
2026-01-30 00:15:52.21	19.71	14.87	-29.8	-33.0	13.5	2.61e-03	0	43	0	159383552	19	5239
2026-01-30 00:15:53.21	19.72	14.97	-29.8	-33.2	13.3	1.44e-05	0	43	0	161480704	19	5288
2026-01-30 00:15:54.21	19.74	15.08	-29.9	-33.3	13.2	3.09e-04	0	43	0	163577856	19	5362
2026-01-30 00:15:55.22	19.75	15.19	-29.9	-33.3	13.3	3.00e-04	0	43	0	164626432	19	5353
2026-01-30 00:15:56.22	19.76	15.29	-29.9	-33.5	13.2	3.35e-05	0	43	0	166723584	19	5407
2026-01-30 00:15:57.23	19.78	15.40	-29.8	-33.1	13.4	2.88e-04	0	43	0	168820736	19	5275
2026-01-30 00:15:58.23	19.79	15.51	-29.8	-33.2	13.4	2.67e-04	0	43	0	170917888	19	5302
2026-01-30 00:15:59.23	19.81	15.62	-29.9	-33.4	13.2	2.05e-05	0	43	0	173015040	19	5390
2026-01-30 00:16:00.23	19.82	15.73	-29.8	-33.1	13.5	1.37e-05	0	43	0	174063616	19	5267
2026-01-30 00:16:01.24	19.84	15.84	-29.9	-33.2	13.3	2.68e-04	0	43	0	176160768	19	5319
2026-01-30 00:16:02.25	19.85	15.95	-29.9	-33.3	13.3	1.22e-05	0	43	0	178257920	19	5331
2026-01-30 00:16:03.25	19.86	16.06	-29.8	-33.1	13.4	1.06e-05	0	43	0	180355072	19	5275
2026-01-30 00:16:04.26	19.88	16.17	-29.8	-33.1	13.5	6.80e-06	0	43	0	182452224	19	5261
2026-01-30 00:16:05.26	19.89	16.28	-29.8	-33.2	13.4	8.30e-06	0	43	0	183500800	19	5291
2026-01-30 00:16:06.26	19.91	16.39	-29.9	-33.4	13.3	2.44e-05	0	43	0	185597952	19	5357
2026-01-30 00:16:07.26	19.92	16.51	-29.8	-33.1	13.4	1.75e-05	0	43	0	187695104	19	5273
2026-01-30 00:16:08.26	19.94	16.62	-29.4	-32.6	13.6	1.06e-05	0	43	0	189792256	19	5203
2026-01-30 00:16:09.26	19.95	16.73	-29.7	-33.3	13.3	3.26e-04	0	43	0	191889408	18	5451
2026-01-30 00:16:10.27	19.97	16.85	-29.7	-32.8	12.7	3.00e-06	0	43	0	192937984	19	5137
2026-01-30 00:16:11.27	19.98	16.96	-29.7	-32.8	13.7	5.30e-06	0	43	0	195035136	19	5151
2026-01-30 00:16:12.27	20.00	17.08	-29.8	-32.9	12.7	3.83e-04	0	43	0	197132288	19	5191
2026-01-30 00:16:13.28	20.01	17.20	-29.7	-32.8	13.4	8.30e-06	0	43	0	199229440	19	5147
2026-01-30 00:16:14.28	20.03	17.31	-29.7	-32.9	13.6	6.10e-06	0	43	0	200278016	19	5183
2026-01-30 00:16:15.28	20.04	17.43	-29.7	-32.8	13.7	6.80e-06	0	43	0	202375168	19	5142
2026-01-30 00:16:16.27	20.06	17.54	-29.8	-32.9	13.6	2.25e-03	0	43	0	204472320	19	5183
2026-01-30 00:16:17.28	20.07	17.66	-29.8	-32.9	13.6	8.30e-06	0	43	0	206569472	19	5185
2026-01-30 00:16:18.29	20.09	17.78	-29.8	-33.0	13.6	7.60e-06	0	43	0	208666624	19	5227
2026-01-30 00:16:19.29	20.11	17.90	-29.9	-33.3	13.4	3.46e-04	0	43	0	209715200	19	5311
2026-01-30 00:16:20.29	20.12	18.02	-29.9	-32.9	13.3	1.52e-05	0	43	0	211812352	20	5083
2026-01-30 00:16:21.29	20.14	18.14	-29.9	-33.3	13.4	1.83e-05	0	43	0	213909504	19	5341
2026-01-30 00:16:22.29	20.15	18.26	-29.8	-33.1	13.6	8.30e-06	0	43	0	216006656	19	5231
2026-01-30 00:16:23.30	20.17	18.39	-29.9	-33.4	13.4	1.60e-05	0	43	0	218103808	19	5359
2026-01-30 00:16:24.30	20.19	18.51	-29.9	-33.4	13.4	1.83e-05	0	43	0	219152384	19	5362
2026-01-30 00:16:25.30	20.20	18.63	-30.0	-33.5	13.3	1.29e-05	0	43	0	221249536	19	5383
2026-01-30 00:16:26.30	20.22	18.75	-30.0	-33.2	13.1	1.29e-05	0	43	0	223346688	20	5168
2026-01-30 00:16:27.31	20.24	18.88	-30.0	-33.3	13.1	2.31e-03	0	43	0	225443840	20	5210
2026-01-30 00:16:28.31	20.25	19.00	-30.0	-33.1	13.2	2.89e-05	0	43	0	227540992	20	5153
2026-01-30 00:16:29.31	20.27	19.13	-30.0	-33.1	13.2	1.29e-05	0	43	0	228589568	20	5146
2026-01-30 00:16:30.32	20.29	19.26	-30.0	-33.2	13.1	2.25e-03	0	43	0	230686720	20	5196
2026-01-30 00:16:31.32	20.30	19.38	-30.0	-33.0	13.2	2.28e-05	0	43	0	232783872	20	5121
2026-01-30 00:16:32.33	20.32	19.51	-29.9	-32.8	13.4	1.83e-05	0	43	0	234881024	20	5022
2026-01-30 00:16:33.33	20.34	19.64	-29.9	-33.4	13.4	2.01e-03	0	43	0	236978176	19	5360
2026-01-30 00:16:34.33	20.35	19.77	-30.0	-33.0	13.3	2.28e-03	0	43	0	238026752	20	5103
2026-01-30 00:16:35.33	20.37	19.89	-30.0	-33.2	13.2	1.98e-05	0	43	0	240123904	20	5165
2026-01-30 00:16:36.33	20.39	20.02	-30.2	-33.5	12.9	4.04e-05	0	43	0	242221056	20	5316
2026-01-30 00:16:37.33	20.41	20.16	-30.2	-33.6	12.9	2.22e-03	0	43	0	244318208	20	5331
2026-01-30 00:16:38.34	20.42	20.29	-30.2	-33.6	12.7	5.03e-05	0	43	0	245366784	20	5339
2026-01-30 00:16:39.34	20.44	20.42	-30.3	-33.9	12.7	7.85e-05	0	43	0	247463936	20	5464
2026-01-30 00:16:40.35	20.46	20.55	-30.3	-33.9	12.7	2.10e-03	0	43	0	249561088	20	5442
2026-01-30 00:16:41.35	20.48	20.69	-30.4	-34.1	12.6	7.24e-05	0	43	0	251658240	20	5547
2026-01-30 00:16:42.35	20.50	20.82	-30.4	-34.2	12.5	1.19e-04	0	43	0	253755392	20	5599
2026-01-30 00:16:43.36	20.52	20.96	-30.3	-33.9	12.7	2.40e-03	0	43	0	254803968	20	5455
2026-01-30 00:16:44.37	20.53	21.09	-30.2	-33.8	12.8	6.56e-05	0	43	0	256901120	20	5403
2026-01-30 00:16:45.37	20.55	21.23	-30.2	-33.6	12.9	2.32e-03	0	43	0	258998272	20	5328
2026-01-30 00:16:46.36	20.57	21.36	-30.2	-33.6	12.9	5.03e-05	0	43	0	261095424	20	5313
2026-01-30 00:16:47.36	20.59	21.50	-30.2	-33.5	13.0	5.52e-04	0	43	0	263192576	20	5299
2026-01-30 00:16:48.36	20.61	21.64	-30.3	-33.8	12.8	2.29e-03	0	43	0	264241152	20	5397
2026-01-30 00:16:49.37	20.63	21.78	-30.3	-33.8	12.8	2.19e-03	0	43	0	266338304	20	5421
2026-01-30 00:16:50.37	20.65	21.92	-30.1	-33.4	13.1	5.42e-04	0	43	0	268435456	20	5252
2026-01-30 00:16:51.37	20.67	22.06	-30.1	-33.3	13.2	2.62e-03	0	43	0	270532608	20	5203
2026-01-30 00:16:52.37	20.69	22.20	-30.1	-33.3	13.2	2.33e-03	0	43	0	272629760	20	5205
2026-01-30 00:16:53.38	20.71	22.35	-30.1	-33.2	13.2	2.51e-05	0	43	0	273678336	20	5183
2026-01-30 00:16:54.39	20.73	22.49	-30.0	-33.0	13.4	2.80e-03	0	43	0	275775488	20	5089
2026-01-30 00:16:55.39	20.75	22.63	-30.1	-33.2	13.2	2.22e-03	0	43	0	277872640	20	5186
2026-01-30 00:16:56.39	20.77	22.78	-30.2	-33.5	13.1	4.19e-05	0	43	0	279969792	20	5267
2026-01-30 00:16:57.40	20.79	22.93	-30.1	-33.2	13.2	2.67e-03	0	43	0	282066944	20	5182
2026-01-30 00:16:58.40	20.81	23.07	-30.2	-33.5	13.0	2.04e-03	0	43	0	283115520	20	5290
2026-01-30 00:16:59.41	20.83	23.22	-30.3	-33.8	12.8	4.73e-05	0	43	0	285212672	20	5417
2026-01-30 00:17:00.41	20.85	23.37	-30.2	-33.7	13.0	2.49e-03	0	43	0	287309824	20	5355
2026-01-30 00:17:01.41	20.87	23.52	-30.3	-33.9	12.8	2.36e-03	0	43	0	289406976	20	5432
2026-01-30 00:17:02.41	20.89	23.67	-30.3	-33.9	12.8	4.61e-04	0	43	0	291504128	20	5434
2026-01-30 00:17:03.41	20.91	23.82	-30.3	-33.9	12.8	2.43e-03	0	43	0	292552704	20	5447
2026-01-30 00:17:04.42	20.93	23.97	-30.4	-34.1	12.7	2.31e-03	0	43	0	294649856	20	5536
2026-01-30 00:17:05.42	20.95	24.12	-30.5	-33.8	12.5	5.04e-04	0	43	0	296747008	21	5298
2026-01-30 00:17:06.42	20.98	24.28	-30.5	-34.3	12.6	2.35e-03	0	43	0	298844160	20	5579
2026-01-30 00:17:07.42	21.00	24.43	-30.5	-34.0	12.4	1.34e-04	0	43	0	300941312	21	5366
2026-01-30 00:17:08.43	21.02	24.59	-30.6	-34.2	12.3	4.84e-04	0	43	0	301989888	21	5448
2026-01-30 00:17:09.43	21.04	24.74	-30.7	-34.5	12.1	2.74e-03	0	43	0	304087040	21	5566
2026-01-30 00:17:10.44	21.06	24.90	-30.6	-34.2	12.3	2.55e-03	0	43	0	306184192	21	5453
2026-01-30 00:17:11.44	21.09	25.06	-30.7	-34.5	12.1	6.29e-04	0	43	0	308281344	21	5565
2026-01-30 00:17:12.44	21.11	25.22	-30.5	-33.8	12.6	2.81e-03	0	43	0	309329920	21	5290
2026-01-30 00:17:13.45	21.13	25.38	-30.3	-33.8	12.9	2.32e-03	0	43	0	311427072	20	5386
2026-01-30 00:17:14.45	21.16	25.54	-30.2	-33.7	13.0	3.60e-04	0	43	0	313524224	20	5350
2026-01-30 00:17:15.45	21.18	25.70	-30.3	-34.0	12.8	2.63e-03	0	43	0	315621376	20	5452
2026-01-30 00:17:16.45	21.20	25.86	-30.4	-34.0	12.8	2.14e-03	0	43	0	317718528	20	5481
2026-01-30 00:17:17.45	21.23	26.03	-30.3	-33.9	12.9	3.69e-04	0	43	0	318767104	20	5418
2026-01-30 00:17:18.46	21.25	26.19	-30.4	-34.1	12.7	3.46e-04	0	43	0	320864256	20	5530
2026-01-30 00:17:19.46	21.27	26.36	-30.4	-34.1	12.8	2.40e-03	0	43	0	322961408	20	5502
2026-01-30 00:17:20.47	21.30	26.53	-30.2	-33.6	13.1	2.97e-04	0	43	0	325058560	20	5315
2026-01-30 00:17:21.48	21.32	26.70	-30.3	-33.8	13.0	2.69e-04	0	43	0	327155712	20	5392
2026-01-30 00:17:22.48	21.35	26.87	-30.4	-34.0	12.9	2.28e-03	0	43	0	328204288	20	5454
2026-01-30 00:17:23.48	21.37	27.04	-30.4	-34.0	12.8	2.80e-04	0	43	0	330301440	20	5452
2026-01-30 00:17:24.48	21.40	27.21	-30.5	-33.9	12.6	9.76e-05	0	43	0	332398592	21	5333
2026-01-30 00:17:25.49	21.42	27.38	-30.3	-33.8	12.9	9.00e-05	0	43	0	334495744	20	5401
2026-01-30 00:17:26.49	21.45	27.55	-30.4	-34.0	12.8	2.10e-04	0	43	0	336592896	20	5471
2026-01-30 00:17:27.50	21.48	27.73	-30.4	-34.1	12.8	8.54e-05	0	43	0	337641472	20	5520
2026-01-30 00:17:28.50	21.50	27.90	-30.4	-34.1	12.8	5.79e-05	0	43	0	339738624	20	5495
2026-01-30 00:17:29.50	21.53	28.08	-30.6	-34.0	12.5	2.92e-04	0	43	0	341835776	21	5372
2026-01-30 00:17:30.51	21.56	28.26	-30.6	-34.1	12.5	2.35e-03	0	43	0	343932928	21	5386
2026-01-30 00:17:31.51	21.58	28.44	-30.6	-34.2	12.4	1.77e-04	0	43	0	346030080	21	5441
2026-01-30 00:17:32.51	21.61	28.62	-30.7	-34.5	12.2	3.69e-04	0	43	0	347078656	21	5558
2026-01-30 00:17:33.52	21.64	28.80	-30.8	-34.6	12.1	2.48e-03	0	43	0	349175808	21	5600
2026-01-30 00:17:34.52	21.66	28.98	-30.8	-34.8	12.0	2.97e-04	0	43	0	351272960	21	5703
2026-01-30 00:17:35.52	21.69	29.17	-30.8	-34.8	12.0	4.00e-04	0	43	0	353370112	21	5700
2026-01-30 00:17:36.52	21.72	29.35	-30.8	-34.8	12.0	4.62e-04	0	43	0	355467264	21	5682
2026-01-30 00:17:37.53	21.75	29.54	-30.8	-34.9	12.0	2.34e-03	0	43	0	356515840	21	5722
2026-01-30 00:17:38.53	21.78	29.73	-30.9	-35.0	11.8	3.81e-04	0	43	0	358612992	21	5769
2026-01-30 00:17:39.53	21.81	29.92	-30.9	-35.0	11.9	4.42e-04	0	43	0	360710144	21	5775
2026-01-30 00:17:40.54	21.84	30.11	-30.9	-35.1	11.9	2.35e-03	0	43	0	362807296	21	5810
2026-01-30 00:17:41.54	21.87	30.30	-31.0	-34.9	11.7	5.00e-04	0	43	0	364904448	22	5605
2026-01-30 00:17:42.55	21.90	30.49	-31.1	-35.1	11.5	9.45e-04	0	43	0	365953024	22	5711
2026-01-30 00:17:43.55	21.93	30.68	-31.1	-35.2	11.5	8.68e-04	0	43	0	368050176	22	5737
2026-01-30 00:17:44.56	21.96	30.88	-31.2	-35.4	11.3	1.10e-03	0	43	0	370147328	22	5844
2026-01-30 00:17:45.56	21.99	31.08	-31.2	-35.5	11.2	1.27e-03	0	43	0	372244480	22	5903
2026-01-30 00:17:46.56	22.02	31.28	-31.3	-35.8	11.0	1.81e-03	0	43	0	374341632	22	6025
2026-01-30 00:17:47.57	22.05	31.48	-31.4	-35.9	10.9	2.19e-03	0	43	0	375390208	22	6069
2026-01-30 00:17:48.57	22.08	31.68	-31.5	-36.2	10.7	2.32e-03	0	43	0	377487360	22	6224
2026-01-30 00:17:49.57	22.12	31.88	-31.6	-36.3	10.3	3.99e-03	0	43	0	379584512	23	6179
2026-01-30 00:17:50.57	22.15	32.08	-31.8	-36.8	9.9	8.56e-03	0	43	0	381681664	23	6455
2026-01-30 00:17:51.58	22.18	32.29	-31.8	-36.9	9.9	7.98e-03	0	43	0	382730240	23	6474
2026-01-30 00:17:52.59	22.22	32.49	-31.8	-37.0	9.8	1.26e-02	0	43	0	384827392	23	6517
2026-01-30 00:17:53.59	22.25	32.70	-31.6	-36.2	10.3	7.69e-03	0	43	0	386924544	23	6130
2026-01-30 00:17:54.59	22.28	32.91	-31.4	-35.6	10.8	3.24e-03	0	43	0	389021696	23	5816
2026-01-30 00:17:55.59	22.32	33.12	-31.2	-35.4	11.3	1.65e-03	0	43	0	391118848	22	5847
2026-01-30 00:17:56.59	22.35	33.33	-31.0	-35.2	11.3	6.65e-04	0	43	0	392167424	21	5843
2026-01-30 00:17:57.60	22.39	33.55	-30.8	-34.7	11.6	3.50e-04	0	43	0	394264576	21	5634
2026-01-30 00:17:58.60	22.43	33.76	-30.8	-34.5	12.3	2.14e-04	0	43	0	396361728	21	5555
2026-01-30 00:17:59.61	22.46	33.98	-30.8	-34.7	12.2	1.88e-04	0	43	0	398458880	21	5633
2026-01-30 00:18:00.62	22.50	34.20	-30.6	-34.0	12.6	2.02e-04	0	43	0	400556032	21	5346
2026-01-30 00:18:01.62	22.54	34.42	-30.3	-33.3	13.1	3.73e-05	0	43	0	401604608	21	5061
2026-01-30 00:18:02.62	22.57	34.64	-30.1	-33.2	13.5	1.37e-05	0	43	0	403701760	20	5126
2026-01-30 00:18:03.62	22.61	34.86	-30.0	-32.9	13.8	7.60e-06	0	43	0	405798912	20	5013
2026-01-30 00:18:04.62	22.65	35.08	-30.0	-32.8	13.8	6.80e-06	0	43	0	407896064	20	4966
2026-01-30 00:18:05.62	22.69	35.31	-30.0	-32.8	13.8	2.20e-06	0	43	0	409993216	20	4977
2026-01-30 00:18:06.62	22.73	35.53	-30.0	-32.8	13.8	4.50e-06	0	43	0	411041792	20	4993
2026-01-30 00:18:07.62	22.77	35.76	-30.0	-32.8	13.8	6.80e-06	0	43	0	413138944	20	4982
2026-01-30 00:18:08.62	22.81	35.99	-29.9	-33.0	14.1	1.36e-03	0	43	0	415236096	19	5159
2026-01-30 00:18:09.63	22.85	36.23	-29.8	-32.9	14.2	0.00e+00	0	43	0	417333248	19	5110
2026-01-30 00:18:10.64	22.89	36.46	-29.9	-33.0	14.1	0.00e+00	0	43	0	419430400	19	5154
2026-01-30 00:18:11.64	22.93	36.70	-29.9	-33.0	14.1	1.34e-03	0	44	0	420478976	19	5142
2026-01-30 00:18:12.65	22.98	36.94	-29.9	-33.1	14.1	0.00e+00	0	43	0	422576128	19	5184
2026-01-30 00:18:13.64	23.02	37.17	-29.9	-33.1	14.1	7.00e-07	0	43	0	424673280	19	5172
2026-01-30 00:18:14.64	23.06	37.41	-29.6	-32.4	14.5	1.02e-03	0	43	0	426770432	19	4923
2026-01-30 00:18:15.65	23.11	37.66	-29.6	-32.3	14.5	9.65e-04	0	43	0	428867584	19	4903
2026-01-30 00:18:16.65	23.15	37.90	-29.6	-32.3	14.5	0.00e+00	0	43	0	429916160	19	4918
2026-01-30 00:18:17.65	23.20	38.15	-29.6	-32.3	14.6	7.00e-07	0	43	0	432013312	19	4884
2026-01-30 00:18:18.65	23.24	38.39	-29.5	-32.1	14.7	4.41e-04	0	43	0	434110464	19	4832
2026-01-30 00:18:19.65	23.29	38.64	-29.5	-32.1	14.7	0.00e+00	0	43	0	436207616	19	4819
2026-01-30 00:18:20.66	23.34	38.90	-29.6	-32.3	14.6	0.00e+00	0	43	0	437256192	19	4903
2026-01-30 00:18:21.66	23.39	39.15	-29.7	-32.6	14.4	1.85e-04	0	43	0	439353344	19	4993
2026-01-30 00:18:22.66	23.44	39.40	-29.8	-32.7	14.4	1.50e-06	0	43	0	441450496	19	5022
2026-01-30 00:18:23.67	23.49	39.66	-29.9	-32.9	14.2	1.50e-06	0	43	0	443547648	19	5111
2026-01-30 00:18:24.67	23.54	39.92	-29.9	-33.1	14.1	7.00e-07	0	43	0	445644800	19	5184
2026-01-30 00:18:25.67	23.59	40.18	-29.8	-32.8	14.2	7.00e-07	0	43	0	446693376	19	5089
2026-01-30 00:18:26.67	23.64	40.44	-30.0	-33.2	14.1	1.83e-05	0	43	0	448790528	19	5211
2026-01-30 00:18:27.68	23.69	40.71	-29.9	-32.6	14.0	3.00e-06	0	43	0	450887680	20	4899
2026-01-30 00:18:28.68	23.75	40.98	-30.0	-32.7	14.0	7.00e-07	0	43	0	452984832	20	4945
2026-01-30 00:18:29.69	23.80	41.25	-30.1	-33.2	13.7	4.50e-06	0	43	0	455081984	20	5119
2026-01-30 00:18:30.69	23.86	41.52	-30.2	-33.3	13.6	9.10e-06	0	43	0	456130560	20	5150
2026-01-30 00:18:31.69	23.91	41.79	-30.3	-33.6	13.4	1.22e-05	0	43	0	458227712	20	5257
2026-01-30 00:18:32.70	23.97	42.07	-30.4	-33.8	13.3	2.89e-05	0	43	0	460324864	20	5347
2026-01-30 00:18:33.71	24.03	42.35	-30.5	-33.8	13.0	3.43e-05	0	43	0	462422016	21	5223
2026-01-30 00:18:34.71	24.09	42.62	-30.7	-34.2	12.7	4.57e-05	0	43	0	464519168	21	5372
2026-01-30 00:18:35.71	24.15	42.91	-30.6	-34.1	12.8	1.31e-04	0	43	0	465567744	21	5340
2026-01-30 00:18:36.71	24.21	43.19	-30.6	-33.8	13.0	7.85e-05	0	44	0	467664896	21	5246
2026-01-30 00:18:37.71	24.27	43.47	-30.4	-33.5	13.1	3.73e-05	0	43	0	469762048	21	5130
2026-01-30 00:18:38.71	24.33	43.76	-30.4	-33.4	13.2	2.28e-05	0	43	0	471859200	21	5091
2026-01-30 00:18:39.72	24.40	44.05	-30.3	-33.0	13.4	1.75e-05	0	43	0	473956352	21	4949
2026-01-30 00:18:40.73	24.46	44.34	-30.4	-33.3	13.3	6.80e-06	0	43	0	475004928	21	5036
2026-01-30 00:18:41.73	24.53	44.64	-30.4	-33.4	13.3	1.98e-05	0	43	0	477102080	21	5093
2026-01-30 00:18:42.73	24.59	44.93	-30.6	-33.9	12.9	3.73e-05	0	43	0	479199232	21	5253
2026-01-30 00:18:43.73	24.66	45.23	-30.6	-34.0	12.9	7.09e-05	0	43	0	481296384	21	5307
2026-01-30 00:18:44.73	24.73	45.53	-30.9	-34.7	12.4	1.06e-04	0	43	0	482344960	21	5579
2026-01-30 00:18:45.74	24.80	45.83	-30.9	-34.7	12.4	3.65e-04	0	43	0	484442112	21	5601
2026-01-30 00:18:46.74	24.88	46.14	-31.2	-35.1	11.8	3.93e-04	0	43	0	486539264	22	5660
2026-01-30 00:18:47.74	24.95	46.44	-31.2	-35.2	11.7	8.85e-04	0	43	0	488636416	22	5715
2026-01-30 00:18:48.75	25.02	46.76	-31.3	-35.3	11.7	5.25e-04	0	43	0	490733568	22	5731
2026-01-30 00:18:49.75	25.10	47.07	-31.2	-35.1	11.8	5.03e-04	0	43	0	492830720	22	5660
2026-01-30 00:18:50.75	25.18	47.38	-31.3	-35.3	11.6	9.57e-04	0	43	0	493879296	22	5752
2026-01-30 00:18:51.75	25.26	47.69	-31.6	-36.1	10.8	1.46e-03	0	43	0	495976448	23	6005
2026-01-30 00:18:52.75	25.34	48.01	-31.7	-36.1	10.7	3.11e-03	0	43	0	498073600	23	6014
2026-01-30 00:18:53.76	25.42	48.34	-31.6	-35.9	10.9	2.79e-03	0	43	0	500170752	23	5899
2026-01-30 00:18:54.76	25.51	48.66	-31.6	-35.9	11.0	2.84e-03	0	43	0	501219328	23	5887
2026-01-30 00:18:55.76	25.59	48.98	-31.7	-36.1	10.8	2.59e-03	0	43	0	503316480	23	5992
2026-01-30 00:18:56.76	25.68	49.31	-31.3	-34.8	11.6	2.68e-03	0	43	0	505413632	23	5433
2026-01-30 00:18:57.76	25.77	49.64	-31.0	-34.6	12.2	1.42e-03	0	43	0	507510784	22	5411
2026-01-30 00:18:58.76	25.86	49.97	-30.7	-33.6	12.9	9.00e-05	0	43	0	509607936	22	5021
2026-01-30 00:18:59.76	25.95	50.30	-30.4	-33.4	13.4	1.67e-05	0	43	0	510656512	21	5050
2026-01-30 00:19:00.76	26.05	50.64	-30.3	-33.6	13.6	1.16e-03	0	43	0	512753664	20	5244
2026-01-30 00:19:01.76	26.15	50.98	-30.1	-33.0	13.9	8.30e-06	0	43	0	514850816	20	5026
2026-01-30 00:19:02.76	26.24	51.32	-29.9	-32.4	14.3	2.20e-06	0	43	0	516947968	20	4822
2026-01-30 00:19:03.77	26.35	51.67	-29.7	-32.3	14.8	7.00e-07	0	43	0	519045120	19	4887
2026-01-30 00:19:04.77	26.45	52.01	-29.5	-31.9	15.0	0.00e+00	0	43	0	520093696	19	4740
2026-01-30 00:19:05.78	26.56	52.37	-29.5	-32.0	15.0	3.05e-04	0	43	0	522190848	19	4778
2026-01-30 00:19:06.78	26.67	52.72	-29.4	-31.7	15.2	0.00e+00	0	43	0	524288000	19	4672
2026-01-30 00:19:07.78	26.78	53.07	-28.8	-30.3	16.0	0.00e+00	0	43	0	526385152	19	4248
2026-01-30 00:19:08.78	26.89	53.43	-28.5	-29.9	16.5	9.90e-06	0	43	0	528482304	18	4255
2026-01-30 00:19:09.79	27.01	53.79	-28.3	-29.4	16.8	0.00e+00	0	43	0	529530880	18	4093
2026-01-30 00:19:10.79	27.13	54.15	-28.2	-29.7	16.9	0.00e+00	0	43	0	531628032	17	4277
2026-01-30 00:19:11.79	27.25	54.51	-28.1	-29.5	17.0	6.10e-06	0	43	0	533725184	17	4223
2026-01-30 00:19:12.80	27.38	54.88	-28.1	-29.5	17.0	0.00e+00	0	43	0	535822336	17	4241
2026-01-30 00:19:13.80	27.51	55.25	-28.3	-29.9	16.8	0.00e+00	0	43	0	537919488	17	4343
2026-01-30 00:19:14.80	27.64	55.62	-28.0	-29.2	17.1	2.46e-04	0	43	0	538968064	17	4159
2026-01-30 00:19:15.81	27.78	56.00	-27.8	-29.3	17.4	2.24e-04	0	43	0	541065216	16	4281
2026-01-30 00:19:16.81	27.92	56.37	-28.0	-29.7	17.2	0.00e+00	0	43	0	543162368	16	4380
2026-01-30 00:19:17.81	28.06	56.75	-28.2	-30.1	17.0	0.00e+00	0	43	0	545259520	16	4519
2026-01-30 00:19:18.81	28.21	57.13	-28.7	-30.8	16.3	3.80e-04	0	43	0	546308096	17	4614
2026-01-30 00:19:19.82	28.36	57.51	-29.1	-31.4	15.7	0.00e+00	0	43	0	548405248	18	4692
2026-01-30 00:19:20.82	28.51	57.90	-29.4	-32.1	15.3	0.00e+00	0	43	0	550502400	18	4926
2026-01-30 00:19:21.83	28.67	58.29	-29.5	-31.9	15.1	0.00e+00	0	43	0	552599552	19	4730
2026-01-30 00:19:22.83	28.84	58.68	-29.2	-31.2	15.5	0.00e+00	0	43	0	554696704	19	4524
2026-01-30 00:19:23.84	29.01	59.08	-29.1	-30.9	15.7	0.00e+00	0	43	0	555745280	19	4414
2026-01-30 00:19:24.85	29.18	59.47	-29.1	-30.9	15.7	1.50e-06	0	43	0	557842432	19	4436
2026-01-30 00:19:25.85	29.36	59.87	-28.8	-30.3	16.1	0.00e+00	0	43	0	559939584	19	4236
2026-01-30 00:19:26.86	29.55	60.27	-28.6	-30.2	16.4	0.00e+00	0	43	0	562036736	18	4329
2026-01-30 00:19:27.86	29.74	60.68	-28.5	-30.3	16.6	0.00e+00	0	43	0	564133888	17	4474
2026-01-30 00:19:28.87	29.94	61.08	-28.6	-30.6	16.5	0.00e+00	0	43	0	565182464	17	4548
2026-01-30 00:19:29.87	30.14	61.49	-28.5	-30.3	16.6	0.00e+00	0	43	0	567279616	17	4474
2026-01-30 00:19:30.88	30.35	61.90	-28.3	-30.1	16.8	0.00e+00	0	43	0	569376768	17	4385
2026-01-30 00:19:31.88	30.57	62.31	-28.2	-29.8	17.0	0.00e+00	0	43	0	571473920	17	4307
2026-01-30 00:19:32.88	30.80	62.72	-28.4	-30.1	16.8	0.00e+00	0	43	0	573571072	17	4401
2026-01-30 00:19:33.88	31.03	63.14	-28.3	-30.1	16.8	7.00e-07	0	43	0	574619648	17	4388
2026-01-30 00:19:34.88	31.27	63.55	-28.6	-30.7	16.4	0.00e+00	0	43	0	576716800	17	4573
2026-01-30 00:19:35.88	31.52	63.97	-28.8	-31.2	16.1	0.00e+00	0	43	0	578813952	17	4737
2026-01-30 00:19:36.88	31.77	64.39	-29.3	-31.9	15.5	2.20e-06	0	44	0	580911104	18	4855
2026-01-30 00:19:37.89	32.04	64.82	-29.7	-32.3	14.9	0.00e+00	0	43	0	583008256	19	4859
2026-01-30 00:19:38.89	32.32	65.24	-30.3	-33.5	13.8	2.20e-06	0	43	0	584056832	20	5203
2026-01-30 00:19:39.89	32.61	65.67	-30.5	-33.6	13.4	5.30e-06	0	43	0	586153984	21	5100
2026-01-30 00:19:40.89	32.91	66.10	-29.9	-33.5	12.7	4.27e-05	0	43	0	588251136	21	5470
2026-01-30 00:19:41.90	33.22	66.53	-30.8	-34.8	12.6	7.01e-05	0	43	0	590348288	20	5722
2026-01-30 00:19:42.89	33.54	66.96	-30.5	-33.4	13.5	1.14e-05	0	44	0	592445440	21	5034
2026-01-30 00:19:43.90	33.88	67.40	-30.3	-33.3	13.2	2.20e-06	0	43	0	593494016	20	5128
2026-01-30 00:19:44.91	34.24	67.83	-30.1	-32.8	13.9	0.00e+00	0	43	0	595591168	20	4943
2026-01-30 00:19:45.92	34.61	68.27	-30.1	-32.8	14.3	3.80e-06	0	43	0	597688320	20	4925
2026-01-30 00:19:46.92	34.99	68.71	-30.2	-33.2	14.1	3.00e-06	0	43	0	599785472	20	5056
2026-01-30 00:19:47.93	35.39	69.15	-30.3	-33.3	14.0	4.50e-06	0	43	0	601882624	20	5115
2026-01-30 00:19:48.92	35.81	69.59	-30.3	-33.3	14.0	6.10e-06	0	43	0	602931200	20	5111
2026-01-30 00:19:49.92	36.25	70.03	-30.2	-33.2	14.0	7.16e-04	0	43	0	605028352	20	5096
2026-01-30 00:19:50.93	36.71	70.48	-30.3	-33.4	13.9	6.80e-06	0	44	0	607125504	20	5150
2026-01-30 00:19:51.92	37.19	70.91	-30.1	-32.7	14.3	3.80e-06	0	43	0	609222656	20	4908
2026-01-30 00:19:52.93	37.70	71.36	-30.0	-32.7	14.4	7.00e-07	0	43	0	610271232	20	4895
2026-01-30 00:19:53.93	38.23	71.80	-30.3	-33.5	13.9	2.91e-04	0	43	0	612368384	20	5172
2026-01-30 00:19:54.93	38.79	72.25	-30.3	-33.4	13.9	2.20e-06	0	43	0	614465536	20	5151
2026-01-30 00:19:55.94	39.39	72.70	-30.9	-34.6	12.9	2.13e-05	0	44	0	616562688	21	5488
2026-01-30 00:19:56.94	40.01	73.14	-30.9	-34.6	12.8	5.13e-04	0	43	0	618659840	21	5523
2026-01-30 00:19:57.94	40.67	73.58	-31.5	-35.3	11.6	3.13e-04	0	43	0	619708416	23	5588
2026-01-30 00:19:58.95	41.37	74.03	-31.2	-34.4	12.3	4.07e-04	0	43	0	621805568	23	5186
2026-01-30 00:19:59.95	42.11	74.47	-30.8	-33.7	13.2	2.17e-04	0	44	0	623902720	22	5027
2026-01-30 00:20:00.95	42.89	74.91	-31.0	-34.3	12.8	3.20e-05	0	43	0	625999872	22	5265
2026-01-30 00:20:01.96	43.73	75.36	-31.5	-35.3	11.7	2.38e-04	0	43	0	628097024	23	5593
2026-01-30 00:20:02.96	44.62	75.79	-31.5	-35.3	11.7	7.36e-04	0	43	0	629145600	23	5575
2026-01-30 00:20:03.96	45.56	76.23	-31.4	-35.0	12.0	5.35e-04	0	43	0	631242752	23	5449
2026-01-30 00:20:04.97	46.58	76.67	-31.6	-35.7	11.4	1.12e-03	0	43	0	633339904	23	5741
2026-01-30 00:20:05.98	47.67	77.10	-31.7	-35.8	11.4	1.29e-03	0	44	0	635437056	23	5806
2026-01-30 00:20:06.98	48.82	77.53	-31.8	-36.2	11.1	1.51e-03	0	43	0	637534208	23	5975
2026-01-30 00:20:07.98	50.06	77.95	-32.1	-36.9	10.2	5.25e-03	0	43	0	638582784	24	6213
2026-01-30 00:20:08.98	51.38	78.37	-32.0	-36.5	10.6	4.56e-03	0	43	0	640679936	24	6031
2026-01-30 00:20:09.99	52.83	78.79	-31.7	-35.2	11.5	2.28e-03	0	44	0	642777088	24	5428
2026-01-30 00:20:11.00	54.38	79.20	-31.5	-35.1	11.9	2.00e-03	0	43	0	644874240	23	5497
2026-01-30 00:20:12.00	56.05	79.60	-31.4	-35.4	12.1	1.75e-03	0	43	0	646971392	22	5727
2026-01-30 00:20:13.01	57.86	79.99	-31.2	-34.7	12.6	1.93e-04	0	43	0	648019968	22	5431
2026-01-30 00:20:14.02	59.83	80.38	-31.3	-35.1	12.3	1.60e-03	0	43	0	650117120	22	5587
2026-01-30 00:20:15.02	61.93	80.75	-31.2	-34.8	12.5	1.75e-03	0	43	0	652214272	22	5468
2026-01-30 00:20:16.02	64.21	81.10	-30.7	-33.4	13.5	5.26e-05	0	43	0	654311424	22	4910
2026-01-30 00:20:17.02	66.68	81.45	-30.8	-34.2	13.3	4.03e-04	0	43	0	656408576	21	5312
2026-01-30 00:20:18.02	69.35	81.77	-31.0	-34.2	13.0	5.18e-05	0	43	0	657457152	22	5192
2026-01-30 00:20:19.01	72.21	82.08	-30.2	-32.6	14.3	9.90e-06	0	44	0	659554304	21	4729
2026-01-30 00:20:20.02	75.36	82.36	-29.6	-31.5	15.3	0.00e+00	0	43	0	661651456	20	4485
2026-01-30 00:20:21.02	78.71	82.63	-29.4	-31.0	15.6	1.15e-03	0	44	0	663748608	20	4339
2026-01-30 00:20:22.02	82.29	82.86	-29.3	-31.1	16.0	0.00e+00	0	43	0	664797184	19	4457
2026-01-30 00:20:23.02	86.11	83.07	-29.3	-31.8	15.8	1.31e-03	0	43	0	666894336	18	4780
2026-01-30 00:20:24.03	90.19	83.25	-29.6	-31.9	15.5	3.54e-04	0	43	0	668991488	19	4719
2026-01-30 00:20:25.03	94.42	83.39	-29.9	-32.7	15.0	0.00e+00	0	43	0	671088640	19	4963
2026-01-30 00:20:26.03	98.81	83.49	-29.9	-32.8	15.0	1.09e-04	0	44	0	673185792	19	4992
2026-01-30 00:20:27.03	103.31	83.55	-29.6	-31.9	15.5	5.06e-04	0	43	0	674234368	19	4714
2026-01-30 00:20:28.04	107.92	83.57	-29.5	-31.7	15.7	0.00e+00	0	43	0	676331520	19	4620
2026-01-30 00:20:29.05	112.53	83.56	-30.1	-32.6	14.8	3.42e-04	0	43	0	678428672	20	4830
2026-01-30 00:20:30.05	117.05	83.50	-30.3	-33.4	14.3	1.36e-04	0	44	0	680525824	20	5088
2026-01-30 00:20:31.06	121.50	83.40	-30.7	-33.8	13.7	3.80e-06	0	43	0	682622976	21	5139
2026-01-30 00:20:32.06	125.75	83.26	-31.0	-34.2	13.1	5.77e-04	0	44	0	683671552	22	5176
2026-01-30 00:20:33.07	129.85	83.09	-31.7	-35.6	11.9	4.76e-04	0	44	0	685768704	23	5651
2026-01-30 00:20:34.07	133.69	82.89	-32.0	-36.2	11.1	1.06e-03	0	44	0	687865856	24	5833
2026-01-30 00:20:35.07	137.31	82.66	-32.5	-37.3	9.8	7.60e-03	0	43	0	689963008	25	6239
2026-01-30 00:20:36.08	140.72	82.39	-32.3	-36.8	10.2	8.19e-03	0	43	0	692060160	25	5985
2026-01-30 00:20:37.08	143.86	82.11	-32.4	-37.1	10.1	6.49e-03	0	44	0	693108736	25	6143
2026-01-30 00:20:38.08	146.78	81.80	-32.3	-36.7	10.3	5.11e-03	0	44	0	695205888	25	5959
2026-01-30 00:20:39.09	149.50	81.48	-32.2	-36.3	10.6	3.43e-03	0	43	0	697303040	25	5762
2026-01-30 00:20:40.08	151.97	81.14	-31.8	-35.1	11.5	1.96e-03	0	43	0	699400192	25	5230
2026-01-30 00:20:41.09	154.29	80.78	-31.6	-34.8	12.2	2.17e-04	0	44	0	701497344	24	5201
2026-01-30 00:20:42.09	156.41	80.41	-31.0	-33.7	13.2	1.28e-04	0	43	0	702545920	23	4874
2026-01-30 00:20:43.10	158.39	80.03	-30.6	-33.0	14.0	5.30e-06	0	43	0	704643072	22	4732
2026-01-30 00:20:44.10	160.21	79.64	-30.6	-33.6	13.8	6.80e-06	0	43	0	706740224	21	5065
2026-01-30 00:20:45.11	161.90	79.24	-30.6	-33.4	14.0	3.00e-06	0	43	0	708837376	21	4998
2026-01-30 00:20:46.11	163.45	78.83	-30.6	-33.5	13.9	2.20e-06	0	43	0	710934528	21	5026
2026-01-30 00:20:47.11	164.90	78.42	-30.7	-33.7	13.8	1.13e-03	0	43	0	711983104	21	5113
2026-01-30 00:20:48.11	166.24	78.00	-30.6	-33.6	13.8	6.10e-06	0	44	0	714080256	21	5061
2026-01-30 00:20:49.11	167.48	77.58	-31.3	-34.9	12.6	2.82e-05	0	43	0	716177408	22	5447
2026-01-30 00:20:50.11	168.65	77.15	-32.4	-37.5	10.1	8.74e-04	0	43	0	718274560	24	6478
2026-01-30 00:20:51.12	169.74	76.71	-33.0	-39.5	8.1	3.72e-02	0	43	0	720371712	25	7597
2026-01-30 00:20:52.12	170.76	76.28	-33.3	-40.5	7.0	9.62e-02	0	43	0	721420288	26	8252
2026-01-30 00:20:53.13	171.72	75.84	-33.5	-41.0	6.1	2.87e-01	0	43	0	723517440	27	8587
2026-01-30 00:20:54.13	172.61	75.40	-33.3	-40.0	7.0	2.30e-01	0	43	0	725614592	27	7794
2026-01-30 00:20:55.13	173.45	74.96	-33.0	-38.7	7.8	1.05e-01	0	44	0	727711744	27	6921
2026-01-30 00:20:56.13	174.24	74.52	-32.9	-38.4	8.5	4.22e-02	0	43	0	728760320	26	6832
2026-01-30 00:20:57.14	174.99	74.07	-33.1	-39.4	7.8	5.13e-02	0	43	0	730857472	26	7440
2026-01-30 00:20:58.13	175.69	73.63	-33.4	-41.1	6.6	1.96e-01	0	44	0	732954624	26	8722
2026-01-30 00:20:59.13	176.35	73.19	-33.3	-40.7	6.7	2.38e-01	0	43	0	735051776	26	8420
2026-01-30 00:21:00.13	176.98	72.74	-32.7	-37.9	8.8	9.86e-02	0	43	0	737148928	26	6535
2026-01-30 00:21:01.14	177.58	72.30	-31.7	-35.4	11.5	8.48e-03	0	43	0	738197504	24	5468
2026-01-30 00:21:02.15	178.15	71.85	-31.8	-35.6	11.4	6.10e-04	0	44	0	740294656	24	5586
2026-01-30 00:21:03.16	178.69	71.40	-32.3	-37.2	10.2	4.02e-03	0	44	0	742391808	24	6345
2026-01-30 00:21:04.16	179.20	70.95	-31.8	-35.7	11.3	3.30e-03	0	43	0	744488960	24	5620
2026-01-30 00:21:05.16	179.68	70.51	-31.7	-35.3	11.5	8.41e-04	0	44	0	746586112	24	5423
2026-01-30 00:21:06.17	180.15	70.06	-31.7	-35.2	11.7	5.93e-04	0	43	0	747634688	24	5392
2026-01-30 00:21:07.16	180.58	69.63	-32.0	-36.2	11.0	7.73e-04	0	44	0	749731840	24	5820
2026-01-30 00:21:08.16	181.01	69.19	-32.5	-38.0	9.7	6.72e-03	0	44	0	751828992	24	6772
2026-01-30 00:21:09.17	181.41	68.74	-32.9	-39.1	8.4	4.27e-02	0	44	0	753926144	25	7366
2026-01-30 00:21:10.17	181.80	68.31	-32.5	-37.5	9.6	3.13e-02	0	43	0	756023296	25	6388
2026-01-30 00:21:11.17	182.17	67.87	-32.5	-37.3	9.7	9.58e-03	0	43	0	757071872	25	6304
2026-01-30 00:21:12.18	182.52	67.43	-32.9	-39.2	8.3	2.64e-02	0	43	0	759169024	25	7417
2026-01-30 00:21:13.18	182.86	66.99	-33.3	-40.3	7.0	1.49e-01	0	43	0	761266176	26	8088
2026-01-30 00:21:14.18	183.19	66.56	-32.8	-38.0	8.7	9.76e-02	0	43	0	763363328	26	6583
2026-01-30 00:21:15.18	183.50	66.13	-32.1	-36.2	10.5	7.06e-03	0	44	0	765460480	25	5724
2026-01-30 00:21:16.18	183.80	65.70	-31.8	-35.5	11.5	1.21e-03	0	43	0	766509056	24	5523
2026-01-30 00:21:17.18	184.09	65.27	-32.0	-36.2	10.9	9.12e-04	0	43	0	768606208	24	5860
2026-01-30 00:21:18.18	184.37	64.85	-32.5	-37.8	9.3	1.18e-02	0	43	0	770703360	25	6557
2026-01-30 00:21:19.19	184.64	64.42	-32.5	-37.6	9.4	2.74e-02	0	44	0	772800512	25	6465
2026-01-30 00:21:20.20	184.90	64.00	-31.2	-34.1	12.6	1.97e-03	0	44	0	774897664	23	5079
2026-01-30 00:21:21.20	185.15	63.58	-30.1	-32.2	14.5	2.05e-05	0	44	0	775946240	21	4591
2026-01-30 00:21:22.20	185.39	63.16	-29.7	-31.7	15.1	0.00e+00	0	43	0	778043392	20	4567
2026-01-30 00:21:23.20	185.62	62.74	-29.6	-31.7	15.2	0.00e+00	0	44	0	780140544	20	4539
2026-01-30 00:21:24.20	185.85	62.33	-29.8	-32.4	15.1	0.00e+00	0	43	0	782237696	19	4880
2026-01-30 00:21:25.21	186.07	61.91	-29.7	-32.2	15.2	0.00e+00	0	43	0	783286272	19	4814
2026-01-30 00:21:26.22	186.28	61.50	-29.7	-32.4	15.1	0.00e+00	0	43	0	785383424	19	4878
2026-01-30 00:21:27.22	186.48	61.09	-29.3	-31.3	15.8	0.00e+00	0	44	0	787480576	19	4517
2026-01-30 00:21:28.22	186.68	60.69	-29.1	-30.9	16.0	0.00e+00	0	43	0	789577728	19	4396
2026-01-30 00:21:29.22	186.87	60.28	-29.9	-32.8	14.8	0.00e+00	0	43	0	791674880	19	5010
2026-01-30 00:21:30.23	187.06	59.88	-31.2	-34.8	12.5	1.75e-05	0	43	0	792723456	22	5456
2026-01-30 00:21:31.23	187.24	59.48	-31.1	-34.7	12.4	1.97e-04	0	43	0	794820608	22	5421
2026-01-30 00:21:32.23	187.41	59.09	-30.5	-33.5	13.6	9.90e-06	0	43	0	796917760	21	5063
2026-01-30 00:21:33.24	187.58	58.69	-30.6	-33.6	13.6	3.00e-06	0	43	0	799014912	21	5116
2026-01-30 00:21:34.24	187.75	58.30	-31.2	-35.0	12.4	3.43e-05	0	43	0	801112064	22	5548
2026-01-30 00:21:35.25	187.91	57.91	-31.6	-35.7	11.4	1.36e-03	0	43	0	802160640	23	5775
2026-01-30 00:21:36.26	188.07	57.52	-31.6	-35.5	11.5	7.78e-04	0	44	0	804257792	23	5691
2026-01-30 00:21:37.25	188.22	57.14	-31.5	-35.7	11.8	4.19e-04	0	43	0	806354944	22	5886
2026-01-30 00:21:38.26	188.37	56.75	-31.3	-35.4	12.0	5.78e-04	0	43	0	808452096	22	5720
2026-01-30 00:21:39.27	188.51	56.37	-31.0	-34.2	12.8	1.24e-04	0	43	0	810549248	22	5238
2026-01-30 00:21:40.27	188.65	55.99	-30.5	-32.8	13.8	9.90e-06	0	43	0	811597824	22	4712
2026-01-30 00:21:41.27	188.79	55.62	-30.6	-33.6	13.6	4.50e-06	0	44	0	813694976	21	5095
2026-01-30 00:21:42.27	188.92	55.24	-30.7	-34.0	13.3	2.44e-05	0	43	0	815792128	21	5239
2026-01-30 00:21:43.27	189.05	54.88	-30.0	-32.2	14.4	8.30e-06	0	43	0	817889280	21	4612
2026-01-30 00:21:44.27	189.17	54.51	-29.4	-31.2	15.3	0.00e+00	0	43	0	819986432	20	4396
2026-01-30 00:21:45.28	189.30	54.14	-29.4	-31.5	15.6	0.00e+00	0	43	0	821035008	19	4603
2026-01-30 00:21:46.28	189.42	53.78	-29.5	-31.8	15.3	0.00e+00	0	43	0	823132160	19	4714
2026-01-30 00:21:47.28	189.53	53.42	-30.0	-32.6	14.5	0.00e+00	0	44	0	825229312	20	4852
2026-01-30 00:21:48.28	189.65	53.06	-29.8	-32.2	14.7	0.00e+00	0	43	0	827326464	20	4727
2026-01-30 00:21:49.29	189.76	52.70	-29.5	-31.9	15.2	3.17e-04	0	43	0	829423616	19	4737
2026-01-30 00:21:50.29	189.87	52.35	-29.7	-32.2	15.1	0.00e+00	0	43	0	830472192	19	4822
2026-01-30 00:21:51.30	189.98	52.00	-29.9	-32.7	14.8	0.00e+00	0	43	0	832569344	19	5014
2026-01-30 00:21:52.30	190.08	51.65	-30.8	-34.2	13.1	4.24e-04	0	43	0	834666496	21	5358
2026-01-30 00:21:53.30	190.18	51.30	-31.7	-36.1	11.1	8.71e-04	0	44	0	836763648	23	5960
2026-01-30 00:21:54.30	190.28	50.96	-32.3	-37.6	9.6	5.44e-03	0	44	0	838860800	24	6671
2026-01-30 00:21:55.30	190.38	50.62	-32.6	-38.3	8.7	3.12e-02	0	43	0	839909376	25	6958
2026-01-30 00:21:56.31	190.47	50.28	-32.6	-38.2	8.7	3.95e-02	0	43	0	842006528	25	6908
2026-01-30 00:21:57.32	190.57	49.94	-32.7	-38.6	8.4	4.10e-02	0	43	0	844103680	25	7123
2026-01-30 00:21:58.32	190.66	49.61	-32.6	-38.3	8.6	4.44e-02	0	43	0	846200832	25	6977
2026-01-30 00:21:59.32	190.75	49.28	-32.0	-36.6	10.3	1.10e-02	0	43	0	847249408	24	6110
2026-01-30 00:22:00.32	190.84	48.95	-32.1	-36.9	10.1	4.33e-03	0	43	0	849346560	24	6280
2026-01-30 00:22:01.33	190.92	48.62	-32.7	-38.6	8.4	1.68e-02	0	43	0	851443712	25	7165
2026-01-30 00:22:02.33	191.01	48.30	-33.4	-42.0	5.7	2.79e-01	0	43	0	853540864	26	9722
2026-01-30 00:22:03.33	191.09	47.98	-33.5	-42.9	4.8	8.90e-01	0	43	0	855638016	27	10614
2026-01-30 00:22:04.33	191.17	47.66	-32.9	-38.8	7.2	4.05e-01	0	43	0	856686592	27	7144
2026-01-30 00:22:05.33	191.25	47.34	-31.8	-35.8	10.7	4.10e-02	0	43	0	858783744	24	5744
2026-01-30 00:22:06.34	191.33	47.02	-30.8	-33.3	13.0	2.25e-04	0	44	0	860880896	23	4810
2026-01-30 00:22:07.34	191.40	46.71	-30.5	-33.1	13.5	6.07e-04	0	43	0	862978048	22	4822
2026-01-30 00:22:08.35	191.48	46.40	-30.6	-33.7	13.3	1.22e-05	0	43	0	865075200	21	5170
2026-01-30 00:22:09.35	191.55	46.09	-30.8	-34.4	12.9	5.18e-05	0	43	0	866123776	21	5421
2026-01-30 00:22:10.36	191.63	45.78	-30.9	-34.6	12.8	6.28e-04	0	43	0	868220928	21	5532
2026-01-30 00:22:11.36	191.70	45.48	-31.3	-35.4	11.9	7.39e-04	0	43	0	870318080	22	5735
2026-01-30 00:22:12.36	191.77	45.18	-31.4	-35.6	11.7	4.38e-04	0	44	0	872415232	22	5872
2026-01-30 00:22:13.36	191.83	44.88	-31.5	-35.4	11.5	1.59e-03	0	44	0	874512384	23	5649
2026-01-30 00:22:14.37	191.90	44.58	-31.1	-34.9	12.2	1.07e-03	0	43	0	875560960	22	5531
2026-01-30 00:22:15.37	191.97	44.29	-30.7	-33.7	13.0	1.54e-04	0	43	0	877658112	22	5056
2026-01-30 00:22:16.37	192.03	43.99	-30.0	-32.3	14.2	6.47e-04	0	43	0	879755264	21	4683
2026-01-30 00:22:17.37	192.10	43.70	-29.5	-32.0	15.1	7.41e-04	0	43	0	881852416	19	4774
2026-01-30 00:22:18.37	192.16	43.42	-29.4	-31.5	15.4	0.00e+00	0	43	0	883949568	19	4614
2026-01-30 00:22:19.37	192.22	43.13	-29.2	-31.6	15.6	8.90e-04	0	43	0	884998144	18	4761
2026-01-30 00:22:20.37	192.28	42.85	-29.3	-31.8	15.5	1.05e-03	0	43	0	887095296	18	4823
2026-01-30 00:22:21.37	192.34	42.56	-29.3	-31.8	15.4	0.00e+00	0	43	0	889192448	18	4834
2026-01-30 00:22:22.38	192.40	42.28	-29.9	-33.0	14.4	1.21e-03	0	43	0	891289600	19	5142
2026-01-30 00:22:23.38	192.46	42.01	-30.5	-33.6	13.3	1.38e-03	0	43	0	892338176	21	5165
2026-01-30 00:22:24.38	192.51	41.73	-31.1	-34.8	12.2	7.62e-05	0	43	0	894435328	22	5541
2026-01-30 00:22:25.39	192.57	41.45	-31.4	-35.7	11.6	2.36e-03	0	43	0	896532480	22	5910
2026-01-30 00:22:26.39	192.63	41.18	-31.1	-34.7	12.3	1.95e-03	0	43	0	898629632	22	5477
2026-01-30 00:22:27.40	192.68	40.91	-30.4	-32.9	13.5	4.73e-05	0	43	0	900726784	22	4778
2026-01-30 00:22:28.40	192.73	40.64	-30.0	-32.8	14.2	1.58e-03	0	44	0	902823936	20	4953
2026-01-30 00:22:29.41	192.79	40.38	-29.8	-32.2	14.6	7.00e-07	0	43	0	903872512	20	4732
2026-01-30 00:22:30.40	192.84	40.11	-29.8	-32.1	14.7	7.00e-07	0	43	0	905969664	20	4699
2026-01-30 00:22:31.41	192.89	39.85	-29.9	-32.3	14.5	1.58e-03	0	43	0	908066816	20	4778
2026-01-30 00:22:32.41	192.94	39.59	-29.9	-32.9	14.5	1.76e-03	0	43	0	910163968	19	5089
2026-01-30 00:22:33.42	192.99	39.33	-30.1	-33.0	14.1	0.00e+00	0	43	0	911212544	20	5021
2026-01-30 00:22:34.42	193.04	39.08	-30.6	-33.8	13.2	1.82e-03	0	43	0	913309696	21	5225
2026-01-30 00:22:35.43	193.09	38.82	-31.3	-35.3	11.9	1.95e-03	0	43	0	915406848	22	5707
2026-01-30 00:22:36.43	193.13	38.57	-31.8	-36.4	10.7	2.06e-03	0	43	0	917504000	23	6140
2026-01-30 00:22:37.43	193.18	38.32	-32.2	-37.5	9.5	1.02e-02	0	43	0	919601152	24	6605
2026-01-30 00:22:38.44	193.23	38.07	-32.6	-38.5	8.2	3.27e-02	0	43	0	920649728	25	7157
2026-01-30 00:22:39.44	193.27	37.82	-32.7	-38.9	8.0	6.67e-02	0	43	0	922746880	25	7366
2026-01-30 00:22:40.44	193.32	37.57	-32.4	-37.9	8.8	4.87e-02	0	43	0	924844032	25	6752
2026-01-30 00:22:41.45	193.36	37.33	-32.1	-37.0	9.9	2.33e-02	0	43	0	926941184	24	6350
2026-01-30 00:22:42.45	193.40	37.09	-31.6	-35.4	11.0	5.49e-03	0	43	0	929038336	24	5584
2026-01-30 00:22:43.45	193.45	36.85	-31.3	-34.9	11.7	6.05e-04	0	43	0	930086912	23	5429
2026-01-30 00:22:44.45	193.49	36.61	-31.2	-35.1	12.0	3.25e-04	0	44	0	932184064	22	5608
2026-01-30 00:22:45.45	193.53	36.37	-31.2	-35.0	12.0	3.65e-04	0	43	0	934281216	22	5598
2026-01-30 00:22:46.46	193.57	36.14	-31.2	-34.9	12.1	2.25e-04	0	43	0	936378368	22	5551
2026-01-30 00:22:47.46	193.61	35.91	-31.2	-35.0	12.0	3.79e-04	0	43	0	938475520	22	5590
2026-01-30 00:22:48.46	193.65	35.67	-31.0	-34.6	12.3	2.69e-04	0	43	0	939524096	22	5434
2026-01-30 00:22:49.46	193.69	35.44	-31.1	-34.8	12.2	1.70e-03	0	43	0	941621248	22	5497
2026-01-30 00:22:50.47	193.73	35.21	-31.2	-35.0	12.0	2.84e-04	0	43	0	943718400	22	5597
2026-01-30 00:22:51.47	193.77	34.99	-31.5	-35.6	11.2	8.32e-04	0	43	0	945815552	23	5770
2026-01-30 00:22:52.47	193.81	34.76	-31.9	-37.0	10.1	4.90e-03	0	43	0	947912704	23	6455
2026-01-30 00:22:53.47	193.85	34.54	-32.4	-38.6	8.5	2.91e-02	0	43	0	948961280	24	7329
2026-01-30 00:22:54.48	193.88	34.32	-32.9	-40.3	6.8	1.22e-01	0	43	0	951058432	25	8443
2026-01-30 00:22:55.48	193.92	34.10	-33.1	-41.2	5.9	2.59e-01	0	44	0	953155584	26	9135
2026-01-30 00:22:56.48	193.96	33.88	-33.2	-41.9	5.5	4.63e-01	0	43	0	955252736	26	9754
2026-01-30 00:22:57.49	193.99	33.66	-33.2	-41.4	5.8	4.36e-01	0	43	0	956301312	26	9306
2026-01-30 00:22:58.50	194.03	33.44	-33.1	-40.8	6.2	3.73e-01	0	44	0	958398464	26	8734
2026-01-30 00:22:59.50	194.06	33.23	-32.9	-39.9	6.8	2.53e-01	0	43	0	960495616	26	8022
2026-01-30 00:23:00.50	194.10	33.02	-32.9	-39.4	7.1	1.38e-01	0	44	0	962592768	26	7666
2026-01-30 00:23:01.51	194.13	32.80	-32.7	-39.0	7.7	1.20e-01	0	44	0	964689920	25	7495
2026-01-30 00:23:02.51	194.17	32.60	-32.4	-37.6	8.8	4.38e-02	0	43	0	965738496	25	6610
2026-01-30 00:23:03.52	194.20	32.39	-32.3	-37.2	9.2	2.24e-02	0	43	0	967835648	25	6357
2026-01-30 00:23:04.52	194.23	32.18	-32.2	-37.6	9.3	1.83e-02	0	43	0	969932800	24	6655
2026-01-30 00:23:05.52	194.26	31.97	-32.3	-37.9	9.1	1.99e-02	0	43	0	972029952	24	6825
2026-01-30 00:23:06.52	194.30	31.77	-32.3	-37.9	9.0	2.44e-02	0	43	0	974127104	24	6858
2026-01-30 00:23:07.53	194.33	31.57	-32.2	-37.6	9.3	2.04e-02	0	44	0	975175680	24	6688
2026-01-30 00:23:08.53	194.36	31.37	-32.1	-37.3	9.5	1.56e-02	0	43	0	977272832	24	6488
2026-01-30 00:23:09.54	194.39	31.16	-32.1	-37.2	9.6	1.37e-02	0	43	0	979369984	24	6447
2026-01-30 00:23:10.54	194.42	30.97	-32.3	-37.7	9.2	1.77e-02	0	43	0	981467136	24	6755
2026-01-30 00:23:11.54	194.45	30.77	-32.5	-38.5	8.5	2.56e-02	0	43	0	983564288	24	7250
2026-01-30 00:23:12.55	194.48	30.57	-32.6	-38.5	8.2	5.41e-02	0	43	0	984612864	25	7122
2026-01-30 00:23:13.55	194.51	30.38	-32.5	-38.1	8.4	4.64e-02	0	44	0	986710016	25	6896
2026-01-30 00:23:14.55	194.54	30.18	-32.6	-38.5	8.1	4.86e-02	0	43	0	988807168	25	7161
2026-01-30 00:23:15.55	194.57	29.99	-32.6	-38.6	8.1	7.42e-02	0	43	0	990904320	25	7189
2026-01-30 00:23:16.55	194.60	29.80	-32.5	-38.2	8.4	4.84e-02	0	43	0	993001472	25	6938
2026-01-30 00:23:17.56	194.63	29.61	-32.3	-38.0	8.9	3.73e-02	0	43	0	994050048	24	6933
2026-01-30 00:23:18.56	194.66	29.42	-32.3	-37.9	9.0	2.92e-02	0	43	0	996147200	24	6899
2026-01-30 00:23:19.57	194.69	29.24	-32.3	-38.1	8.9	2.68e-02	0	44	0	998244352	24	6994
2026-01-30 00:23:20.58	194.72	29.05	-32.3	-38.0	8.9	2.70e-02	0	43	0	1000341504	24	6957
2026-01-30 00:23:21.58	194.74	28.86	-32.3	-38.0	8.9	2.67e-02	0	43	0	1002438656	24	6978
2026-01-30 00:23:22.59	194.77	28.68	-32.2	-37.7	9.0	3.08e-02	0	44	0	1003487232	24	6809
2026-01-30 00:23:23.59	194.80	28.50	-31.9	-37.2	9.9	1.13e-02	0	44	0	1005584384	23	6580
2026-01-30 00:23:24.59	194.82	28.32	-31.6	-35.9	10.8	4.42e-03	0	43	0	1007681536	23	5948
2026-01-30 00:23:25.60	194.85	28.14	-31.3	-35.4	11.5	1.44e-03	0	43	0	1009778688	22	5829
2026-01-30 00:23:26.60	194.88	27.96	-31.0	-34.6	12.1	5.70e-04	0	43	0	1011875840	22	5466
2026-01-30 00:23:27.61	194.90	27.78	-30.7	-34.3	12.6	2.37e-04	0	43	0	1012924416	21	5443
2026-01-30 00:23:28.62	194.93	27.60	-30.5	-33.8	13.0	4.65e-05	0	43	0	1015021568	21	5254
2026-01-30 00:23:29.62	194.95	27.43	-30.4	-33.5	13.2	1.84e-04	0	43	0	1017118720	21	5115
2026-01-30 00:23:30.63	194.98	27.25	-30.3	-33.7	13.4	2.61e-03	0	43	0	1019215872	20	5304
2026-01-30 00:23:31.63	195.00	27.08	-30.3	-33.6	13.4	1.67e-05	0	44	0	1021313024	20	5277
2026-01-30 00:23:32.64	195.03	26.91	-30.0	-32.9	13.9	1.91e-04	0	43	0	1022361600	20	5009
2026-01-30 00:23:33.65	195.05	26.73	-30.1	-33.0	13.8	2.19e-03	0	43	0	1024458752	20	5056
2026-01-30 00:23:34.65	195.08	26.56	-30.1	-33.0	13.8	4.50e-06	0	43	0	1026555904	20	5066
2026-01-30 00:23:35.65	195.10	26.40	-30.0	-32.9	13.8	1.91e-04	0	43	0	1028653056	20	5022
2026-01-30 00:23:36.66	195.13	26.23	-30.0	-32.7	14.0	2.36e-03	0	44	0	1030750208	20	4952
2026-01-30 00:23:37.65	195.15	26.06	-30.0	-32.8	13.9	2.29e-03	0	43	0	1031798784	20	4992
2026-01-30 00:23:38.66	195.17	25.90	-30.1	-33.0	13.8	2.10e-04	0	43	0	1033895936	20	5052
2026-01-30 00:23:39.66	195.20	25.73	-30.2	-33.5	13.5	2.43e-04	0	43	0	1035993088	20	5218
2026-01-30 00:23:40.67	195.22	25.57	-30.3	-33.7	13.3	2.10e-03	0	43	0	1038090240	20	5318
2026-01-30 00:23:41.67	195.24	25.40	-30.3	-33.6	13.4	2.32e-04	0	43	0	1039138816	20	5262
2026-01-30 00:23:42.67	195.27	25.24	-30.2	-33.5	13.5	2.30e-04	0	43	0	1041235968	20	5235
2026-01-30 00:23:43.68	195.29	25.08	-30.3	-33.7	13.4	2.37e-03	0	43	0	1043333120	20	5305
2026-01-30 00:23:44.67	195.31	24.92	-30.3	-33.6	13.4	2.77e-04	0	43	0	1045430272	20	5266
2026-01-30 00:23:45.68	195.33	24.76	-30.3	-33.8	13.3	2.29e-04	0	43	0	1047527424	20	5352
2026-01-30 00:23:46.68	195.35	24.61	-30.3	-33.6	13.4	1.90e-05	0	43	0	1048576000	20	5280
2026-01-30 00:23:47.69	195.38	24.45	-30.1	-33.1	13.7	2.45e-04	0	43	0	1050673152	20	5084
2026-01-30 00:23:48.69	195.40	24.29	-30.2	-33.3	13.6	2.44e-03	0	43	0	1052770304	20	5162
2026-01-30 00:23:49.70	195.42	24.14	-30.0	-32.7	13.9	1.06e-05	0	43	0	1054867456	20	4961
2026-01-30 00:23:50.71	195.44	23.98	-29.8	-32.9	14.2	2.46e-04	0	43	0	1056964608	19	5122
2026-01-30 00:23:51.71	195.46	23.83	-29.7	-32.5	14.5	2.01e-03	0	43	0	1058013184	19	4971
2026-01-30 00:23:52.71	195.48	23.68	-29.5	-32.1	14.7	7.00e-07	0	44	0	1060110336	19	4843
2026-01-30 00:23:53.72	195.50	23.52	-29.5	-32.0	14.8	2.12e-04	0	43	0	1062207488	19	4785
2026-01-30 00:23:54.72	195.52	23.37	-29.4	-32.2	15.0	2.14e-03	0	43	0	1064304640	18	4984
2026-01-30 00:23:55.73	195.54	23.22	-29.2	-31.8	15.2	2.06e-03	0	43	0	1066401792	18	4838
2026-01-30 00:23:56.73	195.56	23.07	-29.3	-32.0	15.1	1.89e-04	0	44	0	1067450368	18	4900
2026-01-30 00:23:57.73	195.58	22.93	-29.2	-31.7	15.2	2.08e-03	0	43	0	1069547520	18	4806
2026-01-30 00:23:58.74	195.60	22.78	-29.1	-31.4	15.4	1.88e-03	0	43	0	1071644672	18	4716
2026-01-30 00:23:59.74	195.62	22.63	-29.0	-31.7	15.5	3.40e-04	0	43	0	1073741824	17	4917
2026-01-30 00:24:00.74	195.64	22.49	-29.0	-31.3	15.5	1.76e-03	0	43	0	1075838976	18	4673
2026-01-30 00:24:01.73	195.66	22.34	-29.0	-31.4	15.4	1.88e-03	0	43	0	1076887552	18	4711
2026-01-30 00:24:02.73	195.68	22.20	-29.0	-31.4	15.4	1.79e-04	0	43	0	1078984704	18	4708
2026-01-30 00:24:03.73	195.70	22.06	-29.0	-31.4	15.4	1.62e-04	0	43	0	1081081856	18	4700
2026-01-30 00:24:04.73	195.72	21.92	-29.0	-31.8	15.4	1.85e-03	0	43	0	1083179008	17	4947
2026-01-30 00:24:05.73	195.74	21.78	-29.2	-31.7	15.2	1.74e-04	0	43	0	1084227584	18	4801
2026-01-30 00:24:06.74	195.76	21.63	-29.2	-31.7	15.2	1.80e-03	0	43	0	1086324736	18	4803
2026-01-30 00:24:07.74	195.78	21.49	-29.2	-31.7	15.2	1.81e-03	0	43	0	1088421888	18	4815
2026-01-30 00:24:08.74	195.79	21.36	-29.3	-31.9	15.0	2.03e-04	0	43	0	1090519040	18	4902
2026-01-30 00:24:09.74	195.81	21.22	-29.3	-32.0	15.0	1.69e-03	0	43	0	1092616192	18	4930
2026-01-30 00:24:10.74	195.83	21.08	-29.3	-32.1	14.9	1.77e-03	0	43	0	1094713344	18	4964
2026-01-30 00:24:11.75	195.85	20.94	-29.4	-32.4	14.8	2.09e-04	0	44	0	1095761920	18	5046
2026-01-30 00:24:12.74	195.87	20.81	-29.4	-32.4	14.8	1.67e-03	0	43	0	1097859072	18	5051
2026-01-30 00:24:13.75	195.88	20.67	-29.5	-32.5	14.7	1.63e-03	0	43	0	1099956224	18	5094
2026-01-30 00:24:14.75	195.90	20.54	-29.5	-32.2	14.5	2.14e-04	0	43	0	1102053376	19	4889
2026-01-30 00:24:15.76	195.92	20.40	-29.8	-32.8	14.2	1.62e-03	0	43	0	1103101952	19	5086
2026-01-30 00:24:16.75	195.94	20.27	-29.8	-32.8	14.1	1.55e-03	0	43	0	1105199104	19	5095
2026-01-30 00:24:17.75	195.95	20.14	-29.9	-33.2	13.9	4.50e-06	0	43	0	1107296256	19	5247
2026-01-30 00:24:18.75	195.97	20.01	-29.9	-33.1	13.9	1.44e-03	0	43	0	1109393408	19	5204
2026-01-30 00:24:19.76	195.99	19.88	-29.9	-33.2	13.9	1.24e-03	0	43	0	1111490560	19	5221
2026-01-30 00:24:20.76	196.00	19.75	-30.0	-33.3	13.9	2.12e-04	0	43	0	1112539136	19	5268
2026-01-30 00:24:21.77	196.02	19.61	-30.0	-32.8	13.8	9.56e-04	0	43	0	1114636288	20	4992
2026-01-30 00:24:22.78	196.04	19.48	-29.9	-32.7	13.8	8.18e-04	0	43	0	1116733440	20	4972
2026-01-30 00:24:23.78	196.05	19.36	-30.0	-32.9	13.7	1.98e-04	0	43	0	1118830592	20	5018
2026-01-30 00:24:24.78	196.07	19.23	-30.0	-32.8	13.7	5.30e-06	0	43	0	1120927744	20	5001
2026-01-30 00:24:25.78	196.09	19.10	-30.0	-32.9	13.6	3.61e-04	0	43	0	1121976320	20	5030
2026-01-30 00:24:26.79	196.10	18.98	-30.0	-32.9	13.7	2.04e-04	0	43	0	1124073472	20	5016
2026-01-30 00:24:27.79	196.12	18.85	-30.1	-33.1	13.5	1.06e-05	0	43	0	1126170624	20	5114
2026-01-30 00:24:28.79	196.13	18.72	-30.0	-32.9	13.6	9.90e-06	0	44	0	1128267776	20	5047
2026-01-30 00:24:29.79	196.15	18.60	-29.8	-32.4	14.0	1.85e-04	0	43	0	1130364928	20	4861
2026-01-30 00:24:30.79	196.17	18.48	-29.8	-32.4	14.0	5.41e-05	0	43	0	1131413504	20	4837
2026-01-30 00:24:31.80	196.18	18.35	-29.8	-32.4	13.9	2.20e-06	0	43	0	1133510656	20	4872
2026-01-30 00:24:32.81	196.20	18.23	-29.9	-33.1	13.9	1.77e-04	0	43	0	1135607808	19	5194
2026-01-30 00:24:33.81	196.21	18.11	-29.9	-33.2	13.8	2.51e-05	0	43	0	1137704960	19	5244
2026-01-30 00:24:34.81	196.23	17.99	-29.9	-33.1	13.9	4.50e-06	0	43	0	1139802112	19	5216
2026-01-30 00:24:35.82	196.24	17.86	-29.9	-33.1	13.9	8.30e-06	0	43	0	1140850688	19	5189
2026-01-30 00:24:36.82	196.26	17.74	-29.9	-33.1	13.9	2.36e-05	0	43	0	1142947840	19	5217
2026-01-30 00:24:37.82	196.27	17.63	-29.9	-33.2	13.8	2.13e-05	0	43	0	1145044992	19	5246
2026-01-30 00:24:38.82	196.29	17.51	-30.0	-33.4	13.7	5.30e-06	0	44	0	1147142144	19	5306
2026-01-30 00:24:39.82	196.30	17.39	-29.9	-33.2	13.8	6.10e-06	0	43	0	1148190720	19	5257
2026-01-30 00:24:40.83	196.32	17.27	-29.9	-33.1	13.9	1.22e-05	0	44	0	1150287872	19	5209
2026-01-30 00:24:41.84	196.33	17.15	-30.0	-33.3	13.7	6.10e-06	0	44	0	1152385024	19	5291
2026-01-30 00:24:42.84	196.35	17.03	-29.9	-32.6	13.8	7.60e-06	0	43	0	1154482176	20	4920
2026-01-30 00:24:43.84	196.36	16.92	-29.9	-32.7	13.7	2.23e-04	0	43	0	1156579328	20	4951
2026-01-30 00:24:44.85	196.38	16.80	-29.9	-32.7	13.7	7.60e-06	0	44	0	1157627904	20	4980
2026-01-30 00:24:45.85	196.39	16.69	-30.0	-32.9	13.5	8.30e-06	0	43	0	1159725056	20	5047
2026-01-30 00:24:46.86	196.41	16.57	-29.9	-32.8	13.6	1.06e-05	0	43	0	1161822208	20	5011
2026-01-30 00:24:47.86	196.42	16.46	-29.9	-32.6	13.7	1.22e-05	0	44	0	1163919360	20	4951
2026-01-30 00:24:48.86	196.43	16.34	-29.9	-33.1	13.8	4.50e-06	0	43	0	1166016512	19	5209
2026-01-30 00:24:49.86	196.45	16.23	-29.9	-33.2	13.7	4.50e-06	0	43	0	1167065088	19	5254
2026-01-30 00:24:50.87	196.46	16.12	-30.0	-33.3	13.7	1.37e-05	0	44	0	1169162240	19	5298
2026-01-30 00:24:51.87	196.48	16.01	-29.9	-33.3	13.6	7.60e-06	0	43	0	1171259392	19	5292
2026-01-30 00:24:52.87	196.49	15.89	-30.0	-32.9	13.5	7.60e-06	0	43	0	1173356544	20	5034
2026-01-30 00:24:53.87	196.50	15.78	-30.1	-33.2	13.3	1.44e-05	0	43	0	1175453696	20	5174
2026-01-30 00:24:54.88	196.52	15.67	-30.0	-32.9	13.5	1.32e-03	0	43	0	1176502272	20	5065
2026-01-30 00:24:55.89	196.53	15.56	-29.9	-32.7	13.6	1.06e-05	0	43	0	1178599424	20	4993
2026-01-30 00:24:56.89	196.54	15.45	-29.9	-32.7	13.6	7.60e-06	0	43	0	1180696576	20	4986
2026-01-30 00:24:57.90	196.56	15.34	-30.0	-32.9	13.5	9.90e-06	0	43	0	1182793728	20	5062
2026-01-30 00:24:58.90	196.57	15.23	-30.0	-33.0	13.4	9.90e-06	0	43	0	1184890880	20	5100
2026-01-30 00:24:59.90	196.58	15.13	-30.1	-33.2	13.3	1.60e-05	0	44	0	1185939456	20	5157
2026-01-30 00:25:00.91	196.60	15.02	-30.1	-33.2	13.2	1.44e-05	0	43	0	1188036608	20	5179
2026-01-30 00:25:01.91	196.61	14.91	-30.1	-33.3	13.2	3.20e-05	0	43	0	1190133760	20	5184
2026-01-30 00:25:02.91	196.62	14.81	-30.1	-33.3	13.2	2.36e-05	0	43	0	1192230912	20	5219
2026-01-30 00:25:03.91	196.64	14.70	-30.1	-33.3	13.3	1.90e-05	0	44	0	1194328064	20	5189
2026-01-30 00:25:04.92	196.65	14.59	-30.2	-33.7	12.9	3.73e-05	0	43	0	1195376640	20	5367
2026-01-30 00:25:05.92	196.66	14.49	-30.1	-33.3	13.2	3.12e-05	0	43	0	1197473792	20	5191
2026-01-30 00:25:06.93	196.68	14.38	-30.0	-33.2	13.3	1.52e-05	0	43	0	1199570944	20	5157
2026-01-30 00:25:07.93	196.69	14.28	-30.0	-33.1	13.3	2.13e-05	0	44	0	1201668096	20	5133
2026-01-30 00:25:08.94	196.70	14.17	-30.0	-33.1	13.3	1.44e-05	0	43	0	1202716672	20	5146
2026-01-30 00:25:09.94	196.71	14.07	-30.2	-33.6	13.0	2.44e-05	0	43	0	1204813824	20	5317
2026-01-30 00:25:10.94	196.73	13.97	-30.2	-33.8	12.9	4.27e-05	0	43	0	1206910976	20	5398
2026-01-30 00:25:11.94	196.74	13.87	-30.2	-33.6	12.6	4.73e-05	0	43	0	1209008128	20	5343
2026-01-30 00:25:12.94	196.75	13.76	-30.3	-33.9	12.8	6.56e-05	0	43	0	1211105280	20	5443
2026-01-30 00:25:13.95	196.76	13.66	-30.2	-33.7	12.8	7.09e-05	0	43	0	1213202432	20	5390
2026-01-30 00:25:14.95	196.78	13.56	-30.2	-33.8	12.1	2.36e-03	0	44	0	1214251008	20	5419
2026-01-30 00:25:15.95	196.79	13.46	-30.3	-33.8	12.5	5.26e-05	0	43	0	1216348160	20	5432
2026-01-30 00:25:16.96	196.80	13.36	-30.3	-34.0	12.7	8.16e-05	0	43	0	1218445312	20	5500
2026-01-30 00:25:17.97	196.81	13.26	-30.3	-34.1	12.6	8.46e-05	0	43	0	1220542464	20	5532
2026-01-30 00:25:18.97	196.82	13.16	-30.4	-34.3	12.4	1.25e-04	0	44	0	1221591040	20	5640
2026-01-30 00:25:19.97	196.84	13.06	-30.4	-34.2	12.5	1.38e-04	0	43	0	1223688192	20	5574
2026-01-30 00:25:20.97	196.85	12.96	-30.5	-34.1	12.2	1.81e-04	0	44	0	1225785344	21	5454
2026-01-30 00:25:21.97	196.86	12.86	-30.5	-34.4	12.3	2.55e-03	0	43	0	1227882496	20	5696
2026-01-30 00:25:22.97	196.87	12.76	-30.5	-34.1	12.1	1.97e-04	0	43	0	1229979648	21	5442
2026-01-30 00:25:23.98	196.88	12.67	-30.5	-34.6	12.2	2.27e-04	0	44	0	1231028224	20	5762
2026-01-30 00:25:24.98	196.89	12.57	-30.6	-34.3	12.0	2.17e-04	0	43	0	1233125376	21	5549
2026-01-30 00:25:25.99	196.91	12.47	-30.6	-34.4	12.0	3.80e-04	0	44	0	1235222528	21	5571
2026-01-30 00:25:26.99	196.92	12.38	-30.7	-34.6	11.8	3.98e-04	0	43	0	1237319680	21	5671
2026-01-30 00:25:28.00	196.93	12.28	-30.6	-34.4	11.9	4.87e-04	0	44	0	1239416832	21	5606
2026-01-30 00:25:29.00	196.94	12.18	-30.7	-34.8	11.6	5.58e-04	0	44	0	1240465408	21	5767
2026-01-30 00:25:30.00	196.95	12.09	-30.6	-34.6	11.8	5.90e-04	0	44	0	1242562560	21	5656
2026-01-30 00:25:31.00	196.96	11.99	-30.7	-34.9	11.6	6.12e-04	0	44	0	1244659712	21	5789
2026-01-30 00:25:32.01	196.97	11.90	-30.6	-34.5	11.8	5.09e-04	0	44	0	1246756864	21	5637
2026-01-30 00:25:33.01	196.99	11.80	-30.6	-34.5	11.8	2.83e-03	0	43	0	1248854016	21	5629
2026-01-30 00:25:34.01	197.00	11.71	-30.7	-34.8	11.6	5.00e-04	0	44	0	1249902592	21	5759
2026-01-30 00:25:35.01	197.01	11.62	-30.7	-34.9	11.5	6.46e-04	0	43	0	1251999744	21	5794
2026-01-30 00:25:36.01	197.02	11.52	-30.8	-35.0	11.4	3.07e-03	0	43	0	1254096896	21	5850
2026-01-30 00:25:37.00	197.03	11.43	-30.7	-34.8	11.6	7.99e-04	0	43	0	1256194048	21	5774
2026-01-30 00:25:38.00	197.04	11.34	-30.6	-34.5	11.8	5.68e-04	0	44	0	1258291200	21	5611
2026-01-30 00:25:39.01	197.05	11.25	-30.7	-34.7	11.6	2.66e-03	0	44	0	1259339776	21	5720
2026-01-30 00:25:40.02	197.06	11.16	-30.7	-34.7	11.6	3.05e-03	0	44	0	1261436928	21	5726
2026-01-30 00:25:41.02	197.07	11.06	-30.6	-34.6	11.7	6.22e-04	0	44	0	1263534080	21	5673
2026-01-30 00:25:42.02	197.08	10.97	-30.6	-34.4	11.8	5.10e-04	0	44	0	1265631232	21	5602
2026-01-30 00:25:43.02	197.09	10.88	-30.7	-34.7	11.6	2.73e-03	0	44	0	1266679808	21	5705
2026-01-30 00:25:44.03	197.11	10.79	-30.7	-34.9	11.5	7.17e-04	0	43	0	1268776960	21	5800
2026-01-30 00:25:45.03	197.12	10.70	-30.7	-34.7	11.6	7.64e-04	0	44	0	1270874112	21	5720
2026-01-30 00:25:46.03	197.13	10.61	-30.7	-34.8	11.5	2.85e-03	0	43	0	1272971264	21	5786
2026-01-30 00:25:47.04	197.14	10.52	-30.9	-35.4	11.1	1.12e-03	0	44	0	1275068416	21	6031
2026-01-30 00:25:48.04	197.15	10.43	-30.7	-34.9	11.5	1.23e-03	0	44	0	1277165568	21	5793
2026-01-30 00:25:49.05	197.16	10.34	-30.6	-34.6	11.6	3.09e-03	0	43	0	1278214144	21	5695
2026-01-30 00:25:50.06	197.17	10.25	-30.6	-34.6	11.6	6.47e-04	0	43	0	1280311296	21	5683
2026-01-30 00:25:51.06	197.18	10.17	-30.7	-34.7	11.5	2.99e-03	0	44	0	1282408448	21	5734
2026-01-30 00:25:52.06	197.19	10.08	-30.6	-34.6	11.6	7.29e-04	0	43	0	1284505600	21	5699
2026-01-30 00:25:53.06	197.20	9.99	-30.7	-34.8	11.5	7.37e-04	0	44	0	1285554176	21	5763
2026-01-30 00:25:54.06	197.21	9.90	-30.6	-34.5	11.6	2.91e-03	0	44	0	1287651328	21	5662
