passes_logs/2026/01/30/R2M6_AANII_01/R2M6_AANII_01__20260130_013420_SUOMI_NPP_rec.log

#Pass ID: 20260130_013420_SUOMI NPP
#Satellite: SUOMI NPP
#Configuration: NPP
#almurnet v.1.7.20240730
#Start time: 2026-01-30 01:34:22

#Version: 2.2.20231116
#Station: R2M6_AANII_01
#Location: 30.233357 lon 59.946436 lat
#TLE: 1 37849U 11061A   26028.91916408  .00000155  00000+0  94467-4 0  9990
#TLE: 2 37849  98.7824 330.8488 0002045  39.4457 320.6868 14.19531289738686

#Time	Az	El	Level	Level2	SNR	BER	BlckErr	Temp	State	Recorded	gain1	gain2
2026-01-30 01:34:22.10	13.05	7.08	-32.2	-37.7	4.8	1.33e+00	0	41	0	0	24	6768
2026-01-30 01:34:23.10	12.99	7.16	-32.2	-37.3	4.8	1.33e+00	0	41	104	0	24	6533
2026-01-30 01:34:24.11	12.93	7.23	-32.2	-37.7	6.9	1.55e-01	0	41	0	0	24	6715
2026-01-30 01:34:25.11	12.88	7.30	-32.3	-38.0	6.6	1.89e-01	0	41	0	1048576	24	6954
2026-01-30 01:34:26.11	12.82	7.38	-32.4	-38.5	6.3	2.42e-01	0	41	0	3145728	24	7247
2026-01-30 01:34:27.12	12.76	7.45	-32.3	-37.8	6.8	2.14e-01	0	41	0	5242880	24	6800
2026-01-30 01:34:28.12	12.71	7.52	-32.5	-38.8	6.2	2.16e-01	0	41	0	7340032	24	7435
2026-01-30 01:34:29.13	12.65	7.60	-32.3	-37.8	6.9	2.09e-01	0	41	0	9437184	24	6764
2026-01-30 01:34:30.13	12.59	7.67	-32.1	-36.8	7.7	1.25e-01	0	41	0	10485760	24	6172
2026-01-30 01:34:31.13	12.53	7.74	-31.9	-36.4	8.4	6.87e-02	0	41	0	12582912	23	6023
2026-01-30 01:34:32.14	12.47	7.82	-31.7	-35.5	9.0	3.07e-02	0	41	0	14680064	23	5606
2026-01-30 01:34:33.15	12.41	7.89	-31.5	-35.0	9.4	2.00e-02	0	42	0	16777216	23	5336
2026-01-30 01:34:34.15	12.35	7.97	-31.3	-34.2	10.1	1.01e-02	0	41	0	17825792	23	5010
2026-01-30 01:34:35.16	12.29	8.04	-30.3	-33.5	10.3	8.78e-03	0	42	0	19922944	22	5169
2026-01-30 01:34:36.16	12.23	8.12	-31.4	-35.0	9.9	1.03e-02	0	41	0	22020096	22	5425
2026-01-30 01:34:37.17	12.17	8.19	-31.5	-34.7	9.6	1.08e-02	0	42	0	24117248	23	5217
2026-01-30 01:34:38.17	12.11	8.27	-31.3	-34.7	10.0	9.63e-03	0	42	0	26214400	22	5305
2026-01-30 01:34:39.18	12.05	8.35	-31.3	-34.4	10.4	7.86e-03	0	42	0	28311552	22	5166
2026-01-30 01:34:40.18	11.99	8.42	-31.1	-33.9	10.7	4.01e-03	0	42	0	29360128	22	4966
2026-01-30 01:34:41.18	11.93	8.50	-31.1	-33.8	10.8	4.73e-03	0	42	0	31457280	22	4936
2026-01-30 01:34:42.18	11.87	8.57	-31.1	-33.8	10.9	5.12e-03	0	42	0	33554432	22	4914
2026-01-30 01:34:43.19	11.80	8.65	-31.0	-33.7	11.0	2.99e-03	0	42	0	35651584	22	4863
2026-01-30 01:34:44.19	11.74	8.73	-31.0	-33.9	11.2	4.47e-03	0	42	0	36700160	21	5034
2026-01-30 01:34:45.20	11.68	8.80	-31.1	-33.8	10.9	2.10e-03	0	42	0	38797312	22	4922
2026-01-30 01:34:46.20	11.61	8.88	-31.3	-34.3	10.5	3.59e-03	0	42	0	40894464	22	5129
2026-01-30 01:34:47.20	11.55	8.96	-31.0	-33.5	11.0	5.01e-03	0	42	0	42991616	22	4815
2026-01-30 01:34:48.21	11.49	9.04	-31.0	-33.5	11.1	4.17e-03	0	42	0	45088768	22	4793
2026-01-30 01:34:49.21	11.42	9.11	-30.9	-33.7	11.3	1.82e-03	0	42	0	46137344	21	4989
2026-01-30 01:34:50.21	11.36	9.19	-30.9	-33.6	11.3	3.69e-03	0	42	0	48234496	21	4945
2026-01-30 01:34:51.21	11.29	9.27	-30.9	-33.8	11.2	4.19e-03	0	42	0	50331648	21	5001
2026-01-30 01:34:52.22	11.23	9.35	-31.0	-33.5	11.1	1.81e-03	0	42	0	52428800	22	4784
2026-01-30 01:34:53.22	11.16	9.43	-31.1	-33.7	11.0	4.63e-03	0	42	0	54525952	22	4871
2026-01-30 01:34:54.23	11.09	9.51	-30.9	-33.8	11.3	4.04e-03	0	42	0	55574528	21	4997
2026-01-30 01:34:55.23	11.03	9.58	-31.0	-33.5	11.1	1.72e-03	0	42	0	57671680	22	4804
2026-01-30 01:34:56.24	10.96	9.66	-31.0	-33.4	11.2	4.70e-03	0	42	0	59768832	22	4772
2026-01-30 01:34:57.24	10.89	9.74	-30.9	-33.7	11.4	3.45e-03	0	42	0	61865984	21	4956
2026-01-30 01:34:58.25	10.82	9.82	-31.0	-33.4	11.2	1.27e-03	0	42	0	63963136	22	4743
2026-01-30 01:34:59.25	10.75	9.90	-30.9	-33.7	11.4	1.24e-03	0	42	0	65011712	21	4946
2026-01-30 01:35:00.26	10.69	9.98	-30.9	-33.6	11.4	3.81e-03	0	42	0	67108864	21	4933
2026-01-30 01:35:01.26	10.62	10.06	-31.2	-34.0	10.8	1.46e-03	0	42	0	69206016	22	5000
2026-01-30 01:35:02.27	10.55	10.14	-30.9	-33.5	11.5	1.31e-03	0	42	0	71303168	21	4893
2026-01-30 01:35:03.27	10.48	10.22	-30.9	-33.3	11.4	1.17e-03	0	42	0	73400320	22	4704
2026-01-30 01:35:04.27	10.41	10.30	-31.0	-33.3	11.3	1.58e-03	0	42	0	74448896	22	4728
2026-01-30 01:35:05.27	10.34	10.39	-31.1	-33.7	11.0	1.78e-03	0	42	0	76546048	22	4871
2026-01-30 01:35:06.28	10.26	10.47	-31.1	-33.8	11.0	1.90e-03	0	42	0	78643200	22	4901
2026-01-30 01:35:07.28	10.19	10.55	-31.1	-33.9	10.9	2.89e-03	0	42	0	80740352	22	4927
2026-01-30 01:35:08.29	10.12	10.63	-31.1	-33.8	11.0	4.36e-03	0	42	0	82837504	22	4893
2026-01-30 01:35:09.30	10.05	10.71	-31.3	-34.5	10.5	2.87e-03	0	42	0	83886080	22	5184
2026-01-30 01:35:10.30	9.97	10.80	-31.3	-34.2	10.7	3.78e-03	0	42	0	85983232	22	5076
2026-01-30 01:35:11.30	9.90	10.88	-31.1	-33.8	11.0	5.30e-03	0	42	0	88080384	22	4906
2026-01-30 01:35:12.31	9.83	10.96	-31.1	-33.6	11.2	1.73e-03	0	42	0	90177536	22	4818
2026-01-30 01:35:13.31	9.75	11.04	-31.3	-34.2	10.8	2.21e-03	0	42	0	92274688	22	5051
2026-01-30 01:35:14.31	9.68	11.13	-31.4	-34.6	10.5	3.78e-03	0	43	0	93323264	22	5203
2026-01-30 01:35:15.32	9.60	11.21	-31.2	-33.8	11.0	2.37e-03	0	43	0	95420416	22	4906
2026-01-30 01:35:16.32	9.53	11.29	-31.0	-33.4	11.4	1.56e-03	0	43	0	97517568	22	4727
2026-01-30 01:35:17.32	9.45	11.38	-31.1	-33.5	11.2	1.16e-03	0	43	0	99614720	22	4793
2026-01-30 01:35:18.32	9.38	11.46	-31.0	-33.4	11.3	3.81e-03	0	42	0	101711872	22	4747
2026-01-30 01:35:19.33	9.30	11.55	-30.9	-33.0	11.6	1.12e-03	0	42	0	102760448	22	4586
2026-01-30 01:35:20.33	9.22	11.63	-30.9	-33.5	11.7	1.01e-03	0	43	0	104857600	21	4848
2026-01-30 01:35:21.33	9.14	11.71	-31.0	-33.4	11.4	5.68e-04	0	42	0	106954752	22	4718
2026-01-30 01:35:22.33	9.07	11.80	-31.1	-33.6	11.3	1.07e-03	0	43	0	109051904	22	4807
2026-01-30 01:35:23.33	8.99	11.88	-30.8	-32.8	11.8	9.13e-04	0	43	0	110100480	22	4520
2026-01-30 01:35:24.34	8.91	11.97	-30.8	-33.3	11.8	4.16e-04	0	43	0	112197632	21	4801
2026-01-30 01:35:25.34	8.83	12.06	-31.0	-33.4	11.4	6.33e-04	0	43	0	114294784	22	4740
2026-01-30 01:35:26.35	8.75	12.14	-31.0	-33.3	11.5	8.03e-04	0	43	0	116391936	22	4686
2026-01-30 01:35:27.35	8.67	12.23	-30.9	-33.5	11.7	5.98e-04	0	43	0	118489088	21	4846
2026-01-30 01:35:28.36	8.58	12.31	-31.1	-33.5	11.4	1.09e-03	0	43	0	119537664	22	4755
2026-01-30 01:35:29.36	8.50	12.40	-31.1	-33.7	11.2	1.35e-03	0	43	0	121634816	22	4822
2026-01-30 01:35:30.37	8.42	12.49	-31.0	-33.3	11.5	7.79e-04	0	43	0	123731968	22	4682
2026-01-30 01:35:31.37	8.34	12.58	-30.8	-32.6	12.0	5.97e-04	0	43	0	125829120	22	4450
2026-01-30 01:35:32.38	8.25	12.66	-30.7	-33.0	12.0	2.71e-04	0	43	0	127926272	21	4665
2026-01-30 01:35:33.38	8.17	12.75	-30.9	-33.4	11.8	4.22e-04	0	43	0	128974848	21	4816
2026-01-30 01:35:34.38	8.09	12.84	-30.9	-33.4	11.8	7.77e-04	0	43	0	131072000	21	4815
2026-01-30 01:35:35.39	8.00	12.93	-30.7	-32.9	12.1	5.45e-04	0	43	0	133169152	21	4643
2026-01-30 01:35:36.39	7.92	13.02	-30.7	-32.8	12.2	2.60e-04	0	43	0	135266304	21	4605
2026-01-30 01:35:37.39	7.83	13.10	-29.7	-31.8	12.1	1.76e-04	0	43	0	137363456	21	4599
2026-01-30 01:35:38.40	7.74	13.19	-30.6	-33.0	11.5	2.46e-04	0	43	0	138412032	20	4763
2026-01-30 01:35:39.40	7.66	13.28	-30.7	-32.8	12.3	1.17e-04	0	43	0	140509184	21	4581
2026-01-30 01:35:40.41	7.57	13.37	-30.7	-32.8	12.3	1.96e-04	0	43	0	142606336	21	4589
2026-01-30 01:35:41.40	7.48	13.46	-30.7	-32.9	12.2	1.76e-04	0	43	0	144703488	21	4639
2026-01-30 01:35:42.41	7.39	13.55	-30.8	-33.2	12.0	4.03e-04	0	43	0	146800640	21	4736
2026-01-30 01:35:43.42	7.30	13.64	-30.7	-32.9	12.2	2.53e-04	0	43	0	147849216	21	4622
2026-01-30 01:35:44.42	7.21	13.73	-30.6	-32.6	12.4	1.86e-04	0	43	0	149946368	21	4538
2026-01-30 01:35:45.42	7.12	13.82	-30.6	-32.7	12.4	1.23e-04	0	43	0	152043520	21	4558
2026-01-30 01:35:46.42	7.03	13.91	-30.6	-32.6	12.4	2.57e-03	0	43	0	154140672	21	4543
2026-01-30 01:35:47.42	6.94	14.01	-30.6	-32.5	12.5	1.87e-04	0	43	0	156237824	21	4490
2026-01-30 01:35:48.42	6.85	14.10	-30.7	-32.9	12.2	1.72e-04	0	43	0	157286400	21	4632
2026-01-30 01:35:49.43	6.76	14.19	-30.7	-32.9	12.2	2.58e-03	0	43	0	159383552	21	4649
2026-01-30 01:35:50.43	6.66	14.28	-30.7	-32.9	12.2	2.43e-04	0	43	0	161480704	21	4645
2026-01-30 01:35:51.43	6.57	14.37	-30.6	-32.7	12.3	1.60e-04	0	43	0	163577856	21	4554
2026-01-30 01:35:52.43	6.47	14.47	-30.8	-33.1	12.1	1.52e-04	0	43	0	164626432	21	4704
2026-01-30 01:35:53.43	6.38	14.56	-30.8	-33.1	12.2	2.95e-03	0	43	0	166723584	21	4681
2026-01-30 01:35:54.43	6.28	14.65	-30.6	-32.5	12.5	1.65e-04	0	43	0	168820736	21	4488
2026-01-30 01:35:55.44	6.19	14.75	-30.6	-32.6	12.4	1.53e-04	0	43	0	170917888	21	4533
2026-01-30 01:35:56.45	6.09	14.84	-30.6	-32.6	12.4	2.64e-03	0	43	0	173015040	21	4535
2026-01-30 01:35:57.45	5.99	14.93	-30.5	-32.2	12.8	2.14e-04	0	43	0	174063616	21	4379
2026-01-30 01:35:58.46	5.89	15.03	-30.5	-32.6	12.9	6.02e-05	0	43	0	176160768	20	4608
2026-01-30 01:35:59.46	5.79	15.12	-30.3	-32.2	13.1	2.28e-03	0	43	0	178257920	20	4479
2026-01-30 01:36:00.47	5.69	15.22	-30.3	-32.2	13.1	1.79e-04	0	43	0	180355072	20	4485
2026-01-30 01:36:01.47	5.59	15.31	-30.3	-32.0	13.2	1.37e-05	0	43	0	182452224	20	4406
2026-01-30 01:36:02.48	5.49	15.41	-30.1	-31.6	13.5	1.37e-05	0	43	0	183500800	20	4272
2026-01-30 01:36:03.49	5.39	15.51	-30.2	-31.8	13.4	1.78e-04	0	43	0	185597952	20	4350
2026-01-30 01:36:04.48	5.29	15.60	-30.2	-32.0	13.2	2.52e-03	0	43	0	187695104	20	4389
2026-01-30 01:36:05.48	5.19	15.70	-30.4	-32.3	13.1	1.67e-05	0	43	0	189792256	20	4501
2026-01-30 01:36:06.48	5.08	15.79	-30.3	-32.0	13.3	1.71e-04	0	43	0	191889408	20	4402
2026-01-30 01:36:07.49	4.98	15.89	-30.3	-32.2	13.1	2.49e-03	0	43	0	192937984	20	4466
2026-01-30 01:36:08.49	4.87	15.99	-30.6	-32.4	12.7	2.36e-03	0	43	0	195035136	21	4430
2026-01-30 01:36:09.49	4.77	16.08	-30.6	-32.3	12.7	5.95e-05	0	43	0	197132288	21	4403
2026-01-30 01:36:10.50	4.66	16.18	-30.4	-31.9	12.9	2.27e-03	0	43	0	199229440	21	4287
2026-01-30 01:36:11.50	4.55	16.28	-30.6	-32.5	12.7	2.67e-03	0	43	0	201326592	21	4473
2026-01-30 01:36:12.51	4.45	16.38	-30.6	-32.3	12.8	8.16e-05	0	43	0	202375168	21	4398
2026-01-30 01:36:13.51	4.34	16.48	-30.7	-32.6	12.6	2.50e-03	0	43	0	204472320	21	4490
2026-01-30 01:36:14.51	4.23	16.58	-30.6	-32.6	12.7	2.61e-03	0	43	0	206569472	21	4484
2026-01-30 01:36:15.52	4.12	16.68	-30.5	-32.2	12.8	1.91e-04	0	43	0	208666624	21	4379
2026-01-30 01:36:16.53	4.01	16.78	-30.7	-32.8	12.5	2.51e-03	0	43	0	210763776	21	4550
2026-01-30 01:36:17.53	3.89	16.88	-30.7	-32.6	12.6	2.44e-03	0	43	0	211812352	21	4496
2026-01-30 01:36:18.54	3.78	16.98	-30.5	-32.1	13.0	1.90e-04	0	43	0	213909504	21	4353
2026-01-30 01:36:19.54	3.67	17.08	-30.4	-31.8	13.2	1.13e-04	0	43	0	216006656	21	4238
2026-01-30 01:36:20.54	3.55	17.18	-30.5	-32.0	13.0	2.58e-03	0	43	0	218103808	21	4301
2026-01-30 01:36:21.55	3.44	17.28	-30.5	-32.1	13.0	1.59e-04	0	43	0	220200960	21	4327
2026-01-30 01:36:22.55	3.32	17.38	-30.5	-32.0	13.0	2.62e-03	0	43	0	221249536	21	4311
2026-01-30 01:36:23.55	3.21	17.48	-30.4	-31.9	13.1	2.52e-03	0	43	0	223346688	21	4257
2026-01-30 01:36:24.55	3.09	17.58	-30.6	-32.4	12.8	2.10e-04	0	43	0	225443840	21	4420
2026-01-30 01:36:25.56	2.97	17.69	-30.6	-32.3	12.8	2.58e-03	0	43	0	227540992	21	4401
2026-01-30 01:36:26.56	2.85	17.79	-30.6	-32.4	12.9	3.89e-05	0	43	0	229638144	21	4423
2026-01-30 01:36:27.56	2.73	17.89	-30.6	-32.4	12.8	2.20e-04	0	43	0	230686720	21	4438
2026-01-30 01:36:28.57	2.61	17.99	-30.5	-32.2	13.0	2.31e-03	0	43	0	232783872	21	4360
2026-01-30 01:36:29.57	2.49	18.10	-30.6	-32.4	12.8	2.59e-03	0	43	0	234881024	21	4409
2026-01-30 01:36:30.58	2.37	18.20	-30.5	-32.1	13.1	1.54e-04	0	43	0	236978176	21	4313
2026-01-30 01:36:31.58	2.25	18.30	-30.5	-31.9	13.1	2.59e-03	0	43	0	238026752	21	4268
2026-01-30 01:36:32.59	2.12	18.41	-30.6	-32.5	12.8	2.42e-03	0	43	0	240123904	21	4445
2026-01-30 01:36:33.60	2.00	18.51	-30.5	-32.0	13.1	3.50e-05	0	43	0	242221056	21	4280
2026-01-30 01:36:34.61	1.87	18.62	-30.5	-32.1	13.1	2.44e-03	0	43	0	244318208	21	4323
2026-01-30 01:36:35.60	1.74	18.72	-30.6	-32.2	13.0	2.25e-03	0	43	0	246415360	21	4361
2026-01-30 01:36:36.60	1.62	18.83	-30.6	-32.4	12.9	1.01e-04	0	43	0	247463936	21	4418
2026-01-30 01:36:37.60	1.49	18.93	-30.5	-32.1	13.0	4.11e-05	0	43	0	249561088	21	4315
2026-01-30 01:36:38.60	1.36	19.04	-30.5	-32.0	13.1	2.54e-03	0	43	0	251658240	21	4305
2026-01-30 01:36:39.61	1.23	19.15	-30.5	-32.1	13.1	1.11e-04	0	43	0	253755392	21	4303
2026-01-30 01:36:40.61	1.10	19.25	-30.6	-32.3	13.0	3.12e-05	0	43	0	255852544	21	4379
2026-01-30 01:36:41.62	0.97	19.36	-30.6	-32.2	13.0	2.50e-03	0	43	0	256901120	21	4350
2026-01-30 01:36:42.63	0.83	19.47	-30.7	-32.6	12.8	1.35e-04	0	43	0	258998272	21	4476
2026-01-30 01:36:43.63	0.70	19.58	-30.6	-32.3	13.0	1.07e-04	0	43	0	261095424	21	4368
2026-01-30 01:36:44.62	0.56	19.68	-30.5	-32.0	13.2	3.43e-05	0	43	0	263192576	21	4278
2026-01-30 01:36:45.63	0.43	19.79	-30.5	-32.1	13.1	1.33e-04	0	43	0	265289728	21	4313
2026-01-30 01:36:46.64	0.29	19.90	-30.6	-32.4	12.9	2.31e-03	0	43	0	266338304	21	4419
2026-01-30 01:36:47.64	0.15	20.01	-30.6	-32.3	13.0	4.95e-05	0	43	0	268435456	21	4368
2026-01-30 01:36:48.63	0.01	20.12	-30.5	-32.1	13.1	4.27e-05	0	43	0	270532608	21	4329
2026-01-30 01:36:49.64	359.87	20.23	-30.5	-32.2	13.1	2.51e-03	0	43	0	272629760	21	4333
2026-01-30 01:36:50.64	359.73	20.34	-30.7	-32.6	12.8	5.03e-05	0	43	0	274726912	21	4478
2026-01-30 01:36:51.64	359.59	20.45	-30.7	-32.6	12.8	1.60e-04	0	43	0	275775488	21	4476
2026-01-30 01:36:52.65	359.45	20.56	-30.5	-32.2	13.1	2.59e-03	0	43	0	277872640	21	4336
2026-01-30 01:36:53.65	359.30	20.67	-30.6	-32.3	13.0	5.87e-05	0	43	0	279969792	21	4383
2026-01-30 01:36:54.65	359.16	20.78	-30.7	-32.6	12.8	1.27e-04	0	43	0	282066944	21	4482
2026-01-30 01:36:55.65	359.01	20.89	-30.6	-32.4	12.9	9.68e-05	0	43	0	283115520	21	4414
2026-01-30 01:36:56.65	358.87	21.00	-30.6	-32.4	12.9	4.04e-05	0	43	0	285212672	21	4413
2026-01-30 01:36:57.66	358.72	21.11	-30.7	-32.5	12.9	1.39e-04	0	43	0	287309824	21	4430
2026-01-30 01:36:58.65	358.57	21.22	-30.6	-32.3	13.0	1.97e-04	0	43	0	289406976	21	4377
2026-01-30 01:36:59.66	358.42	21.33	-30.5	-32.1	13.1	2.51e-05	0	43	0	291504128	21	4335
2026-01-30 01:37:00.66	358.27	21.45	-30.6	-32.2	13.1	3.28e-05	0	43	0	293601280	21	4362
2026-01-30 01:37:01.66	358.11	21.56	-30.5	-32.1	13.2	1.95e-04	0	43	0	294649856	21	4322
2026-01-30 01:37:02.67	357.96	21.67	-30.6	-32.3	13.0	3.50e-05	0	43	0	296747008	21	4388
2026-01-30 01:37:03.67	357.80	21.79	-30.6	-32.4	12.9	6.48e-05	0	43	0	298844160	21	4400
2026-01-30 01:37:04.67	357.65	21.90	-30.7	-32.5	12.9	6.71e-05	0	43	0	300941312	21	4466
2026-01-30 01:37:05.68	357.49	22.01	-30.8	-32.9	12.6	7.78e-05	0	43	0	301989888	21	4583
2026-01-30 01:37:06.68	357.33	22.13	-30.9	-33.1	12.5	3.22e-04	0	43	0	304087040	21	4660
2026-01-30 01:37:07.68	357.17	22.24	-31.0	-33.1	12.2	1.79e-04	0	43	0	306184192	22	4558
2026-01-30 01:37:08.68	357.01	22.36	-31.2	-33.7	11.8	3.65e-04	0	43	0	308281344	22	4767
2026-01-30 01:37:09.68	356.85	22.47	-31.2	-33.6	11.9	5.19e-04	0	43	0	310378496	22	4737
2026-01-30 01:37:10.67	356.69	22.58	-31.2	-33.4	12.0	3.68e-04	0	43	0	311427072	22	4658
2026-01-30 01:37:11.68	356.52	22.70	-30.9	-32.8	12.4	3.13e-04	0	43	0	313524224	22	4443
2026-01-30 01:37:12.68	356.36	22.82	-31.1	-33.3	12.1	4.95e-04	0	43	0	315621376	22	4612
2026-01-30 01:37:13.68	356.19	22.93	-31.0	-32.8	12.4	3.57e-04	0	43	0	317718528	22	4455
2026-01-30 01:37:14.68	356.02	23.05	-30.9	-32.8	12.4	1.22e-04	0	43	0	319815680	22	4449
2026-01-30 01:37:15.69	355.85	23.17	-31.0	-32.9	12.3	1.81e-04	0	43	0	320864256	22	4489
2026-01-30 01:37:16.69	355.68	23.28	-30.9	-33.1	12.5	2.53e-04	0	43	0	322961408	21	4661
2026-01-30 01:37:17.69	355.51	23.40	-30.8	-32.7	12.7	9.61e-05	0	43	0	325058560	21	4526
2026-01-30 01:37:18.70	355.33	23.52	-30.8	-32.8	12.7	8.46e-05	0	43	0	327155712	21	4533
2026-01-30 01:37:19.70	355.16	23.63	-30.7	-32.5	12.9	1.76e-04	0	43	0	329252864	21	4453
2026-01-30 01:37:20.71	354.98	23.75	-30.9	-33.3	12.3	1.25e-04	0	43	0	330301440	21	4713
2026-01-30 01:37:21.71	354.80	23.87	-30.8	-32.9	12.0	1.06e-04	0	43	0	332398592	21	4580
2026-01-30 01:37:22.72	354.62	23.99	-30.8	-32.7	12.0	2.97e-05	0	43	0	334495744	21	4513
2026-01-30 01:37:23.72	354.44	24.11	-30.7	-32.6	12.9	5.03e-05	0	43	0	336592896	21	4466
2026-01-30 01:37:24.73	354.26	24.23	-30.8	-32.7	12.7	4.50e-05	0	43	0	338690048	21	4498
2026-01-30 01:37:25.73	354.08	24.35	-30.5	-32.4	13.3	2.36e-05	0	43	0	339738624	20	4506
2026-01-30 01:37:26.73	353.89	24.46	-30.4	-31.7	13.5	9.10e-06	0	43	0	341835776	21	4196
2026-01-30 01:37:27.73	353.71	24.58	-30.1	-31.5	13.9	1.60e-03	0	43	0	343932928	20	4224
2026-01-30 01:37:28.74	353.52	24.70	-30.3	-31.8	13.7	1.06e-05	0	43	0	346030080	20	4322
2026-01-30 01:37:29.74	353.33	24.82	-30.3	-32.1	13.6	6.80e-06	0	43	0	347078656	20	4395
2026-01-30 01:37:30.75	353.14	24.94	-30.4	-32.2	13.5	7.60e-06	0	43	0	349175808	20	4433
2026-01-30 01:37:31.75	352.94	25.06	-30.5	-32.0	13.3	8.30e-06	0	43	0	351272960	21	4285
2026-01-30 01:37:32.76	352.75	25.18	-30.8	-32.8	12.8	3.28e-05	0	43	0	353370112	21	4529
2026-01-30 01:37:33.75	352.56	25.30	-30.9	-33.0	12.6	7.93e-05	0	43	0	355467264	21	4615
2026-01-30 01:37:34.76	352.36	25.42	-31.1	-33.2	12.2	1.31e-03	0	43	0	357564416	22	4555
2026-01-30 01:37:35.76	352.16	25.55	-31.2	-33.5	12.1	3.36e-04	0	43	0	358612992	22	4659
2026-01-30 01:37:36.76	351.96	25.67	-31.4	-34.1	11.6	1.05e-03	0	43	0	360710144	22	4895
2026-01-30 01:37:37.77	351.76	25.79	-31.5	-33.7	11.5	1.85e-03	0	43	0	362807296	23	4668
2026-01-30 01:37:38.77	351.56	25.91	-31.8	-34.7	10.8	9.04e-04	0	43	0	364904448	23	5038
2026-01-30 01:37:39.77	351.35	26.03	-31.7	-34.3	11.1	1.77e-03	0	43	0	365953024	23	4897
2026-01-30 01:37:40.78	351.15	26.15	-31.8	-34.8	10.7	1.97e-03	0	43	0	368050176	23	5078
2026-01-30 01:37:41.78	350.94	26.27	-32.0	-34.9	10.3	5.49e-03	0	43	0	370147328	24	5041
2026-01-30 01:37:42.79	350.73	26.40	-32.2	-35.8	9.6	7.25e-03	0	43	0	372244480	24	5442
2026-01-30 01:37:43.79	350.52	26.52	-31.9	-34.6	10.5	1.09e-02	0	43	0	374341632	24	4932
2026-01-30 01:37:44.80	350.30	26.64	-31.8	-34.4	10.6	3.95e-03	0	44	0	375390208	24	4861
2026-01-30 01:37:45.80	350.09	26.76	-31.7	-34.5	10.8	5.23e-03	0	44	0	377487360	23	4997
2026-01-30 01:37:46.81	349.87	26.89	-31.9	-35.2	10.4	2.16e-03	0	43	0	379584512	23	5272
2026-01-30 01:37:47.81	349.66	27.01	-31.7	-34.5	10.8	3.55e-03	0	43	0	381681664	23	4995
2026-01-30 01:37:48.82	349.43	27.13	-31.8	-35.0	10.7	4.61e-03	0	43	0	383778816	23	5188
2026-01-30 01:37:49.82	349.21	27.25	-31.8	-35.0	10.6	4.82e-03	0	43	0	384827392	23	5193
2026-01-30 01:37:50.83	348.99	27.38	-31.9	-35.2	10.4	3.95e-03	0	43	0	386924544	23	5257
2026-01-30 01:37:51.83	348.77	27.50	-31.7	-34.2	10.8	6.73e-03	0	43	0	389021696	24	4781
2026-01-30 01:37:52.84	348.54	27.62	-32.1	-35.6	9.8	8.91e-03	0	43	0	391118848	24	5363
2026-01-30 01:37:53.84	348.31	27.75	-32.1	-35.5	9.8	1.45e-02	0	43	0	393216000	24	5320
2026-01-30 01:37:54.84	348.08	27.87	-32.0	-35.1	10.1	7.90e-03	0	44	0	394264576	24	5146
2026-01-30 01:37:55.84	347.85	27.99	-31.9	-35.2	10.3	5.71e-03	0	43	0	396361728	23	5290
2026-01-30 01:37:56.85	347.62	28.12	-31.8	-34.4	10.7	4.36e-03	0	43	0	398458880	24	4858
2026-01-30 01:37:57.85	347.38	28.24	-31.5	-33.9	11.3	1.32e-03	0	43	0	400556032	23	4735
2026-01-30 01:37:58.86	347.14	28.36	-31.3	-33.2	11.9	5.12e-04	0	43	0	402653184	23	4490
2026-01-30 01:37:59.86	346.90	28.48	-31.1	-33.2	12.3	2.10e-04	0	44	0	403701760	22	4581
2026-01-30 01:38:00.86	346.66	28.61	-31.1	-33.2	12.2	2.29e-04	0	43	0	405798912	22	4578
2026-01-30 01:38:01.87	346.42	28.73	-31.2	-33.4	12.1	3.04e-04	0	43	0	407896064	22	4636
2026-01-30 01:38:02.87	346.18	28.85	-31.3	-33.8	11.8	3.34e-04	0	43	0	409993216	22	4805
2026-01-30 01:38:03.87	345.93	28.98	-31.3	-33.9	11.8	6.80e-04	0	43	0	412090368	22	4825
2026-01-30 01:38:04.87	345.68	29.10	-31.4	-33.9	11.7	5.56e-04	0	44	0	413138944	22	4822
2026-01-30 01:38:05.88	345.43	29.22	-31.4	-33.9	11.8	1.31e-03	0	43	0	415236096	22	4843
2026-01-30 01:38:06.88	345.18	29.34	-31.2	-33.5	12.0	7.56e-04	0	43	0	417333248	22	4677
2026-01-30 01:38:07.88	344.92	29.47	-31.3	-33.6	12.0	8.83e-04	0	44	0	419430400	22	4730
2026-01-30 01:38:08.88	344.67	29.59	-30.9	-32.7	12.6	6.57e-04	0	44	0	420478976	22	4392
2026-01-30 01:38:09.88	344.41	29.71	-31.0	-32.9	12.5	1.73e-03	0	43	0	422576128	22	4486
2026-01-30 01:38:10.88	344.15	29.83	-31.2	-33.5	12.1	1.71e-03	0	43	0	424673280	22	4658
2026-01-30 01:38:11.88	343.89	29.95	-31.3	-33.9	11.9	5.68e-04	0	44	0	426770432	22	4810
2026-01-30 01:38:12.89	343.63	30.08	-31.5	-34.0	11.2	3.03e-03	0	44	0	428867584	23	4771
2026-01-30 01:38:13.89	343.36	30.20	-31.9	-35.0	10.6	3.97e-03	0	43	0	429916160	23	5182
2026-01-30 01:38:14.89	343.09	30.32	-31.8	-34.8	10.7	3.73e-03	0	44	0	432013312	23	5083
2026-01-30 01:38:15.90	342.82	30.44	-31.7	-34.6	10.9	3.67e-03	0	43	0	434110464	23	5018
2026-01-30 01:38:16.90	342.55	30.56	-31.6	-34.1	11.3	2.43e-03	0	43	0	436207616	23	4798
2026-01-30 01:38:17.90	342.28	30.68	-31.6	-34.2	11.2	1.22e-03	0	43	0	438304768	23	4850
2026-01-30 01:38:18.90	342.00	30.80	-31.4	-33.4	11.8	1.11e-03	0	44	0	439353344	23	4536
2026-01-30 01:38:19.91	341.72	30.92	-31.3	-33.8	11.9	2.03e-03	0	44	0	441450496	22	4771
2026-01-30 01:38:20.91	341.44	31.04	-31.6	-34.2	11.5	9.11e-04	0	44	0	443547648	23	4850
2026-01-30 01:38:21.91	341.16	31.16	-31.7	-34.4	11.1	1.28e-03	0	43	0	445644800	23	4926
2026-01-30 01:38:22.92	340.87	31.28	-31.9	-35.0	10.6	3.90e-03	0	43	0	447741952	23	5157
2026-01-30 01:38:23.92	340.58	31.40	-31.4	-33.5	11.6	2.55e-03	0	43	0	448790528	23	4588
2026-01-30 01:38:24.92	340.30	31.52	-31.2	-33.5	12.0	2.25e-03	0	43	0	450887680	22	4688
2026-01-30 01:38:25.92	340.01	31.64	-31.1	-33.1	12.3	1.71e-04	0	43	0	452984832	22	4547
2026-01-30 01:38:26.93	339.71	31.76	-31.2	-33.3	12.3	3.67e-04	0	43	0	455081984	22	4617
2026-01-30 01:38:27.93	339.42	31.87	-31.3	-33.7	12.0	1.22e-03	0	44	0	457179136	22	4734
2026-01-30 01:38:28.92	339.12	31.99	-31.3	-33.6	11.9	3.98e-04	0	44	0	458227712	22	4721
2026-01-30 01:38:29.93	338.82	32.11	-31.5	-33.8	11.5	1.14e-03	0	43	0	460324864	23	4683
2026-01-30 01:38:30.93	338.52	32.22	-31.6	-34.3	11.1	2.92e-03	0	43	0	462422016	23	4885
2026-01-30 01:38:31.94	338.21	32.34	-31.9	-35.4	10.3	3.26e-03	0	43	0	464519168	23	5356
2026-01-30 01:38:32.94	337.91	32.45	-31.8	-35.0	10.4	3.40e-03	0	43	0	465567744	23	5220
2026-01-30 01:38:33.94	337.60	32.57	-31.7	-34.7	10.7	4.07e-03	0	43	0	467664896	23	5093
2026-01-30 01:38:34.94	337.29	32.68	-31.7	-34.6	10.8	4.60e-03	0	44	0	469762048	23	5036
2026-01-30 01:38:35.95	336.97	32.80	-31.6	-34.5	10.9	2.53e-03	0	44	0	471859200	23	5009
2026-01-30 01:38:36.95	336.66	32.91	-31.7	-34.7	10.7	2.04e-03	0	44	0	473956352	23	5080
2026-01-30 01:38:37.96	336.34	33.02	-31.8	-35.1	10.3	3.74e-03	0	43	0	476053504	23	5263
2026-01-30 01:38:38.96	336.02	33.14	-31.9	-35.7	10.0	7.43e-03	0	43	0	477102080	23	5535
2026-01-30 01:38:39.96	335.70	33.25	-32.1	-35.6	9.7	8.37e-03	0	44	0	479199232	24	5396
2026-01-30 01:38:40.97	335.37	33.36	-32.3	-36.7	8.8	1.73e-02	0	44	0	481296384	24	5916
2026-01-30 01:38:41.97	335.05	33.47	-32.3	-36.2	9.2	2.21e-02	0	43	0	483393536	24	5661
2026-01-30 01:38:42.97	334.72	33.58	-32.2	-35.9	9.4	1.27e-02	0	43	0	484442112	24	5542
2026-01-30 01:38:43.98	334.38	33.69	-32.3	-36.2	9.2	1.67e-02	0	43	0	486539264	24	5651
2026-01-30 01:38:44.98	334.05	33.80	-32.4	-36.8	8.7	1.75e-02	0	44	0	488636416	24	5936
2026-01-30 01:38:45.98	333.72	33.90	-32.6	-36.9	8.3	4.08e-02	0	43	0	490733568	25	5923
2026-01-30 01:38:46.99	333.38	34.01	-32.7	-37.7	7.7	5.76e-02	0	44	0	492830720	25	6367
2026-01-30 01:38:47.99	333.04	34.12	-32.9	-38.1	7.0	1.18e-01	0	44	0	493879296	26	6514
2026-01-30 01:38:49.00	332.69	34.22	-33.1	-39.1	6.2	2.07e-01	0	43	0	495976448	26	7197
2026-01-30 01:38:50.01	332.35	34.33	-33.1	-39.1	6.3	2.60e-01	0	44	0	498073600	26	7148
2026-01-30 01:38:51.01	332.00	34.43	-32.9	-37.8	7.2	2.23e-01	0	44	0	500170752	26	6368
2026-01-30 01:38:52.01	331.65	34.53	-32.3	-35.9	9.0	4.39e-02	0	44	0	502267904	25	5442
2026-01-30 01:38:53.00	331.31	34.63	-31.7	-34.3	10.6	7.32e-03	0	44	0	503316480	24	4839
2026-01-30 01:38:54.01	330.95	34.74	-31.8	-34.7	10.4	3.83e-03	0	44	0	505413632	24	4974
2026-01-30 01:38:55.01	330.60	34.83	-32.0	-35.3	10.0	5.16e-03	0	44	0	507510784	24	5262
2026-01-30 01:38:56.01	330.24	34.93	-32.0	-35.1	10.0	3.72e-03	0	44	0	509607936	24	5189
2026-01-30 01:38:57.02	329.88	35.03	-32.3	-36.4	9.1	1.79e-02	0	43	0	511705088	24	5797
2026-01-30 01:38:58.02	329.52	35.13	-32.2	-36.2	9.2	1.67e-02	0	44	0	512753664	24	5669
2026-01-30 01:38:59.03	329.15	35.23	-32.2	-36.1	9.2	1.82e-02	0	43	0	514850816	24	5627
2026-01-30 01:39:00.03	328.78	35.32	-32.0	-35.5	9.7	1.16e-02	0	44	0	516947968	24	5326
2026-01-30 01:39:01.04	328.41	35.42	-32.1	-35.7	9.6	9.08e-03	0	44	0	519045120	24	5471
2026-01-30 01:39:02.04	328.04	35.51	-32.0	-35.3	9.9	8.52e-03	0	43	0	521142272	24	5285
2026-01-30 01:39:03.05	327.67	35.60	-32.3	-36.4	9.0	1.70e-02	0	44	0	522190848	24	5776
2026-01-30 01:39:04.06	327.29	35.69	-32.3	-36.6	8.7	2.79e-02	0	44	0	524288000	24	5917
2026-01-30 01:39:05.06	326.91	35.78	-32.5	-37.1	8.4	2.53e-02	0	44	0	526385152	24	6165
2026-01-30 01:39:06.06	326.54	35.87	-31.2	-35.2	9.2	1.94e-02	0	44	0	528482304	24	5709
2026-01-30 01:39:07.07	326.15	35.96	-32.0	-35.7	9.6	1.04e-02	0	44	0	530579456	23	5539
2026-01-30 01:39:08.07	325.77	36.04	-31.7	-34.7	10.7	4.32e-03	0	44	0	531628032	23	5077
2026-01-30 01:39:09.08	325.38	36.13	-31.5	-34.6	10.9	3.32e-03	0	44	0	533725184	22	5116
2026-01-30 01:39:10.08	325.00	36.21	-31.6	-34.2	10.8	1.67e-03	0	43	0	535822336	23	4872
2026-01-30 01:39:11.08	324.61	36.29	-31.5	-34.1	11.1	9.90e-04	0	44	0	537919488	23	4834
2026-01-30 01:39:12.08	324.22	36.37	-31.3	-33.9	11.5	9.96e-04	0	44	0	538968064	22	4893
2026-01-30 01:39:13.08	323.83	36.45	-31.1	-33.6	11.8	7.41e-04	0	44	0	541065216	22	4774
2026-01-30 01:39:14.08	323.43	36.53	-30.9	-33.0	12.2	3.51e-04	0	44	0	543162368	22	4542
2026-01-30 01:39:15.09	323.03	36.61	-30.8	-33.0	12.6	1.38e-04	0	44	0	545259520	21	4639
2026-01-30 01:39:16.08	322.64	36.68	-31.0	-33.5	12.3	2.28e-03	0	44	0	547356672	21	4805
2026-01-30 01:39:17.08	322.24	36.75	-30.7	-32.3	12.7	4.88e-05	0	44	0	548405248	22	4302
2026-01-30 01:39:18.09	321.83	36.83	-30.6	-32.4	12.9	2.21e-05	0	43	0	550502400	21	4439
2026-01-30 01:39:19.09	321.43	36.90	-31.0	-33.6	12.3	1.32e-04	0	44	0	552599552	21	4845
2026-01-30 01:39:20.10	321.02	36.97	-30.4	-32.9	11.7	6.19e-04	0	44	0	554696704	22	4800
2026-01-30 01:39:21.10	320.62	37.03	-30.8	-33.0	12.5	1.47e-04	0	44	0	556793856	21	4632
2026-01-30 01:39:22.11	320.20	37.10	-30.3	-32.0	13.7	2.67e-05	0	44	0	557842432	20	4391
2026-01-30 01:39:23.11	319.79	37.17	-30.3	-32.1	13.6	3.80e-06	0	44	0	559939584	20	4432
2026-01-30 01:39:24.11	319.38	37.23	-30.3	-32.1	13.6	6.80e-06	0	43	0	562036736	20	4413
2026-01-30 01:39:25.12	318.96	37.29	-30.3	-32.0	13.6	1.22e-05	0	43	0	564133888	20	4386
2026-01-30 01:39:26.12	318.55	37.35	-30.6	-32.6	12.9	2.47e-04	0	44	0	566231040	21	4492
2026-01-30 01:39:27.13	318.13	37.41	-30.8	-32.9	12.5	6.26e-04	0	43	0	567279616	21	4612
2026-01-30 01:39:28.13	317.71	37.47	-30.7	-32.7	12.8	5.56e-05	0	44	0	569376768	21	4528
2026-01-30 01:39:29.13	317.29	37.52	-30.6	-32.5	12.9	5.26e-05	0	44	0	571473920	21	4455
2026-01-30 01:39:30.13	316.87	37.58	-30.8	-32.9	12.8	1.59e-04	0	44	0	573571072	21	4622
2026-01-30 01:39:31.14	316.44	37.63	-30.4	-32.4	13.3	2.13e-05	0	44	0	575668224	20	4530
2026-01-30 01:39:32.15	316.02	37.68	-30.7	-32.8	12.8	4.11e-05	0	44	0	576716800	21	4548
2026-01-30 01:39:33.15	315.59	37.73	-30.2	-31.2	13.7	9.90e-04	0	44	0	578813952	21	4055
2026-01-30 01:39:34.15	315.17	37.77	-29.6	-30.7	14.8	1.41e-03	0	44	0	580911104	19	4071
2026-01-30 01:39:35.16	314.73	37.82	-29.6	-30.5	15.0	7.00e-07	0	44	0	583008256	19	4017
2026-01-30 01:39:36.16	314.31	37.86	-29.7	-30.7	14.8	1.95e-03	0	44	0	585105408	19	4077
2026-01-30 01:39:37.16	313.88	37.90	-29.5	-30.4	15.1	1.81e-03	0	44	0	586153984	19	3978
2026-01-30 01:39:38.16	313.45	37.94	-29.4	-30.2	15.2	1.92e-04	0	44	0	588251136	19	3930
2026-01-30 01:39:39.16	313.01	37.98	-29.2	-30.2	15.5	0.00e+00	0	44	0	590348288	18	4025
2026-01-30 01:39:40.16	312.58	38.01	-29.2	-30.1	15.5	1.85e-03	0	44	0	592445440	18	3994
2026-01-30 01:39:41.16	312.15	38.05	-29.3	-30.4	15.4	2.39e-04	0	44	0	594542592	18	4065
2026-01-30 01:39:42.17	311.71	38.08	-30.0	-31.1	14.3	0.00e+00	0	44	0	595591168	20	4106
2026-01-30 01:39:43.17	311.27	38.11	-30.2	-31.6	14.0	2.07e-03	0	44	0	597688320	20	4237
2026-01-30 01:39:44.17	310.84	38.14	-30.4	-31.6	13.6	5.13e-04	0	44	0	599785472	21	4155
2026-01-30 01:39:45.18	310.40	38.17	-30.0	-31.5	14.4	2.05e-03	0	44	0	601882624	19	4300
2026-01-30 01:39:46.17	309.96	38.19	-29.7	-30.8	15.0	0.00e+00	0	44	0	602931200	19	4085
2026-01-30 01:39:47.17	309.53	38.21	-29.5	-30.3	15.0	6.03e-04	0	44	0	605028352	19	3957
2026-01-30 01:39:48.18	309.08	38.23	-29.5	-30.4	15.1	2.73e-03	0	44	0	607125504	19	3968
2026-01-30 01:39:49.18	308.64	38.25	-29.5	-30.3	15.2	2.18e-03	0	44	0	609222656	19	3961
2026-01-30 01:39:50.18	308.20	38.27	-29.8	-31.1	14.7	6.51e-04	0	43	0	611319808	19	4189
2026-01-30 01:39:51.19	307.76	38.29	-29.8	-31.2	14.6	2.75e-03	0	44	0	612368384	19	4199
2026-01-30 01:39:52.19	307.32	38.30	-30.3	-31.8	13.9	2.07e-03	0	44	0	614465536	20	4304
2026-01-30 01:39:53.20	306.87	38.31	-30.2	-31.6	14.0	3.00e-06	0	44	0	616562688	20	4227
2026-01-30 01:39:54.20	306.43	38.32	-29.9	-30.7	14.7	2.31e-03	0	44	0	618659840	20	3977
2026-01-30 01:39:55.21	305.99	38.33	-29.9	-30.8	14.6	2.26e-03	0	43	0	620756992	20	3989
2026-01-30 01:39:56.21	305.55	38.33	-30.0	-31.2	14.3	1.50e-06	0	44	0	621805568	20	4110
2026-01-30 01:39:57.22	305.10	38.34	-30.3	-31.9	13.8	2.58e-03	0	44	0	623902720	20	4321
2026-01-30 01:39:58.22	304.66	38.34	-30.5	-31.9	13.4	2.20e-03	0	44	0	625999872	21	4242
2026-01-30 01:39:59.22	304.22	38.34	-31.1	-33.0	12.4	1.69e-04	0	44	0	628097024	22	4507
2026-01-30 01:40:00.22	303.77	38.33	-31.3	-33.8	11.9	2.64e-04	0	44	0	630194176	22	4785
2026-01-30 01:40:01.22	303.33	38.33	-31.5	-33.8	11.4	2.69e-03	0	44	0	631242752	23	4683
2026-01-30 01:40:02.22	302.89	38.32	-31.0	-32.3	12.6	4.77e-04	0	44	0	633339904	23	4207
2026-01-30 01:40:03.22	302.45	38.31	-30.8	-32.3	12.9	2.08e-03	0	44	0	635437056	22	4288
2026-01-30 01:40:04.23	302.00	38.30	-31.0	-33.5	12.6	2.15e-03	0	44	0	637534208	21	4779
2026-01-30 01:40:05.24	301.56	38.29	-31.2	-33.5	12.1	1.41e-04	0	44	0	639631360	22	4674
2026-01-30 01:40:06.24	301.12	38.28	-31.4	-34.0	11.7	2.60e-03	0	44	0	640679936	22	4862
2026-01-30 01:40:07.25	300.67	38.26	-31.3	-33.7	11.9	4.27e-04	0	44	0	642777088	22	4766
2026-01-30 01:40:08.26	300.23	38.24	-31.1	-33.2	12.2	3.07e-04	0	44	0	644874240	22	4571
2026-01-30 01:40:09.26	299.79	38.22	-30.9	-32.6	12.6	1.59e-03	0	44	0	646971392	22	4370
2026-01-30 01:40:10.27	299.35	38.20	-30.6	-32.3	13.1	2.74e-05	0	44	0	649068544	21	4388
2026-01-30 01:40:11.27	298.91	38.18	-30.7	-32.6	12.9	4.80e-05	0	44	0	650117120	21	4478
2026-01-30 01:40:12.27	298.47	38.15	-30.8	-32.7	12.9	5.94e-04	0	44	0	652214272	21	4498
2026-01-30 01:40:13.27	298.03	38.13	-30.5	-31.9	13.4	5.68e-04	0	44	0	654311424	21	4237
2026-01-30 01:40:14.27	297.60	38.10	-30.9	-33.2	12.6	5.79e-05	0	44	0	656408576	21	4667
2026-01-30 01:40:15.27	297.16	38.06	-31.3	-33.7	11.8	1.61e-03	0	44	0	657457152	22	4787
2026-01-30 01:40:16.27	296.73	38.03	-31.9	-35.3	10.4	2.44e-03	0	44	0	659554304	23	5323
2026-01-30 01:40:17.27	296.30	38.00	-32.1	-35.6	9.8	7.40e-03	0	44	0	661651456	24	5364
2026-01-30 01:40:18.28	295.86	37.96	-32.5	-36.5	8.5	1.96e-02	0	44	0	663748608	25	5705
2026-01-30 01:40:19.28	295.43	37.92	-31.9	-35.0	10.0	2.01e-02	0	44	0	665845760	24	5114
2026-01-30 01:40:20.28	295.00	37.88	-31.6	-33.9	10.9	2.75e-03	0	44	0	666894336	24	4701
2026-01-30 01:40:21.28	294.57	37.84	-31.2	-33.2	11.8	1.10e-03	0	44	0	668991488	23	4537
2026-01-30 01:40:22.29	294.14	37.79	-31.4	-33.8	11.3	3.74e-03	0	44	0	671088640	23	4741
2026-01-30 01:40:23.29	293.71	37.75	-31.5	-34.0	11.1	7.93e-04	0	44	0	673185792	23	4835
2026-01-30 01:40:24.29	293.28	37.70	-31.7	-34.9	10.5	1.14e-03	0	44	0	675282944	23	5202
2026-01-30 01:40:25.29	292.86	37.65	-31.8	-35.0	10.4	2.72e-03	0	44	0	676331520	23	5255
2026-01-30 01:40:26.29	292.43	37.60	-32.1	-36.0	9.2	8.15e-03	0	44	0	678428672	24	5611
2026-01-30 01:40:27.29	292.01	37.55	-31.8	-34.8	10.2	7.18e-03	0	44	0	680525824	24	5071
2026-01-30 01:40:28.29	291.59	37.49	-31.7	-35.0	10.4	4.51e-03	0	44	0	682622976	23	5246
2026-01-30 01:40:29.29	291.17	37.44	-31.7	-34.8	10.6	4.20e-03	0	44	0	684720128	23	5155
2026-01-30 01:40:30.30	290.75	37.38	-31.7	-34.7	10.5	5.54e-03	0	44	0	685768704	23	5139
2026-01-30 01:40:31.30	290.34	37.32	-31.3	-34.0	11.4	8.19e-04	0	43	0	687865856	22	4931
2026-01-30 01:40:32.31	289.92	37.26	-31.2	-34.0	11.4	3.39e-04	0	44	0	689963008	22	4927
2026-01-30 01:40:33.31	289.50	37.20	-31.5	-34.7	10.9	4.14e-03	0	44	0	692060160	22	5212
2026-01-30 01:40:34.31	289.09	37.13	-31.9	-35.8	9.7	4.88e-03	0	44	0	694157312	23	5646
2026-01-30 01:40:35.31	288.68	37.07	-32.3	-36.7	8.6	2.16e-02	0	44	0	695205888	24	6035
2026-01-30 01:40:36.31	288.27	37.00	-32.5	-37.4	7.6	4.17e-02	0	44	0	697303040	25	6326
2026-01-30 01:40:37.31	287.87	36.93	-32.8	-38.7	6.7	1.59e-01	0	44	0	699400192	25	7127
2026-01-30 01:40:38.31	287.46	36.86	-32.7	-38.5	6.8	2.35e-01	0	44	0	701497344	25	6964
2026-01-30 01:40:39.31	287.06	36.79	-32.3	-36.0	8.7	7.04e-02	0	44	0	703594496	25	5564
2026-01-30 01:40:40.32	286.66	36.72	-31.9	-35.1	10.0	1.42e-02	0	44	0	704643072	24	5195
2026-01-30 01:40:41.33	286.25	36.64	-31.8	-34.7	10.2	7.16e-03	0	44	0	706740224	24	5026
2026-01-30 01:40:42.34	285.85	36.57	-31.8	-34.5	10.5	4.40e-03	0	44	0	708837376	24	4927
2026-01-30 01:40:43.34	285.46	36.49	-31.8	-34.8	10.5	4.43e-03	0	44	0	710934528	23	5128
2026-01-30 01:40:44.34	285.06	36.41	-31.4	-33.7	11.4	1.56e-03	0	44	0	711983104	23	4696
2026-01-30 01:40:45.35	284.67	36.33	-31.8	-35.2	10.3	2.09e-03	0	44	0	714080256	23	5284
2026-01-30 01:40:46.35	284.28	36.25	-32.3	-35.9	9.8	9.56e-03	0	44	0	716177408	24	5407
2026-01-30 01:40:47.35	283.89	36.17	-31.9	-34.3	10.9	3.95e-03	0	44	0	718274560	24	4768
2026-01-30 01:40:48.36	283.50	36.08	-31.3	-33.0	12.2	4.75e-04	0	44	0	720371712	23	4383
2026-01-30 01:40:49.36	283.11	36.00	-31.2	-33.1	12.4	2.35e-04	0	44	0	721420288	22	4495
2026-01-30 01:40:50.36	282.73	35.91	-30.9	-32.4	12.9	4.57e-05	0	44	0	723517440	22	4272
2026-01-30 01:40:51.36	282.35	35.82	-30.5	-31.8	13.6	1.90e-05	0	44	0	725614592	21	4190
2026-01-30 01:40:52.37	281.97	35.73	-30.1	-31.1	14.3	3.00e-06	0	44	0	727711744	20	4080
2026-01-30 01:40:53.37	281.60	35.64	-30.2	-31.6	14.0	1.50e-06	0	44	0	729808896	20	4217
2026-01-30 01:40:54.37	281.22	35.55	-30.5	-31.8	13.5	3.00e-06	0	44	0	730857472	21	4206
2026-01-30 01:40:55.37	280.85	35.46	-30.5	-31.8	13.6	6.80e-06	0	43	0	732954624	21	4188
2026-01-30 01:40:56.37	280.48	35.37	-30.8	-32.8	13.0	2.21e-05	0	44	0	735051776	21	4498
2026-01-30 01:40:57.37	280.11	35.27	-31.0	-32.7	12.6	3.81e-05	0	44	0	737148928	22	4381
2026-01-30 01:40:58.38	279.74	35.17	-31.0	-32.6	12.7	1.39e-04	0	44	0	739246080	22	4344
2026-01-30 01:40:59.39	279.38	35.08	-30.7	-32.0	13.1	6.02e-05	0	44	0	740294656	22	4145
2026-01-30 01:41:00.38	279.02	34.98	-30.6	-32.0	13.3	1.83e-05	0	44	0	742391808	21	4258
2026-01-30 01:41:01.38	278.66	34.88	-30.9	-32.9	12.8	4.50e-05	0	44	0	744488960	21	4551
2026-01-30 01:41:02.38	278.31	34.78	-31.0	-32.7	12.3	6.33e-05	0	44	0	746586112	22	4378
2026-01-30 01:41:03.38	277.95	34.68	-31.4	-34.0	11.6	1.81e-04	0	44	0	748683264	22	4850
2026-01-30 01:41:04.39	277.60	34.58	-31.3	-33.1	12.0	6.77e-04	0	44	0	749731840	23	4433
2026-01-30 01:41:05.39	277.25	34.48	-31.4	-33.9	11.7	4.29e-04	0	44	0	751828992	22	4804
2026-01-30 01:41:06.39	276.90	34.37	-31.5	-34.1	11.6	8.94e-04	0	44	0	753926144	22	4865
2026-01-30 01:41:07.39	276.55	34.27	-31.5	-33.7	11.6	6.82e-04	0	44	0	756023296	23	4641
2026-01-30 01:41:08.40	276.21	34.17	-31.2	-33.2	12.3	2.60e-03	0	44	0	757071872	22	4531
2026-01-30 01:41:09.40	275.87	34.06	-31.0	-32.8	12.6	1.13e-04	0	44	0	759169024	22	4422
2026-01-30 01:41:10.40	275.53	33.95	-30.9	-32.5	12.8	4.65e-05	0	44	0	761266176	22	4332
2026-01-30 01:41:11.40	275.19	33.85	-31.1	-32.9	12.4	1.94e-03	0	44	0	763363328	22	4446
2026-01-30 01:41:12.41	274.85	33.74	-30.7	-32.3	13.2	6.17e-05	0	43	0	765460480	21	4347
2026-01-30 01:41:13.41	274.52	33.63	-30.7	-32.3	13.2	1.75e-05	0	44	0	766509056	21	4338
2026-01-30 01:41:14.41	274.19	33.52	-30.8	-32.6	13.0	4.42e-05	0	44	0	768606208	21	4450
2026-01-30 01:41:15.41	273.86	33.41	-31.3	-33.7	12.0	2.46e-03	0	44	0	770703360	22	4728
2026-01-30 01:41:16.41	273.54	33.30	-31.8	-34.7	10.9	1.81e-03	0	44	0	772800512	23	5014
2026-01-30 01:41:17.41	273.21	33.19	-31.8	-34.6	11.0	1.49e-03	0	44	0	774897664	23	4955
2026-01-30 01:41:18.42	272.89	33.07	-31.3	-33.7	11.9	3.01e-03	0	44	0	775946240	22	4725
2026-01-30 01:41:19.42	272.57	32.96	-31.0	-32.8	12.6	1.62e-04	0	43	0	778043392	22	4400
2026-01-30 01:41:20.42	272.25	32.85	-31.0	-32.6	12.6	1.45e-04	0	44	0	780140544	22	4362
2026-01-30 01:41:21.43	271.94	32.73	-30.9	-33.0	12.7	9.15e-05	0	44	0	782237696	21	4582
2026-01-30 01:41:22.43	271.62	32.62	-30.8	-32.2	13.0	8.77e-05	0	44	0	784334848	22	4210
2026-01-30 01:41:23.43	271.31	32.51	-31.1	-33.0	12.3	7.85e-05	0	44	0	785383424	22	4490
2026-01-30 01:41:24.44	271.00	32.39	-31.4	-34.0	11.7	2.36e-04	0	43	0	787480576	22	4844
2026-01-30 01:41:25.44	270.70	32.27	-31.3	-33.1	11.9	4.14e-04	0	44	0	789577728	23	4424
2026-01-30 01:41:26.44	270.40	32.16	-31.2	-32.7	12.2	8.84e-04	0	44	0	791674880	23	4299
2026-01-30 01:41:27.44	270.09	32.04	-30.8	-32.1	12.9	8.85e-05	0	44	0	793772032	22	4195
2026-01-30 01:41:28.44	269.79	31.92	-30.7	-31.9	13.2	7.17e-05	0	44	0	794820608	22	4134
2026-01-30 01:41:29.44	269.50	31.81	-31.0	-32.9	12.5	5.87e-04	0	44	0	796917760	22	4438
2026-01-30 01:41:30.45	269.20	31.69	-31.4	-33.9	11.8	2.87e-04	0	44	0	799014912	22	4807
2026-01-30 01:41:31.45	268.91	31.57	-31.5	-33.9	11.4	4.59e-04	0	44	0	801112064	23	4719
2026-01-30 01:41:32.46	268.61	31.45	-31.7	-34.5	11.0	2.79e-03	0	44	0	803209216	23	4945
2026-01-30 01:41:33.46	268.33	31.33	-31.5	-33.9	11.4	1.69e-03	0	44	0	804257792	23	4734
2026-01-30 01:41:34.47	268.04	31.21	-31.9	-35.0	10.6	1.69e-03	0	44	0	806354944	23	5168
2026-01-30 01:41:35.47	267.75	31.09	-32.2	-35.5	9.7	1.02e-02	0	44	0	808452096	24	5288
2026-01-30 01:41:36.47	267.47	30.97	-32.4	-36.4	9.1	2.05e-02	0	43	0	810549248	24	5709
2026-01-30 01:41:37.48	267.19	30.85	-32.4	-35.6	9.4	1.56e-02	0	44	0	811597824	25	5261
2026-01-30 01:41:38.49	266.91	30.73	-32.2	-35.6	9.7	1.29e-02	0	44	0	813694976	24	5303
2026-01-30 01:41:39.49	266.63	30.61	-32.0	-34.8	10.3	7.84e-03	0	44	0	815792128	24	4987
2026-01-30 01:41:40.49	266.36	30.49	-31.8	-34.4	10.6	3.57e-03	0	44	0	817889280	24	4825
2026-01-30 01:41:41.49	266.09	30.36	-31.9	-35.1	10.4	3.46e-03	0	44	0	819986432	23	5211
2026-01-30 01:41:42.49	265.82	30.24	-32.2	-35.5	9.8	9.11e-03	0	44	0	821035008	24	5269
2026-01-30 01:41:43.50	265.55	30.12	-32.0	-35.0	10.1	6.75e-03	0	44	0	823132160	24	5076
2026-01-30 01:41:44.50	265.28	30.00	-31.8	-34.5	10.9	6.11e-03	0	44	0	825229312	23	4960
2026-01-30 01:41:45.50	265.02	29.88	-31.6	-34.0	11.3	3.48e-03	0	44	0	827326464	23	4768
2026-01-30 01:41:46.51	264.76	29.75	-31.6	-34.0	11.3	1.22e-03	0	44	0	829423616	23	4755
2026-01-30 01:41:47.51	264.50	29.63	-31.4	-33.4	11.7	3.53e-03	0	44	0	830472192	23	4543
2026-01-30 01:41:48.52	264.24	29.51	-31.1	-33.0	12.4	1.90e-03	0	44	0	832569344	22	4484
2026-01-30 01:41:49.53	263.98	29.38	-30.6	-32.1	13.2	4.91e-04	0	44	0	834666496	21	4304
2026-01-30 01:41:50.54	263.72	29.26	-30.3	-31.8	13.8	1.76e-03	0	44	0	836763648	20	4287
2026-01-30 01:41:51.54	263.47	29.14	-30.3	-31.8	13.8	6.27e-04	0	44	0	838860800	20	4296
2026-01-30 01:41:52.54	263.22	29.01	-30.2	-31.6	13.9	2.20e-06	0	43	0	839909376	20	4237
2026-01-30 01:41:53.55	262.97	28.89	-30.3	-32.0	13.6	2.56e-03	0	44	0	842006528	20	4360
2026-01-30 01:41:54.55	262.73	28.77	-30.8	-32.7	12.9	1.51e-03	0	43	0	844103680	21	4493
2026-01-30 01:41:55.55	262.48	28.64	-31.0	-32.7	12.5	1.20e-04	0	44	0	846200832	22	4400
2026-01-30 01:41:56.56	262.24	28.52	-31.1	-33.2	12.2	3.69e-03	0	44	0	848297984	22	4557
2026-01-30 01:41:57.56	262.00	28.40	-31.2	-33.4	12.0	1.95e-03	0	43	0	849346560	22	4641
2026-01-30 01:41:58.57	261.76	28.27	-31.3	-33.6	11.8	2.17e-03	0	44	0	851443712	22	4721
2026-01-30 01:41:59.56	261.52	28.15	-31.2	-33.5	11.9	4.36e-04	0	44	0	853540864	22	4676
2026-01-30 01:42:00.57	261.29	28.03	-30.8	-32.9	12.7	8.17e-04	0	44	0	855638016	21	4562
2026-01-30 01:42:01.57	261.05	27.90	-30.6	-32.3	13.1	6.73e-04	0	44	0	857735168	21	4355
2026-01-30 01:42:02.57	260.82	27.78	-30.6	-32.1	13.2	2.82e-05	0	44	0	858783744	21	4311
2026-01-30 01:42:03.58	260.59	27.66	-30.5	-32.1	13.2	2.21e-05	0	44	0	860880896	21	4296
2026-01-30 01:42:04.58	260.36	27.53	-30.8	-32.8	12.7	4.19e-05	0	44	0	862978048	21	4522
2026-01-30 01:42:05.59	260.14	27.41	-30.8	-32.8	12.7	8.01e-05	0	44	0	865075200	21	4547
2026-01-30 01:42:06.59	259.91	27.29	-30.8	-32.8	12.7	7.85e-05	0	44	0	867172352	21	4545
2026-01-30 01:42:07.59	259.69	27.16	-30.6	-32.1	13.0	7.85e-05	0	43	0	868220928	21	4317
2026-01-30 01:42:08.60	259.47	27.04	-30.1	-31.3	14.0	1.78e-03	0	44	0	870318080	20	4164
2026-01-30 01:42:09.59	259.25	26.92	-29.9	-30.9	14.3	0.00e+00	0	44	0	872415232	20	4034
2026-01-30 01:42:10.60	259.03	26.80	-30.0	-31.0	14.2	7.00e-07	0	44	0	874512384	20	4072
2026-01-30 01:42:11.59	258.82	26.67	-29.9	-31.2	14.4	2.32e-03	0	44	0	875560960	19	4220
2026-01-30 01:42:12.60	258.60	26.55	-30.0	-31.1	14.1	0.00e+00	0	44	0	877658112	20	4105
2026-01-30 01:42:13.60	258.39	26.43	-30.0	-31.2	14.0	7.00e-07	0	44	0	879755264	20	4136
2026-01-30 01:42:14.60	258.18	26.31	-30.1	-31.4	14.0	2.21e-03	0	44	0	881852416	20	4172
2026-01-30 01:42:15.60	257.97	26.18	-29.9	-30.8	14.3	2.02e-03	0	44	0	883949568	20	4011
2026-01-30 01:42:16.60	257.77	26.06	-30.0	-31.2	14.1	7.00e-07	0	43	0	884998144	20	4119
2026-01-30 01:42:17.60	257.56	25.94	-30.1	-31.5	13.9	3.80e-06	0	44	0	887095296	20	4204
2026-01-30 01:42:18.60	257.36	25.82	-30.2	-31.8	13.7	2.30e-03	0	43	0	889192448	20	4306
2026-01-30 01:42:19.60	257.15	25.70	-30.2	-31.6	13.7	9.10e-06	0	44	0	891289600	20	4257
2026-01-30 01:42:20.61	256.95	25.58	-30.2	-31.7	13.7	3.00e-06	0	44	0	893386752	20	4274
2026-01-30 01:42:21.61	256.75	25.45	-30.2	-31.7	13.7	2.07e-03	0	44	0	894435328	20	4277
2026-01-30 01:42:22.60	256.56	25.33	-30.1	-31.4	13.9	2.20e-06	0	43	0	896532480	20	4195
2026-01-30 01:42:23.61	256.36	25.21	-30.2	-31.8	13.6	6.80e-06	0	43	0	898629632	20	4313
2026-01-30 01:42:24.61	256.16	25.09	-30.1	-31.5	13.8	3.00e-06	0	43	0	900726784	20	4221
2026-01-30 01:42:25.61	255.97	24.97	-30.1	-31.6	13.8	6.10e-06	0	43	0	902823936	20	4236
2026-01-30 01:42:26.61	255.78	24.85	-30.0	-31.3	13.9	4.50e-06	0	44	0	903872512	20	4156
2026-01-30 01:42:27.62	255.59	24.73	-30.2	-31.8	13.6	4.50e-06	0	43	0	905969664	20	4313
2026-01-30 01:42:28.62	255.40	24.61	-30.1	-31.6	13.8	6.80e-06	0	44	0	908066816	20	4236
2026-01-30 01:42:29.63	255.21	24.49	-30.0	-31.2	14.0	3.00e-06	0	44	0	910163968	20	4136
2026-01-30 01:42:30.62	255.02	24.37	-30.0	-31.1	14.0	1.50e-06	0	43	0	912261120	20	4103
2026-01-30 01:42:31.62	254.84	24.25	-30.2	-31.6	13.7	3.00e-06	0	43	0	913309696	20	4253
2026-01-30 01:42:32.62	254.66	24.13	-30.1	-31.5	13.7	2.13e-03	0	43	0	915406848	20	4222
2026-01-30 01:42:33.62	254.47	24.02	-29.9	-31.0	14.1	3.00e-06	0	44	0	917504000	20	4080
2026-01-30 01:42:34.62	254.29	23.90	-30.0	-31.2	13.9	3.00e-06	0	43	0	919601152	20	4138
2026-01-30 01:42:35.62	254.11	23.78	-30.2	-31.7	13.6	4.50e-06	0	43	0	920649728	20	4292
2026-01-30 01:42:36.62	253.94	23.66	-30.3	-32.0	13.5	1.06e-05	0	44	0	922746880	20	4376
2026-01-30 01:42:37.62	253.76	23.54	-30.2	-31.9	13.5	7.60e-06	0	43	0	924844032	20	4332
2026-01-30 01:42:38.63	253.58	23.42	-30.2	-31.8	13.6	1.83e-05	0	43	0	926941184	20	4313
2026-01-30 01:42:39.63	253.41	23.31	-29.9	-30.8	14.2	3.00e-06	0	43	0	929038336	20	4027
2026-01-30 01:42:40.63	253.24	23.19	-30.0	-31.6	14.1	2.20e-06	0	43	0	930086912	19	4343
2026-01-30 01:42:41.64	253.07	23.07	-29.9	-30.9	14.1	3.80e-06	0	43	0	932184064	20	4056
2026-01-30 01:42:42.64	252.90	22.96	-30.0	-31.3	13.9	0.00e+00	0	43	0	934281216	20	4170
2026-01-30 01:42:43.64	252.73	22.84	-30.1	-31.4	13.8	3.00e-06	0	43	0	936378368	20	4200
2026-01-30 01:42:44.64	252.56	22.72	-30.3	-31.9	13.5	6.80e-06	0	43	0	938475520	20	4357
2026-01-30 01:42:45.64	252.39	22.61	-30.6	-32.3	12.7	3.89e-05	0	43	0	939524096	21	4393
2026-01-30 01:42:46.63	252.23	22.49	-30.8	-32.9	12.4	5.79e-05	0	43	0	941621248	21	4600
2026-01-30 01:42:47.64	252.07	22.38	-30.9	-33.3	12.2	2.24e-04	0	43	0	943718400	21	4728
2026-01-30 01:42:48.65	251.90	22.26	-31.1	-33.3	11.9	2.75e-04	0	43	0	945815552	22	4623
2026-01-30 01:42:49.65	251.74	22.15	-31.3	-34.0	11.4	5.93e-04	0	43	0	946864128	22	4882
2026-01-30 01:42:50.65	251.58	22.03	-31.3	-33.3	11.4	1.14e-03	0	43	0	948961280	23	4554
2026-01-30 01:42:51.65	251.42	21.92	-31.5	-34.5	11.0	1.05e-03	0	43	0	951058432	22	5111
2026-01-30 01:42:52.65	251.27	21.80	-31.5	-34.1	10.9	2.88e-03	0	43	0	953155584	23	4862
2026-01-30 01:42:53.65	251.11	21.69	-31.1	-32.9	11.8	1.14e-03	0	43	0	955252736	23	4414
2026-01-30 01:42:54.66	250.95	21.58	-30.2	-32.5	12.1	3.37e-04	0	43	0	957349888	21	4740
2026-01-30 01:42:55.66	250.80	21.46	-30.6	-32.9	11.8	9.38e-05	0	43	0	958398464	20	4683
2026-01-30 01:42:56.66	250.65	21.35	-30.3	-32.0	11.8	4.88e-05	0	43	0	960495616	20	4385
2026-01-30 01:42:57.67	250.49	21.24	-30.2	-31.8	13.1	1.14e-05	0	43	0	962592768	20	4324
2026-01-30 01:42:58.67	250.34	21.13	-30.4	-32.3	12.1	1.75e-05	0	43	0	964689920	20	4477
2026-01-30 01:42:59.66	250.20	21.01	-30.1	-31.6	12.9	2.21e-05	0	43	0	965738496	20	4253
2026-01-30 01:43:00.67	250.05	20.90	-30.0	-31.3	13.7	1.47e-04	0	43	0	967835648	20	4167
2026-01-30 01:43:01.66	249.90	20.79	-30.2	-31.7	13.4	1.14e-05	0	43	0	969932800	20	4302
2026-01-30 01:43:02.66	249.75	20.68	-30.5	-32.5	13.0	1.37e-05	0	43	0	972029952	20	4557
2026-01-30 01:43:03.66	249.61	20.57	-30.5	-32.2	12.8	8.16e-05	0	43	0	974127104	21	4378
2026-01-30 01:43:04.67	249.46	20.46	-30.7	-32.6	12.6	1.11e-03	0	43	0	975175680	21	4502
2026-01-30 01:43:05.67	249.32	20.35	-30.6	-32.4	12.7	9.68e-05	0	43	0	977272832	21	4436
2026-01-30 01:43:06.67	249.18	20.24	-30.2	-31.9	13.3	4.80e-05	0	43	0	979369984	20	4359
2026-01-30 01:43:07.67	249.04	20.13	-30.1	-31.6	13.6	3.51e-03	0	43	0	981467136	20	4258
2026-01-30 01:43:08.68	248.90	20.02	-29.9	-31.4	14.1	4.50e-06	0	43	0	983564288	19	4280
2026-01-30 01:43:09.68	248.76	19.91	-29.8	-31.2	14.2	7.00e-07	0	43	0	984612864	19	4225
2026-01-30 01:43:10.69	248.62	19.80	-29.7	-31.0	14.3	2.56e-03	0	43	0	986710016	19	4176
2026-01-30 01:43:11.70	248.48	19.69	-29.6	-30.7	14.5	0.00e+00	0	43	0	988807168	19	4085
2026-01-30 01:43:12.70	248.34	19.58	-29.7	-31.0	14.3	3.00e-06	0	43	0	990904320	19	4156
2026-01-30 01:43:13.71	248.21	19.47	-29.9	-31.1	13.8	3.00e-06	0	43	0	993001472	20	4120
2026-01-30 01:43:14.71	248.07	19.37	-30.3	-32.0	13.3	2.56e-03	0	43	0	994050048	20	4383
2026-01-30 01:43:15.72	247.94	19.26	-30.5	-32.6	12.9	3.54e-04	0	43	0	996147200	20	4593
2026-01-30 01:43:16.71	247.81	19.15	-30.6	-32.5	12.6	8.39e-05	0	43	0	998244352	21	4466
2026-01-30 01:43:17.72	247.67	19.04	-31.0	-33.2	11.8	2.45e-03	0	43	0	1000341504	22	4620
2026-01-30 01:43:18.72	247.54	18.94	-31.3	-34.1	11.1	1.57e-03	0	43	0	1002438656	22	4968
2026-01-30 01:43:19.71	247.42	18.83	-31.5	-34.2	10.7	2.71e-03	0	43	0	1003487232	23	4916
2026-01-30 01:43:20.71	247.29	18.73	-31.8	-35.3	9.9	6.28e-03	0	43	0	1005584384	23	5355
2026-01-30 01:43:21.71	247.16	18.62	-32.0	-35.8	9.5	1.19e-02	0	43	0	1007681536	23	5617
2026-01-30 01:43:22.72	247.03	18.52	-31.9	-34.9	9.7	1.51e-02	0	43	0	1009778688	24	5119
2026-01-30 01:43:23.72	246.91	18.41	-31.9	-35.2	9.5	1.67e-02	0	43	0	1010827264	24	5253
2026-01-30 01:43:24.73	246.78	18.31	-32.0	-35.4	9.4	1.54e-02	0	43	0	1012924416	24	5320
2026-01-30 01:43:25.73	246.66	18.20	-31.7	-34.5	10.0	1.14e-02	0	43	0	1015021568	24	4950
2026-01-30 01:43:26.74	246.53	18.10	-31.1	-33.0	11.5	3.01e-03	0	43	0	1017118720	23	4477
2026-01-30 01:43:27.74	246.41	17.99	-30.9	-32.2	12.0	4.95e-04	0	43	0	1019215872	23	4204
2026-01-30 01:43:28.75	246.29	17.89	-30.7	-32.2	12.5	1.79e-04	0	43	0	1020264448	22	4273
2026-01-30 01:43:29.75	246.17	17.79	-30.4	-31.5	12.9	6.71e-05	0	43	0	1022361600	22	4069
2026-01-30 01:43:30.76	246.05	17.68	-30.7	-32.2	12.4	8.31e-05	0	43	0	1024458752	22	4278
2026-01-30 01:43:31.77	245.93	17.58	-30.5	-32.2	12.7	5.45e-04	0	43	0	1026555904	21	4375
2026-01-30 01:43:32.77	245.81	17.48	-30.6	-32.4	12.5	4.30e-04	0	43	0	1028653056	21	4464
2026-01-30 01:43:33.77	245.69	17.38	-30.9	-33.4	11.9	1.77e-04	0	43	0	1029701632	21	4821
2026-01-30 01:43:34.77	245.57	17.27	-31.0	-33.3	11.6	1.59e-03	0	43	0	1031798784	22	4652
2026-01-30 01:43:35.78	245.46	17.17	-31.1	-33.4	11.5	1.96e-03	0	43	0	1033895936	22	4712
2026-01-30 01:43:36.78	245.34	17.07	-31.3	-34.1	11.0	1.16e-03	0	43	0	1035993088	22	4968
2026-01-30 01:43:37.78	245.23	16.97	-31.3	-34.1	11.0	3.74e-03	0	43	0	1038090240	22	4978
2026-01-30 01:43:38.79	245.11	16.87	-31.0	-33.4	11.5	2.72e-03	0	43	0	1039138816	22	4694
2026-01-30 01:43:39.79	245.00	16.77	-31.0	-33.2	11.7	1.02e-03	0	43	0	1041235968	22	4624
2026-01-30 01:43:40.79	244.89	16.67	-30.8	-33.0	12.1	7.42e-04	0	43	0	1043333120	21	4667
2026-01-30 01:43:41.80	244.78	16.57	-30.7	-32.7	12.3	2.53e-03	0	43	0	1045430272	21	4545
2026-01-30 01:43:42.79	244.67	16.47	-30.7	-32.7	12.3	7.40e-04	0	43	0	1047527424	21	4548
2026-01-30 01:43:43.79	244.56	16.37	-30.6	-32.5	12.4	2.82e-03	0	43	0	1048576000	21	4487
2026-01-30 01:43:44.80	244.45	16.27	-30.3	-32.1	13.0	1.65e-03	0	43	0	1050673152	20	4432
2026-01-30 01:43:45.80	244.34	16.17	-30.2	-32.0	13.1	5.34e-04	0	43	0	1052770304	20	4407
2026-01-30 01:43:46.80	244.23	16.08	-30.4	-32.4	12.8	1.15e-03	0	43	0	1054867456	20	4555
2026-01-30 01:43:47.81	244.13	15.98	-30.4	-32.4	12.8	3.51e-04	0	43	0	1056964608	20	4535
2026-01-30 01:43:48.82	244.02	15.88	-30.4	-31.9	12.6	7.17e-05	0	43	0	1058013184	21	4301
2026-01-30 01:43:49.82	243.91	15.78	-30.7	-32.8	12.2	3.04e-03	0	43	0	1060110336	21	4597
2026-01-30 01:43:50.82	243.81	15.69	-30.7	-32.8	12.1	2.86e-03	0	43	0	1062207488	21	4589
2026-01-30 01:43:51.83	243.70	15.59	-30.8	-33.1	11.9	2.95e-04	0	43	0	1064304640	21	4700
2026-01-30 01:43:52.83	243.60	15.49	-30.7	-33.0	12.0	3.32e-03	0	43	0	1066401792	21	4657
2026-01-30 01:43:53.83	243.50	15.40	-30.9	-33.6	11.6	3.36e-03	0	43	0	1067450368	21	4874
2026-01-30 01:43:54.83	243.40	15.30	-30.7	-33.0	12.0	4.44e-04	0	43	0	1069547520	21	4654
2026-01-30 01:43:55.83	243.30	15.21	-30.8	-33.1	11.9	3.50e-03	0	43	0	1071644672	21	4710
2026-01-30 01:43:56.83	243.20	15.11	-30.9	-33.4	11.8	3.84e-03	0	43	0	1073741824	21	4821
2026-01-30 01:43:57.82	243.10	15.02	-30.9	-33.5	11.6	1.53e-03	0	43	0	1074790400	21	4867
2026-01-30 01:43:58.82	243.00	14.92	-31.1	-33.7	11.1	4.95e-03	0	43	0	1076887552	22	4848
2026-01-30 01:43:59.83	242.90	14.83	-31.1	-33.5	11.3	5.03e-03	0	43	0	1078984704	22	4756
2026-01-30 01:44:00.80	242.80	14.74	-31.0	-33.2	11.5	2.24e-03	0	43	0	1081081856	22	4645
2026-01-30 01:44:01.80	242.71	14.64	-30.9	-33.4	11.6	4.37e-03	0	43	0	1083179008	21	4817
2026-01-30 01:44:02.81	242.61	14.55	-30.9	-33.6	11.6	3.64e-03	0	43	0	1084227584	21	4885
2026-01-30 01:44:03.81	242.51	14.45	-30.7	-32.9	11.9	9.96e-04	0	44	0	1086324736	21	4659
2026-01-30 01:44:04.82	242.42	14.36	-30.6	-32.6	12.1	3.23e-03	0	43	0	1088421888	21	4534
2026-01-30 01:44:05.82	242.32	14.27	-30.5	-32.5	12.3	7.38e-04	0	43	0	1090519040	21	4492
2026-01-30 01:44:06.82	242.23	14.18	-30.4	-32.6	12.5	5.15e-04	0	43	0	1092616192	20	4640
2026-01-30 01:44:07.82	242.13	14.08	-30.3	-32.2	12.8	2.78e-03	0	44	0	1093664768	20	4495
2026-01-30 01:44:08.83	242.04	13.99	-30.2	-32.1	12.8	6.48e-05	0	44	0	1095761920	20	4474
2026-01-30 01:44:09.83	241.95	13.90	-30.3	-32.4	12.6	6.53e-04	0	43	0	1097859072	20	4574
2026-01-30 01:44:10.83	241.85	13.81	-30.2	-32.0	12.9	2.38e-03	0	43	0	1099956224	20	4424
2026-01-30 01:44:11.83	241.76	13.72	-30.5	-32.7	12.4	1.84e-03	0	44	0	1101004800	20	4681
2026-01-30 01:44:12.84	241.67	13.63	-30.4	-32.1	12.4	1.63e-04	0	43	0	1103101952	21	4382
2026-01-30 01:44:13.84	241.58	13.54	-30.6	-32.6	12.1	1.26e-03	0	44	0	1105199104	21	4541
2026-01-30 01:44:14.84	241.49	13.45	-30.9	-33.4	11.5	8.83e-04	0	44	0	1107296256	21	4851
2026-01-30 01:44:15.85	241.40	13.35	-30.9	-33.6	11.4	8.22e-04	0	44	0	1109393408	21	4924
2026-01-30 01:44:16.85	241.31	13.27	-31.1	-33.7	11.0	1.30e-03	0	44	0	1110441984	22	4856
2026-01-30 01:44:17.85	241.23	13.18	-31.2	-34.0	10.7	2.67e-03	0	44	0	1112539136	22	4992
2026-01-30 01:44:18.85	241.14	13.09	-31.5	-35.0	10.1	5.07e-03	0	44	0	1114636288	22	5400
2026-01-30 01:44:19.86	241.05	13.00	-31.5	-34.5	10.0	7.89e-03	0	44	0	1116733440	23	5121
2026-01-30 01:44:20.86	240.96	12.91	-31.6	-34.9	9.7	9.40e-03	0	44	0	1118830592	23	5256
2026-01-30 01:44:21.87	240.88	12.82	-31.5	-34.6	9.9	8.94e-03	0	44	0	1119879168	23	5166
2026-01-30 01:44:22.87	240.79	12.73	-31.5	-34.8	9.8	9.39e-03	0	44	0	1121976320	23	5231
2026-01-30 01:44:23.87	240.71	12.64	-31.4	-34.3	10.1	8.85e-03	0	44	0	1124073472	23	5019
2026-01-30 01:44:24.87	240.62	12.56	-31.3	-33.8	10.5	5.01e-03	0	44	0	1126170624	23	4831
2026-01-30 01:44:25.88	240.54	12.47	-31.2	-34.1	10.7	3.28e-03	0	44	0	1128267776	22	5013
2026-01-30 01:44:26.88	240.46	12.38	-31.1	-33.6	10.9	1.97e-03	0	44	0	1129316352	22	4848
2026-01-30 01:44:27.89	240.37	12.29	-30.9	-33.1	11.4	1.64e-03	0	44	0	1131413504	22	4628
2026-01-30 01:44:28.89	240.29	12.21	-30.8	-33.5	11.4	4.02e-03	0	44	0	1133510656	21	4873
2026-01-30 01:44:29.89	240.21	12.12	-30.7	-33.2	11.6	5.80e-04	0	44	0	1135607808	21	4782
2026-01-30 01:44:30.89	240.13	12.03	-30.5	-32.6	12.0	4.34e-04	0	44	0	1137704960	21	4552
2026-01-30 01:44:31.90	240.05	11.95	-30.5	-32.4	12.1	2.94e-03	0	43	0	1138753536	21	4505
2026-01-30 01:44:32.90	239.97	11.86	-30.5	-32.5	12.1	2.83e-04	0	44	0	1140850688	21	4543
2026-01-30 01:44:33.91	239.89	11.78	-30.5	-32.4	12.1	3.13e-04	0	44	0	1142947840	21	4510
2026-01-30 01:44:34.92	239.81	11.69	-30.4	-32.2	12.3	2.27e-04	0	43	0	1145044992	21	4426
2026-01-30 01:44:35.93	239.73	11.60	-30.4	-32.8	12.2	2.43e-04	0	44	0	1147142144	20	4742
2026-01-30 01:44:36.93	239.65	11.52	-30.4	-32.9	12.1	2.30e-04	0	44	0	1148190720	20	4755
2026-01-30 01:44:37.93	239.57	11.43	-30.3	-32.6	12.3	2.02e-04	0	44	0	1150287872	20	4652
2026-01-30 01:44:38.93	239.49	11.35	-30.3	-32.5	12.4	2.32e-03	0	44	0	1152385024	20	4616
2026-01-30 01:44:39.94	239.42	11.27	-30.5	-32.9	12.1	2.56e-04	0	44	0	1154482176	20	4753
2026-01-30 01:44:40.95	239.34	11.18	-30.3	-32.4	12.3	2.56e-04	0	44	0	1156579328	20	4603
2026-01-30 01:44:41.96	239.26	11.10	-30.3	-32.5	12.4	1.17e-04	0	44	0	1157627904	20	4627
2026-01-30 01:44:42.96	239.19	11.01	-30.4	-32.7	12.2	1.75e-04	0	44	0	1159725056	20	4687
2026-01-30 01:44:43.97	239.11	10.93	-30.3	-32.4	12.4	1.29e-04	0	44	0	1161822208	20	4599
2026-01-30 01:44:44.97	239.04	10.85	-30.4	-32.6	12.3	1.47e-04	0	44	0	1163919360	20	4666
2026-01-30 01:44:45.98	238.96	10.76	-30.4	-32.6	12.2	2.27e-04	0	44	0	1166016512	20	4674
2026-01-30 01:44:46.98	238.89	10.68	-30.3	-32.6	12.2	2.09e-04	0	44	0	1167065088	20	4653
2026-01-30 01:44:47.99	238.81	10.60	-30.4	-32.7	12.2	1.94e-04	0	44	0	1169162240	20	4685
2026-01-30 01:44:48.99	238.74	10.52	-30.4	-32.8	12.1	2.11e-04	0	44	0	1171259392	20	4742
2026-01-30 01:44:49.99	238.67	10.44	-30.4	-32.8	11.5	2.70e-04	0	44	0	1173356544	20	4747
2026-01-30 01:44:51.00	238.59	10.35	-30.5	-32.5	11.8	3.09e-04	0	44	0	1175453696	21	4527
2026-01-30 01:44:52.01	238.52	10.27	-30.6	-32.8	10.9	4.81e-04	0	44	0	1176502272	21	4641
2026-01-30 01:44:53.00	238.45	10.19	-30.7	-33.3	11.2	8.46e-04	0	44	0	1178599424	21	4827
2026-01-30 01:44:54.01	238.38	10.11	-30.7	-33.2	11.4	8.56e-04	0	44	0	1180696576	21	4789
2026-01-30 01:44:55.01	238.31	10.03	-30.7	-33.0	11.5	8.27e-04	0	44	0	1182793728	21	4728
2026-01-30 01:44:56.01	238.24	9.95	-30.8	-33.5	11.2	9.72e-04	0	44	0	1184890880	21	4915
2026-01-30 01:44:57.01	238.17	9.87	-30.8	-33.7	11.1	1.46e-03	0	44	0	1185939456	21	4975
2026-01-30 01:44:58.02	238.10	9.79	-30.9	-33.8	10.9	1.90e-03	0	44	0	1188036608	21	5041
2026-01-30 01:44:59.02	238.03	9.71	-30.8	-33.5	11.2	1.67e-03	0	44	0	1190133760	21	4896
2026-01-30 01:45:00.02	237.96	9.63	-30.9	-33.9	10.8	2.16e-03	0	44	0	1192230912	21	5090
2026-01-30 01:45:01.02	237.89	9.55	-30.9	-33.8	10.9	2.02e-03	0	44	0	1193279488	21	5018
2026-01-30 01:45:02.03	237.83	9.47	-30.8	-33.7	11.0	1.61e-03	0	44	0	1195376640	21	4980
2026-01-30 01:45:03.04	237.76	9.39	-30.9	-34.0	10.7	2.65e-03	0	44	0	1197473792	21	5141
2026-01-30 01:45:04.03	237.69	9.31	-30.9	-33.8	10.9	2.41e-03	0	44	0	1199570944	21	5043
2026-01-30 01:45:05.04	237.62	9.23	-30.9	-34.0	10.7	2.44e-03	0	44	0	1201668096	21	5144
2026-01-30 01:45:06.04	237.56	9.16	-31.1	-34.0	10.4	4.11e-03	0	44	0	1202716672	22	5020
2026-01-30 01:45:07.05	237.49	9.08	-31.2	-34.6	9.9	7.18e-03	0	44	0	1204813824	22	5288
2026-01-30 01:45:08.06	237.43	9.00	-31.1	-34.0	10.4	7.50e-03	0	44	0	1206910976	22	5043
2026-01-30 01:45:09.06	237.36	8.92	-31.0	-33.9	10.4	4.60e-03	0	44	0	1209008128	22	5007
2026-01-30 01:45:10.06	237.30	8.84	-31.2	-34.4	10.0	1.10e-02	0	44	0	1211105280	22	5234
2026-01-30 01:45:11.06	237.23	8.77	-31.2	-34.4	10.0	7.76e-03	0	44	0	1212153856	22	5239
2026-01-30 01:45:12.06	237.17	8.69	-31.3	-34.8	9.7	9.44e-03	0	44	0	1214251008	22	5378
2026-01-30 01:45:13.06	237.10	8.61	-31.3	-34.7	9.8	1.36e-02	0	44	0	1216348160	22	5341
2026-01-30 01:45:14.07	237.04	8.54	-31.4	-35.2	9.4	1.45e-02	0	44	0	1218445312	22	5571
2026-01-30 01:45:15.07	236.98	8.46	-31.4	-34.9	9.1	1.77e-02	0	44	0	1220542464	23	5379
2026-01-30 01:45:16.07	236.91	8.38	-31.4	-35.3	9.2	2.28e-02	0	44	0	1221591040	22	5659
2026-01-30 01:45:17.07	236.85	8.31	-31.6	-35.6	8.7	3.22e-02	0	44	0	1223688192	23	5703
2026-01-30 01:45:18.08	236.79	8.23	-31.5	-35.3	8.9	3.39e-02	0	43	0	1225785344	23	5546
2026-01-30 01:45:19.08	236.73	8.16	-31.6	-35.7	8.5	3.55e-02	0	44	0	1227882496	23	5765
2026-01-30 01:45:20.08	236.67	8.08	-31.6	-35.6	8.6	3.87e-02	0	44	0	1229979648	23	5712
2026-01-30 01:45:21.09	236.60	8.00	-31.5	-35.1	8.9	3.37e-02	0	44	0	1231028224	23	5491
2026-01-30 01:45:22.10	236.54	7.93	-31.5	-35.5	8.7	2.82e-02	0	44	0	1233125376	23	5648
2026-01-30 01:45:23.10	236.48	7.85	-31.6	-35.6	8.6	3.91e-02	0	44	0	1235222528	23	5703
2026-01-30 01:45:24.11	236.42	7.78	-31.6	-35.8	8.3	4.91e-02	0	44	0	1237319680	23	5844
2026-01-30 01:45:25.11	236.36	7.70	-31.5	-35.2	8.8	4.48e-02	0	44	0	1239416832	23	5536
2026-01-30 01:45:26.12	236.30	7.63	-31.4	-35.4	9.1	2.42e-02	0	44	0	1240465408	22	5708
2026-01-30 01:45:27.11	236.24	7.56	-31.3	-34.9	9.4	1.83e-02	0	44	0	1242562560	22	5479
2026-01-30 01:45:28.12	236.19	7.48	-31.2	-34.7	9.6	1.61e-02	0	44	0	1244659712	22	5361
2026-01-30 01:45:29.13	236.13	7.41	-31.2	-34.5	9.7	1.09e-02	0	44	0	1246756864	22	5308
2026-01-30 01:45:30.13	236.07	7.33	-31.1	-34.3	10.0	9.01e-03	0	44	0	1247805440	22	5211
2026-01-30 01:45:31.13	236.01	7.26	-31.1	-34.4	9.8	1.18e-02	0	44	0	1249902592	22	5279
2026-01-30 01:45:32.13	235.95	7.19	-31.3	-35.0	9.3	1.80e-02	0	44	0	1251999744	22	5532
2026-01-30 01:45:33.13	235.90	7.11	-30.9	-33.6	10.3	8.52e-03	0	44	0	1254096896	22	4913
2026-01-30 01:45:34.14	235.84	7.04	-33.3	-45.6	3.8	1.49e+00	0	44	104	1254096896	26	14853
2026-01-30 01:45:35.14	235.78	6.97	-33.7	-46.0	3.8	1.49e+00	0	44	104	1254096896	27	14975

#Closed at: 2026-01-30 01:45:35
#Recorded file [1254 MB]: D:/data/31010_260130_043423.dat