passes_logs/2026/01/30/R2M6_AANII_01/R2M6_AANII_01__20260130_023039_FENGYUN_3D_rec.log

#Pass ID: 20260130_023039_FENGYUN 3D
#Satellite: FENGYUN 3D
#Configuration: FENGYUN 3D
#almurnet v.1.7.20240730
#Start time: 2026-01-30 02:30:39

#Version: 2.2.20231116
#Station: R2M6_AANII_01
#Location: 30.233357 lon 59.946436 lat
#TLE: 1 43010U 17072A   26028.95797775  .00000451  00000+0  23492-3 0  9991
#TLE: 2 43010  98.9958   0.9922 0002505  85.7480 274.3981 14.19703224425237

#Time	Az	El	Level	Level2	SNR	BER	BlckErr	Temp	State	Recorded	gain1	gain2
2026-01-30 02:30:39.43	18.35	7.01	-29.5	-32.2	5.5	7.81e-01	0	41	0	0	19	4883
2026-01-30 02:30:40.43	18.35	7.09	-30.5	-34.1	5.2	7.95e-01	0	41	104	0	21	5404
2026-01-30 02:30:41.43	18.35	7.17	-30.4	-33.5	9.4	2.44e-02	0	41	0	0	21	5176
2026-01-30 02:30:42.44	18.35	7.25	-30.3	-33.8	9.6	1.27e-02	0	41	0	5242880	20	5383
2026-01-30 02:30:43.44	18.35	7.32	-30.3	-33.4	9.5	2.44e-02	0	41	0	11534336	21	5124
2026-01-30 02:30:44.44	18.36	7.40	-29.9	-32.2	10.3	8.32e-03	0	41	0	16777216	21	4683
2026-01-30 02:30:45.44	18.36	7.48	-29.5	-31.5	11.2	3.44e-03	0	41	0	22020096	20	4548
2026-01-30 02:30:46.45	18.36	7.56	-29.2	-31.2	11.8	9.34e-04	0	41	0	28311552	19	4534
2026-01-30 02:30:47.46	18.36	7.64	-28.8	-30.4	12.3	3.17e-04	0	41	0	33554432	19	4295
2026-01-30 02:30:48.46	18.36	7.72	-28.5	-30.0	12.9	9.26e-05	0	41	0	38797312	18	4276
2026-01-30 02:30:49.46	18.36	7.80	-28.5	-29.9	12.9	6.29e-05	0	41	0	45088768	18	4257
2026-01-30 02:30:50.47	18.36	7.88	-28.4	-30.2	13.0	5.26e-05	0	42	0	50331648	17	4465
2026-01-30 02:30:51.48	18.36	7.96	-28.5	-30.6	12.9	8.35e-05	0	41	0	55574528	17	4560
2026-01-30 02:30:52.47	18.36	8.04	-28.7	-30.9	12.6	1.23e-04	0	41	0	61865984	17	4654
2026-01-30 02:30:53.47	18.36	8.12	-28.7	-31.1	12.5	2.39e-04	0	42	0	67108864	17	4740
2026-01-30 02:30:54.48	18.37	8.20	-28.5	-30.4	12.9	1.10e-04	0	42	0	73400320	17	4519
2026-01-30 02:30:55.48	18.37	8.28	-28.1	-29.6	13.4	3.54e-05	0	42	0	78643200	17	4281
2026-01-30 02:30:56.48	18.37	8.36	-27.9	-29.6	13.7	1.37e-05	0	42	0	84934656	16	4379
2026-01-30 02:30:57.48	18.37	8.44	-27.5	-29.3	14.1	6.80e-06	0	42	0	90177536	15	4402
2026-01-30 02:30:58.48	18.37	8.52	-27.2	-28.6	14.4	1.10e-06	0	42	0	95420416	15	4223
2026-01-30 02:30:59.49	18.37	8.60	-27.1	-28.2	14.6	1.10e-06	0	42	0	101711872	15	4121
2026-01-30 02:31:00.49	18.37	8.69	-27.1	-28.7	14.7	1.10e-06	0	41	0	106954752	14	4354
2026-01-30 02:31:01.48	18.37	8.77	-27.2	-29.0	14.5	2.20e-06	0	42	0	112197632	14	4421
2026-01-30 02:31:02.49	18.37	8.85	-27.2	-29.0	14.5	2.20e-06	0	42	0	118489088	14	4435
2026-01-30 02:31:03.49	18.37	8.93	-27.1	-28.8	14.7	0.00e+00	0	42	0	123731968	14	4377
2026-01-30 02:31:04.49	18.37	9.02	-27.0	-28.7	14.7	0.00e+00	0	42	0	128974848	14	4348
2026-01-30 02:31:05.50	18.37	9.10	-27.0	-28.5	14.8	0.00e+00	0	42	0	135266304	14	4305
2026-01-30 02:31:06.51	18.38	9.19	-27.0	-29.0	14.8	0.00e+00	0	42	0	140509184	13	4559
2026-01-30 02:31:07.50	18.38	9.27	-27.1	-28.9	14.6	1.10e-06	0	42	0	146800640	14	4404
2026-01-30 02:31:08.51	18.38	9.35	-27.2	-28.9	14.6	0.00e+00	0	42	0	152043520	14	4404
2026-01-30 02:31:09.51	18.38	9.44	-27.0	-28.6	14.9	1.10e-06	0	42	0	157286400	14	4308
2026-01-30 02:31:10.52	18.38	9.52	-27.0	-28.6	14.8	1.10e-06	0	42	0	163577856	14	4335
2026-01-30 02:31:11.52	18.38	9.61	-27.1	-28.8	14.7	0.00e+00	0	42	0	168820736	14	4367
2026-01-30 02:31:12.52	18.38	9.70	-27.0	-28.7	14.8	1.10e-06	0	42	0	174063616	14	4337
2026-01-30 02:31:13.53	18.38	9.78	-27.1	-28.9	14.7	1.10e-06	0	42	0	180355072	14	4395
2026-01-30 02:31:14.54	18.38	9.87	-27.2	-29.0	14.6	1.10e-06	0	42	0	185597952	14	4428
2026-01-30 02:31:15.54	18.38	9.95	-27.0	-28.5	14.9	1.10e-06	0	42	0	191889408	14	4289
2026-01-30 02:31:16.54	18.38	10.04	-26.9	-28.8	14.9	0.00e+00	0	42	0	197132288	13	4500
2026-01-30 02:31:17.54	18.38	10.13	-26.9	-28.9	14.9	3.31e-04	0	42	0	202375168	13	4515
2026-01-30 02:31:18.55	18.38	10.22	-26.9	-28.8	15.0	1.10e-06	0	42	0	208666624	13	4479
2026-01-30 02:31:19.55	18.38	10.30	-26.9	-28.9	14.9	0.00e+00	0	42	0	213909504	13	4522
2026-01-30 02:31:20.56	18.38	10.39	-27.0	-28.5	14.9	5.70e-06	0	42	0	220200960	14	4282
2026-01-30 02:31:21.56	18.38	10.48	-26.9	-28.3	15.0	0.00e+00	0	42	0	225443840	14	4224
2026-01-30 02:31:22.57	18.38	10.57	-26.8	-28.0	15.2	3.12e-04	0	42	0	230686720	14	4154
2026-01-30 02:31:23.57	18.38	10.66	-26.8	-28.7	15.1	0.00e+00	0	42	0	236978176	13	4457
2026-01-30 02:31:24.57	18.38	10.75	-26.9	-28.8	15.0	2.17e-05	0	42	0	242221056	13	4499
2026-01-30 02:31:25.57	18.38	10.84	-26.7	-28.4	15.2	0.00e+00	0	42	0	247463936	13	4377
2026-01-30 02:31:26.57	18.38	10.93	-26.6	-28.2	15.3	0.00e+00	0	42	0	253755392	13	4328
2026-01-30 02:31:27.58	18.38	11.02	-26.5	-27.9	15.5	0.00e+00	0	42	0	258998272	13	4247
2026-01-30 02:31:28.58	18.38	11.11	-26.5	-27.9	15.5	3.35e-04	0	42	0	265289728	13	4243
2026-01-30 02:31:29.59	18.38	11.20	-26.5	-28.4	15.6	3.52e-04	0	42	0	270532608	12	4478
2026-01-30 02:31:30.59	18.38	11.29	-26.5	-28.0	15.5	0.00e+00	0	42	0	275775488	13	4250
2026-01-30 02:31:31.60	18.38	11.38	-26.6	-28.0	15.5	3.52e-04	0	43	0	282066944	13	4271
2026-01-30 02:31:32.61	18.39	11.48	-26.5	-28.0	15.5	3.42e-04	0	42	0	287309824	13	4250
2026-01-30 02:31:33.62	18.39	11.57	-26.6	-28.2	15.4	0.00e+00	0	42	0	293601280	13	4306
2026-01-30 02:31:34.62	18.39	11.66	-26.5	-28.0	15.5	3.24e-04	0	42	0	298844160	13	4263
2026-01-30 02:31:35.62	18.39	11.76	-26.5	-28.4	15.6	3.38e-04	0	42	0	304087040	12	4475
2026-01-30 02:31:36.63	18.39	11.85	-26.5	-27.9	15.6	0.00e+00	0	42	0	310378496	13	4237
2026-01-30 02:31:37.63	18.38	11.94	-26.5	-28.0	15.5	0.00e+00	0	42	0	315621376	13	4272
2026-01-30 02:31:38.63	18.38	12.04	-26.5	-28.0	15.5	3.78e-04	0	43	0	321912832	13	4274
2026-01-30 02:31:39.64	18.38	12.13	-26.5	-27.8	15.6	0.00e+00	0	43	0	327155712	13	4215
2026-01-30 02:31:40.63	18.38	12.23	-26.4	-28.1	15.7	3.19e-04	0	42	0	332398592	12	4414
2026-01-30 02:31:41.64	18.38	12.32	-26.4	-28.3	15.7	3.19e-04	0	43	0	338690048	12	4446
2026-01-30 02:31:42.65	18.38	12.42	-26.3	-28.1	15.8	0.00e+00	0	42	0	343932928	12	4388
2026-01-30 02:31:43.65	18.38	12.51	-26.3	-28.0	15.8	2.91e-04	0	43	0	349175808	12	4375
2026-01-30 02:31:44.65	18.38	12.61	-26.4	-28.2	15.7	0.00e+00	0	43	0	355467264	12	4435
2026-01-30 02:31:45.66	18.38	12.71	-26.4	-27.7	15.7	0.00e+00	0	42	0	360710144	13	4189
2026-01-30 02:31:46.67	18.38	12.81	-26.3	-27.4	15.9	3.07e-04	0	42	0	367001600	13	4103
2026-01-30 02:31:47.67	18.38	12.90	-26.3	-28.0	15.9	2.47e-04	0	43	0	372244480	12	4359
2026-01-30 02:31:48.67	18.38	13.00	-26.3	-27.9	15.9	0.00e+00	0	43	0	377487360	12	4343
2026-01-30 02:31:49.68	18.38	13.10	-26.2	-27.8	16.0	0.00e+00	0	43	0	383778816	12	4304
2026-01-30 02:31:50.68	18.38	13.20	-26.2	-27.9	16.0	3.17e-04	0	43	0	389021696	12	4331
2026-01-30 02:31:51.69	18.38	13.30	-26.2	-27.7	16.0	0.00e+00	0	43	0	395313152	12	4292
2026-01-30 02:31:52.69	18.38	13.40	-26.1	-27.4	16.2	3.12e-04	0	43	0	400556032	12	4218
2026-01-30 02:31:53.70	18.38	13.50	-26.0	-27.4	16.2	0.00e+00	0	43	0	405798912	12	4204
2026-01-30 02:31:54.71	18.38	13.60	-26.0	-27.2	16.3	0.00e+00	0	43	0	412090368	12	4156
2026-01-30 02:31:55.71	18.38	13.70	-25.9	-27.2	16.3	0.00e+00	0	43	0	417333248	12	4156
2026-01-30 02:31:56.72	18.38	13.80	-25.9	-27.5	16.5	0.00e+00	0	43	0	422576128	11	4353
2026-01-30 02:31:57.72	18.38	13.90	-25.9	-27.6	16.5	0.00e+00	0	43	0	428867584	11	4377
2026-01-30 02:31:58.73	18.38	14.01	-26.0	-27.7	16.4	0.00e+00	0	43	0	434110464	11	4404
2026-01-30 02:31:59.73	18.38	14.11	-25.9	-27.5	16.5	0.00e+00	0	43	0	440401920	11	4356
2026-01-30 02:32:00.73	18.38	14.21	-25.8	-27.3	16.6	0.00e+00	0	43	0	445644800	11	4295
2026-01-30 02:32:01.72	18.37	14.31	-25.9	-27.5	16.5	0.00e+00	0	43	0	450887680	11	4355
2026-01-30 02:32:02.73	18.37	14.42	-25.8	-27.3	16.6	0.00e+00	0	43	0	457179136	11	4302
2026-01-30 02:32:03.74	18.37	14.52	-25.7	-27.2	16.7	0.00e+00	0	43	0	462422016	11	4263
2026-01-30 02:32:04.75	18.37	14.63	-25.8	-27.3	16.7	0.00e+00	0	43	0	468713472	11	4294
2026-01-30 02:32:05.75	18.37	14.73	-25.9	-27.6	16.5	0.00e+00	0	43	0	473956352	11	4363
2026-01-30 02:32:06.76	18.37	14.84	-26.0	-27.7	16.5	0.00e+00	0	43	0	479199232	11	4402
2026-01-30 02:32:07.76	18.37	14.95	-25.9	-27.7	16.5	0.00e+00	0	43	0	485490688	11	4390
2026-01-30 02:32:08.76	18.37	15.05	-26.0	-27.3	16.3	0.00e+00	0	43	0	490733568	12	4184
2026-01-30 02:32:09.76	18.37	15.16	-26.2	-27.7	16.1	0.00e+00	0	43	0	495976448	12	4276
2026-01-30 02:32:10.76	18.37	15.27	-26.1	-27.5	16.3	0.00e+00	0	43	0	502267904	12	4222
2026-01-30 02:32:11.77	18.36	15.38	-25.9	-27.0	16.5	0.00e+00	0	43	0	507510784	12	4117
2026-01-30 02:32:12.77	18.36	15.48	-25.8	-26.8	16.6	0.00e+00	0	43	0	513802240	12	4053
2026-01-30 02:32:13.78	18.36	15.59	-25.7	-27.2	16.7	0.00e+00	0	43	0	519045120	11	4273
2026-01-30 02:32:14.78	18.36	15.70	-25.8	-27.3	16.7	0.00e+00	0	43	0	525336576	11	4280
2026-01-30 02:32:15.78	18.36	15.81	-26.0	-27.8	16.4	0.00e+00	0	43	0	530579456	11	4424
2026-01-30 02:32:16.78	18.36	15.92	-25.7	-26.8	16.7	0.00e+00	0	43	0	535822336	12	4046
2026-01-30 02:32:17.78	18.36	16.03	-25.5	-26.7	17.0	0.00e+00	0	43	0	541065216	11	4142
2026-01-30 02:32:18.79	18.36	16.15	-25.6	-27.0	16.9	0.00e+00	0	43	0	547356672	11	4200
2026-01-30 02:32:19.80	18.35	16.26	-25.5	-26.7	17.0	0.00e+00	0	43	0	552599552	11	4145
2026-01-30 02:32:20.81	18.35	16.37	-25.3	-26.4	17.3	0.00e+00	0	43	0	558891008	11	4043
2026-01-30 02:32:21.81	18.35	16.49	-25.3	-26.3	17.3	0.00e+00	0	43	0	564133888	11	4020
2026-01-30 02:32:22.82	18.35	16.60	-25.3	-26.8	17.3	0.00e+00	0	43	0	569376768	10	4278
2026-01-30 02:32:23.82	18.35	16.71	-25.3	-26.8	17.3	0.00e+00	0	43	0	575668224	10	4262
2026-01-30 02:32:24.82	18.35	16.83	-25.3	-26.7	17.3	0.00e+00	0	43	0	580911104	10	4245
2026-01-30 02:32:25.82	18.34	16.94	-25.3	-26.7	17.3	0.00e+00	0	43	0	587202560	10	4260
2026-01-30 02:32:26.82	18.34	17.06	-25.4	-27.0	17.2	0.00e+00	0	43	0	592445440	10	4317
2026-01-30 02:32:27.83	18.34	17.18	-25.4	-26.9	17.3	0.00e+00	0	43	0	597688320	10	4295
2026-01-30 02:32:28.83	18.34	17.29	-25.2	-26.6	17.4	0.00e+00	0	43	0	603979776	10	4233
2026-01-30 02:32:29.83	18.34	17.41	-25.2	-26.5	17.4	0.00e+00	0	43	0	609222656	10	4205
2026-01-30 02:32:30.83	18.33	17.53	-25.3	-26.7	17.4	0.00e+00	0	43	0	615514112	10	4235
2026-01-30 02:32:31.82	18.33	17.64	-25.2	-26.5	17.5	0.00e+00	0	43	0	620756992	10	4201
2026-01-30 02:32:32.82	18.33	17.76	-25.2	-26.6	17.4	0.00e+00	0	43	0	625999872	10	4219
2026-01-30 02:32:33.83	18.33	17.88	-25.2	-26.5	17.4	0.00e+00	0	43	0	631242752	10	4194
2026-01-30 02:32:34.83	18.33	18.00	-25.2	-26.6	17.4	0.00e+00	0	43	0	637534208	10	4207
2026-01-30 02:32:35.83	18.32	18.12	-25.2	-26.5	17.5	0.00e+00	0	43	0	642777088	10	4205
2026-01-30 02:32:36.84	18.32	18.25	-25.2	-26.5	17.4	0.00e+00	0	43	0	649068544	10	4207
2026-01-30 02:32:37.84	18.32	18.37	-25.3	-26.9	17.3	0.00e+00	0	43	0	654311424	10	4283
2026-01-30 02:32:38.85	18.32	18.49	-25.2	-26.6	17.4	0.00e+00	0	43	0	660602880	10	4211
2026-01-30 02:32:39.84	18.31	18.61	-25.1	-26.4	17.5	0.00e+00	0	43	0	665845760	10	4170
2026-01-30 02:32:40.85	18.31	18.74	-25.1	-26.3	17.5	0.00e+00	0	43	0	671088640	10	4154
2026-01-30 02:32:41.85	18.31	18.86	-25.2	-26.5	17.5	0.00e+00	0	43	0	677380096	10	4197
2026-01-30 02:32:42.85	18.31	18.99	-25.1	-26.4	16.3	0.00e+00	0	43	0	682622976	10	4166
2026-01-30 02:32:43.85	18.30	19.11	-25.0	-26.1	17.5	0.00e+00	0	43	0	687865856	10	4099
2026-01-30 02:32:44.85	18.30	19.24	-24.9	-26.0	17.8	0.00e+00	0	43	0	694157312	10	4056
2026-01-30 02:32:45.86	18.30	19.37	-24.9	-26.0	17.8	0.00e+00	0	43	0	699400192	10	4058
2026-01-30 02:32:46.86	18.30	19.50	-24.8	-25.7	17.9	0.00e+00	0	43	0	704643072	10	3997
2026-01-30 02:32:47.86	18.29	19.62	-24.7	-25.5	18.0	0.00e+00	0	43	0	710934528	10	3935
2026-01-30 02:32:48.87	18.29	19.75	-24.7	-26.0	18.0	0.00e+00	0	43	0	716177408	9	4171
2026-01-30 02:32:49.87	18.29	19.88	-24.7	-25.9	18.1	0.00e+00	0	43	0	722468864	9	4150
2026-01-30 02:32:50.88	18.28	20.02	-24.6	-25.9	18.1	0.00e+00	0	43	0	727711744	9	4141
2026-01-30 02:32:51.88	18.28	20.15	-24.8	-26.2	17.9	2.17e-04	0	43	0	734003200	9	4233
2026-01-30 02:32:52.89	18.28	20.28	-24.7	-25.9	18.0	8.00e-06	0	43	0	739246080	9	4159
2026-01-30 02:32:53.89	18.27	20.41	-24.6	-25.9	18.1	0.00e+00	0	43	0	744488960	9	4140
2026-01-30 02:32:54.90	18.27	20.55	-24.7	-25.9	18.1	2.53e-04	0	43	0	750780416	9	4148
2026-01-30 02:32:55.91	18.27	20.68	-24.6	-25.9	18.1	0.00e+00	0	43	0	756023296	9	4143
2026-01-30 02:32:56.91	18.26	20.82	-24.7	-26.0	18.1	0.00e+00	0	43	0	761266176	9	4172
2026-01-30 02:32:57.91	18.26	20.95	-24.7	-26.0	18.0	0.00e+00	0	43	0	767557632	9	4186
2026-01-30 02:32:58.92	18.26	21.09	-24.7	-26.0	18.1	2.55e-04	0	43	0	772800512	9	4172
2026-01-30 02:32:59.92	18.25	21.22	-24.8	-26.2	17.9	0.00e+00	0	43	0	778043392	9	4238
2026-01-30 02:33:00.92	18.25	21.36	-24.7	-25.9	18.1	0.00e+00	0	43	0	784334848	9	4152
2026-01-30 02:33:01.93	18.25	21.50	-24.6	-25.8	18.2	2.38e-04	0	43	0	789577728	9	4114
2026-01-30 02:33:02.93	18.24	21.64	-24.7	-25.9	18.1	0.00e+00	0	43	0	795869184	9	4150
2026-01-30 02:33:03.93	18.24	21.78	-24.6	-25.7	18.2	2.30e-04	0	43	0	801112064	9	4093
2026-01-30 02:33:04.94	18.23	21.92	-24.6	-25.7	18.2	2.36e-04	0	43	0	807403520	9	4113
2026-01-30 02:33:05.94	18.23	22.06	-24.7	-26.0	18.1	0.00e+00	0	43	0	812646400	9	4186
2026-01-30 02:33:06.94	18.23	22.21	-24.8	-26.2	18.0	2.41e-04	0	43	0	817889280	9	4240
2026-01-30 02:33:07.95	18.22	22.35	-24.7	-26.0	18.1	2.21e-04	0	43	0	824180736	9	4185
2026-01-30 02:33:08.95	18.22	22.49	-24.6	-25.8	18.2	0.00e+00	0	43	0	829423616	9	4130
2026-01-30 02:33:09.95	18.21	22.64	-24.6	-25.7	18.3	1.93e-04	0	43	0	834666496	9	4095
2026-01-30 02:33:10.95	18.21	22.78	-24.6	-25.7	18.2	2.00e-04	0	43	0	840957952	9	4100
2026-01-30 02:33:11.96	18.20	22.93	-24.5	-25.5	18.3	0.00e+00	0	43	0	846200832	9	4061
2026-01-30 02:33:12.96	18.20	23.08	-24.7	-26.0	18.1	1.81e-04	0	43	0	851443712	9	4169
2026-01-30 02:33:13.96	18.19	23.23	-24.4	-25.4	18.4	1.74e-04	0	43	0	857735168	9	4029
2026-01-30 02:33:14.97	18.19	23.38	-24.2	-25.0	18.7	0.00e+00	0	43	0	862978048	9	3925
2026-01-30 02:33:15.97	18.18	23.53	-24.1	-24.7	18.8	1.93e-04	0	43	0	869269504	9	3854
2026-01-30 02:33:16.97	18.18	23.68	-24.1	-24.8	18.8	0.00e+00	0	43	0	874512384	9	3875
2026-01-30 02:33:17.97	18.17	23.83	-24.0	-24.5	18.9	0.00e+00	0	43	0	879755264	9	3818
2026-01-30 02:33:18.97	18.17	23.98	-23.9	-24.8	19.0	1.66e-04	0	43	0	886046720	8	3983
2026-01-30 02:33:19.97	18.16	24.13	-23.8	-24.6	19.1	1.86e-04	0	43	0	891289600	8	3948
2026-01-30 02:33:20.97	18.16	24.29	-23.9	-24.7	19.1	0.00e+00	0	43	0	896532480	8	3972
2026-01-30 02:33:21.97	18.15	24.44	-23.8	-24.6	19.1	0.00e+00	0	43	0	902823936	8	3929
2026-01-30 02:33:22.97	18.15	24.60	-23.7	-24.3	19.2	1.74e-04	0	43	0	908066816	8	3878
2026-01-30 02:33:23.97	18.14	24.75	-23.7	-24.3	19.3	0.00e+00	0	43	0	914358272	8	3858
2026-01-30 02:33:24.97	18.14	24.91	-23.7	-24.3	19.3	1.58e-04	0	43	0	919601152	8	3876
2026-01-30 02:33:25.97	18.13	25.07	-23.8	-24.5	19.2	1.58e-04	0	43	0	924844032	8	3917
2026-01-30 02:33:26.98	18.13	25.23	-23.7	-24.4	19.2	0.00e+00	0	43	0	931135488	8	3895
2026-01-30 02:33:27.97	18.12	25.39	-23.8	-24.6	19.1	1.45e-04	0	43	0	936378368	8	3946
2026-01-30 02:33:28.97	18.11	25.55	-23.8	-24.5	19.2	0.00e+00	0	43	0	941621248	8	3911
2026-01-30 02:33:29.98	18.11	25.72	-23.8	-24.6	19.2	0.00e+00	0	43	0	947912704	8	3939
2026-01-30 02:33:30.98	18.10	25.88	-24.0	-25.0	18.9	0.00e+00	0	43	0	953155584	8	4035
2026-01-30 02:33:31.98	18.09	26.04	-23.8	-24.6	19.2	0.00e+00	0	43	0	959447040	8	3944
2026-01-30 02:33:32.98	18.09	26.21	-24.0	-25.0	19.0	0.00e+00	0	43	0	964689920	8	4032
2026-01-30 02:33:33.99	18.08	26.38	-23.8	-24.6	19.1	0.00e+00	0	43	0	969932800	8	3945
2026-01-30 02:33:34.99	18.07	26.55	-23.7	-24.4	19.3	1.35e-04	0	43	0	976224256	8	3881
2026-01-30 02:33:35.99	18.07	26.71	-23.6	-24.2	19.4	0.00e+00	0	43	0	981467136	8	3836
2026-01-30 02:33:36.99	18.06	26.88	-23.6	-24.6	19.4	0.00e+00	0	43	0	987758592	7	4057
2026-01-30 02:33:38.00	18.05	27.06	-23.6	-24.6	19.4	0.00e+00	0	43	0	993001472	7	4062
2026-01-30 02:33:39.00	18.05	27.23	-23.7	-24.9	19.3	0.00e+00	0	43	0	998244352	7	4122
2026-01-30 02:33:40.00	18.04	27.40	-23.6	-24.7	19.4	0.00e+00	0	43	0	1004535808	7	4077
2026-01-30 02:33:41.01	18.03	27.58	-23.6	-24.6	19.4	0.00e+00	0	43	0	1009778688	7	4060
2026-01-30 02:33:42.02	18.02	27.76	-23.7	-24.8	19.3	0.00e+00	0	43	0	1015021568	7	4090
2026-01-30 02:33:43.02	18.02	27.93	-23.6	-24.5	19.5	0.00e+00	0	43	0	1021313024	7	4033
2026-01-30 02:33:44.03	18.01	28.11	-23.6	-24.6	19.4	0.00e+00	0	43	0	1026555904	7	4042
2026-01-30 02:33:45.04	18.00	28.29	-23.7	-24.9	19.3	0.00e+00	0	43	0	1032847360	7	4118
2026-01-30 02:33:46.05	17.99	28.47	-23.7	-24.9	19.3	0.00e+00	0	44	0	1038090240	7	4123
2026-01-30 02:33:47.05	17.98	28.65	-23.7	-24.8	19.3	0.00e+00	0	43	0	1043333120	7	4108
2026-01-30 02:33:48.05	17.98	28.84	-23.7	-24.9	19.3	0.00e+00	0	43	0	1049624576	7	4121
2026-01-30 02:33:49.06	17.97	29.02	-23.8	-25.1	19.2	0.00e+00	0	43	0	1054867456	7	4171
2026-01-30 02:33:50.07	17.96	29.21	-23.8	-25.0	19.2	0.00e+00	0	43	0	1061158912	7	4142
2026-01-30 02:33:51.07	17.95	29.39	-23.8	-25.0	19.2	0.00e+00	0	43	0	1066401792	7	4153
2026-01-30 02:33:52.08	17.94	29.58	-24.1	-25.2	18.9	0.00e+00	0	43	0	1072693248	8	4098
2026-01-30 02:33:53.08	17.93	29.77	-24.4	-25.9	18.6	0.00e+00	0	43	0	1077936128	8	4253
2026-01-30 02:33:54.08	17.92	29.96	-24.0	-25.0	19.0	0.00e+00	0	43	0	1083179008	8	4029
2026-01-30 02:33:55.08	17.91	30.15	-23.7	-24.4	19.3	0.00e+00	0	43	0	1089470464	8	3882
2026-01-30 02:33:56.08	17.90	30.35	-23.6	-24.1	19.5	0.00e+00	0	43	0	1094713344	8	3812
2026-01-30 02:33:57.09	17.89	30.54	-23.5	-23.9	19.6	0.00e+00	0	43	0	1099956224	8	3775
2026-01-30 02:33:58.10	17.88	30.74	-23.6	-24.1	19.5	0.00e+00	0	43	0	1106247680	8	3823
2026-01-30 02:33:59.11	17.87	30.94	-23.4	-23.8	19.6	0.00e+00	0	43	0	1111490560	8	3758
2026-01-30 02:34:00.12	17.86	31.14	-23.6	-24.0	19.5	0.00e+00	0	43	0	1116733440	8	3808
2026-01-30 02:34:01.12	17.85	31.33	-23.4	-23.7	19.7	0.00e+00	0	43	0	1123024896	8	3732
2026-01-30 02:34:02.12	17.84	31.53	-23.3	-23.9	19.8	0.00e+00	0	43	0	1128267776	7	3890
2026-01-30 02:34:03.12	17.83	31.74	-23.3	-24.1	19.7	0.00e+00	0	43	0	1134559232	7	3929
2026-01-30 02:34:04.13	17.82	31.94	-23.5	-24.5	19.5	0.00e+00	0	43	0	1139802112	7	4024
2026-01-30 02:34:05.13	17.81	32.15	-23.4	-24.2	19.7	0.00e+00	0	43	0	1146093568	7	3963
2026-01-30 02:34:06.14	17.80	32.35	-23.4	-24.3	19.6	0.00e+00	0	43	0	1151336448	7	3974
2026-01-30 02:34:07.14	17.79	32.56	-23.6	-24.6	19.5	0.00e+00	0	43	0	1156579328	7	4046
2026-01-30 02:34:08.15	17.77	32.77	-23.5	-24.3	19.6	0.00e+00	0	43	0	1162870784	7	3989
2026-01-30 02:34:09.15	17.76	32.98	-23.5	-24.4	19.6	0.00e+00	0	43	0	1168113664	7	3997
2026-01-30 02:34:10.15	17.75	33.19	-23.5	-24.5	19.5	0.00e+00	0	43	0	1173356544	7	4035
2026-01-30 02:34:11.15	17.74	33.41	-23.7	-24.9	19.3	0.00e+00	0	43	0	1179648000	7	4123
2026-01-30 02:34:12.16	17.73	33.62	-23.8	-25.1	19.2	0.00e+00	0	44	0	1184890880	7	4183
2026-01-30 02:34:13.16	17.71	33.84	-23.6	-24.7	19.4	0.00e+00	0	43	0	1190133760	7	4075
2026-01-30 02:34:14.16	17.70	34.06	-23.5	-24.4	19.6	0.00e+00	0	44	0	1196425216	7	4006
2026-01-30 02:34:15.16	17.69	34.28	-23.4	-24.2	19.7	0.00e+00	0	43	0	1201668096	7	3943
2026-01-30 02:34:16.16	17.67	34.50	-23.4	-24.2	19.7	0.00e+00	0	44	0	1207959552	7	3947
2026-01-30 02:34:17.16	17.66	34.72	-23.5	-24.4	19.5	0.00e+00	0	44	0	1213202432	7	4011
2026-01-30 02:34:18.17	17.65	34.95	-23.5	-24.4	18.6	0.00e+00	0	43	0	1218445312	7	4005
2026-01-30 02:34:19.17	17.63	35.17	-23.7	-25.0	19.3	0.00e+00	0	43	0	1224736768	7	4138
2026-01-30 02:34:20.18	17.62	35.40	-23.6	-24.7	19.4	0.00e+00	0	43	0	1229979648	7	4074
2026-01-30 02:34:21.18	17.60	35.63	-23.6	-24.6	19.5	0.00e+00	0	44	0	1235222528	7	4064
2026-01-30 02:34:22.19	17.59	35.87	-23.6	-24.6	19.5	1.13e-04	0	43	0	1241513984	7	4052
2026-01-30 02:34:23.19	17.57	36.10	-23.4	-24.2	19.7	0.00e+00	0	43	0	1246756864	7	3966
2026-01-30 02:34:24.19	17.56	36.33	-23.4	-24.3	19.7	0.00e+00	0	43	0	1253048320	7	3969
2026-01-30 02:34:25.19	17.54	36.57	-23.5	-24.4	19.6	1.10e-04	0	43	0	1258291200	7	4010
2026-01-30 02:34:26.19	17.52	36.81	-23.7	-24.9	19.3	0.00e+00	0	43	0	1263534080	7	4125
2026-01-30 02:34:27.20	17.51	37.05	-23.8	-25.1	19.2	9.04e-05	0	43	0	1269825536	7	4172
2026-01-30 02:34:28.19	17.49	37.29	-23.6	-24.7	19.4	0.00e+00	0	43	0	1275068416	7	4077
2026-01-30 02:34:29.19	17.47	37.53	-23.5	-24.4	19.6	0.00e+00	0	43	0	1281359872	7	3990
2026-01-30 02:34:30.19	17.46	37.77	-23.4	-24.3	19.7	7.43e-05	0	43	0	1286602752	7	3968
2026-01-30 02:34:31.19	17.44	38.02	-23.5	-24.4	19.6	0.00e+00	0	43	0	1291845632	7	3999
2026-01-30 02:34:32.19	17.42	38.27	-23.5	-24.5	19.6	0.00e+00	0	43	0	1298137088	7	4024
2026-01-30 02:34:33.19	17.40	38.52	-23.9	-24.9	19.2	0.00e+00	0	43	0	1303379968	8	3997
2026-01-30 02:34:34.20	17.38	38.77	-23.6	-24.1	19.5	8.92e-05	0	44	0	1308622848	8	3819
2026-01-30 02:34:35.19	17.37	39.02	-23.3	-23.6	19.8	0.00e+00	0	43	0	1314914304	8	3716
2026-01-30 02:34:36.19	17.35	39.28	-23.2	-23.9	19.9	1.12e-04	0	43	0	1320157184	7	3879
2026-01-30 02:34:37.19	17.33	39.54	-23.4	-24.1	19.7	1.11e-04	0	43	0	1325400064	7	3941
2026-01-30 02:34:38.20	17.31	39.80	-23.1	-23.6	20.0	0.00e+00	0	43	0	1331691520	7	3804
2026-01-30 02:34:39.19	17.29	40.06	-23.1	-23.7	20.0	8.81e-05	0	43	0	1336934400	7	3829
2026-01-30 02:34:40.19	17.26	40.32	-23.2	-23.7	20.0	0.00e+00	0	44	0	1343225856	7	3842
2026-01-30 02:34:41.20	17.24	40.59	-23.3	-23.9	19.9	0.00e+00	0	43	0	1348468736	7	3886
2026-01-30 02:34:42.20	17.22	40.86	-23.4	-24.2	19.7	9.49e-05	0	43	0	1353711616	7	3954
2026-01-30 02:34:43.20	17.20	41.13	-23.3	-24.1	19.8	9.61e-05	0	43	0	1360003072	7	3921
2026-01-30 02:34:44.20	17.18	41.40	-23.5	-24.5	19.6	0.00e+00	0	43	0	1365245952	7	4026
2026-01-30 02:34:45.20	17.15	41.67	-23.7	-24.9	19.4	0.00e+00	0	44	0	1370488832	7	4124
2026-01-30 02:34:46.20	17.13	41.95	-23.5	-24.5	19.6	5.26e-05	0	43	0	1376780288	7	4024
2026-01-30 02:34:47.20	17.11	42.22	-23.4	-24.2	19.8	0.00e+00	0	43	0	1382023168	7	3954
2026-01-30 02:34:48.21	17.08	42.51	-23.4	-24.2	19.8	2.40e-05	0	43	0	1387266048	7	3948
2026-01-30 02:34:49.21	17.06	42.79	-23.5	-24.4	19.6	8.00e-06	0	43	0	1393557504	7	4002
2026-01-30 02:34:50.22	17.03	43.07	-23.4	-24.3	19.7	0.00e+00	0	43	0	1398800384	7	3974
2026-01-30 02:34:51.21	17.01	43.36	-23.5	-24.4	19.7	1.10e-06	0	43	0	1405091840	7	3999
2026-01-30 02:34:52.21	16.98	43.65	-23.7	-24.8	19.5	0.00e+00	0	44	0	1410334720	7	4089
2026-01-30 02:34:53.21	16.95	43.94	-23.7	-24.9	19.4	0.00e+00	0	43	0	1415577600	7	4126
2026-01-30 02:34:54.22	16.92	44.23	-23.8	-25.0	19.3	0.00e+00	0	43	0	1421869056	7	4158
2026-01-30 02:34:55.22	16.90	44.53	-23.5	-24.5	19.6	0.00e+00	0	43	0	1427111936	7	4026
2026-01-30 02:34:56.22	16.87	44.82	-23.4	-24.1	19.8	0.00e+00	0	43	0	1432354816	7	3939
2026-01-30 02:34:57.22	16.84	45.12	-23.4	-24.3	19.7	0.00e+00	0	43	0	1438646272	7	3967
2026-01-30 02:34:58.23	16.81	45.43	-23.4	-24.3	19.7	0.00e+00	0	43	0	1443889152	7	3972
2026-01-30 02:34:59.23	16.78	45.73	-23.5	-24.4	19.7	0.00e+00	0	43	0	1449132032	7	4000
2026-01-30 02:35:00.22	16.75	46.03	-23.6	-24.7	19.6	0.00e+00	0	43	0	1455423488	7	4066
2026-01-30 02:35:01.22	16.71	46.34	-23.7	-24.9	19.4	0.00e+00	0	43	0	1460666368	7	4118
2026-01-30 02:35:02.23	16.68	46.66	-23.9	-25.4	19.2	0.00e+00	0	43	0	1466957824	7	4239
2026-01-30 02:35:03.22	16.65	46.97	-23.9	-25.2	19.2	0.00e+00	0	43	0	1472200704	7	4210
2026-01-30 02:35:04.22	16.61	47.28	-23.7	-24.9	19.4	0.00e+00	0	43	0	1477443584	7	4134
2026-01-30 02:35:05.23	16.58	47.60	-23.5	-24.5	19.7	0.00e+00	0	43	0	1483735040	7	4016
2026-01-30 02:35:06.23	16.54	47.92	-23.5	-24.5	19.6	0.00e+00	0	43	0	1488977920	7	4020
2026-01-30 02:35:07.24	16.50	48.25	-23.7	-24.8	19.5	0.00e+00	0	43	0	1495269376	7	4094
2026-01-30 02:35:08.24	16.47	48.58	-23.8	-25.0	19.4	0.00e+00	0	43	0	1500512256	7	4144
2026-01-30 02:35:09.24	16.43	48.90	-24.2	-25.4	18.9	0.00e+00	0	43	0	1505755136	8	4148
2026-01-30 02:35:10.25	16.39	49.24	-24.1	-25.1	19.1	0.00e+00	0	43	0	1512046592	8	4072
2026-01-30 02:35:11.25	16.35	49.57	-23.6	-24.2	19.5	0.00e+00	0	43	0	1517289472	8	3854
2026-01-30 02:35:12.25	16.31	49.90	-23.6	-24.2	19.6	0.00e+00	0	43	0	1522532352	8	3840
2026-01-30 02:35:13.26	16.26	50.24	-23.9	-24.7	19.2	0.00e+00	0	43	0	1528823808	8	3968
2026-01-30 02:35:14.25	16.22	50.58	-23.7	-24.3	19.4	0.00e+00	0	43	0	1534066688	8	3878
2026-01-30 02:35:15.25	16.18	50.92	-23.5	-23.9	19.7	0.00e+00	0	43	0	1540358144	8	3767
2026-01-30 02:35:16.26	16.13	51.27	-23.6	-24.1	19.6	0.00e+00	0	43	0	1545601024	8	3818
2026-01-30 02:35:17.27	16.08	51.62	-23.9	-24.7	19.3	0.00e+00	0	44	0	1550843904	8	3967
2026-01-30 02:35:18.27	16.04	51.97	-24.0	-24.9	19.2	0.00e+00	0	43	0	1557135360	8	4021
2026-01-30 02:35:19.27	15.99	52.33	-24.3	-25.7	18.8	0.00e+00	0	43	0	1562378240	8	4216
2026-01-30 02:35:20.27	15.94	52.68	-24.5	-25.6	18.6	0.00e+00	0	43	0	1567621120	9	4059
2026-01-30 02:35:21.27	15.88	53.04	-24.7	-26.0	18.4	0.00e+00	0	43	0	1573912576	9	4166
2026-01-30 02:35:22.27	15.83	53.40	-24.5	-25.6	18.6	0.00e+00	0	43	0	1579155456	9	4065
2026-01-30 02:35:23.27	15.78	53.76	-24.3	-25.0	18.9	0.00e+00	0	44	0	1584398336	9	3930
2026-01-30 02:35:24.28	15.72	54.13	-24.2	-24.9	18.9	0.00e+00	0	43	0	1590689792	9	3907
2026-01-30 02:35:25.28	15.66	54.50	-24.4	-25.3	18.7	0.00e+00	0	44	0	1595932672	9	4001
2026-01-30 02:35:26.29	15.60	54.87	-24.6	-25.8	18.5	0.00e+00	0	43	0	1602224128	9	4122
2026-01-30 02:35:27.29	15.54	55.25	-24.8	-26.3	18.3	0.00e+00	0	43	0	1607467008	9	4232
2026-01-30 02:35:28.29	15.48	55.62	-24.4	-25.4	18.7	0.00e+00	0	43	0	1613758464	9	4015
2026-01-30 02:35:29.29	15.42	56.00	-24.2	-24.9	19.0	0.00e+00	0	44	0	1619001344	9	3903
2026-01-30 02:35:30.30	15.35	56.38	-24.4	-25.3	18.8	0.00e+00	0	44	0	1624244224	9	3985
2026-01-30 02:35:31.30	15.28	56.77	-24.6	-25.7	18.6	0.00e+00	0	43	0	1630535680	9	4085
2026-01-30 02:35:32.30	15.21	57.15	-24.5	-25.4	18.7	0.00e+00	0	43	0	1635778560	9	4025
2026-01-30 02:35:33.30	15.14	57.54	-24.2	-24.9	19.0	0.00e+00	0	44	0	1641021440	9	3893
2026-01-30 02:35:34.30	15.06	57.94	-24.0	-24.5	19.2	0.00e+00	0	43	0	1647312896	9	3802
2026-01-30 02:35:35.30	14.99	58.33	-24.2	-24.9	19.0	0.00e+00	0	43	0	1652555776	9	3896
2026-01-30 02:35:36.31	14.91	58.73	-24.2	-25.0	19.0	0.00e+00	0	43	0	1658847232	9	3925
2026-01-30 02:35:37.32	14.82	59.13	-23.8	-24.2	19.4	0.00e+00	0	44	0	1664090112	9	3729
2026-01-30 02:35:38.32	14.74	59.54	-23.8	-24.5	19.5	0.00e+00	0	44	0	1669332992	8	3900
2026-01-30 02:35:39.33	14.65	59.94	-23.7	-24.3	19.6	0.00e+00	0	44	0	1675624448	8	3861
2026-01-30 02:35:40.33	14.56	60.35	-23.4	-23.7	19.9	0.00e+00	0	44	0	1680867328	8	3729
2026-01-30 02:35:41.34	14.46	60.76	-23.4	-23.7	19.9	0.00e+00	0	43	0	1687158784	8	3731
2026-01-30 02:35:42.34	14.37	61.18	-23.5	-23.9	19.8	0.00e+00	0	43	0	1692401664	8	3786
2026-01-30 02:35:43.34	14.27	61.59	-23.1	-23.7	20.1	0.00e+00	0	43	0	1697644544	7	3828
2026-01-30 02:35:44.34	14.16	62.01	-23.0	-23.3	20.3	0.00e+00	0	43	0	1703936000	7	3738
2026-01-30 02:35:45.34	14.06	62.43	-23.1	-23.6	20.2	0.00e+00	0	43	0	1709178880	7	3801
2026-01-30 02:35:46.35	13.94	62.86	-22.9	-23.1	20.4	0.00e+00	0	43	0	1714421760	7	3710
2026-01-30 02:35:47.36	13.83	63.29	-22.9	-23.1	20.4	0.00e+00	0	44	0	1720713216	7	3702
2026-01-30 02:35:48.36	13.71	63.71	-22.7	-23.4	20.5	0.00e+00	0	44	0	1725956096	6	3866
2026-01-30 02:35:49.37	13.58	64.15	-22.5	-22.9	20.8	0.00e+00	0	43	0	1732247552	6	3748
2026-01-30 02:35:50.36	13.45	64.57	-22.7	-23.3	20.5	0.00e+00	0	44	0	1737490432	6	3850
2026-01-30 02:35:51.37	13.32	65.01	-23.2	-24.3	20.0	0.00e+00	0	43	0	1742733312	6	4075
2026-01-30 02:35:52.37	13.18	65.45	-23.2	-24.4	20.0	0.00e+00	0	43	0	1749024768	6	4119
2026-01-30 02:35:53.38	13.03	65.89	-23.1	-24.1	20.1	0.00e+00	0	43	0	1754267648	6	4043
2026-01-30 02:35:54.38	12.88	66.34	-22.9	-23.7	20.3	0.00e+00	0	44	0	1759510528	6	3954
2026-01-30 02:35:55.38	12.72	66.78	-22.9	-23.6	20.3	0.00e+00	0	43	0	1765801984	6	3929
2026-01-30 02:35:56.38	12.55	67.23	-22.9	-23.7	20.3	0.00e+00	0	44	0	1771044864	6	3939
2026-01-30 02:35:57.38	12.38	67.67	-23.1	-24.1	20.1	0.00e+00	0	43	0	1777336320	6	4041
2026-01-30 02:35:58.38	12.20	68.12	-23.0	-23.9	20.2	0.00e+00	0	43	0	1782579200	6	4002
2026-01-30 02:35:59.39	12.01	68.58	-22.8	-23.5	20.4	0.00e+00	0	43	0	1787822080	6	3902
2026-01-30 02:36:00.39	11.81	69.04	-23.0	-24.0	20.2	0.00e+00	0	44	0	1794113536	6	4006
2026-01-30 02:36:01.39	11.60	69.49	-23.3	-24.6	19.9	0.00e+00	0	43	0	1799356416	6	4168
2026-01-30 02:36:02.39	11.38	69.95	-22.8	-23.6	20.4	0.00e+00	0	44	0	1805647872	6	3918
2026-01-30 02:36:03.40	11.15	70.42	-22.8	-23.4	20.5	0.00e+00	0	43	0	1810890752	6	3878
2026-01-30 02:36:04.40	10.91	70.88	-22.9	-23.6	20.4	0.00e+00	0	43	0	1816133632	6	3921
2026-01-30 02:36:05.40	10.65	71.34	-22.5	-22.8	20.8	0.00e+00	0	44	0	1822425088	6	3726
2026-01-30 02:36:06.41	10.38	71.81	-22.4	-22.7	20.8	0.00e+00	0	44	0	1827667968	6	3711
2026-01-30 02:36:07.41	10.09	72.28	-22.4	-22.7	20.8	0.00e+00	0	44	0	1832910848	6	3712
2026-01-30 02:36:08.41	9.79	72.75	-22.0	-22.4	21.2	0.00e+00	0	44	0	1839202304	5	3755
2026-01-30 02:36:09.41	9.47	73.22	-21.6	-22.0	21.6	0.00e+00	0	44	0	1844445184	4	3778
2026-01-30 02:36:10.41	9.14	73.69	-21.8	-22.3	21.5	0.00e+00	0	44	0	1849688064	4	3840
2026-01-30 02:36:11.41	8.77	74.17	-21.9	-22.7	21.3	0.00e+00	0	43	0	1855979520	4	3926
2026-01-30 02:36:12.42	8.39	74.65	-21.6	-21.9	21.7	0.00e+00	0	44	0	1861222400	4	3750
2026-01-30 02:36:13.43	7.97	75.13	-21.5	-21.8	21.8	0.00e+00	0	43	0	1867513856	4	3714
2026-01-30 02:36:14.43	7.53	75.60	-22.0	-22.7	21.3	0.00e+00	0	44	0	1872756736	4	3939
2026-01-30 02:36:15.43	7.06	76.08	-21.6	-22.1	21.6	0.00e+00	0	43	0	1879048192	4	3791
2026-01-30 02:36:16.44	6.55	76.56	-21.3	-21.4	22.0	0.00e+00	0	43	0	1884291072	4	3648
2026-01-30 02:36:17.43	6.02	77.04	-21.8	-22.4	21.5	0.00e+00	0	43	0	1889533952	4	3850
2026-01-30 02:36:18.44	5.42	77.52	-21.8	-22.4	21.5	0.00e+00	0	43	0	1895825408	4	3873
2026-01-30 02:36:19.44	4.79	78.00	-21.3	-21.9	22.0	0.00e+00	0	44	0	1901068288	3	3844
2026-01-30 02:36:20.44	4.10	78.48	-21.2	-21.7	22.1	0.00e+00	0	43	0	1906311168	3	3815
2026-01-30 02:36:21.45	3.34	78.96	-21.3	-21.9	22.0	0.00e+00	0	44	0	1912602624	3	3864
2026-01-30 02:36:22.45	2.52	79.44	-21.1	-21.4	22.3	0.00e+00	0	44	0	1917845504	3	3749
2026-01-30 02:36:23.45	1.61	79.92	-21.0	-21.2	22.3	0.00e+00	0	44	0	1923088384	3	3705
2026-01-30 02:36:24.45	0.62	80.39	-21.3	-21.8	22.0	0.00e+00	0	44	0	1929379840	3	3843
2026-01-30 02:36:25.46	359.51	80.87	-21.4	-22.2	21.9	0.00e+00	0	44	0	1934622720	3	3918
2026-01-30 02:36:26.46	358.29	81.34	-21.0	-21.3	22.3	0.00e+00	0	44	0	1940914176	3	3724
2026-01-30 02:36:27.46	356.92	81.81	-20.8	-20.9	22.5	0.00e+00	0	44	0	1946157056	3	3623
2026-01-30 02:36:28.46	355.39	82.27	-21.0	-21.3	22.3	0.00e+00	0	44	0	1951399936	3	3715
2026-01-30 02:36:29.47	353.65	82.73	-21.0	-21.3	22.3	0.00e+00	0	44	0	1957691392	3	3731
2026-01-30 02:36:30.47	351.69	83.18	-20.9	-21.0	22.5	0.00e+00	0	44	0	1962934272	3	3644
2026-01-30 02:36:31.46	349.48	83.62	-21.2	-21.6	22.2	0.00e+00	0	44	0	1968177152	3	3794
2026-01-30 02:36:32.47	346.88	84.05	-21.9	-23.1	21.5	0.00e+00	0	44	0	1974468608	3	4135
2026-01-30 02:36:33.48	343.88	84.48	-22.3	-23.4	21.1	0.00e+00	0	44	0	1979711488	4	4105
2026-01-30 02:36:34.48	340.43	84.88	-22.5	-23.4	20.8	0.00e+00	0	44	0	1986002944	5	3979
2026-01-30 02:36:35.49	336.36	85.26	-22.6	-23.7	20.7	0.00e+00	0	44	0	1991245824	5	4043
2026-01-30 02:36:36.49	331.65	85.61	-22.6	-23.6	20.7	0.00e+00	0	43	0	1996488704	5	4029
2026-01-30 02:36:37.49	326.15	85.93	-22.5	-23.3	20.9	0.00e+00	0	44	0	2002780160	5	3966
2026-01-30 02:36:38.49	319.79	86.21	-22.5	-23.4	20.9	0.00e+00	0	43	0	2008023040	5	3973
2026-01-30 02:36:39.50	312.46	86.43	-22.2	-22.7	21.2	0.00e+00	0	43	0	2014314496	5	3823
2026-01-30 02:36:40.50	304.39	86.59	-22.3	-22.9	21.2	0.00e+00	0	43	0	2019557376	5	3872
2026-01-30 02:36:41.50	295.72	86.67	-22.4	-23.2	21.0	0.00e+00	0	44	0	2024800256	5	3918
2026-01-30 02:36:42.50	286.83	86.68	-22.6	-23.6	20.8	0.00e+00	0	43	0	2031091712	5	4027
2026-01-30 02:36:43.51	278.02	86.60	-22.7	-23.7	20.7	0.00e+00	0	44	0	2036334592	5	4060
2026-01-30 02:36:44.51	269.87	86.45	-22.6	-23.6	20.8	0.00e+00	0	44	0	2041577472	5	4013
2026-01-30 02:36:45.51	262.50	86.24	-22.7	-23.7	20.8	0.00e+00	0	43	0	2047868928	5	4049
2026-01-30 02:36:46.52	255.97	85.97	-22.6	-23.5	20.8	0.00e+00	0	43	0	2053111808	5	4011
2026-01-30 02:36:47.52	250.38	85.65	-22.5	-23.4	20.8	0.00e+00	0	43	0	2058354688	5	3979
2026-01-30 02:36:48.52	245.58	85.30	-22.6	-23.7	20.7	0.00e+00	0	44	0	2064646144	5	4054
2026-01-30 02:36:49.53	241.44	84.92	-22.3	-23.0	21.0	0.00e+00	0	44	0	2069889024	5	3876
2026-01-30 02:36:50.54	237.89	84.52	-21.9	-22.1	21.3	0.00e+00	0	44	0	2076180480	5	3692
2026-01-30 02:36:51.55	234.84	84.10	-21.9	-22.2	21.3	0.00e+00	0	43	0	2081423360	5	3709
2026-01-30 02:36:52.55	232.24	83.67	-22.1	-22.6	21.2	0.00e+00	0	44	0	2087714816	5	3795
2026-01-30 02:36:53.55	229.96	83.23	-22.2	-22.7	21.1	0.00e+00	0	44	0	2092957696	5	3834
2026-01-30 02:36:54.55	227.98	82.78	-22.0	-22.3	21.3	0.00e+00	0	44	0	2098200576	5	3734
2026-01-30 02:36:55.55	226.23	82.32	-22.3	-23.0	20.9	0.00e+00	0	44	0	2104492032	5	3886
2026-01-30 02:36:56.56	224.66	81.85	-22.2	-22.8	21.0	0.00e+00	0	43	0	2109734912	5	3852
2026-01-30 02:36:57.56	223.28	81.38	-22.1	-22.5	21.2	0.00e+00	0	44	0	2114977792	5	3772
2026-01-30 02:36:58.57	222.03	80.91	-21.8	-22.0	21.4	0.00e+00	0	43	0	2121269248	5	3666
2026-01-30 02:36:59.57	220.92	80.44	-21.6	-22.0	21.6	0.00e+00	0	43	0	2126512128	4	3781
2026-01-30 02:37:00.57	219.92	79.96	-21.3	-21.8	22.0	0.00e+00	0	44	0	2131755008	3	3830
2026-01-30 02:37:01.57	219.01	79.48	-21.2	-21.7	22.0	0.00e+00	0	44	0	2138046464	3	3809
2026-01-30 02:37:02.58	218.17	79.00	-21.2	-21.7	22.0	0.00e+00	0	44	0	2143289344	3	3799
2026-01-30 02:37:03.58	217.41	78.52	-21.0	-21.2	22.2	0.00e+00	0	44	0	2149580800	3	3706
2026-01-30 02:37:04.59	216.71	78.04	-20.8	-21.0	22.3	0.00e+00	0	43	0	2154823680	3	3646
2026-01-30 02:37:05.59	216.07	77.56	-20.9	-21.2	22.2	0.00e+00	0	43	0	2161115136	3	3692
2026-01-30 02:37:06.59	215.47	77.08	-21.2	-21.6	22.0	0.00e+00	0	43	0	2166358016	3	3791
2026-01-30 02:37:07.60	214.92	76.60	-21.1	-21.4	22.1	0.00e+00	0	43	0	2171600896	3	3747
2026-01-30 02:37:08.60	214.41	76.12	-21.1	-21.5	22.0	0.00e+00	0	44	0	2177892352	3	3765
2026-01-30 02:37:09.60	213.94	75.64	-21.2	-21.6	22.0	0.00e+00	0	44	0	2183135232	3	3794
2026-01-30 02:37:10.60	213.50	75.16	-21.3	-21.8	21.9	0.00e+00	0	44	0	2188378112	3	3845
2026-01-30 02:37:11.61	213.08	74.68	-21.4	-22.2	21.7	0.00e+00	0	43	0	2194669568	3	3917
2026-01-30 02:37:12.61	212.69	74.21	-21.3	-21.9	21.9	0.00e+00	0	44	0	2199912448	3	3859
2026-01-30 02:37:13.61	212.33	73.73	-21.6	-22.5	21.6	0.00e+00	0	43	0	2205155328	3	3983
2026-01-30 02:37:14.61	211.99	73.26	-22.0	-23.3	21.2	0.00e+00	0	44	0	2211446784	3	4188
2026-01-30 02:37:15.61	211.67	72.79	-21.9	-22.7	21.1	0.00e+00	0	44	0	2216689664	4	3947
2026-01-30 02:37:16.62	211.36	72.31	-21.6	-22.1	21.5	0.00e+00	0	44	0	2222981120	4	3785
2026-01-30 02:37:17.62	211.08	71.84	-21.8	-22.4	21.3	0.00e+00	0	44	0	2228224000	4	3866
2026-01-30 02:37:18.63	210.80	71.37	-22.1	-23.2	20.9	0.00e+00	0	44	0	2233466880	4	4042
2026-01-30 02:37:19.63	210.55	70.91	-22.2	-23.2	20.9	0.00e+00	0	43	0	2239758336	4	4035
2026-01-30 02:37:20.64	210.30	70.44	-22.3	-23.5	20.8	0.00e+00	0	44	0	2245001216	4	4125
2026-01-30 02:37:21.64	210.07	69.98	-22.4	-23.2	20.7	0.00e+00	0	43	0	2251292672	5	3941
2026-01-30 02:37:22.65	209.85	69.51	-22.7	-23.8	20.4	0.00e+00	0	43	0	2256535552	5	4082
2026-01-30 02:37:23.65	209.64	69.05	-22.9	-24.2	20.2	0.00e+00	0	44	0	2261778432	5	4176
2026-01-30 02:37:24.65	209.44	68.60	-22.7	-23.7	20.4	0.00e+00	0	44	0	2268069888	5	4065
2026-01-30 02:37:25.65	209.25	68.15	-22.6	-23.6	20.4	0.00e+00	0	44	0	2273312768	5	4036
2026-01-30 02:37:26.64	209.07	67.70	-22.9	-24.2	20.1	0.00e+00	0	43	0	2278555648	5	4178
2026-01-30 02:37:27.64	208.89	67.25	-23.0	-24.0	20.0	0.00e+00	0	43	0	2284847104	6	4028
2026-01-30 02:37:28.65	208.72	66.80	-22.7	-23.2	20.4	0.00e+00	0	43	0	2290089984	6	3833
2026-01-30 02:37:29.66	208.56	66.35	-22.3	-22.5	20.7	0.00e+00	0	44	0	2296381440	6	3664
2026-01-30 02:37:30.66	208.41	65.90	-22.2	-22.8	20.8	0.00e+00	0	43	0	2301624320	5	3848
2026-01-30 02:37:31.67	208.26	65.46	-22.3	-22.9	20.8	0.00e+00	0	43	0	2306867200	5	3872
2026-01-30 02:37:32.67	208.12	65.02	-22.4	-23.2	20.7	0.00e+00	0	44	0	2313158656	5	3937
2026-01-30 02:37:33.68	207.99	64.58	-22.5	-23.3	20.6	0.00e+00	0	43	0	2318401536	5	3964
2026-01-30 02:37:34.69	207.85	64.14	-22.5	-23.3	20.6	0.00e+00	0	44	0	2324692992	5	3965
2026-01-30 02:37:35.69	207.73	63.71	-22.5	-23.3	20.6	0.00e+00	0	44	0	2329935872	5	3957
2026-01-30 02:37:36.70	207.61	63.28	-22.5	-23.4	20.6	0.00e+00	0	43	0	2335178752	5	3979
2026-01-30 02:37:37.71	207.49	62.85	-22.2	-22.8	20.7	0.00e+00	0	43	0	2341470208	5	3845
2026-01-30 02:37:38.71	207.38	62.43	-22.0	-22.4	20.9	0.00e+00	0	44	0	2346713088	5	3750
2026-01-30 02:37:39.71	207.27	62.00	-22.4	-23.2	20.6	0.00e+00	0	43	0	2351955968	5	3926
2026-01-30 02:37:40.72	207.17	61.58	-22.9	-24.1	20.2	0.00e+00	0	43	0	2358247424	5	4163
2026-01-30 02:37:41.71	207.07	61.17	-22.8	-23.9	20.3	0.00e+00	0	43	0	2363490304	5	4115
2026-01-30 02:37:42.71	206.97	60.76	-22.6	-23.6	20.4	0.00e+00	0	43	0	2369781760	5	4037
2026-01-30 02:37:43.72	206.87	60.34	-22.8	-24.0	20.2	0.00e+00	0	43	0	2375024640	5	4133
2026-01-30 02:37:44.72	206.78	59.93	-22.8	-24.0	20.2	0.00e+00	0	44	0	2380267520	5	4139
2026-01-30 02:37:45.72	206.69	59.53	-22.7	-23.7	20.3	0.00e+00	0	43	0	2386558976	5	4064
2026-01-30 02:37:46.71	206.61	59.13	-22.9	-24.2	20.1	0.00e+00	0	43	0	2391801856	5	4180
2026-01-30 02:37:47.71	206.53	58.73	-23.3	-24.6	19.7	0.00e+00	0	43	0	2397044736	6	4159
2026-01-30 02:37:48.71	206.45	58.33	-23.4	-24.7	19.6	0.00e+00	0	43	0	2403336192	6	4186
2026-01-30 02:37:49.71	206.37	57.93	-23.2	-24.2	19.9	0.00e+00	0	43	0	2408579072	6	4064
2026-01-30 02:37:50.71	206.30	57.54	-23.2	-24.4	19.8	0.00e+00	0	44	0	2413821952	6	4102
2026-01-30 02:37:51.71	206.22	57.15	-23.7	-24.8	19.3	0.00e+00	0	43	0	2420113408	7	4114
2026-01-30 02:37:52.71	206.15	56.76	-24.1	-25.2	18.9	0.00e+00	0	44	0	2425356288	8	4089
2026-01-30 02:37:53.71	206.08	56.38	-24.0	-25.0	19.0	6.80e-06	0	43	0	2431647744	8	4041
2026-01-30 02:37:54.72	206.02	55.99	-23.7	-24.4	19.3	0.00e+00	0	44	0	2436890624	8	3880
2026-01-30 02:37:55.73	205.95	55.61	-23.8	-24.6	19.2	6.80e-06	0	43	0	2442133504	8	3928
2026-01-30 02:37:56.72	205.89	55.24	-24.1	-25.3	18.8	6.80e-06	0	44	0	2448424960	8	4117
2026-01-30 02:37:57.72	205.83	54.86	-24.5	-25.7	18.4	0.00e+00	0	44	0	2453667840	9	4103
2026-01-30 02:37:58.72	205.77	54.49	-24.5	-25.5	18.5	9.10e-06	0	44	0	2458910720	9	4065
2026-01-30 02:37:59.73	205.71	54.12	-24.1	-24.6	18.9	0.00e+00	0	43	0	2465202176	9	3840
2026-01-30 02:38:00.73	205.65	53.75	-23.9	-24.2	19.1	0.00e+00	0	43	0	2470445056	9	3731
2026-01-30 02:38:01.74	205.60	53.38	-24.1	-24.7	18.8	0.00e+00	0	43	0	2476736512	9	3859
2026-01-30 02:38:02.74	205.54	53.02	-24.1	-24.7	18.9	2.20e-06	0	44	0	2481979392	9	3851
2026-01-30 02:38:03.74	205.49	52.66	-24.1	-24.7	18.8	0.00e+00	0	43	0	2487222272	9	3876
2026-01-30 02:38:04.75	205.44	52.30	-24.0	-24.6	18.9	3.40e-06	0	44	0	2493513728	9	3847
2026-01-30 02:38:05.75	205.39	51.95	-23.8	-24.2	19.1	9.10e-06	0	43	0	2498756608	9	3751
2026-01-30 02:38:06.75	205.34	51.60	-23.7	-24.4	19.3	0.00e+00	0	44	0	2505048064	8	3893
2026-01-30 02:38:07.75	205.29	51.25	-23.5	-23.9	19.5	1.10e-06	0	44	0	2510290944	8	3778
2026-01-30 02:38:08.76	205.25	50.90	-23.1	-23.7	19.9	1.10e-06	0	44	0	2515533824	7	3821
2026-01-30 02:38:09.76	205.20	50.55	-23.2	-23.8	19.8	0.00e+00	0	44	0	2521825280	7	3847
2026-01-30 02:38:10.76	205.16	50.21	-23.2	-23.7	19.8	0.00e+00	0	43	0	2527068160	7	3850
2026-01-30 02:38:11.76	205.12	49.87	-23.2	-23.8	19.8	0.00e+00	0	43	0	2532311040	7	3861
2026-01-30 02:38:12.76	205.08	49.54	-23.2	-23.9	19.7	0.00e+00	0	44	0	2538602496	7	3892
2026-01-30 02:38:13.76	205.03	49.20	-23.1	-23.7	19.8	0.00e+00	0	43	0	2543845376	7	3842
2026-01-30 02:38:14.77	204.99	48.87	-23.1	-23.5	19.9	0.00e+00	0	43	0	2549088256	7	3806
2026-01-30 02:38:15.77	204.96	48.54	-23.1	-23.7	19.8	0.00e+00	0	44	0	2555379712	7	3829
2026-01-30 02:38:16.77	204.92	48.21	-23.1	-23.6	19.9	6.80e-06	0	44	0	2560622592	7	3808
2026-01-30 02:38:17.78	204.88	47.89	-23.2	-23.7	19.8	2.20e-06	0	43	0	2566914048	7	3834
2026-01-30 02:38:18.78	204.84	47.56	-23.2	-23.8	19.8	0.00e+00	0	43	0	2572156928	7	3853
2026-01-30 02:38:19.78	204.81	47.25	-23.2	-23.8	19.8	2.20e-06	0	44	0	2578448384	7	3866
2026-01-30 02:38:20.78	204.77	46.93	-23.3	-23.9	19.7	0.00e+00	0	43	0	2583691264	7	3898
2026-01-30 02:38:21.78	204.74	46.61	-23.3	-24.0	19.6	0.00e+00	0	44	0	2588934144	7	3925
2026-01-30 02:38:22.78	204.71	46.30	-23.1	-23.6	19.9	0.00e+00	0	44	0	2595225600	7	3820
2026-01-30 02:38:23.78	204.67	45.99	-22.9	-23.2	20.1	3.40e-06	0	43	0	2600468480	7	3736
2026-01-30 02:38:24.79	204.64	45.68	-22.9	-23.1	20.1	0.00e+00	0	43	0	2605711360	7	3707
2026-01-30 02:38:25.79	204.61	45.38	-23.0	-23.5	19.9	0.00e+00	0	44	0	2612002816	7	3786
2026-01-30 02:38:26.80	204.58	45.07	-23.0	-23.5	19.9	4.50e-06	0	43	0	2617245696	7	3786
2026-01-30 02:38:27.80	204.55	44.77	-23.0	-23.4	20.0	0.00e+00	0	44	0	2623537152	7	3779
2026-01-30 02:38:28.80	204.52	44.47	-23.0	-23.5	19.9	1.71e-05	0	43	0	2628780032	7	3792
2026-01-30 02:38:29.81	204.49	44.17	-23.0	-23.3	20.0	0.00e+00	0	44	0	2634022912	7	3761
2026-01-30 02:38:30.81	204.47	43.88	-23.0	-23.4	20.0	0.00e+00	0	44	0	2640314368	7	3767
2026-01-30 02:38:31.81	204.44	43.59	-22.9	-23.2	20.0	2.20e-06	0	43	0	2645557248	7	3715
2026-01-30 02:38:32.82	204.41	43.30	-22.8	-23.1	20.2	0.00e+00	0	44	0	2650800128	7	3691
2026-01-30 02:38:33.81	204.38	43.01	-22.9	-23.2	20.1	0.00e+00	0	43	0	2657091584	7	3723
2026-01-30 02:38:34.81	204.36	42.73	-23.0	-23.3	20.0	0.00e+00	0	43	0	2662334464	7	3752
2026-01-30 02:38:35.81	204.33	42.44	-23.2	-23.8	19.8	0.00e+00	0	44	0	2667577344	7	3858
2026-01-30 02:38:36.82	204.31	42.16	-23.1	-23.5	19.9	0.00e+00	0	44	0	2673868800	7	3803
2026-01-30 02:38:37.82	204.28	41.88	-22.9	-23.3	20.0	0.00e+00	0	44	0	2679111680	7	3751
2026-01-30 02:38:38.83	204.26	41.60	-22.9	-23.3	20.0	1.02e-05	0	44	0	2685403136	7	3753
2026-01-30 02:38:39.83	204.24	41.33	-22.8	-23.0	20.1	0.00e+00	0	43	0	2690646016	7	3694
2026-01-30 02:38:40.83	204.21	41.06	-22.8	-23.5	20.1	0.00e+00	0	43	0	2696937472	6	3901
2026-01-30 02:38:41.84	204.19	40.78	-22.7	-23.2	20.3	0.00e+00	0	44	0	2702180352	6	3837
2026-01-30 02:38:42.85	204.17	40.51	-22.7	-23.2	20.3	0.00e+00	0	43	0	2707423232	6	3833
2026-01-30 02:38:43.85	204.15	40.25	-22.6	-23.0	20.4	0.00e+00	0	44	0	2713714688	6	3799
2026-01-30 02:38:44.85	204.13	39.98	-22.5	-22.9	20.4	0.00e+00	0	44	0	2718957568	6	3772
2026-01-30 02:38:45.86	204.11	39.72	-22.5	-22.9	20.4	0.00e+00	0	43	0	2724200448	6	3769
2026-01-30 02:38:46.86	204.08	39.46	-22.5	-22.8	20.5	0.00e+00	0	43	0	2730491904	6	3744
2026-01-30 02:38:47.86	204.06	39.20	-22.4	-22.7	20.5	0.00e+00	0	44	0	2735734784	6	3730
2026-01-30 02:38:48.86	204.04	38.94	-22.6	-23.1	20.3	0.00e+00	0	44	0	2740977664	6	3799
2026-01-30 02:38:49.85	204.03	38.69	-22.7	-23.3	20.2	0.00e+00	0	44	0	2747269120	6	3859
2026-01-30 02:38:50.86	204.01	38.43	-22.6	-23.1	20.3	0.00e+00	0	43	0	2752512000	6	3823
2026-01-30 02:38:51.86	203.99	38.18	-22.5	-22.9	20.4	0.00e+00	0	44	0	2758803456	6	3776
2026-01-30 02:38:52.87	203.97	37.93	-22.5	-23.0	20.4	0.00e+00	0	44	0	2764046336	6	3778
2026-01-30 02:38:53.86	203.95	37.69	-22.3	-22.5	20.6	0.00e+00	0	44	0	2769289216	6	3678
2026-01-30 02:38:54.86	203.93	37.44	-22.2	-22.7	20.8	0.00e+00	0	44	0	2775580672	5	3818
2026-01-30 02:38:55.86	203.92	37.20	-22.2	-22.8	20.7	0.00e+00	0	44	0	2780823552	5	3841
2026-01-30 02:38:56.87	203.90	36.95	-22.2	-22.8	20.7	0.00e+00	0	44	0	2786066432	5	3843
2026-01-30 02:38:57.87	203.88	36.71	-22.2	-22.8	20.7	0.00e+00	0	44	0	2792357888	5	3857
2026-01-30 02:38:58.87	203.87	36.47	-22.4	-23.2	20.5	0.00e+00	0	43	0	2797600768	5	3936
2026-01-30 02:38:59.87	203.85	36.24	-22.6	-23.5	20.3	0.00e+00	0	43	0	2802843648	5	4021
2026-01-30 02:39:00.88	203.83	36.00	-22.7	-23.9	20.2	0.00e+00	0	43	0	2809135104	5	4106
2026-01-30 02:39:01.88	203.82	35.77	-22.8	-24.0	20.1	0.00e+00	0	43	0	2814377984	5	4142
2026-01-30 02:39:02.89	203.80	35.53	-22.7	-23.9	20.1	0.00e+00	0	44	0	2820669440	5	4110
2026-01-30 02:39:03.89	203.79	35.30	-22.8	-24.0	20.1	0.00e+00	0	44	0	2825912320	5	4126
2026-01-30 02:39:04.89	203.77	35.08	-23.0	-24.4	19.9	0.00e+00	0	44	0	2832203776	5	4226
2026-01-30 02:39:05.89	203.76	34.85	-22.7	-23.8	20.1	0.00e+00	0	44	0	2837446656	5	4089
2026-01-30 02:39:06.89	203.74	34.62	-22.5	-23.4	20.3	0.00e+00	0	44	0	2842689536	5	3994
2026-01-30 02:39:07.89	203.73	34.40	-22.5	-23.4	20.3	0.00e+00	0	43	0	2848980992	5	3985
2026-01-30 02:39:08.89	203.72	34.18	-22.5	-23.3	20.4	0.00e+00	0	43	0	2854223872	5	3964
2026-01-30 02:39:09.89	203.70	33.96	-22.5	-23.4	20.3	0.00e+00	0	43	0	2859466752	5	3985
2026-01-30 02:39:10.89	203.69	33.74	-22.6	-23.5	20.3	1.10e-06	0	44	0	2865758208	5	4003
2026-01-30 02:39:11.89	203.68	33.52	-22.6	-23.6	20.2	0.00e+00	0	43	0	2871001088	5	4033
2026-01-30 02:39:12.90	203.66	33.31	-22.7	-23.7	20.2	0.00e+00	0	43	0	2876243968	5	4067
2026-01-30 02:39:13.90	203.65	33.09	-22.8	-24.0	20.1	3.40e-06	0	43	0	2882535424	5	4131
2026-01-30 02:39:14.90	203.64	32.88	-22.9	-24.2	20.0	0.00e+00	0	43	0	2887778304	5	4176
2026-01-30 02:39:15.91	203.62	32.67	-23.0	-24.3	19.9	0.00e+00	0	44	0	2894069760	5	4209
2026-01-30 02:39:16.91	203.61	32.46	-23.0	-24.4	19.8	2.20e-06	0	44	0	2899312640	5	4233
2026-01-30 02:39:17.91	203.60	32.25	-23.1	-24.1	19.7	0.00e+00	0	43	0	2904555520	6	4056
2026-01-30 02:39:18.92	203.59	32.04	-23.2	-24.4	19.6	0.00e+00	0	44	0	2910846976	6	4127
2026-01-30 02:39:19.92	203.58	31.83	-23.1	-24.2	19.7	0.00e+00	0	43	0	2916089856	6	4073
2026-01-30 02:39:20.93	203.57	31.63	-23.1	-24.1	19.7	0.00e+00	0	44	0	2922381312	6	4051
2026-01-30 02:39:21.93	203.55	31.43	-23.2	-24.3	19.2	0.00e+00	0	44	0	2927624192	6	4095
2026-01-30 02:39:22.94	203.54	31.22	-23.1	-24.1	18.6	3.40e-06	0	43	0	2932867072	6	4032
2026-01-30 02:39:23.94	203.53	31.02	-23.1	-24.0	19.8	0.00e+00	0	44	0	2939158528	6	4020
2026-01-30 02:39:24.95	203.52	30.82	-23.1	-24.2	19.7	0.00e+00	0	44	0	2944401408	6	4064
2026-01-30 02:39:25.96	203.51	30.62	-23.0	-24.0	19.8	3.40e-06	0	44	0	2949644288	6	4016
2026-01-30 02:39:26.96	203.50	30.43	-23.0	-23.9	19.9	0.00e+00	0	44	0	2955935744	6	3984
2026-01-30 02:39:27.96	203.49	30.24	-23.0	-23.9	19.8	0.00e+00	0	44	0	2961178624	6	4003
2026-01-30 02:39:28.97	203.48	30.04	-23.2	-24.2	19.7	2.01e-04	0	44	0	2967470080	6	4077
2026-01-30 02:39:29.97	203.47	29.85	-23.3	-24.6	19.5	0.00e+00	0	44	0	2972712960	6	4158
2026-01-30 02:39:30.97	203.46	29.66	-23.3	-24.4	19.5	2.15e-04	0	44	0	2977955840	6	4126
2026-01-30 02:39:31.98	203.45	29.47	-23.3	-24.6	19.5	0.00e+00	0	44	0	2984247296	6	4159
2026-01-30 02:39:32.98	203.44	29.28	-23.3	-24.6	19.4	0.00e+00	0	43	0	2989490176	6	4166
2026-01-30 02:39:33.99	203.43	29.09	-23.4	-24.7	19.4	0.00e+00	0	43	0	2995781632	6	4198
2026-01-30 02:39:34.99	203.42	28.91	-23.4	-24.7	19.4	0.00e+00	0	43	0	3001024512	6	4207
2026-01-30 02:39:35.99	203.41	28.72	-23.7	-24.9	19.0	0.00e+00	0	43	0	3006267392	7	4127
2026-01-30 02:39:37.00	203.41	28.54	-23.5	-24.6	19.2	0.00e+00	0	43	0	3012558848	7	4061
2026-01-30 02:39:38.01	203.40	28.35	-23.3	-24.2	19.4	2.54e-04	0	43	0	3017801728	7	3961
2026-01-30 02:39:39.01	203.39	28.17	-23.2	-23.9	19.5	0.00e+00	0	43	0	3023044608	7	3902
2026-01-30 02:39:40.01	203.38	27.99	-23.1	-23.7	19.6	2.51e-04	0	44	0	3029336064	7	3859
2026-01-30 02:39:41.01	203.37	27.82	-23.1	-24.2	19.6	2.78e-04	0	43	0	3034578944	6	4089
2026-01-30 02:39:42.02	203.36	27.64	-23.0	-24.1	19.7	0.00e+00	0	44	0	3040870400	6	4044
2026-01-30 02:39:43.03	203.35	27.46	-23.1	-24.2	19.6	2.92e-04	0	44	0	3046113280	6	4069
2026-01-30 02:39:44.03	203.35	27.28	-23.0	-23.9	19.8	3.00e-04	0	44	0	3052404736	6	3999
2026-01-30 02:39:45.04	203.34	27.11	-23.0	-23.9	19.8	0.00e+00	0	44	0	3057647616	6	3994
2026-01-30 02:39:46.04	203.33	26.94	-23.1	-24.1	19.6	2.66e-04	0	44	0	3062890496	6	4049
2026-01-30 02:39:47.05	203.32	26.76	-22.9	-23.8	19.8	2.53e-04	0	44	0	3069181952	6	3968
2026-01-30 02:39:48.05	203.32	26.59	-22.9	-23.7	19.8	0.00e+00	0	44	0	3074424832	6	3965
2026-01-30 02:39:49.05	203.31	26.42	-23.0	-24.0	19.7	2.61e-04	0	44	0	3079667712	6	4025
2026-01-30 02:39:50.05	203.30	26.26	-23.1	-24.1	19.6	2.52e-04	0	44	0	3085959168	6	4053
2026-01-30 02:39:51.05	203.29	26.09	-23.1	-24.2	19.6	0.00e+00	0	43	0	3091202048	6	4065
2026-01-30 02:39:52.05	203.29	25.92	-23.2	-24.4	19.5	2.59e-04	0	44	0	3096444928	6	4115
2026-01-30 02:39:53.05	203.28	25.76	-23.2	-24.4	19.5	2.79e-04	0	44	0	3102736384	6	4120
2026-01-30 02:39:54.06	203.27	25.59	-23.3	-24.6	19.4	0.00e+00	0	44	0	3107979264	6	4171
2026-01-30 02:39:55.06	203.27	25.43	-23.3	-24.7	19.3	2.31e-04	0	43	0	3114270720	6	4193
2026-01-30 02:39:56.07	203.26	25.26	-23.3	-24.5	19.4	0.00e+00	0	43	0	3119513600	6	4164
2026-01-30 02:39:57.07	203.25	25.10	-23.3	-24.7	19.3	0.00e+00	0	43	0	3124756480	6	4195
2026-01-30 02:39:58.07	203.25	24.94	-23.4	-24.7	19.3	0.00e+00	0	44	0	3131047936	6	4212
2026-01-30 02:39:59.07	203.24	24.78	-23.5	-24.6	19.1	2.35e-04	0	44	0	3136290816	7	4056
2026-01-30 02:40:00.07	203.23	24.63	-23.4	-24.4	19.2	0.00e+00	0	44	0	3141533696	7	4017
2026-01-30 02:40:01.07	203.23	24.47	-23.5	-24.5	19.1	0.00e+00	0	44	0	3147825152	7	4039
2026-01-30 02:40:02.06	203.22	24.31	-23.5	-24.5	19.1	2.05e-04	0	43	0	3153068032	7	4046
2026-01-30 02:40:03.07	203.22	24.16	-23.5	-24.5	19.1	0.00e+00	0	43	0	3158310912	7	4030
2026-01-30 02:40:04.07	203.21	24.00	-23.6	-24.7	19.0	2.01e-04	0	44	0	3164602368	7	4095
2026-01-30 02:40:05.07	203.21	23.85	-23.5	-24.6	19.1	0.00e+00	0	44	0	3169845248	7	4059
2026-01-30 02:40:06.07	203.20	23.70	-23.6	-24.7	19.0	0.00e+00	0	44	0	3176136704	7	4091
2026-01-30 02:40:07.07	203.19	23.54	-23.5	-24.6	19.1	1.69e-04	0	44	0	3181379584	7	4050
2026-01-30 02:40:08.07	203.19	23.39	-23.5	-24.5	19.1	0.00e+00	0	43	0	3186622464	7	4025
2026-01-30 02:40:09.07	203.18	23.24	-23.5	-24.5	19.1	0.00e+00	0	44	0	3192913920	7	4032
2026-01-30 02:40:10.08	203.18	23.09	-23.5	-24.4	19.1	4.50e-06	0	44	0	3198156800	7	4020
2026-01-30 02:40:11.08	203.17	22.94	-23.6	-24.7	19.0	1.41e-04	0	44	0	3204448256	7	4074
2026-01-30 02:40:12.08	203.17	22.80	-23.5	-24.5	19.1	0.00e+00	0	44	0	3209691136	7	4024
2026-01-30 02:40:13.08	203.16	22.65	-23.5	-24.5	19.1	3.40e-06	0	44	0	3214934016	7	4024
2026-01-30 02:40:14.08	203.16	22.50	-23.5	-24.5	19.0	0.00e+00	0	44	0	3221225472	7	4040
2026-01-30 02:40:15.09	203.15	22.36	-23.6	-24.8	18.9	0.00e+00	0	43	0	3226468352	7	4101
2026-01-30 02:40:16.10	203.15	22.21	-23.6	-24.6	19.0	4.50e-06	0	44	0	3231711232	7	4058
2026-01-30 02:40:17.10	203.14	22.07	-23.6	-24.7	19.0	0.00e+00	0	44	0	3238002688	7	4080
2026-01-30 02:40:18.11	203.14	21.93	-23.6	-24.7	18.9	0.00e+00	0	44	0	3243245568	7	4091
2026-01-30 02:40:19.12	203.13	21.78	-23.7	-24.9	18.9	4.50e-06	0	44	0	3249537024	7	4128
2026-01-30 02:40:20.12	203.13	21.64	-23.8	-25.2	18.7	0.00e+00	0	43	0	3254779904	7	4206
2026-01-30 02:40:21.13	203.12	21.50	-23.8	-25.1	18.7	0.00e+00	0	44	0	3261071360	7	4193
2026-01-30 02:40:22.13	203.12	21.36	-23.9	-25.3	18.6	2.20e-06	0	43	0	3266314240	7	4246
2026-01-30 02:40:23.14	203.11	21.22	-23.9	-25.4	18.6	0.00e+00	0	44	0	3271557120	7	4247
2026-01-30 02:40:24.15	203.11	21.08	-24.0	-25.1	18.5	0.00e+00	0	43	0	3277848576	8	4078
2026-01-30 02:40:25.15	203.11	20.94	-24.2	-25.4	18.4	0.00e+00	0	44	0	3283091456	8	4136
2026-01-30 02:40:26.16	203.10	20.81	-24.3	-25.6	18.2	0.00e+00	0	44	0	3288334336	8	4202
2026-01-30 02:40:27.16	203.10	20.67	-24.2	-25.4	18.3	0.00e+00	0	44	0	3294625792	8	4157
2026-01-30 02:40:28.17	203.09	20.54	-24.2	-25.4	18.3	0.00e+00	0	44	0	3299868672	8	4154
2026-01-30 02:40:29.17	203.09	20.40	-24.4	-25.8	18.1	0.00e+00	0	44	0	3305111552	8	4257
2026-01-30 02:40:30.17	203.09	20.27	-24.4	-25.8	18.1	0.00e+00	0	44	0	3311403008	8	4255
2026-01-30 02:40:31.18	203.08	20.13	-24.5	-25.6	17.9	0.00e+00	0	44	0	3316645888	9	4097
2026-01-30 02:40:32.18	203.08	20.00	-24.4	-25.4	18.1	0.00e+00	0	44	0	3322937344	9	4034
2026-01-30 02:40:33.18	203.07	19.87	-24.3	-25.2	18.1	0.00e+00	0	44	0	3328180224	9	4000
2026-01-30 02:40:34.18	203.07	19.74	-24.3	-25.2	18.1	0.00e+00	0	44	0	3334471680	9	3995
2026-01-30 02:40:35.18	203.07	19.61	-24.4	-25.4	18.0	0.00e+00	0	44	0	3339714560	9	4036
2026-01-30 02:40:36.18	203.06	19.48	-24.5	-25.7	17.9	0.00e+00	0	43	0	3344957440	9	4114
2026-01-30 02:40:37.19	203.06	19.35	-24.7	-26.0	17.7	0.00e+00	0	44	0	3351248896	9	4196
2026-01-30 02:40:38.19	203.06	19.22	-24.6	-25.8	17.8	0.00e+00	0	44	0	3356491776	9	4145
2026-01-30 02:40:39.20	203.05	19.10	-24.6	-25.9	17.8	0.00e+00	0	44	0	3361734656	9	4168
2026-01-30 02:40:40.20	203.05	18.97	-24.6	-25.9	17.7	0.00e+00	0	44	0	3368026112	9	4169
2026-01-30 02:40:41.20	203.05	18.84	-24.8	-26.2	17.6	0.00e+00	0	44	0	3373268992	9	4243
2026-01-30 02:40:42.21	203.04	18.72	-24.7	-26.0	17.7	0.00e+00	0	44	0	3378511872	9	4184
2026-01-30 02:40:43.21	203.04	18.59	-24.7	-26.1	17.7	0.00e+00	0	44	0	3384803328	9	4219
2026-01-30 02:40:44.20	203.04	18.47	-24.8	-26.2	17.6	0.00e+00	0	44	0	3390046208	9	4241
2026-01-30 02:40:45.21	203.03	18.34	-24.7	-26.0	17.7	0.00e+00	0	44	0	3396337664	9	4180
2026-01-30 02:40:46.21	203.03	18.22	-24.6	-25.9	17.8	0.00e+00	0	44	0	3401580544	9	4155
2026-01-30 02:40:47.21	203.03	18.10	-24.6	-25.9	17.7	0.00e+00	0	44	0	3406823424	9	4151
2026-01-30 02:40:48.21	203.02	17.98	-24.7	-26.0	17.7	0.00e+00	0	44	0	3413114880	9	4180
2026-01-30 02:40:49.22	203.02	17.86	-24.7	-26.0	17.6	0.00e+00	0	44	0	3418357760	9	4194
2026-01-30 02:40:50.22	203.02	17.74	-24.7	-26.0	17.6	0.00e+00	0	44	0	3423600640	9	4201
2026-01-30 02:40:51.22	203.02	17.62	-24.7	-26.1	17.6	0.00e+00	0	44	0	3429892096	9	4211
2026-01-30 02:40:52.22	203.01	17.50	-24.8	-26.3	17.5	0.00e+00	0	44	0	3435134976	9	4272
2026-01-30 02:40:53.22	203.01	17.38	-24.8	-26.2	17.6	0.00e+00	0	44	0	3440377856	9	4231
2026-01-30 02:40:54.23	203.01	17.26	-24.8	-26.2	17.5	0.00e+00	0	44	0	3446669312	9	4253
2026-01-30 02:40:55.23	203.01	17.14	-24.8	-26.3	17.5	0.00e+00	0	44	0	3451912192	9	4264
2026-01-30 02:40:56.24	203.00	17.02	-24.8	-26.3	17.5	0.00e+00	0	44	0	3458203648	9	4268
2026-01-30 02:40:57.24	203.00	16.91	-24.9	-26.5	17.3	0.00e+00	0	44	0	3463446528	9	4327
2026-01-30 02:40:58.25	203.00	16.79	-24.9	-26.5	17.4	0.00e+00	0	43	0	3469737984	9	4310
2026-01-30 02:40:59.25	203.00	16.67	-25.0	-26.7	17.3	0.00e+00	0	44	0	3474980864	9	4375
2026-01-30 02:41:00.25	202.99	16.56	-25.2	-26.7	17.0	0.00e+00	0	44	0	3480223744	10	4250
2026-01-30 02:41:01.26	202.99	16.44	-25.4	-27.1	16.8	1.10e-06	0	44	0	3486515200	10	4357
2026-01-30 02:41:02.26	202.99	16.33	-25.4	-27.0	16.8	0.00e+00	0	44	0	3491758080	10	4329
2026-01-30 02:41:03.26	202.99	16.22	-25.5	-26.7	16.7	0.00e+00	0	44	0	3497000960	11	4138
2026-01-30 02:41:04.26	202.98	16.11	-25.4	-26.5	16.8	0.00e+00	0	44	0	3503292416	11	4096
2026-01-30 02:41:05.27	202.98	15.99	-25.4	-26.6	16.8	0.00e+00	0	44	0	3508535296	11	4116
2026-01-30 02:41:06.28	202.98	15.88	-25.5	-26.7	16.7	1.25e-05	0	44	0	3513778176	11	4141
2026-01-30 02:41:07.28	202.98	15.77	-25.5	-26.9	16.6	0.00e+00	0	44	0	3520069632	11	4193
2026-01-30 02:41:08.28	202.97	15.66	-25.5	-26.7	16.7	0.00e+00	0	44	0	3525312512	11	4150
2026-01-30 02:41:09.28	202.97	15.55	-25.5	-26.6	16.7	2.20e-06	0	44	0	3531603968	11	4131
2026-01-30 02:41:10.28	202.97	15.44	-25.5	-26.7	16.7	0.00e+00	0	44	0	3536846848	11	4159
2026-01-30 02:41:11.28	202.97	15.33	-25.4	-26.5	16.8	0.00e+00	0	44	0	3543138304	11	4100
2026-01-30 02:41:12.29	202.97	15.22	-25.3	-26.4	16.8	0.00e+00	0	44	0	3548381184	11	4073
2026-01-30 02:41:13.29	202.96	15.11	-25.3	-26.3	16.9	0.00e+00	0	43	0	3553624064	11	4055
2026-01-30 02:41:14.30	202.96	15.00	-25.4	-26.5	16.8	0.00e+00	0	44	0	3559915520	11	4090
2026-01-30 02:41:15.30	202.96	14.90	-25.3	-26.4	16.8	5.70e-06	0	44	0	3565158400	11	4069
2026-01-30 02:41:16.31	202.96	14.79	-25.4	-26.5	16.7	0.00e+00	0	44	0	3570401280	11	4099
2026-01-30 02:41:17.31	202.96	14.68	-25.5	-26.8	16.6	0.00e+00	0	44	0	3576692736	11	4162
2026-01-30 02:41:18.31	202.96	14.58	-25.5	-26.7	16.6	1.02e-05	0	44	0	3581935616	11	4153
2026-01-30 02:41:19.32	202.95	14.47	-25.6	-26.9	16.5	0.00e+00	0	44	0	3587178496	11	4214
2026-01-30 02:41:20.32	202.95	14.37	-25.5	-26.8	16.6	0.00e+00	0	44	0	3593469952	11	4170
2026-01-30 02:41:21.32	202.95	14.26	-25.5	-26.7	16.6	8.00e-06	0	44	0	3598712832	11	4138
2026-01-30 02:41:22.32	202.95	14.16	-25.5	-26.8	16.5	0.00e+00	0	44	0	3605004288	11	4185
2026-01-30 02:41:23.32	202.95	14.05	-25.6	-27.0	16.4	0.00e+00	0	44	0	3610247168	11	4227
2026-01-30 02:41:24.32	202.95	13.95	-25.6	-27.0	16.5	0.00e+00	0	44	0	3615490048	11	4216
2026-01-30 02:41:25.33	202.94	13.85	-25.7	-27.1	16.3	0.00e+00	0	43	0	3621781504	11	4264
2026-01-30 02:41:26.32	202.94	13.75	-25.7	-27.2	16.4	0.00e+00	0	44	0	3627024384	11	4267
2026-01-30 02:41:27.32	202.94	13.64	-25.7	-27.2	16.3	0.00e+00	0	44	0	3632267264	11	4276
2026-01-30 02:41:28.32	202.94	13.54	-25.7	-27.2	16.3	0.00e+00	0	44	0	3638558720	11	4286
2026-01-30 02:41:29.33	202.94	13.44	-25.8	-27.3	16.2	0.00e+00	0	44	0	3643801600	11	4323
2026-01-30 02:41:30.32	202.94	13.34	-25.7	-27.2	16.3	1.14e-05	0	43	0	3649044480	11	4284
2026-01-30 02:41:31.32	202.94	13.24	-25.7	-27.2	16.3	0.00e+00	0	44	0	3655335936	11	4284
2026-01-30 02:41:32.33	202.93	13.14	-25.8	-27.4	16.2	0.00e+00	0	44	0	3660578816	11	4326
2026-01-30 02:41:33.33	202.93	13.04	-25.8	-27.5	16.1	0.00e+00	0	44	0	3666870272	11	4363
2026-01-30 02:41:34.33	202.93	12.94	-25.8	-27.4	16.2	0.00e+00	0	44	0	3672113152	11	4339
2026-01-30 02:41:35.34	202.93	12.84	-25.8	-27.5	16.1	0.00e+00	0	44	0	3678404608	11	4357
2026-01-30 02:41:36.34	202.93	12.75	-25.9	-27.6	16.1	0.00e+00	0	44	0	3683647488	11	4388
2026-01-30 02:41:37.35	202.93	12.65	-25.9	-27.7	16.0	0.00e+00	0	43	0	3688890368	11	4434
2026-01-30 02:41:38.35	202.93	12.55	-25.9	-27.7	16.0	0.00e+00	0	44	0	3695181824	11	4411
2026-01-30 02:41:39.36	202.93	12.45	-26.0	-27.9	15.9	0.00e+00	0	44	0	3700424704	11	4473
2026-01-30 02:41:40.36	202.93	12.36	-26.0	-27.5	15.7	0.00e+00	0	44	0	3705667584	12	4258
2026-01-30 02:41:41.37	202.92	12.26	-26.2	-27.9	15.5	0.00e+00	0	44	0	3711959040	12	4373
2026-01-30 02:41:42.37	202.92	12.16	-26.2	-27.9	15.5	0.00e+00	0	44	0	3717201920	12	4361
2026-01-30 02:41:43.37	202.92	12.07	-26.3	-28.1	15.4	0.00e+00	0	44	0	3722444800	12	4416
2026-01-30 02:41:44.37	202.92	11.97	-26.2	-27.8	15.5	0.00e+00	0	44	0	3728736256	12	4345
2026-01-30 02:41:45.37	202.92	11.88	-26.2	-27.9	15.5	0.00e+00	0	44	0	3733979136	12	4362
2026-01-30 02:41:46.38	202.92	11.78	-26.3	-28.1	15.4	0.00e+00	0	44	0	3740270592	12	4413
2026-01-30 02:41:47.38	202.92	11.69	-26.3	-28.1	15.3	0.00e+00	0	43	0	3745513472	12	4430
2026-01-30 02:41:48.39	202.92	11.60	-26.2	-27.9	15.4	0.00e+00	0	44	0	3751804928	12	4381
2026-01-30 02:41:49.38	202.92	11.50	-26.2	-27.8	15.5	0.00e+00	0	44	0	3757047808	12	4330
2026-01-30 02:41:50.39	202.92	11.41	-26.1	-27.7	15.6	0.00e+00	0	44	0	3762290688	12	4305
2026-01-30 02:41:51.39	202.92	11.32	-26.0	-27.4	15.7	0.00e+00	0	44	0	3768582144	12	4238
2026-01-30 02:41:52.40	202.91	11.22	-26.0	-27.5	15.7	0.00e+00	0	44	0	3773825024	12	4267
2026-01-30 02:41:53.40	202.91	11.13	-26.1	-27.6	15.6	0.00e+00	0	43	0	3779067904	12	4275
2026-01-30 02:41:54.40	202.91	11.04	-26.1	-27.8	15.5	0.00e+00	0	44	0	3785359360	12	4333
2026-01-30 02:41:55.41	202.91	10.95	-26.2	-27.8	15.4	0.00e+00	0	44	0	3790602240	12	4355
2026-01-30 02:41:56.41	202.91	10.86	-26.1	-27.6	15.6	0.00e+00	0	43	0	3795845120	12	4292
2026-01-30 02:41:57.41	202.91	10.77	-26.2	-27.8	15.5	0.00e+00	0	44	0	3802136576	12	4342
2026-01-30 02:41:58.41	202.91	10.68	-26.1	-27.7	15.5	0.00e+00	0	44	0	3807379456	12	4331
2026-01-30 02:41:59.41	202.91	10.59	-26.1	-27.8	15.5	0.00e+00	0	44	0	3813670912	12	4331
2026-01-30 02:42:00.41	202.91	10.50	-26.3	-28.1	15.3	0.00e+00	0	44	0	3818913792	12	4425
2026-01-30 02:42:01.41	202.91	10.41	-26.4	-28.4	15.1	0.00e+00	0	44	0	3824156672	12	4509
2026-01-30 02:42:02.41	202.91	10.32	-26.5	-28.1	15.0	0.00e+00	0	44	0	3830448128	13	4301
2026-01-30 02:42:03.42	202.91	10.23	-26.5	-27.9	15.1	0.00e+00	0	44	0	3835691008	13	4276
2026-01-30 02:42:04.43	202.91	10.14	-26.4	-27.9	15.1	0.00e+00	0	44	0	3840933888	13	4258
2026-01-30 02:42:05.43	202.91	10.06	-26.5	-28.1	15.0	0.00e+00	0	44	0	3847225344	13	4313
2026-01-30 02:42:06.44	202.91	9.97	-26.6	-28.2	14.9	0.00e+00	0	44	0	3852468224	13	4347
2026-01-30 02:42:07.44	202.91	9.88	-26.6	-28.4	14.8	0.00e+00	0	44	0	3858759680	13	4408
2026-01-30 02:42:08.45	202.90	9.79	-26.8	-28.6	14.6	1.10e-06	0	44	0	3864002560	13	4468
2026-01-30 02:42:09.45	202.90	9.71	-26.5	-28.1	14.9	0.00e+00	0	44	0	3869245440	13	4333
