passes_logs/2026/01/01/R3.0SM8_Murmansk_STILSPACE/R3.0SM8_Murmansk_STILSPACE__20260101_105229_NOAA_20_JPSS-1_rec.log

#Pass ID: 20260101_105229_NOAA 20 (JPSS-1)
#Satellite: NOAA 20 (JPSS-1)
#Configuration: NOAA 20
#almurnet v.1.7.20240730
#Start time: 2026-01-01 10:52:30

#Version: 2.2.20231116
#Station: R3.0SM8_Murmansk_STILSPACE
#Location: 33.092731 lon 68.902999 lat
#TLE: 1 43013U 17073A   25365.45761817  .00000173  00000+0  10307-3 0  9993
#TLE: 2 43013  98.7620 301.5517 0001951  60.3814 299.7557 14.19531661420675

#Time	Az	El	Level	Level2	SNR	BER	BlckErr	Temp	State	Recorded	gain1	gain2
2026-01-01 10:52:30.92	185.72	3.11	-52.6	-66.4	3.8	1.49e+00	0	47	0	0	67	18125
2026-01-01 10:52:31.91	185.77	3.18	-52.4	-66.2	3.8	1.49e+00	0	47	104	0	67	17776
2026-01-01 10:52:32.89	185.81	3.24	-52.3	-66.1	3.8	1.49e+00	0	47	104	0	67	17599
2026-01-01 10:52:33.88	185.85	3.30	-52.3	-66.0	3.8	1.49e+00	0	47	104	0	67	17457
2026-01-01 10:52:34.86	185.90	3.37	-52.1	-65.9	3.8	1.49e+00	0	47	104	0	67	17092
2026-01-01 10:52:35.85	185.94	3.43	-51.6	-65.6	3.8	1.49e+00	0	47	104	0	66	17647
2026-01-01 10:52:36.84	185.98	3.49	-51.7	-65.5	3.8	1.49e+00	0	47	104	0	66	17312
2026-01-01 10:52:37.83	186.03	3.56	-51.7	-65.5	3.8	1.49e+00	0	47	104	0	66	17316
2026-01-01 10:52:38.82	186.07	3.62	-51.5	-65.4	3.8	1.49e+00	0	47	104	0	66	17256
2026-01-01 10:52:39.81	186.12	3.69	-51.7	-65.4	3.8	1.49e+00	0	48	104	0	66	17232
2026-01-01 10:52:40.79	186.16	3.75	-51.7	-65.4	3.8	1.49e+00	0	48	104	0	66	17249
2026-01-01 10:52:41.78	186.21	3.81	-51.5	-65.4	3.8	1.49e+00	0	48	104	0	66	17213
2026-01-01 10:52:42.77	186.25	3.88	-51.5	-65.4	3.8	1.49e+00	0	48	104	0	66	17261
2026-01-01 10:52:43.76	186.30	3.94	-51.7	-65.4	3.8	1.49e+00	0	48	104	0	66	17267
2026-01-01 10:52:44.75	186.34	4.01	-51.7	-65.5	3.8	1.49e+00	0	47	104	0	66	17304
2026-01-01 10:52:45.73	186.39	4.07	-51.6	-65.5	3.8	1.49e+00	0	48	104	0	66	17337
2026-01-01 10:52:46.72	186.44	4.14	-51.7	-65.5	3.8	1.49e+00	0	48	104	0	66	17384
2026-01-01 10:52:47.71	186.48	4.20	-51.6	-65.5	3.8	1.49e+00	0	48	104	0	66	17336
2026-01-01 10:52:48.70	186.53	4.27	-51.7	-65.4	3.8	1.49e+00	0	48	104	0	66	17220
2026-01-01 10:52:49.69	186.57	4.33	-51.7	-65.2	3.8	1.49e+00	0	48	104	0	66	16803
2026-01-01 10:52:50.68	186.62	4.40	-51.5	-64.8	3.8	1.49e+00	0	48	104	0	66	15962
2026-01-01 10:52:51.67	186.67	4.46	-51.4	-64.1	3.8	1.49e+00	0	48	104	0	65	15691
2026-01-01 10:52:52.65	186.72	4.53	-51.4	-63.2	3.8	1.49e+00	0	48	104	0	65	14063
2026-01-01 10:52:53.64	186.76	4.60	-51.2	-62.0	4.2	1.46e+00	0	48	104	0	65	12326
2026-01-01 10:52:54.63	186.81	4.66	-51.3	-60.9	4.6	1.18e+00	0	48	0	0	65	10830
2026-01-01 10:52:55.61	186.86	4.73	-51.1	-59.9	5.0	8.35e-01	0	48	0	2097152	65	9660
2026-01-01 10:52:56.61	186.91	4.80	-50.9	-58.9	5.7	5.54e-01	0	49	0	4194304	65	8599
2026-01-01 10:52:57.60	186.95	4.86	-50.8	-57.9	6.4	2.92e-01	0	48	0	6291456	64	8147
2026-01-01 10:52:58.59	187.00	4.93	-50.6	-57.1	7.2	1.73e-01	0	49	0	8388608	64	7398
2026-01-01 10:52:59.57	187.05	5.00	-50.5	-56.5	7.7	1.01e-01	0	49	0	9437184	64	6888
2026-01-01 10:53:00.56	187.10	5.06	-50.5	-56.0	8.3	6.16e-02	0	49	0	11534336	63	6922
2026-01-01 10:53:01.56	187.15	5.13	-50.6	-56.5	7.8	6.57e-02	0	49	0	13631488	63	7332
2026-01-01 10:53:02.55	187.20	5.20	-50.6	-56.5	7.8	9.86e-02	0	49	0	15728640	63	7326
2026-01-01 10:53:03.54	187.25	5.27	-50.4	-55.9	8.5	6.12e-02	0	49	0	16777216	63	6809
2026-01-01 10:53:04.52	187.30	5.33	-50.1	-55.3	9.0	3.63e-02	0	49	0	18874368	63	6411
2026-01-01 10:53:05.51	187.35	5.40	-50.1	-54.7	9.6	1.59e-02	0	49	0	20971520	63	5981
2026-01-01 10:53:06.51	187.40	5.47	-49.8	-54.2	10.2	6.87e-03	0	49	0	23068672	62	5949
2026-01-01 10:53:07.49	187.45	5.54	-49.7	-53.8	10.6	4.70e-03	0	49	0	24117248	62	5687
2026-01-01 10:53:08.49	187.50	5.61	-49.4	-53.2	11.2	1.60e-03	0	49	0	26214400	61	5630
2026-01-01 10:53:09.48	187.55	5.68	-49.3	-52.9	11.5	8.54e-04	0	49	0	28311552	61	5418
2026-01-01 10:53:10.46	187.60	5.74	-49.1	-52.6	11.9	5.42e-04	0	49	0	30408704	61	5224
2026-01-01 10:53:11.45	187.65	5.81	-49.1	-52.6	11.9	3.67e-04	0	49	0	32505856	61	5231
2026-01-01 10:53:12.44	187.70	5.88	-48.9	-52.4	12.1	2.60e-04	0	50	0	33554432	61	5128
2026-01-01 10:53:13.43	187.75	5.95	-49.0	-52.4	12.1	2.91e-04	0	49	0	35651584	60	5431
2026-01-01 10:53:14.42	187.81	6.02	-48.9	-52.2	12.3	2.22e-04	0	50	0	37748736	60	5317
2026-01-01 10:53:15.42	187.86	6.09	-49.0	-52.4	12.1	2.69e-04	0	50	0	39845888	60	5423
2026-01-01 10:53:16.41	187.91	6.16	-48.9	-52.3	12.2	1.94e-04	0	50	0	40894464	60	5350
2026-01-01 10:53:17.39	187.96	6.23	-49.0	-52.2	12.3	1.69e-04	0	50	0	42991616	60	5325
2026-01-01 10:53:18.38	188.02	6.30	-48.9	-52.3	12.3	2.01e-04	0	50	0	45088768	60	5358
2026-01-01 10:53:19.37	188.07	6.37	-49.0	-52.3	12.3	1.81e-04	0	50	0	47185920	60	5384
2026-01-01 10:53:20.37	188.12	6.44	-49.1	-52.4	12.2	2.69e-04	0	50	0	48234496	60	5425
2026-01-01 10:53:21.36	188.18	6.51	-49.0	-52.2	12.3	1.32e-04	0	50	0	50331648	60	5336
2026-01-01 10:53:22.34	188.23	6.58	-48.9	-52.1	12.6	1.31e-04	0	50	0	52428800	60	5220
2026-01-01 10:53:23.34	188.28	6.65	-48.9	-52.1	12.5	1.06e-04	0	50	0	54525952	60	5267
2026-01-01 10:53:24.32	188.34	6.72	-48.9	-52.1	12.5	1.07e-04	0	50	0	55574528	60	5265
2026-01-01 10:53:25.30	188.39	6.80	-48.9	-52.1	12.5	1.24e-04	0	50	0	57671680	60	5239
2026-01-01 10:53:26.29	188.45	6.87	-48.8	-51.9	12.7	9.68e-05	0	50	0	59768832	60	5129
2026-01-01 10:53:27.28	188.50	6.94	-48.8	-51.8	12.8	5.03e-05	0	50	0	61865984	60	5092
2026-01-01 10:53:28.27	188.56	7.01	-48.9	-51.9	12.7	6.56e-05	0	50	0	63963136	60	5147
2026-01-01 10:53:29.25	188.61	7.08	-49.0	-52.2	12.5	7.78e-05	0	50	0	65011712	60	5294
2026-01-01 10:53:30.24	188.67	7.15	-49.0	-52.2	12.4	1.50e-04	0	50	0	67108864	60	5331
2026-01-01 10:53:31.22	188.72	7.23	-49.0	-52.1	12.6	1.15e-04	0	50	0	69206016	60	5226
2026-01-01 10:53:32.21	188.78	7.30	-49.1	-52.3	12.4	1.38e-04	0	50	0	71303168	60	5372
2026-01-01 10:53:33.20	188.84	7.37	-49.0	-52.1	12.6	1.07e-04	0	50	0	72351744	60	5263
2026-01-01 10:53:34.20	188.89	7.45	-49.0	-52.2	12.6	9.61e-05	0	50	0	74448896	60	5284
2026-01-01 10:53:35.18	188.95	7.52	-49.1	-52.3	12.4	1.58e-04	0	50	0	76546048	60	5383
2026-01-01 10:53:36.17	189.01	7.59	-48.9	-52.0	12.7	1.11e-04	0	51	0	78643200	60	5203
2026-01-01 10:53:37.16	189.07	7.66	-48.9	-51.8	12.9	5.87e-05	0	51	0	79691776	60	5070
2026-01-01 10:53:38.15	189.12	7.74	-48.8	-51.7	13.1	3.28e-05	0	51	0	81788928	60	5002
2026-01-01 10:53:39.14	189.18	7.81	-48.7	-51.5	13.2	2.97e-05	0	51	0	83886080	60	4910
2026-01-01 10:53:40.13	189.24	7.89	-48.8	-51.7	13.1	2.13e-05	0	51	0	85983232	60	4992
2026-01-01 10:53:41.12	189.30	7.96	-48.7	-51.5	13.2	2.59e-05	0	51	0	88080384	60	4906
2026-01-01 10:53:42.11	189.36	8.04	-48.5	-51.2	13.5	1.14e-05	0	51	0	89128960	60	4752
2026-01-01 10:53:43.11	189.42	8.11	-48.5	-51.2	13.6	9.10e-06	0	51	0	91226112	60	4741
2026-01-01 10:53:44.10	189.48	8.19	-48.4	-51.2	13.6	9.90e-06	0	51	0	93323264	60	4722
2026-01-01 10:53:45.09	189.54	8.26	-48.6	-51.3	13.4	9.10e-06	0	51	0	95420416	60	4814
2026-01-01 10:53:46.07	189.60	8.34	-48.9	-51.8	13.0	1.98e-05	0	51	0	96468992	60	5090
2026-01-01 10:53:47.05	189.66	8.41	-48.5	-51.4	13.4	1.52e-05	0	51	0	98566144	60	4861
2026-01-01 10:53:48.05	189.72	8.49	-48.7	-51.4	13.4	1.83e-05	0	51	0	100663296	60	4861
2026-01-01 10:53:49.03	189.78	8.56	-48.7	-51.5	13.3	1.06e-05	0	51	0	102760448	60	4926
2026-01-01 10:53:50.02	189.84	8.64	-48.8	-51.6	13.2	1.75e-05	0	51	0	103809024	60	4974
2026-01-01 10:53:51.01	189.90	8.71	-48.9	-51.9	12.9	3.50e-05	0	51	0	105906176	60	5123
2026-01-01 10:53:52.00	189.96	8.79	-48.7	-51.5	13.3	3.58e-05	0	51	0	108003328	60	4917
2026-01-01 10:53:52.99	190.03	8.87	-48.6	-51.3	13.5	1.90e-05	0	51	0	110100480	60	4811
2026-01-01 10:53:53.98	190.09	8.94	-48.5	-51.1	13.7	6.10e-06	0	51	0	112197632	60	4701
2026-01-01 10:53:54.98	190.15	9.02	-48.5	-51.0	13.9	1.50e-06	0	51	0	113246208	59	4894
2026-01-01 10:53:55.96	190.22	9.10	-48.4	-51.0	13.8	2.20e-06	0	51	0	115343360	59	4913
2026-01-01 10:53:56.95	190.28	9.18	-48.4	-50.9	14.0	1.50e-06	0	51	0	117440512	59	4855
2026-01-01 10:53:57.93	190.34	9.25	-48.3	-50.7	14.1	3.00e-06	0	51	0	119537664	59	4747
2026-01-01 10:53:58.93	190.41	9.33	-48.2	-50.5	14.3	0.00e+00	0	51	0	120586240	59	4650
2026-01-01 10:53:59.92	190.47	9.41	-48.2	-50.6	14.3	0.00e+00	0	51	0	122683392	59	4666
2026-01-01 10:54:00.91	190.54	9.49	-48.1	-50.5	14.4	3.00e-06	0	52	0	124780544	59	4612
2026-01-01 10:54:01.90	190.60	9.57	-48.3	-50.6	14.3	0.00e+00	0	52	0	126877696	59	4681
2026-01-01 10:54:02.89	190.67	9.65	-48.4	-50.8	14.1	4.50e-06	0	51	0	128974848	59	4789
2026-01-01 10:54:03.88	190.73	9.73	-48.3	-50.7	14.2	0.00e+00	0	52	0	130023424	59	4733
2026-01-01 10:54:04.87	190.80	9.81	-48.3	-50.7	14.2	7.00e-07	0	51	0	132120576	59	4732
2026-01-01 10:54:05.86	190.87	9.89	-48.3	-50.8	14.1	3.00e-06	0	52	0	134217728	59	4789
2026-01-01 10:54:06.84	190.93	9.96	-48.3	-50.9	14.1	7.00e-07	0	52	0	136314880	59	4822
2026-01-01 10:54:07.83	191.00	10.04	-48.3	-50.8	14.1	2.20e-06	0	52	0	137363456	59	4782
2026-01-01 10:54:08.81	191.07	10.12	-48.3	-50.6	14.3	1.50e-06	0	52	0	139460608	59	4702
2026-01-01 10:54:09.81	191.13	10.21	-48.3	-50.7	14.3	7.00e-07	0	52	0	141557760	59	4743
2026-01-01 10:54:10.80	191.20	10.29	-48.3	-50.7	14.3	1.50e-06	0	52	0	143654912	59	4723
2026-01-01 10:54:11.79	191.27	10.37	-48.2	-50.5	14.5	1.50e-06	0	52	0	144703488	59	4617
2026-01-01 10:54:12.79	191.34	10.45	-48.1	-50.3	14.7	7.00e-07	0	52	0	146800640	59	4513
2026-01-01 10:54:13.78	191.41	10.53	-48.1	-50.3	14.6	0.00e+00	0	52	0	148897792	59	4530
2026-01-01 10:54:14.78	191.48	10.61	-48.0	-50.2	14.7	1.50e-06	0	52	0	150994944	59	4493
2026-01-01 10:54:15.77	191.55	10.69	-48.0	-50.2	14.7	0.00e+00	0	52	0	152043520	59	4485
2026-01-01 10:54:16.76	191.62	10.78	-48.1	-50.4	14.6	0.00e+00	0	52	0	154140672	58	4853
2026-01-01 10:54:17.75	191.69	10.86	-48.1	-50.5	14.5	0.00e+00	0	52	0	156237824	58	4881
2026-01-01 10:54:18.73	191.76	10.94	-48.1	-50.4	14.6	1.50e-06	0	52	0	158334976	58	4837
2026-01-01 10:54:19.72	191.83	11.02	-48.1	-50.4	14.6	1.50e-06	0	52	0	160432128	58	4861
2026-01-01 10:54:20.71	191.91	11.11	-48.2	-50.6	14.4	7.00e-07	0	52	0	161480704	58	4928
2026-01-01 10:54:21.69	191.98	11.19	-48.3	-50.7	14.3	1.50e-06	0	52	0	163577856	58	5010
2026-01-01 10:54:22.68	192.05	11.27	-48.2	-50.6	14.4	7.00e-07	0	52	0	165675008	58	4949
2026-01-01 10:54:23.68	192.12	11.36	-48.2	-50.6	14.4	0.00e+00	0	52	0	167772160	58	4937
2026-01-01 10:54:24.67	192.20	11.44	-48.1	-50.5	14.5	7.00e-07	0	52	0	168820736	58	4894
2026-01-01 10:54:25.65	192.27	11.52	-48.0	-50.2	14.8	0.00e+00	0	52	0	170917888	58	4729
2026-01-01 10:54:26.64	192.34	11.61	-47.8	-50.0	15.0	0.00e+00	0	52	0	173015040	58	4615
2026-01-01 10:54:27.63	192.42	11.69	-47.8	-50.0	15.0	0.00e+00	0	52	0	175112192	58	4626
2026-01-01 10:54:28.62	192.49	11.78	-48.0	-50.2	14.9	0.00e+00	0	52	0	176160768	58	4706
2026-01-01 10:54:29.61	192.57	11.86	-48.1	-50.4	14.6	0.00e+00	0	52	0	178257920	58	4862
2026-01-01 10:54:30.60	192.65	11.95	-48.1	-50.4	14.7	7.00e-07	0	52	0	180355072	58	4828
2026-01-01 10:54:31.58	192.72	12.04	-48.0	-50.1	14.9	0.00e+00	0	53	0	182452224	58	4701
2026-01-01 10:54:32.57	192.80	12.12	-47.8	-50.0	15.0	0.00e+00	0	52	0	184549376	58	4624
2026-01-01 10:54:33.55	192.87	12.21	-47.8	-50.0	15.1	0.00e+00	0	52	0	185597952	58	4618
2026-01-01 10:54:34.55	192.95	12.29	-47.9	-50.1	15.0	0.00e+00	0	52	0	187695104	58	4661
2026-01-01 10:54:35.53	193.03	12.38	-48.0	-50.2	14.8	0.00e+00	0	52	0	189792256	58	4740
2026-01-01 10:54:36.52	193.11	12.47	-48.1	-50.3	14.7	0.00e+00	0	53	0	191889408	58	4807
2026-01-01 10:54:37.51	193.19	12.55	-47.9	-50.1	14.9	0.00e+00	0	53	0	192937984	58	4699
2026-01-01 10:54:38.49	193.27	12.64	-47.9	-50.1	15.0	0.00e+00	0	53	0	195035136	58	4690
2026-01-01 10:54:39.48	193.35	12.73	-47.9	-50.1	15.0	0.00e+00	0	53	0	197132288	58	4686
2026-01-01 10:54:40.48	193.43	12.82	-48.0	-50.2	14.8	0.00e+00	0	53	0	199229440	58	4751
2026-01-01 10:54:41.46	193.51	12.91	-47.9	-50.1	15.0	0.00e+00	0	53	0	200278016	58	4684
2026-01-01 10:54:42.44	193.59	12.99	-47.9	-50.2	14.9	0.00e+00	0	53	0	202375168	58	4712
2026-01-01 10:54:43.42	193.67	13.08	-48.0	-50.2	14.9	0.00e+00	0	53	0	204472320	58	4752
2026-01-01 10:54:44.41	193.75	13.17	-47.7	-49.9	15.2	0.00e+00	0	53	0	206569472	58	4553
2026-01-01 10:54:45.40	193.83	13.26	-47.6	-49.7	15.4	0.00e+00	0	53	0	208666624	58	4442
2026-01-01 10:54:46.39	193.92	13.35	-47.4	-49.4	15.7	0.00e+00	0	53	0	209715200	58	4309
2026-01-01 10:54:47.39	194.00	13.44	-47.4	-49.4	15.8	0.00e+00	0	53	0	211812352	58	4299
2026-01-01 10:54:48.38	194.09	13.53	-47.4	-49.4	15.7	0.00e+00	0	53	0	213909504	58	4301
2026-01-01 10:54:49.37	194.17	13.62	-47.4	-49.4	15.7	0.00e+00	0	53	0	216006656	57	4566
2026-01-01 10:54:50.35	194.25	13.71	-47.4	-49.4	15.7	0.00e+00	0	53	0	217055232	57	4562
2026-01-01 10:54:51.34	194.34	13.80	-47.4	-49.3	15.9	0.00e+00	0	53	0	219152384	57	4496
2026-01-01 10:54:52.33	194.43	13.90	-47.4	-49.3	15.8	0.00e+00	0	53	0	221249536	57	4520
2026-01-01 10:54:53.31	194.51	13.99	-47.5	-49.4	15.7	0.00e+00	0	53	0	223346688	57	4564
2026-01-01 10:54:54.30	194.60	14.08	-47.4	-49.3	15.8	0.00e+00	0	53	0	224395264	57	4521
2026-01-01 10:54:55.29	194.69	14.17	-47.4	-49.3	15.8	0.00e+00	0	53	0	226492416	57	4514
2026-01-01 10:54:56.27	194.77	14.26	-47.3	-49.2	16.0	0.00e+00	0	53	0	228589568	57	4446
2026-01-01 10:54:57.27	194.86	14.36	-47.2	-49.1	16.0	0.00e+00	0	53	0	230686720	57	4402
2026-01-01 10:54:58.25	194.95	14.45	-47.3	-49.1	16.0	0.00e+00	0	53	0	231735296	57	4432
2026-01-01 10:54:59.23	195.04	14.54	-47.2	-49.1	16.0	0.00e+00	0	53	0	233832448	57	4419
2026-01-01 10:55:00.22	195.13	14.64	-47.3	-49.1	16.0	0.00e+00	0	53	0	235929600	57	4422
2026-01-01 10:55:01.20	195.22	14.73	-47.4	-49.3	15.8	0.00e+00	0	53	0	238026752	57	4514
2026-01-01 10:55:02.20	195.31	14.83	-47.5	-49.4	15.7	0.00e+00	0	53	0	240123904	57	4561
2026-01-01 10:55:03.18	195.40	14.92	-47.4	-49.2	15.9	0.00e+00	0	53	0	241172480	57	4480
2026-01-01 10:55:04.18	195.50	15.01	-47.3	-49.2	16.0	0.00e+00	0	53	0	243269632	57	4452
2026-01-01 10:55:05.17	195.59	15.11	-47.4	-49.2	16.0	0.00e+00	0	53	0	245366784	57	4451
2026-01-01 10:55:06.16	195.68	15.21	-47.4	-49.3	15.9	0.00e+00	0	53	0	247463936	57	4497
2026-01-01 10:55:07.15	195.78	15.30	-47.4	-49.3	15.9	0.00e+00	0	53	0	248512512	57	4513
2026-01-01 10:55:08.13	195.87	15.40	-47.5	-49.4	15.7	0.00e+00	0	53	0	250609664	57	4594
2026-01-01 10:55:09.13	195.97	15.50	-47.4	-49.2	15.9	0.00e+00	0	53	0	252706816	57	4478
2026-01-01 10:55:10.11	196.06	15.59	-47.3	-49.2	16.0	0.00e+00	0	53	0	254803968	57	4453
2026-01-01 10:55:11.10	196.16	15.69	-47.3	-49.1	16.1	0.00e+00	0	54	0	255852544	57	4398
2026-01-01 10:55:12.09	196.26	15.79	-47.4	-49.2	15.9	0.00e+00	0	53	0	257949696	57	4485
2026-01-01 10:55:13.08	196.35	15.88	-47.3	-49.1	16.0	0.00e+00	0	53	0	260046848	57	4423
2026-01-01 10:55:14.07	196.45	15.98	-47.5	-49.3	15.9	0.00e+00	0	54	0	262144000	57	4507
2026-01-01 10:55:15.05	196.55	16.08	-47.7	-49.7	15.5	0.00e+00	0	53	0	264241152	57	4711
2026-01-01 10:55:16.04	196.65	16.18	-47.5	-49.4	15.8	0.00e+00	0	54	0	265289728	57	4570
2026-01-01 10:55:17.02	196.75	16.28	-47.5	-49.4	15.8	0.00e+00	0	53	0	267386880	57	4550
2026-01-01 10:55:18.01	196.85	16.38	-47.5	-49.3	15.8	0.00e+00	0	54	0	269484032	57	4542
2026-01-01 10:55:19.00	196.95	16.48	-47.6	-49.5	15.6	0.00e+00	0	54	0	271581184	57	4634
2026-01-01 10:55:20.00	197.05	16.58	-47.5	-49.5	15.7	0.00e+00	0	54	0	272629760	57	4633
2026-01-01 10:55:20.99	197.16	16.68	-47.6	-49.6	15.6	0.00e+00	0	54	0	274726912	57	4667
2026-01-01 10:55:21.98	197.26	16.78	-47.7	-49.8	15.4	0.00e+00	0	54	0	276824064	57	4777
2026-01-01 10:55:22.97	197.36	16.88	-47.6	-49.6	15.6	0.00e+00	0	54	0	278921216	57	4677
2026-01-01 10:55:23.96	197.47	16.98	-47.5	-49.5	15.7	0.00e+00	0	54	0	279969792	57	4625
2026-01-01 10:55:24.95	197.57	17.08	-47.6	-49.6	15.6	0.00e+00	0	54	0	282066944	57	4697
2026-01-01 10:55:25.94	197.68	17.19	-47.8	-49.8	15.4	0.00e+00	0	54	0	284164096	57	4782
2026-01-01 10:55:26.93	197.79	17.29	-47.7	-49.7	15.5	0.00e+00	0	54	0	286261248	57	4724
2026-01-01 10:55:27.92	197.89	17.39	-47.7	-49.7	15.6	7.00e-07	0	54	0	288358400	57	4711
2026-01-01 10:55:28.90	198.00	17.49	-47.8	-49.8	15.4	0.00e+00	0	54	0	289406976	57	4794
2026-01-01 10:55:29.87	198.11	17.59	-47.8	-49.7	15.5	0.00e+00	0	54	0	291504128	57	4745
2026-01-01 10:55:30.85	198.22	17.70	-47.7	-49.7	15.4	0.00e+00	0	54	0	293601280	57	4748
2026-01-01 10:55:31.83	198.33	17.80	-47.9	-50.1	15.1	0.00e+00	0	54	0	295698432	57	4931
2026-01-01 10:55:32.83	198.44	17.91	-47.8	-49.8	15.4	0.00e+00	0	54	0	296747008	57	4784
2026-01-01 10:55:33.81	198.55	18.01	-47.7	-49.6	15.6	0.00e+00	0	54	0	298844160	57	4683
2026-01-01 10:55:34.81	198.66	18.12	-47.7	-49.6	15.6	0.00e+00	0	54	0	300941312	57	4692
2026-01-01 10:55:35.79	198.78	18.22	-47.6	-49.5	15.7	0.00e+00	0	54	0	303038464	57	4623
2026-01-01 10:55:36.78	198.89	18.33	-47.6	-49.5	15.7	0.00e+00	0	54	0	304087040	57	4646
2026-01-01 10:55:37.77	199.00	18.43	-47.7	-49.6	15.6	0.00e+00	0	54	0	306184192	57	4703
2026-01-01 10:55:38.75	199.12	18.54	-47.6	-49.6	15.6	0.00e+00	0	54	0	308281344	57	4662
2026-01-01 10:55:39.74	199.24	18.65	-47.5	-49.3	15.9	0.00e+00	0	54	0	310378496	57	4536
2026-01-01 10:55:40.74	199.35	18.75	-47.5	-49.4	15.8	0.00e+00	0	54	0	311427072	57	4577
2026-01-01 10:55:41.73	199.47	18.86	-47.7	-49.6	15.6	0.00e+00	0	54	0	313524224	57	4680
2026-01-01 10:55:42.72	199.59	18.97	-47.6	-49.5	15.7	0.00e+00	0	54	0	315621376	57	4647
2026-01-01 10:55:43.70	199.71	19.08	-47.5	-49.4	15.9	0.00e+00	0	54	0	317718528	57	4547
2026-01-01 10:55:44.69	199.83	19.19	-47.4	-49.2	16.0	0.00e+00	0	54	0	319815680	57	4472
2026-01-01 10:55:45.69	199.95	19.30	-47.4	-49.2	16.0	0.00e+00	0	54	0	320864256	57	4489
2026-01-01 10:55:46.68	200.07	19.41	-47.6	-49.4	15.8	0.00e+00	0	54	0	322961408	57	4581
2026-01-01 10:55:47.67	200.20	19.52	-47.6	-49.4	15.8	0.00e+00	0	54	0	325058560	57	4577
2026-01-01 10:55:48.66	200.32	19.63	-47.4	-49.2	16.0	0.00e+00	0	54	0	327155712	57	4471
2026-01-01 10:55:49.65	200.45	19.74	-47.4	-49.2	16.0	0.00e+00	0	54	0	328204288	57	4468
2026-01-01 10:55:50.63	200.57	19.85	-47.5	-49.4	15.9	0.00e+00	0	54	0	330301440	57	4566
2026-01-01 10:55:51.62	200.70	19.96	-47.5	-49.3	16.0	0.00e+00	0	54	0	332398592	57	4516
2026-01-01 10:55:52.61	200.82	20.07	-47.4	-49.2	16.0	0.00e+00	0	54	0	334495744	57	4471
2026-01-01 10:55:53.60	200.95	20.18	-47.4	-49.3	16.0	0.00e+00	0	54	0	335544320	57	4494
2026-01-01 10:55:54.59	201.08	20.29	-47.6	-49.4	15.8	0.00e+00	0	54	0	337641472	57	4578
2026-01-01 10:55:55.58	201.21	20.41	-47.6	-49.5	15.7	0.00e+00	0	54	0	339738624	57	4633
2026-01-01 10:55:56.57	201.34	20.52	-47.6	-49.6	15.7	0.00e+00	0	54	0	341835776	57	4664
2026-01-01 10:55:57.55	201.47	20.63	-47.7	-49.7	15.6	0.00e+00	0	54	0	343932928	57	4708
2026-01-01 10:55:58.55	201.61	20.75	-47.6	-49.5	15.7	0.00e+00	0	54	0	344981504	57	4633
2026-01-01 10:55:59.53	201.74	20.86	-47.7	-49.7	15.6	0.00e+00	0	54	0	347078656	57	4706
2026-01-01 10:56:00.51	201.87	20.97	-47.7	-49.7	15.5	0.00e+00	0	54	0	349175808	57	4749
2026-01-01 10:56:01.49	202.01	21.09	-47.8	-49.8	15.5	0.00e+00	0	54	0	351272960	57	4763
2026-01-01 10:56:02.48	202.14	21.20	-47.8	-49.9	15.4	0.00e+00	0	54	0	352321536	57	4821
2026-01-01 10:56:03.46	202.28	21.32	-47.9	-49.9	15.4	0.00e+00	0	54	0	354418688	57	4847
2026-01-01 10:56:04.45	202.42	21.43	-47.9	-50.0	15.3	0.00e+00	0	55	0	356515840	57	4871
2026-01-01 10:56:05.44	202.56	21.55	-48.2	-50.3	15.0	0.00e+00	0	54	0	358612992	58	4779
2026-01-01 10:56:06.43	202.70	21.67	-48.2	-50.4	14.9	0.00e+00	0	54	0	359661568	58	4816
2026-01-01 10:56:07.42	202.84	21.78	-48.2	-50.3	15.0	0.00e+00	0	54	0	361758720	58	4801
2026-01-01 10:56:08.41	202.98	21.90	-48.2	-50.4	14.9	7.00e-07	0	54	0	363855872	58	4846
2026-01-01 10:56:09.40	203.13	22.02	-48.3	-50.5	14.8	0.00e+00	0	54	0	365953024	58	4902
2026-01-01 10:56:10.39	203.27	22.14	-48.3	-50.4	14.9	0.00e+00	0	55	0	368050176	58	4867
2026-01-01 10:56:11.36	203.41	22.25	-48.4	-50.6	14.7	0.00e+00	0	54	0	369098752	58	4959
2026-01-01 10:56:12.35	203.56	22.37	-48.4	-50.7	14.6	7.00e-07	0	54	0	371195904	58	5000
2026-01-01 10:56:13.34	203.71	22.49	-48.3	-50.4	14.9	7.00e-07	0	54	0	373293056	58	4858
2026-01-01 10:56:14.32	203.86	22.61	-48.2	-50.3	15.0	0.00e+00	0	54	0	375390208	58	4789
2026-01-01 10:56:15.31	204.01	22.73	-48.2	-50.3	15.0	0.00e+00	0	54	0	376438784	58	4793
2026-01-01 10:56:16.30	204.16	22.85	-48.2	-50.3	15.1	0.00e+00	0	55	0	378535936	58	4765
2026-01-01 10:56:17.29	204.31	22.97	-48.2	-50.4	14.9	0.00e+00	0	54	0	380633088	58	4835
2026-01-01 10:56:18.28	204.47	23.09	-48.3	-50.5	14.8	7.00e-07	0	54	0	382730240	58	4899
2026-01-01 10:56:19.26	204.62	23.21	-48.2	-50.3	15.1	0.00e+00	0	54	0	383778816	58	4763
2026-01-01 10:56:20.26	204.78	23.34	-48.0	-50.1	15.3	7.00e-07	0	54	0	385875968	58	4658
2026-01-01 10:56:21.25	204.93	23.46	-47.9	-49.9	15.5	0.00e+00	0	55	0	387973120	58	4547
2026-01-01 10:56:22.24	205.09	23.58	-47.9	-49.9	15.4	0.00e+00	0	55	0	390070272	58	4573
2026-01-01 10:56:23.22	205.25	23.70	-47.9	-49.9	15.4	0.00e+00	0	55	0	391118848	58	4586
2026-01-01 10:56:24.20	205.41	23.82	-48.1	-50.1	15.2	0.00e+00	0	55	0	393216000	58	4688
2026-01-01 10:56:25.19	205.57	23.95	-48.2	-50.4	15.0	0.00e+00	0	55	0	395313152	58	4816
2026-01-01 10:56:26.18	205.74	24.07	-48.4	-50.6	14.8	7.00e-07	0	55	0	397410304	58	4952
2026-01-01 10:56:27.17	205.90	24.20	-48.3	-50.6	14.8	0.00e+00	0	55	0	398458880	58	4930
2026-01-01 10:56:28.16	206.07	24.32	-48.5	-50.7	14.6	7.00e-07	0	55	0	400556032	58	5031
2026-01-01 10:56:29.14	206.23	24.44	-48.4	-50.6	14.8	0.00e+00	0	55	0	402653184	58	4935
2026-01-01 10:56:30.13	206.40	24.57	-48.4	-50.6	14.7	0.00e+00	0	55	0	404750336	58	4961
2026-01-01 10:56:31.12	206.57	24.70	-48.4	-50.7	14.6	0.00e+00	0	55	0	406847488	58	5009
2026-01-01 10:56:32.11	206.74	24.82	-48.4	-50.6	14.7	1.50e-06	0	55	0	407896064	58	4955
2026-01-01 10:56:33.10	206.91	24.95	-48.3	-50.5	14.8	0.00e+00	0	55	0	409993216	58	4914
2026-01-01 10:56:34.09	207.09	25.08	-48.3	-50.5	14.8	0.00e+00	0	55	0	412090368	58	4911
2026-01-01 10:56:35.07	207.26	25.20	-48.3	-50.6	14.8	7.00e-07	0	55	0	414187520	58	4939
2026-01-01 10:56:36.05	207.43	25.33	-48.5	-50.8	14.6	0.00e+00	0	55	0	415236096	58	5073
2026-01-01 10:56:37.05	207.61	25.46	-48.4	-50.6	14.8	0.00e+00	0	55	0	417333248	58	4961
2026-01-01 10:56:38.04	207.79	25.58	-48.6	-50.9	14.5	0.00e+00	0	54	0	419430400	58	5104
2026-01-01 10:56:39.03	207.97	25.71	-48.4	-50.6	14.7	7.00e-07	0	55	0	421527552	58	4974
2026-01-01 10:56:40.02	208.16	25.84	-48.5	-50.8	14.5	7.00e-07	0	55	0	422576128	58	5089
2026-01-01 10:56:41.01	208.34	25.97	-48.3	-50.5	14.8	0.00e+00	0	55	0	424673280	58	4919
2026-01-01 10:56:42.00	208.52	26.10	-48.3	-50.5	14.9	0.00e+00	0	55	0	426770432	58	4876
2026-01-01 10:56:42.98	208.71	26.23	-48.3	-50.4	15.0	0.00e+00	0	55	0	428867584	58	4843
2026-01-01 10:56:43.98	208.90	26.36	-48.3	-50.4	14.9	0.00e+00	0	55	0	430964736	58	4854
2026-01-01 10:56:44.97	209.09	26.49	-48.1	-50.2	15.2	0.00e+00	0	55	0	432013312	58	4709
2026-01-01 10:56:45.96	209.28	26.62	-48.0	-50.1	15.3	0.00e+00	0	55	0	434110464	58	4678
2026-01-01 10:56:46.94	209.47	26.75	-48.1	-50.1	15.3	0.00e+00	0	55	0	436207616	58	4673
2026-01-01 10:56:47.93	209.66	26.88	-47.9	-49.9	15.5	0.00e+00	0	55	0	438304768	58	4573
2026-01-01 10:56:48.93	209.86	27.02	-47.9	-49.8	15.6	0.00e+00	0	55	0	439353344	58	4505
2026-01-01 10:56:49.92	210.06	27.15	-48.0	-50.0	15.4	0.00e+00	0	55	0	441450496	58	4600
2026-01-01 10:56:50.90	210.26	27.28	-48.0	-50.0	15.3	0.00e+00	0	55	0	443547648	58	4642
2026-01-01 10:56:51.89	210.46	27.41	-48.1	-50.1	15.2	0.00e+00	0	55	0	445644800	58	4699
2026-01-01 10:56:52.88	210.66	27.54	-48.1	-50.2	15.2	0.00e+00	0	55	0	446693376	58	4715
2026-01-01 10:56:53.87	210.86	27.68	-48.2	-50.4	15.0	0.00e+00	0	55	0	448790528	58	4846
2026-01-01 10:56:54.86	211.07	27.81	-48.2	-50.4	15.0	0.00e+00	0	55	0	450887680	58	4848
2026-01-01 10:56:55.85	211.28	27.94	-48.4	-50.6	14.8	0.00e+00	0	55	0	452984832	58	4970
2026-01-01 10:56:56.84	211.48	28.08	-48.4	-50.6	14.8	0.00e+00	0	55	0	455081984	58	4937
2026-01-01 10:56:57.83	211.69	28.21	-48.5	-50.7	14.7	1.50e-06	0	55	0	456130560	58	5027
2026-01-01 10:56:58.82	211.91	28.34	-48.4	-50.6	14.8	0.00e+00	0	55	0	458227712	58	4945
2026-01-01 10:56:59.81	212.12	28.48	-48.3	-50.5	14.9	0.00e+00	0	55	0	460324864	58	4874
2026-01-01 10:57:00.80	212.34	28.61	-48.3	-50.5	14.9	7.00e-07	0	55	0	462422016	58	4903
2026-01-01 10:57:01.79	212.55	28.75	-48.4	-50.6	14.8	0.00e+00	0	55	0	463470592	58	4955
2026-01-01 10:57:02.78	212.77	28.88	-48.5	-50.9	14.5	0.00e+00	0	55	0	465567744	58	5103
2026-01-01 10:57:03.77	212.99	29.02	-48.6	-51.0	14.3	1.50e-06	0	55	0	467664896	59	4923
2026-01-01 10:57:04.75	213.21	29.15	-48.6	-51.0	14.3	1.50e-06	0	55	0	469762048	59	4916
2026-01-01 10:57:05.74	213.44	29.29	-48.7	-51.1	14.3	7.00e-07	0	55	0	470810624	59	4957
2026-01-01 10:57:06.73	213.67	29.42	-48.8	-51.2	14.1	3.00e-06	0	55	0	472907776	59	5037
2026-01-01 10:57:07.72	213.89	29.56	-48.8	-51.3	14.1	3.00e-06	0	55	0	475004928	59	5072
2026-01-01 10:57:08.70	214.12	29.70	-48.9	-51.4	14.0	3.00e-06	0	55	0	477102080	59	5109
2026-01-01 10:57:09.69	214.35	29.83	-48.8	-51.3	14.0	7.00e-07	0	55	0	479199232	59	5099
2026-01-01 10:57:10.68	214.59	29.97	-48.9	-51.4	14.0	3.00e-06	0	55	0	480247808	59	5142
2026-01-01 10:57:11.67	214.82	30.11	-48.8	-51.3	14.1	7.60e-06	0	55	0	482344960	59	5066
2026-01-01 10:57:12.65	215.06	30.24	-48.7	-51.1	14.2	1.50e-06	0	55	0	484442112	59	4966
2026-01-01 10:57:13.65	215.30	30.38	-48.7	-51.1	14.3	7.00e-07	0	55	0	486539264	59	4965
2026-01-01 10:57:14.64	215.55	30.52	-48.9	-51.3	14.1	7.00e-07	0	55	0	487587840	59	5068
2026-01-01 10:57:15.62	215.79	30.65	-49.0	-51.5	13.9	3.00e-06	0	55	0	489684992	59	5212
2026-01-01 10:57:16.61	216.03	30.79	-49.1	-51.8	13.6	5.30e-06	0	55	0	491782144	60	5059
2026-01-01 10:57:17.59	216.28	30.92	-49.2	-51.9	13.5	1.52e-05	0	55	0	493879296	60	5120
2026-01-01 10:57:18.58	216.53	31.06	-49.3	-52.1	13.2	1.52e-05	0	55	0	494927872	60	5253
2026-01-01 10:57:19.56	216.78	31.20	-49.2	-52.1	13.2	2.97e-05	0	55	0	497025024	60	5273
2026-01-01 10:57:20.55	217.03	31.34	-49.4	-52.3	13.0	3.35e-05	0	55	0	499122176	60	5400
2026-01-01 10:57:21.54	217.29	31.47	-49.3	-52.2	13.1	3.43e-05	0	55	0	501219328	60	5331
2026-01-01 10:57:22.53	217.55	31.61	-49.4	-52.3	13.0	2.28e-05	0	55	0	503316480	60	5401
2026-01-01 10:57:23.51	217.81	31.75	-49.4	-52.4	13.0	4.95e-05	0	55	0	504365056	60	5410
2026-01-01 10:57:24.50	218.07	31.88	-49.5	-52.4	13.0	4.95e-05	0	55	0	506462208	60	5453
2026-01-01 10:57:25.49	218.33	32.02	-49.5	-52.5	12.8	5.26e-05	0	55	0	508559360	60	5513
2026-01-01 10:57:26.47	218.60	32.16	-49.5	-52.6	12.8	7.17e-05	0	55	0	509607936	61	5233
2026-01-01 10:57:27.46	218.87	32.30	-49.7	-52.8	12.6	7.01e-05	0	55	0	511705088	61	5342
2026-01-01 10:57:28.45	219.14	32.43	-49.8	-53.1	12.3	1.85e-04	0	55	0	513802240	61	5536
2026-01-01 10:57:29.44	219.41	32.57	-49.7	-53.1	12.2	1.86e-04	0	55	0	515899392	61	5579
2026-01-01 10:57:30.42	219.69	32.71	-49.8	-53.2	12.1	3.29e-04	0	55	0	517996544	61	5647
2026-01-01 10:57:31.42	219.97	32.84	-49.9	-53.2	12.1	3.62e-04	0	55	0	519045120	61	5656
2026-01-01 10:57:32.40	220.25	32.98	-49.8	-53.3	12.0	3.44e-04	0	55	0	521142272	61	5700
2026-01-01 10:57:33.39	220.53	33.12	-49.9	-53.4	11.9	4.14e-04	0	55	0	523239424	61	5778
2026-01-01 10:57:34.38	220.82	33.25	-50.0	-53.6	11.7	4.07e-04	0	56	0	525336576	62	5574
2026-01-01 10:57:35.37	221.10	33.39	-50.1	-53.6	11.7	7.18e-04	0	55	0	526385152	62	5579
2026-01-01 10:57:36.36	221.39	33.53	-50.0	-53.3	12.0	4.15e-04	0	55	0	528482304	62	5397
2026-01-01 10:57:37.34	221.68	33.66	-49.9	-53.3	12.0	3.40e-04	0	55	0	530579456	62	5393
2026-01-01 10:57:38.34	221.98	33.80	-50.0	-53.6	11.8	3.97e-04	0	55	0	532676608	62	5540
2026-01-01 10:57:39.33	222.28	33.93	-50.2	-53.8	11.6	6.99e-04	0	55	0	534773760	62	5671
2026-01-01 10:57:40.33	222.58	34.07	-50.2	-54.0	11.4	9.29e-04	0	55	0	535822336	62	5808
2026-01-01 10:57:41.31	222.88	34.20	-50.2	-53.9	11.4	1.32e-03	0	55	0	537919488	62	5731
2026-01-01 10:57:42.31	223.19	34.34	-49.8	-53.2	12.2	3.81e-04	0	55	0	540016640	62	5307
2026-01-01 10:57:43.29	223.49	34.47	-49.4	-52.3	13.1	1.22e-04	0	55	0	542113792	62	4783
2026-01-01 10:57:44.29	223.81	34.61	-49.0	-51.6	13.8	8.30e-06	0	55	0	543162368	61	4673
2026-01-01 10:57:45.27	224.12	34.74	-48.8	-51.3	14.2	4.50e-06	0	55	0	545259520	60	4782
2026-01-01 10:57:46.27	224.43	34.88	-48.7	-51.1	14.4	2.20e-06	0	55	0	547356672	60	4655
2026-01-01 10:57:47.26	224.75	35.01	-48.6	-50.9	14.5	0.00e+00	0	55	0	549453824	60	4571
2026-01-01 10:57:48.25	225.07	35.14	-48.7	-51.1	14.3	0.00e+00	0	55	0	550502400	60	4676
2026-01-01 10:57:49.24	225.39	35.28	-49.0	-51.5	14.0	1.50e-06	0	55	0	552599552	60	4892
2026-01-01 10:57:50.22	225.72	35.41	-48.9	-51.4	14.0	2.20e-06	0	56	0	554696704	60	4865
2026-01-01 10:57:51.20	226.04	35.54	-49.2	-51.9	13.6	3.80e-06	0	55	0	556793856	60	5108
2026-01-01 10:57:52.19	226.37	35.67	-49.6	-52.6	12.8	3.28e-05	0	56	0	558891008	60	5564
2026-01-01 10:57:53.18	226.70	35.80	-49.7	-52.8	12.5	5.64e-05	0	56	0	559939584	61	5392
2026-01-01 10:57:54.17	227.04	35.93	-49.8	-52.9	12.4	1.29e-04	0	55	0	562036736	61	5456
2026-01-01 10:57:55.16	227.38	36.06	-49.5	-52.5	12.9	8.01e-05	0	55	0	564133888	61	5173
2026-01-01 10:57:56.16	227.72	36.19	-49.5	-52.4	13.0	3.43e-05	0	56	0	566231040	61	5143
2026-01-01 10:57:57.14	228.06	36.31	-49.3	-52.2	13.2	2.36e-05	0	56	0	567279616	61	5031
2026-01-01 10:57:58.14	228.41	36.44	-49.5	-52.4	12.9	3.66e-05	0	55	0	569376768	61	5143
2026-01-01 10:57:59.12	228.76	36.57	-49.2	-52.0	13.4	1.29e-05	0	55	0	571473920	61	4891
2026-01-01 10:58:00.11	229.11	36.69	-49.3	-52.1	13.3	1.75e-05	0	56	0	573571072	61	4968
2026-01-01 10:58:01.10	229.46	36.82	-49.5	-52.6	12.8	2.05e-05	0	56	0	574619648	61	5245
2026-01-01 10:58:02.08	229.81	36.94	-49.7	-52.9	12.5	1.07e-04	0	55	0	576716800	61	5435
2026-01-01 10:58:03.08	230.18	37.07	-50.1	-53.5	11.9	3.02e-04	0	55	0	578813952	61	5819
2026-01-01 10:58:04.07	230.54	37.19	-49.9	-53.2	12.3	3.25e-04	0	55	0	580911104	61	5600
2026-01-01 10:58:05.06	230.90	37.31	-49.5	-52.4	13.0	9.38e-05	0	56	0	583008256	61	5105
2026-01-01 10:58:06.04	231.27	37.43	-49.2	-51.8	13.6	1.22e-05	0	56	0	584056832	61	4781
2026-01-01 10:58:07.03	231.64	37.55	-48.8	-51.3	14.1	7.00e-07	0	55	0	586153984	60	4770
2026-01-01 10:58:08.02	232.01	37.67	-48.9	-51.4	14.1	2.20e-06	0	56	0	588251136	60	4822
2026-01-01 10:58:09.01	232.39	37.79	-48.7	-51.2	14.3	7.00e-07	0	56	0	590348288	60	4722
2026-01-01 10:58:10.00	232.77	37.91	-48.9	-51.5	14.0	1.50e-06	0	55	0	591396864	60	4877
2026-01-01 10:58:10.99	233.15	38.03	-49.1	-51.8	13.6	7.60e-06	0	56	0	593494016	60	5084
2026-01-01 10:58:11.97	233.53	38.14	-49.3	-52.2	13.3	1.29e-05	0	56	0	595591168	60	5280
2026-01-01 10:58:12.95	233.91	38.26	-49.4	-52.4	13.0	1.60e-05	0	56	0	597688320	60	5425
2026-01-01 10:58:13.94	234.30	38.37	-49.4	-52.4	13.0	4.42e-05	0	56	0	598736896	60	5416
2026-01-01 10:58:14.92	234.69	38.48	-49.2	-52.2	13.2	2.44e-05	0	56	0	600834048	60	5295
2026-01-01 10:58:15.92	235.08	38.59	-49.1	-51.7	13.7	1.14e-05	0	55	0	602931200	60	5040
2026-01-01 10:58:16.91	235.48	38.70	-48.8	-51.3	14.2	2.20e-06	0	55	0	605028352	60	4779
2026-01-01 10:58:17.89	235.88	38.81	-48.6	-51.0	14.4	7.00e-07	0	56	0	606076928	60	4647
2026-01-01 10:58:18.89	236.28	38.92	-48.9	-51.5	13.9	0.00e+00	0	56	0	608174080	60	4909
2026-01-01 10:58:19.88	236.69	39.03	-49.1	-51.7	13.7	2.20e-06	0	56	0	610271232	60	5006
2026-01-01 10:58:20.87	237.09	39.13	-49.6	-52.7	12.7	1.06e-05	0	56	0	612368384	61	5305
2026-01-01 10:58:21.86	237.50	39.24	-50.0	-53.4	12.0	2.42e-04	0	56	0	614465536	61	5755
2026-01-01 10:58:22.85	237.92	39.34	-50.2	-53.9	11.4	6.76e-04	0	55	0	615514112	62	5755
2026-01-01 10:58:23.84	238.33	39.44	-50.2	-54.2	11.1	1.32e-03	0	56	0	617611264	62	5954
2026-01-01 10:58:24.83	238.75	39.54	-50.2	-54.1	11.3	1.29e-03	0	56	0	619708416	62	5874
2026-01-01 10:58:25.82	239.17	39.64	-50.2	-53.9	11.6	7.90e-04	0	56	0	621805568	62	5730
2026-01-01 10:58:26.80	239.59	39.74	-50.1	-53.9	11.5	6.58e-04	0	55	0	622854144	62	5772
2026-01-01 10:58:27.79	240.01	39.84	-50.2	-54.1	11.3	6.30e-04	0	56	0	624951296	62	5881
2026-01-01 10:58:28.78	240.44	39.93	-50.4	-54.2	11.2	1.50e-03	0	56	0	627048448	62	5944
2026-01-01 10:58:29.77	240.87	40.02	-50.2	-54.0	11.4	1.22e-03	0	56	0	629145600	62	5796
2026-01-01 10:58:30.75	241.30	40.11	-50.2	-53.8	11.6	8.25e-04	0	56	0	630194176	62	5670
2026-01-01 10:58:31.74	241.73	40.20	-50.3	-54.0	11.4	8.47e-04	0	56	0	632291328	62	5798
2026-01-01 10:58:32.72	242.17	40.29	-50.3	-53.9	11.5	9.22e-04	0	56	0	634388480	62	5767
2026-01-01 10:58:33.71	242.61	40.38	-50.2	-53.7	11.7	6.29e-04	0	56	0	636485632	62	5609
2026-01-01 10:58:34.71	243.05	40.46	-50.0	-53.7	11.7	5.35e-04	0	56	0	638582784	62	5617
2026-01-01 10:58:35.70	243.50	40.55	-50.1	-53.7	11.6	5.58e-04	0	56	0	639631360	62	5651
2026-01-01 10:58:36.69	243.94	40.63	-50.0	-53.3	12.1	4.90e-04	0	56	0	641728512	62	5383
2026-01-01 10:58:37.68	244.39	40.71	-49.5	-52.5	12.9	9.23e-05	0	56	0	643825664	62	4889
2026-01-01 10:58:38.67	244.84	40.79	-49.0	-51.6	13.7	1.75e-05	0	56	0	645922816	61	4705
2026-01-01 10:58:39.65	245.29	40.86	-48.8	-51.4	14.0	4.50e-06	0	56	0	646971392	60	4829
2026-01-01 10:58:40.64	245.75	40.94	-48.8	-51.2	14.3	7.00e-07	0	56	0	649068544	60	4735
2026-01-01 10:58:41.64	246.21	41.01	-48.8	-51.2	14.3	2.20e-06	0	56	0	651165696	60	4730
2026-01-01 10:58:42.63	246.67	41.08	-48.7	-51.3	14.1	2.20e-06	0	56	0	653262848	60	4763
2026-01-01 10:58:43.63	247.13	41.15	-48.8	-51.3	14.2	2.20e-06	0	56	0	655360000	60	4772
2026-01-01 10:58:44.62	247.60	41.22	-48.9	-51.6	13.9	3.00e-06	0	56	0	656408576	60	4947
2026-01-01 10:58:45.61	248.06	41.28	-49.0	-51.7	13.7	2.20e-06	0	56	0	658505728	60	5004
2026-01-01 10:58:46.60	248.53	41.35	-49.0	-51.7	13.7	3.00e-06	0	56	0	660602880	60	4991
2026-01-01 10:58:47.59	249.00	41.41	-49.0	-51.7	13.7	5.30e-06	0	56	0	662700032	60	4991
2026-01-01 10:58:48.58	249.47	41.47	-49.1	-52.0	13.5	9.10e-06	0	56	0	663748608	60	5167
2026-01-01 10:58:49.58	249.94	41.53	-49.3	-52.0	13.4	2.05e-05	0	56	0	665845760	60	5195
2026-01-01 10:58:50.56	250.41	41.58	-49.3	-52.2	13.1	2.05e-05	0	56	0	667942912	60	5335
2026-01-01 10:58:51.55	250.89	41.63	-49.3	-52.2	13.2	2.28e-05	0	56	0	670040064	60	5310
2026-01-01 10:58:52.55	251.37	41.68	-49.6	-52.6	12.8	4.65e-05	0	56	0	671088640	60	5567
2026-01-01 10:58:53.54	251.84	41.73	-49.7	-52.9	12.5	7.01e-05	0	56	0	673185792	61	5437
2026-01-01 10:58:54.53	252.32	41.78	-49.5	-52.7	12.7	9.15e-05	0	56	0	675282944	61	5339
2026-01-01 10:58:55.52	252.80	41.82	-49.7	-52.8	12.6	8.31e-05	0	56	0	677380096	61	5370
2026-01-01 10:58:56.50	253.28	41.87	-49.6	-52.6	12.8	8.08e-05	0	56	0	679477248	61	5274
2026-01-01 10:58:57.49	253.76	41.91	-49.3	-52.2	13.1	2.74e-05	0	56	0	680525824	61	5034
2026-01-01 10:58:58.48	254.25	41.94	-49.3	-52.3	13.1	1.98e-05	0	56	0	682622976	61	5052
2026-01-01 10:58:59.47	254.73	41.98	-49.5	-52.4	13.1	3.89e-05	0	56	0	684720128	61	5111
2026-01-01 10:59:00.46	255.22	42.01	-49.5	-52.6	12.9	3.81e-05	0	56	0	686817280	61	5230
2026-01-01 10:59:01.45	255.71	42.04	-49.7	-52.8	12.5	1.11e-04	0	56	0	687865856	61	5370
2026-01-01 10:59:02.44	256.20	42.07	-49.4	-52.2	13.2	4.04e-05	0	56	0	689963008	61	5001
2026-01-01 10:59:03.43	256.68	42.10	-49.3	-52.1	13.3	2.51e-05	0	56	0	692060160	61	4940
2026-01-01 10:59:04.42	257.17	42.13	-49.4	-52.2	13.2	1.44e-05	0	56	0	694157312	61	5001
2026-01-01 10:59:05.42	257.67	42.15	-49.3	-52.0	13.4	1.75e-05	0	56	0	695205888	61	4917
2026-01-01 10:59:06.41	258.16	42.17	-49.1	-51.8	13.6	7.60e-06	0	56	0	697303040	61	4805
2026-01-01 10:59:07.40	258.65	42.19	-49.3	-52.2	13.3	1.14e-05	0	56	0	699400192	61	5004
2026-01-01 10:59:08.39	259.14	42.20	-49.6	-52.6	12.8	5.18e-05	0	56	0	701497344	61	5259
2026-01-01 10:59:09.38	259.64	42.21	-49.6	-52.7	12.7	9.53e-05	0	56	0	703594496	61	5292
2026-01-01 10:59:10.36	260.12	42.22	-49.1	-51.7	13.7	1.83e-05	0	56	0	704643072	61	4723
2026-01-01 10:59:11.34	260.61	42.23	-48.8	-51.2	14.2	1.50e-06	0	56	0	706740224	60	4746
2026-01-01 10:59:12.33	261.11	42.24	-48.7	-51.3	14.2	7.00e-07	0	56	0	708837376	60	4769
2026-01-01 10:59:13.32	261.60	42.24	-49.0	-51.6	13.7	1.50e-06	0	56	0	710934528	60	4977
2026-01-01 10:59:14.31	262.09	42.24	-49.3	-52.1	13.3	1.14e-05	0	56	0	711983104	60	5226
2026-01-01 10:59:15.30	262.59	42.24	-49.2	-51.9	13.6	1.06e-05	0	56	0	714080256	60	5117
2026-01-01 10:59:16.30	263.09	42.24	-49.1	-51.8	13.6	1.14e-05	0	56	0	716177408	60	5073
2026-01-01 10:59:17.29	263.58	42.23	-49.2	-51.9	13.5	8.30e-06	0	56	0	718274560	60	5136
2026-01-01 10:59:18.27	264.07	42.23	-49.3	-52.2	13.2	7.60e-06	0	56	0	719323136	60	5318
2026-01-01 10:59:19.26	264.56	42.22	-49.4	-52.3	13.1	4.11e-05	0	56	0	721420288	60	5400
2026-01-01 10:59:20.25	265.05	42.20	-49.0	-51.7	13.8	2.21e-05	0	56	0	723517440	60	4988
2026-01-01 10:59:21.24	265.54	42.19	-48.4	-50.7	14.7	0.00e+00	0	56	0	725614592	60	4448
2026-01-01 10:59:22.23	266.04	42.17	-48.0	-50.0	15.4	0.00e+00	0	56	0	727711744	59	4373
2026-01-01 10:59:23.22	266.53	42.15	-47.5	-49.3	16.2	0.00e+00	0	56	0	728760320	58	4247
2026-01-01 10:59:24.21	267.02	42.13	-47.3	-48.9	16.5	0.00e+00	0	56	0	730857472	57	4335
2026-01-01 10:59:25.20	267.51	42.11	-47.3	-49.0	16.4	0.00e+00	0	56	0	732954624	57	4380
2026-01-01 10:59:26.18	267.99	42.08	-47.8	-49.7	15.8	0.00e+00	0	56	0	735051776	57	4723
2026-01-01 10:59:27.17	268.48	42.05	-48.0	-49.9	15.5	0.00e+00	0	56	0	736100352	57	4855
2026-01-01 10:59:28.16	268.97	42.02	-47.9	-49.7	15.7	0.00e+00	0	56	0	738197504	57	4754
2026-01-01 10:59:29.16	269.46	41.99	-47.5	-49.3	16.2	0.00e+00	0	56	0	740294656	57	4516
2026-01-01 10:59:30.14	269.94	41.95	-47.8	-49.6	15.8	0.00e+00	0	56	0	742391808	57	4689
2026-01-01 10:59:31.13	270.42	41.92	-48.3	-50.5	14.9	0.00e+00	0	56	0	743440384	58	4891
2026-01-01 10:59:32.13	270.91	41.88	-48.7	-51.2	14.3	0.00e+00	0	56	0	745537536	59	4995
2026-01-01 10:59:33.11	271.39	41.84	-48.9	-51.5	13.9	3.80e-06	0	56	0	747634688	59	5170
2026-01-01 10:59:34.10	271.87	41.79	-48.5	-50.9	14.6	7.00e-07	0	56	0	749731840	59	4821
2026-01-01 10:59:35.10	272.35	41.75	-48.4	-50.6	14.8	0.00e+00	0	56	0	751828992	59	4684
2026-01-01 10:59:36.08	272.82	41.70	-48.4	-50.7	14.7	0.00e+00	0	56	0	752877568	59	4759
2026-01-01 10:59:37.07	273.30	41.65	-48.5	-50.7	14.7	0.00e+00	0	56	0	754974720	59	4734
2026-01-01 10:59:38.06	273.78	41.60	-48.8	-51.4	14.1	0.00e+00	0	56	0	757071872	59	5131
2026-01-01 10:59:39.06	274.25	41.54	-48.8	-51.4	14.1	3.00e-06	0	56	0	759169024	59	5106
2026-01-01 10:59:40.05	274.72	41.48	-48.6	-51.1	14.4	7.00e-07	0	56	0	760217600	59	4936
2026-01-01 10:59:41.04	275.19	41.43	-48.8	-51.2	14.2	7.00e-07	0	56	0	762314752	59	5021
2026-01-01 10:59:42.03	275.66	41.36	-49.2	-52.1	13.3	3.00e-06	0	56	0	764411904	60	5262
2026-01-01 10:59:43.02	276.13	41.30	-49.6	-52.8	12.6	2.59e-05	0	56	0	766509056	61	5356
2026-01-01 10:59:44.00	276.59	41.24	-50.0	-53.7	11.6	4.65e-04	0	56	0	767557632	61	5978
2026-01-01 10:59:44.99	277.05	41.17	-49.7	-53.1	12.2	5.47e-04	0	56	0	769654784	62	5271
2026-01-01 10:59:45.99	277.52	41.10	-49.2	-52.1	13.3	9.53e-05	0	56	0	771751936	61	4951
2026-01-01 10:59:46.98	277.98	41.03	-49.0	-51.7	13.7	6.80e-06	0	56	0	773849088	61	4759
2026-01-01 10:59:47.97	278.43	40.96	-49.4	-52.4	12.9	1.29e-05	0	56	0	775946240	61	5154
2026-01-01 10:59:48.96	278.89	40.89	-49.7	-53.2	12.2	1.04e-04	0	56	0	776994816	61	5604
2026-01-01 10:59:49.94	279.34	40.81	-50.1	-53.9	11.4	4.42e-04	0	56	0	779091968	62	5762
2026-01-01 10:59:50.93	279.79	40.73	-49.5	-52.8	12.5	2.30e-04	0	56	0	781189120	62	5057
2026-01-01 10:59:51.92	280.24	40.65	-49.1	-51.9	13.5	2.97e-05	0	56	0	783286272	61	4849
2026-01-01 10:59:52.91	280.68	40.57	-49.1	-51.9	13.5	6.10e-06	0	56	0	784334848	61	4849
2026-01-01 10:59:53.90	281.13	40.49	-49.3	-52.0	13.4	1.50e-06	0	56	0	786432000	61	4908
2026-01-01 10:59:54.89	281.57	40.41	-49.3	-52.1	13.4	1.29e-05	0	56	0	788529152	61	4941
2026-01-01 10:59:55.88	282.01	40.32	-49.0	-51.6	13.7	1.22e-05	0	56	0	790626304	61	4686
2026-01-01 10:59:56.86	282.44	40.23	-48.8	-51.2	14.2	2.20e-06	0	56	0	791674880	60	4748
2026-01-01 10:59:57.85	282.88	40.14	-48.5	-51.0	14.5	1.50e-06	0	56	0	793772032	60	4599
2026-01-01 10:59:58.84	283.31	40.05	-49.1	-51.7	13.8	3.80e-06	0	56	0	795869184	60	5000
2026-01-01 10:59:59.83	283.74	39.96	-49.3	-52.2	13.2	2.05e-05	0	56	0	797966336	60	5309
2026-01-01 11:00:00.82	284.17	39.87	-49.5	-52.5	12.9	2.44e-05	0	56	0	799014912	60	5510
2026-01-01 11:00:01.81	284.59	39.77	-48.8	-51.3	14.1	3.28e-05	0	56	0	801112064	60	4787
2026-01-01 11:00:02.80	285.01	39.68	-47.9	-49.9	15.5	0.00e+00	0	56	0	803209216	59	4320
2026-01-01 11:00:03.79	285.43	39.58	-47.5	-49.2	16.2	0.00e+00	0	56	0	805306368	58	4215
2026-01-01 11:00:04.78	285.85	39.48	-47.5	-49.3	16.1	0.00e+00	0	56	0	807403520	57	4540
2026-01-01 11:00:05.77	286.27	39.38	-47.7	-49.6	15.8	0.00e+00	0	56	0	808452096	57	4700
2026-01-01 11:00:06.76	286.68	39.27	-47.8	-49.7	15.8	0.00e+00	0	56	0	810549248	57	4719
2026-01-01 11:00:07.75	287.09	39.17	-47.7	-49.5	15.9	0.00e+00	0	56	0	812646400	57	4607
2026-01-01 11:00:08.73	287.49	39.07	-47.5	-49.2	16.2	0.00e+00	0	56	0	814743552	57	4483
2026-01-01 11:00:09.72	287.90	38.96	-47.6	-49.4	16.1	0.00e+00	0	56	0	815792128	57	4554
2026-01-01 11:00:10.71	288.30	38.85	-47.7	-49.5	15.9	0.00e+00	0	56	0	817889280	57	4621
2026-01-01 11:00:11.69	288.69	38.75	-48.1	-50.2	15.3	0.00e+00	0	56	0	819986432	58	4720
2026-01-01 11:00:12.69	289.09	38.63	-48.4	-50.5	14.9	0.00e+00	0	56	0	822083584	58	4926
2026-01-01 11:00:13.68	289.49	38.52	-48.0	-50.1	15.4	0.00e+00	0	56	0	824180736	58	4665
2026-01-01 11:00:14.67	289.88	38.41	-47.7	-49.5	15.9	0.00e+00	0	56	0	825229312	58	4387
2026-01-01 11:00:15.66	290.27	38.30	-47.8	-49.6	15.8	0.00e+00	0	56	0	827326464	58	4441
2026-01-01 11:00:16.64	290.65	38.19	-48.0	-50.0	15.4	0.00e+00	0	56	0	829423616	58	4635
2026-01-01 11:00:17.63	291.04	38.07	-48.4	-50.5	15.0	0.00e+00	0	56	0	831520768	58	4903
2026-01-01 11:00:18.62	291.42	37.95	-48.2	-50.3	15.1	0.00e+00	0	56	0	832569344	58	4788
2026-01-01 11:00:19.61	291.79	37.84	-47.8	-49.7	15.7	0.00e+00	0	56	0	834666496	58	4481
2026-01-01 11:00:20.60	292.17	37.72	-47.7	-49.6	15.8	0.00e+00	0	56	0	836763648	58	4427
2026-01-01 11:00:21.59	292.54	37.60	-47.7	-49.5	16.0	0.00e+00	0	56	0	838860800	58	4353
2026-01-01 11:00:22.57	292.91	37.48	-47.6	-49.5	16.0	0.00e+00	0	56	0	839909376	58	4342
2026-01-01 11:00:23.56	293.28	37.36	-47.7	-49.6	15.8	0.00e+00	0	56	0	842006528	58	4425
2026-01-01 11:00:24.55	293.64	37.24	-48.1	-50.2	15.3	0.00e+00	0	56	0	844103680	58	4720
2026-01-01 11:00:25.55	294.01	37.12	-48.1	-50.1	15.3	0.00e+00	0	56	0	846200832	58	4686
2026-01-01 11:00:26.54	294.37	36.99	-47.9	-49.9	15.6	0.00e+00	0	56	0	848297984	58	4563
2026-01-01 11:00:27.52	294.72	36.87	-48.0	-49.9	15.5	0.00e+00	0	56	0	849346560	58	4584
2026-01-01 11:00:28.52	295.08	36.74	-48.1	-50.2	15.3	0.00e+00	0	56	0	851443712	58	4709
2026-01-01 11:00:29.50	295.42	36.62	-48.1	-50.2	15.3	0.00e+00	0	56	0	853540864	58	4708
2026-01-01 11:00:30.48	295.77	36.49	-48.0	-50.0	15.4	0.00e+00	0	56	0	855638016	58	4650
2026-01-01 11:00:31.48	296.12	36.37	-47.8	-49.7	15.7	0.00e+00	0	56	0	856686592	58	4487
2026-01-01 11:00:32.47	296.46	36.24	-47.6	-49.4	16.0	0.00e+00	0	56	0	858783744	58	4333
2026-01-01 11:00:33.46	296.80	36.11	-47.2	-48.8	16.5	0.00e+00	0	56	0	860880896	57	4285
2026-01-01 11:00:34.45	297.14	35.98	-46.9	-48.5	16.8	0.00e+00	0	56	0	862978048	57	4135
2026-01-01 11:00:35.44	297.48	35.85	-47.2	-48.9	16.5	0.00e+00	0	56	0	864026624	57	4332
2026-01-01 11:00:36.42	297.81	35.73	-47.5	-49.4	16.1	0.00e+00	0	56	0	866123776	57	4552
2026-01-01 11:00:37.42	298.14	35.59	-47.6	-49.5	16.0	0.00e+00	0	56	0	868220928	57	4602
2026-01-01 11:00:38.41	298.47	35.46	-47.8	-49.7	15.7	0.00e+00	0	56	0	870318080	57	4739
2026-01-01 11:00:39.40	298.79	35.33	-48.0	-50.1	15.4	0.00e+00	0	56	0	872415232	57	4927
2026-01-01 11:00:40.38	299.11	35.20	-48.2	-50.5	14.9	0.00e+00	0	56	0	873463808	58	4899
2026-01-01 11:00:41.37	299.43	35.07	-48.3	-50.6	14.8	0.00e+00	0	56	0	875560960	58	4944
2026-01-01 11:00:42.36	299.75	34.94	-48.5	-50.9	14.4	0.00e+00	0	57	0	877658112	59	4836
2026-01-01 11:00:43.35	300.06	34.80	-48.1	-50.2	15.2	7.00e-07	0	56	0	879755264	59	4481
2026-01-01 11:00:44.35	300.38	34.67	-47.8	-49.7	15.7	0.00e+00	0	56	0	880803840	58	4475
2026-01-01 11:00:45.33	300.69	34.54	-47.6	-49.5	15.9	0.00e+00	0	56	0	882900992	58	4346
2026-01-01 11:00:46.32	300.99	34.40	-47.8	-49.7	15.7	0.00e+00	0	56	0	884998144	58	4474
2026-01-01 11:00:47.31	301.30	34.27	-48.0	-50.1	15.4	0.00e+00	0	56	0	887095296	58	4652
2026-01-01 11:00:48.30	301.60	34.14	-48.4	-50.8	14.6	0.00e+00	0	56	0	888143872	58	5043
2026-01-01 11:00:49.29	301.90	34.00	-48.5	-50.7	14.7	0.00e+00	0	56	0	890241024	58	5020
2026-01-01 11:00:50.28	302.20	33.87	-48.2	-50.5	14.9	0.00e+00	0	56	0	892338176	58	4877
2026-01-01 11:00:51.26	302.49	33.73	-48.3	-50.5	14.9	0.00e+00	0	56	0	894435328	58	4886
2026-01-01 11:00:52.26	302.79	33.60	-48.0	-50.1	15.3	0.00e+00	0	56	0	895483904	58	4675
2026-01-01 11:00:53.25	303.08	33.46	-48.4	-50.8	14.7	1.50e-06	0	56	0	897581056	58	5053
2026-01-01 11:00:54.23	303.36	33.33	-49.3	-52.2	13.1	1.90e-05	0	56	0	899678208	60	5333
2026-01-01 11:00:55.22	303.65	33.19	-49.7	-53.1	12.2	1.62e-04	0	56	0	901775360	61	5592
2026-01-01 11:00:56.20	303.93	33.05	-49.7	-52.8	12.5	2.08e-04	0	56	0	903872512	61	5395
2026-01-01 11:00:57.19	304.21	32.92	-49.1	-51.9	13.5	4.04e-05	0	56	0	904921088	61	4831
2026-01-01 11:00:58.18	304.49	32.78	-49.0	-51.7	13.6	3.00e-06	0	57	0	907018240	60	5015
2026-01-01 11:00:59.17	304.76	32.65	-49.1	-51.9	13.5	8.30e-06	0	56	0	909115392	60	5126
2026-01-01 11:01:00.16	305.04	32.51	-49.4	-52.4	13.0	1.75e-05	0	56	0	911212544	60	5421
2026-01-01 11:01:01.15	305.31	32.37	-49.6	-53.0	12.3	5.79e-05	0	56	0	912261120	61	5504
2026-01-01 11:01:02.14	305.58	32.24	-50.2	-54.2	11.1	1.29e-03	0	56	0	914358272	62	5974
2026-01-01 11:01:03.13	305.85	32.10	-50.1	-53.8	11.5	1.30e-03	0	56	0	916455424	62	5659
2026-01-01 11:01:04.12	306.11	31.96	-49.8	-53.1	12.2	4.26e-04	0	56	0	918552576	62	5242
2026-01-01 11:01:05.10	306.37	31.83	-49.5	-52.4	12.9	1.29e-04	0	56	0	919601152	62	4865
2026-01-01 11:01:06.09	306.63	31.69	-48.9	-51.7	13.7	1.06e-05	0	56	0	921698304	61	4725
2026-01-01 11:01:07.08	306.89	31.55	-49.1	-51.9	13.5	6.10e-06	0	56	0	923795456	60	5114
2026-01-01 11:01:08.06	307.15	31.42	-48.8	-51.5	13.9	4.50e-06	0	56	0	925892608	60	4873
2026-01-01 11:01:09.05	307.40	31.28	-49.4	-52.2	13.1	8.30e-06	0	56	0	927989760	60	5335
2026-01-01 11:01:10.04	307.65	31.14	-49.9	-53.5	11.8	2.70e-04	0	56	0	929038336	61	5845
2026-01-01 11:01:11.03	307.90	31.01	-50.1	-53.8	11.4	8.55e-04	0	56	0	931135488	61	6060
2026-01-01 11:01:12.02	308.15	30.87	-49.9	-53.2	12.1	5.72e-04	0	56	0	933232640	61	5617
2026-01-01 11:01:13.01	308.40	30.73	-49.4	-52.3	13.0	1.50e-04	0	56	0	935329792	61	5081
2026-01-01 11:01:13.99	308.64	30.60	-49.1	-51.9	13.5	1.29e-05	0	56	0	936378368	61	4830
2026-01-01 11:01:14.98	308.88	30.46	-49.3	-52.4	13.0	1.44e-05	0	56	0	938475520	61	5115
2026-01-01 11:01:15.98	309.12	30.32	-49.3	-52.3	12.9	3.58e-05	0	56	0	940572672	61	5097
2026-01-01 11:01:16.97	309.36	30.19	-50.2	-54.0	11.3	1.31e-04	0	56	0	942669824	62	5843
2026-01-01 11:01:17.95	309.59	30.05	-50.3	-54.5	10.8	2.45e-03	0	56	0	943718400	62	6162
2026-01-01 11:01:18.94	309.83	29.92	-50.5	-55.1	10.2	5.09e-03	0	56	0	945815552	63	6209
2026-01-01 11:01:19.94	310.06	29.78	-50.2	-53.9	11.3	4.03e-03	0	56	0	947912704	63	5444
2026-01-01 11:01:20.93	310.29	29.65	-49.3	-52.2	13.1	1.01e-04	0	56	0	950009856	61	4995
2026-01-01 11:01:21.92	310.52	29.51	-48.5	-50.9	14.4	3.00e-06	0	56	0	952107008	60	4583
2026-01-01 11:01:22.90	310.75	29.38	-47.9	-49.9	15.4	0.00e+00	0	56	0	953155584	58	4581
2026-01-01 11:01:23.89	310.97	29.24	-47.6	-49.5	15.9	0.00e+00	0	56	0	955252736	58	4348
2026-01-01 11:01:24.89	311.20	29.11	-47.6	-49.4	15.9	0.00e+00	0	56	0	957349888	58	4334
2026-01-01 11:01:25.87	311.42	28.97	-48.1	-50.3	15.1	0.00e+00	0	56	0	959447040	58	4771
2026-01-01 11:01:26.86	311.64	28.84	-48.8	-51.3	14.1	2.20e-06	0	57	0	960495616	59	5090
2026-01-01 11:01:27.85	311.85	28.70	-48.8	-51.3	14.0	3.80e-06	0	56	0	962592768	59	5072
2026-01-01 11:01:28.84	312.07	28.57	-48.4	-50.6	14.8	0.00e+00	0	56	0	964689920	59	4664
2026-01-01 11:01:29.82	312.28	28.44	-47.7	-49.6	15.8	0.00e+00	0	56	0	966787072	58	4398
2026-01-01 11:01:30.81	312.49	28.30	-46.9	-48.5	16.8	0.00e+00	0	57	0	967835648	57	4131
2026-01-01 11:01:31.80	312.70	28.17	-46.7	-48.2	17.2	0.00e+00	0	57	0	969932800	56	4197
2026-01-01 11:01:32.79	312.91	28.04	-46.7	-48.2	17.1	0.00e+00	0	56	0	972029952	56	4236
2026-01-01 11:01:33.78	313.12	27.90	-46.8	-48.4	17.0	0.00e+00	0	57	0	974127104	56	4304
2026-01-01 11:01:34.77	313.32	27.77	-47.1	-48.8	16.5	0.00e+00	0	57	0	975175680	56	4533
2026-01-01 11:01:35.77	313.53	27.64	-47.9	-49.9	15.5	0.00e+00	0	57	0	977272832	57	4853
2026-01-01 11:01:36.76	313.73	27.51	-48.5	-50.8	14.6	7.00e-07	0	56	0	979369984	58	5042
2026-01-01 11:01:37.75	313.93	27.37	-48.5	-50.9	14.4	2.20e-06	0	56	0	981467136	58	5155
2026-01-01 11:01:38.74	314.13	27.24	-48.1	-50.2	15.1	7.00e-07	0	56	0	983564288	58	4739
2026-01-01 11:01:39.73	314.33	27.11	-47.2	-48.9	16.4	0.00e+00	0	56	0	984612864	57	4331
2026-01-01 11:01:40.72	314.53	26.98	-46.6	-48.1	17.2	0.00e+00	0	56	0	986710016	56	4169
2026-01-01 11:01:41.71	314.72	26.85	-46.1	-47.5	17.8	0.00e+00	0	57	0	988807168	55	4107
2026-01-01 11:01:42.70	314.91	26.72	-46.0	-47.4	17.9	0.00e+00	0	56	0	990904320	55	4055
2026-01-01 11:01:43.69	315.10	26.59	-46.1	-47.5	17.7	0.00e+00	0	57	0	991952896	55	4132
2026-01-01 11:01:44.68	315.29	26.46	-46.3	-47.7	17.5	0.00e+00	0	56	0	994050048	55	4200
2026-01-01 11:01:45.67	315.48	26.33	-46.7	-48.3	17.0	0.00e+00	0	56	0	996147200	55	4501
2026-01-01 11:01:46.67	315.67	26.20	-46.9	-48.7	16.6	0.00e+00	0	56	0	998244352	55	4709
2026-01-01 11:01:47.66	315.86	26.07	-47.3	-49.0	16.3	0.00e+00	0	57	0	1000341504	56	4635
2026-01-01 11:01:48.65	316.04	25.94	-46.9	-48.6	16.8	0.00e+00	0	56	0	1001390080	56	4403
2026-01-01 11:01:49.65	316.22	25.81	-46.2	-47.7	17.5	0.00e+00	0	57	0	1003487232	55	4222
2026-01-01 11:01:50.64	316.40	25.68	-45.8	-47.1	18.1	0.00e+00	0	57	0	1005584384	54	4182
2026-01-01 11:01:51.63	316.58	25.56	-45.6	-46.8	18.4	0.00e+00	0	57	0	1007681536	54	4020
2026-01-01 11:01:52.62	316.76	25.43	-45.7	-47.0	18.2	0.00e+00	0	57	0	1008730112	54	4101
2026-01-01 11:01:53.61	316.94	25.30	-45.8	-47.1	18.1	0.00e+00	0	56	0	1010827264	54	4149
2026-01-01 11:01:54.60	317.11	25.18	-45.9	-47.2	18.0	0.00e+00	0	56	0	1012924416	54	4200
2026-01-01 11:01:55.59	317.29	25.05	-46.3	-47.7	17.5	0.00e+00	0	56	0	1015021568	54	4487
2026-01-01 11:01:56.59	317.46	24.92	-46.5	-48.1	17.1	0.00e+00	0	56	0	1017118720	54	4665
2026-01-01 11:01:57.57	317.63	24.80	-46.7	-48.3	16.9	0.00e+00	0	56	0	1018167296	55	4505
2026-01-01 11:01:58.57	317.80	24.67	-46.7	-48.2	17.0	0.00e+00	0	57	0	1020264448	55	4491
2026-01-01 11:01:59.56	317.97	24.55	-46.6	-48.1	17.1	0.00e+00	0	56	0	1022361600	55	4403
2026-01-01 11:02:00.55	318.14	24.42	-46.4	-47.8	17.4	0.00e+00	0	56	0	1024458752	55	4284
2026-01-01 11:02:01.54	318.30	24.30	-46.1	-47.5	17.7	0.00e+00	0	56	0	1025507328	55	4109
2026-01-01 11:02:02.53	318.47	24.17	-46.0	-47.3	17.8	0.00e+00	0	57	0	1027604480	55	4045
2026-01-01 11:02:03.53	318.63	24.05	-46.0	-47.4	17.8	0.00e+00	0	57	0	1029701632	55	4069
2026-01-01 11:02:04.52	318.80	23.93	-46.1	-47.4	17.7	0.00e+00	0	56	0	1031798784	55	4095
2026-01-01 11:02:05.51	318.96	23.80	-46.2	-47.7	17.5	0.00e+00	0	56	0	1032847360	55	4216
2026-01-01 11:02:06.50	319.12	23.68	-46.4	-47.9	17.3	0.00e+00	0	56	0	1034944512	55	4334
2026-01-01 11:02:07.49	319.28	23.56	-46.5	-48.1	17.1	0.00e+00	0	56	0	1037041664	55	4395
2026-01-01 11:02:08.49	319.43	23.44	-46.5	-48.0	17.2	0.00e+00	0	56	0	1039138816	55	4378
2026-01-01 11:02:09.48	319.59	23.32	-46.5	-48.0	17.2	0.00e+00	0	56	0	1041235968	55	4364
2026-01-01 11:02:10.47	319.75	23.19	-46.6	-48.2	17.0	0.00e+00	0	56	0	1042284544	55	4448
2026-01-01 11:02:11.46	319.90	23.07	-46.5	-48.1	17.1	0.00e+00	0	56	0	1044381696	55	4393
2026-01-01 11:02:12.45	320.05	22.95	-46.6	-48.1	17.1	0.00e+00	0	56	0	1046478848	55	4417
2026-01-01 11:02:13.43	320.20	22.84	-46.7	-48.3	16.9	0.00e+00	0	56	0	1048576000	55	4519
2026-01-01 11:02:14.43	320.35	22.71	-46.6	-48.1	17.0	0.00e+00	0	56	0	1049624576	55	4429
2026-01-01 11:02:15.42	320.50	22.60	-46.7	-48.3	16.9	0.00e+00	0	56	0	1051721728	55	4501
2026-01-01 11:02:16.40	320.65	22.48	-46.8	-48.3	16.9	0.00e+00	0	56	0	1053818880	55	4534
2026-01-01 11:02:17.40	320.80	22.36	-46.8	-48.4	16.8	0.00e+00	0	56	0	1055916032	55	4565
2026-01-01 11:02:18.38	320.94	22.24	-46.9	-48.5	16.6	0.00e+00	0	56	0	1058013184	55	4644
2026-01-01 11:02:19.37	321.09	22.12	-46.8	-48.4	16.7	0.00e+00	0	57	0	1059061760	55	4582
2026-01-01 11:02:20.36	321.23	22.01	-46.7	-48.3	16.9	0.00e+00	0	57	0	1061158912	55	4509
2026-01-01 11:02:21.35	321.38	21.89	-46.7	-48.2	16.9	0.00e+00	0	56	0	1063256064	55	4477
2026-01-01 11:02:22.35	321.52	21.77	-46.5	-48.0	17.2	0.00e+00	0	56	0	1065353216	55	4369
2026-01-01 11:02:23.34	321.66	21.66	-46.6	-48.1	17.0	0.00e+00	0	57	0	1066401792	55	4440
2026-01-01 11:02:24.33	321.80	21.54	-46.7	-48.3	16.9	0.00e+00	0	56	0	1068498944	55	4513
2026-01-01 11:02:25.32	321.94	21.42	-46.7	-48.2	16.9	0.00e+00	0	56	0	1070596096	55	4476
2026-01-01 11:02:26.32	322.08	21.31	-46.9	-48.6	16.6	0.00e+00	0	56	0	1072693248	55	4664
2026-01-01 11:02:27.31	322.21	21.19	-47.2	-48.9	16.3	0.00e+00	0	56	0	1073741824	56	4593
2026-01-01 11:02:28.31	322.35	21.08	-47.6	-49.4	15.9	0.00e+00	0	56	0	1075838976	56	4868
2026-01-01 11:02:29.29	322.48	20.96	-47.8	-49.8	15.5	0.00e+00	0	56	0	1077936128	57	4790
2026-01-01 11:02:30.28	322.62	20.85	-47.9	-50.0	15.3	0.00e+00	0	56	0	1080033280	57	4887
2026-01-01 11:02:31.27	322.75	20.74	-48.1	-50.3	15.0	0.00e+00	0	56	0	1082130432	58	4804
2026-01-01 11:02:32.26	322.88	20.62	-48.2	-50.5	14.8	0.00e+00	0	56	0	1083179008	58	4901
2026-01-01 11:02:33.25	323.01	20.51	-48.0	-50.1	15.1	0.00e+00	0	56	0	1085276160	58	4696
2026-01-01 11:02:34.25	323.15	20.40	-47.9	-49.9	15.4	0.00e+00	0	57	0	1087373312	58	4565
2026-01-01 11:02:35.24	323.28	20.29	-47.7	-49.8	15.5	0.00e+00	0	56	0	1089470464	58	4500
2026-01-01 11:02:36.23	323.40	20.18	-47.7	-49.6	15.7	0.00e+00	0	57	0	1090519040	58	4429
2026-01-01 11:02:37.23	323.53	20.06	-47.6	-49.5	15.8	0.00e+00	0	56	0	1092616192	58	4368
2026-01-01 11:02:38.22	323.66	19.95	-47.5	-49.3	16.0	0.00e+00	0	56	0	1094713344	58	4269
2026-01-01 11:02:39.21	323.78	19.84	-47.6	-49.4	15.8	0.00e+00	0	57	0	1096810496	58	4332
2026-01-01 11:02:40.21	323.91	19.73	-47.7	-49.7	15.6	0.00e+00	0	56	0	1098907648	58	4459
2026-01-01 11:02:41.20	324.03	19.62	-48.0	-50.1	15.2	0.00e+00	0	57	0	1099956224	58	4678
2026-01-01 11:02:42.19	324.16	19.51	-47.8	-49.7	15.5	0.00e+00	0	56	0	1102053376	58	4484
2026-01-01 11:02:43.18	324.28	19.40	-47.8	-49.7	15.5	0.00e+00	0	56	0	1104150528	58	4473
2026-01-01 11:02:44.15	324.40	19.30	-47.7	-49.6	15.6	0.00e+00	0	57	0	1106247680	58	4428
2026-01-01 11:02:45.14	324.52	19.19	-47.7	-49.7	15.6	0.00e+00	0	56	0	1107296256	58	4443
2026-01-01 11:02:46.12	324.64	19.08	-47.7	-49.7	15.5	0.00e+00	0	56	0	1109393408	58	4467
2026-01-01 11:02:47.11	324.76	18.97	-47.8	-49.7	15.5	0.00e+00	0	57	0	1111490560	58	4493
2026-01-01 11:02:48.09	324.87	18.87	-47.7	-49.6	15.6	0.00e+00	0	56	0	1113587712	58	4415
2026-01-01 11:02:49.08	324.99	18.76	-47.7	-49.6	15.6	0.00e+00	0	56	0	1114636288	58	4434
2026-01-01 11:02:50.07	325.11	18.65	-47.6	-49.4	15.8	0.00e+00	0	56	0	1116733440	58	4332
2026-01-01 11:02:51.05	325.22	18.55	-47.6	-49.4	15.8	0.00e+00	0	57	0	1118830592	58	4317
2026-01-01 11:02:52.04	325.34	18.44	-47.5	-49.3	15.9	0.00e+00	0	57	0	1120927744	58	4273
2026-01-01 11:02:53.04	325.45	18.34	-47.4	-49.2	16.0	0.00e+00	0	56	0	1123024896	57	4448
2026-01-01 11:02:54.03	325.57	18.23	-47.4	-49.1	16.1	0.00e+00	0	56	0	1124073472	57	4434
2026-01-01 11:02:55.02	325.68	18.13	-47.2	-49.0	16.2	0.00e+00	0	56	0	1126170624	57	4362
2026-01-01 11:02:56.01	325.79	18.02	-47.2	-48.9	16.4	0.00e+00	0	56	0	1128267776	57	4298
2026-01-01 11:02:57.00	325.90	17.92	-47.2	-48.9	16.3	0.00e+00	0	57	0	1130364928	57	4337
2026-01-01 11:02:57.98	326.01	17.82	-47.4	-49.1	16.1	0.00e+00	0	56	0	1131413504	57	4441
2026-01-01 11:02:58.97	326.12	17.71	-47.5	-49.3	15.9	0.00e+00	0	56	0	1133510656	57	4512
2026-01-01 11:02:59.96	326.23	17.61	-47.6	-49.4	15.8	0.00e+00	0	56	0	1135607808	57	4577
2026-01-01 11:03:00.94	326.34	17.51	-47.5	-49.4	15.8	0.00e+00	0	57	0	1137704960	57	4552
2026-01-01 11:03:01.93	326.45	17.41	-47.8	-49.7	15.5	0.00e+00	0	56	0	1138753536	57	4731
2026-01-01 11:03:02.91	326.55	17.30	-47.7	-49.7	15.6	0.00e+00	0	57	0	1140850688	57	4711
2026-01-01 11:03:03.90	326.66	17.20	-47.9	-49.8	15.4	0.00e+00	0	56	0	1142947840	57	4809
2026-01-01 11:03:04.89	326.77	17.10	-47.8	-49.9	15.3	0.00e+00	0	56	0	1145044992	57	4818
2026-01-01 11:03:05.89	326.87	17.00	-47.9	-50.0	15.2	0.00e+00	0	56	0	1146093568	57	4892
2026-01-01 11:03:06.87	326.97	16.90	-47.8	-49.8	15.4	0.00e+00	0	56	0	1148190720	57	4795
2026-01-01 11:03:07.86	327.08	16.80	-47.8	-49.8	15.4	0.00e+00	0	57	0	1150287872	57	4766
2026-01-01 11:03:08.85	327.18	16.70	-47.7	-49.6	15.6	0.00e+00	0	56	0	1152385024	57	4691
2026-01-01 11:03:09.83	327.28	16.60	-47.8	-49.8	15.4	0.00e+00	0	57	0	1154482176	57	4783
2026-01-01 11:03:10.81	327.38	16.50	-47.7	-49.7	15.5	0.00e+00	0	56	0	1155530752	57	4731
2026-01-01 11:03:11.81	327.49	16.40	-47.7	-49.7	15.5	0.00e+00	0	57	0	1157627904	57	4729
2026-01-01 11:03:12.80	327.59	16.30	-48.0	-50.1	15.1	0.00e+00	0	56	0	1159725056	57	4937
2026-01-01 11:03:13.79	327.69	16.21	-47.9	-49.9	15.3	0.00e+00	0	57	0	1161822208	57	4837
2026-01-01 11:03:14.78	327.79	16.11	-47.7	-49.6	15.6	0.00e+00	0	56	0	1162870784	57	4674
2026-01-01 11:03:15.77	327.88	16.01	-47.6	-49.6	15.6	0.00e+00	0	57	0	1164967936	57	4654
2026-01-01 11:03:16.77	327.98	15.91	-47.7	-49.7	15.5	0.00e+00	0	56	0	1167065088	57	4722
2026-01-01 11:03:17.75	328.08	15.81	-47.9	-50.0	15.2	0.00e+00	0	57	0	1169162240	57	4907
2026-01-01 11:03:18.75	328.18	15.72	-47.9	-50.0	15.2	0.00e+00	0	57	0	1170210816	57	4891
2026-01-01 11:03:19.74	328.27	15.62	-47.9	-50.0	15.2	0.00e+00	0	57	0	1172307968	57	4907
2026-01-01 11:03:20.73	328.37	15.52	-48.1	-50.3	14.9	7.00e-07	0	57	0	1174405120	58	4771
2026-01-01 11:03:21.72	328.46	15.43	-48.1	-50.3	14.9	0.00e+00	0	56	0	1176502272	58	4795
2026-01-01 11:03:22.71	328.56	15.33	-48.2	-50.5	14.7	0.00e+00	0	57	0	1178599424	58	4877
2026-01-01 11:03:23.70	328.65	15.24	-48.4	-50.7	14.5	0.00e+00	0	57	0	1179648000	58	5035
2026-01-01 11:03:24.69	328.75	15.14	-48.3	-50.6	14.6	2.20e-06	0	57	0	1181745152	58	4965
2026-01-01 11:03:25.68	328.84	15.05	-48.1	-50.4	14.8	0.00e+00	0	57	0	1183842304	58	4819
2026-01-01 11:03:26.67	328.93	14.95	-48.1	-50.3	14.9	7.00e-07	0	56	0	1185939456	58	4761
2026-01-01 11:03:27.66	329.02	14.86	-48.1	-50.2	14.9	0.00e+00	0	57	0	1186988032	58	4746
2026-01-01 11:03:28.65	329.11	14.77	-48.1	-50.3	14.9	7.00e-07	0	57	0	1189085184	58	4777
2026-01-01 11:03:29.65	329.21	14.67	-48.2	-50.4	14.7	7.00e-07	0	57	0	1191182336	58	4848
2026-01-01 11:03:30.64	329.30	14.58	-48.0	-50.3	14.8	1.50e-06	0	57	0	1193279488	58	4783
2026-01-01 11:03:31.62	329.38	14.49	-47.9	-50.1	15.1	0.00e+00	0	57	0	1194328064	58	4668
2026-01-01 11:03:32.61	329.47	14.39	-47.9	-50.0	15.2	0.00e+00	0	57	0	1196425216	58	4603
2026-01-01 11:03:33.60	329.56	14.30	-47.9	-50.0	15.1	0.00e+00	0	57	0	1198522368	58	4638
2026-01-01 11:03:34.59	329.65	14.21	-47.9	-50.0	15.1	0.00e+00	0	57	0	1200619520	58	4612
2026-01-01 11:03:35.59	329.74	14.12	-47.8	-49.9	15.2	0.00e+00	0	57	0	1202716672	58	4583
2026-01-01 11:03:36.57	329.82	14.03	-47.8	-49.9	15.2	0.00e+00	0	57	0	1203765248	58	4551
2026-01-01 11:03:37.56	329.91	13.93	-47.9	-50.0	15.2	0.00e+00	0	57	0	1205862400	58	4617
2026-01-01 11:03:38.55	330.00	13.84	-48.0	-50.1	15.0	7.00e-07	0	57	0	1207959552	58	4686
2026-01-01 11:03:39.54	330.08	13.75	-47.9	-50.0	15.1	0.00e+00	0	57	0	1210056704	58	4644
2026-01-01 11:03:40.53	330.17	13.66	-48.2	-50.4	14.8	0.00e+00	0	57	0	1211105280	58	4823
2026-01-01 11:03:41.53	330.25	13.57	-48.2	-50.5	14.6	0.00e+00	0	56	0	1213202432	58	4914
2026-01-01 11:03:42.51	330.33	13.48	-47.9	-50.1	14.9	0.00e+00	0	57	0	1215299584	58	4704
2026-01-01 11:03:43.51	330.42	13.39	-47.8	-49.9	15.1	0.00e+00	0	57	0	1217396736	58	4594
2026-01-01 11:03:44.50	330.50	13.30	-47.7	-49.8	15.3	0.00e+00	0	57	0	1219493888	58	4536
2026-01-01 11:03:45.50	330.59	13.21	-47.8	-49.9	15.2	0.00e+00	0	57	0	1220542464	58	4552
2026-01-01 11:03:46.50	330.67	13.12	-47.8	-50.0	15.1	0.00e+00	0	57	0	1222639616	58	4636
2026-01-01 11:03:47.49	330.75	13.04	-47.9	-50.2	14.9	0.00e+00	0	57	0	1224736768	58	4722
2026-01-01 11:03:48.47	330.83	12.95	-48.0	-50.2	14.9	0.00e+00	0	57	0	1226833920	58	4728
