passes_logs/2026/01/01/R3.0SM8_Murmansk_STILSPACE/R3.0SM8_Murmansk_STILSPACE__20260101_143355_AQUA_rec.log

#Pass ID: 20260101_143355_AQUA
#Satellite: AQUA
#Configuration: AQUA
#almurnet v.1.7.20240730
#Start time: 2026-01-01 14:33:57

#Version: 2.2.20231116
#Station: R3.0SM8_Murmansk_STILSPACE
#Location: 33.092731 lon 68.902999 lat
#TLE: 1 27424U 02022A   25365.92641128  .00002078  00000+0  42628-3 0  9990
#TLE: 2 27424  98.4058 327.1196 0001962  94.7781 340.6230 14.61783896258835

#Time	Az	El	Level	Level2	SNR	BER	BlckErr	Temp	State	Recorded	gain1	gain2
2026-01-01 14:33:57.26	246.35	3.08	-54.3	-74.3	3.8	7.45e-01	0	46	0	0	70	38925
2026-01-01 14:33:58.24	246.47	3.13	-54.3	-74.3	3.8	7.47e-01	0	46	104	0	70	38716
2026-01-01 14:33:59.23	246.59	3.17	-54.3	-74.2	3.8	7.44e-01	0	46	104	0	70	38598
2026-01-01 14:34:00.21	246.71	3.22	-54.3	-74.2	3.8	7.46e-01	0	46	104	0	70	38637
2026-01-01 14:34:01.20	246.83	3.26	-54.3	-74.2	3.8	7.45e-01	0	46	104	0	70	38665
2026-01-01 14:34:02.19	246.96	3.30	-54.3	-74.2	3.8	7.42e-01	0	46	104	0	70	38530
2026-01-01 14:34:03.18	247.08	3.35	-54.3	-74.2	3.8	7.49e-01	0	46	104	0	70	38504
2026-01-01 14:34:04.16	247.20	3.39	-54.2	-74.2	3.8	7.46e-01	0	46	104	0	70	38317
2026-01-01 14:34:05.14	247.33	3.43	-54.2	-74.1	3.8	7.46e-01	0	47	104	0	70	38149
2026-01-01 14:34:06.14	247.45	3.48	-54.2	-74.1	3.8	7.46e-01	0	47	104	0	70	37970
2026-01-01 14:34:07.12	247.58	3.52	-54.1	-74.1	3.8	7.47e-01	0	47	104	0	70	37846
2026-01-01 14:34:08.11	247.70	3.57	-54.1	-74.0	3.8	7.41e-01	0	47	104	0	70	37635
2026-01-01 14:34:09.11	247.83	3.61	-54.0	-73.9	3.8	7.42e-01	0	47	104	0	70	37305
2026-01-01 14:34:10.09	247.95	3.65	-53.9	-73.8	3.8	7.47e-01	0	47	104	0	70	36896
2026-01-01 14:34:11.08	248.08	3.70	-53.8	-73.7	3.8	7.43e-01	0	47	104	0	70	36346
2026-01-01 14:34:12.08	248.21	3.74	-53.6	-73.5	3.8	7.46e-01	0	47	104	0	70	35383
2026-01-01 14:34:13.06	248.33	3.78	-53.3	-73.0	3.8	7.46e-01	0	47	104	0	70	33597
2026-01-01 14:34:14.05	248.46	3.83	-53.2	-72.9	3.8	7.45e-01	0	47	104	0	69	35207
2026-01-01 14:34:15.04	248.59	3.87	-53.1	-72.9	3.8	7.46e-01	0	47	104	0	69	35066
2026-01-01 14:34:16.03	248.72	3.92	-53.2	-72.9	3.8	7.42e-01	0	47	104	0	69	34993
2026-01-01 14:34:17.02	248.85	3.96	-53.1	-72.8	3.8	7.47e-01	0	47	104	0	69	34800
2026-01-01 14:34:18.01	248.98	4.00	-53.1	-72.8	3.8	7.43e-01	0	48	104	0	69	34486
2026-01-01 14:34:18.99	249.10	4.05	-53.1	-72.7	3.8	7.47e-01	0	48	104	0	69	34378
2026-01-01 14:34:19.96	249.23	4.09	-53.2	-72.8	3.8	7.46e-01	0	48	104	0	69	34491
2026-01-01 14:34:20.94	249.36	4.13	-53.2	-72.8	3.8	7.49e-01	0	48	104	0	69	34485
2026-01-01 14:34:21.92	249.49	4.17	-53.1	-72.8	3.8	7.47e-01	0	47	104	0	69	34683
2026-01-01 14:34:22.91	249.62	4.22	-53.2	-72.8	3.8	7.45e-01	0	48	104	0	69	34519
2026-01-01 14:34:23.89	249.75	4.26	-53.1	-72.7	3.8	7.46e-01	0	48	104	0	69	34135
2026-01-01 14:34:24.88	249.88	4.30	-53.1	-72.5	3.8	7.47e-01	0	48	104	0	69	33370
2026-01-01 14:34:25.87	250.02	4.35	-53.1	-72.2	3.8	7.46e-01	0	48	104	0	69	32506
2026-01-01 14:34:26.86	250.15	4.39	-53.1	-72.2	3.8	7.47e-01	0	48	104	0	69	32212
2026-01-01 14:34:27.84	250.28	4.43	-53.1	-72.1	3.8	7.42e-01	0	48	104	0	69	31815
2026-01-01 14:34:28.83	250.41	4.48	-53.1	-72.1	3.8	7.46e-01	0	48	104	0	69	32095
2026-01-01 14:34:29.82	250.55	4.52	-53.1	-72.3	3.8	7.46e-01	0	48	104	0	69	32800
2026-01-01 14:34:30.80	250.68	4.56	-53.1	-72.6	3.8	7.46e-01	0	48	104	0	69	33869
2026-01-01 14:34:31.78	250.82	4.60	-53.2	-72.9	3.8	7.45e-01	0	48	104	0	69	35134
2026-01-01 14:34:32.77	250.95	4.65	-53.2	-73.0	3.8	7.44e-01	0	48	104	0	68	37560
2026-01-01 14:34:33.75	251.09	4.69	-53.1	-72.3	3.8	7.46e-01	0	48	104	0	68	34631
2026-01-01 14:34:34.74	251.22	4.73	-53.1	-70.0	4.0	7.36e-01	0	48	104	0	68	26642
2026-01-01 14:34:35.72	251.36	4.77	-53.0	-67.1	5.2	7.05e-01	0	48	0	0	68	18987
2026-01-01 14:34:36.70	251.49	4.82	-52.8	-64.1	7.5	6.54e-01	92	49	0	1048576	68	13477
2026-01-01 14:34:37.69	251.63	4.86	-52.5	-61.5	10.2	6.22e-01	0	48	0	2621440	68	9986
2026-01-01 14:34:38.68	251.77	4.90	-52.1	-59.3	12.4	6.11e-01	0	49	0	4718592	67	8220
2026-01-01 14:34:39.68	251.91	4.94	-51.6	-57.5	14.4	6.08e-01	0	49	0	6815744	66	7071
2026-01-01 14:34:40.66	252.04	4.99	-51.1	-55.8	16.0	6.06e-01	0	49	0	8388608	65	6187
2026-01-01 14:34:41.64	252.18	5.03	-50.8	-55.1	16.8	6.06e-01	0	49	0	10485760	65	5707
2026-01-01 14:34:42.64	252.32	5.07	-51.0	-55.6	16.3	6.07e-01	0	49	0	12058624	65	6051
2026-01-01 14:34:43.63	252.46	5.11	-50.9	-55.4	16.5	6.08e-01	0	49	0	14155776	65	5891
2026-01-01 14:34:44.61	252.60	5.16	-50.7	-54.9	17.0	6.05e-01	0	49	0	15728640	65	5590
2026-01-01 14:34:45.60	252.74	5.20	-50.6	-54.6	17.3	6.05e-01	0	49	0	17825792	64	5693
2026-01-01 14:34:46.59	252.88	5.24	-50.3	-53.9	18.0	6.05e-01	0	49	0	19398656	64	5278
2026-01-01 14:34:47.57	253.02	5.28	-50.2	-53.6	18.4	6.06e-01	0	49	0	21495808	63	5383
2026-01-01 14:34:48.56	253.17	5.32	-50.0	-53.4	18.7	6.08e-01	0	49	0	23068672	63	5229
2026-01-01 14:34:49.54	253.31	5.37	-49.8	-53.0	19.0	6.06e-01	0	49	0	25165824	63	5000
2026-01-01 14:34:50.52	253.45	5.41	-49.7	-52.8	19.2	6.06e-01	0	49	0	26738688	63	4883
2026-01-01 14:34:51.51	253.59	5.45	-49.7	-52.7	19.3	6.04e-01	0	49	0	28835840	62	5130
2026-01-01 14:34:52.49	253.74	5.49	-49.7	-52.8	19.3	6.09e-01	0	49	0	30408704	62	5171
2026-01-01 14:34:53.47	253.88	5.53	-49.7	-52.8	19.2	6.06e-01	0	49	0	32505856	62	5204
2026-01-01 14:34:54.46	254.02	5.57	-49.8	-52.9	19.2	6.07e-01	0	49	0	34078720	62	5235
2026-01-01 14:34:55.45	254.17	5.61	-49.8	-52.8	19.3	6.06e-01	0	49	0	36175872	62	5199
2026-01-01 14:34:56.44	254.31	5.66	-49.7	-52.8	19.3	6.05e-01	0	50	0	37748736	62	5165
2026-01-01 14:34:57.43	254.46	5.70	-49.8	-52.8	19.3	6.05e-01	0	49	0	39845888	62	5199
2026-01-01 14:34:58.42	254.61	5.74	-49.7	-52.7	19.4	6.08e-01	0	50	0	41943040	62	5155
2026-01-01 14:34:59.41	254.75	5.78	-49.7	-52.7	19.4	6.06e-01	0	50	0	43515904	62	5144
2026-01-01 14:35:00.40	254.90	5.82	-49.8	-52.9	19.3	6.04e-01	0	50	0	45613056	62	5229
2026-01-01 14:35:01.38	255.05	5.86	-49.8	-53.0	19.1	6.06e-01	0	50	0	47185920	62	5285
2026-01-01 14:35:02.37	255.19	5.90	-49.7	-52.7	19.4	6.05e-01	0	50	0	49283072	62	5148
2026-01-01 14:35:03.36	255.34	5.94	-49.7	-52.7	19.3	6.05e-01	0	50	0	50855936	62	5155
2026-01-01 14:35:04.35	255.49	5.98	-49.8	-52.9	19.2	6.07e-01	0	50	0	52953088	62	5262
2026-01-01 14:35:05.33	255.64	6.02	-49.9	-53.0	19.2	6.06e-01	0	50	0	54525952	62	5296
2026-01-01 14:35:06.32	255.79	6.07	-49.8	-52.8	19.4	6.06e-01	0	50	0	56623104	62	5189
2026-01-01 14:35:07.31	255.94	6.11	-49.9	-53.0	19.1	6.06e-01	0	50	0	58195968	62	5332
2026-01-01 14:35:08.29	256.09	6.15	-50.0	-53.2	18.9	6.06e-01	0	50	0	60293120	62	5440
2026-01-01 14:35:09.28	256.24	6.19	-50.0	-53.2	19.0	6.08e-01	0	50	0	61865984	62	5413
2026-01-01 14:35:10.26	256.39	6.23	-50.0	-53.2	19.0	6.08e-01	0	50	0	63963136	62	5429
2026-01-01 14:35:11.24	256.54	6.27	-50.0	-53.2	19.0	6.07e-01	0	50	0	65536000	62	5412
2026-01-01 14:35:12.23	256.69	6.31	-49.9	-53.0	19.1	6.07e-01	0	50	0	67633152	62	5295
2026-01-01 14:35:13.21	256.85	6.35	-49.9	-53.0	19.2	6.02e-01	0	50	0	69206016	62	5306
2026-01-01 14:35:14.21	257.00	6.39	-50.1	-53.3	18.9	6.08e-01	0	50	0	71303168	62	5479
2026-01-01 14:35:15.19	257.15	6.43	-50.2	-53.5	18.7	6.08e-01	0	51	0	73400320	62	5608
2026-01-01 14:35:16.18	257.31	6.47	-50.0	-53.1	19.0	6.07e-01	0	50	0	74973184	62	5391
2026-01-01 14:35:17.18	257.46	6.51	-49.8	-52.9	19.2	6.04e-01	0	51	0	77070336	62	5251
2026-01-01 14:35:18.16	257.62	6.55	-49.7	-52.7	19.4	6.06e-01	0	51	0	78643200	62	5137
2026-01-01 14:35:19.15	257.77	6.59	-49.7	-52.7	19.4	6.07e-01	0	51	0	80740352	62	5129
2026-01-01 14:35:20.14	257.93	6.62	-49.8	-52.7	19.4	6.06e-01	0	51	0	82313216	62	5150
2026-01-01 14:35:21.12	258.08	6.66	-49.9	-52.9	19.3	6.03e-01	0	51	0	84410368	62	5258
2026-01-01 14:35:22.11	258.24	6.70	-49.9	-53.0	19.2	6.08e-01	0	51	0	85983232	62	5323
2026-01-01 14:35:23.11	258.40	6.74	-49.8	-52.7	19.4	6.07e-01	0	51	0	88080384	62	5149
2026-01-01 14:35:24.09	258.56	6.78	-49.7	-52.5	19.7	6.04e-01	0	51	0	89653248	62	5028
2026-01-01 14:35:25.07	258.71	6.82	-49.6	-52.5	19.6	6.08e-01	0	51	0	91750400	62	5016
2026-01-01 14:35:26.06	258.87	6.86	-49.7	-52.7	19.5	6.06e-01	0	51	0	93323264	62	5126
2026-01-01 14:35:27.05	259.03	6.90	-49.8	-52.8	19.4	6.06e-01	0	51	0	95420416	62	5196
2026-01-01 14:35:28.04	259.19	6.94	-49.6	-52.5	19.7	6.06e-01	0	51	0	96993280	62	5001
2026-01-01 14:35:29.03	259.35	6.97	-49.5	-52.3	19.9	6.05e-01	0	51	0	99090432	62	4888
2026-01-01 14:35:30.02	259.51	7.01	-49.6	-52.4	19.9	6.08e-01	0	51	0	101187584	62	4927
2026-01-01 14:35:31.01	259.67	7.05	-49.6	-52.4	19.8	6.08e-01	0	51	0	102760448	62	4949
2026-01-01 14:35:32.00	259.83	7.09	-49.7	-52.6	19.7	6.09e-01	0	51	0	104857600	62	5064
2026-01-01 14:35:32.98	259.99	7.13	-49.6	-52.4	19.7	6.06e-01	0	51	0	106430464	62	4955
2026-01-01 14:35:33.98	260.16	7.16	-49.4	-52.2	19.6	6.08e-01	0	51	0	108527616	62	4838
2026-01-01 14:35:34.97	260.32	7.20	-49.3	-52.1	19.4	6.07e-01	0	51	0	110100480	62	4773
2026-01-01 14:35:35.96	260.48	7.24	-49.3	-52.2	19.2	6.09e-01	0	51	0	112197632	62	4821
2026-01-01 14:35:36.95	260.65	7.28	-49.2	-52.1	18.9	6.05e-01	0	51	0	113770496	62	4797
2026-01-01 14:35:37.94	260.81	7.31	-48.8	-52.2	16.5	6.06e-01	0	51	0	115867648	61	5115
2026-01-01 14:35:38.93	260.98	7.35	-48.6	-52.6	14.4	6.08e-01	0	51	0	117440512	59	6057
2026-01-01 14:35:39.92	261.14	7.39	-47.9	-52.7	12.6	6.11e-01	0	51	0	119537664	59	6067
2026-01-01 14:35:40.91	261.31	7.43	-48.1	-52.8	12.8	6.09e-01	0	51	0	121110528	59	6166
2026-01-01 14:35:41.90	261.47	7.46	-48.7	-52.7	14.6	6.08e-01	0	51	0	123207680	59	6069
2026-01-01 14:35:42.89	261.64	7.50	-49.3	-52.5	17.9	6.06e-01	0	52	0	125304832	60	5593
2026-01-01 14:35:43.88	261.81	7.54	-49.8	-52.7	19.5	6.06e-01	0	52	0	126877696	61	5460
2026-01-01 14:35:44.87	261.97	7.57	-49.7	-52.5	19.7	6.05e-01	0	52	0	128974848	61	5316
2026-01-01 14:35:45.86	262.14	7.61	-49.8	-52.7	19.4	6.05e-01	0	51	0	130547712	61	5462
2026-01-01 14:35:46.85	262.31	7.64	-49.7	-52.6	19.6	6.05e-01	0	52	0	132644864	61	5372
2026-01-01 14:35:47.83	262.48	7.68	-49.7	-52.5	19.8	6.07e-01	0	51	0	134217728	61	5319
2026-01-01 14:35:48.83	262.65	7.72	-49.6	-52.4	19.9	6.07e-01	0	52	0	136314880	61	5245
2026-01-01 14:35:49.82	262.82	7.75	-49.8	-52.6	19.6	6.06e-01	0	52	0	137887744	61	5400
2026-01-01 14:35:50.81	262.98	7.79	-49.6	-52.4	19.8	6.06e-01	0	52	0	139984896	61	5269
2026-01-01 14:35:51.80	263.16	7.82	-49.6	-52.3	20.0	6.08e-01	0	52	0	141557760	61	5185
2026-01-01 14:35:52.80	263.33	7.86	-49.4	-52.1	20.2	6.07e-01	0	52	0	143654912	61	5064
2026-01-01 14:35:53.79	263.50	7.89	-49.4	-52.1	20.2	6.06e-01	0	52	0	145752064	61	5073
2026-01-01 14:35:54.78	263.67	7.93	-49.4	-52.1	20.2	6.06e-01	0	52	0	147324928	61	5087
2026-01-01 14:35:55.77	263.84	7.96	-49.5	-52.2	20.1	6.06e-01	0	52	0	149422080	61	5130
2026-01-01 14:35:56.77	264.02	8.00	-49.5	-52.2	20.2	6.07e-01	0	52	0	150994944	61	5106
2026-01-01 14:35:57.75	264.19	8.03	-49.4	-52.1	20.2	6.05e-01	0	52	0	153092096	61	5074
2026-01-01 14:35:58.74	264.36	8.07	-49.4	-52.1	20.2	6.05e-01	0	52	0	154664960	61	5080
2026-01-01 14:35:59.73	264.53	8.10	-49.4	-52.0	20.3	6.06e-01	0	52	0	156762112	61	5013
2026-01-01 14:36:00.72	264.71	8.14	-49.3	-52.0	20.4	6.06e-01	0	52	0	158334976	61	4989
2026-01-01 14:36:01.71	264.88	8.17	-49.4	-52.1	20.2	6.06e-01	0	52	0	160432128	61	5079
2026-01-01 14:36:02.70	265.06	8.20	-49.5	-52.3	20.0	6.07e-01	0	52	0	162004992	61	5179
2026-01-01 14:36:03.69	265.23	8.24	-49.4	-52.1	20.2	6.05e-01	0	52	0	164102144	61	5073
2026-01-01 14:36:04.68	265.41	8.27	-49.3	-51.9	20.5	6.06e-01	0	52	0	166199296	61	4932
2026-01-01 14:36:05.68	265.59	8.30	-49.3	-51.8	20.5	6.09e-01	0	52	0	167772160	61	4911
2026-01-01 14:36:06.67	265.76	8.34	-49.4	-52.0	20.3	6.04e-01	0	52	0	169869312	61	5018
2026-01-01 14:36:07.66	265.94	8.37	-49.5	-52.2	20.1	6.06e-01	0	52	0	171442176	61	5141
2026-01-01 14:36:08.65	266.12	8.40	-49.5	-52.1	20.2	6.05e-01	0	52	0	173539328	61	5086
2026-01-01 14:36:09.65	266.30	8.43	-49.4	-52.0	20.3	6.09e-01	0	52	0	175112192	61	5006
2026-01-01 14:36:10.64	266.48	8.47	-49.3	-51.9	20.4	6.06e-01	0	52	0	177209344	61	4952
2026-01-01 14:36:11.64	266.66	8.50	-49.3	-51.9	20.4	6.06e-01	0	52	0	178782208	61	4971
2026-01-01 14:36:12.62	266.83	8.53	-49.4	-52.1	20.2	6.04e-01	0	52	0	180879360	61	5071
2026-01-01 14:36:13.62	267.01	8.56	-49.6	-52.4	19.9	6.06e-01	0	52	0	182976512	61	5230
2026-01-01 14:36:14.60	267.19	8.59	-49.6	-52.4	19.8	6.05e-01	0	52	0	184549376	61	5246
2026-01-01 14:36:15.59	267.37	8.63	-49.4	-52.2	19.9	6.06e-01	0	53	0	186646528	61	5153
2026-01-01 14:36:16.58	267.55	8.66	-49.5	-52.4	19.7	6.06e-01	0	52	0	188219392	61	5237
2026-01-01 14:36:17.57	267.73	8.69	-49.6	-52.7	19.4	6.06e-01	0	53	0	190316544	61	5409
2026-01-01 14:36:18.56	267.92	8.72	-49.7	-52.9	19.1	6.09e-01	0	53	0	191889408	61	5539
2026-01-01 14:36:19.55	268.10	8.75	-49.8	-53.0	18.9	6.09e-01	0	53	0	193986560	61	5625
2026-01-01 14:36:20.54	268.28	8.78	-49.7	-53.0	18.9	6.06e-01	0	53	0	195559424	61	5607
2026-01-01 14:36:21.54	268.47	8.81	-49.8	-53.2	18.5	6.07e-01	0	53	0	197656576	61	5776
2026-01-01 14:36:22.53	268.65	8.84	-49.9	-53.4	18.3	6.08e-01	0	53	0	199229440	62	5560
2026-01-01 14:36:23.52	268.83	8.87	-49.9	-53.6	18.1	6.06e-01	0	53	0	201326592	62	5678
2026-01-01 14:36:24.51	269.02	8.90	-50.0	-53.7	17.9	6.07e-01	0	53	0	202899456	62	5764
2026-01-01 14:36:25.50	269.20	8.93	-49.9	-53.5	18.0	6.07e-01	0	53	0	204996608	62	5649
2026-01-01 14:36:26.48	269.38	8.96	-49.9	-53.5	18.0	6.05e-01	0	53	0	207093760	62	5655
2026-01-01 14:36:27.47	269.57	8.99	-50.0	-53.7	17.8	6.06e-01	0	53	0	208666624	62	5783
2026-01-01 14:36:28.46	269.75	9.02	-50.1	-54.0	17.5	6.08e-01	0	53	0	210239488	62	5945
2026-01-01 14:36:29.44	269.94	9.04	-50.0	-54.0	17.5	6.07e-01	0	53	0	212336640	62	5928
2026-01-01 14:36:30.42	270.12	9.07	-49.9	-53.9	17.4	6.07e-01	0	53	0	214433792	62	5898
2026-01-01 14:36:31.41	270.31	9.10	-49.8	-53.8	17.4	6.07e-01	0	53	0	216006656	62	5817
2026-01-01 14:36:32.40	270.50	9.13	-49.7	-53.7	17.5	6.04e-01	0	53	0	218103808	62	5746
2026-01-01 14:36:33.39	270.68	9.16	-49.6	-53.5	17.5	6.04e-01	0	53	0	219676672	62	5649
2026-01-01 14:36:34.38	270.87	9.18	-49.6	-53.6	17.4	6.06e-01	0	53	0	221773824	62	5693
2026-01-01 14:36:35.37	271.06	9.21	-49.7	-53.7	17.4	6.07e-01	0	53	0	223346688	62	5729
2026-01-01 14:36:36.36	271.25	9.24	-49.7	-53.8	17.2	6.07e-01	0	53	0	225443840	62	5793
2026-01-01 14:36:37.35	271.44	9.27	-49.6	-53.5	17.5	6.06e-01	0	53	0	227016704	62	5603
2026-01-01 14:36:38.33	271.62	9.29	-49.5	-53.3	17.6	6.06e-01	0	53	0	229113856	62	5493
2026-01-01 14:36:39.33	271.81	9.32	-49.4	-53.2	17.7	6.08e-01	0	53	0	230686720	62	5447
2026-01-01 14:36:40.32	272.00	9.34	-49.4	-53.1	17.8	6.05e-01	0	53	0	232783872	62	5393
2026-01-01 14:36:41.31	272.19	9.37	-49.4	-53.1	17.9	6.04e-01	0	53	0	234356736	62	5371
2026-01-01 14:36:42.30	272.38	9.40	-49.5	-53.2	17.9	6.05e-01	0	53	0	236453888	62	5450
2026-01-01 14:36:43.29	272.58	9.42	-49.6	-53.3	17.8	6.06e-01	0	53	0	238551040	62	5515
2026-01-01 14:36:44.27	272.77	9.45	-49.4	-53.0	18.1	6.08e-01	0	53	0	240123904	62	5289
2026-01-01 14:36:45.26	272.96	9.47	-49.3	-52.8	18.3	6.08e-01	0	53	0	242221056	62	5169
2026-01-01 14:36:46.25	273.15	9.50	-49.2	-52.7	18.4	6.06e-01	0	53	0	243793920	62	5107
2026-01-01 14:36:47.24	273.34	9.52	-49.3	-52.7	18.5	6.07e-01	0	53	0	245891072	62	5108
2026-01-01 14:36:48.22	273.53	9.55	-49.4	-52.8	18.5	6.07e-01	0	53	0	247463936	62	5180
2026-01-01 14:36:49.21	273.72	9.57	-49.5	-52.9	18.3	6.05e-01	0	53	0	249561088	62	5272
2026-01-01 14:36:50.20	273.92	9.59	-49.4	-52.8	18.6	6.07e-01	0	53	0	251133952	62	5165
2026-01-01 14:36:51.20	274.11	9.62	-49.2	-52.5	18.9	6.07e-01	0	53	0	253231104	62	4995
2026-01-01 14:36:52.19	274.31	9.64	-49.2	-52.4	19.0	6.06e-01	0	53	0	254803968	62	4959
2026-01-01 14:36:53.18	274.50	9.66	-49.3	-52.5	18.9	6.06e-01	0	53	0	256901120	62	5001
2026-01-01 14:36:54.18	274.70	9.69	-49.3	-52.4	19.1	6.05e-01	0	53	0	258998272	62	4946
2026-01-01 14:36:55.17	274.89	9.71	-49.4	-52.6	19.0	6.07e-01	0	53	0	260571136	62	5043
2026-01-01 14:36:56.16	275.09	9.73	-49.5	-52.7	19.0	6.07e-01	0	53	0	262668288	62	5121
2026-01-01 14:36:57.15	275.28	9.75	-49.3	-52.4	19.3	6.05e-01	0	53	0	264241152	62	4945
2026-01-01 14:36:58.13	275.48	9.77	-49.2	-52.1	19.6	6.06e-01	0	53	0	266338304	61	5048
2026-01-01 14:36:59.12	275.67	9.80	-49.0	-51.9	19.8	6.07e-01	0	53	0	267911168	61	4934
2026-01-01 14:37:00.10	275.87	9.82	-49.0	-51.8	19.9	6.06e-01	0	53	0	270008320	61	4903
2026-01-01 14:37:01.09	276.07	9.84	-49.0	-51.9	19.7	6.05e-01	0	53	0	271581184	61	4950
2026-01-01 14:37:02.08	276.26	9.86	-49.0	-51.7	19.9	6.06e-01	0	53	0	273678336	61	4858
2026-01-01 14:37:03.07	276.46	9.88	-48.9	-51.6	20.0	6.06e-01	0	53	0	275251200	61	4776
2026-01-01 14:37:04.05	276.65	9.90	-48.9	-51.6	20.1	6.07e-01	0	53	0	277348352	61	4787
2026-01-01 14:37:05.05	276.85	9.92	-49.0	-51.8	19.8	6.04e-01	0	53	0	278921216	61	4898
2026-01-01 14:37:06.04	277.05	9.94	-48.9	-51.6	20.0	6.06e-01	0	54	0	281018368	61	4796
2026-01-01 14:37:07.02	277.25	9.96	-49.0	-51.7	20.0	6.06e-01	0	53	0	283115520	61	4862
2026-01-01 14:37:08.01	277.45	9.98	-49.1	-51.9	19.8	6.06e-01	0	54	0	284688384	61	4980
2026-01-01 14:37:09.00	277.65	10.00	-49.3	-52.3	19.5	6.04e-01	0	54	0	286785536	61	5215
2026-01-01 14:37:09.99	277.85	10.02	-49.2	-52.1	19.7	6.02e-01	0	54	0	288358400	61	5074
2026-01-01 14:37:10.99	278.05	10.03	-49.2	-52.0	19.9	6.01e-01	0	54	0	290455552	61	5004
2026-01-01 14:37:11.98	278.25	10.05	-49.3	-52.0	20.0	6.01e-01	0	54	0	292028416	61	5022
2026-01-01 14:37:12.97	278.45	10.07	-49.3	-52.0	20.1	6.02e-01	0	54	0	294125568	61	5008
2026-01-01 14:37:13.96	278.65	10.09	-49.4	-52.1	20.0	6.01e-01	0	54	0	295698432	61	5074
2026-01-01 14:37:14.95	278.85	10.10	-49.5	-52.4	19.8	6.00e-01	0	54	0	297795584	61	5248
2026-01-01 14:37:15.94	279.05	10.12	-49.5	-52.3	19.9	5.99e-01	0	54	0	299368448	61	5166
2026-01-01 14:37:16.92	279.25	10.14	-49.7	-52.7	19.5	6.03e-01	0	54	0	301465600	61	5404
2026-01-01 14:37:17.91	279.45	10.15	-49.5	-52.3	19.8	6.01e-01	0	54	0	303038464	61	5176
2026-01-01 14:37:18.90	279.65	10.17	-49.4	-52.1	20.0	5.99e-01	0	54	0	305135616	61	5088
2026-01-01 14:37:19.89	279.85	10.19	-49.4	-52.1	20.0	6.02e-01	0	54	0	306708480	61	5092
2026-01-01 14:37:20.88	280.05	10.20	-49.4	-52.1	20.1	5.99e-01	0	54	0	308805632	61	5070
2026-01-01 14:37:21.87	280.26	10.22	-49.5	-52.2	20.0	6.02e-01	0	54	0	310902784	61	5136
2026-01-01 14:37:22.86	280.46	10.23	-49.4	-52.1	20.1	5.99e-01	0	54	0	312475648	61	5067
2026-01-01 14:37:23.85	280.66	10.25	-49.3	-52.1	20.0	6.01e-01	0	54	0	314572800	61	5044
2026-01-01 14:37:24.84	280.86	10.26	-49.3	-52.0	20.1	6.02e-01	0	54	0	316145664	61	5023
2026-01-01 14:37:25.83	281.07	10.28	-49.4	-52.1	20.1	6.02e-01	0	54	0	318242816	61	5078
2026-01-01 14:37:26.80	281.27	10.29	-49.5	-52.3	19.9	6.00e-01	0	54	0	319815680	61	5206
2026-01-01 14:37:27.79	281.47	10.30	-49.7	-52.6	19.6	6.04e-01	0	54	0	321912832	61	5354
2026-01-01 14:37:28.78	281.67	10.32	-49.7	-52.6	19.6	6.03e-01	0	54	0	323485696	61	5364
2026-01-01 14:37:29.77	281.88	10.33	-49.6	-52.4	19.8	6.01e-01	0	54	0	325582848	61	5274
2026-01-01 14:37:30.75	282.08	10.34	-49.5	-52.4	19.9	6.03e-01	0	54	0	327155712	61	5220
2026-01-01 14:37:31.74	282.28	10.35	-49.6	-52.4	20.0	6.00e-01	0	54	0	329252864	61	5233
2026-01-01 14:37:32.73	282.49	10.37	-49.5	-52.2	20.1	6.04e-01	0	54	0	330825728	61	5120
2026-01-01 14:37:33.73	282.69	10.38	-49.5	-52.2	20.1	6.02e-01	0	54	0	332922880	61	5143
2026-01-01 14:37:34.72	282.90	10.39	-49.3	-52.0	20.3	6.00e-01	0	54	0	335020032	61	4987
2026-01-01 14:37:35.72	283.10	10.40	-49.2	-51.7	20.5	6.00e-01	0	54	0	336592896	61	4865
2026-01-01 14:37:36.70	283.31	10.41	-49.1	-51.6	20.6	6.04e-01	0	54	0	338690048	61	4806
2026-01-01 14:37:37.69	283.51	10.42	-49.2	-51.7	20.5	6.02e-01	0	54	0	340262912	61	4870
2026-01-01 14:37:38.68	283.72	10.43	-49.1	-51.7	20.5	6.04e-01	0	54	0	342360064	61	4847
2026-01-01 14:37:39.67	283.92	10.44	-49.3	-52.0	20.1	6.02e-01	0	54	0	343932928	61	5001
2026-01-01 14:37:40.66	284.13	10.45	-49.3	-52.2	19.8	6.02e-01	0	54	0	346030080	61	5111
2026-01-01 14:37:41.65	284.33	10.46	-49.5	-52.5	19.5	6.03e-01	0	54	0	347602944	61	5285
2026-01-01 14:37:42.64	284.54	10.47	-49.5	-52.6	19.3	6.01e-01	0	54	0	349700096	61	5351
2026-01-01 14:37:43.64	284.75	10.48	-49.6	-52.7	19.2	6.01e-01	0	54	0	351272960	61	5418
2026-01-01 14:37:44.63	284.95	10.49	-49.5	-52.7	19.0	6.02e-01	0	54	0	353370112	61	5429
2026-01-01 14:37:45.62	285.16	10.50	-49.7	-53.0	18.7	5.99e-01	0	54	0	355467264	61	5637
2026-01-01 14:37:46.60	285.36	10.50	-49.9	-53.6	18.0	6.01e-01	0	54	0	357040128	62	5708
2026-01-01 14:37:47.59	285.57	10.51	-50.0	-53.9	17.6	6.00e-01	0	54	0	359137280	62	5879
2026-01-01 14:37:48.58	285.78	10.52	-50.0	-54.0	17.5	5.99e-01	0	54	0	360710144	62	5941
2026-01-01 14:37:49.57	285.98	10.53	-50.1	-54.4	17.0	6.01e-01	0	54	0	362807296	62	6214
2026-01-01 14:37:50.56	286.19	10.53	-50.2	-54.7	16.6	6.01e-01	0	54	0	364380160	62	6459
2026-01-01 14:37:51.55	286.40	10.54	-50.3	-55.0	16.2	6.02e-01	0	54	0	366477312	62	6679
2026-01-01 14:37:52.54	286.60	10.54	-50.4	-55.3	15.8	6.02e-01	0	54	0	368050176	63	6546
2026-01-01 14:37:53.53	286.81	10.55	-50.5	-55.5	15.5	6.03e-01	0	54	0	370147328	63	6707
2026-01-01 14:37:54.53	287.02	10.55	-50.5	-55.7	15.4	6.00e-01	0	54	0	371720192	63	6816
2026-01-01 14:37:55.52	287.23	10.56	-50.4	-55.5	15.6	6.00e-01	0	55	0	373817344	63	6672
2026-01-01 14:37:56.51	287.43	10.56	-50.6	-55.9	15.2	6.02e-01	0	54	0	375390208	63	6965
2026-01-01 14:37:57.50	287.64	10.57	-50.6	-56.1	14.9	6.02e-01	0	54	0	377487360	63	7191
2026-01-01 14:37:58.49	287.85	10.57	-50.6	-56.1	14.9	6.03e-01	0	54	0	379584512	63	7173
2026-01-01 14:37:59.48	288.06	10.58	-50.7	-56.1	14.9	6.04e-01	0	54	0	381157376	63	7185
2026-01-01 14:38:00.48	288.27	10.58	-50.7	-56.2	14.8	6.04e-01	0	54	0	383254528	63	7234
2026-01-01 14:38:01.46	288.47	10.58	-50.7	-56.2	14.8	6.01e-01	0	55	0	384827392	63	7241
2026-01-01 14:38:02.46	288.68	10.59	-50.7	-56.4	14.7	6.00e-01	0	54	0	386924544	63	7375
2026-01-01 14:38:03.45	288.89	10.59	-50.8	-56.3	14.8	6.03e-01	0	55	0	388497408	63	7368
2026-01-01 14:38:04.43	289.09	10.59	-50.7	-55.9	15.2	6.02e-01	0	55	0	390594560	63	7018
2026-01-01 14:38:05.42	289.30	10.59	-50.6	-55.7	15.4	6.02e-01	0	55	0	392167424	63	6863
2026-01-01 14:38:06.42	289.51	10.59	-50.5	-55.5	15.7	6.03e-01	0	55	0	394264576	63	6701
2026-01-01 14:38:07.40	289.72	10.60	-50.5	-55.3	15.9	6.01e-01	0	55	0	395837440	63	6548
2026-01-01 14:38:08.39	289.92	10.60	-50.4	-55.1	16.2	6.03e-01	0	55	0	397934592	63	6351
2026-01-01 14:38:09.38	290.13	10.60	-50.4	-55.0	16.4	5.99e-01	0	55	0	400031744	63	6301
2026-01-01 14:38:10.37	290.34	10.60	-50.4	-54.8	16.6	6.00e-01	0	55	0	401604608	63	6197
2026-01-01 14:38:11.36	290.55	10.60	-50.4	-54.5	17.1	6.02e-01	0	55	0	403177472	63	5986
2026-01-01 14:38:12.35	290.75	10.60	-50.2	-54.0	17.7	5.98e-01	0	55	0	405274624	63	5596
2026-01-01 14:38:13.34	290.96	10.60	-50.0	-53.5	18.3	6.00e-01	0	54	0	407371776	63	5321
2026-01-01 14:38:14.32	291.17	10.60	-49.9	-53.2	18.6	6.00e-01	0	55	0	408944640	63	5135
2026-01-01 14:38:15.32	291.38	10.59	-49.8	-53.1	18.8	6.02e-01	0	55	0	411041792	63	5061
2026-01-01 14:38:16.31	291.59	10.59	-49.8	-53.0	18.9	6.03e-01	0	55	0	412614656	63	5005
2026-01-01 14:38:17.30	291.79	10.59	-49.7	-52.9	19.0	6.01e-01	0	54	0	414711808	63	4949
2026-01-01 14:38:18.29	292.00	10.59	-49.8	-53.0	18.9	6.04e-01	0	55	0	416284672	63	5022
2026-01-01 14:38:19.28	292.21	10.59	-49.9	-53.1	18.8	6.00e-01	0	55	0	418381824	63	5067
2026-01-01 14:38:20.27	292.41	10.58	-49.7	-52.8	19.1	6.01e-01	0	55	0	419954688	63	4917
2026-01-01 14:38:21.26	292.62	10.58	-49.5	-52.5	19.4	6.01e-01	0	55	0	422051840	62	5021
2026-01-01 14:38:22.25	292.83	10.58	-49.5	-52.5	19.5	5.98e-01	0	55	0	423624704	62	4989
2026-01-01 14:38:23.24	293.04	10.57	-49.6	-52.6	19.3	6.01e-01	0	55	0	425721856	62	5085
2026-01-01 14:38:24.23	293.24	10.57	-49.6	-52.7	19.3	6.01e-01	0	55	0	427819008	62	5105
2026-01-01 14:38:25.22	293.45	10.56	-49.7	-52.7	19.3	6.00e-01	0	55	0	429391872	62	5131
2026-01-01 14:38:26.20	293.66	10.56	-49.6	-52.7	19.3	6.02e-01	0	55	0	431489024	62	5122
2026-01-01 14:38:27.19	293.86	10.55	-49.8	-52.9	19.1	6.01e-01	0	55	0	433061888	62	5221
2026-01-01 14:38:28.18	294.07	10.55	-49.7	-52.8	19.2	6.01e-01	0	55	0	435159040	62	5194
2026-01-01 14:38:29.16	294.27	10.54	-49.7	-52.7	19.2	6.03e-01	0	55	0	436731904	62	5152
2026-01-01 14:38:30.15	294.48	10.54	-49.6	-52.6	19.4	6.03e-01	0	55	0	438829056	62	5094
2026-01-01 14:38:31.15	294.69	10.53	-49.7	-52.8	19.2	6.01e-01	0	55	0	440401920	62	5175
2026-01-01 14:38:32.15	294.90	10.52	-49.6	-52.6	19.4	6.04e-01	0	55	0	442499072	62	5043
2026-01-01 14:38:33.13	295.10	10.52	-49.6	-52.5	19.5	6.01e-01	0	55	0	444071936	62	5033
2026-01-01 14:38:34.13	295.31	10.51	-49.7	-52.8	19.2	6.00e-01	0	55	0	446169088	62	5194
2026-01-01 14:38:35.12	295.52	10.50	-49.7	-52.8	19.2	6.02e-01	0	55	0	448266240	62	5163
2026-01-01 14:38:36.11	295.72	10.49	-49.8	-53.1	18.9	5.99e-01	0	55	0	449839104	62	5345
2026-01-01 14:38:37.10	295.93	10.49	-49.8	-53.1	18.9	6.03e-01	0	55	0	451936256	62	5354
2026-01-01 14:38:38.09	296.14	10.48	-50.0	-53.3	18.7	6.02e-01	0	55	0	453509120	62	5490
2026-01-01 14:38:39.08	296.34	10.47	-49.9	-53.3	18.6	5.97e-01	0	55	0	455606272	62	5479
2026-01-01 14:38:40.07	296.55	10.46	-50.1	-53.5	18.4	6.04e-01	0	55	0	457179136	62	5652
2026-01-01 14:38:41.06	296.75	10.45	-50.0	-53.5	18.3	6.00e-01	0	55	0	459276288	62	5611
2026-01-01 14:38:42.04	296.96	10.44	-50.1	-53.7	18.1	6.01e-01	0	55	0	460849152	62	5786
2026-01-01 14:38:43.03	297.16	10.43	-50.0	-53.6	18.2	6.02e-01	0	55	0	462946304	62	5661
2026-01-01 14:38:44.02	297.37	10.42	-50.0	-53.6	18.1	6.03e-01	0	55	0	464519168	62	5677
2026-01-01 14:38:45.01	297.57	10.41	-50.0	-53.6	18.0	6.00e-01	0	55	0	466616320	62	5692
2026-01-01 14:38:46.00	297.77	10.40	-50.0	-53.8	17.8	5.99e-01	0	55	0	468189184	62	5823
2026-01-01 14:38:46.98	297.98	10.39	-50.0	-53.6	18.0	6.01e-01	0	55	0	470286336	62	5698
2026-01-01 14:38:47.97	298.18	10.38	-49.9	-53.5	18.1	5.99e-01	0	55	0	472383488	62	5613
2026-01-01 14:38:48.96	298.39	10.37	-49.8	-53.4	18.1	6.01e-01	0	55	0	473956352	62	5564
2026-01-01 14:38:49.96	298.59	10.35	-49.7	-53.1	18.5	6.04e-01	0	55	0	476053504	62	5372
2026-01-01 14:38:50.94	298.79	10.34	-49.5	-52.9	18.7	6.01e-01	0	55	0	477626368	62	5227
2026-01-01 14:38:51.93	299.00	10.33	-49.4	-52.6	18.9	6.00e-01	0	55	0	479723520	62	5063
2026-01-01 14:38:52.93	299.20	10.32	-49.3	-52.5	19.0	6.01e-01	0	55	0	481296384	62	4993
2026-01-01 14:38:53.91	299.40	10.30	-49.3	-52.5	18.9	6.00e-01	0	55	0	483393536	62	5026
2026-01-01 14:38:54.90	299.61	10.29	-49.3	-52.5	19.0	6.03e-01	0	55	0	484966400	62	5016
2026-01-01 14:38:55.89	299.81	10.27	-49.5	-52.8	18.8	6.00e-01	0	55	0	487063552	62	5167
2026-01-01 14:38:56.87	300.01	10.26	-49.3	-52.4	19.1	6.01e-01	0	55	0	488636416	62	4971
2026-01-01 14:38:57.87	300.21	10.25	-49.2	-52.2	19.4	6.01e-01	0	55	0	490733568	62	4841
2026-01-01 14:38:58.86	300.42	10.23	-49.1	-52.0	19.6	6.00e-01	0	55	0	492306432	61	5021
2026-01-01 14:38:59.85	300.62	10.22	-49.1	-51.9	19.7	6.03e-01	0	55	0	494403584	61	4983
2026-01-01 14:39:00.85	300.82	10.20	-49.1	-51.9	19.8	6.01e-01	0	55	0	496500736	61	4959
2026-01-01 14:39:01.83	301.02	10.19	-49.1	-51.9	19.9	6.02e-01	0	55	0	498073600	61	4940
2026-01-01 14:39:02.82	301.22	10.17	-49.0	-51.7	20.0	6.02e-01	0	55	0	500170752	61	4855
2026-01-01 14:39:03.81	301.42	10.15	-49.0	-51.7	20.2	6.01e-01	0	55	0	501743616	61	4828
2026-01-01 14:39:04.80	301.62	10.14	-43.5	-52.5	18.7	6.02e-01	0	55	0	503840768	49	10590
2026-01-01 14:39:05.79	301.83	10.12	-44.1	-52.2	18.0	6.04e-01	0	55	0	505413632	50	9629
2026-01-01 14:39:06.78	302.03	10.10	-42.9	-52.0	18.2	6.04e-01	0	55	0	507510784	49	9994
2026-01-01 14:39:07.76	302.22	10.09	-44.2	-52.0	17.9	6.02e-01	0	55	0	509083648	49	10031
2026-01-01 14:39:08.75	302.42	10.07	-42.8	-52.1	18.0	6.03e-01	0	55	0	511180800	50	9556
2026-01-01 14:39:09.75	302.63	10.05	-43.9	-52.1	18.1	6.02e-01	0	55	0	512753664	49	10114
2026-01-01 14:39:10.74	302.82	10.03	-42.7	-51.7	18.2	6.02e-01	0	55	0	514850816	49	9690
2026-01-01 14:39:11.72	303.02	10.01	-44.1	-51.9	18.1	6.02e-01	0	55	0	516423680	49	9905
2026-01-01 14:39:12.71	303.22	10.00	-43.3	-51.6	18.3	6.03e-01	0	55	0	518520832	48	10061
2026-01-01 14:39:13.70	303.42	9.98	-43.5	-52.0	18.2	6.00e-01	0	55	0	520093696	48	10565
2026-01-01 14:39:14.68	303.62	9.96	-41.8	-51.6	18.1	6.01e-01	0	55	0	522190848	47	10747
2026-01-01 14:39:15.67	303.81	9.94	-42.7	-51.5	18.0	6.03e-01	0	55	0	523763712	47	10616
2026-01-01 14:39:16.66	304.01	9.92	-49.1	-51.5	20.4	6.03e-01	0	55	0	525860864	60	5003
2026-01-01 14:39:17.64	304.21	9.90	-49.2	-51.7	20.6	6.01e-01	0	55	0	527433728	60	5151
2026-01-01 14:39:18.63	304.40	9.88	-49.2	-51.6	20.7	6.02e-01	0	55	0	529530880	60	5087
2026-01-01 14:39:19.63	304.60	9.86	-49.0	-51.4	21.0	6.03e-01	0	55	0	531103744	60	4944
2026-01-01 14:39:20.61	304.80	9.84	-48.9	-51.1	21.2	6.01e-01	0	55	0	533200896	60	4811
2026-01-01 14:39:21.60	304.99	9.82	-48.9	-51.2	21.2	6.01e-01	0	55	0	534773760	60	4850
2026-01-01 14:39:22.59	305.19	9.80	-49.0	-51.3	21.2	6.01e-01	0	55	0	536870912	60	4901
2026-01-01 14:39:23.58	305.38	9.77	-49.0	-51.3	21.2	6.00e-01	0	55	0	538443776	60	4879
2026-01-01 14:39:24.57	305.58	9.75	-49.0	-51.2	21.3	6.00e-01	0	55	0	540540928	60	4869
2026-01-01 14:39:25.56	305.77	9.73	-49.0	-51.3	21.3	6.01e-01	0	55	0	542113792	60	4926
2026-01-01 14:39:26.54	305.97	9.71	-49.0	-51.3	21.2	6.00e-01	0	55	0	544210944	60	4876
2026-01-01 14:39:27.52	306.16	9.69	-49.0	-51.3	21.3	6.01e-01	0	56	0	546308096	60	4883
2026-01-01 14:39:28.51	306.35	9.66	-48.9	-51.1	21.3	6.03e-01	0	55	0	547880960	60	4789
2026-01-01 14:39:29.50	306.55	9.64	-48.8	-51.1	21.3	6.01e-01	0	55	0	549978112	60	4779
2026-01-01 14:39:30.48	306.74	9.62	-48.9	-51.1	21.3	6.01e-01	0	55	0	551550976	60	4811
2026-01-01 14:39:31.46	306.93	9.59	-48.9	-51.1	21.3	6.00e-01	0	55	0	553648128	60	4795
2026-01-01 14:39:32.45	307.12	9.57	-48.9	-51.2	21.3	6.03e-01	0	56	0	555220992	60	4822
2026-01-01 14:39:33.45	307.32	9.55	-49.0	-51.3	21.3	6.00e-01	0	56	0	557318144	60	4883
2026-01-01 14:39:34.45	307.51	9.52	-49.0	-51.3	21.2	6.00e-01	0	55	0	558891008	60	4882
2026-01-01 14:39:35.44	307.70	9.50	-49.0	-51.4	21.3	6.02e-01	0	55	0	560988160	60	4952
2026-01-01 14:39:36.43	307.89	9.47	-49.0	-51.3	21.0	6.00e-01	0	56	0	562561024	60	4920
2026-01-01 14:39:37.42	308.09	9.45	-49.0	-51.4	21.1	6.00e-01	0	55	0	564658176	60	4953
2026-01-01 14:39:38.42	308.28	9.42	-49.1	-51.5	21.1	6.00e-01	0	56	0	566755328	60	5002
2026-01-01 14:39:39.41	308.47	9.40	-49.2	-51.5	21.0	6.01e-01	0	56	0	568328192	60	5037
2026-01-01 14:39:40.40	308.66	9.37	-49.3	-51.7	20.8	6.03e-01	0	56	0	570425344	60	5155
2026-01-01 14:39:41.40	308.85	9.35	-49.4	-51.9	20.6	6.03e-01	0	56	0	571998208	61	4943
2026-01-01 14:39:42.39	309.04	9.32	-49.3	-51.7	20.8	6.00e-01	0	56	0	574095360	61	4863
2026-01-01 14:39:43.38	309.23	9.29	-49.3	-51.8	20.8	6.02e-01	0	56	0	575668224	61	4908
2026-01-01 14:39:44.36	309.41	9.27	-49.3	-51.8	20.8	6.00e-01	0	55	0	577765376	61	4875
2026-01-01 14:39:45.35	309.60	9.24	-49.4	-51.9	20.6	6.01e-01	0	56	0	579338240	61	4930
2026-01-01 14:39:46.34	309.79	9.21	-49.4	-52.0	20.5	6.00e-01	0	56	0	581435392	61	5004
2026-01-01 14:39:47.34	309.98	9.19	-49.5	-52.1	20.5	6.03e-01	0	56	0	583008256	61	5056
2026-01-01 14:39:48.32	310.17	9.16	-49.6	-52.1	20.5	6.02e-01	0	56	0	585105408	61	5100
2026-01-01 14:39:49.31	310.35	9.13	-49.3	-51.8	20.7	5.99e-01	0	56	0	586678272	61	4884
2026-01-01 14:39:50.30	310.54	9.10	-49.4	-51.9	20.8	6.01e-01	0	56	0	588775424	61	4931
2026-01-01 14:39:51.29	310.72	9.07	-49.3	-51.8	20.8	6.00e-01	0	56	0	590872576	61	4901
2026-01-01 14:39:52.28	310.91	9.05	-49.3	-51.8	20.7	5.99e-01	0	56	0	592445440	61	4893
2026-01-01 14:39:53.27	311.09	9.02	-49.4	-51.9	20.6	5.99e-01	0	56	0	594542592	61	4943
2026-01-01 14:39:54.26	311.28	8.99	-49.3	-51.7	20.8	5.99e-01	0	56	0	596115456	61	4849
2026-01-01 14:39:55.25	311.46	8.96	-49.2	-51.7	20.8	6.03e-01	0	55	0	598212608	61	4824
2026-01-01 14:39:56.24	311.65	8.93	-49.4	-51.9	20.6	6.03e-01	0	56	0	599785472	61	4969
2026-01-01 14:39:57.23	311.83	8.90	-49.5	-52.1	20.4	6.03e-01	0	56	0	601882624	61	5052
2026-01-01 14:39:58.23	312.02	8.87	-49.4	-52.0	20.6	6.00e-01	0	56	0	603455488	61	4991
2026-01-01 14:39:59.22	312.20	8.84	-49.3	-51.8	20.8	6.03e-01	0	56	0	605552640	61	4878
2026-01-01 14:40:00.21	312.38	8.81	-49.1	-51.5	21.0	6.01e-01	0	56	0	607125504	61	4712
2026-01-01 14:40:01.20	312.56	8.78	-49.0	-51.3	21.0	6.00e-01	0	56	0	609222656	61	4638
2026-01-01 14:40:02.20	312.75	8.75	-49.0	-51.4	21.0	6.01e-01	0	56	0	611319808	61	4670
2026-01-01 14:40:03.19	312.93	8.72	-49.1	-51.5	21.1	6.01e-01	0	56	0	612892672	61	4710
2026-01-01 14:40:04.17	313.11	8.69	-49.1	-51.6	20.8	6.05e-01	0	55	0	614989824	61	4768
2026-01-01 14:40:05.15	313.29	8.66	-49.3	-51.8	20.6	6.00e-01	0	56	0	616562688	61	4889
2026-01-01 14:40:06.15	313.47	8.63	-49.1	-51.6	20.8	6.02e-01	0	56	0	618659840	61	4779
2026-01-01 14:40:07.14	313.65	8.60	-49.1	-51.5	20.8	5.99e-01	0	56	0	620232704	61	4741
2026-01-01 14:40:08.11	313.82	8.57	-49.2	-51.6	20.6	6.01e-01	0	56	0	622329856	61	4814
2026-01-01 14:40:09.10	314.00	8.54	-49.4	-51.9	20.4	6.01e-01	0	56	0	623902720	61	4983
2026-01-01 14:40:10.09	314.18	8.50	-49.4	-52.0	20.5	6.01e-01	0	56	0	625999872	61	5015
2026-01-01 14:40:11.08	314.36	8.47	-49.4	-51.9	20.5	6.00e-01	0	56	0	627572736	61	4983
2026-01-01 14:40:12.07	314.54	8.44	-49.5	-52.1	20.2	6.01e-01	0	55	0	629669888	61	5091
2026-01-01 14:40:13.07	314.72	8.41	-49.4	-52.1	20.1	6.04e-01	0	56	0	631767040	61	5059
2026-01-01 14:40:14.06	314.89	8.37	-49.4	-52.0	20.2	5.99e-01	0	55	0	633339904	61	5011
2026-01-01 14:40:15.05	315.07	8.34	-49.4	-52.0	20.3	6.04e-01	0	56	0	634912768	61	5015
2026-01-01 14:40:16.05	315.25	8.31	-49.5	-52.1	20.2	6.02e-01	0	56	0	637009920	61	5098
2026-01-01 14:40:17.03	315.42	8.28	-49.6	-52.4	20.0	6.00e-01	0	56	0	639107072	61	5248
2026-01-01 14:40:18.02	315.60	8.24	-49.4	-52.0	20.3	6.01e-01	0	56	0	640679936	61	4987
2026-01-01 14:40:19.01	315.77	8.21	-49.2	-51.7	20.6	6.00e-01	0	56	0	642777088	61	4859
2026-01-01 14:40:20.00	315.94	8.18	-49.3	-51.8	20.5	6.02e-01	0	56	0	644349952	61	4900
2026-01-01 14:40:21.00	316.12	8.14	-49.5	-52.2	20.2	6.01e-01	0	56	0	646447104	61	5156
2026-01-01 14:40:21.99	316.29	8.11	-49.4	-51.9	20.4	6.00e-01	0	56	0	648019968	61	4979
2026-01-01 14:40:22.98	316.47	8.07	-49.5	-52.2	19.8	6.00e-01	0	56	0	650117120	61	5152
2026-01-01 14:40:23.97	316.64	8.04	-49.5	-52.4	19.5	6.00e-01	0	56	0	651689984	61	5223
2026-01-01 14:40:24.95	316.81	8.01	-49.6	-52.5	19.5	5.99e-01	0	56	0	653787136	61	5300
2026-01-01 14:40:25.95	316.98	7.97	-49.6	-52.5	19.7	6.01e-01	0	56	0	655360000	61	5284
2026-01-01 14:40:26.94	317.15	7.94	-49.7	-52.5	19.8	6.03e-01	0	56	0	657457152	61	5316
2026-01-01 14:40:27.93	317.32	7.90	-49.7	-52.6	19.8	6.00e-01	0	56	0	659554304	61	5350
2026-01-01 14:40:28.91	317.49	7.87	-49.9	-52.8	19.6	6.03e-01	0	56	0	661127168	62	5169
2026-01-01 14:40:29.90	317.66	7.83	-49.8	-52.6	19.7	6.01e-01	0	56	0	663224320	62	5076
2026-01-01 14:40:30.88	317.83	7.80	-49.6	-52.4	19.8	6.02e-01	0	56	0	664797184	62	4973
2026-01-01 14:40:31.88	318.00	7.76	-49.7	-52.6	19.6	6.00e-01	0	56	0	666894336	62	5075
2026-01-01 14:40:32.86	318.17	7.73	-49.9	-52.9	19.6	5.99e-01	0	56	0	668467200	62	5249
2026-01-01 14:40:33.86	318.34	7.69	-49.7	-52.6	19.8	6.02e-01	0	56	0	670564352	62	5048
2026-01-01 14:40:34.85	318.51	7.65	-49.6	-52.3	20.1	6.01e-01	0	56	0	672137216	62	4908
2026-01-01 14:40:35.84	318.67	7.62	-49.5	-52.2	20.2	6.02e-01	0	56	0	674234368	62	4822
2026-01-01 14:40:36.84	318.84	7.58	-49.6	-52.3	20.2	6.02e-01	0	56	0	675807232	62	4883
2026-01-01 14:40:37.83	319.01	7.55	-49.8	-52.6	19.8	6.04e-01	0	56	0	677904384	62	5098
2026-01-01 14:40:38.81	319.17	7.51	-49.7	-52.6	19.8	6.01e-01	0	56	0	680001536	62	5043
2026-01-01 14:40:39.81	319.34	7.47	-49.9	-52.8	19.6	6.00e-01	0	56	0	681574400	62	5194
2026-01-01 14:40:40.80	319.51	7.44	-49.8	-52.7	19.7	6.01e-01	0	56	0	683671552	62	5116
2026-01-01 14:40:41.79	319.67	7.40	-49.6	-52.4	20.0	6.01e-01	0	56	0	685244416	62	4953
2026-01-01 14:40:42.78	319.84	7.36	-49.5	-52.2	20.2	6.01e-01	0	56	0	687341568	62	4851
2026-01-01 14:40:43.77	320.00	7.33	-49.4	-52.0	20.3	6.01e-01	0	56	0	688914432	62	4727
2026-01-01 14:40:44.76	320.16	7.29	-49.4	-52.0	20.3	6.03e-01	0	56	0	691011584	62	4732
2026-01-01 14:40:45.76	320.33	7.25	-49.3	-51.9	20.4	6.01e-01	0	56	0	692584448	62	4705
2026-01-01 14:40:46.75	320.49	7.21	-49.4	-52.1	20.2	6.00e-01	0	56	0	694681600	62	4786
2026-01-01 14:40:47.74	320.65	7.18	-49.7	-52.6	19.9	6.01e-01	0	56	0	696254464	62	5042
2026-01-01 14:40:48.73	320.81	7.14	-49.6	-52.4	20.0	6.01e-01	0	56	0	698351616	62	4931
2026-01-01 14:40:49.73	320.98	7.10	-49.4	-52.1	20.2	6.01e-01	0	56	0	700448768	62	4768
2026-01-01 14:40:50.72	321.14	7.06	-49.3	-51.8	20.6	6.03e-01	0	56	0	702021632	62	4648
2026-01-01 14:40:51.71	321.30	7.03	-49.2	-51.8	20.6	6.00e-01	0	56	0	704118784	62	4612
2026-01-01 14:40:52.71	321.46	6.99	-49.3	-51.9	20.4	6.02e-01	0	56	0	705691648	62	4652
2026-01-01 14:40:53.69	321.62	6.95	-49.3	-52.0	20.3	6.02e-01	0	56	0	707788800	62	4718
2026-01-01 14:40:54.68	321.78	6.91	-49.4	-52.1	20.2	6.01e-01	0	56	0	709361664	62	4774
2026-01-01 14:40:55.68	321.94	6.87	-49.5	-52.2	20.2	6.00e-01	0	56	0	711458816	62	4823
2026-01-01 14:40:56.66	322.09	6.83	-49.5	-52.2	20.1	6.01e-01	0	56	0	713031680	62	4836
2026-01-01 14:40:57.66	322.25	6.79	-49.4	-52.1	20.2	6.02e-01	0	56	0	715128832	62	4769
2026-01-01 14:40:58.65	322.41	6.76	-49.4	-52.0	20.3	6.01e-01	0	56	0	716701696	62	4723
2026-01-01 14:40:59.64	322.57	6.72	-49.4	-52.1	20.2	6.01e-01	0	56	0	718798848	62	4776
2026-01-01 14:41:00.64	322.72	6.68	-49.4	-52.0	20.2	6.02e-01	0	56	0	720896000	62	4744
2026-01-01 14:41:01.63	322.88	6.64	-49.3	-52.0	20.3	5.99e-01	0	56	0	722468864	62	4712
2026-01-01 14:41:02.62	323.04	6.60	-49.4	-52.2	20.1	6.02e-01	0	56	0	724566016	62	4819
2026-01-01 14:41:03.61	323.19	6.56	-49.4	-52.1	20.1	6.01e-01	0	56	0	726138880	62	4812
2026-01-01 14:41:04.60	323.34	6.52	-49.4	-52.0	20.3	6.03e-01	0	56	0	728236032	62	4736
2026-01-01 14:41:05.57	323.50	6.48	-49.5	-52.2	20.1	6.02e-01	0	56	0	729808896	62	4848
2026-01-01 14:41:06.56	323.65	6.44	-49.5	-52.2	20.0	6.01e-01	0	56	0	731906048	62	4855
2026-01-01 14:41:07.55	323.80	6.40	-49.5	-52.3	19.9	5.98e-01	0	56	0	733478912	62	4890
2026-01-01 14:41:08.53	323.95	6.36	-49.5	-52.3	20.0	6.03e-01	0	56	0	735576064	62	4892
2026-01-01 14:41:09.53	324.11	6.32	-49.5	-52.3	19.9	6.03e-01	0	56	0	737148928	62	4892
2026-01-01 14:41:10.52	324.26	6.28	-49.5	-52.3	19.9	5.99e-01	0	56	0	739246080	62	4926
2026-01-01 14:41:11.50	324.41	6.24	-49.6	-52.4	19.9	6.01e-01	0	56	0	740818944	62	4954
2026-01-01 14:41:12.49	324.56	6.20	-49.6	-52.5	19.7	6.01e-01	0	56	0	742916096	62	4985
2026-01-01 14:41:13.49	324.71	6.16	-49.7	-52.6	19.6	6.03e-01	0	56	0	745013248	62	5044
2026-01-01 14:41:14.47	324.86	6.12	-49.6	-52.5	19.7	6.00e-01	0	56	0	746586112	62	5023
2026-01-01 14:41:15.47	325.01	6.08	-49.8	-52.8	19.5	6.01e-01	0	56	0	748683264	62	5175
2026-01-01 14:41:16.45	325.16	6.04	-49.8	-52.7	19.4	6.03e-01	0	56	0	750256128	62	5150
2026-01-01 14:41:17.44	325.31	6.00	-49.6	-52.5	19.7	6.01e-01	0	56	0	752353280	62	5004
2026-01-01 14:41:18.43	325.46	5.96	-49.5	-52.3	19.9	6.00e-01	0	56	0	753926144	62	4882
2026-01-01 14:41:19.42	325.61	5.92	-49.5	-52.3	19.9	6.02e-01	0	56	0	756023296	62	4901
2026-01-01 14:41:20.41	325.75	5.88	-49.6	-52.4	19.8	6.01e-01	0	56	0	757596160	62	4958
2026-01-01 14:41:21.41	325.90	5.84	-49.6	-52.6	19.6	5.99e-01	0	56	0	759693312	62	5046
2026-01-01 14:41:22.40	326.05	5.80	-49.7	-52.7	19.5	6.01e-01	0	56	0	761266176	62	5119
2026-01-01 14:41:23.38	326.19	5.76	-49.6	-52.5	19.6	5.99e-01	0	56	0	763363328	62	5004
2026-01-01 14:41:24.37	326.34	5.72	-49.6	-52.5	19.7	6.03e-01	0	56	0	765460480	62	5003
2026-01-01 14:41:25.36	326.49	5.68	-49.7	-52.7	19.4	6.00e-01	0	56	0	767033344	62	5113
2026-01-01 14:41:26.35	326.63	5.63	-49.8	-52.8	19.4	6.00e-01	0	56	0	768606208	62	5183
2026-01-01 14:41:27.33	326.77	5.59	-49.8	-52.8	19.4	6.03e-01	0	56	0	770703360	62	5174
2026-01-01 14:41:28.32	326.92	5.55	-49.8	-52.9	19.3	6.00e-01	0	56	0	772800512	62	5243
2026-01-01 14:41:29.31	327.06	5.51	-49.8	-52.9	19.2	6.00e-01	0	56	0	774373376	62	5247
2026-01-01 14:41:30.29	327.20	5.47	-49.9	-53.1	19.1	6.00e-01	0	56	0	776470528	62	5373
2026-01-01 14:41:31.28	327.35	5.43	-49.9	-53.1	19.0	6.01e-01	0	56	0	778043392	62	5370
2026-01-01 14:41:32.27	327.49	5.39	-50.0	-53.2	19.0	6.03e-01	0	56	0	780140544	62	5404
2026-01-01 14:41:33.27	327.63	5.34	-50.1	-53.3	18.8	6.02e-01	0	56	0	781713408	62	5499
2026-01-01 14:41:34.26	327.77	5.30	-49.9	-53.0	19.1	6.01e-01	0	56	0	783810560	62	5312
2026-01-01 14:41:35.25	327.91	5.26	-49.7	-52.7	19.3	6.02e-01	0	56	0	785383424	62	5138
2026-01-01 14:41:36.24	328.06	5.22	-49.6	-52.6	19.4	5.99e-01	0	56	0	787480576	62	5080
2026-01-01 14:41:37.23	328.20	5.18	-49.6	-52.6	19.4	6.01e-01	0	56	0	789053440	62	5049
2026-01-01 14:41:38.21	328.33	5.14	-49.8	-52.8	19.2	6.02e-01	0	56	0	791150592	62	5205
2026-01-01 14:41:39.21	328.47	5.09	-49.8	-52.9	19.1	6.02e-01	0	56	0	792723456	62	5233
2026-01-01 14:41:40.20	328.61	5.05	-49.5	-52.4	19.6	5.99e-01	0	56	0	794820608	62	4973
2026-01-01 14:41:41.19	328.75	5.01	-52.9	-64.1	9.6	6.30e-01	26	56	0	796917760	67	14371
2026-01-01 14:41:42.17	328.89	4.97	-53.3	-72.8	3.8	7.47e-01	0	56	104	796917760	68	36588
2026-01-01 14:41:43.17	329.03	4.93	-49.5	-69.3	3.8	7.42e-01	0	56	104	796917760	62	34772
2026-01-01 14:41:44.15	329.16	4.88	-49.4	-69.1	3.8	7.48e-01	0	56	104	796917760	62	33881
2026-01-01 14:41:45.14	329.30	4.84	-50.1	-69.7	3.8	7.44e-01	0	56	104	796917760	62	36337
2026-01-01 14:41:46.12	329.44	4.80	-53.4	-73.2	3.8	7.45e-01	0	56	104	796917760	69	36484
2026-01-01 14:41:47.11	329.57	4.76	-53.9	-73.8	3.8	7.42e-01	0	56	104	796917760	70	36895
2026-01-01 14:41:48.10	329.71	4.71	-54.1	-74.0	3.8	7.42e-01	0	56	104	796917760	70	37656
2026-01-01 14:41:49.09	329.84	4.67	-54.2	-74.1	3.8	7.44e-01	0	56	104	796917760	70	37997
2026-01-01 14:41:50.08	329.98	4.63	-54.2	-74.1	3.8	7.48e-01	0	56	104	796917760	70	38177
2026-01-01 14:41:51.07	330.11	4.59	-54.3	-74.2	3.8	7.44e-01	0	56	104	796917760	70	38409
2026-01-01 14:41:52.06	330.25	4.54	-54.3	-74.2	3.8	7.46e-01	0	56	104	796917760	70	38560
2026-01-01 14:41:53.05	330.38	4.50	-54.3	-74.3	3.8	7.44e-01	0	56	104	796917760	70	38699
2026-01-01 14:41:54.04	330.51	4.46	-54.4	-74.3	3.8	7.48e-01	0	56	104	796917760	70	38827
2026-01-01 14:41:55.03	330.65	4.42	-54.4	-74.3	3.8	7.44e-01	0	56	104	796917760	70	39012
2026-01-01 14:41:56.02	330.78	4.37	-54.4	-74.3	3.8	7.43e-01	0	56	104	796917760	71	36900
2026-01-01 14:41:57.01	330.91	4.33	-54.4	-74.4	3.8	7.46e-01	0	56	104	796917760	71	36947
2026-01-01 14:41:58.00	331.04	4.29	-54.4	-74.4	3.8	7.43e-01	0	56	104	796917760	71	36963
2026-01-01 14:41:58.98	331.17	4.24	-54.5	-74.4	3.8	7.40e-01	0	56	104	796917760	71	37017
2026-01-01 14:41:59.97	331.30	4.20	-54.5	-74.4	3.8	7.45e-01	0	56	104	796917760	71	37007
2026-01-01 14:42:00.95	331.43	4.16	-54.5	-74.4	3.8	7.46e-01	0	56	104	796917760	71	37161
2026-01-01 14:42:01.95	331.56	4.12	-54.5	-74.4	3.8	7.44e-01	0	56	104	796917760	71	37181
2026-01-01 14:42:02.93	331.69	4.07	-54.5	-74.4	3.8	7.41e-01	0	56	104	796917760	71	37222
2026-01-01 14:42:03.92	331.82	4.03	-54.5	-74.4	3.8	7.45e-01	0	56	104	796917760	71	37350
2026-01-01 14:42:04.91	331.95	3.99	-54.5	-74.4	3.8	7.46e-01	0	56	104	796917760	71	37312
2026-01-01 14:42:05.89	332.08	3.94	-54.5	-74.4	3.8	7.48e-01	0	56	104	796917760	71	37365
2026-01-01 14:42:06.89	332.21	3.90	-54.5	-74.4	3.8	7.47e-01	0	56	104	796917760	71	37356
2026-01-01 14:42:07.87	332.33	3.86	-54.5	-74.4	3.8	7.41e-01	0	56	104	796917760	71	37298
2026-01-01 14:42:08.86	332.46	3.81	-54.5	-74.4	3.8	7.44e-01	0	56	104	796917760	71	37361
2026-01-01 14:42:09.85	332.59	3.77	-54.5	-74.4	3.8	7.44e-01	0	56	104	796917760	71	37250
2026-01-01 14:42:10.84	332.71	3.73	-54.5	-74.4	3.8	7.49e-01	0	56	104	796917760	71	37217
2026-01-01 14:42:11.83	332.84	3.68	-54.5	-74.4	3.8	7.46e-01	0	56	104	796917760	71	37241
2026-01-01 14:42:12.82	332.96	3.64	-54.5	-74.4	3.8	7.47e-01	0	56	104	796917760	71	37266
2026-01-01 14:42:13.82	333.09	3.60	-54.5	-74.4	3.8	7.43e-01	0	56	104	796917760	71	37227
2026-01-01 14:42:14.80	333.21	3.55	-54.5	-74.4	3.8	7.44e-01	0	56	104	796917760	71	37165
2026-01-01 14:42:15.80	333.34	3.51	-54.5	-74.4	3.8	7.47e-01	0	56	104	796917760	71	37224
2026-01-01 14:42:16.79	333.46	3.47	-54.5	-74.4	3.8	7.49e-01	0	56	104	796917760	71	37151
2026-01-01 14:42:17.77	333.59	3.42	-54.5	-74.4	3.8	7.46e-01	0	56	104	796917760	71	37224
2026-01-01 14:42:18.77	333.71	3.38	-54.5	-74.4	3.8	7.44e-01	0	56	104	796917760	71	37204
2026-01-01 14:42:19.76	333.83	3.34	-54.5	-74.4	3.8	7.47e-01	0	56	104	796917760	71	37233
2026-01-01 14:42:20.74	333.95	3.29	-54.5	-74.4	3.8	7.46e-01	0	56	104	796917760	71	37201
2026-01-01 14:42:21.73	334.08	3.25	-54.5	-74.4	3.8	7.45e-01	0	56	104	796917760	71	37245
2026-01-01 14:42:22.72	334.20	3.21	-54.5	-74.4	3.8	7.44e-01	0	56	104	796917760	71	37207
2026-01-01 14:42:23.71	334.32	3.16	-54.5	-74.4	3.8	7.42e-01	0	56	104	796917760	71	37220
2026-01-01 14:42:24.70	334.44	3.12	-54.5	-74.4	3.8	7.47e-01	0	56	104	796917760	71	37250
2026-01-01 14:42:25.68	334.56	3.07	-54.5	-74.4	3.8	7.47e-01	0	56	104	796917760	71	37200
2026-01-01 14:42:26.68	334.68	3.03	-54.5	-74.4	3.8	7.49e-01	0	56	104	796917760	71	37240
2026-01-01 14:42:27.67	334.80	2.99	-54.5	-74.4	3.8	7.48e-01	0	56	104	796917760	71	37207
2026-01-01 14:42:28.66	334.92	2.94	-54.5	-74.4	3.8	7.46e-01	0	56	104	796917760	71	37248

#Closed at: 2026-01-01 14:42:28
#Recorded file [796 MB]: D:/Data/31026_260101_174141.dat