passes_logs/2026/01/01/R3.0SM8_Murmansk_STILSPACE/R3.0SM8_Murmansk_STILSPACE__20260101_225516_NOAA_20_JPSS-1_rec.log

#Pass ID: 20260101_225516_NOAA 20 (JPSS-1)
#Satellite: NOAA 20 (JPSS-1)
#Configuration: NOAA 20
#almurnet v.1.7.20240730
#Start time: 2026-01-01 22:55:18

#Version: 2.2.20231116
#Station: R3.0SM8_Murmansk_STILSPACE
#Location: 33.092731 lon 68.902999 lat
#TLE: 1 43013U 17073A   26001.30344297  .00000183  00000+0  10758-3 0  9995
#TLE: 2 43013  98.7621 302.3885 0001938  59.1624 300.9742 14.19532032420790

#Time	Az	El	Level	Level2	SNR	BER	BlckErr	Temp	State	Recorded	gain1	gain2
2026-01-01 22:55:18.12	20.67	3.10	-52.2	-66.1	3.8	1.49e+00	0	47	0	0	66	18657
2026-01-01 22:55:19.10	20.73	3.16	-52.0	-65.9	3.8	1.49e+00	0	48	104	0	67	17176
2026-01-01 22:55:20.09	20.78	3.22	-52.0	-65.8	3.8	1.49e+00	0	48	104	0	66	17940
2026-01-01 22:55:21.08	20.84	3.28	-51.8	-65.6	3.8	1.49e+00	0	48	104	0	66	17628
2026-01-01 22:55:22.07	20.90	3.34	-51.5	-65.4	3.8	1.49e+00	0	48	104	0	66	17190
2026-01-01 22:55:23.06	20.95	3.40	-50.5	-64.0	3.8	1.49e+00	0	48	104	0	64	16328
2026-01-01 22:55:24.05	21.01	3.47	-50.0	-63.8	3.8	1.49e+00	0	48	104	0	63	17026
2026-01-01 22:55:25.04	21.07	3.53	-50.2	-63.7	3.8	1.49e+00	0	48	104	0	62	17832
2026-01-01 22:55:26.02	21.13	3.59	-50.1	-63.0	3.8	1.49e+00	0	48	104	0	62	16473
2026-01-01 22:55:27.01	21.19	3.65	-50.0	-62.8	3.8	1.49e+00	0	48	104	0	62	15978
2026-01-01 22:55:27.99	21.24	3.71	-50.1	-62.9	3.8	1.49e+00	0	48	104	0	62	16207
2026-01-01 22:55:28.97	21.30	3.77	-50.1	-63.4	3.8	1.49e+00	0	48	104	0	62	17209
2026-01-01 22:55:29.96	21.36	3.83	-50.1	-63.8	3.8	1.49e+00	0	48	104	0	62	17968
2026-01-01 22:55:30.95	21.42	3.89	-50.1	-63.9	3.8	1.49e+00	0	48	104	0	62	18113
2026-01-01 22:55:31.94	21.48	3.95	-50.2	-63.8	3.8	1.49e+00	0	48	104	0	62	18085
2026-01-01 22:55:32.93	21.54	4.01	-50.2	-63.8	3.8	1.49e+00	0	48	104	0	62	17909
2026-01-01 22:55:33.92	21.60	4.08	-50.2	-63.7	3.8	1.49e+00	0	48	104	0	62	17827
2026-01-01 22:55:34.91	21.66	4.14	-50.1	-63.7	3.8	1.49e+00	0	49	104	0	62	17822
2026-01-01 22:55:35.90	21.72	4.20	-50.2	-63.7	3.8	1.49e+00	0	48	104	0	62	17873
2026-01-01 22:55:36.88	21.78	4.26	-50.1	-63.7	3.8	1.49e+00	0	49	104	0	62	17701
2026-01-01 22:55:37.88	21.84	4.33	-50.2	-63.5	3.8	1.49e+00	0	49	104	0	62	17441
2026-01-01 22:55:38.86	21.90	4.39	-50.1	-63.1	3.8	1.49e+00	0	49	104	0	62	16691
2026-01-01 22:55:39.85	21.96	4.45	-50.0	-62.2	3.8	1.49e+00	0	49	104	0	62	14928
2026-01-01 22:55:40.85	22.03	4.51	-50.0	-61.2	3.9	1.47e+00	0	49	104	0	62	13263
2026-01-01 22:55:41.84	22.09	4.58	-50.0	-60.7	4.1	1.41e+00	0	49	0	0	62	12608
2026-01-01 22:55:42.83	22.15	4.64	-49.8	-60.2	4.3	1.38e+00	0	49	0	0	62	11902
2026-01-01 22:55:43.83	22.21	4.70	-49.8	-59.7	4.4	1.34e+00	53	49	0	0	62	11195
2026-01-01 22:55:44.81	22.27	4.76	-49.7	-58.5	5.0	7.70e-01	0	49	0	2097152	62	9755
2026-01-01 22:55:45.80	22.34	4.83	-49.5	-57.2	5.8	4.62e-01	0	49	0	4194304	62	8416
2026-01-01 22:55:46.79	22.40	4.89	-49.3	-56.7	6.1	3.10e-01	0	49	0	5242880	61	8449
2026-01-01 22:55:47.78	22.46	4.96	-49.4	-56.9	6.1	3.22e-01	0	49	0	7340032	61	8571
2026-01-01 22:55:48.77	22.53	5.02	-49.4	-56.9	6.0	3.54e-01	0	49	0	9437184	61	8630
2026-01-01 22:55:49.75	22.59	5.08	-49.4	-56.7	6.2	3.26e-01	0	50	0	11534336	61	8438
2026-01-01 22:55:50.75	22.65	5.15	-49.4	-56.3	6.6	2.60e-01	0	49	0	13631488	61	8011
2026-01-01 22:55:51.73	22.72	5.21	-49.5	-56.5	6.5	1.88e-01	0	50	0	14680064	61	8238
2026-01-01 22:55:52.72	22.78	5.27	-49.5	-56.1	6.9	1.98e-01	0	50	0	16777216	61	7817
2026-01-01 22:55:53.72	22.85	5.34	-49.5	-55.7	7.4	1.33e-01	0	50	0	18874368	61	7540
2026-01-01 22:55:54.70	22.91	5.40	-49.5	-55.7	7.5	1.00e-01	0	50	0	20971520	61	7482
2026-01-01 22:55:55.69	22.98	5.47	-49.8	-56.2	7.1	1.30e-01	0	50	0	22020096	61	7927
2026-01-01 22:55:56.68	23.04	5.53	-49.7	-55.9	7.4	1.43e-01	0	50	0	24117248	61	7710
2026-01-01 22:55:57.67	23.11	5.60	-49.6	-55.2	8.1	8.23e-02	0	50	0	26214400	61	7096
2026-01-01 22:55:58.67	23.18	5.66	-49.3	-54.4	9.0	3.96e-02	0	50	0	28311552	61	6455
2026-01-01 22:55:59.65	23.24	5.73	-49.2	-53.9	9.6	1.54e-02	0	50	0	29360128	61	6125
2026-01-01 22:56:00.64	23.31	5.79	-49.1	-53.6	10.0	9.22e-03	0	50	0	31457280	61	5876
2026-01-01 22:56:01.64	23.38	5.86	-49.0	-53.1	10.6	4.37e-03	0	50	0	33554432	61	5535
2026-01-01 22:56:02.62	23.44	5.92	-48.9	-52.8	11.0	2.42e-03	0	50	0	35651584	60	5681
2026-01-01 22:56:03.61	23.51	5.99	-48.8	-52.5	11.4	1.10e-03	0	50	0	37748736	60	5494
2026-01-01 22:56:04.61	23.58	6.05	-48.7	-52.3	11.7	6.17e-04	0	50	0	38797312	60	5348
2026-01-01 22:56:05.60	23.65	6.12	-48.7	-52.2	11.8	5.15e-04	0	50	0	40894464	60	5309
2026-01-01 22:56:06.58	23.72	6.19	-48.7	-52.2	11.9	3.86e-04	0	50	0	42991616	60	5285
2026-01-01 22:56:07.58	23.79	6.25	-48.8	-52.3	11.8	4.49e-04	0	50	0	45088768	60	5373
2026-01-01 22:56:08.57	23.85	6.32	-48.8	-52.2	12.0	4.65e-04	0	50	0	46137344	60	5295
2026-01-01 22:56:09.55	23.92	6.39	-48.8	-52.2	12.0	3.20e-04	0	51	0	48234496	60	5319
2026-01-01 22:56:10.54	23.99	6.45	-48.8	-52.2	11.9	3.21e-04	0	51	0	50331648	60	5337
2026-01-01 22:56:11.53	24.06	6.52	-48.8	-52.2	12.0	4.03e-04	0	51	0	52428800	60	5282
2026-01-01 22:56:12.51	24.13	6.58	-48.7	-52.0	12.2	2.28e-04	0	51	0	53477376	60	5177
2026-01-01 22:56:13.50	24.20	6.65	-48.7	-51.9	12.4	1.62e-04	0	51	0	55574528	60	5103
2026-01-01 22:56:14.49	24.27	6.72	-48.5	-51.6	12.7	8.16e-05	0	51	0	57671680	60	4950
2026-01-01 22:56:15.48	24.35	6.79	-48.5	-51.5	12.8	6.02e-05	0	51	0	59768832	60	4899
2026-01-01 22:56:16.46	24.42	6.85	-48.5	-51.5	12.8	4.34e-05	0	51	0	60817408	60	4905
2026-01-01 22:56:17.45	24.49	6.92	-48.5	-51.4	12.9	3.96e-05	0	51	0	62914560	60	4862
2026-01-01 22:56:18.44	24.56	6.99	-48.5	-51.4	12.9	4.95e-05	0	51	0	65011712	60	4870
2026-01-01 22:56:19.43	24.63	7.06	-48.4	-51.5	12.9	5.41e-05	0	51	0	67108864	60	4881
2026-01-01 22:56:20.42	24.71	7.12	-48.7	-51.8	12.5	7.32e-05	0	51	0	69206016	60	5082
2026-01-01 22:56:21.41	24.78	7.19	-48.7	-51.8	12.5	1.64e-04	0	51	0	70254592	60	5075
2026-01-01 22:56:22.40	24.85	7.26	-48.4	-51.4	12.9	5.49e-05	0	51	0	72351744	60	4845
2026-01-01 22:56:23.38	24.92	7.33	-48.3	-51.1	13.2	3.20e-05	0	51	0	74448896	59	4974
2026-01-01 22:56:24.38	25.00	7.40	-48.2	-50.8	13.6	1.52e-05	0	51	0	76546048	59	4798
2026-01-01 22:56:25.36	25.07	7.47	-48.1	-50.7	13.7	7.60e-06	0	51	0	77594624	59	4741
2026-01-01 22:56:26.36	25.15	7.53	-48.1	-50.7	13.7	9.10e-06	0	51	0	79691776	59	4734
2026-01-01 22:56:27.35	25.22	7.60	-48.0	-50.6	13.9	3.00e-06	0	51	0	81788928	59	4656
2026-01-01 22:56:28.34	25.30	7.67	-48.1	-50.6	13.8	2.20e-06	0	51	0	83886080	59	4694
2026-01-01 22:56:29.32	25.37	7.74	-48.1	-50.7	13.8	3.80e-06	0	51	0	85983232	59	4710
2026-01-01 22:56:30.32	25.45	7.81	-48.1	-50.7	13.7	4.50e-06	0	51	0	87031808	59	4743
2026-01-01 22:56:31.30	25.53	7.88	-48.1	-50.5	14.0	3.80e-06	0	52	0	89128960	59	4650
2026-01-01 22:56:32.29	25.60	7.95	-47.9	-50.3	14.2	7.00e-07	0	51	0	91226112	58	4812
2026-01-01 22:56:33.28	25.68	8.02	-47.9	-50.3	14.3	7.00e-07	0	51	0	93323264	58	4777
2026-01-01 22:56:34.28	25.76	8.09	-47.9	-50.4	14.2	1.50e-06	0	52	0	94371840	58	4815
2026-01-01 22:56:35.27	25.83	8.16	-47.9	-50.2	14.3	7.00e-07	0	51	0	96468992	58	4750
2026-01-01 22:56:36.27	25.91	8.23	-47.8	-50.1	14.4	7.00e-07	0	52	0	98566144	58	4702
2026-01-01 22:56:37.25	25.99	8.30	-47.9	-50.3	14.2	7.00e-07	0	52	0	100663296	58	4782
2026-01-01 22:56:38.26	26.07	8.37	-48.0	-50.4	14.1	1.50e-06	0	52	0	101711872	58	4863
2026-01-01 22:56:39.25	26.15	8.45	-47.8	-50.2	14.4	7.00e-07	0	52	0	103809024	58	4719
2026-01-01 22:56:40.24	26.23	8.52	-47.7	-50.0	14.6	7.00e-07	0	52	0	105906176	58	4619
2026-01-01 22:56:41.23	26.31	8.59	-47.7	-50.0	14.6	7.00e-07	0	52	0	108003328	58	4599
2026-01-01 22:56:42.22	26.39	8.66	-47.7	-49.9	14.6	0.00e+00	0	52	0	110100480	58	4592
2026-01-01 22:56:43.21	26.47	8.73	-47.7	-50.0	14.5	7.00e-07	0	52	0	111149056	58	4651
2026-01-01 22:56:44.20	26.55	8.80	-47.7	-50.1	14.5	0.00e+00	0	52	0	113246208	58	4684
2026-01-01 22:56:45.19	26.63	8.87	-47.8	-50.2	14.3	0.00e+00	0	52	0	115343360	58	4757
2026-01-01 22:56:46.18	26.72	8.95	-47.7	-50.1	14.5	0.00e+00	0	52	0	117440512	58	4672
2026-01-01 22:56:47.17	26.80	9.02	-47.6	-49.9	14.7	7.00e-07	0	52	0	118489088	58	4550
2026-01-01 22:56:48.16	26.88	9.09	-47.7	-50.0	14.6	0.00e+00	0	52	0	120586240	58	4636
2026-01-01 22:56:49.16	26.96	9.16	-47.8	-50.1	14.5	2.20e-06	0	52	0	122683392	58	4693
2026-01-01 22:56:50.15	27.05	9.24	-47.9	-50.3	14.3	1.50e-06	0	52	0	124780544	58	4802
2026-01-01 22:56:51.14	27.13	9.31	-47.8	-50.1	14.5	0.00e+00	0	52	0	126877696	58	4698
2026-01-01 22:56:52.13	27.21	9.38	-47.8	-50.0	14.6	0.00e+00	0	52	0	127926272	58	4632
2026-01-01 22:56:53.12	27.30	9.45	-47.8	-50.1	14.5	2.20e-06	0	52	0	130023424	58	4693
2026-01-01 22:56:54.11	27.38	9.53	-47.7	-49.9	14.7	0.00e+00	0	52	0	132120576	58	4580
2026-01-01 22:56:55.11	27.47	9.60	-47.8	-50.0	14.6	1.50e-06	0	52	0	134217728	58	4641
2026-01-01 22:56:56.09	27.55	9.67	-48.0	-50.3	14.3	7.00e-07	0	53	0	135266304	58	4804
2026-01-01 22:56:57.09	27.64	9.75	-47.7	-49.8	14.8	0.00e+00	0	52	0	137363456	58	4540
2026-01-01 22:56:58.08	27.73	9.82	-47.5	-49.7	14.9	0.00e+00	0	52	0	139460608	58	4493
2026-01-01 22:56:59.07	27.82	9.90	-47.5	-49.6	15.1	0.00e+00	0	52	0	141557760	58	4417
2026-01-01 22:57:00.06	27.90	9.97	-47.4	-49.5	15.2	0.00e+00	0	53	0	142606336	57	4599
2026-01-01 22:57:01.05	27.99	10.05	-47.4	-49.5	15.2	0.00e+00	0	53	0	144703488	57	4608
2026-01-01 22:57:02.04	28.08	10.12	-47.4	-49.5	15.2	0.00e+00	0	52	0	146800640	57	4625
2026-01-01 22:57:03.03	28.17	10.20	-47.5	-49.6	15.0	0.00e+00	0	52	0	148897792	57	4692
2026-01-01 22:57:04.02	28.26	10.27	-47.8	-50.0	14.7	0.00e+00	0	53	0	150994944	57	4899
2026-01-01 22:57:05.01	28.35	10.35	-47.5	-49.7	15.0	0.00e+00	0	53	0	152043520	57	4711
2026-01-01 22:57:06.00	28.44	10.42	-47.4	-49.4	15.3	0.00e+00	0	53	0	154140672	57	4593
2026-01-01 22:57:06.99	28.53	10.50	-47.3	-49.3	15.4	0.00e+00	0	53	0	156237824	57	4505
2026-01-01 22:57:07.98	28.62	10.57	-47.3	-49.3	15.4	0.00e+00	0	53	0	158334976	57	4521
2026-01-01 22:57:08.97	28.71	10.65	-47.3	-49.3	15.4	0.00e+00	0	53	0	159383552	57	4503
2026-01-01 22:57:09.96	28.80	10.72	-47.4	-49.4	15.3	0.00e+00	0	53	0	161480704	57	4571
2026-01-01 22:57:10.94	28.89	10.80	-47.3	-49.3	15.4	0.00e+00	0	53	0	163577856	57	4532
2026-01-01 22:57:11.93	28.98	10.87	-47.4	-49.5	15.3	0.00e+00	0	53	0	165675008	57	4604
2026-01-01 22:57:12.92	29.08	10.95	-47.6	-49.8	15.0	0.00e+00	0	53	0	166723584	57	4760
2026-01-01 22:57:13.91	29.17	11.03	-47.4	-49.5	15.3	0.00e+00	0	53	0	168820736	57	4607
2026-01-01 22:57:14.90	29.26	11.10	-47.3	-49.3	15.4	0.00e+00	0	53	0	170917888	57	4526
2026-01-01 22:57:15.88	29.36	11.18	-47.3	-49.2	15.5	0.00e+00	0	53	0	173015040	57	4489
2026-01-01 22:57:16.87	29.45	11.26	-47.2	-49.2	15.5	0.00e+00	0	53	0	174063616	57	4472
2026-01-01 22:57:17.86	29.55	11.34	-47.3	-49.3	15.5	0.00e+00	0	53	0	176160768	57	4519
2026-01-01 22:57:18.84	29.64	11.41	-47.4	-49.4	15.4	0.00e+00	0	53	0	178257920	57	4563
2026-01-01 22:57:19.83	29.74	11.49	-47.2	-49.2	15.5	0.00e+00	0	53	0	180355072	57	4467
2026-01-01 22:57:20.82	29.83	11.57	-47.1	-49.0	15.8	0.00e+00	0	53	0	182452224	57	4365
2026-01-01 22:57:21.81	29.93	11.65	-47.1	-49.0	15.8	0.00e+00	0	53	0	183500800	57	4364
2026-01-01 22:57:22.80	30.03	11.72	-47.0	-48.9	15.9	0.00e+00	0	53	0	185597952	57	4314
2026-01-01 22:57:23.80	30.13	11.80	-47.0	-48.9	15.9	0.00e+00	0	53	0	187695104	57	4320
2026-01-01 22:57:24.78	30.23	11.88	-47.1	-49.1	15.7	0.00e+00	0	53	0	189792256	57	4405
2026-01-01 22:57:25.77	30.33	11.96	-47.0	-48.9	15.9	0.00e+00	0	53	0	191889408	57	4311
2026-01-01 22:57:26.76	30.43	12.04	-47.0	-48.8	16.0	0.00e+00	0	53	0	192937984	57	4265
2026-01-01 22:57:27.75	30.53	12.12	-46.9	-48.7	16.1	0.00e+00	0	53	0	195035136	56	4488
2026-01-01 22:57:28.74	30.63	12.20	-46.9	-48.7	16.1	0.00e+00	0	54	0	197132288	56	4473
2026-01-01 22:57:29.73	30.73	12.28	-47.0	-48.8	16.0	0.00e+00	0	53	0	199229440	56	4544
2026-01-01 22:57:30.71	30.83	12.36	-47.0	-48.9	15.9	0.00e+00	0	53	0	200278016	56	4566
2026-01-01 22:57:31.70	30.93	12.44	-47.1	-49.0	15.8	0.00e+00	0	53	0	202375168	56	4626
2026-01-01 22:57:32.69	31.03	12.52	-47.0	-49.0	15.9	0.00e+00	0	54	0	204472320	56	4599
2026-01-01 22:57:33.68	31.14	12.60	-47.1	-49.0	15.9	0.00e+00	0	54	0	206569472	56	4602
2026-01-01 22:57:34.67	31.24	12.68	-47.2	-49.1	15.7	0.00e+00	0	54	0	207618048	56	4700
2026-01-01 22:57:35.65	31.35	12.76	-47.2	-49.1	15.7	0.00e+00	0	54	0	209715200	56	4679
2026-01-01 22:57:36.64	31.45	12.84	-47.2	-49.1	15.7	0.00e+00	0	54	0	211812352	56	4698
2026-01-01 22:57:37.62	31.56	12.92	-47.1	-49.0	15.8	0.00e+00	0	54	0	213909504	56	4638
2026-01-01 22:57:38.61	31.66	13.00	-47.1	-49.0	15.8	0.00e+00	0	54	0	214958080	56	4626
2026-01-01 22:57:39.60	31.77	13.08	-47.1	-49.1	15.8	0.00e+00	0	54	0	217055232	56	4661
2026-01-01 22:57:40.59	31.88	13.16	-47.3	-49.3	15.6	0.00e+00	0	54	0	219152384	56	4765
2026-01-01 22:57:41.58	31.98	13.24	-47.3	-49.3	15.6	0.00e+00	0	54	0	221249536	56	4778
2026-01-01 22:57:42.56	32.09	13.32	-47.3	-49.3	15.6	0.00e+00	0	54	0	222298112	56	4779
2026-01-01 22:57:43.55	32.20	13.41	-47.4	-49.3	15.5	0.00e+00	0	54	0	224395264	56	4804
2026-01-01 22:57:44.54	32.31	13.49	-47.2	-49.1	15.7	0.00e+00	0	54	0	226492416	56	4694
2026-01-01 22:57:45.54	32.42	13.57	-47.2	-49.1	15.7	0.00e+00	0	54	0	228589568	56	4695
2026-01-01 22:57:46.53	32.53	13.65	-47.2	-49.2	15.7	0.00e+00	0	54	0	230686720	56	4706
2026-01-01 22:57:47.51	32.64	13.74	-47.2	-49.1	15.7	0.00e+00	0	54	0	231735296	56	4697
2026-01-01 22:57:48.50	32.75	13.82	-47.2	-49.1	15.8	0.00e+00	0	54	0	233832448	56	4696
2026-01-01 22:57:49.49	32.87	13.90	-47.2	-49.1	15.8	0.00e+00	0	54	0	235929600	56	4701
2026-01-01 22:57:50.48	32.98	13.99	-47.3	-49.2	15.7	0.00e+00	0	54	0	238026752	56	4706
2026-01-01 22:57:51.48	33.09	14.07	-47.2	-49.1	15.8	0.00e+00	0	54	0	239075328	56	4668
2026-01-01 22:57:52.47	33.21	14.15	-47.3	-49.1	15.8	0.00e+00	0	54	0	241172480	56	4705
2026-01-01 22:57:53.46	33.32	14.24	-47.3	-49.3	15.6	0.00e+00	0	54	0	243269632	56	4776
2026-01-01 22:57:54.45	33.44	14.32	-47.3	-49.2	15.7	0.00e+00	0	54	0	245366784	56	4741
2026-01-01 22:57:55.44	33.56	14.41	-47.2	-49.2	15.7	0.00e+00	0	54	0	247463936	56	4737
2026-01-01 22:57:56.43	33.67	14.49	-47.3	-49.3	15.6	0.00e+00	0	54	0	248512512	56	4769
2026-01-01 22:57:57.42	33.79	14.58	-47.5	-49.5	15.4	0.00e+00	0	54	0	250609664	56	4872
2026-01-01 22:57:58.41	33.91	14.66	-47.5	-49.6	15.3	0.00e+00	0	54	0	252706816	56	4928
2026-01-01 22:57:59.40	34.03	14.75	-47.4	-49.3	15.6	0.00e+00	0	54	0	254803968	56	4770
2026-01-01 22:58:00.39	34.15	14.83	-47.3	-49.2	15.7	0.00e+00	0	54	0	255852544	56	4739
2026-01-01 22:58:01.38	34.27	14.92	-47.3	-49.2	15.7	0.00e+00	0	54	0	257949696	56	4726
2026-01-01 22:58:02.37	34.39	15.00	-47.2	-49.2	15.8	0.00e+00	0	54	0	260046848	56	4711
2026-01-01 22:58:03.36	34.51	15.09	-47.3	-49.2	15.7	0.00e+00	0	54	0	262144000	56	4745
2026-01-01 22:58:04.34	34.63	15.17	-47.4	-49.3	15.6	0.00e+00	0	54	0	263192576	56	4778
2026-01-01 22:58:05.33	34.75	15.26	-47.4	-49.4	15.5	0.00e+00	0	54	0	265289728	56	4839
2026-01-01 22:58:06.32	34.88	15.35	-47.3	-49.2	15.7	0.00e+00	0	54	0	267386880	56	4754
2026-01-01 22:58:07.31	35.00	15.43	-47.4	-49.3	15.7	0.00e+00	0	54	0	269484032	56	4764
2026-01-01 22:58:08.30	35.12	15.52	-47.3	-49.3	15.6	0.00e+00	0	54	0	270532608	56	4809
2026-01-01 22:58:09.29	35.25	15.61	-47.5	-49.5	15.5	0.00e+00	0	54	0	272629760	56	4881
2026-01-01 22:58:10.28	35.38	15.69	-47.5	-49.5	15.5	0.00e+00	0	54	0	274726912	56	4876
2026-01-01 22:58:11.28	35.51	15.78	-47.6	-49.6	15.3	0.00e+00	0	55	0	276824064	57	4700
2026-01-01 22:58:12.27	35.63	15.87	-47.7	-49.8	15.1	0.00e+00	0	54	0	278921216	57	4767
2026-01-01 22:58:13.26	35.76	15.96	-47.5	-49.5	15.4	0.00e+00	0	54	0	279969792	57	4623
2026-01-01 22:58:14.25	35.89	16.05	-47.5	-49.5	15.5	0.00e+00	0	54	0	282066944	57	4603
2026-01-01 22:58:15.24	36.02	16.13	-47.6	-49.5	15.4	7.00e-07	0	55	0	284164096	57	4643
2026-01-01 22:58:16.23	36.15	16.22	-47.6	-49.6	15.4	0.00e+00	0	54	0	286261248	57	4679
2026-01-01 22:58:17.22	36.28	16.31	-47.7	-49.7	15.3	0.00e+00	0	54	0	288358400	57	4726
2026-01-01 22:58:18.21	36.41	16.40	-47.6	-49.6	15.4	0.00e+00	0	55	0	289406976	57	4676
2026-01-01 22:58:19.20	36.55	16.49	-47.5	-49.6	15.4	7.00e-07	0	55	0	291504128	57	4662
2026-01-01 22:58:20.19	36.68	16.58	-47.6	-49.7	15.2	0.00e+00	0	55	0	293601280	57	4754
2026-01-01 22:58:21.18	36.82	16.67	-47.8	-50.0	15.0	0.00e+00	0	55	0	295698432	57	4879
2026-01-01 22:58:22.16	36.95	16.75	-47.7	-49.8	15.2	0.00e+00	0	55	0	296747008	57	4782
2026-01-01 22:58:23.15	37.09	16.84	-47.8	-49.8	15.1	0.00e+00	0	55	0	298844160	57	4812
2026-01-01 22:58:24.14	37.22	16.93	-47.8	-50.0	14.9	0.00e+00	0	54	0	300941312	57	4923
2026-01-01 22:58:25.13	37.36	17.02	-47.6	-49.7	15.3	0.00e+00	0	55	0	303038464	57	4710
2026-01-01 22:58:26.12	37.50	17.11	-47.3	-49.3	15.7	0.00e+00	0	55	0	304087040	57	4532
2026-01-01 22:58:27.11	37.64	17.20	-47.2	-49.1	15.9	0.00e+00	0	55	0	306184192	57	4406
2026-01-01 22:58:28.09	37.78	17.29	-47.2	-49.0	15.9	0.00e+00	0	55	0	308281344	57	4390
2026-01-01 22:58:29.08	37.92	17.38	-47.3	-49.1	15.8	0.00e+00	0	55	0	310378496	57	4441
2026-01-01 22:58:30.07	38.06	17.47	-47.2	-49.0	16.0	0.00e+00	0	55	0	311427072	57	4351
2026-01-01 22:58:31.05	38.20	17.56	-47.1	-48.9	16.1	0.00e+00	0	55	0	313524224	57	4294
2026-01-01 22:58:32.04	38.34	17.66	-47.1	-48.9	16.1	0.00e+00	0	55	0	315621376	57	4292
2026-01-01 22:58:33.02	38.48	17.75	-47.2	-49.0	16.0	0.00e+00	0	55	0	317718528	57	4376
2026-01-01 22:58:34.01	38.63	17.84	-47.2	-49.0	16.0	0.00e+00	0	55	0	318767104	57	4363
2026-01-01 22:58:35.01	38.78	17.93	-47.2	-49.1	16.0	0.00e+00	0	55	0	320864256	57	4395
2026-01-01 22:58:36.00	38.92	18.02	-47.3	-49.2	15.8	0.00e+00	0	55	0	322961408	57	4491
2026-01-01 22:58:36.99	39.07	18.11	-47.5	-49.5	15.5	0.00e+00	0	55	0	325058560	57	4639
2026-01-01 22:58:37.98	39.22	18.21	-47.3	-49.2	15.7	0.00e+00	0	55	0	327155712	57	4484
2026-01-01 22:58:38.97	39.37	18.30	-47.3	-49.2	15.8	0.00e+00	0	55	0	328204288	57	4472
2026-01-01 22:58:39.96	39.52	18.39	-47.2	-49.1	15.9	0.00e+00	0	55	0	330301440	57	4426
2026-01-01 22:58:40.94	39.67	18.48	-47.3	-49.2	15.8	0.00e+00	0	55	0	332398592	57	4493
2026-01-01 22:58:41.94	39.82	18.58	-47.1	-49.0	16.0	0.00e+00	0	55	0	334495744	57	4369
2026-01-01 22:58:42.93	39.97	18.67	-47.2	-49.1	15.9	0.00e+00	0	55	0	335544320	57	4406
2026-01-01 22:58:43.92	40.13	18.76	-47.3	-49.2	15.8	0.00e+00	0	55	0	337641472	57	4487
2026-01-01 22:58:44.90	40.28	18.86	-47.1	-49.0	16.0	0.00e+00	0	55	0	339738624	57	4361
2026-01-01 22:58:45.89	40.44	18.95	-47.0	-48.8	16.2	0.00e+00	0	55	0	341835776	57	4262
2026-01-01 22:58:46.88	40.59	19.04	-47.0	-48.7	16.3	0.00e+00	0	55	0	343932928	57	4234
2026-01-01 22:58:47.87	40.75	19.14	-47.1	-49.0	16.1	0.00e+00	0	55	0	344981504	57	4350
2026-01-01 22:58:48.85	40.91	19.23	-47.1	-48.9	16.1	0.00e+00	0	55	0	347078656	57	4339
2026-01-01 22:58:49.84	41.07	19.32	-47.3	-49.2	15.8	0.00e+00	0	55	0	349175808	57	4471
2026-01-01 22:58:50.83	41.23	19.42	-47.3	-49.2	15.8	0.00e+00	0	55	0	351272960	57	4464
2026-01-01 22:58:51.82	41.39	19.51	-47.4	-49.3	15.8	0.00e+00	0	55	0	352321536	57	4502
2026-01-01 22:58:52.82	41.55	19.61	-47.3	-49.3	15.8	0.00e+00	0	55	0	354418688	57	4511
2026-01-01 22:58:53.80	41.71	19.70	-47.4	-49.4	15.6	0.00e+00	0	55	0	356515840	57	4583
2026-01-01 22:58:54.79	41.88	19.79	-47.2	-49.1	16.0	0.00e+00	0	55	0	358612992	57	4398
2026-01-01 22:58:55.78	42.04	19.89	-47.1	-48.8	16.3	0.00e+00	0	55	0	359661568	57	4261
2026-01-01 22:58:56.77	42.21	19.98	-47.0	-48.8	16.3	0.00e+00	0	55	0	361758720	57	4254
2026-01-01 22:58:57.75	42.37	20.08	-46.9	-48.6	16.4	0.00e+00	0	55	0	363855872	56	4412
2026-01-01 22:58:58.73	42.54	20.17	-46.8	-48.5	16.6	0.00e+00	0	55	0	365953024	56	4346
2026-01-01 22:58:59.72	42.71	20.27	-46.8	-48.5	16.5	0.00e+00	0	55	0	368050176	56	4378
2026-01-01 22:59:00.71	42.88	20.36	-47.1	-48.8	16.3	0.00e+00	0	55	0	369098752	56	4524
2026-01-01 22:59:01.70	43.05	20.46	-47.3	-49.1	16.0	0.00e+00	0	55	0	371195904	56	4683
2026-01-01 22:59:02.69	43.22	20.56	-47.3	-49.1	16.0	0.00e+00	0	55	0	373293056	56	4677
2026-01-01 22:59:03.67	43.39	20.65	-47.1	-48.9	16.2	0.00e+00	0	55	0	375390208	56	4587
2026-01-01 22:59:04.66	43.57	20.75	-47.0	-48.7	16.3	0.00e+00	0	55	0	376438784	56	4482
2026-01-01 22:59:05.65	43.74	20.84	-46.9	-48.6	16.4	0.00e+00	0	55	0	378535936	56	4434
2026-01-01 22:59:06.65	43.92	20.94	-46.9	-48.6	16.5	0.00e+00	0	55	0	380633088	56	4414
2026-01-01 22:59:07.63	44.10	21.03	-46.8	-48.5	16.6	0.00e+00	0	55	0	382730240	56	4345
2026-01-01 22:59:08.62	44.27	21.13	-46.8	-48.5	16.6	0.00e+00	0	55	0	383778816	56	4360
2026-01-01 22:59:09.61	44.45	21.23	-47.0	-48.8	16.3	0.00e+00	0	55	0	385875968	56	4504
2026-01-01 22:59:10.60	44.63	21.32	-47.0	-48.6	16.4	0.00e+00	0	55	0	387973120	56	4439
2026-01-01 22:59:11.58	44.81	21.42	-46.7	-48.3	16.7	0.00e+00	0	55	0	390070272	56	4272
2026-01-01 22:59:12.57	45.00	21.52	-46.5	-48.1	17.0	0.00e+00	0	55	0	391118848	56	4148
2026-01-01 22:59:13.56	45.18	21.61	-46.3	-47.7	17.2	0.00e+00	0	55	0	393216000	55	4242
2026-01-01 22:59:14.55	45.37	21.71	-46.2	-47.7	17.2	0.00e+00	0	55	0	395313152	55	4235
2026-01-01 22:59:15.54	45.55	21.81	-46.1	-47.6	17.4	0.00e+00	0	55	0	397410304	55	4156
2026-01-01 22:59:16.53	45.74	21.90	-46.1	-47.5	17.5	0.00e+00	0	55	0	399507456	55	4115
2026-01-01 22:59:17.51	45.93	22.00	-46.0	-47.4	17.5	0.00e+00	0	55	0	400556032	55	4072
2026-01-01 22:59:18.51	46.12	22.10	-46.1	-47.5	17.5	0.00e+00	0	56	0	402653184	55	4132
2026-01-01 22:59:19.49	46.31	22.19	-46.2	-47.7	17.3	0.00e+00	0	55	0	404750336	55	4196
2026-01-01 22:59:20.48	46.50	22.29	-46.1	-47.6	17.4	0.00e+00	0	55	0	406847488	55	4164
2026-01-01 22:59:21.47	46.69	22.39	-45.9	-47.3	17.6	0.00e+00	0	55	0	407896064	55	4051
2026-01-01 22:59:22.46	46.89	22.49	-45.8	-47.2	17.8	0.00e+00	0	55	0	409993216	54	4215
2026-01-01 22:59:23.44	47.08	22.58	-45.9	-47.2	17.7	0.00e+00	0	55	0	412090368	54	4240
2026-01-01 22:59:24.43	47.28	22.68	-46.0	-47.4	17.5	0.00e+00	0	56	0	414187520	54	4332
2026-01-01 22:59:25.42	47.47	22.78	-46.1	-47.5	17.4	0.00e+00	0	56	0	415236096	54	4385
2026-01-01 22:59:26.42	47.68	22.88	-46.0	-47.5	17.5	0.00e+00	0	56	0	417333248	54	4352
2026-01-01 22:59:27.40	47.87	22.97	-46.1	-47.5	17.5	0.00e+00	0	55	0	419430400	54	4383
2026-01-01 22:59:28.38	48.07	23.07	-46.2	-47.7	17.3	0.00e+00	0	56	0	421527552	54	4478
2026-01-01 22:59:29.36	48.27	23.17	-46.3	-47.8	17.1	0.00e+00	0	56	0	422576128	54	4519
2026-01-01 22:59:30.35	48.48	23.26	-46.1	-47.5	17.4	0.00e+00	0	56	0	424673280	54	4390
2026-01-01 22:59:31.34	48.68	23.36	-46.2	-47.7	17.3	0.00e+00	0	56	0	426770432	54	4447
2026-01-01 22:59:32.33	48.89	23.46	-46.0	-47.5	17.5	0.00e+00	0	56	0	428867584	54	4382
2026-01-01 22:59:33.33	49.10	23.56	-46.1	-47.5	17.4	0.00e+00	0	55	0	430964736	54	4381
2026-01-01 22:59:34.32	49.31	23.66	-46.2	-47.6	17.4	0.00e+00	0	56	0	432013312	54	4422
2026-01-01 22:59:35.30	49.52	23.75	-46.3	-47.7	17.2	0.00e+00	0	56	0	434110464	54	4488
2026-01-01 22:59:36.28	49.73	23.85	-46.4	-47.9	17.1	0.00e+00	0	56	0	436207616	54	4564
2026-01-01 22:59:37.28	49.94	23.95	-46.5	-48.1	16.9	0.00e+00	0	56	0	438304768	54	4692
2026-01-01 22:59:38.26	50.15	24.04	-46.4	-47.9	17.1	0.00e+00	0	55	0	439353344	54	4580
2026-01-01 22:59:39.25	50.37	24.14	-46.3	-47.8	17.2	0.00e+00	0	56	0	441450496	54	4507
2026-01-01 22:59:40.24	50.59	24.24	-46.2	-47.7	17.3	0.00e+00	0	56	0	443547648	54	4448
2026-01-01 22:59:41.23	50.80	24.34	-46.2	-47.7	17.3	0.00e+00	0	56	0	445644800	54	4462
2026-01-01 22:59:42.23	51.03	24.43	-46.2	-47.7	17.3	0.00e+00	0	56	0	447741952	54	4457
2026-01-01 22:59:43.22	51.25	24.53	-46.1	-47.6	17.4	0.00e+00	0	56	0	448790528	54	4401
2026-01-01 22:59:44.21	51.47	24.63	-46.1	-47.5	17.4	0.00e+00	0	56	0	450887680	54	4379
2026-01-01 22:59:45.19	51.69	24.72	-46.2	-47.6	17.4	0.00e+00	0	56	0	452984832	54	4436
2026-01-01 22:59:46.19	51.92	24.82	-46.4	-47.9	17.1	0.00e+00	0	56	0	455081984	54	4560
2026-01-01 22:59:47.17	52.14	24.92	-46.3	-47.8	17.2	0.00e+00	0	56	0	456130560	54	4513
2026-01-01 22:59:48.15	52.37	25.01	-46.4	-47.9	17.1	0.00e+00	0	56	0	458227712	54	4577
2026-01-01 22:59:49.14	52.59	25.11	-46.2	-47.7	17.3	0.00e+00	0	56	0	460324864	54	4483
2026-01-01 22:59:50.13	52.83	25.21	-46.1	-47.6	17.4	0.00e+00	0	56	0	462422016	54	4430
2026-01-01 22:59:51.12	53.06	25.30	-46.3	-47.8	17.2	0.00e+00	0	56	0	463470592	54	4499
2026-01-01 22:59:52.11	53.29	25.40	-46.2	-47.7	17.3	0.00e+00	0	56	0	465567744	54	4461
2026-01-01 22:59:53.10	53.52	25.49	-46.3	-47.8	17.2	0.00e+00	0	56	0	467664896	54	4498
2026-01-01 22:59:54.09	53.76	25.59	-46.5	-48.1	16.9	0.00e+00	0	56	0	469762048	54	4686
2026-01-01 22:59:55.08	54.00	25.69	-46.6	-48.2	16.9	0.00e+00	0	56	0	470810624	55	4445
2026-01-01 22:59:56.07	54.24	25.78	-46.8	-48.5	16.5	0.00e+00	0	56	0	472907776	55	4612
2026-01-01 22:59:57.06	54.48	25.88	-46.9	-48.6	16.4	0.00e+00	0	56	0	475004928	55	4669
2026-01-01 22:59:58.04	54.71	25.97	-47.1	-48.8	16.2	0.00e+00	0	56	0	477102080	55	4799
2026-01-01 22:59:59.03	54.96	26.07	-47.0	-48.7	16.3	0.00e+00	0	56	0	479199232	55	4723
2026-01-01 23:00:00.02	55.20	26.16	-47.1	-48.8	16.2	0.00e+00	0	56	0	480247808	55	4802
2026-01-01 23:00:01.00	55.45	26.26	-47.4	-49.2	16.0	0.00e+00	0	56	0	482344960	56	4713
2026-01-01 23:00:01.98	55.69	26.35	-47.3	-49.1	16.0	0.00e+00	0	56	0	484442112	56	4694
2026-01-01 23:00:02.98	55.94	26.44	-47.4	-49.2	15.9	0.00e+00	0	56	0	486539264	56	4745
2026-01-01 23:00:03.96	56.19	26.54	-47.2	-49.0	16.2	0.00e+00	0	56	0	487587840	56	4601
2026-01-01 23:00:04.94	56.44	26.63	-47.3	-49.1	16.1	0.00e+00	0	56	0	489684992	56	4658
2026-01-01 23:00:05.93	56.69	26.72	-47.4	-49.3	15.8	0.00e+00	0	56	0	491782144	56	4812
2026-01-01 23:00:06.92	56.94	26.82	-47.5	-49.5	15.7	0.00e+00	0	56	0	493879296	56	4876
2026-01-01 23:00:07.91	57.20	26.91	-47.8	-49.8	15.3	0.00e+00	0	56	0	494927872	57	4793
2026-01-01 23:00:08.90	57.46	27.00	-47.8	-49.8	15.3	0.00e+00	0	56	0	497025024	57	4790
2026-01-01 23:00:09.89	57.72	27.09	-47.9	-50.0	15.1	0.00e+00	0	56	0	499122176	57	4923
2026-01-01 23:00:10.88	57.98	27.19	-47.8	-49.8	15.3	0.00e+00	0	56	0	501219328	57	4775
2026-01-01 23:00:11.86	58.24	27.28	-47.6	-49.6	15.6	0.00e+00	0	56	0	502267904	57	4658
2026-01-01 23:00:12.85	58.50	27.37	-47.6	-49.5	15.6	0.00e+00	0	56	0	504365056	57	4632
2026-01-01 23:00:13.85	58.77	27.46	-47.8	-49.7	15.4	0.00e+00	0	56	0	506462208	57	4754
2026-01-01 23:00:14.83	59.03	27.55	-48.0	-50.1	15.1	0.00e+00	0	56	0	508559360	57	4934
2026-01-01 23:00:15.83	59.30	27.64	-48.2	-50.5	14.7	1.50e-06	0	56	0	510656512	58	4895
2026-01-01 23:00:16.81	59.57	27.73	-48.5	-50.9	14.3	0.00e+00	0	56	0	511705088	58	5107
2026-01-01 23:00:17.80	59.84	27.82	-48.7	-51.3	13.8	7.00e-07	0	56	0	513802240	59	5065
2026-01-01 23:00:18.79	60.11	27.91	-48.7	-51.4	13.7	3.80e-06	0	56	0	515899392	59	5144
2026-01-01 23:00:19.77	60.38	28.00	-48.8	-51.4	13.7	5.30e-06	0	56	0	517996544	59	5130
2026-01-01 23:00:20.76	60.66	28.09	-48.8	-51.4	13.7	4.50e-06	0	56	0	519045120	59	5158
2026-01-01 23:00:21.75	60.93	28.18	-48.9	-51.6	13.5	3.80e-06	0	56	0	521142272	59	5270
2026-01-01 23:00:22.74	61.21	28.26	-48.9	-51.6	13.5	9.90e-06	0	56	0	523239424	59	5273
2026-01-01 23:00:23.73	61.49	28.35	-48.9	-51.6	13.5	1.14e-05	0	56	0	525336576	59	5268
2026-01-01 23:00:24.73	61.77	28.44	-49.1	-51.9	13.2	1.29e-05	0	56	0	526385152	59	5409
2026-01-01 23:00:25.72	62.06	28.52	-48.9	-51.7	13.4	1.29e-05	0	56	0	528482304	60	5031
2026-01-01 23:00:26.72	62.34	28.61	-48.9	-51.7	13.4	1.29e-05	0	56	0	530579456	60	4996
2026-01-01 23:00:27.71	62.63	28.70	-48.9	-51.6	13.5	1.52e-05	0	56	0	532676608	60	4983
2026-01-01 23:00:28.69	62.91	28.78	-48.8	-51.5	13.6	9.90e-06	0	56	0	534773760	60	4914
2026-01-01 23:00:29.68	63.20	28.86	-48.8	-51.4	13.7	5.30e-06	0	56	0	535822336	60	4827
2026-01-01 23:00:30.67	63.49	28.95	-48.8	-51.5	13.7	8.30e-06	0	56	0	537919488	60	4883
2026-01-01 23:00:31.66	63.78	29.03	-48.9	-51.6	13.6	6.10e-06	0	56	0	540016640	60	4928
2026-01-01 23:00:32.65	64.08	29.11	-48.9	-51.6	13.6	1.06e-05	0	56	0	542113792	60	4953
2026-01-01 23:00:33.64	64.37	29.20	-49.1	-51.9	13.2	1.37e-05	0	56	0	543162368	60	5146
2026-01-01 23:00:34.62	64.66	29.28	-49.1	-52.1	13.1	3.12e-05	0	56	0	545259520	60	5224
2026-01-01 23:00:35.61	64.96	29.36	-49.2	-52.1	13.0	2.89e-05	0	56	0	547356672	60	5235
2026-01-01 23:00:36.60	65.26	29.44	-49.2	-52.1	13.0	2.67e-05	0	56	0	549453824	60	5271
2026-01-01 23:00:37.59	65.56	29.52	-49.1	-52.0	13.1	4.34e-05	0	56	0	550502400	60	5186
2026-01-01 23:00:38.58	65.86	29.60	-49.1	-52.1	13.0	2.21e-05	0	56	0	552599552	60	5264
2026-01-01 23:00:39.57	66.17	29.68	-49.1	-52.1	13.1	4.50e-05	0	56	0	554696704	60	5240
2026-01-01 23:00:40.57	66.47	29.76	-49.1	-52.0	13.1	3.81e-05	0	56	0	556793856	60	5202
2026-01-01 23:00:41.54	66.77	29.83	-49.3	-52.3	12.8	5.79e-05	0	56	0	558891008	60	5391
2026-01-01 23:00:42.54	67.08	29.91	-49.5	-52.8	12.3	1.53e-04	0	56	0	559939584	60	5699
2026-01-01 23:00:43.53	67.39	29.98	-49.7	-53.3	11.8	2.66e-04	0	56	0	562036736	61	5668
2026-01-01 23:00:44.51	67.70	30.06	-50.0	-53.8	11.3	1.01e-03	0	56	0	564133888	61	5994
2026-01-01 23:00:45.51	68.02	30.13	-49.8	-53.3	11.7	8.21e-04	0	56	0	566231040	61	5673
2026-01-01 23:00:46.50	68.33	30.21	-49.4	-52.5	12.6	2.72e-04	0	56	0	567279616	61	5176
2026-01-01 23:00:47.49	68.64	30.28	-49.0	-51.7	13.4	4.27e-05	0	56	0	569376768	61	4751
2026-01-01 23:00:48.48	68.96	30.35	-48.5	-50.8	14.3	3.00e-06	0	56	0	571473920	60	4545
2026-01-01 23:00:49.46	69.27	30.42	-48.2	-50.4	14.8	7.00e-07	0	56	0	573571072	59	4556
2026-01-01 23:00:50.45	69.59	30.50	-48.1	-50.2	15.0	0.00e+00	0	56	0	574619648	59	4487
2026-01-01 23:00:51.45	69.92	30.57	-48.3	-50.6	14.6	0.00e+00	0	56	0	576716800	59	4654
2026-01-01 23:00:52.43	70.24	30.63	-48.9	-51.5	13.7	1.50e-06	0	56	0	578813952	59	5173
2026-01-01 23:00:53.43	70.56	30.70	-49.3	-52.4	12.7	2.13e-05	0	56	0	580911104	60	5457
2026-01-01 23:00:54.42	70.89	30.77	-49.7	-53.1	12.0	1.26e-04	0	56	0	583008256	61	5560
2026-01-01 23:00:55.40	71.21	30.84	-49.9	-53.8	11.3	6.58e-04	0	56	0	584056832	61	5995
2026-01-01 23:00:56.39	71.54	30.90	-49.9	-53.6	11.5	9.30e-04	0	56	0	586153984	61	5876
2026-01-01 23:00:57.38	71.86	30.97	-49.7	-53.1	11.9	5.61e-04	0	56	0	588251136	61	5581
2026-01-01 23:00:58.37	72.19	31.03	-49.8	-53.2	11.9	4.30e-04	0	56	0	590348288	61	5638
2026-01-01 23:00:59.36	72.53	31.10	-49.7	-53.0	12.0	4.21e-04	0	56	0	591396864	61	5521
2026-01-01 23:01:00.35	72.86	31.16	-49.5	-52.8	12.3	1.33e-04	0	56	0	593494016	61	5375
2026-01-01 23:01:01.33	73.19	31.22	-49.6	-52.9	12.1	2.61e-04	0	56	0	595591168	61	5449
2026-01-01 23:01:02.33	73.53	31.28	-49.6	-53.0	12.2	2.00e-04	0	56	0	597688320	61	5467
2026-01-01 23:01:03.32	73.86	31.34	-49.7	-53.1	12.0	3.84e-04	0	56	0	598736896	61	5548
2026-01-01 23:01:04.30	74.20	31.40	-49.7	-53.1	12.1	3.13e-04	0	56	0	600834048	61	5532
2026-01-01 23:01:05.30	74.54	31.46	-49.8	-53.2	11.8	3.89e-04	0	56	0	602931200	61	5635
2026-01-01 23:01:06.28	74.87	31.51	-49.7	-53.0	12.0	4.44e-04	0	56	0	605028352	61	5528
2026-01-01 23:01:07.27	75.21	31.57	-49.4	-52.6	12.5	1.75e-04	0	56	0	606076928	61	5230
2026-01-01 23:01:08.26	75.56	31.62	-49.2	-52.2	13.0	4.57e-05	0	56	0	608174080	61	4992
2026-01-01 23:01:09.24	75.90	31.68	-48.9	-51.7	13.5	2.59e-05	0	56	0	610271232	60	5007
2026-01-01 23:01:10.23	76.24	31.73	-48.9	-51.6	13.6	5.30e-06	0	56	0	612368384	60	4928
2026-01-01 23:01:11.21	76.58	31.78	-48.7	-51.4	13.8	6.10e-06	0	56	0	614465536	60	4844
2026-01-01 23:01:12.20	76.93	31.83	-48.7	-51.4	13.7	3.80e-06	0	56	0	615514112	60	4848
2026-01-01 23:01:13.19	77.28	31.88	-48.8	-51.5	13.7	9.10e-06	0	56	0	617611264	60	4879
2026-01-01 23:01:14.18	77.62	31.93	-49.0	-51.8	13.3	2.59e-05	0	56	0	619708416	60	5097
2026-01-01 23:01:15.17	77.97	31.98	-49.0	-52.0	13.1	3.20e-05	0	56	0	621805568	60	5169
2026-01-01 23:01:16.16	78.32	32.02	-49.1	-52.0	13.1	3.66e-05	0	56	0	622854144	60	5189
2026-01-01 23:01:17.15	78.67	32.07	-49.0	-51.9	13.2	1.90e-05	0	56	0	624951296	60	5152
2026-01-01 23:01:18.14	79.03	32.11	-49.0	-51.8	13.4	1.60e-05	0	57	0	627048448	60	5073
2026-01-01 23:01:19.12	79.38	32.16	-48.9	-51.5	13.7	1.52e-05	0	56	0	629145600	60	4921
2026-01-01 23:01:20.11	79.73	32.20	-48.9	-51.5	13.6	8.30e-06	0	56	0	630194176	60	4917
2026-01-01 23:01:21.10	80.09	32.24	-48.7	-51.2	14.0	4.50e-06	0	56	0	632291328	60	4727
2026-01-01 23:01:22.09	80.44	32.28	-48.5	-51.1	14.1	1.50e-06	0	57	0	634388480	60	4668
2026-01-01 23:01:23.08	80.80	32.32	-48.7	-51.3	13.8	1.50e-06	0	57	0	636485632	60	4789
2026-01-01 23:01:24.08	81.16	32.36	-48.6	-51.1	14.0	3.80e-06	0	56	0	638582784	60	4694
2026-01-01 23:01:25.07	81.52	32.39	-48.7	-51.2	13.9	3.00e-06	0	57	0	639631360	60	4739
2026-01-01 23:01:26.06	81.88	32.43	-48.7	-51.3	13.9	6.80e-06	0	57	0	641728512	60	4804
2026-01-01 23:01:27.05	82.24	32.46	-48.6	-51.3	13.8	3.80e-06	0	57	0	643825664	60	4809
2026-01-01 23:01:28.05	82.60	32.49	-48.9	-51.6	13.6	3.80e-06	0	56	0	645922816	60	4941
2026-01-01 23:01:29.04	82.96	32.53	-48.7	-51.4	13.8	5.30e-06	0	56	0	646971392	60	4815
2026-01-01 23:01:30.03	83.33	32.56	-48.7	-51.3	13.9	1.50e-06	0	56	0	649068544	60	4778
2026-01-01 23:01:31.00	83.68	32.58	-48.8	-51.4	13.7	3.00e-06	0	56	0	651165696	60	4859
2026-01-01 23:01:31.99	84.05	32.61	-48.8	-51.5	13.7	5.30e-06	0	56	0	653262848	60	4877
2026-01-01 23:01:32.97	84.41	32.64	-49.1	-52.0	13.2	9.90e-06	0	57	0	655360000	60	5186
2026-01-01 23:01:33.96	84.77	32.66	-49.1	-52.1	13.0	3.28e-05	0	56	0	656408576	60	5271
2026-01-01 23:01:34.95	85.14	32.69	-49.3	-52.4	12.8	4.11e-05	0	57	0	658505728	60	5427
2026-01-01 23:01:35.94	85.50	32.71	-49.2	-52.2	12.9	4.95e-05	0	57	0	660602880	60	5300
2026-01-01 23:01:36.93	85.87	32.73	-49.1	-52.1	13.1	3.89e-05	0	57	0	662700032	60	5268
2026-01-01 23:01:37.91	86.23	32.75	-49.1	-52.1	13.0	3.96e-05	0	57	0	663748608	60	5253
2026-01-01 23:01:38.91	86.60	32.77	-48.9	-51.7	13.5	1.98e-05	0	56	0	665845760	60	4985
2026-01-01 23:01:39.89	86.97	32.79	-48.7	-51.3	13.9	9.90e-06	0	57	0	667942912	60	4760
2026-01-01 23:01:40.88	87.33	32.81	-48.6	-51.0	14.2	0.00e+00	0	56	0	670040064	60	4645
2026-01-01 23:01:41.88	87.71	32.82	-48.7	-51.2	14.0	2.20e-06	0	57	0	671088640	60	4719
2026-01-01 23:01:42.86	88.07	32.84	-48.8	-51.4	13.9	3.80e-06	0	56	0	673185792	60	4821
2026-01-01 23:01:43.85	88.44	32.85	-48.9	-51.6	13.6	5.30e-06	0	57	0	675282944	60	4940
2026-01-01 23:01:44.84	88.81	32.86	-48.8	-51.5	13.6	6.80e-06	0	57	0	677380096	60	4901
2026-01-01 23:01:45.83	89.18	32.87	-48.7	-51.3	13.9	4.50e-06	0	57	0	679477248	60	4792
2026-01-01 23:01:46.82	89.55	32.88	-48.7	-51.3	13.9	1.50e-06	0	57	0	680525824	60	4765
2026-01-01 23:01:47.81	89.92	32.89	-48.6	-51.1	14.1	3.00e-06	0	56	0	682622976	60	4659
2026-01-01 23:01:48.80	90.29	32.89	-48.5	-50.9	14.3	1.50e-06	0	57	0	684720128	59	4818
2026-01-01 23:01:49.79	90.66	32.90	-48.4	-50.7	14.5	7.00e-07	0	57	0	686817280	59	4738
2026-01-01 23:01:50.78	91.03	32.90	-48.5	-50.9	14.2	7.00e-07	0	57	0	687865856	59	4855
2026-01-01 23:01:51.77	91.40	32.91	-48.8	-51.5	13.8	3.00e-06	0	56	0	689963008	59	5170
2026-01-01 23:01:52.76	91.77	32.91	-49.1	-52.0	13.1	1.83e-05	0	57	0	692060160	60	5209
2026-01-01 23:01:53.75	92.14	32.91	-49.2	-52.2	12.8	5.87e-05	0	57	0	694157312	60	5322
2026-01-01 23:01:54.74	92.51	32.90	-49.2	-52.2	12.9	4.42e-05	0	57	0	695205888	60	5284
2026-01-01 23:01:55.73	92.88	32.90	-49.2	-52.1	13.0	3.81e-05	0	57	0	697303040	60	5260
2026-01-01 23:01:56.72	93.25	32.90	-49.0	-52.0	13.1	3.28e-05	0	56	0	699400192	60	5173
2026-01-01 23:01:57.71	93.62	32.89	-49.0	-51.9	13.3	1.60e-05	0	56	0	701497344	60	5141
2026-01-01 23:01:58.70	93.99	32.89	-48.7	-51.3	13.8	2.59e-05	0	57	0	702545920	60	4789
2026-01-01 23:01:59.68	94.36	32.88	-48.5	-50.9	14.2	2.20e-06	0	57	0	704643072	60	4575
2026-01-01 23:02:00.67	94.73	32.87	-48.5	-50.9	14.3	0.00e+00	0	57	0	706740224	60	4592
2026-01-01 23:02:01.66	95.10	32.86	-48.4	-50.9	14.2	1.50e-06	0	57	0	708837376	60	4579
2026-01-01 23:02:02.65	95.47	32.85	-48.7	-51.3	13.9	7.00e-07	0	57	0	710934528	60	4770
2026-01-01 23:02:03.64	95.84	32.83	-49.1	-52.0	13.2	7.60e-06	0	56	0	711983104	60	5188
2026-01-01 23:02:04.63	96.20	32.82	-49.2	-52.3	12.8	3.96e-05	0	56	0	714080256	60	5386
2026-01-01 23:02:05.62	96.57	32.80	-49.5	-52.8	12.3	9.15e-05	0	57	0	716177408	60	5694
2026-01-01 23:02:06.61	96.94	32.79	-49.6	-52.9	12.2	3.45e-04	0	57	0	718274560	61	5460
2026-01-01 23:02:07.59	97.30	32.77	-49.8	-53.4	11.6	3.59e-04	0	57	0	719323136	61	5788
2026-01-01 23:02:08.59	97.68	32.75	-49.9	-53.6	11.5	9.18e-04	0	57	0	721420288	61	5874
2026-01-01 23:02:09.58	98.04	32.73	-49.9	-53.7	11.4	5.87e-04	0	56	0	723517440	61	5948
2026-01-01 23:02:10.57	98.41	32.71	-49.8	-53.4	11.6	7.65e-04	0	57	0	725614592	61	5780
2026-01-01 23:02:11.56	98.77	32.68	-49.7	-53.1	12.0	3.32e-04	0	57	0	726663168	61	5536
2026-01-01 23:02:12.55	99.14	32.66	-49.7	-53.1	12.1	3.46e-04	0	57	0	728760320	61	5544
2026-01-01 23:02:13.54	99.50	32.63	-49.7	-53.1	12.0	3.42e-04	0	57	0	730857472	61	5552
2026-01-01 23:02:14.52	99.87	32.60	-49.6	-52.8	12.3	2.19e-04	0	57	0	732954624	61	5385
2026-01-01 23:02:15.51	100.23	32.58	-49.5	-52.7	12.4	1.52e-04	0	57	0	735051776	61	5293
2026-01-01 23:02:16.51	100.60	32.55	-49.6	-52.9	12.2	1.40e-04	0	57	0	736100352	61	5404
2026-01-01 23:02:17.50	100.96	32.52	-49.6	-53.0	12.1	2.52e-04	0	57	0	738197504	61	5498
2026-01-01 23:02:18.50	101.32	32.48	-49.7	-53.2	12.0	2.77e-04	0	57	0	740294656	61	5597
2026-01-01 23:02:19.49	101.68	32.45	-49.9	-53.4	11.7	6.42e-04	0	57	0	742391808	61	5764
2026-01-01 23:02:20.47	102.04	32.42	-50.0	-53.7	11.4	5.18e-04	0	57	0	743440384	61	5925
2026-01-01 23:02:21.46	102.40	32.38	-50.1	-53.9	11.2	1.40e-03	0	57	0	745537536	62	5730
2026-01-01 23:02:22.46	102.76	32.34	-50.0	-53.8	11.3	1.01e-03	0	57	0	747634688	62	5681
2026-01-01 23:02:23.45	103.12	32.31	-49.9	-53.6	11.6	8.03e-04	0	57	0	749731840	62	5556
2026-01-01 23:02:24.43	103.47	32.27	-50.0	-53.7	11.5	6.42e-04	0	57	0	751828992	62	5605
2026-01-01 23:02:25.42	103.83	32.23	-50.1	-54.1	11.0	1.18e-03	0	57	0	752877568	62	5868
2026-01-01 23:02:26.40	104.18	32.19	-50.1	-53.9	11.1	2.08e-03	0	57	0	754974720	62	5787
2026-01-01 23:02:27.40	104.54	32.14	-50.0	-53.6	11.5	1.34e-03	0	57	0	757071872	62	5584
2026-01-01 23:02:28.39	104.89	32.10	-49.6	-53.0	12.1	5.37e-04	0	57	0	759169024	62	5187
2026-01-01 23:02:29.37	105.24	32.06	-49.4	-52.6	12.6	1.05e-04	0	57	0	760217600	62	4928
2026-01-01 23:02:30.35	105.59	32.01	-49.1	-52.0	13.1	4.65e-05	0	57	0	762314752	61	4887
2026-01-01 23:02:31.34	105.94	31.96	-49.2	-52.1	13.0	1.98e-05	0	57	0	764411904	61	4965
2026-01-01 23:02:32.34	106.29	31.92	-49.2	-52.1	13.0	4.73e-05	0	57	0	766509056	61	4957
2026-01-01 23:02:33.33	106.64	31.87	-49.1	-51.9	13.3	1.37e-05	0	57	0	767557632	61	4828
2026-01-01 23:02:34.32	106.99	31.82	-49.2	-52.2	12.9	4.50e-05	0	57	0	769654784	61	5030
2026-01-01 23:02:35.32	107.34	31.76	-49.2	-52.0	13.1	3.35e-05	0	57	0	771751936	61	4922
2026-01-01 23:02:36.31	107.69	31.71	-49.3	-52.4	12.7	5.79e-05	0	57	0	773849088	61	5136
2026-01-01 23:02:37.29	108.03	31.66	-49.1	-52.0	13.2	2.97e-05	0	57	0	775946240	61	4883
2026-01-01 23:02:38.28	108.37	31.61	-49.2	-52.1	13.0	3.12e-05	0	57	0	776994816	61	4960
2026-01-01 23:02:39.26	108.71	31.55	-49.4	-52.5	12.6	6.02e-05	0	57	0	779091968	61	5175
2026-01-01 23:02:40.24	109.05	31.50	-49.6	-52.9	12.2	1.16e-04	0	57	0	781189120	61	5456
2026-01-01 23:02:41.23	109.39	31.44	-49.3	-52.5	12.5	1.62e-04	0	57	0	783286272	61	5203
2026-01-01 23:02:42.22	109.72	31.38	-49.4	-52.6	12.6	8.23e-05	0	57	0	784334848	61	5240
2026-01-01 23:02:43.21	110.06	31.32	-49.3	-52.4	12.7	8.85e-05	0	57	0	786432000	61	5137
2026-01-01 23:02:44.20	110.40	31.26	-49.2	-52.2	12.9	3.05e-05	0	57	0	788529152	61	5034
2026-01-01 23:02:45.19	110.73	31.20	-49.3	-52.3	12.9	4.11e-05	0	57	0	790626304	61	5045
2026-01-01 23:02:46.18	111.07	31.14	-49.3	-52.3	12.9	3.58e-05	0	57	0	791674880	61	5048
2026-01-01 23:02:47.17	111.40	31.07	-49.3	-52.4	12.7	8.31e-05	0	57	0	793772032	61	5124
2026-01-01 23:02:48.17	111.73	31.01	-49.1	-51.9	13.2	3.05e-05	0	57	0	795869184	61	4837
2026-01-01 23:02:49.16	112.06	30.95	-49.0	-51.7	13.5	1.83e-05	0	57	0	797966336	60	5031
2026-01-01 23:02:50.15	112.39	30.88	-48.9	-51.6	13.6	9.90e-06	0	57	0	799014912	60	4972
2026-01-01 23:02:51.14	112.72	30.81	-49.2	-52.0	13.0	1.22e-05	0	57	0	801112064	60	5208
2026-01-01 23:02:52.12	113.04	30.75	-49.2	-52.2	12.8	5.56e-05	0	57	0	803209216	60	5304
2026-01-01 23:02:53.11	113.37	30.68	-49.3	-52.3	12.8	5.87e-05	0	57	0	805306368	60	5370
2026-01-01 23:02:54.10	113.69	30.61	-49.4	-52.7	12.3	1.39e-04	0	57	0	807403520	60	5627
2026-01-01 23:02:55.09	114.01	30.54	-49.3	-52.3	12.9	1.05e-04	0	57	0	808452096	60	5369
2026-01-01 23:02:56.07	114.33	30.47	-49.0	-51.7	13.4	1.37e-05	0	57	0	810549248	60	5021
2026-01-01 23:02:57.06	114.65	30.40	-48.7	-51.3	13.8	4.50e-06	0	57	0	812646400	60	4782
2026-01-01 23:02:58.06	114.97	30.33	-48.7	-51.2	13.9	3.80e-06	0	57	0	814743552	60	4755
2026-01-01 23:02:59.05	115.29	30.25	-48.6	-51.2	14.0	4.50e-06	0	57	0	815792128	60	4709
2026-01-01 23:03:00.04	115.60	30.18	-48.5	-51.0	14.1	2.20e-06	0	57	0	817889280	60	4643
2026-01-01 23:03:01.03	115.92	30.11	-48.6	-51.0	14.1	3.80e-06	0	57	0	819986432	60	4637
2026-01-01 23:03:02.03	116.23	30.03	-48.7	-51.3	13.9	7.00e-07	0	57	0	822083584	60	4799
2026-01-01 23:03:03.02	116.54	29.95	-48.7	-51.2	14.0	3.80e-06	0	57	0	823132160	60	4752
2026-01-01 23:03:04.01	116.85	29.88	-48.6	-51.2	13.9	3.80e-06	0	57	0	825229312	60	4711
2026-01-01 23:03:05.00	117.16	29.80	-48.9	-51.5	13.6	2.20e-06	0	57	0	827326464	60	4922
2026-01-01 23:03:06.00	117.47	29.72	-49.0	-51.7	13.4	8.30e-06	0	57	0	829423616	60	5038
2026-01-01 23:03:06.99	117.77	29.64	-49.2	-52.2	13.0	2.74e-05	0	57	0	831520768	60	5282
2026-01-01 23:03:07.98	118.08	29.56	-49.4	-52.6	12.5	5.95e-05	0	57	0	832569344	60	5554
2026-01-01 23:03:08.97	118.38	29.48	-49.5	-52.7	12.4	1.33e-04	0	57	0	834666496	60	5645
2026-01-01 23:03:09.96	118.68	29.40	-49.4	-52.5	12.5	1.28e-04	0	57	0	836763648	60	5524
2026-01-01 23:03:10.95	118.98	29.32	-49.4	-52.4	12.7	7.70e-05	0	57	0	838860800	60	5461
2026-01-01 23:03:11.94	119.28	29.24	-49.4	-52.6	12.5	1.12e-04	0	57	0	839909376	60	5562
2026-01-01 23:03:12.93	119.57	29.16	-49.4	-52.5	12.7	1.07e-04	0	57	0	842006528	60	5518
2026-01-01 23:03:13.91	119.86	29.08	-49.3	-52.4	12.7	8.23e-05	0	57	0	844103680	60	5433
2026-01-01 23:03:14.90	120.16	28.99	-49.1	-52.0	13.2	3.73e-05	0	57	0	846200832	60	5169
2026-01-01 23:03:15.89	120.45	28.91	-48.7	-51.3	13.8	1.22e-05	0	57	0	848297984	60	4766
2026-01-01 23:03:16.88	120.74	28.83	-48.5	-50.9	14.2	3.80e-06	0	57	0	849346560	60	4571
2026-01-01 23:03:17.88	121.03	28.74	-48.5	-51.0	14.1	0.00e+00	0	57	0	851443712	60	4617
2026-01-01 23:03:18.87	121.32	28.66	-48.9	-51.6	13.6	6.80e-06	0	57	0	853540864	60	4933
2026-01-01 23:03:19.87	121.61	28.57	-49.2	-52.1	13.0	1.75e-05	0	57	0	855638016	60	5275
2026-01-01 23:03:20.86	121.89	28.48	-49.3	-52.3	12.8	6.10e-05	0	57	0	856686592	60	5372
2026-01-01 23:03:21.85	122.17	28.40	-49.4	-52.6	12.5	1.11e-04	0	57	0	858783744	60	5537
2026-01-01 23:03:22.84	122.46	28.31	-49.3	-52.4	12.7	9.68e-05	0	57	0	860880896	60	5457
2026-01-01 23:03:23.83	122.74	28.22	-49.2	-52.2	13.0	5.64e-05	0	57	0	862978048	60	5287
2026-01-01 23:03:24.82	123.01	28.13	-49.3	-52.4	12.7	4.57e-05	0	57	0	865075200	60	5420
2026-01-01 23:03:25.81	123.29	28.04	-49.4	-52.4	12.7	9.30e-05	0	57	0	866123776	60	5463
2026-01-01 23:03:26.79	123.56	27.96	-49.6	-52.8	12.3	1.02e-04	0	57	0	868220928	60	5715
2026-01-01 23:03:27.79	123.84	27.86	-49.6	-52.8	12.3	3.33e-04	0	57	0	870318080	61	5372
2026-01-01 23:03:28.77	124.11	27.78	-49.0	-51.8	13.3	3.96e-05	0	57	0	872415232	61	4783
2026-01-01 23:03:29.76	124.38	27.69	-48.5	-50.9	14.2	7.00e-07	0	57	0	873463808	60	4582
2026-01-01 23:03:30.75	124.65	27.60	-48.0	-50.0	15.1	1.50e-06	0	57	0	875560960	59	4391
2026-01-01 23:03:31.73	124.91	27.50	-47.7	-49.7	15.5	0.00e+00	0	57	0	877658112	58	4467
2026-01-01 23:03:32.73	125.18	27.41	-47.8	-49.7	15.4	0.00e+00	0	57	0	879755264	58	4486
2026-01-01 23:03:33.72	125.45	27.32	-48.0	-50.1	15.2	0.00e+00	0	57	0	880803840	58	4661
2026-01-01 23:03:34.71	125.71	27.23	-48.2	-50.5	14.7	0.00e+00	0	57	0	882900992	58	4893
2026-01-01 23:03:35.70	125.97	27.14	-48.1	-50.3	14.9	7.00e-07	0	57	0	884998144	58	4767
2026-01-01 23:03:36.68	126.23	27.04	-47.9	-49.9	15.2	0.00e+00	0	57	0	887095296	58	4587
2026-01-01 23:03:37.66	126.49	26.95	-47.7	-49.7	15.5	0.00e+00	0	57	0	888143872	58	4445
2026-01-01 23:03:38.65	126.75	26.86	-47.8	-49.8	15.3	7.00e-07	0	57	0	890241024	58	4533
2026-01-01 23:03:39.63	127.00	26.77	-48.0	-50.1	15.1	0.00e+00	0	57	0	892338176	58	4658
2026-01-01 23:03:40.63	127.26	26.67	-48.6	-51.1	14.1	0.00e+00	0	57	0	894435328	59	4949
2026-01-01 23:03:41.62	127.51	26.58	-49.3	-52.4	12.7	2.05e-05	0	57	0	895483904	60	5412
2026-01-01 23:03:42.61	127.76	26.48	-49.7	-53.1	12.0	1.81e-04	0	57	0	897581056	61	5561
2026-01-01 23:03:43.60	128.01	26.39	-49.7	-53.2	11.9	3.99e-04	0	57	0	899678208	61	5600
2026-01-01 23:03:44.59	128.26	26.29	-49.4	-52.5	12.6	2.13e-04	0	57	0	901775360	61	5201
2026-01-01 23:03:45.58	128.51	26.20	-49.0	-51.8	13.3	2.82e-05	0	57	0	903872512	61	4809
2026-01-01 23:03:46.57	128.75	26.10	-48.9	-51.7	13.4	1.83e-05	0	57	0	904921088	61	4733
2026-01-01 23:03:47.56	129.00	26.01	-49.0	-51.8	13.3	1.60e-05	0	57	0	907018240	61	4782
2026-01-01 23:03:48.54	129.24	25.91	-49.2	-52.1	13.1	3.66e-05	0	57	0	909115392	61	4942
2026-01-01 23:03:49.54	129.48	25.82	-49.3	-52.2	12.9	2.97e-05	0	57	0	911212544	61	5037
2026-01-01 23:03:50.53	129.72	25.72	-49.1	-51.9	13.1	1.01e-04	0	57	0	912261120	61	4849
2026-01-01 23:03:51.52	129.96	25.63	-48.6	-51.1	14.0	6.80e-06	0	57	0	914358272	60	4672
2026-01-01 23:03:52.51	130.20	25.53	-48.0	-50.1	15.0	0.00e+00	0	57	0	916455424	58	4683
2026-01-01 23:03:53.50	130.43	25.43	-47.6	-49.5	15.7	0.00e+00	0	57	0	918552576	58	4343
2026-01-01 23:03:54.48	130.67	25.34	-47.5	-49.4	15.7	0.00e+00	0	57	0	920649728	58	4316
2026-01-01 23:03:55.48	130.90	25.24	-47.8	-49.9	15.3	0.00e+00	0	57	0	921698304	58	4560
2026-01-01 23:03:56.46	131.13	25.14	-48.2	-50.5	14.6	0.00e+00	0	57	0	923795456	58	4886
2026-01-01 23:03:57.46	131.36	25.05	-48.5	-50.9	14.3	7.00e-07	0	57	0	925892608	58	5113
2026-01-01 23:03:58.44	131.59	24.95	-48.4	-50.8	14.3	0.00e+00	0	57	0	927989760	58	5073
2026-01-01 23:03:59.43	131.82	24.85	-47.7	-49.7	15.4	0.00e+00	0	57	0	929038336	58	4474
2026-01-01 23:04:00.42	132.04	24.75	-47.2	-48.9	16.2	0.00e+00	0	57	0	931135488	57	4339
2026-01-01 23:04:01.41	132.27	24.66	-47.0	-48.6	16.5	0.00e+00	0	57	0	933232640	57	4174
2026-01-01 23:04:02.39	132.49	24.56	-47.0	-48.8	16.3	0.00e+00	0	57	0	935329792	57	4269
2026-01-01 23:04:03.38	132.71	24.46	-47.5	-49.4	15.8	0.00e+00	0	57	0	936378368	57	4574
2026-01-01 23:04:04.37	132.93	24.37	-47.6	-49.6	15.4	0.00e+00	0	57	0	938475520	57	4705
2026-01-01 23:04:05.35	133.15	24.27	-47.8	-49.9	15.2	0.00e+00	0	57	0	940572672	57	4836
2026-01-01 23:04:06.34	133.37	24.17	-47.8	-49.8	15.3	0.00e+00	0	57	0	942669824	57	4797
2026-01-01 23:04:07.33	133.58	24.07	-47.4	-49.3	15.8	0.00e+00	0	57	0	944766976	57	4536
2026-01-01 23:04:08.31	133.80	23.98	-47.2	-49.0	16.1	0.00e+00	0	57	0	945815552	57	4370
2026-01-01 23:04:09.30	134.01	23.88	-47.2	-48.9	16.2	0.00e+00	0	57	0	947912704	57	4338
2026-01-01 23:04:10.29	134.22	23.78	-47.0	-48.7	16.4	0.00e+00	0	57	0	950009856	57	4215
2026-01-01 23:04:11.28	134.44	23.68	-47.2	-49.0	16.2	0.00e+00	0	57	0	952107008	57	4355
2026-01-01 23:04:12.27	134.65	23.58	-47.5	-49.4	15.7	0.00e+00	0	57	0	953155584	57	4561
2026-01-01 23:04:13.25	134.85	23.49	-47.9	-50.0	15.2	0.00e+00	0	57	0	955252736	57	4874
2026-01-01 23:04:14.23	135.06	23.39	-47.8	-49.9	15.2	0.00e+00	0	57	0	957349888	57	4832
2026-01-01 23:04:15.22	135.27	23.29	-47.4	-49.3	15.7	0.00e+00	0	57	0	959447040	57	4539
2026-01-01 23:04:16.20	135.47	23.19	-47.2	-48.9	16.2	0.00e+00	0	57	0	960495616	57	4328
2026-01-01 23:04:17.19	135.67	23.10	-46.9	-48.6	16.5	0.00e+00	0	57	0	962592768	56	4415
2026-01-01 23:04:18.18	135.88	23.00	-46.8	-48.5	16.6	0.00e+00	0	57	0	964689920	56	4365
2026-01-01 23:04:19.16	136.08	22.90	-46.9	-48.6	16.5	0.00e+00	0	57	0	966787072	56	4404
2026-01-01 23:04:20.14	136.27	22.80	-47.0	-48.7	16.5	0.00e+00	0	57	0	967835648	56	4454
2026-01-01 23:04:21.12	136.47	22.71	-47.1	-48.8	16.2	0.00e+00	0	57	0	969932800	56	4544
2026-01-01 23:04:22.11	136.67	22.61	-47.1	-48.9	16.2	0.00e+00	0	57	0	972029952	56	4563
2026-01-01 23:04:23.10	136.87	22.51	-47.2	-49.0	16.1	0.00e+00	0	57	0	974127104	56	4601
2026-01-01 23:04:24.09	137.06	22.41	-47.2	-49.1	16.1	0.00e+00	0	57	0	975175680	56	4653
2026-01-01 23:04:25.08	137.26	22.32	-47.3	-49.1	16.0	0.00e+00	0	57	0	977272832	56	4692
2026-01-01 23:04:26.07	137.45	22.22	-47.3	-49.2	15.9	0.00e+00	0	57	0	979369984	56	4721
2026-01-01 23:04:27.06	137.64	22.12	-47.0	-48.7	16.3	0.00e+00	0	57	0	981467136	56	4468
2026-01-01 23:04:28.05	137.83	22.02	-46.7	-48.3	16.7	0.00e+00	0	57	0	983564288	56	4291
2026-01-01 23:04:29.03	138.02	21.93	-46.7	-48.3	16.8	0.00e+00	0	57	0	984612864	56	4249
2026-01-01 23:04:30.01	138.21	21.83	-46.6	-48.2	16.9	0.00e+00	0	57	0	986710016	56	4206
2026-01-01 23:04:30.99	138.39	21.73	-46.7	-48.2	16.8	0.00e+00	0	57	0	988807168	56	4240
2026-01-01 23:04:31.99	138.58	21.63	-46.7	-48.3	16.8	0.00e+00	0	57	0	990904320	56	4274
2026-01-01 23:04:32.98	138.76	21.54	-47.1	-48.8	16.3	0.00e+00	0	57	0	991952896	56	4522
2026-01-01 23:04:33.97	138.95	21.44	-46.6	-48.2	16.8	0.00e+00	0	57	0	994050048	56	4235
2026-01-01 23:04:34.96	139.13	21.34	-46.2	-47.7	17.2	0.00e+00	0	57	0	996147200	55	4216
2026-01-01 23:04:35.94	139.31	21.25	-46.0	-47.4	17.5	0.00e+00	0	57	0	998244352	55	4078
2026-01-01 23:04:36.93	139.49	21.15	-45.8	-47.2	17.7	0.00e+00	0	57	0	999292928	54	4219
2026-01-01 23:04:37.92	139.67	21.05	-45.8	-47.3	17.7	0.00e+00	0	57	0	1001390080	54	4244
2026-01-01 23:04:38.91	139.85	20.95	-45.9	-47.2	17.7	0.00e+00	0	57	0	1003487232	54	4241
2026-01-01 23:04:39.90	140.03	20.86	-46.0	-47.4	17.6	0.00e+00	0	57	0	1005584384	54	4292
2026-01-01 23:04:40.90	140.21	20.76	-45.9	-47.3	17.6	0.00e+00	0	57	0	1007681536	54	4284
2026-01-01 23:04:41.89	140.38	20.66	-45.9	-47.3	17.7	0.00e+00	0	57	0	1008730112	54	4262
2026-01-01 23:04:42.88	140.55	20.57	-45.9	-47.3	17.6	0.00e+00	0	57	0	1010827264	54	4279
2026-01-01 23:04:43.87	140.73	20.47	-45.9	-47.3	17.6	0.00e+00	0	57	0	1012924416	54	4269
2026-01-01 23:04:44.85	140.90	20.38	-45.9	-47.2	17.7	0.00e+00	0	57	0	1015021568	54	4239
2026-01-01 23:04:45.84	141.07	20.28	-45.7	-47.1	17.9	0.00e+00	0	57	0	1016070144	54	4146
2026-01-01 23:04:46.83	141.24	20.18	-45.7	-47.1	17.9	0.00e+00	0	57	0	1018167296	54	4146
2026-01-01 23:04:47.82	141.41	20.09	-45.8	-47.2	17.7	0.00e+00	0	57	0	1020264448	54	4195
2026-01-01 23:04:48.80	141.57	19.99	-45.8	-47.1	17.8	0.00e+00	0	57	0	1022361600	54	4167
2026-01-01 23:04:49.79	141.74	19.90	-45.6	-46.9	18.0	0.00e+00	0	57	0	1023410176	54	4090
2026-01-01 23:04:50.77	141.91	19.80	-45.8	-47.1	17.8	0.00e+00	0	57	0	1025507328	54	4188
2026-01-01 23:04:51.76	142.07	19.71	-45.9	-47.3	17.7	0.00e+00	0	57	0	1027604480	54	4262
2026-01-01 23:04:52.75	142.23	19.61	-46.2	-47.7	17.2	0.00e+00	0	57	0	1029701632	54	4466
2026-01-01 23:04:53.74	142.40	19.52	-46.3	-47.9	17.0	0.00e+00	0	57	0	1031798784	54	4564
2026-01-01 23:04:54.72	142.56	19.42	-46.5	-48.1	16.8	0.00e+00	0	57	0	1032847360	54	4701
2026-01-01 23:04:55.71	142.72	19.33	-46.7	-48.4	16.6	0.00e+00	0	57	0	1034944512	55	4553
2026-01-01 23:04:56.71	142.88	19.23	-46.6	-48.3	16.7	0.00e+00	0	57	0	1037041664	55	4511
2026-01-01 23:04:57.70	143.04	19.14	-46.6	-48.2	16.7	0.00e+00	0	57	0	1039138816	55	4489
2026-01-01 23:04:58.68	143.20	19.04	-46.6	-48.3	16.7	0.00e+00	0	57	0	1040187392	55	4507
2026-01-01 23:04:59.67	143.35	18.95	-46.7	-48.3	16.6	0.00e+00	0	57	0	1042284544	55	4525
2026-01-01 23:05:00.67	143.51	18.86	-46.9	-48.6	16.3	0.00e+00	0	57	0	1044381696	55	4678
2026-01-01 23:05:01.66	143.67	18.76	-46.8	-48.5	16.4	0.00e+00	0	57	0	1046478848	55	4611
2026-01-01 23:05:02.65	143.82	18.67	-46.5	-48.1	16.7	0.00e+00	0	57	0	1047527424	55	4434
2026-01-01 23:05:03.64	143.97	18.57	-46.5	-48.1	16.8	0.00e+00	0	57	0	1049624576	55	4429
2026-01-01 23:05:04.63	144.13	18.48	-46.5	-48.1	16.8	0.00e+00	0	57	0	1051721728	55	4412
2026-01-01 23:05:05.61	144.28	18.39	-46.7	-48.3	16.6	0.00e+00	0	57	0	1053818880	55	4533
2026-01-01 23:05:06.60	144.43	18.30	-46.8	-48.5	16.4	0.00e+00	0	57	0	1054867456	55	4622
2026-01-01 23:05:07.59	144.58	18.20	-46.6	-48.3	16.6	0.00e+00	0	57	0	1056964608	55	4521
2026-01-01 23:05:08.58	144.73	18.11	-46.8	-48.5	16.4	0.00e+00	0	57	0	1059061760	55	4600
2026-01-01 23:05:09.57	144.87	18.02	-46.8	-48.5	16.4	0.00e+00	0	57	0	1061158912	55	4599
2026-01-01 23:05:10.56	145.02	17.92	-46.6	-48.2	16.6	0.00e+00	0	57	0	1063256064	55	4486
2026-01-01 23:05:11.55	145.17	17.83	-46.7	-48.3	16.6	0.00e+00	0	57	0	1064304640	55	4536
2026-01-01 23:05:12.53	145.31	17.74	-46.6	-48.3	16.6	0.00e+00	0	57	0	1066401792	55	4520
2026-01-01 23:05:13.53	145.46	17.65	-46.8	-48.5	16.4	0.00e+00	0	57	0	1068498944	55	4649
2026-01-01 23:05:14.52	145.60	17.56	-47.0	-48.8	16.1	0.00e+00	0	57	0	1070596096	55	4771
2026-01-01 23:05:15.51	145.75	17.46	-46.9	-48.7	16.2	0.00e+00	0	57	0	1071644672	55	4751
2026-01-01 23:05:16.50	145.89	17.37	-47.2	-49.1	15.9	0.00e+00	0	57	0	1073741824	56	4666
2026-01-01 23:05:17.49	146.03	17.28	-47.3	-49.2	15.8	0.00e+00	0	57	0	1075838976	56	4748
2026-01-01 23:05:18.49	146.17	17.19	-47.4	-49.3	15.7	0.00e+00	0	57	0	1077936128	56	4785
2026-01-01 23:05:19.47	146.31	17.10	-47.3	-49.1	15.8	0.00e+00	0	57	0	1080033280	56	4705
2026-01-01 23:05:20.47	146.45	17.01	-47.5	-49.4	15.6	0.00e+00	0	57	0	1081081856	56	4854
2026-01-01 23:05:21.46	146.59	16.92	-47.5	-49.5	15.5	0.00e+00	0	57	0	1083179008	56	4893
2026-01-01 23:05:22.45	146.72	16.83	-47.5	-49.5	15.5	0.00e+00	0	57	0	1085276160	56	4912
2026-01-01 23:05:23.44	146.86	16.74	-47.7	-49.8	15.1	0.00e+00	0	57	0	1087373312	57	4791
2026-01-01 23:05:24.43	147.00	16.65	-47.8	-50.0	15.0	0.00e+00	0	57	0	1088421888	57	4900
2026-01-01 23:05:25.42	147.13	16.56	-48.1	-50.4	14.5	0.00e+00	0	57	0	1090519040	57	5148
2026-01-01 23:05:26.40	147.26	16.47	-48.3	-50.6	14.3	2.20e-06	0	57	0	1092616192	58	4974
2026-01-01 23:05:27.39	147.40	16.38	-48.3	-50.7	14.2	0.00e+00	0	57	0	1094713344	58	5035
2026-01-01 23:05:28.37	147.53	16.29	-48.4	-50.9	14.0	2.20e-06	0	57	0	1095761920	58	5156
2026-01-01 23:05:29.36	147.66	16.20	-48.1	-50.5	14.5	0.00e+00	0	57	0	1097859072	58	4902
2026-01-01 23:05:30.35	147.79	16.11	-47.9	-50.1	14.8	0.00e+00	0	57	0	1099956224	58	4704
2026-01-01 23:05:31.34	147.92	16.02	-47.8	-49.8	15.1	0.00e+00	0	57	0	1102053376	58	4534
2026-01-01 23:05:32.33	148.05	15.94	-47.6	-49.7	15.3	0.00e+00	0	57	0	1104150528	58	4471
2026-01-01 23:05:33.33	148.18	15.85	-47.4	-49.6	15.4	0.00e+00	0	57	0	1105199104	58	4403
2026-01-01 23:05:34.32	148.31	15.76	-47.6	-49.6	15.3	0.00e+00	0	57	0	1107296256	58	4433
2026-01-01 23:05:35.30	148.44	15.67	-47.4	-49.4	15.5	0.00e+00	0	57	0	1109393408	57	4569
2026-01-01 23:05:36.30	148.56	15.58	-47.7	-49.8	15.2	0.00e+00	0	57	0	1111490560	57	4760
2026-01-01 23:05:37.28	148.69	15.50	-47.8	-50.0	15.0	0.00e+00	0	57	0	1112539136	57	4881
2026-01-01 23:05:38.26	148.81	15.41	-47.8	-49.9	15.0	0.00e+00	0	57	0	1114636288	57	4868
2026-01-01 23:05:39.26	148.94	15.32	-48.1	-50.4	14.5	7.00e-07	0	57	0	1116733440	58	4853
2026-01-01 23:05:40.25	149.06	15.23	-48.1	-50.5	14.5	0.00e+00	0	57	0	1118830592	58	4881
2026-01-01 23:05:41.24	149.19	15.15	-48.3	-50.8	14.1	0.00e+00	0	57	0	1119879168	58	5084
2026-01-01 23:05:42.22	149.31	15.06	-48.5	-51.0	13.9	5.30e-06	0	57	0	1121976320	58	5186
2026-01-01 23:05:43.21	149.43	14.98	-48.4	-50.9	14.1	6.80e-06	0	57	0	1124073472	58	5106
2026-01-01 23:05:44.20	149.55	14.89	-48.2	-50.6	14.3	7.00e-07	0	57	0	1126170624	58	4960
2026-01-01 23:05:45.19	149.67	14.80	-48.1	-50.5	14.4	7.00e-07	0	57	0	1128267776	58	4914
2026-01-01 23:05:46.17	149.79	14.72	-48.1	-50.3	14.6	0.00e+00	0	57	0	1129316352	58	4810
2026-01-01 23:05:47.16	149.91	14.63	-48.2	-50.5	14.4	1.50e-06	0	57	0	1131413504	58	4916
2026-01-01 23:05:48.16	150.03	14.55	-48.3	-50.7	14.2	2.20e-06	0	57	0	1133510656	58	4988
2026-01-01 23:05:49.15	150.15	14.46	-47.9	-50.2	14.7	0.00e+00	0	57	0	1135607808	58	4721
2026-01-01 23:05:50.14	150.26	14.38	-47.7	-49.8	15.1	0.00e+00	0	57	0	1136656384	58	4542
2026-01-01 23:05:51.12	150.38	14.29	-47.6	-49.6	15.3	0.00e+00	0	57	0	1138753536	58	4403
2026-01-01 23:05:52.11	150.49	14.21	-47.5	-49.6	15.3	0.00e+00	0	57	0	1140850688	58	4392
2026-01-01 23:05:53.11	150.61	14.12	-47.6	-49.8	15.1	0.00e+00	0	57	0	1142947840	58	4512
2026-01-01 23:05:54.10	150.73	14.04	-47.8	-50.0	14.9	0.00e+00	0	57	0	1143996416	58	4626
2026-01-01 23:05:55.09	150.84	13.95	-47.8	-50.0	14.9	0.00e+00	0	57	0	1146093568	58	4616
2026-01-01 23:05:56.08	150.95	13.87	-48.1	-50.4	14.5	0.00e+00	0	57	0	1148190720	58	4842
2026-01-01 23:05:57.07	151.07	13.79	-48.0	-50.3	14.6	7.00e-07	0	57	0	1150287872	58	4766
2026-01-01 23:05:58.06	151.18	13.70	-48.3	-50.7	14.2	7.00e-07	0	57	0	1151336448	58	5030
2026-01-01 23:05:59.04	151.29	13.62	-48.1	-50.5	14.4	7.00e-07	0	57	0	1153433600	58	4873
2026-01-01 23:06:00.03	151.40	13.54	-47.9	-50.1	14.8	1.50e-06	0	57	0	1155530752	58	4691
2026-01-01 23:06:01.02	151.51	13.45	-47.8	-50.0	15.0	0.00e+00	0	57	0	1157627904	58	4599
2026-01-01 23:06:02.01	151.62	13.37	-47.7	-49.8	15.0	0.00e+00	0	57	0	1159725056	58	4545
2026-01-01 23:06:03.00	151.73	13.29	-47.5	-49.6	15.3	0.00e+00	0	57	0	1160773632	58	4405
2026-01-01 23:06:03.99	151.84	13.20	-47.5	-49.6	15.3	0.00e+00	0	57	0	1162870784	58	4403
2026-01-01 23:06:04.98	151.95	13.12	-47.5	-49.5	15.3	0.00e+00	0	57	0	1164967936	58	4384
2026-01-01 23:06:05.97	152.05	13.04	-47.7	-49.8	15.1	0.00e+00	0	57	0	1167065088	57	4785
2026-01-01 23:06:06.95	152.16	12.96	-47.4	-49.4	15.4	0.00e+00	0	57	0	1168113664	57	4576
2026-01-01 23:06:07.94	152.27	12.88	-47.1	-49.0	15.8	0.00e+00	0	57	0	1170210816	57	4367
2026-01-01 23:06:08.92	152.37	12.80	-47.0	-48.8	16.0	0.00e+00	0	57	0	1172307968	57	4278
2026-01-01 23:06:09.91	152.48	12.72	-47.1	-49.0	15.9	0.00e+00	0	57	0	1174405120	57	4354
2026-01-01 23:06:10.90	152.58	12.63	-47.2	-49.1	15.7	0.00e+00	0	57	0	1175453696	57	4416
2026-01-01 23:06:11.89	152.68	12.55	-47.4	-49.4	15.4	0.00e+00	0	57	0	1177550848	57	4577
2026-01-01 23:06:12.88	152.79	12.47	-47.4	-49.4	15.4	0.00e+00	0	57	0	1179648000	57	4563
2026-01-01 23:06:13.87	152.89	12.39	-47.6	-49.7	15.1	0.00e+00	0	57	0	1181745152	57	4717
2026-01-01 23:06:14.86	152.99	12.31	-47.6	-49.6	15.2	0.00e+00	0	57	0	1183842304	57	4696
2026-01-01 23:06:15.84	153.09	12.23	-47.6	-49.6	15.2	0.00e+00	0	57	0	1184890880	57	4689
2026-01-01 23:06:16.82	153.20	12.15	-47.7	-49.8	15.0	0.00e+00	0	57	0	1186988032	57	4777
2026-01-01 23:06:17.81	153.30	12.07	-47.6	-49.6	15.1	7.00e-07	0	57	0	1189085184	57	4704
2026-01-01 23:06:18.80	153.40	11.99	-47.6	-49.8	15.0	0.00e+00	0	57	0	1191182336	57	4768
2026-01-01 23:06:19.79	153.50	11.91	-47.8	-50.1	14.7	7.00e-07	0	57	0	1192230912	57	4952
2026-01-01 23:06:20.78	153.60	11.83	-47.7	-49.9	14.9	7.00e-07	0	57	0	1194328064	57	4840
2026-01-01 23:06:21.77	153.69	11.76	-47.5	-49.7	15.1	0.00e+00	0	57	0	1196425216	57	4711
2026-01-01 23:06:22.76	153.79	11.68	-47.4	-49.4	15.3	0.00e+00	0	57	0	1198522368	57	4593
2026-01-01 23:06:23.75	153.89	11.60	-47.3	-49.3	15.5	0.00e+00	0	57	0	1199570944	57	4518
2026-01-01 23:06:24.74	153.99	11.52	-47.3	-49.3	15.4	0.00e+00	0	57	0	1201668096	57	4541
2026-01-01 23:06:25.73	154.08	11.44	-47.3	-49.2	15.6	0.00e+00	0	57	0	1203765248	57	4474
2026-01-01 23:06:26.72	154.18	11.36	-47.2	-49.2	15.6	0.00e+00	0	57	0	1205862400	57	4444
2026-01-01 23:06:27.71	154.28	11.28	-47.4	-49.4	15.4	7.00e-07	0	57	0	1207959552	57	4559
2026-01-01 23:06:28.70	154.37	11.21	-47.3	-49.2	15.5	0.00e+00	0	57	0	1209008128	57	4471
2026-01-01 23:06:29.68	154.47	11.13	-47.2	-49.1	15.6	0.00e+00	0	57	0	1211105280	57	4437
2026-01-01 23:06:30.67	154.56	11.05	-47.2	-49.2	15.6	0.00e+00	0	57	0	1213202432	57	4466
2026-01-01 23:06:31.65	154.65	10.98	-47.4	-49.4	15.3	0.00e+00	0	57	0	1215299584	57	4575
2026-01-01 23:06:32.64	154.75	10.90	-47.5	-49.5	15.2	0.00e+00	0	57	0	1216348160	57	4621
2026-01-01 23:06:33.63	154.84	10.82	-47.4	-49.5	15.3	7.00e-07	0	57	0	1218445312	57	4606
2026-01-01 23:06:34.62	154.93	10.74	-47.4	-49.5	15.2	0.00e+00	0	57	0	1220542464	57	4643
2026-01-01 23:06:35.61	155.03	10.67	-47.5	-49.6	15.1	0.00e+00	0	57	0	1222639616	57	4680
2026-01-01 23:06:36.61	155.12	10.59	-47.5	-49.6	15.1	0.00e+00	0	57	0	1223688192	57	4702
2026-01-01 23:06:37.59	155.21	10.52	-47.5	-49.6	15.1	0.00e+00	0	57	0	1225785344	57	4685
2026-01-01 23:06:38.58	155.30	10.44	-47.6	-49.7	15.0	0.00e+00	0	57	0	1227882496	57	4726
2026-01-01 23:06:39.57	155.39	10.36	-47.5	-49.7	15.0	0.00e+00	0	57	0	1229979648	57	4723
2026-01-01 23:06:40.56	155.48	10.29	-47.8	-50.0	14.7	0.00e+00	0	57	0	1231028224	57	4908
