passes_logs/2026/01/01/R3.0SM8_Murmansk_STILSPACE/R3.0SM8_Murmansk_STILSPACE__20260101_100139_NOAA_21_JPSS-2_rec.log

#Pass ID: 20260101_100139_NOAA 21 (JPSS-2)
#Satellite: NOAA 21 (JPSS-2)
#Configuration: NOAA-21
#almurnet v.1.7.20240730
#Start time: 2026-01-01 10:06:26

#Version: 2.2.20231116
#Station: R3.0SM8_Murmansk_STILSPACE
#Location: 33.092731 lon 68.902999 lat
#TLE: 1 54234U 22150A   25365.42224288  .00000199  00000+0  11529-3 0  9990
#TLE: 2 54234  98.7483 301.4995 0001320 356.2106   3.9060 14.19530300162743

#Time	Az	El	Level	Level2	SNR	BER	BlckErr	Temp	State	Recorded	gain1	gain2
2026-01-01 10:06:26.15	177.15	36.81	-52.5	-63.4	3.8	8.47e-01	0	57	0	0	67	12923
2026-01-01 10:06:27.14	177.28	37.04	-52.9	-64.3	3.8	1.49e+00	0	57	104	0	68	13504
2026-01-01 10:06:28.13	177.41	37.26	-52.7	-64.3	3.8	1.49e+00	0	57	104	0	68	13553
2026-01-01 10:06:29.11	177.54	37.49	-52.7	-64.3	3.8	1.49e+00	0	57	104	0	68	13507
2026-01-01 10:06:30.09	177.68	37.72	-52.8	-64.3	3.8	1.49e+00	0	57	104	0	68	13529
2026-01-01 10:06:31.07	177.81	37.95	-52.7	-64.3	3.8	1.49e+00	0	57	104	0	68	13520
2026-01-01 10:06:32.06	177.95	38.18	-52.9	-64.3	3.8	1.49e+00	0	57	104	0	68	13556
2026-01-01 10:06:33.05	178.09	38.42	-52.6	-64.3	3.8	1.49e+00	0	57	104	0	68	13541
2026-01-01 10:06:34.04	178.23	38.65	-52.8	-64.3	3.8	1.49e+00	0	57	104	0	68	13537
2026-01-01 10:06:35.02	178.37	38.89	-52.6	-64.3	3.8	1.49e+00	0	57	104	0	68	13461
2026-01-01 10:06:36.01	178.52	39.13	-52.8	-64.3	3.8	1.49e+00	0	57	104	0	68	13542
2026-01-01 10:06:36.99	178.66	39.36	-52.8	-64.3	3.8	1.49e+00	0	57	104	0	68	13444
2026-01-01 10:06:37.99	178.82	39.61	-52.8	-64.3	3.8	1.49e+00	0	57	104	0	68	13506
2026-01-01 10:06:38.98	178.97	39.85	-52.8	-64.3	3.8	1.49e+00	0	57	104	0	68	13451
2026-01-01 10:06:39.97	179.12	40.10	-52.6	-64.3	3.8	1.49e+00	0	57	104	0	68	13471
2026-01-01 10:06:40.97	179.28	40.34	-52.9	-64.3	3.8	1.49e+00	0	57	104	0	68	13480
2026-01-01 10:06:41.95	179.44	40.59	-52.7	-64.3	3.8	1.49e+00	0	57	104	0	68	13508
2026-01-01 10:06:42.94	179.60	40.84	-52.8	-64.3	3.8	1.49e+00	0	57	104	0	68	13450
2026-01-01 10:06:43.93	179.76	41.09	-52.5	-64.3	3.8	1.49e+00	0	57	104	0	68	13488
2026-01-01 10:06:44.92	179.93	41.34	-52.6	-64.3	3.8	1.49e+00	0	57	104	0	68	13473
2026-01-01 10:06:45.91	180.10	41.60	-52.8	-64.3	3.8	1.49e+00	0	57	104	0	68	13501
2026-01-01 10:06:46.90	180.27	41.85	-52.7	-64.3	3.8	1.49e+00	0	57	104	0	68	13493
2026-01-01 10:06:47.89	180.45	42.11	-52.6	-64.3	3.8	1.49e+00	0	57	104	0	68	13453
2026-01-01 10:06:48.87	180.62	42.36	-52.8	-64.3	3.8	1.49e+00	0	58	104	0	68	13458
2026-01-01 10:06:49.87	180.80	42.63	-52.8	-64.3	3.8	1.49e+00	0	57	104	0	68	13469
2026-01-01 10:06:50.86	180.99	42.89	-52.6	-64.3	3.8	1.49e+00	0	57	104	0	68	13491
2026-01-01 10:06:51.85	181.17	43.15	-52.6	-64.3	3.8	1.49e+00	0	57	104	0	68	13473
2026-01-01 10:06:52.84	181.36	43.41	-52.8	-64.3	3.8	1.49e+00	0	58	104	0	68	13458
2026-01-01 10:06:53.82	181.55	43.68	-52.5	-64.3	3.8	1.49e+00	0	57	104	0	68	13429
2026-01-01 10:06:54.81	181.74	43.94	-52.5	-64.2	3.8	1.49e+00	0	57	104	0	68	13398
2026-01-01 10:06:55.80	181.94	44.21	-52.6	-64.3	3.8	1.49e+00	0	57	104	0	68	13462
2026-01-01 10:06:56.79	182.14	44.48	-52.7	-64.3	3.8	1.49e+00	0	58	104	0	68	13437
2026-01-01 10:06:57.78	182.35	44.75	-52.7	-64.3	3.8	1.49e+00	0	57	104	0	68	13457
2026-01-01 10:06:58.77	182.56	45.03	-52.6	-64.3	3.8	1.49e+00	0	57	104	0	68	13416
2026-01-01 10:06:59.75	182.77	45.30	-52.6	-64.2	3.8	1.49e+00	0	57	104	0	68	13387
2026-01-01 10:07:00.74	182.98	45.57	-52.6	-64.3	3.8	1.49e+00	0	57	104	0	68	13464
2026-01-01 10:07:01.73	183.20	45.85	-52.8	-64.3	3.8	1.49e+00	0	57	104	0	68	13502
2026-01-01 10:07:02.72	183.42	46.13	-52.8	-64.3	3.8	1.49e+00	0	57	104	0	68	13440
2026-01-01 10:07:03.71	183.65	46.41	-52.8	-64.3	3.8	1.49e+00	0	57	104	0	68	13447
2026-01-01 10:07:04.70	183.88	46.69	-52.8	-64.2	3.8	1.49e+00	0	57	104	0	68	13329
2026-01-01 10:07:05.69	184.12	46.98	-52.8	-64.2	3.8	1.49e+00	0	57	104	0	68	13295
2026-01-01 10:07:06.68	184.36	47.26	-52.7	-64.2	3.8	1.49e+00	0	57	104	0	68	13396
2026-01-01 10:07:07.66	184.60	47.54	-52.7	-64.2	3.8	1.49e+00	0	57	104	0	68	13346
2026-01-01 10:07:08.66	184.85	47.83	-52.8	-64.1	3.8	1.49e+00	0	58	104	0	68	13242
2026-01-01 10:07:09.64	185.10	48.12	-52.5	-64.1	3.8	1.49e+00	0	58	104	0	68	13196
2026-01-01 10:07:10.64	185.36	48.41	-52.7	-64.0	3.8	1.49e+00	0	57	104	0	68	13058
2026-01-01 10:07:11.63	185.62	48.70	-52.6	-63.5	3.8	1.49e+00	0	57	104	0	68	12327
2026-01-01 10:07:12.61	185.88	48.99	-52.7	-63.3	3.8	1.49e+00	0	57	104	0	67	12738
2026-01-01 10:07:13.60	186.16	49.29	-52.5	-63.8	3.8	1.49e+00	0	57	104	0	67	13538
2026-01-01 10:07:14.60	186.44	49.59	-52.7	-64.0	3.8	1.49e+00	0	57	104	0	67	13837
2026-01-01 10:07:15.59	186.72	49.88	-52.7	-64.0	3.8	1.49e+00	0	57	104	0	67	13821
2026-01-01 10:07:16.58	187.01	50.18	-52.6	-63.9	3.8	1.49e+00	0	57	104	0	67	13648
2026-01-01 10:07:17.58	187.30	50.48	-52.6	-64.0	3.8	1.49e+00	0	57	104	0	67	13846
2026-01-01 10:07:18.57	187.60	50.78	-52.6	-62.6	3.8	1.49e+00	0	57	104	0	67	11787
2026-01-01 10:07:19.56	187.91	51.08	-51.1	-55.6	7.2	2.76e-01	0	57	0	1048576	65	5903
2026-01-01 10:07:20.55	188.22	51.39	-49.7	-52.6	10.4	5.90e-03	0	57	0	3145728	62	4977
2026-01-01 10:07:21.55	188.54	51.69	-50.1	-53.3	9.7	6.56e-03	0	57	0	6291456	62	5398
2026-01-01 10:07:22.54	188.86	52.00	-50.3	-53.6	9.3	2.45e-02	0	57	0	9437184	63	5266
2026-01-01 10:07:23.52	189.19	52.30	-49.6	-52.4	10.6	4.72e-03	0	57	0	12582912	62	4849
2026-01-01 10:07:24.51	189.53	52.61	-48.8	-51.1	12.0	4.79e-04	0	57	0	15728640	60	4664
2026-01-01 10:07:25.50	189.87	52.91	-48.3	-50.3	12.7	1.33e-04	0	57	0	18874368	59	4503
2026-01-01 10:07:26.49	190.23	53.22	-47.8	-49.5	13.6	7.60e-06	0	57	0	22020096	58	4357
2026-01-01 10:07:27.48	190.59	53.53	-47.1	-48.7	14.5	0.00e+00	0	57	0	25165824	57	4197
2026-01-01 10:07:28.47	190.95	53.84	-46.7	-48.1	15.0	0.00e+00	0	57	0	28311552	56	4178
2026-01-01 10:07:29.44	191.32	54.14	-46.6	-48.0	15.2	0.00e+00	0	57	0	31457280	56	4118
2026-01-01 10:07:30.43	191.70	54.45	-46.1	-47.4	15.6	0.00e+00	0	57	0	34603008	55	4073
2026-01-01 10:07:31.41	192.09	54.76	-45.9	-47.0	16.0	0.00e+00	0	57	0	37748736	54	4142
2026-01-01 10:07:32.40	192.49	55.07	-45.5	-46.6	16.4	0.00e+00	0	57	0	40894464	54	3948
2026-01-01 10:07:33.39	192.90	55.39	-45.1	-46.1	16.9	0.00e+00	0	57	0	44040192	53	3945
2026-01-01 10:07:34.38	193.31	55.70	-44.9	-45.9	17.2	0.00e+00	0	57	0	47185920	52	4056
2026-01-01 10:07:35.37	193.74	56.01	-44.7	-45.7	17.3	0.00e+00	0	57	0	50331648	52	3982
2026-01-01 10:07:36.36	194.18	56.32	-44.6	-45.5	17.4	0.00e+00	0	57	0	53477376	52	3910
2026-01-01 10:07:37.35	194.62	56.64	-44.5	-45.4	17.6	0.00e+00	0	57	0	56623104	52	3830
2026-01-01 10:07:38.34	195.08	56.95	-44.5	-45.4	17.5	0.00e+00	0	57	0	59768832	52	3862
2026-01-01 10:07:39.34	195.55	57.27	-44.5	-45.4	17.6	0.00e+00	0	57	0	61865984	52	3841
2026-01-01 10:07:40.33	196.03	57.58	-44.6	-45.5	17.4	0.00e+00	0	57	0	65011712	52	3900
2026-01-01 10:07:41.31	196.51	57.89	-44.6	-45.6	17.4	0.00e+00	0	57	0	68157440	52	3914
2026-01-01 10:07:42.31	197.02	58.21	-44.4	-45.3	17.7	0.00e+00	0	58	0	71303168	51	4028
2026-01-01 10:07:43.30	197.53	58.52	-44.4	-45.3	17.8	0.00e+00	0	57	0	74448896	51	4009
2026-01-01 10:07:44.29	198.05	58.83	-44.3	-45.2	17.8	0.00e+00	0	57	0	77594624	51	3967
2026-01-01 10:07:45.28	198.59	59.14	-44.0	-44.8	18.2	0.00e+00	0	57	0	80740352	51	3800
2026-01-01 10:07:46.26	199.13	59.45	-43.8	-44.5	18.4	0.00e+00	0	57	0	83886080	50	3901
2026-01-01 10:07:47.26	199.70	59.76	-43.6	-44.4	18.5	0.00e+00	0	58	0	87031808	50	3844
2026-01-01 10:07:48.24	200.27	60.07	-43.7	-44.4	18.4	0.00e+00	0	57	0	90177536	50	3852
2026-01-01 10:07:49.24	200.86	60.38	-43.8	-44.5	18.3	0.00e+00	0	58	0	93323264	50	3898
2026-01-01 10:07:50.23	201.47	60.69	-43.9	-44.7	18.2	0.00e+00	0	57	0	96468992	50	3985
2026-01-01 10:07:51.22	202.09	60.99	-44.1	-44.9	18.1	0.00e+00	0	57	0	99614720	50	4089
2026-01-01 10:07:52.20	202.71	61.29	-44.3	-45.1	17.9	0.00e+00	0	57	0	102760448	50	4175
2026-01-01 10:07:53.19	203.36	61.59	-44.3	-45.1	17.9	0.00e+00	0	57	0	105906176	50	4183
2026-01-01 10:07:54.18	204.03	61.89	-44.2	-45.0	18.0	0.00e+00	0	57	0	109051904	50	4134
2026-01-01 10:07:55.17	204.71	62.19	-44.2	-45.0	18.0	0.00e+00	0	57	0	112197632	50	4118
2026-01-01 10:07:56.16	205.40	62.49	-44.2	-45.0	18.0	0.00e+00	0	57	0	115343360	50	4101
2026-01-01 10:07:57.15	206.12	62.78	-44.5	-45.3	17.7	0.00e+00	0	57	0	118489088	50	4281
2026-01-01 10:07:58.14	206.85	63.07	-44.4	-45.3	17.7	0.00e+00	0	57	0	120586240	50	4273
2026-01-01 10:07:59.13	207.60	63.36	-44.6	-45.5	17.5	0.00e+00	0	57	0	123731968	51	4132
2026-01-01 10:08:00.12	208.37	63.65	-44.1	-44.9	18.1	0.00e+00	0	57	0	126877696	51	3868
2026-01-01 10:08:01.10	209.15	63.93	-43.9	-44.7	18.3	0.00e+00	0	57	0	130023424	50	3970
2026-01-01 10:08:02.09	209.95	64.20	-43.8	-44.6	18.4	0.00e+00	0	57	0	133169152	50	3924
2026-01-01 10:08:03.08	210.78	64.48	-43.7	-44.4	18.4	0.00e+00	0	58	0	136314880	50	3862
2026-01-01 10:08:04.07	211.62	64.75	-43.3	-44.1	18.8	0.00e+00	0	57	0	139460608	49	3914
2026-01-01 10:08:05.05	212.48	65.02	-42.7	-43.4	19.5	0.00e+00	0	57	0	142606336	48	3826
2026-01-01 10:08:06.04	213.37	65.28	-42.7	-43.4	19.4	0.00e+00	0	57	0	145752064	48	3839
2026-01-01 10:08:07.03	214.27	65.54	-43.0	-43.7	19.1	0.00e+00	0	57	0	148897792	48	3989
2026-01-01 10:08:08.03	215.21	65.79	-43.4	-44.1	18.8	0.00e+00	0	57	0	152043520	48	4186
2026-01-01 10:08:09.02	216.16	66.04	-43.2	-43.9	18.9	0.00e+00	0	57	0	155189248	48	4096
2026-01-01 10:08:10.01	217.13	66.29	-43.5	-44.3	18.6	0.00e+00	0	57	0	158334976	48	4279
2026-01-01 10:08:11.00	218.12	66.52	-43.1	-43.8	19.1	0.00e+00	0	57	0	161480704	48	4047
2026-01-01 10:08:11.99	219.14	66.76	-43.4	-44.1	18.9	0.00e+00	0	57	0	164626432	48	4184
2026-01-01 10:08:12.97	220.16	66.98	-43.6	-44.4	18.6	0.00e+00	0	58	0	167772160	49	4053
2026-01-01 10:08:13.96	221.22	67.20	-43.2	-43.9	19.0	0.00e+00	0	57	0	170917888	49	3832
2026-01-01 10:08:14.96	222.31	67.41	-43.0	-43.7	19.2	0.00e+00	0	57	0	174063616	49	3776
2026-01-01 10:08:15.95	223.41	67.62	-43.1	-43.8	19.1	0.00e+00	0	57	0	177209344	49	3807
2026-01-01 10:08:16.94	224.54	67.82	-43.1	-43.8	19.1	0.00e+00	0	57	0	180355072	49	3804
2026-01-01 10:08:17.94	225.70	68.01	-42.9	-43.6	19.3	0.00e+00	0	57	0	182452224	48	3936
2026-01-01 10:08:18.93	226.87	68.20	-42.6	-43.3	19.6	0.00e+00	0	57	0	185597952	48	3789
2026-01-01 10:08:19.92	228.05	68.37	-42.6	-43.2	19.7	0.00e+00	0	57	0	188743680	48	3758
2026-01-01 10:08:20.90	229.25	68.54	-42.8	-43.5	19.4	0.00e+00	0	57	0	191889408	48	3874
2026-01-01 10:08:21.89	230.48	68.70	-42.9	-43.6	19.3	0.00e+00	0	57	0	195035136	48	3936
2026-01-01 10:08:22.87	231.71	68.84	-42.7	-43.4	19.5	0.00e+00	0	57	0	198180864	48	3853
2026-01-01 10:08:23.87	232.99	68.98	-42.3	-42.9	19.8	0.00e+00	0	58	0	201326592	47	3854
2026-01-01 10:08:24.85	234.26	69.11	-42.6	-43.3	19.4	0.00e+00	0	57	0	204472320	47	4016
2026-01-01 10:08:25.84	235.56	69.24	-42.7	-43.5	19.3	0.00e+00	0	58	0	207618048	47	4102
2026-01-01 10:08:26.83	236.88	69.35	-42.7	-43.5	19.3	0.00e+00	0	57	0	210763776	47	4099
2026-01-01 10:08:27.82	238.21	69.45	-42.6	-43.3	19.5	0.00e+00	0	57	0	213909504	47	4016
2026-01-01 10:08:28.80	239.54	69.54	-42.7	-43.4	19.3	0.00e+00	0	57	0	217055232	47	4074
2026-01-01 10:08:29.78	240.89	69.62	-42.8	-43.5	19.2	0.00e+00	0	58	0	220200960	47	4136
2026-01-01 10:08:30.77	242.25	69.69	-42.9	-43.7	19.1	0.00e+00	0	58	0	223346688	47	4203
2026-01-01 10:08:31.75	243.61	69.75	-43.2	-44.0	19.0	0.00e+00	0	58	0	226492416	48	4101
2026-01-01 10:08:32.73	244.98	69.80	-43.3	-44.0	18.8	0.00e+00	0	57	0	229638144	48	4139
2026-01-01 10:08:33.72	246.38	69.84	-43.7	-44.5	18.5	0.00e+00	0	57	0	231735296	49	4108
2026-01-01 10:08:34.71	247.77	69.86	-43.4	-44.2	18.7	0.00e+00	0	58	0	234881024	49	3979
2026-01-01 10:08:35.69	249.15	69.88	-43.1	-43.8	19.1	0.00e+00	0	58	0	238026752	49	3794
2026-01-01 10:08:36.68	250.55	69.88	-43.1	-43.8	19.0	0.00e+00	0	57	0	241172480	49	3808
2026-01-01 10:08:37.66	251.94	69.88	-43.7	-44.6	18.3	0.00e+00	0	58	0	244318208	49	4150
2026-01-01 10:08:38.65	253.34	69.86	-43.8	-44.7	18.2	0.00e+00	0	57	0	247463936	49	4231
2026-01-01 10:08:39.64	254.73	69.83	-43.5	-44.3	18.6	0.00e+00	0	58	0	250609664	49	4051
2026-01-01 10:08:40.64	256.14	69.79	-43.4	-44.1	18.8	0.00e+00	0	57	0	253755392	49	3943
2026-01-01 10:08:41.63	257.52	69.74	-43.4	-44.2	18.8	0.00e+00	0	57	0	256901120	49	3974
2026-01-01 10:08:42.62	258.89	69.68	-43.3	-44.1	18.9	0.00e+00	0	57	0	260046848	49	3917
2026-01-01 10:08:43.61	260.26	69.61	-43.3	-44.1	18.9	0.00e+00	0	58	0	263192576	49	3918
2026-01-01 10:08:44.61	261.63	69.53	-43.3	-44.0	18.9	0.00e+00	0	57	0	266338304	49	3911
2026-01-01 10:08:45.59	262.96	69.43	-42.9	-43.6	19.4	0.00e+00	0	57	0	269484032	48	3914
2026-01-01 10:08:46.59	264.30	69.33	-42.9	-43.6	19.4	0.00e+00	0	57	0	272629760	48	3932
2026-01-01 10:08:47.58	265.61	69.22	-42.9	-43.6	19.3	0.00e+00	0	57	0	275775488	48	3929
2026-01-01 10:08:48.58	266.92	69.09	-43.1	-43.9	19.1	0.00e+00	0	58	0	278921216	48	4060
2026-01-01 10:08:49.57	268.20	68.96	-43.4	-44.2	18.7	0.00e+00	0	58	0	282066944	48	4214
2026-01-01 10:08:50.56	269.46	68.82	-43.7	-44.6	18.4	0.00e+00	0	58	0	285212672	49	4154
2026-01-01 10:08:51.55	270.71	68.67	-43.6	-44.4	18.6	0.00e+00	0	58	0	288358400	49	4083
2026-01-01 10:08:52.54	271.93	68.51	-42.9	-43.6	19.3	0.00e+00	0	57	0	291504128	49	3725
2026-01-01 10:08:53.52	273.12	68.34	-42.5	-43.1	19.7	0.00e+00	0	57	0	294649856	48	3718
2026-01-01 10:08:54.51	274.31	68.16	-42.6	-43.2	19.6	0.00e+00	0	57	0	296747008	48	3777
2026-01-01 10:08:55.50	275.47	67.98	-42.9	-43.6	19.3	0.00e+00	0	58	0	299892736	48	3958
2026-01-01 10:08:56.49	276.61	67.79	-42.8	-43.5	19.4	0.00e+00	0	57	0	303038464	48	3896
2026-01-01 10:08:57.48	277.73	67.59	-43.0	-43.8	19.1	0.00e+00	0	57	0	306184192	48	4005
2026-01-01 10:08:58.46	278.82	67.38	-43.1	-43.8	19.1	0.00e+00	0	57	0	309329920	48	4024
2026-01-01 10:08:59.45	279.89	67.17	-42.9	-43.6	19.3	0.00e+00	0	57	0	312475648	48	3927
2026-01-01 10:09:00.45	280.96	66.95	-42.8	-43.5	19.5	0.00e+00	0	57	0	315621376	48	3871
2026-01-01 10:09:01.44	281.99	66.72	-43.1	-43.8	19.1	0.00e+00	0	57	0	318767104	48	4033
2026-01-01 10:09:02.43	283.00	66.49	-43.7	-44.5	18.5	0.00e+00	0	57	0	321912832	49	4132
2026-01-01 10:09:03.42	283.99	66.25	-43.7	-44.5	18.5	0.00e+00	0	57	0	325058560	49	4113
2026-01-01 10:09:04.41	284.96	66.00	-43.5	-44.3	18.6	0.00e+00	0	57	0	328204288	49	4028
2026-01-01 10:09:05.41	285.91	65.75	-43.2	-44.0	18.9	0.00e+00	0	57	0	331350016	49	3876
2026-01-01 10:09:06.39	286.82	65.50	-43.4	-44.1	18.8	0.00e+00	0	57	0	334495744	49	3949
2026-01-01 10:09:07.38	287.73	65.24	-43.6	-44.4	18.6	0.00e+00	0	57	0	337641472	49	4061
2026-01-01 10:09:08.38	288.62	64.98	-43.5	-44.3	18.8	0.00e+00	0	57	0	340787200	49	4007
2026-01-01 10:09:09.37	289.48	64.71	-43.8	-44.5	18.4	0.00e+00	0	58	0	343932928	49	4144
2026-01-01 10:09:10.36	290.32	64.44	-43.9	-44.6	18.3	0.00e+00	0	57	0	347078656	49	4192
2026-01-01 10:09:11.35	291.14	64.16	-43.8	-44.6	18.3	0.00e+00	0	57	0	350224384	49	4176
2026-01-01 10:09:12.34	291.94	63.88	-43.8	-44.6	18.3	0.00e+00	0	57	0	353370112	49	4178
2026-01-01 10:09:13.33	292.72	63.60	-44.1	-45.0	18.0	0.00e+00	0	57	0	356515840	50	4107
2026-01-01 10:09:14.32	293.49	63.32	-44.2	-45.1	18.0	0.00e+00	0	58	0	358612992	50	4162
2026-01-01 10:09:15.29	294.22	63.03	-44.8	-45.7	17.3	0.00e+00	0	57	0	361758720	51	4220
2026-01-01 10:09:16.29	294.95	62.74	-45.2	-46.3	16.6	0.00e+00	0	57	0	364904448	52	4253
2026-01-01 10:09:17.28	295.66	62.45	-44.6	-45.5	17.4	0.00e+00	0	57	0	368050176	52	3907
2026-01-01 10:09:18.27	296.36	62.15	-44.2	-45.0	17.9	0.00e+00	0	57	0	371195904	51	3885
2026-01-01 10:09:19.25	297.03	61.86	-44.1	-44.9	18.0	0.00e+00	0	57	0	374341632	51	3854
2026-01-01 10:09:20.24	297.69	61.56	-44.3	-45.2	17.9	0.00e+00	0	58	0	377487360	51	3966
2026-01-01 10:09:21.22	298.33	61.26	-44.6	-45.5	17.5	0.00e+00	0	57	0	380633088	51	4137
2026-01-01 10:09:22.22	298.96	60.95	-44.8	-45.8	17.2	0.00e+00	0	58	0	383778816	51	4269
2026-01-01 10:09:23.21	299.58	60.65	-44.9	-45.9	17.1	0.00e+00	0	58	0	386924544	51	4338
2026-01-01 10:09:24.19	300.17	60.35	-44.8	-45.8	17.1	0.00e+00	0	58	0	390070272	52	4023
2026-01-01 10:09:25.18	300.76	60.04	-43.7	-44.6	18.2	0.00e+00	0	57	0	393216000	50	3920
2026-01-01 10:09:26.17	301.33	59.73	-43.0	-43.7	19.1	0.00e+00	0	58	0	396361728	49	3752
2026-01-01 10:09:27.17	301.90	59.42	-42.8	-43.5	19.4	0.00e+00	0	57	0	399507456	48	3870
2026-01-01 10:09:28.16	302.44	59.11	-43.3	-44.1	18.9	0.00e+00	0	57	0	402653184	48	4147
2026-01-01 10:09:29.14	302.97	58.80	-44.2	-45.1	17.9	0.00e+00	0	57	0	405798912	50	4172
2026-01-01 10:09:30.13	303.49	58.49	-45.0	-46.1	16.9	0.00e+00	0	57	0	408944640	52	4171
2026-01-01 10:09:31.11	304.00	58.18	-45.1	-46.1	16.8	0.00e+00	0	58	0	412090368	52	4167
2026-01-01 10:09:32.11	304.50	57.87	-44.5	-45.5	17.2	0.00e+00	0	57	0	415236096	52	3879
2026-01-01 10:09:33.09	304.98	57.56	-44.1	-45.0	17.6	0.00e+00	0	57	0	417333248	51	3885
2026-01-01 10:09:34.08	305.46	57.24	-44.0	-44.8	18.0	0.00e+00	0	58	0	420478976	51	3789
2026-01-01 10:09:35.07	305.92	56.93	-44.2	-45.0	17.9	0.00e+00	0	57	0	423624704	51	3887
2026-01-01 10:09:36.07	306.38	56.62	-44.0	-44.8	18.1	0.00e+00	0	58	0	426770432	51	3812
2026-01-01 10:09:37.06	306.82	56.30	-44.8	-45.7	17.3	0.00e+00	0	57	0	429916160	51	4211
2026-01-01 10:09:38.04	307.25	55.99	-45.4	-46.5	16.5	0.00e+00	0	57	0	433061888	52	4358
2026-01-01 10:09:39.03	307.68	55.68	-45.8	-47.1	15.9	0.00e+00	0	58	0	436207616	53	4395
2026-01-01 10:09:40.02	308.09	55.37	-46.2	-47.5	15.1	0.00e+00	0	58	0	439353344	54	4373
2026-01-01 10:09:41.02	308.50	55.06	-45.9	-47.0	15.4	0.00e+00	0	57	0	442499072	54	4137
2026-01-01 10:09:42.00	308.90	54.75	-45.3	-46.4	16.1	0.00e+00	0	57	0	445644800	53	4065
2026-01-01 10:09:42.99	309.29	54.44	-44.9	-45.9	16.9	0.00e+00	0	57	0	448790528	52	4055
2026-01-01 10:09:43.99	309.67	54.12	-45.1	-46.1	16.8	0.00e+00	0	57	0	451936256	52	4147
2026-01-01 10:09:44.98	310.05	53.82	-45.2	-46.2	16.6	0.00e+00	0	58	0	455081984	52	4239
2026-01-01 10:09:45.98	310.41	53.50	-46.0	-47.2	15.6	0.00e+00	0	57	0	458227712	53	4477
2026-01-01 10:09:46.97	310.77	53.20	-46.2	-47.5	15.4	0.00e+00	0	57	0	461373440	54	4367
2026-01-01 10:09:47.96	311.12	52.89	-47.2	-48.8	14.3	0.00e+00	0	58	0	464519168	56	4524
2026-01-01 10:09:48.95	311.47	52.58	-47.1	-48.8	14.0	2.20e-06	0	58	0	467664896	56	4514
2026-01-01 10:09:49.94	311.80	52.28	-47.4	-49.0	13.8	7.00e-07	0	58	0	470810624	56	4621
2026-01-01 10:09:50.94	312.13	51.97	-46.5	-47.8	15.1	0.00e+00	0	57	0	473956352	56	4024
2026-01-01 10:09:51.93	312.46	51.67	-45.6	-46.7	16.1	0.00e+00	0	58	0	477102080	54	3967
2026-01-01 10:09:52.91	312.77	51.37	-45.3	-46.4	16.4	0.00e+00	0	57	0	480247808	53	4072
2026-01-01 10:09:53.89	313.08	51.07	-45.6	-46.8	16.1	0.00e+00	0	57	0	483393536	53	4253
2026-01-01 10:09:54.89	313.38	50.77	-45.8	-46.9	15.9	0.00e+00	0	57	0	485490688	53	4338
2026-01-01 10:09:55.88	313.68	50.47	-46.2	-47.5	15.5	0.00e+00	0	57	0	488636416	54	4344
2026-01-01 10:09:56.87	313.97	50.17	-47.1	-48.7	14.3	7.00e-07	0	57	0	491782144	55	4723
2026-01-01 10:09:57.87	314.26	49.87	-48.1	-50.2	13.0	1.52e-05	0	58	0	494927872	58	4716
2026-01-01 10:09:58.86	314.55	49.58	-48.9	-51.2	11.8	2.37e-04	0	58	0	498073600	59	5012
2026-01-01 10:09:59.85	314.82	49.28	-48.5	-50.8	12.2	4.20e-04	0	58	0	501219328	59	4763
2026-01-01 10:10:00.84	315.09	48.99	-47.6	-49.3	13.7	2.05e-05	0	58	0	504365056	58	4261
2026-01-01 10:10:01.82	315.36	48.70	-46.2	-47.5	15.3	0.00e+00	0	57	0	507510784	55	4105
2026-01-01 10:10:02.82	315.62	48.41	-45.6	-46.7	15.9	0.00e+00	0	57	0	510656512	54	3984
2026-01-01 10:10:03.81	315.88	48.12	-45.8	-47.0	15.8	0.00e+00	0	57	0	513802240	54	4101
2026-01-01 10:10:04.80	316.13	47.83	-46.0	-47.2	15.6	0.00e+00	0	57	0	516947968	54	4223
2026-01-01 10:10:05.79	316.37	47.55	-46.0	-47.2	15.7	0.00e+00	0	58	0	520093696	54	4224
2026-01-01 10:10:06.78	316.62	47.26	-46.0	-47.3	15.6	0.00e+00	0	57	0	523239424	54	4276
2026-01-01 10:10:07.76	316.85	46.98	-46.4	-47.7	15.3	0.00e+00	0	57	0	526385152	54	4478
2026-01-01 10:10:08.75	317.09	46.70	-46.7	-48.2	14.8	0.00e+00	0	58	0	529530880	55	4456
2026-01-01 10:10:09.75	317.32	46.42	-47.3	-49.0	14.1	0.00e+00	0	58	0	532676608	56	4600
2026-01-01 10:10:10.74	317.55	46.14	-47.3	-48.9	14.1	2.20e-06	0	58	0	535822336	56	4598
2026-01-01 10:10:11.73	317.77	45.86	-47.4	-49.1	13.9	2.20e-06	0	57	0	538968064	56	4693
2026-01-01 10:10:12.72	317.99	45.58	-47.5	-49.3	13.8	8.30e-06	0	57	0	542113792	57	4500
2026-01-01 10:10:13.70	318.20	45.31	-47.5	-49.1	13.9	3.00e-06	0	58	0	545259520	57	4429
2026-01-01 10:10:14.69	318.41	45.04	-47.4	-49.1	14.0	2.20e-06	0	57	0	547356672	57	4419
2026-01-01 10:10:15.68	318.62	44.77	-47.4	-49.1	13.9	1.50e-06	0	58	0	550502400	57	4426
2026-01-01 10:10:16.67	318.82	44.50	-47.5	-49.2	13.9	3.00e-06	0	58	0	553648128	57	4452
2026-01-01 10:10:17.66	319.02	44.23	-47.6	-49.4	13.6	3.80e-06	0	58	0	556793856	57	4573
2026-01-01 10:10:18.65	319.22	43.96	-48.2	-50.1	12.9	3.05e-05	0	57	0	559939584	58	4667
2026-01-01 10:10:19.63	319.41	43.70	-48.6	-50.7	12.3	9.23e-05	0	57	0	563085312	58	5004
2026-01-01 10:10:20.63	319.60	43.43	-48.6	-50.8	12.3	2.07e-04	0	57	0	566231040	59	4760
2026-01-01 10:10:21.62	319.79	43.17	-48.2	-50.2	12.8	8.62e-05	0	58	0	569376768	59	4492
2026-01-01 10:10:22.61	319.98	42.90	-48.0	-49.9	13.1	3.43e-05	0	58	0	572522496	59	4323
2026-01-01 10:10:23.60	320.16	42.64	-47.5	-49.2	13.8	3.80e-06	0	58	0	575668224	58	4233
2026-01-01 10:10:24.60	320.34	42.38	-47.7	-49.3	13.8	3.80e-06	0	58	0	578813952	58	4274
2026-01-01 10:10:25.59	320.52	42.13	-47.8	-49.5	13.6	1.44e-05	0	58	0	581959680	58	4366
2026-01-01 10:10:26.58	320.69	41.87	-47.8	-49.6	13.5	4.50e-06	0	57	0	585105408	58	4398
2026-01-01 10:10:27.57	320.86	41.62	-47.3	-48.9	14.1	2.20e-06	0	58	0	588251136	57	4323
2026-01-01 10:10:28.56	321.03	41.36	-46.8	-48.1	14.9	0.00e+00	0	57	0	591396864	56	4191
2026-01-01 10:10:29.54	321.20	41.12	-46.2	-47.4	15.5	0.00e+00	0	57	0	594542592	55	4097
2026-01-01 10:10:30.53	321.36	40.87	-46.1	-47.4	15.5	0.00e+00	0	57	0	597688320	55	4069
2026-01-01 10:10:31.52	321.52	40.62	-46.3	-47.6	15.3	0.00e+00	0	57	0	600834048	55	4191
2026-01-01 10:10:32.50	321.68	40.37	-46.5	-47.9	15.1	0.00e+00	0	57	0	603979776	55	4309
2026-01-01 10:10:33.49	321.83	40.13	-46.4	-47.7	15.2	0.00e+00	0	57	0	607125504	55	4220
2026-01-01 10:10:34.49	321.99	39.88	-46.3	-47.7	15.3	0.00e+00	0	57	0	609222656	55	4194
2026-01-01 10:10:35.48	322.14	39.64	-46.5	-47.9	15.1	7.00e-07	0	58	0	612368384	55	4300
2026-01-01 10:10:36.47	322.29	39.40	-46.5	-47.9	15.0	0.00e+00	0	58	0	615514112	55	4336
2026-01-01 10:10:37.46	322.44	39.16	-46.5	-48.0	14.9	0.00e+00	0	58	0	618659840	55	4347
2026-01-01 10:10:38.45	322.58	38.92	-46.6	-48.0	14.8	0.00e+00	0	58	0	621805568	55	4345
2026-01-01 10:10:39.45	322.73	38.68	-46.5	-48.0	14.9	7.00e-07	0	57	0	624951296	55	4341
2026-01-01 10:10:40.44	322.87	38.45	-46.5	-47.9	15.0	0.00e+00	0	58	0	628097024	55	4293
2026-01-01 10:10:41.43	323.01	38.22	-46.5	-47.8	15.0	0.00e+00	0	57	0	631242752	55	4285
2026-01-01 10:10:42.42	323.15	37.98	-46.4	-47.6	15.2	0.00e+00	0	58	0	634388480	55	4176
2026-01-01 10:10:43.41	323.28	37.75	-45.8	-47.0	15.9	0.00e+00	0	58	0	637534208	54	4136
2026-01-01 10:10:44.40	323.42	37.52	-45.6	-46.7	16.2	0.00e+00	0	58	0	640679936	54	3986
2026-01-01 10:10:45.39	323.55	37.30	-45.4	-46.5	16.4	0.00e+00	0	58	0	643825664	53	4107
2026-01-01 10:10:46.38	323.68	37.07	-45.5	-46.6	16.3	0.00e+00	0	58	0	646971392	53	4149
2026-01-01 10:10:47.37	323.81	36.85	-45.5	-46.7	16.2	0.00e+00	0	58	0	650117120	53	4202
2026-01-01 10:10:48.36	323.94	36.62	-45.5	-46.6	16.3	0.00e+00	0	57	0	653262848	53	4187
2026-01-01 10:10:49.35	324.06	36.40	-45.5	-46.6	16.3	0.00e+00	0	58	0	656408576	53	4175
2026-01-01 10:10:50.34	324.18	36.18	-45.6	-46.7	16.2	0.00e+00	0	57	0	659554304	53	4224
2026-01-01 10:10:51.33	324.31	35.96	-45.7	-46.9	16.0	0.00e+00	0	57	0	662700032	53	4303
2026-01-01 10:10:52.32	324.43	35.74	-45.6	-46.8	16.1	0.00e+00	0	57	0	665845760	53	4253
2026-01-01 10:10:53.31	324.55	35.53	-45.6	-46.7	16.2	0.00e+00	0	57	0	668991488	53	4210
2026-01-01 10:10:54.31	324.66	35.31	-45.7	-46.9	16.0	0.00e+00	0	58	0	672137216	53	4310
2026-01-01 10:10:55.31	324.78	35.09	-46.1	-47.4	15.5	0.00e+00	0	57	0	674234368	54	4309
2026-01-01 10:10:56.29	324.90	34.88	-46.3	-47.6	15.4	0.00e+00	0	57	0	677380096	54	4394
2026-01-01 10:10:57.28	325.01	34.67	-46.7	-48.2	14.7	7.00e-07	0	57	0	680525824	55	4446
2026-01-01 10:10:58.27	325.12	34.46	-46.7	-48.3	14.7	0.00e+00	0	57	0	683671552	55	4511
2026-01-01 10:10:59.25	325.23	34.25	-47.0	-48.6	14.3	3.00e-06	0	57	0	686817280	55	4701
2026-01-01 10:11:00.24	325.34	34.05	-46.6	-48.1	14.8	0.00e+00	0	57	0	689963008	55	4415
2026-01-01 10:11:01.23	325.45	33.84	-46.2	-47.6	15.3	0.00e+00	0	58	0	693108736	55	4186
2026-01-01 10:11:02.22	325.55	33.63	-46.0	-47.3	15.6	0.00e+00	0	57	0	696254464	55	4024
2026-01-01 10:11:03.21	325.66	33.43	-45.9	-47.2	15.7	0.00e+00	0	57	0	699400192	54	4201
2026-01-01 10:11:04.20	325.76	33.23	-45.9	-47.1	15.7	0.00e+00	0	57	0	702545920	54	4189
2026-01-01 10:11:05.19	325.86	33.03	-45.9	-47.1	15.7	0.00e+00	0	58	0	705691648	54	4183
2026-01-01 10:11:06.17	325.96	32.83	-45.4	-46.5	16.4	0.00e+00	0	57	0	708837376	53	4119
2026-01-01 10:11:07.16	326.06	32.63	-45.1	-46.1	16.7	0.00e+00	0	58	0	711983104	53	3927
2026-01-01 10:11:08.15	326.16	32.43	-44.9	-45.9	16.9	0.00e+00	0	58	0	715128832	53	3851
2026-01-01 10:11:09.13	326.26	32.24	-45.0	-46.0	16.8	0.00e+00	0	57	0	718274560	53	3900
2026-01-01 10:11:10.13	326.36	32.04	-45.0	-46.0	16.9	0.00e+00	0	58	0	721420288	53	3890
2026-01-01 10:11:11.11	326.45	31.85	-44.9	-46.0	16.9	0.00e+00	0	57	0	724566016	53	3877
2026-01-01 10:11:12.10	326.55	31.66	-45.0	-45.9	16.9	0.00e+00	0	58	0	727711744	53	3853
2026-01-01 10:11:13.10	326.64	31.46	-44.6	-45.6	17.3	0.00e+00	0	57	0	730857472	52	3922
2026-01-01 10:11:14.09	326.73	31.27	-44.4	-45.3	17.6	0.00e+00	0	58	0	732954624	51	4033
2026-01-01 10:11:15.07	326.82	31.09	-44.4	-45.2	17.7	0.00e+00	0	57	0	736100352	51	3992
2026-01-01 10:11:16.07	326.92	30.90	-44.4	-45.2	17.7	0.00e+00	0	58	0	739246080	51	3995
2026-01-01 10:11:17.05	327.00	30.71	-44.5	-45.5	17.5	0.00e+00	0	58	0	742391808	51	4103
2026-01-01 10:11:18.05	327.09	30.52	-44.6	-45.5	17.4	0.00e+00	0	58	0	745537536	51	4138
2026-01-01 10:11:19.04	327.18	30.34	-44.8	-45.8	17.1	0.00e+00	0	58	0	748683264	51	4256
2026-01-01 10:11:20.03	327.27	30.16	-44.7	-45.7	17.2	0.00e+00	0	58	0	751828992	51	4203
2026-01-01 10:11:21.03	327.35	29.97	-45.1	-46.1	16.8	0.00e+00	0	58	0	754974720	51	4423
2026-01-01 10:11:22.02	327.44	29.79	-44.9	-45.9	16.9	0.00e+00	0	58	0	758120448	52	4079
2026-01-01 10:11:23.01	327.52	29.61	-45.2	-46.2	16.6	0.00e+00	0	58	0	761266176	52	4229
2026-01-01 10:11:24.00	327.61	29.43	-45.0	-46.0	16.8	0.00e+00	0	58	0	764411904	52	4132
2026-01-01 10:11:25.00	327.69	29.25	-45.2	-46.2	16.6	0.00e+00	0	58	0	767557632	52	4227
2026-01-01 10:11:26.00	327.77	29.07	-45.1	-46.1	16.7	0.00e+00	0	58	0	770703360	52	4192
2026-01-01 10:11:26.99	327.85	28.90	-45.1	-46.2	16.7	0.00e+00	0	58	0	773849088	52	4210
2026-01-01 10:11:27.97	327.93	28.72	-45.1	-46.2	16.6	0.00e+00	0	58	0	776994816	52	4229
2026-01-01 10:11:28.96	328.01	28.55	-45.1	-46.2	16.7	0.00e+00	0	58	0	780140544	52	4210
2026-01-01 10:11:29.94	328.09	28.38	-45.2	-46.3	16.5	0.00e+00	0	58	0	783286272	52	4289
2026-01-01 10:11:30.93	328.16	28.21	-45.3	-46.5	16.3	0.00e+00	0	57	0	786432000	52	4364
2026-01-01 10:11:31.92	328.24	28.04	-45.2	-46.3	16.6	0.00e+00	0	57	0	789577728	52	4248
2026-01-01 10:11:32.90	328.31	27.87	-45.0	-46.1	16.7	0.00e+00	0	57	0	792723456	52	4162
2026-01-01 10:11:33.90	328.39	27.70	-45.0	-46.0	16.8	0.00e+00	0	57	0	795869184	52	4137
2026-01-01 10:11:34.89	328.46	27.53	-45.0	-46.0	16.8	0.00e+00	0	58	0	797966336	52	4108
2026-01-01 10:11:35.87	328.54	27.36	-45.0	-45.9	16.9	0.00e+00	0	58	0	801112064	52	4098
2026-01-01 10:11:36.86	328.61	27.20	-45.0	-46.1	16.7	0.00e+00	0	57	0	804257792	52	4162
2026-01-01 10:11:37.85	328.68	27.03	-44.9	-45.9	16.9	0.00e+00	0	58	0	807403520	52	4059
2026-01-01 10:11:38.84	328.75	26.87	-44.6	-45.5	17.3	0.00e+00	0	58	0	810549248	52	3897
2026-01-01 10:11:39.84	328.82	26.70	-44.4	-45.3	17.5	0.00e+00	0	58	0	813694976	51	4034
2026-01-01 10:11:40.82	328.89	26.54	-44.3	-45.2	17.7	0.00e+00	0	58	0	816840704	51	3988
2026-01-01 10:11:41.82	328.96	26.38	-44.1	-45.0	17.8	0.00e+00	0	57	0	819986432	51	3903
2026-01-01 10:11:42.80	329.03	26.22	-44.0	-44.9	18.0	0.00e+00	0	58	0	823132160	51	3828
2026-01-01 10:11:43.79	329.10	26.06	-44.1	-44.9	18.0	0.00e+00	0	57	0	826277888	51	3851
2026-01-01 10:11:44.78	329.17	25.91	-44.2	-45.0	17.8	0.00e+00	0	58	0	829423616	51	3895
2026-01-01 10:11:45.77	329.23	25.75	-44.4	-45.3	17.5	0.00e+00	0	58	0	832569344	51	4033
2026-01-01 10:11:46.76	329.30	25.59	-44.2	-45.1	17.7	0.00e+00	0	58	0	835715072	51	3940
2026-01-01 10:11:47.76	329.37	25.43	-43.9	-44.8	18.1	0.00e+00	0	58	0	838860800	51	3784
2026-01-01 10:11:48.75	329.43	25.28	-43.8	-44.6	18.2	0.00e+00	0	58	0	842006528	50	3940
2026-01-01 10:11:49.74	329.50	25.13	-43.8	-44.6	18.3	0.00e+00	0	57	0	845152256	50	3921
2026-01-01 10:11:50.73	329.56	24.97	-43.9	-44.7	18.1	0.00e+00	0	58	0	848297984	50	3979
2026-01-01 10:11:51.72	329.62	24.82	-43.9	-44.7	18.1	0.00e+00	0	58	0	851443712	50	3984
2026-01-01 10:11:52.71	329.69	24.67	-43.8	-44.6	18.2	0.00e+00	0	57	0	854589440	50	3946
2026-01-01 10:11:53.70	329.75	24.52	-43.8	-44.7	18.2	0.00e+00	0	58	0	857735168	50	3971
2026-01-01 10:11:54.69	329.81	24.37	-43.9	-44.7	18.1	0.00e+00	0	58	0	859832320	50	3993
2026-01-01 10:11:55.68	329.87	24.22	-44.0	-44.8	18.0	0.00e+00	0	57	0	862978048	50	4033
2026-01-01 10:11:56.66	329.93	24.07	-44.0	-44.8	18.0	0.00e+00	0	58	0	866123776	50	4040
2026-01-01 10:11:57.65	329.99	23.93	-44.1	-45.0	17.9	0.00e+00	0	58	0	869269504	50	4123
2026-01-01 10:11:58.65	330.05	23.78	-44.2	-45.0	17.8	0.00e+00	0	58	0	872415232	50	4127
2026-01-01 10:11:59.64	330.11	23.63	-44.3	-45.2	17.7	0.00e+00	0	58	0	875560960	50	4211
2026-01-01 10:12:00.62	330.17	23.49	-44.3	-45.2	17.6	0.00e+00	0	58	0	878706688	50	4233
2026-01-01 10:12:01.61	330.22	23.34	-44.3	-45.2	17.6	0.00e+00	0	58	0	881852416	50	4216
2026-01-01 10:12:02.60	330.28	23.20	-44.6	-45.6	17.3	0.00e+00	0	57	0	884998144	51	4170
2026-01-01 10:12:03.59	330.34	23.06	-44.8	-45.7	17.1	0.00e+00	0	57	0	888143872	51	4242
2026-01-01 10:12:04.58	330.40	22.92	-44.9	-45.8	17.0	0.00e+00	0	58	0	891289600	51	4275
2026-01-01 10:12:05.56	330.45	22.78	-44.8	-45.8	17.1	0.00e+00	0	58	0	894435328	51	4268
2026-01-01 10:12:06.55	330.51	22.64	-44.7	-45.7	17.2	0.00e+00	0	58	0	897581056	51	4211
2026-01-01 10:12:07.53	330.56	22.50	-44.7	-45.7	17.1	0.00e+00	0	58	0	900726784	51	4209
2026-01-01 10:12:08.52	330.62	22.36	-44.9	-45.9	17.0	0.00e+00	0	57	0	903872512	51	4311
2026-01-01 10:12:09.50	330.67	22.22	-44.9	-45.8	17.0	0.00e+00	0	58	0	907018240	51	4286
2026-01-01 10:12:10.48	330.72	22.09	-45.0	-46.0	16.9	0.00e+00	0	57	0	909115392	51	4349
2026-01-01 10:12:11.47	330.78	21.95	-45.0	-46.0	16.7	0.00e+00	0	57	0	912261120	52	4123
2026-01-01 10:12:12.46	330.83	21.81	-44.9	-45.9	16.8	0.00e+00	0	58	0	915406848	52	4091
2026-01-01 10:12:13.46	330.88	21.68	-45.0	-46.0	16.7	0.00e+00	0	58	0	918552576	52	4145
2026-01-01 10:12:14.45	330.93	21.54	-44.8	-45.8	17.0	0.00e+00	0	57	0	921698304	52	4009
2026-01-01 10:12:15.45	330.99	21.41	-44.5	-45.5	17.3	0.00e+00	0	57	0	924844032	52	3874
2026-01-01 10:12:16.44	331.04	21.27	-44.4	-45.4	17.4	0.00e+00	0	58	0	927989760	51	4057
2026-01-01 10:12:17.43	331.09	21.14	-44.4	-45.3	17.5	0.00e+00	0	58	0	931135488	51	4015
2026-01-01 10:12:18.42	331.14	21.01	-44.4	-45.3	17.5	0.00e+00	0	58	0	934281216	51	4030
2026-01-01 10:12:19.41	331.19	20.88	-44.4	-45.3	17.5	0.00e+00	0	58	0	937426944	51	4015
2026-01-01 10:12:20.40	331.24	20.75	-44.2	-45.1	17.7	0.00e+00	0	58	0	940572672	51	3949
2026-01-01 10:12:21.39	331.29	20.62	-44.3	-45.2	17.6	0.00e+00	0	58	0	943718400	51	3967
2026-01-01 10:12:22.38	331.34	20.49	-44.3	-45.2	17.6	0.00e+00	0	58	0	946864128	51	3987
2026-01-01 10:12:23.37	331.38	20.36	-44.4	-45.4	17.4	0.00e+00	0	58	0	950009856	51	4062
2026-01-01 10:12:24.35	331.43	20.23	-44.6	-45.5	17.2	0.00e+00	0	58	0	953155584	51	4145
2026-01-01 10:12:25.34	331.48	20.11	-44.4	-45.4	17.4	0.00e+00	0	57	0	956301312	51	4059
2026-01-01 10:12:26.33	331.53	19.98	-44.7	-45.7	17.1	0.00e+00	0	58	0	959447040	51	4194
2026-01-01 10:12:27.32	331.57	19.85	-44.8	-45.8	17.0	0.00e+00	0	58	0	962592768	51	4262
2026-01-01 10:12:28.32	331.62	19.73	-44.5	-45.5	17.3	0.00e+00	0	57	0	965738496	51	4128
2026-01-01 10:12:29.30	331.67	19.60	-44.5	-45.5	17.3	0.00e+00	0	57	0	968884224	51	4116
2026-01-01 10:12:30.29	331.71	19.48	-44.7	-45.7	17.1	0.00e+00	0	57	0	972029952	51	4210
2026-01-01 10:12:31.28	331.76	19.36	-44.9	-45.8	17.0	0.00e+00	0	57	0	974127104	51	4290
2026-01-01 10:12:32.27	331.80	19.23	-45.0	-46.1	16.6	0.00e+00	0	57	0	977272832	52	4154
2026-01-01 10:12:33.25	331.85	19.11	-44.8	-45.8	16.9	0.00e+00	0	57	0	980418560	52	4015
2026-01-01 10:12:34.25	331.89	18.99	-44.6	-45.6	17.1	0.00e+00	0	58	0	983564288	52	3930
2026-01-01 10:12:35.24	331.94	18.87	-44.5	-45.5	17.2	0.00e+00	0	58	0	986710016	52	3904
2026-01-01 10:12:36.23	331.98	18.75	-44.6	-45.6	17.1	0.00e+00	0	57	0	989855744	52	3914
2026-01-01 10:12:37.21	332.03	18.63	-44.7	-45.7	17.0	0.00e+00	0	58	0	993001472	52	3966
2026-01-01 10:12:38.19	332.07	18.51	-44.8	-45.8	16.9	0.00e+00	0	58	0	996147200	52	4027
2026-01-01 10:12:39.19	332.11	18.39	-44.6	-45.6	17.1	0.00e+00	0	58	0	999292928	52	3934
2026-01-01 10:12:40.18	332.16	18.27	-44.6	-45.5	17.1	0.00e+00	0	58	0	1002438656	52	3911
2026-01-01 10:12:41.16	332.20	18.15	-44.7	-45.7	16.9	0.00e+00	0	58	0	1005584384	52	3986
2026-01-01 10:12:42.15	332.24	18.04	-44.9	-45.9	16.7	0.00e+00	0	58	0	1008730112	52	4070
2026-01-01 10:12:43.14	332.28	17.92	-44.7	-45.6	17.0	0.00e+00	0	57	0	1011875840	52	3952
2026-01-01 10:12:44.13	332.32	17.80	-44.6	-45.6	17.0	0.00e+00	0	57	0	1015021568	52	3950
2026-01-01 10:12:45.12	332.37	17.69	-44.8	-45.8	16.8	0.00e+00	0	57	0	1018167296	52	4020
2026-01-01 10:12:46.12	332.41	17.57	-45.1	-46.1	16.5	0.00e+00	0	58	0	1021313024	52	4178
2026-01-01 10:12:47.10	332.45	17.46	-44.9	-45.9	16.7	0.00e+00	0	57	0	1024458752	52	4076
2026-01-01 10:12:48.10	332.49	17.34	-45.1	-46.2	16.5	0.00e+00	0	58	0	1027604480	52	4207
2026-01-01 10:12:49.09	332.53	17.23	-44.9	-46.0	16.7	0.00e+00	0	58	0	1030750208	52	4105
2026-01-01 10:12:50.08	332.57	17.12	-45.2	-46.3	16.3	0.00e+00	0	57	0	1032847360	52	4277
2026-01-01 10:12:51.07	332.61	17.00	-44.9	-46.0	16.6	0.00e+00	0	58	0	1035993088	52	4126
2026-01-01 10:12:52.07	332.65	16.89	-45.2	-46.3	16.4	0.00e+00	0	58	0	1039138816	52	4247
2026-01-01 10:12:53.05	332.69	16.78	-45.0	-46.1	16.6	0.00e+00	0	58	0	1042284544	52	4156
2026-01-01 10:12:54.04	332.73	16.67	-44.9	-46.0	16.6	0.00e+00	0	58	0	1045430272	52	4116
2026-01-01 10:12:55.03	332.76	16.56	-45.1	-46.2	16.4	0.00e+00	0	57	0	1048576000	52	4206
2026-01-01 10:12:56.01	332.80	16.45	-45.2	-46.3	16.3	0.00e+00	0	58	0	1051721728	52	4271
2026-01-01 10:12:57.01	332.84	16.34	-45.1	-46.2	16.4	0.00e+00	0	57	0	1054867456	52	4223
2026-01-01 10:12:58.00	332.88	16.23	-45.4	-46.6	16.1	0.00e+00	0	58	0	1058013184	52	4404
2026-01-01 10:12:58.99	332.92	16.12	-45.2	-46.2	16.4	0.00e+00	0	58	0	1061158912	52	4239
2026-01-01 10:12:59.98	332.95	16.01	-44.9	-46.0	16.6	0.00e+00	0	58	0	1064304640	52	4109
2026-01-01 10:13:00.98	332.99	15.91	-44.8	-45.8	16.8	0.00e+00	0	58	0	1067450368	52	4028
2026-01-01 10:13:01.97	333.03	15.80	-44.7	-45.7	16.9	0.00e+00	0	58	0	1070596096	52	3978
2026-01-01 10:13:02.96	333.07	15.69	-44.7	-45.7	16.9	0.00e+00	0	58	0	1073741824	52	4001
2026-01-01 10:13:03.95	333.10	15.59	-44.9	-45.9	16.6	0.00e+00	0	58	0	1076887552	52	4097
2026-01-01 10:13:04.93	333.14	15.48	-45.1	-46.2	16.4	0.00e+00	0	58	0	1080033280	52	4203
2026-01-01 10:13:05.92	333.18	15.38	-45.0	-46.0	16.6	0.00e+00	0	57	0	1083179008	52	4132
2026-01-01 10:13:06.92	333.21	15.27	-45.1	-46.2	16.5	0.00e+00	0	58	0	1086324736	52	4194
2026-01-01 10:13:07.91	333.25	15.16	-45.3	-46.5	16.2	0.00e+00	0	57	0	1089470464	52	4342
2026-01-01 10:13:08.90	333.28	15.06	-45.1	-46.2	16.4	0.00e+00	0	57	0	1092616192	52	4228
2026-01-01 10:13:09.90	333.32	14.96	-44.9	-46.0	16.6	0.00e+00	0	57	0	1095761920	52	4119
2026-01-01 10:13:10.88	333.35	14.85	-44.9	-45.9	16.6	0.00e+00	0	58	0	1097859072	52	4081
2026-01-01 10:13:11.86	333.39	14.75	-45.0	-46.0	16.5	0.00e+00	0	58	0	1101004800	52	4139
2026-01-01 10:13:12.86	333.42	14.65	-45.1	-46.2	16.3	0.00e+00	0	57	0	1104150528	52	4238
2026-01-01 10:13:13.84	333.46	14.55	-45.0	-46.1	16.5	0.00e+00	0	58	0	1107296256	52	4159
2026-01-01 10:13:14.84	333.49	14.45	-44.8	-45.9	16.7	0.00e+00	0	58	0	1110441984	52	4064
2026-01-01 10:13:15.82	333.52	14.35	-44.7	-45.8	16.8	0.00e+00	0	58	0	1113587712	52	4010
2026-01-01 10:13:16.80	333.56	14.25	-44.7	-45.7	16.8	0.00e+00	0	58	0	1116733440	52	3988
2026-01-01 10:13:17.80	333.59	14.14	-44.7	-45.7	16.8	0.00e+00	0	58	0	1119879168	52	3988
2026-01-01 10:13:18.79	333.63	14.04	-44.9	-45.9	16.6	0.00e+00	0	58	0	1123024896	52	4089
2026-01-01 10:13:19.77	333.66	13.95	-44.8	-45.8	16.7	0.00e+00	0	58	0	1126170624	52	4042
2026-01-01 10:13:20.76	333.69	13.85	-44.7	-45.7	16.8	0.00e+00	0	57	0	1129316352	52	3995
2026-01-01 10:13:21.74	333.72	13.75	-44.8	-45.8	16.7	0.00e+00	0	57	0	1132462080	52	4036
2026-01-01 10:13:22.73	333.76	13.65	-45.0	-46.1	16.5	0.00e+00	0	58	0	1135607808	52	4149
2026-01-01 10:13:23.71	333.79	13.55	-45.0	-46.1	16.4	0.00e+00	0	58	0	1138753536	52	4149
2026-01-01 10:13:24.70	333.82	13.46	-45.0	-46.1	16.4	0.00e+00	0	58	0	1141899264	52	4166
2026-01-01 10:13:25.69	333.85	13.36	-45.1	-46.2	16.3	0.00e+00	0	57	0	1145044992	52	4232
2026-01-01 10:13:26.68	333.88	13.26	-45.1	-46.3	16.3	0.00e+00	0	57	0	1148190720	52	4244
2026-01-01 10:13:27.67	333.92	13.17	-45.2	-46.4	16.2	0.00e+00	0	57	0	1151336448	52	4303
2026-01-01 10:13:28.65	333.95	13.07	-45.2	-46.3	16.2	0.00e+00	0	58	0	1154482176	52	4279
2026-01-01 10:13:29.64	333.98	12.98	-45.2	-46.3	16.2	0.00e+00	0	57	0	1156579328	52	4264
2026-01-01 10:13:30.63	334.01	12.88	-45.1	-46.3	16.2	0.00e+00	0	57	0	1159725056	52	4271
2026-01-01 10:13:31.62	334.04	12.79	-45.2	-46.4	16.1	0.00e+00	0	57	0	1162870784	52	4304
2026-01-01 10:13:32.60	334.07	12.69	-45.1	-46.3	16.2	0.00e+00	0	58	0	1166016512	52	4248
2026-01-01 10:13:33.60	334.10	12.60	-45.3	-46.5	16.0	0.00e+00	0	57	0	1169162240	52	4347
2026-01-01 10:13:34.59	334.13	12.50	-45.3	-46.5	16.0	0.00e+00	0	58	0	1172307968	52	4346
2026-01-01 10:13:35.58	334.16	12.41	-45.3	-46.4	16.0	0.00e+00	0	58	0	1175453696	52	4333
2026-01-01 10:13:36.58	334.19	12.32	-45.4	-46.6	15.9	0.00e+00	0	58	0	1178599424	52	4413
2026-01-01 10:13:37.57	334.22	12.22	-45.5	-46.7	15.8	0.00e+00	0	58	0	1181745152	52	4470
2026-01-01 10:13:38.55	334.25	12.13	-45.5	-46.7	15.7	0.00e+00	0	57	0	1184890880	52	4484
2026-01-01 10:13:39.53	334.28	12.04	-45.5	-46.8	15.7	0.00e+00	0	57	0	1188036608	52	4504
2026-01-01 10:13:40.52	334.31	11.95	-45.7	-47.0	15.5	0.00e+00	0	57	0	1191182336	53	4351
2026-01-01 10:13:41.51	334.34	11.86	-45.7	-47.0	15.4	0.00e+00	0	58	0	1194328064	53	4374
2026-01-01 10:13:42.50	334.37	11.77	-45.7	-47.0	15.5	0.00e+00	0	57	0	1197473792	53	4350
2026-01-01 10:13:43.49	334.40	11.68	-45.9	-47.2	15.2	0.00e+00	0	58	0	1200619520	53	4476
2026-01-01 10:13:44.48	334.43	11.59	-45.9	-47.3	15.1	0.00e+00	0	58	0	1203765248	53	4501
2026-01-01 10:13:45.47	334.46	11.50	-45.9	-47.3	15.2	0.00e+00	0	57	0	1206910976	53	4503
2026-01-01 10:13:46.46	334.49	11.41	-45.9	-47.3	15.2	0.00e+00	0	58	0	1210056704	53	4497
2026-01-01 10:13:47.45	334.52	11.32	-45.9	-47.2	15.2	0.00e+00	0	58	0	1213202432	53	4482
2026-01-01 10:13:48.45	334.54	11.23	-45.8	-47.1	15.3	0.00e+00	0	58	0	1216348160	53	4421
2026-01-01 10:13:49.44	334.57	11.14	-45.8	-47.2	15.2	0.00e+00	0	58	0	1218445312	53	4459
2026-01-01 10:13:50.44	334.60	11.05	-45.9	-47.3	15.0	0.00e+00	0	58	0	1221591040	53	4539
2026-01-01 10:13:51.43	334.63	10.96	-46.1	-47.5	14.8	0.00e+00	0	58	0	1224736768	54	4377
2026-01-01 10:13:52.42	334.66	10.87	-46.1	-47.4	15.0	0.00e+00	0	58	0	1227882496	54	4333
2026-01-01 10:13:53.41	334.68	10.79	-46.3	-47.8	14.6	0.00e+00	0	58	0	1231028224	54	4521
2026-01-01 10:13:54.40	334.71	10.70	-46.5	-48.0	14.4	1.50e-06	0	58	0	1234173952	55	4370
2026-01-01 10:13:55.40	334.74	10.61	-46.3	-47.7	14.6	7.00e-07	0	58	0	1237319680	55	4221
2026-01-01 10:13:56.38	334.77	10.52	-45.9	-47.3	15.1	0.00e+00	0	58	0	1240465408	55	4023
2026-01-01 10:13:57.36	334.79	10.44	-45.7	-47.0	15.3	0.00e+00	0	58	0	1243611136	54	4128
2026-01-01 10:13:58.35	334.82	10.35	-45.6	-46.9	15.4	0.00e+00	0	58	0	1246756864	54	4086
2026-01-01 10:13:59.34	334.85	10.27	-45.6	-46.9	15.5	0.00e+00	0	58	0	1249902592	54	4053
2026-01-01 10:14:00.33	334.87	10.18	-45.6	-46.9	15.4	0.00e+00	0	57	0	1253048320	54	4078
2026-01-01 10:14:01.32	334.90	10.10	-45.6	-46.9	15.5	0.00e+00	0	58	0	1256194048	54	4056
2026-01-01 10:14:02.31	334.93	10.01	-45.8	-47.1	15.2	0.00e+00	0	57	0	1259339776	54	4159
2026-01-01 10:14:03.30	334.95	9.93	-45.9	-47.3	15.0	0.00e+00	0	57	0	1262485504	54	4266
2026-01-01 10:14:04.29	334.98	9.84	-45.7	-47.0	15.3	0.00e+00	0	58	0	1265631232	54	4143
2026-01-01 10:14:05.29	335.01	9.76	-45.7	-47.1	15.2	0.00e+00	0	58	0	1268776960	54	4149
2026-01-01 10:14:06.28	335.03	9.67	-45.8	-47.2	15.1	0.00e+00	0	58	0	1271922688	54	4212
2026-01-01 10:14:07.27	335.06	9.59	-45.9	-47.4	15.0	7.00e-07	0	58	0	1275068416	54	4294
2026-01-01 10:14:08.26	335.08	9.51	-46.0	-47.4	14.9	7.00e-07	0	58	0	1278214144	54	4311
2026-01-01 10:14:09.25	335.11	9.43	-46.0	-47.4	14.9	0.00e+00	0	58	0	1280311296	54	4327
2026-01-01 10:14:10.24	335.13	9.34	-46.1	-47.5	14.8	0.00e+00	0	58	0	1283457024	54	4342
2026-01-01 10:14:11.22	335.16	9.26	-46.0	-47.4	14.9	0.00e+00	0	58	0	1286602752	54	4320
2026-01-01 10:14:12.22	335.19	9.18	-46.1	-47.5	14.8	0.00e+00	0	58	0	1289748480	54	4368
2026-01-01 10:14:13.21	335.21	9.10	-46.3	-47.8	14.5	0.00e+00	0	58	0	1292894208	54	4505
2026-01-01 10:14:14.20	335.24	9.02	-46.4	-47.9	14.4	0.00e+00	0	57	0	1296039936	54	4558
2026-01-01 10:14:15.18	335.26	8.93	-46.3	-47.7	14.5	3.00e-06	0	58	0	1299185664	54	4485
2026-01-01 10:14:16.17	335.29	8.85	-46.1	-47.5	14.7	0.00e+00	0	58	0	1302331392	54	4379
2026-01-01 10:14:17.16	335.31	8.77	-46.2	-47.6	14.7	0.00e+00	0	58	0	1305477120	54	4405
2026-01-01 10:14:18.15	335.33	8.69	-46.2	-47.6	14.6	0.00e+00	0	58	0	1308622848	54	4441
2026-01-01 10:14:19.15	335.36	8.61	-46.1	-47.6	14.7	0.00e+00	0	58	0	1311768576	54	4404
2026-01-01 10:14:20.14	335.38	8.53	-46.3	-47.8	14.4	1.50e-06	0	58	0	1314914304	54	4539
2026-01-01 10:14:21.13	335.41	8.45	-46.2	-47.7	14.5	7.00e-07	0	58	0	1318060032	54	4457
2026-01-01 10:14:22.11	335.43	8.37	-46.4	-47.9	14.2	0.00e+00	0	58	0	1321205760	54	4591
2026-01-01 10:14:23.10	335.46	8.29	-46.2	-47.7	14.5	7.00e-07	0	57	0	1324351488	54	4454
2026-01-01 10:14:24.09	335.48	8.21	-46.0	-47.5	14.6	7.00e-07	0	58	0	1327497216	54	4386
2026-01-01 10:14:25.07	335.50	8.14	-46.0	-47.5	14.7	0.00e+00	0	58	0	1330642944	54	4353
2026-01-01 10:14:26.06	335.53	8.06	-46.0	-47.5	14.7	0.00e+00	0	58	0	1333788672	54	4362
2026-01-01 10:14:27.04	335.55	7.98	-46.0	-47.5	14.7	7.00e-07	0	58	0	1336934400	54	4372
2026-01-01 10:14:28.03	335.57	7.90	-46.1	-47.6	14.6	0.00e+00	0	57	0	1339031552	54	4399
2026-01-01 10:14:29.02	335.60	7.83	-46.2	-47.7	14.4	7.00e-07	0	58	0	1342177280	54	4493
2026-01-01 10:14:30.01	335.62	7.75	-46.2	-47.7	14.4	2.20e-06	0	57	0	1345323008	54	4473
2026-01-01 10:14:30.99	335.64	7.67	-46.1	-47.6	14.5	7.00e-07	0	58	0	1348468736	54	4417
2026-01-01 10:14:31.98	335.67	7.59	-46.2	-47.7	14.4	7.00e-07	0	58	0	1351614464	54	4488
2026-01-01 10:14:32.97	335.69	7.52	-46.1	-47.7	14.4	0.00e+00	0	58	0	1354760192	54	4443
2026-01-01 10:14:33.96	335.71	7.44	-46.2	-47.7	14.3	0.00e+00	0	58	0	1357905920	54	4493
2026-01-01 10:14:34.94	335.73	7.36	-46.2	-47.7	14.3	7.00e-07	0	58	0	1361051648	54	4483
2026-01-01 10:14:35.94	335.76	7.29	-46.3	-47.9	14.2	0.00e+00	0	58	0	1364197376	54	4550
2026-01-01 10:14:36.93	335.78	7.21	-46.5	-48.1	14.0	3.00e-06	0	58	0	1367343104	54	4687
2026-01-01 10:14:37.92	335.80	7.14	-46.5	-48.1	14.0	2.20e-06	0	58	0	1370488832	54	4687
2026-01-01 10:14:38.91	335.83	7.06	-46.5	-48.2	13.9	7.00e-07	0	58	0	1373634560	54	4708
2026-01-01 10:14:39.90	335.85	6.99	-46.6	-48.3	13.8	1.50e-06	0	58	0	1376780288	55	4502
2026-01-01 10:14:40.89	335.87	6.91	-46.5	-48.2	13.9	5.30e-06	0	58	0	1379926016	55	4448
2026-01-01 10:14:41.88	335.89	6.84	-46.7	-48.4	13.6	6.10e-06	0	58	0	1383071744	55	4578
2026-01-01 10:14:42.87	335.91	6.76	-46.8	-48.6	13.4	2.05e-05	0	58	0	1386217472	55	4666
2026-01-01 10:14:43.85	335.94	6.69	-46.7	-48.4	13.6	7.60e-06	0	58	0	1389363200	55	4590
2026-01-01 10:14:44.85	335.96	6.61	-46.9	-48.7	13.3	8.30e-06	0	58	0	1392508928	55	4723
2026-01-01 10:14:45.83	335.98	6.54	-46.8	-48.6	13.3	1.90e-05	0	58	0	1394606080	55	4700
2026-01-01 10:14:46.82	336.00	6.46	-47.0	-48.8	13.2	2.51e-05	0	58	0	1397751808	55	4803
2026-01-01 10:14:47.81	336.02	6.39	-47.0	-48.8	13.2	1.83e-05	0	58	0	1400897536	55	4768
2026-01-01 10:14:48.80	336.04	6.32	-47.2	-49.1	13.0	3.05e-05	0	58	0	1404043264	56	4665
2026-01-01 10:14:49.79	336.07	6.24	-47.1	-48.9	13.2	3.28e-05	0	58	0	1407188992	56	4565
2026-01-01 10:14:50.79	336.09	6.17	-46.9	-48.7	13.4	7.60e-06	0	58	0	1410334720	56	4459
2026-01-01 10:14:51.78	336.11	6.10	-46.8	-48.5	13.6	1.22e-05	0	58	0	1413480448	56	4354
2026-01-01 10:14:52.77	336.13	6.03	-46.9	-48.6	13.4	1.06e-05	0	58	0	1416626176	56	4434
2026-01-01 10:14:53.75	336.15	5.95	-46.9	-48.6	13.4	1.52e-05	0	57	0	1419771904	56	4437
2026-01-01 10:14:54.74	336.17	5.88	-46.9	-48.7	13.3	2.21e-05	0	58	0	1422917632	56	4463
2026-01-01 10:14:55.73	336.19	5.81	-46.8	-48.6	13.3	1.29e-05	0	58	0	1426063360	56	4438
2026-01-01 10:14:56.72	336.21	5.74	-47.0	-48.8	13.2	2.13e-05	0	58	0	1429209088	56	4526
2026-01-01 10:14:57.72	336.24	5.67	-47.1	-49.0	13.0	3.28e-05	0	58	0	1432354816	56	4619
2026-01-01 10:14:58.71	336.26	5.59	-47.1	-49.0	13.0	4.73e-05	0	58	0	1435500544	56	4611
2026-01-01 10:14:59.69	336.28	5.52	-47.2	-49.1	12.9	4.34e-05	0	58	0	1438646272	56	4663
2026-01-01 10:15:00.67	336.30	5.45	-47.3	-49.2	12.8	6.79e-05	0	58	0	1441792000	56	4754
2026-01-01 10:15:01.67	336.32	5.38	-47.3	-49.3	12.7	8.85e-05	0	58	0	1444937728	56	4801
2026-01-01 10:15:02.65	336.34	5.31	-47.3	-49.3	12.7	5.49e-05	0	58	0	1448083456	56	4792
2026-01-01 10:15:03.64	336.36	5.24	-47.4	-49.4	12.5	9.53e-05	0	58	0	1450180608	56	4867
2026-01-01 10:15:04.63	336.38	5.17	-47.4	-49.5	12.5	1.18e-04	0	58	0	1453326336	56	4894
2026-01-01 10:15:05.63	336.40	5.10	-47.4	-49.5	12.5	1.09e-04	0	58	0	1456472064	56	4882
2026-01-01 10:15:06.62	336.42	5.03	-47.6	-49.8	12.2	1.83e-04	0	58	0	1459617792	57	4762
2026-01-01 10:15:07.60	336.44	4.96	-51.6	-62.8	3.8	1.49e+00	0	58	104	1461714944	65	13444
2026-01-01 10:15:08.59	336.46	4.89	-52.0	-63.3	3.8	1.49e+00	0	58	104	1461714944	65	14273
2026-01-01 10:15:09.58	336.48	4.82	-52.2	-63.6	3.8	1.49e+00	0	58	104	1461714944	66	14035
2026-01-01 10:15:10.58	336.50	4.75	-52.3	-63.8	3.8	1.49e+00	0	58	104	1461714944	66	14280
2026-01-01 10:15:11.56	336.52	4.68	-52.4	-63.9	3.8	1.49e+00	0	58	104	1461714944	66	14382
2026-01-01 10:15:12.55	336.54	4.62	-52.2	-63.7	3.8	1.49e+00	0	58	104	1461714944	66	14102
2026-01-01 10:15:13.55	336.56	4.55	-52.1	-63.7	3.8	1.49e+00	0	58	104	1461714944	66	14134
2026-01-01 10:15:14.54	336.58	4.48	-52.4	-64.0	3.8	1.49e+00	0	58	104	1461714944	66	14552
2026-01-01 10:15:15.53	336.60	4.41	-52.6	-64.0	3.8	1.49e+00	0	58	104	1461714944	67	13829
2026-01-01 10:15:16.52	336.62	4.34	-52.6	-64.1	3.8	1.49e+00	0	58	104	1461714944	67	13947
2026-01-01 10:15:17.51	336.64	4.27	-52.6	-64.1	3.8	1.49e+00	0	58	104	1461714944	67	13927
2026-01-01 10:15:18.50	336.65	4.21	-52.7	-64.1	3.8	1.49e+00	0	58	104	1461714944	67	13981
2026-01-01 10:15:19.49	336.67	4.14	-52.7	-64.1	3.8	1.49e+00	0	58	104	1461714944	67	14032
2026-01-01 10:15:20.47	336.69	4.07	-52.7	-64.2	3.8	1.49e+00	0	58	104	1461714944	67	14051
2026-01-01 10:15:21.46	336.71	4.00	-52.7	-64.2	3.8	1.49e+00	0	58	104	1461714944	67	14096
2026-01-01 10:15:22.46	336.73	3.94	-52.8	-64.2	3.8	1.49e+00	0	58	104	1461714944	67	14115
2026-01-01 10:15:23.45	336.75	3.87	-52.8	-64.2	3.8	1.49e+00	0	58	104	1461714944	67	14177
2026-01-01 10:15:24.44	336.77	3.80	-52.8	-64.2	3.8	1.49e+00	0	58	104	1461714944	67	14192
2026-01-01 10:15:25.43	336.79	3.74	-52.7	-64.2	3.8	1.49e+00	0	58	104	1461714944	67	14122
2026-01-01 10:15:26.42	336.81	3.67	-52.8	-64.2	3.8	1.49e+00	0	58	104	1461714944	67	14191
2026-01-01 10:15:27.41	336.82	3.60	-52.8	-64.3	3.8	1.49e+00	0	58	104	1461714944	67	14250
2026-01-01 10:15:28.40	336.84	3.54	-52.8	-64.3	3.8	1.49e+00	0	58	104	1461714944	67	14257
2026-01-01 10:15:29.39	336.86	3.47	-52.8	-64.3	3.8	1.49e+00	0	58	104	1461714944	67	14238
2026-01-01 10:15:30.38	336.88	3.40	-52.9	-64.3	3.8	1.49e+00	0	58	104	1461714944	67	14259
2026-01-01 10:15:31.37	336.90	3.34	-52.7	-64.3	3.8	1.49e+00	0	58	104	1461714944	67	14268
2026-01-01 10:15:32.36	336.92	3.27	-52.9	-64.3	3.8	1.49e+00	0	58	104	1461714944	67	14278
2026-01-01 10:15:33.35	336.94	3.21	-52.9	-64.3	3.8	1.49e+00	0	58	104	1461714944	67	14264
2026-01-01 10:15:34.35	336.95	3.14	-52.8	-64.3	3.8	1.49e+00	0	58	104	1461714944	67	14235
2026-01-01 10:15:35.33	336.97	3.08	-52.8	-64.3	3.8	1.49e+00	0	58	104	1461714944	67	14241
2026-01-01 10:15:36.33	336.99	3.01	-52.7	-64.2	3.8	1.49e+00	0	58	104	1461714944	67	14182
2026-01-01 10:15:37.31	337.01	2.95	-52.7	-64.2	3.8	1.49e+00	0	58	104	1461714944	67	14176

#Closed at: 2026-01-01 10:15:37
#Recorded file [1461 MB]: D:/Data/31026_260101_131507.dat