passes_logs/2026/01/01/R3.0SM8_Murmansk_STILSPACE/R3.0SM8_Murmansk_STILSPACE__20260101_050303_FENGYUN_3E_rec.log

#Pass ID: 20260101_050303_FENGYUN 3E
#Satellite: FENGYUN 3E
#Configuration: FENGYUN 3E
#almurnet v.1.7.20240730
#Start time: 2026-01-01 05:08:53

#Version: 2.2.20231116
#Station: R3.0SM8_Murmansk_STILSPACE
#Location: 33.092731 lon 68.902999 lat
#TLE: 1 49008U 21062A   25365.55977344  .00000403  00000+0  21051-3 0  9995
#TLE: 2 49008  98.7483   5.8586 0001311 170.0615 190.0588 14.19883886232790

#Time	Az	El	Level	Level2	SNR	BER	BlckErr	Temp	State	Recorded	gain1	gain2
2026-01-01 05:08:53.66	20.30	57.06	-53.0	-63.7	3.8	8.47e-01	0	62	0	0	67	13313
2026-01-01 05:08:54.64	20.20	57.44	-53.0	-63.2	3.8	8.46e-01	0	62	104	0	68	11710
2026-01-01 05:08:55.63	20.10	57.83	-53.0	-63.1	3.8	8.46e-01	0	63	104	0	68	11665
2026-01-01 05:08:56.61	20.00	58.21	-53.0	-63.1	3.8	8.46e-01	0	62	104	0	68	11661
2026-01-01 05:08:57.60	19.90	58.60	-53.0	-63.1	3.8	8.45e-01	0	62	104	0	68	11665
2026-01-01 05:08:58.58	19.79	58.99	-53.0	-63.1	3.8	8.46e-01	0	63	104	0	68	11642
2026-01-01 05:08:59.57	19.68	59.38	-53.0	-63.2	3.8	8.45e-01	0	63	104	0	68	11692
2026-01-01 05:09:00.56	19.56	59.78	-53.0	-63.1	3.8	8.45e-01	0	62	104	0	68	11617
2026-01-01 05:09:01.55	19.44	60.18	-53.0	-63.1	3.8	8.46e-01	0	62	104	0	68	11648
2026-01-01 05:09:02.53	19.32	60.57	-53.0	-63.1	3.8	8.46e-01	0	62	104	0	68	11604
2026-01-01 05:09:03.51	19.19	60.97	-53.0	-63.0	3.8	8.46e-01	0	63	104	0	68	11545
2026-01-01 05:09:04.50	19.06	61.38	-53.0	-63.1	3.8	8.47e-01	0	63	104	0	68	11560
2026-01-01 05:09:05.49	18.92	61.79	-53.0	-63.1	3.8	8.47e-01	0	62	104	0	68	11571
2026-01-01 05:09:06.47	18.78	62.20	-53.0	-63.0	3.8	8.47e-01	0	62	104	0	68	11533
2026-01-01 05:09:07.45	18.64	62.61	-53.0	-63.1	3.8	8.48e-01	0	62	104	0	68	11674
2026-01-01 05:09:08.43	18.49	63.02	-52.9	-63.1	3.8	8.46e-01	0	63	104	0	68	11683
2026-01-01 05:09:09.42	18.33	63.43	-53.0	-63.2	3.8	8.46e-01	0	63	104	0	68	11714
2026-01-01 05:09:10.39	18.17	63.85	-53.0	-63.1	3.8	8.45e-01	0	63	104	0	68	11604
2026-01-01 05:09:11.38	18.00	64.27	-53.0	-63.2	3.8	8.46e-01	0	62	104	0	68	11724
2026-01-01 05:09:12.36	17.83	64.69	-53.0	-63.1	3.8	8.46e-01	0	63	104	0	68	11579
2026-01-01 05:09:13.34	17.64	65.11	-53.0	-63.0	3.8	8.47e-01	0	63	104	0	68	11534
2026-01-01 05:09:14.33	17.45	65.54	-53.0	-63.1	3.8	8.46e-01	0	63	104	0	68	11598
2026-01-01 05:09:15.31	17.26	65.97	-53.0	-63.1	3.8	8.46e-01	0	63	104	0	68	11651
2026-01-01 05:09:16.30	17.05	66.40	-53.0	-63.1	3.8	8.46e-01	0	63	104	0	68	11651
2026-01-01 05:09:17.28	16.84	66.83	-53.0	-63.1	3.8	8.47e-01	0	63	104	0	68	11644
2026-01-01 05:09:18.27	16.62	67.27	-53.0	-63.0	3.8	8.46e-01	0	63	104	0	68	11548
2026-01-01 05:09:19.25	16.39	67.70	-52.8	-63.1	3.8	8.46e-01	0	63	104	0	68	11551
2026-01-01 05:09:20.23	16.15	68.14	-53.0	-63.1	3.8	8.46e-01	0	62	104	0	68	11582
2026-01-01 05:09:21.22	15.89	68.58	-53.0	-63.0	3.8	8.46e-01	0	63	104	0	68	11525
2026-01-01 05:09:22.20	15.63	69.02	-53.0	-63.1	3.8	8.46e-01	0	63	104	0	68	11603
2026-01-01 05:09:23.19	15.35	69.47	-53.0	-63.1	3.8	8.47e-01	0	63	104	0	68	11657
2026-01-01 05:09:24.18	15.06	69.92	-53.0	-63.1	3.8	8.46e-01	0	63	104	0	68	11664
2026-01-01 05:09:25.16	14.76	70.36	-53.0	-63.1	3.8	8.46e-01	0	63	104	0	68	11603
2026-01-01 05:09:26.14	14.44	70.81	-53.0	-63.1	3.8	8.46e-01	0	62	104	0	68	11575
2026-01-01 05:09:27.13	14.10	71.26	-53.0	-63.0	3.8	8.46e-01	0	63	104	0	68	11473
2026-01-01 05:09:28.11	13.75	71.71	-53.0	-63.0	3.8	8.45e-01	0	63	104	0	68	11419
2026-01-01 05:09:29.10	13.37	72.16	-53.0	-63.0	3.8	8.45e-01	0	63	104	0	68	11497
2026-01-01 05:09:30.08	12.98	72.62	-53.0	-63.0	3.8	8.47e-01	0	63	104	0	68	11514
2026-01-01 05:09:31.06	12.56	73.07	-53.0	-63.0	3.8	8.47e-01	0	63	104	0	68	11490
2026-01-01 05:09:32.05	12.12	73.53	-53.0	-63.1	3.8	8.46e-01	0	63	104	0	68	11599
2026-01-01 05:09:33.03	11.65	73.98	-53.0	-63.0	3.8	8.46e-01	0	63	104	0	68	11535
2026-01-01 05:09:34.01	11.16	74.43	-53.0	-63.0	3.8	8.47e-01	0	63	104	0	68	11424
2026-01-01 05:09:35.00	10.63	74.89	-53.0	-62.9	3.8	8.46e-01	0	62	104	0	68	11385
2026-01-01 05:09:35.99	10.06	75.35	-53.0	-62.7	3.8	8.47e-01	0	63	104	0	68	11139
2026-01-01 05:09:36.98	9.46	75.81	-52.9	-62.4	3.8	8.45e-01	0	63	104	0	68	10749
2026-01-01 05:09:37.96	8.82	76.27	-52.9	-62.4	3.8	8.46e-01	0	63	104	0	68	10685
2026-01-01 05:09:38.95	8.12	76.73	-53.0	-62.5	3.8	8.47e-01	0	62	104	0	68	10787
2026-01-01 05:09:39.94	7.38	77.19	-52.9	-62.5	3.8	8.47e-01	0	63	104	0	68	10858
2026-01-01 05:09:40.93	6.58	77.65	-52.8	-61.6	3.8	8.46e-01	0	63	104	0	68	9765
2026-01-01 05:09:41.91	5.72	78.10	-52.6	-60.1	3.9	8.44e-01	0	63	104	0	68	8233
2026-01-01 05:09:42.89	4.79	78.55	-52.7	-60.8	4.0	8.43e-01	0	63	104	0	68	8865
2026-01-01 05:09:43.87	3.79	79.00	-52.8	-61.7	3.8	8.45e-01	0	63	104	0	68	9942
2026-01-01 05:09:44.86	2.69	79.45	-53.0	-62.9	3.8	8.45e-01	0	63	104	0	68	11352
2026-01-01 05:09:45.85	1.48	79.90	-52.6	-60.3	3.9	8.46e-01	0	62	104	0	68	8391
2026-01-01 05:09:46.82	0.19	80.33	-48.5	-50.3	11.6	5.44e-02	0	63	0	3145728	60	4221
2026-01-01 05:09:47.78	358.80	80.76	-42.9	-43.6	18.5	0.00e+00	0	63	0	10485760	49	3661
2026-01-01 05:09:48.75	357.24	81.18	-41.3	-41.8	20.0	0.00e+00	0	63	0	16777216	45	3763
2026-01-01 05:09:49.72	355.54	81.60	-42.5	-43.2	18.8	0.00e+00	0	63	0	24117248	46	4148
2026-01-01 05:09:50.69	353.65	82.02	-42.1	-42.7	19.2	0.00e+00	0	63	0	31457280	47	3707
2026-01-01 05:09:51.65	351.57	82.41	-41.3	-41.9	19.9	0.00e+00	0	63	0	37748736	45	3786
2026-01-01 05:09:52.62	349.24	82.81	-40.6	-41.1	20.8	0.00e+00	0	63	0	45088768	44	3653
2026-01-01 05:09:53.59	346.65	83.19	-39.7	-40.2	21.4	0.00e+00	0	63	0	52428800	42	3714
2026-01-01 05:09:54.57	343.72	83.56	-39.8	-40.3	21.3	0.00e+00	0	63	0	59768832	42	3755
2026-01-01 05:09:55.54	340.47	83.90	-40.1	-40.6	21.1	0.00e+00	0	63	0	66060288	42	3874
2026-01-01 05:09:56.50	336.89	84.22	-40.5	-41.0	20.7	0.00e+00	0	63	0	73400320	42	4068
2026-01-01 05:09:57.47	332.85	84.52	-40.5	-41.0	20.7	0.00e+00	0	63	0	80740352	43	3828
2026-01-01 05:09:58.43	328.42	84.79	-40.2	-40.7	21.0	0.00e+00	0	63	0	87031808	43	3708
2026-01-01 05:09:59.40	323.48	85.03	-39.8	-40.3	21.4	0.00e+00	0	62	0	94371840	42	3738
2026-01-01 05:10:00.37	318.09	85.22	-39.7	-40.2	21.4	0.00e+00	0	62	0	100663296	42	3714
2026-01-01 05:10:01.33	312.36	85.37	-39.3	-39.7	21.8	0.00e+00	0	63	0	108003328	41	3732
2026-01-01 05:10:02.30	306.25	85.47	-39.2	-39.6	22.0	0.00e+00	0	63	0	115343360	41	3667
2026-01-01 05:10:03.27	299.93	85.52	-39.2	-39.7	21.9	0.00e+00	0	63	0	121634816	41	3700
2026-01-01 05:10:04.24	293.56	85.51	-39.4	-39.8	21.8	0.00e+00	0	63	0	128974848	41	3766
2026-01-01 05:10:05.21	287.29	85.45	-39.4	-39.8	21.8	0.00e+00	0	63	0	136314880	41	3765
2026-01-01 05:10:06.18	281.26	85.33	-39.3	-39.7	21.9	0.00e+00	0	63	0	142606336	41	3721
2026-01-01 05:10:07.15	275.58	85.17	-39.5	-39.9	21.6	0.00e+00	0	63	0	149946368	41	3802
2026-01-01 05:10:08.12	270.33	84.96	-39.8	-40.3	21.4	0.00e+00	0	63	0	157286400	41	3959
2026-01-01 05:10:09.09	265.52	84.71	-40.0	-40.5	21.1	0.00e+00	0	63	0	163577856	41	4060
2026-01-01 05:10:10.06	261.18	84.43	-40.0	-40.4	21.2	0.00e+00	0	63	0	170917888	41	4038
2026-01-01 05:10:11.03	257.27	84.13	-40.1	-40.6	21.0	0.00e+00	0	63	0	178257920	42	3882
2026-01-01 05:10:12.00	253.77	83.79	-40.2	-40.7	21.0	0.00e+00	0	63	0	184549376	42	3915
2026-01-01 05:10:12.97	250.64	83.44	-40.4	-40.9	20.8	0.00e+00	0	63	0	191889408	42	4010
2026-01-01 05:10:13.94	247.84	83.07	-40.6	-41.1	20.6	0.00e+00	0	63	0	199229440	42	4127
2026-01-01 05:10:14.92	245.31	82.68	-40.7	-41.2	20.5	0.00e+00	0	63	0	206569472	43	3946
2026-01-01 05:10:15.89	243.06	82.29	-40.4	-40.8	20.8	0.00e+00	0	62	0	212860928	43	3772
2026-01-01 05:10:16.85	241.05	81.88	-41.4	-41.9	19.9	0.00e+00	0	63	0	220200960	44	4049
2026-01-01 05:10:17.82	239.22	81.47	-41.3	-41.8	19.9	0.00e+00	0	63	0	227540992	44	3998
2026-01-01 05:10:18.78	237.58	81.05	-41.0	-41.5	20.2	0.00e+00	0	63	0	233832448	44	3863
2026-01-01 05:10:19.75	236.07	80.62	-40.7	-41.2	20.6	0.00e+00	0	63	0	241172480	44	3698
2026-01-01 05:10:20.72	234.70	80.19	-40.4	-40.8	20.8	0.00e+00	0	63	0	248512512	43	3780
2026-01-01 05:10:21.69	233.45	79.75	-40.0	-40.4	21.2	0.00e+00	0	63	0	254803968	42	3821
2026-01-01 05:10:22.66	232.30	79.31	-39.6	-40.1	21.5	0.00e+00	0	63	0	262144000	42	3662
2026-01-01 05:10:23.63	231.24	78.87	-39.5	-39.9	21.7	0.00e+00	0	63	0	269484032	41	3796
2026-01-01 05:10:24.59	230.28	78.43	-39.9	-40.3	21.3	0.00e+00	0	63	0	275775488	41	3991
2026-01-01 05:10:25.57	229.37	77.98	-39.9	-40.4	21.2	0.00e+00	0	63	0	283115520	41	4010
2026-01-01 05:10:26.54	228.54	77.53	-39.4	-39.9	21.7	0.00e+00	0	63	0	290455552	41	3782
2026-01-01 05:10:27.51	227.77	77.08	-39.0	-39.4	22.2	0.00e+00	0	63	0	296747008	41	3588
2026-01-01 05:10:28.48	227.05	76.63	-39.0	-39.4	22.1	0.00e+00	0	63	0	304087040	40	3805
2026-01-01 05:10:29.45	226.38	76.18	-39.4	-39.8	21.8	0.00e+00	0	63	0	310378496	40	3996
2026-01-01 05:10:30.41	225.76	75.73	-39.9	-40.4	21.3	0.00e+00	0	63	0	317718528	41	4030
2026-01-01 05:10:31.38	225.17	75.28	-39.9	-40.4	21.2	0.00e+00	0	63	0	325058560	41	4007
2026-01-01 05:10:32.35	224.62	74.83	-40.0	-40.4	21.2	0.00e+00	0	63	0	331350016	41	4037
2026-01-01 05:10:33.32	224.11	74.38	-40.3	-40.8	20.8	0.00e+00	0	63	0	338690048	42	3962
2026-01-01 05:10:34.29	223.62	73.93	-40.4	-40.9	20.8	0.00e+00	0	63	0	346030080	42	4005
2026-01-01 05:10:35.26	223.16	73.48	-40.2	-40.7	20.7	0.00e+00	0	63	0	352321536	42	3935
2026-01-01 05:10:36.22	222.73	73.03	-40.6	-41.1	20.5	0.00e+00	0	63	0	359661568	43	3877
2026-01-01 05:10:37.19	222.32	72.58	-40.9	-41.4	20.3	0.00e+00	0	63	0	367001600	43	4008
2026-01-01 05:10:38.16	221.93	72.14	-41.4	-41.9	19.8	0.00e+00	0	63	0	373293056	44	4041
2026-01-01 05:10:39.13	221.57	71.69	-40.9	-41.4	20.3	0.00e+00	0	63	0	380633088	44	3820
2026-01-01 05:10:40.10	221.22	71.25	-40.4	-40.8	20.7	0.00e+00	0	63	0	387973120	43	3777
2026-01-01 05:10:41.06	220.89	70.81	-39.9	-40.3	21.3	0.00e+00	0	63	0	395313152	42	3756
2026-01-01 05:10:42.03	220.57	70.36	-39.8	-40.3	21.3	0.00e+00	0	63	0	401604608	42	3749
2026-01-01 05:10:43.01	220.27	69.92	-40.1	-40.5	21.2	0.00e+00	0	63	0	408944640	42	3850
2026-01-01 05:10:43.98	219.98	69.48	-40.0	-40.4	21.1	0.00e+00	0	63	0	416284672	42	3809
2026-01-01 05:10:44.94	219.71	69.04	-40.0	-40.5	21.1	0.00e+00	0	63	0	422576128	42	3844
2026-01-01 05:10:45.91	219.45	68.61	-40.5	-40.9	20.7	0.00e+00	0	63	0	429916160	42	4051
2026-01-01 05:10:46.90	219.19	68.16	-40.2	-40.7	20.9	0.00e+00	0	62	0	437256192	42	3939
2026-01-01 05:10:47.88	218.95	67.73	-39.8	-40.2	21.3	0.00e+00	0	63	0	443547648	42	3734
2026-01-01 05:10:48.85	218.72	67.30	-39.5	-40.0	21.6	0.00e+00	0	63	0	450887680	42	3611
2026-01-01 05:10:49.82	218.50	66.87	-39.5	-39.9	21.7	0.00e+00	0	63	0	458227712	41	3793
2026-01-01 05:10:50.79	218.29	66.44	-39.6	-40.1	21.5	0.00e+00	0	63	0	464519168	41	3871
2026-01-01 05:10:51.75	218.09	66.02	-40.1	-40.6	21.0	0.00e+00	0	63	0	471859200	41	4100
2026-01-01 05:10:52.72	217.89	65.59	-40.2	-40.7	20.9	0.00e+00	0	63	0	479199232	42	3938
2026-01-01 05:10:53.69	217.71	65.17	-40.5	-40.9	20.7	0.00e+00	0	63	0	485490688	42	4041
2026-01-01 05:10:54.66	217.53	64.75	-40.2	-40.7	20.9	0.00e+00	0	63	0	492830720	42	3923
2026-01-01 05:10:55.63	217.35	64.34	-40.2	-40.6	21.0	0.00e+00	0	63	0	500170752	42	3895
2026-01-01 05:10:56.59	217.19	63.93	-40.3	-40.8	20.9	0.00e+00	0	63	0	506462208	42	3964
2026-01-01 05:10:57.57	217.02	63.51	-40.4	-40.9	20.7	0.00e+00	0	62	0	513802240	42	4022
2026-01-01 05:10:58.54	216.87	63.10	-40.4	-40.9	20.7	0.00e+00	0	63	0	521142272	42	4021
2026-01-01 05:10:59.50	216.72	62.69	-40.8	-41.3	20.4	0.00e+00	0	63	0	527433728	43	3977
2026-01-01 05:11:00.47	216.58	62.29	-41.3	-41.8	19.9	0.00e+00	0	63	0	534773760	44	3993
2026-01-01 05:11:01.44	216.43	61.88	-41.5	-42.1	19.7	0.00e+00	0	63	0	542113792	44	4100
2026-01-01 05:11:02.40	216.30	61.48	-41.4	-42.0	19.8	0.00e+00	0	63	0	548405248	44	4056
2026-01-01 05:11:03.37	216.17	61.08	-41.4	-42.0	19.8	0.00e+00	0	63	0	555745280	44	4059
2026-01-01 05:11:04.34	216.04	60.69	-41.6	-42.1	19.7	0.00e+00	0	63	0	563085312	44	4139
2026-01-01 05:11:05.31	215.92	60.29	-41.8	-42.4	19.4	0.00e+00	0	63	0	569376768	45	4016
2026-01-01 05:11:06.27	215.80	59.90	-42.0	-42.5	19.3	0.00e+00	0	63	0	576716800	45	4086
2026-01-01 05:11:07.24	215.69	59.51	-42.2	-42.8	19.0	0.00e+00	0	63	0	584056832	46	3993
2026-01-01 05:11:08.21	215.57	59.12	-42.0	-42.6	19.2	0.00e+00	0	63	0	591396864	46	3890
2026-01-01 05:11:09.19	215.46	58.73	-42.1	-42.7	19.2	0.00e+00	0	63	0	597688320	46	3916
2026-01-01 05:11:10.16	215.36	58.35	-42.5	-43.1	18.7	0.00e+00	0	63	0	605028352	46	4113
2026-01-01 05:11:11.12	215.26	57.97	-42.0	-42.5	19.3	0.00e+00	0	63	0	612368384	46	3865
2026-01-01 05:11:12.09	215.16	57.59	-42.3	-42.9	18.9	0.00e+00	0	63	0	618659840	46	4023
2026-01-01 05:11:13.06	215.06	57.22	-42.1	-42.7	19.1	0.00e+00	0	63	0	625999872	46	3940
2026-01-01 05:11:14.03	214.97	56.84	-42.6	-43.2	18.6	0.00e+00	0	63	0	633339904	46	4163
2026-01-01 05:11:15.00	214.88	56.47	-42.5	-43.2	18.7	0.00e+00	0	63	0	639631360	46	4148
2026-01-01 05:11:15.96	214.79	56.11	-42.2	-42.8	19.0	0.00e+00	0	63	0	646971392	46	3991
2026-01-01 05:11:16.93	214.70	55.74	-42.0	-42.6	19.2	0.00e+00	0	63	0	653262848	46	3897
2026-01-01 05:11:17.90	214.62	55.38	-41.7	-42.2	19.6	0.00e+00	0	63	0	660602880	46	3721
2026-01-01 05:11:18.87	214.54	55.01	-41.5	-42.0	19.4	0.00e+00	0	63	0	667942912	46	3631
2026-01-01 05:11:19.84	214.46	54.65	-41.4	-41.9	19.9	0.00e+00	0	63	0	674234368	45	3812
2026-01-01 05:11:20.81	214.38	54.30	-41.5	-42.0	19.7	0.00e+00	0	63	0	681574400	45	3842
2026-01-01 05:11:21.77	214.30	53.94	-41.5	-42.1	19.7	0.00e+00	0	63	0	688914432	45	3877
2026-01-01 05:11:22.74	214.23	53.59	-41.8	-42.4	19.4	0.00e+00	0	63	0	695205888	45	4032
2026-01-01 05:11:23.71	214.16	53.24	-41.9	-42.5	19.3	0.00e+00	0	63	0	702545920	45	4064
2026-01-01 05:11:24.69	214.09	52.89	-42.0	-42.6	19.1	0.00e+00	0	63	0	709885952	45	4106
2026-01-01 05:11:25.66	214.02	52.55	-42.0	-42.6	19.2	0.00e+00	0	63	0	716177408	46	3876
2026-01-01 05:11:26.63	213.95	52.20	-41.6	-42.1	19.6	0.00e+00	0	63	0	723517440	46	3690
2026-01-01 05:11:27.60	213.89	51.86	-41.4	-41.9	19.9	0.00e+00	0	63	0	730857472	45	3798
2026-01-01 05:11:28.57	213.82	51.52	-41.3	-41.8	20.0	0.00e+00	0	63	0	738197504	45	3748
2026-01-01 05:11:29.54	213.76	51.19	-41.3	-41.8	19.8	0.00e+00	0	63	0	744488960	45	3776
2026-01-01 05:11:30.51	213.70	50.85	-41.6	-42.1	19.7	0.00e+00	0	63	0	751828992	45	3894
2026-01-01 05:11:31.47	213.64	50.53	-41.7	-42.3	19.5	0.00e+00	0	63	0	759169024	45	3994
2026-01-01 05:11:32.44	213.58	50.20	-41.9	-42.5	19.2	0.00e+00	0	63	0	765460480	45	4086
2026-01-01 05:11:33.41	213.53	49.87	-42.0	-42.6	19.2	0.00e+00	0	63	0	772800512	45	4106
2026-01-01 05:11:34.38	213.47	49.55	-41.8	-42.4	19.4	0.00e+00	0	63	0	780140544	45	4037
2026-01-01 05:11:35.34	213.42	49.23	-41.5	-42.1	19.7	0.00e+00	0	63	0	786432000	45	3878
2026-01-01 05:11:36.32	213.36	48.90	-41.4	-41.9	19.9	0.00e+00	0	63	0	793772032	45	3820
2026-01-01 05:11:37.28	213.31	48.59	-41.4	-41.9	19.9	0.00e+00	0	63	0	801112064	45	3813
2026-01-01 05:11:38.25	213.26	48.27	-41.6	-42.1	19.7	0.00e+00	0	63	0	807403520	45	3894
2026-01-01 05:11:39.22	213.21	47.96	-41.7	-42.3	19.5	0.00e+00	0	63	0	814743552	45	3963
2026-01-01 05:11:40.19	213.16	47.65	-41.9	-42.5	19.3	0.00e+00	0	63	0	822083584	45	4053
2026-01-01 05:11:41.15	213.12	47.34	-41.8	-42.3	19.5	0.00e+00	0	62	0	828375040	45	3993
2026-01-01 05:11:42.12	213.07	47.04	-41.5	-42.1	19.7	0.00e+00	0	63	0	835715072	45	3888
2026-01-01 05:11:43.09	213.03	46.73	-41.4	-41.9	19.8	0.00e+00	0	63	0	843055104	45	3801
2026-01-01 05:11:44.06	212.98	46.43	-41.3	-41.8	19.9	0.00e+00	0	63	0	849346560	45	3769
2026-01-01 05:11:45.04	212.94	46.13	-41.4	-41.9	19.7	0.00e+00	0	63	0	856686592	45	3807
2026-01-01 05:11:46.01	212.89	45.83	-41.4	-41.9	19.9	0.00e+00	0	63	0	862978048	45	3785
2026-01-01 05:11:46.97	212.85	45.54	-41.5	-42.1	19.7	0.00e+00	0	63	0	870318080	45	3873
2026-01-01 05:11:47.94	212.81	45.24	-41.9	-42.4	19.3	0.00e+00	0	63	0	877658112	45	4039
2026-01-01 05:11:48.91	212.77	44.95	-41.6	-42.2	19.5	0.00e+00	0	63	0	883949568	45	3931
2026-01-01 05:11:49.87	212.73	44.67	-41.4	-41.9	19.9	0.00e+00	0	63	0	891289600	45	3788
2026-01-01 05:11:50.84	212.69	44.38	-41.1	-41.6	19.9	0.00e+00	0	63	0	898629632	45	3679
2026-01-01 05:11:51.81	212.66	44.09	-41.1	-41.6	20.2	0.00e+00	0	63	0	904921088	45	3659
2026-01-01 05:11:52.78	212.62	43.81	-41.1	-41.6	20.1	0.00e+00	0	63	0	912261120	44	3912
2026-01-01 05:11:53.75	212.58	43.53	-40.9	-41.4	20.3	0.00e+00	0	63	0	919601152	44	3814
2026-01-01 05:11:54.71	212.55	43.25	-40.5	-41.0	20.7	0.00e+00	0	63	0	926941184	44	3615
2026-01-01 05:11:55.68	212.51	42.98	-40.3	-40.8	20.8	0.00e+00	0	63	0	933232640	43	3741
2026-01-01 05:11:56.65	212.48	42.70	-40.3	-40.7	20.9	0.00e+00	0	63	0	940572672	43	3724
2026-01-01 05:11:57.62	212.44	42.43	-40.3	-40.7	20.9	0.00e+00	0	63	0	947912704	43	3733
2026-01-01 05:11:58.59	212.41	42.16	-40.3	-40.7	20.7	0.00e+00	0	63	0	954204160	43	3722
2026-01-01 05:11:59.56	212.38	41.89	-40.5	-41.0	20.6	0.00e+00	0	63	0	961544192	43	3859
2026-01-01 05:12:00.53	212.35	41.62	-40.6	-41.1	20.5	0.00e+00	0	63	0	968884224	43	3889
2026-01-01 05:12:01.50	212.31	41.36	-40.4	-40.9	20.7	0.00e+00	0	63	0	975175680	43	3789
2026-01-01 05:12:02.47	212.28	41.09	-40.3	-40.8	20.8	0.00e+00	0	63	0	982515712	43	3764
2026-01-01 05:12:03.44	212.25	40.83	-40.3	-40.8	20.8	0.00e+00	0	63	0	989855744	43	3753
2026-01-01 05:12:04.41	212.22	40.57	-40.6	-41.1	20.6	0.00e+00	0	63	0	996147200	43	3881
2026-01-01 05:12:05.38	212.19	40.31	-40.4	-40.9	20.7	0.00e+00	0	63	0	1003487232	43	3807
2026-01-01 05:12:06.36	212.16	40.05	-40.5	-41.0	20.5	0.00e+00	0	63	0	1010827264	43	3859
2026-01-01 05:12:07.33	212.14	39.80	-40.7	-41.3	20.4	0.00e+00	0	63	0	1017118720	43	3960
2026-01-01 05:12:08.29	212.11	39.55	-40.7	-41.2	20.4	0.00e+00	0	63	0	1024458752	43	3937
2026-01-01 05:12:09.26	212.08	39.30	-41.0	-41.5	20.1	0.00e+00	0	63	0	1031798784	43	4097
2026-01-01 05:12:10.23	212.06	39.05	-41.4	-41.9	19.9	0.00e+00	0	62	0	1038090240	44	4050
2026-01-01 05:12:11.20	212.03	38.80	-41.1	-41.6	19.9	0.00e+00	0	63	0	1045430272	44	3912
2026-01-01 05:12:12.17	212.00	38.56	-40.9	-41.4	20.3	0.00e+00	0	63	0	1052770304	44	3792
2026-01-01 05:12:13.14	211.98	38.32	-40.8	-41.3	20.5	0.00e+00	0	63	0	1059061760	44	3742
2026-01-01 05:12:14.11	211.95	38.07	-40.8	-41.3	20.3	0.00e+00	0	63	0	1066401792	44	3768
2026-01-01 05:12:15.08	211.93	37.83	-40.7	-41.2	20.5	0.00e+00	0	63	0	1073741824	44	3701
2026-01-01 05:12:16.05	211.90	37.60	-40.3	-40.8	20.8	0.00e+00	0	63	0	1080033280	43	3739
2026-01-01 05:12:17.01	211.88	37.36	-40.1	-40.5	21.0	0.00e+00	0	63	0	1087373312	43	3646
2026-01-01 05:12:17.98	211.86	37.13	-40.0	-40.5	21.1	0.00e+00	0	63	0	1094713344	43	3629
2026-01-01 05:12:18.95	211.83	36.89	-40.1	-40.5	21.0	0.00e+00	0	63	0	1101004800	42	3857
2026-01-01 05:12:19.93	211.81	36.66	-40.1	-40.6	21.0	0.00e+00	0	63	0	1108344832	42	3890
2026-01-01 05:12:20.90	211.79	36.43	-40.4	-40.9	20.0	0.00e+00	0	63	0	1115684864	42	4010
2026-01-01 05:12:21.86	211.77	36.20	-40.1	-40.5	21.0	0.00e+00	0	63	0	1123024896	42	3867
2026-01-01 05:12:22.83	211.75	35.98	-40.0	-40.5	21.1	0.00e+00	0	63	0	1129316352	42	3846
2026-01-01 05:12:23.80	211.72	35.75	-40.2	-40.6	21.0	0.00e+00	0	63	0	1136656384	42	3904
2026-01-01 05:12:24.77	211.70	35.53	-40.6	-41.1	20.5	0.00e+00	0	63	0	1143996416	42	4105
2026-01-01 05:12:25.74	211.68	35.31	-40.4	-40.9	20.7	0.00e+00	0	63	0	1150287872	42	4016
2026-01-01 05:12:26.70	211.66	35.09	-40.2	-40.7	20.9	0.00e+00	0	63	0	1157627904	42	3921
2026-01-01 05:12:27.67	211.64	34.87	-40.0	-40.4	21.1	0.00e+00	0	63	0	1164967936	42	3819
2026-01-01 05:12:28.64	211.62	34.65	-40.0	-40.5	21.1	0.00e+00	0	63	0	1171259392	42	3827
2026-01-01 05:12:29.62	211.60	34.43	-40.0	-40.4	21.1	0.00e+00	0	63	0	1178599424	42	3808
2026-01-01 05:12:30.59	211.58	34.22	-39.8	-40.2	21.3	0.00e+00	0	63	0	1185939456	42	3726
2026-01-01 05:12:31.56	211.57	34.01	-39.6	-40.0	21.5	0.00e+00	0	63	0	1192230912	42	3633
2026-01-01 05:12:32.53	211.55	33.79	-39.6	-40.0	21.5	0.00e+00	0	63	0	1199570944	42	3628
2026-01-01 05:12:33.50	211.53	33.58	-39.5	-39.9	21.6	0.00e+00	0	63	0	1205862400	41	3815
2026-01-01 05:12:34.47	211.51	33.38	-39.5	-39.9	21.5	0.00e+00	0	63	0	1213202432	41	3799
2026-01-01 05:12:35.43	211.49	33.17	-39.5	-39.9	21.6	0.00e+00	0	63	0	1220542464	41	3810
2026-01-01 05:12:36.40	211.48	32.96	-39.7	-40.1	21.4	0.00e+00	0	63	0	1226833920	41	3887
2026-01-01 05:12:37.37	211.46	32.76	-39.8	-40.3	21.3	0.00e+00	0	63	0	1234173952	41	3973
2026-01-01 05:12:38.34	211.44	32.56	-39.9	-40.3	21.2	0.00e+00	0	63	0	1241513984	41	4001
2026-01-01 05:12:39.31	211.43	32.35	-39.9	-40.3	21.2	0.00e+00	0	63	0	1247805440	41	3997
2026-01-01 05:12:40.28	211.41	32.15	-40.0	-40.5	21.1	0.00e+00	0	63	0	1255145472	41	4054
2026-01-01 05:12:41.25	211.39	31.96	-40.0	-40.5	21.1	0.00e+00	0	63	0	1262485504	41	4067
2026-01-01 05:12:42.22	211.38	31.76	-40.2	-40.6	20.9	0.00e+00	0	63	0	1269825536	41	4136
2026-01-01 05:12:43.19	211.36	31.56	-40.4	-40.8	20.8	0.00e+00	0	63	0	1276116992	42	3997
2026-01-01 05:12:44.16	211.35	31.37	-40.3	-40.8	20.8	0.00e+00	0	63	0	1283457024	42	3975
2026-01-01 05:12:45.13	211.33	31.17	-40.5	-40.9	20.5	0.00e+00	0	63	0	1290797056	42	4049
2026-01-01 05:12:46.10	211.32	30.98	-40.4	-40.9	20.7	0.00e+00	0	63	0	1297088512	42	4028
2026-01-01 05:12:47.07	211.30	30.79	-40.6	-41.1	20.5	0.00e+00	0	63	0	1304428544	42	4128
2026-01-01 05:12:48.04	211.29	30.60	-40.5	-41.0	20.6	0.00e+00	0	63	0	1311768576	42	4062
2026-01-01 05:12:49.01	211.27	30.41	-40.4	-40.9	20.7	0.00e+00	0	63	0	1318060032	42	4035
2026-01-01 05:12:49.98	211.26	30.22	-40.7	-41.2	20.4	0.00e+00	0	63	0	1325400064	42	4153
2026-01-01 05:12:50.95	211.25	30.03	-40.6	-41.1	20.4	0.00e+00	0	63	0	1332740096	42	4126
2026-01-01 05:12:51.92	211.23	29.85	-40.4	-40.9	20.7	0.00e+00	0	63	0	1339031552	42	4026
2026-01-01 05:12:52.89	211.22	29.67	-40.3	-40.8	20.8	0.00e+00	0	63	0	1346371584	42	3984
2026-01-01 05:12:53.85	211.21	29.48	-40.4	-40.8	20.7	0.00e+00	0	63	0	1353711616	42	3999
2026-01-01 05:12:54.82	211.19	29.30	-40.3	-40.8	20.8	0.00e+00	0	63	0	1360003072	42	3965
2026-01-01 05:12:55.79	211.18	29.12	-40.3	-40.8	20.8	0.00e+00	0	63	0	1367343104	42	3966
2026-01-01 05:12:56.76	211.17	28.94	-40.4	-40.9	20.7	0.00e+00	0	63	0	1374683136	42	4010
2026-01-01 05:12:57.73	211.15	28.76	-40.3	-40.8	20.8	0.00e+00	0	63	0	1380974592	42	3985
2026-01-01 05:12:58.69	211.14	28.59	-40.2	-40.7	20.9	0.00e+00	0	63	0	1388314624	42	3925
2026-01-01 05:12:59.66	211.13	28.41	-40.2	-40.7	20.9	0.00e+00	0	63	0	1395654656	42	3944
2026-01-01 05:13:00.63	211.12	28.24	-40.4	-40.8	20.7	0.00e+00	0	63	0	1401946112	42	4002
2026-01-01 05:13:01.60	211.11	28.06	-40.3	-40.8	20.8	0.00e+00	0	63	0	1409286144	42	3982
2026-01-01 05:13:02.57	211.09	27.89	-40.2	-40.7	20.8	0.00e+00	0	63	0	1416626176	42	3934
2026-01-01 05:13:03.54	211.08	27.72	-40.2	-40.7	20.8	0.00e+00	0	63	0	1422917632	42	3936
2026-01-01 05:13:04.51	211.07	27.55	-40.3	-40.8	20.7	0.00e+00	0	63	0	1430257664	42	3974
2026-01-01 05:13:05.48	211.06	27.38	-40.6	-41.1	20.5	0.00e+00	0	63	0	1437597696	42	4103
2026-01-01 05:13:06.45	211.05	27.21	-41.0	-41.5	20.1	0.00e+00	0	63	0	1443889152	43	4058
2026-01-01 05:13:07.41	211.04	27.05	-40.8	-41.3	20.3	0.00e+00	0	63	0	1451229184	43	3990
2026-01-01 05:13:08.38	211.03	26.88	-41.0	-41.5	20.1	0.00e+00	0	63	0	1458569216	43	4083
2026-01-01 05:13:09.35	211.02	26.71	-40.6	-41.1	20.4	0.00e+00	0	63	0	1464860672	43	3904
2026-01-01 05:13:10.32	211.01	26.55	-40.4	-40.9	20.6	0.00e+00	0	63	0	1472200704	43	3803
2026-01-01 05:13:11.29	211.00	26.39	-40.3	-40.8	20.7	0.00e+00	0	63	0	1479540736	43	3740
2026-01-01 05:13:12.25	210.99	26.22	-40.3	-40.8	20.8	0.00e+00	0	63	0	1485832192	43	3748
2026-01-01 05:13:13.23	210.97	26.06	-40.4	-40.9	20.5	0.00e+00	0	63	0	1493172224	43	3789
2026-01-01 05:13:14.20	210.97	25.90	-40.4	-40.9	20.6	0.00e+00	0	63	0	1500512256	43	3821
2026-01-01 05:13:15.17	210.96	25.74	-40.5	-41.0	20.5	0.00e+00	0	63	0	1507852288	43	3832
2026-01-01 05:13:16.14	210.95	25.58	-40.6	-41.0	20.5	0.00e+00	0	63	0	1514143744	43	3864
2026-01-01 05:13:17.11	210.94	25.43	-40.8	-41.3	20.3	0.00e+00	0	63	0	1521483776	43	3961
2026-01-01 05:13:18.08	210.93	25.27	-40.5	-41.0	20.5	0.00e+00	0	63	0	1527775232	43	3849
2026-01-01 05:13:19.05	210.92	25.11	-40.4	-40.9	20.6	0.00e+00	0	63	0	1535115264	43	3790
2026-01-01 05:13:20.03	210.91	24.96	-40.3	-40.8	20.8	0.00e+00	0	63	0	1542455296	43	3742
2026-01-01 05:13:21.00	210.90	24.80	-40.3	-40.8	20.8	0.00e+00	0	63	0	1548746752	43	3751
2026-01-01 05:13:21.96	210.89	24.65	-40.3	-40.8	20.7	0.00e+00	0	63	0	1556086784	43	3767
2026-01-01 05:13:22.93	210.88	24.50	-40.4	-40.9	20.7	0.00e+00	0	63	0	1563426816	43	3795
2026-01-01 05:13:23.90	210.87	24.35	-40.4	-40.8	20.7	0.00e+00	0	63	0	1569718272	43	3772
2026-01-01 05:13:24.87	210.86	24.20	-40.3	-40.7	20.8	0.00e+00	0	63	0	1577058304	43	3733
2026-01-01 05:13:25.84	210.86	24.05	-40.3	-40.7	20.7	0.00e+00	0	63	0	1584398336	43	3727
2026-01-01 05:13:26.81	210.85	23.90	-40.4	-40.9	20.7	0.00e+00	0	63	0	1590689792	43	3781
2026-01-01 05:13:27.78	210.84	23.75	-40.4	-40.9	20.7	0.00e+00	0	63	0	1598029824	43	3793
2026-01-01 05:13:28.75	210.83	23.60	-40.4	-40.9	20.6	0.00e+00	0	63	0	1605369856	43	3796
2026-01-01 05:13:29.72	210.82	23.46	-40.5	-41.0	20.4	0.00e+00	0	63	0	1612709888	43	3850
2026-01-01 05:13:30.69	210.82	23.31	-40.7	-41.2	20.2	0.00e+00	0	63	0	1619001344	43	3953
2026-01-01 05:13:31.65	210.81	23.17	-40.7	-41.2	20.3	0.00e+00	0	63	0	1626341376	43	3936
2026-01-01 05:13:32.62	210.80	23.02	-40.8	-41.3	20.3	0.00e+00	0	63	0	1633681408	43	3965
2026-01-01 05:13:33.59	210.79	22.88	-40.9	-41.4	20.1	0.00e+00	0	63	0	1639972864	43	4047
2026-01-01 05:13:34.56	210.78	22.74	-41.0	-41.5	20.0	0.00e+00	0	63	0	1647312896	43	4083
2026-01-01 05:13:35.52	210.78	22.60	-40.8	-41.3	20.2	0.00e+00	0	63	0	1654652928	43	3994
2026-01-01 05:13:36.50	210.77	22.46	-40.8	-41.3	20.2	0.00e+00	0	63	0	1660944384	43	3997
2026-01-01 05:13:37.47	210.76	22.32	-40.8	-41.3	20.2	0.00e+00	0	63	0	1668284416	43	4003
2026-01-01 05:13:38.43	210.76	22.18	-40.9	-41.4	20.1	0.00e+00	0	63	0	1675624448	43	4043
2026-01-01 05:13:39.40	210.75	22.04	-41.0	-41.5	20.0	0.00e+00	0	63	0	1681915904	43	4071
2026-01-01 05:13:40.36	210.74	21.90	-41.2	-41.7	19.9	0.00e+00	0	63	0	1689255936	44	3954
2026-01-01 05:13:41.34	210.73	21.77	-40.9	-41.5	20.2	0.00e+00	0	63	0	1696595968	44	3826
2026-01-01 05:13:42.30	210.73	21.63	-40.7	-41.2	20.3	0.00e+00	0	63	0	1702887424	44	3729
2026-01-01 05:13:43.28	210.72	21.49	-40.7	-41.2	20.2	0.00e+00	0	63	0	1710227456	44	3733
2026-01-01 05:13:44.24	210.72	21.36	-40.9	-41.4	20.2	0.00e+00	0	63	0	1717567488	44	3816
2026-01-01 05:13:45.21	210.71	21.23	-41.1	-41.6	20.0	0.00e+00	0	63	0	1723858944	44	3886
2026-01-01 05:13:46.19	210.70	21.09	-40.9	-41.4	20.1	0.00e+00	0	63	0	1731198976	44	3820
2026-01-01 05:13:47.16	210.70	20.96	-40.9	-41.4	20.2	0.00e+00	0	63	0	1737490432	44	3812
2026-01-01 05:13:48.12	210.69	20.83	-41.0	-41.5	20.2	0.00e+00	0	63	0	1744830464	44	3832
2026-01-01 05:13:49.09	210.68	20.70	-41.0	-41.6	20.0	0.00e+00	0	63	0	1752170496	44	3875
2026-01-01 05:13:50.07	210.68	20.57	-41.3	-41.9	19.7	0.00e+00	0	63	0	1759510528	44	4017
2026-01-01 05:13:51.03	210.67	20.44	-41.1	-41.6	20.0	0.00e+00	0	63	0	1765801984	44	3901
2026-01-01 05:13:52.00	210.67	20.31	-41.1	-41.6	20.0	0.00e+00	0	63	0	1773142016	44	3900
2026-01-01 05:13:52.97	210.66	20.18	-41.0	-41.5	20.0	0.00e+00	0	63	0	1780482048	44	3866
2026-01-01 05:13:53.94	210.65	20.05	-41.1	-41.7	19.9	0.00e+00	0	63	0	1786773504	44	3919
2026-01-01 05:13:54.90	210.65	19.93	-41.0	-41.5	20.0	0.00e+00	0	63	0	1794113536	44	3866
2026-01-01 05:13:55.87	210.64	19.80	-41.0	-41.5	20.0	0.00e+00	0	63	0	1801453568	44	3866
2026-01-01 05:13:56.84	210.64	19.67	-41.1	-41.6	19.8	0.00e+00	0	63	0	1807745024	44	3891
2026-01-01 05:13:57.80	210.63	19.55	-41.1	-41.6	20.0	0.00e+00	0	63	0	1815085056	44	3869
2026-01-01 05:13:58.77	210.63	19.42	-41.1	-41.7	19.9	0.00e+00	0	63	0	1822425088	44	3914
2026-01-01 05:13:59.74	210.62	19.30	-41.1	-41.6	20.0	0.00e+00	0	63	0	1828716544	44	3898
2026-01-01 05:14:00.71	210.62	19.18	-41.2	-41.7	19.9	0.00e+00	0	63	0	1836056576	44	3930
2026-01-01 05:14:01.68	210.61	19.05	-41.3	-41.8	19.8	0.00e+00	0	63	0	1843396608	44	3970
2026-01-01 05:14:02.65	210.61	18.93	-41.3	-41.8	19.8	0.00e+00	0	63	0	1849688064	44	3974
2026-01-01 05:14:03.61	210.60	18.81	-41.5	-42.1	19.5	0.00e+00	0	63	0	1857028096	44	4112
2026-01-01 05:14:04.58	210.60	18.69	-41.6	-42.1	19.5	0.00e+00	0	63	0	1864368128	44	4133
2026-01-01 05:14:05.55	210.59	18.57	-41.4	-41.9	19.7	0.00e+00	0	63	0	1870659584	44	4027
2026-01-01 05:14:06.52	210.59	18.45	-41.1	-41.6	19.9	0.00e+00	0	63	0	1877999616	44	3906
2026-01-01 05:14:07.49	210.58	18.33	-41.1	-41.6	20.0	0.00e+00	0	63	0	1885339648	44	3881
2026-01-01 05:14:08.46	210.58	18.21	-41.1	-41.6	20.0	0.00e+00	0	63	0	1891631104	44	3882
2026-01-01 05:14:09.42	210.57	18.09	-41.1	-41.7	19.9	0.00e+00	0	63	0	1898971136	44	3918
2026-01-01 05:14:10.39	210.57	17.98	-41.3	-41.9	19.7	0.00e+00	0	63	0	1906311168	44	4018
2026-01-01 05:14:11.36	210.56	17.86	-41.4	-41.9	19.6	0.00e+00	0	63	0	1912602624	44	4036
2026-01-01 05:14:12.32	210.56	17.74	-41.4	-42.0	19.6	0.00e+00	0	63	0	1919942656	44	4059
2026-01-01 05:14:13.30	210.55	17.63	-41.4	-42.0	19.6	0.00e+00	0	63	0	1926234112	44	4069
2026-01-01 05:14:14.26	210.55	17.51	-41.4	-42.0	19.6	0.00e+00	0	63	0	1933574144	44	4066
2026-01-01 05:14:15.23	210.55	17.40	-41.6	-42.1	19.4	0.00e+00	0	63	0	1940914176	44	4139
2026-01-01 05:14:16.20	210.54	17.28	-41.8	-42.3	19.2	0.00e+00	0	63	0	1947205632	45	3999
2026-01-01 05:14:17.17	210.54	17.17	-41.7	-42.3	19.3	0.00e+00	0	63	0	1954545664	45	3964
2026-01-01 05:14:18.14	210.53	17.06	-41.8	-42.4	19.1	0.00e+00	0	63	0	1961885696	45	4029
2026-01-01 05:14:19.11	210.53	16.94	-41.7	-42.3	19.2	0.00e+00	0	63	0	1968177152	45	3980
2026-01-01 05:14:20.08	210.52	16.83	-41.8	-42.4	19.2	0.00e+00	0	63	0	1975517184	45	4014
2026-01-01 05:14:21.05	210.52	16.72	-41.9	-42.4	19.1	0.00e+00	0	63	0	1982857216	45	4038
2026-01-01 05:14:22.02	210.52	16.61	-41.9	-42.4	19.1	0.00e+00	0	63	0	1990197248	45	4036
2026-01-01 05:14:22.98	210.51	16.50	-41.9	-42.4	19.1	0.00e+00	0	63	0	1996488704	45	4047
2026-01-01 05:14:23.96	210.51	16.39	-42.2	-42.8	18.8	0.00e+00	0	63	0	2003828736	45	4211
2026-01-01 05:14:24.92	210.51	16.28	-42.0	-42.6	19.0	0.00e+00	0	63	0	2011168768	46	3877
2026-01-01 05:14:25.89	210.50	16.17	-41.8	-42.4	19.2	0.00e+00	0	63	0	2017460224	46	3782
2026-01-01 05:14:26.85	210.50	16.06	-41.7	-42.2	19.3	0.00e+00	0	63	0	2024800256	46	3727
2026-01-01 05:14:27.82	210.49	15.95	-41.7	-42.3	19.3	0.00e+00	0	63	0	2032140288	46	3740
2026-01-01 05:14:28.79	210.49	15.85	-41.8	-42.3	19.2	0.00e+00	0	63	0	2038431744	46	3780
2026-01-01 05:14:29.76	210.49	15.74	-41.8	-42.4	19.2	0.00e+00	0	63	0	2045771776	46	3788
2026-01-01 05:14:30.73	210.48	15.63	-41.8	-42.4	19.1	0.00e+00	0	63	0	2053111808	46	3809
2026-01-01 05:14:31.69	210.48	15.53	-41.9	-42.4	19.1	0.00e+00	0	63	0	2059403264	46	3808
2026-01-01 05:14:32.66	210.48	15.42	-42.0	-42.6	18.9	0.00e+00	0	63	0	2066743296	46	3890
2026-01-01 05:14:33.63	210.47	15.32	-42.0	-42.6	18.9	0.00e+00	0	63	0	2074083328	46	3892
2026-01-01 05:14:34.60	210.47	15.21	-42.1	-42.7	18.9	0.00e+00	0	63	0	2080374784	46	3926
2026-01-01 05:14:35.57	210.47	15.11	-42.2	-42.8	18.7	0.00e+00	0	63	0	2087714816	46	3960
2026-01-01 05:14:36.54	210.46	15.00	-42.1	-42.7	18.7	0.00e+00	0	63	0	2095054848	46	3945
2026-01-01 05:14:37.51	210.46	14.90	-42.3	-42.9	18.7	0.00e+00	0	63	0	2101346304	46	4014
2026-01-01 05:14:38.48	210.46	14.80	-42.4	-43.0	18.5	0.00e+00	0	63	0	2108686336	46	4060
2026-01-01 05:14:39.45	210.46	14.69	-42.3	-42.9	18.6	0.00e+00	0	63	0	2116026368	46	4044
2026-01-01 05:14:40.42	210.45	14.59	-42.3	-42.9	18.5	0.00e+00	0	63	0	2122317824	46	4051
2026-01-01 05:14:41.38	210.45	14.49	-42.6	-43.2	18.3	0.00e+00	0	63	0	2129657856	46	4164
2026-01-01 05:14:42.35	210.45	14.39	-42.6	-43.2	18.3	0.00e+00	0	63	0	2135949312	46	4191
2026-01-01 05:14:43.31	210.44	14.29	-42.6	-43.2	18.3	0.00e+00	0	63	0	2143289344	46	4182
2026-01-01 05:14:44.28	210.44	14.19	-42.8	-43.4	18.1	0.00e+00	0	63	0	2150629376	47	4033
2026-01-01 05:14:45.25	210.44	14.09	-43.0	-43.7	17.8	0.00e+00	0	63	0	2156920832	47	4182
2026-01-01 05:14:46.21	210.44	13.99	-42.9	-43.5	18.0	0.00e+00	0	63	0	2164260864	47	4090
2026-01-01 05:14:47.19	210.43	13.89	-43.2	-43.9	17.6	0.00e+00	0	63	0	2171600896	47	4261
2026-01-01 05:14:48.16	210.43	13.79	-43.0	-43.6	17.9	0.00e+00	0	63	0	2177892352	47	4144
2026-01-01 05:14:49.13	210.43	13.69	-43.2	-43.9	17.6	0.00e+00	0	63	0	2185232384	47	4265
2026-01-01 05:14:50.10	210.42	13.59	-43.3	-43.9	17.7	0.00e+00	0	63	0	2192572416	48	4050
2026-01-01 05:14:51.07	210.42	13.49	-43.4	-44.1	17.6	0.00e+00	0	63	0	2199912448	48	4123
2026-01-01 05:14:52.05	210.42	13.40	-43.5	-44.3	17.5	0.00e+00	0	63	0	2206203904	48	4196
2026-01-01 05:14:53.01	210.42	13.30	-43.5	-44.2	17.5	0.00e+00	0	63	0	2213543936	48	4173
2026-01-01 05:14:53.98	210.42	13.20	-43.5	-44.2	17.5	0.00e+00	0	63	0	2220883968	48	4160
2026-01-01 05:14:54.95	210.41	13.11	-43.6	-44.4	17.4	0.00e+00	0	63	0	2227175424	48	4246
2026-01-01 05:14:55.93	210.41	13.01	-43.7	-44.4	17.3	0.00e+00	0	63	0	2234515456	48	4268
2026-01-01 05:14:56.89	210.41	12.92	-43.9	-44.7	17.0	0.00e+00	0	63	0	2241855488	49	4172
2026-01-01 05:14:57.86	210.41	12.82	-43.8	-44.6	17.1	0.00e+00	0	63	0	2248146944	49	4134
2026-01-01 05:14:58.83	210.40	12.73	-43.6	-44.3	17.4	0.00e+00	0	63	0	2255486976	49	3980
2026-01-01 05:14:59.80	210.40	12.63	-43.3	-44.0	17.7	0.00e+00	0	63	0	2262827008	49	3858
2026-01-01 05:15:00.77	210.40	12.54	-43.2	-43.9	17.8	0.00e+00	0	63	0	2269118464	49	3809
2026-01-01 05:15:01.74	210.40	12.44	-43.2	-43.9	17.8	0.00e+00	0	63	0	2276458496	49	3803
2026-01-01 05:15:02.71	210.39	12.35	-43.5	-44.2	17.5	0.00e+00	0	63	0	2283798528	49	3942
2026-01-01 05:15:03.68	210.39	12.26	-43.4	-44.2	17.5	0.00e+00	0	63	0	2290089984	49	3921
2026-01-01 05:15:04.65	210.39	12.16	-43.2	-43.9	17.8	0.00e+00	0	63	0	2297430016	49	3800
2026-01-01 05:15:05.62	210.39	12.07	-43.1	-43.8	17.9	0.00e+00	0	63	0	2304770048	49	3744
2026-01-01 05:15:06.60	210.39	11.98	-43.1	-43.8	17.8	0.00e+00	0	63	0	2311061504	49	3773
2026-01-01 05:15:07.57	210.39	11.89	-43.2	-43.9	17.7	0.00e+00	0	63	0	2318401536	49	3805
2026-01-01 05:15:08.54	210.38	11.80	-43.2	-43.9	17.7	0.00e+00	0	63	0	2325741568	49	3805
2026-01-01 05:15:09.51	210.38	11.71	-43.3	-44.0	17.6	0.00e+00	0	63	0	2332033024	49	3851
2026-01-01 05:15:10.47	210.38	11.62	-43.6	-44.3	17.4	0.00e+00	0	63	0	2339373056	49	3984
2026-01-01 05:15:11.44	210.38	11.53	-43.4	-44.2	17.5	0.00e+00	0	63	0	2346713088	49	3925
2026-01-01 05:15:12.41	210.38	11.44	-43.7	-44.5	17.2	0.00e+00	0	63	0	2353004544	49	4060
2026-01-01 05:15:13.38	210.37	11.35	-43.9	-44.7	16.9	0.00e+00	0	63	0	2360344576	49	4172
2026-01-01 05:15:14.35	210.37	11.26	-43.7	-44.4	17.2	0.00e+00	0	63	0	2367684608	49	4049
2026-01-01 05:15:15.32	210.37	11.17	-44.0	-44.8	16.8	0.00e+00	0	63	0	2375024640	49	4238
2026-01-01 05:15:16.28	210.37	11.08	-44.2	-45.0	16.6	0.00e+00	0	63	0	2381316096	50	4090
2026-01-01 05:15:17.25	210.37	10.99	-44.1	-44.9	16.7	0.00e+00	0	63	0	2388656128	50	4025
2026-01-01 05:15:18.21	210.37	10.91	-44.3	-45.2	16.5	0.00e+00	0	63	0	2395996160	50	4155
2026-01-01 05:15:19.18	210.36	10.82	-44.4	-45.3	16.3	0.00e+00	0	63	0	2402287616	50	4221
2026-01-01 05:15:20.15	210.36	10.73	-44.1	-44.9	16.7	0.00e+00	0	63	0	2409627648	50	4022
2026-01-01 05:15:21.12	210.36	10.64	-44.0	-44.9	16.7	0.00e+00	0	63	0	2416967680	50	4007
2026-01-01 05:15:22.09	210.36	10.56	-44.3	-45.1	16.5	0.00e+00	0	63	0	2423259136	50	4114
2026-01-01 05:15:23.05	210.36	10.47	-44.5	-45.4	16.2	0.00e+00	0	63	0	2430599168	50	4277
2026-01-01 05:15:24.02	210.36	10.39	-44.7	-45.6	16.0	0.00e+00	0	63	0	2437939200	50	4361
2026-01-01 05:15:24.99	210.36	10.30	-45.0	-45.9	15.7	0.00e+00	0	63	0	2444230656	51	4286
2026-01-01 05:15:25.96	210.35	10.21	-44.7	-45.6	16.0	0.00e+00	0	63	0	2451570688	51	4133
2026-01-01 05:15:26.92	210.35	10.13	-44.4	-45.3	16.3	0.00e+00	0	63	0	2458910720	51	3977
2026-01-01 05:15:27.89	210.35	10.04	-44.1	-44.9	16.6	0.00e+00	0	63	0	2465202176	51	3823
2026-01-01 05:15:28.86	210.35	9.96	-43.9	-44.7	16.9	0.00e+00	0	63	0	2472542208	50	3937
2026-01-01 05:15:29.82	210.35	9.88	-43.9	-44.7	16.9	0.00e+00	0	63	0	2478833664	50	3916
2026-01-01 05:15:30.79	210.35	9.79	-43.9	-44.7	16.9	0.00e+00	0	63	0	2486173696	50	3933
2026-01-01 05:15:31.76	210.35	9.71	-44.1	-45.0	16.6	0.00e+00	0	63	0	2493513728	50	4054
2026-01-01 05:15:32.73	210.35	9.63	-44.1	-44.9	16.6	0.00e+00	0	63	0	2499805184	50	4042
2026-01-01 05:15:33.69	210.34	9.54	-44.1	-45.0	16.6	0.00e+00	0	63	0	2507145216	50	4057
2026-01-01 05:15:34.66	210.34	9.46	-44.5	-45.4	16.2	0.00e+00	0	63	0	2514485248	50	4262
2026-01-01 05:15:35.63	210.34	9.38	-44.4	-45.3	16.3	0.00e+00	0	63	0	2520776704	50	4210
2026-01-01 05:15:36.60	210.34	9.29	-44.2	-45.0	16.5	0.00e+00	0	63	0	2528116736	50	4088
2026-01-01 05:15:37.56	210.34	9.21	-43.9	-44.7	16.8	0.00e+00	0	63	0	2535456768	50	3946
2026-01-01 05:15:38.53	210.34	9.13	-43.7	-44.4	17.1	0.00e+00	0	63	0	2541748224	50	3823
2026-01-01 05:15:39.50	210.34	9.05	-43.6	-44.4	17.1	0.00e+00	0	63	0	2549088256	50	3783
2026-01-01 05:15:40.47	210.34	8.97	-43.7	-44.4	17.1	0.00e+00	0	63	0	2556428288	50	3821
2026-01-01 05:15:41.44	210.34	8.89	-43.8	-44.6	16.9	0.00e+00	0	63	0	2562719744	50	3875
2026-01-01 05:15:42.40	210.34	8.81	-43.9	-44.7	16.8	0.00e+00	0	63	0	2570059776	50	3921
2026-01-01 05:15:43.37	210.33	8.73	-43.9	-44.7	16.8	0.00e+00	0	63	0	2577399808	50	3932
2026-01-01 05:15:44.33	210.33	8.65	-44.0	-44.8	16.7	0.00e+00	0	63	0	2583691264	50	3982
2026-01-01 05:15:45.31	210.33	8.57	-43.8	-44.6	16.9	0.00e+00	0	63	0	2591031296	50	3903
2026-01-01 05:15:46.27	210.33	8.49	-43.7	-44.5	17.0	0.00e+00	0	63	0	2598371328	50	3837
2026-01-01 05:15:47.24	210.33	8.41	-43.8	-44.6	16.8	0.00e+00	0	63	0	2604662784	50	3902
2026-01-01 05:15:48.21	210.33	8.33	-44.0	-44.8	16.6	0.00e+00	0	63	0	2612002816	50	3989
2026-01-01 05:15:49.18	210.33	8.25	-43.9	-44.7	16.8	0.00e+00	0	63	0	2619342848	50	3941
2026-01-01 05:15:50.14	210.33	8.17	-44.1	-44.9	16.5	0.00e+00	0	63	0	2625634304	50	4050
2026-01-01 05:15:51.11	210.33	8.09	-44.0	-44.8	16.7	0.00e+00	0	63	0	2632974336	50	3972
2026-01-01 05:15:52.08	210.33	8.02	-44.0	-44.8	16.6	0.00e+00	0	63	0	2640314368	50	3975
2026-01-01 05:15:53.05	210.33	7.94	-44.0	-44.8	16.6	0.00e+00	0	63	0	2646605824	50	4001
2026-01-01 05:15:54.02	210.33	7.86	-44.0	-44.8	16.7	0.00e+00	0	63	0	2653945856	50	3975
2026-01-01 05:15:55.00	210.33	7.78	-43.8	-44.6	16.8	0.00e+00	0	63	0	2661285888	50	3906
2026-01-01 05:15:55.97	210.32	7.70	-43.9	-44.7	16.7	0.00e+00	0	63	0	2667577344	50	3936
2026-01-01 05:15:56.94	210.32	7.63	-44.0	-44.8	16.6	0.00e+00	0	63	0	2674917376	50	3985
2026-01-01 05:15:57.91	210.32	7.55	-43.9	-44.7	16.7	0.00e+00	0	63	0	2682257408	50	3939
2026-01-01 05:15:58.88	210.32	7.47	-44.0	-44.8	16.5	0.00e+00	0	63	0	2688548864	50	4004
2026-01-01 05:15:59.85	210.32	7.40	-44.1	-44.9	16.5	0.00e+00	0	63	0	2695888896	50	4050
2026-01-01 05:16:00.82	210.32	7.32	-44.2	-45.0	16.3	0.00e+00	0	63	0	2703228928	50	4097
2026-01-01 05:16:01.79	210.32	7.25	-44.2	-45.1	16.3	0.00e+00	0	63	0	2709520384	50	4125
2026-01-01 05:16:02.76	210.32	7.17	-44.4	-45.2	16.1	0.00e+00	0	63	0	2716860416	50	4188
2026-01-01 05:16:03.73	210.32	7.09	-44.3	-45.2	16.2	0.00e+00	0	63	0	2724200448	50	4164
2026-01-01 05:16:04.70	210.32	7.02	-44.4	-45.2	16.1	0.00e+00	0	63	0	2730491904	50	4190
2026-01-01 05:16:05.67	210.32	6.94	-44.2	-45.1	16.2	0.00e+00	0	63	0	2737831936	50	4129
2026-01-01 05:16:06.64	210.32	6.87	-44.4	-45.3	16.0	0.00e+00	0	63	0	2745171968	50	4218
2026-01-01 05:16:07.60	210.32	6.80	-44.3	-45.2	16.1	0.00e+00	0	63	0	2751463424	50	4171
2026-01-01 05:16:08.57	210.32	6.72	-44.3	-45.1	16.2	0.00e+00	0	63	0	2758803456	50	4140
2026-01-01 05:16:09.54	210.32	6.65	-44.4	-45.3	16.1	0.00e+00	0	63	0	2766143488	50	4198
2026-01-01 05:16:10.51	210.32	6.57	-44.5	-45.4	15.9	0.00e+00	0	63	0	2772434944	50	4281
2026-01-01 05:16:11.47	210.32	6.50	-44.5	-45.4	15.9	0.00e+00	0	63	0	2779774976	50	4263
2026-01-01 05:16:12.44	210.32	6.43	-44.6	-45.5	15.8	0.00e+00	0	63	0	2787115008	50	4324
2026-01-01 05:16:13.41	210.32	6.35	-44.8	-45.8	15.5	0.00e+00	0	63	0	2793406464	51	4214
2026-01-01 05:16:14.38	210.32	6.28	-44.9	-45.9	15.4	0.00e+00	0	63	0	2800746496	51	4272
2026-01-01 05:16:15.34	210.32	6.21	-44.9	-45.9	15.3	0.00e+00	0	63	0	2808086528	51	4276
2026-01-01 05:16:16.31	210.32	6.13	-45.0	-46.0	15.2	0.00e+00	0	63	0	2814377984	51	4332
2026-01-01 05:16:17.28	210.32	6.06	-45.2	-46.3	14.9	0.00e+00	0	63	0	2821718016	52	4199
2026-01-01 05:16:18.24	210.32	5.99	-45.0	-46.0	15.2	0.00e+00	0	63	0	2829058048	52	4075
2026-01-01 05:16:19.21	210.32	5.92	-44.9	-45.9	15.3	0.00e+00	0	63	0	2836398080	52	4022
2026-01-01 05:16:20.18	210.32	5.85	-44.9	-45.9	15.2	0.00e+00	0	63	0	2842689536	52	4030
2026-01-01 05:16:21.15	210.32	5.77	-45.2	-46.3	14.9	0.00e+00	0	63	0	2850029568	52	4195
2026-01-01 05:16:22.12	210.31	5.70	-45.0	-46.0	15.1	0.00e+00	0	63	0	2857369600	52	4083
2026-01-01 05:16:23.09	210.31	5.63	-44.8	-45.8	15.3	0.00e+00	0	63	0	2863661056	52	3998
2026-01-01 05:16:24.06	210.31	5.56	-44.8	-45.8	15.3	0.00e+00	0	63	0	2871001088	52	4003
2026-01-01 05:16:25.03	210.31	5.49	-44.9	-46.0	15.1	0.00e+00	0	63	0	2877292544	52	4054
2026-01-01 05:16:26.00	210.31	5.42	-44.7	-45.8	15.3	0.00e+00	0	63	0	2884632576	52	3961
2026-01-01 05:16:26.97	210.31	5.35	-45.0	-46.0	15.1	0.00e+00	0	63	0	2891972608	52	4086
2026-01-01 05:16:27.94	210.31	5.28	-44.8	-45.8	15.3	0.00e+00	0	63	0	2898264064	52	3981
2026-01-01 05:16:28.90	210.31	5.21	-44.8	-45.8	15.2	0.00e+00	0	63	0	2905604096	52	3998
2026-01-01 05:16:29.87	210.31	5.14	-44.7	-45.8	15.3	0.00e+00	0	63	0	2912944128	52	3965
2026-01-01 05:16:30.83	210.31	5.07	-45.6	-46.9	14.3	0.00e+00	0	63	0	2919235584	52	4496
2026-01-01 05:16:31.81	210.31	5.00	-52.0	-62.1	3.8	8.46e-01	0	63	104	2922381312	65	12269
2026-01-01 05:16:32.80	210.31	4.93	-51.7	-61.9	3.8	8.46e-01	0	63	104	2922381312	65	11993
2026-01-01 05:16:33.78	210.31	4.86	-52.1	-62.3	3.8	8.47e-01	0	63	104	2922381312	65	12584
2026-01-01 05:16:34.77	210.31	4.79	-52.6	-62.7	3.8	8.47e-01	0	63	104	2922381312	66	12432
2026-01-01 05:16:35.76	210.31	4.72	-52.6	-62.8	3.8	8.46e-01	0	63	104	2922381312	66	12558
2026-01-01 05:16:36.74	210.31	4.65	-52.7	-62.8	3.8	8.47e-01	0	63	104	2922381312	66	12588
2026-01-01 05:16:37.73	210.32	4.58	-52.7	-62.8	3.8	8.46e-01	0	63	104	2922381312	67	11926
2026-01-01 05:16:38.72	210.32	4.51	-52.6	-62.7	3.8	8.47e-01	0	63	104	2922381312	67	11814
2026-01-01 05:16:39.70	210.32	4.44	-52.8	-62.9	3.8	8.46e-01	0	63	104	2922381312	67	12093
2026-01-01 05:16:40.69	210.32	4.37	-52.8	-62.9	3.8	8.46e-01	0	63	104	2922381312	67	12076
2026-01-01 05:16:41.67	210.32	4.30	-52.8	-63.0	3.8	8.46e-01	0	63	104	2922381312	67	12105
2026-01-01 05:16:42.65	210.32	4.23	-52.8	-62.9	3.8	8.46e-01	0	63	104	2922381312	67	12085
2026-01-01 05:16:43.64	210.32	4.16	-52.8	-63.0	3.8	8.47e-01	0	63	104	2922381312	67	12170
2026-01-01 05:16:44.62	210.32	4.10	-52.9	-63.0	3.8	8.45e-01	0	63	104	2922381312	67	12156
2026-01-01 05:16:45.60	210.32	4.03	-52.9	-63.0	3.8	8.45e-01	0	63	104	2922381312	67	12194
2026-01-01 05:16:46.59	210.32	3.96	-52.8	-63.0	3.8	8.46e-01	0	63	104	2922381312	67	12123
2026-01-01 05:16:47.58	210.32	3.89	-52.9	-63.1	3.8	8.47e-01	0	63	104	2922381312	67	12244
2026-01-01 05:16:48.56	210.32	3.82	-52.9	-63.0	3.8	8.46e-01	0	63	104	2922381312	67	12206
2026-01-01 05:16:49.55	210.32	3.76	-52.9	-63.1	3.8	8.45e-01	0	63	104	2922381312	67	12277
2026-01-01 05:16:50.53	210.32	3.69	-53.0	-63.1	3.8	8.46e-01	0	63	104	2922381312	67	12267
2026-01-01 05:16:51.51	210.32	3.62	-53.0	-63.1	3.8	8.46e-01	0	63	104	2922381312	67	12309
2026-01-01 05:16:52.50	210.32	3.56	-53.0	-63.1	3.8	8.47e-01	0	63	104	2922381312	67	12314
2026-01-01 05:16:53.48	210.32	3.49	-53.0	-63.1	3.8	8.45e-01	0	63	104	2922381312	67	12309
2026-01-01 05:16:54.47	210.32	3.42	-53.0	-63.1	3.8	8.46e-01	0	63	104	2922381312	67	12373
2026-01-01 05:16:55.46	210.32	3.36	-53.0	-63.1	3.8	8.46e-01	0	63	104	2922381312	67	12349
2026-01-01 05:16:56.45	210.32	3.29	-53.0	-63.1	3.8	8.47e-01	0	63	104	2922381312	67	12352
2026-01-01 05:16:57.43	210.32	3.22	-53.0	-63.1	3.8	8.47e-01	0	63	104	2922381312	67	12321
2026-01-01 05:16:58.41	210.32	3.16	-53.0	-63.1	3.8	8.46e-01	0	63	104	2922381312	67	12326
2026-01-01 05:16:59.40	210.32	3.09	-53.0	-63.1	3.8	8.46e-01	0	63	104	2922381312	67	12295
2026-01-01 05:17:00.39	210.32	3.02	-53.0	-63.1	3.8	8.47e-01	0	63	104	2922381312	67	12324
2026-01-01 05:17:01.37	210.32	2.96	-53.0	-63.1	3.8	8.46e-01	0	63	104	2922381312	67	12319

#Closed at: 2026-01-01 05:17:01
#Recorded file [2922 MB]: D:/Data/31026_260101_081631.dat