passes_logs/2026/01/01/R3.0SM8_Murmansk_STILSPACE/R3.0SM8_Murmansk_STILSPACE__20260101_131344_FENGYUN_3D_rec.log

#Pass ID: 20260101_131344_FENGYUN 3D
#Satellite: FENGYUN 3D
#Configuration: FENGYUN 3D
#almurnet v.1.7.20240730
#Start time: 2026-01-01 13:13:45

#Version: 2.2.20231116
#Station: R3.0SM8_Murmansk_STILSPACE
#Location: 33.092731 lon 68.902999 lat
#TLE: 1 43010U 17072A   25365.97861918  .00000231  00000+0  13096-3 0  9992
#TLE: 2 43010  98.9911 332.5795 0001872 134.7521 225.3807 14.19690547421260

#Time	Az	El	Level	Level2	SNR	BER	BlckErr	Temp	State	Recorded	gain1	gain2
2026-01-01 13:13:45.52	194.43	3.06	-52.2	-63.1	3.8	8.47e-01	0	47	0	0	67	12503
2026-01-01 13:13:46.51	194.48	3.12	-52.1	-63.0	3.8	8.45e-01	0	47	104	0	67	12263
2026-01-01 13:13:47.49	194.54	3.18	-52.1	-62.9	3.8	8.45e-01	0	47	104	0	67	12150
2026-01-01 13:13:48.48	194.59	3.24	-51.9	-62.7	3.8	8.45e-01	0	47	104	0	66	12557
2026-01-01 13:13:49.47	194.65	3.30	-51.8	-62.3	3.8	8.46e-01	0	47	104	0	66	12067
2026-01-01 13:13:50.46	194.70	3.37	-51.5	-62.3	3.8	8.47e-01	0	47	104	0	66	12007
2026-01-01 13:13:51.45	194.76	3.43	-51.5	-62.3	3.8	8.46e-01	0	47	104	0	65	12754
2026-01-01 13:13:52.44	194.81	3.49	-51.5	-62.3	3.8	8.46e-01	0	47	104	0	65	12673
2026-01-01 13:13:53.43	194.87	3.55	-51.5	-62.2	3.8	8.45e-01	0	47	104	0	65	12644
2026-01-01 13:13:54.41	194.92	3.61	-51.4	-62.2	3.8	8.46e-01	0	47	104	0	65	12529
2026-01-01 13:13:55.40	194.98	3.67	-51.4	-62.1	3.8	8.47e-01	0	47	104	0	65	12504
2026-01-01 13:13:56.39	195.04	3.74	-51.4	-62.1	3.8	8.46e-01	0	48	104	0	65	12482
2026-01-01 13:13:57.37	195.09	3.80	-51.4	-62.1	3.8	8.46e-01	0	48	104	0	65	12441
2026-01-01 13:13:58.36	195.15	3.86	-51.4	-62.1	3.8	8.47e-01	0	48	104	0	65	12380
2026-01-01 13:13:59.35	195.21	3.92	-51.5	-62.1	3.8	8.47e-01	0	48	104	0	65	12391
2026-01-01 13:14:00.33	195.26	3.99	-51.5	-62.1	3.8	8.47e-01	0	48	104	0	65	12380
2026-01-01 13:14:01.32	195.32	4.05	-51.4	-62.1	3.8	8.47e-01	0	48	104	0	65	12517
2026-01-01 13:14:02.30	195.38	4.11	-51.5	-62.2	3.8	8.46e-01	0	48	104	0	65	12623
2026-01-01 13:14:03.29	195.44	4.17	-51.4	-62.3	3.8	8.46e-01	0	48	104	0	65	12742
2026-01-01 13:14:04.28	195.49	4.24	-51.5	-62.3	3.8	8.46e-01	0	48	104	0	65	12789
2026-01-01 13:14:05.26	195.55	4.30	-51.5	-62.3	3.8	8.46e-01	0	48	104	0	65	12692
2026-01-01 13:14:06.25	195.61	4.36	-51.4	-62.0	3.8	8.47e-01	0	48	104	0	65	12235
2026-01-01 13:14:07.25	195.67	4.43	-51.3	-61.2	3.8	8.46e-01	0	49	104	0	65	11222
2026-01-01 13:14:08.24	195.73	4.49	-51.2	-60.0	3.8	8.46e-01	0	48	104	0	65	9785
2026-01-01 13:14:09.23	195.79	4.56	-50.9	-58.4	4.3	8.42e-01	0	48	0	0	64	8564
2026-01-01 13:14:10.21	195.85	4.62	-50.6	-56.8	5.0	7.87e-01	0	48	0	0	64	7134
2026-01-01 13:14:11.21	195.91	4.68	-50.2	-55.4	6.0	4.99e-01	0	49	0	2097152	63	6444
2026-01-01 13:14:12.20	195.97	4.75	-49.7	-54.1	7.1	2.27e-01	0	48	0	7340032	62	5870
2026-01-01 13:14:13.19	196.03	4.81	-49.2	-52.8	8.3	7.85e-02	0	49	0	12582912	61	5363
2026-01-01 13:14:14.18	196.09	4.88	-48.7	-51.9	9.2	3.54e-02	0	49	0	18874368	60	5119
2026-01-01 13:14:15.16	196.15	4.94	-48.2	-50.8	10.4	7.73e-03	0	49	0	24117248	59	4763
2026-01-01 13:14:16.15	196.21	5.00	-47.6	-49.8	11.4	1.83e-03	0	49	0	29360128	58	4526
2026-01-01 13:14:17.14	196.27	5.07	-47.2	-49.2	12.0	7.70e-04	0	49	0	35651584	57	4482
2026-01-01 13:14:18.13	196.33	5.13	-47.0	-49.0	12.4	2.41e-04	0	49	0	40894464	57	4341
2026-01-01 13:14:19.12	196.39	5.20	-47.5	-49.7	11.6	5.02e-04	0	49	0	46137344	57	4728
2026-01-01 13:14:20.11	196.46	5.27	-47.0	-49.0	12.3	3.23e-04	0	49	0	51380224	57	4368
2026-01-01 13:14:21.11	196.52	5.33	-46.6	-48.4	12.9	1.27e-04	0	49	0	57671680	56	4326
2026-01-01 13:14:22.10	196.58	5.40	-46.1	-47.8	13.5	4.00e-05	0	49	0	62914560	55	4246
2026-01-01 13:14:23.09	196.65	5.46	-45.8	-47.4	13.9	4.50e-06	0	49	0	68157440	54	4309
2026-01-01 13:14:24.07	196.71	5.53	-45.3	-46.7	14.5	3.40e-06	0	49	0	74448896	53	4235
2026-01-01 13:14:25.07	196.77	5.59	-45.2	-46.5	14.7	1.10e-06	0	49	0	79691776	53	4143
2026-01-01 13:14:26.05	196.83	5.66	-44.7	-45.9	15.3	0.00e+00	0	50	0	84934656	52	4092
2026-01-01 13:14:27.04	196.90	5.73	-44.7	-45.9	15.3	0.00e+00	0	49	0	91226112	52	4079
2026-01-01 13:14:28.03	196.96	5.79	-44.6	-45.9	15.4	0.00e+00	0	49	0	96468992	52	4081
2026-01-01 13:14:29.01	197.03	5.86	-44.6	-45.8	15.4	0.00e+00	0	49	0	101711872	52	4040
2026-01-01 13:14:30.00	197.09	5.93	-44.6	-45.9	15.4	0.00e+00	0	50	0	106954752	52	4063
2026-01-01 13:14:30.98	197.16	5.99	-44.6	-45.9	15.4	1.10e-06	0	50	0	113246208	52	4061
2026-01-01 13:14:31.97	197.22	6.06	-44.6	-45.9	15.5	0.00e+00	0	50	0	118489088	52	4065
2026-01-01 13:14:32.96	197.29	6.13	-44.7	-46.0	15.3	0.00e+00	0	50	0	123731968	52	4107
2026-01-01 13:14:33.95	197.35	6.19	-44.7	-45.9	15.4	0.00e+00	0	50	0	130023424	52	4066
2026-01-01 13:14:34.94	197.42	6.26	-44.8	-46.1	15.3	0.00e+00	0	50	0	135266304	52	4167
2026-01-01 13:14:35.94	197.49	6.33	-44.5	-45.7	15.6	0.00e+00	0	50	0	140509184	52	4001
2026-01-01 13:14:36.92	197.55	6.40	-44.5	-45.7	15.7	0.00e+00	0	50	0	145752064	52	3970
2026-01-01 13:14:37.91	197.62	6.46	-44.6	-45.7	15.6	0.00e+00	0	50	0	152043520	52	3999
2026-01-01 13:14:38.90	197.69	6.53	-44.8	-46.0	15.4	0.00e+00	0	50	0	157286400	52	4115
2026-01-01 13:14:39.88	197.75	6.60	-44.5	-45.7	15.7	0.00e+00	0	50	0	163577856	52	3973
2026-01-01 13:14:40.88	197.82	6.67	-44.5	-45.6	15.7	0.00e+00	0	50	0	168820736	52	3958
2026-01-01 13:14:41.87	197.89	6.74	-44.5	-45.7	15.6	0.00e+00	0	50	0	174063616	52	4002
2026-01-01 13:14:42.86	197.96	6.80	-44.7	-46.0	15.4	0.00e+00	0	50	0	179306496	52	4106
2026-01-01 13:14:43.85	198.03	6.87	-44.6	-45.8	15.6	0.00e+00	0	50	0	185597952	52	4008
2026-01-01 13:14:44.84	198.10	6.94	-44.4	-45.6	15.8	0.00e+00	0	51	0	190840832	52	3945
2026-01-01 13:14:45.82	198.17	7.01	-44.5	-45.7	15.7	0.00e+00	0	51	0	197132288	52	3992
2026-01-01 13:14:46.82	198.24	7.08	-44.4	-45.6	15.8	0.00e+00	0	51	0	202375168	52	3929
2026-01-01 13:14:47.80	198.31	7.15	-44.4	-45.6	15.9	0.00e+00	0	50	0	207618048	51	4169
2026-01-01 13:14:48.80	198.38	7.22	-44.5	-45.7	15.8	0.00e+00	0	51	0	212860928	51	4205
2026-01-01 13:14:49.79	198.45	7.29	-44.5	-45.6	15.9	0.00e+00	0	51	0	219152384	51	4177
2026-01-01 13:14:50.78	198.52	7.36	-44.3	-45.4	16.1	0.00e+00	0	51	0	224395264	51	4075
2026-01-01 13:14:51.77	198.59	7.43	-44.1	-45.2	16.3	0.00e+00	0	51	0	229638144	51	4004
2026-01-01 13:14:52.77	198.66	7.50	-44.2	-45.3	16.2	0.00e+00	0	51	0	235929600	51	4024
2026-01-01 13:14:53.75	198.73	7.57	-44.2	-45.2	16.3	0.00e+00	0	51	0	241172480	51	4001
2026-01-01 13:14:54.73	198.81	7.64	-44.2	-45.3	16.2	0.00e+00	0	51	0	246415360	51	4028
2026-01-01 13:14:55.72	198.88	7.71	-44.4	-45.5	16.0	0.00e+00	0	51	0	251658240	51	4134
2026-01-01 13:14:56.71	198.95	7.78	-44.3	-45.4	16.1	0.00e+00	0	51	0	257949696	51	4084
2026-01-01 13:14:57.70	199.03	7.85	-44.2	-45.3	16.3	0.00e+00	0	51	0	263192576	51	4032
2026-01-01 13:14:58.69	199.10	7.92	-44.3	-45.5	16.1	0.00e+00	0	51	0	268435456	51	4100
2026-01-01 13:14:59.67	199.17	7.99	-44.2	-45.2	16.3	0.00e+00	0	51	0	274726912	51	4001
2026-01-01 13:15:00.66	199.25	8.06	-44.1	-45.2	16.3	0.00e+00	0	51	0	279969792	51	3996
2026-01-01 13:15:01.65	199.32	8.14	-44.3	-45.4	16.2	0.00e+00	0	51	0	285212672	51	4094
2026-01-01 13:15:02.64	199.40	8.21	-44.2	-45.3	16.2	0.00e+00	0	51	0	291504128	51	4042
2026-01-01 13:15:03.63	199.47	8.28	-44.0	-45.1	16.5	0.00e+00	0	51	0	296747008	51	3949
2026-01-01 13:15:04.63	199.55	8.35	-43.9	-45.0	16.6	0.00e+00	0	51	0	301989888	51	3882
2026-01-01 13:15:05.61	199.62	8.42	-43.9	-45.0	16.6	0.00e+00	0	51	0	307232768	51	3869
2026-01-01 13:15:06.60	199.70	8.50	-43.9	-44.9	16.7	0.00e+00	0	51	0	313524224	50	4078
2026-01-01 13:15:07.59	199.78	8.57	-43.8	-44.8	16.7	0.00e+00	0	51	0	318767104	50	4051
2026-01-01 13:15:08.58	199.85	8.64	-44.0	-45.1	16.5	0.00e+00	0	51	0	325058560	50	4158
2026-01-01 13:15:09.57	199.93	8.71	-43.9	-44.9	16.7	0.00e+00	0	51	0	330301440	50	4092
2026-01-01 13:15:10.56	200.01	8.79	-43.7	-44.7	16.9	0.00e+00	0	51	0	335544320	50	4001
2026-01-01 13:15:11.54	200.09	8.86	-43.6	-44.6	17.1	0.00e+00	0	52	0	340787200	50	3918
2026-01-01 13:15:12.54	200.17	8.93	-43.6	-44.6	17.1	0.00e+00	0	52	0	347078656	50	3923
2026-01-01 13:15:13.53	200.25	9.01	-43.8	-44.7	16.9	0.00e+00	0	52	0	352321536	50	4004
2026-01-01 13:15:14.52	200.33	9.08	-43.7	-44.7	16.9	0.00e+00	0	52	0	357564416	50	3986
2026-01-01 13:15:15.51	200.41	9.15	-43.8	-44.8	16.9	0.00e+00	0	52	0	363855872	50	4013
2026-01-01 13:15:16.50	200.49	9.23	-43.8	-44.8	16.9	0.00e+00	0	52	0	369098752	50	4023
2026-01-01 13:15:17.49	200.57	9.30	-43.9	-44.9	16.8	0.00e+00	0	52	0	374341632	50	4075
2026-01-01 13:15:18.48	200.65	9.38	-43.9	-44.8	16.8	0.00e+00	0	52	0	380633088	50	4047
2026-01-01 13:15:19.47	200.73	9.45	-43.7	-44.7	17.0	0.00e+00	0	52	0	385875968	50	3994
2026-01-01 13:15:20.46	200.81	9.53	-43.6	-44.6	17.1	0.00e+00	0	52	0	391118848	50	3917
2026-01-01 13:15:21.46	200.89	9.60	-43.6	-44.6	17.1	0.00e+00	0	52	0	396361728	50	3923
2026-01-01 13:15:22.45	200.98	9.68	-43.7	-44.7	17.0	0.00e+00	0	52	0	402653184	50	3964
2026-01-01 13:15:23.44	201.06	9.75	-43.7	-44.7	17.0	0.00e+00	0	52	0	407896064	50	3975
2026-01-01 13:15:24.43	201.14	9.83	-43.5	-44.4	17.3	0.00e+00	0	52	0	414187520	50	3847
2026-01-01 13:15:25.41	201.23	9.90	-43.3	-44.2	17.5	0.00e+00	0	52	0	419430400	49	3997
2026-01-01 13:15:26.40	201.31	9.98	-43.3	-44.2	17.5	0.00e+00	0	52	0	424673280	49	3968
2026-01-01 13:15:27.38	201.39	10.05	-43.4	-44.4	17.3	0.00e+00	0	52	0	429916160	49	4061
2026-01-01 13:15:28.37	201.48	10.13	-43.6	-44.5	17.2	0.00e+00	0	52	0	435159040	49	4137
2026-01-01 13:15:29.35	201.56	10.21	-43.5	-44.5	17.2	0.00e+00	0	52	0	441450496	49	4106
2026-01-01 13:15:30.33	201.65	10.28	-43.5	-44.5	17.3	0.00e+00	0	52	0	446693376	49	4106
2026-01-01 13:15:31.32	201.74	10.36	-43.6	-44.5	17.2	0.00e+00	0	52	0	451936256	49	4131
2026-01-01 13:15:32.31	201.82	10.44	-43.7	-44.7	17.1	0.00e+00	0	52	0	458227712	49	4204
2026-01-01 13:15:33.30	201.91	10.51	-43.8	-44.8	16.9	0.00e+00	0	52	0	463470592	49	4270
2026-01-01 13:15:34.29	202.00	10.59	-43.6	-44.6	17.2	0.00e+00	0	52	0	468713472	49	4151
2026-01-01 13:15:35.28	202.08	10.67	-43.4	-44.3	17.4	0.00e+00	0	52	0	475004928	49	4044
2026-01-01 13:15:36.26	202.17	10.74	-43.3	-44.2	17.5	0.00e+00	0	52	0	480247808	49	3997
2026-01-01 13:15:37.25	202.26	10.82	-43.2	-44.2	17.6	0.00e+00	0	52	0	485490688	49	3976
2026-01-01 13:15:38.24	202.35	10.90	-43.3	-44.2	17.6	0.00e+00	0	52	0	491782144	49	3981
2026-01-01 13:15:39.23	202.44	10.98	-43.4	-44.3	17.6	0.00e+00	0	52	0	497025024	49	4008
2026-01-01 13:15:40.21	202.53	11.06	-43.5	-44.4	17.4	0.00e+00	0	52	0	502267904	49	4069
2026-01-01 13:15:41.20	202.62	11.13	-43.3	-44.1	17.7	0.00e+00	0	52	0	507510784	49	3943
2026-01-01 13:15:42.19	202.71	11.21	-43.1	-43.9	17.9	0.00e+00	0	53	0	513802240	49	3853
2026-01-01 13:15:43.18	202.80	11.29	-43.0	-43.8	18.1	0.00e+00	0	53	0	519045120	49	3789
2026-01-01 13:15:44.17	202.90	11.37	-42.9	-43.8	18.1	0.00e+00	0	53	0	525336576	49	3784
2026-01-01 13:15:45.16	202.99	11.45	-42.9	-43.7	18.1	0.00e+00	0	53	0	530579456	49	3777
2026-01-01 13:15:46.14	203.08	11.53	-43.0	-43.8	18.0	0.00e+00	0	53	0	535822336	49	3823
2026-01-01 13:15:47.13	203.18	11.61	-43.2	-44.1	17.8	0.00e+00	0	53	0	541065216	49	3922
2026-01-01 13:15:48.12	203.27	11.69	-43.4	-44.3	17.6	0.00e+00	0	53	0	546308096	49	4023
2026-01-01 13:15:49.10	203.36	11.77	-43.2	-44.0	17.8	0.00e+00	0	53	0	552599552	49	3913
2026-01-01 13:15:50.09	203.46	11.85	-43.1	-44.0	17.9	0.00e+00	0	53	0	557842432	49	3882
2026-01-01 13:15:51.08	203.55	11.93	-43.2	-44.1	17.8	0.00e+00	0	53	0	564133888	49	3921
2026-01-01 13:15:52.06	203.65	12.01	-43.3	-44.2	17.7	0.00e+00	0	53	0	569376768	49	3982
2026-01-01 13:15:53.05	203.75	12.09	-43.1	-44.0	17.9	0.00e+00	0	53	0	574619648	49	3881
2026-01-01 13:15:54.04	203.84	12.17	-43.3	-44.2	17.7	0.00e+00	0	53	0	579862528	49	3968
2026-01-01 13:15:55.03	203.94	12.25	-43.6	-44.5	17.4	0.00e+00	0	53	0	586153984	49	4113
2026-01-01 13:15:56.02	204.04	12.33	-43.3	-44.1	17.8	0.00e+00	0	53	0	591396864	49	3939
2026-01-01 13:15:57.00	204.14	12.42	-43.0	-43.8	18.1	0.00e+00	0	53	0	596639744	49	3809
2026-01-01 13:15:57.99	204.24	12.50	-42.8	-43.6	18.3	0.00e+00	0	53	0	602931200	48	3929
2026-01-01 13:15:58.99	204.34	12.58	-42.7	-43.5	18.4	0.00e+00	0	53	0	608174080	48	3870
2026-01-01 13:15:59.97	204.44	12.66	-42.8	-43.5	18.3	0.00e+00	0	53	0	613416960	48	3909
2026-01-01 13:16:00.95	204.54	12.74	-42.6	-43.4	18.5	0.00e+00	0	53	0	618659840	48	3833
2026-01-01 13:16:01.94	204.64	12.83	-42.6	-43.4	18.5	0.00e+00	0	53	0	624951296	48	3829
2026-01-01 13:16:02.93	204.74	12.91	-42.7	-43.5	18.4	0.00e+00	0	53	0	630194176	48	3869
2026-01-01 13:16:03.92	204.84	12.99	-42.6	-43.3	18.5	0.00e+00	0	53	0	635437056	48	3815
2026-01-01 13:16:04.90	204.94	13.07	-42.6	-43.3	18.5	0.00e+00	0	53	0	641728512	48	3821
2026-01-01 13:16:05.90	205.05	13.16	-42.7	-43.5	18.4	0.00e+00	0	53	0	646971392	48	3869
2026-01-01 13:16:06.90	205.15	13.24	-42.6	-43.4	18.5	0.00e+00	0	53	0	652214272	48	3838
2026-01-01 13:16:07.89	205.26	13.33	-42.7	-43.5	18.4	0.00e+00	0	53	0	658505728	48	3891
2026-01-01 13:16:08.88	205.36	13.41	-43.0	-43.8	18.1	0.00e+00	0	53	0	663748608	48	4032
2026-01-01 13:16:09.86	205.47	13.50	-42.7	-43.5	18.4	0.00e+00	0	53	0	668991488	48	3893
2026-01-01 13:16:10.86	205.57	13.58	-42.5	-43.2	18.7	0.00e+00	0	53	0	674234368	48	3771
2026-01-01 13:16:11.84	205.68	13.66	-42.1	-42.9	18.9	0.00e+00	0	53	0	680525824	47	3837
2026-01-01 13:16:12.83	205.79	13.75	-42.0	-42.8	19.0	0.00e+00	0	53	0	685768704	47	3791
2026-01-01 13:16:13.82	205.90	13.83	-42.1	-42.8	18.9	0.00e+00	0	53	0	692060160	47	3822
2026-01-01 13:16:14.82	206.01	13.92	-42.1	-42.8	18.9	0.00e+00	0	53	0	697303040	47	3806
2026-01-01 13:16:15.81	206.12	14.01	-42.0	-42.8	19.0	0.00e+00	0	53	0	702545920	47	3785
2026-01-01 13:16:16.80	206.23	14.09	-42.2	-42.9	18.8	0.00e+00	0	54	0	707788800	47	3837
2026-01-01 13:16:17.79	206.34	14.18	-42.1	-42.9	18.9	0.00e+00	0	54	0	714080256	47	3832
2026-01-01 13:16:18.79	206.45	14.27	-42.1	-42.9	18.9	0.00e+00	0	54	0	719323136	47	3834
2026-01-01 13:16:19.78	206.56	14.35	-42.2	-42.9	18.9	0.00e+00	0	53	0	724566016	47	3840
2026-01-01 13:16:20.78	206.67	14.44	-42.2	-42.9	18.8	0.00e+00	0	54	0	730857472	47	3863
2026-01-01 13:16:21.76	206.79	14.53	-42.3	-43.0	18.8	0.00e+00	0	54	0	736100352	47	3887
2026-01-01 13:16:22.75	206.90	14.61	-42.3	-43.1	18.7	0.00e+00	0	54	0	741343232	47	3931
2026-01-01 13:16:23.73	207.01	14.70	-42.5	-43.3	18.5	0.00e+00	0	54	0	747634688	47	4006
2026-01-01 13:16:24.73	207.13	14.79	-42.4	-43.1	18.6	0.00e+00	0	54	0	752877568	47	3956
2026-01-01 13:16:25.71	207.24	14.87	-42.2	-43.0	18.8	0.00e+00	0	54	0	758120448	47	3878
2026-01-01 13:16:26.70	207.36	14.96	-42.2	-43.0	18.8	0.00e+00	0	54	0	764411904	47	3870
2026-01-01 13:16:27.69	207.48	15.05	-42.2	-43.0	18.8	0.00e+00	0	54	0	769654784	47	3881
2026-01-01 13:16:28.67	207.59	15.14	-42.3	-43.1	18.7	0.00e+00	0	54	0	774897664	47	3936
2026-01-01 13:16:29.66	207.71	15.23	-42.6	-43.3	18.5	0.00e+00	0	54	0	780140544	47	4047
2026-01-01 13:16:30.64	207.83	15.31	-42.5	-43.2	18.6	0.00e+00	0	54	0	786432000	47	3999
2026-01-01 13:16:31.63	207.95	15.40	-42.2	-42.9	18.9	0.00e+00	0	54	0	791674880	47	3852
2026-01-01 13:16:32.61	208.07	15.49	-42.0	-42.8	19.0	0.00e+00	0	54	0	796917760	47	3783
2026-01-01 13:16:33.61	208.19	15.58	-41.9	-42.6	19.2	0.00e+00	0	54	0	803209216	47	3729
2026-01-01 13:16:34.59	208.31	15.67	-42.0	-42.7	19.1	0.00e+00	0	54	0	808452096	47	3751
2026-01-01 13:16:35.58	208.43	15.76	-41.9	-42.6	19.2	0.00e+00	0	54	0	813694976	47	3713
2026-01-01 13:16:36.57	208.56	15.85	-41.9	-42.7	19.2	0.00e+00	0	54	0	819986432	46	3961
2026-01-01 13:16:37.56	208.68	15.94	-42.0	-42.7	19.1	0.00e+00	0	54	0	825229312	46	3974
2026-01-01 13:16:38.55	208.81	16.03	-41.9	-42.6	19.2	0.00e+00	0	54	0	830472192	46	3925
2026-01-01 13:16:39.54	208.93	16.12	-41.9	-42.6	19.2	0.00e+00	0	54	0	835715072	46	3932
2026-01-01 13:16:40.52	209.06	16.21	-42.1	-42.8	19.0	0.00e+00	0	54	0	842006528	46	4023
2026-01-01 13:16:41.51	209.18	16.30	-42.1	-42.8	19.0	0.00e+00	0	54	0	847249408	46	4039
2026-01-01 13:16:42.50	209.31	16.39	-42.0	-42.7	19.1	0.00e+00	0	54	0	852492288	46	3992
2026-01-01 13:16:43.49	209.44	16.49	-42.1	-42.8	19.0	0.00e+00	0	54	0	858783744	46	4032
2026-01-01 13:16:44.48	209.57	16.58	-42.2	-42.9	18.9	0.00e+00	0	54	0	864026624	46	4098
2026-01-01 13:16:45.47	209.70	16.67	-42.2	-43.0	18.8	0.00e+00	0	54	0	869269504	46	4117
2026-01-01 13:16:46.45	209.83	16.76	-42.2	-43.0	18.9	0.00e+00	0	54	0	874512384	46	4110
2026-01-01 13:16:47.44	209.96	16.85	-42.2	-43.0	18.8	0.00e+00	0	54	0	880803840	46	4124
2026-01-01 13:16:48.42	210.09	16.94	-42.1	-42.8	19.0	0.00e+00	0	54	0	886046720	46	4031
2026-01-01 13:16:49.41	210.22	17.04	-42.0	-42.7	19.2	0.00e+00	0	54	0	891289600	46	3964
2026-01-01 13:16:50.40	210.36	17.13	-41.9	-42.6	19.2	0.00e+00	0	54	0	897581056	46	3952
2026-01-01 13:16:51.39	210.49	17.22	-41.9	-42.6	19.2	0.00e+00	0	54	0	902823936	46	3930
2026-01-01 13:16:52.37	210.62	17.32	-41.8	-42.5	19.3	0.00e+00	0	54	0	908066816	46	3881
2026-01-01 13:16:53.36	210.76	17.41	-41.8	-42.5	19.3	0.00e+00	0	54	0	913309696	46	3886
2026-01-01 13:16:54.36	210.90	17.50	-41.8	-42.4	19.4	0.00e+00	0	54	0	919601152	46	3868
2026-01-01 13:16:55.35	211.04	17.60	-41.7	-42.4	19.5	0.00e+00	0	54	0	924844032	46	3831
2026-01-01 13:16:56.35	211.18	17.69	-41.7	-42.4	19.4	0.00e+00	0	54	0	931135488	46	3858
2026-01-01 13:16:57.33	211.32	17.79	-41.8	-42.5	19.3	0.00e+00	0	54	0	936378368	46	3897
2026-01-01 13:16:58.33	211.46	17.88	-42.1	-42.8	19.0	0.00e+00	0	54	0	941621248	46	4026
2026-01-01 13:16:59.31	211.60	17.98	-42.2	-42.9	19.0	0.00e+00	0	55	0	946864128	46	4069
2026-01-01 13:17:00.30	211.74	18.07	-41.9	-42.6	19.2	0.00e+00	0	54	0	953155584	46	3942
2026-01-01 13:17:01.30	211.88	18.17	-41.7	-42.4	19.5	0.00e+00	0	54	0	958398464	46	3841
2026-01-01 13:17:02.29	212.03	18.26	-41.6	-42.3	19.5	0.00e+00	0	54	0	963641344	46	3808
2026-01-01 13:17:03.27	212.17	18.36	-41.6	-42.4	19.5	0.00e+00	0	54	0	969932800	46	3825
2026-01-01 13:17:04.26	212.32	18.45	-41.7	-42.4	19.4	0.00e+00	0	55	0	975175680	46	3854
2026-01-01 13:17:05.25	212.46	18.55	-41.5	-42.1	19.7	0.00e+00	0	54	0	980418560	46	3731
2026-01-01 13:17:06.23	212.61	18.64	-41.3	-42.0	19.8	0.00e+00	0	55	0	986710016	45	3887
2026-01-01 13:17:07.22	212.76	18.74	-41.3	-41.9	19.9	0.00e+00	0	55	0	991952896	45	3850
2026-01-01 13:17:08.21	212.90	18.84	-41.3	-41.9	19.9	0.00e+00	0	55	0	997195776	45	3848
2026-01-01 13:17:09.20	213.05	18.93	-41.3	-41.9	19.9	0.00e+00	0	54	0	1003487232	45	3863
2026-01-01 13:17:10.18	213.20	19.03	-41.4	-42.1	19.8	0.00e+00	0	55	0	1008730112	45	3919
2026-01-01 13:17:11.17	213.36	19.13	-41.5	-42.2	19.6	0.00e+00	0	54	0	1013972992	45	3991
2026-01-01 13:17:12.15	213.51	19.22	-41.3	-42.0	19.9	0.00e+00	0	55	0	1019215872	45	3870
2026-01-01 13:17:13.15	213.66	19.32	-41.2	-41.9	20.0	0.00e+00	0	55	0	1025507328	45	3842
2026-01-01 13:17:14.14	213.82	19.42	-41.4	-42.1	19.8	0.00e+00	0	55	0	1030750208	45	3924
2026-01-01 13:17:15.13	213.97	19.52	-41.6	-42.3	19.6	0.00e+00	0	55	0	1035993088	45	4009
2026-01-01 13:17:16.12	214.13	19.61	-41.6	-42.2	19.6	0.00e+00	0	55	0	1042284544	45	4004
2026-01-01 13:17:17.11	214.29	19.71	-41.6	-42.3	19.5	0.00e+00	0	55	0	1047527424	45	4042
2026-01-01 13:17:18.10	214.45	19.81	-41.8	-42.4	19.4	0.00e+00	0	55	0	1052770304	45	4093
2026-01-01 13:17:19.10	214.61	19.91	-41.6	-42.3	19.6	0.00e+00	0	55	0	1059061760	45	4014
2026-01-01 13:17:20.08	214.77	20.01	-41.6	-42.2	19.6	0.00e+00	0	55	0	1064304640	45	3997
2026-01-01 13:17:21.08	214.93	20.11	-41.6	-42.3	19.6	0.00e+00	0	55	0	1069547520	45	4009
2026-01-01 13:17:22.07	215.09	20.21	-41.9	-42.6	19.3	0.00e+00	0	55	0	1075838976	45	4156
2026-01-01 13:17:23.06	215.26	20.31	-41.6	-42.2	19.6	0.00e+00	0	55	0	1081081856	45	4001
2026-01-01 13:17:24.04	215.42	20.40	-41.3	-42.0	19.9	0.00e+00	0	55	0	1086324736	45	3874
2026-01-01 13:17:25.04	215.59	20.51	-41.2	-41.8	20.1	0.00e+00	0	55	0	1092616192	45	3812
2026-01-01 13:17:26.02	215.75	20.60	-41.1	-41.7	20.2	0.00e+00	0	55	0	1097859072	45	3760
2026-01-01 13:17:27.02	215.92	20.71	-41.0	-41.6	20.2	0.00e+00	0	55	0	1103101952	45	3723
2026-01-01 13:17:28.01	216.09	20.81	-41.1	-41.7	20.2	0.00e+00	0	55	0	1108344832	45	3758
2026-01-01 13:17:28.99	216.26	20.90	-40.9	-41.6	20.3	0.00e+00	0	55	0	1114636288	45	3709
2026-01-01 13:17:29.98	216.43	21.00	-41.1	-41.8	20.1	0.00e+00	0	55	0	1119879168	45	3786
2026-01-01 13:17:30.96	216.60	21.10	-41.0	-41.6	20.2	0.00e+00	0	55	0	1125122048	45	3737
2026-01-01 13:17:31.95	216.77	21.20	-41.2	-41.8	20.0	0.00e+00	0	55	0	1131413504	45	3809
2026-01-01 13:17:32.94	216.95	21.31	-41.4	-42.1	19.8	0.00e+00	0	55	0	1136656384	45	3928
2026-01-01 13:17:33.93	217.12	21.41	-41.2	-41.8	20.0	0.00e+00	0	55	0	1141899264	45	3820
2026-01-01 13:17:34.92	217.30	21.51	-41.3	-42.0	19.9	0.00e+00	0	55	0	1148190720	45	3883
2026-01-01 13:17:35.92	217.48	21.61	-41.3	-41.9	20.0	0.00e+00	0	55	0	1153433600	45	3862
2026-01-01 13:17:36.91	217.66	21.71	-41.3	-42.0	19.9	0.00e+00	0	55	0	1158676480	45	3876
2026-01-01 13:17:37.90	217.84	21.81	-41.4	-42.1	19.9	0.00e+00	0	55	0	1163919360	45	3914
2026-01-01 13:17:38.90	218.02	21.92	-41.6	-42.2	19.6	0.00e+00	0	55	0	1170210816	45	3999
2026-01-01 13:17:39.89	218.20	22.02	-41.4	-42.0	19.9	0.00e+00	0	55	0	1175453696	45	3898
2026-01-01 13:17:40.87	218.38	22.12	-41.1	-41.8	20.1	0.00e+00	0	55	0	1181745152	45	3783
2026-01-01 13:17:41.86	218.57	22.22	-41.0	-41.6	20.2	0.00e+00	0	55	0	1186988032	45	3737
2026-01-01 13:17:42.85	218.75	22.32	-41.0	-41.6	20.3	0.00e+00	0	55	0	1192230912	45	3731
2026-01-01 13:17:43.84	218.94	22.42	-41.0	-41.7	20.2	0.00e+00	0	55	0	1197473792	45	3746
2026-01-01 13:17:44.83	219.13	22.53	-40.9	-41.5	20.4	0.00e+00	0	55	0	1203765248	45	3685
2026-01-01 13:17:45.82	219.32	22.63	-40.8	-41.4	20.5	0.00e+00	0	55	0	1209008128	44	3827
2026-01-01 13:17:46.81	219.51	22.73	-40.7	-41.4	20.5	0.00e+00	0	55	0	1214251008	44	3834
2026-01-01 13:17:47.80	219.70	22.83	-40.9	-41.5	20.4	0.00e+00	0	55	0	1220542464	44	3884
2026-01-01 13:17:48.79	219.89	22.94	-41.1	-41.8	20.2	0.00e+00	0	55	0	1225785344	44	4005
2026-01-01 13:17:49.78	220.09	23.04	-41.0	-41.6	20.3	0.00e+00	0	55	0	1231028224	44	3923
2026-01-01 13:17:50.76	220.28	23.14	-41.0	-41.7	20.2	0.00e+00	0	55	0	1236271104	44	3964
2026-01-01 13:17:51.75	220.48	23.24	-41.0	-41.6	20.3	0.00e+00	0	55	0	1242562560	44	3953
2026-01-01 13:17:52.73	220.67	23.34	-40.9	-41.5	20.4	0.00e+00	0	55	0	1247805440	44	3882
2026-01-01 13:17:53.71	220.87	23.45	-40.9	-41.5	20.4	0.00e+00	0	55	0	1253048320	44	3912
2026-01-01 13:17:54.71	221.07	23.55	-41.1	-41.7	20.2	0.00e+00	0	55	0	1259339776	44	3987
2026-01-01 13:17:55.70	221.27	23.65	-41.0	-41.6	20.3	0.00e+00	0	55	0	1264582656	44	3939
2026-01-01 13:17:56.69	221.48	23.76	-40.8	-41.4	20.5	0.00e+00	0	55	0	1269825536	44	3847
2026-01-01 13:17:57.68	221.68	23.86	-40.7	-41.3	20.6	0.00e+00	0	55	0	1276116992	44	3797
2026-01-01 13:17:58.67	221.89	23.96	-40.7	-41.3	20.6	0.00e+00	0	55	0	1281359872	44	3791
2026-01-01 13:17:59.66	222.09	24.07	-40.6	-41.1	20.8	0.00e+00	0	55	0	1286602752	44	3735
2026-01-01 13:18:00.66	222.30	24.17	-40.4	-41.0	20.9	0.00e+00	0	55	0	1292894208	44	3664
2026-01-01 13:18:01.64	222.51	24.27	-40.0	-40.6	21.2	0.00e+00	0	55	0	1298137088	43	3724
2026-01-01 13:18:02.63	222.72	24.38	-40.0	-40.5	21.3	0.00e+00	0	55	0	1303379968	43	3684
2026-01-01 13:18:03.62	222.93	24.48	-40.0	-40.5	21.2	0.00e+00	0	55	0	1308622848	43	3685
2026-01-01 13:18:04.60	223.15	24.58	-40.0	-40.6	21.2	0.00e+00	0	55	0	1314914304	43	3719
2026-01-01 13:18:05.59	223.36	24.69	-40.2	-40.8	21.0	0.00e+00	0	56	0	1320157184	43	3810
2026-01-01 13:18:06.58	223.58	24.79	-40.4	-41.0	20.8	0.00e+00	0	55	0	1325400064	43	3882
2026-01-01 13:18:07.56	223.79	24.89	-40.4	-41.0	20.8	0.00e+00	0	55	0	1331691520	43	3884
2026-01-01 13:18:08.55	224.01	24.99	-40.4	-41.0	20.8	0.00e+00	0	55	0	1336934400	43	3874
2026-01-01 13:18:09.54	224.23	25.10	-40.5	-41.1	20.7	0.00e+00	0	55	0	1342177280	43	3918
2026-01-01 13:18:10.53	224.46	25.20	-40.6	-41.2	20.6	0.00e+00	0	55	0	1348468736	43	3985
2026-01-01 13:18:11.51	224.68	25.30	-40.6	-41.2	20.6	0.00e+00	0	56	0	1353711616	43	3967
2026-01-01 13:18:12.51	224.90	25.41	-40.6	-41.2	20.6	0.00e+00	0	56	0	1358954496	43	3986
2026-01-01 13:18:13.50	225.13	25.51	-40.6	-41.2	20.6	0.00e+00	0	55	0	1364197376	43	3992
2026-01-01 13:18:14.49	225.36	25.61	-40.7	-41.3	20.5	0.00e+00	0	56	0	1370488832	43	4034
2026-01-01 13:18:15.48	225.59	25.72	-40.7	-41.4	20.5	0.00e+00	0	56	0	1375731712	43	4056
2026-01-01 13:18:16.48	225.82	25.82	-40.5	-41.1	20.7	0.00e+00	0	55	0	1382023168	43	3922
2026-01-01 13:18:17.47	226.05	25.92	-40.3	-40.9	20.9	0.00e+00	0	55	0	1387266048	43	3830
2026-01-01 13:18:18.47	226.29	26.03	-40.1	-40.7	21.1	0.00e+00	0	56	0	1392508928	43	3767
2026-01-01 13:18:19.46	226.52	26.13	-40.1	-40.6	21.2	0.00e+00	0	56	0	1397751808	43	3722
2026-01-01 13:18:20.45	226.76	26.23	-39.9	-40.5	21.3	0.00e+00	0	56	0	1404043264	43	3665
2026-01-01 13:18:21.45	227.00	26.33	-39.7	-40.3	21.5	0.00e+00	0	56	0	1409286144	42	3798
2026-01-01 13:18:22.44	227.24	26.44	-39.7	-40.2	21.6	0.00e+00	0	56	0	1414529024	42	3770
2026-01-01 13:18:23.43	227.48	26.54	-39.6	-40.1	21.6	0.00e+00	0	56	0	1420820480	42	3737
2026-01-01 13:18:24.42	227.72	26.64	-39.5	-40.1	21.7	0.00e+00	0	56	0	1426063360	42	3703
2026-01-01 13:18:25.41	227.97	26.74	-39.7	-40.2	21.6	0.00e+00	0	56	0	1431306240	42	3765
2026-01-01 13:18:26.40	228.21	26.84	-39.8	-40.4	21.4	0.00e+00	0	56	0	1437597696	42	3838
2026-01-01 13:18:27.39	228.46	26.94	-39.8	-40.4	21.4	0.00e+00	0	56	0	1442840576	42	3839
2026-01-01 13:18:28.38	228.71	27.05	-39.8	-40.3	21.4	0.00e+00	0	56	0	1448083456	42	3821
2026-01-01 13:18:29.36	228.96	27.15	-39.6	-40.1	21.7	0.00e+00	0	56	0	1453326336	42	3720
2026-01-01 13:18:30.34	229.21	27.25	-39.5	-40.0	21.7	0.00e+00	0	56	0	1459617792	42	3682
2026-01-01 13:18:31.33	229.46	27.35	-39.6	-40.1	21.7	0.00e+00	0	56	0	1464860672	42	3713
2026-01-01 13:18:32.32	229.72	27.45	-39.5	-40.1	21.7	0.00e+00	0	55	0	1470103552	42	3709
2026-01-01 13:18:33.30	229.97	27.55	-39.6	-40.2	21.6	0.00e+00	0	56	0	1476395008	42	3743
2026-01-01 13:18:34.30	230.23	27.65	-39.6	-40.1	21.6	0.00e+00	0	56	0	1481637888	42	3734
2026-01-01 13:18:35.29	230.49	27.75	-39.6	-40.2	21.6	0.00e+00	0	56	0	1486880768	42	3742
2026-01-01 13:18:36.28	230.75	27.84	-39.6	-40.1	21.6	0.00e+00	0	56	0	1493172224	42	3736
2026-01-01 13:18:37.27	231.01	27.94	-39.4	-39.9	21.9	0.00e+00	0	56	0	1498415104	42	3645
2026-01-01 13:18:38.26	231.28	28.04	-39.4	-39.9	21.8	0.00e+00	0	56	0	1503657984	42	3640
2026-01-01 13:18:39.26	231.55	28.14	-39.5	-40.0	21.8	0.00e+00	0	56	0	1509949440	42	3680
2026-01-01 13:18:40.25	231.81	28.24	-39.6	-40.1	21.7	0.00e+00	0	56	0	1515192320	42	3707
2026-01-01 13:18:41.24	232.08	28.34	-39.7	-40.2	21.6	0.00e+00	0	56	0	1520435200	42	3761
2026-01-01 13:18:42.23	232.35	28.44	-39.8	-40.4	21.4	0.00e+00	0	56	0	1526726656	42	3829
2026-01-01 13:18:43.22	232.63	28.53	-39.6	-40.1	21.7	0.00e+00	0	56	0	1531969536	42	3728
2026-01-01 13:18:44.21	232.90	28.63	-39.5	-40.0	21.8	0.00e+00	0	56	0	1537212416	42	3667
2026-01-01 13:18:45.19	233.17	28.73	-39.4	-39.9	21.9	0.00e+00	0	56	0	1542455296	41	3844
2026-01-01 13:18:46.18	233.45	28.82	-39.4	-40.0	21.8	0.00e+00	0	56	0	1548746752	41	3873
2026-01-01 13:18:47.17	233.73	28.92	-39.6	-40.2	21.6	0.00e+00	0	56	0	1553989632	41	3963
2026-01-01 13:18:48.16	234.01	29.01	-39.6	-40.1	21.7	0.00e+00	0	56	0	1559232512	41	3930
2026-01-01 13:18:49.15	234.29	29.11	-39.7	-40.2	21.5	0.00e+00	0	56	0	1565523968	41	4000
2026-01-01 13:18:50.13	234.57	29.20	-39.5	-40.0	21.8	0.00e+00	0	56	0	1570766848	41	3892
2026-01-01 13:18:51.12	234.86	29.29	-39.2	-39.7	22.0	0.00e+00	0	56	0	1576009728	41	3780
2026-01-01 13:18:52.11	235.15	29.39	-39.2	-39.7	22.1	0.00e+00	0	56	0	1582301184	41	3755
2026-01-01 13:18:53.09	235.43	29.48	-39.2	-39.7	22.1	0.00e+00	0	56	0	1587544064	41	3758
2026-01-01 13:18:54.08	235.72	29.57	-39.4	-39.9	21.8	0.00e+00	0	56	0	1592786944	41	3850
2026-01-01 13:18:55.07	236.01	29.66	-39.7	-40.2	21.6	0.00e+00	0	56	0	1599078400	41	3984
2026-01-01 13:18:56.05	236.31	29.76	-39.4	-39.9	21.8	0.00e+00	0	56	0	1604321280	41	3861
2026-01-01 13:18:57.04	236.60	29.85	-39.9	-40.4	21.4	0.00e+00	0	56	0	1609564160	41	4080
2026-01-01 13:18:58.02	236.89	29.94	-39.7	-40.3	21.5	0.00e+00	0	56	0	1614807040	41	4013
2026-01-01 13:18:59.02	237.20	30.03	-39.9	-40.5	21.3	0.00e+00	0	56	0	1621098496	41	4131
2026-01-01 13:19:00.01	237.50	30.12	-39.9	-40.4	21.4	0.00e+00	0	56	0	1626341376	41	4084
2026-01-01 13:19:00.99	237.79	30.20	-39.7	-40.3	21.5	0.00e+00	0	56	0	1631584256	41	4017
2026-01-01 13:19:01.98	238.10	30.29	-39.7	-40.2	21.6	0.00e+00	0	56	0	1637875712	41	3994
2026-01-01 13:19:02.95	238.40	30.38	-39.9	-40.4	21.4	0.00e+00	0	56	0	1643118592	41	4070
2026-01-01 13:19:03.95	238.71	30.47	-39.8	-40.3	21.5	0.00e+00	0	56	0	1648361472	41	4039
2026-01-01 13:19:04.93	239.01	30.55	-40.0	-40.6	21.3	0.00e+00	0	56	0	1653604352	41	4146
2026-01-01 13:19:05.92	239.32	30.64	-40.4	-41.0	20.8	0.00e+00	0	56	0	1659895808	42	4127
2026-01-01 13:19:06.91	239.63	30.72	-40.2	-40.8	21.1	0.00e+00	0	56	0	1665138688	42	4014
2026-01-01 13:19:07.90	239.95	30.81	-39.9	-40.5	21.3	0.00e+00	0	56	0	1670381568	42	3891
2026-01-01 13:19:08.88	240.26	30.89	-39.8	-40.3	21.5	0.00e+00	0	56	0	1676673024	42	3810
2026-01-01 13:19:09.88	240.58	30.98	-39.8	-40.4	21.5	0.00e+00	0	56	0	1681915904	42	3836
2026-01-01 13:19:10.87	240.89	31.06	-39.9	-40.5	21.4	0.00e+00	0	56	0	1687158784	42	3890
2026-01-01 13:19:11.86	241.21	31.14	-40.1	-40.7	21.1	0.00e+00	0	56	0	1692401664	42	3989
2026-01-01 13:19:12.84	241.53	31.22	-40.1	-40.7	21.2	0.00e+00	0	56	0	1698693120	42	3971
2026-01-01 13:19:13.83	241.85	31.30	-40.4	-41.0	20.8	0.00e+00	0	56	0	1703936000	42	4122
2026-01-01 13:19:14.82	242.18	31.38	-40.2	-40.8	21.1	0.00e+00	0	56	0	1709178880	42	4020
2026-01-01 13:19:15.81	242.50	31.46	-39.9	-40.5	21.4	0.00e+00	0	56	0	1715470336	42	3869
2026-01-01 13:19:16.80	242.83	31.54	-39.7	-40.2	21.6	0.00e+00	0	56	0	1720713216	42	3755
2026-01-01 13:19:17.79	243.16	31.61	-39.5	-40.1	21.7	0.00e+00	0	56	0	1725956096	42	3700
2026-01-01 13:19:18.78	243.49	31.69	-39.7	-40.2	21.6	0.00e+00	0	56	0	1732247552	42	3777
2026-01-01 13:19:19.77	243.82	31.77	-39.6	-40.2	21.6	0.00e+00	0	56	0	1737490432	42	3752
2026-01-01 13:19:20.75	244.15	31.84	-39.9	-40.4	21.4	0.00e+00	0	56	0	1742733312	42	3862
2026-01-01 13:19:21.75	244.49	31.91	-39.7	-40.2	21.6	0.00e+00	0	56	0	1749024768	42	3778
2026-01-01 13:19:22.73	244.82	31.99	-39.4	-40.0	21.8	0.00e+00	0	56	0	1754267648	42	3659
2026-01-01 13:19:23.72	245.16	32.06	-39.1	-39.6	22.1	0.00e+00	0	56	0	1759510528	41	3730
2026-01-01 13:19:24.71	245.50	32.13	-38.9	-39.4	22.4	0.00e+00	0	56	0	1764753408	40	3829
2026-01-01 13:19:25.70	245.84	32.20	-38.9	-39.4	22.3	0.00e+00	0	56	0	1771044864	40	3849
2026-01-01 13:19:26.69	246.18	32.27	-39.1	-39.6	22.2	0.00e+00	0	56	0	1776287744	40	3917
2026-01-01 13:19:27.68	246.53	32.34	-39.3	-39.8	21.9	0.00e+00	0	56	0	1781530624	40	4035
2026-01-01 13:19:28.67	246.87	32.40	-39.5	-40.0	21.8	0.00e+00	0	56	0	1787822080	40	4125
2026-01-01 13:19:29.65	247.21	32.47	-39.5	-40.1	21.7	0.00e+00	0	56	0	1793064960	40	4151
2026-01-01 13:19:30.63	247.56	32.53	-39.6	-40.2	21.6	0.00e+00	0	56	0	1798307840	41	3967
2026-01-01 13:19:31.62	247.91	32.60	-39.7	-40.2	21.6	0.00e+00	0	56	0	1803550720	41	3981
2026-01-01 13:19:32.61	248.26	32.66	-39.6	-40.1	21.7	0.00e+00	0	56	0	1809842176	41	3947
2026-01-01 13:19:33.60	248.61	32.72	-39.5	-40.0	21.8	0.00e+00	0	56	0	1815085056	41	3894
2026-01-01 13:19:34.59	248.96	32.78	-39.3	-39.8	21.9	0.00e+00	0	56	0	1821376512	41	3795
2026-01-01 13:19:35.58	249.32	32.84	-39.2	-39.7	22.1	0.00e+00	0	56	0	1826619392	41	3751
2026-01-01 13:19:36.57	249.67	32.90	-39.4	-39.9	21.9	0.00e+00	0	56	0	1831862272	41	3856
2026-01-01 13:19:37.56	250.03	32.96	-39.5	-40.1	21.8	0.00e+00	0	56	0	1837105152	41	3914
2026-01-01 13:19:38.54	250.38	33.02	-39.5	-40.0	21.8	0.00e+00	0	56	0	1843396608	41	3912
2026-01-01 13:19:39.53	250.74	33.07	-39.6	-40.1	21.7	0.00e+00	0	56	0	1848639488	41	3944
2026-01-01 13:19:40.53	251.11	33.13	-39.7	-40.2	21.6	0.00e+00	0	56	0	1853882368	41	3996
2026-01-01 13:19:41.52	251.47	33.18	-39.7	-40.2	21.6	0.00e+00	0	56	0	1860173824	41	4004
2026-01-01 13:19:42.50	251.83	33.23	-39.9	-40.5	21.4	0.00e+00	0	56	0	1865416704	41	4101
2026-01-01 13:19:43.49	252.19	33.29	-39.9	-40.5	21.4	0.00e+00	0	56	0	1870659584	41	4109
2026-01-01 13:19:44.48	252.55	33.34	-39.9	-40.4	21.4	0.00e+00	0	56	0	1876951040	41	4082
2026-01-01 13:19:45.47	252.92	33.38	-39.9	-40.4	21.4	0.00e+00	0	56	0	1882193920	41	4087
2026-01-01 13:19:46.46	253.29	33.43	-39.9	-40.5	21.4	0.00e+00	0	56	0	1887436800	41	4100
2026-01-01 13:19:47.44	253.65	33.48	-40.1	-40.7	21.2	0.00e+00	0	56	0	1892679680	42	3973
2026-01-01 13:19:48.43	254.02	33.52	-40.2	-40.7	21.1	0.00e+00	0	56	0	1898971136	42	3992
2026-01-01 13:19:49.42	254.39	33.57	-40.3	-40.9	21.0	0.00e+00	0	56	0	1904214016	42	4054
2026-01-01 13:19:50.40	254.76	33.61	-40.5	-41.1	20.8	0.00e+00	0	56	0	1909456896	42	4164
2026-01-01 13:19:51.39	255.13	33.65	-40.5	-41.1	20.8	0.00e+00	0	56	0	1915748352	42	4157
2026-01-01 13:19:52.37	255.50	33.69	-40.5	-41.1	20.8	0.00e+00	0	56	0	1920991232	43	3934
2026-01-01 13:19:53.36	255.87	33.73	-40.4	-40.9	20.9	0.00e+00	0	56	0	1926234112	43	3862
2026-01-01 13:19:54.34	256.24	33.77	-40.5	-41.1	20.8	0.00e+00	0	56	0	1931476992	43	3926
2026-01-01 13:19:55.34	256.62	33.80	-40.1	-40.6	21.2	0.00e+00	0	56	0	1937768448	43	3737
2026-01-01 13:19:56.34	257.00	33.84	-39.9	-40.4	21.4	0.00e+00	0	56	0	1943011328	42	3856
2026-01-01 13:19:57.33	257.38	33.87	-39.7	-40.2	21.6	0.00e+00	0	56	0	1949302784	42	3760
2026-01-01 13:19:58.32	257.76	33.90	-39.5	-40.0	21.8	0.00e+00	0	56	0	1954545664	42	3690
2026-01-01 13:19:59.31	258.14	33.94	-39.6	-40.1	21.7	0.00e+00	0	56	0	1959788544	42	3716
2026-01-01 13:20:00.30	258.52	33.96	-39.8	-40.3	21.6	0.00e+00	0	57	0	1965031424	42	3800
2026-01-01 13:20:01.29	258.90	33.99	-39.9	-40.4	21.4	0.00e+00	0	56	0	1971322880	42	3859
2026-01-01 13:20:02.28	259.28	34.02	-39.4	-39.9	21.9	0.00e+00	0	56	0	1976565760	42	3649
2026-01-01 13:20:03.27	259.66	34.05	-39.2	-39.7	22.1	0.00e+00	0	56	0	1981808640	41	3770
2026-01-01 13:20:04.26	260.04	34.07	-39.1	-39.6	22.2	0.00e+00	0	56	0	1988100096	41	3709
2026-01-01 13:20:05.24	260.42	34.09	-39.1	-39.7	22.1	0.00e+00	0	56	0	1993342976	41	3739
2026-01-01 13:20:06.23	260.80	34.11	-39.2	-39.7	22.0	0.00e+00	0	56	0	1998585856	41	3780
2026-01-01 13:20:07.22	261.18	34.13	-39.2	-39.7	22.1	0.00e+00	0	56	0	2004877312	41	3752
2026-01-01 13:20:08.20	261.56	34.15	-39.4	-39.9	21.9	0.00e+00	0	56	0	2010120192	41	3848
2026-01-01 13:20:09.20	261.95	34.17	-39.2	-39.7	22.1	0.00e+00	0	56	0	2015363072	41	3766
2026-01-01 13:20:10.18	262.33	34.19	-39.0	-39.5	22.3	0.00e+00	0	56	0	2020605952	41	3681
2026-01-01 13:20:11.16	262.71	34.20	-38.9	-39.4	22.3	0.00e+00	0	56	0	2026897408	41	3649
2026-01-01 13:20:12.15	263.10	34.21	-39.1	-39.6	22.2	0.00e+00	0	56	0	2032140288	41	3714
2026-01-01 13:20:13.14	263.48	34.23	-39.0	-39.6	22.2	0.00e+00	0	56	0	2037383168	41	3697
2026-01-01 13:20:14.13	263.87	34.24	-39.1	-39.6	22.1	0.00e+00	0	56	0	2043674624	41	3729
2026-01-01 13:20:15.12	264.26	34.24	-39.2	-39.7	22.1	0.00e+00	0	57	0	2048917504	41	3761
2026-01-01 13:20:16.10	264.64	34.25	-39.2	-39.7	22.0	0.00e+00	0	56	0	2054160384	41	3769
2026-01-01 13:20:17.10	265.03	34.26	-39.3	-39.8	22.0	0.00e+00	0	57	0	2059403264	41	3800
2026-01-01 13:20:18.10	265.42	34.26	-39.4	-39.9	21.8	0.00e+00	0	56	0	2065694720	41	3862
2026-01-01 13:20:19.09	265.81	34.27	-39.2	-39.7	22.1	0.00e+00	0	56	0	2070937600	41	3764
2026-01-01 13:20:20.07	266.19	34.27	-39.2	-39.8	22.0	0.00e+00	0	56	0	2077229056	41	3796
2026-01-01 13:20:21.06	266.57	34.27	-39.5	-40.0	21.8	0.00e+00	0	57	0	2082471936	41	3906
2026-01-01 13:20:22.04	266.96	34.27	-39.4	-39.9	21.8	0.00e+00	0	56	0	2087714816	41	3857
2026-01-01 13:20:23.03	267.34	34.26	-39.2	-39.8	22.0	0.00e+00	0	56	0	2092957696	41	3786
2026-01-01 13:20:24.02	267.73	34.26	-39.4	-39.9	21.9	0.00e+00	0	56	0	2099249152	41	3859
2026-01-01 13:20:25.01	268.12	34.25	-39.6	-40.2	21.7	0.00e+00	0	56	0	2104492032	41	3976
2026-01-01 13:20:26.00	268.50	34.25	-39.5	-40.0	21.8	0.00e+00	0	56	0	2109734912	41	3898
2026-01-01 13:20:26.99	268.89	34.24	-39.5	-40.1	21.7	0.00e+00	0	56	0	2116026368	41	3927
2026-01-01 13:20:27.98	269.27	34.23	-39.7	-40.2	21.6	0.00e+00	0	56	0	2121269248	41	3980
2026-01-01 13:20:28.96	269.65	34.22	-39.5	-40.0	21.8	0.00e+00	0	56	0	2126512128	41	3904
2026-01-01 13:20:29.94	270.04	34.21	-39.5	-40.1	21.7	0.00e+00	0	57	0	2131755008	41	3914
2026-01-01 13:20:30.94	270.42	34.19	-39.6	-40.2	21.6	0.00e+00	0	56	0	2138046464	41	3974
2026-01-01 13:20:31.92	270.81	34.18	-39.6	-40.1	21.7	0.00e+00	0	57	0	2143289344	41	3937
2026-01-01 13:20:32.92	271.19	34.16	-39.4	-40.0	21.8	0.00e+00	0	56	0	2148532224	41	3879
2026-01-01 13:20:33.91	271.58	34.14	-39.3	-39.8	22.0	0.00e+00	0	57	0	2154823680	41	3798
2026-01-01 13:20:34.90	271.96	34.12	-39.6	-40.1	21.7	0.00e+00	0	56	0	2160066560	41	3943
2026-01-01 13:20:35.89	272.34	34.10	-39.6	-40.1	21.7	0.00e+00	0	56	0	2165309440	41	3958
2026-01-01 13:20:36.88	272.73	34.08	-40.0	-40.5	21.3	0.00e+00	0	57	0	2171600896	41	4144
2026-01-01 13:20:37.86	273.10	34.06	-39.9	-40.4	21.4	0.00e+00	0	56	0	2176843776	41	4082
2026-01-01 13:20:38.85	273.48	34.03	-39.9	-40.5	21.3	0.00e+00	0	56	0	2182086656	41	4137
2026-01-01 13:20:39.84	273.87	34.01	-40.2	-40.7	21.1	0.00e+00	0	57	0	2188378112	42	3996
2026-01-01 13:20:40.84	274.25	33.98	-39.9	-40.5	21.4	0.00e+00	0	57	0	2193620992	42	3872
2026-01-01 13:20:41.82	274.62	33.95	-39.9	-40.4	21.4	0.00e+00	0	57	0	2198863872	42	3853
2026-01-01 13:20:42.81	275.00	33.92	-40.0	-40.6	21.3	0.00e+00	0	57	0	2204106752	42	3943
2026-01-01 13:20:43.80	275.38	33.89	-40.0	-40.6	21.2	0.00e+00	0	57	0	2210398208	42	3944
2026-01-01 13:20:44.79	275.76	33.86	-40.0	-40.5	21.3	0.00e+00	0	56	0	2215641088	42	3913
2026-01-01 13:20:45.78	276.13	33.82	-40.1	-40.6	21.2	0.00e+00	0	57	0	2220883968	42	3955
2026-01-01 13:20:46.77	276.51	33.79	-40.0	-40.5	21.3	0.00e+00	0	56	0	2227175424	42	3896
2026-01-01 13:20:47.76	276.88	33.75	-39.8	-40.4	21.5	0.00e+00	0	57	0	2232418304	42	3832
2026-01-01 13:20:48.74	277.25	33.71	-40.1	-40.7	21.2	0.00e+00	0	57	0	2237661184	42	3970
2026-01-01 13:20:49.74	277.63	33.67	-40.1	-40.6	21.2	0.00e+00	0	56	0	2243952640	42	3956
2026-01-01 13:20:50.73	278.00	33.63	-39.7	-40.2	21.6	0.00e+00	0	57	0	2249195520	42	3774
2026-01-01 13:20:51.71	278.37	33.59	-39.4	-39.9	21.9	0.00e+00	0	57	0	2254438400	42	3639
2026-01-01 13:20:52.70	278.74	33.55	-39.3	-39.8	22.0	0.00e+00	0	57	0	2259681280	41	3801
2026-01-01 13:20:53.68	279.11	33.50	-39.4	-39.9	21.9	0.00e+00	0	57	0	2265972736	41	3855
2026-01-01 13:20:54.67	279.48	33.46	-39.8	-40.3	21.5	0.00e+00	0	57	0	2271215616	41	4049
2026-01-01 13:20:55.66	279.84	33.41	-39.8	-40.4	21.4	0.00e+00	0	57	0	2276458496	41	4074
2026-01-01 13:20:56.64	280.20	33.36	-39.6	-40.2	21.7	0.00e+00	0	57	0	2282749952	41	3960
2026-01-01 13:20:57.63	280.57	33.31	-39.4	-40.0	21.8	0.00e+00	0	57	0	2287992832	41	3886
2026-01-01 13:20:58.62	280.93	33.26	-39.4	-40.0	21.8	0.00e+00	0	57	0	2293235712	41	3883
2026-01-01 13:20:59.61	281.30	33.21	-39.6	-40.1	21.7	0.00e+00	0	57	0	2298478592	41	3942
2026-01-01 13:21:00.60	281.66	33.16	-39.7	-40.2	21.6	0.00e+00	0	57	0	2304770048	41	4001
2026-01-01 13:21:01.59	282.02	33.10	-39.7	-40.3	21.5	0.00e+00	0	57	0	2310012928	41	4024
2026-01-01 13:21:02.57	282.37	33.05	-39.6	-40.1	21.7	0.00e+00	0	57	0	2316304384	41	3951
2026-01-01 13:21:03.56	282.73	32.99	-39.5	-40.1	21.7	0.00e+00	0	57	0	2321547264	41	3925
2026-01-01 13:21:04.56	283.09	32.94	-39.7	-40.2	21.6	0.00e+00	0	57	0	2326790144	41	3994
2026-01-01 13:21:05.55	283.45	32.88	-39.8	-40.4	21.4	0.00e+00	0	57	0	2332033024	41	4066
2026-01-01 13:21:06.55	283.81	32.82	-40.0	-40.6	21.3	0.00e+00	0	57	0	2338324480	41	4153
2026-01-01 13:21:07.53	284.16	32.76	-40.2	-40.8	21.0	0.00e+00	0	57	0	2343567360	42	4029
2026-01-01 13:21:08.52	284.51	32.70	-40.1	-40.7	21.1	0.00e+00	0	57	0	2348810240	42	3976
2026-01-01 13:21:09.50	284.85	32.63	-40.0	-40.6	21.2	0.00e+00	0	57	0	2355101696	42	3930
2026-01-01 13:21:10.49	285.20	32.57	-40.2	-40.8	21.0	0.00e+00	0	57	0	2360344576	42	4033
2026-01-01 13:21:11.48	285.55	32.51	-40.4	-41.0	20.9	0.00e+00	0	57	0	2365587456	42	4106
2026-01-01 13:21:12.47	285.90	32.44	-40.5	-41.1	20.8	0.00e+00	0	56	0	2371878912	42	4148
2026-01-01 13:21:13.46	286.24	32.37	-40.6	-41.2	20.6	0.00e+00	0	56	0	2377121792	43	3985
2026-01-01 13:21:14.45	286.59	32.31	-40.4	-41.0	20.9	0.00e+00	0	57	0	2382364672	43	3874
2026-01-01 13:21:15.44	286.93	32.24	-40.2	-40.8	21.1	0.00e+00	0	56	0	2388656128	43	3800
2026-01-01 13:21:16.43	287.27	32.17	-40.1	-40.7	21.1	0.00e+00	0	57	0	2393899008	43	3770
2026-01-01 13:21:17.42	287.61	32.10	-40.2	-40.8	21.0	0.00e+00	0	57	0	2399141888	43	3807
2026-01-01 13:21:18.42	287.95	32.03	-40.2	-40.8	21.0	0.00e+00	0	56	0	2404384768	43	3817
2026-01-01 13:21:19.40	288.28	31.95	-40.2	-40.8	21.0	0.00e+00	0	57	0	2410676224	43	3819
2026-01-01 13:21:20.38	288.61	31.88	-40.3	-40.8	21.0	0.00e+00	0	56	0	2415919104	43	3815
2026-01-01 13:21:21.37	288.95	31.81	-39.8	-40.3	21.5	0.00e+00	0	56	0	2421161984	42	3816
2026-01-01 13:21:22.36	289.28	31.73	-39.7	-40.2	21.6	0.00e+00	0	56	0	2427453440	42	3758
2026-01-01 13:21:23.35	289.61	31.66	-39.7	-40.2	21.6	0.00e+00	0	57	0	2432696320	42	3779
2026-01-01 13:21:24.34	289.94	31.58	-39.8	-40.4	21.4	0.00e+00	0	56	0	2437939200	42	3853
2026-01-01 13:21:25.34	290.27	31.50	-39.9	-40.5	21.4	0.00e+00	0	57	0	2444230656	42	3885
2026-01-01 13:21:26.33	290.59	31.42	-40.0	-40.5	21.3	0.00e+00	0	57	0	2449473536	42	3907
2026-01-01 13:21:27.31	290.92	31.35	-40.2	-40.8	21.0	0.00e+00	0	57	0	2454716416	42	4017
2026-01-01 13:21:28.30	291.24	31.27	-40.5	-41.0	20.8	0.00e+00	0	57	0	2459959296	42	4141
2026-01-01 13:21:29.29	291.56	31.19	-40.4	-41.0	20.9	0.00e+00	0	57	0	2466250752	42	4125
2026-01-01 13:21:30.28	291.88	31.11	-40.5	-41.1	20.7	0.00e+00	0	57	0	2471493632	43	3957
2026-01-01 13:21:31.27	292.20	31.02	-40.2	-40.8	21.0	0.00e+00	0	57	0	2477785088	43	3810
2026-01-01 13:21:32.27	292.52	30.94	-40.0	-40.6	21.2	0.00e+00	0	57	0	2483027968	43	3721
2026-01-01 13:21:33.26	292.83	30.86	-39.9	-40.5	21.3	0.00e+00	0	57	0	2488270848	43	3667
2026-01-01 13:21:34.25	293.14	30.77	-39.9	-40.5	21.3	0.00e+00	0	57	0	2493513728	43	3677
2026-01-01 13:21:35.24	293.45	30.69	-40.0	-40.6	21.3	0.00e+00	0	57	0	2499805184	43	3701
2026-01-01 13:21:36.23	293.76	30.60	-40.3	-40.8	21.0	0.00e+00	0	57	0	2505048064	43	3822
2026-01-01 13:21:37.22	294.07	30.52	-40.1	-40.7	21.1	0.00e+00	0	57	0	2510290944	43	3761
2026-01-01 13:21:38.21	294.38	30.43	-40.2	-40.8	21.0	0.00e+00	0	57	0	2516582400	43	3809
2026-01-01 13:21:39.20	294.68	30.34	-39.8	-40.4	21.4	0.00e+00	0	57	0	2521825280	42	3828
2026-01-01 13:21:40.18	294.99	30.26	-39.5	-40.0	21.8	0.00e+00	0	57	0	2527068160	42	3682
2026-01-01 13:21:41.16	295.28	30.17	-39.4	-39.9	21.8	0.00e+00	0	57	0	2532311040	42	3648
2026-01-01 13:21:42.15	295.58	30.08	-39.6	-40.1	21.6	0.00e+00	0	57	0	2538602496	42	3734
2026-01-01 13:21:43.14	295.88	29.99	-39.7	-40.2	21.6	0.00e+00	0	57	0	2543845376	42	3775
2026-01-01 13:21:44.12	296.18	29.90	-39.8	-40.4	21.4	0.00e+00	0	57	0	2549088256	42	3843
2026-01-01 13:21:45.12	296.47	29.81	-39.9	-40.5	21.4	0.00e+00	0	57	0	2555379712	42	3873
2026-01-01 13:21:46.11	296.77	29.72	-40.0	-40.5	21.3	0.00e+00	0	57	0	2560622592	42	3908
2026-01-01 13:21:47.09	297.06	29.63	-40.0	-40.6	21.2	0.00e+00	0	57	0	2565865472	42	3941
2026-01-01 13:21:48.08	297.35	29.54	-40.1	-40.7	21.1	0.00e+00	0	57	0	2572156928	42	3977
2026-01-01 13:21:49.07	297.64	29.44	-39.8	-40.3	21.5	0.00e+00	0	57	0	2577399808	42	3806
2026-01-01 13:21:50.05	297.92	29.35	-39.9	-40.4	21.4	0.00e+00	0	57	0	2582642688	42	3852
2026-01-01 13:21:51.04	298.21	29.26	-40.2	-40.8	21.1	0.00e+00	0	57	0	2587885568	42	4014
2026-01-01 13:21:52.04	298.49	29.16	-40.2	-40.8	21.0	0.00e+00	0	57	0	2594177024	42	4029
2026-01-01 13:21:53.02	298.77	29.07	-40.4	-41.0	20.8	0.00e+00	0	57	0	2599419904	42	4134
2026-01-01 13:21:54.01	299.05	28.98	-40.2	-40.8	21.0	0.00e+00	0	57	0	2604662784	42	4020
2026-01-01 13:21:54.99	299.33	28.88	-40.0	-40.6	21.2	0.00e+00	0	57	0	2610954240	42	3927
2026-01-01 13:21:55.99	299.61	28.79	-40.1	-40.7	21.2	0.00e+00	0	57	0	2616197120	42	3967
2026-01-01 13:21:56.98	299.89	28.69	-40.0	-40.6	21.2	0.00e+00	0	57	0	2621440000	42	3937
2026-01-01 13:21:57.97	300.16	28.59	-40.0	-40.6	21.2	0.00e+00	0	57	0	2627731456	42	3917
2026-01-01 13:21:58.96	300.43	28.50	-40.0	-40.6	21.2	0.00e+00	0	57	0	2632974336	42	3927
2026-01-01 13:21:59.95	300.70	28.40	-40.0	-40.6	21.2	0.00e+00	0	57	0	2638217216	42	3945
2026-01-01 13:22:00.93	300.97	28.30	-40.0	-40.6	21.2	0.00e+00	0	57	0	2644508672	42	3941
2026-01-01 13:22:01.92	301.24	28.21	-39.8	-40.4	21.4	0.00e+00	0	57	0	2649751552	42	3837
2026-01-01 13:22:02.92	301.51	28.11	-39.7	-40.3	21.5	0.00e+00	0	57	0	2654994432	42	3782
2026-01-01 13:22:03.90	301.77	28.01	-39.8	-40.3	21.4	0.00e+00	0	57	0	2660237312	42	3814
2026-01-01 13:22:04.89	302.03	27.91	-40.1	-40.6	21.2	0.00e+00	0	57	0	2666528768	42	3939
2026-01-01 13:22:05.88	302.29	27.81	-40.3	-40.9	20.9	0.00e+00	0	57	0	2671771648	42	4090
2026-01-01 13:22:06.87	302.55	27.71	-40.3	-40.9	20.9	0.00e+00	0	57	0	2678063104	42	4080
2026-01-01 13:22:07.86	302.81	27.62	-40.4	-41.0	20.9	0.00e+00	0	57	0	2683305984	42	4104
2026-01-01 13:22:08.86	303.07	27.51	-40.5	-41.1	20.7	0.00e+00	0	57	0	2688548864	42	4164
2026-01-01 13:22:09.85	303.32	27.41	-40.7	-41.3	20.5	0.00e+00	0	57	0	2693791744	43	4031
2026-01-01 13:22:10.84	303.58	27.31	-40.5	-41.1	20.7	0.00e+00	0	57	0	2700083200	43	3949
2026-01-01 13:22:11.83	303.83	27.21	-40.7	-41.3	20.5	0.00e+00	0	57	0	2705326080	43	4042
2026-01-01 13:22:12.82	304.08	27.11	-40.5	-41.2	20.7	0.00e+00	0	57	0	2710568960	43	3959
2026-01-01 13:22:13.81	304.33	27.01	-40.7	-41.3	20.5	0.00e+00	0	57	0	2716860416	43	4042
2026-01-01 13:22:14.80	304.58	26.91	-40.6	-41.2	20.6	0.00e+00	0	57	0	2722103296	43	3995
2026-01-01 13:22:15.79	304.82	26.81	-40.4	-41.0	20.9	0.00e+00	0	57	0	2727346176	43	3874
2026-01-01 13:22:16.78	305.07	26.71	-40.2	-40.8	21.0	0.00e+00	0	57	0	2733637632	43	3799
2026-01-01 13:22:17.77	305.31	26.61	-40.1	-40.7	21.1	0.00e+00	0	57	0	2738880512	43	3739
2026-01-01 13:22:18.76	305.55	26.51	-40.1	-40.7	21.1	0.00e+00	0	57	0	2744123392	43	3740
2026-01-01 13:22:19.75	305.79	26.41	-40.1	-40.6	21.2	0.00e+00	0	57	0	2749366272	43	3730
2026-01-01 13:22:20.74	306.03	26.31	-40.1	-40.7	21.1	0.00e+00	0	57	0	2755657728	43	3750
2026-01-01 13:22:21.73	306.27	26.20	-40.1	-40.7	21.1	0.00e+00	0	57	0	2760900608	43	3760
2026-01-01 13:22:22.71	306.50	26.10	-40.2	-40.8	21.0	0.00e+00	0	57	0	2766143488	43	3787
2026-01-01 13:22:23.69	306.73	26.00	-40.3	-40.9	21.0	0.00e+00	0	57	0	2772434944	43	3825
2026-01-01 13:22:24.68	306.96	25.90	-40.1	-40.7	21.1	0.00e+00	0	57	0	2777677824	43	3761
2026-01-01 13:22:25.67	307.19	25.80	-40.1	-40.6	21.1	0.00e+00	0	57	0	2782920704	43	3736
2026-01-01 13:22:26.66	307.42	25.69	-40.1	-40.6	21.2	0.00e+00	0	57	0	2788163584	43	3724
2026-01-01 13:22:27.64	307.65	25.59	-40.0	-40.6	21.2	0.00e+00	0	57	0	2794455040	43	3714
2026-01-01 13:22:28.62	307.87	25.49	-40.2	-40.8	21.0	0.00e+00	0	57	0	2799697920	43	3793
2026-01-01 13:22:29.61	308.10	25.39	-40.3	-40.9	21.0	0.00e+00	0	57	0	2804940800	43	3845
2026-01-01 13:22:30.59	308.32	25.29	-40.4	-41.0	20.8	0.00e+00	0	57	0	2811232256	43	3888
2026-01-01 13:22:31.58	308.54	25.19	-40.5	-41.1	20.7	0.00e+00	0	57	0	2816475136	43	3956
2026-01-01 13:22:32.56	308.76	25.08	-40.6	-41.2	20.6	0.00e+00	0	57	0	2821718016	43	4004
2026-01-01 13:22:33.55	308.98	24.98	-40.6	-41.2	20.6	0.00e+00	0	57	0	2826960896	43	3969
2026-01-01 13:22:34.54	309.20	24.88	-40.3	-40.9	20.9	0.00e+00	0	57	0	2833252352	43	3854
2026-01-01 13:22:35.53	309.41	24.78	-40.3	-40.9	20.9	0.00e+00	0	57	0	2838495232	43	3833
2026-01-01 13:22:36.52	309.63	24.67	-40.3	-40.8	20.9	0.00e+00	0	57	0	2843738112	43	3821
2026-01-01 13:22:37.50	309.84	24.57	-40.3	-40.9	20.9	0.00e+00	0	57	0	2850029568	43	3825
2026-01-01 13:22:38.49	310.05	24.47	-40.3	-40.9	20.9	0.00e+00	0	57	0	2855272448	43	3850
2026-01-01 13:22:39.49	310.27	24.36	-40.4	-41.0	20.8	0.00e+00	0	57	0	2860515328	43	3897
2026-01-01 13:22:40.48	310.48	24.26	-40.5	-41.1	20.7	0.00e+00	0	57	0	2866806784	43	3914
2026-01-01 13:22:41.47	310.69	24.16	-40.5	-41.1	20.7	0.00e+00	0	57	0	2872049664	43	3915
2026-01-01 13:22:42.46	310.89	24.06	-40.5	-41.1	20.7	0.00e+00	0	57	0	2877292544	43	3950
2026-01-01 13:22:43.45	311.10	23.95	-40.4	-41.0	20.8	0.00e+00	0	57	0	2883584000	43	3884
2026-01-01 13:22:44.43	311.30	23.85	-40.3	-40.8	21.0	0.00e+00	0	57	0	2888826880	43	3824
2026-01-01 13:22:45.42	311.51	23.75	-40.3	-40.9	21.0	0.00e+00	0	57	0	2894069760	43	3828
2026-01-01 13:22:46.41	311.71	23.65	-40.3	-40.9	20.9	0.00e+00	0	57	0	2899312640	43	3847
2026-01-01 13:22:47.40	311.91	23.54	-40.3	-40.9	20.9	0.00e+00	0	57	0	2905604096	43	3854
2026-01-01 13:22:48.40	312.11	23.44	-40.4	-41.0	20.8	0.00e+00	0	57	0	2910846976	43	3891
2026-01-01 13:22:49.39	312.31	23.34	-40.6	-41.2	20.6	0.00e+00	0	57	0	2916089856	43	3974
2026-01-01 13:22:50.38	312.50	23.24	-40.7	-41.3	20.5	0.00e+00	0	57	0	2922381312	43	4007
2026-01-01 13:22:51.37	312.70	23.13	-40.4	-41.0	20.8	0.00e+00	0	57	0	2927624192	43	3890
2026-01-01 13:22:52.36	312.89	23.03	-40.3	-40.9	20.9	0.00e+00	0	57	0	2932867072	43	3850
2026-01-01 13:22:53.35	313.09	22.93	-40.3	-40.9	20.9	0.00e+00	0	57	0	2939158528	43	3859
2026-01-01 13:22:54.34	313.28	22.83	-40.5	-41.1	20.7	0.00e+00	0	57	0	2944401408	43	3914
2026-01-01 13:22:55.33	313.47	22.73	-40.6	-41.2	20.6	0.00e+00	0	57	0	2949644288	43	3984
2026-01-01 13:22:56.32	313.66	22.62	-40.7	-41.3	20.5	0.00e+00	0	57	0	2955935744	43	4040
2026-01-01 13:22:57.32	313.85	22.52	-40.9	-41.5	20.3	0.00e+00	0	57	0	2961178624	43	4122
2026-01-01 13:22:58.31	314.04	22.42	-40.9	-41.5	20.3	0.00e+00	0	57	0	2966421504	43	4122
2026-01-01 13:22:59.29	314.22	22.32	-41.0	-41.7	20.1	0.00e+00	0	57	0	2972712960	43	4213
2026-01-01 13:23:00.29	314.41	22.22	-41.2	-41.9	20.0	0.00e+00	0	57	0	2977955840	44	4064
2026-01-01 13:23:01.26	314.59	22.12	-41.1	-41.8	20.2	0.00e+00	0	57	0	2983198720	44	4010
2026-01-01 13:23:02.26	314.77	22.02	-41.2	-41.9	20.1	0.00e+00	0	57	0	2988441600	44	4052
2026-01-01 13:23:03.24	314.95	21.92	-41.1	-41.8	20.1	0.00e+00	0	57	0	2994733056	44	4023
2026-01-01 13:23:04.23	315.13	21.81	-41.2	-41.9	20.1	0.00e+00	0	57	0	2999975936	44	4058
2026-01-01 13:23:05.22	315.31	21.71	-41.3	-42.0	19.9	0.00e+00	0	57	0	3006267392	44	4129
2026-01-01 13:23:06.22	315.49	21.61	-41.3	-42.0	19.9	0.00e+00	0	57	0	3011510272	44	4125
2026-01-01 13:23:07.21	315.67	21.51	-41.3	-42.0	19.9	0.00e+00	0	57	0	3016753152	44	4125
2026-01-01 13:23:08.20	315.84	21.41	-41.3	-41.9	20.0	0.00e+00	0	57	0	3021996032	44	4085
2026-01-01 13:23:09.20	316.02	21.31	-41.2	-41.9	20.0	0.00e+00	0	57	0	3028287488	44	4072
2026-01-01 13:23:10.18	316.19	21.21	-41.2	-41.8	20.1	0.00e+00	0	57	0	3033530368	44	4043
2026-01-01 13:23:11.17	316.36	21.11	-41.2	-41.9	20.1	0.00e+00	0	57	0	3038773248	44	4067
2026-01-01 13:23:12.16	316.54	21.01	-41.3	-42.0	19.9	0.00e+00	0	57	0	3045064704	44	4107
2026-01-01 13:23:13.16	316.71	20.91	-41.2	-41.8	20.1	0.00e+00	0	57	0	3050307584	44	4024
2026-01-01 13:23:14.14	316.87	20.81	-41.2	-41.9	20.0	0.00e+00	0	57	0	3055550464	44	4065
2026-01-01 13:23:15.13	317.04	20.71	-41.1	-41.8	20.1	0.00e+00	0	57	0	3061841920	44	4010
2026-01-01 13:23:16.12	317.21	20.61	-41.2	-41.8	20.1	0.00e+00	0	57	0	3067084800	44	4032
2026-01-01 13:23:17.11	317.38	20.51	-41.2	-41.8	20.1	0.00e+00	0	57	0	3072327680	44	4050
2026-01-01 13:23:18.10	317.54	20.41	-41.4	-42.0	19.9	0.00e+00	0	57	0	3077570560	44	4127
2026-01-01 13:23:19.09	317.70	20.32	-41.3	-41.9	20.0	0.00e+00	0	57	0	3083862016	44	4087
2026-01-01 13:23:20.08	317.87	20.22	-41.5	-42.2	19.7	0.00e+00	0	57	0	3089104896	44	4214
2026-01-01 13:23:21.07	318.03	20.12	-41.4	-42.1	19.9	0.00e+00	0	57	0	3094347776	44	4147
2026-01-01 13:23:22.06	318.19	20.02	-41.6	-42.3	19.6	0.00e+00	0	57	0	3100639232	45	4027
2026-01-01 13:23:23.05	318.35	19.92	-41.5	-42.1	19.8	0.00e+00	0	57	0	3105882112	45	3956
2026-01-01 13:23:24.04	318.51	19.82	-41.7	-42.4	19.5	0.00e+00	0	57	0	3111124992	45	4095
2026-01-01 13:23:25.04	318.67	19.72	-41.6	-42.3	19.6	0.00e+00	0	57	0	3117416448	45	4020
2026-01-01 13:23:26.02	318.82	19.63	-41.5	-42.2	19.7	0.00e+00	0	57	0	3122659328	45	3983
2026-01-01 13:23:27.01	318.98	19.53	-41.7	-42.4	19.6	0.00e+00	0	57	0	3127902208	45	4063
2026-01-01 13:23:27.99	319.13	19.43	-41.8	-42.5	19.5	0.00e+00	0	57	0	3134193664	45	4099
2026-01-01 13:23:28.98	319.29	19.34	-41.8	-42.5	19.4	0.00e+00	0	57	0	3139436544	45	4114
2026-01-01 13:23:29.95	319.44	19.24	-41.9	-42.6	19.3	0.00e+00	0	57	0	3144679424	45	4182
2026-01-01 13:23:30.94	319.59	19.15	-42.1	-42.9	19.1	0.00e+00	0	57	0	3149922304	46	4056
2026-01-01 13:23:31.93	319.74	19.05	-42.0	-42.7	19.2	0.00e+00	0	57	0	3156213760	46	3980
2026-01-01 13:23:32.92	319.89	18.95	-41.8	-42.5	19.4	0.00e+00	0	57	0	3161456640	46	3893
2026-01-01 13:23:33.91	320.04	18.86	-42.0	-42.7	19.2	0.00e+00	0	57	0	3166699520	46	3968
2026-01-01 13:23:34.90	320.19	18.76	-42.2	-43.0	19.0	0.00e+00	0	57	0	3172990976	46	4103
2026-01-01 13:23:35.88	320.34	18.67	-42.0	-42.8	19.2	0.00e+00	0	57	0	3178233856	46	4005
2026-01-01 13:23:36.88	320.48	18.57	-41.8	-42.4	19.4	0.00e+00	0	57	0	3183476736	46	3861
2026-01-01 13:23:37.87	320.63	18.47	-41.6	-42.3	19.6	0.00e+00	0	57	0	3188719616	46	3811
2026-01-01 13:23:38.85	320.77	18.38	-41.6	-42.3	19.6	0.00e+00	0	57	0	3195011072	46	3797
2026-01-01 13:23:39.84	320.92	18.29	-41.7	-42.4	19.5	0.00e+00	0	57	0	3200253952	46	3844
2026-01-01 13:23:40.82	321.06	18.19	-41.9	-42.6	19.3	0.00e+00	0	57	0	3205496832	46	3925
2026-01-01 13:23:41.81	321.20	18.10	-41.9	-42.6	19.3	0.00e+00	0	57	0	3211788288	46	3928
2026-01-01 13:23:42.81	321.34	18.00	-42.0	-42.8	19.1	0.00e+00	0	57	0	3217031168	46	4017
2026-01-01 13:23:43.80	321.49	17.91	-42.1	-42.8	19.1	0.00e+00	0	57	0	3222274048	46	4050
2026-01-01 13:23:44.78	321.62	17.81	-42.2	-43.0	18.9	0.00e+00	0	57	0	3228565504	46	4121
2026-01-01 13:23:45.77	321.76	17.72	-42.3	-43.0	18.9	0.00e+00	0	57	0	3233808384	46	4125
2026-01-01 13:23:46.76	321.90	17.63	-42.3	-43.1	18.8	0.00e+00	0	57	0	3239051264	46	4174
2026-01-01 13:23:47.74	322.04	17.53	-42.4	-43.1	18.8	0.00e+00	0	57	0	3244294144	46	4185
2026-01-01 13:23:48.74	322.18	17.44	-42.3	-43.0	18.9	0.00e+00	0	57	0	3250585600	46	4132
2026-01-01 13:23:49.72	322.31	17.35	-42.3	-43.0	18.9	0.00e+00	0	57	0	3255828480	46	4130
2026-01-01 13:23:50.72	322.45	17.25	-42.3	-43.1	18.8	0.00e+00	0	57	0	3261071360	46	4165
2026-01-01 13:23:51.70	322.58	17.16	-42.5	-43.3	18.7	0.00e+00	0	57	0	3267362816	46	4248
2026-01-01 13:23:52.69	322.71	17.07	-42.4	-43.2	18.7	0.00e+00	0	57	0	3272605696	46	4207
2026-01-01 13:23:53.68	322.84	16.98	-42.3	-43.1	18.8	0.00e+00	0	57	0	3277848576	46	4171
2026-01-01 13:23:54.67	322.98	16.89	-42.4	-43.2	18.7	0.00e+00	0	57	0	3284140032	46	4196
2026-01-01 13:23:55.66	323.11	16.79	-42.5	-43.2	18.7	0.00e+00	0	57	0	3289382912	46	4235
2026-01-01 13:23:56.65	323.24	16.70	-42.4	-43.2	18.7	0.00e+00	0	57	0	3294625792	46	4229
2026-01-01 13:23:57.64	323.37	16.61	-42.5	-43.3	18.6	0.00e+00	0	57	0	3300917248	46	4262
2026-01-01 13:23:58.62	323.49	16.52	-42.7	-43.5	18.4	0.00e+00	0	57	0	3306160128	47	4117
2026-01-01 13:23:59.61	323.62	16.43	-42.9	-43.8	18.1	0.00e+00	0	57	0	3311403008	47	4248
2026-01-01 13:24:00.60	323.75	16.34	-42.9	-43.7	18.2	0.00e+00	0	57	0	3316645888	47	4214
2026-01-01 13:24:01.58	323.88	16.25	-42.9	-43.7	18.1	0.00e+00	0	57	0	3322937344	47	4240
2026-01-01 13:24:02.57	324.00	16.16	-43.2	-44.1	18.0	1.10e-06	0	57	0	3328180224	48	4152
2026-01-01 13:24:03.56	324.13	16.07	-43.2	-44.1	18.0	0.00e+00	0	57	0	3333423104	48	4165
2026-01-01 13:24:04.55	324.25	15.98	-42.9	-43.8	18.3	0.00e+00	0	57	0	3339714560	48	4006
2026-01-01 13:24:05.53	324.37	15.89	-42.7	-43.5	18.5	0.00e+00	0	57	0	3344957440	48	3898
2026-01-01 13:24:06.52	324.50	15.80	-42.7	-43.4	18.6	0.00e+00	0	57	0	3350200320	48	3861
2026-01-01 13:24:07.51	324.62	15.71	-42.8	-43.6	18.4	0.00e+00	0	57	0	3355443200	48	3945
2026-01-01 13:24:08.49	324.74	15.62	-42.8	-43.6	18.4	0.00e+00	0	57	0	3361734656	48	3952
2026-01-01 13:24:09.48	324.86	15.54	-42.6	-43.4	18.6	0.00e+00	0	57	0	3366977536	48	3831
2026-01-01 13:24:10.47	324.98	15.45	-42.5	-43.2	18.8	0.00e+00	0	57	0	3373268992	48	3768
2026-01-01 13:24:11.46	325.10	15.36	-42.5	-43.2	18.8	0.00e+00	0	57	0	3378511872	48	3775
2026-01-01 13:24:12.44	325.22	15.27	-42.7	-43.4	18.6	0.00e+00	0	57	0	3383754752	48	3853
2026-01-01 13:24:13.43	325.34	15.18	-42.8	-43.5	18.5	0.00e+00	0	57	0	3388997632	48	3908
2026-01-01 13:24:14.43	325.45	15.10	-42.9	-43.6	18.4	0.00e+00	0	57	0	3395289088	48	3943
2026-01-01 13:24:15.42	325.57	15.01	-43.0	-43.8	18.2	0.00e+00	0	57	0	3400531968	48	4029
2026-01-01 13:24:16.41	325.69	14.92	-43.0	-43.8	18.2	0.00e+00	0	57	0	3405774848	48	4041
2026-01-01 13:24:17.40	325.80	14.83	-42.9	-43.7	18.3	0.00e+00	0	57	0	3412066304	48	3960
2026-01-01 13:24:18.38	325.92	14.75	-42.8	-43.6	18.4	0.00e+00	0	57	0	3417309184	48	3918
2026-01-01 13:24:19.38	326.03	14.66	-42.8	-43.6	18.4	0.00e+00	0	57	0	3422552064	48	3949
2026-01-01 13:24:20.36	326.14	14.57	-43.0	-43.8	18.2	0.00e+00	0	57	0	3427794944	48	4025
2026-01-01 13:24:21.35	326.26	14.49	-43.1	-43.9	18.0	0.00e+00	0	57	0	3434086400	48	4090
2026-01-01 13:24:22.34	326.37	14.40	-42.9	-43.7	18.3	0.00e+00	0	57	0	3439329280	48	3969
2026-01-01 13:24:23.33	326.48	14.32	-42.8	-43.6	18.4	0.00e+00	0	57	0	3444572160	48	3918
2026-01-01 13:24:24.31	326.59	14.23	-42.8	-43.5	18.4	0.00e+00	0	57	0	3450863616	48	3908
2026-01-01 13:24:25.30	326.70	14.15	-42.9	-43.7	18.3	0.00e+00	0	57	0	3456106496	48	3979
2026-01-01 13:24:26.29	326.81	14.06	-43.1	-43.9	18.0	0.00e+00	0	57	0	3461349376	48	4095
2026-01-01 13:24:27.28	326.92	13.97	-43.1	-43.9	18.0	0.00e+00	0	57	0	3467640832	48	4096
2026-01-01 13:24:28.27	327.03	13.89	-43.2	-44.0	18.0	0.00e+00	0	57	0	3472883712	48	4129
2026-01-01 13:24:29.25	327.14	13.81	-43.3	-44.2	17.8	0.00e+00	0	57	0	3478126592	48	4212
2026-01-01 13:24:30.23	327.24	13.72	-43.5	-44.4	17.5	0.00e+00	0	57	0	3483369472	49	4086
2026-01-01 13:24:31.22	327.35	13.64	-43.4	-44.3	17.6	0.00e+00	0	57	0	3489660928	49	4035
2026-01-01 13:24:32.21	327.46	13.55	-43.3	-44.2	17.8	0.00e+00	0	57	0	3494903808	49	3977
2026-01-01 13:24:33.20	327.56	13.47	-43.3	-44.2	17.8	0.00e+00	0	57	0	3500146688	49	3960
2026-01-01 13:24:34.19	327.67	13.39	-43.3	-44.2	17.8	0.00e+00	0	57	0	3506438144	49	3974
2026-01-01 13:24:35.17	327.77	13.30	-43.2	-44.1	17.9	0.00e+00	0	57	0	3511681024	49	3926
2026-01-01 13:24:36.16	327.88	13.22	-43.2	-44.1	17.9	0.00e+00	0	57	0	3516923904	49	3926
2026-01-01 13:24:37.15	327.98	13.14	-43.3	-44.2	17.8	0.00e+00	0	57	0	3522166784	49	3974
2026-01-01 13:24:38.13	328.08	13.06	-43.2	-44.1	17.8	0.00e+00	0	57	0	3528458240	49	3942
2026-01-01 13:24:39.13	328.18	12.97	-43.3	-44.2	17.7	0.00e+00	0	57	0	3533701120	49	3987
2026-01-01 13:24:40.11	328.29	12.89	-43.3	-44.2	17.8	0.00e+00	0	57	0	3538944000	49	3972
2026-01-01 13:24:41.09	328.39	12.81	-43.2	-44.1	17.8	0.00e+00	0	57	0	3545235456	49	3942
2026-01-01 13:24:42.08	328.49	12.73	-43.3	-44.1	17.8	0.00e+00	0	57	0	3550478336	49	3958
2026-01-01 13:24:43.07	328.59	12.65	-43.2	-44.1	17.8	0.00e+00	0	57	0	3555721216	49	3943
2026-01-01 13:24:44.05	328.69	12.56	-43.3	-44.2	17.8	0.00e+00	0	57	0	3562012672	49	3972
2026-01-01 13:24:45.04	328.78	12.48	-43.2	-44.1	17.8	0.00e+00	0	57	0	3567255552	49	3931
2026-01-01 13:24:46.03	328.88	12.40	-43.3	-44.1	17.8	0.00e+00	0	57	0	3572498432	49	3942
2026-01-01 13:24:47.02	328.98	12.32	-43.3	-44.1	17.8	0.00e+00	0	57	0	3578789888	49	3958
2026-01-01 13:24:48.01	329.08	12.24	-43.3	-44.2	17.8	0.00e+00	0	57	0	3584032768	49	3960
2026-01-01 13:24:49.00	329.18	12.16	-43.3	-44.2	17.7	0.00e+00	0	57	0	3589275648	49	3966
2026-01-01 13:24:49.98	329.27	12.08	-43.3	-44.2	17.7	0.00e+00	0	57	0	3594518528	49	3990
2026-01-01 13:24:50.97	329.37	12.00	-43.4	-44.2	17.7	0.00e+00	0	57	0	3600809984	49	3995
2026-01-01 13:24:51.96	329.46	11.92	-43.5	-44.4	17.5	0.00e+00	0	57	0	3606052864	49	4061
2026-01-01 13:24:52.95	329.56	11.84	-43.7	-44.7	17.2	0.00e+00	0	57	0	3611295744	49	4208
2026-01-01 13:24:53.94	329.65	11.76	-43.8	-44.7	17.2	0.00e+00	0	57	0	3617587200	49	4218
2026-01-01 13:24:54.92	329.75	11.68	-43.8	-44.7	17.2	0.00e+00	0	57	0	3622830080	49	4227
2026-01-01 13:24:55.91	329.84	11.60	-43.9	-44.8	17.1	0.00e+00	0	57	0	3628072960	49	4282
2026-01-01 13:24:56.91	329.94	11.52	-44.0	-45.0	16.9	0.00e+00	0	57	0	3633315840	49	4365
2026-01-01 13:24:57.89	330.03	11.44	-43.9	-44.9	16.9	0.00e+00	0	57	0	3639607296	49	4317
2026-01-01 13:24:58.89	330.12	11.36	-44.1	-45.1	16.8	0.00e+00	0	57	0	3644850176	50	4156
