passes_logs/2026/01/01/R3.0SM8_Murmansk_STILSPACE/R3.0SM8_Murmansk_STILSPACE__20260101_114046_FENGYUN_3E_rec.log

#Pass ID: 20260101_114046_FENGYUN 3E
#Satellite: FENGYUN 3E
#Configuration: FENGYUN 3E
#almurnet v.1.7.20240730
#Start time: 2026-01-01 11:46:39

#Version: 2.2.20231116
#Station: R3.0SM8_Murmansk_STILSPACE
#Location: 33.092731 lon 68.902999 lat
#TLE: 1 49008U 21062A   25365.55977344  .00000403  00000+0  21051-3 0  9995
#TLE: 2 49008  98.7483   5.8586 0001311 170.0615 190.0588 14.19883886232790

#Time	Az	El	Level	Level2	SNR	BER	BlckErr	Temp	State	Recorded	gain1	gain2
2026-01-01 11:46:39.97	47.07	33.34	-52.8	-63.5	3.8	8.46e-01	0	58	0	0	67	13035
2026-01-01 11:46:40.96	46.70	33.39	-52.8	-63.1	3.8	8.47e-01	0	58	104	0	68	11568
2026-01-01 11:46:41.94	46.34	33.43	-52.8	-63.0	3.8	8.46e-01	0	58	104	0	68	11499
2026-01-01 11:46:42.93	45.97	33.48	-52.8	-63.0	3.8	8.46e-01	0	59	104	0	68	11509
2026-01-01 11:46:43.91	45.61	33.53	-52.8	-63.0	3.8	8.46e-01	0	58	104	0	68	11516
2026-01-01 11:46:44.90	45.24	33.57	-52.8	-63.0	3.8	8.47e-01	0	58	104	0	68	11502
2026-01-01 11:46:45.89	44.87	33.62	-52.9	-63.0	3.8	8.47e-01	0	58	104	0	68	11507
2026-01-01 11:46:46.89	44.50	33.66	-52.9	-63.0	3.8	8.46e-01	0	58	104	0	68	11523
2026-01-01 11:46:47.87	44.13	33.70	-52.9	-63.0	3.8	8.46e-01	0	58	104	0	68	11535
2026-01-01 11:46:48.87	43.75	33.74	-52.8	-63.1	3.8	8.45e-01	0	58	104	0	68	11566
2026-01-01 11:46:49.86	43.38	33.78	-52.7	-63.0	3.8	8.46e-01	0	58	104	0	68	11545
2026-01-01 11:46:50.85	43.00	33.81	-52.7	-62.9	3.8	8.46e-01	0	58	104	0	68	11397
2026-01-01 11:46:51.85	42.62	33.85	-52.6	-63.0	3.8	8.46e-01	0	58	104	0	68	11444
2026-01-01 11:46:52.84	42.25	33.88	-52.8	-62.9	3.8	8.46e-01	0	58	104	0	68	11375
2026-01-01 11:46:53.83	41.87	33.92	-52.8	-62.9	3.8	8.45e-01	0	58	104	0	68	11401
2026-01-01 11:46:54.82	41.49	33.95	-52.7	-62.9	3.8	8.46e-01	0	58	104	0	68	11369
2026-01-01 11:46:55.82	41.11	33.98	-52.7	-62.9	3.8	8.46e-01	0	58	104	0	68	11379
2026-01-01 11:46:56.81	40.73	34.00	-52.7	-62.8	3.8	8.47e-01	0	58	104	0	68	11199
2026-01-01 11:46:57.81	40.35	34.03	-52.6	-62.8	3.8	8.46e-01	0	59	104	0	68	11211
2026-01-01 11:46:58.80	39.97	34.06	-52.2	-62.3	3.8	8.45e-01	0	58	104	0	67	11193
2026-01-01 11:46:59.79	39.58	34.08	-52.3	-62.5	3.8	8.47e-01	0	58	104	0	67	11444
2026-01-01 11:47:00.78	39.20	34.10	-52.3	-62.4	3.8	8.46e-01	0	58	104	0	67	11398
2026-01-01 11:47:01.76	38.83	34.13	-52.3	-62.4	3.8	8.46e-01	0	58	104	0	67	11340
2026-01-01 11:47:02.75	38.44	34.15	-52.3	-62.4	3.8	8.46e-01	0	58	104	0	67	11329
2026-01-01 11:47:03.75	38.06	34.16	-52.3	-62.5	3.8	8.45e-01	0	58	104	0	67	11480
2026-01-01 11:47:04.74	37.67	34.18	-52.3	-62.4	3.8	8.47e-01	0	58	104	0	67	11403
2026-01-01 11:47:05.73	37.29	34.20	-52.3	-62.4	3.8	8.46e-01	0	59	104	0	67	11293
2026-01-01 11:47:06.72	36.90	34.21	-52.3	-62.5	3.8	8.47e-01	0	58	104	0	67	11438
2026-01-01 11:47:07.72	36.52	34.22	-52.3	-62.5	3.8	8.46e-01	0	59	104	0	67	11430
2026-01-01 11:47:08.71	36.13	34.23	-52.3	-62.4	3.8	8.46e-01	0	58	104	0	67	11390
2026-01-01 11:47:09.70	35.75	34.24	-52.3	-62.4	3.8	8.46e-01	0	58	104	0	67	11345
2026-01-01 11:47:10.68	35.36	34.25	-52.2	-62.3	3.8	8.47e-01	0	58	104	0	67	11188
2026-01-01 11:47:11.68	34.97	34.26	-52.3	-62.1	3.8	8.47e-01	0	58	104	0	67	10974
2026-01-01 11:47:12.67	34.59	34.26	-52.2	-61.9	3.8	8.46e-01	0	58	104	0	67	10741
2026-01-01 11:47:13.66	34.20	34.27	-52.2	-61.8	3.8	8.47e-01	0	59	104	0	67	10573
2026-01-01 11:47:14.65	33.82	34.27	-52.2	-61.8	3.8	8.46e-01	0	58	104	0	67	10536
2026-01-01 11:47:15.64	33.43	34.27	-52.2	-61.7	3.8	8.46e-01	0	58	104	0	67	10456
2026-01-01 11:47:16.63	33.05	34.27	-52.0	-61.5	3.8	8.46e-01	0	58	104	0	67	10206
2026-01-01 11:47:17.61	32.66	34.27	-52.1	-61.1	3.8	8.45e-01	0	59	104	0	66	10337
2026-01-01 11:47:18.59	32.28	34.26	-52.0	-60.8	3.8	8.47e-01	0	58	104	0	66	10016
2026-01-01 11:47:19.58	31.90	34.26	-52.2	-61.6	3.8	8.46e-01	0	58	104	0	66	10940
2026-01-01 11:47:20.57	31.51	34.25	-52.3	-62.1	3.8	8.45e-01	0	58	104	0	66	11639
2026-01-01 11:47:21.56	31.13	34.24	-52.2	-61.1	3.8	8.45e-01	0	59	104	0	66	10405
2026-01-01 11:47:22.55	30.74	34.24	-52.2	-61.5	3.8	8.45e-01	0	58	104	0	66	10873
2026-01-01 11:47:23.53	30.36	34.22	-52.0	-60.6	3.8	8.45e-01	0	58	104	0	66	9803
2026-01-01 11:47:24.52	29.98	34.21	-52.3	-61.9	3.8	8.46e-01	0	58	104	0	66	11302
2026-01-01 11:47:25.52	29.59	34.20	-52.0	-61.3	3.8	8.46e-01	0	58	104	0	66	10610
2026-01-01 11:47:26.51	29.20	34.18	-52.3	-62.1	3.8	8.47e-01	0	59	104	0	66	11551
2026-01-01 11:47:27.50	28.82	34.17	-52.1	-60.6	3.8	8.46e-01	0	58	104	0	66	9753
2026-01-01 11:47:28.49	28.44	34.15	-52.0	-60.5	3.9	8.45e-01	0	58	104	0	66	9669
2026-01-01 11:47:29.49	28.05	34.13	-52.0	-60.7	3.8	8.46e-01	0	59	104	0	66	9833
2026-01-01 11:47:30.47	27.67	34.11	-50.6	-55.0	6.3	5.50e-01	0	59	0	0	64	5757
2026-01-01 11:47:31.46	27.29	34.08	-47.8	-49.5	11.9	3.25e-03	0	58	0	7340032	58	4339
2026-01-01 11:47:32.44	26.91	34.06	-44.9	-45.9	15.6	0.00e+00	0	59	0	14680064	52	4011
2026-01-01 11:47:33.42	26.54	34.04	-43.2	-43.9	17.6	0.00e+00	0	58	0	22020096	49	3821
2026-01-01 11:47:34.40	26.16	34.01	-43.1	-43.8	17.7	0.00e+00	0	58	0	29360128	48	3984
2026-01-01 11:47:35.39	25.78	33.98	-44.2	-45.2	16.0	0.00e+00	0	58	0	35651584	50	4153
2026-01-01 11:47:36.38	25.40	33.95	-45.6	-47.0	13.7	8.00e-06	0	59	0	42991616	52	4546
2026-01-01 11:47:37.37	25.03	33.92	-46.5	-48.2	12.2	9.38e-05	0	59	0	50331648	54	4665
2026-01-01 11:47:38.37	24.65	33.89	-47.2	-49.2	11.2	1.48e-03	0	58	0	57671680	56	4670
2026-01-01 11:47:39.36	24.27	33.85	-47.0	-48.9	11.5	1.02e-03	0	59	0	65011712	56	4534
2026-01-01 11:47:40.35	23.89	33.82	-46.3	-47.9	12.5	4.82e-04	0	58	0	71303168	55	4255
2026-01-01 11:47:41.34	23.52	33.78	-45.2	-46.4	14.1	3.40e-06	0	58	0	78643200	53	4037
2026-01-01 11:47:42.33	23.15	33.74	-44.4	-45.4	15.3	1.10e-06	0	59	0	85983232	51	4014
2026-01-01 11:47:43.32	22.77	33.70	-43.6	-44.5	16.3	0.00e+00	0	58	0	93323264	50	3859
2026-01-01 11:47:44.31	22.40	33.66	-42.8	-43.6	17.3	0.00e+00	0	59	0	100663296	48	3889
2026-01-01 11:47:45.30	22.03	33.62	-42.2	-42.9	17.9	0.00e+00	0	58	0	108003328	47	3798
2026-01-01 11:47:46.29	21.66	33.58	-41.8	-42.4	18.4	0.00e+00	0	59	0	114294784	46	3814
2026-01-01 11:47:47.28	21.29	33.53	-41.5	-42.1	18.8	0.00e+00	0	58	0	121634816	46	3694
2026-01-01 11:47:48.27	20.92	33.49	-41.3	-41.9	19.1	0.00e+00	0	58	0	128974848	45	3807
2026-01-01 11:47:49.26	20.56	33.44	-41.2	-41.8	19.3	0.00e+00	0	58	0	136314880	45	3766
2026-01-01 11:47:50.25	20.19	33.39	-41.3	-41.9	19.3	0.00e+00	0	58	0	143654912	45	3790
2026-01-01 11:47:51.24	19.83	33.34	-41.2	-41.8	19.3	0.00e+00	0	59	0	150994944	45	3758
2026-01-01 11:47:52.23	19.46	33.29	-41.7	-42.2	19.0	0.00e+00	0	59	0	157286400	45	3951
2026-01-01 11:47:53.22	19.10	33.24	-41.2	-41.8	19.5	0.00e+00	0	58	0	164626432	45	3754
2026-01-01 11:47:54.21	18.74	33.19	-40.9	-41.4	19.9	0.00e+00	0	58	0	171966464	44	3798
2026-01-01 11:47:55.20	18.38	33.13	-40.2	-40.7	20.4	0.00e+00	0	58	0	179306496	43	3730
2026-01-01 11:47:56.19	18.02	33.08	-39.9	-40.3	20.9	0.00e+00	0	59	0	186646528	42	3765
2026-01-01 11:47:57.18	17.66	33.02	-39.6	-40.1	21.1	0.00e+00	0	58	0	192937984	42	3663
2026-01-01 11:47:58.16	17.31	32.96	-39.5	-40.0	21.2	0.00e+00	0	58	0	200278016	42	3625
2026-01-01 11:47:59.15	16.95	32.91	-39.6	-40.1	21.1	0.00e+00	0	59	0	207618048	42	3667
2026-01-01 11:48:00.14	16.60	32.85	-39.5	-40.0	21.3	0.00e+00	0	58	0	214958080	42	3611
2026-01-01 11:48:01.13	16.25	32.78	-39.5	-40.0	21.2	0.00e+00	0	58	0	222298112	41	3842
2026-01-01 11:48:02.12	15.90	32.72	-39.5	-40.0	21.2	0.00e+00	0	58	0	228589568	41	3843
2026-01-01 11:48:03.11	15.55	32.66	-39.7	-40.1	21.0	0.00e+00	0	58	0	235929600	41	3903
2026-01-01 11:48:04.09	15.20	32.59	-39.5	-40.0	21.3	0.00e+00	0	58	0	243269632	41	3835
2026-01-01 11:48:05.08	14.86	32.53	-39.4	-39.8	21.5	0.00e+00	0	58	0	250609664	41	3763
2026-01-01 11:48:06.07	14.51	32.46	-39.4	-39.8	21.4	0.00e+00	0	58	0	257949696	41	3766
2026-01-01 11:48:07.06	14.17	32.39	-39.3	-39.7	21.6	0.00e+00	0	58	0	264241152	41	3722
2026-01-01 11:48:08.05	13.82	32.33	-39.5	-39.9	21.4	0.00e+00	0	59	0	271581184	41	3805
2026-01-01 11:48:09.04	13.48	32.26	-39.9	-40.3	21.0	0.00e+00	0	59	0	278921216	41	4000
2026-01-01 11:48:10.03	13.14	32.19	-39.7	-40.2	21.1	0.00e+00	0	58	0	286261248	41	3938
2026-01-01 11:48:11.01	12.81	32.11	-40.1	-40.6	20.8	0.00e+00	0	58	0	292552704	41	4120
2026-01-01 11:48:12.01	12.47	32.04	-39.9	-40.3	21.0	0.00e+00	0	58	0	299892736	41	4002
2026-01-01 11:48:12.99	12.14	31.97	-40.0	-40.5	20.9	0.00e+00	0	58	0	307232768	41	4069
2026-01-01 11:48:13.99	11.80	31.89	-40.0	-40.5	20.9	0.00e+00	0	58	0	314572800	41	4053
2026-01-01 11:48:14.98	11.47	31.82	-40.1	-40.6	20.8	0.00e+00	0	58	0	321912832	41	4109
2026-01-01 11:48:15.97	11.14	31.74	-40.5	-41.0	20.4	0.00e+00	0	58	0	329252864	42	4075
2026-01-01 11:48:16.96	10.81	31.67	-40.1	-40.6	20.8	0.00e+00	0	59	0	335544320	42	3879
2026-01-01 11:48:17.94	10.48	31.59	-39.8	-40.3	21.1	0.00e+00	0	58	0	342884352	42	3748
2026-01-01 11:48:18.93	10.16	31.51	-39.5	-39.9	21.4	0.00e+00	0	58	0	350224384	42	3603
2026-01-01 11:48:19.92	9.83	31.43	-39.4	-39.9	21.4	0.00e+00	0	58	0	357564416	41	3797
2026-01-01 11:48:20.91	9.51	31.35	-39.5	-39.9	21.4	0.00e+00	0	58	0	364904448	41	3824
2026-01-01 11:48:21.90	9.19	31.27	-39.4	-39.8	21.4	0.00e+00	0	58	0	372244480	41	3771
2026-01-01 11:48:22.89	8.87	31.19	-39.4	-39.9	21.4	0.00e+00	0	58	0	378535936	41	3783
2026-01-01 11:48:23.87	8.56	31.10	-39.6	-40.1	21.2	0.00e+00	0	58	0	385875968	41	3892
2026-01-01 11:48:24.87	8.24	31.02	-39.7	-40.1	21.2	0.00e+00	0	59	0	393216000	41	3886
2026-01-01 11:48:25.85	7.93	30.94	-39.7	-40.1	21.2	0.00e+00	0	58	0	400556032	41	3898
2026-01-01 11:48:26.85	7.61	30.85	-39.8	-40.3	21.0	0.00e+00	0	58	0	407896064	41	3968
2026-01-01 11:48:27.83	7.30	30.77	-39.8	-40.3	21.0	0.00e+00	0	59	0	414187520	41	3965
2026-01-01 11:48:28.82	6.99	30.68	-40.0	-40.5	20.9	0.00e+00	0	58	0	421527552	41	4055
2026-01-01 11:48:29.80	6.69	30.59	-39.8	-40.3	21.0	0.00e+00	0	58	0	428867584	41	3981
2026-01-01 11:48:30.79	6.38	30.51	-39.6	-40.1	21.3	0.00e+00	0	58	0	436207616	41	3880
2026-01-01 11:48:31.77	6.08	30.42	-39.5	-40.0	21.3	0.00e+00	0	59	0	442499072	41	3834
2026-01-01 11:48:32.76	5.78	30.33	-39.6	-40.0	21.3	0.00e+00	0	59	0	449839104	41	3847
2026-01-01 11:48:33.75	5.48	30.24	-39.7	-40.2	21.2	0.00e+00	0	58	0	457179136	41	3916
2026-01-01 11:48:34.74	5.18	30.15	-39.9	-40.3	21.0	0.00e+00	0	58	0	464519168	41	4004
2026-01-01 11:48:35.72	4.88	30.06	-40.1	-40.6	20.7	0.00e+00	0	59	0	471859200	41	4129
2026-01-01 11:48:36.70	4.59	29.97	-40.2	-40.7	20.7	0.00e+00	0	58	0	478150656	42	3929
2026-01-01 11:48:37.69	4.30	29.88	-40.0	-40.5	20.7	0.00e+00	0	58	0	485490688	42	3832
2026-01-01 11:48:38.69	4.00	29.78	-40.2	-40.6	20.7	0.00e+00	0	59	0	492830720	42	3910
2026-01-01 11:48:39.67	3.71	29.69	-40.2	-40.7	20.7	0.00e+00	0	58	0	500170752	42	3938
2026-01-01 11:48:40.66	3.42	29.60	-40.3	-40.8	20.5	0.00e+00	0	58	0	507510784	42	3991
2026-01-01 11:48:41.65	3.14	29.50	-40.3	-40.8	20.6	0.00e+00	0	58	0	513802240	42	3964
2026-01-01 11:48:42.64	2.85	29.41	-40.0	-40.5	20.8	0.00e+00	0	59	0	521142272	42	3854
2026-01-01 11:48:43.63	2.57	29.31	-39.9	-40.4	21.0	0.00e+00	0	58	0	528482304	42	3803
2026-01-01 11:48:44.62	2.28	29.22	-39.9	-40.4	20.9	0.00e+00	0	58	0	535822336	42	3805
2026-01-01 11:48:45.61	2.00	29.12	-40.1	-40.6	20.8	0.00e+00	0	59	0	543162368	42	3892
2026-01-01 11:48:46.59	1.73	29.03	-40.3	-40.8	20.5	0.00e+00	0	58	0	550502400	42	3990
2026-01-01 11:48:47.57	1.45	28.93	-40.3	-40.8	20.6	0.00e+00	0	58	0	556793856	42	3980
2026-01-01 11:48:48.56	1.18	28.83	-40.3	-40.8	20.5	0.00e+00	0	58	0	564133888	42	3965
2026-01-01 11:48:49.55	0.90	28.74	-40.3	-40.8	20.6	0.00e+00	0	58	0	571473920	42	3959
2026-01-01 11:48:50.54	0.63	28.64	-40.4	-40.9	20.5	0.00e+00	0	59	0	578813952	42	4019
2026-01-01 11:48:51.53	0.36	28.54	-40.4	-40.9	20.5	0.00e+00	0	59	0	586153984	42	4027
2026-01-01 11:48:52.52	0.09	28.44	-40.5	-41.0	20.4	0.00e+00	0	58	0	593494016	42	4074
2026-01-01 11:48:53.51	359.82	28.34	-40.7	-41.3	20.1	0.00e+00	0	59	0	599785472	43	3961
2026-01-01 11:48:54.50	359.56	28.24	-40.8	-41.3	20.0	0.00e+00	0	58	0	607125504	43	3995
2026-01-01 11:48:55.49	359.29	28.14	-40.5	-41.0	20.3	0.00e+00	0	58	0	614465536	43	3862
2026-01-01 11:48:56.49	359.03	28.04	-40.4	-40.9	20.5	0.00e+00	0	59	0	621805568	43	3782
2026-01-01 11:48:57.48	358.77	27.94	-40.2	-40.7	20.7	0.00e+00	0	59	0	629145600	43	3702
2026-01-01 11:48:58.47	358.51	27.84	-40.1	-40.5	20.8	0.00e+00	0	58	0	635437056	43	3641
2026-01-01 11:48:59.46	358.25	27.74	-40.2	-40.6	20.7	0.00e+00	0	58	0	642777088	43	3690
2026-01-01 11:49:00.46	357.99	27.64	-40.2	-40.7	20.7	0.00e+00	0	58	0	650117120	43	3698
2026-01-01 11:49:01.44	357.74	27.54	-39.9	-40.4	20.9	0.00e+00	0	59	0	657457152	42	3804
2026-01-01 11:49:02.43	357.49	27.44	-40.0	-40.5	20.9	0.00e+00	0	58	0	664797184	42	3837
2026-01-01 11:49:03.42	357.24	27.33	-40.1	-40.6	20.8	0.00e+00	0	59	0	671088640	42	3882
2026-01-01 11:49:04.40	356.99	27.23	-40.1	-40.6	20.7	0.00e+00	0	59	0	678428672	42	3891
2026-01-01 11:49:05.39	356.75	27.13	-40.3	-40.8	20.5	0.00e+00	0	58	0	685768704	42	3984
2026-01-01 11:49:06.37	356.50	27.03	-40.2	-40.7	20.6	0.00e+00	0	58	0	693108736	42	3954
2026-01-01 11:49:07.36	356.26	26.93	-40.3	-40.8	20.5	0.00e+00	0	58	0	699400192	42	3971
2026-01-01 11:49:08.36	356.01	26.82	-40.4	-40.8	20.5	0.00e+00	0	59	0	706740224	42	3998
2026-01-01 11:49:09.34	355.77	26.72	-40.5	-40.9	20.4	0.00e+00	0	58	0	714080256	42	4048
2026-01-01 11:49:10.32	355.54	26.62	-40.3	-40.8	20.5	0.00e+00	0	59	0	721420288	42	3983
2026-01-01 11:49:11.31	355.30	26.51	-40.3	-40.8	20.5	0.00e+00	0	58	0	728760320	42	3973
2026-01-01 11:49:12.29	355.06	26.41	-40.4	-40.9	20.5	0.00e+00	0	58	0	735051776	42	4009
2026-01-01 11:49:13.28	354.83	26.31	-40.3	-40.8	20.6	0.00e+00	0	58	0	742391808	42	3961
2026-01-01 11:49:14.27	354.60	26.20	-40.3	-40.8	20.5	0.00e+00	0	58	0	749731840	42	3986
2026-01-01 11:49:15.26	354.36	26.10	-40.4	-40.9	20.5	0.00e+00	0	59	0	757071872	42	4021
2026-01-01 11:49:16.25	354.13	26.00	-40.5	-41.0	20.3	0.00e+00	0	58	0	764411904	42	4074
2026-01-01 11:49:17.24	353.90	25.89	-40.5	-40.9	20.4	0.00e+00	0	58	0	771751936	42	4049
2026-01-01 11:49:18.23	353.68	25.79	-40.5	-41.0	20.3	0.00e+00	0	58	0	778043392	42	4091
2026-01-01 11:49:19.22	353.45	25.68	-40.3	-40.8	20.4	0.00e+00	0	58	0	785383424	42	3991
2026-01-01 11:49:20.21	353.23	25.58	-40.6	-41.1	20.2	0.00e+00	0	58	0	792723456	42	4113
2026-01-01 11:49:21.20	353.00	25.47	-40.8	-41.3	20.0	0.00e+00	0	59	0	800063488	43	3984
2026-01-01 11:49:22.19	352.78	25.37	-40.4	-40.9	20.4	0.00e+00	0	58	0	807403520	43	3812
2026-01-01 11:49:23.19	352.56	25.26	-40.1	-40.6	20.7	0.00e+00	0	59	0	814743552	43	3670
2026-01-01 11:49:24.17	352.34	25.16	-40.0	-40.5	20.8	0.00e+00	0	58	0	821035008	43	3619
2026-01-01 11:49:25.16	352.13	25.06	-40.0	-40.5	20.8	0.00e+00	0	58	0	828375040	42	3841
2026-01-01 11:49:26.15	351.91	24.95	-40.1	-40.6	20.7	0.00e+00	0	58	0	835715072	42	3876
2026-01-01 11:49:27.13	351.70	24.85	-40.0	-40.5	20.7	0.00e+00	0	58	0	843055104	42	3850
2026-01-01 11:49:28.12	351.49	24.74	-40.2	-40.7	20.6	0.00e+00	0	58	0	849346560	42	3918
2026-01-01 11:49:29.10	351.28	24.64	-40.3	-40.8	20.4	0.00e+00	0	59	0	856686592	42	3999
2026-01-01 11:49:30.09	351.07	24.53	-40.3	-40.7	20.5	0.00e+00	0	58	0	864026624	42	3953
2026-01-01 11:49:31.07	350.86	24.43	-40.3	-40.7	20.6	0.00e+00	0	58	0	871366656	42	3957
2026-01-01 11:49:32.07	350.65	24.32	-40.3	-40.8	20.5	0.00e+00	0	58	0	877658112	42	3973
2026-01-01 11:49:33.05	350.45	24.22	-40.3	-40.8	20.4	0.00e+00	0	58	0	884998144	42	3992
2026-01-01 11:49:34.04	350.25	24.11	-40.5	-41.0	20.2	0.00e+00	0	58	0	892338176	42	4090
2026-01-01 11:49:35.03	350.04	24.01	-40.2	-40.7	20.6	0.00e+00	0	58	0	899678208	42	3928
2026-01-01 11:49:36.01	349.84	23.91	-40.0	-40.5	20.7	0.00e+00	0	58	0	907018240	42	3850
2026-01-01 11:49:37.00	349.64	23.80	-40.0	-40.5	20.7	0.00e+00	0	58	0	914358272	42	3851
2026-01-01 11:49:37.99	349.45	23.70	-40.2	-40.7	20.6	0.00e+00	0	58	0	920649728	42	3921
2026-01-01 11:49:38.97	349.25	23.59	-40.5	-41.0	20.2	0.00e+00	0	58	0	927989760	42	4083
2026-01-01 11:49:39.96	349.05	23.49	-40.4	-40.9	20.4	0.00e+00	0	58	0	935329792	42	4012
2026-01-01 11:49:40.95	348.86	23.38	-40.6	-41.1	20.1	0.00e+00	0	58	0	942669824	42	4140
2026-01-01 11:49:41.94	348.67	23.28	-40.5	-41.0	20.2	0.00e+00	0	58	0	950009856	42	4083
2026-01-01 11:49:42.94	348.47	23.17	-40.7	-41.2	20.0	0.00e+00	0	58	0	956301312	43	3929
2026-01-01 11:49:43.93	348.28	23.07	-40.5	-41.0	20.2	0.00e+00	0	58	0	963641344	43	3864
2026-01-01 11:49:44.91	348.09	22.97	-40.4	-40.9	20.3	0.00e+00	0	58	0	970981376	43	3819
2026-01-01 11:49:45.90	347.91	22.86	-40.6	-41.2	20.1	0.00e+00	0	58	0	978321408	43	3915
2026-01-01 11:49:46.89	347.72	22.76	-40.6	-41.1	20.1	0.00e+00	0	58	0	985661440	43	3912
2026-01-01 11:49:47.88	347.53	22.65	-40.7	-41.2	20.0	0.00e+00	0	58	0	993001472	43	3958
2026-01-01 11:49:48.87	347.35	22.55	-40.9	-41.4	19.8	0.00e+00	0	58	0	999292928	43	4042
2026-01-01 11:49:49.85	347.17	22.45	-40.9	-41.4	19.8	0.00e+00	0	58	0	1006632960	43	4049
2026-01-01 11:49:50.83	346.99	22.34	-40.8	-41.3	19.9	0.00e+00	0	58	0	1013972992	43	3980
2026-01-01 11:49:51.82	346.81	22.24	-40.8	-41.3	19.9	0.00e+00	0	58	0	1020264448	43	3995
2026-01-01 11:49:52.81	346.63	22.14	-40.9	-41.4	19.8	0.00e+00	0	58	0	1027604480	43	4041
2026-01-01 11:49:53.79	346.45	22.04	-40.8	-41.3	19.8	0.00e+00	0	58	0	1034944512	43	4000
2026-01-01 11:49:54.78	346.27	21.93	-40.8	-41.4	19.8	0.00e+00	0	59	0	1042284544	43	4016
2026-01-01 11:49:55.77	346.10	21.83	-41.0	-41.6	19.6	0.00e+00	0	58	0	1049624576	43	4104
2026-01-01 11:49:56.76	345.92	21.73	-41.4	-41.9	19.4	0.00e+00	0	58	0	1055916032	44	4037
2026-01-01 11:49:57.75	345.75	21.62	-41.4	-42.0	19.3	0.00e+00	0	58	0	1063256064	44	4057
2026-01-01 11:49:58.74	345.58	21.52	-41.5	-42.1	19.1	0.00e+00	0	58	0	1070596096	44	4131
2026-01-01 11:49:59.73	345.41	21.42	-41.5	-42.1	19.2	0.00e+00	0	58	0	1077936128	44	4128
2026-01-01 11:50:00.72	345.24	21.32	-41.6	-42.1	19.1	0.00e+00	0	58	0	1085276160	44	4141
2026-01-01 11:50:01.71	345.07	21.21	-41.5	-42.1	19.2	0.00e+00	0	58	0	1092616192	44	4115
2026-01-01 11:50:02.70	344.90	21.11	-41.3	-41.9	19.4	0.00e+00	0	59	0	1098907648	44	4013
2026-01-01 11:50:03.70	344.73	21.01	-41.4	-41.9	19.3	0.00e+00	0	58	0	1106247680	44	4049
2026-01-01 11:50:04.70	344.56	20.91	-41.2	-41.8	19.5	0.00e+00	0	58	0	1113587712	44	3980
2026-01-01 11:50:05.69	344.40	20.80	-41.6	-42.2	19.1	0.00e+00	0	58	0	1120927744	44	4148
2026-01-01 11:50:06.67	344.24	20.70	-41.7	-42.2	19.0	0.00e+00	0	59	0	1128267776	45	3956
2026-01-01 11:50:07.66	344.07	20.60	-41.1	-41.6	19.6	0.00e+00	0	59	0	1135607808	45	3679
2026-01-01 11:50:08.65	343.91	20.50	-40.7	-41.2	19.9	0.00e+00	0	58	0	1141899264	44	3729
2026-01-01 11:50:09.64	343.75	20.40	-41.0	-41.5	19.6	0.00e+00	0	58	0	1149239296	44	3848
2026-01-01 11:50:10.62	343.60	20.30	-41.4	-42.0	19.2	0.00e+00	0	58	0	1156579328	44	4071
2026-01-01 11:50:11.61	343.44	20.20	-41.2	-41.8	19.3	0.00e+00	0	58	0	1163919360	44	3972
2026-01-01 11:50:12.60	343.28	20.10	-40.8	-41.4	19.6	0.00e+00	0	58	0	1171259392	44	3791
2026-01-01 11:50:13.59	343.13	20.00	-40.9	-41.4	19.4	0.00e+00	0	59	0	1177550848	44	3819
2026-01-01 11:50:14.59	342.97	19.90	-41.4	-42.0	18.8	0.00e+00	0	59	0	1184890880	44	4079
2026-01-01 11:50:15.58	342.82	19.80	-42.1	-42.7	18.0	0.00e+00	0	58	0	1192230912	45	4188
2026-01-01 11:50:16.56	342.66	19.70	-42.2	-43.0	17.7	0.00e+00	0	59	0	1199570944	46	4055
2026-01-01 11:50:17.54	342.51	19.60	-41.6	-42.3	18.4	0.00e+00	0	59	0	1206910976	46	3746
2026-01-01 11:50:18.53	342.36	19.50	-41.3	-41.9	18.7	0.00e+00	0	58	0	1214251008	45	3796
2026-01-01 11:50:19.52	342.21	19.40	-41.7	-42.3	18.2	0.00e+00	0	59	0	1220542464	45	3991
2026-01-01 11:50:20.51	342.06	19.30	-42.6	-43.4	17.0	0.00e+00	0	58	0	1227882496	46	4269
2026-01-01 11:50:21.49	341.92	19.20	-44.3	-45.3	15.2	0.00e+00	0	59	0	1235222528	50	4213
2026-01-01 11:50:22.48	341.77	19.10	-45.2	-46.5	13.9	3.40e-06	0	59	0	1242562560	51	4574
2026-01-01 11:50:23.47	341.63	19.01	-45.7	-47.2	13.1	3.20e-05	0	59	0	1248854016	52	4662
2026-01-01 11:50:24.46	341.48	18.91	-46.0	-47.5	12.7	5.95e-05	0	59	0	1256194048	53	4582
2026-01-01 11:50:25.45	341.34	18.81	-46.1	-47.6	12.6	1.12e-04	0	59	0	1263534080	53	4629
2026-01-01 11:50:26.44	341.19	18.71	-45.8	-47.2	13.0	3.20e-05	0	59	0	1270874112	53	4438
2026-01-01 11:50:27.44	341.05	18.61	-45.9	-47.5	12.8	6.63e-05	0	59	0	1278214144	53	4547
2026-01-01 11:50:28.42	340.91	18.52	-45.9	-47.4	12.9	6.17e-05	0	59	0	1284505600	53	4534
2026-01-01 11:50:29.42	340.77	18.42	-45.3	-46.7	13.9	6.80e-06	0	59	0	1291845632	53	4155
2026-01-01 11:50:30.41	340.63	18.32	-44.7	-45.8	14.9	0.00e+00	0	59	0	1299185664	52	3977
2026-01-01 11:50:31.40	340.49	18.22	-43.9	-44.8	16.1	0.00e+00	0	58	0	1306525696	50	3988
2026-01-01 11:50:32.40	340.35	18.13	-43.2	-44.0	17.0	0.00e+00	0	59	0	1313865728	49	3851
2026-01-01 11:50:33.39	340.22	18.03	-42.6	-43.4	17.3	0.00e+00	0	59	0	1321205760	48	3782
2026-01-01 11:50:34.38	340.08	17.93	-43.7	-44.5	16.4	0.00e+00	0	58	0	1328545792	48	4332
2026-01-01 11:50:35.37	339.95	17.84	-51.2	-59.0	3.9	8.42e-01	0	58	104	1331691520	65	8622
2026-01-01 11:50:36.37	339.81	17.74	-50.9	-57.4	4.5	8.26e-01	0	59	0	1331691520	64	7584
2026-01-01 11:50:37.36	339.68	17.65	-50.7	-56.1	5.2	7.59e-01	0	58	0	1331691520	64	6532
2026-01-01 11:50:38.35	339.54	17.55	-50.9	-57.0	4.7	7.74e-01	0	59	0	1331691520	64	7231
2026-01-01 11:50:39.33	339.41	17.46	-51.3	-59.2	3.9	8.40e-01	0	59	104	1331691520	64	9336
2026-01-01 11:50:40.32	339.28	17.36	-51.3	-59.2	3.9	8.43e-01	0	58	104	1331691520	64	9345
2026-01-01 11:50:41.31	339.15	17.27	-51.2	-59.0	4.1	8.40e-01	0	58	0	1331691520	64	9121
2026-01-01 11:50:42.29	339.03	17.17	-51.4	-60.2	3.8	8.45e-01	0	59	104	1331691520	64	10510
2026-01-01 11:50:43.29	338.90	17.08	-51.7	-61.8	3.8	8.46e-01	0	58	104	1331691520	65	11832
2026-01-01 11:50:44.28	338.77	16.98	-51.2	-59.3	4.0	8.45e-01	0	59	104	1331691520	65	8953
2026-01-01 11:50:45.27	338.64	16.89	-51.3	-59.3	3.8	8.42e-01	0	58	104	1331691520	64	9472
2026-01-01 11:50:46.26	338.52	16.80	-51.7	-61.4	3.8	8.46e-01	0	58	104	1331691520	64	12071
2026-01-01 11:50:47.24	338.39	16.70	-51.7	-61.3	3.8	8.47e-01	0	59	104	1331691520	65	11181
2026-01-01 11:50:48.23	338.27	16.61	-51.7	-61.2	3.8	8.46e-01	0	59	104	1331691520	65	11118
2026-01-01 11:50:49.22	338.15	16.52	-51.8	-61.7	3.8	8.46e-01	0	58	104	1331691520	65	11767
2026-01-01 11:50:50.21	338.03	16.42	-52.0	-62.1	3.8	8.47e-01	0	59	104	1331691520	65	12252
2026-01-01 11:50:51.20	337.90	16.33	-52.1	-62.3	3.8	8.46e-01	0	59	104	1331691520	65	12527
2026-01-01 11:50:52.19	337.78	16.24	-52.0	-61.8	3.8	8.45e-01	0	59	104	1331691520	65	11911
2026-01-01 11:50:53.18	337.66	16.15	-51.8	-60.1	3.8	8.45e-01	0	59	104	1331691520	65	9780
2026-01-01 11:50:54.16	337.54	16.06	-51.8	-59.8	4.0	8.44e-01	0	59	104	1331691520	65	9466
2026-01-01 11:50:55.15	337.43	15.96	-51.7	-58.7	4.2	8.44e-01	0	58	104	1331691520	65	8338
2026-01-01 11:50:56.15	337.31	15.87	-51.3	-57.1	4.8	8.04e-01	0	58	0	1331691520	65	6935
2026-01-01 11:50:57.13	337.19	15.78	-51.3	-57.1	4.9	7.77e-01	0	59	0	1331691520	65	6904
2026-01-01 11:50:58.12	337.07	15.69	-51.3	-57.4	4.8	7.97e-01	0	58	0	1331691520	65	7141
2026-01-01 11:50:59.11	336.96	15.60	-51.3	-57.2	4.8	7.90e-01	0	59	0	1331691520	65	7039
2026-01-01 11:51:00.10	336.84	15.51	-51.2	-57.1	4.9	7.69e-01	0	59	0	1331691520	65	6930
2026-01-01 11:51:01.09	336.73	15.42	-51.3	-57.2	4.8	7.98e-01	0	59	0	1331691520	65	6998
2026-01-01 11:51:02.08	336.62	15.33	-51.3	-56.8	5.0	7.64e-01	0	58	0	1331691520	65	6719
2026-01-01 11:51:03.07	336.50	15.24	-50.8	-55.3	6.0	6.85e-01	0	58	0	1048576	64	5973
2026-01-01 11:51:04.06	336.39	15.15	-50.2	-53.8	7.4	1.31e-01	0	59	0	7340032	63	5303
2026-01-01 11:51:05.05	336.28	15.06	-49.4	-52.2	8.9	3.77e-02	0	58	0	14680064	61	4974
2026-01-01 11:51:06.03	336.17	14.97	-48.7	-51.1	10.2	9.86e-03	0	59	0	22020096	60	4609
2026-01-01 11:51:07.03	336.06	14.88	-47.9	-49.9	11.5	1.25e-03	0	59	0	29360128	58	4507
2026-01-01 11:51:08.02	335.95	14.79	-47.2	-48.8	12.5	2.13e-04	0	58	0	36700160	57	4222
2026-01-01 11:51:09.01	335.84	14.70	-46.7	-48.1	13.3	3.66e-05	0	59	0	44040192	56	4136
2026-01-01 11:51:10.00	335.73	14.61	-46.0	-47.2	14.2	1.10e-06	0	59	0	50331648	54	4167
2026-01-01 11:51:10.99	335.62	14.52	-45.4	-46.5	14.8	0.00e+00	0	59	0	57671680	53	4084
2026-01-01 11:51:11.98	335.52	14.44	-45.0	-46.0	15.4	0.00e+00	0	59	0	65011712	52	4054
2026-01-01 11:51:12.96	335.41	14.35	-44.7	-45.6	15.7	0.00e+00	0	58	0	72351744	52	3911
2026-01-01 11:51:13.95	335.31	14.26	-44.3	-45.2	16.3	0.00e+00	0	58	0	79691776	51	3916
2026-01-01 11:51:14.93	335.20	14.18	-44.1	-44.9	16.6	0.00e+00	0	58	0	87031808	51	3805
2026-01-01 11:51:15.92	335.10	14.09	-43.6	-44.4	17.1	0.00e+00	0	59	0	93323264	50	3820
2026-01-01 11:51:16.91	335.00	14.00	-43.4	-44.2	17.3	0.00e+00	0	58	0	100663296	49	3918
2026-01-01 11:51:17.90	334.89	13.91	-43.2	-43.9	17.5	0.00e+00	0	58	0	108003328	49	3791
2026-01-01 11:51:18.89	334.79	13.83	-43.0	-43.6	17.8	0.00e+00	0	58	0	115343360	48	3909
2026-01-01 11:51:19.87	334.69	13.74	-43.0	-43.7	17.8	0.00e+00	0	58	0	121634816	48	3919
2026-01-01 11:51:20.86	334.59	13.66	-43.2	-43.9	17.5	0.00e+00	0	59	0	128974848	48	4035
2026-01-01 11:51:21.84	334.49	13.57	-43.2	-43.9	17.5	0.00e+00	0	58	0	136314880	48	4043
2026-01-01 11:51:22.84	334.39	13.48	-43.3	-44.0	17.3	0.00e+00	0	58	0	143654912	48	4090
2026-01-01 11:51:23.83	334.29	13.40	-43.5	-44.2	17.2	0.00e+00	0	58	0	150994944	48	4187
2026-01-01 11:51:24.82	334.19	13.31	-43.4	-44.2	17.2	0.00e+00	0	58	0	157286400	48	4153
2026-01-01 11:51:25.81	334.09	13.23	-43.6	-44.3	17.1	0.00e+00	0	58	0	164626432	48	4235
2026-01-01 11:51:26.80	334.00	13.14	-43.5	-44.2	17.2	0.00e+00	0	59	0	171966464	48	4191
2026-01-01 11:51:27.79	333.90	13.06	-43.6	-44.4	17.0	0.00e+00	0	58	0	179306496	49	4045
2026-01-01 11:51:28.78	333.80	12.97	-43.6	-44.4	17.0	0.00e+00	0	58	0	186646528	49	4023
2026-01-01 11:51:29.77	333.71	12.89	-43.3	-44.0	17.4	0.00e+00	0	58	0	192937984	49	3855
2026-01-01 11:51:30.75	333.61	12.81	-43.3	-44.0	17.4	0.00e+00	0	58	0	200278016	49	3838
2026-01-01 11:51:31.75	333.52	12.72	-43.5	-44.3	17.1	0.00e+00	0	59	0	207618048	49	3971
2026-01-01 11:51:32.73	333.42	12.64	-43.5	-44.2	17.1	0.00e+00	0	58	0	214958080	49	3953
2026-01-01 11:51:33.72	333.33	12.56	-43.3	-44.0	17.4	0.00e+00	0	58	0	222298112	49	3863
2026-01-01 11:51:34.71	333.24	12.47	-43.4	-44.1	17.3	0.00e+00	0	58	0	228589568	49	3889
2026-01-01 11:51:35.70	333.14	12.39	-43.6	-44.3	17.0	0.00e+00	0	58	0	235929600	49	3990
2026-01-01 11:51:36.70	333.05	12.31	-43.4	-44.2	17.2	0.00e+00	0	59	0	243269632	49	3931
2026-01-01 11:51:37.68	332.96	12.22	-43.2	-43.9	17.5	0.00e+00	0	58	0	250609664	49	3810
2026-01-01 11:51:38.68	332.87	12.14	-43.1	-43.8	17.6	0.00e+00	0	58	0	257949696	49	3767
2026-01-01 11:51:39.66	332.78	12.06	-43.1	-43.8	17.6	0.00e+00	0	58	0	265289728	49	3752
2026-01-01 11:51:40.64	332.69	11.98	-43.1	-43.9	17.5	0.00e+00	0	58	0	271581184	49	3793
2026-01-01 11:51:41.63	332.60	11.90	-43.2	-43.9	17.4	0.00e+00	0	58	0	278921216	49	3823
2026-01-01 11:51:42.63	332.51	11.81	-43.1	-43.8	17.0	0.00e+00	0	58	0	286261248	49	3780
2026-01-01 11:51:43.61	332.42	11.73	-43.0	-43.7	17.6	0.00e+00	0	59	0	293601280	48	3929
2026-01-01 11:51:44.60	332.34	11.65	-43.2	-43.9	17.5	0.00e+00	0	58	0	300941312	48	4033
2026-01-01 11:51:45.59	332.25	11.57	-43.1	-43.9	17.5	0.00e+00	0	58	0	308281344	48	4013
2026-01-01 11:51:46.58	332.16	11.49	-43.1	-43.8	17.5	0.00e+00	0	58	0	314572800	48	3984
2026-01-01 11:51:47.57	332.08	11.41	-43.3	-44.0	17.4	0.00e+00	0	58	0	321912832	48	4074
2026-01-01 11:51:48.57	331.99	11.33	-43.3	-44.1	17.3	0.00e+00	0	58	0	329252864	48	4115
2026-01-01 11:51:49.56	331.90	11.25	-43.4	-44.1	17.3	0.00e+00	0	58	0	336592896	48	4132
2026-01-01 11:51:50.55	331.82	11.17	-43.5	-44.3	17.1	0.00e+00	0	58	0	343932928	48	4207
2026-01-01 11:51:51.53	331.74	11.09	-43.7	-44.5	16.9	0.00e+00	0	58	0	350224384	49	4062
2026-01-01 11:51:52.52	331.65	11.01	-43.8	-44.7	16.7	0.00e+00	0	59	0	357564416	49	4148
2026-01-01 11:51:53.51	331.57	10.93	-44.0	-44.8	16.5	0.00e+00	0	58	0	364904448	49	4226
2026-01-01 11:51:54.49	331.49	10.85	-44.0	-44.8	16.5	0.00e+00	0	58	0	372244480	49	4237
2026-01-01 11:51:55.48	331.40	10.77	-44.0	-44.8	16.5	0.00e+00	0	58	0	379584512	49	4229
2026-01-01 11:51:56.47	331.32	10.69	-44.2	-45.1	16.2	0.00e+00	0	58	0	386924544	50	4128
2026-01-01 11:51:57.46	331.24	10.62	-44.5	-45.4	15.9	0.00e+00	0	58	0	393216000	50	4287
2026-01-01 11:51:58.45	331.16	10.54	-44.5	-45.4	15.9	0.00e+00	0	59	0	400556032	50	4284
2026-01-01 11:51:59.44	331.08	10.46	-44.7	-45.6	15.7	0.00e+00	0	58	0	407896064	50	4374
2026-01-01 11:52:00.43	331.00	10.38	-44.8	-45.8	15.6	0.00e+00	0	59	0	415236096	51	4196
2026-01-01 11:52:01.42	330.92	10.30	-44.8	-45.8	15.4	0.00e+00	0	58	0	421527552	51	4238
2026-01-01 11:52:02.41	330.84	10.23	-45.2	-46.3	15.1	0.00e+00	0	58	0	428867584	51	4450
2026-01-01 11:52:03.39	330.76	10.15	-45.2	-46.3	15.0	0.00e+00	0	58	0	436207616	52	4212
2026-01-01 11:52:04.38	330.68	10.07	-45.1	-46.2	15.0	0.00e+00	0	58	0	443547648	52	4166
2026-01-01 11:52:05.37	330.60	9.99	-45.3	-46.4	14.8	0.00e+00	0	58	0	450887680	52	4280
2026-01-01 11:52:06.36	330.53	9.92	-45.1	-46.3	15.0	0.00e+00	0	58	0	457179136	52	4195
2026-01-01 11:52:07.34	330.45	9.84	-45.3	-46.4	14.8	0.00e+00	0	58	0	464519168	52	4257
2026-01-01 11:52:08.33	330.37	9.77	-44.9	-45.9	15.2	0.00e+00	0	58	0	471859200	52	4026
2026-01-01 11:52:09.32	330.30	9.69	-44.8	-45.8	15.4	0.00e+00	0	58	0	479199232	52	3970
2026-01-01 11:52:10.30	330.22	9.61	-44.8	-45.8	15.4	0.00e+00	0	59	0	486539264	52	3983
2026-01-01 11:52:11.30	330.15	9.54	-44.9	-45.9	15.2	0.00e+00	0	58	0	492830720	52	4036
2026-01-01 11:52:12.28	330.07	9.46	-44.8	-45.7	15.4	0.00e+00	0	58	0	500170752	52	3942
2026-01-01 11:52:13.27	330.00	9.39	-44.7	-45.7	15.5	0.00e+00	0	58	0	507510784	52	3931
2026-01-01 11:52:14.27	329.92	9.31	-45.1	-46.1	15.1	0.00e+00	0	58	0	514850816	52	4142
2026-01-01 11:52:15.26	329.85	9.23	-45.2	-46.3	14.8	0.00e+00	0	58	0	522190848	52	4242
2026-01-01 11:52:16.25	329.77	9.16	-44.9	-45.9	15.3	0.00e+00	0	58	0	529530880	52	4017
2026-01-01 11:52:17.23	329.70	9.08	-44.7	-45.7	15.5	0.00e+00	0	58	0	535822336	52	3926
2026-01-01 11:52:18.23	329.63	9.01	-44.6	-45.6	15.6	0.00e+00	0	58	0	543162368	52	3880
2026-01-01 11:52:19.21	329.56	8.94	-44.6	-45.6	15.6	0.00e+00	0	58	0	550502400	52	3872
2026-01-01 11:52:20.21	329.48	8.86	-44.7	-45.6	15.5	0.00e+00	0	58	0	557842432	52	3901
2026-01-01 11:52:21.19	329.41	8.79	-44.9	-46.0	15.2	0.00e+00	0	58	0	565182464	52	4060
2026-01-01 11:52:22.19	329.34	8.71	-44.5	-45.5	15.7	0.00e+00	0	58	0	571473920	52	3826
2026-01-01 11:52:23.19	329.27	8.64	-44.4	-45.3	15.9	0.00e+00	0	58	0	578813952	51	4004
2026-01-01 11:52:24.18	329.20	8.56	-44.3	-45.3	16.0	0.00e+00	0	58	0	586153984	51	3967
2026-01-01 11:52:25.17	329.13	8.49	-44.7	-45.7	15.5	0.00e+00	0	58	0	593494016	51	4184
2026-01-01 11:52:26.16	329.06	8.42	-44.9	-46.0	15.3	1.10e-06	0	58	0	600834048	51	4297
2026-01-01 11:52:27.15	328.99	8.34	-45.0	-46.0	15.2	1.10e-06	0	58	0	608174080	51	4330
2026-01-01 11:52:28.14	328.92	8.27	-45.1	-46.2	15.0	0.00e+00	0	58	0	614465536	51	4426
2026-01-01 11:52:29.12	328.85	8.20	-45.3	-46.4	14.7	8.00e-06	0	58	0	621805568	52	4276
2026-01-01 11:52:30.11	328.79	8.13	-45.0	-46.0	15.1	0.00e+00	0	58	0	629145600	52	4080
2026-01-01 11:52:31.08	328.72	8.05	-45.0	-46.0	15.1	0.00e+00	0	58	0	636485632	52	4085
2026-01-01 11:52:32.08	328.65	7.98	-45.1	-46.2	15.0	0.00e+00	0	58	0	643825664	52	4146
2026-01-01 11:52:33.07	328.58	7.91	-44.7	-45.7	15.4	0.00e+00	0	58	0	650117120	52	3938
2026-01-01 11:52:34.06	328.52	7.84	-44.5	-45.5	15.7	0.00e+00	0	58	0	657457152	51	4066
2026-01-01 11:52:35.05	328.45	7.77	-44.6	-45.6	15.6	0.00e+00	0	58	0	664797184	51	4121
2026-01-01 11:52:36.04	328.39	7.69	-44.9	-46.0	15.2	0.00e+00	0	58	0	672137216	51	4294
2026-01-01 11:52:37.02	328.32	7.62	-44.8	-45.8	15.3	0.00e+00	0	58	0	678428672	51	4238
2026-01-01 11:52:38.01	328.26	7.55	-44.7	-45.8	15.4	1.10e-06	0	58	0	685768704	51	4202
2026-01-01 11:52:38.99	328.19	7.48	-45.1	-46.2	15.0	0.00e+00	0	58	0	693108736	51	4401
2026-01-01 11:52:39.98	328.13	7.41	-44.9	-45.9	15.2	0.00e+00	0	58	0	700448768	51	4285
2026-01-01 11:52:40.98	328.06	7.34	-45.1	-46.2	14.9	0.00e+00	0	58	0	707788800	52	4153
2026-01-01 11:52:41.96	328.00	7.27	-45.0	-46.1	15.0	0.00e+00	0	58	0	714080256	52	4103
2026-01-01 11:52:42.95	327.93	7.20	-45.0	-46.1	14.9	0.00e+00	0	58	0	721420288	52	4139
2026-01-01 11:52:43.95	327.87	7.13	-45.1	-46.2	14.8	1.10e-06	0	58	0	728760320	52	4192
2026-01-01 11:52:44.94	327.81	7.06	-45.1	-46.2	14.8	0.00e+00	0	58	0	736100352	52	4188
2026-01-01 11:52:45.93	327.74	6.99	-45.5	-46.7	14.3	2.20e-06	0	58	0	743440384	52	4427
2026-01-01 11:52:46.92	327.68	6.92	-45.3	-46.4	14.6	1.10e-06	0	58	0	749731840	52	4274
2026-01-01 11:52:47.91	327.62	6.85	-45.1	-46.2	14.8	0.00e+00	0	58	0	757071872	52	4172
2026-01-01 11:52:48.90	327.56	6.78	-45.1	-46.2	14.8	0.00e+00	0	58	0	764411904	52	4153
2026-01-01 11:52:49.88	327.50	6.71	-45.2	-46.4	14.6	0.00e+00	0	58	0	771751936	52	4256
2026-01-01 11:52:50.88	327.44	6.64	-45.2	-46.3	14.7	0.00e+00	0	58	0	779091968	52	4224
2026-01-01 11:52:51.87	327.37	6.57	-45.2	-46.4	14.6	0.00e+00	0	58	0	786432000	52	4253
2026-01-01 11:52:52.87	327.31	6.50	-45.2	-46.4	14.6	0.00e+00	0	58	0	792723456	52	4267
2026-01-01 11:52:53.86	327.25	6.43	-45.1	-46.3	14.7	0.00e+00	0	58	0	800063488	52	4198
2026-01-01 11:52:54.85	327.19	6.36	-45.3	-46.4	14.5	0.00e+00	0	58	0	807403520	52	4277
2026-01-01 11:52:55.84	327.13	6.29	-45.2	-46.4	14.6	2.20e-06	0	58	0	814743552	52	4265
2026-01-01 11:52:56.83	327.07	6.23	-45.1	-46.2	14.7	0.00e+00	0	58	0	822083584	52	4178
2026-01-01 11:52:57.82	327.01	6.16	-45.2	-46.4	14.5	1.10e-06	0	58	0	829423616	52	4267
2026-01-01 11:52:58.80	326.96	6.09	-45.4	-46.6	14.3	0.00e+00	0	58	0	835715072	52	4365
2026-01-01 11:52:59.79	326.90	6.02	-45.6	-46.9	14.0	2.20e-06	0	58	0	843055104	53	4288
2026-01-01 11:53:00.79	326.84	5.95	-45.6	-46.8	14.1	1.14e-05	0	58	0	850395136	53	4218
2026-01-01 11:53:01.78	326.78	5.89	-45.3	-46.5	14.3	2.20e-06	0	58	0	857735168	53	4076
2026-01-01 11:53:02.77	326.72	5.82	-45.3	-46.5	14.4	1.10e-06	0	58	0	865075200	53	4065
2026-01-01 11:53:03.75	326.67	5.75	-45.3	-46.4	14.4	2.20e-06	0	58	0	871366656	53	4049
2026-01-01 11:53:04.74	326.61	5.68	-45.6	-46.8	14.0	4.50e-06	0	58	0	878706688	53	4220
2026-01-01 11:53:05.73	326.55	5.62	-45.5	-46.7	14.1	1.10e-06	0	58	0	886046720	53	4173
2026-01-01 11:53:06.72	326.50	5.55	-45.3	-46.4	14.4	0.00e+00	0	58	0	893386752	53	4045
2026-01-01 11:53:07.71	326.44	5.48	-45.2	-46.4	14.4	1.10e-06	0	58	0	900726784	53	4032
2026-01-01 11:53:08.70	326.38	5.42	-45.0	-46.1	14.7	1.10e-06	0	58	0	908066816	52	4130
2026-01-01 11:53:09.69	326.33	5.35	-45.1	-46.3	14.4	0.00e+00	0	58	0	914358272	52	4225
2026-01-01 11:53:10.68	326.27	5.28	-45.6	-46.9	13.9	5.70e-06	0	58	0	921698304	53	4273
2026-01-01 11:53:11.66	326.22	5.22	-45.4	-46.6	14.2	3.40e-06	0	58	0	929038336	53	4110
2026-01-01 11:53:12.66	326.16	5.15	-45.0	-46.2	14.6	0.00e+00	0	58	0	936378368	53	3929
2026-01-01 11:53:13.64	326.11	5.09	-45.2	-46.4	14.4	0.00e+00	0	58	0	943718400	52	4260
2026-01-01 11:53:14.63	326.05	5.02	-51.7	-61.2	3.8	8.46e-01	0	58	104	945815552	65	11099
2026-01-01 11:53:15.63	326.00	4.95	-51.6	-61.6	3.8	8.47e-01	0	58	104	945815552	65	11660
2026-01-01 11:53:16.62	325.95	4.89	-48.3	-58.4	3.8	8.47e-01	0	58	104	945815552	59	11292
2026-01-01 11:53:17.61	325.89	4.82	-51.4	-61.6	3.8	8.47e-01	0	58	104	945815552	64	12362
2026-01-01 11:53:18.60	325.84	4.76	-52.2	-62.5	3.8	8.45e-01	0	58	104	945815552	66	12207
2026-01-01 11:53:19.60	325.79	4.69	-52.4	-62.6	3.8	8.47e-01	0	58	104	945815552	66	12349
2026-01-01 11:53:20.58	325.73	4.63	-52.5	-62.8	3.8	8.46e-01	0	58	104	945815552	66	12530
2026-01-01 11:53:21.57	325.68	4.56	-52.6	-62.8	3.8	8.45e-01	0	58	104	945815552	66	12567
2026-01-01 11:53:22.55	325.63	4.50	-52.6	-62.7	3.8	8.48e-01	0	58	104	945815552	66	12508
2026-01-01 11:53:23.55	325.58	4.43	-52.7	-62.8	3.8	8.45e-01	0	58	104	945815552	66	12629
2026-01-01 11:53:24.54	325.52	4.37	-52.7	-62.8	3.8	8.46e-01	0	58	104	945815552	66	12594
2026-01-01 11:53:25.54	325.47	4.30	-52.5	-62.8	3.8	8.45e-01	0	58	104	945815552	66	12639
2026-01-01 11:53:26.53	325.42	4.24	-52.6	-62.9	3.8	8.47e-01	0	58	104	945815552	66	12682
2026-01-01 11:53:27.51	325.37	4.18	-52.6	-62.9	3.8	8.46e-01	0	58	104	945815552	67	12034
2026-01-01 11:53:28.51	325.32	4.11	-52.7	-62.9	3.8	8.46e-01	0	58	104	945815552	67	12040
2026-01-01 11:53:29.50	325.27	4.05	-52.6	-62.9	3.8	8.45e-01	0	58	104	945815552	67	12022
2026-01-01 11:53:30.48	325.22	3.98	-52.6	-62.9	3.8	8.46e-01	0	58	104	945815552	67	12064
2026-01-01 11:53:31.47	325.17	3.92	-52.6	-63.0	3.8	8.46e-01	0	58	104	945815552	67	12100
2026-01-01 11:53:32.46	325.12	3.86	-52.5	-62.9	3.8	8.46e-01	0	58	104	945815552	67	12083
2026-01-01 11:53:33.44	325.07	3.79	-52.7	-62.9	3.8	8.46e-01	0	58	104	945815552	67	12063
2026-01-01 11:53:34.43	325.02	3.73	-52.8	-62.9	3.8	8.46e-01	0	58	104	945815552	67	12066
2026-01-01 11:53:35.42	324.97	3.67	-52.8	-63.0	3.8	8.47e-01	0	58	104	945815552	67	12097
2026-01-01 11:53:36.40	324.92	3.61	-52.7	-63.0	3.8	8.46e-01	0	58	104	945815552	67	12127
2026-01-01 11:53:37.39	324.87	3.54	-52.6	-62.9	3.8	8.47e-01	0	58	104	945815552	67	12086
2026-01-01 11:53:38.39	324.83	3.48	-52.7	-63.0	3.8	8.46e-01	0	58	104	945815552	67	12120
2026-01-01 11:53:39.38	324.78	3.42	-52.8	-63.0	3.8	8.46e-01	0	58	104	945815552	67	12124
2026-01-01 11:53:40.37	324.73	3.35	-52.8	-63.0	3.8	8.46e-01	0	58	104	945815552	67	12147
2026-01-01 11:53:41.36	324.68	3.29	-52.6	-62.9	3.8	8.46e-01	0	58	104	945815552	67	12067
2026-01-01 11:53:42.35	324.63	3.23	-52.8	-62.9	3.8	8.46e-01	0	58	104	945815552	67	12079
2026-01-01 11:53:43.35	324.59	3.17	-52.8	-62.9	3.8	8.47e-01	0	58	104	945815552	67	12088
2026-01-01 11:53:44.33	324.54	3.11	-52.8	-63.0	3.8	8.46e-01	0	58	104	945815552	67	12130
2026-01-01 11:53:45.31	324.49	3.04	-52.8	-62.9	3.8	8.47e-01	0	58	104	945815552	67	12030
2026-01-01 11:53:46.30	324.45	2.98	-52.7	-62.9	3.8	8.45e-01	0	58	104	945815552	67	12042
2026-01-01 11:53:47.29	324.40	2.92	-52.8	-63.0	3.8	8.46e-01	0	58	104	945815552	67	12148

#Closed at: 2026-01-01 11:53:47
#Recorded file [945 MB]: D:/Data/31026_260101_145314.dat