passes_logs/2026/01/01/R3.0SM8_Murmansk_STILSPACE/R3.0SM8_Murmansk_STILSPACE__20260101_125324_AQUA_rec.log

#Pass ID: 20260101_125324_AQUA
#Satellite: AQUA
#Configuration: AQUA
#almurnet v.1.7.20240730
#Start time: 2026-01-01 12:53:25

#Version: 2.2.20231116
#Station: R3.0SM8_Murmansk_STILSPACE
#Location: 33.092731 lon 68.902999 lat
#TLE: 1 27424U 02022A   25365.92641128  .00002078  00000+0  42628-3 0  9990
#TLE: 2 27424  98.4058 327.1196 0001962  94.7781 340.6230 14.61783896258835

#Time	Az	El	Level	Level2	SNR	BER	BlckErr	Temp	State	Recorded	gain1	gain2
2026-01-01 12:53:25.12	195.88	3.02	-54.2	-74.2	3.8	7.42e-01	0	47	0	0	70	38287
2026-01-01 12:53:26.09	195.94	3.08	-54.1	-74.0	3.8	7.43e-01	0	47	104	0	70	37700
2026-01-01 12:53:27.08	196.00	3.15	-54.1	-74.0	3.8	7.45e-01	0	47	104	0	70	37530
2026-01-01 12:53:28.07	196.06	3.21	-54.0	-73.9	3.8	7.45e-01	0	47	104	0	70	37184
2026-01-01 12:53:29.06	196.12	3.27	-53.9	-73.8	3.8	7.46e-01	0	47	104	0	70	36629
2026-01-01 12:53:30.05	196.19	3.34	-53.8	-73.7	3.8	7.48e-01	0	47	104	0	70	36226
2026-01-01 12:53:31.03	196.25	3.40	-53.6	-73.4	3.8	7.45e-01	0	48	104	0	70	35170
2026-01-01 12:53:32.01	196.31	3.46	-53.3	-71.8	3.9	7.36e-01	0	48	104	0	70	29321
2026-01-01 12:53:33.01	196.38	3.53	-53.2	-72.8	3.8	7.44e-01	0	48	104	0	69	34706
2026-01-01 12:53:34.00	196.44	3.59	-53.2	-72.7	3.8	7.44e-01	0	48	104	0	69	34296
2026-01-01 12:53:34.98	196.51	3.66	-53.2	-72.5	3.8	7.47e-01	0	48	104	0	69	33498
2026-01-01 12:53:35.98	196.57	3.72	-53.2	-72.2	3.8	7.45e-01	0	48	104	0	69	32504
2026-01-01 12:53:36.99	196.64	3.79	-53.2	-72.1	3.8	7.46e-01	0	48	104	0	69	31937
2026-01-01 12:53:37.96	196.70	3.85	-53.2	-71.9	3.8	7.41e-01	0	48	104	0	69	31186
2026-01-01 12:53:38.94	196.77	3.92	-53.2	-71.8	3.8	7.44e-01	0	48	104	0	69	30767
2026-01-01 12:53:39.93	196.83	3.98	-53.2	-71.8	3.8	7.43e-01	0	48	104	0	69	30835
2026-01-01 12:53:40.92	196.90	4.05	-53.2	-71.9	3.8	7.44e-01	0	48	104	0	69	31274
2026-01-01 12:53:41.91	196.97	4.11	-53.2	-72.0	3.8	7.48e-01	0	48	104	0	69	31790
2026-01-01 12:53:42.90	197.03	4.18	-53.2	-72.5	3.8	7.44e-01	0	48	104	0	69	33410
2026-01-01 12:53:43.90	197.10	4.24	-53.2	-72.9	3.8	7.49e-01	0	48	104	0	69	34905
2026-01-01 12:53:44.88	197.17	4.31	-53.2	-73.0	3.8	7.43e-01	0	48	104	0	69	35465
2026-01-01 12:53:45.88	197.24	4.38	-53.2	-72.4	3.8	7.42e-01	0	48	104	0	69	32958
2026-01-01 12:53:46.86	197.30	4.44	-53.1	-70.5	3.9	7.42e-01	0	48	104	0	69	26563
2026-01-01 12:53:47.85	197.37	4.51	-53.1	-67.4	5.0	7.08e-01	0	49	0	0	69	18568
2026-01-01 12:53:48.85	197.44	4.58	-52.9	-64.6	7.1	6.62e-01	91	49	0	1048576	69	13462
2026-01-01 12:53:49.83	197.51	4.64	-52.7	-62.5	9.2	6.32e-01	0	49	0	2621440	69	10558
2026-01-01 12:53:50.82	197.58	4.71	-52.4	-60.5	11.3	6.16e-01	0	49	0	4718592	68	8937
2026-01-01 12:53:51.82	197.65	4.78	-52.1	-59.2	12.7	6.11e-01	0	49	0	6815744	67	8121
2026-01-01 12:53:52.80	197.72	4.84	-51.7	-57.8	14.1	6.10e-01	0	49	0	8388608	67	6889
2026-01-01 12:53:53.79	197.79	4.91	-51.4	-56.8	15.2	6.09e-01	0	49	0	10485760	66	6512
2026-01-01 12:53:54.78	197.86	4.98	-51.0	-55.6	16.3	6.06e-01	0	49	0	12058624	65	6011
2026-01-01 12:53:55.77	197.93	5.05	-50.9	-55.3	16.7	6.09e-01	0	49	0	14155776	65	5794
2026-01-01 12:53:56.76	198.00	5.11	-51.1	-55.9	16.2	6.07e-01	0	49	0	15728640	65	6208
2026-01-01 12:53:57.75	198.08	5.18	-51.0	-55.5	16.5	6.07e-01	0	49	0	17825792	65	5965
2026-01-01 12:53:58.74	198.15	5.25	-50.8	-55.0	16.9	6.06e-01	0	49	0	19398656	65	5652
2026-01-01 12:53:59.73	198.22	5.32	-50.5	-54.4	17.6	6.07e-01	0	49	0	21495808	64	5586
2026-01-01 12:54:00.72	198.29	5.39	-50.3	-53.9	18.1	6.07e-01	0	49	0	23068672	64	5221
2026-01-01 12:54:01.71	198.37	5.45	-50.2	-53.6	18.5	6.09e-01	0	49	0	25165824	63	5348
2026-01-01 12:54:02.68	198.44	5.52	-49.9	-53.1	19.0	6.07e-01	0	49	0	26738688	63	5081
2026-01-01 12:54:03.67	198.51	5.59	-49.7	-52.6	19.4	6.08e-01	0	49	0	28835840	62	5092
2026-01-01 12:54:04.66	198.59	5.66	-49.6	-52.6	19.5	6.06e-01	0	50	0	30408704	62	5048
2026-01-01 12:54:05.65	198.66	5.73	-49.5	-52.3	19.7	6.06e-01	0	49	0	32505856	62	4921
2026-01-01 12:54:06.64	198.74	5.80	-49.4	-52.1	20.0	6.08e-01	0	50	0	34603008	62	4810
2026-01-01 12:54:07.63	198.81	5.87	-49.5	-52.3	19.8	6.06e-01	0	50	0	36175872	62	4890
2026-01-01 12:54:08.62	198.89	5.94	-49.3	-52.0	20.1	6.09e-01	0	50	0	38273024	62	4744
2026-01-01 12:54:09.61	198.96	6.01	-49.3	-52.0	20.1	6.08e-01	0	50	0	39845888	62	4722
2026-01-01 12:54:10.59	199.04	6.08	-49.3	-52.0	20.1	6.06e-01	0	50	0	41943040	62	4752
2026-01-01 12:54:11.58	199.12	6.15	-49.4	-52.2	19.9	6.06e-01	0	50	0	43515904	62	4849
2026-01-01 12:54:12.56	199.19	6.22	-49.3	-52.1	20.1	6.05e-01	0	50	0	45613056	62	4762
2026-01-01 12:54:13.54	199.27	6.29	-49.2	-51.9	20.3	6.05e-01	0	50	0	47185920	62	4656
2026-01-01 12:54:14.53	199.35	6.36	-49.2	-51.8	20.3	6.08e-01	0	50	0	49283072	62	4640
2026-01-01 12:54:15.52	199.43	6.43	-49.3	-51.9	20.2	6.06e-01	0	50	0	50855936	62	4692
2026-01-01 12:54:16.51	199.51	6.50	-49.4	-52.0	20.2	6.07e-01	0	50	0	52953088	62	4745
2026-01-01 12:54:17.51	199.59	6.57	-49.3	-51.9	20.3	6.05e-01	0	50	0	54525952	62	4701
2026-01-01 12:54:18.50	199.67	6.64	-49.2	-51.8	20.4	6.08e-01	0	50	0	56623104	62	4614
2026-01-01 12:54:19.48	199.75	6.71	-49.2	-51.7	20.5	6.06e-01	0	50	0	58720256	61	4845
2026-01-01 12:54:20.47	199.83	6.79	-49.1	-51.7	20.6	6.07e-01	0	50	0	60293120	61	4819
2026-01-01 12:54:21.46	199.91	6.86	-49.2	-51.7	20.5	6.06e-01	0	50	0	62390272	61	4847
2026-01-01 12:54:22.45	199.99	6.93	-49.2	-51.7	20.5	6.07e-01	0	50	0	63963136	61	4853
2026-01-01 12:54:23.45	200.07	7.00	-49.1	-51.6	20.6	6.06e-01	0	50	0	66060288	61	4794
2026-01-01 12:54:24.44	200.15	7.08	-49.1	-51.6	20.7	6.07e-01	0	51	0	67633152	61	4786
2026-01-01 12:54:25.43	200.24	7.15	-49.2	-51.7	20.5	6.06e-01	0	50	0	69730304	61	4851
2026-01-01 12:54:26.41	200.32	7.22	-49.2	-51.7	20.5	6.06e-01	0	50	0	71303168	61	4868
2026-01-01 12:54:27.39	200.40	7.29	-49.1	-51.6	20.7	6.08e-01	0	51	0	73400320	61	4766
2026-01-01 12:54:28.38	200.48	7.37	-49.2	-51.7	20.6	6.06e-01	0	51	0	74973184	61	4828
2026-01-01 12:54:29.36	200.57	7.44	-49.2	-51.7	20.5	6.10e-01	0	51	0	77070336	61	4860
2026-01-01 12:54:30.34	200.65	7.51	-49.0	-51.5	20.8	6.06e-01	0	51	0	78643200	61	4726
2026-01-01 12:54:31.34	200.74	7.59	-49.0	-51.4	20.9	6.06e-01	0	51	0	80740352	61	4662
2026-01-01 12:54:32.32	200.82	7.66	-49.0	-51.4	20.9	6.06e-01	0	51	0	82313216	61	4668
2026-01-01 12:54:33.31	200.91	7.73	-49.0	-51.4	20.9	6.08e-01	0	51	0	84410368	61	4679
2026-01-01 12:54:34.30	200.99	7.81	-48.9	-51.3	21.0	6.05e-01	0	51	0	85983232	61	4615
2026-01-01 12:54:35.28	201.08	7.88	-48.8	-51.1	21.2	6.06e-01	0	51	0	88080384	61	4532
2026-01-01 12:54:36.27	201.17	7.96	-48.9	-51.3	21.1	6.05e-01	0	51	0	89653248	61	4618
2026-01-01 12:54:37.25	201.26	8.03	-49.0	-51.4	21.0	6.05e-01	0	51	0	91750400	61	4686
2026-01-01 12:54:38.23	201.34	8.11	-48.9	-51.3	21.1	6.07e-01	0	51	0	93847552	61	4613
2026-01-01 12:54:39.22	201.43	8.18	-48.9	-51.2	21.1	6.08e-01	0	51	0	95420416	61	4583
2026-01-01 12:54:40.21	201.52	8.26	-48.9	-51.3	21.0	6.07e-01	0	51	0	97517568	61	4623
2026-01-01 12:54:41.20	201.61	8.33	-48.9	-51.3	21.1	6.06e-01	0	51	0	99090432	61	4603
2026-01-01 12:54:42.20	201.70	8.41	-49.0	-51.4	21.0	6.05e-01	0	51	0	101187584	61	4657
2026-01-01 12:54:43.20	201.79	8.49	-49.2	-51.6	20.8	6.06e-01	0	51	0	102760448	61	4810
2026-01-01 12:54:44.19	201.89	8.56	-49.0	-51.4	21.0	6.07e-01	0	51	0	104857600	61	4664
2026-01-01 12:54:45.18	201.98	8.64	-48.9	-51.3	21.1	6.08e-01	0	51	0	106430464	61	4618
2026-01-01 12:54:46.16	202.07	8.72	-48.9	-51.3	21.1	6.05e-01	0	51	0	108527616	61	4612
2026-01-01 12:54:47.15	202.16	8.79	-49.0	-51.3	21.1	6.07e-01	0	51	0	110100480	61	4617
2026-01-01 12:54:48.14	202.25	8.87	-49.1	-51.4	21.0	6.06e-01	0	52	0	112197632	61	4700
2026-01-01 12:54:49.13	202.35	8.95	-48.9	-51.2	21.3	6.06e-01	0	51	0	114294784	61	4547
2026-01-01 12:54:50.11	202.44	9.03	-48.7	-51.0	21.4	6.05e-01	0	51	0	115867648	61	4449
2026-01-01 12:54:51.10	202.54	9.10	-48.7	-50.9	21.5	6.06e-01	0	51	0	117964800	61	4425
2026-01-01 12:54:52.08	202.63	9.18	-48.7	-50.9	21.6	6.05e-01	0	52	0	119537664	61	4410
2026-01-01 12:54:53.07	202.73	9.26	-48.8	-51.0	21.4	6.07e-01	0	52	0	121634816	61	4478
2026-01-01 12:54:54.05	202.82	9.34	-48.8	-51.1	21.4	6.07e-01	0	51	0	123207680	61	4514
2026-01-01 12:54:55.03	202.92	9.41	-49.0	-51.4	21.1	6.05e-01	0	52	0	125304832	61	4653
2026-01-01 12:54:56.03	203.02	9.49	-48.8	-51.0	21.4	6.05e-01	0	52	0	126877696	61	4493
2026-01-01 12:54:57.01	203.11	9.57	-48.8	-51.0	21.5	6.07e-01	0	52	0	128974848	61	4452
2026-01-01 12:54:57.99	203.21	9.65	-48.8	-51.1	21.4	6.06e-01	0	52	0	130547712	61	4503
2026-01-01 12:54:58.98	203.31	9.73	-48.9	-51.2	21.3	6.07e-01	0	52	0	132644864	61	4571
2026-01-01 12:54:59.96	203.41	9.81	-48.7	-50.9	21.6	6.07e-01	0	52	0	134217728	61	4408
2026-01-01 12:55:00.95	203.51	9.89	-48.8	-51.0	21.5	6.06e-01	0	52	0	136314880	61	4493
2026-01-01 12:55:01.94	203.61	9.97	-49.1	-51.4	21.1	6.07e-01	0	52	0	137887744	61	4674
2026-01-01 12:55:02.92	203.71	10.05	-48.8	-51.1	21.4	6.05e-01	0	52	0	139984896	61	4504
2026-01-01 12:55:03.91	203.81	10.13	-48.7	-50.8	21.7	6.06e-01	0	52	0	141557760	61	4379
2026-01-01 12:55:04.89	203.92	10.21	-48.6	-50.7	21.8	6.06e-01	0	52	0	143654912	60	4560
2026-01-01 12:55:05.88	204.02	10.29	-48.6	-50.7	21.8	6.06e-01	0	52	0	145227776	60	4594
2026-01-01 12:55:06.87	204.12	10.37	-48.8	-51.0	21.5	6.06e-01	0	52	0	147324928	60	4727
2026-01-01 12:55:07.86	204.23	10.45	-48.7	-50.9	21.6	6.06e-01	0	52	0	148897792	60	4662
2026-01-01 12:55:08.84	204.33	10.54	-48.8	-51.0	21.6	6.05e-01	0	52	0	150994944	60	4733
2026-01-01 12:55:09.83	204.44	10.62	-49.0	-51.3	21.2	6.09e-01	0	52	0	153092096	60	4895
2026-01-01 12:55:10.82	204.54	10.70	-48.9	-51.1	21.4	6.06e-01	0	52	0	154664960	60	4811
2026-01-01 12:55:11.80	204.65	10.78	-48.7	-50.8	21.7	6.07e-01	0	52	0	156762112	60	4631
2026-01-01 12:55:12.80	204.76	10.86	-48.5	-50.6	21.9	6.07e-01	0	52	0	158334976	60	4516
2026-01-01 12:55:13.79	204.86	10.95	-48.4	-50.5	22.1	6.07e-01	0	52	0	160432128	60	4456
2026-01-01 12:55:14.78	204.97	11.03	-48.5	-50.5	22.0	6.06e-01	0	52	0	162004992	60	4475
2026-01-01 12:55:15.78	205.08	11.11	-48.6	-50.6	21.9	6.08e-01	0	52	0	164102144	60	4545
2026-01-01 12:55:16.77	205.19	11.20	-48.4	-50.5	22.1	6.04e-01	0	52	0	165675008	60	4442
2026-01-01 12:55:17.76	205.30	11.28	-48.3	-50.3	22.3	6.08e-01	0	52	0	167772160	60	4349
2026-01-01 12:55:18.75	205.42	11.37	-48.3	-50.2	22.3	6.04e-01	0	52	0	169345024	60	4332
2026-01-01 12:55:19.74	205.53	11.45	-48.3	-50.2	22.3	6.05e-01	0	53	0	171442176	60	4323
2026-01-01 12:55:20.73	205.64	11.53	-48.3	-50.3	22.2	6.07e-01	0	52	0	173539328	60	4379
2026-01-01 12:55:21.72	205.75	11.62	-48.4	-50.5	22.1	6.06e-01	0	52	0	175112192	60	4448
2026-01-01 12:55:22.71	205.87	11.70	-48.4	-50.4	22.2	6.06e-01	0	53	0	177209344	60	4417
2026-01-01 12:55:23.69	205.98	11.79	-48.4	-50.5	22.1	6.05e-01	0	53	0	178782208	60	4445
2026-01-01 12:55:24.69	206.10	11.88	-48.6	-50.7	21.9	6.05e-01	0	53	0	180879360	60	4558
2026-01-01 12:55:25.67	206.21	11.96	-48.5	-50.6	22.0	6.06e-01	0	53	0	182452224	60	4501
2026-01-01 12:55:26.66	206.33	12.05	-48.4	-50.4	22.2	6.04e-01	0	53	0	184549376	60	4404
2026-01-01 12:55:27.64	206.45	12.13	-48.3	-50.3	22.3	6.07e-01	0	53	0	186122240	60	4351
2026-01-01 12:55:28.63	206.56	12.22	-48.3	-50.3	22.3	6.06e-01	0	53	0	188219392	60	4353
2026-01-01 12:55:29.62	206.68	12.30	-48.4	-50.4	22.2	6.07e-01	0	53	0	189792256	60	4407
2026-01-01 12:55:30.60	206.80	12.39	-48.3	-50.3	22.3	6.06e-01	0	53	0	191889408	60	4374
2026-01-01 12:55:31.58	206.92	12.48	-48.5	-50.5	22.4	6.06e-01	0	53	0	193462272	59	4734
2026-01-01 12:55:32.58	207.04	12.56	-48.6	-50.5	22.4	6.09e-01	0	53	0	195559424	59	4739
2026-01-01 12:55:33.57	207.17	12.65	-48.7	-50.7	22.3	6.06e-01	0	53	0	197656576	59	4823
2026-01-01 12:55:34.56	207.29	12.74	-48.7	-50.7	22.3	6.06e-01	0	53	0	199229440	59	4819
2026-01-01 12:55:35.55	207.41	12.83	-48.6	-50.6	22.4	6.06e-01	0	53	0	201326592	59	4792
2026-01-01 12:55:36.54	207.54	12.92	-48.6	-50.6	22.4	6.07e-01	0	53	0	202899456	59	4789
2026-01-01 12:55:37.53	207.66	13.00	-48.6	-50.6	22.4	6.07e-01	0	53	0	204996608	59	4761
2026-01-01 12:55:38.51	207.78	13.09	-48.6	-50.5	22.5	6.05e-01	0	53	0	206569472	59	4744
2026-01-01 12:55:39.51	207.91	13.18	-48.6	-50.5	22.5	6.07e-01	0	53	0	208666624	59	4732
2026-01-01 12:55:40.50	208.04	13.27	-48.6	-50.6	22.4	6.06e-01	0	53	0	210239488	59	4795
2026-01-01 12:55:41.48	208.17	13.36	-48.8	-50.8	22.2	6.07e-01	0	53	0	212336640	59	4894
2026-01-01 12:55:42.48	208.30	13.45	-48.6	-50.7	22.1	6.06e-01	0	53	0	213909504	60	4547
2026-01-01 12:55:43.47	208.43	13.54	-48.9	-51.0	21.7	6.07e-01	0	53	0	216006656	60	4759
2026-01-01 12:55:44.46	208.56	13.63	-48.9	-51.1	21.5	6.08e-01	0	53	0	217579520	60	4810
2026-01-01 12:55:45.45	208.69	13.72	-48.7	-50.8	21.9	6.04e-01	0	53	0	219676672	60	4619
2026-01-01 12:55:46.44	208.82	13.81	-48.5	-50.5	22.2	6.08e-01	0	53	0	221249536	60	4466
2026-01-01 12:55:47.43	208.95	13.90	-48.4	-50.4	22.3	6.08e-01	0	53	0	223346688	60	4407
2026-01-01 12:55:48.42	209.09	13.99	-48.3	-50.3	22.4	6.06e-01	0	53	0	225443840	60	4343
2026-01-01 12:55:49.41	209.22	14.09	-48.3	-50.3	22.4	6.06e-01	0	53	0	227016704	60	4342
2026-01-01 12:55:50.40	209.36	14.18	-48.4	-50.3	22.3	6.08e-01	0	53	0	229113856	60	4387
2026-01-01 12:55:51.39	209.49	14.27	-48.5	-50.5	22.2	6.05e-01	0	53	0	230686720	60	4464
2026-01-01 12:55:52.38	209.63	14.36	-48.5	-50.5	22.2	6.07e-01	0	53	0	232783872	60	4471
2026-01-01 12:55:53.37	209.77	14.45	-48.6	-50.6	22.1	6.05e-01	0	53	0	234356736	60	4513
2026-01-01 12:55:54.35	209.91	14.55	-48.3	-50.2	22.4	6.06e-01	0	53	0	236453888	60	4333
2026-01-01 12:55:55.33	210.05	14.64	-48.5	-50.4	22.7	6.08e-01	0	53	0	238026752	59	4652
2026-01-01 12:55:56.32	210.19	14.73	-48.3	-50.2	22.8	6.06e-01	0	53	0	240123904	59	4558
2026-01-01 12:55:57.31	210.33	14.82	-48.4	-50.3	22.8	6.05e-01	0	53	0	241696768	59	4616
2026-01-01 12:55:58.29	210.47	14.92	-48.5	-50.4	22.7	6.05e-01	0	53	0	243793920	59	4666
2026-01-01 12:55:59.28	210.61	15.01	-48.5	-50.5	22.5	6.07e-01	0	53	0	245366784	59	4720
2026-01-01 12:56:00.27	210.76	15.11	-48.5	-50.4	22.7	6.08e-01	0	53	0	247463936	59	4683
2026-01-01 12:56:01.27	210.90	15.20	-48.6	-50.6	22.5	6.06e-01	0	53	0	249561088	59	4761
2026-01-01 12:56:02.25	211.05	15.29	-48.5	-50.5	22.6	6.07e-01	0	53	0	251133952	59	4708
2026-01-01 12:56:03.24	211.20	15.39	-48.7	-50.7	22.3	6.06e-01	0	53	0	253231104	59	4854
2026-01-01 12:56:04.23	211.34	15.48	-48.8	-50.9	22.2	6.07e-01	0	54	0	254803968	59	4937
2026-01-01 12:56:05.22	211.49	15.58	-48.7	-50.6	22.4	6.08e-01	0	54	0	256901120	59	4809
2026-01-01 12:56:06.22	211.65	15.68	-48.6	-50.6	22.5	6.07e-01	0	54	0	258473984	59	4761
2026-01-01 12:56:07.21	211.80	15.77	-48.6	-50.5	22.6	6.05e-01	0	54	0	260571136	59	4723
2026-01-01 12:56:08.19	211.95	15.87	-48.6	-50.6	22.5	6.07e-01	0	54	0	262144000	59	4767
2026-01-01 12:56:09.18	212.10	15.96	-48.7	-50.7	22.4	6.06e-01	0	54	0	264241152	59	4854
2026-01-01 12:56:10.18	212.26	16.06	-48.6	-50.5	22.2	6.06e-01	0	54	0	265814016	60	4492
2026-01-01 12:56:11.17	212.41	16.16	-48.3	-50.3	22.5	6.07e-01	0	54	0	267911168	60	4349
2026-01-01 12:56:12.15	212.57	16.25	-48.2	-50.0	22.7	6.07e-01	0	54	0	269484032	60	4240
2026-01-01 12:56:13.15	212.73	16.35	-48.5	-50.4	22.7	6.05e-01	0	54	0	271581184	59	4677
2026-01-01 12:56:14.14	212.89	16.45	-48.5	-50.4	22.7	6.08e-01	0	54	0	273678336	59	4693
2026-01-01 12:56:15.14	213.05	16.55	-48.7	-50.6	22.5	6.06e-01	0	54	0	275251200	59	4796
2026-01-01 12:56:16.13	213.21	16.65	-48.8	-50.9	22.2	6.03e-01	0	54	0	277348352	59	4942
2026-01-01 12:56:17.12	213.37	16.74	-48.7	-50.7	22.4	6.05e-01	0	54	0	278921216	59	4860
2026-01-01 12:56:18.11	213.53	16.84	-48.9	-50.9	22.2	6.07e-01	0	54	0	281018368	59	4951
2026-01-01 12:56:19.10	213.70	16.94	-48.6	-50.6	22.5	6.05e-01	0	54	0	282591232	59	4762
2026-01-01 12:56:20.10	213.86	17.04	-48.5	-50.4	22.7	6.05e-01	0	54	0	284688384	59	4674
2026-01-01 12:56:21.09	214.03	17.14	-48.5	-50.4	22.7	6.06e-01	0	54	0	286261248	59	4676
2026-01-01 12:56:22.08	214.20	17.24	-48.6	-50.5	22.6	6.07e-01	0	54	0	288358400	59	4720
2026-01-01 12:56:23.07	214.36	17.34	-48.9	-50.9	22.2	6.09e-01	0	54	0	290455552	59	4947
2026-01-01 12:56:24.07	214.54	17.44	-48.7	-50.6	22.5	6.07e-01	0	54	0	292028416	59	4787
2026-01-01 12:56:25.07	214.71	17.54	-48.9	-50.9	22.3	6.08e-01	0	54	0	294125568	59	4940
2026-01-01 12:56:26.05	214.88	17.64	-48.7	-50.8	22.0	6.07e-01	0	54	0	295698432	60	4628
2026-01-01 12:56:27.03	215.05	17.74	-49.1	-51.4	21.4	6.07e-01	0	54	0	297795584	60	4939
2026-01-01 12:56:28.02	215.22	17.84	-48.8	-50.9	21.9	6.05e-01	0	54	0	299368448	60	4689
2026-01-01 12:56:29.01	215.40	17.94	-48.9	-51.0	21.8	6.07e-01	0	54	0	301465600	60	4712
2026-01-01 12:56:29.99	215.57	18.04	-48.9	-51.0	21.8	6.07e-01	0	54	0	303038464	60	4740
2026-01-01 12:56:30.98	215.75	18.14	-49.1	-51.2	21.6	6.06e-01	0	54	0	305135616	60	4864
2026-01-01 12:56:31.97	215.93	18.24	-48.9	-51.0	21.8	6.06e-01	0	54	0	306708480	60	4728
2026-01-01 12:56:32.96	216.11	18.35	-48.8	-50.9	21.9	6.07e-01	0	54	0	308805632	60	4675
2026-01-01 12:56:33.95	216.29	18.45	-48.9	-51.1	21.8	6.06e-01	0	54	0	310378496	60	4769
2026-01-01 12:56:34.93	216.48	18.55	-49.2	-51.5	21.4	6.07e-01	0	54	0	312475648	60	4998
2026-01-01 12:56:35.92	216.66	18.65	-48.9	-51.1	21.7	6.07e-01	0	54	0	314572800	60	4772
2026-01-01 12:56:36.91	216.84	18.75	-48.7	-50.7	22.1	6.04e-01	0	54	0	316145664	60	4589
2026-01-01 12:56:37.90	217.03	18.86	-48.5	-50.5	22.3	6.08e-01	0	54	0	318242816	60	4448
2026-01-01 12:56:38.89	217.22	18.96	-48.4	-50.3	22.5	6.06e-01	0	54	0	319815680	60	4359
2026-01-01 12:56:39.88	217.41	19.06	-48.2	-50.1	22.7	6.06e-01	0	54	0	321912832	60	4268
2026-01-01 12:56:40.86	217.60	19.16	-48.2	-50.0	22.7	6.07e-01	0	54	0	323485696	60	4239
2026-01-01 12:56:41.85	217.79	19.27	-48.6	-50.5	22.7	6.06e-01	0	54	0	325582848	59	4712
2026-01-01 12:56:42.84	217.98	19.37	-48.5	-50.4	22.8	6.07e-01	0	54	0	327155712	59	4657
2026-01-01 12:56:43.83	218.18	19.47	-48.7	-50.6	22.6	6.06e-01	0	54	0	329252864	59	4780
2026-01-01 12:56:44.82	218.37	19.58	-48.6	-50.4	22.7	6.05e-01	0	54	0	330825728	59	4702
2026-01-01 12:56:45.81	218.57	19.68	-48.4	-50.2	22.9	6.06e-01	0	54	0	332922880	59	4580
2026-01-01 12:56:46.81	218.77	19.79	-48.3	-50.1	23.1	6.09e-01	0	54	0	334495744	59	4494
2026-01-01 12:56:47.80	218.97	19.89	-48.3	-50.1	23.0	6.05e-01	0	54	0	336592896	59	4526
2026-01-01 12:56:48.80	219.18	20.00	-48.3	-50.1	23.1	6.07e-01	0	54	0	338165760	59	4525
2026-01-01 12:56:49.79	219.38	20.10	-48.4	-50.2	22.9	6.06e-01	0	54	0	340262912	59	4588
2026-01-01 12:56:50.77	219.58	20.20	-48.4	-50.2	23.0	6.07e-01	0	54	0	342360064	59	4564
2026-01-01 12:56:51.76	219.79	20.31	-48.4	-50.2	22.9	6.06e-01	0	54	0	343932928	59	4578
2026-01-01 12:56:52.75	219.99	20.41	-48.6	-50.4	22.8	6.06e-01	0	54	0	346030080	59	4688
2026-01-01 12:56:53.74	220.20	20.52	-48.5	-50.4	22.8	6.05e-01	0	54	0	347602944	59	4682
2026-01-01 12:56:54.73	220.41	20.62	-48.7	-50.6	22.6	6.05e-01	0	55	0	349700096	59	4794
2026-01-01 12:56:55.73	220.63	20.73	-48.9	-50.8	22.4	6.07e-01	0	55	0	351272960	59	4923
2026-01-01 12:56:56.72	220.84	20.84	-48.5	-50.4	22.5	6.07e-01	0	54	0	353370112	60	4404
2026-01-01 12:56:57.70	221.05	20.94	-48.3	-50.2	22.6	6.06e-01	0	55	0	354942976	60	4330
2026-01-01 12:56:58.70	221.27	21.05	-48.3	-50.2	22.7	6.06e-01	0	54	0	357040128	60	4313
2026-01-01 12:56:59.68	221.49	21.15	-48.4	-50.3	22.5	6.05e-01	0	54	0	358612992	60	4389
2026-01-01 12:57:00.65	221.70	21.26	-48.4	-50.4	22.5	6.06e-01	0	55	0	360710144	60	4396
2026-01-01 12:57:01.64	221.92	21.36	-48.6	-50.5	22.4	6.06e-01	0	55	0	362283008	60	4486
2026-01-01 12:57:02.63	222.14	21.47	-48.6	-50.5	22.3	6.08e-01	0	55	0	364380160	60	4485
2026-01-01 12:57:03.62	222.37	21.57	-48.7	-50.7	22.2	6.06e-01	0	55	0	366477312	60	4567
2026-01-01 12:57:04.61	222.59	21.68	-48.7	-50.6	22.2	6.08e-01	0	55	0	368050176	60	4543
2026-01-01 12:57:05.59	222.82	21.78	-48.4	-50.4	22.5	6.09e-01	0	55	0	370147328	60	4393
2026-01-01 12:57:06.57	223.04	21.89	-48.2	-50.1	22.8	6.07e-01	0	55	0	371720192	60	4257
2026-01-01 12:57:07.55	223.27	21.99	-48.5	-50.4	22.8	6.06e-01	0	55	0	373817344	59	4671
2026-01-01 12:57:08.54	223.50	22.10	-48.5	-50.3	22.9	6.07e-01	0	55	0	375390208	59	4634
2026-01-01 12:57:09.53	223.74	22.21	-48.5	-50.4	22.8	6.06e-01	0	55	0	377487360	59	4682
2026-01-01 12:57:10.52	223.97	22.31	-48.6	-50.4	22.8	6.07e-01	0	55	0	379060224	59	4697
2026-01-01 12:57:11.51	224.21	22.42	-48.6	-50.5	22.7	6.06e-01	0	55	0	381157376	59	4732
2026-01-01 12:57:12.49	224.45	22.52	-48.7	-50.7	22.6	6.06e-01	0	55	0	382730240	59	4822
2026-01-01 12:57:13.49	224.69	22.63	-48.7	-50.6	22.6	6.09e-01	0	55	0	384827392	59	4796
2026-01-01 12:57:14.47	224.93	22.74	-48.7	-50.6	22.6	6.06e-01	0	55	0	386400256	59	4799
2026-01-01 12:57:15.46	225.17	22.84	-48.6	-50.4	22.8	6.09e-01	0	55	0	388497408	59	4690
2026-01-01 12:57:16.45	225.42	22.95	-48.6	-50.4	22.8	6.08e-01	0	55	0	390070272	59	4687
2026-01-01 12:57:17.43	225.66	23.05	-48.4	-50.3	23.0	6.05e-01	0	55	0	392167424	59	4606
2026-01-01 12:57:18.42	225.91	23.16	-48.4	-50.3	23.0	6.07e-01	0	55	0	394264576	59	4604
2026-01-01 12:57:19.41	226.16	23.27	-48.7	-50.6	22.7	6.10e-01	0	55	0	395837440	59	4773
2026-01-01 12:57:20.40	226.41	23.37	-48.8	-50.8	22.5	6.06e-01	0	55	0	397410304	59	4895
2026-01-01 12:57:21.38	226.66	23.48	-48.7	-50.6	22.6	6.06e-01	0	55	0	399507456	59	4801
2026-01-01 12:57:22.37	226.92	23.58	-48.6	-50.5	22.4	6.07e-01	0	55	0	401604608	60	4488
2026-01-01 12:57:23.36	227.17	23.69	-48.9	-51.0	21.9	6.06e-01	0	55	0	403177472	60	4746
2026-01-01 12:57:24.35	227.43	23.79	-49.2	-51.5	21.5	6.08e-01	0	55	0	405274624	60	4992
2026-01-01 12:57:25.34	227.69	23.90	-49.2	-51.4	21.5	6.06e-01	0	55	0	406847488	60	4978
2026-01-01 12:57:26.34	227.96	24.01	-49.0	-51.1	21.8	6.07e-01	0	55	0	408944640	60	4814
2026-01-01 12:57:27.32	228.22	24.11	-49.0	-51.2	21.8	6.08e-01	0	55	0	410517504	60	4836
2026-01-01 12:57:28.31	228.49	24.22	-49.2	-51.5	21.5	6.06e-01	0	55	0	412614656	60	4990
2026-01-01 12:57:29.28	228.75	24.32	-49.2	-51.4	21.6	6.08e-01	0	55	0	414187520	60	4954
2026-01-01 12:57:30.27	229.02	24.42	-49.2	-51.5	21.5	6.05e-01	0	55	0	416284672	60	4986
2026-01-01 12:57:31.25	229.29	24.53	-49.5	-51.9	21.1	6.06e-01	0	55	0	417857536	61	4929
2026-01-01 12:57:32.24	229.56	24.63	-49.3	-51.5	21.4	6.08e-01	0	55	0	419954688	61	4740
2026-01-01 12:57:33.24	229.84	24.74	-48.8	-50.9	22.1	6.05e-01	0	55	0	421527552	61	4404
2026-01-01 12:57:34.22	230.12	24.84	-48.5	-50.4	22.4	6.05e-01	0	55	0	423624704	60	4439
2026-01-01 12:57:35.21	230.39	24.94	-48.4	-50.3	22.6	6.07e-01	0	55	0	425197568	60	4371
2026-01-01 12:57:36.20	230.68	25.05	-48.4	-50.3	22.6	6.07e-01	0	55	0	427294720	60	4367
2026-01-01 12:57:37.19	230.96	25.15	-48.5	-50.5	22.5	6.08e-01	0	55	0	429391872	60	4451
2026-01-01 12:57:38.18	231.24	25.25	-48.7	-50.7	22.2	6.07e-01	0	55	0	430964736	60	4565
2026-01-01 12:57:39.17	231.53	25.36	-48.5	-50.4	22.5	6.05e-01	0	55	0	433061888	60	4440
2026-01-01 12:57:40.16	231.82	25.46	-48.3	-50.2	22.7	6.03e-01	0	55	0	434634752	60	4294
2026-01-01 12:57:41.14	232.11	25.56	-48.3	-50.2	22.8	6.06e-01	0	55	0	436731904	60	4295
2026-01-01 12:57:42.13	232.40	25.66	-48.5	-50.4	22.5	6.06e-01	0	55	0	438304768	60	4431
2026-01-01 12:57:43.13	232.70	25.76	-48.3	-50.2	22.8	6.06e-01	0	55	0	440401920	60	4305
2026-01-01 12:57:44.12	232.99	25.86	-48.3	-50.2	22.8	6.07e-01	0	55	0	441974784	60	4300
2026-01-01 12:57:45.10	233.29	25.96	-48.6	-50.6	22.4	6.07e-01	0	55	0	444071936	60	4500
2026-01-01 12:57:46.09	233.59	26.06	-48.5	-50.4	22.6	6.07e-01	0	55	0	445644800	60	4398
2026-01-01 12:57:47.08	233.89	26.16	-48.6	-50.6	22.4	6.05e-01	0	55	0	447741952	60	4494
2026-01-01 12:57:48.07	234.19	26.26	-48.9	-51.0	22.0	6.06e-01	0	55	0	449839104	60	4718
2026-01-01 12:57:49.06	234.50	26.36	-48.6	-50.6	22.3	6.07e-01	0	55	0	451411968	60	4523
2026-01-01 12:57:50.04	234.80	26.46	-48.4	-50.2	22.7	6.05e-01	0	55	0	453509120	60	4318
2026-01-01 12:57:51.03	235.11	26.56	-48.3	-50.2	22.7	6.06e-01	0	55	0	455081984	60	4305
2026-01-01 12:57:52.02	235.42	26.65	-48.6	-50.5	22.5	6.09e-01	0	55	0	457179136	60	4458
2026-01-01 12:57:53.00	235.73	26.75	-48.5	-50.4	22.5	6.07e-01	0	55	0	458752000	60	4438
2026-01-01 12:57:53.99	236.05	26.85	-48.7	-50.6	22.4	6.09e-01	0	55	0	460849152	60	4514
2026-01-01 12:57:54.98	236.37	26.94	-49.0	-51.2	21.8	6.07e-01	0	55	0	462422016	60	4831
2026-01-01 12:57:55.96	236.68	27.04	-48.8	-50.8	22.2	6.06e-01	0	55	0	464519168	60	4607
2026-01-01 12:57:56.95	237.01	27.13	-48.5	-50.4	22.5	6.08e-01	0	55	0	466092032	60	4416
2026-01-01 12:57:57.94	237.33	27.23	-48.4	-50.3	22.7	6.09e-01	0	55	0	468189184	60	4369
2026-01-01 12:57:58.93	237.65	27.32	-48.4	-50.3	22.6	6.06e-01	0	55	0	469762048	60	4381
2026-01-01 12:57:59.92	237.98	27.41	-48.4	-50.3	22.7	6.08e-01	0	55	0	471859200	60	4357
2026-01-01 12:58:00.91	238.31	27.51	-48.5	-50.4	22.6	6.05e-01	0	55	0	473432064	60	4412
2026-01-01 12:58:01.90	238.64	27.60	-48.4	-50.2	22.7	6.06e-01	0	55	0	475529216	60	4326
2026-01-01 12:58:02.89	238.97	27.69	-48.3	-50.2	22.8	6.05e-01	0	55	0	477102080	60	4299
2026-01-01 12:58:03.88	239.31	27.78	-48.3	-50.1	22.8	6.03e-01	0	55	0	479199232	60	4278
2026-01-01 12:58:04.87	239.65	27.87	-48.5	-50.4	22.6	6.07e-01	0	55	0	481296384	60	4406
2026-01-01 12:58:05.86	239.99	27.96	-48.4	-50.3	22.6	6.06e-01	0	55	0	482869248	60	4367
2026-01-01 12:58:06.85	240.33	28.05	-48.4	-50.3	22.6	6.08e-01	0	55	0	484966400	60	4366
2026-01-01 12:58:07.84	240.67	28.14	-48.6	-50.6	22.4	6.07e-01	0	55	0	486539264	60	4507
2026-01-01 12:58:08.83	241.01	28.22	-48.5	-50.4	22.5	6.06e-01	0	55	0	488636416	60	4417
2026-01-01 12:58:09.82	241.36	28.31	-48.4	-50.3	22.7	6.08e-01	0	55	0	490209280	60	4341
2026-01-01 12:58:10.81	241.71	28.39	-48.3	-50.2	22.8	6.05e-01	0	55	0	492306432	60	4301
2026-01-01 12:58:11.79	242.05	28.48	-48.3	-50.1	22.8	6.06e-01	0	55	0	493879296	60	4270
2026-01-01 12:58:12.78	242.41	28.56	-48.4	-50.3	22.6	6.05e-01	0	55	0	495976448	60	4377
2026-01-01 12:58:13.77	242.76	28.65	-48.3	-50.2	22.8	6.07e-01	0	55	0	497549312	60	4313
2026-01-01 12:58:14.75	243.11	28.73	-48.5	-50.4	22.6	6.06e-01	0	55	0	499646464	60	4412
2026-01-01 12:58:15.75	243.47	28.81	-48.5	-50.4	22.5	6.09e-01	0	55	0	501219328	60	4428
2026-01-01 12:58:16.73	243.83	28.89	-48.5	-50.3	22.6	6.08e-01	0	55	0	503316480	60	4384
2026-01-01 12:58:17.72	244.19	28.97	-48.7	-50.7	22.3	6.07e-01	0	55	0	505413632	60	4580
2026-01-01 12:58:18.71	244.55	29.04	-48.6	-50.5	22.5	6.07e-01	0	55	0	506986496	60	4453
2026-01-01 12:58:19.69	244.91	29.12	-48.5	-50.4	22.6	6.06e-01	0	55	0	509083648	60	4410
2026-01-01 12:58:20.68	245.28	29.20	-48.3	-50.1	22.8	6.06e-01	0	55	0	510656512	60	4267
2026-01-01 12:58:21.67	245.65	29.27	-48.4	-50.2	23.1	6.06e-01	0	56	0	512753664	59	4586
2026-01-01 12:58:22.67	246.02	29.35	-48.6	-50.4	22.8	6.07e-01	0	55	0	514326528	59	4675
2026-01-01 12:58:23.66	246.40	29.42	-48.6	-50.5	22.8	6.07e-01	0	55	0	516423680	59	4733
2026-01-01 12:58:24.65	246.77	29.49	-48.6	-50.4	22.9	6.08e-01	0	55	0	517996544	59	4700
2026-01-01 12:58:25.64	247.14	29.56	-48.9	-50.8	22.5	6.07e-01	0	55	0	520093696	59	4923
2026-01-01 12:58:26.62	247.52	29.63	-48.9	-50.9	22.1	6.05e-01	0	56	0	521666560	60	4703
2026-01-01 12:58:27.61	247.90	29.70	-48.7	-50.7	22.2	6.05e-01	0	56	0	523763712	60	4593
2026-01-01 12:58:28.60	248.28	29.77	-48.4	-50.3	22.7	6.08e-01	0	55	0	525336576	60	4341
2026-01-01 12:58:29.58	248.65	29.84	-48.3	-50.1	22.9	6.06e-01	0	56	0	527433728	60	4268
2026-01-01 12:58:30.57	249.04	29.90	-48.5	-50.2	23.1	6.06e-01	0	55	0	529530880	59	4598
2026-01-01 12:58:31.56	249.42	29.97	-48.4	-50.2	23.0	6.06e-01	0	55	0	531103744	59	4577
2026-01-01 12:58:32.55	249.81	30.03	-48.5	-50.4	22.9	6.07e-01	0	56	0	533200896	59	4655
2026-01-01 12:58:33.53	250.19	30.09	-48.4	-50.2	23.1	6.08e-01	0	55	0	534773760	59	4567
2026-01-01 12:58:34.52	250.58	30.15	-48.4	-50.2	23.1	6.06e-01	0	55	0	536870912	59	4583
2026-01-01 12:58:35.51	250.97	30.21	-48.7	-50.5	22.7	6.05e-01	0	55	0	538443776	59	4758
2026-01-01 12:58:36.49	251.36	30.27	-48.7	-50.6	22.6	6.04e-01	0	55	0	540540928	59	4800
2026-01-01 12:58:37.48	251.75	30.32	-48.4	-50.2	23.0	6.03e-01	0	55	0	542113792	59	4563
2026-01-01 12:58:38.47	252.15	30.38	-48.6	-50.4	22.8	6.01e-01	0	55	0	544210944	59	4704
2026-01-01 12:58:39.46	252.54	30.43	-48.5	-50.3	22.9	6.04e-01	0	56	0	545783808	59	4630
2026-01-01 12:58:40.45	252.94	30.49	-48.4	-50.2	23.1	6.04e-01	0	56	0	547880960	59	4548
2026-01-01 12:58:41.43	253.34	30.54	-48.4	-50.2	23.1	6.02e-01	0	55	0	549453824	59	4571
2026-01-01 12:58:42.42	253.74	30.59	-48.5	-50.4	22.9	6.05e-01	0	56	0	551550976	59	4654
2026-01-01 12:58:43.40	254.14	30.63	-48.4	-50.2	23.0	6.03e-01	0	55	0	553123840	59	4581
2026-01-01 12:58:44.39	254.54	30.68	-48.3	-50.1	23.2	6.08e-01	0	56	0	555220992	59	4520
2026-01-01 12:58:45.38	254.94	30.73	-48.3	-50.0	23.2	6.02e-01	0	56	0	556793856	59	4486
2026-01-01 12:58:46.37	255.35	30.77	-48.4	-50.2	23.1	6.04e-01	0	56	0	558891008	59	4555
2026-01-01 12:58:47.35	255.75	30.81	-48.2	-50.0	23.3	6.02e-01	0	55	0	560463872	59	4461
2026-01-01 12:58:48.34	256.16	30.86	-48.2	-50.0	23.3	6.02e-01	0	56	0	562561024	59	4447
2026-01-01 12:58:49.33	256.56	30.90	-48.4	-50.2	23.0	6.02e-01	0	56	0	564658176	59	4559
2026-01-01 12:58:50.32	256.97	30.93	-48.3	-50.0	23.3	6.05e-01	0	56	0	566231040	59	4472
2026-01-01 12:58:51.30	257.38	30.97	-48.5	-50.3	23.0	5.99e-01	0	56	0	568328192	59	4608
2026-01-01 12:58:52.30	257.79	31.01	-48.6	-50.5	22.8	6.01e-01	0	56	0	569901056	59	4721
2026-01-01 12:58:53.28	258.20	31.04	-48.5	-50.3	23.0	6.02e-01	0	56	0	571998208	59	4636
2026-01-01 12:58:54.27	258.61	31.07	-48.6	-50.5	22.9	6.03e-01	0	56	0	573571072	59	4709
2026-01-01 12:58:55.26	259.03	31.10	-48.7	-50.5	22.8	6.02e-01	0	56	0	575668224	59	4744
2026-01-01 12:58:56.26	259.45	31.13	-48.6	-50.4	22.9	6.02e-01	0	56	0	577241088	59	4666
2026-01-01 12:58:57.25	259.86	31.16	-48.6	-50.4	22.9	5.99e-01	0	56	0	579338240	59	4686
2026-01-01 12:58:58.24	260.28	31.19	-48.5	-50.3	23.0	6.02e-01	0	56	0	580911104	59	4633
2026-01-01 12:58:59.22	260.69	31.21	-48.8	-50.7	22.6	6.05e-01	0	56	0	583008256	59	4821
2026-01-01 12:59:00.21	261.11	31.23	-48.6	-50.5	22.8	6.05e-01	0	56	0	584581120	59	4721
2026-01-01 12:59:01.20	261.52	31.26	-48.8	-50.8	22.6	6.05e-01	0	56	0	586678272	59	4873
2026-01-01 12:59:02.19	261.94	31.28	-48.7	-50.7	22.3	6.03e-01	0	56	0	588775424	60	4557
2026-01-01 12:59:03.18	262.36	31.29	-48.3	-50.1	22.8	6.03e-01	0	56	0	590348288	60	4289
2026-01-01 12:59:04.18	262.79	31.31	-48.5	-50.4	22.9	6.03e-01	0	56	0	592445440	59	4665
2026-01-01 12:59:05.17	263.20	31.33	-48.9	-50.8	22.5	6.05e-01	0	56	0	594018304	59	4918
2026-01-01 12:59:06.16	263.62	31.34	-48.6	-50.5	22.5	6.05e-01	0	56	0	596115456	60	4483
2026-01-01 12:59:07.15	264.04	31.35	-48.7	-50.7	22.3	6.06e-01	0	56	0	597688320	60	4556
2026-01-01 12:59:08.14	264.47	31.36	-48.5	-50.4	22.5	6.04e-01	0	56	0	599785472	60	4430
2026-01-01 12:59:09.13	264.89	31.37	-48.4	-50.2	22.7	6.04e-01	0	56	0	601358336	60	4318
2026-01-01 12:59:10.12	265.31	31.38	-48.3	-50.1	22.8	6.04e-01	0	56	0	603455488	60	4270
2026-01-01 12:59:11.10	265.72	31.38	-48.5	-50.3	22.6	6.06e-01	0	55	0	605028352	60	4381
2026-01-01 12:59:12.10	266.15	31.39	-48.3	-50.2	22.8	6.04e-01	0	56	0	607125504	60	4304
2026-01-01 12:59:13.09	266.57	31.39	-48.4	-50.1	23.1	6.04e-01	0	56	0	609222656	59	4540
2026-01-01 12:59:14.08	266.99	31.39	-48.1	-49.7	23.5	6.03e-01	0	56	0	610795520	59	4338
2026-01-01 12:59:15.07	267.41	31.39	-48.0	-49.7	23.6	6.04e-01	0	56	0	612892672	59	4292
2026-01-01 12:59:16.06	267.83	31.38	-48.1	-49.7	23.6	6.04e-01	0	56	0	614465536	59	4336
2026-01-01 12:59:17.05	268.26	31.38	-48.0	-49.7	23.6	6.03e-01	0	56	0	616562688	59	4298
2026-01-01 12:59:18.05	268.68	31.37	-48.1	-49.8	23.5	6.03e-01	0	56	0	618135552	59	4349
2026-01-01 12:59:19.03	269.10	31.37	-48.2	-49.9	23.4	6.03e-01	0	56	0	620232704	59	4407
2026-01-01 12:59:20.02	269.52	31.36	-48.0	-49.7	23.6	6.03e-01	0	56	0	621805568	59	4307
2026-01-01 12:59:21.01	269.94	31.34	-48.2	-49.9	23.4	6.03e-01	0	56	0	623902720	59	4427
2026-01-01 12:59:22.00	270.36	31.33	-48.2	-49.9	23.4	6.04e-01	0	56	0	625475584	59	4411
2026-01-01 12:59:22.98	270.77	31.32	-48.1	-49.8	23.5	6.04e-01	0	56	0	627572736	59	4352
2026-01-01 12:59:23.97	271.19	31.30	-48.3	-50.0	23.3	6.04e-01	0	56	0	629669888	59	4472
2026-01-01 12:59:24.96	271.61	31.28	-48.1	-49.8	23.5	6.05e-01	0	56	0	631242752	59	4357
2026-01-01 12:59:25.95	272.03	31.27	-48.2	-49.9	23.4	6.04e-01	0	56	0	632815616	59	4417
2026-01-01 12:59:26.94	272.45	31.24	-48.2	-49.9	23.4	6.04e-01	0	56	0	634912768	59	4422
2026-01-01 12:59:27.93	272.86	31.22	-48.3	-50.1	23.2	6.02e-01	0	56	0	637009920	59	4516
2026-01-01 12:59:28.91	273.28	31.20	-48.0	-49.7	23.6	6.03e-01	0	56	0	638582784	59	4317
2026-01-01 12:59:29.90	273.69	31.17	-47.9	-49.6	23.7	6.04e-01	0	56	0	640679936	59	4262
2026-01-01 12:59:30.88	274.10	31.15	-47.9	-49.5	23.8	6.04e-01	0	56	0	642252800	59	4212
2026-01-01 12:59:31.87	274.52	31.12	-47.8	-49.4	23.9	6.01e-01	0	56	0	644349952	59	4164
2026-01-01 12:59:32.86	274.93	31.09	-48.0	-49.6	23.7	6.02e-01	0	56	0	645922816	59	4278
2026-01-01 12:59:33.85	275.34	31.06	-47.9	-49.5	23.7	6.05e-01	0	56	0	648019968	59	4233
2026-01-01 12:59:34.84	275.75	31.02	-47.9	-49.5	23.7	6.03e-01	0	56	0	649592832	59	4237
2026-01-01 12:59:35.83	276.17	30.99	-48.4	-50.2	23.2	6.04e-01	0	56	0	651689984	59	4548
2026-01-01 12:59:36.81	276.57	30.95	-48.0	-49.6	23.6	6.03e-01	0	56	0	653262848	59	4276
2026-01-01 12:59:37.80	276.98	30.91	-47.8	-49.4	23.9	6.03e-01	0	56	0	655360000	59	4158
2026-01-01 12:59:38.79	277.39	30.87	-47.9	-49.6	23.7	6.05e-01	0	56	0	656932864	59	4263
2026-01-01 12:59:39.77	277.79	30.83	-47.8	-49.4	23.9	6.04e-01	0	56	0	659030016	59	4165
2026-01-01 12:59:40.76	278.20	30.79	-47.9	-49.5	23.7	6.02e-01	0	56	0	660602880	59	4231
2026-01-01 12:59:41.75	278.60	30.75	-47.9	-49.5	23.8	6.05e-01	0	56	0	662700032	59	4196
2026-01-01 12:59:42.74	279.01	30.70	-47.7	-49.3	24.0	6.01e-01	0	56	0	664797184	59	4122
2026-01-01 12:59:43.74	279.41	30.66	-47.7	-49.3	24.0	6.02e-01	0	56	0	666370048	58	4341
2026-01-01 12:59:44.72	279.81	30.61	-47.7	-49.3	24.0	6.04e-01	0	56	0	668467200	58	4365
2026-01-01 12:59:45.72	280.22	30.56	-47.7	-49.3	23.9	6.01e-01	0	56	0	670040064	58	4365
2026-01-01 12:59:46.71	280.61	30.51	-47.8	-49.4	23.9	6.03e-01	0	56	0	672137216	58	4400
2026-01-01 12:59:47.70	281.01	30.46	-47.8	-49.4	23.8	6.06e-01	0	56	0	673710080	58	4419
2026-01-01 12:59:48.69	281.41	30.40	-47.8	-49.4	23.8	6.04e-01	0	56	0	675807232	58	4420
2026-01-01 12:59:49.68	281.80	30.35	-47.9	-49.5	23.7	6.03e-01	0	56	0	677380096	58	4488
2026-01-01 12:59:50.67	282.20	30.29	-47.9	-49.6	23.7	6.03e-01	0	56	0	679477248	58	4496
2026-01-01 12:59:51.67	282.59	30.24	-48.0	-49.6	23.7	6.04e-01	0	56	0	681574400	58	4542
2026-01-01 12:59:52.66	282.98	30.18	-48.1	-49.8	23.5	6.03e-01	0	56	0	683147264	58	4610
2026-01-01 12:59:53.65	283.37	30.12	-48.1	-49.8	23.5	6.01e-01	0	56	0	685244416	58	4622
2026-01-01 12:59:54.65	283.76	30.06	-48.0	-49.7	23.5	6.02e-01	0	56	0	686817280	58	4584
2026-01-01 12:59:55.63	284.15	29.99	-48.1	-49.8	23.5	6.02e-01	0	56	0	688914432	58	4628
2026-01-01 12:59:56.63	284.54	29.93	-48.2	-50.0	23.3	6.06e-01	0	56	0	690487296	58	4721
2026-01-01 12:59:57.61	284.91	29.87	-48.4	-50.2	23.1	6.03e-01	0	56	0	692584448	58	4827
2026-01-01 12:59:58.61	285.30	29.80	-48.4	-50.2	23.1	6.02e-01	0	56	0	694157312	59	4550
2026-01-01 12:59:59.59	285.68	29.73	-48.2	-49.9	23.4	6.04e-01	0	56	0	696254464	59	4409
2026-01-01 13:00:00.58	286.05	29.66	-48.2	-49.9	23.3	6.04e-01	0	56	0	697827328	59	4432
2026-01-01 13:00:01.56	286.43	29.60	-48.2	-49.9	23.4	6.04e-01	0	56	0	699924480	59	4405
2026-01-01 13:00:02.55	286.80	29.53	-48.2	-50.0	23.3	6.00e-01	0	56	0	701497344	59	4460
2026-01-01 13:00:03.53	287.17	29.46	-48.4	-50.1	23.2	6.03e-01	0	56	0	703594496	59	4538
2026-01-01 13:00:04.53	287.55	29.38	-48.4	-50.1	23.2	6.07e-01	0	56	0	705691648	59	4533
2026-01-01 13:00:05.52	287.92	29.31	-48.4	-50.2	23.1	6.03e-01	0	56	0	707264512	59	4561
2026-01-01 13:00:06.50	288.28	29.23	-48.3	-50.0	23.3	6.03e-01	0	56	0	709361664	59	4463
2026-01-01 13:00:07.49	288.65	29.16	-48.0	-49.7	23.6	6.04e-01	0	56	0	710934528	59	4321
2026-01-01 13:00:08.48	289.01	29.08	-47.9	-49.6	23.7	6.06e-01	0	56	0	713031680	59	4257
2026-01-01 13:00:09.47	289.38	29.00	-47.7	-49.3	23.9	6.05e-01	0	56	0	714604544	59	4134
2026-01-01 13:00:10.46	289.74	28.93	-47.6	-49.2	24.0	6.02e-01	0	56	0	716701696	58	4307
2026-01-01 13:00:11.45	290.10	28.85	-47.7	-49.2	24.0	5.99e-01	0	56	0	718274560	58	4335
2026-01-01 13:00:12.44	290.45	28.77	-47.7	-49.3	23.9	6.03e-01	0	56	0	720371712	58	4381
2026-01-01 13:00:13.43	290.81	28.69	-47.8	-49.4	23.9	6.04e-01	0	56	0	721944576	58	4402
2026-01-01 13:00:14.42	291.16	28.60	-47.7	-49.2	24.0	6.05e-01	0	56	0	724041728	58	4334
2026-01-01 13:00:15.42	291.52	28.52	-47.7	-49.3	24.0	6.05e-01	0	56	0	726138880	58	4355
2026-01-01 13:00:16.40	291.86	28.44	-47.8	-49.4	23.8	6.03e-01	0	56	0	727711744	58	4419
2026-01-01 13:00:17.38	292.21	28.35	-47.8	-49.4	23.7	6.02e-01	0	56	0	729284608	58	4416
2026-01-01 13:00:18.37	292.56	28.27	-47.7	-49.3	23.9	6.04e-01	0	56	0	731381760	58	4367
2026-01-01 13:00:19.36	292.90	28.18	-47.9	-49.5	23.8	6.08e-01	0	56	0	732954624	58	4453
2026-01-01 13:00:20.35	293.24	28.09	-47.9	-49.6	23.7	6.01e-01	0	56	0	735051776	58	4506
2026-01-01 13:00:21.34	293.58	28.01	-47.9	-49.6	23.6	6.00e-01	0	56	0	737148928	58	4510
2026-01-01 13:00:22.33	293.92	27.92	-47.7	-49.3	23.9	6.03e-01	0	56	0	738721792	58	4383
2026-01-01 13:00:23.32	294.26	27.83	-47.7	-49.3	24.0	6.04e-01	0	56	0	740818944	58	4351
2026-01-01 13:00:24.31	294.59	27.74	-47.8	-49.4	23.8	6.04e-01	0	56	0	742391808	58	4408
2026-01-01 13:00:25.30	294.93	27.65	-47.8	-49.4	23.8	6.05e-01	0	56	0	744488960	58	4423
2026-01-01 13:00:26.29	295.26	27.56	-47.8	-49.4	23.8	6.01e-01	0	56	0	746061824	58	4440
2026-01-01 13:00:27.28	295.59	27.46	-48.0	-49.7	23.6	6.04e-01	0	56	0	748158976	58	4553
2026-01-01 13:00:28.27	295.91	27.37	-48.0	-49.6	23.6	6.04e-01	0	56	0	749731840	58	4539
2026-01-01 13:00:29.26	296.24	27.28	-48.0	-49.7	23.5	6.04e-01	0	56	0	751828992	58	4565
2026-01-01 13:00:30.25	296.56	27.19	-48.1	-49.8	23.5	6.01e-01	0	56	0	753401856	58	4609
2026-01-01 13:00:31.23	296.88	27.09	-48.0	-49.6	23.6	6.04e-01	0	56	0	755499008	58	4538
2026-01-01 13:00:32.21	297.20	27.00	-48.0	-49.7	23.5	6.03e-01	0	56	0	757071872	58	4588
2026-01-01 13:00:33.21	297.52	26.90	-48.1	-49.9	23.3	6.03e-01	0	56	0	759169024	58	4655
2026-01-01 13:00:34.20	297.83	26.81	-48.0	-49.6	23.6	6.03e-01	0	56	0	761266176	58	4539
2026-01-01 13:00:35.18	298.14	26.71	-48.0	-49.7	23.5	6.06e-01	0	56	0	762839040	58	4547
2026-01-01 13:00:36.18	298.46	26.61	-48.0	-49.6	23.6	6.02e-01	0	56	0	764936192	58	4541
2026-01-01 13:00:37.17	298.77	26.51	-48.1	-49.8	23.5	6.06e-01	0	56	0	766509056	58	4606
2026-01-01 13:00:38.16	299.07	26.42	-48.1	-49.9	23.4	6.04e-01	0	56	0	768606208	58	4663
2026-01-01 13:00:39.15	299.38	26.32	-48.1	-49.8	23.4	6.02e-01	0	56	0	770179072	58	4643
2026-01-01 13:00:40.14	299.68	26.22	-48.3	-50.0	23.2	6.03e-01	0	56	0	772276224	58	4745
2026-01-01 13:00:41.13	299.99	26.12	-48.0	-49.7	23.5	6.07e-01	0	56	0	773849088	58	4574
2026-01-01 13:00:42.13	300.29	26.02	-47.9	-49.6	23.6	6.06e-01	0	56	0	775946240	58	4521
2026-01-01 13:00:43.12	300.59	25.92	-47.9	-49.6	23.6	6.04e-01	0	56	0	778043392	58	4499
2026-01-01 13:00:44.12	300.89	25.82	-47.9	-49.5	23.7	6.05e-01	0	56	0	779616256	58	4476
2026-01-01 13:00:45.11	301.18	25.72	-48.0	-49.7	23.5	6.04e-01	0	56	0	781713408	58	4564
2026-01-01 13:00:46.09	301.47	25.62	-48.2	-49.9	23.4	6.03e-01	0	56	0	783286272	58	4659
2026-01-01 13:00:47.08	301.76	25.52	-48.2	-49.9	23.3	6.03e-01	0	56	0	785383424	58	4674
2026-01-01 13:00:48.06	302.04	25.42	-48.2	-50.0	23.3	6.02e-01	0	56	0	786956288	58	4722
2026-01-01 13:00:49.06	302.33	25.31	-48.4	-50.1	23.1	6.03e-01	0	56	0	789053440	58	4808
2026-01-01 13:00:50.05	302.62	25.21	-48.5	-50.3	22.9	6.07e-01	0	56	0	790626304	59	4636
2026-01-01 13:00:51.03	302.90	25.11	-48.3	-50.0	23.2	6.05e-01	0	56	0	792723456	59	4473
2026-01-01 13:00:52.02	303.18	25.01	-48.5	-50.4	22.9	6.03e-01	0	56	0	794296320	59	4668
2026-01-01 13:00:53.01	303.46	24.90	-48.4	-50.2	23.0	6.05e-01	0	56	0	796393472	59	4572
2026-01-01 13:00:54.00	303.74	24.80	-48.5	-50.4	22.8	6.06e-01	0	56	0	797966336	59	4665
2026-01-01 13:00:54.99	304.01	24.70	-48.7	-50.6	22.7	6.03e-01	0	56	0	800063488	59	4772
2026-01-01 13:00:55.97	304.28	24.59	-48.5	-50.3	23.0	6.04e-01	0	56	0	802160640	59	4617
2026-01-01 13:00:56.96	304.55	24.49	-48.4	-50.2	23.1	6.03e-01	0	56	0	803733504	59	4568
2026-01-01 13:00:57.95	304.82	24.39	-48.6	-50.4	22.8	6.04e-01	0	56	0	805830656	59	4686
2026-01-01 13:00:58.94	305.09	24.28	-48.8	-50.7	22.6	6.03e-01	0	56	0	807403520	59	4834
2026-01-01 13:00:59.93	305.36	24.18	-48.5	-50.4	22.8	6.02e-01	0	56	0	809500672	59	4678
2026-01-01 13:01:00.91	305.62	24.07	-48.7	-50.6	22.7	6.04e-01	0	56	0	811073536	59	4769
2026-01-01 13:01:01.91	305.88	23.97	-48.9	-50.8	22.4	6.03e-01	0	56	0	813170688	59	4920
2026-01-01 13:01:02.90	306.14	23.86	-48.3	-50.2	22.7	6.03e-01	0	56	0	814743552	60	4300
2026-01-01 13:01:03.89	306.40	23.76	-48.5	-50.3	22.9	6.04e-01	0	56	0	816840704	59	4651
2026-01-01 13:01:04.88	306.66	23.65	-48.7	-50.7	22.6	6.03e-01	0	56	0	818413568	59	4833
2026-01-01 13:01:05.87	306.92	23.55	-48.6	-50.5	22.7	6.03e-01	0	56	0	820510720	59	4748
2026-01-01 13:01:06.86	307.17	23.44	-48.5	-50.4	22.8	6.07e-01	0	56	0	822083584	59	4680
2026-01-01 13:01:07.85	307.42	23.34	-48.5	-50.4	22.9	6.04e-01	0	56	0	824180736	59	4673
2026-01-01 13:01:08.84	307.67	23.23	-48.6	-50.4	22.8	6.04e-01	0	56	0	825753600	59	4699
2026-01-01 13:01:09.83	307.92	23.13	-48.8	-50.8	22.5	6.03e-01	0	56	0	827850752	59	4892
2026-01-01 13:01:10.82	308.17	23.02	-48.4	-50.2	22.7	6.05e-01	0	56	0	829947904	60	4339
2026-01-01 13:01:11.81	308.41	22.92	-48.5	-50.5	22.4	6.04e-01	0	56	0	831520768	60	4448
2026-01-01 13:01:12.79	308.65	22.81	-48.3	-50.2	22.7	6.07e-01	0	56	0	833617920	60	4309
2026-01-01 13:01:13.78	308.89	22.71	-48.4	-50.2	23.0	6.03e-01	0	56	0	835190784	59	4574
2026-01-01 13:01:14.77	309.13	22.60	-48.5	-50.3	22.9	6.03e-01	0	56	0	837287936	59	4636
2026-01-01 13:01:15.77	309.37	22.49	-48.8	-50.7	22.5	6.03e-01	0	56	0	838860800	59	4870
2026-01-01 13:01:16.75	309.61	22.39	-48.4	-50.3	22.6	6.05e-01	0	56	0	840957952	60	4348
2026-01-01 13:01:17.74	309.84	22.28	-48.2	-50.1	22.8	6.04e-01	0	56	0	842530816	60	4253
2026-01-01 13:01:18.73	310.08	22.18	-48.5	-50.4	22.8	6.06e-01	0	56	0	844627968	59	4674
2026-01-01 13:01:19.72	310.31	22.07	-48.5	-50.4	22.8	6.03e-01	0	56	0	846200832	59	4670
2026-01-01 13:01:20.71	310.54	21.97	-48.6	-50.5	22.7	6.02e-01	0	56	0	848297984	59	4741
2026-01-01 13:01:21.70	310.77	21.86	-48.6	-50.5	22.7	6.05e-01	0	56	0	849870848	59	4732
2026-01-01 13:01:22.69	310.99	21.75	-48.6	-50.5	22.8	6.02e-01	0	56	0	851968000	59	4710
2026-01-01 13:01:23.67	311.22	21.65	-48.7	-50.7	22.6	6.01e-01	0	56	0	854065152	59	4836
2026-01-01 13:01:24.67	311.44	21.54	-48.6	-50.6	22.4	6.00e-01	0	56	0	855638016	60	4499
2026-01-01 13:01:25.65	311.66	21.44	-48.9	-50.9	22.0	6.06e-01	0	56	0	857735168	60	4697
2026-01-01 13:01:26.65	311.89	21.33	-48.8	-50.9	22.0	6.03e-01	0	56	0	859308032	60	4658
2026-01-01 13:01:27.63	312.10	21.23	-48.6	-50.5	22.3	6.03e-01	0	56	0	861405184	60	4487
2026-01-01 13:01:28.62	312.32	21.12	-48.4	-50.3	22.6	6.03e-01	0	56	0	862978048	60	4342
2026-01-01 13:01:29.61	312.54	21.02	-48.6	-50.4	22.7	6.05e-01	0	56	0	865075200	59	4697
2026-01-01 13:01:30.59	312.75	20.92	-48.5	-50.4	22.8	6.04e-01	0	56	0	866648064	59	4674
2026-01-01 13:01:31.57	312.96	20.81	-48.4	-50.2	23.0	6.02e-01	0	56	0	868745216	59	4597
2026-01-01 13:01:32.56	313.17	20.71	-48.2	-50.0	23.2	6.03e-01	0	56	0	870318080	59	4449
2026-01-01 13:01:33.55	313.38	20.60	-48.1	-49.9	23.3	6.01e-01	0	56	0	872415232	59	4406
2026-01-01 13:01:34.54	313.59	20.50	-48.1	-49.8	23.3	6.01e-01	0	56	0	873988096	59	4383
2026-01-01 13:01:35.53	313.80	20.39	-48.2	-49.9	23.2	6.01e-01	0	56	0	876085248	59	4433
2026-01-01 13:01:36.53	314.01	20.29	-48.2	-50.0	23.2	6.03e-01	0	56	0	878182400	59	4452
2026-01-01 13:01:37.51	314.21	20.18	-48.3	-50.1	23.1	6.06e-01	0	56	0	879755264	59	4509
2026-01-01 13:01:38.50	314.41	20.08	-48.3	-50.1	23.0	6.03e-01	0	56	0	881852416	59	4524
2026-01-01 13:01:39.49	314.61	19.98	-48.1	-49.8	23.4	6.03e-01	0	56	0	883425280	59	4370
2026-01-01 13:01:40.48	314.81	19.87	-47.9	-49.6	23.5	6.04e-01	0	56	0	885522432	59	4249
2026-01-01 13:01:41.47	315.01	19.77	-47.8	-49.4	23.6	6.01e-01	0	56	0	887095296	59	4183
2026-01-01 13:01:42.46	315.21	19.67	-47.7	-49.4	23.7	6.04e-01	0	56	0	889192448	59	4156
2026-01-01 13:01:43.45	315.41	19.56	-47.8	-49.4	23.7	6.05e-01	0	56	0	890765312	59	4169
2026-01-01 13:01:44.44	315.60	19.46	-47.7	-49.3	23.8	6.05e-01	0	56	0	892862464	59	4115
2026-01-01 13:01:45.43	315.79	19.36	-47.7	-49.3	23.8	6.01e-01	0	56	0	894435328	59	4142
2026-01-01 13:01:46.42	315.99	19.25	-47.8	-49.4	23.7	6.04e-01	0	57	0	896532480	59	4166
2026-01-01 13:01:47.40	316.17	19.15	-47.7	-49.4	23.7	6.04e-01	0	56	0	898105344	59	4152
2026-01-01 13:01:48.40	316.37	19.05	-47.8	-49.4	23.7	6.04e-01	0	56	0	900202496	59	4173
2026-01-01 13:01:49.38	316.55	18.95	-47.8	-49.5	23.6	6.05e-01	0	56	0	902299648	59	4212
2026-01-01 13:01:50.38	316.74	18.85	-47.8	-49.5	23.6	6.03e-01	0	56	0	903872512	59	4218
2026-01-01 13:01:51.37	316.93	18.74	-47.9	-49.6	23.5	6.03e-01	0	56	0	905445376	59	4265
2026-01-01 13:01:52.36	317.11	18.64	-47.9	-49.6	23.5	6.02e-01	0	56	0	907542528	59	4254
2026-01-01 13:01:53.35	317.29	18.54	-47.9	-49.5	23.6	6.02e-01	0	56	0	909639680	59	4235
2026-01-01 13:01:54.34	317.47	18.44	-47.9	-49.6	23.5	6.05e-01	0	56	0	911212544	59	4258
2026-01-01 13:01:55.33	317.65	18.34	-48.0	-49.6	23.4	6.05e-01	0	56	0	913309696	59	4285
2026-01-01 13:01:56.32	317.83	18.24	-47.9	-49.5	23.6	6.03e-01	0	56	0	914882560	59	4231
2026-01-01 13:01:57.31	318.01	18.14	-47.8	-49.5	23.6	6.04e-01	0	56	0	916979712	59	4205
2026-01-01 13:01:58.30	318.19	18.04	-47.9	-49.6	22.1	6.04e-01	0	56	0	918552576	59	4263
2026-01-01 13:01:59.29	318.36	17.94	-48.0	-49.8	23.3	6.01e-01	0	56	0	920649728	59	4352
2026-01-01 13:02:00.27	318.54	17.84	-47.9	-49.6	23.5	6.02e-01	0	56	0	922222592	59	4251
2026-01-01 13:02:01.27	318.71	17.74	-47.8	-49.5	23.5	6.04e-01	0	56	0	924319744	59	4231
2026-01-01 13:02:02.25	318.88	17.64	-47.9	-49.6	23.4	6.04e-01	0	56	0	925892608	59	4284
2026-01-01 13:02:03.24	319.05	17.54	-48.0	-49.7	23.3	6.04e-01	0	56	0	927989760	59	4326
2026-01-01 13:02:04.23	319.22	17.44	-47.9	-49.5	23.5	6.05e-01	0	56	0	930086912	59	4228
2026-01-01 13:02:05.21	319.39	17.34	-48.0	-49.7	23.4	6.04e-01	0	56	0	931659776	59	4319
2026-01-01 13:02:06.19	319.56	17.24	-48.1	-49.8	23.2	6.04e-01	0	56	0	933756928	59	4377
2026-01-01 13:02:07.17	319.72	17.14	-47.9	-49.6	23.4	6.02e-01	0	56	0	935329792	59	4288
2026-01-01 13:02:08.16	319.88	17.05	-48.1	-49.9	23.2	6.03e-01	0	56	0	937426944	59	4416
2026-01-01 13:02:09.14	320.05	16.95	-48.4	-50.2	22.9	6.03e-01	0	56	0	938999808	59	4568
2026-01-01 13:02:10.13	320.21	16.85	-48.1	-49.8	23.2	6.03e-01	0	57	0	941096960	59	4390
2026-01-01 13:02:11.13	320.37	16.75	-48.0	-49.8	23.3	6.05e-01	0	56	0	942669824	59	4351
2026-01-01 13:02:12.12	320.53	16.66	-48.1	-49.8	23.2	6.03e-01	0	56	0	944766976	59	4384
2026-01-01 13:02:13.11	320.69	16.56	-48.1	-49.9	23.2	6.02e-01	0	56	0	946339840	59	4422
2026-01-01 13:02:14.10	320.85	16.46	-48.2	-50.0	23.1	6.03e-01	0	56	0	948436992	59	4460
2026-01-01 13:02:15.08	321.01	16.37	-48.2	-50.0	23.1	6.02e-01	0	56	0	950009856	59	4478
2026-01-01 13:02:16.08	321.17	16.27	-48.3	-50.2	22.9	6.03e-01	0	56	0	952107008	59	4561
2026-01-01 13:02:17.07	321.32	16.17	-48.5	-50.4	22.6	6.05e-01	0	57	0	954204160	59	4692
2026-01-01 13:02:18.05	321.48	16.08	-48.7	-50.7	22.3	6.05e-01	0	56	0	955777024	59	4869
2026-01-01 13:02:19.05	321.63	15.98	-48.5	-50.4	22.6	6.04e-01	0	56	0	957874176	59	4675
2026-01-01 13:02:20.04	321.78	15.88	-48.3	-50.1	23.0	6.04e-01	0	56	0	959447040	59	4507
2026-01-01 13:02:21.02	321.93	15.79	-48.1	-49.9	23.1	6.05e-01	0	56	0	961544192	59	4426
2026-01-01 13:02:22.01	322.08	15.69	-48.1	-49.8	23.2	6.04e-01	0	56	0	963117056	59	4368
2026-01-01 13:02:23.00	322.23	15.60	-48.1	-49.8	23.2	6.06e-01	0	57	0	965214208	59	4368
2026-01-01 13:02:23.98	322.38	15.51	-48.0	-49.8	23.3	6.03e-01	0	56	0	966787072	59	4356
2026-01-01 13:02:24.98	322.53	15.41	-48.3	-50.1	22.9	6.05e-01	0	56	0	968884224	59	4520
2026-01-01 13:02:25.97	322.68	15.32	-48.1	-49.8	23.2	6.02e-01	0	56	0	970457088	59	4369
2026-01-01 13:02:26.95	322.82	15.22	-47.8	-49.5	23.4	6.04e-01	0	56	0	972554240	59	4230
2026-01-01 13:02:27.94	322.97	15.13	-47.8	-49.4	23.6	6.03e-01	0	57	0	974127104	59	4176
2026-01-01 13:02:28.93	323.11	15.04	-47.8	-49.5	23.5	6.03e-01	0	56	0	976224256	59	4195
2026-01-01 13:02:29.91	323.25	14.94	-47.8	-49.5	23.5	6.05e-01	0	57	0	977797120	59	4219
2026-01-01 13:02:30.90	323.39	14.85	-47.9	-49.6	23.4	6.03e-01	0	57	0	979894272	59	4265
2026-01-01 13:02:31.88	323.53	14.76	-48.1	-49.9	23.2	6.03e-01	0	56	0	981467136	59	4394
2026-01-01 13:02:32.87	323.67	14.67	-48.0	-49.7	23.2	6.04e-01	0	57	0	983564288	59	4334
2026-01-01 13:02:33.87	323.81	14.57	-48.1	-49.9	23.1	6.05e-01	0	56	0	985661440	59	4407
2026-01-01 13:02:34.85	323.95	14.48	-48.0	-49.8	23.2	6.06e-01	0	56	0	987234304	59	4354
2026-01-01 13:02:35.83	324.09	14.39	-47.9	-49.6	23.3	6.02e-01	0	57	0	989331456	59	4285
2026-01-01 13:02:36.83	324.23	14.30	-47.9	-49.6	23.3	6.03e-01	0	57	0	990904320	59	4273
2026-01-01 13:02:37.81	324.36	14.21	-47.9	-49.7	23.3	6.03e-01	0	57	0	993001472	59	4293
2026-01-01 13:02:38.80	324.49	14.12	-47.9	-49.6	23.3	6.04e-01	0	56	0	994574336	59	4289
2026-01-01 13:02:39.78	324.63	14.03	-47.9	-49.6	23.3	6.05e-01	0	56	0	996671488	59	4269
2026-01-01 13:02:40.77	324.76	13.94	-47.9	-49.6	23.3	6.04e-01	0	57	0	998244352	59	4252
2026-01-01 13:02:41.76	324.89	13.85	-47.8	-49.5	23.5	6.04e-01	0	56	0	1000341504	59	4211
2026-01-01 13:02:42.74	325.02	13.76	-47.9	-49.6	23.4	6.01e-01	0	56	0	1001914368	59	4246
2026-01-01 13:02:43.74	325.16	13.67	-48.0	-49.7	23.2	6.03e-01	0	57	0	1004011520	59	4313
2026-01-01 13:02:44.73	325.29	13.58	-47.9	-49.7	23.3	6.02e-01	0	57	0	1005584384	59	4297
2026-01-01 13:02:45.72	325.42	13.49	-48.0	-49.7	23.2	6.06e-01	0	56	0	1007681536	59	4335
2026-01-01 13:02:46.71	325.54	13.40	-48.2	-50.0	23.0	6.01e-01	0	56	0	1009254400	59	4466
2026-01-01 13:02:47.70	325.67	13.31	-48.2	-50.1	22.9	6.06e-01	0	57	0	1011351552	59	4495
2026-01-01 13:02:48.69	325.80	13.22	-48.3	-50.2	22.8	6.06e-01	0	56	0	1013448704	59	4560
2026-01-01 13:02:49.67	325.92	13.13	-48.3	-50.1	22.8	6.04e-01	0	57	0	1015021568	59	4541
2026-01-01 13:02:50.67	326.05	13.04	-48.2	-50.0	23.0	6.02e-01	0	56	0	1017118720	59	4460
2026-01-01 13:02:51.66	326.17	12.96	-48.2	-50.0	22.9	6.04e-01	0	56	0	1018691584	59	4481
2026-01-01 13:02:52.65	326.30	12.87	-48.2	-50.1	22.9	6.03e-01	0	56	0	1020788736	59	4498
2026-01-01 13:02:53.63	326.42	12.78	-48.3	-50.1	22.8	6.03e-01	0	57	0	1022361600	59	4527
2026-01-01 13:02:54.63	326.54	12.69	-48.3	-50.2	22.7	6.02e-01	0	56	0	1024458752	59	4589
2026-01-01 13:02:55.63	326.67	12.61	-48.3	-50.2	22.7	6.05e-01	0	57	0	1026031616	59	4568
2026-01-01 13:02:56.62	326.79	12.52	-48.2	-50.1	22.8	6.02e-01	0	56	0	1028128768	59	4498
2026-01-01 13:02:57.61	326.91	12.43	-48.2	-50.1	22.8	6.04e-01	0	57	0	1029701632	59	4498
2026-01-01 13:02:58.60	327.03	12.35	-48.2	-50.1	22.8	6.06e-01	0	56	0	1031798784	59	4497
2026-01-01 13:02:59.59	327.14	12.26	-48.3	-50.2	22.7	6.02e-01	0	56	0	1033895936	59	4560
2026-01-01 13:03:00.58	327.26	12.18	-48.3	-50.1	22.8	6.05e-01	0	56	0	1035468800	59	4528
2026-01-01 13:03:01.57	327.38	12.09	-48.1	-49.9	22.9	6.02e-01	0	57	0	1037565952	59	4419
2026-01-01 13:03:02.57	327.50	12.00	-48.1	-49.9	23.0	6.04e-01	0	57	0	1039138816	59	4399
2026-01-01 13:03:03.56	327.61	11.92	-48.1	-49.9	23.0	6.03e-01	0	56	0	1041235968	59	4417
2026-01-01 13:03:04.55	327.73	11.83	-48.1	-49.9	22.9	6.07e-01	0	56	0	1042808832	59	4427
2026-01-01 13:03:05.55	327.84	11.75	-48.2	-50.0	22.8	6.01e-01	0	56	0	1044905984	59	4455
2026-01-01 13:03:06.53	327.96	11.67	-48.2	-50.1	22.7	6.04e-01	0	56	0	1046478848	59	4534
2026-01-01 13:03:07.52	328.07	11.58	-48.3	-50.2	22.7	6.02e-01	0	56	0	1048576000	59	4577
2026-01-01 13:03:08.51	328.18	11.50	-48.2	-50.1	22.8	6.02e-01	0	57	0	1050148864	59	4499
2026-01-01 13:03:09.50	328.29	11.41	-48.2	-50.1	22.7	6.03e-01	0	57	0	1052246016	59	4506
2026-01-01 13:03:10.49	328.40	11.33	-48.2	-50.1	22.7	6.05e-01	0	56	0	1054343168	59	4524
2026-01-01 13:03:11.48	328.51	11.25	-48.2	-50.1	22.7	6.06e-01	0	56	0	1055916032	59	4531
2026-01-01 13:03:12.47	328.62	11.16	-48.3	-50.3	22.5	6.03e-01	0	56	0	1058013184	59	4608
2026-01-01 13:03:13.46	328.73	11.08	-48.4	-50.3	22.5	6.04e-01	0	56	0	1059586048	59	4636
2026-01-01 13:03:14.45	328.84	11.00	-48.4	-50.3	22.5	6.01e-01	0	56	0	1061683200	59	4618
2026-01-01 13:03:15.44	328.95	10.92	-48.4	-50.4	22.5	6.04e-01	0	57	0	1063256064	59	4656
2026-01-01 13:03:16.43	329.06	10.83	-48.4	-50.3	22.4	6.02e-01	0	56	0	1065353216	59	4642
2026-01-01 13:03:17.42	329.16	10.75	-48.4	-50.4	22.5	6.03e-01	0	56	0	1066926080	59	4653
2026-01-01 13:03:18.40	329.27	10.67	-48.4	-50.3	22.4	6.02e-01	0	56	0	1069023232	59	4647
2026-01-01 13:03:19.39	329.37	10.59	-48.4	-50.4	22.4	6.04e-01	0	56	0	1070596096	59	4663
2026-01-01 13:03:20.38	329.48	10.51	-48.5	-50.5	22.4	6.04e-01	0	56	0	1072693248	59	4712
2026-01-01 13:03:21.37	329.58	10.43	-48.5	-50.6	22.3	6.02e-01	0	56	0	1074790400	59	4774
2026-01-01 13:03:22.36	329.69	10.35	-48.7	-50.8	22.0	6.02e-01	0	56	0	1076363264	59	4894
2026-01-01 13:03:23.35	329.79	10.27	-48.8	-50.9	21.8	6.03e-01	0	56	0	1077936128	59	4981
2026-01-01 13:03:24.34	329.89	10.19	-48.7	-50.8	22.0	6.05e-01	0	56	0	1080033280	59	4881
2026-01-01 13:03:25.32	329.99	10.11	-48.6	-50.6	22.1	6.05e-01	0	56	0	1082130432	59	4809
2026-01-01 13:03:26.31	330.09	10.03	-48.6	-50.6	22.1	6.03e-01	0	56	0	1083703296	59	4805
2026-01-01 13:03:27.29	330.19	9.95	-48.7	-50.7	22.1	6.04e-01	0	56	0	1085800448	59	4863
2026-01-01 13:03:28.28	330.29	9.87	-48.7	-50.8	21.9	6.02e-01	0	56	0	1087373312	59	4896
2026-01-01 13:03:29.27	330.39	9.79	-48.7	-50.8	21.9	6.03e-01	0	56	0	1089470464	59	4899
2026-01-01 13:03:30.25	330.49	9.71	-48.7	-50.9	21.9	6.03e-01	0	56	0	1091043328	59	4928
2026-01-01 13:03:31.23	330.59	9.63	-48.7	-50.8	22.0	6.06e-01	0	56	0	1093140480	59	4872
2026-01-01 13:03:32.22	330.69	9.55	-48.7	-50.8	21.9	6.04e-01	0	57	0	1094713344	59	4903
2026-01-01 13:03:33.21	330.78	9.48	-48.7	-50.8	21.9	6.03e-01	0	56	0	1096810496	59	4905
2026-01-01 13:03:34.21	330.88	9.40	-48.5	-50.6	21.8	6.02e-01	0	57	0	1098383360	60	4513
2026-01-01 13:03:35.20	330.98	9.32	-48.4	-50.4	21.9	6.01e-01	0	56	0	1100480512	60	4434
2026-01-01 13:03:36.19	331.07	9.24	-48.4	-50.4	21.9	6.05e-01	0	56	0	1102053376	60	4433
2026-01-01 13:03:37.18	331.17	9.16	-48.4	-50.6	21.8	6.04e-01	0	56	0	1104150528	60	4499
2026-01-01 13:03:38.16	331.26	9.09	-48.6	-50.8	21.5	6.07e-01	0	57	0	1105723392	60	4599
2026-01-01 13:03:39.16	331.36	9.01	-48.4	-50.6	21.7	6.03e-01	0	56	0	1107820544	60	4506
2026-01-01 13:03:40.14	331.45	8.93	-48.4	-50.5	21.8	6.04e-01	0	56	0	1109917696	60	4470
2026-01-01 13:03:41.13	331.54	8.86	-48.4	-50.6	21.7	6.03e-01	0	56	0	1111490560	60	4506
2026-01-01 13:03:42.12	331.64	8.78	-48.5	-50.7	21.6	6.04e-01	0	56	0	1113587712	60	4582
2026-01-01 13:03:43.11	331.73	8.70	-48.5	-50.6	21.7	6.03e-01	0	56	0	1115160576	60	4529
2026-01-01 13:03:44.10	331.82	8.63	-48.5	-50.6	21.6	6.06e-01	0	56	0	1117257728	60	4521
2026-01-01 13:03:45.09	331.91	8.55	-48.4	-50.6	21.7	6.02e-01	0	56	0	1118830592	60	4511
2026-01-01 13:03:46.08	332.00	8.48	-48.6	-50.8	21.5	6.04e-01	0	56	0	1120927744	60	4614
2026-01-01 13:03:47.07	332.09	8.40	-48.5	-50.7	21.5	6.06e-01	0	56	0	1122500608	60	4592
2026-01-01 13:03:48.06	332.18	8.33	-48.6	-50.7	21.5	6.01e-01	0	57	0	1124597760	60	4597
2026-01-01 13:03:49.06	332.27	8.25	-48.5	-50.7	21.5	6.02e-01	0	56	0	1126170624	60	4589
2026-01-01 13:03:50.05	332.36	8.17	-48.6	-50.8	21.4	6.07e-01	0	56	0	1128267776	60	4629
2026-01-01 13:03:51.04	332.45	8.10	-48.9	-51.2	21.1	6.03e-01	0	56	0	1130364928	60	4850
2026-01-01 13:03:52.03	332.54	8.03	-48.7	-51.0	21.2	6.01e-01	0	56	0	1131937792	60	4719
2026-01-01 13:03:53.02	332.63	7.95	-48.5	-50.7	21.4	6.03e-01	0	56	0	1134034944	60	4571
2026-01-01 13:03:54.01	332.71	7.88	-48.6	-50.8	21.4	6.03e-01	0	56	0	1135607808	60	4625
2026-01-01 13:03:55.00	332.80	7.80	-48.5	-50.7	21.4	6.05e-01	0	56	0	1137704960	60	4584
2026-01-01 13:03:55.99	332.89	7.73	-48.7	-50.9	21.2	6.02e-01	0	56	0	1139277824	60	4696
2026-01-01 13:03:56.98	332.97	7.66	-48.7	-51.0	21.2	6.03e-01	0	56	0	1141374976	60	4713
2026-01-01 13:03:57.96	333.06	7.58	-48.7	-51.0	21.1	6.02e-01	0	56	0	1142947840	60	4720
2026-01-01 13:03:58.96	333.14	7.51	-48.8	-51.1	21.0	6.03e-01	0	57	0	1145044992	60	4797
2026-01-01 13:03:59.94	333.23	7.44	-48.9	-51.3	20.9	6.04e-01	0	57	0	1146617856	60	4875
2026-01-01 13:04:00.93	333.31	7.36	-48.9	-51.4	20.8	6.02e-01	0	57	0	1148715008	60	4943
2026-01-01 13:04:01.92	333.39	7.29	-48.9	-51.3	20.9	6.05e-01	0	56	0	1150812160	60	4876
2026-01-01 13:04:02.91	333.48	7.22	-49.0	-51.5	20.7	6.04e-01	0	56	0	1152385024	60	4999
2026-01-01 13:04:03.89	333.56	7.15	-48.9	-51.4	20.7	6.05e-01	0	56	0	1154482176	60	4952
2026-01-01 13:04:04.88	333.64	7.07	-48.9	-51.4	20.7	6.03e-01	0	56	0	1156055040	60	4935
2026-01-01 13:04:05.87	333.72	7.00	-49.1	-51.7	20.4	6.04e-01	0	57	0	1158152192	60	5118
2026-01-01 13:04:06.86	333.80	6.93	-49.0	-51.5	20.5	6.01e-01	0	56	0	1159725056	60	5024
2026-01-01 13:04:07.85	333.88	6.86	-48.9	-51.3	20.7	6.05e-01	0	56	0	1161822208	60	4919
2026-01-01 13:04:08.84	333.97	6.79	-48.9	-51.4	20.6	6.06e-01	0	56	0	1163395072	60	4977
2026-01-01 13:04:09.82	334.04	6.72	-48.9	-51.4	20.5	6.03e-01	0	56	0	1165492224	60	4971
2026-01-01 13:04:10.81	334.12	6.65	-49.0	-51.6	20.5	6.03e-01	0	56	0	1167065088	60	5063
2026-01-01 13:04:11.80	334.20	6.58	-49.1	-51.8	20.3	6.02e-01	0	57	0	1169162240	60	5181
2026-01-01 13:04:12.79	334.28	6.51	-49.1	-51.8	20.3	6.05e-01	0	56	0	1170735104	60	5170
2026-01-01 13:04:13.77	334.36	6.44	-49.2	-51.8	20.2	6.08e-01	0	56	0	1172832256	60	5210
2026-01-01 13:04:14.76	334.44	6.37	-49.1	-51.8	20.2	6.01e-01	0	57	0	1174405120	60	5180
2026-01-01 13:04:15.75	334.52	6.30	-49.1	-51.7	20.2	6.05e-01	0	57	0	1176502272	60	5145
2026-01-01 13:04:16.74	334.59	6.23	-49.1	-51.8	20.2	6.01e-01	0	57	0	1178075136	60	5207
2026-01-01 13:04:17.73	334.67	6.16	-49.1	-51.7	20.2	6.02e-01	0	57	0	1180172288	60	5147
2026-01-01 13:04:18.71	334.75	6.09	-49.4	-52.2	19.8	6.05e-01	0	57	0	1181745152	60	5421
2026-01-01 13:04:19.69	334.82	6.02	-49.2	-52.0	20.0	6.05e-01	0	56	0	1183842304	61	4994
2026-01-01 13:04:20.68	334.90	5.95	-49.1	-51.7	20.2	6.03e-01	0	57	0	1185939456	61	4837
2026-01-01 13:04:21.67	334.97	5.88	-49.0	-51.6	20.3	6.05e-01	0	57	0	1187512320	61	4796
2026-01-01 13:04:22.66	335.05	5.81	-49.1	-51.7	20.2	6.03e-01	0	56	0	1189609472	61	4855
2026-01-01 13:04:23.65	335.13	5.74	-49.0	-51.6	20.2	6.05e-01	0	57	0	1191182336	61	4795
2026-01-01 13:04:24.64	335.20	5.67	-49.1	-51.8	20.1	6.02e-01	0	56	0	1193279488	61	4886
2026-01-01 13:04:25.63	335.27	5.60	-49.1	-51.8	20.2	6.03e-01	0	56	0	1194852352	61	4871
2026-01-01 13:04:26.62	335.35	5.54	-49.2	-52.0	19.8	6.01e-01	0	56	0	1196949504	61	5026
2026-01-01 13:04:27.61	335.42	5.47	-49.3	-52.1	19.7	6.03e-01	0	56	0	1198522368	61	5080
2026-01-01 13:04:28.60	335.49	5.40	-49.1	-51.9	19.9	6.03e-01	0	56	0	1200619520	61	4951
2026-01-01 13:04:29.60	335.57	5.33	-49.1	-51.8	20.0	6.05e-01	0	56	0	1202192384	61	4885
2026-01-01 13:04:30.59	335.64	5.26	-49.0	-51.7	20.0	6.04e-01	0	57	0	1204289536	61	4862
2026-01-01 13:04:31.56	335.71	5.20	-49.2	-52.0	19.9	6.04e-01	0	57	0	1205862400	61	4996
2026-01-01 13:04:32.55	335.78	5.13	-49.1	-52.0	19.8	6.08e-01	0	56	0	1207959552	61	4996
2026-01-01 13:04:33.54	335.85	5.06	-49.1	-51.9	19.9	6.06e-01	0	56	0	1210056704	61	4946
2026-01-01 13:04:34.53	335.93	5.00	-53.1	-70.2	3.9	7.41e-01	0	57	104	1211105280	68	27316
2026-01-01 13:04:35.52	336.00	4.93	-53.4	-72.6	3.8	7.48e-01	0	57	104	1211105280	69	33884
2026-01-01 13:04:36.50	336.07	4.86	-53.7	-73.5	3.8	7.48e-01	0	56	104	1211105280	69	37556
2026-01-01 13:04:37.49	336.14	4.80	-53.8	-73.7	3.8	7.44e-01	0	56	104	1211105280	69	38370
2026-01-01 13:04:38.48	336.21	4.73	-53.9	-73.7	3.8	7.45e-01	0	56	104	1211105280	70	36461
2026-01-01 13:04:39.47	336.27	4.66	-53.9	-73.8	3.8	7.41e-01	0	57	104	1211105280	70	36632
2026-01-01 13:04:40.45	336.34	4.60	-53.5	-73.3	3.8	7.46e-01	0	57	104	1211105280	70	34667
2026-01-01 13:04:41.44	336.41	4.53	-54.1	-74.0	3.8	7.46e-01	0	57	104	1211105280	70	37460
2026-01-01 13:04:42.42	336.48	4.47	-54.1	-74.0	3.8	7.45e-01	0	57	104	1211105280	70	37772
2026-01-01 13:04:43.41	336.55	4.40	-54.2	-74.1	3.8	7.46e-01	0	56	104	1211105280	70	37898
