passes_logs/2026/01/01/R3.0SM8_Murmansk_STILSPACE/R3.0SM8_Murmansk_STILSPACE__20260101_150041_FENGYUN_3E_rec.log

#Pass ID: 20260101_150041_FENGYUN 3E
#Satellite: FENGYUN 3E
#Configuration: FENGYUN 3E
#almurnet v.1.7.20240730
#Start time: 2026-01-01 15:07:29

#Version: 2.2.20231116
#Station: R3.0SM8_Murmansk_STILSPACE
#Location: 33.092731 lon 68.902999 lat
#TLE: 1 49008U 21062A   25365.98258168  .00000149  00000+0  90987-4 0  9990
#TLE: 2 49008  98.7481   6.2763 0001360 169.3782 190.7423 14.19883270232859

#Time	Az	El	Level	Level2	SNR	BER	BlckErr	Temp	State	Recorded	gain1	gain2
2026-01-01 15:07:29.87	259.88	46.08	-52.7	-63.5	3.8	8.46e-01	0	56	0	0	67	13090
2026-01-01 15:07:30.86	260.43	46.08	-52.9	-63.0	3.8	8.46e-01	0	57	104	0	68	11538
2026-01-01 15:07:31.85	260.99	46.07	-52.8	-63.0	3.8	8.47e-01	0	57	104	0	68	11534
2026-01-01 15:07:32.85	261.55	46.07	-52.8	-63.0	3.8	8.46e-01	0	57	104	0	68	11469
2026-01-01 15:07:33.83	262.10	46.06	-52.9	-63.0	3.8	8.46e-01	0	57	104	0	68	11496
2026-01-01 15:07:34.82	262.66	46.05	-52.6	-63.0	3.8	8.46e-01	0	57	104	0	68	11549
2026-01-01 15:07:35.81	263.21	46.03	-52.8	-63.0	3.8	8.45e-01	0	57	104	0	68	11517
2026-01-01 15:07:36.79	263.76	46.02	-52.7	-63.0	3.8	8.46e-01	0	57	104	0	68	11500
2026-01-01 15:07:37.79	264.32	46.00	-52.8	-63.0	3.8	8.45e-01	0	57	104	0	68	11539
2026-01-01 15:07:38.78	264.87	45.97	-52.7	-63.0	3.8	8.47e-01	0	57	104	0	68	11513
2026-01-01 15:07:39.76	265.42	45.95	-52.5	-63.0	3.8	8.46e-01	0	57	104	0	68	11463
2026-01-01 15:07:40.75	265.97	45.92	-52.7	-62.9	3.8	8.46e-01	0	57	104	0	68	11370
2026-01-01 15:07:41.74	266.52	45.89	-52.8	-62.9	3.8	8.47e-01	0	57	104	0	68	11361
2026-01-01 15:07:42.73	267.07	45.85	-52.6	-62.8	3.8	8.47e-01	0	57	104	0	68	11265
2026-01-01 15:07:43.71	267.61	45.82	-52.6	-62.9	3.8	8.45e-01	0	57	104	0	68	11398
2026-01-01 15:07:44.69	268.15	45.78	-52.7	-62.9	3.8	8.45e-01	0	57	104	0	68	11359
2026-01-01 15:07:45.68	268.70	45.73	-52.8	-63.0	3.8	8.46e-01	0	57	104	0	68	11452
2026-01-01 15:07:46.67	269.24	45.69	-52.8	-62.9	3.8	8.46e-01	0	57	104	0	68	11384
2026-01-01 15:07:47.65	269.78	45.64	-52.6	-62.9	3.8	8.45e-01	0	58	104	0	68	11412
2026-01-01 15:07:48.64	270.32	45.59	-52.5	-62.8	3.8	8.46e-01	0	57	104	0	67	11939
2026-01-01 15:07:49.62	270.85	45.54	-52.7	-62.8	3.8	8.46e-01	0	57	104	0	67	11861
2026-01-01 15:07:50.61	271.38	45.48	-52.5	-62.8	3.8	8.45e-01	0	57	104	0	67	11871
2026-01-01 15:07:51.60	271.92	45.42	-52.6	-62.8	3.8	8.46e-01	0	57	104	0	67	11882
2026-01-01 15:07:52.59	272.45	45.36	-52.7	-62.9	3.8	8.46e-01	0	57	104	0	67	11974
2026-01-01 15:07:53.58	272.98	45.30	-52.6	-62.8	3.8	8.47e-01	0	57	104	0	67	11831
2026-01-01 15:07:54.56	273.51	45.23	-52.6	-62.8	3.8	8.46e-01	0	57	104	0	67	11930
2026-01-01 15:07:55.55	274.03	45.16	-52.4	-62.8	3.8	8.45e-01	0	57	104	0	67	11950
2026-01-01 15:07:56.53	274.55	45.09	-52.6	-62.8	3.8	8.45e-01	0	57	104	0	67	11925
2026-01-01 15:07:57.52	275.07	45.02	-52.6	-62.8	3.8	8.47e-01	0	57	104	0	67	11916
2026-01-01 15:07:58.50	275.58	44.94	-52.7	-62.8	3.8	8.46e-01	0	57	104	0	67	11897
2026-01-01 15:07:59.49	276.10	44.87	-52.6	-62.7	3.8	8.47e-01	0	57	104	0	67	11703
2026-01-01 15:08:00.47	276.61	44.79	-52.7	-62.7	3.8	8.47e-01	0	57	104	0	67	11814
2026-01-01 15:08:01.47	277.13	44.70	-52.6	-62.8	3.8	8.46e-01	0	57	104	0	67	11866
2026-01-01 15:08:02.46	277.64	44.62	-52.7	-62.8	3.8	8.46e-01	0	57	104	0	67	11845
2026-01-01 15:08:03.45	278.14	44.53	-52.6	-62.7	3.8	8.47e-01	0	57	104	0	67	11809
2026-01-01 15:08:04.44	278.64	44.44	-52.7	-62.8	3.8	8.46e-01	0	57	104	0	67	11954
2026-01-01 15:08:05.43	279.14	44.35	-52.6	-62.8	3.8	8.46e-01	0	57	104	0	67	11869
2026-01-01 15:08:06.42	279.64	44.25	-52.7	-62.7	3.8	8.46e-01	0	57	104	0	67	11715
2026-01-01 15:08:07.41	280.14	44.16	-52.6	-62.5	3.8	8.46e-01	0	58	104	0	67	11524
2026-01-01 15:08:08.39	280.62	44.06	-52.7	-62.6	3.8	8.46e-01	0	57	104	0	67	11600
2026-01-01 15:08:09.38	281.11	43.96	-52.5	-62.3	3.8	8.46e-01	0	58	104	0	67	11286
2026-01-01 15:08:10.37	281.60	43.86	-52.5	-61.5	3.8	8.46e-01	0	57	104	0	67	10195
2026-01-01 15:08:11.36	282.08	43.75	-52.2	-60.4	4.0	8.45e-01	0	58	104	0	67	9059
2026-01-01 15:08:12.35	282.56	43.65	-52.3	-61.1	3.9	8.45e-01	0	58	104	0	67	9746
2026-01-01 15:08:13.34	283.03	43.54	-52.5	-62.5	3.8	8.45e-01	0	57	104	0	67	11526
2026-01-01 15:08:14.34	283.51	43.43	-52.5	-62.3	3.8	8.47e-01	0	58	104	0	67	11252
2026-01-01 15:08:15.32	283.98	43.32	-52.3	-61.6	3.8	8.45e-01	0	57	104	0	67	10338
2026-01-01 15:08:16.31	284.44	43.21	-52.5	-62.2	3.8	8.45e-01	0	58	104	0	67	11032
2026-01-01 15:08:17.31	284.91	43.09	-52.6	-62.4	3.8	8.46e-01	0	57	104	0	67	11375
2026-01-01 15:08:18.30	285.37	42.97	-52.1	-59.7	3.9	8.44e-01	0	57	104	0	67	8332
2026-01-01 15:08:19.28	285.82	42.86	-52.0	-59.0	4.3	8.31e-01	0	58	0	0	66	8121
2026-01-01 15:08:20.27	286.28	42.74	-52.7	-62.7	3.8	8.46e-01	0	58	104	0	66	12519
2026-01-01 15:08:21.26	286.73	42.62	-51.2	-56.1	5.7	7.78e-01	0	58	0	0	65	6190
2026-01-01 15:08:22.25	287.17	42.49	-47.7	-49.3	12.6	1.29e-03	0	58	0	6291456	58	4196
2026-01-01 15:08:23.23	287.61	42.37	-43.9	-44.7	17.2	0.00e+00	0	58	0	13631488	51	3720
2026-01-01 15:08:24.22	288.05	42.24	-41.6	-42.1	19.5	0.00e+00	0	58	0	20971520	45	3904
2026-01-01 15:08:25.22	288.49	42.12	-41.7	-42.2	19.4	0.00e+00	0	57	0	28311552	45	3937
2026-01-01 15:08:26.20	288.92	41.99	-42.0	-42.6	19.0	0.00e+00	0	58	0	34603008	45	4130
2026-01-01 15:08:27.19	289.35	41.86	-41.6	-42.1	19.5	0.00e+00	0	58	0	41943040	45	3894
2026-01-01 15:08:28.18	289.77	41.73	-41.1	-41.6	20.0	0.00e+00	0	58	0	49283072	45	3666
2026-01-01 15:08:29.16	290.19	41.60	-40.8	-41.3	20.3	0.00e+00	0	58	0	56623104	44	3757
2026-01-01 15:08:30.15	290.61	41.46	-40.7	-41.2	20.4	0.00e+00	0	57	0	63963136	44	3710
2026-01-01 15:08:31.13	291.02	41.33	-40.7	-41.2	20.4	0.00e+00	0	58	0	71303168	44	3722
2026-01-01 15:08:32.12	291.44	41.19	-40.3	-40.8	20.6	0.00e+00	0	58	0	77594624	43	3763
2026-01-01 15:08:33.11	291.84	41.06	-40.2	-40.6	20.8	0.00e+00	0	58	0	84934656	43	3691
2026-01-01 15:08:34.10	292.25	40.92	-40.1	-40.6	20.9	0.00e+00	0	58	0	92274688	43	3657
2026-01-01 15:08:35.09	292.65	40.78	-40.0	-40.5	20.9	0.00e+00	0	58	0	99614720	42	3852
2026-01-01 15:08:36.07	293.05	40.64	-40.2	-40.6	20.8	0.00e+00	0	58	0	106954752	42	3907
2026-01-01 15:08:37.07	293.45	40.50	-40.3	-40.8	20.6	0.00e+00	0	58	0	114294784	42	3977
2026-01-01 15:08:38.07	293.84	40.36	-40.4	-40.9	20.5	0.00e+00	0	58	0	120586240	42	4031
2026-01-01 15:08:39.05	294.23	40.21	-40.4	-40.9	20.5	0.00e+00	0	58	0	127926272	42	4007
2026-01-01 15:08:40.05	294.62	40.07	-40.5	-41.0	20.5	0.00e+00	0	58	0	135266304	42	4067
2026-01-01 15:08:41.03	294.99	39.93	-40.2	-40.7	20.7	0.00e+00	0	58	0	142606336	42	3943
2026-01-01 15:08:42.02	295.37	39.78	-40.3	-40.7	20.6	0.00e+00	0	58	0	149946368	42	3950
2026-01-01 15:08:43.01	295.75	39.63	-40.3	-40.8	20.6	0.00e+00	0	58	0	156237824	42	3982
2026-01-01 15:08:44.00	296.12	39.49	-40.0	-40.5	21.0	0.00e+00	0	58	0	163577856	42	3840
2026-01-01 15:08:44.98	296.48	39.34	-40.2	-40.7	20.8	0.00e+00	0	58	0	170917888	42	3932
2026-01-01 15:08:45.97	296.85	39.19	-40.4	-40.8	20.6	0.00e+00	0	58	0	178257920	42	4004
2026-01-01 15:08:46.96	297.21	39.05	-40.1	-40.6	20.9	0.00e+00	0	58	0	184549376	42	3899
2026-01-01 15:08:47.94	297.56	38.90	-39.9	-40.4	21.1	0.00e+00	0	58	0	191889408	42	3786
2026-01-01 15:08:48.93	297.92	38.75	-39.8	-40.3	21.2	0.00e+00	0	58	0	199229440	42	3750
2026-01-01 15:08:49.92	298.27	38.60	-40.0	-40.5	20.8	0.00e+00	0	58	0	206569472	42	3828
2026-01-01 15:08:50.91	298.62	38.45	-40.0	-40.5	20.9	0.00e+00	0	57	0	213909504	42	3857
2026-01-01 15:08:51.89	298.96	38.30	-40.4	-40.9	20.5	0.00e+00	0	58	0	220200960	42	4005
2026-01-01 15:08:52.88	299.31	38.15	-40.1	-40.6	20.8	0.00e+00	0	58	0	227540992	42	3895
2026-01-01 15:08:53.87	299.65	37.99	-40.0	-40.5	21.0	0.00e+00	0	58	0	234881024	42	3837
2026-01-01 15:08:54.86	299.98	37.84	-39.9	-40.4	21.0	0.00e+00	0	58	0	242221056	42	3800
2026-01-01 15:08:55.84	300.31	37.69	-39.9	-40.4	21.0	0.00e+00	0	58	0	249561088	42	3808
2026-01-01 15:08:56.83	300.64	37.54	-40.2	-40.7	20.8	0.00e+00	0	58	0	255852544	42	3918
2026-01-01 15:08:57.82	300.97	37.38	-40.1	-40.6	20.9	0.00e+00	0	58	0	263192576	42	3883
2026-01-01 15:08:58.81	301.29	37.23	-40.1	-40.6	20.8	0.00e+00	0	58	0	270532608	42	3902
2026-01-01 15:08:59.80	301.62	37.07	-40.2	-40.7	20.8	0.00e+00	0	58	0	277872640	42	3921
2026-01-01 15:09:00.79	301.93	36.92	-40.3	-40.8	20.6	0.00e+00	0	58	0	285212672	42	3989
2026-01-01 15:09:01.79	302.25	36.76	-40.4	-40.8	20.6	0.00e+00	0	58	0	292552704	42	4001
2026-01-01 15:09:02.78	302.56	36.61	-40.4	-40.9	20.5	0.00e+00	0	58	0	298844160	42	4035
2026-01-01 15:09:03.76	302.87	36.46	-40.2	-40.7	20.8	0.00e+00	0	58	0	306184192	42	3930
2026-01-01 15:09:04.75	303.18	36.30	-40.0	-40.5	21.0	0.00e+00	0	58	0	313524224	42	3828
2026-01-01 15:09:05.75	303.48	36.14	-39.9	-40.3	20.7	0.00e+00	0	58	0	320864256	42	3764
2026-01-01 15:09:06.74	303.78	35.99	-39.9	-40.3	21.1	0.00e+00	0	58	0	328204288	42	3770
2026-01-01 15:09:07.73	304.08	35.83	-39.9	-40.3	21.1	0.00e+00	0	58	0	335544320	42	3776
2026-01-01 15:09:08.72	304.38	35.68	-39.6	-40.1	21.4	0.00e+00	0	58	0	341835776	42	3658
2026-01-01 15:09:09.71	304.67	35.52	-39.4	-39.9	21.5	0.00e+00	0	58	0	349175808	41	3785
2026-01-01 15:09:10.70	304.96	35.37	-39.5	-40.0	21.3	0.00e+00	0	58	0	356515840	41	3830
2026-01-01 15:09:11.69	305.25	35.21	-39.5	-39.9	21.4	0.00e+00	0	58	0	363855872	41	3804
2026-01-01 15:09:12.67	305.53	35.06	-39.6	-40.1	21.3	0.00e+00	0	58	0	371195904	41	3871
2026-01-01 15:09:13.66	305.81	34.90	-39.6	-40.0	21.4	0.00e+00	0	58	0	377487360	41	3858
2026-01-01 15:09:14.64	306.09	34.75	-39.7	-40.1	21.1	0.00e+00	0	58	0	384827392	41	3890
2026-01-01 15:09:15.62	306.36	34.59	-39.6	-40.1	21.3	0.00e+00	0	58	0	392167424	41	3881
2026-01-01 15:09:16.61	306.63	34.44	-39.7	-40.1	21.2	0.00e+00	0	58	0	398458880	41	3900
2026-01-01 15:09:17.60	306.91	34.28	-39.8	-40.3	21.1	0.00e+00	0	58	0	405798912	41	3984
2026-01-01 15:09:18.60	307.18	34.12	-40.1	-40.6	20.8	0.00e+00	0	58	0	413138944	41	4118
2026-01-01 15:09:19.58	307.44	33.97	-40.3	-40.8	20.7	0.00e+00	0	58	0	420478976	42	3962
2026-01-01 15:09:20.58	307.71	33.81	-40.2	-40.7	20.7	0.00e+00	0	58	0	427819008	42	3921
2026-01-01 15:09:21.57	307.97	33.66	-40.2	-40.7	20.7	0.00e+00	0	58	0	435159040	42	3921
2026-01-01 15:09:22.56	308.23	33.50	-40.1	-40.6	20.9	0.00e+00	0	58	0	441450496	42	3875
2026-01-01 15:09:23.56	308.49	33.35	-39.9	-40.4	21.0	0.00e+00	0	58	0	448790528	42	3793
2026-01-01 15:09:24.55	308.74	33.19	-39.8	-40.3	21.2	0.00e+00	0	58	0	456130560	42	3745
2026-01-01 15:09:25.53	308.99	33.04	-39.8	-40.3	21.1	0.00e+00	0	58	0	463470592	42	3751
2026-01-01 15:09:26.53	309.24	32.88	-40.1	-40.5	20.7	0.00e+00	0	58	0	470810624	42	3861
2026-01-01 15:09:27.52	309.49	32.73	-40.0	-40.4	21.0	0.00e+00	0	58	0	477102080	42	3810
2026-01-01 15:09:28.50	309.73	32.58	-39.7	-40.1	21.2	0.00e+00	0	58	0	484442112	42	3692
2026-01-01 15:09:29.49	309.97	32.43	-39.6	-40.1	21.2	0.00e+00	0	58	0	491782144	42	3654
2026-01-01 15:09:30.47	310.21	32.27	-39.6	-40.1	21.3	0.00e+00	0	58	0	499122176	42	3660
2026-01-01 15:09:31.45	310.45	32.12	-39.7	-40.2	21.2	0.00e+00	0	58	0	506462208	42	3703
2026-01-01 15:09:32.43	310.68	31.97	-39.6	-40.0	20.8	0.00e+00	0	58	0	513802240	42	3634
2026-01-01 15:09:33.43	310.92	31.82	-39.8	-40.2	21.2	0.00e+00	0	58	0	520093696	42	3734
2026-01-01 15:09:34.42	311.15	31.66	-39.9	-40.4	21.0	0.00e+00	0	58	0	527433728	42	3800
2026-01-01 15:09:35.41	311.38	31.51	-40.1	-40.5	20.8	0.00e+00	0	58	0	534773760	42	3863
2026-01-01 15:09:36.40	311.61	31.36	-40.0	-40.4	20.9	0.00e+00	0	58	0	542113792	42	3822
2026-01-01 15:09:37.39	311.83	31.21	-40.0	-40.5	20.9	0.00e+00	0	58	0	549453824	42	3852
2026-01-01 15:09:38.38	312.05	31.06	-40.1	-40.6	20.8	0.00e+00	0	58	0	556793856	42	3887
2026-01-01 15:09:39.37	312.28	30.91	-40.1	-40.6	20.8	0.00e+00	0	58	0	563085312	42	3891
2026-01-01 15:09:40.36	312.50	30.76	-40.2	-40.7	20.7	0.00e+00	0	58	0	570425344	42	3950
2026-01-01 15:09:41.33	312.71	30.61	-40.1	-40.6	20.8	0.00e+00	0	58	0	577765376	42	3894
2026-01-01 15:09:42.33	312.93	30.46	-40.2	-40.7	20.6	0.00e+00	0	58	0	585105408	42	3929
2026-01-01 15:09:43.32	313.14	30.31	-40.2	-40.7	20.7	0.00e+00	0	58	0	592445440	42	3932
2026-01-01 15:09:44.31	313.35	30.16	-40.2	-40.7	20.7	0.00e+00	0	58	0	598736896	42	3931
2026-01-01 15:09:45.31	313.56	30.01	-40.2	-40.6	20.8	0.00e+00	0	58	0	606076928	42	3902
2026-01-01 15:09:46.31	313.77	29.86	-40.2	-40.6	20.8	0.00e+00	0	58	0	613416960	42	3908
2026-01-01 15:09:47.29	313.98	29.72	-39.9	-40.4	21.0	0.00e+00	0	58	0	620756992	42	3803
2026-01-01 15:09:48.28	314.18	29.57	-39.9	-40.3	21.1	0.00e+00	0	58	0	628097024	42	3776
2026-01-01 15:09:49.27	314.38	29.42	-39.9	-40.4	21.0	0.00e+00	0	58	0	635437056	42	3801
2026-01-01 15:09:50.26	314.58	29.27	-40.1	-40.5	20.9	0.00e+00	0	58	0	641728512	42	3860
2026-01-01 15:09:51.25	314.78	29.13	-39.9	-40.4	21.0	0.00e+00	0	58	0	649068544	42	3801
2026-01-01 15:09:52.25	314.98	28.98	-40.1	-40.6	20.8	0.00e+00	0	58	0	656408576	42	3886
2026-01-01 15:09:53.24	315.18	28.84	-40.3	-40.8	20.6	0.00e+00	0	58	0	663748608	42	3989
2026-01-01 15:09:54.23	315.37	28.69	-40.2	-40.7	20.7	0.00e+00	0	58	0	671088640	42	3928
2026-01-01 15:09:55.22	315.56	28.55	-40.5	-41.0	20.4	0.00e+00	0	58	0	678428672	42	4064
2026-01-01 15:09:56.20	315.75	28.40	-40.4	-40.9	20.5	0.00e+00	0	58	0	684720128	42	4021
2026-01-01 15:09:57.19	315.94	28.26	-40.7	-41.2	20.2	0.00e+00	0	58	0	692060160	42	4171
2026-01-01 15:09:58.18	316.12	28.12	-40.9	-41.4	20.0	0.00e+00	0	58	0	699400192	43	4011
2026-01-01 15:09:59.17	316.31	27.97	-40.7	-41.2	20.2	0.00e+00	0	58	0	706740224	43	3939
2026-01-01 15:10:00.16	316.49	27.83	-40.6	-41.1	20.3	0.00e+00	0	58	0	714080256	43	3896
2026-01-01 15:10:01.15	316.68	27.69	-40.6	-41.1	20.3	0.00e+00	0	58	0	720371712	43	3908
2026-01-01 15:10:02.13	316.85	27.55	-40.5	-41.0	20.4	0.00e+00	0	58	0	727711744	43	3859
2026-01-01 15:10:03.12	317.03	27.41	-40.5	-41.0	20.4	0.00e+00	0	58	0	735051776	43	3848
2026-01-01 15:10:04.11	317.21	27.27	-40.4	-40.9	20.5	0.00e+00	0	58	0	742391808	43	3811
2026-01-01 15:10:05.09	317.38	27.13	-40.6	-41.1	20.3	0.00e+00	0	58	0	749731840	43	3904
2026-01-01 15:10:06.08	317.56	26.99	-40.3	-40.8	20.6	0.00e+00	0	58	0	756023296	43	3751
2026-01-01 15:10:07.06	317.73	26.85	-40.0	-40.5	20.9	0.00e+00	0	58	0	763363328	43	3632
2026-01-01 15:10:08.06	317.90	26.71	-39.9	-40.4	21.0	0.00e+00	0	58	0	770703360	42	3783
2026-01-01 15:10:09.04	318.07	26.57	-40.0	-40.5	20.9	0.00e+00	0	58	0	778043392	42	3848
2026-01-01 15:10:10.04	318.24	26.43	-40.3	-40.8	20.6	0.00e+00	0	58	0	785383424	42	3972
2026-01-01 15:10:11.02	318.41	26.30	-40.4	-40.9	20.5	0.00e+00	0	58	0	791674880	42	4006
2026-01-01 15:10:12.02	318.57	26.16	-40.4	-40.8	20.5	0.00e+00	0	58	0	799014912	42	4003
2026-01-01 15:10:13.01	318.74	26.02	-40.5	-41.0	20.4	0.00e+00	0	58	0	806354944	42	4060
2026-01-01 15:10:13.99	318.90	25.89	-40.7	-41.2	20.2	0.00e+00	0	58	0	813694976	42	4174
2026-01-01 15:10:14.98	319.06	25.75	-40.6	-41.0	20.3	0.00e+00	0	58	0	819986432	42	4098
2026-01-01 15:10:15.97	319.22	25.62	-40.6	-41.1	20.2	0.00e+00	0	58	0	827326464	42	4135
2026-01-01 15:10:16.94	319.38	25.48	-40.9	-41.4	20.0	0.00e+00	0	58	0	834666496	43	4048
2026-01-01 15:10:17.93	319.54	25.35	-40.7	-41.2	20.2	0.00e+00	0	58	0	842006528	43	3920
2026-01-01 15:10:18.92	319.69	25.22	-40.5	-41.0	20.4	0.00e+00	0	58	0	849346560	43	3832
2026-01-01 15:10:19.91	319.85	25.08	-40.3	-40.8	20.6	0.00e+00	0	58	0	856686592	43	3765
2026-01-01 15:10:20.90	320.00	24.95	-40.3	-40.7	20.6	0.00e+00	0	58	0	862978048	43	3733
2026-01-01 15:10:21.89	320.15	24.82	-40.3	-40.8	20.6	0.00e+00	0	58	0	870318080	43	3749
2026-01-01 15:10:22.88	320.31	24.68	-40.4	-40.9	20.5	0.00e+00	0	58	0	877658112	43	3797
2026-01-01 15:10:23.87	320.46	24.55	-40.6	-41.1	20.3	0.00e+00	0	58	0	884998144	43	3881
2026-01-01 15:10:24.85	320.60	24.42	-40.4	-40.9	20.5	0.00e+00	0	58	0	892338176	43	3788
2026-01-01 15:10:25.84	320.75	24.29	-40.2	-40.7	20.7	0.00e+00	0	58	0	899678208	43	3712
2026-01-01 15:10:26.83	320.90	24.16	-40.2	-40.7	20.7	0.00e+00	0	58	0	905969664	43	3711
2026-01-01 15:10:27.82	321.04	24.03	-40.2	-40.7	20.7	0.00e+00	0	58	0	913309696	43	3710
2026-01-01 15:10:28.81	321.19	23.90	-40.3	-40.7	20.6	0.00e+00	0	58	0	920649728	43	3737
2026-01-01 15:10:29.80	321.33	23.77	-40.4	-40.9	20.4	0.00e+00	0	58	0	927989760	43	3816
2026-01-01 15:10:30.77	321.47	23.65	-40.4	-40.9	20.5	0.00e+00	0	58	0	934281216	43	3804
2026-01-01 15:10:31.77	321.61	23.52	-40.6	-41.1	20.3	0.00e+00	0	58	0	941621248	43	3887
2026-01-01 15:10:32.76	321.75	23.39	-40.5	-41.0	20.3	0.00e+00	0	58	0	948961280	43	3860
2026-01-01 15:10:33.75	321.89	23.26	-40.7	-41.2	20.1	0.00e+00	0	58	0	956301312	43	3939
2026-01-01 15:10:34.74	322.03	23.14	-40.7	-41.2	20.2	0.00e+00	0	58	0	963641344	43	3934
2026-01-01 15:10:35.73	322.16	23.01	-40.6	-41.1	20.1	0.00e+00	0	58	0	969932800	43	3904
2026-01-01 15:10:36.72	322.30	22.89	-40.6	-41.2	20.2	0.00e+00	0	58	0	977272832	43	3915
2026-01-01 15:10:37.70	322.43	22.76	-40.6	-41.1	20.2	0.00e+00	0	58	0	984612864	43	3905
2026-01-01 15:10:38.69	322.57	22.64	-40.7	-41.2	20.1	0.00e+00	0	58	0	991952896	43	3938
2026-01-01 15:10:39.68	322.70	22.51	-40.7	-41.2	20.2	0.00e+00	0	58	0	999292928	43	3927
2026-01-01 15:10:40.66	322.83	22.39	-40.6	-41.1	20.2	0.00e+00	0	58	0	1005584384	43	3895
2026-01-01 15:10:41.65	322.96	22.27	-40.5	-41.0	20.3	0.00e+00	0	58	0	1012924416	43	3858
2026-01-01 15:10:42.65	323.09	22.14	-40.4	-40.9	20.4	0.00e+00	0	58	0	1020264448	43	3821
2026-01-01 15:10:43.63	323.22	22.02	-40.4	-40.9	20.4	0.00e+00	0	58	0	1027604480	43	3795
2026-01-01 15:10:44.62	323.34	21.90	-40.4	-40.9	20.5	0.00e+00	0	58	0	1034944512	43	3785
2026-01-01 15:10:45.60	323.47	21.78	-40.4	-40.9	20.4	0.00e+00	0	58	0	1041235968	43	3783
2026-01-01 15:10:46.59	323.59	21.66	-40.4	-40.9	20.5	0.00e+00	0	58	0	1048576000	43	3784
2026-01-01 15:10:47.57	323.72	21.54	-40.3	-40.8	20.5	0.00e+00	0	58	0	1055916032	43	3764
2026-01-01 15:10:48.56	323.84	21.42	-40.4	-40.9	20.4	0.00e+00	0	58	0	1063256064	43	3802
2026-01-01 15:10:49.55	323.96	21.30	-40.4	-40.9	20.4	0.00e+00	0	58	0	1070596096	43	3813
2026-01-01 15:10:50.54	324.09	21.18	-40.5	-41.0	20.4	0.00e+00	0	58	0	1077936128	43	3832
2026-01-01 15:10:51.53	324.21	21.06	-40.6	-41.1	20.3	0.00e+00	0	58	0	1084227584	43	3885
2026-01-01 15:10:52.51	324.33	20.94	-40.6	-41.2	20.2	0.00e+00	0	58	0	1091567616	43	3916
2026-01-01 15:10:53.49	324.44	20.83	-40.6	-41.1	20.2	0.00e+00	0	58	0	1098907648	43	3913
2026-01-01 15:10:54.48	324.56	20.71	-40.7	-41.2	20.1	0.00e+00	0	58	0	1105199104	43	3928
2026-01-01 15:10:55.47	324.68	20.59	-40.7	-41.2	20.0	0.00e+00	0	58	0	1112539136	43	3952
2026-01-01 15:10:56.45	324.80	20.48	-40.8	-41.4	20.0	0.00e+00	0	58	0	1119879168	43	4007
2026-01-01 15:10:57.44	324.91	20.36	-41.0	-41.5	19.8	0.00e+00	0	58	0	1127219200	43	4092
2026-01-01 15:10:58.44	325.03	20.24	-41.0	-41.5	19.8	0.00e+00	0	58	0	1134559232	43	4092
2026-01-01 15:10:59.44	325.14	20.13	-41.0	-41.5	19.8	0.00e+00	0	58	0	1141899264	43	4095
2026-01-01 15:11:00.42	325.26	20.01	-41.1	-41.6	19.7	0.00e+00	0	58	0	1148190720	43	4126
2026-01-01 15:11:01.41	325.37	19.90	-40.9	-41.5	19.8	0.00e+00	0	58	0	1155530752	43	4052
2026-01-01 15:11:02.41	325.48	19.78	-40.9	-41.4	19.9	0.00e+00	0	58	0	1162870784	43	4048
2026-01-01 15:11:03.40	325.59	19.67	-41.1	-41.6	19.7	0.00e+00	0	58	0	1170210816	43	4139
2026-01-01 15:11:04.38	325.70	19.56	-41.3	-41.8	19.6	0.00e+00	0	58	0	1177550848	44	3991
2026-01-01 15:11:05.37	325.81	19.45	-41.4	-41.9	19.5	0.00e+00	0	58	0	1183842304	44	4041
2026-01-01 15:11:06.37	325.92	19.33	-41.2	-41.7	19.7	0.00e+00	0	58	0	1191182336	44	3950
2026-01-01 15:11:07.36	326.03	19.22	-41.2	-41.7	19.6	0.00e+00	0	58	0	1198522368	44	3932
2026-01-01 15:11:08.35	326.13	19.11	-41.1	-41.6	19.8	0.00e+00	0	58	0	1205862400	44	3906
2026-01-01 15:11:09.34	326.24	19.00	-41.2	-41.7	19.6	0.00e+00	0	58	0	1213202432	44	3943
2026-01-01 15:11:10.33	326.35	18.89	-41.3	-41.8	19.6	0.00e+00	0	58	0	1220542464	44	3982
2026-01-01 15:11:11.33	326.45	18.77	-41.1	-41.6	19.8	0.00e+00	0	58	0	1226833920	44	3909
2026-01-01 15:11:12.32	326.56	18.66	-41.0	-41.6	19.8	0.00e+00	0	58	0	1234173952	44	3879
2026-01-01 15:11:13.31	326.66	18.55	-41.1	-41.6	19.8	0.00e+00	0	58	0	1241513984	44	3890
2026-01-01 15:11:14.30	326.76	18.45	-41.1	-41.6	19.7	0.00e+00	0	58	0	1248854016	44	3906
2026-01-01 15:11:15.28	326.86	18.34	-41.2	-41.7	19.7	0.00e+00	0	58	0	1256194048	44	3934
2026-01-01 15:11:16.27	326.96	18.23	-41.2	-41.7	19.7	0.00e+00	0	58	0	1262485504	44	3943
2026-01-01 15:11:17.26	327.06	18.12	-41.3	-41.8	19.6	0.00e+00	0	58	0	1269825536	44	3979
2026-01-01 15:11:18.24	327.16	18.02	-41.3	-41.8	19.5	0.00e+00	0	58	0	1277165568	44	4001
2026-01-01 15:11:19.22	327.26	17.91	-41.2	-41.7	19.7	0.00e+00	0	58	0	1284505600	44	3932
2026-01-01 15:11:20.21	327.36	17.80	-41.2	-41.8	19.6	0.00e+00	0	58	0	1291845632	44	3968
2026-01-01 15:11:21.20	327.46	17.70	-41.3	-41.8	19.6	0.00e+00	0	58	0	1299185664	44	3989
2026-01-01 15:11:22.19	327.56	17.59	-41.4	-41.9	19.4	0.00e+00	0	58	0	1305477120	44	4034
2026-01-01 15:11:23.18	327.65	17.48	-41.4	-41.9	19.5	0.00e+00	0	58	0	1312817152	44	4024
2026-01-01 15:11:24.17	327.75	17.38	-41.5	-42.1	19.3	0.00e+00	0	58	0	1320157184	44	4122
2026-01-01 15:11:25.15	327.84	17.27	-41.7	-42.2	19.2	0.00e+00	0	58	0	1327497216	45	3948
2026-01-01 15:11:26.14	327.94	17.17	-41.6	-42.2	19.2	0.00e+00	0	58	0	1334837248	45	3915
2026-01-01 15:11:27.12	328.03	17.07	-41.8	-42.4	19.0	0.00e+00	0	58	0	1341128704	45	4016
2026-01-01 15:11:28.11	328.12	16.96	-41.7	-42.3	19.0	0.00e+00	0	58	0	1348468736	45	3966
2026-01-01 15:11:29.10	328.22	16.86	-41.9	-42.5	18.9	0.00e+00	0	58	0	1355808768	45	4081
2026-01-01 15:11:30.09	328.31	16.76	-41.8	-42.4	19.0	0.00e+00	0	58	0	1363148800	45	4017
2026-01-01 15:11:31.08	328.40	16.65	-41.7	-42.3	19.0	0.00e+00	0	58	0	1369440256	45	3985
2026-01-01 15:11:32.07	328.49	16.55	-41.8	-42.4	19.0	0.00e+00	0	58	0	1376780288	45	4012
2026-01-01 15:11:33.06	328.58	16.45	-41.8	-42.5	18.9	0.00e+00	0	58	0	1384120320	45	4057
2026-01-01 15:11:34.04	328.67	16.35	-41.9	-42.5	18.9	0.00e+00	0	58	0	1391460352	45	4076
2026-01-01 15:11:35.03	328.76	16.25	-41.8	-42.5	18.9	0.00e+00	0	58	0	1398800384	45	4052
2026-01-01 15:11:36.01	328.85	16.15	-41.9	-42.5	18.9	0.00e+00	0	58	0	1405091840	45	4058
2026-01-01 15:11:37.01	328.94	16.05	-41.9	-42.5	18.9	0.00e+00	0	58	0	1412431872	45	4073
2026-01-01 15:11:38.00	329.03	15.95	-42.1	-42.7	18.7	0.00e+00	0	58	0	1419771904	45	4164
2026-01-01 15:11:38.99	329.11	15.85	-42.0	-42.6	18.8	0.00e+00	0	58	0	1427111936	45	4128
2026-01-01 15:11:39.98	329.20	15.75	-42.0	-42.6	18.8	0.00e+00	0	58	0	1434451968	45	4102
2026-01-01 15:11:40.96	329.29	15.65	-42.0	-42.6	18.7	0.00e+00	0	58	0	1441792000	45	4130
2026-01-01 15:11:41.96	329.37	15.55	-42.1	-42.8	18.6	0.00e+00	0	58	0	1448083456	45	4202
2026-01-01 15:11:42.95	329.46	15.45	-42.1	-42.7	18.6	0.00e+00	0	58	0	1455423488	45	4193
2026-01-01 15:11:43.93	329.54	15.35	-42.1	-42.7	18.7	0.00e+00	0	58	0	1462763520	45	4168
2026-01-01 15:11:44.92	329.62	15.26	-42.2	-42.8	18.5	0.00e+00	0	58	0	1470103552	45	4210
2026-01-01 15:11:45.92	329.71	15.16	-42.1	-42.7	18.6	0.00e+00	0	58	0	1477443584	46	3937
2026-01-01 15:11:46.90	329.79	15.06	-42.1	-42.7	18.6	0.00e+00	0	58	0	1483735040	46	3955
2026-01-01 15:11:47.89	329.87	14.96	-42.2	-42.8	18.5	0.00e+00	0	58	0	1491075072	46	3989
2026-01-01 15:11:48.88	329.95	14.87	-42.3	-42.9	18.4	0.00e+00	0	58	0	1498415104	46	4044
2026-01-01 15:11:49.87	330.04	14.77	-42.2	-42.8	18.5	0.00e+00	0	58	0	1505755136	46	3991
2026-01-01 15:11:50.86	330.12	14.68	-42.3	-43.0	18.4	0.00e+00	0	58	0	1513095168	46	4071
2026-01-01 15:11:51.84	330.20	14.58	-42.6	-43.2	18.1	0.00e+00	0	58	0	1520435200	46	4182
2026-01-01 15:11:52.84	330.28	14.49	-42.4	-43.0	18.3	0.00e+00	0	58	0	1526726656	46	4098
2026-01-01 15:11:53.84	330.36	14.39	-42.3	-42.9	18.4	0.00e+00	0	58	0	1534066688	46	4038
2026-01-01 15:11:54.83	330.44	14.30	-42.3	-43.0	18.4	0.00e+00	0	58	0	1541406720	46	4052
2026-01-01 15:11:55.81	330.51	14.20	-42.3	-43.0	18.3	0.00e+00	0	58	0	1548746752	46	4074
2026-01-01 15:11:56.80	330.59	14.11	-42.5	-43.2	18.1	0.00e+00	0	58	0	1556086784	46	4177
2026-01-01 15:11:57.79	330.67	14.02	-42.4	-43.1	18.3	0.00e+00	0	58	0	1563426816	46	4107
2026-01-01 15:11:58.78	330.75	13.92	-42.3	-42.9	18.4	0.00e+00	0	58	0	1569718272	46	4050
2026-01-01 15:11:59.76	330.82	13.83	-42.3	-43.0	18.2	0.00e+00	0	58	0	1577058304	46	4068
2026-01-01 15:12:00.75	330.90	13.74	-42.5	-43.2	18.1	0.00e+00	0	58	0	1584398336	46	4147
2026-01-01 15:12:01.73	330.97	13.65	-42.5	-43.2	18.1	0.00e+00	0	58	0	1590689792	46	4153
2026-01-01 15:12:02.72	331.05	13.55	-42.6	-43.3	18.0	0.00e+00	0	58	0	1598029824	46	4211
2026-01-01 15:12:03.71	331.12	13.46	-42.8	-43.5	17.8	0.00e+00	0	58	0	1605369856	47	4076
2026-01-01 15:12:04.69	331.20	13.37	-42.8	-43.5	17.8	0.00e+00	0	58	0	1612709888	47	4058
2026-01-01 15:12:05.68	331.27	13.28	-42.8	-43.5	17.7	0.00e+00	0	58	0	1620049920	47	4091
2026-01-01 15:12:06.67	331.35	13.19	-43.2	-43.9	17.4	0.00e+00	0	58	0	1626341376	47	4271
2026-01-01 15:12:07.67	331.42	13.10	-43.2	-43.9	17.6	0.00e+00	0	58	0	1633681408	48	4045
2026-01-01 15:12:08.66	331.49	13.01	-43.2	-43.9	17.6	0.00e+00	0	58	0	1641021440	48	4040
2026-01-01 15:12:09.65	331.57	12.92	-43.2	-43.9	17.6	0.00e+00	0	58	0	1648361472	48	4028
2026-01-01 15:12:10.63	331.64	12.83	-43.3	-44.0	17.5	0.00e+00	0	58	0	1655701504	48	4085
2026-01-01 15:12:11.62	331.71	12.74	-43.5	-44.3	17.2	0.00e+00	0	58	0	1663041536	48	4204
2026-01-01 15:12:12.61	331.78	12.65	-43.5	-44.3	17.2	0.00e+00	0	58	0	1669332992	48	4201
2026-01-01 15:12:13.60	331.85	12.56	-43.4	-44.2	17.3	0.00e+00	0	58	0	1676673024	48	4146
2026-01-01 15:12:14.59	331.92	12.48	-43.4	-44.1	17.4	0.00e+00	0	58	0	1684013056	48	4120
2026-01-01 15:12:15.59	331.99	12.39	-43.4	-44.1	17.3	0.00e+00	0	58	0	1691353088	48	4141
2026-01-01 15:12:16.57	332.06	12.30	-43.3	-44.0	17.5	0.00e+00	0	58	0	1698693120	48	4077
2026-01-01 15:12:17.56	332.13	12.21	-43.1	-43.8	17.6	0.00e+00	0	58	0	1704984576	48	3989
2026-01-01 15:12:18.55	332.20	12.12	-43.0	-43.7	17.7	0.00e+00	0	58	0	1712324608	48	3947
2026-01-01 15:12:19.55	332.27	12.04	-43.1	-43.8	17.6	0.00e+00	0	58	0	1719664640	48	3990
2026-01-01 15:12:20.53	332.33	11.95	-43.1	-43.8	17.6	0.00e+00	0	59	0	1727004672	48	4000
2026-01-01 15:12:21.53	332.40	11.86	-43.2	-43.9	17.6	0.00e+00	0	58	0	1734344704	48	4020
2026-01-01 15:12:22.52	332.47	11.78	-43.1	-43.9	17.6	0.00e+00	0	58	0	1741684736	48	4005
2026-01-01 15:12:23.52	332.54	11.69	-43.1	-43.8	17.6	0.00e+00	0	58	0	1747976192	48	3986
2026-01-01 15:12:24.51	332.60	11.60	-43.1	-43.8	17.6	0.00e+00	0	58	0	1755316224	48	4001
2026-01-01 15:12:25.50	332.67	11.52	-43.2	-43.9	17.5	0.00e+00	0	58	0	1762656256	48	4041
2026-01-01 15:12:26.48	332.74	11.44	-43.1	-43.9	17.5	0.00e+00	0	58	0	1769996288	48	4018
2026-01-01 15:12:27.47	332.80	11.35	-43.2	-43.9	17.5	0.00e+00	0	58	0	1777336320	48	4028
2026-01-01 15:12:28.45	332.87	11.27	-43.2	-43.9	17.5	0.00e+00	0	58	0	1783627776	48	4032
2026-01-01 15:12:29.42	332.93	11.18	-43.1	-43.8	17.5	0.00e+00	0	58	0	1790967808	48	3995
2026-01-01 15:12:30.40	332.99	11.10	-43.3	-44.0	17.4	0.00e+00	0	58	0	1798307840	48	4076
2026-01-01 15:12:31.40	333.06	11.02	-43.4	-44.1	17.2	0.00e+00	0	58	0	1805647872	48	4135
2026-01-01 15:12:32.38	333.12	10.93	-43.3	-44.1	17.3	0.00e+00	0	58	0	1811939328	48	4106
2026-01-01 15:12:33.38	333.19	10.85	-43.5	-44.3	17.0	0.00e+00	0	58	0	1819279360	48	4217
2026-01-01 15:12:34.38	333.25	10.77	-43.7	-44.5	16.8	0.00e+00	0	58	0	1826619392	49	4077
2026-01-01 15:12:35.37	333.31	10.68	-43.7	-44.5	16.8	0.00e+00	0	58	0	1833959424	49	4060
2026-01-01 15:12:36.36	333.38	10.60	-43.7	-44.6	16.8	0.00e+00	0	58	0	1841299456	49	4110
2026-01-01 15:12:37.35	333.44	10.52	-43.9	-44.7	16.6	0.00e+00	0	58	0	1848639488	49	4179
2026-01-01 15:12:38.34	333.50	10.44	-44.0	-44.9	16.4	0.00e+00	0	58	0	1855979520	49	4257
2026-01-01 15:12:39.33	333.56	10.35	-44.0	-44.8	16.5	0.00e+00	0	58	0	1862270976	49	4229
2026-01-01 15:12:40.32	333.62	10.27	-44.1	-45.0	16.3	0.00e+00	0	58	0	1869611008	49	4324
2026-01-01 15:12:41.31	333.68	10.19	-44.0	-44.9	16.4	0.00e+00	0	58	0	1876951040	49	4265
2026-01-01 15:12:42.30	333.74	10.11	-44.2	-45.1	16.2	0.00e+00	0	58	0	1884291072	50	4123
2026-01-01 15:12:43.29	333.80	10.03	-44.0	-44.9	16.4	0.00e+00	0	58	0	1891631104	50	4013
2026-01-01 15:12:44.28	333.86	9.95	-43.9	-44.7	16.6	0.00e+00	0	58	0	1897922560	50	3937
2026-01-01 15:12:45.27	333.92	9.87	-43.7	-44.6	16.7	0.00e+00	0	58	0	1905262592	50	3873
2026-01-01 15:12:46.26	333.98	9.79	-43.7	-44.6	16.7	0.00e+00	0	58	0	1912602624	50	3876
2026-01-01 15:12:47.24	334.04	9.71	-43.7	-44.6	16.7	0.00e+00	0	58	0	1919942656	50	3892
2026-01-01 15:12:48.23	334.10	9.63	-43.7	-44.5	16.7	0.00e+00	0	58	0	1926234112	50	3839
2026-01-01 15:12:49.22	334.16	9.55	-43.7	-44.5	16.8	0.00e+00	0	58	0	1933574144	50	3831
2026-01-01 15:12:50.21	334.22	9.47	-43.9	-44.7	16.5	0.00e+00	0	58	0	1940914176	50	3937
2026-01-01 15:12:51.20	334.27	9.39	-44.0	-44.8	16.5	0.00e+00	0	58	0	1948254208	50	3988
2026-01-01 15:12:52.19	334.33	9.31	-43.9	-44.8	16.4	0.00e+00	0	58	0	1955594240	50	3969
2026-01-01 15:12:53.18	334.39	9.24	-43.9	-44.7	16.5	0.00e+00	0	58	0	1962934272	50	3954
2026-01-01 15:12:54.17	334.45	9.16	-44.1	-45.0	16.3	0.00e+00	0	58	0	1969225728	50	4054
2026-01-01 15:12:55.16	334.50	9.08	-44.0	-44.9	16.4	0.00e+00	0	58	0	1976565760	50	4007
2026-01-01 15:12:56.15	334.56	9.00	-44.1	-45.0	16.2	0.00e+00	0	58	0	1983905792	50	4082
2026-01-01 15:12:57.14	334.62	8.92	-44.5	-45.4	15.8	0.00e+00	0	58	0	1991245824	50	4278
2026-01-01 15:12:58.13	334.67	8.85	-44.3	-45.2	16.0	0.00e+00	0	58	0	1998585856	50	4182
2026-01-01 15:12:59.12	334.73	8.77	-44.1	-45.0	16.2	0.00e+00	0	58	0	2004877312	50	4088
2026-01-01 15:13:00.11	334.78	8.69	-44.0	-44.9	16.3	0.00e+00	0	58	0	2012217344	50	4029
2026-01-01 15:13:01.10	334.84	8.62	-44.1	-45.1	16.1	0.00e+00	0	58	0	2019557376	50	4105
2026-01-01 15:13:02.09	334.89	8.54	-44.1	-45.1	16.1	0.00e+00	0	58	0	2026897408	50	4112
2026-01-01 15:13:03.08	334.95	8.46	-44.2	-45.2	16.0	0.00e+00	0	58	0	2034237440	50	4154
2026-01-01 15:13:04.07	335.00	8.39	-44.4	-45.3	15.7	0.00e+00	0	58	0	2041577472	50	4237
2026-01-01 15:13:05.06	335.06	8.31	-44.4	-45.3	15.8	0.00e+00	0	58	0	2047868928	50	4214
2026-01-01 15:13:06.04	335.11	8.24	-44.1	-45.1	16.0	0.00e+00	0	58	0	2055208960	50	4109
2026-01-01 15:13:07.03	335.16	8.16	-44.3	-45.2	15.9	0.00e+00	0	58	0	2062548992	50	4184
2026-01-01 15:13:08.01	335.22	8.09	-44.2	-45.2	15.9	0.00e+00	0	58	0	2069889024	50	4168
2026-01-01 15:13:09.00	335.27	8.01	-44.3	-45.3	15.8	0.00e+00	0	58	0	2077229056	50	4204
2026-01-01 15:13:09.99	335.32	7.94	-44.4	-45.4	15.7	0.00e+00	0	59	0	2084569088	50	4271
2026-01-01 15:13:10.97	335.37	7.86	-44.6	-45.6	15.4	0.00e+00	0	58	0	2090860544	50	4369
2026-01-01 15:13:11.96	335.43	7.79	-44.5	-45.4	15.6	0.00e+00	0	58	0	2098200576	50	4284
2026-01-01 15:13:12.95	335.48	7.71	-44.4	-45.4	15.6	0.00e+00	0	58	0	2105540608	50	4258
2026-01-01 15:13:13.94	335.53	7.64	-44.3	-45.3	15.8	0.00e+00	0	58	0	2112880640	50	4195
2026-01-01 15:13:14.93	335.58	7.57	-44.4	-45.3	15.7	0.00e+00	0	58	0	2119172096	50	4219
2026-01-01 15:13:15.92	335.63	7.49	-44.3	-45.2	15.8	0.00e+00	0	58	0	2126512128	50	4192
2026-01-01 15:13:16.90	335.68	7.42	-44.3	-45.3	15.8	0.00e+00	0	58	0	2133852160	50	4194
2026-01-01 15:13:17.89	335.73	7.35	-44.3	-45.2	15.8	0.00e+00	0	58	0	2141192192	50	4183
2026-01-01 15:13:18.88	335.79	7.27	-44.3	-45.3	15.7	0.00e+00	0	58	0	2147483648	50	4206
2026-01-01 15:13:19.86	335.84	7.20	-44.6	-45.6	15.4	0.00e+00	0	58	0	2154823680	50	4356
2026-01-01 15:13:20.85	335.89	7.13	-44.3	-45.3	15.7	0.00e+00	0	58	0	2162163712	50	4210
2026-01-01 15:13:21.85	335.94	7.05	-44.4	-45.4	15.6	0.00e+00	0	58	0	2169503744	50	4245
2026-01-01 15:13:22.83	335.99	6.98	-44.5	-45.5	15.4	0.00e+00	0	58	0	2176843776	50	4311
2026-01-01 15:13:23.81	336.03	6.91	-44.4	-45.4	15.5	0.00e+00	0	58	0	2184183808	50	4289
2026-01-01 15:13:24.81	336.08	6.84	-44.5	-45.6	15.4	0.00e+00	0	59	0	2190475264	50	4346
2026-01-01 15:13:25.80	336.13	6.77	-44.5	-45.5	15.3	0.00e+00	0	58	0	2197815296	50	4330
2026-01-01 15:13:26.79	336.18	6.70	-44.5	-45.5	15.4	0.00e+00	0	58	0	2205155328	50	4331
2026-01-01 15:13:27.78	336.23	6.62	-44.6	-45.6	15.3	0.00e+00	0	58	0	2212495360	50	4371
2026-01-01 15:13:28.77	336.28	6.55	-44.6	-45.6	15.3	0.00e+00	0	58	0	2219835392	50	4354
2026-01-01 15:13:29.75	336.33	6.48	-44.5	-45.6	15.3	0.00e+00	0	58	0	2226126848	50	4355
2026-01-01 15:13:30.74	336.38	6.41	-44.9	-45.9	14.9	0.00e+00	0	58	0	2233466880	51	4286
2026-01-01 15:13:31.73	336.42	6.34	-44.7	-45.8	15.1	0.00e+00	0	58	0	2240806912	51	4200
2026-01-01 15:13:32.71	336.47	6.27	-44.7	-45.7	15.2	0.00e+00	0	58	0	2248146944	51	4176
2026-01-01 15:13:33.71	336.52	6.20	-44.6	-45.6	15.2	0.00e+00	0	58	0	2255486976	51	4117
2026-01-01 15:13:34.69	336.57	6.13	-44.7	-45.7	15.1	0.00e+00	0	58	0	2262827008	51	4173
2026-01-01 15:13:35.68	336.61	6.06	-44.7	-45.7	15.1	0.00e+00	0	58	0	2269118464	51	4175
2026-01-01 15:13:36.67	336.66	5.99	-44.6	-45.7	15.1	0.00e+00	0	58	0	2276458496	51	4151
2026-01-01 15:13:37.67	336.71	5.92	-44.5	-45.5	15.2	0.00e+00	0	58	0	2283798528	51	4096
2026-01-01 15:13:38.65	336.75	5.85	-44.7	-45.7	15.0	0.00e+00	0	58	0	2291138560	51	4187
2026-01-01 15:13:39.65	336.80	5.78	-44.7	-45.8	14.9	0.00e+00	0	58	0	2298478592	51	4230
2026-01-01 15:13:40.64	336.84	5.71	-44.8	-45.9	14.9	0.00e+00	0	58	0	2305818624	51	4261
2026-01-01 15:13:41.62	336.89	5.64	-44.8	-45.9	14.9	0.00e+00	0	58	0	2312110080	51	4261
2026-01-01 15:13:42.61	336.94	5.58	-44.8	-45.9	14.8	0.00e+00	0	58	0	2319450112	51	4276
2026-01-01 15:13:43.60	336.98	5.51	-44.9	-46.0	14.7	1.10e-06	0	58	0	2326790144	51	4321
2026-01-01 15:13:44.59	337.03	5.44	-45.1	-46.2	14.5	2.20e-06	0	58	0	2334130176	51	4422
2026-01-01 15:13:45.58	337.07	5.37	-45.1	-46.3	14.5	1.10e-06	0	58	0	2340421632	51	4455
2026-01-01 15:13:46.57	337.12	5.30	-44.8	-45.9	14.8	0.00e+00	0	58	0	2347761664	51	4260
2026-01-01 15:13:47.56	337.16	5.23	-44.7	-45.9	14.8	0.00e+00	0	58	0	2355101696	51	4258
2026-01-01 15:13:48.55	337.21	5.17	-44.8	-45.9	14.8	0.00e+00	0	58	0	2362441728	51	4248
2026-01-01 15:13:49.54	337.25	5.10	-44.9	-46.0	14.7	0.00e+00	0	58	0	2369781760	51	4319
2026-01-01 15:13:50.53	337.29	5.03	-51.5	-61.3	3.8	6.74e-01	0	58	104	2373976064	64	11873
2026-01-01 15:13:51.52	337.34	4.96	-51.5	-60.8	3.8	8.46e-01	0	58	104	2373976064	65	10644
2026-01-01 15:13:52.51	337.38	4.90	-48.5	-58.6	3.8	8.46e-01	0	58	104	2373976064	59	11651
2026-01-01 15:13:53.50	337.43	4.83	-48.8	-59.0	3.8	8.46e-01	0	58	104	2373976064	59	12185
2026-01-01 15:13:54.49	337.47	4.76	-51.3	-61.5	3.8	8.46e-01	0	58	104	2373976064	64	12195
2026-01-01 15:13:55.48	337.51	4.70	-52.1	-62.3	3.8	8.46e-01	0	58	104	2373976064	65	12573
2026-01-01 15:13:56.46	337.55	4.63	-52.4	-62.6	3.8	8.46e-01	0	58	104	2373976064	66	12258
2026-01-01 15:13:57.45	337.60	4.56	-52.5	-62.7	3.8	8.47e-01	0	58	104	2373976064	66	12442
2026-01-01 15:13:58.44	337.64	4.50	-52.5	-62.8	3.8	8.47e-01	0	58	104	2373976064	66	12561
2026-01-01 15:13:59.42	337.68	4.43	-52.5	-62.8	3.8	8.46e-01	0	58	104	2373976064	66	12610
2026-01-01 15:14:00.42	337.73	4.37	-52.5	-62.8	3.8	8.46e-01	0	58	104	2373976064	66	12568
2026-01-01 15:14:01.41	337.77	4.30	-52.6	-62.8	3.8	8.45e-01	0	58	104	2373976064	66	12662
2026-01-01 15:14:02.40	337.81	4.23	-52.6	-62.8	3.8	8.46e-01	0	58	104	2373976064	66	12632
2026-01-01 15:14:03.38	337.85	4.17	-52.5	-62.9	3.8	8.46e-01	0	58	104	2373976064	67	11975
2026-01-01 15:14:04.38	337.89	4.10	-52.5	-62.8	3.8	8.46e-01	0	58	104	2373976064	67	11927
2026-01-01 15:14:05.37	337.94	4.04	-52.7	-62.9	3.8	8.46e-01	0	58	104	2373976064	67	12040
2026-01-01 15:14:06.36	337.98	3.97	-52.7	-62.9	3.8	8.46e-01	0	59	104	2373976064	67	12050
2026-01-01 15:14:07.35	338.02	3.91	-52.6	-63.0	3.8	8.47e-01	0	59	104	2373976064	67	12120
2026-01-01 15:14:08.34	338.06	3.84	-52.6	-63.0	3.8	8.46e-01	0	58	104	2373976064	67	12131
2026-01-01 15:14:09.33	338.10	3.78	-52.7	-63.0	3.8	8.46e-01	0	58	104	2373976064	67	12123
2026-01-01 15:14:10.32	338.14	3.72	-52.6	-62.9	3.8	8.47e-01	0	58	104	2373976064	67	12069
2026-01-01 15:14:11.30	338.18	3.65	-52.7	-62.9	3.8	8.46e-01	0	58	104	2373976064	67	12085
2026-01-01 15:14:12.30	338.22	3.59	-52.8	-63.0	3.8	8.46e-01	0	58	104	2373976064	67	12201
2026-01-01 15:14:13.29	338.26	3.52	-52.9	-63.0	3.8	8.45e-01	0	58	104	2373976064	67	12156
2026-01-01 15:14:14.28	338.30	3.46	-52.8	-63.0	3.8	8.45e-01	0	58	104	2373976064	67	12196
2026-01-01 15:14:15.26	338.34	3.40	-52.8	-63.0	3.8	8.45e-01	0	59	104	2373976064	67	12215
2026-01-01 15:14:16.25	338.38	3.33	-52.8	-63.0	3.8	8.46e-01	0	58	104	2373976064	67	12170
2026-01-01 15:14:17.24	338.42	3.27	-52.7	-63.0	3.8	8.46e-01	0	58	104	2373976064	67	12104
2026-01-01 15:14:18.23	338.46	3.21	-52.8	-63.0	3.8	8.47e-01	0	58	104	2373976064	67	12144
2026-01-01 15:14:19.22	338.50	3.14	-52.8	-63.0	3.8	8.47e-01	0	58	104	2373976064	67	12147
2026-01-01 15:14:20.21	338.54	3.08	-52.7	-63.0	3.8	8.46e-01	0	58	104	2373976064	67	12096
2026-01-01 15:14:21.21	338.58	3.02	-52.8	-63.0	3.8	8.46e-01	0	58	104	2373976064	67	12107
2026-01-01 15:14:22.19	338.62	2.95	-52.8	-63.0	3.8	8.45e-01	0	58	104	2373976064	67	12160

#Closed at: 2026-01-01 15:14:23
#Recorded file [2373 MB]: D:/Data/31026_260101_181350.dat