passes_logs/2026/01/01/R3.0SM8_Murmansk_STILSPACE/R3.0SM8_Murmansk_STILSPACE__20260101_081409_FENGYUN_3D_rec.log

#Pass ID: 20260101_081409_FENGYUN 3D
#Satellite: FENGYUN 3D
#Configuration: FENGYUN 3D
#almurnet v.1.7.20240730
#Start time: 2026-01-01 08:14:09

#Version: 2.2.20231116
#Station: R3.0SM8_Murmansk_STILSPACE
#Location: 33.092731 lon 68.902999 lat
#TLE: 1 43010U 17072A   25365.48527867  .00000101  00000+0  69745-4 0  9999
#TLE: 2 43010  98.9911 332.0787 0001837 134.4748 225.6578 14.19689788421190

#Time	Az	El	Level	Level2	SNR	BER	BlckErr	Temp	State	Recorded	gain1	gain2
2026-01-01 08:14:09.60	78.96	3.00	-52.7	-63.4	3.8	8.46e-01	0	59	0	0	67	12846
2026-01-01 08:14:10.59	78.90	3.06	-52.7	-63.4	3.8	8.47e-01	0	59	104	0	68	12188
2026-01-01 08:14:11.58	78.84	3.12	-52.5	-63.4	3.8	8.46e-01	0	59	104	0	68	12184
2026-01-01 08:14:12.56	78.77	3.17	-52.3	-63.2	3.8	8.46e-01	0	59	104	0	67	12610
2026-01-01 08:14:13.55	78.71	3.23	-52.4	-63.1	3.8	8.46e-01	0	59	104	0	67	12498
2026-01-01 08:14:14.53	78.65	3.29	-52.4	-63.1	3.8	8.45e-01	0	59	104	0	67	12423
2026-01-01 08:14:15.51	78.59	3.35	-52.3	-63.0	3.8	8.47e-01	0	59	104	0	67	12236
2026-01-01 08:14:16.49	78.52	3.41	-52.1	-62.6	3.8	8.45e-01	0	59	104	0	67	11781
2026-01-01 08:14:17.48	78.46	3.47	-51.9	-62.5	3.8	8.46e-01	0	59	104	0	66	12270
2026-01-01 08:14:18.46	78.40	3.53	-51.9	-62.5	3.8	8.47e-01	0	59	104	0	66	12337
2026-01-01 08:14:19.44	78.33	3.59	-51.9	-62.5	3.8	8.45e-01	0	60	104	0	66	12280
2026-01-01 08:14:20.42	78.27	3.65	-51.9	-62.5	3.8	8.47e-01	0	60	104	0	66	12325
2026-01-01 08:14:21.41	78.20	3.71	-51.9	-62.5	3.8	8.45e-01	0	60	104	0	66	12285
2026-01-01 08:14:22.39	78.14	3.77	-51.9	-62.5	3.8	8.46e-01	0	60	104	0	66	12319
2026-01-01 08:14:23.37	78.07	3.83	-51.9	-62.5	3.8	8.46e-01	0	60	104	0	66	12330
2026-01-01 08:14:24.36	78.01	3.89	-51.9	-62.5	3.8	8.45e-01	0	60	104	0	66	12364
2026-01-01 08:14:25.34	77.94	3.95	-51.9	-62.6	3.8	8.46e-01	0	60	104	0	66	12413
2026-01-01 08:14:26.33	77.88	4.01	-51.9	-62.6	3.8	8.46e-01	0	60	104	0	66	12400
2026-01-01 08:14:27.31	77.81	4.07	-51.9	-62.5	3.8	8.47e-01	0	60	104	0	66	12331
2026-01-01 08:14:28.29	77.74	4.13	-51.9	-62.5	3.8	8.45e-01	0	60	104	0	66	12245
2026-01-01 08:14:29.27	77.68	4.19	-51.9	-62.3	3.8	8.45e-01	0	60	104	0	66	12016
2026-01-01 08:14:30.25	77.61	4.25	-51.8	-62.1	3.8	8.45e-01	0	60	104	0	66	11686
2026-01-01 08:14:31.23	77.54	4.31	-51.7	-61.6	3.8	8.46e-01	0	60	104	0	66	11153
2026-01-01 08:14:32.21	77.48	4.37	-51.7	-61.0	3.8	8.45e-01	0	60	104	0	66	10337
2026-01-01 08:14:33.19	77.41	4.43	-51.6	-60.5	3.8	8.45e-01	0	60	104	0	66	9741
2026-01-01 08:14:34.17	77.34	4.49	-51.5	-59.7	4.0	8.43e-01	0	60	104	0	65	9410
2026-01-01 08:14:35.15	77.27	4.55	-51.3	-58.5	4.4	8.35e-01	0	60	0	0	65	8202
2026-01-01 08:14:36.12	77.20	4.61	-51.1	-57.5	4.7	8.13e-01	0	60	0	0	65	7342
2026-01-01 08:14:37.08	77.14	4.67	-50.8	-56.5	5.3	7.64e-01	0	60	0	0	64	6956
2026-01-01 08:14:38.05	77.07	4.73	-50.4	-55.4	6.1	4.69e-01	0	60	0	2097152	64	6081
2026-01-01 08:14:39.01	77.00	4.79	-50.2	-54.4	7.0	2.15e-01	0	60	0	8388608	63	5759
2026-01-01 08:14:39.98	76.93	4.85	-50.0	-54.0	7.4	1.47e-01	0	60	0	13631488	63	5490
2026-01-01 08:14:40.95	76.86	4.91	-49.7	-53.4	7.9	1.05e-01	0	60	0	18874368	62	5460
2026-01-01 08:14:41.91	76.79	4.97	-49.4	-52.8	8.6	4.98e-02	0	60	0	24117248	62	5043
2026-01-01 08:14:42.88	76.72	5.03	-49.1	-52.2	9.1	3.28e-02	0	60	0	29360128	61	5021
2026-01-01 08:14:43.84	76.65	5.09	-49.1	-52.2	9.2	2.69e-02	0	60	0	34603008	61	5019
2026-01-01 08:14:44.81	76.58	5.15	-49.3	-52.5	8.9	2.93e-02	0	60	0	40894464	61	5161
2026-01-01 08:14:45.77	76.51	5.21	-49.1	-52.2	9.2	2.81e-02	0	60	0	46137344	61	4991
2026-01-01 08:14:46.74	76.44	5.28	-49.0	-52.0	9.4	2.18e-02	0	60	0	51380224	61	4897
2026-01-01 08:14:47.71	76.37	5.34	-48.9	-51.8	9.6	1.77e-02	0	60	0	56623104	61	4805
2026-01-01 08:14:48.68	76.30	5.40	-48.9	-51.8	9.6	1.37e-02	0	60	0	61865984	60	5067
2026-01-01 08:14:49.65	76.23	5.46	-49.3	-52.6	8.8	2.63e-02	0	60	0	68157440	60	5556
2026-01-01 08:14:50.62	76.15	5.52	-49.2	-52.3	9.2	3.27e-02	0	60	0	73400320	60	5356
2026-01-01 08:14:51.59	76.08	5.58	-48.6	-51.4	10.0	1.38e-02	0	60	0	78643200	60	4858
2026-01-01 08:14:52.56	76.01	5.65	-48.2	-50.6	10.9	4.82e-03	0	60	0	83886080	59	4685
2026-01-01 08:14:53.53	75.94	5.71	-47.6	-49.6	11.9	6.21e-04	0	60	0	90177536	58	4438
2026-01-01 08:14:54.50	75.86	5.77	-47.2	-49.1	12.4	3.12e-04	0	60	0	95420416	57	4432
2026-01-01 08:14:55.47	75.79	5.83	-46.9	-48.6	13.0	8.69e-05	0	60	0	100663296	56	4430
2026-01-01 08:14:56.44	75.71	5.89	-46.6	-48.2	13.4	2.86e-05	0	60	0	105906176	56	4214
2026-01-01 08:14:57.41	75.64	5.96	-46.1	-47.6	13.9	1.02e-05	0	60	0	111149056	55	4186
2026-01-01 08:14:58.38	75.56	6.02	-45.9	-47.3	14.1	2.20e-06	0	60	0	117440512	55	4048
2026-01-01 08:14:59.36	75.49	6.08	-45.9	-47.4	14.1	1.10e-06	0	61	0	122683392	54	4315
2026-01-01 08:15:00.33	75.41	6.15	-45.7	-47.1	14.4	1.10e-06	0	60	0	127926272	54	4174
2026-01-01 08:15:01.30	75.34	6.21	-45.9	-47.4	14.1	3.40e-06	0	60	0	133169152	54	4318
2026-01-01 08:15:02.26	75.26	6.27	-46.2	-47.8	13.8	8.00e-06	0	60	0	138412032	54	4495
2026-01-01 08:15:03.23	75.18	6.33	-46.1	-47.6	13.9	8.00e-06	0	60	0	144703488	54	4420
2026-01-01 08:15:04.20	75.11	6.40	-46.3	-47.9	13.7	8.00e-06	0	61	0	149946368	54	4552
2026-01-01 08:15:05.17	75.03	6.46	-46.5	-48.1	13.5	2.63e-05	0	61	0	155189248	54	4661
2026-01-01 08:15:06.14	74.95	6.52	-46.1	-47.7	13.9	8.00e-06	0	60	0	160432128	54	4452
2026-01-01 08:15:07.11	74.87	6.59	-45.9	-47.4	14.2	3.40e-06	0	60	0	165675008	54	4295
2026-01-01 08:15:08.09	74.79	6.65	-45.8	-47.2	14.3	0.00e+00	0	61	0	171966464	54	4237
2026-01-01 08:15:09.05	74.71	6.71	-45.8	-47.2	14.4	4.50e-06	0	60	0	177209344	54	4219
2026-01-01 08:15:10.02	74.64	6.78	-45.8	-47.2	14.4	0.00e+00	0	61	0	182452224	54	4198
2026-01-01 08:15:10.99	74.56	6.84	-46.2	-47.6	14.0	1.10e-06	0	60	0	187695104	54	4439
2026-01-01 08:15:11.96	74.48	6.91	-45.9	-47.3	14.3	3.40e-06	0	61	0	192937984	54	4251
2026-01-01 08:15:12.93	74.40	6.97	-45.5	-46.8	14.8	1.10e-06	0	61	0	199229440	54	4041
2026-01-01 08:15:13.90	74.32	7.03	-45.3	-46.6	15.0	1.10e-06	0	60	0	204472320	53	4169
2026-01-01 08:15:14.86	74.23	7.10	-45.1	-46.4	15.2	0.00e+00	0	61	0	209715200	53	4060
2026-01-01 08:15:15.83	74.15	7.16	-45.1	-46.3	15.2	0.00e+00	0	61	0	214958080	53	4039
2026-01-01 08:15:16.79	74.07	7.23	-45.0	-46.3	15.3	0.00e+00	0	61	0	220200960	53	4034
2026-01-01 08:15:17.76	73.99	7.29	-45.3	-46.6	15.0	0.00e+00	0	61	0	226492416	53	4180
2026-01-01 08:15:18.73	73.91	7.35	-45.2	-46.5	15.1	0.00e+00	0	61	0	231735296	53	4105
2026-01-01 08:15:19.70	73.82	7.42	-45.2	-46.4	15.2	0.00e+00	0	61	0	236978176	53	4080
2026-01-01 08:15:20.67	73.74	7.48	-45.2	-46.4	15.2	0.00e+00	0	61	0	242221056	53	4080
2026-01-01 08:15:21.63	73.66	7.55	-45.2	-46.5	15.2	1.10e-06	0	61	0	247463936	53	4099
2026-01-01 08:15:22.60	73.57	7.61	-45.4	-46.7	14.9	0.00e+00	0	61	0	252706816	53	4231
2026-01-01 08:15:23.56	73.49	7.68	-45.4	-46.7	14.9	1.10e-06	0	61	0	258998272	53	4235
2026-01-01 08:15:24.54	73.41	7.74	-45.4	-46.7	15.0	0.00e+00	0	61	0	264241152	53	4213
2026-01-01 08:15:25.50	73.32	7.81	-45.6	-46.9	14.7	0.00e+00	0	61	0	269484032	53	4334
2026-01-01 08:15:26.47	73.24	7.87	-45.5	-46.9	14.8	0.00e+00	0	61	0	274726912	53	4302
2026-01-01 08:15:27.44	73.15	7.94	-45.3	-46.6	15.1	0.00e+00	0	61	0	279969792	53	4159
2026-01-01 08:15:28.41	73.06	8.01	-45.1	-46.3	15.3	0.00e+00	0	61	0	286261248	53	4032
2026-01-01 08:15:29.38	72.98	8.07	-45.0	-46.2	15.5	0.00e+00	0	61	0	291504128	53	3970
2026-01-01 08:15:30.35	72.89	8.14	-44.9	-46.1	15.6	0.00e+00	0	61	0	296747008	53	3930
2026-01-01 08:15:31.31	72.80	8.20	-44.8	-46.0	15.7	0.00e+00	0	61	0	301989888	52	4107
2026-01-01 08:15:32.28	72.71	8.27	-44.8	-46.0	15.7	0.00e+00	0	61	0	307232768	52	4114
2026-01-01 08:15:33.25	72.63	8.34	-44.9	-46.1	15.6	0.00e+00	0	60	0	312475648	52	4151
2026-01-01 08:15:34.21	72.54	8.40	-45.0	-46.1	15.6	0.00e+00	0	61	0	318767104	52	4173
2026-01-01 08:15:35.18	72.45	8.47	-45.1	-46.2	15.5	0.00e+00	0	61	0	324009984	52	4231
2026-01-01 08:15:36.15	72.36	8.53	-44.8	-45.9	15.8	0.00e+00	0	61	0	329252864	52	4077
2026-01-01 08:15:37.12	72.27	8.60	-44.6	-45.6	16.1	0.00e+00	0	61	0	334495744	52	3943
2026-01-01 08:15:38.10	72.18	8.67	-44.5	-45.5	16.3	0.00e+00	0	61	0	340787200	51	4118
2026-01-01 08:15:39.06	72.09	8.73	-44.4	-45.4	16.4	0.00e+00	0	61	0	346030080	51	4073
2026-01-01 08:15:40.03	71.99	8.80	-44.4	-45.4	16.4	0.00e+00	0	61	0	351272960	51	4075
2026-01-01 08:15:41.00	71.90	8.87	-44.3	-45.3	16.5	0.00e+00	0	61	0	356515840	51	4046
2026-01-01 08:15:41.97	71.81	8.94	-44.5	-45.5	16.4	0.00e+00	0	61	0	361758720	51	4122
2026-01-01 08:15:42.93	71.72	9.00	-44.3	-45.2	16.6	0.00e+00	0	61	0	368050176	51	3994
2026-01-01 08:15:43.91	71.62	9.07	-44.2	-45.2	16.7	0.00e+00	0	61	0	373293056	51	3968
2026-01-01 08:15:44.87	71.53	9.14	-44.2	-45.1	16.7	0.00e+00	0	61	0	378535936	51	3952
2026-01-01 08:15:45.85	71.44	9.21	-44.3	-45.3	16.5	0.00e+00	0	61	0	383778816	51	4046
2026-01-01 08:15:46.82	71.34	9.27	-44.3	-45.3	16.6	0.00e+00	0	61	0	389021696	51	4013
2026-01-01 08:15:47.79	71.25	9.34	-44.4	-45.4	16.5	0.00e+00	0	61	0	395313152	51	4092
2026-01-01 08:15:48.75	71.15	9.41	-44.4	-45.4	16.6	0.00e+00	0	61	0	400556032	51	4057
2026-01-01 08:15:49.73	71.06	9.48	-44.3	-45.3	16.6	0.00e+00	0	61	0	405798912	51	4013
2026-01-01 08:15:50.69	70.96	9.55	-44.2	-45.2	16.7	0.00e+00	0	61	0	411041792	51	3989
2026-01-01 08:15:51.66	70.86	9.61	-44.3	-45.4	16.5	0.00e+00	0	61	0	416284672	51	4058
2026-01-01 08:15:52.63	70.77	9.68	-44.3	-45.3	16.6	0.00e+00	0	61	0	422576128	51	4036
2026-01-01 08:15:53.59	70.67	9.75	-44.3	-45.2	16.7	0.00e+00	0	61	0	427819008	51	3996
2026-01-01 08:15:54.56	70.57	9.82	-44.3	-45.3	16.7	0.00e+00	0	61	0	433061888	51	4007
2026-01-01 08:15:55.53	70.47	9.89	-44.1	-45.1	16.8	0.00e+00	0	61	0	438304768	51	3933
2026-01-01 08:15:56.49	70.37	9.96	-44.0	-44.9	17.0	0.00e+00	0	61	0	443547648	51	3848
2026-01-01 08:15:57.46	70.27	10.02	-44.0	-44.9	17.0	0.00e+00	0	61	0	449839104	51	3857
2026-01-01 08:15:58.43	70.17	10.09	-44.0	-44.9	17.0	0.00e+00	0	61	0	455081984	51	3851
2026-01-01 08:15:59.41	70.07	10.16	-44.0	-45.0	17.0	0.00e+00	0	61	0	460324864	51	3871
2026-01-01 08:16:00.38	69.97	10.23	-44.1	-45.1	16.9	0.00e+00	0	61	0	465567744	51	3915
2026-01-01 08:16:01.35	69.87	10.30	-44.2	-45.1	16.8	0.00e+00	0	61	0	470810624	51	3948
2026-01-01 08:16:02.31	69.77	10.37	-44.4	-45.4	16.5	0.00e+00	0	61	0	477102080	51	4078
2026-01-01 08:16:03.28	69.67	10.44	-44.4	-45.4	16.6	0.00e+00	0	61	0	482344960	51	4061
2026-01-01 08:16:04.25	69.56	10.51	-44.5	-45.5	16.4	0.00e+00	0	61	0	487587840	51	4136
2026-01-01 08:16:05.23	69.46	10.58	-44.3	-45.3	16.6	0.00e+00	0	61	0	492830720	51	4048
2026-01-01 08:16:06.20	69.35	10.65	-44.4	-45.5	16.5	0.00e+00	0	61	0	498073600	51	4104
2026-01-01 08:16:07.17	69.25	10.72	-44.4	-45.4	16.5	0.00e+00	0	61	0	504365056	51	4095
2026-01-01 08:16:08.13	69.14	10.79	-44.6	-45.6	16.4	0.00e+00	0	61	0	509607936	51	4154
2026-01-01 08:16:09.10	69.04	10.86	-44.7	-45.8	16.2	0.00e+00	0	61	0	514850816	51	4259
2026-01-01 08:16:10.07	68.93	10.93	-44.5	-45.5	16.5	0.00e+00	0	61	0	520093696	51	4117
2026-01-01 08:16:11.04	68.83	11.00	-44.3	-45.2	16.7	0.00e+00	0	61	0	525336576	51	3992
2026-01-01 08:16:12.00	68.72	11.07	-44.1	-45.0	17.0	0.00e+00	0	61	0	530579456	51	3908
2026-01-01 08:16:12.97	68.61	11.14	-44.1	-45.0	17.0	0.00e+00	0	61	0	536870912	51	3888
2026-01-01 08:16:13.94	68.50	11.21	-44.1	-45.0	17.0	0.00e+00	0	61	0	542113792	51	3902
2026-01-01 08:16:14.91	68.39	11.28	-44.0	-45.0	17.0	0.00e+00	0	61	0	547356672	51	3880
2026-01-01 08:16:15.88	68.28	11.35	-43.9	-44.8	17.2	0.00e+00	0	61	0	552599552	51	3813
2026-01-01 08:16:16.85	68.17	11.42	-43.9	-44.9	17.2	0.00e+00	0	61	0	557842432	51	3828
2026-01-01 08:16:17.83	68.06	11.50	-44.0	-44.9	17.1	0.00e+00	0	61	0	564133888	51	3840
2026-01-01 08:16:18.79	67.95	11.57	-43.9	-44.8	17.2	0.00e+00	0	61	0	569376768	50	4012
2026-01-01 08:16:19.76	67.84	11.64	-43.8	-44.7	17.3	0.00e+00	0	61	0	574619648	50	3978
2026-01-01 08:16:20.73	67.73	11.71	-43.9	-44.8	17.2	0.00e+00	0	61	0	579862528	50	4050
2026-01-01 08:16:21.69	67.62	11.78	-44.1	-45.0	17.0	0.00e+00	0	61	0	585105408	50	4126
2026-01-01 08:16:22.66	67.50	11.85	-44.1	-45.0	17.0	0.00e+00	0	61	0	591396864	50	4132
2026-01-01 08:16:23.63	67.39	11.92	-44.1	-45.0	17.0	0.00e+00	0	61	0	596639744	50	4127
2026-01-01 08:16:24.60	67.28	12.00	-44.1	-45.1	17.0	0.00e+00	0	61	0	601882624	50	4154
2026-01-01 08:16:25.57	67.16	12.07	-44.2	-45.2	16.9	0.00e+00	0	61	0	607125504	50	4201
2026-01-01 08:16:26.54	67.04	12.14	-44.1	-45.0	17.0	0.00e+00	0	62	0	612368384	50	4133
2026-01-01 08:16:27.51	66.93	12.21	-44.0	-44.9	17.1	0.00e+00	0	61	0	618659840	50	4080
2026-01-01 08:16:28.47	66.81	12.28	-44.0	-44.9	17.1	0.00e+00	0	61	0	623902720	50	4082
2026-01-01 08:16:29.44	66.70	12.36	-43.9	-44.8	17.3	0.00e+00	0	61	0	629145600	50	4007
2026-01-01 08:16:30.41	66.58	12.43	-43.8	-44.7	17.3	0.00e+00	0	61	0	634388480	50	4002
2026-01-01 08:16:31.38	66.46	12.50	-44.0	-44.9	17.2	0.00e+00	0	61	0	639631360	50	4073
2026-01-01 08:16:32.35	66.34	12.57	-44.0	-45.0	17.1	0.00e+00	0	61	0	645922816	50	4102
2026-01-01 08:16:33.32	66.22	12.65	-43.8	-44.7	17.3	0.00e+00	0	61	0	651165696	50	3987
2026-01-01 08:16:34.30	66.10	12.72	-43.7	-44.6	17.5	0.00e+00	0	61	0	656408576	50	3928
2026-01-01 08:16:35.27	65.98	12.79	-43.9	-44.8	17.3	0.00e+00	0	61	0	661651456	50	4025
2026-01-01 08:16:36.24	65.86	12.87	-43.8	-44.8	17.3	0.00e+00	0	61	0	666894336	50	4008
2026-01-01 08:16:37.21	65.73	12.94	-43.6	-44.5	17.6	0.00e+00	0	62	0	673185792	50	3879
2026-01-01 08:16:38.18	65.61	13.01	-43.4	-44.3	17.8	0.00e+00	0	61	0	678428672	50	3787
2026-01-01 08:16:39.15	65.49	13.08	-43.3	-44.1	17.9	0.00e+00	0	62	0	683671552	49	3942
2026-01-01 08:16:40.12	65.36	13.16	-43.3	-44.2	17.9	0.00e+00	0	62	0	688914432	49	3964
2026-01-01 08:16:41.09	65.24	13.23	-43.3	-44.1	17.9	0.00e+00	0	61	0	694157312	49	3943
2026-01-01 08:16:42.06	65.11	13.30	-43.3	-44.1	17.9	0.00e+00	0	62	0	700448768	49	3954
2026-01-01 08:16:43.04	64.99	13.38	-43.2	-44.0	18.1	0.00e+00	0	62	0	705691648	49	3875
2026-01-01 08:16:44.01	64.86	13.45	-43.2	-44.0	18.0	0.00e+00	0	61	0	710934528	49	3899
2026-01-01 08:16:44.98	64.73	13.53	-43.3	-44.1	17.9	0.00e+00	0	61	0	716177408	49	3957
2026-01-01 08:16:45.95	64.60	13.60	-43.2	-44.0	18.1	0.00e+00	0	61	0	721420288	49	3880
2026-01-01 08:16:46.91	64.48	13.67	-43.1	-43.9	18.2	0.00e+00	0	62	0	727711744	49	3832
2026-01-01 08:16:47.89	64.35	13.75	-43.0	-43.8	18.3	0.00e+00	0	62	0	732954624	49	3791
2026-01-01 08:16:48.86	64.22	13.82	-43.0	-43.8	18.2	0.00e+00	0	62	0	738197504	49	3824
2026-01-01 08:16:49.83	64.09	13.90	-43.0	-43.8	18.2	0.00e+00	0	62	0	743440384	49	3800
2026-01-01 08:16:50.79	63.96	13.97	-43.1	-43.9	18.1	0.00e+00	0	62	0	749731840	49	3847
2026-01-01 08:16:51.76	63.82	14.04	-43.0	-43.8	18.2	0.00e+00	0	62	0	754974720	49	3824
2026-01-01 08:16:52.73	63.69	14.12	-43.1	-43.9	18.2	0.00e+00	0	62	0	760217600	49	3827
2026-01-01 08:16:53.70	63.56	14.19	-42.9	-43.7	18.3	0.00e+00	0	62	0	765460480	49	3765
2026-01-01 08:16:54.67	63.42	14.27	-43.0	-43.8	18.3	0.00e+00	0	62	0	770703360	49	3786
2026-01-01 08:16:55.64	63.29	14.34	-42.9	-43.7	18.4	0.00e+00	0	62	0	776994816	49	3758
2026-01-01 08:16:56.61	63.15	14.42	-43.0	-43.8	18.3	0.00e+00	0	62	0	782237696	48	4007
2026-01-01 08:16:57.58	63.02	14.49	-43.2	-44.0	18.1	0.00e+00	0	62	0	787480576	48	4133
2026-01-01 08:16:58.55	62.88	14.57	-43.2	-43.9	18.1	0.00e+00	0	62	0	792723456	48	4097
2026-01-01 08:16:59.52	62.74	14.64	-42.9	-43.6	18.4	0.00e+00	0	62	0	797966336	48	3955
2026-01-01 08:17:00.49	62.61	14.72	-42.8	-43.5	18.5	0.00e+00	0	62	0	804257792	48	3911
2026-01-01 08:17:01.46	62.47	14.79	-42.8	-43.5	18.6	0.00e+00	0	62	0	809500672	48	3902
2026-01-01 08:17:02.42	62.33	14.86	-42.7	-43.5	18.6	0.00e+00	0	62	0	814743552	48	3892
2026-01-01 08:17:03.39	62.19	14.94	-42.8	-43.6	18.5	0.00e+00	0	62	0	819986432	48	3931
2026-01-01 08:17:04.36	62.05	15.01	-42.9	-43.7	18.4	0.00e+00	0	62	0	825229312	48	3969
2026-01-01 08:17:05.32	61.91	15.09	-42.9	-43.7	18.4	0.00e+00	0	62	0	831520768	48	3985
2026-01-01 08:17:06.30	61.76	15.16	-42.8	-43.6	18.5	0.00e+00	0	62	0	836763648	48	3923
2026-01-01 08:17:07.26	61.62	15.24	-42.8	-43.6	18.5	0.00e+00	0	62	0	842006528	48	3921
2026-01-01 08:17:08.23	61.48	15.31	-42.8	-43.6	18.5	0.00e+00	0	62	0	847249408	48	3933
2026-01-01 08:17:09.20	61.33	15.39	-42.9	-43.7	18.4	0.00e+00	0	62	0	852492288	48	3979
2026-01-01 08:17:10.17	61.19	15.46	-42.7	-43.4	18.7	0.00e+00	0	62	0	858783744	48	3852
2026-01-01 08:17:11.14	61.04	15.54	-42.6	-43.3	18.8	0.00e+00	0	62	0	864026624	48	3789
2026-01-01 08:17:12.11	60.89	15.62	-42.5	-43.2	18.9	0.00e+00	0	62	0	869269504	48	3756
2026-01-01 08:17:13.08	60.75	15.69	-42.4	-43.2	18.9	0.00e+00	0	62	0	874512384	48	3742
2026-01-01 08:17:14.05	60.60	15.77	-42.5	-43.2	18.9	0.00e+00	0	62	0	879755264	48	3764
2026-01-01 08:17:15.02	60.45	15.84	-42.7	-43.4	18.7	0.00e+00	0	62	0	886046720	48	3858
2026-01-01 08:17:15.99	60.30	15.92	-42.7	-43.4	18.7	0.00e+00	0	62	0	891289600	48	3848
2026-01-01 08:17:16.96	60.15	15.99	-42.7	-43.4	18.7	0.00e+00	0	62	0	896532480	48	3855
2026-01-01 08:17:17.92	60.00	16.07	-42.7	-43.5	18.6	0.00e+00	0	62	0	901775360	48	3888
2026-01-01 08:17:18.90	59.84	16.15	-42.7	-43.5	18.7	0.00e+00	0	62	0	907018240	48	3872
2026-01-01 08:17:19.87	59.69	16.22	-42.8	-43.6	18.5	0.00e+00	0	62	0	913309696	48	3941
2026-01-01 08:17:20.84	59.54	16.30	-42.9	-43.6	18.5	0.00e+00	0	62	0	918552576	48	3951
2026-01-01 08:17:21.81	59.38	16.37	-42.8	-43.5	18.6	0.00e+00	0	62	0	923795456	48	3889
2026-01-01 08:17:22.78	59.23	16.45	-42.9	-43.7	18.4	0.00e+00	0	62	0	929038336	48	3985
2026-01-01 08:17:23.75	59.07	16.52	-42.8	-43.6	18.5	0.00e+00	0	62	0	934281216	48	3915
2026-01-01 08:17:24.71	58.92	16.60	-42.5	-43.2	18.9	0.00e+00	0	62	0	940572672	48	3777
2026-01-01 08:17:25.68	58.76	16.67	-42.2	-42.9	19.0	0.00e+00	0	62	0	945815552	47	3863
2026-01-01 08:17:26.65	58.60	16.75	-42.2	-42.9	19.0	0.00e+00	0	62	0	951058432	47	3849
2026-01-01 08:17:27.61	58.44	16.83	-42.1	-42.8	19.1	0.00e+00	0	62	0	956301312	47	3819
2026-01-01 08:17:28.58	58.28	16.90	-42.2	-43.0	19.0	0.00e+00	0	62	0	961544192	47	3869
2026-01-01 08:17:29.55	58.12	16.98	-42.5	-43.2	18.7	0.00e+00	0	62	0	966787072	47	3993
2026-01-01 08:17:30.51	57.96	17.05	-42.6	-43.3	18.6	0.00e+00	0	62	0	973078528	47	4029
2026-01-01 08:17:31.49	57.79	17.13	-42.6	-43.3	18.7	0.00e+00	0	62	0	978321408	47	4034
2026-01-01 08:17:32.46	57.63	17.20	-42.6	-43.3	18.7	0.00e+00	0	62	0	983564288	47	4033
2026-01-01 08:17:33.42	57.47	17.28	-42.4	-43.1	18.8	0.00e+00	0	62	0	988807168	47	3941
2026-01-01 08:17:34.39	57.30	17.36	-42.2	-42.9	19.0	0.00e+00	0	62	0	994050048	47	3856
2026-01-01 08:17:35.36	57.14	17.43	-42.1	-42.8	19.1	0.00e+00	0	62	0	1000341504	47	3820
2026-01-01 08:17:36.33	56.97	17.51	-42.1	-42.8	19.2	0.00e+00	0	62	0	1005584384	47	3786
2026-01-01 08:17:37.30	56.80	17.58	-42.0	-42.7	19.2	0.00e+00	0	62	0	1010827264	47	3770
2026-01-01 08:17:38.27	56.63	17.66	-42.0	-42.8	19.2	0.00e+00	0	62	0	1016070144	47	3783
2026-01-01 08:17:39.24	56.46	17.73	-42.2	-42.9	19.0	0.00e+00	0	62	0	1021313024	47	3859
2026-01-01 08:17:40.20	56.30	17.81	-42.3	-43.0	18.9	0.00e+00	0	62	0	1027604480	47	3896
2026-01-01 08:17:41.17	56.12	17.89	-42.0	-42.7	19.3	0.00e+00	0	62	0	1032847360	47	3757
2026-01-01 08:17:42.14	55.95	17.96	-41.9	-42.6	19.4	0.00e+00	0	62	0	1038090240	46	3932
2026-01-01 08:17:43.11	55.78	18.04	-41.9	-42.6	19.4	0.00e+00	0	62	0	1043333120	46	3931
2026-01-01 08:17:44.07	55.61	18.11	-41.8	-42.5	19.4	0.00e+00	0	62	0	1048576000	46	3906
2026-01-01 08:17:45.04	55.43	18.19	-41.9	-42.6	19.4	0.00e+00	0	62	0	1054867456	46	3925
2026-01-01 08:17:46.01	55.26	18.26	-42.0	-42.7	19.3	0.00e+00	0	62	0	1060110336	46	3978
2026-01-01 08:17:46.97	55.08	18.34	-42.2	-42.9	19.1	0.00e+00	0	62	0	1065353216	46	4052
2026-01-01 08:17:47.94	54.90	18.41	-41.9	-42.6	19.4	0.00e+00	0	62	0	1070596096	46	3929
2026-01-01 08:17:48.90	54.73	18.49	-41.7	-42.3	19.6	0.00e+00	0	62	0	1075838976	46	3824
2026-01-01 08:17:49.87	54.55	18.56	-41.6	-42.3	19.7	0.00e+00	0	62	0	1082130432	46	3803
2026-01-01 08:17:50.84	54.37	18.64	-41.7	-42.3	19.6	0.00e+00	0	62	0	1087373312	46	3819
2026-01-01 08:17:51.82	54.19	18.71	-41.7	-42.4	19.6	0.00e+00	0	62	0	1092616192	46	3829
2026-01-01 08:17:52.79	54.00	18.79	-41.7	-42.4	19.6	0.00e+00	0	62	0	1097859072	46	3853
2026-01-01 08:17:53.76	53.82	18.86	-41.7	-42.4	19.6	0.00e+00	0	62	0	1103101952	46	3825
2026-01-01 08:17:54.73	53.64	18.94	-41.7	-42.4	19.6	0.00e+00	0	62	0	1109393408	46	3851
2026-01-01 08:17:55.70	53.45	19.01	-41.9	-42.6	19.4	0.00e+00	0	62	0	1114636288	46	3929
2026-01-01 08:17:56.67	53.27	19.09	-42.1	-42.7	19.2	0.00e+00	0	62	0	1119879168	46	4004
2026-01-01 08:17:57.64	53.08	19.16	-42.0	-42.7	19.3	0.00e+00	0	62	0	1125122048	46	3984
2026-01-01 08:17:58.60	52.89	19.24	-41.9	-42.6	19.4	0.00e+00	0	62	0	1130364928	46	3923
2026-01-01 08:17:59.57	52.71	19.31	-41.9	-42.5	19.5	0.00e+00	0	62	0	1136656384	46	3904
2026-01-01 08:18:00.54	52.52	19.38	-42.0	-42.7	19.3	0.00e+00	0	62	0	1141899264	46	3968
2026-01-01 08:18:01.51	52.33	19.46	-41.9	-42.6	19.4	0.00e+00	0	62	0	1147142144	46	3951
2026-01-01 08:18:02.47	52.14	19.53	-41.8	-42.5	19.5	0.00e+00	0	62	0	1152385024	46	3894
2026-01-01 08:18:03.44	51.95	19.61	-41.8	-42.5	19.5	0.00e+00	0	62	0	1157627904	46	3878
2026-01-01 08:18:04.41	51.75	19.68	-41.7	-42.4	19.6	0.00e+00	0	62	0	1163919360	46	3826
2026-01-01 08:18:05.38	51.56	19.75	-41.5	-42.1	19.9	0.00e+00	0	62	0	1169162240	46	3728
2026-01-01 08:18:06.34	51.37	19.83	-41.4	-42.0	19.9	0.00e+00	0	62	0	1174405120	46	3694
2026-01-01 08:18:07.31	51.17	19.90	-41.4	-42.0	20.0	0.00e+00	0	62	0	1179648000	45	3888
2026-01-01 08:18:08.28	50.97	19.97	-41.3	-41.9	20.0	0.00e+00	0	62	0	1184890880	45	3863
2026-01-01 08:18:09.24	50.78	20.05	-41.4	-42.0	19.9	0.00e+00	0	62	0	1190133760	45	3889
2026-01-01 08:18:10.22	50.58	20.12	-41.5	-42.2	19.8	0.00e+00	0	62	0	1196425216	45	3967
2026-01-01 08:18:11.18	50.38	20.19	-41.6	-42.3	19.7	0.00e+00	0	62	0	1201668096	45	4028
2026-01-01 08:18:12.15	50.18	20.26	-41.7	-42.3	19.7	0.00e+00	0	62	0	1206910976	45	4031
2026-01-01 08:18:13.14	49.97	20.34	-41.6	-42.3	19.7	0.00e+00	0	62	0	1212153856	45	4028
2026-01-01 08:18:14.11	49.77	20.41	-41.7	-42.4	19.6	0.00e+00	0	62	0	1218445312	45	4064
2026-01-01 08:18:15.08	49.57	20.48	-41.7	-42.3	19.6	0.00e+00	0	62	0	1223688192	45	4045
2026-01-01 08:18:16.04	49.36	20.55	-41.6	-42.2	19.8	0.00e+00	0	62	0	1228931072	45	3988
2026-01-01 08:18:17.01	49.16	20.63	-41.7	-42.3	19.6	0.00e+00	0	62	0	1234173952	45	4047
2026-01-01 08:18:17.98	48.95	20.70	-42.1	-42.8	19.2	0.00e+00	0	62	0	1239416832	46	4041
2026-01-01 08:18:18.94	48.75	20.77	-41.8	-42.5	19.5	0.00e+00	0	62	0	1244659712	46	3873
2026-01-01 08:18:19.91	48.54	20.84	-41.5	-42.2	19.8	0.00e+00	0	62	0	1250951168	46	3750
2026-01-01 08:18:20.88	48.33	20.91	-41.3	-41.9	20.1	0.00e+00	0	62	0	1256194048	45	3845
2026-01-01 08:18:21.85	48.12	20.98	-41.1	-41.7	20.2	0.00e+00	0	62	0	1261436928	45	3778
2026-01-01 08:18:22.82	47.91	21.05	-41.1	-41.8	20.2	0.00e+00	0	62	0	1266679808	45	3782
2026-01-01 08:18:23.79	47.70	21.12	-41.2	-41.8	20.2	0.00e+00	0	62	0	1271922688	45	3794
2026-01-01 08:18:24.75	47.48	21.19	-41.4	-42.0	20.0	0.00e+00	0	62	0	1277165568	45	3890
2026-01-01 08:18:25.73	47.27	21.26	-41.3	-42.0	20.0	0.00e+00	0	62	0	1283457024	45	3872
2026-01-01 08:18:26.69	47.06	21.33	-41.4	-42.1	19.9	0.00e+00	0	62	0	1288699904	45	3931
2026-01-01 08:18:27.67	46.84	21.40	-41.7	-42.4	19.6	0.00e+00	0	62	0	1293942784	45	4074
2026-01-01 08:18:28.64	46.62	21.47	-41.7	-42.3	19.7	0.00e+00	0	62	0	1299185664	45	4048
2026-01-01 08:18:29.61	46.40	21.54	-41.6	-42.2	19.8	0.00e+00	0	62	0	1305477120	45	3988
2026-01-01 08:18:30.57	46.19	21.61	-41.4	-42.1	19.9	0.00e+00	0	62	0	1310720000	45	3916
2026-01-01 08:18:31.54	45.96	21.68	-41.5	-42.1	19.9	0.00e+00	0	62	0	1315962880	45	3938
2026-01-01 08:18:32.51	45.74	21.74	-41.6	-42.3	19.7	0.00e+00	0	62	0	1321205760	45	4036
2026-01-01 08:18:33.48	45.52	21.81	-41.5	-42.1	19.8	0.00e+00	0	62	0	1326448640	45	3958
2026-01-01 08:18:34.45	45.30	21.88	-41.5	-42.1	19.9	0.00e+00	0	62	0	1332740096	45	3937
2026-01-01 08:18:35.41	45.08	21.95	-41.5	-42.1	19.9	0.00e+00	0	62	0	1337982976	45	3938
2026-01-01 08:18:36.38	44.85	22.01	-41.4	-42.1	19.9	0.00e+00	0	62	0	1343225856	45	3915
2026-01-01 08:18:37.35	44.63	22.08	-41.6	-42.2	19.8	0.00e+00	0	62	0	1348468736	45	3987
2026-01-01 08:18:38.32	44.40	22.15	-41.6	-42.3	19.7	0.00e+00	0	62	0	1353711616	45	4042
2026-01-01 08:18:39.28	44.17	22.21	-41.6	-42.3	19.7	0.00e+00	0	62	0	1360003072	45	4013
2026-01-01 08:18:40.25	43.94	22.28	-41.7	-42.4	19.6	0.00e+00	0	62	0	1365245952	45	4081
2026-01-01 08:18:41.22	43.71	22.34	-41.4	-42.0	20.0	0.00e+00	0	62	0	1370488832	45	3886
2026-01-01 08:18:42.20	43.48	22.41	-41.1	-41.7	20.3	0.00e+00	0	62	0	1375731712	45	3750
2026-01-01 08:18:43.17	43.25	22.47	-40.8	-41.5	20.5	0.00e+00	0	62	0	1380974592	44	3872
2026-01-01 08:18:44.14	43.02	22.54	-40.8	-41.4	20.6	0.00e+00	0	62	0	1387266048	44	3854
2026-01-01 08:18:45.11	42.78	22.60	-40.9	-41.4	20.5	0.00e+00	0	62	0	1392508928	44	3867
2026-01-01 08:18:46.08	42.55	22.67	-40.9	-41.5	20.5	0.00e+00	0	62	0	1397751808	44	3892
2026-01-01 08:18:47.05	42.31	22.73	-41.2	-41.9	20.1	0.00e+00	0	62	0	1402994688	44	4053
2026-01-01 08:18:48.02	42.08	22.79	-41.3	-41.9	20.1	0.00e+00	0	62	0	1408237568	44	4077
2026-01-01 08:18:48.98	41.84	22.85	-41.0	-41.6	20.4	0.00e+00	0	62	0	1414529024	44	3932
2026-01-01 08:18:49.95	41.60	22.92	-40.7	-41.4	20.6	0.00e+00	0	62	0	1419771904	44	3825
2026-01-01 08:18:50.92	41.36	22.98	-40.7	-41.3	20.7	0.00e+00	0	62	0	1425014784	44	3787
2026-01-01 08:18:51.89	41.12	23.04	-40.8	-41.4	20.6	0.00e+00	0	62	0	1430257664	44	3826
2026-01-01 08:18:52.86	40.88	23.10	-40.8	-41.4	20.6	0.00e+00	0	62	0	1436549120	44	3827
2026-01-01 08:18:53.83	40.64	23.16	-40.8	-41.5	20.5	0.00e+00	0	62	0	1441792000	44	3873
2026-01-01 08:18:54.80	40.39	23.22	-41.0	-41.6	20.4	0.00e+00	0	62	0	1447034880	44	3942
2026-01-01 08:18:55.77	40.15	23.28	-41.2	-41.8	20.2	0.00e+00	0	62	0	1452277760	44	4028
2026-01-01 08:18:56.74	39.91	23.34	-41.0	-41.6	20.4	0.00e+00	0	62	0	1457520640	44	3924
2026-01-01 08:18:57.71	39.66	23.40	-40.6	-41.2	20.7	0.00e+00	0	62	0	1463812096	44	3766
2026-01-01 08:18:58.68	39.41	23.46	-40.5	-41.1	20.9	0.00e+00	0	62	0	1469054976	44	3709
2026-01-01 08:18:59.65	39.16	23.52	-40.5	-41.1	20.9	0.00e+00	0	62	0	1474297856	44	3715
2026-01-01 08:19:00.62	38.91	23.58	-40.6	-41.2	20.8	0.00e+00	0	62	0	1479540736	44	3744
2026-01-01 08:19:01.59	38.66	23.63	-40.6	-41.2	20.7	0.00e+00	0	62	0	1484783616	44	3775
2026-01-01 08:19:02.55	38.42	23.69	-40.7	-41.3	20.7	0.00e+00	0	62	0	1490026496	44	3795
2026-01-01 08:19:03.52	38.16	23.74	-40.7	-41.3	20.7	0.00e+00	0	62	0	1496317952	44	3783
2026-01-01 08:19:04.49	37.91	23.80	-40.7	-41.3	20.7	0.00e+00	0	62	0	1501560832	44	3782
2026-01-01 08:19:05.46	37.66	23.86	-40.8	-41.4	20.6	0.00e+00	0	62	0	1506803712	44	3851
2026-01-01 08:19:06.43	37.40	23.91	-40.9	-41.5	20.5	0.00e+00	0	62	0	1512046592	44	3878
2026-01-01 08:19:07.40	37.15	23.96	-40.7	-41.3	20.7	0.00e+00	0	62	0	1517289472	44	3803
2026-01-01 08:19:08.39	36.89	24.02	-40.6	-41.2	20.8	0.00e+00	0	62	0	1523580928	44	3757
2026-01-01 08:19:09.38	36.62	24.07	-40.6	-41.2	20.8	0.00e+00	0	62	0	1528823808	44	3747
2026-01-01 08:19:10.37	36.36	24.13	-40.7	-41.3	20.7	0.00e+00	0	62	0	1534066688	44	3795
2026-01-01 08:19:11.34	36.10	24.18	-40.7	-41.3	20.7	0.00e+00	0	62	0	1539309568	44	3790
2026-01-01 08:19:12.30	35.85	24.23	-40.5	-41.0	20.9	0.00e+00	0	62	0	1545601024	44	3688
2026-01-01 08:19:13.27	35.58	24.28	-40.2	-40.8	21.0	0.00e+00	0	62	0	1550843904	43	3807
2026-01-01 08:19:14.24	35.32	24.33	-40.1	-40.8	21.0	0.00e+00	0	62	0	1556086784	43	3800
2026-01-01 08:19:15.21	35.06	24.38	-39.8	-40.8	20.6	0.00e+00	0	62	0	1561329664	42	4046
2026-01-01 08:19:16.18	34.80	24.43	-39.3	-40.8	20.1	0.00e+00	0	62	0	1567621120	41	4267
2026-01-01 08:19:17.15	34.53	24.48	-39.2	-40.9	19.9	0.00e+00	0	62	0	1572864000	41	4302
2026-01-01 08:19:18.12	34.27	24.53	-40.1	-41.1	20.4	0.00e+00	0	62	0	1578106880	41	4401
2026-01-01 08:19:19.09	34.00	24.58	-40.4	-41.1	20.7	0.00e+00	0	62	0	1583349760	42	4160
2026-01-01 08:19:20.06	33.74	24.62	-40.3	-40.9	20.9	0.00e+00	0	62	0	1588592640	42	4091
2026-01-01 08:19:21.02	33.47	24.67	-40.3	-40.9	21.0	0.00e+00	0	62	0	1594884096	42	4052
2026-01-01 08:19:21.99	33.20	24.72	-40.3	-40.8	21.0	0.00e+00	0	62	0	1600126976	42	4048
2026-01-01 08:19:22.96	32.94	24.76	-40.2	-40.8	21.0	0.00e+00	0	62	0	1605369856	42	4032
2026-01-01 08:19:23.92	32.67	24.81	-40.3	-40.8	21.0	0.00e+00	0	62	0	1610612736	42	4042
2026-01-01 08:19:24.89	32.40	24.85	-40.4	-41.0	20.9	0.00e+00	0	62	0	1615855616	42	4114
2026-01-01 08:19:25.85	32.13	24.89	-40.2	-40.8	21.1	0.00e+00	0	62	0	1622147072	42	4010
2026-01-01 08:19:26.83	31.86	24.94	-40.1	-40.6	21.2	0.00e+00	0	62	0	1627389952	42	3942
2026-01-01 08:19:27.79	31.59	24.98	-40.1	-40.7	21.2	0.00e+00	0	62	0	1632632832	42	3976
2026-01-01 08:19:28.76	31.31	25.02	-40.3	-40.8	21.0	0.00e+00	0	62	0	1637875712	42	4049
2026-01-01 08:19:29.73	31.04	25.06	-40.4	-41.0	20.9	0.00e+00	0	62	0	1643118592	42	4105
2026-01-01 08:19:30.71	30.76	25.10	-40.5	-41.1	20.7	0.00e+00	0	62	0	1649410048	42	4188
2026-01-01 08:19:31.68	30.49	25.14	-40.5	-41.1	20.8	0.00e+00	0	62	0	1654652928	42	4186
2026-01-01 08:19:32.65	30.21	25.18	-40.5	-41.1	20.8	0.00e+00	0	62	0	1659895808	42	4164
2026-01-01 08:19:33.62	29.93	25.22	-40.4	-41.0	20.8	0.00e+00	0	62	0	1665138688	42	4139
2026-01-01 08:19:34.58	29.66	25.25	-40.4	-41.0	20.9	0.00e+00	0	62	0	1670381568	42	4109
2026-01-01 08:19:35.55	29.38	25.29	-40.4	-40.9	20.9	0.00e+00	0	62	0	1675624448	42	4089
2026-01-01 08:19:36.52	29.10	25.33	-40.5	-41.0	20.8	0.00e+00	0	62	0	1681915904	42	4143
2026-01-01 08:19:37.49	28.82	25.36	-40.6	-41.2	20.7	0.00e+00	0	62	0	1687158784	42	4212
2026-01-01 08:19:38.45	28.54	25.40	-40.6	-41.2	20.7	0.00e+00	0	62	0	1692401664	43	3983
2026-01-01 08:19:39.42	28.26	25.43	-40.4	-41.0	20.9	0.00e+00	0	62	0	1697644544	43	3888
2026-01-01 08:19:40.39	27.98	25.46	-40.3	-40.9	21.0	0.00e+00	0	62	0	1702887424	43	3832
2026-01-01 08:19:41.36	27.70	25.50	-40.3	-40.9	21.0	0.00e+00	0	62	0	1709178880	43	3837
2026-01-01 08:19:42.32	27.42	25.53	-40.4	-41.0	20.9	0.00e+00	0	62	0	1714421760	43	3883
2026-01-01 08:19:43.28	27.14	25.56	-40.5	-41.1	20.8	0.00e+00	0	62	0	1719664640	43	3947
2026-01-01 08:19:44.25	26.86	25.59	-40.3	-40.9	21.0	0.00e+00	0	62	0	1724907520	43	3854
2026-01-01 08:19:45.23	26.57	25.62	-40.2	-40.8	21.1	0.00e+00	0	62	0	1730150400	43	3794
2026-01-01 08:19:46.20	26.29	25.65	-40.2	-40.8	21.1	0.00e+00	0	62	0	1735393280	43	3802
2026-01-01 08:19:47.16	26.00	25.68	-40.3	-40.8	21.0	0.00e+00	0	62	0	1741684736	43	3818
2026-01-01 08:19:48.13	25.72	25.70	-40.3	-40.9	21.0	0.00e+00	0	62	0	1746927616	43	3829
2026-01-01 08:19:49.10	25.43	25.73	-40.2	-40.8	21.1	0.00e+00	0	62	0	1752170496	43	3807
2026-01-01 08:19:50.07	25.15	25.76	-40.4	-41.0	20.9	0.00e+00	0	62	0	1757413376	43	3877
2026-01-01 08:19:51.04	24.86	25.78	-40.3	-40.9	21.0	0.00e+00	0	62	0	1762656256	43	3828
2026-01-01 08:19:52.01	24.57	25.81	-40.3	-40.9	21.0	0.00e+00	0	62	0	1768947712	43	3851
2026-01-01 08:19:52.98	24.28	25.83	-40.3	-40.8	21.0	0.00e+00	0	62	0	1774190592	43	3822
2026-01-01 08:19:53.94	24.00	25.85	-40.4	-41.0	20.9	0.00e+00	0	62	0	1779433472	43	3891
2026-01-01 08:19:54.91	23.71	25.88	-40.8	-41.4	20.5	0.00e+00	0	62	0	1784676352	43	4073
2026-01-01 08:19:55.87	23.42	25.90	-40.6	-41.2	20.7	0.00e+00	0	62	0	1789919232	43	3998
2026-01-01 08:19:56.84	23.13	25.92	-40.6	-41.2	20.7	0.00e+00	0	62	0	1796210688	43	3981
2026-01-01 08:19:57.82	22.84	25.94	-40.7	-41.3	20.7	0.00e+00	0	62	0	1801453568	43	4007
2026-01-01 08:19:58.78	22.55	25.96	-41.0	-41.6	20.3	0.00e+00	0	62	0	1806696448	43	4167
2026-01-01 08:19:59.75	22.26	25.97	-40.9	-41.5	20.4	0.00e+00	0	62	0	1811939328	43	4123
2026-01-01 08:20:00.72	21.97	25.99	-40.6	-41.2	20.7	0.00e+00	0	62	0	1817182208	43	3988
2026-01-01 08:20:01.69	21.68	26.01	-40.6	-41.2	20.7	0.00e+00	0	62	0	1823473664	43	3982
2026-01-01 08:20:02.66	21.39	26.02	-40.7	-41.3	20.6	0.00e+00	0	62	0	1828716544	43	4051
2026-01-01 08:20:03.63	21.10	26.04	-40.6	-41.2	20.7	0.00e+00	0	62	0	1833959424	43	3965
2026-01-01 08:20:04.60	20.80	26.05	-40.3	-40.9	21.0	0.00e+00	0	62	0	1839202304	43	3828
2026-01-01 08:20:05.57	20.51	26.07	-40.1	-40.6	21.2	0.00e+00	0	62	0	1845493760	43	3735
2026-01-01 08:20:06.54	20.22	26.08	-40.0	-40.6	21.3	0.00e+00	0	62	0	1850736640	43	3698
2026-01-01 08:20:07.52	19.92	26.09	-39.9	-40.5	21.4	0.00e+00	0	62	0	1855979520	43	3655
2026-01-01 08:20:08.49	19.63	26.10	-39.8	-40.3	21.5	0.00e+00	0	62	0	1861222400	42	3797
2026-01-01 08:20:09.46	19.34	26.11	-39.7	-40.2	21.6	0.00e+00	0	62	0	1866465280	42	3776
2026-01-01 08:20:10.43	19.04	26.12	-39.7	-40.3	21.6	0.00e+00	0	62	0	1872756736	42	3784
2026-01-01 08:20:11.40	18.75	26.13	-39.9	-40.4	21.4	0.00e+00	0	62	0	1877999616	42	3846
2026-01-01 08:20:12.36	18.46	26.14	-39.9	-40.5	21.4	0.00e+00	0	62	0	1883242496	42	3872
2026-01-01 08:20:13.33	18.17	26.14	-39.9	-40.4	21.5	0.00e+00	0	62	0	1888485376	42	3847
2026-01-01 08:20:14.29	17.88	26.15	-40.0	-40.5	21.3	0.00e+00	0	62	0	1893728256	42	3902
2026-01-01 08:20:15.26	17.58	26.15	-40.2	-40.8	21.1	0.00e+00	0	62	0	1900019712	42	4005
2026-01-01 08:20:16.23	17.29	26.16	-40.4	-41.0	20.9	0.00e+00	0	62	0	1905262592	42	4116
2026-01-01 08:20:17.20	16.99	26.16	-40.5	-41.1	20.8	0.00e+00	0	62	0	1910505472	42	4151
2026-01-01 08:20:18.17	16.70	26.16	-40.4	-41.0	20.8	0.00e+00	0	62	0	1915748352	42	4137
2026-01-01 08:20:19.14	16.40	26.17	-40.4	-40.9	20.8	0.00e+00	0	62	0	1920991232	42	4092
2026-01-01 08:20:20.11	16.11	26.17	-40.4	-41.0	20.8	0.00e+00	0	62	0	1927282688	42	4130
2026-01-01 08:20:21.09	15.81	26.17	-40.5	-41.1	20.7	0.00e+00	0	62	0	1932525568	42	4171
2026-01-01 08:20:22.06	15.52	26.17	-40.6	-41.2	20.5	0.00e+00	0	62	0	1937768448	43	4003
2026-01-01 08:20:23.03	15.22	26.17	-40.2	-40.8	20.9	0.00e+00	0	62	0	1943011328	43	3788
2026-01-01 08:20:24.00	14.93	26.16	-39.7	-40.3	21.3	0.00e+00	0	62	0	1948254208	42	3791
2026-01-01 08:20:24.97	14.64	26.16	-39.7	-40.2	21.3	0.00e+00	0	62	0	1954545664	42	3767
2026-01-01 08:20:25.93	14.34	26.16	-39.8	-40.3	21.0	0.00e+00	0	62	0	1959788544	42	3817
2026-01-01 08:20:26.90	14.05	26.15	-40.1	-40.7	20.7	0.00e+00	0	62	0	1965031424	42	3971
2026-01-01 08:20:27.87	13.76	26.15	-40.5	-41.1	20.2	0.00e+00	0	62	0	1970274304	42	4189
2026-01-01 08:20:28.84	13.46	26.14	-40.8	-41.5	19.7	0.00e+00	0	62	0	1975517184	43	4107
2026-01-01 08:20:29.81	13.17	26.13	-41.5	-42.2	19.1	0.00e+00	0	62	0	1981808640	44	4222
2026-01-01 08:20:30.77	12.88	26.12	-41.9	-42.7	18.5	0.00e+00	0	62	0	1987051520	45	4239
2026-01-01 08:20:31.75	12.58	26.11	-42.4	-43.3	17.8	0.00e+00	0	62	0	1992294400	46	4265
2026-01-01 08:20:32.71	12.29	26.10	-42.9	-43.8	17.2	0.00e+00	0	62	0	1997537280	47	4277
2026-01-01 08:20:33.69	12.00	26.09	-43.3	-44.3	16.8	0.00e+00	0	62	0	2002780160	48	4251
2026-01-01 08:20:34.65	11.71	26.08	-43.7	-44.7	16.3	0.00e+00	0	62	0	2008023040	49	4242
2026-01-01 08:20:35.62	11.41	26.07	-44.4	-45.6	15.4	0.00e+00	0	62	0	2014314496	50	4406
2026-01-01 08:20:36.59	11.12	26.06	-44.9	-46.3	14.6	2.20e-06	0	62	0	2019557376	51	4510
2026-01-01 08:20:37.56	10.83	26.04	-45.4	-47.0	13.6	3.40e-06	0	62	0	2024800256	52	4617
2026-01-01 08:20:38.53	10.54	26.03	-46.0	-47.9	12.6	7.20e-05	0	62	0	2030043136	53	4816
2026-01-01 08:20:39.50	10.24	26.01	-46.4	-48.4	12.1	2.59e-04	0	62	0	2035286016	54	4838
2026-01-01 08:20:40.47	9.95	26.00	-46.5	-48.5	11.9	5.55e-04	0	62	0	2041577472	54	4912
2026-01-01 08:20:41.44	9.66	25.98	-46.2	-48.0	12.6	2.28e-04	0	62	0	2046820352	54	4603
2026-01-01 08:20:42.40	9.37	25.96	-45.6	-47.1	13.8	3.43e-05	0	62	0	2052063232	54	4182
2026-01-01 08:20:43.37	9.08	25.94	-44.9	-46.2	14.9	1.10e-06	0	62	0	2057306112	53	3991
2026-01-01 08:20:44.34	8.79	25.92	-44.4	-45.4	16.0	0.00e+00	0	62	0	2062548992	51	4092
2026-01-01 08:20:45.31	8.50	25.90	-43.6	-44.5	17.3	0.00e+00	0	62	0	2068840448	50	3880
2026-01-01 08:20:46.27	8.22	25.88	-43.1	-43.8	18.1	0.00e+00	0	62	0	2074083328	49	3821
2026-01-01 08:20:47.24	7.93	25.86	-42.8	-43.6	18.4	0.00e+00	0	62	0	2079326208	48	3938
2026-01-01 08:20:48.21	7.64	25.84	-43.0	-43.8	18.3	0.00e+00	0	62	0	2084569088	48	4012
2026-01-01 08:20:49.17	7.36	25.81	-42.2	-42.9	19.0	0.00e+00	0	62	0	2089811968	47	3846
2026-01-01 08:20:50.14	7.07	25.79	-42.2	-42.9	19.0	0.00e+00	0	62	0	2095054848	47	3843
2026-01-01 08:20:51.11	6.78	25.76	-42.3	-43.0	18.9	0.00e+00	0	62	0	2101346304	47	3889
2026-01-01 08:20:52.08	6.49	25.74	-42.0	-42.7	19.1	0.00e+00	0	62	0	2106589184	47	3779
2026-01-01 08:20:53.05	6.21	25.71	-42.0	-42.7	19.2	0.00e+00	0	62	0	2111832064	47	3746
2026-01-01 08:20:54.02	5.92	25.69	-42.1	-42.8	19.0	0.00e+00	0	62	0	2117074944	47	3818
2026-01-01 08:20:54.99	5.64	25.66	-42.3	-43.1	18.8	0.00e+00	0	62	0	2123366400	47	3925
2026-01-01 08:20:55.96	5.35	25.63	-42.7	-43.4	18.4	0.00e+00	0	62	0	2128609280	47	4084
2026-01-01 08:20:56.93	5.07	25.60	-43.5	-44.4	17.5	0.00e+00	0	62	0	2133852160	48	4314
2026-01-01 08:20:57.90	4.79	25.57	-44.4	-45.5	16.2	0.00e+00	0	62	0	2139095040	50	4347
2026-01-01 08:20:58.87	4.50	25.54	-46.1	-47.6	13.6	3.40e-06	0	62	0	2144337920	53	4696
2026-01-01 08:20:59.83	4.22	25.51	-46.9	-49.0	12.0	2.54e-04	0	62	0	2150629376	55	4873
2026-01-01 08:21:00.80	3.94	25.47	-48.4	-51.3	9.5	3.89e-03	0	62	0	2155872256	58	5357
2026-01-01 08:21:01.77	3.66	25.44	-48.5	-51.6	9.2	3.25e-02	0	62	0	2161115136	59	5225
2026-01-01 08:21:02.74	3.38	25.41	-46.3	-47.9	13.1	1.61e-03	0	62	0	2166358016	55	4322
2026-01-01 08:21:03.71	3.10	25.37	-43.8	-44.7	16.8	0.00e+00	0	62	0	2171600896	50	4001
2026-01-01 08:21:04.68	2.82	25.34	-42.4	-43.2	18.8	0.00e+00	0	62	0	2177892352	48	3749
2026-01-01 08:21:05.66	2.54	25.30	-41.7	-42.4	19.6	0.00e+00	0	62	0	2183135232	46	3847
2026-01-01 08:21:06.63	2.26	25.26	-41.7	-42.3	19.7	0.00e+00	0	62	0	2188378112	46	3819
2026-01-01 08:21:07.60	1.98	25.23	-41.6	-42.2	19.8	0.00e+00	0	62	0	2193620992	46	3771
2026-01-01 08:21:08.56	1.71	25.19	-41.2	-41.8	20.1	0.00e+00	0	62	0	2198863872	45	3810
2026-01-01 08:21:09.53	1.43	25.15	-40.9	-41.5	20.4	0.00e+00	0	62	0	2205155328	45	3686
2026-01-01 08:21:10.50	1.16	25.11	-40.7	-41.3	20.6	0.00e+00	0	62	0	2210398208	44	3810
2026-01-01 08:21:11.48	0.88	25.07	-40.6	-41.2	20.8	0.00e+00	0	62	0	2215641088	44	3745
2026-01-01 08:21:12.45	0.60	25.03	-40.7	-41.3	20.6	0.00e+00	0	62	0	2220883968	44	3802
2026-01-01 08:21:13.42	0.33	24.99	-41.0	-41.6	20.4	0.00e+00	0	62	0	2226126848	44	3926
2026-01-01 08:21:14.39	0.06	24.95	-40.9	-41.5	20.5	0.00e+00	0	62	0	2232418304	44	3887
2026-01-01 08:21:15.36	359.79	24.90	-41.2	-41.8	20.2	0.00e+00	0	62	0	2237661184	44	4014
2026-01-01 08:21:16.33	359.52	24.86	-41.2	-41.8	20.1	0.00e+00	0	62	0	2242904064	44	4047
2026-01-01 08:21:17.30	359.25	24.82	-40.9	-41.5	20.5	0.00e+00	0	62	0	2248146944	44	3892
2026-01-01 08:21:18.29	358.97	24.77	-40.7	-41.3	20.6	0.00e+00	0	62	0	2254438400	44	3817
2026-01-01 08:21:19.26	358.70	24.73	-40.8	-41.4	20.6	0.00e+00	0	62	0	2259681280	44	3840
2026-01-01 08:21:20.23	358.43	24.68	-40.8	-41.4	20.6	0.00e+00	0	62	0	2264924160	44	3833
2026-01-01 08:21:21.20	358.17	24.63	-40.7	-41.3	20.7	0.00e+00	0	62	0	2270167040	44	3786
2026-01-01 08:21:22.17	357.90	24.59	-40.6	-41.2	20.8	0.00e+00	0	62	0	2275409920	44	3756
2026-01-01 08:21:23.14	357.63	24.54	-40.6	-41.2	20.7	0.00e+00	0	62	0	2281701376	44	3763
2026-01-01 08:21:24.12	357.37	24.49	-40.6	-41.2	20.7	0.00e+00	0	62	0	2286944256	44	3761
2026-01-01 08:21:25.08	357.10	24.44	-41.0	-41.6	20.4	0.00e+00	0	62	0	2292187136	44	3940
2026-01-01 08:21:26.05	356.84	24.39	-41.0	-41.6	20.3	0.00e+00	0	62	0	2297430016	44	3943
2026-01-01 08:21:27.03	356.58	24.34	-40.6	-41.2	20.8	0.00e+00	0	62	0	2302672896	44	3757
2026-01-01 08:21:28.00	356.31	24.29	-41.3	-41.9	20.1	0.00e+00	0	62	0	2308964352	44	4079
2026-01-01 08:21:28.97	356.05	24.24	-40.9	-41.5	20.4	0.00e+00	0	62	0	2314207232	44	3896
2026-01-01 08:21:29.94	355.79	24.19	-40.6	-41.2	20.7	0.00e+00	0	62	0	2319450112	44	3759
2026-01-01 08:21:30.90	355.54	24.14	-40.3	-40.8	21.0	0.00e+00	0	62	0	2324692992	43	3820
2026-01-01 08:21:31.87	355.28	24.09	-40.1	-40.7	21.1	0.00e+00	0	62	0	2329935872	43	3738
2026-01-01 08:21:32.84	355.02	24.03	-40.0	-40.6	21.2	0.00e+00	0	62	0	2336227328	43	3709
2026-01-01 08:21:33.81	354.77	23.98	-40.1	-40.6	21.1	0.00e+00	0	62	0	2341470208	43	3719
2026-01-01 08:21:34.78	354.51	23.93	-40.1	-40.6	21.2	0.00e+00	0	62	0	2346713088	43	3727
2026-01-01 08:21:35.75	354.26	23.87	-40.2	-40.8	21.0	0.00e+00	0	62	0	2351955968	43	3809
2026-01-01 08:21:36.72	354.00	23.82	-40.2	-40.8	21.0	0.00e+00	0	62	0	2357198848	43	3807
2026-01-01 08:21:37.69	353.75	23.76	-40.1	-40.7	21.1	0.00e+00	0	62	0	2363490304	43	3762
2026-01-01 08:21:38.66	353.50	23.70	-40.1	-40.6	21.2	0.00e+00	0	62	0	2368733184	43	3731
2026-01-01 08:21:39.64	353.24	23.65	-40.2	-40.8	21.0	0.00e+00	0	62	0	2373976064	43	3796
2026-01-01 08:21:40.61	352.99	23.59	-40.2	-40.7	21.1	0.00e+00	0	62	0	2379218944	43	3769
2026-01-01 08:21:41.58	352.75	23.53	-40.1	-40.6	21.2	0.00e+00	0	62	0	2384461824	43	3727
2026-01-01 08:21:42.55	352.50	23.47	-40.0	-40.6	21.2	0.00e+00	0	62	0	2390753280	43	3701
2026-01-01 08:21:43.51	352.25	23.42	-40.2	-40.7	21.1	0.00e+00	0	62	0	2395996160	43	3772
2026-01-01 08:21:44.47	352.01	23.36	-40.3	-40.9	20.9	0.00e+00	0	62	0	2401239040	43	3832
2026-01-01 08:21:45.44	351.76	23.30	-40.1	-40.7	21.1	0.00e+00	0	62	0	2406481920	43	3753
2026-01-01 08:21:46.40	351.52	23.24	-40.2	-40.8	21.0	0.00e+00	0	62	0	2411724800	43	3789
2026-01-01 08:21:47.37	351.28	23.18	-40.4	-41.0	20.8	0.00e+00	0	62	0	2418016256	43	3901
2026-01-01 08:21:48.34	351.04	23.12	-40.5	-41.1	20.7	0.00e+00	0	62	0	2423259136	43	3945
2026-01-01 08:21:49.31	350.79	23.06	-40.4	-41.0	20.8	0.00e+00	0	62	0	2428502016	43	3871
2026-01-01 08:21:50.28	350.55	23.00	-40.4	-41.0	20.8	0.00e+00	0	62	0	2433744896	43	3870
2026-01-01 08:21:51.25	350.31	22.93	-40.4	-41.0	20.8	0.00e+00	0	62	0	2438987776	43	3888
2026-01-01 08:21:52.22	350.08	22.87	-40.6	-41.2	20.6	0.00e+00	0	62	0	2445279232	43	3960
2026-01-01 08:21:53.18	349.84	22.81	-40.6	-41.2	20.6	0.00e+00	0	62	0	2450522112	43	3981
2026-01-01 08:21:54.15	349.60	22.75	-40.7	-41.4	20.4	0.00e+00	0	62	0	2455764992	43	4059
2026-01-01 08:21:55.13	349.36	22.68	-40.6	-41.2	20.6	0.00e+00	0	62	0	2461007872	43	3986
2026-01-01 08:21:56.10	349.13	22.62	-40.5	-41.1	20.6	0.00e+00	0	62	0	2466250752	43	3953
2026-01-01 08:21:57.07	348.90	22.56	-40.5	-41.1	20.7	0.00e+00	0	62	0	2472542208	43	3914
2026-01-01 08:21:58.04	348.66	22.49	-40.4	-41.0	20.8	0.00e+00	0	62	0	2477785088	43	3876
2026-01-01 08:21:59.01	348.43	22.43	-40.4	-41.0	20.8	0.00e+00	0	62	0	2483027968	43	3869
2026-01-01 08:21:59.99	348.20	22.36	-40.4	-41.0	20.8	0.00e+00	0	62	0	2488270848	43	3888
2026-01-01 08:22:00.95	347.97	22.30	-40.4	-41.0	20.8	0.00e+00	0	62	0	2494562304	43	3889
2026-01-01 08:22:01.92	347.74	22.23	-40.6	-41.2	20.6	0.00e+00	0	62	0	2499805184	43	3988
2026-01-01 08:22:02.88	347.52	22.17	-40.5	-41.0	20.7	0.00e+00	0	62	0	2505048064	43	3900
2026-01-01 08:22:03.85	347.29	22.10	-40.4	-41.0	20.8	0.00e+00	0	62	0	2510290944	43	3870
2026-01-01 08:22:04.82	347.06	22.03	-40.7	-41.3	20.5	0.00e+00	0	62	0	2515533824	43	4018
2026-01-01 08:22:05.78	346.84	21.97	-40.7	-41.4	20.4	0.00e+00	0	62	0	2520776704	43	4053
2026-01-01 08:22:06.76	346.61	21.90	-40.9	-41.5	20.3	0.00e+00	0	62	0	2527068160	43	4121
2026-01-01 08:22:07.73	346.39	21.83	-40.9	-41.6	20.2	0.00e+00	0	62	0	2532311040	43	4148
2026-01-01 08:22:08.69	346.17	21.76	-40.9	-41.5	20.2	0.00e+00	0	62	0	2537553920	43	4123
2026-01-01 08:22:09.67	345.95	21.70	-40.8	-41.5	20.3	0.00e+00	0	62	0	2542796800	43	4099
2026-01-01 08:22:10.63	345.73	21.63	-41.0	-41.7	20.1	0.00e+00	0	62	0	2548039680	43	4198
2026-01-01 08:22:11.61	345.51	21.56	-40.9	-41.5	20.2	0.00e+00	0	62	0	2554331136	43	4143
2026-01-01 08:22:12.58	345.29	21.49	-40.9	-41.5	20.3	0.00e+00	0	62	0	2559574016	43	4101
2026-01-01 08:22:13.55	345.07	21.42	-40.7	-41.3	20.5	0.00e+00	0	62	0	2564816896	43	4005
2026-01-01 08:22:14.51	344.86	21.35	-40.9	-41.5	20.3	0.00e+00	0	62	0	2570059776	43	4118
2026-01-01 08:22:15.48	344.64	21.28	-41.2	-41.8	20.1	0.00e+00	0	62	0	2575302656	44	4023
2026-01-01 08:22:16.44	344.43	21.21	-41.3	-41.9	20.0	0.00e+00	0	62	0	2580545536	44	4089
2026-01-01 08:22:17.41	344.22	21.14	-41.5	-42.1	19.8	0.00e+00	0	62	0	2586836992	44	4186
2026-01-01 08:22:18.37	344.01	21.07	-41.5	-42.2	19.7	0.00e+00	0	62	0	2592079872	44	4227
2026-01-01 08:22:19.34	343.80	21.00	-41.7	-42.3	19.5	0.00e+00	0	62	0	2597322752	45	4045
2026-01-01 08:22:20.31	343.59	20.93	-41.5	-42.2	19.7	0.00e+00	0	62	0	2602565632	45	3962
2026-01-01 08:22:21.27	343.38	20.86	-41.7	-42.4	19.5	0.00e+00	0	62	0	2607808512	45	4075
2026-01-01 08:22:22.25	343.17	20.79	-41.9	-42.6	19.2	0.00e+00	0	62	0	2614099968	45	4190
2026-01-01 08:22:23.21	342.96	20.72	-41.9	-42.6	19.2	0.00e+00	0	62	0	2619342848	45	4179
2026-01-01 08:22:24.19	342.75	20.65	-42.1	-42.9	19.0	0.00e+00	0	62	0	2624585728	46	4054
2026-01-01 08:22:25.15	342.55	20.58	-41.9	-42.6	19.3	0.00e+00	0	62	0	2629828608	46	3921
2026-01-01 08:22:26.12	342.35	20.50	-41.6	-42.2	19.6	0.00e+00	0	62	0	2635071488	46	3772
2026-01-01 08:22:27.10	342.14	20.43	-41.5	-42.1	19.6	0.00e+00	0	62	0	2641362944	46	3730
2026-01-01 08:22:28.07	341.94	20.36	-41.6	-42.2	19.5	0.00e+00	0	62	0	2646605824	46	3773
2026-01-01 08:22:29.05	341.73	20.29	-41.8	-42.5	19.2	0.00e+00	0	62	0	2651848704	46	3879
2026-01-01 08:22:30.02	341.53	20.21	-42.1	-42.8	18.9	0.00e+00	0	62	0	2657091584	46	4042
2026-01-01 08:22:30.99	341.33	20.14	-42.2	-43.0	18.6	0.00e+00	0	62	0	2662334464	46	4123
2026-01-01 08:22:31.96	341.13	20.07	-42.8	-43.6	17.9	0.00e+00	0	62	0	2668625920	47	4191
2026-01-01 08:22:32.93	340.94	19.99	-43.0	-43.9	17.6	0.00e+00	0	62	0	2673868800	47	4316
2026-01-01 08:22:33.90	340.74	19.92	-43.7	-44.7	16.9	0.00e+00	0	62	0	2679111680	49	4207
2026-01-01 08:22:34.86	340.55	19.85	-43.8	-44.7	16.8	0.00e+00	0	62	0	2684354560	49	4240
2026-01-01 08:22:35.83	340.35	19.78	-44.2	-45.2	16.3	0.00e+00	0	62	0	2690646016	50	4201
2026-01-01 08:22:36.80	340.16	19.70	-44.2	-45.3	16.2	0.00e+00	0	62	0	2695888896	50	4249
2026-01-01 08:22:37.77	339.96	19.63	-44.1	-45.2	16.3	0.00e+00	0	62	0	2701131776	50	4195
2026-01-01 08:22:38.74	339.77	19.55	-44.2	-45.3	16.2	0.00e+00	0	62	0	2706374656	50	4253
2026-01-01 08:22:39.71	339.58	19.48	-44.4	-45.4	16.0	0.00e+00	0	62	0	2711617536	50	4335
2026-01-01 08:22:40.68	339.39	19.41	-44.6	-45.7	15.7	0.00e+00	0	62	0	2717908992	51	4242
2026-01-01 08:22:41.66	339.20	19.33	-44.7	-45.8	15.6	0.00e+00	0	62	0	2723151872	51	4290
2026-01-01 08:22:42.63	339.01	19.26	-44.7	-45.9	15.6	1.10e-06	0	62	0	2728394752	51	4293
2026-01-01 08:22:43.60	338.82	19.18	-44.4	-45.5	16.0	0.00e+00	0	62	0	2733637632	51	4122
2026-01-01 08:22:44.57	338.64	19.11	-43.4	-44.3	17.1	0.00e+00	0	62	0	2738880512	50	3823
2026-01-01 08:22:45.54	338.45	19.03	-42.6	-43.4	18.1	0.00e+00	0	62	0	2745171968	48	3844
2026-01-01 08:22:46.51	338.27	18.96	-41.9	-42.6	18.7	0.00e+00	0	62	0	2750414848	47	3725
2026-01-01 08:22:47.47	338.08	18.88	-41.5	-42.2	19.2	0.00e+00	0	62	0	2755657728	46	3764
2026-01-01 08:22:48.44	337.90	18.81	-41.2	-41.9	19.6	0.00e+00	0	62	0	2760900608	45	3826
2026-01-01 08:22:49.41	337.72	18.73	-40.9	-41.5	20.0	0.00e+00	0	62	0	2766143488	44	3889
2026-01-01 08:22:50.37	337.54	18.66	-40.7	-41.3	20.2	0.00e+00	0	62	0	2772434944	44	3800
2026-01-01 08:22:51.35	337.36	18.58	-40.8	-41.4	20.2	0.00e+00	0	62	0	2777677824	44	3833
2026-01-01 08:22:52.32	337.18	18.51	-41.0	-41.6	20.0	0.00e+00	0	62	0	2782920704	44	3956
2026-01-01 08:22:53.29	337.00	18.43	-41.3	-42.0	19.7	0.00e+00	0	62	0	2788163584	44	4108
2026-01-01 08:22:54.26	336.82	18.36	-41.6	-42.3	19.4	0.00e+00	0	62	0	2793406464	45	4039
2026-01-01 08:22:55.23	336.65	18.28	-41.6	-42.3	19.5	0.00e+00	0	62	0	2799697920	45	4015
2026-01-01 08:22:56.20	336.47	18.21	-41.6	-42.3	19.5	0.00e+00	0	62	0	2804940800	45	4013
2026-01-01 08:22:57.17	336.30	18.13	-41.6	-42.3	19.5	0.00e+00	0	62	0	2810183680	45	4042
2026-01-01 08:22:58.13	336.12	18.06	-41.9	-42.6	19.3	0.00e+00	0	62	0	2815426560	45	4169
2026-01-01 08:22:59.11	335.95	17.98	-41.9	-42.6	19.2	0.00e+00	0	62	0	2820669440	45	4188
2026-01-01 08:23:00.08	335.78	17.91	-41.7	-42.4	19.4	0.00e+00	0	62	0	2826960896	45	4087
2026-01-01 08:23:01.05	335.61	17.83	-41.9	-42.6	19.3	0.00e+00	0	62	0	2832203776	45	4170
2026-01-01 08:23:02.01	335.44	17.76	-41.6	-42.3	19.6	0.00e+00	0	62	0	2837446656	45	4023
2026-01-01 08:23:02.98	335.27	17.68	-41.5	-42.1	19.7	0.00e+00	0	62	0	2842689536	45	3950
2026-01-01 08:23:03.95	335.10	17.60	-41.5	-42.1	19.8	0.00e+00	0	62	0	2847932416	45	3938
2026-01-01 08:23:04.92	334.93	17.53	-41.6	-42.3	19.6	0.00e+00	0	62	0	2854223872	45	4012
2026-01-01 08:23:05.89	334.76	17.45	-41.6	-42.2	19.6	0.00e+00	0	62	0	2859466752	45	3992
2026-01-01 08:23:06.86	334.60	17.38	-41.8	-42.5	19.4	0.00e+00	0	62	0	2864709632	45	4130
2026-01-01 08:23:07.83	334.43	17.30	-41.7	-42.4	19.5	0.00e+00	0	62	0	2869952512	45	4082
2026-01-01 08:23:08.79	334.27	17.23	-41.9	-42.6	19.2	0.00e+00	0	63	0	2875195392	45	4179
2026-01-01 08:23:09.76	334.11	17.15	-41.8	-42.5	19.4	0.00e+00	0	62	0	2881486848	45	4129
2026-01-01 08:23:10.74	333.94	17.07	-42.0	-42.6	19.2	0.00e+00	0	62	0	2886729728	45	4190
2026-01-01 08:23:11.71	333.78	17.00	-42.0	-42.7	19.3	0.00e+00	0	62	0	2891972608	45	4196
2026-01-01 08:23:12.68	333.62	16.92	-41.9	-42.6	19.3	0.00e+00	0	62	0	2897215488	45	4170
2026-01-01 08:23:13.64	333.46	16.85	-42.0	-42.7	19.2	0.00e+00	0	62	0	2902458368	45	4224
2026-01-01 08:23:14.62	333.30	16.77	-42.0	-42.7	19.2	0.00e+00	0	62	0	2908749824	45	4219
2026-01-01 08:23:15.58	333.14	16.70	-42.0	-42.7	19.2	0.00e+00	0	62	0	2913992704	45	4197
2026-01-01 08:23:16.56	332.98	16.62	-41.9	-42.6	19.2	0.00e+00	0	62	0	2919235584	45	4170
2026-01-01 08:23:17.52	332.83	16.54	-42.0	-42.7	19.2	0.00e+00	0	62	0	2924478464	45	4195
2026-01-01 08:23:18.49	332.67	16.47	-41.9	-42.6	19.3	0.00e+00	0	62	0	2929721344	45	4174
2026-01-01 08:23:19.46	332.52	16.39	-41.9	-42.6	19.3	0.00e+00	0	62	0	2936012800	45	4169
2026-01-01 08:23:20.43	332.36	16.32	-42.0	-42.7	19.2	0.00e+00	0	62	0	2941255680	45	4216
2026-01-01 08:23:21.39	332.21	16.24	-42.0	-42.7	19.1	0.00e+00	0	62	0	2946498560	46	4004
2026-01-01 08:23:22.36	332.06	16.17	-42.1	-42.8	19.1	0.00e+00	0	62	0	2951741440	46	4029
2026-01-01 08:23:23.33	331.90	16.09	-42.1	-42.8	19.1	0.00e+00	0	62	0	2956984320	46	4036
2026-01-01 08:23:24.30	331.75	16.01	-42.1	-42.8	19.1	0.00e+00	0	62	0	2962227200	46	4021
2026-01-01 08:23:25.27	331.60	15.94	-42.1	-42.8	19.1	0.00e+00	0	62	0	2968518656	46	4036
2026-01-01 08:23:26.24	331.45	15.86	-42.1	-42.8	19.1	0.00e+00	0	62	0	2973761536	46	4016
2026-01-01 08:23:27.21	331.30	15.79	-42.2	-42.9	19.0	0.00e+00	0	62	0	2979004416	46	4090
2026-01-01 08:23:28.17	331.15	15.71	-42.1	-42.8	19.1	0.00e+00	0	62	0	2984247296	46	4018
2026-01-01 08:23:29.14	331.01	15.64	-42.1	-42.8	19.1	0.00e+00	0	62	0	2989490176	46	4018
2026-01-01 08:23:30.11	330.86	15.56	-42.2	-42.9	19.0	0.00e+00	0	62	0	2995781632	46	4072
2026-01-01 08:23:31.08	330.71	15.49	-42.3	-43.0	18.9	0.00e+00	0	62	0	3001024512	46	4136
2026-01-01 08:23:32.05	330.57	15.41	-42.4	-43.2	18.8	0.00e+00	0	62	0	3006267392	46	4194
2026-01-01 08:23:33.02	330.42	15.34	-42.1	-42.9	19.0	0.00e+00	0	62	0	3011510272	46	4064
2026-01-01 08:23:33.99	330.28	15.26	-42.2	-43.0	18.9	0.00e+00	0	62	0	3016753152	46	4102
2026-01-01 08:23:34.95	330.14	15.19	-42.4	-43.1	18.8	0.00e+00	0	62	0	3023044608	46	4187
2026-01-01 08:23:35.91	330.00	15.11	-42.7	-43.4	18.5	0.00e+00	0	62	0	3028287488	47	4088
2026-01-01 08:23:36.88	329.86	15.04	-42.4	-43.2	18.7	0.00e+00	0	62	0	3033530368	47	3964
2026-01-01 08:23:37.85	329.71	14.96	-42.2	-42.9	19.0	0.00e+00	0	62	0	3038773248	47	3836
2026-01-01 08:23:38.81	329.58	14.89	-42.1	-42.8	19.1	0.00e+00	0	62	0	3044016128	47	3797
2026-01-01 08:23:39.78	329.44	14.81	-42.2	-42.9	19.0	0.00e+00	0	62	0	3050307584	47	3850
2026-01-01 08:23:40.76	329.30	14.74	-42.3	-43.0	18.9	0.00e+00	0	62	0	3055550464	47	3884
2026-01-01 08:23:41.72	329.16	14.66	-42.4	-43.1	18.8	0.00e+00	0	62	0	3060793344	47	3929
2026-01-01 08:23:42.69	329.02	14.59	-42.4	-43.1	18.7	0.00e+00	0	62	0	3066036224	47	3946
2026-01-01 08:23:43.65	328.89	14.51	-42.3	-43.0	18.9	0.00e+00	0	62	0	3071279104	47	3899
2026-01-01 08:23:44.62	328.75	14.44	-42.4	-43.2	18.7	0.00e+00	0	62	0	3077570560	47	3966
2026-01-01 08:23:45.59	328.62	14.37	-42.4	-43.2	18.7	0.00e+00	0	62	0	3082813440	47	3966
2026-01-01 08:23:46.56	328.48	14.29	-42.4	-43.1	18.7	0.00e+00	0	62	0	3088056320	47	3944
2026-01-01 08:23:47.53	328.35	14.22	-42.4	-43.1	18.7	0.00e+00	0	62	0	3093299200	47	3941
2026-01-01 08:23:48.50	328.21	14.14	-42.5	-43.2	18.7	0.00e+00	0	62	0	3098542080	47	3989
2026-01-01 08:23:49.46	328.08	14.07	-42.5	-43.3	18.6	0.00e+00	0	62	0	3104833536	47	4012
2026-01-01 08:23:50.43	327.95	13.99	-42.5	-43.3	18.6	0.00e+00	0	62	0	3110076416	47	4015
2026-01-01 08:23:51.40	327.82	13.92	-42.6	-43.4	18.5	0.00e+00	0	62	0	3115319296	47	4073
2026-01-01 08:23:52.37	327.69	13.85	-42.5	-43.3	18.6	0.00e+00	0	62	0	3120562176	47	4009
2026-01-01 08:23:53.34	327.56	13.77	-42.5	-43.2	18.6	0.00e+00	0	62	0	3125805056	47	3991
2026-01-01 08:23:54.31	327.43	13.70	-42.5	-43.3	18.6	0.00e+00	0	62	0	3132096512	47	4011
2026-01-01 08:23:55.28	327.30	13.62	-42.7	-43.5	18.4	0.00e+00	0	62	0	3137339392	47	4103
2026-01-01 08:23:56.25	327.17	13.55	-42.7	-43.5	18.3	0.00e+00	0	62	0	3142582272	47	4130
2026-01-01 08:23:57.21	327.05	13.48	-42.7	-43.5	18.4	0.00e+00	0	62	0	3147825152	47	4113
2026-01-01 08:23:58.18	326.92	13.40	-42.9	-43.7	18.1	0.00e+00	0	62	0	3153068032	47	4234
2026-01-01 08:23:59.15	326.79	13.33	-43.3	-44.2	17.9	0.00e+00	0	62	0	3158310912	48	4212
2026-01-01 08:24:00.12	326.67	13.26	-43.2	-44.0	18.0	0.00e+00	0	62	0	3164602368	48	4139
2026-01-01 08:24:01.09	326.54	13.18	-43.4	-44.2	17.8	0.00e+00	0	62	0	3169845248	48	4242
2026-01-01 08:24:02.05	326.42	13.11	-43.3	-44.1	17.9	0.00e+00	0	62	0	3175088128	48	4177
2026-01-01 08:24:03.03	326.30	13.04	-43.4	-44.3	17.7	0.00e+00	0	62	0	3180331008	48	4264
2026-01-01 08:24:04.00	326.17	12.96	-43.6	-44.4	17.6	0.00e+00	0	62	0	3185573888	49	4096
2026-01-01 08:24:04.98	326.05	12.89	-43.6	-44.4	17.6	0.00e+00	0	62	0	3191865344	49	4077
2026-01-01 08:24:05.95	325.93	12.82	-43.4	-44.2	17.8	0.00e+00	0	62	0	3197108224	49	4000
2026-01-01 08:24:06.93	325.81	12.74	-43.4	-44.2	17.8	0.00e+00	0	62	0	3202351104	49	3970
2026-01-01 08:24:07.90	325.69	12.67	-43.2	-44.0	18.0	0.00e+00	0	62	0	3207593984	49	3911
2026-01-01 08:24:08.86	325.57	12.60	-43.3	-44.1	17.8	0.00e+00	0	63	0	3213885440	49	3948
2026-01-01 08:24:09.83	325.45	12.53	-43.3	-44.1	17.9	0.00e+00	0	62	0	3219128320	49	3934
2026-01-01 08:24:10.80	325.33	12.45	-43.2	-44.0	18.0	0.00e+00	0	62	0	3224371200	49	3888
2026-01-01 08:24:11.77	325.21	12.38	-43.3	-44.1	17.9	0.00e+00	0	62	0	3229614080	49	3937
2026-01-01 08:24:12.74	325.09	12.31	-43.3	-44.1	17.8	0.00e+00	0	62	0	3234856960	49	3957
2026-01-01 08:24:13.71	324.98	12.24	-43.2	-44.1	18.0	0.00e+00	0	62	0	3241148416	49	3919
2026-01-01 08:24:14.68	324.86	12.17	-43.3	-44.2	17.9	0.00e+00	0	62	0	3246391296	49	3975
2026-01-01 08:24:15.65	324.75	12.09	-43.4	-44.2	17.8	0.00e+00	0	62	0	3251634176	49	3987
2026-01-01 08:24:16.61	324.63	12.02	-43.3	-44.2	17.8	0.00e+00	0	62	0	3256877056	49	3977
2026-01-01 08:24:17.58	324.52	11.95	-43.3	-44.1	17.9	0.00e+00	0	62	0	3262119936	49	3955
2026-01-01 08:24:18.55	324.40	11.88	-43.5	-44.3	17.7	0.00e+00	0	62	0	3267362816	49	4030
2026-01-01 08:24:19.52	324.29	11.81	-43.4	-44.2	17.7	0.00e+00	0	62	0	3273654272	49	3998
2026-01-01 08:24:20.49	324.18	11.74	-43.5	-44.3	17.6	0.00e+00	0	62	0	3278897152	49	4049
2026-01-01 08:24:21.46	324.07	11.66	-43.5	-44.3	17.6	0.00e+00	0	62	0	3284140032	49	4031
2026-01-01 08:24:22.43	323.95	11.59	-43.7	-44.5	17.4	0.00e+00	0	63	0	3289382912	49	4138
2026-01-01 08:24:23.39	323.84	11.52	-43.8	-44.7	17.3	0.00e+00	0	62	0	3294625792	49	4217
2026-01-01 08:24:24.36	323.73	11.45	-43.8	-44.7	17.3	0.00e+00	0	62	0	3300917248	49	4205
2026-01-01 08:24:25.32	323.62	11.38	-43.9	-44.8	17.1	0.00e+00	0	62	0	3306160128	49	4291
2026-01-01 08:24:26.29	323.52	11.31	-43.8	-44.7	17.2	0.00e+00	0	62	0	3311403008	49	4237
2026-01-01 08:24:27.26	323.41	11.24	-43.9	-44.8	17.1	0.00e+00	0	62	0	3316645888	49	4269
2026-01-01 08:24:28.23	323.30	11.17	-44.0	-44.9	17.0	0.00e+00	0	62	0	3321888768	49	4306
2026-01-01 08:24:29.20	323.19	11.10	-44.1	-45.0	17.0	0.00e+00	0	62	0	3328180224	50	4121
2026-01-01 08:24:30.16	323.08	11.03	-44.2	-45.1	16.9	0.00e+00	0	63	0	3333423104	50	4182
2026-01-01 08:24:31.13	322.98	10.96	-44.3	-45.3	16.6	0.00e+00	0	62	0	3338665984	50	4268
2026-01-01 08:24:32.09	322.87	10.89	-44.1	-45.1	16.9	0.00e+00	0	62	0	3343908864	50	4159
2026-01-01 08:24:33.06	322.77	10.82	-44.1	-45.0	17.0	0.00e+00	0	62	0	3349151744	50	4130
2026-01-01 08:24:34.03	322.66	10.75	-44.3	-45.3	16.7	0.00e+00	0	62	0	3355443200	50	4257
2026-01-01 08:24:35.00	322.56	10.68	-44.4	-45.4	16.5	0.00e+00	0	62	0	3360686080	50	4339
2026-01-01 08:24:35.97	322.45	10.61	-44.4	-45.4	16.6	0.00e+00	0	62	0	3365928960	50	4309
2026-01-01 08:24:36.94	322.35	10.54	-44.5	-45.5	16.5	0.00e+00	0	62	0	3371171840	50	4359
2026-01-01 08:24:37.91	322.25	10.47	-44.8	-45.8	16.2	0.00e+00	0	62	0	3376414720	51	4283
2026-01-01 08:24:38.88	322.14	10.40	-44.9	-45.9	16.0	0.00e+00	0	62	0	3382706176	51	4334
2026-01-01 08:24:39.85	322.04	10.33	-44.6	-45.7	16.2	0.00e+00	0	62	0	3387949056	51	4199
2026-01-01 08:24:40.81	321.94	10.26	-44.6	-45.6	16.3	0.00e+00	0	62	0	3393191936	51	4167
2026-01-01 08:24:41.78	321.84	10.19	-44.5	-45.6	16.3	0.00e+00	0	62	0	3398434816	51	4171
2026-01-01 08:24:42.75	321.74	10.12	-44.6	-45.7	16.2	0.00e+00	0	62	0	3403677696	51	4208
2026-01-01 08:24:43.71	321.64	10.05	-44.6	-45.6	16.3	0.00e+00	0	62	0	3409969152	51	4147
2026-01-01 08:24:44.68	321.54	9.99	-44.8	-45.9	16.0	0.00e+00	0	62	0	3415212032	51	4299
2026-01-01 08:24:45.64	321.44	9.92	-44.7	-45.8	16.1	0.00e+00	0	62	0	3420454912	51	4246
2026-01-01 08:24:46.61	321.34	9.85	-44.5	-45.5	16.4	0.00e+00	0	62	0	3425697792	51	4136
2026-01-01 08:24:47.58	321.24	9.78	-44.3	-45.3	16.6	0.00e+00	0	62	0	3430940672	51	4032
2026-01-01 08:24:48.54	321.15	9.71	-44.1	-45.1	16.8	0.00e+00	0	62	0	3436183552	51	3921
2026-01-01 08:24:49.51	321.05	9.64	-44.2	-45.1	16.8	0.00e+00	0	62	0	3442475008	51	3940
2026-01-01 08:24:50.49	320.95	9.57	-44.2	-45.1	16.8	0.00e+00	0	62	0	3447717888	51	3957
2026-01-01 08:24:51.46	320.86	9.51	-44.2	-45.2	16.7	0.00e+00	0	62	0	3452960768	51	3973
2026-01-01 08:24:52.43	320.76	9.44	-44.0	-45.0	16.8	0.00e+00	0	62	0	3458203648	51	3882
2026-01-01 08:24:53.39	320.67	9.37	-44.1	-45.0	16.8	0.00e+00	0	62	0	3463446528	51	3910
2026-01-01 08:24:54.36	320.57	9.30	-44.3	-45.2	16.6	0.00e+00	0	63	0	3469737984	51	4002
2026-01-01 08:24:55.33	320.48	9.24	-44.3	-45.3	16.6	0.00e+00	0	63	0	3474980864	51	4048
2026-01-01 08:24:56.30	320.38	9.17	-44.3	-45.3	16.5	0.00e+00	0	62	0	3480223744	51	4051
2026-01-01 08:24:57.28	320.29	9.10	-44.3	-45.3	16.5	0.00e+00	0	62	0	3485466624	51	4039
2026-01-01 08:24:58.25	320.19	9.03	-44.3	-45.3	16.6	0.00e+00	0	62	0	3490709504	51	4035
2026-01-01 08:24:59.21	320.10	8.97	-44.3	-45.3	16.5	0.00e+00	0	62	0	3497000960	51	4040
2026-01-01 08:25:00.18	320.01	8.90	-44.2	-45.2	16.7	0.00e+00	0	62	0	3502243840	51	3975
2026-01-01 08:25:01.15	319.92	8.83	-44.2	-45.2	16.6	0.00e+00	0	62	0	3507486720	51	3999
2026-01-01 08:25:02.12	319.83	8.76	-44.3	-45.3	16.6	0.00e+00	0	62	0	3512729600	51	4012
2026-01-01 08:25:03.09	319.74	8.70	-44.4	-45.4	16.4	0.00e+00	0	62	0	3517972480	51	4072
2026-01-01 08:25:04.05	319.65	8.63	-44.2	-45.1	16.6	0.00e+00	0	62	0	3524263936	51	3954
2026-01-01 08:25:05.02	319.56	8.56	-44.1	-45.1	16.8	0.00e+00	0	62	0	3529506816	50	4146
2026-01-01 08:25:05.99	319.47	8.50	-44.3	-45.3	16.5	0.00e+00	0	62	0	3534749696	50	4256
2026-01-01 08:25:06.96	319.38	8.43	-44.2	-45.2	16.6	0.00e+00	0	62	0	3539992576	50	4226
2026-01-01 08:25:07.93	319.29	8.36	-44.1	-45.1	16.7	0.00e+00	0	62	0	3545235456	50	4167
2026-01-01 08:25:08.90	319.20	8.30	-44.3	-45.3	16.5	0.00e+00	0	62	0	3551526912	50	4266
2026-01-01 08:25:09.87	319.11	8.23	-44.3	-45.3	16.5	0.00e+00	0	62	0	3556769792	50	4270
2026-01-01 08:25:10.84	319.03	8.17	-44.2	-45.3	16.5	0.00e+00	0	62	0	3562012672	50	4246
2026-01-01 08:25:11.81	318.94	8.10	-44.4	-45.5	16.3	0.00e+00	0	62	0	3567255552	50	4349
2026-01-01 08:25:12.78	318.85	8.03	-44.6	-45.6	16.2	0.00e+00	0	62	0	3572498432	51	4177
2026-01-01 08:25:13.75	318.76	7.97	-44.8	-45.9	15.9	0.00e+00	0	62	0	3578789888	51	4326
2026-01-01 08:25:14.71	318.68	7.90	-44.5	-45.6	16.1	0.00e+00	0	62	0	3584032768	51	4164
2026-01-01 08:25:15.68	318.59	7.84	-44.6	-45.7	16.0	0.00e+00	0	62	0	3589275648	51	4206
