passes_logs/2026/01/01/R3.0SM8_Murmansk_STILSPACE/R3.0SM8_Murmansk_STILSPACE__20260101_164322_FENGYUN_3E_rec.log

#Pass ID: 20260101_164322_FENGYUN 3E
#Satellite: FENGYUN 3E
#Configuration: FENGYUN 3E
#almurnet v.1.7.20240730
#Start time: 2026-01-01 16:43:24

#Version: 2.2.20231116
#Station: R3.0SM8_Murmansk_STILSPACE
#Location: 33.092731 lon 68.902999 lat
#TLE: 1 49008U 21062A   25365.98258168  .00000149  00000+0  90987-4 0  9990
#TLE: 2 49008  98.7481   6.2763 0001360 169.3782 190.7423 14.19883270232859

#Time	Az	El	Level	Level2	SNR	BER	BlckErr	Temp	State	Recorded	gain1	gain2
2026-01-01 16:43:24.73	228.46	3.11	-52.3	-62.6	3.8	8.46e-01	0	47	0	0	66	12372
2026-01-01 16:43:25.71	228.55	3.16	-52.3	-62.6	3.8	8.46e-01	0	47	104	0	67	11667
2026-01-01 16:43:26.70	228.64	3.21	-52.4	-62.6	3.8	8.46e-01	0	47	104	0	67	11619
2026-01-01 16:43:27.68	228.73	3.26	-52.2	-62.5	3.8	8.46e-01	0	47	104	0	67	11511
2026-01-01 16:43:28.66	228.82	3.31	-52.3	-62.5	3.8	8.45e-01	0	47	104	0	67	11520
2026-01-01 16:43:29.64	228.91	3.36	-52.1	-62.4	3.8	8.46e-01	0	47	104	0	67	11392
2026-01-01 16:43:30.63	229.00	3.41	-51.9	-62.3	3.8	8.46e-01	0	47	104	0	66	11850
2026-01-01 16:43:31.61	229.09	3.46	-51.8	-62.1	3.8	8.48e-01	0	47	104	0	66	11561
2026-01-01 16:43:32.61	229.18	3.52	-51.5	-61.8	3.8	8.47e-01	0	47	104	0	65	11844
2026-01-01 16:43:33.60	229.28	3.57	-51.1	-61.2	3.8	8.46e-01	0	48	104	0	65	11151
2026-01-01 16:43:34.58	229.37	3.62	-50.7	-60.1	3.8	8.45e-01	0	48	104	0	64	10298
2026-01-01 16:43:35.57	229.46	3.67	-50.6	-60.3	3.8	8.46e-01	0	48	104	0	64	10564
2026-01-01 16:43:36.56	229.55	3.72	-50.5	-60.5	3.8	8.45e-01	0	48	104	0	64	10818
2026-01-01 16:43:37.55	229.65	3.77	-50.6	-60.6	3.8	8.45e-01	0	48	104	0	64	10987
2026-01-01 16:43:38.54	229.74	3.82	-50.6	-60.7	3.8	8.47e-01	0	48	104	0	64	11063
2026-01-01 16:43:39.53	229.83	3.87	-50.6	-60.7	3.8	8.47e-01	0	48	104	0	64	11093
2026-01-01 16:43:40.52	229.93	3.93	-50.7	-60.7	3.8	8.47e-01	0	48	104	0	64	11089
2026-01-01 16:43:41.51	230.02	3.98	-50.6	-60.6	3.8	8.46e-01	0	48	104	0	64	11002
2026-01-01 16:43:42.50	230.12	4.03	-50.6	-60.5	3.8	8.45e-01	0	48	104	0	64	10783
2026-01-01 16:43:43.49	230.21	4.08	-50.6	-60.2	3.8	8.46e-01	0	48	104	0	64	10513
2026-01-01 16:43:44.48	230.31	4.13	-50.6	-59.9	3.8	8.46e-01	0	48	104	0	64	10083
2026-01-01 16:43:45.47	230.41	4.18	-50.6	-59.4	3.8	8.46e-01	0	48	104	0	64	9563
2026-01-01 16:43:46.46	230.50	4.24	-50.6	-58.8	3.9	8.46e-01	0	49	104	0	63	9495
2026-01-01 16:43:47.45	230.60	4.29	-50.4	-58.2	3.9	8.45e-01	0	49	104	0	63	8822
2026-01-01 16:43:48.44	230.70	4.34	-50.2	-57.5	4.2	8.38e-01	0	49	0	0	63	8129
2026-01-01 16:43:49.42	230.79	4.39	-50.2	-56.8	4.4	8.31e-01	0	49	0	0	63	7524
2026-01-01 16:43:50.40	230.89	4.44	-50.1	-56.3	4.6	8.19e-01	0	49	0	0	63	7057
2026-01-01 16:43:51.40	230.99	4.49	-49.9	-55.7	4.9	7.92e-01	0	49	0	0	62	6988
2026-01-01 16:43:52.39	231.09	4.55	-49.7	-55.3	5.1	7.62e-01	0	49	0	0	62	6708
2026-01-01 16:43:53.38	231.19	4.60	-49.7	-54.8	5.4	7.28e-01	0	49	0	0	62	6325
2026-01-01 16:43:54.36	231.28	4.65	-49.4	-54.6	5.5	6.89e-01	0	49	0	0	61	6509
2026-01-01 16:43:55.35	231.38	4.70	-49.4	-54.4	5.7	6.22e-01	0	49	0	1048576	61	6350
2026-01-01 16:43:56.35	231.48	4.75	-49.5	-54.4	5.7	5.87e-01	0	49	0	6291456	61	6353
2026-01-01 16:43:57.34	231.58	4.81	-49.4	-54.1	5.9	3.75e-01	0	49	0	13631488	61	6145
2026-01-01 16:43:58.32	231.68	4.86	-49.4	-54.0	6.0	3.49e-01	0	49	0	19922944	61	6085
2026-01-01 16:43:59.31	231.78	4.91	-49.1	-53.5	6.3	2.81e-01	0	49	0	27262976	61	5776
2026-01-01 16:44:00.29	231.88	4.96	-49.0	-53.3	6.6	2.40e-01	0	49	0	34603008	61	5601
2026-01-01 16:44:01.28	231.99	5.01	-48.9	-52.8	7.0	1.96e-01	0	49	0	41943040	60	5631
2026-01-01 16:44:02.28	232.09	5.07	-48.6	-52.1	7.6	9.81e-02	0	50	0	48234496	60	5170
2026-01-01 16:44:03.27	232.19	5.12	-48.7	-52.1	7.7	9.29e-02	0	50	0	55574528	59	5515
2026-01-01 16:44:04.25	232.29	5.17	-48.7	-52.2	7.6	9.95e-02	0	50	0	62914560	59	5569
2026-01-01 16:44:05.24	232.39	5.22	-48.4	-51.5	8.2	6.49e-02	0	50	0	70254592	59	5150
2026-01-01 16:44:06.23	232.50	5.28	-48.1	-51.0	8.8	3.75e-02	0	50	0	77594624	59	4848
2026-01-01 16:44:07.22	232.60	5.33	-48.0	-50.7	9.1	2.69e-02	0	50	0	84934656	58	4966
2026-01-01 16:44:08.21	232.71	5.38	-47.7	-50.2	9.6	1.38e-02	0	50	0	91226112	58	4682
2026-01-01 16:44:09.21	232.81	5.43	-47.3	-49.6	10.2	8.80e-03	0	50	0	98566144	57	4641
2026-01-01 16:44:10.19	232.91	5.49	-47.1	-49.2	10.7	4.00e-03	0	50	0	105906176	57	4436
2026-01-01 16:44:11.19	233.02	5.54	-46.9	-48.9	11.0	2.28e-03	0	50	0	113246208	56	4537
2026-01-01 16:44:12.18	233.13	5.59	-46.7	-48.6	11.3	1.45e-03	0	50	0	120586240	56	4388
2026-01-01 16:44:13.17	233.23	5.64	-46.6	-48.5	11.5	1.00e-03	0	50	0	126877696	56	4299
2026-01-01 16:44:14.16	233.34	5.70	-46.3	-48.2	11.7	6.20e-04	0	50	0	134217728	55	4419
2026-01-01 16:44:15.15	233.44	5.75	-46.4	-48.3	11.6	7.62e-04	0	50	0	141557760	55	4458
2026-01-01 16:44:16.13	233.55	5.80	-46.3	-48.0	11.9	4.30e-04	0	50	0	148897792	55	4316
2026-01-01 16:44:17.12	233.66	5.85	-46.1	-47.7	12.2	2.43e-04	0	50	0	156237824	55	4187
2026-01-01 16:44:18.10	233.76	5.91	-45.9	-47.6	12.3	1.46e-04	0	50	0	163577856	54	4384
2026-01-01 16:44:19.09	233.87	5.96	-45.9	-47.6	12.4	1.64e-04	0	50	0	169869312	54	4347
2026-01-01 16:44:20.08	233.98	6.01	-45.8	-47.4	12.6	1.17e-04	0	50	0	177209344	54	4270
2026-01-01 16:44:21.07	234.09	6.06	-45.8	-47.4	12.6	1.09e-04	0	51	0	184549376	54	4263
2026-01-01 16:44:22.06	234.20	6.12	-46.0	-47.6	12.4	1.07e-04	0	51	0	191889408	54	4372
2026-01-01 16:44:23.05	234.31	6.17	-46.1	-47.8	12.3	1.34e-04	0	51	0	199229440	54	4444
2026-01-01 16:44:24.05	234.42	6.22	-46.1	-47.7	12.4	2.22e-04	0	51	0	206569472	54	4422
2026-01-01 16:44:25.04	234.53	6.28	-46.0	-47.6	12.5	1.29e-04	0	51	0	212860928	54	4390
2026-01-01 16:44:26.03	234.64	6.33	-46.1	-47.7	12.4	1.61e-04	0	51	0	220200960	54	4438
2026-01-01 16:44:27.02	234.75	6.38	-45.9	-47.5	12.7	1.03e-04	0	51	0	227540992	54	4311
2026-01-01 16:44:28.01	234.86	6.43	-46.0	-47.6	12.6	9.49e-05	0	51	0	234881024	54	4342
2026-01-01 16:44:28.99	234.97	6.49	-46.0	-47.5	12.7	1.02e-04	0	51	0	242221056	54	4331
2026-01-01 16:44:29.98	235.08	6.54	-46.3	-48.0	12.2	2.01e-04	0	51	0	248512512	54	4556
2026-01-01 16:44:30.96	235.19	6.59	-45.9	-47.4	12.8	9.04e-05	0	51	0	255852544	54	4290
2026-01-01 16:44:31.94	235.31	6.64	-45.6	-47.1	13.2	3.54e-05	0	51	0	263192576	54	4114
2026-01-01 16:44:32.93	235.42	6.70	-45.4	-46.8	13.4	1.94e-05	0	51	0	270532608	53	4217
2026-01-01 16:44:33.93	235.53	6.75	-45.4	-46.7	13.5	1.14e-05	0	51	0	277872640	53	4181
2026-01-01 16:44:34.92	235.65	6.80	-45.4	-46.8	13.5	6.80e-06	0	51	0	284164096	53	4217
2026-01-01 16:44:35.91	235.76	6.86	-45.3	-46.7	13.6	1.83e-05	0	51	0	291504128	53	4162
2026-01-01 16:44:36.91	235.88	6.91	-45.3	-46.7	13.7	1.02e-05	0	51	0	298844160	53	4160
2026-01-01 16:44:37.89	235.99	6.96	-45.5	-47.0	13.4	1.48e-05	0	51	0	306184192	53	4300
2026-01-01 16:44:38.88	236.11	7.02	-45.3	-46.6	13.7	9.10e-06	0	51	0	313524224	53	4134
2026-01-01 16:44:39.87	236.22	7.07	-45.1	-46.4	14.0	2.20e-06	0	52	0	319815680	53	4037
2026-01-01 16:44:40.86	236.34	7.12	-44.9	-46.1	14.3	2.20e-06	0	52	0	327155712	52	4134
2026-01-01 16:44:41.84	236.46	7.17	-44.8	-46.0	14.4	2.20e-06	0	52	0	334495744	52	4063
2026-01-01 16:44:42.83	236.57	7.23	-44.8	-46.0	14.4	1.10e-06	0	51	0	341835776	52	4082
2026-01-01 16:44:43.82	236.69	7.28	-44.8	-46.0	14.5	1.10e-06	0	52	0	348127232	52	4067
2026-01-01 16:44:44.81	236.81	7.33	-44.8	-45.9	14.6	1.10e-06	0	51	0	355467264	52	4038
2026-01-01 16:44:45.81	236.93	7.39	-44.9	-46.1	14.4	0.00e+00	0	52	0	362807296	52	4131
2026-01-01 16:44:46.79	237.05	7.44	-44.7	-45.8	14.7	1.10e-06	0	52	0	370147328	52	3986
2026-01-01 16:44:47.78	237.17	7.49	-44.6	-45.6	15.0	0.00e+00	0	52	0	377487360	51	4128
2026-01-01 16:44:48.78	237.29	7.55	-44.4	-45.5	15.2	0.00e+00	0	52	0	384827392	51	4059
2026-01-01 16:44:49.77	237.41	7.60	-44.3	-45.4	15.3	0.00e+00	0	52	0	391118848	51	4014
2026-01-01 16:44:50.75	237.53	7.65	-44.4	-45.4	15.2	0.00e+00	0	52	0	398458880	51	4046
2026-01-01 16:44:51.75	237.65	7.71	-44.3	-45.3	15.4	0.00e+00	0	52	0	405798912	51	3998
2026-01-01 16:44:52.73	237.77	7.76	-44.4	-45.4	15.3	0.00e+00	0	52	0	413138944	51	4033
2026-01-01 16:44:53.73	237.89	7.81	-44.4	-45.4	15.3	0.00e+00	0	52	0	420478976	51	4044
2026-01-01 16:44:54.73	238.02	7.87	-44.4	-45.4	15.4	0.00e+00	0	52	0	427819008	51	4033
2026-01-01 16:44:55.71	238.14	7.92	-44.4	-45.4	15.4	0.00e+00	0	52	0	434110464	51	4046
2026-01-01 16:44:56.71	238.26	7.97	-44.5	-45.6	15.2	0.00e+00	0	52	0	441450496	51	4109
2026-01-01 16:44:57.70	238.39	8.03	-44.5	-45.5	15.3	0.00e+00	0	52	0	448790528	51	4081
2026-01-01 16:44:58.68	238.51	8.08	-44.4	-45.4	15.5	0.00e+00	0	52	0	456130560	51	4023
2026-01-01 16:44:59.67	238.63	8.13	-44.5	-45.5	15.4	0.00e+00	0	52	0	463470592	51	4075
2026-01-01 16:45:00.67	238.76	8.19	-44.7	-45.7	15.2	0.00e+00	0	52	0	469762048	51	4183
2026-01-01 16:45:01.66	238.88	8.24	-44.5	-45.5	15.4	0.00e+00	0	52	0	477102080	51	4085
2026-01-01 16:45:02.65	239.01	8.29	-44.4	-45.4	15.5	0.00e+00	0	52	0	484442112	51	4036
2026-01-01 16:45:03.63	239.14	8.34	-44.7	-45.7	15.2	0.00e+00	0	52	0	491782144	51	4177
2026-01-01 16:45:04.62	239.26	8.40	-44.7	-45.7	15.2	0.00e+00	0	52	0	499122176	51	4186
2026-01-01 16:45:05.61	239.39	8.45	-44.7	-45.7	15.3	0.00e+00	0	52	0	506462208	51	4178
2026-01-01 16:45:06.60	239.52	8.50	-44.8	-45.9	15.1	0.00e+00	0	52	0	512753664	51	4284
2026-01-01 16:45:07.59	239.65	8.56	-44.9	-46.0	15.0	0.00e+00	0	52	0	520093696	51	4331
2026-01-01 16:45:08.58	239.77	8.61	-44.7	-45.8	15.3	0.00e+00	0	52	0	527433728	51	4199
2026-01-01 16:45:09.57	239.90	8.66	-44.7	-45.7	15.3	0.00e+00	0	52	0	534773760	51	4155
2026-01-01 16:45:10.56	240.03	8.72	-44.7	-45.8	15.3	0.00e+00	0	53	0	542113792	51	4195
2026-01-01 16:45:11.55	240.16	8.77	-44.7	-45.7	15.3	0.00e+00	0	52	0	549453824	51	4184
2026-01-01 16:45:12.54	240.29	8.82	-44.8	-45.9	15.2	0.00e+00	0	53	0	555745280	51	4248
2026-01-01 16:45:13.53	240.42	8.88	-44.8	-45.8	15.3	0.00e+00	0	52	0	563085312	51	4230
2026-01-01 16:45:14.52	240.55	8.93	-44.6	-45.6	15.4	0.00e+00	0	53	0	570425344	51	4139
2026-01-01 16:45:15.51	240.69	8.98	-44.5	-45.5	15.5	0.00e+00	0	53	0	577765376	51	4081
2026-01-01 16:45:16.50	240.82	9.04	-44.3	-45.3	15.8	0.00e+00	0	53	0	585105408	51	3969
2026-01-01 16:45:17.49	240.95	9.09	-44.1	-45.1	16.0	0.00e+00	0	53	0	591396864	51	3871
2026-01-01 16:45:18.48	241.08	9.14	-44.0	-44.9	16.2	0.00e+00	0	53	0	598736896	50	4009
2026-01-01 16:45:19.47	241.22	9.19	-43.8	-44.7	16.4	0.00e+00	0	53	0	606076928	50	3948
2026-01-01 16:45:20.46	241.35	9.25	-44.0	-44.9	16.2	0.00e+00	0	53	0	613416960	50	4026
2026-01-01 16:45:21.44	241.48	9.30	-43.9	-44.8	16.3	0.00e+00	0	53	0	620756992	50	3985
2026-01-01 16:45:22.44	241.62	9.35	-43.8	-44.6	16.5	0.00e+00	0	53	0	628097024	50	3904
2026-01-01 16:45:23.42	241.75	9.41	-43.6	-44.4	16.7	0.00e+00	0	53	0	634388480	50	3799
2026-01-01 16:45:24.41	241.89	9.46	-43.5	-44.3	16.8	0.00e+00	0	53	0	641728512	49	3996
2026-01-01 16:45:25.40	242.03	9.51	-43.5	-44.3	16.8	0.00e+00	0	53	0	649068544	49	3964
2026-01-01 16:45:26.40	242.16	9.56	-43.5	-44.3	16.8	0.00e+00	0	53	0	656408576	49	4001
2026-01-01 16:45:27.40	242.30	9.62	-43.5	-44.4	16.8	0.00e+00	0	53	0	663748608	49	4005
2026-01-01 16:45:28.39	242.44	9.67	-43.4	-44.3	16.8	0.00e+00	0	53	0	671088640	49	3971
2026-01-01 16:45:29.36	242.58	9.72	-43.4	-44.2	16.9	0.00e+00	0	53	0	677380096	49	3950
2026-01-01 16:45:30.34	242.71	9.77	-43.4	-44.2	17.0	0.00e+00	0	53	0	684720128	49	3921
2026-01-01 16:45:31.33	242.85	9.83	-43.5	-44.4	16.8	0.00e+00	0	53	0	692060160	49	4006
2026-01-01 16:45:32.32	242.99	9.88	-43.6	-44.4	16.8	0.00e+00	0	53	0	699400192	49	4024
2026-01-01 16:45:33.32	243.13	9.93	-43.6	-44.4	16.8	0.00e+00	0	53	0	705691648	49	4017
2026-01-01 16:45:34.31	243.27	9.98	-43.5	-44.3	16.9	0.00e+00	0	53	0	713031680	49	3979
2026-01-01 16:45:35.29	243.41	10.04	-43.5	-44.3	16.8	0.00e+00	0	53	0	720371712	49	4004
2026-01-01 16:45:36.28	243.56	10.09	-43.6	-44.3	16.9	0.00e+00	0	53	0	727711744	49	3999
2026-01-01 16:45:37.27	243.70	10.14	-43.4	-44.2	16.9	0.00e+00	0	53	0	734003200	49	3952
2026-01-01 16:45:38.25	243.84	10.19	-43.5	-44.3	16.9	0.00e+00	0	53	0	741343232	49	3985
2026-01-01 16:45:39.24	243.98	10.25	-43.7	-44.5	16.7	0.00e+00	0	53	0	748683264	49	4093
2026-01-01 16:45:40.23	244.13	10.30	-43.4	-44.2	17.0	0.00e+00	0	53	0	756023296	49	3928
2026-01-01 16:45:41.21	244.27	10.35	-43.2	-44.0	17.3	0.00e+00	0	53	0	763363328	49	3827
2026-01-01 16:45:42.20	244.41	10.40	-43.2	-43.9	17.3	0.00e+00	0	54	0	770703360	49	3809
2026-01-01 16:45:43.19	244.56	10.45	-43.2	-43.9	17.3	0.00e+00	0	54	0	776994816	49	3814
2026-01-01 16:45:44.18	244.70	10.51	-43.4	-44.2	17.0	0.00e+00	0	53	0	784334848	49	3944
2026-01-01 16:45:45.17	244.85	10.56	-43.3	-44.0	17.2	0.00e+00	0	54	0	791674880	49	3855
2026-01-01 16:45:46.16	245.00	10.61	-43.3	-44.1	17.1	0.00e+00	0	54	0	799014912	49	3902
2026-01-01 16:45:47.14	245.14	10.66	-43.4	-44.2	17.0	0.00e+00	0	54	0	806354944	49	3928
2026-01-01 16:45:48.13	245.29	10.71	-43.2	-44.0	17.2	0.00e+00	0	54	0	812646400	49	3850
2026-01-01 16:45:49.12	245.44	10.76	-43.2	-43.9	17.3	0.00e+00	0	54	0	819986432	49	3821
2026-01-01 16:45:50.11	245.59	10.82	-43.2	-43.9	17.3	0.00e+00	0	54	0	827326464	49	3815
2026-01-01 16:45:51.10	245.74	10.87	-43.2	-43.9	17.4	0.00e+00	0	54	0	834666496	49	3805
2026-01-01 16:45:52.09	245.89	10.92	-43.0	-43.7	17.6	0.00e+00	0	54	0	842006528	48	3923
2026-01-01 16:45:53.07	246.03	10.97	-43.0	-43.7	17.5	0.00e+00	0	54	0	848297984	48	3944
2026-01-01 16:45:54.07	246.19	11.02	-43.0	-43.7	17.5	0.00e+00	0	54	0	855638016	48	3949
2026-01-01 16:45:55.07	246.34	11.07	-43.1	-43.8	17.4	0.00e+00	0	54	0	862978048	48	4002
2026-01-01 16:45:56.04	246.49	11.12	-43.2	-44.0	17.3	0.00e+00	0	54	0	870318080	48	4075
2026-01-01 16:45:57.03	246.64	11.18	-43.0	-43.8	17.5	0.00e+00	0	54	0	877658112	48	3975
2026-01-01 16:45:58.02	246.79	11.23	-43.1	-43.8	17.5	0.00e+00	0	54	0	883949568	48	3998
2026-01-01 16:45:59.01	246.94	11.28	-43.2	-44.0	17.3	0.00e+00	0	54	0	891289600	48	4080
2026-01-01 16:46:00.00	247.10	11.33	-43.0	-43.7	17.5	0.00e+00	0	54	0	898629632	48	3952
2026-01-01 16:46:00.98	247.25	11.38	-42.9	-43.6	17.7	0.00e+00	0	54	0	905969664	48	3887
2026-01-01 16:46:01.98	247.41	11.43	-42.9	-43.6	17.7	0.00e+00	0	54	0	913309696	48	3898
2026-01-01 16:46:02.98	247.56	11.48	-42.8	-43.5	17.8	0.00e+00	0	54	0	920649728	48	3858
2026-01-01 16:46:03.96	247.72	11.53	-42.8	-43.5	17.8	0.00e+00	0	54	0	926941184	48	3858
2026-01-01 16:46:04.96	247.88	11.58	-42.7	-43.4	17.9	0.00e+00	0	54	0	934281216	48	3800
2026-01-01 16:46:05.94	248.03	11.63	-42.9	-43.6	17.7	0.00e+00	0	54	0	941621248	48	3895
2026-01-01 16:46:06.93	248.19	11.68	-42.8	-43.5	17.8	0.00e+00	0	54	0	948961280	48	3845
2026-01-01 16:46:07.92	248.35	11.74	-42.8	-43.6	17.8	0.00e+00	0	54	0	955252736	48	3869
2026-01-01 16:46:08.90	248.50	11.78	-42.9	-43.6	17.7	0.00e+00	0	54	0	962592768	48	3902
2026-01-01 16:46:09.89	248.66	11.84	-42.8	-43.5	17.8	0.00e+00	0	54	0	969932800	48	3857
2026-01-01 16:46:10.88	248.82	11.89	-42.9	-43.6	17.7	0.00e+00	0	54	0	977272832	48	3903
2026-01-01 16:46:11.87	248.98	11.94	-43.0	-43.7	17.6	0.00e+00	0	54	0	984612864	48	3955
2026-01-01 16:46:12.86	249.14	11.99	-42.8	-43.5	17.8	0.00e+00	0	54	0	991952896	48	3861
2026-01-01 16:46:13.85	249.30	12.03	-42.7	-43.4	17.9	0.00e+00	0	54	0	998244352	48	3815
2026-01-01 16:46:14.84	249.46	12.08	-42.8	-43.5	17.8	0.00e+00	0	55	0	1005584384	48	3852
2026-01-01 16:46:15.83	249.63	12.13	-42.9	-43.6	17.7	0.00e+00	0	54	0	1012924416	48	3896
2026-01-01 16:46:16.81	249.79	12.18	-42.9	-43.6	17.7	0.00e+00	0	54	0	1020264448	48	3912
2026-01-01 16:46:17.81	249.95	12.23	-43.0	-43.7	17.6	0.00e+00	0	54	0	1027604480	48	3933
2026-01-01 16:46:18.81	250.12	12.28	-42.9	-43.7	17.7	0.00e+00	0	54	0	1033895936	48	3918
2026-01-01 16:46:19.80	250.28	12.33	-42.8	-43.5	17.8	0.00e+00	0	54	0	1041235968	48	3868
2026-01-01 16:46:20.78	250.44	12.38	-42.9	-43.7	17.7	0.00e+00	0	55	0	1048576000	48	3930
2026-01-01 16:46:21.77	250.61	12.43	-43.0	-43.7	17.7	0.00e+00	0	55	0	1055916032	48	3935
2026-01-01 16:46:22.77	250.78	12.48	-43.2	-43.9	17.4	0.00e+00	0	55	0	1063256064	48	4038
2026-01-01 16:46:23.76	250.94	12.53	-43.0	-43.8	17.6	0.00e+00	0	55	0	1070596096	48	3967
2026-01-01 16:46:24.75	251.11	12.58	-42.8	-43.5	17.9	0.00e+00	0	55	0	1076887552	48	3834
2026-01-01 16:46:25.74	251.28	12.62	-42.7	-43.4	18.0	0.00e+00	0	55	0	1084227584	48	3793
2026-01-01 16:46:26.73	251.45	12.67	-42.6	-43.2	18.1	0.00e+00	0	55	0	1091567616	48	3733
2026-01-01 16:46:27.72	251.61	12.72	-42.5	-43.2	18.1	0.00e+00	0	55	0	1098907648	48	3732
2026-01-01 16:46:28.71	251.78	12.77	-42.3	-43.0	18.2	0.00e+00	0	55	0	1106247680	47	3838
2026-01-01 16:46:29.70	251.95	12.82	-42.4	-43.0	18.1	0.00e+00	0	55	0	1113587712	47	3855
2026-01-01 16:46:30.68	252.12	12.86	-42.3	-43.0	18.2	0.00e+00	0	55	0	1119879168	47	3845
2026-01-01 16:46:31.67	252.29	12.91	-42.3	-43.0	18.2	0.00e+00	0	55	0	1127219200	47	3836
2026-01-01 16:46:32.66	252.46	12.96	-42.5	-43.2	18.0	0.00e+00	0	55	0	1134559232	47	3916
2026-01-01 16:46:33.65	252.63	13.01	-42.6	-43.4	17.8	0.00e+00	0	55	0	1141899264	47	4010
2026-01-01 16:46:34.64	252.81	13.05	-42.5	-43.2	18.0	0.00e+00	0	55	0	1149239296	47	3934
2026-01-01 16:46:35.62	252.98	13.10	-42.5	-43.2	18.0	0.00e+00	0	55	0	1155530752	47	3925
2026-01-01 16:46:36.61	253.15	13.15	-42.5	-43.2	18.0	0.00e+00	0	55	0	1162870784	47	3958
2026-01-01 16:46:37.59	253.32	13.19	-42.7	-43.5	17.7	0.00e+00	0	55	0	1170210816	47	4064
2026-01-01 16:46:38.58	253.50	13.24	-42.7	-43.4	17.8	0.00e+00	0	55	0	1177550848	47	4017
2026-01-01 16:46:39.57	253.67	13.29	-42.5	-43.2	18.0	0.00e+00	0	55	0	1183842304	47	3921
2026-01-01 16:46:40.56	253.85	13.33	-42.3	-43.0	18.2	0.00e+00	0	55	0	1191182336	47	3833
2026-01-01 16:46:41.55	254.02	13.38	-42.3	-42.9	18.3	0.00e+00	0	55	0	1198522368	47	3820
2026-01-01 16:46:42.54	254.20	13.43	-42.3	-42.9	18.3	0.00e+00	0	55	0	1205862400	47	3808
2026-01-01 16:46:43.53	254.37	13.47	-42.2	-42.8	18.3	0.00e+00	0	55	0	1213202432	47	3775
2026-01-01 16:46:44.52	254.55	13.52	-42.1	-42.8	18.4	0.00e+00	0	55	0	1219493888	47	3764
2026-01-01 16:46:45.51	254.73	13.56	-42.2	-42.8	18.4	0.00e+00	0	55	0	1226833920	47	3767
2026-01-01 16:46:46.49	254.91	13.61	-42.2	-42.8	18.3	0.00e+00	0	55	0	1234173952	47	3780
2026-01-01 16:46:47.47	255.08	13.65	-42.2	-42.9	18.3	0.00e+00	0	55	0	1241513984	47	3795
2026-01-01 16:46:48.46	255.26	13.70	-42.0	-42.7	18.5	0.00e+00	0	55	0	1248854016	47	3705
2026-01-01 16:46:49.44	255.44	13.74	-42.0	-42.6	18.6	0.00e+00	0	55	0	1255145472	46	3903
2026-01-01 16:46:50.44	255.62	13.79	-42.0	-42.6	18.5	0.00e+00	0	55	0	1262485504	46	3909
2026-01-01 16:46:51.43	255.81	13.83	-42.1	-42.8	18.4	0.00e+00	0	55	0	1269825536	46	3962
2026-01-01 16:46:52.42	255.99	13.88	-42.2	-42.9	18.3	0.00e+00	0	55	0	1277165568	46	4031
2026-01-01 16:46:53.41	256.17	13.92	-42.1	-42.7	18.5	0.00e+00	0	55	0	1284505600	46	3954
2026-01-01 16:46:54.40	256.35	13.97	-42.1	-42.7	18.5	0.00e+00	0	55	0	1291845632	46	3943
2026-01-01 16:46:55.39	256.54	14.01	-42.1	-42.8	18.4	0.00e+00	0	55	0	1298137088	46	3975
2026-01-01 16:46:56.39	256.72	14.05	-42.3	-42.9	18.3	0.00e+00	0	55	0	1305477120	46	4049
2026-01-01 16:46:57.38	256.90	14.10	-42.2	-42.9	18.3	0.00e+00	0	55	0	1312817152	46	4029
2026-01-01 16:46:58.38	257.09	14.14	-42.2	-42.9	18.4	0.00e+00	0	55	0	1320157184	46	4005
2026-01-01 16:46:59.36	257.27	14.18	-42.3	-43.0	18.2	0.00e+00	0	55	0	1327497216	46	4064
2026-01-01 16:47:00.35	257.46	14.23	-42.4	-43.1	18.1	0.00e+00	0	55	0	1334837248	46	4121
2026-01-01 16:47:01.34	257.65	14.27	-42.2	-42.8	18.4	0.00e+00	0	55	0	1341128704	46	3995
2026-01-01 16:47:02.33	257.83	14.31	-42.0	-42.7	18.6	0.00e+00	0	55	0	1348468736	46	3933
2026-01-01 16:47:03.31	258.02	14.35	-42.0	-42.7	18.5	0.00e+00	0	55	0	1355808768	46	3925
2026-01-01 16:47:04.29	258.21	14.39	-42.1	-42.7	18.5	0.00e+00	0	55	0	1363148800	46	3938
2026-01-01 16:47:05.29	258.40	14.44	-42.3	-42.9	18.3	0.00e+00	0	55	0	1370488832	46	4033
2026-01-01 16:47:06.27	258.58	14.48	-42.0	-42.7	18.5	0.00e+00	0	55	0	1376780288	46	3921
2026-01-01 16:47:07.26	258.77	14.52	-41.9	-42.5	18.7	0.00e+00	0	55	0	1384120320	46	3861
2026-01-01 16:47:08.26	258.96	14.56	-41.9	-42.5	18.7	0.00e+00	0	55	0	1391460352	46	3847
2026-01-01 16:47:09.25	259.15	14.60	-41.9	-42.5	18.6	0.00e+00	0	55	0	1398800384	46	3868
2026-01-01 16:47:10.23	259.34	14.64	-42.0	-42.7	18.5	0.00e+00	0	56	0	1406140416	46	3923
2026-01-01 16:47:11.22	259.53	14.68	-42.0	-42.7	18.6	0.00e+00	0	55	0	1412431872	46	3916
2026-01-01 16:47:12.22	259.73	14.72	-41.9	-42.5	18.7	0.00e+00	0	55	0	1419771904	46	3861
2026-01-01 16:47:13.20	259.92	14.76	-41.9	-42.5	18.7	0.00e+00	0	55	0	1427111936	46	3846
2026-01-01 16:47:14.19	260.11	14.80	-42.0	-42.6	18.6	0.00e+00	0	55	0	1434451968	46	3900
2026-01-01 16:47:15.17	260.30	14.84	-42.1	-42.8	18.4	0.00e+00	0	55	0	1440743424	46	3976
2026-01-01 16:47:16.16	260.50	14.88	-42.2	-42.9	18.3	0.00e+00	0	56	0	1448083456	46	4030
2026-01-01 16:47:17.14	260.69	14.92	-42.4	-43.0	18.2	0.00e+00	0	56	0	1455423488	46	4088
2026-01-01 16:47:18.13	260.88	14.96	-42.2	-42.8	18.4	0.00e+00	0	55	0	1462763520	46	4000
2026-01-01 16:47:19.13	261.08	15.00	-42.1	-42.7	18.5	0.00e+00	0	55	0	1470103552	46	3953
2026-01-01 16:47:20.12	261.28	15.04	-42.0	-42.6	18.6	0.00e+00	0	55	0	1476395008	46	3905
2026-01-01 16:47:21.10	261.47	15.07	-42.0	-42.6	18.6	0.00e+00	0	56	0	1483735040	46	3902
2026-01-01 16:47:22.09	261.67	15.11	-41.8	-42.5	18.8	0.00e+00	0	55	0	1491075072	46	3827
2026-01-01 16:47:23.08	261.87	15.15	-41.8	-42.4	18.8	0.00e+00	0	56	0	1498415104	46	3802
2026-01-01 16:47:24.07	262.06	15.19	-41.8	-42.5	18.8	0.00e+00	0	56	0	1505755136	46	3833
2026-01-01 16:47:25.06	262.26	15.22	-42.0	-42.6	18.6	0.00e+00	0	56	0	1513095168	46	3908
2026-01-01 16:47:26.05	262.46	15.26	-41.8	-42.4	18.8	0.00e+00	0	56	0	1519386624	46	3824
2026-01-01 16:47:27.04	262.66	15.30	-41.8	-42.4	18.8	0.00e+00	0	56	0	1526726656	46	3813
2026-01-01 16:47:28.03	262.86	15.33	-41.8	-42.5	18.8	0.00e+00	0	56	0	1534066688	46	3828
2026-01-01 16:47:29.01	263.06	15.37	-42.0	-42.6	18.6	0.00e+00	0	56	0	1541406720	46	3898
2026-01-01 16:47:30.00	263.26	15.40	-42.1	-42.8	18.5	0.00e+00	0	56	0	1548746752	46	3959
2026-01-01 16:47:30.99	263.46	15.44	-42.0	-42.7	18.6	0.00e+00	0	56	0	1556086784	46	3915
2026-01-01 16:47:31.99	263.66	15.47	-42.0	-42.7	18.6	0.00e+00	0	56	0	1562378240	46	3920
2026-01-01 16:47:32.98	263.87	15.51	-42.0	-42.7	18.6	0.00e+00	0	56	0	1569718272	46	3925
2026-01-01 16:47:33.96	264.07	15.54	-41.8	-42.4	18.8	0.00e+00	0	56	0	1577058304	46	3822
2026-01-01 16:47:34.95	264.27	15.58	-41.8	-42.4	18.9	0.00e+00	0	56	0	1584398336	46	3788
2026-01-01 16:47:35.94	264.47	15.61	-41.8	-42.4	18.8	0.00e+00	0	56	0	1591738368	46	3807
2026-01-01 16:47:36.93	264.68	15.65	-42.0	-42.7	18.6	0.00e+00	0	56	0	1599078400	46	3916
2026-01-01 16:47:37.91	264.88	15.68	-41.9	-42.5	18.7	0.00e+00	0	56	0	1605369856	46	3853
2026-01-01 16:47:38.91	265.09	15.71	-41.7	-42.3	19.0	0.00e+00	0	56	0	1612709888	46	3738
2026-01-01 16:47:39.90	265.29	15.75	-41.7	-42.3	19.0	0.00e+00	0	56	0	1620049920	46	3754
2026-01-01 16:47:40.89	265.50	15.78	-41.7	-42.3	19.0	0.00e+00	0	56	0	1627389952	46	3754
2026-01-01 16:47:41.88	265.70	15.81	-41.8	-42.4	18.8	0.00e+00	0	56	0	1634729984	46	3816
2026-01-01 16:47:42.87	265.91	15.84	-41.8	-42.4	18.8	0.00e+00	0	56	0	1641021440	46	3806
2026-01-01 16:47:43.86	266.11	15.87	-41.7	-42.3	18.9	0.00e+00	0	56	0	1648361472	46	3772
2026-01-01 16:47:44.85	266.32	15.90	-41.8	-42.4	18.9	0.00e+00	0	56	0	1655701504	46	3794
2026-01-01 16:47:45.84	266.53	15.94	-41.7	-42.3	19.0	0.00e+00	0	56	0	1663041536	46	3763
2026-01-01 16:47:46.83	266.74	15.97	-41.7	-42.3	18.9	0.00e+00	0	56	0	1670381568	46	3771
2026-01-01 16:47:47.82	266.95	16.00	-41.7	-42.3	18.9	0.00e+00	0	56	0	1676673024	46	3779
2026-01-01 16:47:48.80	267.15	16.03	-42.0	-42.6	18.7	0.00e+00	0	56	0	1684013056	46	3891
2026-01-01 16:47:49.80	267.36	16.06	-41.8	-42.5	18.8	0.00e+00	0	56	0	1691353088	46	3837
2026-01-01 16:47:50.79	267.57	16.09	-41.7	-42.3	18.9	0.00e+00	0	56	0	1698693120	46	3776
2026-01-01 16:47:51.77	267.78	16.11	-41.6	-42.2	19.0	0.00e+00	0	56	0	1704984576	46	3729
2026-01-01 16:47:52.76	267.99	16.14	-41.7	-42.3	19.0	0.00e+00	0	56	0	1712324608	46	3748
2026-01-01 16:47:53.76	268.21	16.17	-41.8	-42.4	18.9	0.00e+00	0	56	0	1719664640	46	3794
2026-01-01 16:47:54.74	268.41	16.20	-41.7	-42.3	19.0	0.00e+00	0	56	0	1727004672	46	3744
2026-01-01 16:47:55.73	268.63	16.23	-41.6	-42.2	19.0	0.00e+00	0	56	0	1734344704	46	3736
2026-01-01 16:47:56.72	268.84	16.25	-41.8	-42.4	18.9	0.00e+00	0	56	0	1740636160	46	3785
2026-01-01 16:47:57.71	269.05	16.28	-41.7	-42.3	18.9	0.00e+00	0	56	0	1747976192	46	3765
2026-01-01 16:47:58.70	269.26	16.31	-41.5	-42.1	19.1	0.00e+00	0	56	0	1755316224	46	3679
2026-01-01 16:47:59.69	269.48	16.33	-41.4	-42.0	19.2	0.00e+00	0	56	0	1762656256	45	3849
2026-01-01 16:48:00.68	269.69	16.36	-41.4	-42.0	19.3	0.00e+00	0	56	0	1769996288	45	3834
2026-01-01 16:48:01.66	269.90	16.39	-41.4	-42.0	19.2	0.00e+00	0	56	0	1777336320	45	3842
2026-01-01 16:48:02.66	270.12	16.41	-41.4	-42.0	19.3	0.00e+00	0	56	0	1783627776	45	3833
2026-01-01 16:48:03.65	270.33	16.44	-41.5	-42.1	19.1	0.00e+00	0	56	0	1790967808	45	3902
2026-01-01 16:48:04.64	270.55	16.46	-41.6	-42.2	19.0	0.00e+00	0	56	0	1798307840	45	3942
2026-01-01 16:48:05.64	270.77	16.49	-41.6	-42.1	19.1	0.00e+00	0	56	0	1805647872	45	3908
2026-01-01 16:48:06.63	270.98	16.51	-41.6	-42.2	19.1	0.00e+00	0	56	0	1812987904	45	3937
2026-01-01 16:48:07.62	271.20	16.53	-41.7	-42.3	19.0	0.00e+00	0	56	0	1820327936	45	3975
2026-01-01 16:48:08.61	271.41	16.56	-42.0	-42.6	18.7	0.00e+00	0	56	0	1826619392	45	4116
2026-01-01 16:48:09.60	271.63	16.58	-41.7	-42.3	18.9	0.00e+00	0	56	0	1833959424	45	3996
2026-01-01 16:48:10.58	271.84	16.60	-41.5	-42.1	19.1	0.00e+00	0	56	0	1841299456	45	3901
2026-01-01 16:48:11.57	272.06	16.62	-41.4	-42.0	19.2	0.00e+00	0	56	0	1848639488	45	3846
2026-01-01 16:48:12.56	272.28	16.64	-41.5	-42.0	19.2	0.00e+00	0	56	0	1855979520	45	3867
2026-01-01 16:48:13.55	272.50	16.67	-41.6	-42.2	19.1	0.00e+00	0	56	0	1862270976	45	3932
2026-01-01 16:48:14.53	272.71	16.69	-41.7	-42.3	18.9	0.00e+00	0	56	0	1869611008	45	3991
2026-01-01 16:48:15.53	272.93	16.71	-41.8	-42.4	18.8	0.00e+00	0	56	0	1876951040	45	4043
2026-01-01 16:48:16.52	273.15	16.73	-41.9	-42.6	18.7	0.00e+00	0	56	0	1884291072	45	4113
2026-01-01 16:48:17.51	273.37	16.75	-41.9	-42.5	18.7	0.00e+00	0	56	0	1891631104	45	4091
2026-01-01 16:48:18.51	273.59	16.77	-42.0	-42.6	18.7	0.00e+00	0	56	0	1898971136	45	4115
2026-01-01 16:48:19.50	273.81	16.79	-41.8	-42.4	18.9	0.00e+00	0	56	0	1905262592	45	4026
2026-01-01 16:48:20.49	274.03	16.80	-41.6	-42.2	19.1	0.00e+00	0	56	0	1912602624	45	3927
2026-01-01 16:48:21.49	274.25	16.82	-41.5	-42.1	19.2	0.00e+00	0	56	0	1919942656	45	3869
2026-01-01 16:48:22.48	274.47	16.84	-41.4	-42.0	19.3	0.00e+00	0	56	0	1927282688	45	3838
2026-01-01 16:48:23.47	274.69	16.86	-41.4	-42.0	19.3	0.00e+00	0	56	0	1934622720	45	3856
2026-01-01 16:48:24.47	274.92	16.88	-41.4	-41.9	19.3	0.00e+00	0	56	0	1941962752	45	3813
2026-01-01 16:48:25.45	275.13	16.89	-41.3	-41.9	19.4	0.00e+00	0	56	0	1948254208	45	3791
2026-01-01 16:48:26.44	275.36	16.91	-41.3	-41.8	19.4	0.00e+00	0	56	0	1955594240	45	3762
2026-01-01 16:48:27.42	275.57	16.92	-41.3	-41.9	19.4	0.00e+00	0	56	0	1962934272	45	3794
2026-01-01 16:48:28.41	275.80	16.94	-41.3	-41.9	19.4	0.00e+00	0	56	0	1970274304	45	3798
2026-01-01 16:48:29.40	276.02	16.95	-41.4	-42.0	19.3	0.00e+00	0	56	0	1977614336	45	3843
2026-01-01 16:48:30.38	276.24	16.97	-41.4	-42.0	19.2	0.00e+00	0	56	0	1983905792	45	3851
2026-01-01 16:48:31.36	276.46	16.98	-41.6	-42.2	19.1	0.00e+00	0	56	0	1991245824	45	3930
2026-01-01 16:48:32.35	276.68	17.00	-41.6	-42.3	19.0	0.00e+00	0	56	0	1998585856	45	3960
2026-01-01 16:48:33.34	276.90	17.01	-41.4	-42.0	19.2	0.00e+00	0	56	0	2005925888	45	3854
2026-01-01 16:48:34.34	277.13	17.02	-41.4	-42.0	19.3	0.00e+00	0	56	0	2013265920	45	3840
2026-01-01 16:48:35.33	277.35	17.04	-41.6	-42.2	19.0	0.00e+00	0	56	0	2020605952	45	3951
2026-01-01 16:48:36.31	277.57	17.05	-41.7	-42.3	19.0	0.00e+00	0	56	0	2026897408	45	3974
2026-01-01 16:48:37.30	277.80	17.06	-41.6	-42.2	19.0	0.00e+00	0	56	0	2034237440	45	3952
2026-01-01 16:48:38.28	278.02	17.07	-41.7	-42.3	18.9	0.00e+00	0	56	0	2041577472	45	3997
2026-01-01 16:48:39.28	278.24	17.08	-41.8	-42.4	18.9	0.00e+00	0	57	0	2048917504	45	4016
2026-01-01 16:48:40.27	278.47	17.09	-41.7	-42.3	19.0	0.00e+00	0	56	0	2055208960	45	3996
2026-01-01 16:48:41.26	278.69	17.10	-41.6	-42.1	19.2	0.00e+00	0	57	0	2062548992	45	3910
2026-01-01 16:48:42.25	278.91	17.11	-41.5	-42.1	19.2	0.00e+00	0	57	0	2069889024	45	3875
2026-01-01 16:48:43.24	279.14	17.12	-41.5	-42.1	19.1	0.00e+00	0	56	0	2077229056	45	3893
2026-01-01 16:48:44.22	279.36	17.13	-41.6	-42.2	19.0	0.00e+00	0	56	0	2083520512	45	3934
2026-01-01 16:48:45.21	279.59	17.14	-41.4	-42.0	19.3	0.00e+00	0	56	0	2090860544	45	3837
2026-01-01 16:48:46.20	279.81	17.15	-41.3	-41.9	19.4	0.00e+00	0	56	0	2098200576	45	3802
2026-01-01 16:48:47.19	280.03	17.16	-41.5	-42.1	19.2	0.00e+00	0	56	0	2105540608	45	3872
2026-01-01 16:48:48.17	280.26	17.16	-41.6	-42.2	19.1	0.00e+00	0	57	0	2112880640	45	3932
2026-01-01 16:48:49.16	280.48	17.17	-41.4	-42.0	19.2	0.00e+00	0	57	0	2120220672	45	3850
2026-01-01 16:48:50.15	280.71	17.18	-41.4	-42.0	19.2	0.00e+00	0	57	0	2126512128	45	3837
2026-01-01 16:48:51.14	280.93	17.18	-41.5	-42.1	19.1	0.00e+00	0	56	0	2133852160	45	3905
2026-01-01 16:48:52.13	281.16	17.19	-41.7	-42.3	18.9	0.00e+00	0	57	0	2141192192	45	3983
2026-01-01 16:48:53.12	281.38	17.19	-41.7	-42.4	18.9	0.00e+00	0	56	0	2148532224	45	4016
2026-01-01 16:48:54.11	281.61	17.20	-42.1	-42.7	18.5	0.00e+00	0	56	0	2155872256	45	4185
2026-01-01 16:48:55.11	281.84	17.20	-42.0	-42.7	18.6	0.00e+00	0	56	0	2163212288	45	4154
2026-01-01 16:48:56.09	282.06	17.21	-42.2	-42.9	18.3	0.00e+00	0	56	0	2169503744	46	4016
2026-01-01 16:48:57.08	282.28	17.21	-42.3	-43.0	18.2	0.00e+00	0	57	0	2176843776	46	4061
2026-01-01 16:48:58.06	282.51	17.21	-42.5	-43.2	17.9	0.00e+00	0	56	0	2184183808	46	4149
2026-01-01 16:48:59.05	282.73	17.22	-42.7	-43.4	17.6	0.00e+00	0	56	0	2191523840	47	4045
2026-01-01 16:49:00.04	282.96	17.22	-42.9	-43.7	17.3	0.00e+00	0	57	0	2198863872	47	4168
2026-01-01 16:49:01.03	283.18	17.22	-43.3	-44.1	17.0	0.00e+00	0	57	0	2205155328	48	4121
2026-01-01 16:49:02.02	283.41	17.22	-43.7	-44.6	16.5	0.00e+00	0	57	0	2212495360	49	4110
2026-01-01 16:49:03.01	283.64	17.22	-44.0	-44.9	16.1	0.00e+00	0	57	0	2219835392	49	4273
2026-01-01 16:49:04.00	283.86	17.22	-44.5	-45.5	15.4	0.00e+00	0	57	0	2227175424	50	4335
2026-01-01 16:49:04.98	284.09	17.22	-44.7	-45.7	15.1	0.00e+00	0	56	0	2234515456	50	4435
2026-01-01 16:49:05.97	284.31	17.22	-45.1	-46.4	14.2	2.20e-06	0	57	0	2240806912	52	4259
2026-01-01 16:49:06.96	284.54	17.22	-45.3	-46.6	13.9	4.50e-06	0	57	0	2248146944	52	4353
2026-01-01 16:49:07.95	284.76	17.22	-46.0	-47.6	12.8	2.17e-05	0	57	0	2255486976	53	4603
2026-01-01 16:49:08.94	284.99	17.22	-46.0	-47.6	12.6	1.04e-04	0	56	0	2262827008	53	4618
2026-01-01 16:49:09.93	285.21	17.22	-46.4	-48.2	11.8	3.46e-04	0	57	0	2270167040	54	4688
2026-01-01 16:49:10.91	285.44	17.22	-46.9	-49.0	11.0	1.11e-03	0	57	0	2276458496	55	4824
2026-01-01 16:49:11.90	285.66	17.21	-47.5	-49.9	10.1	6.11e-03	0	57	0	2283798528	56	5049
2026-01-01 16:49:12.89	285.89	17.21	-48.0	-50.8	9.1	1.86e-02	0	57	0	2291138560	57	5303
2026-01-01 16:49:13.88	286.11	17.21	-48.4	-51.6	8.2	5.31e-02	0	57	0	2298478592	58	5478
2026-01-01 16:49:14.87	286.34	17.20	-48.8	-52.4	7.4	9.93e-02	0	57	0	2304770048	59	5692
2026-01-01 16:49:15.86	286.56	17.20	-48.9	-52.9	6.9	1.63e-01	0	57	0	2312110080	59	6032
2026-01-01 16:49:16.86	286.79	17.19	-49.3	-53.8	6.0	3.11e-01	0	57	0	2319450112	60	6346
2026-01-01 16:49:17.84	287.01	17.19	-49.3	-54.2	5.8	4.33e-01	0	57	0	2326790144	60	6610
2026-01-01 16:49:18.83	287.24	17.18	-49.4	-54.7	5.4	7.04e-01	0	57	0	2329935872	60	7030
2026-01-01 16:49:19.81	287.46	17.18	-49.5	-54.7	5.4	7.20e-01	0	57	0	2332033024	60	7002
2026-01-01 16:49:20.80	287.69	17.17	-49.3	-54.3	5.6	6.82e-01	0	57	0	2334130176	60	6718
2026-01-01 16:49:21.79	287.91	17.16	-49.1	-53.7	6.1	3.78e-01	0	57	0	2341470208	60	6233
2026-01-01 16:49:22.78	288.14	17.16	-48.8	-53.0	6.6	2.34e-01	0	57	0	2347761664	60	5765
2026-01-01 16:49:23.77	288.36	17.15	-48.6	-52.4	7.3	1.49e-01	0	57	0	2355101696	60	5359
2026-01-01 16:49:24.75	288.58	17.14	-48.6	-52.1	7.6	1.06e-01	0	57	0	2362441728	59	5497
2026-01-01 16:49:25.74	288.81	17.13	-48.6	-52.1	7.6	9.59e-02	0	57	0	2369781760	59	5505
2026-01-01 16:49:26.73	289.03	17.12	-48.3	-51.5	8.3	6.73e-02	0	57	0	2377121792	59	5129
2026-01-01 16:49:27.72	289.26	17.11	-48.0	-50.8	9.0	3.28e-02	0	57	0	2383413248	58	5019
2026-01-01 16:49:28.70	289.48	17.10	-47.6	-50.2	9.7	1.46e-02	0	57	0	2390753280	58	4657
2026-01-01 16:49:29.69	289.70	17.09	-47.3	-49.6	10.4	6.52e-03	0	57	0	2398093312	57	4613
2026-01-01 16:49:30.67	289.92	17.08	-46.9	-48.9	11.1	2.66e-03	0	56	0	2405433344	56	4537
2026-01-01 16:49:31.66	290.15	17.07	-46.5	-48.3	11.8	7.15e-04	0	57	0	2411724800	56	4230
2026-01-01 16:49:32.64	290.37	17.06	-46.2	-47.8	12.3	2.52e-04	0	57	0	2419064832	55	4235
2026-01-01 16:49:33.63	290.59	17.05	-46.1	-47.8	12.5	1.30e-04	0	57	0	2426404864	55	4198
2026-01-01 16:49:34.62	290.81	17.03	-45.7	-47.1	13.3	4.11e-05	0	57	0	2433744896	54	4130
2026-01-01 16:49:35.60	291.03	17.02	-45.1	-46.4	14.2	3.40e-06	0	57	0	2441084928	53	4014
2026-01-01 16:49:36.59	291.26	17.01	-44.8	-45.9	14.8	0.00e+00	0	57	0	2447376384	52	4009
2026-01-01 16:49:37.57	291.48	17.00	-44.4	-45.5	15.4	0.00e+00	0	57	0	2454716416	51	4062
2026-01-01 16:49:38.56	291.70	16.98	-44.2	-45.1	15.8	0.00e+00	0	57	0	2462056448	51	3894
2026-01-01 16:49:39.56	291.92	16.97	-43.9	-44.8	16.2	0.00e+00	0	57	0	2469396480	50	3971
2026-01-01 16:49:40.55	292.14	16.95	-43.8	-44.7	16.4	0.00e+00	0	57	0	2476736512	50	3916
2026-01-01 16:49:41.54	292.37	16.94	-43.4	-44.2	16.9	0.00e+00	0	57	0	2484076544	49	3947
2026-01-01 16:49:42.53	292.59	16.92	-43.0	-43.7	17.5	0.00e+00	0	57	0	2490368000	48	3951
2026-01-01 16:49:43.52	292.81	16.91	-42.3	-42.9	18.2	0.00e+00	0	57	0	2497708032	47	3822
2026-01-01 16:49:44.51	293.03	16.89	-42.0	-42.6	18.6	0.00e+00	0	57	0	2505048064	46	3884
2026-01-01 16:49:45.49	293.25	16.87	-41.7	-42.3	18.9	0.00e+00	0	57	0	2512388096	46	3776
2026-01-01 16:49:46.49	293.47	16.85	-41.7	-42.3	19.0	0.00e+00	0	57	0	2519728128	46	3749
2026-01-01 16:49:47.48	293.69	16.84	-41.7	-42.3	18.9	0.00e+00	0	57	0	2527068160	46	3772
2026-01-01 16:49:48.47	293.91	16.82	-41.7	-42.3	18.9	0.00e+00	0	57	0	2533359616	46	3775
2026-01-01 16:49:49.45	294.13	16.80	-41.7	-42.3	19.0	0.00e+00	0	57	0	2540699648	46	3740
2026-01-01 16:49:50.44	294.35	16.78	-41.7	-42.3	18.9	0.00e+00	0	57	0	2548039680	46	3769
2026-01-01 16:49:51.42	294.56	16.76	-41.8	-42.4	18.9	0.00e+00	0	57	0	2554331136	46	3801
2026-01-01 16:49:52.40	294.78	16.74	-41.8	-42.4	18.8	0.00e+00	0	57	0	2561671168	46	3820
2026-01-01 16:49:53.38	295.00	16.72	-41.7	-42.4	18.9	0.00e+00	0	57	0	2569011200	46	3783
2026-01-01 16:49:54.38	295.22	16.70	-41.8	-42.4	18.8	0.00e+00	0	57	0	2576351232	46	3806
2026-01-01 16:49:55.37	295.43	16.68	-41.7	-42.3	18.9	0.00e+00	0	57	0	2583691264	46	3776
2026-01-01 16:49:56.35	295.65	16.66	-41.7	-42.3	18.9	0.00e+00	0	57	0	2589982720	46	3773
2026-01-01 16:49:57.32	295.86	16.64	-41.7	-42.3	19.0	0.00e+00	0	57	0	2597322752	46	3764
2026-01-01 16:49:58.31	296.08	16.62	-41.8	-42.4	18.9	0.00e+00	0	57	0	2604662784	46	3782
2026-01-01 16:49:59.30	296.30	16.60	-41.8	-42.4	18.9	0.00e+00	0	57	0	2612002816	46	3809
2026-01-01 16:50:00.29	296.51	16.58	-41.9	-42.5	18.8	0.00e+00	0	57	0	2619342848	46	3830
2026-01-01 16:50:01.28	296.73	16.55	-42.0	-42.7	18.6	0.00e+00	0	57	0	2626682880	46	3919
2026-01-01 16:50:02.27	296.94	16.53	-42.2	-42.8	18.5	0.00e+00	0	57	0	2632974336	46	3989
2026-01-01 16:50:03.25	297.16	16.51	-42.0	-42.6	18.7	0.00e+00	0	57	0	2640314368	46	3903
2026-01-01 16:50:04.24	297.37	16.48	-42.0	-42.6	18.7	0.00e+00	0	57	0	2647654400	46	3884
2026-01-01 16:50:05.23	297.59	16.46	-41.9	-42.6	18.7	0.00e+00	0	57	0	2654994432	46	3872
2026-01-01 16:50:06.22	297.80	16.43	-41.9	-42.5	18.7	0.00e+00	0	57	0	2661285888	46	3857
2026-01-01 16:50:07.22	298.02	16.41	-42.0	-42.6	18.7	0.00e+00	0	57	0	2668625920	46	3905
2026-01-01 16:50:08.21	298.23	16.38	-42.2	-42.8	18.5	0.00e+00	0	57	0	2675965952	46	4004
2026-01-01 16:50:09.20	298.45	16.36	-42.1	-42.7	18.6	0.00e+00	0	57	0	2683305984	46	3938
2026-01-01 16:50:10.19	298.66	16.33	-42.3	-42.9	18.3	0.00e+00	0	57	0	2690646016	46	4048
2026-01-01 16:50:11.19	298.87	16.31	-42.0	-42.7	18.6	0.00e+00	0	57	0	2697986048	46	3916
2026-01-01 16:50:12.17	299.08	16.28	-41.8	-42.5	18.8	0.00e+00	0	57	0	2705326080	46	3827
2026-01-01 16:50:13.17	299.30	16.25	-41.8	-42.4	18.9	0.00e+00	0	57	0	2711617536	46	3791
2026-01-01 16:50:14.15	299.51	16.23	-41.7	-42.3	18.9	0.00e+00	0	57	0	2718957568	46	3771
2026-01-01 16:50:15.15	299.72	16.20	-41.8	-42.4	18.9	0.00e+00	0	57	0	2726297600	46	3794
2026-01-01 16:50:16.15	299.93	16.17	-41.9	-42.5	18.7	0.00e+00	0	57	0	2733637632	46	3843
2026-01-01 16:50:17.13	300.14	16.14	-41.8	-42.4	18.9	0.00e+00	0	57	0	2740977664	46	3803
2026-01-01 16:50:18.12	300.35	16.11	-41.9	-42.6	18.7	0.00e+00	0	57	0	2747269120	46	3872
2026-01-01 16:50:19.10	300.56	16.08	-42.3	-42.9	18.4	0.00e+00	0	57	0	2754609152	46	4033
2026-01-01 16:50:20.10	300.77	16.05	-42.1	-42.7	18.6	0.00e+00	0	57	0	2761949184	46	3937
2026-01-01 16:50:21.08	300.98	16.02	-42.4	-43.0	18.2	0.00e+00	0	57	0	2769289216	46	4094
2026-01-01 16:50:22.08	301.19	15.99	-42.4	-43.0	18.3	0.00e+00	0	57	0	2776629248	46	4098
2026-01-01 16:50:23.07	301.39	15.96	-42.4	-43.1	18.2	0.00e+00	0	57	0	2782920704	46	4127
2026-01-01 16:50:24.06	301.60	15.93	-42.5	-43.2	18.1	0.00e+00	0	57	0	2790260736	46	4164
2026-01-01 16:50:25.05	301.81	15.90	-42.4	-43.1	18.2	0.00e+00	0	57	0	2797600768	46	4120
2026-01-01 16:50:26.04	302.02	15.87	-42.3	-43.0	18.3	0.00e+00	0	57	0	2804940800	46	4075
2026-01-01 16:50:27.02	302.22	15.84	-42.4	-43.1	18.3	0.00e+00	0	57	0	2811232256	46	4100
2026-01-01 16:50:28.01	302.43	15.81	-42.2	-42.9	18.4	0.00e+00	0	57	0	2818572288	46	4023
2026-01-01 16:50:29.00	302.63	15.78	-42.6	-43.2	18.0	0.00e+00	0	57	0	2825912320	46	4187
2026-01-01 16:50:29.98	302.83	15.74	-42.2	-42.9	18.4	0.00e+00	0	57	0	2833252352	46	4025
2026-01-01 16:50:30.96	303.04	15.71	-42.0	-42.7	18.6	0.00e+00	0	57	0	2840592384	46	3917
2026-01-01 16:50:31.96	303.24	15.68	-41.9	-42.5	18.8	0.00e+00	0	57	0	2847932416	46	3834
2026-01-01 16:50:32.95	303.45	15.65	-41.8	-42.4	18.9	0.00e+00	0	57	0	2854223872	46	3793
2026-01-01 16:50:33.94	303.65	15.61	-41.8	-42.4	18.9	0.00e+00	0	57	0	2861563904	46	3792
2026-01-01 16:50:34.93	303.85	15.58	-41.9	-42.5	18.8	0.00e+00	0	57	0	2868903936	46	3830
2026-01-01 16:50:35.91	304.05	15.54	-42.0	-42.6	18.6	0.00e+00	0	57	0	2876243968	46	3889
2026-01-01 16:50:36.90	304.25	15.51	-42.1	-42.8	18.5	0.00e+00	0	57	0	2883584000	46	3961
2026-01-01 16:50:37.89	304.46	15.47	-42.1	-42.7	18.6	0.00e+00	0	57	0	2889875456	46	3925
2026-01-01 16:50:38.88	304.66	15.44	-42.2	-42.9	18.5	0.00e+00	0	57	0	2897215488	46	4011
2026-01-01 16:50:39.87	304.86	15.40	-42.4	-43.1	18.2	0.00e+00	0	57	0	2904555520	46	4140
2026-01-01 16:50:40.86	305.06	15.37	-42.3	-43.0	18.3	0.00e+00	0	57	0	2911895552	46	4069
2026-01-01 16:50:41.85	305.26	15.33	-42.3	-43.0	18.3	0.00e+00	0	57	0	2919235584	46	4065
2026-01-01 16:50:42.84	305.46	15.30	-42.6	-43.2	18.1	0.00e+00	0	57	0	2926575616	46	4186
2026-01-01 16:50:43.81	305.65	15.26	-42.4	-43.1	18.2	0.00e+00	0	57	0	2932867072	46	4104
2026-01-01 16:50:44.79	305.85	15.22	-42.3	-42.9	18.4	0.00e+00	0	57	0	2940207104	46	4031
2026-01-01 16:50:45.78	306.04	15.19	-42.4	-43.0	18.2	0.00e+00	0	57	0	2947547136	46	4088
2026-01-01 16:50:46.77	306.24	15.15	-42.3	-43.0	18.3	0.00e+00	0	57	0	2953838592	46	4064
2026-01-01 16:50:47.75	306.44	15.11	-42.2	-42.8	18.4	0.00e+00	0	57	0	2961178624	46	4000
2026-01-01 16:50:48.74	306.63	15.08	-42.1	-42.7	18.5	0.00e+00	0	57	0	2968518656	46	3943
2026-01-01 16:50:49.73	306.83	15.04	-42.2	-42.9	18.4	0.00e+00	0	57	0	2975858688	46	4017
2026-01-01 16:50:50.72	307.02	15.00	-42.2	-42.9	18.3	0.00e+00	0	57	0	2983198720	46	4030
2026-01-01 16:50:51.71	307.22	14.96	-42.2	-42.9	18.4	0.00e+00	0	57	0	2989490176	46	4008
2026-01-01 16:50:52.70	307.41	14.92	-42.2	-42.9	18.3	0.00e+00	0	57	0	2996830208	46	4033
2026-01-01 16:50:53.69	307.61	14.88	-42.4	-43.1	18.1	0.00e+00	0	57	0	3004170240	46	4113
2026-01-01 16:50:54.67	307.80	14.85	-42.3	-43.0	18.3	0.00e+00	0	57	0	3011510272	46	4067
2026-01-01 16:50:55.66	307.99	14.81	-42.4	-43.1	18.2	0.00e+00	0	57	0	3018850304	46	4105
2026-01-01 16:50:56.65	308.18	14.77	-42.6	-43.3	17.9	0.00e+00	0	57	0	3026190336	46	4227
2026-01-01 16:50:57.64	308.38	14.73	-42.5	-43.3	18.0	0.00e+00	0	57	0	3032481792	47	3963
2026-01-01 16:50:58.62	308.56	14.69	-42.6	-43.3	18.0	0.00e+00	0	57	0	3039821824	47	3982
2026-01-01 16:50:59.62	308.76	14.65	-42.7	-43.4	17.8	0.00e+00	0	57	0	3047161856	47	4022
2026-01-01 16:51:00.62	308.95	14.61	-42.6	-43.4	17.9	0.00e+00	0	57	0	3054501888	47	4009
2026-01-01 16:51:01.60	309.14	14.57	-42.7	-43.5	17.8	0.00e+00	0	57	0	3061841920	47	4054
2026-01-01 16:51:02.59	309.33	14.52	-42.8	-43.6	17.7	0.00e+00	0	57	0	3069181952	47	4108
2026-01-01 16:51:03.58	309.52	14.48	-42.8	-43.6	17.7	0.00e+00	0	57	0	3075473408	47	4102
2026-01-01 16:51:04.57	309.70	14.44	-42.6	-43.3	18.0	0.00e+00	0	57	0	3082813440	47	3983
2026-01-01 16:51:05.55	309.89	14.40	-42.5	-43.1	18.1	0.00e+00	0	57	0	3090153472	47	3900
2026-01-01 16:51:06.54	310.08	14.36	-42.4	-43.1	18.1	0.00e+00	0	57	0	3097493504	47	3876
2026-01-01 16:51:07.54	310.27	14.32	-42.5	-43.1	18.1	0.00e+00	0	57	0	3104833536	47	3906
2026-01-01 16:51:08.52	310.45	14.27	-42.6	-43.3	17.9	0.00e+00	0	57	0	3111124992	47	3989
2026-01-01 16:51:09.51	310.64	14.23	-42.7	-43.4	17.8	0.00e+00	0	57	0	3118465024	47	4020
2026-01-01 16:51:10.50	310.82	14.19	-42.4	-43.1	18.1	0.00e+00	0	57	0	3125805056	47	3903
2026-01-01 16:51:11.49	311.01	14.15	-42.3	-42.9	18.3	0.00e+00	0	57	0	3133145088	47	3813
2026-01-01 16:51:12.48	311.19	14.10	-42.2	-42.8	18.4	0.00e+00	0	57	0	3140485120	47	3757
2026-01-01 16:51:13.47	311.37	14.06	-42.2	-42.8	18.4	0.00e+00	0	57	0	3147825152	47	3774
2026-01-01 16:51:14.46	311.56	14.02	-42.2	-42.8	18.4	0.00e+00	0	57	0	3154116608	47	3771
2026-01-01 16:51:15.45	311.74	13.97	-42.2	-42.8	18.4	0.00e+00	0	57	0	3161456640	47	3772
2026-01-01 16:51:16.44	311.92	13.93	-42.2	-42.8	18.4	0.00e+00	0	57	0	3168796672	47	3774
2026-01-01 16:51:17.43	312.10	13.89	-42.1	-42.7	18.5	0.00e+00	0	57	0	3176136704	47	3734
2026-01-01 16:51:18.41	312.28	13.84	-42.1	-42.8	18.5	0.00e+00	0	57	0	3182428160	47	3740
2026-01-01 16:51:19.40	312.46	13.80	-42.2	-42.9	18.3	0.00e+00	0	57	0	3189768192	47	3805
2026-01-01 16:51:20.38	312.64	13.75	-42.3	-43.0	18.2	0.00e+00	0	57	0	3197108224	47	3846
2026-01-01 16:51:21.37	312.82	13.71	-42.3	-42.9	18.2	0.00e+00	0	57	0	3204448256	47	3823
2026-01-01 16:51:22.37	313.00	13.66	-42.4	-43.1	18.2	0.00e+00	0	57	0	3210739712	47	3871
2026-01-01 16:51:23.36	313.18	13.62	-42.5	-43.2	18.1	0.00e+00	0	57	0	3218079744	47	3915
2026-01-01 16:51:24.34	313.36	13.57	-42.4	-43.1	18.2	0.00e+00	0	57	0	3225419776	47	3870
2026-01-01 16:51:25.33	313.53	13.53	-42.4	-43.1	18.1	0.00e+00	0	57	0	3232759808	47	3887
2026-01-01 16:51:26.31	313.71	13.48	-42.5	-43.1	18.1	0.00e+00	0	57	0	3240099840	47	3907
2026-01-01 16:51:27.30	313.88	13.44	-42.6	-43.3	17.9	0.00e+00	0	57	0	3247439872	47	3994
2026-01-01 16:51:28.28	314.06	13.39	-42.7	-43.4	17.9	0.00e+00	0	57	0	3253731328	47	4005
2026-01-01 16:51:29.27	314.23	13.35	-42.6	-43.3	17.9	0.00e+00	0	57	0	3261071360	47	3996
2026-01-01 16:51:30.25	314.41	13.30	-42.5	-43.2	18.0	0.00e+00	0	57	0	3268411392	47	3938
2026-01-01 16:51:31.24	314.58	13.25	-42.6	-43.3	17.9	0.00e+00	0	57	0	3275751424	47	3971
2026-01-01 16:51:32.24	314.76	13.21	-42.7	-43.4	17.8	0.00e+00	0	57	0	3283091456	47	4030
2026-01-01 16:51:33.23	314.93	13.16	-42.7	-43.5	17.8	0.00e+00	0	57	0	3290431488	47	4053
2026-01-01 16:51:34.23	315.10	13.11	-42.6	-43.3	17.9	0.00e+00	0	57	0	3296722944	47	3996
2026-01-01 16:51:35.22	315.28	13.07	-42.7	-43.4	17.8	0.00e+00	0	57	0	3304062976	47	4046
2026-01-01 16:51:36.21	315.45	13.02	-42.6	-43.3	17.9	0.00e+00	0	57	0	3311403008	47	3996
2026-01-01 16:51:37.20	315.62	12.97	-42.6	-43.3	17.9	0.00e+00	0	57	0	3318743040	47	3993
2026-01-01 16:51:38.19	315.79	12.93	-42.7	-43.4	17.8	0.00e+00	0	57	0	3326083072	47	4039
2026-01-01 16:51:39.18	315.96	12.88	-42.8	-43.5	17.7	0.00e+00	0	57	0	3332374528	47	4065
2026-01-01 16:51:40.18	316.13	12.83	-42.9	-43.6	17.6	0.00e+00	0	57	0	3339714560	47	4128
2026-01-01 16:51:41.17	316.30	12.78	-42.8	-43.5	17.7	0.00e+00	0	57	0	3347054592	47	4077
2026-01-01 16:51:42.15	316.46	12.74	-42.8	-43.6	17.6	0.00e+00	0	57	0	3354394624	47	4112
2026-01-01 16:51:43.14	316.63	12.69	-42.9	-43.7	17.5	0.00e+00	0	57	0	3361734656	47	4157
2026-01-01 16:51:44.14	316.80	12.64	-42.8	-43.6	17.6	0.00e+00	0	57	0	3369074688	47	4104
2026-01-01 16:51:45.12	316.97	12.59	-42.9	-43.6	17.5	0.00e+00	0	57	0	3375366144	47	4132
2026-01-01 16:51:46.12	317.13	12.54	-43.0	-43.7	17.5	0.00e+00	0	57	0	3382706176	47	4183
2026-01-01 16:51:47.11	317.30	12.49	-42.9	-43.6	17.6	0.00e+00	0	57	0	3390046208	47	4113
2026-01-01 16:51:48.09	317.46	12.45	-42.9	-43.6	17.5	0.00e+00	0	57	0	3397386240	47	4121
2026-01-01 16:51:49.08	317.63	12.40	-42.9	-43.7	17.5	0.00e+00	0	57	0	3404726272	47	4154
2026-01-01 16:51:50.07	317.79	12.35	-43.0	-43.7	17.4	0.00e+00	0	57	0	3411017728	47	4179
2026-01-01 16:51:51.06	317.96	12.30	-42.9	-43.6	17.5	0.00e+00	0	57	0	3418357760	47	4140
2026-01-01 16:51:52.04	318.12	12.25	-43.0	-43.8	17.4	0.00e+00	0	58	0	3425697792	47	4205
2026-01-01 16:51:53.03	318.28	12.20	-43.5	-44.3	17.1	0.00e+00	0	57	0	3433037824	48	4202
2026-01-01 16:51:54.02	318.44	12.15	-43.3	-44.0	17.3	0.00e+00	0	57	0	3439329280	48	4097
2026-01-01 16:51:55.01	318.60	12.10	-43.1	-43.9	17.5	0.00e+00	0	58	0	3446669312	48	4020
2026-01-01 16:51:56.00	318.76	12.05	-43.2	-43.9	17.4	0.00e+00	0	57	0	3454009344	48	4039
2026-01-01 16:51:56.99	318.92	12.01	-43.2	-44.0	17.3	0.00e+00	0	57	0	3461349376	48	4073
2026-01-01 16:51:57.97	319.08	11.96	-43.4	-44.2	17.2	0.00e+00	0	57	0	3468689408	48	4150
2026-01-01 16:51:58.96	319.24	11.91	-43.2	-44.0	17.4	0.00e+00	0	57	0	3474980864	48	4067
2026-01-01 16:51:59.96	319.40	11.86	-43.4	-44.2	17.2	0.00e+00	0	57	0	3482320896	48	4163
2026-01-01 16:52:00.94	319.56	11.81	-43.6	-44.5	16.9	0.00e+00	0	57	0	3489660928	48	4295
2026-01-01 16:52:01.93	319.72	11.76	-43.4	-44.1	17.2	0.00e+00	0	57	0	3497000960	48	4144
2026-01-01 16:52:02.92	319.87	11.71	-43.1	-43.9	17.4	0.00e+00	0	57	0	3504340992	48	4018
2026-01-01 16:52:03.91	320.03	11.66	-43.1	-43.8	17.5	0.00e+00	0	57	0	3511681024	48	3984
2026-01-01 16:52:04.90	320.19	11.61	-43.0	-43.8	17.5	0.00e+00	0	57	0	3517972480	48	3970
2026-01-01 16:52:05.89	320.34	11.56	-43.0	-43.7	17.6	0.00e+00	0	57	0	3525312512	48	3933
2026-01-01 16:52:06.88	320.50	11.51	-43.0	-43.7	17.6	0.00e+00	0	57	0	3532652544	48	3927
2026-01-01 16:52:07.87	320.65	11.46	-43.1	-43.8	17.5	0.00e+00	0	58	0	3539992576	48	3973
2026-01-01 16:52:08.85	320.81	11.41	-43.2	-44.0	17.3	0.00e+00	0	57	0	3547332608	48	4071
2026-01-01 16:52:09.85	320.96	11.35	-43.2	-43.9	17.3	0.00e+00	0	58	0	3553624064	48	4049
2026-01-01 16:52:10.84	321.11	11.30	-43.2	-44.0	17.3	0.00e+00	0	57	0	3560964096	48	4057
2026-01-01 16:52:11.83	321.27	11.25	-43.3	-44.1	17.2	0.00e+00	0	58	0	3568304128	48	4122
2026-01-01 16:52:12.83	321.42	11.20	-43.5	-44.3	17.0	0.00e+00	0	57	0	3575644160	48	4204
2026-01-01 16:52:13.82	321.57	11.15	-43.4	-44.3	17.0	0.00e+00	0	58	0	3582984192	48	4194
2026-01-01 16:52:14.81	321.72	11.10	-43.5	-44.3	17.0	0.00e+00	0	58	0	3590324224	48	4212
2026-01-01 16:52:15.80	321.87	11.05	-43.7	-44.5	16.8	0.00e+00	0	57	0	3596615680	49	4086
2026-01-01 16:52:16.79	322.02	11.00	-43.6	-44.4	16.8	0.00e+00	0	57	0	3603955712	49	4048
2026-01-01 16:52:17.79	322.18	10.95	-43.7	-44.6	16.7	0.00e+00	0	57	0	3611295744	49	4106
2026-01-01 16:52:18.78	322.33	10.89	-43.9	-44.7	16.5	0.00e+00	0	57	0	3618635776	49	4187
2026-01-01 16:52:19.77	322.47	10.84	-43.8	-44.6	16.7	0.00e+00	0	58	0	3625975808	49	4122
2026-01-01 16:52:20.75	322.62	10.79	-43.7	-44.5	16.7	0.00e+00	0	57	0	3633315840	49	4089
2026-01-01 16:52:21.75	322.77	10.74	-43.7	-44.5	16.8	0.00e+00	0	58	0	3639607296	49	4088
2026-01-01 16:52:22.74	322.92	10.69	-43.6	-44.5	16.8	0.00e+00	0	57	0	3646947328	49	4064
2026-01-01 16:52:23.72	323.06	10.64	-43.8	-44.7	16.6	0.00e+00	0	57	0	3654287360	49	4156
2026-01-01 16:52:24.72	323.21	10.59	-44.0	-44.9	16.4	0.00e+00	0	57	0	3661627392	49	4243
2026-01-01 16:52:25.71	323.36	10.53	-43.9	-44.8	16.5	0.00e+00	0	58	0	3668967424	49	4208
2026-01-01 16:52:26.70	323.50	10.48	-43.8	-44.6	16.7	0.00e+00	0	57	0	3675258880	49	4126
2026-01-01 16:52:27.69	323.64	10.43	-43.8	-44.6	16.6	0.00e+00	0	57	0	3682598912	49	4136
2026-01-01 16:52:28.68	323.79	10.38	-43.7	-44.6	16.7	0.00e+00	0	57	0	3689938944	49	4107
2026-01-01 16:52:29.67	323.93	10.33	-43.8	-44.6	16.6	0.00e+00	0	57	0	3697278976	49	4130
2026-01-01 16:52:30.65	324.07	10.28	-44.0	-44.9	16.3	0.00e+00	0	58	0	3704619008	49	4273
2026-01-01 16:52:31.63	324.22	10.22	-44.0	-44.8	16.4	0.00e+00	0	58	0	3711959040	49	4239
2026-01-01 16:52:32.61	324.36	10.17	-43.8	-44.6	16.6	0.00e+00	0	58	0	3718250496	49	4141
2026-01-01 16:52:33.60	324.50	10.12	-43.7	-44.5	16.7	0.00e+00	0	58	0	3725590528	49	4074
2026-01-01 16:52:34.58	324.64	10.07	-43.7	-44.6	16.6	0.00e+00	0	57	0	3732930560	49	4114
2026-01-01 16:52:35.56	324.78	10.02	-43.9	-44.7	16.6	0.00e+00	0	58	0	3739222016	49	4176
2026-01-01 16:52:36.55	324.92	9.97	-44.0	-44.9	16.3	0.00e+00	0	57	0	3746562048	49	4265
2026-01-01 16:52:37.54	325.06	9.91	-44.0	-44.9	16.3	0.00e+00	0	57	0	3753902080	49	4291
2026-01-01 16:52:38.53	325.20	9.86	-44.2	-45.1	16.1	0.00e+00	0	57	0	3761242112	49	4364
2026-01-01 16:52:39.52	325.34	9.81	-44.3	-45.2	16.0	0.00e+00	0	57	0	3768582144	50	4166
2026-01-01 16:52:40.50	325.47	9.76	-44.4	-45.3	16.0	0.00e+00	0	57	0	3774873600	50	4214
2026-01-01 16:52:41.48	325.61	9.71	-44.5	-45.5	15.8	0.00e+00	0	58	0	3782213632	50	4316
2026-01-01 16:52:42.47	325.75	9.65	-44.5	-45.4	15.8	0.00e+00	0	57	0	3789553664	50	4290
2026-01-01 16:52:43.47	325.88	9.60	-44.4	-45.4	15.9	0.00e+00	0	57	0	3796893696	50	4256
2026-01-01 16:52:44.45	326.02	9.55	-44.7	-45.7	15.5	0.00e+00	0	57	0	3804233728	51	4180
2026-01-01 16:52:45.44	326.16	9.50	-44.7	-45.8	15.5	0.00e+00	0	57	0	3811573760	51	4203
2026-01-01 16:52:46.43	326.29	9.44	-44.4	-45.3	15.9	0.00e+00	0	58	0	3817865216	51	4000
2026-01-01 16:52:47.43	326.43	9.39	-44.2	-45.1	16.1	0.00e+00	0	58	0	3825205248	51	3900
2026-01-01 16:52:48.41	326.56	9.34	-43.9	-44.8	16.4	0.00e+00	0	57	0	3832545280	50	3984
2026-01-01 16:52:49.41	326.70	9.29	-43.9	-44.7	16.4	0.00e+00	0	57	0	3839885312	50	3958
2026-01-01 16:52:50.39	326.83	9.23	-43.8	-44.7	16.5	0.00e+00	0	57	0	3847225344	50	3943
2026-01-01 16:52:51.38	326.96	9.18	-43.7	-44.6	16.6	0.00e+00	0	58	0	3854565376	50	3885
2026-01-01 16:52:52.37	327.09	9.13	-43.5	-44.3	16.9	0.00e+00	0	57	0	3860856832	49	3996
2026-01-01 16:52:53.36	327.23	9.08	-43.4	-44.2	16.9	0.00e+00	0	58	0	3868196864	49	3944
2026-01-01 16:52:54.35	327.36	9.02	-43.4	-44.2	16.9	0.00e+00	0	57	0	3875536896	49	3952
2026-01-01 16:52:55.34	327.49	8.97	-43.5	-44.3	16.9	0.00e+00	0	57	0	3882876928	49	3970
2026-01-01 16:52:56.34	327.62	8.92	-43.6	-44.4	16.7	0.00e+00	0	57	0	3890216960	49	4047
2026-01-01 16:52:57.33	327.75	8.86	-43.8	-44.7	16.5	0.00e+00	0	57	0	3896508416	49	4147
2026-01-01 16:52:58.32	327.88	8.81	-43.8	-44.7	16.5	0.00e+00	0	57	0	3903848448	49	4157
2026-01-01 16:52:59.31	328.01	8.76	-43.8	-44.7	16.5	0.00e+00	0	58	0	3911188480	49	4154
2026-01-01 16:53:00.29	328.14	8.71	-44.0	-44.9	16.3	0.00e+00	0	57	0	3918528512	49	4252
2026-01-01 16:53:01.29	328.27	8.65	-44.0	-44.9	16.2	0.00e+00	0	57	0	3925868544	49	4247
2026-01-01 16:53:02.28	328.40	8.60	-44.1	-45.0	16.2	0.00e+00	0	58	0	3933208576	49	4293
2026-01-01 16:53:03.27	328.53	8.55	-44.1	-45.0	16.1	0.00e+00	0	58	0	3939500032	49	4318
2026-01-01 16:53:04.26	328.65	8.50	-44.3	-45.3	15.8	0.00e+00	0	58	0	3946840064	50	4205
2026-01-01 16:53:05.26	328.78	8.44	-44.3	-45.2	15.9	0.00e+00	0	58	0	3954180096	50	4192
2026-01-01 16:53:06.26	328.91	8.39	-44.5	-45.5	15.6	0.00e+00	0	57	0	3961520128	50	4303
2026-01-01 16:53:07.24	329.03	8.34	-44.3	-45.3	15.8	0.00e+00	0	57	0	3968860160	50	4196
2026-01-01 16:53:08.23	329.16	8.28	-44.2	-45.2	15.9	0.00e+00	0	57	0	3976200192	50	4175
2026-01-01 16:53:09.22	329.28	8.23	-44.2	-45.1	16.0	0.00e+00	0	57	0	3982491648	50	4135
2026-01-01 16:53:10.21	329.41	8.18	-44.3	-45.3	15.8	0.00e+00	0	58	0	3989831680	50	4214
2026-01-01 16:53:11.20	329.53	8.13	-44.4	-45.4	15.7	0.00e+00	0	58	0	3997171712	50	4255
2026-01-01 16:53:12.19	329.66	8.07	-44.4	-45.4	15.6	0.00e+00	0	57	0	4004511744	50	4271
2026-01-01 16:53:13.18	329.78	8.02	-44.4	-45.4	15.7	0.00e+00	0	58	0	4011851776	50	4277
2026-01-01 16:53:14.17	329.90	7.97	-44.5	-45.5	15.5	0.00e+00	0	57	0	4018143232	50	4339
2026-01-01 16:53:15.15	330.02	7.91	-44.4	-45.4	15.7	0.00e+00	0	58	0	4025483264	50	4272
2026-01-01 16:53:16.13	330.15	7.86	-44.3	-45.2	15.9	0.00e+00	0	58	0	4032823296	50	4182
2026-01-01 16:53:17.13	330.27	7.81	-44.2	-45.2	15.9	0.00e+00	0	57	0	4040163328	50	4153
2026-01-01 16:53:18.12	330.39	7.76	-44.2	-45.2	15.9	0.00e+00	0	58	0	4046454784	50	4167
2026-01-01 16:53:19.11	330.51	7.70	-44.4	-45.3	15.7	0.00e+00	0	58	0	4053794816	50	4231
2026-01-01 16:53:20.10	330.63	7.65	-44.6	-45.6	15.5	0.00e+00	0	57	0	4061134848	50	4352
2026-01-01 16:53:21.10	330.75	7.60	-44.3	-45.3	15.7	0.00e+00	0	58	0	4068474880	50	4199
2026-01-01 16:53:22.09	330.87	7.55	-44.1	-45.1	16.0	0.00e+00	0	58	0	4075814912	50	4106
2026-01-01 16:53:23.07	330.99	7.49	-44.1	-45.0	16.0	0.00e+00	0	58	0	4082106368	50	4088
2026-01-01 16:53:24.06	331.11	7.44	-44.2	-45.2	15.9	0.00e+00	0	57	0	4089446400	50	4165
2026-01-01 16:53:25.06	331.23	7.39	-44.3	-45.3	15.7	0.00e+00	0	58	0	4096786432	50	4202
2026-01-01 16:53:26.05	331.35	7.33	-44.3	-45.3	15.7	0.00e+00	0	57	0	4104126464	50	4203
2026-01-01 16:53:27.04	331.46	7.28	-44.4	-45.4	15.6	0.00e+00	0	58	0	4111466496	50	4285
2026-01-01 16:53:28.02	331.58	7.23	-44.6	-45.7	15.4	0.00e+00	0	58	0	4117757952	50	4393
2026-01-01 16:53:29.00	331.69	7.18	-44.5	-45.5	15.5	0.00e+00	0	58	0	4125097984	50	4311
2026-01-01 16:53:29.98	331.81	7.12	-44.4	-45.4	15.6	0.00e+00	0	57	0	4132438016	50	4265
2026-01-01 16:53:30.96	331.92	7.07	-44.5	-45.5	15.5	0.00e+00	0	57	0	4139778048	50	4316
2026-01-01 16:53:31.95	332.04	7.02	-44.6	-45.6	15.3	0.00e+00	0	57	0	4147118080	50	4386
2026-01-01 16:53:32.94	332.16	6.97	-44.6	-45.6	15.4	0.00e+00	0	57	0	4154458112	50	4364
2026-01-01 16:53:33.93	332.27	6.91	-44.4	-45.5	15.5	0.00e+00	0	58	0	4160749568	50	4298
2026-01-01 16:53:34.93	332.39	6.86	-44.6	-45.6	15.3	0.00e+00	0	57	0	4168089600	50	4370
2026-01-01 16:53:35.92	332.50	6.81	-44.5	-45.6	15.4	0.00e+00	0	58	0	4175429632	50	4360
2026-01-01 16:53:36.92	332.61	6.76	-44.6	-45.6	15.3	0.00e+00	0	58	0	4182769664	50	4352
2026-01-01 16:53:37.92	332.73	6.70	-44.7	-45.8	15.2	0.00e+00	0	57	0	4190109696	50	4454
2026-01-01 16:53:38.90	332.84	6.65	-44.5	-45.6	15.4	0.00e+00	0	57	0	4197449728	51	4099
2026-01-01 16:53:39.90	332.95	6.60	-44.4	-45.4	15.5	0.00e+00	0	58	0	4203741184	51	4048
2026-01-01 16:53:40.89	333.07	6.55	-44.5	-45.5	15.4	0.00e+00	0	57	0	4211081216	51	4068
2026-01-01 16:53:41.88	333.18	6.49	-44.7	-45.7	15.1	0.00e+00	0	58	0	4218421248	51	4191
2026-01-01 16:53:42.87	333.29	6.44	-44.6	-45.7	15.2	0.00e+00	0	58	0	4225761280	51	4168
2026-01-01 16:53:43.86	333.40	6.39	-44.6	-45.6	15.2	0.00e+00	0	58	0	4233101312	51	4141
2026-01-01 16:53:44.85	333.51	6.34	-44.8	-45.9	15.0	0.00e+00	0	58	0	4239392768	51	4253
2026-01-01 16:53:45.84	333.62	6.28	-44.7	-45.8	15.1	0.00e+00	0	58	0	4246732800	51	4223
2026-01-01 16:53:46.83	333.73	6.23	-44.6	-45.7	15.1	0.00e+00	0	58	0	4254072832	51	4175
2026-01-01 16:53:47.82	333.84	6.18	-44.7	-45.8	15.1	0.00e+00	0	58	0	4261412864	51	4227
2026-01-01 16:53:48.81	333.95	6.13	-44.9	-46.1	14.7	0.00e+00	0	58	0	4268752896	51	4354
2026-01-01 16:53:49.80	334.06	6.07	-44.9	-46.0	14.8	1.10e-06	0	58	0	4276092928	51	4317
2026-01-01 16:53:50.78	334.16	6.02	-45.1	-46.3	14.5	0.00e+00	0	58	0	4282384384	51	4487
2026-01-01 16:53:51.76	334.27	5.97	-45.0	-46.2	14.5	2.20e-06	0	58	0	4289724416	52	4181
2026-01-01 16:53:52.75	334.38	5.92	-45.2	-46.4	14.3	1.10e-06	0	58	0	4297064448	52	4260
2026-01-01 16:53:53.73	334.48	5.87	-45.2	-46.5	14.2	1.10e-06	0	58	0	4304404480	52	4293
2026-01-01 16:53:54.72	334.59	5.81	-45.3	-46.6	14.1	2.20e-06	0	58	0	4310695936	52	4346
2026-01-01 16:53:55.72	334.70	5.76	-45.4	-46.8	13.9	5.70e-06	0	58	0	4318035968	52	4466
2026-01-01 16:53:56.71	334.80	5.71	-45.7	-47.1	13.6	1.25e-05	0	58	0	4325376000	53	4384
2026-01-01 16:53:57.70	334.91	5.66	-45.7	-47.1	13.5	9.10e-06	0	58	0	4332716032	53	4391
2026-01-01 16:53:58.69	335.02	5.60	-45.8	-47.2	13.4	1.25e-05	0	58	0	4340056064	53	4422
2026-01-01 16:53:59.68	335.12	5.55	-45.8	-47.3	13.4	1.37e-05	0	58	0	4347396096	53	4452
2026-01-01 16:54:00.66	335.22	5.50	-45.7	-47.1	13.5	1.02e-05	0	58	0	4353687552	53	4373
2026-01-01 16:54:01.66	335.33	5.45	-45.8	-47.2	13.4	1.48e-05	0	58	0	4361027584	53	4423
2026-01-01 16:54:02.65	335.43	5.40	-45.9	-47.4	13.2	1.37e-05	0	58	0	4368367616	53	4534
2026-01-01 16:54:03.63	335.54	5.34	-46.0	-47.5	13.1	5.03e-05	0	58	0	4375707648	53	4568
2026-01-01 16:54:04.62	335.64	5.29	-45.7	-47.1	13.4	1.71e-05	0	57	0	4381999104	53	4358
2026-01-01 16:54:05.61	335.74	5.24	-45.4	-46.7	13.8	9.10e-06	0	58	0	4389339136	53	4184
2026-01-01 16:54:06.60	335.84	5.19	-45.4	-46.7	13.8	5.70e-06	0	58	0	4396679168	53	4184
2026-01-01 16:54:07.59	335.95	5.14	-45.1	-46.3	14.2	3.40e-06	0	58	0	4404019200	53	3971
2026-01-01 16:54:08.57	336.05	5.09	-45.0	-46.3	14.2	1.10e-06	0	58	0	4411359232	53	3975
2026-01-01 16:54:09.56	336.15	5.03	-44.8	-46.0	14.5	4.50e-06	0	57	0	4418699264	52	4088
2026-01-01 16:54:10.55	336.25	4.98	-51.2	-60.6	3.8	8.45e-01	0	58	104	4422893568	64	10968
2026-01-01 16:54:11.54	336.35	4.93	-51.6	-61.6	3.8	8.46e-01	0	58	104	4422893568	64	12365
2026-01-01 16:54:12.53	336.45	4.88	-51.9	-62.2	3.8	8.47e-01	0	58	104	4422893568	65	12444
2026-01-01 16:54:13.52	336.55	4.83	-52.1	-62.4	3.8	8.47e-01	0	58	104	4422893568	65	12675
2026-01-01 16:54:14.51	336.65	4.78	-52.0	-62.4	3.8	8.46e-01	0	58	104	4422893568	65	12747
2026-01-01 16:54:15.50	336.75	4.72	-52.1	-62.4	3.8	8.46e-01	0	58	104	4422893568	66	11987
2026-01-01 16:54:16.50	336.85	4.67	-51.7	-62.0	3.8	8.46e-01	0	58	104	4422893568	65	12190
2026-01-01 16:54:17.49	336.95	4.62	-52.4	-62.5	3.8	8.47e-01	0	58	104	4422893568	66	12156
2026-01-01 16:54:18.48	337.05	4.57	-52.3	-62.4	3.8	8.46e-01	0	58	104	4422893568	66	12070
2026-01-01 16:54:19.47	337.15	4.52	-52.1	-61.9	3.8	8.47e-01	0	58	104	4422893568	66	11397
2026-01-01 16:54:20.46	337.24	4.47	-52.5	-62.7	3.8	8.45e-01	0	58	104	4422893568	66	12452
2026-01-01 16:54:21.44	337.34	4.41	-52.3	-62.6	3.8	8.47e-01	0	58	104	4422893568	66	12333
2026-01-01 16:54:22.44	337.44	4.36	-52.3	-62.6	3.8	8.46e-01	0	58	104	4422893568	66	12264
2026-01-01 16:54:23.42	337.53	4.31	-52.3	-62.7	3.8	8.47e-01	0	58	104	4422893568	66	12424
2026-01-01 16:54:24.41	337.63	4.26	-52.6	-62.8	3.8	8.47e-01	0	58	104	4422893568	66	12544
2026-01-01 16:54:25.39	337.73	4.21	-52.5	-62.8	3.8	8.47e-01	0	58	104	4422893568	66	12523
2026-01-01 16:54:26.39	337.82	4.16	-52.5	-62.7	3.8	8.47e-01	0	57	104	4422893568	66	12511
2026-01-01 16:54:27.38	337.92	4.11	-52.5	-62.8	3.8	8.47e-01	0	58	104	4422893568	66	12584
2026-01-01 16:54:28.36	338.01	4.06	-52.5	-62.8	3.8	8.47e-01	0	58	104	4422893568	66	12659
2026-01-01 16:54:29.35	338.11	4.01	-52.5	-62.8	3.8	8.46e-01	0	58	104	4422893568	66	12598
2026-01-01 16:54:30.34	338.20	3.95	-52.6	-62.9	3.8	8.46e-01	0	58	104	4422893568	66	12666
2026-01-01 16:54:31.32	338.30	3.90	-52.5	-62.9	3.8	8.45e-01	0	58	104	4422893568	66	12692
2026-01-01 16:54:32.31	338.39	3.85	-52.5	-62.9	3.8	8.47e-01	0	58	104	4422893568	67	11989
2026-01-01 16:54:33.30	338.48	3.80	-52.7	-62.9	3.8	8.47e-01	0	58	104	4422893568	67	12028
2026-01-01 16:54:34.30	338.58	3.75	-52.7	-62.9	3.8	8.46e-01	0	58	104	4422893568	67	11991
2026-01-01 16:54:35.29	338.67	3.70	-52.6	-62.9	3.8	8.46e-01	0	58	104	4422893568	67	11966
2026-01-01 16:54:36.28	338.76	3.65	-52.7	-62.9	3.8	8.45e-01	0	58	104	4422893568	67	12030
2026-01-01 16:54:37.27	338.86	3.60	-52.7	-62.9	3.8	8.47e-01	0	58	104	4422893568	67	12005
2026-01-01 16:54:38.25	338.95	3.55	-52.7	-62.9	3.8	8.47e-01	0	58	104	4422893568	67	11961
2026-01-01 16:54:39.25	339.04	3.50	-52.7	-62.9	3.8	8.45e-01	0	58	104	4422893568	67	11997
