passes_logs/2026/01/01/R3.0SM8_Murmansk_STILSPACE/R3.0SM8_Murmansk_STILSPACE__20260101_234520_NOAA_21_JPSS-2_rec.log

#Pass ID: 20260101_234520_NOAA 21 (JPSS-2)
#Satellite: NOAA 21 (JPSS-2)
#Configuration: NOAA-21
#almurnet v.1.7.20240730
#Start time: 2026-01-01 23:46:39

#Version: 2.2.20231116
#Station: R3.0SM8_Murmansk_STILSPACE
#Location: 33.092731 lon 68.902999 lat
#TLE: 1 54234U 22150A   26001.26806856  .00000185  00000+0  10843-3 0  9990
#TLE: 2 54234  98.7484 302.3349 0001277 353.3887   6.7272 14.19530660162860

#Time	Az	El	Level	Level2	SNR	BER	BlckErr	Temp	State	Recorded	gain1	gain2
2026-01-01 23:46:39.39	24.83	8.59	-52.6	-63.3	3.8	8.48e-01	0	56	0	0	66	13421
2026-01-01 23:46:40.37	24.87	8.67	-52.6	-64.2	3.8	1.49e+00	0	57	104	0	68	13301
2026-01-01 23:46:41.36	24.91	8.75	-52.7	-64.1	3.8	1.49e+00	0	57	104	0	68	13243
2026-01-01 23:46:42.35	24.96	8.83	-52.6	-64.0	3.8	1.49e+00	0	57	104	0	67	13853
2026-01-01 23:46:43.35	25.00	8.91	-52.6	-64.0	3.8	1.49e+00	0	57	104	0	67	13865
2026-01-01 23:46:44.34	25.05	8.99	-52.6	-64.0	3.8	1.49e+00	0	57	104	0	67	13874
2026-01-01 23:46:45.32	25.09	9.06	-52.6	-64.1	3.8	1.49e+00	0	57	104	0	67	13900
2026-01-01 23:46:46.31	25.13	9.14	-52.5	-64.1	3.8	1.49e+00	0	57	104	0	67	13894
2026-01-01 23:46:47.30	25.18	9.22	-52.6	-64.1	3.8	1.49e+00	0	57	104	0	67	13922
2026-01-01 23:46:48.30	25.22	9.31	-52.6	-64.1	3.8	1.49e+00	0	57	104	0	67	13908
2026-01-01 23:46:49.29	25.27	9.39	-52.6	-64.0	3.8	1.49e+00	0	57	104	0	67	13866
2026-01-01 23:46:50.27	25.31	9.47	-52.6	-64.0	3.8	1.49e+00	0	57	104	0	67	13832
2026-01-01 23:46:51.26	25.36	9.55	-52.5	-64.0	3.8	1.49e+00	0	57	104	0	66	14707
2026-01-01 23:46:52.24	25.40	9.63	-52.6	-64.0	3.8	1.49e+00	0	57	104	0	66	14641
2026-01-01 23:46:53.24	25.45	9.71	-52.4	-64.0	3.8	1.49e+00	0	57	104	0	66	14647
2026-01-01 23:46:54.23	25.49	9.79	-52.5	-64.0	3.8	1.49e+00	0	57	104	0	66	14600
2026-01-01 23:46:55.23	25.54	9.87	-52.5	-64.0	3.8	1.49e+00	0	57	104	0	66	14548
2026-01-01 23:46:56.21	25.59	9.96	-52.5	-64.0	3.8	1.49e+00	0	57	104	0	66	14571
2026-01-01 23:46:57.20	25.63	10.04	-52.4	-64.0	3.8	1.49e+00	0	57	104	0	66	14589
2026-01-01 23:46:58.19	25.68	10.12	-52.5	-64.0	3.8	1.49e+00	0	57	104	0	66	14568
2026-01-01 23:46:59.18	25.73	10.20	-52.4	-63.9	3.8	1.49e+00	0	57	104	0	66	14448
2026-01-01 23:47:00.16	25.78	10.29	-52.4	-63.9	3.8	1.49e+00	0	58	104	0	66	14437
2026-01-01 23:47:01.15	25.82	10.37	-52.4	-63.9	3.8	1.49e+00	0	57	104	0	66	14446
2026-01-01 23:47:02.15	25.87	10.46	-52.4	-63.8	3.8	1.49e+00	0	58	104	0	66	14342
2026-01-01 23:47:03.13	25.92	10.54	-52.4	-63.8	3.8	1.49e+00	0	57	104	0	66	14331
2026-01-01 23:47:04.13	25.97	10.62	-52.3	-63.8	3.8	1.49e+00	0	57	104	0	66	14293
2026-01-01 23:47:05.11	26.02	10.71	-52.3	-63.7	3.8	1.49e+00	0	57	104	0	66	14181
2026-01-01 23:47:06.11	26.07	10.79	-52.1	-63.6	3.8	1.49e+00	0	57	104	0	66	13967
2026-01-01 23:47:07.09	26.11	10.88	-52.0	-63.4	3.8	1.49e+00	0	57	104	0	66	13575
2026-01-01 23:47:08.08	26.16	10.96	-52.0	-62.8	3.8	1.49e+00	0	57	104	0	66	12760
2026-01-01 23:47:09.07	26.21	11.05	-51.8	-62.6	3.8	1.49e+00	0	57	104	0	66	12404
2026-01-01 23:47:10.06	26.26	11.14	-51.9	-62.2	3.8	1.49e+00	0	57	104	0	66	11951
2026-01-01 23:47:11.04	26.31	11.22	-51.8	-61.7	3.8	1.49e+00	0	57	104	0	66	11158
2026-01-01 23:47:12.03	26.36	11.31	-51.7	-60.3	4.1	1.48e+00	0	58	104	0	66	9601
2026-01-01 23:47:13.03	26.42	11.40	-51.5	-59.3	4.0	1.44e+00	0	58	104	0	66	8484
2026-01-01 23:47:14.02	26.47	11.48	-51.3	-58.2	4.9	1.15e+00	0	58	104	0	65	7921
2026-01-01 23:47:15.01	26.52	11.57	-51.1	-57.2	5.5	5.40e-01	0	58	0	2097152	65	7069
2026-01-01 23:47:16.00	26.57	11.66	-50.8	-56.2	6.1	3.21e-01	0	58	0	5242880	64	6695
2026-01-01 23:47:16.99	26.62	11.75	-50.5	-55.4	6.9	2.03e-01	0	57	0	8388608	64	6065
2026-01-01 23:47:17.99	26.67	11.84	-50.3	-54.6	7.7	1.01e-01	0	58	0	11534336	63	5861
2026-01-01 23:47:18.97	26.73	11.92	-49.9	-53.6	8.6	4.43e-02	0	57	0	14680064	63	5277
2026-01-01 23:47:19.97	26.78	12.01	-49.4	-52.7	9.7	1.41e-02	0	58	0	17825792	62	5004
2026-01-01 23:47:20.97	26.83	12.10	-48.9	-51.7	10.7	4.81e-03	0	57	0	20971520	61	4707
2026-01-01 23:47:21.96	26.89	12.19	-48.4	-50.8	11.7	1.06e-03	0	58	0	24117248	59	4766
2026-01-01 23:47:22.95	26.94	12.28	-47.9	-50.0	12.5	1.91e-04	0	57	0	27262976	59	4362
2026-01-01 23:47:23.94	26.99	12.37	-47.5	-49.4	13.1	5.26e-05	0	57	0	30408704	58	4305
2026-01-01 23:47:24.93	27.05	12.46	-47.1	-48.9	13.6	1.06e-05	0	58	0	33554432	57	4299
2026-01-01 23:47:25.92	27.10	12.56	-46.9	-48.5	14.0	2.20e-06	0	57	0	36700160	56	4378
2026-01-01 23:47:26.91	27.16	12.65	-46.7	-48.3	14.2	7.00e-07	0	57	0	39845888	56	4260
2026-01-01 23:47:27.90	27.21	12.74	-46.6	-48.1	14.4	1.50e-06	0	57	0	42991616	56	4172
2026-01-01 23:47:28.89	27.27	12.83	-46.6	-48.0	14.4	0.00e+00	0	57	0	46137344	56	4143
2026-01-01 23:47:29.88	27.32	12.92	-46.6	-48.1	14.4	0.00e+00	0	57	0	49283072	56	4176
2026-01-01 23:47:30.86	27.38	13.01	-46.7	-48.3	14.1	1.50e-06	0	57	0	52428800	56	4289
2026-01-01 23:47:31.85	27.44	13.11	-47.0	-48.7	13.8	6.80e-06	0	57	0	55574528	56	4445
2026-01-01 23:47:32.83	27.49	13.20	-47.3	-49.1	13.4	1.06e-05	0	58	0	57671680	56	4652
2026-01-01 23:47:33.83	27.55	13.29	-47.4	-49.2	13.3	2.59e-05	0	57	0	60817408	56	4727
2026-01-01 23:47:34.81	27.61	13.39	-47.1	-48.8	13.7	6.10e-06	0	58	0	63963136	56	4505
2026-01-01 23:47:35.80	27.67	13.48	-47.3	-49.1	13.4	8.30e-06	0	58	0	67108864	56	4667
2026-01-01 23:47:36.80	27.72	13.58	-47.1	-48.7	13.8	7.60e-06	0	57	0	70254592	56	4477
2026-01-01 23:47:37.79	27.78	13.67	-46.8	-48.4	14.1	2.20e-06	0	58	0	73400320	56	4301
2026-01-01 23:47:38.77	27.84	13.77	-46.6	-48.1	14.4	0.00e+00	0	58	0	76546048	56	4172
2026-01-01 23:47:39.77	27.90	13.86	-46.5	-48.0	14.5	0.00e+00	0	58	0	79691776	56	4114
2026-01-01 23:47:40.76	27.96	13.96	-46.6	-48.2	14.4	7.00e-07	0	57	0	82837504	56	4195
2026-01-01 23:47:41.74	28.02	14.05	-47.0	-48.6	13.9	2.20e-06	0	57	0	85983232	56	4437
2026-01-01 23:47:42.73	28.08	14.15	-46.9	-48.4	14.1	2.20e-06	0	57	0	89128960	56	4332
2026-01-01 23:47:43.72	28.14	14.25	-46.2	-47.7	14.8	7.00e-07	0	57	0	92274688	55	4212
2026-01-01 23:47:44.72	28.20	14.35	-45.9	-47.2	15.2	0.00e+00	0	58	0	95420416	54	4210
2026-01-01 23:47:45.71	28.26	14.44	-45.5	-46.7	15.8	0.00e+00	0	57	0	98566144	54	3968
2026-01-01 23:47:46.70	28.33	14.54	-45.2	-46.3	16.1	0.00e+00	0	57	0	101711872	53	4042
2026-01-01 23:47:47.69	28.39	14.64	-45.1	-46.2	16.2	0.00e+00	0	58	0	104857600	53	3985
2026-01-01 23:47:48.68	28.45	14.74	-45.0	-46.1	16.3	0.00e+00	0	57	0	108003328	53	3929
2026-01-01 23:47:49.66	28.51	14.84	-44.9	-46.1	16.4	0.00e+00	0	57	0	111149056	53	3914
2026-01-01 23:47:50.65	28.58	14.94	-45.1	-46.3	16.1	0.00e+00	0	57	0	114294784	53	4023
2026-01-01 23:47:51.64	28.64	15.04	-45.1	-46.2	16.2	0.00e+00	0	57	0	117440512	53	3982
2026-01-01 23:47:52.63	28.70	15.14	-44.9	-46.0	16.5	0.00e+00	0	57	0	119537664	53	3876
2026-01-01 23:47:53.62	28.77	15.24	-44.7	-45.7	16.7	0.00e+00	0	57	0	122683392	52	3976
2026-01-01 23:47:54.61	28.83	15.34	-44.6	-45.6	16.8	0.00e+00	0	57	0	125829120	52	3929
2026-01-01 23:47:55.60	28.90	15.44	-44.6	-45.6	16.8	0.00e+00	0	57	0	128974848	52	3941
2026-01-01 23:47:56.60	28.96	15.54	-44.7	-45.8	16.7	0.00e+00	0	58	0	132120576	52	4014
2026-01-01 23:47:57.59	29.03	15.65	-44.7	-45.8	16.7	0.00e+00	0	57	0	135266304	52	4025
2026-01-01 23:47:58.58	29.10	15.75	-44.7	-45.8	16.7	0.00e+00	0	57	0	138412032	52	4014
2026-01-01 23:47:59.57	29.16	15.85	-44.6	-45.6	16.8	0.00e+00	0	57	0	141557760	52	3958
2026-01-01 23:48:00.56	29.23	15.96	-44.7	-45.7	16.8	0.00e+00	0	58	0	144703488	52	3982
2026-01-01 23:48:01.56	29.30	16.06	-44.6	-45.7	16.8	0.00e+00	0	57	0	147849216	52	3974
2026-01-01 23:48:02.55	29.37	16.17	-44.7	-45.7	16.8	0.00e+00	0	58	0	150994944	52	3978
2026-01-01 23:48:03.54	29.44	16.27	-44.7	-45.7	16.8	0.00e+00	0	57	0	154140672	52	3973
2026-01-01 23:48:04.53	29.51	16.38	-44.8	-45.9	16.6	0.00e+00	0	57	0	157286400	52	4072
2026-01-01 23:48:05.52	29.58	16.48	-44.7	-45.8	16.7	0.00e+00	0	57	0	160432128	52	4019
2026-01-01 23:48:06.50	29.65	16.59	-44.6	-45.6	16.9	0.00e+00	0	57	0	163577856	52	3927
2026-01-01 23:48:07.49	29.72	16.69	-44.6	-45.6	16.8	0.00e+00	0	57	0	166723584	52	3952
2026-01-01 23:48:08.48	29.79	16.80	-44.6	-45.6	16.9	0.00e+00	0	57	0	169869312	52	3926
2026-01-01 23:48:09.47	29.86	16.91	-44.5	-45.6	16.9	0.00e+00	0	57	0	173015040	52	3917
2026-01-01 23:48:10.46	29.93	17.02	-44.6	-45.7	16.8	0.00e+00	0	57	0	176160768	52	3960
2026-01-01 23:48:11.46	30.00	17.12	-44.7	-45.7	16.8	0.00e+00	0	58	0	179306496	52	3969
2026-01-01 23:48:12.44	30.08	17.23	-44.7	-45.7	16.8	0.00e+00	0	57	0	182452224	52	3993
2026-01-01 23:48:13.43	30.15	17.34	-44.8	-45.9	16.6	0.00e+00	0	57	0	184549376	52	4067
2026-01-01 23:48:14.42	30.22	17.45	-44.8	-45.9	16.6	0.00e+00	0	57	0	187695104	52	4058
2026-01-01 23:48:15.41	30.30	17.56	-44.6	-45.6	16.9	0.00e+00	0	58	0	190840832	52	3948
2026-01-01 23:48:16.40	30.37	17.67	-44.5	-45.5	17.0	0.00e+00	0	57	0	193986560	52	3902
2026-01-01 23:48:17.38	30.45	17.78	-44.5	-45.5	17.0	0.00e+00	0	57	0	197132288	52	3902
2026-01-01 23:48:18.36	30.52	17.89	-44.5	-45.5	17.0	0.00e+00	0	57	0	200278016	52	3885
2026-01-01 23:48:19.35	30.60	18.00	-44.6	-45.7	16.9	0.00e+00	0	57	0	203423744	52	3961
2026-01-01 23:48:20.34	30.68	18.12	-44.7	-45.7	16.8	0.00e+00	0	57	0	206569472	52	3994
2026-01-01 23:48:21.33	30.75	18.23	-44.5	-45.5	17.0	0.00e+00	0	57	0	209715200	52	3894
2026-01-01 23:48:22.32	30.83	18.34	-44.4	-45.3	17.3	0.00e+00	0	58	0	212860928	51	4027
2026-01-01 23:48:23.30	30.91	18.45	-44.3	-45.2	17.4	0.00e+00	0	57	0	216006656	51	3991
2026-01-01 23:48:24.29	30.99	18.57	-44.3	-45.2	17.4	0.00e+00	0	58	0	219152384	51	3988
2026-01-01 23:48:25.27	31.07	18.68	-44.5	-45.4	17.2	0.00e+00	0	57	0	222298112	51	4082
2026-01-01 23:48:26.25	31.15	18.80	-44.5	-45.5	17.1	0.00e+00	0	58	0	225443840	51	4119
2026-01-01 23:48:27.24	31.23	18.91	-44.3	-45.2	17.4	0.00e+00	0	57	0	227540992	51	3980
2026-01-01 23:48:28.23	31.31	19.03	-44.3	-45.2	17.4	0.00e+00	0	57	0	230686720	51	3965
2026-01-01 23:48:29.22	31.39	19.14	-44.2	-45.1	17.5	0.00e+00	0	57	0	233832448	51	3930
2026-01-01 23:48:30.20	31.48	19.26	-44.2	-45.1	17.5	0.00e+00	0	57	0	236978176	51	3929
2026-01-01 23:48:31.19	31.56	19.38	-44.3	-45.2	17.4	0.00e+00	0	58	0	240123904	51	3987
2026-01-01 23:48:32.19	31.64	19.50	-44.2	-45.1	17.5	0.00e+00	0	57	0	243269632	51	3934
2026-01-01 23:48:33.17	31.73	19.61	-44.2	-45.0	17.6	0.00e+00	0	57	0	246415360	51	3909
2026-01-01 23:48:34.16	31.81	19.73	-44.2	-45.2	17.4	0.00e+00	0	57	0	249561088	51	3968
2026-01-01 23:48:35.15	31.90	19.85	-44.3	-45.2	17.4	0.00e+00	0	57	0	252706816	51	3994
2026-01-01 23:48:36.13	31.98	19.97	-44.2	-45.1	17.5	0.00e+00	0	58	0	255852544	51	3957
2026-01-01 23:48:37.11	32.07	20.09	-44.1	-45.0	17.6	0.00e+00	0	58	0	258998272	51	3907
2026-01-01 23:48:38.10	32.16	20.21	-44.2	-45.1	17.5	0.00e+00	0	57	0	262144000	51	3954
2026-01-01 23:48:39.10	32.25	20.34	-44.2	-45.2	17.5	0.00e+00	0	57	0	265289728	51	3966
2026-01-01 23:48:40.08	32.33	20.46	-44.5	-45.4	17.2	0.00e+00	0	57	0	268435456	51	4083
2026-01-01 23:48:41.07	32.42	20.58	-44.3	-45.2	17.5	0.00e+00	0	58	0	271581184	51	3988
2026-01-01 23:48:42.06	32.51	20.70	-44.1	-45.0	17.6	0.00e+00	0	57	0	274726912	51	3896
2026-01-01 23:48:43.05	32.61	20.83	-44.1	-44.9	17.7	0.00e+00	0	57	0	277872640	51	3864
2026-01-01 23:48:44.03	32.70	20.95	-44.0	-44.8	17.8	0.00e+00	0	58	0	281018368	51	3823
2026-01-01 23:48:45.02	32.79	21.08	-44.0	-44.9	17.8	0.00e+00	0	57	0	284164096	51	3825
2026-01-01 23:48:46.01	32.88	21.20	-43.9	-44.8	17.9	0.00e+00	0	57	0	287309824	51	3783
2026-01-01 23:48:47.00	32.98	21.33	-43.8	-44.6	18.0	0.00e+00	0	57	0	289406976	50	3952
2026-01-01 23:48:47.99	33.07	21.45	-43.8	-44.7	18.0	0.00e+00	0	57	0	292552704	50	3964
2026-01-01 23:48:48.98	33.17	21.58	-44.0	-44.8	17.8	0.00e+00	0	57	0	295698432	50	4048
2026-01-01 23:48:49.97	33.26	21.71	-44.2	-45.1	17.6	0.00e+00	0	58	0	298844160	50	4166
2026-01-01 23:48:50.96	33.36	21.84	-44.1	-45.1	17.6	0.00e+00	0	57	0	301989888	50	4153
2026-01-01 23:48:51.95	33.46	21.97	-44.1	-45.0	17.7	0.00e+00	0	58	0	305135616	50	4113
2026-01-01 23:48:52.94	33.56	22.10	-44.0	-44.9	17.8	0.00e+00	0	58	0	308281344	50	4077
2026-01-01 23:48:53.93	33.66	22.23	-44.2	-45.2	17.5	0.00e+00	0	57	0	311427072	50	4198
2026-01-01 23:48:54.91	33.75	22.35	-44.2	-45.1	17.6	0.00e+00	0	57	0	314572800	50	4160
2026-01-01 23:48:55.90	33.86	22.49	-44.0	-44.9	17.8	0.00e+00	0	57	0	317718528	50	4089
2026-01-01 23:48:56.89	33.96	22.62	-44.0	-44.9	17.7	0.00e+00	0	57	0	320864256	50	4097
2026-01-01 23:48:57.87	34.06	22.75	-44.0	-44.8	17.9	0.00e+00	0	57	0	324009984	50	4045
2026-01-01 23:48:58.86	34.16	22.88	-44.2	-45.1	17.6	0.00e+00	0	58	0	327155712	50	4172
2026-01-01 23:48:59.85	34.27	23.02	-43.9	-44.8	17.9	0.00e+00	0	57	0	330301440	50	4013
2026-01-01 23:49:00.85	34.37	23.15	-43.6	-44.4	18.2	0.00e+00	0	57	0	333447168	50	3853
2026-01-01 23:49:01.84	34.48	23.29	-43.4	-44.2	18.4	0.00e+00	0	57	0	336592896	50	3775
2026-01-01 23:49:02.83	34.58	23.42	-43.3	-44.1	18.5	0.00e+00	0	58	0	339738624	49	3948
2026-01-01 23:49:03.82	34.69	23.56	-43.3	-44.1	18.6	0.00e+00	0	57	0	342884352	49	3918
2026-01-01 23:49:04.82	34.80	23.70	-43.2	-43.9	18.7	0.00e+00	0	58	0	346030080	49	3851
2026-01-01 23:49:05.80	34.91	23.83	-43.1	-43.9	18.8	0.00e+00	0	58	0	349175808	49	3836
2026-01-01 23:49:06.79	35.02	23.97	-43.1	-43.9	18.7	0.00e+00	0	58	0	351272960	49	3860
2026-01-01 23:49:07.78	35.13	24.11	-43.5	-44.3	18.4	0.00e+00	0	58	0	354418688	49	4027
2026-01-01 23:49:08.77	35.24	24.25	-43.3	-44.1	18.5	0.00e+00	0	58	0	357564416	49	3934
2026-01-01 23:49:09.76	35.36	24.39	-43.2	-43.9	18.7	0.00e+00	0	57	0	360710144	49	3863
2026-01-01 23:49:10.75	35.47	24.53	-43.4	-44.1	18.5	0.00e+00	0	58	0	363855872	49	3952
2026-01-01 23:49:11.74	35.59	24.67	-43.4	-44.2	18.5	0.00e+00	0	58	0	367001600	49	3984
2026-01-01 23:49:12.73	35.70	24.81	-43.4	-44.2	18.4	0.00e+00	0	58	0	370147328	49	4000
2026-01-01 23:49:13.72	35.82	24.95	-43.6	-44.4	18.3	0.00e+00	0	57	0	373293056	49	4064
2026-01-01 23:49:14.71	35.94	25.10	-43.5	-44.3	18.4	0.00e+00	0	57	0	376438784	49	4027
2026-01-01 23:49:15.69	36.06	25.24	-43.5	-44.4	18.3	0.00e+00	0	58	0	379584512	49	4053
2026-01-01 23:49:16.68	36.18	25.38	-43.5	-44.3	18.3	0.00e+00	0	57	0	382730240	49	4041
2026-01-01 23:49:17.65	36.30	25.53	-43.3	-44.1	18.5	0.00e+00	0	57	0	385875968	49	3945
2026-01-01 23:49:18.64	36.42	25.67	-43.3	-44.1	18.6	0.00e+00	0	58	0	389021696	49	3929
2026-01-01 23:49:19.63	36.54	25.82	-43.3	-44.0	18.6	0.00e+00	0	57	0	392167424	49	3902
2026-01-01 23:49:20.63	36.67	25.97	-43.3	-44.1	18.6	0.00e+00	0	58	0	395313152	49	3944
2026-01-01 23:49:21.62	36.79	26.11	-43.4	-44.2	18.5	0.00e+00	0	57	0	398458880	49	3965
2026-01-01 23:49:22.61	36.92	26.26	-43.5	-44.3	18.4	0.00e+00	0	57	0	401604608	49	4008
2026-01-01 23:49:23.60	37.05	26.41	-43.6	-44.4	18.3	0.00e+00	0	58	0	404750336	49	4084
2026-01-01 23:49:24.59	37.18	26.56	-43.7	-44.5	18.1	0.00e+00	0	57	0	407896064	49	4138
2026-01-01 23:49:25.57	37.31	26.71	-43.8	-44.6	18.1	0.00e+00	0	57	0	409993216	49	4185
2026-01-01 23:49:26.56	37.44	26.86	-43.9	-44.8	18.0	0.00e+00	0	58	0	413138944	49	4246
2026-01-01 23:49:27.55	37.57	27.01	-44.0	-44.9	17.8	0.00e+00	0	57	0	416284672	49	4296
2026-01-01 23:49:28.54	37.71	27.17	-44.0	-44.9	17.8	0.00e+00	0	57	0	419430400	50	4060
2026-01-01 23:49:29.52	37.84	27.32	-44.1	-45.0	17.7	0.00e+00	0	57	0	422576128	50	4143
2026-01-01 23:49:30.51	37.98	27.47	-44.3	-45.2	17.6	0.00e+00	0	58	0	425721856	50	4200
2026-01-01 23:49:31.50	38.11	27.63	-44.4	-45.3	17.5	0.00e+00	0	57	0	428867584	50	4251
2026-01-01 23:49:32.48	38.25	27.78	-44.4	-45.3	17.4	0.00e+00	0	58	0	432013312	50	4291
2026-01-01 23:49:33.47	38.39	27.94	-44.4	-45.3	17.4	0.00e+00	0	57	0	435159040	50	4273
2026-01-01 23:49:34.46	38.53	28.09	-44.2	-45.1	17.6	0.00e+00	0	57	0	438304768	50	4153
2026-01-01 23:49:35.45	38.68	28.25	-44.2	-45.1	17.6	0.00e+00	0	57	0	441450496	50	4190
2026-01-01 23:49:36.45	38.82	28.41	-44.3	-45.2	17.5	0.00e+00	0	57	0	444596224	50	4221
2026-01-01 23:49:37.44	38.97	28.57	-44.5	-45.4	17.4	0.00e+00	0	58	0	447741952	50	4303
2026-01-01 23:49:38.43	39.12	28.73	-44.5	-45.5	17.3	0.00e+00	0	58	0	450887680	50	4348
2026-01-01 23:49:39.42	39.27	28.89	-44.7	-45.6	17.1	0.00e+00	0	58	0	454033408	51	4180
2026-01-01 23:49:40.42	39.42	29.05	-44.8	-45.8	16.9	0.00e+00	0	57	0	457179136	51	4280
2026-01-01 23:49:41.41	39.57	29.21	-44.9	-45.9	16.9	0.00e+00	0	58	0	460324864	51	4320
2026-01-01 23:49:42.39	39.72	29.38	-44.7	-45.7	17.1	0.00e+00	0	57	0	462422016	51	4203
2026-01-01 23:49:43.37	39.87	29.54	-44.6	-45.5	17.2	0.00e+00	0	58	0	465567744	51	4133
2026-01-01 23:49:44.36	40.03	29.70	-44.6	-45.6	17.2	0.00e+00	0	57	0	468713472	51	4155
2026-01-01 23:49:45.35	40.19	29.87	-44.5	-45.5	17.3	0.00e+00	0	57	0	471859200	51	4115
2026-01-01 23:49:46.34	40.35	30.03	-44.6	-45.5	17.2	0.00e+00	0	57	0	475004928	51	4137
2026-01-01 23:49:47.32	40.51	30.20	-44.7	-45.7	17.0	0.00e+00	0	57	0	478150656	51	4238
2026-01-01 23:49:48.32	40.67	30.36	-44.6	-45.6	17.2	0.00e+00	0	57	0	481296384	51	4169
2026-01-01 23:49:49.30	40.83	30.53	-44.6	-45.6	17.2	0.00e+00	0	57	0	484442112	51	4154
2026-01-01 23:49:50.29	41.00	30.70	-44.6	-45.7	17.1	0.00e+00	0	57	0	487587840	51	4209
2026-01-01 23:49:51.28	41.17	30.87	-44.8	-45.8	16.9	0.00e+00	0	57	0	490733568	51	4285
2026-01-01 23:49:52.27	41.33	31.04	-44.8	-45.8	16.9	0.00e+00	0	57	0	493879296	51	4277
2026-01-01 23:49:53.26	41.51	31.21	-44.7	-45.7	17.1	0.00e+00	0	57	0	497025024	51	4217
2026-01-01 23:49:54.25	41.68	31.38	-44.6	-45.7	17.1	0.00e+00	0	58	0	500170752	51	4194
2026-01-01 23:49:55.23	41.85	31.55	-44.7	-45.6	17.1	0.00e+00	0	57	0	503316480	51	4187
2026-01-01 23:49:56.22	42.03	31.72	-44.5	-45.4	17.4	0.00e+00	0	58	0	506462208	51	4073
2026-01-01 23:49:57.21	42.21	31.90	-44.3	-45.3	17.5	0.00e+00	0	57	0	509607936	51	4009
2026-01-01 23:49:58.20	42.39	32.07	-44.4	-45.3	17.5	0.00e+00	0	57	0	512753664	51	4032
2026-01-01 23:49:59.19	42.57	32.25	-44.5	-45.4	17.4	0.00e+00	0	57	0	515899392	51	4083
2026-01-01 23:50:00.18	42.75	32.42	-44.7	-45.7	17.1	0.00e+00	0	58	0	517996544	51	4203
2026-01-01 23:50:01.16	42.94	32.60	-44.5	-45.4	17.4	0.00e+00	0	57	0	521142272	51	4084
2026-01-01 23:50:02.15	43.12	32.77	-44.3	-45.3	17.5	0.00e+00	0	57	0	524288000	51	4016
2026-01-01 23:50:03.14	43.31	32.95	-44.3	-45.2	17.6	0.00e+00	0	57	0	527433728	51	3973
2026-01-01 23:50:04.13	43.50	33.13	-44.4	-45.4	17.4	0.00e+00	0	57	0	530579456	51	4053
2026-01-01 23:50:05.11	43.70	33.31	-44.6	-45.6	17.2	0.00e+00	0	57	0	533725184	51	4170
2026-01-01 23:50:06.11	43.89	33.49	-44.8	-45.8	17.1	0.00e+00	0	58	0	536870912	51	4259
2026-01-01 23:50:07.10	44.09	33.67	-44.9	-45.9	17.0	0.00e+00	0	57	0	540016640	51	4292
2026-01-01 23:50:08.09	44.29	33.85	-45.0	-46.1	16.8	0.00e+00	0	57	0	543162368	51	4395
2026-01-01 23:50:09.08	44.49	34.03	-45.1	-46.1	16.6	0.00e+00	0	57	0	546308096	52	4172
2026-01-01 23:50:10.07	44.70	34.22	-45.4	-46.5	16.3	0.00e+00	0	57	0	549453824	52	4356
2026-01-01 23:50:11.06	44.91	34.40	-45.4	-46.6	16.2	0.00e+00	0	57	0	552599552	52	4401
2026-01-01 23:50:12.06	45.12	34.58	-45.8	-47.0	15.7	0.00e+00	0	58	0	555745280	53	4360
2026-01-01 23:50:13.05	45.33	34.77	-45.5	-46.7	16.0	0.00e+00	0	58	0	558891008	53	4226
2026-01-01 23:50:14.04	45.54	34.95	-45.6	-46.7	16.0	0.00e+00	0	57	0	562036736	53	4230
2026-01-01 23:50:15.02	45.76	35.14	-45.7	-46.9	15.8	0.00e+00	0	57	0	565182464	53	4335
2026-01-01 23:50:16.00	45.97	35.32	-45.5	-46.7	16.1	0.00e+00	0	58	0	568328192	53	4209
2026-01-01 23:50:16.99	46.20	35.51	-45.5	-46.7	16.1	0.00e+00	0	57	0	571473920	53	4208
2026-01-01 23:50:17.98	46.42	35.70	-45.7	-46.9	15.8	0.00e+00	0	57	0	574619648	53	4340
2026-01-01 23:50:18.97	46.65	35.89	-45.8	-47.0	15.7	0.00e+00	0	57	0	577765376	53	4367
2026-01-01 23:50:19.96	46.87	36.08	-45.8	-47.1	15.7	0.00e+00	0	57	0	579862528	53	4408
2026-01-01 23:50:20.95	47.11	36.27	-46.0	-47.3	15.5	0.00e+00	0	58	0	583008256	53	4526
2026-01-01 23:50:21.94	47.34	36.46	-46.0	-47.3	15.5	0.00e+00	0	57	0	586153984	53	4525
2026-01-01 23:50:22.92	47.57	36.65	-46.0	-47.4	15.4	0.00e+00	0	57	0	589299712	54	4303
2026-01-01 23:50:23.91	47.81	36.84	-46.0	-47.3	15.5	0.00e+00	0	57	0	592445440	54	4274
2026-01-01 23:50:24.89	48.05	37.03	-45.9	-47.2	15.7	0.00e+00	0	57	0	595591168	54	4213
2026-01-01 23:50:25.88	48.30	37.22	-45.9	-47.1	15.7	0.00e+00	0	58	0	598736896	54	4167
2026-01-01 23:50:26.87	48.55	37.42	-45.8	-47.0	15.9	0.00e+00	0	57	0	601882624	54	4113
2026-01-01 23:50:27.86	48.80	37.61	-45.6	-46.8	16.0	0.00e+00	0	57	0	605028352	54	4016
2026-01-01 23:50:28.84	49.05	37.80	-45.9	-47.1	15.8	0.00e+00	0	57	0	608174080	54	4148
2026-01-01 23:50:29.83	49.31	38.00	-45.5	-46.6	16.1	0.00e+00	0	57	0	611319808	54	3945
2026-01-01 23:50:30.81	49.56	38.19	-45.4	-46.5	16.3	0.00e+00	0	58	0	614465536	53	4130
2026-01-01 23:50:31.80	49.83	38.39	-45.7	-46.8	15.9	0.00e+00	0	58	0	617611264	53	4288
2026-01-01 23:50:32.79	50.09	38.58	-45.9	-47.1	15.7	7.00e-07	0	57	0	620756992	53	4438
2026-01-01 23:50:33.78	50.36	38.78	-45.9	-47.2	15.6	0.00e+00	0	57	0	623902720	53	4476
2026-01-01 23:50:34.77	50.63	38.98	-46.0	-47.3	15.5	0.00e+00	0	58	0	627048448	54	4281
2026-01-01 23:50:35.76	50.91	39.18	-45.9	-47.2	15.6	0.00e+00	0	57	0	630194176	54	4207
2026-01-01 23:50:36.75	51.19	39.37	-45.8	-47.0	15.8	0.00e+00	0	57	0	633339904	54	4100
2026-01-01 23:50:37.74	51.47	39.57	-45.9	-47.1	15.7	0.00e+00	0	57	0	636485632	54	4150
2026-01-01 23:50:38.73	51.76	39.77	-46.1	-47.4	15.4	0.00e+00	0	57	0	638582784	54	4305
2026-01-01 23:50:39.73	52.05	39.97	-46.2	-47.5	15.3	0.00e+00	0	58	0	641728512	54	4364
2026-01-01 23:50:40.71	52.34	40.17	-46.4	-47.8	15.0	0.00e+00	0	58	0	644874240	54	4494
2026-01-01 23:50:41.70	52.64	40.37	-46.5	-47.8	14.9	0.00e+00	0	57	0	648019968	54	4536
2026-01-01 23:50:42.68	52.93	40.57	-46.6	-48.1	14.7	7.00e-07	0	58	0	651165696	55	4401
2026-01-01 23:50:43.68	53.24	40.77	-46.7	-48.1	14.7	0.00e+00	0	57	0	654311424	55	4405
2026-01-01 23:50:44.67	53.55	40.97	-46.6	-47.9	14.9	0.00e+00	0	57	0	657457152	55	4338
2026-01-01 23:50:45.66	53.86	41.17	-46.7	-48.1	14.6	0.00e+00	0	57	0	660602880	55	4439
2026-01-01 23:50:46.65	54.17	41.38	-46.7	-48.2	14.6	7.00e-07	0	57	0	663748608	55	4446
2026-01-01 23:50:47.64	54.49	41.58	-46.3	-47.7	15.1	0.00e+00	0	57	0	666894336	55	4221
2026-01-01 23:50:48.63	54.81	41.78	-46.3	-47.6	15.2	0.00e+00	0	58	0	670040064	55	4184
2026-01-01 23:50:49.62	55.14	41.98	-46.4	-47.8	15.0	0.00e+00	0	57	0	673185792	55	4270
2026-01-01 23:50:50.61	55.47	42.18	-46.7	-48.2	14.7	0.00e+00	0	57	0	676331520	55	4461
2026-01-01 23:50:51.59	55.80	42.38	-46.8	-48.3	14.5	7.00e-07	0	57	0	679477248	55	4533
2026-01-01 23:50:52.59	56.15	42.59	-47.0	-48.5	14.3	7.00e-07	0	57	0	682622976	55	4635
2026-01-01 23:50:53.58	56.49	42.79	-46.8	-48.3	14.5	1.50e-06	0	57	0	685768704	55	4523
2026-01-01 23:50:54.57	56.84	42.99	-46.8	-48.3	14.6	0.00e+00	0	57	0	688914432	55	4498
2026-01-01 23:50:55.56	57.19	43.19	-46.9	-48.5	14.3	0.00e+00	0	57	0	692060160	55	4602
2026-01-01 23:50:56.55	57.55	43.39	-47.2	-48.8	14.3	1.50e-06	0	58	0	695205888	56	4510
2026-01-01 23:50:57.54	57.91	43.59	-47.2	-48.7	14.2	0.00e+00	0	57	0	698351616	56	4472
2026-01-01 23:50:58.52	58.27	43.79	-47.3	-48.9	14.0	7.00e-07	0	57	0	700448768	56	4568
2026-01-01 23:50:59.50	58.64	43.99	-47.4	-49.0	13.9	4.50e-06	0	58	0	703594496	56	4618
2026-01-01 23:51:00.49	59.01	44.19	-47.3	-48.9	14.0	2.20e-06	0	57	0	706740224	56	4562
2026-01-01 23:51:01.48	59.39	44.39	-47.1	-48.6	14.3	0.00e+00	0	57	0	709885952	56	4404
2026-01-01 23:51:02.47	59.77	44.59	-47.1	-48.6	14.3	7.00e-07	0	57	0	713031680	56	4439
2026-01-01 23:51:03.46	60.16	44.79	-46.9	-48.4	14.5	2.20e-06	0	57	0	716177408	56	4292
2026-01-01 23:51:04.44	60.55	44.99	-46.6	-48.0	14.9	7.00e-07	0	57	0	719323136	56	4116
2026-01-01 23:51:05.42	60.95	45.19	-46.6	-48.0	15.0	0.00e+00	0	58	0	722468864	56	4115
2026-01-01 23:51:06.41	61.35	45.39	-46.8	-48.2	14.8	7.00e-07	0	58	0	725614592	56	4229
2026-01-01 23:51:07.39	61.76	45.58	-46.8	-48.3	14.6	7.00e-07	0	58	0	728760320	56	4278
2026-01-01 23:51:08.38	62.17	45.78	-46.8	-48.2	14.8	0.00e+00	0	57	0	731906048	56	4213
2026-01-01 23:51:09.37	62.59	45.98	-46.7	-48.1	14.8	0.00e+00	0	57	0	735051776	56	4190
2026-01-01 23:51:10.36	63.01	46.17	-46.7	-48.1	14.9	0.00e+00	0	58	0	738197504	56	4160
2026-01-01 23:51:11.36	63.44	46.37	-46.7	-48.1	14.8	0.00e+00	0	58	0	741343232	56	4158
2026-01-01 23:51:12.35	63.88	46.56	-46.8	-48.3	14.7	0.00e+00	0	58	0	744488960	56	4268
2026-01-01 23:51:13.34	64.32	46.76	-46.9	-48.3	14.6	7.00e-07	0	57	0	746586112	56	4279
2026-01-01 23:51:14.32	64.76	46.95	-46.9	-48.4	14.5	7.00e-07	0	58	0	749731840	56	4325
2026-01-01 23:51:15.31	65.21	47.14	-46.8	-48.3	14.6	7.00e-07	0	57	0	752877568	56	4266
2026-01-01 23:51:16.30	65.67	47.33	-46.6	-47.9	15.0	0.00e+00	0	57	0	756023296	56	4098
2026-01-01 23:51:17.28	66.12	47.52	-46.2	-47.5	15.3	0.00e+00	0	57	0	759169024	55	4135
2026-01-01 23:51:18.28	66.59	47.71	-46.2	-47.5	15.3	0.00e+00	0	57	0	762314752	55	4113
2026-01-01 23:51:19.26	67.06	47.89	-46.2	-47.5	15.3	0.00e+00	0	57	0	765460480	55	4137
2026-01-01 23:51:20.25	67.54	48.08	-46.2	-47.5	15.3	0.00e+00	0	58	0	768606208	55	4121
2026-01-01 23:51:21.25	68.03	48.26	-46.2	-47.5	15.4	0.00e+00	0	58	0	771751936	55	4115
2026-01-01 23:51:22.23	68.52	48.44	-46.3	-47.6	15.2	0.00e+00	0	58	0	774897664	55	4178
2026-01-01 23:51:23.20	69.00	48.62	-46.4	-47.8	15.0	0.00e+00	0	58	0	778043392	55	4267
2026-01-01 23:51:24.20	69.51	48.80	-46.2	-47.6	15.4	0.00e+00	0	58	0	781189120	55	4154
2026-01-01 23:51:25.18	70.01	48.98	-46.5	-47.8	15.0	0.00e+00	0	58	0	784334848	55	4279
2026-01-01 23:51:26.17	70.52	49.16	-46.6	-48.0	14.9	0.00e+00	0	57	0	787480576	55	4343
2026-01-01 23:51:27.16	71.04	49.33	-46.4	-47.8	15.0	0.00e+00	0	57	0	790626304	55	4261
2026-01-01 23:51:28.14	71.56	49.50	-45.9	-47.2	15.6	0.00e+00	0	57	0	793772032	55	3971
2026-01-01 23:51:29.13	72.09	49.67	-45.6	-46.8	16.1	0.00e+00	0	57	0	796917760	54	4012
2026-01-01 23:51:30.11	72.62	49.84	-45.6	-46.8	16.1	0.00e+00	0	57	0	800063488	54	4010
2026-01-01 23:51:31.11	73.17	50.01	-45.6	-46.7	16.1	0.00e+00	0	57	0	803209216	54	3988
2026-01-01 23:51:32.09	73.71	50.17	-45.5	-46.6	16.3	0.00e+00	0	57	0	805306368	54	3933
2026-01-01 23:51:33.08	74.27	50.34	-45.6	-46.7	16.1	0.00e+00	0	57	0	808452096	54	3991
2026-01-01 23:51:34.06	74.82	50.50	-45.1	-46.2	16.7	0.00e+00	0	58	0	811597824	53	3975
2026-01-01 23:51:35.05	75.39	50.66	-44.9	-45.9	16.9	0.00e+00	0	57	0	814743552	52	4077
2026-01-01 23:51:36.04	75.96	50.81	-45.0	-46.0	16.7	0.00e+00	0	58	0	817889280	52	4139
2026-01-01 23:51:37.03	76.54	50.97	-45.2	-46.3	16.5	0.00e+00	0	57	0	821035008	52	4257
2026-01-01 23:51:38.02	77.12	51.12	-45.3	-46.4	16.4	0.00e+00	0	58	0	824180736	52	4298
2026-01-01 23:51:38.99	77.70	51.26	-45.7	-46.9	15.9	0.00e+00	0	58	0	827326464	53	4306
2026-01-01 23:51:39.98	78.29	51.41	-45.8	-46.9	15.8	0.00e+00	0	58	0	830472192	53	4338
2026-01-01 23:51:40.97	78.89	51.55	-46.0	-47.3	15.5	0.00e+00	0	58	0	833617920	53	4509
2026-01-01 23:51:41.96	79.50	51.69	-46.0	-47.2	15.5	0.00e+00	0	58	0	836763648	53	4493
2026-01-01 23:51:42.95	80.11	51.83	-45.8	-47.0	15.8	0.00e+00	0	58	0	839909376	53	4361
2026-01-01 23:51:43.94	80.73	51.96	-45.7	-46.8	15.9	0.00e+00	0	57	0	843055104	53	4291
2026-01-01 23:51:44.93	81.35	52.10	-45.6	-46.8	16.0	0.00e+00	0	57	0	846200832	53	4247
2026-01-01 23:51:45.92	81.98	52.22	-45.7	-46.8	16.0	0.00e+00	0	58	0	849346560	53	4291
2026-01-01 23:51:46.91	82.62	52.35	-45.5	-46.7	16.1	0.00e+00	0	57	0	852492288	53	4216
2026-01-01 23:51:47.90	83.26	52.47	-45.5	-46.6	16.2	0.00e+00	0	58	0	855638016	53	4190
2026-01-01 23:51:48.89	83.90	52.59	-45.6	-46.8	16.0	0.00e+00	0	58	0	857735168	53	4249
2026-01-01 23:51:49.87	84.54	52.70	-45.6	-46.7	15.9	0.00e+00	0	57	0	860880896	53	4231
2026-01-01 23:51:50.86	85.20	52.82	-46.3	-47.6	15.1	0.00e+00	0	58	0	864026624	54	4427
2026-01-01 23:51:51.85	85.86	52.92	-46.5	-47.9	14.9	0.00e+00	0	57	0	867172352	54	4569
2026-01-01 23:51:52.85	86.53	53.03	-46.0	-47.2	15.6	0.00e+00	0	58	0	870318080	54	4230
2026-01-01 23:51:53.84	87.20	53.13	-45.7	-46.8	15.9	0.00e+00	0	57	0	873463808	54	4042
2026-01-01 23:51:54.82	87.87	53.23	-46.1	-47.3	15.4	0.00e+00	0	58	0	876609536	54	4285
2026-01-01 23:51:55.81	88.54	53.32	-46.0	-47.3	15.5	0.00e+00	0	57	0	879755264	54	4283
2026-01-01 23:51:56.80	89.23	53.41	-45.5	-46.7	16.1	0.00e+00	0	58	0	882900992	54	3959
2026-01-01 23:51:57.78	89.91	53.50	-45.2	-46.3	16.5	0.00e+00	0	58	0	886046720	53	4018
2026-01-01 23:51:58.77	90.60	53.58	-45.6	-46.8	16.1	0.00e+00	0	58	0	889192448	53	4251
2026-01-01 23:51:59.76	91.29	53.65	-45.7	-46.8	16.0	0.00e+00	0	58	0	892338176	53	4278
2026-01-01 23:52:00.75	91.99	53.73	-46.1	-47.4	15.4	0.00e+00	0	58	0	895483904	54	4328
2026-01-01 23:52:01.74	92.69	53.80	-45.9	-47.1	15.7	0.00e+00	0	58	0	898629632	54	4156
2026-01-01 23:52:02.73	93.39	53.86	-45.3	-46.4	16.3	0.00e+00	0	57	0	901775360	53	4095
2026-01-01 23:52:03.71	94.09	53.92	-45.3	-46.4	16.4	0.00e+00	0	58	0	904921088	53	4090
2026-01-01 23:52:04.70	94.80	53.98	-45.5	-46.6	16.1	0.00e+00	0	58	0	908066816	53	4193
2026-01-01 23:52:05.68	95.51	54.03	-45.6	-46.8	16.0	0.00e+00	0	58	0	911212544	53	4265
2026-01-01 23:52:06.68	96.23	54.08	-45.3	-46.4	16.4	0.00e+00	0	58	0	913309696	53	4059
2026-01-01 23:52:07.66	96.94	54.12	-45.1	-46.1	16.7	0.00e+00	0	58	0	916455424	53	3937
2026-01-01 23:52:08.65	97.66	54.16	-45.0	-46.0	16.7	0.00e+00	0	58	0	919601152	53	3903
2026-01-01 23:52:09.64	98.39	54.20	-45.1	-46.2	16.4	0.00e+00	0	58	0	922746880	53	3985
2026-01-01 23:52:10.63	99.11	54.23	-45.1	-46.2	16.6	0.00e+00	0	58	0	925892608	53	3971
2026-01-01 23:52:11.62	99.83	54.25	-45.0	-46.1	16.7	0.00e+00	0	58	0	929038336	53	3928
2026-01-01 23:52:12.60	100.55	54.27	-45.5	-46.7	16.1	0.00e+00	0	58	0	932184064	53	4234
2026-01-01 23:52:13.60	101.29	54.29	-45.7	-46.9	15.9	0.00e+00	0	58	0	935329792	53	4324
2026-01-01 23:52:14.59	102.01	54.30	-45.8	-47.0	15.8	0.00e+00	0	58	0	938475520	53	4373
2026-01-01 23:52:15.58	102.74	54.31	-45.6	-46.8	16.0	0.00e+00	0	58	0	941621248	53	4277
2026-01-01 23:52:16.57	103.47	54.31	-45.1	-46.2	16.6	0.00e+00	0	58	0	944766976	53	3985
2026-01-01 23:52:17.56	104.20	54.31	-44.8	-45.9	16.7	0.00e+00	0	58	0	947912704	52	4069
2026-01-01 23:52:18.55	104.93	54.31	-45.1	-46.2	16.5	0.00e+00	0	58	0	951058432	52	4198
2026-01-01 23:52:19.54	105.66	54.30	-45.3	-46.4	16.3	0.00e+00	0	58	0	954204160	52	4327
2026-01-01 23:52:20.52	106.38	54.28	-45.0	-46.1	16.6	0.00e+00	0	58	0	957349888	52	4155
2026-01-01 23:52:21.51	107.10	54.26	-44.8	-45.8	17.0	0.00e+00	0	57	0	960495616	52	4029
2026-01-01 23:52:22.50	107.83	54.24	-44.7	-45.6	17.1	0.00e+00	0	57	0	963641344	52	3945
2026-01-01 23:52:23.49	108.55	54.21	-44.8	-45.8	17.0	0.00e+00	0	57	0	966787072	52	4037
2026-01-01 23:52:24.48	109.28	54.18	-44.5	-45.4	17.4	0.00e+00	0	57	0	969932800	52	3849
2026-01-01 23:52:25.48	110.00	54.14	-44.5	-45.4	17.3	0.00e+00	0	58	0	973078528	52	3829
2026-01-01 23:52:26.46	110.72	54.10	-44.7	-45.7	17.1	0.00e+00	0	58	0	976224256	52	3987
2026-01-01 23:52:27.44	111.43	54.05	-44.9	-46.0	16.8	0.00e+00	0	58	0	978321408	52	4101
2026-01-01 23:52:28.43	112.14	54.00	-45.0	-46.1	16.7	0.00e+00	0	58	0	981467136	52	4177
2026-01-01 23:52:29.41	112.84	53.94	-44.9	-45.9	16.9	0.00e+00	0	58	0	984612864	52	4071
2026-01-01 23:52:30.39	113.55	53.89	-44.8	-45.8	17.0	0.00e+00	0	58	0	987758592	52	4022
2026-01-01 23:52:31.37	114.24	53.82	-45.0	-46.0	16.8	0.00e+00	0	58	0	990904320	52	4102
2026-01-01 23:52:32.36	114.95	53.75	-45.3	-46.3	16.4	0.00e+00	0	58	0	994050048	52	4288
2026-01-01 23:52:33.35	115.65	53.68	-45.4	-46.5	16.2	0.00e+00	0	58	0	997195776	52	4378
2026-01-01 23:52:34.34	116.34	53.61	-45.6	-46.8	16.1	0.00e+00	0	58	0	1000341504	53	4259
2026-01-01 23:52:35.33	117.04	53.53	-45.7	-46.9	16.0	0.00e+00	0	58	0	1003487232	53	4320
2026-01-01 23:52:36.32	117.72	53.44	-46.0	-47.2	15.6	0.00e+00	0	58	0	1006632960	54	4235
2026-01-01 23:52:37.31	118.41	53.35	-45.6	-46.8	16.0	0.00e+00	0	58	0	1009778688	54	4020
2026-01-01 23:52:38.30	119.09	53.26	-45.5	-46.6	16.3	0.00e+00	0	58	0	1012924416	53	4150
2026-01-01 23:52:39.27	119.75	53.17	-45.5	-46.6	16.3	0.00e+00	0	58	0	1016070144	53	4154
2026-01-01 23:52:40.26	120.42	53.07	-45.3	-46.3	16.5	0.00e+00	0	57	0	1019215872	53	4036
2026-01-01 23:52:41.25	121.09	52.96	-44.8	-45.8	17.0	0.00e+00	0	58	0	1022361600	52	4009
2026-01-01 23:52:42.25	121.76	52.86	-44.6	-45.6	17.3	0.00e+00	0	57	0	1025507328	52	3915
2026-01-01 23:52:43.23	122.41	52.75	-44.5	-45.4	17.5	0.00e+00	0	58	0	1027604480	51	4069
2026-01-01 23:52:44.22	123.06	52.63	-44.4	-45.3	17.5	0.00e+00	0	58	0	1030750208	51	4046
2026-01-01 23:52:45.21	123.71	52.52	-44.5	-45.5	17.4	0.00e+00	0	57	0	1033895936	51	4100
2026-01-01 23:52:46.20	124.35	52.39	-44.8	-45.7	17.1	0.00e+00	0	57	0	1037041664	51	4237
2026-01-01 23:52:47.19	124.99	52.27	-45.3	-46.3	16.4	0.00e+00	0	58	0	1040187392	52	4291
2026-01-01 23:52:48.18	125.62	52.14	-45.4	-46.5	16.3	0.00e+00	0	57	0	1043333120	52	4363
2026-01-01 23:52:49.17	126.25	52.01	-46.0	-47.3	15.5	0.00e+00	0	58	0	1046478848	54	4271
2026-01-01 23:52:50.16	126.87	51.88	-46.2	-47.5	15.4	0.00e+00	0	57	0	1049624576	54	4348
2026-01-01 23:52:51.14	127.48	51.74	-46.5	-47.9	14.9	0.00e+00	0	58	0	1052770304	54	4570
2026-01-01 23:52:52.13	128.09	51.60	-46.4	-47.7	15.1	0.00e+00	0	58	0	1055916032	54	4474
2026-01-01 23:52:53.12	128.69	51.46	-46.3	-47.7	15.1	0.00e+00	0	58	0	1059061760	54	4459
2026-01-01 23:52:54.10	129.28	51.32	-45.8	-47.0	15.8	0.00e+00	0	58	0	1062207488	54	4111
2026-01-01 23:52:55.09	129.87	51.17	-45.6	-46.7	16.1	0.00e+00	0	58	0	1065353216	54	3965
2026-01-01 23:52:56.07	130.45	51.02	-45.8	-47.0	15.9	0.00e+00	0	58	0	1068498944	54	4132
2026-01-01 23:52:57.07	131.04	50.87	-45.8	-47.1	15.9	0.00e+00	0	58	0	1071644672	54	4146
2026-01-01 23:52:58.05	131.61	50.71	-45.8	-47.0	15.9	0.00e+00	0	58	0	1074790400	54	4122
2026-01-01 23:52:59.04	132.18	50.55	-45.9	-47.2	15.7	0.00e+00	0	57	0	1077936128	54	4209
2026-01-01 23:53:00.02	132.74	50.39	-46.4	-47.8	15.1	0.00e+00	0	57	0	1080033280	54	4499
2026-01-01 23:53:01.01	133.29	50.23	-46.1	-47.3	15.6	0.00e+00	0	58	0	1083179008	54	4286
2026-01-01 23:53:02.01	133.85	50.07	-45.3	-46.4	16.3	0.00e+00	0	58	0	1086324736	53	4074
2026-01-01 23:53:02.99	134.39	49.90	-45.3	-46.3	16.4	0.00e+00	0	58	0	1089470464	53	4037
2026-01-01 23:53:03.99	134.94	49.73	-45.5	-46.7	16.3	0.00e+00	0	58	0	1092616192	53	4208
2026-01-01 23:53:04.98	135.47	49.56	-46.1	-47.5	15.4	0.00e+00	0	58	0	1095761920	54	4345
2026-01-01 23:53:05.96	135.99	49.39	-46.2	-47.6	15.4	0.00e+00	0	58	0	1098907648	54	4399
2026-01-01 23:53:06.95	136.51	49.21	-46.0	-47.3	15.6	0.00e+00	0	58	0	1102053376	54	4246
2026-01-01 23:53:07.94	137.03	49.04	-45.7	-46.9	15.8	0.00e+00	0	57	0	1105199104	54	4074
2026-01-01 23:53:08.93	137.54	48.86	-45.9	-47.1	15.7	0.00e+00	0	58	0	1108344832	54	4179
2026-01-01 23:53:09.93	138.05	48.68	-46.1	-47.4	15.5	0.00e+00	0	58	0	1111490560	54	4325
2026-01-01 23:53:10.92	138.55	48.49	-46.2	-47.4	15.5	0.00e+00	0	57	0	1114636288	54	4322
2026-01-01 23:53:11.90	139.03	48.31	-46.6	-48.0	14.8	0.00e+00	0	58	0	1117782016	55	4374
2026-01-01 23:53:12.90	139.53	48.13	-46.7	-48.1	14.7	0.00e+00	0	57	0	1120927744	55	4419
2026-01-01 23:53:13.88	140.00	47.94	-46.9	-48.4	14.4	1.50e-06	0	57	0	1124073472	55	4591
2026-01-01 23:53:14.87	140.48	47.76	-47.0	-48.6	14.3	7.00e-07	0	57	0	1127219200	56	4402
2026-01-01 23:53:15.86	140.95	47.57	-47.3	-48.9	14.1	1.50e-06	0	57	0	1130364928	56	4588
2026-01-01 23:53:16.85	141.41	47.38	-46.9	-48.4	14.5	7.00e-07	0	58	0	1133510656	56	4298
2026-01-01 23:53:17.84	141.87	47.19	-46.9	-48.4	14.6	0.00e+00	0	58	0	1136656384	56	4314
2026-01-01 23:53:18.83	142.32	47.00	-47.1	-48.6	14.4	0.00e+00	0	58	0	1139802112	56	4400
2026-01-01 23:53:19.82	142.77	46.80	-46.9	-48.4	14.5	0.00e+00	0	58	0	1141899264	56	4305
2026-01-01 23:53:20.81	143.21	46.61	-46.8	-48.3	14.7	1.50e-06	0	58	0	1145044992	56	4254
2026-01-01 23:53:21.80	143.65	46.41	-46.8	-48.2	14.6	7.00e-07	0	58	0	1148190720	56	4235
2026-01-01 23:53:22.78	144.08	46.22	-46.9	-48.4	14.6	7.00e-07	0	58	0	1151336448	56	4335
2026-01-01 23:53:23.77	144.50	46.03	-47.1	-48.7	14.3	0.00e+00	0	57	0	1154482176	56	4445
2026-01-01 23:53:24.77	144.93	45.83	-46.8	-48.3	14.6	0.00e+00	0	58	0	1157627904	56	4265
2026-01-01 23:53:25.76	145.34	45.63	-46.5	-47.9	14.9	7.00e-07	0	58	0	1160773632	56	4056
2026-01-01 23:53:26.75	145.76	45.43	-46.7	-48.2	14.6	7.00e-07	0	58	0	1163919360	56	4200
2026-01-01 23:53:27.74	146.16	45.23	-46.9	-48.4	14.6	0.00e+00	0	58	0	1167065088	56	4307
2026-01-01 23:53:28.72	146.56	45.03	-46.6	-47.9	14.9	0.00e+00	0	58	0	1170210816	56	4087
2026-01-01 23:53:29.71	146.95	44.83	-46.6	-48.0	14.9	0.00e+00	0	58	0	1173356544	56	4124
2026-01-01 23:53:30.69	147.34	44.64	-46.6	-48.0	14.8	0.00e+00	0	58	0	1176502272	56	4140
2026-01-01 23:53:31.67	147.72	44.44	-46.7	-48.1	14.8	0.00e+00	0	58	0	1179648000	56	4160
2026-01-01 23:53:32.66	148.10	44.24	-46.3	-47.5	15.3	0.00e+00	0	58	0	1182793728	55	4137
2026-01-01 23:53:33.65	148.48	44.04	-46.3	-47.6	15.2	0.00e+00	0	58	0	1185939456	55	4147
2026-01-01 23:53:34.64	148.85	43.83	-46.5	-47.9	14.8	0.00e+00	0	58	0	1189085184	55	4297
2026-01-01 23:53:35.63	149.22	43.63	-46.6	-48.0	14.7	0.00e+00	0	58	0	1192230912	55	4349
2026-01-01 23:53:36.62	149.58	43.43	-46.7	-48.1	14.5	0.00e+00	0	58	0	1195376640	55	4435
2026-01-01 23:53:37.61	149.94	43.23	-46.8	-48.3	14.5	0.00e+00	0	58	0	1198522368	55	4495
2026-01-01 23:53:38.60	150.30	43.03	-46.3	-47.6	15.1	0.00e+00	0	57	0	1201668096	55	4170
2026-01-01 23:53:39.59	150.65	42.82	-45.8	-47.0	15.7	0.00e+00	0	58	0	1203765248	54	4127
2026-01-01 23:53:40.58	150.99	42.62	-45.7	-46.9	15.9	0.00e+00	0	58	0	1206910976	54	4052
2026-01-01 23:53:41.56	151.33	42.42	-46.0	-47.3	15.5	0.00e+00	0	58	0	1210056704	54	4243
2026-01-01 23:53:42.55	151.67	42.22	-46.5	-47.9	14.9	0.00e+00	0	58	0	1213202432	54	4589
2026-01-01 23:53:43.54	152.00	42.01	-46.6	-48.1	14.7	0.00e+00	0	58	0	1216348160	55	4436
2026-01-01 23:53:44.52	152.32	41.81	-46.7	-48.2	14.5	7.00e-07	0	58	0	1219493888	55	4488
2026-01-01 23:53:45.51	152.65	41.61	-46.7	-48.1	14.7	0.00e+00	0	58	0	1222639616	55	4409
2026-01-01 23:53:46.50	152.97	41.41	-46.6	-48.1	14.7	0.00e+00	0	58	0	1225785344	55	4423
2026-01-01 23:53:47.49	153.29	41.21	-46.7	-48.1	14.7	1.50e-06	0	58	0	1228931072	55	4420
2026-01-01 23:53:48.49	153.60	41.00	-46.8	-48.4	14.4	7.00e-07	0	58	0	1232076800	55	4571
2026-01-01 23:53:49.47	153.91	40.80	-46.9	-48.4	14.4	0.00e+00	0	58	0	1235222528	55	4568
2026-01-01 23:53:50.46	154.21	40.60	-46.7	-48.1	14.7	0.00e+00	0	58	0	1238368256	55	4415
2026-01-01 23:53:51.45	154.52	40.40	-46.7	-48.2	14.6	0.00e+00	0	58	0	1241513984	55	4467
2026-01-01 23:53:52.43	154.81	40.20	-46.8	-48.3	14.5	7.00e-07	0	58	0	1244659712	55	4522
2026-01-01 23:53:53.42	155.10	40.00	-46.6	-48.0	14.8	0.00e+00	0	57	0	1247805440	55	4377
2026-01-01 23:53:54.41	155.40	39.80	-46.4	-47.8	15.0	0.00e+00	0	58	0	1250951168	55	4267
2026-01-01 23:53:55.40	155.68	39.60	-46.5	-47.8	15.0	0.00e+00	0	58	0	1254096896	55	4282
2026-01-01 23:53:56.39	155.97	39.40	-46.7	-48.1	14.6	0.00e+00	0	58	0	1256194048	55	4431
2026-01-01 23:53:57.37	156.24	39.21	-46.9	-48.5	14.3	1.50e-06	0	58	0	1259339776	55	4615
2026-01-01 23:53:58.36	156.52	39.01	-46.9	-48.4	14.4	7.00e-07	0	58	0	1262485504	55	4575
2026-01-01 23:53:59.36	156.80	38.81	-46.8	-48.3	14.5	0.00e+00	0	58	0	1265631232	55	4501
2026-01-01 23:54:00.34	157.07	38.61	-46.1	-47.3	15.5	0.00e+00	0	58	0	1268776960	55	4040
2026-01-01 23:54:01.33	157.33	38.41	-45.7	-46.9	16.0	0.00e+00	0	58	0	1271922688	54	4057
2026-01-01 23:54:02.32	157.60	38.22	-45.5	-46.6	16.2	0.00e+00	0	58	0	1275068416	54	3937
2026-01-01 23:54:03.31	157.86	38.02	-45.6	-46.7	16.1	0.00e+00	0	58	0	1278214144	54	3974
2026-01-01 23:54:04.30	158.12	37.82	-45.8	-47.1	15.7	0.00e+00	0	58	0	1281359872	54	4158
2026-01-01 23:54:05.30	158.38	37.63	-45.9	-47.1	15.7	0.00e+00	0	58	0	1284505600	54	4158
2026-01-01 23:54:06.28	158.62	37.43	-45.6	-46.8	16.0	0.00e+00	0	58	0	1287651328	54	4013
2026-01-01 23:54:07.27	158.87	37.24	-45.4	-46.5	16.2	0.00e+00	0	58	0	1290797056	54	3902
2026-01-01 23:54:08.25	159.12	37.05	-45.3	-46.4	16.4	0.00e+00	0	57	0	1293942784	53	4068
2026-01-01 23:54:09.24	159.36	36.85	-45.4	-46.4	16.4	0.00e+00	0	57	0	1297088512	53	4096
2026-01-01 23:54:10.23	159.60	36.66	-45.1	-46.1	16.7	0.00e+00	0	58	0	1300234240	53	3921
2026-01-01 23:54:11.22	159.84	36.47	-45.2	-46.2	16.6	0.00e+00	0	57	0	1303379968	53	3986
2026-01-01 23:54:12.20	160.07	36.28	-45.3	-46.4	16.4	0.00e+00	0	58	0	1306525696	53	4057
2026-01-01 23:54:13.19	160.31	36.09	-45.0	-46.0	16.8	0.00e+00	0	58	0	1309671424	53	3900
2026-01-01 23:54:14.18	160.54	35.90	-45.0	-46.0	16.7	0.00e+00	0	57	0	1311768576	53	3901
2026-01-01 23:54:15.18	160.76	35.71	-45.3	-46.4	16.4	0.00e+00	0	57	0	1314914304	53	4094
2026-01-01 23:54:16.17	160.99	35.52	-45.1	-46.2	16.6	0.00e+00	0	58	0	1318060032	53	3987
2026-01-01 23:54:17.16	161.21	35.33	-45.0	-46.1	16.7	0.00e+00	0	58	0	1321205760	53	3949
2026-01-01 23:54:18.14	161.43	35.14	-45.0	-46.1	16.7	0.00e+00	0	58	0	1324351488	53	3924
2026-01-01 23:54:19.14	161.65	34.95	-45.0	-46.1	16.7	0.00e+00	0	57	0	1327497216	53	3932
2026-01-01 23:54:20.13	161.86	34.77	-45.2	-46.2	16.6	0.00e+00	0	58	0	1330642944	53	3991
2026-01-01 23:54:21.11	162.07	34.58	-44.8	-45.8	16.9	0.00e+00	0	58	0	1333788672	52	4046
2026-01-01 23:54:22.10	162.28	34.40	-44.8	-45.9	16.9	0.00e+00	0	57	0	1336934400	52	4058
2026-01-01 23:54:23.09	162.49	34.21	-45.1	-46.2	16.6	0.00e+00	0	58	0	1340080128	52	4200
2026-01-01 23:54:24.08	162.70	34.03	-45.0	-46.0	16.7	0.00e+00	0	58	0	1343225856	52	4126
2026-01-01 23:54:25.06	162.90	33.85	-45.0	-46.0	16.7	0.00e+00	0	58	0	1346371584	52	4118
2026-01-01 23:54:26.05	163.10	33.67	-45.2	-46.3	16.4	0.00e+00	0	58	0	1349517312	52	4273
2026-01-01 23:54:27.03	163.30	33.49	-45.0	-46.0	16.7	0.00e+00	0	58	0	1352663040	52	4109
2026-01-01 23:54:28.03	163.49	33.30	-44.8	-45.8	16.9	0.00e+00	0	58	0	1355808768	52	4032
2026-01-01 23:54:29.02	163.69	33.12	-45.0	-46.0	16.8	0.00e+00	0	58	0	1358954496	52	4117
2026-01-01 23:54:30.00	163.88	32.95	-45.2	-46.3	16.4	0.00e+00	0	58	0	1362100224	52	4269
2026-01-01 23:54:30.99	164.07	32.77	-45.2	-46.3	16.4	0.00e+00	0	58	0	1365245952	52	4284
2026-01-01 23:54:31.97	164.26	32.59	-45.4	-46.6	16.2	0.00e+00	0	58	0	1368391680	52	4394
2026-01-01 23:54:32.96	164.44	32.41	-45.4	-46.5	16.3	0.00e+00	0	58	0	1370488832	52	4364
2026-01-01 23:54:33.95	164.63	32.24	-45.3	-46.3	16.4	0.00e+00	0	58	0	1373634560	52	4289
2026-01-01 23:54:34.94	164.81	32.06	-45.2	-46.4	16.3	0.00e+00	0	58	0	1376780288	52	4297
2026-01-01 23:54:35.93	164.99	31.89	-45.3	-46.4	16.2	0.00e+00	0	58	0	1379926016	52	4337
2026-01-01 23:54:36.92	165.17	31.71	-44.9	-45.9	16.8	0.00e+00	0	58	0	1383071744	52	4087
2026-01-01 23:54:37.90	165.35	31.54	-44.6	-45.7	17.1	0.00e+00	0	58	0	1386217472	52	3959
2026-01-01 23:54:38.89	165.52	31.37	-44.7	-45.6	17.1	0.00e+00	0	58	0	1389363200	52	3955
2026-01-01 23:54:39.87	165.69	31.20	-44.4	-45.3	17.4	0.00e+00	0	58	0	1392508928	52	3824
2026-01-01 23:54:40.87	165.87	31.02	-44.3	-45.2	17.6	0.00e+00	0	58	0	1395654656	51	3967
2026-01-01 23:54:41.85	166.03	30.85	-44.3	-45.2	17.6	0.00e+00	0	58	0	1398800384	51	3961
2026-01-01 23:54:42.83	166.20	30.69	-44.6	-45.5	17.3	0.00e+00	0	58	0	1401946112	51	4119
2026-01-01 23:54:43.81	166.36	30.52	-45.0	-46.0	16.8	0.00e+00	0	58	0	1405091840	51	4380
2026-01-01 23:54:44.80	166.53	30.35	-44.9	-45.9	16.9	0.00e+00	0	58	0	1408237568	52	4057
2026-01-01 23:54:45.80	166.69	30.18	-44.8	-45.8	16.9	0.00e+00	0	58	0	1411383296	52	4023
2026-01-01 23:54:46.79	166.86	30.01	-45.0	-46.0	16.7	0.00e+00	0	58	0	1414529024	52	4142
2026-01-01 23:54:47.78	167.01	29.85	-45.1	-46.2	16.5	0.00e+00	0	58	0	1417674752	52	4195
2026-01-01 23:54:48.77	167.17	29.68	-45.2	-46.3	16.4	0.00e+00	0	58	0	1420820480	52	4276
2026-01-01 23:54:49.75	167.33	29.52	-45.1	-46.2	16.5	0.00e+00	0	58	0	1423966208	52	4239
2026-01-01 23:54:50.73	167.48	29.36	-45.2	-46.3	16.4	0.00e+00	0	58	0	1426063360	52	4258
2026-01-01 23:54:51.71	167.63	29.19	-45.1	-46.2	16.5	0.00e+00	0	58	0	1429209088	52	4203
2026-01-01 23:54:52.71	167.79	29.03	-44.9	-45.9	16.8	0.00e+00	0	58	0	1432354816	52	4079
2026-01-01 23:54:53.70	167.94	28.87	-44.7	-45.7	17.0	0.00e+00	0	57	0	1435500544	52	3980
2026-01-01 23:54:54.68	168.09	28.71	-44.5	-45.5	17.2	0.00e+00	0	58	0	1438646272	52	3898
2026-01-01 23:54:55.68	168.23	28.55	-44.4	-45.4	17.3	0.00e+00	0	57	0	1441792000	52	3825
2026-01-01 23:54:56.67	168.38	28.39	-44.4	-45.3	17.5	0.00e+00	0	58	0	1444937728	51	4021
2026-01-01 23:54:57.66	168.53	28.23	-44.3	-45.2	17.6	0.00e+00	0	58	0	1448083456	51	3972
2026-01-01 23:54:58.65	168.67	28.07	-44.1	-44.9	17.8	0.00e+00	0	58	0	1451229184	51	3865
2026-01-01 23:54:59.64	168.81	27.91	-44.0	-44.9	17.8	0.00e+00	0	58	0	1454374912	51	3842
2026-01-01 23:55:00.62	168.95	27.76	-44.0	-44.8	17.9	0.00e+00	0	58	0	1457520640	51	3822
2026-01-01 23:55:01.61	169.09	27.60	-44.1	-44.9	17.8	0.00e+00	0	58	0	1460666368	51	3845
2026-01-01 23:55:02.60	169.23	27.44	-44.2	-45.1	17.6	0.00e+00	0	57	0	1463812096	51	3942
2026-01-01 23:55:03.59	169.37	27.29	-44.3	-45.2	17.5	0.00e+00	0	58	0	1466957824	51	4004
2026-01-01 23:55:04.58	169.50	27.13	-44.3	-45.3	17.4	0.00e+00	0	58	0	1470103552	51	4010
2026-01-01 23:55:05.58	169.64	26.98	-44.4	-45.3	17.4	0.00e+00	0	58	0	1473249280	51	4049
2026-01-01 23:55:06.57	169.77	26.83	-44.5	-45.4	17.3	0.00e+00	0	57	0	1476395008	51	4083
2026-01-01 23:55:07.55	169.90	26.68	-44.4	-45.3	17.4	0.00e+00	0	58	0	1479540736	51	4029
2026-01-01 23:55:08.55	170.03	26.52	-44.5	-45.5	17.3	0.00e+00	0	57	0	1482686464	51	4109
2026-01-01 23:55:09.54	170.16	26.37	-44.5	-45.4	17.3	0.00e+00	0	58	0	1484783616	51	4086
2026-01-01 23:55:10.52	170.29	26.22	-44.4	-45.3	17.5	0.00e+00	0	57	0	1487929344	51	4025
2026-01-01 23:55:11.52	170.42	26.07	-44.4	-45.3	17.4	0.00e+00	0	58	0	1491075072	51	4051
2026-01-01 23:55:12.50	170.54	25.93	-44.1	-45.0	17.7	0.00e+00	0	58	0	1494220800	51	3900
2026-01-01 23:55:13.50	170.67	25.78	-43.9	-44.8	17.9	0.00e+00	0	57	0	1497366528	51	3796
2026-01-01 23:55:14.49	170.79	25.63	-43.8	-44.6	18.1	0.00e+00	0	57	0	1500512256	50	3950
2026-01-01 23:55:15.48	170.91	25.48	-43.8	-44.6	18.1	0.00e+00	0	58	0	1503657984	50	3938
2026-01-01 23:55:16.46	171.04	25.34	-43.8	-44.6	18.1	0.00e+00	0	58	0	1506803712	50	3946
2026-01-01 23:55:17.44	171.15	25.20	-43.9	-44.7	18.1	0.00e+00	0	58	0	1509949440	50	3971
2026-01-01 23:55:18.43	171.27	25.05	-44.0	-44.9	17.9	0.00e+00	0	57	0	1513095168	50	4058
2026-01-01 23:55:19.42	171.39	24.91	-44.2	-45.1	17.7	0.00e+00	0	58	0	1516240896	50	4164
2026-01-01 23:55:20.43	171.51	24.76	-44.1	-45.0	17.7	0.00e+00	0	57	0	1519386624	50	4127
2026-01-01 23:55:21.42	171.63	24.62	-44.3	-45.2	17.5	0.00e+00	0	58	0	1522532352	50	4234
2026-01-01 23:55:22.41	171.74	24.48	-44.1	-45.0	17.7	0.00e+00	0	58	0	1525678080	50	4137
2026-01-01 23:55:23.39	171.86	24.34	-44.0	-44.9	17.9	0.00e+00	0	58	0	1528823808	50	4069
2026-01-01 23:55:24.37	171.97	24.20	-44.0	-44.8	17.9	0.00e+00	0	58	0	1531969536	50	4025
2026-01-01 23:55:25.36	172.08	24.06	-44.1	-44.9	17.8	0.00e+00	0	58	0	1535115264	50	4090
2026-01-01 23:55:26.35	172.19	23.92	-44.3	-45.1	17.6	0.00e+00	0	57	0	1538260992	50	4193
2026-01-01 23:55:27.35	172.30	23.78	-44.1	-44.9	17.8	0.00e+00	0	58	0	1541406720	50	4095
2026-01-01 23:55:28.33	172.41	23.64	-44.3	-45.2	17.6	0.00e+00	0	58	0	1543503872	50	4202
2026-01-01 23:55:29.32	172.52	23.50	-43.9	-44.8	17.9	0.00e+00	0	57	0	1546649600	50	4029
2026-01-01 23:55:30.31	172.63	23.37	-43.8	-44.6	18.1	0.00e+00	0	58	0	1549795328	50	3938
2026-01-01 23:55:31.30	172.74	23.23	-43.7	-44.6	18.1	0.00e+00	0	58	0	1552941056	50	3923
2026-01-01 23:55:32.29	172.84	23.10	-43.8	-44.6	18.0	0.00e+00	0	58	0	1556086784	50	3944
2026-01-01 23:55:33.28	172.95	22.96	-43.9	-44.7	18.0	0.00e+00	0	58	0	1559232512	50	3982
2026-01-01 23:55:34.27	173.05	22.83	-44.0	-44.8	17.9	0.00e+00	0	58	0	1562378240	50	4044
2026-01-01 23:55:35.25	173.15	22.69	-43.9	-44.7	17.9	0.00e+00	0	58	0	1565523968	50	3991
2026-01-01 23:55:36.24	173.26	22.56	-44.0	-44.9	17.8	0.00e+00	0	58	0	1568669696	50	4062
2026-01-01 23:55:37.23	173.36	22.43	-44.2	-45.1	17.6	0.00e+00	0	58	0	1571815424	50	4161
2026-01-01 23:55:38.21	173.46	22.30	-44.1	-44.9	17.8	0.00e+00	0	58	0	1574961152	50	4091
2026-01-01 23:55:39.20	173.56	22.17	-44.2	-45.1	17.6	0.00e+00	0	58	0	1578106880	50	4182
2026-01-01 23:55:40.19	173.66	22.04	-44.3	-45.2	17.5	0.00e+00	0	58	0	1581252608	50	4211
2026-01-01 23:55:41.18	173.76	21.91	-44.3	-45.2	17.5	0.00e+00	0	58	0	1584398336	50	4194
2026-01-01 23:55:42.17	173.85	21.78	-44.2	-45.2	17.5	0.00e+00	0	58	0	1587544064	50	4196
2026-01-01 23:55:43.16	173.95	21.65	-44.2	-45.1	17.6	0.00e+00	0	58	0	1590689792	50	4163
2026-01-01 23:55:44.15	174.05	21.52	-44.3	-45.2	17.5	0.00e+00	0	58	0	1593835520	50	4213
2026-01-01 23:55:45.14	174.14	21.39	-44.2	-45.1	17.6	0.00e+00	0	58	0	1596981248	50	4157
2026-01-01 23:55:46.13	174.24	21.26	-44.2	-45.1	17.6	0.00e+00	0	57	0	1599078400	50	4181
2026-01-01 23:55:47.12	174.33	21.14	-44.2	-45.1	17.6	0.00e+00	0	58	0	1602224128	50	4156
2026-01-01 23:55:48.12	174.42	21.01	-44.5	-45.4	17.3	0.00e+00	0	58	0	1605369856	50	4316
2026-01-01 23:55:49.10	174.52	20.89	-44.2	-45.1	17.6	0.00e+00	0	58	0	1608515584	50	4177
2026-01-01 23:55:50.08	174.61	20.76	-44.0	-44.8	17.9	0.00e+00	0	58	0	1611661312	50	4034
2026-01-01 23:55:51.07	174.70	20.64	-43.8	-44.7	18.0	0.00e+00	0	58	0	1614807040	50	3970
2026-01-01 23:55:52.05	174.79	20.51	-44.0	-44.8	17.8	0.00e+00	0	58	0	1617952768	50	4048
2026-01-01 23:55:53.05	174.88	20.39	-44.3	-45.2	17.5	0.00e+00	0	57	0	1621098496	50	4206
2026-01-01 23:55:54.03	174.97	20.27	-44.3	-45.2	17.4	0.00e+00	0	58	0	1624244224	50	4241
2026-01-01 23:55:55.02	175.05	20.15	-44.3	-45.3	17.4	0.00e+00	0	58	0	1627389952	50	4246
2026-01-01 23:55:56.01	175.14	20.02	-44.4	-45.4	17.3	0.00e+00	0	58	0	1630535680	50	4306
2026-01-01 23:55:57.00	175.23	19.90	-44.4	-45.4	17.3	0.00e+00	0	57	0	1633681408	50	4299
2026-01-01 23:55:57.99	175.32	19.78	-44.6	-45.5	17.2	0.00e+00	0	58	0	1636827136	50	4367
2026-01-01 23:55:58.98	175.40	19.66	-44.7	-45.7	17.0	0.00e+00	0	57	0	1639972864	51	4218
2026-01-01 23:55:59.97	175.49	19.54	-44.6	-45.6	17.0	0.00e+00	0	58	0	1643118592	51	4178
2026-01-01 23:56:00.96	175.57	19.42	-44.6	-45.5	17.2	0.00e+00	0	58	0	1646264320	51	4126
2026-01-01 23:56:01.95	175.65	19.30	-44.6	-45.6	17.0	0.00e+00	0	58	0	1649410048	51	4192
2026-01-01 23:56:02.94	175.74	19.19	-44.9	-45.9	16.7	0.00e+00	0	58	0	1652555776	51	4326
2026-01-01 23:56:03.93	175.82	19.07	-44.7	-45.7	16.9	0.00e+00	0	58	0	1655701504	51	4224
2026-01-01 23:56:04.92	175.90	18.95	-44.6	-45.6	17.1	0.00e+00	0	58	0	1658847232	51	4167
2026-01-01 23:56:05.91	175.98	18.83	-44.5	-45.5	17.2	0.00e+00	0	58	0	1661992960	51	4113
2026-01-01 23:56:06.89	176.06	18.72	-44.6	-45.5	17.1	0.00e+00	0	57	0	1664090112	51	4128
2026-01-01 23:56:07.88	176.14	18.60	-44.8	-45.9	16.8	0.00e+00	0	58	0	1667235840	51	4298
2026-01-01 23:56:08.87	176.22	18.49	-44.7	-45.7	17.0	0.00e+00	0	57	0	1670381568	51	4203
2026-01-01 23:56:09.86	176.30	18.37	-44.4	-45.4	17.3	0.00e+00	0	58	0	1673527296	51	4062
2026-01-01 23:56:10.84	176.38	18.26	-44.3	-45.2	17.4	0.00e+00	0	57	0	1676673024	51	3973
2026-01-01 23:56:11.83	176.46	18.15	-44.2	-45.1	17.5	0.00e+00	0	57	0	1679818752	51	3948
2026-01-01 23:56:12.82	176.54	18.03	-44.3	-45.2	17.4	0.00e+00	0	58	0	1682964480	51	3989
2026-01-01 23:56:13.81	176.61	17.92	-44.3	-45.2	17.4	0.00e+00	0	58	0	1686110208	51	3988
2026-01-01 23:56:14.79	176.69	17.81	-44.5	-45.5	17.2	0.00e+00	0	58	0	1689255936	51	4106
2026-01-01 23:56:15.79	176.76	17.70	-44.5	-45.4	17.2	0.00e+00	0	58	0	1692401664	51	4093
2026-01-01 23:56:16.77	176.84	17.59	-44.5	-45.5	17.1	0.00e+00	0	58	0	1695547392	51	4143
2026-01-01 23:56:17.76	176.91	17.47	-44.5	-45.4	17.2	0.00e+00	0	57	0	1698693120	51	4075
2026-01-01 23:56:18.75	176.99	17.36	-44.2	-45.1	17.5	0.00e+00	0	58	0	1701838848	51	3944
2026-01-01 23:56:19.74	177.06	17.25	-44.1	-45.0	17.6	0.00e+00	0	57	0	1704984576	51	3887
2026-01-01 23:56:20.73	177.13	17.14	-44.1	-45.0	17.6	0.00e+00	0	58	0	1708130304	51	3889
2026-01-01 23:56:21.72	177.21	17.04	-44.2	-45.1	17.5	0.00e+00	0	57	0	1711276032	51	3929
2026-01-01 23:56:22.70	177.28	16.93	-44.4	-45.3	17.3	0.00e+00	0	58	0	1714421760	51	4046
2026-01-01 23:56:23.70	177.35	16.82	-44.5	-45.4	17.2	0.00e+00	0	58	0	1717567488	51	4084
2026-01-01 23:56:24.68	177.42	16.71	-44.6	-45.6	17.0	0.00e+00	0	58	0	1719664640	51	4168
2026-01-01 23:56:25.67	177.49	16.60	-44.6	-45.6	17.0	0.00e+00	0	58	0	1722810368	51	4184
2026-01-01 23:56:26.66	177.56	16.50	-44.5	-45.5	17.1	0.00e+00	0	57	0	1725956096	51	4124
2026-01-01 23:56:27.64	177.63	16.39	-44.6	-45.5	17.1	0.00e+00	0	58	0	1729101824	51	4134
2026-01-01 23:56:28.63	177.70	16.29	-44.7	-45.7	16.9	0.00e+00	0	58	0	1732247552	51	4215
2026-01-01 23:56:29.62	177.77	16.18	-44.8	-45.8	16.8	0.00e+00	0	57	0	1735393280	51	4257
2026-01-01 23:56:30.59	177.84	16.08	-44.8	-45.9	16.8	0.00e+00	0	58	0	1738539008	51	4292
2026-01-01 23:56:31.58	177.91	15.97	-44.8	-45.8	16.8	0.00e+00	0	57	0	1741684736	51	4290
2026-01-01 23:56:32.56	177.97	15.87	-44.8	-45.8	16.9	0.00e+00	0	58	0	1744830464	51	4250
2026-01-01 23:56:33.55	178.04	15.76	-44.7	-45.7	16.9	0.00e+00	0	58	0	1747976192	51	4209
2026-01-01 23:56:34.54	178.11	15.66	-44.8	-45.8	16.8	0.00e+00	0	57	0	1751121920	51	4270
2026-01-01 23:56:35.53	178.17	15.56	-44.9	-45.9	16.7	0.00e+00	0	57	0	1754267648	51	4305
2026-01-01 23:56:36.52	178.24	15.46	-44.9	-45.9	16.7	0.00e+00	0	58	0	1757413376	51	4329
2026-01-01 23:56:37.51	178.30	15.35	-45.0	-46.1	16.4	0.00e+00	0	58	0	1760559104	52	4182
2026-01-01 23:56:38.50	178.37	15.25	-45.1	-46.2	16.4	0.00e+00	0	58	0	1763704832	52	4203
2026-01-01 23:56:39.49	178.43	15.15	-44.8	-45.9	16.7	0.00e+00	0	58	0	1765801984	52	4055
2026-01-01 23:56:40.48	178.50	15.05	-44.7	-45.7	16.8	0.00e+00	0	58	0	1768947712	52	3977
2026-01-01 23:56:41.46	178.56	14.95	-44.6	-45.6	16.8	0.00e+00	0	58	0	1772093440	52	3958
2026-01-01 23:56:42.45	178.62	14.85	-44.8	-45.9	16.6	0.00e+00	0	57	0	1775239168	52	4066
2026-01-01 23:56:43.45	178.69	14.75	-44.9	-46.0	16.5	0.00e+00	0	57	0	1778384896	52	4113
2026-01-01 23:56:44.43	178.75	14.65	-44.8	-45.9	16.6	0.00e+00	0	58	0	1781530624	52	4080
2026-01-01 23:56:45.42	178.81	14.55	-44.9	-46.0	16.5	0.00e+00	0	57	0	1784676352	52	4101
2026-01-01 23:56:46.41	178.87	14.45	-45.1	-46.2	16.3	0.00e+00	0	57	0	1787822080	52	4195
2026-01-01 23:56:47.41	178.94	14.35	-45.1	-46.3	16.2	0.00e+00	0	58	0	1790967808	52	4261
2026-01-01 23:56:48.40	179.00	14.25	-45.1	-46.2	16.3	0.00e+00	0	57	0	1794113536	52	4201
2026-01-01 23:56:49.38	179.06	14.15	-45.2	-46.4	16.1	0.00e+00	0	58	0	1797259264	52	4295
2026-01-01 23:56:50.37	179.12	14.06	-45.3	-46.5	16.0	0.00e+00	0	58	0	1800404992	52	4374
2026-01-01 23:56:51.37	179.18	13.96	-45.3	-46.4	16.1	0.00e+00	0	57	0	1803550720	52	4322
2026-01-01 23:56:52.36	179.24	13.86	-45.4	-46.6	15.9	0.00e+00	0	57	0	1806696448	52	4401
2026-01-01 23:56:53.36	179.30	13.76	-45.2	-46.3	16.2	0.00e+00	0	58	0	1809842176	52	4272
2026-01-01 23:56:54.35	179.36	13.67	-45.1	-46.1	16.3	0.00e+00	0	58	0	1812987904	52	4189
2026-01-01 23:56:55.33	179.41	13.57	-45.1	-46.2	16.2	0.00e+00	0	57	0	1816133632	52	4223
2026-01-01 23:56:56.33	179.47	13.48	-45.1	-46.2	16.3	0.00e+00	0	57	0	1819279360	52	4205
2026-01-01 23:56:57.32	179.53	13.38	-45.0	-46.0	16.4	0.00e+00	0	58	0	1822425088	52	4144
2026-01-01 23:56:58.31	179.59	13.29	-44.9	-46.0	16.5	0.00e+00	0	58	0	1825570816	52	4123
2026-01-01 23:56:59.30	179.64	13.19	-45.1	-46.2	16.3	0.00e+00	0	57	0	1828716544	52	4210
2026-01-01 23:57:00.29	179.70	13.10	-45.2	-46.4	16.1	0.00e+00	0	58	0	1830813696	52	4314
2026-01-01 23:57:01.26	179.76	13.01	-45.1	-46.2	16.3	0.00e+00	0	58	0	1833959424	52	4207
2026-01-01 23:57:02.25	179.81	12.91	-45.0	-46.0	16.4	0.00e+00	0	58	0	1837105152	52	4144
2026-01-01 23:57:03.24	179.87	12.82	-45.0	-46.1	16.4	0.00e+00	0	58	0	1840250880	52	4148
2026-01-01 23:57:04.22	179.92	12.73	-45.0	-46.1	16.4	0.00e+00	0	58	0	1843396608	52	4160
2026-01-01 23:57:05.22	179.98	12.64	-45.1	-46.3	16.2	0.00e+00	0	58	0	1846542336	52	4248
2026-01-01 23:57:06.20	180.03	12.55	-45.1	-46.2	16.2	0.00e+00	0	58	0	1849688064	52	4215
2026-01-01 23:57:07.19	180.09	12.45	-45.3	-46.4	16.0	0.00e+00	0	58	0	1852833792	52	4337
2026-01-01 23:57:08.18	180.14	12.36	-45.5	-46.7	15.8	0.00e+00	0	57	0	1855979520	52	4461
2026-01-01 23:57:09.17	180.20	12.27	-45.3	-46.5	15.9	0.00e+00	0	58	0	1859125248	52	4373
2026-01-01 23:57:10.16	180.25	12.18	-45.5	-46.7	15.7	0.00e+00	0	58	0	1862270976	52	4483
2026-01-01 23:57:11.14	180.30	12.09	-45.3	-46.6	15.9	0.00e+00	0	58	0	1865416704	52	4393
2026-01-01 23:57:12.13	180.35	12.00	-45.5	-46.7	15.8	0.00e+00	0	58	0	1868562432	52	4458
2026-01-01 23:57:13.12	180.41	11.91	-45.6	-46.8	15.6	0.00e+00	0	58	0	1871708160	52	4529
2026-01-01 23:57:14.11	180.46	11.82	-45.5	-46.8	15.7	0.00e+00	0	58	0	1874853888	52	4494
2026-01-01 23:57:15.10	180.51	11.73	-45.6	-46.9	15.5	0.00e+00	0	57	0	1877999616	53	4324
2026-01-01 23:57:16.09	180.56	11.64	-45.8	-47.1	15.2	0.00e+00	0	57	0	1881145344	53	4439
2026-01-01 23:57:17.08	180.62	11.56	-45.7	-46.9	15.5	0.00e+00	0	57	0	1884291072	53	4324
2026-01-01 23:57:18.07	180.67	11.47	-45.9	-47.2	15.2	7.00e-07	0	57	0	1887436800	53	4485
2026-01-01 23:57:19.06	180.72	11.38	-45.7	-47.0	15.4	0.00e+00	0	58	0	1890582528	53	4352
2026-01-01 23:57:20.05	180.77	11.29	-45.5	-46.8	15.6	0.00e+00	0	57	0	1892679680	53	4253
2026-01-01 23:57:21.03	180.82	11.21	-45.5	-46.7	15.7	0.00e+00	0	58	0	1895825408	53	4225
2026-01-01 23:57:22.02	180.87	11.12	-45.6	-46.8	15.5	0.00e+00	0	58	0	1898971136	53	4279
2026-01-01 23:57:23.01	180.92	11.03	-45.7	-47.0	15.4	0.00e+00	0	58	0	1902116864	53	4352
2026-01-01 23:57:24.00	180.97	10.95	-45.9	-47.2	15.1	7.00e-07	0	57	0	1905262592	53	4485
2026-01-01 23:57:25.00	181.02	10.86	-45.8	-47.0	15.3	0.00e+00	0	57	0	1908408320	53	4388
2026-01-01 23:57:25.98	181.07	10.77	-45.6	-46.9	15.5	0.00e+00	0	58	0	1911554048	53	4305
2026-01-01 23:57:26.98	181.11	10.69	-45.5	-46.7	15.6	0.00e+00	0	57	0	1914699776	53	4225
2026-01-01 23:57:27.97	181.16	10.60	-45.4	-46.7	15.6	0.00e+00	0	58	0	1917845504	53	4217
2026-01-01 23:57:28.95	181.21	10.52	-45.5	-46.7	15.6	0.00e+00	0	58	0	1920991232	53	4237
2026-01-01 23:57:29.94	181.26	10.43	-45.7	-47.1	15.2	0.00e+00	0	57	0	1924136960	53	4408
2026-01-01 23:57:30.92	181.31	10.35	-45.6	-46.9	15.4	0.00e+00	0	57	0	1927282688	53	4312
2026-01-01 23:57:31.91	181.35	10.26	-45.4	-46.7	15.7	0.00e+00	0	58	0	1930428416	53	4199
2026-01-01 23:57:32.90	181.40	10.18	-45.3	-46.5	15.8	0.00e+00	0	57	0	1933574144	53	4133
2026-01-01 23:57:33.88	181.45	10.10	-45.3	-46.5	15.8	0.00e+00	0	58	0	1936719872	53	4139
2026-01-01 23:57:34.87	181.49	10.01	-45.4	-46.6	15.7	0.00e+00	0	57	0	1939865600	53	4160
2026-01-01 23:57:35.86	181.54	9.93	-45.5	-46.7	15.6	0.00e+00	0	57	0	1943011328	53	4226
2026-01-01 23:57:36.85	181.59	9.85	-45.4	-46.7	15.7	0.00e+00	0	57	0	1946157056	53	4196
2026-01-01 23:57:37.84	181.63	9.77	-45.5	-46.7	15.5	0.00e+00	0	57	0	1948254208	53	4230
2026-01-01 23:57:38.83	181.68	9.68	-45.5	-46.7	15.6	0.00e+00	0	57	0	1951399936	53	4234
2026-01-01 23:57:39.82	181.72	9.60	-45.5	-46.8	15.5	0.00e+00	0	58	0	1954545664	53	4261
2026-01-01 23:57:40.81	181.77	9.52	-45.6	-46.9	15.3	0.00e+00	0	58	0	1957691392	53	4339
2026-01-01 23:57:41.81	181.81	9.44	-45.7	-46.9	15.3	0.00e+00	0	58	0	1960837120	53	4339
2026-01-01 23:57:42.80	181.86	9.36	-45.8	-47.1	15.2	0.00e+00	0	57	0	1963982848	53	4423
2026-01-01 23:57:43.79	181.90	9.27	-45.7	-47.0	15.2	0.00e+00	0	57	0	1967128576	53	4379
2026-01-01 23:57:44.78	181.95	9.19	-45.7	-47.1	15.1	0.00e+00	0	58	0	1970274304	53	4432
2026-01-01 23:57:45.76	181.99	9.11	-46.0	-47.4	14.8	0.00e+00	0	57	0	1973420032	53	4594
2026-01-01 23:57:46.75	182.04	9.03	-46.0	-47.4	14.8	0.00e+00	0	57	0	1976565760	54	4326
2026-01-01 23:57:47.75	182.08	8.95	-46.0	-47.5	14.8	0.00e+00	0	57	0	1979711488	54	4352
2026-01-01 23:57:48.74	182.12	8.87	-46.1	-47.5	14.7	0.00e+00	0	58	0	1982857216	54	4378
2026-01-01 23:57:49.73	182.17	8.79	-46.1	-47.6	14.7	1.50e-06	0	58	0	1986002944	54	4395
2026-01-01 23:57:50.72	182.21	8.71	-46.2	-47.7	14.6	7.00e-07	0	57	0	1989148672	54	4446
2026-01-01 23:57:51.71	182.25	8.63	-46.2	-47.6	14.6	0.00e+00	0	57	0	1992294400	54	4438
2026-01-01 23:57:52.70	182.30	8.56	-46.2	-47.6	14.6	0.00e+00	0	57	0	1995440128	54	4424
2026-01-01 23:57:53.69	182.34	8.48	-46.2	-47.7	14.5	7.00e-07	0	57	0	1998585856	54	4458
2026-01-01 23:57:54.67	182.38	8.40	-46.0	-47.4	14.8	7.00e-07	0	57	0	2001731584	54	4320
2026-01-01 23:57:55.66	182.42	8.32	-45.7	-47.1	15.0	7.00e-07	0	58	0	2004877312	54	4187
2026-01-01 23:57:56.64	182.46	8.24	-45.6	-46.9	15.3	0.00e+00	0	58	0	2008023040	54	4084
2026-01-01 23:57:57.64	182.50	8.16	-45.6	-46.9	15.3	0.00e+00	0	58	0	2010120192	54	4074
