passes_logs/2026/01/01/R3.0SM8_Murmansk_STILSPACE/R3.0SM8_Murmansk_STILSPACE__20260101_095257_FENGYUN_3D_rec.log

#Pass ID: 20260101_095257_FENGYUN 3D
#Satellite: FENGYUN 3D
#Configuration: FENGYUN 3D
#almurnet v.1.7.20240730
#Start time: 2026-01-01 09:52:58

#Version: 2.2.20231116
#Station: R3.0SM8_Murmansk_STILSPACE
#Location: 33.092731 lon 68.902999 lat
#TLE: 1 43010U 17072A   25365.48527867  .00000101  00000+0  69745-4 0  9999
#TLE: 2 43010  98.9911 332.0787 0001837 134.4748 225.6578 14.19689788421190

#Time	Az	El	Level	Level2	SNR	BER	BlckErr	Temp	State	Recorded	gain1	gain2
2026-01-01 09:52:58.72	112.79	3.07	-52.4	-63.3	3.8	8.46e-01	0	51	0	0	67	12757
2026-01-01 09:52:59.71	112.76	3.14	-52.3	-63.2	3.8	8.46e-01	0	51	104	0	67	12549
2026-01-01 09:53:00.70	112.72	3.20	-52.4	-63.1	3.8	8.46e-01	0	51	104	0	67	12449
2026-01-01 09:53:01.69	112.68	3.26	-52.3	-63.0	3.8	8.47e-01	0	51	104	0	67	12325
2026-01-01 09:53:02.68	112.64	3.33	-52.1	-62.9	3.8	8.46e-01	0	51	104	0	67	12220
2026-01-01 09:53:03.67	112.60	3.39	-52.0	-62.5	3.8	8.46e-01	0	51	104	0	67	11682
2026-01-01 09:53:04.66	112.56	3.46	-51.8	-62.1	3.8	8.46e-01	0	51	104	0	66	11800
2026-01-01 09:53:05.64	112.53	3.52	-51.8	-62.1	3.8	8.47e-01	0	51	104	0	66	11761
2026-01-01 09:53:06.64	112.49	3.59	-51.6	-62.1	3.8	8.47e-01	0	51	104	0	66	11768
2026-01-01 09:53:07.63	112.45	3.65	-51.7	-62.1	3.8	8.46e-01	0	51	104	0	66	11707
2026-01-01 09:53:08.62	112.41	3.72	-51.6	-62.0	3.8	8.47e-01	0	51	104	0	66	11662
2026-01-01 09:53:09.61	112.37	3.78	-51.7	-61.9	3.8	8.45e-01	0	51	104	0	66	11454
2026-01-01 09:53:10.59	112.33	3.84	-51.7	-61.7	3.8	8.46e-01	0	52	104	0	66	11264
2026-01-01 09:53:11.58	112.29	3.91	-51.6	-61.6	3.8	8.46e-01	0	52	104	0	66	11034
2026-01-01 09:53:12.56	112.25	3.97	-51.6	-61.2	3.8	8.46e-01	0	52	104	0	66	10538
2026-01-01 09:53:13.56	112.21	4.04	-51.6	-60.8	3.8	8.45e-01	0	52	104	0	66	10155
2026-01-01 09:53:14.55	112.17	4.11	-51.4	-60.4	3.8	8.46e-01	0	52	104	0	65	10226
2026-01-01 09:53:15.55	112.13	4.17	-51.4	-59.9	3.9	8.43e-01	0	52	104	0	65	9654
2026-01-01 09:53:16.54	112.09	4.24	-51.3	-59.3	4.1	8.40e-01	0	52	0	0	65	9067
2026-01-01 09:53:17.53	112.04	4.31	-51.2	-58.7	4.3	8.36e-01	0	52	0	0	65	8409
2026-01-01 09:53:18.52	112.00	4.37	-51.2	-58.1	4.4	8.28e-01	0	52	0	0	65	7884
2026-01-01 09:53:19.50	111.96	4.44	-51.0	-57.5	4.7	8.11e-01	0	52	0	0	65	7313
2026-01-01 09:53:20.48	111.92	4.50	-50.7	-56.8	5.1	7.72e-01	0	52	0	0	64	7181
2026-01-01 09:53:21.47	111.88	4.57	-50.7	-56.4	5.3	7.50e-01	0	52	0	0	64	6813
2026-01-01 09:53:22.46	111.84	4.64	-50.6	-55.8	5.8	6.12e-01	0	52	0	2097152	64	6374
2026-01-01 09:53:23.45	111.79	4.70	-50.5	-55.3	6.2	3.50e-01	0	52	0	7340032	63	6371
2026-01-01 09:53:24.44	111.75	4.77	-50.2	-54.7	6.7	2.67e-01	0	52	0	12582912	63	5955
2026-01-01 09:53:25.43	111.71	4.84	-50.0	-54.0	7.3	1.57e-01	0	52	0	18874368	63	5528
2026-01-01 09:53:26.42	111.67	4.91	-49.6	-53.5	7.8	9.83e-02	0	52	0	24117248	62	5484
2026-01-01 09:53:27.41	111.62	4.97	-49.5	-53.1	8.2	8.68e-02	0	52	0	29360128	62	5264
2026-01-01 09:53:28.40	111.58	5.04	-49.2	-52.7	8.6	4.88e-02	0	52	0	34603008	61	5291
2026-01-01 09:53:29.40	111.54	5.11	-49.4	-52.9	8.4	4.27e-02	0	52	0	40894464	61	5419
2026-01-01 09:53:30.38	111.49	5.18	-49.6	-53.3	8.0	8.07e-02	0	53	0	46137344	61	5705
2026-01-01 09:53:31.37	111.45	5.25	-49.3	-52.6	8.8	5.29e-02	0	53	0	51380224	61	5226
2026-01-01 09:53:32.36	111.40	5.31	-49.0	-52.1	9.2	2.83e-02	0	53	0	57671680	61	4956
2026-01-01 09:53:33.34	111.36	5.38	-48.8	-51.8	9.6	1.87e-02	0	52	0	62914560	60	5060
2026-01-01 09:53:34.33	111.31	5.45	-48.5	-51.3	10.0	1.16e-02	0	53	0	68157440	60	4796
2026-01-01 09:53:35.32	111.27	5.52	-48.4	-51.2	10.2	8.64e-03	0	53	0	74448896	60	4721
2026-01-01 09:53:36.31	111.22	5.59	-48.5	-51.3	10.1	7.24e-03	0	53	0	79691776	59	5061
2026-01-01 09:53:37.30	111.18	5.66	-48.7	-51.6	9.9	1.00e-02	0	53	0	84934656	59	5219
2026-01-01 09:53:38.29	111.13	5.73	-48.7	-51.3	10.1	1.03e-02	0	53	0	91226112	59	5090
2026-01-01 09:53:39.28	111.09	5.80	-48.0	-50.4	11.1	3.24e-03	0	53	0	96468992	59	4588
2026-01-01 09:53:40.27	111.04	5.87	-47.5	-49.6	11.9	6.92e-04	0	53	0	101711872	58	4394
2026-01-01 09:53:41.27	110.99	5.94	-47.1	-49.0	12.5	2.10e-04	0	53	0	108003328	57	4368
2026-01-01 09:53:42.26	110.95	6.01	-46.6	-48.4	13.1	9.84e-05	0	53	0	113246208	56	4304
2026-01-01 09:53:43.24	110.90	6.08	-46.4	-48.1	13.4	2.17e-05	0	53	0	118489088	56	4167
2026-01-01 09:53:44.23	110.85	6.15	-46.0	-47.6	13.9	5.70e-06	0	53	0	123731968	55	4148
2026-01-01 09:53:45.22	110.81	6.22	-45.6	-47.1	14.4	2.20e-06	0	53	0	130023424	54	4173
2026-01-01 09:53:46.21	110.76	6.29	-45.3	-46.7	14.8	0.00e+00	0	53	0	135266304	53	4200
2026-01-01 09:53:47.20	110.71	6.36	-45.0	-46.3	15.1	0.00e+00	0	53	0	140509184	53	4047
2026-01-01 09:53:48.18	110.66	6.43	-44.9	-46.2	15.3	0.00e+00	0	53	0	146800640	53	3966
2026-01-01 09:53:49.17	110.61	6.50	-44.8	-46.1	15.3	0.00e+00	0	53	0	152043520	52	4171
2026-01-01 09:53:50.16	110.57	6.57	-44.8	-46.0	15.4	0.00e+00	0	53	0	157286400	52	4135
2026-01-01 09:53:51.14	110.52	6.64	-44.8	-46.1	15.4	0.00e+00	0	53	0	162529280	52	4148
2026-01-01 09:53:52.13	110.47	6.72	-44.8	-46.1	15.4	1.10e-06	0	53	0	168820736	52	4162
2026-01-01 09:53:53.11	110.42	6.79	-44.9	-46.2	15.3	0.00e+00	0	53	0	174063616	52	4208
2026-01-01 09:53:54.10	110.37	6.86	-44.8	-46.1	15.4	0.00e+00	0	53	0	179306496	52	4156
2026-01-01 09:53:55.09	110.32	6.93	-44.7	-45.9	15.6	0.00e+00	0	53	0	185597952	52	4086
2026-01-01 09:53:56.09	110.27	7.01	-44.7	-45.9	15.6	0.00e+00	0	53	0	190840832	52	4089
2026-01-01 09:53:57.07	110.22	7.08	-44.7	-45.8	15.6	0.00e+00	0	53	0	196083712	52	4051
2026-01-01 09:53:58.07	110.17	7.15	-44.8	-46.0	15.5	0.00e+00	0	53	0	201326592	52	4117
2026-01-01 09:53:59.05	110.12	7.22	-44.7	-45.9	15.6	0.00e+00	0	53	0	207618048	52	4077
2026-01-01 09:54:00.03	110.07	7.30	-44.7	-46.0	15.6	0.00e+00	0	54	0	212860928	52	4108
2026-01-01 09:54:01.02	110.02	7.37	-45.0	-46.2	15.4	0.00e+00	0	53	0	218103808	52	4222
2026-01-01 09:54:02.01	109.96	7.44	-44.8	-46.0	15.5	0.00e+00	0	53	0	224395264	52	4134
2026-01-01 09:54:03.00	109.91	7.52	-44.6	-45.8	15.8	0.00e+00	0	54	0	229638144	52	4008
2026-01-01 09:54:04.00	109.86	7.59	-44.5	-45.7	15.9	0.00e+00	0	54	0	234881024	52	3975
2026-01-01 09:54:04.98	109.81	7.66	-44.5	-45.6	15.9	0.00e+00	0	54	0	241172480	52	3952
2026-01-01 09:54:05.97	109.75	7.74	-44.5	-45.6	16.0	0.00e+00	0	54	0	246415360	52	3942
2026-01-01 09:54:06.96	109.70	7.81	-44.6	-45.7	15.8	0.00e+00	0	54	0	251658240	52	4004
2026-01-01 09:54:07.95	109.65	7.89	-44.5	-45.7	15.9	0.00e+00	0	54	0	257949696	52	3977
2026-01-01 09:54:08.93	109.59	7.96	-44.6	-45.7	15.9	0.00e+00	0	54	0	263192576	52	3988
2026-01-01 09:54:09.92	109.54	8.04	-44.9	-46.1	15.5	0.00e+00	0	54	0	268435456	52	4157
2026-01-01 09:54:10.91	109.49	8.11	-44.5	-45.7	15.9	0.00e+00	0	54	0	273678336	52	3985
2026-01-01 09:54:11.89	109.43	8.19	-44.4	-45.6	16.0	0.00e+00	0	54	0	279969792	52	3930
2026-01-01 09:54:12.89	109.38	8.27	-44.3	-45.4	16.3	0.00e+00	0	54	0	285212672	51	4071
2026-01-01 09:54:13.87	109.32	8.34	-44.4	-45.5	16.2	0.00e+00	0	54	0	291504128	51	4123
2026-01-01 09:54:14.86	109.27	8.42	-44.4	-45.5	16.2	0.00e+00	0	54	0	296747008	51	4130
2026-01-01 09:54:15.85	109.21	8.49	-44.4	-45.5	16.2	0.00e+00	0	54	0	301989888	51	4144
2026-01-01 09:54:16.85	109.15	8.57	-44.6	-45.7	16.0	0.00e+00	0	54	0	307232768	51	4218
2026-01-01 09:54:17.84	109.10	8.65	-44.4	-45.5	16.2	0.00e+00	0	54	0	313524224	51	4119
2026-01-01 09:54:18.83	109.04	8.72	-44.3	-45.4	16.4	0.00e+00	0	54	0	318767104	51	4062
2026-01-01 09:54:19.82	108.98	8.80	-44.3	-45.3	16.4	0.00e+00	0	54	0	324009984	51	4050
2026-01-01 09:54:20.81	108.92	8.88	-44.4	-45.5	16.3	0.00e+00	0	54	0	330301440	51	4115
2026-01-01 09:54:21.80	108.87	8.96	-44.3	-45.4	16.3	0.00e+00	0	54	0	335544320	51	4073
2026-01-01 09:54:22.79	108.81	9.03	-44.3	-45.4	16.4	0.00e+00	0	54	0	340787200	51	4067
2026-01-01 09:54:23.78	108.75	9.11	-44.4	-45.5	16.3	0.00e+00	0	54	0	347078656	51	4108
2026-01-01 09:54:24.77	108.69	9.19	-44.6	-45.7	16.0	0.00e+00	0	54	0	352321536	51	4237
2026-01-01 09:54:25.76	108.63	9.27	-44.4	-45.5	16.3	0.00e+00	0	54	0	357564416	51	4117
2026-01-01 09:54:26.75	108.57	9.35	-44.3	-45.3	16.5	0.00e+00	0	54	0	362807296	51	4040
2026-01-01 09:54:27.75	108.51	9.43	-44.1	-45.2	16.6	0.00e+00	0	54	0	369098752	51	3971
2026-01-01 09:54:28.74	108.45	9.51	-44.2	-45.2	16.6	0.00e+00	0	54	0	374341632	51	3989
2026-01-01 09:54:29.72	108.39	9.59	-44.2	-45.3	16.5	0.00e+00	0	54	0	379584512	51	4008
2026-01-01 09:54:30.70	108.33	9.66	-44.4	-45.5	16.4	0.00e+00	0	54	0	385875968	51	4108
2026-01-01 09:54:31.69	108.27	9.74	-44.3	-45.3	16.5	0.00e+00	0	54	0	391118848	51	4032
2026-01-01 09:54:32.69	108.21	9.83	-44.1	-45.2	16.7	0.00e+00	0	54	0	396361728	51	3969
2026-01-01 09:54:33.68	108.15	9.91	-44.0	-45.0	16.8	0.00e+00	0	54	0	402653184	51	3888
2026-01-01 09:54:34.67	108.09	9.99	-44.0	-45.0	16.8	0.00e+00	0	54	0	407896064	51	3875
2026-01-01 09:54:35.66	108.02	10.07	-44.1	-45.1	16.7	0.00e+00	0	54	0	413138944	51	3953
2026-01-01 09:54:36.65	107.96	10.15	-44.1	-45.1	16.7	0.00e+00	0	54	0	419430400	51	3930
2026-01-01 09:54:37.64	107.90	10.23	-43.9	-44.9	16.9	0.00e+00	0	55	0	424673280	51	3865
2026-01-01 09:54:38.64	107.83	10.31	-43.9	-44.9	17.0	0.00e+00	0	55	0	429916160	51	3832
2026-01-01 09:54:39.63	107.77	10.39	-44.0	-45.0	16.8	0.00e+00	0	55	0	436207616	51	3907
2026-01-01 09:54:40.62	107.70	10.47	-44.0	-45.0	16.9	0.00e+00	0	55	0	441450496	51	3870
2026-01-01 09:54:41.61	107.64	10.56	-43.9	-44.8	17.0	0.00e+00	0	54	0	446693376	50	4048
2026-01-01 09:54:42.59	107.57	10.64	-43.8	-44.8	17.0	0.00e+00	0	55	0	451936256	50	4042
2026-01-01 09:54:43.58	107.51	10.72	-43.8	-44.8	17.1	0.00e+00	0	55	0	458227712	50	4023
2026-01-01 09:54:44.57	107.44	10.80	-43.9	-44.9	17.0	0.00e+00	0	54	0	463470592	50	4055
2026-01-01 09:54:45.56	107.38	10.89	-43.9	-44.9	17.0	0.00e+00	0	55	0	468713472	50	4069
2026-01-01 09:54:46.55	107.31	10.97	-43.7	-44.6	17.3	0.00e+00	0	55	0	475004928	50	3937
2026-01-01 09:54:47.54	107.24	11.05	-43.6	-44.5	17.3	0.00e+00	0	54	0	480247808	50	3901
2026-01-01 09:54:48.53	107.17	11.14	-43.6	-44.5	17.3	0.00e+00	0	55	0	485490688	50	3910
2026-01-01 09:54:49.51	107.11	11.22	-43.6	-44.5	17.3	0.00e+00	0	55	0	490733568	50	3910
2026-01-01 09:54:50.49	107.04	11.30	-43.7	-44.7	17.2	0.00e+00	0	55	0	497025024	50	3967
2026-01-01 09:54:51.49	106.97	11.39	-43.8	-44.7	17.2	0.00e+00	0	55	0	502267904	50	3998
2026-01-01 09:54:52.47	106.90	11.47	-43.7	-44.6	17.3	0.00e+00	0	55	0	508559360	50	3948
2026-01-01 09:54:53.47	106.83	11.56	-43.5	-44.4	17.5	0.00e+00	0	55	0	513802240	50	3849
2026-01-01 09:54:54.46	106.76	11.65	-43.5	-44.4	17.5	0.00e+00	0	55	0	519045120	50	3842
2026-01-01 09:54:55.45	106.69	11.73	-43.6	-44.5	17.4	0.00e+00	0	55	0	524288000	50	3895
2026-01-01 09:54:56.44	106.62	11.82	-43.7	-44.6	17.3	0.00e+00	0	55	0	530579456	50	3933
2026-01-01 09:54:57.44	106.55	11.90	-43.5	-44.5	17.4	0.00e+00	0	55	0	535822336	50	3878
2026-01-01 09:54:58.43	106.48	11.99	-43.4	-44.4	17.6	0.00e+00	0	55	0	542113792	50	3828
2026-01-01 09:54:59.42	106.40	12.08	-43.4	-44.3	17.6	0.00e+00	0	55	0	547356672	49	4038
2026-01-01 09:55:00.39	106.33	12.16	-43.4	-44.3	17.5	0.00e+00	0	55	0	552599552	49	4045
2026-01-01 09:55:01.38	106.26	12.25	-43.4	-44.3	17.6	0.00e+00	0	55	0	557842432	49	4027
2026-01-01 09:55:02.36	106.19	12.34	-43.4	-44.3	17.6	0.00e+00	0	55	0	563085312	49	4018
2026-01-01 09:55:03.35	106.11	12.42	-43.5	-44.4	17.5	0.00e+00	0	55	0	569376768	49	4058
2026-01-01 09:55:04.33	106.04	12.51	-43.6	-44.6	17.3	0.00e+00	0	55	0	574619648	49	4158
2026-01-01 09:55:05.32	105.96	12.60	-43.5	-44.4	17.5	0.00e+00	0	55	0	579862528	49	4098
2026-01-01 09:55:06.31	105.89	12.69	-43.6	-44.6	17.3	0.00e+00	0	55	0	586153984	49	4163
2026-01-01 09:55:07.30	105.81	12.78	-43.4	-44.3	17.6	0.00e+00	0	55	0	591396864	49	4012
2026-01-01 09:55:08.29	105.74	12.86	-43.2	-44.1	17.8	0.00e+00	0	55	0	596639744	49	3936
2026-01-01 09:55:09.29	105.66	12.95	-43.2	-44.1	17.8	0.00e+00	0	55	0	602931200	49	3953
2026-01-01 09:55:10.27	105.58	13.04	-43.3	-44.1	17.8	0.00e+00	0	55	0	608174080	49	3956
2026-01-01 09:55:11.25	105.51	13.13	-43.3	-44.2	17.7	0.00e+00	0	55	0	613416960	49	3999
2026-01-01 09:55:12.24	105.43	13.22	-43.2	-44.1	17.8	0.00e+00	0	55	0	619708416	49	3939
2026-01-01 09:55:13.22	105.35	13.31	-43.1	-43.9	18.0	0.00e+00	0	55	0	624951296	49	3857
2026-01-01 09:55:14.21	105.27	13.40	-43.0	-43.9	18.0	0.00e+00	0	55	0	630194176	49	3842
2026-01-01 09:55:15.20	105.19	13.49	-43.1	-44.0	17.9	0.00e+00	0	55	0	635437056	49	3881
2026-01-01 09:55:16.19	105.11	13.58	-43.2	-44.1	17.9	0.00e+00	0	55	0	641728512	49	3924
2026-01-01 09:55:17.19	105.03	13.68	-43.3	-44.2	17.7	0.00e+00	0	55	0	646971392	49	3989
2026-01-01 09:55:18.17	104.95	13.77	-43.5	-44.4	17.6	0.00e+00	0	55	0	652214272	49	4064
2026-01-01 09:55:19.17	104.86	13.86	-43.3	-44.1	17.8	0.00e+00	0	55	0	658505728	49	3954
2026-01-01 09:55:20.16	104.78	13.95	-43.1	-43.9	18.0	0.00e+00	0	55	0	663748608	49	3850
2026-01-01 09:55:21.15	104.70	14.05	-43.0	-43.9	18.1	0.00e+00	0	55	0	668991488	49	3835
2026-01-01 09:55:22.13	104.62	14.14	-43.0	-43.9	18.1	0.00e+00	0	55	0	675282944	49	3837
2026-01-01 09:55:23.12	104.53	14.23	-43.3	-44.2	17.7	0.00e+00	0	55	0	680525824	49	3986
2026-01-01 09:55:24.11	104.45	14.32	-43.1	-43.9	18.0	0.00e+00	0	56	0	685768704	49	3863
2026-01-01 09:55:25.10	104.36	14.42	-43.3	-44.2	17.7	0.00e+00	0	56	0	691011584	49	3995
2026-01-01 09:55:26.09	104.28	14.51	-43.6	-44.5	17.4	0.00e+00	0	56	0	697303040	49	4139
2026-01-01 09:55:27.08	104.19	14.61	-43.3	-44.2	17.7	0.00e+00	0	55	0	702545920	49	3988
2026-01-01 09:55:28.08	104.10	14.70	-43.1	-43.9	18.0	0.00e+00	0	56	0	708837376	49	3855
2026-01-01 09:55:29.06	104.02	14.80	-42.9	-43.7	18.2	0.00e+00	0	55	0	714080256	48	3988
2026-01-01 09:55:30.05	103.93	14.89	-42.7	-43.6	18.3	0.00e+00	0	56	0	719323136	48	3923
2026-01-01 09:55:31.04	103.84	14.99	-42.7	-43.5	18.4	0.00e+00	0	55	0	724566016	48	3900
2026-01-01 09:55:32.03	103.75	15.08	-42.8	-43.6	18.3	0.00e+00	0	56	0	730857472	48	3937
2026-01-01 09:55:33.02	103.66	15.18	-42.9	-43.8	18.2	0.00e+00	0	55	0	736100352	48	4019
2026-01-01 09:55:34.00	103.57	15.28	-42.8	-43.7	18.3	0.00e+00	0	56	0	741343232	48	3979
2026-01-01 09:55:35.00	103.48	15.37	-42.9	-43.8	18.2	0.00e+00	0	55	0	747634688	48	4012
2026-01-01 09:55:35.98	103.39	15.47	-43.1	-44.0	18.0	0.00e+00	0	56	0	752877568	48	4131
2026-01-01 09:55:36.97	103.30	15.57	-42.9	-43.8	18.2	0.00e+00	0	55	0	758120448	48	4021
2026-01-01 09:55:37.95	103.21	15.66	-42.8	-43.7	18.3	0.00e+00	0	56	0	763363328	48	3960
2026-01-01 09:55:38.94	103.11	15.76	-42.7	-43.5	18.4	0.00e+00	0	56	0	769654784	48	3893
2026-01-01 09:55:39.94	103.02	15.86	-42.6	-43.4	18.5	0.00e+00	0	56	0	774897664	48	3866
2026-01-01 09:55:40.93	102.92	15.96	-42.7	-43.5	18.4	0.00e+00	0	56	0	781189120	48	3909
2026-01-01 09:55:41.91	102.83	16.06	-42.8	-43.7	18.3	0.00e+00	0	56	0	786432000	48	3977
2026-01-01 09:55:42.91	102.73	16.16	-43.1	-43.9	18.1	0.00e+00	0	56	0	791674880	48	4077
2026-01-01 09:55:43.89	102.64	16.26	-42.8	-43.6	18.4	0.00e+00	0	56	0	796917760	48	3932
2026-01-01 09:55:44.88	102.54	16.36	-42.5	-43.3	18.6	0.00e+00	0	56	0	803209216	48	3814
2026-01-01 09:55:45.86	102.44	16.46	-42.4	-43.2	18.8	0.00e+00	0	56	0	808452096	48	3744
2026-01-01 09:55:46.86	102.34	16.56	-42.3	-43.1	18.7	0.00e+00	0	56	0	813694976	47	3914
2026-01-01 09:55:47.85	102.24	16.66	-42.3	-43.1	18.7	0.00e+00	0	56	0	819986432	47	3956
2026-01-01 09:55:48.84	102.14	16.76	-42.6	-43.4	18.4	0.00e+00	0	56	0	825229312	47	4083
2026-01-01 09:55:49.83	102.04	16.86	-42.4	-43.2	18.6	0.00e+00	0	56	0	830472192	47	3966
2026-01-01 09:55:50.82	101.94	16.96	-42.3	-43.0	18.9	0.00e+00	0	56	0	835715072	47	3899
2026-01-01 09:55:51.80	101.84	17.07	-42.2	-42.9	19.0	0.00e+00	0	56	0	842006528	47	3850
2026-01-01 09:55:52.80	101.73	17.17	-42.2	-42.9	19.0	0.00e+00	0	56	0	847249408	47	3853
2026-01-01 09:55:53.78	101.63	17.27	-42.3	-43.1	18.9	0.00e+00	0	56	0	852492288	47	3925
2026-01-01 09:55:54.78	101.53	17.38	-42.2	-42.9	19.0	0.00e+00	0	56	0	858783744	47	3841
2026-01-01 09:55:55.76	101.42	17.48	-41.9	-42.6	19.3	0.00e+00	0	56	0	864026624	47	3733
2026-01-01 09:55:56.75	101.32	17.58	-41.8	-42.5	19.5	0.00e+00	0	56	0	869269504	46	3879
2026-01-01 09:55:57.74	101.21	17.69	-41.8	-42.5	19.4	0.00e+00	0	56	0	875560960	46	3882
2026-01-01 09:55:58.73	101.10	17.79	-41.9	-42.6	19.3	0.00e+00	0	56	0	880803840	46	3945
2026-01-01 09:55:59.72	101.00	17.90	-42.0	-42.7	19.3	0.00e+00	0	56	0	886046720	46	3966
2026-01-01 09:56:00.71	100.89	18.00	-41.9	-42.6	19.3	0.00e+00	0	56	0	891289600	46	3936
2026-01-01 09:56:01.70	100.78	18.11	-41.9	-42.6	19.3	0.00e+00	0	56	0	897581056	46	3939
2026-01-01 09:56:02.70	100.67	18.21	-41.9	-42.6	19.3	0.00e+00	0	56	0	902823936	46	3930
2026-01-01 09:56:03.69	100.55	18.32	-42.0	-42.7	19.2	0.00e+00	0	56	0	909115392	46	3994
2026-01-01 09:56:04.68	100.44	18.43	-42.0	-42.7	19.2	0.00e+00	0	56	0	914358272	46	3988
2026-01-01 09:56:05.67	100.33	18.53	-42.1	-42.8	19.2	0.00e+00	0	56	0	919601152	46	4027
2026-01-01 09:56:06.66	100.22	18.64	-42.2	-43.0	19.0	0.00e+00	0	56	0	924844032	46	4108
2026-01-01 09:56:07.65	100.10	18.75	-42.2	-42.9	19.0	0.00e+00	0	56	0	931135488	46	4091
2026-01-01 09:56:08.63	99.99	18.86	-42.3	-43.0	19.0	0.00e+00	0	56	0	936378368	46	4120
2026-01-01 09:56:09.63	99.87	18.97	-42.4	-43.2	18.8	0.00e+00	0	56	0	941621248	46	4218
2026-01-01 09:56:10.61	99.75	19.07	-42.4	-43.1	18.8	0.00e+00	0	56	0	947912704	46	4179
2026-01-01 09:56:11.60	99.64	19.18	-42.1	-42.8	19.2	0.00e+00	0	56	0	953155584	46	4030
2026-01-01 09:56:12.58	99.52	19.29	-41.8	-42.5	19.4	0.00e+00	0	56	0	958398464	46	3904
2026-01-01 09:56:13.58	99.40	19.40	-41.6	-42.3	19.6	0.00e+00	0	56	0	964689920	46	3817
2026-01-01 09:56:14.57	99.28	19.51	-41.6	-42.3	19.7	0.00e+00	0	56	0	969932800	46	3803
2026-01-01 09:56:15.57	99.16	19.62	-41.5	-42.2	19.7	0.00e+00	0	56	0	975175680	46	3756
2026-01-01 09:56:16.55	99.03	19.73	-41.6	-42.2	19.7	0.00e+00	0	56	0	980418560	46	3770
2026-01-01 09:56:17.53	98.91	19.84	-41.8	-42.5	19.5	0.00e+00	0	56	0	986710016	46	3874
2026-01-01 09:56:18.53	98.79	19.96	-41.7	-42.4	19.6	0.00e+00	0	56	0	991952896	46	3832
2026-01-01 09:56:19.52	98.66	20.07	-41.3	-41.9	20.0	0.00e+00	0	56	0	997195776	45	3864
2026-01-01 09:56:20.51	98.54	20.18	-41.1	-41.7	20.2	0.00e+00	0	56	0	1003487232	45	3769
2026-01-01 09:56:21.49	98.41	20.29	-41.1	-41.8	20.2	0.00e+00	0	56	0	1008730112	45	3784
2026-01-01 09:56:22.49	98.28	20.41	-41.3	-41.9	20.0	0.00e+00	0	56	0	1013972992	45	3844
2026-01-01 09:56:23.48	98.15	20.52	-41.3	-42.0	20.0	0.00e+00	0	56	0	1020264448	45	3880
2026-01-01 09:56:24.46	98.02	20.63	-41.3	-42.0	20.0	0.00e+00	0	56	0	1025507328	45	3884
2026-01-01 09:56:25.46	97.89	20.75	-41.4	-42.1	19.9	0.00e+00	0	56	0	1030750208	45	3920
2026-01-01 09:56:26.44	97.76	20.86	-41.5	-42.2	19.8	0.00e+00	0	56	0	1037041664	45	3961
2026-01-01 09:56:27.42	97.63	20.97	-41.5	-42.2	19.8	0.00e+00	0	56	0	1042284544	45	3959
2026-01-01 09:56:28.41	97.50	21.09	-41.4	-42.0	19.9	0.00e+00	0	56	0	1047527424	45	3892
2026-01-01 09:56:29.39	97.36	21.20	-41.6	-42.2	19.7	0.00e+00	0	56	0	1052770304	45	3993
2026-01-01 09:56:30.38	97.23	21.32	-41.6	-42.3	19.7	0.00e+00	0	56	0	1059061760	45	4031
2026-01-01 09:56:31.36	97.09	21.43	-41.4	-42.0	19.9	0.00e+00	0	56	0	1064304640	45	3894
2026-01-01 09:56:32.35	96.95	21.55	-41.1	-41.8	20.2	0.00e+00	0	56	0	1069547520	45	3781
2026-01-01 09:56:33.34	96.81	21.67	-41.1	-41.7	20.2	0.00e+00	0	56	0	1075838976	45	3769
2026-01-01 09:56:34.34	96.67	21.79	-41.1	-41.8	20.2	0.00e+00	0	56	0	1081081856	45	3789
2026-01-01 09:56:35.33	96.53	21.90	-41.2	-41.8	20.2	0.00e+00	0	56	0	1086324736	45	3801
2026-01-01 09:56:36.32	96.39	22.02	-41.3	-41.9	20.0	0.00e+00	0	56	0	1091567616	45	3860
2026-01-01 09:56:37.31	96.25	22.14	-41.0	-41.7	20.3	0.00e+00	0	56	0	1097859072	45	3740
2026-01-01 09:56:38.29	96.10	22.26	-40.8	-41.4	20.5	0.00e+00	0	56	0	1103101952	44	3863
2026-01-01 09:56:39.28	95.96	22.38	-40.7	-41.3	20.6	0.00e+00	0	56	0	1109393408	44	3818
2026-01-01 09:56:40.26	95.81	22.50	-40.7	-41.3	20.7	0.00e+00	0	56	0	1114636288	44	3788
2026-01-01 09:56:41.24	95.67	22.61	-40.6	-41.2	20.8	0.00e+00	0	56	0	1119879168	44	3751
2026-01-01 09:56:42.23	95.52	22.73	-40.7	-41.3	20.6	0.00e+00	0	56	0	1125122048	44	3820
2026-01-01 09:56:43.22	95.37	22.86	-40.8	-41.4	20.5	0.00e+00	0	56	0	1131413504	44	3851
2026-01-01 09:56:44.20	95.22	22.97	-40.6	-41.2	20.8	0.00e+00	0	56	0	1136656384	44	3743
2026-01-01 09:56:45.20	95.06	23.10	-40.5	-41.0	20.9	0.00e+00	0	56	0	1141899264	44	3686
2026-01-01 09:56:46.18	94.91	23.22	-40.5	-41.1	20.9	0.00e+00	0	56	0	1148190720	44	3695
2026-01-01 09:56:47.18	94.75	23.34	-40.5	-41.1	20.8	0.00e+00	0	56	0	1153433600	44	3719
2026-01-01 09:56:48.17	94.60	23.46	-40.7	-41.3	20.7	0.00e+00	0	56	0	1158676480	44	3793
2026-01-01 09:56:49.15	94.44	23.58	-40.7	-41.4	20.6	0.00e+00	0	56	0	1163919360	44	3827
2026-01-01 09:56:50.15	94.28	23.71	-40.8	-41.4	20.5	0.00e+00	0	56	0	1170210816	44	3865
2026-01-01 09:56:51.13	94.12	23.83	-40.7	-41.3	20.6	0.00e+00	0	56	0	1175453696	44	3803
2026-01-01 09:56:52.12	93.96	23.95	-40.7	-41.3	20.7	0.00e+00	0	56	0	1180696576	44	3793
2026-01-01 09:56:53.10	93.80	24.08	-40.6	-41.2	20.7	0.00e+00	0	56	0	1186988032	44	3776
2026-01-01 09:56:54.10	93.64	24.20	-40.8	-41.4	20.6	0.00e+00	0	56	0	1192230912	44	3840
2026-01-01 09:56:55.09	93.47	24.33	-41.0	-41.6	20.4	0.00e+00	0	57	0	1197473792	44	3940
2026-01-01 09:56:56.08	93.30	24.45	-40.7	-41.3	20.6	0.00e+00	0	57	0	1203765248	44	3808
2026-01-01 09:56:57.06	93.14	24.58	-40.7	-41.3	20.7	0.00e+00	0	56	0	1209008128	44	3801
2026-01-01 09:56:58.06	92.97	24.70	-40.9	-41.5	20.5	0.00e+00	0	56	0	1214251008	44	3892
2026-01-01 09:56:59.04	92.80	24.83	-40.5	-41.1	20.9	0.00e+00	0	56	0	1219493888	44	3704
2026-01-01 09:57:00.03	92.63	24.95	-40.2	-40.7	21.1	0.00e+00	0	56	0	1225785344	43	3772
2026-01-01 09:57:01.01	92.45	25.08	-40.2	-40.7	21.1	0.00e+00	0	56	0	1231028224	43	3780
2026-01-01 09:57:01.99	92.28	25.20	-40.2	-40.8	21.0	0.00e+00	0	56	0	1236271104	43	3807
2026-01-01 09:57:02.98	92.11	25.33	-40.2	-40.8	21.1	0.00e+00	0	56	0	1242562560	43	3782
2026-01-01 09:57:03.97	91.93	25.46	-40.2	-40.8	21.0	0.00e+00	0	56	0	1247805440	43	3802
2026-01-01 09:57:04.95	91.75	25.58	-40.4	-41.0	20.8	0.00e+00	0	56	0	1253048320	43	3901
2026-01-01 09:57:05.94	91.57	25.71	-40.3	-40.9	20.9	0.00e+00	0	57	0	1258291200	43	3858
2026-01-01 09:57:06.93	91.39	25.84	-40.7	-41.3	20.5	0.00e+00	0	56	0	1264582656	43	4033
2026-01-01 09:57:07.92	91.20	25.97	-40.6	-41.3	20.6	0.00e+00	0	56	0	1269825536	43	4008
2026-01-01 09:57:08.92	91.02	26.10	-40.7	-41.4	20.5	0.00e+00	0	56	0	1275068416	43	4054
2026-01-01 09:57:09.90	90.83	26.23	-40.5	-41.2	20.7	0.00e+00	0	56	0	1281359872	43	3962
2026-01-01 09:57:10.90	90.64	26.36	-40.4	-41.0	20.9	0.00e+00	0	56	0	1286602752	43	3885
2026-01-01 09:57:11.89	90.45	26.49	-40.5	-41.1	20.8	0.00e+00	0	57	0	1291845632	43	3928
2026-01-01 09:57:12.87	90.26	26.62	-40.4	-41.0	20.8	0.00e+00	0	56	0	1298137088	43	3900
2026-01-01 09:57:13.86	90.07	26.75	-40.4	-41.0	20.9	0.00e+00	0	56	0	1303379968	43	3891
2026-01-01 09:57:14.85	89.88	26.88	-40.5	-41.1	20.7	0.00e+00	0	57	0	1308622848	43	3957
2026-01-01 09:57:15.85	89.68	27.01	-40.7	-41.3	20.6	0.00e+00	0	56	0	1314914304	43	4030
2026-01-01 09:57:16.83	89.48	27.14	-40.5	-41.1	20.7	0.00e+00	0	57	0	1320157184	43	3951
2026-01-01 09:57:17.82	89.28	27.27	-40.4	-41.0	20.9	0.00e+00	0	56	0	1325400064	43	3893
2026-01-01 09:57:18.82	89.08	27.40	-40.7	-41.4	20.5	0.00e+00	0	56	0	1331691520	43	4055
2026-01-01 09:57:19.80	88.88	27.53	-40.7	-41.3	20.5	0.00e+00	0	57	0	1336934400	43	4049
2026-01-01 09:57:20.79	88.67	27.67	-40.7	-41.3	20.5	0.00e+00	0	56	0	1342177280	43	4049
2026-01-01 09:57:21.78	88.47	27.80	-40.8	-41.4	20.4	0.00e+00	0	57	0	1348468736	43	4091
2026-01-01 09:57:22.78	88.26	27.93	-40.7	-41.3	20.6	0.00e+00	0	56	0	1353711616	43	4024
2026-01-01 09:57:23.77	88.05	28.06	-40.5	-41.1	20.8	0.00e+00	0	56	0	1358954496	43	3928
2026-01-01 09:57:24.76	87.84	28.20	-40.5	-41.1	20.8	0.00e+00	0	57	0	1364197376	43	3917
2026-01-01 09:57:25.75	87.62	28.33	-40.4	-41.0	20.9	0.00e+00	0	56	0	1370488832	43	3883
2026-01-01 09:57:26.74	87.41	28.46	-40.4	-40.9	20.9	0.00e+00	0	57	0	1375731712	43	3867
2026-01-01 09:57:27.73	87.19	28.60	-40.6	-41.2	20.7	0.00e+00	0	57	0	1380974592	43	3963
2026-01-01 09:57:28.72	86.97	28.73	-40.6	-41.2	20.7	0.00e+00	0	57	0	1387266048	43	3968
2026-01-01 09:57:29.70	86.76	28.86	-40.5	-41.1	20.8	0.00e+00	0	57	0	1392508928	43	3923
2026-01-01 09:57:30.68	86.53	29.00	-40.5	-41.1	20.8	0.00e+00	0	57	0	1397751808	43	3938
2026-01-01 09:57:31.67	86.31	29.13	-40.6	-41.2	20.6	0.00e+00	0	57	0	1404043264	43	4002
2026-01-01 09:57:32.67	86.08	29.26	-40.5	-41.1	20.8	0.00e+00	0	57	0	1409286144	43	3944
2026-01-01 09:57:33.66	85.85	29.40	-40.5	-41.1	20.8	0.00e+00	0	57	0	1414529024	43	3949
2026-01-01 09:57:34.66	85.62	29.53	-40.5	-41.1	20.8	0.00e+00	0	57	0	1419771904	43	3919
2026-01-01 09:57:35.65	85.39	29.67	-40.2	-40.8	21.0	0.00e+00	0	57	0	1426063360	43	3815
2026-01-01 09:57:36.64	85.16	29.80	-40.1	-40.7	21.2	0.00e+00	0	57	0	1431306240	43	3764
2026-01-01 09:57:37.63	84.92	29.94	-40.0	-40.6	21.3	0.00e+00	0	57	0	1437597696	43	3714
2026-01-01 09:57:38.62	84.68	30.07	-40.1	-40.7	21.2	0.00e+00	0	57	0	1442840576	43	3765
2026-01-01 09:57:39.62	84.44	30.21	-40.2	-40.7	21.2	0.00e+00	0	57	0	1448083456	43	3769
2026-01-01 09:57:40.60	84.20	30.34	-40.3	-40.8	21.0	0.00e+00	0	57	0	1453326336	43	3824
2026-01-01 09:57:41.59	83.96	30.48	-40.2	-40.8	21.1	0.00e+00	0	57	0	1459617792	43	3785
2026-01-01 09:57:42.57	83.71	30.61	-40.0	-40.5	21.3	0.00e+00	0	57	0	1464860672	43	3689
2026-01-01 09:57:43.56	83.46	30.75	-39.9	-40.4	21.4	0.00e+00	0	57	0	1470103552	42	3847
2026-01-01 09:57:44.55	83.21	30.88	-39.9	-40.5	21.4	0.00e+00	0	56	0	1476395008	42	3891
2026-01-01 09:57:45.54	82.96	31.02	-40.0	-40.6	21.3	0.00e+00	0	57	0	1481637888	42	3927
2026-01-01 09:57:46.53	82.71	31.15	-40.0	-40.5	21.3	0.00e+00	0	57	0	1486880768	42	3908
2026-01-01 09:57:47.53	82.45	31.29	-40.0	-40.6	21.3	0.00e+00	0	56	0	1493172224	42	3923
2026-01-01 09:57:48.52	82.19	31.42	-40.3	-40.9	21.1	0.00e+00	0	57	0	1498415104	42	4056
2026-01-01 09:57:49.51	81.93	31.56	-40.4	-41.0	20.9	0.00e+00	0	57	0	1503657984	42	4099
2026-01-01 09:57:50.49	81.67	31.69	-40.2	-40.7	21.1	0.00e+00	0	57	0	1508900864	42	4003
2026-01-01 09:57:51.48	81.40	31.83	-40.0	-40.6	21.3	0.00e+00	0	56	0	1515192320	42	3914
2026-01-01 09:57:52.47	81.14	31.96	-39.9	-40.5	21.4	0.00e+00	0	57	0	1520435200	42	3882
2026-01-01 09:57:53.45	80.87	32.09	-39.9	-40.5	21.4	0.00e+00	0	57	0	1525678080	42	3876
2026-01-01 09:57:54.44	80.60	32.23	-40.0	-40.6	21.3	0.00e+00	0	57	0	1531969536	42	3920
2026-01-01 09:57:55.42	80.32	32.36	-40.2	-40.8	21.1	0.00e+00	0	57	0	1537212416	42	4024
2026-01-01 09:57:56.41	80.05	32.50	-40.3	-40.9	21.0	0.00e+00	0	57	0	1542455296	42	4059
2026-01-01 09:57:57.40	79.77	32.63	-40.1	-40.6	21.2	0.00e+00	0	56	0	1547698176	42	3952
2026-01-01 09:57:58.39	79.49	32.76	-39.9	-40.4	21.4	0.00e+00	0	57	0	1553989632	42	3865
2026-01-01 09:57:59.38	79.20	32.90	-39.9	-40.4	21.5	0.00e+00	0	57	0	1559232512	42	3851
2026-01-01 09:58:00.37	78.92	33.03	-40.0	-40.6	21.3	0.00e+00	0	57	0	1565523968	42	3931
2026-01-01 09:58:01.37	78.63	33.17	-40.1	-40.7	21.2	0.00e+00	0	57	0	1570766848	42	3991
2026-01-01 09:58:02.36	78.34	33.30	-39.8	-40.4	21.5	0.00e+00	0	57	0	1576009728	42	3836
2026-01-01 09:58:03.34	78.05	33.43	-39.7	-40.2	21.6	0.00e+00	0	57	0	1581252608	42	3765
2026-01-01 09:58:04.33	77.75	33.56	-39.6	-40.1	21.7	0.00e+00	0	56	0	1587544064	42	3735
2026-01-01 09:58:05.32	77.45	33.69	-39.6	-40.1	21.8	0.00e+00	0	57	0	1592786944	42	3710
2026-01-01 09:58:06.31	77.15	33.83	-39.7	-40.2	21.7	0.00e+00	0	57	0	1598029824	42	3763
2026-01-01 09:58:07.31	76.85	33.96	-39.8	-40.3	21.6	0.00e+00	0	57	0	1604321280	42	3801
2026-01-01 09:58:08.30	76.54	34.09	-39.8	-40.4	21.5	0.00e+00	0	57	0	1609564160	42	3837
2026-01-01 09:58:09.28	76.24	34.22	-39.7	-40.2	21.6	0.00e+00	0	57	0	1614807040	42	3761
2026-01-01 09:58:10.27	75.93	34.35	-39.6	-40.2	21.7	0.00e+00	0	57	0	1621098496	42	3741
2026-01-01 09:58:11.26	75.61	34.48	-39.7	-40.2	21.6	0.00e+00	0	57	0	1626341376	42	3778
2026-01-01 09:58:12.25	75.30	34.61	-39.9	-40.4	21.5	0.00e+00	0	56	0	1631584256	42	3848
2026-01-01 09:58:13.23	74.98	34.74	-40.1	-40.6	21.2	0.00e+00	0	57	0	1637875712	42	3955
2026-01-01 09:58:14.22	74.66	34.86	-40.1	-40.7	21.2	0.00e+00	0	57	0	1643118592	42	3980
2026-01-01 09:58:15.21	74.34	34.99	-40.2	-40.7	21.2	0.00e+00	0	57	0	1648361472	42	3992
2026-01-01 09:58:16.19	74.02	35.12	-40.3	-40.9	21.0	0.00e+00	0	57	0	1653604352	42	4066
2026-01-01 09:58:17.18	73.69	35.24	-40.4	-41.0	20.9	0.00e+00	0	57	0	1659895808	42	4131
2026-01-01 09:58:18.17	73.36	35.37	-40.2	-40.7	21.2	0.00e+00	0	57	0	1665138688	42	3988
2026-01-01 09:58:19.16	73.03	35.50	-40.1	-40.6	21.3	0.00e+00	0	57	0	1670381568	42	3946
2026-01-01 09:58:20.15	72.69	35.62	-40.2	-40.7	21.2	0.00e+00	0	57	0	1676673024	42	3996
2026-01-01 09:58:21.14	72.35	35.75	-40.0	-40.6	21.3	0.00e+00	0	57	0	1681915904	42	3917
2026-01-01 09:58:22.14	72.01	35.87	-40.1	-40.7	21.2	0.00e+00	0	57	0	1687158784	42	3978
2026-01-01 09:58:23.13	71.66	35.99	-39.8	-40.4	21.5	0.00e+00	0	57	0	1693450240	42	3838
2026-01-01 09:58:24.12	71.32	36.12	-39.7	-40.2	21.7	0.00e+00	0	57	0	1698693120	42	3766
2026-01-01 09:58:25.11	70.97	36.24	-39.5	-40.1	21.8	0.00e+00	0	57	0	1703936000	42	3702
2026-01-01 09:58:26.11	70.61	36.36	-39.4	-40.0	21.9	0.00e+00	0	57	0	1709178880	42	3659
2026-01-01 09:58:27.09	70.26	36.48	-39.3	-39.9	22.0	0.00e+00	0	57	0	1715470336	41	3825
2026-01-01 09:58:28.07	69.91	36.60	-39.5	-40.0	21.8	0.00e+00	0	57	0	1720713216	41	3898
2026-01-01 09:58:29.06	69.55	36.71	-39.8	-40.4	21.5	0.00e+00	0	57	0	1725956096	41	4070
2026-01-01 09:58:30.05	69.19	36.83	-39.8	-40.4	21.5	0.00e+00	0	57	0	1732247552	41	4058
2026-01-01 09:58:31.03	68.83	36.95	-39.9	-40.4	21.5	0.00e+00	0	57	0	1737490432	41	4094
2026-01-01 09:58:32.02	68.46	37.06	-39.7	-40.2	21.7	0.00e+00	0	57	0	1742733312	41	3980
2026-01-01 09:58:33.01	68.09	37.18	-39.6	-40.1	21.8	0.00e+00	0	57	0	1747976192	41	3941
2026-01-01 09:58:34.00	67.72	37.29	-39.7	-40.2	21.6	0.00e+00	0	57	0	1754267648	41	3994
2026-01-01 09:58:34.99	67.34	37.40	-39.5	-40.1	21.8	0.00e+00	0	57	0	1759510528	41	3918
2026-01-01 09:58:35.97	66.97	37.51	-39.7	-40.3	21.6	0.00e+00	0	57	0	1765801984	41	4005
2026-01-01 09:58:36.96	66.59	37.62	-39.7	-40.3	21.6	0.00e+00	0	57	0	1771044864	41	4028
2026-01-01 09:58:37.95	66.21	37.73	-39.8	-40.4	21.5	0.00e+00	0	57	0	1776287744	41	4074
2026-01-01 09:58:38.94	65.82	37.84	-39.8	-40.3	21.5	0.00e+00	0	57	0	1781530624	41	4050
2026-01-01 09:58:39.92	65.44	37.95	-39.9	-40.5	21.4	0.00e+00	0	57	0	1787822080	41	4102
2026-01-01 09:58:40.92	65.04	38.06	-39.9	-40.5	21.4	0.00e+00	0	57	0	1793064960	41	4113
2026-01-01 09:58:41.91	64.65	38.16	-39.8	-40.4	21.5	0.00e+00	0	57	0	1798307840	41	4062
2026-01-01 09:58:42.90	64.26	38.26	-39.8	-40.3	21.5	0.00e+00	0	57	0	1804599296	41	4045
2026-01-01 09:58:43.90	63.85	38.37	-39.9	-40.5	21.4	0.00e+00	0	57	0	1809842176	41	4121
2026-01-01 09:58:44.89	63.45	38.47	-39.9	-40.4	21.4	0.00e+00	0	57	0	1815085056	41	4092
2026-01-01 09:58:45.87	63.06	38.57	-39.9	-40.5	21.4	0.00e+00	0	57	0	1820327936	41	4119
2026-01-01 09:58:46.85	62.65	38.66	-39.9	-40.5	21.4	0.00e+00	0	57	0	1826619392	41	4122
2026-01-01 09:58:47.85	62.24	38.76	-40.0	-40.5	21.3	0.00e+00	0	57	0	1831862272	41	4139
2026-01-01 09:58:48.84	61.83	38.86	-39.9	-40.5	21.4	0.00e+00	0	57	0	1837105152	41	4116
2026-01-01 09:58:49.83	61.42	38.95	-40.0	-40.6	21.3	0.00e+00	0	57	0	1843396608	41	4150
2026-01-01 09:58:50.82	61.00	39.04	-40.3	-40.8	21.1	0.00e+00	0	57	0	1848639488	42	4044
2026-01-01 09:58:51.81	60.59	39.14	-40.2	-40.8	21.2	0.00e+00	0	57	0	1853882368	42	4024
2026-01-01 09:58:52.80	60.17	39.23	-40.3	-40.9	21.0	0.00e+00	0	57	0	1860173824	42	4074
2026-01-01 09:58:53.79	59.75	39.31	-40.1	-40.6	21.3	0.00e+00	0	57	0	1865416704	42	3943
2026-01-01 09:58:54.79	59.32	39.40	-40.3	-40.9	21.1	0.00e+00	0	57	0	1870659584	42	4058
2026-01-01 09:58:55.78	58.89	39.49	-40.2	-40.8	21.1	0.00e+00	0	57	0	1876951040	42	4031
2026-01-01 09:58:56.77	58.46	39.57	-40.2	-40.7	21.2	0.00e+00	0	57	0	1882193920	42	3995
2026-01-01 09:58:57.76	58.03	39.65	-39.9	-40.5	21.4	0.00e+00	0	57	0	1887436800	42	3881
2026-01-01 09:58:58.75	57.60	39.73	-39.8	-40.3	21.6	0.00e+00	0	57	0	1893728256	42	3807
2026-01-01 09:58:59.74	57.16	39.81	-39.9	-40.5	21.4	0.00e+00	0	57	0	1898971136	42	3887
2026-01-01 09:59:00.73	56.72	39.89	-39.9	-40.4	21.5	0.00e+00	0	57	0	1904214016	42	3851
2026-01-01 09:59:01.72	56.28	39.96	-39.9	-40.4	21.5	0.00e+00	0	57	0	1910505472	42	3863
2026-01-01 09:59:02.71	55.84	40.04	-40.0	-40.5	21.4	0.00e+00	0	57	0	1915748352	42	3913
2026-01-01 09:59:03.70	55.40	40.11	-40.2	-40.8	21.2	0.00e+00	0	57	0	1920991232	42	4017
2026-01-01 09:59:04.69	54.95	40.18	-40.1	-40.7	21.3	0.00e+00	0	57	0	1927282688	42	3973
2026-01-01 09:59:05.68	54.51	40.24	-39.8	-40.3	21.6	0.00e+00	0	57	0	1932525568	42	3816
2026-01-01 09:59:06.66	54.06	40.31	-39.5	-40.0	21.8	0.00e+00	0	57	0	1937768448	42	3692
2026-01-01 09:59:07.65	53.61	40.37	-39.3	-39.9	22.0	0.00e+00	0	57	0	1943011328	41	3832
2026-01-01 09:59:08.64	53.16	40.43	-39.3	-39.8	22.1	0.00e+00	0	57	0	1949302784	41	3803
2026-01-01 09:59:09.63	52.70	40.50	-39.3	-39.8	22.0	0.00e+00	0	57	0	1954545664	41	3821
2026-01-01 09:59:10.62	52.25	40.55	-39.4	-39.9	21.9	0.00e+00	0	57	0	1959788544	41	3851
2026-01-01 09:59:11.60	51.80	40.61	-39.3	-39.8	22.0	0.00e+00	0	57	0	1966080000	41	3803
2026-01-01 09:59:12.59	51.34	40.66	-39.3	-39.8	22.0	0.00e+00	0	57	0	1971322880	41	3814
2026-01-01 09:59:13.59	50.87	40.72	-39.4	-39.9	22.0	0.00e+00	0	57	0	1976565760	41	3848
2026-01-01 09:59:14.58	50.41	40.77	-39.5	-40.0	21.9	0.00e+00	0	57	0	1982857216	41	3889
2026-01-01 09:59:15.56	49.95	40.81	-39.6	-40.1	21.7	0.00e+00	0	57	0	1988100096	41	3955
2026-01-01 09:59:16.55	49.48	40.86	-39.6	-40.2	21.7	0.00e+00	0	57	0	1993342976	41	3966
2026-01-01 09:59:17.53	49.02	40.90	-39.7	-40.2	21.7	0.00e+00	0	57	0	1998585856	41	3986
2026-01-01 09:59:18.52	48.56	40.95	-39.6	-40.2	21.7	0.00e+00	0	57	0	2004877312	41	3977
2026-01-01 09:59:19.51	48.09	40.98	-39.7	-40.2	21.7	0.00e+00	0	57	0	2010120192	41	3986
2026-01-01 09:59:20.50	47.62	41.02	-39.7	-40.3	21.6	0.00e+00	0	57	0	2015363072	41	4012
2026-01-01 09:59:21.49	47.15	41.06	-40.0	-40.5	21.4	0.00e+00	0	57	0	2021654528	41	4124
2026-01-01 09:59:22.48	46.67	41.09	-40.1	-40.7	21.2	0.00e+00	0	57	0	2026897408	42	3990
2026-01-01 09:59:23.47	46.20	41.12	-40.0	-40.5	21.4	0.00e+00	0	57	0	2032140288	42	3902
2026-01-01 09:59:24.47	45.72	41.15	-39.8	-40.3	21.6	0.00e+00	0	57	0	2037383168	42	3815
2026-01-01 09:59:25.46	45.25	41.18	-39.7	-40.3	21.6	0.00e+00	0	57	0	2043674624	42	3790
2026-01-01 09:59:26.45	44.77	41.20	-39.8	-40.3	21.6	0.00e+00	0	57	0	2048917504	42	3821
2026-01-01 09:59:27.44	44.30	41.22	-39.6	-40.2	21.7	0.00e+00	0	57	0	2055208960	42	3746
2026-01-01 09:59:28.43	43.82	41.24	-39.6	-40.2	21.8	0.00e+00	0	57	0	2060451840	42	3738
2026-01-01 09:59:29.41	43.35	41.26	-39.7	-40.2	21.7	0.00e+00	0	57	0	2065694720	42	3762
2026-01-01 09:59:30.40	42.87	41.28	-39.9	-40.4	21.5	0.00e+00	0	57	0	2070937600	42	3853
2026-01-01 09:59:31.38	42.40	41.29	-40.2	-40.8	21.2	0.00e+00	0	57	0	2077229056	42	4011
2026-01-01 09:59:32.38	41.92	41.30	-40.1	-40.7	21.2	0.00e+00	0	57	0	2082471936	42	3967
2026-01-01 09:59:33.36	41.44	41.31	-40.0	-40.5	21.4	0.00e+00	0	57	0	2087714816	42	3896
2026-01-01 09:59:34.34	40.97	41.32	-40.0	-40.6	21.3	0.00e+00	0	57	0	2094006272	42	3928
2026-01-01 09:59:35.33	40.49	41.32	-40.3	-40.9	21.1	0.00e+00	0	57	0	2099249152	42	4067
2026-01-01 09:59:36.32	40.01	41.32	-40.3	-40.9	21.1	0.00e+00	0	57	0	2104492032	42	4055
2026-01-01 09:59:37.31	39.53	41.32	-40.2	-40.8	21.1	0.00e+00	0	57	0	2109734912	42	4028
2026-01-01 09:59:38.31	39.05	41.32	-39.7	-40.2	21.6	0.00e+00	0	57	0	2116026368	42	3772
2026-01-01 09:59:39.28	38.58	41.32	-39.5	-40.0	21.8	0.00e+00	0	57	0	2121269248	42	3680
2026-01-01 09:59:40.27	38.10	41.31	-39.7	-40.2	21.7	0.00e+00	0	57	0	2126512128	42	3778
2026-01-01 09:59:41.26	37.62	41.30	-39.9	-40.5	21.4	0.00e+00	0	57	0	2132803584	42	3879
2026-01-01 09:59:42.24	37.15	41.29	-40.0	-40.6	21.3	0.00e+00	0	57	0	2138046464	42	3935
2026-01-01 09:59:43.23	36.67	41.27	-40.0	-40.5	21.4	0.00e+00	0	57	0	2143289344	42	3900
2026-01-01 09:59:44.23	36.19	41.26	-40.3	-40.8	21.1	0.00e+00	0	57	0	2149580800	42	4044
2026-01-01 09:59:45.22	35.71	41.24	-40.1	-40.7	21.2	0.00e+00	0	57	0	2154823680	42	3970
2026-01-01 09:59:46.21	35.23	41.22	-40.3	-40.9	21.0	0.00e+00	0	57	0	2160066560	42	4082
2026-01-01 09:59:47.19	34.76	41.20	-40.0	-40.6	21.3	0.00e+00	0	57	0	2166358016	42	3920
2026-01-01 09:59:48.18	34.29	41.17	-39.7	-40.3	21.6	0.00e+00	0	57	0	2171600896	42	3782
2026-01-01 09:59:49.17	33.81	41.14	-39.5	-40.0	21.8	0.00e+00	0	57	0	2176843776	42	3684
2026-01-01 09:59:50.15	33.34	41.12	-39.4	-39.9	21.9	0.00e+00	0	57	0	2182086656	42	3650
2026-01-01 09:59:51.14	32.87	41.08	-39.5	-40.0	21.8	0.00e+00	0	57	0	2188378112	42	3679
2026-01-01 09:59:52.13	32.40	41.05	-39.5	-40.0	21.8	0.00e+00	0	57	0	2193620992	42	3679
2026-01-01 09:59:53.12	31.93	41.01	-39.6	-40.2	21.7	0.00e+00	0	57	0	2198863872	42	3744
2026-01-01 09:59:54.10	31.47	40.98	-39.9	-40.4	21.4	0.00e+00	0	57	0	2205155328	42	3865
2026-01-01 09:59:55.09	31.00	40.94	-39.5	-40.0	21.9	0.00e+00	0	57	0	2210398208	42	3663
2026-01-01 09:59:56.07	30.54	40.89	-39.3	-39.8	22.0	0.00e+00	0	57	0	2215641088	41	3819
2026-01-01 09:59:57.05	30.07	40.85	-39.2	-39.8	22.1	0.00e+00	0	57	0	2220883968	41	3786
2026-01-01 09:59:58.04	29.61	40.80	-39.1	-39.7	22.1	0.00e+00	0	57	0	2227175424	41	3740
2026-01-01 09:59:59.03	29.15	40.76	-39.1	-39.7	22.2	0.00e+00	0	57	0	2232418304	41	3744
2026-01-01 10:00:00.02	28.69	40.71	-39.4	-39.9	21.9	0.00e+00	0	57	0	2237661184	41	3866
2026-01-01 10:00:01.01	28.23	40.65	-39.5	-40.0	21.8	0.00e+00	0	57	0	2243952640	41	3895
2026-01-01 10:00:02.00	27.77	40.60	-39.6	-40.1	21.7	0.00e+00	0	57	0	2249195520	41	3957
2026-01-01 10:00:02.99	27.31	40.54	-39.7	-40.3	21.5	0.00e+00	0	57	0	2254438400	41	4028
2026-01-01 10:00:03.98	26.85	40.48	-39.4	-39.9	21.9	0.00e+00	0	57	0	2260729856	41	3849
2026-01-01 10:00:04.97	26.40	40.42	-39.2	-39.7	22.1	0.00e+00	0	57	0	2265972736	41	3756
2026-01-01 10:00:05.96	25.95	40.36	-39.2	-39.7	22.1	0.00e+00	0	57	0	2271215616	41	3746
2026-01-01 10:00:06.94	25.50	40.30	-39.2	-39.7	22.1	0.00e+00	0	57	0	2276458496	41	3752
2026-01-01 10:00:07.93	25.05	40.23	-39.3	-39.8	22.1	0.00e+00	0	57	0	2282749952	41	3786
2026-01-01 10:00:08.93	24.60	40.16	-39.5	-40.0	21.8	0.00e+00	0	57	0	2287992832	41	3889
2026-01-01 10:00:09.91	24.16	40.09	-39.2	-39.7	22.1	0.00e+00	0	57	0	2293235712	41	3752
2026-01-01 10:00:10.90	23.72	40.02	-39.0	-39.5	22.3	0.00e+00	0	57	0	2299527168	41	3668
2026-01-01 10:00:11.89	23.28	39.95	-39.0	-39.5	22.3	0.00e+00	0	57	0	2304770048	41	3682
2026-01-01 10:00:12.87	22.85	39.87	-39.3	-39.8	22.0	0.00e+00	0	57	0	2310012928	41	3815
2026-01-01 10:00:13.85	22.41	39.80	-39.3	-39.8	22.0	0.00e+00	0	57	0	2315255808	41	3813
2026-01-01 10:00:14.84	21.98	39.72	-39.3	-39.8	21.9	0.00e+00	0	57	0	2321547264	41	3819
2026-01-01 10:00:15.84	21.54	39.64	-39.4	-39.9	21.9	0.00e+00	0	57	0	2326790144	41	3868
2026-01-01 10:00:16.83	21.11	39.55	-39.3	-39.8	22.0	0.00e+00	0	57	0	2333081600	41	3824
2026-01-01 10:00:17.82	20.68	39.47	-39.2	-39.7	22.1	0.00e+00	0	57	0	2338324480	41	3778
2026-01-01 10:00:18.81	20.26	39.39	-39.2	-39.7	22.1	0.00e+00	0	57	0	2343567360	41	3765
2026-01-01 10:00:19.80	19.83	39.30	-39.2	-39.7	22.1	0.00e+00	0	57	0	2348810240	41	3756
2026-01-01 10:00:20.79	19.41	39.21	-39.2	-39.7	22.0	0.00e+00	0	57	0	2355101696	41	3780
2026-01-01 10:00:21.79	18.99	39.12	-39.5	-40.0	21.8	0.00e+00	0	57	0	2360344576	41	3897
2026-01-01 10:00:22.77	18.58	39.03	-39.5	-40.1	21.8	0.00e+00	0	57	0	2365587456	41	3917
2026-01-01 10:00:23.76	18.16	38.94	-39.4	-39.9	21.9	0.00e+00	0	57	0	2371878912	41	3863
2026-01-01 10:00:24.75	17.75	38.84	-39.3	-39.9	21.9	0.00e+00	0	57	0	2377121792	41	3826
2026-01-01 10:00:25.74	17.34	38.75	-39.5	-40.0	21.8	0.00e+00	0	57	0	2382364672	41	3885
2026-01-01 10:00:26.73	16.94	38.65	-39.6	-40.2	21.7	0.00e+00	0	57	0	2388656128	41	3966
2026-01-01 10:00:27.72	16.53	38.55	-39.7	-40.2	21.6	0.00e+00	0	57	0	2393899008	41	4001
2026-01-01 10:00:28.72	16.13	38.45	-39.7	-40.2	21.6	0.00e+00	0	57	0	2399141888	41	3984
2026-01-01 10:00:29.70	15.73	38.35	-39.8	-40.3	21.5	0.00e+00	0	57	0	2404384768	41	4045
2026-01-01 10:00:30.68	15.34	38.25	-39.9	-40.4	21.4	0.00e+00	0	57	0	2410676224	41	4089
2026-01-01 10:00:31.67	14.94	38.14	-40.0	-40.5	21.3	0.00e+00	0	57	0	2415919104	41	4143
2026-01-01 10:00:32.65	14.55	38.04	-39.8	-40.4	21.5	0.00e+00	0	57	0	2421161984	41	4063
2026-01-01 10:00:33.64	14.16	37.93	-39.6	-40.1	21.7	0.00e+00	0	57	0	2427453440	41	3954
2026-01-01 10:00:34.63	13.78	37.83	-39.5	-40.1	21.8	0.00e+00	0	57	0	2432696320	41	3920
2026-01-01 10:00:35.62	13.39	37.72	-39.5	-40.0	21.8	0.00e+00	0	57	0	2437939200	41	3912
2026-01-01 10:00:36.61	13.01	37.61	-39.6	-40.1	21.7	0.00e+00	0	57	0	2444230656	41	3951
2026-01-01 10:00:37.59	12.64	37.50	-39.5	-40.1	21.8	0.00e+00	0	57	0	2449473536	41	3914
2026-01-01 10:00:38.58	12.26	37.39	-39.5	-40.0	21.8	0.00e+00	0	57	0	2454716416	41	3900
2026-01-01 10:00:39.57	11.89	37.28	-39.5	-40.1	21.7	0.00e+00	0	57	0	2459959296	41	3925
2026-01-01 10:00:40.55	11.52	37.16	-39.8	-40.3	21.5	0.00e+00	0	57	0	2466250752	41	4031
2026-01-01 10:00:41.54	11.15	37.05	-39.8	-40.3	21.5	0.00e+00	0	57	0	2471493632	41	4029
2026-01-01 10:00:42.53	10.78	36.93	-39.5	-40.0	21.8	0.00e+00	0	57	0	2476736512	41	3893
2026-01-01 10:00:43.52	10.42	36.82	-39.3	-39.9	21.9	0.00e+00	0	57	0	2483027968	41	3835
2026-01-01 10:00:44.51	10.06	36.70	-39.4	-39.9	21.9	0.00e+00	0	57	0	2488270848	41	3867
2026-01-01 10:00:45.50	9.70	36.58	-39.6	-40.1	21.7	0.00e+00	0	57	0	2493513728	41	3935
2026-01-01 10:00:46.48	9.35	36.46	-39.6	-40.1	21.7	0.00e+00	0	57	0	2499805184	41	3951
2026-01-01 10:00:47.47	9.00	36.34	-39.7	-40.2	21.6	0.00e+00	0	57	0	2505048064	41	3988
2026-01-01 10:00:48.46	8.65	36.22	-39.7	-40.3	21.5	0.00e+00	0	57	0	2510290944	41	4030
2026-01-01 10:00:49.45	8.30	36.10	-39.7	-40.3	21.5	0.00e+00	0	57	0	2515533824	41	4022
2026-01-01 10:00:50.44	7.95	35.98	-39.7	-40.3	21.5	0.00e+00	0	57	0	2521825280	41	4020
2026-01-01 10:00:51.43	7.61	35.86	-39.8	-40.4	21.4	0.00e+00	0	57	0	2527068160	41	4061
2026-01-01 10:00:52.42	7.27	35.73	-40.0	-40.5	21.3	0.00e+00	0	57	0	2532311040	41	4132
2026-01-01 10:00:53.40	6.94	35.61	-39.9	-40.5	21.4	0.00e+00	0	57	0	2538602496	41	4128
2026-01-01 10:00:54.38	6.60	35.49	-40.1	-40.7	21.2	0.00e+00	0	57	0	2543845376	41	4196
2026-01-01 10:00:55.37	6.27	35.36	-40.2	-40.7	21.1	0.00e+00	0	57	0	2549088256	42	4002
2026-01-01 10:00:56.37	5.94	35.23	-40.0	-40.6	21.2	0.00e+00	0	57	0	2554331136	42	3922
2026-01-01 10:00:57.36	5.61	35.11	-40.1	-40.6	21.2	0.00e+00	0	57	0	2560622592	42	3948
2026-01-01 10:00:58.35	5.29	34.98	-40.0	-40.6	21.3	0.00e+00	0	57	0	2565865472	42	3920
2026-01-01 10:00:59.34	4.97	34.85	-39.7	-40.2	21.6	0.00e+00	0	57	0	2572156928	42	3766
2026-01-01 10:01:00.33	4.65	34.72	-39.3	-39.9	21.9	0.00e+00	0	57	0	2577399808	41	3833
2026-01-01 10:01:01.32	4.33	34.60	-39.2	-39.7	22.0	0.00e+00	0	57	0	2582642688	41	3775
2026-01-01 10:01:02.31	4.01	34.47	-39.1	-39.6	22.1	0.00e+00	0	57	0	2587885568	41	3736
2026-01-01 10:01:03.31	3.70	34.34	-39.2	-39.8	22.0	0.00e+00	0	57	0	2594177024	41	3787
2026-01-01 10:01:04.30	3.39	34.21	-39.4	-39.9	21.8	0.00e+00	0	57	0	2599419904	41	3854
2026-01-01 10:01:05.28	3.09	34.08	-39.5	-40.0	21.8	0.00e+00	0	57	0	2604662784	41	3884
2026-01-01 10:01:06.27	2.78	33.95	-39.4	-39.9	21.9	0.00e+00	0	57	0	2610954240	41	3843
2026-01-01 10:01:07.26	2.48	33.81	-39.4	-39.9	21.9	0.00e+00	0	57	0	2616197120	41	3858
2026-01-01 10:01:08.25	2.18	33.68	-39.6	-40.2	21.6	0.00e+00	0	57	0	2621440000	41	3965
2026-01-01 10:01:09.25	1.88	33.55	-39.9	-40.4	21.4	0.00e+00	0	57	0	2627731456	41	4090
2026-01-01 10:01:10.24	1.59	33.42	-39.7	-40.2	21.6	0.00e+00	0	57	0	2632974336	41	3984
2026-01-01 10:01:11.23	1.29	33.29	-39.6	-40.1	21.6	0.00e+00	0	57	0	2638217216	41	3955
2026-01-01 10:01:12.22	1.00	33.15	-39.7	-40.2	21.6	0.00e+00	0	57	0	2644508672	41	3985
2026-01-01 10:01:13.21	0.72	33.02	-39.9	-40.5	21.3	0.00e+00	0	57	0	2649751552	41	4115
2026-01-01 10:01:14.20	0.43	32.89	-40.3	-40.9	21.0	0.00e+00	0	57	0	2654994432	42	4059
2026-01-01 10:01:15.18	0.15	32.75	-39.9	-40.5	21.4	0.00e+00	0	57	0	2661285888	42	3877
2026-01-01 10:01:16.16	359.87	32.62	-39.5	-40.1	21.7	0.00e+00	0	57	0	2666528768	42	3709
2026-01-01 10:01:17.15	359.60	32.49	-39.2	-39.8	22.0	0.00e+00	0	57	0	2671771648	41	3784
2026-01-01 10:01:18.13	359.32	32.36	-39.1	-39.6	22.1	0.00e+00	0	57	0	2677014528	41	3737
2026-01-01 10:01:19.12	359.05	32.22	-39.2	-39.8	22.0	0.00e+00	0	57	0	2683305984	41	3784
2026-01-01 10:01:20.11	358.78	32.09	-39.5	-40.0	21.8	0.00e+00	0	57	0	2688548864	41	3888
2026-01-01 10:01:21.10	358.51	31.95	-39.4	-39.9	21.8	0.00e+00	0	57	0	2693791744	41	3862
2026-01-01 10:01:22.10	358.24	31.82	-39.6	-40.2	21.6	0.00e+00	0	57	0	2700083200	41	3970
2026-01-01 10:01:23.09	357.97	31.68	-39.5	-40.1	21.7	0.00e+00	0	57	0	2705326080	41	3917
2026-01-01 10:01:24.08	357.71	31.55	-39.7	-40.2	21.5	0.00e+00	0	57	0	2710568960	41	3995
2026-01-01 10:01:25.06	357.46	31.42	-39.6	-40.2	21.6	0.00e+00	0	57	0	2715811840	41	3972
2026-01-01 10:01:26.05	357.20	31.28	-39.9	-40.4	21.4	0.00e+00	0	57	0	2722103296	41	4086
2026-01-01 10:01:27.05	356.94	31.14	-39.7	-40.2	21.5	0.00e+00	0	57	0	2727346176	41	4002
2026-01-01 10:01:28.03	356.69	31.01	-39.6	-40.2	21.6	0.00e+00	0	57	0	2733637632	41	3962
2026-01-01 10:01:29.02	356.44	30.88	-39.7	-40.2	21.6	0.00e+00	0	57	0	2738880512	41	3984
2026-01-01 10:01:30.00	356.19	30.74	-39.8	-40.4	21.4	0.00e+00	0	57	0	2744123392	41	4063
2026-01-01 10:01:30.99	355.94	30.61	-40.2	-40.7	21.1	0.00e+00	0	57	0	2749366272	42	3998
2026-01-01 10:01:31.97	355.70	30.47	-40.0	-40.6	21.2	0.00e+00	0	57	0	2755657728	42	3925
2026-01-01 10:01:32.96	355.46	30.34	-40.1	-40.7	21.1	0.00e+00	0	57	0	2760900608	42	3985
2026-01-01 10:01:33.95	355.21	30.21	-40.1	-40.7	21.1	0.00e+00	0	57	0	2766143488	42	3983
2026-01-01 10:01:34.94	354.98	30.07	-40.1	-40.7	21.1	0.00e+00	0	57	0	2772434944	42	3974
2026-01-01 10:01:35.92	354.74	29.94	-40.2	-40.7	21.1	0.00e+00	0	57	0	2777677824	42	4002
2026-01-01 10:01:36.90	354.51	29.80	-40.3	-40.9	20.9	0.00e+00	0	57	0	2782920704	42	4074
2026-01-01 10:01:37.89	354.28	29.67	-40.1	-40.7	21.1	0.00e+00	0	57	0	2788163584	42	3963
2026-01-01 10:01:38.88	354.04	29.54	-39.9	-40.4	21.4	0.00e+00	0	57	0	2794455040	42	3862
2026-01-01 10:01:39.86	353.82	29.40	-39.8	-40.4	21.4	0.00e+00	0	57	0	2799697920	42	3828
2026-01-01 10:01:40.85	353.59	29.27	-39.9	-40.4	21.4	0.00e+00	0	57	0	2804940800	42	3863
2026-01-01 10:01:41.85	353.36	29.13	-40.0	-40.6	21.2	0.00e+00	0	57	0	2811232256	42	3933
2026-01-01 10:01:42.84	353.14	29.00	-39.9	-40.5	21.3	0.00e+00	0	57	0	2816475136	42	3884
2026-01-01 10:01:43.83	352.92	28.87	-40.1	-40.7	21.1	0.00e+00	0	57	0	2821718016	42	3975
2026-01-01 10:01:44.82	352.70	28.73	-40.4	-41.0	20.8	0.00e+00	0	57	0	2826960896	42	4133
2026-01-01 10:01:45.81	352.48	28.60	-40.4	-41.0	20.8	0.00e+00	0	57	0	2833252352	42	4137
2026-01-01 10:01:46.80	352.26	28.47	-40.6	-41.2	20.6	0.00e+00	0	57	0	2838495232	43	3996
2026-01-01 10:01:47.79	352.05	28.33	-40.5	-41.1	20.7	0.00e+00	0	57	0	2843738112	43	3931
2026-01-01 10:01:48.78	351.84	28.20	-40.3	-40.9	20.9	0.00e+00	0	57	0	2850029568	43	3856
2026-01-01 10:01:49.77	351.63	28.07	-40.3	-40.8	21.0	0.00e+00	0	57	0	2855272448	43	3821
2026-01-01 10:01:50.76	351.42	27.94	-40.2	-40.8	21.0	0.00e+00	0	57	0	2860515328	43	3811
2026-01-01 10:01:51.75	351.21	27.80	-40.4	-41.0	20.8	0.00e+00	0	57	0	2866806784	43	3899
2026-01-01 10:01:52.74	351.00	27.67	-40.3	-40.9	20.9	0.00e+00	0	57	0	2872049664	43	3854
2026-01-01 10:01:53.74	350.80	27.54	-40.1	-40.6	21.1	0.00e+00	0	57	0	2877292544	43	3734
2026-01-01 10:01:54.73	350.60	27.41	-39.9	-40.5	21.3	0.00e+00	0	57	0	2883584000	43	3662
2026-01-01 10:01:55.72	350.39	27.28	-40.0	-40.5	21.2	0.00e+00	0	57	0	2888826880	42	3895
2026-01-01 10:01:56.70	350.20	27.15	-40.2	-40.8	21.0	0.00e+00	0	57	0	2894069760	42	4014
2026-01-01 10:01:57.69	350.00	27.02	-40.2	-40.7	21.0	0.00e+00	0	57	0	2900361216	42	3996
2026-01-01 10:01:58.68	349.81	26.89	-40.2	-40.8	21.0	0.00e+00	0	57	0	2905604096	42	4010
2026-01-01 10:01:59.68	349.61	26.75	-40.4	-41.0	20.8	0.00e+00	0	57	0	2910846976	42	4117
2026-01-01 10:02:00.67	349.42	26.62	-40.4	-41.0	20.8	0.00e+00	0	57	0	2917138432	42	4108
2026-01-01 10:02:01.66	349.23	26.49	-40.4	-41.0	20.8	0.00e+00	0	57	0	2922381312	42	4143
2026-01-01 10:02:02.66	349.04	26.36	-40.6	-41.2	20.6	0.00e+00	0	57	0	2927624192	43	3983
2026-01-01 10:02:03.64	348.85	26.24	-40.5	-41.1	20.7	0.00e+00	0	57	0	2932867072	43	3934
2026-01-01 10:02:04.63	348.66	26.11	-40.3	-40.9	20.9	0.00e+00	0	57	0	2939158528	43	3838
2026-01-01 10:02:05.63	348.48	25.98	-40.2	-40.8	21.0	0.00e+00	0	57	0	2944401408	43	3801
2026-01-01 10:02:06.62	348.30	25.85	-40.3	-40.9	20.9	0.00e+00	0	57	0	2950692864	43	3831
2026-01-01 10:02:07.61	348.11	25.72	-40.3	-40.9	20.8	0.00e+00	0	57	0	2955935744	43	3859
2026-01-01 10:02:08.59	347.94	25.59	-40.4	-41.0	20.8	0.00e+00	0	57	0	2961178624	43	3882
2026-01-01 10:02:09.58	347.76	25.47	-40.5	-41.1	20.7	0.00e+00	0	57	0	2966421504	43	3929
2026-01-01 10:02:10.57	347.58	25.34	-40.4	-41.0	20.7	0.00e+00	0	57	0	2972712960	43	3901
2026-01-01 10:02:11.56	347.40	25.21	-40.3	-40.9	20.8	0.00e+00	0	57	0	2977955840	43	3846
2026-01-01 10:02:12.55	347.23	25.09	-40.4	-40.9	20.8	0.00e+00	0	57	0	2983198720	43	3864
2026-01-01 10:02:13.54	347.06	24.96	-40.5	-41.1	20.7	0.00e+00	0	57	0	2989490176	43	3927
2026-01-01 10:02:14.53	346.89	24.83	-40.5	-41.1	20.6	0.00e+00	0	58	0	2994733056	43	3937
2026-01-01 10:02:15.51	346.72	24.71	-40.3	-40.9	20.8	0.00e+00	0	57	0	2999975936	43	3857
2026-01-01 10:02:16.51	346.55	24.58	-40.3	-40.9	20.9	0.00e+00	0	57	0	3005218816	43	3851
2026-01-01 10:02:17.50	346.38	24.46	-40.4	-41.0	20.7	0.00e+00	0	57	0	3011510272	43	3893
2026-01-01 10:02:18.48	346.22	24.34	-40.4	-41.0	20.8	0.00e+00	0	57	0	3016753152	43	3883
2026-01-01 10:02:19.47	346.05	24.21	-40.1	-40.7	21.0	0.00e+00	0	57	0	3021996032	43	3768
2026-01-01 10:02:20.46	345.89	24.09	-40.0	-40.5	21.2	0.00e+00	0	57	0	3028287488	43	3686
2026-01-01 10:02:21.46	345.72	23.96	-40.0	-40.5	21.2	0.00e+00	0	57	0	3033530368	43	3684
2026-01-01 10:02:22.44	345.57	23.84	-40.1	-40.7	21.0	0.00e+00	0	57	0	3038773248	43	3756
2026-01-01 10:02:23.43	345.41	23.72	-40.2	-40.8	20.9	0.00e+00	0	57	0	3045064704	43	3807
2026-01-01 10:02:24.42	345.25	23.60	-40.2	-40.8	20.9	0.00e+00	0	57	0	3050307584	43	3792
2026-01-01 10:02:25.41	345.09	23.47	-40.3	-40.9	20.8	0.00e+00	0	57	0	3055550464	43	3830
2026-01-01 10:02:26.40	344.94	23.35	-40.2	-40.8	20.9	0.00e+00	0	57	0	3061841920	43	3800
2026-01-01 10:02:27.39	344.78	23.23	-40.2	-40.8	20.9	0.00e+00	0	57	0	3067084800	43	3800
2026-01-01 10:02:28.38	344.63	23.11	-40.3	-40.9	20.8	0.00e+00	0	57	0	3072327680	43	3831
2026-01-01 10:02:29.36	344.48	22.99	-40.3	-40.9	20.8	0.00e+00	0	57	0	3077570560	43	3854
2026-01-01 10:02:30.35	344.33	22.87	-40.3	-40.9	20.8	0.00e+00	0	57	0	3083862016	43	3856
2026-01-01 10:02:31.33	344.18	22.75	-40.6	-41.1	20.6	0.00e+00	0	57	0	3089104896	43	3958
2026-01-01 10:02:32.33	344.03	22.63	-40.6	-41.2	20.5	0.00e+00	0	57	0	3094347776	43	3992
2026-01-01 10:02:33.31	343.88	22.51	-40.4	-41.0	20.7	0.00e+00	0	57	0	3100639232	43	3872
2026-01-01 10:02:34.30	343.74	22.39	-40.2	-40.8	20.9	0.00e+00	0	57	0	3105882112	43	3801
2026-01-01 10:02:35.29	343.59	22.27	-40.2	-40.8	20.8	0.00e+00	0	57	0	3111124992	43	3809
2026-01-01 10:02:36.28	343.45	22.15	-40.4	-41.0	20.7	0.00e+00	0	57	0	3117416448	43	3894
2026-01-01 10:02:37.26	343.31	22.04	-40.6	-41.2	20.5	0.00e+00	0	58	0	3122659328	43	3983
2026-01-01 10:02:38.25	343.17	21.92	-40.7	-41.4	20.3	0.00e+00	0	57	0	3127902208	43	4054
2026-01-01 10:02:39.24	343.03	21.80	-40.5	-41.1	20.6	0.00e+00	0	57	0	3133145088	43	3941
2026-01-01 10:02:40.23	342.89	21.68	-40.5	-41.1	20.6	0.00e+00	0	57	0	3139436544	43	3933
2026-01-01 10:02:41.22	342.75	21.57	-40.6	-41.2	20.4	0.00e+00	0	57	0	3144679424	43	4000
2026-01-01 10:02:42.22	342.61	21.45	-40.6	-41.3	20.4	0.00e+00	0	57	0	3149922304	43	4010
2026-01-01 10:02:43.21	342.47	21.33	-40.9	-41.5	20.2	0.00e+00	0	57	0	3156213760	43	4117
2026-01-01 10:02:44.20	342.34	21.22	-40.9	-41.5	20.2	0.00e+00	0	57	0	3161456640	43	4123
2026-01-01 10:02:45.20	342.20	21.10	-41.3	-42.0	19.8	0.00e+00	0	57	0	3166699520	44	4119
2026-01-01 10:02:46.19	342.07	20.99	-41.1	-41.8	19.9	0.00e+00	0	57	0	3172990976	44	4035
2026-01-01 10:02:47.18	341.94	20.87	-41.2	-41.9	19.9	0.00e+00	0	57	0	3178233856	44	4052
2026-01-01 10:02:48.17	341.81	20.76	-41.2	-41.9	19.8	0.00e+00	0	57	0	3183476736	44	4058
2026-01-01 10:02:49.17	341.67	20.64	-40.8	-41.4	20.2	0.00e+00	0	57	0	3189768192	44	3861
2026-01-01 10:02:50.16	341.55	20.53	-41.1	-41.7	19.9	0.00e+00	0	57	0	3195011072	44	3980
2026-01-01 10:02:51.15	341.42	20.42	-41.4	-42.1	19.6	0.00e+00	0	57	0	3200253952	44	4148
2026-01-01 10:02:52.14	341.29	20.31	-41.5	-42.2	19.4	0.00e+00	0	57	0	3206545408	44	4204
2026-01-01 10:02:53.13	341.16	20.19	-41.8	-42.5	19.0	0.00e+00	0	57	0	3211788288	45	4141
2026-01-01 10:02:54.12	341.04	20.08	-42.1	-42.9	18.6	0.00e+00	0	57	0	3217031168	46	4073
2026-01-01 10:02:55.11	340.91	19.97	-42.7	-43.5	17.9	0.00e+00	0	57	0	3222274048	47	4141
2026-01-01 10:02:56.10	340.79	19.86	-43.6	-44.5	17.1	0.00e+00	0	57	0	3228565504	48	4372
2026-01-01 10:02:57.09	340.67	19.75	-43.7	-44.7	16.8	0.00e+00	0	57	0	3233808384	49	4202
2026-01-01 10:02:58.08	340.55	19.64	-44.2	-45.3	16.2	0.00e+00	0	57	0	3240099840	50	4248
2026-01-01 10:02:59.07	340.43	19.53	-44.0	-45.1	16.4	0.00e+00	0	57	0	3245342720	50	4152
2026-01-01 10:03:00.06	340.31	19.42	-44.5	-45.6	15.8	0.00e+00	0	57	0	3250585600	50	4411
2026-01-01 10:03:01.05	340.19	19.31	-44.3	-45.4	16.0	0.00e+00	0	57	0	3255828480	50	4314
2026-01-01 10:03:02.04	340.07	19.20	-45.1	-45.8	15.6	0.00e+00	0	57	0	3262119936	51	4288
2026-01-01 10:03:03.03	339.95	19.09	-44.4	-45.5	15.9	0.00e+00	0	57	0	3267362816	51	4136
2026-01-01 10:03:04.02	339.84	18.98	-44.0	-45.1	16.3	0.00e+00	0	57	0	3272605696	51	3939
2026-01-01 10:03:05.01	339.72	18.87	-43.7	-44.7	16.7	0.00e+00	0	57	0	3278897152	50	3969
2026-01-01 10:03:05.99	339.61	18.77	-43.3	-44.2	17.2	0.00e+00	0	57	0	3284140032	49	3996
2026-01-01 10:03:06.98	339.49	18.66	-43.1	-44.0	17.4	0.00e+00	0	57	0	3289382912	49	3909
2026-01-01 10:03:07.97	339.38	18.55	-43.3	-44.1	17.3	0.00e+00	0	58	0	3295674368	49	3957
2026-01-01 10:03:08.96	339.27	18.44	-42.8	-43.6	17.9	0.00e+00	0	57	0	3300917248	48	3931
2026-01-01 10:03:09.95	339.16	18.34	-42.4	-43.2	18.3	0.00e+00	0	57	0	3306160128	48	3758
2026-01-01 10:03:10.94	339.05	18.23	-42.0	-42.7	18.7	0.00e+00	0	57	0	3311403008	47	3761
2026-01-01 10:03:11.93	338.94	18.13	-41.8	-42.5	19.0	0.00e+00	0	57	0	3317694464	46	3871
2026-01-01 10:03:12.92	338.83	18.02	-41.8	-42.5	19.1	0.00e+00	0	57	0	3322937344	46	3872
2026-01-01 10:03:13.91	338.72	17.92	-41.6	-42.3	19.3	0.00e+00	0	57	0	3328180224	46	3793
2026-01-01 10:03:14.90	338.61	17.81	-41.8	-42.5	19.1	0.00e+00	0	57	0	3334471680	46	3870
2026-01-01 10:03:15.89	338.50	17.71	-42.0	-42.7	18.9	0.00e+00	0	58	0	3339714560	46	3990
2026-01-01 10:03:16.89	338.40	17.60	-42.6	-43.4	18.2	0.00e+00	0	57	0	3344957440	47	4089
2026-01-01 10:03:17.88	338.29	17.50	-42.4	-43.2	18.5	0.00e+00	0	57	0	3351248896	47	3978
2026-01-01 10:03:18.87	338.19	17.39	-42.0	-42.7	18.9	0.00e+00	0	57	0	3356491776	47	3779
2026-01-01 10:03:19.86	338.08	17.29	-41.8	-42.5	19.1	0.00e+00	0	57	0	3361734656	46	3899
2026-01-01 10:03:20.85	337.98	17.19	-41.8	-42.5	19.2	0.00e+00	0	57	0	3368026112	46	3896
2026-01-01 10:03:21.84	337.88	17.09	-42.0	-42.7	19.0	0.00e+00	0	57	0	3373268992	46	3969
2026-01-01 10:03:22.82	337.78	16.98	-42.0	-42.7	19.0	0.00e+00	0	57	0	3378511872	46	3984
2026-01-01 10:03:23.82	337.68	16.88	-41.9	-42.7	19.1	0.00e+00	0	57	0	3384803328	46	3967
2026-01-01 10:03:24.81	337.58	16.78	-42.1	-42.8	18.9	0.00e+00	0	57	0	3390046208	46	4039
2026-01-01 10:03:25.80	337.48	16.68	-42.4	-43.1	18.6	0.00e+00	0	58	0	3395289088	46	4187
2026-01-01 10:03:26.78	337.38	16.58	-42.3	-43.1	18.7	0.00e+00	0	57	0	3401580544	46	4151
2026-01-01 10:03:27.77	337.28	16.48	-42.1	-42.9	18.8	0.00e+00	0	57	0	3406823424	46	4060
2026-01-01 10:03:28.76	337.18	16.38	-42.0	-42.7	19.0	0.00e+00	0	57	0	3412066304	46	3980
2026-01-01 10:03:29.75	337.09	16.28	-41.9	-42.7	19.0	0.00e+00	0	57	0	3417309184	46	3969
2026-01-01 10:03:30.73	336.99	16.18	-42.0	-42.7	19.0	0.00e+00	0	57	0	3423600640	46	3980
2026-01-01 10:03:31.72	336.90	16.08	-42.1	-42.8	18.9	0.00e+00	0	57	0	3428843520	46	4038
2026-01-01 10:03:32.71	336.80	15.98	-42.4	-43.1	18.6	0.00e+00	0	57	0	3434086400	46	4189
2026-01-01 10:03:33.70	336.71	15.88	-42.3	-43.0	18.7	0.00e+00	0	57	0	3440377856	46	4118
2026-01-01 10:03:34.69	336.61	15.79	-42.1	-42.8	18.9	0.00e+00	0	57	0	3445620736	46	4034
2026-01-01 10:03:35.68	336.52	15.69	-42.0	-42.7	19.0	0.00e+00	0	57	0	3450863616	46	3996
2026-01-01 10:03:36.67	336.43	15.59	-42.1	-42.9	18.9	0.00e+00	0	57	0	3456106496	46	4056
2026-01-01 10:03:37.65	336.34	15.49	-42.2	-42.9	18.8	0.00e+00	0	57	0	3462397952	46	4072
2026-01-01 10:03:38.64	336.25	15.40	-42.2	-42.9	18.8	0.00e+00	0	57	0	3467640832	46	4093
2026-01-01 10:03:39.63	336.16	15.30	-42.2	-43.0	18.8	0.00e+00	0	57	0	3472883712	46	4100
2026-01-01 10:03:40.62	336.07	15.20	-42.4	-43.2	18.5	0.00e+00	0	57	0	3479175168	46	4220
2026-01-01 10:03:41.61	335.98	15.11	-42.4	-43.2	18.6	0.00e+00	0	57	0	3484418048	46	4205
2026-01-01 10:03:42.60	335.89	15.01	-42.4	-43.1	18.6	0.00e+00	0	57	0	3489660928	46	4169
2026-01-01 10:03:43.59	335.80	14.92	-42.3	-43.0	18.7	0.00e+00	0	57	0	3495952384	46	4139
2026-01-01 10:03:44.58	335.71	14.82	-42.4	-43.2	18.5	0.00e+00	0	57	0	3501195264	46	4207
2026-01-01 10:03:45.57	335.63	14.73	-42.4	-43.2	18.6	0.00e+00	0	57	0	3506438144	46	4195
2026-01-01 10:03:46.56	335.54	14.63	-42.4	-43.2	18.5	0.00e+00	0	57	0	3511681024	46	4231
2026-01-01 10:03:47.55	335.45	14.54	-42.7	-43.4	18.3	0.00e+00	0	57	0	3517972480	47	4097
2026-01-01 10:03:48.55	335.37	14.44	-42.8	-43.6	18.2	0.00e+00	0	57	0	3523215360	47	4155
2026-01-01 10:03:49.54	335.28	14.35	-42.7	-43.5	18.2	0.00e+00	0	57	0	3529506816	47	4123
2026-01-01 10:03:50.53	335.20	14.26	-42.8	-43.6	18.2	0.00e+00	0	57	0	3534749696	47	4147
2026-01-01 10:03:51.53	335.12	14.16	-42.8	-43.6	18.1	0.00e+00	0	57	0	3539992576	47	4187
2026-01-01 10:03:52.51	335.03	14.07	-42.6	-43.4	18.3	0.00e+00	0	57	0	3545235456	47	4079
2026-01-01 10:03:53.50	334.95	13.98	-42.6	-43.4	18.4	0.00e+00	0	57	0	3551526912	47	4059
2026-01-01 10:03:54.48	334.87	13.89	-42.6	-43.4	18.3	0.00e+00	0	57	0	3556769792	47	4064
2026-01-01 10:03:55.47	334.79	13.80	-42.6	-43.4	18.3	0.00e+00	0	57	0	3562012672	47	4083
2026-01-01 10:03:56.46	334.71	13.70	-42.7	-43.5	18.2	0.00e+00	0	58	0	3568304128	47	4127
2026-01-01 10:03:57.44	334.63	13.61	-42.8	-43.6	18.1	0.00e+00	0	57	0	3573547008	47	4170
2026-01-01 10:03:58.43	334.55	13.52	-42.9	-43.7	18.0	0.00e+00	0	57	0	3578789888	47	4216
2026-01-01 10:03:59.42	334.47	13.43	-42.7	-43.5	18.1	0.00e+00	0	58	0	3584032768	47	4143
2026-01-01 10:04:00.41	334.39	13.34	-42.8	-43.6	18.1	0.00e+00	0	58	0	3590324224	47	4155
2026-01-01 10:04:01.39	334.31	13.25	-42.9	-43.7	18.0	0.00e+00	0	57	0	3595567104	47	4222
2026-01-01 10:04:02.38	334.24	13.16	-42.9	-43.8	17.9	0.00e+00	0	58	0	3600809984	47	4249
2026-01-01 10:04:03.36	334.16	13.07	-42.9	-43.7	18.0	0.00e+00	0	57	0	3607101440	47	4237
2026-01-01 10:04:04.35	334.08	12.98	-43.1	-43.9	17.8	0.00e+00	0	58	0	3612344320	47	4315
2026-01-01 10:04:05.33	334.01	12.90	-43.3	-44.1	17.8	0.00e+00	0	58	0	3617587200	48	4177
2026-01-01 10:04:06.31	333.93	12.81	-43.3	-44.1	17.8	0.00e+00	0	58	0	3622830080	48	4149
2026-01-01 10:04:07.29	333.86	12.72	-43.4	-44.3	17.6	0.00e+00	0	57	0	3629121536	48	4278
2026-01-01 10:04:08.28	333.78	12.63	-43.6	-44.5	17.4	0.00e+00	0	57	0	3634364416	49	4116
2026-01-01 10:04:09.27	333.71	12.55	-43.4	-44.3	17.6	0.00e+00	0	58	0	3640655872	49	4029
2026-01-01 10:04:10.26	333.63	12.46	-43.6	-44.5	17.4	0.00e+00	0	57	0	3645898752	49	4124
2026-01-01 10:04:11.26	333.56	12.37	-43.5	-44.3	17.5	0.00e+00	0	57	0	3651141632	49	4040
2026-01-01 10:04:12.24	333.49	12.28	-43.3	-44.2	17.7	0.00e+00	0	57	0	3656384512	49	3975
2026-01-01 10:04:13.23	333.41	12.20	-43.3	-44.2	17.7	0.00e+00	0	57	0	3662675968	49	3977
2026-01-01 10:04:14.22	333.34	12.11	-43.5	-44.3	17.5	0.00e+00	0	58	0	3667918848	49	4048
2026-01-01 10:04:15.22	333.27	12.02	-43.5	-44.4	17.4	0.00e+00	0	57	0	3673161728	49	4090
2026-01-01 10:04:16.21	333.20	11.94	-43.7	-44.6	17.2	0.00e+00	0	57	0	3679453184	49	4184
