passes_logs/2026/01/01/R3.0SM8_Murmansk_STILSPACE/R3.0SM8_Murmansk_STILSPACE__20260101_031217_AQUA_rec.log

#Pass ID: 20260101_031217_AQUA
#Satellite: AQUA
#Configuration: AQUA
#almurnet v.1.7.20240730
#Start time: 2026-01-01 03:12:19

#Version: 2.2.20231116
#Station: R3.0SM8_Murmansk_STILSPACE
#Location: 33.092731 lon 68.902999 lat
#TLE: 1 27424U 02022A   25364.96158943  .00001951  00000+0  40088-3 0  9998
#TLE: 2 27424  98.4061 326.1389 0001917  95.3187 305.7939 14.61780362258696

#Time	Az	El	Level	Level2	SNR	BER	BlckErr	Temp	State	Recorded	gain1	gain2
2026-01-01 03:12:19.83	26.12	3.16	-54.4	-74.3	3.8	7.43e-01	0	50	0	0	71	36785
2026-01-01 03:12:20.81	26.10	3.22	-54.2	-74.1	3.8	7.45e-01	0	50	104	0	70	37993
2026-01-01 03:12:21.79	26.07	3.29	-54.1	-74.0	3.8	7.44e-01	0	50	104	0	70	37413
2026-01-01 03:12:22.78	26.05	3.36	-53.9	-73.8	3.8	7.45e-01	0	50	104	0	70	36724
2026-01-01 03:12:23.76	26.02	3.43	-53.7	-73.5	3.8	7.44e-01	0	50	104	0	70	35409
2026-01-01 03:12:24.74	25.99	3.49	-53.5	-73.1	3.8	7.45e-01	0	50	104	0	70	33825
2026-01-01 03:12:25.73	25.96	3.56	-53.4	-73.1	3.8	7.45e-01	0	50	104	0	70	33713
2026-01-01 03:12:26.71	25.94	3.63	-53.4	-73.0	3.8	7.47e-01	0	50	104	0	70	33484
2026-01-01 03:12:27.69	25.91	3.70	-53.4	-72.8	3.8	7.47e-01	0	50	104	0	70	32899
2026-01-01 03:12:28.67	25.88	3.77	-53.4	-72.8	3.8	7.46e-01	0	50	104	0	70	32572
2026-01-01 03:12:29.66	25.86	3.84	-53.4	-72.7	3.8	7.43e-01	0	51	104	0	70	32303
2026-01-01 03:12:30.63	25.83	3.90	-53.4	-72.5	3.8	7.43e-01	0	51	104	0	70	31623
2026-01-01 03:12:31.62	25.80	3.97	-53.4	-72.3	3.8	7.48e-01	0	50	104	0	70	30884
2026-01-01 03:12:32.60	25.77	4.04	-53.3	-72.0	3.8	7.44e-01	0	51	104	0	70	29739
2026-01-01 03:12:33.58	25.74	4.11	-53.3	-71.7	3.8	7.44e-01	0	51	104	0	70	28890
2026-01-01 03:12:34.56	25.72	4.18	-53.2	-71.4	3.8	7.44e-01	0	51	104	0	70	27868
2026-01-01 03:12:35.55	25.69	4.25	-53.1	-71.0	3.8	7.44e-01	0	51	104	0	69	28326
2026-01-01 03:12:36.53	25.66	4.32	-53.1	-70.6	3.8	7.44e-01	0	51	104	0	69	26826
2026-01-01 03:12:37.51	25.63	4.39	-53.0	-70.2	3.8	7.47e-01	0	51	104	0	69	25715
2026-01-01 03:12:38.49	25.60	4.46	-52.8	-69.3	3.8	7.42e-01	0	51	104	0	69	23185
2026-01-01 03:12:39.47	25.57	4.53	-52.7	-68.7	3.8	7.44e-01	0	51	104	0	68	22952
2026-01-01 03:12:40.46	25.54	4.60	-52.5	-68.2	3.8	7.45e-01	0	51	104	0	68	21658
2026-01-01 03:12:41.44	25.51	4.67	-52.3	-67.4	3.8	7.44e-01	0	51	104	0	68	19660
2026-01-01 03:12:42.42	25.48	4.75	-52.1	-67.0	3.8	7.44e-01	0	51	104	0	67	19883
2026-01-01 03:12:43.40	25.45	4.82	-51.7	-66.0	3.8	7.43e-01	0	52	104	0	67	17758
2026-01-01 03:12:44.38	25.42	4.89	-51.5	-65.4	3.8	7.49e-01	0	52	104	0	66	17585
2026-01-01 03:12:45.36	25.39	4.96	-51.2	-64.8	3.8	7.44e-01	0	52	104	0	66	16364
2026-01-01 03:12:46.33	25.36	5.03	-51.0	-64.4	3.8	7.43e-01	0	52	104	0	65	16598
2026-01-01 03:12:47.32	25.33	5.10	-50.8	-64.0	3.8	7.45e-01	0	52	104	0	65	15890
2026-01-01 03:12:48.30	25.30	5.18	-50.9	-64.1	3.8	7.46e-01	0	52	104	0	65	16044
2026-01-01 03:12:49.29	25.27	5.25	-51.3	-65.0	3.8	7.43e-01	0	52	104	0	65	17688
2026-01-01 03:12:50.27	25.24	5.32	-51.5	-65.3	3.8	7.46e-01	0	52	104	0	65	18429
2026-01-01 03:12:51.26	25.21	5.40	-51.8	-66.1	3.8	7.47e-01	0	52	104	0	65	20117
2026-01-01 03:12:52.24	25.17	5.47	-52.0	-66.6	3.8	7.41e-01	0	52	104	0	66	20289
2026-01-01 03:12:53.22	25.14	5.54	-52.4	-67.5	3.8	7.46e-01	0	52	104	0	66	22409
2026-01-01 03:12:54.20	25.11	5.62	-52.5	-68.1	3.8	7.45e-01	0	52	104	0	67	22561
2026-01-01 03:12:55.18	25.08	5.69	-52.7	-68.5	3.8	7.50e-01	0	52	104	0	67	23654
2026-01-01 03:12:56.17	25.04	5.77	-52.8	-69.1	3.8	7.43e-01	0	52	104	0	67	25356
2026-01-01 03:12:57.14	25.01	5.84	-53.0	-69.6	3.8	7.45e-01	0	52	104	0	68	25382
2026-01-01 03:12:58.13	24.98	5.91	-53.0	-69.6	3.8	7.42e-01	0	53	104	0	68	25502
2026-01-01 03:12:59.11	24.95	5.99	-53.2	-70.2	3.8	7.48e-01	0	53	104	0	68	27197
2026-01-01 03:13:00.10	24.91	6.06	-53.3	-70.6	3.8	7.43e-01	0	53	104	0	68	28510
2026-01-01 03:13:01.08	24.88	6.14	-53.2	-70.2	3.8	7.46e-01	0	53	104	0	68	27218
2026-01-01 03:13:02.06	24.85	6.22	-53.1	-69.8	3.8	7.46e-01	0	53	104	0	68	26048
2026-01-01 03:13:03.04	24.81	6.29	-53.0	-69.3	3.8	7.46e-01	0	53	104	0	68	24520
2026-01-01 03:13:04.03	24.78	6.37	-52.8	-68.7	3.8	7.47e-01	0	53	104	0	68	22836
2026-01-01 03:13:05.01	24.74	6.44	-52.7	-68.2	3.8	7.44e-01	0	53	104	0	68	21530
2026-01-01 03:13:05.99	24.71	6.52	-52.5	-67.6	3.8	7.45e-01	0	53	104	0	68	20099
2026-01-01 03:13:06.97	24.67	6.60	-52.7	-68.4	3.8	7.44e-01	0	53	104	0	68	22032
2026-01-01 03:13:07.95	24.64	6.67	-52.5	-67.7	3.8	7.45e-01	0	53	104	0	68	20473
2026-01-01 03:13:08.93	24.60	6.75	-52.3	-66.9	3.8	7.44e-01	0	53	104	0	68	18698
2026-01-01 03:13:09.92	24.57	6.83	-51.9	-66.0	3.8	7.42e-01	0	53	104	0	67	17882
2026-01-01 03:13:10.90	24.53	6.91	-51.8	-65.8	3.8	7.41e-01	0	53	104	0	67	17407
2026-01-01 03:13:11.88	24.50	6.98	-51.5	-65.1	3.8	7.43e-01	0	53	104	0	66	16969
2026-01-01 03:13:12.87	24.46	7.06	-51.3	-64.8	3.8	7.43e-01	0	53	104	0	66	16317
2026-01-01 03:13:13.85	24.42	7.14	-51.1	-64.4	3.8	7.45e-01	0	53	104	0	65	16509
2026-01-01 03:13:14.83	24.39	7.22	-51.0	-64.1	3.8	7.46e-01	0	53	104	0	65	16099
2026-01-01 03:13:15.82	24.35	7.30	-50.9	-64.0	3.8	7.46e-01	0	53	104	0	65	15890
2026-01-01 03:13:16.80	24.31	7.38	-50.9	-64.0	3.8	7.42e-01	0	53	104	0	65	15898
2026-01-01 03:13:17.78	24.28	7.46	-51.1	-64.3	3.8	7.48e-01	0	54	104	0	65	16370
2026-01-01 03:13:18.77	24.24	7.54	-50.9	-63.9	3.8	7.46e-01	0	53	104	0	65	15591
2026-01-01 03:13:19.75	24.20	7.62	-50.5	-63.2	3.8	7.44e-01	0	54	104	0	64	15396
2026-01-01 03:13:20.73	24.16	7.70	-50.2	-62.8	3.8	7.46e-01	0	53	104	0	64	14600
2026-01-01 03:13:21.71	24.12	7.78	-50.0	-62.3	3.8	7.45e-01	0	54	104	0	63	14648
2026-01-01 03:13:22.69	24.08	7.86	-49.7	-61.8	3.8	7.43e-01	0	54	104	0	63	13864
2026-01-01 03:13:23.67	24.05	7.94	-49.6	-61.6	3.8	7.46e-01	0	54	104	0	62	14308
2026-01-01 03:13:24.65	24.01	8.02	-49.4	-61.3	3.8	7.45e-01	0	54	104	0	62	13880
2026-01-01 03:13:25.63	23.97	8.10	-49.4	-61.3	3.8	7.44e-01	0	54	104	0	62	13795
2026-01-01 03:13:26.62	23.93	8.19	-49.4	-61.3	3.8	7.46e-01	0	54	104	0	62	13869
2026-01-01 03:13:27.60	23.89	8.27	-49.5	-61.5	3.8	7.48e-01	0	54	104	0	62	14071
2026-01-01 03:13:28.58	23.85	8.35	-49.7	-61.7	3.8	7.45e-01	0	54	104	0	62	14476
2026-01-01 03:13:29.56	23.81	8.43	-49.9	-62.1	3.8	7.46e-01	0	54	104	0	62	15115
2026-01-01 03:13:30.53	23.77	8.52	-50.3	-62.6	3.8	7.46e-01	0	54	104	0	62	16101
2026-01-01 03:13:31.52	23.73	8.60	-50.3	-62.7	3.8	7.44e-01	0	54	104	0	62	16280
2026-01-01 03:13:32.50	23.68	8.68	-50.2	-62.6	3.8	7.43e-01	0	54	104	0	62	15970
2026-01-01 03:13:33.48	23.64	8.77	-50.3	-62.7	3.8	7.44e-01	0	54	104	0	62	16190
2026-01-01 03:13:34.46	23.60	8.85	-50.2	-62.5	3.8	7.45e-01	0	55	104	0	62	15941
2026-01-01 03:13:35.45	23.56	8.94	-50.3	-62.6	3.8	7.44e-01	0	54	104	0	62	16095
2026-01-01 03:13:36.42	23.52	9.02	-50.4	-62.8	3.8	7.43e-01	0	54	104	0	62	16352
2026-01-01 03:13:37.40	23.47	9.11	-50.6	-63.1	3.8	7.42e-01	0	54	104	0	63	16081
2026-01-01 03:13:38.39	23.43	9.19	-50.9	-63.7	3.8	7.45e-01	0	55	104	0	64	16229
2026-01-01 03:13:39.36	23.39	9.28	-51.2	-64.4	3.8	7.45e-01	0	54	104	0	64	17643
2026-01-01 03:13:40.35	23.34	9.36	-51.7	-65.3	3.8	7.44e-01	0	55	104	0	65	18424
2026-01-01 03:13:41.33	23.30	9.45	-52.1	-66.3	3.8	7.46e-01	0	55	104	0	66	19419
2026-01-01 03:13:42.31	23.26	9.54	-52.3	-66.7	3.8	7.44e-01	0	55	104	0	67	19384
2026-01-01 03:13:43.29	23.21	9.62	-52.1	-66.2	3.8	7.45e-01	0	55	104	0	67	18141
2026-01-01 03:13:44.27	23.17	9.71	-52.2	-66.4	3.8	7.47e-01	0	55	104	0	67	18573
2026-01-01 03:13:45.25	23.12	9.80	-52.3	-66.7	3.8	7.46e-01	0	55	104	0	67	19333
2026-01-01 03:13:46.23	23.08	9.89	-52.5	-67.1	3.8	7.43e-01	0	55	104	0	67	20263
2026-01-01 03:13:47.21	23.03	9.98	-52.7	-67.7	3.8	7.45e-01	0	55	104	0	67	21509
2026-01-01 03:13:48.20	22.98	10.07	-52.8	-68.1	3.8	7.47e-01	0	55	104	0	67	22777
2026-01-01 03:13:49.18	22.94	10.15	-53.0	-68.6	3.8	7.45e-01	0	55	104	0	68	22654
2026-01-01 03:13:50.16	22.89	10.24	-52.8	-67.9	3.8	7.45e-01	0	55	104	0	68	20819
2026-01-01 03:13:51.13	22.84	10.33	-52.6	-67.2	3.8	7.47e-01	0	55	104	0	68	19302
2026-01-01 03:13:52.11	22.80	10.42	-52.3	-66.5	3.8	7.44e-01	0	55	104	0	68	17718
2026-01-01 03:13:53.09	22.75	10.51	-51.9	-65.7	3.8	7.45e-01	0	55	104	0	67	17207
2026-01-01 03:13:54.07	22.70	10.60	-51.7	-65.2	3.8	7.46e-01	0	55	104	0	67	16186
2026-01-01 03:13:55.05	22.65	10.69	-51.7	-65.2	3.8	7.46e-01	0	55	104	0	67	16170
2026-01-01 03:13:56.04	22.60	10.79	-51.4	-64.6	3.8	7.45e-01	0	55	104	0	66	16070
2026-01-01 03:13:57.02	22.55	10.88	-51.8	-65.4	3.8	7.39e-01	0	56	104	0	66	17594
2026-01-01 03:13:58.01	22.50	10.97	-52.2	-66.4	3.8	7.45e-01	0	55	104	0	66	19776
2026-01-01 03:13:58.99	22.45	11.06	-52.7	-67.5	3.8	7.43e-01	0	55	104	0	67	21119
2026-01-01 03:13:59.97	22.40	11.16	-52.3	-66.6	3.8	7.48e-01	0	55	104	0	67	19070
2026-01-01 03:14:00.96	22.35	11.25	-51.8	-65.5	3.8	7.42e-01	0	55	104	0	67	16797
2026-01-01 03:14:01.94	22.30	11.34	-51.4	-64.5	3.8	7.44e-01	0	56	104	0	66	15807
2026-01-01 03:14:02.92	22.25	11.44	-51.1	-64.0	3.8	7.45e-01	0	56	104	0	65	15850
2026-01-01 03:14:03.90	22.20	11.53	-50.9	-63.7	3.8	7.47e-01	0	56	104	0	65	15388
2026-01-01 03:14:04.89	22.14	11.63	-50.8	-63.6	3.8	7.45e-01	0	56	104	0	65	15164
2026-01-01 03:14:05.87	22.09	11.72	-50.8	-63.5	3.8	7.46e-01	0	56	104	0	65	14993
2026-01-01 03:14:06.85	22.04	11.82	-50.9	-63.7	3.8	7.43e-01	0	56	104	0	65	15350
2026-01-01 03:14:07.83	21.99	11.92	-50.9	-63.7	3.8	7.45e-01	0	56	104	0	65	15293
2026-01-01 03:14:08.81	21.93	12.01	-50.5	-63.0	3.8	7.43e-01	0	56	104	0	64	14929
2026-01-01 03:14:09.79	21.88	12.11	-50.2	-62.4	3.9	7.45e-01	0	56	104	0	63	14754
2026-01-01 03:14:10.78	21.82	12.21	-49.8	-61.8	3.8	7.45e-01	0	56	104	0	63	13729
2026-01-01 03:14:11.76	21.77	12.30	-49.4	-61.2	3.8	7.47e-01	0	56	104	0	62	13600
2026-01-01 03:14:12.74	21.71	12.40	-49.0	-60.7	3.9	7.44e-01	0	56	104	0	61	13627
2026-01-01 03:14:13.72	21.66	12.50	-48.7	-60.2	3.8	7.46e-01	0	56	104	0	61	12954
2026-01-01 03:14:14.71	21.60	12.60	-48.6	-60.2	3.8	7.46e-01	0	56	104	0	60	13579
2026-01-01 03:14:15.69	21.54	12.70	-48.7	-60.2	3.8	7.45e-01	0	56	104	0	60	13652
2026-01-01 03:14:16.67	21.48	12.80	-48.8	-60.4	3.8	7.44e-01	0	56	104	0	60	13891
2026-01-01 03:14:17.66	21.43	12.90	-49.0	-60.6	3.8	7.48e-01	0	56	104	0	60	14347
2026-01-01 03:14:18.64	21.37	13.00	-49.3	-61.0	3.8	7.44e-01	0	56	104	0	60	14979
2026-01-01 03:14:19.62	21.31	13.10	-49.6	-61.5	3.8	7.45e-01	0	56	104	0	61	14959
2026-01-01 03:14:20.60	21.25	13.20	-50.1	-62.2	3.8	7.46e-01	0	56	104	0	62	15335
2026-01-01 03:14:21.59	21.19	13.31	-50.2	-62.4	3.8	7.47e-01	0	56	104	0	62	15608
2026-01-01 03:14:22.57	21.13	13.41	-50.1	-62.3	3.9	7.45e-01	0	56	104	0	62	15447
2026-01-01 03:14:23.56	21.07	13.51	-50.1	-62.3	3.8	7.43e-01	0	56	104	0	62	15461
2026-01-01 03:14:24.54	21.01	13.61	-50.1	-62.3	3.8	7.44e-01	0	56	104	0	62	15435
2026-01-01 03:14:25.53	20.95	13.72	-50.2	-62.3	3.8	7.46e-01	0	56	104	0	62	15567
2026-01-01 03:14:26.51	20.89	13.82	-50.2	-62.4	3.8	7.42e-01	0	56	104	0	62	15685
2026-01-01 03:14:27.49	20.82	13.93	-50.5	-62.9	3.8	7.44e-01	0	56	104	0	63	15641
2026-01-01 03:14:28.47	20.76	14.03	-51.0	-63.7	3.8	7.47e-01	0	56	104	0	64	16199
2026-01-01 03:14:29.45	20.70	14.14	-51.5	-64.6	3.8	7.44e-01	0	56	104	0	65	17050
2026-01-01 03:14:30.43	20.63	14.24	-52.0	-65.8	3.8	7.43e-01	0	57	104	0	66	18340
2026-01-01 03:14:31.42	20.57	14.35	-52.1	-66.0	3.8	7.45e-01	0	57	104	0	66	18813
2026-01-01 03:14:32.40	20.50	14.46	-51.6	-64.9	3.8	7.42e-01	0	57	104	0	66	16670
2026-01-01 03:14:33.38	20.44	14.57	-51.4	-64.4	3.8	7.43e-01	0	56	104	0	66	15651
2026-01-01 03:14:34.36	20.37	14.67	-51.5	-64.6	3.8	7.45e-01	0	56	104	0	66	16020
2026-01-01 03:14:35.34	20.30	14.78	-51.5	-64.7	3.8	7.43e-01	0	56	104	0	66	16204
2026-01-01 03:14:36.32	20.24	14.89	-51.7	-65.1	3.8	7.49e-01	0	57	104	0	66	16981
2026-01-01 03:14:37.30	20.17	15.00	-52.0	-65.6	3.8	7.43e-01	0	57	104	0	66	17953
2026-01-01 03:14:38.28	20.10	15.11	-52.2	-66.1	3.8	7.47e-01	0	57	104	0	66	19156
2026-01-01 03:14:39.26	20.03	15.22	-52.3	-66.3	3.8	7.44e-01	0	57	104	0	66	19511
2026-01-01 03:14:40.24	19.96	15.33	-51.9	-65.4	3.8	7.44e-01	0	57	104	0	66	17572
2026-01-01 03:14:41.22	19.89	15.44	-51.5	-64.6	3.8	7.46e-01	0	57	104	0	66	16053
2026-01-01 03:14:42.21	19.82	15.55	-51.1	-63.9	3.8	7.45e-01	0	57	104	0	65	15732
2026-01-01 03:14:43.19	19.75	15.67	-50.7	-63.3	3.8	7.39e-01	0	57	104	0	65	14559
2026-01-01 03:14:44.17	19.68	15.78	-50.5	-62.8	3.8	7.44e-01	0	57	104	0	64	14613
2026-01-01 03:14:45.16	19.61	15.89	-50.2	-62.4	3.8	7.42e-01	0	57	104	0	64	13946
2026-01-01 03:14:46.14	19.53	16.01	-50.3	-62.4	3.9	7.44e-01	0	57	104	0	63	14736
2026-01-01 03:14:47.12	19.46	16.12	-50.7	-63.1	3.8	7.44e-01	0	57	104	0	63	16014
2026-01-01 03:14:48.10	19.38	16.24	-51.1	-63.8	3.8	7.42e-01	0	57	104	0	64	16403
2026-01-01 03:14:49.08	19.31	16.35	-51.8	-65.1	3.8	7.43e-01	0	57	104	0	65	17998
2026-01-01 03:14:50.06	19.23	16.47	-52.3	-66.2	3.8	7.47e-01	0	57	104	0	66	19288
2026-01-01 03:14:51.04	19.16	16.59	-51.7	-64.9	3.8	7.47e-01	0	57	104	0	66	16647
2026-01-01 03:14:52.02	19.08	16.70	-51.2	-64.0	3.8	7.45e-01	0	57	104	0	66	14932
2026-01-01 03:14:53.00	19.00	16.82	-51.1	-63.8	3.8	7.44e-01	0	57	104	0	65	15511
2026-01-01 03:14:53.99	18.92	16.94	-51.1	-63.8	3.8	7.44e-01	0	57	104	0	65	15523
2026-01-01 03:14:54.97	18.85	17.06	-51.1	-63.9	3.8	7.43e-01	0	57	104	0	65	15728
2026-01-01 03:14:55.95	18.77	17.18	-51.1	-63.9	3.8	7.45e-01	0	57	104	0	65	15662
2026-01-01 03:14:56.94	18.69	17.30	-51.1	-63.8	3.8	7.44e-01	0	57	104	0	65	15536
2026-01-01 03:14:57.92	18.60	17.42	-51.2	-64.0	3.8	7.44e-01	0	57	104	0	65	15886
2026-01-01 03:14:58.90	18.52	17.54	-50.8	-63.3	3.8	7.43e-01	0	57	104	0	65	14635
2026-01-01 03:14:59.88	18.44	17.67	-50.3	-62.5	3.8	7.43e-01	0	57	104	0	64	14136
2026-01-01 03:15:00.87	18.36	17.79	-50.0	-62.0	3.8	7.45e-01	0	57	104	0	63	14091
2026-01-01 03:15:01.85	18.27	17.91	-49.6	-61.4	3.8	7.46e-01	0	57	104	0	62	13975
2026-01-01 03:15:02.83	18.19	18.04	-49.3	-61.0	3.8	7.42e-01	0	57	104	0	62	13306
2026-01-01 03:15:03.81	18.10	18.16	-49.0	-60.6	3.8	7.44e-01	0	57	104	0	61	13507
2026-01-01 03:15:04.79	18.02	18.29	-49.1	-60.7	3.8	7.40e-01	0	57	104	0	61	13663
2026-01-01 03:15:05.78	17.93	18.41	-49.3	-61.0	3.8	7.45e-01	0	57	104	0	61	14165
2026-01-01 03:15:06.75	17.84	18.54	-49.6	-61.4	3.8	7.41e-01	0	57	104	0	61	14856
2026-01-01 03:15:07.74	17.75	18.67	-50.0	-62.0	3.8	7.46e-01	0	58	104	0	62	14960
2026-01-01 03:15:08.73	17.66	18.80	-50.5	-62.7	3.8	7.45e-01	0	57	104	0	63	15270
2026-01-01 03:15:09.71	17.57	18.93	-50.8	-63.4	3.8	7.41e-01	0	57	104	0	64	15650
2026-01-01 03:15:10.69	17.48	19.05	-51.4	-64.3	3.8	7.43e-01	0	57	104	0	64	17388
2026-01-01 03:15:11.67	17.39	19.18	-51.4	-64.4	3.8	7.46e-01	0	57	104	0	65	16674
2026-01-01 03:15:12.65	17.29	19.31	-51.3	-64.3	3.8	7.47e-01	0	57	104	0	65	16373
2026-01-01 03:15:13.63	17.20	19.45	-51.2	-64.0	3.8	7.43e-01	0	57	104	0	65	15892
2026-01-01 03:15:14.62	17.10	19.58	-51.3	-64.1	3.8	7.44e-01	0	57	104	0	65	16066
2026-01-01 03:15:15.60	17.01	19.71	-51.3	-64.1	3.8	7.44e-01	0	58	104	0	65	16006
2026-01-01 03:15:16.59	16.91	19.85	-51.2	-64.0	3.8	7.44e-01	0	58	104	0	65	15810
2026-01-01 03:15:17.57	16.81	19.98	-51.6	-64.6	3.8	7.43e-01	0	58	104	0	65	16951
2026-01-01 03:15:18.55	16.72	20.11	-52.0	-65.6	3.8	7.42e-01	0	58	104	0	66	17981
2026-01-01 03:15:19.53	16.62	20.25	-52.3	-66.1	3.8	7.46e-01	0	58	104	0	66	19102
2026-01-01 03:15:20.51	16.52	20.39	-52.1	-65.6	3.8	7.46e-01	0	58	104	0	66	18077
2026-01-01 03:15:21.50	16.41	20.52	-51.6	-64.6	3.8	7.41e-01	0	58	104	0	66	16074
2026-01-01 03:15:22.48	16.31	20.66	-51.1	-63.8	3.8	7.47e-01	0	58	104	0	65	15458
2026-01-01 03:15:23.46	16.21	20.80	-50.6	-62.9	3.8	7.46e-01	0	58	104	0	64	14761
2026-01-01 03:15:24.44	16.10	20.94	-50.3	-62.5	3.8	7.44e-01	0	58	104	0	64	14049
2026-01-01 03:15:25.42	16.00	21.08	-50.5	-62.8	3.8	7.43e-01	0	58	104	0	64	14572
2026-01-01 03:15:26.39	15.89	21.22	-50.6	-63.0	3.8	7.46e-01	0	58	104	0	64	14921
2026-01-01 03:15:27.38	15.78	21.36	-50.9	-63.4	3.8	7.44e-01	0	58	104	0	64	15721
2026-01-01 03:15:28.35	15.68	21.50	-51.2	-63.9	3.8	7.43e-01	0	58	104	0	64	16694
2026-01-01 03:15:29.33	15.57	21.64	-51.4	-64.4	3.8	7.42e-01	0	58	104	0	65	16533
2026-01-01 03:15:30.31	15.46	21.79	-51.6	-64.6	3.8	7.44e-01	0	58	104	0	65	17038
2026-01-01 03:15:31.30	15.34	21.93	-51.2	-63.9	3.8	7.41e-01	0	58	104	0	65	15679
2026-01-01 03:15:32.28	15.23	22.08	-50.9	-63.5	3.8	7.45e-01	0	58	104	0	65	14922
2026-01-01 03:15:33.26	15.12	22.22	-50.8	-63.3	3.8	7.43e-01	0	58	104	0	65	14645
2026-01-01 03:15:34.25	15.00	22.37	-50.6	-63.0	3.8	7.45e-01	0	58	104	0	64	14906
2026-01-01 03:15:35.23	14.88	22.52	-50.4	-62.6	3.8	7.41e-01	0	58	104	0	64	14273
2026-01-01 03:15:36.21	14.77	22.67	-50.3	-62.5	3.8	7.46e-01	0	58	104	0	64	14156
2026-01-01 03:15:37.19	14.65	22.81	-50.3	-62.5	3.8	7.44e-01	0	58	104	0	64	14114
2026-01-01 03:15:38.18	14.53	22.97	-50.5	-62.7	3.8	7.45e-01	0	58	104	0	64	14488
2026-01-01 03:15:39.16	14.40	23.12	-50.9	-63.5	3.8	7.42e-01	0	58	104	0	64	15835
2026-01-01 03:15:40.14	14.28	23.27	-51.5	-64.5	3.8	7.45e-01	0	58	104	0	65	16727
2026-01-01 03:15:41.12	14.16	23.42	-52.0	-65.5	3.8	7.43e-01	0	58	104	0	66	17803
2026-01-01 03:15:42.10	14.03	23.57	-52.4	-66.5	3.8	7.49e-01	0	58	104	0	67	18828
2026-01-01 03:15:43.09	13.90	23.73	-51.9	-65.3	3.8	7.42e-01	0	58	104	0	67	16483
2026-01-01 03:15:44.07	13.78	23.88	-51.4	-64.4	3.8	7.43e-01	0	58	104	0	66	15597
2026-01-01 03:15:45.05	13.65	24.04	-51.5	-64.5	3.8	7.44e-01	0	58	104	0	66	15913
2026-01-01 03:15:46.04	13.52	24.20	-51.5	-64.6	3.8	7.43e-01	0	58	104	0	66	16028
2026-01-01 03:15:47.02	13.38	24.35	-51.3	-64.2	3.8	7.42e-01	0	58	104	0	66	15299
2026-01-01 03:15:48.00	13.25	24.51	-51.2	-64.2	3.8	7.45e-01	0	58	104	0	66	15232
2026-01-01 03:15:48.98	13.11	24.67	-51.2	-64.1	3.8	7.42e-01	0	58	104	0	66	15219
2026-01-01 03:15:49.96	12.98	24.83	-51.1	-64.2	3.8	7.46e-01	0	58	104	0	65	16200
2026-01-01 03:15:50.94	12.84	24.99	-50.6	-63.4	3.9	7.47e-01	0	58	104	0	64	15712
2026-01-01 03:15:51.93	12.70	25.16	-50.2	-62.6	3.8	7.45e-01	0	58	104	0	63	15197
2026-01-01 03:15:52.91	12.56	25.32	-49.5	-61.7	3.8	7.43e-01	0	58	104	0	62	14519
2026-01-01 03:15:53.89	12.42	25.48	-49.3	-61.4	3.8	7.41e-01	0	58	104	0	62	13988
2026-01-01 03:15:54.87	12.27	25.65	-49.3	-61.5	3.8	7.44e-01	0	58	104	0	62	14190
2026-01-01 03:15:55.86	12.12	25.81	-49.5	-61.8	3.8	7.44e-01	0	58	104	0	62	14627
2026-01-01 03:15:56.84	11.98	25.98	-49.7	-62.3	3.8	7.46e-01	0	58	104	0	62	15436
2026-01-01 03:15:57.83	11.83	26.15	-50.3	-63.3	3.8	7.44e-01	0	58	104	0	62	17443
2026-01-01 03:15:58.80	11.68	26.32	-51.0	-64.8	3.8	7.45e-01	0	58	104	0	64	18410
2026-01-01 03:15:59.78	11.52	26.48	-51.7	-66.5	3.8	7.45e-01	0	58	104	0	65	21108
2026-01-01 03:16:00.76	11.37	26.65	-52.2	-67.7	3.8	7.44e-01	0	58	104	0	66	22958
2026-01-01 03:16:01.75	11.21	26.83	-52.5	-68.0	3.8	7.43e-01	0	58	104	0	67	22412
2026-01-01 03:16:02.73	11.06	27.00	-52.5	-67.6	3.8	7.43e-01	0	58	104	0	67	21408
2026-01-01 03:16:03.71	10.90	27.17	-52.5	-67.3	3.8	7.45e-01	0	58	104	0	67	20635
2026-01-01 03:16:04.69	10.73	27.34	-52.3	-66.5	3.8	7.45e-01	0	58	104	0	67	18924
2026-01-01 03:16:05.67	10.57	27.52	-52.1	-65.8	3.8	7.43e-01	0	58	104	0	67	17444
2026-01-01 03:16:06.65	10.41	27.70	-52.0	-65.6	3.8	7.46e-01	0	58	104	0	67	16900
2026-01-01 03:16:07.63	10.24	27.87	-52.1	-65.8	3.8	7.42e-01	0	59	104	0	67	17320
2026-01-01 03:16:08.61	10.07	28.05	-52.1	-65.7	3.8	7.46e-01	0	58	104	0	67	17193
2026-01-01 03:16:09.59	9.90	28.23	-52.0	-65.5	3.8	7.47e-01	0	58	104	0	67	16786
2026-01-01 03:16:10.58	9.72	28.41	-52.4	-66.3	3.8	7.45e-01	0	58	104	0	67	18464
2026-01-01 03:16:11.56	9.55	28.59	-52.4	-66.3	3.8	7.43e-01	0	59	104	0	67	18488
2026-01-01 03:16:12.55	9.37	28.77	-51.7	-64.9	3.8	7.45e-01	0	59	104	0	67	15610
2026-01-01 03:16:13.53	9.19	28.95	-51.1	-63.8	3.8	7.43e-01	0	59	104	0	65	15415
2026-01-01 03:16:14.51	9.01	29.14	-50.4	-62.6	3.8	7.44e-01	0	59	104	0	64	14215
2026-01-01 03:16:15.50	8.82	29.32	-49.8	-61.7	3.8	7.44e-01	0	59	104	0	63	13595
2026-01-01 03:16:16.49	8.63	29.51	-49.7	-61.5	3.8	7.42e-01	0	59	104	0	62	14141
2026-01-01 03:16:17.47	8.45	29.70	-49.7	-61.4	3.8	7.44e-01	0	59	104	0	62	14005
2026-01-01 03:16:18.45	8.25	29.88	-49.8	-61.7	3.8	7.42e-01	0	59	104	0	62	14422
2026-01-01 03:16:19.44	8.06	30.07	-49.9	-61.8	3.8	7.46e-01	0	58	104	0	62	14650
2026-01-01 03:16:20.42	7.86	30.26	-50.2	-62.2	3.8	7.46e-01	0	59	104	0	62	15343
2026-01-01 03:16:21.40	7.67	30.45	-50.6	-62.8	3.8	7.45e-01	0	59	104	0	63	15407
2026-01-01 03:16:22.38	7.47	30.64	-50.6	-62.9	3.8	7.43e-01	0	59	104	0	63	15661
2026-01-01 03:16:23.36	7.26	30.84	-50.3	-62.3	3.8	7.44e-01	0	59	104	0	63	14624
2026-01-01 03:16:24.34	7.06	31.03	-50.0	-61.8	3.8	7.43e-01	0	59	104	0	63	13871
2026-01-01 03:16:25.33	6.85	31.23	-49.8	-61.6	3.8	7.46e-01	0	59	104	0	63	13502
2026-01-01 03:16:26.32	6.63	31.42	-49.7	-61.5	3.8	7.46e-01	0	59	104	0	63	13357
2026-01-01 03:16:27.30	6.42	31.62	-49.7	-61.5	3.8	7.43e-01	0	59	104	0	63	13318
2026-01-01 03:16:28.28	6.20	31.81	-49.8	-61.7	3.8	7.45e-01	0	59	104	0	63	13726
2026-01-01 03:16:29.26	5.99	32.01	-50.0	-62.0	3.8	7.44e-01	0	59	104	0	63	14129
2026-01-01 03:16:30.25	5.76	32.21	-50.5	-62.6	3.8	7.45e-01	0	59	104	0	63	15193
2026-01-01 03:16:31.22	5.54	32.41	-50.9	-63.3	3.8	7.45e-01	0	59	104	0	64	15534
2026-01-01 03:16:32.20	5.31	32.61	-51.4	-64.2	3.8	7.42e-01	0	59	104	0	65	16188
2026-01-01 03:16:33.18	5.08	32.81	-51.8	-64.9	3.8	7.45e-01	0	59	104	0	66	16607
2026-01-01 03:16:34.17	4.85	33.02	-51.3	-64.1	3.8	7.44e-01	0	59	104	0	66	15171
2026-01-01 03:16:35.15	4.61	33.22	-50.9	-63.5	3.8	7.41e-01	0	59	104	0	65	14938
2026-01-01 03:16:36.14	4.37	33.43	-51.2	-63.9	3.8	7.44e-01	0	59	104	0	65	15748
2026-01-01 03:16:37.12	4.12	33.63	-51.0	-63.5	3.8	7.44e-01	0	59	104	0	65	15023
2026-01-01 03:16:38.10	3.88	33.84	-51.0	-63.5	3.8	7.43e-01	0	59	104	0	65	14989
2026-01-01 03:16:39.09	3.63	34.05	-51.0	-63.6	3.8	7.43e-01	0	59	104	0	65	15111
2026-01-01 03:16:40.07	3.37	34.25	-51.1	-63.6	3.8	7.47e-01	0	59	104	0	65	15210
2026-01-01 03:16:41.04	3.12	34.46	-51.2	-63.8	3.8	7.46e-01	0	59	104	0	65	15429
2026-01-01 03:16:42.03	2.86	34.67	-51.3	-64.0	3.8	7.46e-01	0	59	104	0	65	15941
2026-01-01 03:16:43.02	2.59	34.88	-50.9	-63.4	3.8	7.46e-01	0	59	104	0	65	14737
2026-01-01 03:16:44.00	2.33	35.10	-50.6	-62.8	3.8	7.45e-01	0	59	104	0	64	14637
2026-01-01 03:16:44.98	2.06	35.31	-50.2	-62.2	3.8	7.42e-01	0	59	104	0	64	13726
2026-01-01 03:16:45.96	1.78	35.52	-50.1	-62.0	3.8	7.46e-01	0	59	104	0	63	14106
2026-01-01 03:16:46.94	1.51	35.73	-49.9	-61.8	3.8	7.47e-01	0	59	104	0	63	13759
2026-01-01 03:16:47.92	1.22	35.95	-49.9	-61.7	3.8	7.48e-01	0	59	104	0	63	13595
2026-01-01 03:16:48.91	0.94	36.17	-50.3	-62.4	3.8	7.43e-01	0	59	104	0	63	14751
2026-01-01 03:16:49.89	0.65	36.38	-50.8	-63.1	3.8	7.43e-01	0	59	104	0	63	15979
2026-01-01 03:16:50.87	0.35	36.60	-51.1	-63.7	3.8	7.44e-01	0	59	104	0	64	16174
2026-01-01 03:16:51.85	0.06	36.81	-51.7	-64.7	3.8	7.43e-01	0	59	104	0	65	17167
2026-01-01 03:16:52.83	359.75	37.03	-52.2	-65.8	3.8	7.44e-01	0	59	104	0	66	18306
2026-01-01 03:16:53.82	359.45	37.25	-52.7	-66.8	3.8	7.48e-01	0	59	104	0	67	19558
2026-01-01 03:16:54.80	359.14	37.47	-53.3	-68.3	3.8	7.45e-01	0	59	104	0	68	21878
2026-01-01 03:16:55.78	358.82	37.69	-53.4	-68.8	3.8	7.45e-01	0	59	104	0	69	21849
2026-01-01 03:16:56.76	358.50	37.91	-53.5	-68.8	3.8	7.43e-01	0	59	104	0	69	21877
2026-01-01 03:16:57.75	358.18	38.13	-53.5	-69.1	3.8	7.44e-01	0	59	104	0	69	22529
2026-01-01 03:16:58.73	357.85	38.35	-53.6	-69.5	3.8	7.47e-01	0	59	104	0	69	23741
2026-01-01 03:16:59.71	357.52	38.58	-53.6	-69.3	3.8	7.43e-01	0	59	104	0	69	23140
2026-01-01 03:17:00.70	357.18	38.80	-53.5	-69.0	3.8	7.44e-01	0	59	104	0	69	22321
2026-01-01 03:17:01.68	356.83	39.02	-53.3	-68.4	3.8	7.43e-01	0	59	104	0	69	20960
2026-01-01 03:17:02.66	356.49	39.25	-53.0	-67.6	3.8	7.42e-01	0	59	104	0	69	19007
2026-01-01 03:17:03.64	356.14	39.47	-52.4	-66.0	3.8	7.43e-01	0	59	104	0	68	16881
2026-01-01 03:17:04.63	355.78	39.69	-51.7	-64.7	3.8	7.43e-01	0	59	104	0	67	15318
2026-01-01 03:17:05.61	355.41	39.92	-51.3	-63.9	3.8	7.46e-01	0	59	104	0	66	14783
2026-01-01 03:17:06.59	355.05	40.14	-50.7	-62.5	3.8	7.47e-01	0	59	104	0	64	14193
2026-01-01 03:17:07.57	354.68	40.36	-50.6	-62.9	3.8	7.43e-01	0	60	104	0	64	14829
2026-01-01 03:17:08.55	354.30	40.59	-50.8	-63.2	3.8	7.41e-01	0	59	104	0	64	15324
2026-01-01 03:17:09.53	353.92	40.81	-50.8	-63.1	3.8	7.42e-01	0	59	104	0	64	15099
2026-01-01 03:17:10.52	353.52	41.04	-50.6	-62.8	3.8	7.42e-01	0	59	104	0	64	14693
2026-01-01 03:17:11.50	353.13	41.26	-50.7	-62.9	3.8	7.45e-01	0	60	104	0	64	14791
2026-01-01 03:17:12.48	352.73	41.49	-50.9	-63.3	3.8	7.45e-01	0	60	104	0	64	15428
2026-01-01 03:17:13.45	352.33	41.71	-51.2	-63.8	3.8	7.42e-01	0	59	104	0	64	16434
2026-01-01 03:17:14.45	351.91	41.94	-51.2	-63.9	3.8	7.41e-01	0	59	104	0	64	16577
2026-01-01 03:17:15.43	351.49	42.16	-50.8	-63.2	3.8	7.43e-01	0	60	104	0	64	15250
2026-01-01 03:17:16.41	351.07	42.38	-50.5	-62.7	3.8	7.42e-01	0	59	104	0	64	14525
2026-01-01 03:17:17.39	350.64	42.61	-50.4	-62.5	3.8	7.46e-01	0	60	104	0	64	14117
2026-01-01 03:17:18.37	350.20	42.83	-50.5	-62.7	3.8	7.46e-01	0	59	104	0	64	14387
2026-01-01 03:17:19.35	349.76	43.05	-50.8	-63.2	3.8	7.43e-01	0	60	104	0	64	15317
2026-01-01 03:17:20.33	349.31	43.27	-50.9	-63.3	3.8	7.41e-01	0	60	104	0	64	15532
2026-01-01 03:17:21.31	348.86	43.49	-50.7	-62.8	3.8	7.47e-01	0	60	104	0	64	14598
2026-01-01 03:17:22.30	348.40	43.71	-50.9	-63.4	3.8	7.45e-01	0	60	104	0	64	15632
2026-01-01 03:17:23.28	347.93	43.93	-51.4	-64.1	3.8	7.46e-01	0	59	104	0	64	16990
2026-01-01 03:17:24.27	347.45	44.15	-51.8	-64.9	3.8	7.43e-01	0	60	104	0	65	17612
2026-01-01 03:17:25.25	346.97	44.37	-52.0	-65.2	3.8	7.43e-01	0	60	104	0	66	17100
2026-01-01 03:17:26.24	346.48	44.59	-52.2	-65.7	3.8	7.46e-01	0	60	104	0	66	18184
2026-01-01 03:17:27.23	345.98	44.81	-51.7	-64.5	3.8	7.43e-01	0	60	104	0	66	15889
2026-01-01 03:17:28.21	345.48	45.02	-51.2	-63.7	3.8	7.44e-01	0	60	104	0	66	14498
2026-01-01 03:17:29.19	344.97	45.23	-51.2	-63.7	3.8	7.46e-01	0	60	104	0	65	15296
2026-01-01 03:17:30.17	344.45	45.45	-51.2	-63.7	3.8	7.39e-01	0	60	104	0	65	15397
2026-01-01 03:17:31.16	343.93	45.66	-51.2	-63.9	3.8	7.45e-01	0	60	104	0	65	15596
2026-01-01 03:17:32.14	343.40	45.87	-51.3	-63.8	3.8	7.44e-01	0	60	104	0	65	15573
2026-01-01 03:17:33.12	342.86	46.07	-51.5	-64.2	3.8	7.43e-01	0	60	104	0	65	16284
2026-01-01 03:17:34.10	342.32	46.28	-51.8	-65.0	3.8	7.44e-01	0	60	104	0	65	17788
2026-01-01 03:17:35.08	341.77	46.48	-51.5	-64.2	3.8	7.43e-01	0	60	104	0	65	16295
2026-01-01 03:17:36.06	341.21	46.69	-51.1	-54.9	5.2	7.07e-01	0	60	0	0	65	5529
2026-01-01 03:17:37.04	340.64	46.88	-50.5	-53.2	20.0	6.01e-01	0	60	0	524288	64	4831
2026-01-01 03:17:38.01	340.08	47.08	-50.3	-52.9	20.5	6.01e-01	0	60	0	2097152	64	4653
2026-01-01 03:17:38.98	339.50	47.27	-50.3	-52.9	20.5	6.03e-01	0	60	0	4194304	64	4693
2026-01-01 03:17:39.94	338.93	47.46	-50.5	-53.1	20.3	6.02e-01	0	60	0	5767168	64	4813
2026-01-01 03:17:40.92	338.33	47.65	-50.1	-52.5	21.0	6.03e-01	0	60	0	7864320	63	4715
2026-01-01 03:17:41.89	337.74	47.84	-49.7	-51.9	21.5	6.05e-01	0	60	0	9437184	63	4437
2026-01-01 03:17:42.86	337.13	48.02	-49.7	-51.9	21.5	6.03e-01	0	60	0	11534336	62	4705
2026-01-01 03:17:43.82	336.53	48.20	-49.8	-52.0	21.5	6.03e-01	0	60	0	13107200	62	4740
2026-01-01 03:17:44.79	335.91	48.38	-50.0	-52.4	21.2	6.03e-01	0	60	0	15204352	62	4928
2026-01-01 03:17:45.76	335.29	48.56	-49.8	-52.1	21.4	6.03e-01	0	60	0	16777216	62	4791
2026-01-01 03:17:46.73	334.66	48.73	-49.6	-51.8	21.7	6.03e-01	0	60	0	18874368	62	4623
2026-01-01 03:17:47.70	334.02	48.90	-49.9	-52.2	21.3	6.02e-01	0	60	0	20447232	62	4846
2026-01-01 03:17:48.66	333.38	49.07	-49.6	-51.7	21.7	6.03e-01	0	60	0	22544384	62	4590
2026-01-01 03:17:49.63	332.72	49.23	-49.5	-51.6	21.9	6.03e-01	0	60	0	24117248	62	4536
2026-01-01 03:17:50.60	332.06	49.39	-49.7	-51.9	21.5	6.02e-01	0	60	0	26214400	62	4691
2026-01-01 03:17:51.57	331.39	49.55	-49.5	-51.6	21.8	6.01e-01	0	60	0	27787264	62	4524
2026-01-01 03:17:52.54	330.72	49.70	-49.1	-51.1	22.4	6.04e-01	0	60	0	29884416	61	4497
2026-01-01 03:17:53.52	330.03	49.85	-49.4	-51.4	22.0	6.01e-01	0	60	0	31457280	61	4702
2026-01-01 03:17:54.49	329.34	49.99	-49.3	-51.3	22.1	6.03e-01	0	60	0	33030144	61	4651
2026-01-01 03:17:55.46	328.65	50.13	-48.9	-50.8	22.6	6.03e-01	0	60	0	35127296	61	4364
2026-01-01 03:17:56.43	327.95	50.27	-49.2	-51.3	22.1	6.03e-01	0	60	0	36700160	61	4600
2026-01-01 03:17:57.39	327.25	50.40	-49.2	-51.2	22.3	6.02e-01	0	60	0	38797312	61	4547
2026-01-01 03:17:58.36	326.53	50.53	-49.2	-51.2	22.3	6.03e-01	0	60	0	40370176	61	4552
2026-01-01 03:17:59.33	325.81	50.66	-48.8	-50.6	22.8	6.01e-01	0	60	0	42467328	61	4283
2026-01-01 03:18:00.30	325.09	50.78	-49.1	-51.0	22.4	6.03e-01	0	60	0	44040192	61	4491
2026-01-01 03:18:01.27	324.36	50.89	-49.1	-51.0	22.4	6.03e-01	0	60	0	46137344	61	4478
2026-01-01 03:18:02.24	323.62	51.00	-49.3	-51.3	22.1	6.03e-01	0	60	0	47710208	61	4636
2026-01-01 03:18:03.21	322.88	51.11	-48.6	-50.4	23.0	6.04e-01	0	60	0	49807360	60	4406
2026-01-01 03:18:04.17	322.14	51.21	-49.0	-50.9	22.6	6.01e-01	0	60	0	51380224	60	4663
2026-01-01 03:18:05.14	321.38	51.31	-49.2	-51.2	22.3	6.03e-01	0	60	0	53477376	60	4817
2026-01-01 03:18:06.10	320.63	51.40	-48.9	-50.8	22.6	6.03e-01	0	60	0	55050240	60	4610
2026-01-01 03:18:07.07	319.87	51.48	-48.9	-50.8	22.6	6.04e-01	0	60	0	56623104	60	4645
2026-01-01 03:18:08.04	319.10	51.56	-49.2	-51.2	22.2	6.02e-01	0	60	0	58720256	60	4851
2026-01-01 03:18:09.01	318.33	51.64	-49.5	-51.5	21.9	6.03e-01	0	60	0	60293120	61	4746
2026-01-01 03:18:09.98	317.56	51.71	-49.3	-51.3	22.0	6.03e-01	0	60	0	62390272	61	4645
2026-01-01 03:18:10.95	316.78	51.78	-48.8	-50.6	22.8	6.01e-01	0	60	0	63963136	61	4252
2026-01-01 03:18:11.92	316.00	51.84	-48.8	-50.7	22.8	6.01e-01	0	60	0	66060288	61	4309
2026-01-01 03:18:12.88	315.22	51.89	-48.9	-50.8	22.7	6.00e-01	0	60	0	67633152	61	4356
2026-01-01 03:18:13.85	314.43	51.94	-49.0	-50.9	22.5	6.04e-01	0	60	0	69730304	61	4416
2026-01-01 03:18:14.83	313.63	51.98	-48.9	-50.7	22.7	6.02e-01	0	60	0	71303168	61	4331
2026-01-01 03:18:15.79	312.85	52.02	-49.1	-51.0	22.4	6.04e-01	0	60	0	73400320	61	4490
2026-01-01 03:18:16.77	312.05	52.05	-49.2	-51.2	22.2	6.04e-01	0	60	0	74973184	61	4569
2026-01-01 03:18:17.73	311.26	52.08	-48.9	-50.8	22.6	6.03e-01	0	60	0	76546048	61	4376
2026-01-01 03:18:18.70	310.46	52.10	-48.5	-50.2	23.1	6.02e-01	0	60	0	78643200	60	4324
2026-01-01 03:18:19.67	309.67	52.12	-48.8	-50.6	22.7	6.02e-01	0	60	0	80216064	60	4511
2026-01-01 03:18:20.64	308.87	52.13	-48.4	-50.1	23.3	5.98e-01	0	60	0	82313216	60	4263
2026-01-01 03:18:21.61	308.07	52.13	-48.5	-50.2	23.3	6.03e-01	0	60	0	83886080	60	4304
2026-01-01 03:18:22.57	307.28	52.13	-48.4	-50.1	23.3	6.03e-01	0	60	0	85983232	60	4274
2026-01-01 03:18:23.54	306.48	52.12	-48.6	-50.3	23.1	6.05e-01	0	60	0	87556096	60	4387
2026-01-01 03:18:24.50	305.69	52.11	-48.8	-50.6	22.8	6.03e-01	0	60	0	89653248	60	4519
2026-01-01 03:18:25.47	304.89	52.09	-48.8	-50.6	22.8	6.01e-01	0	60	0	91226112	60	4528
2026-01-01 03:18:26.44	304.09	52.06	-48.6	-50.3	23.0	6.01e-01	0	60	0	93323264	60	4368
2026-01-01 03:18:27.41	303.30	52.03	-48.4	-50.1	23.2	6.03e-01	0	60	0	94896128	60	4261
2026-01-01 03:18:28.37	302.51	52.00	-48.3	-50.0	23.4	6.00e-01	0	60	0	96993280	60	4198
2026-01-01 03:18:29.34	301.72	51.96	-48.8	-50.5	23.3	6.05e-01	0	60	0	98566144	59	4732
2026-01-01 03:18:30.31	300.93	51.91	-49.1	-51.0	22.4	6.03e-01	0	60	0	100663296	60	4751
2026-01-01 03:18:31.28	300.15	51.86	-49.5	-51.7	21.9	6.02e-01	0	60	0	102236160	61	4823
2026-01-01 03:18:32.24	299.37	51.80	-49.1	-51.0	22.2	6.01e-01	0	60	0	103809024	60	4744
2026-01-01 03:18:33.21	298.59	51.74	-48.7	-50.5	22.6	6.03e-01	0	60	0	105906176	60	4481
2026-01-01 03:18:34.17	297.82	51.67	-48.4	-50.1	23.2	6.04e-01	0	60	0	107479040	60	4261
2026-01-01 03:18:35.14	297.05	51.59	-48.4	-50.1	23.4	6.03e-01	0	60	0	109576192	60	4272
2026-01-01 03:18:36.11	296.28	51.51	-49.4	-50.9	23.0	6.03e-01	0	61	0	111149056	60	4682
2026-01-01 03:18:37.08	295.52	51.43	-49.3	-51.4	22.0	6.05e-01	0	60	0	113246208	60	4976
2026-01-01 03:18:38.05	294.76	51.34	-49.6	-51.9	21.2	6.02e-01	0	60	0	114819072	61	4954
2026-01-01 03:18:39.02	294.00	51.24	-48.7	-50.6	22.0	6.03e-01	0	60	0	116916224	61	4252
2026-01-01 03:18:39.99	293.25	51.15	-48.4	-49.9	22.9	6.05e-01	0	60	0	118489088	59	4432
2026-01-01 03:18:40.95	292.51	51.04	-48.3	-49.9	23.6	6.04e-01	0	60	0	120586240	59	4399
2026-01-01 03:18:41.93	291.77	50.93	-48.8	-50.6	22.9	6.01e-01	0	60	0	122159104	60	4522
2026-01-01 03:18:42.89	291.04	50.82	-49.0	-50.9	22.4	6.05e-01	0	60	0	124256256	60	4669
2026-01-01 03:18:43.86	290.31	50.70	-49.0	-51.0	22.2	6.02e-01	0	61	0	125829120	60	4713
2026-01-01 03:18:44.83	289.59	50.58	-49.8	-52.1	21.3	6.00e-01	0	60	0	127401984	61	5083
2026-01-01 03:18:45.80	288.87	50.45	-49.8	-52.1	21.4	6.01e-01	0	61	0	129499136	61	5097
2026-01-01 03:18:46.77	288.16	50.32	-49.3	-51.4	22.2	6.02e-01	0	61	0	131072000	60	4931
2026-01-01 03:18:47.74	287.46	50.18	-49.3	-51.5	22.0	6.03e-01	0	60	0	133169152	60	5007
2026-01-01 03:18:48.71	286.76	50.04	-49.5	-51.7	21.8	6.04e-01	0	60	0	134742016	61	4816
2026-01-01 03:18:49.67	286.07	49.90	-49.9	-52.2	21.3	6.02e-01	0	60	0	136839168	61	5139
2026-01-01 03:18:50.64	285.39	49.75	-49.6	-51.8	21.7	6.05e-01	0	60	0	138412032	61	4883
2026-01-01 03:18:51.61	284.71	49.60	-48.6	-50.4	23.0	6.02e-01	0	60	0	140509184	60	4426
2026-01-01 03:18:52.58	284.04	49.44	-49.0	-50.9	22.6	6.02e-01	0	60	0	142082048	60	4661
2026-01-01 03:18:53.55	283.38	49.29	-49.1	-51.0	22.4	6.03e-01	0	61	0	144179200	61	4463
2026-01-01 03:18:54.51	282.73	49.13	-48.3	-49.9	23.5	6.01e-01	0	61	0	145752064	60	4185
2026-01-01 03:18:55.48	282.08	48.96	-48.2	-49.8	23.5	6.02e-01	0	60	0	147324928	60	4135
2026-01-01 03:18:56.45	281.43	48.79	-48.3	-49.9	23.3	6.05e-01	0	60	0	149422080	60	4161
2026-01-01 03:18:57.42	280.80	48.62	-49.0	-50.9	22.4	6.00e-01	0	60	0	150994944	61	4397
2026-01-01 03:18:58.39	280.17	48.44	-49.0	-50.9	22.4	6.00e-01	0	61	0	153092096	61	4434
2026-01-01 03:18:59.36	279.55	48.27	-49.2	-51.2	22.2	6.02e-01	0	61	0	154664960	61	4579
2026-01-01 03:19:00.33	278.93	48.09	-49.5	-51.6	21.8	6.02e-01	0	60	0	156762112	61	4783
2026-01-01 03:19:01.30	278.33	47.90	-49.4	-51.4	22.0	6.02e-01	0	61	0	158334976	61	4683
2026-01-01 03:19:02.27	277.73	47.72	-49.1	-51.1	22.3	6.03e-01	0	61	0	160432128	61	4507
2026-01-01 03:19:03.24	277.14	47.53	-48.8	-50.6	22.7	6.01e-01	0	60	0	162004992	61	4274
2026-01-01 03:19:04.22	276.55	47.34	-48.6	-50.3	23.1	6.03e-01	0	60	0	164102144	60	4374
2026-01-01 03:19:05.19	275.97	47.14	-48.4	-50.1	23.3	6.04e-01	0	60	0	165675008	60	4279
2026-01-01 03:19:06.16	275.40	46.95	-48.4	-50.1	23.2	6.03e-01	0	60	0	167772160	60	4276
2026-01-01 03:19:07.14	274.83	46.75	-48.4	-50.0	23.3	6.01e-01	0	60	0	169345024	60	4242
2026-01-01 03:19:08.13	274.26	46.54	-48.8	-50.6	22.7	6.01e-01	0	60	0	171442176	60	4529
2026-01-01 03:19:09.11	273.71	46.34	-48.8	-50.6	22.8	6.03e-01	0	61	0	173015040	60	4542
2026-01-01 03:19:10.10	273.16	46.13	-48.9	-50.7	22.7	6.03e-01	0	61	0	175112192	60	4584
2026-01-01 03:19:11.07	272.62	45.93	-48.7	-50.5	22.8	6.06e-01	0	60	0	176685056	60	4451
2026-01-01 03:19:12.03	272.10	45.72	-48.3	-50.0	23.4	6.03e-01	0	60	0	178782208	60	4205
2026-01-01 03:19:13.00	271.58	45.52	-48.3	-49.9	23.5	6.04e-01	0	60	0	180355072	60	4185
2026-01-01 03:19:13.97	271.07	45.31	-48.2	-49.9	23.4	6.04e-01	0	60	0	182452224	60	4163
2026-01-01 03:19:14.93	270.57	45.10	-48.7	-50.5	22.9	6.01e-01	0	60	0	184025088	60	4484
2026-01-01 03:19:15.90	270.07	44.89	-48.4	-50.1	23.4	6.03e-01	0	61	0	186122240	60	4243
2026-01-01 03:19:16.87	269.57	44.67	-48.3	-49.9	23.4	6.03e-01	0	61	0	187695104	60	4186
2026-01-01 03:19:17.84	269.09	44.46	-48.8	-50.5	23.2	6.02e-01	0	61	0	189792256	59	4758
2026-01-01 03:19:18.80	268.61	44.25	-48.6	-50.3	23.4	6.05e-01	0	61	0	191365120	59	4612
2026-01-01 03:19:19.77	268.14	44.03	-48.7	-50.4	23.4	6.04e-01	0	60	0	192937984	59	4686
2026-01-01 03:19:20.74	267.67	43.81	-48.5	-50.1	23.6	6.04e-01	0	61	0	195035136	59	4542
2026-01-01 03:19:21.70	267.22	43.60	-48.8	-50.6	23.1	6.02e-01	0	61	0	196608000	59	4792
2026-01-01 03:19:22.67	266.76	43.38	-48.7	-50.5	23.2	6.02e-01	0	61	0	198705152	59	4730
2026-01-01 03:19:23.64	266.32	43.16	-48.7	-50.5	23.2	6.03e-01	0	61	0	200278016	59	4724
2026-01-01 03:19:24.61	265.88	42.94	-48.5	-50.3	23.0	6.02e-01	0	61	0	202375168	60	4364
2026-01-01 03:19:25.58	265.44	42.72	-48.5	-50.3	23.1	6.05e-01	0	61	0	203948032	60	4359
2026-01-01 03:19:26.55	265.01	42.50	-48.5	-50.3	23.1	6.02e-01	0	61	0	206045184	60	4357
2026-01-01 03:19:27.51	264.59	42.28	-48.8	-50.6	22.8	6.03e-01	0	61	0	207618048	60	4541
2026-01-01 03:19:28.48	264.18	42.06	-48.7	-50.5	22.8	6.05e-01	0	61	0	209190912	60	4464
2026-01-01 03:19:29.45	263.76	41.84	-48.9	-50.8	22.6	6.02e-01	0	61	0	211288064	60	4636
2026-01-01 03:19:30.41	263.36	41.62	-49.0	-51.0	22.5	6.02e-01	0	61	0	212860928	60	4716
2026-01-01 03:19:31.38	262.96	41.39	-49.2	-51.1	22.3	6.04e-01	0	61	0	214958080	60	4802
2026-01-01 03:19:32.35	262.57	41.17	-49.3	-51.4	22.1	6.03e-01	0	61	0	216530944	60	4941
2026-01-01 03:19:33.31	262.18	40.95	-49.2	-51.2	22.1	6.03e-01	0	60	0	218628096	61	4567
2026-01-01 03:19:34.28	261.80	40.73	-49.2	-51.2	22.3	6.03e-01	0	61	0	220200960	61	4565
2026-01-01 03:19:35.24	261.43	40.51	-49.2	-51.2	22.2	6.05e-01	0	61	0	222298112	61	4575
2026-01-01 03:19:36.21	261.05	40.29	-49.4	-51.5	21.9	6.06e-01	0	61	0	223870976	61	4739
2026-01-01 03:19:37.18	260.68	40.06	-49.7	-52.0	21.5	6.03e-01	0	61	0	225968128	61	5000
2026-01-01 03:19:38.15	260.32	39.84	-49.7	-52.0	21.5	6.02e-01	0	61	0	227540992	61	4992
2026-01-01 03:19:39.12	259.96	39.62	-49.8	-52.1	21.4	6.04e-01	0	61	0	229638144	61	5050
2026-01-01 03:19:40.09	259.61	39.40	-49.6	-51.7	21.7	6.04e-01	0	61	0	231211008	61	4838
2026-01-01 03:19:41.06	259.26	39.18	-49.6	-51.8	21.7	6.05e-01	0	60	0	233308160	61	4889
2026-01-01 03:19:42.03	258.92	38.96	-50.1	-52.5	21.0	6.02e-01	0	60	0	234881024	62	5006
2026-01-01 03:19:42.99	258.59	38.74	-50.3	-52.9	20.6	6.03e-01	0	61	0	236978176	62	5258
2026-01-01 03:19:43.96	258.25	38.52	-49.9	-52.2	21.2	6.02e-01	0	61	0	238551040	62	4852
2026-01-01 03:19:44.92	257.93	38.30	-49.7	-51.9	21.5	6.02e-01	0	61	0	240123904	62	4663
2026-01-01 03:19:45.89	257.60	38.08	-49.7	-51.9	21.6	6.03e-01	0	61	0	242221056	62	4663
2026-01-01 03:19:46.86	257.28	37.86	-49.9	-52.1	21.3	6.03e-01	0	61	0	243793920	62	4804
2026-01-01 03:19:47.83	256.97	37.64	-49.7	-51.8	21.6	6.03e-01	0	61	0	245891072	62	4631
2026-01-01 03:19:48.80	256.66	37.43	-50.0	-52.3	21.1	6.03e-01	0	61	0	247463936	62	4920
2026-01-01 03:19:49.77	256.35	37.21	-50.2	-52.7	20.7	6.04e-01	0	61	0	249561088	62	5152
2026-01-01 03:19:50.74	256.05	36.99	-50.2	-52.6	20.8	6.03e-01	0	61	0	251133952	62	5096
2026-01-01 03:19:51.71	255.75	36.78	-50.0	-52.3	21.1	6.00e-01	0	61	0	253231104	62	4909
2026-01-01 03:19:52.68	255.45	36.56	-50.6	-53.2	20.3	6.04e-01	0	61	0	254803968	63	5138
2026-01-01 03:19:53.65	255.16	36.35	-50.8	-53.7	19.7	6.02e-01	0	61	0	256901120	63	5408
2026-01-01 03:19:54.62	254.87	36.13	-50.3	-52.9	20.5	6.04e-01	0	61	0	258473984	63	4961
2026-01-01 03:19:55.59	254.59	35.92	-49.6	-51.7	21.7	6.03e-01	0	61	0	260571136	62	4574
2026-01-01 03:19:56.56	254.31	35.71	-49.3	-51.4	22.1	6.05e-01	0	61	0	262144000	62	4403
2026-01-01 03:19:57.52	254.04	35.50	-49.6	-51.7	21.7	6.03e-01	0	61	0	263716864	62	4578
2026-01-01 03:19:58.49	253.77	35.28	-49.7	-52.0	21.5	6.00e-01	0	61	0	265814016	62	4711
2026-01-01 03:19:59.46	253.50	35.07	-49.5	-51.6	21.8	6.05e-01	0	61	0	267386880	62	4525
2026-01-01 03:20:00.42	253.24	34.87	-49.3	-51.4	22.0	6.03e-01	0	61	0	269484032	62	4394
2026-01-01 03:20:01.38	252.98	34.66	-49.5	-51.6	21.8	6.02e-01	0	61	0	271056896	62	4502
2026-01-01 03:20:02.36	252.72	34.45	-49.3	-51.4	22.0	6.02e-01	0	61	0	273154048	62	4395
2026-01-01 03:20:03.33	252.46	34.24	-48.8	-50.6	22.8	6.03e-01	0	61	0	274726912	61	4247
2026-01-01 03:20:04.30	252.21	34.04	-48.6	-50.4	22.9	6.02e-01	0	60	0	276824064	60	4425
2026-01-01 03:20:05.27	251.97	33.83	-49.0	-50.9	22.4	6.01e-01	0	61	0	278396928	60	4704
2026-01-01 03:20:06.23	251.72	33.63	-49.5	-51.6	21.8	6.01e-01	0	61	0	280494080	61	4805
2026-01-01 03:20:07.20	251.48	33.42	-49.2	-51.2	22.1	6.02e-01	0	61	0	282066944	61	4588
2026-01-01 03:20:08.17	251.24	33.22	-48.5	-50.3	23.0	6.02e-01	0	61	0	283639808	60	4371
2026-01-01 03:20:09.14	251.01	33.02	-48.2	-49.9	23.5	6.01e-01	0	61	0	285736960	60	4152
2026-01-01 03:20:10.11	250.78	32.82	-48.4	-50.1	23.3	6.03e-01	0	61	0	287309824	60	4253
2026-01-01 03:20:11.07	250.55	32.62	-48.5	-50.3	23.1	6.04e-01	0	61	0	289406976	60	4354
2026-01-01 03:20:12.04	250.32	32.42	-48.4	-50.1	23.3	6.00e-01	0	61	0	290979840	60	4252
2026-01-01 03:20:13.01	250.10	32.22	-48.6	-50.2	23.3	6.05e-01	0	61	0	293076992	59	4590
2026-01-01 03:20:13.98	249.88	32.03	-48.7	-50.4	23.3	6.03e-01	0	61	0	294649856	59	4669
2026-01-01 03:20:14.95	249.66	31.83	-48.7	-50.4	23.2	6.02e-01	0	61	0	296747008	59	4705
2026-01-01 03:20:15.92	249.45	31.63	-48.6	-50.4	23.1	5.99e-01	0	61	0	298319872	60	4392
2026-01-01 03:20:16.88	249.23	31.44	-48.6	-50.4	22.9	6.02e-01	0	61	0	300417024	60	4440
2026-01-01 03:20:17.85	249.02	31.25	-48.3	-49.9	23.4	6.02e-01	0	61	0	301989888	60	4187
2026-01-01 03:20:18.82	248.82	31.05	-48.5	-50.1	23.5	6.04e-01	0	61	0	304087040	59	4537
2026-01-01 03:20:19.78	248.61	30.86	-48.5	-50.2	23.5	6.02e-01	0	61	0	305659904	59	4587
2026-01-01 03:20:20.75	248.41	30.67	-48.7	-50.5	23.2	6.03e-01	0	61	0	307757056	59	4734
2026-01-01 03:20:21.72	248.21	30.48	-48.6	-50.3	23.3	6.05e-01	0	61	0	309329920	59	4612
2026-01-01 03:20:22.69	248.02	30.29	-48.2	-49.8	23.8	6.01e-01	0	61	0	310902784	59	4373
2026-01-01 03:20:23.66	247.82	30.11	-48.2	-49.7	23.9	6.03e-01	0	61	0	312999936	59	4339
2026-01-01 03:20:24.62	247.63	29.92	-48.5	-50.1	23.5	6.04e-01	0	61	0	314572800	59	4544
2026-01-01 03:20:25.59	247.44	29.73	-48.7	-50.5	23.2	6.04e-01	0	61	0	316669952	59	4736
2026-01-01 03:20:26.56	247.25	29.55	-48.8	-50.6	23.0	6.02e-01	0	61	0	318242816	59	4772
2026-01-01 03:20:27.52	247.07	29.37	-48.9	-50.7	23.0	6.01e-01	0	61	0	320339968	59	4822
2026-01-01 03:20:28.49	246.88	29.18	-48.8	-50.6	23.0	6.02e-01	0	61	0	321912832	59	4806
2026-01-01 03:20:29.46	246.70	29.00	-48.6	-50.3	23.0	6.03e-01	0	61	0	324009984	60	4369
2026-01-01 03:20:30.43	246.52	28.82	-48.9	-50.8	22.6	6.03e-01	0	61	0	325582848	60	4628
2026-01-01 03:20:31.40	246.35	28.64	-49.2	-51.2	22.1	6.00e-01	0	61	0	327680000	60	4832
2026-01-01 03:20:32.37	246.17	28.46	-49.1	-51.1	22.2	6.02e-01	0	61	0	329252864	60	4797
2026-01-01 03:20:33.33	246.00	28.28	-49.2	-51.2	22.1	6.01e-01	0	61	0	330825728	60	4844
2026-01-01 03:20:34.30	245.83	28.10	-48.8	-50.6	22.7	6.04e-01	0	61	0	332922880	60	4520
2026-01-01 03:20:35.27	245.66	27.93	-48.6	-50.3	23.0	6.02e-01	0	61	0	334495744	60	4376
2026-01-01 03:20:36.24	245.49	27.75	-48.8	-50.6	22.7	6.02e-01	0	61	0	336592896	60	4529
2026-01-01 03:20:37.21	245.33	27.58	-49.1	-51.1	22.2	6.05e-01	0	61	0	338165760	60	4798
2026-01-01 03:20:38.18	245.16	27.40	-49.1	-51.1	22.3	6.03e-01	0	61	0	340262912	60	4765
2026-01-01 03:20:39.15	245.00	27.23	-49.2	-51.3	22.0	6.01e-01	0	61	0	341835776	60	4894
2026-01-01 03:20:40.11	244.84	27.06	-48.8	-50.7	22.6	6.04e-01	0	61	0	343932928	60	4574
2026-01-01 03:20:41.08	244.69	26.89	-48.5	-50.3	23.0	6.03e-01	0	61	0	345505792	60	4352
2026-01-01 03:20:42.05	244.53	26.72	-48.4	-50.0	23.2	6.00e-01	0	61	0	347602944	60	4242
2026-01-01 03:20:43.02	244.38	26.55	-48.5	-50.2	23.1	6.02e-01	0	61	0	349175808	60	4318
2026-01-01 03:20:43.98	244.22	26.38	-48.5	-50.3	23.0	6.04e-01	0	61	0	350748672	60	4366
2026-01-01 03:20:44.95	244.07	26.21	-49.0	-50.9	22.5	6.04e-01	0	61	0	352845824	60	4671
2026-01-01 03:20:45.92	243.92	26.05	-48.8	-50.7	22.7	6.02e-01	0	61	0	354418688	60	4563
2026-01-01 03:20:46.89	243.78	25.88	-49.1	-51.1	22.3	6.05e-01	0	61	0	356515840	60	4765
2026-01-01 03:20:47.85	243.63	25.72	-48.9	-50.7	22.5	6.04e-01	0	61	0	358088704	60	4594
2026-01-01 03:20:48.82	243.49	25.56	-48.6	-50.5	22.9	6.05e-01	0	61	0	360185856	60	4444
2026-01-01 03:20:49.79	243.34	25.39	-48.4	-50.1	23.1	6.03e-01	0	61	0	361758720	60	4291
2026-01-01 03:20:50.76	243.20	25.23	-48.3	-50.0	23.3	6.01e-01	0	61	0	363855872	60	4199
2026-01-01 03:20:51.73	243.06	25.07	-48.3	-50.0	23.3	6.03e-01	0	61	0	365428736	60	4220
2026-01-01 03:20:52.69	242.93	24.91	-48.3	-50.0	23.2	6.04e-01	0	61	0	367525888	60	4233
2026-01-01 03:20:53.66	242.79	24.75	-48.4	-50.1	23.2	6.01e-01	0	61	0	369098752	60	4280
2026-01-01 03:20:54.63	242.65	24.59	-48.4	-50.2	23.1	6.02e-01	0	61	0	371195904	60	4313
2026-01-01 03:20:55.59	242.52	24.44	-48.5	-50.3	23.0	6.01e-01	0	61	0	372768768	60	4366
2026-01-01 03:20:56.55	242.39	24.28	-48.7	-50.5	22.8	6.03e-01	0	61	0	374865920	60	4464
2026-01-01 03:20:57.52	242.26	24.12	-48.7	-50.5	22.8	6.02e-01	0	61	0	376438784	60	4489
2026-01-01 03:20:58.50	242.13	23.97	-48.7	-50.6	22.7	6.03e-01	0	61	0	378535936	60	4509
2026-01-01 03:20:59.47	242.00	23.81	-48.9	-50.8	22.4	6.02e-01	0	61	0	380108800	60	4632
2026-01-01 03:21:00.44	241.87	23.66	-48.9	-50.8	22.4	6.02e-01	0	61	0	381681664	60	4649
2026-01-01 03:21:01.40	241.75	23.51	-48.6	-50.5	22.8	6.04e-01	0	61	0	383778816	60	4450
2026-01-01 03:21:02.37	241.62	23.36	-48.5	-50.3	23.0	6.01e-01	0	61	0	385351680	60	4350
2026-01-01 03:21:03.34	241.50	23.20	-48.4	-50.1	23.2	6.03e-01	0	61	0	387448832	60	4251
2026-01-01 03:21:04.30	241.38	23.06	-48.4	-50.1	23.2	6.02e-01	0	61	0	389021696	60	4250
2026-01-01 03:21:05.27	241.26	22.91	-48.5	-50.3	23.0	6.03e-01	0	61	0	391118848	60	4348
2026-01-01 03:21:06.24	241.14	22.76	-48.6	-50.4	22.9	6.04e-01	0	61	0	392691712	60	4394
2026-01-01 03:21:07.21	241.02	22.61	-48.8	-50.6	22.6	6.04e-01	0	61	0	394788864	60	4531
2026-01-01 03:21:08.18	240.90	22.46	-48.8	-50.7	22.6	6.03e-01	0	61	0	396361728	60	4554
2026-01-01 03:21:09.15	240.79	22.32	-48.8	-50.7	22.5	6.05e-01	0	61	0	398458880	60	4573
2026-01-01 03:21:10.11	240.68	22.17	-49.0	-50.9	22.3	6.04e-01	0	61	0	400031744	60	4691
2026-01-01 03:21:11.09	240.56	22.03	-48.7	-50.6	22.7	6.04e-01	0	61	0	402128896	60	4498
2026-01-01 03:21:12.05	240.45	21.88	-48.5	-50.4	22.9	6.02e-01	0	61	0	403701760	60	4392
2026-01-01 03:21:13.02	240.34	21.74	-48.5	-50.3	22.9	6.03e-01	0	61	0	405274624	60	4344
2026-01-01 03:21:13.99	240.23	21.60	-48.6	-50.3	22.9	6.04e-01	0	61	0	407371776	60	4390
2026-01-01 03:21:14.95	240.12	21.46	-48.4	-50.1	23.1	6.02e-01	0	61	0	408944640	60	4291
2026-01-01 03:21:15.92	240.01	21.32	-48.3	-50.1	23.2	6.04e-01	0	61	0	411041792	60	4251
2026-01-01 03:21:16.89	239.91	21.18	-48.4	-50.2	23.1	6.01e-01	0	61	0	412614656	60	4295
2026-01-01 03:21:17.86	239.80	21.04	-48.6	-50.4	22.8	6.00e-01	0	61	0	414711808	60	4424
2026-01-01 03:21:18.83	239.69	20.90	-48.6	-50.3	22.9	6.04e-01	0	61	0	416284672	60	4389
2026-01-01 03:21:19.79	239.59	20.76	-48.5	-50.3	22.9	6.03e-01	0	61	0	418381824	60	4355
2026-01-01 03:21:20.76	239.49	20.62	-48.6	-50.4	22.8	6.04e-01	0	61	0	419954688	60	4402
2026-01-01 03:21:21.73	239.39	20.49	-48.7	-50.6	22.7	6.02e-01	0	61	0	421527552	60	4496
2026-01-01 03:21:22.69	239.29	20.35	-48.6	-50.4	22.8	6.03e-01	0	61	0	423624704	60	4441
2026-01-01 03:21:23.66	239.19	20.22	-48.6	-50.4	22.8	6.01e-01	0	61	0	425197568	60	4404
2026-01-01 03:21:24.63	239.09	20.08	-48.6	-50.4	22.8	6.03e-01	0	61	0	427294720	60	4401
2026-01-01 03:21:25.59	238.99	19.95	-48.7	-50.5	22.7	6.06e-01	0	61	0	428867584	60	4469
2026-01-01 03:21:26.56	238.89	19.82	-48.6	-50.4	22.7	6.03e-01	0	61	0	430964736	60	4440
2026-01-01 03:21:27.53	238.80	19.69	-48.6	-50.5	22.7	6.01e-01	0	61	0	432537600	60	4464
2026-01-01 03:21:28.50	238.70	19.55	-48.8	-50.6	22.6	6.03e-01	0	61	0	434634752	60	4543
2026-01-01 03:21:29.47	238.61	19.42	-48.8	-50.7	22.6	6.02e-01	0	61	0	436207616	60	4548
2026-01-01 03:21:30.43	238.51	19.29	-48.7	-50.5	22.7	6.00e-01	0	61	0	438304768	60	4474
2026-01-01 03:21:31.40	238.42	19.16	-48.6	-50.4	22.8	6.03e-01	0	61	0	439877632	60	4416
2026-01-01 03:21:32.37	238.33	19.04	-48.6	-50.4	22.8	6.04e-01	0	61	0	441974784	60	4405
2026-01-01 03:21:33.34	238.24	18.91	-48.5	-50.4	22.8	6.02e-01	0	61	0	443547648	60	4393
2026-01-01 03:21:34.30	238.15	18.78	-48.6	-50.4	22.7	6.03e-01	0	61	0	445644800	60	4429
2026-01-01 03:21:35.28	238.06	18.65	-48.5	-50.3	22.8	6.02e-01	0	61	0	447217664	60	4378
2026-01-01 03:21:36.25	237.97	18.53	-48.8	-50.6	22.6	6.02e-01	0	61	0	449314816	60	4545
2026-01-01 03:21:37.21	237.88	18.40	-48.9	-50.9	22.3	6.03e-01	0	61	0	450887680	60	4655
2026-01-01 03:21:38.18	237.80	18.28	-48.7	-50.5	22.7	6.02e-01	0	61	0	452460544	60	4491
2026-01-01 03:21:39.15	237.71	18.15	-48.5	-50.3	22.8	6.04e-01	0	61	0	454557696	60	4380
2026-01-01 03:21:40.12	237.62	18.03	-48.5	-50.3	22.9	6.02e-01	0	61	0	456130560	60	4357
2026-01-01 03:21:41.09	237.54	17.90	-48.5	-50.2	22.9	6.03e-01	0	61	0	458227712	60	4340
2026-01-01 03:21:42.05	237.46	17.78	-48.5	-50.4	22.8	6.06e-01	0	61	0	459800576	60	4396
2026-01-01 03:21:43.02	237.37	17.66	-48.5	-50.3	22.9	6.02e-01	0	61	0	461897728	60	4351
2026-01-01 03:21:43.99	237.29	17.54	-48.5	-50.4	22.8	6.00e-01	0	61	0	463470592	60	4395
2026-01-01 03:21:44.95	237.21	17.42	-48.6	-50.5	22.7	6.01e-01	0	61	0	465567744	60	4451
2026-01-01 03:21:45.92	237.13	17.30	-48.5	-50.3	22.8	6.04e-01	0	61	0	467140608	60	4380
2026-01-01 03:21:46.89	237.05	17.18	-48.7	-50.5	22.6	6.02e-01	0	61	0	469237760	60	4487
2026-01-01 03:21:47.86	236.97	17.06	-48.8	-50.8	22.3	6.03e-01	0	61	0	470810624	60	4622
2026-01-01 03:21:48.83	236.89	16.94	-48.9	-50.8	22.3	6.02e-01	0	61	0	472907776	60	4629
2026-01-01 03:21:49.81	236.81	16.82	-48.9	-50.8	22.3	6.05e-01	0	61	0	474480640	60	4637
2026-01-01 03:21:50.77	236.73	16.71	-48.9	-50.8	22.3	6.02e-01	0	61	0	476053504	60	4647
2026-01-01 03:21:51.74	236.66	16.59	-48.9	-50.9	22.2	6.02e-01	0	61	0	478150656	60	4690
2026-01-01 03:21:52.71	236.58	16.47	-48.9	-50.9	22.2	6.04e-01	0	61	0	479723520	60	4674
2026-01-01 03:21:53.67	236.50	16.36	-49.0	-51.0	22.1	6.02e-01	0	61	0	481820672	60	4721
2026-01-01 03:21:54.64	236.43	16.24	-49.1	-51.2	21.9	6.02e-01	0	61	0	483393536	60	4856
2026-01-01 03:21:55.61	236.36	16.13	-49.1	-51.2	21.9	6.05e-01	0	61	0	485490688	60	4859
2026-01-01 03:21:56.57	236.28	16.02	-48.9	-51.0	22.1	6.02e-01	0	61	0	487063552	60	4713
2026-01-01 03:21:57.54	236.21	15.90	-48.7	-50.7	22.3	6.01e-01	0	61	0	489160704	60	4569
2026-01-01 03:21:58.51	236.14	15.79	-48.7	-50.6	22.4	6.03e-01	0	61	0	490733568	60	4522
2026-01-01 03:21:59.48	236.06	15.68	-48.8	-50.7	22.3	6.03e-01	0	61	0	492306432	60	4583
2026-01-01 03:22:00.44	235.99	15.57	-48.8	-50.7	22.2	6.04e-01	0	62	0	494403584	60	4587
2026-01-01 03:22:01.41	235.92	15.46	-48.7	-50.6	22.3	6.00e-01	0	61	0	495976448	60	4534
2026-01-01 03:22:02.38	235.85	15.34	-48.8	-50.8	22.2	6.03e-01	0	62	0	498073600	60	4599
2026-01-01 03:22:03.34	235.78	15.24	-48.6	-50.5	22.4	6.02e-01	0	61	0	499646464	60	4493
2026-01-01 03:22:04.31	235.71	15.13	-48.6	-50.6	22.4	6.02e-01	0	61	0	501743616	60	4495
2026-01-01 03:22:05.28	235.65	15.02	-48.7	-50.6	22.3	6.02e-01	0	61	0	503316480	60	4544
2026-01-01 03:22:06.25	235.58	14.91	-48.9	-50.9	22.0	6.02e-01	0	61	0	505413632	60	4692
2026-01-01 03:22:07.21	235.51	14.80	-48.8	-50.8	22.1	6.03e-01	0	61	0	506986496	60	4606
2026-01-01 03:22:08.18	235.44	14.69	-48.9	-50.9	21.9	6.04e-01	0	61	0	509083648	60	4698
2026-01-01 03:22:09.16	235.38	14.58	-48.7	-50.7	22.2	6.03e-01	0	61	0	510656512	60	4564
2026-01-01 03:22:10.13	235.31	14.48	-48.6	-50.6	22.2	6.05e-01	0	61	0	512753664	60	4530
2026-01-01 03:22:11.10	235.25	14.37	-48.6	-50.5	22.3	6.03e-01	0	61	0	514326528	60	4472
2026-01-01 03:22:12.07	235.18	14.26	-48.7	-50.7	22.2	6.01e-01	0	61	0	516423680	60	4571
2026-01-01 03:22:13.04	235.12	14.16	-48.6	-50.6	22.2	6.02e-01	0	61	0	517996544	60	4529
2026-01-01 03:22:14.00	235.05	14.05	-48.6	-50.6	22.3	6.03e-01	0	61	0	520093696	60	4504
2026-01-01 03:22:14.97	234.99	13.95	-48.6	-50.6	22.3	6.03e-01	0	61	0	521666560	60	4501
2026-01-01 03:22:15.93	234.93	13.85	-48.7	-50.7	22.2	6.04e-01	0	61	0	523239424	60	4558
2026-01-01 03:22:16.90	234.87	13.74	-48.8	-50.8	22.0	6.03e-01	0	61	0	525336576	60	4634
2026-01-01 03:22:17.87	234.80	13.64	-49.0	-51.1	21.7	6.02e-01	0	61	0	526909440	60	4808
2026-01-01 03:22:18.84	234.74	13.54	-48.9	-51.0	21.7	6.02e-01	0	61	0	529006592	60	4738
2026-01-01 03:22:19.81	234.68	13.43	-48.9	-51.0	21.8	6.02e-01	0	61	0	530579456	60	4709
2026-01-01 03:22:20.78	234.62	13.33	-49.0	-51.1	21.7	6.04e-01	0	61	0	532676608	60	4786
2026-01-01 03:22:21.75	234.56	13.23	-49.1	-51.4	21.4	6.01e-01	0	61	0	534249472	60	4931
2026-01-01 03:22:22.72	234.50	13.13	-49.2	-51.4	21.4	6.04e-01	0	61	0	536346624	60	4949
2026-01-01 03:22:23.68	234.44	13.03	-49.2	-51.5	21.3	6.02e-01	0	61	0	537919488	60	5019
2026-01-01 03:22:24.66	234.39	12.93	-49.2	-51.5	21.3	6.03e-01	0	61	0	540016640	60	5005
2026-01-01 03:22:25.62	234.33	12.83	-49.3	-51.6	21.2	6.02e-01	0	61	0	541589504	60	5068
2026-01-01 03:22:26.59	234.27	12.73	-49.5	-51.9	20.9	6.02e-01	0	61	0	543686656	61	4974
2026-01-01 03:22:27.56	234.21	12.63	-49.6	-52.1	20.7	6.01e-01	0	61	0	545259520	61	5046
2026-01-01 03:22:28.52	234.16	12.54	-49.4	-51.8	20.9	6.04e-01	0	62	0	546832384	61	4922
2026-01-01 03:22:29.49	234.10	12.44	-49.4	-51.8	20.9	6.03e-01	0	61	0	548929536	61	4904
2026-01-01 03:22:30.47	234.04	12.34	-49.4	-51.8	20.9	6.03e-01	0	62	0	550502400	61	4912
2026-01-01 03:22:31.43	233.99	12.24	-49.5	-52.0	20.7	6.03e-01	0	61	0	552599552	61	5012
2026-01-01 03:22:32.40	233.93	12.15	-49.5	-52.0	20.7	6.04e-01	0	61	0	554172416	61	5006
2026-01-01 03:22:33.37	233.88	12.05	-49.6	-52.1	20.6	6.02e-01	0	61	0	556269568	61	5064
2026-01-01 03:22:34.33	233.83	11.95	-49.7	-52.3	20.4	6.02e-01	0	61	0	557842432	61	5188
2026-01-01 03:22:35.30	233.77	11.86	-49.6	-52.2	20.4	6.03e-01	0	62	0	559939584	61	5142
2026-01-01 03:22:36.27	233.72	11.76	-49.9	-52.6	20.1	6.01e-01	0	61	0	561512448	61	5356
2026-01-01 03:22:37.24	233.67	11.67	-50.1	-52.9	19.7	6.02e-01	0	61	0	563609600	62	5278
2026-01-01 03:22:38.20	233.61	11.57	-49.9	-52.6	20.1	6.02e-01	0	61	0	565182464	62	5049
2026-01-01 03:22:39.17	233.56	11.48	-49.9	-52.6	20.0	6.04e-01	0	62	0	566755328	62	5090
2026-01-01 03:22:40.14	233.51	11.39	-49.9	-52.6	20.0	6.04e-01	0	61	0	568852480	62	5068
2026-01-01 03:22:41.10	233.46	11.29	-49.8	-52.5	20.0	6.03e-01	0	62	0	570425344	62	5038
2026-01-01 03:22:42.07	233.41	11.20	-49.9	-52.7	19.9	6.04e-01	0	61	0	572522496	62	5138
2026-01-01 03:22:43.04	233.36	11.11	-49.9	-52.7	19.9	6.02e-01	0	61	0	574095360	62	5119
2026-01-01 03:22:44.01	233.31	11.02	-50.0	-52.9	19.7	6.02e-01	0	61	0	576192512	62	5239
2026-01-01 03:22:44.98	233.26	10.92	-50.3	-53.4	19.1	6.04e-01	0	61	0	577765376	62	5578
2026-01-01 03:22:45.95	233.21	10.83	-50.1	-53.0	19.5	6.02e-01	0	62	0	579862528	62	5314
2026-01-01 03:22:46.92	233.16	10.74	-50.0	-52.9	19.6	6.02e-01	0	61	0	581435392	62	5230
2026-01-01 03:22:47.89	233.11	10.65	-49.9	-52.8	19.6	6.01e-01	0	61	0	583532544	62	5215
2026-01-01 03:22:48.86	233.06	10.56	-49.8	-52.7	19.7	6.05e-01	0	62	0	585105408	62	5116
2026-01-01 03:22:49.83	233.01	10.47	-49.9	-52.8	19.6	6.03e-01	0	61	0	587202560	62	5212
2026-01-01 03:22:50.80	232.96	10.38	-50.2	-53.3	19.2	6.03e-01	0	62	0	588775424	62	5472
2026-01-01 03:22:51.77	232.91	10.29	-50.1	-53.2	19.2	6.04e-01	0	62	0	590872576	62	5407
2026-01-01 03:22:52.74	232.87	10.20	-50.2	-53.2	19.1	6.04e-01	0	62	0	592445440	62	5464
2026-01-01 03:22:53.71	232.82	10.11	-50.1	-53.3	19.1	6.03e-01	0	62	0	594018304	62	5471
2026-01-01 03:22:54.68	232.77	10.02	-50.2	-53.4	18.9	6.03e-01	0	61	0	596115456	62	5570
2026-01-01 03:22:55.65	232.73	9.94	-50.2	-53.4	18.8	6.01e-01	0	62	0	597688320	62	5579
2026-01-01 03:22:56.62	232.68	9.85	-50.3	-53.5	18.8	6.02e-01	0	62	0	599785472	62	5627
2026-01-01 03:22:57.60	232.64	9.76	-50.3	-53.6	18.7	6.01e-01	0	61	0	601358336	62	5671
2026-01-01 03:22:58.57	232.59	9.67	-50.2	-53.4	18.9	6.02e-01	0	61	0	603455488	62	5545
2026-01-01 03:22:59.53	232.55	9.59	-50.0	-53.2	19.1	6.02e-01	0	62	0	605028352	62	5408
2026-01-01 03:23:00.50	232.50	9.50	-50.0	-53.0	19.2	6.04e-01	0	61	0	607125504	62	5333
2026-01-01 03:23:01.47	232.46	9.41	-49.9	-53.0	19.1	6.04e-01	0	62	0	608698368	62	5332
2026-01-01 03:23:02.44	232.41	9.33	-50.0	-53.2	19.0	6.03e-01	0	62	0	610795520	62	5434
2026-01-01 03:23:03.41	232.37	9.24	-50.2	-53.5	18.7	6.01e-01	0	62	0	612368384	62	5631
2026-01-01 03:23:04.38	232.32	9.16	-50.1	-53.4	18.7	6.04e-01	0	62	0	614465536	62	5574
2026-01-01 03:23:05.35	232.28	9.07	-50.2	-53.5	18.7	6.01e-01	0	62	0	616038400	62	5606
2026-01-01 03:23:06.32	232.24	8.99	-50.2	-53.6	18.5	6.04e-01	0	62	0	618135552	62	5705
2026-01-01 03:23:07.29	232.20	8.90	-50.1	-53.5	18.7	6.02e-01	0	61	0	619708416	62	5593
2026-01-01 03:23:08.25	232.15	8.82	-50.1	-53.4	18.7	6.02e-01	0	61	0	621805568	62	5551
2026-01-01 03:23:09.22	232.11	8.74	-50.2	-53.5	18.6	6.02e-01	0	62	0	623378432	62	5619
2026-01-01 03:23:10.19	232.07	8.65	-50.3	-53.7	18.3	6.03e-01	0	62	0	624951296	62	5786
2026-01-01 03:23:11.16	232.03	8.57	-50.5	-54.2	17.9	6.01e-01	0	62	0	627048448	63	5726
2026-01-01 03:23:12.13	231.99	8.49	-50.6	-54.4	17.6	6.05e-01	0	62	0	628621312	63	5922
2026-01-01 03:23:13.10	231.95	8.41	-50.5	-54.3	17.8	6.03e-01	0	62	0	630718464	63	5811
2026-01-01 03:23:14.07	231.90	8.32	-50.7	-54.6	17.4	6.04e-01	0	62	0	632291328	63	6034
2026-01-01 03:23:15.04	231.86	8.24	-50.6	-54.4	17.6	6.03e-01	0	62	0	634388480	63	5905
2026-01-01 03:23:16.00	231.82	8.16	-50.7	-54.7	17.4	6.02e-01	0	62	0	635961344	63	6076
2026-01-01 03:23:16.96	231.78	8.08	-50.6	-54.6	17.5	6.03e-01	0	62	0	638058496	63	5999
2026-01-01 03:23:17.93	231.74	8.00	-50.6	-54.6	17.4	6.05e-01	0	61	0	639631360	63	5997
2026-01-01 03:23:18.90	231.71	7.92	-50.7	-54.7	17.3	6.03e-01	0	62	0	641728512	63	6073
2026-01-01 03:23:19.86	231.67	7.84	-50.7	-54.8	17.2	6.03e-01	0	62	0	643301376	63	6135
2026-01-01 03:23:20.83	231.63	7.76	-50.8	-55.2	16.7	6.04e-01	0	62	0	644874240	64	6095
2026-01-01 03:23:21.80	231.59	7.68	-50.8	-55.0	16.9	6.04e-01	0	62	0	646971392	64	5958
2026-01-01 03:23:22.76	231.55	7.60	-50.6	-54.8	17.1	6.04e-01	0	62	0	648544256	64	5789
2026-01-01 03:23:23.73	231.51	7.52	-50.5	-54.6	17.2	6.01e-01	0	62	0	650641408	64	5683
2026-01-01 03:23:24.70	231.47	7.44	-50.5	-54.6	17.1	6.03e-01	0	62	0	652214272	64	5716
2026-01-01 03:23:25.66	231.44	7.36	-50.6	-54.8	17.0	6.02e-01	0	62	0	654311424	64	5807
2026-01-01 03:23:26.63	231.40	7.28	-50.7	-55.0	16.8	6.02e-01	0	62	0	655884288	64	5967
2026-01-01 03:23:27.60	231.36	7.20	-50.7	-55.1	16.7	6.01e-01	0	62	0	657981440	64	6014
2026-01-01 03:23:28.56	231.33	7.13	-50.7	-55.1	16.6	6.04e-01	0	62	0	659554304	64	6056
2026-01-01 03:23:29.53	231.29	7.05	-50.8	-55.2	16.4	6.04e-01	0	62	0	661651456	64	6126
2026-01-01 03:23:30.50	231.25	6.97	-50.7	-55.2	16.5	6.01e-01	0	61	0	663224320	64	6076
2026-01-01 03:23:31.47	231.22	6.89	-50.9	-55.6	16.1	6.04e-01	0	62	0	664797184	64	6383
2026-01-01 03:23:32.44	231.18	6.82	-51.0	-55.7	16.0	6.04e-01	0	62	0	666894336	64	6464
2026-01-01 03:23:33.40	231.14	6.74	-51.0	-55.8	15.9	6.02e-01	0	62	0	668467200	64	6538
2026-01-01 03:23:34.37	231.11	6.66	-51.0	-56.0	15.7	6.04e-01	0	62	0	670564352	64	6651
2026-01-01 03:23:35.34	231.07	6.59	-51.0	-55.9	15.7	6.01e-01	0	62	0	672137216	64	6634
2026-01-01 03:23:36.31	231.04	6.51	-51.1	-56.1	15.5	6.04e-01	0	62	0	674234368	64	6777
2026-01-01 03:23:37.28	231.00	6.43	-51.1	-56.1	15.5	6.03e-01	0	62	0	675807232	64	6798
2026-01-01 03:23:38.24	230.97	6.36	-51.1	-56.4	15.1	6.04e-01	0	62	0	677904384	64	7039
2026-01-01 03:23:39.21	230.93	6.28	-51.1	-56.5	15.1	6.02e-01	0	62	0	679477248	64	7054
2026-01-01 03:23:40.17	230.90	6.21	-51.2	-56.6	14.9	6.05e-01	0	62	0	681574400	64	7194
2026-01-01 03:23:41.15	230.87	6.13	-51.3	-56.9	14.6	6.05e-01	0	62	0	683147264	64	7432
2026-01-01 03:23:42.12	230.83	6.06	-51.3	-56.9	14.7	6.03e-01	0	62	0	685244416	64	7416
2026-01-01 03:23:43.08	230.80	5.99	-51.2	-56.6	14.9	6.03e-01	0	62	0	686817280	64	7204
2026-01-01 03:23:44.06	230.76	5.91	-51.3	-57.1	14.4	6.03e-01	0	62	0	688914432	64	7551
2026-01-01 03:23:45.02	230.73	5.84	-51.1	-56.7	14.8	6.05e-01	0	62	0	690487296	64	7210
2026-01-01 03:23:45.99	230.70	5.76	-51.4	-57.4	14.1	6.06e-01	0	62	0	692584448	64	7848
2026-01-01 03:23:46.96	230.67	5.69	-51.3	-57.1	14.3	6.06e-01	0	62	0	694157312	64	7596
2026-01-01 03:23:47.93	230.63	5.62	-51.2	-56.8	14.7	6.04e-01	0	62	0	695730176	64	7323
2026-01-01 03:23:48.89	230.60	5.54	-51.1	-56.7	14.8	6.01e-01	0	62	0	697827328	64	7249
2026-01-01 03:23:49.86	230.57	5.47	-51.2	-56.9	14.6	6.05e-01	0	62	0	699400192	64	7378
2026-01-01 03:23:50.84	230.54	5.40	-51.1	-56.8	14.6	6.03e-01	0	62	0	701497344	64	7301
2026-01-01 03:23:51.81	230.50	5.32	-51.1	-56.7	14.7	6.03e-01	0	62	0	703070208	64	7287
2026-01-01 03:23:52.77	230.47	5.25	-51.2	-56.9	14.4	6.04e-01	0	62	0	705167360	64	7445
