passes_logs/2026/01/01/R3.0SM8_Murmansk_STILSPACE/R3.0SM8_Murmansk_STILSPACE__20260101_211452_NOAA_20_JPSS-1_rec.log

#Pass ID: 20260101_211452_NOAA 20 (JPSS-1)
#Satellite: NOAA 20 (JPSS-1)
#Configuration: NOAA 20
#almurnet v.1.7.20240730
#Start time: 2026-01-01 21:14:54

#Version: 2.2.20231116
#Station: R3.0SM8_Murmansk_STILSPACE
#Location: 33.092731 lon 68.902999 lat
#TLE: 1 43013U 17073A   26001.30344297  .00000183  00000+0  10758-3 0  9995
#TLE: 2 43013  98.7621 302.3885 0001938  59.1624 300.9742 14.19532032420790

#Time	Az	El	Level	Level2	SNR	BER	BlckErr	Temp	State	Recorded	gain1	gain2
2026-01-01 21:14:54.45	20.93	3.07	-52.3	-66.2	3.8	1.49e+00	0	46	0	0	66	18825
2026-01-01 21:14:55.42	21.04	3.11	-52.3	-66.2	3.8	1.49e+00	0	46	104	0	67	17761
2026-01-01 21:14:56.42	21.14	3.15	-52.3	-66.1	3.8	1.49e+00	0	46	104	0	67	17648
2026-01-01 21:14:57.40	21.25	3.19	-52.2	-66.1	3.8	1.49e+00	0	46	104	0	67	17611
2026-01-01 21:14:58.40	21.35	3.24	-52.2	-66.1	3.8	1.49e+00	0	46	104	0	67	17596
2026-01-01 21:14:59.38	21.46	3.28	-52.2	-66.1	3.8	1.49e+00	0	46	104	0	66	18604
2026-01-01 21:15:00.37	21.57	3.32	-52.2	-66.1	3.8	1.49e+00	0	46	104	0	66	18520
2026-01-01 21:15:01.36	21.67	3.37	-51.9	-65.7	3.8	1.49e+00	0	47	104	0	66	17794
2026-01-01 21:15:02.35	21.78	3.41	-52.2	-66.0	3.8	1.49e+00	0	47	104	0	66	18317
2026-01-01 21:15:03.34	21.89	3.45	-52.1	-66.0	3.8	1.49e+00	0	47	104	0	66	18434
2026-01-01 21:15:04.33	21.99	3.50	-52.1	-66.0	3.8	1.49e+00	0	47	104	0	66	18414
2026-01-01 21:15:05.32	22.10	3.54	-52.1	-66.0	3.8	1.49e+00	0	47	104	0	66	18365
2026-01-01 21:15:06.31	22.21	3.58	-52.1	-65.9	3.8	1.49e+00	0	47	104	0	66	18210
2026-01-01 21:15:07.30	22.32	3.63	-52.0	-65.9	3.8	1.49e+00	0	47	104	0	66	18124
2026-01-01 21:15:08.29	22.43	3.67	-51.9	-65.8	3.8	1.49e+00	0	47	104	0	66	17933
2026-01-01 21:15:09.28	22.54	3.71	-51.9	-65.7	3.8	1.49e+00	0	47	104	0	66	17727
2026-01-01 21:15:10.26	22.65	3.76	-51.7	-65.5	3.8	1.49e+00	0	47	104	0	66	17363
2026-01-01 21:15:11.25	22.76	3.80	-51.4	-65.2	3.8	1.49e+00	0	47	104	0	65	17820
2026-01-01 21:15:12.25	22.87	3.84	-51.2	-65.2	3.8	1.49e+00	0	47	104	0	65	17787
2026-01-01 21:15:13.24	22.98	3.89	-51.2	-65.1	3.8	1.49e+00	0	47	104	0	65	17677
2026-01-01 21:15:14.23	23.09	3.93	-51.3	-65.1	3.8	1.49e+00	0	47	104	0	65	17585
2026-01-01 21:15:15.23	23.20	3.97	-51.4	-65.1	3.8	1.49e+00	0	48	104	0	65	17493
2026-01-01 21:15:16.22	23.31	4.02	-51.4	-65.0	3.8	1.49e+00	0	47	104	0	65	17416
2026-01-01 21:15:17.20	23.42	4.06	-51.3	-65.0	3.8	1.49e+00	0	48	104	0	65	17288
2026-01-01 21:15:18.19	23.53	4.10	-51.4	-64.9	3.8	1.49e+00	0	48	104	0	65	17246
2026-01-01 21:15:19.17	23.64	4.14	-51.4	-64.9	3.8	1.49e+00	0	48	104	0	65	17162
2026-01-01 21:15:20.17	23.76	4.19	-51.2	-65.0	3.8	1.49e+00	0	48	104	0	65	17287
2026-01-01 21:15:21.16	23.87	4.23	-51.1	-65.1	3.8	1.49e+00	0	47	104	0	65	17500
2026-01-01 21:15:22.15	23.98	4.27	-51.3	-65.1	3.8	1.49e+00	0	48	104	0	65	17613
2026-01-01 21:15:23.14	24.10	4.32	-51.2	-65.2	3.8	1.49e+00	0	48	104	0	65	17686
2026-01-01 21:15:24.13	24.21	4.36	-51.3	-65.1	3.8	1.49e+00	0	48	104	0	65	17665
2026-01-01 21:15:25.12	24.33	4.40	-51.2	-65.0	3.8	1.49e+00	0	48	104	0	65	17438
2026-01-01 21:15:26.12	24.44	4.45	-51.2	-64.9	3.8	1.49e+00	0	48	104	0	65	17247
2026-01-01 21:15:27.10	24.56	4.49	-51.2	-64.9	3.8	1.49e+00	0	48	104	0	65	17275
2026-01-01 21:15:28.08	24.67	4.53	-51.3	-64.9	3.8	1.49e+00	0	48	104	0	65	17259
2026-01-01 21:15:29.07	24.78	4.57	-51.3	-65.0	3.8	1.49e+00	0	48	104	0	65	17422
2026-01-01 21:15:30.05	24.90	4.62	-51.4	-65.0	3.8	1.49e+00	0	48	104	0	65	17468
2026-01-01 21:15:31.04	25.02	4.66	-51.2	-65.0	3.8	1.49e+00	0	49	104	0	65	17335
2026-01-01 21:15:32.02	25.13	4.70	-51.2	-64.6	3.8	1.49e+00	0	48	104	0	65	16672
2026-01-01 21:15:33.01	25.25	4.74	-51.2	-63.7	3.8	1.49e+00	0	49	104	0	65	14910
2026-01-01 21:15:34.00	25.36	4.79	-51.2	-62.3	4.0	1.48e+00	0	48	104	0	65	12695
2026-01-01 21:15:34.99	25.48	4.83	-51.0	-60.4	4.6	1.35e+00	0	49	0	0	64	10797
2026-01-01 21:15:35.98	25.60	4.87	-50.6	-58.6	5.6	5.28e-01	0	49	0	2097152	64	8772
2026-01-01 21:15:36.97	25.72	4.91	-50.4	-57.2	6.8	2.49e-01	0	49	0	4194304	63	7907
2026-01-01 21:15:37.97	25.84	4.96	-50.2	-56.0	8.0	1.01e-01	0	49	0	6291456	63	6910
2026-01-01 21:15:38.96	25.96	5.00	-49.9	-55.0	9.0	4.66e-02	0	49	0	7340032	62	6521
2026-01-01 21:15:39.95	26.07	5.04	-49.9	-55.0	9.0	2.24e-02	0	49	0	9437184	62	6512
2026-01-01 21:15:40.94	26.19	5.09	-50.0	-55.3	8.7	2.83e-02	0	49	0	11534336	62	6799
2026-01-01 21:15:41.93	26.31	5.13	-49.9	-55.0	9.0	3.39e-02	0	49	0	13631488	62	6542
2026-01-01 21:15:42.92	26.43	5.17	-49.7	-54.5	9.5	1.93e-02	0	49	0	14680064	62	6142
2026-01-01 21:15:43.91	26.55	5.21	-49.7	-54.4	9.7	1.14e-02	0	49	0	16777216	62	6069
2026-01-01 21:15:44.90	26.68	5.25	-49.8	-54.8	9.2	1.46e-02	0	49	0	18874368	62	6409
2026-01-01 21:15:45.89	26.80	5.30	-50.0	-55.3	8.7	2.28e-02	0	49	0	20971520	62	6770
2026-01-01 21:15:46.88	26.92	5.34	-49.9	-54.9	9.1	3.12e-02	0	49	0	22020096	62	6457
2026-01-01 21:15:47.87	27.04	5.38	-49.6	-54.2	9.9	1.14e-02	0	49	0	24117248	62	5940
2026-01-01 21:15:48.85	27.16	5.42	-49.4	-53.5	10.6	5.41e-03	0	49	0	26214400	61	5807
2026-01-01 21:15:49.84	27.28	5.47	-49.2	-53.1	11.0	2.82e-03	0	49	0	28311552	61	5578
2026-01-01 21:15:50.84	27.41	5.51	-49.1	-52.8	11.3	1.30e-03	0	49	0	30408704	61	5361
2026-01-01 21:15:51.83	27.53	5.55	-48.8	-52.4	11.8	6.98e-04	0	49	0	31457280	60	5421
2026-01-01 21:15:52.82	27.65	5.59	-48.7	-52.1	12.0	3.89e-04	0	49	0	33554432	60	5242
2026-01-01 21:15:53.81	27.78	5.63	-48.7	-52.1	12.0	3.21e-04	0	49	0	35651584	60	5253
2026-01-01 21:15:54.80	27.90	5.68	-48.7	-52.3	11.9	3.81e-04	0	50	0	37748736	60	5354
2026-01-01 21:15:55.79	28.03	5.72	-48.7	-52.1	12.0	3.92e-04	0	50	0	38797312	60	5230
2026-01-01 21:15:56.78	28.15	5.76	-48.4	-51.6	12.6	1.36e-04	0	50	0	40894464	59	5232
2026-01-01 21:15:57.77	28.27	5.80	-48.3	-51.3	12.9	7.62e-05	0	50	0	42991616	59	5093
2026-01-01 21:15:58.76	28.40	5.84	-48.3	-51.3	12.9	4.34e-05	0	50	0	45088768	59	5058
2026-01-01 21:15:59.75	28.53	5.89	-48.4	-51.5	12.7	4.57e-05	0	50	0	46137344	59	5175
2026-01-01 21:16:00.74	28.65	5.93	-48.5	-51.4	12.7	8.85e-05	0	50	0	48234496	59	5134
2026-01-01 21:16:01.73	28.78	5.97	-48.5	-51.5	12.7	8.39e-05	0	50	0	50331648	59	5204
2026-01-01 21:16:02.73	28.91	6.01	-48.6	-51.8	12.5	1.24e-04	0	50	0	52428800	59	5378
2026-01-01 21:16:03.71	29.03	6.05	-48.5	-51.7	12.6	1.50e-04	0	50	0	54525952	59	5280
2026-01-01 21:16:04.70	29.16	6.09	-48.3	-51.3	12.9	7.01e-05	0	50	0	55574528	59	5071
2026-01-01 21:16:05.70	29.29	6.14	-48.2	-51.1	13.2	2.05e-05	0	50	0	57671680	59	4949
2026-01-01 21:16:06.69	29.42	6.18	-48.2	-50.9	13.3	2.05e-05	0	50	0	59768832	59	4866
2026-01-01 21:16:07.68	29.55	6.22	-48.2	-50.9	13.3	1.67e-05	0	50	0	61865984	59	4842
2026-01-01 21:16:08.67	29.68	6.26	-48.1	-50.8	13.4	2.05e-05	0	50	0	62914560	59	4794
2026-01-01 21:16:09.66	29.80	6.30	-48.1	-50.8	13.4	1.14e-05	0	50	0	65011712	59	4785
2026-01-01 21:16:10.66	29.94	6.34	-48.1	-50.7	13.5	8.30e-06	0	51	0	67108864	59	4747
2026-01-01 21:16:11.65	30.07	6.38	-48.1	-50.9	13.4	1.29e-05	0	50	0	69206016	59	4832
2026-01-01 21:16:12.64	30.20	6.42	-48.1	-50.9	13.3	1.67e-05	0	50	0	71303168	59	4850
2026-01-01 21:16:13.62	30.33	6.46	-48.2	-50.9	13.4	1.37e-05	0	50	0	72351744	59	4844
2026-01-01 21:16:14.61	30.46	6.51	-48.3	-51.2	13.1	1.83e-05	0	51	0	74448896	59	5031
2026-01-01 21:16:15.60	30.59	6.55	-48.3	-51.2	13.1	2.74e-05	0	51	0	76546048	59	5019
2026-01-01 21:16:16.59	30.72	6.59	-48.3	-51.2	13.1	2.97e-05	0	51	0	78643200	59	5007
2026-01-01 21:16:17.57	30.85	6.63	-48.3	-51.2	13.1	2.67e-05	0	51	0	79691776	59	5022
2026-01-01 21:16:18.57	30.98	6.67	-48.4	-51.3	13.0	3.50e-05	0	51	0	81788928	59	5074
2026-01-01 21:16:19.55	31.12	6.71	-48.4	-51.4	13.0	3.43e-05	0	51	0	83886080	59	5112
2026-01-01 21:16:20.54	31.25	6.75	-48.4	-51.3	13.0	2.74e-05	0	51	0	85983232	59	5052
2026-01-01 21:16:21.52	31.38	6.79	-48.5	-51.3	13.0	2.97e-05	0	51	0	87031808	59	5095
2026-01-01 21:16:22.51	31.51	6.83	-48.3	-51.2	13.1	3.28e-05	0	51	0	89128960	59	5004
2026-01-01 21:16:23.50	31.65	6.87	-48.3	-51.0	13.4	1.22e-05	0	51	0	91226112	59	4884
2026-01-01 21:16:24.49	31.78	6.91	-48.2	-51.0	13.4	1.67e-05	0	51	0	93323264	59	4871
2026-01-01 21:16:25.48	31.92	6.95	-48.4	-51.3	13.1	3.05e-05	0	51	0	94371840	59	5048
2026-01-01 21:16:26.48	32.06	6.99	-48.4	-51.4	12.9	6.17e-05	0	51	0	96468992	59	5138
2026-01-01 21:16:27.47	32.19	7.03	-48.5	-51.4	13.0	3.35e-05	0	51	0	98566144	59	5121
2026-01-01 21:16:28.46	32.33	7.07	-48.6	-51.7	12.7	6.86e-05	0	51	0	100663296	59	5298
2026-01-01 21:16:29.44	32.46	7.11	-48.6	-51.7	12.6	8.69e-05	0	51	0	102760448	59	5314
2026-01-01 21:16:30.42	32.60	7.15	-48.6	-51.7	12.6	8.85e-05	0	51	0	103809024	59	5300
2026-01-01 21:16:31.41	32.73	7.19	-48.7	-51.8	12.5	9.61e-05	0	51	0	105906176	59	5394
2026-01-01 21:16:32.38	32.87	7.23	-48.7	-51.9	12.5	1.33e-04	0	51	0	108003328	59	5423
2026-01-01 21:16:33.37	33.01	7.27	-48.7	-51.7	12.7	8.08e-05	0	51	0	110100480	59	5296
2026-01-01 21:16:34.36	33.15	7.31	-48.5	-51.5	12.8	6.56e-05	0	51	0	111149056	59	5211
2026-01-01 21:16:35.34	33.28	7.35	-48.5	-51.4	13.0	5.18e-05	0	51	0	113246208	59	5145
2026-01-01 21:16:36.33	33.42	7.39	-48.5	-51.5	12.9	3.43e-05	0	51	0	115343360	59	5195
2026-01-01 21:16:37.32	33.56	7.43	-48.7	-51.7	12.7	6.63e-05	0	51	0	117440512	59	5304
2026-01-01 21:16:38.31	33.70	7.47	-48.6	-51.5	12.9	6.02e-05	0	51	0	118489088	59	5168
2026-01-01 21:16:39.30	33.84	7.51	-48.5	-51.3	13.1	3.20e-05	0	51	0	120586240	59	5091
2026-01-01 21:16:40.30	33.98	7.55	-48.4	-51.3	13.1	3.43e-05	0	52	0	122683392	59	5049
2026-01-01 21:16:41.29	34.12	7.58	-48.4	-51.2	13.2	3.05e-05	0	52	0	124780544	59	5021
2026-01-01 21:16:42.28	34.26	7.62	-48.5	-51.3	13.2	2.21e-05	0	52	0	126877696	59	5042
2026-01-01 21:16:43.28	34.41	7.66	-48.5	-51.4	13.1	4.95e-05	0	51	0	127926272	59	5117
2026-01-01 21:16:44.26	34.55	7.70	-48.4	-51.1	13.3	2.89e-05	0	52	0	130023424	59	4964
2026-01-01 21:16:45.25	34.69	7.74	-48.3	-51.0	13.4	7.60e-06	0	52	0	132120576	59	4894
2026-01-01 21:16:46.24	34.83	7.78	-48.2	-50.9	13.5	9.10e-06	0	52	0	134217728	59	4850
2026-01-01 21:16:47.23	34.97	7.82	-48.3	-51.1	13.4	1.60e-05	0	52	0	135266304	59	4936
2026-01-01 21:16:48.21	35.12	7.86	-48.4	-51.2	13.2	2.28e-05	0	52	0	137363456	59	5040
2026-01-01 21:16:49.20	35.26	7.89	-48.4	-51.3	13.2	1.60e-05	0	52	0	139460608	59	5044
2026-01-01 21:16:50.18	35.40	7.93	-48.4	-51.3	13.1	2.89e-05	0	52	0	141557760	59	5063
2026-01-01 21:16:51.17	35.55	7.97	-48.5	-51.4	13.0	3.20e-05	0	52	0	142606336	59	5154
2026-01-01 21:16:52.16	35.69	8.01	-48.5	-51.4	13.1	3.20e-05	0	52	0	144703488	59	5122
2026-01-01 21:16:53.16	35.84	8.05	-48.5	-51.4	13.1	3.66e-05	0	52	0	146800640	59	5129
2026-01-01 21:16:54.15	35.98	8.08	-48.6	-51.6	12.9	3.66e-05	0	52	0	148897792	59	5231
2026-01-01 21:16:55.14	36.13	8.12	-48.7	-51.7	12.8	5.72e-05	0	52	0	150994944	59	5326
2026-01-01 21:16:56.13	36.28	8.16	-48.8	-52.0	12.5	9.07e-05	0	52	0	152043520	59	5465
2026-01-01 21:16:57.12	36.42	8.20	-48.6	-51.7	12.8	8.62e-05	0	52	0	154140672	59	5290
2026-01-01 21:16:58.10	36.57	8.23	-48.6	-51.5	13.0	3.73e-05	0	52	0	156237824	59	5174
2026-01-01 21:16:59.08	36.71	8.27	-48.5	-51.3	13.1	2.97e-05	0	52	0	158334976	59	5099
2026-01-01 21:17:00.07	36.86	8.31	-48.7	-51.6	12.9	4.27e-05	0	52	0	159383552	59	5230
2026-01-01 21:17:01.06	37.01	8.35	-48.6	-51.5	13.0	4.50e-05	0	52	0	161480704	59	5181
2026-01-01 21:17:02.06	37.16	8.38	-48.7	-51.7	12.8	5.03e-05	0	52	0	163577856	59	5332
2026-01-01 21:17:03.05	37.31	8.42	-48.4	-51.3	13.2	3.66e-05	0	52	0	165675008	59	5084
2026-01-01 21:17:04.03	37.46	8.46	-48.4	-51.1	13.4	9.90e-06	0	52	0	166723584	59	4964
2026-01-01 21:17:05.02	37.61	8.49	-48.3	-51.0	13.6	9.90e-06	0	52	0	168820736	59	4872
2026-01-01 21:17:06.01	37.76	8.53	-48.2	-50.9	13.6	7.60e-06	0	52	0	170917888	59	4818
2026-01-01 21:17:07.00	37.91	8.57	-48.2	-50.9	13.6	3.80e-06	0	52	0	173015040	59	4830
2026-01-01 21:17:07.99	38.06	8.60	-48.2	-51.0	13.5	9.90e-06	0	52	0	174063616	59	4926
2026-01-01 21:17:08.98	38.21	8.64	-48.4	-51.3	13.2	1.37e-05	0	53	0	176160768	59	5069
2026-01-01 21:17:09.96	38.36	8.67	-48.4	-51.2	13.4	2.36e-05	0	52	0	178257920	59	4993
2026-01-01 21:17:10.94	38.51	8.71	-48.5	-51.4	13.1	2.51e-05	0	52	0	180355072	59	5122
2026-01-01 21:17:11.92	38.66	8.75	-48.4	-51.3	13.3	1.98e-05	0	53	0	182452224	59	5049
2026-01-01 21:17:12.91	38.81	8.78	-48.4	-51.2	13.3	1.60e-05	0	53	0	183500800	59	5023
2026-01-01 21:17:13.90	38.96	8.82	-48.6	-51.4	13.1	1.75e-05	0	52	0	185597952	59	5155
2026-01-01 21:17:14.88	39.11	8.85	-48.6	-51.5	13.0	4.04e-05	0	53	0	187695104	59	5209
2026-01-01 21:17:15.87	39.27	8.89	-48.6	-51.5	13.0	5.64e-05	0	53	0	189792256	59	5214
2026-01-01 21:17:16.85	39.42	8.92	-48.6	-51.5	13.0	3.20e-05	0	53	0	190840832	59	5210
2026-01-01 21:17:17.85	39.58	8.96	-48.7	-51.6	12.9	3.96e-05	0	53	0	192937984	59	5256
2026-01-01 21:17:18.84	39.73	8.99	-48.7	-51.8	12.8	5.72e-05	0	53	0	195035136	59	5357
2026-01-01 21:17:19.84	39.89	9.03	-48.7	-51.6	12.9	5.49e-05	0	53	0	197132288	59	5250
2026-01-01 21:17:20.83	40.04	9.06	-48.6	-51.6	12.9	4.11e-05	0	53	0	198180864	59	5273
2026-01-01 21:17:21.83	40.20	9.10	-48.9	-52.0	12.6	7.09e-05	0	53	0	200278016	59	5474
2026-01-01 21:17:22.81	40.35	9.13	-48.7	-51.6	13.0	9.91e-05	0	53	0	202375168	59	5261
2026-01-01 21:17:23.80	40.51	9.17	-48.5	-51.3	13.2	2.82e-05	0	53	0	204472320	59	5096
2026-01-01 21:17:24.79	40.67	9.20	-48.4	-51.1	13.5	1.29e-05	0	53	0	206569472	59	4952
2026-01-01 21:17:25.77	40.82	9.23	-48.4	-51.0	13.6	9.90e-06	0	53	0	207618048	59	4899
2026-01-01 21:17:26.76	40.98	9.27	-48.3	-51.1	13.5	1.06e-05	0	53	0	209715200	59	4954
2026-01-01 21:17:27.76	41.14	9.30	-48.3	-51.1	13.5	1.22e-05	0	53	0	211812352	59	4934
2026-01-01 21:17:28.75	41.30	9.34	-48.3	-50.9	13.6	1.06e-05	0	53	0	213909504	59	4863
2026-01-01 21:17:29.73	41.45	9.37	-48.3	-51.0	13.6	6.10e-06	0	53	0	214958080	59	4873
2026-01-01 21:17:30.71	41.61	9.40	-48.3	-50.9	13.6	6.80e-06	0	53	0	217055232	59	4857
2026-01-01 21:17:31.70	41.77	9.44	-48.4	-51.0	13.5	4.50e-06	0	53	0	219152384	59	4923
2026-01-01 21:17:32.69	41.93	9.47	-48.5	-51.2	13.3	9.10e-06	0	53	0	221249536	59	5037
2026-01-01 21:17:33.68	42.09	9.50	-48.5	-51.3	13.2	2.13e-05	0	53	0	222298112	59	5098
2026-01-01 21:17:34.67	42.25	9.53	-48.6	-51.5	13.1	2.05e-05	0	53	0	224395264	59	5215
2026-01-01 21:17:35.66	42.41	9.57	-48.6	-51.5	13.0	3.96e-05	0	53	0	226492416	59	5210
2026-01-01 21:17:36.65	42.57	9.60	-48.6	-51.6	13.0	4.73e-05	0	53	0	228589568	59	5245
2026-01-01 21:17:37.64	42.73	9.63	-48.7	-51.8	12.9	3.89e-05	0	53	0	229638144	59	5344
2026-01-01 21:17:38.63	42.89	9.66	-48.7	-51.7	12.9	6.40e-05	0	53	0	231735296	59	5287
2026-01-01 21:17:39.62	43.06	9.70	-48.7	-51.6	13.0	3.81e-05	0	53	0	233832448	59	5269
2026-01-01 21:17:40.61	43.22	9.73	-48.6	-51.5	13.1	5.95e-05	0	53	0	235929600	59	5194
2026-01-01 21:17:41.59	43.38	9.76	-48.6	-51.3	13.3	2.67e-05	0	53	0	238026752	59	5091
2026-01-01 21:17:42.58	43.54	9.79	-48.5	-51.2	13.4	1.06e-05	0	53	0	239075328	59	5011
2026-01-01 21:17:43.57	43.70	9.82	-48.4	-51.2	13.4	1.52e-05	0	53	0	241172480	59	5026
2026-01-01 21:17:44.56	43.87	9.85	-48.5	-51.3	13.4	1.90e-05	0	53	0	243269632	59	5091
2026-01-01 21:17:45.55	44.03	9.88	-48.7	-51.6	13.0	2.21e-05	0	54	0	245366784	59	5244
2026-01-01 21:17:46.53	44.19	9.91	-48.7	-51.6	13.0	2.97e-05	0	54	0	246415360	59	5248
2026-01-01 21:17:47.52	44.36	9.95	-48.7	-51.5	13.1	2.28e-05	0	53	0	248512512	59	5215
2026-01-01 21:17:48.51	44.52	9.98	-48.8	-51.9	12.8	4.65e-05	0	53	0	250609664	59	5404
2026-01-01 21:17:49.50	44.69	10.01	-48.8	-51.9	12.7	8.62e-05	0	53	0	252706816	59	5423
2026-01-01 21:17:50.49	44.86	10.04	-48.6	-51.5	13.1	6.94e-05	0	54	0	253755392	59	5216
2026-01-01 21:17:51.49	45.02	10.07	-48.5	-51.3	13.3	1.98e-05	0	53	0	255852544	59	5076
2026-01-01 21:17:52.47	45.19	10.10	-48.5	-51.2	13.4	1.37e-05	0	53	0	257949696	59	5016
2026-01-01 21:17:53.46	45.35	10.13	-48.5	-51.2	13.4	7.60e-06	0	54	0	260046848	59	5018
2026-01-01 21:17:54.46	45.52	10.16	-48.5	-51.2	13.4	9.90e-06	0	54	0	262144000	59	5025
2026-01-01 21:17:55.44	45.69	10.18	-48.5	-51.2	13.4	1.67e-05	0	54	0	263192576	59	5034
2026-01-01 21:17:56.43	45.86	10.21	-48.5	-51.3	13.4	1.06e-05	0	54	0	265289728	59	5065
2026-01-01 21:17:57.41	46.02	10.24	-48.6	-51.4	13.2	2.74e-05	0	54	0	267386880	59	5151
2026-01-01 21:17:58.39	46.19	10.27	-48.6	-51.5	13.2	2.36e-05	0	54	0	269484032	59	5168
2026-01-01 21:17:59.38	46.36	10.30	-48.7	-51.6	13.0	3.12e-05	0	54	0	270532608	59	5270
2026-01-01 21:18:00.36	46.52	10.33	-48.7	-51.6	13.0	2.59e-05	0	54	0	272629760	59	5254
2026-01-01 21:18:01.36	46.70	10.36	-48.8	-51.7	12.9	5.26e-05	0	54	0	274726912	59	5337
2026-01-01 21:18:02.35	46.87	10.38	-48.8	-51.7	13.0	4.04e-05	0	54	0	276824064	59	5296
2026-01-01 21:18:03.34	47.04	10.41	-48.8	-51.8	12.9	5.03e-05	0	54	0	277872640	59	5368
2026-01-01 21:18:04.32	47.20	10.44	-48.9	-51.9	12.8	7.47e-05	0	54	0	279969792	59	5437
2026-01-01 21:18:05.31	47.37	10.47	-48.7	-51.6	13.1	4.88e-05	0	54	0	282066944	59	5226
2026-01-01 21:18:06.30	47.54	10.49	-48.4	-51.2	13.5	1.60e-05	0	54	0	284164096	59	5000
2026-01-01 21:18:07.29	47.72	10.52	-48.4	-51.1	13.6	9.10e-06	0	54	0	286261248	59	4935
2026-01-01 21:18:08.29	47.89	10.55	-48.3	-50.9	13.7	9.90e-06	0	54	0	287309824	59	4847
2026-01-01 21:18:09.28	48.06	10.58	-48.3	-50.8	13.9	4.50e-06	0	54	0	289406976	59	4769
2026-01-01 21:18:10.27	48.23	10.60	-48.1	-50.6	14.1	2.20e-06	0	54	0	291504128	59	4656
2026-01-01 21:18:11.25	48.40	10.63	-48.1	-50.5	14.2	1.50e-06	0	54	0	293601280	59	4620
2026-01-01 21:18:12.24	48.58	10.65	-48.2	-50.7	14.1	7.00e-07	0	54	0	294649856	59	4710
2026-01-01 21:18:13.23	48.75	10.68	-48.2	-50.8	13.9	1.50e-06	0	54	0	296747008	59	4773
2026-01-01 21:18:14.21	48.92	10.71	-48.2	-50.7	14.0	4.50e-06	0	54	0	298844160	59	4753
2026-01-01 21:18:15.19	49.09	10.73	-48.4	-51.0	13.7	3.80e-06	0	54	0	300941312	59	4877
2026-01-01 21:18:16.18	49.27	10.76	-48.4	-51.0	13.6	5.30e-06	0	54	0	301989888	59	4908
2026-01-01 21:18:17.17	49.44	10.78	-48.5	-51.1	13.6	3.80e-06	0	54	0	304087040	59	4960
2026-01-01 21:18:18.16	49.61	10.81	-48.4	-51.1	13.6	1.60e-05	0	54	0	306184192	59	4949
2026-01-01 21:18:19.16	49.79	10.83	-48.5	-51.1	13.6	9.10e-06	0	54	0	308281344	59	4959
2026-01-01 21:18:20.15	49.97	10.86	-48.4	-51.0	13.7	7.60e-06	0	54	0	309329920	59	4916
2026-01-01 21:18:21.13	50.14	10.88	-48.3	-51.0	13.7	6.10e-06	0	54	0	311427072	59	4875
2026-01-01 21:18:22.13	50.32	10.90	-48.2	-50.9	13.8	6.80e-06	0	54	0	313524224	59	4817
2026-01-01 21:18:23.12	50.49	10.93	-48.3	-51.0	13.7	6.10e-06	0	54	0	315621376	59	4888
2026-01-01 21:18:24.10	50.67	10.95	-48.4	-51.2	13.5	8.30e-06	0	54	0	317718528	59	5002
2026-01-01 21:18:25.09	50.84	10.98	-48.7	-51.6	13.1	2.59e-05	0	54	0	318767104	59	5220
2026-01-01 21:18:26.08	51.02	11.00	-48.4	-51.0	13.7	7.60e-06	0	54	0	320864256	59	4874
2026-01-01 21:18:27.07	51.20	11.02	-48.1	-50.6	14.1	4.50e-06	0	54	0	322961408	59	4669
2026-01-01 21:18:28.06	51.37	11.04	-48.0	-50.4	14.3	2.20e-06	0	54	0	325058560	59	4576
2026-01-01 21:18:29.04	51.55	11.07	-47.9	-50.3	14.4	0.00e+00	0	54	0	326107136	59	4510
2026-01-01 21:18:30.02	51.73	11.09	-47.9	-50.2	14.5	7.00e-07	0	54	0	328204288	58	4726
2026-01-01 21:18:31.00	51.90	11.11	-48.0	-50.5	14.3	1.50e-06	0	54	0	330301440	58	4878
2026-01-01 21:18:32.00	52.08	11.13	-48.0	-50.4	14.3	1.50e-06	0	54	0	332398592	58	4838
2026-01-01 21:18:32.98	52.26	11.15	-48.2	-50.6	14.1	7.00e-07	0	54	0	333447168	58	4971
2026-01-01 21:18:33.97	52.44	11.18	-48.1	-50.6	14.1	7.00e-07	0	54	0	335544320	58	4967
2026-01-01 21:18:34.95	52.61	11.20	-48.2	-50.8	13.9	5.30e-06	0	54	0	337641472	58	5053
2026-01-01 21:18:35.94	52.79	11.22	-48.2	-50.7	14.0	3.00e-06	0	54	0	339738624	58	5003
2026-01-01 21:18:36.93	52.97	11.24	-48.3	-50.9	13.8	5.30e-06	0	54	0	341835776	58	5135
2026-01-01 21:18:37.92	53.15	11.26	-48.3	-50.8	13.8	1.50e-06	0	54	0	342884352	58	5099
2026-01-01 21:18:38.91	53.33	11.28	-48.3	-50.9	13.8	4.50e-06	0	54	0	344981504	58	5134
2026-01-01 21:18:39.90	53.51	11.30	-48.4	-51.0	13.7	1.06e-05	0	54	0	347078656	58	5209
2026-01-01 21:18:40.89	53.69	11.32	-48.5	-51.2	13.5	1.22e-05	0	54	0	349175808	58	5291
2026-01-01 21:18:41.88	53.87	11.34	-48.4	-51.0	13.7	8.30e-06	0	54	0	350224384	58	5213
2026-01-01 21:18:42.87	54.06	11.36	-48.3	-50.9	13.8	3.00e-06	0	54	0	352321536	58	5159
2026-01-01 21:18:43.86	54.24	11.38	-48.4	-51.1	13.6	3.80e-06	0	54	0	354418688	58	5252
2026-01-01 21:18:44.85	54.42	11.40	-48.6	-51.3	13.3	1.14e-05	0	54	0	356515840	59	5095
2026-01-01 21:18:45.84	54.60	11.41	-48.6	-51.3	13.4	2.13e-05	0	54	0	357564416	59	5054
2026-01-01 21:18:46.82	54.78	11.43	-48.7	-51.6	13.1	1.60e-05	0	54	0	359661568	59	5237
2026-01-01 21:18:47.82	54.96	11.45	-48.7	-51.5	13.2	3.35e-05	0	54	0	361758720	59	5209
2026-01-01 21:18:48.81	55.15	11.47	-48.9	-51.8	12.9	3.58e-05	0	54	0	363855872	59	5384
2026-01-01 21:18:49.81	55.33	11.49	-48.8	-51.8	12.9	5.64e-05	0	54	0	365953024	59	5351
2026-01-01 21:18:50.80	55.51	11.50	-49.0	-52.1	12.6	4.50e-05	0	55	0	367001600	59	5542
2026-01-01 21:18:51.79	55.70	11.52	-49.0	-52.0	12.6	8.01e-05	0	54	0	369098752	59	5506
2026-01-01 21:18:52.78	55.88	11.54	-49.0	-52.1	12.6	8.54e-05	0	55	0	371195904	59	5542
2026-01-01 21:18:53.77	56.06	11.56	-49.0	-52.2	12.6	8.69e-05	0	54	0	373293056	59	5608
2026-01-01 21:18:54.76	56.25	11.57	-49.1	-52.3	12.4	1.23e-04	0	54	0	374341632	60	5392
2026-01-01 21:18:55.75	56.43	11.59	-49.0	-52.1	12.6	1.17e-04	0	54	0	376438784	60	5268
2026-01-01 21:18:56.75	56.62	11.60	-48.8	-51.8	12.8	6.94e-05	0	54	0	378535936	60	5053
2026-01-01 21:18:57.74	56.80	11.62	-48.7	-51.7	13.0	4.19e-05	0	55	0	380633088	60	5040
2026-01-01 21:18:58.73	56.98	11.64	-48.9	-51.9	12.8	4.42e-05	0	55	0	382730240	60	5147
2026-01-01 21:18:59.72	57.17	11.65	-48.9	-52.0	12.8	5.26e-05	0	55	0	383778816	60	5162
2026-01-01 21:19:00.71	57.35	11.67	-49.1	-52.3	12.4	9.99e-05	0	55	0	385875968	60	5376
2026-01-01 21:19:01.69	57.54	11.68	-49.0	-52.2	12.4	2.05e-04	0	55	0	387973120	60	5301
2026-01-01 21:19:02.67	57.72	11.69	-49.1	-52.4	12.2	1.95e-04	0	55	0	390070272	60	5462
2026-01-01 21:19:03.65	57.90	11.71	-49.1	-52.4	12.3	2.61e-04	0	55	0	391118848	60	5450
2026-01-01 21:19:04.63	58.09	11.72	-48.9	-52.1	12.7	1.17e-04	0	55	0	393216000	60	5247
2026-01-01 21:19:05.62	58.27	11.74	-48.7	-51.7	12.9	6.33e-05	0	55	0	395313152	60	5030
2026-01-01 21:19:06.60	58.46	11.75	-48.7	-51.6	13.1	3.81e-05	0	55	0	397410304	60	4967
2026-01-01 21:19:07.58	58.64	11.76	-48.6	-51.4	13.3	2.13e-05	0	55	0	398458880	60	4845
2026-01-01 21:19:08.57	58.83	11.77	-48.6	-51.4	13.2	1.75e-05	0	55	0	400556032	60	4868
2026-01-01 21:19:09.56	59.01	11.79	-48.5	-51.2	13.5	2.21e-05	0	55	0	402653184	60	4753
2026-01-01 21:19:10.55	59.20	11.80	-48.5	-51.1	13.6	9.90e-06	0	55	0	404750336	59	4967
2026-01-01 21:19:11.54	59.39	11.81	-48.5	-51.2	13.6	9.90e-06	0	55	0	405798912	59	4985
2026-01-01 21:19:12.52	59.57	11.82	-48.3	-51.0	13.7	3.80e-06	0	55	0	407896064	59	4898
2026-01-01 21:19:13.50	59.76	11.83	-48.3	-51.0	13.8	3.80e-06	0	55	0	409993216	59	4880
2026-01-01 21:19:14.49	59.94	11.85	-48.3	-51.0	13.7	7.60e-06	0	55	0	412090368	59	4905
2026-01-01 21:19:15.48	60.13	11.86	-48.4	-51.0	13.6	5.30e-06	0	55	0	413138944	59	4926
2026-01-01 21:19:16.47	60.32	11.87	-48.5	-51.2	13.5	1.22e-05	0	55	0	415236096	59	5017
2026-01-01 21:19:17.46	60.50	11.88	-48.4	-51.2	13.5	1.37e-05	0	55	0	417333248	59	5008
2026-01-01 21:19:18.45	60.69	11.89	-48.6	-51.3	13.4	1.44e-05	0	55	0	419430400	59	5092
2026-01-01 21:19:19.44	60.88	11.90	-48.6	-51.3	13.4	1.37e-05	0	55	0	421527552	59	5086
2026-01-01 21:19:20.43	61.07	11.91	-48.7	-51.5	13.3	1.67e-05	0	55	0	422576128	59	5175
2026-01-01 21:19:21.41	61.25	11.92	-48.7	-51.5	13.2	2.13e-05	0	55	0	424673280	59	5182
2026-01-01 21:19:22.40	61.44	11.93	-48.7	-51.5	13.3	3.81e-05	0	55	0	426770432	59	5170
2026-01-01 21:19:23.39	61.63	11.93	-48.5	-51.2	13.6	1.22e-05	0	55	0	428867584	59	4985
2026-01-01 21:19:24.38	61.82	11.94	-48.4	-51.1	13.6	6.80e-06	0	55	0	429916160	59	4947
2026-01-01 21:19:25.37	62.01	11.95	-48.4	-51.0	13.8	5.30e-06	0	55	0	432013312	59	4896
2026-01-01 21:19:26.36	62.19	11.96	-48.3	-50.7	13.9	3.00e-06	0	55	0	434110464	59	4758
2026-01-01 21:19:27.35	62.38	11.97	-48.3	-50.8	13.9	3.00e-06	0	55	0	436207616	59	4795
2026-01-01 21:19:28.34	62.57	11.97	-48.4	-51.1	13.8	3.80e-06	0	55	0	437256192	59	4928
2026-01-01 21:19:29.33	62.76	11.98	-48.5	-51.2	13.4	1.44e-05	0	55	0	439353344	59	5038
2026-01-01 21:19:30.31	62.95	11.99	-48.6	-51.5	13.3	2.82e-05	0	55	0	441450496	59	5169
2026-01-01 21:19:31.31	63.14	12.00	-48.7	-51.5	13.3	1.90e-05	0	55	0	443547648	59	5197
2026-01-01 21:19:32.29	63.32	12.00	-48.8	-51.8	13.0	3.05e-05	0	55	0	445644800	59	5377
2026-01-01 21:19:33.28	63.51	12.01	-48.9	-51.9	12.9	7.70e-05	0	55	0	446693376	59	5455
2026-01-01 21:19:34.27	63.70	12.01	-48.8	-51.6	13.1	3.58e-05	0	55	0	448790528	59	5227
2026-01-01 21:19:35.26	63.89	12.02	-48.5	-51.3	13.5	2.44e-05	0	55	0	450887680	59	5049
2026-01-01 21:19:36.25	64.08	12.02	-48.5	-51.1	13.7	1.22e-05	0	55	0	452984832	59	4964
2026-01-01 21:19:37.24	64.27	12.03	-48.4	-50.9	13.8	3.80e-06	0	55	0	454033408	59	4850
2026-01-01 21:19:38.23	64.46	12.03	-48.2	-50.8	13.8	6.80e-06	0	55	0	456130560	59	4776
2026-01-01 21:19:39.22	64.65	12.04	-48.3	-50.9	13.9	3.00e-06	0	55	0	458227712	59	4837
2026-01-01 21:19:40.22	64.84	12.04	-48.3	-50.9	13.8	8.30e-06	0	55	0	460324864	59	4852
2026-01-01 21:19:41.20	65.03	12.05	-48.1	-50.5	14.2	1.50e-06	0	55	0	462422016	59	4649
2026-01-01 21:19:42.20	65.22	12.05	-47.9	-50.3	14.4	3.00e-06	0	55	0	463470592	59	4501
2026-01-01 21:19:43.19	65.41	12.05	-47.8	-50.1	14.6	7.00e-07	0	55	0	465567744	58	4687
2026-01-01 21:19:44.17	65.60	12.06	-47.9	-50.2	14.6	7.00e-07	0	55	0	467664896	58	4711
2026-01-01 21:19:45.16	65.79	12.06	-47.9	-50.2	14.7	0.00e+00	0	55	0	469762048	58	4710
2026-01-01 21:19:46.15	65.98	12.06	-47.7	-49.9	14.8	7.00e-07	0	55	0	470810624	58	4556
2026-01-01 21:19:47.15	66.17	12.06	-47.8	-50.0	14.7	0.00e+00	0	55	0	472907776	58	4629
2026-01-01 21:19:48.13	66.36	12.07	-47.9	-50.2	14.5	0.00e+00	0	55	0	475004928	58	4730
2026-01-01 21:19:49.12	66.55	12.07	-47.6	-49.8	14.9	7.00e-07	0	55	0	477102080	58	4516
2026-01-01 21:19:50.11	66.74	12.07	-47.4	-49.5	15.1	0.00e+00	0	55	0	478150656	58	4384
2026-01-01 21:19:51.10	66.93	12.07	-47.4	-49.5	15.3	0.00e+00	0	55	0	480247808	58	4360
2026-01-01 21:19:52.09	67.12	12.07	-47.7	-49.8	15.0	0.00e+00	0	55	0	482344960	58	4512
2026-01-01 21:19:53.08	67.31	12.07	-47.7	-49.8	14.9	0.00e+00	0	55	0	484442112	58	4532
2026-01-01 21:19:54.07	67.50	12.07	-47.6	-49.8	15.0	0.00e+00	0	55	0	485490688	58	4512
2026-01-01 21:19:55.05	67.69	12.07	-47.7	-49.9	14.9	0.00e+00	0	55	0	487587840	58	4581
2026-01-01 21:19:56.04	67.88	12.07	-47.6	-49.8	14.8	7.00e-07	0	55	0	489684992	58	4519
2026-01-01 21:19:57.03	68.07	12.07	-47.6	-49.8	15.0	0.00e+00	0	55	0	491782144	58	4510
2026-01-01 21:19:58.01	68.25	12.07	-47.7	-49.9	14.8	0.00e+00	0	55	0	493879296	58	4550
2026-01-01 21:19:59.00	68.44	12.07	-47.4	-49.4	15.3	0.00e+00	0	55	0	494927872	57	4584
2026-01-01 21:20:00.00	68.64	12.07	-47.3	-49.3	15.4	0.00e+00	0	55	0	497025024	57	4519
2026-01-01 21:20:00.98	68.82	12.06	-47.4	-49.4	15.4	0.00e+00	0	56	0	499122176	57	4588
2026-01-01 21:20:01.97	69.01	12.06	-47.2	-49.2	15.6	0.00e+00	0	56	0	501219328	57	4460
2026-01-01 21:20:02.96	69.20	12.06	-47.1	-49.0	15.7	0.00e+00	0	55	0	502267904	57	4362
2026-01-01 21:20:03.94	69.39	12.06	-47.2	-49.1	15.7	0.00e+00	0	55	0	504365056	57	4440
2026-01-01 21:20:04.93	69.58	12.05	-47.3	-49.3	15.4	0.00e+00	0	55	0	506462208	57	4510
2026-01-01 21:20:05.92	69.77	12.05	-47.4	-49.5	15.2	0.00e+00	0	55	0	508559360	57	4624
2026-01-01 21:20:06.91	69.96	12.05	-47.3	-49.4	15.3	0.00e+00	0	55	0	509607936	57	4575
2026-01-01 21:20:07.90	70.15	12.04	-47.5	-49.6	15.2	0.00e+00	0	56	0	511705088	57	4677
2026-01-01 21:20:08.88	70.34	12.04	-47.4	-49.5	15.3	0.00e+00	0	56	0	513802240	57	4616
2026-01-01 21:20:09.88	70.53	12.04	-47.5	-49.6	15.2	0.00e+00	0	55	0	515899392	57	4679
2026-01-01 21:20:10.87	70.72	12.03	-47.7	-49.9	14.9	0.00e+00	0	55	0	517996544	57	4834
2026-01-01 21:20:11.85	70.91	12.03	-47.6	-49.7	15.0	7.00e-07	0	55	0	519045120	57	4743
2026-01-01 21:20:12.84	71.10	12.02	-47.7	-49.9	15.0	1.50e-06	0	55	0	521142272	57	4864
2026-01-01 21:20:13.83	71.28	12.02	-47.6	-49.8	15.0	0.00e+00	0	55	0	523239424	57	4794
2026-01-01 21:20:14.82	71.47	12.01	-47.6	-49.7	15.1	0.00e+00	0	55	0	525336576	57	4718
2026-01-01 21:20:15.81	71.66	12.00	-47.6	-49.7	15.0	0.00e+00	0	55	0	526385152	57	4736
2026-01-01 21:20:16.79	71.85	12.00	-47.7	-50.0	14.9	0.00e+00	0	55	0	528482304	57	4899
2026-01-01 21:20:17.78	72.04	11.99	-47.7	-49.9	14.9	0.00e+00	0	55	0	530579456	57	4833
2026-01-01 21:20:18.77	72.23	11.98	-47.8	-50.1	14.7	0.00e+00	0	55	0	532676608	57	4957
2026-01-01 21:20:19.77	72.42	11.98	-47.7	-49.9	14.8	7.00e-07	0	56	0	533725184	57	4864
2026-01-01 21:20:20.76	72.61	11.97	-47.5	-49.6	15.1	0.00e+00	0	56	0	535822336	57	4678
2026-01-01 21:20:21.76	72.80	11.96	-47.4	-49.4	15.3	0.00e+00	0	55	0	537919488	57	4576
2026-01-01 21:20:22.74	72.99	11.95	-47.3	-49.3	15.5	0.00e+00	0	55	0	540016640	57	4500
2026-01-01 21:20:23.73	73.17	11.95	-47.3	-49.3	15.5	0.00e+00	0	55	0	542113792	57	4519
2026-01-01 21:20:24.72	73.36	11.94	-47.2	-49.2	15.6	7.00e-07	0	55	0	543162368	57	4447
2026-01-01 21:20:25.71	73.55	11.93	-47.3	-49.3	15.4	0.00e+00	0	55	0	545259520	57	4512
2026-01-01 21:20:26.69	73.74	11.92	-47.3	-49.3	15.4	0.00e+00	0	56	0	547356672	57	4521
2026-01-01 21:20:27.68	73.93	11.91	-47.5	-49.6	15.3	0.00e+00	0	55	0	549453824	57	4660
2026-01-01 21:20:28.67	74.11	11.90	-47.4	-49.5	15.3	0.00e+00	0	56	0	550502400	57	4609
2026-01-01 21:20:29.65	74.30	11.89	-47.3	-49.4	15.4	7.00e-07	0	55	0	552599552	57	4562
2026-01-01 21:20:30.63	74.49	11.88	-47.4	-49.4	15.4	0.00e+00	0	55	0	554696704	57	4577
2026-01-01 21:20:31.62	74.67	11.87	-47.4	-49.5	15.3	0.00e+00	0	56	0	556793856	57	4599
2026-01-01 21:20:32.61	74.86	11.86	-47.4	-49.4	15.3	0.00e+00	0	55	0	557842432	57	4593
2026-01-01 21:20:33.60	75.05	11.85	-47.5	-49.5	15.1	0.00e+00	0	56	0	559939584	57	4629
2026-01-01 21:20:34.60	75.24	11.84	-47.6	-49.7	15.1	0.00e+00	0	56	0	562036736	57	4739
2026-01-01 21:20:35.58	75.42	11.83	-47.7	-49.8	15.0	0.00e+00	0	55	0	564133888	57	4809
2026-01-01 21:20:36.57	75.61	11.82	-47.7	-49.8	15.0	7.00e-07	0	56	0	565182464	57	4782
2026-01-01 21:20:37.57	75.80	11.80	-47.8	-50.0	14.8	7.00e-07	0	56	0	567279616	57	4897
2026-01-01 21:20:38.55	75.98	11.79	-47.8	-50.0	14.7	0.00e+00	0	56	0	569376768	57	4912
2026-01-01 21:20:39.55	76.17	11.78	-47.9	-50.2	14.6	0.00e+00	0	56	0	571473920	57	5002
2026-01-01 21:20:40.54	76.36	11.77	-48.0	-50.3	14.4	7.00e-07	0	56	0	573571072	57	5072
2026-01-01 21:20:41.52	76.54	11.75	-48.1	-50.5	14.3	0.00e+00	0	56	0	574619648	57	5168
2026-01-01 21:20:42.51	76.73	11.74	-48.1	-50.5	14.2	3.00e-06	0	56	0	576716800	58	4921
2026-01-01 21:20:43.50	76.91	11.73	-48.0	-50.3	14.5	1.50e-06	0	56	0	578813952	58	4793
2026-01-01 21:20:44.48	77.10	11.71	-47.9	-50.1	14.7	0.00e+00	0	56	0	580911104	58	4684
2026-01-01 21:20:45.47	77.28	11.70	-47.8	-50.0	14.8	0.00e+00	0	56	0	581959680	58	4643
2026-01-01 21:20:46.47	77.47	11.68	-47.8	-50.0	14.9	0.00e+00	0	56	0	584056832	58	4606
2026-01-01 21:20:47.46	77.66	11.67	-47.6	-49.7	15.0	0.00e+00	0	56	0	586153984	58	4478
2026-01-01 21:20:48.45	77.84	11.65	-47.7	-49.9	14.9	0.00e+00	0	56	0	588251136	58	4554
2026-01-01 21:20:49.44	78.03	11.64	-47.6	-49.7	15.0	0.00e+00	0	56	0	589299712	58	4492
2026-01-01 21:20:50.41	78.21	11.62	-47.4	-49.4	15.4	0.00e+00	0	56	0	591396864	57	4554
2026-01-01 21:20:51.40	78.39	11.61	-47.2	-49.1	15.6	0.00e+00	0	56	0	593494016	57	4419
2026-01-01 21:20:52.38	78.57	11.59	-47.1	-49.0	15.7	0.00e+00	0	56	0	595591168	57	4385
2026-01-01 21:20:53.37	78.76	11.58	-47.1	-49.0	15.8	0.00e+00	0	56	0	597688320	57	4356
2026-01-01 21:20:54.37	78.94	11.56	-47.2	-49.0	15.7	0.00e+00	0	56	0	598736896	57	4388
2026-01-01 21:20:55.36	79.13	11.54	-47.2	-49.1	15.7	0.00e+00	0	56	0	600834048	57	4420
2026-01-01 21:20:56.35	79.31	11.53	-47.2	-49.2	15.5	0.00e+00	0	56	0	602931200	57	4459
2026-01-01 21:20:57.34	79.49	11.51	-47.4	-49.4	15.4	0.00e+00	0	56	0	605028352	57	4563
2026-01-01 21:20:58.33	79.68	11.49	-47.2	-49.1	15.6	0.00e+00	0	56	0	606076928	57	4429
2026-01-01 21:20:59.31	79.86	11.47	-47.2	-49.1	15.6	0.00e+00	0	56	0	608174080	57	4416
2026-01-01 21:21:00.30	80.04	11.46	-47.2	-49.1	15.6	0.00e+00	0	56	0	610271232	57	4439
2026-01-01 21:21:01.28	80.22	11.44	-47.3	-49.3	15.5	0.00e+00	0	56	0	612368384	57	4497
2026-01-01 21:21:02.28	80.41	11.42	-47.3	-49.3	15.5	0.00e+00	0	56	0	613416960	57	4498
2026-01-01 21:21:03.27	80.59	11.40	-47.3	-49.3	15.4	0.00e+00	0	56	0	615514112	57	4538
2026-01-01 21:21:04.26	80.77	11.38	-47.4	-49.5	15.4	0.00e+00	0	56	0	617611264	57	4600
2026-01-01 21:21:05.24	80.95	11.36	-47.3	-49.3	15.4	0.00e+00	0	56	0	619708416	57	4536
2026-01-01 21:21:06.23	81.13	11.34	-47.5	-49.5	15.2	0.00e+00	0	56	0	621805568	57	4633
2026-01-01 21:21:07.22	81.31	11.32	-47.5	-49.6	15.1	0.00e+00	0	56	0	622854144	57	4679
2026-01-01 21:21:08.20	81.49	11.30	-47.6	-49.7	15.0	0.00e+00	0	56	0	624951296	57	4746
2026-01-01 21:21:09.19	81.67	11.28	-47.5	-49.6	15.1	0.00e+00	0	56	0	627048448	57	4655
2026-01-01 21:21:10.18	81.85	11.26	-47.4	-49.5	15.3	0.00e+00	0	56	0	629145600	57	4609
2026-01-01 21:21:11.16	82.03	11.24	-47.3	-49.3	15.4	0.00e+00	0	56	0	630194176	57	4533
2026-01-01 21:21:12.14	82.21	11.22	-47.4	-49.5	15.3	0.00e+00	0	56	0	632291328	57	4615
2026-01-01 21:21:13.14	82.39	11.20	-47.5	-49.7	15.1	0.00e+00	0	56	0	634388480	57	4735
2026-01-01 21:21:14.12	82.57	11.18	-47.4	-49.5	15.3	0.00e+00	0	56	0	636485632	57	4649
2026-01-01 21:21:15.11	82.75	11.16	-47.5	-49.7	15.0	0.00e+00	0	56	0	637534208	57	4707
2026-01-01 21:21:16.10	82.93	11.14	-47.9	-50.2	14.5	7.00e-07	0	56	0	639631360	57	5004
2026-01-01 21:21:17.10	83.11	11.12	-47.5	-49.7	15.1	0.00e+00	0	56	0	641728512	57	4742
2026-01-01 21:21:18.08	83.28	11.09	-47.4	-49.5	15.2	0.00e+00	0	56	0	643825664	57	4639
2026-01-01 21:21:19.08	83.46	11.07	-47.3	-49.3	15.4	0.00e+00	0	56	0	644874240	57	4529
2026-01-01 21:21:20.06	83.64	11.05	-47.4	-49.5	15.2	0.00e+00	0	56	0	646971392	57	4615
2026-01-01 21:21:21.05	83.82	11.03	-47.7	-49.8	15.0	0.00e+00	0	56	0	649068544	57	4790
2026-01-01 21:21:22.03	83.99	11.00	-47.4	-49.5	15.3	7.00e-07	0	56	0	651165696	57	4627
2026-01-01 21:21:23.02	84.17	10.98	-47.4	-49.4	15.3	0.00e+00	0	56	0	653262848	57	4579
2026-01-01 21:21:24.01	84.35	10.96	-47.4	-49.4	15.3	0.00e+00	0	56	0	654311424	57	4564
2026-01-01 21:21:25.00	84.52	10.93	-47.4	-49.5	15.2	0.00e+00	0	56	0	656408576	57	4602
2026-01-01 21:21:25.99	84.70	10.91	-47.6	-49.8	15.0	0.00e+00	0	56	0	658505728	57	4765
2026-01-01 21:21:26.97	84.87	10.89	-47.5	-49.6	15.2	0.00e+00	0	56	0	660602880	57	4665
2026-01-01 21:21:27.96	85.05	10.86	-47.4	-49.4	15.3	0.00e+00	0	56	0	661651456	57	4566
2026-01-01 21:21:28.95	85.22	10.84	-47.3	-49.3	15.5	0.00e+00	0	56	0	663748608	57	4544
2026-01-01 21:21:29.93	85.40	10.81	-47.2	-49.3	15.4	0.00e+00	0	56	0	665845760	57	4504
2026-01-01 21:21:30.91	85.57	10.79	-47.2	-49.2	15.6	0.00e+00	0	56	0	667942912	57	4483
2026-01-01 21:21:31.90	85.75	10.76	-47.2	-49.1	15.6	0.00e+00	0	56	0	668991488	57	4406
2026-01-01 21:21:32.89	85.92	10.74	-47.4	-49.4	15.4	0.00e+00	0	56	0	671088640	57	4591
2026-01-01 21:21:33.88	86.09	10.71	-47.3	-49.3	15.5	0.00e+00	0	56	0	673185792	57	4532
2026-01-01 21:21:34.87	86.27	10.69	-47.2	-49.2	15.6	0.00e+00	0	56	0	675282944	57	4448
2026-01-01 21:21:35.86	86.44	10.66	-47.4	-49.4	15.4	0.00e+00	0	56	0	677380096	57	4577
2026-01-01 21:21:36.85	86.61	10.63	-47.3	-49.3	15.5	0.00e+00	0	56	0	678428672	57	4498
2026-01-01 21:21:37.84	86.79	10.61	-47.4	-49.4	15.3	0.00e+00	0	56	0	680525824	57	4583
2026-01-01 21:21:38.83	86.96	10.58	-47.5	-49.7	15.0	0.00e+00	0	56	0	682622976	57	4737
2026-01-01 21:21:39.83	87.13	10.55	-47.6	-49.8	15.0	0.00e+00	0	56	0	684720128	57	4768
2026-01-01 21:21:40.81	87.30	10.53	-47.6	-49.7	15.0	0.00e+00	0	56	0	685768704	57	4753
2026-01-01 21:21:41.79	87.47	10.50	-47.6	-49.8	14.9	0.00e+00	0	56	0	687865856	57	4777
2026-01-01 21:21:42.79	87.65	10.47	-47.7	-49.9	14.8	0.00e+00	0	56	0	689963008	57	4865
2026-01-01 21:21:43.78	87.82	10.44	-47.7	-49.9	14.8	0.00e+00	0	56	0	692060160	57	4859
2026-01-01 21:21:44.77	87.99	10.42	-47.7	-50.0	14.7	0.00e+00	0	56	0	693108736	57	4906
2026-01-01 21:21:45.76	88.16	10.39	-48.0	-50.4	14.3	2.20e-06	0	56	0	695205888	57	5141
2026-01-01 21:21:46.75	88.33	10.36	-48.1	-50.4	14.3	1.50e-06	0	56	0	697303040	58	4867
2026-01-01 21:21:47.74	88.50	10.33	-47.9	-50.3	14.4	1.50e-06	0	56	0	699400192	58	4762
2026-01-01 21:21:48.74	88.67	10.30	-48.1	-50.5	14.2	7.00e-07	0	56	0	701497344	58	4880
2026-01-01 21:21:49.72	88.84	10.28	-48.1	-50.5	14.3	7.00e-07	0	56	0	702545920	58	4899
2026-01-01 21:21:50.71	89.01	10.25	-48.1	-50.6	14.1	0.00e+00	0	56	0	704643072	58	4982
2026-01-01 21:21:51.69	89.17	10.22	-48.3	-50.8	13.9	4.50e-06	0	56	0	706740224	58	5067
2026-01-01 21:21:52.68	89.34	10.19	-48.4	-51.0	13.7	6.80e-06	0	56	0	708837376	58	5193
2026-01-01 21:21:53.67	89.51	10.16	-48.5	-51.2	13.6	5.30e-06	0	56	0	709885952	58	5288
2026-01-01 21:21:54.66	89.68	10.13	-48.6	-51.3	13.4	6.80e-06	0	56	0	711983104	58	5356
2026-01-01 21:21:55.65	89.84	10.10	-48.6	-51.5	13.2	2.51e-05	0	56	0	714080256	59	5182
2026-01-01 21:21:56.65	90.01	10.07	-48.8	-51.7	13.0	2.82e-05	0	56	0	716177408	59	5291
2026-01-01 21:21:57.64	90.18	10.04	-48.8	-51.9	12.8	5.87e-05	0	56	0	717225984	59	5419
2026-01-01 21:21:58.63	90.35	10.01	-48.9	-52.0	12.7	5.26e-05	0	56	0	719323136	59	5499
2026-01-01 21:21:59.62	90.51	9.98	-48.9	-52.0	12.6	9.99e-05	0	56	0	721420288	59	5526
2026-01-01 21:22:00.61	90.68	9.95	-48.9	-52.0	12.7	8.69e-05	0	56	0	723517440	59	5484
2026-01-01 21:22:01.59	90.84	9.92	-49.0	-52.1	12.5	9.46e-05	0	56	0	724566016	59	5589
2026-01-01 21:22:02.59	91.01	9.89	-49.0	-52.1	12.6	1.33e-04	0	56	0	726663168	59	5586
2026-01-01 21:22:03.57	91.17	9.85	-48.7	-51.6	13.0	4.80e-05	0	56	0	728760320	59	5273
2026-01-01 21:22:04.55	91.33	9.82	-48.6	-51.5	13.3	1.67e-05	0	56	0	730857472	59	5175
2026-01-01 21:22:05.54	91.50	9.79	-48.6	-51.4	13.3	1.52e-05	0	56	0	732954624	59	5128
2026-01-01 21:22:06.53	91.66	9.76	-48.6	-51.3	13.3	1.60e-05	0	56	0	734003200	59	5076
2026-01-01 21:22:07.52	91.82	9.73	-48.7	-51.5	13.2	2.05e-05	0	56	0	736100352	59	5194
2026-01-01 21:22:08.51	91.99	9.70	-48.6	-51.5	13.2	2.59e-05	0	56	0	738197504	59	5168
2026-01-01 21:22:09.50	92.15	9.66	-48.7	-51.6	13.0	1.98e-05	0	56	0	740294656	59	5245
2026-01-01 21:22:10.48	92.31	9.63	-48.8	-51.7	12.9	4.65e-05	0	56	0	741343232	59	5339
2026-01-01 21:22:11.46	92.47	9.60	-48.8	-51.9	12.8	5.79e-05	0	56	0	743440384	59	5422
2026-01-01 21:22:12.45	92.63	9.57	-48.9	-51.9	12.7	5.41e-05	0	56	0	745537536	59	5437
2026-01-01 21:22:13.44	92.79	9.53	-48.9	-52.0	12.7	6.63e-05	0	56	0	747634688	59	5494
2026-01-01 21:22:14.43	92.95	9.50	-49.0	-52.2	12.5	1.20e-04	0	56	0	748683264	59	5625
2026-01-01 21:22:15.42	93.11	9.47	-49.0	-52.3	12.3	1.69e-04	0	56	0	750780416	60	5363
2026-01-01 21:22:16.41	93.27	9.44	-49.1	-52.6	12.0	1.84e-04	0	56	0	752877568	60	5569
2026-01-01 21:22:17.41	93.43	9.40	-49.3	-52.8	11.8	3.91e-04	0	56	0	754974720	60	5709
2026-01-01 21:22:18.40	93.59	9.37	-49.4	-53.0	11.6	7.16e-04	0	56	0	757071872	60	5829
2026-01-01 21:22:19.39	93.75	9.33	-49.4	-53.3	11.3	1.11e-03	0	56	0	758120448	60	5998
2026-01-01 21:22:20.38	93.91	9.30	-49.6	-53.6	10.9	1.35e-03	0	56	0	760217600	61	5908
2026-01-01 21:22:21.37	94.07	9.27	-49.7	-53.7	10.8	2.57e-03	0	56	0	762314752	61	5966
2026-01-01 21:22:22.36	94.23	9.23	-49.7	-53.6	10.9	2.29e-03	0	56	0	764411904	61	5922
2026-01-01 21:22:23.34	94.38	9.20	-49.7	-53.8	10.7	2.70e-03	0	56	0	765460480	61	6053
2026-01-01 21:22:24.33	94.54	9.16	-49.8	-54.0	10.6	3.10e-03	0	56	0	767557632	61	6138
2026-01-01 21:22:25.32	94.70	9.13	-49.8	-53.9	10.6	3.90e-03	0	56	0	769654784	61	6109
2026-01-01 21:22:26.31	94.85	9.10	-49.5	-53.5	11.0	2.14e-03	0	56	0	771751936	61	5821
2026-01-01 21:22:27.29	95.01	9.06	-49.6	-53.5	11.0	1.92e-03	0	56	0	772800512	61	5817
2026-01-01 21:22:28.28	95.16	9.03	-49.6	-53.4	11.1	1.55e-03	0	56	0	774897664	61	5744
2026-01-01 21:22:29.27	95.32	8.99	-49.5	-53.4	11.2	1.39e-03	0	56	0	776994816	61	5733
2026-01-01 21:22:30.26	95.48	8.96	-49.6	-53.4	11.1	1.74e-03	0	56	0	779091968	61	5786
2026-01-01 21:22:31.25	95.63	8.92	-49.5	-53.3	11.3	1.37e-03	0	56	0	781189120	61	5659
2026-01-01 21:22:32.24	95.78	8.88	-49.5	-53.3	11.2	1.17e-03	0	56	0	782237696	61	5668
2026-01-01 21:22:33.23	95.94	8.85	-49.4	-53.1	11.5	1.04e-03	0	56	0	784334848	61	5554
2026-01-01 21:22:34.22	96.09	8.81	-49.3	-52.9	11.7	6.35e-04	0	56	0	786432000	61	5413
2026-01-01 21:22:35.21	96.25	8.78	-49.2	-52.7	11.9	4.60e-04	0	56	0	788529152	61	5292
2026-01-01 21:22:36.20	96.40	8.74	-49.1	-52.6	12.0	3.93e-04	0	56	0	789577728	61	5239
2026-01-01 21:22:37.19	96.55	8.71	-49.2	-52.7	11.8	4.37e-04	0	56	0	791674880	61	5329
2026-01-01 21:22:38.18	96.70	8.67	-49.3	-52.9	11.7	5.87e-04	0	56	0	793772032	61	5436
2026-01-01 21:22:39.17	96.85	8.63	-49.3	-53.0	11.5	6.53e-04	0	56	0	795869184	61	5519
2026-01-01 21:22:40.15	97.00	8.60	-49.4	-53.3	11.2	1.08e-03	0	56	0	797966336	61	5701
2026-01-01 21:22:41.13	97.15	8.56	-49.4	-53.3	11.3	1.14e-03	0	56	0	799014912	61	5663
2026-01-01 21:22:42.12	97.30	8.52	-49.5	-53.3	11.3	1.27e-03	0	56	0	801112064	61	5677
2026-01-01 21:22:43.11	97.46	8.49	-49.5	-53.3	11.2	1.37e-03	0	56	0	803209216	61	5690
2026-01-01 21:22:44.10	97.61	8.45	-49.2	-52.8	11.7	9.83e-04	0	56	0	804257792	61	5367
2026-01-01 21:22:45.08	97.75	8.41	-49.0	-52.4	12.1	3.03e-04	0	56	0	806354944	61	5134
2026-01-01 21:22:46.07	97.90	8.38	-48.8	-52.1	12.5	1.46e-04	0	56	0	808452096	60	5229
2026-01-01 21:22:47.06	98.05	8.34	-48.8	-52.0	12.6	1.11e-04	0	57	0	810549248	60	5176
2026-01-01 21:22:48.05	98.20	8.30	-48.7	-51.8	12.7	7.93e-05	0	56	0	812646400	60	5088
2026-01-01 21:22:49.05	98.35	8.26	-48.8	-51.8	12.7	6.63e-05	0	56	0	813694976	60	5100
2026-01-01 21:22:50.04	98.50	8.23	-48.9	-52.2	12.4	1.05e-04	0	56	0	815792128	60	5294
2026-01-01 21:22:51.04	98.65	8.19	-48.9	-52.2	12.4	1.52e-04	0	56	0	817889280	60	5281
2026-01-01 21:22:52.03	98.79	8.15	-49.1	-52.6	12.0	2.44e-04	0	56	0	819986432	60	5540
2026-01-01 21:22:53.01	98.94	8.11	-49.1	-52.5	12.1	3.07e-04	0	56	0	821035008	60	5489
2026-01-01 21:22:54.00	99.09	8.08	-49.1	-52.5	12.1	2.68e-04	0	56	0	823132160	60	5465
2026-01-01 21:22:54.99	99.23	8.04	-49.1	-52.6	12.0	3.65e-04	0	56	0	825229312	60	5529
2026-01-01 21:22:55.98	99.38	8.00	-49.1	-52.5	12.1	2.83e-04	0	57	0	827326464	60	5476
2026-01-01 21:22:56.97	99.52	7.96	-49.2	-52.6	12.0	3.13e-04	0	56	0	829423616	60	5542
2026-01-01 21:22:57.96	99.67	7.92	-49.2	-52.6	12.0	4.03e-04	0	57	0	830472192	60	5552
2026-01-01 21:22:58.95	99.81	7.88	-49.2	-52.7	11.8	4.42e-04	0	56	0	832569344	60	5633
2026-01-01 21:22:59.95	99.96	7.85	-49.0	-52.2	12.3	2.22e-04	0	56	0	834666496	60	5329
2026-01-01 21:23:00.94	100.10	7.81	-48.6	-51.6	13.0	7.55e-05	0	57	0	836763648	60	4946
2026-01-01 21:23:01.93	100.24	7.77	-48.5	-51.3	13.2	1.67e-05	0	57	0	837812224	60	4810
2026-01-01 21:23:02.92	100.39	7.73	-48.4	-51.1	13.4	1.83e-05	0	56	0	839909376	59	4978
2026-01-01 21:23:03.89	100.53	7.69	-48.5	-51.2	13.4	1.44e-05	0	56	0	842006528	59	5016
2026-01-01 21:23:04.89	100.67	7.65	-48.6	-51.4	13.1	2.44e-05	0	56	0	844103680	59	5149
2026-01-01 21:23:05.88	100.81	7.61	-48.6	-51.6	13.0	3.58e-05	0	57	0	845152256	59	5237
2026-01-01 21:23:06.87	100.95	7.57	-48.6	-51.6	13.0	3.89e-05	0	56	0	847249408	59	5241
2026-01-01 21:23:07.86	101.10	7.53	-48.7	-51.7	12.9	5.34e-05	0	56	0	849346560	59	5291
2026-01-01 21:23:08.85	101.24	7.49	-48.7	-51.7	12.8	5.95e-05	0	56	0	851443712	59	5309
2026-01-01 21:23:09.84	101.38	7.45	-48.6	-51.7	12.9	4.88e-05	0	56	0	853540864	59	5293
2026-01-01 21:23:10.82	101.52	7.42	-48.8	-51.8	12.7	5.34e-05	0	57	0	854589440	59	5363
2026-01-01 21:23:11.81	101.66	7.38	-48.8	-51.8	12.8	8.62e-05	0	56	0	856686592	59	5343
2026-01-01 21:23:12.80	101.80	7.34	-48.8	-52.0	12.5	9.46e-05	0	57	0	858783744	59	5490
2026-01-01 21:23:13.79	101.93	7.30	-48.8	-51.9	12.6	1.27e-04	0	56	0	860880896	59	5449
2026-01-01 21:23:14.78	102.07	7.26	-48.9	-52.2	12.4	1.50e-04	0	56	0	861929472	59	5593
2026-01-01 21:23:15.77	102.21	7.22	-48.8	-52.0	12.5	1.27e-04	0	56	0	864026624	59	5492
2026-01-01 21:23:16.75	102.35	7.18	-49.0	-52.2	12.3	1.23e-04	0	56	0	866123776	59	5605
2026-01-01 21:23:17.74	102.49	7.14	-48.9	-52.1	12.4	1.94e-04	0	56	0	868220928	59	5588
2026-01-01 21:23:18.72	102.62	7.10	-48.9	-52.0	12.4	1.40e-04	0	56	0	869269504	59	5528
2026-01-01 21:23:19.71	102.76	7.06	-48.9	-52.0	12.5	1.42e-04	0	56	0	871366656	59	5491
2026-01-01 21:23:20.70	102.89	7.02	-48.8	-51.8	12.7	1.23e-04	0	56	0	873463808	59	5383
2026-01-01 21:23:21.69	103.03	6.98	-48.8	-51.8	12.7	6.17e-05	0	56	0	875560960	59	5344
2026-01-01 21:23:22.68	103.17	6.94	-48.6	-51.5	13.0	6.56e-05	0	57	0	877658112	59	5176
2026-01-01 21:23:23.67	103.30	6.89	-48.6	-51.4	13.1	2.13e-05	0	56	0	878706688	59	5158
2026-01-01 21:23:24.66	103.44	6.85	-48.6	-51.6	12.9	4.88e-05	0	56	0	880803840	59	5274
2026-01-01 21:23:25.65	103.57	6.81	-48.6	-51.4	13.1	4.88e-05	0	57	0	882900992	59	5143
2026-01-01 21:23:26.64	103.71	6.77	-48.4	-51.1	13.4	1.75e-05	0	56	0	884998144	59	4953
2026-01-01 21:23:27.63	103.84	6.73	-48.3	-51.0	13.5	1.06e-05	0	56	0	886046720	59	4885
2026-01-01 21:23:28.62	103.97	6.69	-48.4	-51.1	13.4	7.60e-06	0	57	0	888143872	59	4937
2026-01-01 21:23:29.60	104.11	6.65	-48.3	-51.0	13.4	1.22e-05	0	57	0	890241024	59	4916
2026-01-01 21:23:30.59	104.24	6.61	-48.4	-51.1	13.4	1.29e-05	0	57	0	892338176	59	4964
2026-01-01 21:23:31.58	104.37	6.57	-48.3	-51.1	13.4	2.05e-05	0	56	0	893386752	59	4952
2026-01-01 21:23:32.57	104.50	6.53	-48.3	-51.0	13.5	1.29e-05	0	56	0	895483904	59	4871
2026-01-01 21:23:33.56	104.63	6.49	-48.3	-51.0	13.4	1.14e-05	0	56	0	897581056	59	4901
2026-01-01 21:23:34.56	104.77	6.44	-48.3	-51.1	13.4	1.60e-05	0	56	0	899678208	59	4933
2026-01-01 21:23:35.54	104.90	6.40	-48.4	-51.3	13.2	2.21e-05	0	56	0	900726784	59	5048
2026-01-01 21:23:36.53	105.03	6.36	-48.5	-51.5	13.0	3.73e-05	0	57	0	902823936	59	5163
2026-01-01 21:23:37.53	105.16	6.32	-48.5	-51.4	13.1	4.42e-05	0	56	0	904921088	59	5104
2026-01-01 21:23:38.53	105.29	6.28	-48.4	-51.3	13.1	2.89e-05	0	57	0	907018240	59	5075
2026-01-01 21:23:39.52	105.42	6.24	-48.3	-51.1	13.3	2.51e-05	0	56	0	909115392	59	4975
2026-01-01 21:23:40.50	105.55	6.20	-48.5	-51.5	12.9	2.89e-05	0	56	0	910163968	59	5186
2026-01-01 21:23:41.49	105.68	6.15	-48.6	-51.7	12.7	5.64e-05	0	56	0	912261120	59	5309
2026-01-01 21:23:42.49	105.81	6.11	-48.6	-51.6	12.8	6.25e-05	0	56	0	914358272	59	5256
2026-01-01 21:23:43.48	105.94	6.07	-48.5	-51.5	12.9	6.17e-05	0	57	0	916455424	59	5184
2026-01-01 21:23:44.47	106.06	6.03	-48.5	-51.6	12.8	6.17e-05	0	57	0	917504000	59	5230
2026-01-01 21:23:45.46	106.19	5.99	-48.6	-51.6	12.8	6.79e-05	0	57	0	919601152	59	5259
2026-01-01 21:23:46.46	106.32	5.94	-48.5	-51.5	12.9	5.18e-05	0	56	0	921698304	59	5170
2026-01-01 21:23:47.45	106.45	5.90	-48.4	-51.4	13.0	3.35e-05	0	57	0	923795456	59	5103
2026-01-01 21:23:48.45	106.57	5.86	-48.4	-51.2	13.1	3.20e-05	0	56	0	925892608	59	5029
2026-01-01 21:23:49.43	106.70	5.82	-48.2	-51.0	13.4	2.51e-05	0	57	0	926941184	59	4891
2026-01-01 21:23:50.42	106.83	5.78	-48.1	-50.8	13.6	9.10e-06	0	56	0	929038336	59	4798
2026-01-01 21:23:51.41	106.95	5.73	-48.0	-50.7	13.6	5.30e-06	0	56	0	931135488	59	4729
2026-01-01 21:23:52.40	107.08	5.69	-48.0	-50.6	13.7	3.00e-06	0	57	0	933232640	59	4695
2026-01-01 21:23:53.38	107.20	5.65	-48.1	-50.7	13.7	5.30e-06	0	56	0	934281216	59	4735
2026-01-01 21:23:54.38	107.32	5.61	-48.2	-50.9	13.5	2.20e-06	0	56	0	936378368	59	4821
2026-01-01 21:23:55.37	107.45	5.56	-48.4	-51.1	13.2	1.75e-05	0	57	0	938475520	59	4978
2026-01-01 21:23:56.36	107.57	5.52	-48.4	-51.2	13.2	2.28e-05	0	57	0	940572672	59	5000
2026-01-01 21:23:57.35	107.70	5.48	-48.5	-51.3	13.0	2.97e-05	0	57	0	942669824	59	5100
2026-01-01 21:23:58.34	107.82	5.44	-48.5	-51.4	12.9	4.95e-05	0	57	0	943718400	59	5145
2026-01-01 21:23:59.32	107.94	5.40	-48.4	-51.3	13.0	3.89e-05	0	57	0	945815552	59	5086
2026-01-01 21:24:00.32	108.06	5.35	-48.6	-51.7	12.6	5.87e-05	0	57	0	947912704	59	5311
2026-01-01 21:24:01.31	108.19	5.31	-48.6	-51.8	12.5	1.23e-04	0	56	0	950009856	59	5342
2026-01-01 21:24:02.30	108.31	5.27	-48.5	-51.5	12.8	8.31e-05	0	56	0	951058432	59	5190
2026-01-01 21:24:03.29	108.43	5.22	-48.5	-51.4	12.8	7.40e-05	0	57	0	953155584	59	5147
2026-01-01 21:24:04.28	108.55	5.18	-48.4	-51.6	12.7	5.64e-05	0	57	0	955252736	59	5222
2026-01-01 21:24:05.26	108.67	5.14	-48.6	-51.7	12.6	9.53e-05	0	57	0	957349888	59	5294
2026-01-01 21:24:06.24	108.79	5.10	-48.4	-51.4	12.9	7.09e-05	0	57	0	958398464	59	5117
2026-01-01 21:24:07.23	108.91	5.05	-50.5	-57.1	7.9	2.14e-04	0	57	0	960495616	62	8356
2026-01-01 21:24:08.21	109.03	5.01	-51.6	-65.4	3.8	1.49e+00	0	57	104	960495616	65	18279
2026-01-01 21:24:09.20	109.15	4.97	-51.8	-65.7	3.8	1.49e+00	0	57	104	960495616	65	18856
2026-01-01 21:24:10.19	109.27	4.93	-52.0	-65.8	3.8	1.49e+00	0	57	104	960495616	65	19109
2026-01-01 21:24:11.17	109.38	4.88	-52.1	-65.9	3.8	1.49e+00	0	57	104	960495616	65	19295
2026-01-01 21:24:12.15	109.50	4.84	-52.2	-66.0	3.8	1.49e+00	0	56	104	960495616	66	18410
2026-01-01 21:24:13.14	109.62	4.80	-52.1	-66.1	3.8	1.49e+00	0	57	104	960495616	66	18586
2026-01-01 21:24:14.13	109.74	4.76	-52.1	-66.1	3.8	1.49e+00	0	57	104	960495616	66	18594
2026-01-01 21:24:15.12	109.85	4.71	-52.2	-66.1	3.8	1.49e+00	0	57	104	960495616	66	18658
2026-01-01 21:24:16.11	109.97	4.67	-50.8	-64.7	3.8	1.49e+00	0	57	104	960495616	64	17853
2026-01-01 21:24:17.10	110.09	4.63	-52.2	-66.2	3.8	1.49e+00	0	57	104	960495616	66	18815
2026-01-01 21:24:18.08	110.20	4.58	-52.3	-66.2	3.8	1.49e+00	0	57	104	960495616	66	18864
2026-01-01 21:24:19.07	110.32	4.54	-52.1	-66.2	3.8	1.49e+00	0	57	104	960495616	66	18809
2026-01-01 21:24:20.06	110.43	4.50	-52.2	-66.2	3.8	1.49e+00	0	57	104	960495616	66	18941
2026-01-01 21:24:21.05	110.55	4.45	-52.3	-66.2	3.8	1.49e+00	0	57	104	960495616	66	18913
2026-01-01 21:24:22.04	110.66	4.41	-52.3	-66.3	3.8	1.49e+00	0	57	104	960495616	66	19008
2026-01-01 21:24:23.02	110.78	4.37	-52.4	-66.3	3.8	1.49e+00	0	57	104	960495616	66	19059
2026-01-01 21:24:24.01	110.89	4.33	-52.3	-66.3	3.8	1.49e+00	0	57	104	960495616	66	19119
2026-01-01 21:24:25.01	111.01	4.28	-52.5	-66.3	3.8	1.49e+00	0	57	104	960495616	66	19145
2026-01-01 21:24:26.00	111.12	4.24	-52.3	-66.3	3.8	1.49e+00	0	57	104	960495616	66	19160
2026-01-01 21:24:26.99	111.23	4.19	-52.4	-66.3	3.8	1.49e+00	0	57	104	960495616	66	19133
2026-01-01 21:24:27.98	111.35	4.15	-52.3	-66.3	3.8	1.49e+00	0	57	104	960495616	66	19140
2026-01-01 21:24:28.96	111.46	4.11	-52.5	-66.3	3.8	1.49e+00	0	57	104	960495616	66	19157
2026-01-01 21:24:29.95	111.57	4.07	-52.5	-66.4	3.8	1.49e+00	0	57	104	960495616	66	19203
2026-01-01 21:24:30.93	111.68	4.02	-52.4	-66.4	3.8	1.49e+00	0	57	104	960495616	66	19202
2026-01-01 21:24:31.93	111.80	3.98	-52.4	-66.4	3.8	1.49e+00	0	57	104	960495616	66	19231
2026-01-01 21:24:32.92	111.91	3.93	-52.4	-66.4	3.8	1.49e+00	0	57	104	960495616	66	19218
2026-01-01 21:24:33.91	112.02	3.89	-52.4	-66.4	3.8	1.49e+00	0	57	104	960495616	66	19210
2026-01-01 21:24:34.90	112.13	3.85	-52.4	-66.4	3.8	1.49e+00	0	57	104	960495616	66	19173
2026-01-01 21:24:35.89	112.24	3.80	-52.4	-66.4	3.8	1.49e+00	0	57	104	960495616	66	19186
2026-01-01 21:24:36.88	112.35	3.76	-52.4	-66.4	3.8	1.49e+00	0	57	104	960495616	66	19183
2026-01-01 21:24:37.87	112.46	3.72	-52.3	-66.4	3.8	1.49e+00	0	57	104	960495616	66	19205
2026-01-01 21:24:38.86	112.57	3.67	-52.3	-66.4	3.8	1.49e+00	0	57	104	960495616	66	19190
2026-01-01 21:24:39.85	112.68	3.63	-52.5	-66.3	3.8	1.49e+00	0	57	104	960495616	66	19151
2026-01-01 21:24:40.84	112.79	3.59	-52.5	-66.4	3.8	1.49e+00	0	57	104	960495616	66	19197
2026-01-01 21:24:41.84	112.90	3.54	-52.5	-66.3	3.8	1.49e+00	0	57	104	960495616	66	19135
2026-01-01 21:24:42.83	113.01	3.50	-52.4	-66.4	3.8	1.49e+00	0	57	104	960495616	66	19182
2026-01-01 21:24:43.82	113.11	3.46	-52.4	-66.4	3.8	1.49e+00	0	57	104	960495616	66	19190
2026-01-01 21:24:44.81	113.22	3.41	-52.5	-66.3	3.8	1.49e+00	0	57	104	960495616	66	19159
2026-01-01 21:24:45.80	113.33	3.37	-52.5	-66.4	3.8	1.49e+00	0	57	104	960495616	66	19183
2026-01-01 21:24:46.79	113.44	3.32	-52.6	-66.4	3.8	1.49e+00	0	57	104	960495616	66	19185
2026-01-01 21:24:47.78	113.54	3.28	-52.3	-66.4	3.8	1.49e+00	0	57	104	960495616	66	19168
2026-01-01 21:24:48.77	113.65	3.24	-52.5	-66.4	3.8	1.49e+00	0	57	104	960495616	66	19217
2026-01-01 21:24:49.76	113.76	3.19	-52.5	-66.3	3.8	1.49e+00	0	57	104	960495616	66	19154
2026-01-01 21:24:50.76	113.86	3.15	-52.5	-66.3	3.8	1.49e+00	0	57	104	960495616	66	19164
2026-01-01 21:24:51.74	113.97	3.11	-52.4	-66.3	3.8	1.49e+00	0	57	104	960495616	66	19157
2026-01-01 21:24:52.73	114.07	3.06	-52.5	-66.3	3.8	1.49e+00	0	57	104	960495616	66	19129
2026-01-01 21:24:53.72	114.18	3.02	-52.4	-66.3	3.8	1.49e+00	0	57	104	960495616	66	19110
2026-01-01 21:24:54.71	114.28	2.98	-52.4	-66.3	3.8	1.49e+00	0	57	104	960495616	66	19111
2026-01-01 21:24:55.71	114.39	2.93	-52.5	-66.3	3.8	1.49e+00	0	57	104	960495616	66	19138

#Closed at: 2026-01-01 21:24:56
#Recorded file [960 MB]: D:/Data/31026_260102_002407.dat