passes_logs/2026/01/01/R3.0SM8_Murmansk_STILSPACE/R3.0SM8_Murmansk_STILSPACE__20260101_062617_AQUA_rec.log

#Pass ID: 20260101_062617_AQUA
#Satellite: AQUA
#Configuration: AQUA
#almurnet v.1.7.20240730
#Start time: 2026-01-01 06:26:18

#Version: 2.2.20231116
#Station: R3.0SM8_Murmansk_STILSPACE
#Location: 33.092731 lon 68.902999 lat
#TLE: 1 27424U 02022A   25364.96158943  .00001951  00000+0  40088-3 0  9998
#TLE: 2 27424  98.4061 326.1389 0001917  95.3187 305.7939 14.61780362258696

#Time	Az	El	Level	Level2	SNR	BER	BlckErr	Temp	State	Recorded	gain1	gain2
2026-01-01 06:26:18.04	50.93	3.01	-54.3	-74.2	3.8	7.50e-01	0	50	0	0	71	36424
2026-01-01 06:26:19.02	50.85	3.07	-54.1	-74.1	3.8	7.45e-01	0	50	104	0	70	37913
2026-01-01 06:26:20.01	50.76	3.12	-54.1	-74.0	3.8	7.43e-01	0	50	104	0	70	37467
2026-01-01 06:26:20.99	50.68	3.18	-54.0	-73.9	3.8	7.45e-01	0	50	104	0	70	37229
2026-01-01 06:26:21.98	50.59	3.24	-53.9	-73.8	3.8	7.46e-01	0	50	104	0	70	36601
2026-01-01 06:26:22.96	50.50	3.30	-53.7	-73.6	3.8	7.47e-01	0	50	104	0	70	35912
2026-01-01 06:26:23.94	50.42	3.35	-53.5	-73.3	3.8	7.47e-01	0	50	104	0	70	34713
2026-01-01 06:26:24.93	50.33	3.41	-53.2	-73.0	3.8	7.46e-01	0	50	104	0	70	33593
2026-01-01 06:26:25.91	50.24	3.47	-53.3	-73.0	3.8	7.46e-01	0	50	104	0	70	33667
2026-01-01 06:26:26.89	50.15	3.53	-53.3	-72.9	3.8	7.46e-01	0	50	104	0	70	33291
2026-01-01 06:26:27.88	50.06	3.58	-53.2	-72.9	3.8	7.45e-01	0	50	104	0	70	33225
2026-01-01 06:26:28.86	49.98	3.64	-53.2	-72.8	3.8	7.44e-01	0	50	104	0	70	32760
2026-01-01 06:26:29.85	49.89	3.70	-53.2	-72.6	3.8	7.47e-01	0	50	104	0	70	31851
2026-01-01 06:26:30.83	49.80	3.76	-53.2	-72.3	3.8	7.43e-01	0	50	104	0	70	30873
2026-01-01 06:26:31.82	49.71	3.81	-53.2	-72.2	3.8	7.46e-01	0	51	104	0	70	30712
2026-01-01 06:26:32.81	49.61	3.87	-53.2	-72.2	3.8	7.43e-01	0	51	104	0	70	30456
2026-01-01 06:26:33.79	49.52	3.93	-53.2	-72.3	3.8	7.46e-01	0	51	104	0	70	30776
2026-01-01 06:26:34.77	49.43	3.99	-53.2	-72.3	3.8	7.45e-01	0	51	104	0	70	31078
2026-01-01 06:26:35.76	49.34	4.05	-53.2	-72.5	3.8	7.45e-01	0	51	104	0	70	31570
2026-01-01 06:26:36.74	49.25	4.10	-53.2	-72.6	3.8	7.45e-01	0	51	104	0	70	31853
2026-01-01 06:26:37.72	49.16	4.16	-53.2	-72.7	3.8	7.45e-01	0	51	104	0	70	32339
2026-01-01 06:26:38.71	49.06	4.22	-53.2	-72.7	3.8	7.43e-01	0	51	104	0	70	32234
2026-01-01 06:26:39.69	48.97	4.28	-53.2	-72.3	3.8	7.47e-01	0	51	104	0	70	31086
2026-01-01 06:26:40.67	48.87	4.34	-53.2	-72.2	3.8	7.47e-01	0	51	104	0	70	30405
2026-01-01 06:26:41.66	48.78	4.40	-53.2	-71.0	3.9	7.45e-01	0	51	104	0	70	26678
2026-01-01 06:26:42.64	48.68	4.45	-53.2	-72.6	3.8	7.47e-01	0	51	104	0	70	31912
2026-01-01 06:26:43.63	48.59	4.51	-53.1	-72.1	3.8	7.42e-01	0	51	104	0	69	32142
2026-01-01 06:26:44.61	48.49	4.57	-53.0	-71.4	3.8	7.44e-01	0	51	104	0	69	29632
2026-01-01 06:26:45.59	48.40	4.63	-52.9	-70.5	3.8	7.44e-01	0	52	104	0	69	26763
2026-01-01 06:26:46.58	48.30	4.69	-52.7	-69.6	3.8	7.45e-01	0	52	104	0	69	24032
2026-01-01 06:26:47.56	48.20	4.75	-52.5	-68.7	3.8	7.44e-01	0	52	104	0	68	22916
2026-01-01 06:26:48.55	48.11	4.81	-52.2	-67.7	3.8	7.41e-01	0	52	104	0	68	20386
2026-01-01 06:26:49.53	48.01	4.87	-51.9	-66.8	3.9	7.40e-01	0	52	104	0	67	19612
2026-01-01 06:26:50.51	47.91	4.93	-51.7	-66.4	3.8	7.44e-01	0	52	104	0	67	18724
2026-01-01 06:26:51.49	47.81	4.98	-51.5	-65.9	3.8	7.46e-01	0	52	104	0	66	18550
2026-01-01 06:26:52.48	47.71	5.04	-51.6	-66.0	3.8	7.44e-01	0	52	104	0	66	18877
2026-01-01 06:26:53.47	47.61	5.10	-51.6	-66.0	3.8	7.47e-01	0	52	104	0	66	18894
2026-01-01 06:26:54.45	47.51	5.16	-51.6	-66.0	3.8	7.44e-01	0	52	104	0	66	18923
2026-01-01 06:26:55.43	47.41	5.22	-51.7	-66.1	4.0	7.38e-01	0	52	104	0	66	18953
2026-01-01 06:26:56.42	47.31	5.28	-51.9	-66.6	3.8	7.46e-01	0	52	104	0	66	20133
2026-01-01 06:26:57.41	47.21	5.34	-52.0	-66.9	3.8	7.44e-01	0	52	104	0	66	20905
2026-01-01 06:26:58.39	47.11	5.40	-52.2	-67.4	3.8	7.43e-01	0	52	104	0	66	22235
2026-01-01 06:26:59.37	47.00	5.46	-52.4	-68.3	3.8	7.46e-01	0	52	104	0	67	23172
2026-01-01 06:27:00.36	46.90	5.52	-52.6	-69.0	3.9	7.45e-01	0	53	104	0	67	25089
2026-01-01 06:27:01.34	46.80	5.58	-52.8	-69.6	3.8	7.47e-01	0	53	104	0	67	26769
2026-01-01 06:27:02.31	46.69	5.64	-52.8	-69.6	3.8	7.42e-01	0	53	104	0	67	26811
2026-01-01 06:27:03.30	46.59	5.70	-53.0	-70.3	3.8	7.46e-01	0	53	104	0	68	27467
2026-01-01 06:27:04.28	46.48	5.76	-53.1	-70.6	3.8	7.46e-01	0	53	104	0	68	28679
2026-01-01 06:27:05.26	46.38	5.82	-53.1	-70.7	3.8	7.45e-01	0	53	104	0	68	28925
2026-01-01 06:27:06.25	46.27	5.88	-53.1	-70.5	3.8	7.44e-01	0	53	104	0	68	28119
2026-01-01 06:27:07.24	46.17	5.94	-53.0	-70.3	3.8	7.47e-01	0	53	104	0	68	27599
2026-01-01 06:27:08.22	46.06	6.00	-53.0	-70.3	3.8	7.44e-01	0	53	104	0	68	27514
2026-01-01 06:27:09.21	45.95	6.06	-53.0	-70.2	3.8	7.46e-01	0	53	104	0	68	27188
2026-01-01 06:27:10.19	45.84	6.12	-53.0	-70.2	3.8	7.45e-01	0	53	104	0	68	27386
2026-01-01 06:27:11.18	45.73	6.19	-53.1	-70.7	3.8	7.47e-01	0	53	104	0	68	28857
2026-01-01 06:27:12.17	45.62	6.25	-53.0	-70.1	3.8	7.45e-01	0	53	104	0	68	26917
2026-01-01 06:27:13.15	45.52	6.31	-52.9	-69.5	3.8	7.42e-01	0	53	104	0	68	25099
2026-01-01 06:27:14.14	45.40	6.37	-52.6	-68.6	3.8	7.46e-01	0	53	104	0	68	22632
2026-01-01 06:27:15.12	45.29	6.43	-52.3	-67.7	3.8	7.45e-01	0	53	104	0	68	20344
2026-01-01 06:27:16.11	45.18	6.49	-52.0	-66.6	3.8	7.42e-01	0	54	104	0	67	19010
2026-01-01 06:27:17.09	45.07	6.55	-51.9	-66.4	3.8	7.42e-01	0	53	104	0	67	18681
2026-01-01 06:27:18.07	44.96	6.61	-51.9	-66.4	3.8	7.45e-01	0	54	104	0	67	18570
2026-01-01 06:27:19.06	44.85	6.67	-51.9	-66.4	3.8	7.45e-01	0	54	104	0	67	18699
2026-01-01 06:27:20.04	44.73	6.73	-52.0	-66.5	3.8	7.41e-01	0	54	104	0	67	18907
2026-01-01 06:27:21.03	44.62	6.80	-52.0	-66.7	3.8	7.47e-01	0	54	104	0	67	19288
2026-01-01 06:27:22.01	44.51	6.86	-52.1	-67.0	3.8	7.47e-01	0	54	104	0	67	19996
2026-01-01 06:27:22.99	44.39	6.92	-52.2	-67.2	3.8	7.43e-01	0	54	104	0	67	20350
2026-01-01 06:27:23.98	44.28	6.98	-52.3	-67.6	3.8	7.44e-01	0	54	104	0	67	21306
2026-01-01 06:27:24.96	44.16	7.04	-52.0	-66.6	3.8	7.44e-01	0	54	104	0	67	19025
2026-01-01 06:27:25.94	44.04	7.10	-51.8	-66.1	3.8	7.46e-01	0	54	104	0	67	17965
2026-01-01 06:27:26.93	43.93	7.16	-51.5	-65.5	3.8	7.44e-01	0	54	104	0	66	17767
2026-01-01 06:27:27.92	43.81	7.23	-51.3	-65.0	3.8	7.44e-01	0	54	104	0	66	16704
2026-01-01 06:27:28.90	43.69	7.29	-51.1	-64.6	3.8	7.44e-01	0	54	104	0	65	16943
2026-01-01 06:27:29.88	43.57	7.35	-51.0	-64.4	3.8	7.48e-01	0	54	104	0	65	16511
2026-01-01 06:27:30.86	43.45	7.41	-50.6	-63.6	3.8	7.44e-01	0	54	104	0	64	15980
2026-01-01 06:27:31.84	43.33	7.47	-50.4	-63.3	3.8	7.44e-01	0	54	104	0	64	15416
2026-01-01 06:27:32.84	43.21	7.54	-50.3	-63.0	3.8	7.44e-01	0	54	104	0	64	14938
2026-01-01 06:27:33.82	43.09	7.60	-50.2	-62.8	3.8	7.43e-01	0	54	104	0	64	14626
2026-01-01 06:27:34.80	42.97	7.66	-50.1	-62.6	3.8	7.44e-01	0	54	104	0	63	15169
2026-01-01 06:27:35.79	42.85	7.72	-50.0	-62.4	3.8	7.45e-01	0	54	104	0	63	14807
2026-01-01 06:27:36.78	42.72	7.78	-49.8	-62.1	3.8	7.45e-01	0	55	104	0	63	14241
2026-01-01 06:27:37.76	42.60	7.85	-49.8	-62.1	3.8	7.43e-01	0	54	104	0	63	14259
2026-01-01 06:27:38.75	42.48	7.91	-50.0	-62.4	3.8	7.45e-01	0	55	104	0	63	14724
2026-01-01 06:27:39.73	42.35	7.97	-50.3	-62.9	3.8	7.42e-01	0	55	104	0	63	15592
2026-01-01 06:27:40.72	42.23	8.03	-50.6	-63.4	3.8	7.46e-01	0	55	104	0	63	16692
2026-01-01 06:27:41.71	42.10	8.10	-50.9	-64.1	3.8	7.44e-01	0	55	104	0	64	16961
2026-01-01 06:27:42.69	41.98	8.16	-51.1	-64.3	3.8	7.43e-01	0	54	104	0	64	17416
2026-01-01 06:27:43.67	41.85	8.22	-51.1	-64.3	3.8	7.45e-01	0	55	104	0	64	17452
2026-01-01 06:27:44.66	41.72	8.28	-51.2	-64.5	3.8	7.40e-01	0	55	104	0	64	17766
2026-01-01 06:27:45.64	41.59	8.35	-51.3	-64.7	3.8	7.45e-01	0	55	104	0	64	18239
2026-01-01 06:27:46.63	41.46	8.41	-51.4	-65.0	3.8	7.45e-01	0	55	104	0	65	17872
2026-01-01 06:27:47.61	41.34	8.47	-51.5	-65.2	3.8	7.46e-01	0	55	104	0	65	18252
2026-01-01 06:27:48.59	41.21	8.53	-51.7	-65.5	3.8	7.45e-01	0	55	104	0	65	18883
2026-01-01 06:27:49.57	41.08	8.60	-52.0	-66.2	3.8	7.42e-01	0	55	104	0	66	19302
2026-01-01 06:27:50.56	40.94	8.66	-52.3	-67.2	3.8	7.45e-01	0	55	104	0	66	21643
2026-01-01 06:27:51.55	40.81	8.72	-52.6	-68.1	3.8	7.44e-01	0	55	104	0	67	22521
2026-01-01 06:27:52.53	40.68	8.79	-52.8	-68.8	3.8	7.45e-01	0	55	104	0	67	24453
2026-01-01 06:27:53.51	40.55	8.85	-53.1	-69.6	3.8	7.43e-01	0	55	104	0	68	25363
2026-01-01 06:27:54.49	40.41	8.91	-53.2	-70.1	3.8	7.46e-01	0	55	104	0	68	26914
2026-01-01 06:27:55.47	40.28	8.97	-53.3	-70.5	3.8	7.46e-01	0	55	104	0	68	28152
2026-01-01 06:27:56.46	40.14	9.04	-53.3	-70.6	3.8	7.43e-01	0	55	104	0	68	28378
2026-01-01 06:27:57.44	40.01	9.10	-53.3	-70.3	3.8	7.42e-01	0	56	104	0	68	27588
2026-01-01 06:27:58.42	39.87	9.16	-53.2	-70.1	3.8	7.44e-01	0	55	104	0	68	26881
2026-01-01 06:27:59.41	39.74	9.23	-53.2	-70.0	3.8	7.45e-01	0	56	104	0	68	26476
2026-01-01 06:28:00.40	39.60	9.29	-53.2	-69.9	3.8	7.46e-01	0	55	104	0	68	26263
2026-01-01 06:28:01.38	39.46	9.35	-53.2	-69.8	3.8	7.43e-01	0	55	104	0	68	26026
2026-01-01 06:28:02.36	39.32	9.42	-53.2	-70.0	3.8	7.43e-01	0	56	104	0	68	26705
2026-01-01 06:28:03.35	39.18	9.48	-53.3	-70.4	3.8	7.49e-01	0	56	104	0	68	27760
2026-01-01 06:28:04.33	39.04	9.54	-53.2	-69.7	3.8	7.44e-01	0	56	104	0	68	25817
2026-01-01 06:28:05.31	38.90	9.61	-52.9	-68.8	3.8	7.43e-01	0	56	104	0	68	23292
2026-01-01 06:28:06.30	38.76	9.67	-52.6	-67.8	3.8	7.45e-01	0	56	104	0	68	20687
2026-01-01 06:28:07.28	38.62	9.73	-52.4	-67.0	3.8	7.44e-01	0	56	104	0	68	18902
2026-01-01 06:28:08.26	38.48	9.80	-52.3	-66.9	3.8	7.43e-01	0	56	104	0	68	18730
2026-01-01 06:28:09.25	38.33	9.86	-52.4	-67.0	3.8	7.44e-01	0	56	104	0	68	18737
2026-01-01 06:28:10.23	38.19	9.92	-52.4	-67.0	3.8	7.43e-01	0	56	104	0	68	18734
2026-01-01 06:28:11.22	38.04	9.99	-52.4	-67.2	3.8	7.45e-01	0	56	104	0	68	19188
2026-01-01 06:28:12.20	37.90	10.05	-52.5	-67.4	3.8	7.43e-01	0	56	104	0	68	19825
2026-01-01 06:28:13.19	37.75	10.11	-52.6	-67.7	3.8	7.47e-01	0	56	104	0	68	20511
2026-01-01 06:28:14.17	37.60	10.18	-52.6	-67.6	3.8	7.44e-01	0	56	104	0	68	20103
2026-01-01 06:28:15.15	37.46	10.24	-52.3	-66.9	3.8	7.41e-01	0	56	104	0	68	18592
2026-01-01 06:28:16.14	37.31	10.30	-52.0	-66.1	3.8	7.45e-01	0	56	104	0	67	17978
2026-01-01 06:28:17.12	37.16	10.37	-51.6	-65.3	3.8	7.44e-01	0	56	104	0	66	17348
2026-01-01 06:28:18.11	37.01	10.43	-51.3	-64.7	3.8	7.41e-01	0	56	104	0	66	16137
2026-01-01 06:28:19.10	36.86	10.49	-51.0	-64.1	3.8	7.43e-01	0	56	104	0	65	16088
2026-01-01 06:28:20.07	36.71	10.56	-50.9	-63.8	3.8	7.43e-01	0	56	104	0	65	15435
2026-01-01 06:28:21.06	36.55	10.62	-50.5	-63.1	3.8	7.47e-01	0	56	104	0	64	15166
2026-01-01 06:28:22.05	36.40	10.68	-50.2	-62.7	3.8	7.45e-01	0	56	104	0	64	14398
2026-01-01 06:28:23.03	36.25	10.75	-50.1	-62.3	3.8	7.45e-01	0	56	104	0	63	14613
2026-01-01 06:28:24.02	36.09	10.81	-49.9	-62.0	3.8	7.45e-01	0	56	104	0	63	14086
2026-01-01 06:28:25.00	35.94	10.87	-49.7	-61.8	3.8	7.43e-01	0	57	104	0	63	13728
2026-01-01 06:28:25.98	35.78	10.94	-49.6	-61.6	3.8	7.45e-01	0	57	104	0	62	14343
2026-01-01 06:28:26.97	35.62	11.00	-49.4	-61.2	3.8	7.44e-01	0	57	104	0	62	13692
2026-01-01 06:28:27.95	35.47	11.06	-49.3	-61.2	3.8	7.43e-01	0	57	104	0	62	13623
2026-01-01 06:28:28.94	35.31	11.13	-49.1	-60.9	3.8	7.48e-01	0	57	104	0	61	13893
2026-01-01 06:28:29.92	35.15	11.19	-49.1	-60.8	3.8	7.48e-01	0	57	104	0	61	13804
2026-01-01 06:28:30.91	34.99	11.25	-49.3	-61.1	3.8	7.45e-01	0	57	104	0	61	14262
2026-01-01 06:28:31.89	34.83	11.32	-49.5	-61.5	3.8	7.44e-01	0	57	104	0	61	14883
2026-01-01 06:28:32.88	34.67	11.38	-49.8	-61.9	3.9	7.43e-01	0	57	104	0	61	15648
2026-01-01 06:28:33.86	34.51	11.44	-49.9	-62.1	3.8	7.44e-01	0	57	104	0	62	15120
2026-01-01 06:28:34.84	34.35	11.51	-50.0	-62.3	3.8	7.46e-01	0	57	104	0	62	15427
2026-01-01 06:28:35.83	34.18	11.57	-50.2	-62.6	3.8	7.44e-01	0	57	104	0	62	15982
2026-01-01 06:28:36.81	34.02	11.63	-50.4	-62.9	3.9	7.41e-01	0	57	104	0	63	15708
2026-01-01 06:28:37.79	33.85	11.70	-50.7	-63.4	3.8	7.45e-01	0	57	104	0	63	16624
2026-01-01 06:28:38.78	33.69	11.76	-50.9	-63.8	3.8	7.46e-01	0	57	104	0	64	16368
2026-01-01 06:28:39.76	33.52	11.82	-50.7	-63.5	3.8	7.44e-01	0	57	104	0	64	15772
2026-01-01 06:28:40.74	33.36	11.88	-50.9	-63.8	3.8	7.41e-01	0	57	104	0	64	16323
2026-01-01 06:28:41.74	33.19	11.95	-51.3	-64.5	3.8	7.43e-01	0	57	104	0	64	17703
2026-01-01 06:28:42.71	33.02	12.01	-51.4	-64.6	3.8	7.44e-01	0	57	104	0	65	17025
2026-01-01 06:28:43.70	32.85	12.07	-51.7	-65.4	3.8	7.46e-01	0	57	104	0	65	18529
2026-01-01 06:28:44.68	32.68	12.14	-51.8	-65.6	3.8	7.43e-01	0	57	104	0	65	19080
2026-01-01 06:28:45.66	32.51	12.20	-52.1	-66.3	3.8	7.46e-01	0	57	104	0	66	19451
2026-01-01 06:28:46.65	32.34	12.26	-52.1	-66.3	3.8	7.48e-01	0	57	104	0	66	19422
2026-01-01 06:28:47.63	32.16	12.32	-51.9	-65.9	3.8	7.45e-01	0	57	104	0	66	18627
2026-01-01 06:28:48.62	31.99	12.39	-51.8	-65.6	3.8	7.42e-01	0	57	104	0	66	17908
2026-01-01 06:28:49.60	31.82	12.45	-51.7	-65.2	3.8	7.43e-01	0	57	104	0	66	17251
2026-01-01 06:28:50.59	31.64	12.51	-51.6	-65.1	3.8	7.44e-01	0	57	104	0	66	16945
2026-01-01 06:28:51.57	31.46	12.57	-51.6	-65.0	3.8	7.45e-01	0	57	104	0	66	16779
2026-01-01 06:28:52.56	31.29	12.64	-51.8	-65.6	3.8	7.46e-01	0	57	104	0	66	17989
2026-01-01 06:28:53.54	31.11	12.70	-52.2	-66.5	3.8	7.44e-01	0	57	104	0	66	20050
2026-01-01 06:28:54.52	30.93	12.76	-52.7	-67.7	3.8	7.48e-01	0	57	104	0	67	21547
2026-01-01 06:28:55.51	30.75	12.82	-53.0	-68.7	3.8	7.46e-01	0	58	104	0	68	22929
2026-01-01 06:28:56.50	30.57	12.88	-53.3	-69.7	3.8	7.47e-01	0	57	104	0	68	25578
2026-01-01 06:28:57.48	30.39	12.94	-53.3	-69.8	3.8	7.45e-01	0	57	104	0	68	25897
2026-01-01 06:28:58.46	30.21	13.01	-53.2	-69.3	3.8	7.48e-01	0	57	104	0	68	24462
2026-01-01 06:28:59.45	30.03	13.07	-53.2	-69.4	3.8	7.44e-01	0	58	104	0	68	24817
2026-01-01 06:29:00.43	29.84	13.13	-53.3	-69.7	3.8	7.44e-01	0	57	104	0	68	25571
2026-01-01 06:29:01.41	29.66	13.19	-53.4	-69.9	3.8	7.49e-01	0	57	104	0	68	26381
2026-01-01 06:29:02.39	29.48	13.25	-53.4	-70.3	3.8	7.43e-01	0	58	104	0	69	26118
2026-01-01 06:29:03.38	29.29	13.31	-53.5	-70.8	3.8	7.46e-01	0	58	104	0	69	27512
2026-01-01 06:29:04.37	29.10	13.37	-53.6	-70.9	3.8	7.44e-01	0	58	104	0	69	27985
2026-01-01 06:29:05.35	28.91	13.43	-53.4	-70.3	3.8	7.44e-01	0	58	104	0	69	25962
2026-01-01 06:29:06.34	28.72	13.50	-53.2	-69.2	3.8	7.47e-01	0	58	104	0	69	22843
2026-01-01 06:29:07.33	28.53	13.56	-52.8	-67.9	3.8	7.46e-01	0	58	104	0	69	19819
2026-01-01 06:29:08.31	28.35	13.62	-52.4	-66.7	3.8	7.45e-01	0	58	104	0	68	18293
2026-01-01 06:29:09.30	28.15	13.68	-51.9	-65.6	3.8	7.45e-01	0	58	104	0	67	17005
2026-01-01 06:29:10.28	27.96	13.74	-51.5	-64.8	3.8	7.43e-01	0	58	104	0	66	16404
2026-01-01 06:29:11.27	27.77	13.80	-51.1	-64.1	3.8	7.41e-01	0	58	104	0	65	16020
2026-01-01 06:29:12.25	27.58	13.86	-50.9	-63.6	3.8	7.48e-01	0	58	104	0	65	15171
2026-01-01 06:29:13.24	27.38	13.92	-50.7	-63.4	3.8	7.46e-01	0	58	104	0	65	14712
2026-01-01 06:29:14.22	27.19	13.98	-50.6	-63.2	3.8	7.43e-01	0	58	104	0	64	15347
2026-01-01 06:29:15.21	26.99	14.04	-50.5	-63.0	3.8	7.43e-01	0	58	104	0	64	15035
2026-01-01 06:29:16.19	26.79	14.10	-50.4	-62.9	3.8	7.48e-01	0	58	104	0	64	14741
2026-01-01 06:29:17.18	26.59	14.16	-50.3	-62.7	3.9	7.45e-01	0	58	104	0	64	14508
2026-01-01 06:29:18.16	26.40	14.21	-50.0	-62.1	3.8	7.46e-01	0	58	104	0	63	14297
2026-01-01 06:29:19.14	26.20	14.27	-49.6	-61.6	3.8	7.44e-01	0	58	104	0	62	14239
2026-01-01 06:29:20.12	26.00	14.33	-49.3	-61.1	3.8	7.48e-01	0	58	104	0	62	13534
2026-01-01 06:29:21.12	25.79	14.39	-49.0	-60.7	3.8	7.44e-01	0	58	104	0	61	13681
2026-01-01 06:29:22.10	25.59	14.45	-48.8	-60.5	3.8	7.46e-01	0	58	104	0	61	13264
2026-01-01 06:29:23.09	25.39	14.51	-49.0	-60.7	3.8	7.42e-01	0	58	104	0	61	13625
2026-01-01 06:29:24.07	25.19	14.57	-49.0	-60.7	3.8	7.45e-01	0	58	104	0	61	13613
2026-01-01 06:29:25.05	24.98	14.62	-49.1	-60.8	3.8	7.46e-01	0	58	104	0	61	13767
2026-01-01 06:29:26.03	24.78	14.68	-49.2	-61.0	3.8	7.45e-01	0	58	104	0	61	14065
2026-01-01 06:29:27.02	24.57	14.74	-49.4	-61.3	3.9	7.43e-01	0	58	104	0	61	14554
2026-01-01 06:29:28.00	24.36	14.79	-49.7	-61.8	3.8	7.44e-01	0	58	104	0	61	15419
2026-01-01 06:29:28.98	24.16	14.85	-50.1	-62.2	3.8	7.46e-01	0	58	104	0	62	15365
2026-01-01 06:29:29.96	23.95	14.91	-50.1	-62.2	3.8	7.47e-01	0	58	104	0	62	15283
2026-01-01 06:29:30.94	23.74	14.96	-49.8	-61.8	3.8	7.45e-01	0	58	104	0	62	14570
2026-01-01 06:29:31.93	23.53	15.02	-50.0	-62.0	3.8	7.42e-01	0	58	104	0	62	14983
2026-01-01 06:29:32.92	23.32	15.08	-50.3	-62.6	3.8	7.45e-01	0	58	104	0	62	15982
2026-01-01 06:29:33.90	23.10	15.13	-50.7	-63.2	3.8	7.46e-01	0	58	104	0	63	16232
2026-01-01 06:29:34.88	22.89	15.19	-51.0	-63.8	3.8	7.41e-01	0	58	104	0	64	16444
2026-01-01 06:29:35.87	22.68	15.24	-51.4	-64.6	3.8	7.41e-01	0	58	104	0	64	18019
2026-01-01 06:29:36.85	22.46	15.30	-51.8	-65.3	3.8	7.44e-01	0	58	104	0	65	18445
2026-01-01 06:29:37.84	22.25	15.35	-51.6	-65.0	3.8	7.46e-01	0	58	104	0	65	17753
2026-01-01 06:29:38.82	22.03	15.41	-51.4	-64.5	3.8	7.42e-01	0	58	104	0	65	16849
2026-01-01 06:29:39.80	21.81	15.46	-51.3	-64.4	3.8	7.45e-01	0	58	104	0	65	16586
2026-01-01 06:29:40.79	21.59	15.52	-51.2	-64.3	3.8	7.46e-01	0	58	104	0	65	16439
2026-01-01 06:29:41.77	21.38	15.57	-51.2	-64.3	3.8	7.46e-01	0	59	104	0	65	16324
2026-01-01 06:29:42.76	21.16	15.62	-51.2	-64.3	3.8	7.48e-01	0	58	104	0	65	16422
2026-01-01 06:29:43.74	20.94	15.68	-51.3	-64.3	3.8	7.42e-01	0	59	104	0	65	16374
2026-01-01 06:29:44.73	20.71	15.73	-51.6	-64.9	3.8	7.43e-01	0	59	104	0	65	17631
2026-01-01 06:29:45.71	20.49	15.78	-52.1	-66.1	3.8	7.46e-01	0	59	104	0	66	19021
2026-01-01 06:29:46.70	20.27	15.83	-52.6	-67.2	3.8	7.44e-01	0	59	104	0	67	20372
2026-01-01 06:29:47.69	20.04	15.89	-52.9	-68.0	3.8	7.44e-01	0	59	104	0	67	22476
2026-01-01 06:29:48.67	19.82	15.94	-53.2	-69.0	3.8	7.41e-01	0	59	104	0	68	23656
2026-01-01 06:29:49.66	19.59	15.99	-53.3	-69.6	3.8	7.47e-01	0	59	104	0	68	25347
2026-01-01 06:29:50.64	19.36	16.04	-53.4	-70.0	3.8	7.43e-01	0	59	104	0	69	25066
2026-01-01 06:29:51.63	19.13	16.09	-53.5	-70.2	3.8	7.43e-01	0	59	104	0	69	25812
2026-01-01 06:29:52.62	18.91	16.14	-53.6	-70.8	3.8	7.46e-01	0	59	104	0	69	27544
2026-01-01 06:29:53.60	18.68	16.19	-53.7	-71.4	3.8	7.46e-01	0	59	104	0	69	29559
2026-01-01 06:29:54.58	18.45	16.24	-53.7	-71.3	3.8	7.45e-01	0	59	104	0	69	29038
2026-01-01 06:29:55.57	18.22	16.29	-53.6	-70.7	3.8	7.47e-01	0	59	104	0	69	27093
2026-01-01 06:29:56.55	17.98	16.34	-53.4	-69.9	3.8	7.41e-01	0	59	104	0	69	24906
2026-01-01 06:29:57.53	17.75	16.39	-53.2	-69.0	3.8	7.45e-01	0	59	104	0	69	22425
2026-01-01 06:29:58.51	17.52	16.44	-52.9	-67.9	3.8	7.46e-01	0	59	104	0	69	19681
2026-01-01 06:29:59.50	17.29	16.49	-52.6	-67.3	3.8	7.46e-01	0	59	104	0	68	19406
2026-01-01 06:30:00.48	17.05	16.53	-52.4	-66.7	3.8	7.46e-01	0	59	104	0	68	18184
2026-01-01 06:30:01.46	16.82	16.58	-51.9	-65.5	3.8	7.44e-01	0	59	104	0	67	16743
2026-01-01 06:30:02.45	16.58	16.63	-51.4	-64.5	3.8	7.43e-01	0	59	104	0	66	15832
2026-01-01 06:30:03.43	16.34	16.67	-51.0	-63.8	3.8	7.46e-01	0	59	104	0	65	15473
2026-01-01 06:30:04.41	16.11	16.72	-50.8	-63.5	3.8	7.42e-01	0	59	104	0	65	14919
2026-01-01 06:30:05.40	15.87	16.77	-50.7	-63.3	3.8	7.43e-01	0	59	104	0	65	14598
2026-01-01 06:30:06.38	15.63	16.81	-50.6	-63.0	3.8	7.45e-01	0	59	104	0	64	15030
2026-01-01 06:30:07.37	15.39	16.86	-50.5	-63.0	3.8	7.46e-01	0	59	104	0	64	14925
2026-01-01 06:30:08.35	15.15	16.90	-50.6	-63.0	3.8	7.44e-01	0	59	104	0	64	15044
2026-01-01 06:30:09.33	14.90	16.95	-50.5	-62.9	3.8	7.43e-01	0	59	104	0	64	14772
2026-01-01 06:30:10.32	14.66	16.99	-50.2	-62.3	3.8	7.45e-01	0	59	104	0	63	14661
2026-01-01 06:30:11.30	14.42	17.03	-49.8	-61.8	3.8	7.46e-01	0	59	104	0	63	13750
2026-01-01 06:30:12.29	14.17	17.08	-49.5	-61.3	3.8	7.47e-01	0	59	104	0	62	13788
2026-01-01 06:30:13.27	13.93	17.12	-49.2	-60.9	3.8	7.46e-01	0	59	104	0	62	13171
2026-01-01 06:30:14.25	13.68	17.16	-49.0	-60.7	3.8	7.45e-01	0	59	104	0	61	13593
2026-01-01 06:30:15.24	13.44	17.20	-49.0	-60.6	3.8	7.42e-01	0	59	104	0	61	13562
2026-01-01 06:30:16.23	13.19	17.24	-48.8	-60.4	3.8	7.46e-01	0	59	104	0	61	13204
2026-01-01 06:30:17.21	12.94	17.28	-49.0	-60.6	3.8	7.46e-01	0	59	104	0	61	13507
2026-01-01 06:30:18.19	12.69	17.32	-49.2	-60.9	3.8	7.46e-01	0	59	104	0	61	13945
2026-01-01 06:30:19.18	12.44	17.36	-49.4	-61.2	3.8	7.45e-01	0	59	104	0	61	14491
2026-01-01 06:30:20.16	12.19	17.40	-49.7	-61.6	3.8	7.43e-01	0	59	104	0	61	15222
2026-01-01 06:30:21.15	11.94	17.44	-49.4	-61.2	3.8	7.43e-01	0	59	104	0	61	14388
2026-01-01 06:30:22.14	11.69	17.48	-49.1	-60.8	3.8	7.46e-01	0	59	104	0	61	13829
2026-01-01 06:30:23.12	11.44	17.52	-49.3	-61.1	3.8	7.44e-01	0	59	104	0	61	14257
2026-01-01 06:30:24.10	11.19	17.56	-49.6	-61.5	3.8	7.46e-01	0	59	104	0	61	14896
2026-01-01 06:30:25.09	10.93	17.59	-49.8	-61.9	3.8	7.44e-01	0	59	104	0	61	15590
2026-01-01 06:30:26.07	10.68	17.63	-50.2	-62.3	3.8	7.46e-01	0	59	104	0	62	15565
2026-01-01 06:30:27.05	10.42	17.67	-50.5	-62.8	3.8	7.45e-01	0	59	104	0	63	15562
2026-01-01 06:30:28.04	10.17	17.70	-50.8	-63.7	3.8	7.47e-01	0	59	104	0	64	16143
2026-01-01 06:30:29.02	9.91	17.74	-50.8	-63.5	3.8	7.44e-01	0	59	104	0	64	15853
2026-01-01 06:30:30.01	9.66	17.77	-50.6	-63.1	3.8	7.43e-01	0	59	104	0	64	15121
2026-01-01 06:30:30.99	9.40	17.81	-50.5	-62.9	3.8	7.43e-01	0	59	104	0	64	14826
2026-01-01 06:30:31.97	9.14	17.84	-50.4	-62.8	3.8	7.44e-01	0	59	104	0	64	14543
2026-01-01 06:30:32.95	8.88	17.87	-50.4	-62.7	3.8	7.42e-01	0	59	104	0	64	14495
2026-01-01 06:30:33.94	8.62	17.90	-50.4	-62.8	3.8	7.44e-01	0	60	104	0	64	14577
2026-01-01 06:30:34.92	8.37	17.94	-50.8	-63.5	3.8	7.40e-01	0	60	104	0	64	15794
2026-01-01 06:30:35.91	8.10	17.97	-51.3	-64.3	3.8	7.46e-01	0	60	104	0	64	17352
2026-01-01 06:30:36.89	7.84	18.00	-51.8	-65.2	3.8	7.47e-01	0	59	104	0	65	18246
2026-01-01 06:30:37.87	7.58	18.03	-52.3	-66.4	3.8	7.46e-01	0	59	104	0	66	19673
2026-01-01 06:30:38.86	7.32	18.06	-52.6	-67.5	3.8	7.49e-01	0	60	104	0	67	21027
2026-01-01 06:30:39.84	7.06	18.09	-52.9	-68.2	3.8	7.44e-01	0	60	104	0	67	23022
2026-01-01 06:30:40.83	6.79	18.12	-52.9	-68.5	3.8	7.45e-01	0	59	104	0	68	22466
2026-01-01 06:30:41.81	6.53	18.14	-53.0	-68.9	3.8	7.48e-01	0	60	104	0	68	23325
2026-01-01 06:30:42.80	6.27	18.17	-53.0	-69.3	3.8	7.45e-01	0	59	104	0	68	24594
2026-01-01 06:30:43.78	6.00	18.20	-53.0	-69.8	3.8	7.45e-01	0	60	104	0	68	25887
2026-01-01 06:30:44.76	5.74	18.23	-52.9	-70.0	3.8	7.50e-01	0	59	104	0	68	26577
2026-01-01 06:30:45.75	5.47	18.25	-52.9	-70.5	3.8	7.47e-01	0	60	104	0	68	28248
2026-01-01 06:30:46.73	5.21	18.28	-52.8	-70.6	3.8	7.48e-01	0	60	104	0	68	28520
2026-01-01 06:30:47.72	4.94	18.30	-52.7	-70.4	3.8	7.44e-01	0	60	104	0	68	28023
2026-01-01 06:30:48.70	4.67	18.33	-52.5	-70.8	3.8	7.43e-01	0	60	104	0	68	29254
2026-01-01 06:30:49.68	4.41	18.35	-52.1	-70.9	3.8	7.48e-01	0	60	104	0	67	31327
2026-01-01 06:30:50.67	4.14	18.37	-51.7	-70.9	3.8	7.46e-01	0	60	104	0	67	31365
2026-01-01 06:30:51.65	3.87	18.39	-51.5	-70.5	3.8	7.46e-01	0	60	104	0	66	31632
2026-01-01 06:30:52.64	3.60	18.42	-51.3	-70.0	3.8	7.46e-01	0	60	104	0	66	29966
2026-01-01 06:30:53.63	3.33	18.44	-51.2	-69.6	3.8	7.46e-01	0	60	104	0	66	28530
2026-01-01 06:30:54.61	3.06	18.46	-50.9	-68.9	3.8	7.46e-01	0	60	104	0	65	27720
2026-01-01 06:30:55.60	2.79	18.48	-50.4	-67.4	3.8	7.45e-01	0	60	104	0	64	24716
2026-01-01 06:30:56.58	2.52	18.50	-50.2	-66.4	3.8	7.47e-01	0	60	104	0	64	22128
2026-01-01 06:30:57.57	2.25	18.51	-50.4	-65.9	3.8	7.45e-01	0	60	104	0	64	20970
2026-01-01 06:30:58.55	1.98	18.53	-50.5	-65.1	3.8	7.47e-01	0	60	104	0	64	18980
2026-01-01 06:30:59.53	1.71	18.55	-50.7	-64.5	3.8	7.44e-01	0	60	104	0	64	17732
2026-01-01 06:31:00.52	1.44	18.57	-50.5	-63.5	3.8	7.46e-01	0	60	104	0	64	15877
2026-01-01 06:31:01.50	1.17	18.58	-50.0	-62.3	3.8	7.45e-01	0	60	104	0	63	14671
2026-01-01 06:31:02.48	0.89	18.60	-49.6	-61.4	3.8	7.41e-01	0	60	104	0	62	13991
2026-01-01 06:31:03.47	0.62	18.61	-49.3	-61.1	3.8	7.47e-01	0	60	104	0	62	13461
2026-01-01 06:31:04.45	0.35	18.63	-49.1	-60.8	3.8	7.44e-01	0	60	104	0	61	13778
2026-01-01 06:31:05.44	0.07	18.64	-49.1	-60.8	3.8	7.45e-01	0	60	104	0	61	13863
2026-01-01 06:31:06.42	359.80	18.65	-49.0	-60.6	3.8	7.44e-01	0	60	104	0	61	13479
2026-01-01 06:31:07.40	359.53	18.67	-48.9	-60.6	3.8	7.45e-01	0	60	104	0	61	13447
2026-01-01 06:31:08.39	359.25	18.68	-48.9	-60.5	3.8	7.43e-01	0	60	104	0	61	13286
2026-01-01 06:31:09.37	358.98	18.69	-49.0	-60.6	3.8	7.44e-01	0	60	104	0	61	13475
2026-01-01 06:31:10.36	358.71	18.70	-49.1	-60.8	3.8	7.43e-01	0	60	104	0	61	13851
2026-01-01 06:31:11.35	358.43	18.71	-49.4	-61.2	3.8	7.43e-01	0	60	104	0	61	14487
2026-01-01 06:31:12.33	358.16	18.72	-49.5	-61.4	3.8	7.44e-01	0	60	104	0	61	14837
2026-01-01 06:31:13.31	357.88	18.73	-49.4	-61.2	3.8	7.48e-01	0	60	104	0	61	14515
2026-01-01 06:31:14.30	357.61	18.73	-49.3	-61.1	3.8	7.40e-01	0	60	104	0	61	14213
2026-01-01 06:31:15.29	357.33	18.74	-49.4	-61.3	3.8	7.44e-01	0	60	104	0	61	14673
2026-01-01 06:31:16.27	357.06	18.75	-49.6	-61.5	3.8	7.45e-01	0	60	104	0	61	14954
2026-01-01 06:31:17.25	356.78	18.75	-49.8	-61.8	3.8	7.43e-01	0	60	104	0	61	15477
2026-01-01 06:31:18.24	356.51	18.76	-50.1	-62.2	3.8	7.43e-01	0	60	104	0	62	15270
2026-01-01 06:31:19.23	356.23	18.76	-50.3	-62.6	3.8	7.43e-01	0	60	104	0	62	16055
2026-01-01 06:31:20.21	355.95	18.77	-50.0	-62.2	3.8	7.48e-01	0	60	104	0	62	15229
2026-01-01 06:31:21.20	355.68	18.77	-49.9	-62.0	3.8	7.48e-01	0	60	104	0	62	14995
2026-01-01 06:31:22.18	355.40	18.77	-49.8	-61.9	3.8	7.44e-01	0	60	104	0	62	14711
2026-01-01 06:31:23.17	355.13	18.78	-49.9	-61.9	3.8	7.47e-01	0	60	104	0	62	14785
2026-01-01 06:31:24.15	354.85	18.78	-49.9	-61.9	3.8	7.44e-01	0	60	104	0	62	14822
2026-01-01 06:31:25.13	354.58	18.78	-50.0	-62.0	3.8	7.46e-01	0	60	104	0	62	15015
2026-01-01 06:31:26.12	354.30	18.78	-50.3	-62.6	3.8	7.48e-01	0	60	104	0	62	15963
2026-01-01 06:31:27.11	354.02	18.78	-50.3	-62.6	3.8	7.45e-01	0	60	104	0	62	16001
2026-01-01 06:31:28.09	353.75	18.77	-50.7	-63.3	3.8	7.44e-01	0	60	104	0	63	16433
2026-01-01 06:31:29.08	353.47	18.77	-50.7	-63.2	3.8	7.45e-01	0	60	104	0	63	16284
2026-01-01 06:31:30.07	353.19	18.77	-50.9	-63.7	3.8	7.43e-01	0	60	104	0	64	16251
2026-01-01 06:31:31.05	352.92	18.77	-51.4	-64.5	3.8	7.44e-01	0	60	104	0	64	17821
2026-01-01 06:31:32.03	352.64	18.76	-51.8	-65.3	3.8	7.45e-01	0	60	104	0	65	18474
2026-01-01 06:31:33.01	352.37	18.76	-51.9	-65.6	3.8	7.46e-01	0	60	104	0	66	18079
2026-01-01 06:31:34.00	352.09	18.75	-52.1	-66.0	3.8	7.49e-01	0	60	104	0	66	18846
2026-01-01 06:31:34.99	351.82	18.75	-52.3	-66.6	3.8	7.43e-01	0	60	104	0	66	20275
2026-01-01 06:31:35.97	351.54	18.74	-52.6	-67.4	3.8	7.47e-01	0	60	104	0	67	20953
2026-01-01 06:31:36.96	351.26	18.73	-52.8	-68.1	3.8	7.46e-01	0	60	104	0	67	22583
2026-01-01 06:31:37.95	350.99	18.72	-52.6	-67.4	3.8	7.47e-01	0	60	104	0	67	20947
2026-01-01 06:31:38.93	350.71	18.72	-52.4	-66.7	3.8	7.44e-01	0	60	104	0	67	19186
2026-01-01 06:31:39.92	350.44	18.71	-52.6	-67.5	3.8	7.43e-01	0	60	104	0	67	21095
2026-01-01 06:31:40.90	350.17	18.70	-53.0	-68.6	3.8	7.46e-01	0	60	104	0	68	22537
2026-01-01 06:31:41.88	349.89	18.69	-52.8	-67.9	3.8	7.48e-01	0	60	104	0	68	20808
2026-01-01 06:31:42.87	349.62	18.67	-52.4	-66.9	3.8	7.47e-01	0	60	104	0	68	18703
2026-01-01 06:31:43.85	349.34	18.66	-52.4	-66.7	3.8	7.43e-01	0	60	104	0	68	18184
2026-01-01 06:31:44.83	349.07	18.65	-52.0	-65.8	3.8	7.45e-01	0	60	104	0	67	17422
2026-01-01 06:31:45.82	348.80	18.64	-51.7	-65.1	3.8	7.44e-01	0	60	104	0	66	16917
2026-01-01 06:31:46.80	348.53	18.62	-51.5	-64.7	3.8	7.42e-01	0	60	104	0	66	16309
2026-01-01 06:31:47.78	348.25	18.61	-51.3	-64.5	3.8	7.44e-01	0	60	104	0	66	15859
2026-01-01 06:31:48.76	347.98	18.59	-51.3	-64.5	3.8	7.42e-01	0	60	104	0	66	15769
2026-01-01 06:31:49.75	347.71	18.58	-51.5	-65.1	3.8	7.41e-01	0	60	104	0	66	16951
2026-01-01 06:31:50.73	347.44	18.56	-51.9	-66.4	3.8	7.45e-01	0	60	104	0	66	19720
2026-01-01 06:31:51.71	347.17	18.54	-52.0	-67.0	3.8	7.45e-01	0	60	104	0	66	21041
2026-01-01 06:31:52.70	346.90	18.53	-51.6	-66.2	3.8	7.45e-01	0	60	104	0	66	19192
2026-01-01 06:31:53.69	346.62	18.51	-51.2	-65.1	3.8	7.48e-01	0	60	104	0	66	16942
2026-01-01 06:31:54.67	346.35	18.49	-50.5	-63.6	3.8	7.48e-01	0	60	104	0	64	16034
2026-01-01 06:31:55.65	346.09	18.47	-49.8	-62.1	3.8	7.45e-01	0	60	104	0	63	14249
2026-01-01 06:31:56.63	345.82	18.45	-49.3	-61.2	3.8	7.46e-01	0	60	104	0	62	13654
2026-01-01 06:31:57.61	345.55	18.43	-49.0	-60.8	3.8	7.46e-01	0	60	104	0	61	13815
2026-01-01 06:31:58.60	345.28	18.41	-49.1	-60.8	3.8	7.45e-01	0	61	104	0	61	13849
2026-01-01 06:31:59.58	345.01	18.39	-49.3	-61.4	3.8	7.45e-01	0	60	104	0	61	14750
2026-01-01 06:32:00.57	344.74	18.36	-49.7	-61.9	3.8	7.44e-01	0	60	104	0	61	15656
2026-01-01 06:32:01.55	344.47	18.34	-50.1	-62.5	3.8	7.48e-01	0	60	104	0	62	15942
2026-01-01 06:32:02.53	344.21	18.32	-50.4	-63.4	3.8	7.44e-01	0	60	104	0	63	16606
2026-01-01 06:32:03.52	343.94	18.29	-50.6	-63.7	3.8	7.42e-01	0	60	104	0	63	17101
2026-01-01 06:32:04.50	343.67	18.27	-50.7	-64.2	3.8	7.44e-01	0	61	104	0	63	18134
2026-01-01 06:32:05.49	343.41	18.24	-50.7	-64.2	3.8	7.48e-01	0	61	104	0	63	18154
2026-01-01 06:32:06.47	343.14	18.22	-50.7	-64.0	3.8	7.45e-01	0	61	104	0	63	17685
2026-01-01 06:32:07.46	342.88	18.19	-50.6	-64.2	3.8	7.47e-01	0	60	104	0	63	18167
2026-01-01 06:32:08.44	342.61	18.16	-50.8	-64.3	3.8	7.46e-01	0	60	104	0	63	18477
2026-01-01 06:32:09.43	342.35	18.14	-51.1	-65.5	3.8	7.43e-01	0	61	104	0	64	19985
2026-01-01 06:32:10.41	342.09	18.11	-51.5	-67.0	3.8	7.42e-01	0	60	104	0	65	22383
2026-01-01 06:32:11.39	341.82	18.08	-51.6	-67.1	3.8	7.44e-01	0	60	104	0	65	22777
2026-01-01 06:32:12.38	341.56	18.05	-51.3	-66.1	3.8	7.47e-01	0	60	104	0	65	20270
2026-01-01 06:32:13.36	341.30	18.02	-51.0	-65.6	3.8	7.47e-01	0	60	104	0	65	19165
2026-01-01 06:32:14.35	341.04	17.99	-50.8	-64.7	3.8	7.47e-01	0	60	104	0	65	17167
2026-01-01 06:32:15.33	340.78	17.96	-50.4	-63.7	3.8	7.45e-01	0	61	104	0	64	16195
2026-01-01 06:32:16.32	340.52	17.93	-50.0	-63.0	3.8	7.44e-01	0	60	104	0	63	15812
2026-01-01 06:32:17.30	340.26	17.89	-49.5	-61.8	3.8	7.47e-01	0	60	104	0	62	14647
2026-01-01 06:32:18.28	340.00	17.86	-49.0	-60.8	3.8	7.45e-01	0	60	104	0	61	13784
2026-01-01 06:32:19.26	339.74	17.83	-49.0	-61.0	3.8	7.48e-01	0	60	104	0	61	14108
2026-01-01 06:32:20.25	339.48	17.80	-49.5	-61.6	3.8	7.42e-01	0	60	104	0	61	15154
2026-01-01 06:32:21.24	339.22	17.76	-50.5	-63.0	3.9	7.45e-01	0	60	104	0	63	15906
2026-01-01 06:32:22.22	338.97	17.73	-50.8	-64.0	3.8	7.44e-01	0	61	104	0	64	16774
2026-01-01 06:32:23.21	338.71	17.69	-50.7	-63.7	3.8	7.44e-01	0	61	104	0	64	16211
2026-01-01 06:32:24.20	338.45	17.65	-50.8	-63.9	3.8	7.44e-01	0	61	104	0	64	16507
2026-01-01 06:32:25.18	338.20	17.62	-51.0	-64.4	3.8	7.47e-01	0	61	104	0	64	17542
2026-01-01 06:32:26.17	337.95	17.58	-51.0	-64.1	3.8	7.42e-01	0	60	104	0	64	17001
2026-01-01 06:32:27.15	337.69	17.54	-51.5	-65.1	3.8	7.44e-01	0	61	104	0	65	17975
2026-01-01 06:32:28.14	337.44	17.51	-52.0	-65.9	3.8	7.46e-01	0	61	104	0	66	18589
2026-01-01 06:32:29.12	337.19	17.47	-52.3	-66.6	3.8	7.40e-01	0	61	104	0	66	20252
2026-01-01 06:32:30.11	336.94	17.43	-51.9	-66.2	3.8	7.44e-01	0	60	104	0	66	19361
2026-01-01 06:32:31.09	336.69	17.39	-52.1	-66.0	3.8	7.45e-01	0	60	104	0	66	18861
2026-01-01 06:32:32.08	336.44	17.35	-52.6	-67.5	3.8	7.48e-01	0	61	104	0	67	21228
2026-01-01 06:32:33.07	336.18	17.31	-53.0	-68.8	3.8	7.45e-01	0	61	104	0	68	23289
2026-01-01 06:32:34.05	335.94	17.27	-52.6	-66.9	3.8	7.45e-01	0	61	104	0	68	18570
2026-01-01 06:32:35.04	335.69	17.23	-52.2	-66.9	3.8	7.48e-01	0	61	104	0	68	18717
2026-01-01 06:32:36.02	335.44	17.19	-51.9	-65.0	3.8	7.44e-01	0	61	104	0	67	15902
2026-01-01 06:32:37.00	335.20	17.15	-51.7	-65.3	3.8	7.45e-01	0	61	104	0	67	16499
2026-01-01 06:32:37.99	334.95	17.10	-51.3	-64.7	3.8	7.47e-01	0	61	104	0	66	16238
2026-01-01 06:32:38.97	334.71	17.06	-50.9	-62.7	3.8	7.44e-01	0	61	104	0	65	13709
2026-01-01 06:32:39.96	334.46	17.02	-50.8	-64.1	3.8	7.44e-01	0	61	104	0	65	15968
2026-01-01 06:32:40.94	334.22	16.97	-50.7	-63.1	3.8	7.44e-01	0	61	104	0	65	14268
2026-01-01 06:32:41.93	333.98	16.93	-50.6	-63.0	3.8	7.44e-01	0	61	104	0	64	14912
2026-01-01 06:32:42.92	333.73	16.89	-50.2	-62.1	3.8	7.44e-01	0	61	104	0	64	13510
2026-01-01 06:32:43.90	333.49	16.84	-50.0	-62.2	3.8	7.47e-01	0	61	104	0	63	14405
2026-01-01 06:32:44.88	333.25	16.80	-49.8	-62.3	3.8	7.46e-01	0	61	104	0	63	14611
2026-01-01 06:32:45.87	333.01	16.75	-49.6	-60.7	3.8	7.43e-01	0	61	104	0	62	12895
2026-01-01 06:32:46.86	332.77	16.70	-49.4	-61.5	3.8	7.44e-01	0	61	104	0	62	14189
2026-01-01 06:32:47.84	332.54	16.66	-49.4	-61.4	3.8	7.41e-01	0	61	104	0	62	13895
2026-01-01 06:32:48.83	332.30	16.61	-49.2	-60.8	3.8	7.44e-01	0	61	104	0	62	13084
2026-01-01 06:32:49.81	332.06	16.56	-49.0	-60.4	3.8	7.44e-01	0	61	104	0	61	13134
2026-01-01 06:32:50.79	331.83	16.52	-48.9	-60.3	3.8	7.44e-01	0	61	104	0	61	13051
2026-01-01 06:32:51.78	331.59	16.47	-48.9	-60.9	3.8	7.45e-01	0	61	104	0	61	13888
2026-01-01 06:32:52.77	331.36	16.42	-48.9	-60.0	3.8	7.44e-01	0	61	104	0	61	12569
2026-01-01 06:32:53.75	331.12	16.37	-49.1	-61.2	3.8	7.42e-01	0	61	104	0	61	14441
2026-01-01 06:32:54.73	330.89	16.32	-49.1	-60.8	3.8	7.45e-01	0	61	104	0	61	13793
2026-01-01 06:32:55.72	330.66	16.27	-49.0	-60.6	3.8	7.45e-01	0	61	104	0	61	13512
2026-01-01 06:32:56.70	330.43	16.22	-49.0	-60.3	3.8	7.44e-01	0	61	104	0	61	13032
2026-01-01 06:32:57.69	330.20	16.17	-49.0	-60.9	3.8	7.44e-01	0	61	104	0	61	13939
2026-01-01 06:32:58.67	329.97	16.12	-49.1	-60.4	3.8	7.46e-01	0	61	104	0	61	13245
2026-01-01 06:32:59.66	329.74	16.07	-49.1	-61.0	3.8	7.44e-01	0	61	104	0	61	14183
2026-01-01 06:33:00.65	329.51	16.02	-49.0	-60.3	3.8	7.45e-01	0	61	104	0	61	12976
2026-01-01 06:33:01.63	329.29	15.97	-48.9	-60.8	3.8	7.49e-01	0	61	104	0	61	13848
2026-01-01 06:33:02.61	329.06	15.92	-48.9	-60.2	3.8	7.44e-01	0	61	104	0	61	12834
2026-01-01 06:33:03.59	328.84	15.87	-48.9	-60.9	3.8	7.46e-01	0	61	104	0	61	14045
2026-01-01 06:33:04.58	328.61	15.82	-49.0	-60.4	3.8	7.43e-01	0	61	104	0	61	13232
2026-01-01 06:33:05.56	328.39	15.76	-49.1	-60.8	3.8	7.43e-01	0	61	104	0	61	13821
2026-01-01 06:33:06.54	328.17	15.71	-49.3	-60.9	3.8	7.45e-01	0	61	104	0	61	13938
2026-01-01 06:33:07.53	327.95	15.66	-49.6	-61.5	3.8	7.45e-01	0	61	104	0	61	15016
2026-01-01 06:33:08.52	327.73	15.60	-49.7	-61.4	3.8	7.43e-01	0	61	104	0	61	14853
2026-01-01 06:33:09.50	327.51	15.55	-49.7	-61.9	3.8	7.44e-01	0	61	104	0	61	15591
2026-01-01 06:33:10.49	327.29	15.50	-49.7	-61.4	3.8	7.41e-01	0	61	104	0	61	14796
2026-01-01 06:33:11.47	327.07	15.44	-49.8	-62.0	3.9	7.43e-01	0	61	104	0	61	15800
2026-01-01 06:33:12.45	326.85	15.39	-49.6	-52.0	6.4	6.62e-01	0	61	104	0	61	4989
2026-01-01 06:33:13.42	326.64	15.33	-50.0	-52.7	20.1	6.03e-01	0	61	0	1048576	62	5103
2026-01-01 06:33:14.39	326.43	15.28	-50.1	-52.7	20.4	6.06e-01	0	61	0	3145728	62	5122
2026-01-01 06:33:15.36	326.22	15.23	-50.4	-53.2	19.7	6.02e-01	0	61	0	4718592	63	5131
2026-01-01 06:33:16.33	326.00	15.17	-50.2	-52.9	20.2	6.04e-01	0	61	0	6815744	63	4931
2026-01-01 06:33:17.30	325.79	15.12	-50.3	-53.1	19.9	6.04e-01	0	61	0	8388608	63	5046
2026-01-01 06:33:18.27	325.59	15.06	-50.1	-52.9	20.2	6.05e-01	0	61	0	9961472	63	4929
2026-01-01 06:33:19.24	325.38	15.01	-49.7	-52.1	20.8	6.04e-01	0	61	0	12058624	63	4542
2026-01-01 06:33:20.21	325.17	14.95	-50.0	-52.7	20.3	6.04e-01	0	61	0	13631488	63	4821
2026-01-01 06:33:21.18	324.96	14.89	-49.5	-51.7	21.2	6.05e-01	0	61	0	15728640	62	4590
2026-01-01 06:33:22.15	324.76	14.84	-50.4	-53.3	19.7	6.03e-01	0	61	0	17301504	63	5174
2026-01-01 06:33:23.12	324.55	14.78	-49.3	-51.5	21.4	6.04e-01	0	61	0	19398656	62	4449
2026-01-01 06:33:24.09	324.35	14.73	-50.1	-52.9	20.1	6.05e-01	0	61	0	20971520	62	5227
2026-01-01 06:33:25.06	324.15	14.67	-49.4	-51.7	21.2	6.02e-01	0	61	0	23068672	62	4562
2026-01-01 06:33:26.03	323.94	14.61	-50.3	-53.1	19.9	6.03e-01	0	61	0	24641536	62	5370
2026-01-01 06:33:27.01	323.74	14.56	-49.8	-52.2	20.7	6.01e-01	0	61	0	26738688	62	4831
2026-01-01 06:33:27.97	323.54	14.50	-49.9	-52.5	20.5	6.02e-01	0	61	0	28311552	62	5039
2026-01-01 06:33:28.94	323.34	14.44	-49.2	-51.3	21.6	6.02e-01	0	61	0	30408704	62	4379
2026-01-01 06:33:29.91	323.14	14.38	-49.7	-52.2	20.8	6.04e-01	0	61	0	31981568	61	5115
2026-01-01 06:33:30.87	322.95	14.33	-49.1	-51.2	21.7	6.06e-01	0	61	0	34078720	61	4581
2026-01-01 06:33:31.84	322.75	14.27	-49.6	-52.1	20.8	6.02e-01	0	61	0	35651584	61	5089
2026-01-01 06:33:32.81	322.55	14.21	-49.0	-51.1	21.7	6.03e-01	0	61	0	37748736	61	4525
2026-01-01 06:33:33.78	322.36	14.15	-49.8	-52.4	20.6	6.06e-01	0	61	0	39321600	61	5248
2026-01-01 06:33:34.75	322.16	14.09	-49.3	-51.5	21.3	6.04e-01	0	61	0	41418752	62	4451
2026-01-01 06:33:35.72	321.97	14.04	-49.5	-51.9	21.0	6.05e-01	0	61	0	42991616	61	4947
2026-01-01 06:33:36.69	321.77	13.98	-49.3	-51.5	21.2	6.04e-01	0	61	0	44564480	61	4747
2026-01-01 06:33:37.66	321.58	13.92	-49.5	-51.9	21.0	6.03e-01	0	61	0	46661632	61	4959
2026-01-01 06:33:38.62	321.39	13.86	-49.6	-52.0	20.7	6.04e-01	0	61	0	48234496	62	4750
2026-01-01 06:33:39.59	321.20	13.80	-49.2	-51.4	21.5	6.03e-01	0	61	0	50331648	61	4688
2026-01-01 06:33:40.56	321.01	13.74	-49.8	-52.4	20.5	6.05e-01	0	61	0	51904512	61	5231
2026-01-01 06:33:41.53	320.82	13.68	-49.2	-51.5	21.4	6.04e-01	0	61	0	54001664	61	4707
2026-01-01 06:33:42.49	320.64	13.62	-49.5	-52.0	20.9	6.02e-01	0	61	0	55574528	61	4986
2026-01-01 06:33:43.46	320.45	13.56	-49.4	-51.7	21.2	6.05e-01	0	61	0	57671680	61	4831
2026-01-01 06:33:44.43	320.26	13.50	-49.5	-51.9	21.0	6.05e-01	0	61	0	59244544	61	4972
2026-01-01 06:33:45.40	320.08	13.44	-49.8	-52.4	20.5	6.04e-01	0	61	0	61341696	62	4933
2026-01-01 06:33:46.37	319.89	13.38	-49.4	-51.7	21.2	6.05e-01	0	61	0	62914560	62	4551
2026-01-01 06:33:47.34	319.71	13.32	-49.2	-51.3	21.5	6.01e-01	0	61	0	64487424	61	4643
2026-01-01 06:33:48.31	319.52	13.26	-49.0	-51.2	21.7	6.03e-01	0	61	0	66584576	61	4554
2026-01-01 06:33:49.28	319.34	13.20	-49.0	-51.1	21.7	6.05e-01	0	61	0	68157440	61	4510
2026-01-01 06:33:50.25	319.16	13.14	-49.0	-51.1	21.7	6.04e-01	0	61	0	70254592	61	4514
2026-01-01 06:33:51.22	318.98	13.08	-49.4	-51.7	21.1	6.05e-01	0	61	0	71827456	61	4845
2026-01-01 06:33:52.19	318.80	13.02	-49.0	-51.2	21.6	6.01e-01	0	61	0	73924608	61	4554
2026-01-01 06:33:53.16	318.62	12.96	-48.9	-51.0	21.9	6.03e-01	0	61	0	75497472	61	4465
2026-01-01 06:33:54.13	318.44	12.90	-49.1	-51.3	21.5	6.02e-01	0	61	0	77594624	61	4643
2026-01-01 06:33:55.09	318.26	12.84	-48.8	-50.8	22.1	6.05e-01	0	61	0	79167488	61	4350
2026-01-01 06:33:56.06	318.09	12.78	-49.2	-51.4	21.4	6.04e-01	0	61	0	81264640	61	4687
2026-01-01 06:33:57.03	317.91	12.72	-49.1	-51.4	21.4	6.04e-01	0	61	0	82837504	61	4658
2026-01-01 06:33:58.00	317.73	12.66	-48.8	-50.8	22.0	6.02e-01	0	61	0	84934656	61	4345
2026-01-01 06:33:58.96	317.56	12.60	-49.1	-51.3	21.5	6.03e-01	0	61	0	86507520	61	4636
2026-01-01 06:33:59.93	317.39	12.53	-49.0	-51.1	21.6	6.04e-01	0	61	0	88080384	61	4509
2026-01-01 06:34:00.90	317.21	12.47	-49.1	-51.2	21.6	6.03e-01	0	61	0	90177536	61	4569
2026-01-01 06:34:01.86	317.04	12.41	-49.7	-52.3	20.6	6.05e-01	0	61	0	91750400	61	5165
2026-01-01 06:34:02.83	316.87	12.35	-49.5	-51.9	20.9	6.04e-01	0	61	0	93847552	61	4936
2026-01-01 06:34:03.80	316.70	12.29	-48.9	-51.0	21.7	6.03e-01	0	61	0	95420416	61	4493
2026-01-01 06:34:04.76	316.53	12.23	-48.9	-51.0	21.8	6.04e-01	0	61	0	97517568	61	4462
2026-01-01 06:34:05.73	316.36	12.17	-48.9	-51.1	21.7	6.02e-01	0	61	0	99090432	61	4503
2026-01-01 06:34:06.70	316.20	12.10	-48.9	-51.0	21.8	6.04e-01	0	61	0	101187584	61	4466
2026-01-01 06:34:07.67	316.03	12.04	-49.0	-51.2	21.6	6.02e-01	0	61	0	102760448	61	4570
2026-01-01 06:34:08.67	315.86	11.98	-49.2	-51.4	21.4	6.03e-01	0	61	0	104857600	61	4683
2026-01-01 06:34:09.67	315.69	11.91	-49.2	-51.5	21.4	6.05e-01	0	61	0	106430464	61	4713
2026-01-01 06:34:10.65	315.52	11.85	-49.0	-51.2	21.6	6.06e-01	0	61	0	108527616	61	4557
2026-01-01 06:34:11.62	315.35	11.79	-49.3	-51.6	21.3	6.05e-01	0	61	0	110100480	61	4769
2026-01-01 06:34:12.58	315.19	11.73	-49.2	-51.4	21.4	6.05e-01	0	61	0	112197632	61	4680
2026-01-01 06:34:13.55	315.03	11.67	-49.2	-51.4	21.3	6.05e-01	0	61	0	113770496	61	4695
2026-01-01 06:34:14.52	314.87	11.60	-49.6	-52.0	20.8	6.02e-01	0	61	0	115867648	61	5039
2026-01-01 06:34:15.48	314.71	11.54	-49.3	-51.6	21.1	6.03e-01	0	61	0	117440512	61	4807
2026-01-01 06:34:16.45	314.55	11.48	-49.3	-51.6	21.2	6.03e-01	0	61	0	119537664	61	4799
2026-01-01 06:34:17.42	314.39	11.42	-49.7	-52.2	20.6	6.04e-01	0	61	0	121110528	61	5113
2026-01-01 06:34:18.39	314.23	11.36	-49.7	-52.3	20.5	6.05e-01	0	61	0	122683392	61	5173
2026-01-01 06:34:19.36	314.07	11.29	-49.5	-51.9	20.8	6.02e-01	0	61	0	124780544	61	4981
2026-01-01 06:34:20.33	313.91	11.23	-49.7	-52.2	20.6	6.03e-01	0	61	0	126353408	61	5111
2026-01-01 06:34:21.30	313.75	11.17	-49.9	-52.6	20.2	6.06e-01	0	61	0	128450560	61	5372
2026-01-01 06:34:22.26	313.60	11.11	-49.9	-52.6	20.1	6.04e-01	0	61	0	130023424	62	5073
2026-01-01 06:34:23.23	313.44	11.04	-49.6	-52.0	20.7	6.02e-01	0	61	0	132120576	62	4750
2026-01-01 06:34:24.20	313.29	10.98	-49.8	-52.4	20.4	6.04e-01	0	61	0	133693440	62	4941
2026-01-01 06:34:25.17	313.13	10.92	-50.0	-52.7	20.1	6.04e-01	0	61	0	135790592	62	5155
2026-01-01 06:34:26.14	312.98	10.86	-49.7	-52.3	20.4	6.06e-01	0	61	0	137363456	62	4888
2026-01-01 06:34:27.11	312.83	10.79	-49.6	-52.1	20.6	6.03e-01	0	61	0	139460608	62	4771
2026-01-01 06:34:28.08	312.68	10.73	-49.9	-52.6	20.2	6.03e-01	0	61	0	141033472	62	5070
2026-01-01 06:34:29.05	312.52	10.67	-50.0	-52.8	19.9	6.05e-01	0	61	0	143130624	62	5209
2026-01-01 06:34:30.02	312.37	10.61	-49.7	-52.3	20.4	6.04e-01	0	61	0	144703488	62	4893
2026-01-01 06:34:30.98	312.23	10.54	-49.8	-52.4	20.3	6.04e-01	0	61	0	146276352	62	4975
2026-01-01 06:34:31.95	312.08	10.48	-49.8	-52.4	20.3	6.03e-01	0	61	0	148373504	62	4967
2026-01-01 06:34:32.91	311.93	10.42	-49.8	-52.4	20.3	6.03e-01	0	61	0	149946368	62	4958
2026-01-01 06:34:33.88	311.78	10.36	-49.5	-51.9	20.7	6.03e-01	0	61	0	152043520	62	4686
2026-01-01 06:34:34.85	311.63	10.30	-49.0	-51.2	21.4	6.05e-01	0	61	0	153616384	61	4596
2026-01-01 06:34:35.82	311.49	10.23	-49.0	-51.2	21.4	6.02e-01	0	61	0	155713536	61	4598
2026-01-01 06:34:36.79	311.34	10.17	-49.5	-52.0	20.8	6.03e-01	0	61	0	157286400	61	4988
2026-01-01 06:34:37.77	311.20	10.11	-49.4	-51.8	20.9	6.05e-01	0	61	0	159383552	61	4886
2026-01-01 06:34:38.73	311.05	10.05	-49.2	-51.5	21.1	6.04e-01	0	61	0	160956416	61	4751
2026-01-01 06:34:39.70	310.91	9.98	-49.7	-52.2	20.5	6.03e-01	0	61	0	163053568	61	5129
2026-01-01 06:34:40.66	310.77	9.92	-49.9	-52.6	20.0	6.05e-01	0	61	0	164626432	62	5079
2026-01-01 06:34:41.63	310.63	9.86	-50.1	-52.9	19.8	6.05e-01	0	61	0	166723584	62	5258
2026-01-01 06:34:42.61	310.48	9.80	-49.8	-52.4	20.1	6.03e-01	0	61	0	168296448	62	4972
2026-01-01 06:34:43.59	310.34	9.73	-49.5	-52.0	20.7	6.04e-01	0	61	0	170393600	62	4714
2026-01-01 06:34:44.56	310.20	9.67	-49.8	-52.4	20.3	6.05e-01	0	61	0	171966464	62	4937
2026-01-01 06:34:45.53	310.06	9.61	-49.9	-52.7	19.9	6.05e-01	0	61	0	174063616	62	5144
2026-01-01 06:34:46.50	309.92	9.55	-49.8	-52.6	20.1	6.06e-01	0	61	0	175636480	62	5050
2026-01-01 06:34:47.46	309.78	9.48	-49.5	-52.0	20.5	6.04e-01	0	61	0	177209344	62	4749
2026-01-01 06:34:48.43	309.65	9.42	-49.3	-51.7	20.9	6.03e-01	0	61	0	179306496	62	4583
2026-01-01 06:34:49.40	309.51	9.36	-49.5	-52.0	20.6	6.02e-01	0	61	0	180879360	62	4720
2026-01-01 06:34:50.37	309.37	9.30	-49.9	-52.7	20.0	6.01e-01	0	61	0	182976512	62	5102
2026-01-01 06:34:51.34	309.24	9.23	-50.0	-52.8	19.9	6.04e-01	0	61	0	184549376	62	5179
2026-01-01 06:34:52.31	309.10	9.17	-49.9	-52.6	19.9	6.05e-01	0	61	0	186646528	62	5093
2026-01-01 06:34:53.28	308.97	9.11	-49.3	-51.7	20.9	6.04e-01	0	61	0	188219392	62	4571
2026-01-01 06:34:54.25	308.83	9.05	-49.3	-51.6	20.9	6.04e-01	0	61	0	190316544	62	4536
2026-01-01 06:34:55.23	308.70	8.98	-49.5	-52.1	20.5	6.01e-01	0	61	0	191889408	62	4787
2026-01-01 06:34:56.20	308.57	8.92	-49.8	-52.6	20.0	6.05e-01	0	61	0	193986560	62	5056
2026-01-01 06:34:57.18	308.43	8.86	-49.5	-52.0	20.5	6.02e-01	0	61	0	195559424	62	4733
2026-01-01 06:34:58.14	308.30	8.80	-49.2	-51.6	21.0	6.03e-01	0	61	0	197656576	62	4494
2026-01-01 06:34:59.12	308.17	8.74	-49.1	-51.4	21.1	6.05e-01	0	61	0	199229440	61	4663
2026-01-01 06:35:00.09	308.04	8.67	-49.3	-51.7	20.8	6.04e-01	0	61	0	201326592	61	4848
2026-01-01 06:35:01.06	307.91	8.61	-49.6	-52.3	20.3	6.02e-01	0	61	0	202899456	61	5178
2026-01-01 06:35:02.03	307.78	8.55	-49.6	-52.3	20.2	6.03e-01	0	61	0	204996608	61	5170
2026-01-01 06:35:03.00	307.65	8.49	-49.4	-52.0	20.5	6.05e-01	0	61	0	206569472	61	4996
2026-01-01 06:35:03.96	307.53	8.43	-49.4	-51.9	20.6	6.03e-01	0	61	0	208666624	61	4942
2026-01-01 06:35:04.93	307.40	8.37	-49.6	-52.2	20.3	6.05e-01	0	61	0	210239488	61	5131
2026-01-01 06:35:05.90	307.27	8.30	-49.9	-52.8	19.7	6.03e-01	0	61	0	211812352	62	5165
2026-01-01 06:35:06.87	307.15	8.24	-50.1	-53.1	19.3	6.05e-01	0	61	0	213909504	62	5401
2026-01-01 06:35:07.83	307.02	8.18	-50.4	-53.7	18.8	6.02e-01	0	61	0	215482368	63	5451
2026-01-01 06:35:08.80	306.90	8.12	-50.3	-53.5	18.9	6.03e-01	0	61	0	217579520	63	5285
2026-01-01 06:35:09.77	306.78	8.06	-49.9	-52.8	19.5	6.03e-01	0	61	0	219152384	63	4915
2026-01-01 06:35:10.74	306.65	8.00	-49.8	-52.6	19.8	6.05e-01	0	61	0	221249536	63	4778
2026-01-01 06:35:11.71	306.53	7.93	-49.8	-52.5	20.0	6.04e-01	0	61	0	222822400	63	4718
2026-01-01 06:35:12.69	306.40	7.87	-49.8	-52.6	19.8	6.03e-01	0	61	0	224919552	63	4776
2026-01-01 06:35:13.67	306.28	7.81	-49.9	-52.7	19.7	6.04e-01	0	61	0	226492416	63	4868
2026-01-01 06:35:14.63	306.16	7.75	-50.0	-53.0	19.3	6.04e-01	0	61	0	228589568	63	5035
2026-01-01 06:35:15.60	306.04	7.69	-50.0	-53.0	19.3	6.03e-01	0	61	0	230162432	63	5024
2026-01-01 06:35:16.57	305.92	7.63	-49.9	-52.9	19.4	6.04e-01	0	61	0	232259584	63	4936
2026-01-01 06:35:17.54	305.80	7.57	-49.9	-52.9	19.4	6.04e-01	0	61	0	233832448	63	4936
2026-01-01 06:35:18.51	305.68	7.50	-49.9	-53.0	19.3	6.02e-01	0	61	0	235929600	63	4990
2026-01-01 06:35:19.48	305.56	7.44	-49.8	-52.8	19.5	6.05e-01	0	61	0	237502464	63	4872
2026-01-01 06:35:20.44	305.45	7.38	-49.8	-52.8	19.4	6.04e-01	0	61	0	239075328	63	4884
2026-01-01 06:35:21.42	305.33	7.32	-50.0	-53.1	19.1	6.02e-01	0	61	0	241172480	63	5068
2026-01-01 06:35:22.38	305.21	7.26	-50.1	-53.4	18.8	6.03e-01	0	62	0	242745344	63	5230
2026-01-01 06:35:23.35	305.10	7.20	-50.2	-53.5	18.6	6.03e-01	0	61	0	244842496	63	5309
2026-01-01 06:35:24.32	304.98	7.14	-50.1	-53.3	18.7	6.02e-01	0	61	0	246415360	63	5211
2026-01-01 06:35:25.29	304.87	7.08	-50.0	-53.2	18.8	6.01e-01	0	61	0	248512512	63	5140
2026-01-01 06:35:26.27	304.75	7.02	-50.1	-53.4	18.7	6.05e-01	0	62	0	250085376	63	5246
2026-01-01 06:35:27.23	304.64	6.96	-50.0	-53.4	18.6	6.04e-01	0	61	0	252182528	63	5220
2026-01-01 06:35:28.20	304.52	6.90	-50.1	-53.6	18.4	6.02e-01	0	61	0	253755392	63	5345
2026-01-01 06:35:29.17	304.41	6.84	-50.3	-53.8	18.1	6.02e-01	0	61	0	255852544	63	5517
2026-01-01 06:35:30.14	304.30	6.78	-50.2	-53.8	18.2	6.05e-01	0	61	0	257425408	63	5470
2026-01-01 06:35:31.11	304.19	6.72	-50.3	-54.0	17.9	6.03e-01	0	61	0	259522560	63	5640
2026-01-01 06:35:32.07	304.08	6.66	-50.2	-53.8	18.0	6.03e-01	0	61	0	261095424	63	5512
2026-01-01 06:35:33.04	303.96	6.60	-50.2	-53.9	18.0	6.03e-01	0	62	0	263192576	63	5558
2026-01-01 06:35:34.01	303.85	6.54	-50.3	-54.1	17.7	6.02e-01	0	61	0	264765440	63	5691
2026-01-01 06:35:34.98	303.74	6.48	-50.4	-54.2	17.5	6.04e-01	0	61	0	266338304	63	5780
2026-01-01 06:35:35.95	303.63	6.42	-50.3	-54.0	17.7	6.02e-01	0	62	0	268435456	63	5638
2026-01-01 06:35:36.92	303.53	6.36	-50.2	-54.0	17.8	6.04e-01	0	61	0	270008320	63	5608
2026-01-01 06:35:37.89	303.42	6.30	-50.2	-54.0	17.7	6.06e-01	0	61	0	272105472	63	5604
2026-01-01 06:35:38.85	303.31	6.24	-50.1	-53.9	17.7	6.04e-01	0	61	0	273678336	63	5575
2026-01-01 06:35:39.82	303.20	6.18	-50.3	-54.4	17.2	6.04e-01	0	61	0	275775488	63	5898
2026-01-01 06:35:40.79	303.10	6.12	-50.3	-54.4	17.1	6.02e-01	0	62	0	277348352	63	5912
2026-01-01 06:35:41.76	302.99	6.06	-50.5	-54.9	16.7	6.05e-01	0	62	0	279445504	63	6203
2026-01-01 06:35:42.72	302.88	6.00	-50.5	-54.9	16.5	6.02e-01	0	61	0	281018368	63	6228
2026-01-01 06:35:43.69	302.78	5.94	-50.5	-54.9	16.5	6.02e-01	0	62	0	283115520	63	6242
2026-01-01 06:35:44.66	302.67	5.88	-50.5	-55.0	16.5	6.03e-01	0	62	0	284688384	63	6275
2026-01-01 06:35:45.63	302.57	5.82	-50.5	-55.1	16.2	6.03e-01	0	62	0	286261248	63	6408
2026-01-01 06:35:46.59	302.47	5.76	-50.5	-55.2	16.2	6.05e-01	0	61	0	288358400	63	6442
2026-01-01 06:35:47.56	302.36	5.70	-50.6	-55.3	16.0	6.04e-01	0	61	0	289931264	63	6530
2026-01-01 06:35:48.53	302.26	5.64	-50.6	-55.5	15.8	6.02e-01	0	61	0	292028416	63	6710
2026-01-01 06:35:49.50	302.16	5.58	-50.6	-55.6	15.6	6.03e-01	0	62	0	293601280	63	6772
2026-01-01 06:35:50.46	302.06	5.52	-50.6	-55.5	15.7	6.02e-01	0	62	0	295698432	63	6662
2026-01-01 06:35:51.43	301.95	5.46	-50.5	-55.5	15.6	6.03e-01	0	62	0	297271296	63	6698
2026-01-01 06:35:52.39	301.85	5.41	-50.6	-55.8	15.3	6.03e-01	0	61	0	299368448	63	6921
2026-01-01 06:35:53.36	301.75	5.35	-50.7	-56.1	14.9	6.04e-01	0	62	0	300941312	63	7127
2026-01-01 06:35:54.32	301.65	5.29	-50.7	-56.3	14.6	6.05e-01	0	62	0	303038464	63	7319
2026-01-01 06:35:55.30	301.55	5.23	-50.7	-56.5	14.3	6.04e-01	0	62	0	304611328	63	7521
2026-01-01 06:35:56.26	301.45	5.17	-50.8	-56.8	14.0	6.03e-01	0	62	0	306708480	63	7785
2026-01-01 06:35:57.23	301.35	5.11	-50.9	-57.4	13.4	6.07e-01	0	62	0	308281344	63	8279
2026-01-01 06:35:58.20	301.26	5.05	-50.8	-57.5	13.2	6.04e-01	0	62	0	310378496	63	8373
2026-01-01 06:35:59.17	301.16	5.00	-52.4	-70.9	3.9	7.55e-01	0	62	104	311951360	67	31225
2026-01-01 06:36:00.15	301.06	4.94	-53.6	-73.3	3.8	7.46e-01	0	62	104	311951360	69	36627
2026-01-01 06:36:01.14	300.96	4.88	-53.9	-73.7	3.8	7.42e-01	0	62	104	311951360	69	38635
2026-01-01 06:36:02.12	300.86	4.82	-54.1	-73.9	3.8	7.45e-01	0	62	104	311951360	70	37230
2026-01-01 06:36:03.11	300.76	4.76	-52.9	-72.7	3.8	7.45e-01	0	62	104	311951360	69	34100
2026-01-01 06:36:04.09	300.67	4.70	-53.9	-73.7	3.8	7.46e-01	0	62	104	311951360	69	38546
2026-01-01 06:36:05.07	300.57	4.64	-54.2	-74.0	3.8	7.46e-01	0	62	104	311951360	70	37805
2026-01-01 06:36:06.06	300.47	4.58	-54.3	-74.2	3.8	7.47e-01	0	62	104	311951360	70	38420
2026-01-01 06:36:07.04	300.38	4.52	-54.4	-74.2	3.8	7.44e-01	0	62	104	311951360	70	38676
2026-01-01 06:36:08.03	300.28	4.46	-54.4	-74.3	3.9	7.43e-01	0	62	104	311951360	71	36695
2026-01-01 06:36:09.01	300.19	4.41	-54.4	-74.3	3.8	7.46e-01	0	62	104	311951360	71	36907
2026-01-01 06:36:09.99	300.09	4.35	-54.5	-74.4	3.8	7.44e-01	0	62	104	311951360	71	36953
2026-01-01 06:36:10.98	300.00	4.29	-54.5	-74.4	3.8	7.45e-01	0	62	104	311951360	71	37154
2026-01-01 06:36:11.96	299.90	4.23	-54.5	-74.4	3.8	7.45e-01	0	62	104	311951360	71	37274
2026-01-01 06:36:12.94	299.81	4.17	-54.6	-74.5	3.8	7.45e-01	0	62	104	311951360	71	37429
2026-01-01 06:36:13.92	299.72	4.11	-54.6	-74.5	3.8	7.47e-01	0	62	104	311951360	71	37545
2026-01-01 06:36:14.91	299.63	4.06	-54.6	-74.5	3.8	7.43e-01	0	62	104	311951360	71	37581
2026-01-01 06:36:15.89	299.53	4.00	-54.6	-74.5	3.8	7.41e-01	0	62	104	311951360	71	37651
2026-01-01 06:36:16.87	299.44	3.94	-54.6	-74.5	3.8	7.47e-01	0	62	104	311951360	71	37700
2026-01-01 06:36:17.86	299.35	3.88	-54.6	-74.5	3.8	7.42e-01	0	62	104	311951360	71	37723
2026-01-01 06:36:18.84	299.26	3.82	-54.6	-74.5	3.8	7.47e-01	0	62	104	311951360	71	37758
2026-01-01 06:36:19.83	299.17	3.77	-54.6	-74.5	3.8	7.46e-01	0	62	104	311951360	71	37759
2026-01-01 06:36:20.82	299.08	3.71	-54.7	-74.6	3.8	7.47e-01	0	62	104	311951360	71	37904
2026-01-01 06:36:21.80	298.99	3.65	-54.7	-74.6	3.8	7.46e-01	0	61	104	311951360	71	37912
2026-01-01 06:36:22.79	298.90	3.59	-54.7	-74.6	3.8	7.42e-01	0	62	104	311951360	71	37916
2026-01-01 06:36:23.77	298.81	3.54	-54.7	-74.6	3.8	7.45e-01	0	62	104	311951360	71	37947
2026-01-01 06:36:24.75	298.72	3.48	-54.7	-74.6	3.8	7.44e-01	0	62	104	311951360	71	37929
2026-01-01 06:36:25.74	298.63	3.42	-54.7	-74.6	3.8	7.44e-01	0	62	104	311951360	71	37921
2026-01-01 06:36:26.72	298.55	3.36	-54.7	-74.6	3.8	7.47e-01	0	62	104	311951360	71	37950
2026-01-01 06:36:27.71	298.46	3.31	-54.7	-74.6	3.8	7.45e-01	0	62	104	311951360	71	37856
2026-01-01 06:36:28.69	298.37	3.25	-54.6	-74.5	3.8	7.43e-01	0	62	104	311951360	71	37795
2026-01-01 06:36:29.67	298.29	3.19	-54.6	-74.5	3.8	7.45e-01	0	62	104	311951360	71	37779
2026-01-01 06:36:30.65	298.20	3.13	-54.6	-74.5	3.8	7.46e-01	0	61	104	311951360	71	37782
2026-01-01 06:36:31.63	298.11	3.08	-54.6	-74.5	3.8	7.44e-01	0	62	104	311951360	71	37719
2026-01-01 06:36:32.61	298.03	3.02	-54.6	-74.5	3.8	7.44e-01	0	62	104	311951360	71	37735
2026-01-01 06:36:33.60	297.94	2.96	-54.6	-74.6	3.8	7.44e-01	0	62	104	311951360	71	37809
2026-01-01 06:36:34.58	297.86	2.91	-54.6	-74.6	3.8	7.48e-01	0	62	104	311951360	71	37811

#Closed at: 2026-01-01 06:36:34
#Recorded file [311 MB]: D:/Data/31026_260101_093559.dat