passes_logs/2026/01/01/R3.0SM8_Murmansk_STILSPACE/R3.0SM8_Murmansk_STILSPACE__20260101_063516_FENGYUN_3D_rec.log

#Pass ID: 20260101_063516_FENGYUN 3D
#Satellite: FENGYUN 3D
#Configuration: FENGYUN 3D
#almurnet v.1.7.20240730
#Start time: 2026-01-01 06:36:41

#Version: 2.2.20231116
#Station: R3.0SM8_Murmansk_STILSPACE
#Location: 33.092731 lon 68.902999 lat
#TLE: 1 43010U 17072A   25365.48527867  .00000101  00000+0  69745-4 0  9999
#TLE: 2 43010  98.9911 332.0787 0001837 134.4748 225.6578 14.19689788421190

#Time	Az	El	Level	Level2	SNR	BER	BlckErr	Temp	State	Recorded	gain1	gain2
2026-01-01 06:36:41.79	46.32	8.37	-54.6	-74.5	3.8	7.44e-01	0	61	0	0	71	37683
2026-01-01 06:36:42.76	46.22	8.43	-53.0	-63.7	3.8	8.47e-01	0	62	104	0	69	11874
2026-01-01 06:36:43.74	46.13	8.50	-53.0	-63.7	3.8	8.46e-01	0	62	104	0	69	11923
2026-01-01 06:36:44.72	46.03	8.57	-53.0	-63.7	3.8	8.46e-01	0	62	104	0	69	11950
2026-01-01 06:36:45.70	45.94	8.63	-53.0	-63.7	3.8	8.47e-01	0	62	104	0	69	11922
2026-01-01 06:36:46.69	45.84	8.70	-53.0	-63.7	3.8	8.47e-01	0	62	104	0	69	11950
2026-01-01 06:36:47.67	45.74	8.76	-53.0	-63.8	3.8	8.46e-01	0	62	104	0	69	11957
2026-01-01 06:36:48.66	45.64	8.83	-53.0	-63.7	3.8	8.47e-01	0	62	104	0	69	11921
2026-01-01 06:36:49.65	45.54	8.90	-53.0	-63.7	3.8	8.47e-01	0	62	104	0	69	11946
2026-01-01 06:36:50.63	45.45	8.96	-53.0	-63.7	3.8	8.47e-01	0	62	104	0	69	11921
2026-01-01 06:36:51.61	45.35	9.03	-53.0	-63.7	3.8	8.46e-01	0	62	104	0	69	11929
2026-01-01 06:36:52.59	45.25	9.10	-52.8	-63.7	3.8	8.47e-01	0	62	104	0	68	12603
2026-01-01 06:36:53.57	45.15	9.16	-53.0	-63.7	3.8	8.46e-01	0	62	104	0	68	12653
2026-01-01 06:36:54.56	45.05	9.23	-53.0	-63.7	3.8	8.45e-01	0	62	104	0	68	12626
2026-01-01 06:36:55.54	44.95	9.30	-53.0	-63.7	3.8	8.46e-01	0	62	104	0	68	12544
2026-01-01 06:36:56.53	44.84	9.36	-53.0	-63.7	3.8	8.46e-01	0	62	104	0	68	12548
2026-01-01 06:36:57.51	44.74	9.43	-52.9	-63.7	3.8	8.46e-01	0	62	104	0	68	12538
2026-01-01 06:36:58.49	44.64	9.50	-52.9	-63.6	3.8	8.47e-01	0	62	104	0	68	12513
2026-01-01 06:36:59.48	44.54	9.57	-52.9	-63.6	3.8	8.46e-01	0	62	104	0	68	12503
2026-01-01 06:37:00.46	44.43	9.63	-52.9	-63.6	3.8	8.46e-01	0	62	104	0	68	12512
2026-01-01 06:37:01.45	44.33	9.70	-52.9	-63.6	3.8	8.47e-01	0	62	104	0	68	12422
2026-01-01 06:37:02.44	44.22	9.77	-52.9	-63.6	3.8	8.47e-01	0	62	104	0	68	12446
2026-01-01 06:37:03.41	44.12	9.84	-52.9	-63.5	3.8	8.46e-01	0	62	104	0	68	12351
2026-01-01 06:37:04.40	44.01	9.90	-52.8	-63.5	3.8	8.46e-01	0	62	104	0	68	12324
2026-01-01 06:37:05.38	43.91	9.97	-52.8	-63.5	3.8	8.46e-01	0	62	104	0	68	12341
2026-01-01 06:37:06.37	43.80	10.04	-52.8	-63.4	3.8	8.47e-01	0	62	104	0	68	12220
2026-01-01 06:37:07.35	43.69	10.11	-52.7	-63.4	3.8	8.46e-01	0	62	104	0	68	12100
2026-01-01 06:37:08.33	43.59	10.17	-52.7	-63.4	3.8	8.46e-01	0	62	104	0	68	12105
2026-01-01 06:37:09.32	43.48	10.24	-52.6	-63.3	3.8	8.47e-01	0	62	104	0	68	12036
2026-01-01 06:37:10.30	43.37	10.31	-52.4	-62.5	3.8	8.46e-01	0	62	104	0	67	11629
2026-01-01 06:37:11.29	43.26	10.38	-52.4	-62.5	3.8	8.44e-01	0	62	104	0	67	11610
2026-01-01 06:37:12.27	43.15	10.45	-52.4	-62.6	3.8	8.47e-01	0	62	104	0	67	11695
2026-01-01 06:37:13.26	43.04	10.52	-52.4	-62.7	3.8	8.46e-01	0	62	104	0	67	11830
2026-01-01 06:37:14.24	42.93	10.59	-52.2	-62.8	3.8	8.47e-01	0	62	104	0	67	12007
2026-01-01 06:37:15.22	42.82	10.65	-52.2	-62.8	3.8	8.45e-01	0	62	104	0	67	12068
2026-01-01 06:37:16.21	42.71	10.72	-52.3	-62.9	3.8	8.47e-01	0	62	104	0	67	12107
2026-01-01 06:37:17.19	42.59	10.79	-52.2	-62.8	3.8	8.46e-01	0	62	104	0	67	12094
2026-01-01 06:37:18.17	42.48	10.86	-52.4	-62.8	3.8	8.45e-01	0	62	104	0	67	12018
2026-01-01 06:37:19.15	42.37	10.93	-52.2	-62.7	3.8	8.46e-01	0	62	104	0	67	11892
2026-01-01 06:37:20.14	42.25	11.00	-52.2	-62.6	3.8	8.47e-01	0	62	104	0	67	11774
2026-01-01 06:37:21.12	42.14	11.07	-52.2	-62.5	3.8	8.47e-01	0	62	104	0	67	11681
2026-01-01 06:37:22.11	42.02	11.14	-52.3	-62.6	3.8	8.45e-01	0	62	104	0	67	11786
2026-01-01 06:37:23.10	41.91	11.21	-52.3	-62.8	3.8	8.46e-01	0	62	104	0	67	11999
2026-01-01 06:37:24.08	41.79	11.28	-52.4	-63.0	3.8	8.46e-01	0	62	104	0	67	12289
2026-01-01 06:37:25.06	41.68	11.35	-52.4	-63.1	3.8	8.45e-01	0	62	104	0	67	12416
2026-01-01 06:37:26.04	41.56	11.42	-52.4	-62.9	3.8	8.45e-01	0	62	104	0	67	12139
2026-01-01 06:37:27.03	41.44	11.49	-52.3	-62.2	3.8	8.47e-01	0	62	104	0	67	11267
2026-01-01 06:37:28.01	41.32	11.55	-52.2	-61.0	3.8	8.45e-01	0	62	104	0	67	9819
2026-01-01 06:37:29.00	41.20	11.63	-51.9	-59.3	4.3	8.42e-01	0	62	104	0	67	8033
2026-01-01 06:37:29.97	41.08	11.69	-51.4	-57.3	5.1	7.98e-01	0	62	0	0	66	6798
2026-01-01 06:37:30.93	40.97	11.76	-50.7	-55.2	6.7	4.07e-01	0	62	0	3145728	64	5980
2026-01-01 06:37:31.90	40.85	11.83	-50.0	-53.4	8.5	7.76e-02	0	62	0	8388608	63	5140
2026-01-01 06:37:32.87	40.73	11.90	-49.0	-51.7	10.2	1.56e-02	0	62	0	13631488	61	4755
2026-01-01 06:37:33.84	40.61	11.97	-48.3	-50.4	11.6	1.39e-03	0	62	0	18874368	59	4581
2026-01-01 06:37:34.81	40.49	12.04	-47.6	-49.5	12.6	2.21e-04	0	62	0	25165824	58	4344
2026-01-01 06:37:35.78	40.37	12.11	-47.2	-48.8	13.3	3.66e-05	0	62	0	30408704	57	4278
2026-01-01 06:37:36.75	40.24	12.18	-47.1	-48.7	13.4	1.60e-05	0	62	0	35651584	57	4226
2026-01-01 06:37:37.72	40.12	12.25	-47.2	-48.9	13.3	2.51e-05	0	62	0	40894464	57	4303
2026-01-01 06:37:38.69	40.00	12.32	-47.1	-48.8	13.3	2.63e-05	0	62	0	47185920	57	4255
2026-01-01 06:37:39.66	39.87	12.39	-47.0	-48.6	13.6	1.94e-05	0	62	0	52428800	57	4157
2026-01-01 06:37:40.63	39.75	12.46	-46.9	-48.5	13.7	8.00e-06	0	62	0	57671680	57	4119
2026-01-01 06:37:41.61	39.62	12.53	-47.0	-48.6	13.6	9.10e-06	0	62	0	62914560	57	4148
2026-01-01 06:37:42.59	39.50	12.60	-47.4	-49.1	13.0	3.31e-05	0	62	0	68157440	57	4423
2026-01-01 06:37:43.55	39.37	12.67	-47.3	-49.0	13.2	7.09e-05	0	62	0	74448896	57	4347
2026-01-01 06:37:44.53	39.24	12.74	-46.5	-48.0	14.1	9.10e-06	0	62	0	79691776	56	4134
2026-01-01 06:37:45.50	39.12	12.81	-46.0	-47.3	14.8	1.10e-06	0	62	0	84934656	55	4024
2026-01-01 06:37:46.47	38.99	12.88	-45.7	-47.0	15.0	0.00e+00	0	62	0	90177536	54	4142
2026-01-01 06:37:47.43	38.86	12.95	-45.3	-46.4	15.6	0.00e+00	0	62	0	95420416	53	4089
2026-01-01 06:37:48.41	38.73	13.02	-44.8	-45.9	16.2	0.00e+00	0	62	0	101711872	52	4055
2026-01-01 06:37:49.38	38.60	13.09	-44.5	-45.4	16.6	0.00e+00	0	62	0	106954752	52	3864
2026-01-01 06:37:50.35	38.47	13.16	-44.2	-45.2	17.0	0.00e+00	0	62	0	112197632	51	3967
2026-01-01 06:37:51.33	38.34	13.23	-44.0	-44.9	17.3	0.00e+00	0	62	0	117440512	51	3834
2026-01-01 06:37:52.29	38.21	13.30	-43.6	-44.5	17.7	0.00e+00	0	62	0	122683392	50	3877
2026-01-01 06:37:53.27	38.07	13.37	-43.4	-44.2	17.9	0.00e+00	0	62	0	128974848	50	3766
2026-01-01 06:37:54.23	37.94	13.44	-43.2	-44.0	18.1	0.00e+00	0	62	0	134217728	49	3894
2026-01-01 06:37:55.20	37.81	13.51	-43.2	-44.0	18.2	0.00e+00	0	62	0	139460608	49	3877
2026-01-01 06:37:56.17	37.67	13.58	-43.1	-43.9	18.2	0.00e+00	0	62	0	144703488	49	3861
2026-01-01 06:37:57.14	37.54	13.65	-43.2	-44.0	18.1	0.00e+00	0	62	0	149946368	49	3896
2026-01-01 06:37:58.11	37.40	13.72	-43.2	-44.0	18.1	0.00e+00	0	62	0	156237824	49	3879
2026-01-01 06:37:59.08	37.26	13.79	-43.3	-44.1	18.0	0.00e+00	0	62	0	161480704	49	3948
2026-01-01 06:38:00.05	37.13	13.86	-43.6	-44.4	17.7	0.00e+00	0	62	0	166723584	49	4080
2026-01-01 06:38:01.03	36.99	13.93	-43.3	-44.1	18.1	0.00e+00	0	62	0	171966464	49	3930
2026-01-01 06:38:02.01	36.85	14.01	-43.2	-44.1	18.1	0.00e+00	0	62	0	178257920	49	3915
2026-01-01 06:38:02.98	36.71	14.08	-43.1	-43.9	18.2	0.00e+00	0	62	0	183500800	49	3857
2026-01-01 06:38:03.95	36.57	14.15	-43.0	-43.8	18.3	0.00e+00	0	62	0	188743680	49	3803
2026-01-01 06:38:04.92	36.43	14.22	-43.0	-43.8	18.3	0.00e+00	0	62	0	193986560	49	3815
2026-01-01 06:38:05.90	36.29	14.29	-43.0	-43.7	18.4	0.00e+00	0	62	0	199229440	49	3777
2026-01-01 06:38:06.86	36.15	14.36	-43.1	-43.9	18.3	0.00e+00	0	62	0	205520896	49	3841
2026-01-01 06:38:07.83	36.00	14.43	-43.0	-43.8	18.4	0.00e+00	0	62	0	210763776	49	3786
2026-01-01 06:38:08.80	35.86	14.50	-43.0	-43.7	18.5	0.00e+00	0	62	0	216006656	49	3757
2026-01-01 06:38:09.77	35.72	14.57	-42.9	-43.7	18.5	0.00e+00	0	62	0	221249536	49	3752
2026-01-01 06:38:10.74	35.57	14.64	-43.0	-43.7	18.4	0.00e+00	0	62	0	226492416	49	3773
2026-01-01 06:38:11.71	35.43	14.72	-43.1	-43.9	18.3	0.00e+00	0	62	0	232783872	49	3845
2026-01-01 06:38:12.68	35.28	14.79	-43.1	-43.9	18.3	0.00e+00	0	62	0	238026752	49	3864
2026-01-01 06:38:13.66	35.13	14.86	-43.1	-43.9	18.3	0.00e+00	0	62	0	243269632	49	3849
2026-01-01 06:38:14.63	34.98	14.93	-43.1	-43.9	18.3	0.00e+00	0	62	0	248512512	49	3850
2026-01-01 06:38:15.60	34.83	15.00	-43.0	-43.9	17.7	2.07e-04	0	62	0	253755392	49	3834
2026-01-01 06:38:16.56	34.69	15.07	-43.0	-43.8	17.8	4.12e-04	0	62	0	260046848	49	3808
2026-01-01 06:38:17.54	34.54	15.14	-43.0	-43.8	18.0	1.02e-05	0	62	0	265289728	49	3815
2026-01-01 06:38:18.50	34.39	15.21	-43.2	-44.0	18.0	0.00e+00	0	62	0	270532608	49	3892
2026-01-01 06:38:19.47	34.24	15.29	-43.1	-43.9	18.2	0.00e+00	0	62	0	275775488	49	3859
2026-01-01 06:38:20.45	34.08	15.36	-42.9	-43.6	18.5	0.00e+00	0	62	0	281018368	48	3953
2026-01-01 06:38:21.41	33.93	15.43	-42.7	-43.4	18.5	0.00e+00	0	62	0	287309824	48	3855
2026-01-01 06:38:22.38	33.78	15.50	-42.5	-43.3	18.5	1.94e-05	0	62	0	292552704	48	3810
2026-01-01 06:38:23.35	33.62	15.57	-42.5	-43.3	18.5	0.00e+00	0	62	0	297795584	48	3814
2026-01-01 06:38:24.32	33.47	15.64	-42.6	-43.4	18.4	2.20e-06	0	62	0	303038464	48	3834
2026-01-01 06:38:25.29	33.31	15.71	-42.6	-43.3	18.6	0.00e+00	0	62	0	308281344	48	3821
2026-01-01 06:38:26.26	33.16	15.78	-42.7	-43.4	18.5	0.00e+00	0	62	0	314572800	48	3859
2026-01-01 06:38:27.23	33.00	15.86	-42.6	-43.4	18.6	0.00e+00	0	62	0	319815680	48	3835
2026-01-01 06:38:28.20	32.84	15.93	-42.6	-43.3	18.5	0.00e+00	0	62	0	325058560	48	3813
2026-01-01 06:38:29.17	32.68	16.00	-42.6	-43.4	18.0	8.00e-06	0	62	0	330301440	48	3835
2026-01-01 06:38:30.14	32.52	16.07	-42.6	-43.3	18.5	2.20e-06	0	62	0	336592896	48	3815
2026-01-01 06:38:31.11	32.36	16.14	-42.6	-43.3	18.6	8.00e-06	0	62	0	341835776	48	3822
2026-01-01 06:38:32.08	32.20	16.21	-42.6	-43.4	18.8	0.00e+00	0	62	0	347078656	48	3826
2026-01-01 06:38:33.05	32.04	16.28	-42.6	-43.3	18.7	0.00e+00	0	62	0	352321536	48	3805
2026-01-01 06:38:34.02	31.88	16.35	-42.7	-43.4	18.8	0.00e+00	0	62	0	357564416	48	3859
2026-01-01 06:38:34.99	31.71	16.42	-42.6	-43.3	18.9	0.00e+00	0	62	0	363855872	48	3801
2026-01-01 06:38:35.96	31.55	16.49	-42.5	-43.2	19.0	0.00e+00	0	62	0	369098752	48	3771
2026-01-01 06:38:36.94	31.38	16.57	-42.4	-43.1	19.1	0.00e+00	0	62	0	374341632	48	3728
2026-01-01 06:38:37.91	31.22	16.64	-42.4	-43.1	19.1	0.00e+00	0	62	0	379584512	48	3722
2026-01-01 06:38:38.88	31.05	16.71	-42.5	-43.3	18.9	0.00e+00	0	62	0	384827392	48	3783
2026-01-01 06:38:39.85	30.88	16.78	-42.6	-43.3	18.9	0.00e+00	0	62	0	391118848	48	3809
2026-01-01 06:38:40.82	30.72	16.85	-42.5	-43.3	18.6	0.00e+00	0	62	0	396361728	48	3787
2026-01-01 06:38:41.79	30.55	16.92	-42.6	-43.4	18.6	0.00e+00	0	62	0	401604608	48	3834
2026-01-01 06:38:42.76	30.38	16.99	-42.7	-43.4	18.5	0.00e+00	0	62	0	406847488	48	3864
2026-01-01 06:38:43.73	30.21	17.06	-42.6	-43.4	18.5	0.00e+00	0	62	0	412090368	48	3829
2026-01-01 06:38:44.70	30.03	17.13	-42.6	-43.3	18.6	0.00e+00	0	62	0	418381824	48	3822
2026-01-01 06:38:45.67	29.86	17.20	-42.6	-43.3	18.7	0.00e+00	0	62	0	423624704	48	3816
2026-01-01 06:38:46.64	29.69	17.27	-42.7	-43.5	18.7	0.00e+00	0	62	0	428867584	48	3875
2026-01-01 06:38:47.62	29.51	17.34	-42.6	-43.3	18.8	0.00e+00	0	62	0	434110464	48	3824
2026-01-01 06:38:48.58	29.34	17.41	-42.4	-43.1	18.7	0.00e+00	0	62	0	439353344	48	3725
2026-01-01 06:38:49.55	29.17	17.48	-42.2	-42.9	18.7	0.00e+00	0	62	0	445644800	47	3847
2026-01-01 06:38:50.52	28.99	17.55	-42.2	-42.9	18.7	0.00e+00	0	62	0	450887680	47	3854
2026-01-01 06:38:51.49	28.81	17.62	-42.3	-43.0	19.0	0.00e+00	0	62	0	456130560	47	3912
2026-01-01 06:38:52.46	28.63	17.69	-42.4	-43.1	18.9	0.00e+00	0	62	0	461373440	47	3937
2026-01-01 06:38:53.43	28.45	17.76	-42.4	-43.1	19.0	0.00e+00	0	62	0	466616320	47	3923
2026-01-01 06:38:54.41	28.27	17.83	-42.3	-43.0	19.1	0.00e+00	0	62	0	472907776	47	3883
2026-01-01 06:38:55.38	28.09	17.90	-42.3	-43.0	19.0	0.00e+00	0	62	0	478150656	47	3913
2026-01-01 06:38:56.35	27.91	17.97	-42.5	-43.3	18.8	0.00e+00	0	62	0	483393536	47	4009
2026-01-01 06:38:57.32	27.73	18.04	-42.6	-43.4	18.7	0.00e+00	0	62	0	488636416	47	4056
2026-01-01 06:38:58.29	27.55	18.11	-42.4	-43.1	19.0	0.00e+00	0	62	0	494927872	47	3927
2026-01-01 06:38:59.26	27.36	18.18	-42.3	-43.0	19.0	0.00e+00	0	62	0	500170752	47	3905
2026-01-01 06:39:00.24	27.18	18.25	-42.2	-42.9	19.2	0.00e+00	0	62	0	505413632	47	3834
2026-01-01 06:39:01.21	26.99	18.32	-42.2	-43.0	19.1	0.00e+00	0	62	0	510656512	47	3876
2026-01-01 06:39:02.18	26.80	18.39	-42.3	-43.1	19.0	0.00e+00	0	62	0	515899392	47	3922
2026-01-01 06:39:03.16	26.61	18.46	-42.1	-42.8	19.2	0.00e+00	0	62	0	522190848	47	3803
2026-01-01 06:39:04.13	26.43	18.53	-41.9	-42.6	19.4	0.00e+00	0	62	0	527433728	47	3725
2026-01-01 06:39:05.10	26.24	18.60	-41.8	-42.4	19.6	0.00e+00	0	62	0	532676608	46	3861
2026-01-01 06:39:06.07	26.05	18.66	-41.7	-42.4	19.7	0.00e+00	0	62	0	537919488	46	3847
2026-01-01 06:39:07.05	25.85	18.73	-41.6	-42.3	19.8	0.00e+00	0	62	0	543162368	46	3781
2026-01-01 06:39:08.02	25.66	18.80	-41.5	-42.1	19.9	0.00e+00	0	62	0	549453824	46	3718
2026-01-01 06:39:09.00	25.47	18.87	-41.5	-42.1	20.0	0.00e+00	0	62	0	554696704	46	3711
2026-01-01 06:39:09.96	25.28	18.94	-41.4	-42.1	19.9	0.00e+00	0	62	0	559939584	46	3705
2026-01-01 06:39:10.93	25.08	19.00	-41.5	-42.1	19.9	0.00e+00	0	62	0	565182464	46	3709
2026-01-01 06:39:11.90	24.89	19.07	-41.6	-42.2	19.8	0.00e+00	0	62	0	570425344	46	3776
2026-01-01 06:39:12.87	24.69	19.14	-41.4	-42.0	20.0	0.00e+00	0	62	0	576716800	46	3680
2026-01-01 06:39:13.84	24.49	19.21	-41.3	-41.9	20.1	0.00e+00	0	62	0	581959680	45	3867
2026-01-01 06:39:14.81	24.30	19.27	-41.3	-41.9	20.1	0.00e+00	0	62	0	587202560	45	3862
2026-01-01 06:39:15.80	24.09	19.34	-41.4	-42.1	20.0	0.00e+00	0	62	0	592445440	45	3921
2026-01-01 06:39:16.76	23.90	19.41	-41.4	-42.0	20.0	0.00e+00	0	62	0	597688320	45	3895
2026-01-01 06:39:17.73	23.70	19.47	-41.5	-42.1	19.9	0.00e+00	0	62	0	603979776	45	3947
2026-01-01 06:39:18.70	23.49	19.54	-41.5	-42.1	19.9	0.00e+00	0	62	0	609222656	45	3954
2026-01-01 06:39:19.67	23.29	19.60	-41.4	-42.1	20.0	0.00e+00	0	62	0	614465536	45	3918
2026-01-01 06:39:20.64	23.09	19.67	-41.4	-42.1	19.9	0.00e+00	0	62	0	619708416	45	3918
2026-01-01 06:39:21.61	22.88	19.74	-41.5	-42.1	19.9	0.00e+00	0	62	0	625999872	45	3946
2026-01-01 06:39:22.58	22.68	19.80	-41.5	-42.2	19.9	0.00e+00	0	62	0	631242752	45	3959
2026-01-01 06:39:23.56	22.47	19.87	-41.4	-42.1	19.9	0.00e+00	0	62	0	636485632	45	3927
2026-01-01 06:39:24.53	22.26	19.93	-41.4	-42.1	19.9	0.00e+00	0	62	0	641728512	45	3930
2026-01-01 06:39:25.51	22.06	20.00	-41.6	-42.2	19.8	0.00e+00	0	62	0	646971392	45	3984
2026-01-01 06:39:26.47	21.85	20.06	-41.7	-42.3	19.7	0.00e+00	0	62	0	653262848	45	4038
2026-01-01 06:39:27.45	21.64	20.13	-41.6	-42.3	19.7	0.00e+00	0	62	0	658505728	45	4018
2026-01-01 06:39:28.42	21.43	20.19	-41.6	-42.3	19.8	0.00e+00	0	62	0	663748608	45	4010
2026-01-01 06:39:29.39	21.22	20.25	-41.6	-42.2	19.8	0.00e+00	0	62	0	668991488	45	3999
2026-01-01 06:39:30.36	21.00	20.32	-41.7	-42.4	19.7	0.00e+00	0	62	0	674234368	45	4070
2026-01-01 06:39:31.33	20.79	20.38	-41.8	-42.5	19.6	0.00e+00	0	62	0	680525824	45	4115
2026-01-01 06:39:32.30	20.58	20.44	-41.7	-42.4	19.7	0.00e+00	0	62	0	685768704	45	4052
2026-01-01 06:39:33.27	20.36	20.51	-41.8	-42.5	19.6	0.00e+00	0	62	0	691011584	45	4114
2026-01-01 06:39:34.24	20.15	20.57	-41.5	-42.1	19.9	0.00e+00	0	62	0	696254464	45	3953
2026-01-01 06:39:35.22	19.93	20.63	-41.2	-41.9	20.2	0.00e+00	0	62	0	701497344	45	3827
2026-01-01 06:39:36.19	19.71	20.69	-41.1	-41.8	20.2	0.00e+00	0	62	0	707788800	45	3789
2026-01-01 06:39:37.15	19.50	20.75	-41.2	-41.8	20.2	0.00e+00	0	62	0	713031680	45	3807
2026-01-01 06:39:38.12	19.28	20.81	-41.2	-41.8	20.2	0.00e+00	0	62	0	718274560	45	3806
2026-01-01 06:39:39.09	19.06	20.88	-41.4	-42.1	20.0	0.00e+00	0	62	0	723517440	45	3914
2026-01-01 06:39:40.06	18.84	20.94	-41.3	-42.0	20.1	0.00e+00	0	62	0	728760320	45	3878
2026-01-01 06:39:41.03	18.61	21.00	-41.5	-42.2	19.9	0.00e+00	0	62	0	735051776	45	3962
2026-01-01 06:39:42.00	18.39	21.06	-41.8	-42.5	19.6	0.00e+00	0	62	0	740294656	45	4109
2026-01-01 06:39:42.97	18.17	21.12	-41.5	-42.1	19.9	0.00e+00	0	62	0	745537536	45	3952
2026-01-01 06:39:43.94	17.94	21.18	-41.4	-42.0	20.0	0.00e+00	0	62	0	750780416	45	3894
2026-01-01 06:39:44.92	17.72	21.24	-41.3	-41.9	20.1	0.00e+00	0	62	0	757071872	45	3846
2026-01-01 06:39:45.89	17.49	21.29	-41.4	-42.0	20.0	0.00e+00	0	62	0	762314752	45	3888
2026-01-01 06:39:46.86	17.26	21.35	-41.4	-42.0	20.0	0.00e+00	0	62	0	767557632	45	3887
2026-01-01 06:39:47.83	17.03	21.41	-41.4	-42.0	20.0	0.00e+00	0	62	0	772800512	45	3913
2026-01-01 06:39:48.80	16.81	21.47	-41.7	-42.4	19.7	0.00e+00	0	62	0	778043392	45	4071
2026-01-01 06:39:49.77	16.58	21.53	-41.6	-42.3	19.7	0.00e+00	0	62	0	784334848	45	4022
2026-01-01 06:39:50.74	16.35	21.58	-41.4	-42.0	20.0	0.00e+00	0	62	0	789577728	45	3906
2026-01-01 06:39:51.71	16.11	21.64	-41.3	-42.0	20.1	0.00e+00	0	62	0	794820608	45	3878
2026-01-01 06:39:52.69	15.88	21.70	-41.3	-41.9	20.2	0.00e+00	0	62	0	800063488	45	3845
2026-01-01 06:39:53.66	15.65	21.75	-41.4	-42.1	19.9	0.00e+00	0	62	0	805306368	45	3933
2026-01-01 06:39:54.63	15.41	21.81	-41.4	-42.0	20.1	0.00e+00	0	62	0	811597824	45	3906
2026-01-01 06:39:55.59	15.18	21.86	-41.2	-41.8	20.2	0.00e+00	0	62	0	816840704	45	3804
2026-01-01 06:39:56.56	14.95	21.92	-41.1	-41.7	20.3	0.00e+00	0	62	0	822083584	45	3771
2026-01-01 06:39:57.53	14.71	21.97	-41.1	-41.7	20.3	0.00e+00	0	62	0	827326464	45	3776
2026-01-01 06:39:58.50	14.47	22.02	-41.2	-41.8	20.2	0.00e+00	0	62	0	832569344	45	3811
2026-01-01 06:39:59.47	14.23	22.08	-41.3	-41.9	20.2	0.00e+00	0	62	0	838860800	45	3840
2026-01-01 06:40:00.44	14.00	22.13	-41.3	-41.9	20.1	0.00e+00	0	62	0	844103680	45	3855
2026-01-01 06:40:01.41	13.76	22.18	-41.4	-42.1	20.0	0.00e+00	0	62	0	849346560	45	3928
2026-01-01 06:40:02.38	13.52	22.23	-41.5	-42.1	19.9	0.00e+00	0	62	0	854589440	45	3928
2026-01-01 06:40:03.34	13.28	22.29	-41.3	-41.9	20.1	0.00e+00	0	62	0	859832320	45	3846
2026-01-01 06:40:04.32	13.03	22.34	-41.2	-41.8	20.3	0.00e+00	0	62	0	866123776	45	3790
2026-01-01 06:40:05.29	12.79	22.39	-41.3	-41.9	20.2	0.00e+00	0	62	0	871366656	45	3838
2026-01-01 06:40:06.26	12.55	22.44	-41.3	-41.9	20.1	0.00e+00	0	62	0	876609536	45	3861
2026-01-01 06:40:07.22	12.30	22.49	-41.4	-42.1	20.0	0.00e+00	0	62	0	881852416	45	3926
2026-01-01 06:40:08.19	12.06	22.54	-41.1	-41.8	20.3	0.00e+00	0	62	0	887095296	45	3781
2026-01-01 06:40:09.16	11.81	22.59	-40.9	-41.5	20.5	0.00e+00	0	62	0	893386752	45	3684
2026-01-01 06:40:10.13	11.57	22.64	-40.8	-41.4	20.5	0.00e+00	0	62	0	898629632	44	3867
2026-01-01 06:40:11.10	11.32	22.68	-40.9	-41.5	20.5	0.00e+00	0	62	0	903872512	44	3883
2026-01-01 06:40:12.08	11.07	22.73	-40.8	-41.4	20.6	0.00e+00	0	62	0	909115392	44	3837
2026-01-01 06:40:13.05	10.82	22.78	-40.9	-41.5	20.4	0.00e+00	0	62	0	915406848	44	3893
2026-01-01 06:40:14.02	10.57	22.82	-40.7	-41.3	20.5	0.00e+00	0	62	0	920649728	44	3818
2026-01-01 06:40:14.99	10.32	22.87	-40.7	-41.3	20.5	0.00e+00	0	62	0	925892608	44	3822
2026-01-01 06:40:15.97	10.06	22.92	-40.7	-41.3	20.5	0.00e+00	0	62	0	931135488	44	3815
2026-01-01 06:40:16.93	9.81	22.96	-40.6	-41.2	20.5	0.00e+00	0	62	0	936378368	44	3752
2026-01-01 06:40:17.91	9.56	23.01	-40.7	-41.3	20.2	0.00e+00	0	62	0	942669824	44	3815
2026-01-01 06:40:18.88	9.30	23.05	-41.0	-41.6	19.9	0.00e+00	0	62	0	947912704	44	3948
2026-01-01 06:40:19.85	9.05	23.09	-41.1	-41.8	19.6	0.00e+00	0	62	0	953155584	44	4037
2026-01-01 06:40:20.82	8.80	23.14	-41.7	-42.4	18.9	0.00e+00	0	62	0	958398464	45	4086
2026-01-01 06:40:21.79	8.54	23.18	-41.8	-42.6	18.7	0.00e+00	0	62	0	963641344	45	4170
2026-01-01 06:40:22.75	8.29	23.22	-42.2	-43.0	18.2	0.00e+00	0	62	0	969932800	46	4118
2026-01-01 06:40:23.72	8.03	23.26	-42.8	-43.7	17.4	0.00e+00	0	62	0	975175680	47	4227
2026-01-01 06:40:24.69	7.77	23.30	-43.7	-44.7	16.5	0.00e+00	0	62	0	980418560	49	4209
2026-01-01 06:40:25.66	7.51	23.34	-44.2	-45.3	15.8	0.00e+00	0	62	0	985661440	50	4276
2026-01-01 06:40:26.63	7.25	23.38	-44.6	-45.8	15.2	0.00e+00	0	62	0	990904320	50	4517
2026-01-01 06:40:27.60	6.99	23.42	-44.5	-45.7	15.2	1.10e-06	0	62	0	997195776	51	4236
2026-01-01 06:40:28.57	6.73	23.46	-44.3	-45.5	15.4	0.00e+00	0	62	0	1002438656	51	4110
2026-01-01 06:40:29.54	6.47	23.50	-44.0	-45.1	15.9	0.00e+00	0	62	0	1007681536	51	3935
2026-01-01 06:40:30.50	6.21	23.53	-43.5	-44.5	16.6	0.00e+00	0	62	0	1012924416	50	3879
2026-01-01 06:40:31.48	5.95	23.57	-42.9	-43.7	17.5	0.00e+00	0	62	0	1018167296	48	4001
2026-01-01 06:40:32.45	5.68	23.61	-42.8	-43.7	17.7	0.00e+00	0	62	0	1024458752	48	3968
2026-01-01 06:40:33.42	5.42	23.64	-42.8	-43.6	17.8	0.00e+00	0	62	0	1029701632	48	3931
2026-01-01 06:40:34.39	5.16	23.68	-42.9	-43.8	17.6	0.00e+00	0	62	0	1034944512	48	4013
2026-01-01 06:40:35.36	4.89	23.71	-43.6	-44.6	16.7	0.00e+00	0	62	0	1040187392	49	4169
2026-01-01 06:40:36.33	4.63	23.74	-44.7	-45.9	15.2	0.00e+00	0	62	0	1045430272	51	4328
2026-01-01 06:40:37.30	4.36	23.78	-45.6	-47.1	13.8	2.20e-06	0	62	0	1051721728	52	4665
2026-01-01 06:40:38.28	4.09	23.81	-46.0	-47.6	13.2	1.83e-05	0	62	0	1056964608	53	4691
2026-01-01 06:40:39.25	3.83	23.84	-45.7	-47.2	13.8	1.94e-05	0	62	0	1062207488	53	4448
2026-01-01 06:40:40.22	3.56	23.87	-44.4	-45.5	15.6	1.10e-06	0	62	0	1067450368	52	3898
2026-01-01 06:40:41.20	3.29	23.90	-43.3	-44.2	17.2	0.00e+00	0	62	0	1073741824	49	4001
2026-01-01 06:40:42.17	3.02	23.93	-42.5	-43.3	18.2	0.00e+00	0	62	0	1078984704	48	3815
2026-01-01 06:40:43.14	2.75	23.96	-41.8	-42.6	19.0	0.00e+00	0	62	0	1084227584	46	3914
2026-01-01 06:40:44.11	2.48	23.99	-41.3	-41.9	19.8	0.00e+00	0	62	0	1089470464	45	3861
2026-01-01 06:40:45.08	2.21	24.02	-40.9	-41.5	20.3	0.00e+00	0	62	0	1094713344	45	3687
2026-01-01 06:40:46.05	1.94	24.04	-41.0	-41.7	20.3	0.00e+00	0	62	0	1101004800	45	3738
2026-01-01 06:40:47.03	1.66	24.07	-41.0	-41.6	20.4	0.00e+00	0	62	0	1106247680	45	3703
2026-01-01 06:40:48.01	1.39	24.10	-40.7	-41.3	20.7	0.00e+00	0	62	0	1111490560	44	3814
2026-01-01 06:40:48.98	1.12	24.12	-40.6	-41.2	20.8	0.00e+00	0	62	0	1116733440	44	3753
2026-01-01 06:40:49.95	0.85	24.15	-40.5	-41.0	20.9	0.00e+00	0	62	0	1121976320	44	3694
2026-01-01 06:40:50.93	0.57	24.17	-40.6	-41.1	20.9	0.00e+00	0	62	0	1128267776	44	3733
2026-01-01 06:40:51.90	0.30	24.19	-40.7	-41.2	20.8	0.00e+00	0	62	0	1133510656	44	3772
2026-01-01 06:40:52.87	0.02	24.22	-40.5	-41.1	20.9	0.00e+00	0	62	0	1138753536	44	3712
2026-01-01 06:40:53.84	359.75	24.24	-40.4	-41.0	21.0	0.00e+00	0	62	0	1143996416	44	3683
2026-01-01 06:40:54.81	359.48	24.26	-40.6	-41.2	20.8	0.00e+00	0	62	0	1149239296	44	3770
2026-01-01 06:40:55.78	359.20	24.28	-40.9	-41.5	20.5	0.00e+00	0	62	0	1155530752	44	3908
2026-01-01 06:40:56.75	358.93	24.30	-40.8	-41.4	20.6	0.00e+00	0	62	0	1160773632	44	3858
2026-01-01 06:40:57.73	358.65	24.32	-40.7	-41.3	20.8	0.00e+00	0	62	0	1166016512	44	3794
2026-01-01 06:40:58.70	358.37	24.33	-40.7	-41.3	20.7	0.00e+00	0	62	0	1171259392	44	3801
2026-01-01 06:40:59.67	358.10	24.35	-40.8	-41.4	20.7	0.00e+00	0	62	0	1176502272	44	3832
2026-01-01 06:41:00.64	357.82	24.37	-40.8	-41.4	20.6	0.00e+00	0	62	0	1182793728	44	3862
2026-01-01 06:41:01.61	357.54	24.38	-40.7	-41.3	20.7	0.00e+00	0	62	0	1188036608	44	3804
2026-01-01 06:41:02.57	357.27	24.40	-40.7	-41.3	20.7	0.00e+00	0	62	0	1193279488	44	3798
2026-01-01 06:41:03.54	356.99	24.41	-40.6	-41.2	20.8	0.00e+00	0	62	0	1198522368	44	3770
2026-01-01 06:41:04.51	356.71	24.43	-40.4	-41.0	21.0	0.00e+00	0	62	0	1204813824	44	3679
2026-01-01 06:41:05.47	356.44	24.44	-40.2	-40.8	21.1	0.00e+00	0	62	0	1210056704	43	3783
2026-01-01 06:41:06.44	356.16	24.45	-40.2	-40.8	21.1	0.00e+00	0	62	0	1215299584	43	3791
2026-01-01 06:41:07.42	355.88	24.46	-40.2	-40.8	21.1	0.00e+00	0	62	0	1220542464	43	3792
2026-01-01 06:41:08.40	355.60	24.48	-40.2	-40.7	21.2	0.00e+00	0	62	0	1225785344	43	3768
2026-01-01 06:41:09.37	355.32	24.49	-40.1	-40.6	21.3	0.00e+00	0	62	0	1232076800	43	3725
2026-01-01 06:41:10.34	355.04	24.49	-40.1	-40.6	21.3	0.00e+00	0	62	0	1237319680	43	3731
2026-01-01 06:41:11.31	354.76	24.50	-40.1	-40.7	21.2	0.00e+00	0	62	0	1242562560	43	3758
2026-01-01 06:41:12.29	354.48	24.51	-40.1	-40.6	21.2	0.00e+00	0	62	0	1247805440	43	3719
2026-01-01 06:41:13.26	354.20	24.52	-40.1	-40.6	21.2	0.00e+00	0	62	0	1253048320	43	3737
2026-01-01 06:41:14.23	353.92	24.52	-40.2	-40.8	21.2	0.00e+00	0	62	0	1259339776	43	3787
2026-01-01 06:41:15.21	353.64	24.53	-40.3	-40.8	21.1	0.00e+00	0	62	0	1264582656	43	3819
2026-01-01 06:41:16.18	353.36	24.54	-40.3	-40.8	21.1	0.00e+00	0	62	0	1269825536	43	3817
2026-01-01 06:41:17.15	353.08	24.54	-40.2	-40.8	21.1	0.00e+00	0	62	0	1275068416	43	3781
2026-01-01 06:41:18.12	352.80	24.54	-40.2	-40.8	21.1	0.00e+00	0	62	0	1280311296	43	3789
2026-01-01 06:41:19.09	352.52	24.55	-40.4	-41.0	21.0	0.00e+00	0	62	0	1286602752	43	3871
2026-01-01 06:41:20.06	352.24	24.55	-40.3	-40.9	21.1	0.00e+00	0	62	0	1291845632	43	3826
2026-01-01 06:41:21.03	351.96	24.55	-40.5	-41.1	20.9	0.00e+00	0	62	0	1297088512	43	3914
2026-01-01 06:41:22.00	351.68	24.55	-40.6	-41.2	20.7	0.00e+00	0	62	0	1302331392	43	3997
2026-01-01 06:41:22.97	351.40	24.55	-40.5	-41.1	20.9	0.00e+00	0	62	0	1307574272	43	3921
2026-01-01 06:41:23.94	351.12	24.55	-40.5	-41.1	20.8	0.00e+00	0	62	0	1313865728	43	3928
2026-01-01 06:41:24.90	350.85	24.55	-40.7	-41.3	20.6	0.00e+00	0	62	0	1319108608	43	4024
2026-01-01 06:41:25.87	350.57	24.54	-40.6	-41.1	20.8	0.00e+00	0	62	0	1324351488	43	3957
2026-01-01 06:41:26.84	350.29	24.54	-40.4	-41.0	20.9	0.00e+00	0	62	0	1329594368	43	3882
2026-01-01 06:41:27.81	350.01	24.54	-40.5	-41.1	20.9	0.00e+00	0	62	0	1335885824	43	3922
2026-01-01 06:41:28.78	349.73	24.53	-40.7	-41.3	20.6	0.00e+00	0	62	0	1341128704	43	4016
2026-01-01 06:41:29.75	349.45	24.53	-40.6	-41.2	20.8	0.00e+00	0	62	0	1346371584	43	3962
2026-01-01 06:41:30.72	349.17	24.52	-40.4	-41.0	20.9	0.00e+00	0	62	0	1351614464	43	3880
2026-01-01 06:41:31.69	348.89	24.51	-40.4	-40.9	21.0	0.00e+00	0	62	0	1356857344	43	3863
2026-01-01 06:41:32.66	348.61	24.51	-40.5	-41.0	20.9	0.00e+00	0	62	0	1363148800	43	3910
2026-01-01 06:41:33.62	348.34	24.50	-40.7	-41.3	20.6	0.00e+00	0	62	0	1368391680	43	4026
2026-01-01 06:41:34.59	348.06	24.49	-40.7	-41.3	20.6	0.00e+00	0	62	0	1373634560	43	4024
2026-01-01 06:41:35.56	347.78	24.48	-40.7	-41.3	20.6	0.00e+00	0	62	0	1378877440	43	4030
2026-01-01 06:41:36.53	347.50	24.47	-41.0	-41.6	20.4	0.00e+00	0	62	0	1384120320	43	4148
2026-01-01 06:41:37.50	347.22	24.46	-41.1	-41.7	20.3	0.00e+00	0	62	0	1390411776	44	3997
2026-01-01 06:41:38.47	346.94	24.44	-40.9	-41.5	20.5	0.00e+00	0	62	0	1395654656	44	3887
2026-01-01 06:41:39.44	346.67	24.43	-40.9	-41.5	20.6	0.00e+00	0	62	0	1400897536	44	3882
2026-01-01 06:41:40.41	346.39	24.42	-41.0	-41.7	20.4	0.00e+00	0	62	0	1406140416	44	3960
2026-01-01 06:41:41.38	346.11	24.40	-41.2	-41.8	20.2	0.00e+00	0	62	0	1411383296	44	4044
2026-01-01 06:41:42.35	345.83	24.39	-41.2	-41.8	20.2	0.00e+00	0	62	0	1417674752	44	4030
2026-01-01 06:41:43.32	345.56	24.37	-41.2	-41.9	20.2	0.00e+00	0	62	0	1422917632	44	4058
2026-01-01 06:41:44.29	345.28	24.36	-40.9	-41.5	20.5	0.00e+00	0	62	0	1428160512	44	3899
2026-01-01 06:41:45.27	345.00	24.34	-40.7	-41.3	20.7	0.00e+00	0	62	0	1433403392	44	3810
2026-01-01 06:41:46.24	344.73	24.32	-40.6	-41.2	20.8	0.00e+00	0	62	0	1438646272	44	3770
2026-01-01 06:41:47.21	344.45	24.30	-40.6	-41.2	20.8	0.00e+00	0	62	0	1444937728	44	3766
2026-01-01 06:41:48.18	344.17	24.28	-40.8	-41.4	20.6	0.00e+00	0	62	0	1450180608	44	3854
2026-01-01 06:41:49.15	343.90	24.26	-41.2	-41.9	20.2	0.00e+00	0	62	0	1455423488	44	4059
2026-01-01 06:41:50.12	343.63	24.24	-40.8	-41.4	20.6	0.00e+00	0	62	0	1460666368	44	3846
2026-01-01 06:41:51.09	343.35	24.22	-40.5	-41.1	20.9	0.00e+00	0	62	0	1465909248	44	3724
2026-01-01 06:41:52.05	343.08	24.20	-40.1	-40.6	21.3	0.00e+00	0	62	0	1472200704	43	3726
2026-01-01 06:41:53.02	342.81	24.18	-39.9	-40.4	21.4	0.00e+00	0	62	0	1477443584	43	3650
2026-01-01 06:41:53.98	342.54	24.15	-39.9	-40.5	21.4	0.00e+00	0	62	0	1482686464	42	3877
2026-01-01 06:41:54.95	342.26	24.13	-40.0	-40.5	21.4	0.00e+00	0	62	0	1487929344	42	3886
2026-01-01 06:41:55.92	341.99	24.10	-40.2	-40.8	21.1	0.00e+00	0	62	0	1493172224	42	4032
2026-01-01 06:41:56.89	341.72	24.08	-40.2	-40.8	21.1	0.00e+00	0	62	0	1499463680	42	4009
2026-01-01 06:41:57.87	341.45	24.05	-40.4	-40.9	20.9	0.00e+00	0	62	0	1504706560	42	4097
2026-01-01 06:41:58.84	341.18	24.03	-40.2	-40.8	21.1	0.00e+00	0	62	0	1509949440	42	4007
2026-01-01 06:41:59.81	340.90	24.00	-40.1	-40.6	21.2	0.00e+00	0	62	0	1515192320	42	3946
2026-01-01 06:42:00.78	340.64	23.97	-40.1	-40.7	21.2	0.00e+00	0	62	0	1520435200	42	3964
2026-01-01 06:42:01.76	340.36	23.94	-40.3	-40.8	21.1	0.00e+00	0	62	0	1526726656	42	4049
2026-01-01 06:42:02.72	340.10	23.91	-40.4	-41.0	20.9	0.00e+00	0	62	0	1531969536	42	4111
2026-01-01 06:42:03.70	339.83	23.88	-40.5	-41.1	20.8	0.00e+00	0	62	0	1537212416	42	4186
2026-01-01 06:42:04.66	339.56	23.85	-40.9	-41.5	20.4	0.00e+00	0	62	0	1542455296	43	4129
2026-01-01 06:42:05.63	339.29	23.82	-40.8	-41.4	20.5	0.00e+00	0	62	0	1547698176	43	4070
2026-01-01 06:42:06.60	339.03	23.79	-40.5	-41.1	20.8	0.00e+00	0	62	0	1553989632	43	3948
2026-01-01 06:42:07.57	338.76	23.75	-40.3	-40.9	21.0	0.00e+00	0	62	0	1559232512	43	3832
2026-01-01 06:42:08.54	338.49	23.72	-40.2	-40.7	21.1	0.00e+00	0	62	0	1564475392	43	3778
2026-01-01 06:42:09.51	338.23	23.69	-40.2	-40.7	21.2	0.00e+00	0	62	0	1569718272	43	3774
2026-01-01 06:42:10.48	337.97	23.65	-40.2	-40.8	21.2	0.00e+00	0	62	0	1574961152	43	3785
2026-01-01 06:42:11.45	337.70	23.62	-40.4	-40.9	21.0	0.00e+00	0	62	0	1581252608	43	3857
2026-01-01 06:42:12.42	337.44	23.58	-40.3	-40.9	21.0	0.00e+00	0	62	0	1586495488	43	3838
2026-01-01 06:42:13.39	337.18	23.55	-40.1	-40.6	21.2	0.00e+00	0	62	0	1591738368	43	3713
2026-01-01 06:42:14.36	336.91	23.51	-40.0	-40.5	21.4	0.00e+00	0	62	0	1596981248	43	3668
2026-01-01 06:42:15.33	336.65	23.47	-40.1	-40.6	21.2	0.00e+00	0	62	0	1602224128	43	3727
2026-01-01 06:42:16.30	336.39	23.43	-40.1	-40.7	21.2	0.00e+00	0	62	0	1608515584	43	3752
2026-01-01 06:42:17.27	336.13	23.39	-40.2	-40.7	21.2	0.00e+00	0	62	0	1613758464	43	3764
2026-01-01 06:42:18.24	335.87	23.36	-40.0	-40.6	21.3	0.00e+00	0	62	0	1619001344	43	3712
2026-01-01 06:42:19.21	335.61	23.32	-40.0	-40.6	21.2	0.00e+00	0	62	0	1624244224	43	3701
2026-01-01 06:42:20.19	335.35	23.27	-40.2	-40.7	21.1	0.00e+00	0	62	0	1629487104	43	3771
2026-01-01 06:42:21.16	335.09	23.23	-40.3	-40.8	21.0	0.00e+00	0	62	0	1635778560	43	3820
2026-01-01 06:42:22.13	334.84	23.19	-40.6	-41.1	20.6	0.00e+00	0	62	0	1641021440	43	3953
2026-01-01 06:42:23.10	334.58	23.15	-40.7	-41.3	20.4	0.00e+00	0	62	0	1646264320	43	4021
2026-01-01 06:42:24.07	334.33	23.11	-40.5	-41.1	20.6	0.00e+00	0	62	0	1651507200	43	3932
2026-01-01 06:42:25.04	334.07	23.06	-40.4	-41.0	20.8	0.00e+00	0	62	0	1657798656	43	3901
2026-01-01 06:42:26.01	333.82	23.02	-40.5	-41.1	20.8	0.00e+00	0	62	0	1663041536	43	3932
2026-01-01 06:42:26.97	333.57	22.98	-40.6	-41.2	20.7	0.00e+00	0	62	0	1668284416	43	3990
2026-01-01 06:42:27.94	333.31	22.93	-40.4	-41.0	20.9	0.00e+00	0	62	0	1673527296	43	3886
2026-01-01 06:42:28.91	333.06	22.89	-40.6	-41.1	20.8	0.00e+00	0	62	0	1678770176	43	3952
2026-01-01 06:42:29.88	332.81	22.84	-40.9	-41.5	20.5	0.00e+00	0	62	0	1684013056	43	4123
2026-01-01 06:42:30.85	332.56	22.79	-40.7	-41.3	20.7	0.00e+00	0	62	0	1690304512	43	4013
2026-01-01 06:42:31.83	332.31	22.75	-40.6	-41.2	20.8	0.00e+00	0	62	0	1695547392	43	3968
2026-01-01 06:42:32.80	332.06	22.70	-40.8	-41.3	20.6	0.00e+00	0	62	0	1700790272	43	4050
2026-01-01 06:42:33.77	331.81	22.65	-40.9	-41.6	20.4	0.00e+00	0	62	0	1706033152	43	4148
2026-01-01 06:42:34.75	331.56	22.60	-41.3	-42.0	20.1	0.00e+00	0	62	0	1712324608	44	4111
2026-01-01 06:42:35.72	331.32	22.55	-41.5	-42.1	20.0	0.00e+00	0	62	0	1717567488	44	4188
2026-01-01 06:42:36.69	331.07	22.50	-41.7	-42.3	19.8	0.00e+00	0	62	0	1722810368	45	4035
2026-01-01 06:42:37.66	330.83	22.45	-41.5	-42.2	19.9	0.00e+00	0	62	0	1728053248	45	3975
2026-01-01 06:42:38.63	330.58	22.40	-41.7	-42.3	19.8	0.00e+00	0	62	0	1733296128	45	4040
2026-01-01 06:42:39.60	330.34	22.35	-41.7	-42.3	19.8	0.00e+00	0	62	0	1739587584	45	4039
2026-01-01 06:42:40.57	330.10	22.30	-41.5	-42.1	20.0	0.00e+00	0	62	0	1744830464	45	3955
2026-01-01 06:42:41.54	329.85	22.25	-41.4	-42.0	20.1	0.00e+00	0	62	0	1750073344	45	3893
2026-01-01 06:42:42.51	329.61	22.20	-41.3	-41.9	20.2	0.00e+00	0	62	0	1755316224	45	3854
2026-01-01 06:42:43.49	329.37	22.15	-41.5	-42.2	19.9	0.00e+00	0	62	0	1761607680	45	3971
2026-01-01 06:42:44.46	329.13	22.09	-41.6	-42.3	19.8	0.00e+00	0	62	0	1766850560	45	4009
2026-01-01 06:42:45.43	328.89	22.04	-41.3	-42.0	20.1	0.00e+00	0	62	0	1772093440	45	3876
2026-01-01 06:42:46.40	328.65	21.99	-41.0	-41.6	20.5	0.00e+00	0	62	0	1777336320	45	3724
2026-01-01 06:42:47.37	328.42	21.93	-40.7	-41.3	20.7	0.00e+00	0	62	0	1782579200	44	3805
2026-01-01 06:42:48.34	328.18	21.88	-40.6	-41.2	20.9	0.00e+00	0	62	0	1788870656	44	3750
2026-01-01 06:42:49.31	327.95	21.82	-40.6	-41.2	20.9	0.00e+00	0	62	0	1794113536	44	3758
2026-01-01 06:42:50.28	327.71	21.77	-40.7	-41.3	20.7	0.00e+00	0	62	0	1799356416	44	3802
2026-01-01 06:42:51.25	327.48	21.71	-40.8	-41.4	20.7	0.00e+00	0	62	0	1804599296	44	3829
2026-01-01 06:42:52.22	327.25	21.66	-40.6	-41.1	20.9	0.00e+00	0	62	0	1809842176	44	3732
2026-01-01 06:42:53.19	327.01	21.60	-40.5	-41.1	20.9	0.00e+00	0	62	0	1816133632	44	3706
2026-01-01 06:42:54.16	326.78	21.54	-40.6	-41.1	20.9	0.00e+00	0	62	0	1821376512	44	3731
2026-01-01 06:42:55.13	326.55	21.48	-40.6	-41.2	20.8	0.00e+00	0	62	0	1826619392	44	3779
2026-01-01 06:42:56.10	326.32	21.43	-40.7	-41.3	20.7	0.00e+00	0	62	0	1831862272	44	3822
2026-01-01 06:42:57.07	326.10	21.37	-41.1	-41.7	20.4	0.00e+00	0	62	0	1837105152	44	3987
2026-01-01 06:42:58.03	325.87	21.31	-40.8	-41.5	20.6	0.00e+00	0	62	0	1842348032	44	3872
2026-01-01 06:42:59.00	325.64	21.25	-41.1	-41.7	20.3	0.00e+00	0	62	0	1848639488	44	3990
2026-01-01 06:42:59.97	325.42	21.19	-41.4	-42.1	20.0	0.00e+00	0	62	0	1853882368	44	4154
2026-01-01 06:43:00.94	325.19	21.13	-41.1	-41.7	20.3	0.00e+00	0	62	0	1859125248	44	3994
2026-01-01 06:43:01.91	324.97	21.08	-41.0	-41.6	20.5	0.00e+00	0	62	0	1864368128	44	3955
2026-01-01 06:43:02.88	324.75	21.02	-41.4	-42.0	20.1	0.00e+00	0	62	0	1869611008	44	4128
2026-01-01 06:43:03.85	324.53	20.95	-41.6	-42.2	19.9	0.00e+00	0	62	0	1875902464	44	4231
2026-01-01 06:43:04.82	324.30	20.89	-41.6	-42.3	19.8	0.00e+00	0	62	0	1881145344	45	4038
2026-01-01 06:43:05.79	324.08	20.83	-41.6	-42.2	19.9	0.00e+00	0	62	0	1886388224	45	3992
2026-01-01 06:43:06.76	323.86	20.77	-41.5	-42.2	19.9	0.00e+00	0	62	0	1891631104	45	3965
2026-01-01 06:43:07.73	323.64	20.71	-41.6	-42.2	19.9	0.00e+00	0	62	0	1896873984	45	3987
2026-01-01 06:43:08.71	323.42	20.65	-41.7	-42.4	19.7	0.00e+00	0	62	0	1903165440	45	4066
2026-01-01 06:43:09.68	323.21	20.59	-41.7	-42.3	19.8	0.00e+00	0	62	0	1908408320	45	4042
2026-01-01 06:43:10.65	322.99	20.52	-41.5	-42.1	20.0	0.00e+00	0	62	0	1913651200	45	3943
2026-01-01 06:43:11.62	322.78	20.46	-41.4	-42.0	20.1	0.00e+00	0	62	0	1918894080	45	3888
2026-01-01 06:43:12.59	322.56	20.40	-41.3	-41.9	20.2	0.00e+00	0	62	0	1925185536	45	3852
2026-01-01 06:43:13.56	322.35	20.34	-41.3	-41.9	20.1	0.00e+00	0	62	0	1930428416	45	3867
2026-01-01 06:43:14.53	322.14	20.27	-41.5	-42.1	19.9	0.00e+00	0	62	0	1935671296	45	3950
2026-01-01 06:43:15.50	321.93	20.21	-41.6	-42.2	19.9	0.00e+00	0	62	0	1940914176	45	3996
2026-01-01 06:43:16.47	321.71	20.14	-41.6	-42.3	19.8	0.00e+00	0	62	0	1946157056	45	4022
2026-01-01 06:43:17.44	321.50	20.08	-41.7	-42.4	19.7	0.00e+00	0	62	0	1952448512	45	4076
2026-01-01 06:43:18.41	321.30	20.02	-41.7	-42.4	19.7	0.00e+00	0	62	0	1957691392	45	4074
2026-01-01 06:43:19.38	321.09	19.95	-42.0	-42.7	19.4	0.00e+00	0	62	0	1962934272	45	4223
2026-01-01 06:43:20.34	320.88	19.89	-42.2	-42.9	19.2	0.00e+00	0	62	0	1968177152	46	4071
2026-01-01 06:43:21.31	320.68	19.82	-42.1	-42.8	19.3	0.00e+00	0	62	0	1973420032	46	4032
2026-01-01 06:43:22.29	320.47	19.76	-42.3	-43.0	19.1	0.00e+00	0	62	0	1979711488	46	4125
2026-01-01 06:43:23.26	320.26	19.69	-42.0	-42.7	19.4	0.00e+00	0	62	0	1984954368	46	3990
2026-01-01 06:43:24.24	320.06	19.62	-41.8	-42.5	19.6	0.00e+00	0	62	0	1990197248	46	3891
2026-01-01 06:43:25.20	319.86	19.56	-41.7	-42.4	19.7	0.00e+00	0	62	0	1995440128	46	3835
2026-01-01 06:43:26.18	319.65	19.49	-41.8	-42.5	19.6	0.00e+00	0	62	0	2000683008	46	3869
2026-01-01 06:43:27.15	319.45	19.43	-41.9	-42.6	19.5	0.00e+00	0	62	0	2006974464	46	3930
2026-01-01 06:43:28.12	319.25	19.36	-42.4	-43.1	19.0	0.00e+00	0	62	0	2012217344	46	4176
2026-01-01 06:43:29.09	319.05	19.29	-42.7	-43.4	18.7	0.00e+00	0	62	0	2017460224	47	4078
2026-01-01 06:43:30.05	318.86	19.23	-42.4	-43.1	19.0	0.00e+00	0	62	0	2022703104	47	3939
2026-01-01 06:43:31.02	318.66	19.16	-42.2	-42.9	19.2	0.00e+00	0	62	0	2027945984	47	3835
2026-01-01 06:43:31.99	318.46	19.09	-42.0	-42.7	19.4	0.00e+00	0	62	0	2034237440	47	3754
2026-01-01 06:43:32.96	318.27	19.02	-42.0	-42.7	19.4	0.00e+00	0	62	0	2039480320	47	3755
2026-01-01 06:43:33.93	318.07	18.96	-42.1	-42.8	19.3	0.00e+00	0	62	0	2044723200	47	3787
2026-01-01 06:43:34.90	317.88	18.89	-42.1	-42.8	19.3	0.00e+00	0	62	0	2049966080	47	3796
2026-01-01 06:43:35.87	317.69	18.82	-42.5	-43.3	18.9	0.00e+00	0	62	0	2055208960	47	4014
2026-01-01 06:43:36.84	317.49	18.75	-42.3	-43.1	19.0	0.00e+00	0	62	0	2061500416	47	3919
2026-01-01 06:43:37.81	317.30	18.68	-42.0	-42.7	19.4	0.00e+00	0	62	0	2066743296	47	3742
2026-01-01 06:43:38.78	317.11	18.62	-41.6	-42.3	19.8	0.00e+00	0	62	0	2071986176	46	3795
2026-01-01 06:43:39.75	316.92	18.55	-41.4	-42.1	20.0	0.00e+00	0	62	0	2077229056	46	3696
2026-01-01 06:43:40.73	316.73	18.48	-41.4	-42.0	20.0	0.00e+00	0	63	0	2082471936	45	3896
2026-01-01 06:43:41.70	316.54	18.41	-41.5	-42.1	19.9	0.00e+00	0	62	0	2088763392	45	3939
2026-01-01 06:43:42.67	316.36	18.34	-41.6	-42.2	19.8	0.00e+00	0	62	0	2094006272	45	3993
2026-01-01 06:43:43.64	316.17	18.27	-41.6	-42.3	19.7	0.00e+00	0	62	0	2099249152	45	4024
2026-01-01 06:43:44.61	315.99	18.20	-41.7	-42.4	19.7	0.00e+00	0	62	0	2104492032	45	4074
2026-01-01 06:43:45.58	315.80	18.13	-41.7	-42.4	19.7	0.00e+00	0	62	0	2109734912	45	4055
2026-01-01 06:43:46.55	315.62	18.06	-41.5	-42.1	19.9	0.00e+00	0	62	0	2116026368	45	3958
2026-01-01 06:43:47.52	315.43	17.99	-41.5	-42.1	19.9	0.00e+00	0	62	0	2121269248	45	3945
2026-01-01 06:43:48.48	315.25	17.93	-41.6	-42.2	19.8	0.00e+00	0	62	0	2126512128	45	3979
2026-01-01 06:43:49.45	315.07	17.86	-41.7	-42.3	19.7	0.00e+00	0	62	0	2131755008	45	4038
2026-01-01 06:43:50.42	314.89	17.79	-41.7	-42.4	19.7	0.00e+00	0	62	0	2136997888	45	4054
2026-01-01 06:43:51.39	314.71	17.72	-41.8	-42.4	19.6	0.00e+00	0	62	0	2143289344	45	4086
2026-01-01 06:43:52.37	314.53	17.65	-41.8	-42.4	19.6	0.00e+00	0	62	0	2148532224	45	4083
2026-01-01 06:43:53.35	314.35	17.58	-41.8	-42.4	19.6	0.00e+00	0	62	0	2153775104	45	4093
2026-01-01 06:43:54.32	314.18	17.50	-41.8	-42.5	19.6	0.00e+00	0	62	0	2159017984	45	4124
2026-01-01 06:43:55.29	314.00	17.43	-42.0	-42.6	19.4	0.00e+00	0	62	0	2165309440	45	4189
2026-01-01 06:43:56.26	313.83	17.36	-41.9	-42.6	19.4	0.00e+00	0	62	0	2170552320	45	4182
2026-01-01 06:43:57.23	313.65	17.29	-41.8	-42.5	19.5	0.00e+00	0	62	0	2175795200	45	4117
2026-01-01 06:43:58.20	313.48	17.22	-41.7	-42.4	19.6	0.00e+00	0	62	0	2181038080	45	4075
2026-01-01 06:43:59.17	313.30	17.15	-41.9	-42.6	19.5	0.00e+00	0	62	0	2186280960	45	4159
2026-01-01 06:44:00.14	313.13	17.08	-42.1	-42.8	19.2	0.00e+00	0	62	0	2192572416	46	4028
2026-01-01 06:44:01.11	312.96	17.01	-41.9	-42.6	19.5	0.00e+00	0	62	0	2197815296	46	3927
2026-01-01 06:44:02.08	312.79	16.94	-41.8	-42.5	19.6	0.00e+00	0	62	0	2203058176	46	3872
2026-01-01 06:44:03.05	312.62	16.87	-42.0	-42.7	19.3	0.00e+00	0	62	0	2208301056	46	3993
2026-01-01 06:44:04.02	312.45	16.80	-42.4	-43.1	19.0	0.00e+00	0	62	0	2213543936	46	4153
2026-01-01 06:44:04.99	312.29	16.73	-42.3	-43.0	19.1	0.00e+00	0	62	0	2219835392	46	4110
2026-01-01 06:44:05.96	312.12	16.66	-42.5	-43.2	18.9	0.00e+00	0	62	0	2225078272	46	4221
2026-01-01 06:44:06.93	311.95	16.59	-42.4	-43.1	19.0	0.00e+00	0	62	0	2230321152	46	4159
2026-01-01 06:44:07.90	311.79	16.52	-42.2	-43.0	19.1	0.00e+00	0	62	0	2235564032	46	4100
2026-01-01 06:44:08.88	311.62	16.44	-42.4	-43.1	18.9	0.00e+00	0	62	0	2240806912	46	4183
2026-01-01 06:44:09.86	311.45	16.37	-42.6	-43.4	18.7	0.00e+00	0	62	0	2247098368	47	4053
2026-01-01 06:44:10.83	311.29	16.30	-42.6	-43.3	18.7	0.00e+00	0	62	0	2252341248	47	4043
2026-01-01 06:44:11.80	311.13	16.23	-42.4	-43.1	18.9	0.00e+00	0	62	0	2257584128	47	3951
2026-01-01 06:44:12.78	310.97	16.16	-42.3	-43.0	19.1	0.00e+00	0	62	0	2262827008	47	3886
2026-01-01 06:44:13.75	310.81	16.09	-42.4	-43.1	18.9	0.00e+00	0	62	0	2269118464	47	3942
2026-01-01 06:44:14.72	310.65	16.02	-42.6	-43.3	18.7	0.00e+00	0	62	0	2274361344	47	4033
2026-01-01 06:44:15.69	310.49	15.94	-42.5	-43.2	18.8	0.00e+00	0	63	0	2279604224	47	3982
2026-01-01 06:44:16.66	310.33	15.87	-42.5	-43.2	18.8	0.00e+00	0	62	0	2284847104	47	3995
2026-01-01 06:44:17.63	310.17	15.80	-42.7	-43.4	18.6	0.00e+00	0	62	0	2290089984	47	4094
2026-01-01 06:44:18.60	310.01	15.73	-42.6	-43.3	18.7	0.00e+00	0	62	0	2296381440	47	4041
2026-01-01 06:44:19.57	309.86	15.66	-42.3	-43.1	19.0	0.00e+00	0	62	0	2301624320	47	3918
2026-01-01 06:44:20.54	309.70	15.59	-42.3	-43.0	19.1	0.00e+00	0	62	0	2306867200	47	3877
2026-01-01 06:44:21.51	309.55	15.52	-42.3	-43.0	19.0	0.00e+00	0	62	0	2312110080	47	3885
2026-01-01 06:44:22.48	309.39	15.45	-42.4	-43.1	19.0	0.00e+00	0	62	0	2317352960	47	3924
2026-01-01 06:44:23.46	309.24	15.37	-42.3	-43.0	19.1	0.00e+00	0	62	0	2323644416	47	3876
2026-01-01 06:44:24.42	309.09	15.30	-42.2	-42.9	19.1	0.00e+00	0	62	0	2328887296	47	3862
2026-01-01 06:44:25.39	308.94	15.23	-42.2	-42.9	19.1	0.00e+00	0	62	0	2334130176	47	3864
2026-01-01 06:44:26.36	308.79	15.16	-42.3	-43.0	19.0	0.00e+00	0	62	0	2339373056	47	3889
2026-01-01 06:44:27.34	308.63	15.09	-42.5	-43.2	18.8	0.00e+00	0	62	0	2345664512	47	3999
2026-01-01 06:44:28.31	308.48	15.02	-42.7	-43.4	18.6	0.00e+00	0	62	0	2350907392	47	4090
2026-01-01 06:44:29.28	308.34	14.95	-42.5	-43.3	18.7	0.00e+00	0	62	0	2356150272	47	4015
2026-01-01 06:44:30.26	308.19	14.87	-42.5	-43.3	18.8	0.00e+00	0	62	0	2361393152	47	4019
2026-01-01 06:44:31.23	308.04	14.80	-42.6	-43.4	18.6	0.00e+00	0	63	0	2366636032	47	4070
2026-01-01 06:44:32.20	307.89	14.73	-42.7	-43.4	18.6	0.00e+00	0	62	0	2372927488	47	4092
2026-01-01 06:44:33.17	307.75	14.66	-42.5	-43.3	18.8	0.00e+00	0	62	0	2378170368	47	4013
2026-01-01 06:44:34.15	307.60	14.59	-42.7	-43.5	18.6	0.00e+00	0	62	0	2383413248	47	4108
2026-01-01 06:44:35.12	307.45	14.52	-43.0	-43.7	18.3	0.00e+00	0	62	0	2388656128	47	4236
2026-01-01 06:44:36.09	307.31	14.45	-43.3	-44.1	18.1	0.00e+00	0	62	0	2394947584	48	4188
2026-01-01 06:44:37.06	307.17	14.38	-43.2	-44.0	18.2	0.00e+00	0	63	0	2400190464	48	4116
2026-01-01 06:44:38.03	307.03	14.30	-43.1	-43.9	18.3	0.00e+00	0	62	0	2405433344	48	4072
2026-01-01 06:44:39.00	306.88	14.23	-43.1	-43.9	18.3	0.00e+00	0	62	0	2410676224	48	4062
2026-01-01 06:44:39.96	306.74	14.16	-43.1	-43.8	18.3	0.00e+00	0	63	0	2415919104	48	4042
2026-01-01 06:44:40.93	306.60	14.09	-43.1	-43.9	18.3	0.00e+00	0	62	0	2421161984	48	4078
2026-01-01 06:44:41.91	306.46	14.02	-43.5	-44.3	17.9	0.00e+00	0	62	0	2427453440	48	4244
2026-01-01 06:44:42.87	306.33	13.95	-43.3	-44.1	18.1	0.00e+00	0	62	0	2432696320	48	4164
2026-01-01 06:44:43.84	306.19	13.88	-43.1	-43.8	18.3	0.00e+00	0	62	0	2437939200	48	4047
2026-01-01 06:44:44.81	306.05	13.81	-42.9	-43.7	18.5	0.00e+00	0	63	0	2443182080	48	3972
2026-01-01 06:44:45.78	305.91	13.74	-42.9	-43.7	18.5	0.00e+00	0	62	0	2448424960	48	3965
2026-01-01 06:44:46.75	305.78	13.67	-43.0	-43.7	18.4	0.00e+00	0	62	0	2454716416	48	3992
2026-01-01 06:44:47.72	305.64	13.60	-43.0	-43.8	18.4	0.00e+00	0	62	0	2459959296	48	4030
2026-01-01 06:44:48.69	305.51	13.53	-43.0	-43.8	18.4	0.00e+00	0	62	0	2465202176	48	4029
2026-01-01 06:44:49.66	305.37	13.46	-43.0	-43.8	18.4	0.00e+00	0	62	0	2470445056	48	4021
2026-01-01 06:44:50.63	305.24	13.38	-43.1	-43.9	18.3	0.00e+00	0	62	0	2475687936	48	4060
2026-01-01 06:44:51.60	305.11	13.31	-43.0	-43.8	18.4	0.00e+00	0	62	0	2481979392	48	4016
2026-01-01 06:44:52.58	304.97	13.24	-42.9	-43.7	18.5	0.00e+00	0	62	0	2487222272	48	3968
2026-01-01 06:44:53.55	304.84	13.17	-42.9	-43.7	18.5	0.00e+00	0	62	0	2492465152	48	3964
2026-01-01 06:44:54.52	304.71	13.10	-42.9	-43.7	18.5	0.00e+00	0	63	0	2497708032	48	3981
2026-01-01 06:44:55.49	304.58	13.03	-42.9	-43.7	18.5	0.00e+00	0	62	0	2503999488	48	3961
2026-01-01 06:44:56.46	304.45	12.96	-43.0	-43.8	18.3	0.00e+00	0	62	0	2509242368	48	4032
2026-01-01 06:44:57.42	304.32	12.89	-43.1	-43.9	18.3	0.00e+00	0	62	0	2514485248	48	4063
2026-01-01 06:44:58.39	304.19	12.82	-43.1	-43.8	18.3	0.00e+00	0	62	0	2519728128	48	4039
2026-01-01 06:44:59.36	304.06	12.75	-43.1	-43.9	18.3	0.00e+00	0	63	0	2524971008	48	4065
2026-01-01 06:45:00.33	303.94	12.68	-43.2	-43.9	18.2	0.00e+00	0	63	0	2530213888	48	4098
2026-01-01 06:45:01.30	303.81	12.61	-43.1	-43.9	18.2	0.00e+00	0	63	0	2536505344	48	4082
2026-01-01 06:45:02.26	303.69	12.54	-43.2	-44.0	18.2	0.00e+00	0	62	0	2541748224	48	4128
2026-01-01 06:45:03.23	303.56	12.47	-43.3	-44.1	18.0	0.00e+00	0	63	0	2546991104	48	4191
2026-01-01 06:45:04.20	303.44	12.40	-43.2	-44.0	18.1	0.00e+00	0	63	0	2552233984	48	4135
2026-01-01 06:45:05.17	303.31	12.33	-43.2	-44.0	18.1	0.00e+00	0	62	0	2557476864	48	4114
2026-01-01 06:45:06.14	303.19	12.26	-43.3	-44.1	18.0	0.00e+00	0	62	0	2563768320	48	4161
2026-01-01 06:45:07.11	303.06	12.19	-43.4	-44.2	17.8	0.00e+00	0	63	0	2569011200	48	4240
2026-01-01 06:45:08.08	302.94	12.12	-43.6	-44.4	17.7	0.00e+00	0	63	0	2574254080	48	4314
2026-01-01 06:45:09.05	302.82	12.06	-43.6	-44.4	17.7	0.00e+00	0	62	0	2579496960	48	4318
2026-01-01 06:45:10.02	302.70	11.99	-43.6	-44.4	17.6	0.00e+00	0	62	0	2584739840	49	4093
2026-01-01 06:45:11.00	302.58	11.92	-43.6	-44.5	17.6	0.00e+00	0	62	0	2591031296	49	4118
2026-01-01 06:45:11.97	302.46	11.85	-43.8	-44.7	17.4	0.00e+00	0	62	0	2596274176	49	4206
2026-01-01 06:45:12.94	302.34	11.78	-43.7	-44.6	17.5	0.00e+00	0	63	0	2601517056	49	4147
2026-01-01 06:45:13.91	302.22	11.71	-43.7	-44.6	17.4	0.00e+00	0	62	0	2606759936	49	4154
2026-01-01 06:45:14.88	302.10	11.64	-43.8	-44.7	17.3	0.00e+00	0	62	0	2612002816	49	4222
2026-01-01 06:45:15.85	301.98	11.57	-43.8	-44.6	17.3	0.00e+00	0	62	0	2618294272	49	4189
2026-01-01 06:45:16.82	301.87	11.50	-43.7	-44.6	17.3	0.00e+00	0	62	0	2623537152	49	4188
2026-01-01 06:45:17.79	301.75	11.43	-43.9	-44.8	17.1	0.00e+00	0	62	0	2628780032	49	4257
2026-01-01 06:45:18.76	301.63	11.36	-43.9	-44.8	17.1	0.00e+00	0	62	0	2634022912	49	4265
2026-01-01 06:45:19.73	301.52	11.30	-44.1	-45.0	16.8	0.00e+00	0	62	0	2640314368	49	4373
2026-01-01 06:45:20.71	301.40	11.23	-44.2	-45.1	16.7	0.00e+00	0	63	0	2645557248	50	4180
2026-01-01 06:45:21.68	301.29	11.16	-44.4	-45.4	16.5	0.00e+00	0	63	0	2650800128	50	4298
2026-01-01 06:45:22.64	301.17	11.09	-44.4	-45.5	16.3	0.00e+00	0	62	0	2656043008	50	4348
2026-01-01 06:45:23.62	301.06	11.02	-44.5	-45.6	16.1	0.00e+00	0	63	0	2661285888	50	4413
2026-01-01 06:45:24.59	300.95	10.95	-44.6	-45.6	16.0	0.00e+00	0	62	0	2667577344	51	4186
2026-01-01 06:45:25.56	300.83	10.88	-44.5	-45.6	16.1	0.00e+00	0	63	0	2672820224	51	4156
2026-01-01 06:45:26.54	300.72	10.82	-44.7	-45.8	15.8	0.00e+00	0	62	0	2678063104	51	4282
2026-01-01 06:45:27.51	300.61	10.75	-45.0	-46.2	15.4	0.00e+00	0	62	0	2683305984	51	4449
2026-01-01 06:45:28.48	300.50	10.68	-45.0	-46.3	15.2	0.00e+00	0	62	0	2688548864	52	4249
2026-01-01 06:45:29.44	300.39	10.61	-45.2	-46.4	15.0	1.10e-06	0	62	0	2694840320	52	4327
2026-01-01 06:45:30.41	300.28	10.54	-45.3	-46.6	14.8	0.00e+00	0	62	0	2700083200	52	4409
2026-01-01 06:45:31.38	300.17	10.48	-45.3	-46.7	14.7	2.20e-06	0	63	0	2705326080	52	4450
2026-01-01 06:45:32.35	300.06	10.41	-45.5	-46.8	14.4	0.00e+00	0	63	0	2710568960	52	4539
2026-01-01 06:45:33.32	299.95	10.34	-45.4	-46.8	14.4	0.00e+00	0	63	0	2715811840	52	4510
2026-01-01 06:45:34.29	299.85	10.27	-45.2	-46.6	14.6	0.00e+00	0	62	0	2722103296	52	4394
2026-01-01 06:45:35.26	299.74	10.21	-45.1	-46.3	14.8	1.10e-06	0	63	0	2727346176	52	4285
2026-01-01 06:45:36.23	299.63	10.14	-45.0	-46.3	14.8	1.10e-06	0	63	0	2732589056	52	4245
2026-01-01 06:45:37.20	299.53	10.07	-45.0	-46.2	14.8	0.00e+00	0	62	0	2737831936	52	4234
2026-01-01 06:45:38.17	299.42	10.01	-45.2	-46.5	14.5	1.10e-06	0	62	0	2743074816	52	4360
2026-01-01 06:45:39.14	299.32	9.94	-45.2	-46.6	14.3	0.00e+00	0	63	0	2749366272	52	4420
2026-01-01 06:45:40.11	299.21	9.87	-45.5	-47.0	13.9	6.80e-06	0	63	0	2754609152	52	4611
2026-01-01 06:45:41.08	299.11	9.80	-45.7	-47.3	13.5	6.80e-06	0	63	0	2759852032	53	4505
2026-01-01 06:45:42.05	299.00	9.74	-45.7	-47.3	13.4	2.05e-05	0	63	0	2765094912	53	4522
2026-01-01 06:45:43.01	298.90	9.67	-46.0	-47.7	13.0	5.60e-05	0	63	0	2770337792	53	4720
2026-01-01 06:45:43.99	298.80	9.60	-46.0	-47.8	12.8	4.57e-05	0	62	0	2776629248	53	4762
2026-01-01 06:45:44.95	298.70	9.54	-46.4	-48.2	12.4	1.75e-04	0	63	0	2781872128	54	4743
2026-01-01 06:45:45.93	298.60	9.47	-46.4	-48.3	12.2	3.08e-04	0	63	0	2787115008	54	4803
2026-01-01 06:45:46.90	298.49	9.41	-46.5	-48.5	11.9	4.74e-04	0	63	0	2792357888	54	4911
2026-01-01 06:45:47.87	298.39	9.34	-46.5	-48.5	11.9	5.48e-04	0	63	0	2798649344	54	4899
2026-01-01 06:45:48.84	298.29	9.27	-46.7	-48.8	11.6	8.57e-04	0	63	0	2803892224	55	4764
2026-01-01 06:45:49.81	298.19	9.21	-46.5	-48.5	11.8	8.26e-04	0	63	0	2809135104	55	4645
2026-01-01 06:45:50.78	298.09	9.14	-46.4	-48.4	11.8	7.16e-04	0	63	0	2814377984	55	4581
2026-01-01 06:45:51.75	298.00	9.08	-46.6	-48.7	11.5	9.66e-04	0	63	0	2819620864	55	4717
2026-01-01 06:45:52.73	297.90	9.01	-46.8	-49.0	11.2	1.42e-03	0	62	0	2825912320	55	4887
2026-01-01 06:45:53.70	297.80	8.94	-46.7	-49.0	11.2	2.01e-03	0	63	0	2831155200	55	4876
2026-01-01 06:45:54.67	297.70	8.88	-46.8	-49.1	11.0	2.03e-03	0	63	0	2836398080	55	4930
2026-01-01 06:45:55.65	297.60	8.81	-47.0	-49.4	10.7	3.03e-03	0	63	0	2841640960	55	5121
2026-01-01 06:45:56.62	297.51	8.75	-47.0	-49.4	10.6	4.17e-03	0	63	0	2846883840	55	5127
2026-01-01 06:45:57.59	297.41	8.68	-47.0	-49.5	10.5	4.90e-03	0	63	0	2853175296	55	5171
2026-01-01 06:45:58.56	297.31	8.62	-47.2	-49.8	10.3	5.85e-03	0	63	0	2858418176	56	5085
2026-01-01 06:45:59.53	297.22	8.55	-47.3	-50.0	10.1	9.58e-03	0	63	0	2863661056	56	5179
2026-01-01 06:46:00.50	297.12	8.49	-47.2	-49.7	10.4	6.99e-03	0	63	0	2868903936	56	5009
2026-01-01 06:46:01.47	297.03	8.42	-47.1	-49.7	10.4	5.68e-03	0	63	0	2874146816	56	4988
2026-01-01 06:46:02.44	296.94	8.36	-47.3	-50.0	10.1	8.89e-03	0	63	0	2880438272	56	5166
2026-01-01 06:46:03.41	296.84	8.29	-47.4	-50.1	9.9	1.24e-02	0	62	0	2885681152	56	5241
2026-01-01 06:46:04.38	296.75	8.23	-47.3	-49.9	10.1	8.29e-03	0	63	0	2890924032	56	5147
2026-01-01 06:46:05.35	296.66	8.16	-47.4	-50.3	9.7	1.40e-02	0	63	0	2896166912	56	5350
2026-01-01 06:46:06.32	296.56	8.10	-47.5	-50.3	9.6	1.67e-02	0	63	0	2901409792	56	5374
2026-01-01 06:46:07.29	296.47	8.03	-47.4	-50.2	9.7	1.40e-02	0	63	0	2907701248	56	5323
2026-01-01 06:46:08.26	296.38	7.97	-47.5	-50.4	9.6	1.57e-02	0	63	0	2912944128	56	5420
2026-01-01 06:46:09.24	296.29	7.90	-47.5	-50.4	9.6	1.56e-02	0	63	0	2918187008	56	5403
2026-01-01 06:46:10.20	296.20	7.84	-47.5	-50.5	9.5	1.79e-02	0	63	0	2923429888	56	5465
2026-01-01 06:46:11.17	296.11	7.78	-47.6	-50.5	9.5	1.89e-02	0	63	0	2929721344	57	5177
2026-01-01 06:46:12.14	296.02	7.71	-47.4	-50.1	9.9	1.29e-02	0	63	0	2934964224	57	4961
2026-01-01 06:46:13.12	295.93	7.65	-47.2	-49.9	10.1	9.66e-03	0	62	0	2940207104	57	4836
2026-01-01 06:46:14.09	295.84	7.58	-47.1	-49.6	10.4	6.48e-03	0	63	0	2945449984	57	4666
2026-01-01 06:46:15.06	295.75	7.52	-46.9	-49.4	10.6	4.96e-03	0	63	0	2950692864	57	4567
2026-01-01 06:46:16.04	295.66	7.46	-46.9	-49.3	10.7	4.65e-03	0	63	0	2956984320	57	4541
2026-01-01 06:46:17.00	295.58	7.39	-46.9	-49.3	10.8	3.49e-03	0	63	0	2962227200	56	4774
2026-01-01 06:46:17.98	295.49	7.33	-46.8	-49.1	11.0	2.78e-03	0	63	0	2967470080	56	4687
2026-01-01 06:46:18.95	295.40	7.27	-46.8	-49.1	11.1	2.14e-03	0	63	0	2972712960	56	4666
2026-01-01 06:46:19.92	295.31	7.20	-46.7	-49.0	11.1	2.25e-03	0	63	0	2977955840	56	4617
2026-01-01 06:46:20.89	295.23	7.14	-46.7	-48.9	11.1	2.13e-03	0	63	0	2984247296	56	4584
2026-01-01 06:46:21.87	295.14	7.08	-46.7	-49.0	11.0	2.30e-03	0	63	0	2989490176	56	4614
2026-01-01 06:46:22.84	295.06	7.01	-46.6	-48.9	11.1	1.92e-03	0	63	0	2994733056	56	4548
2026-01-01 06:46:23.81	294.97	6.95	-46.6	-48.9	11.1	2.08e-03	0	63	0	2999975936	56	4547
2026-01-01 06:46:24.79	294.89	6.89	-46.6	-48.9	11.1	2.10e-03	0	63	0	3006267392	56	4566
2026-01-01 06:46:25.75	294.80	6.82	-46.5	-48.7	11.3	1.84e-03	0	63	0	3011510272	56	4468
2026-01-01 06:46:26.73	294.72	6.76	-46.5	-48.7	11.2	1.98e-03	0	63	0	3016753152	56	4474
2026-01-01 06:46:27.70	294.63	6.70	-46.5	-48.7	11.2	1.89e-03	0	63	0	3021996032	56	4471
2026-01-01 06:46:28.67	294.55	6.64	-46.5	-48.7	11.1	1.99e-03	0	63	0	3027238912	56	4489
2026-01-01 06:46:29.64	294.47	6.57	-46.5	-48.8	11.1	2.45e-03	0	63	0	3033530368	56	4497
2026-01-01 06:46:30.61	294.39	6.51	-46.7	-49.1	10.7	2.74e-03	0	63	0	3038773248	56	4697
2026-01-01 06:46:31.58	294.30	6.45	-46.8	-49.3	10.6	4.57e-03	0	63	0	3044016128	56	4798
2026-01-01 06:46:32.55	294.22	6.39	-47.0	-49.5	10.3	5.92e-03	0	63	0	3049259008	56	4914
2026-01-01 06:46:33.53	294.14	6.33	-46.9	-49.5	10.3	5.85e-03	0	63	0	3054501888	56	4907
2026-01-01 06:46:34.50	294.06	6.26	-47.0	-49.6	10.2	8.36e-03	0	63	0	3060793344	56	4978
2026-01-01 06:46:35.48	293.98	6.20	-47.1	-49.8	10.0	8.47e-03	0	63	0	3066036224	56	5047
2026-01-01 06:46:36.45	293.90	6.14	-47.1	-49.8	10.0	9.48e-03	0	63	0	3071279104	56	5074
2026-01-01 06:46:37.42	293.82	6.08	-47.2	-49.9	9.8	1.25e-02	0	63	0	3076521984	56	5151
2026-01-01 06:46:38.39	293.74	6.02	-47.2	-50.1	9.6	1.44e-02	0	62	0	3082813440	56	5231
2026-01-01 06:46:39.36	293.66	5.96	-47.4	-50.4	9.2	2.53e-02	0	63	0	3088056320	56	5454
2026-01-01 06:46:40.33	293.58	5.89	-47.4	-50.5	9.1	2.50e-02	0	63	0	3093299200	56	5474
2026-01-01 06:46:41.30	293.50	5.83	-47.3	-50.6	8.9	3.15e-02	0	63	0	3098542080	56	5543
2026-01-01 06:46:42.26	293.42	5.77	-47.5	-50.9	8.5	4.39e-02	0	63	0	3103784960	56	5779
2026-01-01 06:46:43.23	293.35	5.71	-47.6	-51.2	8.2	6.16e-02	0	63	0	3109027840	57	5600
2026-01-01 06:46:44.20	293.27	5.65	-47.9	-51.8	7.6	9.33e-02	0	63	0	3115319296	57	6010
2026-01-01 06:46:45.17	293.19	5.59	-47.9	-51.9	7.4	1.18e-01	0	63	0	3120562176	57	6065
2026-01-01 06:46:46.15	293.11	5.53	-48.0	-52.2	7.1	1.52e-01	0	63	0	3125805056	57	6299
2026-01-01 06:46:47.12	293.04	5.47	-47.9	-52.2	7.0	1.75e-01	0	63	0	3131047936	57	6309
2026-01-01 06:46:48.08	292.96	5.41	-48.3	-52.8	6.5	2.17e-01	0	63	0	3136290816	58	6374
2026-01-01 06:46:49.05	292.89	5.35	-48.2	-52.7	6.5	2.50e-01	0	63	0	3142582272	58	6334
2026-01-01 06:46:50.02	292.81	5.29	-48.4	-53.3	6.1	3.10e-01	0	63	0	3147825152	58	6729
2026-01-01 06:46:50.99	292.74	5.23	-48.3	-53.2	6.1	3.40e-01	0	63	0	3153068032	58	6669
2026-01-01 06:46:51.96	292.66	5.17	-48.2	-53.0	6.2	3.30e-01	0	63	0	3158310912	58	6542
2026-01-01 06:46:52.93	292.59	5.11	-48.2	-53.1	6.1	3.27e-01	0	63	0	3163553792	58	6592
2026-01-01 06:46:53.90	292.51	5.05	-49.0	-55.7	4.6	3.59e-01	0	63	0	3168796672	59	8421
2026-01-01 06:46:54.88	292.44	4.99	-49.3	-60.0	3.8	8.45e-01	0	63	104	3168796672	61	12343
2026-01-01 06:46:55.87	292.36	4.93	-52.1	-62.8	3.8	8.47e-01	0	63	104	3168796672	65	13510
2026-01-01 06:46:56.85	292.29	4.87	-52.4	-63.1	3.8	8.46e-01	0	63	104	3168796672	66	13150
2026-01-01 06:46:57.83	292.21	4.80	-52.5	-63.2	3.8	8.46e-01	0	63	104	3168796672	66	13384
2026-01-01 06:46:58.82	292.14	4.74	-52.3	-63.1	3.8	8.45e-01	0	63	104	3168796672	66	13116
2026-01-01 06:46:59.80	292.07	4.68	-52.5	-63.2	3.8	8.47e-01	0	63	104	3168796672	66	13307
2026-01-01 06:47:00.79	291.99	4.62	-52.6	-63.3	3.8	8.47e-01	0	63	104	3168796672	67	12752
2026-01-01 06:47:01.77	291.92	4.56	-52.7	-63.4	3.8	8.46e-01	0	63	104	3168796672	67	12873
2026-01-01 06:47:02.75	291.85	4.50	-52.7	-63.4	3.8	8.46e-01	0	63	104	3168796672	67	12919
2026-01-01 06:47:03.73	291.78	4.44	-52.6	-63.4	3.8	8.46e-01	0	63	104	3168796672	67	12942
2026-01-01 06:47:04.72	291.70	4.38	-52.8	-63.5	3.8	8.47e-01	0	63	104	3168796672	67	13068
2026-01-01 06:47:05.70	291.63	4.32	-52.6	-63.5	3.8	8.47e-01	0	63	104	3168796672	67	13055
2026-01-01 06:47:06.69	291.56	4.26	-52.9	-63.6	3.8	8.45e-01	0	63	104	3168796672	67	13122
2026-01-01 06:47:07.67	291.49	4.20	-52.9	-63.6	3.8	8.46e-01	0	63	104	3168796672	67	13152
2026-01-01 06:47:08.66	291.42	4.15	-52.9	-63.6	3.8	8.46e-01	0	63	104	3168796672	67	13223
2026-01-01 06:47:09.64	291.35	4.09	-52.9	-63.6	3.8	8.47e-01	0	63	104	3168796672	67	13161
2026-01-01 06:47:10.63	291.28	4.03	-52.9	-63.6	3.8	8.46e-01	0	63	104	3168796672	67	13239
2026-01-01 06:47:11.61	291.21	3.97	-52.9	-63.6	3.8	8.46e-01	0	63	104	3168796672	67	13195
2026-01-01 06:47:12.59	291.14	3.91	-53.0	-63.6	3.8	8.45e-01	0	63	104	3168796672	67	13260
2026-01-01 06:47:13.57	291.07	3.85	-53.0	-63.6	3.8	8.46e-01	0	63	104	3168796672	67	13259
2026-01-01 06:47:14.55	291.00	3.79	-52.8	-63.7	3.8	8.45e-01	0	63	104	3168796672	67	13282
2026-01-01 06:47:15.54	290.94	3.73	-52.8	-63.7	3.8	8.46e-01	0	63	104	3168796672	67	13308
2026-01-01 06:47:16.52	290.87	3.67	-53.0	-63.7	3.8	8.46e-01	0	63	104	3168796672	67	13303
2026-01-01 06:47:17.51	290.80	3.61	-53.0	-63.7	3.8	8.46e-01	0	63	104	3168796672	67	13312
2026-01-01 06:47:18.49	290.73	3.56	-52.8	-63.7	3.8	8.46e-01	0	63	104	3168796672	67	13317
2026-01-01 06:47:19.48	290.66	3.50	-53.0	-63.7	3.8	8.46e-01	0	63	104	3168796672	67	13336
2026-01-01 06:47:20.46	290.60	3.44	-53.0	-63.7	3.8	8.45e-01	0	63	104	3168796672	67	13341
2026-01-01 06:47:21.45	290.53	3.38	-53.0	-63.7	3.8	8.45e-01	0	63	104	3168796672	67	13339
2026-01-01 06:47:22.44	290.46	3.32	-53.0	-63.7	3.8	8.47e-01	0	63	104	3168796672	67	13305
2026-01-01 06:47:23.42	290.40	3.26	-53.0	-63.7	3.8	8.45e-01	0	63	104	3168796672	67	13324
2026-01-01 06:47:24.41	290.33	3.20	-53.0	-63.7	3.8	8.46e-01	0	63	104	3168796672	67	13305
2026-01-01 06:47:25.39	290.26	3.15	-53.0	-63.7	3.8	8.45e-01	0	63	104	3168796672	67	13329
2026-01-01 06:47:26.37	290.20	3.09	-53.0	-63.7	3.8	8.45e-01	0	63	104	3168796672	67	13310
2026-01-01 06:47:27.36	290.13	3.03	-52.9	-63.7	3.8	8.45e-01	0	63	104	3168796672	67	13319
2026-01-01 06:47:28.34	290.07	2.97	-52.9	-63.7	3.8	8.44e-01	0	63	104	3168796672	67	13298

#Closed at: 2026-01-01 06:47:29
#Recorded file [3168 MB]: D:/Data/31026_260101_094654.dat