passes_logs/2026/01/01/R3.0SM8_Murmansk_STILSPACE/R3.0SM8_Murmansk_STILSPACE__20260101_223425_SUOMI_NPP_rec.log

#Pass ID: 20260101_223425_SUOMI NPP
#Satellite: SUOMI NPP
#Configuration: NPP
#almurnet v.1.7.20240730
#Start time: 2026-01-01 22:34:27

#Version: 2.2.20231116
#Station: R3.0SM8_Murmansk_STILSPACE
#Location: 33.092731 lon 68.902999 lat
#TLE: 1 37849U 11061A   26001.07732418  .00000182  00000+0  10735-3 0  9990
#TLE: 2 37849  98.7795 303.2470 0002580  87.2016 272.9455 14.19520779734739

#Time	Az	El	Level	Level2	SNR	BER	BlckErr	Temp	State	Recorded	gain1	gain2
2026-01-01 22:34:27.52	20.39	3.12	-52.2	-66.0	3.8	1.49e+00	0	46	0	0	66	18438
2026-01-01 22:34:28.50	20.46	3.18	-52.0	-65.8	3.8	1.49e+00	0	46	104	0	66	18070
2026-01-01 22:34:29.49	20.53	3.23	-51.9	-65.8	3.8	1.49e+00	0	46	104	0	66	17955
2026-01-01 22:34:30.48	20.60	3.29	-51.9	-65.6	3.8	1.49e+00	0	46	104	0	66	17571
2026-01-01 22:34:31.47	20.67	3.35	-51.7	-65.3	3.8	1.49e+00	0	46	104	0	66	17075
2026-01-01 22:34:32.47	20.74	3.41	-51.2	-65.0	3.8	1.49e+00	0	46	104	0	65	17432
2026-01-01 22:34:33.45	20.81	3.46	-51.3	-65.0	3.8	1.49e+00	0	47	104	0	65	17460
2026-01-01 22:34:34.44	20.88	3.52	-51.2	-65.1	3.8	1.49e+00	0	47	104	0	65	17486
2026-01-01 22:34:35.42	20.95	3.58	-51.2	-65.0	3.8	1.49e+00	0	47	104	0	65	17358
2026-01-01 22:34:36.42	21.02	3.64	-51.2	-65.0	3.8	1.49e+00	0	47	104	0	65	17464
2026-01-01 22:34:37.40	21.10	3.69	-51.2	-65.0	3.8	1.49e+00	0	47	104	0	65	17327
2026-01-01 22:34:38.39	21.17	3.75	-51.1	-64.9	3.8	1.49e+00	0	47	104	0	65	17128
2026-01-01 22:34:39.38	21.24	3.81	-51.2	-65.0	3.8	1.49e+00	0	47	104	0	65	17389
2026-01-01 22:34:40.37	21.31	3.87	-51.2	-65.0	3.8	1.49e+00	0	47	104	0	65	17458
2026-01-01 22:34:41.36	21.39	3.93	-51.2	-64.8	3.8	1.49e+00	0	47	104	0	65	16918
2026-01-01 22:34:42.35	21.46	3.99	-51.2	-64.7	3.8	1.49e+00	0	47	104	0	65	16887
2026-01-01 22:34:43.34	21.53	4.04	-51.2	-64.8	3.8	1.49e+00	0	47	104	0	65	17070
2026-01-01 22:34:44.33	21.61	4.10	-51.2	-64.9	3.8	1.49e+00	0	47	104	0	65	17261
2026-01-01 22:34:45.32	21.68	4.16	-51.2	-64.9	3.8	1.49e+00	0	47	104	0	65	17277
2026-01-01 22:34:46.31	21.75	4.22	-51.2	-64.9	3.8	1.49e+00	0	47	104	0	65	17215
2026-01-01 22:34:47.29	21.83	4.28	-51.2	-64.9	3.8	1.49e+00	0	47	104	0	65	17189
2026-01-01 22:34:48.29	21.90	4.34	-51.2	-64.9	3.8	1.49e+00	0	47	104	0	65	17178
2026-01-01 22:34:49.28	21.98	4.40	-51.2	-64.9	3.8	1.49e+00	0	48	104	0	65	17180
2026-01-01 22:34:50.27	22.05	4.46	-51.2	-64.9	3.8	1.49e+00	0	47	104	0	65	17178
2026-01-01 22:34:51.26	22.13	4.51	-51.2	-64.9	3.8	1.49e+00	0	48	104	0	65	17128
2026-01-01 22:34:52.25	22.21	4.57	-51.2	-64.7	3.8	1.49e+00	0	48	104	0	65	16708
2026-01-01 22:34:53.24	22.28	4.63	-51.1	-64.2	3.8	1.49e+00	0	48	104	0	65	15932
2026-01-01 22:34:54.23	22.36	4.69	-51.2	-63.8	3.8	1.49e+00	0	48	104	0	65	15125
2026-01-01 22:34:55.21	22.44	4.75	-51.0	-63.2	3.8	1.49e+00	0	48	104	0	65	14129
2026-01-01 22:34:56.20	22.51	4.81	-51.1	-62.5	3.9	1.49e+00	0	48	104	0	65	13032
2026-01-01 22:34:57.20	22.59	4.87	-51.0	-61.5	4.2	1.45e+00	0	48	0	0	65	11612
2026-01-01 22:34:58.19	22.67	4.93	-50.7	-59.8	4.8	1.00e+00	0	48	0	1048576	64	10156
2026-01-01 22:34:59.18	22.75	4.99	-50.5	-58.1	5.9	5.09e-01	0	48	0	3145728	64	8330
2026-01-01 22:35:00.16	22.82	5.05	-50.3	-56.7	7.1	2.47e-01	0	48	0	4194304	63	7493
2026-01-01 22:35:01.15	22.90	5.11	-50.2	-56.0	7.9	1.03e-01	0	48	0	6291456	63	6884
2026-01-01 22:35:02.15	22.98	5.17	-50.3	-56.3	7.6	8.65e-02	0	48	0	8388608	63	7124
2026-01-01 22:35:03.13	23.06	5.23	-50.0	-55.3	8.5	5.70e-02	0	49	0	10485760	63	6406
2026-01-01 22:35:04.12	23.14	5.29	-49.8	-54.6	9.3	2.80e-02	0	49	0	11534336	62	6219
2026-01-01 22:35:05.11	23.22	5.35	-49.6	-54.1	9.9	1.05e-02	0	48	0	13631488	62	5866
2026-01-01 22:35:06.10	23.30	5.41	-49.3	-53.4	10.6	6.55e-03	0	49	0	15728640	61	5744
2026-01-01 22:35:07.09	23.38	5.47	-49.1	-53.0	11.0	2.80e-03	0	49	0	17825792	61	5507
2026-01-01 22:35:08.07	23.46	5.53	-48.9	-52.6	11.5	1.19e-03	0	49	0	18874368	61	5225
2026-01-01 22:35:09.05	23.54	5.59	-48.8	-52.3	11.8	6.08e-04	0	49	0	20971520	60	5341
2026-01-01 22:35:10.05	23.62	5.66	-48.8	-52.2	11.9	4.32e-04	0	49	0	23068672	60	5299
2026-01-01 22:35:11.04	23.71	5.72	-48.5	-51.6	12.5	2.56e-04	0	49	0	25165824	60	4973
2026-01-01 22:35:12.02	23.79	5.78	-48.3	-51.2	13.0	1.21e-04	0	49	0	27262976	59	5011
2026-01-01 22:35:13.01	23.87	5.84	-48.2	-51.0	13.2	2.82e-05	0	49	0	28311552	59	4920
2026-01-01 22:35:14.00	23.95	5.90	-48.1	-50.8	13.4	2.05e-05	0	49	0	30408704	59	4809
2026-01-01 22:35:15.00	24.04	5.96	-48.3	-51.2	13.1	2.36e-05	0	49	0	32505856	59	4995
2026-01-01 22:35:15.99	24.12	6.02	-48.5	-51.4	12.8	2.59e-05	0	49	0	34603008	59	5154
2026-01-01 22:35:16.98	24.20	6.08	-48.3	-51.1	13.1	3.35e-05	0	49	0	35651584	59	4977
2026-01-01 22:35:17.97	24.29	6.15	-48.5	-51.5	12.8	4.80e-05	0	49	0	37748736	59	5170
2026-01-01 22:35:18.96	24.37	6.21	-48.6	-51.7	12.5	6.17e-05	0	50	0	39845888	59	5320
2026-01-01 22:35:19.95	24.46	6.27	-48.5	-51.5	12.8	6.94e-05	0	50	0	41943040	59	5179
2026-01-01 22:35:20.93	24.54	6.33	-48.7	-51.8	12.5	9.61e-05	0	50	0	42991616	59	5357
2026-01-01 22:35:21.92	24.63	6.39	-48.5	-51.5	12.8	7.78e-05	0	49	0	45088768	59	5188
2026-01-01 22:35:22.91	24.71	6.46	-48.5	-51.4	12.9	5.56e-05	0	49	0	47185920	59	5145
2026-01-01 22:35:23.91	24.80	6.52	-48.4	-51.4	12.9	3.50e-05	0	49	0	49283072	59	5125
2026-01-01 22:35:24.89	24.89	6.58	-48.4	-51.2	13.0	4.11e-05	0	50	0	51380224	59	5035
2026-01-01 22:35:25.88	24.97	6.64	-48.6	-51.7	12.6	5.87e-05	0	50	0	52428800	59	5300
2026-01-01 22:35:26.87	25.06	6.71	-48.4	-51.4	12.9	9.15e-05	0	50	0	54525952	59	5110
2026-01-01 22:35:27.85	25.15	6.77	-48.3	-51.0	13.3	2.97e-05	0	50	0	56623104	59	4913
2026-01-01 22:35:28.84	25.23	6.83	-48.1	-50.7	13.6	8.30e-06	0	50	0	58720256	59	4739
2026-01-01 22:35:29.82	25.32	6.89	-48.0	-50.6	13.7	6.10e-06	0	50	0	59768832	59	4689
2026-01-01 22:35:30.81	25.41	6.96	-48.0	-50.5	13.9	1.50e-06	0	50	0	61865984	59	4610
2026-01-01 22:35:31.81	25.50	7.02	-48.0	-50.6	13.8	7.00e-07	0	50	0	63963136	58	4937
2026-01-01 22:35:32.80	25.59	7.08	-48.1	-50.8	13.6	6.10e-06	0	50	0	66060288	58	5068
2026-01-01 22:35:33.79	25.68	7.15	-48.0	-50.6	13.8	6.80e-06	0	50	0	67108864	58	4927
2026-01-01 22:35:34.77	25.77	7.21	-47.9	-50.3	14.0	6.10e-06	0	50	0	69206016	58	4804
2026-01-01 22:35:35.76	25.86	7.27	-47.9	-50.4	13.9	7.00e-07	0	50	0	71303168	58	4842
2026-01-01 22:35:36.75	25.95	7.34	-47.9	-50.4	14.0	3.00e-06	0	50	0	73400320	58	4839
2026-01-01 22:35:37.73	26.04	7.40	-48.0	-50.5	13.9	4.50e-06	0	50	0	75497472	58	4917
2026-01-01 22:35:38.72	26.13	7.46	-48.0	-50.6	13.8	6.10e-06	0	50	0	76546048	58	4929
2026-01-01 22:35:39.70	26.22	7.53	-48.0	-50.6	13.8	9.90e-06	0	50	0	78643200	58	4929
2026-01-01 22:35:40.69	26.31	7.59	-48.0	-50.6	13.8	6.10e-06	0	51	0	80740352	58	4964
2026-01-01 22:35:41.68	26.41	7.65	-48.2	-50.8	13.6	5.30e-06	0	50	0	82837504	58	5061
2026-01-01 22:35:42.67	26.50	7.72	-48.3	-51.0	13.4	6.80e-06	0	50	0	83886080	58	5173
2026-01-01 22:35:43.66	26.59	7.78	-48.2	-50.8	13.6	1.29e-05	0	51	0	85983232	58	5099
2026-01-01 22:35:44.65	26.69	7.85	-48.4	-51.3	13.1	1.90e-05	0	51	0	88080384	58	5378
2026-01-01 22:35:45.64	26.78	7.91	-48.3	-51.1	13.3	1.90e-05	0	51	0	90177536	58	5237
2026-01-01 22:35:46.63	26.88	7.98	-48.2	-50.9	13.6	6.10e-06	0	51	0	91226112	58	5123
2026-01-01 22:35:47.62	26.97	8.04	-48.2	-50.9	13.6	6.80e-06	0	51	0	93323264	58	5102
2026-01-01 22:35:48.61	27.07	8.11	-48.1	-50.7	13.7	4.50e-06	0	51	0	95420416	58	5010
2026-01-01 22:35:49.60	27.16	8.17	-48.1	-50.8	13.7	5.30e-06	0	51	0	97517568	58	5051
2026-01-01 22:35:50.59	27.26	8.24	-48.2	-50.9	13.6	4.50e-06	0	51	0	98566144	58	5117
2026-01-01 22:35:51.58	27.36	8.30	-48.2	-51.0	13.5	7.60e-06	0	51	0	100663296	58	5165
2026-01-01 22:35:52.57	27.45	8.37	-48.3	-51.1	13.4	1.06e-05	0	51	0	102760448	58	5222
2026-01-01 22:35:53.56	27.55	8.43	-48.3	-50.9	13.6	1.90e-05	0	51	0	104857600	58	5122
2026-01-01 22:35:54.55	27.65	8.50	-48.1	-50.6	13.8	5.30e-06	0	51	0	106954752	58	4974
2026-01-01 22:35:55.54	27.75	8.56	-48.0	-50.4	14.1	0.00e+00	0	51	0	108003328	58	4858
2026-01-01 22:35:56.53	27.85	8.63	-47.9	-50.3	14.1	3.00e-06	0	51	0	110100480	58	4808
2026-01-01 22:35:57.52	27.95	8.69	-47.9	-50.2	14.3	7.00e-07	0	51	0	112197632	58	4750
2026-01-01 22:35:58.51	28.05	8.76	-48.1	-50.6	13.9	2.20e-06	0	51	0	114294784	58	4970
2026-01-01 22:35:59.50	28.15	8.83	-48.1	-50.7	13.8	3.80e-06	0	51	0	115343360	58	4990
2026-01-01 22:36:00.49	28.25	8.89	-47.9	-50.3	14.2	7.00e-07	0	51	0	117440512	58	4813
2026-01-01 22:36:01.48	28.35	8.96	-47.9	-50.4	14.1	7.00e-07	0	51	0	119537664	58	4830
2026-01-01 22:36:02.47	28.45	9.02	-47.8	-50.0	14.5	1.50e-06	0	51	0	121634816	58	4646
2026-01-01 22:36:03.46	28.55	9.09	-47.6	-49.8	14.8	7.00e-07	0	51	0	122683392	58	4509
2026-01-01 22:36:04.44	28.65	9.16	-47.4	-49.5	15.0	0.00e+00	0	51	0	124780544	58	4382
2026-01-01 22:36:05.44	28.75	9.22	-47.5	-49.6	15.0	0.00e+00	0	51	0	126877696	58	4405
2026-01-01 22:36:06.43	28.86	9.29	-47.5	-49.6	15.0	0.00e+00	0	51	0	128974848	58	4424
2026-01-01 22:36:07.41	28.96	9.36	-47.4	-49.5	15.0	0.00e+00	0	51	0	131072000	57	4632
2026-01-01 22:36:08.40	29.06	9.42	-47.5	-49.7	14.8	0.00e+00	0	52	0	132120576	57	4717
2026-01-01 22:36:09.40	29.17	9.49	-47.5	-49.6	14.9	7.00e-07	0	52	0	134217728	57	4670
2026-01-01 22:36:10.39	29.28	9.56	-47.6	-49.8	14.7	0.00e+00	0	51	0	136314880	57	4797
2026-01-01 22:36:11.37	29.38	9.62	-47.8	-50.1	14.5	7.00e-07	0	52	0	138412032	57	4964
2026-01-01 22:36:12.36	29.49	9.69	-47.7	-50.0	14.6	0.00e+00	0	52	0	139460608	57	4921
2026-01-01 22:36:13.36	29.59	9.76	-47.9	-50.3	14.2	0.00e+00	0	52	0	141557760	57	5100
2026-01-01 22:36:14.34	29.70	9.83	-48.0	-50.4	14.1	3.00e-06	0	52	0	143654912	58	4866
2026-01-01 22:36:15.33	29.81	9.89	-48.0	-50.4	14.2	1.50e-06	0	52	0	145752064	58	4844
2026-01-01 22:36:16.32	29.91	9.96	-47.9	-50.2	14.4	0.00e+00	0	52	0	147849216	58	4733
2026-01-01 22:36:17.31	30.02	10.03	-48.0	-50.4	14.2	7.00e-07	0	52	0	148897792	58	4840
2026-01-01 22:36:18.30	30.13	10.10	-48.0	-50.5	14.1	2.20e-06	0	52	0	150994944	58	4890
2026-01-01 22:36:19.28	30.24	10.16	-48.0	-50.4	14.2	7.00e-07	0	52	0	153092096	58	4841
2026-01-01 22:36:20.27	30.35	10.23	-48.1	-50.6	14.1	2.20e-06	0	52	0	155189248	58	4953
2026-01-01 22:36:21.26	30.46	10.30	-48.1	-50.7	13.9	1.50e-06	0	52	0	156237824	58	5007
2026-01-01 22:36:22.24	30.57	10.37	-48.3	-50.8	13.8	2.20e-06	0	52	0	158334976	58	5098
2026-01-01 22:36:23.24	30.68	10.44	-48.2	-50.8	13.8	5.30e-06	0	52	0	160432128	58	5097
2026-01-01 22:36:24.22	30.79	10.50	-48.3	-51.0	13.7	3.80e-06	0	52	0	162529280	58	5170
2026-01-01 22:36:25.22	30.90	10.57	-48.5	-51.3	13.3	1.52e-05	0	52	0	163577856	59	5093
2026-01-01 22:36:26.21	31.02	10.64	-48.5	-51.2	13.4	1.60e-05	0	52	0	165675008	59	5035
2026-01-01 22:36:27.20	31.13	10.71	-48.5	-51.2	13.3	1.90e-05	0	52	0	167772160	59	5041
2026-01-01 22:36:28.19	31.24	10.78	-48.6	-51.4	13.3	1.90e-05	0	52	0	169869312	59	5101
2026-01-01 22:36:29.17	31.36	10.85	-48.7	-51.5	13.2	1.22e-05	0	52	0	171966464	59	5165
2026-01-01 22:36:30.16	31.47	10.92	-48.8	-51.7	13.0	4.19e-05	0	52	0	173015040	59	5281
2026-01-01 22:36:31.15	31.59	10.99	-48.7	-51.5	13.2	2.44e-05	0	53	0	175112192	59	5181
2026-01-01 22:36:32.14	31.70	11.06	-49.0	-52.0	12.6	6.48e-05	0	52	0	177209344	59	5508
2026-01-01 22:36:33.13	31.82	11.13	-48.6	-51.4	13.3	4.80e-05	0	52	0	179306496	59	5156
2026-01-01 22:36:34.12	31.94	11.19	-48.5	-51.1	13.6	1.60e-05	0	52	0	180355072	59	4981
2026-01-01 22:36:35.11	32.05	11.26	-48.3	-50.8	13.9	9.10e-06	0	52	0	182452224	59	4777
2026-01-01 22:36:36.09	32.17	11.33	-48.1	-50.5	14.2	0.00e+00	0	52	0	184549376	59	4623
2026-01-01 22:36:37.08	32.29	11.40	-47.9	-50.2	14.5	1.50e-06	0	52	0	186646528	58	4728
2026-01-01 22:36:38.07	32.41	11.47	-47.9	-50.1	14.6	7.00e-07	0	52	0	187695104	58	4677
2026-01-01 22:36:39.07	32.53	11.54	-47.9	-50.2	14.5	0.00e+00	0	53	0	189792256	58	4716
2026-01-01 22:36:40.05	32.65	11.61	-47.6	-49.8	14.9	0.00e+00	0	53	0	191889408	58	4529
2026-01-01 22:36:41.04	32.77	11.68	-47.4	-49.5	15.2	1.50e-06	0	53	0	193986560	58	4387
2026-01-01 22:36:42.03	32.89	11.75	-47.4	-49.5	15.2	0.00e+00	0	53	0	195035136	57	4608
2026-01-01 22:36:43.02	33.01	11.82	-47.2	-49.2	15.5	0.00e+00	0	53	0	197132288	57	4464
2026-01-01 22:36:44.01	33.13	11.89	-47.3	-49.3	15.4	0.00e+00	0	53	0	199229440	57	4521
2026-01-01 22:36:45.00	33.26	11.96	-47.2	-49.2	15.5	0.00e+00	0	53	0	201326592	57	4447
2026-01-01 22:36:45.99	33.38	12.03	-47.1	-49.0	15.7	0.00e+00	0	53	0	203423744	57	4353
2026-01-01 22:36:46.97	33.50	12.10	-47.2	-49.1	15.6	0.00e+00	0	53	0	204472320	57	4409
2026-01-01 22:36:47.96	33.63	12.17	-47.2	-49.1	15.6	0.00e+00	0	53	0	206569472	57	4414
2026-01-01 22:36:48.95	33.75	12.25	-47.1	-49.1	15.6	0.00e+00	0	53	0	208666624	57	4410
2026-01-01 22:36:49.93	33.88	12.32	-47.1	-49.0	15.7	0.00e+00	0	53	0	210763776	57	4364
2026-01-01 22:36:50.92	34.00	12.39	-47.3	-49.3	15.4	0.00e+00	0	53	0	211812352	57	4506
2026-01-01 22:36:51.91	34.13	12.46	-47.1	-49.0	15.7	0.00e+00	0	53	0	213909504	57	4347
2026-01-01 22:36:52.90	34.26	12.53	-47.1	-48.9	15.7	0.00e+00	0	53	0	216006656	57	4335
2026-01-01 22:36:53.89	34.38	12.60	-47.0	-48.9	15.9	0.00e+00	0	53	0	218103808	57	4298
2026-01-01 22:36:54.87	34.51	12.67	-47.2	-49.1	15.6	0.00e+00	0	53	0	219152384	57	4430
2026-01-01 22:36:55.87	34.64	12.74	-47.1	-49.0	15.7	0.00e+00	0	53	0	221249536	57	4363
2026-01-01 22:36:56.87	34.77	12.82	-47.2	-49.2	15.6	7.00e-07	0	53	0	223346688	57	4460
2026-01-01 22:36:57.86	34.90	12.89	-47.2	-49.1	15.6	0.00e+00	0	53	0	225443840	57	4439
2026-01-01 22:36:58.85	35.03	12.96	-47.1	-49.0	15.7	0.00e+00	0	53	0	227540992	57	4362
2026-01-01 22:36:59.84	35.17	13.03	-47.3	-49.2	15.5	0.00e+00	0	53	0	228589568	57	4481
2026-01-01 22:37:00.83	35.30	13.10	-47.2	-49.2	15.6	0.00e+00	0	53	0	230686720	57	4445
2026-01-01 22:37:01.82	35.43	13.17	-47.2	-49.2	15.6	0.00e+00	0	53	0	232783872	57	4446
2026-01-01 22:37:02.81	35.56	13.25	-47.5	-49.5	15.2	0.00e+00	0	53	0	234881024	57	4645
2026-01-01 22:37:03.81	35.70	13.32	-47.4	-49.4	15.3	0.00e+00	0	53	0	235929600	57	4580
2026-01-01 22:37:04.80	35.84	13.39	-47.5	-49.5	15.2	0.00e+00	0	53	0	238026752	57	4633
2026-01-01 22:37:05.79	35.97	13.46	-47.5	-49.5	15.2	7.00e-07	0	53	0	240123904	57	4646
2026-01-01 22:37:06.78	36.11	13.53	-47.4	-49.5	15.3	0.00e+00	0	53	0	242221056	57	4627
2026-01-01 22:37:07.78	36.24	13.61	-47.8	-49.9	14.8	0.00e+00	0	53	0	244318208	57	4864
2026-01-01 22:37:08.77	36.38	13.68	-47.7	-49.8	15.0	0.00e+00	0	53	0	245366784	57	4772
2026-01-01 22:37:09.76	36.52	13.75	-47.7	-49.9	14.9	0.00e+00	0	53	0	247463936	57	4820
2026-01-01 22:37:10.75	36.66	13.82	-47.7	-49.9	14.9	0.00e+00	0	54	0	249561088	57	4838
2026-01-01 22:37:11.75	36.80	13.90	-48.0	-50.3	14.5	0.00e+00	0	53	0	251658240	57	5052
2026-01-01 22:37:12.73	36.94	13.97	-48.0	-50.4	14.4	0.00e+00	0	54	0	252706816	58	4826
2026-01-01 22:37:13.71	37.08	14.04	-48.2	-50.6	14.3	0.00e+00	0	54	0	254803968	58	4953
2026-01-01 22:37:14.71	37.22	14.12	-48.0	-50.3	14.5	0.00e+00	0	54	0	256901120	58	4793
2026-01-01 22:37:15.70	37.36	14.19	-48.1	-50.4	14.3	1.50e-06	0	53	0	258998272	58	4870
2026-01-01 22:37:16.68	37.50	14.26	-48.3	-50.8	14.0	1.50e-06	0	54	0	260046848	58	5067
2026-01-01 22:37:17.67	37.65	14.33	-48.1	-50.4	14.4	7.00e-07	0	53	0	262144000	58	4845
2026-01-01 22:37:18.66	37.79	14.41	-48.0	-50.2	14.6	7.00e-07	0	53	0	264241152	58	4748
2026-01-01 22:37:19.65	37.94	14.48	-47.7	-49.9	15.0	0.00e+00	0	53	0	266338304	58	4550
2026-01-01 22:37:20.63	38.08	14.55	-47.3	-49.2	15.6	0.00e+00	0	54	0	268435456	57	4483
2026-01-01 22:37:21.62	38.22	14.62	-47.3	-49.2	15.6	0.00e+00	0	54	0	269484032	57	4472
2026-01-01 22:37:22.62	38.37	14.70	-47.2	-49.2	15.6	0.00e+00	0	54	0	271581184	57	4443
2026-01-01 22:37:23.60	38.52	14.77	-46.9	-48.8	16.0	0.00e+00	0	54	0	273678336	57	4262
2026-01-01 22:37:24.60	38.67	14.85	-46.8	-48.6	16.2	0.00e+00	0	54	0	275775488	56	4393
2026-01-01 22:37:25.60	38.82	14.92	-46.7	-48.4	16.4	0.00e+00	0	54	0	276824064	56	4308
2026-01-01 22:37:26.58	38.97	14.99	-46.6	-48.3	16.4	0.00e+00	0	54	0	278921216	56	4282
2026-01-01 22:37:27.56	39.12	15.06	-46.4	-48.1	16.7	0.00e+00	0	54	0	281018368	56	4159
2026-01-01 22:37:28.54	39.27	15.14	-46.8	-48.6	16.2	0.00e+00	0	54	0	283115520	56	4424
2026-01-01 22:37:29.53	39.42	15.21	-46.8	-48.5	16.3	0.00e+00	0	54	0	284164096	56	4355
2026-01-01 22:37:30.52	39.57	15.28	-46.7	-48.4	16.4	0.00e+00	0	54	0	286261248	56	4328
2026-01-01 22:37:31.51	39.72	15.36	-46.8	-48.5	16.3	0.00e+00	0	54	0	288358400	56	4358
2026-01-01 22:37:32.50	39.88	15.43	-46.7	-48.4	16.4	0.00e+00	0	54	0	290455552	56	4308
2026-01-01 22:37:33.49	40.03	15.51	-46.6	-48.4	16.4	0.00e+00	0	54	0	291504128	56	4316
2026-01-01 22:37:34.48	40.19	15.58	-46.8	-48.6	16.3	0.00e+00	0	54	0	293601280	56	4399
2026-01-01 22:37:35.46	40.34	15.65	-46.8	-48.5	16.3	0.00e+00	0	54	0	295698432	56	4390
2026-01-01 22:37:36.45	40.50	15.73	-46.6	-48.3	16.5	0.00e+00	0	54	0	297795584	56	4265
2026-01-01 22:37:37.44	40.66	15.80	-47.0	-48.8	16.0	0.00e+00	0	54	0	299892736	56	4542
2026-01-01 22:37:38.42	40.81	15.87	-47.0	-48.8	16.1	0.00e+00	0	54	0	300941312	56	4504
2026-01-01 22:37:39.41	40.97	15.95	-46.9	-48.6	16.2	0.00e+00	0	54	0	303038464	56	4425
2026-01-01 22:37:40.40	41.13	16.02	-47.0	-48.8	16.1	0.00e+00	0	54	0	305135616	56	4514
2026-01-01 22:37:41.39	41.29	16.09	-47.1	-49.0	15.9	0.00e+00	0	54	0	307232768	56	4628
2026-01-01 22:37:42.38	41.45	16.17	-47.3	-49.2	15.6	0.00e+00	0	54	0	308281344	56	4719
2026-01-01 22:37:43.37	41.62	16.24	-47.4	-49.4	15.5	0.00e+00	0	54	0	310378496	56	4829
2026-01-01 22:37:44.35	41.78	16.31	-47.4	-49.4	15.5	0.00e+00	0	54	0	312475648	56	4861
2026-01-01 22:37:45.35	41.94	16.39	-47.4	-49.4	15.5	0.00e+00	0	54	0	314572800	57	4561
2026-01-01 22:37:46.33	42.11	16.46	-47.1	-48.9	15.9	0.00e+00	0	54	0	315621376	57	4329
2026-01-01 22:37:47.33	42.27	16.54	-47.0	-48.7	16.1	0.00e+00	0	54	0	317718528	57	4236
2026-01-01 22:37:48.32	42.44	16.61	-46.8	-48.5	16.3	0.00e+00	0	54	0	319815680	56	4374
2026-01-01 22:37:49.30	42.60	16.68	-46.7	-48.4	16.4	0.00e+00	0	54	0	321912832	56	4321
2026-01-01 22:37:50.29	42.77	16.76	-46.8	-48.5	16.3	0.00e+00	0	54	0	324009984	56	4373
2026-01-01 22:37:51.29	42.94	16.83	-46.8	-48.6	16.3	0.00e+00	0	54	0	325058560	56	4408
2026-01-01 22:37:52.28	43.11	16.91	-47.0	-48.7	16.1	0.00e+00	0	54	0	327155712	56	4473
2026-01-01 22:37:53.26	43.28	16.98	-46.9	-48.6	16.2	0.00e+00	0	54	0	329252864	56	4430
2026-01-01 22:37:54.26	43.45	17.05	-47.0	-48.7	16.1	0.00e+00	0	54	0	331350016	56	4481
2026-01-01 22:37:55.24	43.62	17.13	-47.1	-48.9	15.9	0.00e+00	0	54	0	332398592	56	4587
2026-01-01 22:37:56.23	43.79	17.20	-47.1	-48.9	15.9	0.00e+00	0	54	0	334495744	56	4595
2026-01-01 22:37:57.22	43.97	17.27	-46.9	-48.6	16.3	0.00e+00	0	54	0	336592896	56	4404
2026-01-01 22:37:58.21	44.14	17.35	-46.8	-48.5	16.4	0.00e+00	0	54	0	338690048	56	4372
2026-01-01 22:37:59.21	44.32	17.42	-46.7	-48.4	16.4	0.00e+00	0	54	0	339738624	56	4320
2026-01-01 22:38:00.19	44.49	17.50	-46.7	-48.3	16.6	0.00e+00	0	54	0	341835776	56	4274
2026-01-01 22:38:01.19	44.67	17.57	-46.7	-48.4	16.5	0.00e+00	0	54	0	343932928	56	4308
2026-01-01 22:38:02.18	44.85	17.64	-47.1	-48.9	16.1	0.00e+00	0	54	0	346030080	56	4549
2026-01-01 22:38:03.17	45.03	17.72	-47.1	-48.9	16.0	0.00e+00	0	54	0	348127232	56	4566
2026-01-01 22:38:04.16	45.21	17.79	-46.7	-48.4	16.4	0.00e+00	0	55	0	349175808	56	4316
2026-01-01 22:38:05.15	45.39	17.86	-46.6	-48.3	16.6	0.00e+00	0	55	0	351272960	56	4257
2026-01-01 22:38:06.14	45.57	17.94	-46.3	-47.8	17.0	0.00e+00	0	55	0	353370112	55	4255
2026-01-01 22:38:07.13	45.75	18.01	-46.4	-47.9	16.8	0.00e+00	0	54	0	355467264	55	4337
2026-01-01 22:38:08.12	45.93	18.09	-46.3	-47.8	16.9	0.00e+00	0	55	0	356515840	55	4266
2026-01-01 22:38:09.11	46.12	18.16	-46.4	-48.0	16.8	0.00e+00	0	54	0	358612992	55	4351
2026-01-01 22:38:10.10	46.30	18.23	-46.8	-48.5	16.2	0.00e+00	0	55	0	360710144	55	4636
2026-01-01 22:38:11.09	46.49	18.30	-46.6	-48.2	16.5	0.00e+00	0	55	0	362807296	55	4490
2026-01-01 22:38:12.08	46.67	18.38	-46.4	-48.0	16.8	0.00e+00	0	55	0	364904448	55	4344
2026-01-01 22:38:13.06	46.86	18.45	-46.2	-47.7	17.1	0.00e+00	0	55	0	365953024	55	4219
2026-01-01 22:38:14.05	47.04	18.52	-46.1	-47.6	17.2	0.00e+00	0	55	0	368050176	55	4158
2026-01-01 22:38:15.04	47.23	18.60	-45.9	-47.4	17.3	0.00e+00	0	55	0	370147328	55	4065
2026-01-01 22:38:16.03	47.42	18.67	-45.9	-47.3	17.4	0.00e+00	0	55	0	372244480	54	4281
2026-01-01 22:38:17.02	47.61	18.74	-46.0	-47.4	17.3	0.00e+00	0	55	0	373293056	54	4337
2026-01-01 22:38:18.01	47.80	18.81	-46.3	-47.9	16.9	0.00e+00	0	55	0	375390208	54	4561
2026-01-01 22:38:19.00	48.00	18.89	-46.2	-47.6	17.1	0.00e+00	0	55	0	377487360	54	4441
2026-01-01 22:38:19.98	48.19	18.96	-46.0	-47.4	17.3	0.00e+00	0	55	0	379584512	54	4322
2026-01-01 22:38:20.97	48.38	19.03	-45.8	-47.3	17.5	0.00e+00	0	55	0	380633088	54	4245
2026-01-01 22:38:21.96	48.58	19.10	-46.1	-47.5	17.2	0.00e+00	0	55	0	382730240	54	4388
2026-01-01 22:38:22.95	48.77	19.17	-46.2	-47.8	17.0	0.00e+00	0	55	0	384827392	54	4503
2026-01-01 22:38:23.93	48.97	19.25	-46.1	-47.6	17.1	0.00e+00	0	55	0	386924544	54	4429
2026-01-01 22:38:24.92	49.17	19.32	-46.1	-47.6	17.1	0.00e+00	0	55	0	387973120	54	4428
2026-01-01 22:38:25.90	49.36	19.39	-46.1	-47.6	17.2	0.00e+00	0	55	0	390070272	54	4402
2026-01-01 22:38:26.89	49.56	19.46	-46.3	-47.9	16.9	0.00e+00	0	55	0	392167424	54	4575
2026-01-01 22:38:27.88	49.76	19.53	-46.2	-47.8	17.0	0.00e+00	0	55	0	394264576	54	4501
2026-01-01 22:38:28.86	49.96	19.60	-46.4	-47.9	16.8	0.00e+00	0	55	0	396361728	54	4591
2026-01-01 22:38:29.85	50.16	19.67	-46.4	-47.9	16.8	0.00e+00	0	55	0	397410304	54	4581
2026-01-01 22:38:30.83	50.36	19.74	-46.4	-48.0	16.8	0.00e+00	0	55	0	399507456	54	4622
2026-01-01 22:38:31.82	50.57	19.82	-46.6	-48.3	16.5	0.00e+00	0	55	0	401604608	55	4503
2026-01-01 22:38:32.81	50.77	19.89	-46.4	-47.9	16.9	0.00e+00	0	55	0	403701760	55	4328
2026-01-01 22:38:33.80	50.98	19.96	-46.1	-47.5	17.2	0.00e+00	0	55	0	404750336	55	4144
2026-01-01 22:38:34.79	51.19	20.03	-45.9	-47.3	17.4	0.00e+00	0	55	0	406847488	54	4288
2026-01-01 22:38:35.77	51.39	20.10	-45.8	-47.2	17.6	0.00e+00	0	55	0	408944640	54	4196
2026-01-01 22:38:36.77	51.60	20.17	-45.6	-47.0	17.7	0.00e+00	0	55	0	411041792	54	4106
2026-01-01 22:38:37.76	51.81	20.24	-45.8	-47.2	17.5	0.00e+00	0	55	0	412090368	54	4236
2026-01-01 22:38:38.75	52.02	20.31	-46.0	-47.4	17.3	0.00e+00	0	55	0	414187520	54	4329
2026-01-01 22:38:39.74	52.23	20.38	-46.2	-47.7	17.1	0.00e+00	0	55	0	416284672	54	4453
2026-01-01 22:38:40.72	52.44	20.45	-46.4	-48.0	16.7	0.00e+00	0	55	0	418381824	54	4631
2026-01-01 22:38:41.71	52.66	20.51	-46.4	-48.0	16.8	0.00e+00	0	55	0	420478976	54	4648
2026-01-01 22:38:42.70	52.87	20.58	-46.5	-48.1	16.6	0.00e+00	0	55	0	421527552	55	4429
2026-01-01 22:38:43.69	53.09	20.65	-46.5	-48.2	16.6	0.00e+00	0	55	0	423624704	55	4451
2026-01-01 22:38:44.68	53.30	20.72	-46.4	-48.0	16.8	0.00e+00	0	55	0	425721856	55	4374
2026-01-01 22:38:45.66	53.52	20.79	-46.3	-47.8	17.0	0.00e+00	0	55	0	427819008	55	4250
2026-01-01 22:38:46.65	53.74	20.86	-46.5	-48.0	16.8	0.00e+00	0	55	0	428867584	55	4379
2026-01-01 22:38:47.64	53.96	20.92	-46.4	-48.0	16.8	0.00e+00	0	55	0	430964736	55	4353
2026-01-01 22:38:48.62	54.17	20.99	-46.5	-48.1	16.7	0.00e+00	0	55	0	433061888	55	4413
2026-01-01 22:38:49.60	54.39	21.06	-46.7	-48.4	16.3	0.00e+00	0	55	0	435159040	55	4585
2026-01-01 22:38:50.59	54.61	21.13	-46.6	-48.3	16.5	0.00e+00	0	55	0	436207616	55	4496
2026-01-01 22:38:51.58	54.84	21.19	-46.6	-48.2	16.6	0.00e+00	0	55	0	438304768	55	4461
2026-01-01 22:38:52.56	55.06	21.26	-46.5	-48.0	16.7	0.00e+00	0	55	0	440401920	55	4388
2026-01-01 22:38:53.55	55.28	21.32	-46.7	-48.4	16.4	0.00e+00	0	55	0	442499072	55	4564
2026-01-01 22:38:54.55	55.51	21.39	-46.8	-48.5	16.3	0.00e+00	0	55	0	443547648	55	4609
2026-01-01 22:38:55.53	55.73	21.46	-46.9	-48.7	16.1	0.00e+00	0	55	0	445644800	55	4708
2026-01-01 22:38:56.52	55.96	21.52	-47.3	-49.2	15.7	0.00e+00	0	55	0	447741952	56	4730
2026-01-01 22:38:57.50	56.19	21.59	-47.7	-49.8	15.1	0.00e+00	0	55	0	449839104	57	4809
2026-01-01 22:38:58.49	56.42	21.65	-47.9	-50.1	14.8	0.00e+00	0	55	0	450887680	57	4959
2026-01-01 22:38:59.48	56.65	21.72	-47.8	-49.9	15.0	7.00e-07	0	55	0	452984832	57	4857
2026-01-01 22:39:00.47	56.88	21.78	-47.6	-49.6	15.4	0.00e+00	0	55	0	455081984	57	4652
2026-01-01 22:39:01.46	57.11	21.85	-47.2	-49.1	15.8	0.00e+00	0	55	0	457179136	57	4399
2026-01-01 22:39:02.45	57.34	21.91	-47.4	-49.3	15.7	0.00e+00	0	55	0	459276288	57	4543
2026-01-01 22:39:03.44	57.58	21.97	-47.2	-49.0	15.8	0.00e+00	0	55	0	460324864	57	4381
2026-01-01 22:39:04.43	57.81	22.04	-47.2	-49.0	16.0	0.00e+00	0	55	0	462422016	57	4347
2026-01-01 22:39:05.42	58.05	22.10	-47.1	-48.9	16.0	0.00e+00	0	55	0	464519168	57	4306
2026-01-01 22:39:06.42	58.29	22.16	-47.3	-49.2	15.7	0.00e+00	0	55	0	466616320	57	4485
2026-01-01 22:39:07.40	58.52	22.22	-47.0	-48.7	16.2	0.00e+00	0	55	0	467664896	57	4236
2026-01-01 22:39:08.40	58.77	22.29	-46.8	-48.5	16.4	0.00e+00	0	55	0	469762048	56	4363
2026-01-01 22:39:09.39	59.01	22.35	-46.7	-48.3	16.7	0.00e+00	0	55	0	471859200	56	4257
2026-01-01 22:39:10.38	59.25	22.41	-46.6	-48.2	16.7	0.00e+00	0	55	0	473956352	56	4231
2026-01-01 22:39:11.38	59.49	22.47	-46.9	-48.5	16.4	0.00e+00	0	55	0	476053504	56	4391
2026-01-01 22:39:12.37	59.73	22.53	-47.1	-49.0	15.9	0.00e+00	0	55	0	477102080	56	4624
2026-01-01 22:39:13.36	59.98	22.59	-47.3	-49.2	15.7	0.00e+00	0	56	0	479199232	56	4728
2026-01-01 22:39:14.35	60.22	22.65	-47.3	-49.1	15.8	0.00e+00	0	56	0	481296384	56	4689
2026-01-01 22:39:15.34	60.47	22.71	-47.4	-49.2	15.7	0.00e+00	0	56	0	483393536	56	4758
2026-01-01 22:39:16.32	60.71	22.77	-46.8	-48.4	16.5	0.00e+00	0	56	0	484442112	56	4323
2026-01-01 22:39:17.31	60.96	22.83	-46.4	-48.0	16.9	0.00e+00	0	55	0	486539264	56	4108
2026-01-01 22:39:18.29	61.20	22.88	-46.2	-47.7	17.1	0.00e+00	0	56	0	488636416	55	4200
2026-01-01 22:39:19.29	61.45	22.94	-46.4	-47.9	16.9	0.00e+00	0	56	0	490733568	55	4313
2026-01-01 22:39:20.28	61.70	23.00	-46.5	-48.1	16.7	0.00e+00	0	56	0	491782144	55	4436
2026-01-01 22:39:21.27	61.95	23.06	-46.7	-48.4	16.5	0.00e+00	0	56	0	493879296	55	4549
2026-01-01 22:39:22.26	62.20	23.11	-46.8	-48.5	16.3	0.00e+00	0	56	0	495976448	55	4624
2026-01-01 22:39:23.25	62.46	23.17	-47.0	-48.8	16.0	0.00e+00	0	55	0	498073600	55	4798
2026-01-01 22:39:24.25	62.71	23.22	-47.4	-49.4	15.6	0.00e+00	0	56	0	500170752	56	4829
2026-01-01 22:39:25.23	62.96	23.28	-47.6	-49.5	15.4	0.00e+00	0	56	0	501219328	56	4920
2026-01-01 22:39:26.23	63.22	23.33	-47.6	-49.6	15.4	0.00e+00	0	56	0	503316480	57	4660
2026-01-01 22:39:27.22	63.48	23.39	-47.5	-49.5	15.5	0.00e+00	0	56	0	505413632	57	4634
2026-01-01 22:39:28.20	63.73	23.44	-47.4	-49.3	15.6	0.00e+00	0	56	0	507510784	57	4525
2026-01-01 22:39:29.19	63.99	23.49	-47.2	-49.0	16.0	0.00e+00	0	56	0	508559360	57	4343
2026-01-01 22:39:30.18	64.25	23.55	-47.1	-48.8	16.1	0.00e+00	0	56	0	510656512	57	4290
2026-01-01 22:39:31.17	64.51	23.60	-47.2	-49.0	16.0	0.00e+00	0	56	0	512753664	57	4382
2026-01-01 22:39:32.16	64.77	23.65	-47.8	-49.9	15.1	0.00e+00	0	56	0	514850816	57	4827
2026-01-01 22:39:33.16	65.03	23.70	-47.9	-50.0	15.0	0.00e+00	0	56	0	516947968	57	4904
2026-01-01 22:39:34.16	65.30	23.75	-48.5	-51.0	14.0	7.00e-07	0	56	0	517996544	58	5188
2026-01-01 22:39:35.15	65.56	23.80	-48.8	-51.6	13.4	1.29e-05	0	56	0	520093696	59	5278
2026-01-01 22:39:36.13	65.82	23.85	-49.1	-52.0	13.0	2.89e-05	0	56	0	522190848	60	5197
2026-01-01 22:39:37.12	66.09	23.90	-49.1	-52.0	13.0	4.50e-05	0	56	0	524288000	60	5193
2026-01-01 22:39:38.10	66.35	23.95	-49.1	-52.0	13.0	3.89e-05	0	56	0	525336576	60	5174
2026-01-01 22:39:39.10	66.62	24.00	-49.2	-52.3	12.7	4.80e-05	0	56	0	527433728	60	5359
2026-01-01 22:39:40.08	66.88	24.05	-49.4	-52.5	12.5	9.07e-05	0	56	0	529530880	60	5506
2026-01-01 22:39:41.07	67.15	24.09	-49.2	-52.3	12.6	9.68e-05	0	56	0	531628032	60	5396
2026-01-01 22:39:42.07	67.42	24.14	-49.4	-52.7	12.3	1.64e-04	0	56	0	532676608	60	5625
2026-01-01 22:39:43.06	67.69	24.19	-49.2	-52.2	12.8	1.08e-04	0	56	0	534773760	60	5321
2026-01-01 22:39:44.05	67.96	24.23	-48.9	-51.7	13.2	3.20e-05	0	56	0	536870912	60	5028
2026-01-01 22:39:45.04	68.23	24.28	-48.7	-51.2	13.8	1.37e-05	0	56	0	538968064	60	4758
2026-01-01 22:39:46.03	68.50	24.32	-48.7	-51.3	13.5	7.60e-06	0	56	0	541065216	60	4802
2026-01-01 22:39:47.02	68.77	24.36	-49.2	-52.4	12.6	2.36e-05	0	56	0	542113792	60	5403
2026-01-01 22:39:48.01	69.05	24.41	-49.4	-52.6	12.4	7.70e-05	0	56	0	544210944	60	5569
2026-01-01 22:39:49.00	69.32	24.45	-50.0	-54.0	11.0	6.75e-04	0	56	0	546308096	61	6153
2026-01-01 22:39:49.99	69.59	24.49	-50.2	-54.3	10.5	3.58e-03	0	56	0	548405248	62	6052
2026-01-01 22:39:50.98	69.87	24.53	-50.1	-54.2	10.6	2.85e-03	0	56	0	549453824	62	5972
2026-01-01 22:39:51.97	70.15	24.57	-50.0	-53.9	11.1	2.33e-03	0	56	0	551550976	62	5749
2026-01-01 22:39:52.96	70.42	24.61	-50.0	-53.9	11.0	1.74e-03	0	56	0	553648128	62	5786
2026-01-01 22:39:53.94	70.70	24.65	-50.2	-54.6	10.4	2.74e-03	0	56	0	555745280	62	6215
2026-01-01 22:39:54.92	70.97	24.69	-50.3	-54.6	10.3	5.02e-03	0	56	0	556793856	62	6209
2026-01-01 22:39:55.90	71.25	24.73	-50.4	-54.7	10.2	4.76e-03	0	56	0	558891008	62	6346
2026-01-01 22:39:56.89	71.53	24.77	-50.3	-54.7	10.1	7.41e-03	0	56	0	560988160	62	6338
2026-01-01 22:39:57.89	71.81	24.80	-50.4	-54.7	10.2	5.68e-03	0	56	0	563085312	62	6318
2026-01-01 22:39:58.87	72.09	24.84	-50.1	-54.0	10.9	3.81e-03	0	56	0	564133888	62	5829
2026-01-01 22:39:59.86	72.37	24.87	-50.0	-53.8	11.1	1.93e-03	0	56	0	566231040	62	5689
2026-01-01 22:40:00.85	72.65	24.91	-50.0	-54.0	11.0	2.06e-03	0	56	0	568328192	62	5815
2026-01-01 22:40:01.84	72.93	24.94	-49.9	-53.6	11.4	1.38e-03	0	56	0	570425344	62	5534
2026-01-01 22:40:02.83	73.22	24.98	-50.2	-54.3	10.6	1.90e-03	0	56	0	572522496	62	5995
2026-01-01 22:40:03.82	73.50	25.01	-50.1	-54.0	10.9	3.29e-03	0	56	0	573571072	62	5850
2026-01-01 22:40:04.80	73.78	25.04	-49.9	-53.6	11.2	1.69e-03	0	56	0	575668224	62	5583
2026-01-01 22:40:05.79	74.06	25.07	-49.9	-53.6	11.4	1.12e-03	0	56	0	577765376	62	5542
2026-01-01 22:40:06.77	74.35	25.10	-50.0	-54.0	11.1	1.19e-03	0	56	0	579862528	62	5819
2026-01-01 22:40:07.76	74.63	25.13	-49.9	-53.6	11.2	2.66e-03	0	56	0	580911104	62	5569
2026-01-01 22:40:08.75	74.92	25.16	-49.6	-53.0	11.9	3.67e-04	0	56	0	583008256	62	5184
2026-01-01 22:40:09.73	75.20	25.19	-49.3	-52.4	12.6	1.39e-04	0	56	0	585105408	61	5102
2026-01-01 22:40:10.72	75.49	25.22	-49.1	-52.0	13.0	7.09e-05	0	56	0	587202560	61	4890
2026-01-01 22:40:11.71	75.78	25.24	-49.1	-52.2	12.8	5.34e-05	0	56	0	588251136	61	4991
2026-01-01 22:40:12.70	76.07	25.27	-48.9	-51.9	13.1	3.20e-05	0	56	0	590348288	60	5104
2026-01-01 22:40:13.69	76.36	25.30	-48.6	-51.2	13.7	2.21e-05	0	56	0	592445440	60	4759
2026-01-01 22:40:14.67	76.64	25.32	-48.5	-51.1	13.9	1.50e-06	0	56	0	594542592	60	4658
2026-01-01 22:40:15.67	76.93	25.35	-48.4	-50.9	14.1	1.50e-06	0	56	0	596639744	59	4838
2026-01-01 22:40:16.66	77.22	25.37	-48.4	-51.0	14.0	1.50e-06	0	56	0	597688320	59	4877
2026-01-01 22:40:17.65	77.52	25.39	-48.6	-51.1	13.9	4.50e-06	0	56	0	599785472	59	4956
2026-01-01 22:40:18.63	77.80	25.41	-49.0	-52.0	13.0	1.22e-05	0	56	0	601882624	60	5179
2026-01-01 22:40:19.63	78.10	25.43	-49.4	-52.6	12.3	1.28e-04	0	56	0	603979776	60	5592
2026-01-01 22:40:20.61	78.39	25.46	-49.5	-52.8	12.3	2.24e-04	0	56	0	605028352	60	5700
2026-01-01 22:40:21.60	78.68	25.47	-49.2	-52.5	12.5	3.02e-04	0	56	0	607125504	61	5193
2026-01-01 22:40:22.59	78.97	25.49	-48.8	-51.5	13.5	3.81e-05	0	56	0	609222656	60	4875
2026-01-01 22:40:23.59	79.27	25.51	-48.3	-50.7	14.3	3.00e-06	0	56	0	611319808	59	4710
2026-01-01 22:40:24.57	79.56	25.53	-48.1	-50.4	14.6	0.00e+00	0	56	0	612368384	59	4555
2026-01-01 22:40:25.57	79.85	25.55	-48.2	-50.5	14.6	0.00e+00	0	56	0	614465536	59	4608
2026-01-01 22:40:26.56	80.15	25.56	-48.5	-51.0	14.0	7.00e-07	0	56	0	616562688	59	4920
2026-01-01 22:40:27.55	80.44	25.58	-48.9	-51.6	13.5	8.30e-06	0	56	0	618659840	59	5219
2026-01-01 22:40:28.54	80.74	25.59	-48.8	-51.4	13.6	1.60e-05	0	56	0	620756992	59	5122
2026-01-01 22:40:29.53	81.03	25.61	-48.3	-50.8	14.2	5.30e-06	0	56	0	621805568	59	4763
2026-01-01 22:40:30.50	81.32	25.62	-48.2	-50.4	14.6	0.00e+00	0	56	0	623902720	59	4576
2026-01-01 22:40:31.49	81.61	25.63	-48.1	-50.4	14.7	0.00e+00	0	56	0	625999872	59	4555
2026-01-01 22:40:32.48	81.91	25.64	-48.2	-50.5	14.5	0.00e+00	0	56	0	628097024	59	4630
2026-01-01 22:40:33.47	82.20	25.65	-48.3	-50.6	14.6	0.00e+00	0	56	0	629145600	59	4659
2026-01-01 22:40:34.46	82.50	25.66	-48.0	-50.2	14.9	0.00e+00	0	56	0	631242752	59	4442
2026-01-01 22:40:35.45	82.80	25.67	-47.8	-49.9	15.2	0.00e+00	0	56	0	633339904	58	4591
2026-01-01 22:40:36.44	83.09	25.68	-47.8	-49.8	15.2	0.00e+00	0	56	0	635437056	58	4529
2026-01-01 22:40:37.43	83.39	25.69	-48.0	-50.2	14.7	0.00e+00	0	56	0	636485632	58	4717
2026-01-01 22:40:38.42	83.68	25.69	-48.2	-50.5	14.6	0.00e+00	0	56	0	638582784	58	4879
2026-01-01 22:40:39.41	83.98	25.70	-48.3	-50.7	14.3	0.00e+00	0	56	0	640679936	58	4994
2026-01-01 22:40:40.40	84.28	25.70	-48.8	-51.5	13.6	4.50e-06	0	56	0	642777088	59	5179
2026-01-01 22:40:41.39	84.57	25.71	-48.9	-51.7	13.3	1.60e-05	0	56	0	643825664	59	5323
2026-01-01 22:40:42.37	84.87	25.71	-48.9	-51.7	13.3	2.13e-05	0	56	0	645922816	59	5319
2026-01-01 22:40:43.36	85.16	25.71	-49.0	-51.7	13.3	1.52e-05	0	56	0	648019968	59	5323
2026-01-01 22:40:44.35	85.46	25.71	-48.9	-51.6	13.4	1.90e-05	0	56	0	650117120	59	5263
2026-01-01 22:40:45.34	85.76	25.71	-49.1	-52.0	13.0	3.35e-05	0	56	0	652214272	60	5184
2026-01-01 22:40:46.33	86.05	25.71	-49.2	-52.3	12.8	3.89e-05	0	56	0	653262848	60	5347
2026-01-01 22:40:47.32	86.35	25.71	-49.5	-52.9	12.1	2.97e-04	0	56	0	655360000	61	5432
2026-01-01 22:40:48.31	86.65	25.71	-49.3	-52.6	12.4	1.81e-04	0	56	0	657457152	61	5222
2026-01-01 22:40:49.30	86.95	25.71	-49.2	-52.1	12.9	1.08e-04	0	56	0	659554304	61	4963
2026-01-01 22:40:50.29	87.24	25.71	-48.9	-51.6	13.4	1.83e-05	0	56	0	660602880	60	4963
2026-01-01 22:40:51.28	87.54	25.70	-48.7	-51.4	13.5	7.60e-06	0	56	0	662700032	60	4861
2026-01-01 22:40:52.27	87.84	25.70	-48.8	-51.5	13.6	1.14e-05	0	56	0	664797184	60	4892
2026-01-01 22:40:53.27	88.13	25.69	-48.8	-51.5	13.4	1.14e-05	0	56	0	666894336	60	4920
2026-01-01 22:40:54.26	88.43	25.69	-49.1	-52.1	12.9	3.50e-05	0	56	0	667942912	60	5225
2026-01-01 22:40:55.25	88.73	25.68	-49.1	-52.2	12.8	6.33e-05	0	56	0	670040064	60	5285
2026-01-01 22:40:56.24	89.02	25.67	-48.8	-51.5	13.4	4.11e-05	0	57	0	672137216	60	4906
2026-01-01 22:40:57.24	89.32	25.66	-48.6	-51.2	13.8	5.30e-06	0	57	0	674234368	60	4714
2026-01-01 22:40:58.23	89.62	25.65	-48.3	-50.7	14.4	3.80e-06	0	57	0	676331520	59	4725
2026-01-01 22:40:59.22	89.91	25.64	-48.0	-50.1	14.9	0.00e+00	0	56	0	677380096	59	4423
2026-01-01 22:41:00.21	90.21	25.63	-47.8	-49.9	15.1	0.00e+00	0	56	0	679477248	58	4546
2026-01-01 22:41:01.20	90.50	25.62	-47.4	-49.4	15.6	0.00e+00	0	57	0	681574400	58	4305
2026-01-01 22:41:02.19	90.80	25.61	-47.6	-49.6	15.4	0.00e+00	0	57	0	683671552	58	4401
2026-01-01 22:41:03.18	91.09	25.59	-47.6	-49.6	15.4	0.00e+00	0	56	0	684720128	58	4424
2026-01-01 22:41:04.18	91.39	25.58	-48.0	-50.3	14.7	7.00e-07	0	56	0	686817280	58	4763
2026-01-01 22:41:05.16	91.68	25.57	-47.8	-49.9	15.1	0.00e+00	0	56	0	688914432	58	4560
2026-01-01 22:41:06.15	91.98	25.55	-47.9	-50.0	14.9	0.00e+00	0	56	0	691011584	58	4647
2026-01-01 22:41:07.14	92.27	25.53	-48.2	-50.4	14.6	0.00e+00	0	56	0	693108736	58	4862
2026-01-01 22:41:08.13	92.56	25.52	-47.7	-49.8	15.3	0.00e+00	0	56	0	694157312	58	4496
2026-01-01 22:41:09.12	92.86	25.50	-47.5	-49.4	15.6	0.00e+00	0	56	0	696254464	58	4320
2026-01-01 22:41:10.11	93.15	25.48	-47.4	-49.3	15.7	0.00e+00	0	56	0	698351616	57	4509
2026-01-01 22:41:11.10	93.44	25.46	-47.7	-49.7	15.3	0.00e+00	0	56	0	700448768	57	4720
2026-01-01 22:41:12.08	93.73	25.44	-47.6	-49.6	15.4	0.00e+00	0	56	0	701497344	57	4689
2026-01-01 22:41:13.07	94.02	25.42	-47.1	-48.9	16.1	0.00e+00	0	57	0	703594496	57	4300
2026-01-01 22:41:14.06	94.32	25.40	-46.8	-48.5	16.5	0.00e+00	0	56	0	705691648	56	4378
2026-01-01 22:41:15.05	94.61	25.37	-46.6	-48.2	16.7	0.00e+00	0	57	0	707788800	56	4241
2026-01-01 22:41:16.04	94.90	25.35	-46.6	-48.3	16.7	0.00e+00	0	56	0	708837376	56	4273
2026-01-01 22:41:17.03	95.19	25.33	-46.7	-48.4	16.6	0.00e+00	0	56	0	710934528	56	4297
2026-01-01 22:41:18.01	95.47	25.30	-46.7	-48.4	16.6	0.00e+00	0	56	0	713031680	56	4335
2026-01-01 22:41:19.01	95.77	25.28	-46.8	-48.5	16.5	0.00e+00	0	57	0	715128832	56	4361
2026-01-01 22:41:20.00	96.06	25.25	-47.1	-49.0	16.0	0.00e+00	0	57	0	717225984	56	4601
2026-01-01 22:41:20.98	96.34	25.22	-47.1	-49.0	15.8	0.00e+00	0	56	0	718274560	56	4635
2026-01-01 22:41:21.98	96.63	25.20	-47.4	-49.3	15.7	0.00e+00	0	56	0	720371712	56	4789
2026-01-01 22:41:22.97	96.92	25.17	-47.1	-48.9	16.1	0.00e+00	0	56	0	722468864	56	4586
2026-01-01 22:41:23.96	97.21	25.14	-47.2	-49.1	15.9	0.00e+00	0	57	0	724566016	56	4660
2026-01-01 22:41:24.95	97.49	25.11	-47.1	-48.9	16.1	0.00e+00	0	57	0	725614592	56	4558
2026-01-01 22:41:25.94	97.78	25.08	-47.0	-48.8	16.2	0.00e+00	0	57	0	727711744	56	4511
2026-01-01 22:41:26.92	98.06	25.05	-46.9	-48.6	16.4	0.00e+00	0	56	0	729808896	56	4400
2026-01-01 22:41:27.91	98.34	25.01	-46.7	-48.3	16.7	0.00e+00	0	56	0	731906048	56	4274
2026-01-01 22:41:28.89	98.63	24.98	-46.4	-48.0	17.0	0.00e+00	0	57	0	732954624	56	4106
2026-01-01 22:41:29.88	98.91	24.95	-46.2	-47.7	17.1	0.00e+00	0	57	0	735051776	55	4204
2026-01-01 22:41:30.86	99.19	24.91	-46.3	-47.9	16.9	0.00e+00	0	56	0	737148928	55	4305
2026-01-01 22:41:31.85	99.47	24.88	-46.2	-47.6	17.2	0.00e+00	0	56	0	739246080	55	4181
2026-01-01 22:41:32.83	99.75	24.85	-46.0	-47.4	17.5	0.00e+00	0	57	0	740294656	54	4309
2026-01-01 22:41:33.82	100.03	24.81	-45.7	-47.1	17.7	0.00e+00	0	57	0	742391808	54	4157
2026-01-01 22:41:34.81	100.31	24.77	-45.7	-47.1	17.7	0.00e+00	0	56	0	744488960	54	4170
2026-01-01 22:41:35.80	100.59	24.74	-45.9	-47.4	17.4	0.00e+00	0	56	0	746586112	54	4293
2026-01-01 22:41:36.79	100.87	24.70	-45.8	-47.1	17.7	0.00e+00	0	56	0	748683264	54	4184
2026-01-01 22:41:37.78	101.15	24.66	-45.7	-47.0	17.7	0.00e+00	0	57	0	749731840	54	4143
2026-01-01 22:41:38.77	101.43	24.62	-45.6	-46.9	17.8	0.00e+00	0	57	0	751828992	54	4078
2026-01-01 22:41:39.76	101.71	24.58	-45.5	-46.8	18.0	0.00e+00	0	57	0	753926144	54	4028
2026-01-01 22:41:40.76	101.98	24.54	-45.3	-46.6	18.1	0.00e+00	0	57	0	756023296	53	4171
2026-01-01 22:41:41.74	102.26	24.50	-45.4	-46.7	18.0	0.00e+00	0	56	0	757071872	53	4196
2026-01-01 22:41:42.73	102.53	24.46	-45.4	-46.7	18.1	0.00e+00	0	56	0	759169024	53	4220
2026-01-01 22:41:43.72	102.81	24.41	-45.3	-46.5	18.2	0.00e+00	0	57	0	761266176	53	4127
2026-01-01 22:41:44.71	103.08	24.37	-45.3	-46.6	18.1	0.00e+00	0	57	0	763363328	53	4158
2026-01-01 22:41:45.70	103.35	24.33	-45.3	-46.5	18.2	0.00e+00	0	57	0	764411904	53	4132
2026-01-01 22:41:46.69	103.63	24.28	-45.4	-46.7	18.1	0.00e+00	0	57	0	766509056	53	4217
2026-01-01 22:41:47.68	103.90	24.24	-45.2	-46.5	18.2	0.00e+00	0	57	0	768606208	53	4099
2026-01-01 22:41:48.67	104.17	24.19	-45.2	-46.4	18.4	0.00e+00	0	57	0	770703360	53	4063
2026-01-01 22:41:49.65	104.44	24.15	-45.1	-46.4	18.4	0.00e+00	0	56	0	772800512	53	4055
2026-01-01 22:41:50.64	104.70	24.10	-45.1	-46.4	18.3	0.00e+00	0	57	0	773849088	53	4065
2026-01-01 22:41:51.63	104.97	24.05	-45.2	-46.4	18.3	0.00e+00	0	57	0	775946240	53	4094
2026-01-01 22:41:52.62	105.24	24.01	-45.2	-46.5	18.3	0.00e+00	0	57	0	778043392	53	4105
2026-01-01 22:41:53.60	105.50	23.96	-44.8	-46.0	18.6	0.00e+00	0	57	0	780140544	52	4117
2026-01-01 22:41:54.60	105.77	23.91	-44.8	-46.0	18.7	0.00e+00	0	56	0	781189120	52	4109
2026-01-01 22:41:55.59	106.04	23.86	-44.9	-46.1	18.6	0.00e+00	0	57	0	783286272	52	4152
2026-01-01 22:41:56.58	106.30	23.81	-45.2	-46.4	18.3	0.00e+00	0	57	0	785383424	52	4327
2026-01-01 22:41:57.58	106.57	23.76	-45.3	-46.5	18.2	0.00e+00	0	57	0	787480576	52	4384
2026-01-01 22:41:58.57	106.83	23.71	-45.3	-46.7	18.1	0.00e+00	0	57	0	789577728	52	4445
2026-01-01 22:41:59.56	107.09	23.66	-45.6	-47.0	17.8	0.00e+00	0	57	0	790626304	53	4346
2026-01-01 22:42:00.55	107.36	23.61	-45.6	-46.9	17.8	0.00e+00	0	57	0	792723456	53	4322
2026-01-01 22:42:01.54	107.62	23.55	-45.1	-46.3	18.3	0.00e+00	0	57	0	794820608	53	4040
2026-01-01 22:42:02.53	107.87	23.50	-44.9	-46.0	18.6	0.00e+00	0	57	0	796917760	52	4142
2026-01-01 22:42:03.52	108.13	23.45	-44.8	-46.0	18.7	0.00e+00	0	57	0	797966336	52	4115
2026-01-01 22:42:04.50	108.39	23.39	-45.0	-46.3	18.4	0.00e+00	0	57	0	800063488	52	4244
2026-01-01 22:42:05.49	108.65	23.34	-45.2	-46.4	18.3	0.00e+00	0	57	0	802160640	52	4330
2026-01-01 22:42:06.47	108.90	23.29	-45.2	-46.5	18.3	0.00e+00	0	57	0	804257792	52	4347
2026-01-01 22:42:07.46	109.15	23.23	-45.3	-46.5	18.2	0.00e+00	0	57	0	805306368	52	4384
2026-01-01 22:42:08.45	109.41	23.17	-45.2	-46.4	18.3	0.00e+00	0	57	0	807403520	52	4330
2026-01-01 22:42:09.44	109.66	23.12	-45.2	-46.4	18.2	0.00e+00	0	57	0	809500672	52	4313
2026-01-01 22:42:10.42	109.91	23.06	-45.6	-47.0	17.8	0.00e+00	0	57	0	811597824	53	4352
2026-01-01 22:42:11.41	110.16	23.01	-46.0	-47.5	17.2	0.00e+00	0	57	0	813694976	54	4370
2026-01-01 22:42:12.39	110.41	22.95	-46.1	-47.6	17.1	0.00e+00	0	57	0	814743552	54	4438
2026-01-01 22:42:13.38	110.66	22.89	-46.3	-47.9	16.9	0.00e+00	0	57	0	816840704	54	4597
2026-01-01 22:42:14.37	110.91	22.83	-46.3	-47.9	16.9	0.00e+00	0	57	0	818937856	54	4588
2026-01-01 22:42:15.36	111.16	22.77	-46.5	-48.1	16.7	0.00e+00	0	57	0	821035008	54	4658
2026-01-01 22:42:16.36	111.41	22.71	-46.5	-48.1	16.7	0.00e+00	0	57	0	822083584	55	4428
2026-01-01 22:42:17.35	111.65	22.65	-46.2	-47.7	17.1	0.00e+00	0	57	0	824180736	55	4239
2026-01-01 22:42:18.34	111.90	22.59	-46.4	-47.9	16.9	0.00e+00	0	57	0	826277888	55	4326
2026-01-01 22:42:19.34	112.14	22.53	-46.1	-47.6	17.2	0.00e+00	0	57	0	828375040	55	4146
2026-01-01 22:42:20.32	112.39	22.47	-46.1	-47.6	17.2	0.00e+00	0	57	0	829423616	55	4173
2026-01-01 22:42:21.31	112.63	22.41	-46.6	-48.3	16.6	0.00e+00	0	57	0	831520768	55	4502
2026-01-01 22:42:22.29	112.87	22.35	-46.6	-48.2	16.7	0.00e+00	0	57	0	833617920	55	4463
2026-01-01 22:42:23.28	113.11	22.29	-46.6	-48.3	16.6	0.00e+00	0	57	0	835715072	55	4496
2026-01-01 22:42:24.27	113.35	22.23	-46.5	-48.1	16.7	0.00e+00	0	57	0	836763648	55	4433
2026-01-01 22:42:25.25	113.58	22.17	-46.5	-48.2	16.6	0.00e+00	0	57	0	838860800	55	4449
2026-01-01 22:42:26.24	113.82	22.10	-46.6	-48.3	16.6	0.00e+00	0	57	0	840957952	55	4515
2026-01-01 22:42:27.23	114.06	22.04	-46.9	-48.6	16.3	0.00e+00	0	57	0	843055104	55	4677
2026-01-01 22:42:28.22	114.29	21.98	-46.6	-48.3	16.6	0.00e+00	0	57	0	845152256	55	4504
2026-01-01 22:42:29.21	114.53	21.91	-46.5	-48.1	16.8	0.00e+00	0	57	0	846200832	55	4400
2026-01-01 22:42:30.19	114.76	21.85	-46.6	-48.3	16.6	0.00e+00	0	57	0	848297984	55	4525
2026-01-01 22:42:31.18	114.99	21.79	-47.0	-48.9	16.0	0.00e+00	0	57	0	850395136	55	4835
2026-01-01 22:42:32.17	115.23	21.72	-47.1	-48.9	16.0	0.00e+00	0	57	0	852492288	56	4576
2026-01-01 22:42:33.16	115.46	21.66	-47.0	-48.7	16.2	0.00e+00	0	57	0	853540864	56	4482
2026-01-01 22:42:34.14	115.69	21.59	-46.8	-48.5	16.6	0.00e+00	0	57	0	855638016	56	4342
2026-01-01 22:42:35.13	115.91	21.53	-46.3	-47.8	17.1	0.00e+00	0	57	0	857735168	55	4251
2026-01-01 22:42:36.13	116.15	21.46	-46.2	-47.7	17.2	0.00e+00	0	57	0	859832320	55	4206
2026-01-01 22:42:37.11	116.37	21.39	-46.3	-47.8	17.0	0.00e+00	0	57	0	860880896	55	4253
2026-01-01 22:42:38.10	116.60	21.33	-46.1	-47.7	17.2	0.00e+00	0	57	0	862978048	55	4194
2026-01-01 22:42:39.09	116.82	21.26	-46.6	-48.3	16.6	0.00e+00	0	57	0	865075200	55	4507
2026-01-01 22:42:40.08	117.05	21.19	-46.6	-48.2	16.7	0.00e+00	0	57	0	867172352	55	4454
2026-01-01 22:42:41.07	117.27	21.13	-47.2	-49.1	15.8	0.00e+00	0	57	0	869269504	56	4682
2026-01-01 22:42:42.06	117.49	21.06	-47.1	-49.0	16.0	0.00e+00	0	57	0	870318080	56	4612
2026-01-01 22:42:43.05	117.72	20.99	-47.6	-49.6	15.4	0.00e+00	0	57	0	872415232	56	4964
2026-01-01 22:42:44.04	117.94	20.92	-47.3	-49.3	15.6	0.00e+00	0	57	0	874512384	57	4504
2026-01-01 22:42:45.03	118.16	20.85	-47.2	-49.0	15.9	0.00e+00	0	57	0	876609536	57	4379
2026-01-01 22:42:46.03	118.38	20.79	-47.1	-48.8	16.0	0.00e+00	0	57	0	877658112	57	4291
2026-01-01 22:42:47.02	118.60	20.72	-47.3	-49.2	15.8	0.00e+00	0	57	0	879755264	57	4446
2026-01-01 22:42:48.01	118.81	20.65	-47.2	-49.0	15.9	0.00e+00	0	57	0	881852416	57	4361
2026-01-01 22:42:49.00	119.03	20.58	-47.1	-48.9	16.1	0.00e+00	0	57	0	883949568	57	4305
2026-01-01 22:42:49.99	119.24	20.51	-47.3	-49.1	15.8	0.00e+00	0	57	0	884998144	57	4415
2026-01-01 22:42:50.99	119.46	20.44	-46.8	-48.6	16.4	0.00e+00	0	57	0	887095296	56	4395
2026-01-01 22:42:51.97	119.67	20.37	-46.7	-48.3	16.6	0.00e+00	0	57	0	889192448	56	4282
2026-01-01 22:42:52.97	119.89	20.30	-46.5	-48.0	16.9	0.00e+00	0	57	0	891289600	56	4132
2026-01-01 22:42:53.96	120.10	20.23	-46.4	-48.0	16.9	0.00e+00	0	57	0	892338176	56	4135
2026-01-01 22:42:54.94	120.30	20.16	-46.9	-48.6	16.2	0.00e+00	0	57	0	894435328	55	4684
2026-01-01 22:42:55.93	120.51	20.09	-47.2	-49.1	15.9	0.00e+00	0	57	0	896532480	56	4669
2026-01-01 22:42:56.92	120.72	20.02	-47.4	-49.4	15.5	0.00e+00	0	57	0	898629632	56	4839
2026-01-01 22:42:57.91	120.93	19.95	-47.6	-49.6	15.3	0.00e+00	0	57	0	900726784	57	4697
2026-01-01 22:42:58.89	121.14	19.88	-47.2	-49.0	15.9	0.00e+00	0	57	0	901775360	57	4363
2026-01-01 22:42:59.88	121.34	19.81	-46.5	-48.0	16.8	0.00e+00	0	57	0	903872512	56	4136
2026-01-01 22:43:00.86	121.54	19.74	-45.9	-47.3	17.4	0.00e+00	0	57	0	905969664	54	4256
2026-01-01 22:43:01.85	121.75	19.66	-45.5	-46.8	17.9	0.00e+00	0	57	0	908066816	54	4039
2026-01-01 22:43:02.84	121.95	19.59	-45.6	-46.9	17.9	0.00e+00	0	57	0	909115392	54	4069
2026-01-01 22:43:03.83	122.15	19.52	-45.6	-46.9	17.8	0.00e+00	0	57	0	911212544	54	4070
2026-01-01 22:43:04.82	122.35	19.45	-46.0	-47.5	17.3	0.00e+00	0	57	0	913309696	54	4341
2026-01-01 22:43:05.80	122.55	19.38	-46.4	-47.9	17.0	0.00e+00	0	57	0	915406848	54	4571
2026-01-01 22:43:06.79	122.75	19.31	-46.8	-48.6	16.3	0.00e+00	0	57	0	916455424	55	4667
2026-01-01 22:43:07.77	122.95	19.23	-47.1	-48.9	16.1	0.00e+00	0	57	0	918552576	56	4583
2026-01-01 22:43:08.76	123.15	19.16	-47.0	-48.8	16.1	0.00e+00	0	57	0	920649728	56	4497
2026-01-01 22:43:09.75	123.34	19.09	-47.1	-48.9	16.0	0.00e+00	0	57	0	922746880	56	4559
2026-01-01 22:43:10.73	123.54	19.02	-46.9	-48.6	16.4	0.00e+00	0	57	0	924844032	56	4410
2026-01-01 22:43:11.72	123.73	18.94	-46.8	-48.5	16.5	0.00e+00	0	57	0	925892608	56	4347
2026-01-01 22:43:12.71	123.92	18.87	-46.8	-48.5	16.4	0.00e+00	0	57	0	927989760	56	4356
2026-01-01 22:43:13.70	124.12	18.80	-46.8	-48.5	16.4	0.00e+00	0	57	0	930086912	56	4361
2026-01-01 22:43:14.69	124.31	18.73	-47.0	-48.9	16.1	0.00e+00	0	57	0	932184064	56	4552
2026-01-01 22:43:15.67	124.50	18.65	-46.9	-48.7	16.2	0.00e+00	0	57	0	933232640	56	4472
2026-01-01 22:43:16.66	124.69	18.58	-46.8	-48.5	16.4	0.00e+00	0	57	0	935329792	56	4372
2026-01-01 22:43:17.65	124.88	18.51	-46.7	-48.3	16.6	0.00e+00	0	57	0	937426944	56	4270
2026-01-01 22:43:18.64	125.07	18.43	-46.5	-48.1	16.8	0.00e+00	0	57	0	939524096	56	4153
2026-01-01 22:43:19.63	125.25	18.36	-46.7	-48.3	16.7	0.00e+00	0	57	0	940572672	56	4258
2026-01-01 22:43:20.62	125.44	18.29	-46.6	-48.2	16.7	0.00e+00	0	57	0	942669824	56	4223
2026-01-01 22:43:21.61	125.63	18.21	-46.8	-48.4	16.5	0.00e+00	0	57	0	944766976	56	4330
2026-01-01 22:43:22.60	125.81	18.14	-46.9	-48.7	16.2	0.00e+00	0	57	0	946864128	56	4461
2026-01-01 22:43:23.59	126.00	18.07	-47.2	-49.0	16.0	0.00e+00	0	57	0	948961280	56	4612
2026-01-01 22:43:24.58	126.18	17.99	-47.3	-49.2	15.7	0.00e+00	0	57	0	950009856	56	4730
2026-01-01 22:43:25.58	126.36	17.92	-47.3	-49.2	15.8	0.00e+00	0	57	0	952107008	56	4731
2026-01-01 22:43:26.57	126.55	17.84	-47.0	-48.8	16.1	0.00e+00	0	57	0	954204160	56	4523
2026-01-01 22:43:27.56	126.73	17.77	-46.7	-48.3	16.6	0.00e+00	0	57	0	956301312	56	4245
2026-01-01 22:43:28.54	126.90	17.70	-46.2	-47.6	17.1	0.00e+00	0	57	0	957349888	55	4187
2026-01-01 22:43:29.52	127.08	17.62	-46.0	-47.4	17.4	0.00e+00	0	57	0	959447040	54	4317
2026-01-01 22:43:30.50	127.26	17.55	-46.0	-47.4	17.3	0.00e+00	0	57	0	961544192	54	4338
2026-01-01 22:43:31.50	127.44	17.47	-46.0	-47.5	17.2	0.00e+00	0	57	0	963641344	54	4361
2026-01-01 22:43:32.48	127.61	17.40	-46.4	-48.1	16.8	0.00e+00	0	57	0	964689920	54	4655
2026-01-01 22:43:33.47	127.79	17.33	-46.8	-48.5	16.3	0.00e+00	0	57	0	966787072	55	4636
2026-01-01 22:43:34.46	127.96	17.25	-47.0	-48.9	15.9	0.00e+00	0	57	0	968884224	55	4818
2026-01-01 22:43:35.45	128.14	17.18	-47.2	-49.1	15.8	0.00e+00	0	57	0	970981376	56	4693
2026-01-01 22:43:36.45	128.31	17.10	-47.4	-49.3	15.6	0.00e+00	0	57	0	972029952	56	4814
2026-01-01 22:43:37.43	128.48	17.03	-47.3	-49.1	15.8	0.00e+00	0	57	0	974127104	56	4704
2026-01-01 22:43:38.43	128.66	16.95	-46.7	-48.3	16.5	0.00e+00	0	57	0	976224256	56	4289
2026-01-01 22:43:39.42	128.83	16.88	-46.3	-47.8	17.0	0.00e+00	0	57	0	978321408	55	4260
2026-01-01 22:43:40.41	129.00	16.81	-46.0	-47.5	17.3	0.00e+00	0	57	0	980418560	55	4102
2026-01-01 22:43:41.40	129.17	16.73	-46.1	-47.5	17.2	0.00e+00	0	57	0	981467136	55	4140
2026-01-01 22:43:42.39	129.33	16.66	-46.1	-47.6	17.2	0.00e+00	0	57	0	983564288	55	4163
2026-01-01 22:43:43.37	129.50	16.58	-46.2	-47.7	17.0	0.00e+00	0	57	0	985661440	55	4227
2026-01-01 22:43:44.36	129.67	16.51	-46.2	-47.7	17.0	0.00e+00	0	57	0	987758592	55	4236
2026-01-01 22:43:45.35	129.83	16.44	-46.3	-47.8	16.9	0.00e+00	0	57	0	988807168	55	4288
2026-01-01 22:43:46.33	130.00	16.36	-46.2	-47.8	17.0	0.00e+00	0	57	0	990904320	55	4246
2026-01-01 22:43:47.32	130.16	16.29	-46.1	-47.6	17.1	0.00e+00	0	57	0	993001472	55	4152
2026-01-01 22:43:48.30	130.32	16.21	-45.9	-47.3	17.4	0.00e+00	0	57	0	995098624	55	4049
2026-01-01 22:43:49.29	130.48	16.14	-45.9	-47.3	17.3	0.00e+00	0	57	0	996147200	54	4286
2026-01-01 22:43:50.28	130.65	16.06	-46.1	-47.5	17.2	0.00e+00	0	57	0	998244352	54	4387
2026-01-01 22:43:51.27	130.81	15.99	-46.4	-47.9	16.9	0.00e+00	0	57	0	1000341504	54	4589
2026-01-01 22:43:52.26	130.97	15.92	-46.6	-48.3	16.5	0.00e+00	0	57	0	1002438656	55	4522
2026-01-01 22:43:53.25	131.13	15.84	-47.1	-48.9	15.9	0.00e+00	0	57	0	1004535808	55	4836
2026-01-01 22:43:54.25	131.29	15.77	-47.3	-49.3	15.6	0.00e+00	0	57	0	1005584384	56	4766
2026-01-01 22:43:55.23	131.44	15.69	-47.7	-49.7	15.1	0.00e+00	0	57	0	1007681536	57	4758
2026-01-01 22:43:56.22	131.60	15.62	-47.6	-49.7	15.1	0.00e+00	0	57	0	1009778688	57	4755
2026-01-01 22:43:57.21	131.76	15.54	-47.7	-49.8	15.1	0.00e+00	0	57	0	1011875840	57	4769
2026-01-01 22:43:58.19	131.91	15.47	-47.6	-49.7	15.2	0.00e+00	0	57	0	1012924416	57	4740
2026-01-01 22:43:59.18	132.07	15.40	-47.5	-49.5	15.3	0.00e+00	0	57	0	1015021568	57	4633
2026-01-01 22:44:00.16	132.22	15.32	-47.5	-49.5	15.4	0.00e+00	0	57	0	1017118720	57	4615
2026-01-01 22:44:01.15	132.37	15.25	-47.1	-48.9	15.9	0.00e+00	0	57	0	1019215872	57	4303
2026-01-01 22:44:02.14	132.53	15.18	-46.9	-48.6	16.2	0.00e+00	0	57	0	1020264448	56	4440
2026-01-01 22:44:03.13	132.68	15.10	-46.7	-48.4	16.4	0.00e+00	0	57	0	1022361600	56	4327
2026-01-01 22:44:04.12	132.83	15.03	-46.7	-48.4	16.5	0.00e+00	0	57	0	1024458752	56	4302
2026-01-01 22:44:05.11	132.98	14.95	-46.3	-47.9	16.9	0.00e+00	0	57	0	1026555904	55	4305
2026-01-01 22:44:06.10	133.13	14.88	-46.2	-47.8	16.9	0.00e+00	0	57	0	1028653056	55	4266
2026-01-01 22:44:07.10	133.28	14.81	-46.1	-47.7	17.0	0.00e+00	0	57	0	1029701632	55	4203
2026-01-01 22:44:08.09	133.43	14.73	-46.0	-47.4	17.2	0.00e+00	0	57	0	1031798784	55	4088
2026-01-01 22:44:09.09	133.58	14.66	-45.9	-47.4	17.3	0.00e+00	0	57	0	1033895936	54	4300
2026-01-01 22:44:10.07	133.73	14.58	-45.8	-47.3	17.4	0.00e+00	0	57	0	1035993088	54	4244
2026-01-01 22:44:11.06	133.87	14.51	-45.9	-47.4	17.2	0.00e+00	0	57	0	1037041664	54	4320
2026-01-01 22:44:12.05	134.02	14.44	-46.1	-47.6	17.0	0.00e+00	0	57	0	1039138816	54	4435
2026-01-01 22:44:13.05	134.16	14.36	-46.1	-47.7	17.0	0.00e+00	0	57	0	1041235968	54	4455
2026-01-01 22:44:14.04	134.31	14.29	-46.5	-48.1	16.6	0.00e+00	0	57	0	1043333120	54	4697
2026-01-01 22:44:15.03	134.45	14.22	-46.6	-48.3	16.4	0.00e+00	0	57	0	1045430272	55	4516
2026-01-01 22:44:16.03	134.60	14.14	-46.8	-48.6	16.2	0.00e+00	0	57	0	1046478848	55	4653
2026-01-01 22:44:17.02	134.74	14.07	-47.0	-48.8	15.9	0.00e+00	0	57	0	1048576000	55	4799
2026-01-01 22:44:18.00	134.88	14.00	-47.4	-49.3	15.5	0.00e+00	0	57	0	1050673152	56	4812
2026-01-01 22:44:18.99	135.02	13.92	-47.5	-49.6	15.3	7.00e-07	0	57	0	1052770304	56	4944
2026-01-01 22:44:19.99	135.16	13.85	-47.8	-49.9	14.9	0.00e+00	0	57	0	1053818880	57	4859
2026-01-01 22:44:20.98	135.30	13.78	-47.7	-49.9	15.0	0.00e+00	0	57	0	1055916032	57	4837
2026-01-01 22:44:21.96	135.44	13.70	-47.8	-50.1	14.8	0.00e+00	0	57	0	1058013184	57	4930
2026-01-01 22:44:22.94	135.58	13.63	-47.9	-50.2	14.5	0.00e+00	0	57	0	1060110336	57	5039
2026-01-01 22:44:23.92	135.71	13.56	-47.7	-49.9	14.9	0.00e+00	0	57	0	1061158912	57	4859
2026-01-01 22:44:24.91	135.85	13.49	-47.7	-49.9	14.9	0.00e+00	0	57	0	1063256064	57	4819
2026-01-01 22:44:25.90	135.99	13.41	-47.5	-49.6	15.2	0.00e+00	0	57	0	1065353216	57	4668
2026-01-01 22:44:26.89	136.12	13.34	-47.4	-49.5	15.4	0.00e+00	0	57	0	1067450368	57	4623
2026-01-01 22:44:27.89	136.26	13.27	-47.3	-49.2	15.6	0.00e+00	0	57	0	1068498944	57	4462
2026-01-01 22:44:28.87	136.39	13.20	-47.2	-49.2	15.5	0.00e+00	0	57	0	1070596096	57	4473
2026-01-01 22:44:29.86	136.52	13.12	-47.2	-49.1	15.7	0.00e+00	0	57	0	1072693248	57	4406
2026-01-01 22:44:30.85	136.66	13.05	-47.1	-49.0	15.8	0.00e+00	0	57	0	1074790400	57	4388
2026-01-01 22:44:31.84	136.79	12.98	-47.1	-49.0	15.8	0.00e+00	0	57	0	1076887552	57	4350
2026-01-01 22:44:32.83	136.92	12.91	-47.2	-49.1	15.7	0.00e+00	0	57	0	1077936128	57	4398
2026-01-01 22:44:33.81	137.05	12.84	-47.4	-49.4	15.4	0.00e+00	0	57	0	1080033280	57	4550
2026-01-01 22:44:34.80	137.18	12.76	-47.2	-49.1	15.7	0.00e+00	0	57	0	1082130432	57	4439
2026-01-01 22:44:35.79	137.31	12.69	-47.1	-49.0	15.8	0.00e+00	0	57	0	1084227584	57	4348
2026-01-01 22:44:36.78	137.44	12.62	-47.2	-49.1	15.7	0.00e+00	0	57	0	1085276160	57	4418
2026-01-01 22:44:37.77	137.57	12.55	-47.2	-49.1	15.7	0.00e+00	0	57	0	1087373312	57	4406
2026-01-01 22:44:38.76	137.70	12.48	-47.4	-49.4	15.4	0.00e+00	0	57	0	1089470464	57	4577
2026-01-01 22:44:39.75	137.83	12.40	-47.3	-49.3	15.5	0.00e+00	0	57	0	1091567616	57	4503
2026-01-01 22:44:40.75	137.96	12.33	-47.0	-48.9	15.9	0.00e+00	0	57	0	1092616192	57	4297
2026-01-01 22:44:41.74	138.08	12.26	-47.2	-49.0	15.8	0.00e+00	0	57	0	1094713344	57	4377
2026-01-01 22:44:42.73	138.21	12.19	-47.1	-49.0	15.8	0.00e+00	0	57	0	1096810496	57	4356
2026-01-01 22:44:43.72	138.33	12.12	-47.4	-49.4	15.4	0.00e+00	0	57	0	1098907648	57	4559
2026-01-01 22:44:44.71	138.46	12.05	-47.6	-49.6	15.2	0.00e+00	0	57	0	1101004800	57	4684
2026-01-01 22:44:45.70	138.58	11.98	-47.6	-49.7	15.0	0.00e+00	0	57	0	1102053376	57	4746
2026-01-01 22:44:46.69	138.71	11.91	-47.7	-49.9	14.8	0.00e+00	0	57	0	1104150528	57	4845
2026-01-01 22:44:47.68	138.83	11.83	-48.0	-50.3	14.4	0.00e+00	0	57	0	1106247680	57	5073
2026-01-01 22:44:48.66	138.95	11.76	-48.1	-50.5	14.3	1.50e-06	0	57	0	1108344832	58	4880
2026-01-01 22:44:49.64	139.07	11.69	-48.4	-50.9	13.9	2.20e-06	0	57	0	1109393408	58	5124
2026-01-01 22:44:50.63	139.19	11.62	-48.4	-51.0	13.7	9.90e-06	0	57	0	1111490560	58	5203
2026-01-01 22:44:51.62	139.31	11.55	-48.5	-51.1	13.7	4.50e-06	0	57	0	1113587712	58	5253
2026-01-01 22:44:52.62	139.43	11.48	-48.6	-51.2	13.5	6.10e-06	0	57	0	1115684864	59	5031
2026-01-01 22:44:53.61	139.55	11.41	-48.3	-50.9	13.9	6.80e-06	0	57	0	1116733440	59	4843
2026-01-01 22:44:54.59	139.67	11.34	-48.4	-51.0	13.7	3.00e-06	0	57	0	1118830592	59	4912
2026-01-01 22:44:55.58	139.79	11.27	-48.3	-50.9	13.9	6.80e-06	0	57	0	1120927744	59	4818
2026-01-01 22:44:56.57	139.91	11.20	-48.1	-50.6	14.2	1.50e-06	0	57	0	1123024896	59	4671
2026-01-01 22:44:57.56	140.03	11.13	-48.5	-51.1	13.7	4.50e-06	0	57	0	1125122048	59	4932
2026-01-01 22:44:58.55	140.14	11.06	-48.2	-50.7	14.1	5.30e-06	0	57	0	1126170624	59	4709
2026-01-01 22:44:59.54	140.26	10.99	-47.8	-50.1	14.6	7.00e-07	0	57	0	1128267776	58	4691
2026-01-01 22:45:00.53	140.37	10.92	-47.8	-50.0	14.7	0.00e+00	0	57	0	1130364928	58	4648
2026-01-01 22:45:01.52	140.49	10.85	-47.4	-49.4	15.3	0.00e+00	0	57	0	1132462080	58	4340
2026-01-01 22:45:02.51	140.60	10.78	-47.4	-49.5	15.2	0.00e+00	0	57	0	1133510656	57	4602
2026-01-01 22:45:03.50	140.72	10.71	-47.5	-49.5	15.2	0.00e+00	0	57	0	1135607808	57	4623
2026-01-01 22:45:04.49	140.83	10.64	-47.4	-49.4	15.3	0.00e+00	0	57	0	1137704960	57	4594
2026-01-01 22:45:05.49	140.95	10.57	-47.5	-49.7	15.0	0.00e+00	0	57	0	1139802112	57	4727
2026-01-01 22:45:06.48	141.06	10.51	-47.6	-49.7	15.1	0.00e+00	0	57	0	1141899264	57	4714
2026-01-01 22:45:07.47	141.17	10.44	-47.4	-49.5	15.2	0.00e+00	0	57	0	1142947840	57	4640
2026-01-01 22:45:08.46	141.28	10.37	-47.5	-49.6	15.1	0.00e+00	0	57	0	1145044992	57	4684
2026-01-01 22:45:09.45	141.39	10.30	-47.3	-49.2	15.4	0.00e+00	0	57	0	1147142144	57	4480
2026-01-01 22:45:10.44	141.51	10.23	-47.3	-49.2	15.4	0.00e+00	0	57	0	1149239296	57	4492
2026-01-01 22:45:11.43	141.62	10.16	-47.3	-49.3	15.4	0.00e+00	0	57	0	1150287872	57	4524
2026-01-01 22:45:12.43	141.73	10.09	-47.2	-49.1	15.5	0.00e+00	0	57	0	1152385024	57	4441
2026-01-01 22:45:13.41	141.83	10.02	-47.3	-49.4	15.3	0.00e+00	0	57	0	1154482176	57	4568
2026-01-01 22:45:14.40	141.94	9.96	-47.2	-49.2	15.5	0.00e+00	0	57	0	1156579328	57	4465
2026-01-01 22:45:15.40	142.05	9.89	-47.3	-49.3	15.4	0.00e+00	0	57	0	1157627904	57	4539
2026-01-01 22:45:16.39	142.16	9.82	-47.6	-49.7	15.0	0.00e+00	0	57	0	1159725056	57	4723
2026-01-01 22:45:17.38	142.27	9.75	-47.4	-49.4	15.2	0.00e+00	0	57	0	1161822208	57	4595
2026-01-01 22:45:18.37	142.37	9.68	-47.8	-50.1	14.6	0.00e+00	0	57	0	1163919360	57	4933
2026-01-01 22:45:19.36	142.48	9.62	-48.0	-50.4	14.3	0.00e+00	0	57	0	1164967936	57	5108
2026-01-01 22:45:20.35	142.59	9.55	-47.9	-50.1	14.5	0.00e+00	0	57	0	1167065088	57	4979
2026-01-01 22:45:21.33	142.69	9.48	-48.2	-50.7	13.9	1.50e-06	0	57	0	1169162240	58	5025
2026-01-01 22:45:22.31	142.79	9.41	-48.2	-50.7	13.9	2.20e-06	0	57	0	1171259392	58	5038
2026-01-01 22:45:23.30	142.90	9.35	-48.2	-50.6	14.0	2.20e-06	0	57	0	1173356544	58	4967
2026-01-01 22:45:24.28	143.00	9.28	-48.4	-51.1	13.6	3.80e-06	0	57	0	1174405120	58	5221
2026-01-01 22:45:25.27	143.11	9.21	-48.2	-50.7	13.9	4.50e-06	0	57	0	1176502272	58	5026
2026-01-01 22:45:26.27	143.21	9.14	-48.4	-51.1	13.5	3.00e-06	0	57	0	1178599424	58	5262
2026-01-01 22:45:27.26	143.31	9.08	-48.5	-51.2	13.4	1.37e-05	0	57	0	1180696576	58	5317
2026-01-01 22:45:28.25	143.41	9.01	-48.1	-50.5	14.2	3.00e-06	0	57	0	1181745152	58	4871
2026-01-01 22:45:29.23	143.52	8.94	-48.0	-50.4	14.2	0.00e+00	0	57	0	1183842304	58	4845
2026-01-01 22:45:30.21	143.62	8.88	-47.8	-50.1	14.5	1.50e-06	0	57	0	1185939456	58	4687
2026-01-01 22:45:31.20	143.72	8.81	-47.6	-49.8	14.8	0.00e+00	0	57	0	1188036608	58	4524
2026-01-01 22:45:32.19	143.82	8.75	-47.8	-50.1	14.5	0.00e+00	0	57	0	1189085184	58	4670
2026-01-01 22:45:33.18	143.92	8.68	-47.7	-49.9	14.7	0.00e+00	0	57	0	1191182336	58	4556
2026-01-01 22:45:34.17	144.02	8.61	-47.9	-50.2	14.4	0.00e+00	0	57	0	1193279488	58	4711
2026-01-01 22:45:35.15	144.11	8.55	-48.1	-50.7	13.9	6.10e-06	0	57	0	1195376640	58	4990
2026-01-01 22:45:36.14	144.21	8.48	-48.0	-50.4	14.2	3.80e-06	0	57	0	1197473792	58	4843
2026-01-01 22:45:37.14	144.31	8.41	-48.1	-50.7	13.9	7.00e-07	0	57	0	1198522368	58	5002
2026-01-01 22:45:38.13	144.41	8.35	-48.3	-51.0	13.6	5.30e-06	0	57	0	1200619520	58	5160
2026-01-01 22:45:39.12	144.51	8.28	-48.3	-50.9	13.7	2.20e-06	0	57	0	1202716672	58	5122
2026-01-01 22:45:40.12	144.61	8.22	-48.5	-51.3	13.3	9.90e-06	0	57	0	1204813824	58	5354
2026-01-01 22:45:41.09	144.70	8.15	-48.6	-51.4	13.1	2.67e-05	0	57	0	1205862400	59	5150
2026-01-01 22:45:42.09	144.80	8.09	-48.6	-51.5	13.0	2.59e-05	0	57	0	1207959552	59	5208
2026-01-01 22:45:43.08	144.89	8.02	-48.9	-52.1	12.4	1.26e-04	0	57	0	1210056704	59	5567
2026-01-01 22:45:44.07	144.99	7.96	-48.8	-51.9	12.6	1.84e-04	0	57	0	1212153856	59	5458
2026-01-01 22:45:45.06	145.08	7.89	-49.0	-52.3	12.2	9.15e-05	0	57	0	1214251008	59	5686
2026-01-01 22:45:46.06	145.18	7.82	-49.1	-52.5	12.0	2.78e-04	0	57	0	1215299584	60	5492
2026-01-01 22:45:47.05	145.27	7.76	-48.8	-52.0	12.5	1.72e-04	0	57	0	1217396736	60	5162
2026-01-01 22:45:48.04	145.37	7.69	-48.9	-52.2	12.2	1.57e-04	0	57	0	1219493888	60	5332
2026-01-01 22:45:49.03	145.46	7.63	-48.7	-51.8	12.6	1.82e-04	0	57	0	1221591040	60	5097
2026-01-01 22:45:50.03	145.55	7.56	-48.6	-51.6	12.9	3.96e-05	0	58	0	1222639616	60	4965
2026-01-01 22:45:51.03	145.65	7.50	-48.7	-51.7	12.8	7.32e-05	0	58	0	1224736768	60	5008
