passes_logs/2026/01/01/R3.0SM8_Murmansk_STILSPACE/R3.0SM8_Murmansk_STILSPACE__20260101_103122_SUOMI_NPP_rec.log

#Pass ID: 20260101_103122_SUOMI NPP
#Satellite: SUOMI NPP
#Configuration: NPP
#almurnet v.1.7.20240730
#Start time: 2026-01-01 10:31:21

#Version: 2.2.20231116
#Station: R3.0SM8_Murmansk_STILSPACE
#Location: 33.092731 lon 68.902999 lat
#TLE: 1 37849U 11061A   25364.87906317  .00000195  00000+0  11345-3 0  9992
#TLE: 2 37849  98.7794 302.0592 0002571  89.2401 270.9069 14.19520347734561

#Time	Az	El	Level	Level2	SNR	BER	BlckErr	Temp	State	Recorded	gain1	gain2
2026-01-01 10:31:21.93	174.78	2.97	-52.3	-66.3	3.8	1.49e+00	0	46	0	0	66	19052
2026-01-01 10:31:22.90	174.81	3.03	-52.3	-66.2	3.8	1.49e+00	0	46	104	0	67	17885
2026-01-01 10:31:23.90	174.84	3.09	-52.3	-66.2	3.8	1.49e+00	0	46	104	0	67	17785
2026-01-01 10:31:24.89	174.87	3.16	-52.2	-66.2	3.8	1.49e+00	0	46	104	0	67	17707
2026-01-01 10:31:25.88	174.90	3.22	-52.2	-66.1	3.8	1.49e+00	0	46	104	0	67	17615
2026-01-01 10:31:26.87	174.94	3.29	-52.3	-66.0	3.8	1.49e+00	0	46	104	0	67	17475
2026-01-01 10:31:27.86	174.97	3.35	-52.1	-65.9	3.8	1.49e+00	0	46	104	0	67	17280
2026-01-01 10:31:28.85	175.00	3.42	-51.8	-65.8	3.8	1.49e+00	0	47	104	0	66	17947
2026-01-01 10:31:29.84	175.03	3.48	-51.7	-65.5	3.8	1.49e+00	0	47	104	0	66	17473
2026-01-01 10:31:30.82	175.06	3.55	-51.6	-65.4	3.8	1.49e+00	0	47	104	0	66	17135
2026-01-01 10:31:31.80	175.09	3.61	-51.6	-65.4	3.8	1.49e+00	0	47	104	0	66	17090
2026-01-01 10:31:32.79	175.12	3.68	-51.5	-65.3	3.8	1.49e+00	0	47	104	0	65	18011
2026-01-01 10:31:33.78	175.15	3.75	-51.5	-65.3	3.8	1.49e+00	0	47	104	0	65	17947
2026-01-01 10:31:34.76	175.18	3.81	-51.5	-65.2	3.8	1.49e+00	0	47	104	0	65	17844
2026-01-01 10:31:35.76	175.22	3.88	-51.5	-65.2	3.8	1.49e+00	0	47	104	0	65	17811
2026-01-01 10:31:36.75	175.25	3.94	-51.5	-65.2	3.8	1.49e+00	0	47	104	0	65	17692
2026-01-01 10:31:37.73	175.28	4.01	-51.6	-65.1	3.8	1.49e+00	0	47	104	0	65	17637
2026-01-01 10:31:38.72	175.31	4.08	-51.5	-65.0	3.8	1.49e+00	0	47	104	0	65	17452
2026-01-01 10:31:39.71	175.34	4.14	-51.5	-65.0	3.8	1.49e+00	0	47	104	0	65	17357
2026-01-01 10:31:40.69	175.38	4.21	-51.4	-64.9	3.8	1.49e+00	0	47	104	0	65	17106
2026-01-01 10:31:41.68	175.41	4.28	-51.4	-64.8	3.8	1.49e+00	0	48	104	0	65	16909
2026-01-01 10:31:42.68	175.44	4.35	-51.5	-64.5	3.8	1.49e+00	0	48	104	0	65	16321
2026-01-01 10:31:43.68	175.48	4.41	-51.5	-64.1	3.8	1.49e+00	0	48	104	0	65	15614
2026-01-01 10:31:44.66	175.51	4.48	-51.4	-63.4	3.8	1.49e+00	0	48	104	0	65	14521
2026-01-01 10:31:45.65	175.54	4.55	-51.4	-62.5	3.9	1.47e+00	0	48	104	0	65	13063
2026-01-01 10:31:46.64	175.57	4.62	-51.3	-61.6	4.3	1.40e+00	0	48	0	0	65	11687
2026-01-01 10:31:47.64	175.61	4.69	-51.2	-60.5	4.7	1.18e+00	0	48	0	1048576	65	10315
2026-01-01 10:31:48.63	175.64	4.75	-51.0	-59.4	5.3	6.48e-01	0	48	0	3145728	65	9111
2026-01-01 10:31:49.62	175.68	4.82	-50.9	-58.4	6.0	4.17e-01	0	48	0	4194304	64	8599
2026-01-01 10:31:50.61	175.71	4.89	-50.7	-57.6	6.5	3.10e-01	0	48	0	6291456	64	7897
2026-01-01 10:31:51.60	175.74	4.96	-50.5	-56.5	7.5	1.54e-01	0	48	0	8388608	64	6946
2026-01-01 10:31:52.59	175.78	5.03	-50.4	-56.1	8.0	6.71e-02	0	48	0	10485760	63	7031
2026-01-01 10:31:53.58	175.81	5.10	-50.2	-55.6	8.6	4.51e-02	0	48	0	12582912	63	6581
2026-01-01 10:31:54.56	175.85	5.17	-50.4	-56.1	8.1	4.07e-02	0	48	0	13631488	63	6964
2026-01-01 10:31:55.55	175.88	5.24	-50.4	-56.1	8.1	7.66e-02	0	48	0	15728640	63	6963
2026-01-01 10:31:56.53	175.92	5.31	-50.2	-55.4	8.7	3.61e-02	0	49	0	17825792	63	6486
2026-01-01 10:31:57.53	175.95	5.38	-50.0	-54.7	9.5	2.20e-02	0	48	0	19922944	63	5980
2026-01-01 10:31:58.51	175.99	5.45	-49.8	-54.3	9.9	1.17e-02	0	49	0	20971520	62	6039
2026-01-01 10:31:59.51	176.02	5.52	-49.6	-53.7	10.5	5.25e-03	0	49	0	23068672	62	5626
2026-01-01 10:32:00.51	176.06	5.59	-49.3	-53.2	11.1	1.70e-03	0	49	0	25165824	61	5620
2026-01-01 10:32:01.50	176.09	5.66	-49.1	-52.8	11.5	9.89e-04	0	49	0	27262976	61	5364
2026-01-01 10:32:02.49	176.13	5.73	-49.1	-52.6	11.6	7.58e-04	0	49	0	29360128	61	5256
2026-01-01 10:32:03.48	176.16	5.80	-48.9	-52.3	12.0	2.83e-04	0	49	0	30408704	60	5346
2026-01-01 10:32:04.47	176.20	5.87	-48.9	-52.1	12.2	2.18e-04	0	49	0	32505856	60	5257
2026-01-01 10:32:05.47	176.24	5.95	-48.9	-52.1	12.2	2.58e-04	0	49	0	34603008	60	5272
2026-01-01 10:32:06.45	176.27	6.02	-49.0	-52.5	11.9	3.03e-04	0	49	0	36700160	60	5484
2026-01-01 10:32:07.44	176.31	6.09	-49.0	-52.4	11.9	4.53e-04	0	49	0	37748736	60	5461
2026-01-01 10:32:08.43	176.34	6.16	-48.9	-52.2	12.1	2.18e-04	0	49	0	39845888	60	5340
2026-01-01 10:32:09.42	176.38	6.23	-48.8	-52.0	12.4	1.91e-04	0	49	0	41943040	60	5210
2026-01-01 10:32:10.41	176.42	6.30	-48.9	-52.2	12.2	2.01e-04	0	49	0	44040192	60	5298
2026-01-01 10:32:11.40	176.46	6.38	-48.9	-52.2	12.2	1.84e-04	0	49	0	45088768	60	5313
2026-01-01 10:32:12.39	176.49	6.45	-48.9	-52.3	12.1	1.98e-04	0	50	0	47185920	60	5389
2026-01-01 10:32:13.37	176.53	6.52	-48.9	-52.3	12.1	3.69e-04	0	49	0	49283072	60	5348
2026-01-01 10:32:14.36	176.57	6.60	-48.7	-52.0	12.5	1.74e-04	0	50	0	51380224	60	5161
2026-01-01 10:32:15.35	176.60	6.67	-48.6	-51.7	12.7	8.01e-05	0	50	0	53477376	60	5024
2026-01-01 10:32:16.34	176.64	6.74	-48.5	-51.5	12.9	6.33e-05	0	50	0	54525952	60	4911
2026-01-01 10:32:17.32	176.68	6.82	-48.6	-51.7	12.8	6.86e-05	0	50	0	56623104	60	4995
2026-01-01 10:32:18.31	176.72	6.89	-48.5	-51.5	12.9	3.66e-05	0	50	0	58720256	60	4910
2026-01-01 10:32:19.30	176.76	6.96	-48.6	-51.7	12.8	6.33e-05	0	50	0	60817408	60	4994
2026-01-01 10:32:20.28	176.80	7.04	-48.4	-51.4	13.1	3.12e-05	0	50	0	61865984	60	4824
2026-01-01 10:32:21.27	176.83	7.11	-48.4	-51.2	13.3	2.82e-05	0	50	0	63963136	59	5036
2026-01-01 10:32:22.26	176.87	7.19	-48.4	-51.2	13.3	1.29e-05	0	50	0	66060288	59	5006
2026-01-01 10:32:23.26	176.91	7.26	-48.4	-51.2	13.4	1.52e-05	0	50	0	68157440	59	4998
2026-01-01 10:32:24.24	176.95	7.34	-48.5	-51.2	13.4	6.80e-06	0	50	0	69206016	59	5001
2026-01-01 10:32:25.23	176.99	7.41	-48.5	-51.2	13.4	1.29e-05	0	50	0	71303168	59	5001
2026-01-01 10:32:26.22	177.03	7.49	-48.4	-51.0	13.5	9.10e-06	0	50	0	73400320	59	4912
2026-01-01 10:32:27.21	177.07	7.56	-48.2	-50.8	13.8	6.80e-06	0	50	0	75497472	59	4777
2026-01-01 10:32:28.20	177.11	7.64	-48.3	-50.9	13.7	7.60e-06	0	50	0	77594624	59	4833
2026-01-01 10:32:29.19	177.15	7.72	-48.3	-51.0	13.7	9.10e-06	0	50	0	78643200	59	4877
2026-01-01 10:32:30.18	177.19	7.79	-48.3	-50.8	13.8	3.00e-06	0	50	0	80740352	59	4807
2026-01-01 10:32:31.17	177.23	7.87	-48.3	-50.9	13.7	1.50e-06	0	50	0	82837504	59	4827
2026-01-01 10:32:32.16	177.27	7.95	-48.2	-50.8	13.9	7.00e-07	0	51	0	84934656	59	4773
2026-01-01 10:32:33.15	177.31	8.02	-48.1	-50.5	14.1	3.00e-06	0	50	0	85983232	59	4642
2026-01-01 10:32:34.14	177.36	8.10	-48.2	-50.7	13.9	2.20e-06	0	50	0	88080384	59	4724
2026-01-01 10:32:35.13	177.40	8.18	-48.2	-50.7	14.0	3.00e-06	0	51	0	90177536	59	4724
2026-01-01 10:32:36.12	177.44	8.26	-48.2	-50.7	14.0	3.80e-06	0	51	0	92274688	59	4716
2026-01-01 10:32:37.11	177.48	8.34	-48.2	-50.7	14.0	5.30e-06	0	51	0	93323264	59	4726
2026-01-01 10:32:38.10	177.52	8.41	-48.2	-50.7	14.0	5.30e-06	0	51	0	95420416	59	4744
2026-01-01 10:32:39.08	177.57	8.49	-48.3	-50.9	13.8	1.50e-06	0	51	0	97517568	59	4846
2026-01-01 10:32:40.07	177.61	8.57	-48.2	-50.7	13.9	2.20e-06	0	50	0	99614720	59	4751
2026-01-01 10:32:41.06	177.65	8.65	-48.1	-50.4	14.3	0.00e+00	0	51	0	100663296	59	4591
2026-01-01 10:32:42.05	177.69	8.73	-47.9	-50.2	14.5	7.00e-07	0	51	0	102760448	59	4455
2026-01-01 10:32:43.05	177.74	8.81	-47.9	-50.1	14.6	1.50e-06	0	51	0	104857600	58	4698
2026-01-01 10:32:44.04	177.78	8.89	-47.9	-50.1	14.6	7.00e-07	0	51	0	106954752	58	4697
2026-01-01 10:32:45.03	177.82	8.97	-47.8	-50.1	14.6	0.00e+00	0	51	0	109051904	58	4674
2026-01-01 10:32:46.01	177.87	9.05	-47.8	-50.0	14.7	0.00e+00	0	51	0	110100480	58	4615
2026-01-01 10:32:47.00	177.91	9.13	-47.9	-50.2	14.5	0.00e+00	0	51	0	112197632	58	4730
2026-01-01 10:32:47.98	177.96	9.21	-47.7	-49.9	14.8	0.00e+00	0	51	0	114294784	58	4594
2026-01-01 10:32:48.98	178.00	9.29	-47.8	-50.0	14.7	0.00e+00	0	51	0	116391936	58	4639
2026-01-01 10:32:49.96	178.04	9.37	-47.7	-49.9	14.8	7.00e-07	0	51	0	117440512	58	4564
2026-01-01 10:32:50.95	178.09	9.45	-47.8	-50.0	14.8	7.00e-07	0	51	0	119537664	58	4629
2026-01-01 10:32:51.93	178.13	9.53	-47.9	-50.2	14.6	0.00e+00	0	51	0	121634816	58	4721
2026-01-01 10:32:52.92	178.18	9.62	-47.8	-50.0	14.8	1.50e-06	0	51	0	123731968	58	4617
2026-01-01 10:32:53.91	178.23	9.70	-47.7	-49.9	14.9	0.00e+00	0	51	0	124780544	58	4576
2026-01-01 10:32:54.89	178.27	9.78	-47.7	-49.9	14.8	7.00e-07	0	51	0	126877696	58	4578
2026-01-01 10:32:55.88	178.32	9.86	-47.8	-50.0	14.7	0.00e+00	0	51	0	128974848	58	4641
2026-01-01 10:32:56.87	178.36	9.94	-47.9	-50.1	14.7	0.00e+00	0	51	0	131072000	58	4676
2026-01-01 10:32:57.85	178.41	10.03	-47.8	-50.0	14.8	0.00e+00	0	51	0	133169152	58	4639
2026-01-01 10:32:58.83	178.46	10.11	-48.0	-50.2	14.6	7.00e-07	0	51	0	134217728	58	4751
2026-01-01 10:32:59.82	178.50	10.19	-47.9	-50.2	14.6	0.00e+00	0	52	0	136314880	58	4727
2026-01-01 10:33:00.81	178.55	10.28	-47.9	-50.0	14.8	0.00e+00	0	52	0	138412032	58	4641
2026-01-01 10:33:01.80	178.60	10.36	-47.8	-50.1	14.8	0.00e+00	0	52	0	140509184	58	4652
2026-01-01 10:33:02.79	178.65	10.45	-47.7	-49.9	15.0	0.00e+00	0	52	0	141557760	58	4548
2026-01-01 10:33:03.78	178.69	10.53	-47.8	-50.0	14.8	7.00e-07	0	52	0	143654912	58	4641
2026-01-01 10:33:04.77	178.74	10.62	-47.8	-50.0	14.8	0.00e+00	0	52	0	145752064	58	4606
2026-01-01 10:33:05.76	178.79	10.70	-47.7	-49.9	14.9	0.00e+00	0	52	0	147849216	58	4584
2026-01-01 10:33:06.75	178.84	10.79	-47.9	-50.2	14.7	0.00e+00	0	52	0	148897792	58	4728
2026-01-01 10:33:07.74	178.89	10.87	-47.9	-50.2	14.7	0.00e+00	0	52	0	150994944	58	4722
2026-01-01 10:33:08.72	178.94	10.96	-47.8	-50.0	14.8	0.00e+00	0	52	0	153092096	58	4634
2026-01-01 10:33:09.71	178.99	11.05	-47.4	-49.4	15.4	0.00e+00	0	52	0	155189248	57	4567
2026-01-01 10:33:10.70	179.04	11.13	-47.3	-49.3	15.5	0.00e+00	0	52	0	157286400	57	4525
2026-01-01 10:33:11.68	179.09	11.22	-47.3	-49.3	15.5	0.00e+00	0	52	0	158334976	57	4518
2026-01-01 10:33:12.67	179.14	11.31	-47.2	-49.2	15.6	0.00e+00	0	52	0	160432128	57	4474
2026-01-01 10:33:13.66	179.19	11.40	-47.3	-49.4	15.5	0.00e+00	0	52	0	162529280	57	4566
2026-01-01 10:33:14.65	179.24	11.48	-47.3	-49.3	15.6	0.00e+00	0	52	0	164626432	57	4508
2026-01-01 10:33:15.64	179.29	11.57	-47.3	-49.3	15.5	0.00e+00	0	52	0	165675008	57	4529
2026-01-01 10:33:16.63	179.34	11.66	-47.3	-49.3	15.6	0.00e+00	0	52	0	167772160	57	4500
2026-01-01 10:33:17.61	179.39	11.75	-47.3	-49.2	15.6	0.00e+00	0	52	0	169869312	57	4480
2026-01-01 10:33:18.60	179.45	11.84	-47.4	-49.4	15.5	0.00e+00	0	52	0	171966464	57	4564
2026-01-01 10:33:19.58	179.50	11.93	-47.5	-49.6	15.2	0.00e+00	0	52	0	173015040	57	4705
2026-01-01 10:33:20.57	179.55	12.02	-47.4	-49.5	15.4	0.00e+00	0	52	0	175112192	57	4622
2026-01-01 10:33:21.56	179.60	12.11	-47.4	-49.5	15.3	0.00e+00	0	52	0	177209344	57	4633
2026-01-01 10:33:22.54	179.66	12.20	-47.6	-49.6	15.2	0.00e+00	0	52	0	179306496	57	4698
2026-01-01 10:33:23.53	179.71	12.29	-47.4	-49.4	15.5	0.00e+00	0	52	0	180355072	57	4559
2026-01-01 10:33:24.52	179.76	12.38	-47.5	-49.5	15.4	0.00e+00	0	52	0	182452224	57	4621
2026-01-01 10:33:25.51	179.82	12.47	-47.5	-49.5	15.3	0.00e+00	0	52	0	184549376	57	4644
2026-01-01 10:33:26.50	179.87	12.56	-47.5	-49.6	15.3	7.00e-07	0	52	0	186646528	57	4674
2026-01-01 10:33:27.48	179.93	12.65	-47.6	-49.7	15.2	0.00e+00	0	53	0	188743680	57	4749
2026-01-01 10:33:28.47	179.98	12.75	-47.5	-49.6	15.3	0.00e+00	0	52	0	189792256	57	4678
2026-01-01 10:33:29.46	180.04	12.84	-47.2	-49.1	15.8	0.00e+00	0	53	0	191889408	57	4435
2026-01-01 10:33:30.44	180.09	12.93	-47.2	-49.1	15.8	0.00e+00	0	52	0	193986560	57	4440
2026-01-01 10:33:31.43	180.15	13.02	-47.4	-49.4	15.5	0.00e+00	0	52	0	196083712	57	4571
2026-01-01 10:33:32.42	180.21	13.12	-47.3	-49.3	15.6	0.00e+00	0	53	0	197132288	57	4511
2026-01-01 10:33:33.41	180.26	13.21	-47.4	-49.4	15.6	0.00e+00	0	53	0	199229440	57	4560
2026-01-01 10:33:34.40	180.32	13.31	-47.3	-49.3	15.7	0.00e+00	0	52	0	201326592	57	4505
2026-01-01 10:33:35.39	180.38	13.40	-47.3	-49.2	15.7	0.00e+00	0	53	0	203423744	57	4492
2026-01-01 10:33:36.39	180.44	13.50	-47.4	-49.4	15.5	0.00e+00	0	53	0	204472320	57	4550
2026-01-01 10:33:37.38	180.50	13.59	-47.3	-49.2	15.8	0.00e+00	0	53	0	206569472	57	4454
2026-01-01 10:33:38.37	180.55	13.69	-47.2	-49.1	15.9	0.00e+00	0	53	0	208666624	57	4397
2026-01-01 10:33:39.36	180.61	13.79	-47.2	-49.1	15.9	0.00e+00	0	53	0	210763776	57	4400
2026-01-01 10:33:40.35	180.67	13.88	-47.2	-49.1	15.8	0.00e+00	0	53	0	212860928	57	4409
2026-01-01 10:33:41.34	180.73	13.98	-47.1	-49.0	16.0	0.00e+00	0	53	0	213909504	57	4359
2026-01-01 10:33:42.33	180.79	14.08	-47.2	-49.1	15.8	0.00e+00	0	53	0	216006656	57	4440
2026-01-01 10:33:43.31	180.85	14.17	-47.3	-49.1	15.8	0.00e+00	0	53	0	218103808	57	4400
2026-01-01 10:33:44.29	180.91	14.27	-47.3	-49.2	15.7	0.00e+00	0	53	0	220200960	57	4466
2026-01-01 10:33:45.28	180.97	14.37	-47.4	-49.2	15.7	0.00e+00	0	53	0	221249536	57	4490
2026-01-01 10:33:46.28	181.04	14.47	-47.2	-49.0	15.9	0.00e+00	0	53	0	223346688	57	4378
2026-01-01 10:33:47.27	181.10	14.57	-47.3	-49.1	15.8	0.00e+00	0	53	0	225443840	57	4435
2026-01-01 10:33:48.26	181.16	14.67	-47.3	-49.2	15.7	0.00e+00	0	53	0	227540992	57	4477
2026-01-01 10:33:49.25	181.22	14.77	-47.3	-49.2	15.8	0.00e+00	0	53	0	228589568	57	4451
2026-01-01 10:33:50.24	181.29	14.87	-47.3	-49.2	15.8	0.00e+00	0	53	0	230686720	57	4452
2026-01-01 10:33:51.23	181.35	14.97	-47.3	-49.3	15.7	0.00e+00	0	53	0	232783872	57	4503
2026-01-01 10:33:52.23	181.41	15.07	-47.4	-49.3	15.7	0.00e+00	0	53	0	234881024	57	4520
2026-01-01 10:33:53.21	181.48	15.17	-47.4	-49.4	15.5	0.00e+00	0	53	0	236978176	57	4583
2026-01-01 10:33:54.20	181.54	15.27	-47.5	-49.5	15.5	0.00e+00	0	53	0	238026752	57	4627
2026-01-01 10:33:55.19	181.61	15.37	-47.4	-49.4	15.6	0.00e+00	0	53	0	240123904	57	4547
2026-01-01 10:33:56.17	181.67	15.48	-47.5	-49.6	15.4	0.00e+00	0	53	0	242221056	57	4671
2026-01-01 10:33:57.16	181.74	15.58	-47.3	-49.3	15.7	0.00e+00	0	53	0	244318208	57	4520
2026-01-01 10:33:58.15	181.81	15.68	-47.2	-49.1	15.9	0.00e+00	0	53	0	245366784	57	4415
2026-01-01 10:33:59.15	181.87	15.79	-47.2	-49.1	15.9	0.00e+00	0	53	0	247463936	57	4395
2026-01-01 10:34:00.13	181.94	15.89	-47.1	-49.0	16.0	0.00e+00	0	53	0	249561088	57	4361
2026-01-01 10:34:01.12	182.01	16.00	-47.2	-49.0	16.0	0.00e+00	0	53	0	251658240	57	4367
2026-01-01 10:34:02.10	182.08	16.10	-47.1	-49.0	16.1	0.00e+00	0	53	0	252706816	57	4349
2026-01-01 10:34:03.10	182.15	16.21	-47.0	-48.7	16.3	0.00e+00	0	53	0	254803968	57	4222
2026-01-01 10:34:04.10	182.21	16.31	-46.8	-48.5	16.5	0.00e+00	0	53	0	256901120	56	4363
2026-01-01 10:34:05.09	182.28	16.42	-46.9	-48.6	16.4	0.00e+00	0	53	0	258998272	56	4427
2026-01-01 10:34:06.06	182.35	16.52	-46.8	-48.5	16.5	0.00e+00	0	53	0	260046848	56	4367
2026-01-01 10:34:07.06	182.42	16.63	-46.9	-48.6	16.4	0.00e+00	0	53	0	262144000	56	4423
2026-01-01 10:34:08.04	182.49	16.74	-47.1	-48.8	16.2	0.00e+00	0	53	0	264241152	56	4531
2026-01-01 10:34:09.03	182.57	16.85	-47.0	-48.8	16.2	0.00e+00	0	53	0	266338304	56	4524
2026-01-01 10:34:10.02	182.64	16.96	-47.0	-48.7	16.3	0.00e+00	0	53	0	268435456	56	4477
2026-01-01 10:34:11.00	182.71	17.06	-46.9	-48.6	16.4	0.00e+00	0	53	0	269484032	56	4439
2026-01-01 10:34:11.99	182.78	17.17	-47.1	-48.8	16.2	0.00e+00	0	53	0	271581184	56	4516
2026-01-01 10:34:12.97	182.86	17.28	-47.1	-48.9	16.1	0.00e+00	0	53	0	273678336	56	4596
2026-01-01 10:34:13.96	182.93	17.39	-47.1	-49.0	16.0	7.00e-07	0	53	0	275775488	56	4622
2026-01-01 10:34:14.94	183.00	17.50	-47.1	-49.0	16.1	0.00e+00	0	53	0	276824064	56	4614
2026-01-01 10:34:15.93	183.08	17.61	-47.3	-49.2	15.8	0.00e+00	0	54	0	278921216	56	4731
2026-01-01 10:34:16.92	183.15	17.72	-47.1	-48.8	16.2	0.00e+00	0	53	0	281018368	56	4532
2026-01-01 10:34:17.90	183.23	17.84	-47.0	-48.7	16.3	0.00e+00	0	54	0	283115520	56	4480
2026-01-01 10:34:18.88	183.31	17.95	-46.9	-48.7	16.4	0.00e+00	0	53	0	284164096	56	4452
2026-01-01 10:34:19.87	183.38	18.06	-47.2	-48.9	16.1	0.00e+00	0	53	0	286261248	56	4582
2026-01-01 10:34:20.86	183.46	18.17	-46.9	-48.6	16.4	0.00e+00	0	54	0	288358400	56	4426
2026-01-01 10:34:21.85	183.54	18.29	-46.7	-48.3	16.7	0.00e+00	0	54	0	290455552	56	4250
2026-01-01 10:34:22.84	183.62	18.40	-46.6	-48.2	16.8	0.00e+00	0	53	0	292552704	56	4222
2026-01-01 10:34:23.83	183.70	18.52	-46.5	-48.0	17.0	0.00e+00	0	54	0	293601280	56	4112
2026-01-01 10:34:24.82	183.78	18.63	-46.5	-48.1	16.8	0.00e+00	0	53	0	295698432	56	4193
2026-01-01 10:34:25.81	183.86	18.75	-46.5	-48.0	17.0	0.00e+00	0	54	0	297795584	56	4121
2026-01-01 10:34:26.79	183.94	18.86	-46.2	-47.7	17.2	0.00e+00	0	54	0	299892736	55	4211
2026-01-01 10:34:27.78	184.02	18.98	-46.4	-47.9	17.0	0.00e+00	0	54	0	300941312	55	4332
2026-01-01 10:34:28.77	184.10	19.10	-46.2	-47.7	17.2	0.00e+00	0	54	0	303038464	55	4202
2026-01-01 10:34:29.75	184.18	19.22	-45.9	-47.3	17.6	0.00e+00	0	54	0	305135616	54	4272
2026-01-01 10:34:30.74	184.27	19.33	-45.9	-47.3	17.6	0.00e+00	0	54	0	307232768	54	4282
2026-01-01 10:34:31.72	184.35	19.45	-45.8	-47.1	17.8	0.00e+00	0	54	0	308281344	54	4166
2026-01-01 10:34:32.70	184.43	19.57	-45.8	-47.1	17.8	0.00e+00	0	54	0	310378496	54	4173
2026-01-01 10:34:33.69	184.52	19.69	-45.6	-46.9	18.0	0.00e+00	0	54	0	312475648	54	4071
2026-01-01 10:34:34.68	184.61	19.81	-45.7	-47.1	17.8	0.00e+00	0	54	0	314572800	54	4166
2026-01-01 10:34:35.67	184.69	19.93	-45.9	-47.2	17.7	0.00e+00	0	54	0	315621376	54	4231
2026-01-01 10:34:36.66	184.78	20.05	-45.8	-47.2	17.7	0.00e+00	0	54	0	317718528	54	4211
2026-01-01 10:34:37.65	184.87	20.18	-45.7	-47.1	17.7	0.00e+00	0	54	0	319815680	54	4176
2026-01-01 10:34:38.64	184.96	20.30	-45.9	-47.3	17.6	0.00e+00	0	54	0	321912832	54	4264
2026-01-01 10:34:39.63	185.05	20.42	-46.0	-47.5	17.5	0.00e+00	0	54	0	324009984	54	4347
2026-01-01 10:34:40.62	185.14	20.55	-46.2	-47.7	17.3	0.00e+00	0	54	0	325058560	54	4454
2026-01-01 10:34:41.61	185.23	20.67	-46.2	-47.7	17.2	0.00e+00	0	54	0	327155712	54	4461
2026-01-01 10:34:42.60	185.32	20.80	-46.3	-47.9	17.1	0.00e+00	0	54	0	329252864	54	4565
2026-01-01 10:34:43.59	185.41	20.92	-46.4	-48.0	17.0	0.00e+00	0	54	0	331350016	54	4602
2026-01-01 10:34:44.59	185.50	21.05	-46.4	-47.9	17.0	0.00e+00	0	54	0	332398592	54	4584
2026-01-01 10:34:45.57	185.60	21.17	-46.5	-48.1	16.9	0.00e+00	0	54	0	334495744	54	4674
2026-01-01 10:34:46.55	185.69	21.30	-46.4	-47.9	17.0	0.00e+00	0	54	0	336592896	54	4595
2026-01-01 10:34:47.54	185.79	21.43	-46.3	-47.9	17.1	0.00e+00	0	54	0	338690048	54	4555
2026-01-01 10:34:48.53	185.88	21.55	-46.3	-47.9	17.0	0.00e+00	0	54	0	339738624	54	4584
2026-01-01 10:34:49.53	185.98	21.69	-46.3	-47.8	17.2	0.00e+00	0	54	0	341835776	54	4526
2026-01-01 10:34:50.52	186.08	21.81	-46.2	-47.7	17.2	0.00e+00	0	54	0	343932928	54	4471
2026-01-01 10:34:51.51	186.18	21.94	-46.3	-47.9	17.1	0.00e+00	0	54	0	346030080	54	4569
2026-01-01 10:34:52.50	186.27	22.08	-46.1	-47.6	17.3	0.00e+00	0	54	0	348127232	54	4422
2026-01-01 10:34:53.48	186.37	22.20	-46.1	-47.5	17.5	0.00e+00	0	54	0	349175808	54	4364
2026-01-01 10:34:54.48	186.47	22.34	-46.0	-47.4	17.5	0.00e+00	0	54	0	351272960	54	4330
2026-01-01 10:34:55.46	186.57	22.47	-46.1	-47.6	17.4	0.00e+00	0	54	0	353370112	54	4409
2026-01-01 10:34:56.45	186.68	22.60	-46.1	-47.5	17.4	0.00e+00	0	54	0	355467264	54	4387
2026-01-01 10:34:57.44	186.78	22.74	-46.1	-47.6	17.4	0.00e+00	0	54	0	356515840	54	4415
2026-01-01 10:34:58.43	186.88	22.87	-46.1	-47.5	17.5	0.00e+00	0	54	0	358612992	54	4361
2026-01-01 10:34:59.41	186.99	23.00	-46.0	-47.4	17.5	0.00e+00	0	54	0	360710144	54	4336
2026-01-01 10:35:00.40	187.09	23.14	-45.9	-47.3	17.7	0.00e+00	0	54	0	362807296	54	4267
2026-01-01 10:35:01.39	187.20	23.27	-45.9	-47.3	17.7	0.00e+00	0	54	0	363855872	54	4258
2026-01-01 10:35:02.38	187.31	23.41	-45.8	-47.2	17.8	0.00e+00	0	54	0	365953024	54	4217
2026-01-01 10:35:03.37	187.42	23.55	-45.7	-47.1	17.9	0.00e+00	0	54	0	368050176	54	4160
2026-01-01 10:35:04.36	187.52	23.69	-45.7	-47.0	18.0	0.00e+00	0	54	0	370147328	54	4102
2026-01-01 10:35:05.35	187.64	23.82	-45.6	-46.9	18.1	0.00e+00	0	54	0	372244480	54	4069
2026-01-01 10:35:06.33	187.75	23.96	-45.7	-47.1	17.9	0.00e+00	0	54	0	373293056	54	4152
2026-01-01 10:35:07.32	187.86	24.10	-45.8	-47.1	17.8	0.00e+00	0	54	0	375390208	54	4178
2026-01-01 10:35:08.31	187.97	24.24	-45.5	-46.7	17.9	0.00e+00	0	54	0	377487360	54	3997
2026-01-01 10:35:09.30	188.08	24.38	-45.3	-46.6	18.3	0.00e+00	0	54	0	379584512	53	4162
2026-01-01 10:35:10.29	188.20	24.53	-45.3	-46.5	18.4	0.00e+00	0	54	0	380633088	53	4124
2026-01-01 10:35:11.28	188.32	24.67	-45.1	-46.3	18.6	0.00e+00	0	54	0	382730240	53	4032
2026-01-01 10:35:12.27	188.43	24.81	-45.1	-46.3	18.5	0.00e+00	0	54	0	384827392	53	4043
2026-01-01 10:35:13.26	188.55	24.95	-45.1	-46.3	18.6	0.00e+00	0	54	0	386924544	53	4030
2026-01-01 10:35:14.26	188.67	25.10	-45.3	-46.6	18.4	0.00e+00	0	54	0	387973120	53	4151
2026-01-01 10:35:15.25	188.79	25.25	-45.0	-46.1	18.7	0.00e+00	0	54	0	390070272	53	3952
2026-01-01 10:35:16.24	188.91	25.39	-45.1	-46.3	18.6	0.00e+00	0	54	0	392167424	53	4030
2026-01-01 10:35:17.24	189.04	25.54	-45.2	-46.4	18.5	0.00e+00	0	54	0	394264576	53	4070
2026-01-01 10:35:18.23	189.16	25.69	-45.3	-46.6	18.4	0.00e+00	0	54	0	395313152	53	4148
2026-01-01 10:35:19.21	189.28	25.83	-45.4	-46.7	18.3	0.00e+00	0	54	0	397410304	53	4222
2026-01-01 10:35:20.20	189.41	25.98	-45.3	-46.6	18.4	0.00e+00	0	54	0	399507456	53	4156
2026-01-01 10:35:21.19	189.53	26.13	-45.4	-46.6	18.3	0.00e+00	0	54	0	401604608	53	4175
2026-01-01 10:35:22.18	189.66	26.28	-45.3	-46.5	18.5	0.00e+00	0	54	0	403701760	53	4114
2026-01-01 10:35:23.17	189.79	26.43	-45.3	-46.6	18.4	0.00e+00	0	54	0	404750336	53	4163
2026-01-01 10:35:24.16	189.92	26.58	-45.5	-46.8	18.2	0.00e+00	0	54	0	406847488	53	4263
2026-01-01 10:35:25.15	190.05	26.73	-45.6	-46.9	18.0	0.00e+00	0	55	0	408944640	53	4329
2026-01-01 10:35:26.14	190.19	26.89	-45.7	-47.0	18.0	0.00e+00	0	54	0	411041792	53	4363
2026-01-01 10:35:27.13	190.32	27.04	-45.9	-47.3	17.7	0.00e+00	0	55	0	412090368	53	4518
2026-01-01 10:35:28.12	190.46	27.19	-46.2	-47.7	17.4	0.00e+00	0	55	0	414187520	54	4456
2026-01-01 10:35:29.11	190.59	27.35	-46.3	-47.8	17.3	0.00e+00	0	55	0	416284672	54	4495
2026-01-01 10:35:30.10	190.73	27.50	-46.1	-47.6	17.4	0.00e+00	0	55	0	418381824	54	4419
2026-01-01 10:35:31.08	190.87	27.66	-46.5	-48.1	17.0	0.00e+00	0	55	0	420478976	54	4663
2026-01-01 10:35:32.08	191.01	27.82	-46.4	-48.0	17.1	0.00e+00	0	55	0	421527552	54	4602
2026-01-01 10:35:33.07	191.15	27.97	-46.6	-48.2	16.9	0.00e+00	0	55	0	423624704	54	4730
2026-01-01 10:35:34.06	191.29	28.13	-46.5	-48.0	17.1	0.00e+00	0	54	0	425721856	55	4369
2026-01-01 10:35:35.04	191.44	28.29	-47.0	-48.7	16.3	0.00e+00	0	55	0	427819008	55	4757
2026-01-01 10:35:36.04	191.58	28.45	-46.7	-48.3	16.8	0.00e+00	0	55	0	428867584	55	4524
2026-01-01 10:35:37.03	191.73	28.61	-46.7	-48.3	16.7	0.00e+00	0	55	0	430964736	55	4524
2026-01-01 10:35:38.02	191.88	28.77	-46.8	-48.5	16.6	0.00e+00	0	55	0	433061888	55	4624
2026-01-01 10:35:39.01	192.03	28.93	-47.0	-48.7	16.4	0.00e+00	0	54	0	435159040	55	4751
2026-01-01 10:35:40.00	192.18	29.10	-47.3	-49.2	16.1	0.00e+00	0	55	0	436207616	56	4711
2026-01-01 10:35:40.99	192.34	29.26	-47.4	-49.3	15.9	0.00e+00	0	55	0	438304768	56	4809
2026-01-01 10:35:41.97	192.49	29.42	-47.7	-49.8	15.5	0.00e+00	0	55	0	440401920	57	4764
2026-01-01 10:35:42.97	192.65	29.59	-47.7	-49.7	15.5	0.00e+00	0	55	0	442499072	57	4726
2026-01-01 10:35:43.96	192.80	29.76	-47.9	-49.9	15.3	0.00e+00	0	55	0	444596224	57	4866
2026-01-01 10:35:44.95	192.96	29.92	-47.9	-49.9	15.4	0.00e+00	0	55	0	445644800	57	4831
2026-01-01 10:35:45.94	193.12	30.09	-48.1	-50.2	15.0	0.00e+00	0	55	0	447741952	57	5027
2026-01-01 10:35:46.92	193.29	30.25	-48.5	-50.8	14.4	0.00e+00	0	55	0	449839104	58	5099
2026-01-01 10:35:47.91	193.45	30.42	-48.4	-50.7	14.6	1.50e-06	0	55	0	451936256	59	4735
2026-01-01 10:35:48.91	193.62	30.59	-48.6	-51.1	14.2	4.50e-06	0	55	0	452984832	59	4979
2026-01-01 10:35:49.89	193.78	30.76	-49.6	-52.4	13.3	9.10e-06	0	55	0	455081984	60	5456
2026-01-01 10:35:50.89	193.95	30.93	-48.9	-51.7	13.6	2.44e-05	0	55	0	457179136	60	4988
2026-01-01 10:35:51.88	194.13	31.11	-49.1	-52.0	13.2	1.67e-05	0	55	0	459276288	60	5180
2026-01-01 10:35:52.86	194.30	31.28	-48.9	-51.6	13.6	1.29e-05	0	55	0	460324864	60	4978
2026-01-01 10:35:53.85	194.47	31.45	-49.2	-52.2	13.1	3.20e-05	0	55	0	462422016	60	5309
2026-01-01 10:35:54.84	194.65	31.62	-48.7	-51.5	13.8	2.28e-05	0	55	0	464519168	60	4878
2026-01-01 10:35:55.83	194.83	31.80	-48.9	-51.6	13.6	9.90e-06	0	55	0	466616320	60	4969
2026-01-01 10:35:56.82	195.01	31.97	-48.6	-51.1	14.0	5.30e-06	0	55	0	468713472	60	4688
2026-01-01 10:35:57.80	195.19	32.15	-48.4	-50.8	14.5	0.00e+00	0	55	0	469762048	59	4770
2026-01-01 10:35:58.80	195.37	32.33	-48.5	-50.8	14.4	0.00e+00	0	55	0	471859200	59	4804
2026-01-01 10:35:59.78	195.56	32.50	-48.1	-50.2	15.0	0.00e+00	0	55	0	473956352	59	4487
2026-01-01 10:36:00.78	195.75	32.68	-48.5	-50.8	14.4	0.00e+00	0	55	0	476053504	59	4790
2026-01-01 10:36:01.78	195.94	32.86	-48.3	-50.5	14.8	1.50e-06	0	55	0	477102080	59	4607
2026-01-01 10:36:02.76	196.13	33.04	-48.5	-50.8	14.5	7.00e-07	0	55	0	479199232	59	4800
2026-01-01 10:36:03.76	196.33	33.22	-48.1	-50.1	15.1	7.00e-07	0	55	0	481296384	59	4436
2026-01-01 10:36:04.75	196.52	33.40	-48.1	-50.2	15.0	7.00e-07	0	55	0	483393536	59	4471
2026-01-01 10:36:05.74	196.72	33.58	-48.0	-50.0	15.3	0.00e+00	0	55	0	485490688	59	4359
2026-01-01 10:36:06.72	196.92	33.76	-47.8	-49.7	15.5	0.00e+00	0	55	0	486539264	58	4484
2026-01-01 10:36:07.70	197.12	33.95	-47.7	-49.6	15.7	0.00e+00	0	55	0	488636416	58	4412
2026-01-01 10:36:08.69	197.33	34.13	-47.9	-49.8	15.4	0.00e+00	0	55	0	490733568	58	4545
2026-01-01 10:36:09.68	197.53	34.31	-48.1	-50.2	15.1	0.00e+00	0	55	0	491782144	58	4732
2026-01-01 10:36:10.66	197.74	34.50	-48.2	-50.4	14.9	0.00e+00	0	55	0	493879296	58	4816
2026-01-01 10:36:11.65	197.95	34.68	-48.5	-50.8	14.6	0.00e+00	0	55	0	495976448	58	5065
2026-01-01 10:36:12.64	198.17	34.87	-48.4	-50.7	14.6	7.00e-07	0	55	0	498073600	59	4738
2026-01-01 10:36:13.63	198.38	35.06	-48.7	-51.2	14.1	0.00e+00	0	55	0	500170752	59	4997
2026-01-01 10:36:14.62	198.60	35.25	-48.5	-50.8	14.4	1.50e-06	0	55	0	501219328	59	4788
2026-01-01 10:36:15.61	198.82	35.43	-48.5	-50.9	14.5	0.00e+00	0	55	0	503316480	59	4827
2026-01-01 10:36:16.60	199.05	35.62	-48.6	-50.9	14.3	7.00e-07	0	55	0	505413632	59	4858
2026-01-01 10:36:17.59	199.28	35.81	-48.6	-50.9	14.4	0.00e+00	0	55	0	507510784	59	4830
2026-01-01 10:36:18.58	199.50	36.00	-48.8	-51.2	14.2	7.00e-07	0	55	0	508559360	59	4988
2026-01-01 10:36:19.57	199.74	36.19	-48.8	-51.2	14.0	1.50e-06	0	55	0	510656512	59	5040
2026-01-01 10:36:20.56	199.97	36.39	-48.8	-51.3	14.0	5.30e-06	0	55	0	512753664	59	5069
2026-01-01 10:36:21.55	200.21	36.58	-48.4	-50.6	14.7	7.00e-07	0	55	0	514850816	59	4655
2026-01-01 10:36:22.54	200.45	36.77	-49.1	-51.7	13.6	5.30e-06	0	55	0	516947968	59	5302
2026-01-01 10:36:23.53	200.69	36.96	-49.2	-52.0	13.3	3.35e-05	0	55	0	517996544	60	5170
2026-01-01 10:36:24.51	200.94	37.16	-49.5	-52.5	12.7	4.34e-05	0	55	0	520093696	60	5525
2026-01-01 10:36:25.50	201.18	37.35	-49.6	-52.8	12.5	1.83e-04	0	55	0	522190848	61	5378
2026-01-01 10:36:26.49	201.44	37.55	-49.8	-53.1	12.1	1.36e-04	0	55	0	524288000	61	5589
2026-01-01 10:36:27.48	201.69	37.74	-49.4	-52.5	12.8	3.86e-04	0	55	0	525336576	61	5165
2026-01-01 10:36:28.47	201.95	37.94	-49.0	-51.7	13.6	3.73e-05	0	55	0	527433728	61	4729
2026-01-01 10:36:29.45	202.21	38.13	-48.7	-51.2	14.1	6.80e-06	0	55	0	529530880	60	4715
2026-01-01 10:36:30.43	202.47	38.33	-48.4	-50.6	14.7	1.50e-06	0	55	0	531628032	59	4660
2026-01-01 10:36:31.42	202.74	38.53	-48.1	-50.2	15.1	0.00e+00	0	55	0	532676608	59	4449
2026-01-01 10:36:32.40	203.00	38.72	-47.4	-49.1	16.1	0.00e+00	0	55	0	534773760	58	4191
2026-01-01 10:36:33.39	203.28	38.92	-47.5	-49.3	16.0	0.00e+00	0	55	0	536870912	57	4525
2026-01-01 10:36:34.38	203.55	39.12	-47.4	-49.2	16.1	0.00e+00	0	55	0	538968064	57	4473
2026-01-01 10:36:35.37	203.83	39.32	-47.3	-48.9	16.3	0.00e+00	0	55	0	540016640	57	4335
2026-01-01 10:36:36.36	204.12	39.52	-47.0	-48.6	16.6	0.00e+00	0	55	0	542113792	56	4403
2026-01-01 10:36:37.35	204.40	39.72	-47.1	-48.7	16.6	0.00e+00	0	55	0	544210944	56	4469
2026-01-01 10:36:38.34	204.69	39.92	-47.1	-48.7	16.6	0.00e+00	0	55	0	546308096	56	4493
2026-01-01 10:36:39.33	204.99	40.12	-47.1	-48.9	16.4	0.00e+00	0	55	0	548405248	56	4566
2026-01-01 10:36:40.32	205.28	40.32	-47.7	-49.7	15.6	0.00e+00	0	55	0	549453824	57	4737
2026-01-01 10:36:41.31	205.59	40.52	-47.7	-49.7	15.6	0.00e+00	0	55	0	551550976	57	4749
2026-01-01 10:36:42.30	205.89	40.73	-47.7	-49.7	15.6	0.00e+00	0	56	0	553648128	57	4758
2026-01-01 10:36:43.29	206.20	40.93	-47.5	-49.4	15.9	0.00e+00	0	55	0	555745280	57	4556
2026-01-01 10:36:44.27	206.51	41.13	-47.2	-48.8	16.4	0.00e+00	0	55	0	556793856	57	4287
2026-01-01 10:36:45.26	206.83	41.33	-47.0	-48.6	16.6	0.00e+00	0	55	0	558891008	56	4438
2026-01-01 10:36:46.26	207.15	41.54	-47.1	-48.7	16.6	0.00e+00	0	55	0	560988160	56	4444
2026-01-01 10:36:47.25	207.47	41.74	-47.5	-49.3	15.9	0.00e+00	0	55	0	563085312	57	4534
2026-01-01 10:36:48.24	207.80	41.94	-47.9	-49.8	15.6	0.00e+00	0	55	0	565182464	57	4783
2026-01-01 10:36:49.22	208.13	42.14	-48.1	-50.2	15.1	0.00e+00	0	55	0	566231040	58	4721
2026-01-01 10:36:50.21	208.47	42.34	-48.2	-50.2	15.0	0.00e+00	0	55	0	568328192	58	4747
2026-01-01 10:36:51.20	208.81	42.55	-48.6	-51.0	14.3	7.00e-07	0	55	0	570425344	59	4917
2026-01-01 10:36:52.19	209.15	42.75	-48.6	-51.1	14.3	0.00e+00	0	55	0	572522496	59	4933
2026-01-01 10:36:53.18	209.50	42.95	-48.6	-51.1	14.2	7.00e-07	0	55	0	573571072	59	4946
2026-01-01 10:36:54.16	209.85	43.15	-48.5	-50.9	14.5	0.00e+00	0	55	0	575668224	59	4817
2026-01-01 10:36:55.15	210.21	43.36	-48.6	-51.0	14.4	0.00e+00	0	55	0	577765376	59	4881
2026-01-01 10:36:56.14	210.57	43.56	-48.6	-50.8	14.5	0.00e+00	0	55	0	579862528	59	4807
2026-01-01 10:36:57.12	210.94	43.76	-49.0	-51.6	13.8	7.00e-07	0	55	0	580911104	59	5219
2026-01-01 10:36:58.11	211.31	43.96	-48.7	-51.1	14.2	2.20e-06	0	55	0	583008256	59	4950
2026-01-01 10:36:59.09	211.68	44.16	-48.9	-51.6	13.8	2.20e-06	0	55	0	585105408	59	5222
2026-01-01 10:37:00.08	212.06	44.36	-48.5	-50.9	14.4	1.50e-06	0	55	0	587202560	59	4851
2026-01-01 10:37:01.07	212.45	44.57	-48.6	-51.0	14.3	7.00e-07	0	55	0	588251136	59	4905
2026-01-01 10:37:02.05	212.83	44.76	-48.6	-51.0	14.2	2.20e-06	0	55	0	590348288	59	4921
2026-01-01 10:37:03.04	213.23	44.96	-48.9	-51.5	13.8	1.50e-06	0	55	0	592445440	59	5216
2026-01-01 10:37:04.03	213.63	45.16	-49.7	-52.9	12.4	1.52e-05	0	55	0	594542592	61	5405
2026-01-01 10:37:05.01	214.03	45.36	-49.7	-53.0	12.3	1.60e-04	0	55	0	595591168	61	5468
2026-01-01 10:37:06.00	214.44	45.56	-49.4	-52.4	12.9	1.19e-04	0	56	0	597688320	61	5128
2026-01-01 10:37:06.99	214.86	45.76	-49.1	-51.8	13.6	3.89e-05	0	55	0	599785472	61	4771
2026-01-01 10:37:07.98	215.28	45.96	-48.9	-51.4	13.7	6.10e-06	0	55	0	601882624	60	4869
2026-01-01 10:37:08.96	215.70	46.15	-49.3	-52.0	13.3	6.80e-06	0	55	0	603979776	60	5204
2026-01-01 10:37:09.95	216.13	46.35	-49.2	-52.0	13.3	2.67e-05	0	55	0	605028352	60	5200
2026-01-01 10:37:10.95	216.57	46.54	-49.2	-52.0	13.3	1.22e-05	0	56	0	607125504	60	5202
2026-01-01 10:37:11.93	217.01	46.74	-49.4	-52.5	12.8	3.96e-05	0	55	0	609222656	60	5470
2026-01-01 10:37:12.92	217.46	46.93	-49.4	-52.4	12.9	9.61e-05	0	55	0	611319808	61	5133
2026-01-01 10:37:13.90	217.90	47.12	-49.3	-52.2	13.1	7.93e-05	0	55	0	612368384	61	5012
2026-01-01 10:37:14.89	218.36	47.31	-48.7	-51.2	14.1	1.52e-05	0	55	0	614465536	60	4733
2026-01-01 10:37:15.88	218.83	47.50	-48.5	-50.8	14.5	7.00e-07	0	55	0	616562688	59	4798
2026-01-01 10:37:16.87	219.29	47.69	-48.7	-51.3	14.2	7.00e-07	0	56	0	618659840	59	5045
2026-01-01 10:37:17.86	219.77	47.88	-48.7	-51.1	14.3	7.00e-07	0	56	0	619708416	59	4953
2026-01-01 10:37:18.85	220.25	48.07	-48.7	-51.1	14.3	7.00e-07	0	56	0	621805568	59	4939
2026-01-01 10:37:19.84	220.74	48.25	-48.4	-50.7	14.6	1.50e-06	0	55	0	623902720	59	4746
2026-01-01 10:37:20.83	221.23	48.43	-48.0	-50.1	15.4	0.00e+00	0	56	0	625999872	59	4399
2026-01-01 10:37:21.82	221.73	48.62	-48.2	-50.3	15.2	0.00e+00	0	56	0	628097024	58	4763
2026-01-01 10:37:22.81	222.23	48.80	-48.1	-50.3	15.1	0.00e+00	0	56	0	629145600	58	4768
2026-01-01 10:37:23.80	222.74	48.98	-48.4	-50.6	14.7	0.00e+00	0	56	0	631242752	58	4972
2026-01-01 10:37:24.79	223.26	49.15	-48.6	-51.0	14.3	0.00e+00	0	55	0	633339904	59	4895
2026-01-01 10:37:25.78	223.78	49.33	-48.5	-50.8	14.5	7.00e-07	0	56	0	635437056	59	4809
2026-01-01 10:37:26.76	224.30	49.50	-48.5	-50.8	14.6	3.00e-06	0	56	0	636485632	59	4790
2026-01-01 10:37:27.76	224.84	49.68	-48.5	-50.8	14.6	7.00e-07	0	56	0	638582784	59	4785
2026-01-01 10:37:28.74	225.37	49.84	-48.2	-50.4	15.0	0.00e+00	0	56	0	640679936	59	4574
2026-01-01 10:37:29.73	225.92	50.01	-48.4	-50.8	14.6	0.00e+00	0	56	0	642777088	59	4783
2026-01-01 10:37:30.71	226.46	50.18	-48.5	-50.9	14.5	0.00e+00	0	56	0	643825664	59	4841
2026-01-01 10:37:31.70	227.02	50.34	-48.5	-50.8	14.5	7.00e-07	0	56	0	645922816	59	4806
2026-01-01 10:37:32.69	227.58	50.50	-48.1	-50.2	15.1	0.00e+00	0	56	0	648019968	59	4461
2026-01-01 10:37:33.67	228.15	50.66	-47.7	-49.6	15.8	0.00e+00	0	55	0	650117120	58	4394
2026-01-01 10:37:34.66	228.72	50.81	-47.6	-49.4	15.9	0.00e+00	0	56	0	651165696	58	4332
2026-01-01 10:37:35.65	229.30	50.97	-47.6	-49.5	15.9	0.00e+00	0	56	0	653262848	58	4361
2026-01-01 10:37:36.65	229.90	51.12	-47.6	-49.4	15.9	0.00e+00	0	56	0	655360000	58	4337
2026-01-01 10:37:37.64	230.49	51.27	-47.3	-49.1	16.2	0.00e+00	0	56	0	657457152	57	4430
2026-01-01 10:37:38.62	231.08	51.42	-47.6	-49.4	15.9	0.00e+00	0	56	0	659554304	57	4575
2026-01-01 10:37:39.62	231.69	51.56	-48.2	-50.3	15.1	0.00e+00	0	56	0	660602880	58	4800
2026-01-01 10:37:40.60	232.30	51.70	-48.0	-49.9	15.3	0.00e+00	0	56	0	662700032	58	4566
2026-01-01 10:37:41.59	232.91	51.84	-47.3	-49.0	16.3	0.00e+00	0	56	0	664797184	57	4345
2026-01-01 10:37:42.58	233.53	51.97	-47.4	-49.1	16.3	0.00e+00	0	56	0	666894336	57	4426
2026-01-01 10:37:43.57	234.16	52.10	-47.4	-49.2	16.1	0.00e+00	0	56	0	667942912	57	4454
2026-01-01 10:37:44.56	234.79	52.23	-46.9	-48.5	16.8	0.00e+00	0	56	0	670040064	57	4124
2026-01-01 10:37:45.55	235.43	52.36	-46.2	-47.6	17.6	0.00e+00	0	56	0	672137216	55	4156
2026-01-01 10:37:46.54	236.07	52.48	-46.7	-48.3	16.8	0.00e+00	0	56	0	674234368	55	4539
2026-01-01 10:37:47.53	236.72	52.60	-47.5	-49.4	16.0	0.00e+00	0	56	0	675282944	56	4827
2026-01-01 10:37:48.52	237.37	52.71	-47.9	-49.9	15.5	0.00e+00	0	56	0	677380096	57	4830
2026-01-01 10:37:49.51	238.03	52.82	-47.9	-49.8	15.4	0.00e+00	0	56	0	679477248	57	4811
2026-01-01 10:37:50.50	238.69	52.93	-47.8	-49.7	15.7	0.00e+00	0	56	0	681574400	57	4719
2026-01-01 10:37:51.49	239.36	53.04	-47.4	-49.2	16.3	0.00e+00	0	56	0	683671552	57	4478
2026-01-01 10:37:52.48	240.03	53.14	-47.1	-48.7	16.5	0.00e+00	0	56	0	684720128	57	4215
2026-01-01 10:37:53.46	240.70	53.23	-46.5	-47.9	17.3	0.00e+00	0	56	0	686817280	56	4080
2026-01-01 10:37:54.45	241.38	53.32	-47.1	-48.8	16.5	0.00e+00	0	56	0	688914432	56	4513
2026-01-01 10:37:55.44	242.07	53.41	-48.2	-50.3	15.0	0.00e+00	0	56	0	691011584	58	4794
2026-01-01 10:37:56.43	242.76	53.50	-48.4	-50.7	14.7	0.00e+00	0	56	0	692060160	58	4997
2026-01-01 10:37:57.42	243.45	53.58	-48.1	-50.2	15.2	7.00e-07	0	56	0	694157312	58	4721
2026-01-01 10:37:58.42	244.16	53.66	-48.4	-50.7	14.8	0.00e+00	0	56	0	696254464	58	5007
2026-01-01 10:37:59.41	244.86	53.73	-48.6	-51.0	14.5	1.50e-06	0	56	0	698351616	59	4880
2026-01-01 10:38:00.39	245.56	53.80	-48.1	-50.2	15.1	0.00e+00	0	56	0	700448768	59	4472
2026-01-01 10:38:01.38	246.26	53.86	-47.2	-48.9	16.4	0.00e+00	0	56	0	701497344	57	4313
2026-01-01 10:38:02.36	246.97	53.92	-46.9	-48.5	16.8	0.00e+00	0	56	0	703594496	57	4116
2026-01-01 10:38:03.35	247.68	53.98	-47.5	-49.3	16.0	0.00e+00	0	56	0	705691648	56	4811
2026-01-01 10:38:04.34	248.39	54.03	-48.2	-50.3	15.1	0.00e+00	0	56	0	707788800	58	4762
2026-01-01 10:38:05.32	249.11	54.08	-48.1	-50.2	15.2	0.00e+00	0	56	0	708837376	58	4714
2026-01-01 10:38:06.31	249.83	54.12	-47.5	-49.4	16.0	0.00e+00	0	56	0	710934528	58	4301
2026-01-01 10:38:07.30	250.55	54.16	-47.4	-49.2	16.1	0.00e+00	0	56	0	713031680	57	4491
2026-01-01 10:38:08.29	251.27	54.19	-47.9	-50.0	15.5	0.00e+00	0	56	0	715128832	58	4599
2026-01-01 10:38:09.28	252.00	54.22	-48.1	-50.2	15.2	0.00e+00	0	56	0	716177408	58	4734
2026-01-01 10:38:10.26	252.72	54.24	-48.2	-50.4	15.0	0.00e+00	0	56	0	718274560	58	4831
2026-01-01 10:38:11.26	253.45	54.26	-48.3	-50.4	14.9	0.00e+00	0	56	0	720371712	58	4869
2026-01-01 10:38:12.24	254.18	54.28	-48.5	-50.8	14.6	0.00e+00	0	56	0	722468864	58	5060
2026-01-01 10:38:13.23	254.91	54.29	-49.1	-51.8	13.5	3.00e-06	0	56	0	723517440	60	5092
2026-01-01 10:38:14.22	255.64	54.30	-48.4	-50.6	14.7	1.50e-06	0	56	0	725614592	60	4431
2026-01-01 10:38:15.22	256.37	54.30	-47.8	-49.6	15.8	0.00e+00	0	56	0	727711744	58	4425
2026-01-01 10:38:16.21	257.10	54.30	-47.8	-49.8	15.5	0.00e+00	0	56	0	729808896	58	4508
2026-01-01 10:38:17.21	257.84	54.29	-47.8	-49.8	15.5	0.00e+00	0	56	0	731906048	58	4542
2026-01-01 10:38:18.19	258.56	54.28	-47.4	-49.2	16.1	0.00e+00	0	56	0	732954624	58	4206
2026-01-01 10:38:19.18	259.29	54.26	-47.2	-48.8	16.5	0.00e+00	0	56	0	735051776	57	4250
2026-01-01 10:38:20.17	260.02	54.24	-47.3	-49.0	16.4	0.00e+00	0	56	0	737148928	57	4350
2026-01-01 10:38:21.16	260.75	54.21	-47.1	-48.7	16.5	0.00e+00	0	56	0	739246080	57	4239
2026-01-01 10:38:22.15	261.47	54.18	-47.5	-49.2	16.1	0.00e+00	0	56	0	740294656	57	4489
2026-01-01 10:38:23.13	262.19	54.15	-47.5	-49.2	15.9	0.00e+00	0	56	0	742391808	57	4484
2026-01-01 10:38:24.12	262.91	54.11	-47.6	-49.3	16.0	0.00e+00	0	56	0	744488960	57	4540
2026-01-01 10:38:25.11	263.63	54.07	-47.9	-49.8	15.5	0.00e+00	0	56	0	746586112	57	4805
2026-01-01 10:38:26.10	264.35	54.02	-47.6	-49.4	15.9	0.00e+00	0	56	0	747634688	57	4593
2026-01-01 10:38:27.09	265.06	53.97	-46.8	-48.4	16.9	0.00e+00	0	56	0	749731840	56	4306
2026-01-01 10:38:28.08	265.77	53.91	-46.6	-48.1	17.2	0.00e+00	0	56	0	751828992	56	4165
2026-01-01 10:38:29.07	266.48	53.85	-46.5	-47.9	17.3	0.00e+00	0	56	0	753926144	56	4079
2026-01-01 10:38:30.06	267.19	53.78	-46.3	-47.7	17.4	0.00e+00	0	56	0	756023296	55	4213
2026-01-01 10:38:31.04	267.89	53.71	-46.5	-48.1	17.0	0.00e+00	0	56	0	757071872	55	4420
2026-01-01 10:38:32.03	268.58	53.64	-47.1	-48.8	16.5	0.00e+00	0	56	0	759169024	56	4531
2026-01-01 10:38:33.02	269.28	53.56	-47.2	-48.9	16.4	0.00e+00	0	56	0	761266176	56	4578
2026-01-01 10:38:34.01	269.97	53.48	-47.0	-48.6	16.7	0.00e+00	0	56	0	763363328	56	4419
2026-01-01 10:38:35.00	270.66	53.40	-47.1	-48.7	16.6	0.00e+00	0	56	0	764411904	56	4467
2026-01-01 10:38:35.98	271.34	53.31	-47.3	-48.9	16.4	0.00e+00	0	56	0	766509056	56	4588
2026-01-01 10:38:36.98	272.02	53.21	-47.7	-49.7	15.6	0.00e+00	0	56	0	768606208	57	4730
2026-01-01 10:38:37.97	272.70	53.11	-47.4	-49.2	16.1	0.00e+00	0	56	0	770703360	57	4459
2026-01-01 10:38:38.95	273.36	53.01	-47.7	-49.6	15.7	0.00e+00	0	56	0	771751936	57	4705
2026-01-01 10:38:39.94	274.03	52.91	-48.0	-50.1	15.3	0.00e+00	0	56	0	773849088	57	4929
2026-01-01 10:38:40.92	274.68	52.80	-47.5	-49.3	16.0	0.00e+00	0	56	0	775946240	58	4291
2026-01-01 10:38:41.91	275.34	52.69	-47.0	-48.7	16.6	0.00e+00	0	56	0	778043392	57	4208
2026-01-01 10:38:42.90	275.99	52.57	-47.6	-49.5	15.8	0.00e+00	0	56	0	780140544	57	4644
2026-01-01 10:38:43.89	276.64	52.46	-48.3	-50.4	14.9	0.00e+00	0	56	0	781189120	58	4860
2026-01-01 10:38:44.87	277.27	52.34	-48.4	-50.7	14.7	0.00e+00	0	56	0	783286272	58	4994
2026-01-01 10:38:45.86	277.91	52.21	-48.1	-50.2	15.1	0.00e+00	0	56	0	785383424	59	4459
2026-01-01 10:38:46.86	278.55	52.08	-48.3	-50.5	14.9	0.00e+00	0	56	0	787480576	59	4611
2026-01-01 10:38:47.84	279.16	51.95	-47.5	-49.2	16.1	0.00e+00	0	56	0	788529152	58	4229
2026-01-01 10:38:48.84	279.79	51.81	-46.9	-48.5	16.8	0.00e+00	0	56	0	790626304	56	4356
2026-01-01 10:38:49.83	280.40	51.67	-46.7	-48.2	17.1	0.00e+00	0	56	0	792723456	56	4230
2026-01-01 10:38:50.81	281.01	51.54	-47.5	-49.4	16.0	0.00e+00	0	56	0	794820608	56	4846
2026-01-01 10:38:51.80	281.61	51.39	-47.6	-49.5	15.8	0.00e+00	0	56	0	795869184	57	4614
2026-01-01 10:38:52.79	282.20	51.24	-47.4	-49.1	16.2	0.00e+00	0	56	0	797966336	57	4396
2026-01-01 10:38:53.77	282.79	51.10	-47.0	-48.5	16.8	0.00e+00	0	56	0	800063488	57	4141
2026-01-01 10:38:54.75	283.37	50.95	-47.3	-49.0	16.2	0.00e+00	0	56	0	802160640	57	4388
2026-01-01 10:38:55.74	283.95	50.79	-47.1	-48.7	16.5	0.00e+00	0	56	0	804257792	57	4226
2026-01-01 10:38:56.74	284.53	50.63	-46.2	-47.6	17.6	0.00e+00	0	56	0	805306368	55	4170
2026-01-01 10:38:57.72	285.09	50.48	-45.8	-47.1	17.9	0.00e+00	0	56	0	807403520	54	4183
2026-01-01 10:38:58.71	285.65	50.32	-45.6	-46.8	18.2	0.00e+00	0	56	0	809500672	54	4051
2026-01-01 10:38:59.70	286.20	50.15	-46.2	-47.6	17.5	0.00e+00	0	56	0	811597824	54	4437
2026-01-01 10:39:00.68	286.75	49.99	-46.6	-48.1	17.1	0.00e+00	0	56	0	812646400	54	4702
2026-01-01 10:39:01.67	287.29	49.82	-46.8	-48.4	16.7	0.00e+00	0	56	0	814743552	55	4583
2026-01-01 10:39:02.66	287.83	49.65	-47.6	-49.5	15.9	0.00e+00	0	56	0	816840704	57	4609
2026-01-01 10:39:03.64	288.35	49.48	-47.2	-48.9	16.3	0.00e+00	0	56	0	818937856	57	4324
2026-01-01 10:39:04.63	288.88	49.31	-46.2	-47.5	17.6	0.00e+00	0	56	0	819986432	55	4132
2026-01-01 10:39:05.61	289.39	49.13	-45.8	-47.1	18.0	0.00e+00	0	56	0	822083584	54	4179
2026-01-01 10:39:06.60	289.91	48.96	-46.9	-48.5	16.7	0.00e+00	0	56	0	824180736	55	4642
2026-01-01 10:39:07.59	290.42	48.78	-48.2	-50.3	15.1	0.00e+00	0	56	0	826277888	58	4801
2026-01-01 10:39:08.57	290.91	48.60	-48.4	-50.7	14.6	7.00e-07	0	56	0	827326464	58	5032
2026-01-01 10:39:09.56	291.41	48.42	-47.7	-49.7	15.6	0.00e+00	0	56	0	829423616	58	4491
2026-01-01 10:39:10.55	291.90	48.23	-48.1	-50.1	15.2	0.00e+00	0	56	0	831520768	58	4702
2026-01-01 10:39:11.54	292.38	48.05	-48.7	-51.0	14.4	0.00e+00	0	56	0	833617920	59	4908
2026-01-01 10:39:12.54	292.87	47.86	-48.9	-51.4	13.9	2.20e-06	0	56	0	835715072	59	5126
2026-01-01 10:39:13.52	293.34	47.67	-49.1	-51.6	13.7	6.80e-06	0	56	0	836763648	59	5263
2026-01-01 10:39:14.52	293.81	47.48	-49.5	-52.4	12.9	1.22e-05	0	56	0	838860800	60	5440
2026-01-01 10:39:15.51	294.27	47.29	-49.6	-52.6	12.7	1.61e-04	0	56	0	840957952	61	5231
2026-01-01 10:39:16.50	294.73	47.10	-49.0	-51.8	13.6	1.90e-05	0	56	0	843055104	61	4779
2026-01-01 10:39:17.48	295.18	46.91	-48.9	-51.6	13.7	3.80e-06	0	56	0	844103680	60	4951
2026-01-01 10:39:18.47	295.62	46.72	-49.4	-52.3	12.9	1.37e-05	0	56	0	846200832	60	5371
2026-01-01 10:39:19.46	296.06	46.53	-49.4	-52.5	12.8	1.02e-04	0	56	0	848297984	61	5199
2026-01-01 10:39:20.45	296.50	46.33	-48.7	-51.2	14.1	3.80e-06	0	56	0	850395136	60	4713
2026-01-01 10:39:21.44	296.93	46.14	-48.2	-50.3	15.1	0.00e+00	0	56	0	851443712	59	4499
2026-01-01 10:39:22.43	297.35	45.94	-48.8	-51.2	14.1	0.00e+00	0	56	0	853540864	59	5025
2026-01-01 10:39:23.42	297.77	45.74	-49.6	-52.8	12.4	6.79e-05	0	56	0	855638016	61	5394
2026-01-01 10:39:24.42	298.19	45.54	-50.2	-54.3	10.9	8.55e-04	0	56	0	857735168	62	6034
2026-01-01 10:39:25.41	298.60	45.34	-50.6	-54.8	10.4	5.42e-03	0	56	0	859832320	63	6056
2026-01-01 10:39:26.40	299.00	45.15	-50.4	-54.2	11.0	5.19e-03	0	56	0	860880896	63	5655
2026-01-01 10:39:27.39	299.40	44.95	-50.3	-54.0	11.3	1.52e-03	0	56	0	862978048	63	5517
2026-01-01 10:39:28.38	299.79	44.75	-50.4	-54.4	10.9	8.21e-04	0	56	0	865075200	63	5744
2026-01-01 10:39:29.38	300.19	44.54	-50.5	-54.9	10.3	2.62e-03	0	56	0	867172352	63	6104
2026-01-01 10:39:30.36	300.57	44.35	-50.9	-56.2	8.8	8.97e-03	0	56	0	868220928	64	6689
2026-01-01 10:39:31.35	300.94	44.14	-50.8	-55.5	9.6	1.26e-02	0	56	0	870318080	64	6202
2026-01-01 10:39:32.34	301.32	43.94	-51.1	-56.3	8.9	2.84e-02	0	56	0	872415232	64	6764
2026-01-01 10:39:33.33	301.69	43.74	-50.9	-56.2	8.9	2.62e-02	0	56	0	874512384	64	6702
2026-01-01 10:39:34.33	302.06	43.54	-51.5	-58.0	7.1	3.28e-02	0	56	0	875560960	64	8196
2026-01-01 10:39:35.31	302.42	43.34	-51.9	-60.0	5.4	3.22e-01	0	56	0	877658112	65	9811
2026-01-01 10:39:36.30	302.77	43.14	-52.2	-62.6	4.2	9.89e-01	0	56	0	879755264	66	12412
2026-01-01 10:39:37.28	303.12	42.94	-51.6	-59.3	5.8	1.10e+00	0	56	0	880803840	66	8560
2026-01-01 10:39:38.27	303.47	42.73	-51.0	-56.5	8.6	6.46e-02	0	56	0	882900992	65	6501
2026-01-01 10:39:39.27	303.82	42.53	-50.7	-55.1	10.0	1.79e-02	0	56	0	883949568	64	5878
2026-01-01 10:39:40.26	304.15	42.33	-50.6	-55.2	9.9	8.22e-03	0	56	0	886046720	64	5936
2026-01-01 10:39:41.26	304.49	42.12	-50.7	-55.2	9.8	1.12e-02	0	56	0	888143872	64	5951
2026-01-01 10:39:42.24	304.82	41.92	-51.1	-56.2	9.0	1.65e-02	0	56	0	890241024	63	7077
2026-01-01 10:39:43.24	305.15	41.72	-51.3	-57.1	8.0	6.57e-02	0	56	0	891289600	64	7416
2026-01-01 10:39:44.23	305.47	41.52	-50.5	-55.1	10.0	3.84e-02	0	56	0	893386752	64	5864
2026-01-01 10:39:45.22	305.79	41.32	-50.3	-54.2	11.0	4.73e-03	0	56	0	895483904	63	5625
2026-01-01 10:39:46.21	306.11	41.11	-49.9	-53.3	11.9	7.93e-04	0	56	0	897581056	62	5353
2026-01-01 10:39:47.20	306.42	40.91	-49.9	-53.5	11.8	4.42e-04	0	56	0	899678208	62	5503
2026-01-01 10:39:48.19	306.73	40.71	-50.2	-54.0	11.2	1.09e-03	0	56	0	900726784	62	5838
2026-01-01 10:39:49.18	307.03	40.51	-50.8	-55.2	10.0	2.99e-03	0	56	0	902823936	63	6335
2026-01-01 10:39:50.17	307.33	40.31	-51.2	-57.2	7.9	5.20e-02	0	56	0	904921088	64	7489
2026-01-01 10:39:51.17	307.63	40.11	-50.5	-55.3	9.7	3.80e-02	0	56	0	907018240	64	6022
2026-01-01 10:39:52.16	307.92	39.91	-49.6	-52.8	12.4	2.15e-03	0	56	0	908066816	62	5063
2026-01-01 10:39:53.15	308.21	39.71	-48.6	-51.0	14.3	9.10e-06	0	56	0	910163968	60	4616
2026-01-01 10:39:54.14	308.50	39.51	-48.0	-50.1	15.1	7.00e-07	0	56	0	912261120	59	4428
2026-01-01 10:39:55.13	308.78	39.31	-48.5	-50.7	14.6	0.00e+00	0	56	0	914358272	59	4732
2026-01-01 10:39:56.12	309.06	39.11	-49.9	-53.5	11.7	9.90e-06	0	56	0	915406848	61	5846
2026-01-01 10:39:57.11	309.33	38.91	-50.9	-55.8	9.3	1.02e-02	0	56	0	917504000	63	6764
2026-01-01 10:39:58.10	309.60	38.71	-50.1	-53.8	11.3	4.18e-03	0	56	0	919601152	63	5388
2026-01-01 10:39:59.09	309.87	38.52	-49.4	-52.6	12.8	2.27e-04	0	56	0	921698304	61	5219
2026-01-01 10:40:00.07	310.14	38.32	-48.5	-50.9	14.4	1.14e-05	0	56	0	923795456	60	4553
2026-01-01 10:40:01.06	310.40	38.13	-48.1	-50.1	15.1	7.00e-07	0	56	0	924844032	59	4438
2026-01-01 10:40:02.05	310.66	37.93	-47.9	-49.8	15.5	0.00e+00	0	56	0	926941184	58	4538
2026-01-01 10:40:03.04	310.92	37.73	-48.2	-50.3	15.0	0.00e+00	0	56	0	929038336	58	4787
2026-01-01 10:40:04.03	311.17	37.54	-48.4	-50.8	14.5	0.00e+00	0	56	0	931135488	58	5070
2026-01-01 10:40:05.02	311.42	37.35	-49.0	-51.9	13.5	7.00e-07	0	56	0	932184064	60	5121
2026-01-01 10:40:06.01	311.67	37.15	-49.5	-52.6	12.7	3.12e-05	0	56	0	934281216	60	5561
2026-01-01 10:40:07.00	311.91	36.96	-49.1	-51.8	13.5	3.81e-05	0	56	0	936378368	60	5071
2026-01-01 10:40:07.99	312.15	36.77	-48.2	-50.4	14.9	2.20e-06	0	56	0	938475520	59	4562
2026-01-01 10:40:08.98	312.39	36.57	-47.2	-48.9	16.3	0.00e+00	0	56	0	940572672	57	4331
2026-01-01 10:40:09.97	312.63	36.38	-46.7	-48.2	17.0	0.00e+00	0	56	0	941621248	56	4214
2026-01-01 10:40:10.96	312.86	36.19	-46.0	-47.4	17.7	0.00e+00	0	56	0	943718400	55	4061
2026-01-01 10:40:11.95	313.09	36.00	-46.8	-48.4	16.8	0.00e+00	0	56	0	945815552	55	4550
2026-01-01 10:40:12.94	313.32	35.81	-47.6	-49.6	15.7	0.00e+00	0	56	0	947912704	56	4935
2026-01-01 10:40:13.93	313.55	35.62	-48.4	-50.9	14.4	0.00e+00	0	56	0	948961280	58	5133
2026-01-01 10:40:14.93	313.77	35.43	-48.6	-51.1	14.3	0.00e+00	0	56	0	951058432	59	4934
2026-01-01 10:40:15.91	313.99	35.25	-48.5	-50.9	14.4	1.50e-06	0	56	0	953155584	59	4852
2026-01-01 10:40:16.91	314.21	35.06	-47.8	-49.8	15.4	0.00e+00	0	56	0	955252736	58	4510
2026-01-01 10:40:17.90	314.43	34.87	-47.7	-49.5	15.8	0.00e+00	0	56	0	956301312	58	4360
2026-01-01 10:40:18.88	314.64	34.69	-47.6	-49.6	15.7	0.00e+00	0	56	0	958398464	58	4404
2026-01-01 10:40:19.87	314.85	34.50	-47.7	-49.7	15.6	0.00e+00	0	56	0	960495616	58	4464
2026-01-01 10:40:20.85	315.06	34.32	-48.3	-50.5	14.7	0.00e+00	0	56	0	962592768	58	4923
2026-01-01 10:40:21.84	315.27	34.14	-48.6	-51.1	14.2	0.00e+00	0	56	0	963641344	59	4963
2026-01-01 10:40:22.83	315.47	33.96	-49.0	-51.7	13.6	1.50e-06	0	56	0	965738496	59	5292
2026-01-01 10:40:23.82	315.67	33.77	-49.4	-52.3	13.0	3.35e-05	0	56	0	967835648	60	5380
2026-01-01 10:40:24.81	315.87	33.59	-49.8	-53.3	11.9	1.23e-04	0	56	0	969932800	61	5675
2026-01-01 10:40:25.79	316.07	33.41	-49.7	-53.0	12.2	4.97e-04	0	56	0	972029952	61	5518
2026-01-01 10:40:26.79	316.27	33.23	-49.4	-52.4	12.9	1.22e-04	0	56	0	973078528	61	5136
2026-01-01 10:40:27.77	316.46	33.05	-48.8	-51.4	13.8	1.06e-05	0	56	0	975175680	60	4862
2026-01-01 10:40:28.77	316.65	32.87	-48.1	-50.3	15.0	0.00e+00	0	56	0	977272832	59	4545
2026-01-01 10:40:29.76	316.84	32.70	-47.8	-49.7	15.5	0.00e+00	0	56	0	979369984	58	4484
2026-01-01 10:40:30.74	317.03	32.52	-47.9	-49.9	15.4	0.00e+00	0	56	0	980418560	58	4565
2026-01-01 10:40:31.73	317.21	32.34	-48.0	-50.1	15.2	7.00e-07	0	56	0	982515712	58	4660
2026-01-01 10:40:32.71	317.39	32.17	-48.3	-50.5	14.7	0.00e+00	0	56	0	984612864	58	4906
2026-01-01 10:40:33.70	317.57	31.99	-48.9	-51.5	13.7	0.00e+00	0	56	0	986710016	59	5192
2026-01-01 10:40:34.69	317.75	31.82	-49.2	-52.0	13.3	1.37e-05	0	56	0	987758592	60	5188
2026-01-01 10:40:35.68	317.93	31.65	-49.8	-53.0	12.1	1.11e-04	0	56	0	989855744	61	5526
2026-01-01 10:40:36.66	318.11	31.48	-49.8	-53.4	11.8	4.90e-04	0	56	0	991952896	61	5753
2026-01-01 10:40:37.64	318.28	31.31	-50.0	-53.5	11.7	4.76e-04	0	56	0	994050048	62	5518
2026-01-01 10:40:38.63	318.45	31.13	-49.5	-52.7	12.5	2.79e-04	0	56	0	996147200	62	5004
2026-01-01 10:40:39.63	318.62	30.96	-49.0	-52.0	13.3	3.81e-05	0	56	0	997195776	60	5199
2026-01-01 10:40:40.62	318.79	30.79	-48.8	-51.5	13.8	1.44e-05	0	56	0	999292928	60	4887
2026-01-01 10:40:41.61	318.96	30.62	-48.2	-50.5	14.7	7.00e-07	0	56	0	1001390080	59	4613
2026-01-01 10:40:42.61	319.13	30.45	-48.1	-50.3	14.9	0.00e+00	0	56	0	1003487232	59	4532
2026-01-01 10:40:43.60	319.29	30.28	-48.2	-50.4	14.9	0.00e+00	0	56	0	1004535808	59	4567
2026-01-01 10:40:44.59	319.45	30.12	-48.0	-50.1	15.2	0.00e+00	0	56	0	1006632960	59	4395
2026-01-01 10:40:45.58	319.61	29.95	-48.3	-50.6	14.7	0.00e+00	0	56	0	1008730112	59	4675
2026-01-01 10:40:46.57	319.77	29.79	-48.5	-50.8	14.4	7.00e-07	0	56	0	1010827264	59	4807
2026-01-01 10:40:47.56	319.93	29.62	-48.9	-51.6	13.7	7.00e-07	0	56	0	1011875840	59	5238
2026-01-01 10:40:48.54	320.08	29.46	-49.3	-52.2	13.0	2.51e-05	0	56	0	1013972992	60	5339
2026-01-01 10:40:49.53	320.24	29.30	-49.3	-52.3	12.9	2.21e-05	0	56	0	1016070144	60	5376
2026-01-01 10:40:50.52	320.39	29.13	-49.4	-52.5	12.7	1.04e-04	0	56	0	1018167296	60	5516
2026-01-01 10:40:51.51	320.54	28.97	-49.1	-52.1	13.2	9.84e-05	0	56	0	1020264448	60	5246
2026-01-01 10:40:52.50	320.69	28.81	-49.2	-52.1	13.1	4.42e-05	0	56	0	1021313024	60	5277
2026-01-01 10:40:53.49	320.84	28.65	-48.9	-51.6	13.6	7.60e-06	0	56	0	1023410176	60	4969
2026-01-01 10:40:54.47	320.99	28.49	-48.5	-51.0	14.3	1.50e-06	0	56	0	1025507328	60	4610
2026-01-01 10:40:55.47	321.13	28.33	-48.4	-50.8	14.5	7.00e-07	0	56	0	1027604480	59	4764
2026-01-01 10:40:56.46	321.28	28.17	-47.9	-50.0	15.2	7.00e-07	0	56	0	1028653056	59	4344
2026-01-01 10:40:57.45	321.42	28.02	-48.0	-50.1	15.2	0.00e+00	0	56	0	1030750208	58	4663
2026-01-01 10:40:58.44	321.56	27.86	-47.4	-49.3	15.9	0.00e+00	0	56	0	1032847360	58	4256
2026-01-01 10:40:59.43	321.70	27.70	-47.1	-48.8	16.4	0.00e+00	0	57	0	1034944512	57	4279
2026-01-01 10:41:00.42	321.84	27.55	-47.3	-49.2	16.0	0.00e+00	0	56	0	1035993088	57	4454
2026-01-01 10:41:01.40	321.98	27.39	-47.3	-49.1	16.1	0.00e+00	0	56	0	1038090240	57	4403
2026-01-01 10:41:02.40	322.11	27.24	-47.8	-49.8	15.4	0.00e+00	0	56	0	1040187392	57	4801
2026-01-01 10:41:03.38	322.25	27.09	-48.3	-50.6	14.6	0.00e+00	0	56	0	1042284544	58	4964
2026-01-01 10:41:04.36	322.38	26.94	-48.4	-50.9	14.4	0.00e+00	0	56	0	1043333120	58	5102
2026-01-01 10:41:05.36	322.51	26.78	-49.1	-52.1	13.1	4.50e-06	0	56	0	1045430272	60	5235
2026-01-01 10:41:06.35	322.65	26.63	-49.4	-52.6	12.6	9.46e-05	0	56	0	1047527424	60	5555
2026-01-01 10:41:07.33	322.77	26.48	-49.1	-52.2	13.0	2.82e-05	0	56	0	1049624576	60	5295
2026-01-01 10:41:08.33	322.90	26.33	-49.1	-52.0	13.2	2.13e-05	0	56	0	1051721728	60	5170
2026-01-01 10:41:09.31	323.03	26.18	-49.0	-51.8	13.4	2.89e-05	0	56	0	1052770304	60	5076
2026-01-01 10:41:10.28	323.16	26.04	-49.0	-51.7	13.4	9.90e-06	0	56	0	1054867456	60	5036
2026-01-01 10:41:11.28	323.28	25.89	-48.9	-51.7	13.5	1.83e-05	0	56	0	1056964608	60	5002
2026-01-01 10:41:12.27	323.41	25.74	-48.3	-50.5	14.7	0.00e+00	0	56	0	1059061760	59	4621
2026-01-01 10:41:13.26	323.53	25.60	-48.1	-50.2	15.0	0.00e+00	0	56	0	1060110336	59	4479
2026-01-01 10:41:14.26	323.65	25.45	-48.2	-50.4	14.8	0.00e+00	0	56	0	1062207488	59	4575
2026-01-01 10:41:15.24	323.77	25.31	-48.2	-50.3	14.9	0.00e+00	0	56	0	1064304640	59	4512
2026-01-01 10:41:16.24	323.89	25.16	-48.1	-50.2	15.1	0.00e+00	0	56	0	1066401792	59	4442
2026-01-01 10:41:17.23	324.01	25.02	-48.3	-50.4	14.8	0.00e+00	0	56	0	1067450368	59	4584
2026-01-01 10:41:18.21	324.13	24.87	-48.4	-50.8	14.4	0.00e+00	0	56	0	1069547520	59	4765
2026-01-01 10:41:19.19	324.25	24.73	-48.6	-51.0	14.1	3.00e-06	0	56	0	1071644672	59	4921
2026-01-01 10:41:20.19	324.36	24.59	-48.8	-51.3	13.9	3.80e-06	0	56	0	1073741824	59	5057
2026-01-01 10:41:21.18	324.48	24.45	-49.0	-51.7	13.5	7.60e-06	0	56	0	1075838976	60	5003
2026-01-01 10:41:22.16	324.59	24.31	-48.9	-51.5	13.7	1.22e-05	0	56	0	1076887552	60	4925
2026-01-01 10:41:23.14	324.70	24.17	-49.1	-51.8	13.4	3.80e-06	0	56	0	1078984704	60	5091
2026-01-01 10:41:24.13	324.82	24.03	-49.0	-51.8	13.4	1.75e-05	0	57	0	1081081856	60	5066
2026-01-01 10:41:25.12	324.93	23.89	-48.9	-51.6	13.6	3.00e-06	0	57	0	1083179008	60	4951
2026-01-01 10:41:26.11	325.04	23.76	-48.8	-51.5	13.7	8.30e-06	0	56	0	1084227584	60	4908
2026-01-01 10:41:27.09	325.14	23.62	-48.6	-51.2	14.0	1.50e-06	0	56	0	1086324736	60	4751
2026-01-01 10:41:28.08	325.25	23.48	-48.8	-51.5	13.7	6.10e-06	0	57	0	1088421888	60	4897
2026-01-01 10:41:29.06	325.36	23.35	-48.5	-50.9	14.2	5.30e-06	0	56	0	1090519040	60	4574
2026-01-01 10:41:30.04	325.46	23.22	-48.4	-50.8	14.5	7.00e-07	0	56	0	1091567616	59	4764
2026-01-01 10:41:31.03	325.57	23.08	-48.6	-51.0	14.2	7.00e-07	0	56	0	1093664768	59	4884
2026-01-01 10:41:32.01	325.67	22.95	-48.1	-50.2	14.9	0.00e+00	0	56	0	1095761920	59	4474
2026-01-01 10:41:33.01	325.78	22.81	-47.8	-49.9	15.3	0.00e+00	0	57	0	1097859072	58	4554
2026-01-01 10:41:33.99	325.88	22.68	-47.6	-49.5	15.6	0.00e+00	0	56	0	1099956224	58	4370
2026-01-01 10:41:34.99	325.98	22.55	-47.4	-49.2	15.9	0.00e+00	0	57	0	1101004800	57	4460
2026-01-01 10:41:35.98	326.09	22.42	-47.3	-49.1	16.1	0.00e+00	0	56	0	1103101952	57	4416
2026-01-01 10:41:36.96	326.19	22.29	-47.1	-48.8	16.3	0.00e+00	0	56	0	1105199104	57	4288
2026-01-01 10:41:37.95	326.29	22.16	-47.1	-48.8	16.4	0.00e+00	0	56	0	1107296256	57	4255
2026-01-01 10:41:38.94	326.39	22.03	-47.3	-49.0	16.1	0.00e+00	0	56	0	1108344832	57	4373
2026-01-01 10:41:39.93	326.48	21.90	-47.3	-49.1	16.0	0.00e+00	0	56	0	1110441984	57	4422
2026-01-01 10:41:40.91	326.58	21.77	-47.3	-49.1	16.0	0.00e+00	0	56	0	1112539136	57	4421
2026-01-01 10:41:41.90	326.68	21.64	-47.6	-49.5	15.6	0.00e+00	0	56	0	1114636288	57	4637
2026-01-01 10:41:42.89	326.77	21.51	-47.5	-49.4	15.7	0.00e+00	0	56	0	1115684864	57	4583
2026-01-01 10:41:43.88	326.87	21.39	-47.4	-49.3	15.8	0.00e+00	0	57	0	1117782016	57	4534
2026-01-01 10:41:44.86	326.96	21.26	-47.6	-49.5	15.6	0.00e+00	0	56	0	1119879168	57	4645
2026-01-01 10:41:45.85	327.06	21.13	-47.9	-49.9	15.2	0.00e+00	0	56	0	1121976320	57	4853
2026-01-01 10:41:46.85	327.15	21.01	-47.9	-50.1	15.0	0.00e+00	0	56	0	1123024896	57	4954
2026-01-01 10:41:47.84	327.24	20.88	-47.9	-50.0	15.1	0.00e+00	0	57	0	1125122048	57	4897
2026-01-01 10:41:48.83	327.33	20.76	-48.0	-50.1	15.0	0.00e+00	0	57	0	1127219200	57	4963
2026-01-01 10:41:49.82	327.42	20.63	-48.2	-50.4	14.8	0.00e+00	0	56	0	1129316352	58	4839
2026-01-01 10:41:50.80	327.51	20.51	-48.1	-50.4	14.7	7.00e-07	0	56	0	1131413504	58	4834
2026-01-01 10:41:51.79	327.60	20.39	-47.8	-49.9	15.2	0.00e+00	0	57	0	1132462080	58	4574
2026-01-01 10:41:52.78	327.69	20.27	-47.7	-49.8	15.3	0.00e+00	0	56	0	1134559232	58	4506
2026-01-01 10:41:53.77	327.78	20.15	-47.8	-49.9	15.3	0.00e+00	0	57	0	1136656384	58	4564
2026-01-01 10:41:54.76	327.87	20.02	-47.5	-49.3	15.8	0.00e+00	0	56	0	1138753536	58	4282
2026-01-01 10:41:55.75	327.95	19.90	-47.4	-49.2	15.9	0.00e+00	0	56	0	1139802112	57	4485
2026-01-01 10:41:56.73	328.04	19.79	-47.3	-49.1	16.0	0.00e+00	0	56	0	1141899264	57	4410
2026-01-01 10:41:57.73	328.13	19.66	-47.1	-48.8	16.3	0.00e+00	0	57	0	1143996416	57	4264
2026-01-01 10:41:58.72	328.21	19.55	-47.1	-48.8	16.3	0.00e+00	0	56	0	1146093568	57	4261
2026-01-01 10:41:59.71	328.30	19.43	-46.9	-48.6	16.5	0.00e+00	0	56	0	1147142144	56	4408
2026-01-01 10:42:00.70	328.38	19.31	-47.1	-48.9	16.2	0.00e+00	0	56	0	1149239296	56	4556
2026-01-01 10:42:01.69	328.46	19.19	-47.2	-48.9	16.2	0.00e+00	0	56	0	1151336448	56	4585
2026-01-01 10:42:02.68	328.55	19.07	-47.1	-48.9	16.3	0.00e+00	0	57	0	1153433600	56	4548
2026-01-01 10:42:03.67	328.63	18.96	-47.4	-49.2	15.9	0.00e+00	0	56	0	1155530752	56	4745
2026-01-01 10:42:04.66	328.71	18.84	-47.4	-49.3	15.7	0.00e+00	0	57	0	1156579328	56	4812
2026-01-01 10:42:05.65	328.79	18.73	-47.4	-49.3	15.7	0.00e+00	0	56	0	1158676480	56	4808
2026-01-01 10:42:06.64	328.87	18.61	-47.7	-49.8	15.3	0.00e+00	0	57	0	1160773632	57	4762
2026-01-01 10:42:07.63	328.95	18.50	-47.8	-49.8	15.3	0.00e+00	0	56	0	1162870784	57	4787
2026-01-01 10:42:08.62	329.03	18.38	-47.8	-49.9	15.2	0.00e+00	0	57	0	1163919360	57	4825
2026-01-01 10:42:09.61	329.11	18.27	-47.7	-49.7	15.3	0.00e+00	0	56	0	1166016512	57	4738
2026-01-01 10:42:10.61	329.19	18.15	-47.5	-49.4	15.7	0.00e+00	0	56	0	1168113664	57	4562
2026-01-01 10:42:11.59	329.26	18.04	-47.6	-49.8	15.4	0.00e+00	0	57	0	1170210816	57	4762
2026-01-01 10:42:12.58	329.34	17.93	-47.6	-49.5	15.5	0.00e+00	0	56	0	1172307968	57	4645
2026-01-01 10:42:13.58	329.42	17.82	-47.3	-49.1	16.0	0.00e+00	0	56	0	1173356544	57	4411
2026-01-01 10:42:14.57	329.49	17.71	-47.2	-49.1	16.0	0.00e+00	0	56	0	1175453696	57	4416
2026-01-01 10:42:15.56	329.57	17.60	-47.1	-48.7	16.3	0.00e+00	0	56	0	1177550848	57	4242
2026-01-01 10:42:16.54	329.64	17.49	-46.8	-48.4	16.6	0.00e+00	0	56	0	1179648000	56	4319
2026-01-01 10:42:17.53	329.72	17.38	-46.7	-48.4	16.6	0.00e+00	0	56	0	1180696576	56	4304
2026-01-01 10:42:18.52	329.79	17.27	-46.8	-48.4	16.6	0.00e+00	0	56	0	1182793728	56	4309
2026-01-01 10:42:19.51	329.86	17.16	-47.1	-48.9	16.2	0.00e+00	0	57	0	1184890880	56	4556
2026-01-01 10:42:20.51	329.94	17.05	-46.9	-48.6	16.4	0.00e+00	0	56	0	1186988032	56	4421
2026-01-01 10:42:21.50	330.01	16.94	-46.6	-48.2	16.8	0.00e+00	0	56	0	1188036608	56	4196
2026-01-01 10:42:22.49	330.08	16.83	-46.2	-47.6	17.2	0.00e+00	0	56	0	1190133760	55	4192
2026-01-01 10:42:23.48	330.15	16.73	-46.0	-47.3	17.5	0.00e+00	0	56	0	1192230912	54	4279
2026-01-01 10:42:24.47	330.22	16.62	-45.8	-47.2	17.6	0.00e+00	0	56	0	1194328064	54	4206
2026-01-01 10:42:25.47	330.29	16.51	-45.9	-47.3	17.6	0.00e+00	0	56	0	1196425216	54	4257
2026-01-01 10:42:26.46	330.36	16.41	-46.0	-47.4	17.5	0.00e+00	0	57	0	1197473792	54	4294
2026-01-01 10:42:27.45	330.43	16.30	-46.1	-47.6	17.3	0.00e+00	0	57	0	1199570944	54	4417
2026-01-01 10:42:28.43	330.50	16.20	-46.1	-47.6	17.3	0.00e+00	0	56	0	1201668096	54	4403
2026-01-01 10:42:29.42	330.57	16.09	-46.1	-47.6	17.2	0.00e+00	0	56	0	1203765248	54	4428
2026-01-01 10:42:30.40	330.64	15.99	-46.3	-47.8	17.1	0.00e+00	0	56	0	1204813824	54	4500
2026-01-01 10:42:31.38	330.70	15.89	-46.4	-47.9	16.9	0.00e+00	0	57	0	1206910976	54	4595
2026-01-01 10:42:32.36	330.77	15.78	-46.5	-48.1	16.7	0.00e+00	0	56	0	1209008128	54	4703
2026-01-01 10:42:33.35	330.84	15.68	-46.8	-48.5	16.4	0.00e+00	0	56	0	1211105280	55	4623
2026-01-01 10:42:34.34	330.90	15.58	-47.0	-48.8	16.1	0.00e+00	0	56	0	1212153856	55	4789
2026-01-01 10:42:35.33	330.97	15.48	-47.3	-49.2	15.8	0.00e+00	0	56	0	1214251008	56	4721
2026-01-01 10:42:36.32	331.04	15.37	-47.4	-49.4	15.6	0.00e+00	0	57	0	1216348160	56	4838
2026-01-01 10:42:37.31	331.10	15.27	-47.6	-49.6	15.4	0.00e+00	0	57	0	1218445312	57	4660
2026-01-01 10:42:38.29	331.17	15.17	-47.9	-50.0	15.0	0.00e+00	0	56	0	1219493888	57	4898
2026-01-01 10:42:39.28	331.23	15.07	-48.0	-50.1	14.9	0.00e+00	0	56	0	1221591040	57	4974
