passes_logs/2026/01/01/R3.0SM8_Murmansk_STILSPACE/R3.0SM8_Murmansk_STILSPACE__20260101_111505_AQUA_rec.log

#Pass ID: 20260101_111505_AQUA
#Satellite: AQUA
#Configuration: AQUA
#almurnet v.1.7.20240730
#Start time: 2026-01-01 11:15:07

#Version: 2.2.20231116
#Station: R3.0SM8_Murmansk_STILSPACE
#Location: 33.092731 lon 68.902999 lat
#TLE: 1 27424U 02022A   25364.96158943  .00001951  00000+0  40088-3 0  9998
#TLE: 2 27424  98.4061 326.1389 0001917  95.3187 305.7939 14.61780362258696

#Time	Az	El	Level	Level2	SNR	BER	BlckErr	Temp	State	Recorded	gain1	gain2
2026-01-01 11:15:07.41	152.23	3.12	-54.6	-74.5	3.8	7.48e-01	0	47	0	0	71	37601
2026-01-01 11:15:08.40	152.23	3.19	-54.5	-74.4	3.8	7.45e-01	0	47	104	0	71	37326
2026-01-01 11:15:09.39	152.23	3.25	-54.5	-74.4	3.8	7.43e-01	0	47	104	0	71	37338
2026-01-01 11:15:10.38	152.23	3.32	-54.5	-74.5	3.8	7.46e-01	0	47	104	0	71	37380
2026-01-01 11:15:11.36	152.23	3.39	-54.5	-74.4	3.8	7.47e-01	0	47	104	0	71	37317
2026-01-01 11:15:12.35	152.24	3.46	-54.5	-74.4	3.8	7.41e-01	0	47	104	0	71	37309
2026-01-01 11:15:13.34	152.24	3.53	-54.5	-74.4	3.8	7.42e-01	0	47	104	0	71	37245
2026-01-01 11:15:14.32	152.24	3.60	-54.5	-74.4	3.8	7.47e-01	0	47	104	0	71	37168
2026-01-01 11:15:15.32	152.24	3.67	-54.5	-74.4	3.8	7.46e-01	0	47	104	0	71	37132
2026-01-01 11:15:16.31	152.24	3.74	-54.4	-74.4	3.8	7.49e-01	0	47	104	0	71	37131
2026-01-01 11:15:17.30	152.24	3.81	-54.4	-74.4	3.8	7.44e-01	0	47	104	0	71	36970
2026-01-01 11:15:18.29	152.25	3.89	-54.4	-74.3	3.8	7.44e-01	0	47	104	0	71	36866
2026-01-01 11:15:19.28	152.25	3.96	-54.3	-74.3	3.8	7.46e-01	0	47	104	0	71	36758
2026-01-01 11:15:20.27	152.25	4.03	-54.3	-74.2	3.8	7.45e-01	0	47	104	0	71	36471
2026-01-01 11:15:21.27	152.25	4.10	-54.3	-74.2	3.8	7.48e-01	0	48	104	0	71	36327
2026-01-01 11:15:22.27	152.25	4.17	-54.2	-74.1	3.8	7.48e-01	0	48	104	0	71	36097
2026-01-01 11:15:23.25	152.25	4.24	-54.1	-74.1	3.8	7.45e-01	0	48	104	0	71	35826
2026-01-01 11:15:24.24	152.26	4.32	-54.1	-74.0	3.8	7.47e-01	0	48	104	0	71	35418
2026-01-01 11:15:25.22	152.26	4.39	-53.9	-73.8	3.8	7.45e-01	0	48	104	0	71	34759
2026-01-01 11:15:26.22	152.26	4.46	-53.7	-73.6	3.8	7.47e-01	0	48	104	0	71	33796
2026-01-01 11:15:27.21	152.26	4.53	-52.9	-68.2	4.4	7.21e-01	0	48	104	0	69	20317
2026-01-01 11:15:28.20	152.26	4.61	-52.4	-63.4	7.8	6.50e-01	91	48	0	1048576	68	12515
2026-01-01 11:15:29.19	152.26	4.68	-52.3	-62.4	8.8	6.35e-01	0	48	0	3145728	68	11114
2026-01-01 11:15:30.16	152.26	4.75	-52.1	-61.2	10.0	6.25e-01	0	48	0	4718592	67	10264
2026-01-01 11:15:31.14	152.27	4.83	-51.9	-60.1	11.2	6.17e-01	0	48	0	6815744	67	9020
2026-01-01 11:15:32.13	152.27	4.90	-51.7	-59.0	12.4	6.12e-01	0	48	0	8912896	67	7930
2026-01-01 11:15:33.12	152.27	4.97	-51.4	-57.8	13.6	6.10e-01	0	48	0	10485760	66	7330
2026-01-01 11:15:34.11	152.27	5.05	-51.0	-56.5	14.9	6.07e-01	0	48	0	12582912	65	6705
2026-01-01 11:15:35.10	152.27	5.12	-51.0	-56.1	15.4	6.06e-01	0	48	0	14155776	65	6398
2026-01-01 11:15:36.08	152.27	5.20	-51.0	-56.0	15.8	6.06e-01	0	49	0	16252928	65	6304
2026-01-01 11:15:37.08	152.28	5.27	-50.7	-55.1	16.6	6.08e-01	0	49	0	17825792	65	5682
2026-01-01 11:15:38.06	152.28	5.35	-50.3	-54.3	17.4	6.07e-01	0	48	0	19922944	64	5479
2026-01-01 11:15:39.05	152.28	5.42	-50.0	-53.6	18.2	6.06e-01	0	49	0	21495808	63	5363
2026-01-01 11:15:40.03	152.28	5.50	-50.0	-53.6	18.2	6.05e-01	0	49	0	23592960	63	5348
2026-01-01 11:15:41.02	152.28	5.57	-49.9	-53.4	18.4	6.07e-01	0	49	0	25165824	63	5219
2026-01-01 11:15:42.00	152.28	5.65	-50.0	-53.5	18.2	6.05e-01	0	49	0	27262976	63	5324
2026-01-01 11:15:43.00	152.28	5.73	-50.3	-54.0	17.8	6.05e-01	0	49	0	28835840	63	5652
2026-01-01 11:15:43.98	152.29	5.80	-50.2	-53.8	18.2	6.06e-01	0	49	0	30932992	63	5486
2026-01-01 11:15:44.96	152.29	5.88	-49.9	-53.2	18.8	6.08e-01	0	49	0	33030144	63	5106
2026-01-01 11:15:45.94	152.29	5.96	-49.8	-52.8	19.2	6.08e-01	0	49	0	34603008	63	4925
2026-01-01 11:15:46.94	152.29	6.03	-49.5	-52.3	19.8	6.06e-01	0	49	0	36700160	62	4895
2026-01-01 11:15:47.93	152.29	6.11	-49.1	-51.6	20.5	6.07e-01	0	49	0	38273024	61	4807
2026-01-01 11:15:48.92	152.29	6.19	-49.1	-51.6	20.5	6.07e-01	0	49	0	40370176	61	4800
2026-01-01 11:15:49.91	152.29	6.27	-49.1	-51.7	20.5	6.08e-01	0	49	0	41943040	61	4820
2026-01-01 11:15:50.90	152.29	6.35	-49.1	-51.7	20.2	6.06e-01	0	49	0	44040192	61	4844
2026-01-01 11:15:51.89	152.30	6.43	-49.3	-51.9	20.3	6.07e-01	0	49	0	45613056	61	4976
2026-01-01 11:15:52.88	152.30	6.51	-49.1	-51.7	20.6	6.03e-01	0	49	0	47710208	61	4820
2026-01-01 11:15:53.87	152.30	6.59	-49.0	-51.4	20.8	6.04e-01	0	49	0	49283072	61	4678
2026-01-01 11:15:54.86	152.30	6.67	-49.0	-51.4	20.8	6.07e-01	0	50	0	51380224	61	4677
2026-01-01 11:15:55.85	152.30	6.75	-48.9	-51.3	21.0	6.06e-01	0	50	0	52953088	61	4629
2026-01-01 11:15:56.84	152.30	6.83	-49.0	-51.4	20.8	6.05e-01	0	50	0	55050240	61	4704
2026-01-01 11:15:57.82	152.30	6.91	-49.0	-51.3	21.0	6.07e-01	0	49	0	57147392	61	4648
2026-01-01 11:15:58.81	152.30	6.99	-48.9	-51.3	21.0	6.06e-01	0	50	0	58720256	61	4608
2026-01-01 11:15:59.80	152.31	7.07	-48.9	-51.3	21.0	6.03e-01	0	49	0	60293120	61	4636
2026-01-01 11:16:00.79	152.31	7.15	-49.1	-51.6	20.8	6.07e-01	0	50	0	62390272	61	4792
2026-01-01 11:16:01.77	152.31	7.23	-49.2	-51.7	20.7	6.08e-01	0	50	0	64487424	61	4815
2026-01-01 11:16:02.76	152.31	7.31	-49.0	-51.4	21.0	6.06e-01	0	50	0	66060288	61	4655
2026-01-01 11:16:03.75	152.31	7.39	-48.8	-51.1	21.3	6.07e-01	0	50	0	68157440	61	4517
2026-01-01 11:16:04.74	152.31	7.48	-48.8	-51.1	21.3	6.05e-01	0	50	0	69730304	61	4535
2026-01-01 11:16:05.73	152.31	7.56	-48.8	-51.1	21.3	6.06e-01	0	50	0	71827456	61	4532
2026-01-01 11:16:06.71	152.31	7.64	-48.8	-51.0	21.4	6.06e-01	0	50	0	73400320	61	4468
2026-01-01 11:16:07.70	152.32	7.73	-48.7	-50.9	21.5	6.06e-01	0	50	0	75497472	61	4436
2026-01-01 11:16:08.69	152.32	7.81	-48.8	-51.0	21.4	6.08e-01	0	50	0	77070336	61	4478
2026-01-01 11:16:09.68	152.32	7.89	-48.9	-51.2	21.2	6.06e-01	0	50	0	79167488	61	4594
2026-01-01 11:16:10.66	152.32	7.98	-48.9	-51.1	21.3	6.05e-01	0	50	0	80740352	61	4535
2026-01-01 11:16:11.65	152.32	8.06	-48.7	-50.9	21.6	6.06e-01	0	50	0	82837504	61	4419
2026-01-01 11:16:12.63	152.32	8.15	-48.7	-50.9	21.6	6.07e-01	0	51	0	84410368	61	4398
2026-01-01 11:16:13.62	152.32	8.23	-48.7	-50.9	21.6	6.07e-01	0	50	0	86507520	61	4394
2026-01-01 11:16:14.61	152.32	8.32	-48.7	-50.8	21.7	6.06e-01	0	51	0	88604672	60	4640
2026-01-01 11:16:15.60	152.32	8.40	-48.7	-50.9	21.6	6.07e-01	0	51	0	90177536	60	4690
2026-01-01 11:16:16.60	152.32	8.49	-48.8	-50.9	21.5	6.06e-01	0	51	0	92274688	60	4705
2026-01-01 11:16:17.59	152.33	8.58	-48.7	-50.9	21.6	6.07e-01	0	51	0	93847552	60	4658
2026-01-01 11:16:18.56	152.33	8.66	-48.9	-51.1	21.4	6.05e-01	0	51	0	95944704	60	4808
2026-01-01 11:16:19.56	152.33	8.75	-49.0	-51.3	21.3	6.06e-01	0	51	0	97517568	60	4873
2026-01-01 11:16:20.55	152.33	8.84	-48.8	-51.1	21.5	6.05e-01	0	51	0	99614720	60	4760
2026-01-01 11:16:21.54	152.33	8.93	-48.9	-51.2	21.4	6.07e-01	0	51	0	101187584	60	4840
2026-01-01 11:16:22.54	152.33	9.02	-48.9	-51.1	21.5	6.06e-01	0	51	0	103284736	60	4778
2026-01-01 11:16:23.53	152.33	9.10	-48.8	-51.0	21.6	6.06e-01	0	51	0	104857600	60	4754
2026-01-01 11:16:24.53	152.33	9.19	-48.7	-50.9	21.7	6.04e-01	0	51	0	106954752	60	4675
2026-01-01 11:16:25.52	152.33	9.28	-48.9	-51.1	21.5	6.08e-01	0	51	0	109051904	60	4801
2026-01-01 11:16:26.51	152.33	9.37	-49.0	-51.2	21.4	6.05e-01	0	51	0	110624768	60	4868
2026-01-01 11:16:27.50	152.33	9.46	-49.1	-51.3	21.3	6.07e-01	0	51	0	112721920	60	4925
2026-01-01 11:16:28.49	152.33	9.56	-49.0	-51.3	21.3	6.07e-01	0	51	0	114294784	60	4901
2026-01-01 11:16:29.46	152.34	9.64	-49.1	-51.3	21.3	6.07e-01	0	51	0	116391936	60	4925
2026-01-01 11:16:30.45	152.34	9.74	-48.9	-51.1	21.6	6.07e-01	0	51	0	117964800	60	4766
2026-01-01 11:16:31.44	152.34	9.83	-48.8	-51.0	21.7	6.06e-01	0	51	0	120061952	60	4707
2026-01-01 11:16:32.43	152.34	9.92	-48.8	-50.9	21.8	6.06e-01	0	51	0	121634816	60	4667
2026-01-01 11:16:33.42	152.34	10.01	-48.9	-51.0	21.6	6.05e-01	0	51	0	123731968	60	4755
2026-01-01 11:16:34.41	152.34	10.10	-48.9	-51.1	21.6	6.06e-01	0	51	0	125304832	60	4769
2026-01-01 11:16:35.41	152.34	10.20	-48.9	-51.0	21.7	6.06e-01	0	51	0	127401984	60	4745
2026-01-01 11:16:36.39	152.34	10.29	-49.0	-51.2	21.5	6.07e-01	0	52	0	128974848	60	4830
2026-01-01 11:16:37.38	152.34	10.39	-48.7	-50.8	21.9	6.07e-01	0	52	0	131072000	60	4614
2026-01-01 11:16:38.38	152.34	10.48	-48.6	-50.6	22.1	6.06e-01	0	51	0	133169152	60	4538
2026-01-01 11:16:39.36	152.34	10.57	-48.5	-50.5	22.2	6.06e-01	0	52	0	134742016	60	4473
2026-01-01 11:16:40.35	152.34	10.67	-48.5	-50.5	22.2	6.09e-01	0	52	0	136839168	60	4449
2026-01-01 11:16:41.34	152.34	10.77	-48.5	-50.5	22.2	6.04e-01	0	52	0	138412032	60	4476
2026-01-01 11:16:42.33	152.34	10.86	-48.6	-50.7	22.0	6.06e-01	0	52	0	140509184	60	4560
2026-01-01 11:16:43.32	152.34	10.96	-48.7	-50.8	21.9	6.06e-01	0	52	0	142082048	60	4648
2026-01-01 11:16:44.31	152.34	11.06	-48.5	-50.5	22.2	6.04e-01	0	52	0	144179200	60	4485
2026-01-01 11:16:45.30	152.34	11.15	-48.4	-50.4	22.3	6.05e-01	0	52	0	145752064	60	4396
2026-01-01 11:16:46.29	152.34	11.25	-48.3	-50.2	22.5	6.09e-01	0	52	0	147849216	60	4312
2026-01-01 11:16:47.28	152.35	11.35	-48.3	-50.2	22.5	6.04e-01	0	52	0	149422080	60	4330
2026-01-01 11:16:48.27	152.35	11.45	-48.3	-50.2	22.5	6.07e-01	0	52	0	151519232	60	4302
2026-01-01 11:16:49.26	152.35	11.55	-48.4	-50.3	22.4	6.06e-01	0	52	0	153616384	60	4390
2026-01-01 11:16:50.25	152.35	11.65	-48.5	-50.4	22.3	6.07e-01	0	52	0	155189248	60	4440
2026-01-01 11:16:51.24	152.35	11.75	-48.3	-50.2	22.5	6.05e-01	0	52	0	156762112	60	4329
2026-01-01 11:16:52.24	152.35	11.85	-48.5	-50.4	22.7	6.07e-01	0	52	0	158859264	59	4683
2026-01-01 11:16:53.22	152.35	11.95	-48.5	-50.4	22.7	6.07e-01	0	52	0	160956416	59	4654
2026-01-01 11:16:54.21	152.35	12.05	-48.5	-50.4	22.7	6.06e-01	0	52	0	162529280	59	4690
2026-01-01 11:16:55.20	152.35	12.15	-48.5	-50.4	22.7	6.06e-01	0	52	0	164626432	59	4673
2026-01-01 11:16:56.20	152.35	12.25	-48.6	-50.5	22.7	6.07e-01	0	52	0	166199296	59	4709
2026-01-01 11:16:57.18	152.35	12.36	-48.5	-50.3	22.7	6.06e-01	0	52	0	168296448	59	4646
2026-01-01 11:16:58.17	152.35	12.46	-48.4	-50.3	22.8	6.08e-01	0	52	0	169869312	59	4621
2026-01-01 11:16:59.15	152.35	12.56	-48.5	-50.4	22.7	6.08e-01	0	52	0	171966464	59	4670
2026-01-01 11:17:00.15	152.35	12.67	-48.4	-50.3	22.8	6.06e-01	0	52	0	173539328	59	4612
2026-01-01 11:17:01.14	152.35	12.77	-48.4	-50.2	22.9	6.07e-01	0	52	0	175636480	59	4562
2026-01-01 11:17:02.13	152.35	12.88	-48.4	-50.2	22.9	6.05e-01	0	52	0	177209344	59	4591
2026-01-01 11:17:03.12	152.35	12.98	-48.5	-50.4	22.8	6.08e-01	0	52	0	179306496	59	4659
2026-01-01 11:17:04.10	152.35	13.09	-48.4	-50.2	23.0	6.06e-01	0	52	0	180879360	59	4563
2026-01-01 11:17:05.09	152.35	13.19	-48.4	-50.2	23.0	6.06e-01	0	52	0	182976512	59	4555
2026-01-01 11:17:06.08	152.35	13.30	-48.4	-50.2	23.0	6.08e-01	0	52	0	185073664	59	4566
2026-01-01 11:17:07.07	152.35	13.41	-48.5	-50.3	22.8	6.06e-01	0	52	0	186646528	59	4648
2026-01-01 11:17:08.06	152.35	13.52	-48.6	-50.5	22.7	6.06e-01	0	53	0	188743680	59	4746
2026-01-01 11:17:09.05	152.35	13.63	-48.6	-50.5	22.7	6.06e-01	0	53	0	190316544	59	4739
2026-01-01 11:17:10.04	152.35	13.74	-48.6	-50.5	22.7	6.07e-01	0	53	0	192413696	59	4749
2026-01-01 11:17:11.03	152.35	13.85	-48.7	-50.6	22.6	6.06e-01	0	52	0	193986560	59	4806
2026-01-01 11:17:12.02	152.35	13.96	-48.9	-50.8	22.4	6.08e-01	0	52	0	196083712	59	4909
2026-01-01 11:17:13.01	152.35	14.07	-48.7	-50.7	22.5	6.05e-01	0	53	0	197656576	59	4822
2026-01-01 11:17:14.01	152.35	14.18	-48.9	-50.9	22.4	6.09e-01	0	53	0	199753728	59	4932
2026-01-01 11:17:15.00	152.35	14.29	-48.7	-50.7	22.2	6.06e-01	0	53	0	201326592	60	4592
2026-01-01 11:17:16.00	152.35	14.41	-49.0	-51.1	21.8	6.06e-01	0	53	0	203423744	60	4807
2026-01-01 11:17:16.98	152.35	14.52	-48.8	-50.9	22.1	6.06e-01	0	53	0	205520896	60	4653
2026-01-01 11:17:17.98	152.34	14.63	-48.6	-50.5	22.4	6.07e-01	0	53	0	207093760	60	4469
2026-01-01 11:17:18.96	152.34	14.75	-48.4	-50.3	22.5	6.07e-01	0	53	0	209190912	60	4380
2026-01-01 11:17:19.94	152.34	14.86	-48.3	-50.2	22.7	6.07e-01	0	53	0	210763776	60	4293
2026-01-01 11:17:20.93	152.34	14.98	-48.3	-50.2	22.7	6.07e-01	0	53	0	212860928	60	4304
2026-01-01 11:17:21.92	152.34	15.09	-48.5	-50.4	22.5	6.06e-01	0	53	0	214433792	60	4430
2026-01-01 11:17:22.91	152.34	15.21	-48.4	-50.3	22.6	6.04e-01	0	53	0	216530944	60	4350
2026-01-01 11:17:23.90	152.34	15.33	-48.5	-50.4	22.7	6.08e-01	0	53	0	218103808	59	4667
2026-01-01 11:17:24.88	152.34	15.45	-48.6	-50.4	22.8	6.05e-01	0	53	0	220200960	59	4693
2026-01-01 11:17:25.87	152.34	15.57	-48.8	-50.7	22.6	6.08e-01	0	53	0	221773824	59	4847
2026-01-01 11:17:26.86	152.34	15.68	-48.7	-50.6	22.7	6.05e-01	0	53	0	223870976	59	4766
2026-01-01 11:17:27.84	152.34	15.80	-48.4	-50.2	23.0	6.06e-01	0	53	0	225443840	59	4590
2026-01-01 11:17:28.83	152.34	15.92	-48.3	-50.0	23.2	6.04e-01	0	53	0	227540992	59	4485
2026-01-01 11:17:29.81	152.34	16.05	-48.2	-49.9	23.3	6.07e-01	0	53	0	229638144	59	4417
2026-01-01 11:17:30.79	152.34	16.17	-48.2	-49.9	23.3	6.06e-01	0	53	0	231211008	59	4428
2026-01-01 11:17:31.79	152.33	16.29	-48.4	-50.1	23.1	6.07e-01	0	53	0	233308160	59	4533
2026-01-01 11:17:32.78	152.33	16.41	-48.2	-49.9	23.3	6.07e-01	0	53	0	234881024	59	4433
2026-01-01 11:17:33.78	152.33	16.54	-48.1	-49.8	23.5	6.06e-01	0	53	0	236978176	59	4342
2026-01-01 11:17:34.76	152.33	16.66	-48.0	-49.7	23.5	6.08e-01	0	53	0	238551040	59	4315
2026-01-01 11:17:35.75	152.33	16.79	-48.0	-49.7	23.5	6.05e-01	0	53	0	240648192	59	4318
2026-01-01 11:17:36.74	152.33	16.92	-48.2	-49.9	23.4	6.06e-01	0	53	0	242221056	59	4400
2026-01-01 11:17:37.73	152.33	17.04	-48.2	-49.9	23.4	6.07e-01	0	53	0	244318208	59	4414
2026-01-01 11:17:38.72	152.33	17.17	-48.3	-50.0	23.3	6.07e-01	0	53	0	245891072	59	4456
2026-01-01 11:17:39.72	152.33	17.30	-48.3	-50.1	23.2	6.03e-01	0	53	0	247988224	59	4514
2026-01-01 11:17:40.71	152.32	17.43	-48.5	-50.3	23.0	6.08e-01	0	53	0	249561088	59	4646
2026-01-01 11:17:41.70	152.32	17.56	-48.6	-50.4	22.9	6.08e-01	0	53	0	251658240	59	4684
2026-01-01 11:17:42.68	152.32	17.69	-48.6	-50.4	22.9	6.05e-01	0	53	0	253755392	59	4705
2026-01-01 11:17:43.67	152.32	17.82	-48.8	-50.7	22.6	6.05e-01	0	54	0	255328256	59	4866
2026-01-01 11:17:44.66	152.32	17.95	-48.8	-50.7	22.6	6.07e-01	0	54	0	256901120	59	4846
2026-01-01 11:17:45.64	152.32	18.09	-49.4	-51.3	22.5	6.08e-01	0	53	0	258998272	60	4904
2026-01-01 11:17:46.64	152.32	18.22	-48.7	-50.7	22.3	6.07e-01	0	54	0	261095424	60	4563
2026-01-01 11:17:47.63	152.31	18.36	-48.7	-50.7	22.3	6.07e-01	0	53	0	262668288	60	4579
2026-01-01 11:17:48.62	152.31	18.49	-48.8	-50.8	22.3	6.06e-01	0	54	0	264765440	60	4618
2026-01-01 11:17:49.61	152.31	18.63	-48.8	-50.8	22.2	6.05e-01	0	54	0	266338304	60	4630
2026-01-01 11:17:50.59	152.31	18.76	-48.6	-50.6	22.4	6.06e-01	0	54	0	268435456	60	4506
2026-01-01 11:17:51.58	152.31	18.90	-48.5	-50.4	22.6	6.07e-01	0	54	0	270008320	60	4432
2026-01-01 11:17:52.58	152.31	19.04	-48.5	-50.4	22.6	6.06e-01	0	54	0	272105472	60	4427
2026-01-01 11:17:53.57	152.30	19.18	-48.6	-50.5	22.6	6.05e-01	0	54	0	273678336	60	4446
2026-01-01 11:17:54.56	152.30	19.32	-48.7	-50.6	22.4	6.06e-01	0	54	0	275775488	60	4526
2026-01-01 11:17:55.56	152.30	19.47	-48.8	-50.7	22.3	6.04e-01	0	54	0	277348352	60	4589
2026-01-01 11:17:56.55	152.30	19.61	-48.8	-50.7	22.3	6.05e-01	0	54	0	279445504	60	4582
2026-01-01 11:17:57.54	152.29	19.75	-48.8	-50.7	22.3	6.05e-01	0	54	0	281542656	60	4592
2026-01-01 11:17:58.53	152.29	19.90	-48.5	-50.4	22.6	6.05e-01	0	54	0	283115520	60	4426
2026-01-01 11:17:59.51	152.29	20.04	-48.4	-50.2	22.8	6.07e-01	0	54	0	285212672	60	4302
2026-01-01 11:18:00.50	152.29	20.19	-48.2	-50.0	23.0	6.07e-01	0	54	0	286785536	60	4217
2026-01-01 11:18:01.50	152.29	20.33	-48.3	-50.0	23.0	6.07e-01	0	54	0	288882688	60	4234
2026-01-01 11:18:02.49	152.28	20.48	-48.4	-50.2	22.8	6.05e-01	0	54	0	290455552	60	4299
2026-01-01 11:18:03.48	152.28	20.63	-48.3	-50.1	22.9	6.07e-01	0	54	0	292552704	60	4285
2026-01-01 11:18:04.47	152.28	20.78	-48.4	-50.3	22.8	6.07e-01	0	54	0	294125568	60	4346
2026-01-01 11:18:05.46	152.28	20.93	-48.4	-50.2	22.8	6.07e-01	0	54	0	296222720	60	4322
2026-01-01 11:18:06.44	152.27	21.08	-48.6	-50.5	22.6	6.06e-01	0	54	0	297795584	60	4450
2026-01-01 11:18:07.43	152.27	21.24	-48.7	-50.6	22.4	6.07e-01	0	54	0	299892736	60	4529
2026-01-01 11:18:08.42	152.27	21.39	-48.7	-50.6	22.4	6.06e-01	0	54	0	301989888	60	4524
2026-01-01 11:18:09.40	152.26	21.54	-48.7	-50.7	22.4	6.06e-01	0	54	0	303562752	60	4569
2026-01-01 11:18:10.39	152.26	21.70	-48.6	-50.5	22.5	6.05e-01	0	54	0	305659904	60	4477
2026-01-01 11:18:11.38	152.26	21.86	-48.5	-50.3	22.7	6.04e-01	0	54	0	307232768	60	4390
2026-01-01 11:18:12.37	152.26	22.01	-48.5	-50.3	22.7	6.05e-01	0	54	0	309329920	60	4384
2026-01-01 11:18:13.36	152.25	22.17	-48.5	-50.4	22.7	6.06e-01	0	54	0	310902784	60	4401
2026-01-01 11:18:14.35	152.25	22.33	-48.6	-50.4	22.6	6.09e-01	0	54	0	312999936	60	4441
2026-01-01 11:18:15.34	152.25	22.50	-48.5	-50.3	22.8	6.06e-01	0	54	0	314572800	60	4388
2026-01-01 11:18:16.33	152.24	22.66	-48.7	-50.7	22.5	6.06e-01	0	54	0	316669952	60	4550
2026-01-01 11:18:17.32	152.24	22.82	-48.9	-50.9	22.2	6.06e-01	0	54	0	318242816	60	4682
2026-01-01 11:18:18.30	152.24	22.98	-48.6	-50.5	22.6	6.05e-01	0	54	0	320339968	60	4453
2026-01-01 11:18:19.30	152.23	23.15	-48.3	-50.1	23.0	6.07e-01	0	54	0	321912832	60	4270
2026-01-01 11:18:20.29	152.23	23.32	-48.5	-50.3	22.9	6.05e-01	0	54	0	324009984	59	4641
2026-01-01 11:18:21.28	152.22	23.49	-48.5	-50.2	23.2	6.07e-01	0	54	0	326107136	59	4586
2026-01-01 11:18:22.27	152.22	23.66	-48.5	-50.3	23.1	6.06e-01	0	54	0	327680000	59	4625
2026-01-01 11:18:23.26	152.22	23.83	-48.6	-50.4	23.0	6.06e-01	0	54	0	329777152	59	4666
2026-01-01 11:18:24.24	152.21	24.00	-48.5	-50.3	23.1	6.07e-01	0	54	0	331350016	59	4620
2026-01-01 11:18:25.23	152.21	24.17	-48.5	-50.3	23.1	6.06e-01	0	54	0	333447168	59	4624
2026-01-01 11:18:26.21	152.20	24.34	-48.6	-50.5	23.0	6.07e-01	0	54	0	335020032	59	4706
2026-01-01 11:18:27.20	152.20	24.52	-48.6	-50.4	23.0	6.06e-01	0	54	0	337117184	59	4680
2026-01-01 11:18:28.19	152.20	24.70	-48.6	-50.4	23.0	6.07e-01	0	54	0	338690048	59	4688
2026-01-01 11:18:29.17	152.19	24.87	-48.7	-50.6	22.9	6.07e-01	0	54	0	340787200	59	4782
2026-01-01 11:18:30.16	152.19	25.05	-48.6	-50.5	22.6	6.07e-01	0	54	0	342360064	60	4462
2026-01-01 11:18:31.14	152.18	25.23	-48.3	-50.0	23.0	6.06e-01	0	54	0	344457216	60	4241
2026-01-01 11:18:32.13	152.18	25.41	-48.4	-50.2	23.3	6.05e-01	0	54	0	346030080	59	4548
2026-01-01 11:18:33.12	152.17	25.60	-48.6	-50.3	23.1	6.07e-01	0	54	0	348127232	59	4646
2026-01-01 11:18:34.11	152.17	25.78	-48.8	-50.7	22.8	6.07e-01	0	54	0	350224384	59	4836
2026-01-01 11:18:35.10	152.16	25.97	-48.9	-50.8	22.7	6.05e-01	0	54	0	351797248	59	4895
2026-01-01 11:18:36.09	152.16	26.16	-48.6	-50.5	22.7	6.07e-01	0	54	0	353370112	60	4467
2026-01-01 11:18:37.09	152.15	26.35	-48.7	-50.6	22.5	6.06e-01	0	54	0	355467264	60	4510
2026-01-01 11:18:38.08	152.15	26.54	-48.9	-50.9	22.3	6.05e-01	0	54	0	357564416	60	4675
2026-01-01 11:18:39.07	152.14	26.73	-48.7	-50.6	22.6	6.07e-01	0	54	0	359137280	60	4503
2026-01-01 11:18:40.06	152.13	26.92	-48.5	-50.3	22.9	6.07e-01	0	54	0	361234432	60	4361
2026-01-01 11:18:41.06	152.13	27.12	-48.5	-50.3	22.9	6.04e-01	0	54	0	362807296	60	4354
2026-01-01 11:18:42.04	152.12	27.32	-48.5	-50.3	22.8	6.06e-01	0	54	0	364904448	60	4384
2026-01-01 11:18:43.02	152.12	27.51	-48.5	-50.4	22.8	6.07e-01	0	54	0	366477312	60	4398
2026-01-01 11:18:44.01	152.11	27.71	-48.8	-50.7	22.5	6.06e-01	0	54	0	368574464	60	4553
2026-01-01 11:18:45.00	152.10	27.91	-48.3	-50.1	23.0	6.07e-01	0	54	0	370147328	60	4273
2026-01-01 11:18:45.98	152.10	28.11	-48.3	-49.9	23.5	6.08e-01	0	54	0	372244480	59	4431
2026-01-01 11:18:46.98	152.09	28.32	-47.9	-49.5	23.9	6.05e-01	0	54	0	373817344	59	4224
2026-01-01 11:18:47.97	152.08	28.53	-47.8	-49.3	24.1	6.06e-01	0	54	0	375914496	59	4130
2026-01-01 11:18:48.96	152.08	28.73	-47.8	-49.4	24.1	6.06e-01	0	54	0	378011648	59	4152
2026-01-01 11:18:49.95	152.07	28.94	-47.9	-49.5	24.0	6.07e-01	0	54	0	379584512	59	4217
2026-01-01 11:18:50.95	152.06	29.16	-48.1	-49.7	23.8	6.06e-01	0	55	0	381681664	59	4299
2026-01-01 11:18:51.93	152.06	29.37	-48.1	-49.7	23.7	6.08e-01	0	55	0	383254528	59	4323
2026-01-01 11:18:52.92	152.05	29.58	-48.1	-49.7	23.8	6.05e-01	0	55	0	385351680	59	4325
2026-01-01 11:18:53.91	152.04	29.80	-48.0	-49.6	23.9	6.07e-01	0	55	0	386924544	59	4256
2026-01-01 11:18:54.90	152.03	30.02	-48.0	-49.6	23.9	6.06e-01	0	55	0	389021696	59	4252
2026-01-01 11:18:55.89	152.03	30.24	-48.1	-49.7	23.7	6.04e-01	0	55	0	390594560	59	4322
2026-01-01 11:18:56.87	152.02	30.46	-48.0	-49.6	23.8	6.06e-01	0	55	0	392691712	59	4291
2026-01-01 11:18:57.87	152.01	30.68	-48.2	-49.8	23.7	6.04e-01	0	55	0	394264576	59	4377
2026-01-01 11:18:58.86	152.00	30.91	-48.2	-49.8	23.6	6.03e-01	0	55	0	396361728	59	4382
2026-01-01 11:18:59.85	151.99	31.13	-48.2	-49.9	23.6	6.05e-01	0	55	0	397934592	59	4396
2026-01-01 11:19:00.84	151.98	31.36	-48.3	-50.0	23.5	6.08e-01	0	55	0	400031744	59	4486
2026-01-01 11:19:01.84	151.98	31.60	-48.4	-50.0	23.5	6.07e-01	0	55	0	402128896	59	4490
2026-01-01 11:19:02.83	151.97	31.83	-48.5	-50.2	22.9	6.07e-01	0	55	0	403701760	59	4589
2026-01-01 11:19:03.82	151.96	32.06	-48.3	-49.9	23.6	6.08e-01	0	55	0	405798912	59	4422
2026-01-01 11:19:04.82	151.95	32.30	-48.1	-49.7	23.8	6.05e-01	0	55	0	407371776	59	4319
2026-01-01 11:19:05.81	151.94	32.54	-48.0	-49.6	23.9	6.06e-01	0	55	0	409468928	59	4257
2026-01-01 11:19:06.80	151.93	32.78	-48.0	-49.5	23.9	6.07e-01	0	55	0	411041792	59	4234
2026-01-01 11:19:07.79	151.92	33.03	-48.1	-49.7	23.8	6.06e-01	0	55	0	413138944	59	4296
2026-01-01 11:19:08.78	151.91	33.27	-48.2	-49.9	23.6	6.05e-01	0	55	0	414711808	59	4392
2026-01-01 11:19:09.77	151.90	33.52	-48.4	-50.0	23.5	6.06e-01	0	55	0	416808960	59	4488
2026-01-01 11:19:10.76	151.89	33.77	-48.5	-50.2	23.3	6.07e-01	0	55	0	418906112	59	4575
2026-01-01 11:19:11.74	151.88	34.02	-48.5	-50.3	23.3	6.06e-01	0	55	0	420478976	59	4601
2026-01-01 11:19:12.74	151.86	34.27	-48.7	-50.4	23.1	6.06e-01	0	55	0	422576128	59	4698
2026-01-01 11:19:13.73	151.85	34.53	-48.7	-50.5	23.0	6.06e-01	0	55	0	424148992	59	4723
2026-01-01 11:19:14.71	151.84	34.79	-48.8	-50.7	22.9	6.07e-01	0	55	0	426246144	59	4817
2026-01-01 11:19:15.70	151.83	35.05	-48.7	-50.5	22.7	6.04e-01	0	55	0	427819008	60	4476
2026-01-01 11:19:16.69	151.82	35.31	-48.9	-50.9	22.4	6.06e-01	0	55	0	429916160	60	4673
2026-01-01 11:19:17.68	151.80	35.58	-49.0	-51.0	22.3	6.05e-01	0	55	0	431489024	60	4724
2026-01-01 11:19:18.67	151.79	35.84	-49.1	-51.1	21.6	6.06e-01	0	55	0	433586176	60	4804
2026-01-01 11:19:19.67	151.78	36.12	-49.2	-51.2	22.0	6.08e-01	0	55	0	435159040	60	4858
2026-01-01 11:19:20.66	151.77	36.39	-49.2	-51.3	22.0	6.06e-01	0	55	0	437256192	60	4885
2026-01-01 11:19:21.64	151.75	36.66	-49.3	-51.4	21.9	6.09e-01	0	55	0	438829056	60	4966
2026-01-01 11:19:22.64	151.74	36.94	-49.4	-51.5	21.8	6.05e-01	0	55	0	440926208	61	4730
2026-01-01 11:19:23.63	151.72	37.22	-49.6	-51.8	21.6	6.07e-01	0	55	0	443023360	61	4880
2026-01-01 11:19:24.62	151.71	37.50	-49.8	-52.1	21.3	6.07e-01	0	55	0	444596224	61	5058
2026-01-01 11:19:25.62	151.69	37.79	-49.9	-52.3	21.1	6.08e-01	0	55	0	446693376	61	5165
2026-01-01 11:19:26.61	151.68	38.08	-49.9	-52.2	21.1	6.07e-01	0	55	0	448266240	62	4847
2026-01-01 11:19:27.60	151.66	38.37	-49.7	-51.9	21.4	6.07e-01	0	55	0	450363392	62	4686
2026-01-01 11:19:28.58	151.65	38.66	-49.6	-51.9	21.4	6.06e-01	0	55	0	451936256	62	4667
2026-01-01 11:19:29.57	151.63	38.95	-49.9	-52.3	21.1	6.06e-01	0	55	0	454033408	62	4902
2026-01-01 11:19:30.56	151.62	39.25	-49.9	-52.2	21.1	6.05e-01	0	55	0	455606272	62	4868
2026-01-01 11:19:31.55	151.60	39.55	-49.7	-51.9	21.4	6.06e-01	0	55	0	457703424	62	4700
2026-01-01 11:19:32.54	151.58	39.86	-49.4	-51.6	21.7	6.06e-01	0	55	0	459276288	62	4518
2026-01-01 11:19:33.53	151.56	40.16	-49.4	-51.5	21.8	6.05e-01	0	55	0	461373440	62	4493
2026-01-01 11:19:34.53	151.55	40.47	-49.2	-51.2	22.1	6.06e-01	0	55	0	463470592	62	4327
2026-01-01 11:19:35.52	151.53	40.79	-49.0	-50.9	22.4	6.08e-01	0	55	0	465043456	61	4418
2026-01-01 11:19:36.50	151.51	41.10	-49.0	-51.0	22.3	6.06e-01	0	55	0	466616320	61	4476
2026-01-01 11:19:37.50	151.49	41.42	-49.2	-51.2	22.1	6.07e-01	0	55	0	468713472	61	4595
2026-01-01 11:19:38.49	151.47	41.74	-49.0	-50.9	22.3	6.05e-01	0	55	0	470810624	61	4435
2026-01-01 11:19:39.47	151.45	42.06	-48.7	-50.6	22.7	6.05e-01	0	55	0	472383488	61	4271
2026-01-01 11:19:40.46	151.43	42.39	-49.0	-51.0	22.3	6.06e-01	0	55	0	474480640	61	4481
2026-01-01 11:19:41.45	151.41	42.72	-49.2	-51.2	22.1	6.06e-01	0	55	0	476053504	61	4579
2026-01-01 11:19:42.44	151.38	43.05	-49.0	-50.9	22.4	6.08e-01	0	55	0	478150656	61	4425
2026-01-01 11:19:43.43	151.36	43.39	-49.0	-51.0	22.3	6.07e-01	0	55	0	479723520	61	4464
2026-01-01 11:19:44.43	151.34	43.73	-49.0	-51.0	22.3	6.05e-01	0	55	0	481820672	61	4460
2026-01-01 11:19:45.41	151.31	44.07	-48.6	-50.5	22.8	6.10e-01	0	55	0	483393536	60	4442
2026-01-01 11:19:46.40	151.29	44.41	-48.4	-50.2	23.1	6.05e-01	0	55	0	485490688	60	4324
2026-01-01 11:19:47.39	151.26	44.76	-48.6	-50.5	22.8	6.06e-01	0	55	0	487063552	60	4449
2026-01-01 11:19:48.38	151.24	45.11	-48.8	-50.7	22.6	6.07e-01	0	55	0	489160704	60	4561
2026-01-01 11:19:49.37	151.21	45.47	-48.8	-50.7	22.6	6.07e-01	0	55	0	491257856	60	4585
2026-01-01 11:19:50.35	151.19	45.82	-48.3	-50.0	23.2	6.06e-01	0	55	0	492830720	60	4232
2026-01-01 11:19:51.35	151.16	46.19	-48.3	-50.0	23.6	6.07e-01	0	55	0	494927872	59	4451
2026-01-01 11:19:52.34	151.13	46.55	-48.5	-50.2	23.4	6.04e-01	0	55	0	496500736	59	4562
2026-01-01 11:19:53.34	151.10	46.93	-48.5	-50.2	23.4	6.06e-01	0	55	0	498597888	59	4568
2026-01-01 11:19:54.32	151.07	47.29	-48.7	-50.4	23.2	6.07e-01	0	55	0	500170752	59	4704
2026-01-01 11:19:55.31	151.04	47.67	-48.7	-50.5	23.1	6.06e-01	0	56	0	502267904	59	4710
2026-01-01 11:19:56.31	151.01	48.05	-48.3	-49.9	23.7	6.05e-01	0	56	0	503840768	59	4406
2026-01-01 11:19:57.30	150.98	48.43	-48.3	-49.9	23.7	6.06e-01	0	55	0	505937920	59	4416
2026-01-01 11:19:58.29	150.94	48.82	-48.4	-50.1	23.5	6.07e-01	0	56	0	507510784	59	4532
2026-01-01 11:19:59.28	150.91	49.21	-48.6	-50.3	23.3	6.05e-01	0	56	0	509607936	59	4632
2026-01-01 11:20:00.26	150.87	49.60	-48.7	-50.5	23.1	6.06e-01	0	55	0	511705088	59	4743
2026-01-01 11:20:01.25	150.84	50.00	-48.3	-49.9	23.7	6.00e-01	0	55	0	513277952	59	4406
2026-01-01 11:20:02.24	150.80	50.40	-48.6	-50.4	23.3	6.04e-01	0	56	0	515375104	59	4655
2026-01-01 11:20:03.23	150.76	50.80	-48.6	-50.4	22.9	6.05e-01	0	55	0	516947968	60	4397
2026-01-01 11:20:04.22	150.72	51.21	-48.3	-50.0	23.5	6.03e-01	0	56	0	519045120	59	4468
2026-01-01 11:20:05.20	150.68	51.61	-48.0	-49.6	23.9	6.03e-01	0	55	0	520617984	59	4271
2026-01-01 11:20:06.19	150.64	52.03	-47.8	-49.3	24.3	6.02e-01	0	56	0	522715136	59	4103
2026-01-01 11:20:07.19	150.59	52.45	-47.6	-49.1	24.4	6.02e-01	0	56	0	524288000	58	4270
2026-01-01 11:20:08.18	150.55	52.87	-47.8	-49.3	24.2	6.03e-01	0	56	0	526385152	58	4387
2026-01-01 11:20:09.17	150.50	53.30	-47.6	-49.1	24.4	6.02e-01	0	56	0	527958016	58	4264
2026-01-01 11:20:10.16	150.45	53.73	-47.4	-48.9	24.7	6.04e-01	0	56	0	530055168	58	4147
2026-01-01 11:20:11.16	150.40	54.17	-47.8	-49.3	24.3	6.02e-01	0	56	0	531628032	58	4349
2026-01-01 11:20:12.14	150.35	54.60	-47.9	-49.4	24.1	6.03e-01	0	56	0	533725184	58	4439
2026-01-01 11:20:13.14	150.30	55.05	-47.9	-49.4	24.2	6.02e-01	0	56	0	535822336	58	4429
2026-01-01 11:20:14.12	150.25	55.49	-47.8	-49.3	24.3	6.02e-01	0	56	0	537395200	58	4353
2026-01-01 11:20:15.12	150.19	55.94	-48.7	-50.4	23.2	6.04e-01	0	56	0	539492352	59	4691
2026-01-01 11:20:16.11	150.13	56.39	-48.4	-50.1	23.6	6.04e-01	0	56	0	541065216	59	4506
2026-01-01 11:20:17.10	150.07	56.85	-48.7	-50.5	23.1	6.05e-01	0	56	0	543162368	59	4732
2026-01-01 11:20:18.09	150.01	57.31	-48.4	-50.1	23.5	6.03e-01	0	56	0	544735232	59	4507
2026-01-01 11:20:19.08	149.94	57.77	-48.7	-50.5	23.2	6.02e-01	0	56	0	546832384	59	4710
2026-01-01 11:20:20.06	149.87	58.24	-48.7	-50.6	22.7	6.02e-01	0	56	0	548405248	60	4505
2026-01-01 11:20:21.05	149.80	58.71	-48.6	-50.4	23.0	6.02e-01	0	56	0	550502400	60	4404
2026-01-01 11:20:22.04	149.73	59.18	-48.7	-50.6	22.7	6.02e-01	0	56	0	552075264	60	4514
2026-01-01 11:20:23.03	149.66	59.66	-49.1	-51.1	22.3	6.06e-01	0	56	0	554172416	60	4787
2026-01-01 11:20:24.02	149.58	60.15	-49.2	-51.2	22.2	6.04e-01	0	56	0	556269568	60	4824
2026-01-01 11:20:25.02	149.49	60.64	-49.3	-51.4	21.9	6.04e-01	0	56	0	557842432	60	4958
2026-01-01 11:20:26.01	149.41	61.13	-49.3	-51.3	22.1	6.02e-01	0	56	0	559939584	60	4896
2026-01-01 11:20:26.99	149.32	61.62	-49.5	-51.6	21.8	6.04e-01	0	56	0	561512448	61	4793
2026-01-01 11:20:27.98	149.23	62.12	-49.6	-51.8	21.6	6.03e-01	0	56	0	563609600	61	4913
2026-01-01 11:20:28.98	149.13	62.62	-49.7	-51.9	21.5	6.03e-01	0	56	0	565182464	61	4961
2026-01-01 11:20:29.97	149.03	63.13	-50.0	-52.4	21.0	6.04e-01	0	56	0	567279616	62	4950
2026-01-01 11:20:30.96	148.92	63.64	-50.1	-52.6	20.9	6.04e-01	0	56	0	568852480	62	5050
2026-01-01 11:20:31.95	148.81	64.15	-50.4	-53.0	20.4	6.04e-01	0	56	0	570949632	63	5026
2026-01-01 11:20:32.93	148.70	64.66	-50.5	-53.2	20.3	6.04e-01	0	56	0	572522496	63	5122
2026-01-01 11:20:33.92	148.58	65.18	-50.7	-53.5	20.0	6.02e-01	0	56	0	574619648	63	5337
2026-01-01 11:20:34.92	148.45	65.71	-50.8	-53.7	19.6	6.02e-01	0	56	0	576716800	64	5153
2026-01-01 11:20:35.91	148.31	66.24	-50.6	-53.4	19.9	6.04e-01	0	56	0	578289664	64	4965
2026-01-01 11:20:36.90	148.17	66.77	-51.0	-54.1	19.3	6.03e-01	0	56	0	580386816	64	5386
2026-01-01 11:20:37.89	148.03	67.31	-51.1	-54.4	19.0	6.04e-01	0	56	0	581959680	64	5529
2026-01-01 11:20:38.89	147.87	67.85	-50.8	-53.8	19.5	6.05e-01	0	56	0	584056832	64	5181
2026-01-01 11:20:39.88	147.70	68.39	-51.3	-54.7	18.8	6.02e-01	0	56	0	585629696	64	5726
2026-01-01 11:20:40.87	147.53	68.93	-51.5	-55.0	18.4	6.03e-01	0	56	0	587726848	65	5629
2026-01-01 11:20:41.86	147.34	69.48	-51.3	-54.6	18.7	6.04e-01	0	56	0	589299712	65	5397
2026-01-01 11:20:42.85	147.15	70.03	-51.4	-54.8	18.6	6.04e-01	0	56	0	591396864	65	5493
2026-01-01 11:20:43.84	146.94	70.58	-51.9	-55.9	17.5	6.02e-01	0	56	0	592969728	66	5891
2026-01-01 11:20:44.82	146.72	71.14	-51.4	-54.9	18.4	6.03e-01	0	56	0	595066880	66	5244
2026-01-01 11:20:45.81	146.48	71.69	-50.9	-53.9	19.5	6.03e-01	0	56	0	597164032	65	4937
2026-01-01 11:20:46.80	146.23	72.26	-51.0	-54.2	19.2	6.03e-01	0	56	0	598736896	65	5105
2026-01-01 11:20:47.79	145.96	72.82	-50.8	-53.7	19.7	6.05e-01	0	56	0	600309760	65	4835
2026-01-01 11:20:48.79	145.67	73.39	-50.6	-53.4	20.0	6.04e-01	0	56	0	602406912	64	4962
2026-01-01 11:20:49.77	145.36	73.96	-50.8	-53.7	19.7	6.03e-01	0	56	0	604504064	64	5153
2026-01-01 11:20:50.76	145.02	74.53	-50.7	-53.5	19.8	6.02e-01	0	56	0	606076928	64	4985
2026-01-01 11:20:51.75	144.66	75.10	-50.3	-52.9	20.4	6.03e-01	0	56	0	608174080	64	4691
2026-01-01 11:20:52.74	144.27	75.68	-50.6	-53.3	20.1	6.04e-01	0	56	0	609746944	64	4922
2026-01-01 11:20:53.74	143.83	76.26	-50.2	-52.8	20.5	6.03e-01	0	56	0	611844096	64	4621
2026-01-01 11:20:54.73	143.37	76.84	-50.5	-53.2	20.3	6.01e-01	0	56	0	613416960	63	5113
2026-01-01 11:20:55.72	142.85	77.42	-50.3	-52.8	20.6	6.02e-01	0	56	0	615514112	63	4910
2026-01-01 11:20:56.71	142.29	78.00	-49.9	-52.2	21.2	6.01e-01	0	56	0	617086976	63	4592
2026-01-01 11:20:57.70	141.67	78.58	-49.6	-51.8	21.5	6.03e-01	0	56	0	619184128	62	4644
2026-01-01 11:20:58.69	140.97	79.17	-49.5	-51.6	21.7	6.03e-01	0	56	0	620756992	62	4534
2026-01-01 11:20:59.68	140.20	79.75	-49.2	-51.2	22.1	6.02e-01	0	56	0	622854144	62	4306
2026-01-01 11:21:00.67	139.33	80.33	-48.8	-50.6	22.7	6.04e-01	0	56	0	624951296	61	4265
2026-01-01 11:21:01.66	138.35	80.91	-48.8	-50.7	22.7	6.04e-01	0	56	0	626524160	61	4297
2026-01-01 11:21:02.66	137.22	81.50	-48.5	-50.2	23.1	6.01e-01	0	56	0	628621312	60	4334
2026-01-01 11:21:03.65	135.93	82.08	-48.5	-50.3	23.0	6.03e-01	0	56	0	630194176	60	4374
2026-01-01 11:21:04.63	134.45	82.65	-48.5	-50.3	23.0	6.03e-01	0	56	0	632291328	60	4381
2026-01-01 11:21:05.63	132.69	83.22	-48.7	-50.5	22.7	6.02e-01	0	56	0	633864192	60	4484
2026-01-01 11:21:06.62	130.61	83.79	-48.9	-50.8	22.5	6.03e-01	0	56	0	635961344	60	4619
2026-01-01 11:21:07.61	128.13	84.34	-49.0	-51.0	22.4	6.02e-01	0	56	0	637534208	60	4706
2026-01-01 11:21:08.60	125.11	84.89	-49.1	-51.1	22.3	6.05e-01	0	56	0	639631360	60	4800
2026-01-01 11:21:09.59	121.37	85.41	-49.3	-51.3	22.0	6.04e-01	0	56	0	641204224	60	4922
2026-01-01 11:21:10.58	116.69	85.91	-49.5	-51.7	21.7	6.03e-01	0	56	0	643301376	61	4847
2026-01-01 11:21:11.58	110.68	86.39	-49.9	-52.2	21.2	6.02e-01	0	56	0	645398528	61	5135
2026-01-01 11:21:12.57	103.05	86.81	-50.4	-53.0	20.4	6.04e-01	0	56	0	646971392	62	5318
2026-01-01 11:21:13.55	93.46	87.15	-50.6	-53.4	20.1	6.03e-01	0	56	0	649068544	63	5235
2026-01-01 11:21:14.54	81.56	87.39	-51.0	-54.1	19.3	6.05e-01	0	56	0	650641408	64	5380
2026-01-01 11:21:15.53	67.91	87.51	-50.8	-53.7	19.7	6.02e-01	0	56	0	652738560	64	5106
2026-01-01 11:21:16.52	53.83	87.47	-50.6	-53.4	19.9	6.03e-01	0	56	0	654311424	64	4978
2026-01-01 11:21:17.52	40.77	87.29	-50.6	-53.4	19.9	6.04e-01	0	56	0	656408576	64	4965
2026-01-01 11:21:18.50	30.04	86.99	-50.6	-53.4	20.0	6.03e-01	0	56	0	657981440	64	4942
2026-01-01 11:21:19.50	21.31	86.61	-50.3	-52.9	20.4	6.03e-01	0	56	0	660078592	64	4680
2026-01-01 11:21:20.49	14.56	86.16	-50.5	-53.3	20.1	6.03e-01	0	56	0	661651456	64	4881
2026-01-01 11:21:21.48	9.27	85.67	-50.3	-52.9	20.3	6.02e-01	0	56	0	663748608	64	4675
2026-01-01 11:21:22.47	5.08	85.16	-50.2	-52.7	20.7	6.05e-01	0	56	0	665845760	63	4862
2026-01-01 11:21:23.46	1.72	84.62	-50.7	-53.5	19.9	6.04e-01	0	56	0	667418624	63	5317
2026-01-01 11:21:24.45	358.98	84.08	-50.0	-52.4	20.9	6.03e-01	0	56	0	669515776	63	4692
2026-01-01 11:21:25.44	356.70	83.52	-49.7	-51.9	21.5	6.03e-01	0	56	0	671088640	62	4678
2026-01-01 11:21:26.43	354.80	82.95	-50.0	-52.4	21.0	6.04e-01	0	56	0	673185792	62	4963
2026-01-01 11:21:27.41	353.20	82.38	-49.3	-51.4	22.0	6.03e-01	0	56	0	674758656	62	4413
2026-01-01 11:21:28.40	351.81	81.81	-49.2	-51.2	22.2	6.03e-01	0	56	0	676855808	61	4569
2026-01-01 11:21:29.39	350.60	81.23	-49.9	-52.3	21.1	6.04e-01	0	56	0	678428672	62	4872
2026-01-01 11:21:30.38	349.55	80.65	-49.0	-51.0	22.3	6.03e-01	0	56	0	680525824	61	4462
2026-01-01 11:21:31.36	348.63	80.07	-49.1	-51.1	22.2	6.04e-01	0	56	0	682098688	61	4506
2026-01-01 11:21:32.35	347.81	79.49	-50.1	-52.5	21.0	6.03e-01	0	56	0	684195840	62	5001
2026-01-01 11:21:33.35	347.07	78.90	-50.1	-52.6	20.8	6.03e-01	0	56	0	685768704	62	5057
2026-01-01 11:21:34.33	346.41	78.32	-50.1	-52.6	20.8	6.04e-01	0	56	0	687865856	62	5061
2026-01-01 11:21:35.33	345.81	77.74	-50.7	-53.5	20.0	6.03e-01	0	56	0	689963008	63	5315
2026-01-01 11:21:36.32	345.27	77.16	-50.8	-53.7	19.7	6.03e-01	0	56	0	691535872	63	5452
2026-01-01 11:21:37.31	344.78	76.58	-51.0	-54.0	19.2	6.04e-01	0	56	0	693633024	64	5334
2026-01-01 11:21:38.30	344.33	76.00	-51.2	-54.4	19.0	6.02e-01	0	56	0	695205888	64	5538
2026-01-01 11:21:39.29	343.92	75.42	-51.0	-54.1	19.3	6.02e-01	0	56	0	697303040	64	5377
2026-01-01 11:21:40.28	343.54	74.85	-50.8	-53.8	19.5	6.03e-01	0	56	0	698875904	64	5193
2026-01-01 11:21:41.27	343.19	74.28	-50.8	-53.7	19.7	6.04e-01	0	56	0	700973056	64	5111
2026-01-01 11:21:42.26	342.87	73.71	-51.0	-54.1	19.3	6.03e-01	0	56	0	702545920	64	5365
2026-01-01 11:21:43.25	342.56	73.14	-50.7	-53.6	19.7	6.04e-01	0	56	0	704643072	64	5088
2026-01-01 11:21:44.24	342.28	72.58	-50.5	-53.2	20.1	6.04e-01	0	56	0	706215936	64	4849
2026-01-01 11:21:45.22	342.03	72.02	-50.8	-53.7	19.7	6.03e-01	0	56	0	708313088	64	5127
2026-01-01 11:21:46.21	341.78	71.46	-50.9	-53.8	19.6	6.04e-01	0	56	0	709885952	64	5214
2026-01-01 11:21:47.20	341.55	70.90	-51.1	-54.3	19.0	6.02e-01	0	56	0	711983104	64	5521
2026-01-01 11:21:48.19	341.34	70.35	-51.6	-55.2	18.2	6.03e-01	0	56	0	713555968	65	5779
2026-01-01 11:21:49.18	341.13	69.80	-51.1	-54.2	19.1	6.04e-01	0	56	0	715653120	65	5158
2026-01-01 11:21:50.17	340.94	69.25	-51.4	-54.8	18.6	6.03e-01	0	56	0	717750272	65	5485
2026-01-01 11:21:51.16	340.76	68.70	-51.6	-55.2	18.2	6.02e-01	0	56	0	719323136	65	5741
2026-01-01 11:21:52.15	340.59	68.16	-51.3	-54.7	18.7	6.01e-01	0	56	0	721420288	65	5444
2026-01-01 11:21:53.14	340.43	67.62	-50.9	-53.8	19.5	6.03e-01	0	56	0	722993152	65	4918
2026-01-01 11:21:54.13	340.28	67.09	-51.0	-54.0	19.3	6.03e-01	0	56	0	725090304	65	5012
2026-01-01 11:21:55.12	340.13	66.56	-51.0	-54.0	19.4	6.03e-01	0	56	0	726663168	65	5020
2026-01-01 11:21:56.11	340.00	66.03	-50.9	-53.9	19.5	6.04e-01	0	56	0	728760320	65	4950
2026-01-01 11:21:57.10	339.86	65.50	-50.6	-53.4	19.9	6.03e-01	0	56	0	730333184	64	4966
2026-01-01 11:21:58.09	339.74	64.98	-50.0	-52.4	21.0	6.02e-01	0	56	0	732430336	63	4663
2026-01-01 11:21:59.08	339.62	64.46	-50.4	-53.0	20.4	6.02e-01	0	56	0	734003200	63	4990
2026-01-01 11:22:00.07	339.51	63.95	-50.3	-52.9	20.5	6.06e-01	0	56	0	736100352	63	4977
2026-01-01 11:22:01.06	339.40	63.44	-49.7	-52.0	21.3	6.02e-01	0	56	0	738197504	63	4468
2026-01-01 11:22:02.05	339.30	62.93	-49.8	-52.1	21.3	6.05e-01	0	56	0	739770368	62	4769
2026-01-01 11:22:03.04	339.20	62.43	-49.9	-52.3	21.1	6.03e-01	0	56	0	741867520	62	4883
2026-01-01 11:22:04.03	339.10	61.93	-49.5	-51.6	21.8	6.00e-01	0	56	0	743440384	62	4516
2026-01-01 11:22:05.02	339.01	61.43	-50.1	-52.6	20.9	6.04e-01	0	56	0	745537536	62	5047
2026-01-01 11:22:06.01	338.92	60.94	-49.7	-51.9	21.4	6.03e-01	0	56	0	747110400	62	4668
2026-01-01 11:22:07.00	338.84	60.45	-49.0	-50.9	22.4	6.03e-01	0	56	0	749207552	61	4406
2026-01-01 11:22:07.99	338.76	59.97	-49.4	-51.5	21.8	6.03e-01	0	56	0	750780416	61	4749
2026-01-01 11:22:08.98	338.68	59.49	-49.7	-52.0	21.4	6.03e-01	0	56	0	752877568	61	4986
2026-01-01 11:22:09.97	338.61	59.01	-49.4	-51.5	21.8	6.01e-01	0	56	0	754450432	61	4740
2026-01-01 11:22:10.96	338.54	58.54	-48.8	-50.7	22.6	6.05e-01	0	56	0	756547584	61	4329
2026-01-01 11:22:11.94	338.47	58.08	-48.5	-50.3	23.0	6.03e-01	0	56	0	758120448	60	4384
2026-01-01 11:22:12.93	338.40	57.61	-48.3	-50.0	23.3	6.03e-01	0	56	0	760217600	60	4196
2026-01-01 11:22:13.92	338.34	57.15	-48.4	-50.1	23.2	6.03e-01	0	56	0	762314752	60	4291
2026-01-01 11:22:14.90	338.28	56.70	-48.3	-50.0	23.2	6.02e-01	0	56	0	763887616	60	4220
2026-01-01 11:22:15.89	338.22	56.24	-48.4	-50.1	23.5	6.03e-01	0	56	0	765984768	59	4514
2026-01-01 11:22:16.88	338.16	55.79	-48.4	-50.1	23.5	6.03e-01	0	56	0	767557632	59	4527
2026-01-01 11:22:17.87	338.10	55.35	-48.6	-50.5	22.9	6.05e-01	0	56	0	769654784	60	4461
2026-01-01 11:22:18.86	338.05	54.90	-48.5	-50.1	23.4	6.03e-01	0	56	0	771227648	59	4541
2026-01-01 11:22:19.85	338.00	54.46	-47.8	-49.4	24.2	6.03e-01	0	56	0	773324800	59	4150
2026-01-01 11:22:20.83	337.95	54.03	-47.8	-49.3	24.3	6.03e-01	0	56	0	774897664	59	4114
2026-01-01 11:22:21.82	337.90	53.60	-48.0	-49.5	24.1	6.04e-01	0	56	0	776994816	59	4232
2026-01-01 11:22:22.81	337.85	53.18	-47.9	-49.5	24.0	6.03e-01	0	56	0	778567680	59	4212
2026-01-01 11:22:23.79	337.81	52.76	-47.9	-49.4	24.1	6.02e-01	0	56	0	780664832	59	4165
2026-01-01 11:22:24.78	337.76	52.34	-47.6	-49.1	24.4	6.04e-01	0	56	0	782237696	58	4259
2026-01-01 11:22:25.77	337.72	51.92	-47.6	-49.1	24.4	6.04e-01	0	56	0	784334848	58	4263
2026-01-01 11:22:26.77	337.68	51.50	-48.0	-49.5	24.1	6.03e-01	0	57	0	786432000	58	4488
2026-01-01 11:22:27.76	337.64	51.10	-48.3	-50.0	23.6	6.02e-01	0	56	0	788004864	58	4748
2026-01-01 11:22:28.75	337.60	50.69	-48.2	-49.8	23.7	6.03e-01	0	56	0	790102016	58	4624
2026-01-01 11:22:29.74	337.56	50.29	-48.3	-49.9	23.7	6.03e-01	0	57	0	791674880	58	4665
2026-01-01 11:22:30.72	337.52	49.90	-48.7	-50.5	23.1	6.04e-01	0	56	0	793772032	59	4743
2026-01-01 11:22:31.71	337.49	49.50	-48.8	-50.7	22.6	6.04e-01	0	56	0	795344896	60	4556
2026-01-01 11:22:32.70	337.45	49.11	-48.5	-50.3	22.9	6.04e-01	0	56	0	797442048	60	4389
2026-01-01 11:22:33.69	337.42	48.72	-48.5	-50.2	23.4	6.03e-01	0	57	0	799014912	59	4554
2026-01-01 11:22:34.68	337.39	48.34	-48.4	-50.0	23.5	6.02e-01	0	56	0	801112064	59	4489
2026-01-01 11:22:35.67	337.35	47.96	-48.5	-50.3	23.3	6.02e-01	0	57	0	802684928	59	4608
2026-01-01 11:22:36.67	337.32	47.58	-48.6	-50.3	23.2	6.04e-01	0	56	0	804782080	59	4635
2026-01-01 11:22:37.65	337.29	47.21	-48.4	-50.1	23.5	6.03e-01	0	57	0	806354944	59	4524
2026-01-01 11:22:38.65	337.26	46.84	-48.5	-50.2	23.3	6.00e-01	0	57	0	808452096	59	4593
2026-01-01 11:22:39.64	337.23	46.47	-48.7	-50.4	23.2	6.03e-01	0	57	0	810024960	59	4689
2026-01-01 11:22:40.64	337.21	46.10	-48.6	-50.3	23.3	6.05e-01	0	57	0	812122112	59	4624
2026-01-01 11:22:41.63	337.18	45.74	-48.4	-50.1	23.5	6.02e-01	0	57	0	814219264	59	4508
2026-01-01 11:22:42.62	337.15	45.39	-48.4	-50.1	23.5	6.01e-01	0	57	0	815792128	59	4494
2026-01-01 11:22:43.61	337.13	45.03	-48.5	-50.2	23.3	6.03e-01	0	57	0	817889280	59	4589
2026-01-01 11:22:44.60	337.10	44.69	-48.6	-50.4	23.2	6.03e-01	0	57	0	819462144	59	4662
2026-01-01 11:22:45.58	337.08	44.34	-48.7	-50.5	23.1	6.03e-01	0	56	0	821559296	59	4712
2026-01-01 11:22:46.58	337.05	44.00	-48.6	-50.4	22.7	6.00e-01	0	57	0	823132160	59	4664
2026-01-01 11:22:47.57	337.03	43.66	-48.7	-50.4	23.1	6.03e-01	0	56	0	825229312	59	4704
2026-01-01 11:22:48.56	337.01	43.32	-48.7	-50.5	22.8	6.03e-01	0	57	0	826802176	60	4474
2026-01-01 11:22:49.55	336.98	42.98	-48.8	-50.7	22.5	6.04e-01	0	57	0	828899328	60	4593
2026-01-01 11:22:50.54	336.96	42.65	-48.6	-50.4	22.8	6.04e-01	0	56	0	830472192	60	4413
2026-01-01 11:22:51.52	336.94	42.33	-48.5	-50.3	22.9	6.03e-01	0	56	0	832569344	60	4379
2026-01-01 11:22:52.50	336.92	42.01	-48.6	-50.5	22.7	6.04e-01	0	57	0	834142208	60	4468
2026-01-01 11:22:53.49	336.90	41.69	-49.0	-50.9	22.3	6.04e-01	0	56	0	836239360	60	4694
2026-01-01 11:22:54.49	336.88	41.36	-49.1	-51.1	22.2	6.02e-01	0	56	0	838336512	60	4791
2026-01-01 11:22:55.48	336.86	41.05	-49.2	-51.2	22.0	6.03e-01	0	56	0	839909376	60	4863
2026-01-01 11:22:56.46	336.84	40.74	-49.2	-51.3	22.0	6.05e-01	0	57	0	842006528	60	4890
2026-01-01 11:22:57.45	336.83	40.43	-49.3	-51.4	21.8	6.01e-01	0	56	0	843579392	60	4951
2026-01-01 11:22:58.44	336.81	40.12	-49.2	-51.3	21.9	6.01e-01	0	56	0	845676544	60	4908
2026-01-01 11:22:59.43	336.79	39.82	-49.3	-51.4	21.8	6.04e-01	0	57	0	847249408	60	4954
2026-01-01 11:23:00.42	336.77	39.51	-49.4	-51.6	21.6	6.03e-01	0	57	0	849346560	61	4797
2026-01-01 11:23:01.40	336.76	39.22	-49.5	-51.7	21.5	6.05e-01	0	57	0	850919424	61	4842
2026-01-01 11:23:02.39	336.74	38.92	-49.2	-51.2	22.0	6.01e-01	0	56	0	853016576	61	4577
2026-01-01 11:23:03.39	336.73	38.62	-49.0	-51.0	22.3	6.03e-01	0	57	0	854589440	61	4455
2026-01-01 11:23:04.38	336.71	38.33	-49.0	-51.0	22.2	6.03e-01	0	57	0	856686592	61	4461
2026-01-01 11:23:05.37	336.69	38.05	-49.0	-51.0	22.2	6.01e-01	0	57	0	858783744	61	4490
2026-01-01 11:23:06.36	336.68	37.76	-49.2	-51.3	22.0	6.04e-01	0	57	0	860356608	61	4618
2026-01-01 11:23:07.35	336.67	37.48	-49.3	-51.4	21.8	6.03e-01	0	57	0	862453760	61	4683
2026-01-01 11:23:08.34	336.65	37.20	-49.2	-51.3	21.9	6.03e-01	0	56	0	864026624	61	4649
2026-01-01 11:23:09.33	336.64	36.92	-49.2	-51.4	21.9	6.03e-01	0	57	0	866123776	61	4658
2026-01-01 11:23:10.32	336.62	36.64	-49.2	-51.3	21.9	6.03e-01	0	57	0	867696640	61	4619
2026-01-01 11:23:11.31	336.61	36.37	-49.0	-51.0	22.2	6.03e-01	0	56	0	869793792	61	4470
2026-01-01 11:23:12.30	336.60	36.10	-48.7	-50.6	22.6	6.02e-01	0	57	0	871366656	61	4258
2026-01-01 11:23:13.29	336.59	35.83	-48.8	-50.7	22.5	6.04e-01	0	56	0	873463808	61	4336
2026-01-01 11:23:14.27	336.57	35.57	-49.0	-51.0	22.2	6.00e-01	0	56	0	875036672	61	4476
2026-01-01 11:23:15.25	336.56	35.30	-48.8	-50.7	22.5	6.03e-01	0	57	0	877133824	61	4300
2026-01-01 11:23:16.24	336.55	35.04	-48.6	-50.4	22.7	6.04e-01	0	56	0	878706688	60	4434
2026-01-01 11:23:17.23	336.54	34.78	-48.4	-50.3	22.9	6.03e-01	0	57	0	880803840	60	4341
2026-01-01 11:23:18.22	336.53	34.53	-48.4	-50.2	23.0	6.03e-01	0	57	0	882900992	60	4323
2026-01-01 11:23:19.20	336.52	34.27	-48.3	-50.1	23.1	6.04e-01	0	57	0	884473856	60	4267
2026-01-01 11:23:20.19	336.50	34.02	-48.4	-50.1	23.4	6.05e-01	0	57	0	886571008	59	4517
2026-01-01 11:23:21.18	336.49	33.77	-48.4	-50.1	23.4	6.04e-01	0	57	0	888143872	59	4527
2026-01-01 11:23:22.18	336.48	33.52	-48.4	-50.1	23.4	6.04e-01	0	57	0	890241024	59	4519
2026-01-01 11:23:23.17	336.47	33.27	-48.0	-49.6	23.8	6.04e-01	0	57	0	891813888	59	4286
2026-01-01 11:23:24.15	336.46	33.03	-47.8	-49.3	24.1	6.04e-01	0	57	0	893911040	59	4112
2026-01-01 11:23:25.13	336.45	32.79	-47.6	-49.1	24.3	6.02e-01	0	57	0	895483904	58	4272
2026-01-01 11:23:26.13	336.44	32.55	-47.6	-49.0	24.3	6.02e-01	0	57	0	897581056	58	4239
2026-01-01 11:23:27.12	336.43	32.31	-47.7	-49.2	24.2	6.04e-01	0	57	0	899153920	58	4295
2026-01-01 11:23:28.11	336.43	32.08	-47.6	-49.1	24.4	6.03e-01	0	56	0	901251072	58	4245
2026-01-01 11:23:29.10	336.42	31.84	-47.7	-49.2	24.2	6.02e-01	0	57	0	902823936	58	4337
2026-01-01 11:23:30.09	336.41	31.61	-47.6	-49.1	24.3	6.04e-01	0	57	0	904921088	58	4270
2026-01-01 11:23:31.07	336.40	31.39	-47.6	-49.0	24.3	6.02e-01	0	57	0	906493952	58	4242
2026-01-01 11:23:32.07	336.39	31.15	-47.7	-49.2	24.2	6.02e-01	0	57	0	908591104	58	4326
2026-01-01 11:23:33.05	336.38	30.93	-47.7	-49.2	24.2	6.02e-01	0	57	0	910163968	58	4326
2026-01-01 11:23:34.04	336.37	30.71	-47.9	-49.4	24.0	6.00e-01	0	57	0	912261120	58	4435
2026-01-01 11:23:35.03	336.37	30.48	-48.1	-49.7	23.7	6.03e-01	0	57	0	914358272	58	4570
2026-01-01 11:23:36.01	336.36	30.27	-48.0	-49.6	23.8	6.03e-01	0	57	0	915931136	58	4535
2026-01-01 11:23:37.00	336.35	30.05	-48.0	-49.6	23.8	6.02e-01	0	56	0	918028288	58	4534
2026-01-01 11:23:38.00	336.34	29.83	-48.1	-49.7	23.7	6.03e-01	0	57	0	919601152	58	4588
2026-01-01 11:23:38.99	336.34	29.61	-48.0	-49.6	23.8	6.02e-01	0	57	0	921698304	58	4515
2026-01-01 11:23:39.97	336.33	29.40	-47.9	-49.5	23.8	6.00e-01	0	57	0	923271168	58	4491
2026-01-01 11:23:40.96	336.32	29.19	-47.9	-49.5	23.8	6.03e-01	0	57	0	925368320	58	4469
2026-01-01 11:23:41.95	336.32	28.98	-48.0	-49.6	23.8	6.02e-01	0	57	0	926941184	58	4517
2026-01-01 11:23:42.94	336.31	28.77	-48.2	-49.9	23.4	6.04e-01	0	57	0	929038336	58	4691
2026-01-01 11:23:43.93	336.30	28.56	-48.0	-49.6	23.7	6.05e-01	0	57	0	930611200	58	4501
2026-01-01 11:23:44.92	336.30	28.36	-47.6	-49.2	24.1	6.02e-01	0	57	0	932708352	58	4304
2026-01-01 11:23:45.92	336.29	28.15	-47.5	-48.9	24.4	6.02e-01	0	57	0	934805504	58	4168
2026-01-01 11:23:46.90	336.28	27.95	-47.5	-48.9	24.4	6.02e-01	0	57	0	936378368	58	4178
2026-01-01 11:23:47.89	336.28	27.75	-47.6	-49.1	24.3	6.02e-01	0	57	0	938475520	58	4247
2026-01-01 11:23:48.88	336.27	27.55	-47.7	-49.2	24.2	6.05e-01	0	57	0	940048384	58	4310
2026-01-01 11:23:49.87	336.27	27.36	-47.8	-49.3	24.1	6.01e-01	0	57	0	942145536	58	4373
2026-01-01 11:23:50.86	336.26	27.16	-48.0	-49.6	23.8	6.03e-01	0	57	0	943718400	58	4508
2026-01-01 11:23:51.85	336.26	26.97	-48.0	-49.7	23.7	6.04e-01	0	57	0	945815552	58	4559
2026-01-01 11:23:52.84	336.25	26.78	-48.2	-49.9	23.5	6.03e-01	0	57	0	947388416	58	4669
2026-01-01 11:23:53.83	336.25	26.58	-48.2	-49.9	23.5	6.02e-01	0	57	0	949485568	58	4670
2026-01-01 11:23:54.82	336.24	26.39	-48.3	-50.1	23.3	6.03e-01	0	57	0	951058432	58	4773
2026-01-01 11:23:55.82	336.24	26.20	-48.3	-50.1	23.4	6.03e-01	0	57	0	953155584	59	4500
2026-01-01 11:23:56.80	336.23	26.02	-48.4	-50.1	23.2	6.02e-01	0	57	0	954728448	59	4543
2026-01-01 11:23:57.79	336.23	25.83	-48.4	-50.1	23.3	6.05e-01	0	57	0	956825600	59	4528
2026-01-01 11:23:58.78	336.22	25.65	-48.3	-50.1	23.3	6.04e-01	0	57	0	958922752	59	4500
2026-01-01 11:23:59.77	336.22	25.47	-48.4	-50.2	23.2	6.04e-01	0	57	0	960495616	59	4577
2026-01-01 11:24:00.75	336.21	25.29	-48.6	-50.4	23.0	6.02e-01	0	57	0	962592768	59	4656
2026-01-01 11:24:01.74	336.21	25.11	-48.6	-50.5	22.9	6.06e-01	0	57	0	964165632	59	4721
2026-01-01 11:24:02.73	336.20	24.93	-48.6	-50.4	22.9	6.04e-01	0	57	0	966262784	59	4704
2026-01-01 11:24:03.72	336.20	24.75	-48.8	-50.8	22.6	6.04e-01	0	57	0	967835648	59	4879
2026-01-01 11:24:04.70	336.20	24.58	-48.4	-50.3	22.7	6.05e-01	0	57	0	969932800	60	4368
2026-01-01 11:24:05.69	336.19	24.40	-48.3	-50.2	22.8	6.04e-01	0	57	0	971505664	60	4301
2026-01-01 11:24:06.68	336.19	24.23	-48.3	-50.1	22.9	6.01e-01	0	57	0	973602816	60	4289
2026-01-01 11:24:07.66	336.18	24.06	-48.4	-50.3	22.7	6.05e-01	0	57	0	975175680	60	4363
2026-01-01 11:24:08.65	336.18	23.89	-48.6	-50.6	22.5	6.05e-01	0	57	0	977272832	60	4508
2026-01-01 11:24:09.64	336.18	23.72	-48.7	-50.6	22.4	6.04e-01	0	57	0	978845696	60	4524
2026-01-01 11:24:10.63	336.17	23.55	-48.4	-50.3	22.6	6.04e-01	0	57	0	980942848	60	4344
2026-01-01 11:24:11.62	336.17	23.38	-48.3	-50.0	22.9	6.01e-01	0	57	0	982515712	60	4241
2026-01-01 11:24:12.61	336.17	23.21	-48.2	-50.0	22.9	6.04e-01	0	57	0	984612864	60	4208
2026-01-01 11:24:13.60	336.16	23.05	-48.5	-50.3	22.9	6.02e-01	0	57	0	986185728	59	4642
2026-01-01 11:24:14.60	336.16	22.88	-48.4	-50.2	23.0	6.01e-01	0	57	0	988282880	59	4572
2026-01-01 11:24:15.59	336.16	22.72	-48.4	-50.3	22.9	6.05e-01	0	57	0	990380032	59	4608
2026-01-01 11:24:16.58	336.15	22.56	-48.5	-50.4	22.7	6.05e-01	0	57	0	991952896	59	4682
2026-01-01 11:24:17.57	336.15	22.40	-48.7	-50.7	22.4	6.05e-01	0	57	0	994050048	59	4818
2026-01-01 11:24:18.56	336.15	22.24	-48.8	-50.8	22.2	6.03e-01	0	57	0	995622912	59	4909
2026-01-01 11:24:19.55	336.15	22.08	-48.9	-50.9	22.0	6.02e-01	0	57	0	997720064	59	4972
2026-01-01 11:24:20.54	336.14	21.92	-48.8	-51.0	21.6	6.01e-01	0	57	0	999292928	60	4734
2026-01-01 11:24:21.53	336.14	21.76	-49.1	-51.5	21.0	6.04e-01	0	57	0	1001390080	60	5026
2026-01-01 11:24:22.52	336.14	21.61	-49.4	-52.0	20.4	6.01e-01	0	57	0	1002962944	61	5021
2026-01-01 11:24:23.51	336.13	21.45	-49.6	-52.3	20.1	6.03e-01	0	57	0	1005060096	61	5197
2026-01-01 11:24:24.50	336.13	21.30	-49.7	-52.5	19.9	6.04e-01	0	57	0	1006632960	61	5295
2026-01-01 11:24:25.49	336.13	21.15	-49.7	-52.6	19.7	6.04e-01	0	57	0	1008730112	61	5385
2026-01-01 11:24:26.48	336.13	21.00	-49.7	-52.5	19.8	6.02e-01	0	57	0	1010827264	61	5320
2026-01-01 11:24:27.47	336.13	20.85	-49.6	-52.4	19.9	6.05e-01	0	57	0	1012400128	61	5262
2026-01-01 11:24:28.46	336.12	20.70	-49.6	-52.4	19.9	6.03e-01	0	57	0	1014497280	61	5259
2026-01-01 11:24:29.44	336.12	20.55	-49.7	-52.5	19.9	6.01e-01	0	57	0	1016070144	61	5320
2026-01-01 11:24:30.42	336.12	20.40	-49.7	-52.4	20.0	6.03e-01	0	57	0	1018167296	61	5265
2026-01-01 11:24:31.41	336.12	20.26	-49.3	-51.9	20.5	6.03e-01	0	57	0	1019740160	61	4942
2026-01-01 11:24:32.41	336.12	20.11	-49.0	-51.4	21.0	6.03e-01	0	57	0	1021837312	61	4658
2026-01-01 11:24:33.40	336.11	19.97	-48.7	-50.9	21.5	6.02e-01	0	57	0	1023410176	60	4652
2026-01-01 11:24:34.39	336.11	19.82	-48.4	-50.5	21.9	6.02e-01	0	57	0	1025507328	60	4483
2026-01-01 11:24:35.39	336.11	19.68	-48.4	-50.4	22.0	6.03e-01	0	57	0	1027080192	60	4426
2026-01-01 11:24:36.38	336.11	19.54	-48.2	-50.2	22.2	6.02e-01	0	57	0	1029177344	60	4328
2026-01-01 11:24:37.36	336.11	19.40	-48.3	-50.2	22.5	6.03e-01	0	57	0	1031274496	59	4590
2026-01-01 11:24:38.34	336.10	19.26	-48.2	-50.1	22.7	6.03e-01	0	57	0	1032847360	59	4515
2026-01-01 11:24:39.33	336.10	19.12	-48.2	-50.1	22.8	6.04e-01	0	57	0	1034944512	59	4506
2026-01-01 11:24:40.32	336.10	18.98	-48.2	-50.0	22.9	6.04e-01	0	57	0	1036517376	59	4481
2026-01-01 11:24:41.31	336.10	18.84	-48.4	-50.3	22.8	6.01e-01	0	57	0	1038614528	59	4603
2026-01-01 11:24:42.29	336.10	18.71	-48.7	-50.6	22.4	6.02e-01	0	57	0	1040187392	59	4798
2026-01-01 11:24:43.29	336.10	18.57	-48.7	-50.7	22.4	6.01e-01	0	57	0	1042284544	59	4830
2026-01-01 11:24:44.27	336.10	18.44	-48.8	-50.8	22.3	6.05e-01	0	57	0	1043857408	59	4909
2026-01-01 11:24:45.25	336.10	18.30	-48.5	-50.5	22.2	6.05e-01	0	57	0	1045954560	60	4478
2026-01-01 11:24:46.24	336.09	18.17	-48.3	-50.1	22.6	6.03e-01	0	57	0	1047527424	60	4278
2026-01-01 11:24:47.23	336.09	18.04	-48.4	-50.2	22.9	6.02e-01	0	57	0	1049624576	59	4567
2026-01-01 11:24:48.22	336.09	17.91	-48.4	-50.3	22.9	6.04e-01	0	57	0	1051197440	59	4609
2026-01-01 11:24:49.20	336.09	17.78	-48.5	-50.4	22.8	6.02e-01	0	57	0	1053294592	59	4673
2026-01-01 11:24:50.19	336.09	17.64	-48.6	-50.5	22.6	6.03e-01	0	57	0	1054867456	59	4759
2026-01-01 11:24:51.17	336.09	17.52	-48.7	-50.7	22.5	6.03e-01	0	57	0	1056964608	59	4849
2026-01-01 11:24:52.17	336.09	17.39	-48.5	-50.4	22.7	6.03e-01	0	57	0	1059061760	59	4699
2026-01-01 11:24:53.16	336.09	17.26	-48.4	-50.2	22.9	6.05e-01	0	57	0	1060634624	59	4578
2026-01-01 11:24:54.14	336.09	17.13	-48.4	-50.2	22.9	6.04e-01	0	57	0	1062207488	59	4585
2026-01-01 11:24:55.13	336.09	17.01	-48.4	-50.2	22.9	6.04e-01	0	57	0	1064304640	59	4598
2026-01-01 11:24:56.12	336.08	16.88	-48.5	-50.4	22.8	6.03e-01	0	57	0	1066401792	59	4654
2026-01-01 11:24:57.11	336.08	16.75	-48.6	-50.5	22.6	6.02e-01	0	57	0	1067974656	59	4740
2026-01-01 11:24:58.10	336.08	16.63	-48.5	-50.4	22.7	6.03e-01	0	57	0	1070071808	59	4694
2026-01-01 11:24:59.09	336.08	16.51	-48.6	-50.4	22.7	6.01e-01	0	57	0	1071644672	59	4697
2026-01-01 11:25:00.09	336.08	16.38	-48.6	-50.6	22.6	6.02e-01	0	57	0	1073741824	59	4762
2026-01-01 11:25:01.08	336.08	16.26	-48.9	-50.9	22.3	6.03e-01	0	57	0	1075314688	59	4932
2026-01-01 11:25:02.06	336.08	16.14	-48.6	-50.5	22.5	6.03e-01	0	57	0	1077411840	59	4759
2026-01-01 11:25:03.04	336.08	16.02	-48.8	-50.8	22.3	6.06e-01	0	57	0	1078984704	59	4907
2026-01-01 11:25:04.03	336.08	15.90	-48.6	-50.6	22.6	6.03e-01	0	57	0	1081081856	59	4760
2026-01-01 11:25:05.02	336.08	15.78	-48.5	-50.4	22.7	6.03e-01	0	57	0	1082654720	59	4685
2026-01-01 11:25:06.00	336.08	15.66	-48.4	-50.2	22.8	6.03e-01	0	57	0	1084751872	59	4588
2026-01-01 11:25:07.00	336.08	15.54	-48.5	-50.3	22.8	6.05e-01	0	57	0	1086324736	59	4634
2026-01-01 11:25:07.98	336.08	15.42	-48.4	-50.2	22.9	6.04e-01	0	57	0	1088421888	59	4580
2026-01-01 11:25:08.97	336.08	15.31	-48.4	-50.3	22.8	6.04e-01	0	57	0	1090519040	59	4614
2026-01-01 11:25:09.95	336.08	15.19	-48.3	-50.1	23.0	6.03e-01	0	57	0	1092091904	59	4524
2026-01-01 11:25:10.94	336.08	15.07	-48.3	-50.1	23.0	6.03e-01	0	57	0	1094189056	59	4506
2026-01-01 11:25:11.93	336.08	14.96	-48.3	-50.1	22.9	6.03e-01	0	57	0	1095761920	59	4538
2026-01-01 11:25:12.92	336.08	14.84	-48.4	-50.2	22.8	6.05e-01	0	57	0	1097859072	59	4591
2026-01-01 11:25:13.91	336.08	14.73	-48.4	-50.2	22.9	6.02e-01	0	57	0	1099431936	59	4567
2026-01-01 11:25:14.90	336.08	14.62	-48.3	-50.0	23.0	6.00e-01	0	57	0	1101529088	59	4492
2026-01-01 11:25:15.90	336.08	14.50	-48.4	-50.2	22.8	6.02e-01	0	57	0	1103101952	59	4585
2026-01-01 11:25:16.88	336.08	14.39	-48.3	-50.1	22.9	6.02e-01	0	57	0	1105199104	59	4532
2026-01-01 11:25:17.87	336.08	14.28	-48.2	-50.0	23.0	6.04e-01	0	57	0	1106771968	59	4469
2026-01-01 11:25:18.86	336.08	14.17	-48.2	-50.0	23.0	6.04e-01	0	57	0	1108869120	59	4465
2026-01-01 11:25:19.85	336.08	14.06	-48.4	-50.2	22.8	6.04e-01	0	57	0	1110441984	59	4570
2026-01-01 11:25:20.84	336.08	13.95	-48.3	-50.1	22.9	6.04e-01	0	57	0	1112539136	59	4510
2026-01-01 11:25:21.82	336.08	13.84	-48.3	-50.1	22.9	6.05e-01	0	57	0	1114636288	59	4537
2026-01-01 11:25:22.82	336.08	13.73	-48.3	-50.2	22.8	6.04e-01	0	57	0	1116209152	59	4546
2026-01-01 11:25:23.80	336.08	13.62	-48.4	-50.2	22.8	5.99e-01	0	57	0	1118306304	59	4593
2026-01-01 11:25:24.79	336.08	13.51	-48.3	-50.2	22.8	6.02e-01	0	57	0	1119879168	59	4571
2026-01-01 11:25:25.78	336.08	13.40	-48.4	-50.2	22.7	6.03e-01	0	57	0	1121976320	59	4593
2026-01-01 11:25:26.78	336.08	13.30	-48.5	-50.4	22.6	6.03e-01	0	57	0	1123549184	59	4678
2026-01-01 11:25:27.77	336.08	13.19	-48.6	-50.5	22.4	6.02e-01	0	57	0	1125646336	59	4751
2026-01-01 11:25:28.75	336.08	13.08	-48.8	-50.8	22.2	6.03e-01	0	57	0	1127219200	59	4887
2026-01-01 11:25:29.74	336.08	12.98	-48.8	-50.8	22.2	6.02e-01	0	57	0	1129316352	59	4885
2026-01-01 11:25:30.72	336.08	12.88	-48.7	-50.8	22.2	6.03e-01	0	57	0	1130889216	59	4881
2026-01-01 11:25:31.71	336.08	12.77	-48.7	-50.8	21.8	6.03e-01	0	57	0	1132986368	60	4615
2026-01-01 11:25:32.70	336.08	12.67	-48.6	-50.7	21.9	6.04e-01	0	57	0	1134559232	60	4569
2026-01-01 11:25:33.69	336.09	12.56	-48.4	-50.4	22.1	6.04e-01	0	57	0	1136656384	60	4414
2026-01-01 11:25:34.68	336.09	12.46	-48.3	-50.2	22.3	6.04e-01	0	57	0	1138229248	60	4308
2026-01-01 11:25:35.66	336.09	12.36	-48.5	-50.5	22.4	6.04e-01	0	57	0	1140326400	59	4728
2026-01-01 11:25:36.65	336.09	12.26	-48.5	-50.5	22.4	6.04e-01	0	57	0	1141899264	59	4736
2026-01-01 11:25:37.64	336.09	12.16	-48.5	-50.5	22.4	6.02e-01	0	57	0	1143996416	59	4734
2026-01-01 11:25:38.63	336.09	12.05	-48.5	-50.5	22.4	6.04e-01	0	57	0	1146093568	59	4737
2026-01-01 11:25:39.63	336.09	11.95	-48.4	-50.4	22.5	6.03e-01	0	57	0	1147666432	59	4675
2026-01-01 11:25:40.62	336.09	11.85	-48.6	-50.6	22.2	6.04e-01	0	57	0	1149763584	59	4792
2026-01-01 11:25:41.61	336.09	11.75	-48.6	-50.6	22.2	6.02e-01	0	57	0	1151336448	59	4808
2026-01-01 11:25:42.60	336.09	11.65	-48.6	-50.5	22.3	6.02e-01	0	57	0	1153433600	59	4748
2026-01-01 11:25:43.59	336.09	11.55	-48.5	-50.4	22.4	6.02e-01	0	57	0	1155006464	59	4699
2026-01-01 11:25:44.59	336.09	11.46	-48.5	-50.4	22.4	6.03e-01	0	57	0	1157103616	59	4693
2026-01-01 11:25:45.58	336.09	11.36	-48.6	-50.6	22.2	6.03e-01	0	57	0	1158676480	59	4767
2026-01-01 11:25:46.56	336.10	11.26	-48.6	-50.6	22.2	6.03e-01	0	57	0	1160773632	59	4805
2026-01-01 11:25:47.55	336.10	11.16	-48.5	-50.4	22.3	6.02e-01	0	57	0	1162346496	59	4702
2026-01-01 11:25:48.54	336.10	11.07	-48.5	-50.5	22.3	6.02e-01	0	57	0	1164443648	59	4711
2026-01-01 11:25:49.52	336.10	10.97	-48.6	-50.7	22.1	6.02e-01	0	57	0	1166540800	59	4830
2026-01-01 11:25:50.50	336.10	10.88	-48.7	-50.8	22.0	6.04e-01	0	57	0	1168113664	59	4892
2026-01-01 11:25:51.49	336.10	10.78	-48.7	-50.7	22.1	6.04e-01	0	57	0	1170210816	59	4845
2026-01-01 11:25:52.48	336.10	10.69	-48.7	-50.8	22.0	6.02e-01	0	57	0	1171783680	59	4913
2026-01-01 11:25:53.47	336.10	10.59	-48.7	-50.8	21.9	6.03e-01	0	57	0	1173880832	59	4921
2026-01-01 11:25:54.46	336.10	10.50	-48.7	-50.8	22.0	6.04e-01	0	57	0	1175453696	59	4906
2026-01-01 11:25:55.45	336.10	10.40	-48.8	-50.9	21.9	6.02e-01	0	57	0	1177550848	59	4940
2026-01-01 11:25:56.44	336.11	10.31	-48.8	-50.9	21.9	6.03e-01	0	57	0	1179123712	59	4940
2026-01-01 11:25:57.42	336.11	10.22	-48.7	-50.8	21.9	6.04e-01	0	57	0	1181220864	59	4884
2026-01-01 11:25:58.41	336.11	10.13	-48.6	-50.6	22.1	6.02e-01	0	57	0	1182793728	59	4808
2026-01-01 11:25:59.40	336.11	10.03	-48.7	-50.8	21.9	6.03e-01	0	57	0	1184890880	59	4912
2026-01-01 11:26:00.39	336.11	9.94	-48.5	-50.6	21.8	6.06e-01	0	57	0	1186463744	60	4515
2026-01-01 11:26:01.39	336.11	9.85	-48.4	-50.4	21.9	6.02e-01	0	57	0	1188560896	60	4433
2026-01-01 11:26:02.37	336.11	9.76	-48.3	-50.4	22.0	6.03e-01	0	57	0	1190658048	60	4395
2026-01-01 11:26:03.37	336.11	9.67	-48.4	-50.5	21.9	6.03e-01	0	57	0	1192230912	60	4475
2026-01-01 11:26:04.35	336.12	9.58	-48.6	-50.7	21.6	6.02e-01	0	57	0	1194328064	60	4596
2026-01-01 11:26:05.34	336.12	9.49	-48.6	-50.8	21.6	6.04e-01	0	57	0	1195900928	60	4619
2026-01-01 11:26:06.34	336.12	9.40	-48.5	-50.8	21.5	6.05e-01	0	57	0	1197998080	60	4624
2026-01-01 11:26:07.33	336.12	9.31	-48.7	-50.9	21.4	6.04e-01	0	57	0	1199570944	60	4704
2026-01-01 11:26:08.31	336.12	9.22	-48.7	-50.9	21.5	6.04e-01	0	57	0	1201668096	60	4660
2026-01-01 11:26:09.31	336.12	9.13	-48.7	-50.9	21.4	6.03e-01	0	57	0	1203240960	60	4701
2026-01-01 11:26:10.30	336.12	9.04	-48.7	-51.0	21.3	6.03e-01	0	57	0	1205338112	60	4733
2026-01-01 11:26:11.28	336.13	8.96	-49.0	-51.4	21.0	6.03e-01	0	57	0	1206910976	60	4931
2026-01-01 11:26:12.27	336.13	8.87	-48.8	-51.1	21.2	6.03e-01	0	57	0	1209008128	60	4807
2026-01-01 11:26:13.26	336.13	8.78	-49.1	-51.5	20.8	6.03e-01	0	57	0	1211105280	60	5015
2026-01-01 11:26:14.25	336.13	8.69	-49.2	-51.8	20.5	6.02e-01	0	57	0	1212678144	60	5166
2026-01-01 11:26:15.23	336.13	8.61	-48.9	-51.3	21.0	6.03e-01	0	57	0	1214775296	60	4906
2026-01-01 11:26:16.22	336.13	8.52	-48.8	-51.1	21.2	6.04e-01	0	57	0	1216348160	60	4810
2026-01-01 11:26:17.22	336.13	8.44	-48.6	-50.8	21.4	6.03e-01	0	57	0	1218445312	60	4627
2026-01-01 11:26:18.21	336.14	8.35	-48.6	-50.7	21.6	6.05e-01	0	57	0	1220018176	60	4580
2026-01-01 11:26:19.20	336.14	8.27	-48.5	-50.6	21.7	6.03e-01	0	57	0	1222115328	60	4518
2026-01-01 11:26:20.19	336.14	8.18	-48.5	-50.7	21.5	6.03e-01	0	57	0	1223688192	60	4569
2026-01-01 11:26:21.18	336.14	8.10	-48.6	-50.7	21.5	6.03e-01	0	57	0	1225785344	60	4591
2026-01-01 11:26:22.17	336.14	8.01	-48.6	-50.8	21.5	6.01e-01	0	57	0	1227358208	60	4636
2026-01-01 11:26:23.16	336.14	7.93	-48.7	-50.9	21.3	6.03e-01	0	57	0	1229455360	60	4705
2026-01-01 11:26:24.15	336.15	7.84	-48.6	-50.8	21.4	6.03e-01	0	57	0	1231028224	60	4648
2026-01-01 11:26:25.14	336.15	7.76	-48.7	-51.0	21.2	6.03e-01	0	57	0	1233125376	60	4737
