passes_logs/2026/01/01/R3.0SM8_Murmansk_STILSPACE/R3.0SM8_Murmansk_STILSPACE__20260101_053305_SUOMI_NPP_rec.log

#Pass ID: 20260101_053305_SUOMI NPP
#Satellite: SUOMI NPP
#Configuration: NPP
#almurnet v.1.7.20240730
#Start time: 2026-01-01 05:33:05

#Version: 2.2.20231116
#Station: R3.0SM8_Murmansk_STILSPACE
#Location: 33.092731 lon 68.902999 lat
#TLE: 1 37849U 11061A   25364.87906317  .00000195  00000+0  11345-3 0  9992
#TLE: 2 37849  98.7794 302.0592 0002571  89.2401 270.9069 14.19520347734561

#Time	Az	El	Level	Level2	SNR	BER	BlckErr	Temp	State	Recorded	gain1	gain2
2026-01-01 05:33:05.22	65.93	3.01	-52.7	-66.5	3.8	1.49e+00	0	50	0	0	67	18338
2026-01-01 05:33:06.20	65.87	3.06	-52.6	-66.5	3.8	1.49e+00	0	50	104	0	68	17319
2026-01-01 05:33:07.19	65.80	3.12	-52.6	-66.4	3.8	1.49e+00	0	50	104	0	68	17237
2026-01-01 05:33:08.17	65.73	3.18	-52.6	-66.4	3.8	1.49e+00	0	50	104	0	68	17175
2026-01-01 05:33:09.16	65.66	3.24	-52.5	-66.3	3.8	1.49e+00	0	50	104	0	68	17024
2026-01-01 05:33:10.14	65.60	3.29	-52.3	-66.1	3.8	1.49e+00	0	50	104	0	67	17606
2026-01-01 05:33:11.13	65.53	3.35	-52.1	-65.9	3.8	1.49e+00	0	51	104	0	67	17253
2026-01-01 05:33:12.12	65.46	3.41	-51.8	-65.7	3.8	1.49e+00	0	50	104	0	66	17728
2026-01-01 05:33:13.10	65.39	3.47	-51.7	-65.6	3.8	1.49e+00	0	51	104	0	66	17492
2026-01-01 05:33:14.08	65.32	3.52	-51.7	-65.5	3.8	1.49e+00	0	51	104	0	66	17463
2026-01-01 05:33:15.06	65.25	3.58	-51.8	-65.5	3.8	1.49e+00	0	51	104	0	66	17437
2026-01-01 05:33:16.05	65.18	3.64	-51.8	-65.5	3.8	1.49e+00	0	51	104	0	66	17446
2026-01-01 05:33:17.03	65.11	3.70	-51.8	-65.5	3.8	1.49e+00	0	51	104	0	66	17421
2026-01-01 05:33:18.00	65.04	3.76	-51.8	-65.5	3.8	1.49e+00	0	51	104	0	66	17402
2026-01-01 05:33:18.99	64.97	3.82	-51.8	-65.5	3.8	1.49e+00	0	51	104	0	66	17408
2026-01-01 05:33:19.98	64.90	3.87	-51.8	-65.6	3.8	1.49e+00	0	51	104	0	66	17491
2026-01-01 05:33:20.96	64.83	3.93	-51.8	-65.5	3.8	1.49e+00	0	51	104	0	66	17445
2026-01-01 05:33:21.94	64.76	3.99	-51.7	-65.5	3.8	1.49e+00	0	51	104	0	66	17461
2026-01-01 05:33:22.93	64.69	4.05	-51.8	-65.5	3.8	1.49e+00	0	51	104	0	66	17472
2026-01-01 05:33:23.91	64.61	4.11	-51.6	-65.6	3.8	1.49e+00	0	51	104	0	66	17501
2026-01-01 05:33:24.89	64.54	4.17	-51.7	-65.5	3.8	1.49e+00	0	51	104	0	66	17358
2026-01-01 05:33:25.87	64.47	4.23	-51.8	-65.4	3.8	1.49e+00	0	51	104	0	66	17123
2026-01-01 05:33:26.86	64.40	4.28	-51.8	-65.2	3.8	1.49e+00	0	52	104	0	66	16740
2026-01-01 05:33:27.84	64.32	4.34	-51.7	-64.9	3.8	1.49e+00	0	52	104	0	66	16179
2026-01-01 05:33:28.82	64.25	4.40	-51.7	-64.5	3.8	1.49e+00	0	52	104	0	66	15572
2026-01-01 05:33:29.80	64.17	4.46	-51.7	-63.9	3.8	1.49e+00	0	52	104	0	66	14524
2026-01-01 05:33:30.78	64.10	4.52	-51.6	-63.4	3.8	1.49e+00	0	52	104	0	66	13696
2026-01-01 05:33:31.77	64.03	4.58	-51.5	-62.5	3.9	1.47e+00	0	52	104	0	66	12282
2026-01-01 05:33:32.74	63.95	4.64	-51.4	-61.2	4.4	1.38e+00	0	52	0	0	66	10629
2026-01-01 05:33:33.71	63.88	4.70	-51.3	-60.2	4.9	9.03e-01	0	52	0	2097152	65	10014
2026-01-01 05:33:34.68	63.80	4.76	-51.2	-59.6	5.2	6.41e-01	0	52	0	4194304	65	9323
2026-01-01 05:33:35.64	63.73	4.81	-51.1	-59.0	5.6	5.18e-01	0	52	0	5242880	65	8730
2026-01-01 05:33:36.61	63.65	4.87	-51.0	-58.3	6.1	4.09e-01	0	52	0	7340032	65	8007
2026-01-01 05:33:37.58	63.58	4.93	-50.8	-57.6	6.7	2.08e-01	0	52	0	9437184	64	7859
2026-01-01 05:33:38.54	63.50	4.99	-50.6	-57.0	7.2	1.50e-01	0	52	0	10485760	64	7309
2026-01-01 05:33:39.51	63.43	5.05	-50.7	-56.9	7.3	1.16e-01	0	52	0	12582912	64	7284
2026-01-01 05:33:40.48	63.35	5.11	-50.7	-57.1	7.2	1.22e-01	0	53	0	14680064	64	7372
2026-01-01 05:33:41.45	63.27	5.17	-50.8	-57.3	6.9	1.56e-01	0	52	0	16777216	64	7612
2026-01-01 05:33:42.41	63.20	5.23	-50.6	-56.6	7.6	1.14e-01	0	53	0	17825792	64	7034
2026-01-01 05:33:43.38	63.12	5.29	-50.5	-56.4	7.8	8.96e-02	0	53	0	19922944	64	6815
2026-01-01 05:33:44.34	63.04	5.35	-50.6	-56.5	7.8	7.88e-02	0	53	0	22020096	64	6895
2026-01-01 05:33:45.31	62.97	5.41	-50.6	-56.5	7.8	7.32e-02	0	53	0	24117248	64	6909
2026-01-01 05:33:46.27	62.89	5.47	-50.5	-56.1	8.1	7.23e-02	0	53	0	25165824	64	6604
2026-01-01 05:33:47.24	62.81	5.53	-50.3	-55.4	8.9	3.72e-02	0	53	0	27262976	63	6477
2026-01-01 05:33:48.21	62.73	5.59	-50.1	-55.0	9.4	1.93e-02	0	53	0	29360128	63	6161
2026-01-01 05:33:49.18	62.65	5.65	-49.9	-54.3	10.1	1.24e-02	0	53	0	30408704	62	6057
2026-01-01 05:33:50.15	62.57	5.71	-49.6	-53.7	10.7	5.38e-03	0	53	0	32505856	62	5655
2026-01-01 05:33:51.11	62.49	5.77	-49.3	-53.1	11.3	2.03e-03	0	53	0	34603008	61	5575
2026-01-01 05:33:52.08	62.41	5.83	-49.3	-53.0	11.4	1.07e-03	0	53	0	36700160	61	5514
2026-01-01 05:33:53.05	62.33	5.89	-49.1	-52.5	11.9	5.39e-04	0	53	0	37748736	61	5189
2026-01-01 05:33:54.01	62.25	5.95	-49.1	-52.5	11.9	3.35e-04	0	53	0	39845888	61	5176
2026-01-01 05:33:54.98	62.17	6.01	-49.3	-52.9	11.5	5.41e-04	0	53	0	41943040	61	5439
2026-01-01 05:33:55.95	62.09	6.07	-49.2	-52.7	11.8	6.61e-04	0	53	0	44040192	61	5301
2026-01-01 05:33:56.92	62.00	6.13	-49.3	-53.0	11.5	7.61e-04	0	53	0	45088768	61	5472
2026-01-01 05:33:57.88	61.92	6.19	-49.2	-52.9	11.6	6.55e-04	0	54	0	47185920	61	5433
2026-01-01 05:33:58.85	61.84	6.25	-49.2	-52.8	11.7	7.28e-04	0	54	0	49283072	61	5385
2026-01-01 05:33:59.82	61.76	6.31	-49.3	-52.9	11.6	5.01e-04	0	54	0	50331648	61	5435
2026-01-01 05:34:00.79	61.67	6.37	-49.3	-52.9	11.6	6.19e-04	0	54	0	52428800	61	5452
2026-01-01 05:34:01.76	61.59	6.43	-49.5	-53.4	11.1	9.02e-04	0	54	0	54525952	61	5770
2026-01-01 05:34:02.73	61.50	6.49	-49.5	-53.4	11.1	1.69e-03	0	54	0	56623104	61	5729
2026-01-01 05:34:03.70	61.42	6.55	-49.2	-52.8	11.7	1.03e-03	0	54	0	57671680	61	5386
2026-01-01 05:34:04.67	61.33	6.62	-49.3	-52.9	11.6	6.19e-04	0	54	0	59768832	61	5435
2026-01-01 05:34:05.64	61.25	6.68	-49.1	-52.6	11.9	5.09e-04	0	54	0	61865984	61	5260
2026-01-01 05:34:06.61	61.16	6.74	-49.2	-52.7	11.8	4.71e-04	0	54	0	63963136	61	5310
2026-01-01 05:34:07.59	61.08	6.80	-49.2	-52.9	11.6	6.30e-04	0	54	0	65011712	61	5416
2026-01-01 05:34:08.58	60.99	6.86	-49.3	-53.1	11.5	7.88e-04	0	54	0	67108864	61	5535
2026-01-01 05:34:09.58	60.90	6.93	-49.4	-53.2	11.3	7.74e-04	0	54	0	69206016	61	5632
2026-01-01 05:34:10.57	60.81	6.99	-49.4	-53.3	11.3	8.81e-04	0	54	0	71303168	61	5659
2026-01-01 05:34:11.57	60.72	7.06	-49.4	-53.3	11.2	1.53e-03	0	54	0	72351744	61	5682
2026-01-01 05:34:12.55	60.63	7.12	-49.4	-53.1	11.4	8.00e-04	0	54	0	74448896	61	5559
2026-01-01 05:34:13.55	60.54	7.18	-49.4	-53.2	11.4	7.73e-04	0	54	0	76546048	61	5613
2026-01-01 05:34:14.53	60.45	7.25	-49.3	-53.0	11.6	7.18e-04	0	54	0	78643200	61	5481
2026-01-01 05:34:15.50	60.36	7.31	-49.4	-53.2	11.3	9.47e-04	0	54	0	80740352	61	5634
2026-01-01 05:34:16.47	60.27	7.37	-49.2	-52.7	11.9	6.58e-04	0	55	0	81788928	61	5316
2026-01-01 05:34:17.44	60.18	7.43	-49.1	-52.5	12.1	2.68e-04	0	54	0	83886080	61	5207
2026-01-01 05:34:18.42	60.09	7.50	-49.2	-52.7	11.9	2.58e-04	0	54	0	85983232	61	5291
2026-01-01 05:34:19.38	60.00	7.56	-49.1	-52.6	12.1	3.46e-04	0	54	0	87031808	61	5233
2026-01-01 05:34:20.36	59.90	7.62	-49.1	-52.5	12.2	2.20e-04	0	55	0	89128960	61	5173
2026-01-01 05:34:21.33	59.81	7.68	-49.2	-52.7	12.0	2.86e-04	0	55	0	91226112	61	5307
2026-01-01 05:34:22.30	59.72	7.75	-49.3	-52.8	11.9	3.79e-04	0	55	0	93323264	61	5367
2026-01-01 05:34:23.27	59.63	7.81	-49.2	-52.7	12.0	4.03e-04	0	55	0	94371840	61	5285
2026-01-01 05:34:24.24	59.53	7.87	-49.0	-52.4	12.3	2.59e-04	0	55	0	96468992	61	5106
2026-01-01 05:34:25.21	59.44	7.94	-48.9	-52.1	12.6	8.31e-05	0	55	0	98566144	60	5220
2026-01-01 05:34:26.18	59.35	8.00	-48.8	-51.8	12.8	6.17e-05	0	55	0	100663296	60	5085
2026-01-01 05:34:27.15	59.25	8.06	-48.8	-52.0	12.8	7.17e-05	0	55	0	101711872	60	5164
2026-01-01 05:34:28.11	59.16	8.13	-48.9	-52.0	12.7	5.95e-05	0	55	0	103809024	60	5195
2026-01-01 05:34:29.09	59.06	8.19	-49.1	-52.5	12.2	1.05e-04	0	55	0	105906176	60	5478
2026-01-01 05:34:30.06	58.97	8.25	-49.0	-52.2	12.5	1.15e-04	0	55	0	108003328	60	5293
2026-01-01 05:34:31.03	58.87	8.32	-49.1	-52.4	12.3	1.14e-04	0	55	0	109051904	60	5436
2026-01-01 05:34:32.00	58.78	8.38	-49.3	-52.8	11.9	2.57e-04	0	55	0	111149056	60	5714
2026-01-01 05:34:32.97	58.68	8.45	-48.9	-52.1	12.6	2.17e-04	0	55	0	113246208	60	5240
2026-01-01 05:34:33.94	58.58	8.51	-49.0	-52.2	12.6	8.39e-05	0	55	0	115343360	60	5295
2026-01-01 05:34:34.91	58.48	8.57	-49.0	-52.1	12.7	8.16e-05	0	55	0	116391936	60	5239
2026-01-01 05:34:35.89	58.38	8.64	-48.8	-51.8	13.0	5.72e-05	0	55	0	118489088	60	5057
2026-01-01 05:34:36.86	58.29	8.70	-48.9	-51.9	12.9	3.66e-05	0	55	0	120586240	60	5138
2026-01-01 05:34:37.83	58.19	8.77	-48.8	-51.8	13.0	7.55e-05	0	56	0	121634816	60	5068
2026-01-01 05:34:38.79	58.09	8.83	-48.9	-52.0	12.8	5.34e-05	0	55	0	123731968	60	5181
2026-01-01 05:34:39.76	57.99	8.89	-48.9	-51.9	12.9	4.04e-05	0	55	0	125829120	60	5140
2026-01-01 05:34:40.73	57.89	8.96	-49.0	-52.1	12.7	4.19e-05	0	56	0	127926272	60	5274
2026-01-01 05:34:41.70	57.79	9.02	-49.1	-52.3	12.5	1.07e-04	0	56	0	128974848	60	5399
2026-01-01 05:34:42.67	57.68	9.09	-49.0	-52.1	12.7	1.58e-04	0	56	0	131072000	60	5262
2026-01-01 05:34:43.64	57.58	9.15	-48.9	-52.0	12.8	5.41e-05	0	56	0	133169152	60	5176
2026-01-01 05:34:44.60	57.48	9.22	-48.8	-51.8	13.1	2.67e-05	0	55	0	135266304	60	5051
2026-01-01 05:34:45.57	57.38	9.28	-48.7	-51.5	13.3	1.90e-05	0	56	0	136314880	60	4919
2026-01-01 05:34:46.53	57.28	9.35	-48.6	-51.3	13.5	1.44e-05	0	55	0	138412032	60	4810
2026-01-01 05:34:47.51	57.17	9.41	-48.8	-51.7	13.1	3.12e-05	0	56	0	140509184	60	5007
2026-01-01 05:34:48.47	57.07	9.48	-48.7	-51.6	13.2	3.20e-05	0	56	0	142606336	60	4954
2026-01-01 05:34:49.45	56.96	9.54	-48.8	-51.8	13.1	1.90e-05	0	56	0	143654912	60	5043
2026-01-01 05:34:50.41	56.86	9.61	-48.9	-52.0	12.9	5.18e-05	0	56	0	145752064	60	5181
2026-01-01 05:34:51.38	56.75	9.67	-49.0	-52.2	12.7	6.40e-05	0	56	0	147849216	60	5307
2026-01-01 05:34:52.35	56.65	9.74	-49.1	-52.3	12.5	1.28e-04	0	56	0	148897792	60	5378
2026-01-01 05:34:53.32	56.54	9.80	-49.0	-52.1	12.7	9.15e-05	0	56	0	150994944	60	5266
2026-01-01 05:34:54.29	56.43	9.87	-49.0	-52.2	12.7	8.77e-05	0	56	0	153092096	60	5304
2026-01-01 05:34:55.26	56.33	9.94	-48.8	-51.7	13.1	5.34e-05	0	56	0	155189248	60	5041
2026-01-01 05:34:56.22	56.22	10.00	-48.9	-51.9	13.0	4.27e-05	0	56	0	156237824	60	5105
2026-01-01 05:34:57.19	56.11	10.07	-48.9	-52.0	12.9	3.81e-05	0	56	0	158334976	60	5167
2026-01-01 05:34:58.16	56.00	10.13	-49.1	-52.2	12.6	8.46e-05	0	56	0	160432128	60	5326
2026-01-01 05:34:59.13	55.89	10.20	-49.0	-52.1	12.8	6.33e-05	0	56	0	162529280	60	5244
2026-01-01 05:35:00.09	55.78	10.26	-48.9	-51.8	13.0	5.95e-05	0	56	0	163577856	60	5096
2026-01-01 05:35:01.06	55.67	10.33	-49.0	-52.1	12.7	5.18e-05	0	56	0	165675008	60	5263
2026-01-01 05:35:02.03	55.56	10.40	-48.9	-52.0	12.9	4.50e-05	0	56	0	167772160	60	5162
2026-01-01 05:35:03.00	55.45	10.46	-48.8	-51.8	13.1	3.66e-05	0	56	0	168820736	60	5057
2026-01-01 05:35:03.97	55.34	10.53	-48.9	-51.9	13.0	3.20e-05	0	56	0	170917888	60	5130
2026-01-01 05:35:04.94	55.22	10.59	-48.8	-51.8	13.1	3.89e-05	0	56	0	173015040	60	5047
2026-01-01 05:35:05.91	55.11	10.66	-48.8	-51.7	13.2	2.05e-05	0	56	0	175112192	60	4993
2026-01-01 05:35:06.87	55.00	10.73	-48.8	-51.7	13.3	3.12e-05	0	56	0	176160768	60	4994
2026-01-01 05:35:07.84	54.88	10.79	-48.7	-51.5	13.4	1.44e-05	0	56	0	178257920	60	4873
2026-01-01 05:35:08.82	54.77	10.86	-48.8	-51.7	13.3	1.14e-05	0	57	0	180355072	60	4993
2026-01-01 05:35:09.79	54.65	10.93	-48.8	-51.7	13.3	3.12e-05	0	56	0	182452224	60	4987
2026-01-01 05:35:10.75	54.54	10.99	-48.6	-51.3	13.6	1.22e-05	0	56	0	183500800	60	4811
2026-01-01 05:35:11.72	54.42	11.06	-48.9	-51.8	13.1	1.06e-05	0	57	0	185597952	60	5067
2026-01-01 05:35:12.68	54.30	11.13	-48.7	-51.5	13.4	2.28e-05	0	57	0	187695104	60	4892
2026-01-01 05:35:13.65	54.19	11.19	-48.4	-51.0	13.9	9.10e-06	0	57	0	188743680	60	4648
2026-01-01 05:35:14.62	54.07	11.26	-48.5	-51.1	13.9	4.50e-06	0	57	0	190840832	59	4937
2026-01-01 05:35:15.59	53.95	11.33	-48.5	-51.0	13.9	3.00e-06	0	57	0	192937984	59	4897
2026-01-01 05:35:16.56	53.83	11.40	-48.5	-51.1	13.9	2.20e-06	0	57	0	195035136	59	4940
2026-01-01 05:35:17.53	53.71	11.46	-48.5	-51.0	14.0	3.00e-06	0	57	0	196083712	59	4923
2026-01-01 05:35:18.50	53.59	11.53	-48.5	-51.0	13.9	4.50e-06	0	57	0	198180864	59	4917
2026-01-01 05:35:19.46	53.47	11.60	-48.3	-50.7	14.2	1.50e-06	0	57	0	200278016	59	4725
2026-01-01 05:35:20.43	53.35	11.66	-48.3	-50.8	14.2	7.00e-07	0	57	0	202375168	59	4761
2026-01-01 05:35:21.40	53.23	11.73	-48.3	-50.8	14.2	0.00e+00	0	57	0	203423744	59	4807
2026-01-01 05:35:22.37	53.10	11.80	-48.6	-51.2	13.8	0.00e+00	0	57	0	205520896	59	4986
2026-01-01 05:35:23.34	52.98	11.87	-48.5	-51.2	13.8	0.00e+00	0	57	0	207618048	59	4986
2026-01-01 05:35:24.31	52.86	11.93	-48.5	-51.1	13.9	2.20e-06	0	57	0	209715200	59	4940
2026-01-01 05:35:25.28	52.73	12.00	-48.4	-50.9	14.1	3.00e-06	0	57	0	210763776	59	4866
2026-01-01 05:35:26.24	52.61	12.07	-48.5	-51.1	13.9	3.00e-06	0	57	0	212860928	59	4947
2026-01-01 05:35:27.21	52.48	12.14	-48.6	-51.3	13.8	4.50e-06	0	57	0	214958080	59	5056
2026-01-01 05:35:28.17	52.36	12.20	-48.4	-50.9	14.1	2.20e-06	0	57	0	216006656	59	4818
2026-01-01 05:35:29.14	52.23	12.27	-48.2	-50.6	14.4	1.50e-06	0	57	0	218103808	59	4675
2026-01-01 05:35:30.11	52.10	12.34	-48.1	-50.5	14.5	0.00e+00	0	57	0	220200960	59	4628
2026-01-01 05:35:31.08	51.98	12.41	-48.0	-50.4	14.6	0.00e+00	0	57	0	222298112	59	4589
2026-01-01 05:35:32.05	51.85	12.48	-48.1	-50.5	14.5	7.00e-07	0	57	0	223346688	59	4621
2026-01-01 05:35:33.02	51.72	12.54	-48.4	-50.8	14.2	0.00e+00	0	57	0	225443840	59	4813
2026-01-01 05:35:33.99	51.59	12.61	-48.4	-50.9	14.1	1.50e-06	0	57	0	227540992	59	4857
2026-01-01 05:35:34.95	51.46	12.68	-48.2	-50.5	14.6	1.50e-06	0	57	0	229638144	59	4604
2026-01-01 05:35:35.93	51.33	12.75	-47.4	-50.0	14.9	0.00e+00	0	57	0	230686720	58	4617
2026-01-01 05:35:36.90	51.20	12.82	-47.9	-50.1	14.9	0.00e+00	0	57	0	232783872	58	4694
2026-01-01 05:35:37.87	51.06	12.89	-48.0	-50.3	14.8	7.00e-07	0	57	0	234881024	58	4774
2026-01-01 05:35:38.84	50.93	12.95	-48.0	-50.4	14.6	0.00e+00	0	57	0	236978176	58	4849
2026-01-01 05:35:39.81	50.80	13.02	-48.2	-50.6	14.5	1.50e-06	0	57	0	238026752	58	4932
2026-01-01 05:35:40.78	50.66	13.09	-48.2	-50.5	14.6	0.00e+00	0	57	0	240123904	58	4901
2026-01-01 05:35:41.75	50.53	13.16	-48.1	-50.4	14.7	7.00e-07	0	57	0	242221056	58	4826
2026-01-01 05:35:42.72	50.39	13.23	-48.1	-50.5	14.6	2.20e-06	0	57	0	243269632	58	4894
2026-01-01 05:35:43.69	50.26	13.30	-48.2	-50.7	14.4	0.00e+00	0	57	0	245366784	58	4985
2026-01-01 05:35:44.65	50.12	13.36	-48.3	-50.7	14.4	1.50e-06	0	58	0	247463936	58	5003
2026-01-01 05:35:45.62	49.98	13.43	-48.3	-50.8	14.3	7.00e-07	0	57	0	249561088	58	5048
2026-01-01 05:35:46.59	49.85	13.50	-48.2	-50.6	14.5	0.00e+00	0	58	0	250609664	58	4948
2026-01-01 05:35:47.56	49.71	13.57	-48.4	-50.9	14.2	0.00e+00	0	58	0	252706816	58	5132
2026-01-01 05:35:48.54	49.57	13.64	-48.5	-51.1	13.9	7.00e-07	0	58	0	254803968	58	5248
2026-01-01 05:35:49.50	49.43	13.71	-48.3	-50.8	14.3	4.50e-06	0	58	0	256901120	58	5049
2026-01-01 05:35:50.47	49.29	13.78	-48.3	-50.9	14.2	0.00e+00	0	57	0	257949696	58	5103
2026-01-01 05:35:51.45	49.15	13.84	-48.4	-51.0	14.0	1.50e-06	0	58	0	260046848	58	5192
2026-01-01 05:35:52.42	49.00	13.91	-48.5	-51.1	13.9	3.80e-06	0	58	0	262144000	58	5279
2026-01-01 05:35:53.39	48.86	13.98	-48.7	-51.5	13.6	4.50e-06	0	58	0	264241152	59	5164
2026-01-01 05:35:54.36	48.72	14.05	-48.7	-51.4	13.6	6.80e-06	0	58	0	265289728	59	5151
2026-01-01 05:35:55.32	48.57	14.12	-48.6	-51.3	13.8	7.00e-07	0	58	0	267386880	59	5073
2026-01-01 05:35:56.29	48.43	14.19	-48.7	-51.5	13.6	4.50e-06	0	58	0	269484032	59	5201
2026-01-01 05:35:57.26	48.28	14.26	-48.6	-51.4	13.6	1.06e-05	0	58	0	270532608	59	5143
2026-01-01 05:35:58.23	48.14	14.33	-48.6	-51.4	13.7	8.30e-06	0	58	0	272629760	59	5102
2026-01-01 05:35:59.20	47.99	14.39	-48.7	-51.4	13.7	5.30e-06	0	58	0	274726912	59	5110
2026-01-01 05:36:00.16	47.85	14.46	-48.6	-51.4	13.7	3.00e-06	0	58	0	276824064	59	5121
2026-01-01 05:36:01.13	47.70	14.53	-48.6	-51.3	13.8	3.00e-06	0	58	0	277872640	59	5089
2026-01-01 05:36:02.11	47.55	14.60	-48.6	-51.2	13.9	3.00e-06	0	58	0	279969792	59	4996
2026-01-01 05:36:03.08	47.40	14.67	-48.6	-51.2	13.9	3.00e-06	0	58	0	282066944	59	5000
2026-01-01 05:36:04.05	47.25	14.74	-48.5	-50.9	14.2	0.00e+00	0	58	0	284164096	59	4867
2026-01-01 05:36:05.02	47.10	14.81	-48.4	-50.9	14.2	1.50e-06	0	58	0	285212672	59	4857
2026-01-01 05:36:05.99	46.94	14.88	-48.5	-51.1	14.0	0.00e+00	0	58	0	287309824	59	4957
2026-01-01 05:36:06.97	46.79	14.95	-48.9	-51.6	13.5	3.00e-06	0	58	0	289406976	59	5274
2026-01-01 05:36:07.93	46.64	15.01	-48.8	-51.6	13.6	1.67e-05	0	58	0	291504128	59	5223
2026-01-01 05:36:08.90	46.49	15.08	-48.7	-51.4	13.6	1.06e-05	0	58	0	292552704	59	5158
2026-01-01 05:36:09.88	46.33	15.15	-49.0	-51.9	13.3	9.90e-06	0	58	0	294649856	59	5425
2026-01-01 05:36:10.84	46.18	15.22	-48.9	-51.8	13.4	2.67e-05	0	58	0	296747008	60	5043
2026-01-01 05:36:11.81	46.02	15.29	-49.0	-52.0	13.1	9.10e-06	0	58	0	297795584	60	5176
2026-01-01 05:36:12.77	45.86	15.36	-49.1	-52.2	13.0	3.89e-05	0	58	0	299892736	60	5294
2026-01-01 05:36:13.74	45.71	15.43	-49.0	-52.1	13.0	3.43e-05	0	58	0	301989888	60	5229
2026-01-01 05:36:14.71	45.55	15.49	-48.9	-51.9	13.2	2.36e-05	0	58	0	304087040	60	5107
2026-01-01 05:36:15.68	45.39	15.56	-48.9	-51.7	13.3	2.13e-05	0	58	0	305135616	60	5036
2026-01-01 05:36:16.65	45.23	15.63	-48.9	-51.8	13.3	1.90e-05	0	58	0	307232768	60	5045
2026-01-01 05:36:17.62	45.07	15.70	-49.1	-52.1	13.0	1.67e-05	0	58	0	309329920	60	5249
2026-01-01 05:36:18.59	44.91	15.77	-49.0	-51.9	13.2	2.89e-05	0	58	0	311427072	60	5140
2026-01-01 05:36:19.56	44.75	15.84	-49.0	-51.9	13.2	1.22e-05	0	59	0	312475648	60	5118
2026-01-01 05:36:20.53	44.58	15.90	-49.0	-51.9	13.2	3.66e-05	0	58	0	314572800	60	5151
2026-01-01 05:36:21.51	44.42	15.97	-48.9	-51.7	13.4	2.21e-05	0	59	0	316669952	60	5024
2026-01-01 05:36:22.47	44.26	16.04	-48.9	-51.8	13.3	1.14e-05	0	59	0	318767104	60	5092
2026-01-01 05:36:23.45	44.09	16.11	-49.0	-51.9	13.2	2.05e-05	0	59	0	319815680	60	5144
2026-01-01 05:36:24.41	43.93	16.18	-49.0	-51.8	13.3	1.90e-05	0	59	0	321912832	60	5096
2026-01-01 05:36:25.38	43.76	16.25	-48.7	-51.4	13.7	9.10e-06	0	59	0	324009984	60	4835
2026-01-01 05:36:26.35	43.59	16.31	-48.4	-51.0	14.1	6.80e-06	0	59	0	325058560	60	4609
2026-01-01 05:36:27.31	43.43	16.38	-48.4	-50.9	14.2	2.20e-06	0	59	0	327155712	59	4845
2026-01-01 05:36:28.28	43.26	16.45	-48.5	-51.0	14.1	1.50e-06	0	59	0	329252864	59	4911
2026-01-01 05:36:29.25	43.09	16.52	-48.5	-51.0	14.1	1.50e-06	0	59	0	331350016	59	4904
2026-01-01 05:36:30.22	42.92	16.59	-48.3	-50.7	14.4	0.00e+00	0	59	0	332398592	59	4753
2026-01-01 05:36:31.19	42.75	16.65	-48.3	-50.7	14.4	0.00e+00	0	59	0	334495744	59	4759
2026-01-01 05:36:32.16	42.57	16.72	-48.2	-50.5	14.6	0.00e+00	0	59	0	336592896	59	4628
2026-01-01 05:36:33.13	42.40	16.79	-48.3	-50.7	14.4	0.00e+00	0	59	0	338690048	59	4718
2026-01-01 05:36:34.10	42.23	16.86	-48.3	-50.7	14.4	7.00e-07	0	59	0	339738624	59	4728
2026-01-01 05:36:35.07	42.05	16.92	-48.3	-50.6	14.5	0.00e+00	0	59	0	341835776	59	4695
2026-01-01 05:36:36.04	41.88	16.99	-48.5	-51.0	14.2	2.20e-06	0	59	0	343932928	59	4914
2026-01-01 05:36:37.01	41.70	17.06	-48.5	-51.0	14.2	3.00e-06	0	59	0	346030080	59	4877
2026-01-01 05:36:37.98	41.53	17.12	-48.8	-51.5	13.6	5.30e-06	0	59	0	347078656	59	5206
2026-01-01 05:36:38.95	41.35	17.19	-48.6	-51.2	13.9	3.00e-06	0	59	0	349175808	59	5010
2026-01-01 05:36:39.93	41.17	17.26	-48.7	-51.4	13.8	3.80e-06	0	59	0	351272960	59	5138
2026-01-01 05:36:40.89	40.99	17.33	-48.4	-50.9	14.2	5.30e-06	0	59	0	353370112	59	4837
2026-01-01 05:36:41.86	40.81	17.39	-48.4	-50.8	14.3	1.50e-06	0	59	0	354418688	59	4785
2026-01-01 05:36:42.83	40.63	17.46	-48.4	-50.9	14.3	0.00e+00	0	59	0	356515840	59	4839
2026-01-01 05:36:43.80	40.45	17.53	-48.3	-50.6	14.5	0.00e+00	0	59	0	358612992	59	4696
2026-01-01 05:36:44.76	40.27	17.59	-48.2	-50.5	14.7	0.00e+00	0	59	0	359661568	59	4614
2026-01-01 05:36:45.73	40.09	17.66	-48.1	-50.3	14.8	0.00e+00	0	59	0	361758720	59	4528
2026-01-01 05:36:46.70	39.90	17.72	-47.9	-50.0	15.1	0.00e+00	0	59	0	363855872	59	4370
2026-01-01 05:36:47.67	39.72	17.79	-48.1	-50.4	14.7	7.00e-07	0	59	0	365953024	58	4852
2026-01-01 05:36:48.64	39.53	17.86	-47.8	-50.0	15.2	0.00e+00	0	59	0	367001600	58	4608
2026-01-01 05:36:49.61	39.34	17.92	-47.8	-50.0	15.2	0.00e+00	0	59	0	369098752	58	4603
2026-01-01 05:36:50.58	39.16	17.99	-47.8	-50.0	15.1	0.00e+00	0	59	0	371195904	58	4619
2026-01-01 05:36:51.55	38.97	18.05	-47.9	-50.1	15.1	7.00e-07	0	59	0	373293056	58	4655
2026-01-01 05:36:52.52	38.78	18.12	-47.9	-50.1	15.1	0.00e+00	0	59	0	374341632	58	4675
2026-01-01 05:36:53.49	38.59	18.18	-47.7	-49.9	15.2	0.00e+00	0	59	0	376438784	58	4572
2026-01-01 05:36:54.47	38.40	18.25	-47.9	-50.1	15.1	0.00e+00	0	59	0	378535936	58	4687
2026-01-01 05:36:55.44	38.21	18.31	-47.9	-50.1	15.0	0.00e+00	0	59	0	380633088	58	4694
2026-01-01 05:36:56.41	38.02	18.38	-47.7	-49.9	15.3	0.00e+00	0	59	0	381681664	58	4560
2026-01-01 05:36:57.38	37.82	18.44	-47.8	-50.0	15.2	0.00e+00	0	59	0	383778816	58	4619
2026-01-01 05:36:58.35	37.63	18.51	-47.6	-49.7	15.5	0.00e+00	0	59	0	385875968	58	4474
2026-01-01 05:36:59.32	37.43	18.57	-47.4	-49.4	15.7	0.00e+00	0	59	0	386924544	57	4573
2026-01-01 05:37:00.29	37.24	18.63	-47.4	-49.3	15.8	0.00e+00	0	59	0	389021696	57	4517
2026-01-01 05:37:01.26	37.04	18.70	-47.1	-49.0	16.2	0.00e+00	0	59	0	391118848	57	4352
2026-01-01 05:37:02.22	36.85	18.76	-47.2	-49.0	16.1	0.00e+00	0	59	0	393216000	57	4374
2026-01-01 05:37:03.19	36.65	18.83	-47.2	-49.1	15.9	0.00e+00	0	59	0	394264576	57	4430
2026-01-01 05:37:04.18	36.45	18.89	-47.3	-49.3	15.9	0.00e+00	0	59	0	396361728	57	4500
2026-01-01 05:37:05.16	36.24	18.95	-47.4	-49.4	15.8	0.00e+00	0	59	0	398458880	57	4560
2026-01-01 05:37:06.13	36.04	19.02	-47.6	-49.6	15.5	0.00e+00	0	59	0	400556032	57	4695
2026-01-01 05:37:07.10	35.84	19.08	-47.2	-49.1	16.0	0.00e+00	0	59	0	401604608	57	4431
2026-01-01 05:37:08.07	35.64	19.14	-47.0	-48.8	16.3	0.00e+00	0	59	0	403701760	57	4267
2026-01-01 05:37:09.04	35.44	19.20	-46.9	-48.6	16.4	0.00e+00	0	59	0	405798912	56	4425
2026-01-01 05:37:10.01	35.23	19.27	-46.9	-48.7	16.5	0.00e+00	0	59	0	407896064	56	4443
2026-01-01 05:37:10.98	35.03	19.33	-47.1	-48.9	16.2	0.00e+00	0	59	0	408944640	56	4592
2026-01-01 05:37:11.95	34.82	19.39	-47.1	-49.0	16.1	0.00e+00	0	59	0	411041792	56	4607
2026-01-01 05:37:12.92	34.62	19.45	-46.9	-48.6	16.5	0.00e+00	0	59	0	413138944	56	4429
2026-01-01 05:37:13.89	34.41	19.51	-47.1	-48.9	16.3	0.00e+00	0	59	0	414187520	56	4556
2026-01-01 05:37:14.86	34.20	19.57	-47.0	-48.8	16.3	0.00e+00	0	59	0	416284672	56	4511
2026-01-01 05:37:15.83	33.99	19.63	-47.0	-48.8	16.3	0.00e+00	0	59	0	418381824	56	4522
2026-01-01 05:37:16.80	33.78	19.69	-47.0	-48.8	16.3	0.00e+00	0	59	0	420478976	56	4545
2026-01-01 05:37:17.77	33.57	19.75	-47.1	-48.9	16.2	0.00e+00	0	59	0	421527552	56	4597
2026-01-01 05:37:18.74	33.36	19.81	-47.2	-49.0	16.1	0.00e+00	0	59	0	423624704	56	4646
2026-01-01 05:37:19.70	33.15	19.87	-47.1	-48.9	16.3	0.00e+00	0	59	0	425721856	56	4552
2026-01-01 05:37:20.67	32.94	19.93	-47.0	-48.8	16.3	0.00e+00	0	59	0	427819008	56	4525
2026-01-01 05:37:21.64	32.72	19.99	-46.9	-48.7	16.4	0.00e+00	0	59	0	428867584	56	4470
2026-01-01 05:37:22.61	32.51	20.05	-47.0	-48.8	16.3	0.00e+00	0	59	0	430964736	56	4537
2026-01-01 05:37:23.58	32.29	20.11	-46.9	-48.7	16.4	0.00e+00	0	59	0	433061888	56	4464
2026-01-01 05:37:24.55	32.08	20.16	-46.7	-48.4	16.7	0.00e+00	0	59	0	435159040	56	4334
2026-01-01 05:37:25.52	31.86	20.22	-46.6	-48.3	16.9	0.00e+00	0	59	0	436207616	56	4269
2026-01-01 05:37:26.49	31.64	20.28	-46.4	-48.0	17.1	0.00e+00	0	60	0	438304768	56	4113
2026-01-01 05:37:27.46	31.42	20.34	-46.2	-47.6	17.3	0.00e+00	0	60	0	440401920	55	4193
2026-01-01 05:37:28.43	31.20	20.39	-46.2	-47.8	17.3	0.00e+00	0	60	0	442499072	55	4251
2026-01-01 05:37:29.40	30.98	20.45	-46.3	-47.9	17.1	0.00e+00	0	59	0	443547648	55	4309
2026-01-01 05:37:30.36	30.76	20.50	-46.6	-48.3	16.8	0.00e+00	0	60	0	445644800	55	4494
2026-01-01 05:37:31.33	30.54	20.56	-46.7	-48.4	16.7	0.00e+00	0	59	0	447741952	55	4565
2026-01-01 05:37:32.30	30.32	20.62	-46.7	-48.3	16.7	0.00e+00	0	59	0	448790528	55	4520
2026-01-01 05:37:33.27	30.10	20.67	-46.6	-48.3	16.8	0.00e+00	0	60	0	450887680	55	4494
2026-01-01 05:37:34.24	29.87	20.73	-46.9	-48.6	16.5	0.00e+00	0	60	0	452984832	55	4663
2026-01-01 05:37:35.22	29.64	20.78	-46.6	-48.2	16.8	0.00e+00	0	59	0	455081984	55	4489
2026-01-01 05:37:36.19	29.42	20.83	-47.0	-48.7	16.4	0.00e+00	0	60	0	456130560	55	4732
2026-01-01 05:37:37.17	29.19	20.89	-47.5	-49.4	15.8	0.00e+00	0	60	0	458227712	56	4846
2026-01-01 05:37:38.14	28.96	20.94	-47.5	-49.4	15.8	0.00e+00	0	60	0	460324864	56	4850
2026-01-01 05:37:39.11	28.73	21.00	-47.2	-49.1	16.1	0.00e+00	0	60	0	462422016	56	4657
2026-01-01 05:37:40.08	28.50	21.05	-47.2	-49.1	16.1	0.00e+00	0	60	0	463470592	56	4659
2026-01-01 05:37:41.05	28.27	21.10	-47.3	-49.1	16.1	0.00e+00	0	60	0	465567744	56	4676
2026-01-01 05:37:42.03	28.04	21.15	-47.3	-49.2	16.0	0.00e+00	0	60	0	467664896	56	4725
2026-01-01 05:37:43.00	27.81	21.20	-47.2	-49.0	16.2	0.00e+00	0	60	0	469762048	56	4643
2026-01-01 05:37:43.97	27.57	21.26	-47.1	-48.8	16.4	0.00e+00	0	60	0	470810624	56	4514
2026-01-01 05:37:44.94	27.34	21.31	-47.3	-49.0	16.2	0.00e+00	0	60	0	472907776	56	4642
2026-01-01 05:37:45.91	27.11	21.36	-47.0	-48.7	16.5	0.00e+00	0	60	0	475004928	56	4443
2026-01-01 05:37:46.88	26.87	21.41	-46.7	-48.3	16.8	0.00e+00	0	60	0	477102080	56	4257
2026-01-01 05:37:47.85	26.64	21.46	-46.6	-48.2	17.0	0.00e+00	0	60	0	478150656	56	4210
2026-01-01 05:37:48.82	26.40	21.50	-46.5	-48.0	17.2	0.00e+00	0	60	0	480247808	56	4143
2026-01-01 05:37:49.79	26.16	21.55	-46.4	-47.9	17.2	0.00e+00	0	60	0	482344960	55	4293
2026-01-01 05:37:50.75	25.93	21.60	-46.3	-47.8	17.3	0.00e+00	0	60	0	483393536	55	4280
2026-01-01 05:37:51.72	25.69	21.65	-46.2	-47.7	17.4	0.00e+00	0	60	0	485490688	55	4195
2026-01-01 05:37:52.69	25.45	21.70	-46.2	-47.6	17.4	0.00e+00	0	60	0	487587840	55	4186
2026-01-01 05:37:53.65	25.21	21.74	-46.3	-47.7	17.3	0.00e+00	0	60	0	489684992	55	4237
2026-01-01 05:37:54.63	24.97	21.79	-46.4	-47.9	17.2	0.00e+00	0	60	0	490733568	55	4321
2026-01-01 05:37:55.59	24.73	21.83	-46.5	-48.1	17.0	0.00e+00	0	60	0	492830720	55	4400
2026-01-01 05:37:56.57	24.49	21.88	-46.6	-48.1	17.0	0.00e+00	0	60	0	494927872	55	4433
2026-01-01 05:37:57.54	24.24	21.93	-46.4	-47.9	17.2	0.00e+00	0	60	0	497025024	55	4328
2026-01-01 05:37:58.51	24.00	21.97	-46.3	-47.8	17.3	0.00e+00	0	60	0	498073600	55	4264
2026-01-01 05:37:59.48	23.76	22.01	-46.6	-48.2	16.9	0.00e+00	0	60	0	500170752	55	4464
2026-01-01 05:38:00.45	23.51	22.06	-46.7	-48.3	16.8	0.00e+00	0	60	0	502267904	55	4500
2026-01-01 05:38:01.41	23.27	22.10	-46.8	-48.4	16.7	0.00e+00	0	60	0	503316480	55	4585
2026-01-01 05:38:02.38	23.02	22.14	-46.8	-48.4	16.7	0.00e+00	0	60	0	505413632	55	4572
2026-01-01 05:38:03.35	22.77	22.18	-46.7	-48.4	16.7	0.00e+00	0	60	0	507510784	55	4570
2026-01-01 05:38:04.31	22.53	22.23	-46.5	-48.1	17.0	0.00e+00	0	60	0	509607936	55	4417
2026-01-01 05:38:05.28	22.28	22.27	-46.6	-48.2	16.9	0.00e+00	0	60	0	510656512	55	4445
2026-01-01 05:38:06.25	22.03	22.31	-46.8	-48.5	16.6	0.00e+00	0	60	0	512753664	55	4617
2026-01-01 05:38:07.22	21.78	22.35	-46.7	-48.3	16.8	0.00e+00	0	60	0	514850816	55	4512
2026-01-01 05:38:08.18	21.53	22.39	-46.5	-48.0	17.1	0.00e+00	0	60	0	516947968	55	4368
2026-01-01 05:38:09.15	21.28	22.43	-46.3	-47.8	17.3	0.00e+00	0	60	0	517996544	55	4268
2026-01-01 05:38:10.12	21.03	22.46	-46.2	-47.6	17.5	0.00e+00	0	60	0	520093696	55	4170
2026-01-01 05:38:11.09	20.78	22.50	-46.2	-47.7	17.5	0.00e+00	0	60	0	522190848	55	4201
2026-01-01 05:38:12.07	20.52	22.54	-46.5	-48.0	17.1	0.00e+00	0	60	0	524288000	55	4360
2026-01-01 05:38:13.04	20.27	22.58	-46.7	-48.3	16.8	0.00e+00	0	60	0	525336576	55	4527
2026-01-01 05:38:14.01	20.02	22.61	-47.1	-48.8	16.4	0.00e+00	0	60	0	527433728	55	4788
2026-01-01 05:38:14.98	19.76	22.65	-47.3	-49.1	16.1	0.00e+00	0	60	0	529530880	56	4682
2026-01-01 05:38:15.95	19.51	22.68	-47.5	-49.4	15.9	0.00e+00	0	60	0	530579456	57	4561
2026-01-01 05:38:16.91	19.25	22.72	-47.5	-49.4	15.9	0.00e+00	0	60	0	532676608	57	4557
2026-01-01 05:38:17.88	19.00	22.75	-47.8	-49.8	15.5	0.00e+00	0	60	0	534773760	57	4789
2026-01-01 05:38:18.85	18.74	22.78	-48.0	-50.1	15.2	0.00e+00	0	60	0	536870912	57	4930
2026-01-01 05:38:19.82	18.48	22.82	-48.5	-51.0	14.3	0.00e+00	0	60	0	537919488	58	5166
2026-01-01 05:38:20.79	18.22	22.85	-48.7	-51.3	14.0	1.50e-06	0	60	0	540016640	59	5080
2026-01-01 05:38:21.75	17.97	22.88	-48.7	-51.2	14.1	1.50e-06	0	60	0	542113792	59	5015
2026-01-01 05:38:22.72	17.71	22.91	-48.5	-50.9	14.4	2.20e-06	0	60	0	544210944	59	4816
2026-01-01 05:38:23.69	17.45	22.94	-48.2	-50.5	14.8	0.00e+00	0	60	0	545259520	59	4600
2026-01-01 05:38:24.66	17.19	22.97	-48.1	-50.2	15.0	0.00e+00	0	60	0	547356672	59	4475
2026-01-01 05:38:25.63	16.93	23.00	-48.0	-50.1	15.1	0.00e+00	0	60	0	549453824	59	4423
2026-01-01 05:38:26.61	16.67	23.03	-48.1	-50.2	15.0	0.00e+00	0	60	0	551550976	59	4481
2026-01-01 05:38:27.58	16.40	23.06	-47.8	-49.9	15.3	0.00e+00	0	60	0	552599552	58	4580
2026-01-01 05:38:28.55	16.14	23.09	-47.8	-49.9	15.4	0.00e+00	0	60	0	554696704	58	4564
2026-01-01 05:38:29.51	15.88	23.11	-47.6	-49.6	15.6	0.00e+00	0	60	0	556793856	58	4420
2026-01-01 05:38:30.48	15.62	23.14	-47.6	-49.5	15.7	0.00e+00	0	60	0	557842432	58	4374
2026-01-01 05:38:31.45	15.36	23.16	-47.8	-49.8	15.4	0.00e+00	0	60	0	559939584	58	4516
2026-01-01 05:38:32.41	15.09	23.19	-48.0	-50.1	15.2	0.00e+00	0	60	0	562036736	58	4661
2026-01-01 05:38:33.38	14.83	23.21	-47.8	-49.9	15.3	0.00e+00	0	60	0	564133888	58	4572
2026-01-01 05:38:34.34	14.57	23.24	-48.1	-50.2	15.0	7.00e-07	0	60	0	565182464	58	4756
2026-01-01 05:38:35.31	14.30	23.26	-48.1	-50.3	14.9	0.00e+00	0	60	0	567279616	58	4774
2026-01-01 05:38:36.28	14.04	23.28	-47.9	-50.0	15.2	0.00e+00	0	60	0	569376768	58	4611
2026-01-01 05:38:37.25	13.77	23.30	-48.0	-50.2	15.0	0.00e+00	0	60	0	571473920	58	4738
2026-01-01 05:38:38.21	13.51	23.33	-48.1	-50.3	14.9	0.00e+00	0	60	0	572522496	58	4775
2026-01-01 05:38:39.18	13.24	23.35	-48.1	-50.3	14.9	0.00e+00	0	60	0	574619648	58	4781
2026-01-01 05:38:40.15	12.98	23.37	-48.2	-50.5	14.6	7.00e-07	0	60	0	576716800	58	4872
2026-01-01 05:38:41.12	12.71	23.39	-48.1	-50.3	14.8	0.00e+00	0	60	0	578813952	58	4803
2026-01-01 05:38:42.10	12.44	23.40	-47.9	-50.0	15.1	0.00e+00	0	60	0	579862528	58	4627
2026-01-01 05:38:43.06	12.17	23.42	-48.0	-50.3	14.9	0.00e+00	0	60	0	581959680	58	4765
2026-01-01 05:38:44.03	11.90	23.44	-48.2	-50.5	14.6	7.00e-07	0	60	0	584056832	58	4907
2026-01-01 05:38:45.00	11.64	23.46	-48.4	-50.9	14.1	2.20e-06	0	60	0	585105408	58	5144
2026-01-01 05:38:45.98	11.36	23.47	-48.0	-50.3	14.6	0.00e+00	0	61	0	587202560	58	4813
2026-01-01 05:38:46.96	11.09	23.49	-47.9	-50.2	14.7	0.00e+00	0	61	0	589299712	58	4751
2026-01-01 05:38:47.93	10.82	23.50	-47.7	-50.0	14.8	0.00e+00	0	60	0	591396864	58	4633
2026-01-01 05:38:48.90	10.55	23.51	-47.7	-50.0	14.7	0.00e+00	0	61	0	592445440	58	4603
2026-01-01 05:38:49.86	10.29	23.53	-47.6	-49.9	14.7	0.00e+00	0	60	0	594542592	58	4593
2026-01-01 05:38:50.83	10.02	23.54	-47.9	-50.4	14.2	7.00e-07	0	60	0	596639744	58	4820
2026-01-01 05:38:51.80	9.75	23.55	-48.2	-51.1	13.3	8.30e-06	0	60	0	598736896	58	5241
2026-01-01 05:38:52.77	9.48	23.56	-48.7	-52.1	12.0	8.39e-05	0	60	0	599785472	59	5574
2026-01-01 05:38:53.74	9.21	23.57	-49.0	-53.0	11.0	4.76e-04	0	60	0	601882624	60	5817
2026-01-01 05:38:54.71	8.94	23.58	-49.3	-53.7	10.2	2.33e-03	0	60	0	603979776	60	6340
2026-01-01 05:38:55.68	8.66	23.59	-49.4	-54.0	9.8	9.38e-03	0	61	0	606076928	60	6566
2026-01-01 05:38:56.66	8.39	23.60	-49.7	-54.6	9.3	1.41e-02	0	60	0	607125504	61	6627
2026-01-01 05:38:57.63	8.12	23.61	-49.7	-54.8	9.0	2.16e-02	0	60	0	609222656	61	6782
2026-01-01 05:38:58.60	7.85	23.62	-49.9	-55.1	8.9	2.50e-02	0	61	0	611319808	61	6981
2026-01-01 05:38:59.57	7.58	23.62	-49.8	-54.8	9.1	2.18e-02	0	61	0	612368384	61	6774
2026-01-01 05:39:00.54	7.31	23.63	-49.7	-54.7	9.2	2.07e-02	0	61	0	614465536	61	6710
2026-01-01 05:39:01.51	7.03	23.63	-49.5	-54.1	9.8	1.55e-02	0	61	0	616562688	61	6245
2026-01-01 05:39:02.47	6.77	23.64	-49.3	-53.4	10.5	7.12e-03	0	61	0	618659840	61	5758
2026-01-01 05:39:03.45	6.49	23.64	-49.0	-52.7	11.3	2.28e-03	0	61	0	619708416	61	5281
2026-01-01 05:39:04.42	6.22	23.64	-48.8	-52.2	12.1	2.95e-04	0	61	0	621805568	60	5295
2026-01-01 05:39:05.39	5.95	23.64	-48.6	-51.7	12.7	1.09e-04	0	61	0	623902720	60	4991
2026-01-01 05:39:06.36	5.68	23.65	-48.7	-51.9	12.6	9.46e-05	0	61	0	625999872	60	5136
2026-01-01 05:39:07.34	5.40	23.65	-48.8	-52.1	12.3	1.21e-04	0	61	0	627048448	60	5268
2026-01-01 05:39:08.30	5.13	23.65	-49.2	-53.0	11.5	3.71e-04	0	61	0	629145600	60	5808
2026-01-01 05:39:09.27	4.86	23.65	-49.5	-53.9	10.3	2.50e-03	0	61	0	631242752	60	6446
2026-01-01 05:39:10.25	4.58	23.64	-49.9	-55.1	8.7	1.87e-02	0	60	0	633339904	61	7039
2026-01-01 05:39:11.22	4.31	23.64	-50.0	-55.6	8.2	4.86e-02	0	61	0	634388480	61	7390
2026-01-01 05:39:12.19	4.04	23.64	-50.0	-55.5	8.3	6.57e-02	0	61	0	636485632	61	7327
2026-01-01 05:39:13.15	3.77	23.64	-49.8	-54.8	9.1	3.19e-02	0	61	0	638582784	61	6787
2026-01-01 05:39:14.12	3.50	23.63	-49.5	-53.7	10.5	8.02e-03	0	61	0	639631360	61	5971
2026-01-01 05:39:15.09	3.23	23.63	-49.2	-52.8	11.7	1.20e-03	0	61	0	641728512	61	5370
2026-01-01 05:39:16.06	2.96	23.62	-49.0	-52.1	12.7	2.50e-04	0	61	0	643825664	61	4946
2026-01-01 05:39:17.02	2.69	23.61	-48.8	-51.5	13.5	4.65e-05	0	61	0	645922816	60	4917
2026-01-01 05:39:17.99	2.42	23.61	-49.1	-52.0	13.1	2.36e-05	0	60	0	646971392	60	5196
2026-01-01 05:39:18.95	2.15	23.60	-48.7	-51.4	13.7	1.29e-05	0	61	0	649068544	60	4833
2026-01-01 05:39:19.92	1.88	23.59	-48.4	-50.9	14.3	7.00e-07	0	61	0	651165696	60	4579
2026-01-01 05:39:20.89	1.61	23.58	-48.1	-50.4	14.8	7.00e-07	0	61	0	653262848	59	4551
2026-01-01 05:39:21.86	1.34	23.57	-47.9	-50.0	15.2	0.00e+00	0	61	0	654311424	59	4367
2026-01-01 05:39:22.83	1.07	23.56	-47.7	-49.6	15.6	0.00e+00	0	61	0	656408576	58	4432
2026-01-01 05:39:23.80	0.80	23.55	-47.9	-49.9	15.4	0.00e+00	0	61	0	658505728	58	4564
2026-01-01 05:39:24.77	0.53	23.54	-48.0	-50.1	15.1	0.00e+00	0	61	0	659554304	58	4693
2026-01-01 05:39:25.74	0.26	23.53	-48.2	-50.4	14.9	0.00e+00	0	61	0	661651456	58	4845
2026-01-01 05:39:26.71	359.99	23.51	-48.7	-51.2	14.1	2.20e-06	0	61	0	663748608	59	5029
2026-01-01 05:39:27.68	359.72	23.50	-48.5	-50.9	14.4	7.00e-07	0	61	0	665845760	59	4820
2026-01-01 05:39:28.65	359.45	23.49	-48.2	-50.4	14.9	0.00e+00	0	61	0	666894336	59	4562
2026-01-01 05:39:29.61	359.18	23.47	-47.7	-49.6	15.7	0.00e+00	0	61	0	668991488	58	4405
2026-01-01 05:39:30.58	358.91	23.46	-47.3	-49.0	16.2	0.00e+00	0	61	0	671088640	57	4383
2026-01-01 05:39:31.55	358.64	23.44	-47.0	-48.7	16.5	0.00e+00	0	61	0	673185792	57	4240
2026-01-01 05:39:32.51	358.38	23.42	-46.9	-48.6	16.6	0.00e+00	0	61	0	674234368	57	4170
2026-01-01 05:39:33.48	358.11	23.40	-46.7	-48.3	16.9	0.00e+00	0	61	0	676331520	56	4268
2026-01-01 05:39:34.45	357.84	23.39	-46.6	-48.1	17.0	0.00e+00	0	61	0	678428672	56	4193
2026-01-01 05:39:35.42	357.58	23.37	-46.6	-48.2	17.0	0.00e+00	0	61	0	680525824	56	4196
2026-01-01 05:39:36.39	357.31	23.35	-46.7	-48.3	16.9	0.00e+00	0	61	0	681574400	56	4246
2026-01-01 05:39:37.35	357.05	23.33	-46.8	-48.4	16.8	0.00e+00	0	61	0	683671552	56	4303
2026-01-01 05:39:38.32	356.78	23.30	-46.6	-48.1	17.1	0.00e+00	0	61	0	685768704	56	4177
2026-01-01 05:39:39.29	356.51	23.28	-46.9	-48.5	16.6	0.00e+00	0	61	0	687865856	56	4388
2026-01-01 05:39:40.26	356.25	23.26	-46.5	-48.0	17.2	0.00e+00	0	61	0	688914432	56	4133
2026-01-01 05:39:41.22	355.99	23.24	-46.3	-47.8	17.1	0.00e+00	0	61	0	691011584	55	4253
2026-01-01 05:39:42.20	355.72	23.21	-46.1	-47.5	17.6	0.00e+00	0	61	0	693108736	55	4123
2026-01-01 05:39:43.17	355.46	23.19	-46.2	-47.7	17.4	0.00e+00	0	61	0	694157312	55	4204
2026-01-01 05:39:44.15	355.19	23.16	-46.5	-48.0	17.1	0.00e+00	0	61	0	696254464	55	4353
2026-01-01 05:39:45.12	354.93	23.14	-46.6	-48.1	17.0	0.00e+00	0	61	0	698351616	55	4437
2026-01-01 05:39:46.10	354.66	23.11	-46.9	-48.6	16.5	0.00e+00	0	61	0	700448768	55	4681
2026-01-01 05:39:47.06	354.40	23.09	-46.7	-48.4	16.7	0.00e+00	0	61	0	701497344	55	4549
2026-01-01 05:39:48.03	354.14	23.06	-46.9	-48.6	16.5	0.00e+00	0	61	0	703594496	55	4681
2026-01-01 05:39:49.00	353.88	23.03	-46.6	-48.2	16.9	0.00e+00	0	61	0	705691648	55	4460
2026-01-01 05:39:49.97	353.62	23.00	-46.6	-48.1	16.9	0.00e+00	0	61	0	707788800	55	4437
2026-01-01 05:39:50.94	353.35	22.97	-46.5	-48.1	17.0	0.00e+00	0	61	0	708837376	55	4396
2026-01-01 05:39:51.90	353.10	22.94	-46.3	-47.8	17.3	0.00e+00	0	61	0	710934528	55	4247
2026-01-01 05:39:52.87	352.84	22.91	-46.3	-47.8	17.3	0.00e+00	0	61	0	713031680	55	4281
2026-01-01 05:39:53.84	352.58	22.88	-46.5	-48.0	17.1	0.00e+00	0	61	0	715128832	55	4345
2026-01-01 05:39:54.81	352.32	22.85	-46.6	-48.2	16.8	0.00e+00	0	61	0	716177408	55	4487
2026-01-01 05:39:55.78	352.06	22.82	-46.9	-48.6	16.5	0.00e+00	0	61	0	718274560	55	4654
2026-01-01 05:39:56.75	351.81	22.78	-47.2	-48.9	16.2	0.00e+00	0	61	0	720371712	56	4594
2026-01-01 05:39:57.72	351.55	22.75	-47.4	-49.2	16.0	0.00e+00	0	61	0	721420288	56	4747
2026-01-01 05:39:58.69	351.29	22.72	-47.3	-49.1	16.1	0.00e+00	0	61	0	723517440	56	4653
2026-01-01 05:39:59.66	351.04	22.68	-47.0	-48.7	16.4	0.00e+00	0	61	0	725614592	56	4475
2026-01-01 05:40:00.63	350.78	22.65	-47.2	-48.9	16.2	0.00e+00	0	61	0	727711744	56	4589
2026-01-01 05:40:01.60	350.53	22.61	-47.2	-48.9	16.3	0.00e+00	0	61	0	728760320	56	4578
2026-01-01 05:40:02.57	350.27	22.57	-47.4	-49.2	16.0	0.00e+00	0	61	0	730857472	56	4731
2026-01-01 05:40:03.54	350.02	22.54	-47.4	-49.2	16.0	0.00e+00	0	61	0	732954624	56	4724
2026-01-01 05:40:04.51	349.77	22.50	-47.3	-49.1	16.0	0.00e+00	0	61	0	735051776	56	4674
2026-01-01 05:40:05.48	349.51	22.46	-47.4	-49.3	15.9	0.00e+00	0	61	0	736100352	56	4793
2026-01-01 05:40:06.45	349.26	22.42	-48.1	-49.7	15.6	0.00e+00	0	61	0	738197504	57	4741
2026-01-01 05:40:07.42	349.01	22.38	-47.8	-49.8	15.4	0.00e+00	0	61	0	740294656	57	4767
2026-01-01 05:40:08.39	348.76	22.35	-47.8	-49.9	15.4	0.00e+00	0	61	0	742391808	57	4820
2026-01-01 05:40:09.36	348.51	22.31	-48.0	-50.2	15.0	0.00e+00	0	61	0	743440384	57	5001
2026-01-01 05:40:10.33	348.26	22.26	-48.0	-50.2	15.0	0.00e+00	0	61	0	745537536	57	5020
2026-01-01 05:40:11.30	348.02	22.22	-48.4	-50.8	14.4	7.00e-07	0	61	0	747634688	58	5097
2026-01-01 05:40:12.28	347.76	22.18	-48.5	-50.9	14.3	1.50e-06	0	61	0	749731840	58	5132
2026-01-01 05:40:13.25	347.52	22.14	-48.3	-50.6	14.6	0.00e+00	0	61	0	750780416	58	4963
2026-01-01 05:40:14.22	347.27	22.10	-48.3	-50.7	14.5	7.00e-07	0	61	0	752877568	58	4986
2026-01-01 05:40:15.18	347.03	22.05	-48.4	-50.7	14.4	0.00e+00	0	61	0	754974720	58	5040
2026-01-01 05:40:16.15	346.78	22.01	-48.4	-50.8	14.4	1.50e-06	0	61	0	756023296	59	4806
2026-01-01 05:40:17.12	346.54	21.97	-48.1	-50.4	14.7	7.00e-07	0	61	0	758120448	59	4568
2026-01-01 05:40:18.08	346.30	21.92	-47.9	-50.0	15.1	0.00e+00	0	61	0	760217600	59	4365
2026-01-01 05:40:19.06	346.05	21.88	-47.8	-49.8	15.3	0.00e+00	0	61	0	762314752	58	4544
2026-01-01 05:40:20.04	345.81	21.83	-47.7	-49.8	15.3	0.00e+00	0	61	0	763363328	58	4522
2026-01-01 05:40:21.00	345.57	21.79	-47.9	-50.0	15.1	0.00e+00	0	61	0	765460480	58	4640
2026-01-01 05:40:21.97	345.33	21.74	-47.8	-49.8	15.3	0.00e+00	0	61	0	767557632	58	4535
2026-01-01 05:40:22.94	345.09	21.69	-48.0	-50.2	14.9	0.00e+00	0	61	0	769654784	58	4728
2026-01-01 05:40:23.91	344.85	21.65	-47.6	-49.7	15.5	0.00e+00	0	61	0	770703360	58	4444
2026-01-01 05:40:24.88	344.61	21.60	-47.4	-49.4	15.8	0.00e+00	0	61	0	772800512	58	4304
2026-01-01 05:40:25.85	344.37	21.55	-47.2	-49.1	16.0	0.00e+00	0	61	0	774897664	57	4406
2026-01-01 05:40:26.82	344.14	21.50	-47.3	-49.2	15.9	0.00e+00	0	61	0	775946240	57	4464
2026-01-01 05:40:27.79	343.90	21.45	-47.2	-49.0	16.0	0.00e+00	0	61	0	778043392	57	4388
2026-01-01 05:40:28.76	343.67	21.40	-47.4	-49.4	15.7	0.00e+00	0	61	0	780140544	57	4567
2026-01-01 05:40:29.74	343.43	21.35	-47.5	-49.5	15.6	0.00e+00	0	61	0	782237696	57	4601
2026-01-01 05:40:30.70	343.20	21.30	-47.3	-49.2	15.9	0.00e+00	0	61	0	783286272	57	4457
2026-01-01 05:40:31.67	342.96	21.25	-47.3	-49.2	15.9	0.00e+00	0	61	0	785383424	57	4477
2026-01-01 05:40:32.64	342.73	21.20	-47.2	-49.1	16.0	0.00e+00	0	61	0	787480576	57	4406
2026-01-01 05:40:33.61	342.50	21.15	-47.4	-49.3	15.7	0.00e+00	0	61	0	789577728	57	4536
2026-01-01 05:40:34.58	342.27	21.10	-47.7	-49.8	15.3	0.00e+00	0	61	0	790626304	57	4777
2026-01-01 05:40:35.55	342.04	21.05	-48.0	-50.2	14.8	0.00e+00	0	61	0	792723456	57	5033
2026-01-01 05:40:36.52	341.81	20.99	-48.0	-50.4	14.7	0.00e+00	0	61	0	794820608	58	4824
2026-01-01 05:40:37.48	341.58	20.94	-47.9	-50.1	14.9	0.00e+00	0	61	0	796917760	58	4666
2026-01-01 05:40:38.46	341.35	20.89	-47.9	-50.1	14.9	0.00e+00	0	61	0	797966336	58	4699
2026-01-01 05:40:39.43	341.13	20.83	-47.9	-50.2	14.8	0.00e+00	0	61	0	800063488	58	4716
2026-01-01 05:40:40.40	340.90	20.78	-48.1	-50.4	14.5	0.00e+00	0	61	0	802160640	58	4863
2026-01-01 05:40:41.37	340.68	20.72	-48.3	-50.8	14.2	0.00e+00	0	61	0	803209216	58	5067
2026-01-01 05:40:42.34	340.45	20.67	-48.6	-51.3	13.6	7.00e-07	0	61	0	805306368	58	5373
2026-01-01 05:40:43.31	340.23	20.61	-48.7	-51.6	13.3	1.29e-05	0	61	0	807403520	59	5236
2026-01-01 05:40:44.28	340.01	20.56	-49.1	-52.5	12.3	4.80e-05	0	61	0	809500672	60	5491
2026-01-01 05:40:45.26	339.78	20.50	-49.7	-53.7	11.0	3.75e-04	0	61	0	810549248	61	5957
2026-01-01 05:40:46.22	339.56	20.45	-50.2	-55.0	9.5	8.86e-03	0	61	0	812646400	62	6520
2026-01-01 05:40:47.19	339.34	20.39	-50.3	-55.5	9.0	2.17e-02	0	61	0	814743552	62	6957
2026-01-01 05:40:48.16	339.12	20.33	-50.2	-55.3	9.1	2.35e-02	0	61	0	816840704	62	6743
2026-01-01 05:40:49.13	338.90	20.28	-50.1	-55.0	9.4	2.43e-02	0	61	0	817889280	62	6522
2026-01-01 05:40:50.10	338.69	20.22	-50.0	-54.8	9.6	1.56e-02	0	61	0	819986432	62	6404
2026-01-01 05:40:51.07	338.47	20.16	-50.0	-54.8	9.6	1.21e-02	0	61	0	822083584	62	6369
2026-01-01 05:40:52.03	338.25	20.10	-49.4	-53.4	11.1	3.78e-03	0	61	0	824180736	62	5408
2026-01-01 05:40:53.00	338.04	20.05	-49.2	-52.8	11.7	5.58e-04	0	61	0	825229312	61	5355
2026-01-01 05:40:53.97	337.82	19.99	-48.7	-51.9	12.7	2.48e-04	0	61	0	827326464	60	5111
2026-01-01 05:40:54.94	337.61	19.93	-48.5	-51.5	13.1	3.58e-05	0	61	0	829423616	60	4876
2026-01-01 05:40:55.91	337.40	19.87	-48.6	-51.4	13.2	1.75e-05	0	61	0	830472192	59	5153
2026-01-01 05:40:56.88	337.19	19.81	-48.2	-50.9	13.8	6.80e-06	0	61	0	832569344	59	4822
2026-01-01 05:40:57.85	336.97	19.75	-47.8	-50.2	14.4	1.50e-06	0	61	0	834666496	58	4758
2026-01-01 05:40:58.83	336.76	19.69	-47.6	-49.8	14.9	0.00e+00	0	61	0	836763648	58	4516
2026-01-01 05:40:59.80	336.55	19.63	-47.3	-49.4	15.3	0.00e+00	0	61	0	837812224	57	4561
2026-01-01 05:41:00.77	336.34	19.57	-47.1	-49.0	15.6	0.00e+00	0	61	0	839909376	57	4376
2026-01-01 05:41:01.74	336.14	19.51	-46.9	-48.7	16.0	0.00e+00	0	61	0	842006528	56	4475
2026-01-01 05:41:02.71	335.93	19.45	-46.6	-48.3	16.4	0.00e+00	0	61	0	844103680	56	4274
2026-01-01 05:41:03.67	335.72	19.39	-46.7	-48.4	16.3	0.00e+00	0	61	0	845152256	56	4311
2026-01-01 05:41:04.64	335.52	19.32	-46.5	-48.1	16.6	0.00e+00	0	61	0	847249408	56	4181
2026-01-01 05:41:05.60	335.32	19.26	-46.3	-47.9	16.8	0.00e+00	0	61	0	849346560	55	4336
2026-01-01 05:41:06.57	335.11	19.20	-46.8	-48.6	16.2	0.00e+00	0	62	0	851443712	55	4664
2026-01-01 05:41:07.55	334.91	19.14	-46.9	-48.7	16.0	0.00e+00	0	61	0	852492288	55	4751
2026-01-01 05:41:08.51	334.71	19.08	-46.8	-48.6	16.2	0.00e+00	0	61	0	854589440	55	4662
2026-01-01 05:41:09.48	334.51	19.01	-46.8	-48.6	16.2	0.00e+00	0	61	0	856686592	55	4698
2026-01-01 05:41:10.45	334.31	18.95	-47.2	-49.2	15.8	0.00e+00	0	61	0	858783744	56	4707
2026-01-01 05:41:11.42	334.11	18.89	-47.7	-49.9	15.2	0.00e+00	0	61	0	859832320	57	4840
2026-01-01 05:41:12.39	333.91	18.83	-48.3	-50.7	14.4	0.00e+00	0	61	0	861929472	58	5005
2026-01-01 05:41:13.36	333.71	18.76	-48.6	-51.2	13.9	2.20e-06	0	61	0	864026624	58	5307
2026-01-01 05:41:14.33	333.51	18.70	-49.0	-51.8	13.3	1.22e-05	0	61	0	865075200	59	5373
2026-01-01 05:41:15.31	333.32	18.63	-48.6	-51.3	13.8	1.14e-05	0	62	0	867172352	59	5088
2026-01-01 05:41:16.28	333.12	18.57	-48.7	-51.4	13.7	3.80e-06	0	61	0	869269504	59	5123
2026-01-01 05:41:17.24	332.93	18.51	-48.7	-51.5	13.7	5.30e-06	0	61	0	871366656	59	5187
2026-01-01 05:41:18.21	332.73	18.44	-48.7	-51.3	13.8	6.10e-06	0	62	0	872415232	59	5077
2026-01-01 05:41:19.18	332.54	18.38	-48.4	-50.9	14.2	1.50e-06	0	62	0	874512384	59	4858
2026-01-01 05:41:20.14	332.35	18.31	-48.2	-50.6	14.6	0.00e+00	0	62	0	876609536	59	4653
2026-01-01 05:41:21.12	332.16	18.25	-48.0	-50.4	14.8	7.00e-07	0	61	0	878706688	59	4549
2026-01-01 05:41:22.08	331.97	18.18	-48.1	-50.4	14.8	0.00e+00	0	62	0	879755264	59	4573
2026-01-01 05:41:23.05	331.78	18.12	-47.8	-49.9	15.2	0.00e+00	0	62	0	881852416	58	4580
2026-01-01 05:41:24.02	331.59	18.05	-47.6	-49.6	15.5	0.00e+00	0	62	0	883949568	58	4424
2026-01-01 05:41:24.99	331.40	17.99	-47.4	-49.3	15.8	0.00e+00	0	61	0	886046720	57	4528
2026-01-01 05:41:25.95	331.22	17.92	-47.3	-49.2	15.9	0.00e+00	0	62	0	887095296	57	4487
2026-01-01 05:41:26.92	331.03	17.86	-47.4	-49.4	15.8	0.00e+00	0	61	0	889192448	57	4557
2026-01-01 05:41:27.89	330.85	17.79	-47.6	-49.5	15.7	0.00e+00	0	62	0	891289600	57	4632
2026-01-01 05:41:28.86	330.66	17.73	-47.4	-49.3	15.9	0.00e+00	0	62	0	892338176	57	4496
2026-01-01 05:41:29.83	330.48	17.66	-47.5	-49.4	15.8	0.00e+00	0	62	0	894435328	57	4564
2026-01-01 05:41:30.80	330.29	17.59	-47.9	-50.0	15.2	0.00e+00	0	62	0	896532480	57	4893
2026-01-01 05:41:31.77	330.11	17.53	-47.9	-50.1	15.1	0.00e+00	0	61	0	898629632	57	4961
2026-01-01 05:41:32.74	329.93	17.46	-48.0	-50.3	14.9	0.00e+00	0	61	0	899678208	57	5054
2026-01-01 05:41:33.71	329.75	17.39	-48.2	-50.4	14.7	0.00e+00	0	62	0	901775360	58	4867
2026-01-01 05:41:34.69	329.57	17.33	-47.9	-50.0	15.1	0.00e+00	0	62	0	903872512	58	4651
2026-01-01 05:41:35.65	329.39	17.26	-47.9	-50.0	15.2	0.00e+00	0	61	0	905969664	58	4603
2026-01-01 05:41:36.62	329.21	17.19	-48.0	-50.2	14.9	0.00e+00	0	61	0	907018240	58	4758
2026-01-01 05:41:37.58	329.04	17.13	-48.1	-50.3	14.9	0.00e+00	0	61	0	909115392	58	4796
2026-01-01 05:41:38.55	328.86	17.06	-48.0	-50.2	15.0	0.00e+00	0	62	0	911212544	58	4731
2026-01-01 05:41:39.52	328.69	16.99	-48.0	-50.2	15.0	0.00e+00	0	61	0	912261120	58	4724
2026-01-01 05:41:40.49	328.51	16.93	-48.0	-50.2	15.0	0.00e+00	0	61	0	914358272	58	4757
2026-01-01 05:41:41.46	328.34	16.86	-48.1	-50.3	14.9	0.00e+00	0	61	0	916455424	58	4813
2026-01-01 05:41:42.43	328.16	16.79	-47.9	-50.1	15.1	0.00e+00	0	62	0	918552576	58	4680
2026-01-01 05:41:43.40	327.99	16.72	-47.7	-49.7	15.4	0.00e+00	0	61	0	919601152	58	4493
2026-01-01 05:41:44.37	327.82	16.66	-47.6	-49.7	15.5	0.00e+00	0	62	0	921698304	58	4451
2026-01-01 05:41:45.34	327.65	16.59	-47.6	-49.7	15.5	0.00e+00	0	62	0	923795456	58	4443
2026-01-01 05:41:46.31	327.48	16.52	-47.7	-49.7	15.5	0.00e+00	0	62	0	925892608	58	4470
2026-01-01 05:41:47.28	327.31	16.45	-47.6	-49.7	15.5	0.00e+00	0	62	0	926941184	58	4444
2026-01-01 05:41:48.25	327.14	16.38	-47.7	-49.8	15.4	0.00e+00	0	61	0	929038336	58	4498
2026-01-01 05:41:49.22	326.97	16.32	-47.9	-50.0	15.2	0.00e+00	0	62	0	931135488	58	4612
2026-01-01 05:41:50.19	326.80	16.25	-47.8	-49.9	15.2	0.00e+00	0	62	0	933232640	58	4596
2026-01-01 05:41:51.15	326.64	16.18	-47.6	-49.5	15.7	0.00e+00	0	62	0	934281216	58	4380
2026-01-01 05:41:52.13	326.47	16.11	-47.3	-49.1	16.1	0.00e+00	0	62	0	936378368	57	4419
2026-01-01 05:41:53.10	326.31	16.04	-47.3	-49.1	16.1	0.00e+00	0	62	0	938475520	57	4419
2026-01-01 05:41:54.07	326.14	15.98	-47.3	-49.2	15.9	0.00e+00	0	61	0	939524096	57	4484
2026-01-01 05:41:55.04	325.98	15.91	-47.5	-49.4	15.8	0.00e+00	0	62	0	941621248	57	4557
2026-01-01 05:41:56.01	325.82	15.84	-47.5	-49.4	15.7	0.00e+00	0	62	0	943718400	57	4579
2026-01-01 05:41:56.98	325.65	15.77	-47.5	-49.5	15.7	0.00e+00	0	62	0	945815552	57	4606
2026-01-01 05:41:57.95	325.49	15.70	-47.2	-48.9	16.2	0.00e+00	0	62	0	946864128	57	4340
2026-01-01 05:41:58.92	325.33	15.63	-46.9	-48.6	16.5	0.00e+00	0	62	0	948961280	56	4404
2026-01-01 05:41:59.89	325.17	15.56	-46.6	-48.1	17.0	0.00e+00	0	62	0	951058432	56	4179
2026-01-01 05:42:00.86	325.01	15.50	-46.4	-47.9	17.2	0.00e+00	0	62	0	953155584	56	4082
2026-01-01 05:42:01.82	324.86	15.43	-46.3	-47.7	17.3	0.00e+00	0	62	0	954204160	55	4239
2026-01-01 05:42:02.79	324.70	15.36	-46.5	-48.0	17.1	0.00e+00	0	62	0	956301312	55	4362
2026-01-01 05:42:03.76	324.54	15.29	-46.5	-48.0	17.0	0.00e+00	0	62	0	958398464	55	4372
2026-01-01 05:42:04.73	324.39	15.22	-46.6	-48.2	16.8	0.00e+00	0	62	0	960495616	55	4461
2026-01-01 05:42:05.70	324.23	15.15	-46.7	-48.3	16.8	0.00e+00	0	62	0	961544192	55	4511
2026-01-01 05:42:06.66	324.08	15.09	-46.9	-48.6	16.4	0.00e+00	0	62	0	963641344	55	4702
2026-01-01 05:42:07.63	323.93	15.02	-46.9	-48.6	16.4	0.00e+00	0	62	0	965738496	55	4689
2026-01-01 05:42:08.60	323.77	14.95	-46.9	-48.6	16.4	0.00e+00	0	62	0	966787072	55	4692
2026-01-01 05:42:09.57	323.62	14.88	-47.0	-48.7	16.3	0.00e+00	0	62	0	968884224	55	4758
2026-01-01 05:42:10.54	323.47	14.81	-47.2	-49.1	16.1	0.00e+00	0	62	0	970981376	56	4652
2026-01-01 05:42:11.52	323.32	14.74	-47.5	-49.4	15.8	0.00e+00	0	62	0	973078528	56	4825
2026-01-01 05:42:12.50	323.17	14.67	-47.3	-49.2	16.0	0.00e+00	0	62	0	974127104	56	4706
2026-01-01 05:42:13.47	323.02	14.60	-47.2	-49.0	16.1	0.00e+00	0	62	0	976224256	56	4637
2026-01-01 05:42:14.45	322.87	14.53	-46.9	-48.6	16.4	0.00e+00	0	62	0	978321408	56	4438
2026-01-01 05:42:15.42	322.72	14.46	-46.8	-48.4	16.7	0.00e+00	0	62	0	980418560	56	4340
2026-01-01 05:42:16.39	322.57	14.40	-46.8	-48.4	16.7	0.00e+00	0	62	0	981467136	56	4326
2026-01-01 05:42:17.37	322.42	14.33	-46.6	-48.2	16.9	0.00e+00	0	62	0	983564288	56	4204
2026-01-01 05:42:18.33	322.28	14.26	-46.8	-48.4	16.7	0.00e+00	0	62	0	985661440	56	4314
2026-01-01 05:42:19.30	322.13	14.19	-46.9	-48.5	16.6	0.00e+00	0	62	0	987758592	56	4372
2026-01-01 05:42:20.26	321.99	14.12	-47.0	-48.6	16.5	0.00e+00	0	62	0	988807168	56	4426
2026-01-01 05:42:21.23	321.85	14.05	-47.2	-49.0	16.1	0.00e+00	0	61	0	990904320	56	4605
2026-01-01 05:42:22.20	321.70	13.98	-47.4	-49.3	15.8	0.00e+00	0	62	0	993001472	56	4789
2026-01-01 05:42:23.17	321.56	13.92	-47.8	-49.8	15.3	0.00e+00	0	62	0	994050048	57	4799
2026-01-01 05:42:24.14	321.42	13.85	-47.6	-49.6	15.5	0.00e+00	0	62	0	996147200	57	4677
2026-01-01 05:42:25.11	321.28	13.78	-47.9	-50.1	15.0	0.00e+00	0	62	0	998244352	57	4952
2026-01-01 05:42:26.08	321.14	13.71	-47.9	-50.0	15.1	0.00e+00	0	62	0	1000341504	57	4917
2026-01-01 05:42:27.05	321.00	13.64	-47.8	-50.0	15.2	0.00e+00	0	62	0	1001390080	57	4881
2026-01-01 05:42:28.02	320.86	13.57	-47.9	-50.1	15.1	0.00e+00	0	62	0	1003487232	57	4946
2026-01-01 05:42:29.00	320.72	13.50	-48.1	-50.4	14.8	0.00e+00	0	62	0	1005584384	58	4818
2026-01-01 05:42:29.97	320.58	13.43	-48.1	-50.3	14.8	0.00e+00	0	62	0	1007681536	58	4784
2026-01-01 05:42:30.94	320.44	13.37	-47.8	-49.9	15.2	0.00e+00	0	62	0	1008730112	58	4584
2026-01-01 05:42:31.91	320.31	13.30	-47.7	-49.7	15.4	0.00e+00	0	62	0	1010827264	58	4487
2026-01-01 05:42:32.88	320.17	13.23	-47.4	-49.3	15.8	0.00e+00	0	62	0	1012924416	58	4245
2026-01-01 05:42:33.85	320.03	13.16	-47.3	-49.1	16.0	0.00e+00	0	62	0	1015021568	57	4412
2026-01-01 05:42:34.81	319.90	13.09	-47.2	-49.0	16.1	0.00e+00	0	62	0	1016070144	57	4344
2026-01-01 05:42:35.78	319.77	13.02	-47.0	-48.7	16.4	0.00e+00	0	62	0	1018167296	57	4201
2026-01-01 05:42:36.74	319.63	12.96	-47.0	-48.8	16.3	0.00e+00	0	62	0	1020264448	56	4494
2026-01-01 05:42:37.71	319.50	12.89	-47.2	-49.0	16.0	0.00e+00	0	62	0	1022361600	56	4645
2026-01-01 05:42:38.68	319.37	12.82	-47.3	-49.1	15.9	0.00e+00	0	62	0	1023410176	56	4704
2026-01-01 05:42:39.64	319.24	12.75	-47.0	-48.7	16.3	0.00e+00	0	62	0	1025507328	56	4482
2026-01-01 05:42:40.61	319.11	12.68	-47.2	-49.0	16.1	0.00e+00	0	62	0	1027604480	56	4599
2026-01-01 05:42:41.59	318.98	12.62	-47.5	-49.4	15.7	0.00e+00	0	62	0	1028653056	56	4831
2026-01-01 05:42:42.56	318.85	12.55	-47.8	-49.8	15.3	0.00e+00	0	62	0	1030750208	57	4796
2026-01-01 05:42:43.53	318.72	12.48	-48.1	-50.3	14.8	0.00e+00	0	62	0	1032847360	57	5049
2026-01-01 05:42:44.50	318.59	12.41	-48.2	-50.5	14.6	0.00e+00	0	62	0	1034944512	58	4911
2026-01-01 05:42:45.48	318.46	12.34	-48.5	-51.0	14.1	2.20e-06	0	62	0	1035993088	58	5202
2026-01-01 05:42:46.45	318.33	12.27	-48.3	-50.6	14.5	0.00e+00	0	62	0	1038090240	58	4971
2026-01-01 05:42:47.41	318.21	12.21	-48.2	-50.5	14.6	0.00e+00	0	62	0	1040187392	58	4915
2026-01-01 05:42:48.38	318.08	12.14	-48.1	-50.4	14.7	2.20e-06	0	62	0	1042284544	58	4827
2026-01-01 05:42:49.35	317.96	12.07	-48.0	-50.2	14.8	1.50e-06	0	62	0	1043333120	58	4750
2026-01-01 05:42:50.32	317.83	12.00	-48.1	-50.4	14.7	0.00e+00	0	62	0	1045430272	58	4822
2026-01-01 05:42:51.29	317.71	11.94	-48.2	-50.5	14.6	0.00e+00	0	62	0	1047527424	58	4919
2026-01-01 05:42:52.27	317.58	11.87	-48.3	-50.7	14.4	7.00e-07	0	62	0	1049624576	58	4991
2026-01-01 05:42:53.24	317.46	11.80	-48.0	-50.1	14.9	7.00e-07	0	62	0	1050673152	58	4685
2026-01-01 05:42:54.20	317.34	11.73	-47.9	-50.0	15.0	7.00e-07	0	62	0	1052770304	58	4628
2026-01-01 05:42:55.18	317.21	11.67	-47.8	-49.8	15.3	0.00e+00	0	62	0	1054867456	58	4516
2026-01-01 05:42:56.15	317.09	11.60	-47.7	-49.7	15.3	0.00e+00	0	62	0	1056964608	58	4477
2026-01-01 05:42:57.12	316.97	11.53	-48.0	-50.2	14.9	0.00e+00	0	62	0	1058013184	58	4711
2026-01-01 05:42:58.08	316.85	11.46	-48.0	-50.2	14.9	0.00e+00	0	62	0	1060110336	58	4719
2026-01-01 05:42:59.05	316.73	11.40	-47.9	-50.1	14.9	0.00e+00	0	62	0	1062207488	58	4686
2026-01-01 05:43:00.02	316.61	11.33	-47.9	-50.0	15.0	0.00e+00	0	62	0	1063256064	58	4646
2026-01-01 05:43:00.99	316.50	11.26	-48.0	-50.2	14.9	0.00e+00	0	62	0	1065353216	58	4711
2026-01-01 05:43:01.96	316.38	11.20	-48.0	-50.1	14.9	0.00e+00	0	62	0	1067450368	58	4686
2026-01-01 05:43:02.93	316.26	11.13	-48.0	-50.2	14.8	0.00e+00	0	62	0	1069547520	58	4722
2026-01-01 05:43:03.90	316.14	11.06	-48.4	-50.8	14.3	7.00e-07	0	62	0	1070596096	58	5051
2026-01-01 05:43:04.87	316.03	10.99	-48.3	-50.6	14.4	7.00e-07	0	62	0	1072693248	58	4937
2026-01-01 05:43:05.84	315.91	10.93	-48.1	-50.4	14.6	0.00e+00	0	62	0	1074790400	58	4837
2026-01-01 05:43:06.81	315.80	10.86	-48.2	-50.4	14.5	0.00e+00	0	62	0	1076887552	58	4864
2026-01-01 05:43:07.78	315.68	10.79	-48.4	-50.8	14.3	7.00e-07	0	62	0	1077936128	58	5046
2026-01-01 05:43:08.75	315.57	10.73	-48.3	-50.6	14.4	1.50e-06	0	62	0	1080033280	58	4954
2026-01-01 05:43:09.72	315.45	10.66	-48.3	-50.7	14.3	0.00e+00	0	62	0	1082130432	58	5032
2026-01-01 05:43:10.70	315.34	10.59	-48.4	-50.9	14.1	1.50e-06	0	62	0	1084227584	58	5120
2026-01-01 05:43:11.66	315.23	10.53	-48.3	-50.7	14.4	1.50e-06	0	62	0	1085276160	58	4993
2026-01-01 05:43:12.63	315.12	10.46	-48.3	-50.7	14.3	0.00e+00	0	62	0	1087373312	58	5034
2026-01-01 05:43:13.60	315.00	10.40	-48.4	-50.9	14.1	2.20e-06	0	62	0	1089470464	58	5110
2026-01-01 05:43:14.56	314.89	10.33	-48.4	-50.8	14.2	0.00e+00	0	62	0	1090519040	58	5074
2026-01-01 05:43:15.53	314.78	10.26	-48.4	-50.8	14.1	0.00e+00	0	62	0	1092616192	58	5096
2026-01-01 05:43:16.49	314.67	10.20	-48.5	-51.0	14.0	1.50e-06	0	62	0	1094713344	58	5175
2026-01-01 05:43:17.47	314.56	10.13	-48.6	-51.3	13.7	1.50e-06	0	62	0	1096810496	59	5045
2026-01-01 05:43:18.43	314.46	10.07	-48.6	-51.3	13.7	3.00e-06	0	62	0	1097859072	59	5052
2026-01-01 05:43:19.40	314.35	10.00	-48.7	-51.4	13.6	6.80e-06	0	62	0	1099956224	59	5151
2026-01-01 05:43:20.38	314.24	9.93	-48.9	-51.8	13.2	9.90e-06	0	62	0	1102053376	59	5361
2026-01-01 05:43:21.35	314.13	9.87	-48.9	-51.7	13.2	2.13e-05	0	62	0	1104150528	59	5335
2026-01-01 05:43:22.32	314.02	9.80	-49.0	-51.9	13.1	1.75e-05	0	62	0	1105199104	59	5421
2026-01-01 05:43:23.29	313.92	9.74	-48.8	-51.6	13.4	2.89e-05	0	62	0	1107296256	59	5234
2026-01-01 05:43:24.25	313.81	9.67	-48.7	-51.4	13.6	1.29e-05	0	62	0	1109393408	59	5111
2026-01-01 05:43:25.23	313.71	9.61	-48.8	-51.5	13.5	6.80e-06	0	62	0	1111490560	59	5175
2026-01-01 05:43:26.20	313.60	9.54	-48.5	-51.1	13.9	4.50e-06	0	62	0	1112539136	59	4940
2026-01-01 05:43:27.17	313.50	9.48	-48.4	-50.9	14.0	2.20e-06	0	62	0	1114636288	59	4868
2026-01-01 05:43:28.14	313.39	9.41	-48.2	-50.6	14.3	0.00e+00	0	62	0	1116733440	59	4669
2026-01-01 05:43:29.11	313.29	9.35	-48.4	-50.8	14.1	0.00e+00	0	62	0	1117782016	59	4810
2026-01-01 05:43:30.07	313.19	9.28	-48.1	-50.3	14.6	7.00e-07	0	62	0	1119879168	59	4545
2026-01-01 05:43:31.04	313.08	9.22	-47.9	-50.1	14.8	0.00e+00	0	62	0	1121976320	58	4675
2026-01-01 05:43:32.01	312.98	9.15	-48.0	-50.2	14.7	7.00e-07	0	62	0	1124073472	58	4732
2026-01-01 05:43:32.98	312.88	9.09	-47.9	-50.0	14.9	0.00e+00	0	62	0	1125122048	58	4618
2026-01-01 05:43:33.95	312.78	9.02	-47.9	-50.1	14.8	0.00e+00	0	62	0	1127219200	58	4683
2026-01-01 05:43:34.92	312.68	8.96	-48.1	-50.4	14.6	0.00e+00	0	62	0	1129316352	58	4815
2026-01-01 05:43:35.88	312.58	8.90	-48.0	-50.3	14.6	0.00e+00	0	62	0	1131413504	58	4789
2026-01-01 05:43:36.85	312.48	8.83	-48.2	-50.5	14.4	2.20e-06	0	62	0	1132462080	58	4900
2026-01-01 05:43:37.82	312.38	8.77	-48.3	-50.8	14.1	7.00e-07	0	62	0	1134559232	58	5046
2026-01-01 05:43:38.79	312.28	8.70	-48.3	-50.7	14.2	0.00e+00	0	62	0	1136656384	58	5013
2026-01-01 05:43:39.76	312.18	8.64	-48.3	-50.8	14.1	7.00e-07	0	62	0	1137704960	58	5059
2026-01-01 05:43:40.73	312.08	8.57	-48.4	-51.0	13.9	2.20e-06	0	62	0	1139802112	58	5164
2026-01-01 05:43:41.71	311.98	8.51	-48.5	-51.0	13.8	1.06e-05	0	62	0	1141899264	59	4905
2026-01-01 05:43:42.68	311.89	8.45	-48.5	-51.1	13.8	3.80e-06	0	62	0	1143996416	59	4950
2026-01-01 05:43:43.65	311.79	8.38	-48.6	-51.2	13.6	6.80e-06	0	62	0	1145044992	59	5032
2026-01-01 05:43:44.62	311.69	8.32	-48.4	-50.8	14.0	6.80e-06	0	62	0	1147142144	59	4800
2026-01-01 05:43:45.59	311.60	8.25	-48.3	-50.8	14.0	3.00e-06	0	62	0	1149239296	59	4807
2026-01-01 05:43:46.56	311.50	8.19	-48.4	-51.0	13.9	7.00e-07	0	62	0	1151336448	59	4877
2026-01-01 05:43:47.52	311.41	8.13	-48.3	-50.7	14.2	7.00e-07	0	62	0	1152385024	59	4709
2026-01-01 05:43:48.49	311.31	8.06	-48.2	-50.5	14.3	3.80e-06	0	62	0	1154482176	59	4644
2026-01-01 05:43:49.47	311.22	8.00	-48.0	-50.3	14.5	7.00e-07	0	62	0	1156579328	59	4516
2026-01-01 05:43:50.43	311.13	7.94	-48.2	-50.5	14.3	7.00e-07	0	62	0	1158676480	59	4638
2026-01-01 05:43:51.40	311.03	7.87	-48.1	-50.5	14.3	7.00e-07	0	62	0	1159725056	59	4612
2026-01-01 05:43:52.37	310.94	7.81	-48.2	-50.6	14.3	1.50e-06	0	62	0	1161822208	59	4659
2026-01-01 05:43:53.34	310.85	7.75	-48.4	-50.9	13.8	3.80e-06	0	62	0	1163919360	59	4840
2026-01-01 05:43:54.32	310.75	7.68	-48.3	-50.7	14.1	3.00e-06	0	62	0	1164967936	59	4733
2026-01-01 05:43:55.29	310.66	7.62	-48.3	-50.7	14.1	7.00e-07	0	62	0	1167065088	59	4754
2026-01-01 05:43:56.26	310.57	7.56	-48.3	-50.8	14.0	1.50e-06	0	62	0	1169162240	59	4809
2026-01-01 05:43:57.23	310.48	7.50	-48.4	-51.0	13.7	4.50e-06	0	62	0	1171259392	59	4921
2026-01-01 05:43:58.20	310.39	7.43	-48.4	-51.0	13.8	4.50e-06	0	62	0	1172307968	59	4921
2026-01-01 05:43:59.17	310.30	7.37	-48.6	-51.3	13.5	3.00e-06	0	62	0	1174405120	59	5077
2026-01-01 05:44:00.14	310.21	7.31	-48.7	-51.4	13.3	1.22e-05	0	62	0	1176502272	59	5151
2026-01-01 05:44:01.11	310.12	7.25	-48.7	-51.5	13.3	1.67e-05	0	62	0	1178599424	59	5182
2026-01-01 05:44:02.08	310.03	7.18	-48.6	-51.8	13.0	3.05e-05	0	62	0	1179648000	59	5343
2026-01-01 05:44:03.04	309.94	7.12	-48.8	-52.1	12.6	4.65e-05	0	62	0	1181745152	59	5544
2026-01-01 05:44:04.01	309.86	7.06	-49.0	-52.1	12.6	6.86e-05	0	62	0	1183842304	59	5553
2026-01-01 05:44:04.98	309.77	7.00	-49.1	-52.4	12.3	1.27e-04	0	62	0	1185939456	60	5403
2026-01-01 05:44:05.94	309.68	6.94	-49.2	-52.6	12.0	2.73e-04	0	62	0	1186988032	60	5583
2026-01-01 05:44:06.91	309.59	6.88	-49.2	-52.6	12.1	2.91e-04	0	62	0	1189085184	60	5555
2026-01-01 05:44:07.88	309.51	6.81	-49.3	-52.8	11.8	3.10e-04	0	62	0	1191182336	60	5694
2026-01-01 05:44:08.85	309.42	6.75	-49.3	-52.8	11.8	4.34e-04	0	62	0	1192230912	60	5690
2026-01-01 05:44:09.82	309.34	6.69	-49.4	-53.1	11.5	6.71e-04	0	62	0	1194328064	60	5860
2026-01-01 05:44:10.79	309.25	6.63	-49.3	-52.8	11.8	7.67e-04	0	62	0	1196425216	60	5716
2026-01-01 05:44:11.77	309.17	6.57	-49.4	-53.1	11.5	6.15e-04	0	62	0	1198522368	60	5889
2026-01-01 05:44:12.74	309.08	6.51	-49.5	-53.2	11.4	9.82e-04	0	62	0	1199570944	60	5960
2026-01-01 05:44:13.71	309.00	6.44	-49.4	-53.1	11.5	1.17e-03	0	62	0	1201668096	60	5891
2026-01-01 05:44:14.68	308.91	6.38	-49.5	-53.3	11.2	1.06e-03	0	62	0	1203765248	60	6027
2026-01-01 05:44:15.66	308.83	6.32	-49.5	-53.4	11.1	1.73e-03	0	62	0	1205862400	61	5779
2026-01-01 05:44:16.62	308.75	6.26	-49.4	-53.2	11.3	1.63e-03	0	62	0	1206910976	61	5614
