passes_logs/2026/01/01/R3.0SM8_Murmansk_STILSPACE/R3.0SM8_Murmansk_STILSPACE__20260101_023449_NOAA_20_JPSS-1_rec.log

#Pass ID: 20260101_023449_NOAA 20 (JPSS-1)
#Satellite: NOAA 20 (JPSS-1)
#Configuration: NOAA 20
#almurnet v.1.7.20240730
#Start time: 2026-01-01 02:34:51

#Version: 2.2.20231116
#Station: R3.0SM8_Murmansk_STILSPACE
#Location: 33.092731 lon 68.902999 lat
#TLE: 1 43013U 17073A   25365.45761817  .00000173  00000+0  10307-3 0  9993
#TLE: 2 43013  98.7620 301.5517 0001951  60.3814 299.7557 14.19531661420675

#Time	Az	El	Level	Level2	SNR	BER	BlckErr	Temp	State	Recorded	gain1	gain2
2026-01-01 02:34:51.62	33.74	3.13	-52.6	-66.4	3.8	1.49e+00	0	51	0	0	67	18215
2026-01-01 02:34:52.60	33.70	3.20	-52.6	-66.4	3.8	1.49e+00	0	51	104	0	68	17152
2026-01-01 02:34:53.59	33.66	3.26	-52.5	-66.3	3.8	1.49e+00	0	51	104	0	68	16995
2026-01-01 02:34:54.57	33.62	3.32	-52.4	-66.2	3.8	1.49e+00	0	52	104	0	68	16833
2026-01-01 02:34:55.55	33.57	3.38	-52.2	-66.0	3.8	1.49e+00	0	52	104	0	67	17385
2026-01-01 02:34:56.54	33.53	3.45	-52.0	-65.7	3.8	1.49e+00	0	52	104	0	67	16832
2026-01-01 02:34:57.52	33.49	3.51	-51.8	-65.5	3.8	1.49e+00	0	52	104	0	66	17305
2026-01-01 02:34:58.51	33.44	3.57	-51.8	-65.5	3.8	1.49e+00	0	52	104	0	66	17282
2026-01-01 02:34:59.50	33.40	3.64	-51.8	-65.4	3.8	1.49e+00	0	52	104	0	66	17194
2026-01-01 02:35:00.48	33.35	3.70	-51.7	-65.4	3.8	1.49e+00	0	52	104	0	66	17120
2026-01-01 02:35:01.47	33.31	3.77	-51.7	-65.3	3.8	1.49e+00	0	52	104	0	66	16950
2026-01-01 02:35:02.45	33.27	3.83	-51.6	-65.1	3.8	1.49e+00	0	52	104	0	66	16661
2026-01-01 02:35:03.44	33.22	3.89	-51.7	-65.0	3.8	1.49e+00	0	52	104	0	66	16377
2026-01-01 02:35:04.43	33.18	3.96	-51.7	-64.8	3.8	1.49e+00	0	52	104	0	66	16018
2026-01-01 02:35:05.41	33.13	4.02	-51.7	-64.6	3.8	1.49e+00	0	52	104	0	66	15661
2026-01-01 02:35:06.40	33.09	4.09	-51.7	-64.2	3.8	1.49e+00	0	52	104	0	66	14936
2026-01-01 02:35:07.38	33.04	4.15	-51.7	-63.8	3.8	1.49e+00	0	52	104	0	66	14310
2026-01-01 02:35:08.37	32.99	4.21	-51.6	-63.3	3.8	1.49e+00	0	52	104	0	66	13547
2026-01-01 02:35:09.36	32.95	4.28	-51.6	-62.7	3.9	1.48e+00	0	53	104	0	66	12661
2026-01-01 02:35:10.33	32.90	4.34	-51.5	-62.0	4.2	1.45e+00	0	53	0	0	66	11552
2026-01-01 02:35:11.29	32.86	4.41	-51.4	-61.2	4.5	1.23e+00	41	53	0	0	66	10576
2026-01-01 02:35:12.26	32.81	4.47	-51.3	-60.3	4.8	8.91e-01	0	53	0	2097152	65	10167
2026-01-01 02:35:13.22	32.77	4.53	-51.2	-59.2	5.5	6.20e-01	0	53	0	4194304	65	8903
2026-01-01 02:35:14.19	32.72	4.60	-51.0	-58.3	6.1	3.92e-01	0	53	0	6291456	65	8011
2026-01-01 02:35:15.16	32.67	4.66	-50.9	-57.9	6.4	2.86e-01	0	53	0	7340032	65	7668
2026-01-01 02:35:16.12	32.63	4.73	-50.8	-57.2	7.1	1.64e-01	0	53	0	9437184	64	7462
2026-01-01 02:35:17.09	32.58	4.79	-50.6	-56.6	7.6	1.03e-01	0	53	0	11534336	64	6987
2026-01-01 02:35:18.06	32.53	4.86	-50.5	-56.2	8.1	7.02e-02	0	53	0	13631488	64	6656
2026-01-01 02:35:19.02	32.49	4.92	-50.4	-55.8	8.4	5.66e-02	0	53	0	14680064	64	6394
2026-01-01 02:35:19.98	32.44	4.99	-50.4	-55.5	8.9	3.09e-02	0	53	0	16777216	63	6505
2026-01-01 02:35:20.95	32.39	5.05	-50.2	-55.1	9.2	2.01e-02	0	53	0	18874368	63	6231
2026-01-01 02:35:21.91	32.34	5.12	-50.1	-54.9	9.5	1.60e-02	0	53	0	19922944	63	6066
2026-01-01 02:35:22.87	32.30	5.18	-50.3	-55.3	9.1	1.71e-02	0	53	0	22020096	63	6358
2026-01-01 02:35:23.84	32.25	5.25	-50.3	-55.1	9.3	2.02e-02	0	53	0	24117248	63	6263
2026-01-01 02:35:24.80	32.20	5.31	-50.2	-55.0	9.4	1.67e-02	0	54	0	26214400	63	6161
2026-01-01 02:35:25.77	32.15	5.38	-50.2	-54.9	9.5	1.50e-02	0	54	0	27262976	63	6123
2026-01-01 02:35:26.74	32.10	5.44	-50.3	-55.3	9.1	1.82e-02	0	54	0	29360128	63	6387
2026-01-01 02:35:27.71	32.05	5.51	-50.2	-54.8	9.6	1.94e-02	0	54	0	31457280	63	6056
2026-01-01 02:35:28.68	32.00	5.58	-49.9	-54.0	10.5	8.56e-03	0	54	0	33554432	62	5838
2026-01-01 02:35:29.65	31.95	5.64	-49.7	-53.7	10.8	3.00e-03	0	54	0	34603008	62	5594
2026-01-01 02:35:30.62	31.90	5.71	-49.6	-53.3	11.2	1.73e-03	0	54	0	36700160	62	5380
2026-01-01 02:35:31.59	31.85	5.78	-49.4	-53.1	11.4	1.26e-03	0	54	0	38797312	62	5256
2026-01-01 02:35:32.55	31.80	5.84	-49.4	-53.0	11.6	8.32e-04	0	54	0	39845888	62	5184
2026-01-01 02:35:33.52	31.75	5.91	-49.4	-52.9	11.6	6.68e-04	0	54	0	41943040	61	5455
2026-01-01 02:35:34.48	31.70	5.98	-49.5	-53.2	11.3	8.92e-04	0	54	0	44040192	61	5651
2026-01-01 02:35:35.45	31.65	6.04	-49.6	-53.4	11.2	1.51e-03	0	54	0	46137344	61	5733
2026-01-01 02:35:36.41	31.60	6.11	-49.4	-53.0	11.6	9.62e-04	0	54	0	47185920	61	5473
2026-01-01 02:35:37.38	31.54	6.18	-49.3	-52.7	11.9	4.83e-04	0	54	0	49283072	61	5300
2026-01-01 02:35:38.34	31.49	6.25	-49.2	-52.6	11.9	4.21e-04	0	54	0	51380224	61	5278
2026-01-01 02:35:39.31	31.44	6.31	-49.3	-52.7	11.9	4.23e-04	0	54	0	53477376	61	5321
2026-01-01 02:35:40.29	31.39	6.38	-49.3	-52.8	11.8	5.64e-04	0	54	0	54525952	61	5346
2026-01-01 02:35:41.25	31.33	6.45	-49.3	-52.6	12.0	3.90e-04	0	54	0	56623104	61	5258
2026-01-01 02:35:42.22	31.28	6.52	-49.2	-52.4	12.2	2.53e-04	0	54	0	58720256	61	5157
2026-01-01 02:35:43.19	31.23	6.59	-48.9	-52.0	12.7	1.33e-04	0	54	0	60817408	61	4903
2026-01-01 02:35:44.16	31.17	6.66	-49.0	-52.1	12.6	8.85e-05	0	55	0	61865984	61	4944
2026-01-01 02:35:45.13	31.12	6.73	-49.0	-52.1	12.6	9.84e-05	0	55	0	63963136	61	4928
2026-01-01 02:35:46.10	31.06	6.80	-49.0	-52.1	12.6	8.54e-05	0	55	0	66060288	60	5225
2026-01-01 02:35:47.08	31.01	6.87	-49.0	-52.2	12.5	1.28e-04	0	55	0	67108864	60	5322
2026-01-01 02:35:48.05	30.95	6.94	-49.0	-52.1	12.6	8.39e-05	0	55	0	69206016	60	5266
2026-01-01 02:35:49.02	30.90	7.01	-48.8	-51.9	12.9	6.25e-05	0	55	0	71303168	60	5101
2026-01-01 02:35:49.98	30.84	7.07	-48.8	-51.8	12.9	5.72e-05	0	55	0	73400320	60	5047
2026-01-01 02:35:50.95	30.79	7.14	-48.7	-51.7	13.0	4.34e-05	0	55	0	74448896	60	5011
2026-01-01 02:35:51.91	30.73	7.21	-48.7	-51.5	13.2	2.59e-05	0	55	0	76546048	60	4898
2026-01-01 02:35:52.88	30.68	7.28	-48.6	-51.5	13.1	2.97e-05	0	55	0	78643200	60	4917
2026-01-01 02:35:53.86	30.62	7.36	-48.6	-51.5	13.2	2.74e-05	0	55	0	80740352	60	4918
2026-01-01 02:35:54.83	30.56	7.43	-48.7	-51.7	13.1	3.66e-05	0	55	0	81788928	60	5008
2026-01-01 02:35:55.79	30.50	7.50	-48.7	-51.5	13.2	4.04e-05	0	55	0	83886080	60	4892
2026-01-01 02:35:56.76	30.45	7.57	-48.6	-51.4	13.4	1.29e-05	0	55	0	85983232	60	4828
2026-01-01 02:35:57.73	30.39	7.64	-48.7	-51.5	13.3	1.52e-05	0	55	0	88080384	60	4882
2026-01-01 02:35:58.70	30.33	7.71	-48.7	-51.4	13.3	1.52e-05	0	55	0	89128960	60	4861
2026-01-01 02:35:59.67	30.27	7.78	-48.8	-51.6	13.2	1.67e-05	0	55	0	91226112	60	4974
2026-01-01 02:36:00.64	30.21	7.85	-49.0	-51.9	12.8	6.33e-05	0	55	0	93323264	60	5157
2026-01-01 02:36:01.61	30.15	7.92	-48.8	-51.7	13.1	4.27e-05	0	56	0	94371840	60	5020
2026-01-01 02:36:02.58	30.09	8.00	-48.9	-51.8	13.0	4.50e-05	0	56	0	96468992	60	5078
2026-01-01 02:36:03.55	30.04	8.07	-48.8	-51.6	13.2	2.67e-05	0	56	0	98566144	60	4978
2026-01-01 02:36:04.52	29.98	8.14	-48.8	-51.6	13.2	2.82e-05	0	55	0	100663296	60	4974
2026-01-01 02:36:05.48	29.92	8.21	-48.8	-51.7	13.2	2.67e-05	0	56	0	101711872	60	4988
2026-01-01 02:36:06.45	29.85	8.29	-48.8	-51.7	13.2	3.43e-05	0	56	0	103809024	60	4987
2026-01-01 02:36:07.41	29.79	8.36	-48.9	-51.8	13.0	2.36e-05	0	56	0	105906176	60	5075
2026-01-01 02:36:08.37	29.73	8.43	-48.9	-51.8	13.0	5.79e-05	0	56	0	108003328	60	5092
2026-01-01 02:36:09.33	29.67	8.50	-48.7	-51.5	13.4	2.28e-05	0	56	0	109051904	60	4872
2026-01-01 02:36:10.30	29.61	8.58	-48.6	-51.2	13.6	9.90e-06	0	56	0	111149056	60	4738
2026-01-01 02:36:11.27	29.55	8.65	-48.5	-51.2	13.7	8.30e-06	0	56	0	113246208	60	4717
2026-01-01 02:36:12.23	29.49	8.72	-48.6	-51.2	13.7	7.60e-06	0	56	0	114294784	60	4738
2026-01-01 02:36:13.20	29.42	8.80	-48.7	-51.4	13.5	6.80e-06	0	56	0	116391936	60	4837
2026-01-01 02:36:14.16	29.36	8.87	-48.9	-51.7	13.2	1.67e-05	0	56	0	118489088	60	5027
2026-01-01 02:36:15.13	29.30	8.94	-48.9	-51.7	13.2	2.74e-05	0	56	0	120586240	60	5023
2026-01-01 02:36:16.10	29.23	9.02	-48.8	-51.6	13.3	2.28e-05	0	56	0	121634816	60	4969
2026-01-01 02:36:17.06	29.17	9.09	-48.8	-51.5	13.4	1.52e-05	0	56	0	123731968	60	4917
2026-01-01 02:36:18.03	29.10	9.17	-48.8	-51.6	13.3	1.52e-05	0	56	0	125829120	60	4943
2026-01-01 02:36:19.00	29.04	9.24	-48.8	-51.5	13.4	1.60e-05	0	56	0	127926272	60	4915
2026-01-01 02:36:19.97	28.97	9.32	-48.8	-51.5	13.4	1.44e-05	0	56	0	128974848	60	4921
2026-01-01 02:36:20.94	28.91	9.39	-49.0	-51.8	13.1	1.67e-05	0	56	0	131072000	60	5073
2026-01-01 02:36:21.90	28.84	9.47	-48.7	-51.4	13.5	1.67e-05	0	56	0	133169152	60	4866
2026-01-01 02:36:22.87	28.78	9.54	-48.6	-51.2	13.8	1.52e-05	0	56	0	134217728	60	4726
2026-01-01 02:36:23.83	28.71	9.62	-48.5	-51.1	13.9	5.30e-06	0	56	0	136314880	60	4661
2026-01-01 02:36:24.80	28.64	9.70	-48.4	-50.9	14.1	3.80e-06	0	56	0	138412032	60	4572
2026-01-01 02:36:25.77	28.58	9.77	-48.4	-50.8	14.2	2.20e-06	0	56	0	140509184	59	4788
2026-01-01 02:36:26.73	28.51	9.85	-48.4	-50.8	14.1	4.50e-06	0	56	0	141557760	59	4802
2026-01-01 02:36:27.70	28.44	9.93	-48.4	-50.8	14.2	3.80e-06	0	57	0	143654912	59	4787
2026-01-01 02:36:28.66	28.37	10.00	-48.2	-50.6	14.4	7.00e-07	0	56	0	145752064	59	4672
2026-01-01 02:36:29.64	28.30	10.08	-48.2	-50.5	14.5	0.00e+00	0	57	0	147849216	59	4641
2026-01-01 02:36:30.61	28.23	10.16	-48.3	-50.6	14.4	7.00e-07	0	56	0	148897792	59	4665
2026-01-01 02:36:31.58	28.16	10.23	-48.3	-50.6	14.5	7.00e-07	0	57	0	150994944	59	4657
2026-01-01 02:36:32.55	28.09	10.31	-48.4	-50.8	14.2	1.50e-06	0	57	0	153092096	59	4776
2026-01-01 02:36:33.52	28.02	10.39	-48.5	-50.9	14.1	2.20e-06	0	57	0	155189248	59	4859
2026-01-01 02:36:34.50	27.95	10.47	-48.5	-50.9	14.1	2.20e-06	0	57	0	156237824	59	4869
2026-01-01 02:36:35.47	27.88	10.55	-48.5	-50.9	14.1	2.20e-06	0	57	0	158334976	59	4867
2026-01-01 02:36:36.43	27.81	10.63	-48.6	-51.0	14.0	3.00e-06	0	57	0	160432128	59	4924
2026-01-01 02:36:37.40	27.73	10.70	-48.6	-51.2	13.9	3.80e-06	0	57	0	161480704	59	4998
2026-01-01 02:36:38.37	27.66	10.78	-48.7	-51.2	13.8	7.00e-07	0	57	0	163577856	59	5035
2026-01-01 02:36:39.34	27.59	10.86	-48.6	-51.0	14.0	3.00e-06	0	57	0	165675008	59	4904
2026-01-01 02:36:40.31	27.52	10.94	-48.5	-50.9	14.1	1.50e-06	0	57	0	167772160	59	4851
2026-01-01 02:36:41.27	27.44	11.02	-48.5	-51.0	14.1	2.20e-06	0	57	0	168820736	59	4872
2026-01-01 02:36:42.24	27.37	11.10	-48.5	-51.0	14.1	3.00e-06	0	57	0	170917888	59	4883
2026-01-01 02:36:43.21	27.29	11.18	-48.8	-51.4	13.7	3.00e-06	0	57	0	173015040	59	5108
2026-01-01 02:36:44.18	27.22	11.26	-49.0	-51.7	13.3	1.29e-05	0	57	0	175112192	59	5327
2026-01-01 02:36:45.14	27.14	11.34	-48.7	-51.2	13.8	1.52e-05	0	57	0	176160768	59	5025
2026-01-01 02:36:46.11	27.07	11.42	-48.5	-50.9	14.2	1.50e-06	0	57	0	178257920	59	4848
2026-01-01 02:36:47.07	26.99	11.50	-48.3	-50.7	14.4	2.20e-06	0	57	0	180355072	59	4706
2026-01-01 02:36:48.04	26.91	11.58	-48.2	-50.5	14.6	0.00e+00	0	57	0	181403648	59	4628
2026-01-01 02:36:49.01	26.84	11.66	-48.3	-50.5	14.5	0.00e+00	0	57	0	183500800	59	4630
2026-01-01 02:36:49.98	26.76	11.75	-48.2	-50.5	14.6	7.00e-07	0	57	0	185597952	59	4617
2026-01-01 02:36:50.95	26.68	11.83	-48.2	-50.4	14.6	7.00e-07	0	57	0	187695104	59	4594
2026-01-01 02:36:51.92	26.60	11.91	-48.4	-50.7	14.4	0.00e+00	0	57	0	188743680	59	4759
2026-01-01 02:36:52.89	26.52	11.99	-48.3	-50.7	14.5	1.50e-06	0	57	0	190840832	59	4710
2026-01-01 02:36:53.86	26.44	12.07	-48.2	-50.5	14.6	7.00e-07	0	57	0	192937984	59	4614
2026-01-01 02:36:54.82	26.36	12.16	-48.2	-50.5	14.7	7.00e-07	0	57	0	195035136	59	4602
2026-01-01 02:36:55.79	26.28	12.24	-48.4	-50.6	14.5	7.00e-07	0	57	0	196083712	59	4697
2026-01-01 02:36:56.75	26.20	12.32	-48.4	-50.7	14.4	0.00e+00	0	57	0	198180864	59	4752
2026-01-01 02:36:57.71	26.12	12.40	-48.4	-50.7	14.4	7.00e-07	0	57	0	200278016	59	4752
2026-01-01 02:36:58.68	26.04	12.49	-48.4	-50.8	14.4	7.00e-07	0	58	0	202375168	59	4769
2026-01-01 02:36:59.65	25.96	12.57	-48.5	-50.8	14.3	1.50e-06	0	57	0	203423744	59	4794
2026-01-01 02:37:00.61	25.88	12.65	-48.4	-50.7	14.4	1.50e-06	0	58	0	205520896	59	4745
2026-01-01 02:37:01.58	25.79	12.74	-48.3	-50.6	14.5	1.50e-06	0	58	0	207618048	59	4690
2026-01-01 02:37:02.56	25.71	12.82	-48.4	-50.7	14.4	0.00e+00	0	58	0	208666624	59	4752
2026-01-01 02:37:03.55	25.62	12.91	-48.4	-50.6	14.4	0.00e+00	0	58	0	210763776	59	4697
2026-01-01 02:37:04.51	25.54	12.99	-48.4	-50.7	14.4	0.00e+00	0	58	0	212860928	59	4730
2026-01-01 02:37:05.48	25.45	13.08	-48.4	-50.8	14.4	7.00e-07	0	58	0	214958080	59	4765
2026-01-01 02:37:06.45	25.37	13.16	-48.3	-50.5	14.6	0.00e+00	0	58	0	216006656	59	4642
2026-01-01 02:37:07.42	25.28	13.25	-48.2	-50.4	14.7	0.00e+00	0	58	0	218103808	59	4581
2026-01-01 02:37:08.38	25.19	13.34	-48.2	-50.5	14.7	0.00e+00	0	58	0	220200960	59	4600
2026-01-01 02:37:09.35	25.10	13.42	-48.5	-50.8	14.3	7.00e-07	0	58	0	222298112	59	4802
2026-01-01 02:37:10.31	25.02	13.51	-48.5	-50.9	14.3	0.00e+00	0	58	0	223346688	59	4850
2026-01-01 02:37:11.28	24.93	13.59	-48.3	-50.6	14.6	0.00e+00	0	58	0	225443840	59	4678
2026-01-01 02:37:12.25	24.84	13.68	-48.3	-50.6	14.5	7.00e-07	0	58	0	227540992	59	4693
2026-01-01 02:37:13.22	24.75	13.77	-48.4	-50.7	14.4	0.00e+00	0	58	0	228589568	59	4755
2026-01-01 02:37:14.18	24.66	13.85	-48.3	-50.5	14.6	0.00e+00	0	58	0	230686720	59	4647
2026-01-01 02:37:15.15	24.57	13.94	-48.3	-50.5	14.7	0.00e+00	0	58	0	232783872	59	4612
2026-01-01 02:37:16.11	24.48	14.03	-48.3	-50.5	14.6	2.20e-06	0	58	0	234881024	59	4650
2026-01-01 02:37:17.08	24.39	14.12	-48.4	-50.7	14.4	7.00e-07	0	58	0	235929600	59	4753
2026-01-01 02:37:18.05	24.29	14.20	-48.6	-51.0	14.2	1.50e-06	0	58	0	238026752	59	4871
2026-01-01 02:37:19.02	24.20	14.29	-48.3	-50.5	14.6	1.50e-06	0	58	0	240123904	59	4648
2026-01-01 02:37:19.98	24.11	14.38	-48.2	-50.4	14.8	0.00e+00	0	58	0	242221056	59	4568
2026-01-01 02:37:20.94	24.02	14.47	-48.1	-50.3	14.9	0.00e+00	0	58	0	243269632	59	4507
2026-01-01 02:37:21.91	23.92	14.56	-48.0	-50.0	15.2	0.00e+00	0	58	0	245366784	59	4389
2026-01-01 02:37:22.89	23.82	14.65	-48.0	-50.1	15.1	7.00e-07	0	58	0	247463936	59	4405
2026-01-01 02:37:23.86	23.73	14.74	-48.0	-50.1	15.1	0.00e+00	0	58	0	248512512	59	4423
2026-01-01 02:37:24.83	23.63	14.83	-48.0	-50.0	15.2	0.00e+00	0	58	0	250609664	59	4391
2026-01-01 02:37:25.81	23.53	14.92	-48.1	-50.2	15.1	0.00e+00	0	58	0	252706816	59	4462
2026-01-01 02:37:26.78	23.44	15.01	-48.2	-50.3	14.9	7.00e-07	0	58	0	254803968	59	4509
2026-01-01 02:37:27.75	23.34	15.10	-48.0	-50.1	15.2	0.00e+00	0	58	0	255852544	59	4398
2026-01-01 02:37:28.72	23.24	15.19	-47.8	-49.8	15.4	0.00e+00	0	58	0	257949696	58	4544
2026-01-01 02:37:29.68	23.14	15.28	-47.9	-49.9	15.3	0.00e+00	0	58	0	260046848	58	4565
2026-01-01 02:37:30.65	23.04	15.37	-48.0	-50.1	15.1	0.00e+00	0	58	0	262144000	58	4670
2026-01-01 02:37:31.61	22.94	15.46	-48.1	-50.2	15.0	0.00e+00	0	58	0	263192576	58	4721
2026-01-01 02:37:32.58	22.84	15.56	-48.0	-50.1	15.1	0.00e+00	0	58	0	265289728	58	4701
2026-01-01 02:37:33.55	22.73	15.65	-48.0	-50.1	15.1	0.00e+00	0	58	0	267386880	58	4686
2026-01-01 02:37:34.51	22.63	15.74	-48.1	-50.3	15.0	0.00e+00	0	58	0	269484032	58	4762
2026-01-01 02:37:35.48	22.53	15.83	-48.1	-50.2	15.1	0.00e+00	0	59	0	270532608	58	4723
2026-01-01 02:37:36.45	22.42	15.92	-48.0	-50.1	15.2	0.00e+00	0	58	0	272629760	58	4654
2026-01-01 02:37:37.42	22.32	16.02	-48.0	-50.1	15.1	0.00e+00	0	59	0	274726912	58	4665
2026-01-01 02:37:38.39	22.21	16.11	-48.1	-50.2	15.1	0.00e+00	0	58	0	276824064	58	4721
2026-01-01 02:37:39.35	22.11	16.20	-48.3	-50.5	14.8	0.00e+00	0	59	0	277872640	58	4875
2026-01-01 02:37:40.32	22.00	16.30	-48.2	-50.3	14.9	0.00e+00	0	58	0	279969792	58	4785
2026-01-01 02:37:41.29	21.89	16.39	-47.9	-50.0	15.3	0.00e+00	0	58	0	282066944	58	4610
2026-01-01 02:37:42.25	21.79	16.49	-47.8	-49.7	15.5	0.00e+00	0	59	0	283115520	58	4473
2026-01-01 02:37:43.21	21.68	16.58	-47.7	-49.7	15.6	0.00e+00	0	59	0	285212672	58	4451
2026-01-01 02:37:44.18	21.57	16.67	-47.9	-49.8	15.4	0.00e+00	0	59	0	287309824	58	4545
2026-01-01 02:37:45.14	21.46	16.77	-48.0	-50.0	15.2	0.00e+00	0	59	0	289406976	58	4635
2026-01-01 02:37:46.11	21.35	16.86	-48.0	-50.0	15.3	0.00e+00	0	59	0	290455552	58	4616
2026-01-01 02:37:47.07	21.24	16.96	-48.0	-50.1	15.2	0.00e+00	0	58	0	292552704	58	4652
2026-01-01 02:37:48.04	21.12	17.06	-48.2	-50.3	14.9	0.00e+00	0	59	0	294649856	58	4791
2026-01-01 02:37:49.00	21.01	17.15	-48.1	-50.2	15.1	0.00e+00	0	59	0	295698432	58	4714
2026-01-01 02:37:49.97	20.90	17.25	-48.0	-50.1	15.2	0.00e+00	0	59	0	297795584	58	4670
2026-01-01 02:37:50.94	20.78	17.34	-48.1	-50.3	15.0	0.00e+00	0	59	0	299892736	58	4764
2026-01-01 02:37:51.91	20.67	17.44	-48.0	-50.1	15.2	0.00e+00	0	59	0	301989888	58	4674
2026-01-01 02:37:52.88	20.55	17.54	-48.0	-50.0	15.3	0.00e+00	0	59	0	303038464	58	4631
2026-01-01 02:37:53.85	20.43	17.64	-48.0	-50.1	15.2	0.00e+00	0	59	0	305135616	58	4657
2026-01-01 02:37:54.82	20.32	17.73	-48.1	-50.1	15.1	0.00e+00	0	59	0	307232768	58	4701
2026-01-01 02:37:55.78	20.20	17.83	-48.3	-50.4	14.9	0.00e+00	0	59	0	309329920	58	4857
2026-01-01 02:37:56.75	20.08	17.93	-48.3	-50.4	14.8	0.00e+00	0	59	0	310378496	58	4855
2026-01-01 02:37:57.72	19.96	18.03	-48.1	-50.2	15.1	0.00e+00	0	59	0	312475648	58	4724
2026-01-01 02:37:58.68	19.84	18.13	-48.1	-50.1	15.2	0.00e+00	0	59	0	314572800	58	4692
2026-01-01 02:37:59.64	19.72	18.22	-48.0	-50.1	15.3	0.00e+00	0	59	0	316669952	58	4652
2026-01-01 02:38:00.61	19.59	18.32	-47.9	-49.9	15.4	0.00e+00	0	59	0	317718528	58	4563
2026-01-01 02:38:01.58	19.47	18.42	-47.8	-49.7	15.6	0.00e+00	0	59	0	319815680	58	4468
2026-01-01 02:38:02.54	19.35	18.52	-47.8	-49.7	15.6	0.00e+00	0	59	0	321912832	58	4443
2026-01-01 02:38:03.51	19.22	18.62	-47.8	-49.8	15.5	0.00e+00	0	59	0	322961408	58	4513
2026-01-01 02:38:04.47	19.10	18.72	-47.8	-49.8	15.6	0.00e+00	0	59	0	325058560	58	4497
2026-01-01 02:38:05.44	18.97	18.82	-47.8	-49.7	15.7	0.00e+00	0	59	0	327155712	58	4449
2026-01-01 02:38:06.40	18.84	18.92	-47.7	-49.6	15.7	0.00e+00	0	59	0	329252864	58	4407
2026-01-01 02:38:07.37	18.72	19.02	-47.8	-49.8	15.5	0.00e+00	0	59	0	330301440	58	4508
2026-01-01 02:38:08.34	18.59	19.13	-47.9	-49.8	15.5	0.00e+00	0	59	0	332398592	58	4543
2026-01-01 02:38:09.31	18.46	19.23	-47.8	-49.8	15.6	0.00e+00	0	59	0	334495744	58	4496
2026-01-01 02:38:10.28	18.32	19.33	-47.8	-49.7	15.6	0.00e+00	0	59	0	336592896	58	4465
2026-01-01 02:38:11.25	18.19	19.43	-47.9	-49.8	15.5	0.00e+00	0	59	0	337641472	58	4527
2026-01-01 02:38:12.22	18.06	19.53	-48.0	-50.0	15.3	0.00e+00	0	59	0	339738624	58	4623
2026-01-01 02:38:13.19	17.92	19.64	-47.9	-49.9	15.5	0.00e+00	0	59	0	341835776	58	4551
2026-01-01 02:38:14.15	17.79	19.74	-48.0	-49.9	15.4	0.00e+00	0	59	0	342884352	58	4589
2026-01-01 02:38:15.12	17.65	19.84	-48.3	-50.5	14.8	0.00e+00	0	59	0	344981504	58	4878
2026-01-01 02:38:16.09	17.52	19.95	-48.1	-50.2	15.1	0.00e+00	0	59	0	347078656	58	4738
2026-01-01 02:38:17.05	17.38	20.05	-48.3	-50.5	14.9	0.00e+00	0	59	0	349175808	58	4894
2026-01-01 02:38:18.02	17.24	20.15	-48.3	-50.5	14.8	7.00e-07	0	59	0	350224384	58	4916
2026-01-01 02:38:18.99	17.10	20.26	-48.4	-50.6	14.8	0.00e+00	0	59	0	352321536	58	4927
2026-01-01 02:38:19.95	16.96	20.36	-48.4	-50.6	14.7	0.00e+00	0	59	0	354418688	58	4969
2026-01-01 02:38:20.92	16.82	20.46	-48.6	-50.9	14.5	2.20e-06	0	59	0	356515840	58	5112
2026-01-01 02:38:21.89	16.68	20.57	-48.5	-50.8	14.5	0.00e+00	0	59	0	357564416	59	4787
2026-01-01 02:38:22.86	16.53	20.68	-48.5	-50.7	14.6	1.50e-06	0	59	0	359661568	59	4747
2026-01-01 02:38:23.82	16.39	20.78	-48.6	-50.9	14.5	0.00e+00	0	59	0	361758720	59	4848
2026-01-01 02:38:24.79	16.25	20.89	-48.5	-50.8	14.5	7.00e-07	0	60	0	362807296	59	4773
2026-01-01 02:38:25.75	16.10	20.99	-48.4	-50.5	14.8	7.00e-07	0	60	0	364904448	59	4647
2026-01-01 02:38:26.73	15.95	21.10	-48.4	-50.5	14.8	0.00e+00	0	59	0	367001600	59	4648
2026-01-01 02:38:27.69	15.80	21.20	-48.5	-50.7	14.7	0.00e+00	0	59	0	369098752	59	4730
2026-01-01 02:38:28.66	15.65	21.31	-48.5	-50.7	14.7	7.00e-07	0	59	0	370147328	59	4727
2026-01-01 02:38:29.63	15.50	21.42	-48.4	-50.6	14.7	0.00e+00	0	59	0	372244480	59	4705
2026-01-01 02:38:30.60	15.35	21.52	-48.4	-50.6	14.7	7.00e-07	0	59	0	374341632	59	4701
2026-01-01 02:38:31.58	15.20	21.63	-48.5	-50.7	14.6	7.00e-07	0	59	0	376438784	59	4751
2026-01-01 02:38:32.54	15.04	21.74	-48.4	-50.6	14.8	7.00e-07	0	60	0	377487360	59	4664
2026-01-01 02:38:33.50	14.89	21.85	-48.4	-50.7	14.7	7.00e-07	0	59	0	379584512	59	4718
2026-01-01 02:38:34.47	14.73	21.95	-48.4	-50.6	14.8	0.00e+00	0	60	0	381681664	59	4654
2026-01-01 02:38:35.45	14.57	22.06	-48.3	-50.4	15.0	7.00e-07	0	60	0	383778816	59	4585
2026-01-01 02:38:36.41	14.42	22.17	-48.3	-50.4	14.9	0.00e+00	0	60	0	384827392	59	4588
2026-01-01 02:38:37.38	14.26	22.28	-48.3	-50.5	14.8	0.00e+00	0	59	0	386924544	59	4629
2026-01-01 02:38:38.35	14.10	22.39	-48.4	-50.5	14.8	1.50e-06	0	60	0	389021696	59	4646
2026-01-01 02:38:39.32	13.93	22.50	-48.2	-50.3	15.1	0.00e+00	0	60	0	391118848	59	4517
2026-01-01 02:38:40.29	13.77	22.61	-48.1	-50.2	15.2	0.00e+00	0	60	0	392167424	59	4485
2026-01-01 02:38:41.26	13.61	22.72	-48.1	-50.1	15.3	0.00e+00	0	60	0	394264576	59	4427
2026-01-01 02:38:42.23	13.44	22.83	-48.1	-50.2	15.2	0.00e+00	0	60	0	396361728	59	4450
2026-01-01 02:38:43.19	13.28	22.94	-48.1	-50.2	15.2	0.00e+00	0	60	0	397410304	59	4445
2026-01-01 02:38:44.16	13.11	23.05	-48.0	-50.0	15.3	0.00e+00	0	60	0	399507456	59	4373
2026-01-01 02:38:45.13	12.94	23.16	-48.0	-49.9	15.4	0.00e+00	0	60	0	401604608	59	4338
2026-01-01 02:38:46.10	12.77	23.27	-47.9	-49.9	15.4	0.00e+00	0	60	0	403701760	59	4319
2026-01-01 02:38:47.06	12.60	23.38	-48.0	-50.1	15.3	0.00e+00	0	60	0	404750336	59	4402
2026-01-01 02:38:48.03	12.42	23.49	-47.8	-49.8	15.5	0.00e+00	0	60	0	406847488	58	4503
2026-01-01 02:38:48.99	12.25	23.60	-47.9	-49.8	15.5	0.00e+00	0	60	0	408944640	58	4524
2026-01-01 02:38:49.96	12.08	23.71	-47.8	-49.7	15.5	0.00e+00	0	60	0	409993216	58	4483
2026-01-01 02:38:50.93	11.90	23.82	-47.8	-49.8	15.5	0.00e+00	0	60	0	412090368	58	4500
2026-01-01 02:38:51.89	11.72	23.93	-48.0	-50.1	15.1	0.00e+00	0	60	0	414187520	58	4655
2026-01-01 02:38:52.86	11.54	24.05	-47.9	-49.9	15.1	0.00e+00	0	60	0	416284672	58	4598
2026-01-01 02:38:53.82	11.37	24.16	-48.0	-50.2	14.7	0.00e+00	0	60	0	417333248	58	4737
2026-01-01 02:38:54.79	11.18	24.27	-48.4	-50.9	13.9	0.00e+00	0	60	0	419430400	58	5152
2026-01-01 02:38:55.75	11.00	24.38	-48.6	-51.5	13.1	9.10e-06	0	60	0	421527552	59	5168
2026-01-01 02:38:56.72	10.82	24.49	-49.1	-52.6	11.8	2.80e-04	0	60	0	423624704	60	5540
2026-01-01 02:38:57.70	10.63	24.61	-49.3	-53.4	10.7	2.22e-03	0	60	0	424673280	60	6104
2026-01-01 02:38:58.67	10.44	24.72	-49.7	-54.6	9.2	8.03e-03	0	60	0	426770432	61	6580
2026-01-01 02:38:59.64	10.25	24.83	-49.7	-55.0	8.7	3.15e-02	0	60	0	428867584	61	6896
2026-01-01 02:39:00.62	10.06	24.95	-49.9	-55.9	7.6	4.45e-02	0	60	0	430964736	61	7708
2026-01-01 02:39:01.59	9.87	25.06	-49.9	-56.2	7.2	1.48e-01	0	60	0	432013312	61	7946
2026-01-01 02:39:02.57	9.68	25.18	-49.9	-56.1	7.3	1.24e-01	0	60	0	434110464	61	7884
2026-01-01 02:39:03.54	9.48	25.29	-49.9	-56.1	7.3	1.22e-01	0	60	0	436207616	61	7881
2026-01-01 02:39:04.50	9.29	25.40	-50.0	-56.2	7.3	1.32e-01	0	60	0	437256192	61	7930
2026-01-01 02:39:05.47	9.09	25.52	-50.0	-55.7	8.0	8.44e-02	0	60	0	439353344	61	7466
2026-01-01 02:39:06.43	8.89	25.63	-49.8	-54.9	9.0	3.57e-02	0	60	0	441450496	61	6848
2026-01-01 02:39:07.39	8.70	25.74	-49.8	-54.2	9.9	1.38e-02	0	60	0	443547648	61	6317
2026-01-01 02:39:08.35	8.50	25.86	-49.7	-53.7	10.7	4.61e-03	0	60	0	444596224	61	5986
2026-01-01 02:39:09.32	8.29	25.97	-49.7	-53.5	11.1	2.35e-03	0	60	0	446693376	61	5854
2026-01-01 02:39:10.28	8.09	26.08	-49.8	-53.5	11.3	1.33e-03	0	60	0	448790528	61	5824
2026-01-01 02:39:11.25	7.89	26.20	-49.8	-53.4	11.6	7.05e-04	0	60	0	450887680	61	5732
2026-01-01 02:39:12.22	7.68	26.31	-50.0	-53.6	11.3	9.86e-04	0	60	0	451936256	61	5923
2026-01-01 02:39:13.18	7.47	26.43	-49.9	-53.4	11.7	6.61e-04	0	60	0	454033408	61	5746
2026-01-01 02:39:14.16	7.26	26.54	-50.0	-53.6	11.5	6.57e-04	0	60	0	456130560	61	5880
2026-01-01 02:39:15.13	7.05	26.66	-50.0	-53.7	11.4	1.17e-03	0	60	0	458227712	62	5628
2026-01-01 02:39:16.09	6.84	26.77	-50.1	-53.8	11.3	1.07e-03	0	60	0	459276288	62	5708
2026-01-01 02:39:17.06	6.62	26.88	-50.2	-54.1	11.0	1.46e-03	0	60	0	461373440	62	5910
2026-01-01 02:39:18.02	6.41	27.00	-50.4	-54.5	10.6	2.40e-03	0	60	0	463470592	62	6193
2026-01-01 02:39:19.00	6.18	27.11	-50.3	-54.2	10.9	2.28e-03	0	60	0	464519168	62	5934
2026-01-01 02:39:19.96	5.97	27.23	-50.3	-54.3	10.9	2.13e-03	0	60	0	466616320	62	5994
2026-01-01 02:39:20.93	5.75	27.34	-50.0	-53.7	11.4	1.71e-03	0	60	0	468713472	62	5611
2026-01-01 02:39:21.90	5.52	27.46	-49.7	-52.9	12.2	5.42e-04	0	60	0	470810624	62	5153
2026-01-01 02:39:22.86	5.30	27.57	-49.4	-52.5	12.7	1.84e-04	0	60	0	471859200	62	4885
2026-01-01 02:39:23.83	5.07	27.69	-49.1	-51.9	13.3	1.98e-05	0	60	0	473956352	61	4860
2026-01-01 02:39:24.79	4.85	27.80	-49.0	-51.7	13.5	1.90e-05	0	60	0	476053504	61	4746
2026-01-01 02:39:25.76	4.62	27.92	-48.9	-51.6	13.7	6.80e-06	0	60	0	477102080	61	4658
2026-01-01 02:39:26.73	4.39	28.03	-49.0	-51.7	13.6	1.06e-05	0	60	0	479199232	61	4733
2026-01-01 02:39:27.70	4.15	28.14	-49.0	-51.6	13.7	1.06e-05	0	60	0	481296384	61	4686
2026-01-01 02:39:28.67	3.92	28.26	-49.1	-51.7	13.6	3.80e-06	0	60	0	483393536	61	4743
2026-01-01 02:39:29.63	3.69	28.37	-49.1	-51.7	13.6	8.30e-06	0	60	0	484442112	61	4754
2026-01-01 02:39:30.60	3.45	28.49	-49.2	-52.0	13.4	1.06e-05	0	60	0	486539264	61	4903
2026-01-01 02:39:31.57	3.21	28.60	-49.3	-52.2	13.2	1.37e-05	0	60	0	488636416	61	4999
2026-01-01 02:39:32.54	2.97	28.72	-49.3	-52.1	13.3	2.28e-05	0	60	0	490733568	61	4974
2026-01-01 02:39:33.51	2.72	28.83	-49.3	-52.0	13.4	2.05e-05	0	60	0	491782144	61	4923
2026-01-01 02:39:34.48	2.48	28.94	-49.2	-51.9	13.5	1.22e-05	0	60	0	493879296	61	4852
2026-01-01 02:39:35.45	2.23	29.06	-49.2	-51.9	13.5	1.29e-05	0	60	0	495976448	61	4834
2026-01-01 02:39:36.42	1.98	29.17	-49.1	-51.7	13.7	1.06e-05	0	60	0	498073600	61	4731
2026-01-01 02:39:37.38	1.73	29.29	-49.0	-51.6	13.8	4.50e-06	0	60	0	499122176	61	4686
2026-01-01 02:39:38.35	1.48	29.40	-49.2	-51.8	13.6	8.30e-06	0	60	0	501219328	61	4786
2026-01-01 02:39:39.32	1.23	29.51	-49.2	-51.9	13.6	4.50e-06	0	60	0	503316480	61	4815
2026-01-01 02:39:40.28	0.97	29.62	-49.3	-52.1	13.4	8.30e-06	0	60	0	504365056	61	4937
2026-01-01 02:39:41.24	0.72	29.74	-49.2	-51.9	13.5	1.60e-05	0	60	0	506462208	61	4866
2026-01-01 02:39:42.21	0.46	29.85	-49.1	-51.7	13.7	6.80e-06	0	60	0	508559360	61	4755
2026-01-01 02:39:43.18	0.20	29.96	-49.1	-51.8	13.6	1.06e-05	0	61	0	510656512	61	4789
2026-01-01 02:39:44.14	359.94	30.07	-49.2	-51.9	13.5	1.29e-05	0	60	0	511705088	61	4843
2026-01-01 02:39:45.11	359.67	30.18	-49.1	-51.7	13.7	1.22e-05	0	60	0	513802240	61	4743
2026-01-01 02:39:46.08	359.41	30.30	-49.3	-52.1	13.3	1.52e-05	0	60	0	515899392	61	4951
2026-01-01 02:39:47.04	359.14	30.41	-49.2	-52.0	13.5	1.52e-05	0	61	0	517996544	61	4877
2026-01-01 02:39:48.01	358.87	30.52	-49.1	-51.7	13.7	6.10e-06	0	60	0	519045120	61	4743
2026-01-01 02:39:48.98	358.60	30.63	-48.9	-51.3	14.1	2.20e-06	0	60	0	521142272	60	4802
2026-01-01 02:39:49.95	358.32	30.74	-48.8	-51.2	14.2	7.00e-07	0	61	0	523239424	60	4735
2026-01-01 02:39:50.92	358.05	30.85	-48.9	-51.4	14.1	1.50e-06	0	60	0	524288000	60	4839
2026-01-01 02:39:51.88	357.77	30.96	-48.8	-51.3	14.2	2.20e-06	0	61	0	526385152	60	4762
2026-01-01 02:39:52.85	357.49	31.07	-49.0	-51.6	13.9	3.80e-06	0	60	0	528482304	60	4950
2026-01-01 02:39:53.82	357.21	31.18	-49.3	-52.1	13.3	6.80e-06	0	60	0	530579456	60	5244
2026-01-01 02:39:54.78	356.93	31.29	-49.5	-52.4	13.1	3.81e-05	0	61	0	531628032	60	5426
2026-01-01 02:39:55.75	356.64	31.39	-49.8	-52.9	12.5	7.01e-05	0	61	0	533725184	61	5444
2026-01-01 02:39:56.71	356.36	31.50	-49.9	-53.2	12.1	2.29e-04	0	61	0	535822336	61	5641
2026-01-01 02:39:57.68	356.07	31.61	-50.1	-53.5	11.9	2.83e-04	0	61	0	537919488	61	5819
2026-01-01 02:39:58.64	355.78	31.71	-50.2	-53.7	11.7	4.25e-04	0	61	0	538968064	62	5640
2026-01-01 02:39:59.61	355.49	31.82	-50.2	-53.8	11.6	6.87e-04	0	61	0	541065216	62	5670
2026-01-01 02:40:00.58	355.19	31.93	-50.3	-54.0	11.4	7.19e-04	0	61	0	543162368	62	5816
2026-01-01 02:40:01.55	354.89	32.03	-50.4	-54.2	11.2	1.13e-03	0	61	0	544210944	62	5932
2026-01-01 02:40:02.51	354.60	32.14	-50.5	-54.4	11.0	1.34e-03	0	61	0	546308096	62	6080
2026-01-01 02:40:03.49	354.29	32.24	-50.6	-54.7	10.6	2.95e-03	0	61	0	548405248	63	5949
2026-01-01 02:40:04.45	353.99	32.35	-50.5	-54.5	10.9	2.79e-03	0	61	0	550502400	63	5823
2026-01-01 02:40:05.42	353.69	32.45	-50.5	-54.3	11.1	1.81e-03	0	61	0	551550976	63	5706
2026-01-01 02:40:06.39	353.38	32.55	-50.5	-54.3	11.1	1.40e-03	0	61	0	553648128	63	5679
2026-01-01 02:40:07.36	353.07	32.66	-50.5	-54.5	10.9	1.58e-03	0	61	0	555745280	63	5795
2026-01-01 02:40:08.33	352.76	32.76	-50.5	-54.5	10.9	2.07e-03	0	61	0	557842432	63	5802
2026-01-01 02:40:09.29	352.45	32.86	-50.6	-54.7	10.7	2.60e-03	0	60	0	558891008	63	5926
2026-01-01 02:40:10.26	352.13	32.96	-50.7	-54.9	10.4	3.36e-03	0	61	0	560988160	63	6116
2026-01-01 02:40:11.23	351.82	33.06	-50.9	-55.2	10.2	5.19e-03	0	61	0	563085312	63	6311
2026-01-01 02:40:12.20	351.50	33.16	-51.0	-55.5	9.8	7.20e-03	0	61	0	565182464	63	6562
2026-01-01 02:40:13.16	351.18	33.25	-51.1	-56.0	9.3	1.63e-02	0	61	0	566231040	64	6500
2026-01-01 02:40:14.12	350.86	33.35	-51.0	-55.9	9.3	1.91e-02	0	61	0	568328192	64	6450
2026-01-01 02:40:15.09	350.53	33.45	-51.2	-56.2	9.0	2.18e-02	0	61	0	570425344	64	6720
2026-01-01 02:40:16.05	350.21	33.54	-51.1	-56.1	9.1	2.32e-02	0	61	0	571473920	64	6598
2026-01-01 02:40:17.02	349.88	33.64	-51.2	-56.5	8.8	2.61e-02	0	61	0	573571072	64	6891
2026-01-01 02:40:17.98	349.56	33.73	-51.2	-56.3	8.8	3.25e-02	0	61	0	575668224	64	6782
2026-01-01 02:40:18.95	349.22	33.83	-51.2	-56.5	8.8	2.92e-02	0	61	0	577765376	64	6886
2026-01-01 02:40:19.92	348.89	33.92	-51.1	-56.0	9.2	2.86e-02	0	61	0	578813952	64	6547
2026-01-01 02:40:20.89	348.55	34.01	-50.9	-55.6	9.6	1.62e-02	0	61	0	580911104	64	6236
2026-01-01 02:40:21.86	348.21	34.10	-50.9	-55.4	9.9	1.08e-02	0	61	0	583008256	64	6116
2026-01-01 02:40:22.84	347.87	34.20	-50.6	-54.6	10.6	5.98e-03	0	61	0	585105408	64	5586
2026-01-01 02:40:23.81	347.53	34.29	-50.6	-54.6	10.6	2.96e-03	0	61	0	586153984	64	5541
2026-01-01 02:40:24.77	347.19	34.37	-50.5	-54.4	10.9	2.93e-03	0	61	0	588251136	64	5404
2026-01-01 02:40:25.74	346.84	34.46	-50.6	-54.6	10.7	2.11e-03	0	61	0	590348288	64	5551
2026-01-01 02:40:26.71	346.49	34.55	-50.6	-54.7	10.6	3.61e-03	0	61	0	591396864	64	5599
2026-01-01 02:40:27.68	346.14	34.63	-50.5	-54.5	10.8	2.32e-03	0	61	0	593494016	64	5502
2026-01-01 02:40:28.64	345.79	34.72	-50.6	-54.6	10.7	3.23e-03	0	61	0	595591168	64	5580
2026-01-01 02:40:29.61	345.44	34.80	-50.5	-54.3	11.0	2.43e-03	0	61	0	597688320	63	5697
2026-01-01 02:40:30.57	345.09	34.88	-50.2	-53.8	11.6	1.17e-03	0	61	0	598736896	63	5364
2026-01-01 02:40:31.54	344.73	34.97	-50.1	-53.7	11.8	5.52e-04	0	61	0	600834048	63	5311
2026-01-01 02:40:32.51	344.37	35.05	-50.0	-53.7	11.7	5.67e-04	0	61	0	602931200	63	5286
2026-01-01 02:40:33.47	344.02	35.13	-50.0	-53.4	12.1	4.20e-04	0	61	0	605028352	62	5427
2026-01-01 02:40:34.44	343.65	35.20	-49.8	-52.9	12.5	2.04e-04	0	61	0	606076928	62	5154
2026-01-01 02:40:35.41	343.29	35.28	-49.7	-52.7	12.8	7.40e-05	0	61	0	608174080	62	4995
2026-01-01 02:40:36.38	342.92	35.36	-49.5	-52.4	13.1	4.11e-05	0	61	0	610271232	62	4853
2026-01-01 02:40:37.35	342.56	35.43	-49.4	-52.2	13.2	3.28e-05	0	61	0	612368384	62	4758
2026-01-01 02:40:38.32	342.19	35.51	-49.2	-51.8	13.7	9.10e-06	0	61	0	613416960	61	4801
2026-01-01 02:40:39.29	341.82	35.58	-49.4	-52.2	13.3	1.22e-05	0	61	0	615514112	61	4992
2026-01-01 02:40:40.26	341.44	35.65	-49.2	-51.8	13.7	5.30e-06	0	61	0	617611264	61	4805
2026-01-01 02:40:41.23	341.07	35.72	-49.0	-51.5	13.9	3.00e-06	0	61	0	618659840	61	4636
2026-01-01 02:40:42.20	340.69	35.79	-48.8	-51.1	14.4	1.50e-06	0	61	0	620756992	60	4694
2026-01-01 02:40:43.17	340.31	35.86	-48.7	-51.0	14.5	0.00e+00	0	61	0	622854144	60	4611
2026-01-01 02:40:44.14	339.94	35.93	-48.5	-50.7	14.8	0.00e+00	0	61	0	624951296	60	4453
2026-01-01 02:40:45.10	339.56	35.99	-48.4	-50.5	15.0	0.00e+00	0	61	0	625999872	59	4636
2026-01-01 02:40:46.07	339.18	36.05	-48.3	-50.4	15.0	0.00e+00	0	61	0	628097024	59	4582
2026-01-01 02:40:47.04	338.79	36.12	-48.3	-50.3	15.2	0.00e+00	0	61	0	630194176	59	4523
2026-01-01 02:40:48.00	338.41	36.18	-48.3	-50.3	15.2	0.00e+00	0	61	0	632291328	59	4502
2026-01-01 02:40:48.97	338.03	36.24	-48.1	-50.1	15.5	0.00e+00	0	61	0	633339904	59	4416
2026-01-01 02:40:49.94	337.64	36.30	-47.9	-49.7	15.8	0.00e+00	0	61	0	635437056	58	4472
2026-01-01 02:40:50.91	337.25	36.35	-47.9	-49.7	15.9	0.00e+00	0	61	0	637534208	58	4467
2026-01-01 02:40:51.88	336.86	36.41	-47.7	-49.5	16.1	0.00e+00	0	61	0	639631360	58	4342
2026-01-01 02:40:52.85	336.46	36.46	-47.8	-49.6	15.9	0.00e+00	0	61	0	640679936	58	4413
2026-01-01 02:40:53.82	336.07	36.52	-48.0	-50.0	15.6	0.00e+00	0	61	0	642777088	58	4600
2026-01-01 02:40:54.79	335.68	36.57	-47.9	-49.7	15.9	0.00e+00	0	61	0	644874240	58	4471
2026-01-01 02:40:55.76	335.28	36.62	-47.7	-49.5	16.1	0.00e+00	0	61	0	645922816	58	4358
2026-01-01 02:40:56.73	334.88	36.67	-47.5	-49.3	16.3	0.00e+00	0	61	0	648019968	58	4245
2026-01-01 02:40:57.69	334.49	36.71	-47.3	-49.0	16.5	0.00e+00	0	61	0	650117120	57	4387
2026-01-01 02:40:58.65	334.09	36.76	-47.3	-49.0	16.5	0.00e+00	0	61	0	652214272	57	4382
2026-01-01 02:40:59.62	333.69	36.80	-47.4	-49.1	16.5	0.00e+00	0	61	0	653262848	57	4424
2026-01-01 02:41:00.58	333.30	36.84	-47.5	-49.2	16.4	0.00e+00	0	61	0	655360000	57	4442
2026-01-01 02:41:01.55	332.89	36.88	-47.3	-48.9	16.5	0.00e+00	0	61	0	657457152	57	4334
2026-01-01 02:41:02.52	332.49	36.92	-47.2	-48.9	16.6	0.00e+00	0	61	0	658505728	57	4309
2026-01-01 02:41:03.48	332.09	36.96	-47.4	-49.1	16.5	0.00e+00	0	61	0	660602880	57	4436
2026-01-01 02:41:04.45	331.68	37.00	-47.3	-48.9	16.6	0.00e+00	0	61	0	662700032	57	4313
2026-01-01 02:41:05.42	331.28	37.03	-47.2	-48.9	16.6	0.00e+00	0	61	0	664797184	57	4332
2026-01-01 02:41:06.38	330.87	37.06	-47.2	-48.8	16.7	0.00e+00	0	61	0	665845760	57	4283
2026-01-01 02:41:07.35	330.47	37.10	-47.0	-48.6	16.9	0.00e+00	0	61	0	667942912	57	4187
2026-01-01 02:41:08.32	330.06	37.12	-46.8	-48.3	17.2	0.00e+00	0	61	0	670040064	56	4269
2026-01-01 02:41:09.29	329.65	37.15	-46.8	-48.2	17.3	0.00e+00	0	61	0	672137216	56	4235
2026-01-01 02:41:10.26	329.24	37.18	-46.9	-48.4	17.1	0.00e+00	0	61	0	673185792	56	4331
2026-01-01 02:41:11.24	328.82	37.20	-46.8	-48.3	17.3	0.00e+00	0	61	0	675282944	56	4252
2026-01-01 02:41:12.21	328.41	37.23	-46.8	-48.2	17.3	0.00e+00	0	61	0	677380096	56	4237
2026-01-01 02:41:13.18	328.00	37.25	-46.8	-48.3	17.2	0.00e+00	0	61	0	679477248	56	4264
2026-01-01 02:41:14.15	327.59	37.27	-47.0	-48.5	17.1	0.00e+00	0	61	0	680525824	56	4363
2026-01-01 02:41:15.12	327.17	37.29	-47.2	-48.8	16.7	0.00e+00	0	61	0	682622976	56	4531
2026-01-01 02:41:16.08	326.76	37.30	-47.3	-48.9	16.6	0.00e+00	0	61	0	684720128	56	4595
2026-01-01 02:41:17.04	326.35	37.32	-47.7	-49.5	16.0	0.00e+00	0	61	0	685768704	57	4638
2026-01-01 02:41:18.01	325.94	37.33	-47.6	-49.3	16.2	0.00e+00	0	61	0	687865856	57	4537
2026-01-01 02:41:18.97	325.53	37.34	-47.7	-49.5	16.1	0.00e+00	0	61	0	689963008	57	4617
2026-01-01 02:41:19.94	325.12	37.35	-47.9	-49.8	15.8	0.00e+00	0	61	0	692060160	57	4768
2026-01-01 02:41:20.90	324.70	37.36	-47.7	-49.5	16.0	0.00e+00	0	61	0	693108736	57	4627
2026-01-01 02:41:21.87	324.29	37.36	-47.8	-49.7	15.8	0.00e+00	0	61	0	695205888	57	4711
2026-01-01 02:41:22.84	323.87	37.37	-48.1	-50.0	15.6	0.00e+00	0	61	0	697303040	57	4912
2026-01-01 02:41:23.81	323.46	37.37	-48.3	-50.4	15.2	0.00e+00	0	61	0	699400192	58	4836
2026-01-01 02:41:24.77	323.05	37.37	-48.5	-50.6	14.9	7.00e-07	0	61	0	700448768	58	4974
2026-01-01 02:41:25.74	322.63	37.37	-48.4	-50.5	15.1	7.00e-07	0	61	0	702545920	58	4897
2026-01-01 02:41:26.72	322.21	37.37	-48.5	-50.7	14.9	0.00e+00	0	61	0	704643072	58	5012
2026-01-01 02:41:27.69	321.80	37.36	-48.8	-51.2	14.4	0.00e+00	0	61	0	706740224	59	4990
2026-01-01 02:41:28.65	321.39	37.36	-48.8	-51.2	14.4	7.00e-07	0	61	0	707788800	59	4984
2026-01-01 02:41:29.62	320.97	37.35	-48.8	-51.1	14.5	0.00e+00	0	61	0	709885952	59	4945
2026-01-01 02:41:30.59	320.56	37.34	-48.6	-50.7	14.8	0.00e+00	0	61	0	711983104	59	4739
2026-01-01 02:41:31.56	320.14	37.33	-48.3	-50.4	15.2	0.00e+00	0	61	0	713031680	59	4567
2026-01-01 02:41:32.52	319.73	37.32	-48.3	-50.4	15.1	0.00e+00	0	61	0	715128832	59	4551
2026-01-01 02:41:33.49	319.32	37.30	-48.3	-50.4	15.2	0.00e+00	0	61	0	717225984	59	4565
2026-01-01 02:41:34.45	318.91	37.29	-48.3	-50.4	15.1	0.00e+00	0	61	0	719323136	59	4570
2026-01-01 02:41:35.42	318.49	37.27	-48.5	-50.8	14.8	0.00e+00	0	61	0	720371712	59	4767
2026-01-01 02:41:36.38	318.09	37.25	-48.7	-51.0	14.6	0.00e+00	0	61	0	722468864	59	4877
2026-01-01 02:41:37.35	317.67	37.23	-48.5	-50.7	14.9	0.00e+00	0	61	0	724566016	59	4722
2026-01-01 02:41:38.32	317.26	37.20	-48.3	-50.5	15.1	0.00e+00	0	61	0	725614592	59	4608
2026-01-01 02:41:39.28	316.86	37.18	-48.2	-50.4	15.2	0.00e+00	0	61	0	727711744	59	4574
2026-01-01 02:41:40.26	316.44	37.15	-48.7	-51.0	14.5	0.00e+00	0	61	0	729808896	59	4886
2026-01-01 02:41:41.23	316.03	37.13	-49.1	-51.5	14.0	7.00e-07	0	61	0	731906048	59	5195
2026-01-01 02:41:42.20	315.62	37.10	-49.0	-51.5	14.0	0.00e+00	0	61	0	732954624	60	4924
2026-01-01 02:41:43.16	315.22	37.07	-49.0	-51.5	14.1	2.20e-06	0	61	0	735051776	60	4896
2026-01-01 02:41:44.14	314.81	37.03	-49.1	-51.6	14.0	3.00e-06	0	61	0	737148928	60	4962
2026-01-01 02:41:45.11	314.40	37.00	-49.1	-51.7	13.9	3.00e-06	0	61	0	739246080	60	5022
2026-01-01 02:41:46.07	314.00	36.96	-49.5	-52.3	13.2	8.30e-06	0	61	0	740294656	60	5393
2026-01-01 02:41:47.05	313.59	36.92	-49.1	-51.7	13.9	1.06e-05	0	61	0	742391808	60	5002
2026-01-01 02:41:48.01	313.19	36.89	-49.8	-52.9	12.6	3.96e-05	0	61	0	744488960	61	5434
2026-01-01 02:41:48.98	312.79	36.84	-49.9	-53.1	12.4	1.49e-04	0	61	0	746586112	61	5557
2026-01-01 02:41:49.95	312.38	36.80	-50.0	-53.3	12.2	1.89e-04	0	61	0	747634688	61	5687
2026-01-01 02:41:50.91	311.99	36.76	-50.0	-53.2	12.3	1.66e-04	0	61	0	749731840	61	5625
2026-01-01 02:41:51.87	311.59	36.71	-50.0	-53.2	12.3	1.79e-04	0	61	0	751828992	61	5620
2026-01-01 02:41:52.84	311.19	36.67	-50.1	-53.5	12.0	2.94e-04	0	61	0	753926144	62	5495
2026-01-01 02:41:53.81	310.80	36.62	-50.0	-53.2	12.3	2.18e-04	0	61	0	754974720	62	5319
2026-01-01 02:41:54.78	310.40	36.57	-49.8	-52.9	12.6	1.24e-04	0	62	0	757071872	62	5152
2026-01-01 02:41:55.75	310.01	36.52	-49.6	-52.4	13.1	4.88e-05	0	61	0	759169024	62	4863
2026-01-01 02:41:56.72	309.61	36.46	-49.6	-52.4	13.1	2.67e-05	0	61	0	760217600	62	4865
2026-01-01 02:41:57.69	309.22	36.41	-49.6	-52.5	13.0	3.73e-05	0	61	0	762314752	62	4926
2026-01-01 02:41:58.66	308.83	36.35	-49.7	-52.7	12.8	4.11e-05	0	62	0	764411904	62	5007
2026-01-01 02:41:59.63	308.44	36.30	-49.5	-52.3	13.2	5.95e-05	0	61	0	766509056	62	4793
2026-01-01 02:42:00.60	308.05	36.24	-49.3	-52.0	13.5	1.44e-05	0	62	0	767557632	61	4913
2026-01-01 02:42:01.57	307.66	36.18	-49.3	-51.9	13.7	5.30e-06	0	61	0	769654784	61	4838
2026-01-01 02:42:02.54	307.28	36.12	-49.2	-51.9	13.7	6.80e-06	0	61	0	771751936	61	4835
2026-01-01 02:42:03.50	306.90	36.06	-49.1	-51.7	13.9	4.50e-06	0	61	0	773849088	61	4711
2026-01-01 02:42:04.46	306.52	35.99	-49.2	-51.7	13.8	1.06e-05	0	61	0	774897664	61	4759
2026-01-01 02:42:05.43	306.14	35.93	-49.0	-51.5	13.9	3.80e-06	0	61	0	776994816	61	4645
2026-01-01 02:42:06.39	305.76	35.86	-48.8	-51.1	14.4	1.50e-06	0	61	0	779091968	60	4680
2026-01-01 02:42:07.36	305.38	35.79	-48.6	-50.8	14.8	7.00e-07	0	62	0	780140544	60	4519
2026-01-01 02:42:08.33	305.01	35.72	-48.5	-50.6	14.9	0.00e+00	0	62	0	782237696	60	4437
2026-01-01 02:42:09.29	304.64	35.65	-48.5	-50.6	15.0	7.00e-07	0	62	0	784334848	60	4441
2026-01-01 02:42:10.26	304.26	35.58	-48.3	-50.4	15.2	0.00e+00	0	62	0	786432000	59	4561
2026-01-01 02:42:11.22	303.90	35.51	-48.4	-50.5	15.1	0.00e+00	0	62	0	787480576	59	4611
2026-01-01 02:42:12.19	303.53	35.44	-48.5	-50.6	14.9	0.00e+00	0	61	0	789577728	59	4688
2026-01-01 02:42:13.16	303.16	35.36	-48.6	-50.8	14.8	0.00e+00	0	61	0	791674880	59	4767
2026-01-01 02:42:14.12	302.80	35.29	-48.5	-50.6	15.0	0.00e+00	0	61	0	793772032	59	4661
2026-01-01 02:42:15.09	302.43	35.21	-48.3	-50.3	15.2	0.00e+00	0	61	0	794820608	59	4539
2026-01-01 02:42:16.06	302.07	35.13	-48.2	-50.1	15.4	0.00e+00	0	62	0	796917760	59	4430
2026-01-01 02:42:17.03	301.71	35.05	-48.1	-50.0	15.5	0.00e+00	0	62	0	799014912	59	4375
2026-01-01 02:42:18.00	301.35	34.97	-48.0	-49.9	15.7	0.00e+00	0	62	0	800063488	59	4293
2026-01-01 02:42:18.97	300.99	34.89	-48.1	-50.0	15.5	0.00e+00	0	62	0	802160640	59	4391
2026-01-01 02:42:19.94	300.63	34.80	-48.2	-50.1	15.5	0.00e+00	0	61	0	804257792	59	4441
2026-01-01 02:42:20.90	300.28	34.72	-48.1	-50.1	15.5	0.00e+00	0	62	0	806354944	59	4393
2026-01-01 02:42:21.88	299.93	34.63	-48.3	-50.3	15.3	0.00e+00	0	61	0	807403520	59	4500
2026-01-01 02:42:22.85	299.58	34.55	-48.5	-50.7	14.9	0.00e+00	0	62	0	809500672	59	4723
2026-01-01 02:42:23.82	299.23	34.46	-48.5	-50.7	14.9	0.00e+00	0	62	0	811597824	59	4726
2026-01-01 02:42:24.79	298.88	34.37	-48.5	-50.6	15.0	7.00e-07	0	62	0	813694976	59	4697
2026-01-01 02:42:25.75	298.54	34.29	-48.5	-50.7	14.9	0.00e+00	0	62	0	814743552	59	4723
2026-01-01 02:42:26.72	298.20	34.20	-48.4	-50.6	15.1	0.00e+00	0	62	0	816840704	59	4654
2026-01-01 02:42:27.68	297.86	34.11	-48.4	-50.5	15.1	7.00e-07	0	62	0	818937856	59	4605
2026-01-01 02:42:28.65	297.52	34.01	-48.4	-50.5	15.1	0.00e+00	0	62	0	821035008	59	4615
2026-01-01 02:42:29.62	297.19	33.92	-48.7	-50.9	14.6	0.00e+00	0	62	0	822083584	59	4870
2026-01-01 02:42:30.59	296.85	33.83	-49.0	-51.4	14.2	1.50e-06	0	62	0	824180736	59	5132
2026-01-01 02:42:31.56	296.52	33.73	-49.2	-51.8	13.7	3.00e-06	0	62	0	826277888	60	5066
2026-01-01 02:42:32.53	296.19	33.64	-49.3	-52.0	13.5	1.52e-05	0	62	0	828375040	60	5214
2026-01-01 02:42:33.50	295.86	33.54	-49.4	-52.1	13.4	1.29e-05	0	61	0	829423616	60	5276
2026-01-01 02:42:34.47	295.53	33.45	-49.3	-52.0	13.6	1.52e-05	0	61	0	831520768	60	5187
2026-01-01 02:42:35.44	295.20	33.35	-49.2	-51.8	13.7	9.10e-06	0	62	0	833617920	60	5049
2026-01-01 02:42:36.40	294.88	33.25	-49.1	-51.6	13.9	4.50e-06	0	61	0	834666496	60	4978
2026-01-01 02:42:37.37	294.56	33.15	-49.0	-51.5	14.1	7.00e-07	0	62	0	836763648	60	4883
2026-01-01 02:42:38.34	294.24	33.05	-48.7	-51.0	14.4	7.00e-07	0	62	0	838860800	60	4645
2026-01-01 02:42:39.30	293.93	32.96	-48.7	-51.0	14.6	7.00e-07	0	62	0	840957952	60	4617
2026-01-01 02:42:40.27	293.61	32.86	-48.9	-51.3	14.3	0.00e+00	0	62	0	842006528	60	4765
2026-01-01 02:42:41.23	293.30	32.75	-49.2	-51.8	13.8	2.20e-06	0	62	0	844103680	60	5044
2026-01-01 02:42:42.20	292.99	32.65	-49.4	-52.1	13.4	8.30e-06	0	62	0	846200832	60	5256
2026-01-01 02:42:43.17	292.68	32.55	-49.4	-52.2	13.3	1.37e-05	0	62	0	848297984	60	5338
2026-01-01 02:42:44.14	292.37	32.45	-49.4	-52.1	13.3	1.75e-05	0	62	0	849346560	60	5274
2026-01-01 02:42:45.11	292.07	32.34	-49.5	-52.4	13.1	2.36e-05	0	62	0	851443712	60	5435
2026-01-01 02:42:46.07	291.77	32.24	-49.7	-52.7	12.9	6.25e-05	0	62	0	853540864	61	5282
2026-01-01 02:42:47.05	291.46	32.13	-49.3	-51.9	13.6	9.90e-06	0	62	0	854589440	61	4857
2026-01-01 02:42:48.02	291.16	32.03	-49.3	-52.0	13.6	6.80e-06	0	62	0	856686592	61	4879
2026-01-01 02:42:48.99	290.86	31.92	-49.2	-51.9	13.7	3.80e-06	0	62	0	858783744	61	4839
2026-01-01 02:42:49.95	290.57	31.82	-49.4	-52.2	13.3	1.60e-05	0	62	0	860880896	61	4993
2026-01-01 02:42:50.92	290.28	31.71	-49.5	-52.4	13.2	2.67e-05	0	62	0	861929472	61	5105
2026-01-01 02:42:51.88	289.99	31.60	-49.5	-52.4	13.1	2.28e-05	0	62	0	864026624	61	5118
2026-01-01 02:42:52.84	289.70	31.50	-49.6	-52.5	13.0	2.67e-05	0	62	0	866123776	61	5174
2026-01-01 02:42:53.81	289.41	31.39	-49.5	-52.4	13.1	2.59e-05	0	62	0	868220928	61	5152
2026-01-01 02:42:54.78	289.13	31.28	-49.2	-51.9	13.7	5.30e-06	0	62	0	869269504	61	4822
2026-01-01 02:42:55.75	288.84	31.17	-49.1	-51.7	13.9	6.10e-06	0	62	0	871366656	61	4710
2026-01-01 02:42:56.71	288.56	31.06	-49.1	-51.7	13.8	4.50e-06	0	62	0	873463808	61	4707
2026-01-01 02:42:57.67	288.28	30.95	-49.2	-51.9	13.6	9.10e-06	0	62	0	874512384	61	4841
2026-01-01 02:42:58.64	288.00	30.84	-49.3	-51.9	13.5	6.80e-06	0	62	0	876609536	61	4865
2026-01-01 02:42:59.61	287.73	30.73	-49.3	-52.1	13.5	1.06e-05	0	62	0	878706688	61	4941
2026-01-01 02:43:00.58	287.45	30.62	-49.3	-52.1	13.4	1.67e-05	0	62	0	880803840	61	4932
2026-01-01 02:43:01.55	287.18	30.51	-49.4	-52.3	13.2	1.44e-05	0	62	0	881852416	61	5051
2026-01-01 02:43:02.51	286.91	30.40	-49.4	-52.2	13.3	3.81e-05	0	62	0	883949568	61	5015
2026-01-01 02:43:03.49	286.64	30.29	-49.4	-52.2	13.3	1.29e-05	0	62	0	886046720	61	4994
2026-01-01 02:43:04.45	286.37	30.18	-49.4	-52.2	13.3	1.83e-05	0	62	0	888143872	61	4996
2026-01-01 02:43:05.42	286.11	30.07	-49.4	-52.2	13.3	1.83e-05	0	62	0	889192448	61	5014
2026-01-01 02:43:06.39	285.85	29.95	-49.3	-52.0	13.5	8.30e-06	0	62	0	891289600	61	4889
2026-01-01 02:43:07.35	285.59	29.84	-49.3	-51.9	13.6	1.22e-05	0	62	0	893386752	61	4852
2026-01-01 02:43:08.32	285.33	29.73	-49.3	-52.0	13.6	1.67e-05	0	62	0	894435328	61	4878
2026-01-01 02:43:09.28	285.07	29.62	-49.2	-51.8	13.7	6.80e-06	0	62	0	896532480	61	4775
2026-01-01 02:43:10.25	284.81	29.50	-49.2	-51.8	13.7	6.10e-06	0	62	0	898629632	61	4798
2026-01-01 02:43:11.22	284.56	29.39	-49.1	-51.8	13.7	3.80e-06	0	62	0	900726784	61	4762
2026-01-01 02:43:12.18	284.31	29.28	-49.1	-51.8	13.7	3.00e-06	0	62	0	901775360	61	4770
2026-01-01 02:43:13.14	284.06	29.16	-49.3	-51.9	13.5	9.90e-06	0	62	0	903872512	61	4869
2026-01-01 02:43:14.11	283.81	29.05	-49.3	-52.0	13.5	9.10e-06	0	62	0	905969664	61	4882
2026-01-01 02:43:15.07	283.57	28.94	-49.0	-51.5	14.0	2.20e-06	0	62	0	907018240	61	4613
2026-01-01 02:43:16.04	283.32	28.82	-48.8	-51.1	14.4	7.00e-07	0	62	0	909115392	60	4685
2026-01-01 02:43:17.00	283.08	28.71	-48.7	-51.1	14.5	7.00e-07	0	62	0	911212544	60	4653
2026-01-01 02:43:17.97	282.84	28.59	-48.7	-51.0	14.5	1.50e-06	0	62	0	913309696	60	4640
2026-01-01 02:43:18.94	282.60	28.48	-48.6	-50.9	14.6	0.00e+00	0	62	0	914358272	60	4578
2026-01-01 02:43:19.91	282.36	28.37	-48.8	-51.2	14.3	7.00e-07	0	62	0	916455424	60	4713
2026-01-01 02:43:20.88	282.12	28.25	-48.4	-50.6	14.9	0.00e+00	0	62	0	918552576	60	4398
2026-01-01 02:43:21.85	281.89	28.14	-48.1	-50.1	15.4	7.00e-07	0	62	0	920649728	59	4409
2026-01-01 02:43:22.83	281.65	28.02	-47.9	-49.7	15.8	0.00e+00	0	62	0	921698304	58	4485
2026-01-01 02:43:23.79	281.42	27.91	-47.7	-49.5	16.0	0.00e+00	0	62	0	923795456	58	4364
2026-01-01 02:43:24.76	281.19	27.79	-47.6	-49.3	16.2	0.00e+00	0	62	0	925892608	58	4289
2026-01-01 02:43:25.72	280.96	27.68	-47.6	-49.3	16.2	0.00e+00	0	62	0	927989760	58	4277
2026-01-01 02:43:26.69	280.74	27.56	-47.5	-49.3	16.3	0.00e+00	0	62	0	929038336	58	4254
2026-01-01 02:43:27.66	280.51	27.45	-47.6	-49.4	16.1	0.00e+00	0	62	0	931135488	58	4313
2026-01-01 02:43:28.62	280.29	27.33	-47.7	-49.4	16.1	0.00e+00	0	62	0	933232640	58	4336
2026-01-01 02:43:29.59	280.07	27.22	-47.6	-49.4	16.1	0.00e+00	0	62	0	935329792	58	4306
2026-01-01 02:43:30.55	279.85	27.10	-47.6	-49.4	16.2	0.00e+00	0	62	0	936378368	58	4312
2026-01-01 02:43:31.52	279.63	26.99	-47.5	-49.3	16.2	0.00e+00	0	62	0	938475520	58	4268
2026-01-01 02:43:32.48	279.42	26.87	-47.5	-49.2	16.3	0.00e+00	0	62	0	940572672	58	4213
2026-01-01 02:43:33.45	279.20	26.76	-47.2	-48.9	16.6	0.00e+00	0	62	0	941621248	57	4303
2026-01-01 02:43:34.42	278.99	26.64	-47.2	-48.8	16.7	0.00e+00	0	62	0	943718400	57	4276
2026-01-01 02:43:35.39	278.78	26.53	-47.2	-48.8	16.7	0.00e+00	0	62	0	945815552	57	4267
2026-01-01 02:43:36.35	278.57	26.42	-47.3	-48.9	16.6	0.00e+00	0	62	0	947912704	57	4326
2026-01-01 02:43:37.32	278.36	26.30	-47.3	-48.9	16.6	0.00e+00	0	62	0	948961280	57	4322
2026-01-01 02:43:38.29	278.15	26.19	-47.1	-48.7	16.8	0.00e+00	0	62	0	951058432	57	4214
2026-01-01 02:43:39.26	277.94	26.07	-46.9	-48.4	17.1	0.00e+00	0	62	0	953155584	57	4083
2026-01-01 02:43:40.23	277.74	25.96	-46.9	-48.5	17.1	0.00e+00	0	62	0	955252736	56	4357
2026-01-01 02:43:41.20	277.53	25.84	-46.9	-48.4	17.1	0.00e+00	0	62	0	956301312	56	4301
2026-01-01 02:43:42.17	277.33	25.73	-46.8	-48.3	17.2	0.00e+00	0	62	0	958398464	56	4275
2026-01-01 02:43:43.13	277.13	25.61	-46.9	-48.4	17.0	0.00e+00	0	62	0	960495616	56	4339
2026-01-01 02:43:44.10	276.93	25.50	-47.0	-48.6	16.9	0.00e+00	0	62	0	961544192	56	4419
2026-01-01 02:43:45.06	276.74	25.39	-47.0	-48.6	16.9	0.00e+00	0	62	0	963641344	56	4409
2026-01-01 02:43:46.02	276.54	25.27	-47.1	-48.6	16.8	0.00e+00	0	62	0	965738496	56	4440
2026-01-01 02:43:46.99	276.35	25.16	-47.2	-48.9	16.6	0.00e+00	0	62	0	967835648	56	4547
2026-01-01 02:43:47.95	276.16	25.05	-47.1	-48.7	16.8	0.00e+00	0	62	0	968884224	56	4454
2026-01-01 02:43:48.92	275.97	24.93	-47.1	-48.7	16.7	0.00e+00	0	62	0	970981376	56	4493
2026-01-01 02:43:49.88	275.78	24.82	-47.3	-48.9	16.6	0.00e+00	0	62	0	973078528	56	4592
2026-01-01 02:43:50.84	275.59	24.71	-47.2	-48.9	16.6	0.00e+00	0	62	0	975175680	56	4565
2026-01-01 02:43:51.81	275.40	24.60	-47.3	-48.9	16.5	0.00e+00	0	62	0	976224256	56	4595
2026-01-01 02:43:52.78	275.22	24.48	-47.5	-49.2	16.3	0.00e+00	0	62	0	978321408	56	4736
2026-01-01 02:43:53.75	275.03	24.37	-47.4	-49.2	16.3	0.00e+00	0	62	0	980418560	56	4719
2026-01-01 02:43:54.71	274.85	24.26	-47.4	-49.1	16.4	0.00e+00	0	62	0	981467136	56	4675
2026-01-01 02:43:55.68	274.67	24.15	-47.5	-49.3	16.2	0.00e+00	0	62	0	983564288	56	4760
2026-01-01 02:43:56.65	274.49	24.03	-47.5	-49.3	16.2	0.00e+00	0	62	0	985661440	56	4780
2026-01-01 02:43:57.61	274.31	23.92	-47.6	-49.4	16.1	0.00e+00	0	62	0	987758592	57	4578
2026-01-01 02:43:58.58	274.13	23.81	-47.6	-49.3	16.1	0.00e+00	0	62	0	988807168	57	4538
2026-01-01 02:43:59.55	273.95	23.70	-47.6	-49.3	16.2	0.00e+00	0	62	0	990904320	57	4519
2026-01-01 02:44:00.52	273.78	23.59	-47.6	-49.3	16.2	0.00e+00	0	62	0	993001472	57	4530
2026-01-01 02:44:01.48	273.60	23.48	-47.4	-49.1	16.4	0.00e+00	0	62	0	995098624	57	4414
2026-01-01 02:44:02.44	273.43	23.36	-47.3	-49.0	16.5	0.00e+00	0	62	0	996147200	57	4378
2026-01-01 02:44:03.41	273.26	23.25	-47.3	-48.9	16.5	0.00e+00	0	62	0	998244352	57	4333
2026-01-01 02:44:04.37	273.09	23.14	-47.5	-49.2	16.2	0.00e+00	0	62	0	1000341504	57	4492
2026-01-01 02:44:05.34	272.92	23.03	-47.6	-49.4	16.0	0.00e+00	0	62	0	1001390080	57	4598
2026-01-01 02:44:06.31	272.75	22.92	-47.5	-49.3	16.2	0.00e+00	0	62	0	1003487232	57	4503
2026-01-01 02:44:07.28	272.58	22.81	-47.5	-49.3	16.2	0.00e+00	0	62	0	1005584384	57	4497
2026-01-01 02:44:08.25	272.42	22.70	-47.5	-49.2	16.2	0.00e+00	0	62	0	1007681536	57	4484
2026-01-01 02:44:09.21	272.25	22.59	-47.4	-49.1	16.4	0.00e+00	0	62	0	1008730112	57	4413
2026-01-01 02:44:10.18	272.09	22.48	-47.5	-49.2	16.3	0.00e+00	0	62	0	1010827264	57	4461
2026-01-01 02:44:11.15	271.93	22.37	-47.6	-49.4	16.0	0.00e+00	0	62	0	1012924416	57	4588
2026-01-01 02:44:12.12	271.77	22.26	-47.5	-49.2	16.2	0.00e+00	0	62	0	1015021568	57	4485
2026-01-01 02:44:13.09	271.61	22.16	-47.5	-49.2	16.3	0.00e+00	0	62	0	1016070144	57	4469
2026-01-01 02:44:14.05	271.45	22.05	-47.6	-49.4	16.1	0.00e+00	0	62	0	1018167296	57	4551
2026-01-01 02:44:15.03	271.29	21.94	-47.8	-49.6	15.8	0.00e+00	0	62	0	1020264448	57	4685
2026-01-01 02:44:16.00	271.13	21.83	-47.8	-49.6	15.8	0.00e+00	0	62	0	1021313024	57	4692
2026-01-01 02:44:16.96	270.98	21.72	-47.8	-49.7	15.7	0.00e+00	0	62	0	1023410176	57	4737
2026-01-01 02:44:17.93	270.82	21.61	-48.0	-50.0	15.5	0.00e+00	0	62	0	1025507328	57	4885
2026-01-01 02:44:18.89	270.67	21.51	-47.9	-49.8	15.6	0.00e+00	0	62	0	1027604480	57	4767
2026-01-01 02:44:19.86	270.52	21.40	-48.1	-50.1	15.3	0.00e+00	0	62	0	1028653056	58	4701
2026-01-01 02:44:20.83	270.37	21.29	-48.0	-49.9	15.5	0.00e+00	0	62	0	1030750208	58	4577
2026-01-01 02:44:21.80	270.22	21.19	-48.0	-49.9	15.5	0.00e+00	0	62	0	1032847360	58	4598
2026-01-01 02:44:22.76	270.07	21.08	-48.0	-49.9	15.5	0.00e+00	0	62	0	1034944512	58	4579
2026-01-01 02:44:23.73	269.92	20.97	-48.1	-50.0	15.4	0.00e+00	0	62	0	1035993088	58	4644
2026-01-01 02:44:24.70	269.77	20.87	-48.1	-50.1	15.4	0.00e+00	0	62	0	1038090240	58	4678
2026-01-01 02:44:25.66	269.63	20.76	-48.2	-50.3	15.2	0.00e+00	0	62	0	1040187392	58	4786
2026-01-01 02:44:26.63	269.48	20.66	-48.3	-50.4	15.1	0.00e+00	0	62	0	1042284544	58	4834
2026-01-01 02:44:27.60	269.34	20.55	-48.2	-50.3	15.1	0.00e+00	0	62	0	1043333120	58	4790
2026-01-01 02:44:28.57	269.20	20.45	-48.4	-50.5	14.9	0.00e+00	0	62	0	1045430272	58	4895
2026-01-01 02:44:29.54	269.05	20.34	-48.4	-50.5	14.9	0.00e+00	0	62	0	1047527424	58	4882
2026-01-01 02:44:30.51	268.91	20.24	-48.5	-50.6	14.8	0.00e+00	0	62	0	1048576000	58	4973
2026-01-01 02:44:31.47	268.77	20.13	-48.5	-50.7	14.7	0.00e+00	0	62	0	1050673152	58	5027
2026-01-01 02:44:32.44	268.63	20.03	-48.4	-50.5	14.9	7.00e-07	0	62	0	1052770304	59	4646
2026-01-01 02:44:33.40	268.50	19.93	-48.2	-50.2	15.2	0.00e+00	0	62	0	1054867456	59	4475
2026-01-01 02:44:34.37	268.36	19.82	-48.0	-50.0	15.5	0.00e+00	0	62	0	1055916032	59	4341
2026-01-01 02:44:35.34	268.22	19.72	-47.9	-49.9	15.6	0.00e+00	0	62	0	1058013184	59	4298
2026-01-01 02:44:36.30	268.09	19.62	-47.9	-49.9	15.6	0.00e+00	0	62	0	1060110336	59	4297
2026-01-01 02:44:37.27	267.95	19.51	-48.1	-50.1	15.4	0.00e+00	0	62	0	1061158912	59	4400
2026-01-01 02:44:38.24	267.82	19.41	-48.1	-50.0	15.3	0.00e+00	0	62	0	1063256064	59	4389
2026-01-01 02:44:39.21	267.69	19.31	-48.2	-50.3	15.1	0.00e+00	0	62	0	1065353216	59	4530
2026-01-01 02:44:40.17	267.56	19.21	-48.2	-50.3	15.1	0.00e+00	0	62	0	1067450368	59	4504
2026-01-01 02:44:41.14	267.43	19.10	-48.4	-50.6	14.8	0.00e+00	0	62	0	1068498944	59	4654
2026-01-01 02:44:42.11	267.30	19.00	-48.3	-50.4	15.0	0.00e+00	0	62	0	1070596096	59	4568
2026-01-01 02:44:43.08	267.17	18.90	-48.4	-50.6	14.8	0.00e+00	0	62	0	1072693248	59	4696
2026-01-01 02:44:44.05	267.04	18.80	-48.3	-50.5	14.9	0.00e+00	0	62	0	1074790400	59	4609
2026-01-01 02:44:45.03	266.91	18.70	-48.4	-50.5	14.9	7.00e-07	0	62	0	1075838976	59	4639
2026-01-01 02:44:46.00	266.78	18.60	-48.3	-50.5	15.0	0.00e+00	0	62	0	1077936128	59	4620
2026-01-01 02:44:46.97	266.66	18.50	-48.4	-50.6	14.8	0.00e+00	0	62	0	1080033280	59	4666
2026-01-01 02:44:47.93	266.53	18.40	-48.5	-50.7	14.8	0.00e+00	0	62	0	1082130432	59	4710
2026-01-01 02:44:48.90	266.41	18.30	-48.5	-50.7	14.7	0.00e+00	0	62	0	1083179008	59	4707
2026-01-01 02:44:49.86	266.29	18.20	-48.5	-50.8	14.7	7.00e-07	0	62	0	1085276160	59	4762
2026-01-01 02:44:50.83	266.16	18.10	-48.7	-51.0	14.4	7.00e-07	0	62	0	1087373312	59	4883
2026-01-01 02:44:51.80	266.04	18.00	-48.6	-50.9	14.5	2.20e-06	0	62	0	1088421888	59	4831
2026-01-01 02:44:52.77	265.92	17.90	-48.5	-50.7	14.7	0.00e+00	0	62	0	1090519040	59	4717
2026-01-01 02:44:53.74	265.80	17.80	-48.5	-50.7	14.7	7.00e-07	0	62	0	1092616192	59	4757
2026-01-01 02:44:54.70	265.68	17.71	-48.5	-50.8	14.6	1.50e-06	0	62	0	1094713344	59	4764
2026-01-01 02:44:55.67	265.56	17.61	-48.4	-50.6	14.7	7.00e-07	0	62	0	1095761920	59	4696
2026-01-01 02:44:56.64	265.45	17.51	-48.3	-50.5	14.9	1.50e-06	0	62	0	1097859072	59	4606
2026-01-01 02:44:57.61	265.33	17.41	-48.3	-50.4	14.9	0.00e+00	0	62	0	1099956224	59	4584
2026-01-01 02:44:58.58	265.21	17.31	-48.2	-50.4	15.0	0.00e+00	0	62	0	1102053376	59	4560
2026-01-01 02:44:59.54	265.10	17.22	-48.2	-50.4	15.0	0.00e+00	0	62	0	1103101952	59	4551
2026-01-01 02:45:00.51	264.99	17.12	-48.2	-50.4	15.0	0.00e+00	0	62	0	1105199104	59	4556
2026-01-01 02:45:01.48	264.87	17.03	-48.2	-50.4	15.0	0.00e+00	0	62	0	1107296256	59	4578
2026-01-01 02:45:02.44	264.76	16.93	-48.2	-50.3	15.0	0.00e+00	0	62	0	1109393408	59	4531
2026-01-01 02:45:03.41	264.65	16.83	-48.2	-50.3	15.1	0.00e+00	0	62	0	1110441984	59	4525
2026-01-01 02:45:04.37	264.54	16.74	-48.3	-50.4	14.9	0.00e+00	0	62	0	1112539136	59	4580
2026-01-01 02:45:05.34	264.43	16.64	-48.5	-50.8	14.6	0.00e+00	0	62	0	1114636288	59	4761
2026-01-01 02:45:06.30	264.32	16.55	-48.5	-50.8	14.6	1.50e-06	0	62	0	1115684864	59	4773
2026-01-01 02:45:07.28	264.21	16.45	-48.5	-50.8	14.6	0.00e+00	0	62	0	1117782016	59	4762
2026-01-01 02:45:08.24	264.10	16.36	-48.6	-50.8	14.5	7.00e-07	0	62	0	1119879168	59	4804
2026-01-01 02:45:09.21	263.99	16.27	-48.6	-51.0	14.4	1.50e-06	0	62	0	1121976320	59	4875
2026-01-01 02:45:10.18	263.88	16.17	-48.6	-50.9	14.5	7.00e-07	0	62	0	1123024896	59	4832
2026-01-01 02:45:11.15	263.78	16.08	-48.7	-51.1	14.3	1.50e-06	0	62	0	1125122048	59	4929
2026-01-01 02:45:12.12	263.67	15.98	-48.8	-51.3	14.0	1.50e-06	0	62	0	1127219200	59	5062
2026-01-01 02:45:13.09	263.56	15.89	-48.7	-51.0	14.4	0.00e+00	0	62	0	1129316352	59	4906
2026-01-01 02:45:14.06	263.46	15.80	-48.5	-50.8	14.6	1.50e-06	0	62	0	1130364928	59	4772
2026-01-01 02:45:15.03	263.36	15.70	-48.4	-50.6	14.7	0.00e+00	0	62	0	1132462080	59	4676
2026-01-01 02:45:16.00	263.25	15.61	-48.5	-50.8	14.6	0.00e+00	0	62	0	1134559232	59	4766
2026-01-01 02:45:16.97	263.15	15.52	-48.5	-50.8	14.6	0.00e+00	0	62	0	1136656384	59	4775
2026-01-01 02:45:17.95	263.05	15.43	-48.6	-50.9	14.5	0.00e+00	0	62	0	1137704960	59	4843
2026-01-01 02:45:18.92	262.94	15.33	-48.8	-51.2	14.1	7.00e-07	0	62	0	1139802112	59	4995
2026-01-01 02:45:19.88	262.84	15.24	-48.5	-50.8	14.5	0.00e+00	0	62	0	1141899264	59	4791
2026-01-01 02:45:20.85	262.74	15.15	-48.7	-51.0	14.3	0.00e+00	0	62	0	1142947840	59	4924
2026-01-01 02:45:21.82	262.64	15.06	-48.9	-51.4	14.0	1.50e-06	0	62	0	1145044992	59	5118
2026-01-01 02:45:22.78	262.55	14.97	-48.7	-51.1	14.2	4.50e-06	0	62	0	1147142144	59	4969
2026-01-01 02:45:23.75	262.45	14.88	-48.6	-50.9	14.3	7.00e-07	0	62	0	1149239296	59	4866
2026-01-01 02:45:24.72	262.35	14.79	-48.5	-50.8	14.5	0.00e+00	0	62	0	1150287872	59	4773
2026-01-01 02:45:25.69	262.25	14.70	-48.4	-50.7	14.6	0.00e+00	0	62	0	1152385024	59	4722
2026-01-01 02:45:26.65	262.16	14.61	-48.4	-50.6	14.7	0.00e+00	0	62	0	1154482176	59	4679
2026-01-01 02:45:27.62	262.06	14.52	-48.4	-50.6	14.7	0.00e+00	0	62	0	1156579328	59	4692
2026-01-01 02:45:28.59	261.97	14.43	-48.4	-50.6	14.6	0.00e+00	0	62	0	1157627904	59	4703
2026-01-01 02:45:29.56	261.87	14.34	-48.4	-50.7	14.6	7.00e-07	0	62	0	1159725056	59	4709
2026-01-01 02:45:30.53	261.78	14.25	-48.3	-50.4	14.9	0.00e+00	0	62	0	1161822208	59	4580
2026-01-01 02:45:31.50	261.68	14.17	-48.2	-50.4	14.9	0.00e+00	0	62	0	1162870784	59	4553
2026-01-01 02:45:32.47	261.59	14.08	-48.3	-50.4	14.9	0.00e+00	0	62	0	1164967936	59	4584
2026-01-01 02:45:33.43	261.50	13.99	-48.3	-50.5	14.8	0.00e+00	0	62	0	1167065088	59	4627
2026-01-01 02:45:34.40	261.41	13.90	-48.3	-50.5	14.8	7.00e-07	0	62	0	1169162240	59	4634
2026-01-01 02:45:35.37	261.32	13.81	-48.5	-50.8	14.5	7.00e-07	0	62	0	1170210816	59	4768
2026-01-01 02:45:36.34	261.23	13.73	-48.6	-50.9	14.3	1.50e-06	0	62	0	1172307968	59	4866
2026-01-01 02:45:37.31	261.14	13.64	-48.6	-51.0	14.3	1.50e-06	0	62	0	1174405120	59	4882
2026-01-01 02:45:38.27	261.05	13.55	-48.8	-51.3	14.0	2.20e-06	0	62	0	1176502272	59	5047
2026-01-01 02:45:39.24	260.96	13.47	-48.7	-51.2	14.1	3.00e-06	0	62	0	1177550848	59	4997
2026-01-01 02:45:40.21	260.87	13.38	-48.8	-51.3	14.0	7.00e-07	0	62	0	1179648000	59	5085
2026-01-01 02:45:41.17	260.78	13.30	-48.9	-51.5	13.8	4.50e-06	0	62	0	1181745152	59	5161
2026-01-01 02:45:42.14	260.69	13.21	-48.9	-51.4	13.8	5.30e-06	0	62	0	1183842304	59	5149
2026-01-01 02:45:43.11	260.61	13.12	-48.9	-51.5	13.7	2.20e-06	0	62	0	1184890880	59	5209
2026-01-01 02:45:44.07	260.52	13.04	-49.1	-51.9	13.3	9.90e-06	0	62	0	1186988032	60	5138
2026-01-01 02:45:45.05	260.44	12.95	-49.0	-51.7	13.6	7.60e-06	0	62	0	1189085184	60	5004
2026-01-01 02:45:46.01	260.35	12.87	-49.1	-51.8	13.4	9.90e-06	0	62	0	1190133760	60	5067
2026-01-01 02:45:46.98	260.27	12.78	-49.3	-52.2	13.1	2.59e-05	0	62	0	1192230912	60	5287
2026-01-01 02:45:47.95	260.18	12.70	-49.2	-52.0	13.3	2.44e-05	0	62	0	1194328064	60	5192
2026-01-01 02:45:48.93	260.10	12.61	-49.0	-51.8	13.4	1.14e-05	0	62	0	1196425216	60	5048
2026-01-01 02:45:49.90	260.01	12.53	-49.0	-51.8	13.4	1.22e-05	0	62	0	1197473792	60	5045
2026-01-01 02:45:50.87	259.93	12.45	-49.1	-51.8	13.4	1.60e-05	0	62	0	1199570944	60	5061
2026-01-01 02:45:51.84	259.85	12.36	-49.1	-52.0	13.2	1.83e-05	0	62	0	1201668096	60	5186
2026-01-01 02:45:52.80	259.77	12.28	-49.2	-52.0	13.2	2.59e-05	0	62	0	1203765248	60	5213
2026-01-01 02:45:53.77	259.69	12.20	-49.2	-52.2	13.0	1.83e-05	0	62	0	1204813824	60	5280
2026-01-01 02:45:54.73	259.60	12.11	-49.2	-52.0	13.2	3.12e-05	0	62	0	1206910976	60	5206
2026-01-01 02:45:55.70	259.52	12.03	-49.0	-51.8	13.4	9.90e-06	0	62	0	1209008128	60	5042
2026-01-01 02:45:56.67	259.44	11.95	-49.0	-51.7	13.5	1.67e-05	0	62	0	1210056704	60	5017
2026-01-01 02:45:57.63	259.37	11.87	-49.0	-51.8	13.4	1.22e-05	0	62	0	1212153856	60	5069
2026-01-01 02:45:58.60	259.29	11.79	-49.1	-52.0	13.2	2.21e-05	0	62	0	1214251008	60	5172
