passes_logs/2026/01/01/R3.0SM8_Murmansk_STILSPACE/R3.0SM8_Murmansk_STILSPACE__20260101_085058_SUOMI_NPP_rec.log

#Pass ID: 20260101_085058_SUOMI NPP
#Satellite: SUOMI NPP
#Configuration: NPP
#almurnet v.1.7.20240730
#Start time: 2026-01-01 08:50:58

#Version: 2.2.20231116
#Station: R3.0SM8_Murmansk_STILSPACE
#Location: 33.092731 lon 68.902999 lat
#TLE: 1 37849U 11061A   25364.87906317  .00000195  00000+0  11345-3 0  9992
#TLE: 2 37849  98.7794 302.0592 0002571  89.2401 270.9069 14.19520347734561

#Time	Az	El	Level	Level2	SNR	BER	BlckErr	Temp	State	Recorded	gain1	gain2
2026-01-01 08:50:58.15	133.81	3.01	-52.5	-66.4	3.8	1.49e+00	0	48	0	0	66	19194
2026-01-01 08:50:59.14	133.79	3.07	-52.5	-66.4	3.8	1.49e+00	0	48	104	0	67	18162
2026-01-01 08:51:00.13	133.77	3.14	-52.5	-66.4	3.8	1.49e+00	0	48	104	0	67	18135
2026-01-01 08:51:01.12	133.75	3.20	-52.5	-66.4	3.8	1.49e+00	0	48	104	0	67	18173
2026-01-01 08:51:02.10	133.74	3.27	-52.5	-66.3	3.8	1.49e+00	0	48	104	0	67	18087
2026-01-01 08:51:03.09	133.72	3.33	-52.5	-66.4	3.8	1.49e+00	0	48	104	0	67	18099
2026-01-01 08:51:04.08	133.70	3.40	-52.4	-66.3	3.8	1.49e+00	0	48	104	0	66	19127
2026-01-01 08:51:05.07	133.68	3.47	-52.4	-66.3	3.8	1.49e+00	0	49	104	0	66	19116
2026-01-01 08:51:06.06	133.67	3.53	-52.4	-66.3	3.8	1.49e+00	0	48	104	0	66	19155
2026-01-01 08:51:07.06	133.65	3.60	-52.5	-66.4	3.8	1.49e+00	0	49	104	0	66	19233
2026-01-01 08:51:08.04	133.63	3.67	-52.4	-66.4	3.8	1.49e+00	0	48	104	0	66	19199
2026-01-01 08:51:09.02	133.61	3.73	-52.4	-66.4	3.8	1.49e+00	0	49	104	0	66	19169
2026-01-01 08:51:10.00	133.59	3.80	-52.5	-66.4	3.8	1.49e+00	0	49	104	0	66	19213
2026-01-01 08:51:10.99	133.58	3.87	-52.3	-66.4	3.8	1.49e+00	0	49	104	0	66	19237
2026-01-01 08:51:11.98	133.56	3.93	-52.3	-66.4	3.8	1.49e+00	0	49	104	0	66	19213
2026-01-01 08:51:12.97	133.54	4.00	-52.5	-66.4	3.8	1.49e+00	0	49	104	0	66	19226
2026-01-01 08:51:13.96	133.52	4.07	-52.5	-66.4	3.8	1.49e+00	0	49	104	0	66	19224
2026-01-01 08:51:14.94	133.50	4.14	-52.5	-66.4	3.8	1.49e+00	0	49	104	0	66	19181
2026-01-01 08:51:15.92	133.48	4.20	-52.5	-66.4	3.8	1.49e+00	0	49	104	0	66	19195
2026-01-01 08:51:16.91	133.46	4.27	-52.5	-66.3	3.8	1.49e+00	0	49	104	0	66	19165
2026-01-01 08:51:17.89	133.44	4.34	-52.5	-66.4	3.8	1.49e+00	0	49	104	0	66	19168
2026-01-01 08:51:18.88	133.43	4.41	-52.5	-66.3	3.8	1.49e+00	0	49	104	0	66	19108
2026-01-01 08:51:19.87	133.41	4.48	-52.5	-66.3	3.8	1.49e+00	0	49	104	0	66	19124
2026-01-01 08:51:20.86	133.39	4.55	-52.5	-66.3	3.8	1.49e+00	0	49	104	0	66	19122
2026-01-01 08:51:21.86	133.37	4.62	-52.4	-66.3	3.8	1.49e+00	0	49	104	0	66	19072
2026-01-01 08:51:22.84	133.35	4.69	-52.5	-66.3	3.8	1.49e+00	0	49	104	0	66	19091
2026-01-01 08:51:23.82	133.33	4.75	-52.4	-66.3	3.8	1.49e+00	0	50	104	0	66	19042
2026-01-01 08:51:24.82	133.31	4.82	-52.4	-66.3	3.8	1.49e+00	0	49	104	0	66	18965
2026-01-01 08:51:25.80	133.29	4.89	-52.4	-66.3	3.8	1.49e+00	0	50	104	0	66	19036
2026-01-01 08:51:26.80	133.27	4.96	-52.3	-66.2	3.8	1.49e+00	0	49	104	0	66	18909
2026-01-01 08:51:27.79	133.25	5.03	-52.4	-66.2	3.8	1.49e+00	0	50	104	0	66	18933
2026-01-01 08:51:28.78	133.23	5.11	-52.4	-66.2	3.8	1.49e+00	0	50	104	0	66	18853
2026-01-01 08:51:29.77	133.21	5.18	-52.4	-66.2	3.8	1.49e+00	0	50	104	0	66	18933
2026-01-01 08:51:30.74	133.19	5.25	-52.4	-66.3	3.8	1.49e+00	0	50	104	0	66	18976
2026-01-01 08:51:31.73	133.17	5.32	-52.2	-66.3	3.8	1.49e+00	0	50	104	0	66	18990
2026-01-01 08:51:32.72	133.14	5.39	-52.4	-66.3	3.8	1.49e+00	0	50	104	0	66	19022
2026-01-01 08:51:33.70	133.12	5.46	-52.4	-66.3	3.8	1.49e+00	0	50	104	0	66	19067
2026-01-01 08:51:34.70	133.10	5.53	-52.5	-66.3	3.8	1.49e+00	0	50	104	0	66	19081
2026-01-01 08:51:35.69	133.08	5.60	-52.5	-66.3	3.8	1.49e+00	0	50	104	0	66	19098
2026-01-01 08:51:36.68	133.06	5.67	-52.4	-66.3	3.8	1.49e+00	0	50	104	0	66	19136
2026-01-01 08:51:37.67	133.04	5.75	-52.4	-66.3	3.8	1.49e+00	0	50	104	0	66	19109
2026-01-01 08:51:38.65	133.02	5.82	-52.2	-66.3	3.8	1.49e+00	0	50	104	0	66	19127
2026-01-01 08:51:39.65	133.00	5.89	-52.4	-66.4	3.8	1.49e+00	0	50	104	0	66	19168
2026-01-01 08:51:40.64	132.97	5.96	-52.5	-66.3	3.8	1.49e+00	0	50	104	0	66	19165
2026-01-01 08:51:41.63	132.95	6.04	-52.5	-66.4	3.8	1.49e+00	0	51	104	0	66	19211
2026-01-01 08:51:42.62	132.93	6.11	-52.3	-66.4	3.8	1.49e+00	0	50	104	0	66	19213
2026-01-01 08:51:43.60	132.91	6.18	-52.5	-66.4	3.8	1.49e+00	0	51	104	0	66	19223
2026-01-01 08:51:44.59	132.89	6.26	-52.5	-66.4	3.8	1.49e+00	0	50	104	0	66	19250
2026-01-01 08:51:45.58	132.86	6.33	-52.6	-66.4	3.8	1.49e+00	0	51	104	0	67	18183
2026-01-01 08:51:46.58	132.84	6.40	-52.2	-66.4	3.8	1.49e+00	0	51	104	0	67	18152
2026-01-01 08:51:47.57	132.82	6.48	-52.5	-66.4	3.8	1.49e+00	0	51	104	0	67	18132
2026-01-01 08:51:48.57	132.80	6.55	-52.5	-66.4	3.8	1.49e+00	0	51	104	0	67	18108
2026-01-01 08:51:49.56	132.77	6.63	-52.4	-66.3	3.8	1.49e+00	0	51	104	0	67	18080
2026-01-01 08:51:50.55	132.75	6.70	-52.5	-66.4	3.8	1.49e+00	0	51	104	0	67	18150
2026-01-01 08:51:51.54	132.73	6.78	-52.4	-66.4	3.8	1.49e+00	0	51	104	0	67	18116
2026-01-01 08:51:52.53	132.70	6.85	-52.4	-66.4	3.8	1.49e+00	0	51	104	0	67	18097
2026-01-01 08:51:53.51	132.68	6.93	-52.4	-66.4	3.8	1.49e+00	0	51	104	0	67	18185
2026-01-01 08:51:54.51	132.66	7.00	-52.4	-66.4	3.8	1.49e+00	0	51	104	0	67	18141
2026-01-01 08:51:55.50	132.63	7.08	-52.4	-66.4	3.8	1.49e+00	0	51	104	0	67	18126
2026-01-01 08:51:56.49	132.61	7.16	-52.4	-66.4	3.8	1.49e+00	0	51	104	0	67	18121
2026-01-01 08:51:57.48	132.58	7.23	-52.5	-66.4	3.8	1.49e+00	0	51	104	0	67	18113
2026-01-01 08:51:58.46	132.56	7.31	-52.5	-66.4	3.8	1.49e+00	0	51	104	0	67	18145
2026-01-01 08:51:59.45	132.54	7.38	-52.5	-66.4	3.8	1.49e+00	0	51	104	0	67	18141
2026-01-01 08:52:00.44	132.51	7.46	-52.5	-66.4	3.8	1.49e+00	0	51	104	0	67	18138
2026-01-01 08:52:01.43	132.49	7.54	-52.5	-66.3	3.8	1.49e+00	0	51	104	0	67	18090
2026-01-01 08:52:02.43	132.46	7.62	-52.5	-66.4	3.8	1.49e+00	0	51	104	0	67	18140
2026-01-01 08:52:03.42	132.44	7.69	-52.5	-66.4	3.8	1.49e+00	0	51	104	0	67	18135
2026-01-01 08:52:04.40	132.41	7.77	-52.5	-66.4	3.8	1.49e+00	0	52	104	0	67	18107
2026-01-01 08:52:05.39	132.39	7.85	-52.6	-66.4	3.8	1.49e+00	0	51	104	0	67	18149
2026-01-01 08:52:06.38	132.36	7.93	-52.5	-66.3	3.8	1.49e+00	0	51	104	0	67	18087
2026-01-01 08:52:07.37	132.34	8.01	-52.3	-66.4	3.8	1.49e+00	0	51	104	0	67	18143
2026-01-01 08:52:08.36	132.31	8.09	-52.3	-66.4	3.8	1.49e+00	0	52	104	0	67	18129
2026-01-01 08:52:09.34	132.29	8.16	-52.5	-66.4	3.8	1.49e+00	0	52	104	0	67	18098
2026-01-01 08:52:10.33	132.26	8.24	-52.4	-66.4	3.8	1.49e+00	0	52	104	0	67	18127
2026-01-01 08:52:11.31	132.23	8.32	-52.6	-66.4	3.8	1.49e+00	0	52	104	0	67	18142
2026-01-01 08:52:12.30	132.21	8.40	-52.6	-66.4	3.8	1.49e+00	0	52	104	0	67	18183
2026-01-01 08:52:13.30	132.18	8.48	-52.5	-66.4	3.8	1.49e+00	0	52	104	0	67	18141
2026-01-01 08:52:14.29	132.15	8.56	-52.5	-66.3	3.8	1.49e+00	0	52	104	0	67	18091
2026-01-01 08:52:15.28	132.13	8.64	-52.5	-66.4	3.8	1.49e+00	0	52	104	0	67	18142
2026-01-01 08:52:16.26	132.10	8.72	-52.5	-66.3	3.8	1.49e+00	0	52	104	0	67	18080
2026-01-01 08:52:17.24	132.07	8.80	-52.6	-66.4	3.8	1.49e+00	0	52	104	0	67	18101
2026-01-01 08:52:18.23	132.05	8.89	-52.6	-66.4	3.8	1.49e+00	0	52	104	0	67	18131
2026-01-01 08:52:19.23	132.02	8.97	-52.5	-66.4	3.8	1.49e+00	0	52	104	0	67	18105
2026-01-01 08:52:20.21	131.99	9.05	-52.6	-66.4	3.8	1.49e+00	0	52	104	0	67	18123
2026-01-01 08:52:21.21	131.96	9.13	-52.5	-66.4	3.8	1.49e+00	0	52	104	0	67	18178
2026-01-01 08:52:22.19	131.94	9.21	-52.6	-66.4	3.8	1.49e+00	0	52	104	0	67	18099
2026-01-01 08:52:23.18	131.91	9.30	-52.5	-66.4	3.8	1.49e+00	0	52	104	0	67	18120
2026-01-01 08:52:24.16	131.88	9.38	-52.4	-66.4	3.8	1.49e+00	0	52	104	0	67	18134
2026-01-01 08:52:25.15	131.85	9.46	-52.5	-66.4	3.8	1.49e+00	0	52	104	0	67	18128
2026-01-01 08:52:26.13	131.82	9.54	-52.6	-66.4	3.8	1.49e+00	0	52	104	0	67	18110
2026-01-01 08:52:27.11	131.79	9.63	-52.5	-66.4	3.8	1.49e+00	0	52	104	0	67	18098
2026-01-01 08:52:28.10	131.76	9.71	-52.5	-66.4	3.8	1.49e+00	0	52	104	0	67	18139
2026-01-01 08:52:29.08	131.74	9.79	-52.6	-66.4	3.8	1.49e+00	0	52	104	0	67	18197
2026-01-01 08:52:30.07	131.71	9.88	-52.5	-66.3	3.8	1.49e+00	0	52	104	0	67	18093
2026-01-01 08:52:31.05	131.68	9.96	-52.5	-66.4	3.8	1.49e+00	0	52	104	0	67	18106
2026-01-01 08:52:32.04	131.65	10.05	-52.5	-66.4	3.8	1.49e+00	0	52	104	0	67	18126
2026-01-01 08:52:33.02	131.62	10.13	-52.5	-66.4	3.8	1.49e+00	0	52	104	0	67	18134
2026-01-01 08:52:34.01	131.59	10.22	-52.6	-66.4	3.8	1.49e+00	0	52	104	0	67	18139
2026-01-01 08:52:34.99	131.56	10.30	-52.3	-66.4	3.8	1.49e+00	0	52	104	0	67	18175
2026-01-01 08:52:35.98	131.53	10.39	-52.5	-66.3	3.8	1.49e+00	0	52	104	0	67	18059
2026-01-01 08:52:36.98	131.50	10.48	-52.5	-66.4	3.8	1.49e+00	0	53	104	0	67	18147
2026-01-01 08:52:37.96	131.46	10.56	-52.5	-66.4	3.8	1.49e+00	0	53	104	0	67	18100
2026-01-01 08:52:38.96	131.43	10.65	-52.5	-66.3	3.8	1.49e+00	0	52	104	0	67	18082
2026-01-01 08:52:39.95	131.40	10.74	-52.6	-66.4	3.8	1.49e+00	0	53	104	0	67	18141
2026-01-01 08:52:40.93	131.37	10.82	-52.6	-66.4	3.8	1.49e+00	0	53	104	0	67	18143
2026-01-01 08:52:41.92	131.34	10.91	-52.5	-66.4	3.8	1.49e+00	0	53	104	0	67	18112
2026-01-01 08:52:42.91	131.31	11.00	-52.6	-66.4	3.8	1.49e+00	0	53	104	0	67	18132
2026-01-01 08:52:43.88	131.28	11.09	-52.6	-66.4	3.8	1.49e+00	0	53	104	0	67	18148
2026-01-01 08:52:44.87	131.24	11.18	-52.5	-66.4	3.8	1.49e+00	0	53	104	0	67	18147
2026-01-01 08:52:45.85	131.21	11.26	-52.6	-66.4	3.8	1.49e+00	0	53	104	0	67	18150
2026-01-01 08:52:46.84	131.18	11.35	-52.3	-66.4	3.8	1.49e+00	0	53	104	0	67	18160
2026-01-01 08:52:47.83	131.14	11.44	-52.5	-66.4	3.8	1.49e+00	0	53	104	0	67	18103
2026-01-01 08:52:48.82	131.11	11.53	-52.3	-66.4	3.8	1.49e+00	0	53	104	0	67	18156
2026-01-01 08:52:49.80	131.08	11.62	-52.4	-66.4	3.8	1.49e+00	0	53	104	0	67	18096
2026-01-01 08:52:50.79	131.04	11.71	-52.2	-66.4	3.8	1.49e+00	0	53	104	0	67	18154
2026-01-01 08:52:51.78	131.01	11.81	-52.5	-66.4	3.8	1.49e+00	0	53	104	0	67	18152
2026-01-01 08:52:52.77	130.98	11.90	-52.5	-66.4	3.8	1.49e+00	0	53	104	0	67	18162
2026-01-01 08:52:53.75	130.94	11.99	-52.6	-66.4	3.8	1.49e+00	0	53	104	0	67	18125
2026-01-01 08:52:54.74	130.91	12.08	-52.5	-66.4	3.8	1.49e+00	0	53	104	0	67	18175
2026-01-01 08:52:55.73	130.87	12.17	-52.6	-66.4	3.8	1.49e+00	0	53	104	0	67	18155
2026-01-01 08:52:56.71	130.84	12.27	-52.5	-66.4	3.8	1.49e+00	0	53	104	0	67	18113
2026-01-01 08:52:57.70	130.80	12.36	-52.6	-66.4	3.8	1.49e+00	0	53	104	0	67	18150
2026-01-01 08:52:58.69	130.77	12.45	-52.4	-66.4	3.8	1.49e+00	0	53	104	0	67	18167
2026-01-01 08:52:59.68	130.73	12.55	-52.6	-66.4	3.8	1.49e+00	0	53	104	0	67	18169
2026-01-01 08:53:00.67	130.69	12.64	-52.5	-66.4	3.8	1.49e+00	0	53	104	0	67	18136
2026-01-01 08:53:01.65	130.66	12.73	-52.5	-66.4	3.8	1.49e+00	0	53	104	0	67	18120
2026-01-01 08:53:02.63	130.62	12.83	-52.5	-66.4	3.8	1.49e+00	0	53	104	0	67	18112
2026-01-01 08:53:03.63	130.58	12.92	-52.5	-66.4	3.8	1.49e+00	0	53	104	0	67	18122
2026-01-01 08:53:04.62	130.55	13.02	-52.3	-66.4	3.8	1.49e+00	0	53	104	0	67	18149
2026-01-01 08:53:05.60	130.51	13.11	-52.4	-66.4	3.8	1.49e+00	0	53	104	0	67	18111
2026-01-01 08:53:06.59	130.47	13.21	-52.5	-66.4	3.8	1.49e+00	0	53	104	0	67	18106
2026-01-01 08:53:07.58	130.43	13.31	-52.5	-66.4	3.8	1.49e+00	0	53	104	0	67	18143
2026-01-01 08:53:08.57	130.40	13.40	-52.3	-66.4	3.8	1.49e+00	0	53	104	0	67	18143
2026-01-01 08:53:09.56	130.36	13.50	-52.4	-66.4	3.8	1.49e+00	0	53	104	0	67	18122
2026-01-01 08:53:10.55	130.32	13.60	-52.4	-66.4	3.8	1.49e+00	0	53	104	0	67	18158
2026-01-01 08:53:11.54	130.28	13.70	-52.3	-66.4	3.8	1.49e+00	0	53	104	0	67	18107
2026-01-01 08:53:12.53	130.24	13.80	-52.5	-66.4	3.8	1.49e+00	0	53	104	0	67	18160
2026-01-01 08:53:13.52	130.20	13.90	-52.5	-66.4	3.8	1.49e+00	0	54	104	0	67	18154
2026-01-01 08:53:14.51	130.16	14.00	-52.5	-66.4	3.8	1.49e+00	0	54	104	0	67	18149
2026-01-01 08:53:15.49	130.12	14.09	-52.5	-66.4	3.8	1.49e+00	0	54	104	0	67	18164
2026-01-01 08:53:16.48	130.08	14.19	-52.6	-66.4	3.8	1.49e+00	0	54	104	0	67	18136
2026-01-01 08:53:17.47	130.04	14.30	-52.6	-66.4	3.8	1.49e+00	0	54	104	0	67	18130
2026-01-01 08:53:18.46	130.00	14.40	-52.5	-66.4	3.8	1.49e+00	0	54	104	0	67	18118
2026-01-01 08:53:19.45	129.96	14.50	-52.5	-66.4	3.8	1.49e+00	0	54	104	0	67	18120
2026-01-01 08:53:20.44	129.92	14.60	-52.5	-66.4	3.8	1.49e+00	0	54	104	0	67	18152
2026-01-01 08:53:21.43	129.87	14.70	-52.5	-66.4	3.8	1.49e+00	0	54	104	0	67	18108
2026-01-01 08:53:22.42	129.83	14.80	-52.5	-66.4	3.8	1.49e+00	0	54	104	0	67	18116
2026-01-01 08:53:23.41	129.79	14.91	-52.4	-66.4	3.8	1.49e+00	0	54	104	0	67	18154
2026-01-01 08:53:24.40	129.75	15.01	-52.6	-66.4	3.8	1.49e+00	0	54	104	0	67	18165
2026-01-01 08:53:25.39	129.70	15.11	-52.6	-66.4	3.8	1.49e+00	0	54	104	0	66	19226
2026-01-01 08:53:26.38	129.66	15.22	-52.5	-66.4	3.8	1.49e+00	0	54	104	0	66	19226
2026-01-01 08:53:27.36	129.61	15.32	-52.5	-66.4	3.8	1.49e+00	0	54	104	0	66	19202
2026-01-01 08:53:28.35	129.57	15.43	-52.6	-66.4	3.8	1.49e+00	0	54	104	0	66	19273
2026-01-01 08:53:29.34	129.53	15.53	-52.6	-66.4	3.8	1.49e+00	0	54	104	0	66	19227
2026-01-01 08:53:30.31	129.48	15.64	-52.5	-66.4	3.8	1.49e+00	0	54	104	0	66	19279
2026-01-01 08:53:31.29	129.44	15.74	-52.5	-66.3	3.8	1.49e+00	0	54	104	0	66	19166
2026-01-01 08:53:32.28	129.39	15.85	-52.6	-66.4	3.8	1.49e+00	0	54	104	0	66	19222
2026-01-01 08:53:33.28	129.34	15.96	-52.4	-66.4	3.8	1.49e+00	0	54	104	0	66	19226
2026-01-01 08:53:34.27	129.30	16.07	-52.5	-66.4	3.8	1.49e+00	0	54	104	0	66	19212
2026-01-01 08:53:35.26	129.25	16.17	-52.6	-66.4	3.8	1.49e+00	0	54	104	0	66	19179
2026-01-01 08:53:36.25	129.20	16.28	-52.5	-66.4	3.8	1.49e+00	0	54	104	0	66	19236
2026-01-01 08:53:37.23	129.16	16.39	-52.3	-66.4	3.8	1.49e+00	0	54	104	0	66	19216
2026-01-01 08:53:38.22	129.11	16.50	-52.5	-66.4	3.8	1.49e+00	0	54	104	0	66	19241
2026-01-01 08:53:39.21	129.06	16.61	-52.5	-66.4	3.8	1.49e+00	0	54	104	0	66	19197
2026-01-01 08:53:40.19	129.01	16.72	-52.5	-66.4	3.8	1.49e+00	0	54	104	0	66	19231
2026-01-01 08:53:41.18	128.96	16.83	-52.5	-66.4	3.8	1.49e+00	0	54	104	0	66	19221
2026-01-01 08:53:42.17	128.92	16.94	-52.6	-66.4	3.8	1.49e+00	0	54	104	0	66	19199
2026-01-01 08:53:43.16	128.87	17.06	-52.6	-66.4	3.8	1.49e+00	0	54	104	0	66	19231
2026-01-01 08:53:44.14	128.82	17.17	-52.5	-66.4	3.8	1.49e+00	0	54	104	0	66	19262
2026-01-01 08:53:45.14	128.76	17.28	-52.3	-66.4	3.8	1.49e+00	0	54	104	0	66	19180
2026-01-01 08:53:46.13	128.71	17.40	-52.6	-66.4	3.8	1.49e+00	0	54	104	0	66	19225
2026-01-01 08:53:47.12	128.66	17.51	-52.5	-66.4	3.8	1.49e+00	0	54	104	0	66	19199
2026-01-01 08:53:48.10	128.61	17.62	-52.6	-66.4	3.8	1.49e+00	0	54	104	0	66	19249
2026-01-01 08:53:49.09	128.56	17.74	-52.6	-66.4	3.8	1.49e+00	0	54	104	0	66	19222
2026-01-01 08:53:50.08	128.51	17.85	-52.6	-66.4	3.8	1.49e+00	0	54	104	0	66	19242
2026-01-01 08:53:51.06	128.45	17.97	-52.5	-66.4	3.8	1.49e+00	0	54	104	0	66	19217
2026-01-01 08:53:52.05	128.40	18.09	-52.4	-66.4	3.8	1.49e+00	0	54	104	0	66	19241
2026-01-01 08:53:53.03	128.35	18.20	-52.5	-66.4	3.8	1.49e+00	0	54	104	0	66	19186
2026-01-01 08:53:54.01	128.29	18.32	-52.5	-66.4	3.8	1.49e+00	0	55	104	0	66	19257
2026-01-01 08:53:55.00	128.24	18.44	-52.5	-66.4	3.8	1.49e+00	0	54	104	0	66	19242
2026-01-01 08:53:55.99	128.18	18.56	-52.5	-66.4	3.8	1.49e+00	0	54	104	0	66	19257
2026-01-01 08:53:56.98	128.13	18.67	-52.6	-66.4	3.8	1.49e+00	0	54	104	0	66	19215
2026-01-01 08:53:57.96	128.07	18.79	-52.6	-66.4	3.8	1.49e+00	0	55	104	0	66	19227
2026-01-01 08:53:58.95	128.02	18.91	-52.6	-66.4	3.8	1.49e+00	0	54	104	0	66	19218
2026-01-01 08:53:59.94	127.96	19.03	-52.6	-66.4	3.8	1.49e+00	0	55	104	0	66	19230
2026-01-01 08:54:00.94	127.90	19.16	-52.6	-66.4	3.8	1.49e+00	0	54	104	0	66	19217
2026-01-01 08:54:01.92	127.84	19.28	-52.5	-66.4	3.8	1.49e+00	0	55	104	0	66	19265
2026-01-01 08:54:02.91	127.78	19.40	-52.6	-66.4	3.8	1.49e+00	0	54	104	0	67	18104
2026-01-01 08:54:03.89	127.73	19.52	-52.5	-66.4	3.8	1.49e+00	0	54	104	0	67	18147
2026-01-01 08:54:04.88	127.67	19.65	-52.5	-66.3	3.8	1.49e+00	0	54	104	0	67	18093
2026-01-01 08:54:05.87	127.61	19.77	-52.6	-66.4	3.8	1.49e+00	0	55	104	0	67	18164
2026-01-01 08:54:06.86	127.55	19.90	-52.5	-66.4	3.8	1.49e+00	0	55	104	0	67	18174
2026-01-01 08:54:07.84	127.49	20.02	-52.5	-66.4	3.8	1.49e+00	0	55	104	0	67	18165
2026-01-01 08:54:08.84	127.42	20.15	-52.5	-66.4	3.8	1.49e+00	0	55	104	0	67	18165
2026-01-01 08:54:09.83	127.36	20.28	-52.5	-66.4	3.8	1.49e+00	0	55	104	0	67	18110
2026-01-01 08:54:10.82	127.30	20.40	-52.4	-66.4	3.8	1.49e+00	0	55	104	0	67	18130
2026-01-01 08:54:11.80	127.24	20.53	-52.5	-66.4	3.8	1.49e+00	0	55	104	0	67	18097
2026-01-01 08:54:12.80	127.17	20.66	-52.5	-66.4	3.8	1.49e+00	0	55	104	0	67	18127
2026-01-01 08:54:13.79	127.11	20.79	-52.6	-66.4	3.8	1.49e+00	0	55	104	0	67	18153
2026-01-01 08:54:14.78	127.04	20.92	-52.6	-66.4	3.8	1.49e+00	0	55	104	0	67	18203
2026-01-01 08:54:15.76	126.98	21.05	-52.5	-66.4	3.8	1.49e+00	0	55	104	0	67	18168
2026-01-01 08:54:16.76	126.91	21.18	-52.6	-66.4	3.8	1.49e+00	0	55	104	0	67	18136
2026-01-01 08:54:17.76	126.84	21.31	-52.6	-66.4	3.8	1.49e+00	0	55	104	0	67	18177
2026-01-01 08:54:18.75	126.78	21.45	-52.6	-66.4	3.8	1.49e+00	0	55	104	0	67	18157
2026-01-01 08:54:19.74	126.71	21.58	-52.6	-66.4	3.8	1.49e+00	0	55	104	0	67	18169
2026-01-01 08:54:20.73	126.64	21.71	-52.5	-66.4	3.8	1.49e+00	0	55	104	0	67	18172
2026-01-01 08:54:21.72	126.57	21.85	-52.6	-66.4	3.8	1.49e+00	0	55	104	0	67	18190
2026-01-01 08:54:22.71	126.50	21.98	-52.6	-66.4	3.8	1.49e+00	0	55	104	0	67	18189
2026-01-01 08:54:23.70	126.43	22.12	-52.5	-66.4	3.8	1.49e+00	0	55	104	0	67	18134
2026-01-01 08:54:24.69	126.36	22.25	-52.6	-66.4	3.8	1.49e+00	0	55	104	0	67	18145
2026-01-01 08:54:25.68	126.29	22.39	-52.5	-66.4	3.8	1.49e+00	0	55	104	0	66	19226
2026-01-01 08:54:26.67	126.22	22.53	-52.5	-66.4	3.8	1.49e+00	0	55	104	0	66	19260
2026-01-01 08:54:27.66	126.14	22.67	-52.5	-66.4	3.8	1.49e+00	0	55	104	0	66	19225
2026-01-01 08:54:28.64	126.07	22.81	-52.4	-66.4	3.8	1.49e+00	0	55	104	0	66	19251
2026-01-01 08:54:29.63	125.99	22.95	-52.4	-66.4	3.8	1.49e+00	0	55	104	0	66	19270
2026-01-01 08:54:30.62	125.92	23.09	-52.5	-66.4	3.8	1.49e+00	0	55	104	0	66	19243
2026-01-01 08:54:31.61	125.84	23.23	-52.6	-66.4	3.8	1.49e+00	0	55	104	0	66	19239
2026-01-01 08:54:32.59	125.77	23.37	-52.6	-66.4	3.8	1.49e+00	0	55	104	0	66	19311
2026-01-01 08:54:33.58	125.69	23.51	-52.6	-66.4	3.8	1.49e+00	0	55	104	0	66	19248
2026-01-01 08:54:34.57	125.61	23.65	-52.5	-66.4	3.8	1.49e+00	0	55	104	0	67	18141
2026-01-01 08:54:35.55	125.54	23.80	-52.5	-66.4	3.8	1.49e+00	0	55	104	0	67	18131
2026-01-01 08:54:36.54	125.46	23.94	-52.6	-66.4	3.8	1.49e+00	0	55	104	0	67	18144
2026-01-01 08:54:37.53	125.38	24.09	-52.5	-66.4	3.8	1.49e+00	0	55	104	0	67	18205
2026-01-01 08:54:38.52	125.29	24.23	-52.6	-66.4	3.8	1.49e+00	0	55	104	0	67	18152
2026-01-01 08:54:39.51	125.21	24.38	-52.5	-66.4	3.8	1.49e+00	0	55	104	0	67	18144
2026-01-01 08:54:40.51	125.13	24.53	-52.5	-66.4	3.8	1.49e+00	0	55	104	0	67	18206
2026-01-01 08:54:41.50	125.05	24.68	-52.3	-66.4	3.8	1.49e+00	0	55	104	0	67	18113
2026-01-01 08:54:42.50	124.96	24.83	-52.3	-66.4	3.8	1.49e+00	0	55	104	0	67	18121
2026-01-01 08:54:43.49	124.88	24.98	-52.5	-66.4	3.8	1.49e+00	0	55	104	0	67	18098
2026-01-01 08:54:44.48	124.79	25.13	-52.5	-66.4	3.8	1.49e+00	0	55	104	0	67	18153
2026-01-01 08:54:45.47	124.70	25.29	-52.4	-66.4	3.8	1.49e+00	0	55	104	0	67	18126
2026-01-01 08:54:46.45	124.62	25.44	-52.5	-66.4	3.8	1.49e+00	0	55	104	0	67	18167
2026-01-01 08:54:47.43	124.53	25.59	-52.4	-66.4	3.8	1.49e+00	0	55	104	0	67	18145
2026-01-01 08:54:48.43	124.44	25.74	-52.3	-66.4	3.8	1.49e+00	0	55	104	0	67	18186
2026-01-01 08:54:49.41	124.35	25.90	-52.4	-66.4	3.8	1.49e+00	0	55	104	0	67	18190
2026-01-01 08:54:50.40	124.26	26.05	-52.3	-66.4	3.8	1.49e+00	0	55	104	0	67	18187
2026-01-01 08:54:51.39	124.16	26.21	-52.6	-66.4	3.8	1.49e+00	0	55	104	0	67	18118
2026-01-01 08:54:52.37	124.07	26.37	-52.6	-66.4	3.8	1.49e+00	0	55	104	0	67	18115
2026-01-01 08:54:53.36	123.98	26.53	-52.6	-66.4	3.8	1.49e+00	0	55	104	0	67	18183
2026-01-01 08:54:54.35	123.88	26.68	-52.6	-66.4	3.8	1.49e+00	0	55	104	0	67	18142
2026-01-01 08:54:55.35	123.79	26.85	-52.6	-66.4	3.8	1.49e+00	0	55	104	0	67	18162
2026-01-01 08:54:56.33	123.69	27.01	-52.5	-66.4	3.8	1.49e+00	0	55	104	0	67	18122
2026-01-01 08:54:57.32	123.59	27.17	-52.4	-66.4	3.8	1.49e+00	0	55	104	0	67	18188
2026-01-01 08:54:58.31	123.49	27.33	-52.5	-66.4	3.8	1.49e+00	0	55	104	0	67	18174
2026-01-01 08:54:59.29	123.39	27.49	-52.5	-66.4	3.8	1.49e+00	0	55	104	0	67	18141
2026-01-01 08:55:00.26	123.29	27.65	-52.5	-66.3	3.8	1.49e+00	0	55	104	0	67	18094
2026-01-01 08:55:01.23	123.19	27.82	-52.5	-66.4	3.8	1.49e+00	0	55	104	0	67	18158
2026-01-01 08:55:02.22	123.09	27.98	-52.5	-66.4	3.8	1.49e+00	0	56	104	0	67	18178
2026-01-01 08:55:03.20	122.99	28.15	-52.5	-66.4	3.8	1.49e+00	0	55	104	0	67	18195
2026-01-01 08:55:04.19	122.88	28.32	-52.6	-66.4	3.8	1.49e+00	0	55	104	0	67	18203
2026-01-01 08:55:05.18	122.78	28.48	-52.6	-66.4	3.8	1.49e+00	0	55	104	0	67	18217
2026-01-01 08:55:06.16	122.67	28.65	-52.6	-66.4	3.8	1.49e+00	0	55	104	0	67	18164
2026-01-01 08:55:07.16	122.56	28.82	-52.4	-66.4	3.8	1.49e+00	0	56	104	0	67	18193
2026-01-01 08:55:08.15	122.45	29.00	-52.6	-66.4	3.8	1.49e+00	0	56	104	0	67	18194
2026-01-01 08:55:09.13	122.34	29.17	-52.5	-66.4	3.8	1.49e+00	0	56	104	0	67	18189
2026-01-01 08:55:10.12	122.23	29.34	-52.6	-66.4	3.8	1.49e+00	0	56	104	0	67	18139
2026-01-01 08:55:11.10	122.11	29.51	-52.5	-66.4	3.8	1.49e+00	0	55	104	0	67	18200
2026-01-01 08:55:12.09	122.00	29.69	-52.4	-66.4	3.8	1.49e+00	0	56	104	0	67	18147
2026-01-01 08:55:13.08	121.88	29.87	-52.6	-66.4	3.8	1.49e+00	0	55	104	0	67	18115
2026-01-01 08:55:14.07	121.76	30.04	-52.5	-66.4	3.8	1.49e+00	0	55	104	0	67	18142
2026-01-01 08:55:15.06	121.64	30.22	-52.4	-66.4	3.8	1.49e+00	0	55	104	0	67	18167
2026-01-01 08:55:16.06	121.52	30.40	-52.5	-66.4	3.8	1.49e+00	0	55	104	0	67	18154
2026-01-01 08:55:17.04	121.40	30.58	-52.5	-66.4	3.8	1.49e+00	0	56	104	0	67	18142
2026-01-01 08:55:18.03	121.28	30.76	-52.5	-66.4	3.8	1.49e+00	0	56	104	0	67	18198
2026-01-01 08:55:19.02	121.15	30.94	-52.5	-66.4	3.8	1.49e+00	0	56	104	0	67	18187
2026-01-01 08:55:20.00	121.03	31.13	-52.3	-66.4	3.8	1.49e+00	0	56	104	0	67	18145
2026-01-01 08:55:21.00	120.90	31.31	-52.6	-66.4	3.8	1.49e+00	0	55	104	0	67	18157
2026-01-01 08:55:21.99	120.77	31.50	-52.5	-66.4	3.8	1.49e+00	0	55	104	0	67	18166
2026-01-01 08:55:22.99	120.64	31.68	-52.6	-66.4	3.8	1.49e+00	0	56	104	0	67	18206
2026-01-01 08:55:23.98	120.51	31.87	-52.5	-66.4	3.8	1.49e+00	0	55	104	0	67	18152
2026-01-01 08:55:24.97	120.37	32.06	-52.6	-66.4	3.8	1.49e+00	0	56	104	0	67	18168
2026-01-01 08:55:25.96	120.24	32.25	-52.5	-66.4	3.8	1.49e+00	0	56	104	0	67	18191
2026-01-01 08:55:26.95	120.10	32.44	-52.5	-66.4	3.8	1.49e+00	0	56	104	0	67	18224
2026-01-01 08:55:27.94	119.96	32.63	-52.4	-66.4	3.8	1.49e+00	0	55	104	0	67	18163
2026-01-01 08:55:28.93	119.82	32.82	-52.3	-66.4	3.8	1.49e+00	0	56	104	0	67	18141
2026-01-01 08:55:29.91	119.68	33.01	-52.4	-66.4	3.8	1.49e+00	0	56	104	0	67	18162
2026-01-01 08:55:30.89	119.54	33.21	-52.4	-66.4	3.8	1.49e+00	0	56	104	0	67	18204
2026-01-01 08:55:31.88	119.39	33.40	-52.5	-66.4	3.8	1.49e+00	0	56	104	0	67	18202
2026-01-01 08:55:32.86	119.24	33.60	-52.5	-66.4	3.8	1.49e+00	0	56	104	0	67	18199
2026-01-01 08:55:33.84	119.10	33.79	-52.6	-66.4	3.8	1.49e+00	0	56	104	0	67	18147
2026-01-01 08:55:34.84	118.94	33.99	-52.5	-66.4	3.8	1.49e+00	0	56	104	0	67	18214
2026-01-01 08:55:35.83	118.79	34.19	-52.4	-66.4	3.8	1.49e+00	0	56	104	0	67	18130
2026-01-01 08:55:36.82	118.64	34.39	-52.5	-66.4	3.8	1.49e+00	0	56	104	0	67	18182
2026-01-01 08:55:37.82	118.48	34.60	-52.6	-66.4	3.8	1.49e+00	0	56	104	0	67	18187
2026-01-01 08:55:38.80	118.32	34.80	-52.5	-66.4	3.8	1.49e+00	0	56	104	0	67	18144
2026-01-01 08:55:39.79	118.16	35.00	-52.6	-66.4	3.8	1.49e+00	0	56	104	0	67	18185
2026-01-01 08:55:40.78	118.00	35.20	-52.6	-66.4	3.8	1.49e+00	0	56	104	0	67	18124
2026-01-01 08:55:41.77	117.83	35.41	-52.5	-66.4	3.8	1.49e+00	0	56	104	0	67	18185
2026-01-01 08:55:42.75	117.67	35.62	-52.5	-66.4	3.8	1.49e+00	0	56	104	0	67	18175
2026-01-01 08:55:43.74	117.50	35.82	-52.5	-66.4	3.8	1.49e+00	0	56	104	0	67	18120
2026-01-01 08:55:44.74	117.32	36.03	-52.3	-66.4	3.8	1.49e+00	0	56	104	0	67	18156
2026-01-01 08:55:45.73	117.15	36.24	-52.6	-66.4	3.8	1.49e+00	0	56	104	0	67	18208
2026-01-01 08:55:46.73	116.97	36.46	-52.5	-66.4	3.8	1.49e+00	0	56	104	0	67	18157
2026-01-01 08:55:47.72	116.79	36.67	-52.5	-66.4	3.8	1.49e+00	0	56	104	0	67	18153
2026-01-01 08:55:48.71	116.61	36.88	-52.5	-66.4	3.8	1.49e+00	0	56	104	0	67	18158
2026-01-01 08:55:49.69	116.43	37.10	-52.5	-66.4	3.8	1.49e+00	0	56	104	0	67	18201
2026-01-01 08:55:50.68	116.25	37.31	-52.5	-66.4	3.8	1.49e+00	0	56	104	0	67	18128
2026-01-01 08:55:51.67	116.06	37.53	-52.5	-66.4	3.8	1.49e+00	0	56	104	0	67	18178
2026-01-01 08:55:52.66	115.87	37.74	-52.4	-66.4	3.8	1.49e+00	0	56	104	0	67	18136
2026-01-01 08:55:53.65	115.67	37.96	-52.5	-66.4	3.8	1.49e+00	0	56	104	0	67	18192
2026-01-01 08:55:54.64	115.48	38.18	-52.6	-66.4	3.8	1.49e+00	0	56	104	0	67	18140
2026-01-01 08:55:55.64	115.28	38.41	-52.5	-66.4	3.8	1.49e+00	0	56	104	0	67	18143
2026-01-01 08:55:56.63	115.08	38.63	-52.6	-66.4	3.8	1.49e+00	0	56	104	0	67	18162
2026-01-01 08:55:57.62	114.87	38.85	-52.4	-66.4	3.8	1.49e+00	0	56	104	0	67	18187
2026-01-01 08:55:58.61	114.66	39.07	-52.6	-66.4	3.8	1.49e+00	0	56	104	0	67	18199
2026-01-01 08:55:59.59	114.46	39.30	-52.6	-66.4	3.8	1.49e+00	0	56	104	0	67	18188
2026-01-01 08:56:00.59	114.24	39.52	-52.5	-66.4	3.8	1.49e+00	0	56	104	0	67	18183
2026-01-01 08:56:01.57	114.03	39.75	-52.5	-66.4	3.8	1.49e+00	0	56	104	0	67	18127
2026-01-01 08:56:02.56	113.81	39.98	-52.6	-66.4	3.8	1.49e+00	0	56	104	0	67	18161
2026-01-01 08:56:03.55	113.58	40.20	-52.5	-66.4	3.8	1.49e+00	0	56	104	0	67	18209
2026-01-01 08:56:04.54	113.36	40.43	-52.5	-66.4	3.8	1.49e+00	0	56	104	0	67	18164
2026-01-01 08:56:05.53	113.13	40.66	-52.4	-66.4	3.8	1.49e+00	0	56	104	0	67	18137
2026-01-01 08:56:06.52	112.90	40.90	-52.5	-66.4	3.8	1.49e+00	0	56	104	0	67	18176
2026-01-01 08:56:07.51	112.66	41.13	-52.5	-66.4	3.8	1.49e+00	0	56	104	0	67	18150
2026-01-01 08:56:08.50	112.42	41.36	-52.4	-66.4	3.8	1.49e+00	0	56	104	0	67	18134
2026-01-01 08:56:09.49	112.18	41.60	-52.5	-66.4	3.8	1.49e+00	0	56	104	0	67	18156
2026-01-01 08:56:10.48	111.94	41.83	-52.5	-66.4	3.8	1.49e+00	0	56	104	0	67	18147
2026-01-01 08:56:11.48	111.68	42.07	-52.4	-66.4	3.8	1.49e+00	0	56	104	0	67	18184
2026-01-01 08:56:12.47	111.43	42.31	-52.5	-66.4	3.8	1.49e+00	0	56	104	0	67	18212
2026-01-01 08:56:13.46	111.17	42.54	-52.5	-66.4	3.8	1.49e+00	0	56	104	0	67	18165
2026-01-01 08:56:14.45	110.91	42.78	-52.6	-66.4	3.8	1.49e+00	0	56	104	0	67	18205
2026-01-01 08:56:15.44	110.65	43.02	-52.5	-66.4	3.8	1.49e+00	0	56	104	0	67	18155
2026-01-01 08:56:16.42	110.38	43.26	-52.5	-66.4	3.8	1.49e+00	0	56	104	0	67	18221
2026-01-01 08:56:17.41	110.11	43.50	-52.5	-66.4	3.8	1.49e+00	0	56	104	0	67	18176
2026-01-01 08:56:18.41	109.83	43.75	-52.6	-66.4	3.8	1.49e+00	0	56	104	0	67	18188
2026-01-01 08:56:19.39	109.55	43.99	-52.6	-66.4	3.8	1.49e+00	0	56	104	0	67	18234
2026-01-01 08:56:20.38	109.26	44.23	-52.6	-66.4	3.8	1.49e+00	0	56	104	0	67	18186
2026-01-01 08:56:21.37	108.97	44.47	-52.6	-66.4	3.8	1.49e+00	0	56	104	0	67	18170
2026-01-01 08:56:22.36	108.68	44.72	-52.5	-66.4	3.8	1.49e+00	0	56	104	0	67	18165
2026-01-01 08:56:23.35	108.38	44.96	-52.5	-66.4	3.8	1.49e+00	0	56	104	0	67	18162
2026-01-01 08:56:24.34	108.07	45.21	-52.5	-66.4	3.8	1.49e+00	0	56	104	0	67	18146
2026-01-01 08:56:25.32	107.77	45.46	-52.4	-66.4	3.8	1.49e+00	0	56	104	0	67	18206
2026-01-01 08:56:26.31	107.45	45.70	-52.4	-66.4	3.8	1.49e+00	0	56	104	0	67	18151
2026-01-01 08:56:27.30	107.13	45.95	-52.6	-66.4	3.8	1.49e+00	0	56	104	0	67	18127
2026-01-01 08:56:28.30	106.80	46.20	-52.5	-66.4	3.8	1.49e+00	0	56	104	0	67	18181
2026-01-01 08:56:29.28	106.48	46.45	-52.4	-66.4	3.8	1.49e+00	0	56	104	0	67	18109
2026-01-01 08:56:30.27	106.14	46.70	-52.6	-66.4	3.8	1.49e+00	0	56	104	0	67	18177
2026-01-01 08:56:31.26	105.80	46.95	-52.4	-66.4	3.8	1.49e+00	0	56	104	0	67	18232
2026-01-01 08:56:32.25	105.46	47.20	-52.6	-66.4	3.8	1.49e+00	0	56	104	0	67	18218
2026-01-01 08:56:33.24	105.11	47.45	-52.6	-66.4	3.8	1.49e+00	0	56	104	0	67	18160
2026-01-01 08:56:34.22	104.75	47.69	-52.6	-66.4	3.8	1.49e+00	0	56	104	0	67	18242
2026-01-01 08:56:35.21	104.39	47.94	-52.6	-66.4	3.8	1.49e+00	0	56	104	0	67	18187
2026-01-01 08:56:36.19	104.03	48.19	-52.4	-66.4	3.8	1.49e+00	0	56	104	0	67	18186
2026-01-01 08:56:37.18	103.65	48.44	-52.5	-66.4	3.8	1.49e+00	0	56	104	0	67	18221
2026-01-01 08:56:38.17	103.27	48.69	-52.6	-66.4	3.8	1.49e+00	0	56	104	0	67	18178
2026-01-01 08:56:39.15	102.89	48.94	-52.5	-66.4	3.8	1.49e+00	0	56	104	0	67	18202
2026-01-01 08:56:40.15	102.49	49.20	-52.4	-66.4	3.8	1.49e+00	0	56	104	0	67	18145
2026-01-01 08:56:41.13	102.09	49.45	-52.5	-66.4	3.8	1.49e+00	0	56	104	0	67	18167
2026-01-01 08:56:42.13	101.68	49.70	-52.5	-66.4	3.8	1.49e+00	0	56	104	0	67	18141
2026-01-01 08:56:43.12	101.27	49.95	-52.4	-66.4	3.8	1.49e+00	0	56	104	0	67	18164
2026-01-01 08:56:44.12	100.84	50.20	-52.6	-66.4	3.8	1.49e+00	0	56	104	0	67	18194
2026-01-01 08:56:45.11	100.42	50.45	-52.4	-66.4	3.8	1.49e+00	0	56	104	0	67	18144
2026-01-01 08:56:46.09	99.99	50.70	-52.6	-66.4	3.8	1.49e+00	0	56	104	0	67	18164
2026-01-01 08:56:47.08	99.54	50.95	-52.5	-66.4	3.8	1.49e+00	0	56	104	0	67	18198
2026-01-01 08:56:48.07	99.09	51.20	-52.4	-66.4	3.8	1.49e+00	0	56	104	0	67	18140
2026-01-01 08:56:49.06	98.64	51.45	-52.6	-66.4	3.8	1.49e+00	0	56	104	0	67	18170
2026-01-01 08:56:50.06	98.17	51.70	-52.5	-66.4	3.8	1.49e+00	0	56	104	0	67	18198
2026-01-01 08:56:51.04	97.70	51.94	-52.6	-66.4	3.8	1.49e+00	0	56	104	0	67	18185
2026-01-01 08:56:52.03	97.22	52.19	-52.4	-66.4	3.8	1.49e+00	0	56	104	0	67	18182
2026-01-01 08:56:53.02	96.73	52.43	-52.6	-66.4	3.8	1.49e+00	0	56	104	0	67	18224
2026-01-01 08:56:54.01	96.23	52.68	-52.4	-66.4	3.8	1.49e+00	0	56	104	0	67	18211
2026-01-01 08:56:54.99	95.73	52.92	-52.5	-66.4	3.8	1.49e+00	0	56	104	0	67	18163
2026-01-01 08:56:55.98	95.22	53.16	-52.6	-66.4	3.8	1.49e+00	0	56	104	0	67	18152
2026-01-01 08:56:56.96	94.70	53.40	-52.4	-66.4	3.8	1.49e+00	0	56	104	0	67	18216
2026-01-01 08:56:57.95	94.17	53.64	-52.3	-66.4	3.8	1.49e+00	0	56	104	0	67	18169
2026-01-01 08:56:58.94	93.63	53.87	-52.3	-66.4	3.8	1.49e+00	0	56	104	0	67	18209
2026-01-01 08:56:59.93	93.08	54.11	-52.3	-66.4	3.8	1.49e+00	0	56	104	0	67	18194
2026-01-01 08:57:00.90	92.54	54.34	-52.6	-66.4	3.8	1.49e+00	0	56	104	0	67	18222
2026-01-01 08:57:01.89	91.97	54.57	-52.5	-66.4	3.8	1.49e+00	0	56	104	0	67	18210
2026-01-01 08:57:02.88	91.39	54.80	-52.6	-66.4	3.8	1.49e+00	0	56	104	0	67	18210
2026-01-01 08:57:03.86	90.81	55.03	-52.6	-66.4	3.8	1.49e+00	0	56	104	0	67	18228
2026-01-01 08:57:04.85	90.22	55.26	-52.6	-66.4	3.8	1.49e+00	0	56	104	0	67	18180
2026-01-01 08:57:05.84	89.61	55.48	-52.4	-66.4	3.8	1.49e+00	0	56	104	0	67	18250
2026-01-01 08:57:06.82	89.01	55.70	-52.4	-66.4	3.8	1.49e+00	0	56	104	0	67	18177
2026-01-01 08:57:07.81	88.38	55.92	-52.5	-66.4	3.8	1.49e+00	0	56	104	0	67	18170
2026-01-01 08:57:08.79	87.75	56.14	-52.4	-66.4	3.8	1.49e+00	0	56	104	0	67	18189
2026-01-01 08:57:09.78	87.11	56.35	-52.4	-66.4	3.8	1.49e+00	0	56	104	0	67	18191
2026-01-01 08:57:10.76	86.46	56.57	-52.6	-66.4	3.8	1.49e+00	0	56	104	0	67	18148
2026-01-01 08:57:11.75	85.80	56.77	-52.3	-66.4	3.8	1.49e+00	0	56	104	0	67	18175
2026-01-01 08:57:12.74	85.13	56.98	-52.5	-66.4	3.8	1.49e+00	0	56	104	0	67	18169
2026-01-01 08:57:13.73	84.44	57.18	-52.3	-66.4	3.8	1.49e+00	0	56	104	0	67	18211
2026-01-01 08:57:14.72	83.75	57.39	-52.5	-66.4	3.8	1.49e+00	0	56	104	0	67	18201
2026-01-01 08:57:15.71	83.04	57.58	-52.4	-66.4	3.8	1.49e+00	0	56	104	0	67	18152
2026-01-01 08:57:16.70	82.33	57.78	-52.6	-66.4	3.8	1.49e+00	0	56	104	0	67	18209
2026-01-01 08:57:17.69	81.60	57.96	-52.6	-66.4	3.8	1.49e+00	0	56	104	0	67	18242
2026-01-01 08:57:18.69	80.86	58.15	-52.6	-66.4	3.8	1.49e+00	0	57	104	0	67	18240
2026-01-01 08:57:19.68	80.11	58.33	-52.6	-66.4	3.8	1.49e+00	0	57	104	0	67	18187
2026-01-01 08:57:20.65	79.37	58.51	-52.4	-66.4	3.8	1.49e+00	0	56	104	0	67	18222
2026-01-01 08:57:21.64	78.61	58.68	-52.4	-66.4	3.8	1.49e+00	0	56	104	0	67	18192
2026-01-01 08:57:22.63	77.83	58.85	-52.4	-66.4	3.8	1.49e+00	0	56	104	0	67	18233
2026-01-01 08:57:23.62	77.05	59.02	-52.6	-66.4	3.8	1.49e+00	0	56	104	0	67	18223
2026-01-01 08:57:24.61	76.25	59.18	-52.6	-66.4	3.8	1.49e+00	0	56	104	0	67	18190
2026-01-01 08:57:25.60	75.44	59.33	-52.5	-66.4	3.8	1.49e+00	0	56	104	0	67	18162
2026-01-01 08:57:26.58	74.64	59.48	-52.5	-66.4	3.8	1.49e+00	0	56	104	0	67	18191
2026-01-01 08:57:27.57	73.81	59.63	-52.5	-66.4	3.8	1.49e+00	0	56	104	0	67	18136
2026-01-01 08:57:28.56	72.98	59.77	-52.6	-66.4	3.8	1.49e+00	0	56	104	0	67	18138
2026-01-01 08:57:29.54	72.15	59.90	-52.4	-66.4	3.8	1.49e+00	0	56	104	0	67	18165
2026-01-01 08:57:30.53	71.30	60.03	-52.5	-66.4	3.8	1.49e+00	0	56	104	0	67	18182
2026-01-01 08:57:31.52	70.44	60.16	-52.4	-66.4	3.8	1.49e+00	0	56	104	0	67	18128
2026-01-01 08:57:32.50	69.58	60.27	-52.5	-66.4	3.8	1.49e+00	0	56	104	0	67	18237
2026-01-01 08:57:33.50	68.70	60.39	-52.4	-66.4	3.8	1.49e+00	0	56	104	0	67	18191
2026-01-01 08:57:34.49	67.81	60.50	-52.6	-66.4	3.8	1.49e+00	0	56	104	0	67	18198
2026-01-01 08:57:35.48	66.92	60.60	-52.6	-66.4	3.8	1.49e+00	0	56	104	0	67	18227
2026-01-01 08:57:36.47	66.03	60.69	-52.6	-66.4	3.8	1.49e+00	0	56	104	0	67	18200
2026-01-01 08:57:37.46	65.12	60.78	-52.6	-66.4	3.8	1.49e+00	0	56	104	0	67	18195
2026-01-01 08:57:38.44	64.22	60.86	-52.6	-66.4	3.8	1.49e+00	0	56	104	0	67	18180
2026-01-01 08:57:39.43	63.31	60.94	-52.6	-66.4	3.8	1.49e+00	0	56	104	0	67	18234
2026-01-01 08:57:40.42	62.38	61.01	-52.6	-66.4	3.8	1.49e+00	0	56	104	0	67	18180
2026-01-01 08:57:41.41	61.46	61.07	-52.5	-66.4	3.8	1.49e+00	0	56	104	0	67	18176
2026-01-01 08:57:42.39	60.54	61.13	-52.5	-66.4	3.8	1.49e+00	0	56	104	0	67	18161
2026-01-01 08:57:43.38	59.60	61.18	-52.5	-66.4	3.8	1.49e+00	0	56	104	0	67	18171
2026-01-01 08:57:44.37	58.67	61.22	-52.6	-66.4	3.8	1.49e+00	0	56	104	0	67	18226
2026-01-01 08:57:45.35	57.73	61.26	-52.6	-66.4	3.8	1.49e+00	0	56	104	0	67	18182
2026-01-01 08:57:46.34	56.79	61.29	-52.5	-66.4	3.8	1.49e+00	0	56	104	0	67	18187
2026-01-01 08:57:47.32	55.86	61.32	-52.4	-66.4	3.8	1.49e+00	0	56	104	0	67	18187
2026-01-01 08:57:48.32	54.90	61.33	-52.3	-66.4	3.8	1.49e+00	0	56	104	0	67	18182
2026-01-01 08:57:49.30	53.96	61.34	-52.5	-66.4	3.8	1.49e+00	0	56	104	0	67	18236
2026-01-01 08:57:50.29	53.01	61.35	-52.3	-66.4	3.8	1.49e+00	0	57	104	0	67	18204
2026-01-01 08:57:51.28	52.06	61.34	-52.6	-66.4	3.8	1.49e+00	0	56	104	0	67	18150
2026-01-01 08:57:52.26	51.13	61.33	-52.6	-66.4	3.8	1.49e+00	0	56	104	0	67	18178
2026-01-01 08:57:53.26	50.17	61.31	-52.4	-66.4	3.8	1.49e+00	0	56	104	0	67	18212
2026-01-01 08:57:54.25	49.22	61.29	-52.6	-66.4	3.8	1.49e+00	0	56	104	0	67	18165
2026-01-01 08:57:55.24	48.28	61.26	-52.6	-66.4	3.8	1.49e+00	0	56	104	0	67	18168
2026-01-01 08:57:56.22	47.35	61.22	-52.6	-66.4	3.8	1.49e+00	0	57	104	0	67	18170
2026-01-01 08:57:57.21	46.41	61.18	-52.4	-66.4	3.8	1.49e+00	0	56	104	0	67	18162
2026-01-01 08:57:58.19	45.49	61.13	-52.5	-66.4	3.8	1.49e+00	0	56	104	0	67	18186
2026-01-01 08:57:59.18	44.56	61.07	-52.5	-66.4	3.8	1.49e+00	0	56	104	0	67	18185
2026-01-01 08:58:00.17	43.63	61.00	-52.6	-66.4	3.8	1.49e+00	0	57	104	0	67	18198
2026-01-01 08:58:01.16	42.71	60.93	-52.5	-66.4	3.8	1.49e+00	0	56	104	0	67	18153
2026-01-01 08:58:02.15	41.80	60.86	-52.5	-66.4	3.8	1.49e+00	0	56	104	0	67	18181
2026-01-01 08:58:03.14	40.89	60.77	-52.4	-66.4	3.8	1.49e+00	0	57	104	0	67	18193
2026-01-01 08:58:04.13	39.99	60.68	-52.3	-66.4	3.8	1.49e+00	0	57	104	0	67	18195
2026-01-01 08:58:05.12	39.09	60.59	-52.2	-66.4	3.8	1.49e+00	0	56	104	0	67	18167
2026-01-01 08:58:06.10	38.21	60.49	-52.5	-66.4	3.8	1.49e+00	0	56	104	0	67	18239
2026-01-01 08:58:07.09	37.33	60.38	-52.4	-66.4	3.8	1.49e+00	0	56	104	0	67	18192
2026-01-01 08:58:08.08	36.46	60.27	-52.5	-66.4	3.8	1.49e+00	0	56	104	0	67	18207
2026-01-01 08:58:09.07	35.59	60.15	-52.6	-66.4	3.8	1.49e+00	0	56	104	0	67	18168
2026-01-01 08:58:10.06	34.73	60.02	-52.6	-66.4	3.8	1.49e+00	0	56	104	0	67	18164
2026-01-01 08:58:11.06	33.87	59.89	-52.6	-66.4	3.8	1.49e+00	0	56	104	0	67	18243
2026-01-01 08:58:12.04	33.04	59.76	-52.6	-66.4	3.8	1.49e+00	0	56	104	0	67	18201
2026-01-01 08:58:13.03	32.21	59.62	-52.4	-66.4	3.8	1.49e+00	0	56	104	0	67	18191
2026-01-01 08:58:14.02	31.39	59.47	-52.5	-66.4	3.8	1.49e+00	0	56	104	0	67	18192
2026-01-01 08:58:15.01	30.57	59.32	-52.5	-66.4	3.8	1.49e+00	0	57	104	0	67	18158
2026-01-01 08:58:16.00	29.77	59.16	-52.6	-66.4	3.8	1.49e+00	0	57	104	0	67	18223
2026-01-01 08:58:16.99	28.98	59.00	-52.3	-66.4	3.8	1.49e+00	0	56	104	0	67	18194
2026-01-01 08:58:17.98	28.19	58.84	-52.4	-66.4	3.8	1.49e+00	0	56	104	0	67	18181
2026-01-01 08:58:18.97	27.42	58.67	-52.4	-66.4	3.8	1.49e+00	0	56	104	0	67	18154
2026-01-01 08:58:19.96	26.65	58.49	-52.4	-66.4	3.8	1.49e+00	0	57	104	0	67	18167
2026-01-01 08:58:20.95	25.90	58.32	-52.6	-66.4	3.8	1.49e+00	0	56	104	0	67	18210
2026-01-01 08:58:21.94	25.16	58.13	-52.4	-66.4	3.8	1.49e+00	0	56	104	0	67	18164
2026-01-01 08:58:22.92	24.43	57.95	-52.5	-66.4	3.8	1.49e+00	0	56	104	0	67	18191
2026-01-01 08:58:23.91	23.71	57.76	-52.6	-66.4	3.8	1.49e+00	0	56	104	0	67	18212
2026-01-01 08:58:24.90	22.99	57.57	-52.5	-66.4	3.8	1.49e+00	0	56	104	0	67	18234
2026-01-01 08:58:25.89	22.29	57.37	-52.6	-66.4	3.8	1.49e+00	0	57	104	0	67	18200
2026-01-01 08:58:26.88	21.60	57.17	-52.6	-66.4	3.8	1.49e+00	0	57	104	0	67	18210
2026-01-01 08:58:27.88	20.91	56.96	-52.6	-66.4	3.8	1.49e+00	0	56	104	0	67	18200
2026-01-01 08:58:28.87	20.24	56.76	-52.6	-66.4	3.8	1.49e+00	0	56	104	0	67	18204
2026-01-01 08:58:29.86	19.57	56.55	-52.6	-66.4	3.8	1.49e+00	0	56	104	0	67	18222
2026-01-01 08:58:30.85	18.92	56.34	-52.6	-66.4	3.8	1.49e+00	0	56	104	0	67	18191
2026-01-01 08:58:31.83	18.29	56.12	-52.6	-66.4	3.8	1.49e+00	0	56	104	0	67	18202
2026-01-01 08:58:32.82	17.65	55.90	-52.4	-66.4	3.8	1.49e+00	0	56	104	0	67	18195
2026-01-01 08:58:33.81	17.03	55.68	-52.4	-66.4	3.8	1.49e+00	0	57	104	0	67	18125
2026-01-01 08:58:34.80	16.42	55.46	-52.3	-66.4	3.8	1.49e+00	0	56	104	0	67	18203
2026-01-01 08:58:35.78	15.82	55.24	-52.5	-66.4	3.8	1.49e+00	0	56	104	0	67	18152
2026-01-01 08:58:36.77	15.23	55.01	-52.6	-66.4	3.8	1.49e+00	0	56	104	0	67	18119
2026-01-01 08:58:37.77	14.64	54.78	-52.5	-66.4	3.8	1.49e+00	0	56	104	0	67	18166
2026-01-01 08:58:38.76	14.07	54.55	-52.5	-66.4	3.8	1.49e+00	0	56	104	0	67	18179
2026-01-01 08:58:39.75	13.50	54.32	-52.5	-66.4	3.8	1.49e+00	0	57	104	0	67	18137
2026-01-01 08:58:40.74	12.95	54.08	-52.5	-66.4	3.8	1.49e+00	0	57	104	0	67	18154
2026-01-01 08:58:41.73	12.40	53.85	-52.5	-66.4	3.8	1.49e+00	0	56	104	0	67	18194
2026-01-01 08:58:42.72	11.86	53.61	-52.6	-66.4	3.8	1.49e+00	0	56	104	0	67	18194
2026-01-01 08:58:43.71	11.33	53.37	-52.5	-66.4	3.8	1.49e+00	0	57	104	0	67	18212
2026-01-01 08:58:44.70	10.81	53.13	-52.6	-66.4	3.8	1.49e+00	0	56	104	0	67	18202
2026-01-01 08:58:45.69	10.30	52.89	-52.6	-66.4	3.8	1.49e+00	0	56	104	0	67	18242
2026-01-01 08:58:46.68	9.80	52.64	-52.6	-66.4	3.8	1.49e+00	0	57	104	0	67	18190
2026-01-01 08:58:47.67	9.30	52.40	-52.6	-66.4	3.8	1.49e+00	0	56	104	0	67	18211
2026-01-01 08:58:48.66	8.82	52.16	-52.6	-66.4	3.8	1.49e+00	0	56	104	0	67	18207
2026-01-01 08:58:49.66	8.33	51.91	-52.6	-66.4	3.8	1.49e+00	0	57	104	0	67	18194
2026-01-01 08:58:50.65	7.86	51.66	-52.6	-66.4	3.8	1.49e+00	0	56	104	0	67	18184
2026-01-01 08:58:51.64	7.40	51.41	-52.3	-66.4	3.8	1.49e+00	0	57	104	0	67	18146
2026-01-01 08:58:52.63	6.95	51.17	-52.5	-66.4	3.8	1.49e+00	0	56	104	0	67	18161
2026-01-01 08:58:53.62	6.50	50.92	-52.6	-66.4	3.8	1.49e+00	0	57	104	0	67	18210
2026-01-01 08:58:54.60	6.06	50.67	-52.5	-66.4	3.8	1.49e+00	0	57	104	0	67	18165
2026-01-01 08:58:55.60	5.62	50.42	-52.5	-66.4	3.8	1.49e+00	0	57	104	0	67	18209
2026-01-01 08:58:56.59	5.20	50.17	-52.4	-66.4	3.8	1.49e+00	0	57	104	0	67	18165
2026-01-01 08:58:57.57	4.78	49.92	-52.5	-66.4	3.8	1.49e+00	0	57	104	0	67	18214
2026-01-01 08:58:58.56	4.37	49.67	-52.5	-66.4	3.8	1.49e+00	0	57	104	0	67	18176
2026-01-01 08:58:59.55	3.97	49.42	-52.6	-66.4	3.8	1.49e+00	0	57	104	0	67	18182
2026-01-01 08:59:00.54	3.57	49.17	-52.6	-66.4	3.8	1.49e+00	0	56	104	0	67	18193
2026-01-01 08:59:01.52	3.18	48.92	-52.5	-66.4	3.8	1.49e+00	0	57	104	0	67	18182
2026-01-01 08:59:02.51	2.80	48.67	-52.6	-66.4	3.8	1.49e+00	0	57	104	0	67	18200
2026-01-01 08:59:03.50	2.42	48.42	-52.6	-66.4	3.8	1.49e+00	0	57	104	0	67	18220
2026-01-01 08:59:04.48	2.05	48.18	-52.4	-66.4	3.8	1.49e+00	0	56	104	0	67	18253
2026-01-01 08:59:05.47	1.68	47.93	-52.5	-66.4	3.8	1.49e+00	0	57	104	0	67	18217
2026-01-01 08:59:06.46	1.32	47.68	-52.4	-66.4	3.8	1.49e+00	0	57	104	0	67	18145
2026-01-01 08:59:07.46	0.96	47.42	-52.4	-66.4	3.8	1.49e+00	0	57	104	0	67	18192
2026-01-01 08:59:08.45	0.61	47.17	-52.3	-66.4	3.8	1.49e+00	0	57	104	0	67	18203
2026-01-01 08:59:09.43	0.27	46.93	-52.6	-66.4	3.8	1.49e+00	0	56	104	0	67	18194
2026-01-01 08:59:10.42	359.93	46.68	-52.5	-66.4	3.8	1.49e+00	0	57	104	0	67	18199
2026-01-01 08:59:11.41	359.60	46.43	-52.5	-66.4	3.8	1.49e+00	0	57	104	0	67	18173
2026-01-01 08:59:12.41	359.27	46.18	-52.5	-66.4	3.8	1.49e+00	0	57	104	0	67	18149
2026-01-01 08:59:13.40	358.94	45.93	-52.5	-66.4	3.8	1.49e+00	0	57	104	0	67	18134
2026-01-01 08:59:14.38	358.63	45.69	-52.5	-66.4	3.8	1.49e+00	0	57	104	0	67	18204
2026-01-01 08:59:15.37	358.32	45.44	-52.6	-66.4	3.8	1.49e+00	0	57	104	0	67	18216
2026-01-01 08:59:16.36	358.01	45.19	-52.5	-66.4	3.8	1.49e+00	0	56	104	0	67	18183
2026-01-01 08:59:17.35	357.70	44.95	-52.6	-66.4	3.8	1.49e+00	0	57	104	0	67	18155
2026-01-01 08:59:18.34	357.41	44.70	-52.5	-66.4	3.8	1.49e+00	0	57	104	0	67	18153
2026-01-01 08:59:19.33	357.11	44.46	-52.6	-66.4	3.8	1.49e+00	0	57	104	0	67	18262
2026-01-01 08:59:20.32	356.82	44.22	-52.6	-66.4	3.8	1.49e+00	0	57	104	0	67	18221
2026-01-01 08:59:21.31	356.54	43.97	-52.6	-66.4	3.8	1.49e+00	0	57	104	0	67	18201
2026-01-01 08:59:22.30	356.26	43.73	-52.6	-66.4	3.8	1.49e+00	0	57	104	0	67	18199
2026-01-01 08:59:23.29	355.98	43.49	-52.5	-66.4	3.8	1.49e+00	0	57	104	0	67	18183
2026-01-01 08:59:24.27	355.71	43.25	-52.4	-66.4	3.8	1.49e+00	0	57	104	0	67	18156
2026-01-01 08:59:25.26	355.44	43.01	-52.6	-66.4	3.8	1.49e+00	0	57	104	0	67	18149
2026-01-01 08:59:26.26	355.18	42.77	-52.6	-66.4	3.8	1.49e+00	0	57	104	0	67	18159
2026-01-01 08:59:27.24	354.92	42.54	-52.6	-66.4	3.8	1.49e+00	0	57	104	0	67	18175
2026-01-01 08:59:28.24	354.66	42.30	-52.5	-66.4	3.8	1.49e+00	0	56	104	0	67	18156
2026-01-01 08:59:29.21	354.41	42.07	-52.3	-66.4	3.8	1.49e+00	0	57	104	0	67	18198
2026-01-01 08:59:30.20	354.17	41.83	-52.5	-66.4	3.8	1.49e+00	0	57	104	0	67	18130
2026-01-01 08:59:31.18	353.92	41.60	-52.5	-66.4	3.8	1.49e+00	0	57	104	0	67	18190
2026-01-01 08:59:32.17	353.68	41.36	-52.5	-66.4	3.8	1.49e+00	0	57	104	0	67	18220
2026-01-01 08:59:33.15	353.45	41.13	-52.6	-66.4	3.8	1.49e+00	0	57	104	0	67	18196
2026-01-01 08:59:34.14	353.21	40.90	-52.6	-66.4	3.8	1.49e+00	0	57	104	0	67	18199
2026-01-01 08:59:35.13	352.98	40.67	-52.6	-66.4	3.8	1.49e+00	0	57	104	0	67	18214
2026-01-01 08:59:36.11	352.75	40.44	-52.6	-66.4	3.8	1.49e+00	0	57	104	0	67	18219
2026-01-01 08:59:37.09	352.53	40.22	-52.6	-66.4	3.8	1.49e+00	0	56	104	0	67	18209
2026-01-01 08:59:38.08	352.31	39.99	-52.5	-66.4	3.8	1.49e+00	0	57	104	0	67	18185
2026-01-01 08:59:39.08	352.09	39.76	-52.6	-66.4	3.8	1.49e+00	0	57	104	0	67	18214
2026-01-01 08:59:40.06	351.88	39.54	-52.6	-66.4	3.8	1.49e+00	0	57	104	0	67	18175
2026-01-01 08:59:41.05	351.66	39.31	-52.5	-66.4	3.8	1.49e+00	0	57	104	0	67	18203
2026-01-01 08:59:42.04	351.45	39.09	-52.6	-66.4	3.8	1.49e+00	0	57	104	0	67	18215
2026-01-01 08:59:43.04	351.25	38.86	-52.6	-66.4	3.8	1.49e+00	0	57	104	0	67	18225
2026-01-01 08:59:44.03	351.04	38.64	-52.5	-66.4	3.8	1.49e+00	0	57	104	0	67	18196
2026-01-01 08:59:45.02	350.84	38.42	-52.5	-66.4	3.8	1.49e+00	0	57	104	0	67	18176
2026-01-01 08:59:46.02	350.64	38.20	-52.4	-66.4	3.8	1.49e+00	0	57	104	0	67	18161
2026-01-01 08:59:47.01	350.45	37.98	-52.5	-66.4	3.8	1.49e+00	0	57	104	0	67	18194
2026-01-01 08:59:48.00	350.25	37.76	-52.5	-66.4	3.8	1.49e+00	0	57	104	0	67	18194
2026-01-01 08:59:49.00	350.06	37.54	-52.6	-66.4	3.8	1.49e+00	0	57	104	0	67	18189
2026-01-01 08:59:49.98	349.88	37.33	-52.4	-66.4	3.8	1.49e+00	0	57	104	0	67	18224
2026-01-01 08:59:50.98	349.69	37.11	-52.5	-66.4	3.8	1.49e+00	0	57	104	0	67	18198
2026-01-01 08:59:51.97	349.51	36.90	-52.6	-66.4	3.8	1.49e+00	0	57	104	0	67	18231
2026-01-01 08:59:52.97	349.33	36.68	-52.6	-66.4	3.8	1.49e+00	0	57	104	0	67	18200
2026-01-01 08:59:53.95	349.15	36.47	-52.5	-66.4	3.8	1.49e+00	0	57	104	0	67	18182
2026-01-01 08:59:54.94	348.97	36.26	-52.6	-66.4	3.8	1.49e+00	0	57	104	0	67	18177
2026-01-01 08:59:55.94	348.80	36.05	-52.5	-66.4	3.8	1.49e+00	0	57	104	0	67	18201
2026-01-01 08:59:56.92	348.63	35.85	-52.6	-66.4	3.8	1.49e+00	0	57	104	0	67	18178
2026-01-01 08:59:57.92	348.46	35.64	-52.6	-66.4	3.8	1.49e+00	0	57	104	0	67	18156
2026-01-01 08:59:58.91	348.29	35.43	-52.6	-66.4	3.8	1.49e+00	0	57	104	0	67	18163
2026-01-01 08:59:59.88	348.13	35.23	-52.6	-66.4	3.8	1.49e+00	0	57	104	0	67	18144
2026-01-01 09:00:00.88	347.97	35.02	-52.5	-66.4	3.8	1.49e+00	0	57	104	0	67	18205
2026-01-01 09:00:01.87	347.81	34.82	-52.4	-66.4	3.8	1.49e+00	0	57	104	0	67	18239
2026-01-01 09:00:02.85	347.65	34.62	-52.5	-66.4	3.8	1.49e+00	0	57	104	0	66	19283
2026-01-01 09:00:03.84	347.50	34.42	-52.4	-66.4	3.8	1.49e+00	0	56	104	0	67	18174
2026-01-01 09:00:04.83	347.34	34.22	-52.5	-66.4	3.8	1.49e+00	0	57	104	0	67	18187
2026-01-01 09:00:05.82	347.19	34.02	-52.4	-66.4	3.8	1.49e+00	0	57	104	0	67	18192
2026-01-01 09:00:06.81	347.04	33.82	-52.5	-66.4	3.8	1.49e+00	0	57	104	0	67	18119
2026-01-01 09:00:07.81	346.89	33.62	-52.5	-66.4	3.8	1.49e+00	0	57	104	0	67	18147
2026-01-01 09:00:08.80	346.74	33.43	-52.4	-66.4	3.8	1.49e+00	0	57	104	0	67	18244
2026-01-01 09:00:09.78	346.60	33.24	-52.5	-66.4	3.8	1.49e+00	0	57	104	0	67	18191
2026-01-01 09:00:10.78	346.45	33.04	-52.6	-66.4	3.8	1.49e+00	0	57	104	0	67	18195
2026-01-01 09:00:11.77	346.31	32.85	-52.6	-66.4	3.8	1.49e+00	0	57	104	0	67	18196
2026-01-01 09:00:12.76	346.17	32.66	-52.6	-66.4	3.8	1.49e+00	0	57	104	0	67	18214
2026-01-01 09:00:13.75	346.03	32.47	-52.6	-66.4	3.8	1.49e+00	0	57	104	0	67	18211
2026-01-01 09:00:14.73	345.90	32.28	-52.5	-66.4	3.8	1.49e+00	0	57	104	0	67	18181
2026-01-01 09:00:15.72	345.76	32.09	-52.5	-66.4	3.8	1.49e+00	0	57	104	0	67	18209
2026-01-01 09:00:16.72	345.63	31.90	-52.5	-66.4	3.8	1.49e+00	0	57	104	0	67	18210
2026-01-01 09:00:17.71	345.50	31.71	-52.5	-66.4	3.8	1.49e+00	0	57	104	0	67	18166
2026-01-01 09:00:18.69	345.37	31.53	-52.4	-66.4	3.8	1.49e+00	0	57	104	0	67	18192
2026-01-01 09:00:19.68	345.24	31.35	-52.4	-66.4	3.8	1.49e+00	0	57	104	0	67	18148
2026-01-01 09:00:20.67	345.11	31.16	-52.5	-66.4	3.8	1.49e+00	0	57	104	0	67	18194
2026-01-01 09:00:21.65	344.99	30.98	-52.4	-66.4	3.8	1.49e+00	0	57	104	0	67	18206
2026-01-01 09:00:22.64	344.86	30.80	-52.5	-66.4	3.8	1.49e+00	0	57	104	0	67	18172
2026-01-01 09:00:23.63	344.74	30.62	-52.5	-66.4	3.8	1.49e+00	0	57	104	0	67	18176
2026-01-01 09:00:24.62	344.62	30.44	-52.4	-66.4	3.8	1.49e+00	0	57	104	0	67	18198
2026-01-01 09:00:25.60	344.50	30.26	-52.5	-66.4	3.8	1.49e+00	0	57	104	0	67	18198
2026-01-01 09:00:26.58	344.38	30.09	-52.6	-66.4	3.8	1.49e+00	0	57	104	0	67	18143
2026-01-01 09:00:27.58	344.27	29.91	-52.4	-66.4	3.8	1.49e+00	0	57	104	0	67	18194
2026-01-01 09:00:28.57	344.15	29.73	-52.3	-66.4	3.8	1.49e+00	0	57	104	0	67	18222
2026-01-01 09:00:29.55	344.04	29.56	-52.4	-66.4	3.8	1.49e+00	0	57	104	0	67	18249
2026-01-01 09:00:30.54	343.92	29.39	-52.4	-66.4	3.8	1.49e+00	0	57	104	0	67	18174
2026-01-01 09:00:31.52	343.81	29.21	-52.5	-66.4	3.8	1.49e+00	0	57	104	0	67	18206
2026-01-01 09:00:32.51	343.70	29.04	-52.6	-66.4	3.8	1.49e+00	0	57	104	0	67	18191
2026-01-01 09:00:33.50	343.59	28.87	-52.4	-66.4	3.8	1.49e+00	0	57	104	0	67	18149
2026-01-01 09:00:34.50	343.48	28.70	-52.5	-66.4	3.8	1.49e+00	0	57	104	0	67	18172
2026-01-01 09:00:35.49	343.37	28.53	-52.5	-66.4	3.8	1.49e+00	0	57	104	0	67	18219
2026-01-01 09:00:36.48	343.27	28.36	-52.5	-66.4	3.8	1.49e+00	0	57	104	0	67	18170
2026-01-01 09:00:37.46	343.16	28.20	-52.5	-66.4	3.8	1.49e+00	0	57	104	0	67	18174
2026-01-01 09:00:38.46	343.06	28.03	-52.6	-66.4	3.8	1.49e+00	0	57	104	0	67	18168
2026-01-01 09:00:39.45	342.96	27.86	-52.6	-66.4	3.8	1.49e+00	0	57	104	0	67	18219
2026-01-01 09:00:40.44	342.85	27.70	-52.5	-66.4	3.8	1.49e+00	0	57	104	0	67	18244
2026-01-01 09:00:41.43	342.75	27.53	-52.5	-66.4	3.8	1.49e+00	0	57	104	0	67	18203
2026-01-01 09:00:42.42	342.65	27.37	-52.5	-66.4	3.8	1.49e+00	0	57	104	0	67	18169
2026-01-01 09:00:43.41	342.56	27.21	-52.5	-66.4	3.8	1.49e+00	0	57	104	0	67	18199
2026-01-01 09:00:44.40	342.46	27.05	-52.6	-66.4	3.8	1.49e+00	0	57	104	0	67	18162
2026-01-01 09:00:45.39	342.36	26.89	-52.6	-66.4	3.8	1.49e+00	0	57	104	0	67	18188
2026-01-01 09:00:46.37	342.27	26.73	-52.6	-66.4	3.8	1.49e+00	0	57	104	0	67	18192
2026-01-01 09:00:47.36	342.17	26.57	-52.6	-66.4	3.8	1.49e+00	0	57	104	0	67	18221
2026-01-01 09:00:48.35	342.08	26.41	-52.5	-66.4	3.8	1.49e+00	0	57	104	0	67	18185
2026-01-01 09:00:49.33	341.99	26.26	-52.6	-66.4	3.8	1.49e+00	0	57	104	0	67	18212
2026-01-01 09:00:50.33	341.89	26.10	-52.3	-66.4	3.8	1.49e+00	0	57	104	0	67	18242
2026-01-01 09:00:51.31	341.80	25.94	-52.5	-66.4	3.8	1.49e+00	0	57	104	0	67	18157
2026-01-01 09:00:52.31	341.71	25.79	-52.5	-66.4	3.8	1.49e+00	0	57	104	0	67	18231
2026-01-01 09:00:53.30	341.62	25.63	-52.5	-66.4	3.8	1.49e+00	0	57	104	0	67	18183
2026-01-01 09:00:54.29	341.54	25.48	-52.5	-66.4	3.8	1.49e+00	0	57	104	0	67	18215
2026-01-01 09:00:55.27	341.45	25.33	-52.6	-66.4	3.8	1.49e+00	0	57	104	0	67	18195
2026-01-01 09:00:56.26	341.36	25.18	-52.6	-66.4	3.8	1.49e+00	0	57	104	0	67	18197
2026-01-01 09:00:57.25	341.28	25.03	-52.6	-66.4	3.8	1.49e+00	0	57	104	0	67	18218
2026-01-01 09:00:58.24	341.19	24.88	-52.5	-66.4	3.8	1.49e+00	0	57	104	0	67	18180
2026-01-01 09:00:59.23	341.11	24.73	-52.5	-66.4	3.8	1.49e+00	0	57	104	0	67	18171
2026-01-01 09:01:00.22	341.03	24.58	-52.5	-66.4	3.8	1.49e+00	0	57	104	0	67	18190
2026-01-01 09:01:01.21	340.95	24.43	-52.6	-66.4	3.8	1.49e+00	0	57	104	0	67	18204
2026-01-01 09:01:02.18	340.87	24.29	-52.6	-66.4	3.8	1.49e+00	0	57	104	0	67	18213
2026-01-01 09:01:03.18	340.78	24.14	-52.6	-66.4	3.8	1.49e+00	0	57	104	0	67	18182
2026-01-01 09:01:04.16	340.71	24.00	-52.6	-66.4	3.8	1.49e+00	0	57	104	0	67	18254
2026-01-01 09:01:05.16	340.63	23.85	-52.5	-66.4	3.8	1.49e+00	0	57	104	0	67	18191
2026-01-01 09:01:06.15	340.55	23.71	-52.3	-66.4	3.8	1.49e+00	0	57	104	0	67	18177
2026-01-01 09:01:07.14	340.47	23.56	-52.5	-66.4	3.8	1.49e+00	0	57	104	0	67	18187
2026-01-01 09:01:08.13	340.39	23.42	-52.4	-66.4	3.8	1.49e+00	0	57	104	0	67	18170
2026-01-01 09:01:09.11	340.32	23.28	-52.5	-66.4	3.8	1.49e+00	0	57	104	0	67	18185
2026-01-01 09:01:10.10	340.24	23.14	-52.5	-66.4	3.8	1.49e+00	0	57	104	0	67	18180
2026-01-01 09:01:11.09	340.17	23.00	-52.6	-66.4	3.8	1.49e+00	0	57	104	0	67	18170
2026-01-01 09:01:12.07	340.10	22.86	-52.3	-66.4	3.8	1.49e+00	0	57	104	0	67	18194
2026-01-01 09:01:13.06	340.02	22.72	-52.3	-66.4	3.8	1.49e+00	0	57	104	0	67	18209
2026-01-01 09:01:14.05	339.95	22.59	-52.5	-66.4	3.8	1.49e+00	0	57	104	0	67	18146
2026-01-01 09:01:15.03	339.88	22.45	-52.6	-66.4	3.8	1.49e+00	0	57	104	0	67	18214
2026-01-01 09:01:16.02	339.81	22.31	-52.6	-66.4	3.8	1.49e+00	0	57	104	0	67	18192
2026-01-01 09:01:17.00	339.74	22.18	-52.4	-66.4	3.8	1.49e+00	0	57	104	0	67	18188
2026-01-01 09:01:17.98	339.67	22.04	-52.4	-66.4	3.8	1.49e+00	0	57	104	0	66	19289
2026-01-01 09:01:18.97	339.60	21.91	-52.6	-66.4	3.8	1.49e+00	0	57	104	0	67	18209
2026-01-01 09:01:19.97	339.53	21.77	-52.6	-66.4	3.8	1.49e+00	0	57	104	0	67	18205
2026-01-01 09:01:20.95	339.46	21.64	-52.6	-66.4	3.8	1.49e+00	0	57	104	0	66	19323
2026-01-01 09:01:21.93	339.40	21.51	-52.5	-66.4	3.8	1.49e+00	0	57	104	0	67	18190
2026-01-01 09:01:22.91	339.33	21.38	-52.6	-66.4	3.8	1.49e+00	0	57	104	0	67	18219
2026-01-01 09:01:23.90	339.26	21.25	-52.5	-66.4	3.8	1.49e+00	0	56	104	0	67	18176
2026-01-01 09:01:24.88	339.20	21.12	-52.5	-66.4	3.8	1.49e+00	0	57	104	0	67	18192
2026-01-01 09:01:25.88	339.13	20.99	-52.5	-66.4	3.8	1.49e+00	0	57	104	0	67	18209
2026-01-01 09:01:26.86	339.07	20.86	-52.5	-66.4	3.8	1.49e+00	0	57	104	0	67	18203
2026-01-01 09:01:27.85	339.01	20.73	-52.6	-66.4	3.8	1.49e+00	0	57	104	0	67	18170
2026-01-01 09:01:28.83	338.94	20.60	-52.6	-66.4	3.8	1.49e+00	0	57	104	0	67	18202
2026-01-01 09:01:29.82	338.88	20.48	-52.5	-66.4	3.8	1.49e+00	0	57	104	0	67	18182
2026-01-01 09:01:30.80	338.82	20.35	-52.6	-66.4	3.8	1.49e+00	0	57	104	0	67	18176
2026-01-01 09:01:31.79	338.76	20.22	-52.6	-66.4	3.8	1.49e+00	0	57	104	0	67	18217
2026-01-01 09:01:32.78	338.70	20.10	-52.6	-66.4	3.8	1.49e+00	0	57	104	0	67	18221
2026-01-01 09:01:33.77	338.63	19.97	-52.6	-66.4	3.8	1.49e+00	0	57	104	0	67	18271
2026-01-01 09:01:34.76	338.57	19.85	-52.6	-66.4	3.8	1.49e+00	0	57	104	0	67	18212
2026-01-01 09:01:35.74	338.52	19.73	-52.6	-66.4	3.8	1.49e+00	0	57	104	0	67	18204
2026-01-01 09:01:36.73	338.46	19.60	-52.5	-66.4	3.8	1.49e+00	0	57	104	0	67	18209
2026-01-01 09:01:37.72	338.40	19.48	-52.6	-66.4	3.8	1.49e+00	0	57	104	0	67	18188
2026-01-01 09:01:38.71	338.34	19.36	-52.5	-66.4	3.8	1.49e+00	0	57	104	0	67	18206
2026-01-01 09:01:39.70	338.28	19.23	-52.5	-66.4	3.8	1.49e+00	0	57	104	0	67	18174
2026-01-01 09:01:40.69	338.23	19.11	-52.5	-66.4	3.8	1.49e+00	0	57	104	0	67	18126
2026-01-01 09:01:41.68	338.17	18.99	-52.5	-66.4	3.8	1.49e+00	0	57	104	0	67	18215
2026-01-01 09:01:42.67	338.11	18.87	-52.5	-66.4	3.8	1.49e+00	0	57	104	0	67	18199
2026-01-01 09:01:43.66	338.06	18.75	-52.5	-66.4	3.8	1.49e+00	0	57	104	0	67	18203
2026-01-01 09:01:44.64	338.00	18.63	-52.6	-66.4	3.8	1.49e+00	0	57	104	0	67	18149
2026-01-01 09:01:45.63	337.95	18.52	-52.6	-66.4	3.8	1.49e+00	0	57	104	0	67	18167
2026-01-01 09:01:46.61	337.89	18.40	-52.4	-66.4	3.8	1.49e+00	0	57	104	0	67	18172
2026-01-01 09:01:47.60	337.84	18.28	-52.6	-66.4	3.8	1.49e+00	0	57	104	0	67	18217
2026-01-01 09:01:48.59	337.79	18.17	-52.4	-66.4	3.8	1.49e+00	0	57	104	0	67	18194
2026-01-01 09:01:49.58	337.73	18.05	-52.6	-66.4	3.8	1.49e+00	0	57	104	0	67	18221
2026-01-01 09:01:50.57	337.68	17.93	-52.6	-66.4	3.8	1.49e+00	0	57	104	0	67	18204
2026-01-01 09:01:51.56	337.63	17.82	-52.6	-66.4	3.8	1.49e+00	0	57	104	0	67	18131
2026-01-01 09:01:52.56	337.58	17.70	-52.6	-66.4	3.8	1.49e+00	0	57	104	0	67	18201
2026-01-01 09:01:53.55	337.53	17.59	-52.5	-66.4	3.8	1.49e+00	0	57	104	0	67	18166
2026-01-01 09:01:54.53	337.48	17.47	-52.5	-66.4	3.8	1.49e+00	0	57	104	0	67	18219
2026-01-01 09:01:55.52	337.42	17.36	-52.5	-66.4	3.8	1.49e+00	0	57	104	0	67	18123
2026-01-01 09:01:56.51	337.37	17.25	-52.6	-66.4	3.8	1.49e+00	0	57	104	0	67	18194
2026-01-01 09:01:57.50	337.33	17.14	-52.5	-66.4	3.8	1.49e+00	0	57	104	0	67	18169
2026-01-01 09:01:58.49	337.28	17.02	-52.4	-66.4	3.8	1.49e+00	0	57	104	0	67	18222
2026-01-01 09:01:59.48	337.23	16.91	-52.5	-66.4	3.8	1.49e+00	0	57	104	0	67	18239
2026-01-01 09:02:00.47	337.18	16.80	-52.4	-66.4	3.8	1.49e+00	0	57	104	0	67	18158
2026-01-01 09:02:01.46	337.13	16.69	-52.5	-66.4	3.8	1.49e+00	0	57	104	0	67	18181
2026-01-01 09:02:02.45	337.08	16.58	-52.5	-66.4	3.8	1.49e+00	0	57	104	0	67	18211
2026-01-01 09:02:03.44	337.04	16.47	-52.6	-66.4	3.8	1.49e+00	0	57	104	0	67	18189
2026-01-01 09:02:04.43	336.99	16.36	-52.6	-66.4	3.8	1.49e+00	0	57	104	0	67	18229
2026-01-01 09:02:05.42	336.94	16.25	-52.5	-66.4	3.8	1.49e+00	0	57	104	0	67	18220
2026-01-01 09:02:06.41	336.90	16.15	-52.6	-66.4	3.8	1.49e+00	0	57	104	0	67	18218
2026-01-01 09:02:07.40	336.85	16.04	-52.6	-66.4	3.8	1.49e+00	0	57	104	0	67	18238
2026-01-01 09:02:08.40	336.80	15.93	-52.6	-66.4	3.8	1.49e+00	0	57	104	0	67	18228
2026-01-01 09:02:09.39	336.76	15.82	-52.6	-66.4	3.8	1.49e+00	0	57	104	0	67	18207
2026-01-01 09:02:10.38	336.71	15.72	-52.6	-66.4	3.8	1.49e+00	0	57	104	0	67	18178
2026-01-01 09:02:11.36	336.67	15.61	-52.6	-66.4	3.8	1.49e+00	0	57	104	0	67	18198
2026-01-01 09:02:12.35	336.63	15.51	-52.6	-66.4	3.8	1.49e+00	0	57	104	0	67	18192
2026-01-01 09:02:13.34	336.58	15.40	-52.5	-66.4	3.8	1.49e+00	0	57	104	0	67	18189
2026-01-01 09:02:14.34	336.54	15.30	-52.3	-66.4	3.8	1.49e+00	0	57	104	0	67	18157
2026-01-01 09:02:15.32	336.50	15.19	-52.2	-66.4	3.8	1.49e+00	0	57	104	0	67	18174
2026-01-01 09:02:16.31	336.45	15.09	-52.5	-66.4	3.8	1.49e+00	0	57	104	0	67	18152
2026-01-01 09:02:17.29	336.41	14.99	-52.4	-66.4	3.8	1.49e+00	0	57	104	0	67	18148
2026-01-01 09:02:18.28	336.37	14.89	-52.5	-66.4	3.8	1.49e+00	0	57	104	0	67	18193
2026-01-01 09:02:19.27	336.33	14.78	-52.5	-66.4	3.8	1.49e+00	0	57	104	0	67	18175
2026-01-01 09:02:20.25	336.29	14.68	-52.6	-66.4	3.8	1.49e+00	0	57	104	0	67	18205
2026-01-01 09:02:21.24	336.24	14.58	-52.6	-66.4	3.8	1.49e+00	0	57	104	0	67	18227
2026-01-01 09:02:22.23	336.20	14.48	-52.4	-66.4	3.8	1.49e+00	0	57	104	0	67	18175
2026-01-01 09:02:23.22	336.16	14.38	-52.4	-66.4	3.8	1.49e+00	0	57	104	0	67	18181
2026-01-01 09:02:24.20	336.12	14.28	-52.3	-66.4	3.8	1.49e+00	0	57	104	0	67	18229
2026-01-01 09:02:25.20	336.08	14.18	-52.3	-66.4	3.8	1.49e+00	0	57	104	0	67	18147
2026-01-01 09:02:26.19	336.04	14.08	-52.4	-66.4	3.8	1.49e+00	0	57	104	0	67	18226
2026-01-01 09:02:27.19	336.00	13.98	-52.5	-66.4	3.8	1.49e+00	0	57	104	0	67	18192
2026-01-01 09:02:28.17	335.96	13.88	-52.6	-66.4	3.8	1.49e+00	0	57	104	0	67	18188
2026-01-01 09:02:29.16	335.93	13.78	-52.4	-66.4	3.8	1.49e+00	0	57	104	0	67	18169
2026-01-01 09:02:30.15	335.89	13.68	-52.4	-66.4	3.8	1.49e+00	0	57	104	0	67	18194
2026-01-01 09:02:31.14	335.85	13.59	-52.4	-66.4	3.8	1.49e+00	0	57	104	0	67	18208
2026-01-01 09:02:32.12	335.81	13.49	-52.4	-66.4	3.8	1.49e+00	0	57	104	0	67	18154
2026-01-01 09:02:33.11	335.77	13.39	-52.6	-66.4	3.8	1.49e+00	0	57	104	0	67	18219
2026-01-01 09:02:34.10	335.74	13.30	-52.3	-66.4	3.8	1.49e+00	0	57	104	0	67	18157
2026-01-01 09:02:35.09	335.70	13.20	-52.4	-66.4	3.8	1.49e+00	0	57	104	0	67	18225
2026-01-01 09:02:36.08	335.66	13.10	-52.4	-66.4	3.8	1.49e+00	0	57	104	0	67	18183
2026-01-01 09:02:37.07	335.63	13.01	-52.3	-66.4	3.8	1.49e+00	0	57	104	0	67	18148
2026-01-01 09:02:38.06	335.59	12.91	-52.6	-66.4	3.8	1.49e+00	0	57	104	0	67	18218
2026-01-01 09:02:39.04	335.55	12.82	-52.6	-66.4	3.8	1.49e+00	0	57	104	0	67	18191
2026-01-01 09:02:40.03	335.52	12.73	-52.6	-66.4	3.8	1.49e+00	0	57	104	0	67	18169
2026-01-01 09:02:41.02	335.48	12.63	-52.6	-66.4	3.8	1.49e+00	0	57	104	0	67	18189
2026-01-01 09:02:42.01	335.45	12.54	-52.5	-66.4	3.8	1.49e+00	0	57	104	0	67	18201
2026-01-01 09:02:43.01	335.41	12.44	-52.6	-66.4	3.8	1.49e+00	0	57	104	0	67	18177
2026-01-01 09:02:44.00	335.38	12.35	-52.4	-66.4	3.8	1.49e+00	0	57	104	0	67	18185
2026-01-01 09:02:44.99	335.34	12.26	-52.4	-66.4	3.8	1.49e+00	0	57	104	0	67	18196
2026-01-01 09:02:45.98	335.31	12.17	-52.4	-66.4	3.8	1.49e+00	0	57	104	0	67	18164
2026-01-01 09:02:46.97	335.27	12.07	-52.4	-66.4	3.8	1.49e+00	0	57	104	0	67	18251
2026-01-01 09:02:47.96	335.24	11.98	-52.5	-66.4	3.8	1.49e+00	0	57	104	0	67	18231
2026-01-01 09:02:48.94	335.21	11.89	-52.3	-66.4	3.8	1.49e+00	0	57	104	0	67	18169
2026-01-01 09:02:49.93	335.17	11.80	-52.4	-66.4	3.8	1.49e+00	0	57	104	0	67	18150
2026-01-01 09:02:50.93	335.14	11.71	-52.4	-66.4	3.8	1.49e+00	0	57	104	0	67	18172
2026-01-01 09:02:51.92	335.11	11.62	-52.4	-66.4	3.8	1.49e+00	0	57	104	0	67	18133
2026-01-01 09:02:52.90	335.07	11.53	-52.4	-66.4	3.8	1.49e+00	0	57	104	0	67	18189
2026-01-01 09:02:53.89	335.04	11.44	-52.6	-66.4	3.8	1.49e+00	0	57	104	0	67	18249
2026-01-01 09:02:54.88	335.01	11.35	-52.3	-66.4	3.8	1.49e+00	0	57	104	0	67	18168
2026-01-01 09:02:55.87	334.98	11.26	-52.4	-66.4	3.8	1.49e+00	0	57	104	0	67	18177
2026-01-01 09:02:56.85	334.94	11.17	-52.4	-66.4	3.8	1.49e+00	0	57	104	0	66	19294
2026-01-01 09:02:57.84	334.91	11.09	-52.4	-66.4	3.8	1.49e+00	0	57	104	0	67	18194
2026-01-01 09:02:58.83	334.88	11.00	-52.6	-66.4	3.8	1.49e+00	0	57	104	0	67	18219
2026-01-01 09:02:59.82	334.85	10.91	-52.5	-66.4	3.8	1.49e+00	0	57	104	0	67	18171
2026-01-01 09:03:00.81	334.82	10.82	-52.6	-66.4	3.8	1.49e+00	0	57	104	0	67	18214
2026-01-01 09:03:01.80	334.79	10.74	-52.5	-66.4	3.8	1.49e+00	0	57	104	0	67	18169
2026-01-01 09:03:02.79	334.76	10.65	-52.6	-66.4	3.8	1.49e+00	0	57	104	0	67	18228
2026-01-01 09:03:03.78	334.73	10.56	-52.6	-66.4	3.8	1.49e+00	0	57	104	0	67	18202
2026-01-01 09:03:04.77	334.70	10.48	-52.6	-66.4	3.8	1.49e+00	0	57	104	0	67	18207
2026-01-01 09:03:05.76	334.67	10.39	-52.6	-66.4	3.8	1.49e+00	0	57	104	0	67	18167
2026-01-01 09:03:06.75	334.64	10.30	-52.5	-66.4	3.8	1.49e+00	0	57	104	0	67	18203
