passes_logs/2026/01/01/R3.0SM8_Murmansk_STILSPACE/R3.0SM8_Murmansk_STILSPACE__20260101_123523_NOAA_20_JPSS-1_rec.log

#Pass ID: 20260101_123523_NOAA 20 (JPSS-1)
#Satellite: NOAA 20 (JPSS-1)
#Configuration: NOAA 20
#almurnet v.1.7.20240730
#Start time: 2026-01-01 12:35:25

#Version: 2.2.20231116
#Station: R3.0SM8_Murmansk_STILSPACE
#Location: 33.092731 lon 68.902999 lat
#TLE: 1 43013U 17073A   25365.45761817  .00000173  00000+0  10307-3 0  9993
#TLE: 2 43013  98.7620 301.5517 0001951  60.3814 299.7557 14.19531661420675

#Time	Az	El	Level	Level2	SNR	BER	BlckErr	Temp	State	Recorded	gain1	gain2
2026-01-01 12:35:25.95	232.81	3.11	-52.4	-66.3	3.8	1.49e+00	0	46	0	0	66	19056
2026-01-01 12:35:26.94	232.91	3.16	-52.2	-66.3	3.8	1.49e+00	0	46	104	0	67	17911
2026-01-01 12:35:27.93	233.00	3.21	-52.2	-66.2	3.8	1.49e+00	0	46	104	0	67	17826
2026-01-01 12:35:28.91	233.09	3.26	-52.1	-66.2	3.8	1.49e+00	0	46	104	0	67	17717
2026-01-01 12:35:29.89	233.19	3.31	-52.3	-66.1	3.8	1.49e+00	0	47	104	0	67	17624
2026-01-01 12:35:30.87	233.28	3.36	-52.0	-66.1	3.8	1.49e+00	0	47	104	0	67	17556
2026-01-01 12:35:31.85	233.38	3.40	-51.9	-66.0	3.8	1.49e+00	0	47	104	0	67	17378
2026-01-01 12:35:32.84	233.47	3.45	-51.9	-65.9	3.8	1.49e+00	0	47	104	0	66	18167
2026-01-01 12:35:33.82	233.57	3.50	-51.7	-65.7	3.8	1.49e+00	0	47	104	0	66	17738
2026-01-01 12:35:34.81	233.67	3.55	-51.5	-65.4	3.8	1.49e+00	0	47	104	0	66	17177
2026-01-01 12:35:35.80	233.76	3.60	-51.2	-65.0	3.8	1.49e+00	0	47	104	0	64	18363
2026-01-01 12:35:36.79	233.86	3.65	-50.9	-64.7	3.8	1.49e+00	0	47	104	0	64	17868
2026-01-01 12:35:37.78	233.96	3.70	-50.9	-64.7	3.8	1.49e+00	0	47	104	0	64	17770
2026-01-01 12:35:38.75	234.05	3.75	-50.9	-64.6	3.8	1.49e+00	0	47	104	0	64	17653
2026-01-01 12:35:39.74	234.15	3.80	-51.0	-64.6	3.8	1.49e+00	0	47	104	0	64	17517
2026-01-01 12:35:40.72	234.25	3.85	-50.9	-64.5	3.8	1.49e+00	0	47	104	0	64	17303
2026-01-01 12:35:41.71	234.35	3.90	-50.8	-64.4	3.8	1.49e+00	0	48	104	0	64	17224
2026-01-01 12:35:42.70	234.45	3.95	-50.9	-64.4	3.8	1.49e+00	0	47	104	0	64	17127
2026-01-01 12:35:43.68	234.54	4.00	-50.8	-64.4	3.8	1.49e+00	0	48	104	0	64	17111
2026-01-01 12:35:44.67	234.64	4.05	-50.9	-64.4	3.8	1.49e+00	0	48	104	0	64	17176
2026-01-01 12:35:45.67	234.75	4.10	-50.8	-64.5	3.8	1.49e+00	0	48	104	0	64	17288
2026-01-01 12:35:46.66	234.85	4.15	-50.9	-64.6	3.8	1.49e+00	0	48	104	0	64	17530
2026-01-01 12:35:47.65	234.95	4.20	-50.9	-64.7	3.8	1.49e+00	0	48	104	0	64	17691
2026-01-01 12:35:48.63	235.05	4.25	-50.9	-64.7	3.8	1.49e+00	0	48	104	0	64	17738
2026-01-01 12:35:49.63	235.15	4.30	-50.9	-64.7	3.8	1.49e+00	0	48	104	0	64	17798
2026-01-01 12:35:50.62	235.25	4.35	-50.9	-64.6	3.8	1.49e+00	0	48	104	0	64	17635
2026-01-01 12:35:51.61	235.35	4.40	-50.9	-64.5	3.8	1.49e+00	0	48	104	0	64	17284
2026-01-01 12:35:52.60	235.46	4.45	-50.8	-64.1	3.8	1.49e+00	0	48	104	0	64	16655
2026-01-01 12:35:53.58	235.56	4.49	-50.9	-63.7	3.8	1.49e+00	0	48	104	0	64	15929
2026-01-01 12:35:54.57	235.66	4.54	-50.9	-63.3	3.8	1.49e+00	0	48	104	0	64	15075
2026-01-01 12:35:55.55	235.76	4.59	-50.9	-62.6	3.8	1.49e+00	0	48	104	0	64	13886
2026-01-01 12:35:56.54	235.87	4.64	-50.8	-62.1	3.9	1.48e+00	0	48	104	0	64	13127
2026-01-01 12:35:57.54	235.97	4.69	-50.7	-61.0	4.3	1.39e+00	0	48	0	0	64	11598
2026-01-01 12:35:58.53	236.08	4.74	-50.4	-60.1	4.6	1.08e+00	0	48	0	1048576	64	10468
2026-01-01 12:35:59.52	236.18	4.79	-50.5	-59.4	5.0	8.67e-01	0	49	0	3145728	63	10191
2026-01-01 12:36:00.51	236.28	4.84	-50.4	-58.4	5.6	5.00e-01	0	48	0	5242880	63	9120
2026-01-01 12:36:01.50	236.39	4.89	-50.3	-57.5	6.2	3.34e-01	0	49	0	6291456	63	8263
2026-01-01 12:36:02.49	236.50	4.95	-50.0	-56.7	7.0	2.10e-01	0	49	0	8388608	63	7533
2026-01-01 12:36:03.48	236.60	5.00	-49.9	-55.9	7.8	1.23e-01	0	49	0	10485760	62	7222
2026-01-01 12:36:04.47	236.71	5.05	-49.7	-55.3	8.3	5.78e-02	0	49	0	12582912	62	6772
2026-01-01 12:36:05.46	236.82	5.10	-49.7	-55.3	8.4	4.41e-02	0	49	0	13631488	62	6744
2026-01-01 12:36:06.45	236.92	5.15	-49.8	-55.4	8.2	5.98e-02	0	49	0	15728640	62	6867
2026-01-01 12:36:07.44	237.03	5.20	-49.7	-54.9	8.7	4.39e-02	0	49	0	17825792	62	6493
2026-01-01 12:36:08.43	237.14	5.25	-49.6	-54.6	9.1	2.62e-02	0	49	0	19922944	62	6248
2026-01-01 12:36:09.41	237.25	5.30	-49.4	-54.2	9.5	1.82e-02	0	49	0	20971520	61	6283
2026-01-01 12:36:10.41	237.35	5.35	-49.3	-53.9	9.8	1.26e-02	0	49	0	23068672	61	6098
2026-01-01 12:36:11.40	237.46	5.40	-49.1	-53.4	10.3	5.61e-03	0	49	0	25165824	61	5763
2026-01-01 12:36:12.39	237.57	5.45	-49.0	-53.0	10.8	3.51e-03	0	49	0	27262976	61	5517
2026-01-01 12:36:13.38	237.68	5.50	-48.8	-52.8	11.0	2.56e-03	0	49	0	29360128	60	5716
2026-01-01 12:36:14.37	237.79	5.55	-48.8	-52.7	11.1	1.81e-03	0	50	0	30408704	60	5624
2026-01-01 12:36:15.36	237.90	5.60	-48.8	-52.7	11.2	1.43e-03	0	50	0	32505856	60	5609
2026-01-01 12:36:16.35	238.01	5.65	-48.8	-52.6	11.3	1.36e-03	0	50	0	34603008	60	5534
2026-01-01 12:36:17.33	238.12	5.70	-48.7	-52.5	11.4	1.02e-03	0	50	0	36700160	60	5498
2026-01-01 12:36:18.32	238.24	5.75	-48.7	-52.5	11.4	1.09e-03	0	49	0	37748736	60	5503
2026-01-01 12:36:19.32	238.35	5.80	-48.6	-52.2	11.8	5.97e-04	0	50	0	39845888	60	5300
2026-01-01 12:36:20.30	238.46	5.85	-48.6	-52.2	11.8	5.46e-04	0	50	0	41943040	60	5320
2026-01-01 12:36:21.30	238.57	5.90	-48.6	-52.2	11.8	4.51e-04	0	50	0	44040192	60	5301
2026-01-01 12:36:22.30	238.69	5.95	-48.6	-52.0	12.0	3.49e-04	0	50	0	46137344	60	5212
2026-01-01 12:36:23.29	238.80	6.00	-48.6	-52.1	12.0	3.03e-04	0	50	0	47185920	60	5221
2026-01-01 12:36:24.29	238.92	6.05	-48.7	-52.2	11.9	4.05e-04	0	50	0	49283072	60	5315
2026-01-01 12:36:25.27	239.03	6.10	-48.6	-52.0	12.1	3.26e-04	0	50	0	51380224	60	5177
2026-01-01 12:36:26.26	239.14	6.15	-48.5	-51.9	12.2	2.12e-04	0	50	0	53477376	60	5105
2026-01-01 12:36:27.25	239.26	6.20	-48.6	-52.1	12.1	2.39e-04	0	50	0	54525952	60	5221
2026-01-01 12:36:28.23	239.37	6.25	-48.7	-52.1	12.0	2.76e-04	0	50	0	56623104	60	5262
2026-01-01 12:36:29.21	239.49	6.30	-48.6	-51.9	12.3	2.22e-04	0	50	0	58720256	60	5129
2026-01-01 12:36:30.19	239.60	6.35	-48.5	-51.8	12.4	1.64e-04	0	50	0	60817408	60	5091
2026-01-01 12:36:31.17	239.72	6.40	-48.5	-51.8	12.3	1.74e-04	0	50	0	61865984	60	5086
2026-01-01 12:36:32.17	239.83	6.45	-48.5	-51.6	12.6	1.30e-04	0	50	0	63963136	60	4964
2026-01-01 12:36:33.15	239.95	6.50	-48.5	-51.7	12.5	9.61e-05	0	50	0	66060288	60	4992
2026-01-01 12:36:34.13	240.07	6.55	-48.4	-51.6	12.6	9.68e-05	0	50	0	68157440	60	4970
2026-01-01 12:36:35.12	240.18	6.60	-48.5	-51.7	12.6	9.00e-05	0	51	0	69206016	60	5002
2026-01-01 12:36:36.11	240.30	6.65	-48.4	-51.6	12.7	9.46e-05	0	50	0	71303168	60	4970
2026-01-01 12:36:37.10	240.42	6.70	-48.5	-51.8	12.5	8.54e-05	0	51	0	73400320	60	5049
2026-01-01 12:36:38.09	240.54	6.75	-48.7	-52.0	12.3	1.49e-04	0	51	0	75497472	60	5173
2026-01-01 12:36:39.08	240.66	6.80	-48.6	-51.8	12.5	1.46e-04	0	51	0	77594624	60	5067
2026-01-01 12:36:40.07	240.78	6.85	-48.5	-51.5	12.8	6.86e-05	0	50	0	78643200	60	4886
2026-01-01 12:36:41.05	240.90	6.90	-48.5	-51.4	12.9	5.41e-05	0	51	0	80740352	59	5152
2026-01-01 12:36:42.03	241.02	6.95	-48.5	-51.5	12.9	4.95e-05	0	51	0	82837504	59	5182
2026-01-01 12:36:43.02	241.14	7.00	-48.5	-51.4	12.9	5.11e-05	0	51	0	84934656	59	5156
2026-01-01 12:36:44.01	241.26	7.05	-48.5	-51.5	12.9	5.03e-05	0	51	0	85983232	59	5186
2026-01-01 12:36:45.00	241.38	7.10	-48.7	-51.8	12.5	6.17e-05	0	51	0	88080384	59	5389
2026-01-01 12:36:45.99	241.50	7.15	-48.5	-51.4	12.9	6.40e-05	0	51	0	90177536	59	5149
2026-01-01 12:36:46.98	241.63	7.20	-48.3	-51.2	13.3	1.90e-05	0	51	0	92274688	59	5011
2026-01-01 12:36:47.97	241.75	7.25	-48.3	-51.1	13.4	1.22e-05	0	51	0	93323264	59	4948
2026-01-01 12:36:48.96	241.87	7.30	-48.3	-51.1	13.4	2.21e-05	0	51	0	95420416	59	4928
2026-01-01 12:36:49.95	242.00	7.35	-48.2	-50.9	13.5	8.30e-06	0	51	0	97517568	59	4870
2026-01-01 12:36:50.93	242.12	7.40	-48.3	-51.0	13.4	7.60e-06	0	51	0	99614720	59	4923
2026-01-01 12:36:51.91	242.24	7.45	-48.4	-51.2	13.2	1.67e-05	0	51	0	100663296	59	5022
2026-01-01 12:36:52.90	242.37	7.50	-48.2	-51.0	13.5	9.90e-06	0	51	0	102760448	59	4908
2026-01-01 12:36:53.89	242.49	7.55	-48.2	-50.8	13.7	6.80e-06	0	51	0	104857600	59	4788
2026-01-01 12:36:54.89	242.62	7.60	-48.1	-50.7	13.8	5.30e-06	0	51	0	106954752	59	4743
2026-01-01 12:36:55.88	242.75	7.65	-48.2	-50.8	13.7	6.10e-06	0	51	0	109051904	59	4794
2026-01-01 12:36:56.88	242.88	7.70	-48.3	-51.0	13.5	6.80e-06	0	51	0	110100480	59	4909
2026-01-01 12:36:57.87	243.00	7.75	-48.3	-51.1	13.5	1.22e-05	0	51	0	112197632	59	4931
2026-01-01 12:36:58.86	243.13	7.80	-48.2	-50.9	13.6	7.60e-06	0	52	0	114294784	59	4840
2026-01-01 12:36:59.86	243.26	7.86	-48.2	-50.9	13.6	1.06e-05	0	51	0	116391936	59	4844
2026-01-01 12:37:00.85	243.39	7.91	-48.3	-50.9	13.6	6.80e-06	0	51	0	117440512	59	4857
2026-01-01 12:37:01.84	243.52	7.96	-48.3	-51.0	13.6	8.30e-06	0	52	0	119537664	59	4915
2026-01-01 12:37:02.83	243.65	8.01	-48.4	-51.1	13.5	5.30e-06	0	51	0	121634816	59	4946
2026-01-01 12:37:03.81	243.78	8.05	-48.5	-51.2	13.4	9.10e-06	0	52	0	123731968	59	5030
2026-01-01 12:37:04.81	243.91	8.10	-48.4	-51.1	13.5	1.37e-05	0	52	0	125829120	59	4933
2026-01-01 12:37:05.80	244.04	8.15	-48.3	-51.0	13.7	5.30e-06	0	52	0	126877696	59	4876
2026-01-01 12:37:06.79	244.17	8.20	-48.3	-51.0	13.6	1.06e-05	0	52	0	128974848	59	4919
2026-01-01 12:37:07.78	244.30	8.25	-48.5	-51.3	13.3	1.06e-05	0	52	0	131072000	59	5074
2026-01-01 12:37:08.77	244.43	8.30	-48.4	-51.2	13.5	1.22e-05	0	52	0	133169152	59	5007
2026-01-01 12:37:09.76	244.56	8.35	-48.3	-51.0	13.6	7.60e-06	0	52	0	134217728	59	4906
2026-01-01 12:37:10.74	244.70	8.40	-48.3	-50.9	13.7	1.06e-05	0	52	0	136314880	59	4868
2026-01-01 12:37:11.73	244.83	8.45	-48.3	-50.9	13.8	6.80e-06	0	52	0	138412032	59	4838
2026-01-01 12:37:12.72	244.96	8.50	-48.4	-51.1	13.5	5.30e-06	0	52	0	140509184	59	4964
2026-01-01 12:37:13.70	245.10	8.55	-48.3	-51.1	13.6	9.10e-06	0	52	0	141557760	59	4940
2026-01-01 12:37:14.70	245.23	8.60	-48.3	-51.0	13.7	3.80e-06	0	52	0	143654912	59	4884
2026-01-01 12:37:15.68	245.36	8.65	-48.2	-50.8	13.9	3.80e-06	0	52	0	145752064	59	4787
2026-01-01 12:37:16.67	245.50	8.70	-48.0	-50.5	14.2	1.50e-06	0	52	0	147849216	59	4629
2026-01-01 12:37:17.65	245.63	8.75	-48.0	-50.4	14.3	3.00e-06	0	52	0	149946368	59	4559
2026-01-01 12:37:18.65	245.77	8.80	-48.0	-50.3	14.3	0.00e+00	0	52	0	150994944	58	4813
2026-01-01 12:37:19.64	245.91	8.85	-48.0	-50.4	14.3	2.20e-06	0	52	0	153092096	58	4859
2026-01-01 12:37:20.63	246.05	8.90	-48.1	-50.6	14.1	1.50e-06	0	52	0	155189248	58	4960
2026-01-01 12:37:21.63	246.18	8.95	-48.1	-50.5	14.2	3.00e-06	0	52	0	157286400	58	4904
2026-01-01 12:37:22.62	246.32	9.00	-48.0	-50.5	14.3	7.00e-07	0	52	0	158334976	58	4880
2026-01-01 12:37:23.61	246.46	9.05	-47.9	-50.3	14.4	0.00e+00	0	52	0	160432128	58	4805
2026-01-01 12:37:24.60	246.60	9.10	-48.0	-50.3	14.4	0.00e+00	0	52	0	162529280	58	4807
2026-01-01 12:37:25.58	246.74	9.14	-48.0	-50.3	14.4	7.00e-07	0	52	0	164626432	58	4796
2026-01-01 12:37:26.57	246.88	9.19	-47.9	-50.3	14.4	2.20e-06	0	52	0	165675008	58	4773
2026-01-01 12:37:27.56	247.02	9.24	-48.0	-50.5	14.2	0.00e+00	0	52	0	167772160	58	4887
2026-01-01 12:37:28.55	247.16	9.29	-48.0	-50.5	14.2	1.50e-06	0	52	0	169869312	58	4906
2026-01-01 12:37:29.54	247.30	9.34	-48.1	-50.4	14.3	2.20e-06	0	53	0	171966464	58	4863
2026-01-01 12:37:30.52	247.44	9.39	-47.9	-50.1	14.6	7.00e-07	0	52	0	174063616	58	4702
2026-01-01 12:37:31.50	247.58	9.44	-47.8	-50.0	14.8	7.00e-07	0	52	0	175112192	58	4624
2026-01-01 12:37:32.49	247.72	9.48	-47.8	-50.0	14.8	0.00e+00	0	52	0	177209344	58	4604
2026-01-01 12:37:33.49	247.87	9.53	-47.7	-49.9	14.9	7.00e-07	0	53	0	179306496	58	4579
2026-01-01 12:37:34.48	248.01	9.58	-47.8	-50.1	14.7	0.00e+00	0	52	0	181403648	58	4652
2026-01-01 12:37:35.47	248.16	9.63	-47.8	-50.0	14.7	0.00e+00	0	53	0	182452224	58	4642
2026-01-01 12:37:36.46	248.30	9.68	-47.6	-49.8	15.0	7.00e-07	0	53	0	184549376	58	4512
2026-01-01 12:37:37.44	248.44	9.73	-47.4	-49.5	15.2	7.00e-07	0	53	0	186646528	58	4389
2026-01-01 12:37:38.43	248.59	9.78	-47.4	-49.5	15.3	0.00e+00	0	53	0	188743680	57	4630
2026-01-01 12:37:39.42	248.74	9.82	-47.4	-49.5	15.3	0.00e+00	0	53	0	189792256	57	4615
2026-01-01 12:37:40.41	248.88	9.87	-47.5	-49.7	15.1	0.00e+00	0	53	0	191889408	57	4736
2026-01-01 12:37:41.40	249.03	9.92	-47.5	-49.7	15.1	7.00e-07	0	53	0	193986560	57	4713
2026-01-01 12:37:42.39	249.18	9.97	-47.4	-49.5	15.3	0.00e+00	0	53	0	196083712	57	4608
2026-01-01 12:37:43.38	249.32	10.02	-47.3	-49.3	15.5	0.00e+00	0	53	0	197132288	57	4520
2026-01-01 12:37:44.37	249.47	10.06	-47.2	-49.2	15.5	0.00e+00	0	53	0	199229440	57	4490
2026-01-01 12:37:45.36	249.62	10.11	-47.2	-49.3	15.5	0.00e+00	0	53	0	201326592	57	4495
2026-01-01 12:37:46.35	249.77	10.16	-47.4	-49.4	15.3	0.00e+00	0	53	0	203423744	57	4591
2026-01-01 12:37:47.34	249.92	10.21	-47.4	-49.5	15.3	0.00e+00	0	53	0	205520896	57	4605
2026-01-01 12:37:48.32	250.07	10.26	-47.4	-49.4	15.4	0.00e+00	0	53	0	206569472	57	4554
2026-01-01 12:37:49.31	250.22	10.30	-47.4	-49.4	15.4	0.00e+00	0	53	0	208666624	57	4581
2026-01-01 12:37:50.30	250.37	10.35	-47.4	-49.5	15.4	0.00e+00	0	53	0	210763776	57	4599
2026-01-01 12:37:51.28	250.52	10.40	-47.5	-49.6	15.2	0.00e+00	0	53	0	212860928	57	4686
2026-01-01 12:37:52.27	250.67	10.44	-47.5	-49.5	15.3	0.00e+00	0	53	0	213909504	57	4642
2026-01-01 12:37:53.26	250.82	10.49	-47.5	-49.5	15.3	0.00e+00	0	53	0	216006656	57	4643
2026-01-01 12:37:54.25	250.98	10.54	-47.6	-49.8	15.0	0.00e+00	0	53	0	218103808	57	4765
2026-01-01 12:37:55.25	251.13	10.59	-47.4	-49.5	15.3	7.00e-07	0	53	0	220200960	57	4599
2026-01-01 12:37:56.24	251.28	10.63	-47.2	-49.2	15.6	0.00e+00	0	53	0	221249536	57	4463
2026-01-01 12:37:57.22	251.44	10.68	-47.2	-49.1	15.7	0.00e+00	0	53	0	223346688	57	4419
2026-01-01 12:37:58.21	251.59	10.73	-47.2	-49.1	15.8	0.00e+00	0	53	0	225443840	57	4393
2026-01-01 12:37:59.20	251.75	10.77	-47.1	-49.0	15.8	0.00e+00	0	53	0	227540992	57	4381
2026-01-01 12:38:00.19	251.90	10.82	-47.1	-49.1	15.8	0.00e+00	0	53	0	229638144	57	4406
2026-01-01 12:38:01.19	252.06	10.87	-47.2	-49.1	15.7	0.00e+00	0	53	0	230686720	57	4441
2026-01-01 12:38:02.18	252.22	10.91	-47.3	-49.4	15.4	0.00e+00	0	54	0	232783872	57	4568
2026-01-01 12:38:03.17	252.37	10.96	-47.2	-49.2	15.6	0.00e+00	0	53	0	234881024	57	4465
2026-01-01 12:38:04.16	252.53	11.01	-47.1	-49.1	15.7	0.00e+00	0	53	0	236978176	57	4399
2026-01-01 12:38:05.16	252.69	11.05	-47.2	-49.1	15.8	0.00e+00	0	53	0	238026752	57	4416
2026-01-01 12:38:06.14	252.85	11.10	-47.2	-49.1	15.7	0.00e+00	0	53	0	240123904	57	4436
2026-01-01 12:38:07.12	253.01	11.14	-47.3	-49.3	15.6	0.00e+00	0	54	0	242221056	57	4509
2026-01-01 12:38:08.11	253.16	11.19	-47.3	-49.2	15.7	0.00e+00	0	53	0	244318208	57	4459
2026-01-01 12:38:09.09	253.32	11.23	-47.4	-49.3	15.5	0.00e+00	0	53	0	245366784	57	4539
2026-01-01 12:38:10.08	253.48	11.28	-47.4	-49.4	15.4	0.00e+00	0	53	0	247463936	57	4587
2026-01-01 12:38:11.07	253.64	11.32	-47.2	-49.2	15.7	0.00e+00	0	54	0	249561088	57	4451
2026-01-01 12:38:12.06	253.81	11.37	-47.1	-49.0	15.9	0.00e+00	0	54	0	251658240	57	4365
2026-01-01 12:38:13.04	253.97	11.41	-47.1	-49.0	15.9	0.00e+00	0	53	0	253755392	57	4344
2026-01-01 12:38:14.03	254.13	11.46	-47.2	-49.1	15.8	0.00e+00	0	54	0	254803968	57	4393
2026-01-01 12:38:15.02	254.29	11.50	-47.2	-49.1	15.7	0.00e+00	0	53	0	256901120	57	4427
2026-01-01 12:38:16.01	254.45	11.55	-47.4	-49.5	15.3	0.00e+00	0	54	0	258998272	57	4624
2026-01-01 12:38:17.00	254.62	11.59	-47.3	-49.3	15.6	0.00e+00	0	54	0	261095424	57	4505
2026-01-01 12:38:17.99	254.78	11.64	-47.3	-49.2	15.7	0.00e+00	0	54	0	262144000	57	4475
2026-01-01 12:38:18.98	254.95	11.68	-47.2	-49.2	15.6	0.00e+00	0	54	0	264241152	57	4480
2026-01-01 12:38:19.96	255.11	11.73	-47.4	-49.4	15.5	0.00e+00	0	54	0	266338304	57	4589
2026-01-01 12:38:20.95	255.28	11.77	-47.4	-49.4	15.4	0.00e+00	0	54	0	268435456	57	4591
2026-01-01 12:38:21.94	255.44	11.82	-47.4	-49.4	15.5	0.00e+00	0	54	0	269484032	57	4581
2026-01-01 12:38:22.94	255.61	11.86	-47.5	-49.5	15.4	0.00e+00	0	54	0	271581184	57	4616
2026-01-01 12:38:23.93	255.78	11.90	-47.6	-49.7	15.3	0.00e+00	0	54	0	273678336	57	4710
2026-01-01 12:38:24.92	255.95	11.95	-47.7	-49.9	15.0	0.00e+00	0	54	0	275775488	57	4849
2026-01-01 12:38:25.91	256.11	11.99	-47.7	-49.7	15.2	0.00e+00	0	54	0	277872640	57	4742
2026-01-01 12:38:26.90	256.28	12.03	-47.7	-49.9	15.0	0.00e+00	0	54	0	278921216	57	4840
2026-01-01 12:38:27.89	256.45	12.08	-47.7	-49.9	15.1	0.00e+00	0	54	0	281018368	57	4826
2026-01-01 12:38:28.88	256.62	12.12	-47.8	-49.9	15.0	0.00e+00	0	54	0	283115520	57	4841
2026-01-01 12:38:29.86	256.79	12.16	-47.9	-50.1	14.9	0.00e+00	0	54	0	285212672	57	4934
2026-01-01 12:38:30.86	256.96	12.21	-47.8	-50.0	14.9	0.00e+00	0	54	0	286261248	57	4889
2026-01-01 12:38:31.85	257.13	12.25	-47.9	-50.0	14.9	7.00e-07	0	54	0	288358400	57	4914
2026-01-01 12:38:32.83	257.30	12.29	-47.7	-49.9	15.0	0.00e+00	0	54	0	290455552	57	4825
2026-01-01 12:38:33.82	257.48	12.33	-47.8	-50.0	14.9	0.00e+00	0	54	0	292552704	57	4897
2026-01-01 12:38:34.81	257.65	12.37	-47.9	-50.3	14.6	7.00e-07	0	54	0	293601280	57	5073
2026-01-01 12:38:35.80	257.82	12.42	-47.9	-50.2	14.7	7.00e-07	0	54	0	295698432	57	5003
2026-01-01 12:38:36.79	257.99	12.46	-48.1	-50.4	14.4	7.00e-07	0	54	0	297795584	58	4846
2026-01-01 12:38:37.78	258.17	12.50	-48.0	-50.4	14.5	7.00e-07	0	54	0	299892736	58	4844
2026-01-01 12:38:38.77	258.34	12.54	-48.2	-50.6	14.3	0.00e+00	0	54	0	301989888	58	4966
2026-01-01 12:38:39.76	258.52	12.58	-48.2	-50.8	14.1	7.00e-07	0	54	0	303038464	58	5070
2026-01-01 12:38:40.76	258.69	12.62	-48.3	-50.9	14.0	3.80e-06	0	54	0	305135616	58	5113
2026-01-01 12:38:41.75	258.87	12.66	-48.4	-51.0	13.9	2.20e-06	0	54	0	307232768	58	5187
2026-01-01 12:38:42.73	259.04	12.71	-48.4	-51.0	13.9	7.00e-07	0	54	0	309329920	58	5195
2026-01-01 12:38:43.72	259.22	12.75	-48.5	-51.1	13.8	4.50e-06	0	54	0	310378496	58	5259
2026-01-01 12:38:44.72	259.40	12.79	-48.7	-51.4	13.5	3.80e-06	0	54	0	312475648	59	5147
2026-01-01 12:38:45.70	259.58	12.83	-48.6	-51.3	13.5	9.90e-06	0	54	0	314572800	59	5099
2026-01-01 12:38:46.69	259.75	12.87	-48.5	-51.1	13.8	5.30e-06	0	54	0	316669952	59	4975
2026-01-01 12:38:47.68	259.93	12.91	-48.4	-51.0	13.9	6.10e-06	0	54	0	317718528	59	4902
2026-01-01 12:38:48.67	260.11	12.95	-48.4	-51.0	13.9	4.50e-06	0	54	0	319815680	59	4907
2026-01-01 12:38:49.66	260.29	12.99	-48.6	-51.2	13.7	6.80e-06	0	54	0	321912832	59	5031
2026-01-01 12:38:50.65	260.47	13.02	-48.5	-51.2	13.7	7.60e-06	0	54	0	324009984	59	4994
2026-01-01 12:38:51.64	260.65	13.06	-48.5	-51.0	13.9	3.80e-06	0	54	0	326107136	59	4903
2026-01-01 12:38:52.63	260.83	13.10	-48.3	-50.9	14.1	1.50e-06	0	54	0	327155712	59	4823
2026-01-01 12:38:53.63	261.02	13.14	-48.3	-50.9	14.0	7.00e-07	0	54	0	329252864	59	4841
2026-01-01 12:38:54.62	261.20	13.18	-48.4	-51.0	13.9	1.50e-06	0	54	0	331350016	59	4917
2026-01-01 12:38:55.62	261.38	13.22	-48.5	-51.1	13.8	6.10e-06	0	54	0	333447168	59	4958
2026-01-01 12:38:56.61	261.56	13.26	-48.5	-51.1	13.8	4.50e-06	0	54	0	334495744	59	4958
2026-01-01 12:38:57.61	261.75	13.30	-48.6	-51.3	13.6	5.30e-06	0	54	0	336592896	59	5053
2026-01-01 12:38:58.59	261.93	13.33	-48.6	-51.3	13.6	9.90e-06	0	55	0	338690048	59	5070
2026-01-01 12:38:59.58	262.12	13.37	-48.7	-51.3	13.6	8.30e-06	0	55	0	340787200	59	5086
2026-01-01 12:39:00.57	262.30	13.41	-48.6	-51.3	13.6	1.29e-05	0	54	0	342884352	59	5074
2026-01-01 12:39:01.56	262.48	13.44	-48.5	-51.1	13.8	7.60e-06	0	54	0	343932928	59	4952
2026-01-01 12:39:02.56	262.67	13.48	-48.4	-51.0	14.0	4.50e-06	0	55	0	346030080	59	4889
2026-01-01 12:39:03.54	262.86	13.52	-48.4	-51.0	14.0	7.00e-07	0	55	0	348127232	59	4872
2026-01-01 12:39:04.53	263.04	13.55	-48.4	-51.0	14.0	1.50e-06	0	54	0	350224384	59	4890
2026-01-01 12:39:05.52	263.23	13.59	-48.6	-51.2	13.7	3.00e-06	0	55	0	351272960	59	5013
2026-01-01 12:39:06.52	263.42	13.63	-48.6	-51.2	13.7	1.06e-05	0	55	0	353370112	59	5004
2026-01-01 12:39:07.51	263.61	13.66	-48.5	-51.1	13.8	6.10e-06	0	54	0	355467264	59	4981
2026-01-01 12:39:08.49	263.79	13.70	-48.6	-51.2	13.7	6.10e-06	0	55	0	357564416	59	5026
2026-01-01 12:39:09.49	263.98	13.73	-48.7	-51.4	13.5	9.10e-06	0	55	0	358612992	59	5113
2026-01-01 12:39:10.48	264.17	13.77	-48.8	-51.4	13.5	1.22e-05	0	55	0	360710144	59	5156
2026-01-01 12:39:11.47	264.36	13.80	-48.8	-51.6	13.3	1.52e-05	0	55	0	362807296	59	5239
2026-01-01 12:39:12.46	264.55	13.84	-48.9	-51.7	13.2	2.36e-05	0	55	0	364904448	59	5307
2026-01-01 12:39:13.45	264.74	13.87	-48.9	-51.8	13.1	2.51e-05	0	55	0	367001600	59	5359
2026-01-01 12:39:14.44	264.93	13.91	-48.8	-51.7	13.2	2.21e-05	0	55	0	368050176	59	5299
2026-01-01 12:39:15.43	265.12	13.94	-48.8	-51.7	13.2	3.05e-05	0	55	0	370147328	59	5328
2026-01-01 12:39:16.42	265.31	13.97	-48.8	-51.6	13.3	2.59e-05	0	55	0	372244480	59	5240
2026-01-01 12:39:17.40	265.50	14.01	-48.8	-51.5	13.5	9.90e-06	0	55	0	374341632	59	5166
2026-01-01 12:39:18.39	265.70	14.04	-48.7	-51.4	13.5	8.30e-06	0	55	0	375390208	59	5125
2026-01-01 12:39:19.38	265.89	14.07	-48.5	-51.1	13.8	3.80e-06	0	55	0	377487360	59	4969
2026-01-01 12:39:20.37	266.08	14.10	-48.5	-51.1	13.9	3.00e-06	0	55	0	379584512	59	4934
2026-01-01 12:39:21.36	266.28	14.14	-48.5	-51.1	13.9	2.20e-06	0	55	0	381681664	59	4932
2026-01-01 12:39:22.35	266.47	14.17	-48.6	-51.2	13.8	1.50e-06	0	55	0	383778816	59	4994
2026-01-01 12:39:23.33	266.66	14.20	-48.6	-51.4	13.6	7.60e-06	0	55	0	384827392	59	5134
2026-01-01 12:39:24.32	266.86	14.23	-48.5	-51.2	13.7	7.60e-06	0	55	0	386924544	59	5029
2026-01-01 12:39:25.32	267.05	14.26	-48.6	-51.4	13.6	9.10e-06	0	55	0	389021696	59	5109
2026-01-01 12:39:26.30	267.25	14.29	-48.4	-51.0	13.9	5.30e-06	0	55	0	391118848	59	4916
2026-01-01 12:39:27.29	267.44	14.32	-48.4	-50.9	14.1	2.20e-06	0	55	0	392167424	59	4842
2026-01-01 12:39:28.28	267.64	14.35	-48.2	-50.8	14.2	7.00e-07	0	55	0	394264576	59	4760
2026-01-01 12:39:29.27	267.84	14.38	-48.3	-50.7	14.2	4.50e-06	0	55	0	396361728	59	4755
2026-01-01 12:39:30.25	268.03	14.41	-48.2	-50.5	14.4	0.00e+00	0	55	0	398458880	59	4650
2026-01-01 12:39:31.24	268.23	14.44	-48.2	-50.5	14.5	0.00e+00	0	55	0	399507456	59	4601
2026-01-01 12:39:32.24	268.43	14.47	-47.9	-50.1	14.8	0.00e+00	0	55	0	401604608	58	4704
2026-01-01 12:39:33.23	268.63	14.50	-47.7	-49.9	15.0	0.00e+00	0	55	0	403701760	58	4588
2026-01-01 12:39:34.22	268.83	14.53	-47.7	-49.9	15.1	0.00e+00	0	55	0	405798912	58	4559
2026-01-01 12:39:35.20	269.02	14.56	-47.5	-49.5	15.5	7.00e-07	0	55	0	406847488	58	4364
2026-01-01 12:39:36.19	269.22	14.59	-47.3	-49.2	15.7	0.00e+00	0	55	0	408944640	57	4492
2026-01-01 12:39:37.19	269.42	14.62	-47.3	-49.2	15.8	0.00e+00	0	55	0	411041792	57	4487
2026-01-01 12:39:38.18	269.62	14.64	-47.3	-49.2	15.8	0.00e+00	0	55	0	413138944	57	4451
2026-01-01 12:39:39.17	269.82	14.67	-47.4	-49.4	15.6	0.00e+00	0	55	0	415236096	57	4559
2026-01-01 12:39:40.16	270.02	14.70	-47.5	-49.5	15.4	0.00e+00	0	55	0	416284672	57	4638
2026-01-01 12:39:41.15	270.23	14.72	-47.4	-49.4	15.5	0.00e+00	0	55	0	418381824	57	4598
2026-01-01 12:39:42.14	270.43	14.75	-47.6	-49.6	15.3	0.00e+00	0	55	0	420478976	57	4703
2026-01-01 12:39:43.12	270.63	14.78	-47.7	-49.9	15.1	7.00e-07	0	55	0	422576128	57	4842
2026-01-01 12:39:44.12	270.83	14.80	-47.6	-49.6	15.4	0.00e+00	0	55	0	423624704	57	4691
2026-01-01 12:39:45.11	271.03	14.83	-47.6	-49.7	15.3	0.00e+00	0	55	0	425721856	57	4711
2026-01-01 12:39:46.09	271.23	14.85	-47.7	-49.8	15.2	0.00e+00	0	55	0	427819008	57	4773
2026-01-01 12:39:47.08	271.44	14.88	-47.6	-49.6	15.4	0.00e+00	0	55	0	429916160	57	4670
2026-01-01 12:39:48.07	271.64	14.90	-47.5	-49.6	15.4	0.00e+00	0	55	0	430964736	57	4663
2026-01-01 12:39:49.06	271.84	14.93	-47.5	-49.6	15.4	0.00e+00	0	55	0	433061888	57	4672
2026-01-01 12:39:50.05	272.05	14.95	-47.7	-49.7	15.3	0.00e+00	0	55	0	435159040	57	4748
2026-01-01 12:39:51.04	272.25	14.98	-47.7	-49.9	15.0	0.00e+00	0	55	0	437256192	57	4859
2026-01-01 12:39:52.02	272.46	15.00	-47.6	-49.7	15.3	7.00e-07	0	55	0	439353344	57	4750
2026-01-01 12:39:53.02	272.66	15.02	-47.5	-49.6	15.4	0.00e+00	0	55	0	440401920	57	4681
2026-01-01 12:39:54.01	272.87	15.04	-47.5	-49.6	15.4	0.00e+00	0	55	0	442499072	57	4660
2026-01-01 12:39:54.99	273.07	15.07	-47.6	-49.7	15.2	0.00e+00	0	55	0	444596224	57	4755
2026-01-01 12:39:55.99	273.28	15.09	-47.7	-49.8	15.2	0.00e+00	0	55	0	446693376	57	4805
2026-01-01 12:39:56.97	273.48	15.11	-47.8	-50.0	15.0	0.00e+00	0	55	0	447741952	57	4894
2026-01-01 12:39:57.95	273.69	15.13	-47.8	-49.9	15.0	7.00e-07	0	55	0	449839104	57	4867
2026-01-01 12:39:58.94	273.89	15.15	-47.8	-50.0	15.0	0.00e+00	0	55	0	451936256	57	4906
2026-01-01 12:39:59.93	274.10	15.17	-47.8	-50.1	14.9	0.00e+00	0	55	0	454033408	57	4934
2026-01-01 12:40:00.92	274.31	15.19	-48.0	-50.4	14.7	0.00e+00	0	55	0	455081984	57	5102
2026-01-01 12:40:01.91	274.52	15.21	-47.9	-50.2	14.8	0.00e+00	0	55	0	457179136	57	5022
2026-01-01 12:40:02.90	274.72	15.23	-48.0	-50.2	14.8	7.00e-07	0	55	0	459276288	57	5019
2026-01-01 12:40:03.88	274.93	15.25	-48.1	-50.3	14.7	0.00e+00	0	55	0	461373440	57	5097
2026-01-01 12:40:04.88	275.14	15.27	-48.0	-50.3	14.7	0.00e+00	0	55	0	463470592	57	5064
2026-01-01 12:40:05.87	275.35	15.29	-48.1	-50.4	14.6	7.00e-07	0	55	0	464519168	58	4855
2026-01-01 12:40:06.85	275.56	15.31	-47.9	-50.1	14.9	0.00e+00	0	55	0	466616320	58	4699
2026-01-01 12:40:07.84	275.77	15.33	-47.9	-50.1	14.9	0.00e+00	0	55	0	468713472	58	4686
2026-01-01 12:40:08.82	275.97	15.34	-48.0	-50.2	14.8	0.00e+00	0	55	0	470810624	58	4736
2026-01-01 12:40:09.82	276.18	15.36	-48.0	-50.3	14.8	0.00e+00	0	56	0	471859200	58	4768
2026-01-01 12:40:10.80	276.39	15.38	-48.0	-50.3	14.8	0.00e+00	0	55	0	473956352	58	4762
2026-01-01 12:40:11.79	276.60	15.40	-48.1	-50.4	14.6	7.00e-07	0	55	0	476053504	58	4834
2026-01-01 12:40:12.77	276.81	15.41	-48.0	-50.3	14.7	0.00e+00	0	55	0	478150656	58	4770
2026-01-01 12:40:13.77	277.02	15.43	-48.0	-50.2	14.7	0.00e+00	0	55	0	479199232	58	4759
2026-01-01 12:40:14.76	277.23	15.44	-47.9	-50.2	14.8	0.00e+00	0	55	0	481296384	58	4719
2026-01-01 12:40:15.75	277.44	15.46	-48.0	-50.3	14.7	0.00e+00	0	55	0	483393536	58	4761
2026-01-01 12:40:16.74	277.66	15.47	-48.1	-50.4	14.5	0.00e+00	0	56	0	485490688	58	4869
2026-01-01 12:40:17.73	277.87	15.49	-48.1	-50.4	14.6	7.00e-07	0	56	0	486539264	58	4839
2026-01-01 12:40:18.71	278.08	15.50	-48.0	-50.2	14.8	0.00e+00	0	55	0	488636416	58	4719
2026-01-01 12:40:19.71	278.29	15.52	-47.9	-50.1	14.9	0.00e+00	0	56	0	490733568	58	4697
2026-01-01 12:40:20.70	278.50	15.53	-48.0	-50.2	14.8	0.00e+00	0	56	0	492830720	58	4725
2026-01-01 12:40:21.68	278.71	15.54	-48.0	-50.3	14.7	0.00e+00	0	56	0	494927872	58	4767
2026-01-01 12:40:22.67	278.92	15.56	-48.0	-50.2	14.8	0.00e+00	0	56	0	495976448	58	4738
2026-01-01 12:40:23.67	279.14	15.57	-48.0	-50.3	14.7	7.00e-07	0	56	0	498073600	58	4770
2026-01-01 12:40:24.65	279.35	15.58	-48.1	-50.5	14.5	7.00e-07	0	56	0	500170752	58	4875
2026-01-01 12:40:25.64	279.56	15.59	-48.0	-50.3	14.7	7.00e-07	0	56	0	502267904	58	4808
2026-01-01 12:40:26.63	279.78	15.60	-47.8	-49.9	15.0	0.00e+00	0	56	0	503316480	58	4596
2026-01-01 12:40:27.62	279.99	15.61	-47.7	-49.8	15.1	0.00e+00	0	56	0	505413632	58	4533
2026-01-01 12:40:28.61	280.20	15.63	-47.7	-49.8	15.2	0.00e+00	0	56	0	507510784	58	4517
2026-01-01 12:40:29.60	280.41	15.64	-47.7	-49.8	15.1	0.00e+00	0	56	0	509607936	58	4543
2026-01-01 12:40:30.57	280.62	15.65	-47.8	-49.9	15.1	0.00e+00	0	56	0	510656512	58	4582
2026-01-01 12:40:31.56	280.84	15.65	-47.8	-50.0	15.0	0.00e+00	0	56	0	512753664	58	4634
2026-01-01 12:40:32.55	281.05	15.66	-47.9	-50.1	14.8	0.00e+00	0	56	0	514850816	58	4699
2026-01-01 12:40:33.53	281.26	15.67	-47.9	-50.2	14.8	0.00e+00	0	56	0	516947968	58	4726
2026-01-01 12:40:34.52	281.48	15.68	-48.0	-50.3	14.7	0.00e+00	0	56	0	519045120	58	4792
2026-01-01 12:40:35.52	281.69	15.69	-48.1	-50.4	14.5	0.00e+00	0	56	0	520093696	58	4867
2026-01-01 12:40:36.50	281.90	15.70	-48.2	-50.7	14.2	1.50e-06	0	56	0	522190848	58	5022
2026-01-01 12:40:37.50	282.12	15.70	-48.4	-51.0	13.8	3.80e-06	0	56	0	524288000	58	5204
2026-01-01 12:40:38.50	282.34	15.71	-48.5	-51.3	13.5	8.30e-06	0	56	0	526385152	58	5352
2026-01-01 12:40:39.48	282.55	15.72	-48.6	-51.5	13.2	1.44e-05	0	56	0	527433728	59	5209
2026-01-01 12:40:40.47	282.76	15.72	-48.7	-51.7	12.9	3.58e-05	0	56	0	529530880	59	5334
2026-01-01 12:40:41.47	282.98	15.73	-48.9	-52.1	12.5	1.23e-04	0	56	0	531628032	59	5556
2026-01-01 12:40:42.46	283.20	15.73	-48.9	-52.1	12.4	1.58e-04	0	56	0	533725184	59	5583
2026-01-01 12:40:43.45	283.41	15.74	-49.1	-52.5	11.9	2.04e-04	0	56	0	535822336	59	5852
2026-01-01 12:40:44.44	283.63	15.74	-49.1	-52.9	11.4	7.18e-04	0	56	0	536870912	60	5736
2026-01-01 12:40:45.43	283.84	15.75	-49.2	-53.2	10.9	1.40e-03	0	56	0	538968064	60	5965
2026-01-01 12:40:46.42	284.06	15.75	-49.3	-53.5	10.5	4.05e-03	0	56	0	541065216	60	6199
2026-01-01 12:40:47.41	284.27	15.76	-49.4	-53.9	10.1	4.56e-03	0	56	0	543162368	60	6438
2026-01-01 12:40:48.41	284.49	15.76	-49.5	-54.4	9.4	1.65e-02	0	56	0	544210944	60	6821
2026-01-01 12:40:49.39	284.70	15.76	-49.6	-54.7	9.0	2.03e-02	0	56	0	546308096	60	7049
2026-01-01 12:40:50.38	284.92	15.76	-49.7	-55.4	8.2	4.63e-02	0	56	0	548405248	61	7268
2026-01-01 12:40:51.37	285.13	15.77	-49.7	-55.8	7.7	6.51e-02	0	56	0	550502400	61	7606
2026-01-01 12:40:52.36	285.35	15.77	-49.8	-56.5	6.9	1.58e-01	0	56	0	551550976	61	8252
2026-01-01 12:40:53.36	285.56	15.77	-49.9	-57.1	6.3	2.11e-01	0	56	0	553648128	61	8856
2026-01-01 12:40:54.35	285.78	15.77	-50.0	-57.9	5.7	3.55e-01	0	56	0	555745280	62	9160
2026-01-01 12:40:55.34	285.99	15.77	-50.0	-58.5	5.3	4.57e-01	0	56	0	557842432	62	9751
2026-01-01 12:40:56.33	286.21	15.77	-49.9	-59.3	4.8	7.92e-01	0	56	0	559939584	62	10692
2026-01-01 12:40:57.33	286.43	15.77	-50.1	-59.6	4.6	8.57e-01	0	56	0	560988160	62	11103
2026-01-01 12:40:58.32	286.64	15.77	-50.1	-60.2	4.3	1.15e+00	35	56	0	563085312	62	11948
2026-01-01 12:40:59.31	286.86	15.77	-50.1	-60.5	4.3	1.34e+00	0	56	0	564133888	62	12374
2026-01-01 12:41:00.30	287.07	15.77	-50.3	-60.9	4.2	1.40e+00	0	56	0	564133888	62	12843
2026-01-01 12:41:01.29	287.29	15.77	-50.1	-60.9	4.2	1.41e+00	0	56	0	564133888	62	12819
2026-01-01 12:41:02.29	287.50	15.76	-50.1	-60.6	4.2	1.40e+00	0	56	0	564133888	62	12400
2026-01-01 12:41:03.28	287.72	15.76	-50.2	-60.1	4.4	1.32e+00	73	56	0	564133888	62	11805
2026-01-01 12:41:04.27	287.93	15.76	-50.1	-59.5	4.6	1.02e+00	0	56	0	566231040	62	11008
2026-01-01 12:41:05.26	288.15	15.75	-50.0	-59.1	4.8	8.61e-01	0	56	0	568328192	62	10437
2026-01-01 12:41:06.25	288.36	15.75	-50.0	-58.6	5.1	7.18e-01	0	56	0	570425344	62	9875
2026-01-01 12:41:07.24	288.58	15.75	-49.9	-58.3	5.2	5.89e-01	0	56	0	571473920	62	9588
2026-01-01 12:41:08.23	288.79	15.74	-49.9	-58.3	5.3	5.49e-01	0	56	0	573571072	62	9500
2026-01-01 12:41:09.21	289.01	15.74	-50.0	-58.3	5.3	5.65e-01	0	56	0	575668224	62	9578
2026-01-01 12:41:10.20	289.22	15.73	-49.9	-57.8	5.8	4.78e-01	0	56	0	577765376	62	8970
2026-01-01 12:41:11.19	289.44	15.73	-49.9	-57.5	5.9	3.66e-01	0	56	0	578813952	62	8696
2026-01-01 12:41:12.18	289.65	15.72	-49.9	-57.4	6.0	3.27e-01	0	56	0	580911104	62	8601
2026-01-01 12:41:13.17	289.86	15.71	-49.9	-57.1	6.3	2.94e-01	0	56	0	583008256	62	8353
2026-01-01 12:41:14.16	290.08	15.71	-49.8	-57.0	6.4	2.45e-01	0	56	0	585105408	61	8715
2026-01-01 12:41:15.14	290.29	15.70	-49.9	-56.9	6.6	2.31e-01	0	56	0	587202560	61	8577
2026-01-01 12:41:16.14	290.51	15.69	-49.7	-56.0	7.4	1.48e-01	0	56	0	588251136	61	7751
2026-01-01 12:41:17.12	290.72	15.69	-49.6	-55.2	8.4	7.77e-02	0	56	0	590348288	61	7045
2026-01-01 12:41:18.12	290.93	15.68	-49.4	-54.4	9.3	2.35e-02	0	56	0	592445440	61	6481
2026-01-01 12:41:19.11	291.15	15.67	-49.2	-53.7	10.2	9.24e-03	0	56	0	594542592	61	5950
2026-01-01 12:41:20.10	291.36	15.66	-49.1	-53.0	11.1	3.13e-03	0	56	0	595591168	61	5498
2026-01-01 12:41:21.09	291.58	15.65	-48.9	-52.6	11.7	1.06e-03	0	56	0	597688320	61	5221
2026-01-01 12:41:22.07	291.79	15.64	-48.8	-52.2	12.3	2.77e-04	0	56	0	599785472	60	5301
2026-01-01 12:41:23.06	292.00	15.63	-48.8	-52.0	12.6	1.24e-04	0	56	0	601882624	60	5207
2026-01-01 12:41:24.04	292.21	15.62	-48.9	-52.2	12.6	1.07e-04	0	56	0	602931200	60	5280
2026-01-01 12:41:25.03	292.42	15.61	-49.1	-52.5	12.3	1.37e-04	0	56	0	605028352	60	5477
2026-01-01 12:41:26.02	292.64	15.60	-49.5	-53.3	11.5	6.06e-04	0	56	0	607125504	60	6034
2026-01-01 12:41:27.01	292.85	15.59	-49.2	-52.7	12.1	4.32e-04	0	56	0	609222656	60	5604
2026-01-01 12:41:28.00	293.06	15.58	-48.9	-52.0	12.8	1.24e-04	0	56	0	611319808	60	5199
2026-01-01 12:41:28.98	293.27	15.56	-48.6	-51.4	13.4	4.19e-05	0	56	0	612368384	60	4864
2026-01-01 12:41:29.96	293.48	15.55	-48.4	-51.1	13.8	6.10e-06	0	56	0	614465536	59	4933
2026-01-01 12:41:30.95	293.69	15.54	-48.3	-50.8	14.1	2.20e-06	0	56	0	616562688	59	4778
2026-01-01 12:41:31.94	293.91	15.53	-48.2	-50.6	14.4	1.50e-06	0	56	0	618659840	59	4675
2026-01-01 12:41:32.92	294.11	15.51	-48.1	-50.4	14.5	0.00e+00	0	56	0	619708416	59	4582
2026-01-01 12:41:33.92	294.33	15.50	-48.1	-50.4	14.6	7.00e-07	0	56	0	621805568	59	4580
2026-01-01 12:41:34.91	294.54	15.48	-48.3	-50.8	14.2	0.00e+00	0	56	0	623902720	59	4771
2026-01-01 12:41:35.90	294.75	15.47	-48.0	-50.3	14.6	1.50e-06	0	56	0	625999872	59	4536
2026-01-01 12:41:36.88	294.96	15.45	-47.8	-49.9	15.1	7.00e-07	0	56	0	627048448	58	4588
2026-01-01 12:41:37.88	295.17	15.44	-47.6	-49.6	15.4	0.00e+00	0	56	0	629145600	58	4396
2026-01-01 12:41:38.86	295.38	15.42	-46.9	-49.2	15.6	0.00e+00	0	56	0	631242752	57	4452
2026-01-01 12:41:39.86	295.59	15.41	-47.3	-49.3	15.7	0.00e+00	0	56	0	633339904	57	4495
2026-01-01 12:41:40.85	295.80	15.39	-47.4	-49.5	15.5	0.00e+00	0	56	0	635437056	57	4613
2026-01-01 12:41:41.84	296.01	15.37	-47.5	-49.4	15.5	0.00e+00	0	56	0	636485632	57	4595
2026-01-01 12:41:42.82	296.22	15.36	-47.4	-49.4	15.5	0.00e+00	0	56	0	638582784	57	4585
2026-01-01 12:41:43.82	296.43	15.34	-47.5	-49.5	15.4	0.00e+00	0	56	0	640679936	57	4638
2026-01-01 12:41:44.80	296.64	15.32	-47.5	-49.6	15.3	0.00e+00	0	56	0	642777088	57	4692
2026-01-01 12:41:45.79	296.85	15.30	-47.7	-49.8	15.2	0.00e+00	0	56	0	643825664	57	4779
2026-01-01 12:41:46.78	297.05	15.28	-47.6	-49.7	15.3	0.00e+00	0	56	0	645922816	57	4717
2026-01-01 12:41:47.77	297.26	15.27	-47.6	-49.8	15.1	0.00e+00	0	56	0	648019968	57	4796
2026-01-01 12:41:48.76	297.47	15.25	-47.9	-50.2	14.7	0.00e+00	0	56	0	650117120	57	5032
2026-01-01 12:41:49.76	297.68	15.23	-47.9	-50.2	14.8	0.00e+00	0	56	0	651165696	57	4990
2026-01-01 12:41:50.75	297.89	15.21	-47.7	-49.9	15.0	0.00e+00	0	56	0	653262848	57	4848
2026-01-01 12:41:51.73	298.09	15.19	-47.7	-49.8	15.1	0.00e+00	0	56	0	655360000	57	4796
2026-01-01 12:41:52.72	298.30	15.17	-47.6	-49.7	15.2	0.00e+00	0	56	0	657457152	57	4727
2026-01-01 12:41:53.71	298.51	15.15	-47.6	-49.7	15.3	0.00e+00	0	56	0	659554304	57	4722
2026-01-01 12:41:54.69	298.71	15.12	-47.4	-49.5	15.5	0.00e+00	0	56	0	660602880	57	4601
2026-01-01 12:41:55.68	298.92	15.10	-47.2	-49.1	15.8	0.00e+00	0	56	0	662700032	57	4428
2026-01-01 12:41:56.67	299.12	15.08	-47.1	-48.9	16.1	0.00e+00	0	56	0	664797184	57	4296
2026-01-01 12:41:57.65	299.32	15.06	-47.0	-48.8	16.2	0.00e+00	0	56	0	666894336	57	4263
2026-01-01 12:41:58.63	299.53	15.04	-47.1	-48.9	16.1	0.00e+00	0	56	0	667942912	57	4314
2026-01-01 12:41:59.61	299.73	15.01	-47.0	-48.8	16.2	0.00e+00	0	56	0	670040064	57	4251
2026-01-01 12:42:00.60	299.93	14.99	-46.9	-48.7	16.3	0.00e+00	0	56	0	672137216	57	4204
2026-01-01 12:42:01.58	300.14	14.97	-47.0	-48.7	16.2	0.00e+00	0	56	0	674234368	57	4221
2026-01-01 12:42:02.58	300.34	14.94	-47.1	-49.0	16.0	0.00e+00	0	56	0	675282944	57	4348
2026-01-01 12:42:03.57	300.55	14.92	-47.1	-48.9	16.1	0.00e+00	0	56	0	677380096	57	4316
2026-01-01 12:42:04.56	300.75	14.90	-46.9	-48.6	16.4	0.00e+00	0	56	0	679477248	57	4172
2026-01-01 12:42:05.55	300.95	14.87	-46.8	-48.5	16.4	0.00e+00	0	56	0	681574400	56	4388
2026-01-01 12:42:06.54	301.15	14.85	-46.9	-48.7	16.3	0.00e+00	0	56	0	682622976	56	4467
2026-01-01 12:42:07.53	301.36	14.82	-47.2	-49.0	16.0	0.00e+00	0	56	0	684720128	56	4642
2026-01-01 12:42:08.52	301.56	14.80	-47.2	-49.1	15.9	0.00e+00	0	56	0	686817280	56	4693
2026-01-01 12:42:09.51	301.76	14.77	-47.3	-49.2	15.8	0.00e+00	0	56	0	688914432	56	4750
2026-01-01 12:42:10.50	301.96	14.74	-47.3	-49.3	15.8	0.00e+00	0	56	0	691011584	56	4764
2026-01-01 12:42:11.50	302.16	14.72	-47.1	-49.0	16.0	0.00e+00	0	56	0	692060160	56	4616
2026-01-01 12:42:12.48	302.36	14.69	-47.0	-48.8	16.2	0.00e+00	0	56	0	694157312	56	4540
2026-01-01 12:42:13.48	302.56	14.66	-47.0	-48.7	16.3	0.00e+00	0	56	0	696254464	56	4481
2026-01-01 12:42:14.47	302.76	14.64	-46.8	-48.6	16.4	0.00e+00	0	57	0	698351616	56	4422
2026-01-01 12:42:15.46	302.96	14.61	-46.9	-48.6	16.4	0.00e+00	0	56	0	699400192	56	4420
2026-01-01 12:42:16.45	303.16	14.58	-46.9	-48.7	16.3	0.00e+00	0	56	0	701497344	56	4471
2026-01-01 12:42:17.44	303.36	14.55	-46.9	-48.6	16.4	0.00e+00	0	56	0	703594496	56	4411
2026-01-01 12:42:18.43	303.56	14.52	-46.6	-48.2	16.8	0.00e+00	0	56	0	705691648	56	4222
2026-01-01 12:42:19.42	303.76	14.50	-46.4	-48.0	17.0	0.00e+00	0	56	0	707788800	56	4122
2026-01-01 12:42:20.42	303.96	14.47	-46.2	-47.7	17.1	0.00e+00	0	56	0	708837376	55	4238
2026-01-01 12:42:21.40	304.15	14.44	-46.2	-47.8	17.1	0.00e+00	0	56	0	710934528	55	4258
2026-01-01 12:42:22.40	304.35	14.41	-46.2	-47.8	17.1	0.00e+00	0	56	0	713031680	55	4264
2026-01-01 12:42:23.40	304.55	14.38	-46.3	-47.9	17.0	0.00e+00	0	56	0	715128832	55	4296
2026-01-01 12:42:24.38	304.74	14.35	-46.3	-47.9	17.0	0.00e+00	0	56	0	716177408	55	4310
2026-01-01 12:42:25.38	304.94	14.32	-46.3	-47.9	17.0	0.00e+00	0	56	0	718274560	55	4319
2026-01-01 12:42:26.36	305.13	14.29	-46.4	-48.0	16.9	0.00e+00	0	56	0	720371712	55	4356
2026-01-01 12:42:27.34	305.33	14.26	-46.5	-48.1	16.8	0.00e+00	0	56	0	722468864	55	4425
2026-01-01 12:42:28.34	305.52	14.22	-46.6	-48.2	16.6	0.00e+00	0	56	0	723517440	55	4493
2026-01-01 12:42:29.32	305.72	14.19	-46.7	-48.4	16.4	0.00e+00	0	56	0	725614592	55	4592
2026-01-01 12:42:30.31	305.91	14.16	-46.7	-48.4	16.5	0.00e+00	0	56	0	727711744	55	4559
2026-01-01 12:42:31.30	306.10	14.13	-46.8	-48.5	16.3	0.00e+00	0	56	0	729808896	55	4643
2026-01-01 12:42:32.28	306.29	14.10	-46.9	-48.7	16.2	0.00e+00	0	56	0	730857472	55	4718
2026-01-01 12:42:33.28	306.49	14.06	-46.9	-48.8	16.0	0.00e+00	0	56	0	732954624	55	4801
2026-01-01 12:42:34.26	306.68	14.03	-46.7	-48.4	16.5	0.00e+00	0	57	0	735051776	55	4559
2026-01-01 12:42:35.25	306.87	14.00	-46.7	-48.4	16.4	0.00e+00	0	56	0	737148928	55	4588
2026-01-01 12:42:36.24	307.06	13.97	-46.8	-48.6	16.2	0.00e+00	0	57	0	739246080	55	4685
2026-01-01 12:42:37.23	307.25	13.93	-46.7	-48.4	16.5	0.00e+00	0	56	0	740294656	55	4568
2026-01-01 12:42:38.23	307.44	13.90	-46.6	-48.3	16.5	0.00e+00	0	56	0	742391808	55	4530
2026-01-01 12:42:39.22	307.63	13.86	-46.7	-48.4	16.5	0.00e+00	0	56	0	744488960	55	4577
2026-01-01 12:42:40.20	307.82	13.83	-46.9	-48.6	16.3	0.00e+00	0	57	0	746586112	55	4681
2026-01-01 12:42:41.19	308.01	13.80	-47.0	-48.8	16.1	0.00e+00	0	56	0	747634688	55	4768
2026-01-01 12:42:42.19	308.20	13.76	-46.8	-48.5	16.3	0.00e+00	0	57	0	749731840	55	4641
2026-01-01 12:42:43.18	308.39	13.73	-46.7	-48.4	16.5	0.00e+00	0	56	0	751828992	55	4577
2026-01-01 12:42:44.17	308.58	13.69	-46.7	-48.5	16.4	0.00e+00	0	56	0	753926144	55	4610
2026-01-01 12:42:45.16	308.76	13.66	-46.9	-48.7	16.1	0.00e+00	0	56	0	756023296	55	4735
2026-01-01 12:42:46.15	308.95	13.62	-47.0	-48.8	16.0	0.00e+00	0	57	0	757071872	55	4795
2026-01-01 12:42:47.15	309.14	13.58	-47.3	-49.2	15.7	0.00e+00	0	56	0	759169024	56	4747
2026-01-01 12:42:48.14	309.32	13.55	-47.3	-49.2	15.8	0.00e+00	0	56	0	761266176	56	4732
2026-01-01 12:42:49.12	309.51	13.51	-47.4	-49.4	15.6	0.00e+00	0	57	0	763363328	56	4822
2026-01-01 12:42:50.11	309.69	13.48	-47.6	-49.7	15.3	0.00e+00	0	57	0	764411904	57	4723
2026-01-01 12:42:51.11	309.88	13.44	-47.5	-49.6	15.4	0.00e+00	0	56	0	766509056	57	4660
2026-01-01 12:42:52.09	310.06	13.40	-47.7	-49.8	15.2	0.00e+00	0	56	0	768606208	57	4797
2026-01-01 12:42:53.07	310.24	13.37	-47.6	-49.6	15.3	0.00e+00	0	57	0	770703360	57	4694
2026-01-01 12:42:54.06	310.43	13.33	-47.8	-49.9	15.0	0.00e+00	0	56	0	771751936	57	4848
2026-01-01 12:42:55.05	310.61	13.29	-47.7	-49.8	15.1	0.00e+00	0	56	0	773849088	57	4793
2026-01-01 12:42:56.04	310.79	13.25	-47.8	-50.1	14.9	0.00e+00	0	57	0	775946240	57	4946
2026-01-01 12:42:57.04	310.98	13.21	-47.7	-49.9	15.0	0.00e+00	0	57	0	778043392	57	4858
2026-01-01 12:42:58.02	311.16	13.18	-47.7	-49.8	15.1	0.00e+00	0	57	0	780140544	57	4805
2026-01-01 12:42:59.01	311.34	13.14	-47.8	-49.9	15.1	0.00e+00	0	57	0	781189120	57	4835
2026-01-01 12:43:00.00	311.52	13.10	-47.6	-49.7	15.2	0.00e+00	0	56	0	783286272	57	4748
2026-01-01 12:43:00.99	311.70	13.06	-47.5	-49.5	15.4	0.00e+00	0	57	0	785383424	57	4643
2026-01-01 12:43:01.98	311.88	13.02	-47.5	-49.5	15.4	0.00e+00	0	56	0	787480576	57	4651
2026-01-01 12:43:02.97	312.06	12.98	-47.5	-49.5	15.4	0.00e+00	0	56	0	788529152	57	4640
2026-01-01 12:43:03.96	312.24	12.94	-47.6	-49.7	15.2	0.00e+00	0	57	0	790626304	57	4739
2026-01-01 12:43:04.95	312.41	12.90	-47.8	-49.8	15.1	0.00e+00	0	57	0	792723456	57	4808
2026-01-01 12:43:05.94	312.59	12.86	-47.7	-49.9	15.0	0.00e+00	0	57	0	794820608	57	4853
2026-01-01 12:43:06.93	312.77	12.83	-48.0	-50.2	14.7	7.00e-07	0	57	0	795869184	57	5007
2026-01-01 12:43:07.92	312.95	12.79	-48.2	-50.5	14.5	0.00e+00	0	57	0	797966336	58	4879
2026-01-01 12:43:08.91	313.12	12.74	-48.4	-50.9	14.1	0.00e+00	0	57	0	800063488	58	5118
2026-01-01 12:43:09.89	313.30	12.70	-48.4	-51.0	13.9	1.50e-06	0	56	0	802160640	58	5204
2026-01-01 12:43:10.89	313.47	12.66	-48.6	-51.3	13.6	4.50e-06	0	57	0	804257792	59	5067
2026-01-01 12:43:11.88	313.65	12.62	-48.7	-51.4	13.5	8.30e-06	0	57	0	805306368	59	5139
2026-01-01 12:43:12.87	313.82	12.58	-48.8	-51.6	13.3	9.10e-06	0	57	0	807403520	59	5245
2026-01-01 12:43:13.86	314.00	12.54	-48.7	-51.6	13.3	1.67e-05	0	57	0	809500672	59	5258
2026-01-01 12:43:14.85	314.17	12.50	-48.9	-51.8	13.1	1.67e-05	0	57	0	811597824	59	5397
2026-01-01 12:43:15.83	314.34	12.46	-48.9	-51.8	13.1	2.89e-05	0	57	0	812646400	59	5401
2026-01-01 12:43:16.82	314.51	12.42	-49.1	-52.2	12.7	3.96e-05	0	57	0	814743552	59	5603
2026-01-01 12:43:17.81	314.69	12.38	-49.0	-52.2	12.7	6.63e-05	0	57	0	816840704	60	5293
2026-01-01 12:43:18.80	314.86	12.33	-49.1	-52.3	12.6	9.99e-05	0	57	0	818937856	60	5363
2026-01-01 12:43:19.80	315.03	12.29	-49.2	-52.5	12.4	1.43e-04	0	57	0	821035008	60	5469
2026-01-01 12:43:20.79	315.20	12.25	-48.8	-52.2	12.7	1.23e-04	0	57	0	822083584	60	5284
2026-01-01 12:43:21.77	315.37	12.21	-48.7	-51.8	13.1	4.19e-05	0	57	0	824180736	60	5051
2026-01-01 12:43:22.76	315.54	12.17	-48.5	-51.5	13.4	2.59e-05	0	57	0	826277888	60	4872
2026-01-01 12:43:23.75	315.71	12.12	-48.6	-51.4	13.5	9.10e-06	0	57	0	828375040	59	5104
2026-01-01 12:43:24.74	315.88	12.08	-48.4	-51.0	13.8	6.10e-06	0	57	0	829423616	59	4926
2026-01-01 12:43:25.73	316.05	12.04	-48.3	-50.8	14.0	2.20e-06	0	57	0	831520768	59	4811
2026-01-01 12:43:26.72	316.21	11.99	-48.3	-50.8	14.1	0.00e+00	0	57	0	833617920	58	5047
2026-01-01 12:43:27.71	316.38	11.95	-48.2	-50.8	14.1	2.20e-06	0	57	0	835715072	58	5056
2026-01-01 12:43:28.69	316.55	11.91	-48.4	-50.9	14.0	2.20e-06	0	57	0	836763648	58	5136
2026-01-01 12:43:29.68	316.71	11.86	-48.4	-51.0	13.9	3.00e-06	0	57	0	838860800	58	5176
2026-01-01 12:43:30.66	316.88	11.82	-48.5	-51.1	13.8	4.50e-06	0	57	0	840957952	58	5250
2026-01-01 12:43:31.64	317.04	11.78	-48.6	-51.3	13.6	8.30e-06	0	57	0	843055104	58	5356
2026-01-01 12:43:32.64	317.21	11.73	-48.6	-51.4	13.5	1.44e-05	0	57	0	844103680	59	5117
2026-01-01 12:43:33.63	317.37	11.69	-48.8	-51.6	13.3	1.29e-05	0	57	0	846200832	59	5269
2026-01-01 12:43:34.62	317.54	11.65	-48.8	-51.8	13.1	2.67e-05	0	57	0	848297984	59	5355
2026-01-01 12:43:35.60	317.70	11.60	-48.9	-51.9	12.9	4.04e-05	0	57	0	850395136	59	5432
2026-01-01 12:43:36.59	317.86	11.56	-48.9	-52.1	12.8	5.26e-05	0	57	0	851443712	59	5548
2026-01-01 12:43:37.58	318.02	11.51	-49.0	-52.1	12.8	5.79e-05	0	57	0	853540864	59	5535
2026-01-01 12:43:38.57	318.19	11.47	-49.1	-52.2	12.6	9.84e-05	0	57	0	855638016	59	5614
2026-01-01 12:43:39.57	318.35	11.42	-48.9	-52.0	12.8	1.03e-04	0	57	0	857735168	60	5183
2026-01-01 12:43:40.55	318.51	11.38	-48.8	-51.8	13.0	3.20e-05	0	57	0	859832320	60	5054
2026-01-01 12:43:41.54	318.67	11.33	-48.8	-51.7	13.1	3.35e-05	0	57	0	860880896	59	5298
2026-01-01 12:43:42.53	318.83	11.29	-48.7	-51.5	13.3	2.67e-05	0	57	0	862978048	59	5191
2026-01-01 12:43:43.52	318.99	11.24	-48.7	-51.4	13.4	1.22e-05	0	57	0	865075200	59	5155
2026-01-01 12:43:44.51	319.15	11.20	-48.7	-51.5	13.3	1.14e-05	0	57	0	867172352	59	5188
2026-01-01 12:43:45.50	319.31	11.15	-48.7	-51.5	13.3	1.06e-05	0	57	0	868220928	59	5216
2026-01-01 12:43:46.49	319.47	11.11	-48.8	-51.7	13.1	2.67e-05	0	57	0	870318080	59	5317
2026-01-01 12:43:47.48	319.62	11.06	-48.8	-51.7	13.1	3.28e-05	0	57	0	872415232	59	5305
2026-01-01 12:43:48.47	319.78	11.02	-48.8	-51.7	13.0	2.21e-05	0	57	0	874512384	59	5337
2026-01-01 12:43:49.46	319.94	10.97	-48.9	-51.9	12.9	4.27e-05	0	57	0	876609536	59	5452
2026-01-01 12:43:50.46	320.10	10.92	-48.8	-51.8	13.0	5.56e-05	0	57	0	877658112	59	5355
2026-01-01 12:43:51.45	320.25	10.88	-48.7	-51.5	13.3	2.05e-05	0	57	0	879755264	59	5210
2026-01-01 12:43:52.44	320.41	10.83	-48.7	-51.6	13.2	2.36e-05	0	57	0	881852416	59	5222
2026-01-01 12:43:53.43	320.56	10.78	-48.8	-51.7	13.2	2.36e-05	0	57	0	883949568	59	5302
2026-01-01 12:43:54.42	320.72	10.74	-48.7	-51.6	13.2	3.43e-05	0	57	0	884998144	59	5254
2026-01-01 12:43:55.41	320.87	10.69	-48.5	-51.1	13.6	9.90e-06	0	57	0	887095296	58	5263
2026-01-01 12:43:56.39	321.02	10.65	-48.3	-50.8	14.0	6.80e-06	0	57	0	889192448	58	5074
2026-01-01 12:43:57.38	321.18	10.60	-48.1	-50.6	14.2	5.30e-06	0	57	0	891289600	58	4956
2026-01-01 12:43:58.37	321.33	10.55	-48.1	-50.6	14.2	0.00e+00	0	57	0	892338176	58	4930
2026-01-01 12:43:59.36	321.48	10.51	-48.1	-50.7	14.1	2.20e-06	0	57	0	894435328	58	4989
2026-01-01 12:44:00.35	321.63	10.46	-48.3	-50.9	13.9	5.30e-06	0	57	0	896532480	58	5146
2026-01-01 12:44:01.35	321.79	10.41	-48.5	-51.2	13.6	7.60e-06	0	57	0	898629632	58	5308
2026-01-01 12:44:02.34	321.94	10.36	-48.4	-51.0	13.7	6.80e-06	0	57	0	900726784	58	5201
2026-01-01 12:44:03.32	322.09	10.32	-48.5	-51.2	13.6	1.06e-05	0	57	0	901775360	58	5321
2026-01-01 12:44:04.31	322.23	10.27	-48.5	-51.3	13.5	6.80e-06	0	57	0	903872512	58	5346
2026-01-01 12:44:05.30	322.38	10.22	-48.7	-51.5	13.3	1.29e-05	0	57	0	905969664	59	5182
2026-01-01 12:44:06.29	322.53	10.18	-48.9	-51.7	13.0	2.89e-05	0	57	0	908066816	59	5326
2026-01-01 12:44:07.28	322.68	10.13	-48.7	-51.6	13.1	2.82e-05	0	57	0	909115392	59	5256
2026-01-01 12:44:08.27	322.83	10.08	-48.8	-51.7	13.1	2.36e-05	0	57	0	911212544	59	5305
2026-01-01 12:44:09.25	322.98	10.03	-49.0	-52.0	12.7	5.34e-05	0	57	0	913309696	59	5515
2026-01-01 12:44:10.25	323.12	9.99	-48.7	-51.6	13.1	3.35e-05	0	57	0	915406848	59	5253
2026-01-01 12:44:11.24	323.27	9.94	-48.6	-51.4	13.3	1.90e-05	0	57	0	916455424	59	5153
2026-01-01 12:44:12.24	323.42	9.89	-48.6	-51.3	13.5	1.29e-05	0	57	0	918552576	59	5076
2026-01-01 12:44:13.23	323.56	9.84	-48.4	-50.9	13.9	4.50e-06	0	57	0	920649728	59	4816
2026-01-01 12:44:14.22	323.71	9.79	-48.0	-50.5	14.3	1.50e-06	0	57	0	922746880	59	4616
2026-01-01 12:44:15.21	323.85	9.75	-47.7	-50.0	14.7	7.00e-07	0	57	0	924844032	58	4648
2026-01-01 12:44:16.20	324.00	9.70	-47.6	-49.8	15.0	0.00e+00	0	57	0	925892608	58	4523
2026-01-01 12:44:17.19	324.14	9.65	-47.5	-49.7	15.1	0.00e+00	0	57	0	927989760	58	4472
2026-01-01 12:44:18.18	324.28	9.60	-47.4	-49.5	15.3	0.00e+00	0	57	0	930086912	58	4378
2026-01-01 12:44:19.17	324.43	9.55	-47.5	-49.7	15.0	0.00e+00	0	57	0	932184064	57	4715
2026-01-01 12:44:20.16	324.57	9.50	-47.7	-49.9	14.8	0.00e+00	0	57	0	933232640	57	4847
2026-01-01 12:44:21.15	324.71	9.46	-47.8	-50.0	14.7	0.00e+00	0	57	0	935329792	57	4907
2026-01-01 12:44:22.14	324.85	9.41	-47.9	-50.2	14.5	7.00e-07	0	57	0	937426944	57	5016
2026-01-01 12:44:23.13	324.99	9.36	-47.9	-50.3	14.4	0.00e+00	0	57	0	939524096	57	5051
2026-01-01 12:44:24.12	325.14	9.31	-48.1	-50.4	14.3	0.00e+00	0	57	0	940572672	58	4850
2026-01-01 12:44:25.11	325.28	9.26	-48.1	-50.5	14.2	3.00e-06	0	57	0	942669824	58	4888
2026-01-01 12:44:26.11	325.42	9.21	-48.2	-50.6	14.0	1.50e-06	0	57	0	944766976	58	4980
2026-01-01 12:44:27.09	325.55	9.16	-48.0	-50.4	14.3	1.50e-06	0	57	0	946864128	58	4861
2026-01-01 12:44:28.08	325.69	9.12	-48.0	-50.3	14.5	1.50e-06	0	57	0	948961280	58	4777
2026-01-01 12:44:29.07	325.83	9.07	-47.9	-50.2	14.5	7.00e-07	0	57	0	950009856	58	4733
2026-01-01 12:44:30.05	325.97	9.02	-47.9	-50.1	14.6	0.00e+00	0	57	0	952107008	58	4668
2026-01-01 12:44:31.04	326.11	8.97	-47.8	-50.2	14.5	0.00e+00	0	57	0	954204160	58	4714
2026-01-01 12:44:32.03	326.24	8.92	-48.0	-50.4	14.3	7.00e-07	0	57	0	956301312	58	4859
2026-01-01 12:44:33.03	326.38	8.87	-47.9	-50.2	14.5	7.00e-07	0	57	0	957349888	58	4750
2026-01-01 12:44:34.02	326.52	8.82	-48.1	-50.6	14.2	7.00e-07	0	57	0	959447040	58	4933
2026-01-01 12:44:35.00	326.65	8.77	-48.1	-50.6	14.2	7.00e-07	0	57	0	961544192	58	4927
2026-01-01 12:44:35.99	326.79	8.73	-48.1	-50.6	14.1	1.50e-06	0	57	0	963641344	58	4978
2026-01-01 12:44:36.99	326.92	8.68	-48.4	-51.1	13.6	6.80e-06	0	57	0	964689920	58	5241
2026-01-01 12:44:37.99	327.06	8.63	-48.3	-50.9	13.8	6.10e-06	0	57	0	966787072	58	5144
2026-01-01 12:44:38.97	327.19	8.58	-48.3	-51.1	13.6	6.80e-06	0	57	0	968884224	58	5244
2026-01-01 12:44:39.96	327.32	8.53	-48.4	-51.2	13.6	7.60e-06	0	57	0	970981376	58	5284
2026-01-01 12:44:40.94	327.46	8.48	-48.5	-51.2	13.4	9.10e-06	0	57	0	973078528	58	5314
2026-01-01 12:44:41.94	327.59	8.43	-48.4	-51.0	13.7	9.90e-06	0	57	0	974127104	58	5201
2026-01-01 12:44:42.92	327.72	8.38	-48.3	-50.8	13.9	6.10e-06	0	57	0	976224256	58	5067
2026-01-01 12:44:43.91	327.85	8.33	-48.1	-50.6	14.1	7.00e-07	0	57	0	978321408	58	4952
2026-01-01 12:44:44.91	327.99	8.28	-48.1	-50.7	14.0	2.20e-06	0	57	0	980418560	58	5009
2026-01-01 12:44:45.89	328.11	8.23	-48.1	-50.8	13.9	4.50e-06	0	57	0	981467136	58	5058
2026-01-01 12:44:46.89	328.25	8.18	-48.3	-51.0	13.7	2.20e-06	0	57	0	983564288	58	5202
2026-01-01 12:44:47.88	328.38	8.13	-48.3	-50.9	13.7	5.30e-06	0	57	0	985661440	58	5147
2026-01-01 12:44:48.86	328.51	8.08	-48.5	-51.3	13.3	1.06e-05	0	57	0	987758592	58	5368
2026-01-01 12:44:49.85	328.63	8.04	-48.4	-51.2	13.5	1.52e-05	0	57	0	989855744	58	5283
2026-01-01 12:44:50.84	328.76	7.99	-48.6	-51.5	13.2	1.06e-05	0	57	0	990904320	58	5475
2026-01-01 12:44:51.83	328.89	7.94	-48.4	-51.2	13.4	1.60e-05	0	57	0	993001472	59	4995
2026-01-01 12:44:52.81	329.02	7.89	-48.3	-51.0	13.6	6.80e-06	0	57	0	995098624	59	4919
2026-01-01 12:44:53.81	329.15	7.84	-48.3	-51.1	13.6	1.06e-05	0	57	0	997195776	59	4946
2026-01-01 12:44:54.80	329.27	7.79	-48.4	-51.2	13.4	1.44e-05	0	57	0	998244352	59	5040
2026-01-01 12:44:55.79	329.40	7.74	-48.3	-51.1	13.6	1.22e-05	0	57	0	1000341504	59	4932
2026-01-01 12:44:56.77	329.53	7.69	-48.2	-50.8	13.9	6.80e-06	0	57	0	1002438656	59	4772
2026-01-01 12:44:57.76	329.65	7.64	-48.1	-50.7	13.9	3.00e-06	0	57	0	1004535808	59	4722
2026-01-01 12:44:58.74	329.78	7.59	-48.2	-50.8	13.8	5.30e-06	0	57	0	1005584384	59	4767
2026-01-01 12:44:59.73	329.90	7.54	-48.2	-50.7	14.0	7.60e-06	0	57	0	1007681536	59	4713
2026-01-01 12:45:00.71	330.02	7.49	-48.1	-50.6	14.0	7.00e-07	0	57	0	1009778688	59	4663
2026-01-01 12:45:01.70	330.15	7.44	-48.2	-50.7	13.9	3.00e-06	0	57	0	1011875840	59	4719
2026-01-01 12:45:02.70	330.27	7.39	-48.3	-50.8	13.7	7.60e-06	0	57	0	1013972992	59	4812
2026-01-01 12:45:03.69	330.40	7.34	-48.4	-51.2	13.4	4.50e-06	0	57	0	1015021568	59	4992
2026-01-01 12:45:04.68	330.52	7.29	-48.3	-51.0	13.5	1.98e-05	0	57	0	1017118720	59	4913
2026-01-01 12:45:05.67	330.64	7.24	-48.3	-51.0	13.5	5.30e-06	0	57	0	1019215872	59	4898
2026-01-01 12:45:06.67	330.77	7.19	-48.5	-51.2	13.4	1.37e-05	0	57	0	1021313024	59	4998
2026-01-01 12:45:07.65	330.89	7.14	-48.4	-51.2	13.3	1.44e-05	0	57	0	1022361600	59	5009
2026-01-01 12:45:08.64	331.01	7.09	-48.3	-51.1	13.5	1.60e-05	0	57	0	1024458752	59	4943
2026-01-01 12:45:09.64	331.13	7.04	-48.3	-50.9	13.7	1.44e-05	0	57	0	1026555904	59	4840
2026-01-01 12:45:10.63	331.25	6.99	-48.1	-50.8	13.8	3.80e-06	0	57	0	1028653056	58	5061
2026-01-01 12:45:11.63	331.37	6.94	-48.1	-50.7	13.9	4.50e-06	0	57	0	1029701632	58	4988
2026-01-01 12:45:12.62	331.49	6.89	-48.0	-50.5	14.0	0.00e+00	0	57	0	1031798784	58	4923
2026-01-01 12:45:13.60	331.61	6.84	-48.1	-50.7	13.8	3.80e-06	0	57	0	1033895936	57	5296
2026-01-01 12:45:14.59	331.73	6.79	-48.2	-50.8	13.7	4.50e-06	0	57	0	1035993088	58	5065
2026-01-01 12:45:15.58	331.85	6.74	-48.3	-51.0	13.5	1.29e-05	0	57	0	1037041664	58	5171
2026-01-01 12:45:16.57	331.97	6.69	-48.3	-51.2	13.3	1.29e-05	0	57	0	1039138816	58	5304
2026-01-01 12:45:17.56	332.09	6.64	-48.4	-51.2	13.2	3.81e-05	0	57	0	1041235968	58	5338
2026-01-01 12:45:18.55	332.20	6.59	-48.5	-51.3	13.1	2.74e-05	0	57	0	1043333120	58	5377
2026-01-01 12:45:19.53	332.32	6.54	-48.5	-51.4	13.0	3.05e-05	0	57	0	1045430272	58	5432
2026-01-01 12:45:20.53	332.44	6.49	-48.7	-51.7	12.8	4.27e-05	0	57	0	1046478848	59	5283
2026-01-01 12:45:21.52	332.55	6.44	-48.7	-51.7	12.6	6.79e-05	0	57	0	1048576000	59	5327
2026-01-01 12:45:22.50	332.67	6.39	-48.6	-51.8	12.6	1.36e-04	0	57	0	1050673152	59	5379
2026-01-01 12:45:23.49	332.78	6.34	-48.7	-51.9	12.5	9.23e-05	0	57	0	1052770304	59	5424
2026-01-01 12:45:24.48	332.90	6.29	-48.9	-52.1	12.4	1.06e-04	0	57	0	1053818880	59	5538
2026-01-01 12:45:25.47	333.01	6.24	-48.9	-52.1	12.3	1.92e-04	0	57	0	1055916032	59	5545
2026-01-01 12:45:26.46	333.13	6.19	-48.9	-52.2	12.2	2.45e-04	0	57	0	1058013184	59	5615
2026-01-01 12:45:27.45	333.24	6.14	-48.8	-52.1	12.4	2.17e-04	0	57	0	1060110336	59	5544
2026-01-01 12:45:28.44	333.36	6.09	-48.8	-52.2	12.2	2.23e-04	0	57	0	1061158912	59	5641
2026-01-01 12:45:29.42	333.47	6.05	-48.9	-52.4	12.0	4.40e-04	0	57	0	1063256064	60	5423
2026-01-01 12:45:30.41	333.58	6.00	-48.8	-52.3	12.0	3.00e-04	0	57	0	1065353216	60	5385
2026-01-01 12:45:31.41	333.70	5.94	-48.8	-52.2	12.1	2.49e-04	0	57	0	1067450368	59	5596
2026-01-01 12:45:32.40	333.81	5.90	-48.8	-52.2	12.1	3.72e-04	0	57	0	1069547520	59	5604
2026-01-01 12:45:33.39	333.92	5.85	-49.0	-52.7	11.5	6.75e-04	0	57	0	1070596096	60	5627
2026-01-01 12:45:34.38	334.03	5.80	-48.9	-52.5	11.8	6.26e-04	0	57	0	1072693248	60	5486
2026-01-01 12:45:35.38	334.14	5.75	-49.1	-52.8	11.4	1.12e-03	0	57	0	1074790400	60	5699
2026-01-01 12:45:36.36	334.25	5.70	-49.0	-52.7	11.5	7.63e-04	0	57	0	1076887552	60	5601
2026-01-01 12:45:37.35	334.36	5.65	-48.8	-52.2	12.0	5.06e-04	0	57	0	1077936128	60	5335
2026-01-01 12:45:38.34	334.47	5.60	-48.9	-52.3	11.9	3.90e-04	0	57	0	1080033280	60	5357
2026-01-01 12:45:39.33	334.58	5.55	-48.8	-52.3	11.9	3.09e-04	0	57	0	1082130432	60	5365
2026-01-01 12:45:40.32	334.69	5.50	-48.9	-52.3	11.9	3.91e-04	0	57	0	1084227584	60	5391
2026-01-01 12:45:41.31	334.80	5.45	-48.7	-52.0	12.2	2.59e-04	0	57	0	1086324736	60	5205
2026-01-01 12:45:42.30	334.91	5.40	-48.6	-52.0	12.3	1.91e-04	0	57	0	1087373312	60	5181
2026-01-01 12:45:43.28	335.02	5.35	-48.6	-51.9	12.3	1.86e-04	0	57	0	1089470464	60	5119
2026-01-01 12:45:44.28	335.13	5.30	-48.7	-52.1	12.1	1.82e-04	0	57	0	1091567616	60	5219
2026-01-01 12:45:45.26	335.23	5.25	-48.7	-52.1	12.0	2.86e-04	0	57	0	1093664768	60	5274
2026-01-01 12:45:46.25	335.34	5.20	-48.7	-52.1	12.1	3.54e-04	0	57	0	1094713344	60	5222
2026-01-01 12:45:47.24	335.45	5.15	-48.7	-52.2	12.0	2.68e-04	0	57	0	1096810496	60	5286
2026-01-01 12:45:48.23	335.55	5.10	-48.8	-52.2	11.9	4.00e-04	0	57	0	1098907648	60	5338
2026-01-01 12:45:49.21	335.66	5.05	-48.8	-52.3	11.8	5.15e-04	0	57	0	1101004800	60	5373
2026-01-01 12:45:50.20	335.77	5.00	-51.3	-63.5	3.9	6.27e-04	0	57	0	1102053376	64	15402
2026-01-01 12:45:51.19	335.87	4.95	-51.5	-65.4	3.8	1.49e+00	0	57	104	1102053376	64	19350
2026-01-01 12:45:52.18	335.98	4.90	-51.9	-65.7	3.8	1.49e+00	0	57	104	1102053376	65	18817
2026-01-01 12:45:53.17	336.08	4.85	-52.1	-65.9	3.8	1.49e+00	0	57	104	1102053376	65	19259
2026-01-01 12:45:54.16	336.19	4.80	-52.0	-66.0	3.8	1.49e+00	0	57	104	1102053376	66	18435
2026-01-01 12:45:55.15	336.29	4.75	-52.0	-66.0	3.8	1.49e+00	0	57	104	1102053376	66	18387
2026-01-01 12:45:56.13	336.39	4.70	-51.5	-65.4	3.8	1.49e+00	0	57	104	1102053376	66	17255
2026-01-01 12:45:57.12	336.50	4.65	-52.1	-66.1	3.8	1.49e+00	0	57	104	1102053376	66	18670
2026-01-01 12:45:58.10	336.60	4.60	-52.4	-66.2	3.8	1.49e+00	0	57	104	1102053376	66	18834
2026-01-01 12:45:59.10	336.70	4.55	-52.3	-66.2	3.8	1.49e+00	0	57	104	1102053376	66	18888
2026-01-01 12:46:00.09	336.80	4.51	-52.3	-66.3	3.8	1.49e+00	0	57	104	1102053376	66	18954
2026-01-01 12:46:01.09	336.91	4.46	-52.4	-66.2	3.8	1.49e+00	0	57	104	1102053376	66	18943
2026-01-01 12:46:02.08	337.01	4.41	-52.5	-66.3	3.8	1.49e+00	0	57	104	1102053376	66	19096
2026-01-01 12:46:03.07	337.11	4.36	-52.5	-66.3	3.8	1.49e+00	0	57	104	1102053376	66	19078
2026-01-01 12:46:04.06	337.21	4.31	-52.4	-66.3	3.8	1.49e+00	0	57	104	1102053376	66	19160
2026-01-01 12:46:05.05	337.31	4.26	-52.4	-66.4	3.8	1.49e+00	0	57	104	1102053376	66	19182
2026-01-01 12:46:06.05	337.41	4.21	-52.6	-66.4	3.8	1.49e+00	0	57	104	1102053376	67	18172
2026-01-01 12:46:07.03	337.51	4.16	-52.6	-66.4	3.8	1.49e+00	0	57	104	1102053376	67	18188
2026-01-01 12:46:08.03	337.62	4.11	-52.6	-66.4	3.8	1.49e+00	0	57	104	1102053376	67	18211
2026-01-01 12:46:09.02	337.71	4.06	-52.6	-66.4	3.8	1.49e+00	0	57	104	1102053376	67	18254
2026-01-01 12:46:10.01	337.81	4.01	-52.4	-66.4	3.8	1.49e+00	0	57	104	1102053376	67	18203
2026-01-01 12:46:11.00	337.91	3.96	-52.6	-66.4	3.8	1.49e+00	0	57	104	1102053376	67	18272
2026-01-01 12:46:11.99	338.01	3.91	-52.6	-66.4	3.8	1.49e+00	0	57	104	1102053376	67	18221
2026-01-01 12:46:12.98	338.11	3.86	-52.5	-66.4	3.8	1.49e+00	0	57	104	1102053376	67	18290
2026-01-01 12:46:13.98	338.21	3.81	-52.4	-66.5	3.8	1.49e+00	0	57	104	1102053376	67	18333
2026-01-01 12:46:14.97	338.31	3.76	-52.6	-66.4	3.8	1.49e+00	0	57	104	1102053376	67	18304
2026-01-01 12:46:15.96	338.40	3.72	-52.6	-66.5	3.8	1.49e+00	0	57	104	1102053376	67	18307
2026-01-01 12:46:16.94	338.50	3.67	-52.6	-66.4	3.8	1.49e+00	0	57	104	1102053376	67	18275
2026-01-01 12:46:17.93	338.60	3.62	-52.6	-66.4	3.8	1.49e+00	0	57	104	1102053376	67	18251
2026-01-01 12:46:18.92	338.69	3.57	-52.6	-66.4	3.8	1.49e+00	0	57	104	1102053376	67	18234
2026-01-01 12:46:19.91	338.79	3.52	-52.5	-66.4	3.8	1.49e+00	0	57	104	1102053376	67	18272
2026-01-01 12:46:20.90	338.89	3.47	-52.5	-66.4	3.8	1.49e+00	0	57	104	1102053376	67	18210
2026-01-01 12:46:21.89	338.98	3.42	-52.4	-66.4	3.8	1.49e+00	0	57	104	1102053376	67	18219
2026-01-01 12:46:22.88	339.08	3.37	-52.6	-66.4	3.8	1.49e+00	0	57	104	1102053376	67	18241
2026-01-01 12:46:23.87	339.17	3.32	-52.4	-66.4	3.8	1.49e+00	0	57	104	1102053376	67	18239
2026-01-01 12:46:24.85	339.27	3.28	-52.4	-66.4	3.8	1.49e+00	0	57	104	1102053376	67	18231
2026-01-01 12:46:25.85	339.36	3.23	-52.3	-66.4	3.8	1.49e+00	0	57	104	1102053376	67	18215
2026-01-01 12:46:26.83	339.45	3.18	-52.3	-66.4	3.8	1.49e+00	0	57	104	1102053376	67	18285
2026-01-01 12:46:27.82	339.55	3.13	-52.3	-66.4	3.8	1.49e+00	0	57	104	1102053376	67	18254
2026-01-01 12:46:28.81	339.64	3.08	-52.4	-66.4	3.8	1.49e+00	0	57	104	1102053376	66	19318
2026-01-01 12:46:29.79	339.73	3.03	-52.5	-66.4	3.8	1.49e+00	0	57	104	1102053376	67	18238
2026-01-01 12:46:30.78	339.83	2.98	-52.3	-66.4	3.8	1.49e+00	0	57	104	1102053376	67	18255

#Closed at: 2026-01-01 12:46:30
#Recorded file [1102 MB]: D:/Data/31026_260101_154550.dat