passes_logs/2026/01/01/R3.0SM8_Murmansk_STILSPACE/R3.0SM8_Murmansk_STILSPACE__20260101_233547_FENGYUN_3D_rec.log

#Pass ID: 20260101_233547_FENGYUN 3D
#Satellite: FENGYUN 3D
#Configuration: FENGYUN 3D
#almurnet v.1.7.20240730
#Start time: 2026-01-01 23:35:48

#Version: 2.2.20231116
#Station: R3.0SM8_Murmansk_STILSPACE
#Location: 33.092731 lon 68.902999 lat
#TLE: 1 43010U 17072A   26001.33100487  .00000602  00000+0  30664-3 0  9999
#TLE: 2 43010  98.9910 332.9374 0001848 133.1047 227.0283 14.19692078421319

#Time	Az	El	Level	Level2	SNR	BER	BlckErr	Temp	State	Recorded	gain1	gain2
2026-01-01 23:35:48.14	21.13	3.03	-52.3	-63.1	3.8	8.46e-01	0	46	0	0	66	13161
2026-01-01 23:35:49.13	21.23	3.08	-52.2	-63.0	3.8	8.46e-01	0	46	104	0	67	12318
2026-01-01 23:35:50.11	21.32	3.12	-52.2	-63.0	3.8	8.47e-01	0	47	104	0	67	12322
2026-01-01 23:35:51.10	21.42	3.17	-52.0	-63.0	3.8	8.46e-01	0	47	104	0	67	12263
2026-01-01 23:35:52.09	21.52	3.22	-51.3	-62.1	3.8	8.45e-01	0	46	104	0	65	12498
2026-01-01 23:35:53.08	21.62	3.26	-52.0	-62.7	3.8	8.46e-01	0	47	104	0	65	13407
2026-01-01 23:35:54.06	21.72	3.31	-52.1	-62.9	3.8	8.46e-01	0	47	104	0	66	12921
2026-01-01 23:35:55.05	21.82	3.36	-52.2	-63.0	3.8	8.46e-01	0	47	104	0	66	12961
2026-01-01 23:35:56.05	21.92	3.40	-52.2	-62.9	3.8	8.45e-01	0	47	104	0	66	12868
2026-01-01 23:35:57.05	22.02	3.45	-52.0	-62.9	3.8	8.46e-01	0	47	104	0	66	12827
2026-01-01 23:35:58.04	22.12	3.50	-52.0	-62.8	3.8	8.46e-01	0	47	104	0	66	12744
2026-01-01 23:35:59.03	22.22	3.55	-51.8	-62.7	3.8	8.47e-01	0	47	104	0	66	12619
2026-01-01 23:36:00.02	22.32	3.59	-51.8	-62.6	3.8	8.46e-01	0	47	104	0	66	12452
2026-01-01 23:36:01.00	22.42	3.64	-51.6	-62.5	3.8	8.45e-01	0	47	104	0	66	12244
2026-01-01 23:36:01.99	22.52	3.69	-51.4	-62.2	3.8	8.46e-01	0	47	104	0	65	12649
2026-01-01 23:36:02.98	22.62	3.73	-51.3	-62.0	3.8	8.45e-01	0	47	104	0	65	12368
2026-01-01 23:36:03.97	22.72	3.78	-51.2	-62.0	3.8	8.47e-01	0	47	104	0	65	12346
2026-01-01 23:36:04.96	22.83	3.83	-51.2	-62.0	3.8	8.47e-01	0	47	104	0	65	12300
2026-01-01 23:36:05.95	22.93	3.87	-51.2	-62.0	3.8	8.47e-01	0	48	104	0	64	13005
2026-01-01 23:36:06.94	23.03	3.92	-51.2	-61.9	3.8	8.46e-01	0	48	104	0	64	12819
2026-01-01 23:36:07.93	23.14	3.97	-51.3	-61.8	3.8	8.44e-01	0	48	104	0	64	12698
2026-01-01 23:36:08.92	23.24	4.02	-51.3	-61.9	3.8	8.46e-01	0	48	104	0	64	12848
2026-01-01 23:36:09.92	23.34	4.06	-51.3	-61.9	3.8	8.46e-01	0	48	104	0	64	12952
2026-01-01 23:36:10.90	23.45	4.11	-51.2	-62.0	3.8	8.47e-01	0	48	104	0	64	13059
2026-01-01 23:36:11.90	23.55	4.16	-51.3	-62.1	3.8	8.46e-01	0	48	104	0	64	13173
2026-01-01 23:36:12.89	23.66	4.21	-51.2	-62.1	3.8	8.45e-01	0	48	104	0	64	13142
2026-01-01 23:36:13.87	23.76	4.25	-51.2	-62.0	3.8	8.46e-01	0	48	104	0	64	13036
2026-01-01 23:36:14.85	23.87	4.30	-51.2	-61.9	3.8	8.46e-01	0	48	104	0	64	12878
2026-01-01 23:36:15.84	23.97	4.35	-51.1	-61.8	3.8	8.46e-01	0	48	104	0	64	12683
2026-01-01 23:36:16.83	24.08	4.39	-51.2	-61.7	3.8	8.47e-01	0	48	104	0	64	12621
2026-01-01 23:36:17.82	24.18	4.44	-51.2	-61.8	3.8	8.45e-01	0	48	104	0	64	12714
2026-01-01 23:36:18.81	24.29	4.49	-51.3	-61.9	3.8	8.46e-01	0	48	104	0	64	12883
2026-01-01 23:36:19.80	24.40	4.54	-51.3	-61.9	3.8	8.47e-01	0	48	104	0	64	12914
2026-01-01 23:36:20.79	24.51	4.58	-51.3	-61.8	3.8	8.47e-01	0	49	104	0	64	12803
2026-01-01 23:36:21.78	24.61	4.63	-51.2	-61.2	3.8	8.47e-01	0	49	104	0	64	11867
2026-01-01 23:36:22.77	24.72	4.68	-51.1	-60.2	3.8	8.46e-01	0	49	104	0	64	10606
2026-01-01 23:36:23.76	24.83	4.72	-50.8	-58.1	4.3	8.39e-01	0	49	0	0	64	8344
2026-01-01 23:36:24.74	24.94	4.77	-50.5	-56.4	5.1	7.75e-01	0	49	0	0	63	7283
2026-01-01 23:36:25.73	25.05	4.82	-49.7	-54.4	6.6	3.16e-01	0	49	0	2097152	62	6078
2026-01-01 23:36:26.73	25.16	4.87	-49.0	-52.5	8.3	1.08e-01	0	49	0	8388608	61	5207
2026-01-01 23:36:27.71	25.27	4.91	-48.4	-51.2	9.8	1.74e-02	0	49	0	13631488	59	5004
2026-01-01 23:36:28.70	25.38	4.96	-47.9	-50.3	10.6	7.30e-03	0	49	0	18874368	59	4542
2026-01-01 23:36:29.68	25.49	5.01	-47.4	-49.6	11.4	2.19e-03	0	49	0	25165824	58	4423
2026-01-01 23:36:30.66	25.60	5.05	-47.3	-49.4	11.7	8.72e-04	0	49	0	30408704	57	4571
2026-01-01 23:36:31.65	25.71	5.10	-47.4	-49.6	11.4	8.94e-04	0	49	0	35651584	57	4701
2026-01-01 23:36:32.64	25.82	5.15	-47.4	-49.6	11.4	1.83e-03	0	49	0	40894464	57	4689
2026-01-01 23:36:33.62	25.93	5.19	-47.2	-49.4	11.7	9.26e-04	0	49	0	47185920	57	4551
2026-01-01 23:36:34.61	26.04	5.24	-47.1	-49.1	11.9	5.96e-04	0	49	0	52428800	57	4440
2026-01-01 23:36:35.61	26.16	5.29	-46.9	-48.8	12.3	3.31e-04	0	50	0	58720256	57	4287
2026-01-01 23:36:36.59	26.27	5.34	-47.1	-49.0	12.1	3.33e-04	0	49	0	63963136	56	4649
2026-01-01 23:36:37.58	26.38	5.38	-46.8	-48.7	12.4	1.85e-04	0	50	0	69206016	56	4492
2026-01-01 23:36:38.57	26.49	5.43	-46.5	-48.3	12.8	1.52e-04	0	50	0	74448896	56	4263
2026-01-01 23:36:39.56	26.61	5.48	-45.9	-47.5	13.6	3.54e-05	0	50	0	80740352	55	4108
2026-01-01 23:36:40.55	26.72	5.53	-45.5	-47.0	14.1	6.80e-06	0	50	0	85983232	54	4104
2026-01-01 23:36:41.54	26.84	5.57	-45.1	-46.5	14.5	2.20e-06	0	50	0	91226112	53	4136
2026-01-01 23:36:42.53	26.95	5.62	-44.8	-46.1	15.0	1.10e-06	0	50	0	97517568	52	4152
2026-01-01 23:36:43.52	27.07	5.67	-44.6	-45.8	15.2	0.00e+00	0	50	0	102760448	52	4027
2026-01-01 23:36:44.51	27.18	5.71	-44.4	-45.6	15.5	0.00e+00	0	50	0	108003328	52	3934
2026-01-01 23:36:45.50	27.30	5.76	-44.5	-45.7	15.4	0.00e+00	0	50	0	114294784	51	4235
2026-01-01 23:36:46.48	27.41	5.81	-44.7	-45.9	15.2	0.00e+00	0	50	0	119537664	51	4310
2026-01-01 23:36:47.48	27.53	5.86	-44.8	-46.0	15.1	0.00e+00	0	50	0	124780544	51	4372
2026-01-01 23:36:48.46	27.65	5.90	-44.7	-45.9	15.3	0.00e+00	0	50	0	130023424	51	4317
2026-01-01 23:36:49.45	27.77	5.95	-44.9	-46.2	15.0	0.00e+00	0	50	0	136314880	51	4489
2026-01-01 23:36:50.45	27.88	6.00	-44.8	-46.1	15.0	0.00e+00	0	50	0	141557760	52	4159
2026-01-01 23:36:51.44	28.00	6.04	-44.7	-45.9	15.2	0.00e+00	0	50	0	146800640	52	4074
2026-01-01 23:36:52.43	28.12	6.09	-44.6	-45.8	15.3	0.00e+00	0	50	0	153092096	52	4046
2026-01-01 23:36:53.41	28.24	6.14	-44.5	-45.7	15.4	0.00e+00	0	50	0	158334976	52	3988
2026-01-01 23:36:54.40	28.36	6.19	-44.6	-45.8	15.3	1.10e-06	0	50	0	163577856	52	4045
2026-01-01 23:36:55.39	28.48	6.23	-44.7	-46.0	15.2	0.00e+00	0	50	0	168820736	52	4102
2026-01-01 23:36:56.37	28.60	6.28	-44.7	-45.9	15.2	0.00e+00	0	50	0	175112192	52	4090
2026-01-01 23:36:57.36	28.72	6.33	-44.9	-46.1	15.0	1.10e-06	0	50	0	180355072	52	4192
2026-01-01 23:36:58.36	28.84	6.37	-45.0	-46.3	14.9	0.00e+00	0	51	0	186646528	52	4250
2026-01-01 23:36:59.35	28.96	6.42	-44.7	-46.0	15.1	0.00e+00	0	51	0	191889408	52	4131
2026-01-01 23:37:00.34	29.08	6.47	-44.5	-45.7	15.4	0.00e+00	0	51	0	197132288	52	3986
2026-01-01 23:37:01.33	29.20	6.51	-44.4	-45.6	15.7	0.00e+00	0	51	0	202375168	51	4148
2026-01-01 23:37:02.32	29.33	6.56	-44.4	-45.5	15.7	0.00e+00	0	51	0	208666624	51	4132
2026-01-01 23:37:03.31	29.45	6.61	-44.4	-45.5	15.7	0.00e+00	0	51	0	213909504	51	4133
2026-01-01 23:37:04.30	29.57	6.65	-44.5	-45.7	15.6	0.00e+00	0	51	0	219152384	51	4203
2026-01-01 23:37:05.28	29.70	6.70	-44.6	-45.8	15.5	0.00e+00	0	51	0	225443840	51	4272
2026-01-01 23:37:06.27	29.82	6.75	-44.4	-45.5	15.8	0.00e+00	0	51	0	230686720	51	4129
2026-01-01 23:37:07.26	29.94	6.79	-44.2	-45.3	16.0	0.00e+00	0	51	0	235929600	51	4020
2026-01-01 23:37:08.24	30.07	6.84	-44.0	-45.1	16.2	0.00e+00	0	51	0	242221056	51	3927
2026-01-01 23:37:09.23	30.19	6.89	-44.0	-45.0	16.3	0.00e+00	0	51	0	247463936	51	3884
2026-01-01 23:37:10.23	30.32	6.93	-44.0	-45.0	16.3	0.00e+00	0	51	0	252706816	51	3893
2026-01-01 23:37:11.22	30.44	6.98	-43.9	-45.0	16.3	0.00e+00	0	51	0	257949696	50	4111
2026-01-01 23:37:12.22	30.57	7.03	-44.1	-45.2	16.2	0.00e+00	0	51	0	264241152	50	4196
2026-01-01 23:37:13.20	30.70	7.07	-44.4	-45.5	15.9	0.00e+00	0	51	0	269484032	50	4356
2026-01-01 23:37:14.19	30.82	7.12	-44.1	-45.2	16.1	0.00e+00	0	51	0	275775488	50	4216
2026-01-01 23:37:15.18	30.95	7.17	-44.0	-45.0	16.3	0.00e+00	0	51	0	281018368	50	4139
2026-01-01 23:37:16.17	31.08	7.21	-44.0	-45.0	16.3	0.00e+00	0	51	0	286261248	50	4123
2026-01-01 23:37:17.16	31.21	7.26	-44.0	-45.1	16.3	0.00e+00	0	51	0	291504128	50	4164
2026-01-01 23:37:18.15	31.34	7.31	-44.1	-45.2	16.1	0.00e+00	0	51	0	297795584	50	4214
2026-01-01 23:37:19.14	31.46	7.35	-44.1	-45.2	16.2	0.00e+00	0	52	0	303038464	50	4209
2026-01-01 23:37:20.13	31.59	7.40	-44.1	-45.2	16.2	0.00e+00	0	52	0	308281344	50	4197
2026-01-01 23:37:21.11	31.72	7.45	-44.2	-45.3	16.1	0.00e+00	0	51	0	314572800	50	4256
2026-01-01 23:37:22.10	31.85	7.49	-44.1	-45.2	16.2	0.00e+00	0	51	0	319815680	50	4217
2026-01-01 23:37:23.08	31.98	7.54	-44.2	-45.3	16.1	0.00e+00	0	52	0	325058560	50	4244
2026-01-01 23:37:24.07	32.11	7.58	-44.3	-45.4	16.0	0.00e+00	0	52	0	330301440	50	4304
2026-01-01 23:37:25.06	32.24	7.63	-44.1	-45.2	16.2	0.00e+00	0	52	0	336592896	50	4234
2026-01-01 23:37:26.05	32.38	7.68	-44.1	-45.1	16.3	0.00e+00	0	52	0	341835776	50	4181
2026-01-01 23:37:27.03	32.51	7.72	-44.1	-45.2	16.2	0.00e+00	0	52	0	347078656	50	4215
2026-01-01 23:37:28.02	32.64	7.77	-44.1	-45.2	16.2	0.00e+00	0	52	0	353370112	50	4226
2026-01-01 23:37:29.02	32.77	7.81	-44.2	-45.2	16.2	0.00e+00	0	52	0	358612992	50	4232
2026-01-01 23:37:30.00	32.90	7.86	-44.2	-45.2	16.2	0.00e+00	0	52	0	363855872	50	4220
2026-01-01 23:37:30.99	33.04	7.91	-44.3	-45.4	16.0	0.00e+00	0	52	0	370147328	50	4301
2026-01-01 23:37:31.97	33.17	7.95	-44.1	-45.1	16.3	0.00e+00	0	52	0	375390208	50	4185
2026-01-01 23:37:32.96	33.31	8.00	-43.9	-45.0	16.4	0.00e+00	0	52	0	380633088	50	4113
2026-01-01 23:37:33.94	33.44	8.04	-44.0	-45.0	16.4	0.00e+00	0	52	0	386924544	50	4128
2026-01-01 23:37:34.94	33.58	8.09	-44.0	-45.1	16.3	0.00e+00	0	52	0	392167424	50	4168
2026-01-01 23:37:35.93	33.71	8.13	-44.3	-45.4	16.1	0.00e+00	0	52	0	397410304	50	4295
2026-01-01 23:37:36.91	33.85	8.18	-44.3	-45.4	16.0	0.00e+00	0	52	0	402653184	50	4337
2026-01-01 23:37:37.89	33.98	8.23	-44.4	-45.5	16.0	1.10e-06	0	52	0	408944640	50	4341
2026-01-01 23:37:38.88	34.12	8.27	-44.3	-45.4	16.0	0.00e+00	0	52	0	414187520	50	4312
2026-01-01 23:37:39.87	34.26	8.32	-44.4	-45.5	16.0	0.00e+00	0	52	0	419430400	50	4341
2026-01-01 23:37:40.86	34.39	8.36	-44.4	-45.5	16.0	0.00e+00	0	52	0	425721856	50	4370
2026-01-01 23:37:41.85	34.53	8.41	-44.5	-45.6	15.9	1.10e-06	0	52	0	430964736	50	4407
2026-01-01 23:37:42.84	34.67	8.45	-44.7	-45.8	15.7	0.00e+00	0	52	0	436207616	51	4280
2026-01-01 23:37:43.82	34.81	8.50	-44.5	-45.6	15.9	0.00e+00	0	52	0	441450496	51	4167
2026-01-01 23:37:44.81	34.95	8.54	-44.3	-45.3	16.1	0.00e+00	0	52	0	447741952	51	4037
2026-01-01 23:37:45.80	35.09	8.59	-44.1	-45.2	16.3	0.00e+00	0	52	0	452984832	51	3960
2026-01-01 23:37:46.78	35.23	8.63	-44.0	-45.0	16.5	0.00e+00	0	52	0	458227712	51	3886
2026-01-01 23:37:47.77	35.37	8.68	-44.1	-45.1	16.4	0.00e+00	0	52	0	464519168	51	3944
2026-01-01 23:37:48.75	35.51	8.72	-44.2	-45.3	16.2	0.00e+00	0	52	0	469762048	51	4020
2026-01-01 23:37:49.74	35.65	8.77	-44.1	-45.1	16.4	0.00e+00	0	53	0	475004928	51	3922
2026-01-01 23:37:50.73	35.79	8.81	-43.8	-44.8	16.7	0.00e+00	0	53	0	480247808	50	4031
2026-01-01 23:37:51.72	35.93	8.86	-43.7	-44.6	16.9	0.00e+00	0	52	0	486539264	50	3951
2026-01-01 23:37:52.71	36.08	8.90	-43.5	-44.5	17.0	0.00e+00	0	53	0	491782144	50	3876
2026-01-01 23:37:53.69	36.22	8.94	-43.6	-44.5	17.0	0.00e+00	0	52	0	497025024	50	3893
2026-01-01 23:37:54.68	36.36	8.99	-43.7	-44.7	16.9	0.00e+00	0	53	0	503316480	50	3963
2026-01-01 23:37:55.66	36.50	9.03	-43.7	-44.6	16.9	0.00e+00	0	53	0	508559360	50	3956
2026-01-01 23:37:56.65	36.65	9.08	-43.8	-44.7	16.8	0.00e+00	0	53	0	513802240	50	3998
2026-01-01 23:37:57.65	36.79	9.12	-43.8	-44.8	16.7	0.00e+00	0	53	0	520093696	50	4023
2026-01-01 23:37:58.64	36.94	9.17	-43.8	-44.7	16.8	0.00e+00	0	53	0	525336576	50	4003
2026-01-01 23:37:59.62	37.08	9.21	-43.7	-44.7	16.9	0.00e+00	0	53	0	530579456	50	3961
2026-01-01 23:38:00.61	37.23	9.25	-43.7	-44.6	16.9	0.00e+00	0	53	0	535822336	50	3947
2026-01-01 23:38:01.60	37.38	9.30	-43.9	-44.8	16.7	0.00e+00	0	53	0	542113792	50	4039
2026-01-01 23:38:02.58	37.52	9.34	-43.8	-44.8	16.7	0.00e+00	0	53	0	547356672	50	4031
2026-01-01 23:38:03.57	37.67	9.38	-43.6	-44.6	16.9	0.00e+00	0	53	0	552599552	50	3928
2026-01-01 23:38:04.56	37.82	9.43	-43.5	-44.4	17.1	0.00e+00	0	53	0	558891008	50	3848
2026-01-01 23:38:05.55	37.97	9.47	-43.5	-44.4	17.1	0.00e+00	0	53	0	564133888	49	4079
2026-01-01 23:38:06.54	38.11	9.52	-43.6	-44.5	17.0	0.00e+00	0	53	0	569376768	49	4125
2026-01-01 23:38:07.53	38.26	9.56	-43.6	-44.6	16.9	0.00e+00	0	53	0	575668224	49	4159
2026-01-01 23:38:08.53	38.42	9.60	-43.7	-44.6	16.9	0.00e+00	0	53	0	580911104	49	4180
2026-01-01 23:38:09.51	38.56	9.65	-43.6	-44.5	17.1	0.00e+00	0	53	0	586153984	49	4106
2026-01-01 23:38:10.51	38.72	9.69	-43.4	-44.3	17.2	0.00e+00	0	53	0	592445440	49	4041
2026-01-01 23:38:11.50	38.87	9.73	-43.5	-44.4	17.1	0.00e+00	0	53	0	597688320	49	4088
2026-01-01 23:38:12.48	39.02	9.77	-43.5	-44.4	17.1	0.00e+00	0	53	0	602931200	49	4083
2026-01-01 23:38:13.48	39.17	9.82	-43.6	-44.6	17.0	0.00e+00	0	53	0	608174080	49	4159
2026-01-01 23:38:14.47	39.32	9.86	-43.7	-44.6	16.9	0.00e+00	0	53	0	614465536	49	4188
2026-01-01 23:38:15.46	39.47	9.90	-43.5	-44.4	17.2	0.00e+00	0	53	0	619708416	49	4053
2026-01-01 23:38:16.45	39.63	9.95	-43.3	-44.1	17.4	0.00e+00	0	53	0	625999872	49	3950
2026-01-01 23:38:17.45	39.78	9.99	-43.2	-44.1	17.5	0.00e+00	0	53	0	631242752	49	3917
2026-01-01 23:38:18.44	39.94	10.03	-43.2	-44.1	17.5	0.00e+00	0	53	0	636485632	49	3923
2026-01-01 23:38:19.42	40.09	10.07	-43.2	-44.1	17.5	0.00e+00	0	53	0	641728512	49	3944
2026-01-01 23:38:20.41	40.24	10.12	-43.4	-44.3	17.3	0.00e+00	0	53	0	648019968	49	4005
2026-01-01 23:38:21.40	40.40	10.16	-43.3	-44.2	17.4	0.00e+00	0	53	0	653262848	49	3989
2026-01-01 23:38:22.38	40.55	10.20	-43.2	-44.1	17.5	0.00e+00	0	53	0	658505728	49	3947
2026-01-01 23:38:23.36	40.71	10.24	-43.2	-44.0	17.6	0.00e+00	0	53	0	664797184	49	3909
2026-01-01 23:38:24.35	40.86	10.28	-43.3	-44.2	17.4	0.00e+00	0	53	0	670040064	49	3959
2026-01-01 23:38:25.34	41.02	10.32	-43.2	-44.2	17.4	0.00e+00	0	53	0	675282944	49	3967
2026-01-01 23:38:26.33	41.18	10.36	-43.2	-44.1	17.5	0.00e+00	0	53	0	680525824	49	3937
2026-01-01 23:38:27.32	41.34	10.41	-43.3	-44.2	17.4	0.00e+00	0	53	0	686817280	49	3983
2026-01-01 23:38:28.29	41.49	10.45	-43.1	-43.9	17.7	0.00e+00	0	53	0	692060160	49	3852
2026-01-01 23:38:29.26	41.65	10.49	-43.0	-43.8	17.8	0.00e+00	0	54	0	697303040	49	3800
2026-01-01 23:38:30.25	41.81	10.53	-42.9	-43.7	17.9	0.00e+00	0	53	0	703594496	49	3771
2026-01-01 23:38:31.23	41.96	10.57	-42.9	-43.8	17.8	0.00e+00	0	54	0	708837376	49	3789
2026-01-01 23:38:32.22	42.12	10.61	-43.2	-44.0	17.6	0.00e+00	0	53	0	714080256	49	3903
2026-01-01 23:38:33.22	42.29	10.65	-43.2	-44.1	17.6	0.00e+00	0	54	0	719323136	49	3926
2026-01-01 23:38:34.21	42.45	10.69	-43.1	-44.0	17.6	0.00e+00	0	54	0	725614592	49	3874
2026-01-01 23:38:35.19	42.61	10.73	-43.1	-44.0	17.6	0.00e+00	0	54	0	730857472	49	3883
2026-01-01 23:38:36.18	42.77	10.77	-43.1	-44.0	17.6	0.00e+00	0	54	0	736100352	49	3895
2026-01-01 23:38:37.17	42.93	10.81	-43.3	-44.2	17.5	0.00e+00	0	53	0	742391808	49	3968
2026-01-01 23:38:38.17	43.09	10.85	-43.5	-44.3	17.3	0.00e+00	0	54	0	747634688	49	4051
2026-01-01 23:38:39.15	43.26	10.89	-43.4	-44.4	17.3	0.00e+00	0	54	0	752877568	49	4053
2026-01-01 23:38:40.14	43.42	10.93	-43.4	-44.4	17.3	0.00e+00	0	54	0	758120448	49	4053
2026-01-01 23:38:41.13	43.58	10.97	-43.5	-44.4	17.2	0.00e+00	0	54	0	764411904	49	4077
2026-01-01 23:38:42.12	43.75	11.01	-43.5	-44.4	17.2	0.00e+00	0	54	0	769654784	49	4091
2026-01-01 23:38:43.11	43.91	11.05	-43.6	-44.5	17.1	0.00e+00	0	54	0	774897664	49	4121
2026-01-01 23:38:44.10	44.08	11.09	-43.4	-44.3	17.3	0.00e+00	0	54	0	781189120	49	4034
2026-01-01 23:38:45.09	44.24	11.13	-43.5	-44.3	17.3	0.00e+00	0	54	0	786432000	49	4043
2026-01-01 23:38:46.08	44.41	11.16	-43.8	-44.8	16.9	0.00e+00	0	54	0	791674880	49	4252
2026-01-01 23:38:47.07	44.58	11.20	-43.5	-44.4	17.2	0.00e+00	0	54	0	797966336	49	4086
2026-01-01 23:38:48.06	44.74	11.24	-43.3	-44.2	17.5	0.00e+00	0	54	0	803209216	49	3962
2026-01-01 23:38:49.05	44.91	11.28	-43.1	-44.0	17.7	0.00e+00	0	54	0	808452096	49	3875
2026-01-01 23:38:50.04	45.08	11.32	-43.0	-43.8	17.8	0.00e+00	0	54	0	813694976	49	3806
2026-01-01 23:38:51.03	45.24	11.36	-42.9	-43.7	17.9	0.00e+00	0	54	0	819986432	49	3779
2026-01-01 23:38:52.02	45.41	11.39	-42.8	-43.7	18.0	0.00e+00	0	54	0	825229312	48	3961
2026-01-01 23:38:53.01	45.58	11.43	-42.9	-43.7	17.9	0.00e+00	0	54	0	831520768	48	4002
2026-01-01 23:38:54.00	45.75	11.47	-43.2	-44.0	17.6	0.00e+00	0	54	0	836763648	48	4135
2026-01-01 23:38:54.98	45.92	11.51	-43.0	-43.8	17.9	0.00e+00	0	54	0	842006528	48	4029
2026-01-01 23:38:55.96	46.09	11.54	-42.8	-43.6	18.0	0.00e+00	0	54	0	847249408	48	3937
2026-01-01 23:38:56.94	46.26	11.58	-42.7	-43.6	18.1	0.00e+00	0	54	0	853540864	48	3922
2026-01-01 23:38:57.93	46.43	11.62	-42.9	-43.8	17.9	0.00e+00	0	54	0	858783744	48	4017
2026-01-01 23:38:58.92	46.60	11.65	-43.0	-43.9	17.7	0.00e+00	0	54	0	864026624	48	4080
2026-01-01 23:38:59.91	46.77	11.69	-43.0	-43.9	17.8	0.00e+00	0	54	0	870318080	48	4052
2026-01-01 23:39:00.89	46.94	11.73	-43.0	-43.8	17.8	0.00e+00	0	54	0	875560960	48	4030
2026-01-01 23:39:01.89	47.12	11.76	-43.0	-43.9	17.8	0.00e+00	0	54	0	880803840	48	4064
2026-01-01 23:39:02.88	47.29	11.80	-42.8	-43.7	18.0	0.00e+00	0	54	0	886046720	48	3969
2026-01-01 23:39:03.87	47.46	11.83	-42.7	-43.5	18.1	0.00e+00	0	54	0	892338176	48	3906
2026-01-01 23:39:04.86	47.64	11.87	-42.7	-43.5	18.1	0.00e+00	0	54	0	897581056	48	3894
2026-01-01 23:39:05.86	47.81	11.91	-42.6	-43.4	18.3	0.00e+00	0	54	0	903872512	48	3847
2026-01-01 23:39:06.84	47.99	11.94	-42.7	-43.5	18.2	0.00e+00	0	54	0	909115392	48	3880
2026-01-01 23:39:07.83	48.16	11.98	-42.9	-43.8	17.9	0.00e+00	0	54	0	914358272	48	4009
2026-01-01 23:39:08.82	48.34	12.01	-42.8	-43.6	18.1	0.00e+00	0	54	0	919601152	48	3937
2026-01-01 23:39:09.80	48.51	12.05	-42.7	-43.4	18.2	0.00e+00	0	54	0	925892608	48	3868
2026-01-01 23:39:10.79	48.69	12.08	-42.6	-43.4	18.2	0.00e+00	0	54	0	931135488	48	3861
2026-01-01 23:39:11.79	48.87	12.11	-42.8	-43.6	18.1	0.00e+00	0	54	0	936378368	48	3928
2026-01-01 23:39:12.77	49.04	12.15	-42.8	-43.6	18.1	0.00e+00	0	54	0	942669824	48	3930
2026-01-01 23:39:13.76	49.22	12.18	-42.8	-43.7	18.0	0.00e+00	0	54	0	947912704	48	3963
2026-01-01 23:39:14.76	49.40	12.22	-42.8	-43.7	18.0	0.00e+00	0	54	0	953155584	48	3960
2026-01-01 23:39:15.75	49.58	12.25	-42.8	-43.6	18.0	0.00e+00	0	54	0	959447040	48	3952
2026-01-01 23:39:16.74	49.76	12.28	-42.9	-43.7	18.0	0.00e+00	0	54	0	964689920	48	3978
2026-01-01 23:39:17.72	49.93	12.32	-42.7	-43.5	18.1	0.00e+00	0	54	0	969932800	48	3888
2026-01-01 23:39:18.71	50.11	12.35	-42.5	-43.3	18.4	0.00e+00	0	54	0	975175680	48	3796
2026-01-01 23:39:19.71	50.29	12.38	-42.5	-43.2	18.4	0.00e+00	0	54	0	981467136	48	3764
2026-01-01 23:39:20.70	50.47	12.41	-42.3	-43.0	18.5	0.00e+00	0	54	0	986710016	47	3908
2026-01-01 23:39:21.69	50.66	12.45	-42.3	-43.0	18.5	0.00e+00	0	54	0	991952896	47	3913
2026-01-01 23:39:22.67	50.83	12.48	-42.3	-43.0	18.5	0.00e+00	0	55	0	998244352	47	3910
2026-01-01 23:39:23.66	51.02	12.51	-42.4	-43.2	18.3	0.00e+00	0	55	0	1003487232	47	3992
2026-01-01 23:39:24.64	51.20	12.54	-42.5	-43.2	18.3	0.00e+00	0	55	0	1008730112	47	4004
2026-01-01 23:39:25.63	51.38	12.57	-42.5	-43.3	18.2	0.00e+00	0	54	0	1013972992	47	4022
2026-01-01 23:39:26.62	51.56	12.60	-42.7	-43.6	18.0	0.00e+00	0	55	0	1020264448	47	4158
2026-01-01 23:39:27.61	51.74	12.63	-42.9	-43.7	17.8	0.00e+00	0	54	0	1025507328	47	4217
2026-01-01 23:39:28.59	51.93	12.67	-42.9	-43.7	17.8	0.00e+00	0	55	0	1030750208	47	4224
2026-01-01 23:39:29.57	52.11	12.70	-42.8	-43.6	17.9	0.00e+00	0	55	0	1037041664	47	4172
2026-01-01 23:39:30.56	52.29	12.73	-42.8	-43.7	17.8	0.00e+00	0	55	0	1042284544	47	4208
2026-01-01 23:39:31.55	52.48	12.76	-42.9	-43.7	17.8	0.00e+00	0	55	0	1047527424	47	4229
2026-01-01 23:39:32.55	52.66	12.79	-42.9	-43.7	17.9	0.00e+00	0	54	0	1053818880	47	4223
2026-01-01 23:39:33.53	52.85	12.82	-43.1	-43.9	17.6	0.00e+00	0	55	0	1059061760	47	4326
2026-01-01 23:39:34.52	53.03	12.84	-43.2	-44.1	17.6	0.00e+00	0	55	0	1064304640	48	4181
2026-01-01 23:39:35.51	53.22	12.87	-43.3	-44.1	17.6	0.00e+00	0	55	0	1070596096	48	4190
2026-01-01 23:39:36.50	53.40	12.90	-43.3	-44.1	17.6	0.00e+00	0	55	0	1075838976	48	4185
2026-01-01 23:39:37.49	53.59	12.93	-43.0	-43.8	17.9	0.00e+00	0	55	0	1081081856	48	4014
2026-01-01 23:39:38.48	53.78	12.96	-42.7	-43.5	18.2	0.00e+00	0	55	0	1086324736	48	3888
2026-01-01 23:39:39.48	53.97	12.99	-42.6	-43.4	18.3	0.00e+00	0	55	0	1092616192	48	3829
2026-01-01 23:39:40.47	54.15	13.02	-42.6	-43.4	18.3	0.00e+00	0	55	0	1097859072	48	3831
2026-01-01 23:39:41.46	54.34	13.04	-42.7	-43.4	18.2	0.00e+00	0	55	0	1103101952	48	3867
2026-01-01 23:39:42.45	54.53	13.07	-42.7	-43.5	18.2	0.00e+00	0	55	0	1109393408	48	3893
2026-01-01 23:39:43.43	54.72	13.10	-42.6	-43.4	18.3	0.00e+00	0	55	0	1114636288	48	3833
2026-01-01 23:39:44.41	54.91	13.13	-42.5	-43.3	18.4	0.00e+00	0	55	0	1119879168	48	3803
2026-01-01 23:39:45.39	55.09	13.15	-42.5	-43.2	18.5	0.00e+00	0	55	0	1126170624	48	3766
2026-01-01 23:39:46.38	55.28	13.18	-42.3	-43.1	18.4	0.00e+00	0	55	0	1131413504	47	3936
2026-01-01 23:39:47.37	55.47	13.20	-42.4	-43.1	18.4	0.00e+00	0	55	0	1136656384	47	3944
2026-01-01 23:39:48.36	55.66	13.23	-42.4	-43.2	18.4	0.00e+00	0	55	0	1142947840	47	3968
2026-01-01 23:39:49.34	55.85	13.26	-42.4	-43.2	18.3	0.00e+00	0	55	0	1148190720	47	3986
2026-01-01 23:39:50.34	56.04	13.28	-42.4	-43.2	18.3	0.00e+00	0	55	0	1153433600	47	3974
2026-01-01 23:39:51.33	56.24	13.31	-42.6	-43.4	18.2	0.00e+00	0	55	0	1158676480	47	4080
2026-01-01 23:39:52.32	56.43	13.33	-42.7	-43.5	18.0	0.00e+00	0	55	0	1164967936	47	4122
2026-01-01 23:39:53.30	56.62	13.36	-42.6	-43.4	18.1	0.00e+00	0	55	0	1170210816	47	4078
2026-01-01 23:39:54.29	56.81	13.38	-42.8	-43.7	17.9	0.00e+00	0	55	0	1175453696	47	4209
2026-01-01 23:39:55.28	57.00	13.40	-43.0	-43.8	17.8	0.00e+00	0	55	0	1181745152	47	4272
2026-01-01 23:39:56.27	57.20	13.43	-42.7	-43.5	18.0	0.00e+00	0	55	0	1186988032	47	4132
2026-01-01 23:39:57.25	57.39	13.45	-42.5	-43.3	18.3	0.00e+00	0	55	0	1192230912	47	4041
2026-01-01 23:39:58.24	57.58	13.47	-42.4	-43.2	18.4	0.00e+00	0	55	0	1198522368	47	3987
2026-01-01 23:39:59.24	57.78	13.50	-42.5	-43.3	18.3	0.00e+00	0	55	0	1203765248	47	4010
2026-01-01 23:40:00.23	57.97	13.52	-42.4	-43.3	18.3	0.00e+00	0	55	0	1209008128	47	4010
2026-01-01 23:40:01.21	58.16	13.54	-42.7	-43.5	18.1	0.00e+00	0	55	0	1214251008	47	4128
2026-01-01 23:40:02.20	58.36	13.56	-42.4	-43.2	18.4	0.00e+00	0	55	0	1220542464	47	3969
2026-01-01 23:40:03.19	58.55	13.59	-42.1	-42.8	18.6	0.00e+00	0	55	0	1225785344	47	3821
2026-01-01 23:40:04.17	58.75	13.61	-42.0	-42.7	18.8	0.00e+00	0	55	0	1231028224	47	3765
2026-01-01 23:40:05.17	58.94	13.63	-42.0	-42.7	18.8	0.00e+00	0	55	0	1237319680	47	3774
2026-01-01 23:40:06.16	59.14	13.65	-42.1	-42.9	18.7	0.00e+00	0	55	0	1242562560	47	3838
2026-01-01 23:40:07.15	59.34	13.67	-42.4	-43.1	18.4	0.00e+00	0	55	0	1247805440	47	3952
2026-01-01 23:40:08.14	59.53	13.69	-42.4	-43.2	18.4	0.00e+00	0	55	0	1254096896	47	4001
2026-01-01 23:40:09.13	59.73	13.71	-42.5	-43.3	18.3	0.00e+00	0	55	0	1259339776	47	4026
2026-01-01 23:40:10.12	59.93	13.73	-42.6	-43.4	18.2	0.00e+00	0	55	0	1264582656	47	4081
2026-01-01 23:40:11.11	60.12	13.75	-42.6	-43.4	18.2	0.00e+00	0	55	0	1270874112	47	4075
2026-01-01 23:40:12.09	60.32	13.77	-42.7	-43.5	18.1	0.00e+00	0	55	0	1276116992	47	4116
2026-01-01 23:40:13.08	60.52	13.79	-42.9	-43.8	17.8	0.00e+00	0	55	0	1281359872	47	4273
2026-01-01 23:40:14.07	60.71	13.81	-42.7	-43.5	18.0	0.00e+00	0	55	0	1286602752	47	4142
2026-01-01 23:40:15.06	60.91	13.83	-42.6	-43.4	18.2	0.00e+00	0	55	0	1292894208	47	4069
2026-01-01 23:40:16.06	61.11	13.84	-42.5	-43.3	18.2	0.00e+00	0	55	0	1298137088	47	4016
2026-01-01 23:40:17.05	61.31	13.86	-42.5	-43.4	18.2	0.00e+00	0	55	0	1303379968	47	4052
2026-01-01 23:40:18.04	61.51	13.88	-42.3	-43.1	18.4	0.00e+00	0	55	0	1309671424	47	3935
2026-01-01 23:40:19.03	61.71	13.90	-42.3	-43.1	18.5	0.00e+00	0	55	0	1314914304	47	3919
2026-01-01 23:40:20.03	61.91	13.91	-42.4	-43.2	18.4	0.00e+00	0	55	0	1320157184	47	3971
2026-01-01 23:40:21.01	62.11	13.93	-42.2	-43.0	18.5	0.00e+00	0	55	0	1326448640	47	3898
2026-01-01 23:40:22.01	62.31	13.95	-42.1	-42.9	18.7	0.00e+00	0	55	0	1331691520	47	3839
2026-01-01 23:40:23.00	62.51	13.96	-42.4	-43.2	18.4	0.00e+00	0	55	0	1336934400	47	3959
2026-01-01 23:40:23.98	62.71	13.98	-42.5	-43.3	18.3	0.00e+00	0	55	0	1342177280	47	4041
2026-01-01 23:40:24.97	62.91	13.99	-42.5	-43.3	18.4	0.00e+00	0	55	0	1348468736	47	4006
2026-01-01 23:40:25.95	63.11	14.01	-42.5	-43.3	18.3	0.00e+00	0	56	0	1353711616	47	4022
2026-01-01 23:40:26.94	63.31	14.02	-42.6	-43.4	18.2	0.00e+00	0	56	0	1360003072	47	4080
2026-01-01 23:40:27.93	63.51	14.04	-42.8	-43.6	18.0	0.00e+00	0	55	0	1365245952	47	4176
2026-01-01 23:40:28.91	63.71	14.05	-42.6	-43.4	18.2	0.00e+00	0	56	0	1370488832	47	4061
2026-01-01 23:40:29.89	63.91	14.06	-42.8	-43.6	17.9	0.00e+00	0	56	0	1375731712	47	4187
2026-01-01 23:40:30.88	64.11	14.08	-43.3	-44.2	17.6	0.00e+00	0	56	0	1380974592	48	4206
2026-01-01 23:40:31.87	64.31	14.09	-43.0	-43.8	17.9	0.00e+00	0	56	0	1387266048	48	4040
2026-01-01 23:40:32.86	64.51	14.10	-42.7	-43.5	18.2	0.00e+00	0	55	0	1392508928	48	3877
2026-01-01 23:40:33.86	64.72	14.12	-42.4	-43.2	18.5	0.00e+00	0	55	0	1398800384	48	3742
2026-01-01 23:40:34.85	64.92	14.13	-42.1	-42.8	18.8	0.00e+00	0	55	0	1404043264	47	3813
2026-01-01 23:40:35.84	65.12	14.14	-42.0	-42.8	18.8	0.00e+00	0	55	0	1409286144	47	3792
2026-01-01 23:40:36.84	65.32	14.15	-42.0	-42.8	18.8	0.00e+00	0	56	0	1414529024	47	3784
2026-01-01 23:40:37.82	65.53	14.16	-42.2	-42.9	18.6	0.00e+00	0	56	0	1420820480	47	3853
2026-01-01 23:40:38.82	65.73	14.17	-42.1	-42.8	18.7	0.00e+00	0	56	0	1426063360	47	3817
2026-01-01 23:40:39.80	65.93	14.19	-42.0	-42.7	18.9	0.00e+00	0	56	0	1432354816	47	3757
2026-01-01 23:40:40.78	66.13	14.20	-42.1	-42.8	18.7	0.00e+00	0	56	0	1437597696	47	3799
2026-01-01 23:40:41.78	66.34	14.21	-42.1	-42.9	18.8	0.00e+00	0	55	0	1442840576	47	3835
2026-01-01 23:40:42.77	66.54	14.21	-42.1	-42.9	18.6	0.00e+00	0	56	0	1448083456	47	3846
2026-01-01 23:40:43.75	66.74	14.22	-42.3	-43.1	18.5	0.00e+00	0	56	0	1454374912	47	3934
2026-01-01 23:40:44.73	66.94	14.23	-42.5	-43.3	18.3	0.00e+00	0	56	0	1459617792	47	4030
2026-01-01 23:40:45.73	67.15	14.24	-42.4	-43.2	18.3	0.00e+00	0	56	0	1464860672	47	3999
2026-01-01 23:40:46.72	67.35	14.25	-42.5	-43.3	18.3	0.00e+00	0	56	0	1471152128	47	4006
2026-01-01 23:40:47.71	67.56	14.26	-42.7	-43.5	18.1	0.00e+00	0	56	0	1476395008	47	4123
2026-01-01 23:40:48.71	67.76	14.27	-42.7	-43.5	18.1	0.00e+00	0	56	0	1481637888	47	4142
2026-01-01 23:40:49.70	67.97	14.27	-42.7	-43.6	18.0	0.00e+00	0	56	0	1487929344	47	4156
2026-01-01 23:40:50.69	68.17	14.28	-42.8	-43.7	18.0	0.00e+00	0	56	0	1493172224	47	4210
2026-01-01 23:40:51.68	68.38	14.29	-42.6	-43.4	18.1	0.00e+00	0	56	0	1498415104	47	4074
2026-01-01 23:40:52.67	68.58	14.29	-42.5	-43.3	18.3	0.00e+00	0	56	0	1503657984	47	4032
2026-01-01 23:40:53.66	68.79	14.30	-42.6	-43.4	18.2	0.00e+00	0	56	0	1509949440	47	4085
2026-01-01 23:40:54.65	68.99	14.30	-42.5	-43.3	18.3	0.00e+00	0	56	0	1515192320	47	4015
2026-01-01 23:40:55.64	69.20	14.31	-42.8	-43.6	18.1	0.00e+00	0	56	0	1521483776	47	4148
2026-01-01 23:40:56.63	69.40	14.31	-42.6	-43.4	18.2	0.00e+00	0	56	0	1526726656	47	4069
2026-01-01 23:40:57.62	69.61	14.32	-42.4	-43.1	18.5	0.00e+00	0	56	0	1531969536	47	3958
2026-01-01 23:40:58.61	69.81	14.32	-42.1	-42.8	18.7	0.00e+00	0	56	0	1537212416	47	3823
2026-01-01 23:40:59.60	70.02	14.33	-42.0	-42.8	18.8	0.00e+00	0	56	0	1543503872	47	3786
2026-01-01 23:41:00.59	70.22	14.33	-42.0	-42.7	18.9	0.00e+00	0	56	0	1548746752	46	3990
2026-01-01 23:41:01.58	70.43	14.33	-42.1	-42.9	18.7	0.00e+00	0	56	0	1553989632	46	4081
2026-01-01 23:41:02.57	70.63	14.34	-42.2	-42.9	18.7	0.00e+00	0	56	0	1560281088	46	4083
2026-01-01 23:41:03.57	70.84	14.34	-42.3	-43.0	18.5	0.00e+00	0	56	0	1565523968	46	4140
2026-01-01 23:41:04.56	71.04	14.34	-42.3	-43.0	18.5	0.00e+00	0	56	0	1570766848	46	4115
2026-01-01 23:41:05.55	71.25	14.34	-42.4	-43.1	18.5	0.00e+00	0	56	0	1577058304	46	4190
2026-01-01 23:41:06.54	71.45	14.34	-42.5	-43.3	18.3	0.00e+00	0	56	0	1582301184	46	4261
2026-01-01 23:41:07.53	71.66	14.35	-42.6	-43.4	18.2	0.00e+00	0	56	0	1587544064	47	4085
2026-01-01 23:41:08.52	71.86	14.35	-42.5	-43.3	18.2	0.00e+00	0	56	0	1592786944	47	4040
2026-01-01 23:41:09.51	72.07	14.35	-42.6	-43.4	18.2	0.00e+00	0	56	0	1599078400	47	4062
2026-01-01 23:41:10.50	72.27	14.35	-42.4	-43.2	18.3	0.00e+00	0	56	0	1604321280	47	3994
2026-01-01 23:41:11.50	72.48	14.35	-42.4	-43.2	18.3	0.00e+00	0	56	0	1610612736	47	4002
2026-01-01 23:41:12.48	72.69	14.35	-42.6	-43.4	18.2	0.00e+00	0	56	0	1615855616	47	4067
2026-01-01 23:41:13.47	72.89	14.35	-42.6	-43.4	18.2	0.00e+00	0	56	0	1621098496	47	4092
2026-01-01 23:41:14.47	73.10	14.34	-42.6	-43.4	18.2	0.00e+00	0	56	0	1626341376	47	4095
2026-01-01 23:41:15.46	73.30	14.34	-42.8	-43.7	17.9	0.00e+00	0	56	0	1632632832	47	4215
2026-01-01 23:41:16.45	73.51	14.34	-43.0	-43.9	17.9	0.00e+00	0	56	0	1637875712	48	4066
2026-01-01 23:41:17.44	73.71	14.34	-42.9	-43.7	18.1	0.00e+00	0	56	0	1643118592	48	3978
2026-01-01 23:41:18.43	73.92	14.34	-42.6	-43.5	18.3	0.00e+00	0	56	0	1649410048	48	3870
2026-01-01 23:41:19.42	74.12	14.33	-42.6	-43.4	18.4	0.00e+00	0	56	0	1654652928	48	3835
2026-01-01 23:41:20.41	74.33	14.33	-42.6	-43.4	18.4	0.00e+00	0	56	0	1659895808	48	3843
2026-01-01 23:41:21.39	74.53	14.33	-42.5	-43.3	18.5	0.00e+00	0	56	0	1666187264	48	3807
2026-01-01 23:41:22.39	74.74	14.32	-42.8	-43.6	18.1	0.00e+00	0	56	0	1671430144	48	3930
2026-01-01 23:41:23.37	74.94	14.32	-42.8	-43.6	18.2	0.00e+00	0	56	0	1676673024	48	3920
2026-01-01 23:41:24.37	75.15	14.31	-42.5	-43.3	18.5	0.00e+00	0	56	0	1681915904	48	3795
2026-01-01 23:41:25.35	75.35	14.31	-42.2	-43.0	18.6	0.00e+00	0	56	0	1688207360	47	3873
2026-01-01 23:41:26.35	75.56	14.30	-42.0	-42.8	18.8	0.00e+00	0	56	0	1693450240	47	3796
2026-01-01 23:41:27.34	75.76	14.30	-42.1	-42.8	18.7	0.00e+00	0	56	0	1698693120	47	3820
2026-01-01 23:41:28.32	75.97	14.29	-42.2	-43.0	18.6	0.00e+00	0	56	0	1704984576	47	3876
2026-01-01 23:41:29.31	76.17	14.29	-42.3	-43.1	18.5	0.00e+00	0	56	0	1710227456	47	3925
2026-01-01 23:41:30.29	76.37	14.28	-42.2	-43.0	18.7	0.00e+00	0	56	0	1715470336	47	3870
2026-01-01 23:41:31.27	76.58	14.27	-42.2	-42.9	18.6	0.00e+00	0	56	0	1721761792	47	3848
2026-01-01 23:41:32.26	76.78	14.27	-42.3	-43.0	18.5	0.00e+00	0	56	0	1727004672	47	3905
2026-01-01 23:41:33.24	76.98	14.26	-42.4	-43.2	18.4	0.00e+00	0	56	0	1732247552	47	3970
2026-01-01 23:41:34.24	77.19	14.25	-42.4	-43.2	18.4	0.00e+00	0	56	0	1737490432	47	3966
2026-01-01 23:41:35.22	77.39	14.24	-42.6	-43.4	18.2	0.00e+00	0	56	0	1743781888	47	4060
2026-01-01 23:41:36.21	77.60	14.23	-42.3	-43.1	18.5	0.00e+00	0	56	0	1749024768	47	3926
2026-01-01 23:41:37.20	77.80	14.22	-42.2	-43.0	18.7	0.00e+00	0	56	0	1754267648	47	3897
2026-01-01 23:41:38.19	78.00	14.22	-42.3	-43.1	18.6	0.00e+00	0	56	0	1760559104	47	3914
2026-01-01 23:41:39.18	78.21	14.21	-42.2	-43.0	18.6	0.00e+00	0	56	0	1765801984	47	3881
2026-01-01 23:41:40.17	78.41	14.20	-42.3	-43.1	18.5	0.00e+00	0	56	0	1771044864	47	3918
2026-01-01 23:41:41.15	78.61	14.19	-42.3	-43.1	18.5	0.00e+00	0	56	0	1777336320	47	3953
2026-01-01 23:41:42.15	78.82	14.17	-42.4	-43.2	18.5	0.00e+00	0	56	0	1782579200	47	3961
2026-01-01 23:41:43.13	79.02	14.16	-42.5	-43.3	18.2	0.00e+00	0	56	0	1787822080	47	4030
2026-01-01 23:41:44.12	79.22	14.15	-42.4	-43.2	18.4	0.00e+00	0	56	0	1793064960	47	3974
2026-01-01 23:41:45.11	79.42	14.14	-42.3	-43.0	18.5	0.00e+00	0	56	0	1799356416	47	3913
2026-01-01 23:41:46.10	79.63	14.13	-42.3	-43.0	18.5	0.00e+00	0	56	0	1804599296	47	3903
2026-01-01 23:41:47.07	79.82	14.12	-42.4	-43.2	18.4	0.00e+00	0	56	0	1809842176	47	3977
2026-01-01 23:41:48.06	80.03	14.11	-42.6	-43.4	18.2	0.00e+00	0	56	0	1816133632	47	4069
2026-01-01 23:41:49.06	80.23	14.09	-42.4	-43.2	18.4	0.00e+00	0	56	0	1821376512	47	3986
2026-01-01 23:41:50.04	80.43	14.08	-42.5	-43.3	18.3	0.00e+00	0	56	0	1826619392	47	4043
2026-01-01 23:41:51.04	80.64	14.07	-42.9	-43.7	17.9	0.00e+00	0	56	0	1831862272	47	4209
2026-01-01 23:41:52.02	80.83	14.05	-42.6	-43.4	18.2	0.00e+00	0	56	0	1838153728	47	4066
2026-01-01 23:41:53.02	81.04	14.04	-42.4	-43.1	18.4	0.00e+00	0	56	0	1843396608	47	3943
2026-01-01 23:41:54.00	81.24	14.02	-42.3	-43.1	18.6	0.00e+00	0	56	0	1849688064	47	3916
2026-01-01 23:41:54.99	81.44	14.01	-42.3	-43.1	18.5	0.00e+00	0	56	0	1854930944	47	3919
2026-01-01 23:41:55.99	81.64	13.99	-42.3	-43.1	18.4	0.00e+00	0	56	0	1860173824	47	3934
2026-01-01 23:41:56.98	81.84	13.98	-42.6	-43.4	18.2	0.00e+00	0	56	0	1865416704	47	4057
2026-01-01 23:41:57.97	82.04	13.96	-42.4	-43.2	18.4	0.00e+00	0	56	0	1871708160	47	3971
2026-01-01 23:41:58.96	82.24	13.95	-42.6	-43.4	18.2	0.00e+00	0	56	0	1876951040	47	4071
2026-01-01 23:41:59.95	82.44	13.93	-42.4	-43.2	18.4	0.00e+00	0	56	0	1882193920	47	3974
2026-01-01 23:42:00.93	82.64	13.91	-42.4	-43.2	18.4	0.00e+00	0	56	0	1888485376	47	3976
2026-01-01 23:42:01.93	82.84	13.90	-42.4	-43.1	18.4	0.00e+00	0	56	0	1893728256	47	3951
2026-01-01 23:42:02.92	83.04	13.88	-42.3	-43.1	18.4	0.00e+00	0	56	0	1898971136	47	3936
2026-01-01 23:42:03.90	83.24	13.86	-42.3	-43.1	18.5	0.00e+00	0	56	0	1905262592	47	3944
2026-01-01 23:42:04.88	83.44	13.84	-42.4	-43.2	18.5	0.00e+00	0	56	0	1910505472	47	3964
2026-01-01 23:42:05.87	83.64	13.83	-42.5	-43.2	18.3	0.00e+00	0	56	0	1915748352	47	3992
2026-01-01 23:42:06.86	83.83	13.81	-42.6	-43.4	18.2	0.00e+00	0	56	0	1920991232	47	4091
2026-01-01 23:42:07.86	84.03	13.79	-42.6	-43.4	18.1	0.00e+00	0	56	0	1927282688	47	4082
2026-01-01 23:42:08.84	84.23	13.77	-42.8	-43.6	18.0	0.00e+00	0	56	0	1932525568	47	4160
2026-01-01 23:42:09.83	84.43	13.75	-42.8	-43.6	18.0	0.00e+00	0	56	0	1937768448	47	4182
2026-01-01 23:42:10.82	84.63	13.73	-42.8	-43.7	17.9	0.00e+00	0	57	0	1944059904	47	4211
2026-01-01 23:42:11.80	84.82	13.71	-42.8	-43.7	17.9	0.00e+00	0	56	0	1949302784	47	4210
2026-01-01 23:42:12.79	85.02	13.69	-43.0	-43.9	17.7	0.00e+00	0	56	0	1954545664	47	4320
2026-01-01 23:42:13.77	85.21	13.67	-43.0	-43.8	18.0	0.00e+00	0	56	0	1959788544	48	4036
2026-01-01 23:42:14.76	85.41	13.65	-42.9	-43.8	17.9	0.00e+00	0	56	0	1966080000	48	4032
2026-01-01 23:42:15.74	85.60	13.63	-43.0	-43.9	17.9	0.00e+00	0	56	0	1971322880	48	4061
2026-01-01 23:42:16.73	85.80	13.61	-42.7	-43.6	18.0	0.00e+00	0	57	0	1976565760	48	3941
2026-01-01 23:42:17.72	86.00	13.59	-43.0	-43.9	17.7	0.00e+00	0	56	0	1982857216	48	4098
2026-01-01 23:42:18.70	86.19	13.57	-43.1	-44.0	17.6	0.00e+00	0	56	0	1988100096	48	4121
2026-01-01 23:42:19.69	86.38	13.54	-43.2	-44.1	17.7	0.00e+00	0	57	0	1993342976	48	4173
2026-01-01 23:42:20.68	86.58	13.52	-43.1	-44.0	17.7	0.00e+00	0	57	0	1999634432	48	4106
2026-01-01 23:42:21.67	86.77	13.50	-42.9	-43.7	18.0	0.00e+00	0	57	0	2004877312	48	3991
2026-01-01 23:42:22.66	86.97	13.47	-42.5	-43.3	18.3	0.00e+00	0	57	0	2010120192	48	3809
2026-01-01 23:42:23.64	87.16	13.45	-42.5	-43.4	18.2	0.00e+00	0	57	0	2015363072	47	4065
2026-01-01 23:42:24.63	87.35	13.43	-42.4	-43.2	18.3	0.00e+00	0	57	0	2021654528	47	3983
2026-01-01 23:42:25.62	87.55	13.40	-42.3	-43.1	18.2	0.00e+00	0	56	0	2026897408	47	3955
2026-01-01 23:42:26.61	87.74	13.38	-42.5	-43.3	18.1	0.00e+00	0	57	0	2032140288	47	4024
2026-01-01 23:42:27.60	87.93	13.36	-42.6	-43.4	18.1	0.00e+00	0	57	0	2038431744	47	4082
2026-01-01 23:42:28.58	88.12	13.33	-42.5	-43.4	18.0	0.00e+00	0	57	0	2043674624	47	4058
2026-01-01 23:42:29.57	88.32	13.31	-42.4	-43.2	18.2	0.00e+00	0	57	0	2048917504	47	3994
2026-01-01 23:42:30.54	88.50	13.28	-42.3	-43.1	18.3	0.00e+00	0	56	0	2055208960	47	3951
2026-01-01 23:42:31.52	88.69	13.26	-42.2	-43.0	18.5	0.00e+00	0	57	0	2060451840	47	3897
2026-01-01 23:42:32.52	88.89	13.23	-42.2	-43.0	18.4	0.00e+00	0	57	0	2065694720	47	3903
2026-01-01 23:42:33.51	89.08	13.20	-42.3	-43.2	18.3	0.00e+00	0	56	0	2070937600	47	3966
2026-01-01 23:42:34.49	89.27	13.18	-42.4	-43.3	18.1	0.00e+00	0	57	0	2077229056	47	4020
2026-01-01 23:42:35.49	89.46	13.15	-42.5	-43.3	18.1	0.00e+00	0	57	0	2082471936	47	4049
2026-01-01 23:42:36.48	89.65	13.12	-42.5	-43.3	18.0	0.00e+00	0	57	0	2087714816	47	4042
2026-01-01 23:42:37.46	89.84	13.10	-42.6	-43.5	18.0	0.00e+00	0	57	0	2094006272	47	4113
2026-01-01 23:42:38.44	90.02	13.07	-42.5	-43.4	18.0	0.00e+00	0	57	0	2099249152	47	4062
2026-01-01 23:42:39.43	90.21	13.04	-42.6	-43.5	18.1	0.00e+00	0	57	0	2104492032	47	4114
2026-01-01 23:42:40.42	90.40	13.02	-42.6	-43.5	18.0	0.00e+00	0	56	0	2109734912	47	4110
2026-01-01 23:42:41.40	90.59	12.99	-42.4	-43.3	18.2	0.00e+00	0	57	0	2116026368	47	4023
2026-01-01 23:42:42.40	90.78	12.96	-42.4	-43.3	18.2	0.00e+00	0	56	0	2121269248	47	4010
2026-01-01 23:42:43.40	90.97	12.93	-42.5	-43.4	18.1	0.00e+00	0	57	0	2127560704	47	4075
2026-01-01 23:42:44.39	91.15	12.90	-42.7	-43.6	17.9	0.00e+00	0	57	0	2132803584	47	4172
2026-01-01 23:42:45.38	91.34	12.87	-42.7	-43.6	17.9	0.00e+00	0	56	0	2138046464	47	4183
2026-01-01 23:42:46.37	91.53	12.84	-42.7	-43.6	17.8	0.00e+00	0	57	0	2143289344	47	4192
2026-01-01 23:42:47.36	91.71	12.81	-42.7	-43.6	17.8	0.00e+00	0	56	0	2149580800	47	4163
2026-01-01 23:42:48.35	91.90	12.78	-42.6	-43.5	18.0	0.00e+00	0	56	0	2154823680	47	4120
2026-01-01 23:42:49.34	92.09	12.75	-42.7	-43.6	17.9	0.00e+00	0	57	0	2160066560	47	4166
2026-01-01 23:42:50.33	92.27	12.72	-42.7	-43.6	17.8	0.00e+00	0	57	0	2166358016	47	4161
2026-01-01 23:42:51.32	92.46	12.69	-42.7	-43.6	17.9	0.00e+00	0	57	0	2171600896	47	4164
2026-01-01 23:42:52.31	92.64	12.66	-42.9	-43.8	17.7	0.00e+00	0	57	0	2176843776	47	4285
2026-01-01 23:42:53.29	92.82	12.63	-42.7	-43.7	17.8	0.00e+00	0	57	0	2182086656	47	4194
2026-01-01 23:42:54.27	93.00	12.60	-42.8	-43.7	17.8	0.00e+00	0	57	0	2188378112	47	4198
2026-01-01 23:42:55.27	93.19	12.57	-42.6	-43.5	17.9	0.00e+00	0	57	0	2193620992	47	4136
2026-01-01 23:42:56.25	93.37	12.54	-42.7	-43.6	17.9	0.00e+00	0	57	0	2198863872	47	4160
2026-01-01 23:42:57.25	93.55	12.51	-42.7	-43.6	17.9	0.00e+00	0	57	0	2205155328	47	4184
2026-01-01 23:42:58.24	93.74	12.47	-42.7	-43.6	17.8	0.00e+00	0	57	0	2210398208	47	4153
2026-01-01 23:42:59.22	93.92	12.44	-42.9	-43.9	17.7	0.00e+00	0	57	0	2215641088	47	4292
2026-01-01 23:43:00.22	94.10	12.41	-42.8	-43.7	17.8	0.00e+00	0	57	0	2221932544	47	4241
2026-01-01 23:43:01.20	94.28	12.38	-43.3	-44.2	17.4	0.00e+00	0	57	0	2227175424	48	4231
2026-01-01 23:43:02.19	94.46	12.34	-43.6	-44.6	17.1	0.00e+00	0	57	0	2232418304	49	4166
2026-01-01 23:43:03.19	94.64	12.31	-43.3	-44.2	17.4	0.00e+00	0	57	0	2238709760	49	3985
2026-01-01 23:43:04.17	94.82	12.28	-43.3	-44.2	17.4	0.00e+00	0	57	0	2243952640	49	3999
2026-01-01 23:43:05.16	95.00	12.24	-43.4	-44.3	17.3	0.00e+00	0	57	0	2249195520	49	4036
2026-01-01 23:43:06.15	95.18	12.21	-43.3	-44.3	17.4	0.00e+00	0	57	0	2255486976	49	4009
2026-01-01 23:43:07.13	95.35	12.18	-43.3	-44.3	17.4	0.00e+00	0	57	0	2260729856	49	4008
2026-01-01 23:43:08.12	95.53	12.14	-43.3	-44.3	17.4	0.00e+00	0	57	0	2265972736	49	4014
2026-01-01 23:43:09.11	95.71	12.11	-43.4	-44.4	17.2	0.00e+00	0	57	0	2271215616	49	4077
2026-01-01 23:43:10.11	95.89	12.07	-43.3	-44.3	17.4	0.00e+00	0	57	0	2277507072	49	4015
2026-01-01 23:43:11.10	96.07	12.04	-43.2	-44.1	17.5	0.00e+00	0	57	0	2282749952	49	3923
2026-01-01 23:43:12.08	96.24	12.00	-43.0	-43.9	17.7	0.00e+00	0	57	0	2287992832	49	3859
2026-01-01 23:43:13.07	96.42	11.97	-43.2	-44.1	17.6	0.00e+00	0	57	0	2294284288	49	3929
2026-01-01 23:43:14.07	96.59	11.93	-43.4	-44.3	17.3	0.00e+00	0	57	0	2299527168	49	4035
2026-01-01 23:43:15.06	96.77	11.90	-43.1	-44.0	17.7	0.00e+00	0	57	0	2304770048	49	3879
2026-01-01 23:43:16.05	96.95	11.86	-42.9	-43.8	17.8	0.00e+00	0	57	0	2311061504	49	3811
2026-01-01 23:43:17.04	97.12	11.83	-42.9	-43.8	17.8	0.00e+00	0	57	0	2316304384	48	4019
2026-01-01 23:43:18.04	97.30	11.79	-43.0	-43.9	17.7	0.00e+00	0	57	0	2321547264	48	4056
2026-01-01 23:43:19.02	97.47	11.75	-42.9	-43.7	17.9	0.00e+00	0	57	0	2327838720	48	4002
2026-01-01 23:43:20.02	97.64	11.72	-42.9	-43.8	17.8	0.00e+00	0	57	0	2333081600	48	4025
2026-01-01 23:43:21.01	97.82	11.68	-43.0	-43.9	17.7	0.00e+00	0	57	0	2338324480	48	4070
2026-01-01 23:43:22.00	97.99	11.64	-42.9	-43.8	17.8	0.00e+00	0	57	0	2344615936	48	4022
2026-01-01 23:43:22.99	98.16	11.61	-43.0	-43.9	17.6	0.00e+00	0	57	0	2349858816	48	4081
2026-01-01 23:43:23.97	98.33	11.57	-43.1	-44.0	17.7	0.00e+00	0	57	0	2355101696	48	4115
2026-01-01 23:43:24.95	98.50	11.53	-43.0	-43.9	17.6	0.00e+00	0	57	0	2360344576	48	4098
2026-01-01 23:43:25.94	98.67	11.50	-43.2	-44.1	17.5	0.00e+00	0	57	0	2366636032	48	4177
2026-01-01 23:43:26.93	98.84	11.46	-43.2	-44.1	17.5	0.00e+00	0	57	0	2371878912	48	4192
2026-01-01 23:43:27.92	99.01	11.42	-43.4	-44.3	17.3	0.00e+00	0	57	0	2377121792	48	4273
2026-01-01 23:43:28.89	99.18	11.38	-43.2	-44.1	17.5	0.00e+00	0	57	0	2383413248	48	4192
2026-01-01 23:43:29.89	99.35	11.35	-43.1	-43.9	17.6	0.00e+00	0	57	0	2388656128	48	4098
2026-01-01 23:43:30.87	99.52	11.31	-43.0	-43.9	17.7	0.00e+00	0	57	0	2393899008	48	4080
2026-01-01 23:43:31.86	99.68	11.27	-43.0	-43.9	17.7	0.00e+00	0	57	0	2399141888	48	4084
2026-01-01 23:43:32.85	99.85	11.23	-43.2	-44.1	17.5	0.00e+00	0	57	0	2405433344	48	4168
2026-01-01 23:43:33.84	100.02	11.19	-43.3	-44.2	17.3	0.00e+00	0	57	0	2410676224	48	4235
2026-01-01 23:43:34.83	100.19	11.15	-43.2	-44.2	17.5	0.00e+00	0	57	0	2415919104	48	4196
2026-01-01 23:43:35.82	100.35	11.11	-43.1	-44.0	17.6	0.00e+00	0	57	0	2422210560	48	4109
2026-01-01 23:43:36.82	100.52	11.07	-43.2	-44.1	17.5	0.00e+00	0	57	0	2427453440	48	4178
2026-01-01 23:43:37.80	100.68	11.04	-43.3	-44.3	17.3	0.00e+00	0	57	0	2432696320	48	4246
2026-01-01 23:43:38.79	100.85	11.00	-43.4	-44.4	17.2	0.00e+00	0	57	0	2438987776	48	4301
2026-01-01 23:43:39.78	101.01	10.96	-43.4	-44.4	17.2	0.00e+00	0	57	0	2444230656	48	4307
2026-01-01 23:43:40.77	101.18	10.92	-43.5	-44.5	17.1	0.00e+00	0	57	0	2449473536	49	4140
2026-01-01 23:43:41.76	101.34	10.88	-43.6	-44.5	17.1	0.00e+00	0	57	0	2455764992	49	4143
2026-01-01 23:43:42.74	101.51	10.84	-43.7	-44.7	16.9	0.00e+00	0	57	0	2461007872	49	4236
2026-01-01 23:43:43.73	101.67	10.80	-43.9	-44.9	16.7	0.00e+00	0	57	0	2466250752	49	4312
2026-01-01 23:43:44.71	101.83	10.76	-43.8	-44.8	16.8	0.00e+00	0	57	0	2471493632	49	4269
2026-01-01 23:43:45.70	101.99	10.72	-43.7	-44.7	17.0	0.00e+00	0	57	0	2477785088	49	4201
2026-01-01 23:43:46.69	102.15	10.68	-43.6	-44.5	17.1	0.00e+00	0	57	0	2483027968	49	4144
2026-01-01 23:43:47.69	102.32	10.63	-43.6	-44.6	17.0	0.00e+00	0	57	0	2488270848	49	4164
2026-01-01 23:43:48.68	102.48	10.59	-43.5	-44.5	17.1	0.00e+00	0	57	0	2494562304	49	4129
2026-01-01 23:43:49.66	102.64	10.55	-43.6	-44.5	17.1	0.00e+00	0	57	0	2499805184	49	4135
2026-01-01 23:43:50.66	102.80	10.51	-43.5	-44.4	17.1	0.00e+00	0	57	0	2505048064	49	4094
2026-01-01 23:43:51.65	102.96	10.47	-43.6	-44.6	17.0	0.00e+00	0	57	0	2511339520	49	4173
2026-01-01 23:43:52.65	103.12	10.43	-43.6	-44.6	17.0	0.00e+00	0	57	0	2516582400	49	4188
2026-01-01 23:43:53.64	103.28	10.39	-43.7	-44.7	16.9	0.00e+00	0	57	0	2521825280	49	4203
2026-01-01 23:43:54.63	103.44	10.35	-43.7	-44.7	16.9	0.00e+00	0	57	0	2527068160	49	4206
2026-01-01 23:43:55.62	103.59	10.30	-43.5	-44.5	17.0	0.00e+00	0	57	0	2533359616	49	4126
2026-01-01 23:43:56.61	103.75	10.26	-43.5	-44.5	17.1	0.00e+00	0	57	0	2538602496	49	4105
2026-01-01 23:43:57.59	103.91	10.22	-43.6	-44.6	17.0	0.00e+00	0	57	0	2544893952	49	4155
2026-01-01 23:43:58.58	104.06	10.18	-43.7	-44.7	16.9	0.00e+00	0	57	0	2550136832	49	4233
2026-01-01 23:43:59.58	104.22	10.14	-43.7	-44.7	16.9	0.00e+00	0	57	0	2555379712	49	4231
2026-01-01 23:44:00.56	104.38	10.09	-43.6	-44.6	17.0	0.00e+00	0	57	0	2560622592	49	4177
2026-01-01 23:44:01.55	104.53	10.05	-43.6	-44.6	17.0	0.00e+00	0	57	0	2566914048	49	4162
2026-01-01 23:44:02.54	104.69	10.01	-43.7	-44.7	16.8	0.00e+00	0	57	0	2572156928	49	4240
2026-01-01 23:44:03.53	104.84	9.97	-43.7	-44.7	16.9	0.00e+00	0	57	0	2577399808	49	4213
2026-01-01 23:44:04.52	104.99	9.92	-43.7	-44.7	16.9	0.00e+00	0	57	0	2583691264	49	4211
2026-01-01 23:44:05.51	105.15	9.88	-43.9	-44.9	16.7	0.00e+00	0	57	0	2588934144	49	4339
2026-01-01 23:44:06.50	105.30	9.84	-43.8	-44.9	16.7	0.00e+00	0	57	0	2594177024	49	4299
2026-01-01 23:44:07.49	105.45	9.79	-43.6	-44.6	16.9	0.00e+00	0	57	0	2600468480	49	4168
2026-01-01 23:44:08.48	105.61	9.75	-43.6	-44.6	16.9	0.00e+00	0	57	0	2605711360	49	4186
2026-01-01 23:44:09.47	105.76	9.71	-43.8	-44.9	16.7	0.00e+00	0	57	0	2610954240	49	4305
2026-01-01 23:44:10.46	105.91	9.66	-43.8	-44.8	16.7	0.00e+00	0	57	0	2617245696	49	4250
2026-01-01 23:44:11.45	106.06	9.62	-43.8	-44.8	16.8	0.00e+00	0	57	0	2622488576	49	4262
2026-01-01 23:44:12.44	106.21	9.58	-43.8	-44.8	16.8	0.00e+00	0	57	0	2627731456	49	4259
2026-01-01 23:44:13.43	106.36	9.53	-43.8	-44.8	16.8	0.00e+00	0	57	0	2632974336	49	4261
2026-01-01 23:44:14.42	106.51	9.49	-43.8	-44.8	16.8	0.00e+00	0	57	0	2639265792	49	4258
2026-01-01 23:44:15.40	106.66	9.45	-43.9	-44.9	16.6	0.00e+00	0	57	0	2644508672	49	4325
2026-01-01 23:44:16.39	106.81	9.40	-44.0	-45.1	16.5	0.00e+00	0	57	0	2649751552	49	4398
2026-01-01 23:44:17.38	106.96	9.36	-43.9	-45.0	16.6	0.00e+00	0	57	0	2656043008	49	4353
2026-01-01 23:44:18.37	107.10	9.31	-44.1	-45.2	16.4	0.00e+00	0	57	0	2661285888	50	4219
2026-01-01 23:44:19.37	107.25	9.27	-44.3	-45.4	16.2	0.00e+00	0	57	0	2666528768	50	4328
2026-01-01 23:44:20.36	107.40	9.23	-44.1	-45.2	16.4	0.00e+00	0	57	0	2672820224	50	4203
2026-01-01 23:44:21.34	107.55	9.18	-43.9	-45.0	16.6	0.00e+00	0	57	0	2678063104	50	4111
2026-01-01 23:44:22.33	107.69	9.14	-43.9	-45.0	16.6	0.00e+00	0	57	0	2683305984	50	4106
2026-01-01 23:44:23.32	107.84	9.09	-43.9	-45.0	16.5	0.00e+00	0	57	0	2688548864	50	4113
2026-01-01 23:44:24.32	107.99	9.05	-44.0	-45.0	16.5	0.00e+00	0	57	0	2694840320	50	4118
2026-01-01 23:44:25.30	108.13	9.00	-44.1	-45.1	16.4	0.00e+00	0	57	0	2700083200	50	4190
2026-01-01 23:44:26.29	108.27	8.96	-43.9	-44.9	16.5	0.00e+00	0	57	0	2706374656	50	4096
2026-01-01 23:44:27.28	108.42	8.91	-43.8	-44.8	16.7	0.00e+00	0	57	0	2711617536	50	4043
2026-01-01 23:44:28.27	108.56	8.87	-43.7	-44.7	16.8	0.00e+00	0	57	0	2716860416	50	3992
2026-01-01 23:44:29.24	108.70	8.82	-43.9	-44.9	16.6	0.00e+00	0	57	0	2722103296	50	4081
2026-01-01 23:44:30.23	108.84	8.78	-43.8	-44.9	16.7	0.00e+00	0	57	0	2727346176	50	4059
2026-01-01 23:44:31.20	108.98	8.73	-44.0	-45.1	16.4	0.00e+00	0	57	0	2733637632	50	4170
2026-01-01 23:44:32.20	109.13	8.69	-44.2	-45.3	16.2	0.00e+00	0	57	0	2738880512	50	4252
2026-01-01 23:44:33.18	109.27	8.64	-44.1	-45.1	16.4	0.00e+00	0	57	0	2744123392	50	4184
2026-01-01 23:44:34.17	109.41	8.60	-44.3	-45.3	16.2	0.00e+00	0	57	0	2750414848	50	4284
2026-01-01 23:44:35.16	109.55	8.55	-44.5	-45.6	15.9	0.00e+00	0	57	0	2755657728	50	4434
2026-01-01 23:44:36.13	109.69	8.51	-44.3	-45.3	16.2	0.00e+00	0	57	0	2760900608	50	4285
2026-01-01 23:44:37.12	109.83	8.46	-44.0	-45.1	16.4	0.00e+00	0	57	0	2766143488	50	4158
2026-01-01 23:44:38.10	109.97	8.42	-44.0	-45.1	16.4	0.00e+00	0	57	0	2772434944	50	4155
2026-01-01 23:44:39.10	110.11	8.37	-44.0	-45.0	16.4	0.00e+00	0	57	0	2777677824	50	4140
2026-01-01 23:44:40.08	110.24	8.33	-44.1	-45.1	16.4	0.00e+00	0	57	0	2782920704	50	4191
2026-01-01 23:44:41.06	110.38	8.28	-44.1	-45.2	16.3	0.00e+00	0	57	0	2789212160	50	4230
2026-01-01 23:44:42.05	110.52	8.24	-44.3	-45.4	16.1	0.00e+00	0	57	0	2794455040	50	4322
2026-01-01 23:44:43.04	110.66	8.19	-44.1	-45.2	16.2	0.00e+00	0	57	0	2799697920	50	4226
2026-01-01 23:44:44.04	110.79	8.14	-44.1	-45.1	16.3	0.00e+00	0	57	0	2804940800	50	4192
2026-01-01 23:44:45.02	110.93	8.10	-44.1	-45.2	16.3	0.00e+00	0	57	0	2811232256	50	4210
2026-01-01 23:44:46.02	111.07	8.05	-44.2	-45.4	16.1	0.00e+00	0	57	0	2816475136	50	4292
2026-01-01 23:44:47.00	111.20	8.01	-44.3	-45.4	16.1	0.00e+00	0	57	0	2822766592	50	4333
2026-01-01 23:44:47.99	111.34	7.96	-44.2	-45.3	16.2	0.00e+00	0	57	0	2828009472	50	4270
2026-01-01 23:44:48.98	111.47	7.91	-44.2	-45.3	16.1	0.00e+00	0	57	0	2833252352	50	4258
2026-01-01 23:44:49.97	111.61	7.87	-44.2	-45.3	16.2	0.00e+00	0	57	0	2838495232	50	4272
2026-01-01 23:44:50.97	111.74	7.82	-44.3	-45.4	16.0	0.00e+00	0	57	0	2844786688	50	4336
2026-01-01 23:44:51.96	111.87	7.77	-44.2	-45.3	16.1	0.00e+00	0	57	0	2850029568	50	4268
2026-01-01 23:44:52.95	112.01	7.73	-44.4	-45.6	15.9	0.00e+00	0	57	0	2856321024	50	4397
2026-01-01 23:44:53.95	112.14	7.68	-44.3	-45.4	16.0	0.00e+00	0	57	0	2861563904	50	4333
2026-01-01 23:44:54.93	112.27	7.63	-44.2	-45.3	16.2	0.00e+00	0	57	0	2866806784	50	4246
2026-01-01 23:44:55.92	112.41	7.59	-44.1	-45.2	16.2	0.00e+00	0	57	0	2872049664	50	4230
2026-01-01 23:44:56.92	112.54	7.54	-44.2	-45.3	16.2	0.00e+00	0	57	0	2878341120	50	4252
2026-01-01 23:44:57.91	112.67	7.49	-44.4	-45.5	16.0	0.00e+00	0	57	0	2883584000	50	4371
2026-01-01 23:44:58.90	112.80	7.45	-44.5	-45.6	15.8	0.00e+00	0	57	0	2888826880	50	4437
2026-01-01 23:44:59.89	112.93	7.40	-44.4	-45.5	15.9	0.00e+00	0	57	0	2895118336	50	4390
2026-01-01 23:45:00.87	113.06	7.35	-44.4	-45.6	15.9	0.00e+00	0	57	0	2900361216	50	4398
2026-01-01 23:45:01.87	113.19	7.31	-44.6	-45.8	15.7	0.00e+00	0	57	0	2905604096	50	4513
2026-01-01 23:45:02.86	113.32	7.26	-44.4	-45.6	15.9	0.00e+00	0	57	0	2911895552	51	4168
2026-01-01 23:45:03.85	113.45	7.21	-44.3	-45.5	16.0	0.00e+00	0	57	0	2917138432	51	4101
2026-01-01 23:45:04.85	113.58	7.17	-44.4	-45.6	15.9	0.00e+00	0	57	0	2922381312	51	4147
2026-01-01 23:45:05.84	113.71	7.12	-44.6	-45.8	15.6	0.00e+00	0	57	0	2928672768	51	4270
2026-01-01 23:45:06.84	113.84	7.07	-44.5	-45.6	15.8	0.00e+00	0	57	0	2933915648	51	4188
2026-01-01 23:45:07.83	113.96	7.03	-44.3	-45.5	15.9	0.00e+00	0	57	0	2939158528	51	4102
2026-01-01 23:45:08.82	114.09	6.98	-44.3	-45.4	16.0	0.00e+00	0	57	0	2945449984	51	4083
2026-01-01 23:45:09.81	114.22	6.93	-44.4	-45.5	15.9	0.00e+00	0	57	0	2950692864	51	4132
2026-01-01 23:45:10.80	114.34	6.88	-44.4	-45.6	15.8	0.00e+00	0	57	0	2955935744	51	4169
2026-01-01 23:45:11.79	114.47	6.84	-44.6	-45.8	15.6	0.00e+00	0	57	0	2962227200	51	4275
2026-01-01 23:45:12.79	114.60	6.79	-44.6	-45.8	15.6	0.00e+00	0	57	0	2967470080	51	4251
2026-01-01 23:45:13.78	114.72	6.74	-44.5	-45.7	15.7	0.00e+00	0	57	0	2972712960	51	4210
2026-01-01 23:45:14.77	114.84	6.69	-44.6	-45.8	15.6	1.10e-06	0	57	0	2977955840	51	4275
2026-01-01 23:45:15.76	114.97	6.65	-44.8	-46.0	15.4	0.00e+00	0	57	0	2984247296	51	4366
2026-01-01 23:45:16.75	115.09	6.60	-44.8	-46.1	15.3	0.00e+00	0	57	0	2989490176	51	4398
2026-01-01 23:45:17.74	115.22	6.55	-44.7	-45.9	15.5	0.00e+00	0	57	0	2995781632	51	4323
2026-01-01 23:45:18.73	115.34	6.51	-44.6	-45.8	15.6	0.00e+00	0	57	0	3001024512	51	4269
2026-01-01 23:45:19.71	115.46	6.46	-44.6	-45.8	15.5	0.00e+00	0	57	0	3006267392	51	4285
2026-01-01 23:45:20.70	115.58	6.41	-44.6	-45.9	15.5	0.00e+00	0	57	0	3011510272	51	4299
2026-01-01 23:45:21.69	115.70	6.36	-44.7	-45.9	15.4	0.00e+00	0	57	0	3017801728	51	4337
2026-01-01 23:45:22.67	115.82	6.32	-44.7	-45.9	15.4	0.00e+00	0	57	0	3023044608	51	4338
2026-01-01 23:45:23.67	115.95	6.27	-44.9	-46.2	15.2	0.00e+00	0	57	0	3028287488	51	4463
2026-01-01 23:45:24.65	116.07	6.22	-44.9	-46.2	15.2	0.00e+00	0	57	0	3034578944	51	4465
2026-01-01 23:45:25.64	116.19	6.17	-45.1	-46.4	15.0	0.00e+00	0	57	0	3039821824	51	4567
2026-01-01 23:45:26.62	116.31	6.13	-45.0	-46.3	14.9	0.00e+00	0	57	0	3045064704	52	4269
2026-01-01 23:45:27.61	116.43	6.08	-44.9	-46.2	15.0	0.00e+00	0	57	0	3050307584	52	4239
2026-01-01 23:45:28.60	116.54	6.03	-44.9	-46.2	15.0	1.10e-06	0	57	0	3056599040	52	4219
2026-01-01 23:45:29.59	116.66	5.99	-44.9	-46.2	15.0	1.10e-06	0	57	0	3061841920	52	4237
2026-01-01 23:45:30.57	116.78	5.94	-45.0	-46.3	14.9	0.00e+00	0	57	0	3067084800	52	4279
2026-01-01 23:45:31.55	116.90	5.89	-45.0	-46.4	14.8	0.00e+00	0	57	0	3073376256	52	4308
2026-01-01 23:45:32.54	117.02	5.84	-45.0	-46.4	14.8	3.40e-06	0	57	0	3078619136	52	4310
2026-01-01 23:45:33.53	117.13	5.80	-44.9	-46.3	15.0	0.00e+00	0	57	0	3083862016	52	4251
2026-01-01 23:45:34.52	117.25	5.75	-45.0	-46.3	14.9	0.00e+00	0	57	0	3089104896	52	4272
2026-01-01 23:45:35.51	117.37	5.70	-45.0	-46.3	14.9	0.00e+00	0	57	0	3095396352	52	4250
2026-01-01 23:45:36.51	117.48	5.65	-45.2	-46.5	14.7	0.00e+00	0	57	0	3100639232	52	4378
2026-01-01 23:45:37.50	117.60	5.61	-45.2	-46.5	14.7	0.00e+00	0	57	0	3105882112	52	4368
2026-01-01 23:45:38.49	117.72	5.56	-45.0	-46.4	14.8	1.10e-06	0	57	0	3112173568	52	4293
2026-01-01 23:45:39.48	117.83	5.51	-45.0	-46.3	14.8	0.00e+00	0	57	0	3117416448	52	4275
2026-01-01 23:45:40.47	117.95	5.46	-45.1	-46.4	14.7	0.00e+00	0	57	0	3122659328	52	4336
2026-01-01 23:45:41.46	118.06	5.41	-45.1	-46.5	14.7	0.00e+00	0	57	0	3128950784	52	4355
2026-01-01 23:45:42.46	118.18	5.37	-45.0	-46.3	14.8	0.00e+00	0	57	0	3134193664	52	4276
2026-01-01 23:45:43.44	118.29	5.32	-45.0	-46.3	14.8	0.00e+00	0	57	0	3139436544	52	4268
2026-01-01 23:45:44.43	118.40	5.27	-45.0	-46.4	14.7	0.00e+00	0	57	0	3145728000	52	4311
2026-01-01 23:45:45.42	118.51	5.22	-45.0	-46.4	14.8	1.10e-06	0	57	0	3150970880	52	4301
2026-01-01 23:45:46.41	118.63	5.18	-45.0	-46.4	14.8	0.00e+00	0	57	0	3156213760	52	4309
2026-01-01 23:45:47.40	118.74	5.13	-44.9	-46.3	14.8	1.10e-06	0	57	0	3162505216	52	4279
2026-01-01 23:45:48.39	118.85	5.08	-45.0	-46.4	14.7	1.10e-06	0	57	0	3167748096	52	4331
2026-01-01 23:45:49.38	118.96	5.03	-45.1	-46.5	14.7	0.00e+00	0	57	0	3172990976	52	4352
2026-01-01 23:45:50.37	119.07	4.99	-51.3	-61.1	3.8	4.87e-02	0	57	104	3177185280	64	11806
2026-01-01 23:45:51.36	119.19	4.94	-51.6	-62.5	3.8	8.46e-01	0	57	104	3177185280	65	13002
2026-01-01 23:45:52.35	119.30	4.89	-51.9	-62.7	3.8	8.46e-01	0	57	104	3177185280	65	13283
2026-01-01 23:45:53.34	119.41	4.84	-52.0	-62.8	3.8	8.46e-01	0	57	104	3177185280	65	13423
2026-01-01 23:45:54.33	119.52	4.80	-52.2	-62.9	3.8	8.46e-01	0	57	104	3177185280	66	12852
2026-01-01 23:45:55.31	119.63	4.75	-52.2	-63.0	3.8	8.47e-01	0	57	104	3177185280	66	12961
2026-01-01 23:45:56.31	119.74	4.70	-52.2	-63.0	3.8	8.46e-01	0	57	104	3177185280	66	13049
2026-01-01 23:45:57.30	119.84	4.65	-52.2	-63.0	3.8	8.44e-01	0	57	104	3177185280	66	13097
2026-01-01 23:45:58.29	119.95	4.60	-52.2	-63.1	3.8	8.47e-01	0	57	104	3177185280	66	13124
2026-01-01 23:45:59.27	120.06	4.56	-52.0	-63.0	3.8	8.46e-01	0	57	104	3177185280	66	13020
2026-01-01 23:46:00.26	120.17	4.51	-52.3	-63.1	3.8	8.46e-01	0	57	104	3177185280	66	13175
2026-01-01 23:46:01.26	120.28	4.46	-52.4	-63.1	3.8	8.46e-01	0	57	104	3177185280	66	13234
2026-01-01 23:46:02.25	120.38	4.41	-52.4	-63.2	3.8	8.47e-01	0	57	104	3177185280	66	13276
2026-01-01 23:46:03.24	120.49	4.37	-52.4	-63.2	3.8	8.46e-01	0	57	104	3177185280	66	13269
2026-01-01 23:46:04.22	120.60	4.32	-52.4	-63.2	3.8	8.45e-01	0	57	104	3177185280	66	13318
2026-01-01 23:46:05.20	120.70	4.27	-52.4	-63.2	3.8	8.46e-01	0	57	104	3177185280	66	13330
2026-01-01 23:46:06.19	120.81	4.22	-52.5	-63.2	3.8	8.47e-01	0	57	104	3177185280	66	13394
2026-01-01 23:46:07.18	120.91	4.18	-52.4	-63.3	3.8	8.46e-01	0	57	104	3177185280	66	13449
2026-01-01 23:46:08.17	121.02	4.13	-52.5	-63.2	3.8	8.46e-01	0	57	104	3177185280	66	13404
2026-01-01 23:46:09.16	121.12	4.08	-52.6	-63.3	3.8	8.46e-01	0	57	104	3177185280	66	13443
2026-01-01 23:46:10.14	121.23	4.03	-52.5	-63.3	3.8	8.47e-01	0	57	104	3177185280	66	13464
2026-01-01 23:46:11.14	121.33	3.99	-52.6	-63.3	3.8	8.46e-01	0	57	104	3177185280	66	13509
2026-01-01 23:46:12.12	121.43	3.94	-52.5	-63.3	3.8	8.46e-01	0	57	104	3177185280	66	13528
2026-01-01 23:46:13.11	121.54	3.89	-52.5	-63.3	3.8	8.47e-01	0	57	104	3177185280	66	13514
2026-01-01 23:46:14.09	121.64	3.84	-52.6	-63.3	3.8	8.47e-01	0	57	104	3177185280	66	13506
2026-01-01 23:46:15.08	121.74	3.80	-52.6	-63.3	3.8	8.45e-01	0	57	104	3177185280	67	12723
2026-01-01 23:46:16.07	121.85	3.75	-52.6	-63.3	3.8	8.46e-01	0	57	104	3177185280	67	12725
2026-01-01 23:46:17.05	121.95	3.70	-52.5	-63.3	3.8	8.47e-01	0	57	104	3177185280	67	12717
2026-01-01 23:46:18.04	122.05	3.65	-52.5	-63.3	3.8	8.46e-01	0	57	104	3177185280	67	12734
2026-01-01 23:46:19.03	122.15	3.61	-52.6	-63.3	3.8	8.46e-01	0	57	104	3177185280	66	13466
2026-01-01 23:46:20.02	122.25	3.56	-52.5	-63.3	3.8	8.45e-01	0	57	104	3177185280	66	13432
2026-01-01 23:46:21.02	122.36	3.51	-52.5	-63.3	3.8	8.45e-01	0	58	104	3177185280	66	13428
2026-01-01 23:46:22.01	122.46	3.46	-52.5	-63.3	3.8	8.47e-01	0	57	104	3177185280	66	13471
2026-01-01 23:46:23.00	122.56	3.42	-52.6	-63.3	3.8	8.45e-01	0	57	104	3177185280	66	13440
2026-01-01 23:46:23.99	122.66	3.37	-52.5	-63.3	3.8	8.46e-01	0	57	104	3177185280	66	13447
2026-01-01 23:46:24.97	122.76	3.32	-52.5	-63.3	3.8	8.46e-01	0	57	104	3177185280	66	13429
2026-01-01 23:46:25.97	122.86	3.27	-52.5	-63.3	3.8	8.46e-01	0	57	104	3177185280	66	13422
2026-01-01 23:46:26.96	122.96	3.23	-52.5	-63.3	3.8	8.46e-01	0	57	104	3177185280	66	13443
2026-01-01 23:46:27.95	123.05	3.18	-52.5	-63.3	3.8	8.46e-01	0	57	104	3177185280	66	13477
2026-01-01 23:46:28.94	123.15	3.13	-52.6	-63.3	3.8	8.46e-01	0	57	104	3177185280	66	13441
2026-01-01 23:46:29.93	123.25	3.08	-52.4	-63.3	3.8	8.45e-01	0	57	104	3177185280	66	13419
2026-01-01 23:46:30.91	123.35	3.04	-52.5	-63.3	3.8	8.47e-01	0	57	104	3177185280	66	13418
2026-01-01 23:46:31.91	123.45	2.99	-52.5	-63.3	3.8	8.47e-01	0	57	104	3177185280	66	13513

#Closed at: 2026-01-01 23:46:32
#Recorded file [3177 MB]: D:/Data/31026_260102_024550.dat