passes_logs/2026/01/01/R3.0SM8_Murmansk_STILSPACE/R3.0SM8_Murmansk_STILSPACE__20260101_000410_NOAA_21_JPSS-2_rec.log

#Pass ID: 20260101_000410_NOAA 21 (JPSS-2)
#Satellite: NOAA 21 (JPSS-2)
#Configuration: NOAA-21
#almurnet v.1.7.20240730
#Start time: 2026-01-01 00:07:52

#Version: 2.2.20231116
#Station: R3.0SM8_Murmansk_STILSPACE
#Location: 33.092731 lon 68.902999 lat
#TLE: 1 54234U 22150A   25365.42224288  .00000199  00000+0  11529-3 0  9990
#TLE: 2 54234  98.7483 301.4995 0001320 356.2106   3.9060 14.19530300162743

#Time	Az	El	Level	Level2	SNR	BER	BlckErr	Temp	State	Recorded	gain1	gain2
2026-01-01 00:07:52.31	31.35	24.18	-54.8	-74.6	3.8	7.45e-01	0	62	0	0	71	38227
2026-01-01 00:07:53.29	31.43	24.32	-53.2	-64.6	3.8	1.49e+00	0	62	104	0	69	13213
2026-01-01 00:07:54.27	31.50	24.47	-53.2	-64.6	3.8	1.49e+00	0	62	104	0	69	13153
2026-01-01 00:07:55.26	31.58	24.62	-53.2	-64.6	3.8	1.49e+00	0	62	104	0	69	13220
2026-01-01 00:07:56.26	31.65	24.77	-53.2	-64.6	3.8	1.49e+00	0	62	104	0	69	13184
2026-01-01 00:07:57.25	31.73	24.92	-53.2	-64.6	3.8	1.49e+00	0	62	104	0	69	13201
2026-01-01 00:07:58.24	31.81	25.07	-53.1	-64.6	3.8	1.49e+00	0	62	104	0	69	13212
2026-01-01 00:07:59.23	31.89	25.22	-53.1	-64.6	3.8	1.49e+00	0	62	104	0	69	13223
2026-01-01 00:08:00.23	31.97	25.37	-53.1	-64.6	3.8	1.49e+00	0	62	104	0	69	13258
2026-01-01 00:08:01.22	32.05	25.53	-53.2	-64.6	3.8	1.49e+00	0	62	104	0	69	13210
2026-01-01 00:08:02.21	32.13	25.68	-53.1	-64.6	3.8	1.49e+00	0	62	104	0	69	13238
2026-01-01 00:08:03.21	32.21	25.84	-53.1	-64.6	3.8	1.49e+00	0	62	104	0	69	13224
2026-01-01 00:08:04.20	32.29	25.99	-53.1	-64.6	3.8	1.49e+00	0	62	104	0	68	13951
2026-01-01 00:08:05.20	32.38	26.15	-53.1	-64.6	3.8	1.49e+00	0	62	104	0	68	13943
2026-01-01 00:08:06.19	32.46	26.31	-53.1	-64.6	3.8	1.49e+00	0	62	104	0	68	13963
2026-01-01 00:08:07.19	32.55	26.47	-52.9	-64.6	3.8	1.49e+00	0	62	104	0	68	13969
2026-01-01 00:08:08.19	32.63	26.63	-53.1	-64.6	3.8	1.49e+00	0	62	104	0	68	13915
2026-01-01 00:08:09.19	32.72	26.79	-52.9	-64.5	3.8	1.49e+00	0	62	104	0	68	13880
2026-01-01 00:08:10.18	32.81	26.95	-53.0	-64.5	3.8	1.49e+00	0	62	104	0	68	13858
2026-01-01 00:08:11.18	32.89	27.12	-52.8	-64.5	3.8	1.49e+00	0	62	104	0	68	13839
2026-01-01 00:08:12.18	32.98	27.28	-53.0	-64.5	3.8	1.49e+00	0	62	104	0	68	13817
2026-01-01 00:08:13.17	33.07	27.45	-53.0	-64.4	3.8	1.49e+00	0	62	104	0	68	13676
2026-01-01 00:08:14.16	33.16	27.61	-52.8	-64.4	3.8	1.49e+00	0	62	104	0	68	13709
2026-01-01 00:08:15.15	33.26	27.78	-53.0	-64.5	3.8	1.49e+00	0	62	104	0	68	13735
2026-01-01 00:08:16.14	33.35	27.94	-53.0	-64.5	3.8	1.49e+00	0	62	104	0	68	13743
2026-01-01 00:08:17.12	33.44	28.11	-52.9	-64.4	3.8	1.49e+00	0	62	104	0	68	13691
2026-01-01 00:08:18.11	33.53	28.28	-52.8	-64.5	3.8	1.49e+00	0	62	104	0	68	13757
2026-01-01 00:08:19.11	33.63	28.45	-52.9	-64.4	3.8	1.49e+00	0	62	104	0	68	13720
2026-01-01 00:08:20.10	33.73	28.62	-52.8	-64.4	3.8	1.49e+00	0	62	104	0	68	13720
2026-01-01 00:08:21.11	33.83	28.79	-53.0	-64.4	3.8	1.49e+00	0	62	104	0	68	13659
2026-01-01 00:08:22.11	33.92	28.97	-53.0	-64.4	3.8	1.49e+00	0	62	104	0	68	13660
2026-01-01 00:08:23.10	34.02	29.14	-53.0	-64.3	3.8	1.49e+00	0	62	104	0	68	13509
2026-01-01 00:08:24.08	34.12	29.31	-53.0	-64.1	3.8	1.49e+00	0	62	104	0	68	13209
2026-01-01 00:08:25.06	34.22	29.49	-53.0	-64.1	3.8	1.49e+00	0	62	104	0	68	13149
2026-01-01 00:08:26.05	34.32	29.66	-53.0	-64.1	3.8	1.49e+00	0	62	104	0	68	13173
2026-01-01 00:08:27.03	34.43	29.84	-53.0	-64.1	3.8	1.49e+00	0	62	104	0	68	13195
2026-01-01 00:08:28.02	34.53	30.02	-53.0	-64.2	3.8	1.49e+00	0	62	104	0	68	13268
2026-01-01 00:08:29.01	34.64	30.20	-53.0	-64.3	3.8	1.49e+00	0	62	104	0	68	13496
2026-01-01 00:08:30.00	34.74	30.38	-53.0	-64.4	3.8	1.49e+00	0	62	104	0	68	13608
2026-01-01 00:08:30.98	34.85	30.56	-53.0	-64.4	3.8	1.49e+00	0	62	104	0	68	13600
2026-01-01 00:08:31.96	34.96	30.74	-53.0	-64.2	3.8	1.49e+00	0	62	104	0	68	13357
2026-01-01 00:08:32.95	35.07	30.92	-53.0	-63.8	3.8	1.49e+00	0	62	104	0	68	12737
2026-01-01 00:08:33.93	35.18	31.11	-52.9	-63.2	3.8	1.49e+00	0	62	104	0	68	11831
2026-01-01 00:08:34.91	35.29	31.29	-52.8	-62.3	3.9	1.49e+00	0	62	104	0	68	10680
2026-01-01 00:08:35.89	35.40	31.47	-52.7	-61.9	3.9	1.48e+00	0	62	104	0	68	10179
2026-01-01 00:08:36.86	35.51	31.66	-52.0	-58.2	5.4	6.87e-01	0	62	0	0	67	7045
2026-01-01 00:08:37.83	35.63	31.84	-50.6	-54.2	8.8	1.02e-01	0	62	0	3145728	64	5332
2026-01-01 00:08:38.80	35.74	32.03	-49.2	-51.6	11.7	1.78e-03	0	62	0	6291456	61	4665
2026-01-01 00:08:39.76	35.86	32.21	-48.2	-49.9	13.4	3.20e-05	0	62	0	9437184	59	4335
2026-01-01 00:08:40.73	35.98	32.40	-47.3	-48.8	14.5	7.00e-07	0	62	0	12582912	57	4256
2026-01-01 00:08:41.69	36.09	32.59	-46.7	-47.9	15.4	1.50e-06	0	62	0	15728640	56	4091
2026-01-01 00:08:42.66	36.21	32.78	-45.9	-47.0	16.2	0.00e+00	0	62	0	17825792	55	3881
2026-01-01 00:08:43.62	36.33	32.97	-45.3	-46.3	16.9	0.00e+00	0	62	0	20971520	53	4016
2026-01-01 00:08:44.60	36.46	33.16	-45.2	-46.2	17.0	0.00e+00	0	62	0	24117248	53	3959
2026-01-01 00:08:45.57	36.58	33.36	-45.4	-46.4	16.8	0.00e+00	0	62	0	27262976	53	4064
2026-01-01 00:08:46.53	36.71	33.55	-45.7	-46.7	16.4	0.00e+00	0	62	0	30408704	53	4232
2026-01-01 00:08:47.50	36.84	33.75	-45.6	-46.6	16.6	0.00e+00	0	62	0	33554432	53	4171
2026-01-01 00:08:48.47	36.96	33.94	-45.5	-46.5	16.6	0.00e+00	0	62	0	36700160	53	4145
2026-01-01 00:08:49.44	37.10	34.14	-45.6	-46.7	16.5	0.00e+00	0	62	0	39845888	53	4210
2026-01-01 00:08:50.40	37.23	34.34	-45.4	-46.5	16.7	0.00e+00	0	62	0	41943040	53	4101
2026-01-01 00:08:51.38	37.36	34.54	-45.6	-46.6	16.6	0.00e+00	0	62	0	45088768	53	4167
2026-01-01 00:08:52.35	37.50	34.74	-45.9	-47.1	16.1	0.00e+00	0	62	0	48234496	53	4404
2026-01-01 00:08:53.32	37.63	34.94	-46.1	-47.3	15.9	0.00e+00	0	62	0	51380224	54	4256
2026-01-01 00:08:54.29	37.77	35.15	-46.2	-47.4	15.8	0.00e+00	0	62	0	54525952	54	4323
2026-01-01 00:08:55.26	37.91	35.35	-46.4	-47.6	15.6	0.00e+00	0	62	0	57671680	54	4435
2026-01-01 00:08:56.23	38.05	35.56	-46.6	-47.8	15.4	0.00e+00	0	62	0	60817408	54	4528
2026-01-01 00:08:57.20	38.20	35.77	-46.6	-47.9	15.3	0.00e+00	0	62	0	63963136	55	4308
2026-01-01 00:08:58.17	38.34	35.97	-46.7	-47.9	15.3	0.00e+00	0	62	0	67108864	55	4335
2026-01-01 00:08:59.14	38.49	36.18	-46.6	-47.9	15.3	0.00e+00	0	62	0	70254592	55	4305
2026-01-01 00:09:00.11	38.64	36.39	-46.6	-47.8	15.4	0.00e+00	0	62	0	72351744	55	4280
2026-01-01 00:09:01.09	38.79	36.61	-46.8	-48.1	15.1	0.00e+00	0	62	0	75497472	55	4405
2026-01-01 00:09:02.06	38.94	36.82	-47.0	-48.4	14.8	0.00e+00	0	62	0	78643200	55	4582
2026-01-01 00:09:03.02	39.10	37.03	-46.9	-48.2	15.0	0.00e+00	0	62	0	81788928	55	4481
2026-01-01 00:09:03.99	39.25	37.25	-47.3	-48.7	14.6	0.00e+00	0	62	0	84934656	56	4477
2026-01-01 00:09:04.96	39.41	37.47	-47.1	-48.5	14.9	0.00e+00	0	62	0	88080384	56	4362
2026-01-01 00:09:05.93	39.57	37.68	-47.1	-48.5	14.8	0.00e+00	0	62	0	91226112	56	4379
2026-01-01 00:09:06.90	39.74	37.90	-47.2	-48.7	14.7	0.00e+00	0	62	0	94371840	56	4466
2026-01-01 00:09:07.87	39.90	38.12	-47.4	-48.9	14.4	7.00e-07	0	62	0	97517568	56	4593
2026-01-01 00:09:08.84	40.07	38.34	-47.3	-48.9	14.5	1.50e-06	0	62	0	99614720	56	4554
2026-01-01 00:09:09.81	40.24	38.57	-47.4	-48.9	14.5	7.00e-07	0	62	0	102760448	56	4548
2026-01-01 00:09:10.78	40.41	38.79	-47.6	-49.1	14.2	3.00e-06	0	62	0	105906176	57	4441
2026-01-01 00:09:11.75	40.59	39.01	-47.8	-49.4	13.9	3.80e-06	0	62	0	109051904	57	4567
2026-01-01 00:09:12.71	40.76	39.24	-47.6	-49.2	14.1	5.30e-06	0	62	0	112197632	57	4476
2026-01-01 00:09:13.68	40.94	39.46	-47.3	-48.8	14.5	2.20e-06	0	62	0	115343360	57	4266
2026-01-01 00:09:14.65	41.12	39.69	-47.1	-48.5	14.9	7.00e-07	0	62	0	118489088	57	4109
2026-01-01 00:09:15.61	41.30	39.92	-46.9	-48.2	15.1	0.00e+00	0	62	0	121634816	56	4235
2026-01-01 00:09:16.58	41.49	40.15	-46.9	-48.3	15.1	0.00e+00	0	62	0	124780544	56	4247
2026-01-01 00:09:17.54	41.68	40.38	-46.9	-48.3	15.1	7.00e-07	0	62	0	126877696	56	4255
2026-01-01 00:09:18.51	41.87	40.61	-46.8	-48.1	15.2	0.00e+00	0	62	0	130023424	56	4149
2026-01-01 00:09:19.47	42.06	40.85	-46.8	-48.1	15.2	0.00e+00	0	62	0	133169152	56	4181
2026-01-01 00:09:20.44	42.26	41.08	-46.8	-48.1	15.2	0.00e+00	0	62	0	136314880	56	4174
2026-01-01 00:09:21.41	42.46	41.32	-46.9	-48.2	15.2	0.00e+00	0	62	0	139460608	56	4211
2026-01-01 00:09:22.37	42.66	41.55	-46.9	-48.3	15.1	7.00e-07	0	62	0	142606336	56	4264
2026-01-01 00:09:23.34	42.87	41.79	-46.9	-48.2	15.2	0.00e+00	0	62	0	145752064	56	4206
2026-01-01 00:09:24.32	43.08	42.03	-46.9	-48.2	15.2	0.00e+00	0	62	0	148897792	56	4222
2026-01-01 00:09:25.29	43.29	42.28	-47.1	-48.5	14.8	7.00e-07	0	62	0	150994944	56	4370
2026-01-01 00:09:26.26	43.50	42.52	-47.0	-48.3	15.1	0.00e+00	0	62	0	154140672	56	4261
2026-01-01 00:09:27.23	43.72	42.76	-47.0	-48.4	15.0	0.00e+00	0	62	0	157286400	56	4295
2026-01-01 00:09:28.19	43.94	43.00	-47.0	-48.3	15.1	0.00e+00	0	62	0	160432128	56	4272
2026-01-01 00:09:29.16	44.17	43.25	-47.2	-48.6	14.8	0.00e+00	0	62	0	163577856	56	4420
2026-01-01 00:09:30.13	44.40	43.50	-47.2	-48.7	14.7	0.00e+00	0	62	0	166723584	56	4473
2026-01-01 00:09:31.10	44.63	43.75	-47.4	-49.0	14.4	1.50e-06	0	62	0	169869312	56	4612
2026-01-01 00:09:32.06	44.86	43.99	-47.5	-49.1	14.3	0.00e+00	0	62	0	173015040	57	4393
2026-01-01 00:09:33.03	45.10	44.24	-47.4	-48.9	14.5	1.50e-06	0	62	0	176160768	57	4317
2026-01-01 00:09:33.99	45.34	44.49	-47.5	-49.0	14.3	7.00e-07	0	62	0	178257920	57	4388
2026-01-01 00:09:34.95	45.58	44.74	-47.6	-49.1	14.2	2.20e-06	0	62	0	181403648	57	4412
2026-01-01 00:09:35.92	45.83	44.99	-47.7	-49.2	14.1	3.00e-06	0	62	0	184549376	57	4492
2026-01-01 00:09:36.89	46.09	45.25	-47.3	-48.7	14.6	0.00e+00	0	62	0	187695104	57	4214
2026-01-01 00:09:37.85	46.34	45.50	-47.5	-49.0	14.4	0.00e+00	0	62	0	190840832	57	4384
2026-01-01 00:09:38.83	46.61	45.76	-47.6	-49.1	14.2	7.00e-07	0	62	0	193986560	57	4413
2026-01-01 00:09:39.80	46.88	46.02	-47.9	-49.6	13.8	2.20e-06	0	62	0	197132288	57	4671
2026-01-01 00:09:40.76	47.14	46.27	-48.2	-50.0	13.4	1.75e-05	0	62	0	200278016	58	4645
2026-01-01 00:09:41.74	47.42	46.54	-48.4	-50.2	13.2	2.13e-05	0	62	0	202375168	58	4721
2026-01-01 00:09:42.70	47.70	46.79	-48.1	-49.9	13.5	1.75e-05	0	62	0	205520896	58	4564
2026-01-01 00:09:43.67	47.98	47.06	-47.6	-49.1	14.2	7.00e-07	0	62	0	208666624	58	4189
2026-01-01 00:09:44.64	48.27	47.32	-47.4	-48.9	14.5	7.00e-07	0	62	0	211812352	57	4325
2026-01-01 00:09:45.61	48.57	47.58	-47.2	-48.6	14.8	0.00e+00	0	62	0	214958080	57	4191
2026-01-01 00:09:46.58	48.87	47.84	-47.0	-48.4	15.0	7.00e-07	0	62	0	218103808	57	4067
2026-01-01 00:09:47.54	49.17	48.11	-46.9	-48.2	15.2	0.00e+00	0	62	0	221249536	56	4236
2026-01-01 00:09:48.51	49.48	48.37	-46.9	-48.3	15.1	0.00e+00	0	62	0	224395264	56	4251
2026-01-01 00:09:49.48	49.79	48.64	-46.7	-48.0	15.4	0.00e+00	0	62	0	227540992	56	4126
2026-01-01 00:09:50.44	50.11	48.90	-46.7	-48.0	15.4	0.00e+00	0	62	0	229638144	56	4143
2026-01-01 00:09:51.42	50.44	49.17	-47.0	-48.4	15.1	0.00e+00	0	62	0	232783872	56	4301
2026-01-01 00:09:52.39	50.77	49.44	-47.3	-48.8	14.6	0.00e+00	0	62	0	235929600	56	4540
2026-01-01 00:09:53.36	51.11	49.71	-47.3	-48.9	14.4	0.00e+00	0	62	0	239075328	56	4583
2026-01-01 00:09:54.33	51.45	49.98	-47.4	-48.9	14.5	0.00e+00	0	62	0	242221056	56	4586
2026-01-01 00:09:55.29	51.80	50.24	-47.0	-48.4	14.9	0.00e+00	0	62	0	245366784	56	4326
2026-01-01 00:09:56.27	52.16	50.52	-46.7	-48.1	15.3	0.00e+00	0	62	0	248512512	56	4149
2026-01-01 00:09:57.24	52.52	50.79	-46.8	-48.1	15.2	0.00e+00	0	62	0	251658240	56	4183
2026-01-01 00:09:58.21	52.88	51.06	-47.0	-48.4	15.0	0.00e+00	0	62	0	254803968	56	4300
2026-01-01 00:09:59.18	53.26	51.33	-46.7	-48.0	15.4	0.00e+00	0	62	0	256901120	56	4105
2026-01-01 00:10:00.14	53.64	51.60	-46.6	-47.9	15.4	0.00e+00	0	62	0	260046848	56	4093
2026-01-01 00:10:01.11	54.03	51.87	-46.6	-47.8	15.6	0.00e+00	0	62	0	263192576	56	4047
2026-01-01 00:10:02.08	54.42	52.14	-46.9	-48.2	15.2	0.00e+00	0	62	0	266338304	56	4224
2026-01-01 00:10:03.04	54.82	52.41	-46.4	-47.6	15.8	0.00e+00	0	62	0	269484032	56	3947
2026-01-01 00:10:04.01	55.23	52.69	-46.1	-47.3	15.9	0.00e+00	0	62	0	272629760	55	4022
2026-01-01 00:10:04.98	55.65	52.96	-45.9	-47.0	16.3	0.00e+00	0	62	0	275775488	55	3906
2026-01-01 00:10:05.94	56.07	53.23	-45.8	-46.9	16.4	0.00e+00	0	62	0	278921216	54	4056
2026-01-01 00:10:06.91	56.50	53.50	-45.7	-46.7	16.5	0.00e+00	0	62	0	281018368	54	3995
2026-01-01 00:10:07.88	56.94	53.77	-45.3	-46.2	17.0	0.00e+00	0	62	0	284164096	53	3999
2026-01-01 00:10:08.85	57.39	54.04	-45.2	-46.1	17.1	0.00e+00	0	62	0	287309824	53	3952
2026-01-01 00:10:09.82	57.85	54.31	-45.3	-46.3	16.9	0.00e+00	0	62	0	290455552	53	4028
2026-01-01 00:10:10.79	58.32	54.59	-45.6	-46.7	16.6	0.00e+00	0	62	0	293601280	53	4200
2026-01-01 00:10:11.76	58.80	54.86	-45.4	-46.5	16.8	0.00e+00	0	62	0	296747008	53	4103
2026-01-01 00:10:12.73	59.28	55.13	-45.2	-46.1	17.1	0.00e+00	0	62	0	299892736	53	3948
2026-01-01 00:10:13.70	59.77	55.40	-44.8	-45.8	17.4	0.00e+00	0	62	0	303038464	52	4006
2026-01-01 00:10:14.67	60.28	55.66	-44.5	-45.3	17.9	0.00e+00	0	62	0	306184192	52	3820
2026-01-01 00:10:15.64	60.79	55.93	-44.5	-45.3	17.9	0.00e+00	0	62	0	309329920	51	4036
2026-01-01 00:10:16.63	61.33	56.20	-44.7	-45.5	17.8	0.00e+00	0	62	0	312475648	51	4140
2026-01-01 00:10:17.61	61.86	56.47	-44.6	-45.5	17.8	0.00e+00	0	62	0	314572800	51	4119
2026-01-01 00:10:18.57	62.40	56.73	-44.5	-45.4	17.9	0.00e+00	0	62	0	317718528	51	4073
2026-01-01 00:10:19.54	62.96	57.00	-44.4	-45.2	18.0	0.00e+00	0	62	0	320864256	51	3997
2026-01-01 00:10:20.51	63.52	57.26	-44.3	-45.1	18.2	0.00e+00	0	62	0	324009984	51	3926
2026-01-01 00:10:21.47	64.09	57.52	-44.3	-45.1	18.1	0.00e+00	0	62	0	327155712	51	3956
2026-01-01 00:10:22.44	64.68	57.78	-44.3	-45.1	18.1	0.00e+00	0	62	0	330301440	51	3919
2026-01-01 00:10:23.40	65.27	58.03	-44.0	-44.8	18.4	0.00e+00	0	62	0	333447168	51	3815
2026-01-01 00:10:24.37	65.88	58.29	-43.7	-44.5	18.8	0.00e+00	0	62	0	336592896	50	3869
2026-01-01 00:10:25.34	66.50	58.54	-43.5	-44.2	19.0	0.00e+00	0	62	0	338690048	50	3763
2026-01-01 00:10:26.31	67.13	58.79	-43.7	-44.5	18.8	0.00e+00	0	62	0	341835776	50	3871
2026-01-01 00:10:27.27	67.77	59.04	-44.1	-44.9	18.4	0.00e+00	0	62	0	344981504	50	4074
2026-01-01 00:10:28.24	68.43	59.29	-44.2	-45.0	18.4	0.00e+00	0	62	0	348127232	50	4111
2026-01-01 00:10:29.21	69.09	59.53	-44.4	-45.2	18.1	0.00e+00	0	62	0	351272960	50	4233
2026-01-01 00:10:30.18	69.78	59.77	-43.7	-44.5	18.8	0.00e+00	0	62	0	354418688	50	3897
2026-01-01 00:10:31.15	70.47	60.01	-43.3	-44.0	19.2	0.00e+00	0	62	0	357564416	49	3879
2026-01-01 00:10:32.11	71.17	60.25	-43.2	-43.9	19.2	0.00e+00	0	62	0	360710144	49	3856
2026-01-01 00:10:33.08	71.89	60.48	-43.2	-43.9	19.3	0.00e+00	0	62	0	363855872	49	3859
2026-01-01 00:10:34.05	72.62	60.71	-43.3	-43.9	19.3	0.00e+00	0	62	0	365953024	49	3859
2026-01-01 00:10:35.02	73.37	60.94	-43.4	-44.1	19.1	0.00e+00	0	62	0	369098752	49	3952
2026-01-01 00:10:35.99	74.13	61.16	-43.5	-44.3	18.9	0.00e+00	0	62	0	372244480	49	4012
2026-01-01 00:10:36.96	74.90	61.38	-43.7	-44.5	18.7	0.00e+00	0	62	0	375390208	49	4111
2026-01-01 00:10:37.93	75.69	61.60	-43.3	-44.0	19.2	0.00e+00	0	62	0	378535936	49	3892
2026-01-01 00:10:38.90	76.49	61.81	-43.0	-43.7	19.5	0.00e+00	0	62	0	381681664	49	3747
2026-01-01 00:10:39.86	77.30	62.01	-43.2	-43.9	19.3	0.00e+00	0	62	0	384827392	49	3839
2026-01-01 00:10:40.83	78.13	62.22	-43.2	-43.9	19.2	0.00e+00	0	62	0	387973120	49	3856
2026-01-01 00:10:41.80	78.97	62.42	-43.3	-44.0	19.1	0.00e+00	0	62	0	390070272	49	3872
2026-01-01 00:10:42.77	79.82	62.61	-43.2	-43.9	19.2	0.00e+00	0	62	0	393216000	49	3861
2026-01-01 00:10:43.73	80.68	62.80	-43.4	-44.1	19.1	0.00e+00	0	62	0	396361728	49	3916
2026-01-01 00:10:44.70	81.57	62.98	-43.6	-44.3	18.9	0.00e+00	0	62	0	399507456	49	4047
2026-01-01 00:10:45.67	82.46	63.16	-43.4	-44.1	19.0	0.00e+00	0	62	0	402653184	49	3954
2026-01-01 00:10:46.64	83.37	63.34	-43.4	-44.1	19.1	0.00e+00	0	62	0	405798912	49	3922
2026-01-01 00:10:47.61	84.30	63.50	-43.9	-44.6	18.6	0.00e+00	0	62	0	408944640	49	4178
2026-01-01 00:10:48.58	85.23	63.67	-44.3	-45.1	18.2	0.00e+00	0	62	0	412090368	50	4175
2026-01-01 00:10:49.55	86.18	63.82	-44.2	-45.1	18.2	0.00e+00	0	62	0	415236096	50	4146
2026-01-01 00:10:50.51	87.13	63.97	-43.7	-44.5	18.7	0.00e+00	0	62	0	417333248	50	3889
2026-01-01 00:10:51.48	88.11	64.12	-43.5	-44.2	18.9	0.00e+00	0	62	0	420478976	50	3756
2026-01-01 00:10:52.45	89.09	64.25	-43.7	-44.5	18.7	0.00e+00	0	62	0	423624704	50	3895
2026-01-01 00:10:53.42	90.09	64.39	-43.7	-44.5	18.8	0.00e+00	0	62	0	426770432	50	3879
2026-01-01 00:10:54.39	91.10	64.51	-43.6	-44.4	18.9	0.00e+00	0	62	0	429916160	50	3829
2026-01-01 00:10:55.35	92.10	64.63	-43.7	-44.4	18.9	0.00e+00	0	62	0	433061888	50	3834
2026-01-01 00:10:56.32	93.13	64.74	-43.6	-44.4	18.8	0.00e+00	0	62	0	436207616	50	3830
2026-01-01 00:10:57.29	94.17	64.84	-43.5	-44.2	18.9	0.00e+00	0	62	0	439353344	50	3779
2026-01-01 00:10:58.26	95.22	64.94	-43.6	-44.3	18.9	0.00e+00	0	62	0	441450496	50	3807
2026-01-01 00:10:59.23	96.28	65.03	-43.2	-43.9	19.3	0.00e+00	0	62	0	444596224	49	3826
2026-01-01 00:11:00.19	97.33	65.11	-43.3	-44.0	19.2	0.00e+00	0	62	0	447741952	49	3884
2026-01-01 00:11:01.16	98.40	65.18	-43.5	-44.2	18.9	0.00e+00	0	62	0	450887680	49	3996
2026-01-01 00:11:02.13	99.48	65.25	-43.9	-44.7	18.5	0.00e+00	0	62	0	454033408	49	4212
2026-01-01 00:11:03.10	100.57	65.31	-43.4	-44.1	19.1	0.00e+00	0	62	0	457179136	49	3921
2026-01-01 00:11:04.06	101.64	65.36	-42.9	-43.5	19.6	0.00e+00	0	62	0	460324864	48	3909
2026-01-01 00:11:05.03	102.74	65.40	-43.1	-43.8	19.4	0.00e+00	0	62	0	463470592	48	4041
2026-01-01 00:11:06.00	103.84	65.43	-43.3	-44.0	19.2	0.00e+00	0	62	0	466616320	48	4103
2026-01-01 00:11:06.97	104.94	65.46	-43.2	-43.9	19.2	0.00e+00	0	62	0	469762048	48	4083
2026-01-01 00:11:07.94	106.04	65.48	-43.5	-44.2	19.0	0.00e+00	0	62	0	471859200	48	4223
2026-01-01 00:11:08.91	107.15	65.49	-43.3	-44.0	19.1	0.00e+00	0	62	0	475004928	48	4135
2026-01-01 00:11:09.87	108.24	65.49	-43.2	-43.9	19.2	0.00e+00	0	62	0	478150656	48	4084
2026-01-01 00:11:10.84	109.35	65.48	-43.6	-44.3	18.9	0.00e+00	0	62	0	481296384	49	4032
2026-01-01 00:11:11.81	110.45	65.47	-43.8	-44.5	18.6	0.00e+00	0	62	0	484442112	49	4143
2026-01-01 00:11:12.78	111.55	65.45	-44.4	-45.2	18.1	0.00e+00	0	62	0	487587840	50	4219
2026-01-01 00:11:13.75	112.65	65.42	-44.4	-45.2	18.0	0.00e+00	0	62	0	490733568	50	4240
2026-01-01 00:11:14.72	113.75	65.38	-44.0	-44.8	18.5	0.00e+00	0	62	0	493879296	50	4025
2026-01-01 00:11:15.69	114.84	65.33	-43.5	-44.2	19.0	0.00e+00	0	62	0	495976448	50	3756
2026-01-01 00:11:16.65	115.92	65.28	-43.2	-43.8	19.4	0.00e+00	0	62	0	499122176	49	3812
2026-01-01 00:11:17.62	117.00	65.21	-43.3	-43.9	19.2	0.00e+00	0	62	0	502267904	49	3868
2026-01-01 00:11:18.59	118.08	65.14	-43.6	-44.3	18.8	0.00e+00	0	62	0	505413632	49	4041
2026-01-01 00:11:19.57	119.16	65.07	-44.1	-44.9	18.4	0.00e+00	0	62	0	508559360	50	4095
2026-01-01 00:11:20.54	120.22	64.98	-44.1	-44.9	18.3	0.00e+00	0	62	0	511705088	50	4087
2026-01-01 00:11:21.50	121.26	64.89	-43.5	-44.2	19.0	0.00e+00	0	62	0	514850816	50	3747
2026-01-01 00:11:22.48	122.31	64.79	-43.1	-43.8	19.3	0.00e+00	0	62	0	517996544	49	3820
2026-01-01 00:11:23.44	123.34	64.68	-43.4	-44.1	19.1	0.00e+00	0	62	0	521142272	49	3916
2026-01-01 00:11:24.41	124.36	64.57	-43.8	-44.6	18.5	0.00e+00	0	62	0	523239424	49	4160
2026-01-01 00:11:25.38	125.37	64.44	-44.0	-44.7	18.4	0.00e+00	0	62	0	526385152	49	4241
2026-01-01 00:11:26.35	126.38	64.32	-43.7	-44.5	18.6	0.00e+00	0	62	0	529530880	49	4104
2026-01-01 00:11:27.32	127.37	64.18	-43.5	-44.2	18.8	0.00e+00	0	62	0	532676608	49	3980
2026-01-01 00:11:28.29	128.35	64.04	-43.5	-44.2	19.0	0.00e+00	0	62	0	535822336	49	3997
2026-01-01 00:11:29.25	129.31	63.89	-43.3	-44.0	19.1	0.00e+00	0	62	0	538968064	49	3902
2026-01-01 00:11:30.22	130.26	63.74	-43.2	-43.9	19.1	0.00e+00	0	62	0	542113792	49	3855
2026-01-01 00:11:31.19	131.20	63.58	-43.8	-44.5	18.7	0.00e+00	0	62	0	545259520	49	4129
2026-01-01 00:11:32.15	132.12	63.41	-43.9	-44.7	18.5	0.00e+00	0	62	0	548405248	49	4211
2026-01-01 00:11:33.12	133.04	63.24	-43.9	-44.7	18.5	0.00e+00	0	62	0	550502400	49	4200
2026-01-01 00:11:34.08	133.93	63.07	-43.0	-43.6	19.4	0.00e+00	0	62	0	553648128	49	3726
2026-01-01 00:11:35.05	134.82	62.89	-42.8	-43.5	19.6	0.00e+00	0	62	0	556793856	48	3888
2026-01-01 00:11:36.02	135.70	62.70	-43.7	-44.4	18.9	0.00e+00	0	62	0	559939584	49	4075
2026-01-01 00:11:37.00	136.57	62.50	-44.0	-44.9	18.3	0.00e+00	0	62	0	563085312	49	4292
2026-01-01 00:11:37.97	137.42	62.31	-44.6	-45.4	17.9	0.00e+00	0	62	0	566231040	50	4311
2026-01-01 00:11:38.93	138.25	62.11	-44.6	-45.5	17.7	0.00e+00	0	62	0	569376768	51	4113
2026-01-01 00:11:39.90	139.07	61.90	-44.2	-45.0	18.2	0.00e+00	0	62	0	572522496	51	3907
2026-01-01 00:11:40.86	139.87	61.69	-43.6	-44.3	18.9	0.00e+00	0	62	0	574619648	50	3794
2026-01-01 00:11:41.83	140.66	61.48	-43.3	-43.9	19.2	0.00e+00	0	62	0	577765376	49	3867
2026-01-01 00:11:42.80	141.44	61.26	-44.0	-44.7	18.5	0.00e+00	0	62	0	580911104	49	4228
2026-01-01 00:11:43.76	142.20	61.04	-45.0	-45.8	17.4	0.00e+00	0	62	0	584056832	51	4286
2026-01-01 00:11:44.73	142.96	60.81	-45.8	-47.0	16.3	0.00e+00	0	62	0	587202560	53	4353
2026-01-01 00:11:45.69	143.69	60.59	-45.9	-47.0	16.2	0.00e+00	0	62	0	590348288	53	4382
2026-01-01 00:11:46.66	144.42	60.36	-45.5	-46.5	16.7	0.00e+00	0	62	0	593494016	53	4142
2026-01-01 00:11:47.62	145.13	60.12	-45.5	-46.5	16.7	0.00e+00	0	62	0	596639744	53	4104
2026-01-01 00:11:48.59	145.83	59.88	-46.0	-47.1	16.1	0.00e+00	0	62	0	599785472	53	4435
2026-01-01 00:11:49.56	146.52	59.64	-46.3	-47.4	15.9	0.00e+00	0	62	0	601882624	54	4325
2026-01-01 00:11:50.53	147.19	59.40	-46.3	-47.5	15.7	0.00e+00	0	62	0	605028352	54	4377
2026-01-01 00:11:51.50	147.85	59.15	-47.3	-48.8	14.6	0.00e+00	0	62	0	608174080	56	4495
2026-01-01 00:11:52.47	148.51	58.90	-47.8	-49.4	14.0	1.50e-06	0	62	0	611319808	57	4572
2026-01-01 00:11:53.44	149.14	58.65	-46.7	-48.0	15.3	0.00e+00	0	62	0	614465536	56	4125
2026-01-01 00:11:54.41	149.77	58.40	-45.4	-46.4	16.8	0.00e+00	0	62	0	617611264	54	3838
2026-01-01 00:11:55.38	150.39	58.14	-44.8	-45.7	17.4	0.00e+00	0	62	0	620756992	52	3990
2026-01-01 00:11:56.34	150.98	57.89	-44.6	-45.5	17.8	0.00e+00	0	62	0	623902720	52	3873
2026-01-01 00:11:57.31	151.58	57.63	-45.0	-45.9	17.3	0.00e+00	0	62	0	625999872	52	4076
2026-01-01 00:11:58.28	152.16	57.37	-45.6	-46.7	16.5	0.00e+00	0	62	0	629145600	53	4211
2026-01-01 00:11:59.24	152.72	57.11	-46.0	-47.2	16.0	0.00e+00	0	62	0	632291328	53	4465
2026-01-01 00:12:00.22	153.29	56.84	-46.2	-47.5	15.9	0.00e+00	0	62	0	635437056	54	4342
2026-01-01 00:12:01.18	153.83	56.58	-45.4	-46.4	16.8	0.00e+00	0	62	0	638582784	53	4070
2026-01-01 00:12:02.15	154.37	56.32	-44.4	-45.3	17.8	0.00e+00	0	62	0	641728512	52	3796
2026-01-01 00:12:03.12	154.90	56.05	-43.9	-44.7	18.6	0.00e+00	0	62	0	644874240	50	3959
2026-01-01 00:12:04.09	155.42	55.78	-43.9	-44.6	18.6	0.00e+00	0	62	0	648019968	50	3953
2026-01-01 00:12:05.06	155.93	55.51	-44.9	-45.8	17.3	0.00e+00	0	62	0	651165696	51	4285
2026-01-01 00:12:06.02	156.42	55.25	-45.9	-47.0	15.8	0.00e+00	0	62	0	654311424	53	4370
2026-01-01 00:12:06.99	156.91	54.98	-46.4	-47.6	15.2	0.00e+00	0	62	0	656408576	54	4429
2026-01-01 00:12:07.97	157.40	54.70	-46.2	-47.4	15.8	0.00e+00	0	62	0	659554304	54	4301
2026-01-01 00:12:08.93	157.86	54.43	-45.9	-47.0	16.0	0.00e+00	0	62	0	662700032	54	4139
2026-01-01 00:12:09.90	158.33	54.16	-45.6	-46.7	16.3	0.00e+00	0	62	0	665845760	54	3964
2026-01-01 00:12:10.87	158.78	53.89	-45.0	-45.9	17.1	0.00e+00	0	62	0	668991488	53	3850
2026-01-01 00:12:11.84	159.23	53.62	-44.7	-45.6	17.6	0.00e+00	0	62	0	672137216	52	3931
2026-01-01 00:12:12.80	159.66	53.35	-44.9	-45.8	17.4	0.00e+00	0	62	0	675282944	52	4033
2026-01-01 00:12:13.77	160.09	53.07	-45.1	-46.1	17.1	0.00e+00	0	62	0	678428672	52	4167
2026-01-01 00:12:14.75	160.52	52.80	-45.7	-46.8	16.4	0.00e+00	0	62	0	680525824	53	4252
2026-01-01 00:12:15.71	160.93	52.53	-45.9	-47.0	16.2	0.00e+00	0	62	0	683671552	53	4388
2026-01-01 00:12:16.68	161.33	52.25	-45.8	-46.9	16.1	0.00e+00	0	62	0	686817280	53	4334
2026-01-01 00:12:17.64	161.73	51.98	-45.7	-46.9	15.9	0.00e+00	0	62	0	689963008	53	4298
2026-01-01 00:12:18.61	162.12	51.71	-46.0	-47.1	15.7	0.00e+00	0	62	0	693108736	53	4422
2026-01-01 00:12:19.58	162.51	51.44	-46.0	-47.3	15.9	0.00e+00	0	62	0	696254464	54	4244
2026-01-01 00:12:20.55	162.89	51.17	-46.0	-47.1	16.1	0.00e+00	0	62	0	699400192	54	4185
2026-01-01 00:12:21.52	163.26	50.89	-45.9	-47.0	16.2	0.00e+00	0	62	0	702545920	54	4140
2026-01-01 00:12:22.49	163.62	50.62	-46.4	-47.7	15.6	0.00e+00	0	62	0	705691648	54	4452
2026-01-01 00:12:23.46	163.98	50.35	-46.9	-48.3	14.9	0.00e+00	0	62	0	707788800	55	4543
2026-01-01 00:12:24.43	164.33	50.08	-47.2	-48.6	14.6	0.00e+00	0	62	0	710934528	56	4431
2026-01-01 00:12:25.41	164.68	49.81	-47.5	-49.0	14.3	0.00e+00	0	62	0	714080256	56	4635
2026-01-01 00:12:26.38	165.02	49.54	-47.7	-49.4	14.1	1.50e-06	0	62	0	717225984	57	4571
2026-01-01 00:12:27.35	165.36	49.27	-47.3	-48.9	14.5	0.00e+00	0	62	0	720371712	57	4304
2026-01-01 00:12:28.32	165.69	49.00	-46.5	-47.8	15.6	0.00e+00	0	62	0	723517440	56	4029
2026-01-01 00:12:29.28	166.01	48.73	-46.0	-47.2	16.1	0.00e+00	0	62	0	726663168	55	3967
2026-01-01 00:12:30.25	166.32	48.47	-45.9	-47.1	16.2	0.00e+00	0	62	0	729808896	54	4146
2026-01-01 00:12:31.22	166.64	48.20	-46.2	-47.3	15.9	0.00e+00	0	62	0	732954624	54	4291
2026-01-01 00:12:32.18	166.94	47.94	-46.6	-47.9	15.4	0.00e+00	0	62	0	735051776	54	4553
2026-01-01 00:12:33.14	167.24	47.68	-47.8	-49.5	13.8	7.00e-07	0	62	0	738197504	57	4635
2026-01-01 00:12:34.11	167.54	47.41	-47.9	-49.7	13.7	6.10e-06	0	62	0	741343232	57	4714
2026-01-01 00:12:35.08	167.83	47.15	-47.9	-49.5	13.8	3.80e-06	0	62	0	744488960	57	4639
2026-01-01 00:12:36.05	168.12	46.89	-47.8	-49.5	13.9	3.80e-06	0	62	0	747634688	57	4608
2026-01-01 00:12:37.01	168.40	46.63	-47.9	-49.5	13.8	2.20e-06	0	62	0	750780416	57	4646
2026-01-01 00:12:37.98	168.67	46.37	-47.6	-49.1	14.2	3.00e-06	0	62	0	753926144	57	4414
2026-01-01 00:12:38.95	168.95	46.11	-47.5	-49.1	14.3	1.50e-06	0	62	0	757071872	57	4417
2026-01-01 00:12:39.92	169.22	45.85	-47.5	-49.0	14.3	7.00e-07	0	62	0	760217600	57	4384
2026-01-01 00:12:40.89	169.48	45.59	-47.4	-49.0	14.4	1.50e-06	0	62	0	762314752	57	4371
2026-01-01 00:12:41.86	169.74	45.33	-47.5	-49.2	14.2	7.00e-07	0	62	0	765460480	57	4443
2026-01-01 00:12:42.83	170.00	45.08	-47.6	-49.3	14.1	4.50e-06	0	62	0	768606208	57	4524
2026-01-01 00:12:43.80	170.25	44.82	-47.9	-49.6	13.7	4.50e-06	0	62	0	771751936	57	4705
2026-01-01 00:12:44.77	170.50	44.57	-47.8	-49.5	13.9	4.50e-06	0	62	0	774897664	57	4642
2026-01-01 00:12:45.73	170.74	44.32	-48.0	-49.8	13.6	9.10e-06	0	62	0	778043392	58	4531
2026-01-01 00:12:46.70	170.98	44.07	-48.4	-50.2	13.1	4.80e-05	0	62	0	781189120	58	4757
2026-01-01 00:12:47.67	171.22	43.82	-48.5	-50.4	12.9	4.57e-05	0	62	0	784334848	58	4863
2026-01-01 00:12:48.64	171.45	43.57	-48.4	-50.2	13.2	3.96e-05	0	62	0	786432000	58	4734
2026-01-01 00:12:49.60	171.68	43.32	-48.0	-49.6	13.7	7.60e-06	0	62	0	789577728	58	4435
2026-01-01 00:12:50.57	171.91	43.07	-47.5	-49.0	14.3	2.20e-06	0	62	0	792723456	58	4132
2026-01-01 00:12:51.54	172.13	42.83	-47.5	-49.0	14.4	0.00e+00	0	62	0	795869184	58	4116
2026-01-01 00:12:52.51	172.35	42.58	-47.7	-49.3	14.0	2.20e-06	0	62	0	799014912	58	4287
2026-01-01 00:12:53.49	172.57	42.34	-47.7	-49.4	13.9	1.50e-06	0	62	0	802160640	58	4331
2026-01-01 00:12:54.46	172.78	42.09	-47.6	-49.3	14.1	2.20e-06	0	62	0	805306368	58	4276
2026-01-01 00:12:55.43	172.99	41.85	-47.2	-48.7	14.7	2.20e-06	0	62	0	808452096	57	4229
2026-01-01 00:12:56.41	173.20	41.61	-46.8	-48.2	15.2	0.00e+00	0	62	0	811597824	56	4195
2026-01-01 00:12:57.37	173.41	41.37	-46.8	-48.1	15.3	0.00e+00	0	62	0	814743552	56	4171
2026-01-01 00:12:58.33	173.61	41.14	-46.7	-48.0	15.4	0.00e+00	0	62	0	816840704	56	4129
2026-01-01 00:12:59.30	173.80	40.90	-46.7	-48.0	15.4	0.00e+00	0	62	0	819986432	56	4129
2026-01-01 00:13:00.27	174.00	40.67	-46.6	-47.8	15.5	0.00e+00	0	62	0	823132160	56	4044
2026-01-01 00:13:01.24	174.19	40.43	-46.4	-47.6	15.8	0.00e+00	0	62	0	826277888	56	3934
2026-01-01 00:13:02.20	174.38	40.20	-46.3	-47.5	15.8	0.00e+00	0	62	0	829423616	55	4120
2026-01-01 00:13:03.17	174.57	39.97	-46.6	-47.9	15.4	0.00e+00	0	62	0	832569344	55	4295
2026-01-01 00:13:04.14	174.75	39.74	-46.7	-48.0	15.2	0.00e+00	0	62	0	835715072	55	4360
2026-01-01 00:13:05.11	174.94	39.51	-46.9	-48.3	15.0	0.00e+00	0	62	0	838860800	55	4520
2026-01-01 00:13:06.08	175.12	39.28	-47.2	-48.7	14.7	0.00e+00	0	62	0	842006528	56	4444
2026-01-01 00:13:07.04	175.29	39.05	-47.0	-48.3	15.1	0.00e+00	0	62	0	844103680	56	4269
2026-01-01 00:13:08.01	175.47	38.83	-46.8	-48.1	15.2	0.00e+00	0	62	0	847249408	56	4179
2026-01-01 00:13:08.98	175.64	38.60	-46.9	-48.2	15.2	0.00e+00	0	62	0	850395136	56	4216
2026-01-01 00:13:09.95	175.81	38.38	-46.6	-47.9	15.5	0.00e+00	0	62	0	853540864	56	4061
2026-01-01 00:13:10.92	175.98	38.16	-46.5	-47.8	15.5	0.00e+00	0	62	0	856686592	56	4023
2026-01-01 00:13:11.90	176.15	37.93	-46.6	-47.9	15.4	0.00e+00	0	62	0	859832320	56	4061
2026-01-01 00:13:12.86	176.31	37.72	-46.6	-47.8	15.4	0.00e+00	0	62	0	862978048	56	4047
2026-01-01 00:13:13.83	176.47	37.50	-46.5	-47.7	15.5	0.00e+00	0	62	0	866123776	56	3998
2026-01-01 00:13:14.80	176.63	37.28	-46.4	-47.6	15.7	0.00e+00	0	62	0	868220928	56	3929
2026-01-01 00:13:15.77	176.79	37.06	-46.1	-47.3	15.9	0.00e+00	0	62	0	871366656	55	4028
2026-01-01 00:13:16.73	176.94	36.85	-46.1	-47.2	16.0	0.00e+00	0	62	0	874512384	55	3980
2026-01-01 00:13:17.70	177.10	36.64	-45.7	-46.8	16.4	0.00e+00	0	62	0	877658112	54	4020
2026-01-01 00:13:18.66	177.25	36.42	-45.4	-46.4	16.8	0.00e+00	0	62	0	880803840	53	4060
2026-01-01 00:13:19.63	177.40	36.21	-45.3	-46.3	16.9	0.00e+00	0	62	0	883949568	53	4032
2026-01-01 00:13:20.60	177.54	36.00	-45.4	-46.4	16.8	0.00e+00	0	62	0	887095296	53	4070
2026-01-01 00:13:21.57	177.69	35.79	-45.2	-46.2	17.0	0.00e+00	0	62	0	890241024	53	3991
2026-01-01 00:13:22.54	177.84	35.58	-45.1	-46.1	17.1	0.00e+00	0	62	0	893386752	53	3922
2026-01-01 00:13:23.50	177.98	35.38	-45.1	-46.1	17.1	0.00e+00	0	62	0	895483904	53	3945
2026-01-01 00:13:24.48	178.12	35.17	-45.2	-46.2	17.0	0.00e+00	0	62	0	898629632	53	3962
2026-01-01 00:13:25.44	178.26	34.97	-45.1	-46.1	17.0	0.00e+00	0	62	0	901775360	53	3945
2026-01-01 00:13:26.42	178.40	34.76	-45.2	-46.2	16.9	0.00e+00	0	62	0	904921088	53	3984
2026-01-01 00:13:27.39	178.53	34.56	-45.3	-46.3	16.8	0.00e+00	0	62	0	908066816	53	4051
2026-01-01 00:13:28.36	178.67	34.36	-45.6	-46.6	16.6	0.00e+00	0	62	0	911212544	53	4162
2026-01-01 00:13:29.33	178.80	34.16	-45.9	-47.0	16.2	0.00e+00	0	62	0	914358272	53	4374
2026-01-01 00:13:30.30	178.93	33.96	-46.3	-47.6	15.6	0.00e+00	0	62	0	917504000	54	4400
2026-01-01 00:13:31.27	179.06	33.76	-46.6	-48.0	15.2	0.00e+00	0	62	0	920649728	55	4368
2026-01-01 00:13:32.24	179.19	33.56	-46.7	-48.1	15.2	0.00e+00	0	62	0	922746880	55	4407
2026-01-01 00:13:33.20	179.31	33.37	-46.6	-47.9	15.3	0.00e+00	0	62	0	925892608	55	4326
2026-01-01 00:13:34.17	179.44	33.18	-46.5	-47.8	15.4	0.00e+00	0	62	0	929038336	55	4258
2026-01-01 00:13:35.14	179.56	32.98	-46.5	-47.9	15.3	0.00e+00	0	62	0	932184064	55	4295
2026-01-01 00:13:36.10	179.68	32.79	-46.6	-48.0	15.2	0.00e+00	0	62	0	935329792	55	4353
2026-01-01 00:13:37.07	179.80	32.60	-45.8	-46.9	16.2	7.00e-07	0	62	0	938475520	54	4096
2026-01-01 00:13:38.04	179.92	32.41	-45.0	-46.0	17.1	0.00e+00	0	62	0	941621248	53	3900
2026-01-01 00:13:39.01	180.04	32.22	-44.5	-45.4	17.7	0.00e+00	0	62	0	944766976	52	3861
2026-01-01 00:13:39.97	180.16	32.03	-44.4	-45.2	17.9	0.00e+00	0	62	0	947912704	51	4002
2026-01-01 00:13:40.94	180.27	31.85	-44.4	-45.2	17.9	0.00e+00	0	62	0	950009856	51	3996
2026-01-01 00:13:41.91	180.39	31.66	-44.5	-45.4	17.8	0.00e+00	0	62	0	953155584	51	4070
2026-01-01 00:13:42.88	180.50	31.48	-44.5	-45.4	17.8	0.00e+00	0	62	0	956301312	51	4072
2026-01-01 00:13:43.85	180.61	31.29	-44.5	-45.4	17.8	0.00e+00	0	62	0	959447040	51	4078
2026-01-01 00:13:44.83	180.72	31.11	-44.5	-45.3	17.8	0.00e+00	0	62	0	962592768	51	4051
2026-01-01 00:13:45.80	180.83	30.92	-44.4	-45.3	17.8	0.00e+00	0	62	0	965738496	51	4021
2026-01-01 00:13:46.76	180.94	30.75	-44.7	-45.6	17.5	0.00e+00	0	62	0	968884224	51	4171
2026-01-01 00:13:47.73	181.05	30.57	-44.6	-45.5	17.7	0.00e+00	0	62	0	972029952	51	4101
2026-01-01 00:13:48.70	181.15	30.39	-44.6	-45.5	17.6	0.00e+00	0	62	0	974127104	51	4145
2026-01-01 00:13:49.66	181.26	30.21	-45.0	-45.9	17.2	0.00e+00	0	62	0	977272832	51	4336
2026-01-01 00:13:50.63	181.36	30.03	-44.9	-45.9	17.2	0.00e+00	0	62	0	980418560	52	4059
2026-01-01 00:13:51.60	181.46	29.86	-45.0	-46.0	17.0	0.00e+00	0	62	0	983564288	52	4130
2026-01-01 00:13:52.56	181.56	29.68	-45.2	-46.2	16.9	0.00e+00	0	62	0	986710016	52	4213
2026-01-01 00:13:53.53	181.66	29.51	-45.3	-46.4	16.7	0.00e+00	0	62	0	989855744	52	4316
2026-01-01 00:13:54.50	181.76	29.34	-45.7	-46.8	16.3	0.00e+00	0	62	0	993001472	53	4288
2026-01-01 00:13:55.46	181.86	29.17	-45.9	-47.1	16.0	0.00e+00	0	62	0	996147200	53	4405
2026-01-01 00:13:56.43	181.96	29.00	-45.7	-46.8	16.3	0.00e+00	0	62	0	999292928	53	4286
2026-01-01 00:13:57.40	182.05	28.83	-45.7	-46.8	16.3	0.00e+00	0	62	0	1001390080	53	4268
2026-01-01 00:13:58.37	182.15	28.66	-45.7	-46.7	16.4	0.00e+00	0	62	0	1004535808	53	4241
2026-01-01 00:13:59.34	182.24	28.49	-45.8	-47.0	16.2	0.00e+00	0	62	0	1007681536	53	4341
2026-01-01 00:14:00.31	182.34	28.32	-45.8	-47.0	16.2	0.00e+00	0	62	0	1010827264	53	4369
2026-01-01 00:14:01.27	182.43	28.16	-45.6	-46.7	16.5	0.00e+00	0	62	0	1013972992	53	4204
2026-01-01 00:14:02.24	182.52	27.99	-45.5	-46.6	16.5	0.00e+00	0	62	0	1017118720	53	4158
2026-01-01 00:14:03.21	182.61	27.83	-45.4	-46.5	16.6	0.00e+00	0	62	0	1020264448	53	4130
2026-01-01 00:14:04.18	182.70	27.66	-45.6	-46.7	16.4	0.00e+00	0	62	0	1023410176	53	4225
2026-01-01 00:14:05.14	182.79	27.50	-45.9	-47.0	16.2	0.00e+00	0	62	0	1025507328	53	4356
2026-01-01 00:14:06.11	182.88	27.34	-45.4	-46.5	16.7	0.00e+00	0	62	0	1028653056	53	4102
2026-01-01 00:14:07.07	182.97	27.18	-45.0	-46.0	17.1	0.00e+00	0	62	0	1031798784	53	3881
2026-01-01 00:14:08.04	183.05	27.02	-44.8	-45.7	17.4	0.00e+00	0	62	0	1034944512	52	3975
2026-01-01 00:14:09.00	183.14	26.86	-44.6	-45.5	17.6	0.00e+00	0	62	0	1038090240	52	3907
2026-01-01 00:14:09.97	183.22	26.70	-44.7	-45.6	17.5	0.00e+00	0	62	0	1041235968	52	3936
2026-01-01 00:14:10.94	183.31	26.55	-44.5	-45.4	17.7	0.00e+00	0	62	0	1044381696	52	3831
2026-01-01 00:14:11.91	183.39	26.39	-44.4	-45.3	17.8	0.00e+00	0	62	0	1047527424	52	3808
2026-01-01 00:14:12.89	183.47	26.23	-44.6	-45.5	17.6	0.00e+00	0	62	0	1050673152	52	3875
2026-01-01 00:14:13.85	183.55	26.08	-44.4	-45.2	18.0	0.00e+00	0	62	0	1052770304	51	3974
2026-01-01 00:14:14.83	183.64	25.92	-43.9	-44.7	18.4	0.00e+00	0	62	0	1055916032	51	3742
2026-01-01 00:14:15.80	183.72	25.77	-43.7	-44.4	18.7	0.00e+00	0	62	0	1059061760	50	3849
2026-01-01 00:14:16.76	183.80	25.62	-43.5	-44.3	18.8	0.00e+00	0	62	0	1062207488	50	3792
2026-01-01 00:14:17.74	183.88	25.47	-43.5	-44.2	18.9	0.00e+00	0	62	0	1065353216	50	3772
2026-01-01 00:14:18.71	183.95	25.31	-43.6	-44.3	18.7	0.00e+00	0	62	0	1068498944	50	3824
2026-01-01 00:14:19.67	184.03	25.17	-43.6	-44.4	18.7	0.00e+00	0	62	0	1071644672	50	3841
2026-01-01 00:14:20.63	184.11	25.02	-43.8	-44.5	18.6	0.00e+00	0	62	0	1074790400	50	3913
2026-01-01 00:14:21.60	184.18	24.87	-43.9	-44.7	18.4	0.00e+00	0	62	0	1077936128	50	3974
2026-01-01 00:14:22.57	184.26	24.72	-44.0	-44.8	18.3	0.00e+00	0	62	0	1080033280	50	4034
2026-01-01 00:14:23.53	184.33	24.58	-44.0	-44.9	18.3	0.00e+00	0	62	0	1083179008	50	4059
2026-01-01 00:14:24.50	184.41	24.43	-44.1	-44.9	18.2	0.00e+00	0	62	0	1086324736	50	4086
2026-01-01 00:14:25.48	184.48	24.28	-44.2	-45.0	18.1	0.00e+00	0	62	0	1089470464	50	4136
2026-01-01 00:14:26.44	184.55	24.14	-44.4	-45.3	17.9	0.00e+00	0	62	0	1092616192	50	4247
2026-01-01 00:14:27.41	184.62	24.00	-44.4	-45.3	17.8	0.00e+00	0	62	0	1095761920	50	4248
2026-01-01 00:14:28.38	184.70	23.85	-44.4	-45.3	17.8	0.00e+00	0	62	0	1098907648	50	4277
2026-01-01 00:14:29.35	184.77	23.71	-44.5	-45.4	17.7	0.00e+00	0	62	0	1102053376	50	4321
2026-01-01 00:14:30.32	184.84	23.57	-44.5	-45.4	17.7	0.00e+00	0	62	0	1105199104	50	4319
2026-01-01 00:14:31.29	184.91	23.43	-44.7	-45.6	17.5	0.00e+00	0	62	0	1107296256	51	4169
2026-01-01 00:14:32.26	184.98	23.29	-44.7	-45.6	17.5	0.00e+00	0	62	0	1110441984	51	4178
2026-01-01 00:14:33.23	185.05	23.15	-44.7	-45.6	17.5	0.00e+00	0	62	0	1113587712	51	4168
2026-01-01 00:14:34.19	185.11	23.01	-44.8	-45.8	17.4	0.00e+00	0	62	0	1116733440	51	4249
2026-01-01 00:14:35.16	185.18	22.87	-44.6	-45.5	17.6	0.00e+00	0	62	0	1119879168	51	4134
2026-01-01 00:14:36.13	185.25	22.74	-44.4	-45.3	17.8	0.00e+00	0	62	0	1123024896	51	4049
2026-01-01 00:14:37.10	185.31	22.60	-44.3	-45.2	17.9	0.00e+00	0	62	0	1126170624	51	3986
2026-01-01 00:14:38.06	185.38	22.46	-44.5	-45.4	17.7	0.00e+00	0	62	0	1129316352	51	4057
2026-01-01 00:14:39.03	185.44	22.33	-44.4	-45.4	17.8	0.00e+00	0	62	0	1132462080	51	4052
2026-01-01 00:14:40.00	185.51	22.19	-44.5	-45.4	17.7	0.00e+00	0	62	0	1134559232	51	4070
2026-01-01 00:14:40.97	185.57	22.06	-44.7	-45.6	17.5	0.00e+00	0	62	0	1137704960	51	4155
2026-01-01 00:14:41.94	185.64	21.93	-44.6	-45.5	17.6	0.00e+00	0	62	0	1140850688	51	4135
2026-01-01 00:14:42.91	185.70	21.79	-44.7	-45.6	17.6	0.00e+00	0	62	0	1143996416	51	4167
2026-01-01 00:14:43.87	185.76	21.66	-44.9	-45.9	17.2	0.00e+00	0	62	0	1147142144	51	4314
2026-01-01 00:14:44.84	185.82	21.53	-44.8	-45.7	17.4	0.00e+00	0	62	0	1150287872	51	4214
2026-01-01 00:14:45.80	185.89	21.40	-44.6	-45.5	17.6	0.00e+00	0	62	0	1153433600	51	4139
2026-01-01 00:14:46.77	185.95	21.27	-44.6	-45.5	17.6	0.00e+00	0	62	0	1156579328	51	4135
2026-01-01 00:14:47.74	186.01	21.14	-44.6	-45.5	17.6	0.00e+00	0	62	0	1158676480	51	4106
2026-01-01 00:14:48.70	186.07	21.02	-44.5	-45.4	17.7	0.00e+00	0	62	0	1161822208	51	4082
2026-01-01 00:14:49.67	186.13	20.89	-44.7	-45.6	17.5	0.00e+00	0	62	0	1164967936	51	4165
2026-01-01 00:14:50.64	186.19	20.76	-44.6	-45.5	17.6	0.00e+00	0	62	0	1168113664	51	4108
2026-01-01 00:14:51.60	186.24	20.63	-44.4	-45.3	17.8	0.00e+00	0	62	0	1171259392	51	4042
2026-01-01 00:14:52.57	186.30	20.51	-44.4	-45.3	17.8	0.00e+00	0	62	0	1174405120	51	4035
2026-01-01 00:14:53.54	186.36	20.38	-44.5	-45.4	17.7	0.00e+00	0	62	0	1177550848	51	4079
2026-01-01 00:14:54.51	186.42	20.26	-44.5	-45.4	17.7	0.00e+00	0	62	0	1180696576	51	4065
2026-01-01 00:14:55.48	186.48	20.13	-44.6	-45.5	17.6	0.00e+00	0	62	0	1183842304	51	4116
2026-01-01 00:14:56.44	186.53	20.01	-44.7	-45.7	17.4	0.00e+00	0	62	0	1185939456	51	4206
2026-01-01 00:14:57.41	186.59	19.89	-44.8	-45.7	17.4	0.00e+00	0	62	0	1189085184	51	4227
2026-01-01 00:14:58.38	186.64	19.76	-44.7	-45.6	17.5	0.00e+00	0	62	0	1192230912	51	4169
2026-01-01 00:14:59.35	186.70	19.64	-44.7	-45.6	17.5	0.00e+00	0	62	0	1195376640	51	4156
2026-01-01 00:15:00.32	186.75	19.52	-44.6	-45.5	17.6	0.00e+00	0	62	0	1198522368	51	4130
2026-01-01 00:15:01.28	186.81	19.40	-44.6	-45.6	17.5	0.00e+00	0	62	0	1201668096	51	4157
2026-01-01 00:15:02.25	186.86	19.28	-44.8	-45.7	17.3	0.00e+00	0	62	0	1204813824	51	4239
2026-01-01 00:15:03.22	186.92	19.16	-44.6	-45.6	17.5	0.00e+00	0	62	0	1207959552	51	4151
2026-01-01 00:15:04.19	186.97	19.04	-44.6	-45.5	17.6	0.00e+00	0	62	0	1210056704	51	4101
2026-01-01 00:15:05.16	187.02	18.92	-44.6	-45.5	17.6	0.00e+00	0	62	0	1213202432	51	4120
2026-01-01 00:15:06.14	187.08	18.80	-44.7	-45.6	17.5	0.00e+00	0	62	0	1216348160	51	4156
2026-01-01 00:15:07.10	187.13	18.68	-44.6	-45.6	17.5	0.00e+00	0	62	0	1219493888	51	4150
2026-01-01 00:15:08.07	187.18	18.57	-44.8	-45.8	17.3	0.00e+00	0	62	0	1222639616	51	4252
2026-01-01 00:15:09.04	187.23	18.45	-44.8	-45.8	17.3	0.00e+00	0	62	0	1225785344	51	4253
2026-01-01 00:15:10.01	187.28	18.33	-44.8	-45.8	17.3	0.00e+00	0	62	0	1228931072	51	4247
2026-01-01 00:15:10.98	187.33	18.22	-44.9	-45.9	17.2	0.00e+00	0	62	0	1232076800	51	4298
2026-01-01 00:15:11.95	187.38	18.10	-45.1	-46.0	17.0	0.00e+00	0	62	0	1235222528	51	4388
2026-01-01 00:15:12.91	187.43	17.99	-44.9	-45.8	17.1	0.00e+00	0	62	0	1237319680	52	4040
2026-01-01 00:15:13.87	187.48	17.88	-44.8	-45.7	17.2	0.00e+00	0	62	0	1240465408	52	3996
2026-01-01 00:15:14.84	187.53	17.76	-44.8	-45.8	17.2	0.00e+00	0	62	0	1243611136	52	4019
2026-01-01 00:15:15.81	187.58	17.65	-45.1	-46.1	16.8	0.00e+00	0	62	0	1246756864	52	4187
2026-01-01 00:15:16.78	187.63	17.54	-45.1	-46.0	16.9	0.00e+00	0	62	0	1249902592	52	4143
2026-01-01 00:15:17.75	187.68	17.43	-44.8	-45.8	17.1	0.00e+00	0	62	0	1253048320	52	4034
2026-01-01 00:15:18.72	187.73	17.31	-44.7	-45.6	17.3	0.00e+00	0	62	0	1256194048	52	3954
2026-01-01 00:15:19.69	187.78	17.20	-44.7	-45.6	17.4	0.00e+00	0	62	0	1259339776	52	3924
2026-01-01 00:15:20.66	187.82	17.09	-44.6	-45.6	17.4	0.00e+00	0	62	0	1261436928	52	3932
2026-01-01 00:15:21.63	187.87	16.98	-44.8	-45.7	17.2	0.00e+00	0	62	0	1264582656	52	4003
2026-01-01 00:15:22.60	187.92	16.87	-44.9	-45.9	17.1	0.00e+00	0	62	0	1267728384	52	4063
2026-01-01 00:15:23.56	187.96	16.77	-44.9	-45.8	17.1	0.00e+00	0	62	0	1270874112	52	4035
2026-01-01 00:15:24.53	188.01	16.66	-44.9	-45.9	17.1	0.00e+00	0	62	0	1274019840	52	4061
2026-01-01 00:15:25.50	188.06	16.55	-45.0	-46.0	17.0	0.00e+00	0	62	0	1277165568	52	4107
2026-01-01 00:15:26.47	188.10	16.44	-45.0	-46.0	17.0	0.00e+00	0	62	0	1280311296	52	4123
2026-01-01 00:15:27.43	188.15	16.33	-45.2	-46.2	16.8	0.00e+00	0	62	0	1283457024	52	4210
2026-01-01 00:15:28.40	188.19	16.23	-45.2	-46.2	16.8	0.00e+00	0	62	0	1286602752	52	4212
2026-01-01 00:15:29.37	188.24	16.12	-44.8	-45.8	17.2	0.00e+00	0	62	0	1289748480	52	4029
2026-01-01 00:15:30.33	188.28	16.02	-44.8	-45.7	17.2	0.00e+00	0	62	0	1291845632	52	4000
2026-01-01 00:15:31.30	188.32	15.91	-44.8	-45.8	17.1	0.00e+00	0	62	0	1294991360	52	4022
2026-01-01 00:15:32.27	188.37	15.81	-44.9	-45.9	17.0	0.00e+00	0	62	0	1298137088	52	4080
2026-01-01 00:15:33.24	188.41	15.70	-45.0	-46.0	17.0	0.00e+00	0	62	0	1301282816	52	4116
2026-01-01 00:15:34.21	188.45	15.60	-45.0	-46.0	16.9	0.00e+00	0	62	0	1304428544	52	4136
2026-01-01 00:15:35.18	188.50	15.49	-45.2	-46.2	16.7	0.00e+00	0	62	0	1307574272	52	4234
2026-01-01 00:15:36.16	188.54	15.39	-45.3	-46.4	16.5	0.00e+00	0	62	0	1310720000	52	4314
2026-01-01 00:15:37.13	188.58	15.29	-45.3	-46.3	16.6	0.00e+00	0	62	0	1313865728	52	4287
2026-01-01 00:15:38.10	188.63	15.18	-45.1	-46.1	16.8	0.00e+00	0	62	0	1315962880	52	4164
2026-01-01 00:15:39.07	188.67	15.08	-45.1	-46.1	16.8	0.00e+00	0	62	0	1319108608	52	4164
2026-01-01 00:15:40.04	188.71	14.98	-45.1	-46.1	16.8	0.00e+00	0	62	0	1322254336	52	4162
2026-01-01 00:15:41.01	188.75	14.88	-45.0	-46.0	16.9	0.00e+00	0	62	0	1325400064	52	4108
2026-01-01 00:15:41.97	188.79	14.78	-45.1	-46.1	16.8	0.00e+00	0	62	0	1328545792	52	4159
2026-01-01 00:15:42.94	188.83	14.68	-45.3	-46.3	16.6	0.00e+00	0	62	0	1331691520	52	4282
2026-01-01 00:15:43.91	188.87	14.58	-45.2	-46.2	16.7	0.00e+00	0	62	0	1334837248	52	4219
2026-01-01 00:15:44.87	188.91	14.48	-45.3	-46.4	16.5	0.00e+00	0	62	0	1337982976	52	4334
2026-01-01 00:15:45.84	188.95	14.38	-45.2	-46.3	16.6	0.00e+00	0	62	0	1341128704	52	4278
2026-01-01 00:15:46.81	188.99	14.28	-45.2	-46.2	16.7	0.00e+00	0	62	0	1343225856	52	4217
2026-01-01 00:15:47.78	189.03	14.18	-45.3	-46.3	16.6	0.00e+00	0	62	0	1346371584	52	4280
2026-01-01 00:15:48.75	189.07	14.08	-45.3	-46.4	16.5	0.00e+00	0	62	0	1349517312	52	4313
2026-01-01 00:15:49.71	189.11	13.99	-45.4	-46.5	16.4	0.00e+00	0	62	0	1352663040	52	4371
2026-01-01 00:15:50.68	189.15	13.89	-45.5	-46.6	16.3	0.00e+00	0	62	0	1355808768	52	4419
2026-01-01 00:15:51.66	189.19	13.79	-45.5	-46.7	16.2	0.00e+00	0	62	0	1358954496	53	4207
2026-01-01 00:15:52.63	189.23	13.70	-45.6	-46.7	16.2	0.00e+00	0	62	0	1362100224	53	4204
2026-01-01 00:15:53.61	189.27	13.60	-45.6	-46.7	16.2	0.00e+00	0	62	0	1365245952	53	4234
2026-01-01 00:15:54.58	189.31	13.50	-45.7	-46.9	16.0	0.00e+00	0	62	0	1368391680	53	4307
2026-01-01 00:15:55.55	189.34	13.41	-45.8	-47.0	15.9	0.00e+00	0	62	0	1370488832	53	4364
2026-01-01 00:15:56.52	189.38	13.31	-45.8	-47.1	15.8	0.00e+00	0	62	0	1373634560	53	4408
2026-01-01 00:15:57.49	189.42	13.22	-45.9	-47.1	15.8	0.00e+00	0	62	0	1376780288	53	4414
2026-01-01 00:15:58.45	189.46	13.12	-46.1	-47.4	15.5	0.00e+00	0	62	0	1379926016	53	4549
2026-01-01 00:15:59.42	189.49	13.03	-46.2	-47.5	15.4	0.00e+00	0	62	0	1383071744	54	4354
2026-01-01 00:16:00.40	189.53	12.93	-46.0	-47.3	15.6	0.00e+00	0	62	0	1386217472	54	4252
2026-01-01 00:16:01.37	189.57	12.84	-45.8	-47.0	15.9	0.00e+00	0	62	0	1389363200	54	4116
2026-01-01 00:16:02.34	189.60	12.75	-45.8	-47.0	15.9	0.00e+00	0	62	0	1392508928	54	4120
2026-01-01 00:16:03.31	189.64	12.66	-45.9	-47.1	15.8	0.00e+00	0	62	0	1395654656	54	4170
2026-01-01 00:16:04.28	189.67	12.56	-45.9	-47.2	15.7	0.00e+00	0	62	0	1398800384	54	4208
2026-01-01 00:16:05.25	189.71	12.47	-45.8	-47.0	15.8	0.00e+00	0	62	0	1400897536	54	4143
2026-01-01 00:16:06.21	189.75	12.38	-45.8	-47.0	15.9	0.00e+00	0	62	0	1404043264	54	4114
2026-01-01 00:16:07.18	189.78	12.29	-45.8	-47.0	15.8	0.00e+00	0	62	0	1407188992	54	4133
2026-01-01 00:16:08.15	189.82	12.20	-45.9	-47.1	15.8	0.00e+00	0	62	0	1410334720	54	4158
2026-01-01 00:16:09.11	189.85	12.11	-46.0	-47.2	15.7	0.00e+00	0	62	0	1413480448	54	4213
2026-01-01 00:16:10.08	189.89	12.02	-45.8	-47.0	15.9	0.00e+00	0	62	0	1416626176	54	4117
2026-01-01 00:16:11.04	189.92	11.93	-46.0	-47.3	15.6	0.00e+00	0	62	0	1419771904	54	4255
2026-01-01 00:16:12.01	189.95	11.84	-45.9	-47.1	15.7	0.00e+00	0	62	0	1422917632	54	4187
2026-01-01 00:16:12.97	189.99	11.75	-45.8	-46.9	15.9	0.00e+00	0	62	0	1425014784	54	4096
2026-01-01 00:16:13.94	190.02	11.66	-45.9	-47.1	15.7	0.00e+00	0	62	0	1428160512	54	4169
2026-01-01 00:16:14.91	190.06	11.57	-46.1	-47.4	15.5	0.00e+00	0	62	0	1431306240	54	4300
2026-01-01 00:16:15.88	190.09	11.49	-46.0	-47.3	15.6	0.00e+00	0	62	0	1434451968	54	4257
2026-01-01 00:16:16.84	190.12	11.40	-46.0	-47.2	15.6	0.00e+00	0	62	0	1437597696	54	4241
2026-01-01 00:16:17.81	190.16	11.31	-46.0	-47.3	15.6	0.00e+00	0	62	0	1440743424	54	4243
2026-01-01 00:16:18.78	190.19	11.22	-46.1	-47.3	15.5	0.00e+00	0	62	0	1443889152	54	4286
2026-01-01 00:16:19.74	190.22	11.14	-46.1	-47.4	15.4	0.00e+00	0	62	0	1447034880	54	4317
2026-01-01 00:16:20.72	190.26	11.05	-46.0	-47.3	15.5	0.00e+00	0	62	0	1450180608	54	4248
2026-01-01 00:16:21.69	190.29	10.96	-46.0	-47.3	15.6	0.00e+00	0	62	0	1452277760	54	4243
2026-01-01 00:16:22.66	190.32	10.88	-46.2	-47.5	15.3	0.00e+00	0	62	0	1455423488	54	4357
2026-01-01 00:16:23.64	190.35	10.79	-46.3	-47.6	15.2	0.00e+00	0	62	0	1458569216	54	4434
2026-01-01 00:16:24.61	190.39	10.70	-46.2	-47.5	15.3	0.00e+00	0	62	0	1461714944	54	4375
2026-01-01 00:16:25.58	190.42	10.62	-46.2	-47.5	15.3	0.00e+00	0	62	0	1464860672	54	4370
2026-01-01 00:16:26.55	190.45	10.53	-46.5	-47.8	15.0	0.00e+00	0	62	0	1468006400	54	4541
2026-01-01 00:16:27.51	190.48	10.45	-46.6	-47.9	14.8	0.00e+00	0	62	0	1471152128	55	4338
2026-01-01 00:16:28.48	190.51	10.36	-46.2	-47.5	15.2	0.00e+00	0	62	0	1474297856	55	4142
2026-01-01 00:16:29.45	190.54	10.28	-46.1	-47.3	15.4	0.00e+00	0	62	0	1477443584	55	4046
2026-01-01 00:16:30.41	190.57	10.20	-46.0	-47.3	15.5	0.00e+00	0	62	0	1479540736	55	4029
2026-01-01 00:16:31.38	190.61	10.11	-46.0	-47.3	15.5	0.00e+00	0	62	0	1482686464	55	4023
2026-01-01 00:16:32.35	190.64	10.03	-46.0	-47.3	15.4	0.00e+00	0	62	0	1485832192	55	4047
2026-01-01 00:16:33.32	190.67	9.95	-46.1	-47.3	15.4	7.00e-07	0	62	0	1488977920	55	4047
2026-01-01 00:16:34.29	190.70	9.86	-46.1	-47.4	15.4	0.00e+00	0	62	0	1492123648	55	4066
2026-01-01 00:16:35.27	190.73	9.78	-46.0	-47.3	15.4	0.00e+00	0	62	0	1495269376	55	4043
2026-01-01 00:16:36.24	190.76	9.70	-46.1	-47.4	15.4	0.00e+00	0	62	0	1498415104	55	4070
2026-01-01 00:16:37.21	190.79	9.62	-46.1	-47.3	15.4	0.00e+00	0	62	0	1501560832	55	4042
2026-01-01 00:16:38.18	190.82	9.53	-46.1	-47.4	15.3	0.00e+00	0	62	0	1504706560	55	4092
2026-01-01 00:16:39.15	190.85	9.45	-46.1	-47.4	15.3	0.00e+00	0	62	0	1506803712	55	4056
2026-01-01 00:16:40.12	190.88	9.37	-46.1	-47.4	15.3	0.00e+00	0	62	0	1509949440	55	4069
2026-01-01 00:16:41.08	190.91	9.29	-46.2	-47.5	15.2	0.00e+00	0	62	0	1513095168	55	4132
2026-01-01 00:16:42.05	190.94	9.21	-46.5	-47.9	14.7	1.50e-06	0	62	0	1516240896	55	4335
2026-01-01 00:16:43.02	190.97	9.13	-46.3	-47.7	15.0	0.00e+00	0	62	0	1519386624	55	4206
2026-01-01 00:16:43.98	190.99	9.05	-46.1	-47.5	15.2	0.00e+00	0	62	0	1522532352	55	4100
2026-01-01 00:16:44.95	191.02	8.97	-46.2	-47.5	15.2	0.00e+00	0	62	0	1525678080	55	4105
2026-01-01 00:16:45.92	191.05	8.89	-46.1	-47.4	15.3	7.00e-07	0	62	0	1528823808	55	4088
2026-01-01 00:16:46.89	191.08	8.81	-46.3	-47.7	15.0	0.00e+00	0	62	0	1531969536	55	4200
2026-01-01 00:16:47.86	191.11	8.73	-46.2	-47.6	15.1	0.00e+00	0	62	0	1534066688	55	4176
2026-01-01 00:16:48.83	191.14	8.65	-46.3	-47.7	15.0	7.00e-07	0	62	0	1537212416	55	4222
2026-01-01 00:16:49.80	191.17	8.57	-46.3	-47.7	15.0	0.00e+00	0	62	0	1540358144	55	4223
2026-01-01 00:16:50.77	191.19	8.50	-46.3	-47.7	15.0	7.00e-07	0	62	0	1543503872	55	4199
2026-01-01 00:16:51.75	191.22	8.42	-46.4	-47.9	14.8	0.00e+00	0	62	0	1546649600	55	4305
2026-01-01 00:16:52.72	191.25	8.34	-46.4	-47.8	14.8	0.00e+00	0	62	0	1549795328	55	4291
2026-01-01 00:16:53.69	191.28	8.26	-46.4	-47.8	14.9	7.00e-07	0	62	0	1552941056	55	4266
2026-01-01 00:16:54.65	191.31	8.18	-46.5	-47.9	14.8	7.00e-07	0	62	0	1556086784	55	4297
2026-01-01 00:16:55.62	191.33	8.11	-46.4	-47.8	14.8	0.00e+00	0	62	0	1559232512	55	4269
2026-01-01 00:16:56.59	191.36	8.03	-46.5	-47.9	14.7	0.00e+00	0	62	0	1561329664	55	4316
2026-01-01 00:16:57.55	191.39	7.95	-46.5	-48.0	14.6	0.00e+00	0	62	0	1564475392	55	4364
2026-01-01 00:16:58.52	191.41	7.88	-46.5	-47.9	14.7	0.00e+00	0	62	0	1567621120	55	4328
2026-01-01 00:16:59.49	191.44	7.80	-46.6	-48.1	14.5	0.00e+00	0	62	0	1570766848	55	4429
2026-01-01 00:17:00.46	191.47	7.72	-46.7	-48.2	14.4	7.00e-07	0	62	0	1573912576	55	4473
2026-01-01 00:17:01.43	191.49	7.65	-46.6	-48.0	14.6	0.00e+00	0	62	0	1577058304	55	4379
2026-01-01 00:17:02.40	191.52	7.57	-46.5	-48.0	14.6	0.00e+00	0	62	0	1580204032	55	4389
2026-01-01 00:17:03.37	191.55	7.50	-46.6	-48.1	14.5	1.50e-06	0	62	0	1583349760	55	4412
2026-01-01 00:17:04.34	191.57	7.42	-46.7	-48.2	14.3	3.00e-06	0	62	0	1586495488	55	4488
2026-01-01 00:17:05.31	191.60	7.35	-46.7	-48.2	14.4	0.00e+00	0	62	0	1588592640	55	4479
2026-01-01 00:17:06.28	191.63	7.27	-46.8	-48.3	14.2	7.00e-07	0	62	0	1591738368	55	4533
2026-01-01 00:17:07.26	191.65	7.20	-46.7	-48.2	14.3	7.00e-07	0	62	0	1594884096	55	4483
2026-01-01 00:17:08.23	191.68	7.12	-46.7	-48.3	14.3	0.00e+00	0	62	0	1598029824	55	4507
2026-01-01 00:17:09.19	191.70	7.05	-46.9	-48.5	14.0	1.50e-06	0	62	0	1601175552	55	4624
2026-01-01 00:17:10.16	191.73	6.97	-46.9	-48.4	14.1	1.50e-06	0	62	0	1604321280	55	4574
2026-01-01 00:17:11.13	191.76	6.90	-46.8	-48.4	14.1	3.00e-06	0	62	0	1607467008	55	4580
2026-01-01 00:17:12.09	191.78	6.83	-46.9	-48.6	13.9	3.00e-06	0	62	0	1610612736	55	4665
2026-01-01 00:17:13.06	191.81	6.75	-47.0	-48.6	13.9	7.00e-07	0	62	0	1612709888	55	4677
2026-01-01 00:17:14.02	191.83	6.68	-47.3	-49.0	13.6	6.80e-06	0	62	0	1615855616	56	4646
2026-01-01 00:17:14.99	191.86	6.61	-47.2	-48.9	13.7	7.60e-06	0	62	0	1619001344	56	4560
2026-01-01 00:17:15.96	191.88	6.54	-47.2	-48.9	13.7	7.60e-06	0	62	0	1622147072	56	4563
2026-01-01 00:17:16.92	191.91	6.46	-47.1	-48.9	13.7	7.60e-06	0	62	0	1625292800	56	4555
2026-01-01 00:17:17.89	191.93	6.39	-47.4	-49.2	13.3	1.06e-05	0	62	0	1628438528	56	4754
2026-01-01 00:17:18.86	191.96	6.32	-47.3	-49.1	13.5	1.14e-05	0	62	0	1631584256	56	4656
2026-01-01 00:17:19.83	191.98	6.25	-47.1	-48.8	13.7	9.10e-06	0	62	0	1634729984	56	4520
2026-01-01 00:17:20.80	192.00	6.17	-47.0	-48.6	14.0	4.50e-06	0	62	0	1637875712	56	4434
2026-01-01 00:17:21.77	192.03	6.10	-47.1	-48.8	13.7	5.30e-06	0	62	0	1641021440	56	4542
2026-01-01 00:17:22.74	192.05	6.03	-47.4	-49.2	13.4	1.06e-05	0	62	0	1643118592	56	4716
2026-01-01 00:17:23.71	192.08	5.96	-47.2	-48.9	13.6	1.37e-05	0	62	0	1646264320	56	4594
2026-01-01 00:17:24.67	192.10	5.89	-47.3	-49.1	13.4	9.90e-06	0	62	0	1649410048	56	4677
2026-01-01 00:17:25.64	192.12	5.82	-47.4	-49.2	13.2	1.83e-05	0	62	0	1652555776	56	4749
2026-01-01 00:17:26.60	192.15	5.75	-47.3	-49.1	13.4	1.52e-05	0	62	0	1655701504	56	4693
2026-01-01 00:17:27.56	192.17	5.68	-47.3	-49.1	13.4	1.44e-05	0	62	0	1658847232	56	4660
2026-01-01 00:17:28.53	192.20	5.61	-47.3	-49.1	13.3	1.44e-05	0	62	0	1661992960	56	4671
2026-01-01 00:17:29.50	192.22	5.54	-47.5	-49.3	13.1	2.97e-05	0	62	0	1664090112	56	4814
2026-01-01 00:17:30.46	192.24	5.47	-47.3	-49.1	13.3	2.28e-05	0	62	0	1667235840	56	4697
2026-01-01 00:17:31.43	192.27	5.40	-47.4	-49.2	13.2	2.13e-05	0	62	0	1670381568	56	4737
2026-01-01 00:17:32.40	192.29	5.33	-47.4	-49.2	13.2	2.74e-05	0	62	0	1673527296	56	4754
2026-01-01 00:17:33.37	192.31	5.26	-47.4	-49.3	13.1	3.28e-05	0	62	0	1676673024	56	4782
2026-01-01 00:17:34.34	192.34	5.19	-47.5	-49.4	12.9	4.80e-05	0	62	0	1679818752	56	4859
2026-01-01 00:17:35.32	192.36	5.12	-47.6	-49.6	12.8	4.19e-05	0	62	0	1682964480	57	4661
2026-01-01 00:17:36.29	192.38	5.05	-47.5	-49.5	12.9	5.87e-05	0	62	0	1686110208	57	4614
2026-01-01 00:17:37.26	192.40	4.98	-51.8	-62.1	3.8	2.09e-02	0	62	104	1688207360	65	12472
2026-01-01 00:17:38.25	192.43	4.91	-52.1	-63.7	3.8	1.49e+00	0	62	104	1688207360	66	14106
2026-01-01 00:17:39.23	192.45	4.85	-52.5	-63.9	3.8	1.49e+00	0	62	104	1688207360	66	14457
2026-01-01 00:17:40.21	192.47	4.78	-52.6	-64.1	3.8	1.49e+00	0	62	104	1688207360	66	14769
2026-01-01 00:17:41.20	192.50	4.71	-52.6	-64.2	3.8	1.49e+00	0	62	104	1688207360	67	14084
2026-01-01 00:17:42.18	192.52	4.64	-52.6	-64.2	3.8	1.49e+00	0	62	104	1688207360	67	14171
2026-01-01 00:17:43.16	192.54	4.57	-52.8	-64.3	3.8	1.49e+00	0	62	104	1688207360	67	14270
2026-01-01 00:17:44.14	192.56	4.50	-52.9	-64.3	3.8	1.49e+00	0	62	104	1688207360	67	14305
2026-01-01 00:17:45.12	192.59	4.43	-52.7	-64.4	3.8	1.49e+00	0	62	104	1688207360	67	14390
2026-01-01 00:17:46.10	192.61	4.37	-53.0	-64.4	3.8	1.49e+00	0	62	104	1688207360	67	14423
2026-01-01 00:17:47.09	192.63	4.30	-52.7	-64.4	3.8	1.49e+00	0	62	104	1688207360	67	14448
2026-01-01 00:17:48.07	192.65	4.23	-52.8	-64.4	3.8	1.49e+00	0	62	104	1688207360	67	14521
2026-01-01 00:17:49.05	192.67	4.16	-52.8	-64.4	3.8	1.49e+00	0	62	104	1688207360	67	14537
2026-01-01 00:17:50.03	192.70	4.10	-52.8	-64.5	3.8	1.49e+00	0	62	104	1688207360	67	14546
2026-01-01 00:17:51.01	192.72	4.03	-52.9	-64.5	3.8	1.49e+00	0	62	104	1688207360	67	14639
2026-01-01 00:17:52.00	192.74	3.96	-52.9	-64.5	3.8	1.49e+00	0	62	104	1688207360	67	14576
2026-01-01 00:17:52.98	192.76	3.90	-52.9	-64.5	3.8	1.49e+00	0	62	104	1688207360	67	14594
2026-01-01 00:17:53.97	192.78	3.83	-53.0	-64.5	3.8	1.49e+00	0	62	104	1688207360	67	14611
2026-01-01 00:17:54.95	192.81	3.76	-53.0	-64.5	3.8	1.49e+00	0	62	104	1688207360	67	14610
2026-01-01 00:17:55.94	192.83	3.69	-53.0	-64.5	3.8	1.49e+00	0	62	104	1688207360	67	14663
2026-01-01 00:17:56.92	192.85	3.63	-53.2	-64.6	3.8	1.49e+00	0	62	104	1688207360	68	14027
2026-01-01 00:17:57.91	192.87	3.56	-53.1	-64.7	3.8	1.49e+00	0	62	104	1688207360	68	14058
2026-01-01 00:17:58.89	192.89	3.50	-53.2	-64.6	3.8	1.49e+00	0	63	104	1688207360	68	14046
2026-01-01 00:17:59.87	192.91	3.43	-53.2	-64.7	3.8	1.49e+00	0	62	104	1688207360	68	14049
2026-01-01 00:18:00.86	192.93	3.36	-53.2	-64.7	3.8	1.49e+00	0	62	104	1688207360	68	14051
2026-01-01 00:18:01.84	192.95	3.30	-53.2	-64.6	3.8	1.49e+00	0	62	104	1688207360	68	14017
2026-01-01 00:18:02.82	192.98	3.23	-52.9	-64.6	3.8	1.49e+00	0	63	104	1688207360	68	14037
2026-01-01 00:18:03.81	193.00	3.17	-52.9	-64.6	3.8	1.49e+00	0	62	104	1688207360	68	13996
2026-01-01 00:18:04.79	193.02	3.10	-53.0	-64.6	3.8	1.49e+00	0	62	104	1688207360	68	14014
2026-01-01 00:18:05.77	193.04	3.04	-53.1	-64.6	3.8	1.49e+00	0	62	104	1688207360	68	14032

#Closed at: 2026-01-01 00:18:06
#Recorded file [1688 MB]: D:/Data/31026_260101_031737.dat