passes_logs/2026/01/01/R3.0SM8_Murmansk_STILSPACE/R3.0SM8_Murmansk_STILSPACE__20260101_013442_AQUA_rec.log

#Pass ID: 20260101_013442_AQUA
#Satellite: AQUA
#Configuration: AQUA
#almurnet v.1.7.20240730
#Start time: 2026-01-01 01:34:43

#Version: 2.2.20231116
#Station: R3.0SM8_Murmansk_STILSPACE
#Location: 33.092731 lon 68.902999 lat
#TLE: 1 27424U 02022A   25364.96158943  .00001951  00000+0  40088-3 0  9998
#TLE: 2 27424  98.4061 326.1389 0001917  95.3187 305.7939 14.61780362258696

#Time	Az	El	Level	Level2	SNR	BER	BlckErr	Temp	State	Recorded	gain1	gain2
2026-01-01 01:34:43.65	22.50	3.07	-54.5	-74.4	3.8	7.41e-01	0	49	0	0	71	37060
2026-01-01 01:34:44.64	22.53	3.14	-54.2	-74.1	3.8	7.44e-01	0	50	104	0	71	35863
2026-01-01 01:34:45.63	22.56	3.20	-54.1	-74.0	3.8	7.46e-01	0	50	104	0	71	35350
2026-01-01 01:34:46.61	22.59	3.27	-53.9	-73.8	3.8	7.44e-01	0	50	104	0	71	34550
2026-01-01 01:34:47.60	22.62	3.34	-53.5	-73.3	3.8	7.48e-01	0	50	104	0	70	34612
2026-01-01 01:34:48.59	22.65	3.41	-52.0	-68.3	3.8	7.45e-01	0	50	104	0	67	23270
2026-01-01 01:34:49.57	22.68	3.47	-51.8	-67.6	3.8	7.44e-01	0	50	104	0	67	21466
2026-01-01 01:34:50.55	22.71	3.54	-51.8	-67.6	3.8	7.44e-01	0	50	104	0	67	21406
2026-01-01 01:34:51.53	22.74	3.61	-51.6	-67.2	3.8	7.44e-01	0	50	104	0	66	21600
2026-01-01 01:34:52.51	22.77	3.68	-51.7	-67.3	3.8	7.43e-01	0	50	104	0	66	21758
2026-01-01 01:34:53.50	22.80	3.75	-51.6	-67.0	3.8	7.46e-01	0	51	104	0	66	21066
2026-01-01 01:34:54.48	22.83	3.81	-51.6	-66.9	3.8	7.44e-01	0	51	104	0	66	21014
2026-01-01 01:34:55.46	22.87	3.88	-51.7	-67.4	3.8	7.45e-01	0	51	104	0	66	22182
2026-01-01 01:34:56.44	22.90	3.95	-51.8	-67.6	3.8	7.47e-01	0	50	104	0	66	22750
2026-01-01 01:34:57.43	22.93	4.02	-51.8	-67.7	3.8	7.43e-01	0	51	104	0	66	22936
2026-01-01 01:34:58.41	22.96	4.09	-51.7	-67.3	3.8	7.45e-01	0	51	104	0	66	21959
2026-01-01 01:34:59.40	22.99	4.16	-51.5	-66.8	3.8	7.42e-01	0	51	104	0	66	20540
2026-01-01 01:35:00.39	23.02	4.23	-51.3	-66.0	3.8	7.43e-01	0	51	104	0	66	18927
2026-01-01 01:35:01.37	23.05	4.30	-51.0	-65.2	3.8	7.46e-01	0	51	104	0	65	18246
2026-01-01 01:35:02.35	23.09	4.37	-50.8	-64.7	3.8	7.48e-01	0	51	104	0	65	17153
2026-01-01 01:35:03.33	23.12	4.44	-50.7	-64.5	3.8	7.47e-01	0	51	104	0	64	17865
2026-01-01 01:35:04.32	23.15	4.51	-50.6	-64.4	3.8	7.44e-01	0	51	104	0	64	17559
2026-01-01 01:35:05.30	23.18	4.58	-50.7	-64.7	3.8	7.49e-01	0	51	104	0	64	18120
2026-01-01 01:35:06.29	23.22	4.65	-50.9	-65.0	3.8	7.43e-01	0	51	104	0	64	18936
2026-01-01 01:35:07.27	23.25	4.72	-50.9	-65.1	3.8	7.47e-01	0	51	104	0	64	19081
2026-01-01 01:35:08.26	23.28	4.79	-51.1	-65.5	3.8	7.42e-01	0	51	104	0	64	19988
2026-01-01 01:35:09.23	23.31	4.86	-51.2	-65.9	3.8	7.44e-01	0	51	104	0	64	20919
2026-01-01 01:35:10.22	23.35	4.94	-51.3	-66.3	3.8	7.45e-01	0	51	104	0	64	21997
2026-01-01 01:35:11.20	23.38	5.01	-51.3	-66.3	3.8	7.46e-01	0	51	104	0	64	21988
2026-01-01 01:35:12.18	23.41	5.08	-51.2	-66.1	3.8	7.46e-01	0	52	104	0	64	21381
2026-01-01 01:35:13.16	23.45	5.15	-51.0	-65.6	3.8	7.44e-01	0	52	104	0	64	20173
2026-01-01 01:35:14.15	23.48	5.22	-50.9	-65.0	3.8	7.46e-01	0	52	104	0	64	18804
2026-01-01 01:35:15.14	23.51	5.30	-50.6	-64.2	3.8	7.46e-01	0	52	104	0	64	17121
2026-01-01 01:35:16.13	23.55	5.37	-50.3	-63.4	3.8	7.44e-01	0	52	104	0	64	15701
2026-01-01 01:35:17.11	23.58	5.44	-50.1	-63.0	3.8	7.43e-01	0	52	104	0	63	15799
2026-01-01 01:35:18.10	23.62	5.52	-49.9	-62.6	3.8	7.45e-01	0	52	104	0	63	15061
2026-01-01 01:35:19.09	23.65	5.59	-50.2	-62.9	3.8	7.46e-01	0	52	104	0	63	15756
2026-01-01 01:35:20.07	23.69	5.66	-50.6	-63.6	3.8	7.47e-01	0	52	104	0	63	16951
2026-01-01 01:35:21.05	23.72	5.74	-50.9	-64.3	3.9	7.47e-01	0	52	104	0	64	17292
2026-01-01 01:35:22.04	23.76	5.81	-51.0	-64.6	3.8	7.42e-01	0	52	104	0	64	17971
2026-01-01 01:35:23.02	23.79	5.89	-51.3	-65.2	3.8	7.46e-01	0	52	104	0	64	19360
2026-01-01 01:35:24.00	23.83	5.96	-51.6	-65.9	3.8	7.48e-01	0	52	104	0	65	19664
2026-01-01 01:35:24.98	23.86	6.04	-51.6	-65.7	3.8	7.42e-01	0	53	104	0	65	19299
2026-01-01 01:35:25.97	23.90	6.11	-51.7	-66.0	3.8	7.44e-01	0	53	104	0	65	19981
2026-01-01 01:35:26.96	23.93	6.19	-51.8	-66.2	3.8	7.40e-01	0	53	104	0	65	20414
2026-01-01 01:35:27.94	23.97	6.26	-51.8	-66.4	3.8	7.43e-01	0	53	104	0	65	20867
2026-01-01 01:35:28.92	24.01	6.34	-52.0	-66.9	3.8	7.47e-01	0	53	104	0	66	20804
2026-01-01 01:35:29.90	24.04	6.41	-52.1	-67.2	3.8	7.46e-01	0	53	104	0	66	21515
2026-01-01 01:35:30.89	24.08	6.49	-52.3	-67.8	3.8	7.45e-01	0	53	104	0	66	23072
2026-01-01 01:35:31.88	24.12	6.57	-52.2	-67.5	3.8	7.45e-01	0	53	104	0	66	22305
2026-01-01 01:35:32.86	24.15	6.64	-51.9	-66.7	3.8	7.43e-01	0	53	104	0	66	20336
2026-01-01 01:35:33.84	24.19	6.72	-51.6	-65.8	3.8	7.44e-01	0	53	104	0	66	18419
2026-01-01 01:35:34.82	24.23	6.80	-51.4	-65.2	3.8	7.45e-01	0	53	104	0	66	17115
2026-01-01 01:35:35.80	24.27	6.88	-51.3	-64.9	3.8	7.44e-01	0	53	104	0	66	16626
2026-01-01 01:35:36.79	24.30	6.95	-51.3	-65.0	3.8	7.48e-01	0	53	104	0	66	16882
2026-01-01 01:35:37.78	24.34	7.03	-51.4	-65.4	3.8	7.46e-01	0	53	104	0	66	17607
2026-01-01 01:35:38.76	24.38	7.11	-51.6	-66.0	3.8	7.49e-01	0	53	104	0	66	18921
2026-01-01 01:35:39.74	24.42	7.19	-51.8	-66.9	3.8	7.43e-01	0	53	104	0	66	20815
2026-01-01 01:35:40.73	24.46	7.27	-51.9	-67.5	3.8	7.45e-01	0	53	104	0	66	22447
2026-01-01 01:35:41.71	24.50	7.35	-52.1	-68.4	3.8	7.48e-01	0	53	104	0	66	24931
2026-01-01 01:35:42.69	24.53	7.43	-52.2	-69.4	3.8	7.45e-01	0	54	104	0	66	27720
2026-01-01 01:35:43.68	24.57	7.51	-52.1	-69.3	3.8	7.45e-01	0	54	104	0	66	27547
2026-01-01 01:35:44.66	24.61	7.59	-52.0	-69.2	3.8	7.44e-01	0	54	104	0	66	27192
2026-01-01 01:35:45.64	24.65	7.67	-51.9	-69.1	3.8	7.49e-01	0	54	104	0	66	26868
2026-01-01 01:35:46.63	24.69	7.75	-51.9	-68.9	3.8	7.44e-01	0	54	104	0	66	26283
2026-01-01 01:35:47.61	24.73	7.83	-51.9	-68.7	3.8	7.42e-01	0	54	104	0	66	25809
2026-01-01 01:35:48.60	24.77	7.91	-51.9	-68.5	3.8	7.45e-01	0	54	104	0	66	25079
2026-01-01 01:35:49.58	24.81	7.99	-52.0	-68.2	3.8	7.44e-01	0	54	104	0	66	24275
2026-01-01 01:35:50.56	24.85	8.07	-51.8	-67.0	3.8	7.43e-01	0	54	104	0	66	21085
2026-01-01 01:35:51.55	24.89	8.15	-51.7	-66.6	3.8	7.43e-01	0	54	104	0	66	20282
2026-01-01 01:35:52.53	24.94	8.24	-51.6	-66.1	3.8	7.40e-01	0	54	104	0	66	19066
2026-01-01 01:35:53.52	24.98	8.32	-51.3	-65.3	3.8	7.44e-01	0	54	104	0	66	17316
2026-01-01 01:35:54.50	25.02	8.40	-51.0	-64.6	3.8	7.44e-01	0	54	104	0	65	16890
2026-01-01 01:35:55.48	25.06	8.48	-50.9	-64.2	3.8	7.44e-01	0	54	104	0	65	16148
2026-01-01 01:35:56.47	25.10	8.57	-51.0	-64.4	3.8	7.44e-01	0	54	104	0	65	16575
2026-01-01 01:35:57.45	25.14	8.65	-50.9	-64.1	3.8	7.46e-01	0	54	104	0	65	16078
2026-01-01 01:35:58.44	25.19	8.74	-50.8	-63.9	3.8	7.45e-01	0	54	104	0	65	15733
2026-01-01 01:35:59.42	25.23	8.82	-50.8	-64.0	3.8	7.45e-01	0	54	104	0	65	15823
2026-01-01 01:36:00.40	25.27	8.90	-50.9	-64.0	3.8	7.43e-01	0	54	104	0	65	15878
2026-01-01 01:36:01.38	25.32	8.99	-50.9	-64.0	3.8	7.42e-01	0	54	104	0	65	15882
2026-01-01 01:36:02.37	25.36	9.07	-50.6	-63.3	3.8	7.48e-01	0	54	104	0	64	15576
2026-01-01 01:36:03.36	25.40	9.16	-50.2	-62.8	3.8	7.42e-01	0	54	104	0	64	14603
2026-01-01 01:36:04.34	25.45	9.25	-50.1	-62.4	3.8	7.45e-01	0	54	104	0	63	14833
2026-01-01 01:36:05.32	25.49	9.33	-49.8	-61.9	3.8	7.43e-01	0	55	104	0	63	13990
2026-01-01 01:36:06.30	25.54	9.42	-49.7	-61.7	3.8	7.43e-01	0	54	104	0	62	14453
2026-01-01 01:36:07.29	25.58	9.51	-49.5	-61.5	3.8	7.42e-01	0	55	104	0	62	14116
2026-01-01 01:36:08.28	25.63	9.59	-49.5	-61.3	3.8	7.43e-01	0	55	104	0	62	13880
2026-01-01 01:36:09.26	25.67	9.68	-49.4	-61.3	3.8	7.40e-01	0	55	104	0	62	13747
2026-01-01 01:36:10.24	25.72	9.77	-49.5	-61.4	3.9	7.46e-01	0	55	104	0	62	13991
2026-01-01 01:36:11.23	25.76	9.86	-49.6	-61.6	3.8	7.43e-01	0	55	104	0	62	14227
2026-01-01 01:36:12.21	25.81	9.94	-49.8	-61.8	3.8	7.44e-01	0	55	104	0	62	14559
2026-01-01 01:36:13.19	25.85	10.03	-50.1	-62.2	3.8	7.45e-01	0	55	104	0	62	15328
2026-01-01 01:36:14.18	25.90	10.12	-50.4	-62.8	3.8	7.46e-01	0	55	104	0	62	16337
2026-01-01 01:36:15.16	25.95	10.21	-50.8	-63.4	3.8	7.45e-01	0	55	104	0	63	16647
2026-01-01 01:36:16.14	26.00	10.30	-50.8	-63.5	3.8	7.48e-01	0	55	104	0	64	15924
2026-01-01 01:36:17.12	26.04	10.39	-50.8	-63.5	3.8	7.44e-01	0	55	104	0	64	15921
2026-01-01 01:36:18.10	26.09	10.48	-50.9	-63.8	3.8	7.45e-01	0	55	104	0	64	16427
2026-01-01 01:36:19.09	26.14	10.57	-51.2	-64.4	3.8	7.47e-01	0	55	104	0	64	17508
2026-01-01 01:36:20.07	26.19	10.66	-51.4	-64.7	3.8	7.44e-01	0	55	104	0	64	18256
2026-01-01 01:36:21.05	26.23	10.76	-51.7	-65.3	3.9	7.45e-01	0	55	104	0	65	18423
2026-01-01 01:36:22.04	26.28	10.85	-51.7	-65.4	3.8	7.45e-01	0	55	104	0	65	18597
2026-01-01 01:36:23.02	26.33	10.94	-52.0	-66.1	3.8	7.44e-01	0	55	104	0	66	18951
2026-01-01 01:36:24.01	26.38	11.03	-52.4	-67.0	3.8	7.45e-01	0	55	104	0	66	21153
2026-01-01 01:36:24.99	26.43	11.13	-52.0	-66.1	3.8	7.42e-01	0	55	104	0	67	18084
2026-01-01 01:36:25.98	26.48	11.22	-51.7	-65.4	3.8	7.46e-01	0	56	104	0	67	16596
2026-01-01 01:36:26.96	26.53	11.31	-51.3	-64.7	3.8	7.42e-01	0	55	104	0	66	16193
2026-01-01 01:36:27.94	26.58	11.41	-51.6	-65.2	3.8	7.45e-01	0	55	104	0	66	17260
2026-01-01 01:36:28.92	26.63	11.50	-51.9	-65.9	3.8	7.46e-01	0	56	104	0	66	18686
2026-01-01 01:36:29.91	26.69	11.60	-52.2	-66.8	3.8	7.45e-01	0	55	104	0	66	20600
2026-01-01 01:36:30.89	26.74	11.69	-52.4	-67.5	3.8	7.46e-01	0	56	104	0	67	21202
2026-01-01 01:36:31.88	26.79	11.79	-52.7	-68.4	3.8	7.46e-01	0	55	104	0	67	23377
2026-01-01 01:36:32.86	26.84	11.89	-52.8	-69.1	3.8	7.45e-01	0	55	104	0	67	25481
2026-01-01 01:36:33.84	26.90	11.98	-52.7	-68.6	3.8	7.45e-01	0	56	104	0	67	23941
2026-01-01 01:36:34.82	26.95	12.08	-52.6	-68.2	3.8	7.45e-01	0	56	104	0	67	22798
2026-01-01 01:36:35.81	27.00	12.18	-52.5	-67.9	3.8	7.46e-01	0	56	104	0	67	22107
2026-01-01 01:36:36.79	27.06	12.27	-52.4	-67.9	3.8	7.43e-01	0	56	104	0	67	22015
2026-01-01 01:36:37.78	27.11	12.37	-52.4	-67.7	3.8	7.46e-01	0	56	104	0	67	21513
2026-01-01 01:36:38.76	27.16	12.47	-52.3	-67.3	3.8	7.44e-01	0	56	104	0	67	20767
2026-01-01 01:36:39.75	27.22	12.57	-52.3	-67.1	3.8	7.43e-01	0	56	104	0	67	20269
2026-01-01 01:36:40.73	27.27	12.67	-52.1	-66.4	3.8	7.42e-01	0	56	104	0	67	18530
2026-01-01 01:36:41.71	27.33	12.77	-51.7	-65.3	3.8	7.45e-01	0	56	104	0	67	16389
2026-01-01 01:36:42.69	27.39	12.87	-51.3	-64.3	3.8	7.46e-01	0	56	104	0	66	15458
2026-01-01 01:36:43.68	27.44	12.97	-50.9	-63.6	3.8	7.40e-01	0	56	104	0	65	15124
2026-01-01 01:36:44.66	27.50	13.07	-50.4	-62.8	3.8	7.42e-01	0	56	104	0	64	14618
2026-01-01 01:36:45.65	27.56	13.17	-50.1	-62.3	3.8	7.47e-01	0	56	104	0	63	14552
2026-01-01 01:36:46.63	27.61	13.28	-49.9	-61.9	3.9	7.45e-01	0	56	104	0	63	14045
2026-01-01 01:36:47.61	27.67	13.38	-49.9	-62.0	3.8	7.47e-01	0	56	104	0	63	14060
2026-01-01 01:36:48.60	27.73	13.48	-50.1	-62.2	3.8	7.42e-01	0	56	104	0	63	14459
2026-01-01 01:36:49.58	27.79	13.59	-50.3	-62.6	3.8	7.46e-01	0	56	104	0	63	15094
2026-01-01 01:36:50.56	27.85	13.69	-50.4	-62.7	3.8	7.42e-01	0	56	104	0	63	15346
2026-01-01 01:36:51.55	27.91	13.79	-50.3	-62.6	3.8	7.45e-01	0	56	104	0	63	15118
2026-01-01 01:36:52.53	27.97	13.90	-50.0	-62.1	3.8	7.43e-01	0	56	104	0	63	14292
2026-01-01 01:36:53.52	28.03	14.01	-49.8	-61.8	3.8	7.40e-01	0	56	104	0	63	13801
2026-01-01 01:36:54.50	28.09	14.11	-49.5	-61.3	3.8	7.42e-01	0	56	104	0	62	13779
2026-01-01 01:36:55.48	28.15	14.22	-49.2	-60.9	3.8	7.44e-01	0	56	104	0	62	13224
2026-01-01 01:36:56.46	28.21	14.32	-49.0	-60.6	3.8	7.46e-01	0	56	104	0	61	13429
2026-01-01 01:36:57.44	28.27	14.43	-48.9	-60.4	3.8	7.45e-01	0	56	104	0	61	13188
2026-01-01 01:36:58.43	28.34	14.54	-48.8	-60.4	3.8	7.46e-01	0	57	104	0	61	13200
2026-01-01 01:36:59.41	28.40	14.65	-49.0	-60.6	3.8	7.43e-01	0	56	104	0	61	13415
2026-01-01 01:37:00.40	28.46	14.76	-49.0	-60.6	3.8	7.46e-01	0	56	104	0	61	13521
2026-01-01 01:37:01.39	28.53	14.87	-49.0	-60.5	3.8	7.45e-01	0	57	104	0	61	13396
2026-01-01 01:37:02.38	28.59	14.98	-48.9	-60.5	3.8	7.45e-01	0	57	104	0	61	13303
2026-01-01 01:37:03.37	28.66	15.09	-49.0	-60.5	3.8	7.43e-01	0	57	104	0	61	13376
2026-01-01 01:37:04.35	28.72	15.20	-49.1	-60.7	3.8	7.43e-01	0	57	104	0	61	13713
2026-01-01 01:37:05.34	28.79	15.31	-49.2	-61.0	3.8	7.44e-01	0	57	104	0	61	14048
2026-01-01 01:37:06.31	28.85	15.42	-49.4	-61.1	3.9	7.46e-01	0	57	104	0	61	14354
2026-01-01 01:37:07.30	28.92	15.54	-49.8	-61.7	3.8	7.43e-01	0	57	104	0	61	15345
2026-01-01 01:37:08.28	28.99	15.65	-50.0	-62.1	3.8	7.45e-01	0	57	104	0	62	15071
2026-01-01 01:37:09.26	29.06	15.76	-50.3	-62.5	3.8	7.45e-01	0	57	104	0	62	15788
2026-01-01 01:37:10.25	29.12	15.88	-50.6	-63.0	3.8	7.43e-01	0	57	104	0	63	15860
2026-01-01 01:37:11.22	29.19	15.99	-51.0	-63.6	3.8	7.45e-01	0	57	104	0	64	16103
2026-01-01 01:37:12.21	29.26	16.11	-51.4	-64.3	3.8	7.47e-01	0	57	104	0	64	17472
2026-01-01 01:37:13.19	29.33	16.22	-51.7	-64.9	3.8	7.44e-01	0	57	104	0	65	17549
2026-01-01 01:37:14.18	29.40	16.34	-51.9	-65.5	3.9	7.43e-01	0	57	104	0	66	17774
2026-01-01 01:37:15.16	29.47	16.46	-52.3	-66.3	3.8	7.46e-01	0	57	104	0	66	19478
2026-01-01 01:37:16.15	29.55	16.58	-52.5	-67.0	3.8	7.47e-01	0	57	104	0	67	19853
2026-01-01 01:37:17.13	29.62	16.69	-52.3	-66.2	3.8	7.44e-01	0	57	104	0	67	18250
2026-01-01 01:37:18.11	29.69	16.81	-52.0	-65.7	3.8	7.47e-01	0	57	104	0	67	17101
2026-01-01 01:37:19.10	29.76	16.93	-52.4	-66.4	3.8	7.45e-01	0	57	104	0	67	18663
2026-01-01 01:37:20.08	29.84	17.05	-52.7	-67.3	3.8	7.46e-01	0	57	104	0	67	20713
2026-01-01 01:37:21.07	29.91	17.17	-52.7	-67.3	3.8	7.44e-01	0	57	104	0	67	20712
2026-01-01 01:37:22.06	29.99	17.30	-53.0	-68.2	3.8	7.45e-01	0	57	104	0	68	21602
2026-01-01 01:37:23.04	30.06	17.42	-53.3	-69.0	3.8	7.45e-01	0	57	104	0	68	23584
2026-01-01 01:37:24.02	30.14	17.54	-53.0	-68.1	3.8	7.46e-01	0	57	104	0	68	21354
2026-01-01 01:37:25.00	30.22	17.66	-52.7	-67.2	3.8	7.42e-01	0	57	104	0	68	19240
2026-01-01 01:37:25.99	30.29	17.79	-52.5	-66.6	3.8	7.42e-01	0	57	104	0	68	17970
2026-01-01 01:37:26.98	30.37	17.91	-52.3	-66.1	3.8	7.45e-01	0	57	104	0	68	16997
2026-01-01 01:37:27.96	30.45	18.04	-52.0	-65.6	3.8	7.44e-01	0	57	104	0	67	17034
2026-01-01 01:37:28.94	30.53	18.16	-51.9	-65.4	3.8	7.47e-01	0	57	104	0	67	16643
2026-01-01 01:37:29.93	30.61	18.29	-51.9	-65.3	3.8	7.43e-01	0	57	104	0	67	16379
2026-01-01 01:37:30.91	30.69	18.42	-51.9	-65.4	3.8	7.44e-01	0	57	104	0	67	16690
2026-01-01 01:37:31.90	30.77	18.55	-51.4	-64.5	3.8	7.47e-01	0	58	104	0	66	15794
2026-01-01 01:37:32.88	30.86	18.68	-51.0	-63.6	3.8	7.45e-01	0	58	104	0	65	15152
2026-01-01 01:37:33.86	30.94	18.80	-50.5	-62.8	3.8	7.41e-01	0	58	104	0	64	14612
2026-01-01 01:37:34.84	31.02	18.93	-50.1	-62.2	3.8	7.42e-01	0	57	104	0	63	14396
2026-01-01 01:37:35.83	31.11	19.07	-49.7	-61.4	3.9	7.45e-01	0	57	104	0	62	14011
2026-01-01 01:37:36.82	31.19	19.20	-49.6	-61.3	3.8	7.44e-01	0	57	104	0	62	13776
2026-01-01 01:37:37.81	31.28	19.33	-49.2	-60.8	3.8	7.47e-01	0	58	104	0	62	13091
2026-01-01 01:37:38.79	31.36	19.46	-49.2	-60.8	3.8	7.45e-01	0	58	104	0	61	13849
2026-01-01 01:37:39.77	31.45	19.60	-49.4	-61.1	3.8	7.45e-01	0	57	104	0	61	14265
2026-01-01 01:37:40.76	31.54	19.73	-49.7	-61.5	3.8	7.47e-01	0	58	104	0	61	15021
2026-01-01 01:37:41.74	31.63	19.87	-50.1	-62.1	3.8	7.41e-01	0	58	104	0	62	15131
2026-01-01 01:37:42.73	31.72	20.00	-50.0	-62.0	3.8	7.47e-01	0	58	104	0	62	14949
2026-01-01 01:37:43.71	31.81	20.14	-49.7	-61.5	3.8	7.45e-01	0	58	104	0	62	14149
2026-01-01 01:37:44.70	31.90	20.28	-49.5	-61.2	3.8	7.45e-01	0	58	104	0	62	13690
2026-01-01 01:37:45.68	31.99	20.42	-49.3	-60.9	3.8	7.43e-01	0	58	104	0	62	13141
2026-01-01 01:37:46.67	32.09	20.56	-49.1	-60.6	3.8	7.42e-01	0	58	104	0	61	13486
2026-01-01 01:37:47.65	32.18	20.69	-49.1	-60.6	3.8	7.44e-01	0	58	104	0	61	13522
2026-01-01 01:37:48.64	32.28	20.84	-49.2	-60.8	3.8	7.43e-01	0	58	104	0	61	13848
2026-01-01 01:37:49.62	32.37	20.98	-49.5	-61.2	3.8	7.41e-01	0	58	104	0	61	14415
2026-01-01 01:37:50.61	32.47	21.12	-49.5	-61.2	3.8	7.43e-01	0	58	104	0	61	14540
2026-01-01 01:37:51.59	32.56	21.26	-49.3	-61.0	3.8	7.43e-01	0	58	104	0	61	14101
2026-01-01 01:37:52.57	32.66	21.41	-49.3	-60.9	3.8	7.47e-01	0	58	104	0	61	14033
2026-01-01 01:37:53.56	32.76	21.55	-49.2	-60.9	3.8	7.46e-01	0	58	104	0	61	13964
2026-01-01 01:37:54.54	32.86	21.70	-49.2	-60.9	3.8	7.41e-01	0	58	104	0	61	13988
2026-01-01 01:37:55.53	32.96	21.84	-49.2	-60.8	3.8	7.42e-01	0	58	104	0	61	13735
2026-01-01 01:37:56.52	33.07	21.99	-49.3	-60.8	3.8	7.42e-01	0	58	104	0	61	13833
2026-01-01 01:37:57.50	33.17	22.14	-49.4	-61.1	3.8	7.42e-01	0	58	104	0	61	14225
2026-01-01 01:37:58.49	33.27	22.29	-49.7	-61.4	3.8	7.46e-01	0	58	104	0	61	14842
2026-01-01 01:37:59.47	33.38	22.44	-50.0	-62.0	3.8	7.46e-01	0	58	104	0	62	14897
2026-01-01 01:38:00.46	33.49	22.59	-50.5	-62.7	3.8	7.46e-01	0	58	104	0	63	15229
2026-01-01 01:38:01.44	33.59	22.74	-50.9	-63.3	3.8	7.44e-01	0	58	104	0	64	15578
2026-01-01 01:38:02.43	33.70	22.89	-51.4	-64.3	3.8	7.44e-01	0	58	104	0	64	17316
2026-01-01 01:38:03.41	33.81	23.05	-51.8	-64.9	3.8	7.47e-01	0	58	104	0	65	17669
2026-01-01 01:38:04.39	33.92	23.20	-52.0	-65.3	3.8	7.43e-01	0	58	104	0	66	17452
2026-01-01 01:38:05.38	34.03	23.35	-52.2	-65.7	3.8	7.45e-01	0	58	104	0	66	18194
2026-01-01 01:38:06.36	34.14	23.51	-52.3	-66.0	3.8	7.43e-01	0	58	104	0	66	18734
2026-01-01 01:38:07.35	34.26	23.67	-52.4	-66.1	3.8	7.44e-01	0	58	104	0	66	19094
2026-01-01 01:38:08.34	34.37	23.83	-52.5	-66.5	3.8	7.41e-01	0	58	104	0	67	18945
2026-01-01 01:38:09.33	34.49	23.99	-52.7	-67.1	3.8	7.48e-01	0	58	104	0	67	20146
2026-01-01 01:38:10.31	34.61	24.15	-53.2	-68.3	3.8	7.45e-01	0	58	104	0	68	21966
2026-01-01 01:38:11.29	34.72	24.31	-53.5	-69.0	3.8	7.44e-01	0	58	104	0	69	22508
2026-01-01 01:38:12.27	34.84	24.47	-53.6	-69.5	3.8	7.46e-01	0	58	104	0	69	23626
2026-01-01 01:38:13.25	34.96	24.63	-53.4	-68.8	3.8	7.46e-01	0	58	104	0	69	21852
2026-01-01 01:38:14.23	35.09	24.79	-53.2	-68.1	3.8	7.43e-01	0	58	104	0	69	20105
2026-01-01 01:38:15.22	35.21	24.96	-52.9	-67.3	3.8	7.45e-01	0	58	104	0	69	18377
2026-01-01 01:38:16.20	35.33	25.12	-52.6	-66.5	3.8	7.47e-01	0	58	104	0	68	17828
2026-01-01 01:38:17.19	35.46	25.29	-52.2	-65.7	3.8	7.43e-01	0	58	104	0	68	16153
2026-01-01 01:38:18.17	35.59	25.46	-51.8	-64.9	3.8	7.44e-01	0	58	104	0	67	15718
2026-01-01 01:38:19.16	35.72	25.63	-51.5	-64.5	3.8	7.42e-01	0	58	104	0	66	15803
2026-01-01 01:38:20.14	35.85	25.79	-51.3	-64.1	3.8	7.44e-01	0	58	104	0	66	15127
2026-01-01 01:38:21.13	35.98	25.97	-51.2	-63.9	3.8	7.46e-01	0	58	104	0	66	14775
2026-01-01 01:38:22.12	36.11	26.14	-51.1	-63.7	3.8	7.44e-01	0	58	104	0	65	15232
2026-01-01 01:38:23.10	36.25	26.31	-50.5	-62.7	3.8	7.45e-01	0	59	104	0	64	14407
2026-01-01 01:38:24.08	36.38	26.48	-50.1	-62.0	3.8	7.43e-01	0	58	104	0	63	14134
2026-01-01 01:38:25.07	36.52	26.66	-49.7	-61.5	3.8	7.44e-01	0	59	104	0	63	13274
2026-01-01 01:38:26.05	36.66	26.83	-49.5	-61.2	3.8	7.43e-01	0	58	104	0	62	13603
2026-01-01 01:38:27.03	36.80	27.01	-49.2	-60.8	3.8	7.46e-01	0	58	104	0	62	13034
2026-01-01 01:38:28.01	36.94	27.19	-49.0	-60.4	3.8	7.44e-01	0	58	104	0	61	13215
2026-01-01 01:38:28.99	37.08	27.37	-48.8	-60.2	3.8	7.44e-01	0	58	104	0	61	12863
2026-01-01 01:38:29.98	37.23	27.55	-48.8	-60.1	3.8	7.43e-01	0	58	104	0	61	12770
2026-01-01 01:38:30.97	37.38	27.73	-48.9	-60.3	3.8	7.46e-01	0	58	104	0	61	13025
2026-01-01 01:38:31.95	37.53	27.91	-49.3	-60.9	3.8	7.43e-01	0	59	104	0	61	14007
2026-01-01 01:38:32.94	37.68	28.10	-49.6	-61.4	3.8	7.43e-01	0	58	104	0	61	14857
2026-01-01 01:38:33.92	37.83	28.28	-50.1	-62.0	3.8	7.45e-01	0	59	104	0	62	14956
2026-01-01 01:38:34.91	37.98	28.47	-49.8	-61.6	3.8	7.44e-01	0	59	104	0	62	14261
2026-01-01 01:38:35.89	38.14	28.65	-49.7	-61.4	3.8	7.40e-01	0	58	104	0	62	13997
2026-01-01 01:38:36.88	38.30	28.84	-49.7	-61.5	3.8	7.46e-01	0	59	104	0	62	14138
2026-01-01 01:38:37.86	38.46	29.03	-49.9	-61.7	3.8	7.44e-01	0	59	104	0	62	14424
2026-01-01 01:38:38.85	38.62	29.22	-50.1	-62.1	3.8	7.46e-01	0	59	104	0	62	15136
2026-01-01 01:38:39.83	38.78	29.41	-50.3	-62.3	3.8	7.47e-01	0	59	104	0	62	15518
2026-01-01 01:38:40.82	38.95	29.61	-50.5	-62.6	3.8	7.45e-01	0	59	104	0	63	15064
2026-01-01 01:38:41.80	39.11	29.80	-50.8	-63.0	3.8	7.47e-01	0	59	104	0	63	15911
2026-01-01 01:38:42.78	39.28	29.99	-50.6	-62.8	3.8	7.45e-01	0	59	104	0	64	14626
2026-01-01 01:38:43.77	39.45	30.19	-50.3	-62.3	3.8	7.45e-01	0	59	104	0	64	13874
2026-01-01 01:38:44.75	39.63	30.39	-50.1	-62.0	3.8	7.43e-01	0	59	104	0	63	14204
2026-01-01 01:38:45.73	39.80	30.59	-49.9	-61.7	3.8	7.46e-01	0	59	104	0	63	13696
2026-01-01 01:38:46.71	39.98	30.78	-49.8	-61.5	3.8	7.46e-01	0	59	104	0	63	13382
2026-01-01 01:38:47.70	40.16	30.99	-49.7	-61.4	3.8	7.43e-01	0	59	104	0	63	13191
2026-01-01 01:38:48.68	40.34	31.19	-49.9	-61.7	3.8	7.44e-01	0	59	104	0	63	13692
2026-01-01 01:38:49.66	40.53	31.39	-50.1	-62.0	3.8	7.45e-01	0	59	104	0	63	14096
2026-01-01 01:38:50.65	40.71	31.60	-50.3	-62.3	3.8	7.45e-01	0	59	104	0	63	14673
2026-01-01 01:38:51.63	40.90	31.80	-50.8	-63.1	3.8	7.43e-01	0	59	104	0	63	16037
2026-01-01 01:38:52.62	41.10	32.01	-51.2	-63.9	3.8	7.40e-01	0	59	104	0	64	16511
2026-01-01 01:38:53.61	41.29	32.22	-51.9	-65.0	3.8	7.40e-01	0	59	104	0	65	17840
2026-01-01 01:38:54.59	41.49	32.43	-52.1	-65.4	3.8	7.47e-01	0	59	104	0	66	17617
2026-01-01 01:38:55.57	41.69	32.64	-52.2	-65.5	3.8	7.45e-01	0	59	104	0	66	17880
2026-01-01 01:38:56.55	41.89	32.85	-52.4	-65.9	3.8	7.44e-01	0	59	104	0	66	18715
2026-01-01 01:38:57.54	42.09	33.06	-52.5	-66.4	3.8	7.44e-01	0	59	104	0	67	18528
2026-01-01 01:38:58.52	42.30	33.28	-52.7	-66.9	3.8	7.47e-01	0	59	104	0	67	19693
2026-01-01 01:38:59.51	42.51	33.49	-53.0	-67.4	3.8	7.46e-01	0	59	104	0	68	19808
2026-01-01 01:39:00.49	42.72	33.71	-53.2	-67.9	3.8	7.45e-01	0	59	104	0	68	20847
2026-01-01 01:39:01.48	42.94	33.93	-53.5	-68.7	3.8	7.45e-01	0	59	104	0	69	21652
2026-01-01 01:39:02.46	43.16	34.15	-53.6	-69.2	3.8	7.44e-01	0	59	104	0	69	22894
2026-01-01 01:39:03.45	43.38	34.37	-53.5	-69.0	3.8	7.41e-01	0	59	104	0	69	22295
2026-01-01 01:39:04.44	43.61	34.59	-53.4	-68.4	3.8	7.42e-01	0	59	104	0	69	20884
2026-01-01 01:39:05.43	43.84	34.81	-53.2	-67.8	3.8	7.48e-01	0	59	104	0	69	19452
2026-01-01 01:39:06.42	44.07	35.04	-53.1	-67.6	3.8	7.48e-01	0	59	104	0	69	19057
2026-01-01 01:39:07.40	44.30	35.26	-52.8	-66.9	3.8	7.43e-01	0	59	104	0	69	17656
2026-01-01 01:39:08.39	44.54	35.49	-52.5	-66.3	3.8	7.45e-01	0	59	104	0	68	17389
2026-01-01 01:39:09.36	44.78	35.72	-52.3	-65.8	3.8	7.44e-01	0	59	104	0	68	16427
2026-01-01 01:39:10.35	45.03	35.95	-52.0	-65.4	3.8	7.49e-01	0	59	104	0	67	16570
2026-01-01 01:39:11.33	45.27	36.18	-51.8	-64.9	3.8	7.46e-01	0	59	104	0	67	15726
2026-01-01 01:39:12.32	45.53	36.41	-51.8	-64.7	3.8	7.45e-01	0	59	104	0	67	15370
2026-01-01 01:39:13.30	45.78	36.64	-51.7	-64.8	3.8	7.46e-01	0	59	104	0	67	15470
2026-01-01 01:39:14.29	46.04	36.88	-51.7	-64.6	3.8	7.44e-01	0	59	104	0	66	15963
2026-01-01 01:39:15.28	46.31	37.11	-51.2	-63.7	3.8	7.40e-01	0	59	104	0	66	14456
2026-01-01 01:39:16.26	46.57	37.35	-50.9	-63.2	3.8	7.43e-01	0	59	104	0	65	14479
2026-01-01 01:39:17.25	46.84	37.58	-50.7	-62.9	3.8	7.42e-01	0	59	104	0	65	13993
2026-01-01 01:39:18.23	47.12	37.82	-50.4	-62.5	3.8	7.44e-01	0	59	104	0	64	14160
2026-01-01 01:39:19.21	47.39	38.06	-50.3	-62.3	3.8	7.44e-01	0	60	104	0	64	13865
2026-01-01 01:39:20.19	47.68	38.30	-50.2	-62.0	3.8	7.43e-01	0	59	104	0	63	14107
2026-01-01 01:39:21.17	47.96	38.54	-50.1	-61.9	3.9	7.44e-01	0	59	104	0	63	14020
2026-01-01 01:39:22.15	48.25	38.78	-50.2	-62.2	3.8	7.44e-01	0	59	104	0	63	14389
2026-01-01 01:39:23.13	48.55	39.02	-50.5	-62.5	3.8	7.40e-01	0	59	104	0	63	14998
2026-01-01 01:39:24.11	48.84	39.27	-50.7	-62.9	3.8	7.43e-01	0	59	104	0	63	15748
2026-01-01 01:39:25.10	49.15	39.51	-51.0	-63.5	3.8	7.44e-01	0	59	104	0	64	15788
2026-01-01 01:39:26.08	49.46	39.76	-51.3	-63.8	3.8	7.44e-01	0	59	104	0	64	16490
2026-01-01 01:39:27.06	49.77	40.00	-51.0	-63.3	3.8	7.45e-01	0	59	104	0	64	15452
2026-01-01 01:39:28.04	50.09	40.25	-50.9	-63.3	3.8	7.47e-01	0	59	104	0	64	15558
2026-01-01 01:39:29.02	50.41	40.50	-50.8	-63.1	3.8	7.46e-01	0	59	104	0	64	15205
2026-01-01 01:39:30.01	50.74	40.75	-50.8	-63.2	3.8	7.45e-01	0	59	104	0	64	15233
2026-01-01 01:39:30.99	51.07	41.00	-50.9	-63.3	3.8	7.47e-01	0	59	104	0	64	15500
2026-01-01 01:39:31.97	51.41	41.25	-51.1	-63.6	3.8	7.46e-01	0	60	104	0	64	16009
2026-01-01 01:39:32.96	51.76	41.50	-50.9	-63.2	3.8	7.46e-01	0	59	104	0	64	15250
2026-01-01 01:39:33.95	52.11	41.76	-50.9	-63.2	3.8	7.42e-01	0	59	104	0	64	15323
2026-01-01 01:39:34.93	52.46	42.01	-50.6	-62.9	3.8	7.47e-01	0	59	104	0	64	14737
2026-01-01 01:39:35.91	52.82	42.26	-50.3	-62.3	3.8	7.42e-01	0	59	104	0	64	13850
2026-01-01 01:39:36.90	53.19	42.52	-50.0	-61.7	3.8	7.43e-01	0	60	104	0	63	13699
2026-01-01 01:39:37.88	53.56	42.77	-49.4	-61.0	3.8	7.43e-01	0	59	104	0	62	13262
2026-01-01 01:39:38.87	53.95	43.03	-49.1	-60.5	3.8	7.42e-01	0	60	104	0	61	13388
2026-01-01 01:39:39.84	54.33	43.28	-49.3	-60.9	3.8	7.43e-01	0	59	104	0	61	13907
2026-01-01 01:39:40.83	54.72	43.54	-49.7	-61.4	3.8	7.42e-01	0	60	104	0	61	14801
2026-01-01 01:39:41.81	55.11	43.80	-50.1	-61.9	3.8	7.45e-01	0	59	104	0	62	14798
2026-01-01 01:39:42.79	55.52	44.06	-50.5	-62.5	3.8	7.49e-01	0	60	104	0	63	15009
2026-01-01 01:39:43.78	55.93	44.31	-50.9	-63.0	3.8	7.43e-01	0	59	104	0	63	15943
2026-01-01 01:39:44.76	56.35	44.57	-51.3	-63.8	3.8	7.44e-01	0	60	104	0	64	16437
2026-01-01 01:39:45.75	56.77	44.83	-51.3	-64.0	3.8	7.42e-01	0	59	104	0	65	15797
2026-01-01 01:39:46.73	57.20	45.09	-51.3	-63.9	3.8	7.46e-01	0	60	104	0	65	15629
2026-01-01 01:39:47.71	57.64	45.35	-51.2	-63.7	3.8	7.44e-01	0	60	104	0	65	15398
2026-01-01 01:39:48.70	58.09	45.60	-51.2	-63.8	3.8	7.45e-01	0	60	104	0	65	15428
2026-01-01 01:39:49.68	58.54	45.86	-51.3	-63.8	3.8	7.40e-01	0	60	104	0	65	15534
2026-01-01 01:39:50.67	59.00	46.12	-51.4	-64.0	3.8	7.44e-01	0	60	104	0	65	15852
2026-01-01 01:39:51.66	59.47	46.38	-51.8	-64.7	3.8	7.45e-01	0	60	104	0	65	17173
2026-01-01 01:39:52.64	59.95	46.64	-52.4	-66.0	3.8	7.41e-01	0	60	104	0	67	17749
2026-01-01 01:39:53.62	60.43	46.89	-52.3	-65.8	3.8	7.44e-01	0	60	104	0	67	17319
2026-01-01 01:39:54.60	60.92	47.15	-51.7	-64.6	3.8	7.44e-01	0	60	104	0	67	15177
2026-01-01 01:39:55.59	61.42	47.40	-51.0	-63.4	3.8	7.41e-01	0	60	104	0	65	14770
2026-01-01 01:39:56.57	61.93	47.66	-50.6	-62.8	3.8	7.47e-01	0	60	104	0	64	14701
2026-01-01 01:39:57.56	62.45	47.91	-50.2	-61.9	3.8	7.41e-01	0	60	104	0	63	13976
2026-01-01 01:39:58.54	62.97	48.16	-50.3	-62.2	3.8	7.44e-01	0	60	104	0	63	14467
2026-01-01 01:39:59.52	63.50	48.41	-50.5	-62.6	3.8	7.47e-01	0	60	104	0	63	15146
2026-01-01 01:40:00.51	64.05	48.67	-50.9	-63.1	3.8	7.45e-01	0	60	104	0	64	15188
2026-01-01 01:40:01.49	64.60	48.91	-50.9	-63.3	3.8	7.42e-01	0	60	104	0	64	15488
2026-01-01 01:40:02.47	65.15	49.16	-50.7	-62.8	3.8	7.46e-01	0	60	104	0	64	14644
2026-01-01 01:40:03.45	65.72	49.41	-50.4	-62.4	3.8	7.43e-01	0	60	104	0	64	13950
2026-01-01 01:40:04.44	66.30	49.65	-50.1	-61.9	3.8	7.46e-01	0	60	104	0	63	14036
2026-01-01 01:40:05.43	66.89	49.90	-49.8	-61.6	3.8	7.42e-01	0	60	104	0	63	13504
2026-01-01 01:40:06.41	67.49	50.14	-49.5	-61.0	3.8	7.44e-01	0	60	104	0	62	13399
2026-01-01 01:40:07.40	68.10	50.38	-49.3	-60.8	3.8	7.48e-01	0	60	104	0	62	13108
2026-01-01 01:40:08.38	68.72	50.62	-49.3	-60.9	3.8	7.46e-01	0	60	104	0	62	13249
2026-01-01 01:40:09.36	69.34	50.85	-49.0	-51.0	5.3	7.03e-01	0	60	104	0	61	4453
2026-01-01 01:40:10.33	69.97	51.08	-49.5	-51.6	21.7	6.04e-01	0	60	0	1048576	61	4797
2026-01-01 01:40:11.29	70.60	51.31	-49.4	-51.5	22.0	6.04e-01	0	60	0	2621440	61	4720
2026-01-01 01:40:12.26	71.24	51.53	-49.1	-51.1	22.4	6.04e-01	0	60	0	4718592	61	4496
2026-01-01 01:40:13.22	71.89	51.75	-49.0	-50.8	22.6	6.03e-01	0	60	0	6291456	61	4378
2026-01-01 01:40:14.18	72.55	51.97	-48.6	-50.3	23.1	6.03e-01	0	60	0	8388608	60	4370
2026-01-01 01:40:15.14	73.22	52.18	-48.4	-50.0	23.4	6.03e-01	0	60	0	9961472	60	4241
2026-01-01 01:40:16.11	73.91	52.40	-48.2	-49.9	23.6	6.04e-01	0	60	0	12058624	60	4157
2026-01-01 01:40:17.07	74.60	52.61	-48.5	-50.3	23.2	6.02e-01	0	60	0	13631488	60	4350
2026-01-01 01:40:18.04	75.30	52.81	-48.4	-50.1	23.3	6.03e-01	0	60	0	15728640	60	4267
2026-01-01 01:40:19.00	76.01	53.01	-48.4	-50.1	23.4	6.02e-01	0	60	0	17301504	60	4266
2026-01-01 01:40:19.96	76.73	53.21	-48.5	-50.3	23.2	6.03e-01	0	60	0	18874368	60	4351
2026-01-01 01:40:20.93	77.47	53.41	-49.0	-51.0	22.5	6.04e-01	0	60	0	20971520	60	4710
2026-01-01 01:40:21.89	78.20	53.60	-49.4	-51.5	22.0	6.04e-01	0	60	0	22544384	61	4741
2026-01-01 01:40:22.86	78.96	53.79	-48.9	-50.8	22.7	6.01e-01	0	60	0	24641536	61	4353
2026-01-01 01:40:23.82	79.72	53.97	-49.0	-50.8	22.6	6.04e-01	0	60	0	26214400	61	4390
2026-01-01 01:40:24.78	80.48	54.15	-48.8	-50.6	22.9	6.04e-01	0	60	0	28311552	61	4250
2026-01-01 01:40:25.75	81.27	54.32	-48.5	-50.2	23.3	6.04e-01	0	60	0	29884416	60	4299
2026-01-01 01:40:26.71	82.05	54.49	-48.6	-50.4	23.1	6.02e-01	0	60	0	31981568	60	4411
2026-01-01 01:40:27.67	82.85	54.65	-48.9	-50.8	22.7	6.03e-01	0	60	0	33554432	60	4606
2026-01-01 01:40:28.63	83.65	54.81	-48.8	-50.7	22.8	6.02e-01	0	60	0	35127296	60	4546
2026-01-01 01:40:29.60	84.47	54.97	-48.9	-50.8	22.7	6.04e-01	0	60	0	37224448	60	4622
2026-01-01 01:40:30.56	85.30	55.12	-49.4	-51.5	22.1	6.03e-01	0	60	0	38797312	60	4995
2026-01-01 01:40:31.52	86.13	55.26	-49.4	-51.4	22.1	6.02e-01	0	60	0	40894464	61	4660
2026-01-01 01:40:32.48	86.96	55.40	-49.7	-51.9	21.6	6.04e-01	0	60	0	42467328	61	4953
2026-01-01 01:40:33.45	87.82	55.53	-49.7	-51.8	21.7	6.02e-01	0	60	0	44564480	61	4898
2026-01-01 01:40:34.41	88.67	55.65	-49.8	-52.0	21.4	6.04e-01	0	60	0	46137344	62	4754
2026-01-01 01:40:35.37	89.54	55.78	-49.5	-51.6	21.9	6.02e-01	0	60	0	48234496	62	4497
2026-01-01 01:40:36.34	90.41	55.89	-49.3	-51.2	22.2	6.02e-01	0	60	0	49807360	62	4334
2026-01-01 01:40:37.30	91.29	56.00	-49.2	-51.1	22.3	6.05e-01	0	60	0	51904512	61	4542
2026-01-01 01:40:38.27	92.18	56.10	-49.4	-51.4	22.1	6.05e-01	0	60	0	53477376	61	4686
2026-01-01 01:40:39.23	93.07	56.20	-49.1	-51.0	22.5	6.03e-01	0	60	0	55050240	61	4473
2026-01-01 01:40:40.19	93.97	56.29	-49.5	-51.5	22.0	6.03e-01	0	60	0	57147392	61	4748
2026-01-01 01:40:41.15	94.87	56.37	-49.8	-52.0	21.6	6.03e-01	0	60	0	58720256	61	4992
2026-01-01 01:40:42.12	95.78	56.44	-49.3	-51.2	22.2	6.05e-01	0	60	0	60817408	61	4596
2026-01-01 01:40:43.08	96.70	56.51	-50.1	-52.4	21.2	6.03e-01	0	60	0	62390272	62	4983
2026-01-01 01:40:44.04	97.61	56.58	-49.8	-52.0	21.5	5.99e-01	0	60	0	63963136	62	4758
2026-01-01 01:40:45.00	98.53	56.63	-50.3	-52.7	20.8	6.03e-01	0	60	0	66060288	62	5155
2026-01-01 01:40:45.96	99.45	56.68	-49.9	-52.1	21.4	6.01e-01	0	60	0	67633152	62	4792
2026-01-01 01:40:46.93	100.39	56.72	-50.4	-52.9	20.7	6.03e-01	0	60	0	69730304	62	5241
2026-01-01 01:40:47.89	101.32	56.75	-50.2	-52.6	21.0	6.03e-01	0	60	0	71303168	63	4766
2026-01-01 01:40:48.85	102.25	56.78	-49.9	-52.1	21.3	6.04e-01	0	60	0	73400320	63	4542
2026-01-01 01:40:49.82	103.19	56.80	-49.8	-52.0	21.5	6.02e-01	0	60	0	74973184	63	4473
2026-01-01 01:40:50.78	104.12	56.81	-49.8	-52.0	21.6	6.04e-01	0	60	0	77070336	63	4449
2026-01-01 01:40:51.74	105.06	56.82	-49.7	-51.9	21.7	6.03e-01	0	60	0	78643200	62	4674
2026-01-01 01:40:52.71	106.00	56.82	-50.1	-52.5	21.1	6.03e-01	0	60	0	80740352	62	5007
2026-01-01 01:40:53.67	106.93	56.81	-50.0	-52.4	21.2	6.04e-01	0	60	0	82313216	62	4927
2026-01-01 01:40:54.63	107.87	56.79	-50.1	-52.4	21.2	6.04e-01	0	61	0	83886080	62	4948
2026-01-01 01:40:55.60	108.81	56.77	-50.0	-52.2	21.3	6.02e-01	0	60	0	85983232	62	4864
2026-01-01 01:40:56.56	109.74	56.74	-49.9	-52.1	21.5	6.05e-01	0	60	0	87556096	62	4780
2026-01-01 01:40:57.52	110.66	56.70	-49.7	-51.8	21.7	6.03e-01	0	60	0	89653248	62	4631
2026-01-01 01:40:58.49	111.60	56.66	-49.8	-52.0	21.5	6.03e-01	0	60	0	91226112	62	4754
2026-01-01 01:40:59.46	112.53	56.60	-49.7	-51.8	21.6	6.05e-01	0	60	0	93323264	62	4641
2026-01-01 01:41:00.42	113.45	56.55	-49.9	-52.1	21.4	6.04e-01	0	60	0	94896128	62	4795
2026-01-01 01:41:01.39	114.37	56.48	-49.5	-51.5	22.0	6.02e-01	0	60	0	96993280	62	4474
2026-01-01 01:41:02.35	115.28	56.41	-49.6	-51.7	21.8	6.01e-01	0	60	0	98566144	62	4565
2026-01-01 01:41:03.32	116.19	56.33	-49.1	-51.1	22.4	6.01e-01	0	60	0	100663296	61	4503
2026-01-01 01:41:04.28	117.09	56.24	-49.1	-51.1	22.4	6.03e-01	0	60	0	102236160	61	4501
2026-01-01 01:41:05.24	117.98	56.15	-49.1	-51.1	22.5	6.02e-01	0	60	0	103809024	61	4499
2026-01-01 01:41:06.21	118.88	56.05	-49.5	-51.6	21.9	6.03e-01	0	61	0	105906176	61	4806
2026-01-01 01:41:07.17	119.76	55.94	-49.1	-51.0	22.5	6.02e-01	0	60	0	107479040	61	4472
2026-01-01 01:41:08.14	120.64	55.83	-49.0	-50.8	22.7	6.02e-01	0	61	0	109576192	61	4365
2026-01-01 01:41:09.10	121.51	55.71	-49.2	-51.1	22.4	6.03e-01	0	60	0	111149056	61	4523
2026-01-01 01:41:10.07	122.38	55.59	-49.2	-51.2	22.3	6.03e-01	0	60	0	113246208	61	4561
2026-01-01 01:41:11.03	123.23	55.46	-49.2	-51.1	22.4	6.02e-01	0	60	0	114819072	61	4522
2026-01-01 01:41:11.99	124.07	55.33	-49.0	-50.8	22.7	6.03e-01	0	60	0	116391936	61	4372
2026-01-01 01:41:12.95	124.91	55.18	-49.5	-51.5	22.0	6.02e-01	0	60	0	118489088	61	4749
2026-01-01 01:41:13.93	125.75	55.04	-49.4	-51.5	22.0	6.03e-01	0	60	0	120061952	61	4733
2026-01-01 01:41:14.90	126.58	54.88	-49.5	-51.6	21.9	6.02e-01	0	60	0	122159104	61	4792
2026-01-01 01:41:15.86	127.39	54.73	-49.2	-51.2	22.3	6.03e-01	0	60	0	123731968	61	4568
2026-01-01 01:41:16.82	128.19	54.56	-49.1	-51.0	22.5	6.03e-01	0	60	0	125829120	61	4458
2026-01-01 01:41:17.79	128.99	54.40	-49.0	-50.8	22.6	6.04e-01	0	61	0	127401984	61	4380
2026-01-01 01:41:18.75	129.77	54.22	-48.7	-50.5	23.0	6.02e-01	0	61	0	129499136	60	4455
2026-01-01 01:41:19.71	130.54	54.05	-48.9	-50.7	22.8	6.01e-01	0	61	0	131072000	60	4590
2026-01-01 01:41:20.68	131.31	53.87	-48.5	-50.2	23.2	6.03e-01	0	60	0	133169152	60	4334
2026-01-01 01:41:21.64	132.06	53.68	-48.8	-50.6	22.9	6.03e-01	0	61	0	134742016	60	4537
2026-01-01 01:41:22.60	132.81	53.49	-48.6	-50.4	23.1	6.03e-01	0	61	0	136839168	60	4393
2026-01-01 01:41:23.57	133.55	53.30	-48.6	-50.3	23.2	6.05e-01	0	61	0	138412032	60	4366
2026-01-01 01:41:24.53	134.27	53.10	-48.8	-50.6	22.9	6.01e-01	0	61	0	139984896	60	4496
2026-01-01 01:41:25.50	134.99	52.90	-48.5	-50.3	23.2	6.05e-01	0	61	0	142082048	60	4344
2026-01-01 01:41:26.46	135.70	52.70	-49.1	-51.0	22.5	6.05e-01	0	61	0	143654912	60	4718
2026-01-01 01:41:27.42	136.39	52.49	-48.9	-50.7	22.8	6.05e-01	0	61	0	145752064	60	4563
2026-01-01 01:41:28.39	137.08	52.28	-48.9	-50.8	22.7	6.03e-01	0	60	0	147324928	60	4610
2026-01-01 01:41:29.35	137.76	52.06	-48.7	-50.5	22.9	6.03e-01	0	61	0	149422080	60	4464
2026-01-01 01:41:30.32	138.43	51.84	-48.8	-50.5	23.0	6.01e-01	0	61	0	150994944	60	4493
2026-01-01 01:41:31.28	139.09	51.62	-49.0	-50.8	22.7	6.03e-01	0	61	0	152567808	60	4642
2026-01-01 01:41:32.24	139.73	51.40	-49.1	-51.0	22.4	6.04e-01	0	61	0	154664960	60	4750
2026-01-01 01:41:33.21	140.37	51.18	-49.1	-51.1	22.4	6.02e-01	0	61	0	156237824	60	4771
2026-01-01 01:41:34.17	141.00	50.95	-49.1	-51.0	22.4	6.02e-01	0	61	0	158334976	60	4736
2026-01-01 01:41:35.14	141.62	50.72	-49.4	-51.4	22.1	6.03e-01	0	60	0	159907840	60	4957
2026-01-01 01:41:36.10	142.23	50.49	-49.5	-51.6	21.9	6.03e-01	0	61	0	162004992	61	4779
2026-01-01 01:41:37.08	142.84	50.25	-49.7	-51.8	21.7	6.02e-01	0	61	0	163577856	61	4907
2026-01-01 01:41:38.04	143.43	50.01	-49.5	-51.6	22.0	6.03e-01	0	61	0	165675008	61	4765
2026-01-01 01:41:39.00	144.01	49.77	-49.4	-51.4	22.1	6.02e-01	0	61	0	167247872	61	4678
2026-01-01 01:41:39.96	144.58	49.54	-49.1	-50.9	22.5	6.02e-01	0	61	0	169345024	61	4439
2026-01-01 01:41:40.93	145.15	49.29	-49.5	-51.6	21.9	6.03e-01	0	60	0	170917888	61	4811
2026-01-01 01:41:41.89	145.70	49.05	-49.6	-51.8	21.7	6.04e-01	0	61	0	172490752	61	4902
2026-01-01 01:41:42.85	146.25	48.81	-49.6	-51.8	21.7	6.03e-01	0	60	0	174587904	61	4878
2026-01-01 01:41:43.81	146.78	48.56	-49.8	-52.0	21.5	6.05e-01	0	61	0	176160768	61	5017
2026-01-01 01:41:44.77	147.31	48.32	-49.9	-52.2	21.3	6.05e-01	0	60	0	178257920	62	4832
2026-01-01 01:41:45.74	147.83	48.07	-49.7	-51.8	21.7	6.04e-01	0	61	0	179830784	62	4637
2026-01-01 01:41:46.70	148.34	47.82	-50.1	-52.5	21.1	6.03e-01	0	61	0	181927936	62	4987
2026-01-01 01:41:47.67	148.85	47.57	-50.1	-52.5	21.0	6.04e-01	0	61	0	183500800	63	4745
2026-01-01 01:41:48.63	149.34	47.32	-50.0	-52.3	21.3	6.02e-01	0	61	0	185597952	63	4629
2026-01-01 01:41:49.59	149.83	47.07	-50.1	-52.4	21.1	5.99e-01	0	61	0	187170816	63	4685
2026-01-01 01:41:50.55	150.31	46.82	-50.1	-52.5	21.0	6.03e-01	0	61	0	188743680	63	4738
2026-01-01 01:41:51.51	150.78	46.57	-49.9	-52.2	21.3	6.02e-01	0	61	0	190840832	63	4548
2026-01-01 01:41:52.48	151.25	46.31	-49.8	-51.9	21.6	6.03e-01	0	61	0	192413696	63	4429
2026-01-01 01:41:53.44	151.71	46.06	-49.7	-51.8	21.7	6.03e-01	0	61	0	194510848	62	4625
2026-01-01 01:41:54.41	152.16	45.81	-49.9	-52.2	21.3	6.03e-01	0	61	0	196083712	62	4863
2026-01-01 01:41:55.37	152.60	45.55	-50.1	-52.5	21.0	6.02e-01	0	61	0	198180864	62	5034
2026-01-01 01:41:56.33	153.04	45.30	-50.4	-52.9	20.6	6.03e-01	0	60	0	199753728	63	4960
2026-01-01 01:41:57.29	153.46	45.05	-49.9	-52.1	21.4	6.03e-01	0	61	0	201326592	63	4536
2026-01-01 01:41:58.25	153.88	44.80	-49.3	-51.3	22.1	6.03e-01	0	61	0	203423744	62	4381
2026-01-01 01:41:59.22	154.30	44.54	-49.2	-51.2	22.3	6.04e-01	0	61	0	204996608	62	4303
2026-01-01 01:42:00.18	154.71	44.29	-49.1	-51.1	22.4	6.04e-01	0	61	0	207093760	61	4512
2026-01-01 01:42:01.15	155.12	44.03	-49.1	-51.1	22.4	6.05e-01	0	61	0	208666624	61	4503
2026-01-01 01:42:02.11	155.51	43.78	-49.1	-51.0	22.4	6.05e-01	0	60	0	210763776	61	4493
2026-01-01 01:42:03.07	155.90	43.53	-49.5	-51.6	21.9	6.04e-01	0	61	0	212336640	61	4787
2026-01-01 01:42:04.03	156.28	43.28	-49.6	-51.7	21.8	6.02e-01	0	61	0	214433792	61	4840
2026-01-01 01:42:04.99	156.66	43.03	-49.3	-51.3	22.2	6.05e-01	0	61	0	216006656	61	4632
2026-01-01 01:42:05.95	157.03	42.78	-48.9	-50.7	22.7	6.05e-01	0	61	0	218103808	61	4322
2026-01-01 01:42:06.92	157.40	42.52	-48.9	-50.8	22.7	6.04e-01	0	61	0	219676672	61	4344
2026-01-01 01:42:07.88	157.76	42.27	-49.2	-51.2	22.3	6.04e-01	0	61	0	221249536	61	4555
2026-01-01 01:42:08.84	158.11	42.02	-49.2	-51.1	22.3	6.04e-01	0	61	0	223346688	61	4533
2026-01-01 01:42:09.81	158.47	41.77	-49.2	-51.2	22.3	6.03e-01	0	61	0	224919552	61	4583
2026-01-01 01:42:10.78	158.81	41.52	-49.2	-51.2	22.3	6.02e-01	0	61	0	227016704	61	4564
2026-01-01 01:42:11.74	159.15	41.28	-49.4	-51.5	22.0	6.03e-01	0	61	0	228589568	61	4718
2026-01-01 01:42:12.70	159.48	41.03	-49.5	-51.5	22.0	6.02e-01	0	61	0	230686720	61	4750
2026-01-01 01:42:13.67	159.81	40.78	-49.4	-51.5	22.0	6.03e-01	0	61	0	232259584	61	4743
2026-01-01 01:42:14.63	160.14	40.54	-49.8	-52.1	21.5	6.02e-01	0	61	0	233832448	61	5046
2026-01-01 01:42:15.59	160.45	40.29	-49.8	-52.0	21.5	6.02e-01	0	61	0	235929600	62	4710
2026-01-01 01:42:16.56	160.77	40.05	-49.6	-51.6	21.9	6.03e-01	0	61	0	237502464	62	4542
2026-01-01 01:42:17.52	161.08	39.80	-49.6	-51.7	21.8	6.05e-01	0	61	0	239599616	62	4552
2026-01-01 01:42:18.50	161.39	39.56	-49.7	-51.8	21.7	6.02e-01	0	61	0	241172480	62	4636
2026-01-01 01:42:19.46	161.69	39.32	-49.7	-51.8	21.7	6.04e-01	0	61	0	243269632	62	4628
2026-01-01 01:42:20.43	161.99	39.08	-49.7	-51.9	21.6	6.02e-01	0	61	0	244842496	62	4697
2026-01-01 01:42:21.39	162.28	38.84	-49.9	-52.2	21.3	6.02e-01	0	61	0	246939648	62	4840
2026-01-01 01:42:22.35	162.56	38.60	-50.1	-52.4	21.1	6.02e-01	0	61	0	248512512	62	4964
2026-01-01 01:42:23.31	162.84	38.36	-50.1	-52.5	21.1	6.04e-01	0	61	0	250609664	62	4986
2026-01-01 01:42:24.28	163.13	38.12	-50.2	-52.6	20.9	6.03e-01	0	61	0	252182528	62	5066
2026-01-01 01:42:25.24	163.40	37.89	-50.3	-52.8	20.7	6.01e-01	0	61	0	253755392	63	4897
2026-01-01 01:42:26.20	163.67	37.66	-49.9	-52.2	21.3	6.03e-01	0	61	0	255852544	63	4563
2026-01-01 01:42:27.16	163.94	37.42	-49.4	-51.5	22.0	6.04e-01	0	61	0	257425408	62	4465
2026-01-01 01:42:28.13	164.20	37.19	-49.1	-51.1	22.3	6.02e-01	0	61	0	259522560	61	4494
2026-01-01 01:42:29.09	164.46	36.96	-49.0	-50.9	22.5	6.03e-01	0	61	0	261095424	61	4423
2026-01-01 01:42:30.06	164.72	36.73	-49.1	-51.0	21.7	6.04e-01	0	61	0	263192576	61	4460
2026-01-01 01:42:31.02	164.97	36.50	-49.1	-51.0	22.5	6.05e-01	0	61	0	264765440	61	4475
2026-01-01 01:42:31.98	165.22	36.27	-48.9	-50.7	22.7	6.02e-01	0	61	0	266862592	61	4331
2026-01-01 01:42:32.94	165.46	36.05	-48.6	-50.4	23.0	6.04e-01	0	61	0	268435456	60	4418
2026-01-01 01:42:33.91	165.70	35.82	-48.5	-50.2	23.2	6.06e-01	0	61	0	270532608	60	4317
2026-01-01 01:42:34.87	165.94	35.59	-48.5	-50.2	23.2	6.03e-01	0	61	0	272105472	60	4314
2026-01-01 01:42:35.83	166.18	35.37	-48.4	-50.1	23.2	6.02e-01	0	61	0	273678336	60	4255
2026-01-01 01:42:36.79	166.41	35.15	-48.3	-49.9	23.5	6.03e-01	0	61	0	275775488	60	4187
2026-01-01 01:42:37.75	166.64	34.93	-48.3	-49.9	23.5	6.03e-01	0	61	0	277348352	60	4188
2026-01-01 01:42:38.72	166.86	34.71	-48.3	-50.0	23.4	6.03e-01	0	61	0	279445504	60	4222
2026-01-01 01:42:39.68	167.09	34.49	-48.5	-50.2	23.1	6.03e-01	0	61	0	281018368	60	4336
2026-01-01 01:42:40.65	167.31	34.27	-48.4	-50.1	23.3	6.03e-01	0	61	0	282591232	60	4264
2026-01-01 01:42:41.61	167.52	34.06	-48.4	-50.1	23.6	6.03e-01	0	61	0	284688384	59	4496
2026-01-01 01:42:42.57	167.74	33.84	-48.3	-49.9	23.7	6.04e-01	0	61	0	286261248	59	4431
2026-01-01 01:42:43.53	167.95	33.63	-48.5	-50.2	23.5	6.04e-01	0	61	0	288358400	59	4578
2026-01-01 01:42:44.49	168.16	33.42	-48.6	-50.3	23.4	6.04e-01	0	61	0	289931264	59	4608
2026-01-01 01:42:45.46	168.36	33.20	-48.5	-50.1	23.6	6.03e-01	0	61	0	292028416	59	4525
2026-01-01 01:42:46.43	168.57	32.99	-48.4	-50.1	23.6	6.02e-01	0	61	0	293601280	59	4514
2026-01-01 01:42:47.39	168.77	32.78	-48.2	-49.8	23.8	6.02e-01	0	61	0	295698432	59	4380
2026-01-01 01:42:48.36	168.97	32.57	-48.1	-49.7	24.0	6.02e-01	0	61	0	297271296	59	4309
2026-01-01 01:42:49.32	169.16	32.37	-48.2	-49.7	24.0	6.04e-01	0	61	0	299368448	59	4333
2026-01-01 01:42:50.29	169.36	32.16	-48.2	-49.8	23.8	6.03e-01	0	61	0	300941312	59	4364
2026-01-01 01:42:51.25	169.55	31.95	-48.3	-49.9	23.7	6.04e-01	0	61	0	302514176	59	4431
2026-01-01 01:42:52.21	169.73	31.75	-48.5	-50.1	23.5	6.03e-01	0	61	0	304611328	59	4531
2026-01-01 01:42:53.17	169.92	31.55	-48.8	-50.6	23.1	6.04e-01	0	61	0	306184192	59	4761
2026-01-01 01:42:54.13	170.10	31.35	-48.8	-50.6	22.8	6.04e-01	0	61	0	308281344	60	4525
2026-01-01 01:42:55.09	170.28	31.15	-49.2	-51.2	22.2	6.03e-01	0	61	0	309854208	60	4836
2026-01-01 01:42:56.05	170.46	30.95	-48.6	-50.4	23.0	6.02e-01	0	61	0	311951360	60	4397
2026-01-01 01:42:57.01	170.64	30.76	-48.2	-49.9	23.4	6.02e-01	0	61	0	313524224	60	4153
2026-01-01 01:42:57.97	170.81	30.56	-48.3	-49.9	23.8	6.03e-01	0	61	0	315621376	59	4421
2026-01-01 01:42:58.93	170.98	30.36	-48.5	-50.2	23.5	6.02e-01	0	61	0	317194240	59	4579
2026-01-01 01:42:59.90	171.15	30.17	-48.5	-50.2	23.5	6.01e-01	0	61	0	318767104	59	4547
2026-01-01 01:43:00.86	171.32	29.98	-48.5	-50.1	23.6	6.02e-01	0	61	0	320864256	59	4536
2026-01-01 01:43:01.83	171.49	29.78	-48.5	-50.2	23.5	6.04e-01	0	61	0	322437120	59	4563
2026-01-01 01:43:02.80	171.65	29.59	-48.6	-50.2	23.5	6.03e-01	0	61	0	324534272	59	4592
2026-01-01 01:43:03.76	171.82	29.40	-48.7	-50.4	23.3	6.01e-01	0	61	0	326107136	59	4688
2026-01-01 01:43:04.73	171.98	29.21	-48.7	-50.5	23.3	6.03e-01	0	61	0	328204288	59	4707
2026-01-01 01:43:05.70	172.14	29.02	-48.7	-50.5	22.9	6.04e-01	0	61	0	329777152	60	4465
2026-01-01 01:43:06.66	172.29	28.84	-48.6	-50.3	23.0	6.04e-01	0	61	0	331874304	60	4387
2026-01-01 01:43:07.63	172.45	28.65	-48.2	-49.9	23.4	6.05e-01	0	61	0	333447168	60	4157
2026-01-01 01:43:08.61	172.61	28.46	-48.5	-50.1	23.5	6.03e-01	0	61	0	335544320	59	4534
2026-01-01 01:43:09.57	172.76	28.28	-48.4	-50.0	23.7	6.05e-01	0	61	0	337117184	59	4460
2026-01-01 01:43:10.53	172.91	28.10	-48.5	-50.1	23.5	6.02e-01	0	61	0	338690048	59	4541
2026-01-01 01:43:11.49	173.05	27.92	-48.7	-50.4	23.3	6.04e-01	0	61	0	340787200	59	4668
2026-01-01 01:43:12.45	173.20	27.74	-48.5	-50.2	23.5	6.04e-01	0	61	0	342360064	59	4554
2026-01-01 01:43:13.42	173.35	27.56	-48.5	-50.2	23.5	6.01e-01	0	61	0	344457216	59	4552
2026-01-01 01:43:14.38	173.49	27.38	-48.5	-50.1	23.5	6.03e-01	0	61	0	346030080	59	4536
2026-01-01 01:43:15.34	173.63	27.21	-48.5	-50.2	23.5	6.03e-01	0	61	0	348127232	59	4548
2026-01-01 01:43:16.30	173.77	27.03	-48.5	-50.1	23.5	6.02e-01	0	61	0	349700096	59	4532
2026-01-01 01:43:17.27	173.91	26.86	-48.5	-50.2	23.5	6.01e-01	0	61	0	351797248	59	4550
2026-01-01 01:43:18.23	174.04	26.68	-48.7	-50.4	23.3	6.03e-01	0	61	0	353370112	59	4684
2026-01-01 01:43:19.19	174.18	26.51	-48.6	-50.4	23.0	6.04e-01	0	61	0	354942976	60	4400
2026-01-01 01:43:20.16	174.31	26.34	-48.3	-50.0	23.3	6.04e-01	0	61	0	357040128	60	4212
2026-01-01 01:43:21.12	174.45	26.17	-48.5	-50.2	23.5	6.02e-01	0	61	0	358612992	59	4567
2026-01-01 01:43:22.08	174.58	26.00	-48.4	-50.1	23.5	6.04e-01	0	61	0	360710144	59	4525
2026-01-01 01:43:23.05	174.71	25.83	-48.6	-50.3	23.3	6.03e-01	0	61	0	362283008	59	4638
2026-01-01 01:43:24.01	174.84	25.66	-48.5	-50.2	23.4	6.03e-01	0	61	0	364380160	59	4560
2026-01-01 01:43:24.97	174.96	25.50	-48.6	-50.4	23.3	6.04e-01	0	61	0	365953024	59	4671
2026-01-01 01:43:25.93	175.09	25.33	-48.6	-50.3	23.4	6.03e-01	0	61	0	367525888	59	4610
2026-01-01 01:43:26.89	175.21	25.17	-48.5	-50.2	23.4	6.05e-01	0	61	0	369623040	59	4588
2026-01-01 01:43:27.85	175.33	25.01	-48.6	-50.3	23.4	6.02e-01	0	61	0	371195904	59	4637
2026-01-01 01:43:28.82	175.46	24.84	-48.7	-50.5	23.2	6.03e-01	0	61	0	373293056	59	4706
2026-01-01 01:43:29.78	175.58	24.68	-48.7	-50.5	23.2	6.03e-01	0	61	0	374865920	59	4716
2026-01-01 01:43:30.75	175.70	24.52	-48.8	-50.6	23.1	6.02e-01	0	61	0	376963072	59	4789
2026-01-01 01:43:31.71	175.82	24.36	-48.6	-50.4	23.0	6.02e-01	0	61	0	378535936	60	4400
2026-01-01 01:43:32.67	175.93	24.20	-48.8	-50.6	22.7	6.05e-01	0	61	0	380633088	60	4527
2026-01-01 01:43:33.64	176.05	24.04	-48.7	-50.5	22.8	6.03e-01	0	61	0	382205952	60	4469
2026-01-01 01:43:34.60	176.16	23.89	-48.5	-50.3	23.0	6.03e-01	0	61	0	383778816	60	4342
2026-01-01 01:43:35.57	176.28	23.73	-48.4	-50.2	23.1	6.03e-01	0	61	0	385875968	60	4300
2026-01-01 01:43:36.53	176.39	23.58	-48.4	-50.1	23.2	6.03e-01	0	61	0	387448832	60	4284
2026-01-01 01:43:37.49	176.50	23.42	-48.5	-50.2	23.1	6.03e-01	0	61	0	389545984	60	4333
2026-01-01 01:43:38.45	176.61	23.27	-48.7	-50.5	22.8	6.04e-01	0	61	0	391118848	60	4477
2026-01-01 01:43:39.41	176.72	23.12	-48.7	-50.5	22.7	6.05e-01	0	61	0	393216000	60	4487
2026-01-01 01:43:40.38	176.83	22.97	-48.5	-50.2	23.0	6.04e-01	0	61	0	394788864	60	4332
2026-01-01 01:43:41.34	176.93	22.82	-48.3	-50.0	23.3	6.03e-01	0	61	0	396886016	60	4210
2026-01-01 01:43:42.30	177.04	22.67	-48.5	-50.2	23.4	6.03e-01	0	61	0	398458880	59	4563
2026-01-01 01:43:43.26	177.14	22.52	-48.5	-50.2	23.4	6.03e-01	0	61	0	400556032	59	4548
2026-01-01 01:43:44.23	177.25	22.37	-48.6	-50.2	23.3	6.04e-01	0	61	0	402128896	59	4598
2026-01-01 01:43:45.19	177.35	22.22	-48.6	-50.3	23.3	6.05e-01	0	61	0	403701760	59	4612
2026-01-01 01:43:46.16	177.45	22.07	-48.6	-50.3	23.3	6.01e-01	0	61	0	405798912	59	4645
2026-01-01 01:43:47.12	177.55	21.93	-48.8	-50.5	23.0	6.02e-01	0	61	0	407371776	59	4750
2026-01-01 01:43:48.09	177.65	21.78	-48.8	-50.5	23.0	6.03e-01	0	61	0	409468928	59	4751
2026-01-01 01:43:49.05	177.75	21.64	-48.8	-50.6	23.0	6.05e-01	0	61	0	411041792	59	4781
2026-01-01 01:43:50.01	177.85	21.50	-48.7	-50.5	22.8	6.04e-01	0	61	0	413138944	60	4477
2026-01-01 01:43:50.97	177.95	21.36	-48.7	-50.6	22.6	6.04e-01	0	61	0	414711808	60	4513
2026-01-01 01:43:51.93	178.04	21.21	-48.7	-50.5	22.8	6.04e-01	0	61	0	416284672	60	4457
2026-01-01 01:43:52.90	178.14	21.07	-48.6	-50.4	22.8	6.02e-01	0	61	0	418381824	60	4429
2026-01-01 01:43:53.86	178.23	20.93	-48.6	-50.4	22.8	6.03e-01	0	61	0	419954688	60	4426
2026-01-01 01:43:54.82	178.33	20.80	-48.7	-50.5	22.7	6.03e-01	0	61	0	422051840	60	4477
2026-01-01 01:43:55.78	178.42	20.66	-48.8	-50.7	22.5	6.03e-01	0	62	0	423624704	60	4588
2026-01-01 01:43:56.75	178.51	20.52	-48.8	-50.6	22.6	6.03e-01	0	61	0	425721856	60	4533
2026-01-01 01:43:57.71	178.60	20.38	-48.6	-50.5	22.8	6.04e-01	0	61	0	427294720	60	4452
2026-01-01 01:43:58.67	178.69	20.25	-48.6	-50.4	22.8	6.03e-01	0	61	0	429391872	60	4437
2026-01-01 01:43:59.64	178.78	20.11	-48.6	-50.4	22.8	6.02e-01	0	61	0	430964736	60	4428
2026-01-01 01:44:00.60	178.87	19.98	-48.7	-50.5	22.8	6.03e-01	0	61	0	432537600	60	4460
2026-01-01 01:44:01.56	178.96	19.84	-48.8	-50.7	22.6	6.04e-01	0	61	0	434634752	60	4554
2026-01-01 01:44:02.53	179.05	19.71	-48.7	-50.6	22.7	6.05e-01	0	61	0	436207616	60	4515
2026-01-01 01:44:03.49	179.13	19.58	-48.7	-50.6	22.6	6.02e-01	0	61	0	438304768	60	4525
2026-01-01 01:44:04.46	179.22	19.44	-48.8	-50.7	22.6	6.03e-01	0	61	0	439877632	60	4556
2026-01-01 01:44:05.42	179.31	19.31	-48.5	-50.3	22.9	6.04e-01	0	61	0	441974784	60	4385
2026-01-01 01:44:06.39	179.39	19.18	-48.4	-50.2	23.0	6.04e-01	0	61	0	443547648	60	4297
2026-01-01 01:44:07.35	179.47	19.05	-48.3	-50.1	23.1	6.04e-01	0	61	0	445644800	60	4263
2026-01-01 01:44:08.31	179.56	18.92	-48.4	-50.1	23.1	6.04e-01	0	61	0	447217664	60	4278
2026-01-01 01:44:09.27	179.64	18.80	-48.5	-50.3	22.9	6.03e-01	0	61	0	449314816	60	4382
2026-01-01 01:44:10.24	179.72	18.67	-48.6	-50.5	22.7	6.03e-01	0	61	0	450887680	60	4459
2026-01-01 01:44:11.20	179.80	18.54	-48.4	-50.2	23.0	6.03e-01	0	61	0	452460544	60	4318
2026-01-01 01:44:12.16	179.88	18.41	-48.3	-50.0	23.2	6.03e-01	0	61	0	454557696	60	4234
2026-01-01 01:44:13.13	179.96	18.29	-48.2	-50.0	23.2	6.04e-01	0	61	0	456130560	60	4197
2026-01-01 01:44:14.09	180.04	18.16	-48.3	-50.0	23.2	6.01e-01	0	61	0	458227712	60	4215
2026-01-01 01:44:15.05	180.12	18.04	-48.4	-50.1	23.1	6.02e-01	0	61	0	459800576	60	4271
2026-01-01 01:44:16.01	180.19	17.92	-48.5	-50.3	22.9	6.02e-01	0	61	0	461897728	60	4384
2026-01-01 01:44:16.98	180.27	17.79	-48.4	-50.1	23.1	6.05e-01	0	61	0	463470592	60	4266
2026-01-01 01:44:17.95	180.35	17.67	-48.2	-49.9	23.3	6.04e-01	0	61	0	465567744	60	4177
2026-01-01 01:44:18.91	180.42	17.55	-48.5	-50.3	23.3	6.05e-01	0	61	0	467140608	59	4604
2026-01-01 01:44:19.88	180.50	17.43	-48.6	-50.3	23.2	6.02e-01	0	61	0	468713472	59	4631
2026-01-01 01:44:20.84	180.57	17.31	-48.7	-50.4	23.0	6.02e-01	0	61	0	470810624	59	4699
2026-01-01 01:44:21.80	180.65	17.19	-48.6	-50.3	23.1	6.02e-01	0	61	0	472383488	59	4621
2026-01-01 01:44:22.76	180.72	17.07	-48.5	-50.2	23.3	6.01e-01	0	61	0	474480640	59	4576
2026-01-01 01:44:23.73	180.79	16.95	-48.5	-50.2	23.2	6.03e-01	0	61	0	476053504	59	4592
2026-01-01 01:44:24.69	180.87	16.83	-48.6	-50.3	23.1	6.04e-01	0	61	0	478150656	59	4650
2026-01-01 01:44:25.65	180.94	16.71	-48.7	-50.5	23.0	6.01e-01	0	61	0	479723520	59	4706
2026-01-01 01:44:26.62	181.01	16.59	-48.8	-50.6	22.8	6.03e-01	0	61	0	481820672	59	4813
2026-01-01 01:44:27.58	181.08	16.48	-48.4	-50.2	23.0	6.05e-01	0	61	0	483393536	60	4302
2026-01-01 01:44:28.54	181.15	16.36	-48.4	-50.2	22.9	6.04e-01	0	61	0	484966400	60	4313
2026-01-01 01:44:29.51	181.22	16.25	-48.4	-50.2	22.9	6.05e-01	0	61	0	487063552	60	4326
2026-01-01 01:44:30.47	181.29	16.13	-48.4	-50.2	22.9	6.00e-01	0	61	0	488636416	60	4323
2026-01-01 01:44:31.43	181.35	16.02	-48.6	-50.5	22.7	6.03e-01	0	61	0	490733568	60	4469
2026-01-01 01:44:32.39	181.42	15.91	-48.7	-50.6	22.5	6.04e-01	0	61	0	492306432	60	4531
2026-01-01 01:44:33.36	181.49	15.79	-48.7	-50.6	22.5	6.03e-01	0	61	0	494403584	60	4518
2026-01-01 01:44:34.32	181.56	15.68	-48.9	-50.9	22.3	6.03e-01	0	61	0	495976448	60	4662
2026-01-01 01:44:35.28	181.62	15.57	-49.0	-51.0	22.1	6.00e-01	0	61	0	497549312	60	4729
2026-01-01 01:44:36.24	181.69	15.46	-48.9	-50.8	22.3	6.04e-01	0	61	0	499646464	60	4636
2026-01-01 01:44:37.21	181.75	15.34	-49.1	-51.2	22.0	6.03e-01	0	61	0	501219328	60	4822
2026-01-01 01:44:38.17	181.82	15.23	-49.3	-51.4	21.7	6.03e-01	0	61	0	503316480	60	4979
2026-01-01 01:44:39.14	181.88	15.12	-49.1	-51.1	22.1	6.04e-01	0	61	0	504889344	60	4774
2026-01-01 01:44:40.10	181.95	15.01	-48.9	-50.8	22.3	6.03e-01	0	61	0	506986496	60	4622
2026-01-01 01:44:41.08	182.01	14.90	-48.8	-50.7	22.4	6.02e-01	0	61	0	508559360	60	4593
2026-01-01 01:44:42.04	182.07	14.80	-48.9	-50.9	22.2	6.02e-01	0	61	0	510656512	60	4666
2026-01-01 01:44:43.00	182.14	14.69	-48.6	-50.5	22.6	6.03e-01	0	61	0	512229376	60	4453
2026-01-01 01:44:43.97	182.20	14.58	-48.6	-50.5	22.6	6.03e-01	0	61	0	514326528	60	4450
2026-01-01 01:44:44.93	182.26	14.47	-48.8	-50.8	22.3	6.01e-01	0	61	0	515899392	60	4612
2026-01-01 01:44:45.90	182.32	14.37	-48.6	-50.5	22.6	6.03e-01	0	61	0	517472256	60	4474
2026-01-01 01:44:46.86	182.38	14.26	-48.4	-50.2	22.9	6.05e-01	0	61	0	519569408	60	4323
2026-01-01 01:44:47.83	182.44	14.16	-48.3	-50.0	23.0	6.05e-01	0	62	0	521142272	60	4236
2026-01-01 01:44:48.79	182.50	14.05	-48.2	-49.9	23.1	6.04e-01	0	61	0	523239424	60	4181
2026-01-01 01:44:49.75	182.56	13.95	-48.3	-50.1	23.0	6.03e-01	0	61	0	524812288	60	4244
2026-01-01 01:44:50.72	182.62	13.84	-48.2	-49.9	23.1	6.03e-01	0	61	0	526909440	60	4180
2026-01-01 01:44:51.68	182.68	13.74	-48.5	-50.3	23.1	6.06e-01	0	61	0	528482304	59	4615
2026-01-01 01:44:52.64	182.74	13.64	-48.5	-50.3	23.1	6.04e-01	0	61	0	530579456	59	4628
2026-01-01 01:44:53.61	182.80	13.53	-48.7	-50.5	22.9	6.05e-01	0	61	0	532152320	59	4723
2026-01-01 01:44:54.57	182.85	13.43	-48.7	-50.5	22.9	6.03e-01	0	61	0	534249472	59	4715
2026-01-01 01:44:55.53	182.91	13.33	-48.7	-50.5	22.9	6.03e-01	0	61	0	535822336	59	4731
2026-01-01 01:44:56.50	182.97	13.23	-48.7	-50.5	22.9	6.04e-01	0	61	0	537395200	59	4728
2026-01-01 01:44:57.46	183.02	13.13	-48.7	-50.6	22.9	6.04e-01	0	61	0	539492352	59	4760
2026-01-01 01:44:58.42	183.08	13.03	-48.6	-50.4	22.6	6.03e-01	0	61	0	541065216	60	4429
2026-01-01 01:44:59.38	183.13	12.93	-48.7	-50.6	22.4	6.05e-01	0	61	0	543162368	60	4544
2026-01-01 01:45:00.34	183.19	12.83	-48.9	-51.0	22.1	6.03e-01	0	61	0	544735232	60	4711
2026-01-01 01:45:01.31	183.24	12.73	-48.7	-50.6	22.5	6.05e-01	0	61	0	546832384	60	4502
2026-01-01 01:45:02.27	183.30	12.63	-48.5	-50.3	22.7	6.03e-01	0	61	0	548405248	60	4361
2026-01-01 01:45:03.24	183.35	12.53	-48.4	-50.2	22.8	6.02e-01	0	61	0	549978112	60	4302
2026-01-01 01:45:04.20	183.41	12.43	-48.4	-50.2	22.8	6.04e-01	0	61	0	552075264	60	4337
2026-01-01 01:45:05.16	183.46	12.34	-48.6	-50.5	22.5	6.02e-01	0	61	0	553648128	60	4483
2026-01-01 01:45:06.12	183.51	12.24	-48.7	-50.6	22.4	6.05e-01	0	62	0	555745280	60	4533
2026-01-01 01:45:07.09	183.56	12.14	-48.6	-50.5	22.5	6.03e-01	0	61	0	557318144	60	4463
2026-01-01 01:45:08.05	183.62	12.05	-48.8	-50.7	22.3	6.02e-01	0	61	0	559415296	60	4594
2026-01-01 01:45:09.01	183.67	11.95	-48.6	-50.6	22.4	6.03e-01	0	61	0	560988160	60	4497
2026-01-01 01:45:09.98	183.72	11.86	-48.6	-50.5	22.5	6.03e-01	0	62	0	563085312	60	4442
2026-01-01 01:45:10.94	183.77	11.76	-48.6	-50.6	22.4	6.03e-01	0	61	0	564658176	60	4497
2026-01-01 01:45:11.91	183.82	11.67	-48.7	-50.6	22.3	6.04e-01	0	61	0	566755328	60	4540
2026-01-01 01:45:12.87	183.87	11.57	-48.5	-50.4	22.6	6.02e-01	0	61	0	568328192	60	4427
2026-01-01 01:45:13.84	183.92	11.48	-48.4	-50.3	22.7	6.06e-01	0	61	0	569901056	60	4368
2026-01-01 01:45:14.80	183.97	11.39	-48.4	-50.2	22.8	6.03e-01	0	62	0	571998208	60	4309
2026-01-01 01:45:15.77	184.02	11.29	-48.4	-50.3	22.7	6.03e-01	0	61	0	573571072	60	4350
2026-01-01 01:45:16.73	184.07	11.20	-48.5	-50.4	22.6	6.04e-01	0	61	0	575668224	60	4395
2026-01-01 01:45:17.69	184.12	11.11	-48.4	-50.3	22.6	6.05e-01	0	61	0	577241088	60	4369
2026-01-01 01:45:18.65	184.17	11.02	-48.5	-50.4	22.5	6.03e-01	0	61	0	579338240	60	4424
2026-01-01 01:45:19.62	184.22	10.92	-48.5	-50.3	22.6	6.02e-01	0	61	0	580911104	60	4381
2026-01-01 01:45:20.57	184.27	10.83	-48.5	-50.4	22.5	6.02e-01	0	61	0	582483968	60	4408
2026-01-01 01:45:21.53	184.31	10.74	-48.5	-50.4	22.5	6.03e-01	0	61	0	584581120	60	4400
2026-01-01 01:45:22.50	184.36	10.65	-48.5	-50.3	22.6	6.03e-01	0	62	0	586153984	60	4382
2026-01-01 01:45:23.46	184.41	10.56	-48.5	-50.4	22.5	6.04e-01	0	61	0	588251136	60	4432
2026-01-01 01:45:24.42	184.45	10.47	-48.6	-50.6	22.3	6.01e-01	0	61	0	589824000	60	4502
2026-01-01 01:45:25.39	184.50	10.38	-48.8	-50.7	22.1	6.06e-01	0	61	0	591921152	60	4594
2026-01-01 01:45:26.35	184.55	10.29	-48.8	-50.9	22.0	6.06e-01	0	61	0	593494016	60	4652
2026-01-01 01:45:27.31	184.59	10.21	-48.8	-50.8	22.1	6.04e-01	0	61	0	595591168	60	4610
2026-01-01 01:45:28.28	184.64	10.12	-48.8	-50.8	22.1	6.06e-01	0	61	0	597164032	60	4599
2026-01-01 01:45:29.24	184.69	10.03	-48.8	-50.8	22.1	6.03e-01	0	61	0	598736896	60	4637
2026-01-01 01:45:30.20	184.73	9.94	-48.9	-51.0	21.9	6.03e-01	0	61	0	600834048	60	4736
2026-01-01 01:45:31.17	184.78	9.85	-48.9	-50.9	22.0	6.02e-01	0	61	0	602406912	60	4681
2026-01-01 01:45:32.13	184.82	9.77	-49.1	-51.2	21.6	6.02e-01	0	61	0	604504064	60	4847
2026-01-01 01:45:33.09	184.86	9.68	-48.8	-50.9	22.0	6.04e-01	0	62	0	606076928	60	4660
2026-01-01 01:45:34.05	184.91	9.59	-48.7	-50.7	22.1	6.05e-01	0	61	0	608174080	60	4572
2026-01-01 01:45:35.01	184.95	9.51	-48.6	-50.6	22.2	6.03e-01	0	61	0	609746944	60	4514
2026-01-01 01:45:35.98	185.00	9.42	-48.6	-50.6	22.2	6.05e-01	0	61	0	611844096	60	4505
2026-01-01 01:45:36.94	185.04	9.34	-48.7	-50.7	22.1	6.02e-01	0	61	0	613416960	60	4557
2026-01-01 01:45:37.90	185.08	9.25	-48.7	-50.7	22.0	6.03e-01	0	62	0	614989824	60	4596
2026-01-01 01:45:38.86	185.13	9.17	-48.9	-51.0	21.8	6.04e-01	0	61	0	617086976	60	4750
2026-01-01 01:45:39.83	185.17	9.08	-48.9	-51.0	21.8	6.04e-01	0	61	0	618659840	60	4724
2026-01-01 01:45:40.79	185.21	9.00	-49.0	-51.1	21.7	6.01e-01	0	61	0	620756992	60	4801
2026-01-01 01:45:41.75	185.25	8.91	-49.1	-51.3	21.6	6.03e-01	0	61	0	622329856	60	4875
2026-01-01 01:45:42.72	185.29	8.83	-49.0	-51.1	21.7	6.02e-01	0	61	0	624427008	60	4809
2026-01-01 01:45:43.68	185.34	8.75	-49.2	-51.4	21.4	6.04e-01	0	61	0	625999872	60	4964
2026-01-01 01:45:44.65	185.38	8.66	-49.3	-51.6	21.1	6.02e-01	0	61	0	628097024	60	5083
2026-01-01 01:45:45.61	185.42	8.58	-49.4	-51.8	21.0	6.05e-01	0	61	0	629669888	61	4885
2026-01-01 01:45:46.57	185.46	8.50	-49.4	-51.7	21.0	6.04e-01	0	62	0	631242752	61	4863
2026-01-01 01:45:47.54	185.50	8.42	-49.4	-51.7	21.0	6.03e-01	0	61	0	633339904	61	4867
2026-01-01 01:45:48.50	185.54	8.34	-49.5	-52.0	20.8	6.06e-01	0	61	0	634912768	61	4985
2026-01-01 01:45:49.46	185.58	8.25	-49.5	-51.8	20.9	6.03e-01	0	62	0	637009920	61	4924
2026-01-01 01:45:50.45	185.62	8.17	-49.5	-51.9	20.9	6.04e-01	0	61	0	638582784	61	4939
2026-01-01 01:45:51.42	185.66	8.09	-49.7	-52.2	20.5	6.02e-01	0	61	0	640679936	61	5138
2026-01-01 01:45:52.38	185.70	8.01	-49.5	-51.9	20.8	6.05e-01	0	62	0	642252800	61	4961
2026-01-01 01:45:53.35	185.74	7.93	-49.2	-51.5	21.2	6.01e-01	0	62	0	644349952	61	4738
2026-01-01 01:45:54.32	185.78	7.85	-49.1	-51.4	21.4	6.04e-01	0	61	0	645922816	61	4662
2026-01-01 01:45:55.28	185.82	7.77	-49.1	-51.3	21.4	6.03e-01	0	61	0	648019968	61	4605
2026-01-01 01:45:56.25	185.86	7.69	-48.9	-51.1	21.7	6.03e-01	0	61	0	649592832	61	4494
2026-01-01 01:45:57.21	185.90	7.61	-49.0	-51.2	21.5	6.03e-01	0	61	0	651689984	61	4578
2026-01-01 01:45:58.17	185.94	7.53	-49.0	-51.2	21.5	6.02e-01	0	61	0	653262848	61	4577
2026-01-01 01:45:59.14	185.98	7.45	-49.1	-51.3	21.4	6.04e-01	0	61	0	654835712	61	4612
2026-01-01 01:46:00.10	186.01	7.37	-49.0	-51.2	21.4	6.03e-01	0	62	0	656932864	61	4592
2026-01-01 01:46:01.06	186.05	7.29	-49.2	-51.5	21.1	6.02e-01	0	61	0	658505728	61	4751
2026-01-01 01:46:02.02	186.09	7.22	-49.1	-51.4	21.3	6.02e-01	0	62	0	660602880	61	4658
2026-01-01 01:46:02.99	186.13	7.14	-49.1	-51.4	21.3	6.03e-01	0	62	0	662175744	61	4659
2026-01-01 01:46:03.95	186.16	7.06	-49.1	-51.3	21.3	6.03e-01	0	62	0	664272896	61	4640
2026-01-01 01:46:04.92	186.20	6.98	-49.2	-51.5	21.1	6.04e-01	0	62	0	665845760	61	4757
2026-01-01 01:46:05.88	186.24	6.91	-49.2	-51.5	21.2	6.02e-01	0	61	0	667418624	61	4709
2026-01-01 01:46:06.84	186.27	6.83	-49.2	-51.6	21.0	6.03e-01	0	62	0	669515776	61	4776
2026-01-01 01:46:07.80	186.31	6.75	-49.4	-51.8	20.8	6.06e-01	0	61	0	671088640	61	4910
2026-01-01 01:46:08.77	186.35	6.68	-49.3	-51.7	20.9	6.02e-01	0	61	0	673185792	61	4866
2026-01-01 01:46:09.73	186.38	6.60	-49.3	-51.7	20.8	6.03e-01	0	62	0	674758656	61	4865
2026-01-01 01:46:10.69	186.42	6.52	-49.5	-52.0	20.6	6.03e-01	0	61	0	676855808	61	5005
2026-01-01 01:46:11.65	186.45	6.45	-49.4	-51.9	20.7	6.02e-01	0	62	0	678428672	61	4947
2026-01-01 01:46:12.61	186.49	6.37	-49.5	-52.0	20.5	6.04e-01	0	62	0	680525824	61	5040
2026-01-01 01:46:13.60	186.53	6.30	-49.5	-52.1	20.4	6.04e-01	0	61	0	682098688	61	5075
2026-01-01 01:46:14.56	186.56	6.22	-49.5	-52.1	20.4	6.01e-01	0	61	0	684195840	61	5085
2026-01-01 01:46:15.53	186.60	6.15	-49.5	-52.1	20.4	6.03e-01	0	62	0	685768704	61	5068
2026-01-01 01:46:16.49	186.63	6.07	-49.4	-52.0	20.6	6.04e-01	0	62	0	687341568	61	4987
