passes_logs/2026/01/01/R3.0SM8_Murmansk_STILSPACE/R3.0SM8_Murmansk_STILSPACE__20260101_073216_NOAA_20_JPSS-1_rec.log

#Pass ID: 20260101_073216_NOAA 20 (JPSS-1)
#Satellite: NOAA 20 (JPSS-1)
#Configuration: NOAA 20
#almurnet v.1.7.20240730
#Start time: 2026-01-01 07:32:17

#Version: 2.2.20231116
#Station: R3.0SM8_Murmansk_STILSPACE
#Location: 33.092731 lon 68.902999 lat
#TLE: 1 43013U 17073A   25365.45761817  .00000173  00000+0  10307-3 0  9993
#TLE: 2 43013  98.7620 301.5517 0001951  60.3814 299.7557 14.19531661420675

#Time	Az	El	Level	Level2	SNR	BER	BlckErr	Temp	State	Recorded	gain1	gain2
2026-01-01 07:32:17.65	105.46	3.09	-52.5	-66.3	3.8	1.49e+00	0	51	0	0	67	17983
2026-01-01 07:32:18.62	105.42	3.16	-52.5	-66.3	3.8	1.49e+00	0	51	104	0	68	16955
2026-01-01 07:32:19.61	105.37	3.22	-52.4	-66.1	3.8	1.49e+00	0	51	104	0	67	17600
2026-01-01 07:32:20.59	105.33	3.28	-52.3	-66.1	3.8	1.49e+00	0	52	104	0	67	17489
2026-01-01 07:32:21.58	105.28	3.34	-52.2	-65.9	3.8	1.49e+00	0	51	104	0	67	17269
2026-01-01 07:32:22.56	105.24	3.41	-52.0	-65.7	3.8	1.49e+00	0	52	104	0	67	16819
2026-01-01 07:32:23.55	105.19	3.47	-51.8	-65.5	3.8	1.49e+00	0	52	104	0	66	17373
2026-01-01 07:32:24.54	105.14	3.53	-51.8	-65.5	3.8	1.49e+00	0	52	104	0	66	17356
2026-01-01 07:32:25.53	105.10	3.60	-51.8	-65.5	3.8	1.49e+00	0	52	104	0	66	17364
2026-01-01 07:32:26.52	105.05	3.66	-51.8	-65.5	3.8	1.49e+00	0	52	104	0	66	17330
2026-01-01 07:32:27.50	105.00	3.72	-51.8	-65.5	3.8	1.49e+00	0	52	104	0	66	17320
2026-01-01 07:32:28.49	104.96	3.79	-51.8	-65.5	3.8	1.49e+00	0	52	104	0	66	17289
2026-01-01 07:32:29.47	104.91	3.85	-51.8	-65.5	3.8	1.49e+00	0	52	104	0	66	17287
2026-01-01 07:32:30.46	104.86	3.91	-51.8	-65.4	3.8	1.49e+00	0	52	104	0	66	17178
2026-01-01 07:32:31.45	104.81	3.98	-51.8	-65.3	3.8	1.49e+00	0	52	104	0	66	17027
2026-01-01 07:32:32.43	104.77	4.04	-51.8	-65.2	3.8	1.49e+00	0	52	104	0	66	16844
2026-01-01 07:32:33.42	104.72	4.11	-51.7	-65.1	3.8	1.49e+00	0	52	104	0	66	16518
2026-01-01 07:32:34.40	104.67	4.17	-51.7	-64.9	3.8	1.49e+00	0	52	104	0	66	16172
2026-01-01 07:32:35.39	104.62	4.24	-51.7	-64.7	3.8	1.49e+00	0	53	104	0	66	15762
2026-01-01 07:32:36.37	104.57	4.30	-51.7	-64.3	3.8	1.49e+00	0	53	104	0	66	15116
2026-01-01 07:32:37.35	104.52	4.36	-51.7	-63.9	3.8	1.49e+00	0	53	104	0	66	14382
2026-01-01 07:32:38.34	104.47	4.43	-51.6	-63.5	3.8	1.49e+00	0	53	104	0	66	13750
2026-01-01 07:32:39.32	104.42	4.49	-51.6	-62.9	3.8	1.48e+00	0	53	104	0	66	12935
2026-01-01 07:32:40.30	104.37	4.56	-51.5	-62.2	4.1	1.47e+00	0	53	0	0	66	11851
2026-01-01 07:32:41.26	104.32	4.62	-51.5	-61.6	4.3	1.36e+00	0	53	0	0	66	11157
2026-01-01 07:32:42.22	104.28	4.69	-51.4	-60.7	4.6	1.05e+00	0	53	0	1048576	65	10629
2026-01-01 07:32:43.18	104.23	4.75	-51.3	-60.4	4.8	8.44e-01	0	53	0	2097152	65	10252
2026-01-01 07:32:44.14	104.18	4.81	-51.3	-60.0	5.0	7.99e-01	0	53	0	4194304	65	9747
2026-01-01 07:32:45.11	104.13	4.88	-51.1	-59.2	5.5	5.74e-01	0	53	0	6291456	65	8886
2026-01-01 07:32:46.07	104.08	4.94	-51.1	-58.8	5.8	4.14e-01	0	53	0	8388608	65	8490
2026-01-01 07:32:47.03	104.03	5.01	-50.9	-58.1	6.3	3.16e-01	0	53	0	9437184	65	7846
2026-01-01 07:32:47.99	103.98	5.07	-51.0	-58.2	6.3	2.81e-01	0	53	0	11534336	65	7904
2026-01-01 07:32:48.95	103.93	5.14	-51.1	-58.5	6.0	3.13e-01	0	53	0	13631488	65	8235
2026-01-01 07:32:49.93	103.87	5.20	-51.0	-58.0	6.4	3.47e-01	0	53	0	15728640	65	7805
2026-01-01 07:32:50.92	103.82	5.27	-50.9	-57.7	6.6	2.23e-01	0	53	0	16777216	64	7984
2026-01-01 07:32:51.91	103.77	5.34	-50.8	-57.1	7.2	1.74e-01	0	53	0	18874368	64	7431
2026-01-01 07:32:52.91	103.71	5.40	-50.7	-56.9	7.4	1.28e-01	0	53	0	20971520	64	7237
2026-01-01 07:32:53.88	103.66	5.47	-50.7	-56.8	7.4	1.20e-01	0	54	0	23068672	64	7195
2026-01-01 07:32:54.85	103.61	5.54	-50.7	-56.8	7.5	1.11e-01	0	54	0	24117248	64	7180
2026-01-01 07:32:55.82	103.56	5.60	-50.9	-57.7	6.8	1.33e-01	0	54	0	26214400	64	7904
2026-01-01 07:32:56.78	103.50	5.67	-50.9	-57.6	6.8	2.24e-01	0	54	0	28311552	64	7865
2026-01-01 07:32:57.75	103.45	5.74	-50.8	-57.0	7.3	1.73e-01	0	54	0	30408704	64	7318
2026-01-01 07:32:58.71	103.40	5.80	-50.5	-56.1	8.2	6.70e-02	0	54	0	31457280	64	6602
2026-01-01 07:32:59.68	103.34	5.87	-50.4	-55.7	8.7	3.84e-02	0	54	0	33554432	63	6651
2026-01-01 07:33:00.64	103.29	5.94	-50.2	-54.8	9.6	1.67e-02	0	54	0	35651584	63	6057
2026-01-01 07:33:01.60	103.23	6.00	-50.0	-54.3	10.1	9.32e-03	0	54	0	36700160	63	5702
2026-01-01 07:33:02.56	103.18	6.07	-49.8	-53.8	10.6	4.62e-03	0	54	0	38797312	62	5706
2026-01-01 07:33:03.53	103.12	6.14	-49.5	-53.2	11.3	1.48e-03	0	54	0	40894464	62	5339
2026-01-01 07:33:04.49	103.07	6.20	-49.3	-52.9	11.6	7.76e-04	0	54	0	42991616	61	5427
2026-01-01 07:33:05.46	103.01	6.27	-49.2	-52.6	11.9	5.22e-04	0	54	0	44040192	61	5255
2026-01-01 07:33:06.42	102.96	6.34	-48.9	-52.0	12.5	2.10e-04	0	54	0	46137344	61	4923
2026-01-01 07:33:07.39	102.90	6.41	-48.9	-51.9	12.6	9.00e-05	0	54	0	48234496	60	5149
2026-01-01 07:33:08.36	102.85	6.47	-48.8	-51.9	12.7	7.85e-05	0	54	0	50331648	60	5121
2026-01-01 07:33:09.33	102.79	6.54	-49.0	-52.1	12.4	1.01e-04	0	54	0	51380224	60	5257
2026-01-01 07:33:10.30	102.73	6.61	-49.1	-52.3	12.3	1.15e-04	0	54	0	53477376	60	5371
2026-01-01 07:33:11.26	102.68	6.68	-49.1	-52.4	12.2	2.39e-04	0	55	0	55574528	60	5439
2026-01-01 07:33:12.23	102.62	6.75	-49.0	-52.3	12.3	2.70e-04	0	55	0	56623104	60	5365
2026-01-01 07:33:13.20	102.56	6.82	-49.2	-52.5	12.1	3.08e-04	0	55	0	58720256	60	5511
2026-01-01 07:33:14.16	102.50	6.89	-49.1	-52.3	12.3	2.16e-04	0	55	0	60817408	60	5388
2026-01-01 07:33:15.13	102.45	6.95	-49.0	-52.1	12.5	1.89e-04	0	55	0	62914560	60	5273
2026-01-01 07:33:16.10	102.39	7.02	-49.0	-52.1	12.6	1.04e-04	0	55	0	63963136	60	5237
2026-01-01 07:33:17.07	102.33	7.09	-49.3	-52.6	12.0	2.78e-04	0	55	0	66060288	60	5591
2026-01-01 07:33:18.04	102.27	7.16	-49.4	-52.8	11.8	3.75e-04	0	55	0	68157440	60	5707
2026-01-01 07:33:19.00	102.21	7.23	-49.1	-52.3	12.3	2.23e-04	0	55	0	70254592	60	5357
2026-01-01 07:33:19.97	102.15	7.30	-49.0	-52.1	12.6	1.18e-04	0	55	0	71303168	60	5233
2026-01-01 07:33:20.93	102.09	7.37	-48.9	-52.0	12.7	9.23e-05	0	55	0	73400320	60	5161
2026-01-01 07:33:21.89	102.03	7.44	-48.9	-52.0	12.6	7.17e-05	0	55	0	75497472	60	5185
2026-01-01 07:33:22.85	101.97	7.51	-48.9	-51.9	12.8	6.48e-05	0	55	0	76546048	60	5111
2026-01-01 07:33:23.82	101.91	7.58	-49.1	-52.3	12.4	9.68e-05	0	55	0	78643200	60	5368
2026-01-01 07:33:24.79	101.85	7.65	-49.0	-52.2	12.5	1.40e-04	0	55	0	80740352	60	5290
2026-01-01 07:33:25.76	101.79	7.73	-48.8	-51.6	13.1	6.02e-05	0	55	0	82837504	60	4971
2026-01-01 07:33:26.72	101.72	7.80	-48.7	-51.5	13.3	1.98e-05	0	55	0	83886080	60	4875
2026-01-01 07:33:27.69	101.66	7.87	-48.6	-51.4	13.3	1.52e-05	0	55	0	85983232	60	4830
2026-01-01 07:33:28.66	101.60	7.94	-48.6	-51.3	13.4	1.67e-05	0	55	0	88080384	60	4792
2026-01-01 07:33:29.62	101.54	8.01	-48.6	-51.4	13.4	2.21e-05	0	55	0	90177536	60	4821
2026-01-01 07:33:30.59	101.47	8.08	-48.7	-51.4	13.3	1.52e-05	0	55	0	91226112	60	4857
2026-01-01 07:33:31.55	101.41	8.15	-48.7	-51.4	13.3	1.06e-05	0	55	0	93323264	60	4870
2026-01-01 07:33:32.52	101.35	8.23	-48.7	-51.5	13.2	1.52e-05	0	55	0	95420416	60	4908
2026-01-01 07:33:33.48	101.28	8.30	-48.6	-51.4	13.4	1.90e-05	0	55	0	96468992	60	4836
2026-01-01 07:33:34.44	101.22	8.37	-48.5	-51.2	13.6	1.14e-05	0	56	0	98566144	60	4736
2026-01-01 07:33:35.41	101.15	8.44	-48.6	-51.4	13.4	1.06e-05	0	56	0	100663296	60	4823
2026-01-01 07:33:36.38	101.09	8.51	-48.6	-51.3	13.5	1.52e-05	0	55	0	102760448	60	4770
2026-01-01 07:33:37.34	101.02	8.59	-48.6	-51.3	13.5	1.14e-05	0	56	0	103809024	60	4789
2026-01-01 07:33:38.31	100.96	8.66	-48.6	-51.3	13.5	1.14e-05	0	56	0	105906176	60	4775
2026-01-01 07:33:39.28	100.89	8.73	-48.6	-51.3	13.5	1.06e-05	0	56	0	108003328	60	4760
2026-01-01 07:33:40.25	100.82	8.81	-48.7	-51.5	13.3	1.60e-05	0	56	0	109051904	60	4871
2026-01-01 07:33:41.21	100.76	8.88	-48.6	-51.3	13.6	7.60e-06	0	56	0	111149056	60	4776
2026-01-01 07:33:42.17	100.69	8.95	-48.6	-51.3	13.5	3.00e-06	0	56	0	113246208	60	4784
2026-01-01 07:33:43.14	100.62	9.03	-48.6	-51.3	13.5	8.30e-06	0	56	0	115343360	60	4789
2026-01-01 07:33:44.10	100.56	9.10	-48.7	-51.4	13.4	1.29e-05	0	56	0	116391936	60	4835
2026-01-01 07:33:45.07	100.49	9.18	-48.5	-51.1	13.7	3.80e-06	0	56	0	118489088	60	4699
2026-01-01 07:33:46.03	100.42	9.25	-48.4	-51.0	13.8	6.80e-06	0	56	0	120586240	60	4629
2026-01-01 07:33:47.00	100.35	9.32	-48.5	-51.0	13.8	1.50e-06	0	56	0	122683392	60	4645
2026-01-01 07:33:47.97	100.28	9.40	-48.7	-51.4	13.5	7.60e-06	0	56	0	123731968	60	4833
2026-01-01 07:33:48.94	100.21	9.48	-48.6	-51.2	13.7	1.22e-05	0	56	0	125829120	60	4733
2026-01-01 07:33:49.90	100.14	9.55	-48.5	-51.1	13.7	5.30e-06	0	56	0	127926272	60	4700
2026-01-01 07:33:50.86	100.07	9.62	-48.7	-51.3	13.5	1.14e-05	0	56	0	130023424	60	4808
2026-01-01 07:33:51.83	100.00	9.70	-48.6	-51.2	13.7	1.06e-05	0	56	0	131072000	60	4729
2026-01-01 07:33:52.79	99.93	9.78	-48.6	-51.1	13.7	6.10e-06	0	56	0	133169152	60	4705
2026-01-01 07:33:53.76	99.86	9.85	-48.5	-51.1	13.7	9.10e-06	0	56	0	135266304	60	4700
2026-01-01 07:33:54.72	99.78	9.93	-48.5	-51.1	13.8	7.60e-06	0	56	0	136314880	60	4702
2026-01-01 07:33:55.69	99.71	10.00	-48.5	-51.1	13.8	6.80e-06	0	56	0	138412032	60	4694
2026-01-01 07:33:56.65	99.64	10.08	-48.4	-51.0	13.9	3.00e-06	0	56	0	140509184	60	4619
2026-01-01 07:33:57.61	99.57	10.16	-48.4	-50.9	14.0	8.30e-06	0	56	0	142606336	60	4586
2026-01-01 07:33:58.58	99.49	10.23	-48.6	-51.2	13.7	9.10e-06	0	56	0	143654912	60	4727
2026-01-01 07:33:59.55	99.42	10.31	-48.6	-51.2	13.7	9.10e-06	0	56	0	145752064	60	4721
2026-01-01 07:34:00.51	99.35	10.39	-48.4	-51.0	14.0	2.20e-06	0	57	0	147849216	60	4601
2026-01-01 07:34:01.48	99.27	10.47	-48.4	-50.9	14.0	1.50e-06	0	57	0	148897792	60	4566
2026-01-01 07:34:02.44	99.20	10.54	-48.4	-50.9	14.0	2.20e-06	0	56	0	150994944	59	4822
2026-01-01 07:34:03.40	99.12	10.62	-48.4	-50.9	14.1	2.20e-06	0	57	0	153092096	59	4822
2026-01-01 07:34:04.37	99.04	10.70	-48.4	-50.8	14.1	3.80e-06	0	57	0	155189248	59	4813
2026-01-01 07:34:05.34	98.97	10.78	-48.3	-50.9	14.1	2.20e-06	0	57	0	156237824	59	4816
2026-01-01 07:34:06.30	98.89	10.85	-48.4	-50.9	14.1	2.20e-06	0	57	0	158334976	59	4827
2026-01-01 07:34:07.27	98.81	10.93	-48.4	-50.9	14.1	7.00e-07	0	57	0	160432128	59	4835
2026-01-01 07:34:08.26	98.73	11.01	-48.3	-50.6	14.3	2.20e-06	0	57	0	162529280	59	4699
2026-01-01 07:34:09.25	98.65	11.10	-48.2	-50.6	14.4	7.00e-07	0	57	0	163577856	59	4669
2026-01-01 07:34:10.23	98.57	11.18	-48.3	-50.6	14.3	7.00e-07	0	57	0	165675008	59	4689
2026-01-01 07:34:11.21	98.49	11.26	-48.2	-50.5	14.5	3.00e-06	0	57	0	167772160	59	4620
2026-01-01 07:34:12.17	98.41	11.34	-48.2	-50.6	14.4	0.00e+00	0	57	0	169869312	59	4661
2026-01-01 07:34:13.14	98.33	11.42	-48.3	-50.7	14.3	1.50e-06	0	57	0	170917888	59	4732
2026-01-01 07:34:14.11	98.25	11.50	-48.1	-50.5	14.5	7.00e-07	0	57	0	173015040	59	4615
2026-01-01 07:34:15.07	98.17	11.58	-48.1	-50.4	14.6	7.00e-07	0	57	0	175112192	59	4548
2026-01-01 07:34:16.04	98.09	11.66	-48.1	-50.4	14.6	0.00e+00	0	57	0	177209344	59	4573
2026-01-01 07:34:17.00	98.01	11.74	-48.3	-50.6	14.4	7.00e-07	0	57	0	178257920	59	4667
2026-01-01 07:34:17.97	97.93	11.82	-48.3	-50.6	14.4	7.00e-07	0	57	0	180355072	59	4693
2026-01-01 07:34:18.94	97.84	11.90	-48.3	-50.6	14.4	7.00e-07	0	57	0	182452224	59	4678
2026-01-01 07:34:19.91	97.76	11.98	-48.4	-50.8	14.2	7.00e-07	0	57	0	183500800	59	4812
2026-01-01 07:34:20.89	97.68	12.06	-48.4	-50.8	14.2	1.50e-06	0	57	0	185597952	59	4811
2026-01-01 07:34:21.85	97.59	12.14	-48.3	-50.6	14.4	7.00e-07	0	57	0	187695104	59	4678
2026-01-01 07:34:22.82	97.51	12.23	-48.6	-51.1	14.0	1.50e-06	0	57	0	189792256	59	4945
2026-01-01 07:34:23.78	97.42	12.31	-48.5	-50.9	14.1	3.80e-06	0	57	0	190840832	59	4836
2026-01-01 07:34:24.74	97.34	12.39	-48.5	-51.0	14.0	0.00e+00	0	57	0	192937984	59	4892
2026-01-01 07:34:25.71	97.25	12.47	-48.7	-51.3	13.7	3.00e-06	0	57	0	195035136	59	5065
2026-01-01 07:34:26.68	97.16	12.56	-48.7	-51.2	13.8	8.30e-06	0	57	0	197132288	59	5012
2026-01-01 07:34:27.64	97.08	12.64	-48.4	-50.8	14.2	3.00e-06	0	57	0	198180864	59	4803
2026-01-01 07:34:28.61	96.99	12.72	-48.3	-50.6	14.4	0.00e+00	0	57	0	200278016	59	4682
2026-01-01 07:34:29.57	96.90	12.81	-48.2	-50.4	14.6	0.00e+00	0	57	0	202375168	59	4585
2026-01-01 07:34:30.54	96.81	12.89	-48.2	-50.5	14.5	1.50e-06	0	57	0	203423744	59	4627
2026-01-01 07:34:31.50	96.72	12.97	-48.2	-50.4	14.7	7.00e-07	0	57	0	205520896	59	4556
2026-01-01 07:34:32.47	96.63	13.06	-48.0	-50.2	14.9	7.00e-07	0	58	0	207618048	59	4458
2026-01-01 07:34:33.44	96.54	13.14	-47.9	-50.0	15.0	0.00e+00	0	57	0	209715200	59	4380
2026-01-01 07:34:34.41	96.45	13.23	-47.9	-50.0	15.1	0.00e+00	0	58	0	210763776	59	4344
2026-01-01 07:34:35.37	96.36	13.31	-47.9	-50.0	15.1	0.00e+00	0	58	0	212860928	58	4639
2026-01-01 07:34:36.34	96.27	13.40	-48.1	-50.3	14.8	0.00e+00	0	58	0	214958080	58	4767
2026-01-01 07:34:37.30	96.18	13.48	-48.1	-50.4	14.7	1.50e-06	0	58	0	217055232	58	4818
2026-01-01 07:34:38.27	96.08	13.57	-48.0	-50.2	14.9	7.00e-07	0	58	0	218103808	58	4737
2026-01-01 07:34:39.23	95.99	13.65	-47.9	-50.1	15.0	0.00e+00	0	58	0	220200960	58	4660
2026-01-01 07:34:40.19	95.90	13.74	-47.8	-49.8	15.2	0.00e+00	0	58	0	222298112	58	4541
2026-01-01 07:34:41.15	95.80	13.82	-47.8	-49.9	15.2	0.00e+00	0	58	0	223346688	58	4577
2026-01-01 07:34:42.12	95.71	13.91	-47.9	-50.0	15.1	0.00e+00	0	58	0	225443840	58	4610
2026-01-01 07:34:43.08	95.61	13.99	-47.9	-50.0	15.1	0.00e+00	0	58	0	227540992	58	4645
2026-01-01 07:34:44.05	95.51	14.08	-47.9	-49.9	15.2	0.00e+00	0	58	0	229638144	58	4583
2026-01-01 07:34:45.01	95.42	14.17	-47.9	-49.9	15.2	0.00e+00	0	58	0	230686720	58	4594
2026-01-01 07:34:45.97	95.32	14.25	-48.0	-50.1	15.0	0.00e+00	0	58	0	232783872	58	4692
2026-01-01 07:34:46.94	95.22	14.34	-47.9	-49.9	15.1	0.00e+00	0	58	0	234881024	58	4597
2026-01-01 07:34:47.90	95.12	14.43	-47.8	-49.9	15.3	0.00e+00	0	58	0	236978176	58	4550
2026-01-01 07:34:48.87	95.02	14.52	-47.8	-49.8	15.3	0.00e+00	0	58	0	238026752	58	4494
2026-01-01 07:34:49.84	94.92	14.61	-47.8	-49.8	15.3	0.00e+00	0	58	0	240123904	58	4545
2026-01-01 07:34:50.82	94.82	14.70	-47.8	-49.8	15.3	0.00e+00	0	58	0	242221056	58	4540
2026-01-01 07:34:51.79	94.72	14.78	-47.8	-49.9	15.3	0.00e+00	0	58	0	243269632	58	4558
2026-01-01 07:34:52.75	94.62	14.87	-47.8	-49.8	15.3	0.00e+00	0	58	0	245366784	58	4542
2026-01-01 07:34:53.72	94.52	14.96	-47.9	-50.0	15.2	0.00e+00	0	58	0	247463936	58	4600
2026-01-01 07:34:54.68	94.41	15.05	-47.8	-49.8	15.3	0.00e+00	0	58	0	249561088	58	4518
2026-01-01 07:34:55.65	94.31	15.14	-47.7	-49.7	15.4	0.00e+00	0	58	0	250609664	58	4466
2026-01-01 07:34:56.61	94.21	15.23	-47.8	-49.8	15.4	0.00e+00	0	58	0	252706816	58	4502
2026-01-01 07:34:57.57	94.10	15.32	-47.8	-49.9	15.3	0.00e+00	0	58	0	254803968	58	4557
2026-01-01 07:34:58.54	94.00	15.41	-47.8	-49.8	15.3	0.00e+00	0	58	0	256901120	58	4528
2026-01-01 07:34:59.50	93.89	15.50	-47.7	-49.6	15.5	0.00e+00	0	58	0	257949696	58	4428
2026-01-01 07:35:00.47	93.78	15.59	-47.7	-49.6	15.5	0.00e+00	0	58	0	260046848	58	4413
2026-01-01 07:35:01.43	93.68	15.68	-47.7	-49.6	15.5	7.00e-07	0	58	0	262144000	58	4410
2026-01-01 07:35:02.40	93.57	15.77	-47.7	-49.6	15.5	0.00e+00	0	58	0	263192576	58	4440
2026-01-01 07:35:03.36	93.46	15.86	-47.8	-49.7	15.4	0.00e+00	0	58	0	265289728	58	4487
2026-01-01 07:35:04.33	93.35	15.95	-47.9	-49.9	15.2	0.00e+00	0	58	0	267386880	58	4569
2026-01-01 07:35:05.30	93.24	16.05	-47.7	-49.7	15.4	0.00e+00	0	58	0	269484032	58	4467
2026-01-01 07:35:06.26	93.13	16.14	-47.7	-49.6	15.5	0.00e+00	0	59	0	270532608	58	4440
2026-01-01 07:35:07.23	93.02	16.23	-47.8	-49.8	15.4	0.00e+00	0	58	0	272629760	58	4505
2026-01-01 07:35:08.20	92.90	16.32	-47.8	-49.8	15.4	0.00e+00	0	58	0	274726912	58	4499
2026-01-01 07:35:09.16	92.79	16.42	-47.8	-49.7	15.4	0.00e+00	0	58	0	276824064	58	4486
2026-01-01 07:35:10.13	92.68	16.51	-47.8	-49.8	15.4	0.00e+00	0	58	0	277872640	58	4501
2026-01-01 07:35:11.10	92.56	16.60	-47.8	-49.9	15.3	0.00e+00	0	58	0	279969792	58	4560
2026-01-01 07:35:12.07	92.45	16.70	-47.9	-49.9	15.2	0.00e+00	0	59	0	282066944	58	4580
2026-01-01 07:35:13.03	92.33	16.79	-48.0	-50.0	15.1	0.00e+00	0	58	0	283115520	58	4648
2026-01-01 07:35:13.99	92.21	16.88	-48.1	-50.2	15.0	0.00e+00	0	58	0	285212672	58	4740
2026-01-01 07:35:14.96	92.10	16.98	-48.3	-50.5	14.7	0.00e+00	0	59	0	287309824	58	4903
2026-01-01 07:35:15.92	91.98	17.07	-48.3	-50.5	14.7	7.00e-07	0	59	0	289406976	58	4881
2026-01-01 07:35:16.88	91.86	17.17	-48.2	-50.5	14.7	0.00e+00	0	58	0	290455552	58	4872
2026-01-01 07:35:17.85	91.74	17.26	-48.3	-50.6	14.6	0.00e+00	0	59	0	292552704	58	4964
2026-01-01 07:35:18.81	91.62	17.36	-48.5	-50.8	14.3	7.00e-07	0	58	0	294649856	58	5095
2026-01-01 07:35:19.78	91.50	17.45	-48.4	-50.7	14.4	0.00e+00	0	59	0	296747008	58	5036
2026-01-01 07:35:20.75	91.38	17.55	-48.5	-50.9	14.3	0.00e+00	0	59	0	297795584	58	5134
2026-01-01 07:35:21.71	91.25	17.64	-48.4	-50.7	14.5	7.00e-07	0	59	0	299892736	58	5021
2026-01-01 07:35:22.68	91.13	17.74	-48.5	-50.9	14.3	0.00e+00	0	59	0	301989888	58	5123
2026-01-01 07:35:23.65	91.00	17.84	-48.4	-50.7	14.4	7.00e-07	0	59	0	303038464	59	4756
2026-01-01 07:35:24.61	90.88	17.93	-48.3	-50.6	14.6	2.20e-06	0	59	0	305135616	59	4679
2026-01-01 07:35:25.58	90.75	18.03	-48.5	-50.8	14.4	1.50e-06	0	59	0	307232768	59	4797
2026-01-01 07:35:26.54	90.63	18.13	-48.5	-50.9	14.3	2.20e-06	0	59	0	309329920	59	4817
2026-01-01 07:35:27.51	90.50	18.22	-48.4	-50.6	14.6	0.00e+00	0	59	0	310378496	59	4695
2026-01-01 07:35:28.47	90.37	18.32	-48.3	-50.6	14.5	0.00e+00	0	59	0	312475648	59	4700
2026-01-01 07:35:29.43	90.24	18.42	-48.3	-50.5	14.7	7.00e-07	0	59	0	314572800	59	4619
2026-01-01 07:35:30.40	90.11	18.51	-48.2	-50.4	14.8	0.00e+00	0	59	0	316669952	59	4593
2026-01-01 07:35:31.37	89.98	18.61	-48.4	-50.6	14.6	0.00e+00	0	59	0	317718528	59	4696
2026-01-01 07:35:32.33	89.85	18.71	-48.5	-50.8	14.4	2.20e-06	0	59	0	319815680	59	4776
2026-01-01 07:35:33.29	89.72	18.81	-48.4	-50.7	14.5	0.00e+00	0	59	0	321912832	59	4744
2026-01-01 07:35:34.26	89.58	18.91	-48.5	-50.9	14.2	7.00e-07	0	59	0	322961408	59	4862
2026-01-01 07:35:35.22	89.45	19.01	-48.3	-50.6	14.6	0.00e+00	0	59	0	325058560	59	4676
2026-01-01 07:35:36.18	89.31	19.11	-48.2	-50.4	14.8	0.00e+00	0	59	0	327155712	59	4577
2026-01-01 07:35:37.15	89.18	19.21	-48.1	-50.3	14.9	0.00e+00	0	59	0	329252864	59	4499
2026-01-01 07:35:38.11	89.04	19.30	-48.1	-50.2	15.0	0.00e+00	0	59	0	330301440	59	4482
2026-01-01 07:35:39.08	88.90	19.40	-48.2	-50.3	14.9	0.00e+00	0	59	0	332398592	59	4519
2026-01-01 07:35:40.05	88.76	19.51	-48.2	-50.3	14.9	0.00e+00	0	59	0	334495744	59	4531
2026-01-01 07:35:41.02	88.62	19.61	-48.3	-50.6	14.6	0.00e+00	0	59	0	336592896	59	4658
2026-01-01 07:35:41.98	88.48	19.71	-48.3	-50.6	14.6	0.00e+00	0	59	0	337641472	59	4679
2026-01-01 07:35:42.95	88.34	19.81	-48.4	-50.7	14.5	0.00e+00	0	59	0	339738624	59	4756
2026-01-01 07:35:43.91	88.19	19.91	-48.2	-50.3	14.9	0.00e+00	0	59	0	341835776	59	4533
2026-01-01 07:35:44.87	88.05	20.01	-48.0	-50.1	15.1	0.00e+00	0	59	0	342884352	59	4427
2026-01-01 07:35:45.84	87.91	20.11	-47.9	-49.9	15.4	0.00e+00	0	59	0	344981504	58	4554
2026-01-01 07:35:46.80	87.76	20.21	-47.8	-49.8	15.4	0.00e+00	0	59	0	347078656	58	4531
2026-01-01 07:35:47.76	87.61	20.31	-47.8	-49.8	15.5	0.00e+00	0	59	0	349175808	58	4514
2026-01-01 07:35:48.73	87.47	20.42	-47.9	-49.8	15.4	0.00e+00	0	59	0	350224384	58	4538
2026-01-01 07:35:49.69	87.32	20.52	-48.0	-50.0	15.2	0.00e+00	0	59	0	352321536	58	4645
2026-01-01 07:35:50.66	87.17	20.62	-47.8	-49.9	15.4	0.00e+00	0	59	0	354418688	58	4549
2026-01-01 07:35:51.62	87.02	20.72	-47.8	-49.7	15.5	0.00e+00	0	59	0	355467264	58	4473
2026-01-01 07:35:52.59	86.86	20.83	-47.8	-49.7	15.6	7.00e-07	0	59	0	357564416	58	4457
2026-01-01 07:35:53.55	86.71	20.93	-47.9	-49.9	15.4	0.00e+00	0	59	0	359661568	58	4548
2026-01-01 07:35:54.52	86.56	21.03	-47.9	-49.9	15.4	0.00e+00	0	59	0	361758720	58	4563
2026-01-01 07:35:55.48	86.40	21.13	-47.9	-49.8	15.4	0.00e+00	0	59	0	362807296	58	4539
2026-01-01 07:35:56.45	86.25	21.24	-48.0	-50.0	15.2	0.00e+00	0	59	0	364904448	58	4628
2026-01-01 07:35:57.42	86.09	21.34	-48.0	-50.1	15.2	0.00e+00	0	59	0	367001600	58	4654
2026-01-01 07:35:58.39	85.93	21.45	-48.0	-50.0	15.2	0.00e+00	0	59	0	369098752	58	4641
2026-01-01 07:35:59.35	85.77	21.55	-48.0	-50.1	15.1	0.00e+00	0	59	0	370147328	58	4694
2026-01-01 07:36:00.32	85.61	21.66	-47.9	-50.0	15.2	0.00e+00	0	59	0	372244480	58	4651
2026-01-01 07:36:01.28	85.45	21.76	-47.8	-49.7	15.5	0.00e+00	0	59	0	374341632	58	4476
2026-01-01 07:36:02.24	85.29	21.86	-47.7	-49.6	15.7	0.00e+00	0	59	0	375390208	58	4410
2026-01-01 07:36:03.20	85.12	21.97	-47.7	-49.6	15.6	0.00e+00	0	59	0	377487360	58	4409
2026-01-01 07:36:04.17	84.96	22.08	-47.6	-49.6	15.7	0.00e+00	0	60	0	379584512	58	4403
2026-01-01 07:36:05.13	84.79	22.18	-47.8	-49.8	15.4	0.00e+00	0	59	0	381681664	58	4519
2026-01-01 07:36:06.10	84.63	22.29	-47.7	-49.6	15.7	0.00e+00	0	59	0	382730240	58	4398
2026-01-01 07:36:07.06	84.46	22.39	-47.8	-49.8	15.5	0.00e+00	0	60	0	384827392	58	4496
2026-01-01 07:36:08.02	84.29	22.50	-48.0	-50.1	15.2	0.00e+00	0	60	0	386924544	58	4661
2026-01-01 07:36:08.99	84.12	22.60	-47.8	-49.8	15.5	0.00e+00	0	60	0	387973120	58	4509
2026-01-01 07:36:09.95	83.95	22.71	-47.7	-49.6	15.7	0.00e+00	0	59	0	390070272	58	4421
2026-01-01 07:36:10.92	83.77	22.82	-47.7	-49.6	15.7	0.00e+00	0	60	0	392167424	58	4411
2026-01-01 07:36:11.88	83.60	22.92	-47.7	-49.7	15.6	0.00e+00	0	60	0	394264576	58	4452
2026-01-01 07:36:12.85	83.42	23.03	-47.8	-49.8	15.5	0.00e+00	0	60	0	395313152	58	4499
2026-01-01 07:36:13.81	83.25	23.13	-47.9	-49.9	15.3	0.00e+00	0	60	0	397410304	58	4590
2026-01-01 07:36:14.79	83.07	23.24	-47.9	-50.1	15.2	0.00e+00	0	60	0	399507456	58	4667
2026-01-01 07:36:15.75	82.89	23.35	-48.0	-50.1	15.2	0.00e+00	0	60	0	401604608	58	4697
2026-01-01 07:36:16.72	82.71	23.46	-48.1	-50.1	15.1	0.00e+00	0	60	0	402653184	58	4705
2026-01-01 07:36:17.69	82.53	23.57	-48.1	-50.3	15.0	0.00e+00	0	59	0	404750336	58	4778
2026-01-01 07:36:18.66	82.34	23.67	-48.1	-50.3	14.9	0.00e+00	0	60	0	406847488	58	4813
2026-01-01 07:36:19.63	82.16	23.78	-48.3	-50.4	14.8	7.00e-07	0	60	0	408944640	58	4861
2026-01-01 07:36:20.59	81.97	23.89	-48.3	-50.6	14.7	0.00e+00	0	60	0	409993216	58	4945
2026-01-01 07:36:21.55	81.79	24.00	-48.5	-50.8	14.6	7.00e-07	0	60	0	412090368	58	5045
2026-01-01 07:36:22.52	81.60	24.10	-48.3	-50.7	14.6	7.00e-07	0	60	0	414187520	58	5006
2026-01-01 07:36:23.48	81.41	24.21	-48.4	-50.7	14.6	1.50e-06	0	59	0	415236096	58	4996
2026-01-01 07:36:24.45	81.22	24.32	-48.6	-51.0	14.3	2.20e-06	0	60	0	417333248	59	4871
2026-01-01 07:36:25.41	81.03	24.43	-48.6	-50.9	14.4	7.00e-07	0	60	0	419430400	59	4843
2026-01-01 07:36:26.37	80.84	24.54	-48.4	-50.8	14.5	7.00e-07	0	60	0	421527552	59	4796
2026-01-01 07:36:27.34	80.64	24.65	-48.5	-50.8	14.5	0.00e+00	0	60	0	422576128	59	4785
2026-01-01 07:36:28.31	80.44	24.75	-48.6	-50.9	14.4	7.00e-07	0	60	0	424673280	59	4855
2026-01-01 07:36:29.27	80.25	24.86	-48.7	-51.1	14.2	7.00e-07	0	60	0	426770432	59	4947
2026-01-01 07:36:30.24	80.05	24.97	-48.7	-51.1	14.2	1.50e-06	0	59	0	427819008	59	4969
2026-01-01 07:36:31.20	79.85	25.08	-48.7	-51.1	14.2	1.50e-06	0	60	0	429916160	59	4974
2026-01-01 07:36:32.17	79.64	25.19	-48.7	-51.1	14.2	2.20e-06	0	60	0	432013312	59	4972
2026-01-01 07:36:33.13	79.44	25.30	-48.6	-51.0	14.3	7.00e-07	0	60	0	434110464	59	4884
2026-01-01 07:36:34.10	79.24	25.41	-48.6	-51.0	14.3	7.00e-07	0	60	0	435159040	59	4885
2026-01-01 07:36:35.06	79.03	25.52	-48.7	-51.2	14.1	0.00e+00	0	60	0	437256192	59	5010
2026-01-01 07:36:36.03	78.82	25.62	-48.7	-51.1	14.2	3.00e-06	0	60	0	439353344	59	4957
2026-01-01 07:36:36.99	78.62	25.73	-48.6	-50.9	14.4	3.80e-06	0	60	0	441450496	59	4853
2026-01-01 07:36:37.95	78.41	25.84	-48.4	-50.7	14.6	7.00e-07	0	60	0	442499072	59	4711
2026-01-01 07:36:38.92	78.19	25.95	-48.5	-50.8	14.5	7.00e-07	0	60	0	444596224	59	4789
2026-01-01 07:36:39.88	77.98	26.06	-48.5	-50.8	14.5	0.00e+00	0	60	0	446693376	59	4812
2026-01-01 07:36:40.85	77.77	26.17	-48.6	-50.9	14.4	0.00e+00	0	60	0	447741952	59	4856
2026-01-01 07:36:41.81	77.55	26.28	-48.6	-50.9	14.4	7.00e-07	0	60	0	449839104	59	4851
2026-01-01 07:36:42.77	77.34	26.39	-48.5	-50.8	14.5	2.20e-06	0	60	0	451936256	59	4796
2026-01-01 07:36:43.73	77.12	26.49	-48.5	-50.8	14.5	0.00e+00	0	60	0	454033408	59	4776
2026-01-01 07:36:44.70	76.90	26.60	-48.7	-51.0	14.3	0.00e+00	0	60	0	455081984	59	4907
2026-01-01 07:36:45.67	76.67	26.71	-48.5	-50.8	14.5	7.00e-07	0	60	0	457179136	59	4766
2026-01-01 07:36:46.63	76.45	26.82	-48.4	-50.7	14.6	1.50e-06	0	60	0	459276288	59	4716
2026-01-01 07:36:47.61	76.22	26.93	-48.5	-50.8	14.5	0.00e+00	0	60	0	461373440	59	4809
2026-01-01 07:36:48.57	76.00	27.04	-48.5	-50.8	14.6	0.00e+00	0	60	0	462422016	59	4769
2026-01-01 07:36:49.54	75.77	27.15	-48.4	-50.7	14.6	0.00e+00	0	60	0	464519168	59	4724
2026-01-01 07:36:50.51	75.54	27.26	-48.4	-50.6	14.7	0.00e+00	0	60	0	466616320	59	4672
2026-01-01 07:36:51.48	75.30	27.37	-48.5	-50.8	14.6	0.00e+00	0	60	0	467664896	59	4770
2026-01-01 07:36:52.44	75.07	27.48	-48.6	-50.9	14.4	7.00e-07	0	60	0	469762048	59	4831
2026-01-01 07:36:53.41	74.83	27.58	-48.5	-50.8	14.5	3.00e-06	0	60	0	471859200	59	4807
2026-01-01 07:36:54.38	74.60	27.69	-48.6	-50.9	14.4	7.00e-07	0	60	0	473956352	59	4857
2026-01-01 07:36:55.34	74.36	27.80	-48.7	-51.1	14.3	2.20e-06	0	60	0	475004928	59	4953
2026-01-01 07:36:56.31	74.12	27.91	-48.6	-50.8	14.5	1.50e-06	0	60	0	477102080	59	4814
2026-01-01 07:36:57.27	73.88	28.02	-48.3	-50.5	14.8	0.00e+00	0	60	0	479199232	59	4647
2026-01-01 07:36:58.23	73.64	28.12	-48.3	-50.4	14.9	7.00e-07	0	60	0	481296384	59	4591
2026-01-01 07:36:59.19	73.40	28.23	-48.3	-50.5	14.9	0.00e+00	0	60	0	482344960	59	4600
2026-01-01 07:37:00.16	73.15	28.34	-48.2	-50.5	14.9	0.00e+00	0	60	0	484442112	59	4609
2026-01-01 07:37:01.13	72.90	28.45	-48.2	-50.4	14.9	0.00e+00	0	60	0	486539264	59	4582
2026-01-01 07:37:02.09	72.65	28.55	-48.3	-50.4	14.9	0.00e+00	0	60	0	487587840	59	4587
2026-01-01 07:37:03.06	72.40	28.66	-48.3	-50.6	14.7	0.00e+00	0	60	0	489684992	59	4693
2026-01-01 07:37:04.02	72.15	28.77	-48.6	-51.0	14.4	7.00e-07	0	60	0	491782144	59	4872
2026-01-01 07:37:05.01	71.89	28.87	-48.5	-50.8	14.5	1.50e-06	0	60	0	493879296	59	4788
2026-01-01 07:37:05.98	71.63	28.98	-48.5	-50.8	14.5	7.00e-07	0	60	0	494927872	59	4787
2026-01-01 07:37:06.95	71.37	29.09	-48.6	-51.0	14.3	7.00e-07	0	60	0	497025024	59	4897
2026-01-01 07:37:07.91	71.11	29.19	-48.8	-51.2	14.1	0.00e+00	0	60	0	499122176	59	5025
2026-01-01 07:37:08.88	70.85	29.30	-48.8	-51.3	14.1	3.80e-06	0	60	0	501219328	59	5062
2026-01-01 07:37:09.85	70.58	29.40	-48.9	-51.4	14.0	3.00e-06	0	60	0	502267904	59	5118
2026-01-01 07:37:10.82	70.32	29.51	-49.0	-51.5	13.8	5.30e-06	0	60	0	504365056	59	5194
2026-01-01 07:37:11.79	70.05	29.61	-49.1	-51.7	13.6	1.50e-06	0	60	0	506462208	59	5307
2026-01-01 07:37:12.75	69.78	29.72	-49.4	-52.3	13.0	1.22e-05	0	60	0	508559360	60	5351
2026-01-01 07:37:13.71	69.51	29.82	-49.6	-52.7	12.6	6.10e-05	0	60	0	509607936	60	5595
2026-01-01 07:37:14.68	69.24	29.92	-49.5	-52.8	12.6	9.91e-05	0	60	0	511705088	61	5356
2026-01-01 07:37:15.64	68.97	30.03	-49.7	-53.0	12.3	1.72e-04	0	60	0	513802240	61	5479
2026-01-01 07:37:16.60	68.69	30.13	-49.8	-53.2	12.1	2.96e-04	0	60	0	514850816	61	5597
2026-01-01 07:37:17.57	68.41	30.23	-49.9	-53.3	12.0	2.87e-04	0	60	0	516947968	61	5716
2026-01-01 07:37:18.53	68.14	30.33	-50.0	-53.5	11.7	5.04e-04	0	60	0	519045120	61	5823
2026-01-01 07:37:19.49	67.86	30.43	-50.2	-53.9	11.4	6.95e-04	0	60	0	521142272	62	5739
2026-01-01 07:37:20.46	67.57	30.53	-50.1	-54.0	11.3	1.15e-03	0	60	0	522190848	62	5791
2026-01-01 07:37:21.42	67.29	30.63	-50.3	-54.1	11.2	1.01e-03	0	60	0	524288000	62	5856
2026-01-01 07:37:22.39	67.00	30.74	-50.4	-54.3	11.0	1.86e-03	0	60	0	526385152	62	5995
2026-01-01 07:37:23.36	66.71	30.84	-50.2	-53.9	11.3	1.17e-03	0	61	0	528482304	62	5751
2026-01-01 07:37:24.33	66.42	30.94	-50.2	-53.9	11.3	1.15e-03	0	60	0	529530880	62	5774
2026-01-01 07:37:25.29	66.13	31.03	-50.2	-53.9	11.3	1.08e-03	0	60	0	531628032	62	5772
2026-01-01 07:37:26.26	65.84	31.13	-50.3	-54.1	11.2	1.20e-03	0	60	0	533725184	62	5898
2026-01-01 07:37:27.22	65.55	31.23	-50.3	-54.1	11.1	1.66e-03	0	61	0	534773760	62	5906
2026-01-01 07:37:28.18	65.25	31.33	-50.4	-54.4	10.8	1.71e-03	0	60	0	536870912	62	6116
2026-01-01 07:37:29.15	64.95	31.42	-50.6	-55.0	10.2	3.52e-03	0	60	0	538968064	63	6136
2026-01-01 07:37:30.11	64.65	31.52	-50.7	-55.0	10.2	5.89e-03	0	61	0	541065216	63	6198
2026-01-01 07:37:31.07	64.35	31.61	-50.9	-55.7	9.5	8.38e-03	0	60	0	542113792	63	6675
2026-01-01 07:37:32.03	64.05	31.71	-50.7	-55.2	10.0	9.19e-03	0	60	0	544210944	63	6281
2026-01-01 07:37:33.00	63.74	31.80	-50.9	-55.5	9.7	9.69e-03	0	61	0	546308096	63	6535
2026-01-01 07:37:33.96	63.44	31.89	-50.8	-55.3	10.0	1.00e-02	0	61	0	547356672	63	6349
2026-01-01 07:37:34.93	63.13	31.99	-50.8	-55.2	10.0	8.70e-03	0	60	0	549453824	63	6319
2026-01-01 07:37:35.89	62.82	32.08	-50.7	-55.2	10.0	9.11e-03	0	61	0	551550976	63	6310
2026-01-01 07:37:36.86	62.50	32.17	-50.6	-54.8	10.4	5.29e-03	0	61	0	553648128	63	6006
2026-01-01 07:37:37.82	62.19	32.26	-50.5	-54.5	10.8	3.29e-03	0	61	0	554696704	63	5800
2026-01-01 07:37:38.79	61.87	32.35	-50.3	-54.0	11.1	2.13e-03	0	60	0	556793856	63	5508
2026-01-01 07:37:39.76	61.55	32.44	-50.3	-54.1	11.1	1.67e-03	0	60	0	558891008	63	5576
2026-01-01 07:37:40.73	61.23	32.53	-50.2	-53.8	11.4	1.54e-03	0	60	0	560988160	63	5389
2026-01-01 07:37:41.69	60.91	32.62	-50.1	-53.6	11.7	6.82e-04	0	61	0	562036736	63	5261
2026-01-01 07:37:42.66	60.58	32.71	-50.0	-53.5	11.9	5.33e-04	0	61	0	564133888	63	5195
2026-01-01 07:37:43.62	60.26	32.79	-50.0	-53.4	11.8	4.39e-04	0	61	0	566231040	63	5156
2026-01-01 07:37:44.59	59.93	32.88	-50.0	-53.4	11.9	4.81e-04	0	61	0	567279616	63	5136
2026-01-01 07:37:45.55	59.61	32.96	-49.8	-53.1	12.2	2.37e-04	0	61	0	569376768	62	5265
2026-01-01 07:37:46.52	59.27	33.05	-49.9	-53.1	12.3	2.25e-04	0	61	0	571473920	62	5266
2026-01-01 07:37:47.48	58.94	33.13	-49.8	-53.0	12.2	2.75e-04	0	61	0	573571072	62	5212
2026-01-01 07:37:48.44	58.61	33.21	-49.9	-53.3	12.0	3.02e-04	0	61	0	574619648	62	5382
2026-01-01 07:37:49.40	58.28	33.29	-49.9	-53.3	12.0	4.25e-04	0	61	0	576716800	62	5345
2026-01-01 07:37:50.37	57.94	33.37	-49.7	-52.8	12.5	1.98e-04	0	61	0	578813952	62	5097
2026-01-01 07:37:51.34	57.60	33.45	-49.4	-52.5	12.8	9.23e-05	0	61	0	580911104	62	4913
2026-01-01 07:37:52.30	57.26	33.53	-49.4	-52.3	13.0	4.11e-05	0	61	0	581959680	61	5098
2026-01-01 07:37:53.27	56.92	33.61	-49.3	-52.3	13.0	4.11e-05	0	61	0	584056832	61	5078
2026-01-01 07:37:54.23	56.58	33.68	-49.3	-52.1	13.3	2.36e-05	0	61	0	586153984	61	4957
2026-01-01 07:37:55.20	56.23	33.76	-48.9	-51.4	13.9	1.06e-05	0	61	0	587202560	61	4563
2026-01-01 07:37:56.16	55.88	33.83	-48.8	-51.2	14.1	7.00e-07	0	61	0	589299712	60	4742
2026-01-01 07:37:57.13	55.53	33.91	-48.7	-51.2	14.2	7.00e-07	0	61	0	591396864	60	4723
2026-01-01 07:37:58.10	55.18	33.98	-48.9	-51.4	14.0	1.50e-06	0	61	0	593494016	60	4817
2026-01-01 07:37:59.07	54.83	34.05	-48.7	-51.2	14.2	3.00e-06	0	61	0	594542592	60	4739
2026-01-01 07:38:00.04	54.47	34.12	-48.7	-51.1	14.3	7.00e-07	0	61	0	596639744	60	4654
2026-01-01 07:38:01.00	54.12	34.19	-48.8	-51.3	14.0	1.50e-06	0	61	0	598736896	60	4802
2026-01-01 07:38:01.96	53.77	34.26	-48.7	-51.1	14.3	0.00e+00	0	61	0	600834048	60	4674
2026-01-01 07:38:02.93	53.41	34.33	-48.6	-50.9	14.4	1.50e-06	0	61	0	601882624	60	4584
2026-01-01 07:38:03.89	53.05	34.39	-48.4	-50.6	14.8	0.00e+00	0	61	0	603979776	59	4669
2026-01-01 07:38:04.85	52.69	34.46	-48.4	-50.6	14.8	7.00e-07	0	61	0	606076928	59	4675
2026-01-01 07:38:05.81	52.33	34.52	-48.5	-50.7	14.7	0.00e+00	0	61	0	607125504	59	4709
2026-01-01 07:38:06.78	51.97	34.58	-48.5	-50.7	14.7	0.00e+00	0	61	0	609222656	59	4722
2026-01-01 07:38:07.74	51.60	34.64	-48.5	-50.7	14.6	0.00e+00	0	61	0	611319808	59	4746
2026-01-01 07:38:08.71	51.24	34.70	-48.3	-50.4	15.0	0.00e+00	0	61	0	613416960	59	4556
2026-01-01 07:38:09.68	50.87	34.76	-48.0	-50.0	15.4	0.00e+00	0	61	0	614465536	59	4352
2026-01-01 07:38:10.64	50.50	34.82	-47.9	-49.8	15.6	0.00e+00	0	61	0	616562688	58	4503
2026-01-01 07:38:11.62	50.12	34.88	-47.8	-49.7	15.7	0.00e+00	0	61	0	618659840	58	4459
2026-01-01 07:38:12.58	49.75	34.93	-48.0	-50.0	15.4	0.00e+00	0	61	0	619708416	58	4611
2026-01-01 07:38:13.55	49.38	34.98	-47.9	-49.8	15.5	0.00e+00	0	61	0	621805568	58	4540
2026-01-01 07:38:14.52	49.01	35.04	-47.8	-49.7	15.7	0.00e+00	0	61	0	623902720	58	4459
2026-01-01 07:38:15.49	48.63	35.09	-47.7	-49.5	15.8	0.00e+00	0	61	0	625999872	58	4390
2026-01-01 07:38:16.46	48.25	35.14	-47.4	-49.1	16.3	0.00e+00	0	61	0	627048448	58	4183
2026-01-01 07:38:17.43	47.87	35.19	-47.2	-48.8	16.6	0.00e+00	0	61	0	629145600	57	4287
2026-01-01 07:38:18.39	47.49	35.23	-47.0	-48.6	16.8	0.00e+00	0	61	0	631242752	57	4169
2026-01-01 07:38:19.35	47.12	35.28	-47.0	-48.6	16.8	0.00e+00	0	61	0	633339904	57	4150
2026-01-01 07:38:20.31	46.74	35.32	-47.1	-48.7	16.6	0.00e+00	0	61	0	634388480	57	4239
2026-01-01 07:38:21.28	46.36	35.36	-47.3	-48.9	16.5	0.00e+00	0	61	0	636485632	57	4329
2026-01-01 07:38:22.24	45.98	35.41	-47.3	-49.0	16.4	0.00e+00	0	61	0	638582784	57	4368
2026-01-01 07:38:23.21	45.59	35.45	-47.3	-49.0	16.4	0.00e+00	0	61	0	640679936	57	4367
2026-01-01 07:38:24.18	45.20	35.49	-47.4	-49.1	16.2	0.00e+00	0	61	0	641728512	57	4415
2026-01-01 07:38:25.14	44.82	35.52	-47.6	-49.4	15.9	0.00e+00	0	61	0	643825664	57	4597
2026-01-01 07:38:26.10	44.44	35.56	-47.4	-49.2	16.2	0.00e+00	0	61	0	645922816	57	4463
2026-01-01 07:38:27.07	44.05	35.59	-47.4	-49.2	16.2	0.00e+00	0	61	0	646971392	57	4474
2026-01-01 07:38:28.03	43.66	35.63	-47.1	-48.8	16.6	0.00e+00	0	61	0	649068544	57	4243
2026-01-01 07:38:29.00	43.27	35.66	-46.9	-48.4	17.0	0.00e+00	0	61	0	651165696	56	4315
2026-01-01 07:38:29.96	42.88	35.69	-46.8	-48.4	17.0	0.00e+00	0	61	0	653262848	56	4299
2026-01-01 07:38:30.93	42.49	35.71	-47.0	-48.6	16.8	0.00e+00	0	61	0	654311424	56	4397
2026-01-01 07:38:31.89	42.10	35.74	-47.0	-48.6	16.8	0.00e+00	0	61	0	656408576	56	4416
2026-01-01 07:38:32.86	41.71	35.77	-47.1	-48.8	16.6	0.00e+00	0	61	0	658505728	56	4514
2026-01-01 07:38:33.83	41.32	35.79	-47.3	-49.0	16.4	0.00e+00	0	61	0	659554304	56	4611
2026-01-01 07:38:34.79	40.93	35.81	-47.5	-49.3	16.1	0.00e+00	0	61	0	661651456	56	4809
2026-01-01 07:38:35.76	40.53	35.83	-47.5	-49.3	16.1	0.00e+00	0	61	0	663748608	56	4777
2026-01-01 07:38:36.72	40.14	35.85	-47.6	-49.4	16.0	0.00e+00	0	61	0	665845760	56	4827
2026-01-01 07:38:37.69	39.75	35.87	-47.6	-49.5	15.9	0.00e+00	0	61	0	666894336	57	4600
2026-01-01 07:38:38.65	39.35	35.89	-47.5	-49.3	16.0	0.00e+00	0	61	0	668991488	57	4542
2026-01-01 07:38:39.61	38.96	35.90	-47.6	-49.4	16.0	0.00e+00	0	61	0	671088640	57	4560
2026-01-01 07:38:40.58	38.56	35.92	-47.7	-49.5	15.9	0.00e+00	0	61	0	673185792	57	4628
2026-01-01 07:38:41.54	38.17	35.93	-47.8	-49.7	15.7	0.00e+00	0	61	0	674234368	57	4752
2026-01-01 07:38:42.50	37.78	35.94	-47.8	-49.7	15.7	0.00e+00	0	61	0	676331520	57	4751
2026-01-01 07:38:43.47	37.38	35.95	-47.7	-49.6	15.8	0.00e+00	0	61	0	678428672	57	4667
2026-01-01 07:38:44.43	36.99	35.95	-48.0	-50.0	15.4	0.00e+00	0	61	0	679477248	57	4905
2026-01-01 07:38:45.40	36.59	35.96	-48.2	-50.2	15.1	0.00e+00	0	61	0	681574400	58	4754
2026-01-01 07:38:46.36	36.19	35.96	-48.3	-50.4	15.0	0.00e+00	0	61	0	683671552	58	4859
2026-01-01 07:38:47.33	35.80	35.96	-48.3	-50.5	14.9	0.00e+00	0	61	0	685768704	58	4890
2026-01-01 07:38:48.30	35.40	35.97	-48.2	-50.3	15.1	0.00e+00	0	61	0	686817280	58	4803
2026-01-01 07:38:49.26	35.00	35.96	-48.1	-50.1	15.3	0.00e+00	0	61	0	688914432	58	4671
2026-01-01 07:38:50.22	34.61	35.96	-48.0	-50.0	15.3	0.00e+00	0	61	0	691011584	58	4649
2026-01-01 07:38:51.19	34.21	35.96	-48.2	-50.3	15.1	0.00e+00	0	61	0	693108736	58	4763
2026-01-01 07:38:52.15	33.82	35.95	-48.3	-50.4	15.0	7.00e-07	0	61	0	694157312	58	4855
2026-01-01 07:38:53.12	33.42	35.95	-48.7	-51.1	14.3	7.00e-07	0	61	0	696254464	59	4933
2026-01-01 07:38:54.09	33.02	35.94	-48.8	-51.3	14.1	1.50e-06	0	61	0	698351616	59	5075
2026-01-01 07:38:55.06	32.63	35.93	-48.7	-51.1	14.3	1.50e-06	0	61	0	699400192	59	4957
2026-01-01 07:38:56.02	32.23	35.92	-48.9	-51.4	13.9	2.20e-06	0	61	0	701497344	59	5148
2026-01-01 07:38:56.99	31.84	35.90	-48.6	-51.0	14.4	1.50e-06	0	61	0	703594496	59	4879
2026-01-01 07:38:57.95	31.44	35.89	-48.3	-50.5	14.9	0.00e+00	0	61	0	705691648	59	4611
2026-01-01 07:38:58.92	31.05	35.87	-48.2	-50.3	15.1	0.00e+00	0	61	0	706740224	59	4508
2026-01-01 07:38:59.88	30.66	35.85	-48.5	-50.8	14.7	0.00e+00	0	61	0	708837376	59	4781
2026-01-01 07:39:00.84	30.26	35.83	-48.8	-51.2	14.2	0.00e+00	0	61	0	710934528	59	5012
2026-01-01 07:39:01.81	29.87	35.81	-48.7	-51.1	14.3	7.00e-07	0	61	0	713031680	59	4951
2026-01-01 07:39:02.77	29.48	35.79	-48.8	-51.2	14.1	1.50e-06	0	61	0	714080256	59	5041
2026-01-01 07:39:03.74	29.09	35.77	-49.0	-51.5	13.9	7.00e-07	0	61	0	716177408	59	5190
2026-01-01 07:39:04.72	28.69	35.74	-49.1	-51.9	13.5	9.10e-06	0	61	0	718274560	60	5118
2026-01-01 07:39:05.68	28.30	35.71	-49.3	-52.1	13.3	1.90e-05	0	61	0	719323136	60	5241
2026-01-01 07:39:06.65	27.91	35.68	-49.2	-51.9	13.3	1.67e-05	0	61	0	721420288	60	5156
2026-01-01 07:39:07.62	27.52	35.65	-48.9	-51.4	13.9	9.10e-06	0	61	0	723517440	60	4858
2026-01-01 07:39:08.58	27.13	35.62	-48.8	-51.3	14.0	2.20e-06	0	61	0	725614592	60	4789
2026-01-01 07:39:09.55	26.74	35.59	-48.6	-51.1	14.2	1.50e-06	0	61	0	726663168	60	4668
2026-01-01 07:39:10.52	26.36	35.56	-48.7	-51.2	14.0	1.50e-06	0	61	0	728760320	60	4748
2026-01-01 07:39:11.48	25.97	35.52	-48.8	-51.5	13.5	8.30e-06	0	61	0	730857472	60	4889
2026-01-01 07:39:12.44	25.59	35.48	-49.0	-52.0	12.8	2.67e-05	0	61	0	732954624	60	5188
2026-01-01 07:39:13.40	25.21	35.44	-49.2	-52.7	11.9	1.30e-04	0	61	0	734003200	60	5617
2026-01-01 07:39:14.37	24.82	35.40	-49.6	-53.5	10.9	9.90e-04	0	61	0	736100352	60	6173
2026-01-01 07:39:15.33	24.44	35.36	-49.7	-53.8	10.5	3.88e-03	0	61	0	738197504	61	6031
2026-01-01 07:39:16.29	24.06	35.32	-49.8	-54.2	10.0	7.76e-03	0	61	0	739246080	61	6316
2026-01-01 07:39:17.26	23.68	35.28	-49.8	-54.1	10.1	6.57e-03	0	62	0	741343232	61	6254
2026-01-01 07:39:18.22	23.30	35.23	-49.8	-54.1	10.3	5.39e-03	0	61	0	743440384	61	6206
2026-01-01 07:39:19.19	22.92	35.18	-49.7	-53.9	10.5	5.97e-03	0	61	0	745537536	61	6080
2026-01-01 07:39:20.15	22.55	35.13	-49.5	-53.0	11.7	9.63e-04	0	61	0	746586112	61	5494
2026-01-01 07:39:21.12	22.17	35.08	-49.3	-52.6	12.3	2.94e-04	0	61	0	748683264	61	5231
2026-01-01 07:39:22.08	21.80	35.03	-49.2	-52.2	12.8	9.38e-05	0	61	0	750780416	61	5024
2026-01-01 07:39:23.04	21.43	34.98	-49.3	-52.3	12.9	6.02e-05	0	61	0	751828992	61	5056
2026-01-01 07:39:24.01	21.05	34.93	-49.4	-52.3	12.9	4.88e-05	0	61	0	753926144	61	5100
2026-01-01 07:39:24.98	20.68	34.87	-49.3	-52.3	13.0	3.12e-05	0	61	0	756023296	61	5059
2026-01-01 07:39:25.95	20.31	34.82	-49.4	-52.3	12.9	5.18e-05	0	61	0	758120448	61	5100
2026-01-01 07:39:26.93	19.94	34.76	-49.2	-52.0	13.3	2.59e-05	0	61	0	759169024	61	4883
2026-01-01 07:39:27.90	19.57	34.70	-48.8	-51.3	14.0	6.10e-06	0	61	0	761266176	60	4782
2026-01-01 07:39:28.86	19.20	34.64	-48.7	-51.2	14.2	2.20e-06	0	61	0	763363328	60	4707
2026-01-01 07:39:29.83	18.84	34.58	-48.8	-51.3	14.0	3.00e-06	0	61	0	765460480	60	4781
2026-01-01 07:39:30.79	18.48	34.52	-48.9	-51.4	13.9	2.20e-06	0	61	0	766509056	60	4836
2026-01-01 07:39:31.76	18.11	34.45	-48.9	-51.5	13.8	2.20e-06	0	61	0	768606208	60	4887
2026-01-01 07:39:32.72	17.76	34.39	-48.7	-51.3	14.0	8.30e-06	0	61	0	770703360	60	4799
2026-01-01 07:39:33.69	17.40	34.32	-48.6	-51.0	14.3	1.50e-06	0	61	0	772800512	60	4626
2026-01-01 07:39:34.65	17.04	34.26	-48.4	-50.7	14.7	0.00e+00	0	61	0	773849088	60	4444
2026-01-01 07:39:35.61	16.69	34.19	-48.3	-50.4	15.0	0.00e+00	0	61	0	775946240	59	4552
2026-01-01 07:39:36.57	16.33	34.12	-48.1	-50.2	15.2	0.00e+00	0	62	0	778043392	59	4448
2026-01-01 07:39:37.54	15.98	34.05	-48.1	-50.2	15.2	0.00e+00	0	61	0	779091968	59	4467
2026-01-01 07:39:38.51	15.63	33.98	-48.2	-50.2	15.1	0.00e+00	0	61	0	781189120	59	4483
2026-01-01 07:39:39.48	15.28	33.90	-48.4	-50.6	14.8	0.00e+00	0	61	0	783286272	59	4654
2026-01-01 07:39:40.45	14.93	33.83	-48.4	-50.6	14.7	7.00e-07	0	62	0	785383424	59	4700
2026-01-01 07:39:41.41	14.58	33.76	-48.4	-50.6	14.8	0.00e+00	0	61	0	786432000	59	4662
2026-01-01 07:39:42.38	14.24	33.68	-48.5	-50.8	14.5	0.00e+00	0	61	0	788529152	59	4804
2026-01-01 07:39:43.35	13.89	33.60	-48.7	-51.1	14.2	2.20e-06	0	62	0	790626304	59	4973
2026-01-01 07:39:44.31	13.55	33.53	-48.8	-51.3	14.0	1.50e-06	0	61	0	792723456	59	5087
2026-01-01 07:39:45.28	13.21	33.45	-49.0	-51.7	13.7	1.50e-06	0	61	0	793772032	59	5289
2026-01-01 07:39:46.24	12.87	33.37	-49.0	-51.6	13.8	1.06e-05	0	61	0	795869184	59	5237
2026-01-01 07:39:47.21	12.54	33.29	-49.0	-51.5	13.8	7.60e-06	0	62	0	797966336	59	5201
2026-01-01 07:39:48.18	12.20	33.21	-48.9	-51.5	13.9	3.00e-06	0	61	0	799014912	59	5167
2026-01-01 07:39:49.14	11.87	33.13	-49.0	-51.6	13.7	3.80e-06	0	61	0	801112064	59	5243
2026-01-01 07:39:50.10	11.54	33.04	-49.2	-52.0	13.3	1.52e-05	0	62	0	803209216	60	5218
2026-01-01 07:39:51.06	11.21	32.96	-49.2	-51.9	13.4	2.28e-05	0	62	0	805306368	60	5145
2026-01-01 07:39:52.03	10.88	32.88	-49.3	-52.2	13.1	2.36e-05	0	62	0	806354944	60	5296
2026-01-01 07:39:52.99	10.56	32.79	-49.4	-52.4	12.9	2.51e-05	0	62	0	808452096	60	5419
2026-01-01 07:39:53.96	10.23	32.70	-49.4	-52.3	13.0	5.95e-05	0	61	0	810549248	60	5372
2026-01-01 07:39:54.92	9.91	32.62	-49.4	-52.3	13.0	4.57e-05	0	61	0	812646400	60	5394
2026-01-01 07:39:55.89	9.59	32.53	-49.3	-52.3	13.0	3.73e-05	0	62	0	813694976	60	5367
2026-01-01 07:39:56.85	9.27	32.44	-49.4	-52.4	12.9	4.73e-05	0	62	0	815792128	60	5452
2026-01-01 07:39:57.82	8.95	32.35	-49.5	-52.5	12.8	5.49e-05	0	62	0	817889280	60	5482
2026-01-01 07:39:58.78	8.64	32.26	-49.5	-52.4	12.9	4.50e-05	0	61	0	818937856	60	5443
2026-01-01 07:39:59.75	8.32	32.17	-49.6	-52.7	12.6	6.48e-05	0	62	0	821035008	61	5282
2026-01-01 07:40:00.72	8.01	32.08	-49.6	-52.6	12.7	1.22e-04	0	62	0	823132160	61	5263
2026-01-01 07:40:01.69	7.70	31.99	-49.7	-52.9	12.3	1.40e-04	0	62	0	825229312	61	5463
2026-01-01 07:40:02.65	7.39	31.89	-49.8	-53.0	12.3	2.10e-04	0	62	0	826277888	61	5515
2026-01-01 07:40:03.62	7.08	31.80	-49.7	-52.9	12.3	1.72e-04	0	62	0	828375040	61	5459
2026-01-01 07:40:04.59	6.77	31.71	-49.8	-53.2	12.1	1.44e-04	0	62	0	830472192	61	5609
2026-01-01 07:40:05.57	6.47	31.61	-50.1	-53.7	11.5	6.93e-04	0	62	0	832569344	62	5632
2026-01-01 07:40:06.53	6.17	31.52	-50.0	-53.5	11.8	7.35e-04	0	61	0	833617920	62	5477
2026-01-01 07:40:07.49	5.87	31.42	-49.7	-52.9	12.4	1.98e-04	0	61	0	835715072	62	5133
2026-01-01 07:40:08.46	5.57	31.32	-49.6	-52.6	12.7	1.41e-04	0	61	0	837812224	62	4977
2026-01-01 07:40:09.42	5.27	31.23	-49.6	-52.7	12.6	9.23e-05	0	62	0	838860800	62	5023
2026-01-01 07:40:10.39	4.98	31.13	-49.7	-52.8	12.5	1.25e-04	0	62	0	840957952	62	5077
2026-01-01 07:40:11.35	4.69	31.03	-49.7	-52.9	12.4	7.40e-05	0	62	0	843055104	62	5101
2026-01-01 07:40:12.32	4.40	30.93	-49.9	-53.2	12.1	2.62e-04	0	62	0	845152256	62	5312
2026-01-01 07:40:13.28	4.11	30.83	-49.8	-53.1	12.3	1.94e-04	0	62	0	846200832	62	5220
2026-01-01 07:40:14.25	3.82	30.73	-49.9	-53.3	12.0	3.42e-04	0	62	0	848297984	62	5350
2026-01-01 07:40:15.21	3.54	30.64	-49.5	-52.5	12.8	1.05e-04	0	62	0	850395136	62	4916
2026-01-01 07:40:16.18	3.25	30.53	-49.3	-52.1	13.1	2.59e-05	0	62	0	852492288	61	4971
2026-01-01 07:40:17.14	2.97	30.43	-49.1	-51.8	13.5	1.83e-05	0	62	0	853540864	61	4767
2026-01-01 07:40:18.11	2.69	30.33	-49.0	-51.7	13.6	1.14e-05	0	62	0	855638016	61	4736
2026-01-01 07:40:19.07	2.41	30.23	-49.1	-51.9	13.5	1.37e-05	0	62	0	857735168	61	4829
2026-01-01 07:40:20.04	2.13	30.13	-49.2	-52.0	13.3	1.98e-05	0	62	0	858783744	61	4882
2026-01-01 07:40:21.01	1.86	30.03	-49.2	-51.9	13.4	1.29e-05	0	62	0	860880896	61	4854
2026-01-01 07:40:21.98	1.58	29.92	-49.2	-52.0	13.3	1.60e-05	0	62	0	862978048	61	4887
2026-01-01 07:40:22.95	1.31	29.82	-49.4	-52.3	13.1	1.90e-05	0	62	0	865075200	61	5045
2026-01-01 07:40:23.91	1.04	29.72	-49.2	-52.0	13.3	1.44e-05	0	62	0	866123776	61	4914
2026-01-01 07:40:24.88	0.77	29.61	-49.1	-51.8	13.5	8.30e-06	0	62	0	868220928	61	4793
2026-01-01 07:40:25.84	0.51	29.51	-49.0	-51.7	13.6	9.10e-06	0	62	0	870318080	61	4718
2026-01-01 07:40:26.80	0.25	29.40	-49.1	-51.7	13.6	6.10e-06	0	62	0	872415232	61	4752
2026-01-01 07:40:27.77	359.98	29.30	-49.1	-51.7	13.6	3.80e-06	0	62	0	873463808	61	4758
2026-01-01 07:40:28.74	359.72	29.19	-49.2	-51.9	13.4	1.52e-05	0	61	0	875560960	61	4849
2026-01-01 07:40:29.70	359.46	29.09	-49.0	-51.7	13.6	1.29e-05	0	62	0	877658112	61	4744
2026-01-01 07:40:30.67	359.21	28.98	-48.8	-51.3	14.1	1.50e-06	0	62	0	878706688	60	4762
2026-01-01 07:40:31.63	358.95	28.88	-48.6	-50.9	14.4	2.20e-06	0	62	0	880803840	60	4590
2026-01-01 07:40:32.60	358.70	28.77	-48.4	-50.7	14.6	7.00e-07	0	62	0	882900992	60	4480
2026-01-01 07:40:33.58	358.44	28.66	-48.4	-50.6	14.7	7.00e-07	0	62	0	884998144	59	4681
2026-01-01 07:40:34.54	358.19	28.56	-48.2	-50.4	15.0	0.00e+00	0	62	0	886046720	59	4549
2026-01-01 07:40:35.51	357.94	28.45	-48.1	-50.1	15.2	0.00e+00	0	62	0	888143872	59	4411
2026-01-01 07:40:36.47	357.69	28.34	-48.0	-50.0	15.3	0.00e+00	0	62	0	890241024	59	4360
2026-01-01 07:40:37.44	357.45	28.24	-48.0	-50.0	15.3	0.00e+00	0	62	0	892338176	59	4385
2026-01-01 07:40:38.41	357.20	28.13	-48.1	-50.2	15.1	0.00e+00	0	62	0	893386752	59	4464
2026-01-01 07:40:39.38	356.96	28.02	-48.0	-50.0	15.3	0.00e+00	0	62	0	895483904	59	4374
2026-01-01 07:40:40.34	356.72	27.91	-47.8	-49.6	15.7	0.00e+00	0	62	0	897581056	58	4440
2026-01-01 07:40:41.30	356.48	27.81	-47.6	-49.4	15.9	0.00e+00	0	62	0	898629632	58	4318
2026-01-01 07:40:42.26	356.25	27.70	-47.5	-49.2	16.1	0.00e+00	0	62	0	900726784	58	4240
2026-01-01 07:40:43.23	356.01	27.59	-47.3	-49.0	16.3	0.00e+00	0	62	0	902823936	57	4359
2026-01-01 07:40:44.19	355.78	27.48	-47.4	-49.1	16.2	0.00e+00	0	62	0	904921088	57	4426
2026-01-01 07:40:45.15	355.55	27.38	-47.1	-48.8	16.5	0.00e+00	0	62	0	905969664	57	4250
2026-01-01 07:40:46.12	355.31	27.27	-47.1	-48.7	16.6	0.00e+00	0	62	0	908066816	57	4237
2026-01-01 07:40:47.08	355.09	27.16	-47.1	-48.7	16.6	0.00e+00	0	62	0	910163968	57	4217
2026-01-01 07:40:48.05	354.86	27.05	-47.2	-48.9	16.4	0.00e+00	0	62	0	911212544	57	4337
2026-01-01 07:40:49.01	354.63	26.94	-47.1	-48.8	16.5	0.00e+00	0	62	0	913309696	57	4271
2026-01-01 07:40:49.97	354.41	26.83	-47.1	-48.8	16.5	0.00e+00	0	62	0	915406848	57	4276
2026-01-01 07:40:50.94	354.18	26.72	-47.2	-48.9	16.4	0.00e+00	0	62	0	917504000	57	4304
2026-01-01 07:40:51.90	353.96	26.62	-47.3	-49.0	16.4	0.00e+00	0	62	0	918552576	57	4353
2026-01-01 07:40:52.87	353.74	26.51	-47.0	-48.6	16.6	0.00e+00	0	62	0	920649728	57	4193
2026-01-01 07:40:53.84	353.52	26.40	-46.8	-48.3	16.9	0.00e+00	0	62	0	922746880	56	4290
2026-01-01 07:40:54.81	353.31	26.29	-46.7	-48.2	17.0	0.00e+00	0	62	0	924844032	56	4241
2026-01-01 07:40:55.78	353.09	26.18	-46.8	-48.3	17.0	0.00e+00	0	62	0	925892608	56	4286
2026-01-01 07:40:56.74	352.88	26.07	-46.9	-48.5	16.7	0.00e+00	0	62	0	927989760	56	4377
2026-01-01 07:40:57.70	352.66	25.96	-46.9	-48.5	16.8	0.00e+00	0	62	0	930086912	56	4377
2026-01-01 07:40:58.66	352.46	25.86	-46.9	-48.6	16.7	0.00e+00	0	62	0	932184064	56	4392
2026-01-01 07:40:59.64	352.24	25.75	-46.9	-48.5	16.8	0.00e+00	0	62	0	933232640	56	4362
2026-01-01 07:41:00.60	352.04	25.64	-47.0	-48.6	16.7	0.00e+00	0	62	0	935329792	56	4437
2026-01-01 07:41:01.57	351.83	25.53	-46.9	-48.5	16.7	0.00e+00	0	62	0	937426944	56	4387
2026-01-01 07:41:02.53	351.62	25.42	-46.9	-48.4	16.8	0.00e+00	0	62	0	938475520	56	4333
2026-01-01 07:41:03.49	351.42	25.31	-46.9	-48.5	16.7	0.00e+00	0	62	0	940572672	56	4389
2026-01-01 07:41:04.46	351.22	25.20	-47.1	-48.7	16.5	0.00e+00	0	62	0	942669824	56	4485
2026-01-01 07:41:05.43	351.02	25.09	-47.1	-48.8	16.5	0.00e+00	0	62	0	944766976	56	4496
2026-01-01 07:41:06.39	350.82	24.99	-46.9	-48.6	16.7	0.00e+00	0	62	0	945815552	56	4393
2026-01-01 07:41:07.36	350.62	24.88	-46.9	-48.5	16.8	0.00e+00	0	62	0	947912704	56	4360
2026-01-01 07:41:08.33	350.42	24.77	-46.8	-48.5	16.8	0.00e+00	0	62	0	950009856	56	4354
2026-01-01 07:41:09.30	350.22	24.66	-47.0	-48.7	16.6	0.00e+00	0	62	0	952107008	56	4442
2026-01-01 07:41:10.27	350.03	24.55	-47.1	-48.7	16.5	0.00e+00	0	62	0	953155584	56	4479
2026-01-01 07:41:11.23	349.84	24.44	-47.2	-48.9	16.3	0.00e+00	0	62	0	955252736	56	4582
2026-01-01 07:41:12.20	349.64	24.33	-46.9	-48.6	16.7	0.00e+00	0	62	0	957349888	56	4401
2026-01-01 07:41:13.17	349.45	24.23	-46.9	-48.5	16.7	0.00e+00	0	62	0	958398464	56	4383
2026-01-01 07:41:14.14	349.26	24.12	-47.0	-48.6	16.6	0.00e+00	0	62	0	960495616	56	4432
2026-01-01 07:41:15.10	349.08	24.01	-47.1	-48.8	16.4	0.00e+00	0	62	0	962592768	56	4518
2026-01-01 07:41:16.06	348.89	23.90	-47.3	-49.1	16.1	0.00e+00	0	62	0	964689920	56	4667
2026-01-01 07:41:17.03	348.71	23.80	-47.5	-49.3	15.9	0.00e+00	0	62	0	965738496	56	4787
2026-01-01 07:41:17.99	348.52	23.69	-47.5	-49.3	15.9	0.00e+00	0	62	0	967835648	56	4792
2026-01-01 07:41:18.96	348.34	23.58	-47.5	-49.3	15.9	0.00e+00	0	62	0	969932800	56	4807
2026-01-01 07:41:19.93	348.16	23.47	-47.4	-49.2	16.0	0.00e+00	0	62	0	972029952	56	4735
2026-01-01 07:41:20.89	347.98	23.37	-47.4	-49.2	16.1	0.00e+00	0	62	0	973078528	56	4710
2026-01-01 07:41:21.86	347.80	23.26	-47.3	-49.2	16.0	0.00e+00	0	62	0	975175680	56	4721
2026-01-01 07:41:22.82	347.63	23.15	-47.2	-49.0	16.2	0.00e+00	0	62	0	977272832	56	4613
2026-01-01 07:41:23.78	347.45	23.05	-47.2	-48.9	16.3	0.00e+00	0	62	0	978321408	56	4556
2026-01-01 07:41:24.75	347.27	22.94	-47.1	-48.9	16.4	0.00e+00	0	62	0	980418560	56	4556
2026-01-01 07:41:25.72	347.10	22.83	-47.2	-48.9	16.3	0.00e+00	0	62	0	982515712	56	4595
2026-01-01 07:41:26.68	346.93	22.73	-47.4	-49.2	16.0	0.00e+00	0	62	0	984612864	56	4754
2026-01-01 07:41:27.65	346.76	22.62	-47.4	-49.2	16.0	0.00e+00	0	62	0	985661440	56	4716
2026-01-01 07:41:28.62	346.59	22.52	-47.3	-49.0	16.2	0.00e+00	0	62	0	987758592	56	4616
2026-01-01 07:41:29.59	346.42	22.41	-47.1	-48.8	16.4	0.00e+00	0	62	0	989855744	56	4526
2026-01-01 07:41:30.56	346.25	22.30	-47.2	-48.9	16.3	0.00e+00	0	62	0	991952896	56	4588
2026-01-01 07:41:31.53	346.08	22.20	-47.3	-49.1	16.1	0.00e+00	0	62	0	993001472	56	4695
2026-01-01 07:41:32.49	345.92	22.09	-47.3	-49.0	16.1	0.00e+00	0	62	0	995098624	56	4643
2026-01-01 07:41:33.46	345.75	21.99	-47.3	-49.1	16.1	0.00e+00	0	62	0	997195776	56	4671
2026-01-01 07:41:34.42	345.59	21.88	-47.4	-49.3	15.9	0.00e+00	0	62	0	998244352	56	4762
2026-01-01 07:41:35.38	345.43	21.78	-47.5	-49.4	15.8	0.00e+00	0	62	0	1000341504	56	4825
2026-01-01 07:41:36.34	345.27	21.68	-47.5	-49.4	15.8	0.00e+00	0	62	0	1002438656	56	4821
2026-01-01 07:41:37.31	345.11	21.57	-47.4	-49.3	15.9	0.00e+00	0	62	0	1004535808	56	4769
2026-01-01 07:41:38.28	344.95	21.47	-47.4	-49.3	15.9	0.00e+00	0	62	0	1005584384	56	4777
2026-01-01 07:41:39.24	344.79	21.36	-47.5	-49.4	15.8	0.00e+00	0	62	0	1007681536	56	4820
2026-01-01 07:41:40.20	344.63	21.26	-47.6	-49.5	15.6	0.00e+00	0	62	0	1009778688	57	4616
2026-01-01 07:41:41.17	344.48	21.16	-47.6	-49.5	15.6	0.00e+00	0	62	0	1011875840	57	4611
2026-01-01 07:41:42.14	344.32	21.05	-47.7	-49.7	15.4	0.00e+00	0	62	0	1012924416	57	4711
2026-01-01 07:41:43.10	344.17	20.95	-47.7	-49.7	15.4	0.00e+00	0	62	0	1015021568	57	4712
2026-01-01 07:41:44.08	344.02	20.85	-47.7	-49.7	15.4	0.00e+00	0	62	0	1017118720	57	4748
2026-01-01 07:41:45.04	343.87	20.75	-47.9	-50.0	15.1	0.00e+00	0	62	0	1018167296	57	4887
2026-01-01 07:41:46.01	343.71	20.64	-47.9	-50.0	15.0	0.00e+00	0	62	0	1020264448	57	4917
2026-01-01 07:41:46.98	343.56	20.54	-48.2	-50.4	14.7	7.00e-07	0	62	0	1022361600	58	4848
2026-01-01 07:41:47.95	343.42	20.44	-48.2	-50.5	14.6	0.00e+00	0	62	0	1024458752	58	4898
2026-01-01 07:41:48.92	343.27	20.33	-48.1	-50.3	14.8	0.00e+00	0	62	0	1025507328	58	4772
2026-01-01 07:41:49.88	343.12	20.23	-48.0	-50.2	14.9	7.00e-07	0	62	0	1027604480	58	4736
2026-01-01 07:41:50.84	342.98	20.13	-48.4	-50.7	14.3	0.00e+00	0	62	0	1029701632	58	5030
2026-01-01 07:41:51.81	342.83	20.03	-48.4	-50.8	14.1	2.20e-06	0	62	0	1031798784	58	5096
2026-01-01 07:41:52.77	342.69	19.93	-48.6	-51.1	13.8	1.50e-06	0	62	0	1032847360	59	4981
2026-01-01 07:41:53.74	342.55	19.83	-48.7	-51.3	13.5	7.60e-06	0	62	0	1034944512	59	5100
2026-01-01 07:41:54.70	342.41	19.73	-48.6	-51.2	13.6	1.14e-05	0	62	0	1037041664	59	5007
2026-01-01 07:41:55.66	342.27	19.63	-48.7	-51.5	13.2	2.59e-05	0	62	0	1038090240	59	5189
2026-01-01 07:41:56.63	342.13	19.53	-48.9	-52.0	12.7	5.49e-05	0	62	0	1040187392	59	5471
2026-01-01 07:41:57.59	341.99	19.43	-49.4	-53.0	11.5	3.24e-04	0	62	0	1042284544	60	5839
2026-01-01 07:41:58.56	341.85	19.33	-49.7	-54.0	10.4	2.66e-03	0	62	0	1044381696	61	6134
2026-01-01 07:41:59.52	341.71	19.23	-50.1	-55.0	9.1	9.60e-03	0	62	0	1045430272	61	6951
2026-01-01 07:42:00.49	341.58	19.13	-50.2	-55.5	8.6	3.74e-02	0	62	0	1047527424	62	6956
2026-01-01 07:42:01.45	341.44	19.03	-50.2	-55.8	8.2	4.70e-02	0	62	0	1049624576	62	7124
2026-01-01 07:42:02.42	341.31	18.93	-50.2	-55.8	8.1	6.29e-02	0	62	0	1051721728	62	7189
2026-01-01 07:42:03.39	341.18	18.84	-50.1	-55.7	8.2	6.22e-02	0	62	0	1052770304	62	7083
2026-01-01 07:42:04.36	341.04	18.74	-50.0	-55.5	8.4	5.25e-02	0	62	0	1054867456	62	6917
2026-01-01 07:42:05.32	340.91	18.64	-50.0	-55.3	8.7	3.82e-02	0	62	0	1056964608	62	6740
2026-01-01 07:42:06.28	340.78	18.54	-49.9	-54.7	9.3	2.42e-02	0	62	0	1058013184	62	6344
2026-01-01 07:42:07.25	340.65	18.44	-49.5	-53.8	10.5	8.70e-03	0	62	0	1060110336	62	5670
2026-01-01 07:42:08.21	340.52	18.35	-49.3	-52.9	11.4	1.95e-03	0	62	0	1062207488	61	5434
2026-01-01 07:42:09.18	340.39	18.25	-49.1	-52.5	12.0	5.93e-04	0	62	0	1064304640	61	5206
2026-01-01 07:42:10.14	340.27	18.15	-49.1	-52.3	12.3	2.27e-04	0	62	0	1065353216	61	5096
2026-01-01 07:42:11.10	340.14	18.06	-49.1	-52.3	12.4	1.57e-04	0	62	0	1067450368	61	5080
2026-01-01 07:42:12.07	340.02	17.96	-49.2	-52.4	12.4	1.56e-04	0	62	0	1069547520	61	5137
2026-01-01 07:42:13.04	339.89	17.86	-48.7	-51.5	13.3	3.89e-05	0	62	0	1070596096	60	4874
2026-01-01 07:42:14.00	339.77	17.77	-48.7	-51.5	13.3	1.90e-05	0	62	0	1072693248	60	4909
2026-01-01 07:42:14.97	339.64	17.67	-49.0	-52.0	12.8	3.58e-05	0	62	0	1074790400	60	5214
2026-01-01 07:42:15.93	339.52	17.58	-48.9	-51.7	13.2	4.11e-05	0	62	0	1076887552	60	4998
2026-01-01 07:42:16.90	339.40	17.48	-49.1	-52.2	12.8	3.50e-05	0	62	0	1077936128	60	5310
2026-01-01 07:42:17.86	339.28	17.39	-49.0	-51.9	13.0	5.87e-05	0	62	0	1080033280	60	5117
2026-01-01 07:42:18.83	339.16	17.29	-48.8	-51.5	13.4	1.37e-05	0	62	0	1082130432	60	4921
2026-01-01 07:42:19.79	339.04	17.20	-48.7	-51.3	13.6	9.10e-06	0	62	0	1084227584	60	4800
2026-01-01 07:42:20.76	338.92	17.10	-48.5	-51.0	13.9	6.10e-06	0	62	0	1085276160	60	4646
2026-01-01 07:42:21.72	338.81	17.01	-48.5	-51.1	13.9	5.30e-06	0	62	0	1087373312	60	4659
2026-01-01 07:42:22.69	338.69	16.92	-48.5	-51.1	13.9	5.30e-06	0	62	0	1089470464	60	4656
2026-01-01 07:42:23.66	338.57	16.82	-48.5	-51.0	14.0	3.80e-06	0	62	0	1091567616	60	4640
2026-01-01 07:42:24.63	338.46	16.73	-48.4	-50.8	14.1	2.20e-06	0	62	0	1092616192	60	4525
2026-01-01 07:42:25.60	338.34	16.63	-48.3	-50.7	14.3	0.00e+00	0	62	0	1094713344	59	4711
2026-01-01 07:42:26.56	338.23	16.54	-48.1	-50.3	14.6	7.00e-07	0	62	0	1096810496	59	4533
2026-01-01 07:42:27.53	338.11	16.45	-48.0	-50.2	14.8	0.00e+00	0	62	0	1097859072	59	4451
2026-01-01 07:42:28.49	338.00	16.36	-48.0	-50.1	14.9	0.00e+00	0	62	0	1099956224	59	4419
2026-01-01 07:42:29.45	337.89	16.26	-48.0	-50.1	14.8	0.00e+00	0	62	0	1102053376	59	4440
2026-01-01 07:42:30.41	337.78	16.17	-48.1	-50.3	14.7	0.00e+00	0	62	0	1104150528	59	4533
2026-01-01 07:42:31.39	337.67	16.08	-48.3	-50.6	14.4	1.50e-06	0	62	0	1105199104	59	4659
2026-01-01 07:42:32.36	337.56	15.99	-48.2	-50.5	14.5	0.00e+00	0	62	0	1107296256	59	4627
2026-01-01 07:42:33.32	337.45	15.90	-48.2	-50.5	14.5	7.00e-07	0	62	0	1109393408	59	4650
2026-01-01 07:42:34.29	337.34	15.81	-48.3	-50.6	14.4	0.00e+00	0	62	0	1110441984	59	4694
2026-01-01 07:42:35.25	337.23	15.72	-48.4	-50.8	14.3	7.00e-07	0	62	0	1112539136	59	4765
2026-01-01 07:42:36.22	337.12	15.62	-48.3	-50.7	14.3	7.00e-07	0	62	0	1114636288	59	4722
2026-01-01 07:42:37.20	337.02	15.53	-48.4	-50.8	14.2	2.20e-06	0	62	0	1116733440	59	4805
2026-01-01 07:42:38.17	336.91	15.44	-48.4	-50.9	14.1	1.50e-06	0	62	0	1117782016	59	4858
2026-01-01 07:42:39.13	336.81	15.35	-48.4	-50.8	14.3	0.00e+00	0	62	0	1119879168	59	4768
2026-01-01 07:42:40.10	336.70	15.26	-48.3	-50.7	14.3	0.00e+00	0	62	0	1121976320	59	4757
2026-01-01 07:42:41.06	336.60	15.17	-48.3	-50.7	14.4	3.00e-06	0	62	0	1124073472	59	4720
2026-01-01 07:42:42.03	336.49	15.08	-48.3	-50.7	14.4	7.00e-07	0	62	0	1125122048	59	4713
2026-01-01 07:42:42.99	336.39	15.00	-48.4	-50.8	14.2	7.00e-07	0	62	0	1127219200	59	4801
2026-01-01 07:42:43.96	336.29	14.91	-48.5	-51.0	14.0	3.00e-06	0	62	0	1129316352	59	4923
2026-01-01 07:42:44.92	336.19	14.82	-48.4	-50.8	14.3	3.80e-06	0	62	0	1130364928	59	4778
2026-01-01 07:42:45.88	336.09	14.73	-48.3	-50.6	14.4	7.00e-07	0	62	0	1132462080	59	4674
2026-01-01 07:42:46.85	335.99	14.64	-48.3	-50.6	14.4	0.00e+00	0	62	0	1134559232	59	4668
2026-01-01 07:42:47.81	335.89	14.56	-48.3	-50.5	14.5	0.00e+00	0	62	0	1136656384	59	4650
2026-01-01 07:42:48.78	335.79	14.47	-48.3	-50.7	14.4	0.00e+00	0	62	0	1137704960	59	4718
2026-01-01 07:42:49.74	335.69	14.38	-48.5	-50.9	14.2	0.00e+00	0	62	0	1139802112	59	4819
2026-01-01 07:42:50.71	335.60	14.29	-48.4	-50.9	14.2	1.50e-06	0	62	0	1141899264	59	4820
2026-01-01 07:42:51.70	335.50	14.20	-48.3	-50.7	14.4	1.50e-06	0	62	0	1143996416	59	4711
2026-01-01 07:42:52.67	335.40	14.12	-48.4	-50.8	14.2	0.00e+00	0	62	0	1145044992	59	4791
2026-01-01 07:42:53.63	335.30	14.03	-48.4	-50.8	14.2	1.50e-06	0	62	0	1147142144	59	4806
2026-01-01 07:42:54.60	335.21	13.94	-48.4	-50.8	14.3	7.00e-07	0	62	0	1149239296	59	4772
2026-01-01 07:42:55.56	335.11	13.86	-48.5	-50.8	14.2	2.20e-06	0	62	0	1151336448	59	4812
2026-01-01 07:42:56.53	335.02	13.77	-48.5	-51.0	14.0	4.50e-06	0	62	0	1152385024	59	4895
2026-01-01 07:42:57.50	334.93	13.69	-48.5	-50.9	14.1	1.50e-06	0	62	0	1154482176	59	4862
2026-01-01 07:42:58.46	334.83	13.60	-48.6	-51.1	13.9	0.00e+00	0	62	0	1156579328	59	4941
2026-01-01 07:42:59.43	334.74	13.52	-48.8	-51.4	13.6	4.50e-06	0	62	0	1157627904	59	5134
2026-01-01 07:43:00.39	334.65	13.43	-48.7	-51.3	13.7	6.10e-06	0	62	0	1159725056	59	5072
2026-01-01 07:43:01.36	334.56	13.35	-48.8	-51.5	13.6	9.90e-06	0	62	0	1161822208	59	5172
2026-01-01 07:43:02.32	334.47	13.26	-48.8	-51.4	13.6	9.90e-06	0	62	0	1163919360	59	5126
2026-01-01 07:43:03.28	334.38	13.18	-48.9	-51.6	13.4	1.37e-05	0	62	0	1164967936	59	5262
2026-01-01 07:43:04.25	334.29	13.10	-48.9	-51.7	13.3	1.90e-05	0	62	0	1167065088	59	5293
2026-01-01 07:43:05.21	334.20	13.01	-48.9	-51.6	13.4	2.36e-05	0	62	0	1169162240	59	5238
2026-01-01 07:43:06.18	334.11	12.93	-48.9	-51.6	13.4	1.37e-05	0	62	0	1170210816	59	5260
2026-01-01 07:43:07.15	334.02	12.84	-48.9	-51.7	13.4	1.52e-05	0	62	0	1172307968	59	5281
2026-01-01 07:43:08.11	333.93	12.76	-49.1	-51.9	13.2	1.22e-05	0	62	0	1174405120	59	5411
2026-01-01 07:43:09.08	333.85	12.68	-48.8	-51.7	13.3	1.83e-05	0	62	0	1176502272	59	5288
2026-01-01 07:43:10.05	333.76	12.60	-48.7	-51.5	13.5	1.44e-05	0	62	0	1177550848	59	5176
2026-01-01 07:43:11.01	333.67	12.51	-48.7	-51.3	13.6	7.60e-06	0	62	0	1179648000	59	5098
2026-01-01 07:43:11.97	333.59	12.43	-48.8	-51.5	13.5	1.44e-05	0	62	0	1181745152	59	5196
2026-01-01 07:43:12.94	333.50	12.35	-48.9	-51.7	13.3	8.30e-06	0	62	0	1183842304	59	5307
2026-01-01 07:43:13.91	333.42	12.27	-48.9	-51.6	13.4	1.90e-05	0	62	0	1184890880	59	5240
2026-01-01 07:43:14.88	333.33	12.18	-48.8	-51.5	13.5	8.30e-06	0	62	0	1186988032	59	5193
2026-01-01 07:43:15.85	333.25	12.10	-48.7	-51.4	13.6	1.29e-05	0	62	0	1189085184	59	5124
2026-01-01 07:43:16.82	333.17	12.02	-48.8	-51.5	13.5	7.60e-06	0	62	0	1191182336	59	5177
2026-01-01 07:43:17.78	333.08	11.94	-48.9	-51.7	13.4	2.51e-05	0	62	0	1192230912	59	5285
2026-01-01 07:43:18.74	333.00	11.86	-48.9	-51.6	13.3	1.22e-05	0	62	0	1194328064	59	5279
2026-01-01 07:43:19.71	332.92	11.78	-48.9	-51.7	13.3	1.75e-05	0	62	0	1196425216	59	5289
2026-01-01 07:43:20.68	332.84	11.70	-48.9	-51.6	13.3	1.67e-05	0	62	0	1197473792	59	5276
2026-01-01 07:43:21.64	332.76	11.62	-48.8	-51.5	13.4	1.44e-05	0	62	0	1199570944	59	5214
2026-01-01 07:43:22.61	332.68	11.54	-48.9	-51.7	13.2	1.67e-05	0	62	0	1201668096	59	5318
2026-01-01 07:43:23.57	332.60	11.46	-49.0	-51.8	13.1	3.50e-05	0	62	0	1203765248	60	5086
2026-01-01 07:43:24.54	332.52	11.38	-48.8	-51.6	13.4	1.29e-05	0	62	0	1204813824	60	4938
