passes_logs/2026/01/01/R3.0SM8_Murmansk_STILSPACE/R3.0SM8_Murmansk_STILSPACE__20260101_091139_NOAA_20_JPSS-1_rec.log

#Pass ID: 20260101_091139_NOAA 20 (JPSS-1)
#Satellite: NOAA 20 (JPSS-1)
#Configuration: NOAA 20
#almurnet v.1.7.20240730
#Start time: 2026-01-01 09:11:40

#Version: 2.2.20231116
#Station: R3.0SM8_Murmansk_STILSPACE
#Location: 33.092731 lon 68.902999 lat
#TLE: 1 43013U 17073A   25365.45761817  .00000173  00000+0  10307-3 0  9993
#TLE: 2 43013  98.7620 301.5517 0001951  60.3814 299.7557 14.19531661420675

#Time	Az	El	Level	Level2	SNR	BER	BlckErr	Temp	State	Recorded	gain1	gain2
2026-01-01 09:11:40.84	143.71	3.09	-52.2	-66.2	3.8	1.49e+00	0	47	0	0	66	18822
2026-01-01 09:11:41.81	143.70	3.16	-52.1	-66.1	3.8	1.49e+00	0	47	104	0	67	17520
2026-01-01 09:11:42.80	143.70	3.22	-52.2	-66.0	3.8	1.49e+00	0	47	104	0	67	17314
2026-01-01 09:11:43.79	143.69	3.29	-52.0	-65.9	3.8	1.49e+00	0	48	104	0	67	17180
2026-01-01 09:11:44.79	143.69	3.36	-51.8	-65.8	3.8	1.49e+00	0	48	104	0	66	17984
2026-01-01 09:11:45.78	143.68	3.42	-51.7	-65.6	3.8	1.49e+00	0	48	104	0	66	17587
2026-01-01 09:11:46.77	143.67	3.49	-51.5	-65.3	3.8	1.49e+00	0	48	104	0	66	16974
2026-01-01 09:11:47.75	143.67	3.56	-51.5	-65.2	3.8	1.49e+00	0	48	104	0	65	17841
2026-01-01 09:11:48.74	143.66	3.63	-51.4	-65.2	3.8	1.49e+00	0	48	104	0	65	17752
2026-01-01 09:11:49.73	143.65	3.69	-51.4	-65.0	3.8	1.49e+00	0	48	104	0	65	17448
2026-01-01 09:11:50.72	143.65	3.76	-51.5	-64.9	3.8	1.49e+00	0	48	104	0	65	17274
2026-01-01 09:11:51.71	143.64	3.83	-51.5	-64.7	3.8	1.49e+00	0	48	104	0	65	16820
2026-01-01 09:11:52.70	143.63	3.90	-51.5	-64.5	3.8	1.49e+00	0	49	104	0	65	16441
2026-01-01 09:11:53.68	143.62	3.96	-51.5	-64.2	3.8	1.49e+00	0	48	104	0	65	15849
2026-01-01 09:11:54.68	143.62	4.03	-51.4	-63.9	3.8	1.49e+00	0	48	104	0	65	15372
2026-01-01 09:11:55.66	143.61	4.10	-51.5	-63.6	3.8	1.49e+00	0	48	104	0	65	14725
2026-01-01 09:11:56.66	143.60	4.17	-51.5	-63.3	3.8	1.49e+00	0	49	104	0	65	14248
2026-01-01 09:11:57.64	143.60	4.24	-51.5	-63.1	3.8	1.49e+00	0	49	104	0	65	13993
2026-01-01 09:11:58.63	143.59	4.31	-51.4	-62.7	3.9	1.47e+00	0	49	104	0	65	13360
2026-01-01 09:11:59.62	143.58	4.38	-51.4	-62.4	4.1	1.46e+00	0	49	104	0	65	12855
2026-01-01 09:12:00.61	143.57	4.44	-51.3	-62.2	4.1	1.43e+00	0	49	0	0	65	12649
2026-01-01 09:12:01.60	143.57	4.51	-51.3	-61.7	4.3	1.38e+00	4	49	0	0	65	11829
2026-01-01 09:12:02.58	143.56	4.58	-51.3	-61.4	4.3	1.34e+00	14	49	0	0	65	11515
2026-01-01 09:12:03.57	143.55	4.65	-51.2	-60.8	4.5	1.15e+00	2	49	0	1048576	65	10768
2026-01-01 09:12:04.55	143.55	4.72	-51.1	-60.3	4.8	8.60e-01	0	49	0	3145728	65	10145
2026-01-01 09:12:05.55	143.54	4.79	-51.0	-59.7	5.1	7.46e-01	0	49	0	4194304	65	9460
2026-01-01 09:12:06.54	143.53	4.86	-50.9	-58.8	5.6	5.78e-01	0	49	0	6291456	64	9063
2026-01-01 09:12:07.52	143.52	4.93	-50.8	-58.4	5.9	3.66e-01	0	49	0	8388608	64	8620
2026-01-01 09:12:08.51	143.52	5.00	-50.8	-57.9	6.4	2.66e-01	0	49	0	10485760	64	8087
2026-01-01 09:12:09.50	143.51	5.08	-50.7	-57.3	6.9	1.97e-01	0	49	0	12582912	64	7567
2026-01-01 09:12:10.49	143.50	5.15	-50.8	-58.0	6.3	1.77e-01	0	49	0	13631488	64	8243
2026-01-01 09:12:11.48	143.49	5.22	-50.9	-58.8	5.7	3.65e-01	0	49	0	15728640	64	8997
2026-01-01 09:12:12.48	143.48	5.29	-51.0	-59.0	5.6	4.93e-01	0	49	0	17825792	64	9191
2026-01-01 09:12:13.46	143.48	5.36	-50.9	-58.1	6.2	3.58e-01	0	50	0	19922944	64	8279
2026-01-01 09:12:14.45	143.47	5.43	-50.7	-57.4	6.8	2.36e-01	0	50	0	20971520	64	7713
2026-01-01 09:12:15.43	143.46	5.50	-50.5	-56.4	7.7	1.15e-01	0	50	0	23068672	64	6852
2026-01-01 09:12:16.42	143.45	5.58	-50.4	-56.2	8.1	7.59e-02	0	50	0	25165824	63	7048
2026-01-01 09:12:17.41	143.44	5.65	-50.3	-55.8	8.4	5.62e-02	0	50	0	27262976	63	6740
2026-01-01 09:12:18.40	143.44	5.72	-50.1	-55.2	9.0	2.51e-02	0	50	0	28311552	63	6331
2026-01-01 09:12:19.39	143.43	5.79	-50.2	-55.4	8.9	2.76e-02	0	50	0	30408704	63	6427
2026-01-01 09:12:20.38	143.42	5.87	-50.1	-55.1	9.1	2.19e-02	0	50	0	32505856	63	6246
2026-01-01 09:12:21.37	143.41	5.94	-50.0	-55.0	9.3	2.31e-02	0	50	0	34603008	63	6133
2026-01-01 09:12:22.36	143.40	6.01	-50.1	-55.2	9.1	2.26e-02	0	50	0	36700160	63	6282
2026-01-01 09:12:23.35	143.39	6.09	-50.2	-55.4	8.8	3.04e-02	0	50	0	37748736	63	6492
2026-01-01 09:12:24.33	143.38	6.16	-50.0	-54.7	9.6	2.15e-02	0	50	0	39845888	63	5983
2026-01-01 09:12:25.33	143.38	6.24	-49.7	-54.1	10.2	1.01e-02	0	50	0	41943040	62	5903
2026-01-01 09:12:26.31	143.37	6.31	-49.5	-53.5	10.8	3.51e-03	0	50	0	44040192	62	5523
2026-01-01 09:12:27.29	143.36	6.38	-49.3	-53.2	11.2	1.43e-03	0	50	0	45088768	61	5600
2026-01-01 09:12:28.28	143.35	6.46	-49.2	-52.9	11.6	8.17e-04	0	50	0	47185920	61	5407
2026-01-01 09:12:29.27	143.34	6.53	-49.1	-52.6	11.8	6.60e-04	0	50	0	49283072	61	5240
2026-01-01 09:12:30.25	143.33	6.61	-48.9	-52.3	12.1	2.82e-04	0	50	0	51380224	61	5075
2026-01-01 09:12:31.24	143.32	6.68	-48.9	-52.2	12.3	1.67e-04	0	50	0	52428800	60	5283
2026-01-01 09:12:32.22	143.31	6.76	-48.9	-52.3	12.2	1.79e-04	0	50	0	54525952	60	5383
2026-01-01 09:12:33.21	143.30	6.83	-49.0	-52.5	12.0	3.32e-04	0	50	0	56623104	60	5505
2026-01-01 09:12:34.20	143.30	6.91	-48.8	-52.1	12.3	2.20e-04	0	51	0	58720256	60	5274
2026-01-01 09:12:35.19	143.29	6.99	-48.8	-52.0	12.5	1.38e-04	0	51	0	59768832	60	5212
2026-01-01 09:12:36.18	143.28	7.06	-48.7	-51.8	12.7	7.93e-05	0	51	0	61865984	60	5069
2026-01-01 09:12:37.17	143.27	7.14	-48.8	-52.0	12.6	7.62e-05	0	51	0	63963136	60	5165
2026-01-01 09:12:38.16	143.26	7.22	-48.7	-51.8	12.7	9.46e-05	0	51	0	66060288	60	5078
2026-01-01 09:12:39.16	143.25	7.29	-48.8	-52.0	12.6	9.07e-05	0	51	0	68157440	60	5161
2026-01-01 09:12:40.13	143.24	7.37	-49.0	-52.4	12.1	1.60e-04	0	51	0	69206016	60	5452
2026-01-01 09:12:41.12	143.23	7.45	-48.9	-52.1	12.4	2.57e-04	0	51	0	71303168	60	5256
2026-01-01 09:12:42.11	143.22	7.53	-48.8	-52.0	12.6	7.85e-05	0	51	0	73400320	60	5161
2026-01-01 09:12:43.11	143.21	7.61	-49.2	-52.7	11.8	2.55e-04	0	51	0	75497472	60	5627
2026-01-01 09:12:44.09	143.20	7.68	-49.0	-52.1	12.4	3.55e-04	0	51	0	76546048	60	5270
2026-01-01 09:12:45.08	143.19	7.76	-49.0	-52.4	12.2	1.74e-04	0	51	0	78643200	60	5431
2026-01-01 09:12:46.07	143.18	7.84	-49.1	-52.6	12.0	3.39e-04	0	51	0	80740352	60	5553
2026-01-01 09:12:47.06	143.17	7.92	-49.0	-52.3	12.3	2.52e-04	0	51	0	82837504	60	5359
2026-01-01 09:12:48.05	143.16	8.00	-49.0	-52.2	12.4	1.65e-04	0	51	0	83886080	60	5285
2026-01-01 09:12:49.04	143.15	8.08	-49.0	-52.2	12.4	1.74e-04	0	51	0	85983232	60	5337
2026-01-01 09:12:50.03	143.14	8.16	-49.1	-52.3	12.3	2.14e-04	0	51	0	88080384	60	5382
2026-01-01 09:12:51.02	143.13	8.24	-49.2	-52.6	12.0	1.80e-04	0	51	0	90177536	60	5584
2026-01-01 09:12:52.01	143.12	8.32	-49.3	-53.0	11.6	4.91e-04	0	51	0	92274688	60	5838
2026-01-01 09:12:53.00	143.11	8.40	-49.3	-52.8	11.8	5.98e-04	0	52	0	93323264	60	5706
2026-01-01 09:12:53.99	143.10	8.48	-49.5	-53.1	11.5	6.29e-04	0	51	0	95420416	60	5923
2026-01-01 09:12:54.98	143.09	8.56	-49.4	-52.8	11.8	7.02e-04	0	52	0	97517568	60	5701
2026-01-01 09:12:55.96	143.08	8.64	-49.1	-52.4	12.3	3.51e-04	0	51	0	99614720	60	5410
2026-01-01 09:12:56.95	143.06	8.72	-48.9	-52.0	12.7	1.07e-04	0	52	0	100663296	60	5164
2026-01-01 09:12:57.95	143.05	8.81	-48.7	-51.6	13.1	5.26e-05	0	52	0	102760448	60	4973
2026-01-01 09:12:58.93	143.04	8.89	-48.5	-51.3	13.4	2.28e-05	0	52	0	104857600	60	4780
2026-01-01 09:12:59.92	143.03	8.97	-48.6	-51.4	13.3	1.44e-05	0	52	0	106954752	60	4815
2026-01-01 09:13:00.92	143.02	9.05	-48.5	-51.2	13.5	1.29e-05	0	52	0	108003328	60	4751
2026-01-01 09:13:01.91	143.01	9.14	-48.8	-51.6	13.1	1.98e-05	0	52	0	110100480	60	4982
2026-01-01 09:13:02.90	143.00	9.22	-48.5	-51.2	13.5	1.90e-05	0	52	0	112197632	60	4745
2026-01-01 09:13:03.89	142.99	9.30	-48.4	-51.0	13.7	8.30e-06	0	52	0	114294784	59	4907
2026-01-01 09:13:04.88	142.97	9.39	-48.4	-51.0	13.8	7.60e-06	0	52	0	116391936	59	4890
2026-01-01 09:13:05.86	142.96	9.47	-48.4	-51.0	13.8	6.80e-06	0	52	0	117440512	59	4877
2026-01-01 09:13:06.85	142.95	9.56	-48.5	-51.1	13.6	7.60e-06	0	52	0	119537664	59	4978
2026-01-01 09:13:07.84	142.94	9.64	-48.6	-51.2	13.5	7.60e-06	0	52	0	121634816	59	5039
2026-01-01 09:13:08.83	142.93	9.73	-48.5	-51.1	13.7	9.90e-06	0	52	0	123731968	59	4979
2026-01-01 09:13:09.82	142.92	9.81	-48.4	-51.1	13.7	6.80e-06	0	52	0	124780544	59	4939
2026-01-01 09:13:10.81	142.90	9.90	-48.4	-51.1	13.7	5.30e-06	0	52	0	126877696	59	4969
2026-01-01 09:13:11.80	142.89	9.98	-48.4	-51.2	13.6	7.60e-06	0	52	0	128974848	59	4987
2026-01-01 09:13:12.79	142.88	10.07	-48.4	-51.2	13.7	9.10e-06	0	52	0	131072000	59	4989
2026-01-01 09:13:13.77	142.87	10.15	-48.5	-51.3	13.6	4.50e-06	0	52	0	132120576	59	5061
2026-01-01 09:13:14.76	142.86	10.24	-48.7	-51.5	13.3	1.37e-05	0	52	0	134217728	59	5218
2026-01-01 09:13:15.74	142.84	10.33	-48.7	-51.4	13.5	3.05e-05	0	52	0	136314880	59	5117
2026-01-01 09:13:16.73	142.83	10.42	-48.5	-51.2	13.7	1.06e-05	0	52	0	138412032	59	4985
2026-01-01 09:13:17.72	142.82	10.50	-48.3	-50.8	14.0	1.50e-06	0	52	0	139460608	59	4801
2026-01-01 09:13:18.71	142.80	10.59	-48.1	-50.6	14.3	7.00e-07	0	52	0	141557760	59	4665
2026-01-01 09:13:19.70	142.79	10.68	-48.1	-50.5	14.3	0.00e+00	0	52	0	143654912	59	4624
2026-01-01 09:13:20.69	142.78	10.77	-48.1	-50.6	14.3	7.00e-07	0	53	0	145752064	59	4662
2026-01-01 09:13:21.69	142.77	10.86	-48.1	-50.6	14.3	7.00e-07	0	52	0	147849216	59	4675
2026-01-01 09:13:22.68	142.75	10.95	-48.3	-50.9	13.9	1.50e-06	0	52	0	148897792	59	4852
2026-01-01 09:13:23.67	142.74	11.04	-48.3	-50.9	14.0	3.00e-06	0	52	0	150994944	59	4824
2026-01-01 09:13:24.65	142.73	11.13	-48.1	-50.6	14.3	7.00e-07	0	53	0	153092096	59	4681
2026-01-01 09:13:25.64	142.71	11.22	-48.0	-50.3	14.6	0.00e+00	0	52	0	155189248	59	4511
2026-01-01 09:13:26.62	142.70	11.31	-48.0	-50.2	14.7	7.00e-07	0	53	0	156237824	58	4735
2026-01-01 09:13:27.61	142.69	11.40	-47.9	-50.2	14.7	0.00e+00	0	53	0	158334976	58	4732
2026-01-01 09:13:28.60	142.67	11.49	-48.0	-50.3	14.6	7.00e-07	0	53	0	160432128	58	4774
2026-01-01 09:13:29.58	142.66	11.58	-47.9	-50.2	14.7	0.00e+00	0	53	0	162529280	58	4759
2026-01-01 09:13:30.57	142.64	11.67	-47.8	-50.1	14.9	0.00e+00	0	53	0	163577856	58	4660
2026-01-01 09:13:31.55	142.63	11.76	-47.9	-50.2	14.8	0.00e+00	0	53	0	165675008	58	4711
2026-01-01 09:13:32.54	142.62	11.86	-47.9	-50.1	14.8	0.00e+00	0	53	0	167772160	58	4680
2026-01-01 09:13:33.52	142.60	11.95	-47.8	-50.0	14.9	0.00e+00	0	53	0	169869312	58	4607
2026-01-01 09:13:34.51	142.59	12.04	-47.9	-50.1	14.8	0.00e+00	0	53	0	171966464	58	4673
2026-01-01 09:13:35.50	142.57	12.13	-48.0	-50.2	14.8	0.00e+00	0	53	0	173015040	58	4737
2026-01-01 09:13:36.49	142.56	12.23	-48.0	-50.3	14.7	0.00e+00	0	53	0	175112192	58	4768
2026-01-01 09:13:37.48	142.54	12.32	-47.9	-50.2	14.8	0.00e+00	0	53	0	177209344	58	4711
2026-01-01 09:13:38.46	142.53	12.42	-48.1	-50.5	14.5	7.00e-07	0	53	0	179306496	58	4873
2026-01-01 09:13:39.45	142.51	12.51	-48.2	-50.5	14.4	0.00e+00	0	53	0	180355072	58	4915
2026-01-01 09:13:40.44	142.50	12.61	-48.1	-50.4	14.6	0.00e+00	0	53	0	182452224	58	4829
2026-01-01 09:13:41.43	142.48	12.70	-48.2	-50.5	14.5	0.00e+00	0	53	0	184549376	58	4879
2026-01-01 09:13:42.43	142.47	12.80	-48.2	-50.5	14.5	0.00e+00	0	53	0	186646528	58	4879
2026-01-01 09:13:43.41	142.45	12.90	-48.0	-50.3	14.7	7.00e-07	0	53	0	187695104	58	4782
2026-01-01 09:13:44.40	142.44	12.99	-48.0	-50.2	14.8	7.00e-07	0	53	0	189792256	58	4738
2026-01-01 09:13:45.39	142.42	13.09	-48.0	-50.2	14.7	0.00e+00	0	53	0	191889408	58	4757
2026-01-01 09:13:46.38	142.40	13.19	-48.0	-50.2	14.7	7.00e-07	0	53	0	193986560	58	4745
2026-01-01 09:13:47.36	142.39	13.29	-48.1	-50.4	14.6	0.00e+00	0	53	0	196083712	58	4843
2026-01-01 09:13:48.36	142.37	13.39	-47.9	-50.0	15.0	0.00e+00	0	53	0	197132288	58	4612
2026-01-01 09:13:49.35	142.36	13.48	-47.6	-49.6	15.4	0.00e+00	0	53	0	199229440	58	4431
2026-01-01 09:13:50.33	142.34	13.58	-47.6	-49.5	15.4	0.00e+00	0	53	0	201326592	58	4387
2026-01-01 09:13:51.33	142.32	13.68	-47.5	-49.5	15.5	0.00e+00	0	53	0	203423744	58	4345
2026-01-01 09:13:52.31	142.31	13.78	-47.5	-49.5	15.5	0.00e+00	0	53	0	204472320	58	4382
2026-01-01 09:13:53.30	142.29	13.88	-47.7	-49.7	15.3	0.00e+00	0	53	0	206569472	58	4460
2026-01-01 09:13:54.29	142.27	13.98	-47.7	-49.7	15.3	0.00e+00	0	53	0	208666624	58	4492
2026-01-01 09:13:55.28	142.26	14.09	-47.7	-49.8	15.2	0.00e+00	0	53	0	210763776	58	4504
2026-01-01 09:13:56.28	142.24	14.19	-47.7	-49.8	15.2	0.00e+00	0	53	0	211812352	58	4521
2026-01-01 09:13:57.27	142.22	14.29	-47.6	-49.6	15.5	0.00e+00	0	54	0	213909504	58	4404
2026-01-01 09:13:58.25	142.20	14.39	-47.6	-49.6	15.4	0.00e+00	0	53	0	216006656	58	4423
2026-01-01 09:13:59.24	142.19	14.50	-47.6	-49.6	15.4	0.00e+00	0	54	0	218103808	58	4437
2026-01-01 09:14:00.23	142.17	14.60	-47.8	-49.8	15.2	0.00e+00	0	54	0	219152384	58	4534
2026-01-01 09:14:01.21	142.15	14.70	-47.5	-49.5	15.5	0.00e+00	0	53	0	221249536	58	4352
2026-01-01 09:14:02.20	142.13	14.81	-47.3	-49.2	15.8	0.00e+00	0	54	0	223346688	57	4488
2026-01-01 09:14:03.19	142.11	14.91	-47.3	-49.2	15.9	0.00e+00	0	54	0	225443840	57	4461
2026-01-01 09:14:04.18	142.10	15.02	-47.4	-49.2	15.8	0.00e+00	0	54	0	227540992	57	4493
2026-01-01 09:14:05.18	142.08	15.12	-47.4	-49.3	15.7	0.00e+00	0	54	0	228589568	57	4545
2026-01-01 09:14:06.17	142.06	15.23	-47.6	-49.5	15.5	0.00e+00	0	54	0	230686720	57	4642
2026-01-01 09:14:07.15	142.04	15.34	-47.3	-49.3	15.7	0.00e+00	0	54	0	232783872	57	4512
2026-01-01 09:14:08.14	142.02	15.44	-47.5	-49.4	15.6	0.00e+00	0	54	0	234881024	57	4569
2026-01-01 09:14:09.12	142.00	15.55	-47.6	-49.6	15.4	0.00e+00	0	54	0	235929600	57	4670
2026-01-01 09:14:10.11	141.98	15.66	-47.4	-49.2	15.8	0.00e+00	0	54	0	238026752	57	4488
2026-01-01 09:14:11.10	141.96	15.77	-47.2	-49.1	15.9	0.00e+00	0	54	0	240123904	57	4422
2026-01-01 09:14:12.10	141.94	15.88	-47.2	-49.1	16.0	0.00e+00	0	54	0	242221056	57	4410
2026-01-01 09:14:13.09	141.92	15.99	-47.3	-49.1	16.0	0.00e+00	0	54	0	244318208	57	4421
2026-01-01 09:14:14.09	141.90	16.10	-47.4	-49.3	15.8	0.00e+00	0	54	0	245366784	57	4515
2026-01-01 09:14:15.08	141.88	16.21	-47.2	-49.0	16.1	0.00e+00	0	54	0	247463936	57	4359
2026-01-01 09:14:16.07	141.86	16.32	-47.0	-48.7	16.3	0.00e+00	0	54	0	249561088	57	4231
2026-01-01 09:14:17.06	141.84	16.43	-46.8	-48.5	16.6	0.00e+00	0	54	0	251658240	56	4374
2026-01-01 09:14:18.04	141.82	16.54	-46.8	-48.5	16.5	0.00e+00	0	54	0	252706816	56	4381
2026-01-01 09:14:19.03	141.80	16.65	-46.9	-48.5	16.6	0.00e+00	0	54	0	254803968	56	4369
2026-01-01 09:14:20.02	141.78	16.77	-46.8	-48.5	16.5	0.00e+00	0	54	0	256901120	56	4388
2026-01-01 09:14:21.01	141.76	16.88	-47.0	-48.7	16.3	0.00e+00	0	54	0	258998272	56	4483
2026-01-01 09:14:22.00	141.74	17.00	-46.9	-48.5	16.5	0.00e+00	0	54	0	260046848	56	4374
2026-01-01 09:14:22.99	141.71	17.11	-46.8	-48.4	16.6	0.00e+00	0	54	0	262144000	56	4330
2026-01-01 09:14:23.97	141.69	17.22	-46.8	-48.4	16.6	0.00e+00	0	54	0	264241152	56	4338
2026-01-01 09:14:24.96	141.67	17.34	-46.9	-48.5	16.6	0.00e+00	0	54	0	266338304	56	4384
2026-01-01 09:14:25.95	141.65	17.46	-47.0	-48.7	16.4	0.00e+00	0	54	0	268435456	56	4491
2026-01-01 09:14:26.94	141.63	17.57	-46.9	-48.6	16.5	0.00e+00	0	54	0	269484032	56	4419
2026-01-01 09:14:27.93	141.60	17.69	-46.9	-48.6	16.5	0.00e+00	0	54	0	271581184	56	4428
2026-01-01 09:14:28.91	141.58	17.81	-47.0	-48.6	16.5	0.00e+00	0	54	0	273678336	56	4424
2026-01-01 09:14:29.91	141.56	17.93	-46.9	-48.6	16.5	0.00e+00	0	54	0	275775488	56	4413
2026-01-01 09:14:30.90	141.53	18.05	-47.0	-48.7	16.4	0.00e+00	0	54	0	276824064	56	4455
2026-01-01 09:14:31.89	141.51	18.17	-46.9	-48.5	16.6	0.00e+00	0	54	0	278921216	56	4382
2026-01-01 09:14:32.88	141.49	18.29	-47.0	-48.7	16.4	0.00e+00	0	54	0	281018368	56	4464
2026-01-01 09:14:33.86	141.46	18.41	-46.8	-48.5	16.7	0.00e+00	0	54	0	283115520	56	4342
2026-01-01 09:14:34.86	141.44	18.53	-46.6	-48.2	16.9	0.00e+00	0	54	0	284164096	56	4220
2026-01-01 09:14:35.84	141.41	18.65	-46.4	-48.0	17.2	0.00e+00	0	54	0	286261248	56	4110
2026-01-01 09:14:36.83	141.39	18.77	-46.5	-48.0	17.2	0.00e+00	0	54	0	288358400	56	4100
2026-01-01 09:14:37.82	141.37	18.90	-46.5	-48.0	17.1	0.00e+00	0	54	0	290455552	56	4109
2026-01-01 09:14:38.81	141.34	19.02	-46.5	-48.0	17.1	0.00e+00	0	54	0	292552704	56	4145
2026-01-01 09:14:39.80	141.32	19.14	-46.7	-48.3	16.8	0.00e+00	0	55	0	293601280	56	4258
2026-01-01 09:14:40.79	141.29	19.27	-46.6	-48.1	17.0	0.00e+00	0	54	0	295698432	56	4169
2026-01-01 09:14:41.78	141.26	19.40	-46.4	-47.8	17.2	0.00e+00	0	54	0	297795584	56	4051
2026-01-01 09:14:42.77	141.24	19.52	-46.1	-47.5	17.5	0.00e+00	0	54	0	299892736	55	4130
2026-01-01 09:14:43.77	141.21	19.65	-46.1	-47.5	17.6	0.00e+00	0	55	0	300941312	55	4103
2026-01-01 09:14:44.76	141.19	19.78	-46.1	-47.5	17.6	0.00e+00	0	55	0	303038464	55	4101
2026-01-01 09:14:45.76	141.16	19.91	-46.2	-47.6	17.5	0.00e+00	0	54	0	305135616	55	4168
2026-01-01 09:14:46.75	141.13	20.04	-46.3	-47.7	17.3	0.00e+00	0	54	0	307232768	55	4232
2026-01-01 09:14:47.74	141.10	20.17	-46.2	-47.6	17.4	0.00e+00	0	55	0	309329920	55	4158
2026-01-01 09:14:48.73	141.08	20.30	-46.0	-47.4	17.6	0.00e+00	0	54	0	310378496	55	4081
2026-01-01 09:14:49.72	141.05	20.43	-45.9	-47.3	17.7	0.00e+00	0	55	0	312475648	55	4038
2026-01-01 09:14:50.70	141.02	20.56	-45.9	-47.3	17.7	0.00e+00	0	55	0	314572800	55	4025
2026-01-01 09:14:51.70	140.99	20.69	-45.9	-47.3	17.7	0.00e+00	0	55	0	316669952	55	4023
2026-01-01 09:14:52.69	140.96	20.82	-46.0	-47.4	17.6	0.00e+00	0	55	0	317718528	55	4067
2026-01-01 09:14:53.68	140.94	20.96	-46.0	-47.4	17.7	0.00e+00	0	55	0	319815680	55	4052
2026-01-01 09:14:54.66	140.91	21.09	-46.0	-47.4	17.6	0.00e+00	0	55	0	321912832	55	4084
2026-01-01 09:14:55.66	140.88	21.23	-46.2	-47.6	17.5	0.00e+00	0	55	0	324009984	55	4171
2026-01-01 09:14:56.64	140.85	21.36	-46.4	-47.9	17.1	0.00e+00	0	55	0	325058560	55	4332
2026-01-01 09:14:57.63	140.82	21.50	-46.4	-47.9	17.2	0.00e+00	0	55	0	327155712	55	4297
2026-01-01 09:14:58.62	140.79	21.64	-46.3	-47.7	17.3	0.00e+00	0	55	0	329252864	55	4222
2026-01-01 09:14:59.61	140.76	21.77	-46.3	-47.7	17.3	0.00e+00	0	55	0	331350016	55	4223
2026-01-01 09:15:00.61	140.73	21.91	-46.4	-47.9	17.2	0.00e+00	0	55	0	332398592	55	4302
2026-01-01 09:15:01.60	140.69	22.05	-46.3	-47.8	17.3	0.00e+00	0	55	0	334495744	55	4271
2026-01-01 09:15:02.59	140.66	22.19	-46.3	-47.7	17.3	0.00e+00	0	55	0	336592896	55	4230
2026-01-01 09:15:03.58	140.63	22.34	-46.3	-47.8	17.3	0.00e+00	0	55	0	338690048	55	4248
2026-01-01 09:15:04.58	140.60	22.48	-46.5	-48.0	17.1	0.00e+00	0	55	0	340787200	55	4377
2026-01-01 09:15:05.56	140.57	22.62	-46.4	-48.0	17.1	0.00e+00	0	55	0	341835776	55	4360
2026-01-01 09:15:06.55	140.53	22.76	-46.3	-47.7	17.3	0.00e+00	0	55	0	343932928	55	4218
2026-01-01 09:15:07.53	140.50	22.91	-46.1	-47.5	17.6	0.00e+00	0	55	0	346030080	55	4123
2026-01-01 09:15:08.53	140.47	23.05	-46.1	-47.5	17.6	0.00e+00	0	55	0	348127232	55	4117
2026-01-01 09:15:09.52	140.43	23.20	-46.2	-47.7	17.4	0.00e+00	0	55	0	349175808	55	4195
2026-01-01 09:15:10.50	140.40	23.34	-46.3	-47.8	17.3	0.00e+00	0	55	0	351272960	55	4271
2026-01-01 09:15:11.49	140.37	23.49	-46.4	-47.8	17.3	0.00e+00	0	55	0	353370112	55	4275
2026-01-01 09:15:12.48	140.33	23.64	-46.3	-47.9	17.2	0.00e+00	0	55	0	355467264	55	4307
2026-01-01 09:15:13.47	140.30	23.79	-46.2	-47.7	17.4	0.00e+00	0	55	0	356515840	55	4221
2026-01-01 09:15:14.46	140.26	23.94	-46.3	-47.8	17.3	0.00e+00	0	55	0	358612992	55	4257
2026-01-01 09:15:15.46	140.22	24.09	-46.5	-48.0	17.1	0.00e+00	0	55	0	360710144	55	4379
2026-01-01 09:15:16.45	140.19	24.24	-46.5	-48.0	17.1	0.00e+00	0	55	0	362807296	55	4376
2026-01-01 09:15:17.44	140.15	24.39	-46.3	-47.8	17.3	0.00e+00	0	55	0	364904448	55	4277
2026-01-01 09:15:18.43	140.11	24.55	-46.4	-47.9	17.2	0.00e+00	0	55	0	365953024	55	4321
2026-01-01 09:15:19.42	140.08	24.70	-46.6	-48.1	17.0	0.00e+00	0	55	0	368050176	55	4429
2026-01-01 09:15:20.41	140.04	24.86	-46.7	-48.3	16.8	0.00e+00	0	55	0	370147328	55	4505
2026-01-01 09:15:21.39	140.00	25.01	-46.6	-48.2	16.9	0.00e+00	0	55	0	372244480	55	4460
2026-01-01 09:15:22.38	139.96	25.17	-46.9	-48.6	16.6	0.00e+00	0	55	0	373293056	55	4655
2026-01-01 09:15:23.36	139.92	25.33	-47.3	-49.1	16.1	0.00e+00	0	55	0	375390208	56	4684
2026-01-01 09:15:24.35	139.88	25.48	-47.4	-49.2	16.0	0.00e+00	0	55	0	377487360	56	4721
2026-01-01 09:15:25.35	139.84	25.65	-47.3	-49.0	16.2	0.00e+00	0	55	0	379584512	56	4640
2026-01-01 09:15:26.34	139.80	25.81	-47.3	-49.0	16.2	0.00e+00	0	55	0	381681664	56	4640
2026-01-01 09:15:27.33	139.76	25.97	-47.4	-49.2	16.0	0.00e+00	0	55	0	382730240	56	4748
2026-01-01 09:15:28.31	139.72	26.13	-47.5	-49.3	15.9	0.00e+00	0	55	0	384827392	56	4811
2026-01-01 09:15:29.28	139.68	26.29	-47.4	-49.2	16.0	0.00e+00	0	55	0	386924544	56	4745
2026-01-01 09:15:30.28	139.64	26.46	-47.1	-48.9	16.4	0.00e+00	0	55	0	389021696	56	4574
2026-01-01 09:15:31.27	139.59	26.62	-47.2	-48.9	16.3	0.00e+00	0	55	0	390070272	56	4595
2026-01-01 09:15:32.26	139.55	26.79	-47.1	-48.8	16.4	0.00e+00	0	55	0	392167424	56	4528
2026-01-01 09:15:33.24	139.51	26.95	-47.2	-49.0	16.3	0.00e+00	0	55	0	394264576	56	4609
2026-01-01 09:15:34.23	139.46	27.12	-47.2	-48.9	16.3	0.00e+00	0	55	0	396361728	56	4595
2026-01-01 09:15:35.21	139.42	27.29	-47.4	-49.2	16.0	0.00e+00	0	55	0	397410304	56	4749
2026-01-01 09:15:36.19	139.37	27.46	-47.7	-49.6	15.7	0.00e+00	0	55	0	399507456	57	4654
2026-01-01 09:15:37.18	139.33	27.63	-47.8	-49.8	15.5	0.00e+00	0	55	0	401604608	57	4789
2026-01-01 09:15:38.17	139.28	27.80	-47.9	-49.9	15.4	0.00e+00	0	55	0	403701760	57	4827
2026-01-01 09:15:39.15	139.24	27.98	-48.1	-50.2	15.0	0.00e+00	0	55	0	404750336	58	4754
2026-01-01 09:15:40.14	139.19	28.15	-48.0	-50.1	15.2	0.00e+00	0	55	0	406847488	58	4677
2026-01-01 09:15:41.12	139.14	28.33	-48.3	-50.5	14.8	0.00e+00	0	55	0	408944640	58	4882
2026-01-01 09:15:42.12	139.09	28.51	-48.3	-50.6	14.7	1.50e-06	0	55	0	411041792	58	4932
2026-01-01 09:15:43.10	139.04	28.68	-48.7	-51.2	14.2	7.00e-07	0	55	0	412090368	59	4987
2026-01-01 09:15:44.10	138.99	28.86	-48.6	-51.0	14.3	1.50e-06	0	55	0	414187520	59	4883
2026-01-01 09:15:45.08	138.94	29.04	-48.9	-51.5	13.8	3.80e-06	0	55	0	416284672	59	5199
2026-01-01 09:15:46.06	138.89	29.22	-48.9	-51.4	13.9	7.60e-06	0	55	0	418381824	59	5126
2026-01-01 09:15:47.05	138.84	29.40	-49.2	-52.0	13.3	1.14e-05	0	55	0	420478976	60	5188
2026-01-01 09:15:48.04	138.79	29.59	-49.0	-51.7	13.6	2.05e-05	0	55	0	421527552	60	4989
2026-01-01 09:15:49.02	138.74	29.77	-49.1	-51.8	13.4	1.29e-05	0	55	0	423624704	60	5084
2026-01-01 09:15:50.02	138.68	29.96	-49.1	-51.9	13.4	1.22e-05	0	55	0	425721856	60	5123
2026-01-01 09:15:51.01	138.63	30.15	-49.1	-51.9	13.4	1.83e-05	0	56	0	427819008	60	5108
2026-01-01 09:15:52.00	138.57	30.33	-49.2	-52.1	13.2	2.44e-05	0	55	0	428867584	60	5247
2026-01-01 09:15:52.99	138.52	30.52	-49.2	-52.1	13.2	3.28e-05	0	56	0	430964736	60	5226
2026-01-01 09:15:53.99	138.46	30.72	-49.2	-52.2	13.1	2.44e-05	0	56	0	433061888	60	5298
2026-01-01 09:15:54.98	138.41	30.91	-49.4	-52.5	12.7	5.41e-05	0	56	0	435159040	60	5482
2026-01-01 09:15:55.97	138.35	31.10	-49.4	-52.4	12.8	7.47e-05	0	56	0	436207616	60	5446
2026-01-01 09:15:56.96	138.29	31.30	-49.6	-52.9	12.4	9.07e-05	0	55	0	438304768	61	5411
2026-01-01 09:15:57.94	138.23	31.49	-49.6	-52.7	12.5	1.07e-04	0	56	0	440401920	61	5308
2026-01-01 09:15:58.93	138.17	31.69	-49.4	-52.8	12.4	1.04e-04	0	56	0	442499072	61	5385
2026-01-01 09:15:59.92	138.11	31.89	-49.7	-53.4	11.8	4.10e-04	0	56	0	444596224	61	5758
2026-01-01 09:16:00.92	138.05	32.09	-49.8	-53.2	11.9	4.88e-04	0	55	0	445644800	61	5643
2026-01-01 09:16:01.90	137.99	32.29	-49.8	-53.1	12.1	2.40e-04	0	56	0	447741952	61	5577
2026-01-01 09:16:02.89	137.92	32.49	-49.9	-53.3	11.9	3.33e-04	0	56	0	449839104	61	5680
2026-01-01 09:16:03.86	137.86	32.69	-49.8	-53.3	12.0	4.31e-04	0	56	0	451936256	61	5663
2026-01-01 09:16:04.86	137.80	32.90	-49.7	-53.0	12.3	2.09e-04	0	56	0	452984832	61	5493
2026-01-01 09:16:05.84	137.73	33.10	-49.8	-53.2	12.0	1.71e-04	0	56	0	455081984	61	5640
2026-01-01 09:16:06.84	137.67	33.31	-49.8	-53.0	12.2	2.60e-04	0	56	0	457179136	61	5510
2026-01-01 09:16:07.83	137.60	33.52	-49.5	-52.6	12.6	1.42e-04	0	56	0	459276288	61	5239
2026-01-01 09:16:08.81	137.53	33.73	-49.4	-52.4	12.9	7.17e-05	0	56	0	460324864	61	5128
2026-01-01 09:16:09.81	137.46	33.95	-49.3	-52.1	13.2	3.43e-05	0	56	0	462422016	61	4953
2026-01-01 09:16:10.79	137.39	34.16	-49.2	-52.0	13.3	2.44e-05	0	56	0	464519168	61	4914
2026-01-01 09:16:11.77	137.32	34.37	-49.1	-51.9	13.4	2.74e-05	0	55	0	466616320	61	4825
2026-01-01 09:16:12.76	137.25	34.59	-49.1	-51.8	13.5	1.22e-05	0	56	0	468713472	61	4791
2026-01-01 09:16:13.75	137.18	34.80	-49.1	-51.9	13.4	1.06e-05	0	56	0	469762048	61	4846
2026-01-01 09:16:14.75	137.10	35.03	-49.1	-51.8	13.5	1.37e-05	0	56	0	471859200	61	4763
2026-01-01 09:16:15.74	137.03	35.25	-48.9	-51.5	13.8	8.30e-06	0	56	0	473956352	60	4872
2026-01-01 09:16:16.73	136.95	35.47	-48.9	-51.5	13.8	0.00e+00	0	56	0	476053504	60	4901
2026-01-01 09:16:17.72	136.87	35.69	-48.7	-51.3	14.0	3.00e-06	0	56	0	477102080	60	4781
2026-01-01 09:16:18.71	136.79	35.92	-48.5	-51.0	14.3	0.00e+00	0	56	0	479199232	60	4617
2026-01-01 09:16:19.69	136.72	36.14	-48.5	-50.9	14.5	7.00e-07	0	56	0	481296384	60	4548
2026-01-01 09:16:20.68	136.63	36.37	-48.5	-50.9	14.5	0.00e+00	0	56	0	483393536	59	4818
2026-01-01 09:16:21.67	136.55	36.60	-48.6	-51.0	14.4	7.00e-07	0	56	0	484442112	59	4890
2026-01-01 09:16:22.66	136.47	36.83	-48.9	-51.5	13.8	3.80e-06	0	56	0	486539264	59	5210
2026-01-01 09:16:23.64	136.39	37.06	-48.9	-51.5	13.9	3.00e-06	0	56	0	488636416	60	4883
2026-01-01 09:16:24.63	136.30	37.30	-48.6	-51.0	14.3	2.20e-06	0	56	0	490733568	60	4627
2026-01-01 09:16:25.62	136.21	37.53	-48.5	-50.7	14.7	7.00e-07	0	56	0	491782144	59	4721
2026-01-01 09:16:26.61	136.13	37.77	-48.2	-50.4	15.0	0.00e+00	0	56	0	493879296	59	4546
2026-01-01 09:16:27.60	136.04	38.01	-48.1	-50.1	15.3	0.00e+00	0	56	0	495976448	59	4438
2026-01-01 09:16:28.58	135.95	38.25	-48.2	-50.3	15.1	0.00e+00	0	56	0	498073600	59	4522
2026-01-01 09:16:29.57	135.85	38.49	-48.2	-50.4	15.0	0.00e+00	0	56	0	500170752	59	4555
2026-01-01 09:16:30.55	135.76	38.73	-48.4	-50.7	14.7	7.00e-07	0	56	0	501219328	59	4735
2026-01-01 09:16:31.53	135.67	38.98	-48.6	-51.0	14.4	7.00e-07	0	56	0	503316480	59	4887
2026-01-01 09:16:32.52	135.57	39.22	-48.8	-51.3	14.0	0.00e+00	0	56	0	505413632	59	5077
2026-01-01 09:16:33.51	135.47	39.47	-48.9	-51.3	14.0	4.50e-06	0	56	0	507510784	59	5096
2026-01-01 09:16:34.49	135.37	39.72	-48.6	-51.0	14.4	0.00e+00	0	56	0	508559360	59	4914
2026-01-01 09:16:35.47	135.27	39.97	-48.5	-50.9	14.5	1.50e-06	0	56	0	510656512	59	4824
2026-01-01 09:16:36.46	135.17	40.23	-48.6	-50.9	14.5	0.00e+00	0	56	0	512753664	59	4822
2026-01-01 09:16:37.45	135.07	40.48	-48.6	-51.0	14.4	7.00e-07	0	56	0	514850816	59	4901
2026-01-01 09:16:38.44	134.96	40.74	-48.7	-51.2	14.2	1.50e-06	0	56	0	515899392	59	4996
2026-01-01 09:16:39.43	134.85	41.00	-48.8	-51.3	14.0	7.00e-07	0	56	0	517996544	59	5055
2026-01-01 09:16:40.42	134.74	41.26	-48.8	-51.3	14.1	3.00e-06	0	56	0	520093696	59	5042
2026-01-01 09:16:41.41	134.63	41.52	-48.9	-51.3	14.0	3.00e-06	0	56	0	522190848	59	5097
2026-01-01 09:16:42.39	134.52	41.79	-48.9	-51.4	14.0	7.00e-07	0	56	0	524288000	59	5115
2026-01-01 09:16:43.39	134.40	42.06	-48.9	-51.6	13.8	3.00e-06	0	56	0	525336576	59	5231
2026-01-01 09:16:44.38	134.28	42.32	-49.0	-51.7	13.7	6.10e-06	0	56	0	527433728	59	5296
2026-01-01 09:16:45.36	134.16	42.59	-48.9	-51.6	13.8	4.50e-06	0	56	0	529530880	59	5232
2026-01-01 09:16:46.36	134.04	42.87	-48.9	-51.5	13.9	3.80e-06	0	56	0	531628032	59	5176
2026-01-01 09:16:47.35	133.92	43.14	-49.0	-51.5	13.8	1.50e-06	0	56	0	532676608	59	5200
2026-01-01 09:16:48.33	133.79	43.41	-48.9	-51.5	13.9	5.30e-06	0	56	0	534773760	60	4914
2026-01-01 09:16:49.32	133.66	43.69	-48.6	-51.2	14.2	7.00e-07	0	56	0	536870912	60	4707
2026-01-01 09:16:50.31	133.53	43.97	-48.6	-50.9	14.5	7.00e-07	0	56	0	538968064	60	4564
2026-01-01 09:16:51.29	133.40	44.25	-48.5	-51.0	14.4	2.20e-06	0	56	0	540016640	60	4631
2026-01-01 09:16:52.28	133.27	44.53	-48.6	-51.0	14.3	2.20e-06	0	56	0	542113792	60	4627
2026-01-01 09:16:53.26	133.13	44.81	-48.7	-51.3	14.0	1.50e-06	0	56	0	544210944	60	4801
2026-01-01 09:16:54.25	132.99	45.10	-48.9	-51.5	13.9	3.00e-06	0	56	0	546308096	60	4903
2026-01-01 09:16:55.24	132.85	45.39	-49.0	-51.6	13.8	7.00e-07	0	56	0	548405248	60	4935
2026-01-01 09:16:56.23	132.70	45.68	-48.9	-51.6	13.8	5.30e-06	0	56	0	549453824	60	4946
2026-01-01 09:16:57.21	132.55	45.97	-48.7	-51.1	14.2	2.20e-06	0	56	0	551550976	60	4692
2026-01-01 09:16:58.20	132.40	46.26	-48.6	-51.0	14.4	7.00e-07	0	56	0	553648128	60	4625
2026-01-01 09:16:59.20	132.24	46.56	-48.7	-51.1	14.2	3.00e-06	0	56	0	555745280	60	4696
2026-01-01 09:17:00.19	132.09	46.86	-48.9	-51.5	13.9	3.00e-06	0	56	0	556793856	60	4894
2026-01-01 09:17:01.17	131.93	47.16	-49.0	-51.8	13.6	8.30e-06	0	56	0	558891008	60	5051
2026-01-01 09:17:02.16	131.76	47.46	-48.8	-51.3	14.0	8.30e-06	0	56	0	560988160	60	4814
2026-01-01 09:17:03.15	131.60	47.76	-48.6	-51.2	14.2	7.00e-07	0	56	0	563085312	60	4707
2026-01-01 09:17:04.14	131.43	48.07	-48.8	-51.3	14.1	2.20e-06	0	56	0	564133888	60	4802
2026-01-01 09:17:05.13	131.25	48.37	-49.0	-51.7	13.7	6.80e-06	0	56	0	566231040	60	5012
2026-01-01 09:17:06.12	131.08	48.68	-49.2	-52.0	13.3	9.10e-06	0	56	0	568328192	60	5198
2026-01-01 09:17:07.12	130.89	49.00	-49.1	-51.9	13.5	1.06e-05	0	56	0	570425344	60	5136
2026-01-01 09:17:08.11	130.71	49.31	-49.0	-51.6	13.8	9.90e-06	0	56	0	571473920	60	4961
2026-01-01 09:17:09.10	130.52	49.63	-48.7	-51.0	14.4	7.00e-07	0	56	0	573571072	60	4641
2026-01-01 09:17:10.09	130.33	49.94	-48.4	-50.6	14.7	0.00e+00	0	56	0	575668224	60	4429
2026-01-01 09:17:11.08	130.13	50.26	-48.2	-50.4	15.0	7.00e-07	0	56	0	577765376	59	4560
2026-01-01 09:17:12.06	129.93	50.58	-48.1	-50.2	15.2	0.00e+00	0	56	0	579862528	59	4467
2026-01-01 09:17:13.06	129.72	50.90	-48.0	-50.0	15.4	0.00e+00	0	56	0	580911104	59	4389
2026-01-01 09:17:14.05	129.51	51.23	-48.1	-50.1	15.3	0.00e+00	0	56	0	583008256	59	4440
2026-01-01 09:17:15.04	129.30	51.55	-47.8	-49.7	15.7	0.00e+00	0	56	0	585105408	58	4450
2026-01-01 09:17:16.04	129.08	51.89	-47.6	-49.3	16.1	0.00e+00	0	56	0	587202560	58	4273
2026-01-01 09:17:17.03	128.85	52.22	-47.4	-49.1	16.3	0.00e+00	0	56	0	588251136	58	4193
2026-01-01 09:17:18.01	128.63	52.54	-47.3	-49.0	16.5	0.00e+00	0	56	0	590348288	57	4343
2026-01-01 09:17:19.00	128.39	52.88	-47.4	-49.1	16.3	0.00e+00	0	56	0	592445440	57	4427
2026-01-01 09:17:19.98	128.15	53.21	-47.6	-49.4	16.0	0.00e+00	0	56	0	594542592	57	4580
2026-01-01 09:17:20.97	127.91	53.54	-47.5	-49.3	16.1	0.00e+00	0	56	0	595591168	57	4520
2026-01-01 09:17:21.94	127.66	53.88	-47.4	-49.1	16.3	0.00e+00	0	56	0	597688320	57	4436
2026-01-01 09:17:22.93	127.40	54.21	-47.3	-49.0	16.4	0.00e+00	0	56	0	599785472	57	4374
2026-01-01 09:17:23.92	127.14	54.56	-47.6	-49.5	16.0	0.00e+00	0	56	0	601882624	57	4604
2026-01-01 09:17:24.91	126.87	54.90	-47.9	-49.8	15.6	0.00e+00	0	56	0	603979776	57	4802
2026-01-01 09:17:25.90	126.59	55.24	-48.3	-50.4	15.0	0.00e+00	0	56	0	605028352	58	4859
2026-01-01 09:17:26.88	126.31	55.59	-48.1	-50.2	15.2	1.50e-06	0	56	0	607125504	58	4726
2026-01-01 09:17:27.87	126.02	55.93	-48.5	-50.7	14.7	0.00e+00	0	56	0	609222656	58	5021
2026-01-01 09:17:28.85	125.72	56.28	-48.4	-50.5	14.8	0.00e+00	0	56	0	611319808	59	4649
2026-01-01 09:17:29.85	125.41	56.63	-48.3	-50.5	15.0	0.00e+00	0	56	0	612368384	59	4611
2026-01-01 09:17:30.83	125.10	56.98	-48.5	-50.9	14.6	0.00e+00	0	56	0	614465536	59	4858
2026-01-01 09:17:31.82	124.78	57.33	-48.7	-51.2	14.3	0.00e+00	0	56	0	616562688	59	4995
2026-01-01 09:17:32.81	124.45	57.69	-49.2	-52.1	13.3	1.50e-06	0	56	0	618659840	60	5223
2026-01-01 09:17:33.80	124.11	58.04	-49.4	-52.5	12.8	4.50e-05	0	56	0	619708416	60	5496
2026-01-01 09:17:34.79	123.76	58.40	-49.1	-51.8	13.5	2.05e-05	0	56	0	621805568	60	5083
2026-01-01 09:17:35.78	123.40	58.76	-49.0	-51.5	13.9	8.30e-06	0	56	0	623902720	60	4896
2026-01-01 09:17:36.77	123.03	59.12	-49.0	-51.6	13.7	3.80e-06	0	56	0	625999872	60	4969
2026-01-01 09:17:37.76	122.65	59.48	-48.9	-51.6	13.8	6.10e-06	0	56	0	628097024	60	4964
2026-01-01 09:17:38.75	122.26	59.84	-48.5	-50.9	14.5	2.20e-06	0	56	0	629145600	60	4562
2026-01-01 09:17:39.72	121.87	60.19	-48.0	-50.1	15.4	0.00e+00	0	56	0	631242752	59	4400
2026-01-01 09:17:40.72	121.45	60.56	-47.5	-49.4	16.0	0.00e+00	0	56	0	633339904	58	4324
2026-01-01 09:17:41.69	121.03	60.91	-47.6	-49.3	16.1	0.00e+00	0	56	0	635437056	57	4532
2026-01-01 09:17:42.69	120.59	61.28	-47.7	-49.5	15.9	0.00e+00	0	56	0	636485632	57	4642
2026-01-01 09:17:43.67	120.15	61.64	-47.6	-49.4	16.0	0.00e+00	0	56	0	638582784	57	4557
2026-01-01 09:17:44.67	119.68	62.01	-47.6	-49.4	16.0	0.00e+00	0	56	0	640679936	57	4591
2026-01-01 09:17:45.66	119.20	62.38	-47.9	-49.8	15.6	0.00e+00	0	56	0	642777088	57	4799
2026-01-01 09:17:46.65	118.71	62.74	-47.9	-49.8	15.6	0.00e+00	0	56	0	643825664	57	4792
2026-01-01 09:17:47.64	118.20	63.11	-47.7	-49.6	15.8	0.00e+00	0	56	0	645922816	57	4678
2026-01-01 09:17:48.63	117.68	63.47	-47.7	-49.6	15.8	0.00e+00	0	56	0	648019968	57	4661
2026-01-01 09:17:49.62	117.13	63.84	-47.9	-49.9	15.5	0.00e+00	0	56	0	650117120	57	4860
2026-01-01 09:17:50.61	116.58	64.20	-48.4	-50.6	14.8	0.00e+00	0	56	0	651165696	58	4974
2026-01-01 09:17:51.60	116.00	64.56	-48.7	-51.0	14.4	7.00e-07	0	56	0	653262848	59	4883
2026-01-01 09:17:52.59	115.41	64.93	-48.9	-51.6	13.9	7.00e-07	0	56	0	655360000	59	5233
2026-01-01 09:17:53.58	114.79	65.29	-49.2	-52.1	13.3	1.60e-05	0	56	0	657457152	60	5255
2026-01-01 09:17:54.56	114.17	65.65	-49.7	-53.0	12.4	3.58e-05	0	56	0	659554304	61	5498
2026-01-01 09:17:55.54	113.52	66.00	-50.1	-53.9	11.5	4.55e-04	0	56	0	660602880	62	5731
2026-01-01 09:17:56.53	112.84	66.36	-50.1	-53.9	11.4	4.96e-04	0	56	0	662700032	62	5750
2026-01-01 09:17:57.52	112.14	66.72	-50.1	-53.7	11.5	1.06e-03	0	56	0	664797184	62	5632
2026-01-01 09:17:58.52	111.41	67.08	-49.9	-53.4	11.9	6.94e-04	0	57	0	666894336	62	5456
2026-01-01 09:17:59.51	110.66	67.43	-50.1	-53.5	11.9	3.84e-04	0	56	0	667942912	62	5497
2026-01-01 09:18:00.49	109.89	67.78	-50.2	-53.7	11.7	6.26e-04	0	56	0	670040064	62	5634
2026-01-01 09:18:01.48	109.09	68.13	-50.1	-53.9	11.6	6.26e-04	0	57	0	672137216	62	5725
2026-01-01 09:18:02.48	108.25	68.48	-50.0	-53.4	12.0	3.77e-04	0	56	0	674234368	62	5410
2026-01-01 09:18:03.47	107.39	68.82	-49.9	-53.3	12.1	2.21e-04	0	57	0	675282944	62	5387
2026-01-01 09:18:04.45	106.51	69.16	-50.0	-53.7	11.7	6.81e-04	0	56	0	677380096	62	5602
2026-01-01 09:18:05.44	105.58	69.50	-49.7	-52.8	12.6	1.69e-04	0	56	0	679477248	62	5049
2026-01-01 09:18:06.42	104.64	69.82	-48.8	-51.5	13.9	2.13e-05	0	57	0	681574400	61	4622
2026-01-01 09:18:07.42	103.64	70.16	-48.5	-50.7	14.8	7.00e-07	0	56	0	683671552	59	4709
2026-01-01 09:18:08.41	102.61	70.48	-47.9	-49.9	15.6	0.00e+00	0	57	0	684720128	58	4547
2026-01-01 09:18:09.40	101.55	70.80	-47.4	-49.2	16.2	0.00e+00	0	56	0	686817280	58	4225
2026-01-01 09:18:10.38	100.46	71.11	-47.2	-48.8	16.6	0.00e+00	0	56	0	688914432	57	4274
2026-01-01 09:18:11.37	99.32	71.41	-47.0	-48.6	16.8	0.00e+00	0	56	0	691011584	57	4188
2026-01-01 09:18:12.36	98.14	71.71	-47.1	-48.7	16.7	0.00e+00	0	57	0	692060160	57	4211
2026-01-01 09:18:13.35	96.92	72.01	-47.4	-49.1	16.3	0.00e+00	0	57	0	694157312	57	4426
2026-01-01 09:18:14.33	95.68	72.29	-47.5	-49.3	16.2	0.00e+00	0	56	0	696254464	57	4506
2026-01-01 09:18:15.32	94.37	72.57	-47.2	-48.9	16.6	0.00e+00	0	57	0	698351616	57	4308
2026-01-01 09:18:16.31	93.02	72.84	-47.2	-48.9	16.5	0.00e+00	0	57	0	699400192	57	4319
2026-01-01 09:18:17.30	91.63	73.10	-47.5	-49.3	16.2	0.00e+00	0	56	0	701497344	57	4514
2026-01-01 09:18:18.29	90.19	73.35	-47.6	-49.5	16.1	0.00e+00	0	56	0	703594496	57	4601
2026-01-01 09:18:19.28	88.70	73.60	-47.8	-49.8	15.6	0.00e+00	0	57	0	705691648	57	4793
2026-01-01 09:18:20.27	87.17	73.83	-48.6	-51.0	14.5	0.00e+00	0	57	0	707788800	59	4895
2026-01-01 09:18:21.25	85.61	74.05	-49.0	-51.6	13.9	2.20e-06	0	57	0	708837376	60	4941
2026-01-01 09:18:22.24	83.99	74.26	-48.7	-51.1	14.3	7.00e-07	0	57	0	710934528	60	4692
2026-01-01 09:18:23.22	82.34	74.45	-48.8	-51.2	14.2	0.00e+00	0	57	0	713031680	60	4723
2026-01-01 09:18:24.21	80.63	74.64	-49.4	-52.4	12.9	1.29e-05	0	56	0	715128832	60	5444
2026-01-01 09:18:25.20	78.88	74.81	-49.9	-53.3	12.1	1.01e-04	0	57	0	716177408	61	5663
2026-01-01 09:18:26.19	77.09	74.97	-50.3	-54.1	11.3	4.50e-04	0	57	0	718274560	62	5921
2026-01-01 09:18:27.18	75.27	75.11	-50.4	-54.5	10.8	2.49e-03	0	57	0	720371712	63	5806
2026-01-01 09:18:28.17	73.40	75.24	-50.3	-54.3	11.1	2.03e-03	0	57	0	722468864	63	5700
2026-01-01 09:18:29.16	71.51	75.35	-50.1	-53.8	11.5	9.99e-04	0	57	0	723517440	63	5375
2026-01-01 09:18:30.15	69.59	75.45	-50.2	-54.0	11.3	8.64e-04	0	57	0	725614592	63	5510
2026-01-01 09:18:31.13	67.66	75.53	-50.0	-53.7	11.7	7.51e-04	0	57	0	727711744	63	5310
2026-01-01 09:18:32.12	65.69	75.60	-50.1	-53.7	11.7	4.49e-04	0	56	0	729808896	63	5334
2026-01-01 09:18:33.11	63.70	75.65	-50.5	-54.5	10.8	1.28e-03	0	57	0	730857472	63	5855
2026-01-01 09:18:34.10	61.71	75.68	-50.0	-53.5	12.0	1.34e-03	0	57	0	732954624	63	5207
2026-01-01 09:18:35.09	59.70	75.69	-50.0	-53.6	11.8	3.29e-04	0	57	0	735051776	62	5558
2026-01-01 09:18:36.08	57.70	75.69	-50.3	-54.3	11.1	9.93e-04	0	57	0	737148928	62	6020
2026-01-01 09:18:37.07	55.70	75.67	-50.3	-54.0	11.4	1.15e-03	0	57	0	739246080	62	5849
2026-01-01 09:18:38.06	53.70	75.64	-50.0	-53.6	11.7	7.74e-04	0	57	0	740294656	62	5578
2026-01-01 09:18:39.05	51.72	75.59	-49.8	-53.4	12.1	3.06e-04	0	57	0	742391808	62	5403
2026-01-01 09:18:40.03	49.78	75.52	-49.9	-53.5	12.0	3.00e-04	0	57	0	744488960	62	5480
2026-01-01 09:18:41.02	47.83	75.43	-50.1	-54.0	11.4	5.29e-04	0	57	0	746586112	62	5806
2026-01-01 09:18:42.01	45.91	75.33	-50.7	-55.4	9.9	5.98e-03	0	57	0	747634688	63	6454
2026-01-01 09:18:43.00	44.03	75.22	-50.6	-54.8	10.5	5.29e-03	0	57	0	749731840	63	6035
2026-01-01 09:18:43.98	42.19	75.09	-50.5	-54.7	10.6	2.21e-03	0	57	0	751828992	63	5933
2026-01-01 09:18:44.97	40.37	74.94	-50.4	-54.4	11.0	2.05e-03	0	57	0	753926144	63	5737
2026-01-01 09:18:45.95	38.60	74.78	-50.1	-53.9	11.4	1.06e-03	0	57	0	754974720	63	5461
2026-01-01 09:18:46.95	36.84	74.61	-49.9	-53.3	12.0	4.22e-04	0	57	0	757071872	63	5084
2026-01-01 09:18:47.94	35.14	74.42	-49.5	-52.5	13.0	7.78e-05	0	57	0	759169024	62	4876
2026-01-01 09:18:48.93	33.49	74.22	-49.2	-52.0	13.5	2.74e-05	0	57	0	761266176	61	4899
2026-01-01 09:18:49.92	31.88	74.01	-49.3	-52.0	13.5	1.29e-05	0	57	0	763363328	61	4913
2026-01-01 09:18:50.91	30.31	73.78	-49.0	-51.7	13.8	6.80e-06	0	57	0	764411904	60	5012
2026-01-01 09:18:51.90	28.79	73.55	-48.7	-51.1	14.3	1.50e-06	0	57	0	766509056	60	4681
2026-01-01 09:18:52.89	27.31	73.31	-48.4	-50.7	14.7	0.00e+00	0	57	0	768606208	60	4472
2026-01-01 09:18:53.87	25.90	73.06	-48.3	-50.5	15.1	0.00e+00	0	57	0	770703360	59	4607
2026-01-01 09:18:54.86	24.51	72.79	-48.6	-50.9	14.6	7.00e-07	0	57	0	771751936	59	4848
2026-01-01 09:18:55.85	23.17	72.52	-48.2	-50.3	15.2	1.50e-06	0	57	0	773849088	59	4507
2026-01-01 09:18:56.83	21.89	72.24	-48.0	-50.0	15.5	0.00e+00	0	57	0	775946240	59	4342
2026-01-01 09:18:57.82	20.63	71.96	-47.8	-49.6	15.9	0.00e+00	0	57	0	778043392	58	4436
2026-01-01 09:18:58.81	19.42	71.66	-47.9	-49.7	15.8	0.00e+00	0	57	0	779091968	58	4482
2026-01-01 09:18:59.81	18.24	71.36	-47.9	-49.8	15.6	0.00e+00	0	57	0	781189120	58	4536
2026-01-01 09:19:00.79	17.12	71.05	-48.9	-51.4	14.0	1.50e-06	0	57	0	783286272	59	5138
2026-01-01 09:19:01.79	16.02	70.74	-49.1	-51.7	13.7	6.80e-06	0	57	0	785383424	60	5024
2026-01-01 09:19:02.78	14.97	70.42	-49.2	-52.0	13.5	6.10e-06	0	57	0	786432000	60	5194
2026-01-01 09:19:03.77	13.95	70.09	-49.4	-52.5	13.0	1.83e-05	0	57	0	788529152	60	5471
2026-01-01 09:19:04.77	12.96	69.76	-49.8	-53.2	12.1	1.88e-04	0	57	0	790626304	61	5646
2026-01-01 09:19:05.76	12.01	69.43	-50.1	-53.4	12.0	3.72e-04	0	57	0	792723456	62	5456
2026-01-01 09:19:06.75	11.10	69.09	-50.0	-53.5	11.8	3.29e-04	0	57	0	794820608	62	5490
2026-01-01 09:19:07.74	10.21	68.75	-49.8	-53.1	12.3	4.81e-04	0	57	0	795869184	62	5259
2026-01-01 09:19:08.73	9.36	68.41	-49.7	-52.9	12.6	9.46e-05	0	57	0	797966336	62	5102
2026-01-01 09:19:09.73	8.53	68.06	-49.8	-53.1	12.3	1.49e-04	0	57	0	800063488	62	5268
2026-01-01 09:19:10.72	7.73	67.71	-49.5	-52.5	12.9	1.14e-04	0	57	0	802160640	62	4908
2026-01-01 09:19:11.70	6.97	67.36	-49.0	-51.7	13.8	1.06e-05	0	57	0	804257792	61	4748
2026-01-01 09:19:12.69	6.23	67.01	-48.6	-51.0	14.4	1.50e-06	0	57	0	805306368	60	4629
2026-01-01 09:19:13.68	5.51	66.65	-48.5	-50.7	14.7	0.00e+00	0	57	0	807403520	59	4755
2026-01-01 09:19:14.67	4.81	66.30	-48.5	-50.9	14.6	7.00e-07	0	57	0	809500672	59	4831
2026-01-01 09:19:15.66	4.14	65.94	-48.1	-50.2	15.3	7.00e-07	0	57	0	811597824	59	4451
2026-01-01 09:19:16.65	3.49	65.58	-47.3	-49.1	16.4	0.00e+00	0	57	0	812646400	57	4404
2026-01-01 09:19:17.64	2.86	65.22	-46.8	-48.4	17.0	0.00e+00	0	57	0	814743552	56	4316
2026-01-01 09:19:18.63	2.25	64.86	-46.5	-48.0	17.4	0.00e+00	0	57	0	816840704	56	4100
2026-01-01 09:19:19.61	1.67	64.50	-46.6	-48.1	17.4	0.00e+00	0	57	0	818937856	56	4150
2026-01-01 09:19:20.60	1.10	64.13	-46.1	-47.5	17.8	0.00e+00	0	57	0	819986432	55	4128
2026-01-01 09:19:21.58	0.55	63.77	-45.6	-46.9	18.4	0.00e+00	0	57	0	822083584	54	4068
2026-01-01 09:19:22.58	0.01	63.41	-45.4	-46.6	18.7	0.00e+00	0	57	0	824180736	53	4172
2026-01-01 09:19:23.58	359.48	63.04	-45.5	-46.8	18.5	0.00e+00	0	57	0	826277888	53	4247
2026-01-01 09:19:24.56	358.98	62.68	-45.4	-46.6	18.8	0.00e+00	0	57	0	827326464	53	4161
2026-01-01 09:19:25.55	358.49	62.31	-45.7	-47.0	18.3	0.00e+00	0	57	0	829423616	53	4359
2026-01-01 09:19:26.55	358.02	61.95	-46.3	-47.7	17.6	0.00e+00	0	57	0	831520768	54	4493
2026-01-01 09:19:27.54	357.56	61.58	-46.7	-48.3	17.1	0.00e+00	0	57	0	833617920	55	4515
2026-01-01 09:19:28.52	357.11	61.22	-47.1	-48.7	16.6	0.00e+00	0	56	0	835715072	55	4745
2026-01-01 09:19:29.51	356.68	60.86	-47.7	-49.6	15.9	0.00e+00	0	57	0	836763648	57	4696
2026-01-01 09:19:30.50	356.26	60.50	-48.0	-50.0	15.4	0.00e+00	0	57	0	838860800	57	4920
2026-01-01 09:19:31.49	355.85	60.14	-48.8	-51.3	14.2	1.50e-06	0	57	0	840957952	59	5070
2026-01-01 09:19:32.48	355.45	59.77	-49.8	-53.0	12.5	2.13e-05	0	57	0	843055104	61	5487
2026-01-01 09:19:33.46	355.07	59.42	-50.2	-54.0	11.3	5.45e-04	0	57	0	844103680	62	5823
2026-01-01 09:19:34.45	354.69	59.06	-50.6	-54.7	10.8	1.74e-03	0	57	0	846200832	62	6281
2026-01-01 09:19:35.43	354.33	58.71	-50.4	-54.5	10.8	3.30e-03	0	57	0	848297984	63	5798
2026-01-01 09:19:36.43	353.97	58.34	-49.9	-53.4	11.9	8.87e-04	0	57	0	850395136	63	5156
2026-01-01 09:19:37.41	353.62	57.99	-49.6	-52.8	12.7	1.89e-04	0	57	0	851443712	62	5045
2026-01-01 09:19:38.41	353.28	57.63	-49.9	-53.3	12.1	1.52e-04	0	56	0	853540864	62	5378
2026-01-01 09:19:39.39	352.96	57.28	-50.1	-53.9	11.5	4.89e-04	0	57	0	855638016	62	5787
2026-01-01 09:19:40.39	352.63	56.93	-49.9	-53.5	11.9	6.48e-04	0	57	0	857735168	62	5468
2026-01-01 09:19:41.38	352.32	56.58	-49.3	-52.2	13.2	1.47e-04	0	57	0	859832320	61	5001
2026-01-01 09:19:42.37	352.02	56.23	-48.9	-51.4	14.0	8.30e-06	0	57	0	860880896	60	4817
2026-01-01 09:19:43.36	351.72	55.88	-48.5	-50.8	14.7	0.00e+00	0	57	0	862978048	60	4503
2026-01-01 09:19:44.35	351.43	55.54	-48.4	-50.6	14.9	0.00e+00	0	57	0	865075200	59	4657
2026-01-01 09:19:45.34	351.15	55.19	-48.2	-50.4	15.1	0.00e+00	0	57	0	867172352	59	4561
2026-01-01 09:19:46.34	350.87	54.84	-48.1	-50.1	15.3	0.00e+00	0	57	0	868220928	59	4439
2026-01-01 09:19:47.33	350.60	54.50	-47.6	-49.5	16.0	0.00e+00	0	57	0	870318080	58	4367
2026-01-01 09:19:48.32	350.34	54.16	-47.7	-49.7	15.8	0.00e+00	0	57	0	872415232	58	4470
2026-01-01 09:19:49.31	350.08	53.82	-47.7	-49.6	15.8	0.00e+00	0	57	0	874512384	58	4410
2026-01-01 09:19:50.30	349.83	53.49	-47.4	-49.2	16.2	0.00e+00	0	57	0	876609536	57	4491
2026-01-01 09:19:51.29	349.59	53.15	-47.2	-48.9	16.5	0.00e+00	0	57	0	877658112	57	4327
2026-01-01 09:19:52.28	349.35	52.82	-47.1	-48.8	16.7	0.00e+00	0	57	0	879755264	57	4244
2026-01-01 09:19:53.27	349.12	52.49	-47.1	-48.7	16.7	0.00e+00	0	57	0	881852416	57	4213
2026-01-01 09:19:54.27	348.89	52.15	-46.8	-48.4	17.0	0.00e+00	0	57	0	883949568	56	4324
2026-01-01 09:19:55.25	348.67	51.83	-47.1	-48.7	16.7	0.00e+00	0	57	0	884998144	56	4457
2026-01-01 09:19:56.24	348.45	51.50	-47.5	-49.4	16.1	0.00e+00	0	57	0	887095296	56	4825
2026-01-01 09:19:57.23	348.24	51.18	-47.7	-49.6	15.8	0.00e+00	0	57	0	889192448	57	4665
2026-01-01 09:19:58.21	348.03	50.86	-47.8	-49.8	15.6	0.00e+00	0	57	0	891289600	57	4767
2026-01-01 09:19:59.20	347.82	50.54	-48.2	-50.3	15.1	0.00e+00	0	57	0	892338176	58	4809
2026-01-01 09:20:00.19	347.63	50.22	-48.7	-51.2	14.2	2.20e-06	0	57	0	894435328	59	5008
2026-01-01 09:20:01.19	347.43	49.90	-49.0	-51.6	13.7	3.00e-06	0	57	0	896532480	59	5264
2026-01-01 09:20:02.18	347.24	49.58	-49.0	-51.6	13.8	3.80e-06	0	57	0	898629632	59	5271
2026-01-01 09:20:03.17	347.05	49.27	-49.0	-51.8	13.6	1.50e-06	0	57	0	900726784	60	5050
2026-01-01 09:20:04.15	346.87	48.96	-49.1	-51.7	13.6	9.10e-06	0	57	0	901775360	60	5037
2026-01-01 09:20:05.14	346.69	48.65	-49.2	-52.0	13.4	6.80e-06	0	57	0	903872512	60	5167
2026-01-01 09:20:06.13	346.51	48.34	-49.1	-51.8	13.6	1.37e-05	0	57	0	905969664	60	5065
2026-01-01 09:20:07.12	346.34	48.04	-49.1	-52.0	13.4	8.30e-06	0	57	0	908066816	60	5216
2026-01-01 09:20:08.11	346.17	47.73	-48.9	-51.6	13.8	9.10e-06	0	57	0	909115392	60	4946
2026-01-01 09:20:09.11	346.00	47.43	-48.6	-51.1	14.2	7.00e-07	0	57	0	911212544	59	4981
2026-01-01 09:20:10.10	345.84	47.13	-48.7	-51.2	14.2	1.50e-06	0	57	0	913309696	59	4988
2026-01-01 09:20:11.08	345.68	46.83	-49.0	-51.9	13.5	1.50e-06	0	57	0	915406848	60	5102
2026-01-01 09:20:12.07	345.53	46.53	-49.1	-51.8	13.5	4.50e-06	0	57	0	916455424	60	5070
2026-01-01 09:20:13.06	345.37	46.24	-49.2	-52.2	13.2	1.83e-05	0	57	0	918552576	60	5309
2026-01-01 09:20:14.05	345.22	45.95	-49.4	-52.5	12.9	4.73e-05	0	57	0	920649728	60	5487
2026-01-01 09:20:15.03	345.08	45.66	-49.4	-52.4	13.0	4.27e-05	0	57	0	922746880	60	5415
2026-01-01 09:20:16.02	344.93	45.37	-49.3	-52.0	13.3	1.52e-05	0	57	0	923795456	60	5211
2026-01-01 09:20:17.01	344.79	45.08	-49.0	-51.5	13.8	6.10e-06	0	57	0	925892608	60	4925
2026-01-01 09:20:17.99	344.65	44.80	-49.1	-51.8	13.6	6.80e-06	0	57	0	927989760	60	5093
2026-01-01 09:20:18.99	344.51	44.51	-49.0	-51.7	13.7	8.30e-06	0	57	0	930086912	60	4988
2026-01-01 09:20:19.97	344.38	44.23	-49.3	-52.1	13.2	2.36e-05	0	57	0	932184064	60	5258
2026-01-01 09:20:20.96	344.25	43.95	-49.1	-51.9	13.5	1.14e-05	0	57	0	933232640	60	5121
2026-01-01 09:20:21.94	344.12	43.68	-49.1	-51.9	13.4	7.60e-06	0	57	0	935329792	60	5149
2026-01-01 09:20:22.93	343.99	43.40	-49.3	-52.3	13.1	1.22e-05	0	57	0	937426944	60	5352
2026-01-01 09:20:23.92	343.87	43.13	-49.4	-52.3	13.0	2.51e-05	0	57	0	939524096	60	5377
2026-01-01 09:20:24.91	343.74	42.85	-49.2	-52.1	13.3	2.89e-05	0	57	0	940572672	60	5223
2026-01-01 09:20:25.90	343.62	42.58	-49.4	-52.5	12.8	2.28e-05	0	57	0	942669824	60	5466
2026-01-01 09:20:26.90	343.50	42.31	-49.5	-52.7	12.7	6.33e-05	0	57	0	944766976	60	5601
2026-01-01 09:20:27.88	343.39	42.05	-49.6	-52.8	12.4	8.69e-05	0	57	0	946864128	61	5400
2026-01-01 09:20:28.87	343.27	41.78	-49.5	-52.7	12.6	1.17e-04	0	57	0	947912704	61	5285
2026-01-01 09:20:29.86	343.16	41.52	-49.7	-52.9	12.5	7.55e-05	0	57	0	950009856	61	5412
2026-01-01 09:20:30.85	343.05	41.26	-49.4	-52.5	12.8	8.31e-05	0	57	0	952107008	61	5200
2026-01-01 09:20:31.84	342.94	41.00	-49.4	-52.4	12.9	3.81e-05	0	57	0	954204160	61	5133
2026-01-01 09:20:32.82	342.83	40.74	-49.5	-52.5	12.8	4.04e-05	0	57	0	956301312	61	5216
2026-01-01 09:20:33.81	342.73	40.48	-49.5	-52.7	12.6	6.10e-05	0	57	0	957349888	61	5313
2026-01-01 09:20:34.80	342.62	40.23	-49.6	-52.8	12.6	9.68e-05	0	57	0	959447040	61	5384
2026-01-01 09:20:35.79	342.52	39.98	-49.4	-52.6	12.7	6.02e-05	0	57	0	961544192	61	5258
2026-01-01 09:20:36.77	342.42	39.73	-49.4	-52.6	12.8	8.54e-05	0	57	0	963641344	61	5240
2026-01-01 09:20:37.77	342.32	39.47	-49.3	-52.4	12.9	6.63e-05	0	57	0	964689920	61	5124
2026-01-01 09:20:38.76	342.22	39.23	-49.4	-52.4	13.0	6.71e-05	0	57	0	966787072	61	5112
2026-01-01 09:20:39.75	342.13	38.98	-49.4	-52.2	13.1	3.35e-05	0	57	0	968884224	61	5037
2026-01-01 09:20:40.73	342.03	38.74	-49.3	-52.1	13.2	3.66e-05	0	57	0	970981376	61	4960
2026-01-01 09:20:41.72	341.94	38.49	-49.0	-51.7	13.6	1.22e-05	0	57	0	972029952	61	4712
2026-01-01 09:20:42.72	341.85	38.25	-49.0	-51.5	13.8	8.30e-06	0	57	0	974127104	61	4649
2026-01-01 09:20:43.71	341.76	38.01	-49.0	-51.6	13.7	7.60e-06	0	57	0	976224256	61	4679
2026-01-01 09:20:44.70	341.67	37.77	-49.1	-51.9	13.4	9.90e-06	0	57	0	978321408	61	4824
2026-01-01 09:20:45.69	341.58	37.54	-49.0	-51.7	13.6	8.30e-06	0	57	0	980418560	61	4714
2026-01-01 09:20:46.66	341.50	37.31	-48.8	-51.4	14.0	3.00e-06	0	57	0	981467136	60	4819
2026-01-01 09:20:47.65	341.41	37.07	-48.5	-51.0	14.3	2.20e-06	0	57	0	983564288	60	4646
2026-01-01 09:20:48.64	341.33	36.84	-48.4	-50.8	14.6	7.00e-07	0	57	0	985661440	60	4499
2026-01-01 09:20:49.62	341.25	36.61	-48.5	-50.8	14.6	7.00e-07	0	57	0	987758592	59	4760
2026-01-01 09:20:50.62	341.16	36.38	-48.6	-50.9	14.4	7.00e-07	0	57	0	988807168	59	4858
2026-01-01 09:20:51.61	341.08	36.15	-48.8	-51.3	14.1	2.20e-06	0	57	0	990904320	59	5051
2026-01-01 09:20:52.61	341.00	35.93	-48.9	-51.5	13.8	3.00e-06	0	57	0	993001472	59	5172
2026-01-01 09:20:53.59	340.93	35.70	-49.0	-51.7	13.6	7.60e-06	0	57	0	995098624	59	5326
2026-01-01 09:20:54.58	340.85	35.48	-49.0	-51.8	13.4	6.80e-06	0	57	0	996147200	60	5090
2026-01-01 09:20:55.57	340.78	35.26	-49.2	-52.1	13.2	1.29e-05	0	57	0	998244352	60	5233
2026-01-01 09:20:56.56	340.70	35.04	-49.1	-51.9	13.4	1.83e-05	0	57	0	1000341504	60	5137
2026-01-01 09:20:57.55	340.63	34.82	-49.0	-51.8	13.5	1.29e-05	0	57	0	1002438656	60	5073
2026-01-01 09:20:58.54	340.55	34.61	-49.0	-51.7	13.6	6.10e-06	0	57	0	1004535808	60	5024
2026-01-01 09:20:59.53	340.48	34.39	-49.0	-51.7	13.6	6.80e-06	0	57	0	1005584384	60	5008
2026-01-01 09:21:00.52	340.41	34.18	-48.9	-51.5	13.8	4.50e-06	0	57	0	1007681536	60	4898
2026-01-01 09:21:01.51	340.34	33.96	-48.6	-51.2	14.1	3.80e-06	0	57	0	1009778688	60	4728
2026-01-01 09:21:02.50	340.27	33.75	-48.6	-51.1	14.2	7.00e-07	0	57	0	1011875840	60	4675
2026-01-01 09:21:03.49	340.21	33.54	-48.6	-51.0	14.2	0.00e+00	0	57	0	1012924416	60	4649
2026-01-01 09:21:04.48	340.14	33.33	-48.7	-51.2	14.1	7.00e-07	0	57	0	1015021568	60	4712
2026-01-01 09:21:05.48	340.07	33.13	-48.8	-51.3	13.9	7.00e-07	0	57	0	1017118720	60	4797
2026-01-01 09:21:06.46	340.01	32.92	-48.7	-51.2	14.0	2.20e-06	0	57	0	1019215872	60	4739
2026-01-01 09:21:07.45	339.95	32.72	-48.8	-51.2	14.1	7.00e-07	0	57	0	1020264448	60	4738
2026-01-01 09:21:08.45	339.88	32.51	-48.9	-51.5	13.8	3.00e-06	0	57	0	1022361600	60	4875
2026-01-01 09:21:09.43	339.82	32.31	-48.9	-51.6	13.7	4.50e-06	0	57	0	1024458752	60	4934
2026-01-01 09:21:10.42	339.76	32.11	-48.9	-51.5	13.8	3.00e-06	0	57	0	1026555904	60	4884
2026-01-01 09:21:11.41	339.70	31.91	-49.1	-51.8	13.4	9.10e-06	0	57	0	1028653056	60	5090
2026-01-01 09:21:12.40	339.64	31.72	-49.0	-51.9	13.4	9.10e-06	0	57	0	1029701632	60	5116
2026-01-01 09:21:13.38	339.58	31.52	-49.2	-52.0	13.2	1.44e-05	0	57	0	1031798784	60	5209
2026-01-01 09:21:14.36	339.52	31.33	-49.1	-52.1	13.2	2.21e-05	0	57	0	1033895936	60	5221
2026-01-01 09:21:15.35	339.46	31.13	-49.3	-52.3	12.9	5.11e-05	0	57	0	1035993088	60	5399
2026-01-01 09:21:16.34	339.41	30.94	-49.3	-52.2	13.0	5.41e-05	0	57	0	1037041664	60	5315
2026-01-01 09:21:17.33	339.35	30.75	-49.3	-52.4	12.9	5.11e-05	0	57	0	1039138816	60	5418
2026-01-01 09:21:18.33	339.29	30.56	-49.4	-52.5	12.7	8.39e-05	0	57	0	1041235968	60	5502
2026-01-01 09:21:19.31	339.24	30.37	-49.3	-52.3	12.9	5.95e-05	0	57	0	1043333120	60	5397
2026-01-01 09:21:20.30	339.19	30.18	-49.2	-52.3	12.9	4.42e-05	0	57	0	1044381696	60	5371
2026-01-01 09:21:21.29	339.13	30.00	-49.3	-52.4	12.9	4.50e-05	0	57	0	1046478848	60	5412
2026-01-01 09:21:22.28	339.08	29.81	-49.4	-52.6	12.6	6.33e-05	0	57	0	1048576000	60	5532
2026-01-01 09:21:23.27	339.03	29.63	-49.4	-52.5	12.7	6.10e-05	0	57	0	1050673152	60	5488
2026-01-01 09:21:24.26	338.98	29.44	-49.4	-52.4	12.8	5.95e-05	0	57	0	1052770304	60	5459
2026-01-01 09:21:25.25	338.92	29.26	-49.5	-52.6	12.7	7.09e-05	0	57	0	1053818880	60	5530
2026-01-01 09:21:26.23	338.88	29.08	-49.4	-52.4	12.8	6.33e-05	0	57	0	1055916032	60	5434
2026-01-01 09:21:27.22	338.83	28.90	-49.5	-52.6	12.6	1.11e-04	0	57	0	1058013184	60	5582
2026-01-01 09:21:28.21	338.78	28.73	-49.2	-52.1	13.1	4.50e-05	0	57	0	1060110336	60	5248
2026-01-01 09:21:29.19	338.73	28.55	-49.0	-51.7	13.5	1.44e-05	0	57	0	1061158912	60	4992
2026-01-01 09:21:30.17	338.68	28.38	-48.7	-51.3	13.9	5.30e-06	0	57	0	1063256064	60	4791
2026-01-01 09:21:31.16	338.63	28.20	-48.6	-51.2	14.0	8.30e-06	0	57	0	1065353216	60	4743
2026-01-01 09:21:32.14	338.59	28.03	-48.7	-51.1	14.1	1.50e-06	0	57	0	1067450368	60	4692
2026-01-01 09:21:33.13	338.54	27.85	-48.5	-51.1	14.1	2.20e-06	0	57	0	1068498944	60	4685
2026-01-01 09:21:34.11	338.50	27.68	-48.5	-51.0	14.3	0.00e+00	0	57	0	1070596096	60	4607
2026-01-01 09:21:35.11	338.45	27.51	-48.5	-51.0	14.2	1.50e-06	0	57	0	1072693248	60	4643
2026-01-01 09:21:36.10	338.40	27.34	-48.6	-51.2	14.1	0.00e+00	0	57	0	1074790400	60	4710
2026-01-01 09:21:37.09	338.36	27.17	-48.8	-51.5	13.7	3.00e-06	0	57	0	1075838976	60	4891
2026-01-01 09:21:38.07	338.32	27.01	-48.6	-51.2	14.0	5.30e-06	0	57	0	1077936128	60	4738
2026-01-01 09:21:39.07	338.27	26.84	-48.4	-50.9	14.3	3.00e-06	0	57	0	1080033280	60	4569
2026-01-01 09:21:40.06	338.23	26.67	-48.5	-50.8	14.5	7.00e-07	0	57	0	1082130432	59	4772
2026-01-01 09:21:41.05	338.19	26.51	-48.5	-50.8	14.4	0.00e+00	0	57	0	1084227584	59	4782
2026-01-01 09:21:42.04	338.15	26.34	-48.3	-50.6	14.7	7.00e-07	0	57	0	1085276160	59	4662
2026-01-01 09:21:43.02	338.11	26.18	-48.4	-50.7	14.5	0.00e+00	0	57	0	1087373312	59	4744
2026-01-01 09:21:44.01	338.06	26.02	-48.3	-50.5	14.7	0.00e+00	0	57	0	1089470464	59	4646
2026-01-01 09:21:44.99	338.03	25.86	-48.2	-50.3	14.9	0.00e+00	0	57	0	1091567616	59	4513
2026-01-01 09:21:45.98	337.99	25.70	-48.2	-50.4	14.8	0.00e+00	0	57	0	1092616192	59	4588
2026-01-01 09:21:46.97	337.95	25.54	-48.1	-50.2	15.0	0.00e+00	0	57	0	1094713344	59	4478
2026-01-01 09:21:47.97	337.91	25.38	-48.0	-50.0	15.2	0.00e+00	0	57	0	1096810496	58	4648
2026-01-01 09:21:48.95	337.87	25.23	-48.0	-50.2	15.1	0.00e+00	0	57	0	1098907648	58	4719
2026-01-01 09:21:49.94	337.83	25.07	-48.1	-50.3	14.9	0.00e+00	0	57	0	1099956224	58	4802
2026-01-01 09:21:50.93	337.79	24.91	-48.0	-50.2	15.0	0.00e+00	0	57	0	1102053376	58	4759
2026-01-01 09:21:51.93	337.75	24.76	-48.0	-50.2	15.0	0.00e+00	0	57	0	1104150528	58	4720
2026-01-01 09:21:52.92	337.72	24.60	-48.2	-50.4	14.8	0.00e+00	0	57	0	1106247680	58	4833
2026-01-01 09:21:53.92	337.68	24.45	-48.0	-50.2	15.0	0.00e+00	0	57	0	1108344832	58	4747
2026-01-01 09:21:54.91	337.64	24.30	-48.1	-50.4	14.9	7.00e-07	0	57	0	1109393408	58	4835
2026-01-01 09:21:55.90	337.61	24.15	-48.1	-50.3	14.9	0.00e+00	0	57	0	1111490560	58	4792
2026-01-01 09:21:56.89	337.57	24.00	-48.1	-50.4	14.8	0.00e+00	0	57	0	1113587712	58	4847
2026-01-01 09:21:57.88	337.54	23.85	-48.2	-50.4	14.8	7.00e-07	0	57	0	1115684864	58	4837
2026-01-01 09:21:58.87	337.50	23.70	-48.3	-50.5	14.7	0.00e+00	0	57	0	1116733440	58	4922
2026-01-01 09:21:59.86	337.47	23.55	-48.5	-50.9	14.4	0.00e+00	0	57	0	1118830592	58	5104
2026-01-01 09:22:00.85	337.43	23.40	-48.4	-50.8	14.4	0.00e+00	0	57	0	1120927744	58	5068
2026-01-01 09:22:01.83	337.40	23.26	-48.4	-50.7	14.5	2.20e-06	0	57	0	1123024896	58	5021
2026-01-01 09:22:02.82	337.37	23.11	-48.5	-50.9	14.3	1.50e-06	0	57	0	1124073472	58	5141
2026-01-01 09:22:03.81	337.33	22.97	-48.4	-50.7	14.4	7.00e-07	0	57	0	1126170624	58	5027
2026-01-01 09:22:04.79	337.30	22.83	-48.4	-50.7	14.4	0.00e+00	0	57	0	1128267776	58	5014
2026-01-01 09:22:05.79	337.27	22.68	-48.1	-50.4	14.7	7.00e-07	0	57	0	1130364928	58	4854
2026-01-01 09:22:06.77	337.24	22.54	-48.3	-50.6	14.5	0.00e+00	0	57	0	1132462080	58	4947
2026-01-01 09:22:07.76	337.21	22.40	-48.2	-50.7	14.4	0.00e+00	0	57	0	1133510656	58	4992
2026-01-01 09:22:08.75	337.18	22.26	-48.4	-50.7	14.4	0.00e+00	0	57	0	1135607808	58	5007
2026-01-01 09:22:09.74	337.14	22.12	-48.3	-50.9	14.1	3.80e-06	0	57	0	1137704960	58	5103
2026-01-01 09:22:10.74	337.11	21.98	-48.6	-51.2	13.7	3.80e-06	0	57	0	1139802112	59	5001
2026-01-01 09:22:11.72	337.08	21.84	-48.7	-51.4	13.5	6.80e-06	0	57	0	1140850688	59	5131
2026-01-01 09:22:12.71	337.05	21.71	-48.9	-51.8	12.9	2.59e-05	0	57	0	1142947840	59	5397
2026-01-01 09:22:13.69	337.02	21.57	-48.9	-52.1	12.6	9.38e-05	0	57	0	1145044992	59	5583
2026-01-01 09:22:14.68	336.99	21.43	-49.2	-52.6	12.0	1.35e-04	0	57	0	1147142144	60	5530
2026-01-01 09:22:15.67	336.97	21.30	-49.3	-52.8	11.8	5.07e-04	0	57	0	1148190720	60	5685
2026-01-01 09:22:16.66	336.94	21.16	-49.4	-53.1	11.4	8.32e-04	0	57	0	1150287872	60	5875
2026-01-01 09:22:17.65	336.91	21.03	-49.4	-53.2	11.2	1.47e-03	0	57	0	1152385024	60	5987
2026-01-01 09:22:18.64	336.88	20.90	-49.4	-53.3	11.1	1.39e-03	0	57	0	1154482176	60	6039
2026-01-01 09:22:19.62	336.85	20.77	-49.5	-53.5	10.8	2.72e-03	0	57	0	1155530752	60	6167
2026-01-01 09:22:20.61	336.82	20.63	-49.5	-53.5	10.8	2.29e-03	0	57	0	1157627904	60	6192
2026-01-01 09:22:21.60	336.80	20.50	-49.7	-53.8	10.4	3.50e-03	0	57	0	1159725056	61	6048
2026-01-01 09:22:22.60	336.77	20.37	-49.7	-54.0	10.3	4.01e-03	0	57	0	1161822208	61	6169
2026-01-01 09:22:23.59	336.74	20.24	-49.6	-53.8	10.5	4.98e-03	0	57	0	1163919360	61	6009
2026-01-01 09:22:24.58	336.72	20.11	-49.5	-53.4	11.0	2.69e-03	0	57	0	1164967936	61	5748
2026-01-01 09:22:25.57	336.69	19.98	-49.2	-52.9	11.6	1.29e-03	0	57	0	1167065088	61	5417
2026-01-01 09:22:26.56	336.66	19.86	-49.1	-52.4	12.0	4.68e-04	0	57	0	1169162240	61	5149
2026-01-01 09:22:27.55	336.64	19.73	-49.1	-52.4	12.1	2.82e-04	0	57	0	1171259392	61	5132
2026-01-01 09:22:28.54	336.61	19.60	-49.0	-52.2	12.4	1.91e-04	0	57	0	1172307968	60	5319
2026-01-01 09:22:29.52	336.59	19.48	-48.8	-51.9	12.8	1.55e-04	0	57	0	1174405120	60	5102
2026-01-01 09:22:30.51	336.56	19.35	-48.5	-51.3	13.4	2.28e-05	0	57	0	1176502272	60	4796
2026-01-01 09:22:31.50	336.54	19.23	-48.4	-51.0	13.8	3.80e-06	0	57	0	1178599424	59	4873
2026-01-01 09:22:32.49	336.51	19.10	-48.2	-50.6	14.2	3.00e-06	0	57	0	1180696576	59	4679
2026-01-01 09:22:33.47	336.49	18.98	-48.2	-50.5	14.4	1.50e-06	0	57	0	1181745152	59	4622
2026-01-01 09:22:34.45	336.46	18.86	-48.2	-50.5	14.4	2.20e-06	0	57	0	1183842304	59	4648
2026-01-01 09:22:35.45	336.44	18.74	-48.2	-50.5	14.5	1.50e-06	0	57	0	1185939456	59	4616
2026-01-01 09:22:36.44	336.41	18.61	-48.4	-50.7	14.2	1.50e-06	0	57	0	1188036608	59	4749
2026-01-01 09:22:37.43	336.39	18.49	-48.5	-51.0	14.0	1.50e-06	0	57	0	1189085184	59	4903
2026-01-01 09:22:38.43	336.37	18.37	-48.6	-51.1	13.9	2.20e-06	0	57	0	1191182336	59	4950
2026-01-01 09:22:39.42	336.34	18.25	-48.6	-51.2	13.8	4.50e-06	0	57	0	1193279488	59	4990
2026-01-01 09:22:40.42	336.32	18.13	-48.5	-51.1	14.0	2.20e-06	0	57	0	1195376640	59	4928
2026-01-01 09:22:41.41	336.30	18.01	-48.7	-51.2	13.9	3.00e-06	0	57	0	1196425216	59	4995
2026-01-01 09:22:42.40	336.28	17.89	-48.6	-51.1	13.9	7.00e-07	0	57	0	1198522368	59	4978
2026-01-01 09:22:43.39	336.25	17.78	-48.7	-51.3	13.8	3.80e-06	0	57	0	1200619520	59	5048
2026-01-01 09:22:44.38	336.23	17.66	-48.7	-51.3	13.7	8.30e-06	0	57	0	1202716672	59	5080
2026-01-01 09:22:45.37	336.21	17.54	-48.8	-51.4	13.6	4.50e-06	0	57	0	1204813824	59	5159
2026-01-01 09:22:46.36	336.19	17.43	-48.8	-51.4	13.6	7.60e-06	0	57	0	1205862400	59	5146
2026-01-01 09:22:47.35	336.17	17.31	-48.8	-51.6	13.4	1.14e-05	0	57	0	1207959552	59	5264
2026-01-01 09:22:48.34	336.14	17.20	-48.9	-51.7	13.3	1.14e-05	0	57	0	1210056704	59	5310
2026-01-01 09:22:49.32	336.12	17.08	-48.8	-51.7	13.4	1.14e-05	0	57	0	1212153856	59	5286
2026-01-01 09:22:50.32	336.10	16.97	-48.9	-51.7	13.3	1.37e-05	0	57	0	1213202432	59	5316
2026-01-01 09:22:51.31	336.08	16.86	-49.0	-51.8	13.2	1.90e-05	0	57	0	1215299584	59	5385
2026-01-01 09:22:52.31	336.06	16.74	-49.0	-51.8	13.3	1.75e-05	0	57	0	1217396736	59	5343
2026-01-01 09:22:53.30	336.04	16.63	-49.0	-51.9	13.2	2.28e-05	0	57	0	1219493888	59	5411
2026-01-01 09:22:54.30	336.02	16.52	-48.9	-51.9	13.1	3.89e-05	0	57	0	1221591040	59	5437
2026-01-01 09:22:55.29	336.00	16.41	-49.1	-51.9	13.1	2.97e-05	0	57	0	1222639616	59	5423
2026-01-01 09:22:56.28	335.98	16.29	-49.2	-52.2	12.8	3.20e-05	0	57	0	1224736768	60	5305
2026-01-01 09:22:57.27	335.96	16.18	-49.3	-52.4	12.6	7.32e-05	0	57	0	1226833920	60	5430
2026-01-01 09:22:58.27	335.94	16.07	-49.1	-52.1	12.9	6.63e-05	0	57	0	1228931072	60	5244
2026-01-01 09:22:59.26	335.92	15.96	-49.1	-52.2	12.8	5.34e-05	0	57	0	1229979648	60	5293
