passes_logs/2026/01/01/R3.0SM8_Murmansk_STILSPACE/R3.0SM8_Murmansk_STILSPACE__20260101_093818_AQUA_rec.log

#Pass ID: 20260101_093818_AQUA
#Satellite: AQUA
#Configuration: AQUA
#almurnet v.1.7.20240730
#Start time: 2026-01-01 09:38:20

#Version: 2.2.20231116
#Station: R3.0SM8_Murmansk_STILSPACE
#Location: 33.092731 lon 68.902999 lat
#TLE: 1 27424U 02022A   25364.96158943  .00001951  00000+0  40088-3 0  9998
#TLE: 2 27424  98.4061 326.1389 0001917  95.3187 305.7939 14.61780362258696

#Time	Az	El	Level	Level2	SNR	BER	BlckErr	Temp	State	Recorded	gain1	gain2
2026-01-01 09:38:20.61	112.30	3.14	-54.2	-74.2	3.8	7.48e-01	0	46	0	0	71	36207
2026-01-01 09:38:21.60	112.25	3.21	-54.0	-73.9	3.8	7.47e-01	0	46	104	0	70	37080
2026-01-01 09:38:22.59	112.20	3.27	-53.9	-73.8	3.8	7.49e-01	0	46	104	0	70	36555
2026-01-01 09:38:23.57	112.15	3.34	-53.7	-73.2	3.8	7.47e-01	0	46	104	0	70	34391
2026-01-01 09:38:24.56	112.10	3.41	-53.5	-72.6	3.8	7.44e-01	0	46	104	0	70	32005
2026-01-01 09:38:25.55	112.05	3.47	-53.4	-72.5	3.8	7.47e-01	0	46	104	0	70	31577
2026-01-01 09:38:26.54	112.00	3.54	-53.4	-72.5	3.8	7.41e-01	0	47	104	0	70	31795
2026-01-01 09:38:27.53	111.95	3.60	-53.4	-72.5	3.8	7.48e-01	0	46	104	0	70	31722
2026-01-01 09:38:28.51	111.90	3.67	-53.5	-72.5	3.8	7.45e-01	0	47	104	0	70	31495
2026-01-01 09:38:29.49	111.85	3.74	-53.4	-72.4	3.8	7.44e-01	0	47	104	0	70	31174
2026-01-01 09:38:30.48	111.80	3.80	-53.4	-72.3	3.8	7.43e-01	0	47	104	0	70	30873
2026-01-01 09:38:31.47	111.75	3.87	-53.4	-72.1	3.8	7.44e-01	0	47	104	0	70	30262
2026-01-01 09:38:32.46	111.69	3.94	-53.4	-71.9	3.8	7.42e-01	0	47	104	0	70	29568
2026-01-01 09:38:33.44	111.64	4.01	-53.4	-71.4	3.8	7.44e-01	0	47	104	0	70	27964
2026-01-01 09:38:34.42	111.59	4.07	-53.4	-70.5	4.0	7.40e-01	0	47	104	0	70	25089
2026-01-01 09:38:35.42	111.54	4.14	-53.4	-70.1	3.9	7.42e-01	0	47	104	0	70	24108
2026-01-01 09:38:36.40	111.49	4.21	-53.4	-68.7	4.6	7.24e-01	0	47	104	0	70	20502
2026-01-01 09:38:37.39	111.43	4.28	-53.3	-67.6	5.1	7.07e-01	3	47	0	0	70	18067
2026-01-01 09:38:38.37	111.38	4.34	-53.3	-66.8	5.6	6.94e-01	0	47	0	0	70	16406
2026-01-01 09:38:39.36	111.33	4.41	-53.2	-65.7	6.4	6.75e-01	94	47	0	1048576	70	14479
2026-01-01 09:38:40.35	111.27	4.48	-53.1	-64.6	7.4	6.56e-01	91	47	0	3145728	69	13490
2026-01-01 09:38:41.34	111.22	4.55	-53.1	-63.9	8.1	6.43e-01	72	47	0	4718592	69	12433
2026-01-01 09:38:42.33	111.16	4.62	-53.0	-62.9	9.1	6.32e-01	0	47	0	6815744	69	11060
2026-01-01 09:38:43.32	111.11	4.69	-52.9	-62.4	9.6	6.29e-01	0	47	0	8388608	69	10479
2026-01-01 09:38:44.31	111.05	4.76	-52.9	-61.9	10.1	6.26e-01	0	48	0	10485760	69	9934
2026-01-01 09:38:45.30	111.00	4.83	-52.7	-61.0	11.1	6.15e-01	0	48	0	12058624	69	8928
2026-01-01 09:38:46.29	110.94	4.90	-52.6	-60.3	11.8	6.13e-01	0	48	0	14155776	68	8726
2026-01-01 09:38:47.27	110.89	4.97	-52.5	-59.9	12.3	6.13e-01	0	48	0	16252928	68	8297
2026-01-01 09:38:48.26	110.83	5.04	-52.4	-59.6	12.6	6.09e-01	0	48	0	17825792	68	7993
2026-01-01 09:38:49.26	110.77	5.11	-52.5	-59.6	12.6	6.14e-01	0	48	0	19922944	68	8049
2026-01-01 09:38:50.25	110.72	5.18	-52.6	-60.0	12.2	6.12e-01	0	48	0	21495808	68	8404
2026-01-01 09:38:51.23	110.66	5.25	-52.4	-59.4	12.9	6.10e-01	0	48	0	23592960	68	7818
2026-01-01 09:38:52.22	110.60	5.32	-52.3	-59.1	13.2	6.07e-01	0	48	0	25165824	68	7568
2026-01-01 09:38:53.22	110.54	5.39	-52.3	-58.8	13.4	6.09e-01	0	48	0	27262976	68	7364
2026-01-01 09:38:54.20	110.49	5.46	-52.3	-58.9	13.4	6.08e-01	0	48	0	28835840	68	7412
2026-01-01 09:38:55.19	110.43	5.53	-52.0	-57.8	14.4	6.09e-01	0	48	0	30932992	67	6897
2026-01-01 09:38:56.18	110.37	5.60	-51.6	-56.6	15.6	6.08e-01	0	48	0	32505856	66	6387
2026-01-01 09:38:57.17	110.31	5.67	-51.2	-55.6	16.7	6.06e-01	0	48	0	34603008	66	5693
2026-01-01 09:38:58.16	110.25	5.75	-50.9	-54.8	17.4	6.06e-01	0	49	0	36175872	65	5514
2026-01-01 09:38:59.14	110.19	5.82	-50.5	-54.1	18.2	6.07e-01	0	49	0	38273024	64	5365
2026-01-01 09:39:00.13	110.13	5.89	-50.2	-53.6	18.6	6.06e-01	0	49	0	40370176	64	5068
2026-01-01 09:39:01.13	110.07	5.96	-50.0	-53.1	19.3	6.06e-01	0	49	0	41943040	63	5055
2026-01-01 09:39:02.12	110.01	6.04	-49.7	-52.6	19.7	6.05e-01	0	49	0	44040192	63	4792
2026-01-01 09:39:03.10	109.95	6.11	-49.7	-52.5	19.8	6.06e-01	0	49	0	45613056	62	4996
2026-01-01 09:39:04.09	109.88	6.18	-49.4	-52.0	20.3	6.05e-01	0	49	0	47710208	62	4727
2026-01-01 09:39:05.08	109.82	6.26	-49.4	-52.0	20.3	6.06e-01	0	49	0	49283072	62	4736
2026-01-01 09:39:06.07	109.76	6.33	-49.4	-52.0	20.3	6.07e-01	0	49	0	51380224	62	4750
2026-01-01 09:39:07.06	109.70	6.40	-49.5	-52.2	20.2	6.06e-01	0	49	0	52953088	62	4847
2026-01-01 09:39:08.04	109.63	6.48	-49.8	-52.7	19.7	6.07e-01	0	49	0	55050240	62	5118
2026-01-01 09:39:09.04	109.57	6.55	-49.7	-52.4	20.0	6.07e-01	0	49	0	56623104	62	4983
2026-01-01 09:39:10.03	109.51	6.62	-49.4	-52.0	20.4	6.06e-01	0	49	0	58720256	62	4730
2026-01-01 09:39:11.02	109.44	6.70	-49.3	-51.8	20.6	6.06e-01	0	49	0	60817408	62	4619
2026-01-01 09:39:12.01	109.38	6.77	-49.3	-51.8	20.5	6.06e-01	0	49	0	62390272	62	4638
2026-01-01 09:39:13.00	109.31	6.85	-49.2	-51.7	20.7	6.07e-01	0	49	0	64487424	61	4861
2026-01-01 09:39:13.99	109.25	6.92	-49.5	-52.1	20.3	6.07e-01	0	49	0	66060288	61	5094
2026-01-01 09:39:14.98	109.18	7.00	-49.3	-51.8	20.7	6.07e-01	0	49	0	68157440	61	4874
2026-01-01 09:39:15.97	109.12	7.07	-49.0	-51.4	21.0	6.08e-01	0	49	0	69730304	61	4680
2026-01-01 09:39:16.97	109.05	7.15	-49.0	-51.4	21.0	6.06e-01	0	50	0	71827456	61	4680
2026-01-01 09:39:17.95	108.98	7.23	-49.1	-51.4	21.0	6.06e-01	0	50	0	73400320	61	4703
2026-01-01 09:39:18.94	108.91	7.30	-49.2	-51.6	20.8	6.07e-01	0	50	0	75497472	61	4787
2026-01-01 09:39:19.93	108.85	7.38	-49.1	-51.5	20.9	6.07e-01	0	50	0	77070336	61	4756
2026-01-01 09:39:20.92	108.78	7.46	-49.1	-51.5	21.0	6.07e-01	0	50	0	79167488	61	4709
2026-01-01 09:39:21.91	108.71	7.53	-49.2	-51.7	20.8	6.06e-01	0	50	0	80740352	61	4836
2026-01-01 09:39:22.90	108.64	7.61	-49.1	-51.6	20.9	6.07e-01	0	50	0	82837504	61	4763
2026-01-01 09:39:23.88	108.57	7.69	-49.0	-51.3	21.2	6.05e-01	0	50	0	84934656	61	4625
2026-01-01 09:39:24.87	108.50	7.76	-49.1	-51.4	21.1	6.07e-01	0	50	0	86507520	61	4700
2026-01-01 09:39:25.86	108.43	7.84	-49.1	-51.5	21.0	6.06e-01	0	50	0	88604672	61	4753
2026-01-01 09:39:26.86	108.36	7.92	-49.1	-51.5	21.0	6.05e-01	0	50	0	90177536	61	4727
2026-01-01 09:39:27.85	108.29	8.00	-49.4	-51.9	20.7	6.09e-01	0	50	0	92274688	61	4935
2026-01-01 09:39:28.83	108.22	8.08	-49.2	-51.6	20.9	6.06e-01	0	50	0	93847552	61	4803
2026-01-01 09:39:29.82	108.15	8.15	-49.0	-51.3	21.2	6.08e-01	0	50	0	95944704	61	4621
2026-01-01 09:39:30.80	108.08	8.23	-48.8	-51.1	21.4	6.05e-01	0	50	0	97517568	61	4500
2026-01-01 09:39:31.78	108.00	8.31	-48.7	-50.9	21.6	6.04e-01	0	50	0	99614720	61	4434
2026-01-01 09:39:32.77	107.93	8.39	-48.7	-50.9	21.6	6.06e-01	0	50	0	101187584	61	4430
2026-01-01 09:39:33.76	107.86	8.47	-48.7	-50.9	21.6	6.06e-01	0	50	0	103284736	61	4409
2026-01-01 09:39:34.75	107.78	8.55	-48.8	-51.0	21.6	6.04e-01	0	50	0	104857600	61	4473
2026-01-01 09:39:35.74	107.71	8.63	-49.0	-51.3	21.4	6.05e-01	0	50	0	106954752	61	4601
2026-01-01 09:39:36.73	107.63	8.71	-48.9	-51.1	21.5	6.06e-01	0	50	0	108527616	61	4502
2026-01-01 09:39:37.71	107.56	8.79	-48.7	-50.8	21.7	6.08e-01	0	50	0	110624768	60	4648
2026-01-01 09:39:38.70	107.48	8.87	-48.6	-50.7	21.8	6.07e-01	0	51	0	112197632	60	4580
2026-01-01 09:39:39.68	107.41	8.95	-48.6	-50.7	21.8	6.05e-01	0	50	0	114294784	60	4598
2026-01-01 09:39:40.67	107.33	9.03	-48.7	-50.8	21.7	6.05e-01	0	50	0	116391936	60	4648
2026-01-01 09:39:41.67	107.25	9.11	-48.7	-50.8	21.8	6.07e-01	0	50	0	117964800	60	4622
2026-01-01 09:39:42.65	107.17	9.20	-48.5	-50.5	22.0	6.05e-01	0	50	0	120061952	60	4486
2026-01-01 09:39:43.64	107.10	9.28	-48.4	-50.5	22.1	6.05e-01	0	51	0	121634816	60	4456
2026-01-01 09:39:44.63	107.02	9.36	-48.4	-50.4	22.2	6.07e-01	0	51	0	123731968	60	4411
2026-01-01 09:39:45.62	106.94	9.44	-48.4	-50.4	22.2	6.06e-01	0	51	0	125304832	60	4427
2026-01-01 09:39:46.60	106.86	9.52	-48.6	-50.6	22.0	6.08e-01	0	51	0	127401984	60	4523
2026-01-01 09:39:47.60	106.78	9.61	-48.5	-50.6	22.0	6.06e-01	0	51	0	128974848	60	4512
2026-01-01 09:39:48.60	106.69	9.69	-48.5	-50.5	22.1	6.07e-01	0	51	0	131072000	60	4455
2026-01-01 09:39:49.59	106.61	9.78	-48.7	-50.8	21.9	6.06e-01	0	51	0	132644864	60	4606
2026-01-01 09:39:50.59	106.53	9.86	-48.6	-50.7	21.9	6.05e-01	0	51	0	134742016	60	4573
2026-01-01 09:39:51.57	106.45	9.94	-48.5	-50.6	22.1	6.07e-01	0	51	0	136839168	60	4502
2026-01-01 09:39:52.56	106.37	10.03	-48.5	-50.6	22.1	6.07e-01	0	51	0	138412032	60	4503
2026-01-01 09:39:53.56	106.28	10.11	-48.7	-50.8	21.9	6.05e-01	0	51	0	140509184	60	4602
2026-01-01 09:39:54.54	106.20	10.20	-48.7	-50.8	21.9	6.08e-01	0	51	0	142082048	60	4609
2026-01-01 09:39:55.53	106.11	10.28	-48.7	-50.8	21.9	6.07e-01	0	51	0	144179200	60	4632
2026-01-01 09:39:56.52	106.03	10.37	-48.7	-50.8	21.9	6.06e-01	0	51	0	145752064	60	4613
2026-01-01 09:39:57.51	105.94	10.45	-48.5	-50.6	22.1	6.07e-01	0	51	0	147849216	60	4503
2026-01-01 09:39:58.50	105.85	10.54	-48.4	-50.4	22.3	6.07e-01	0	51	0	149422080	60	4416
2026-01-01 09:39:59.50	105.77	10.63	-48.4	-50.3	22.3	6.08e-01	0	51	0	151519232	60	4381
2026-01-01 09:40:00.48	105.68	10.71	-48.5	-50.5	22.2	6.06e-01	0	51	0	153092096	60	4482
2026-01-01 09:40:01.47	105.59	10.80	-48.6	-50.6	22.1	6.06e-01	0	51	0	155189248	60	4513
2026-01-01 09:40:02.46	105.50	10.89	-48.5	-50.5	22.2	6.06e-01	0	51	0	157286400	60	4480
2026-01-01 09:40:03.45	105.41	10.97	-48.7	-50.7	22.0	6.05e-01	0	51	0	158859264	60	4592
2026-01-01 09:40:04.44	105.32	11.06	-48.7	-50.8	21.9	6.06e-01	0	51	0	160956416	60	4620
2026-01-01 09:40:05.43	105.23	11.15	-48.5	-50.4	22.2	6.06e-01	0	52	0	162529280	60	4440
2026-01-01 09:40:06.42	105.14	11.24	-48.3	-50.3	22.4	6.07e-01	0	52	0	164626432	60	4356
2026-01-01 09:40:07.41	105.05	11.33	-48.3	-50.2	22.5	6.06e-01	0	52	0	166199296	60	4309
2026-01-01 09:40:08.40	104.96	11.41	-48.2	-50.1	22.6	6.06e-01	0	52	0	168296448	60	4271
2026-01-01 09:40:09.39	104.87	11.50	-48.2	-50.1	22.6	6.05e-01	0	52	0	169869312	60	4276
2026-01-01 09:40:10.38	104.77	11.59	-48.3	-50.2	22.5	6.08e-01	0	52	0	171966464	60	4318
2026-01-01 09:40:11.37	104.68	11.68	-48.5	-50.4	22.6	6.05e-01	0	52	0	173539328	59	4699
2026-01-01 09:40:12.36	104.58	11.77	-48.5	-50.4	22.7	6.09e-01	0	52	0	175636480	59	4665
2026-01-01 09:40:13.35	104.49	11.86	-48.5	-50.4	22.7	6.06e-01	0	52	0	177209344	59	4675
2026-01-01 09:40:14.34	104.39	11.95	-48.7	-50.6	22.5	6.06e-01	0	52	0	179306496	59	4790
2026-01-01 09:40:15.33	104.29	12.04	-48.8	-50.8	22.3	6.05e-01	0	52	0	181403648	59	4879
2026-01-01 09:40:16.32	104.20	12.14	-48.7	-50.7	22.4	6.05e-01	0	52	0	182976512	59	4851
2026-01-01 09:40:17.31	104.10	12.23	-48.8	-50.7	22.4	6.04e-01	0	52	0	184549376	59	4866
2026-01-01 09:40:18.29	104.00	12.32	-48.9	-50.9	22.2	6.08e-01	0	52	0	186646528	59	4959
2026-01-01 09:40:19.28	103.90	12.41	-48.7	-50.8	22.0	6.06e-01	0	52	0	188743680	60	4611
2026-01-01 09:40:20.27	103.80	12.50	-48.8	-50.9	21.8	6.05e-01	0	52	0	190316544	60	4693
2026-01-01 09:40:21.25	103.70	12.59	-48.5	-50.5	22.2	6.06e-01	0	52	0	192413696	60	4484
2026-01-01 09:40:22.24	103.60	12.69	-48.4	-50.3	22.5	6.03e-01	0	52	0	193986560	60	4378
2026-01-01 09:40:23.23	103.50	12.78	-48.3	-50.2	22.5	6.07e-01	0	52	0	196083712	60	4338
2026-01-01 09:40:24.22	103.39	12.87	-48.4	-50.3	22.5	6.06e-01	0	52	0	197656576	60	4369
2026-01-01 09:40:25.21	103.29	12.97	-48.4	-50.3	22.5	6.03e-01	0	52	0	199753728	60	4370
2026-01-01 09:40:26.20	103.19	13.06	-48.5	-50.5	22.3	6.06e-01	0	52	0	201326592	60	4461
2026-01-01 09:40:27.19	103.08	13.16	-48.2	-50.1	22.7	6.08e-01	0	52	0	203423744	60	4284
2026-01-01 09:40:28.18	102.97	13.25	-48.5	-50.4	22.8	6.07e-01	0	52	0	204996608	59	4664
2026-01-01 09:40:29.16	102.87	13.34	-48.6	-50.6	22.5	6.06e-01	0	52	0	207093760	59	4771
2026-01-01 09:40:30.14	102.76	13.44	-48.5	-50.3	22.8	6.05e-01	0	52	0	208666624	59	4650
2026-01-01 09:40:31.14	102.65	13.54	-48.6	-50.5	22.6	6.05e-01	0	52	0	210763776	59	4751
2026-01-01 09:40:32.13	102.54	13.63	-48.7	-50.6	22.5	6.06e-01	0	53	0	212860928	59	4785
2026-01-01 09:40:33.12	102.43	13.73	-48.8	-50.8	22.3	6.05e-01	0	52	0	214433792	59	4899
2026-01-01 09:40:34.11	102.32	13.82	-48.7	-50.6	22.6	6.05e-01	0	53	0	216530944	59	4775
2026-01-01 09:40:35.09	102.21	13.92	-48.5	-50.4	22.7	6.08e-01	0	52	0	218103808	59	4681
2026-01-01 09:40:36.08	102.10	14.02	-48.6	-50.5	22.7	6.06e-01	0	53	0	220200960	59	4706
2026-01-01 09:40:37.07	101.99	14.11	-48.5	-50.4	22.8	6.08e-01	0	53	0	221773824	59	4665
2026-01-01 09:40:38.07	101.87	14.21	-48.8	-50.7	22.4	6.06e-01	0	53	0	223870976	59	4862
2026-01-01 09:40:39.06	101.76	14.31	-48.5	-50.3	22.8	6.08e-01	0	53	0	225443840	59	4646
2026-01-01 09:40:40.05	101.64	14.41	-48.3	-50.0	23.1	6.06e-01	0	53	0	227540992	59	4485
2026-01-01 09:40:41.04	101.53	14.51	-48.1	-49.9	23.3	6.04e-01	0	53	0	229113856	59	4404
2026-01-01 09:40:42.03	101.41	14.61	-48.1	-49.8	23.3	6.07e-01	0	53	0	231211008	59	4386
2026-01-01 09:40:43.02	101.29	14.71	-48.1	-49.9	23.3	6.07e-01	0	53	0	233308160	59	4392
2026-01-01 09:40:44.00	101.17	14.81	-48.1	-49.8	23.3	6.06e-01	0	53	0	234881024	59	4365
2026-01-01 09:40:45.00	101.05	14.91	-48.1	-49.8	23.3	6.06e-01	0	53	0	236978176	59	4376
2026-01-01 09:40:45.98	100.93	15.01	-48.3	-50.1	23.1	6.07e-01	0	53	0	238551040	59	4501
2026-01-01 09:40:46.98	100.81	15.11	-48.1	-49.8	23.4	6.05e-01	0	53	0	240648192	59	4352
2026-01-01 09:40:47.97	100.69	15.21	-47.9	-49.6	23.5	6.06e-01	0	53	0	242221056	59	4268
2026-01-01 09:40:48.96	100.56	15.31	-47.9	-49.6	23.5	6.06e-01	0	53	0	244318208	59	4274
2026-01-01 09:40:49.95	100.44	15.42	-47.9	-49.6	23.5	6.04e-01	0	53	0	245891072	59	4263
2026-01-01 09:40:50.94	100.32	15.52	-48.0	-49.7	23.5	6.06e-01	0	53	0	247988224	59	4316
2026-01-01 09:40:51.92	100.19	15.62	-48.0	-49.7	23.4	6.06e-01	0	53	0	249561088	59	4323
2026-01-01 09:40:52.91	100.06	15.72	-48.0	-49.7	23.4	6.05e-01	0	53	0	251658240	59	4330
2026-01-01 09:40:53.91	99.93	15.83	-48.1	-49.8	23.4	6.06e-01	0	53	0	253231104	59	4381
2026-01-01 09:40:54.90	99.81	15.93	-48.3	-50.0	23.2	6.04e-01	0	53	0	255328256	59	4491
2026-01-01 09:40:55.89	99.68	16.03	-48.2	-49.9	23.3	6.07e-01	0	53	0	257425408	59	4411
2026-01-01 09:40:56.89	99.54	16.14	-48.3	-50.1	23.1	6.03e-01	0	53	0	258998272	59	4500
2026-01-01 09:40:57.87	99.41	16.24	-48.3	-50.0	23.2	6.04e-01	0	53	0	261095424	59	4490
2026-01-01 09:40:58.86	99.28	16.35	-48.3	-50.1	23.1	6.08e-01	0	53	0	262668288	59	4500
2026-01-01 09:40:59.86	99.14	16.45	-48.4	-50.2	23.0	6.06e-01	0	53	0	264765440	59	4578
2026-01-01 09:41:00.84	99.01	16.56	-48.3	-50.1	23.1	6.05e-01	0	53	0	266338304	59	4534
2026-01-01 09:41:01.83	98.87	16.67	-48.2	-50.0	23.2	6.08e-01	0	53	0	268435456	59	4451
2026-01-01 09:41:02.82	98.74	16.77	-48.5	-60.0	3.8	7.47e-01	0	53	104	268959744	59	14118
2026-01-01 09:41:03.82	98.60	16.88	-48.7	-60.1	3.9	7.42e-01	0	53	104	268959744	59	14290
2026-01-01 09:41:04.81	98.46	16.99	-48.6	-60.0	3.8	7.46e-01	0	53	104	268959744	60	13338
2026-01-01 09:41:05.80	98.32	17.09	-48.8	-60.4	3.8	7.50e-01	0	53	104	268959744	60	13990
2026-01-01 09:41:06.80	98.18	17.20	-49.1	-60.9	3.9	7.47e-01	0	53	104	268959744	60	14759
2026-01-01 09:41:07.79	98.03	17.31	-49.6	-61.5	3.8	7.44e-01	0	53	104	268959744	61	14978
2026-01-01 09:41:08.77	97.89	17.42	-50.1	-62.2	3.9	7.43e-01	0	53	104	268959744	62	15393
2026-01-01 09:41:09.76	97.75	17.53	-50.3	-62.6	3.8	7.47e-01	0	53	104	268959744	62	16069
2026-01-01 09:41:10.75	97.60	17.64	-50.6	-62.9	3.9	7.43e-01	0	53	104	268959744	63	15647
2026-01-01 09:41:11.74	97.45	17.75	-50.8	-63.4	3.8	7.44e-01	0	53	104	268959744	63	16690
2026-01-01 09:41:12.73	97.30	17.86	-51.1	-63.8	3.9	7.41e-01	0	54	104	268959744	64	16455
2026-01-01 09:41:13.72	97.16	17.97	-51.5	-64.6	3.8	7.45e-01	0	54	104	268959744	65	17065
2026-01-01 09:41:14.71	97.00	18.08	-51.8	-65.3	3.9	7.41e-01	0	53	104	268959744	65	18458
2026-01-01 09:41:15.70	96.85	18.19	-52.2	-66.3	3.8	7.45e-01	0	53	104	268959744	66	19483
2026-01-01 09:41:16.70	96.70	18.30	-52.5	-66.9	3.9	7.44e-01	0	54	104	268959744	67	19771
2026-01-01 09:41:17.69	96.54	18.41	-52.8	-67.8	3.8	7.47e-01	0	54	104	268959744	67	21855
2026-01-01 09:41:18.67	96.39	18.52	-53.1	-68.5	3.8	7.47e-01	0	54	104	268959744	68	22498
2026-01-01 09:41:19.67	96.23	18.64	-53.3	-69.2	3.8	7.44e-01	0	54	104	268959744	68	24139
2026-01-01 09:41:20.67	96.07	18.75	-53.4	-69.7	3.8	7.41e-01	0	53	104	268959744	69	24181
2026-01-01 09:41:21.66	95.91	18.86	-53.5	-70.1	3.8	7.45e-01	0	54	104	268959744	69	25272
2026-01-01 09:41:22.65	95.75	18.98	-53.5	-69.8	3.9	7.45e-01	0	54	104	268959744	69	24681
2026-01-01 09:41:23.63	95.59	19.09	-53.4	-69.4	3.8	7.44e-01	0	54	104	268959744	69	23558
2026-01-01 09:41:24.63	95.43	19.20	-53.3	-69.1	3.8	7.42e-01	0	54	104	268959744	69	22638
2026-01-01 09:41:25.62	95.26	19.32	-53.2	-68.9	3.8	7.47e-01	0	54	104	268959744	69	22218
2026-01-01 09:41:26.62	95.10	19.43	-53.2	-68.9	3.8	7.44e-01	0	54	104	268959744	69	22093
2026-01-01 09:41:27.60	94.93	19.55	-53.2	-68.8	3.8	7.45e-01	0	54	104	268959744	69	21993
2026-01-01 09:41:28.59	94.76	19.66	-53.4	-69.5	3.8	7.47e-01	0	54	104	268959744	69	23686
2026-01-01 09:41:29.58	94.59	19.78	-53.6	-70.4	3.8	7.47e-01	0	54	104	268959744	69	26166
2026-01-01 09:41:30.56	94.43	19.90	-53.8	-71.3	3.8	7.43e-01	0	54	104	268959744	69	29022
2026-01-01 09:41:31.54	94.25	20.01	-53.9	-71.8	3.8	7.45e-01	0	54	104	268959744	69	30808
2026-01-01 09:41:32.53	94.08	20.13	-54.0	-72.5	3.8	7.47e-01	0	54	104	268959744	70	31523
2026-01-01 09:41:33.53	93.90	20.25	-54.0	-72.5	3.8	7.43e-01	0	54	104	268959744	70	31499
2026-01-01 09:41:34.51	93.73	20.36	-54.0	-72.2	3.8	7.44e-01	0	54	104	268959744	70	30608
2026-01-01 09:41:35.51	93.55	20.48	-54.0	-72.4	3.8	7.47e-01	0	54	104	268959744	70	31414
2026-01-01 09:41:36.48	93.37	20.60	-54.1	-72.7	3.8	7.49e-01	0	54	104	268959744	70	32414
2026-01-01 09:41:37.47	93.19	20.71	-54.1	-73.0	3.8	7.45e-01	0	54	104	268959744	70	33630
2026-01-01 09:41:38.46	93.01	20.83	-54.1	-73.4	3.8	7.46e-01	0	54	104	268959744	70	35119
2026-01-01 09:41:39.45	92.83	20.95	-54.2	-73.6	3.8	7.48e-01	0	54	104	268959744	70	36067
2026-01-01 09:41:40.44	92.64	21.07	-54.2	-73.7	3.8	7.45e-01	0	54	104	268959744	70	36337
2026-01-01 09:41:41.43	92.45	21.19	-54.1	-73.5	3.8	7.51e-01	0	54	104	268959744	70	35477
2026-01-01 09:41:42.42	92.26	21.31	-54.1	-73.1	3.8	7.47e-01	0	54	104	268959744	70	33727
2026-01-01 09:41:43.40	92.08	21.43	-54.0	-72.3	3.8	7.45e-01	0	54	104	268959744	70	31003
2026-01-01 09:41:44.39	91.88	21.55	-53.8	-71.2	3.8	7.46e-01	0	54	104	268959744	70	27337
2026-01-01 09:41:45.39	91.69	21.67	-53.5	-69.8	3.8	7.43e-01	0	54	104	268959744	70	23177
2026-01-01 09:41:46.38	91.49	21.79	-53.1	-68.4	3.8	7.42e-01	0	55	104	268959744	69	20824
2026-01-01 09:41:47.37	91.30	21.91	-52.7	-67.2	3.8	7.42e-01	0	55	104	268959744	69	18235
2026-01-01 09:41:48.34	91.10	22.03	-52.6	-66.9	3.8	7.47e-01	0	54	104	268959744	68	18521
2026-01-01 09:41:49.34	90.90	22.16	-52.5	-66.6	3.8	7.47e-01	0	55	104	268959744	68	18062
2026-01-01 09:41:50.33	90.70	22.28	-52.5	-66.7	3.8	7.45e-01	0	55	104	268959744	68	18107
2026-01-01 09:41:51.32	90.50	22.40	-52.5	-66.8	3.8	7.44e-01	0	55	104	268959744	68	18342
2026-01-01 09:41:52.31	90.29	22.52	-52.6	-66.9	3.8	7.44e-01	0	55	104	268959744	68	18715
2026-01-01 09:41:53.30	90.08	22.65	-52.5	-66.8	3.8	7.43e-01	0	55	104	268959744	68	18391
2026-01-01 09:41:54.28	89.88	22.77	-52.1	-65.7	3.8	7.41e-01	0	55	104	268959744	67	17182
2026-01-01 09:41:55.27	89.67	22.89	-51.6	-64.7	3.8	7.46e-01	0	55	104	268959744	66	16313
2026-01-01 09:41:56.27	89.45	23.02	-51.0	-63.8	3.8	7.45e-01	0	55	104	268959744	65	15484
2026-01-01 09:41:57.25	89.24	23.14	-50.6	-63.0	3.8	7.46e-01	0	55	104	268959744	64	14953
2026-01-01 09:41:58.24	89.03	23.26	-50.3	-62.6	3.8	7.43e-01	0	55	104	268959744	64	14298
2026-01-01 09:41:59.23	88.81	23.39	-50.8	-63.3	3.8	7.45e-01	0	55	104	268959744	64	15474
2026-01-01 09:42:00.23	88.59	23.51	-51.0	-63.7	3.8	7.45e-01	0	55	104	268959744	64	16128
2026-01-01 09:42:01.22	88.37	23.64	-51.3	-64.2	3.8	7.45e-01	0	55	104	268959744	64	17127
2026-01-01 09:42:02.21	88.14	23.76	-51.6	-64.7	3.8	7.45e-01	0	55	104	268959744	65	17247
2026-01-01 09:42:03.19	87.92	23.89	-52.0	-65.5	3.8	7.46e-01	0	55	104	268959744	66	17847
2026-01-01 09:42:04.18	87.70	24.01	-52.3	-66.2	3.8	7.44e-01	0	55	104	268959744	66	19183
2026-01-01 09:42:05.17	87.47	24.14	-51.9	-65.4	3.8	7.44e-01	0	55	104	268959744	66	17516
2026-01-01 09:42:06.16	87.24	24.26	-51.6	-64.9	3.8	7.46e-01	0	55	104	268959744	66	16506
2026-01-01 09:42:07.15	87.00	24.39	-52.0	-65.7	3.8	7.44e-01	0	55	104	268959744	66	18117
2026-01-01 09:42:08.14	86.77	24.52	-52.4	-66.5	3.8	7.45e-01	0	55	104	268959744	66	19869
2026-01-01 09:42:09.13	86.53	24.64	-52.7	-67.3	3.8	7.45e-01	0	55	104	268959744	67	20743
2026-01-01 09:42:10.12	86.29	24.77	-53.1	-68.2	3.8	7.43e-01	0	55	104	268959744	68	21732
2026-01-01 09:42:11.12	86.05	24.90	-53.3	-69.1	3.8	7.44e-01	0	55	104	268959744	68	23866
2026-01-01 09:42:12.11	85.81	25.02	-53.4	-69.5	3.8	7.49e-01	0	55	104	268959744	69	23758
2026-01-01 09:42:13.11	85.56	25.15	-53.4	-69.2	3.8	7.46e-01	0	55	104	268959744	69	22964
2026-01-01 09:42:14.09	85.32	25.28	-53.3	-69.0	3.8	7.45e-01	0	55	104	268959744	69	22444
2026-01-01 09:42:15.08	85.07	25.40	-53.3	-68.9	3.8	7.50e-01	0	55	104	268959744	69	22182
2026-01-01 09:42:16.07	84.82	25.53	-53.3	-68.9	3.8	7.46e-01	0	55	104	268959744	69	22056
2026-01-01 09:42:17.06	84.57	25.66	-53.3	-68.9	3.8	7.45e-01	0	55	104	268959744	69	22149
2026-01-01 09:42:18.06	84.31	25.79	-53.4	-69.0	3.8	7.46e-01	0	55	104	268959744	69	22469
2026-01-01 09:42:19.05	84.05	25.91	-53.6	-70.1	3.8	7.43e-01	0	55	104	268959744	69	25550
2026-01-01 09:42:20.04	83.79	26.04	-53.8	-70.9	3.8	7.42e-01	0	55	104	268959744	69	27970
2026-01-01 09:42:21.03	83.53	26.17	-53.9	-71.7	3.8	7.47e-01	0	55	104	268959744	70	28716
2026-01-01 09:42:22.02	83.27	26.29	-54.0	-72.3	3.8	7.44e-01	0	55	104	268959744	70	30821
2026-01-01 09:42:23.01	83.00	26.42	-54.1	-72.9	3.8	7.46e-01	0	55	104	268959744	70	33093
2026-01-01 09:42:24.01	82.73	26.55	-54.1	-72.4	3.8	7.44e-01	0	55	104	268959744	70	31220
2026-01-01 09:42:25.00	82.46	26.68	-54.1	-72.6	3.8	7.44e-01	0	55	104	268959744	70	32170
2026-01-01 09:42:25.98	82.19	26.80	-54.2	-73.0	3.8	7.48e-01	0	55	104	268959744	70	33338
2026-01-01 09:42:26.97	81.91	26.93	-54.2	-73.3	3.8	7.43e-01	0	55	104	268959744	70	34558
2026-01-01 09:42:27.96	81.64	27.06	-54.3	-73.6	3.8	7.46e-01	0	55	104	268959744	70	35901
2026-01-01 09:42:28.94	81.36	27.18	-54.2	-73.3	3.8	7.45e-01	0	55	104	268959744	70	34703
2026-01-01 09:42:29.93	81.08	27.31	-54.1	-72.9	3.8	7.46e-01	0	55	104	268959744	70	33232
2026-01-01 09:42:30.92	80.79	27.44	-54.1	-72.6	3.8	7.45e-01	0	55	104	268959744	70	31917
2026-01-01 09:42:31.90	80.51	27.56	-54.0	-72.0	3.8	7.47e-01	0	55	104	268959744	70	29945
2026-01-01 09:42:32.89	80.22	27.69	-53.9	-71.4	3.8	7.46e-01	0	55	104	268959744	70	27771
2026-01-01 09:42:33.88	79.93	27.81	-53.7	-70.4	3.8	7.43e-01	0	55	104	268959744	70	24738
2026-01-01 09:42:34.87	79.63	27.94	-53.4	-69.2	3.8	7.45e-01	0	55	104	268959744	70	21710
2026-01-01 09:42:35.86	79.34	28.06	-53.0	-67.9	3.8	7.46e-01	0	55	104	268959744	69	19657
2026-01-01 09:42:36.85	79.04	28.19	-52.5	-66.6	3.8	7.44e-01	0	55	104	268959744	68	17968
2026-01-01 09:42:37.84	78.74	28.31	-52.3	-66.1	3.8	7.44e-01	0	55	104	268959744	68	17072
2026-01-01 09:42:38.83	78.43	28.44	-52.3	-66.0	3.8	7.45e-01	0	55	104	268959744	68	16886
2026-01-01 09:42:39.82	78.13	28.56	-52.2	-65.9	3.8	7.45e-01	0	55	104	268959744	68	16568
2026-01-01 09:42:40.81	77.82	28.69	-52.3	-66.0	3.8	7.47e-01	0	55	104	268959744	68	16780
2026-01-01 09:42:41.80	77.51	28.81	-52.4	-66.2	3.8	7.45e-01	0	55	104	268959744	68	17278
2026-01-01 09:42:42.80	77.19	28.94	-52.5	-66.6	3.8	7.44e-01	0	55	104	268959744	68	18050
2026-01-01 09:42:43.79	76.88	29.06	-52.2	-66.0	3.8	7.43e-01	0	55	104	268959744	68	16780
2026-01-01 09:42:44.78	76.56	29.18	-51.7	-65.0	3.8	7.43e-01	0	55	104	268959744	67	15785
2026-01-01 09:42:45.77	76.24	29.31	-51.2	-64.0	3.8	7.43e-01	0	55	104	268959744	66	14951
2026-01-01 09:42:46.76	75.91	29.43	-50.8	-63.2	3.8	7.45e-01	0	56	104	268959744	65	14508
2026-01-01 09:42:47.75	75.59	29.55	-50.3	-62.5	3.8	7.48e-01	0	56	104	268959744	64	14111
2026-01-01 09:42:48.74	75.26	29.67	-50.5	-62.7	3.8	7.49e-01	0	55	104	268959744	63	15335
2026-01-01 09:42:49.73	74.93	29.79	-50.9	-63.4	3.8	7.45e-01	0	56	104	268959744	63	16513
2026-01-01 09:42:50.72	74.59	29.91	-51.2	-64.1	3.8	7.42e-01	0	56	104	268959744	64	16950
2026-01-01 09:42:51.71	74.26	30.03	-51.6	-64.8	3.8	7.44e-01	0	56	104	268959744	65	17310
2026-01-01 09:42:52.70	73.92	30.15	-51.5	-64.5	3.8	7.45e-01	0	56	104	268959744	65	16816
2026-01-01 09:42:53.69	73.57	30.27	-51.1	-63.8	3.8	7.43e-01	0	55	104	268959744	65	15497
2026-01-01 09:42:54.67	73.23	30.39	-50.7	-62.9	3.8	7.45e-01	0	55	104	268959744	64	14709
2026-01-01 09:42:55.66	72.89	30.50	-50.2	-62.4	3.8	7.44e-01	0	56	104	268959744	64	13949
2026-01-01 09:42:56.64	72.54	30.62	-50.5	-62.7	3.8	7.39e-01	0	56	104	268959744	63	15262
2026-01-01 09:42:57.63	72.19	30.74	-51.0	-63.6	3.8	7.46e-01	0	56	104	268959744	64	16049
2026-01-01 09:42:58.62	71.83	30.85	-51.5	-64.5	3.8	7.46e-01	0	56	104	268959744	65	16837
2026-01-01 09:42:59.61	71.48	30.97	-52.0	-65.4	3.9	7.47e-01	0	56	104	268959744	66	17592
2026-01-01 09:43:00.60	71.12	31.08	-52.4	-66.5	3.9	7.43e-01	0	56	104	268959744	67	18830
2026-01-01 09:43:01.59	70.75	31.19	-52.8	-67.5	3.8	7.42e-01	0	56	104	268959744	67	21058
2026-01-01 09:43:02.58	70.39	31.30	-53.0	-67.8	3.8	7.47e-01	0	56	104	268959744	68	20691
2026-01-01 09:43:03.57	70.02	31.42	-52.9	-67.6	3.8	7.45e-01	0	56	104	268959744	68	20237
2026-01-01 09:43:04.56	69.65	31.53	-52.9	-67.6	3.8	7.42e-01	0	56	104	268959744	68	20244
2026-01-01 09:43:05.55	69.28	31.64	-52.9	-67.6	3.8	7.45e-01	0	56	104	268959744	68	20235
2026-01-01 09:43:06.54	68.90	31.74	-53.0	-67.8	3.8	7.45e-01	0	56	104	268959744	68	20582
2026-01-01 09:43:07.53	68.52	31.85	-53.1	-68.2	3.8	7.45e-01	0	56	104	268959744	68	21635
2026-01-01 09:43:08.52	68.14	31.96	-53.4	-69.2	3.8	7.43e-01	0	56	104	268959744	69	22921
2026-01-01 09:43:09.51	67.76	32.06	-53.7	-70.1	3.8	7.50e-01	0	56	104	268959744	69	25557
2026-01-01 09:43:10.50	67.37	32.17	-53.9	-71.0	3.8	7.44e-01	0	56	104	268959744	69	28127
2026-01-01 09:43:11.48	66.99	32.27	-54.0	-71.6	3.8	7.47e-01	0	56	104	268959744	70	28557
2026-01-01 09:43:12.47	66.60	32.37	-54.1	-72.2	3.8	7.45e-01	0	56	104	268959744	70	30555
2026-01-01 09:43:13.46	66.20	32.48	-54.1	-72.3	3.8	7.45e-01	0	56	104	268959744	70	30760
2026-01-01 09:43:14.45	65.81	32.58	-54.1	-72.1	3.8	7.45e-01	0	56	104	268959744	70	30225
2026-01-01 09:43:15.45	65.40	32.68	-54.2	-72.6	3.8	7.44e-01	0	56	104	268959744	70	32106
2026-01-01 09:43:16.44	65.00	32.77	-54.2	-72.7	3.8	7.44e-01	0	56	104	268959744	70	32548
2026-01-01 09:43:17.43	64.60	32.87	-54.1	-72.2	3.8	7.47e-01	0	56	104	268959744	70	30575
2026-01-01 09:43:18.42	64.19	32.97	-54.0	-71.7	3.8	7.45e-01	0	56	104	268959744	70	28891
2026-01-01 09:43:19.41	63.78	33.06	-53.9	-71.3	3.8	7.42e-01	0	56	104	268959744	70	27603
2026-01-01 09:43:20.40	63.37	33.15	-53.9	-71.0	3.8	7.44e-01	0	56	104	268959744	70	26494
2026-01-01 09:43:21.39	62.96	33.24	-53.8	-70.6	3.8	7.46e-01	0	56	104	268959744	70	25382
2026-01-01 09:43:22.38	62.54	33.33	-53.6	-69.8	3.8	7.45e-01	0	56	104	268959744	70	23062
2026-01-01 09:43:23.37	62.12	33.42	-53.4	-69.0	3.8	7.44e-01	0	56	104	268959744	70	21209
2026-01-01 09:43:24.36	61.70	33.51	-53.2	-68.3	3.8	7.46e-01	0	56	104	268959744	70	19610
2026-01-01 09:43:25.35	61.28	33.60	-52.8	-67.3	3.8	7.41e-01	0	56	104	268959744	69	18446
2026-01-01 09:43:26.34	60.86	33.68	-52.3	-66.0	3.8	7.48e-01	0	56	104	268959744	68	16737
2026-01-01 09:43:27.33	60.43	33.76	-51.8	-65.2	3.8	7.44e-01	0	56	104	268959744	67	16207
2026-01-01 09:43:28.33	59.99	33.85	-51.9	-65.2	3.8	7.43e-01	0	56	104	268959744	67	16245
2026-01-01 09:43:29.32	59.56	33.93	-52.0	-65.6	3.8	7.45e-01	0	56	104	268959744	67	16954
2026-01-01 09:43:30.31	59.13	34.00	-52.3	-66.1	3.8	7.45e-01	0	56	104	268959744	67	17979
2026-01-01 09:43:31.30	58.69	34.08	-52.4	-66.4	3.8	7.40e-01	0	56	104	268959744	67	18722
2026-01-01 09:43:32.29	58.25	34.15	-52.6	-67.0	3.8	7.45e-01	0	56	104	268959744	67	19925
2026-01-01 09:43:33.28	57.81	34.23	-52.8	-67.3	3.8	7.42e-01	0	56	104	268959744	67	20742
2026-01-01 09:43:34.26	57.38	34.30	-52.4	-66.4	3.8	7.43e-01	0	56	104	268959744	67	18581
2026-01-01 09:43:35.26	56.93	34.37	-52.0	-65.4	3.8	7.43e-01	0	56	104	268959744	67	16602
2026-01-01 09:43:36.25	56.48	34.44	-51.6	-64.7	3.8	7.45e-01	0	56	104	268959744	66	16130
2026-01-01 09:43:37.24	56.03	34.50	-51.2	-64.0	3.8	7.45e-01	0	56	104	268959744	66	14989
2026-01-01 09:43:38.23	55.58	34.57	-50.9	-63.5	3.8	7.43e-01	0	56	104	268959744	65	15037
2026-01-01 09:43:39.22	55.13	34.63	-51.3	-64.1	3.8	7.46e-01	0	56	104	268959744	65	16043
2026-01-01 09:43:40.21	54.68	34.69	-51.6	-64.7	3.8	7.44e-01	0	56	104	268959744	65	17255
2026-01-01 09:43:41.20	54.22	34.75	-51.2	-64.1	3.8	7.47e-01	0	56	104	268959744	65	16016
2026-01-01 09:43:42.19	53.77	34.80	-50.7	-63.1	3.8	7.46e-01	0	56	104	268959744	65	14321
2026-01-01 09:43:43.19	53.30	34.86	-50.4	-62.7	3.8	7.42e-01	0	56	104	268959744	64	14375
2026-01-01 09:43:44.18	52.84	34.91	-50.2	-62.3	3.8	7.43e-01	0	56	104	268959744	63	14616
2026-01-01 09:43:45.17	52.38	34.96	-50.0	-62.0	3.8	7.45e-01	0	56	104	268959744	63	14081
2026-01-01 09:43:46.16	51.92	35.01	-50.0	-61.9	3.8	7.45e-01	0	56	104	268959744	63	13935
2026-01-01 09:43:47.16	51.45	35.06	-50.5	-62.6	3.8	7.45e-01	0	56	104	268959744	63	15092
2026-01-01 09:43:48.15	50.98	35.10	-50.8	-63.4	3.8	7.44e-01	0	56	104	268959744	64	15640
2026-01-01 09:43:49.14	50.52	35.15	-51.3	-64.1	3.8	7.45e-01	0	56	104	268959744	64	17001
2026-01-01 09:43:50.12	50.05	35.19	-51.9	-65.2	3.8	7.47e-01	0	56	104	268959744	65	18264
2026-01-01 09:43:51.11	49.58	35.23	-52.3	-66.0	3.8	7.42e-01	0	56	104	268959744	66	18898
2026-01-01 09:43:52.10	49.11	35.26	-52.7	-67.2	3.8	7.46e-01	0	56	104	268959744	67	20304
2026-01-01 09:43:53.09	48.64	35.30	-52.7	-67.2	3.8	7.44e-01	0	56	104	268959744	67	20468
2026-01-01 09:43:54.08	48.17	35.33	-52.8	-67.2	3.8	7.43e-01	0	56	104	268959744	67	20432
2026-01-01 09:43:55.07	47.70	35.36	-52.9	-67.5	3.8	7.47e-01	0	56	104	268959744	67	21180
2026-01-01 09:43:56.06	47.22	35.39	-53.1	-68.0	3.8	7.47e-01	0	56	104	268959744	68	21161
2026-01-01 09:43:57.06	46.74	35.41	-53.3	-68.7	3.8	7.49e-01	0	56	104	268959744	68	23033
2026-01-01 09:43:58.04	46.27	35.44	-53.5	-69.3	3.8	7.43e-01	0	56	104	268959744	69	23209
2026-01-01 09:43:59.03	45.79	35.46	-53.7	-70.3	3.8	7.47e-01	0	56	104	268959744	69	26017
2026-01-01 09:44:00.02	45.32	35.48	-53.9	-71.1	3.8	7.44e-01	0	56	104	268959744	69	28400
2026-01-01 09:44:01.01	44.84	35.49	-54.0	-71.7	3.8	7.43e-01	0	56	104	268959744	70	28681
2026-01-01 09:44:02.00	44.36	35.51	-54.1	-72.1	3.8	7.46e-01	0	57	104	268959744	70	30093
2026-01-01 09:44:02.99	43.88	35.52	-54.1	-72.4	3.8	7.41e-01	0	56	104	268959744	70	31286
2026-01-01 09:44:03.98	43.40	35.53	-54.1	-71.9	3.8	7.45e-01	0	56	104	268959744	70	29670
2026-01-01 09:44:04.97	42.93	35.54	-54.0	-71.5	3.8	7.48e-01	0	56	104	268959744	70	28260
2026-01-01 09:44:05.97	42.44	35.55	-53.9	-71.0	3.8	7.47e-01	0	56	104	268959744	70	26592
2026-01-01 09:44:06.96	41.96	35.55	-53.8	-70.5	3.8	7.47e-01	0	56	104	268959744	70	25198
2026-01-01 09:44:07.96	41.48	35.55	-53.7	-70.2	3.8	7.44e-01	0	56	104	268959744	70	24219
2026-01-01 09:44:08.94	41.00	35.55	-53.7	-70.1	3.8	7.44e-01	0	56	104	268959744	70	23914
2026-01-01 09:44:09.94	40.52	35.55	-53.7	-70.1	3.8	7.45e-01	0	56	104	268959744	70	24004
2026-01-01 09:44:10.93	40.04	35.54	-53.7	-70.4	3.8	7.48e-01	0	56	104	268959744	70	24718
2026-01-01 09:44:11.92	39.56	35.53	-53.6	-69.7	3.8	7.47e-01	0	56	104	268959744	70	22852
2026-01-01 09:44:12.91	39.08	35.52	-53.4	-69.0	3.8	7.46e-01	0	56	104	268959744	70	21173
2026-01-01 09:44:13.90	38.60	35.51	-53.1	-68.0	3.8	7.44e-01	0	56	104	268959744	69	19950
2026-01-01 09:44:14.88	38.13	35.50	-52.6	-66.9	3.8	7.43e-01	0	56	104	268959744	68	18546
2026-01-01 09:44:15.87	37.65	35.48	-52.1	-65.7	3.9	7.48e-01	0	56	104	268959744	67	17260
2026-01-01 09:44:16.86	37.18	35.46	-51.6	-64.7	3.8	7.44e-01	0	56	104	268959744	66	16274
2026-01-01 09:44:17.85	36.70	35.44	-51.6	-64.7	3.8	7.41e-01	0	56	104	268959744	66	16211
2026-01-01 09:44:18.83	36.23	35.42	-51.7	-64.9	3.8	7.45e-01	0	56	104	268959744	66	16659
2026-01-01 09:44:19.82	35.75	35.39	-52.0	-65.5	3.8	7.45e-01	0	56	104	268959744	66	17751
2026-01-01 09:44:20.82	35.27	35.37	-52.2	-65.9	3.8	7.46e-01	0	56	104	268959744	66	18721
2026-01-01 09:44:21.81	34.80	35.34	-52.5	-66.7	3.8	7.44e-01	0	56	104	268959744	67	19228
2026-01-01 09:44:22.80	34.33	35.30	-52.3	-66.2	3.8	7.46e-01	0	56	104	268959744	67	18106
2026-01-01 09:44:23.79	33.86	35.27	-51.9	-65.3	3.8	7.42e-01	0	56	104	268959744	67	16422
2026-01-01 09:44:24.79	33.38	35.23	-51.5	-64.4	3.8	7.46e-01	0	56	104	268959744	66	15735
2026-01-01 09:44:25.77	32.92	35.20	-51.1	-63.8	3.8	7.43e-01	0	56	104	268959744	65	15450
2026-01-01 09:44:26.76	32.45	35.16	-50.6	-62.8	3.8	7.44e-01	0	56	104	268959744	64	14636
2026-01-01 09:44:27.75	31.98	35.11	-50.2	-62.4	3.8	7.44e-01	0	56	104	268959744	64	13940
2026-01-01 09:44:28.73	31.52	35.07	-50.5	-62.7	3.8	7.44e-01	0	56	104	268959744	63	15260
2026-01-01 09:44:29.71	31.06	35.02	-50.2	-62.4	3.8	7.44e-01	0	56	104	268959744	63	14806
2026-01-01 09:44:30.69	30.60	34.98	-49.9	-61.9	3.8	7.44e-01	0	56	104	268959744	63	14014
2026-01-01 09:44:31.68	30.14	34.93	-49.7	-61.4	3.8	7.46e-01	0	56	104	268959744	63	13133
2026-01-01 09:44:32.66	29.69	34.87	-49.5	-61.1	3.8	7.46e-01	0	56	104	268959744	62	13443
2026-01-01 09:44:33.65	29.23	34.82	-49.5	-61.2	3.8	7.43e-01	0	56	104	268959744	62	13674
2026-01-01 09:44:34.63	28.78	34.76	-49.7	-61.6	3.8	7.42e-01	0	56	104	268959744	62	14335
2026-01-01 09:44:35.62	28.32	34.71	-49.8	-61.6	3.8	7.44e-01	0	56	104	268959744	62	14342
2026-01-01 09:44:36.61	27.87	34.65	-50.0	-61.9	3.8	7.43e-01	0	56	104	268959744	62	14722
2026-01-01 09:44:37.60	27.41	34.58	-50.4	-62.6	3.8	7.43e-01	0	57	104	268959744	62	15948
2026-01-01 09:44:38.58	26.97	34.52	-50.8	-63.1	3.8	7.46e-01	0	56	104	268959744	63	16024
2026-01-01 09:44:39.56	26.53	34.46	-51.2	-64.0	3.8	7.45e-01	0	57	104	268959744	64	16760
2026-01-01 09:44:40.54	26.08	34.39	-51.7	-65.1	3.8	7.47e-01	0	57	104	268959744	65	18045
2026-01-01 09:44:41.54	25.64	34.32	-52.3	-66.6	3.8	7.44e-01	0	57	104	268959744	66	20247
2026-01-01 09:44:42.53	25.19	34.25	-52.7	-68.6	3.8	7.41e-01	0	56	104	268959744	67	24002
2026-01-01 09:44:43.52	24.75	34.18	-53.0	-70.3	3.8	7.46e-01	0	56	104	268959744	68	27490
2026-01-01 09:44:44.51	24.31	34.10	-53.2	-71.8	3.8	7.44e-01	0	57	104	268959744	68	32803
2026-01-01 09:44:45.50	23.88	34.03	-53.2	-72.3	3.8	7.44e-01	0	56	104	268959744	68	34535
2026-01-01 09:44:46.49	23.44	33.95	-53.1	-71.7	3.8	7.46e-01	0	56	104	268959744	68	32191
2026-01-01 09:44:47.48	23.01	33.87	-53.0	-70.9	3.8	7.44e-01	0	57	104	268959744	68	29549
2026-01-01 09:44:48.46	22.59	33.79	-53.0	-70.3	3.8	7.44e-01	0	57	104	268959744	68	27498
2026-01-01 09:44:49.45	22.16	33.71	-53.2	-70.6	3.8	7.43e-01	0	57	104	268959744	68	28487
2026-01-01 09:44:50.45	21.73	33.62	-53.4	-70.7	3.8	7.45e-01	0	57	104	268959744	69	27156
2026-01-01 09:44:51.44	21.31	33.54	-53.6	-71.0	3.8	7.42e-01	0	57	104	268959744	69	28152
2026-01-01 09:44:52.43	20.89	33.45	-53.8	-71.4	3.8	7.45e-01	0	56	104	268959744	69	29518
2026-01-01 09:44:53.43	20.46	33.36	-53.8	-71.2	3.8	7.45e-01	0	56	104	268959744	69	28969
2026-01-01 09:44:54.41	20.05	33.28	-53.7	-70.7	3.8	7.46e-01	0	57	104	268959744	69	27245
2026-01-01 09:44:55.40	19.64	33.18	-53.6	-70.6	3.8	7.48e-01	0	57	104	268959744	69	27034
2026-01-01 09:44:56.39	19.23	33.09	-53.5	-70.0	3.8	7.46e-01	0	57	104	268959744	69	24989
2026-01-01 09:44:57.39	18.81	33.00	-53.5	-69.4	3.8	7.46e-01	0	57	104	268959744	69	23494
2026-01-01 09:44:58.38	18.41	32.90	-53.4	-69.4	3.8	7.45e-01	0	57	104	268959744	69	23518
2026-01-01 09:44:59.37	18.00	32.81	-53.4	-69.3	3.8	7.41e-01	0	57	104	268959744	69	23308
2026-01-01 09:45:00.36	17.60	32.71	-53.4	-69.5	3.8	7.43e-01	0	57	104	268959744	69	23616
2026-01-01 09:45:01.35	17.20	32.61	-53.3	-69.2	3.8	7.45e-01	0	57	104	268959744	69	22827
2026-01-01 09:45:02.34	16.81	32.51	-52.9	-67.7	3.8	7.46e-01	0	57	104	268959744	69	19353
2026-01-01 09:45:03.34	16.41	32.41	-52.5	-66.4	3.8	7.44e-01	0	57	104	268959744	68	17639
2026-01-01 09:45:04.33	16.02	32.31	-51.9	-65.4	3.8	7.44e-01	0	57	104	268959744	67	16660
2026-01-01 09:45:05.32	15.63	32.20	-51.4	-64.4	3.8	7.49e-01	0	57	104	268959744	66	15754
2026-01-01 09:45:06.31	15.24	32.10	-50.8	-63.3	3.9	7.42e-01	0	57	104	268959744	65	14610
2026-01-01 09:45:07.30	14.86	31.99	-50.4	-62.7	3.8	7.47e-01	0	57	104	268959744	64	14446
2026-01-01 09:45:08.29	14.48	31.89	-50.6	-63.0	3.8	7.46e-01	0	57	104	268959744	64	14915
2026-01-01 09:45:09.29	14.10	31.78	-50.8	-63.3	3.8	7.45e-01	0	57	104	268959744	64	15458
2026-01-01 09:45:10.28	13.72	31.67	-51.0	-63.7	3.9	7.46e-01	0	57	104	268959744	64	16205
2026-01-01 09:45:11.28	13.34	31.56	-50.7	-63.0	3.8	7.39e-01	0	57	104	268959744	64	14989
2026-01-01 09:45:12.26	12.98	31.45	-50.4	-62.7	3.8	7.45e-01	0	57	104	268959744	64	14418
2026-01-01 09:45:13.25	12.61	31.34	-50.2	-62.5	3.8	7.43e-01	0	57	104	268959744	64	14153
2026-01-01 09:45:14.24	12.24	31.23	-49.8	-61.6	3.8	7.44e-01	0	57	104	268959744	63	13470
2026-01-01 09:45:15.22	11.88	31.12	-49.3	-60.8	3.8	7.43e-01	0	57	104	268959744	62	13071
2026-01-01 09:45:16.21	11.52	31.01	-49.0	-60.6	3.8	7.44e-01	0	56	104	268959744	61	13485
2026-01-01 09:45:17.20	11.17	30.89	-48.7	-60.2	3.8	7.45e-01	0	57	104	268959744	61	12834
2026-01-01 09:45:18.18	10.81	30.78	-48.6	-59.9	3.9	7.43e-01	0	57	104	268959744	60	13205
2026-01-01 09:45:19.17	10.46	30.66	-48.7	-60.1	3.8	7.45e-01	0	57	104	268959744	60	13503
2026-01-01 09:45:20.16	10.11	30.55	-48.7	-60.2	3.8	7.43e-01	0	57	104	268959744	60	13606
2026-01-01 09:45:21.15	9.77	30.43	-48.8	-60.3	3.8	7.43e-01	0	57	104	268959744	60	13796
2026-01-01 09:45:22.14	9.42	30.31	-49.0	-60.5	3.8	7.45e-01	0	57	104	268959744	60	14117
2026-01-01 09:45:23.13	9.08	30.19	-49.4	-61.2	3.8	7.45e-01	0	57	104	268959744	61	14530
2026-01-01 09:45:24.12	8.74	30.08	-49.8	-61.9	3.8	7.43e-01	0	56	104	268959744	61	15665
2026-01-01 09:45:25.12	8.40	29.95	-50.4	-62.6	3.8	7.41e-01	0	57	104	268959744	62	15944
2026-01-01 09:45:26.11	8.07	29.84	-50.7	-63.1	3.8	7.44e-01	0	57	104	268959744	63	16041
2026-01-01 09:45:27.10	7.73	29.71	-50.7	-62.9	3.8	7.45e-01	0	57	104	268959744	63	15712
2026-01-01 09:45:28.09	7.41	29.59	-50.8	-63.0	3.8	7.41e-01	0	57	104	268959744	63	15921
2026-01-01 09:45:29.07	7.08	29.47	-51.0	-63.7	3.8	7.45e-01	0	57	104	268959744	64	16251
2026-01-01 09:45:30.05	6.76	29.35	-51.4	-64.5	3.8	7.43e-01	0	57	104	268959744	64	17804
2026-01-01 09:45:31.04	6.44	29.23	-51.7	-65.1	3.8	7.45e-01	0	57	104	268959744	65	18053
2026-01-01 09:45:32.03	6.12	29.11	-52.0	-65.6	3.8	7.49e-01	0	57	104	268959744	66	17944
2026-01-01 09:45:33.02	5.81	28.99	-52.3	-66.2	3.8	7.43e-01	0	57	104	268959744	66	19197
2026-01-01 09:45:34.01	5.49	28.86	-52.7	-67.2	3.8	7.45e-01	0	57	104	268959744	67	20320
2026-01-01 09:45:35.00	5.18	28.74	-52.3	-66.3	3.8	7.43e-01	0	57	104	268959744	67	18461
2026-01-01 09:45:36.00	4.87	28.61	-52.0	-65.5	3.8	7.45e-01	0	57	104	268959744	67	16747
2026-01-01 09:45:36.99	4.56	28.49	-51.7	-64.8	3.8	7.45e-01	0	57	104	268959744	66	16486
2026-01-01 09:45:37.99	4.26	28.36	-51.3	-64.3	3.8	7.46e-01	0	57	104	268959744	66	15484
2026-01-01 09:45:38.98	3.96	28.24	-51.6	-64.6	3.8	7.47e-01	0	57	104	268959744	66	16023
2026-01-01 09:45:39.96	3.66	28.12	-52.0	-65.4	3.8	7.43e-01	0	57	104	268959744	66	17581
2026-01-01 09:45:40.95	3.36	27.99	-52.4	-66.6	3.8	7.43e-01	0	57	104	268959744	67	19119
2026-01-01 09:45:41.94	3.07	27.86	-52.8	-67.6	3.8	7.45e-01	0	57	104	268959744	67	21450
2026-01-01 09:45:42.93	2.78	27.74	-53.1	-68.3	3.8	7.45e-01	0	57	104	268959744	68	21845
2026-01-01 09:45:43.91	2.49	27.61	-52.8	-67.5	3.8	7.44e-01	0	57	104	268959744	68	20030
2026-01-01 09:45:44.90	2.21	27.49	-52.7	-67.4	3.8	7.44e-01	0	57	104	268959744	68	19627
2026-01-01 09:45:45.89	1.92	27.36	-52.6	-67.1	3.8	7.43e-01	0	57	104	268959744	68	19057
2026-01-01 09:45:46.88	1.64	27.24	-52.6	-66.8	3.8	7.47e-01	0	57	104	268959744	68	18494
2026-01-01 09:45:47.87	1.36	27.11	-52.5	-66.7	3.8	7.43e-01	0	57	104	268959744	68	18305
2026-01-01 09:45:48.86	1.08	26.98	-52.5	-66.6	3.8	7.46e-01	0	57	104	268959744	68	17991
2026-01-01 09:45:49.85	0.81	26.86	-52.4	-66.6	3.8	7.44e-01	0	57	104	268959744	68	18048
2026-01-01 09:45:50.84	0.53	26.73	-52.6	-67.1	3.8	7.46e-01	0	57	104	268959744	68	19078
2026-01-01 09:45:51.83	0.26	26.60	-52.3	-66.3	3.8	7.47e-01	0	57	104	268959744	68	17357
2026-01-01 09:45:52.82	360.00	26.48	-51.7	-64.9	3.8	7.46e-01	0	57	104	268959744	66	16512
2026-01-01 09:45:53.81	359.73	26.35	-51.1	-63.9	3.8	7.45e-01	0	57	104	268959744	65	15698
2026-01-01 09:45:54.80	359.47	26.22	-50.6	-63.1	3.8	7.43e-01	0	57	104	268959744	64	15171
2026-01-01 09:45:55.79	359.20	26.10	-50.2	-62.0	3.8	7.46e-01	0	57	104	268959744	63	14133
2026-01-01 09:45:56.78	358.95	25.97	-49.7	-61.4	3.8	7.45e-01	0	57	104	268959744	63	13254
2026-01-01 09:45:57.76	358.69	25.84	-49.8	-61.8	3.8	7.46e-01	0	57	104	268959744	62	14662
2026-01-01 09:45:58.74	358.44	25.72	-49.7	-61.6	3.8	7.49e-01	0	57	104	268959744	62	14269
2026-01-01 09:45:59.74	358.18	25.59	-49.6	-61.3	3.8	7.44e-01	0	57	104	268959744	62	13875
2026-01-01 09:46:00.73	357.93	25.46	-49.5	-61.4	3.8	7.43e-01	0	57	104	268959744	62	14001
2026-01-01 09:46:01.72	357.68	25.34	-49.6	-61.3	3.8	7.47e-01	0	57	104	268959744	62	13829
2026-01-01 09:46:02.71	357.44	25.21	-49.6	-61.4	3.8	7.43e-01	0	57	104	268959744	62	13910
2026-01-01 09:46:03.69	357.19	25.09	-49.5	-61.4	3.8	7.44e-01	0	57	104	268959744	62	13935
2026-01-01 09:46:04.68	356.95	24.96	-49.3	-60.9	3.8	7.45e-01	0	57	104	268959744	62	13179
2026-01-01 09:46:05.67	356.71	24.83	-49.2	-60.8	3.8	7.46e-01	0	57	104	268959744	62	13004
2026-01-01 09:46:06.67	356.47	24.71	-49.2	-61.1	3.8	7.48e-01	0	57	104	268959744	61	14283
2026-01-01 09:46:07.65	356.24	24.58	-49.2	-60.7	3.8	7.45e-01	0	57	104	268959744	61	13652
2026-01-01 09:46:08.64	356.00	24.46	-49.2	-61.0	3.8	7.45e-01	0	57	104	268959744	61	14129
2026-01-01 09:46:09.62	355.77	24.33	-49.3	-61.1	3.8	7.45e-01	0	57	104	268959744	61	14215
2026-01-01 09:46:10.62	355.54	24.21	-49.7	-61.5	3.8	7.44e-01	0	57	104	268959744	61	14954
2026-01-01 09:46:11.61	355.31	24.08	-50.2	-62.5	3.8	7.46e-01	0	57	104	268959744	62	15937
2026-01-01 09:46:12.59	355.09	23.96	-50.6	-62.7	3.8	7.45e-01	0	57	104	268959744	63	15400
2026-01-01 09:46:13.59	354.86	23.83	-50.9	-63.6	3.8	7.45e-01	0	57	104	268959744	64	15961
2026-01-01 09:46:14.58	354.64	23.71	-51.5	-64.6	3.8	7.45e-01	0	57	104	268959744	65	16998
2026-01-01 09:46:15.56	354.42	23.58	-51.9	-65.3	3.8	7.46e-01	0	57	104	268959744	66	17387
2026-01-01 09:46:16.55	354.20	23.46	-52.1	-66.1	3.8	7.43e-01	0	57	104	268959744	66	18969
2026-01-01 09:46:17.53	353.98	23.34	-52.1	-65.6	3.8	7.49e-01	0	57	104	268959744	66	17908
2026-01-01 09:46:18.52	353.77	23.21	-52.1	-65.9	3.8	7.45e-01	0	57	104	268959744	66	18558
2026-01-01 09:46:19.51	353.55	23.09	-52.1	-66.1	3.8	7.43e-01	0	57	104	268959744	66	18973
2026-01-01 09:46:20.50	353.34	22.96	-52.3	-66.2	3.8	7.46e-01	0	57	104	268959744	66	19300
2026-01-01 09:46:21.50	353.13	22.84	-52.5	-67.1	3.8	7.44e-01	0	57	104	268959744	67	20201
2026-01-01 09:46:22.49	352.92	22.72	-52.5	-66.7	3.8	7.46e-01	0	57	104	268959744	67	19328
2026-01-01 09:46:23.47	352.72	22.60	-52.1	-66.1	3.8	7.44e-01	0	57	104	268959744	67	18082
2026-01-01 09:46:24.47	352.51	22.47	-51.6	-65.0	3.8	7.46e-01	0	57	104	268959744	66	16717
2026-01-01 09:46:25.46	352.31	22.35	-51.2	-64.1	3.8	7.44e-01	0	57	104	268959744	66	15154
2026-01-01 09:46:26.44	352.11	22.23	-50.8	-63.6	3.8	7.42e-01	0	57	104	268959744	65	15204
2026-01-01 09:46:27.43	351.91	22.11	-50.4	-62.4	3.8	7.44e-01	0	57	104	268959744	64	13919
2026-01-01 09:46:28.42	351.71	21.99	-50.3	-62.8	3.8	7.47e-01	0	57	104	268959744	64	14682
2026-01-01 09:46:29.40	351.51	21.87	-50.7	-63.0	3.8	7.46e-01	0	57	104	268959744	64	14894
2026-01-01 09:46:30.38	351.32	21.75	-51.2	-64.4	3.8	7.46e-01	0	57	104	268959744	64	17496
2026-01-01 09:46:31.38	351.13	21.62	-51.6	-64.7	3.8	7.44e-01	0	57	104	268959744	65	17250
2026-01-01 09:46:32.37	350.93	21.50	-52.1	-66.3	3.8	7.43e-01	0	57	104	268959744	66	19436
2026-01-01 09:46:33.36	350.74	21.38	-52.2	-66.0	3.8	7.47e-01	0	57	104	268959744	66	18890
2026-01-01 09:46:34.34	350.56	21.27	-51.8	-65.6	3.8	7.45e-01	0	57	104	268959744	66	17952
2026-01-01 09:46:35.33	350.37	21.15	-51.7	-64.7	3.8	7.47e-01	0	57	104	268959744	66	16298
2026-01-01 09:46:36.33	350.18	21.03	-51.5	-64.9	3.8	7.45e-01	0	57	104	268959744	66	16558
2026-01-01 09:46:37.32	350.00	20.91	-51.4	-64.3	3.8	7.42e-01	0	57	104	268959744	66	15555
2026-01-01 09:46:38.31	349.82	20.79	-51.4	-64.8	3.8	7.45e-01	0	57	104	268959744	66	16335
2026-01-01 09:46:39.30	349.64	20.67	-51.5	-64.7	3.8	7.46e-01	0	57	104	268959744	66	16167
2026-01-01 09:46:40.29	349.46	20.55	-51.5	-65.0	3.8	7.46e-01	0	57	104	268959744	66	16717
2026-01-01 09:46:41.27	349.28	20.44	-51.2	-64.2	3.8	7.44e-01	0	57	104	268959744	66	15338
2026-01-01 09:46:42.27	349.10	20.32	-50.7	-63.3	3.8	7.47e-01	0	57	104	268959744	65	14631
2026-01-01 09:46:43.26	348.93	20.20	-50.2	-62.3	3.8	7.41e-01	0	57	104	268959744	64	13773
2026-01-01 09:46:44.26	348.75	20.08	-49.9	-62.0	3.8	7.46e-01	0	57	104	268959744	63	14164
2026-01-01 09:46:45.25	348.58	19.97	-49.5	-61.4	3.8	7.47e-01	0	57	104	268959744	62	13919
2026-01-01 09:46:46.24	348.41	19.85	-49.0	-60.9	3.8	7.44e-01	0	57	104	268959744	61	13958
2026-01-01 09:46:47.23	348.24	19.74	-48.5	-60.0	3.8	7.43e-01	0	57	104	268959744	60	13312
2026-01-01 09:46:48.22	348.07	19.62	-48.6	-60.1	3.8	7.46e-01	0	57	104	268959744	60	13443
2026-01-01 09:46:49.21	347.90	19.51	-49.0	-60.5	3.8	7.43e-01	0	57	104	268959744	60	14069
2026-01-01 09:46:50.19	347.74	19.39	-49.6	-61.5	3.8	7.42e-01	0	57	104	268959744	61	14936
2026-01-01 09:46:51.18	347.58	19.28	-50.3	-62.7	3.8	7.44e-01	0	57	104	268959744	62	16221
2026-01-01 09:46:52.17	347.41	19.17	-50.9	-63.7	3.8	7.46e-01	0	57	104	268959744	63	17106
2026-01-01 09:46:53.15	347.25	19.05	-51.2	-64.7	3.8	7.46e-01	0	57	104	268959744	64	18097
2026-01-01 09:46:54.15	347.09	18.94	-51.2	-64.5	3.8	7.44e-01	0	57	104	268959744	64	17828
2026-01-01 09:46:55.14	346.93	18.83	-51.4	-65.3	3.8	7.40e-01	0	57	104	268959744	65	18306
2026-01-01 09:46:56.13	346.77	18.71	-51.7	-66.3	3.8	7.49e-01	0	57	104	268959744	65	20563
2026-01-01 09:46:57.12	346.62	18.60	-52.1	-67.5	3.8	7.44e-01	0	57	104	268959744	66	22414
2026-01-01 09:46:58.11	346.46	18.49	-52.2	-68.6	3.8	7.45e-01	0	57	104	268959744	66	25290
2026-01-01 09:46:59.10	346.31	18.38	-51.5	-66.3	3.8	7.45e-01	0	57	104	268959744	66	19482
2026-01-01 09:47:00.09	346.16	18.27	-51.3	-65.9	3.8	7.48e-01	0	57	104	268959744	66	18723
2026-01-01 09:47:01.08	346.00	18.16	-51.5	-66.1	3.8	7.41e-01	0	57	104	268959744	66	18978
2026-01-01 09:47:02.07	345.85	18.05	-51.5	-66.1	3.8	7.44e-01	0	57	104	268959744	66	19006
2026-01-01 09:47:03.07	345.70	17.93	-51.4	-57.7	5.1	7.04e-01	14	57	104	268959744	66	7266
2026-01-01 09:47:04.06	345.56	17.82	-51.9	-58.7	13.0	6.07e-01	0	57	0	524288	66	8154
2026-01-01 09:47:05.05	345.41	17.72	-52.3	-61.1	10.5	6.17e-01	0	57	0	2621440	66	10715
2026-01-01 09:47:06.04	345.26	17.61	-52.4	-62.2	9.4	6.27e-01	0	57	0	4194304	67	11422
2026-01-01 09:47:07.03	345.12	17.50	-52.5	-64.2	7.2	6.61e-01	91	57	0	6291456	67	14378
2026-01-01 09:47:08.02	344.97	17.39	-52.5	-64.1	7.3	6.57e-01	92	57	0	8388608	67	14265
2026-01-01 09:47:09.01	344.83	17.28	-52.3	-64.0	7.1	6.61e-01	92	57	0	9961472	67	14132
2026-01-01 09:47:09.99	344.69	17.17	-52.2	-62.0	9.3	6.29e-01	0	57	0	12058624	67	11230
2026-01-01 09:47:10.98	344.55	17.07	-52.1	-60.5	10.9	6.13e-01	0	57	0	13631488	67	9393
2026-01-01 09:47:11.97	344.41	16.96	-51.7	-58.4	13.1	6.07e-01	0	57	0	15728640	67	7444
2026-01-01 09:47:12.95	344.28	16.85	-51.5	-57.4	14.3	6.05e-01	0	57	0	17301504	66	6972
2026-01-01 09:47:13.93	344.14	16.75	-51.3	-56.6	15.1	6.05e-01	0	57	0	19398656	65	6777
2026-01-01 09:47:14.92	344.01	16.64	-51.4	-56.9	14.9	6.04e-01	0	57	0	20971520	65	7016
2026-01-01 09:47:15.91	343.87	16.54	-51.3	-56.6	15.2	6.03e-01	0	57	0	23068672	65	6739
2026-01-01 09:47:16.90	343.74	16.43	-50.5	-54.6	17.0	6.03e-01	0	57	0	24641536	64	5708
2026-01-01 09:47:17.89	343.60	16.33	-50.0	-53.4	18.4	6.03e-01	0	57	0	26738688	63	5268
2026-01-01 09:47:18.89	343.47	16.22	-50.1	-53.5	18.4	6.04e-01	0	57	0	28311552	63	5312
2026-01-01 09:47:19.87	343.34	16.12	-50.3	-53.9	17.9	6.02e-01	0	57	0	30408704	63	5588
2026-01-01 09:47:20.86	343.21	16.02	-50.8	-55.3	16.6	6.01e-01	0	57	0	31981568	63	6531
2026-01-01 09:47:21.85	343.08	15.91	-50.4	-54.5	17.2	6.04e-01	0	57	0	34078720	64	5636
2026-01-01 09:47:22.83	342.96	15.81	-50.2	-54.0	17.8	6.03e-01	0	57	0	35651584	63	5629
2026-01-01 09:47:23.82	342.83	15.71	-50.4	-54.5	17.1	6.03e-01	0	57	0	37748736	63	5988
2026-01-01 09:47:24.81	342.70	15.60	-50.7	-55.3	16.4	6.04e-01	0	57	0	39845888	63	6530
2026-01-01 09:47:25.80	342.58	15.50	-50.8	-55.8	15.6	6.05e-01	0	57	0	41418752	63	6916
2026-01-01 09:47:26.79	342.45	15.40	-50.9	-56.3	15.1	6.05e-01	0	57	0	43515904	64	6917
2026-01-01 09:47:27.78	342.33	15.30	-51.0	-56.9	14.2	6.05e-01	0	57	0	45088768	64	7451
2026-01-01 09:47:28.76	342.21	15.20	-51.2	-58.1	12.9	6.06e-01	0	57	0	47185920	64	8477
2026-01-01 09:47:29.75	342.09	15.10	-51.3	-59.2	11.5	6.12e-01	0	57	0	48758784	64	9629
2026-01-01 09:47:30.72	341.97	15.00	-51.3	-60.0	10.5	6.17e-01	0	57	0	50855936	64	10629
2026-01-01 09:47:31.72	341.85	14.90	-51.3	-60.8	9.5	6.25e-01	0	57	0	52428800	64	11621
2026-01-01 09:47:32.71	341.73	14.80	-51.2	-61.6	8.6	6.38e-01	5	57	0	54525952	64	12708
2026-01-01 09:47:33.70	341.61	14.70	-51.2	-62.3	7.8	6.50e-01	92	57	0	56098816	64	13742
2026-01-01 09:47:34.69	341.50	14.60	-51.1	-63.3	6.7	6.67e-01	91	57	0	58195968	64	15498
2026-01-01 09:47:35.68	341.38	14.50	-51.2	-63.5	6.5	6.73e-01	91	57	0	59768832	64	15924
2026-01-01 09:47:36.67	341.26	14.40	-51.2	-64.2	5.8	6.88e-01	75	57	0	61865984	64	17231
2026-01-01 09:47:37.66	341.15	14.30	-51.1	-65.2	5.2	7.03e-01	28	57	0	62390272	64	19230
2026-01-01 09:47:38.64	341.04	14.21	-51.0	-65.6	4.9	7.12e-01	0	57	104	62390272	64	20132
2026-01-01 09:47:39.64	340.92	14.11	-51.1	-66.7	4.0	7.40e-01	0	57	104	62390272	64	22999
2026-01-01 09:47:40.63	340.81	14.01	-51.1	-66.4	4.5	7.22e-01	0	57	104	62390272	64	22249
2026-01-01 09:47:41.61	340.70	13.92	-51.0	-67.1	4.2	7.45e-01	0	57	104	62390272	64	24056
2026-01-01 09:47:42.61	340.59	13.82	-50.9	-67.7	3.9	7.35e-01	0	57	104	62390272	64	25704
2026-01-01 09:47:43.59	340.48	13.72	-50.8	-68.2	4.0	7.38e-01	0	57	104	62390272	64	27233
2026-01-01 09:47:44.58	340.37	13.63	-50.7	-68.0	3.9	7.45e-01	0	57	104	62390272	64	26716
2026-01-01 09:47:45.57	340.26	13.53	-50.6	-68.3	3.8	7.44e-01	0	57	104	62390272	64	27534
2026-01-01 09:47:46.56	340.16	13.44	-50.4	-67.9	3.9	7.44e-01	0	57	104	62390272	64	26206
2026-01-01 09:47:47.55	340.05	13.34	-50.3	-67.3	4.0	7.37e-01	0	57	104	62390272	64	24465
2026-01-01 09:47:48.55	339.94	13.25	-50.3	-67.6	3.8	7.46e-01	0	57	104	62390272	63	26985
2026-01-01 09:47:49.54	339.84	13.15	-50.1	-68.1	3.8	7.46e-01	0	57	104	62390272	63	28542
2026-01-01 09:47:50.52	339.73	13.06	-50.0	-68.4	3.8	7.45e-01	0	57	104	62390272	63	29555
2026-01-01 09:47:51.51	339.63	12.96	-49.9	-68.8	3.8	7.46e-01	0	57	104	62390272	63	30838
2026-01-01 09:47:52.50	339.53	12.87	-49.9	-69.2	3.8	7.45e-01	0	57	104	62390272	63	32219
2026-01-01 09:47:53.50	339.43	12.78	-49.8	-69.4	3.8	7.45e-01	0	57	104	62390272	63	33208
2026-01-01 09:47:54.48	339.32	12.69	-49.8	-69.5	3.8	7.46e-01	0	57	104	62390272	63	33356
2026-01-01 09:47:55.47	339.22	12.59	-49.8	-69.4	3.8	7.46e-01	0	57	104	62390272	63	33234
2026-01-01 09:47:56.47	339.12	12.50	-49.8	-69.2	3.8	7.42e-01	0	57	104	62390272	63	32468
2026-01-01 09:47:57.46	339.02	12.41	-49.8	-68.7	3.8	7.43e-01	0	58	104	62390272	63	30474
2026-01-01 09:47:58.45	338.93	12.32	-49.9	-67.4	3.9	7.44e-01	0	57	104	62390272	63	26306
2026-01-01 09:47:59.43	338.83	12.23	-50.1	-64.6	4.9	7.11e-01	0	57	104	62390272	63	18993
2026-01-01 09:48:00.42	338.73	12.14	-50.3	-62.8	6.4	6.77e-01	92	57	0	524288	63	15436
2026-01-01 09:48:01.41	338.63	12.04	-50.5	-60.9	8.4	6.39e-01	17	57	0	2097152	63	12510
2026-01-01 09:48:02.40	338.54	11.95	-50.8	-59.1	10.9	6.13e-01	0	57	0	4194304	63	10086
2026-01-01 09:48:03.39	338.44	11.86	-50.8	-57.3	13.4	6.04e-01	0	57	0	5767168	64	7737
2026-01-01 09:48:04.38	338.35	11.77	-50.8	-56.2	15.2	6.04e-01	0	57	0	7864320	64	6854
2026-01-01 09:48:05.36	338.26	11.69	-50.7	-55.1	16.4	6.04e-01	0	57	0	9961472	64	6060
2026-01-01 09:48:06.36	338.16	11.60	-50.6	-54.6	17.3	6.00e-01	0	57	0	11534336	64	5709
2026-01-01 09:48:07.35	338.07	11.51	-50.7	-54.5	17.7	6.04e-01	0	57	0	13631488	64	5624
2026-01-01 09:48:08.34	337.98	11.42	-50.6	-54.3	17.8	6.02e-01	0	57	0	15204352	64	5522
2026-01-01 09:48:09.32	337.89	11.33	-50.6	-54.2	18.1	6.03e-01	0	57	0	17301504	63	5782
2026-01-01 09:48:10.31	337.79	11.24	-50.6	-54.2	18.1	6.03e-01	0	57	0	18874368	63	5762
2026-01-01 09:48:11.30	337.70	11.15	-50.5	-54.0	18.2	6.03e-01	0	57	0	20971520	63	5630
2026-01-01 09:48:12.30	337.61	11.07	-50.5	-54.0	18.3	6.02e-01	0	57	0	22544384	63	5596
2026-01-01 09:48:13.29	337.52	10.98	-50.4	-53.8	18.5	6.03e-01	0	57	0	24641536	63	5494
2026-01-01 09:48:14.28	337.44	10.89	-50.3	-53.6	18.8	6.01e-01	0	57	0	26214400	63	5377
2026-01-01 09:48:15.26	337.35	10.81	-50.3	-53.6	18.9	6.04e-01	0	57	0	28311552	63	5343
2026-01-01 09:48:16.25	337.26	10.72	-50.2	-53.4	18.9	6.03e-01	0	57	0	29884416	63	5272
2026-01-01 09:48:17.24	337.18	10.63	-50.5	-53.9	18.5	6.02e-01	0	57	0	31981568	63	5547
2026-01-01 09:48:18.22	337.09	10.55	-50.6	-54.2	18.1	6.02e-01	0	57	0	34078720	63	5749
2026-01-01 09:48:19.22	337.00	10.46	-50.3	-53.6	18.8	6.03e-01	0	57	0	35651584	63	5399
2026-01-01 09:48:20.20	336.92	10.38	-50.0	-53.0	19.4	6.02e-01	0	57	0	37748736	62	5284
2026-01-01 09:48:21.20	336.83	10.29	-49.7	-52.4	19.9	6.04e-01	0	57	0	39321600	62	4955
2026-01-01 09:48:22.19	336.75	10.21	-49.4	-52.0	20.4	6.00e-01	0	57	0	41418752	62	4716
2026-01-01 09:48:23.17	336.67	10.12	-49.2	-51.7	20.7	6.04e-01	0	57	0	42991616	61	4840
2026-01-01 09:48:24.17	336.58	10.04	-49.1	-51.5	21.0	6.03e-01	0	57	0	45088768	61	4715
2026-01-01 09:48:25.16	336.50	9.95	-49.0	-51.3	21.1	6.03e-01	0	57	0	46661632	61	4632
2026-01-01 09:48:26.15	336.42	9.87	-48.8	-51.1	21.2	6.04e-01	0	57	0	48758784	60	4778
2026-01-01 09:48:27.13	336.34	9.79	-48.8	-51.1	21.3	6.03e-01	0	57	0	50331648	60	4807
2026-01-01 09:48:28.13	336.26	9.70	-48.9	-51.2	21.2	6.03e-01	0	57	0	52428800	60	4868
2026-01-01 09:48:29.11	336.18	9.62	-49.1	-51.5	20.8	6.01e-01	0	57	0	54001664	60	5012
2026-01-01 09:48:30.09	336.10	9.54	-49.0	-51.4	21.0	6.05e-01	0	57	0	56098816	60	4935
2026-01-01 09:48:31.07	336.02	9.46	-48.9	-51.3	21.1	6.01e-01	0	57	0	58195968	60	4900
2026-01-01 09:48:32.06	335.94	9.38	-48.8	-51.1	21.1	6.02e-01	0	57	0	59768832	60	4806
2026-01-01 09:48:33.05	335.86	9.29	-48.9	-51.3	21.0	6.02e-01	0	57	0	61341696	60	4880
2026-01-01 09:48:34.04	335.79	9.21	-48.9	-51.2	21.1	6.04e-01	0	57	0	63438848	60	4836
2026-01-01 09:48:35.02	335.71	9.13	-49.0	-51.4	21.0	6.02e-01	0	57	0	65536000	60	4931
2026-01-01 09:48:36.01	335.63	9.05	-49.2	-51.6	20.7	6.03e-01	0	57	0	67108864	60	5085
2026-01-01 09:48:37.00	335.56	8.97	-48.9	-51.3	21.0	6.04e-01	0	57	0	69206016	60	4878
2026-01-01 09:48:37.99	335.48	8.89	-48.8	-51.1	21.3	6.03e-01	0	57	0	70778880	60	4762
2026-01-01 09:48:38.98	335.41	8.81	-48.8	-51.0	21.3	6.03e-01	0	57	0	72876032	60	4737
2026-01-01 09:48:39.97	335.33	8.73	-48.9	-51.2	21.1	6.02e-01	0	57	0	74448896	60	4827
2026-01-01 09:48:40.96	335.26	8.65	-48.8	-51.2	21.1	6.02e-01	0	57	0	76546048	60	4820
2026-01-01 09:48:41.96	335.18	8.57	-48.7	-51.0	21.3	6.02e-01	0	57	0	78118912	60	4734
2026-01-01 09:48:42.95	335.11	8.49	-48.7	-51.0	21.3	6.05e-01	0	57	0	80216064	60	4732
2026-01-01 09:48:43.94	335.04	8.41	-49.0	-51.3	21.0	6.02e-01	0	57	0	81788928	60	4909
2026-01-01 09:48:44.93	334.96	8.33	-48.8	-51.2	21.1	6.03e-01	0	57	0	83886080	60	4820
2026-01-01 09:48:45.92	334.89	8.25	-48.7	-51.0	21.2	6.03e-01	0	57	0	85983232	60	4725
2026-01-01 09:48:46.91	334.82	8.17	-48.9	-51.3	21.0	6.02e-01	0	57	0	87556096	60	4890
2026-01-01 09:48:47.89	334.75	8.09	-48.9	-51.2	21.0	6.02e-01	0	57	0	89653248	60	4858
2026-01-01 09:48:48.88	334.68	8.02	-49.0	-51.4	20.9	6.03e-01	0	57	0	91226112	60	4943
2026-01-01 09:48:49.88	334.61	7.94	-48.9	-51.2	21.0	6.02e-01	0	57	0	93323264	60	4841
2026-01-01 09:48:50.86	334.54	7.86	-48.9	-51.3	21.0	6.03e-01	0	57	0	94896128	60	4897
2026-01-01 09:48:51.85	334.47	7.78	-48.9	-51.3	20.9	6.03e-01	0	57	0	96993280	60	4895
2026-01-01 09:48:52.83	334.40	7.71	-49.0	-51.5	20.8	6.01e-01	0	57	0	98566144	60	4999
2026-01-01 09:48:53.82	334.33	7.63	-49.0	-51.4	20.7	6.02e-01	0	57	0	100663296	60	4958
2026-01-01 09:48:54.82	334.26	7.55	-49.0	-51.4	20.8	6.02e-01	0	57	0	102236160	60	4965
2026-01-01 09:48:55.81	334.20	7.48	-49.2	-51.7	20.7	6.03e-01	0	57	0	104333312	60	5101
2026-01-01 09:48:56.80	334.13	7.40	-49.1	-51.6	20.6	6.02e-01	0	57	0	105906176	60	5050
2026-01-01 09:48:57.79	334.06	7.32	-49.1	-51.6	20.7	6.04e-01	0	57	0	108003328	60	5058
2026-01-01 09:48:58.78	333.99	7.25	-49.1	-51.5	20.7	6.02e-01	0	57	0	110100480	60	5041
2026-01-01 09:48:59.77	333.93	7.17	-49.2	-51.8	20.5	6.02e-01	0	57	0	111673344	60	5182
2026-01-01 09:49:00.76	333.86	7.10	-49.2	-51.8	20.5	6.03e-01	0	57	0	113770496	60	5184
2026-01-01 09:49:01.75	333.80	7.02	-49.4	-52.0	20.2	6.00e-01	0	57	0	115343360	60	5323
2026-01-01 09:49:02.73	333.73	6.95	-49.3	-52.0	20.2	6.01e-01	0	57	0	117440512	61	4984
2026-01-01 09:49:03.72	333.67	6.87	-49.3	-51.9	20.4	6.03e-01	0	57	0	119013376	60	5223
2026-01-01 09:49:04.71	333.60	6.80	-49.3	-51.9	20.3	6.04e-01	0	57	0	121110528	60	5224
2026-01-01 09:49:05.70	333.54	6.72	-49.3	-51.9	20.3	6.02e-01	0	57	0	122683392	60	5256
2026-01-01 09:49:06.70	333.48	6.65	-49.5	-52.2	20.0	6.04e-01	0	57	0	124780544	61	5149
2026-01-01 09:49:07.69	333.41	6.57	-49.5	-52.2	20.0	6.05e-01	0	57	0	126353408	61	5153
2026-01-01 09:49:08.68	333.35	6.50	-49.5	-52.3	19.9	6.01e-01	0	57	0	128450560	61	5197
2026-01-01 09:49:09.66	333.29	6.43	-49.6	-52.4	19.8	6.03e-01	0	57	0	130547712	61	5244
2026-01-01 09:49:10.65	333.23	6.35	-49.6	-52.5	19.7	6.03e-01	0	57	0	132120576	61	5304
2026-01-01 09:49:11.64	333.16	6.28	-49.6	-52.4	19.8	6.04e-01	0	57	0	134217728	61	5267
2026-01-01 09:49:12.64	333.10	6.21	-49.6	-52.4	19.7	6.02e-01	0	57	0	135790592	61	5269
2026-01-01 09:49:13.63	333.04	6.13	-49.8	-52.8	19.4	6.03e-01	0	57	0	137887744	61	5472
2026-01-01 09:49:14.62	332.98	6.06	-49.6	-52.5	19.6	6.03e-01	0	57	0	139460608	61	5322
2026-01-01 09:49:15.61	332.92	5.99	-49.6	-52.5	19.7	6.01e-01	0	57	0	141557760	61	5288
2026-01-01 09:49:16.60	332.86	5.92	-49.4	-52.2	20.0	6.04e-01	0	57	0	143130624	61	5105
2026-01-01 09:49:17.59	332.80	5.84	-49.4	-52.1	19.9	6.02e-01	0	57	0	145227776	61	5082
2026-01-01 09:49:18.58	332.74	5.77	-49.4	-52.1	20.0	6.03e-01	0	57	0	146800640	61	5089
2026-01-01 09:49:19.58	332.68	5.70	-49.3	-52.1	20.1	6.01e-01	0	57	0	148897792	61	5054
2026-01-01 09:49:20.56	332.62	5.63	-49.4	-52.2	19.9	6.02e-01	0	57	0	150994944	61	5146
2026-01-01 09:49:21.56	332.57	5.56	-49.3	-52.0	20.0	6.02e-01	0	57	0	152567808	61	5034
2026-01-01 09:49:22.54	332.51	5.49	-49.4	-52.1	19.9	6.02e-01	0	57	0	154664960	61	5093
2026-01-01 09:49:23.53	332.45	5.41	-49.4	-52.2	19.9	6.02e-01	0	57	0	156237824	61	5109
2026-01-01 09:49:24.51	332.39	5.34	-49.4	-52.2	19.8	6.02e-01	0	57	0	158334976	61	5109
2026-01-01 09:49:25.51	332.34	5.27	-49.4	-52.2	19.7	6.02e-01	0	57	0	159907840	61	5159
2026-01-01 09:49:26.50	332.28	5.20	-49.6	-52.6	19.5	6.03e-01	0	57	0	162004992	61	5360
2026-01-01 09:49:27.50	332.22	5.13	-49.6	-52.6	19.4	6.03e-01	0	57	0	163577856	61	5387
2026-01-01 09:49:28.49	332.17	5.06	-49.6	-52.5	19.4	6.03e-01	0	57	0	165675008	61	5325
2026-01-01 09:49:29.48	332.11	4.99	-53.3	-70.4	3.8	7.43e-01	0	57	104	167247872	68	27992
2026-01-01 09:49:30.46	332.06	4.92	-53.6	-72.3	3.9	7.44e-01	0	57	104	167247872	69	32599
2026-01-01 09:49:31.45	332.00	4.85	-53.8	-73.4	3.8	7.44e-01	0	57	104	167247872	69	36991
2026-01-01 09:49:32.43	331.95	4.79	-53.9	-73.8	3.8	7.47e-01	0	57	104	167247872	70	36825
2026-01-01 09:49:33.42	331.89	4.72	-54.0	-73.9	3.8	7.45e-01	0	57	104	167247872	70	37146
2026-01-01 09:49:34.41	331.84	4.65	-53.6	-73.5	3.8	7.46e-01	0	57	104	167247872	70	35560
2026-01-01 09:49:35.39	331.79	4.58	-54.0	-73.9	3.8	7.42e-01	0	58	104	167247872	70	37159
2026-01-01 09:49:36.39	331.73	4.51	-54.2	-74.1	3.8	7.48e-01	0	58	104	167247872	70	38107
