passes_logs/2026/01/01/R3.0SM8_Murmansk_STILSPACE/R3.0SM8_Murmansk_STILSPACE__20260101_082138_NOAA_21_JPSS-2_rec.log

#Pass ID: 20260101_082138_NOAA 21 (JPSS-2)
#Satellite: NOAA 21 (JPSS-2)
#Configuration: NOAA-21
#almurnet v.1.7.20240730
#Start time: 2026-01-01 08:26:39

#Version: 2.2.20231116
#Station: R3.0SM8_Murmansk_STILSPACE
#Location: 33.092731 lon 68.902999 lat
#TLE: 1 54234U 22150A   25365.42224288  .00000199  00000+0  11529-3 0  9990
#TLE: 2 54234  98.7483 301.4995 0001320 356.2106   3.9060 14.19530300162743

#Time	Az	El	Level	Level2	SNR	BER	BlckErr	Temp	State	Recorded	gain1	gain2
2026-01-01 08:26:39.54	96.76	36.20	-52.7	-63.5	3.8	8.46e-01	0	62	0	0	67	13109
2026-01-01 08:26:40.52	96.49	36.38	-52.8	-64.4	3.8	1.49e+00	0	62	104	0	68	13682
2026-01-01 08:26:41.50	96.23	36.56	-52.9	-64.4	3.8	1.49e+00	0	62	104	0	68	13664
2026-01-01 08:26:42.48	95.96	36.73	-52.9	-64.4	3.8	1.49e+00	0	62	104	0	68	13667
2026-01-01 08:26:43.46	95.69	36.91	-53.0	-64.4	3.8	1.49e+00	0	62	104	0	68	13688
2026-01-01 08:26:44.44	95.42	37.09	-53.0	-64.4	3.8	1.49e+00	0	62	104	0	68	13697
2026-01-01 08:26:45.43	95.14	37.27	-53.0	-64.4	3.8	1.49e+00	0	62	104	0	68	13656
2026-01-01 08:26:46.41	94.86	37.44	-52.8	-64.4	3.8	1.49e+00	0	62	104	0	68	13686
2026-01-01 08:26:47.39	94.58	37.62	-53.0	-64.4	3.8	1.49e+00	0	62	104	0	68	13656
2026-01-01 08:26:48.37	94.29	37.80	-53.0	-64.4	3.8	1.49e+00	0	63	104	0	68	13617
2026-01-01 08:26:49.36	94.00	37.98	-53.0	-64.4	3.8	1.49e+00	0	62	104	0	68	13595
2026-01-01 08:26:50.34	93.71	38.16	-52.9	-64.4	3.8	1.49e+00	0	62	104	0	68	13591
2026-01-01 08:26:51.32	93.41	38.34	-52.9	-64.4	3.8	1.49e+00	0	62	104	0	68	13634
2026-01-01 08:26:52.30	93.11	38.51	-52.9	-64.3	3.8	1.49e+00	0	62	104	0	68	13549
2026-01-01 08:26:53.29	92.81	38.69	-52.9	-64.4	3.8	1.49e+00	0	62	104	0	68	13594
2026-01-01 08:26:54.27	92.50	38.87	-52.9	-64.3	3.8	1.49e+00	0	62	104	0	68	13544
2026-01-01 08:26:55.25	92.20	39.05	-52.9	-64.3	3.8	1.49e+00	0	62	104	0	68	13563
2026-01-01 08:26:56.23	91.88	39.23	-52.9	-64.4	3.8	1.49e+00	0	62	104	0	68	13571
2026-01-01 08:26:57.22	91.56	39.41	-52.9	-64.3	3.8	1.49e+00	0	62	104	0	68	13560
2026-01-01 08:26:58.20	91.25	39.59	-52.8	-64.3	3.8	1.49e+00	0	62	104	0	68	13535
2026-01-01 08:26:59.18	90.92	39.76	-52.9	-64.3	3.8	1.49e+00	0	62	104	0	68	13498
2026-01-01 08:27:00.17	90.59	39.94	-52.9	-64.3	3.8	1.49e+00	0	63	104	0	68	13495
2026-01-01 08:27:01.15	90.26	40.12	-52.9	-64.3	3.8	1.49e+00	0	62	104	0	68	13519
2026-01-01 08:27:02.13	89.93	40.30	-52.9	-64.3	3.8	1.49e+00	0	62	104	0	68	13466
2026-01-01 08:27:03.11	89.59	40.47	-52.9	-64.3	3.8	1.49e+00	0	62	104	0	68	13472
2026-01-01 08:27:04.10	89.25	40.65	-52.9	-64.3	3.8	1.49e+00	0	62	104	0	68	13507
2026-01-01 08:27:05.08	88.90	40.83	-52.9	-64.3	3.8	1.49e+00	0	62	104	0	68	13519
2026-01-01 08:27:06.06	88.56	41.01	-52.9	-64.3	3.8	1.49e+00	0	62	104	0	68	13500
2026-01-01 08:27:07.04	88.20	41.18	-52.9	-64.3	3.8	1.49e+00	0	62	104	0	68	13540
2026-01-01 08:27:08.02	87.85	41.36	-52.9	-64.3	3.8	1.49e+00	0	62	104	0	68	13537
2026-01-01 08:27:09.00	87.49	41.53	-52.8	-64.3	3.8	1.49e+00	0	62	104	0	68	13506
2026-01-01 08:27:09.99	87.12	41.71	-52.9	-64.3	3.8	1.49e+00	0	62	104	0	68	13501
2026-01-01 08:27:10.96	86.76	41.88	-52.9	-64.3	3.8	1.49e+00	0	63	104	0	68	13543
2026-01-01 08:27:11.95	86.38	42.06	-52.9	-64.3	3.8	1.49e+00	0	62	104	0	68	13530
2026-01-01 08:27:12.94	86.00	42.23	-52.9	-64.3	3.8	1.49e+00	0	63	104	0	68	13515
2026-01-01 08:27:13.92	85.62	42.40	-52.9	-64.3	3.8	1.49e+00	0	62	104	0	68	13501
2026-01-01 08:27:14.90	85.24	42.57	-52.9	-64.3	3.8	1.49e+00	0	62	104	0	68	13530
2026-01-01 08:27:15.88	84.85	42.74	-52.9	-64.3	3.8	1.49e+00	0	63	104	0	68	13471
2026-01-01 08:27:16.87	84.45	42.92	-52.7	-64.3	3.8	1.49e+00	0	62	104	0	68	13432
2026-01-01 08:27:17.85	84.05	43.09	-52.7	-64.3	3.8	1.49e+00	0	62	104	0	68	13483
2026-01-01 08:27:18.83	83.65	43.25	-52.9	-64.3	3.8	1.49e+00	0	63	104	0	68	13431
2026-01-01 08:27:19.82	83.24	43.42	-52.9	-64.3	3.8	1.49e+00	0	63	104	0	68	13445
2026-01-01 08:27:20.80	82.83	43.59	-52.9	-64.2	3.8	1.49e+00	0	62	104	0	68	13265
2026-01-01 08:27:21.78	82.42	43.76	-52.9	-64.0	3.8	1.49e+00	0	62	104	0	68	13013
2026-01-01 08:27:22.77	82.00	43.92	-52.9	-63.9	3.8	1.49e+00	0	62	104	0	68	12920
2026-01-01 08:27:23.76	81.57	44.09	-52.9	-63.9	3.8	1.49e+00	0	62	104	0	68	12916
2026-01-01 08:27:24.74	81.14	44.25	-52.9	-63.9	3.8	1.49e+00	0	62	104	0	68	12835
2026-01-01 08:27:25.73	80.71	44.41	-52.9	-64.0	3.8	1.49e+00	0	62	104	0	68	12980
2026-01-01 08:27:26.71	80.27	44.57	-52.7	-64.2	3.8	1.49e+00	0	63	104	0	68	13310
2026-01-01 08:27:27.70	79.83	44.74	-52.9	-64.1	3.8	1.49e+00	0	62	104	0	68	13201
2026-01-01 08:27:28.68	79.38	44.89	-52.9	-64.0	3.8	1.49e+00	0	62	104	0	68	13007
2026-01-01 08:27:29.66	78.93	45.05	-52.9	-64.2	3.8	1.49e+00	0	63	104	0	68	13310
2026-01-01 08:27:30.64	78.48	45.20	-52.9	-64.3	3.8	1.49e+00	0	62	104	0	68	13464
2026-01-01 08:27:31.63	78.02	45.36	-52.8	-63.4	3.8	1.49e+00	0	62	104	0	68	12102
2026-01-01 08:27:32.61	77.55	45.51	-52.2	-59.5	4.6	1.45e+00	2	62	104	0	67	8190
2026-01-01 08:27:33.58	77.09	45.66	-51.4	-56.4	6.6	2.89e-01	0	62	0	2097152	66	6068
2026-01-01 08:27:34.55	76.62	45.81	-51.1	-55.5	7.4	1.12e-01	0	62	0	5242880	65	5798
2026-01-01 08:27:35.51	76.16	45.95	-51.1	-55.5	7.4	1.09e-01	0	63	0	8388608	65	5843
2026-01-01 08:27:36.47	75.69	46.10	-51.2	-55.7	7.2	1.35e-01	0	63	0	10485760	65	5981
2026-01-01 08:27:37.43	75.21	46.24	-51.1	-55.6	7.3	1.13e-01	0	62	0	13631488	65	5898
2026-01-01 08:27:38.40	74.73	46.38	-51.1	-55.8	7.1	1.32e-01	0	62	0	16777216	65	6017
2026-01-01 08:27:39.37	74.24	46.52	-51.0	-55.7	7.3	1.39e-01	0	62	0	19922944	65	5955
2026-01-01 08:27:40.33	73.75	46.65	-51.2	-55.7	7.2	1.18e-01	0	62	0	23068672	65	5984
2026-01-01 08:27:41.30	73.26	46.79	-51.2	-55.9	7.0	1.83e-01	0	62	0	26214400	65	6088
2026-01-01 08:27:42.26	72.76	46.92	-50.9	-55.0	7.9	8.88e-02	0	62	0	29360128	64	5820
2026-01-01 08:27:43.23	72.26	47.05	-50.5	-54.2	8.7	3.90e-02	0	62	0	32505856	64	5314
2026-01-01 08:27:44.20	71.75	47.18	-50.0	-53.1	9.9	1.53e-02	0	62	0	35651584	63	4960
2026-01-01 08:27:45.16	71.24	47.31	-49.5	-52.0	11.1	2.97e-03	0	62	0	37748736	62	4641
2026-01-01 08:27:46.13	70.72	47.43	-48.9	-51.0	12.0	3.55e-04	0	62	0	40894464	60	4641
2026-01-01 08:27:47.10	70.20	47.56	-48.3	-50.2	13.0	6.02e-05	0	62	0	44040192	59	4462
2026-01-01 08:27:48.06	69.68	47.68	-47.7	-49.4	13.7	9.10e-06	0	62	0	47185920	58	4316
2026-01-01 08:27:49.03	69.15	47.79	-47.6	-49.2	14.0	0.00e+00	0	62	0	50331648	58	4212
2026-01-01 08:27:50.00	68.61	47.91	-47.3	-48.8	14.3	2.20e-06	0	62	0	53477376	57	4288
2026-01-01 08:27:50.98	68.07	48.02	-46.8	-48.2	15.0	7.00e-07	0	63	0	56623104	56	4205
2026-01-01 08:27:51.95	67.53	48.14	-46.5	-47.7	15.4	0.00e+00	0	62	0	59768832	56	3995
2026-01-01 08:27:52.91	66.98	48.24	-46.6	-47.8	15.3	0.00e+00	0	63	0	62914560	56	4043
2026-01-01 08:27:53.87	66.44	48.35	-46.5	-47.8	15.4	0.00e+00	0	62	0	65011712	56	4009
2026-01-01 08:27:54.84	65.89	48.45	-46.7	-48.0	15.1	0.00e+00	0	63	0	68157440	56	4143
2026-01-01 08:27:55.81	65.33	48.55	-47.0	-48.5	14.6	0.00e+00	0	62	0	71303168	56	4375
2026-01-01 08:27:56.77	64.77	48.65	-47.0	-48.4	14.8	0.00e+00	0	62	0	74448896	56	4331
2026-01-01 08:27:57.73	64.22	48.74	-47.3	-48.8	14.3	0.00e+00	0	62	0	77594624	56	4513
2026-01-01 08:27:58.70	63.65	48.83	-47.5	-49.1	14.1	3.80e-06	0	62	0	80740352	56	4691
2026-01-01 08:27:59.66	63.08	48.92	-47.7	-49.3	13.8	1.50e-06	0	63	0	83886080	57	4534
2026-01-01 08:28:00.63	62.51	49.01	-47.7	-49.5	13.7	4.50e-06	0	62	0	85983232	57	4600
2026-01-01 08:28:01.59	61.94	49.09	-47.7	-49.3	13.8	5.30e-06	0	62	0	89128960	57	4537
2026-01-01 08:28:02.56	61.36	49.17	-47.6	-49.2	13.9	2.20e-06	0	62	0	92274688	57	4490
2026-01-01 08:28:03.52	60.78	49.25	-47.9	-49.6	13.6	6.10e-06	0	62	0	95420416	57	4682
2026-01-01 08:28:04.49	60.19	49.32	-47.9	-49.6	13.5	1.06e-05	0	62	0	98566144	57	4674
2026-01-01 08:28:05.45	59.61	49.40	-47.3	-48.9	14.3	1.50e-06	0	62	0	101711872	57	4296
2026-01-01 08:28:06.42	59.02	49.46	-47.0	-48.4	14.7	0.00e+00	0	62	0	104857600	57	4095
2026-01-01 08:28:07.38	58.43	49.53	-46.5	-47.7	15.4	0.00e+00	0	63	0	108003328	56	3996
2026-01-01 08:28:08.35	57.83	49.59	-46.1	-47.4	15.7	0.00e+00	0	62	0	111149056	55	4069
2026-01-01 08:28:09.32	57.23	49.65	-46.5	-47.8	15.2	0.00e+00	0	62	0	113246208	55	4279
2026-01-01 08:28:10.28	56.64	49.70	-46.7	-48.1	15.0	0.00e+00	0	62	0	116391936	55	4400
2026-01-01 08:28:11.25	56.03	49.75	-46.9	-48.2	14.6	2.20e-06	0	62	0	119537664	55	4492
2026-01-01 08:28:12.22	55.43	49.80	-46.7	-48.0	15.0	0.00e+00	0	62	0	122683392	55	4364
2026-01-01 08:28:13.18	54.82	49.85	-46.6	-47.9	15.2	0.00e+00	0	62	0	125829120	55	4293
2026-01-01 08:28:14.14	54.22	49.89	-46.3	-47.5	15.6	0.00e+00	0	62	0	128974848	55	4108
2026-01-01 08:28:15.11	53.61	49.93	-46.2	-47.4	15.6	0.00e+00	0	62	0	132120576	55	4089
2026-01-01 08:28:16.07	53.00	49.96	-46.2	-47.4	15.7	0.00e+00	0	62	0	135266304	55	4063
2026-01-01 08:28:17.03	52.40	49.99	-46.5	-47.8	15.2	0.00e+00	0	62	0	137363456	55	4289
2026-01-01 08:28:18.00	51.78	50.02	-46.5	-47.8	15.3	0.00e+00	0	62	0	140509184	55	4253
2026-01-01 08:28:18.96	51.17	50.05	-46.3	-47.6	15.4	0.00e+00	0	62	0	143654912	55	4190
2026-01-01 08:28:19.93	50.56	50.07	-46.6	-48.0	15.1	7.00e-07	0	62	0	146800640	55	4357
2026-01-01 08:28:20.89	49.94	50.09	-46.4	-47.6	15.4	0.00e+00	0	62	0	149946368	55	4179
2026-01-01 08:28:21.86	49.33	50.10	-46.3	-47.5	15.5	0.00e+00	0	62	0	153092096	55	4136
2026-01-01 08:28:22.82	48.71	50.11	-46.2	-47.4	15.7	0.00e+00	0	62	0	156237824	55	4063
2026-01-01 08:28:23.78	48.10	50.12	-46.2	-47.4	15.7	0.00e+00	0	63	0	158334976	55	4063
2026-01-01 08:28:24.75	47.48	50.12	-46.3	-47.6	15.4	0.00e+00	0	62	0	161480704	55	4176
2026-01-01 08:28:25.72	46.86	50.12	-46.6	-48.0	15.1	0.00e+00	0	62	0	164626432	55	4357
2026-01-01 08:28:26.69	46.24	50.12	-46.5	-47.7	15.4	0.00e+00	0	62	0	167772160	55	4239
2026-01-01 08:28:27.66	45.62	50.11	-46.4	-47.6	15.4	0.00e+00	0	62	0	170917888	55	4190
2026-01-01 08:28:28.62	45.01	50.10	-46.4	-47.8	15.3	0.00e+00	0	62	0	174063616	55	4276
2026-01-01 08:28:29.59	44.39	50.08	-46.3	-47.5	15.5	0.00e+00	0	62	0	177209344	55	4124
2026-01-01 08:28:30.55	43.78	50.07	-46.3	-47.5	15.5	0.00e+00	0	62	0	180355072	55	4124
2026-01-01 08:28:31.51	43.17	50.05	-46.5	-47.8	15.2	0.00e+00	0	63	0	183500800	55	4271
2026-01-01 08:28:32.47	42.56	50.02	-46.7	-48.1	14.9	0.00e+00	0	62	0	185597952	55	4431
2026-01-01 08:28:33.44	41.95	49.99	-46.7	-48.1	14.9	0.00e+00	0	62	0	188743680	55	4434
2026-01-01 08:28:34.41	41.33	49.96	-46.9	-48.3	14.7	0.00e+00	0	62	0	191889408	55	4515
2026-01-01 08:28:35.37	40.73	49.93	-47.2	-48.7	14.4	0.00e+00	0	62	0	195035136	56	4475
2026-01-01 08:28:36.33	40.12	49.89	-47.0	-48.5	14.6	7.00e-07	0	62	0	198180864	56	4363
2026-01-01 08:28:37.30	39.51	49.85	-46.9	-48.3	14.9	7.00e-07	0	62	0	201326592	56	4244
2026-01-01 08:28:38.27	38.91	49.80	-46.9	-48.3	14.8	0.00e+00	0	63	0	204472320	56	4279
2026-01-01 08:28:39.23	38.31	49.75	-46.9	-48.3	14.8	7.00e-07	0	63	0	207618048	56	4290
2026-01-01 08:28:40.20	37.70	49.70	-46.8	-48.2	14.9	0.00e+00	0	63	0	209715200	56	4213
2026-01-01 08:28:41.16	37.11	49.65	-46.9	-48.3	14.9	7.00e-07	0	62	0	212860928	56	4252
2026-01-01 08:28:42.13	36.51	49.59	-46.5	-47.8	15.3	0.00e+00	0	62	0	216006656	56	4037
2026-01-01 08:28:43.09	35.92	49.52	-46.5	-47.8	15.3	0.00e+00	0	62	0	219152384	56	4010
2026-01-01 08:28:44.05	35.33	49.46	-46.7	-48.2	15.0	0.00e+00	0	62	0	222298112	56	4194
2026-01-01 08:28:45.02	34.74	49.39	-46.7	-48.0	15.1	0.00e+00	0	63	0	225443840	56	4128
2026-01-01 08:28:45.99	34.15	49.32	-46.8	-48.1	14.9	0.00e+00	0	63	0	228589568	56	4183
2026-01-01 08:28:46.96	33.57	49.25	-47.1	-48.6	14.5	0.00e+00	0	62	0	231735296	56	4408
2026-01-01 08:28:47.93	32.98	49.17	-47.5	-49.0	14.1	0.00e+00	0	62	0	233832448	56	4635
2026-01-01 08:28:48.89	32.41	49.09	-47.3	-48.8	14.4	3.00e-06	0	62	0	236978176	56	4505
2026-01-01 08:28:49.86	31.83	49.00	-46.8	-48.2	15.0	0.00e+00	0	62	0	240123904	56	4197
2026-01-01 08:28:50.83	31.26	48.92	-46.6	-47.9	15.2	0.00e+00	0	62	0	243269632	56	4080
2026-01-01 08:28:51.79	30.69	48.83	-46.7	-48.0	15.1	0.00e+00	0	62	0	246415360	56	4132
2026-01-01 08:28:52.76	30.13	48.74	-46.6	-47.9	15.2	0.00e+00	0	62	0	249561088	56	4063
2026-01-01 08:28:53.72	29.57	48.64	-46.5	-47.8	15.3	0.00e+00	0	63	0	252706816	56	4038
2026-01-01 08:28:54.69	29.01	48.54	-46.7	-48.1	15.1	0.00e+00	0	62	0	255852544	56	4152
2026-01-01 08:28:55.65	28.46	48.45	-46.9	-48.3	14.8	0.00e+00	0	62	0	258998272	56	4259
2026-01-01 08:28:56.62	27.91	48.34	-46.6	-47.9	15.2	0.00e+00	0	63	0	261095424	56	4086
2026-01-01 08:28:57.58	27.36	48.24	-46.0	-47.1	15.9	0.00e+00	0	63	0	264241152	55	3952
2026-01-01 08:28:58.55	26.82	48.13	-45.6	-46.6	16.3	0.00e+00	0	62	0	267386880	54	3954
2026-01-01 08:28:59.52	26.28	48.02	-45.6	-46.6	16.4	0.00e+00	0	62	0	270532608	54	3956
2026-01-01 08:29:00.49	25.74	47.90	-46.1	-47.3	15.7	0.00e+00	0	62	0	273678336	54	4270
2026-01-01 08:29:01.46	25.21	47.79	-46.7	-48.1	14.9	7.00e-07	0	62	0	276824064	55	4403
2026-01-01 08:29:02.43	24.68	47.67	-46.8	-48.2	14.7	7.00e-07	0	63	0	279969792	55	4452
2026-01-01 08:29:03.39	24.16	47.55	-46.7	-48.0	14.8	0.00e+00	0	62	0	282066944	55	4380
2026-01-01 08:29:04.36	23.63	47.43	-46.4	-47.7	15.3	0.00e+00	0	62	0	285212672	55	4195
2026-01-01 08:29:05.32	23.12	47.30	-45.8	-46.9	16.0	0.00e+00	0	62	0	288358400	54	4082
2026-01-01 08:29:06.29	22.61	47.18	-46.0	-47.1	15.8	0.00e+00	0	62	0	291504128	54	4184
2026-01-01 08:29:07.25	22.11	47.05	-46.7	-48.1	14.9	0.00e+00	0	62	0	294649856	55	4399
2026-01-01 08:29:08.21	21.61	46.92	-47.3	-48.9	14.2	0.00e+00	0	62	0	297795584	56	4570
2026-01-01 08:29:09.18	21.11	46.79	-48.1	-49.9	13.2	6.10e-06	0	63	0	300941312	57	4827
2026-01-01 08:29:10.14	20.62	46.65	-47.8	-49.5	13.6	1.37e-05	0	62	0	304087040	58	4366
2026-01-01 08:29:11.10	20.13	46.52	-46.7	-48.0	15.1	0.00e+00	0	62	0	307232768	56	4109
2026-01-01 08:29:12.07	19.64	46.38	-45.6	-46.7	16.3	0.00e+00	0	62	0	309329920	54	3980
2026-01-01 08:29:13.03	19.16	46.24	-45.3	-46.4	16.6	0.00e+00	0	62	0	312475648	53	4060
2026-01-01 08:29:13.99	18.69	46.10	-46.0	-47.2	15.8	0.00e+00	0	62	0	315621376	53	4451
2026-01-01 08:29:14.96	18.22	45.95	-47.3	-48.9	14.2	0.00e+00	0	62	0	318767104	56	4550
2026-01-01 08:29:15.93	17.75	45.81	-48.4	-50.4	12.7	1.90e-05	0	62	0	321912832	58	4848
2026-01-01 08:29:16.89	17.29	45.66	-49.0	-51.4	11.7	5.27e-04	0	62	0	325058560	59	5103
2026-01-01 08:29:17.86	16.82	45.51	-47.8	-49.6	13.3	4.11e-05	0	62	0	328204288	58	4399
2026-01-01 08:29:18.82	16.37	45.36	-46.6	-47.9	15.0	0.00e+00	0	62	0	331350016	56	4073
2026-01-01 08:29:19.80	15.91	45.21	-45.4	-46.4	16.4	0.00e+00	0	62	0	333447168	54	3864
2026-01-01 08:29:20.77	15.47	45.06	-45.1	-46.1	16.8	0.00e+00	0	62	0	336592896	53	3926
2026-01-01 08:29:21.74	15.02	44.90	-45.3	-46.4	16.6	0.00e+00	0	62	0	339738624	53	4056
2026-01-01 08:29:22.71	14.58	44.75	-46.5	-47.8	15.2	0.00e+00	0	62	0	342884352	54	4521
2026-01-01 08:29:23.68	14.15	44.59	-47.9	-49.7	13.4	3.00e-06	0	62	0	346030080	57	4721
2026-01-01 08:29:24.65	13.72	44.43	-48.1	-50.1	12.9	5.18e-05	0	62	0	349175808	58	4657
2026-01-01 08:29:25.61	13.29	44.27	-47.4	-49.0	14.0	1.14e-05	0	62	0	352321536	58	4107
2026-01-01 08:29:26.58	12.87	44.11	-46.2	-47.4	15.4	0.00e+00	0	62	0	355467264	55	4087
2026-01-01 08:29:27.54	12.46	43.95	-45.7	-46.7	16.1	0.00e+00	0	62	0	357564416	54	4003
2026-01-01 08:29:28.50	12.05	43.79	-45.9	-47.1	15.8	0.00e+00	0	62	0	360710144	54	4156
2026-01-01 08:29:29.47	11.64	43.63	-46.8	-48.2	14.8	0.00e+00	0	62	0	363855872	55	4468
2026-01-01 08:29:30.44	11.23	43.46	-47.9	-49.6	13.5	6.80e-06	0	62	0	367001600	57	4689
2026-01-01 08:29:31.40	10.84	43.30	-48.8	-51.0	12.1	1.04e-04	0	62	0	370147328	59	4880
2026-01-01 08:29:32.36	10.44	43.14	-48.8	-51.1	12.0	4.68e-04	0	62	0	373293056	59	4932
2026-01-01 08:29:33.32	10.06	42.97	-48.0	-49.8	13.2	3.20e-05	0	62	0	376438784	59	4266
2026-01-01 08:29:34.29	9.67	42.80	-47.1	-48.5	14.5	2.20e-06	0	62	0	379584512	57	4130
2026-01-01 08:29:35.26	9.28	42.63	-46.2	-47.5	15.5	0.00e+00	0	62	0	382730240	55	4104
2026-01-01 08:29:36.22	8.91	42.47	-45.8	-46.9	16.0	0.00e+00	0	62	0	384827392	54	4067
2026-01-01 08:29:37.19	8.53	42.30	-46.0	-47.1	15.8	0.00e+00	0	62	0	387973120	54	4172
2026-01-01 08:29:38.15	8.16	42.13	-46.9	-48.3	14.7	0.00e+00	0	62	0	391118848	55	4529
2026-01-01 08:29:39.11	7.79	41.96	-48.2	-50.1	12.9	3.50e-05	0	62	0	394264576	58	4672
2026-01-01 08:29:40.08	7.43	41.79	-48.5	-50.6	12.4	1.55e-04	0	62	0	397410304	58	4977
2026-01-01 08:29:41.04	7.07	41.62	-48.5	-50.5	12.5	1.57e-04	0	62	0	400556032	59	4633
2026-01-01 08:29:42.01	6.71	41.45	-47.5	-49.1	13.8	9.10e-06	0	62	0	403701760	58	4168
2026-01-01 08:29:42.97	6.37	41.27	-46.6	-47.9	15.0	7.00e-07	0	62	0	405798912	56	4060
2026-01-01 08:29:43.94	6.02	41.10	-46.0	-47.2	15.6	0.00e+00	0	62	0	408944640	55	3975
2026-01-01 08:29:44.90	5.67	40.93	-45.9	-47.0	15.9	0.00e+00	0	62	0	412090368	54	4126
2026-01-01 08:29:45.87	5.33	40.75	-46.2	-47.4	15.5	0.00e+00	0	62	0	415236096	54	4317
2026-01-01 08:29:46.83	5.00	40.58	-46.4	-47.7	15.2	0.00e+00	0	62	0	418381824	54	4491
2026-01-01 08:29:47.80	4.66	40.41	-47.1	-48.5	14.4	2.20e-06	0	62	0	421527552	55	4645
2026-01-01 08:29:48.76	4.33	40.23	-47.6	-49.3	13.7	4.50e-06	0	62	0	424673280	57	4495
2026-01-01 08:29:49.73	4.01	40.06	-47.9	-49.6	13.5	1.44e-05	0	62	0	427819008	57	4692
2026-01-01 08:29:50.70	3.68	39.88	-47.5	-49.1	13.9	3.80e-06	0	62	0	430964736	57	4417
2026-01-01 08:29:51.66	3.36	39.71	-46.8	-48.1	14.8	0.00e+00	0	62	0	433061888	56	4188
2026-01-01 08:29:52.63	3.05	39.54	-45.9	-47.0	15.9	0.00e+00	0	62	0	436207616	54	4130
2026-01-01 08:29:53.60	2.73	39.36	-45.4	-46.5	16.5	0.00e+00	0	62	0	439353344	54	3882
2026-01-01 08:29:54.57	2.42	39.18	-45.4	-46.5	16.4	0.00e+00	0	62	0	442499072	54	3884
2026-01-01 08:29:55.53	2.12	39.01	-45.7	-46.8	16.1	0.00e+00	0	62	0	445644800	53	4260
2026-01-01 08:29:56.50	1.82	38.83	-46.2	-47.5	15.4	0.00e+00	0	62	0	448790528	54	4354
2026-01-01 08:29:57.46	1.52	38.66	-46.6	-48.0	14.9	0.00e+00	0	62	0	451936256	55	4369
2026-01-01 08:29:58.43	1.22	38.48	-46.9	-48.3	14.6	7.00e-07	0	62	0	455081984	55	4532
2026-01-01 08:29:59.39	0.93	38.31	-46.7	-48.1	14.9	0.00e+00	0	62	0	458227712	55	4397
2026-01-01 08:30:00.35	0.64	38.14	-46.4	-47.7	15.3	0.00e+00	0	62	0	460324864	55	4208
2026-01-01 08:30:01.32	0.35	37.96	-46.3	-47.6	15.3	0.00e+00	0	62	0	463470592	55	4170
2026-01-01 08:30:02.29	0.07	37.79	-46.3	-47.6	15.3	0.00e+00	0	62	0	466616320	55	4191
2026-01-01 08:30:03.26	359.79	37.61	-46.2	-47.5	15.5	0.00e+00	0	62	0	469762048	55	4115
2026-01-01 08:30:04.22	359.51	37.44	-46.3	-47.6	15.4	0.00e+00	0	62	0	472907776	55	4163
2026-01-01 08:30:05.18	359.24	37.26	-46.0	-47.2	15.7	0.00e+00	0	62	0	476053504	55	3996
2026-01-01 08:30:06.15	358.97	37.09	-45.7	-46.8	16.1	0.00e+00	0	62	0	479199232	54	4036
2026-01-01 08:30:07.11	358.70	36.92	-45.6	-46.7	16.2	0.00e+00	0	62	0	481296384	54	3981
2026-01-01 08:30:08.08	358.44	36.74	-45.7	-46.8	16.1	0.00e+00	0	62	0	484442112	54	4041
2026-01-01 08:30:09.04	358.17	36.57	-46.0	-47.2	15.7	0.00e+00	0	62	0	487587840	54	4238
2026-01-01 08:30:10.01	357.91	36.39	-45.8	-47.0	15.9	0.00e+00	0	62	0	490733568	54	4139
2026-01-01 08:30:10.97	357.66	36.22	-45.3	-46.4	16.5	0.00e+00	0	62	0	493879296	53	4096
2026-01-01 08:30:11.94	357.40	36.05	-44.8	-45.7	17.1	0.00e+00	0	62	0	497025024	52	4004
2026-01-01 08:30:12.90	357.15	35.88	-44.6	-45.5	17.4	0.00e+00	0	62	0	500170752	52	3889
2026-01-01 08:30:13.87	356.90	35.70	-44.5	-45.4	17.5	0.00e+00	0	62	0	503316480	52	3848
2026-01-01 08:30:14.84	356.65	35.53	-45.0	-46.0	16.9	0.00e+00	0	62	0	505413632	52	4101
2026-01-01 08:30:15.81	356.41	35.36	-45.0	-46.0	16.9	0.00e+00	0	62	0	508559360	52	4125
2026-01-01 08:30:16.77	356.17	35.19	-45.6	-46.7	16.2	0.00e+00	0	62	0	511705088	53	4238
2026-01-01 08:30:17.74	355.93	35.02	-45.8	-46.9	16.0	0.00e+00	0	62	0	514850816	53	4321
2026-01-01 08:30:18.70	355.70	34.85	-45.5	-46.5	16.4	0.00e+00	0	62	0	517996544	53	4143
2026-01-01 08:30:19.67	355.46	34.68	-45.5	-46.6	16.3	0.00e+00	0	62	0	521142272	53	4157
2026-01-01 08:30:20.63	355.23	34.51	-45.8	-47.0	16.0	0.00e+00	0	62	0	524288000	53	4341
2026-01-01 08:30:21.59	355.01	34.34	-46.0	-47.2	15.7	0.00e+00	0	62	0	527433728	54	4222
2026-01-01 08:30:22.56	354.78	34.17	-45.8	-47.0	15.9	0.00e+00	0	62	0	530579456	54	4107
2026-01-01 08:30:23.53	354.55	34.00	-45.7	-46.8	16.1	0.00e+00	0	62	0	532676608	54	4045
2026-01-01 08:30:24.49	354.33	33.83	-45.6	-46.7	16.2	0.00e+00	0	62	0	535822336	54	3993
2026-01-01 08:30:25.46	354.11	33.66	-45.6	-46.8	16.1	0.00e+00	0	62	0	538968064	54	4011
2026-01-01 08:30:26.43	353.89	33.50	-45.5	-46.7	16.1	0.00e+00	0	62	0	542113792	54	3972
2026-01-01 08:30:27.39	353.68	33.33	-45.5	-46.6	16.3	0.00e+00	0	62	0	545259520	54	3934
2026-01-01 08:30:28.35	353.47	33.17	-45.4	-46.6	16.3	0.00e+00	0	62	0	548405248	54	3915
2026-01-01 08:30:29.32	353.26	33.00	-45.3	-46.3	16.6	0.00e+00	0	62	0	551550976	53	4028
2026-01-01 08:30:30.28	353.05	32.83	-45.3	-46.3	16.6	0.00e+00	0	62	0	553648128	53	4027
2026-01-01 08:30:31.25	352.85	32.67	-45.3	-46.4	16.5	0.00e+00	0	62	0	556793856	53	4070
2026-01-01 08:30:32.21	352.64	32.51	-45.3	-46.4	16.5	0.00e+00	0	62	0	559939584	53	4077
2026-01-01 08:30:33.17	352.44	32.34	-45.3	-46.4	16.5	0.00e+00	0	62	0	563085312	53	4066
2026-01-01 08:30:34.15	352.24	32.18	-45.3	-46.4	16.5	0.00e+00	0	62	0	566231040	53	4053
2026-01-01 08:30:35.11	352.04	32.01	-45.4	-46.4	16.4	0.00e+00	0	62	0	569376768	53	4085
2026-01-01 08:30:36.07	351.85	31.85	-45.5	-46.5	16.3	0.00e+00	0	62	0	572522496	53	4141
2026-01-01 08:30:37.04	351.65	31.69	-45.6	-46.8	16.1	0.00e+00	0	62	0	575668224	53	4250
2026-01-01 08:30:38.00	351.46	31.53	-45.4	-46.5	16.3	0.00e+00	0	62	0	578813952	53	4140
2026-01-01 08:30:38.96	351.27	31.37	-45.3	-46.3	16.5	0.00e+00	0	62	0	580911104	53	4041
2026-01-01 08:30:39.93	351.09	31.21	-45.2	-46.3	16.6	0.00e+00	0	62	0	584056832	53	4030
2026-01-01 08:30:40.89	350.90	31.05	-45.3	-46.4	16.5	0.00e+00	0	62	0	587202560	53	4062
2026-01-01 08:30:41.86	350.72	30.89	-45.6	-46.7	16.2	0.00e+00	0	62	0	590348288	53	4234
2026-01-01 08:30:42.82	350.53	30.73	-45.3	-46.4	16.5	0.00e+00	0	62	0	593494016	53	4079
2026-01-01 08:30:43.79	350.35	30.57	-45.1	-46.1	16.8	0.00e+00	0	62	0	596639744	53	3945
2026-01-01 08:30:44.75	350.18	30.42	-44.8	-45.8	17.1	0.00e+00	0	62	0	599785472	52	4014
2026-01-01 08:30:45.72	350.00	30.26	-44.7	-45.6	17.2	0.00e+00	0	62	0	601882624	52	3937
2026-01-01 08:30:46.68	349.82	30.10	-44.6	-45.5	17.3	0.00e+00	0	62	0	605028352	52	3894
2026-01-01 08:30:47.65	349.65	29.94	-44.5	-45.4	17.4	0.00e+00	0	62	0	608174080	52	3864
2026-01-01 08:30:48.61	349.48	29.79	-44.5	-45.4	17.4	0.00e+00	0	62	0	611319808	52	3866
2026-01-01 08:30:49.58	349.31	29.63	-44.7	-45.6	17.2	0.00e+00	0	62	0	614465536	52	3950
2026-01-01 08:30:50.54	349.14	29.48	-44.7	-45.7	17.1	0.00e+00	0	62	0	617611264	52	3965
2026-01-01 08:30:51.50	348.97	29.33	-44.8	-45.7	17.1	0.00e+00	0	62	0	620756992	52	4002
2026-01-01 08:30:52.47	348.81	29.17	-45.0	-46.0	16.8	0.00e+00	0	62	0	623902720	52	4144
2026-01-01 08:30:53.43	348.65	29.02	-45.1	-46.1	16.7	0.00e+00	0	62	0	625999872	52	4168
2026-01-01 08:30:54.39	348.48	28.87	-44.8	-45.8	17.0	0.00e+00	0	62	0	629145600	52	4028
2026-01-01 08:30:55.37	348.32	28.72	-44.8	-45.8	17.0	0.00e+00	0	62	0	632291328	52	4023
2026-01-01 08:30:56.33	348.16	28.57	-44.9	-45.8	17.0	0.00e+00	0	62	0	635437056	52	4043
2026-01-01 08:30:57.30	348.01	28.42	-44.8	-45.7	17.1	0.00e+00	0	62	0	638582784	52	3993
2026-01-01 08:30:58.27	347.85	28.26	-44.7	-45.7	17.1	0.00e+00	0	62	0	641728512	52	3986
2026-01-01 08:30:59.23	347.69	28.12	-44.7	-45.7	17.1	0.00e+00	0	62	0	644874240	52	3995
2026-01-01 08:31:00.20	347.54	27.97	-44.9	-45.9	16.9	0.00e+00	0	62	0	648019968	52	4080
2026-01-01 08:31:01.16	347.39	27.82	-45.1	-46.1	16.7	0.00e+00	0	62	0	651165696	52	4166
2026-01-01 08:31:02.13	347.24	27.67	-45.2	-46.2	16.6	0.00e+00	0	62	0	653262848	52	4232
2026-01-01 08:31:03.10	347.09	27.52	-44.9	-45.9	16.9	0.00e+00	0	62	0	656408576	52	4088
2026-01-01 08:31:04.06	346.94	27.38	-44.8	-45.8	17.1	0.00e+00	0	62	0	659554304	52	4008
2026-01-01 08:31:05.03	346.80	27.23	-44.7	-45.7	17.1	0.00e+00	0	62	0	662700032	52	3989
2026-01-01 08:31:06.00	346.65	27.09	-44.6	-45.6	17.2	0.00e+00	0	62	0	665845760	52	3922
2026-01-01 08:31:06.96	346.51	26.94	-44.5	-45.4	17.3	0.00e+00	0	62	0	668991488	52	3867
2026-01-01 08:31:07.92	346.37	26.80	-44.6	-45.5	17.3	0.00e+00	0	62	0	672137216	52	3885
2026-01-01 08:31:08.89	346.23	26.65	-44.8	-45.7	17.0	0.00e+00	0	62	0	674234368	52	4004
2026-01-01 08:31:09.85	346.09	26.51	-44.5	-45.4	17.4	0.00e+00	0	62	0	677380096	52	3829
2026-01-01 08:31:10.82	345.95	26.37	-44.2	-45.1	17.7	0.00e+00	0	62	0	680525824	51	3943
2026-01-01 08:31:11.78	345.81	26.23	-44.0	-44.8	18.0	0.00e+00	0	62	0	683671552	51	3823
2026-01-01 08:31:12.74	345.68	26.09	-43.9	-44.7	18.1	0.00e+00	0	62	0	686817280	51	3771
2026-01-01 08:31:13.70	345.55	25.95	-44.0	-44.8	18.0	0.00e+00	0	62	0	689963008	51	3821
2026-01-01 08:31:14.67	345.41	25.81	-44.1	-44.9	17.9	0.00e+00	0	62	0	693108736	51	3866
2026-01-01 08:31:15.63	345.28	25.67	-44.2	-45.1	17.8	0.00e+00	0	62	0	696254464	51	3915
2026-01-01 08:31:16.60	345.15	25.53	-44.2	-45.1	17.8	0.00e+00	0	62	0	699400192	51	3922
2026-01-01 08:31:17.56	345.02	25.39	-44.2	-45.1	17.7	0.00e+00	0	62	0	701497344	51	3934
2026-01-01 08:31:18.52	344.89	25.25	-44.1	-44.9	17.9	0.00e+00	0	62	0	704643072	51	3842
2026-01-01 08:31:19.49	344.77	25.11	-44.1	-44.9	17.9	0.00e+00	0	62	0	707788800	51	3868
2026-01-01 08:31:20.45	344.64	24.98	-44.2	-45.1	17.7	0.00e+00	0	62	0	710934528	51	3940
2026-01-01 08:31:21.42	344.51	24.84	-44.4	-45.3	17.6	0.00e+00	0	62	0	714080256	51	4007
2026-01-01 08:31:22.38	344.39	24.71	-44.4	-45.3	17.6	0.00e+00	0	62	0	717225984	51	4007
2026-01-01 08:31:23.35	344.27	24.57	-44.5	-45.4	17.4	0.00e+00	0	62	0	720371712	51	4079
2026-01-01 08:31:24.31	344.15	24.44	-44.4	-45.3	17.5	0.00e+00	0	62	0	723517440	51	4038
2026-01-01 08:31:25.28	344.03	24.30	-44.4	-45.3	17.6	0.00e+00	0	62	0	725614592	51	4021
2026-01-01 08:31:26.24	343.91	24.17	-44.5	-45.4	17.4	0.00e+00	0	62	0	728760320	51	4084
2026-01-01 08:31:27.20	343.79	24.04	-44.6	-45.5	17.3	0.00e+00	0	62	0	731906048	51	4128
2026-01-01 08:31:28.17	343.67	23.90	-44.8	-45.7	17.1	0.00e+00	0	62	0	735051776	51	4234
2026-01-01 08:31:29.13	343.55	23.77	-44.9	-45.9	16.8	0.00e+00	0	62	0	738197504	52	4098
2026-01-01 08:31:30.10	343.44	23.64	-44.7	-45.7	17.1	0.00e+00	0	62	0	741343232	52	3978
2026-01-01 08:31:31.06	343.32	23.51	-44.5	-45.4	17.3	0.00e+00	0	62	0	744488960	52	3868
2026-01-01 08:31:32.03	343.21	23.38	-44.4	-45.3	17.4	0.00e+00	0	62	0	746586112	52	3822
2026-01-01 08:31:32.99	343.10	23.25	-44.6	-45.5	17.3	0.00e+00	0	62	0	749731840	51	4145
2026-01-01 08:31:33.96	342.99	23.12	-44.5	-45.4	17.3	0.00e+00	0	62	0	752877568	51	4095
2026-01-01 08:31:34.92	342.88	22.99	-44.5	-45.4	17.4	0.00e+00	0	62	0	756023296	51	4057
2026-01-01 08:31:35.89	342.77	22.86	-44.5	-45.4	17.3	0.00e+00	0	62	0	759169024	51	4096
2026-01-01 08:31:36.85	342.66	22.73	-44.7	-45.6	17.2	0.00e+00	0	62	0	762314752	51	4193
2026-01-01 08:31:37.82	342.55	22.61	-44.4	-45.3	17.5	0.00e+00	0	62	0	765460480	51	4012
2026-01-01 08:31:38.78	342.44	22.48	-44.2	-45.1	17.7	0.00e+00	0	62	0	768606208	51	3933
2026-01-01 08:31:39.75	342.34	22.35	-44.1	-45.0	17.8	0.00e+00	0	62	0	771751936	51	3886
2026-01-01 08:31:40.71	342.23	22.23	-44.1	-45.0	17.8	0.00e+00	0	62	0	773849088	51	3879
2026-01-01 08:31:41.68	342.13	22.10	-44.1	-44.9	17.8	0.00e+00	0	62	0	776994816	51	3855
2026-01-01 08:31:42.64	342.02	21.98	-44.1	-45.0	17.8	0.00e+00	0	62	0	780140544	51	3871
2026-01-01 08:31:43.61	341.92	21.85	-44.2	-45.1	17.7	0.00e+00	0	62	0	783286272	51	3945
2026-01-01 08:31:44.58	341.82	21.73	-44.3	-45.1	17.6	0.00e+00	0	62	0	786432000	51	3953
2026-01-01 08:31:45.54	341.72	21.61	-44.2	-45.1	17.7	0.00e+00	0	62	0	789577728	51	3927
2026-01-01 08:31:46.50	341.62	21.49	-44.2	-45.1	17.6	0.00e+00	0	62	0	792723456	51	3947
2026-01-01 08:31:47.47	341.52	21.36	-44.4	-45.4	17.4	0.00e+00	0	62	0	795869184	51	4057
2026-01-01 08:31:48.44	341.42	21.24	-44.4	-45.3	17.4	0.00e+00	0	62	0	797966336	51	4046
2026-01-01 08:31:49.40	341.32	21.12	-44.4	-45.3	17.4	0.00e+00	0	62	0	801112064	51	4040
2026-01-01 08:31:50.36	341.23	21.00	-44.4	-45.4	17.4	0.00e+00	0	62	0	804257792	51	4056
2026-01-01 08:31:51.33	341.13	20.88	-44.4	-45.4	17.3	0.00e+00	0	62	0	807403520	51	4059
2026-01-01 08:31:52.29	341.03	20.76	-44.2	-45.1	17.5	0.00e+00	0	62	0	810549248	51	3957
2026-01-01 08:31:53.25	340.94	20.64	-44.4	-45.3	17.3	0.00e+00	0	62	0	813694976	51	4035
2026-01-01 08:31:54.22	340.85	20.52	-44.6	-45.7	16.9	0.00e+00	0	62	0	816840704	51	4198
2026-01-01 08:31:55.18	340.75	20.40	-44.8	-45.8	16.7	0.00e+00	0	62	0	818937856	51	4253
2026-01-01 08:31:56.15	340.66	20.29	-45.0	-46.1	16.2	0.00e+00	0	62	0	822083584	52	4177
2026-01-01 08:31:57.11	340.57	20.17	-45.2	-46.4	15.9	0.00e+00	0	62	0	825229312	52	4309
2026-01-01 08:31:58.08	340.48	20.05	-45.7	-47.0	15.2	0.00e+00	0	62	0	828375040	53	4382
2026-01-01 08:31:59.04	340.39	19.94	-46.0	-47.5	14.7	0.00e+00	0	62	0	831520768	53	4608
2026-01-01 08:32:00.01	340.30	19.82	-46.3	-47.9	14.3	7.00e-07	0	62	0	834666496	54	4546
2026-01-01 08:32:00.97	340.21	19.70	-46.3	-47.8	14.2	7.00e-07	0	62	0	837812224	54	4518
2026-01-01 08:32:01.93	340.12	19.59	-46.3	-47.8	14.2	0.00e+00	0	62	0	840957952	54	4508
2026-01-01 08:32:02.90	340.03	19.48	-46.2	-47.8	14.2	2.20e-06	0	62	0	844103680	54	4500
2026-01-01 08:32:03.86	339.95	19.36	-46.5	-48.1	13.9	1.50e-06	0	62	0	846200832	54	4687
2026-01-01 08:32:04.82	339.86	19.25	-46.4	-48.0	14.0	1.50e-06	0	62	0	849346560	54	4629
2026-01-01 08:32:05.79	339.78	19.13	-46.5	-48.2	13.9	1.50e-06	0	62	0	852492288	54	4708
2026-01-01 08:32:06.76	339.69	19.02	-46.2	-47.8	14.3	4.50e-06	0	62	0	855638016	54	4503
2026-01-01 08:32:07.72	339.61	18.91	-45.9	-47.2	14.8	0.00e+00	0	62	0	858783744	54	4238
2026-01-01 08:32:08.69	339.52	18.80	-45.6	-46.8	15.2	0.00e+00	0	62	0	861929472	54	4046
2026-01-01 08:32:09.65	339.44	18.69	-45.4	-46.7	15.4	0.00e+00	0	62	0	865075200	54	3971
2026-01-01 08:32:10.62	339.36	18.57	-45.5	-46.7	15.5	0.00e+00	0	62	0	868220928	54	3987
2026-01-01 08:32:11.58	339.28	18.47	-45.3	-46.5	15.7	0.00e+00	0	62	0	870318080	53	4104
2026-01-01 08:32:12.55	339.20	18.35	-45.1	-46.2	15.9	0.00e+00	0	62	0	873463808	53	3997
2026-01-01 08:32:13.51	339.12	18.25	-45.1	-46.3	15.9	0.00e+00	0	62	0	876609536	53	4009
2026-01-01 08:32:14.49	339.04	18.13	-45.1	-46.2	15.9	0.00e+00	0	62	0	879755264	53	3994
2026-01-01 08:32:15.45	338.96	18.03	-45.3	-46.5	15.7	0.00e+00	0	62	0	882900992	53	4110
2026-01-01 08:32:16.42	338.88	17.92	-45.7	-46.9	15.3	0.00e+00	0	62	0	886046720	53	4336
2026-01-01 08:32:17.39	338.80	17.81	-45.8	-47.0	15.3	0.00e+00	0	62	0	889192448	53	4391
2026-01-01 08:32:18.36	338.72	17.70	-46.0	-47.3	15.1	0.00e+00	0	62	0	892338176	53	4508
2026-01-01 08:32:19.32	338.65	17.59	-46.0	-47.4	15.0	0.00e+00	0	62	0	894435328	54	4298
2026-01-01 08:32:20.29	338.57	17.49	-45.8	-47.0	15.4	7.00e-07	0	62	0	897581056	54	4130
2026-01-01 08:32:21.25	338.49	17.38	-45.8	-47.1	15.4	0.00e+00	0	62	0	900726784	54	4156
2026-01-01 08:32:22.22	338.42	17.27	-45.5	-46.7	15.8	0.00e+00	0	62	0	903872512	54	3965
2026-01-01 08:32:23.18	338.34	17.17	-45.2	-46.3	16.2	0.00e+00	0	62	0	907018240	53	4051
2026-01-01 08:32:24.15	338.27	17.06	-45.1	-46.2	16.3	0.00e+00	0	62	0	910163968	53	4003
2026-01-01 08:32:25.11	338.20	16.96	-45.3	-46.5	16.0	0.00e+00	0	62	0	913309696	53	4114
2026-01-01 08:32:26.08	338.12	16.85	-45.5	-46.7	15.9	0.00e+00	0	62	0	916455424	53	4214
2026-01-01 08:32:27.04	338.05	16.75	-45.7	-46.9	15.6	0.00e+00	0	62	0	918552576	53	4329
2026-01-01 08:32:28.01	337.98	16.65	-45.4	-46.6	16.0	0.00e+00	0	62	0	921698304	53	4157
2026-01-01 08:32:28.98	337.91	16.54	-45.3	-46.4	16.2	0.00e+00	0	62	0	924844032	53	4065
2026-01-01 08:32:29.95	337.84	16.44	-45.1	-46.2	16.4	0.00e+00	0	62	0	927989760	53	3964
2026-01-01 08:32:30.91	337.77	16.34	-45.0	-46.1	16.4	0.00e+00	0	62	0	931135488	53	3931
2026-01-01 08:32:31.87	337.70	16.24	-45.0	-46.1	16.5	0.00e+00	0	62	0	934281216	53	3932
2026-01-01 08:32:32.84	337.63	16.13	-45.1	-46.2	16.4	0.00e+00	0	62	0	937426944	53	3967
2026-01-01 08:32:33.81	337.56	16.03	-45.0	-46.1	16.4	0.00e+00	0	62	0	940572672	53	3938
2026-01-01 08:32:34.78	337.49	15.93	-45.1	-46.2	16.4	0.00e+00	0	62	0	942669824	53	3966
2026-01-01 08:32:35.75	337.42	15.83	-45.1	-46.3	16.3	0.00e+00	0	62	0	945815552	53	4028
2026-01-01 08:32:36.71	337.35	15.73	-45.2	-46.3	16.2	0.00e+00	0	62	0	948961280	53	4045
2026-01-01 08:32:37.67	337.29	15.63	-45.1	-46.2	16.3	0.00e+00	0	62	0	952107008	53	3982
2026-01-01 08:32:38.64	337.22	15.53	-45.2	-46.3	16.3	0.00e+00	0	62	0	955252736	53	4016
2026-01-01 08:32:39.61	337.15	15.43	-45.3	-46.4	16.1	0.00e+00	0	62	0	958398464	53	4076
2026-01-01 08:32:40.57	337.09	15.33	-45.4	-46.5	16.0	0.00e+00	0	62	0	961544192	53	4144
2026-01-01 08:32:41.53	337.02	15.24	-45.3	-46.5	16.0	0.00e+00	0	62	0	964689920	53	4111
2026-01-01 08:32:42.50	336.96	15.14	-45.2	-46.3	16.2	0.00e+00	0	62	0	967835648	53	4033
2026-01-01 08:32:43.47	336.89	15.04	-45.0	-46.1	16.4	0.00e+00	0	62	0	969932800	53	3938
2026-01-01 08:32:44.43	336.83	14.94	-45.0	-46.1	16.4	0.00e+00	0	62	0	973078528	53	3926
2026-01-01 08:32:45.39	336.77	14.85	-45.0	-46.1	16.4	0.00e+00	0	62	0	976224256	53	3938
2026-01-01 08:32:46.36	336.71	14.75	-45.0	-46.1	16.4	0.00e+00	0	62	0	979369984	53	3930
2026-01-01 08:32:47.32	336.64	14.65	-45.1	-46.2	16.3	0.00e+00	0	62	0	982515712	53	3977
2026-01-01 08:32:48.29	336.58	14.56	-44.9	-45.9	16.5	0.00e+00	0	62	0	985661440	53	3867
2026-01-01 08:32:49.25	336.52	14.46	-44.8	-45.9	16.7	0.00e+00	0	62	0	988807168	52	4060
2026-01-01 08:32:50.22	336.46	14.37	-44.9	-46.0	16.5	0.00e+00	0	62	0	991952896	52	4109
2026-01-01 08:32:51.19	336.40	14.27	-45.0	-46.1	16.4	0.00e+00	0	62	0	994050048	52	4176
2026-01-01 08:32:52.15	336.34	14.18	-44.9	-46.0	16.5	0.00e+00	0	62	0	997195776	52	4122
2026-01-01 08:32:53.12	336.28	14.08	-45.0	-46.1	16.4	0.00e+00	0	62	0	1000341504	52	4164
2026-01-01 08:32:54.09	336.22	13.99	-44.9	-46.0	16.5	0.00e+00	0	62	0	1003487232	52	4122
2026-01-01 08:32:55.06	336.16	13.89	-45.1	-46.1	16.4	0.00e+00	0	62	0	1006632960	52	4190
2026-01-01 08:32:56.02	336.10	13.80	-45.1	-46.1	16.4	0.00e+00	0	62	0	1009778688	52	4190
2026-01-01 08:32:56.99	336.04	13.71	-44.9	-46.0	16.5	0.00e+00	0	62	0	1012924416	52	4118
2026-01-01 08:32:57.96	335.98	13.61	-44.9	-46.0	16.5	0.00e+00	0	62	0	1016070144	52	4101
2026-01-01 08:32:58.92	335.92	13.52	-44.9	-45.9	16.5	0.00e+00	0	62	0	1018167296	52	4089
2026-01-01 08:32:59.88	335.87	13.43	-44.8	-45.8	16.6	0.00e+00	0	62	0	1021313024	52	4049
2026-01-01 08:33:00.84	335.81	13.34	-44.8	-45.9	16.6	0.00e+00	0	62	0	1024458752	52	4052
2026-01-01 08:33:01.80	335.75	13.25	-44.8	-45.9	16.6	0.00e+00	0	62	0	1027604480	52	4059
2026-01-01 08:33:02.77	335.70	13.16	-44.9	-45.9	16.6	0.00e+00	0	62	0	1030750208	52	4085
2026-01-01 08:33:03.73	335.64	13.07	-45.0	-46.1	16.5	0.00e+00	0	62	0	1033895936	52	4152
2026-01-01 08:33:04.70	335.59	12.98	-44.9	-46.0	16.5	0.00e+00	0	62	0	1037041664	52	4119
2026-01-01 08:33:05.67	335.53	12.89	-45.0	-46.1	16.4	0.00e+00	0	62	0	1040187392	52	4175
2026-01-01 08:33:06.63	335.48	12.80	-45.1	-46.2	16.3	0.00e+00	0	62	0	1042284544	52	4222
2026-01-01 08:33:07.60	335.42	12.71	-45.1	-46.3	16.2	0.00e+00	0	62	0	1045430272	52	4246
2026-01-01 08:33:08.56	335.37	12.62	-45.2	-46.3	16.2	0.00e+00	0	62	0	1048576000	52	4258
2026-01-01 08:33:09.52	335.32	12.53	-45.2	-46.3	16.2	0.00e+00	0	62	0	1051721728	52	4269
2026-01-01 08:33:10.49	335.26	12.44	-45.1	-46.2	16.3	0.00e+00	0	62	0	1054867456	52	4207
2026-01-01 08:33:11.46	335.21	12.35	-45.0	-46.1	16.3	0.00e+00	0	62	0	1058013184	52	4183
2026-01-01 08:33:12.42	335.16	12.27	-45.1	-46.2	16.3	0.00e+00	0	62	0	1061158912	52	4203
2026-01-01 08:33:13.38	335.11	12.18	-45.4	-46.5	16.0	0.00e+00	0	62	0	1064304640	52	4383
2026-01-01 08:33:14.35	335.05	12.09	-45.4	-46.6	15.9	0.00e+00	0	62	0	1067450368	52	4411
2026-01-01 08:33:15.31	335.00	12.00	-45.3	-46.5	16.0	0.00e+00	0	62	0	1069547520	52	4350
2026-01-01 08:33:16.27	334.95	11.92	-45.3	-46.5	16.0	0.00e+00	0	62	0	1072693248	52	4342
2026-01-01 08:33:17.24	334.90	11.83	-45.5	-46.7	15.8	0.00e+00	0	62	0	1075838976	52	4442
2026-01-01 08:33:18.20	334.85	11.74	-45.5	-46.7	15.8	0.00e+00	0	62	0	1078984704	53	4209
2026-01-01 08:33:19.16	334.80	11.66	-45.4	-46.5	15.9	0.00e+00	0	62	0	1082130432	53	4141
2026-01-01 08:33:20.13	334.75	11.57	-45.2	-46.3	16.1	0.00e+00	0	62	0	1085276160	53	4042
2026-01-01 08:33:21.09	334.70	11.49	-45.2	-46.3	16.1	0.00e+00	0	62	0	1088421888	53	4045
2026-01-01 08:33:22.07	334.65	11.40	-45.2	-46.3	16.1	0.00e+00	0	62	0	1090519040	53	4044
2026-01-01 08:33:23.03	334.60	11.32	-45.3	-46.5	16.0	0.00e+00	0	62	0	1093664768	53	4108
2026-01-01 08:33:24.00	334.55	11.23	-45.2	-46.3	16.1	0.00e+00	0	62	0	1096810496	53	4047
2026-01-01 08:33:24.96	334.50	11.15	-45.5	-46.6	15.8	0.00e+00	0	62	0	1099956224	53	4192
2026-01-01 08:33:25.93	334.46	11.06	-45.3	-46.5	15.9	0.00e+00	0	63	0	1103101952	53	4111
2026-01-01 08:33:26.89	334.41	10.98	-45.2	-46.3	16.1	0.00e+00	0	62	0	1106247680	53	4042
2026-01-01 08:33:27.86	334.36	10.90	-45.2	-46.3	16.1	0.00e+00	0	62	0	1109393408	53	4050
2026-01-01 08:33:28.83	334.31	10.81	-45.3	-46.4	16.0	0.00e+00	0	62	0	1112539136	53	4091
2026-01-01 08:33:29.80	334.26	10.73	-45.2	-46.4	16.0	0.00e+00	0	62	0	1115684864	53	4069
2026-01-01 08:33:30.76	334.22	10.65	-45.2	-46.4	16.0	0.00e+00	0	62	0	1117782016	53	4070
2026-01-01 08:33:31.72	334.17	10.56	-45.3	-46.4	16.0	0.00e+00	0	62	0	1120927744	53	4085
2026-01-01 08:33:32.69	334.13	10.48	-45.4	-46.6	15.8	0.00e+00	0	62	0	1124073472	53	4161
2026-01-01 08:33:33.65	334.08	10.40	-45.3	-46.5	15.9	0.00e+00	0	62	0	1127219200	53	4127
2026-01-01 08:33:34.62	334.03	10.32	-45.4	-46.6	15.9	0.00e+00	0	62	0	1130364928	53	4149
2026-01-01 08:33:35.58	333.99	10.24	-45.6	-46.8	15.6	0.00e+00	0	62	0	1133510656	53	4255
2026-01-01 08:33:36.55	333.94	10.15	-45.6	-46.9	15.5	0.00e+00	0	63	0	1136656384	53	4304
2026-01-01 08:33:37.51	333.90	10.07	-45.5	-46.8	15.6	0.00e+00	0	62	0	1138753536	53	4243
2026-01-01 08:33:38.49	333.85	9.99	-45.6	-46.8	15.6	0.00e+00	0	62	0	1141899264	53	4276
2026-01-01 08:33:39.45	333.81	9.91	-45.6	-46.8	15.6	0.00e+00	0	62	0	1145044992	53	4272
2026-01-01 08:33:40.42	333.77	9.83	-45.6	-46.8	15.5	0.00e+00	0	62	0	1148190720	53	4278
2026-01-01 08:33:41.39	333.72	9.75	-45.5	-46.8	15.5	0.00e+00	0	62	0	1151336448	53	4279
2026-01-01 08:33:42.36	333.68	9.67	-45.7	-46.9	15.5	0.00e+00	0	62	0	1154482176	53	4315
2026-01-01 08:33:43.32	333.64	9.59	-45.7	-46.9	15.4	0.00e+00	0	62	0	1157627904	53	4330
2026-01-01 08:33:44.29	333.59	9.51	-45.7	-46.9	15.4	0.00e+00	0	62	0	1160773632	53	4337
2026-01-01 08:33:45.26	333.55	9.43	-45.7	-47.0	15.4	0.00e+00	0	62	0	1163919360	53	4367
2026-01-01 08:33:46.22	333.51	9.35	-45.7	-47.0	15.4	0.00e+00	0	62	0	1166016512	53	4359
2026-01-01 08:33:47.18	333.47	9.28	-45.7	-47.0	15.4	0.00e+00	0	62	0	1169162240	53	4345
2026-01-01 08:33:48.14	333.42	9.20	-45.6	-46.9	15.4	0.00e+00	0	62	0	1172307968	53	4315
2026-01-01 08:33:49.10	333.38	9.12	-45.8	-47.1	15.3	0.00e+00	0	62	0	1175453696	53	4417
2026-01-01 08:33:50.07	333.34	9.04	-45.9	-47.3	15.0	0.00e+00	0	62	0	1178599424	53	4527
2026-01-01 08:33:51.03	333.30	8.96	-46.1	-47.5	14.9	0.00e+00	0	62	0	1181745152	54	4352
2026-01-01 08:33:52.00	333.26	8.89	-46.1	-47.5	14.9	0.00e+00	0	62	0	1184890880	54	4367
2026-01-01 08:33:52.96	333.22	8.81	-46.1	-47.5	14.8	0.00e+00	0	62	0	1188036608	54	4380
2026-01-01 08:33:53.92	333.18	8.73	-46.2	-47.6	14.7	7.00e-07	0	62	0	1190133760	54	4419
2026-01-01 08:33:54.89	333.14	8.66	-46.4	-47.9	14.5	7.00e-07	0	62	0	1193279488	54	4558
2026-01-01 08:33:55.86	333.10	8.58	-46.3	-47.7	14.6	0.00e+00	0	62	0	1196425216	54	4486
2026-01-01 08:33:56.82	333.06	8.50	-46.5	-48.0	14.4	0.00e+00	0	62	0	1199570944	54	4600
2026-01-01 08:33:57.79	333.02	8.43	-46.4	-47.9	14.4	2.20e-06	0	62	0	1202716672	54	4566
2026-01-01 08:33:58.75	332.98	8.35	-46.1	-47.7	14.7	0.00e+00	0	62	0	1205862400	54	4468
2026-01-01 08:33:59.73	332.94	8.27	-46.3	-47.8	14.4	0.00e+00	0	62	0	1209008128	54	4543
2026-01-01 08:34:00.69	332.90	8.20	-46.4	-47.8	14.5	3.00e-06	0	62	0	1212153856	54	4537
2026-01-01 08:34:01.66	332.86	8.12	-46.2	-47.6	14.7	7.00e-07	0	62	0	1214251008	54	4408
2026-01-01 08:34:02.63	332.82	8.05	-46.2	-47.7	14.7	0.00e+00	0	62	0	1217396736	54	4442
2026-01-01 08:34:03.60	332.78	7.97	-46.2	-47.6	14.7	0.00e+00	0	62	0	1220542464	54	4439
2026-01-01 08:34:04.56	332.75	7.90	-46.2	-47.7	14.6	0.00e+00	0	62	0	1223688192	54	4461
2026-01-01 08:34:05.52	332.71	7.82	-46.3	-47.8	14.5	0.00e+00	0	62	0	1226833920	54	4535
2026-01-01 08:34:06.48	332.67	7.75	-46.3	-47.8	14.5	7.00e-07	0	62	0	1229979648	54	4505
2026-01-01 08:34:07.46	332.63	7.67	-46.5	-48.1	14.2	7.00e-07	0	62	0	1233125376	54	4678
2026-01-01 08:34:08.45	332.60	7.60	-46.5	-48.1	14.2	1.50e-06	0	62	0	1236271104	55	4398
2026-01-01 08:34:09.44	332.56	7.52	-46.5	-48.0	14.3	0.00e+00	0	62	0	1239416832	55	4362
2026-01-01 08:34:10.43	332.52	7.45	-46.6	-48.2	14.1	3.00e-06	0	62	0	1242562560	55	4448
2026-01-01 08:34:11.42	332.48	7.37	-46.5	-48.1	14.1	0.00e+00	0	62	0	1245708288	55	4419
2026-01-01 08:34:12.40	332.45	7.30	-46.5	-48.1	14.2	1.50e-06	0	62	0	1248854016	55	4407
2026-01-01 08:34:13.37	332.41	7.23	-46.5	-48.2	14.0	1.50e-06	0	62	0	1250951168	55	4467
2026-01-01 08:34:14.35	332.37	7.15	-46.6	-48.2	14.1	1.50e-06	0	62	0	1254096896	55	4448
2026-01-01 08:34:15.31	332.34	7.08	-46.7	-48.4	13.8	3.80e-06	0	62	0	1257242624	55	4553
2026-01-01 08:34:16.28	332.30	7.01	-46.7	-48.3	13.9	4.50e-06	0	62	0	1260388352	55	4525
2026-01-01 08:34:17.24	332.27	6.94	-46.7	-48.4	13.8	2.20e-06	0	62	0	1263534080	55	4549
2026-01-01 08:34:18.21	332.23	6.86	-46.6	-48.2	14.0	2.20e-06	0	62	0	1266679808	55	4469
2026-01-01 08:34:19.18	332.20	6.79	-46.7	-48.4	13.8	3.00e-06	0	62	0	1269825536	55	4556
2026-01-01 08:34:20.15	332.16	6.72	-46.7	-48.3	13.8	1.50e-06	0	63	0	1272971264	55	4532
2026-01-01 08:34:21.12	332.13	6.65	-46.8	-48.5	13.6	3.00e-06	0	62	0	1275068416	55	4648
2026-01-01 08:34:22.09	332.09	6.58	-46.8	-48.5	13.7	3.00e-06	0	62	0	1278214144	55	4616
2026-01-01 08:34:23.06	332.06	6.50	-46.8	-48.5	13.7	3.80e-06	0	62	0	1281359872	55	4614
2026-01-01 08:34:24.02	332.02	6.43	-46.8	-48.5	13.7	2.20e-06	0	62	0	1284505600	55	4613
2026-01-01 08:34:24.99	331.99	6.36	-46.9	-48.6	13.5	7.60e-06	0	62	0	1287651328	55	4692
2026-01-01 08:34:25.95	331.96	6.29	-46.7	-48.3	13.8	7.00e-07	0	62	0	1290797056	55	4539
2026-01-01 08:34:26.92	331.92	6.22	-47.0	-48.8	13.3	9.10e-06	0	62	0	1293942784	55	4776
2026-01-01 08:34:27.88	331.89	6.15	-47.0	-48.8	13.3	1.29e-05	0	62	0	1297088512	55	4765
2026-01-01 08:34:28.84	331.86	6.08	-46.9	-48.6	13.5	1.29e-05	0	62	0	1299185664	55	4696
2026-01-01 08:34:29.81	331.82	6.01	-47.2	-49.0	13.2	2.51e-05	0	62	0	1302331392	56	4619
2026-01-01 08:34:30.77	331.79	5.94	-47.1	-48.9	13.3	2.05e-05	0	62	0	1305477120	56	4566
2026-01-01 08:34:31.74	331.76	5.87	-47.0	-48.8	13.4	1.44e-05	0	62	0	1308622848	56	4504
2026-01-01 08:34:32.70	331.73	5.81	-47.1	-48.9	13.3	2.21e-05	0	62	0	1311768576	56	4590
2026-01-01 08:34:33.67	331.69	5.74	-47.1	-48.9	13.3	2.13e-05	0	62	0	1314914304	56	4572
2026-01-01 08:34:34.64	331.66	5.67	-47.1	-48.9	13.3	2.05e-05	0	62	0	1318060032	56	4582
2026-01-01 08:34:35.61	331.63	5.60	-47.2	-49.0	13.1	1.98e-05	0	62	0	1321205760	56	4638
2026-01-01 08:34:36.58	331.60	5.53	-47.3	-49.3	12.9	4.88e-05	0	62	0	1323302912	56	4770
2026-01-01 08:34:37.55	331.57	5.46	-47.2	-49.1	13.1	2.74e-05	0	62	0	1326448640	56	4670
2026-01-01 08:34:38.51	331.54	5.39	-47.4	-49.4	12.8	6.56e-05	0	62	0	1329594368	56	4820
2026-01-01 08:34:39.48	331.50	5.32	-47.2	-49.2	12.9	5.26e-05	0	62	0	1332740096	56	4719
2026-01-01 08:34:40.45	331.47	5.26	-47.4	-49.3	12.8	5.79e-05	0	63	0	1335885824	56	4803
2026-01-01 08:34:41.41	331.44	5.19	-47.5	-49.4	12.6	8.31e-05	0	62	0	1339031552	56	4869
2026-01-01 08:34:42.38	331.41	5.12	-47.4	-49.4	12.7	9.00e-05	0	62	0	1342177280	56	4861
2026-01-01 08:34:43.35	331.38	5.05	-47.6	-49.7	12.3	1.09e-04	0	63	0	1345323008	57	4752
2026-01-01 08:34:44.31	331.35	4.99	-51.5	-61.2	3.8	7.15e-02	0	62	104	1347420160	64	11832
2026-01-01 08:34:45.29	331.32	4.92	-51.9	-63.2	3.8	1.49e+00	0	63	104	1347420160	65	14206
2026-01-01 08:34:46.27	331.29	4.85	-52.2	-63.6	3.8	1.49e+00	0	62	104	1347420160	66	14023
2026-01-01 08:34:47.26	331.26	4.78	-52.1	-63.7	3.8	1.49e+00	0	63	104	1347420160	66	14192
2026-01-01 08:34:48.23	331.23	4.72	-52.4	-63.8	3.8	1.49e+00	0	62	104	1347420160	66	14298
2026-01-01 08:34:49.22	331.20	4.65	-52.1	-63.6	3.8	1.49e+00	0	62	104	1347420160	66	13908
2026-01-01 08:34:50.20	331.17	4.58	-52.4	-63.8	3.8	1.49e+00	0	62	104	1347420160	66	14322
2026-01-01 08:34:51.19	331.14	4.51	-52.6	-64.0	3.8	1.49e+00	0	62	104	1347420160	67	13840
2026-01-01 08:34:52.18	331.11	4.44	-52.6	-64.1	3.8	1.49e+00	0	62	104	1347420160	67	13963
2026-01-01 08:34:53.16	331.08	4.38	-52.7	-64.1	3.8	1.49e+00	0	63	104	1347420160	67	14009
2026-01-01 08:34:54.14	331.05	4.31	-52.7	-64.2	3.8	1.49e+00	0	62	104	1347420160	67	14047
2026-01-01 08:34:55.12	331.02	4.25	-52.6	-64.1	3.8	1.49e+00	0	62	104	1347420160	67	14042
2026-01-01 08:34:56.11	330.99	4.18	-52.8	-64.2	3.8	1.49e+00	0	63	104	1347420160	67	14132
2026-01-01 08:34:57.09	330.96	4.11	-52.8	-64.2	3.8	1.49e+00	0	63	104	1347420160	67	14126
2026-01-01 08:34:58.08	330.93	4.05	-52.8	-64.3	3.8	1.49e+00	0	63	104	1347420160	67	14219
2026-01-01 08:34:59.06	330.90	3.98	-52.8	-64.3	3.8	1.49e+00	0	63	104	1347420160	67	14237
2026-01-01 08:35:00.03	330.88	3.91	-52.8	-64.3	3.8	1.49e+00	0	63	104	1347420160	67	14295
2026-01-01 08:35:01.02	330.85	3.85	-52.8	-64.3	3.8	1.49e+00	0	62	104	1347420160	67	14366
2026-01-01 08:35:02.00	330.82	3.78	-52.6	-64.3	3.8	1.49e+00	0	63	104	1347420160	67	14301
2026-01-01 08:35:02.98	330.79	3.72	-52.9	-64.3	3.8	1.49e+00	0	63	104	1347420160	67	14284
2026-01-01 08:35:03.97	330.76	3.65	-52.7	-64.3	3.8	1.49e+00	0	63	104	1347420160	67	14373
2026-01-01 08:35:04.95	330.74	3.59	-52.7	-64.3	3.8	1.49e+00	0	62	104	1347420160	67	14337
2026-01-01 08:35:05.94	330.71	3.52	-52.9	-64.3	3.8	1.49e+00	0	63	104	1347420160	67	14337
2026-01-01 08:35:06.92	330.68	3.46	-52.9	-64.3	3.8	1.49e+00	0	63	104	1347420160	67	14353
2026-01-01 08:35:07.90	330.65	3.39	-52.9	-64.3	3.8	1.49e+00	0	63	104	1347420160	67	14363
2026-01-01 08:35:08.89	330.63	3.33	-52.9	-64.3	3.8	1.49e+00	0	62	104	1347420160	67	14372
2026-01-01 08:35:09.87	330.60	3.26	-52.9	-64.4	3.8	1.49e+00	0	62	104	1347420160	67	14382
2026-01-01 08:35:10.85	330.57	3.20	-52.9	-64.3	3.8	1.49e+00	0	62	104	1347420160	67	14372
2026-01-01 08:35:11.84	330.55	3.13	-52.9	-64.3	3.8	1.49e+00	0	63	104	1347420160	67	14337
2026-01-01 08:35:12.82	330.52	3.07	-52.9	-64.3	3.8	1.49e+00	0	63	104	1347420160	67	14305
2026-01-01 08:35:13.80	330.49	3.01	-52.7	-64.3	3.8	1.49e+00	0	62	104	1347420160	67	14268

#Closed at: 2026-01-01 08:35:14
#Recorded file [1347 MB]: D:/Data/31026_260101_113444.dat