passes_logs/2026/01/01/R3.0SM8_Murmansk_STILSPACE/R3.0SM8_Murmansk_STILSPACE__20260101_145708_FENGYUN_3D_rec.log

#Pass ID: 20260101_145708_FENGYUN 3D
#Satellite: FENGYUN 3D
#Configuration: FENGYUN 3D
#almurnet v.1.7.20240730
#Start time: 2026-01-01 14:57:09

#Version: 2.2.20231116
#Station: R3.0SM8_Murmansk_STILSPACE
#Location: 33.092731 lon 68.902999 lat
#TLE: 1 43010U 17072A   25365.97861918  .00000231  00000+0  13096-3 0  9992
#TLE: 2 43010  98.9911 332.5795 0001872 134.7521 225.3807 14.19690547421260

#Time	Az	El	Level	Level2	SNR	BER	BlckErr	Temp	State	Recorded	gain1	gain2
2026-01-01 14:57:09.03	242.94	3.00	-52.6	-63.4	3.8	8.47e-01	0	45	0	0	67	12848
2026-01-01 14:57:10.01	243.05	3.05	-52.2	-63.2	3.8	8.44e-01	0	46	104	0	66	13412
2026-01-01 14:57:11.00	243.15	3.09	-51.9	-63.1	3.8	8.44e-01	0	46	104	0	65	13964
2026-01-01 14:57:11.99	243.25	3.14	-51.7	-63.0	3.9	8.44e-01	0	46	104	0	66	13059
2026-01-01 14:57:12.99	243.36	3.18	-51.8	-63.0	3.9	8.44e-01	0	46	104	0	66	13008
2026-01-01 14:57:13.98	243.46	3.23	-52.0	-63.1	3.9	8.44e-01	0	46	104	0	66	13160
2026-01-01 14:57:14.96	243.57	3.27	-52.1	-63.1	3.9	8.44e-01	0	46	104	0	66	13169
2026-01-01 14:57:15.95	243.67	3.32	-52.0	-63.2	3.8	8.45e-01	0	46	104	0	66	13262
2026-01-01 14:57:16.95	243.78	3.36	-52.3	-63.2	3.8	8.44e-01	0	46	104	0	66	13310
2026-01-01 14:57:17.94	243.88	3.41	-52.1	-63.1	3.8	8.45e-01	0	46	104	0	66	13165
2026-01-01 14:57:18.92	243.99	3.45	-52.3	-63.2	3.8	8.45e-01	0	46	104	0	66	13303
2026-01-01 14:57:19.91	244.09	3.50	-52.3	-63.1	3.8	8.46e-01	0	46	104	0	66	13174
2026-01-01 14:57:20.90	244.20	3.54	-52.2	-63.0	3.8	8.46e-01	0	47	104	0	66	12960
2026-01-01 14:57:21.89	244.31	3.58	-52.2	-63.0	3.8	8.46e-01	0	47	104	0	66	13022
2026-01-01 14:57:22.87	244.41	3.63	-51.9	-62.9	3.8	8.45e-01	0	47	104	0	66	12934
2026-01-01 14:57:23.86	244.52	3.67	-51.8	-62.8	3.8	8.46e-01	0	47	104	0	66	12805
2026-01-01 14:57:24.85	244.63	3.72	-51.8	-62.7	3.8	8.45e-01	0	47	104	0	66	12575
2026-01-01 14:57:25.84	244.74	3.76	-51.4	-62.4	3.8	8.46e-01	0	47	104	0	65	12875
2026-01-01 14:57:26.83	244.85	3.81	-51.3	-62.2	3.8	8.46e-01	0	47	104	0	65	12564
2026-01-01 14:57:27.82	244.96	3.85	-51.2	-62.2	3.8	8.47e-01	0	47	104	0	65	12624
2026-01-01 14:57:28.81	245.06	3.90	-51.2	-62.2	3.8	8.46e-01	0	47	104	0	65	12598
2026-01-01 14:57:29.80	245.17	3.94	-51.3	-62.1	3.8	8.45e-01	0	47	104	0	65	12485
2026-01-01 14:57:30.78	245.28	3.98	-51.3	-62.2	3.8	8.46e-01	0	47	104	0	65	12618
2026-01-01 14:57:31.76	245.39	4.03	-51.3	-62.2	3.8	8.45e-01	0	47	104	0	65	12571
2026-01-01 14:57:32.75	245.50	4.07	-51.3	-62.2	3.8	8.45e-01	0	47	104	0	65	12587
2026-01-01 14:57:33.73	245.61	4.12	-51.4	-62.2	3.8	8.45e-01	0	47	104	0	65	12623
2026-01-01 14:57:34.72	245.72	4.16	-51.5	-62.2	3.8	8.45e-01	0	47	104	0	65	12574
2026-01-01 14:57:35.71	245.83	4.21	-51.5	-62.1	3.8	8.46e-01	0	47	104	0	65	12391
2026-01-01 14:57:36.70	245.95	4.25	-51.4	-62.1	3.8	8.46e-01	0	48	104	0	65	12423
2026-01-01 14:57:37.69	246.06	4.29	-51.4	-62.0	3.8	8.44e-01	0	47	104	0	65	12278
2026-01-01 14:57:38.67	246.17	4.34	-51.3	-62.0	3.8	8.46e-01	0	48	104	0	65	12268
2026-01-01 14:57:39.66	246.28	4.38	-51.4	-62.0	3.8	8.46e-01	0	48	104	0	65	12337
2026-01-01 14:57:40.66	246.40	4.43	-51.5	-62.1	3.8	8.46e-01	0	48	104	0	65	12466
2026-01-01 14:57:41.64	246.51	4.47	-51.5	-62.2	3.8	8.46e-01	0	48	104	0	65	12604
2026-01-01 14:57:42.63	246.62	4.52	-51.5	-62.2	3.8	8.46e-01	0	48	104	0	65	12622
2026-01-01 14:57:43.63	246.74	4.56	-51.3	-62.1	3.8	8.46e-01	0	48	104	0	65	12383
2026-01-01 14:57:44.61	246.85	4.60	-51.3	-61.5	3.8	8.46e-01	0	48	104	0	65	11616
2026-01-01 14:57:45.59	246.96	4.65	-51.1	-60.5	3.8	8.46e-01	0	48	104	0	65	10389
2026-01-01 14:57:46.59	247.08	4.69	-51.0	-59.0	4.1	8.42e-01	0	48	0	0	64	9176
2026-01-01 14:57:47.57	247.19	4.74	-50.6	-57.3	4.7	8.24e-01	0	48	0	0	64	7570
2026-01-01 14:57:48.56	247.31	4.78	-50.3	-55.5	5.8	6.03e-01	0	49	0	0	63	6563
2026-01-01 14:57:49.55	247.42	4.83	-49.7	-53.8	7.3	2.04e-01	0	48	0	6291456	62	5677
2026-01-01 14:57:50.55	247.54	4.87	-48.7	-51.8	9.3	5.18e-02	0	48	0	11534336	60	5072
2026-01-01 14:57:51.52	247.66	4.91	-47.9	-50.3	10.9	5.36e-03	0	48	0	16777216	59	4512
2026-01-01 14:57:52.51	247.77	4.96	-47.1	-49.0	12.2	7.74e-04	0	49	0	23068672	57	4389
2026-01-01 14:57:53.50	247.89	5.00	-46.1	-47.8	13.4	1.03e-04	0	48	0	28311552	55	4250
2026-01-01 14:57:54.49	248.01	5.05	-45.7	-47.2	13.9	2.63e-05	0	49	0	33554432	54	4230
2026-01-01 14:57:55.48	248.13	5.09	-46.0	-47.5	13.7	2.28e-05	0	49	0	39845888	54	4390
2026-01-01 14:57:56.47	248.24	5.13	-45.9	-47.5	13.7	2.97e-05	0	49	0	45088768	54	4358
2026-01-01 14:57:57.45	248.36	5.18	-45.7	-47.1	14.1	4.50e-06	0	49	0	50331648	54	4164
2026-01-01 14:57:58.45	248.48	5.22	-45.4	-46.8	14.5	1.10e-06	0	49	0	55574528	54	4015
2026-01-01 14:57:59.44	248.60	5.27	-45.2	-46.5	14.7	2.20e-06	0	49	0	61865984	53	4137
2026-01-01 14:58:00.43	248.72	5.31	-45.1	-46.5	14.8	0.00e+00	0	49	0	67108864	53	4114
2026-01-01 14:58:01.42	248.84	5.35	-45.3	-46.7	14.6	0.00e+00	0	49	0	72351744	53	4206
2026-01-01 14:58:02.41	248.96	5.40	-45.3	-46.7	14.6	1.10e-06	0	49	0	78643200	53	4241
2026-01-01 14:58:03.40	249.08	5.44	-45.3	-46.7	14.6	0.00e+00	0	49	0	83886080	53	4216
2026-01-01 14:58:04.37	249.20	5.48	-45.3	-46.7	14.6	3.40e-06	0	49	0	89128960	53	4229
2026-01-01 14:58:05.35	249.32	5.53	-45.3	-46.6	14.7	0.00e+00	0	49	0	94371840	53	4174
2026-01-01 14:58:06.34	249.44	5.57	-45.3	-46.7	14.6	0.00e+00	0	49	0	100663296	53	4222
2026-01-01 14:58:07.34	249.57	5.62	-45.4	-46.8	14.5	0.00e+00	0	49	0	105906176	53	4249
2026-01-01 14:58:08.32	249.69	5.66	-45.5	-46.9	14.4	5.70e-06	0	49	0	111149056	53	4323
2026-01-01 14:58:09.31	249.81	5.70	-45.2	-46.4	14.9	0.00e+00	0	49	0	117440512	53	4092
2026-01-01 14:58:10.30	249.93	5.75	-44.9	-46.2	15.1	1.10e-06	0	50	0	122683392	53	3976
2026-01-01 14:58:11.30	250.06	5.79	-44.9	-46.1	15.1	2.20e-06	0	50	0	127926272	52	4184
2026-01-01 14:58:12.30	250.18	5.83	-44.8	-46.0	15.3	0.00e+00	0	50	0	134217728	52	4120
2026-01-01 14:58:13.28	250.31	5.88	-44.9	-46.1	15.2	1.02e-05	0	50	0	139460608	52	4180
2026-01-01 14:58:14.27	250.43	5.92	-44.9	-46.2	15.1	0.00e+00	0	50	0	144703488	52	4198
2026-01-01 14:58:15.26	250.56	5.96	-45.0	-46.2	15.1	0.00e+00	0	50	0	150994944	52	4217
2026-01-01 14:58:16.25	250.68	6.01	-44.7	-45.9	15.4	0.00e+00	0	50	0	156237824	52	4056
2026-01-01 14:58:17.23	250.80	6.05	-44.5	-45.7	15.7	0.00e+00	0	50	0	161480704	52	3959
2026-01-01 14:58:18.23	250.93	6.09	-44.4	-45.6	15.8	1.10e-06	0	50	0	167772160	52	3928
2026-01-01 14:58:19.22	251.06	6.14	-44.5	-45.6	15.8	3.40e-06	0	50	0	173015040	51	4156
2026-01-01 14:58:20.21	251.19	6.18	-44.6	-45.8	15.7	0.00e+00	0	50	0	178257920	51	4252
2026-01-01 14:58:21.19	251.31	6.22	-44.7	-45.9	15.5	1.10e-06	0	50	0	183500800	51	4305
2026-01-01 14:58:22.18	251.44	6.27	-44.6	-45.7	15.8	2.51e-04	0	50	0	189792256	51	4237
2026-01-01 14:58:23.17	251.57	6.31	-44.4	-45.5	16.0	0.00e+00	0	50	0	195035136	51	4118
2026-01-01 14:58:24.16	251.69	6.35	-44.4	-45.4	16.1	0.00e+00	0	50	0	200278016	51	4087
2026-01-01 14:58:25.14	251.82	6.39	-44.6	-45.7	15.9	0.00e+00	0	50	0	206569472	51	4203
2026-01-01 14:58:26.13	251.95	6.44	-44.6	-45.7	15.9	0.00e+00	0	50	0	211812352	51	4216
2026-01-01 14:58:27.12	252.08	6.48	-44.7	-45.9	15.7	0.00e+00	0	51	0	217055232	51	4297
2026-01-01 14:58:28.11	252.21	6.52	-44.9	-46.0	15.6	0.00e+00	0	50	0	222298112	51	4370
2026-01-01 14:58:29.10	252.34	6.57	-44.6	-45.8	15.8	0.00e+00	0	51	0	228589568	51	4245
2026-01-01 14:58:30.08	252.47	6.61	-44.5	-45.6	15.9	0.00e+00	0	50	0	233832448	51	4183
2026-01-01 14:58:31.06	252.60	6.65	-44.6	-45.7	15.8	0.00e+00	0	51	0	239075328	51	4223
2026-01-01 14:58:32.04	252.73	6.69	-44.5	-45.7	15.9	0.00e+00	0	50	0	245366784	51	4209
2026-01-01 14:58:33.02	252.86	6.73	-44.6	-45.7	15.8	0.00e+00	0	51	0	250609664	51	4240
2026-01-01 14:58:34.01	252.99	6.78	-44.8	-46.0	15.6	0.00e+00	0	51	0	255852544	51	4343
2026-01-01 14:58:34.99	253.12	6.82	-44.6	-45.8	15.8	0.00e+00	0	51	0	262144000	51	4259
2026-01-01 14:58:35.97	253.25	6.86	-44.6	-45.7	15.9	0.00e+00	0	51	0	267386880	51	4220
2026-01-01 14:58:36.95	253.38	6.90	-44.7	-45.8	15.8	0.00e+00	0	51	0	272629760	51	4278
2026-01-01 14:58:37.94	253.52	6.95	-44.8	-46.0	15.6	0.00e+00	0	51	0	277872640	51	4373
2026-01-01 14:58:38.93	253.65	6.99	-44.8	-46.0	15.7	0.00e+00	0	51	0	284164096	51	4353
2026-01-01 14:58:39.92	253.78	7.03	-44.8	-46.0	15.6	0.00e+00	0	51	0	289406976	51	4365
2026-01-01 14:58:40.90	253.92	7.07	-44.9	-46.0	15.6	0.00e+00	0	51	0	294649856	51	4390
2026-01-01 14:58:41.89	254.05	7.11	-45.0	-46.3	15.4	0.00e+00	0	51	0	300941312	51	4502
2026-01-01 14:58:42.87	254.19	7.15	-44.8	-46.0	15.7	0.00e+00	0	51	0	306184192	51	4354
2026-01-01 14:58:43.86	254.32	7.20	-44.6	-45.8	15.9	0.00e+00	0	51	0	311427072	51	4244
2026-01-01 14:58:44.85	254.46	7.24	-44.6	-45.7	15.9	0.00e+00	0	51	0	316669952	51	4223
2026-01-01 14:58:45.83	254.59	7.28	-44.6	-45.7	16.0	0.00e+00	0	51	0	322961408	51	4204
2026-01-01 14:58:46.82	254.73	7.32	-44.8	-45.9	15.7	0.00e+00	0	51	0	328204288	51	4320
2026-01-01 14:58:47.81	254.87	7.36	-44.6	-45.8	15.9	0.00e+00	0	51	0	333447168	51	4253
2026-01-01 14:58:48.80	255.00	7.40	-44.4	-45.5	16.1	0.00e+00	0	51	0	339738624	51	4129
2026-01-01 14:58:49.79	255.14	7.45	-44.3	-45.4	16.3	0.00e+00	0	51	0	344981504	51	4079
2026-01-01 14:58:50.78	255.28	7.49	-44.3	-45.4	16.3	0.00e+00	0	51	0	350224384	51	4063
2026-01-01 14:58:51.77	255.42	7.53	-44.4	-45.4	16.2	0.00e+00	0	51	0	355467264	51	4090
2026-01-01 14:58:52.75	255.55	7.57	-44.5	-45.6	16.1	0.00e+00	0	51	0	361758720	51	4169
2026-01-01 14:58:53.74	255.69	7.61	-44.7	-45.8	15.9	0.00e+00	0	51	0	367001600	51	4249
2026-01-01 14:58:54.73	255.83	7.65	-44.5	-45.6	16.1	0.00e+00	0	51	0	372244480	51	4181
2026-01-01 14:58:55.72	255.97	7.69	-44.6	-45.7	16.0	0.00e+00	0	52	0	378535936	51	4199
2026-01-01 14:58:56.71	256.11	7.73	-44.7	-45.8	15.9	0.00e+00	0	52	0	383778816	51	4278
2026-01-01 14:58:57.70	256.25	7.77	-44.9	-46.1	15.6	0.00e+00	0	51	0	389021696	51	4395
2026-01-01 14:58:58.69	256.40	7.82	-44.9	-46.0	15.7	0.00e+00	0	52	0	395313152	51	4355
2026-01-01 14:58:59.68	256.54	7.86	-44.9	-46.0	15.7	0.00e+00	0	52	0	400556032	51	4357
2026-01-01 14:59:00.66	256.68	7.90	-45.0	-46.2	15.4	0.00e+00	0	52	0	405798912	52	4214
2026-01-01 14:59:01.66	256.82	7.94	-44.9	-46.1	15.5	0.00e+00	0	52	0	411041792	52	4169
2026-01-01 14:59:02.64	256.96	7.98	-44.7	-45.8	15.8	0.00e+00	0	52	0	417333248	52	4017
2026-01-01 14:59:03.63	257.11	8.02	-44.5	-45.5	16.1	0.00e+00	0	52	0	422576128	52	3913
2026-01-01 14:59:04.63	257.25	8.06	-44.4	-45.5	16.1	0.00e+00	0	52	0	428867584	52	3887
2026-01-01 14:59:05.62	257.39	8.10	-44.6	-45.7	16.1	0.00e+00	0	52	0	434110464	51	4208
2026-01-01 14:59:06.62	257.54	8.14	-44.8	-45.9	15.9	0.00e+00	0	52	0	439353344	51	4296
2026-01-01 14:59:07.61	257.69	8.18	-44.7	-45.8	16.0	0.00e+00	0	52	0	444596224	51	4265
2026-01-01 14:59:08.59	257.83	8.22	-44.5	-45.5	16.3	0.00e+00	0	52	0	450887680	51	4119
2026-01-01 14:59:09.58	257.97	8.26	-44.4	-45.4	16.4	0.00e+00	0	52	0	456130560	51	4062
2026-01-01 14:59:10.57	258.12	8.30	-44.3	-45.3	16.4	0.00e+00	0	52	0	461373440	51	4017
2026-01-01 14:59:11.56	258.27	8.34	-44.2	-45.2	16.6	0.00e+00	0	52	0	467664896	51	3979
2026-01-01 14:59:12.55	258.41	8.38	-44.3	-45.3	16.4	0.00e+00	0	52	0	472907776	51	4048
2026-01-01 14:59:13.53	258.56	8.42	-44.3	-45.3	16.4	0.00e+00	0	52	0	478150656	51	4042
2026-01-01 14:59:14.52	258.70	8.46	-44.2	-45.1	16.6	0.00e+00	0	52	0	483393536	51	3956
2026-01-01 14:59:15.52	258.85	8.50	-43.9	-44.9	16.9	0.00e+00	0	52	0	489684992	51	3855
2026-01-01 14:59:16.51	259.00	8.53	-43.9	-44.9	16.9	0.00e+00	0	52	0	494927872	51	3836
2026-01-01 14:59:17.49	259.15	8.57	-43.9	-44.8	16.9	0.00e+00	0	52	0	501219328	50	4051
2026-01-01 14:59:18.49	259.30	8.61	-43.9	-44.8	17.0	0.00e+00	0	52	0	506462208	50	4031
2026-01-01 14:59:19.47	259.45	8.65	-44.0	-44.9	16.9	0.00e+00	0	52	0	511705088	50	4085
2026-01-01 14:59:20.47	259.60	8.69	-43.9	-44.9	16.9	0.00e+00	0	52	0	516947968	50	4058
2026-01-01 14:59:21.46	259.75	8.73	-43.8	-44.8	17.0	0.00e+00	0	52	0	523239424	50	4028
2026-01-01 14:59:22.44	259.90	8.77	-43.8	-44.8	17.0	0.00e+00	0	53	0	528482304	50	4008
2026-01-01 14:59:23.44	260.05	8.81	-43.9	-44.9	16.9	0.00e+00	0	52	0	533725184	50	4061
2026-01-01 14:59:24.43	260.20	8.84	-43.9	-44.9	16.9	0.00e+00	0	53	0	540016640	50	4071
2026-01-01 14:59:25.42	260.35	8.88	-43.9	-44.9	16.9	0.00e+00	0	53	0	545259520	50	4066
2026-01-01 14:59:26.41	260.50	8.92	-44.0	-45.0	16.8	0.00e+00	0	52	0	550502400	50	4113
2026-01-01 14:59:27.40	260.66	8.96	-44.0	-45.0	16.8	0.00e+00	0	53	0	556793856	50	4120
2026-01-01 14:59:28.38	260.81	8.99	-43.8	-44.8	17.0	0.00e+00	0	53	0	562036736	50	4018
2026-01-01 14:59:29.37	260.96	9.03	-43.7	-44.6	17.2	0.00e+00	0	53	0	567279616	50	3937
2026-01-01 14:59:30.36	261.11	9.07	-43.7	-44.6	17.2	0.00e+00	0	53	0	572522496	50	3950
2026-01-01 14:59:31.34	261.26	9.11	-43.7	-44.6	17.2	0.00e+00	0	53	0	578813952	50	3937
2026-01-01 14:59:32.33	261.42	9.14	-43.7	-44.6	17.2	0.00e+00	0	53	0	584056832	50	3929
2026-01-01 14:59:33.32	261.57	9.18	-43.6	-44.6	17.2	0.00e+00	0	53	0	589299712	50	3930
2026-01-01 14:59:34.32	261.73	9.22	-43.7	-44.7	17.1	0.00e+00	0	53	0	595591168	50	3973
2026-01-01 14:59:35.30	261.88	9.26	-43.7	-44.7	17.1	0.00e+00	0	53	0	600834048	50	3965
2026-01-01 14:59:36.29	262.04	9.29	-43.6	-44.5	17.3	0.00e+00	0	53	0	606076928	50	3897
2026-01-01 14:59:37.28	262.20	9.33	-43.6	-44.5	17.3	0.00e+00	0	53	0	612368384	50	3875
2026-01-01 14:59:38.28	262.35	9.37	-43.6	-44.5	17.3	0.00e+00	0	53	0	617611264	50	3894
2026-01-01 14:59:39.26	262.51	9.40	-43.6	-44.5	17.3	0.00e+00	0	53	0	622854144	50	3898
2026-01-01 14:59:40.26	262.67	9.44	-43.7	-44.7	17.1	0.00e+00	0	53	0	629145600	50	3972
2026-01-01 14:59:41.25	262.82	9.48	-43.6	-44.5	17.3	0.00e+00	0	53	0	634388480	50	3889
2026-01-01 14:59:42.24	262.98	9.51	-43.5	-44.5	17.4	0.00e+00	0	53	0	639631360	50	3870
2026-01-01 14:59:43.23	263.14	9.55	-43.7	-44.6	17.2	0.00e+00	0	53	0	645922816	50	3937
2026-01-01 14:59:44.21	263.30	9.58	-43.8	-44.7	17.1	0.00e+00	0	53	0	651165696	50	3977
2026-01-01 14:59:45.21	263.46	9.62	-43.7	-44.6	17.3	0.00e+00	0	53	0	656408576	50	3929
2026-01-01 14:59:46.20	263.62	9.65	-43.8	-44.7	17.1	0.00e+00	0	53	0	661651456	50	3997
2026-01-01 14:59:47.20	263.78	9.69	-43.7	-44.6	17.2	0.00e+00	0	53	0	667942912	50	3945
2026-01-01 14:59:48.19	263.94	9.72	-43.7	-44.6	17.2	0.00e+00	0	53	0	673185792	50	3948
2026-01-01 14:59:49.18	264.10	9.76	-43.8	-44.7	17.1	0.00e+00	0	53	0	678428672	50	3985
2026-01-01 14:59:50.17	264.26	9.79	-43.9	-44.9	17.0	0.00e+00	0	53	0	684720128	50	4059
2026-01-01 14:59:51.17	264.42	9.83	-43.9	-44.8	17.0	0.00e+00	0	53	0	689963008	50	4022
2026-01-01 14:59:52.15	264.58	9.86	-43.8	-44.7	17.1	0.00e+00	0	53	0	695205888	50	3980
2026-01-01 14:59:53.14	264.75	9.90	-43.8	-44.8	17.1	0.00e+00	0	53	0	701497344	50	4007
2026-01-01 14:59:54.12	264.91	9.93	-43.9	-44.9	17.0	0.00e+00	0	53	0	706740224	50	4060
2026-01-01 14:59:55.10	265.07	9.97	-44.1	-45.1	16.7	0.00e+00	0	53	0	711983104	50	4187
2026-01-01 14:59:56.10	265.23	10.00	-44.0	-44.9	16.9	0.00e+00	0	53	0	718274560	50	4084
2026-01-01 14:59:57.08	265.39	10.03	-44.2	-45.2	16.7	0.00e+00	0	53	0	723517440	50	4211
2026-01-01 14:59:58.07	265.56	10.07	-44.3	-45.4	16.5	0.00e+00	0	53	0	728760320	50	4298
2026-01-01 14:59:59.06	265.72	10.10	-44.3	-45.2	16.6	0.00e+00	0	53	0	734003200	50	4241
2026-01-01 15:00:00.05	265.89	10.13	-44.2	-45.3	16.6	0.00e+00	0	53	0	740294656	50	4256
2026-01-01 15:00:01.03	266.05	10.17	-44.4	-45.4	16.4	0.00e+00	0	53	0	745537536	50	4338
2026-01-01 15:00:02.02	266.21	10.20	-44.1	-45.1	16.7	0.00e+00	0	53	0	750780416	50	4172
2026-01-01 15:00:03.01	266.38	10.23	-44.0	-44.9	16.9	0.00e+00	0	53	0	757071872	50	4079
2026-01-01 15:00:04.00	266.55	10.27	-43.9	-44.8	17.0	0.00e+00	0	54	0	762314752	50	4016
2026-01-01 15:00:04.99	266.71	10.30	-43.9	-44.8	17.0	0.00e+00	0	54	0	767557632	50	4043
2026-01-01 15:00:05.97	266.88	10.33	-43.8	-44.8	17.0	0.00e+00	0	53	0	772800512	50	4016
2026-01-01 15:00:06.96	267.04	10.36	-44.2	-45.2	16.6	0.00e+00	0	53	0	779091968	50	4238
2026-01-01 15:00:07.95	267.21	10.39	-44.1	-45.0	16.7	0.00e+00	0	54	0	784334848	50	4135
2026-01-01 15:00:08.94	267.38	10.43	-43.9	-44.9	16.9	0.00e+00	0	53	0	790626304	50	4054
2026-01-01 15:00:09.93	267.55	10.46	-43.8	-44.7	17.0	0.00e+00	0	54	0	795869184	50	4001
2026-01-01 15:00:10.92	267.72	10.49	-43.8	-44.7	17.1	0.00e+00	0	54	0	801112064	50	3971
2026-01-01 15:00:11.92	267.89	10.52	-43.8	-44.8	16.9	0.00e+00	0	54	0	806354944	50	4035
2026-01-01 15:00:12.91	268.06	10.55	-44.0	-44.9	16.8	0.00e+00	0	54	0	812646400	50	4094
2026-01-01 15:00:13.90	268.23	10.58	-44.0	-45.0	16.6	0.00e+00	0	54	0	817889280	50	4131
2026-01-01 15:00:14.88	268.39	10.61	-44.0	-44.9	16.7	0.00e+00	0	54	0	823132160	50	4092
2026-01-01 15:00:15.87	268.56	10.64	-44.1	-45.1	16.6	0.00e+00	0	54	0	829423616	50	4156
2026-01-01 15:00:16.85	268.73	10.67	-43.9	-45.0	16.6	0.00e+00	0	54	0	834666496	50	4107
2026-01-01 15:00:17.85	268.90	10.70	-44.0	-45.0	16.6	0.00e+00	0	54	0	839909376	50	4116
2026-01-01 15:00:18.83	269.07	10.73	-44.1	-45.2	16.4	0.00e+00	0	54	0	846200832	50	4194
2026-01-01 15:00:19.82	269.25	10.76	-44.0	-45.1	16.5	0.00e+00	0	54	0	851443712	50	4147
2026-01-01 15:00:20.81	269.42	10.79	-44.0	-45.0	16.5	0.00e+00	0	54	0	856686592	50	4129
2026-01-01 15:00:21.80	269.59	10.82	-44.2	-45.2	16.3	0.00e+00	0	54	0	861929472	50	4231
2026-01-01 15:00:22.79	269.76	10.85	-44.3	-45.3	16.1	0.00e+00	0	54	0	868220928	50	4286
2026-01-01 15:00:23.79	269.94	10.88	-44.4	-45.5	16.0	0.00e+00	0	54	0	873463808	50	4345
2026-01-01 15:00:24.77	270.11	10.91	-44.4	-45.5	16.0	0.00e+00	0	54	0	878706688	50	4365
2026-01-01 15:00:25.76	270.28	10.94	-44.3	-45.4	16.0	0.00e+00	0	54	0	884998144	50	4315
2026-01-01 15:00:26.75	270.46	10.97	-44.1	-45.2	16.2	0.00e+00	0	54	0	890241024	50	4201
2026-01-01 15:00:27.73	270.63	11.00	-43.9	-45.0	16.4	0.00e+00	0	54	0	895483904	50	4103
2026-01-01 15:00:28.72	270.80	11.02	-43.7	-44.7	16.6	0.00e+00	0	54	0	900726784	50	4003
2026-01-01 15:00:29.70	270.98	11.05	-43.6	-44.6	16.8	0.00e+00	0	54	0	907018240	50	3921
2026-01-01 15:00:30.69	271.15	11.08	-43.5	-44.5	16.7	0.00e+00	0	54	0	912261120	50	3911
2026-01-01 15:00:31.67	271.32	11.11	-43.4	-44.4	16.9	0.00e+00	0	54	0	917504000	50	3827
2026-01-01 15:00:32.66	271.50	11.13	-43.3	-44.2	17.1	0.00e+00	0	54	0	923795456	49	3976
2026-01-01 15:00:33.65	271.68	11.16	-43.3	-44.2	17.1	0.00e+00	0	54	0	929038336	49	3991
2026-01-01 15:00:34.63	271.85	11.19	-43.4	-44.4	16.9	0.00e+00	0	54	0	934281216	49	4075
2026-01-01 15:00:35.61	272.03	11.21	-43.5	-44.4	16.9	0.00e+00	0	54	0	939524096	49	4088
2026-01-01 15:00:36.60	272.20	11.24	-43.6	-44.5	16.9	0.00e+00	0	54	0	945815552	49	4130
2026-01-01 15:00:37.59	272.38	11.27	-43.5	-44.5	16.9	0.00e+00	0	54	0	951058432	49	4117
2026-01-01 15:00:38.59	272.56	11.29	-43.4	-44.4	17.0	0.00e+00	0	54	0	957349888	49	4068
2026-01-01 15:00:39.57	272.73	11.32	-43.4	-44.4	17.0	0.00e+00	0	54	0	962592768	49	4055
2026-01-01 15:00:40.56	272.91	11.34	-43.4	-44.3	17.1	0.00e+00	0	54	0	967835648	49	4037
2026-01-01 15:00:41.55	273.09	11.37	-43.4	-44.3	17.2	0.00e+00	0	54	0	973078528	49	4023
2026-01-01 15:00:42.54	273.27	11.39	-43.4	-44.4	17.2	0.00e+00	0	54	0	979369984	49	4061
2026-01-01 15:00:43.53	273.45	11.42	-43.4	-44.3	17.2	0.00e+00	0	54	0	984612864	49	4034
2026-01-01 15:00:44.52	273.63	11.44	-43.3	-44.2	17.3	0.00e+00	0	54	0	989855744	49	3989
2026-01-01 15:00:45.51	273.81	11.47	-43.3	-44.2	17.4	0.00e+00	0	54	0	996147200	49	3997
2026-01-01 15:00:46.50	273.99	11.49	-43.5	-44.4	17.3	0.00e+00	0	54	0	1001390080	49	4062
2026-01-01 15:00:47.49	274.17	11.52	-43.5	-44.4	17.3	0.00e+00	0	54	0	1006632960	49	4074
2026-01-01 15:00:48.47	274.35	11.54	-43.5	-44.4	17.3	0.00e+00	0	54	0	1011875840	49	4082
2026-01-01 15:00:49.46	274.53	11.56	-43.6	-44.5	17.3	0.00e+00	0	54	0	1018167296	49	4108
2026-01-01 15:00:50.45	274.71	11.59	-43.7	-44.6	17.1	0.00e+00	0	54	0	1023410176	49	4174
2026-01-01 15:00:51.43	274.89	11.61	-43.6	-44.5	17.3	0.00e+00	0	54	0	1028653056	49	4136
2026-01-01 15:00:52.42	275.07	11.63	-43.5	-44.4	17.4	0.00e+00	0	54	0	1034944512	49	4081
2026-01-01 15:00:53.41	275.25	11.65	-43.6	-44.4	17.4	0.00e+00	0	54	0	1040187392	49	4096
2026-01-01 15:00:54.40	275.43	11.68	-43.7	-44.6	17.2	0.00e+00	0	54	0	1045430272	49	4183
2026-01-01 15:00:55.38	275.61	11.70	-43.7	-44.6	17.2	0.00e+00	0	54	0	1051721728	49	4181
2026-01-01 15:00:56.38	275.80	11.72	-43.5	-44.4	17.5	0.00e+00	0	55	0	1056964608	49	4075
2026-01-01 15:00:57.37	275.98	11.74	-43.4	-44.3	17.6	0.00e+00	0	54	0	1062207488	49	4005
2026-01-01 15:00:58.35	276.16	11.76	-43.3	-44.1	17.7	0.00e+00	0	54	0	1068498944	49	3957
2026-01-01 15:00:59.34	276.35	11.78	-43.2	-44.1	17.8	0.00e+00	0	55	0	1073741824	49	3914
2026-01-01 15:01:00.33	276.53	11.81	-43.0	-43.8	18.0	0.00e+00	0	54	0	1078984704	49	3793
2026-01-01 15:01:01.32	276.71	11.83	-42.9	-43.7	18.1	0.00e+00	0	55	0	1084227584	49	3765
2026-01-01 15:01:02.30	276.90	11.85	-42.9	-43.7	18.1	0.00e+00	0	55	0	1090519040	49	3773
2026-01-01 15:01:03.29	277.08	11.87	-42.9	-43.7	18.1	0.00e+00	0	55	0	1095761920	49	3764
2026-01-01 15:01:04.28	277.27	11.89	-43.0	-43.8	18.0	0.00e+00	0	55	0	1101004800	49	3795
2026-01-01 15:01:05.27	277.45	11.91	-43.1	-43.9	18.0	0.00e+00	0	55	0	1107296256	49	3840
2026-01-01 15:01:06.25	277.63	11.93	-43.0	-43.8	18.0	0.00e+00	0	55	0	1112539136	49	3819
2026-01-01 15:01:07.24	277.82	11.94	-43.1	-43.9	18.0	0.00e+00	0	55	0	1117782016	49	3854
2026-01-01 15:01:08.23	278.00	11.96	-43.0	-43.8	18.0	0.00e+00	0	54	0	1124073472	49	3799
2026-01-01 15:01:09.23	278.19	11.98	-42.9	-43.7	18.1	0.00e+00	0	55	0	1129316352	49	3763
2026-01-01 15:01:10.22	278.38	12.00	-42.9	-43.7	18.1	0.00e+00	0	55	0	1134559232	48	3995
2026-01-01 15:01:11.21	278.56	12.02	-43.0	-43.8	18.0	0.00e+00	0	55	0	1139802112	48	4025
2026-01-01 15:01:12.19	278.75	12.04	-43.2	-44.0	17.9	0.00e+00	0	55	0	1146093568	48	4135
2026-01-01 15:01:13.17	278.93	12.05	-43.3	-44.2	17.7	0.00e+00	0	55	0	1151336448	48	4206
2026-01-01 15:01:14.16	279.12	12.07	-43.5	-44.4	17.5	0.00e+00	0	55	0	1156579328	48	4319
2026-01-01 15:01:15.16	279.31	12.09	-43.4	-44.2	17.7	0.00e+00	0	55	0	1162870784	48	4214
2026-01-01 15:01:16.15	279.50	12.11	-43.4	-44.2	17.6	0.00e+00	0	55	0	1168113664	48	4221
2026-01-01 15:01:17.14	279.68	12.12	-43.5	-44.4	17.5	0.00e+00	0	55	0	1173356544	48	4316
2026-01-01 15:01:18.13	279.87	12.14	-43.8	-44.7	17.2	0.00e+00	0	55	0	1179648000	49	4213
2026-01-01 15:01:19.13	280.06	12.15	-43.7	-44.6	17.2	0.00e+00	0	55	0	1184890880	49	4192
2026-01-01 15:01:20.12	280.25	12.17	-43.9	-44.9	17.0	0.00e+00	0	55	0	1190133760	49	4312
2026-01-01 15:01:21.11	280.44	12.19	-43.7	-44.6	17.2	0.00e+00	0	55	0	1196425216	49	4181
2026-01-01 15:01:22.10	280.63	12.20	-43.9	-44.8	17.0	0.00e+00	0	55	0	1201668096	49	4286
2026-01-01 15:01:23.10	280.82	12.22	-44.1	-45.1	16.8	0.00e+00	0	55	0	1206910976	50	4172
2026-01-01 15:01:24.09	281.01	12.23	-43.9	-44.9	17.0	0.00e+00	0	55	0	1213202432	50	4052
2026-01-01 15:01:25.08	281.20	12.24	-44.2	-45.2	16.7	0.00e+00	0	55	0	1218445312	50	4209
2026-01-01 15:01:26.07	281.38	12.26	-44.0	-45.0	16.9	0.00e+00	0	55	0	1223688192	50	4099
2026-01-01 15:01:27.05	281.57	12.27	-44.3	-45.3	16.6	0.00e+00	0	55	0	1228931072	50	4251
2026-01-01 15:01:28.04	281.76	12.29	-44.1	-45.1	16.8	0.00e+00	0	55	0	1235222528	50	4154
2026-01-01 15:01:29.03	281.95	12.30	-44.0	-45.0	16.8	0.00e+00	0	55	0	1240465408	50	4111
2026-01-01 15:01:30.01	282.14	12.31	-44.1	-45.1	16.7	0.00e+00	0	55	0	1245708288	50	4157
2026-01-01 15:01:30.99	282.33	12.33	-44.2	-45.2	16.5	0.00e+00	0	55	0	1251999744	50	4236
2026-01-01 15:01:31.98	282.52	12.34	-44.3	-45.4	16.4	0.00e+00	0	55	0	1257242624	50	4308
2026-01-01 15:01:32.97	282.71	12.35	-44.2	-45.2	16.4	0.00e+00	0	55	0	1262485504	50	4227
2026-01-01 15:01:33.95	282.90	12.36	-44.2	-45.3	16.4	0.00e+00	0	55	0	1267728384	50	4255
2026-01-01 15:01:34.95	283.09	12.37	-44.3	-45.4	16.1	0.00e+00	0	55	0	1274019840	50	4329
2026-01-01 15:01:35.94	283.28	12.39	-44.4	-45.5	16.0	0.00e+00	0	55	0	1279262720	50	4368
2026-01-01 15:01:36.92	283.47	12.40	-44.5	-45.7	15.8	0.00e+00	0	55	0	1284505600	50	4449
2026-01-01 15:01:37.91	283.66	12.41	-44.5	-45.6	15.8	0.00e+00	0	55	0	1290797056	50	4438
2026-01-01 15:01:38.91	283.85	12.42	-44.7	-45.9	15.4	0.00e+00	0	55	0	1296039936	51	4331
2026-01-01 15:01:39.90	284.04	12.43	-44.7	-45.9	15.4	0.00e+00	0	55	0	1301282816	51	4301
2026-01-01 15:01:40.89	284.24	12.44	-45.0	-46.2	15.0	0.00e+00	0	55	0	1307574272	51	4492
2026-01-01 15:01:41.88	284.43	12.45	-44.9	-46.2	14.9	0.00e+00	0	55	0	1312817152	51	4489
2026-01-01 15:01:42.88	284.62	12.46	-45.2	-46.7	14.2	0.00e+00	0	55	0	1318060032	52	4458
2026-01-01 15:01:43.87	284.81	12.47	-45.6	-47.1	13.7	3.40e-06	0	55	0	1324351488	52	4678
2026-01-01 15:01:44.85	285.00	12.47	-45.7	-47.3	13.4	2.28e-05	0	55	0	1329594368	53	4539
2026-01-01 15:01:45.83	285.19	12.48	-46.0	-47.7	12.9	5.60e-05	0	55	0	1334837248	53	4754
2026-01-01 15:01:46.82	285.39	12.49	-46.1	-48.0	12.5	1.22e-04	0	55	0	1340080128	54	4612
2026-01-01 15:01:47.81	285.58	12.50	-46.4	-48.3	12.1	2.96e-04	0	55	0	1346371584	54	4809
2026-01-01 15:01:48.80	285.77	12.51	-46.6	-48.7	11.6	7.82e-04	0	55	0	1351614464	55	4758
2026-01-01 15:01:49.79	285.96	12.51	-46.5	-48.8	11.5	1.10e-03	0	55	0	1357905920	55	4780
2026-01-01 15:01:50.77	286.15	12.52	-46.9	-49.3	10.8	2.21e-03	0	55	0	1363148800	55	5083
2026-01-01 15:01:51.76	286.35	12.53	-47.0	-49.5	10.6	4.33e-03	0	55	0	1368391680	55	5171
2026-01-01 15:01:52.75	286.54	12.54	-47.3	-50.0	10.2	6.49e-03	0	55	0	1373634560	56	5182
2026-01-01 15:01:53.75	286.73	12.54	-47.3	-50.1	10.0	1.06e-02	0	55	0	1379926016	56	5264
2026-01-01 15:01:54.74	286.93	12.55	-47.7	-50.6	9.5	1.50e-02	0	55	0	1385168896	57	5219
2026-01-01 15:01:55.73	287.12	12.55	-47.7	-50.7	9.3	2.14e-02	0	55	0	1390411776	57	5301
2026-01-01 15:01:56.72	287.31	12.56	-47.7	-50.7	9.3	2.20e-02	0	55	0	1396703232	57	5330
2026-01-01 15:01:57.71	287.50	12.56	-47.8	-50.7	9.3	2.22e-02	0	55	0	1401946112	57	5336
2026-01-01 15:01:58.70	287.70	12.57	-47.7	-50.7	9.5	2.05e-02	0	55	0	1407188992	57	5286
2026-01-01 15:01:59.69	287.89	12.57	-47.6	-50.5	9.6	1.63e-02	0	55	0	1413480448	57	5186
2026-01-01 15:02:00.69	288.09	12.58	-47.5	-50.3	9.9	1.26e-02	0	55	0	1418723328	57	5049
2026-01-01 15:02:01.67	288.28	12.58	-47.4	-50.0	10.2	8.18e-03	0	55	0	1423966208	57	4926
2026-01-01 15:02:02.66	288.47	12.58	-47.3	-49.9	10.3	6.73e-03	0	55	0	1429209088	57	4844
2026-01-01 15:02:03.65	288.66	12.59	-47.4	-50.0	10.3	6.53e-03	0	55	0	1435500544	57	4873
2026-01-01 15:02:04.64	288.86	12.59	-47.3	-49.8	10.5	5.81e-03	0	55	0	1440743424	57	4790
2026-01-01 15:02:05.63	289.05	12.59	-47.2	-49.6	10.8	4.16e-03	0	56	0	1447034880	57	4676
2026-01-01 15:02:06.62	289.24	12.60	-47.1	-49.5	10.8	3.34e-03	0	55	0	1452277760	57	4637
2026-01-01 15:02:07.60	289.44	12.60	-47.0	-49.3	11.1	2.57e-03	0	55	0	1457520640	57	4526
2026-01-01 15:02:08.59	289.63	12.60	-46.7	-48.9	11.7	1.27e-03	0	56	0	1462763520	56	4559
2026-01-01 15:02:09.59	289.82	12.60	-46.6	-48.6	12.1	5.08e-04	0	55	0	1469054976	56	4413
2026-01-01 15:02:10.58	290.02	12.60	-46.4	-48.3	12.5	2.60e-04	0	56	0	1474297856	56	4270
2026-01-01 15:02:11.57	290.21	12.60	-46.2	-48.0	12.8	1.14e-04	0	55	0	1479540736	55	4376
2026-01-01 15:02:12.56	290.41	12.60	-46.2	-48.0	13.0	6.75e-05	0	55	0	1485832192	55	4342
2026-01-01 15:02:13.56	290.60	12.60	-46.0	-47.7	13.4	4.11e-05	0	56	0	1491075072	55	4204
2026-01-01 15:02:14.54	290.79	12.60	-45.8	-47.4	13.7	5.70e-06	0	56	0	1496317952	54	4309
2026-01-01 15:02:15.53	290.99	12.60	-45.7	-47.1	14.1	5.70e-06	0	56	0	1502609408	54	4186
2026-01-01 15:02:16.53	291.18	12.60	-45.2	-46.5	14.8	0.00e+00	0	56	0	1507852288	53	4126
2026-01-01 15:02:17.51	291.37	12.60	-44.8	-46.0	15.4	0.00e+00	0	56	0	1513095168	52	4116
2026-01-01 15:02:18.50	291.57	12.60	-44.4	-45.5	15.9	0.00e+00	0	56	0	1518338048	52	3913
2026-01-01 15:02:19.49	291.76	12.60	-44.2	-45.3	16.3	0.00e+00	0	56	0	1524629504	51	4030
2026-01-01 15:02:20.48	291.95	12.60	-44.2	-45.2	16.4	0.00e+00	0	56	0	1529872384	51	3975
2026-01-01 15:02:21.48	292.15	12.60	-44.2	-45.2	16.5	0.00e+00	0	55	0	1536163840	51	3978
2026-01-01 15:02:22.46	292.34	12.59	-44.0	-45.0	16.8	0.00e+00	0	56	0	1541406720	51	3874
2026-01-01 15:02:23.46	292.54	12.59	-43.9	-44.8	16.9	0.00e+00	0	56	0	1546649600	50	4035
2026-01-01 15:02:24.45	292.73	12.59	-43.7	-44.6	17.1	0.00e+00	0	55	0	1551892480	50	3941
2026-01-01 15:02:25.44	292.92	12.59	-43.6	-44.6	17.2	0.00e+00	0	56	0	1558183936	50	3923
2026-01-01 15:02:26.44	293.12	12.58	-43.5	-44.5	17.2	0.00e+00	0	56	0	1563426816	50	3880
2026-01-01 15:02:27.43	293.31	12.58	-43.6	-44.5	17.2	0.00e+00	0	56	0	1568669696	50	3895
2026-01-01 15:02:28.41	293.50	12.57	-43.8	-44.7	17.1	0.00e+00	0	56	0	1574961152	50	3974
2026-01-01 15:02:29.40	293.69	12.57	-43.9	-44.9	16.8	0.00e+00	0	56	0	1580204032	50	4072
2026-01-01 15:02:30.38	293.89	12.57	-44.0	-44.9	16.7	0.00e+00	0	56	0	1585446912	50	4098
2026-01-01 15:02:31.37	294.08	12.56	-43.9	-44.9	16.8	0.00e+00	0	56	0	1590689792	50	4097
2026-01-01 15:02:32.36	294.27	12.56	-43.9	-44.9	16.8	0.00e+00	0	56	0	1596981248	50	4093
2026-01-01 15:02:33.35	294.46	12.55	-44.1	-45.0	16.7	0.00e+00	0	56	0	1602224128	50	4136
2026-01-01 15:02:34.34	294.66	12.54	-44.1	-45.1	16.6	0.00e+00	0	56	0	1607467008	50	4183
2026-01-01 15:02:35.33	294.85	12.54	-44.2	-45.2	16.6	0.00e+00	0	56	0	1613758464	50	4199
2026-01-01 15:02:36.32	295.04	12.53	-44.3	-45.3	16.4	0.00e+00	0	56	0	1619001344	50	4288
2026-01-01 15:02:37.31	295.24	12.53	-44.2	-45.2	16.6	0.00e+00	0	56	0	1624244224	50	4208
2026-01-01 15:02:38.30	295.43	12.52	-44.3	-45.3	16.5	0.00e+00	0	56	0	1630535680	50	4272
2026-01-01 15:02:39.29	295.62	12.51	-44.0	-44.9	16.9	0.00e+00	0	56	0	1635778560	50	4082
2026-01-01 15:02:40.27	295.81	12.50	-43.8	-44.7	17.1	0.00e+00	0	56	0	1641021440	50	3977
2026-01-01 15:02:41.27	296.00	12.50	-43.6	-44.5	17.3	0.00e+00	0	56	0	1647312896	50	3898
2026-01-01 15:02:42.25	296.19	12.49	-43.6	-44.5	17.3	0.00e+00	0	56	0	1652555776	50	3886
2026-01-01 15:02:43.24	296.39	12.48	-43.7	-44.6	17.2	0.00e+00	0	56	0	1657798656	50	3921
2026-01-01 15:02:44.23	296.58	12.47	-43.6	-44.5	17.2	0.00e+00	0	56	0	1663041536	50	3899
2026-01-01 15:02:45.21	296.77	12.46	-43.6	-44.5	17.2	0.00e+00	0	56	0	1669332992	50	3911
2026-01-01 15:02:46.19	296.96	12.45	-43.7	-44.6	17.1	0.00e+00	0	56	0	1674575872	50	3938
2026-01-01 15:02:47.18	297.15	12.44	-43.8	-44.7	17.0	0.00e+00	0	56	0	1679818752	50	3998
2026-01-01 15:02:48.18	297.34	12.43	-43.8	-44.8	16.8	0.00e+00	0	56	0	1686110208	50	4037
2026-01-01 15:02:49.17	297.53	12.42	-43.6	-44.6	17.1	0.00e+00	0	56	0	1691353088	50	3933
2026-01-01 15:02:50.15	297.72	12.41	-43.7	-44.7	17.0	0.00e+00	0	56	0	1696595968	50	3977
2026-01-01 15:02:51.14	297.91	12.40	-43.5	-44.4	17.3	0.00e+00	0	56	0	1702887424	50	3858
2026-01-01 15:02:52.12	298.10	12.39	-43.4	-44.3	17.4	0.00e+00	0	56	0	1708130304	50	3802
2026-01-01 15:02:53.12	298.29	12.38	-43.4	-44.3	17.4	0.00e+00	0	56	0	1713373184	49	4024
2026-01-01 15:02:54.12	298.49	12.37	-43.3	-44.2	17.5	0.00e+00	0	56	0	1718616064	49	3981
2026-01-01 15:02:55.11	298.68	12.36	-43.3	-44.2	17.4	0.00e+00	0	56	0	1724907520	49	3982
2026-01-01 15:02:56.10	298.87	12.34	-43.5	-44.4	17.3	0.00e+00	0	56	0	1730150400	49	4064
2026-01-01 15:02:57.09	299.06	12.33	-43.4	-44.3	17.4	0.00e+00	0	56	0	1736441856	49	4021
2026-01-01 15:02:58.07	299.25	12.32	-43.4	-44.3	17.4	0.00e+00	0	56	0	1741684736	49	4050
2026-01-01 15:02:59.06	299.44	12.31	-43.6	-44.5	17.3	0.00e+00	0	56	0	1746927616	49	4139
2026-01-01 15:03:00.05	299.63	12.29	-43.4	-44.3	17.5	0.00e+00	0	56	0	1752170496	49	4029
2026-01-01 15:03:01.05	299.82	12.28	-43.4	-44.3	17.5	0.00e+00	0	56	0	1758461952	49	4047
2026-01-01 15:03:02.04	300.01	12.27	-43.7	-44.6	17.3	0.00e+00	0	56	0	1763704832	49	4156
2026-01-01 15:03:03.04	300.20	12.25	-43.4	-44.3	17.5	0.00e+00	0	56	0	1768947712	49	4024
2026-01-01 15:03:04.04	300.39	12.24	-43.6	-44.5	17.3	0.00e+00	0	56	0	1775239168	49	4144
2026-01-01 15:03:05.02	300.57	12.22	-43.4	-44.3	17.5	0.00e+00	0	56	0	1780482048	49	4026
2026-01-01 15:03:06.01	300.76	12.21	-43.3	-44.2	17.7	0.00e+00	0	56	0	1785724928	49	3963
2026-01-01 15:03:07.00	300.95	12.19	-43.4	-44.3	17.5	0.00e+00	0	56	0	1792016384	49	4041
2026-01-01 15:03:07.98	301.14	12.18	-43.7	-44.7	17.2	0.00e+00	0	56	0	1797259264	49	4203
2026-01-01 15:03:08.97	301.33	12.16	-43.5	-44.4	17.4	0.00e+00	0	56	0	1802502144	49	4093
2026-01-01 15:03:09.96	301.51	12.15	-43.6	-44.6	17.3	0.00e+00	0	56	0	1807745024	49	4147
2026-01-01 15:03:10.95	301.70	12.13	-43.8	-44.7	17.2	0.00e+00	0	56	0	1814036480	49	4222
2026-01-01 15:03:11.94	301.89	12.11	-43.5	-44.4	17.5	0.00e+00	0	56	0	1819279360	49	4062
2026-01-01 15:03:12.93	302.08	12.10	-43.2	-44.1	17.8	0.00e+00	0	56	0	1825570816	49	3925
2026-01-01 15:03:13.92	302.26	12.08	-43.2	-44.0	17.9	0.00e+00	0	56	0	1830813696	49	3901
2026-01-01 15:03:14.91	302.45	12.06	-43.2	-44.1	17.9	0.00e+00	0	56	0	1836056576	49	3922
2026-01-01 15:03:15.90	302.64	12.05	-43.2	-44.0	17.9	0.00e+00	0	56	0	1841299456	49	3891
2026-01-01 15:03:16.90	302.82	12.03	-43.2	-44.1	17.9	0.00e+00	0	56	0	1847590912	49	3916
2026-01-01 15:03:17.89	303.01	12.01	-43.3	-44.1	17.8	0.00e+00	0	56	0	1852833792	49	3947
2026-01-01 15:03:18.88	303.20	11.99	-43.5	-44.3	17.7	0.00e+00	0	56	0	1858076672	49	4033
2026-01-01 15:03:19.87	303.38	11.97	-43.3	-44.2	17.8	0.00e+00	0	56	0	1864368128	49	3971
2026-01-01 15:03:20.86	303.57	11.96	-43.3	-44.1	17.8	0.00e+00	0	56	0	1869611008	49	3954
2026-01-01 15:03:21.84	303.75	11.94	-43.3	-44.1	17.8	0.00e+00	0	56	0	1874853888	49	3957
2026-01-01 15:03:22.83	303.93	11.92	-43.4	-44.2	17.7	0.00e+00	0	56	0	1881145344	49	4003
2026-01-01 15:03:23.82	304.12	11.90	-43.4	-44.3	17.7	0.00e+00	0	56	0	1886388224	49	4015
2026-01-01 15:03:24.81	304.30	11.88	-43.4	-44.3	17.7	0.00e+00	0	56	0	1891631104	49	4031
2026-01-01 15:03:25.79	304.49	11.86	-43.6	-44.4	17.5	0.00e+00	0	56	0	1896873984	49	4086
2026-01-01 15:03:26.78	304.67	11.84	-43.5	-44.3	17.6	0.00e+00	0	56	0	1903165440	49	4048
2026-01-01 15:03:27.77	304.85	11.82	-43.5	-44.4	17.5	0.00e+00	0	56	0	1908408320	49	4081
2026-01-01 15:03:28.76	305.04	11.80	-43.7	-44.6	17.4	0.00e+00	0	56	0	1913651200	49	4178
2026-01-01 15:03:29.75	305.22	11.78	-43.8	-44.7	17.3	0.00e+00	0	56	0	1919942656	49	4212
2026-01-01 15:03:30.73	305.40	11.75	-43.8	-44.8	17.2	0.00e+00	0	57	0	1925185536	49	4249
2026-01-01 15:03:31.72	305.58	11.73	-44.0	-45.0	17.0	0.00e+00	0	56	0	1930428416	49	4347
2026-01-01 15:03:32.71	305.77	11.71	-44.0	-44.9	17.1	0.00e+00	0	56	0	1936719872	49	4314
2026-01-01 15:03:33.70	305.95	11.69	-44.0	-44.9	17.1	0.00e+00	0	56	0	1941962752	49	4336
2026-01-01 15:03:34.69	306.13	11.67	-44.1	-45.1	16.9	0.00e+00	0	56	0	1947205632	50	4178
2026-01-01 15:03:35.68	306.31	11.65	-44.0	-45.0	17.0	0.00e+00	0	56	0	1953497088	50	4115
2026-01-01 15:03:36.67	306.49	11.62	-44.0	-44.9	17.1	0.00e+00	0	56	0	1958739968	50	4084
2026-01-01 15:03:37.66	306.67	11.60	-43.9	-44.9	17.1	0.00e+00	0	56	0	1963982848	50	4075
2026-01-01 15:03:38.66	306.86	11.58	-44.1	-45.0	17.0	0.00e+00	0	56	0	1969225728	50	4139
2026-01-01 15:03:39.65	307.04	11.55	-44.0	-45.0	17.0	0.00e+00	0	56	0	1975517184	50	4114
2026-01-01 15:03:40.64	307.22	11.53	-44.2	-45.1	16.9	0.00e+00	0	56	0	1980760064	50	4178
2026-01-01 15:03:41.64	307.40	11.51	-44.1	-45.1	16.9	0.00e+00	0	56	0	1987051520	50	4150
2026-01-01 15:03:42.63	307.58	11.48	-44.0	-44.9	17.1	0.00e+00	0	56	0	1992294400	50	4063
2026-01-01 15:03:43.62	307.76	11.46	-43.8	-44.8	17.2	0.00e+00	0	56	0	1997537280	50	4006
2026-01-01 15:03:44.60	307.94	11.43	-43.9	-44.8	17.2	0.00e+00	0	56	0	2002780160	50	4013
2026-01-01 15:03:45.59	308.11	11.41	-43.9	-44.8	17.1	0.00e+00	0	56	0	2009071616	50	4051
2026-01-01 15:03:46.58	308.29	11.38	-43.9	-44.8	17.2	0.00e+00	0	56	0	2014314496	50	4036
2026-01-01 15:03:47.58	308.47	11.36	-43.8	-44.7	17.2	0.00e+00	0	56	0	2019557376	50	3994
2026-01-01 15:03:48.57	308.65	11.33	-43.8	-44.8	17.2	0.00e+00	0	56	0	2025848832	50	4017
2026-01-01 15:03:49.56	308.83	11.31	-44.0	-45.0	17.0	0.00e+00	0	56	0	2031091712	50	4133
2026-01-01 15:03:50.54	309.00	11.28	-44.0	-45.0	17.0	0.00e+00	0	56	0	2036334592	50	4131
2026-01-01 15:03:51.54	309.18	11.26	-43.8	-44.7	17.2	0.00e+00	0	56	0	2042626048	50	3997
2026-01-01 15:03:52.53	309.36	11.23	-43.7	-44.6	17.4	0.00e+00	0	56	0	2047868928	50	3939
2026-01-01 15:03:53.52	309.54	11.20	-43.6	-44.5	17.4	0.00e+00	0	56	0	2053111808	50	3901
2026-01-01 15:03:54.51	309.71	11.18	-43.8	-44.8	17.2	0.00e+00	0	56	0	2058354688	50	4008
2026-01-01 15:03:55.50	309.89	11.15	-43.9	-44.9	17.1	0.00e+00	0	56	0	2064646144	50	4070
2026-01-01 15:03:56.49	310.06	11.12	-44.0	-45.0	17.0	0.00e+00	0	56	0	2069889024	50	4101
2026-01-01 15:03:57.48	310.24	11.10	-44.2	-45.2	16.8	0.00e+00	0	56	0	2076180480	50	4199
2026-01-01 15:03:58.47	310.41	11.07	-44.3	-45.3	16.7	0.00e+00	0	56	0	2081423360	50	4257
2026-01-01 15:03:59.46	310.59	11.04	-44.3	-45.3	16.6	0.00e+00	0	56	0	2086666240	50	4274
2026-01-01 15:04:00.45	310.76	11.01	-44.4	-45.4	16.6	0.00e+00	0	56	0	2091909120	50	4301
2026-01-01 15:04:01.44	310.94	10.98	-44.4	-45.4	16.6	0.00e+00	0	56	0	2098200576	50	4333
2026-01-01 15:04:02.42	311.11	10.96	-44.4	-45.5	16.5	0.00e+00	0	56	0	2103443456	50	4353
2026-01-01 15:04:03.40	311.28	10.93	-44.1	-45.1	16.8	0.00e+00	0	56	0	2108686336	50	4192
2026-01-01 15:04:04.39	311.45	10.90	-44.0	-45.0	17.0	0.00e+00	0	56	0	2114977792	50	4099
2026-01-01 15:04:05.38	311.62	10.87	-43.8	-44.8	17.2	0.00e+00	0	56	0	2120220672	50	4018
2026-01-01 15:04:06.37	311.80	10.84	-43.9	-44.8	17.1	0.00e+00	0	56	0	2125463552	50	4031
2026-01-01 15:04:07.36	311.97	10.81	-43.9	-44.8	17.1	0.00e+00	0	56	0	2130706432	50	4042
2026-01-01 15:04:08.34	312.14	10.78	-43.8	-44.8	17.1	0.00e+00	0	56	0	2136997888	50	4026
2026-01-01 15:04:09.33	312.31	10.75	-43.9	-44.8	17.1	0.00e+00	0	56	0	2142240768	50	4044
2026-01-01 15:04:10.31	312.48	10.72	-43.9	-44.9	17.1	0.00e+00	0	56	0	2147483648	50	4052
2026-01-01 15:04:11.29	312.65	10.69	-43.7	-44.6	17.3	0.00e+00	0	56	0	2153775104	50	3954
2026-01-01 15:04:12.28	312.82	10.66	-43.7	-44.6	17.3	0.00e+00	0	56	0	2159017984	50	3943
2026-01-01 15:04:13.26	312.99	10.63	-43.7	-44.6	17.3	0.00e+00	0	56	0	2164260864	50	3955
2026-01-01 15:04:14.25	313.15	10.60	-43.8	-44.7	17.2	0.00e+00	0	56	0	2169503744	50	3994
2026-01-01 15:04:15.25	313.33	10.57	-43.7	-44.6	17.3	0.00e+00	0	56	0	2175795200	50	3942
2026-01-01 15:04:16.24	313.49	10.54	-43.8	-44.7	17.1	0.00e+00	0	56	0	2181038080	50	4001
2026-01-01 15:04:17.23	313.66	10.51	-43.8	-44.7	17.2	0.00e+00	0	56	0	2186280960	50	3985
2026-01-01 15:04:18.22	313.83	10.48	-44.0	-45.0	17.0	0.00e+00	0	57	0	2192572416	50	4099
2026-01-01 15:04:19.20	314.00	10.45	-44.2	-45.1	16.8	0.00e+00	0	56	0	2197815296	50	4190
2026-01-01 15:04:20.19	314.16	10.42	-44.0	-45.0	16.9	0.00e+00	0	56	0	2203058176	50	4139
2026-01-01 15:04:21.19	314.33	10.39	-44.3	-45.3	16.6	0.00e+00	0	56	0	2209349632	50	4263
2026-01-01 15:04:22.18	314.50	10.35	-44.4	-45.4	16.5	0.00e+00	0	57	0	2214592512	50	4313
2026-01-01 15:04:23.16	314.66	10.32	-44.3	-45.3	16.7	0.00e+00	0	57	0	2219835392	50	4252
2026-01-01 15:04:24.15	314.83	10.29	-44.3	-45.3	16.7	0.00e+00	0	56	0	2226126848	50	4251
2026-01-01 15:04:25.13	314.99	10.26	-44.3	-45.3	16.6	0.00e+00	0	56	0	2231369728	50	4278
2026-01-01 15:04:26.12	315.16	10.22	-44.5	-45.5	16.4	0.00e+00	0	57	0	2236612608	50	4373
2026-01-01 15:04:27.11	315.32	10.19	-44.4	-45.4	16.5	0.00e+00	0	57	0	2241855488	50	4324
2026-01-01 15:04:28.10	315.49	10.16	-44.7	-45.8	16.1	0.00e+00	0	57	0	2248146944	51	4270
2026-01-01 15:04:29.08	315.65	10.13	-44.5	-45.5	16.4	0.00e+00	0	56	0	2253389824	51	4130
2026-01-01 15:04:30.07	315.82	10.09	-44.3	-45.3	16.6	0.00e+00	0	56	0	2258632704	51	4030
2026-01-01 15:04:31.05	315.98	10.06	-44.1	-45.1	16.8	0.00e+00	0	56	0	2264924160	51	3943
2026-01-01 15:04:32.04	316.14	10.03	-44.2	-45.3	16.6	0.00e+00	0	56	0	2270167040	51	4017
2026-01-01 15:04:33.03	316.30	9.99	-44.4	-45.4	16.5	0.00e+00	0	56	0	2275409920	51	4087
2026-01-01 15:04:34.02	316.47	9.96	-44.5	-45.5	16.4	0.00e+00	0	56	0	2280652800	51	4121
2026-01-01 15:04:35.02	316.63	9.92	-44.7	-45.7	16.1	0.00e+00	0	56	0	2286944256	51	4232
2026-01-01 15:04:36.01	316.79	9.89	-44.4	-45.5	16.4	0.00e+00	0	56	0	2292187136	51	4124
2026-01-01 15:04:37.00	316.95	9.86	-44.4	-45.4	16.5	0.00e+00	0	57	0	2297430016	51	4082
2026-01-01 15:04:37.99	317.11	9.82	-44.5	-45.6	16.3	0.00e+00	0	56	0	2303721472	51	4170
2026-01-01 15:04:38.99	317.28	9.79	-44.8	-45.8	16.1	0.00e+00	0	57	0	2308964352	51	4288
2026-01-01 15:04:39.98	317.44	9.75	-44.6	-45.7	16.2	0.00e+00	0	56	0	2315255808	51	4227
2026-01-01 15:04:40.96	317.59	9.72	-45.0	-46.1	15.8	0.00e+00	0	56	0	2320498688	51	4423
2026-01-01 15:04:41.95	317.75	9.68	-44.8	-45.9	16.0	0.00e+00	0	56	0	2325741568	51	4301
2026-01-01 15:04:42.94	317.91	9.65	-45.1	-46.2	15.7	0.00e+00	0	57	0	2330984448	51	4477
2026-01-01 15:04:43.93	318.07	9.61	-45.3	-46.5	15.3	0.00e+00	0	56	0	2336227328	52	4369
2026-01-01 15:04:44.92	318.23	9.58	-45.1	-46.3	15.5	0.00e+00	0	56	0	2342518784	52	4285
2026-01-01 15:04:45.91	318.39	9.54	-44.8	-45.9	15.8	0.00e+00	0	56	0	2347761664	52	4088
2026-01-01 15:04:46.89	318.54	9.51	-44.6	-45.7	16.1	0.00e+00	0	56	0	2354053120	52	3979
2026-01-01 15:04:47.88	318.70	9.47	-44.4	-45.4	16.4	0.00e+00	0	57	0	2359296000	52	3853
2026-01-01 15:04:48.87	318.86	9.43	-44.3	-45.3	16.5	0.00e+00	0	57	0	2364538880	51	4051
2026-01-01 15:04:49.86	319.01	9.40	-44.4	-45.4	16.5	0.00e+00	0	56	0	2369781760	51	4069
2026-01-01 15:04:50.85	319.17	9.36	-44.3	-45.3	16.5	0.00e+00	0	56	0	2376073216	51	4040
2026-01-01 15:04:51.84	319.33	9.32	-44.3	-45.3	16.6	0.00e+00	0	57	0	2381316096	51	4033
2026-01-01 15:04:52.83	319.48	9.29	-44.2	-45.3	16.6	0.00e+00	0	57	0	2386558976	51	4011
2026-01-01 15:04:53.82	319.64	9.25	-44.4	-45.4	16.4	0.00e+00	0	57	0	2392850432	51	4090
2026-01-01 15:04:54.82	319.79	9.21	-44.3	-45.4	16.5	0.00e+00	0	56	0	2398093312	51	4063
2026-01-01 15:04:55.80	319.95	9.18	-44.4	-45.4	16.4	0.00e+00	0	56	0	2403336192	51	4089
2026-01-01 15:04:56.80	320.10	9.14	-44.6	-45.6	16.2	0.00e+00	0	57	0	2409627648	51	4183
2026-01-01 15:04:57.79	320.25	9.10	-44.7	-45.8	16.0	0.00e+00	0	56	0	2414870528	51	4280
2026-01-01 15:04:58.78	320.41	9.07	-44.6	-45.7	16.2	0.00e+00	0	57	0	2420113408	51	4196
2026-01-01 15:04:59.76	320.56	9.03	-44.5	-45.5	16.3	0.00e+00	0	56	0	2425356288	51	4131
2026-01-01 15:05:00.75	320.71	8.99	-44.6	-45.7	16.1	0.00e+00	0	56	0	2431647744	51	4215
2026-01-01 15:05:01.74	320.86	8.95	-44.5	-45.5	16.4	0.00e+00	0	56	0	2436890624	51	4134
2026-01-01 15:05:02.73	321.01	8.92	-44.6	-45.6	16.2	0.00e+00	0	56	0	2443182080	51	4180
2026-01-01 15:05:03.71	321.16	8.88	-44.5	-45.6	16.2	0.00e+00	0	57	0	2448424960	51	4175
2026-01-01 15:05:04.71	321.32	8.84	-44.4	-45.4	16.5	0.00e+00	0	56	0	2453667840	51	4061
2026-01-01 15:05:05.69	321.47	8.80	-44.3	-45.3	16.5	0.00e+00	0	56	0	2458910720	51	4021
2026-01-01 15:05:06.67	321.61	8.76	-44.3	-45.3	16.5	0.00e+00	0	56	0	2464153600	51	4022
2026-01-01 15:05:07.66	321.76	8.73	-44.2	-45.3	16.6	0.00e+00	0	57	0	2470445056	51	4015
2026-01-01 15:05:08.65	321.91	8.69	-44.3	-45.3	16.5	0.00e+00	0	57	0	2475687936	51	4040
2026-01-01 15:05:09.64	322.06	8.65	-44.2	-45.2	16.6	0.00e+00	0	57	0	2481979392	51	3975
2026-01-01 15:05:10.63	322.21	8.61	-44.2	-45.3	16.6	0.00e+00	0	56	0	2487222272	51	4013
2026-01-01 15:05:11.62	322.36	8.57	-44.4	-45.4	16.4	0.00e+00	0	57	0	2492465152	51	4078
2026-01-01 15:05:12.61	322.51	8.53	-44.4	-45.5	16.3	0.00e+00	0	56	0	2497708032	51	4119
2026-01-01 15:05:13.59	322.65	8.50	-44.4	-45.5	16.3	0.00e+00	0	57	0	2503999488	51	4124
2026-01-01 15:05:14.58	322.80	8.46	-44.6	-45.7	16.1	0.00e+00	0	57	0	2509242368	51	4201
2026-01-01 15:05:15.57	322.95	8.42	-44.7	-45.8	16.0	0.00e+00	0	57	0	2514485248	51	4286
2026-01-01 15:05:16.56	323.09	8.38	-44.7	-45.8	16.0	0.00e+00	0	57	0	2520776704	51	4280
2026-01-01 15:05:17.56	323.24	8.34	-44.8	-45.9	15.9	0.00e+00	0	57	0	2526019584	51	4315
2026-01-01 15:05:18.55	323.38	8.30	-44.8	-45.9	15.9	0.00e+00	0	57	0	2531262464	51	4300
2026-01-01 15:05:19.54	323.53	8.26	-44.7	-45.9	15.9	0.00e+00	0	57	0	2537553920	51	4301
2026-01-01 15:05:20.53	323.67	8.22	-44.7	-45.8	16.0	0.00e+00	0	57	0	2542796800	51	4269
2026-01-01 15:05:21.52	323.82	8.18	-44.8	-45.9	15.8	0.00e+00	0	57	0	2548039680	51	4332
2026-01-01 15:05:22.51	323.96	8.14	-44.7	-45.8	15.9	0.00e+00	0	57	0	2554331136	51	4250
2026-01-01 15:05:23.50	324.11	8.10	-44.7	-45.9	15.9	0.00e+00	0	57	0	2559574016	51	4302
2026-01-01 15:05:24.49	324.25	8.06	-45.0	-46.1	15.7	0.00e+00	0	57	0	2564816896	51	4429
2026-01-01 15:05:25.48	324.39	8.02	-45.0	-46.1	15.5	0.00e+00	0	57	0	2571108352	52	4186
2026-01-01 15:05:26.47	324.54	7.98	-44.9	-46.1	15.6	0.00e+00	0	57	0	2576351232	52	4165
2026-01-01 15:05:27.45	324.68	7.94	-45.1	-46.3	15.4	0.00e+00	0	56	0	2581594112	52	4255
2026-01-01 15:05:28.44	324.82	7.90	-45.1	-46.3	15.4	0.00e+00	0	57	0	2586836992	52	4262
2026-01-01 15:05:29.44	324.96	7.86	-45.1	-46.3	15.4	0.00e+00	0	57	0	2593128448	52	4281
2026-01-01 15:05:30.42	325.10	7.82	-45.1	-46.3	15.4	0.00e+00	0	56	0	2598371328	52	4244
2026-01-01 15:05:31.40	325.24	7.78	-45.2	-46.4	15.3	0.00e+00	0	57	0	2603614208	52	4336
2026-01-01 15:05:32.39	325.38	7.74	-45.3	-46.5	15.2	0.00e+00	0	57	0	2609905664	52	4369
2026-01-01 15:05:33.37	325.52	7.70	-45.2	-46.4	15.2	0.00e+00	0	56	0	2615148544	52	4325
2026-01-01 15:05:34.36	325.66	7.66	-45.2	-46.5	15.3	0.00e+00	0	57	0	2620391424	52	4344
2026-01-01 15:05:35.35	325.80	7.62	-45.5	-46.8	14.9	1.10e-06	0	57	0	2625634304	52	4508
2026-01-01 15:05:36.35	325.94	7.58	-45.1	-46.4	15.4	0.00e+00	0	57	0	2631925760	52	4294
2026-01-01 15:05:37.34	326.07	7.53	-44.9	-46.1	15.6	0.00e+00	0	57	0	2637168640	52	4155
2026-01-01 15:05:38.33	326.21	7.49	-44.6	-45.7	15.8	0.00e+00	0	57	0	2643460096	52	4001
2026-01-01 15:05:39.32	326.35	7.45	-44.7	-45.8	16.0	0.00e+00	0	57	0	2648702976	51	4255
2026-01-01 15:05:40.31	326.49	7.41	-44.5	-45.6	16.2	0.00e+00	0	56	0	2653945856	51	4148
2026-01-01 15:05:41.30	326.62	7.37	-44.4	-45.5	16.2	0.00e+00	0	57	0	2659188736	51	4124
2026-01-01 15:05:42.28	326.76	7.33	-44.6	-45.6	16.1	0.00e+00	0	57	0	2665480192	51	4193
2026-01-01 15:05:43.28	326.90	7.29	-44.6	-45.7	16.0	0.00e+00	0	57	0	2670723072	51	4215
2026-01-01 15:05:44.27	327.03	7.25	-44.8	-45.9	15.8	0.00e+00	0	57	0	2675965952	51	4316
2026-01-01 15:05:45.27	327.17	7.20	-44.7	-45.9	15.7	0.00e+00	0	57	0	2682257408	51	4300
2026-01-01 15:05:46.26	327.30	7.16	-44.8	-45.9	15.8	0.00e+00	0	57	0	2687500288	51	4324
2026-01-01 15:05:47.25	327.44	7.12	-44.8	-46.0	15.6	0.00e+00	0	57	0	2692743168	51	4387
2026-01-01 15:05:48.24	327.57	7.08	-44.8	-45.9	15.8	0.00e+00	0	57	0	2699034624	51	4308
2026-01-01 15:05:49.22	327.71	7.04	-44.8	-45.9	15.8	0.00e+00	0	57	0	2704277504	51	4336
2026-01-01 15:05:50.21	327.84	7.00	-44.7	-45.8	15.8	0.00e+00	0	57	0	2709520384	51	4267
2026-01-01 15:05:51.20	327.97	6.95	-44.9	-46.1	15.6	1.10e-06	0	57	0	2714763264	51	4403
2026-01-01 15:05:52.19	328.10	6.91	-44.7	-45.9	15.7	0.00e+00	0	57	0	2721054720	51	4311
2026-01-01 15:05:53.18	328.24	6.87	-44.8	-46.0	15.6	0.00e+00	0	57	0	2726297600	51	4343
2026-01-01 15:05:54.17	328.37	6.83	-44.9	-46.1	15.6	0.00e+00	0	56	0	2731540480	51	4413
2026-01-01 15:05:55.16	328.50	6.79	-44.9	-46.1	15.5	0.00e+00	0	57	0	2737831936	51	4396
2026-01-01 15:05:56.15	328.63	6.74	-45.1	-46.3	15.3	0.00e+00	0	57	0	2743074816	52	4275
2026-01-01 15:05:57.14	328.76	6.70	-44.9	-46.1	15.5	0.00e+00	0	57	0	2748317696	52	4156
2026-01-01 15:05:58.12	328.89	6.66	-44.9	-46.1	15.4	0.00e+00	0	56	0	2753560576	52	4166
2026-01-01 15:05:59.10	329.02	6.62	-45.2	-46.5	15.0	0.00e+00	0	57	0	2759852032	52	4364
2026-01-01 15:06:00.09	329.15	6.57	-44.8	-46.0	15.5	0.00e+00	0	57	0	2765094912	52	4134
2026-01-01 15:06:01.09	329.28	6.53	-44.9	-46.2	15.3	0.00e+00	0	56	0	2771386368	52	4198
2026-01-01 15:06:02.08	329.41	6.49	-45.1	-46.4	15.0	0.00e+00	0	57	0	2776629248	52	4317
2026-01-01 15:06:03.06	329.54	6.45	-45.3	-46.6	14.9	0.00e+00	0	57	0	2781872128	52	4414
2026-01-01 15:06:04.05	329.67	6.40	-45.1	-46.4	15.1	0.00e+00	0	57	0	2787115008	52	4304
2026-01-01 15:06:05.04	329.80	6.36	-45.3	-46.6	14.8	0.00e+00	0	57	0	2793406464	52	4428
2026-01-01 15:06:06.02	329.92	6.32	-45.7	-47.1	14.4	0.00e+00	0	57	0	2798649344	53	4396
2026-01-01 15:06:07.02	330.05	6.28	-45.8	-47.3	14.2	2.20e-06	0	56	0	2803892224	53	4509
2026-01-01 15:06:08.00	330.18	6.23	-45.8	-47.2	14.2	3.40e-06	0	57	0	2810183680	53	4488
2026-01-01 15:06:08.98	330.30	6.19	-46.0	-47.5	14.0	4.50e-06	0	57	0	2815426560	53	4608
2026-01-01 15:06:09.97	330.43	6.15	-46.2	-47.7	13.8	3.40e-06	0	57	0	2820669440	54	4450
2026-01-01 15:06:10.96	330.55	6.11	-46.1	-47.6	13.9	6.80e-06	0	57	0	2825912320	54	4403
2026-01-01 15:06:11.95	330.68	6.06	-46.2	-47.8	13.7	3.40e-06	0	57	0	2832203776	54	4498
2026-01-01 15:06:12.94	330.80	6.02	-46.5	-48.2	13.3	2.05e-05	0	57	0	2837446656	55	4489
2026-01-01 15:06:13.92	330.93	5.98	-46.4	-48.0	13.5	1.25e-05	0	57	0	2842689536	55	4380
2026-01-01 15:06:14.91	331.05	5.93	-46.0	-47.5	14.0	1.02e-05	0	57	0	2848980992	55	4124
2026-01-01 15:06:15.91	331.18	5.89	-46.0	-47.4	14.0	3.40e-06	0	57	0	2854223872	54	4334
2026-01-01 15:06:16.89	331.30	5.85	-45.6	-47.0	14.4	2.20e-06	0	57	0	2859466752	54	4136
2026-01-01 15:06:17.88	331.42	5.80	-45.5	-46.9	14.6	1.10e-06	0	57	0	2864709632	53	4315
2026-01-01 15:06:18.86	331.55	5.76	-45.6	-47.0	14.4	1.10e-06	0	57	0	2871001088	53	4353
2026-01-01 15:06:19.85	331.67	5.72	-45.8	-47.2	14.2	3.40e-06	0	57	0	2876243968	53	4486
2026-01-01 15:06:20.84	331.79	5.68	-45.8	-47.2	14.2	2.20e-06	0	57	0	2882535424	53	4462
2026-01-01 15:06:21.83	331.91	5.63	-45.5	-46.9	14.5	0.00e+00	0	57	0	2887778304	53	4324
2026-01-01 15:06:22.83	332.04	5.59	-45.2	-46.6	14.8	2.20e-06	0	57	0	2893021184	53	4155
2026-01-01 15:06:23.81	332.16	5.55	-45.3	-46.6	14.8	0.00e+00	0	57	0	2898264064	53	4163
2026-01-01 15:06:24.80	332.28	5.50	-45.2	-46.5	14.9	1.10e-06	0	57	0	2904555520	53	4141
2026-01-01 15:06:25.79	332.40	5.46	-45.4	-46.7	14.6	0.00e+00	0	57	0	2909798400	53	4232
2026-01-01 15:06:26.77	332.52	5.42	-45.4	-46.8	14.6	0.00e+00	0	57	0	2915041280	53	4253
2026-01-01 15:06:27.77	332.64	5.37	-45.4	-46.7	14.6	0.00e+00	0	57	0	2921332736	53	4231
2026-01-01 15:06:28.75	332.76	5.33	-45.3	-46.6	14.7	3.40e-06	0	57	0	2926575616	53	4189
2026-01-01 15:06:29.74	332.87	5.28	-45.3	-46.5	14.8	1.10e-06	0	57	0	2931818496	53	4141
2026-01-01 15:06:30.72	332.99	5.24	-45.2	-46.6	14.8	0.00e+00	0	57	0	2937061376	53	4148
2026-01-01 15:06:31.70	333.11	5.20	-45.4	-46.8	14.5	1.10e-06	0	57	0	2943352832	53	4272
2026-01-01 15:06:32.69	333.23	5.15	-45.4	-46.8	14.5	0.00e+00	0	57	0	2948595712	53	4273
2026-01-01 15:06:33.69	333.35	5.11	-45.4	-46.8	14.5	0.00e+00	0	57	0	2953838592	53	4266
2026-01-01 15:06:34.67	333.46	5.07	-45.4	-46.8	14.5	3.40e-06	0	57	0	2960130048	53	4271
2026-01-01 15:06:35.66	333.58	5.02	-45.5	-46.9	14.4	1.10e-06	0	57	0	2965372928	53	4321
2026-01-01 15:06:36.65	333.70	4.98	-51.7	-61.9	3.8	8.46e-01	0	57	104	2967470080	65	12178
2026-01-01 15:06:37.63	333.81	4.94	-51.7	-62.5	3.8	8.46e-01	0	57	104	2967470080	65	13087
2026-01-01 15:06:38.61	333.93	4.89	-52.0	-62.8	3.8	8.46e-01	0	57	104	2967470080	66	12709
2026-01-01 15:06:39.60	334.04	4.85	-52.2	-63.0	3.8	8.45e-01	0	57	104	2967470080	66	13020
2026-01-01 15:06:40.60	334.16	4.80	-52.4	-63.1	3.8	8.46e-01	0	57	104	2967470080	66	13180
2026-01-01 15:06:41.58	334.28	4.76	-51.8	-62.7	3.8	8.46e-01	0	57	104	2967470080	66	12521
2026-01-01 15:06:42.56	334.39	4.72	-52.3	-63.1	3.8	8.46e-01	0	57	104	2967470080	66	13256
2026-01-01 15:06:43.55	334.50	4.67	-52.5	-63.3	3.8	8.47e-01	0	57	104	2967470080	66	13450
2026-01-01 15:06:44.55	334.62	4.63	-52.6	-63.3	3.8	8.45e-01	0	57	104	2967470080	66	13501
2026-01-01 15:06:45.54	334.73	4.59	-52.4	-63.3	3.8	8.46e-01	0	57	104	2967470080	67	12788
2026-01-01 15:06:46.53	334.85	4.54	-52.6	-63.3	3.8	8.46e-01	0	57	104	2967470080	67	12808
2026-01-01 15:06:47.52	334.96	4.50	-52.3	-63.4	3.8	8.44e-01	0	57	104	2967470080	67	12883
2026-01-01 15:06:48.50	335.07	4.45	-52.6	-63.4	3.8	8.46e-01	0	57	104	2967470080	67	12933
2026-01-01 15:06:49.49	335.18	4.41	-52.7	-63.4	3.8	8.45e-01	0	57	104	2967470080	67	12942
2026-01-01 15:06:50.48	335.30	4.37	-52.6	-63.5	3.8	8.46e-01	0	57	104	2967470080	67	13012
2026-01-01 15:06:51.47	335.41	4.32	-52.7	-63.5	3.8	8.46e-01	0	57	104	2967470080	67	12994
2026-01-01 15:06:52.45	335.52	4.28	-52.6	-63.5	3.8	8.45e-01	0	57	104	2967470080	67	13021
2026-01-01 15:06:53.44	335.63	4.23	-52.6	-63.5	3.8	8.47e-01	0	57	104	2967470080	67	13038
2026-01-01 15:06:54.42	335.74	4.19	-52.7	-63.5	3.8	8.47e-01	0	57	104	2967470080	67	13091
2026-01-01 15:06:55.41	335.85	4.15	-52.8	-63.5	3.8	8.47e-01	0	57	104	2967470080	67	13106
2026-01-01 15:06:56.40	335.96	4.10	-52.8	-63.5	3.8	8.45e-01	0	57	104	2967470080	67	13087
2026-01-01 15:06:57.39	336.07	4.06	-52.7	-63.6	3.8	8.46e-01	0	57	104	2967470080	67	13146
2026-01-01 15:06:58.39	336.18	4.01	-52.8	-63.5	3.8	8.46e-01	0	57	104	2967470080	67	13084
2026-01-01 15:06:59.38	336.29	3.97	-52.8	-63.6	3.8	8.46e-01	0	57	104	2967470080	67	13162
2026-01-01 15:07:00.36	336.40	3.93	-52.8	-63.6	3.8	8.46e-01	0	57	104	2967470080	67	13142
2026-01-01 15:07:01.34	336.51	3.88	-52.8	-63.6	3.8	8.45e-01	0	57	104	2967470080	67	13129
2026-01-01 15:07:02.33	336.62	3.84	-52.8	-63.5	3.8	8.45e-01	0	57	104	2967470080	67	13098
2026-01-01 15:07:03.32	336.73	3.79	-52.8	-63.6	3.8	8.46e-01	0	57	104	2967470080	67	13145
2026-01-01 15:07:04.32	336.83	3.75	-52.8	-63.6	3.8	8.46e-01	0	57	104	2967470080	67	13119
2026-01-01 15:07:05.31	336.94	3.70	-52.7	-63.5	3.8	8.46e-01	0	57	104	2967470080	67	13097
2026-01-01 15:07:06.30	337.05	3.66	-52.7	-63.5	3.8	8.45e-01	0	57	104	2967470080	67	13070
2026-01-01 15:07:07.29	337.16	3.62	-52.6	-63.5	3.8	8.46e-01	0	57	104	2967470080	67	13105
2026-01-01 15:07:08.28	337.26	3.57	-52.6	-63.5	3.8	8.47e-01	0	57	104	2967470080	67	13075
2026-01-01 15:07:09.26	337.37	3.53	-52.7	-63.5	3.8	8.47e-01	0	57	104	2967470080	67	13062
2026-01-01 15:07:10.26	337.48	3.48	-52.7	-63.5	3.8	8.46e-01	0	57	104	2967470080	67	13089
2026-01-01 15:07:11.25	337.58	3.44	-52.7	-63.6	3.8	8.46e-01	0	57	104	2967470080	67	13117
2026-01-01 15:07:12.24	337.69	3.40	-52.7	-63.6	3.8	8.46e-01	0	57	104	2967470080	67	13116
2026-01-01 15:07:13.23	337.79	3.35	-52.7	-63.5	3.8	8.46e-01	0	57	104	2967470080	67	13088
2026-01-01 15:07:14.22	337.90	3.31	-52.8	-63.6	3.8	8.46e-01	0	57	104	2967470080	67	13119
2026-01-01 15:07:15.21	338.00	3.26	-52.8	-63.6	3.8	8.47e-01	0	57	104	2967470080	67	13133
2026-01-01 15:07:16.19	338.10	3.22	-52.7	-63.5	3.8	8.47e-01	0	57	104	2967470080	67	13107
2026-01-01 15:07:17.18	338.21	3.17	-52.7	-63.5	3.8	8.46e-01	0	57	104	2967470080	67	13095
2026-01-01 15:07:18.18	338.31	3.13	-52.6	-63.5	3.8	8.46e-01	0	57	104	2967470080	67	13095
2026-01-01 15:07:19.17	338.42	3.09	-52.6	-63.5	3.8	8.47e-01	0	57	104	2967470080	67	13061
2026-01-01 15:07:20.16	338.52	3.04	-52.6	-63.5	3.8	8.46e-01	0	57	104	2967470080	67	13087
2026-01-01 15:07:21.16	338.62	3.00	-52.7	-63.5	3.8	8.48e-01	0	57	104	2967470080	67	13092
2026-01-01 15:07:22.15	338.73	2.95	-52.7	-63.5	3.8	8.47e-01	0	57	104	2967470080	67	13094

#Closed at: 2026-01-01 15:07:22
#Recorded file [2967 MB]: D:/Data/31026_260101_180636.dat