passes_logs/2026/01/01/R3.0SM8_Murmansk_STILSPACE/R3.0SM8_Murmansk_STILSPACE__20260101_021404_SUOMI_NPP_rec.log

#Pass ID: 20260101_021404_SUOMI NPP
#Satellite: SUOMI NPP
#Configuration: NPP
#almurnet v.1.7.20240730
#Start time: 2026-01-01 02:14:04

#Version: 2.2.20231116
#Station: R3.0SM8_Murmansk_STILSPACE
#Location: 33.092731 lon 68.902999 lat
#TLE: 1 37849U 11061A   25364.87906317  .00000195  00000+0  11345-3 0  9992
#TLE: 2 37849  98.7794 302.0592 0002571  89.2401 270.9069 14.19520347734561

#Time	Az	El	Level	Level2	SNR	BER	BlckErr	Temp	State	Recorded	gain1	gain2
2026-01-01 02:14:04.48	31.24	3.02	-52.6	-66.4	3.8	1.49e+00	0	50	0	0	67	18297
2026-01-01 02:14:05.47	31.21	3.09	-52.6	-66.5	3.8	1.49e+00	0	50	104	0	68	17284
2026-01-01 02:14:06.45	31.18	3.15	-52.6	-66.4	3.8	1.49e+00	0	50	104	0	68	17193
2026-01-01 02:14:07.43	31.14	3.21	-52.6	-66.4	3.8	1.49e+00	0	50	104	0	68	17157
2026-01-01 02:14:08.41	31.11	3.28	-52.5	-66.3	3.8	1.49e+00	0	50	104	0	68	17002
2026-01-01 02:14:09.40	31.07	3.34	-52.4	-66.1	3.8	1.49e+00	0	50	104	0	67	17650
2026-01-01 02:14:10.37	31.04	3.40	-52.2	-66.0	3.8	1.49e+00	0	50	104	0	67	17420
2026-01-01 02:14:11.36	31.01	3.47	-52.0	-65.7	3.8	1.49e+00	0	50	104	0	67	16794
2026-01-01 02:14:12.34	30.97	3.53	-51.7	-65.4	3.8	1.49e+00	0	50	104	0	66	17084
2026-01-01 02:14:13.32	30.94	3.59	-51.7	-65.2	3.8	1.49e+00	0	50	104	0	66	16737
2026-01-01 02:14:14.31	30.90	3.66	-51.7	-65.0	3.8	1.49e+00	0	51	104	0	66	16392
2026-01-01 02:14:15.29	30.87	3.72	-51.7	-64.8	3.8	1.49e+00	0	51	104	0	66	16006
2026-01-01 02:14:16.28	30.83	3.79	-51.7	-64.6	3.8	1.49e+00	0	51	104	0	66	15732
2026-01-01 02:14:17.26	30.80	3.85	-51.7	-64.3	3.8	1.49e+00	0	51	104	0	66	15155
2026-01-01 02:14:18.24	30.76	3.92	-51.7	-64.0	3.8	1.49e+00	0	51	104	0	66	14597
2026-01-01 02:14:19.23	30.73	3.98	-51.6	-63.7	3.8	1.49e+00	0	51	104	0	66	14205
2026-01-01 02:14:20.21	30.69	4.05	-51.6	-63.3	3.8	1.48e+00	0	51	104	0	66	13420
2026-01-01 02:14:21.20	30.65	4.12	-51.6	-62.7	3.9	1.47e+00	0	51	104	0	66	12640
2026-01-01 02:14:22.18	30.62	4.18	-51.5	-62.3	4.1	1.46e+00	0	51	104	0	65	12677
2026-01-01 02:14:23.15	30.58	4.25	-51.4	-61.6	4.3	1.39e+00	0	51	0	0	65	11722
2026-01-01 02:14:24.13	30.55	4.31	-51.4	-61.1	4.5	1.22e+00	0	51	0	1048576	65	11032
2026-01-01 02:14:25.10	30.51	4.38	-51.2	-59.9	5.0	8.29e-01	0	51	0	3145728	65	9659
2026-01-01 02:14:26.07	30.47	4.44	-51.1	-59.1	5.6	5.45e-01	0	51	0	5242880	65	8765
2026-01-01 02:14:27.05	30.44	4.51	-51.0	-58.2	6.2	3.45e-01	0	51	0	7340032	65	7967
2026-01-01 02:14:28.02	30.40	4.57	-50.8	-57.6	6.8	2.47e-01	0	51	0	8388608	64	7809
2026-01-01 02:14:28.99	30.36	4.64	-50.6	-56.7	7.5	1.35e-01	0	52	0	10485760	64	7077
2026-01-01 02:14:29.96	30.32	4.71	-50.5	-56.2	7.9	7.55e-02	0	52	0	12582912	64	6721
2026-01-01 02:14:30.93	30.29	4.77	-50.4	-55.7	8.6	4.25e-02	0	52	0	14680064	63	6667
2026-01-01 02:14:31.91	30.25	4.84	-50.1	-54.8	9.5	2.55e-02	0	52	0	15728640	63	6053
2026-01-01 02:14:32.88	30.21	4.91	-50.0	-54.6	9.7	1.38e-02	0	52	0	17825792	63	5900
2026-01-01 02:14:33.85	30.17	4.97	-49.7	-54.0	10.4	5.52e-03	0	52	0	19922944	62	5794
2026-01-01 02:14:34.83	30.13	5.04	-49.6	-53.6	10.8	2.57e-03	0	52	0	20971520	62	5551
2026-01-01 02:14:35.80	30.10	5.11	-49.5	-53.4	10.9	2.25e-03	0	52	0	23068672	62	5446
2026-01-01 02:14:36.77	30.06	5.17	-49.6	-53.6	10.7	2.28e-03	0	52	0	25165824	62	5566
2026-01-01 02:14:37.74	30.02	5.24	-49.7	-53.8	10.6	3.68e-03	0	52	0	27262976	62	5689
2026-01-01 02:14:38.72	29.98	5.31	-49.7	-53.9	10.5	2.93e-03	0	52	0	28311552	62	5726
2026-01-01 02:14:39.69	29.94	5.38	-49.7	-53.8	10.6	4.16e-03	0	52	0	30408704	62	5721
2026-01-01 02:14:40.66	29.90	5.44	-49.5	-53.3	11.1	2.47e-03	0	52	0	32505856	62	5373
2026-01-01 02:14:41.63	29.86	5.51	-49.4	-53.2	11.3	1.35e-03	0	52	0	34603008	62	5298
2026-01-01 02:14:42.61	29.82	5.58	-49.5	-53.4	11.0	1.43e-03	0	52	0	35651584	62	5458
2026-01-01 02:14:43.58	29.78	5.65	-49.5	-53.3	11.2	1.61e-03	0	52	0	37748736	62	5361
2026-01-01 02:14:44.55	29.74	5.72	-49.4	-53.0	11.5	1.26e-03	0	53	0	39845888	61	5504
2026-01-01 02:14:45.53	29.70	5.79	-49.3	-52.9	11.6	6.48e-04	0	53	0	41943040	61	5435
2026-01-01 02:14:46.50	29.66	5.85	-49.1	-52.6	11.9	4.38e-04	0	53	0	42991616	61	5233
2026-01-01 02:14:47.48	29.62	5.92	-48.8	-52.0	12.5	2.35e-04	0	53	0	45088768	60	5198
2026-01-01 02:14:48.45	29.58	5.99	-48.8	-51.9	12.6	9.61e-05	0	53	0	47185920	60	5148
2026-01-01 02:14:49.43	29.54	6.06	-48.6	-51.5	13.0	6.17e-05	0	53	0	49283072	60	4925
2026-01-01 02:14:50.40	29.49	6.13	-48.4	-51.3	13.3	2.13e-05	0	53	0	50331648	60	4767
2026-01-01 02:14:51.36	29.45	6.20	-48.4	-51.1	13.5	2.21e-05	0	53	0	52428800	59	4927
2026-01-01 02:14:52.34	29.41	6.27	-48.3	-51.0	13.6	1.37e-05	0	53	0	54525952	59	4871
2026-01-01 02:14:53.31	29.37	6.34	-48.2	-50.8	13.7	6.10e-06	0	53	0	56623104	59	4801
2026-01-01 02:14:54.29	29.33	6.41	-48.3	-51.0	13.5	6.80e-06	0	53	0	57671680	59	4916
2026-01-01 02:14:55.27	29.28	6.48	-48.3	-50.9	13.7	6.80e-06	0	53	0	59768832	59	4869
2026-01-01 02:14:56.24	29.24	6.55	-48.4	-51.1	13.5	9.90e-06	0	53	0	61865984	59	4949
2026-01-01 02:14:57.21	29.20	6.62	-48.2	-50.7	13.9	2.20e-06	0	53	0	62914560	59	4738
2026-01-01 02:14:58.19	29.15	6.69	-48.1	-50.6	14.0	4.50e-06	0	54	0	65011712	59	4656
2026-01-01 02:14:59.16	29.11	6.76	-48.1	-50.6	14.0	3.00e-06	0	53	0	67108864	59	4698
2026-01-01 02:15:00.13	29.07	6.84	-48.1	-50.5	14.1	2.20e-06	0	54	0	69206016	59	4638
2026-01-01 02:15:01.11	29.02	6.91	-48.5	-51.2	13.5	1.50e-06	0	54	0	70254592	59	4996
2026-01-01 02:15:02.08	28.98	6.98	-48.4	-51.1	13.6	9.10e-06	0	54	0	72351744	59	4939
2026-01-01 02:15:03.06	28.93	7.05	-48.3	-50.9	13.8	8.30e-06	0	54	0	74448896	59	4844
2026-01-01 02:15:04.04	28.89	7.12	-48.4	-51.1	13.6	9.90e-06	0	54	0	76546048	59	4941
2026-01-01 02:15:05.01	28.84	7.20	-48.4	-51.0	13.6	6.10e-06	0	54	0	77594624	59	4918
2026-01-01 02:15:05.98	28.80	7.27	-48.5	-51.2	13.5	1.14e-05	0	54	0	79691776	59	5023
2026-01-01 02:15:06.95	28.75	7.34	-48.2	-51.0	13.7	9.90e-06	0	54	0	81788928	59	4895
2026-01-01 02:15:07.93	28.71	7.41	-48.6	-51.3	13.4	8.30e-06	0	54	0	83886080	59	5080
2026-01-01 02:15:08.90	28.66	7.49	-48.4	-51.2	13.5	1.29e-05	0	54	0	84934656	59	5027
2026-01-01 02:15:09.88	28.61	7.56	-48.2	-50.8	13.9	9.10e-06	0	54	0	87031808	59	4814
2026-01-01 02:15:10.86	28.57	7.63	-48.1	-50.6	14.2	3.00e-06	0	54	0	89128960	59	4661
2026-01-01 02:15:11.83	28.52	7.71	-48.3	-50.8	13.9	3.00e-06	0	54	0	91226112	59	4790
2026-01-01 02:15:12.80	28.47	7.78	-48.1	-50.5	14.2	7.00e-07	0	54	0	92274688	59	4637
2026-01-01 02:15:13.78	28.43	7.85	-48.1	-50.6	14.2	0.00e+00	0	54	0	94371840	59	4674
2026-01-01 02:15:14.76	28.38	7.93	-48.3	-50.9	13.8	3.80e-06	0	54	0	96468992	59	4864
2026-01-01 02:15:15.73	28.33	8.00	-48.4	-51.1	13.7	7.60e-06	0	54	0	98566144	59	4949
2026-01-01 02:15:16.70	28.28	8.08	-48.6	-51.3	13.5	4.50e-06	0	54	0	99614720	59	5066
2026-01-01 02:15:17.68	28.23	8.15	-48.4	-51.1	13.7	1.29e-05	0	54	0	101711872	59	4933
2026-01-01 02:15:18.66	28.19	8.23	-48.5	-51.1	13.7	8.30e-06	0	54	0	103809024	59	4945
2026-01-01 02:15:19.64	28.14	8.30	-48.5	-51.1	13.7	3.80e-06	0	55	0	105906176	59	4974
2026-01-01 02:15:20.61	28.09	8.38	-48.5	-51.2	13.6	9.10e-06	0	55	0	106954752	59	5024
2026-01-01 02:15:21.58	28.04	8.45	-48.6	-51.3	13.5	1.22e-05	0	55	0	109051904	59	5047
2026-01-01 02:15:22.56	27.99	8.53	-48.5	-51.1	13.7	5.30e-06	0	55	0	111149056	59	4983
2026-01-01 02:15:23.53	27.94	8.61	-48.3	-50.9	13.9	2.20e-06	0	55	0	113246208	59	4850
2026-01-01 02:15:24.51	27.89	8.68	-48.3	-50.9	14.0	1.50e-06	0	55	0	114294784	59	4820
2026-01-01 02:15:25.49	27.84	8.76	-48.4	-51.0	13.9	8.30e-06	0	55	0	116391936	59	4884
2026-01-01 02:15:26.46	27.79	8.84	-48.2	-50.8	14.1	4.50e-06	0	55	0	118489088	59	4762
2026-01-01 02:15:27.43	27.74	8.91	-48.5	-51.1	13.8	2.20e-06	0	55	0	119537664	59	4955
2026-01-01 02:15:28.40	27.68	8.99	-48.5	-51.2	13.6	6.80e-06	0	55	0	121634816	59	4996
2026-01-01 02:15:29.37	27.63	9.07	-48.3	-50.8	14.0	1.50e-06	0	55	0	123731968	59	4799
2026-01-01 02:15:30.35	27.58	9.14	-48.2	-50.6	14.2	7.00e-07	0	55	0	125829120	59	4689
2026-01-01 02:15:31.32	27.53	9.22	-48.0	-50.3	14.5	7.00e-07	0	55	0	126877696	59	4526
2026-01-01 02:15:32.29	27.48	9.30	-47.9	-50.2	14.7	0.00e+00	0	55	0	128974848	58	4708
2026-01-01 02:15:33.26	27.42	9.38	-47.9	-50.3	14.6	7.00e-07	0	55	0	131072000	58	4761
2026-01-01 02:15:34.24	27.37	9.46	-48.0	-50.3	14.6	0.00e+00	0	55	0	133169152	58	4769
2026-01-01 02:15:35.21	27.32	9.53	-48.0	-50.4	14.5	0.00e+00	0	55	0	134217728	58	4827
2026-01-01 02:15:36.18	27.26	9.61	-48.1	-50.5	14.4	0.00e+00	0	55	0	136314880	58	4894
2026-01-01 02:15:37.15	27.21	9.69	-47.9	-50.2	14.7	7.00e-07	0	55	0	138412032	58	4738
2026-01-01 02:15:38.13	27.15	9.77	-47.9	-50.1	14.7	0.00e+00	0	55	0	140509184	58	4685
2026-01-01 02:15:39.10	27.10	9.85	-47.8	-50.0	14.9	0.00e+00	0	55	0	141557760	58	4601
2026-01-01 02:15:40.07	27.04	9.93	-47.7	-49.9	14.9	0.00e+00	0	55	0	143654912	58	4588
2026-01-01 02:15:41.04	26.99	10.01	-47.8	-50.0	14.8	0.00e+00	0	56	0	145752064	58	4646
2026-01-01 02:15:42.03	26.93	10.09	-47.7	-49.9	14.9	0.00e+00	0	55	0	147849216	58	4595
2026-01-01 02:15:43.00	26.88	10.17	-47.8	-50.0	14.8	0.00e+00	0	56	0	148897792	58	4649
2026-01-01 02:15:43.98	26.82	10.25	-47.8	-49.9	14.9	0.00e+00	0	55	0	150994944	58	4590
2026-01-01 02:15:44.95	26.76	10.33	-47.8	-49.9	14.9	0.00e+00	0	55	0	153092096	58	4597
2026-01-01 02:15:45.92	26.71	10.41	-48.0	-50.2	14.6	7.00e-07	0	56	0	155189248	58	4757
2026-01-01 02:15:46.90	26.65	10.49	-47.8	-50.1	14.8	0.00e+00	0	56	0	156237824	58	4678
2026-01-01 02:15:47.88	26.59	10.58	-47.7	-50.0	14.9	0.00e+00	0	56	0	158334976	58	4605
2026-01-01 02:15:48.85	26.53	10.66	-48.0	-50.2	14.6	0.00e+00	0	56	0	160432128	58	4745
2026-01-01 02:15:49.82	26.47	10.74	-47.8	-50.0	14.9	0.00e+00	0	56	0	162529280	58	4637
2026-01-01 02:15:50.79	26.42	10.82	-47.7	-49.8	15.1	0.00e+00	0	56	0	163577856	58	4542
2026-01-01 02:15:51.77	26.36	10.90	-47.6	-49.7	15.2	0.00e+00	0	56	0	165675008	58	4459
2026-01-01 02:15:52.75	26.30	10.99	-47.7	-49.9	15.0	0.00e+00	0	56	0	167772160	58	4563
2026-01-01 02:15:53.72	26.24	11.07	-47.7	-49.7	15.2	0.00e+00	0	56	0	169869312	58	4491
2026-01-01 02:15:54.70	26.18	11.15	-47.5	-49.5	15.4	0.00e+00	0	56	0	170917888	58	4356
2026-01-01 02:15:55.67	26.12	11.24	-47.5	-49.5	15.4	0.00e+00	0	56	0	173015040	58	4346
2026-01-01 02:15:56.65	26.05	11.32	-47.6	-49.6	15.3	0.00e+00	0	56	0	175112192	58	4419
2026-01-01 02:15:57.62	25.99	11.40	-47.6	-49.7	15.2	0.00e+00	0	56	0	176160768	57	4724
2026-01-01 02:15:58.60	25.93	11.49	-47.4	-49.3	15.6	0.00e+00	0	56	0	178257920	57	4535
2026-01-01 02:15:59.57	25.87	11.57	-47.6	-49.6	15.3	7.00e-07	0	56	0	180355072	57	4703
2026-01-01 02:16:00.55	25.81	11.66	-47.7	-49.8	15.1	0.00e+00	0	56	0	182452224	57	4803
2026-01-01 02:16:01.52	25.74	11.74	-47.7	-49.8	15.0	0.00e+00	0	56	0	183500800	57	4812
2026-01-01 02:16:02.50	25.68	11.83	-47.6	-49.6	15.3	0.00e+00	0	56	0	185597952	57	4702
2026-01-01 02:16:03.48	25.62	11.91	-47.7	-49.7	15.2	0.00e+00	0	56	0	187695104	57	4756
2026-01-01 02:16:04.46	25.55	12.00	-47.7	-49.8	15.1	7.00e-07	0	56	0	189792256	57	4766
2026-01-01 02:16:05.43	25.49	12.09	-47.7	-49.8	15.1	0.00e+00	0	56	0	191889408	57	4805
2026-01-01 02:16:06.41	25.42	12.17	-47.8	-50.0	14.9	0.00e+00	0	56	0	192937984	57	4893
2026-01-01 02:16:07.38	25.36	12.26	-47.9	-50.1	14.9	0.00e+00	0	56	0	195035136	57	4964
2026-01-01 02:16:08.36	25.29	12.35	-48.0	-50.3	14.7	1.50e-06	0	56	0	197132288	57	5056
2026-01-01 02:16:09.34	25.22	12.44	-48.3	-50.7	14.3	0.00e+00	0	57	0	199229440	58	4999
2026-01-01 02:16:10.31	25.16	12.52	-48.0	-50.3	14.6	0.00e+00	0	57	0	200278016	58	4784
2026-01-01 02:16:11.28	25.09	12.61	-48.0	-50.2	14.8	0.00e+00	0	56	0	202375168	58	4740
2026-01-01 02:16:12.25	25.02	12.70	-47.8	-50.0	14.9	0.00e+00	0	57	0	204472320	58	4649
2026-01-01 02:16:13.22	24.96	12.78	-48.2	-50.6	14.5	0.00e+00	0	56	0	205520896	58	4930
2026-01-01 02:16:14.19	24.89	12.87	-48.0	-50.3	14.7	0.00e+00	0	56	0	207618048	58	4766
2026-01-01 02:16:15.17	24.82	12.96	-47.9	-50.1	14.9	0.00e+00	0	57	0	209715200	58	4660
2026-01-01 02:16:16.14	24.75	13.05	-48.0	-50.2	14.8	0.00e+00	0	57	0	211812352	58	4743
2026-01-01 02:16:17.11	24.68	13.14	-48.0	-50.3	14.7	0.00e+00	0	57	0	212860928	58	4789
2026-01-01 02:16:18.08	24.61	13.23	-48.0	-50.2	14.8	0.00e+00	0	57	0	214958080	58	4729
2026-01-01 02:16:19.05	24.54	13.32	-48.1	-50.4	14.6	0.00e+00	0	57	0	217055232	58	4847
2026-01-01 02:16:20.03	24.47	13.41	-48.2	-50.5	14.5	1.50e-06	0	57	0	219152384	58	4925
2026-01-01 02:16:21.00	24.40	13.50	-48.3	-50.7	14.4	7.00e-07	0	57	0	220200960	58	4988
2026-01-01 02:16:21.97	24.33	13.59	-48.1	-50.4	14.6	1.50e-06	0	57	0	222298112	58	4858
2026-01-01 02:16:22.95	24.26	13.68	-48.0	-50.2	14.8	0.00e+00	0	57	0	224395264	58	4748
2026-01-01 02:16:23.93	24.18	13.77	-47.8	-50.0	15.0	0.00e+00	0	57	0	226492416	58	4633
2026-01-01 02:16:24.90	24.11	13.87	-47.7	-49.9	15.2	0.00e+00	0	57	0	227540992	58	4564
2026-01-01 02:16:25.88	24.04	13.96	-47.8	-50.0	15.0	0.00e+00	0	57	0	229638144	58	4621
2026-01-01 02:16:26.85	23.96	14.05	-47.9	-50.1	14.9	0.00e+00	0	57	0	231735296	58	4693
2026-01-01 02:16:27.83	23.89	14.14	-48.1	-50.4	14.7	1.50e-06	0	57	0	232783872	58	4816
2026-01-01 02:16:28.79	23.81	14.23	-48.0	-50.2	14.9	0.00e+00	0	57	0	234881024	58	4757
2026-01-01 02:16:29.77	23.74	14.33	-47.8	-49.9	15.2	0.00e+00	0	57	0	236978176	58	4571
2026-01-01 02:16:30.74	23.66	14.42	-47.6	-49.6	15.4	0.00e+00	0	57	0	239075328	58	4412
2026-01-01 02:16:31.72	23.58	14.52	-47.5	-49.5	15.6	0.00e+00	0	57	0	240123904	58	4342
2026-01-01 02:16:32.69	23.51	14.61	-47.3	-49.4	15.7	0.00e+00	0	57	0	242221056	57	4549
2026-01-01 02:16:33.66	23.43	14.70	-47.3	-49.2	15.8	0.00e+00	0	57	0	244318208	57	4493
2026-01-01 02:16:34.62	23.35	14.80	-47.4	-49.3	15.8	0.00e+00	0	57	0	246415360	57	4521
2026-01-01 02:16:35.60	23.27	14.89	-47.4	-49.4	15.6	0.00e+00	0	57	0	247463936	57	4564
2026-01-01 02:16:36.58	23.19	14.99	-47.3	-49.3	15.8	0.00e+00	0	57	0	249561088	57	4498
2026-01-01 02:16:37.55	23.12	15.08	-47.4	-49.3	15.8	0.00e+00	0	57	0	251658240	57	4524
2026-01-01 02:16:38.52	23.04	15.18	-47.5	-49.5	15.5	0.00e+00	0	57	0	253755392	57	4637
2026-01-01 02:16:39.50	22.95	15.28	-47.7	-49.7	15.4	0.00e+00	0	57	0	254803968	57	4731
2026-01-01 02:16:40.48	22.87	15.37	-47.5	-49.5	15.6	0.00e+00	0	57	0	256901120	57	4628
2026-01-01 02:16:41.46	22.79	15.47	-47.5	-49.5	15.6	0.00e+00	0	57	0	258998272	57	4629
2026-01-01 02:16:42.43	22.71	15.57	-47.6	-49.7	15.4	0.00e+00	0	57	0	261095424	57	4712
2026-01-01 02:16:43.40	22.63	15.66	-47.7	-49.7	15.4	0.00e+00	0	57	0	262144000	57	4748
2026-01-01 02:16:44.37	22.54	15.76	-47.8	-49.9	15.3	0.00e+00	0	58	0	264241152	57	4820
2026-01-01 02:16:45.35	22.46	15.86	-47.6	-49.6	15.4	7.00e-07	0	57	0	266338304	57	4694
2026-01-01 02:16:46.32	22.37	15.96	-47.7	-49.7	15.3	0.00e+00	0	58	0	268435456	57	4742
2026-01-01 02:16:47.30	22.29	16.06	-47.8	-49.9	15.1	0.00e+00	0	58	0	269484032	57	4870
2026-01-01 02:16:48.27	22.20	16.16	-47.6	-49.6	15.4	0.00e+00	0	58	0	271581184	57	4698
2026-01-01 02:16:49.24	22.12	16.26	-47.7	-49.8	15.4	0.00e+00	0	58	0	273678336	57	4765
2026-01-01 02:16:50.22	22.03	16.36	-47.8	-49.9	15.2	0.00e+00	0	58	0	275775488	57	4817
2026-01-01 02:16:51.19	21.94	16.46	-48.0	-50.1	14.9	0.00e+00	0	58	0	276824064	57	4969
2026-01-01 02:16:52.17	21.85	16.56	-47.5	-49.5	15.6	0.00e+00	0	58	0	278921216	57	4628
2026-01-01 02:16:53.14	21.76	16.66	-47.6	-49.6	15.4	0.00e+00	0	58	0	281018368	57	4696
2026-01-01 02:16:54.11	21.67	16.76	-47.6	-49.6	15.5	0.00e+00	0	58	0	283115520	57	4662
2026-01-01 02:16:55.09	21.58	16.86	-47.7	-49.7	15.4	0.00e+00	0	58	0	284164096	57	4749
2026-01-01 02:16:56.06	21.49	16.96	-47.7	-49.8	15.3	0.00e+00	0	58	0	286261248	57	4785
2026-01-01 02:16:57.03	21.40	17.07	-47.6	-49.5	15.6	0.00e+00	0	58	0	288358400	57	4640
2026-01-01 02:16:58.00	21.31	17.17	-47.5	-49.4	15.7	0.00e+00	0	58	0	290455552	57	4581
2026-01-01 02:16:58.98	21.22	17.27	-47.5	-49.5	15.6	0.00e+00	0	58	0	291504128	57	4625
2026-01-01 02:16:59.95	21.12	17.37	-47.8	-49.9	15.2	0.00e+00	0	58	0	293601280	57	4854
2026-01-01 02:17:00.92	21.03	17.48	-47.9	-50.0	15.1	0.00e+00	0	58	0	295698432	57	4902
2026-01-01 02:17:01.90	20.93	17.58	-47.5	-49.5	15.6	7.00e-07	0	58	0	296747008	57	4646
2026-01-01 02:17:02.87	20.84	17.69	-47.5	-49.4	15.6	0.00e+00	0	58	0	298844160	57	4596
2026-01-01 02:17:03.85	20.74	17.79	-47.7	-49.7	15.4	0.00e+00	0	58	0	300941312	57	4735
2026-01-01 02:17:04.82	20.65	17.90	-47.6	-49.6	15.5	0.00e+00	0	58	0	303038464	57	4681
2026-01-01 02:17:05.80	20.55	18.00	-47.6	-49.6	15.5	0.00e+00	0	58	0	304087040	57	4688
2026-01-01 02:17:06.77	20.45	18.11	-47.7	-49.8	15.3	0.00e+00	0	58	0	306184192	57	4783
2026-01-01 02:17:07.75	20.35	18.22	-47.8	-49.9	15.2	7.00e-07	0	58	0	308281344	57	4821
2026-01-01 02:17:08.72	20.25	18.32	-47.9	-50.0	15.2	0.00e+00	0	58	0	310378496	57	4902
2026-01-01 02:17:09.69	20.15	18.43	-47.8	-49.8	15.3	0.00e+00	0	58	0	311427072	58	4535
2026-01-01 02:17:10.66	20.05	18.54	-47.6	-49.6	15.6	0.00e+00	0	58	0	313524224	58	4416
2026-01-01 02:17:11.63	19.95	18.64	-47.8	-49.9	15.3	0.00e+00	0	58	0	315621376	58	4583
2026-01-01 02:17:12.61	19.85	18.75	-47.7	-49.7	15.5	0.00e+00	0	58	0	317718528	58	4450
2026-01-01 02:17:13.58	19.74	18.86	-47.7	-49.7	15.5	0.00e+00	0	58	0	318767104	58	4465
2026-01-01 02:17:14.55	19.64	18.97	-47.9	-49.9	15.2	0.00e+00	0	58	0	320864256	58	4591
2026-01-01 02:17:15.53	19.53	19.08	-47.8	-49.8	15.4	0.00e+00	0	58	0	322961408	58	4535
2026-01-01 02:17:16.50	19.43	19.19	-47.8	-49.8	15.4	0.00e+00	0	58	0	325058560	58	4536
2026-01-01 02:17:17.47	19.32	19.30	-47.7	-49.6	15.5	0.00e+00	0	58	0	326107136	58	4432
2026-01-01 02:17:18.44	19.22	19.41	-48.0	-50.1	15.1	0.00e+00	0	58	0	328204288	58	4675
2026-01-01 02:17:19.42	19.11	19.52	-48.0	-50.1	15.1	0.00e+00	0	58	0	330301440	58	4659
2026-01-01 02:17:20.40	19.00	19.63	-47.8	-49.9	15.3	0.00e+00	0	58	0	332398592	58	4560
2026-01-01 02:17:21.37	18.89	19.74	-47.9	-49.9	15.2	0.00e+00	0	58	0	333447168	58	4595
2026-01-01 02:17:22.34	18.78	19.85	-48.3	-50.6	14.6	0.00e+00	0	58	0	335544320	58	4940
2026-01-01 02:17:23.32	18.67	19.97	-48.2	-50.4	14.8	0.00e+00	0	58	0	337641472	58	4821
2026-01-01 02:17:24.29	18.55	20.08	-47.9	-50.0	15.2	0.00e+00	0	58	0	339738624	58	4601
2026-01-01 02:17:25.25	18.44	20.19	-48.1	-50.3	14.9	0.00e+00	0	58	0	340787200	58	4793
2026-01-01 02:17:26.23	18.33	20.30	-48.0	-50.0	15.2	0.00e+00	0	58	0	342884352	58	4649
2026-01-01 02:17:27.20	18.21	20.42	-48.0	-50.1	15.1	0.00e+00	0	58	0	344981504	58	4676
2026-01-01 02:17:28.18	18.10	20.53	-48.0	-50.1	15.2	0.00e+00	0	58	0	347078656	58	4664
2026-01-01 02:17:29.16	17.98	20.65	-48.0	-50.1	15.1	0.00e+00	0	59	0	348127232	58	4674
2026-01-01 02:17:30.14	17.86	20.76	-48.1	-50.2	15.0	0.00e+00	0	59	0	350224384	58	4750
2026-01-01 02:17:31.11	17.74	20.88	-48.1	-50.2	15.0	7.00e-07	0	58	0	352321536	58	4759
2026-01-01 02:17:32.08	17.63	20.99	-48.1	-50.3	15.0	0.00e+00	0	58	0	353370112	58	4788
2026-01-01 02:17:33.06	17.50	21.11	-48.1	-50.3	15.0	7.00e-07	0	59	0	355467264	58	4768
2026-01-01 02:17:34.04	17.38	21.23	-47.9	-49.9	15.4	0.00e+00	0	59	0	357564416	58	4565
2026-01-01 02:17:35.01	17.26	21.35	-48.0	-50.1	15.1	0.00e+00	0	59	0	359661568	58	4683
2026-01-01 02:17:35.99	17.14	21.46	-48.0	-50.0	15.1	0.00e+00	0	59	0	360710144	58	4650
2026-01-01 02:17:36.96	17.01	21.58	-47.9	-50.0	15.2	0.00e+00	0	59	0	362807296	58	4602
2026-01-01 02:17:37.93	16.89	21.70	-47.9	-49.9	15.3	0.00e+00	0	59	0	364904448	58	4553
2026-01-01 02:17:38.91	16.76	21.82	-47.9	-49.9	15.3	0.00e+00	0	59	0	367001600	58	4594
2026-01-01 02:17:39.88	16.64	21.94	-48.3	-50.5	14.8	0.00e+00	0	59	0	368050176	58	4895
2026-01-01 02:17:40.86	16.51	22.06	-48.2	-50.5	14.7	0.00e+00	0	59	0	370147328	58	4889
2026-01-01 02:17:41.83	16.38	22.18	-48.3	-50.6	14.7	0.00e+00	0	59	0	372244480	58	4961
2026-01-01 02:17:42.81	16.25	22.30	-48.3	-50.6	14.7	0.00e+00	0	59	0	374341632	58	4963
2026-01-01 02:17:43.78	16.12	22.42	-48.4	-50.8	14.5	7.00e-07	0	59	0	375390208	58	5042
2026-01-01 02:17:44.76	15.98	22.54	-48.3	-50.6	14.6	1.50e-06	0	59	0	377487360	58	4967
2026-01-01 02:17:45.73	15.85	22.66	-48.4	-50.7	14.5	7.00e-07	0	59	0	379584512	58	5033
2026-01-01 02:17:46.71	15.72	22.78	-48.4	-50.7	14.5	7.00e-07	0	59	0	381681664	59	4712
2026-01-01 02:17:47.68	15.58	22.91	-48.5	-50.9	14.4	1.50e-06	0	59	0	382730240	59	4849
2026-01-01 02:17:48.65	15.45	23.03	-48.5	-50.9	14.3	7.00e-07	0	59	0	384827392	59	4860
2026-01-01 02:17:49.63	15.31	23.15	-48.5	-50.9	14.4	4.50e-06	0	59	0	386924544	59	4863
2026-01-01 02:17:50.61	15.17	23.28	-48.5	-50.9	14.4	7.00e-07	0	59	0	389021696	59	4831
2026-01-01 02:17:51.58	15.03	23.40	-48.7	-51.3	14.1	0.00e+00	0	59	0	390070272	59	5061
2026-01-01 02:17:52.55	14.89	23.52	-48.7	-51.2	14.0	7.00e-07	0	59	0	392167424	59	5025
2026-01-01 02:17:53.53	14.74	23.65	-48.6	-51.1	14.2	0.00e+00	0	59	0	394264576	59	4954
2026-01-01 02:17:54.51	14.60	23.78	-48.9	-51.6	13.6	1.50e-06	0	59	0	396361728	59	5277
2026-01-01 02:17:55.48	14.46	23.90	-49.0	-51.7	13.5	3.80e-06	0	59	0	397410304	59	5304
2026-01-01 02:17:56.46	14.31	24.03	-48.9	-51.7	13.5	1.14e-05	0	59	0	399507456	59	5328
2026-01-01 02:17:57.43	14.16	24.15	-48.9	-51.8	13.5	2.44e-05	0	59	0	401604608	60	5054
2026-01-01 02:17:58.40	14.02	24.28	-49.1	-52.1	13.1	8.23e-05	0	59	0	403701760	60	5254
2026-01-01 02:17:59.38	13.87	24.41	-48.9	-51.7	13.4	1.90e-05	0	59	0	404750336	60	5036
2026-01-01 02:18:00.36	13.71	24.54	-48.9	-51.8	13.3	3.43e-05	0	59	0	406847488	60	5070
2026-01-01 02:18:01.33	13.56	24.66	-48.5	-51.1	13.9	4.50e-06	0	59	0	408944640	60	4697
2026-01-01 02:18:02.30	13.41	24.79	-48.4	-50.8	14.2	0.00e+00	0	59	0	409993216	59	4812
2026-01-01 02:18:03.28	13.26	24.92	-47.8	-50.0	15.0	1.50e-06	0	59	0	412090368	58	4614
2026-01-01 02:18:04.25	13.10	25.05	-47.4	-49.5	15.4	0.00e+00	0	59	0	414187520	58	4354
2026-01-01 02:18:05.22	12.94	25.18	-47.8	-50.0	14.8	7.00e-07	0	59	0	416284672	57	4909
2026-01-01 02:18:06.20	12.78	25.31	-47.8	-50.2	14.6	0.00e+00	0	59	0	417333248	57	4995
2026-01-01 02:18:07.17	12.63	25.44	-47.8	-50.1	14.4	1.50e-06	0	59	0	419430400	57	4981
2026-01-01 02:18:08.15	12.46	25.57	-48.3	-51.1	13.4	4.50e-06	0	59	0	421527552	58	5242
2026-01-01 02:18:09.12	12.30	25.70	-48.6	-51.7	12.8	1.52e-05	0	59	0	423624704	58	5609
2026-01-01 02:18:10.09	12.14	25.83	-49.0	-52.6	11.6	3.70e-04	0	59	0	424673280	59	5879
2026-01-01 02:18:11.07	11.97	25.97	-49.3	-53.4	10.7	3.04e-03	0	59	0	426770432	60	6084
2026-01-01 02:18:12.04	11.81	26.10	-49.6	-54.3	9.7	6.60e-03	0	59	0	428867584	61	6360
2026-01-01 02:18:13.01	11.64	26.23	-50.0	-55.8	8.1	1.93e-02	0	59	0	430964736	61	7563
2026-01-01 02:18:13.99	11.47	26.36	-49.9	-55.3	8.4	4.38e-02	0	59	0	432013312	61	7203
2026-01-01 02:18:14.96	11.30	26.50	-49.9	-55.2	8.6	4.24e-02	0	59	0	434110464	61	7115
2026-01-01 02:18:15.93	11.13	26.63	-49.9	-55.2	8.5	3.21e-02	0	59	0	436207616	61	7113
2026-01-01 02:18:16.91	10.95	26.77	-49.5	-54.1	9.8	1.74e-02	0	60	0	438304768	61	6256
2026-01-01 02:18:17.88	10.78	26.90	-49.0	-52.8	11.2	2.68e-03	0	59	0	439353344	61	5345
2026-01-01 02:18:18.86	10.60	27.04	-48.7	-52.1	12.1	9.62e-04	0	59	0	441450496	60	5242
2026-01-01 02:18:19.84	10.42	27.17	-48.5	-51.6	12.7	1.22e-04	0	59	0	443547648	60	4972
2026-01-01 02:18:20.82	10.24	27.31	-48.4	-51.3	13.0	4.57e-05	0	59	0	445644800	60	4811
2026-01-01 02:18:21.79	10.06	27.44	-48.3	-51.0	13.6	1.37e-05	0	59	0	446693376	59	4919
2026-01-01 02:18:22.76	9.88	27.58	-48.5	-51.1	13.7	7.60e-06	0	59	0	448790528	59	4963
2026-01-01 02:18:23.74	9.69	27.72	-48.7	-51.5	13.4	5.30e-06	0	60	0	450887680	59	5184
2026-01-01 02:18:24.71	9.51	27.85	-48.5	-51.1	13.9	3.80e-06	0	59	0	452984832	59	4966
2026-01-01 02:18:25.69	9.32	27.99	-48.7	-51.3	13.7	3.80e-06	0	60	0	454033408	59	5068
2026-01-01 02:18:26.66	9.13	28.13	-48.7	-51.4	13.6	2.05e-05	0	60	0	456130560	59	5138
2026-01-01 02:18:27.64	8.94	28.27	-48.7	-51.4	13.8	6.10e-06	0	59	0	458227712	59	5106
2026-01-01 02:18:28.61	8.74	28.41	-48.8	-51.5	13.6	7.60e-06	0	59	0	460324864	59	5202
2026-01-01 02:18:29.58	8.55	28.55	-48.6	-51.3	13.8	3.05e-05	0	59	0	461373440	60	4786
2026-01-01 02:18:30.56	8.35	28.69	-48.5	-51.1	14.1	2.20e-06	0	60	0	463470592	59	4945
2026-01-01 02:18:31.53	8.15	28.82	-48.8	-51.5	13.5	1.50e-06	0	60	0	465567744	59	5210
2026-01-01 02:18:32.51	7.95	28.96	-48.7	-51.3	13.9	3.80e-06	0	60	0	466616320	59	5096
2026-01-01 02:18:33.48	7.75	29.10	-48.6	-51.2	14.0	3.00e-06	0	60	0	468713472	59	5037
2026-01-01 02:18:34.45	7.55	29.24	-49.1	-52.1	13.2	4.50e-06	0	60	0	470810624	60	5223
2026-01-01 02:18:35.43	7.34	29.39	-48.8	-51.5	13.7	6.10e-06	0	60	0	472907776	60	4926
2026-01-01 02:18:36.40	7.14	29.53	-48.7	-51.4	13.9	2.20e-06	0	60	0	473956352	60	4832
2026-01-01 02:18:37.38	6.93	29.67	-48.6	-51.2	14.1	3.00e-06	0	60	0	476053504	60	4709
2026-01-01 02:18:38.35	6.72	29.81	-48.7	-51.2	14.1	2.20e-06	0	60	0	478150656	60	4736
2026-01-01 02:18:39.33	6.50	29.95	-48.7	-51.4	13.9	3.80e-06	0	60	0	480247808	60	4825
2026-01-01 02:18:40.31	6.29	30.09	-48.8	-51.5	13.8	8.30e-06	0	60	0	481296384	60	4896
2026-01-01 02:18:41.29	6.07	30.24	-48.9	-51.7	13.7	3.80e-06	0	60	0	483393536	60	4998
2026-01-01 02:18:42.26	5.85	30.38	-49.1	-52.0	13.5	1.06e-05	0	60	0	485490688	60	5173
2026-01-01 02:18:43.22	5.63	30.52	-49.3	-52.3	13.1	3.81e-05	0	60	0	487587840	60	5353
2026-01-01 02:18:44.20	5.41	30.66	-49.4	-52.5	12.8	2.74e-05	0	60	0	488636416	60	5479
2026-01-01 02:18:45.17	5.19	30.81	-49.7	-53.2	12.0	5.03e-05	0	60	0	490733568	61	5624
2026-01-01 02:18:46.15	4.96	30.95	-49.4	-52.6	12.6	6.17e-05	0	60	0	492830720	61	5272
2026-01-01 02:18:47.12	4.73	31.09	-49.3	-52.4	13.0	4.73e-05	0	60	0	494927872	61	5104
2026-01-01 02:18:48.10	4.50	31.24	-49.2	-52.2	13.1	7.62e-05	0	60	0	495976448	61	5004
2026-01-01 02:18:49.08	4.27	31.38	-49.4	-52.5	12.9	3.50e-05	0	60	0	498073600	61	5160
2026-01-01 02:18:50.05	4.03	31.53	-49.3	-52.4	12.9	2.21e-05	0	60	0	500170752	61	5111
2026-01-01 02:18:51.02	3.80	31.67	-49.4	-52.5	12.7	9.91e-05	0	60	0	502267904	61	5218
2026-01-01 02:18:51.99	3.56	31.81	-49.5	-52.7	12.6	1.05e-04	0	60	0	503316480	61	5310
2026-01-01 02:18:52.96	3.32	31.96	-49.9	-53.5	11.9	1.40e-04	0	60	0	505413632	61	5803
2026-01-01 02:18:53.93	3.08	32.10	-49.6	-53.0	12.3	1.70e-04	0	60	0	507510784	61	5474
2026-01-01 02:18:54.91	2.83	32.25	-49.8	-53.4	11.8	5.36e-04	0	60	0	509607936	61	5765
2026-01-01 02:18:55.88	2.58	32.39	-49.6	-52.9	12.4	5.04e-04	0	60	0	510656512	61	5412
2026-01-01 02:18:56.85	2.33	32.54	-49.4	-52.6	12.7	3.81e-05	0	60	0	512753664	61	5257
2026-01-01 02:18:57.82	2.08	32.68	-49.2	-52.2	13.1	2.05e-05	0	60	0	514850816	61	5029
2026-01-01 02:18:58.80	1.82	32.83	-49.2	-52.1	13.2	2.67e-05	0	60	0	516947968	61	4975
2026-01-01 02:18:59.77	1.57	32.97	-49.5	-52.7	12.6	5.18e-05	0	60	0	517996544	61	5315
2026-01-01 02:19:00.74	1.31	33.11	-49.9	-53.4	11.8	2.35e-04	0	60	0	520093696	61	5749
2026-01-01 02:19:01.72	1.05	33.26	-49.9	-53.5	11.7	3.33e-04	0	60	0	522190848	61	5841
2026-01-01 02:19:02.70	0.78	33.41	-50.4	-54.5	10.8	9.51e-04	0	60	0	523239424	62	6153
2026-01-01 02:19:03.67	0.52	33.55	-50.3	-54.5	10.7	2.95e-03	0	60	0	525336576	62	6179
2026-01-01 02:19:04.65	0.25	33.70	-50.3	-54.4	11.0	2.05e-03	0	60	0	527433728	62	6080
2026-01-01 02:19:05.62	359.98	33.84	-50.1	-54.0	11.3	1.92e-03	0	60	0	529530880	62	5851
2026-01-01 02:19:06.59	359.70	33.99	-50.2	-54.0	11.4	1.36e-03	0	60	0	530579456	62	5815
2026-01-01 02:19:07.56	359.43	34.13	-49.7	-53.1	12.3	7.73e-04	0	60	0	532676608	62	5219
2026-01-01 02:19:08.54	359.15	34.28	-49.6	-52.8	12.6	1.52e-04	0	60	0	534773760	62	5045
2026-01-01 02:19:09.51	358.87	34.42	-49.6	-52.6	12.7	8.39e-05	0	60	0	536870912	62	4939
2026-01-01 02:19:10.48	358.59	34.56	-49.4	-52.3	13.1	2.05e-05	0	60	0	537919488	61	5058
2026-01-01 02:19:11.46	358.30	34.71	-49.3	-52.1	13.2	3.35e-05	0	60	0	540016640	61	4977
2026-01-01 02:19:12.43	358.01	34.85	-49.1	-51.7	13.6	1.67e-05	0	60	0	542113792	61	4741
2026-01-01 02:19:13.40	357.72	35.00	-48.8	-51.4	14.0	4.50e-06	0	60	0	544210944	60	4821
2026-01-01 02:19:14.38	357.42	35.14	-48.5	-50.9	14.4	7.00e-07	0	60	0	545259520	60	4547
2026-01-01 02:19:15.35	357.13	35.28	-48.3	-50.7	14.7	0.00e+00	0	60	0	547356672	60	4448
2026-01-01 02:19:16.32	356.83	35.43	-48.6	-50.9	14.4	2.20e-06	0	60	0	549453824	59	4869
2026-01-01 02:19:17.30	356.53	35.57	-48.8	-51.3	14.0	2.20e-06	0	60	0	551550976	59	5088
2026-01-01 02:19:18.26	356.23	35.71	-49.4	-52.5	12.9	1.90e-05	0	60	0	552599552	60	5467
2026-01-01 02:19:19.24	355.92	35.85	-49.8	-53.3	12.0	3.65e-04	0	60	0	554696704	61	5708
2026-01-01 02:19:20.21	355.61	36.00	-49.5	-52.7	12.6	2.33e-04	0	60	0	556793856	61	5316
2026-01-01 02:19:21.19	355.29	36.14	-49.3	-52.3	13.0	9.61e-05	0	60	0	558891008	61	5061
2026-01-01 02:19:22.16	354.98	36.28	-49.2	-52.3	13.0	1.67e-05	0	60	0	559939584	61	5069
2026-01-01 02:19:23.14	354.66	36.42	-49.1	-52.0	13.2	1.14e-05	0	60	0	562036736	60	5209
2026-01-01 02:19:24.11	354.34	36.56	-49.1	-52.2	13.1	2.97e-05	0	60	0	564133888	60	5283
2026-01-01 02:19:25.09	354.01	36.70	-49.2	-52.2	13.1	2.28e-05	0	60	0	566231040	60	5330
2026-01-01 02:19:26.05	353.69	36.84	-49.2	-52.2	13.1	2.44e-05	0	60	0	567279616	60	5319
2026-01-01 02:19:27.03	353.36	36.98	-49.0	-51.6	13.6	1.14e-05	0	60	0	569376768	60	4983
2026-01-01 02:19:28.00	353.03	37.12	-49.0	-51.7	13.6	1.14e-05	0	60	0	571473920	60	5027
2026-01-01 02:19:28.98	352.69	37.26	-49.5	-52.6	12.7	4.27e-05	0	60	0	572522496	60	5541
2026-01-01 02:19:29.95	352.36	37.40	-49.9	-53.4	12.0	2.06e-04	0	60	0	574619648	61	5728
2026-01-01 02:19:30.92	352.02	37.53	-49.9	-53.6	11.8	3.85e-04	0	60	0	576716800	61	5875
2026-01-01 02:19:31.90	351.67	37.67	-49.9	-53.5	11.8	4.13e-04	0	60	0	578813952	61	5797
2026-01-01 02:19:32.87	351.32	37.81	-49.9	-53.5	11.9	3.41e-04	0	60	0	579862528	61	5839
2026-01-01 02:19:33.84	350.98	37.94	-50.1	-54.1	11.2	7.98e-04	0	60	0	581959680	62	5918
2026-01-01 02:19:34.82	350.62	38.08	-50.1	-54.2	11.1	2.81e-03	0	60	0	584056832	62	5961
2026-01-01 02:19:35.79	350.27	38.21	-50.0	-54.0	11.3	2.45e-03	0	60	0	586153984	62	5803
2026-01-01 02:19:36.77	349.91	38.34	-49.9	-53.8	11.6	1.47e-03	0	60	0	587202560	62	5674
2026-01-01 02:19:37.74	349.55	38.48	-49.4	-52.6	12.6	5.10e-04	0	60	0	589299712	62	4962
2026-01-01 02:19:38.71	349.18	38.61	-48.7	-51.3	14.1	4.50e-06	0	60	0	591396864	60	4787
2026-01-01 02:19:39.69	348.81	38.74	-48.7	-51.3	14.1	4.50e-06	0	60	0	593494016	60	4776
2026-01-01 02:19:40.66	348.44	38.87	-48.8	-51.5	13.9	7.00e-07	0	60	0	594542592	60	4886
2026-01-01 02:19:41.64	348.07	39.00	-49.0	-51.9	13.4	1.29e-05	0	60	0	596639744	60	5132
2026-01-01 02:19:42.60	347.70	39.12	-48.7	-51.4	13.8	1.06e-05	0	60	0	598736896	60	4858
2026-01-01 02:19:43.58	347.32	39.25	-48.6	-51.2	14.1	3.00e-06	0	60	0	600834048	60	4715
2026-01-01 02:19:44.55	346.94	39.38	-48.2	-50.5	14.9	7.00e-07	0	60	0	601882624	59	4622
2026-01-01 02:19:45.52	346.55	39.50	-48.0	-50.0	15.3	0.00e+00	0	60	0	603979776	59	4381
2026-01-01 02:19:46.49	346.16	39.63	-48.3	-50.6	14.8	0.00e+00	0	60	0	606076928	59	4652
2026-01-01 02:19:47.47	345.77	39.75	-48.1	-50.2	15.1	7.00e-07	0	60	0	608174080	59	4473
2026-01-01 02:19:48.44	345.38	39.87	-48.2	-50.5	15.0	0.00e+00	0	60	0	609222656	59	4618
2026-01-01 02:19:49.41	344.98	39.99	-48.6	-51.1	14.3	1.50e-06	0	60	0	611319808	59	4962
2026-01-01 02:19:50.39	344.58	40.11	-49.2	-52.2	13.2	6.10e-06	0	60	0	613416960	60	5319
2026-01-01 02:19:51.36	344.18	40.23	-49.1	-52.2	13.2	1.60e-05	0	61	0	614465536	60	5295
2026-01-01 02:19:52.34	343.77	40.35	-48.6	-51.2	14.2	1.50e-06	0	60	0	616562688	60	4715
2026-01-01 02:19:53.32	343.36	40.46	-48.2	-50.4	14.9	0.00e+00	0	60	0	618659840	59	4584
2026-01-01 02:19:54.29	342.95	40.58	-47.5	-49.4	15.9	0.00e+00	0	60	0	620756992	58	4330
2026-01-01 02:19:55.27	342.53	40.69	-47.6	-49.5	15.8	0.00e+00	0	60	0	621805568	58	4367
2026-01-01 02:19:56.24	342.11	40.80	-48.4	-50.8	14.6	0.00e+00	0	60	0	623902720	58	5061
2026-01-01 02:19:57.22	341.69	40.91	-48.3	-50.7	14.7	0.00e+00	0	60	0	625999872	58	4987
2026-01-01 02:19:58.19	341.27	41.02	-48.5	-51.0	14.4	7.00e-07	0	60	0	628097024	58	5171
2026-01-01 02:19:59.16	340.84	41.13	-47.8	-49.9	15.4	0.00e+00	0	61	0	629145600	58	4569
2026-01-01 02:20:00.13	340.41	41.24	-47.1	-49.0	16.3	0.00e+00	0	61	0	631242752	57	4345
2026-01-01 02:20:01.11	339.98	41.34	-47.0	-48.8	16.5	0.00e+00	0	61	0	633339904	56	4526
2026-01-01 02:20:02.08	339.55	41.44	-47.1	-49.0	16.3	0.00e+00	0	61	0	635437056	56	4627
2026-01-01 02:20:03.06	339.11	41.55	-48.2	-50.6	14.8	0.00e+00	0	60	0	636485632	58	4959
2026-01-01 02:20:04.03	338.67	41.65	-49.3	-52.6	12.8	3.81e-05	0	61	0	638582784	60	5546
2026-01-01 02:20:05.00	338.22	41.74	-49.2	-52.6	12.6	1.01e-04	0	61	0	640679936	60	5592
2026-01-01 02:20:05.98	337.78	41.84	-48.7	-51.6	13.7	2.44e-05	0	60	0	642777088	60	4958
2026-01-01 02:20:06.96	337.32	41.94	-47.8	-50.0	15.3	7.00e-07	0	60	0	643825664	58	4625
2026-01-01 02:20:07.93	336.87	42.03	-47.0	-48.8	16.5	0.00e+00	0	61	0	645922816	57	4256
2026-01-01 02:20:08.90	336.42	42.12	-47.1	-49.0	16.3	0.00e+00	0	61	0	648019968	57	4367
2026-01-01 02:20:09.87	335.97	42.21	-47.2	-49.0	16.3	0.00e+00	0	61	0	650117120	57	4386
2026-01-01 02:20:10.85	335.51	42.30	-47.3	-49.2	16.2	0.00e+00	0	61	0	651165696	57	4451
2026-01-01 02:20:11.82	335.05	42.38	-46.8	-48.5	16.7	0.00e+00	0	60	0	653262848	56	4375
2026-01-01 02:20:12.79	334.58	42.46	-46.4	-48.0	17.2	0.00e+00	0	60	0	655360000	56	4122
2026-01-01 02:20:13.76	334.12	42.55	-46.6	-48.2	17.0	0.00e+00	0	61	0	657457152	55	4457
2026-01-01 02:20:14.73	333.65	42.63	-46.6	-48.2	17.0	0.00e+00	0	61	0	658505728	55	4467
2026-01-01 02:20:15.71	333.18	42.70	-46.9	-48.6	16.6	0.00e+00	0	61	0	660602880	55	4695
2026-01-01 02:20:16.67	332.71	42.78	-47.8	-50.0	15.4	0.00e+00	0	61	0	662700032	57	4883
2026-01-01 02:20:17.65	332.23	42.85	-48.6	-51.3	14.0	1.50e-06	0	61	0	664797184	59	5066
2026-01-01 02:20:18.62	331.76	42.92	-49.0	-51.9	13.6	6.80e-06	0	61	0	665845760	59	5407
2026-01-01 02:20:19.59	331.28	42.99	-48.9	-51.7	13.6	7.60e-06	0	61	0	667942912	59	5297
2026-01-01 02:20:20.57	330.79	43.06	-48.5	-50.9	14.5	1.50e-06	0	61	0	670040064	59	4832
2026-01-01 02:20:21.56	330.30	43.13	-48.2	-50.4	15.0	0.00e+00	0	61	0	671088640	59	4574
2026-01-01 02:20:22.53	329.82	43.19	-48.5	-50.9	14.5	0.00e+00	0	61	0	673185792	59	4847
2026-01-01 02:20:23.50	329.33	43.25	-49.2	-52.1	13.4	4.50e-06	0	60	0	675282944	60	5274
2026-01-01 02:20:24.47	328.84	43.31	-49.4	-52.4	13.0	3.43e-05	0	61	0	677380096	60	5438
2026-01-01 02:20:25.44	328.35	43.36	-48.8	-51.3	14.1	9.90e-06	0	61	0	678428672	60	4789
2026-01-01 02:20:26.42	327.86	43.42	-48.2	-50.4	15.0	0.00e+00	0	61	0	680525824	59	4551
2026-01-01 02:20:27.39	327.36	43.47	-48.0	-50.0	15.4	0.00e+00	0	61	0	682622976	59	4375
2026-01-01 02:20:28.36	326.87	43.52	-48.2	-50.3	15.1	0.00e+00	0	61	0	684720128	58	4803
2026-01-01 02:20:29.34	326.37	43.56	-48.4	-50.7	14.7	0.00e+00	0	61	0	685768704	58	5016
2026-01-01 02:20:30.31	325.87	43.61	-48.8	-51.5	13.9	5.30e-06	0	61	0	687865856	59	5186
2026-01-01 02:20:31.28	325.37	43.65	-49.2	-52.2	13.1	2.28e-05	0	60	0	689963008	60	5330
2026-01-01 02:20:32.25	324.87	43.69	-49.2	-52.4	13.0	3.28e-05	0	61	0	692060160	60	5407
2026-01-01 02:20:33.22	324.37	43.73	-49.1	-52.0	13.4	3.81e-05	0	61	0	693108736	60	5168
2026-01-01 02:20:34.19	323.87	43.76	-48.5	-50.9	14.5	7.00e-07	0	61	0	695205888	60	4590
2026-01-01 02:20:35.17	323.36	43.79	-48.7	-51.2	14.2	7.00e-07	0	61	0	697303040	60	4713
2026-01-01 02:20:36.14	322.86	43.82	-49.5	-52.5	12.9	1.22e-05	0	61	0	699400192	60	5521
2026-01-01 02:20:37.11	322.35	43.85	-49.5	-52.7	12.8	8.08e-05	0	61	0	700448768	61	5296
2026-01-01 02:20:38.08	321.85	43.88	-50.1	-53.8	11.5	9.07e-04	0	61	0	702545920	62	5703
2026-01-01 02:20:39.06	321.33	43.90	-50.0	-53.6	11.7	6.32e-04	0	61	0	704643072	62	5589
2026-01-01 02:20:40.03	320.83	43.92	-49.9	-53.4	11.9	4.00e-04	0	61	0	705691648	62	5450
2026-01-01 02:20:41.00	320.32	43.94	-50.0	-53.7	11.7	3.45e-04	0	61	0	707788800	62	5617
2026-01-01 02:20:41.98	319.80	43.95	-49.9	-53.6	11.6	6.18e-04	0	61	0	709885952	62	5547
2026-01-01 02:20:42.95	319.29	43.96	-50.2	-54.3	11.1	1.38e-03	0	61	0	711983104	62	6001
2026-01-01 02:20:43.92	318.79	43.97	-50.6	-55.0	10.3	3.13e-03	0	61	0	713031680	63	6169
2026-01-01 02:20:44.90	318.27	43.98	-50.2	-54.2	11.1	2.44e-03	0	61	0	715128832	63	5601
2026-01-01 02:20:45.88	317.76	43.98	-49.9	-53.5	11.9	6.69e-04	0	61	0	717225984	62	5492
2026-01-01 02:20:46.85	317.25	43.99	-49.4	-52.6	12.8	7.01e-05	0	61	0	719323136	61	5238
2026-01-01 02:20:47.82	316.74	43.98	-49.4	-52.8	12.5	5.26e-05	0	61	0	720371712	61	5372
2026-01-01 02:20:48.79	316.23	43.98	-49.5	-52.9	12.5	2.21e-05	0	61	0	722468864	61	5459
2026-01-01 02:20:49.76	315.72	43.98	-49.5	-52.8	12.5	8.08e-05	0	61	0	724566016	61	5377
2026-01-01 02:20:50.74	315.20	43.97	-49.1	-52.0	13.4	5.95e-05	0	61	0	726663168	61	4890
2026-01-01 02:20:51.71	314.69	43.96	-48.4	-50.8	14.5	0.00e+00	0	61	0	727711744	60	4535
2026-01-01 02:20:52.69	314.18	43.94	-48.5	-50.9	14.5	7.00e-07	0	61	0	729808896	59	4859
2026-01-01 02:20:53.66	313.67	43.93	-49.0	-51.8	13.7	2.20e-06	0	61	0	731906048	59	5396
2026-01-01 02:20:54.63	313.16	43.91	-49.0	-51.8	13.6	1.14e-05	0	61	0	734003200	60	5075
2026-01-01 02:20:55.61	312.65	43.89	-49.0	-51.9	13.3	9.90e-06	0	61	0	735051776	60	5101
2026-01-01 02:20:56.58	312.14	43.86	-48.6	-51.2	14.0	6.80e-06	0	61	0	737148928	60	4741
2026-01-01 02:20:57.56	311.63	43.84	-49.0	-52.0	13.3	1.14e-05	0	61	0	739246080	60	5179
2026-01-01 02:20:58.53	311.13	43.81	-49.4	-52.8	12.5	4.11e-05	0	61	0	741343232	60	5693
2026-01-01 02:20:59.51	310.62	43.78	-49.9	-53.9	11.3	1.43e-04	0	61	0	742391808	61	6085
2026-01-01 02:21:00.48	310.11	43.74	-50.0	-54.2	11.1	1.87e-03	0	61	0	744488960	62	5975
2026-01-01 02:21:01.46	309.61	43.71	-49.8	-53.7	11.6	4.59e-04	0	61	0	746586112	62	5603
2026-01-01 02:21:02.44	309.10	43.67	-49.3	-52.6	12.8	1.64e-04	0	61	0	748683264	61	5223
2026-01-01 02:21:03.41	308.60	43.63	-49.3	-52.6	12.6	4.50e-05	0	61	0	749731840	61	5224
2026-01-01 02:21:04.39	308.10	43.59	-49.5	-52.9	12.4	2.26e-04	0	61	0	751828992	61	5464
2026-01-01 02:21:05.36	307.60	43.54	-49.5	-53.0	12.3	1.40e-04	0	61	0	753926144	61	5525
2026-01-01 02:21:06.33	307.10	43.49	-49.7	-53.4	12.1	2.14e-04	0	61	0	756023296	61	5725
2026-01-01 02:21:07.31	306.61	43.44	-50.0	-54.1	11.0	4.19e-04	0	61	0	757071872	61	6247
2026-01-01 02:21:08.29	306.11	43.39	-50.5	-55.4	9.9	6.14e-03	0	61	0	759169024	62	6821
2026-01-01 02:21:09.26	305.62	43.33	-50.4	-55.0	10.2	6.96e-03	0	61	0	761266176	62	6537
2026-01-01 02:21:10.24	305.12	43.28	-50.2	-54.4	10.8	2.50e-03	0	61	0	763363328	62	6121
2026-01-01 02:21:11.21	304.64	43.22	-50.1	-54.2	11.2	1.60e-03	0	61	0	764411904	62	5930
2026-01-01 02:21:12.18	304.15	43.15	-50.5	-54.9	10.3	2.83e-03	0	61	0	766509056	63	6082
2026-01-01 02:21:13.15	303.67	43.09	-50.1	-54.2	11.1	1.22e-03	0	61	0	768606208	63	5618
2026-01-01 02:21:14.12	303.19	43.02	-50.0	-54.1	11.1	1.00e-03	0	61	0	769654784	62	5871
2026-01-01 02:21:15.09	302.71	42.96	-49.9	-54.2	11.0	8.54e-04	0	61	0	771751936	62	5983
2026-01-01 02:21:16.07	302.23	42.89	-50.0	-54.5	10.8	1.59e-03	0	61	0	773849088	62	6165
2026-01-01 02:21:17.05	301.75	42.81	-49.7	-53.5	11.7	1.93e-03	0	61	0	775946240	62	5475
2026-01-01 02:21:18.02	301.27	42.74	-49.1	-52.3	13.0	1.73e-04	0	61	0	776994816	61	5045
2026-01-01 02:21:18.99	300.80	42.66	-48.6	-51.3	14.1	4.50e-06	0	61	0	779091968	60	4764
2026-01-01 02:21:19.97	300.33	42.58	-48.3	-50.7	14.6	0.00e+00	0	61	0	781189120	59	4755
2026-01-01 02:21:20.94	299.86	42.50	-48.4	-50.8	14.6	0.00e+00	0	61	0	783286272	59	4789
2026-01-01 02:21:21.92	299.39	42.42	-48.3	-50.6	14.8	0.00e+00	0	61	0	784334848	59	4696
2026-01-01 02:21:22.89	298.93	42.33	-48.4	-50.8	14.5	0.00e+00	0	61	0	786432000	59	4792
2026-01-01 02:21:23.86	298.47	42.25	-48.8	-51.4	14.0	0.00e+00	0	61	0	788529152	59	5114
2026-01-01 02:21:24.84	298.01	42.16	-48.1	-50.3	15.2	0.00e+00	0	61	0	790626304	59	4512
2026-01-01 02:21:25.82	297.55	42.07	-47.6	-49.5	15.8	0.00e+00	0	61	0	791674880	58	4389
2026-01-01 02:21:26.79	297.10	41.98	-47.2	-49.0	16.3	0.00e+00	0	61	0	793772032	57	4388
2026-01-01 02:21:27.76	296.65	41.88	-47.7	-49.7	15.7	0.00e+00	0	61	0	795869184	57	4735
2026-01-01 02:21:28.74	296.20	41.79	-47.8	-49.9	15.4	0.00e+00	0	61	0	797966336	57	4860
2026-01-01 02:21:29.71	295.76	41.69	-47.4	-49.2	16.1	0.00e+00	0	61	0	799014912	57	4486
2026-01-01 02:21:30.70	295.31	41.59	-47.5	-49.3	16.0	0.00e+00	0	61	0	801112064	57	4528
2026-01-01 02:21:31.68	294.87	41.49	-47.3	-49.1	16.2	0.00e+00	0	61	0	803209216	57	4411
2026-01-01 02:21:32.65	294.43	41.38	-47.0	-48.8	16.5	0.00e+00	0	61	0	805306368	57	4247
2026-01-01 02:21:33.62	294.00	41.28	-47.5	-49.5	15.9	0.00e+00	0	61	0	806354944	57	4607
2026-01-01 02:21:34.60	293.57	41.17	-47.3	-49.2	16.1	0.00e+00	0	61	0	808452096	57	4486
2026-01-01 02:21:35.57	293.14	41.07	-47.9	-50.1	15.2	0.00e+00	0	61	0	810549248	57	4972
2026-01-01 02:21:36.55	292.71	40.96	-48.0	-50.2	15.1	7.00e-07	0	61	0	812646400	58	4743
2026-01-01 02:21:37.52	292.29	40.85	-47.3	-49.1	16.2	0.00e+00	0	61	0	813694976	57	4424
2026-01-01 02:21:38.49	291.87	40.74	-46.9	-48.5	16.8	0.00e+00	0	61	0	815792128	56	4391
2026-01-01 02:21:39.47	291.45	40.62	-46.6	-48.2	17.2	0.00e+00	0	61	0	817889280	56	4201
2026-01-01 02:21:40.44	291.04	40.51	-46.7	-48.2	17.1	0.00e+00	0	61	0	819986432	56	4228
2026-01-01 02:21:41.42	290.63	40.39	-46.1	-47.5	17.6	0.00e+00	0	61	0	821035008	55	4107
2026-01-01 02:21:42.39	290.22	40.28	-46.2	-47.6	17.6	0.00e+00	0	61	0	823132160	55	4167
2026-01-01 02:21:43.37	289.81	40.16	-46.7	-48.4	16.9	0.00e+00	0	61	0	825229312	55	4569
2026-01-01 02:21:44.34	289.41	40.04	-47.5	-49.4	16.0	0.00e+00	0	61	0	827326464	56	4835
2026-01-01 02:21:45.31	289.01	39.92	-47.6	-49.6	15.8	0.00e+00	0	61	0	828375040	57	4663
2026-01-01 02:21:46.28	288.62	39.80	-47.4	-49.2	16.2	0.00e+00	0	61	0	830472192	57	4487
2026-01-01 02:21:47.25	288.23	39.68	-46.9	-48.6	16.7	0.00e+00	0	61	0	832569344	56	4427
2026-01-01 02:21:48.22	287.84	39.55	-47.0	-48.8	16.5	0.00e+00	0	61	0	833617920	56	4526
2026-01-01 02:21:49.19	287.45	39.43	-46.7	-48.2	17.1	0.00e+00	0	61	0	835715072	56	4224
2026-01-01 02:21:50.16	287.07	39.30	-46.9	-48.6	16.7	0.00e+00	0	61	0	837812224	56	4409
2026-01-01 02:21:51.14	286.69	39.17	-47.0	-48.7	16.7	0.00e+00	0	61	0	839909376	56	4462
2026-01-01 02:21:52.11	286.31	39.05	-48.1	-50.3	15.1	0.00e+00	0	61	0	840957952	58	4813
2026-01-01 02:21:53.09	285.93	38.92	-47.9	-50.0	15.4	0.00e+00	0	61	0	843055104	58	4619
2026-01-01 02:21:54.06	285.56	38.79	-47.8	-49.8	15.7	0.00e+00	0	61	0	845152256	58	4496
2026-01-01 02:21:55.04	285.19	38.66	-47.7	-49.6	15.8	0.00e+00	0	61	0	847249408	58	4429
2026-01-01 02:21:56.01	284.83	38.53	-48.1	-50.2	15.3	0.00e+00	0	61	0	848297984	58	4726
2026-01-01 02:21:56.99	284.46	38.39	-47.6	-49.5	15.9	0.00e+00	0	61	0	850395136	58	4354
2026-01-01 02:21:57.96	284.10	38.26	-47.4	-49.2	16.3	0.00e+00	0	61	0	852492288	57	4447
2026-01-01 02:21:58.93	283.74	38.13	-47.3	-49.0	16.3	0.00e+00	0	61	0	854589440	57	4389
2026-01-01 02:21:59.90	283.39	37.99	-47.5	-49.3	16.1	0.00e+00	0	61	0	855638016	57	4537
2026-01-01 02:22:00.88	283.04	37.86	-48.3	-50.6	14.9	0.00e+00	0	61	0	857735168	58	4937
2026-01-01 02:22:01.86	282.69	37.72	-48.8	-51.2	14.2	0.00e+00	0	61	0	859832320	59	5020
2026-01-01 02:22:02.83	282.34	37.58	-48.3	-50.5	14.9	0.00e+00	0	61	0	861929472	59	4612
2026-01-01 02:22:03.80	282.00	37.45	-48.0	-50.0	15.4	0.00e+00	0	61	0	862978048	59	4372
2026-01-01 02:22:04.78	281.66	37.31	-47.8	-49.8	15.7	0.00e+00	0	61	0	865075200	58	4507
2026-01-01 02:22:05.75	281.32	37.17	-47.9	-49.9	15.5	0.00e+00	0	61	0	867172352	58	4589
2026-01-01 02:22:06.72	280.99	37.03	-48.8	-51.3	14.2	0.00e+00	0	61	0	868220928	59	5064
2026-01-01 02:22:07.70	280.66	36.89	-48.3	-50.5	15.0	0.00e+00	0	61	0	870318080	59	4615
2026-01-01 02:22:08.67	280.33	36.75	-47.9	-49.8	15.6	0.00e+00	0	61	0	872415232	58	4503
2026-01-01 02:22:09.64	280.01	36.61	-47.7	-49.6	15.7	0.00e+00	0	61	0	874512384	58	4414
2026-01-01 02:22:10.61	279.68	36.47	-48.4	-50.6	15.0	0.00e+00	0	61	0	875560960	58	4961
2026-01-01 02:22:11.59	279.36	36.33	-48.4	-50.7	14.8	7.00e-07	0	61	0	877658112	58	4995
2026-01-01 02:22:12.56	279.05	36.19	-48.1	-50.1	15.4	0.00e+00	0	61	0	879755264	58	4677
2026-01-01 02:22:13.54	278.73	36.05	-47.4	-49.1	16.3	0.00e+00	0	61	0	881852416	57	4400
2026-01-01 02:22:14.51	278.42	35.90	-47.8	-49.7	15.7	0.00e+00	0	61	0	882900992	57	4734
2026-01-01 02:22:15.49	278.11	35.76	-47.9	-49.9	15.6	7.00e-07	0	61	0	884998144	57	4829
2026-01-01 02:22:16.46	277.80	35.62	-48.0	-50.1	15.4	0.00e+00	0	61	0	887095296	58	4658
2026-01-01 02:22:17.43	277.50	35.48	-47.5	-49.3	16.1	0.00e+00	0	61	0	889192448	58	4275
2026-01-01 02:22:18.40	277.20	35.33	-47.4	-49.2	16.1	0.00e+00	0	61	0	890241024	57	4479
2026-01-01 02:22:19.37	276.90	35.19	-47.5	-49.3	16.1	0.00e+00	0	61	0	892338176	57	4495
2026-01-01 02:22:20.35	276.61	35.04	-47.5	-49.4	16.1	0.00e+00	0	61	0	894435328	57	4546
2026-01-01 02:22:21.32	276.31	34.90	-47.1	-48.7	16.6	0.00e+00	0	61	0	896532480	57	4217
2026-01-01 02:22:22.29	276.02	34.76	-47.0	-48.6	16.7	0.00e+00	0	61	0	897581056	57	4190
2026-01-01 02:22:23.27	275.74	34.61	-47.4	-49.2	16.2	0.00e+00	0	61	0	899678208	57	4452
2026-01-01 02:22:24.25	275.45	34.46	-48.0	-50.1	15.4	0.00e+00	0	61	0	901775360	57	4932
2026-01-01 02:22:25.22	275.17	34.32	-49.1	-51.8	13.6	2.20e-06	0	61	0	903872512	60	5070
2026-01-01 02:22:26.19	274.89	34.18	-49.1	-51.9	13.6	1.14e-05	0	61	0	904921088	60	5130
2026-01-01 02:22:27.16	274.61	34.03	-49.0	-51.6	13.7	1.83e-05	0	61	0	907018240	60	4968
2026-01-01 02:22:28.13	274.34	33.89	-48.4	-50.7	14.6	4.50e-06	0	61	0	909115392	60	4489
2026-01-01 02:22:29.10	274.06	33.74	-48.4	-50.6	14.8	0.00e+00	0	61	0	911212544	59	4688
2026-01-01 02:22:30.08	273.79	33.60	-48.8	-51.1	14.2	0.00e+00	0	61	0	912261120	59	4981
2026-01-01 02:22:31.05	273.53	33.45	-49.3	-52.1	13.3	5.30e-06	0	62	0	914358272	60	5259
2026-01-01 02:22:32.02	273.26	33.31	-49.6	-52.7	12.7	5.41e-05	0	61	0	916455424	61	5309
2026-01-01 02:22:32.99	273.00	33.16	-49.8	-53.2	12.1	1.33e-04	0	61	0	918552576	61	5645
2026-01-01 02:22:33.97	272.74	33.01	-50.5	-54.7	10.6	1.39e-03	0	62	0	919601152	62	6339
2026-01-01 02:22:34.94	272.48	32.87	-50.9	-56.1	9.2	8.91e-03	0	61	0	921698304	63	6976
2026-01-01 02:22:35.92	272.22	32.72	-51.4	-57.8	7.5	5.51e-02	0	61	0	923795456	64	8002
2026-01-01 02:22:36.90	271.97	32.58	-51.2	-56.8	8.0	1.09e-01	0	61	0	925892608	64	7187
2026-01-01 02:22:37.87	271.72	32.43	-50.3	-54.3	11.0	8.63e-03	0	61	0	926941184	63	5702
2026-01-01 02:22:38.85	271.47	32.29	-49.5	-52.5	12.8	2.07e-04	0	61	0	929038336	62	4912
2026-01-01 02:22:39.82	271.22	32.14	-49.0	-51.8	13.5	1.44e-05	0	61	0	931135488	61	4781
2026-01-01 02:22:40.80	270.97	32.00	-49.1	-51.8	13.6	9.10e-06	0	61	0	932184064	61	4798
2026-01-01 02:22:41.77	270.73	31.85	-49.5	-52.7	12.7	4.95e-05	0	61	0	934281216	61	5293
2026-01-01 02:22:42.75	270.49	31.71	-49.8	-53.3	12.1	1.74e-04	0	61	0	936378368	61	5688
2026-01-01 02:22:43.73	270.25	31.56	-49.8	-53.1	12.2	4.47e-04	0	61	0	938475520	61	5562
2026-01-01 02:22:44.70	270.01	31.42	-49.5	-52.6	12.8	1.21e-04	0	62	0	939524096	61	5231
2026-01-01 02:22:45.67	269.78	31.27	-49.2	-52.1	13.3	2.67e-05	0	61	0	941621248	61	4938
2026-01-01 02:22:46.64	269.55	31.13	-48.9	-51.5	13.8	1.29e-05	0	61	0	943718400	61	4645
2026-01-01 02:22:47.61	269.32	30.99	-49.2	-52.0	13.4	8.30e-06	0	61	0	945815552	61	4909
2026-01-01 02:22:48.58	269.09	30.84	-48.7	-51.2	14.2	6.10e-06	0	62	0	946864128	60	4731
2026-01-01 02:22:49.55	268.87	30.70	-48.7	-51.3	14.1	0.00e+00	0	61	0	948961280	60	4789
2026-01-01 02:22:50.53	268.64	30.56	-49.2	-52.1	13.3	1.52e-05	0	62	0	951058432	60	5259
2026-01-01 02:22:51.50	268.42	30.41	-49.4	-52.4	13.0	1.60e-05	0	61	0	953155584	60	5445
2026-01-01 02:22:52.48	268.20	30.27	-49.6	-52.9	12.6	5.03e-05	0	62	0	954204160	61	5408
2026-01-01 02:22:53.45	267.99	30.13	-49.7	-53.0	12.4	7.17e-05	0	61	0	956301312	61	5484
2026-01-01 02:22:54.42	267.77	29.99	-49.6	-52.8	12.5	1.85e-04	0	62	0	958398464	61	5379
2026-01-01 02:22:55.40	267.56	29.84	-49.2	-52.0	13.4	5.87e-05	0	62	0	960495616	61	4898
2026-01-01 02:22:56.37	267.34	29.70	-48.8	-51.4	13.9	6.80e-06	0	62	0	961544192	60	4865
2026-01-01 02:22:57.34	267.13	29.56	-48.5	-50.9	14.5	0.00e+00	0	61	0	963641344	60	4564
2026-01-01 02:22:58.32	266.92	29.42	-49.0	-51.8	13.6	0.00e+00	0	61	0	965738496	60	5051
2026-01-01 02:22:59.29	266.72	29.28	-48.8	-51.5	13.9	7.00e-07	0	62	0	967835648	60	4874
2026-01-01 02:23:00.26	266.52	29.14	-49.0	-51.7	13.7	2.20e-06	0	61	0	968884224	60	5001
2026-01-01 02:23:01.23	266.31	29.00	-48.9	-51.6	13.8	4.50e-06	0	61	0	970981376	60	4934
2026-01-01 02:23:02.21	266.11	28.86	-48.7	-51.1	14.3	3.00e-06	0	62	0	973078528	60	4690
2026-01-01 02:23:03.19	265.91	28.72	-48.4	-50.6	14.7	0.00e+00	0	61	0	975175680	59	4704
2026-01-01 02:23:04.16	265.71	28.58	-48.2	-50.4	15.0	0.00e+00	0	61	0	976224256	59	4551
2026-01-01 02:23:05.14	265.52	28.44	-48.4	-50.6	14.7	0.00e+00	0	61	0	978321408	59	4699
2026-01-01 02:23:06.11	265.32	28.30	-48.4	-50.7	14.7	0.00e+00	0	62	0	980418560	59	4733
2026-01-01 02:23:07.09	265.13	28.16	-48.4	-50.7	14.7	0.00e+00	0	61	0	982515712	59	4736
2026-01-01 02:23:08.06	264.94	28.02	-48.4	-50.7	14.7	7.00e-07	0	62	0	983564288	59	4744
2026-01-01 02:23:09.04	264.75	27.88	-48.7	-51.1	14.3	7.00e-07	0	62	0	985661440	59	4955
2026-01-01 02:23:10.01	264.56	27.75	-48.8	-51.4	14.0	3.00e-06	0	61	0	987758592	59	5104
2026-01-01 02:23:10.99	264.38	27.61	-48.6	-51.0	14.4	0.00e+00	0	62	0	988807168	59	4908
2026-01-01 02:23:11.95	264.19	27.47	-48.6	-51.0	14.4	0.00e+00	0	62	0	990904320	59	4897
2026-01-01 02:23:12.93	264.01	27.33	-48.8	-51.2	14.2	7.00e-07	0	61	0	993001472	59	5019
2026-01-01 02:23:13.90	263.83	27.20	-48.8	-51.3	14.0	1.50e-06	0	62	0	995098624	59	5100
2026-01-01 02:23:14.87	263.65	27.06	-48.4	-50.7	14.7	0.00e+00	0	62	0	996147200	59	4744
2026-01-01 02:23:15.85	263.47	26.93	-48.6	-51.0	14.3	3.00e-06	0	61	0	998244352	59	4918
2026-01-01 02:23:16.81	263.30	26.79	-48.2	-50.5	14.7	0.00e+00	0	61	0	1000341504	59	4647
2026-01-01 02:23:17.79	263.12	26.66	-48.4	-50.6	14.8	7.00e-07	0	62	0	1002438656	59	4683
2026-01-01 02:23:18.76	262.95	26.52	-48.3	-50.5	14.8	0.00e+00	0	62	0	1003487232	59	4642
2026-01-01 02:23:19.74	262.78	26.39	-48.3	-50.5	14.9	0.00e+00	0	62	0	1005584384	59	4628
2026-01-01 02:23:20.71	262.61	26.26	-48.0	-50.1	15.2	0.00e+00	0	62	0	1007681536	59	4404
2026-01-01 02:23:21.69	262.44	26.12	-47.8	-49.8	15.6	0.00e+00	0	62	0	1009778688	58	4516
2026-01-01 02:23:22.67	262.27	25.99	-47.7	-49.6	15.7	0.00e+00	0	62	0	1010827264	58	4431
2026-01-01 02:23:23.65	262.10	25.86	-47.7	-49.7	15.7	0.00e+00	0	62	0	1012924416	58	4446
2026-01-01 02:23:24.62	261.94	25.72	-47.7	-49.7	15.7	0.00e+00	0	62	0	1015021568	58	4449
2026-01-01 02:23:25.59	261.77	25.59	-47.6	-49.4	15.9	0.00e+00	0	62	0	1017118720	58	4333
2026-01-01 02:23:26.56	261.61	25.46	-47.8	-49.8	15.6	0.00e+00	0	62	0	1018167296	58	4510
2026-01-01 02:23:27.54	261.45	25.33	-48.0	-50.0	15.3	0.00e+00	0	61	0	1020264448	58	4612
2026-01-01 02:23:28.51	261.29	25.20	-48.4	-50.6	14.8	0.00e+00	0	62	0	1022361600	58	4950
2026-01-01 02:23:29.48	261.13	25.07	-48.4	-50.6	14.8	0.00e+00	0	62	0	1024458752	58	4960
2026-01-01 02:23:30.46	260.98	24.94	-48.6	-50.9	14.5	0.00e+00	0	62	0	1025507328	59	4830
2026-01-01 02:23:31.43	260.82	24.81	-48.3	-50.6	14.8	7.00e-07	0	61	0	1027604480	59	4661
2026-01-01 02:23:32.40	260.67	24.68	-48.0	-50.1	15.2	0.00e+00	0	62	0	1029701632	59	4422
2026-01-01 02:23:33.38	260.51	24.55	-47.9	-49.9	15.5	0.00e+00	0	62	0	1030750208	58	4557
2026-01-01 02:23:34.36	260.36	24.42	-47.6	-49.4	15.9	0.00e+00	0	62	0	1032847360	58	4322
2026-01-01 02:23:35.33	260.21	24.30	-47.4	-49.2	16.1	0.00e+00	0	62	0	1034944512	57	4486
2026-01-01 02:23:36.31	260.06	24.17	-47.3	-49.1	16.2	0.00e+00	0	62	0	1037041664	57	4428
2026-01-01 02:23:37.28	259.92	24.04	-47.3	-49.0	16.3	0.00e+00	0	62	0	1038090240	57	4390
2026-01-01 02:23:38.25	259.77	23.92	-47.6	-49.5	15.8	7.00e-07	0	62	0	1040187392	57	4623
2026-01-01 02:23:39.23	259.62	23.79	-48.1	-50.2	15.2	0.00e+00	0	62	0	1042284544	57	5015
2026-01-01 02:23:40.20	259.48	23.66	-48.3	-50.6	14.8	0.00e+00	0	62	0	1044381696	58	4952
2026-01-01 02:23:41.18	259.34	23.54	-48.6	-51.0	14.3	7.00e-07	0	61	0	1045430272	59	4914
2026-01-01 02:23:42.15	259.19	23.41	-49.1	-51.8	13.5	6.10e-06	0	62	0	1047527424	59	5393
2026-01-01 02:23:43.12	259.05	23.29	-49.0	-51.8	13.5	6.10e-06	0	61	0	1049624576	60	5098
2026-01-01 02:23:44.09	258.91	23.17	-49.1	-51.9	13.5	4.50e-06	0	62	0	1051721728	60	5114
2026-01-01 02:23:45.07	258.78	23.04	-48.8	-51.5	13.9	8.30e-06	0	62	0	1052770304	60	4885
2026-01-01 02:23:46.04	258.64	22.92	-48.8	-51.3	14.1	0.00e+00	0	61	0	1054867456	60	4784
2026-01-01 02:23:47.02	258.50	22.80	-48.8	-51.3	14.0	6.10e-06	0	62	0	1056964608	60	4805
2026-01-01 02:23:47.99	258.37	22.67	-48.6	-51.2	14.1	2.20e-06	0	62	0	1059061760	60	4716
2026-01-01 02:23:48.96	258.23	22.55	-48.9	-51.6	13.7	0.00e+00	0	62	0	1060110336	60	4952
2026-01-01 02:23:49.93	258.10	22.43	-48.9	-51.6	13.7	1.50e-06	0	62	0	1062207488	60	4973
2026-01-01 02:23:50.90	257.97	22.31	-49.2	-51.9	13.5	6.10e-06	0	62	0	1064304640	60	5113
2026-01-01 02:23:51.88	257.84	22.19	-48.9	-51.5	13.9	4.50e-06	0	62	0	1066401792	60	4872
2026-01-01 02:23:52.85	257.71	22.07	-48.8	-51.3	14.0	3.80e-06	0	62	0	1067450368	60	4787
2026-01-01 02:23:53.83	257.58	21.95	-48.8	-51.2	14.0	7.00e-07	0	62	0	1069547520	60	4713
2026-01-01 02:23:54.80	257.45	21.83	-48.6	-50.8	14.5	0.00e+00	0	62	0	1071644672	60	4543
2026-01-01 02:23:55.77	257.32	21.71	-48.7	-51.1	14.3	7.00e-07	0	62	0	1072693248	60	4689
2026-01-01 02:23:56.74	257.20	21.59	-48.8	-51.2	14.2	0.00e+00	0	62	0	1074790400	60	4708
2026-01-01 02:23:57.71	257.07	21.47	-48.8	-51.2	14.2	2.20e-06	0	62	0	1076887552	60	4716
2026-01-01 02:23:58.68	256.95	21.36	-48.5	-50.7	14.7	0.00e+00	0	62	0	1078984704	60	4456
2026-01-01 02:23:59.65	256.83	21.24	-48.5	-50.8	14.6	0.00e+00	0	62	0	1080033280	60	4496
2026-01-01 02:24:00.63	256.71	21.12	-48.5	-50.8	14.6	1.50e-06	0	62	0	1082130432	60	4514
2026-01-01 02:24:01.60	256.58	21.00	-48.5	-50.6	14.7	0.00e+00	0	62	0	1084227584	59	4703
2026-01-01 02:24:02.59	256.46	20.89	-48.2	-50.3	15.1	0.00e+00	0	62	0	1086324736	59	4506
2026-01-01 02:24:03.56	256.34	20.77	-47.9	-49.8	15.6	0.00e+00	0	62	0	1087373312	58	4509
2026-01-01 02:24:04.53	256.23	20.66	-48.0	-50.0	15.4	0.00e+00	0	62	0	1089470464	58	4606
2026-01-01 02:24:05.51	256.11	20.54	-47.8	-49.7	15.6	7.00e-07	0	62	0	1091567616	58	4460
2026-01-01 02:24:06.48	255.99	20.43	-48.1	-50.1	15.3	0.00e+00	0	62	0	1093664768	58	4680
2026-01-01 02:24:07.46	255.88	20.31	-48.2	-50.3	15.1	0.00e+00	0	62	0	1094713344	58	4766
2026-01-01 02:24:08.44	255.76	20.20	-48.0	-50.0	15.3	0.00e+00	0	62	0	1096810496	58	4632
2026-01-01 02:24:09.41	255.65	20.08	-48.3	-50.5	14.9	0.00e+00	0	62	0	1098907648	58	4895
2026-01-01 02:24:10.39	255.53	19.97	-48.5	-50.8	14.6	0.00e+00	0	62	0	1101004800	59	4764
2026-01-01 02:24:11.36	255.42	19.86	-48.5	-50.8	14.5	0.00e+00	0	62	0	1102053376	59	4774
2026-01-01 02:24:12.32	255.31	19.75	-48.5	-50.7	14.6	0.00e+00	0	62	0	1104150528	59	4724
2026-01-01 02:24:13.30	255.20	19.63	-48.4	-50.5	14.8	0.00e+00	0	62	0	1106247680	59	4649
2026-01-01 02:24:14.27	255.09	19.52	-48.6	-50.9	14.5	7.00e-07	0	62	0	1108344832	59	4824
2026-01-01 02:24:15.24	254.98	19.41	-48.5	-50.8	14.6	0.00e+00	0	62	0	1109393408	59	4768
2026-01-01 02:24:16.22	254.87	19.30	-48.6	-50.8	14.5	7.00e-07	0	62	0	1111490560	59	4795
2026-01-01 02:24:17.19	254.77	19.19	-48.6	-50.8	14.5	0.00e+00	0	62	0	1113587712	59	4802
2026-01-01 02:24:18.16	254.66	19.08	-48.6	-51.0	14.3	7.00e-07	0	62	0	1115684864	59	4872
2026-01-01 02:24:19.14	254.55	18.97	-48.8	-51.2	14.0	0.00e+00	0	62	0	1116733440	59	5031
2026-01-01 02:24:20.11	254.45	18.86	-48.4	-50.6	14.7	7.00e-07	0	62	0	1118830592	59	4686
2026-01-01 02:24:21.08	254.35	18.75	-48.4	-50.6	14.7	0.00e+00	0	62	0	1120927744	59	4692
2026-01-01 02:24:22.06	254.24	18.64	-48.6	-50.8	14.5	0.00e+00	0	62	0	1123024896	59	4791
2026-01-01 02:24:23.03	254.14	18.54	-48.8	-51.1	14.2	7.00e-07	0	62	0	1124073472	59	4963
2026-01-01 02:24:24.01	254.04	18.43	-49.0	-51.6	13.7	6.10e-06	0	62	0	1126170624	59	5249
2026-01-01 02:24:24.98	253.94	18.32	-48.9	-51.3	14.0	3.00e-06	0	62	0	1128267776	59	5071
2026-01-01 02:24:25.95	253.84	18.21	-48.6	-50.9	14.4	1.50e-06	0	62	0	1129316352	59	4833
2026-01-01 02:24:26.93	253.74	18.11	-48.6	-50.9	14.4	0.00e+00	0	62	0	1131413504	59	4851
2026-01-01 02:24:27.90	253.64	18.00	-48.9	-51.4	13.9	1.50e-06	0	62	0	1133510656	59	5141
2026-01-01 02:24:28.87	253.54	17.89	-48.9	-51.4	13.8	4.50e-06	0	62	0	1135607808	59	5159
2026-01-01 02:24:29.84	253.44	17.79	-49.0	-51.6	13.7	2.20e-06	0	62	0	1136656384	60	4970
2026-01-01 02:24:30.82	253.34	17.68	-48.9	-51.5	13.8	7.60e-06	0	62	0	1138753536	60	4895
2026-01-01 02:24:31.79	253.25	17.58	-49.2	-52.0	13.3	6.80e-06	0	62	0	1140850688	60	5179
2026-01-01 02:24:32.76	253.15	17.47	-49.3	-52.2	13.1	1.67e-05	0	62	0	1142947840	60	5299
2026-01-01 02:24:33.74	253.06	17.37	-49.3	-52.2	13.1	3.50e-05	0	62	0	1143996416	60	5336
2026-01-01 02:24:34.71	252.96	17.27	-49.3	-52.1	13.2	1.37e-05	0	62	0	1146093568	60	5235
2026-01-01 02:24:35.69	252.87	17.16	-49.3	-52.1	13.1	1.75e-05	0	62	0	1148190720	60	5264
2026-01-01 02:24:36.67	252.78	17.06	-49.2	-52.1	13.2	1.83e-05	0	62	0	1150287872	60	5227
2026-01-01 02:24:37.64	252.69	16.96	-49.3	-52.1	13.2	2.36e-05	0	62	0	1151336448	60	5236
2026-01-01 02:24:38.62	252.59	16.85	-49.2	-52.0	13.2	2.05e-05	0	62	0	1153433600	60	5207
2026-01-01 02:24:39.59	252.50	16.75	-49.2	-52.0	13.2	1.44e-05	0	62	0	1155530752	60	5207
2026-01-01 02:24:40.56	252.41	16.65	-49.2	-52.0	13.2	1.29e-05	0	62	0	1157627904	60	5200
2026-01-01 02:24:41.53	252.32	16.55	-49.3	-52.1	13.2	1.98e-05	0	62	0	1158676480	60	5249
2026-01-01 02:24:42.50	252.23	16.45	-49.2	-52.0	13.2	4.80e-05	0	62	0	1160773632	60	5184
2026-01-01 02:24:43.47	252.15	16.35	-48.9	-51.4	13.9	6.80e-06	0	62	0	1162870784	60	4829
2026-01-01 02:24:44.45	252.06	16.25	-48.6	-50.9	14.4	7.00e-07	0	62	0	1164967936	60	4565
2026-01-01 02:24:45.42	251.97	16.15	-48.4	-50.6	14.6	0.00e+00	0	62	0	1166016512	59	4676
2026-01-01 02:24:46.39	251.89	16.05	-48.3	-50.4	14.9	0.00e+00	0	62	0	1168113664	59	4569
2026-01-01 02:24:47.36	251.80	15.95	-48.2	-50.4	14.9	0.00e+00	0	62	0	1170210816	59	4558
2026-01-01 02:24:48.34	251.71	15.85	-48.4	-50.6	14.7	7.00e-07	0	62	0	1172307968	59	4677
2026-01-01 02:24:49.30	251.63	15.75	-48.3	-50.5	14.8	0.00e+00	0	62	0	1173356544	59	4614
2026-01-01 02:24:50.28	251.54	15.65	-48.2	-50.4	14.8	0.00e+00	0	62	0	1175453696	59	4561
2026-01-01 02:24:51.25	251.46	15.56	-48.2	-50.4	14.8	0.00e+00	0	62	0	1177550848	59	4551
2026-01-01 02:24:52.24	251.38	15.46	-48.4	-50.7	14.6	7.00e-07	0	62	0	1179648000	59	4707
2026-01-01 02:24:53.21	251.29	15.36	-48.5	-50.7	14.6	0.00e+00	0	62	0	1180696576	59	4746
2026-01-01 02:24:54.18	251.21	15.26	-48.4	-50.7	14.6	7.00e-07	0	62	0	1182793728	59	4722
2026-01-01 02:24:55.15	251.13	15.17	-48.6	-50.9	14.3	0.00e+00	0	62	0	1184890880	59	4835
2026-01-01 02:24:56.13	251.05	15.07	-48.5	-50.8	14.5	7.00e-07	0	62	0	1185939456	59	4778
2026-01-01 02:24:57.10	250.97	14.98	-48.5	-50.8	14.4	7.00e-07	0	62	0	1188036608	59	4803
2026-01-01 02:24:58.08	250.89	14.88	-48.5	-50.7	14.5	7.00e-07	0	62	0	1190133760	59	4752
2026-01-01 02:24:59.05	250.81	14.78	-48.4	-50.6	14.7	0.00e+00	0	62	0	1192230912	59	4659
2026-01-01 02:25:00.03	250.73	14.69	-48.5	-50.7	14.4	0.00e+00	0	62	0	1193279488	59	4758
2026-01-01 02:25:01.01	250.65	14.59	-48.3	-50.6	14.7	7.00e-07	0	62	0	1195376640	59	4660
2026-01-01 02:25:01.98	250.58	14.50	-48.5	-50.8	14.4	0.00e+00	0	62	0	1197473792	59	4770
2026-01-01 02:25:02.96	250.50	14.40	-48.9	-51.4	13.9	3.00e-06	0	62	0	1199570944	59	5121
2026-01-01 02:25:03.94	250.42	14.31	-48.8	-51.2	14.0	3.00e-06	0	62	0	1200619520	59	5023
2026-01-01 02:25:04.91	250.34	14.22	-48.7	-51.1	14.1	1.50e-06	0	62	0	1202716672	59	4937
2026-01-01 02:25:05.89	250.27	14.12	-48.7	-51.0	14.2	2.20e-06	0	62	0	1204813824	59	4924
2026-01-01 02:25:06.86	250.19	14.03	-48.8	-51.3	14.0	7.00e-07	0	62	0	1206910976	59	5045
2026-01-01 02:25:07.83	250.12	13.94	-49.1	-51.7	13.5	4.50e-06	0	62	0	1207959552	59	5306
2026-01-01 02:25:08.81	250.04	13.85	-49.0	-51.7	13.6	1.14e-05	0	62	0	1210056704	60	4987
2026-01-01 02:25:09.78	249.97	13.75	-49.0	-51.9	13.3	1.90e-05	0	62	0	1212153856	60	5111
2026-01-01 02:25:10.76	249.90	13.66	-49.2	-52.0	13.2	2.74e-05	0	62	0	1214251008	60	5173
2026-01-01 02:25:11.73	249.82	13.57	-49.3	-52.2	13.0	3.20e-05	0	62	0	1215299584	60	5316
2026-01-01 02:25:12.70	249.75	13.48	-49.4	-52.3	12.9	3.58e-05	0	62	0	1217396736	60	5382
2026-01-01 02:25:13.68	249.68	13.39	-49.4	-52.4	12.8	6.10e-05	0	62	0	1219493888	60	5411
2026-01-01 02:25:14.65	249.61	13.30	-49.5	-52.6	12.6	9.30e-05	0	62	0	1221591040	60	5534
2026-01-01 02:25:15.62	249.54	13.21	-49.3	-52.5	12.7	8.69e-05	0	62	0	1222639616	60	5495
