passes_logs/2026/01/01/R3.0SM8_Murmansk_STILSPACE/R3.0SM8_Murmansk_STILSPACE__20260101_132002_FENGYUN_3E_rec.log

#Pass ID: 20260101_132002_FENGYUN 3E
#Satellite: FENGYUN 3E
#Configuration: FENGYUN 3E
#almurnet v.1.7.20240730
#Start time: 2026-01-01 13:27:07

#Version: 2.2.20231116
#Station: R3.0SM8_Murmansk_STILSPACE
#Location: 33.092731 lon 68.902999 lat
#TLE: 1 49008U 21062A   25365.98258168  .00000149  00000+0  90987-4 0  9990
#TLE: 2 49008  98.7481   6.2763 0001360 169.3782 190.7423 14.19883270232859

#Time	Az	El	Level	Level2	SNR	BER	BlckErr	Temp	State	Recorded	gain1	gain2
2026-01-01 13:27:07.21	43.51	69.84	-52.7	-63.4	3.8	8.47e-01	0	57	0	0	67	12945
2026-01-01 13:27:08.20	42.16	69.73	-52.8	-63.0	3.8	8.46e-01	0	58	104	0	68	11438
2026-01-01 13:27:09.19	40.82	69.61	-52.7	-63.0	3.8	8.46e-01	0	58	104	0	68	11431
2026-01-01 13:27:10.18	39.51	69.48	-52.7	-62.9	3.8	8.46e-01	0	58	104	0	68	11402
2026-01-01 13:27:11.17	38.21	69.33	-52.8	-63.0	3.8	8.45e-01	0	57	104	0	68	11500
2026-01-01 13:27:12.16	36.93	69.18	-52.8	-63.0	3.8	8.46e-01	0	57	104	0	68	11475
2026-01-01 13:27:13.15	35.67	69.02	-52.7	-63.0	3.8	8.47e-01	0	58	104	0	68	11447
2026-01-01 13:27:14.14	34.44	68.85	-52.8	-62.9	3.8	8.45e-01	0	58	104	0	68	11395
2026-01-01 13:27:15.14	33.21	68.67	-52.7	-62.8	3.8	8.45e-01	0	58	104	0	68	11258
2026-01-01 13:27:16.13	32.02	68.48	-52.8	-62.9	3.8	8.45e-01	0	57	104	0	68	11390
2026-01-01 13:27:17.12	30.85	68.29	-52.7	-62.8	3.8	8.47e-01	0	57	104	0	67	11858
2026-01-01 13:27:18.10	29.72	68.09	-52.7	-62.8	3.8	8.45e-01	0	58	104	0	67	11915
2026-01-01 13:27:19.09	28.59	67.88	-52.6	-62.8	3.8	8.46e-01	0	58	104	0	67	11944
2026-01-01 13:27:20.09	27.48	67.66	-52.5	-62.9	3.8	8.45e-01	0	58	104	0	67	11963
2026-01-01 13:27:21.08	26.41	67.43	-52.5	-62.8	3.8	8.47e-01	0	58	104	0	67	11904
2026-01-01 13:27:22.07	25.36	67.20	-52.7	-62.8	3.8	8.46e-01	0	58	104	0	67	11949
2026-01-01 13:27:23.06	24.33	66.96	-52.7	-62.8	3.8	8.47e-01	0	58	104	0	67	11927
2026-01-01 13:27:24.05	23.32	66.72	-52.7	-62.8	3.8	8.46e-01	0	58	104	0	67	11895
2026-01-01 13:27:25.04	22.34	66.47	-52.6	-62.8	3.8	8.46e-01	0	58	104	0	67	11887
2026-01-01 13:27:26.03	21.38	66.22	-52.6	-62.9	3.8	8.47e-01	0	58	104	0	67	11965
2026-01-01 13:27:27.02	20.45	65.96	-52.5	-62.8	3.8	8.46e-01	0	58	104	0	67	11918
2026-01-01 13:27:28.01	19.53	65.69	-52.7	-62.8	3.8	8.46e-01	0	58	104	0	67	11901
2026-01-01 13:27:28.99	18.65	65.43	-52.6	-62.8	3.8	8.47e-01	0	58	104	0	67	11872
2026-01-01 13:27:29.98	17.78	65.15	-52.5	-62.8	3.8	8.47e-01	0	58	104	0	67	11937
2026-01-01 13:27:30.96	16.94	64.88	-52.5	-62.8	3.8	8.46e-01	0	58	104	0	67	11924
2026-01-01 13:27:31.95	16.11	64.60	-52.5	-62.8	3.8	8.46e-01	0	58	104	0	67	11931
2026-01-01 13:27:32.94	15.30	64.31	-52.5	-62.8	3.8	8.46e-01	0	58	104	0	67	11914
2026-01-01 13:27:33.93	14.51	64.03	-52.5	-62.9	3.8	8.47e-01	0	58	104	0	67	11961
2026-01-01 13:27:34.91	13.75	63.74	-52.7	-62.8	3.8	8.47e-01	0	58	104	0	67	11890
2026-01-01 13:27:35.90	13.00	63.44	-52.6	-62.8	3.8	8.47e-01	0	58	104	0	67	11877
2026-01-01 13:27:36.89	12.27	63.15	-52.6	-62.8	3.8	8.46e-01	0	58	104	0	67	11945
2026-01-01 13:27:37.88	11.55	62.85	-52.7	-62.8	3.8	8.46e-01	0	58	104	0	67	11931
2026-01-01 13:27:38.87	10.86	62.55	-52.7	-62.8	3.8	8.45e-01	0	58	104	0	67	11889
2026-01-01 13:27:39.86	10.18	62.24	-52.4	-62.8	3.8	8.47e-01	0	58	104	0	67	11833
2026-01-01 13:27:40.85	9.52	61.94	-52.4	-62.6	3.8	8.46e-01	0	58	104	0	67	11645
2026-01-01 13:27:41.84	8.88	61.63	-52.6	-62.7	3.8	8.47e-01	0	58	104	0	67	11702
2026-01-01 13:27:42.83	8.25	61.32	-52.6	-62.7	3.8	8.46e-01	0	58	104	0	67	11776
2026-01-01 13:27:43.82	7.63	61.01	-52.4	-62.5	3.8	8.46e-01	0	58	104	0	67	11496
2026-01-01 13:27:44.81	7.04	60.70	-52.6	-62.7	3.8	8.46e-01	0	58	104	0	67	11686
2026-01-01 13:27:45.79	6.46	60.38	-52.7	-62.8	3.8	8.46e-01	0	58	104	0	67	11948
2026-01-01 13:27:46.78	5.89	60.07	-52.6	-62.8	3.8	8.46e-01	0	58	104	0	67	11885
2026-01-01 13:27:47.78	5.33	59.75	-52.4	-62.7	3.8	8.47e-01	0	58	104	0	67	11729
2026-01-01 13:27:48.76	4.79	59.44	-52.6	-62.3	3.8	8.46e-01	0	58	104	0	67	11175
2026-01-01 13:27:49.75	4.26	59.12	-52.5	-62.6	3.8	8.46e-01	0	58	104	0	67	11601
2026-01-01 13:27:50.74	3.75	58.80	-52.6	-62.4	3.8	8.46e-01	0	58	104	0	67	11411
2026-01-01 13:27:51.73	3.24	58.49	-52.6	-62.3	3.8	8.46e-01	0	58	104	0	67	11253
2026-01-01 13:27:52.73	2.75	58.17	-52.6	-62.3	3.8	8.46e-01	0	58	104	0	67	11175
2026-01-01 13:27:53.71	2.27	57.85	-52.4	-61.2	3.8	8.46e-01	0	58	104	0	67	9932
2026-01-01 13:27:54.71	1.80	57.53	-52.3	-61.0	3.8	8.45e-01	0	58	104	0	67	9625
2026-01-01 13:27:55.69	1.35	57.21	-52.6	-62.0	3.8	8.47e-01	0	58	104	0	67	10886
2026-01-01 13:27:56.68	0.90	56.89	-52.6	-62.4	3.8	8.47e-01	0	58	104	0	67	11392
2026-01-01 13:27:57.67	0.46	56.58	-52.5	-62.4	3.8	8.46e-01	0	58	104	0	67	11417
2026-01-01 13:27:58.66	0.04	56.26	-52.4	-61.7	3.8	8.46e-01	0	58	104	0	67	10436
2026-01-01 13:27:59.65	359.62	55.94	-51.8	-58.2	4.5	8.40e-01	0	58	0	0	66	7401
2026-01-01 13:28:00.64	359.21	55.62	-48.6	-50.7	10.9	1.07e-02	0	58	0	4194304	60	4436
2026-01-01 13:28:01.63	358.81	55.31	-46.3	-47.5	14.2	0.00e+00	0	58	0	11534336	55	4098
2026-01-01 13:28:02.62	358.42	54.99	-47.5	-49.1	12.8	1.48e-05	0	58	0	18874368	56	4600
2026-01-01 13:28:03.61	358.04	54.67	-47.6	-49.2	12.6	1.60e-04	0	58	0	26214400	57	4417
2026-01-01 13:28:04.61	357.67	54.36	-46.8	-48.1	13.8	1.48e-05	0	58	0	33554432	56	4137
2026-01-01 13:28:05.60	357.30	54.04	-45.8	-46.9	14.9	3.40e-06	0	58	0	39845888	54	4048
2026-01-01 13:28:06.59	356.95	53.73	-44.7	-45.6	16.2	0.00e+00	0	58	0	47185920	52	3888
2026-01-01 13:28:07.57	356.60	53.42	-43.9	-44.6	17.1	0.00e+00	0	58	0	54525952	50	3895
2026-01-01 13:28:08.57	356.26	53.10	-43.1	-43.8	18.1	0.00e+00	0	58	0	61865984	49	3746
2026-01-01 13:28:09.56	355.92	52.79	-42.9	-43.6	18.2	0.00e+00	0	58	0	69206016	48	3896
2026-01-01 13:28:10.55	355.60	52.48	-42.7	-43.4	18.4	0.00e+00	0	58	0	76546048	48	3800
2026-01-01 13:28:11.54	355.28	52.17	-42.2	-42.9	18.7	0.00e+00	0	58	0	82837504	47	3786
2026-01-01 13:28:12.53	354.97	51.86	-41.6	-42.1	19.3	0.00e+00	0	58	0	90177536	46	3690
2026-01-01 13:28:13.52	354.66	51.56	-41.1	-41.6	20.0	0.00e+00	0	58	0	97517568	45	3666
2026-01-01 13:28:14.51	354.36	51.25	-40.8	-41.3	20.2	0.00e+00	0	58	0	104857600	44	3768
2026-01-01 13:28:15.49	354.07	50.95	-41.0	-41.5	20.0	0.00e+00	0	58	0	112197632	44	3866
2026-01-01 13:28:16.48	353.78	50.65	-41.6	-42.1	19.5	0.00e+00	0	58	0	118489088	44	4138
2026-01-01 13:28:17.47	353.50	50.34	-41.8	-42.4	19.2	0.00e+00	0	58	0	125829120	45	4024
2026-01-01 13:28:18.46	353.22	50.04	-41.6	-42.1	19.4	0.00e+00	0	58	0	133169152	45	3908
2026-01-01 13:28:19.45	352.95	49.74	-41.3	-41.8	19.7	0.00e+00	0	58	0	140509184	45	3777
2026-01-01 13:28:20.44	352.68	49.44	-41.2	-41.7	19.9	0.00e+00	0	58	0	147849216	45	3712
2026-01-01 13:28:21.43	352.42	49.15	-41.2	-41.7	19.8	0.00e+00	0	58	0	155189248	45	3731
2026-01-01 13:28:22.43	352.16	48.85	-41.4	-41.9	19.7	0.00e+00	0	58	0	161480704	45	3815
2026-01-01 13:28:23.41	351.92	48.56	-41.5	-42.0	19.5	0.00e+00	0	58	0	168820736	45	3860
2026-01-01 13:28:24.41	351.67	48.26	-41.4	-41.9	19.7	0.00e+00	0	58	0	176160768	45	3807
2026-01-01 13:28:25.40	351.43	47.97	-41.4	-41.9	19.6	0.00e+00	0	58	0	183500800	45	3819
2026-01-01 13:28:26.38	351.19	47.68	-41.3	-41.8	19.6	0.00e+00	0	58	0	190840832	45	3777
2026-01-01 13:28:27.36	350.96	47.40	-41.5	-42.1	19.5	0.00e+00	0	58	0	198180864	45	3881
2026-01-01 13:28:28.35	350.73	47.11	-41.7	-42.3	18.1	0.00e+00	0	58	0	204472320	45	3987
2026-01-01 13:28:29.33	350.51	46.83	-41.8	-42.3	19.2	0.00e+00	0	58	0	211812352	45	3994
2026-01-01 13:28:30.32	350.29	46.54	-41.8	-42.4	19.2	0.00e+00	0	58	0	219152384	45	4007
2026-01-01 13:28:31.31	350.08	46.26	-41.8	-42.4	19.1	0.00e+00	0	58	0	226492416	45	4028
2026-01-01 13:28:32.30	349.86	45.98	-41.8	-42.4	19.2	0.00e+00	0	58	0	232783872	45	4010
2026-01-01 13:28:33.29	349.66	45.70	-41.8	-42.4	19.2	0.00e+00	0	58	0	240123904	45	4017
2026-01-01 13:28:34.28	349.45	45.42	-41.9	-42.5	19.1	0.00e+00	0	58	0	247463936	45	4059
2026-01-01 13:28:35.26	349.25	45.14	-42.0	-42.5	19.0	0.00e+00	0	58	0	254803968	45	4092
2026-01-01 13:28:36.24	349.06	44.87	-41.4	-41.9	19.6	0.00e+00	0	58	0	261095424	45	3799
2026-01-01 13:28:37.24	348.86	44.60	-41.0	-41.5	20.1	0.00e+00	0	58	0	268435456	44	3836
2026-01-01 13:28:38.22	348.67	44.33	-40.7	-41.2	20.3	0.00e+00	0	58	0	275775488	44	3697
2026-01-01 13:28:39.20	348.49	44.06	-40.4	-40.9	20.3	0.00e+00	0	58	0	283115520	43	3799
2026-01-01 13:28:40.19	348.31	43.79	-40.3	-40.8	20.6	0.00e+00	0	58	0	290455552	43	3738
2026-01-01 13:28:41.18	348.12	43.52	-40.3	-40.8	20.5	0.00e+00	0	58	0	297795584	43	3748
2026-01-01 13:28:42.16	347.95	43.26	-40.3	-40.8	20.6	0.00e+00	0	58	0	304087040	43	3760
2026-01-01 13:28:43.16	347.77	42.99	-40.1	-40.6	20.8	0.00e+00	0	58	0	311427072	43	3683
2026-01-01 13:28:44.15	347.60	42.73	-40.0	-40.5	20.9	0.00e+00	0	58	0	318767104	42	3837
2026-01-01 13:28:45.14	347.43	42.46	-40.0	-40.5	20.9	0.00e+00	0	58	0	326107136	42	3837
2026-01-01 13:28:46.13	347.26	42.20	-39.9	-40.4	21.0	0.00e+00	0	58	0	333447168	42	3795
2026-01-01 13:28:47.12	347.10	41.95	-40.1	-40.5	20.8	0.00e+00	0	58	0	339738624	42	3863
2026-01-01 13:28:48.11	346.94	41.69	-40.3	-40.8	20.5	0.00e+00	0	58	0	347078656	42	3986
2026-01-01 13:28:49.10	346.78	41.43	-40.2	-40.7	20.5	0.00e+00	0	58	0	354418688	42	3925
2026-01-01 13:28:50.09	346.63	41.18	-40.4	-40.8	20.6	0.00e+00	0	58	0	361758720	42	3999
2026-01-01 13:28:51.07	346.47	40.93	-40.2	-40.7	20.7	0.00e+00	0	58	0	369098752	42	3948
2026-01-01 13:28:52.06	346.32	40.68	-40.2	-40.7	20.6	0.00e+00	0	58	0	376438784	42	3932
2026-01-01 13:28:53.05	346.17	40.43	-40.2	-40.7	20.7	0.00e+00	0	58	0	382730240	42	3939
2026-01-01 13:28:54.04	346.03	40.18	-40.4	-40.9	20.5	0.00e+00	0	58	0	390070272	42	4028
2026-01-01 13:28:55.03	345.88	39.93	-40.9	-41.4	20.0	0.00e+00	0	58	0	397410304	43	4037
2026-01-01 13:28:56.01	345.74	39.69	-40.5	-41.0	20.4	0.00e+00	0	58	0	404750336	43	3852
2026-01-01 13:28:57.01	345.60	39.45	-40.4	-40.9	20.5	0.00e+00	0	58	0	411041792	43	3789
2026-01-01 13:28:57.99	345.47	39.21	-40.2	-40.7	20.7	0.00e+00	0	58	0	418381824	43	3705
2026-01-01 13:28:58.98	345.33	38.97	-40.2	-40.7	20.4	0.00e+00	0	58	0	425721856	43	3698
2026-01-01 13:28:59.98	345.20	38.73	-40.1	-40.6	20.8	0.00e+00	0	58	0	433061888	43	3658
2026-01-01 13:29:00.96	345.07	38.49	-40.2	-40.6	20.8	0.00e+00	0	58	0	439353344	43	3685
2026-01-01 13:29:01.95	344.94	38.25	-40.4	-40.9	20.5	0.00e+00	0	58	0	446693376	43	3802
2026-01-01 13:29:02.93	344.81	38.02	-40.2	-40.7	20.7	0.00e+00	0	58	0	454033408	43	3707
2026-01-01 13:29:03.92	344.69	37.79	-40.0	-40.5	20.9	0.00e+00	0	58	0	461373440	43	3615
2026-01-01 13:29:04.91	344.56	37.56	-40.2	-40.7	20.4	0.00e+00	0	58	0	468713472	42	3930
2026-01-01 13:29:05.90	344.44	37.33	-40.6	-41.1	20.3	0.00e+00	0	58	0	476053504	42	4136
2026-01-01 13:29:06.89	344.32	37.10	-40.6	-41.1	20.3	0.00e+00	0	58	0	482344960	43	3878
2026-01-01 13:29:07.88	344.20	36.87	-40.7	-41.2	20.2	0.00e+00	0	58	0	489684992	43	3935
2026-01-01 13:29:08.87	344.08	36.65	-40.6	-41.1	20.2	0.00e+00	0	58	0	497025024	43	3904
2026-01-01 13:29:09.85	343.97	36.42	-40.6	-41.1	20.2	0.00e+00	0	58	0	504365056	43	3873
2026-01-01 13:29:10.85	343.86	36.20	-40.5	-41.1	20.3	0.00e+00	0	58	0	511705088	43	3870
2026-01-01 13:29:11.84	343.74	35.98	-40.6	-41.1	20.3	0.00e+00	0	58	0	519045120	43	3881
2026-01-01 13:29:12.83	343.63	35.76	-40.8	-41.3	20.1	0.00e+00	0	58	0	525336576	43	3994
2026-01-01 13:29:13.81	343.53	35.54	-41.0	-41.5	19.9	0.00e+00	0	58	0	532676608	43	4092
2026-01-01 13:29:14.79	343.42	35.33	-40.8	-41.4	20.0	0.00e+00	0	58	0	540016640	43	4007
2026-01-01 13:29:15.78	343.31	35.11	-40.5	-41.0	20.3	0.00e+00	0	58	0	547356672	43	3853
2026-01-01 13:29:16.75	343.21	34.90	-40.3	-40.8	20.6	0.00e+00	0	58	0	553648128	43	3742
2026-01-01 13:29:17.74	343.11	34.69	-40.1	-40.6	20.7	0.00e+00	0	58	0	560988160	43	3685
2026-01-01 13:29:18.73	343.01	34.47	-40.1	-40.6	20.8	0.00e+00	0	58	0	568328192	43	3655
2026-01-01 13:29:19.72	342.91	34.26	-40.0	-40.5	20.8	0.00e+00	0	58	0	575668224	42	3856
2026-01-01 13:29:20.70	342.81	34.06	-40.2	-40.7	20.6	0.00e+00	0	58	0	581959680	42	3934
2026-01-01 13:29:21.69	342.71	33.85	-40.1	-40.6	20.8	0.00e+00	0	58	0	589299712	42	3880
2026-01-01 13:29:22.69	342.61	33.64	-39.7	-40.2	21.1	0.00e+00	0	58	0	596639744	42	3719
2026-01-01 13:29:23.67	342.52	33.44	-39.5	-40.0	21.2	0.00e+00	0	58	0	603979776	41	3837
2026-01-01 13:29:24.67	342.42	33.23	-39.5	-39.9	21.3	0.00e+00	0	58	0	611319808	41	3824
2026-01-01 13:29:25.66	342.33	33.03	-39.6	-40.0	21.3	0.00e+00	0	58	0	618659840	41	3865
2026-01-01 13:29:26.66	342.24	32.82	-39.7	-40.1	21.1	0.00e+00	0	58	0	624951296	41	3913
2026-01-01 13:29:27.65	342.15	32.62	-39.8	-40.2	21.1	0.00e+00	0	58	0	632291328	41	3957
2026-01-01 13:29:28.64	342.06	32.42	-39.8	-40.3	21.1	0.00e+00	0	58	0	639631360	41	3962
2026-01-01 13:29:29.63	341.97	32.23	-39.9	-40.4	21.0	0.00e+00	0	58	0	646971392	41	4016
2026-01-01 13:29:30.62	341.88	32.03	-39.9	-40.3	21.0	0.00e+00	0	58	0	654311424	41	4003
2026-01-01 13:29:31.61	341.80	31.83	-39.7	-40.2	21.1	0.00e+00	0	58	0	661651456	41	3928
2026-01-01 13:29:32.60	341.71	31.64	-39.6	-40.1	21.2	0.00e+00	0	58	0	667942912	41	3882
2026-01-01 13:29:33.60	341.63	31.44	-39.7	-40.2	21.0	0.00e+00	0	58	0	675282944	41	3919
2026-01-01 13:29:34.59	341.54	31.25	-39.7	-40.1	21.1	0.00e+00	0	58	0	682622976	41	3907
2026-01-01 13:29:35.58	341.46	31.06	-39.5	-40.0	21.3	0.00e+00	0	58	0	689963008	41	3825
2026-01-01 13:29:36.57	341.38	30.87	-39.5	-39.9	21.3	0.00e+00	0	58	0	697303040	41	3815
2026-01-01 13:29:37.56	341.30	30.68	-39.6	-40.1	21.2	0.00e+00	0	58	0	704643072	41	3888
2026-01-01 13:29:38.55	341.22	30.50	-39.7	-40.2	21.1	0.00e+00	0	58	0	710934528	41	3926
2026-01-01 13:29:39.54	341.15	30.31	-39.8	-40.2	21.1	0.00e+00	0	58	0	718274560	41	3941
2026-01-01 13:29:40.53	341.07	30.13	-39.9	-40.3	21.0	0.00e+00	0	58	0	725614592	41	3995
2026-01-01 13:29:41.53	340.99	29.94	-39.9	-40.4	20.9	0.00e+00	0	58	0	732954624	41	4024
2026-01-01 13:29:42.52	340.92	29.76	-40.1	-40.6	20.7	0.00e+00	0	58	0	740294656	41	4105
2026-01-01 13:29:43.51	340.84	29.58	-40.1	-40.6	20.7	0.00e+00	0	58	0	747634688	41	4122
2026-01-01 13:29:44.50	340.77	29.39	-40.2	-40.7	20.6	0.00e+00	0	58	0	753926144	42	3931
2026-01-01 13:29:45.49	340.70	29.22	-40.3	-40.8	20.6	0.00e+00	0	58	0	761266176	42	3968
2026-01-01 13:29:46.48	340.62	29.04	-40.4	-40.9	20.5	0.00e+00	0	58	0	768606208	42	4008
2026-01-01 13:29:47.47	340.55	28.86	-40.2	-40.7	20.6	0.00e+00	0	58	0	775946240	42	3943
2026-01-01 13:29:48.46	340.48	28.68	-40.2	-40.7	20.6	0.00e+00	0	58	0	783286272	42	3924
2026-01-01 13:29:49.45	340.41	28.51	-40.3	-40.8	20.4	0.00e+00	0	58	0	789577728	42	3988
2026-01-01 13:29:50.43	340.35	28.34	-40.4	-40.9	20.4	0.00e+00	0	58	0	796917760	42	4028
2026-01-01 13:29:51.41	340.28	28.17	-40.2	-40.6	20.7	0.00e+00	0	58	0	804257792	42	3907
2026-01-01 13:29:52.40	340.21	27.99	-40.1	-40.6	20.7	0.00e+00	0	58	0	811597824	42	3870
2026-01-01 13:29:53.39	340.15	27.82	-40.1	-40.6	20.7	0.00e+00	0	58	0	818937856	42	3886
2026-01-01 13:29:54.38	340.08	27.65	-40.4	-41.0	20.4	0.00e+00	0	58	0	825229312	43	3826
2026-01-01 13:29:55.37	340.02	27.48	-43.3	-44.1	17.7	0.00e+00	0	58	0	832569344	49	3872
2026-01-01 13:29:56.35	339.95	27.32	-43.3	-44.0	17.7	0.00e+00	0	58	0	839909376	49	3832
2026-01-01 13:29:57.34	339.89	27.15	-43.4	-44.1	17.5	0.00e+00	0	58	0	847249408	49	3906
2026-01-01 13:29:58.34	339.83	26.98	-43.2	-43.8	17.8	0.00e+00	0	58	0	854589440	49	3775
2026-01-01 13:29:59.33	339.77	26.82	-43.2	-43.9	17.8	0.00e+00	0	58	0	861929472	49	3823
2026-01-01 13:30:00.31	339.71	26.66	-43.3	-44.0	17.7	0.00e+00	0	58	0	868220928	49	3849
2026-01-01 13:30:01.30	339.64	26.49	-43.4	-44.1	17.6	0.00e+00	0	58	0	875560960	49	3894
2026-01-01 13:30:02.29	339.58	26.33	-43.6	-44.3	17.3	0.00e+00	0	58	0	882900992	49	3988
2026-01-01 13:30:03.28	339.53	26.17	-44.1	-44.9	16.8	0.00e+00	0	58	0	890241024	49	4257
2026-01-01 13:30:04.27	339.47	26.01	-44.5	-45.4	16.4	0.00e+00	0	58	0	897581056	50	4257
2026-01-01 13:30:05.26	339.41	25.85	-45.1	-46.1	15.6	0.00e+00	0	58	0	903872512	51	4383
2026-01-01 13:30:06.25	339.35	25.69	-45.4	-46.5	15.2	0.00e+00	0	58	0	911212544	52	4306
2026-01-01 13:30:07.24	339.29	25.53	-46.4	-47.7	13.8	0.00e+00	0	58	0	918552576	55	4166
2026-01-01 13:30:08.23	339.24	25.38	-46.5	-47.8	13.8	1.10e-06	0	58	0	925892608	55	4211
2026-01-01 13:30:09.21	339.18	25.22	-46.8	-48.3	13.3	2.63e-05	0	58	0	933232640	55	4453
2026-01-01 13:30:10.20	339.13	25.07	-46.5	-47.9	13.7	3.40e-06	0	58	0	939524096	55	4265
2026-01-01 13:30:11.20	339.07	24.91	-47.2	-48.7	12.8	5.26e-05	0	58	0	946864128	55	4685
2026-01-01 13:30:12.19	339.02	24.76	-46.3	-47.5	14.0	1.14e-05	0	58	0	954204160	55	4093
2026-01-01 13:30:13.18	338.97	24.61	-45.6	-46.7	14.9	3.40e-06	0	58	0	961544192	54	3946
2026-01-01 13:30:14.17	338.91	24.45	-45.0	-46.1	15.5	0.00e+00	0	58	0	968884224	53	3874
2026-01-01 13:30:15.17	338.86	24.30	-44.6	-45.5	16.1	0.00e+00	0	58	0	976224256	52	3843
2026-01-01 13:30:16.16	338.81	24.15	-44.3	-45.2	16.5	0.00e+00	0	58	0	983564288	51	3921
2026-01-01 13:30:17.15	338.76	24.00	-44.1	-44.9	16.7	0.00e+00	0	58	0	989855744	51	3802
2026-01-01 13:30:18.13	338.71	23.86	-44.1	-44.9	16.7	0.00e+00	0	58	0	997195776	51	3792
2026-01-01 13:30:19.12	338.66	23.71	-44.2	-45.0	16.7	0.00e+00	0	58	0	1004535808	51	3836
2026-01-01 13:30:20.10	338.61	23.56	-44.0	-44.8	16.9	0.00e+00	0	58	0	1010827264	50	3966
2026-01-01 13:30:21.08	338.56	23.42	-43.6	-44.3	17.3	0.00e+00	0	58	0	1018167296	50	3772
2026-01-01 13:30:22.08	338.51	23.27	-43.1	-43.8	17.8	0.00e+00	0	58	0	1025507328	49	3771
2026-01-01 13:30:23.06	338.46	23.13	-42.8	-43.5	18.2	0.00e+00	0	58	0	1032847360	48	3834
2026-01-01 13:30:24.05	338.42	22.99	-42.5	-43.1	18.6	0.00e+00	0	58	0	1040187392	48	3668
2026-01-01 13:30:25.04	338.37	22.84	-42.0	-42.6	18.8	0.00e+00	0	58	0	1046478848	46	3878
2026-01-01 13:30:26.03	338.32	22.70	-41.6	-42.2	19.2	0.00e+00	0	58	0	1053818880	46	3698
2026-01-01 13:30:27.01	338.28	22.56	-41.1	-41.7	19.6	0.00e+00	0	58	0	1061158912	45	3706
2026-01-01 13:30:28.00	338.23	22.42	-40.7	-41.2	20.1	0.00e+00	0	58	0	1068498944	44	3700
2026-01-01 13:30:28.99	338.19	22.28	-40.2	-40.7	20.4	0.00e+00	0	58	0	1075838976	43	3706
2026-01-01 13:30:29.98	338.14	22.14	-40.0	-40.4	20.6	0.00e+00	0	58	0	1083179008	43	3608
2026-01-01 13:30:30.97	338.10	22.01	-39.9	-40.3	20.6	0.00e+00	0	58	0	1089470464	42	3773
2026-01-01 13:30:31.96	338.05	21.87	-40.0	-40.5	20.4	0.00e+00	0	58	0	1096810496	42	3864
2026-01-01 13:30:32.95	338.01	21.73	-40.4	-40.9	20.0	0.00e+00	0	58	0	1104150528	42	4029
2026-01-01 13:30:33.94	337.97	21.60	-40.5	-41.0	19.8	0.00e+00	0	58	0	1111490560	42	4098
2026-01-01 13:30:34.94	337.92	21.46	-40.8	-41.3	19.5	0.00e+00	0	58	0	1118830592	43	3984
2026-01-01 13:30:35.92	337.88	21.33	-41.0	-41.6	19.2	0.00e+00	0	58	0	1125122048	43	4111
2026-01-01 13:30:36.91	337.84	21.19	-41.5	-42.1	18.7	0.00e+00	0	58	0	1132462080	44	4124
2026-01-01 13:30:37.90	337.80	21.06	-42.0	-42.6	18.2	0.00e+00	0	58	0	1139802112	45	4137
2026-01-01 13:30:38.88	337.76	20.93	-42.5	-43.3	17.6	0.00e+00	0	58	0	1147142144	46	4194
2026-01-01 13:30:39.87	337.71	20.80	-42.9	-43.7	17.1	0.00e+00	0	58	0	1154482176	47	4166
2026-01-01 13:30:40.87	337.67	20.66	-42.9	-43.7	17.0	0.00e+00	0	58	0	1161822208	47	4179
2026-01-01 13:30:41.87	337.63	20.53	-43.0	-43.8	16.9	0.00e+00	0	58	0	1168113664	47	4232
2026-01-01 13:30:42.85	337.59	20.40	-43.2	-44.0	16.7	0.00e+00	0	58	0	1175453696	47	4317
2026-01-01 13:30:43.85	337.55	20.27	-43.2	-44.0	16.9	0.00e+00	0	58	0	1182793728	48	4078
2026-01-01 13:30:44.83	337.52	20.15	-43.3	-44.1	16.9	0.00e+00	0	58	0	1190133760	48	4102
2026-01-01 13:30:45.83	337.48	20.02	-43.5	-44.4	16.6	0.00e+00	0	58	0	1197473792	48	4246
2026-01-01 13:30:46.82	337.44	19.89	-43.3	-44.2	16.8	0.00e+00	0	58	0	1204813824	48	4164
2026-01-01 13:30:47.82	337.40	19.76	-43.1	-43.8	17.1	0.00e+00	0	58	0	1211105280	48	4002
2026-01-01 13:30:48.81	337.36	19.64	-42.7	-43.5	17.5	0.00e+00	0	58	0	1218445312	48	3836
2026-01-01 13:30:49.80	337.33	19.51	-42.3	-43.0	17.8	0.00e+00	0	58	0	1225785344	47	3842
2026-01-01 13:30:50.79	337.29	19.39	-42.0	-42.7	18.2	0.00e+00	0	58	0	1233125376	47	3701
2026-01-01 13:30:51.78	337.25	19.26	-41.9	-42.5	18.4	0.00e+00	0	58	0	1240465408	46	3857
2026-01-01 13:30:52.76	337.22	19.14	-41.5	-42.1	18.8	0.00e+00	0	58	0	1246756864	46	3689
2026-01-01 13:30:53.76	337.18	19.02	-41.1	-41.7	19.1	0.00e+00	0	58	0	1254096896	45	3722
2026-01-01 13:30:54.75	337.14	18.89	-40.9	-41.5	19.6	0.00e+00	0	58	0	1261436928	44	3827
2026-01-01 13:30:55.73	337.11	18.77	-40.8	-41.4	19.6	0.00e+00	0	58	0	1268776960	44	3801
2026-01-01 13:30:56.72	337.07	18.65	-40.9	-41.4	19.6	0.00e+00	0	58	0	1276116992	44	3812
2026-01-01 13:30:57.71	337.04	18.53	-40.9	-41.5	19.6	0.00e+00	0	58	0	1282408448	44	3843
2026-01-01 13:30:58.70	337.01	18.41	-41.2	-41.7	19.5	0.00e+00	0	58	0	1289748480	44	3954
2026-01-01 13:30:59.69	336.97	18.29	-41.4	-42.0	19.2	0.00e+00	0	58	0	1297088512	44	4068
2026-01-01 13:31:00.68	336.94	18.17	-41.7	-42.3	18.9	0.00e+00	0	58	0	1304428544	44	4208
2026-01-01 13:31:01.67	336.90	18.05	-41.6	-42.2	19.0	0.00e+00	0	58	0	1311768576	45	3942
2026-01-01 13:31:02.66	336.87	17.94	-41.4	-41.9	19.2	0.00e+00	0	58	0	1319108608	45	3820
2026-01-01 13:31:03.65	336.84	17.82	-41.3	-41.9	19.3	0.00e+00	0	58	0	1325400064	45	3806
2026-01-01 13:31:04.64	336.81	17.70	-41.4	-42.0	19.2	0.00e+00	0	58	0	1332740096	45	3847
2026-01-01 13:31:05.63	336.77	17.59	-41.5	-42.1	19.2	0.00e+00	0	58	0	1340080128	45	3882
2026-01-01 13:31:06.62	336.74	17.47	-41.5	-42.1	19.1	0.00e+00	0	58	0	1347420160	45	3900
2026-01-01 13:31:07.62	336.71	17.36	-41.7	-42.3	19.0	0.00e+00	0	58	0	1354760192	45	3974
2026-01-01 13:31:08.61	336.68	17.24	-41.7	-42.3	18.9	0.00e+00	0	58	0	1361051648	45	3994
2026-01-01 13:31:09.59	336.65	17.13	-41.7	-42.3	19.0	0.00e+00	0	58	0	1368391680	45	3959
2026-01-01 13:31:10.59	336.62	17.01	-41.6	-42.2	18.9	0.00e+00	0	58	0	1375731712	45	3939
2026-01-01 13:31:11.58	336.58	16.90	-41.9	-42.5	18.8	0.00e+00	0	58	0	1383071744	45	4062
2026-01-01 13:31:12.58	336.55	16.79	-42.0	-42.6	18.6	0.00e+00	0	58	0	1390411776	45	4136
2026-01-01 13:31:13.57	336.52	16.67	-42.1	-42.8	18.5	0.00e+00	0	58	0	1397751808	45	4197
2026-01-01 13:31:14.56	336.49	16.56	-42.2	-42.8	18.4	0.00e+00	0	58	0	1404043264	46	3998
2026-01-01 13:31:15.54	336.46	16.45	-42.2	-42.9	18.4	0.00e+00	0	58	0	1411383296	46	4011
2026-01-01 13:31:16.54	336.43	16.34	-42.3	-42.9	18.3	0.00e+00	0	58	0	1418723328	46	4037
2026-01-01 13:31:17.53	336.41	16.23	-42.1	-42.7	18.5	0.00e+00	0	58	0	1426063360	46	3948
2026-01-01 13:31:18.52	336.38	16.12	-42.1	-42.7	18.5	0.00e+00	0	58	0	1433403392	46	3941
2026-01-01 13:31:19.51	336.35	16.01	-42.3	-42.9	18.3	0.00e+00	0	58	0	1440743424	46	4046
2026-01-01 13:31:20.51	336.32	15.90	-42.3	-43.0	18.3	0.00e+00	0	58	0	1448083456	46	4071
2026-01-01 13:31:21.50	336.29	15.80	-42.1	-42.8	18.4	0.00e+00	0	58	0	1454374912	46	3965
2026-01-01 13:31:22.49	336.26	15.69	-42.2	-42.8	18.4	0.00e+00	0	58	0	1461714944	46	3986
2026-01-01 13:31:23.48	336.23	15.58	-42.1	-42.8	18.4	0.00e+00	0	58	0	1469054976	46	3966
2026-01-01 13:31:24.47	336.21	15.47	-42.3	-43.0	18.2	0.00e+00	0	58	0	1476395008	46	4063
2026-01-01 13:31:25.46	336.18	15.37	-42.3	-43.0	18.2	0.00e+00	0	58	0	1482686464	46	4075
2026-01-01 13:31:26.45	336.15	15.26	-42.3	-43.0	18.2	0.00e+00	0	58	0	1490026496	46	4077
2026-01-01 13:31:27.44	336.13	15.16	-42.4	-43.1	18.1	0.00e+00	0	58	0	1497366528	46	4100
2026-01-01 13:31:28.43	336.10	15.05	-42.2	-42.9	18.3	0.00e+00	0	58	0	1504706560	46	4036
2026-01-01 13:31:29.41	336.07	14.95	-42.1	-42.8	18.4	0.00e+00	0	58	0	1512046592	46	3965
2026-01-01 13:31:30.40	336.05	14.85	-42.1	-42.8	18.4	0.00e+00	0	58	0	1518338048	46	3959
2026-01-01 13:31:31.40	336.02	14.74	-42.2	-42.8	18.3	0.00e+00	0	58	0	1525678080	46	4003
2026-01-01 13:31:32.38	335.99	14.64	-42.4	-43.1	18.1	0.00e+00	0	58	0	1533018112	46	4134
2026-01-01 13:31:33.36	335.97	14.54	-42.5	-43.1	18.0	0.00e+00	0	58	0	1540358144	46	4145
2026-01-01 13:31:34.36	335.94	14.43	-42.4	-43.1	18.1	0.00e+00	0	58	0	1547698176	46	4109
2026-01-01 13:31:35.34	335.92	14.33	-42.4	-43.0	18.1	0.00e+00	0	58	0	1553989632	46	4095
2026-01-01 13:31:36.33	335.89	14.23	-42.5	-43.2	18.0	0.00e+00	0	58	0	1561329664	46	4157
2026-01-01 13:31:37.32	335.87	14.13	-42.6	-43.3	17.9	0.00e+00	0	58	0	1568669696	46	4219
2026-01-01 13:31:38.31	335.84	14.03	-42.5	-43.2	18.0	0.00e+00	0	58	0	1576009728	46	4152
2026-01-01 13:31:39.30	335.82	13.93	-42.7	-43.4	17.7	0.00e+00	0	58	0	1583349760	47	4038
2026-01-01 13:31:40.29	335.80	13.83	-42.4	-43.1	18.0	0.00e+00	0	58	0	1589641216	47	3888
2026-01-01 13:31:41.28	335.77	13.73	-42.3	-43.0	18.2	0.00e+00	0	58	0	1596981248	47	3848
2026-01-01 13:31:42.28	335.75	13.63	-42.3	-43.0	18.2	0.00e+00	0	58	0	1604321280	47	3834
2026-01-01 13:31:43.27	335.72	13.53	-42.4	-43.1	18.0	0.00e+00	0	58	0	1611661312	47	3890
2026-01-01 13:31:44.26	335.70	13.43	-42.7	-43.4	17.7	0.00e+00	0	58	0	1619001344	47	4034
2026-01-01 13:31:45.24	335.68	13.34	-42.8	-43.5	17.5	0.00e+00	0	58	0	1626341376	47	4097
2026-01-01 13:31:46.24	335.65	13.24	-42.7	-43.5	17.7	0.00e+00	0	58	0	1632632832	47	4056
2026-01-01 13:31:47.23	335.63	13.14	-42.6	-43.3	17.8	0.00e+00	0	58	0	1639972864	47	3964
2026-01-01 13:31:48.22	335.61	13.05	-42.7	-43.4	17.7	0.00e+00	0	58	0	1647312896	47	4032
2026-01-01 13:31:49.21	335.59	12.95	-42.7	-43.4	17.7	0.00e+00	0	58	0	1654652928	47	4020
2026-01-01 13:31:50.20	335.56	12.85	-42.7	-43.5	17.6	0.00e+00	0	58	0	1661992960	47	4057
2026-01-01 13:31:51.19	335.54	12.76	-42.8	-43.5	17.5	0.00e+00	0	58	0	1669332992	47	4075
2026-01-01 13:31:52.17	335.52	12.66	-43.0	-43.8	17.3	0.00e+00	0	58	0	1675624448	47	4208
2026-01-01 13:31:53.16	335.50	12.57	-42.7	-43.4	17.6	0.00e+00	0	58	0	1682964480	47	4041
2026-01-01 13:31:54.14	335.48	12.48	-42.6	-43.3	17.8	0.00e+00	0	58	0	1690304512	47	3974
2026-01-01 13:31:55.13	335.45	12.38	-42.5	-43.2	17.9	0.00e+00	0	58	0	1697644544	47	3939
2026-01-01 13:31:56.12	335.43	12.29	-42.7	-43.4	17.6	0.00e+00	0	58	0	1704984576	47	4018
2026-01-01 13:31:57.11	335.41	12.19	-42.9	-43.6	17.4	0.00e+00	0	58	0	1711276032	47	4129
2026-01-01 13:31:58.09	335.39	12.10	-43.0	-43.8	17.3	0.00e+00	0	58	0	1718616064	47	4218
2026-01-01 13:31:59.09	335.37	12.01	-43.1	-43.8	17.2	0.00e+00	0	58	0	1725956096	47	4232
2026-01-01 13:32:00.08	335.35	11.92	-43.1	-43.9	17.1	0.00e+00	0	58	0	1733296128	47	4273
2026-01-01 13:32:01.07	335.33	11.82	-43.1	-43.9	17.1	0.00e+00	0	58	0	1740636160	47	4267
2026-01-01 13:32:02.05	335.31	11.73	-43.0	-43.8	17.2	0.00e+00	0	58	0	1746927616	47	4220
2026-01-01 13:32:03.04	335.29	11.64	-43.1	-43.9	17.1	0.00e+00	0	58	0	1754267648	47	4259
2026-01-01 13:32:04.03	335.27	11.55	-42.9	-43.6	17.4	0.00e+00	0	58	0	1761607680	47	4121
2026-01-01 13:32:05.03	335.25	11.46	-42.8	-43.6	17.5	0.00e+00	0	58	0	1768947712	47	4101
2026-01-01 13:32:06.01	335.23	11.37	-42.8	-43.6	17.4	0.00e+00	0	58	0	1776287744	47	4112
2026-01-01 13:32:07.00	335.21	11.28	-42.9	-43.6	17.4	0.00e+00	0	58	0	1782579200	47	4127
2026-01-01 13:32:07.99	335.19	11.19	-43.1	-43.8	17.1	0.00e+00	0	58	0	1789919232	47	4235
2026-01-01 13:32:08.98	335.17	11.10	-43.0	-43.7	17.3	0.00e+00	0	58	0	1797259264	47	4181
2026-01-01 13:32:09.97	335.15	11.01	-43.1	-43.9	17.2	0.00e+00	0	58	0	1804599296	47	4246
2026-01-01 13:32:10.96	335.13	10.92	-43.1	-43.8	17.1	0.00e+00	0	58	0	1811939328	47	4239
2026-01-01 13:32:11.94	335.11	10.84	-43.0	-43.8	17.2	0.00e+00	0	58	0	1818230784	47	4232
2026-01-01 13:32:12.93	335.09	10.75	-43.1	-43.9	17.1	0.00e+00	0	58	0	1825570816	47	4281
2026-01-01 13:32:13.92	335.07	10.66	-43.4	-44.2	17.1	0.00e+00	0	58	0	1832910848	48	4146
2026-01-01 13:32:14.92	335.05	10.57	-43.3	-44.1	17.1	0.00e+00	0	58	0	1840250880	48	4114
2026-01-01 13:32:15.91	335.04	10.49	-43.4	-44.2	17.0	0.00e+00	0	58	0	1847590912	48	4154
2026-01-01 13:32:16.89	335.02	10.40	-43.6	-44.4	16.8	0.00e+00	0	58	0	1853882368	48	4271
2026-01-01 13:32:17.89	335.00	10.31	-43.5	-44.4	16.8	0.00e+00	0	58	0	1861222400	48	4249
2026-01-01 13:32:18.88	334.98	10.23	-43.6	-44.4	16.7	0.00e+00	0	58	0	1868562432	48	4279
2026-01-01 13:32:19.86	334.96	10.14	-43.9	-44.8	16.4	0.00e+00	0	58	0	1875902464	49	4208
2026-01-01 13:32:20.85	334.95	10.06	-43.8	-44.7	16.5	0.00e+00	0	58	0	1883242496	49	4159
2026-01-01 13:32:21.84	334.93	9.97	-43.7	-44.5	16.7	0.00e+00	0	58	0	1890582528	49	4081
2026-01-01 13:32:22.83	334.91	9.88	-43.8	-44.7	16.5	0.00e+00	0	58	0	1896873984	49	4146
2026-01-01 13:32:23.83	334.89	9.80	-43.8	-44.7	16.5	0.00e+00	0	58	0	1904214016	49	4152
2026-01-01 13:32:24.82	334.88	9.71	-43.9	-44.8	16.4	0.00e+00	0	58	0	1911554048	49	4196
2026-01-01 13:32:25.82	334.86	9.63	-44.0	-44.9	16.2	0.00e+00	0	58	0	1918894080	49	4281
2026-01-01 13:32:26.81	334.84	9.55	-43.9	-44.9	16.3	0.00e+00	0	58	0	1926234112	49	4244
2026-01-01 13:32:27.80	334.82	9.46	-43.9	-44.8	16.3	0.00e+00	0	58	0	1932525568	49	4216
2026-01-01 13:32:28.78	334.81	9.38	-43.9	-44.7	16.4	0.00e+00	0	58	0	1939865600	49	4174
2026-01-01 13:32:29.77	334.79	9.30	-43.9	-44.8	16.4	0.00e+00	0	58	0	1947205632	49	4202
2026-01-01 13:32:30.76	334.77	9.21	-44.1	-45.0	16.1	0.00e+00	0	58	0	1954545664	49	4305
2026-01-01 13:32:31.75	334.76	9.13	-44.1	-45.0	16.1	0.00e+00	0	58	0	1961885696	49	4308
2026-01-01 13:32:32.74	334.74	9.05	-44.2	-45.1	16.0	0.00e+00	0	58	0	1969225728	50	4113
2026-01-01 13:32:33.72	334.73	8.97	-44.5	-45.5	15.6	0.00e+00	0	58	0	1975517184	50	4310
2026-01-01 13:32:34.72	334.71	8.89	-44.5	-45.5	15.6	0.00e+00	0	58	0	1982857216	50	4301
2026-01-01 13:32:35.70	334.69	8.80	-44.1	-45.0	16.1	0.00e+00	0	58	0	1990197248	50	4088
2026-01-01 13:32:36.70	334.68	8.72	-44.0	-44.8	16.2	0.00e+00	0	58	0	1997537280	50	4002
2026-01-01 13:32:37.69	334.66	8.64	-43.9	-44.7	16.3	0.00e+00	0	58	0	2004877312	50	3954
2026-01-01 13:32:38.69	334.65	8.56	-43.9	-44.8	16.3	0.00e+00	0	58	0	2012217344	50	3970
2026-01-01 13:32:39.68	334.63	8.48	-44.0	-44.9	16.1	0.00e+00	0	58	0	2018508800	50	4031
2026-01-01 13:32:40.67	334.61	8.40	-44.0	-44.9	16.1	0.00e+00	0	58	0	2025848832	50	4049
2026-01-01 13:32:41.66	334.60	8.32	-44.1	-44.9	16.1	0.00e+00	0	58	0	2033188864	50	4051
2026-01-01 13:32:42.65	334.58	8.24	-44.2	-45.1	15.9	0.00e+00	0	58	0	2040528896	50	4134
2026-01-01 13:32:43.65	334.57	8.16	-44.2	-45.1	15.9	0.00e+00	0	58	0	2047868928	50	4142
2026-01-01 13:32:44.64	334.55	8.08	-44.1	-45.0	16.0	0.00e+00	0	58	0	2054160384	50	4085
2026-01-01 13:32:45.63	334.54	8.00	-44.0	-44.9	16.1	0.00e+00	0	58	0	2061500416	50	4040
2026-01-01 13:32:46.61	334.52	7.92	-44.3	-45.3	15.8	0.00e+00	0	58	0	2068840448	50	4194
2026-01-01 13:32:47.60	334.51	7.85	-44.2	-45.1	15.8	0.00e+00	0	58	0	2076180480	50	4145
2026-01-01 13:32:48.60	334.49	7.77	-44.3	-45.3	15.7	0.00e+00	0	58	0	2083520512	50	4203
2026-01-01 13:32:49.59	334.48	7.69	-44.5	-45.4	15.5	0.00e+00	0	58	0	2090860544	50	4275
2026-01-01 13:32:50.58	334.47	7.61	-44.7	-45.7	15.3	0.00e+00	0	58	0	2097152000	51	4166
2026-01-01 13:32:51.57	334.45	7.53	-44.4	-45.3	15.6	0.00e+00	0	58	0	2104492032	51	3993
2026-01-01 13:32:52.57	334.44	7.45	-44.2	-45.2	15.8	0.00e+00	0	58	0	2111832064	51	3926
2026-01-01 13:32:53.56	334.42	7.38	-44.3	-45.2	15.7	0.00e+00	0	58	0	2119172096	51	3943
2026-01-01 13:32:54.54	334.41	7.30	-44.4	-45.4	15.5	0.00e+00	0	58	0	2126512128	51	4046
2026-01-01 13:32:55.53	334.40	7.23	-44.5	-45.5	15.5	0.00e+00	0	58	0	2133852160	51	4064
2026-01-01 13:32:56.52	334.38	7.15	-44.3	-45.3	15.7	0.00e+00	0	58	0	2140143616	51	3976
2026-01-01 13:32:57.51	334.37	7.07	-44.4	-45.3	15.6	0.00e+00	0	58	0	2147483648	51	3980
2026-01-01 13:32:58.50	334.35	7.00	-44.3	-45.2	15.7	0.00e+00	0	58	0	2154823680	51	3936
2026-01-01 13:32:59.49	334.34	6.92	-44.4	-45.4	15.6	0.00e+00	0	58	0	2162163712	51	4011
2026-01-01 13:33:00.48	334.33	6.85	-44.3	-45.2	15.7	0.00e+00	0	58	0	2169503744	51	3939
2026-01-01 13:33:01.47	334.31	6.77	-44.2	-45.2	15.7	0.00e+00	0	58	0	2175795200	51	3930
2026-01-01 13:33:02.46	334.30	6.70	-44.1	-45.1	15.8	0.00e+00	0	58	0	2183135232	51	3885
2026-01-01 13:33:03.44	334.29	6.62	-44.3	-45.2	15.7	0.00e+00	0	58	0	2190475264	51	3958
2026-01-01 13:33:04.42	334.27	6.55	-44.3	-45.3	15.6	0.00e+00	0	58	0	2197815296	51	3983
2026-01-01 13:33:05.42	334.26	6.47	-44.4	-45.4	15.5	0.00e+00	0	58	0	2205155328	51	4020
2026-01-01 13:33:06.40	334.25	6.40	-44.4	-45.4	15.5	0.00e+00	0	58	0	2211446784	51	4008
2026-01-01 13:33:07.39	334.24	6.33	-44.4	-45.4	15.5	0.00e+00	0	58	0	2218786816	51	4028
2026-01-01 13:33:08.37	334.22	6.25	-44.5	-45.5	15.4	0.00e+00	0	58	0	2226126848	51	4086
2026-01-01 13:33:09.37	334.21	6.18	-44.6	-45.7	15.2	0.00e+00	0	58	0	2233466880	51	4153
2026-01-01 13:33:10.36	334.20	6.10	-44.6	-45.7	15.2	0.00e+00	0	58	0	2239758336	51	4172
2026-01-01 13:33:11.35	334.18	6.03	-44.7	-45.8	15.1	0.00e+00	0	58	0	2247098368	51	4204
2026-01-01 13:33:12.33	334.17	5.96	-44.8	-45.9	14.9	0.00e+00	0	58	0	2254438400	51	4273
2026-01-01 13:33:13.33	334.16	5.89	-45.0	-46.2	14.7	0.00e+00	0	58	0	2261778432	51	4395
2026-01-01 13:33:14.32	334.15	5.81	-44.9	-46.0	14.8	0.00e+00	0	58	0	2269118464	51	4340
2026-01-01 13:33:15.31	334.14	5.74	-45.1	-46.2	14.5	0.00e+00	0	58	0	2275409920	51	4434
2026-01-01 13:33:16.30	334.12	5.67	-44.8	-45.9	14.8	0.00e+00	0	58	0	2282749952	51	4290
2026-01-01 13:33:17.29	334.11	5.60	-44.7	-45.8	15.0	0.00e+00	0	58	0	2290089984	51	4210
2026-01-01 13:33:18.29	334.10	5.52	-44.7	-45.7	15.0	0.00e+00	0	58	0	2297430016	51	4179
2026-01-01 13:33:19.28	334.09	5.45	-44.7	-45.7	15.0	0.00e+00	0	58	0	2304770048	51	4178
2026-01-01 13:33:20.27	334.08	5.38	-45.1	-46.2	14.5	1.10e-06	0	58	0	2312110080	51	4433
2026-01-01 13:33:21.26	334.06	5.31	-45.1	-46.3	14.3	0.00e+00	0	58	0	2319450112	52	4218
2026-01-01 13:33:22.26	334.05	5.24	-44.9	-46.1	14.5	0.00e+00	0	58	0	2325741568	52	4123
2026-01-01 13:33:23.24	334.04	5.17	-44.7	-45.9	14.8	0.00e+00	0	58	0	2333081600	52	4010
2026-01-01 13:33:24.24	334.03	5.10	-44.7	-45.8	14.8	0.00e+00	0	58	0	2340421632	52	3991
2026-01-01 13:33:25.23	334.02	5.03	-51.2	-59.7	3.9	4.36e-01	0	58	0	2346713088	63	10456
2026-01-01 13:33:26.22	334.01	4.96	-48.1	-58.2	3.8	8.47e-01	0	58	104	2346713088	59	11153
2026-01-01 13:33:27.21	334.00	4.89	-47.9	-58.0	3.8	8.46e-01	0	58	104	2346713088	58	11536
2026-01-01 13:33:28.21	333.98	4.82	-50.6	-60.8	3.8	8.46e-01	0	58	104	2346713088	64	11208
2026-01-01 13:33:29.19	333.97	4.75	-52.3	-62.5	3.8	8.46e-01	0	58	104	2346713088	66	12194
2026-01-01 13:33:30.18	333.96	4.68	-52.4	-62.6	3.8	8.46e-01	0	58	104	2346713088	66	12330
2026-01-01 13:33:31.17	333.95	4.61	-52.5	-62.6	3.8	8.45e-01	0	58	104	2346713088	66	12326
2026-01-01 13:33:32.16	333.94	4.54	-52.5	-62.7	3.8	8.47e-01	0	58	104	2346713088	66	12465
2026-01-01 13:33:33.14	333.93	4.47	-52.6	-62.7	3.8	8.45e-01	0	58	104	2346713088	66	12518
2026-01-01 13:33:34.13	333.92	4.40	-52.6	-62.8	3.8	8.46e-01	0	58	104	2346713088	66	12591
2026-01-01 13:33:35.12	333.91	4.33	-52.6	-62.8	3.8	8.45e-01	0	58	104	2346713088	66	12560
2026-01-01 13:33:36.10	333.90	4.26	-52.6	-62.8	3.8	8.47e-01	0	58	104	2346713088	66	12574
2026-01-01 13:33:37.09	333.89	4.20	-52.7	-62.8	3.8	8.46e-01	0	58	104	2346713088	66	12641
2026-01-01 13:33:38.08	333.88	4.13	-52.6	-62.9	3.8	8.47e-01	0	58	104	2346713088	66	12678
2026-01-01 13:33:39.07	333.87	4.06	-52.6	-62.9	3.8	8.46e-01	0	58	104	2346713088	67	11964
2026-01-01 13:33:40.06	333.86	3.99	-52.7	-62.8	3.8	8.46e-01	0	58	104	2346713088	67	11923
2026-01-01 13:33:41.05	333.85	3.93	-52.6	-62.8	3.8	8.46e-01	0	58	104	2346713088	67	11893
2026-01-01 13:33:42.04	333.84	3.86	-52.6	-62.9	3.8	8.46e-01	0	58	104	2346713088	67	12004
2026-01-01 13:33:43.02	333.83	3.79	-52.7	-62.9	3.8	8.46e-01	0	58	104	2346713088	67	11980
2026-01-01 13:33:44.02	333.82	3.72	-52.7	-62.9	3.8	8.46e-01	0	58	104	2346713088	67	11964
2026-01-01 13:33:45.01	333.81	3.66	-52.5	-62.9	3.8	8.46e-01	0	58	104	2346713088	67	12035
2026-01-01 13:33:46.01	333.80	3.59	-52.7	-62.9	3.8	8.48e-01	0	58	104	2346713088	67	12071
2026-01-01 13:33:47.00	333.79	3.52	-52.7	-62.9	3.8	8.46e-01	0	58	104	2346713088	67	12060
2026-01-01 13:33:47.99	333.78	3.46	-52.7	-62.9	3.8	8.46e-01	0	58	104	2346713088	67	12066
2026-01-01 13:33:48.98	333.77	3.39	-52.7	-62.9	3.8	8.46e-01	0	58	104	2346713088	67	12046
2026-01-01 13:33:49.98	333.76	3.32	-52.7	-62.9	3.8	8.46e-01	0	58	104	2346713088	67	12070
2026-01-01 13:33:50.97	333.75	3.26	-52.7	-62.9	3.8	8.47e-01	0	58	104	2346713088	67	12059
2026-01-01 13:33:51.96	333.74	3.19	-52.7	-63.0	3.8	8.48e-01	0	58	104	2346713088	67	12126
2026-01-01 13:33:52.94	333.73	3.13	-52.7	-62.9	3.8	8.47e-01	0	58	104	2346713088	67	12032
2026-01-01 13:33:53.93	333.72	3.06	-52.7	-62.9	3.8	8.46e-01	0	58	104	2346713088	67	12042
2026-01-01 13:33:54.92	333.71	2.99	-52.7	-62.9	3.8	8.47e-01	0	58	104	2346713088	67	12001
2026-01-01 13:33:55.91	333.70	2.93	-52.7	-62.9	3.8	8.46e-01	0	58	104	2346713088	67	12010
2026-01-01 13:33:56.90	333.69	2.86	-52.7	-62.9	3.8	8.45e-01	0	58	104	2346713088	67	11993

#Closed at: 2026-01-01 13:33:57
#Recorded file [2346 MB]: D:/Data/31026_260101_163325.dat