passes_logs/2026/01/01/R3.0SM8_Murmansk_STILSPACE/R3.0SM8_Murmansk_STILSPACE__20260101_121342_SUOMI_NPP_rec.log

#Pass ID: 20260101_121342_SUOMI NPP
#Satellite: SUOMI NPP
#Configuration: NPP
#almurnet v.1.7.20240730
#Start time: 2026-01-01 12:13:43

#Version: 2.2.20231116
#Station: R3.0SM8_Murmansk_STILSPACE
#Location: 33.092731 lon 68.902999 lat
#TLE: 1 37849U 11061A   25364.87906317  .00000195  00000+0  11345-3 0  9992
#TLE: 2 37849  98.7794 302.0592 0002571  89.2401 270.9069 14.19520347734561

#Time	Az	El	Level	Level2	SNR	BER	BlckErr	Temp	State	Recorded	gain1	gain2
2026-01-01 12:13:43.97	220.34	3.10	-52.5	-66.3	3.8	1.49e+00	0	45	0	0	66	18966
2026-01-01 12:13:44.97	220.42	3.16	-52.2	-66.2	3.8	1.49e+00	0	45	104	0	67	17704
2026-01-01 12:13:45.96	220.51	3.21	-52.3	-66.1	3.8	1.49e+00	0	46	104	0	67	17575
2026-01-01 12:13:46.95	220.59	3.26	-52.1	-66.0	3.8	1.49e+00	0	46	104	0	67	17370
2026-01-01 12:13:47.93	220.67	3.32	-51.9	-65.7	3.8	1.49e+00	0	46	104	0	66	17876
2026-01-01 12:13:48.93	220.76	3.37	-51.7	-65.5	3.8	1.49e+00	0	46	104	0	66	17433
2026-01-01 12:13:49.91	220.84	3.43	-51.4	-65.2	3.8	1.49e+00	0	46	104	0	65	17705
2026-01-01 12:13:50.90	220.92	3.48	-51.0	-64.7	3.8	1.49e+00	0	46	104	0	65	16800
2026-01-01 12:13:51.89	221.01	3.53	-50.9	-64.6	3.8	1.49e+00	0	46	104	0	64	17642
2026-01-01 12:13:52.89	221.09	3.59	-50.9	-64.6	3.8	1.49e+00	0	46	104	0	64	17571
2026-01-01 12:13:53.88	221.18	3.64	-50.8	-64.6	3.8	1.49e+00	0	46	104	0	64	17613
2026-01-01 12:13:54.86	221.26	3.70	-50.9	-64.6	3.8	1.49e+00	0	46	104	0	64	17602
2026-01-01 12:13:55.85	221.35	3.75	-50.9	-64.6	3.8	1.49e+00	0	47	104	0	64	17604
2026-01-01 12:13:56.84	221.43	3.81	-50.9	-64.6	3.8	1.49e+00	0	47	104	0	64	17607
2026-01-01 12:13:57.82	221.52	3.86	-50.8	-64.7	3.8	1.49e+00	0	47	104	0	64	17684
2026-01-01 12:13:58.81	221.60	3.92	-50.8	-64.6	3.8	1.49e+00	0	47	104	0	64	17676
2026-01-01 12:13:59.79	221.69	3.97	-50.9	-64.6	3.8	1.49e+00	0	47	104	0	64	17618
2026-01-01 12:14:00.78	221.77	4.02	-50.8	-64.6	3.8	1.49e+00	0	47	104	0	64	17560
2026-01-01 12:14:01.78	221.86	4.08	-50.8	-64.5	3.8	1.49e+00	0	47	104	0	64	17426
2026-01-01 12:14:02.76	221.95	4.13	-50.7	-64.5	3.8	1.49e+00	0	47	104	0	64	17408
2026-01-01 12:14:03.75	222.04	4.19	-50.9	-64.4	3.8	1.49e+00	0	47	104	0	64	17086
2026-01-01 12:14:04.74	222.12	4.24	-50.8	-64.1	3.8	1.49e+00	0	47	104	0	64	16510
2026-01-01 12:14:05.72	222.21	4.30	-50.8	-63.9	3.8	1.49e+00	0	47	104	0	64	16137
2026-01-01 12:14:06.70	222.30	4.35	-50.8	-63.5	3.8	1.49e+00	0	47	104	0	64	15482
2026-01-01 12:14:07.69	222.39	4.41	-50.8	-63.0	3.8	1.49e+00	0	47	104	0	64	14570
2026-01-01 12:14:08.68	222.48	4.46	-50.7	-62.6	3.8	1.49e+00	0	47	104	0	64	13904
2026-01-01 12:14:09.67	222.57	4.52	-50.7	-62.2	4.0	1.49e+00	0	47	104	0	64	13326
2026-01-01 12:14:10.66	222.66	4.57	-50.7	-61.8	4.0	1.45e+00	0	47	0	0	64	12755
2026-01-01 12:14:11.65	222.75	4.63	-50.7	-61.7	3.9	1.44e+00	0	48	104	0	64	12530
2026-01-01 12:14:12.65	222.84	4.69	-50.7	-61.5	4.1	1.43e+00	0	48	0	0	64	12368
2026-01-01 12:14:13.63	222.93	4.74	-50.7	-62.1	3.8	1.47e+00	0	48	104	0	64	13249
2026-01-01 12:14:14.62	223.02	4.80	-50.7	-62.4	3.8	1.48e+00	0	48	104	0	64	13636
2026-01-01 12:14:15.61	223.11	4.85	-50.6	-62.8	3.9	1.49e+00	0	48	104	0	64	14290
2026-01-01 12:14:16.60	223.20	4.91	-50.7	-63.3	3.8	1.49e+00	0	48	104	0	64	15095
2026-01-01 12:14:17.59	223.30	4.96	-50.8	-63.0	3.8	1.49e+00	0	48	104	0	64	14580
2026-01-01 12:14:18.57	223.39	5.02	-50.7	-62.3	3.8	1.49e+00	0	48	104	0	64	13557
2026-01-01 12:14:19.56	223.48	5.08	-50.6	-61.5	4.1	1.47e+00	0	48	104	0	64	12243
2026-01-01 12:14:20.55	223.57	5.13	-50.6	-61.5	4.1	1.40e+00	0	48	0	0	64	12297
2026-01-01 12:14:21.54	223.67	5.19	-50.7	-61.9	3.9	1.47e+00	0	48	104	0	64	12878
2026-01-01 12:14:22.53	223.76	5.24	-50.7	-61.0	4.3	1.39e+00	0	48	0	0	63	12273
2026-01-01 12:14:23.53	223.86	5.30	-50.4	-60.0	4.6	1.15e+00	0	48	0	1048576	63	10913
2026-01-01 12:14:24.51	223.95	5.36	-50.3	-58.9	5.2	7.98e-01	0	49	0	3145728	63	9637
2026-01-01 12:14:25.51	224.04	5.41	-50.3	-58.2	5.7	4.86e-01	0	49	0	5242880	63	8883
2026-01-01 12:14:26.50	224.14	5.47	-50.1	-57.2	6.4	3.20e-01	0	48	0	6291456	63	7921
2026-01-01 12:14:27.50	224.24	5.53	-50.0	-56.7	6.9	1.91e-01	0	49	0	8388608	62	7910
2026-01-01 12:14:28.48	224.33	5.58	-49.9	-56.3	7.2	1.61e-01	0	49	0	10485760	62	7609
2026-01-01 12:14:29.47	224.43	5.64	-49.9	-55.8	7.7	1.09e-01	0	49	0	12582912	62	7163
2026-01-01 12:14:30.45	224.52	5.69	-49.8	-55.6	7.9	7.82e-02	0	49	0	13631488	62	6990
2026-01-01 12:14:31.44	224.62	5.75	-49.7	-55.5	7.9	6.99e-02	0	49	0	15728640	62	6956
2026-01-01 12:14:32.43	224.72	5.81	-49.8	-55.5	8.0	6.91e-02	0	49	0	17825792	62	6946
2026-01-01 12:14:33.42	224.82	5.86	-49.7	-55.6	7.9	7.51e-02	0	49	0	19922944	62	6983
2026-01-01 12:14:34.41	224.91	5.92	-49.8	-55.7	7.7	8.13e-02	0	49	0	22020096	62	7086
2026-01-01 12:14:35.39	225.01	5.98	-49.8	-55.5	8.0	6.68e-02	0	49	0	23068672	62	6901
2026-01-01 12:14:36.38	225.11	6.03	-49.7	-55.4	8.1	5.83e-02	0	49	0	25165824	62	6844
2026-01-01 12:14:37.37	225.21	6.09	-49.7	-55.5	8.0	5.80e-02	0	49	0	27262976	62	6932
2026-01-01 12:14:38.36	225.31	6.15	-49.7	-55.4	8.1	7.09e-02	0	49	0	28311552	62	6855
2026-01-01 12:14:39.36	225.41	6.21	-49.7	-55.5	8.0	6.13e-02	0	50	0	30408704	62	6918
2026-01-01 12:14:40.34	225.51	6.26	-49.8	-55.8	7.8	7.25e-02	0	49	0	32505856	62	7152
2026-01-01 12:14:41.33	225.61	6.32	-49.8	-55.6	7.9	7.06e-02	0	49	0	34603008	62	6996
2026-01-01 12:14:42.32	225.71	6.38	-49.8	-55.9	7.7	8.14e-02	0	49	0	36700160	62	7214
2026-01-01 12:14:43.30	225.81	6.43	-49.9	-56.1	7.5	1.03e-01	0	49	0	37748736	62	7441
2026-01-01 12:14:44.29	225.91	6.49	-49.9	-55.9	7.7	9.57e-02	0	50	0	39845888	62	7255
2026-01-01 12:14:45.29	226.02	6.55	-49.8	-55.8	7.8	8.38e-02	0	50	0	41943040	62	7144
2026-01-01 12:14:46.27	226.12	6.61	-49.9	-56.0	7.6	8.52e-02	0	50	0	44040192	62	7304
2026-01-01 12:14:47.26	226.22	6.66	-49.8	-56.0	7.6	1.00e-01	0	50	0	45088768	62	7290
2026-01-01 12:14:48.24	226.32	6.72	-49.8	-55.9	7.7	9.11e-02	0	50	0	47185920	62	7224
2026-01-01 12:14:49.23	226.43	6.78	-49.9	-56.0	7.5	9.19e-02	0	50	0	49283072	62	7356
2026-01-01 12:14:50.22	226.53	6.83	-49.8	-56.0	7.5	9.37e-02	0	50	0	51380224	62	7358
2026-01-01 12:14:51.21	226.64	6.89	-49.7	-55.8	7.7	1.01e-01	0	50	0	52428800	62	7190
2026-01-01 12:14:52.20	226.74	6.95	-49.8	-56.1	7.5	1.10e-01	0	50	0	54525952	62	7392
2026-01-01 12:14:53.19	226.85	7.01	-49.8	-55.8	7.7	9.64e-02	0	50	0	56623104	62	7168
2026-01-01 12:14:54.18	226.95	7.07	-49.8	-55.9	7.7	8.85e-02	0	50	0	58720256	62	7211
2026-01-01 12:14:55.17	227.06	7.12	-49.8	-55.9	7.6	9.85e-02	0	50	0	60817408	62	7257
2026-01-01 12:14:56.16	227.17	7.18	-49.8	-55.5	8.1	7.84e-02	0	50	0	61865984	62	6903
2026-01-01 12:14:57.15	227.27	7.24	-49.7	-55.2	8.3	6.38e-02	0	50	0	63963136	62	6705
2026-01-01 12:14:58.14	227.38	7.30	-49.6	-55.1	8.4	4.64e-02	0	50	0	66060288	62	6639
2026-01-01 12:14:59.13	227.49	7.36	-49.7	-55.2	8.4	4.70e-02	0	50	0	68157440	62	6685
2026-01-01 12:15:00.11	227.60	7.41	-49.7	-55.0	8.6	3.89e-02	0	50	0	69206016	62	6514
2026-01-01 12:15:01.09	227.70	7.47	-49.6	-54.9	8.7	3.19e-02	0	50	0	71303168	62	6466
2026-01-01 12:15:02.08	227.81	7.53	-49.7	-55.0	8.6	3.74e-02	0	51	0	73400320	62	6540
2026-01-01 12:15:03.07	227.92	7.59	-49.6	-54.8	8.7	3.08e-02	0	50	0	75497472	62	6407
2026-01-01 12:15:04.05	228.03	7.65	-49.6	-54.7	8.9	2.83e-02	0	51	0	76546048	62	6288
2026-01-01 12:15:05.04	228.14	7.70	-49.6	-54.8	8.9	2.78e-02	0	51	0	78643200	62	6393
2026-01-01 12:15:06.03	228.25	7.76	-49.6	-54.6	9.0	2.86e-02	0	51	0	80740352	62	6263
2026-01-01 12:15:07.02	228.36	7.82	-49.5	-54.6	9.1	2.13e-02	0	51	0	82837504	62	6217
2026-01-01 12:15:08.01	228.47	7.88	-49.6	-54.7	9.0	2.34e-02	0	51	0	84934656	62	6295
2026-01-01 12:15:09.01	228.59	7.94	-49.4	-54.4	9.2	2.28e-02	0	51	0	85983232	61	6428
2026-01-01 12:15:09.99	228.70	8.00	-49.3	-54.0	9.7	1.55e-02	0	51	0	88080384	61	6153
2026-01-01 12:15:10.99	228.81	8.06	-49.4	-54.1	9.5	1.27e-02	0	51	0	90177536	61	6234
2026-01-01 12:15:11.98	228.93	8.11	-49.2	-53.8	9.9	1.15e-02	0	51	0	92274688	61	6026
2026-01-01 12:15:12.97	229.04	8.17	-49.2	-53.8	9.9	8.47e-03	0	51	0	93323264	61	6015
2026-01-01 12:15:13.97	229.16	8.23	-49.1	-53.7	10.0	8.06e-03	0	51	0	95420416	61	5957
2026-01-01 12:15:14.95	229.27	8.29	-49.2	-53.6	10.1	7.09e-03	0	51	0	97517568	61	5907
2026-01-01 12:15:15.95	229.39	8.35	-49.3	-53.8	9.9	7.31e-03	0	51	0	99614720	61	6032
2026-01-01 12:15:16.94	229.50	8.41	-49.4	-54.1	9.6	8.64e-03	0	51	0	101711872	61	6272
2026-01-01 12:15:17.93	229.62	8.47	-49.3	-53.8	10.0	9.31e-03	0	51	0	102760448	61	6001
2026-01-01 12:15:18.92	229.73	8.53	-49.2	-53.4	10.3	5.19e-03	0	51	0	104857600	61	5755
2026-01-01 12:15:19.91	229.85	8.59	-49.0	-53.1	10.7	3.55e-03	0	51	0	106954752	61	5556
2026-01-01 12:15:20.90	229.97	8.64	-49.0	-53.0	10.8	3.05e-03	0	51	0	109051904	61	5481
2026-01-01 12:15:21.89	230.09	8.70	-48.9	-52.9	10.9	2.09e-03	0	51	0	110100480	60	5723
2026-01-01 12:15:22.89	230.20	8.76	-49.0	-53.0	10.9	2.52e-03	0	51	0	112197632	60	5804
2026-01-01 12:15:23.87	230.32	8.82	-49.1	-53.3	10.6	2.82e-03	0	51	0	114294784	60	5998
2026-01-01 12:15:24.86	230.44	8.88	-49.0	-53.0	10.9	2.99e-03	0	51	0	116391936	60	5792
2026-01-01 12:15:25.85	230.56	8.94	-49.0	-52.8	11.0	1.87e-03	0	52	0	117440512	60	5690
2026-01-01 12:15:26.84	230.68	9.00	-48.8	-52.6	11.3	1.45e-03	0	51	0	119537664	60	5529
2026-01-01 12:15:27.83	230.80	9.06	-48.8	-52.6	11.3	1.39e-03	0	51	0	121634816	60	5552
2026-01-01 12:15:28.81	230.92	9.12	-48.8	-52.6	11.3	1.08e-03	0	51	0	123731968	60	5550
2026-01-01 12:15:29.80	231.04	9.18	-49.0	-52.8	11.1	1.28e-03	0	52	0	124780544	60	5664
2026-01-01 12:15:30.79	231.17	9.24	-48.8	-52.4	11.5	1.25e-03	0	52	0	126877696	60	5439
2026-01-01 12:15:31.77	231.29	9.29	-48.7	-52.4	11.6	7.95e-04	0	52	0	128974848	60	5422
2026-01-01 12:15:32.76	231.41	9.35	-48.8	-52.3	11.6	6.51e-04	0	52	0	131072000	60	5360
2026-01-01 12:15:33.75	231.53	9.41	-48.6	-52.2	11.8	6.55e-04	0	52	0	133169152	60	5304
2026-01-01 12:15:34.74	231.66	9.47	-48.9	-52.5	11.5	7.52e-04	0	52	0	134217728	60	5469
2026-01-01 12:15:35.72	231.78	9.53	-48.8	-52.4	11.6	9.31e-04	0	52	0	136314880	60	5443
2026-01-01 12:15:36.72	231.91	9.59	-48.7	-52.2	11.9	6.07e-04	0	52	0	138412032	60	5299
2026-01-01 12:15:37.71	232.03	9.65	-48.7	-52.2	11.8	3.91e-04	0	52	0	140509184	60	5340
2026-01-01 12:15:38.69	232.16	9.71	-48.7	-52.1	12.0	4.29e-04	0	52	0	141557760	60	5248
2026-01-01 12:15:39.69	232.28	9.77	-48.8	-52.3	11.8	3.79e-04	0	52	0	143654912	60	5344
2026-01-01 12:15:40.68	232.41	9.83	-48.7	-52.2	11.9	4.07e-04	0	52	0	145752064	60	5286
2026-01-01 12:15:41.66	232.54	9.89	-48.7	-52.3	11.9	4.18e-04	0	52	0	147849216	60	5362
2026-01-01 12:15:42.65	232.66	9.95	-49.0	-52.5	11.6	4.40e-04	0	52	0	148897792	60	5508
2026-01-01 12:15:43.64	232.79	10.01	-48.8	-52.2	12.0	6.76e-04	0	52	0	150994944	60	5311
2026-01-01 12:15:44.62	232.92	10.07	-48.7	-52.2	12.0	3.58e-04	0	52	0	153092096	60	5307
2026-01-01 12:15:45.62	233.05	10.13	-48.7	-52.1	12.1	3.00e-04	0	52	0	155189248	60	5224
2026-01-01 12:15:46.62	233.18	10.19	-48.9	-52.2	12.0	3.65e-04	0	52	0	157286400	60	5338
2026-01-01 12:15:47.61	233.31	10.25	-48.8	-52.2	12.0	3.65e-04	0	52	0	158334976	60	5315
2026-01-01 12:15:48.60	233.44	10.31	-48.8	-52.1	12.1	2.09e-04	0	52	0	160432128	60	5252
2026-01-01 12:15:49.60	233.58	10.37	-48.8	-52.2	12.1	2.94e-04	0	52	0	162529280	60	5327
2026-01-01 12:15:50.59	233.71	10.43	-48.8	-52.3	11.9	3.83e-04	0	52	0	164626432	60	5372
2026-01-01 12:15:51.58	233.84	10.49	-48.7	-51.9	12.5	1.52e-04	0	52	0	165675008	60	5131
2026-01-01 12:15:52.56	233.97	10.55	-48.5	-51.4	12.9	5.26e-05	0	52	0	167772160	59	5140
2026-01-01 12:15:53.55	234.11	10.61	-48.4	-51.3	13.0	2.13e-05	0	52	0	169869312	59	5062
2026-01-01 12:15:54.54	234.24	10.67	-48.4	-51.1	13.2	2.28e-05	0	53	0	171966464	59	4959
2026-01-01 12:15:55.53	234.38	10.73	-48.3	-51.0	13.4	1.22e-05	0	52	0	174063616	59	4907
2026-01-01 12:15:56.52	234.51	10.79	-48.3	-51.0	13.4	1.37e-05	0	52	0	175112192	59	4902
2026-01-01 12:15:57.51	234.65	10.85	-48.2	-50.8	13.6	8.30e-06	0	53	0	177209344	59	4776
2026-01-01 12:15:58.49	234.78	10.91	-48.2	-50.8	13.6	9.10e-06	0	53	0	179306496	59	4768
2026-01-01 12:15:59.48	234.92	10.97	-48.1	-50.6	13.8	5.30e-06	0	53	0	181403648	59	4669
2026-01-01 12:16:00.48	235.06	11.03	-48.1	-50.6	13.8	7.60e-06	0	53	0	182452224	59	4694
2026-01-01 12:16:01.47	235.19	11.09	-47.9	-50.4	14.0	2.20e-06	0	53	0	184549376	59	4590
2026-01-01 12:16:02.46	235.33	11.15	-48.0	-50.5	14.0	3.00e-06	0	53	0	186646528	59	4600
2026-01-01 12:16:03.45	235.47	11.21	-48.2	-50.9	13.6	5.30e-06	0	53	0	188743680	59	4851
2026-01-01 12:16:04.44	235.61	11.26	-48.2	-50.7	13.8	1.50e-06	0	53	0	189792256	59	4746
2026-01-01 12:16:05.43	235.75	11.32	-48.1	-50.8	13.8	4.50e-06	0	53	0	191889408	59	4761
2026-01-01 12:16:06.42	235.89	11.38	-48.1	-50.7	13.8	3.80e-06	0	53	0	193986560	59	4753
2026-01-01 12:16:07.41	236.03	11.44	-48.1	-50.8	13.8	7.60e-06	0	53	0	196083712	59	4773
2026-01-01 12:16:08.40	236.17	11.50	-48.0	-50.6	14.0	2.20e-06	0	53	0	198180864	59	4681
2026-01-01 12:16:09.39	236.32	11.56	-48.1	-50.7	13.8	3.80e-06	0	53	0	199229440	59	4759
2026-01-01 12:16:10.38	236.46	11.62	-48.1	-50.7	13.9	8.30e-06	0	53	0	201326592	59	4724
2026-01-01 12:16:11.36	236.60	11.68	-48.1	-50.6	14.0	3.00e-06	0	53	0	203423744	59	4686
2026-01-01 12:16:12.35	236.75	11.74	-48.0	-50.5	14.1	1.50e-06	0	53	0	205520896	59	4647
2026-01-01 12:16:13.35	236.89	11.80	-48.0	-50.5	14.2	2.20e-06	0	53	0	206569472	59	4600
2026-01-01 12:16:14.34	237.04	11.86	-48.1	-50.7	14.0	1.50e-06	0	53	0	208666624	59	4709
2026-01-01 12:16:15.33	237.18	11.92	-48.1	-50.6	14.0	3.80e-06	0	53	0	210763776	59	4698
2026-01-01 12:16:16.33	237.33	11.98	-48.0	-50.5	14.2	1.50e-06	0	53	0	212860928	59	4607
2026-01-01 12:16:17.32	237.48	12.04	-48.1	-50.5	14.2	5.30e-06	0	53	0	214958080	59	4632
2026-01-01 12:16:18.31	237.62	12.10	-48.2	-50.6	14.1	3.00e-06	0	53	0	216006656	59	4699
2026-01-01 12:16:19.30	237.77	12.16	-48.2	-50.8	13.9	1.50e-06	0	53	0	218103808	59	4785
2026-01-01 12:16:20.29	237.92	12.22	-48.1	-50.5	14.3	1.50e-06	0	53	0	220200960	59	4611
2026-01-01 12:16:21.27	238.07	12.28	-48.0	-50.3	14.4	7.00e-07	0	53	0	222298112	59	4523
2026-01-01 12:16:22.26	238.22	12.34	-47.9	-50.2	14.4	1.50e-06	0	53	0	223346688	59	4485
2026-01-01 12:16:23.25	238.37	12.40	-47.7	-49.9	14.8	0.00e+00	0	53	0	225443840	58	4593
2026-01-01 12:16:24.24	238.52	12.46	-47.8	-50.1	14.7	7.00e-07	0	53	0	227540992	58	4668
2026-01-01 12:16:25.23	238.67	12.52	-47.6	-49.7	15.1	0.00e+00	0	53	0	229638144	58	4458
2026-01-01 12:16:26.22	238.82	12.58	-47.6	-49.6	15.2	0.00e+00	0	53	0	230686720	58	4438
2026-01-01 12:16:27.20	238.97	12.64	-47.6	-49.6	15.2	0.00e+00	0	53	0	232783872	58	4433
2026-01-01 12:16:28.19	239.13	12.70	-47.5	-49.6	15.2	0.00e+00	0	53	0	234881024	58	4434
2026-01-01 12:16:29.19	239.28	12.76	-47.6	-49.7	15.1	0.00e+00	0	53	0	236978176	58	4443
2026-01-01 12:16:30.17	239.43	12.82	-47.7	-49.8	15.1	0.00e+00	0	54	0	238026752	58	4512
2026-01-01 12:16:31.16	239.59	12.87	-47.5	-49.6	15.3	0.00e+00	0	54	0	240123904	58	4395
2026-01-01 12:16:32.15	239.74	12.93	-47.4	-49.4	15.4	0.00e+00	0	54	0	242221056	57	4551
2026-01-01 12:16:33.14	239.90	12.99	-47.4	-49.4	15.4	0.00e+00	0	53	0	244318208	57	4582
2026-01-01 12:16:34.14	240.06	13.05	-47.3	-49.3	15.5	0.00e+00	0	54	0	246415360	57	4538
2026-01-01 12:16:35.12	240.22	13.11	-47.6	-49.8	15.1	0.00e+00	0	53	0	247463936	57	4770
2026-01-01 12:16:36.11	240.37	13.17	-47.5	-49.6	15.3	0.00e+00	0	53	0	249561088	57	4652
2026-01-01 12:16:37.10	240.53	13.23	-47.6	-49.7	15.1	0.00e+00	0	53	0	251658240	57	4740
2026-01-01 12:16:38.10	240.69	13.29	-47.8	-50.0	14.9	0.00e+00	0	54	0	253755392	57	4879
2026-01-01 12:16:39.08	240.85	13.35	-47.7	-49.8	15.0	7.00e-07	0	54	0	254803968	57	4783
2026-01-01 12:16:40.07	241.01	13.41	-47.6	-49.7	15.1	0.00e+00	0	54	0	256901120	57	4739
2026-01-01 12:16:41.06	241.17	13.46	-47.5	-49.6	15.3	0.00e+00	0	54	0	258998272	57	4689
2026-01-01 12:16:42.06	241.34	13.52	-47.9	-50.1	14.8	0.00e+00	0	54	0	261095424	57	4930
2026-01-01 12:16:43.04	241.50	13.58	-47.5	-49.6	15.3	0.00e+00	0	54	0	262144000	57	4661
2026-01-01 12:16:44.04	241.66	13.64	-47.4	-49.5	15.4	0.00e+00	0	54	0	264241152	57	4601
2026-01-01 12:16:45.02	241.82	13.70	-47.3	-49.3	15.6	0.00e+00	0	54	0	266338304	57	4519
2026-01-01 12:16:46.01	241.99	13.76	-47.5	-49.6	15.4	0.00e+00	0	54	0	268435456	57	4654
2026-01-01 12:16:47.01	242.15	13.82	-47.6	-49.7	15.2	0.00e+00	0	54	0	270532608	57	4753
2026-01-01 12:16:48.00	242.32	13.87	-47.8	-49.9	15.0	0.00e+00	0	54	0	271581184	57	4860
2026-01-01 12:16:48.99	242.49	13.93	-47.9	-50.1	14.9	0.00e+00	0	54	0	273678336	57	4943
2026-01-01 12:16:49.99	242.65	13.99	-48.0	-50.2	14.7	0.00e+00	0	54	0	275775488	57	5028
2026-01-01 12:16:50.98	242.82	14.05	-48.0	-50.3	14.7	7.00e-07	0	54	0	277872640	57	5062
2026-01-01 12:16:51.97	242.99	14.11	-48.0	-50.2	14.7	0.00e+00	0	54	0	278921216	57	5006
2026-01-01 12:16:52.96	243.16	14.16	-48.0	-50.2	14.8	7.00e-07	0	54	0	281018368	57	5015
2026-01-01 12:16:53.95	243.33	14.22	-47.8	-49.8	15.1	7.00e-07	0	54	0	283115520	57	4791
2026-01-01 12:16:54.95	243.50	14.28	-47.6	-49.6	15.3	0.00e+00	0	54	0	285212672	57	4681
2026-01-01 12:16:55.94	243.67	14.34	-47.6	-49.6	15.4	0.00e+00	0	54	0	287309824	57	4659
2026-01-01 12:16:56.93	243.84	14.40	-47.5	-49.4	15.6	0.00e+00	0	54	0	288358400	57	4556
2026-01-01 12:16:57.92	244.01	14.45	-47.5	-49.4	15.6	0.00e+00	0	54	0	290455552	57	4552
2026-01-01 12:16:58.91	244.18	14.51	-47.7	-49.7	15.2	0.00e+00	0	54	0	292552704	57	4748
2026-01-01 12:16:59.89	244.36	14.57	-47.6	-49.6	15.3	0.00e+00	0	54	0	294649856	57	4698
2026-01-01 12:17:00.88	244.53	14.62	-47.7	-49.7	15.3	0.00e+00	0	54	0	295698432	57	4740
2026-01-01 12:17:01.87	244.70	14.68	-47.7	-49.8	15.2	0.00e+00	0	54	0	297795584	57	4769
2026-01-01 12:17:02.86	244.88	14.74	-47.7	-49.8	15.2	0.00e+00	0	54	0	299892736	57	4772
2026-01-01 12:17:03.85	245.05	14.79	-47.5	-49.5	15.4	0.00e+00	0	54	0	301989888	57	4645
2026-01-01 12:17:04.84	245.23	14.85	-47.7	-49.8	15.2	0.00e+00	0	54	0	303038464	57	4769
2026-01-01 12:17:05.83	245.41	14.91	-47.4	-49.4	15.6	0.00e+00	0	54	0	305135616	57	4549
2026-01-01 12:17:06.81	245.58	14.96	-47.2	-49.1	15.9	0.00e+00	0	54	0	307232768	57	4396
2026-01-01 12:17:07.81	245.76	15.02	-47.1	-48.9	16.0	0.00e+00	0	54	0	309329920	57	4334
2026-01-01 12:17:08.79	245.94	15.07	-47.3	-49.1	15.9	0.00e+00	0	54	0	311427072	57	4412
2026-01-01 12:17:09.78	246.12	15.13	-47.2	-49.0	16.0	0.00e+00	0	54	0	312475648	57	4367
2026-01-01 12:17:10.78	246.30	15.19	-47.1	-48.9	16.1	0.00e+00	0	54	0	314572800	57	4302
2026-01-01 12:17:11.77	246.48	15.24	-47.1	-48.9	16.1	0.00e+00	0	54	0	316669952	57	4319
2026-01-01 12:17:12.75	246.66	15.30	-47.0	-48.8	16.0	0.00e+00	0	54	0	318767104	57	4253
2026-01-01 12:17:13.74	246.85	15.35	-47.0	-48.8	16.1	0.00e+00	0	54	0	319815680	57	4288
2026-01-01 12:17:14.73	247.03	15.41	-47.0	-48.8	16.2	0.00e+00	0	54	0	321912832	57	4252
2026-01-01 12:17:15.71	247.21	15.46	-47.1	-48.8	16.2	0.00e+00	0	54	0	324009984	57	4273
2026-01-01 12:17:16.71	247.40	15.52	-47.2	-49.1	15.9	0.00e+00	0	54	0	326107136	57	4400
2026-01-01 12:17:17.70	247.58	15.57	-47.1	-49.0	16.0	0.00e+00	0	54	0	327155712	57	4348
2026-01-01 12:17:18.69	247.77	15.63	-47.1	-48.9	16.1	0.00e+00	0	54	0	329252864	57	4304
2026-01-01 12:17:19.68	247.95	15.68	-47.1	-48.9	16.1	0.00e+00	0	54	0	331350016	57	4315
2026-01-01 12:17:20.66	248.14	15.74	-47.3	-49.2	15.8	0.00e+00	0	55	0	333447168	57	4452
2026-01-01 12:17:21.65	248.32	15.79	-47.3	-49.2	15.8	0.00e+00	0	54	0	334495744	57	4445
2026-01-01 12:17:22.64	248.51	15.84	-47.3	-49.1	15.8	0.00e+00	0	55	0	336592896	57	4431
2026-01-01 12:17:23.63	248.70	15.90	-47.1	-48.9	16.1	0.00e+00	0	55	0	338690048	57	4303
2026-01-01 12:17:24.62	248.89	15.95	-47.2	-49.0	16.0	0.00e+00	0	54	0	340787200	57	4376
2026-01-01 12:17:25.61	249.08	16.00	-47.0	-48.8	16.2	0.00e+00	0	55	0	342884352	57	4256
2026-01-01 12:17:26.61	249.27	16.06	-46.9	-48.7	16.4	0.00e+00	0	55	0	343932928	56	4443
2026-01-01 12:17:27.60	249.47	16.11	-47.0	-48.7	16.3	0.00e+00	0	55	0	346030080	56	4466
2026-01-01 12:17:28.58	249.66	16.16	-47.0	-48.8	16.2	0.00e+00	0	55	0	348127232	56	4507
2026-01-01 12:17:29.57	249.85	16.22	-47.3	-49.2	15.8	0.00e+00	0	55	0	350224384	56	4707
2026-01-01 12:17:30.56	250.04	16.27	-47.3	-49.2	15.9	0.00e+00	0	55	0	351272960	56	4706
2026-01-01 12:17:31.56	250.24	16.32	-47.3	-49.3	15.7	0.00e+00	0	55	0	353370112	56	4762
2026-01-01 12:17:32.55	250.43	16.37	-47.5	-49.5	15.5	0.00e+00	0	55	0	355467264	56	4883
2026-01-01 12:17:33.54	250.63	16.43	-47.6	-49.6	15.4	0.00e+00	0	54	0	357564416	57	4700
2026-01-01 12:17:34.53	250.82	16.48	-47.5	-49.4	15.6	0.00e+00	0	55	0	359661568	57	4564
2026-01-01 12:17:35.52	251.02	16.53	-47.6	-49.5	15.5	0.00e+00	0	55	0	360710144	57	4629
2026-01-01 12:17:36.51	251.22	16.58	-47.4	-49.4	15.6	0.00e+00	0	55	0	362807296	57	4551
2026-01-01 12:17:37.49	251.41	16.63	-47.5	-49.4	15.6	0.00e+00	0	55	0	364904448	57	4559
2026-01-01 12:17:38.48	251.61	16.68	-47.6	-49.5	15.5	0.00e+00	0	55	0	367001600	57	4610
2026-01-01 12:17:39.47	251.81	16.73	-47.6	-49.6	15.4	0.00e+00	0	55	0	368050176	57	4664
2026-01-01 12:17:40.45	252.01	16.78	-47.8	-49.8	15.2	0.00e+00	0	55	0	370147328	57	4773
2026-01-01 12:17:41.45	252.21	16.83	-47.9	-50.0	15.0	7.00e-07	0	55	0	372244480	57	4924
2026-01-01 12:17:42.44	252.41	16.88	-48.1	-50.3	14.7	7.00e-07	0	55	0	374341632	57	5097
2026-01-01 12:17:43.43	252.61	16.93	-47.9	-50.1	14.9	0.00e+00	0	55	0	375390208	58	4671
2026-01-01 12:17:44.42	252.82	16.98	-48.1	-50.4	14.6	0.00e+00	0	55	0	377487360	58	4825
2026-01-01 12:17:45.41	253.02	17.03	-48.0	-50.1	14.9	0.00e+00	0	55	0	379584512	58	4695
2026-01-01 12:17:46.39	253.22	17.08	-47.9	-50.0	15.0	0.00e+00	0	55	0	381681664	58	4609
2026-01-01 12:17:47.38	253.43	17.13	-48.0	-50.1	14.9	0.00e+00	0	55	0	383778816	58	4694
2026-01-01 12:17:48.37	253.63	17.18	-48.2	-50.4	14.7	0.00e+00	0	55	0	384827392	58	4822
2026-01-01 12:17:49.36	253.84	17.23	-48.3	-50.7	14.3	7.00e-07	0	55	0	386924544	58	5018
2026-01-01 12:17:50.35	254.04	17.27	-48.3	-50.6	14.5	0.00e+00	0	55	0	389021696	58	4942
2026-01-01 12:17:51.35	254.25	17.32	-48.4	-50.8	14.3	0.00e+00	0	55	0	391118848	58	5065
2026-01-01 12:17:52.34	254.46	17.37	-48.4	-51.0	14.1	3.00e-06	0	55	0	392167424	59	4890
2026-01-01 12:17:53.33	254.67	17.42	-48.6	-51.2	13.8	1.50e-06	0	55	0	394264576	59	5021
2026-01-01 12:17:54.32	254.88	17.46	-48.6	-51.1	13.9	4.50e-06	0	55	0	396361728	59	4961
2026-01-01 12:17:55.31	255.09	17.51	-48.7	-51.4	13.7	3.00e-06	0	55	0	398458880	59	5111
2026-01-01 12:17:56.30	255.30	17.56	-48.8	-51.6	13.5	6.80e-06	0	55	0	399507456	59	5234
2026-01-01 12:17:57.28	255.50	17.60	-48.7	-51.3	13.7	8.30e-06	0	55	0	401604608	59	5056
2026-01-01 12:17:58.28	255.72	17.65	-48.8	-51.6	13.4	9.10e-06	0	55	0	403701760	59	5251
2026-01-01 12:17:59.27	255.93	17.69	-48.8	-51.7	13.4	2.36e-05	0	55	0	405798912	59	5291
2026-01-01 12:18:00.27	256.14	17.74	-48.8	-51.4	13.7	1.44e-05	0	55	0	407896064	59	5104
2026-01-01 12:18:01.26	256.36	17.78	-48.5	-51.1	14.0	3.00e-06	0	55	0	408944640	59	4975
2026-01-01 12:18:02.24	256.57	17.83	-48.7	-51.4	13.7	3.00e-06	0	55	0	411041792	59	5128
2026-01-01 12:18:03.23	256.78	17.87	-48.6	-51.1	13.9	4.50e-06	0	55	0	413138944	59	4972
2026-01-01 12:18:04.22	257.00	17.92	-48.8	-51.5	13.5	6.10e-06	0	55	0	415236096	59	5187
2026-01-01 12:18:05.21	257.21	17.96	-48.8	-51.6	13.5	7.60e-06	0	55	0	416284672	59	5234
2026-01-01 12:18:06.20	257.43	18.00	-48.7	-51.3	13.7	6.10e-06	0	55	0	418381824	59	5076
2026-01-01 12:18:07.18	257.65	18.05	-48.7	-51.2	13.8	3.00e-06	0	55	0	420478976	59	5030
2026-01-01 12:18:08.16	257.86	18.09	-48.5	-51.0	14.0	1.50e-06	0	55	0	422576128	59	4885
2026-01-01 12:18:09.15	258.08	18.13	-48.7	-51.2	13.8	7.00e-07	0	55	0	423624704	59	5038
2026-01-01 12:18:10.14	258.30	18.17	-48.8	-51.5	13.5	1.22e-05	0	55	0	425721856	59	5201
2026-01-01 12:18:11.13	258.52	18.21	-48.5	-51.0	14.0	0.00e+00	0	55	0	427819008	59	4890
2026-01-01 12:18:12.12	258.74	18.26	-48.5	-51.2	13.9	0.00e+00	0	55	0	429916160	59	4991
2026-01-01 12:18:13.12	258.96	18.30	-48.8	-51.6	13.5	1.29e-05	0	55	0	432013312	59	5236
2026-01-01 12:18:14.11	259.18	18.34	-48.5	-51.1	14.0	9.10e-06	0	55	0	433061888	59	4967
2026-01-01 12:18:15.10	259.40	18.38	-48.5	-50.9	14.1	7.00e-07	0	55	0	435159040	59	4859
2026-01-01 12:18:16.09	259.62	18.42	-48.2	-50.5	14.6	0.00e+00	0	55	0	437256192	59	4610
2026-01-01 12:18:17.09	259.85	18.46	-47.9	-50.2	14.9	0.00e+00	0	55	0	439353344	59	4447
2026-01-01 12:18:18.08	260.07	18.50	-48.1	-50.3	14.8	0.00e+00	0	55	0	440401920	59	4525
2026-01-01 12:18:19.06	260.29	18.54	-47.8	-50.1	15.0	0.00e+00	0	55	0	442499072	58	4667
2026-01-01 12:18:20.05	260.52	18.58	-47.7	-50.0	15.0	0.00e+00	0	55	0	444596224	58	4636
2026-01-01 12:18:21.03	260.74	18.61	-47.6	-50.0	15.0	0.00e+00	0	55	0	446693376	58	4651
2026-01-01 12:18:22.03	260.97	18.65	-47.7	-50.4	14.6	7.00e-07	0	55	0	447741952	58	4817
2026-01-01 12:18:23.02	261.19	18.69	-47.3	-49.8	15.1	0.00e+00	0	55	0	449839104	57	4791
2026-01-01 12:18:24.00	261.42	18.73	-47.1	-49.4	15.5	0.00e+00	0	55	0	451936256	57	4583
2026-01-01 12:18:25.00	261.65	18.76	-47.0	-49.3	15.6	0.00e+00	0	55	0	454033408	57	4522
2026-01-01 12:18:25.98	261.87	18.80	-46.9	-49.2	15.8	0.00e+00	0	55	0	456130560	56	4717
2026-01-01 12:18:26.97	262.10	18.83	-46.9	-48.9	16.0	0.00e+00	0	55	0	457179136	56	4579
2026-01-01 12:18:27.96	262.33	18.87	-47.0	-48.9	16.0	0.00e+00	0	55	0	459276288	56	4598
2026-01-01 12:18:28.94	262.55	18.91	-47.2	-49.2	15.9	0.00e+00	0	55	0	461373440	56	4744
2026-01-01 12:18:29.92	262.78	18.94	-47.6	-49.6	15.5	0.00e+00	0	55	0	463470592	56	4938
2026-01-01 12:18:30.90	263.01	18.97	-47.5	-49.6	15.5	0.00e+00	0	56	0	464519168	57	4663
2026-01-01 12:18:31.89	263.24	19.01	-47.4	-49.4	15.6	0.00e+00	0	56	0	466616320	57	4592
2026-01-01 12:18:32.88	263.47	19.04	-47.5	-49.4	15.6	0.00e+00	0	56	0	468713472	57	4591
2026-01-01 12:18:33.87	263.70	19.07	-47.4	-49.2	15.8	0.00e+00	0	56	0	470810624	57	4486
2026-01-01 12:18:34.86	263.93	19.11	-47.4	-49.3	15.8	0.00e+00	0	56	0	471859200	57	4510
2026-01-01 12:18:35.86	264.17	19.14	-47.3	-49.0	16.0	0.00e+00	0	55	0	473956352	57	4376
2026-01-01 12:18:36.85	264.40	19.17	-47.3	-49.0	16.0	0.00e+00	0	56	0	476053504	57	4387
2026-01-01 12:18:37.84	264.64	19.20	-47.3	-49.0	16.0	0.00e+00	0	56	0	478150656	57	4387
2026-01-01 12:18:38.83	264.87	19.23	-47.3	-49.1	16.0	0.00e+00	0	56	0	480247808	57	4405
2026-01-01 12:18:39.82	265.10	19.27	-47.4	-49.2	15.9	0.00e+00	0	56	0	481296384	57	4453
2026-01-01 12:18:40.81	265.34	19.30	-47.0	-48.8	16.3	0.00e+00	0	56	0	483393536	57	4254
2026-01-01 12:18:41.79	265.57	19.32	-46.7	-48.3	16.8	0.00e+00	0	56	0	485490688	56	4256
2026-01-01 12:18:42.78	265.81	19.35	-46.5	-48.1	16.9	0.00e+00	0	56	0	487587840	56	4180
2026-01-01 12:18:43.76	266.04	19.38	-46.7	-48.3	16.7	0.00e+00	0	56	0	488636416	56	4285
2026-01-01 12:18:44.75	266.28	19.41	-46.9	-48.6	16.5	0.00e+00	0	56	0	490733568	56	4417
2026-01-01 12:18:45.73	266.51	19.44	-47.2	-48.9	16.2	0.00e+00	0	56	0	492830720	56	4584
2026-01-01 12:18:46.73	266.75	19.47	-47.1	-48.9	16.1	0.00e+00	0	56	0	494927872	56	4572
2026-01-01 12:18:47.71	266.99	19.49	-47.1	-48.9	16.2	0.00e+00	0	56	0	495976448	56	4548
2026-01-01 12:18:48.71	267.23	19.52	-47.1	-48.8	16.3	0.00e+00	0	56	0	498073600	56	4533
2026-01-01 12:18:49.69	267.47	19.55	-47.2	-49.0	16.1	0.00e+00	0	56	0	500170752	56	4630
2026-01-01 12:18:50.68	267.70	19.57	-47.5	-49.6	15.5	0.00e+00	0	56	0	502267904	57	4666
2026-01-01 12:18:51.67	267.94	19.60	-47.7	-49.6	15.5	0.00e+00	0	56	0	504365056	57	4673
2026-01-01 12:18:52.66	268.18	19.62	-47.7	-49.7	15.4	0.00e+00	0	56	0	505413632	57	4758
2026-01-01 12:18:53.65	268.42	19.65	-47.7	-49.7	15.4	0.00e+00	0	56	0	507510784	57	4731
2026-01-01 12:18:54.63	268.66	19.67	-47.5	-49.4	15.6	0.00e+00	0	56	0	509607936	57	4597
2026-01-01 12:18:55.62	268.90	19.69	-47.3	-49.2	15.9	0.00e+00	0	56	0	511705088	57	4444
2026-01-01 12:18:56.61	269.14	19.72	-47.3	-49.3	15.8	0.00e+00	0	56	0	512753664	57	4503
2026-01-01 12:18:57.60	269.39	19.74	-47.3	-49.2	15.9	0.00e+00	0	56	0	514850816	57	4469
2026-01-01 12:18:58.59	269.63	19.76	-47.3	-49.2	15.9	0.00e+00	0	56	0	516947968	57	4468
2026-01-01 12:18:59.58	269.87	19.78	-47.3	-49.1	15.9	0.00e+00	0	56	0	519045120	57	4417
2026-01-01 12:19:00.57	270.11	19.80	-47.1	-48.8	16.3	0.00e+00	0	56	0	520093696	57	4280
2026-01-01 12:19:01.55	270.35	19.82	-46.9	-48.6	16.4	0.00e+00	0	56	0	522190848	56	4402
2026-01-01 12:19:02.54	270.60	19.84	-46.6	-48.3	16.7	0.00e+00	0	56	0	524288000	56	4278
2026-01-01 12:19:03.52	270.84	19.86	-46.7	-48.3	16.8	0.00e+00	0	56	0	526385152	56	4275
2026-01-01 12:19:04.51	271.08	19.88	-46.7	-48.4	16.6	0.00e+00	0	56	0	527433728	56	4305
2026-01-01 12:19:05.50	271.32	19.90	-46.8	-48.5	16.5	0.00e+00	0	56	0	529530880	56	4387
2026-01-01 12:19:06.49	271.57	19.92	-47.1	-48.9	16.2	0.00e+00	0	56	0	531628032	56	4561
2026-01-01 12:19:07.47	271.81	19.94	-47.3	-49.2	15.9	0.00e+00	0	56	0	533725184	56	4750
2026-01-01 12:19:08.45	272.05	19.95	-47.4	-49.3	15.8	0.00e+00	0	56	0	534773760	56	4781
2026-01-01 12:19:09.45	272.30	19.97	-47.2	-49.0	16.0	0.00e+00	0	56	0	536870912	56	4645
2026-01-01 12:19:10.44	272.55	19.99	-47.3	-49.2	15.9	0.00e+00	0	56	0	538968064	56	4724
2026-01-01 12:19:11.44	272.80	20.00	-47.6	-49.6	15.6	0.00e+00	0	56	0	541065216	56	4929
2026-01-01 12:19:12.41	273.04	20.02	-47.9	-50.0	15.1	0.00e+00	0	56	0	543162368	57	4912
2026-01-01 12:19:13.40	273.28	20.03	-48.1	-50.3	14.8	0.00e+00	0	56	0	544210944	58	4807
2026-01-01 12:19:14.39	273.53	20.05	-48.2	-50.6	14.6	0.00e+00	0	56	0	546308096	58	4929
2026-01-01 12:19:15.37	273.77	20.06	-48.3	-50.6	14.4	0.00e+00	0	56	0	548405248	58	4975
2026-01-01 12:19:16.37	274.02	20.07	-48.1	-50.2	14.8	0.00e+00	0	56	0	550502400	58	4741
2026-01-01 12:19:17.36	274.27	20.08	-47.7	-49.8	15.3	0.00e+00	0	56	0	551550976	58	4512
2026-01-01 12:19:18.35	274.52	20.10	-47.5	-49.4	15.7	0.00e+00	0	56	0	553648128	58	4307
2026-01-01 12:19:19.33	274.76	20.11	-47.5	-49.5	15.6	0.00e+00	0	56	0	555745280	58	4361
2026-01-01 12:19:20.33	275.01	20.12	-47.6	-49.6	15.5	0.00e+00	0	56	0	557842432	58	4392
2026-01-01 12:19:21.32	275.26	20.13	-47.7	-49.7	15.4	0.00e+00	0	56	0	559939584	58	4460
2026-01-01 12:19:22.30	275.50	20.14	-47.7	-49.8	15.3	0.00e+00	0	56	0	560988160	58	4529
2026-01-01 12:19:23.29	275.75	20.15	-47.5	-49.4	15.7	0.00e+00	0	56	0	563085312	58	4306
2026-01-01 12:19:24.27	276.00	20.16	-47.2	-49.1	16.0	0.00e+00	0	56	0	565182464	57	4398
2026-01-01 12:19:25.26	276.25	20.16	-47.0	-48.8	16.3	0.00e+00	0	56	0	567279616	57	4254
2026-01-01 12:19:26.25	276.49	20.17	-47.0	-48.7	16.4	0.00e+00	0	56	0	568328192	57	4203
2026-01-01 12:19:27.24	276.74	20.18	-47.1	-48.9	16.2	0.00e+00	0	56	0	570425344	57	4315
2026-01-01 12:19:28.22	276.99	20.19	-47.4	-49.3	15.8	0.00e+00	0	56	0	572522496	57	4504
2026-01-01 12:19:29.21	277.24	20.19	-47.6	-49.6	15.5	0.00e+00	0	56	0	574619648	57	4682
2026-01-01 12:19:30.19	277.48	20.20	-47.7	-49.8	15.3	0.00e+00	0	56	0	575668224	57	4805
2026-01-01 12:19:31.19	277.73	20.20	-48.2	-50.4	14.7	0.00e+00	0	56	0	577765376	58	4852
2026-01-01 12:19:32.18	277.98	20.21	-47.9	-50.2	15.0	0.00e+00	0	56	0	579862528	58	4717
2026-01-01 12:19:33.17	278.23	20.21	-47.7	-49.8	15.3	0.00e+00	0	56	0	581959680	58	4529
2026-01-01 12:19:34.16	278.48	20.22	-47.8	-49.9	15.2	0.00e+00	0	56	0	583008256	58	4571
2026-01-01 12:19:35.16	278.73	20.22	-47.9	-50.1	15.1	0.00e+00	0	56	0	585105408	58	4657
2026-01-01 12:19:36.14	278.98	20.22	-47.7	-49.8	15.3	0.00e+00	0	56	0	587202560	58	4534
2026-01-01 12:19:37.13	279.23	20.22	-47.9	-50.1	15.0	0.00e+00	0	56	0	589299712	58	4685
2026-01-01 12:19:38.11	279.48	20.22	-47.8	-49.9	15.2	0.00e+00	0	56	0	591396864	58	4580
2026-01-01 12:19:39.11	279.73	20.23	-47.7	-49.7	15.4	0.00e+00	0	56	0	592445440	58	4447
2026-01-01 12:19:40.10	279.98	20.23	-47.6	-49.6	15.6	0.00e+00	0	56	0	594542592	58	4392
2026-01-01 12:19:41.09	280.23	20.23	-47.7	-49.7	15.5	0.00e+00	0	56	0	596639744	58	4457
2026-01-01 12:19:42.07	280.47	20.22	-47.7	-49.7	15.4	0.00e+00	0	56	0	598736896	58	4448
2026-01-01 12:19:43.06	280.72	20.22	-47.9	-50.0	15.1	0.00e+00	0	56	0	599785472	58	4601
2026-01-01 12:19:44.05	280.97	20.22	-48.0	-50.3	14.9	0.00e+00	0	56	0	601882624	58	4773
2026-01-01 12:19:45.03	281.22	20.22	-48.1	-50.3	14.8	0.00e+00	0	56	0	603979776	58	4804
2026-01-01 12:19:46.02	281.47	20.22	-48.1	-50.3	14.8	0.00e+00	0	56	0	606076928	58	4763
2026-01-01 12:19:47.00	281.71	20.21	-48.0	-50.3	14.8	0.00e+00	0	56	0	607125504	58	4792
2026-01-01 12:19:47.99	281.96	20.21	-48.1	-50.4	14.6	0.00e+00	0	56	0	609222656	58	4857
2026-01-01 12:19:48.97	282.21	20.20	-48.3	-50.8	14.3	0.00e+00	0	56	0	611319808	58	5046
2026-01-01 12:19:49.96	282.46	20.20	-48.6	-51.3	13.7	7.00e-07	0	56	0	613416960	59	5094
2026-01-01 12:19:50.95	282.71	20.19	-48.6	-51.3	13.7	9.90e-06	0	56	0	614465536	59	5089
2026-01-01 12:19:51.94	282.95	20.19	-49.0	-52.1	12.8	3.58e-05	0	56	0	616562688	59	5543
2026-01-01 12:19:52.93	283.20	20.18	-48.8	-52.0	12.9	4.42e-05	0	56	0	618659840	60	5191
2026-01-01 12:19:53.92	283.45	20.17	-49.0	-52.4	12.3	7.01e-05	0	56	0	620756992	60	5416
2026-01-01 12:19:54.91	283.70	20.17	-48.9	-52.3	12.4	1.68e-04	0	56	0	622854144	60	5341
2026-01-01 12:19:55.90	283.95	20.16	-49.0	-52.3	12.3	1.52e-04	0	56	0	623902720	60	5385
2026-01-01 12:19:56.89	284.19	20.15	-49.3	-53.0	11.6	3.93e-04	0	56	0	625999872	60	5839
2026-01-01 12:19:57.88	284.44	20.14	-49.5	-53.5	10.9	1.33e-03	0	56	0	628097024	60	6190
2026-01-01 12:19:58.88	284.69	20.13	-49.7	-54.1	10.4	4.15e-03	0	56	0	630194176	61	6210
2026-01-01 12:19:59.86	284.94	20.12	-49.8	-54.4	9.9	7.18e-03	0	56	0	631242752	61	6430
2026-01-01 12:20:00.85	285.19	20.11	-49.8	-54.6	9.6	1.05e-02	0	56	0	633339904	61	6625
2026-01-01 12:20:01.83	285.43	20.10	-49.8	-54.8	9.4	1.73e-02	0	56	0	635437056	61	6732
2026-01-01 12:20:02.82	285.68	20.09	-50.0	-55.3	8.8	2.53e-02	0	56	0	637534208	61	7126
2026-01-01 12:20:03.80	285.92	20.07	-50.1	-55.4	8.6	3.63e-02	0	56	0	638582784	61	7233
2026-01-01 12:20:04.79	286.17	20.06	-50.1	-55.9	8.2	4.86e-02	0	56	0	640679936	62	7224
2026-01-01 12:20:05.78	286.41	20.05	-50.2	-56.0	8.0	6.68e-02	0	56	0	642777088	62	7370
2026-01-01 12:20:06.77	286.66	20.03	-50.3	-56.3	7.7	7.76e-02	0	56	0	644874240	62	7592
2026-01-01 12:20:07.76	286.91	20.02	-50.2	-56.5	7.6	1.00e-01	0	56	0	646971392	62	7768
2026-01-01 12:20:08.75	287.15	20.00	-50.3	-57.0	7.1	1.18e-01	0	57	0	648019968	62	8202
2026-01-01 12:20:09.72	287.39	19.99	-50.5	-57.2	6.9	1.59e-01	0	56	0	650117120	62	8415
2026-01-01 12:20:10.71	287.64	19.97	-50.4	-56.9	7.1	1.68e-01	0	56	0	652214272	63	7691
2026-01-01 12:20:11.70	287.88	19.96	-50.2	-56.6	7.4	1.23e-01	0	56	0	654311424	63	7403
2026-01-01 12:20:12.68	288.12	19.94	-50.2	-56.0	7.9	8.79e-02	0	57	0	655360000	63	6945
2026-01-01 12:20:13.68	288.37	19.92	-50.0	-55.6	8.3	6.05e-02	0	56	0	657457152	63	6599
2026-01-01 12:20:14.67	288.62	19.90	-49.9	-55.3	8.6	4.82e-02	0	57	0	659554304	62	6764
2026-01-01 12:20:15.66	288.86	19.89	-49.7	-55.0	8.8	3.60e-02	0	56	0	661651456	62	6551
2026-01-01 12:20:16.66	289.11	19.87	-49.7	-55.1	8.6	3.78e-02	0	56	0	662700032	62	6639
2026-01-01 12:20:17.65	289.35	19.85	-49.7	-55.1	8.6	4.15e-02	0	56	0	664797184	61	7013
2026-01-01 12:20:18.64	289.59	19.83	-49.7	-55.1	8.6	3.60e-02	0	56	0	666894336	61	6974
2026-01-01 12:20:19.63	289.83	19.81	-49.7	-55.2	8.5	4.03e-02	0	57	0	668991488	61	7076
2026-01-01 12:20:20.61	290.07	19.79	-49.7	-55.1	8.6	4.20e-02	0	56	0	670040064	61	7031
2026-01-01 12:20:21.59	290.31	19.77	-49.7	-55.0	8.8	3.62e-02	0	56	0	672137216	61	6934
2026-01-01 12:20:22.59	290.56	19.74	-49.6	-54.8	9.0	3.12e-02	0	56	0	674234368	61	6796
2026-01-01 12:20:23.59	290.80	19.72	-49.6	-54.4	9.5	1.90e-02	0	57	0	676331520	61	6460
2026-01-01 12:20:24.58	291.04	19.70	-49.4	-53.6	10.5	9.41e-03	0	56	0	678428672	61	5872
2026-01-01 12:20:25.56	291.28	19.68	-49.1	-52.8	11.4	1.69e-03	0	56	0	679477248	61	5375
2026-01-01 12:20:26.56	291.52	19.65	-48.7	-52.1	12.3	2.98e-04	0	56	0	681574400	60	5242
2026-01-01 12:20:27.54	291.76	19.63	-48.6	-51.7	12.9	5.72e-05	0	57	0	683671552	60	5006
2026-01-01 12:20:28.53	292.00	19.60	-48.6	-51.5	13.2	2.13e-05	0	56	0	685768704	60	4919
2026-01-01 12:20:29.53	292.24	19.58	-48.7	-51.6	13.2	1.83e-05	0	56	0	686817280	60	4959
2026-01-01 12:20:30.52	292.48	19.55	-48.5	-51.1	13.8	6.80e-06	0	56	0	688914432	60	4657
2026-01-01 12:20:31.50	292.72	19.53	-48.3	-50.7	14.2	1.50e-06	0	56	0	691011584	59	4744
2026-01-01 12:20:32.49	292.95	19.50	-48.1	-50.4	14.7	0.00e+00	0	56	0	693108736	59	4562
2026-01-01 12:20:33.48	293.19	19.47	-48.1	-50.3	14.7	0.00e+00	0	56	0	695205888	59	4541
2026-01-01 12:20:34.47	293.43	19.45	-48.0	-50.3	14.8	0.00e+00	0	56	0	696254464	59	4519
2026-01-01 12:20:35.45	293.66	19.42	-48.2	-50.5	14.5	0.00e+00	0	57	0	698351616	59	4623
2026-01-01 12:20:36.45	293.90	19.39	-48.7	-51.3	13.8	3.00e-06	0	57	0	700448768	59	5084
2026-01-01 12:20:37.43	294.13	19.36	-49.0	-51.7	13.3	1.29e-05	0	57	0	702545920	59	5330
2026-01-01 12:20:38.43	294.37	19.33	-49.0	-51.9	13.2	1.52e-05	0	56	0	703594496	59	5463
2026-01-01 12:20:39.41	294.60	19.30	-49.2	-52.3	12.7	6.48e-05	0	56	0	705691648	60	5347
2026-01-01 12:20:40.39	294.84	19.27	-48.8	-51.7	13.4	2.82e-05	0	57	0	707788800	60	4999
2026-01-01 12:20:41.38	295.07	19.24	-48.6	-51.2	13.8	1.06e-05	0	57	0	709885952	60	4758
2026-01-01 12:20:42.37	295.30	19.21	-48.1	-50.4	14.8	7.00e-07	0	57	0	710934528	59	4549
2026-01-01 12:20:43.35	295.54	19.18	-47.8	-49.8	15.3	0.00e+00	0	57	0	713031680	58	4529
2026-01-01 12:20:44.34	295.77	19.15	-47.4	-49.4	15.7	0.00e+00	0	57	0	715128832	58	4321
2026-01-01 12:20:45.34	296.00	19.12	-47.4	-49.3	15.8	0.00e+00	0	57	0	717225984	57	4526
2026-01-01 12:20:46.33	296.23	19.08	-47.5	-49.5	15.6	0.00e+00	0	57	0	719323136	57	4638
2026-01-01 12:20:47.32	296.46	19.05	-47.8	-49.8	15.2	0.00e+00	0	57	0	720371712	57	4810
2026-01-01 12:20:48.32	296.70	19.02	-47.7	-49.8	15.3	0.00e+00	0	57	0	722468864	57	4794
2026-01-01 12:20:49.31	296.93	18.98	-47.8	-50.0	15.1	0.00e+00	0	57	0	724566016	57	4880
2026-01-01 12:20:50.29	297.16	18.95	-47.5	-49.5	15.6	0.00e+00	0	57	0	726663168	57	4637
2026-01-01 12:20:51.28	297.38	18.91	-47.0	-48.8	16.3	0.00e+00	0	57	0	727711744	57	4269
2026-01-01 12:20:52.27	297.61	18.88	-46.8	-48.4	16.6	0.00e+00	0	57	0	729808896	56	4312
2026-01-01 12:20:53.26	297.84	18.84	-46.7	-48.3	16.7	0.00e+00	0	57	0	731906048	56	4273
2026-01-01 12:20:54.25	298.07	18.81	-46.8	-48.5	16.5	0.00e+00	0	57	0	734003200	56	4362
2026-01-01 12:20:55.24	298.30	18.77	-46.9	-48.6	16.4	0.00e+00	0	57	0	735051776	56	4418
2026-01-01 12:20:56.23	298.52	18.73	-47.0	-48.8	16.3	0.00e+00	0	57	0	737148928	56	4517
2026-01-01 12:20:57.21	298.75	18.70	-47.1	-48.9	16.1	0.00e+00	0	57	0	739246080	56	4590
2026-01-01 12:20:58.20	298.97	18.66	-47.1	-49.0	16.2	0.00e+00	0	57	0	741343232	56	4601
2026-01-01 12:20:59.19	299.20	18.62	-47.0	-48.9	16.2	0.00e+00	0	57	0	742391808	56	4550
2026-01-01 12:21:00.18	299.42	18.59	-47.0	-48.8	16.3	0.00e+00	0	56	0	744488960	56	4536
2026-01-01 12:21:01.17	299.64	18.55	-47.1	-48.9	16.2	0.00e+00	0	57	0	746586112	56	4558
2026-01-01 12:21:02.15	299.87	18.51	-47.1	-49.0	16.1	0.00e+00	0	57	0	748683264	56	4641
2026-01-01 12:21:03.14	300.09	18.47	-47.2	-49.1	15.9	0.00e+00	0	57	0	750780416	56	4662
2026-01-01 12:21:04.13	300.31	18.43	-47.2	-49.1	16.0	0.00e+00	0	57	0	751828992	56	4656
2026-01-01 12:21:05.12	300.53	18.39	-47.3	-49.1	15.9	0.00e+00	0	57	0	753926144	56	4700
2026-01-01 12:21:06.12	300.75	18.35	-47.3	-49.1	15.9	0.00e+00	0	57	0	756023296	56	4703
2026-01-01 12:21:07.11	300.98	18.31	-47.4	-49.3	15.7	0.00e+00	0	57	0	758120448	56	4802
2026-01-01 12:21:08.09	301.19	18.27	-47.6	-49.5	15.5	0.00e+00	0	57	0	759169024	57	4650
2026-01-01 12:21:09.09	301.41	18.23	-47.4	-49.2	15.8	0.00e+00	0	57	0	761266176	57	4478
2026-01-01 12:21:10.08	301.63	18.19	-47.2	-49.0	16.1	0.00e+00	0	57	0	763363328	57	4366
2026-01-01 12:21:11.06	301.85	18.14	-47.1	-48.8	16.2	0.00e+00	0	57	0	765460480	57	4260
2026-01-01 12:21:12.06	302.07	18.10	-47.2	-49.0	16.0	0.00e+00	0	57	0	766509056	57	4373
2026-01-01 12:21:13.05	302.29	18.06	-47.5	-49.6	15.5	0.00e+00	0	57	0	768606208	57	4659
2026-01-01 12:21:14.04	302.50	18.02	-47.5	-49.5	15.6	0.00e+00	0	57	0	770703360	57	4614
2026-01-01 12:21:15.03	302.72	17.97	-47.8	-49.9	15.2	0.00e+00	0	57	0	772800512	57	4836
2026-01-01 12:21:16.01	302.93	17.93	-47.6	-49.6	15.5	0.00e+00	0	57	0	774897664	57	4689
2026-01-01 12:21:17.00	303.14	17.89	-47.6	-49.5	15.5	0.00e+00	0	57	0	775946240	57	4642
2026-01-01 12:21:17.99	303.36	17.84	-47.7	-49.7	15.3	0.00e+00	0	57	0	778043392	57	4748
2026-01-01 12:21:18.99	303.57	17.80	-47.4	-49.3	15.7	0.00e+00	0	57	0	780140544	57	4538
2026-01-01 12:21:19.98	303.79	17.75	-47.5	-49.4	15.7	0.00e+00	0	57	0	782237696	57	4574
2026-01-01 12:21:20.97	304.00	17.71	-47.6	-49.6	15.5	0.00e+00	0	57	0	783286272	57	4693
2026-01-01 12:21:21.96	304.21	17.66	-47.4	-49.4	15.7	0.00e+00	0	57	0	785383424	57	4559
2026-01-01 12:21:22.95	304.42	17.62	-47.6	-49.6	15.5	0.00e+00	0	57	0	787480576	57	4671
2026-01-01 12:21:23.93	304.63	17.57	-47.9	-50.0	15.1	0.00e+00	0	57	0	789577728	57	4891
2026-01-01 12:21:24.92	304.84	17.53	-47.6	-49.7	15.4	0.00e+00	0	57	0	791674880	57	4713
2026-01-01 12:21:25.91	305.05	17.48	-47.4	-49.4	15.7	0.00e+00	0	57	0	792723456	57	4553
2026-01-01 12:21:26.91	305.26	17.43	-47.5	-49.5	15.6	0.00e+00	0	57	0	794820608	57	4630
2026-01-01 12:21:27.90	305.47	17.39	-47.8	-49.9	15.2	0.00e+00	0	57	0	796917760	57	4833
2026-01-01 12:21:28.87	305.67	17.34	-47.8	-50.0	15.1	0.00e+00	0	57	0	799014912	57	4887
2026-01-01 12:21:29.85	305.87	17.29	-48.1	-50.4	14.7	0.00e+00	0	57	0	800063488	58	4823
2026-01-01 12:21:30.84	306.08	17.24	-48.0	-50.3	14.8	0.00e+00	0	57	0	802160640	58	4792
2026-01-01 12:21:31.82	306.28	17.20	-47.9	-50.1	14.9	0.00e+00	0	57	0	804257792	58	4696
2026-01-01 12:21:32.81	306.49	17.15	-47.9	-50.2	14.9	0.00e+00	0	57	0	806354944	58	4733
2026-01-01 12:21:33.79	306.69	17.10	-47.9	-50.0	15.1	0.00e+00	0	57	0	807403520	58	4648
2026-01-01 12:21:34.78	306.89	17.05	-47.9	-50.2	14.9	0.00e+00	0	57	0	809500672	58	4744
2026-01-01 12:21:35.76	307.09	17.00	-48.0	-50.2	14.8	1.50e-06	0	57	0	811597824	58	4738
2026-01-01 12:21:36.76	307.30	16.95	-47.9	-50.1	14.9	0.00e+00	0	57	0	813694976	58	4701
2026-01-01 12:21:37.75	307.50	16.91	-48.2	-50.5	14.5	0.00e+00	0	57	0	814743552	58	4912
2026-01-01 12:21:38.74	307.70	16.86	-47.9	-50.1	15.0	0.00e+00	0	57	0	816840704	58	4657
2026-01-01 12:21:39.72	307.90	16.81	-47.8	-50.0	15.1	0.00e+00	0	57	0	818937856	58	4607
2026-01-01 12:21:40.71	308.09	16.76	-47.5	-49.5	15.6	0.00e+00	0	57	0	821035008	58	4350
2026-01-01 12:21:41.70	308.29	16.71	-47.4	-49.3	15.7	0.00e+00	0	57	0	822083584	57	4523
2026-01-01 12:21:42.69	308.49	16.66	-47.3	-49.3	15.8	0.00e+00	0	57	0	824180736	57	4509
2026-01-01 12:21:43.68	308.69	16.60	-47.5	-49.5	15.5	0.00e+00	0	57	0	826277888	57	4641
2026-01-01 12:21:44.67	308.89	16.55	-47.6	-49.6	15.4	0.00e+00	0	57	0	828375040	57	4704
2026-01-01 12:21:45.66	309.08	16.50	-47.6	-49.7	15.3	0.00e+00	0	57	0	830472192	57	4730
2026-01-01 12:21:46.65	309.28	16.45	-48.0	-50.3	14.8	0.00e+00	0	57	0	831520768	57	5058
2026-01-01 12:21:47.64	309.47	16.40	-48.2	-50.6	14.5	0.00e+00	0	57	0	833617920	58	4931
2026-01-01 12:21:48.63	309.67	16.35	-48.3	-50.8	14.3	0.00e+00	0	57	0	835715072	58	5048
2026-01-01 12:21:49.62	309.86	16.30	-48.5	-51.0	14.0	7.00e-07	0	57	0	837812224	59	4917
2026-01-01 12:21:50.62	310.05	16.24	-48.4	-51.3	13.8	7.60e-06	0	57	0	838860800	59	5056
2026-01-01 12:21:51.60	310.24	16.19	-48.5	-51.5	13.6	6.10e-06	0	57	0	840957952	59	5167
2026-01-01 12:21:52.58	310.43	16.14	-48.7	-51.6	13.5	1.22e-05	0	57	0	843055104	59	5226
2026-01-01 12:21:53.58	310.63	16.09	-48.7	-51.5	13.6	6.10e-06	0	57	0	845152256	59	5190
2026-01-01 12:21:54.57	310.82	16.03	-48.7	-51.4	13.6	1.06e-05	0	57	0	847249408	59	5152
2026-01-01 12:21:55.56	311.01	15.98	-48.8	-51.6	13.5	5.30e-06	0	57	0	848297984	59	5241
2026-01-01 12:21:56.56	311.20	15.93	-48.6	-51.3	13.7	9.10e-06	0	57	0	850395136	59	5056
2026-01-01 12:21:57.55	311.39	15.87	-48.3	-50.8	14.2	3.00e-06	0	57	0	852492288	59	4785
2026-01-01 12:21:58.54	311.57	15.82	-48.1	-50.4	14.6	7.00e-07	0	57	0	854589440	59	4577
2026-01-01 12:21:59.53	311.76	15.77	-48.0	-50.3	14.8	0.00e+00	0	57	0	855638016	59	4497
2026-01-01 12:22:00.53	311.95	15.71	-47.8	-50.0	15.0	0.00e+00	0	57	0	857735168	58	4613
2026-01-01 12:22:01.52	312.13	15.66	-47.7	-49.8	15.2	0.00e+00	0	57	0	859832320	58	4532
2026-01-01 12:22:02.50	312.32	15.60	-47.7	-49.8	15.1	0.00e+00	0	57	0	861929472	58	4531
2026-01-01 12:22:03.50	312.50	15.55	-48.2	-50.5	14.5	0.00e+00	0	57	0	862978048	58	4908
2026-01-01 12:22:04.49	312.69	15.49	-48.4	-50.8	14.2	1.50e-06	0	57	0	865075200	58	5092
2026-01-01 12:22:05.49	312.87	15.44	-48.5	-51.0	14.0	1.50e-06	0	57	0	867172352	58	5203
2026-01-01 12:22:06.47	313.05	15.38	-48.7	-51.5	13.5	7.60e-06	0	57	0	869269504	59	5164
2026-01-01 12:22:07.47	313.24	15.33	-48.9	-51.7	13.4	6.10e-06	0	57	0	871366656	59	5285
2026-01-01 12:22:08.46	313.42	15.27	-49.0	-51.9	13.1	2.89e-05	0	57	0	872415232	59	5464
2026-01-01 12:22:09.45	313.60	15.22	-48.7	-51.4	13.6	1.83e-05	0	57	0	874512384	59	5142
2026-01-01 12:22:10.43	313.78	15.16	-48.7	-51.3	13.7	5.30e-06	0	57	0	876609536	59	5096
2026-01-01 12:22:11.43	313.96	15.11	-48.8	-51.5	13.5	6.10e-06	0	57	0	878706688	59	5187
2026-01-01 12:22:12.42	314.14	15.05	-48.7	-51.3	13.7	1.14e-05	0	57	0	879755264	59	5083
2026-01-01 12:22:13.41	314.31	15.00	-48.4	-51.1	14.0	2.20e-06	0	57	0	881852416	59	4927
2026-01-01 12:22:14.40	314.49	14.94	-48.5	-51.1	13.9	3.00e-06	0	57	0	883949568	59	4931
2026-01-01 12:22:15.39	314.67	14.88	-48.4	-50.8	14.2	1.50e-06	0	57	0	886046720	59	4813
2026-01-01 12:22:16.38	314.84	14.83	-48.5	-51.0	14.0	1.50e-06	0	57	0	888143872	59	4915
2026-01-01 12:22:17.37	315.02	14.77	-48.2	-50.6	14.5	0.00e+00	0	57	0	889192448	59	4652
2026-01-01 12:22:18.36	315.19	14.72	-48.2	-50.5	14.5	0.00e+00	0	57	0	891289600	59	4623
2026-01-01 12:22:19.35	315.37	14.66	-47.9	-50.1	14.9	7.00e-07	0	57	0	893386752	59	4420
2026-01-01 12:22:20.34	315.54	14.60	-47.8	-49.9	15.1	0.00e+00	0	57	0	895483904	58	4595
2026-01-01 12:22:21.33	315.71	14.55	-47.8	-50.0	15.0	0.00e+00	0	57	0	896532480	58	4619
2026-01-01 12:22:22.32	315.88	14.49	-47.9	-50.1	14.9	0.00e+00	0	57	0	898629632	58	4697
2026-01-01 12:22:23.31	316.06	14.43	-47.8	-49.9	15.0	0.00e+00	0	57	0	900726784	58	4597
2026-01-01 12:22:24.30	316.23	14.38	-48.1	-50.4	14.6	0.00e+00	0	57	0	902823936	58	4834
2026-01-01 12:22:25.28	316.40	14.32	-48.3	-50.7	14.3	1.50e-06	0	57	0	903872512	58	5010
2026-01-01 12:22:26.27	316.56	14.26	-48.4	-50.8	14.2	7.00e-07	0	57	0	905969664	58	5076
2026-01-01 12:22:27.26	316.73	14.20	-48.5	-51.1	14.0	7.00e-07	0	57	0	908066816	58	5223
2026-01-01 12:22:28.25	316.90	14.15	-48.5	-51.0	13.9	4.50e-06	0	57	0	910163968	58	5207
2026-01-01 12:22:29.24	317.07	14.09	-48.6	-51.2	13.8	2.20e-06	0	57	0	912261120	59	5002
2026-01-01 12:22:30.22	317.23	14.03	-48.2	-50.7	14.4	0.00e+00	0	57	0	913309696	59	4711
2026-01-01 12:22:31.20	317.40	13.98	-48.0	-50.2	14.8	1.50e-06	0	57	0	915406848	59	4479
2026-01-01 12:22:32.20	317.57	13.92	-47.7	-49.9	15.1	0.00e+00	0	57	0	917504000	58	4552
2026-01-01 12:22:33.18	317.73	13.86	-47.7	-49.9	15.2	7.00e-07	0	57	0	919601152	58	4554
2026-01-01 12:22:34.17	317.89	13.80	-47.8	-49.9	15.1	0.00e+00	0	57	0	920649728	58	4566
2026-01-01 12:22:35.16	318.06	13.74	-47.6	-49.6	15.4	0.00e+00	0	57	0	922746880	58	4430
2026-01-01 12:22:36.15	318.22	13.69	-47.7	-49.8	15.2	0.00e+00	0	57	0	924844032	58	4498
2026-01-01 12:22:37.14	318.38	13.63	-47.8	-50.0	15.0	0.00e+00	0	57	0	926941184	58	4614
2026-01-01 12:22:38.13	318.55	13.57	-47.8	-49.9	15.0	0.00e+00	0	57	0	927989760	58	4595
2026-01-01 12:22:39.12	318.71	13.51	-47.8	-49.9	15.1	0.00e+00	0	57	0	930086912	58	4548
2026-01-01 12:22:40.11	318.87	13.45	-47.9	-50.1	14.8	0.00e+00	0	57	0	932184064	58	4698
2026-01-01 12:22:41.10	319.03	13.39	-47.8	-49.9	15.0	0.00e+00	0	57	0	934281216	58	4595
2026-01-01 12:22:42.08	319.19	13.34	-47.8	-50.0	15.0	0.00e+00	0	57	0	935329792	58	4601
2026-01-01 12:22:43.07	319.35	13.28	-47.9	-50.2	14.8	0.00e+00	0	57	0	937426944	58	4712
2026-01-01 12:22:44.06	319.50	13.22	-47.8	-50.0	15.0	0.00e+00	0	57	0	939524096	58	4606
2026-01-01 12:22:45.05	319.66	13.16	-47.7	-49.9	15.1	0.00e+00	0	57	0	941621248	58	4558
2026-01-01 12:22:46.05	319.82	13.10	-47.9	-50.3	14.8	0.00e+00	0	57	0	943718400	58	4766
2026-01-01 12:22:47.04	319.98	13.04	-48.0	-50.2	14.7	0.00e+00	0	57	0	944766976	58	4751
2026-01-01 12:22:48.03	320.13	12.98	-48.1	-50.5	14.4	7.00e-07	0	57	0	946864128	58	4909
2026-01-01 12:22:49.03	320.29	12.93	-47.9	-50.2	14.8	0.00e+00	0	57	0	948961280	58	4729
2026-01-01 12:22:50.02	320.44	12.87	-47.9	-50.2	14.8	0.00e+00	0	57	0	951058432	58	4721
2026-01-01 12:22:51.01	320.60	12.81	-48.0	-50.3	14.7	7.00e-07	0	57	0	953155584	58	4763
2026-01-01 12:22:52.01	320.75	12.75	-47.7	-49.8	15.1	0.00e+00	0	57	0	954204160	58	4531
2026-01-01 12:22:53.00	320.91	12.69	-47.3	-49.3	15.6	0.00e+00	0	57	0	956301312	57	4504
2026-01-01 12:22:53.99	321.06	12.63	-47.2	-49.1	15.8	0.00e+00	0	57	0	958398464	57	4422
2026-01-01 12:22:54.98	321.21	12.57	-47.1	-49.0	16.0	0.00e+00	0	57	0	960495616	57	4344
2026-01-01 12:22:55.97	321.36	12.51	-47.0	-48.8	16.0	0.00e+00	0	57	0	961544192	57	4285
2026-01-01 12:22:56.96	321.51	12.45	-47.4	-49.4	15.5	0.00e+00	0	57	0	963641344	57	4559
2026-01-01 12:22:57.95	321.66	12.39	-47.3	-49.2	15.7	0.00e+00	0	57	0	965738496	57	4483
2026-01-01 12:22:58.94	321.81	12.33	-47.4	-49.4	15.5	0.00e+00	0	57	0	967835648	57	4570
2026-01-01 12:22:59.93	321.96	12.28	-47.6	-49.7	15.3	0.00e+00	0	57	0	968884224	57	4713
2026-01-01 12:23:00.92	322.11	12.22	-47.5	-49.5	15.3	0.00e+00	0	57	0	970981376	57	4649
2026-01-01 12:23:01.90	322.25	12.16	-47.7	-49.8	15.2	0.00e+00	0	57	0	973078528	57	4787
2026-01-01 12:23:02.89	322.40	12.10	-47.5	-49.6	15.3	0.00e+00	0	57	0	975175680	57	4667
2026-01-01 12:23:03.88	322.55	12.04	-47.5	-49.6	15.3	0.00e+00	0	57	0	976224256	57	4676
2026-01-01 12:23:04.87	322.69	11.98	-47.6	-49.7	15.2	0.00e+00	0	57	0	978321408	57	4742
2026-01-01 12:23:05.85	322.84	11.92	-47.4	-49.5	15.4	0.00e+00	0	57	0	980418560	57	4603
2026-01-01 12:23:06.84	322.98	11.86	-47.3	-49.2	15.6	0.00e+00	0	57	0	982515712	57	4489
2026-01-01 12:23:07.83	323.13	11.80	-47.3	-49.2	15.6	0.00e+00	0	57	0	984612864	57	4480
2026-01-01 12:23:08.82	323.27	11.74	-47.4	-49.3	15.6	0.00e+00	0	57	0	985661440	57	4530
2026-01-01 12:23:09.81	323.41	11.68	-47.4	-49.4	15.4	0.00e+00	0	57	0	987758592	57	4598
2026-01-01 12:23:10.80	323.56	11.62	-47.7	-49.8	15.1	0.00e+00	0	57	0	989855744	57	4799
2026-01-01 12:23:11.78	323.70	11.57	-47.7	-49.9	15.0	0.00e+00	0	57	0	991952896	57	4829
2026-01-01 12:23:12.77	323.84	11.51	-47.8	-50.1	14.8	0.00e+00	0	57	0	993001472	57	4958
2026-01-01 12:23:13.76	323.98	11.45	-47.7	-49.9	14.9	0.00e+00	0	57	0	995098624	57	4862
2026-01-01 12:23:14.74	324.12	11.39	-47.6	-49.8	15.0	0.00e+00	0	57	0	997195776	57	4794
2026-01-01 12:23:15.72	324.26	11.33	-47.7	-49.9	15.0	0.00e+00	0	57	0	999292928	57	4847
2026-01-01 12:23:16.71	324.40	11.27	-47.6	-49.7	15.2	7.00e-07	0	57	0	1000341504	57	4713
2026-01-01 12:23:17.70	324.53	11.21	-47.5	-49.6	15.3	0.00e+00	0	57	0	1002438656	57	4654
2026-01-01 12:23:18.69	324.67	11.15	-47.3	-49.2	15.6	0.00e+00	0	57	0	1004535808	57	4478
2026-01-01 12:23:19.68	324.81	11.09	-47.4	-49.3	15.5	0.00e+00	0	57	0	1006632960	57	4535
2026-01-01 12:23:20.67	324.95	11.03	-47.5	-49.5	15.3	0.00e+00	0	57	0	1008730112	57	4644
2026-01-01 12:23:21.66	325.08	10.97	-47.7	-49.8	15.0	0.00e+00	0	57	0	1009778688	57	4804
2026-01-01 12:23:22.65	325.22	10.91	-47.7	-49.9	15.0	7.00e-07	0	57	0	1011875840	57	4820
2026-01-01 12:23:23.65	325.36	10.85	-48.0	-50.3	14.6	0.00e+00	0	57	0	1013972992	57	5052
2026-01-01 12:23:24.63	325.49	10.79	-48.2	-50.6	14.3	0.00e+00	0	57	0	1016070144	58	4964
2026-01-01 12:23:25.62	325.63	10.74	-48.3	-50.7	14.1	2.20e-06	0	57	0	1017118720	58	5041
2026-01-01 12:23:26.61	325.76	10.68	-48.5	-51.1	13.8	2.20e-06	0	57	0	1019215872	58	5258
2026-01-01 12:23:27.60	325.89	10.62	-48.6	-51.2	13.6	8.30e-06	0	57	0	1021313024	59	5040
2026-01-01 12:23:28.58	326.02	10.56	-48.5	-51.3	13.6	5.30e-06	0	57	0	1023410176	59	5081
2026-01-01 12:23:29.57	326.16	10.50	-48.5	-51.1	13.8	6.10e-06	0	57	0	1024458752	59	4927
2026-01-01 12:23:30.55	326.29	10.44	-48.2	-50.6	14.2	2.20e-06	0	57	0	1026555904	59	4695
2026-01-01 12:23:31.54	326.42	10.38	-48.1	-50.4	14.4	7.00e-07	0	57	0	1028653056	59	4596
2026-01-01 12:23:32.52	326.55	10.32	-48.1	-50.5	14.3	7.00e-07	0	57	0	1030750208	59	4629
2026-01-01 12:23:33.52	326.68	10.26	-48.1	-50.5	14.3	7.00e-07	0	57	0	1031798784	59	4633
2026-01-01 12:23:34.50	326.81	10.20	-48.2	-50.6	14.2	7.00e-07	0	57	0	1033895936	59	4676
2026-01-01 12:23:35.49	326.94	10.14	-48.2	-50.7	14.1	3.00e-06	0	57	0	1035993088	59	4748
2026-01-01 12:23:36.48	327.07	10.08	-48.4	-51.0	13.8	1.50e-06	0	57	0	1038090240	59	4882
2026-01-01 12:23:37.47	327.19	10.03	-48.4	-51.0	13.8	5.30e-06	0	57	0	1040187392	59	4876
2026-01-01 12:23:38.46	327.32	9.97	-48.3	-50.9	13.8	5.30e-06	0	57	0	1041235968	59	4868
2026-01-01 12:23:39.45	327.45	9.91	-48.4	-51.1	13.7	3.00e-06	0	57	0	1043333120	59	4949
2026-01-01 12:23:40.43	327.58	9.85	-48.4	-51.1	13.6	1.29e-05	0	57	0	1045430272	59	4960
2026-01-01 12:23:41.42	327.70	9.79	-48.4	-51.0	13.8	7.60e-06	0	57	0	1047527424	59	4891
2026-01-01 12:23:42.41	327.83	9.73	-48.5	-51.2	13.7	3.80e-06	0	57	0	1048576000	59	5011
2026-01-01 12:23:43.40	327.95	9.67	-48.4	-51.0	13.7	9.10e-06	0	57	0	1050673152	59	4926
2026-01-01 12:23:44.39	328.08	9.61	-48.3	-50.8	14.0	1.50e-06	0	57	0	1052770304	59	4770
2026-01-01 12:23:45.38	328.20	9.55	-48.0	-50.5	14.3	7.00e-07	0	57	0	1054867456	59	4604
2026-01-01 12:23:46.38	328.33	9.49	-48.1	-50.5	14.3	2.20e-06	0	57	0	1055916032	59	4624
2026-01-01 12:23:47.37	328.45	9.43	-48.2	-50.6	14.1	7.00e-07	0	57	0	1058013184	59	4689
2026-01-01 12:23:48.36	328.57	9.38	-48.2	-50.6	14.1	7.00e-07	0	57	0	1060110336	59	4674
2026-01-01 12:23:49.36	328.70	9.32	-48.3	-50.8	14.0	7.00e-07	0	57	0	1062207488	59	4794
2026-01-01 12:23:50.35	328.82	9.26	-48.5	-51.0	13.8	3.00e-06	0	57	0	1064304640	59	4909
2026-01-01 12:23:51.33	328.94	9.20	-48.5	-51.1	13.7	6.10e-06	0	57	0	1065353216	59	4955
2026-01-01 12:23:52.32	329.06	9.14	-48.4	-51.1	13.6	7.60e-06	0	57	0	1067450368	59	4970
2026-01-01 12:23:53.30	329.18	9.08	-48.6	-51.4	13.4	8.30e-06	0	57	0	1069547520	59	5111
2026-01-01 12:23:54.30	329.30	9.02	-48.5	-51.4	13.4	1.90e-05	0	57	0	1071644672	59	5108
2026-01-01 12:23:55.28	329.42	8.96	-48.5	-51.2	13.6	9.90e-06	0	57	0	1072693248	59	4998
2026-01-01 12:23:56.28	329.54	8.90	-48.3	-50.8	13.9	1.22e-05	0	57	0	1074790400	59	4788
2026-01-01 12:23:57.27	329.66	8.85	-48.2	-50.9	13.8	4.50e-06	0	57	0	1076887552	59	4819
2026-01-01 12:23:58.25	329.78	8.79	-48.1	-50.6	14.1	1.50e-06	0	57	0	1078984704	59	4654
2026-01-01 12:23:59.25	329.90	8.73	-48.1	-50.6	14.2	1.50e-06	0	57	0	1080033280	59	4659
2026-01-01 12:24:00.23	330.01	8.67	-48.2	-50.8	14.0	2.20e-06	0	57	0	1082130432	59	4773
2026-01-01 12:24:01.21	330.13	8.61	-48.3	-50.8	13.8	3.80e-06	0	57	0	1084227584	59	4804
2026-01-01 12:24:02.21	330.25	8.55	-48.1	-50.6	14.1	1.50e-06	0	57	0	1086324736	59	4672
2026-01-01 12:24:03.20	330.36	8.49	-48.2	-50.7	14.0	0.00e+00	0	57	0	1088421888	59	4749
2026-01-01 12:24:04.18	330.48	8.44	-48.3	-50.8	13.8	1.50e-06	0	57	0	1089470464	59	4789
2026-01-01 12:24:05.17	330.59	8.38	-48.4	-51.1	13.7	3.80e-06	0	57	0	1091567616	59	4960
2026-01-01 12:24:06.16	330.71	8.32	-48.6	-51.5	13.2	2.13e-05	0	57	0	1093664768	59	5174
2026-01-01 12:24:07.15	330.82	8.26	-48.6	-51.4	13.3	2.44e-05	0	57	0	1095761920	59	5139
2026-01-01 12:24:08.14	330.93	8.20	-48.9	-51.9	12.7	4.57e-05	0	57	0	1096810496	59	5462
2026-01-01 12:24:09.13	331.05	8.15	-48.8	-51.8	12.8	6.10e-05	0	57	0	1098907648	59	5385
2026-01-01 12:24:10.12	331.16	8.09	-48.8	-51.8	12.9	6.63e-05	0	57	0	1101004800	59	5349
2026-01-01 12:24:11.11	331.27	8.03	-48.6	-51.4	13.2	3.43e-05	0	57	0	1103101952	59	5144
2026-01-01 12:24:12.10	331.39	7.97	-48.3	-51.0	13.7	1.75e-05	0	57	0	1104150528	59	4897
2026-01-01 12:24:13.09	331.50	7.91	-48.1	-50.6	14.0	3.00e-06	0	57	0	1106247680	59	4703
2026-01-01 12:24:14.07	331.61	7.86	-48.0	-50.4	14.2	0.00e+00	0	57	0	1108344832	59	4572
2026-01-01 12:24:15.07	331.72	7.80	-47.9	-50.3	14.2	0.00e+00	0	57	0	1110441984	58	4796
2026-01-01 12:24:16.06	331.83	7.74	-47.9	-50.3	14.4	7.00e-07	0	57	0	1111490560	58	4763
2026-01-01 12:24:17.04	331.94	7.68	-47.8	-50.1	14.5	7.00e-07	0	57	0	1113587712	58	4701
2026-01-01 12:24:18.04	332.05	7.62	-47.8	-50.2	14.5	0.00e+00	0	57	0	1115684864	57	4998
2026-01-01 12:24:19.02	332.16	7.57	-47.9	-50.2	14.3	7.00e-07	0	57	0	1117782016	57	5041
2026-01-01 12:24:20.02	332.27	7.51	-47.9	-50.4	14.2	0.00e+00	0	57	0	1119879168	57	5102
2026-01-01 12:24:21.00	332.37	7.45	-48.0	-50.4	14.2	1.50e-06	0	57	0	1120927744	57	5115
2026-01-01 12:24:21.98	332.48	7.39	-48.2	-50.8	13.7	5.30e-06	0	57	0	1123024896	58	5081
2026-01-01 12:24:22.98	332.59	7.34	-48.3	-51.0	13.6	6.10e-06	0	57	0	1125122048	58	5163
2026-01-01 12:24:23.97	332.70	7.28	-48.4	-51.3	13.3	7.60e-06	0	57	0	1127219200	58	5343
2026-01-01 12:24:24.96	332.80	7.22	-48.5	-51.4	13.1	2.21e-05	0	57	0	1128267776	58	5448
2026-01-01 12:24:25.94	332.91	7.16	-48.6	-51.6	13.0	2.36e-05	0	57	0	1130364928	59	5239
2026-01-01 12:24:26.93	333.02	7.11	-48.6	-51.6	12.9	4.34e-05	0	57	0	1132462080	59	5254
2026-01-01 12:24:27.92	333.12	7.05	-48.6	-51.6	12.9	4.73e-05	0	57	0	1134559232	59	5262
2026-01-01 12:24:28.91	333.23	6.99	-48.5	-51.5	13.1	3.81e-05	0	57	0	1135607808	59	5168
2026-01-01 12:24:29.89	333.33	6.93	-48.6	-51.6	12.9	6.10e-05	0	57	0	1137704960	59	5264
2026-01-01 12:24:30.88	333.43	6.88	-48.6	-51.7	12.8	6.86e-05	0	57	0	1139802112	59	5300
2026-01-01 12:24:31.86	333.54	6.82	-48.7	-51.8	12.7	7.47e-05	0	57	0	1141899264	59	5357
2026-01-01 12:24:32.85	333.64	6.76	-48.8	-52.1	12.3	1.31e-04	0	57	0	1143996416	59	5566
2026-01-01 12:24:33.84	333.74	6.71	-48.9	-52.2	12.2	1.95e-04	0	57	0	1145044992	59	5606
2026-01-01 12:24:34.82	333.85	6.65	-49.0	-52.5	11.9	2.37e-04	0	57	0	1147142144	59	5800
2026-01-01 12:24:35.82	333.95	6.59	-49.1	-52.7	11.6	4.72e-04	0	57	0	1149239296	60	5654
2026-01-01 12:24:36.81	334.05	6.54	-49.2	-52.9	11.4	6.87e-04	0	57	0	1151336448	60	5779
2026-01-01 12:24:37.79	334.15	6.48	-49.3	-53.1	11.3	1.02e-03	0	57	0	1152385024	60	5859
2026-01-01 12:24:38.78	334.25	6.42	-49.5	-53.5	10.9	1.85e-03	0	57	0	1154482176	60	6165
2026-01-01 12:24:39.77	334.35	6.37	-49.4	-53.4	10.9	2.43e-03	0	57	0	1156579328	60	6125
2026-01-01 12:24:40.76	334.45	6.31	-49.5	-53.8	10.5	3.72e-03	0	57	0	1158676480	60	6383
2026-01-01 12:24:41.75	334.55	6.25	-49.5	-53.6	10.7	3.81e-03	0	57	0	1159725056	61	5920
2026-01-01 12:24:42.74	334.65	6.20	-49.4	-53.5	10.9	2.33e-03	0	57	0	1161822208	61	5821
2026-01-01 12:24:43.73	334.75	6.14	-49.4	-53.5	10.8	2.78e-03	0	57	0	1163919360	60	6176
2026-01-01 12:24:44.72	334.85	6.08	-49.4	-53.4	10.9	2.06e-03	0	57	0	1166016512	60	6082
2026-01-01 12:24:45.71	334.95	6.03	-49.4	-53.5	10.7	1.99e-03	0	57	0	1168113664	60	6199
2026-01-01 12:24:46.70	335.05	5.97	-49.4	-53.5	10.8	2.33e-03	0	57	0	1169162240	60	6169
2026-01-01 12:24:47.68	335.15	5.91	-49.5	-53.8	10.4	3.86e-03	0	57	0	1171259392	60	6402
2026-01-01 12:24:48.67	335.25	5.86	-49.5	-53.8	10.4	5.17e-03	0	57	0	1173356544	60	6356
2026-01-01 12:24:49.65	335.34	5.80	-49.4	-53.5	10.7	3.41e-03	0	57	0	1175453696	60	6133
2026-01-01 12:24:50.64	335.44	5.75	-49.4	-53.7	10.5	3.12e-03	0	57	0	1176502272	60	6282
2026-01-01 12:24:51.63	335.53	5.69	-49.5	-53.8	10.4	4.76e-03	0	57	0	1178599424	60	6420
2026-01-01 12:24:52.62	335.63	5.63	-49.4	-53.5	10.7	2.97e-03	0	57	0	1180696576	60	6141
2026-01-01 12:24:53.60	335.73	5.58	-49.4	-53.5	10.6	2.34e-03	0	57	0	1182793728	60	6198
2026-01-01 12:24:54.57	335.82	5.52	-49.4	-53.5	10.7	3.99e-03	0	57	0	1183842304	60	6172
2026-01-01 12:24:55.56	335.92	5.47	-49.3	-53.5	10.7	3.23e-03	0	57	0	1185939456	60	6167
2026-01-01 12:24:56.55	336.01	5.41	-49.5	-53.9	10.2	8.14e-03	0	57	0	1188036608	61	6128
2026-01-01 12:24:57.55	336.11	5.36	-49.4	-53.6	10.5	5.51e-03	0	57	0	1190133760	61	5920
2026-01-01 12:24:58.53	336.20	5.30	-49.2	-53.2	11.0	3.03e-03	0	57	0	1191182336	61	5605
2026-01-01 12:24:59.52	336.29	5.25	-49.2	-53.1	11.0	2.23e-03	0	57	0	1193279488	61	5587
2026-01-01 12:25:00.52	336.39	5.19	-49.0	-52.7	11.4	1.23e-03	0	57	0	1195376640	60	5654
2026-01-01 12:25:01.50	336.48	5.13	-49.0	-52.9	11.3	8.28e-04	0	57	0	1197473792	60	5734
2026-01-01 12:25:02.50	336.57	5.08	-48.8	-52.6	11.7	9.17e-04	0	57	0	1199570944	60	5529
2026-01-01 12:25:03.50	336.67	5.02	-51.4	-64.9	3.8	9.25e-01	0	57	104	1200619520	64	18208
2026-01-01 12:25:04.48	336.76	4.97	-51.6	-65.4	3.8	1.49e+00	0	57	104	1200619520	65	18211
