passes_logs/2026/01/01/R3.0SM8_Murmansk_STILSPACE/R3.0SM8_Murmansk_STILSPACE__20260101_014434_NOAA_21_JPSS-2_rec.log

#Pass ID: 20260101_014434_NOAA 21 (JPSS-2)
#Satellite: NOAA 21 (JPSS-2)
#Configuration: NOAA-21
#almurnet v.1.7.20240730
#Start time: 2026-01-01 01:52:49

#Version: 2.2.20231116
#Station: R3.0SM8_Murmansk_STILSPACE
#Location: 33.092731 lon 68.902999 lat
#TLE: 1 54234U 22150A   25365.42224288  .00000199  00000+0  11529-3 0  9990
#TLE: 2 54234  98.7483 301.4995 0001320 356.2106   3.9060 14.19530300162743

#Time	Az	El	Level	Level2	SNR	BER	BlckErr	Temp	State	Recorded	gain1	gain2
2026-01-01 01:52:49.79	265.24	41.38	-53.0	-63.2	3.8	8.46e-01	0	62	0	0	67	12406
2026-01-01 01:52:50.77	264.91	41.18	-53.0	-64.7	3.8	1.49e+00	0	62	104	0	69	13281
2026-01-01 01:52:51.76	264.59	40.99	-53.0	-64.7	3.8	1.49e+00	0	63	104	0	69	13328
2026-01-01 01:52:52.74	264.27	40.80	-53.0	-64.7	3.8	1.49e+00	0	62	104	0	69	13335
2026-01-01 01:52:53.72	263.96	40.60	-53.0	-64.7	3.8	1.49e+00	0	63	104	0	69	13312
2026-01-01 01:52:54.71	263.64	40.41	-53.0	-64.7	3.8	1.49e+00	0	62	104	0	68	14085
2026-01-01 01:52:55.68	263.34	40.22	-53.0	-64.7	3.8	1.49e+00	0	62	104	0	68	14051
2026-01-01 01:52:56.66	263.04	40.02	-53.0	-64.7	3.8	1.49e+00	0	62	104	0	68	14099
2026-01-01 01:52:57.65	262.73	39.83	-53.2	-64.7	3.8	1.49e+00	0	62	104	0	68	14092
2026-01-01 01:52:58.63	262.44	39.64	-53.0	-64.7	3.8	1.49e+00	0	62	104	0	68	14085
2026-01-01 01:52:59.61	262.15	39.44	-53.2	-64.7	3.8	1.49e+00	0	62	104	0	68	14089
2026-01-01 01:53:00.59	261.86	39.25	-53.1	-64.6	3.8	1.49e+00	0	63	104	0	68	14043
2026-01-01 01:53:01.58	261.57	39.06	-53.0	-64.6	3.8	1.49e+00	0	62	104	0	68	13994
2026-01-01 01:53:02.56	261.29	38.87	-52.9	-64.6	3.8	1.49e+00	0	62	104	0	68	13990
2026-01-01 01:53:03.54	261.01	38.67	-52.9	-64.7	3.8	1.49e+00	0	63	104	0	68	14049
2026-01-01 01:53:04.53	260.73	38.48	-52.9	-64.5	3.8	1.49e+00	0	62	104	0	68	13789
2026-01-01 01:53:05.51	260.46	38.29	-53.0	-64.5	3.8	1.49e+00	0	62	104	0	68	13858
2026-01-01 01:53:06.50	260.19	38.10	-53.1	-64.6	3.8	1.49e+00	0	63	104	0	68	13978
2026-01-01 01:53:07.48	259.92	37.91	-53.1	-64.5	3.8	1.49e+00	0	62	104	0	68	13866
2026-01-01 01:53:08.46	259.66	37.72	-53.0	-64.5	3.8	1.49e+00	0	62	104	0	68	13880
2026-01-01 01:53:09.45	259.40	37.53	-53.1	-64.6	3.8	1.49e+00	0	62	104	0	68	13927
2026-01-01 01:53:10.43	259.14	37.34	-52.9	-64.5	3.8	1.49e+00	0	63	104	0	68	13883
2026-01-01 01:53:11.41	258.89	37.15	-53.1	-64.5	3.8	1.49e+00	0	62	104	0	68	13846
2026-01-01 01:53:12.39	258.64	36.96	-52.9	-64.5	3.8	1.49e+00	0	62	104	0	68	13813
2026-01-01 01:53:13.37	258.39	36.77	-53.1	-64.5	3.8	1.49e+00	0	62	104	0	68	13854
2026-01-01 01:53:14.36	258.15	36.58	-53.1	-64.6	3.8	1.49e+00	0	63	104	0	68	13893
2026-01-01 01:53:15.34	257.91	36.40	-53.1	-64.6	3.8	1.49e+00	0	62	104	0	68	13920
2026-01-01 01:53:16.32	257.67	36.21	-53.1	-64.6	3.8	1.49e+00	0	62	104	0	68	13901
2026-01-01 01:53:17.31	257.43	36.02	-53.1	-64.6	3.8	1.49e+00	0	63	104	0	68	13892
2026-01-01 01:53:18.29	257.19	35.84	-53.1	-64.5	3.8	1.49e+00	0	63	104	0	68	13838
2026-01-01 01:53:19.27	256.96	35.65	-53.1	-64.5	3.8	1.49e+00	0	62	104	0	68	13875
2026-01-01 01:53:20.26	256.73	35.47	-53.1	-64.5	3.8	1.49e+00	0	62	104	0	68	13878
2026-01-01 01:53:21.25	256.51	35.28	-53.1	-64.5	3.8	1.49e+00	0	62	104	0	68	13804
2026-01-01 01:53:22.23	256.28	35.10	-53.1	-64.5	3.8	1.49e+00	0	63	104	0	68	13843
2026-01-01 01:53:23.21	256.06	34.92	-53.1	-64.5	3.8	1.49e+00	0	62	104	0	68	13743
2026-01-01 01:53:24.19	255.84	34.74	-53.1	-64.2	3.8	1.49e+00	0	62	104	0	68	13388
2026-01-01 01:53:25.18	255.63	34.55	-53.0	-63.9	3.8	1.49e+00	0	62	104	0	68	12945
2026-01-01 01:53:26.16	255.41	34.37	-53.0	-63.7	3.8	1.49e+00	0	62	104	0	68	12541
2026-01-01 01:53:27.14	255.20	34.19	-53.0	-63.6	3.8	1.49e+00	0	62	104	0	68	12465
2026-01-01 01:53:28.12	254.99	34.01	-53.0	-63.7	3.8	1.49e+00	0	62	104	0	68	12663
2026-01-01 01:53:29.10	254.79	33.83	-53.0	-64.0	3.8	1.49e+00	0	62	104	0	68	13074
2026-01-01 01:53:30.09	254.58	33.65	-52.9	-64.3	3.8	1.49e+00	0	62	104	0	68	13430
2026-01-01 01:53:31.07	254.38	33.48	-52.9	-64.4	3.8	1.49e+00	0	62	104	0	68	13580
2026-01-01 01:53:32.05	254.18	33.30	-52.9	-64.4	3.8	1.49e+00	0	62	104	0	68	13622
2026-01-01 01:53:33.03	253.98	33.12	-53.0	-64.4	3.8	1.49e+00	0	62	104	0	68	13636
2026-01-01 01:53:34.02	253.79	32.94	-53.0	-64.1	3.8	1.49e+00	0	62	104	0	68	13248
2026-01-01 01:53:35.00	253.59	32.77	-52.5	-60.7	4.0	1.48e+00	0	62	104	0	68	8881
2026-01-01 01:53:35.97	253.41	32.60	-51.0	-55.0	8.0	1.57e-01	0	62	0	1048576	65	5524
2026-01-01 01:53:36.94	253.22	32.42	-49.4	-51.9	11.5	1.81e-03	0	63	0	4194304	62	4549
2026-01-01 01:53:37.91	253.03	32.25	-48.2	-49.9	13.5	4.04e-05	0	62	0	7340032	59	4316
2026-01-01 01:53:38.87	252.85	32.08	-47.4	-48.9	14.5	7.00e-07	0	62	0	10485760	58	4074
2026-01-01 01:53:39.84	252.67	31.91	-46.8	-48.1	15.3	0.00e+00	0	62	0	13631488	56	4171
2026-01-01 01:53:40.80	252.50	31.75	-46.1	-47.3	16.0	0.00e+00	0	62	0	16777216	55	4016
2026-01-01 01:53:41.77	252.32	31.58	-45.9	-47.0	16.3	0.00e+00	0	62	0	19922944	55	3892
2026-01-01 01:53:42.74	252.14	31.41	-46.2	-47.3	15.9	0.00e+00	0	62	0	22020096	54	4291
2026-01-01 01:53:43.71	251.97	31.24	-47.0	-48.4	14.9	0.00e+00	0	62	0	25165824	55	4581
2026-01-01 01:53:44.67	251.80	31.08	-47.7	-49.3	14.1	1.50e-06	0	62	0	28311552	57	4495
2026-01-01 01:53:45.64	251.63	30.91	-47.2	-48.7	14.7	7.00e-07	0	62	0	31457280	57	4201
2026-01-01 01:53:46.61	251.46	30.74	-47.1	-48.6	14.8	0.00e+00	0	62	0	34603008	57	4146
2026-01-01 01:53:47.58	251.29	30.58	-47.1	-48.5	14.8	0.00e+00	0	62	0	37748736	57	4135
2026-01-01 01:53:48.55	251.13	30.41	-46.5	-47.7	15.7	0.00e+00	0	62	0	40894464	56	3986
2026-01-01 01:53:49.52	250.97	30.25	-46.0	-47.2	16.1	0.00e+00	0	62	0	44040192	55	3974
2026-01-01 01:53:50.49	250.81	30.09	-45.7	-46.7	16.5	0.00e+00	0	62	0	46137344	54	3999
2026-01-01 01:53:51.46	250.65	29.93	-45.5	-46.5	16.8	0.00e+00	0	62	0	49283072	54	3893
2026-01-01 01:53:52.43	250.49	29.76	-45.5	-46.5	16.7	0.00e+00	0	62	0	52428800	54	3900
2026-01-01 01:53:53.40	250.33	29.60	-45.6	-46.7	16.6	0.00e+00	0	62	0	55574528	54	3967
2026-01-01 01:53:54.36	250.18	29.44	-45.8	-46.9	16.3	0.00e+00	0	62	0	58720256	54	4082
2026-01-01 01:53:55.33	250.03	29.28	-46.0	-47.1	16.1	0.00e+00	0	62	0	61865984	54	4172
2026-01-01 01:53:56.30	249.87	29.13	-45.7	-46.7	16.5	0.00e+00	0	62	0	65011712	54	3994
2026-01-01 01:53:57.26	249.72	28.97	-45.4	-46.5	16.7	0.00e+00	0	62	0	68157440	54	3879
2026-01-01 01:53:58.24	249.57	28.81	-45.4	-46.4	16.8	0.00e+00	0	62	0	71303168	53	4054
2026-01-01 01:53:59.20	249.43	28.65	-45.3	-46.3	16.9	0.00e+00	0	62	0	74448896	53	4037
2026-01-01 01:54:00.17	249.28	28.50	-45.2	-46.3	16.9	0.00e+00	0	62	0	76546048	53	4024
2026-01-01 01:54:01.14	249.14	28.34	-45.2	-46.2	17.0	0.00e+00	0	62	0	79691776	53	3985
2026-01-01 01:54:02.11	249.00	28.19	-45.3	-46.4	16.8	0.00e+00	0	62	0	82837504	53	4065
2026-01-01 01:54:03.08	248.85	28.03	-45.6	-46.6	16.6	0.00e+00	0	62	0	85983232	53	4174
2026-01-01 01:54:04.05	248.71	27.88	-45.2	-46.2	17.0	0.00e+00	0	62	0	89128960	53	3972
2026-01-01 01:54:05.02	248.57	27.73	-44.9	-45.9	17.3	0.00e+00	0	62	0	92274688	53	3827
2026-01-01 01:54:05.99	248.44	27.57	-44.8	-45.7	17.5	0.00e+00	0	62	0	95420416	52	3970
2026-01-01 01:54:06.96	248.30	27.42	-44.6	-45.5	17.6	0.00e+00	0	62	0	98566144	52	3906
2026-01-01 01:54:07.93	248.17	27.27	-44.6	-45.5	17.6	0.00e+00	0	62	0	100663296	52	3905
2026-01-01 01:54:08.90	248.03	27.12	-44.5	-45.3	17.8	0.00e+00	0	62	0	103809024	52	3816
2026-01-01 01:54:09.88	247.90	26.97	-44.4	-45.3	17.8	0.00e+00	0	62	0	106954752	52	3795
2026-01-01 01:54:10.84	247.77	26.82	-44.5	-45.3	17.9	0.00e+00	0	62	0	110100480	51	4036
2026-01-01 01:54:11.81	247.64	26.67	-44.5	-45.4	17.8	0.00e+00	0	62	0	113246208	51	4071
2026-01-01 01:54:12.78	247.51	26.53	-44.4	-45.2	18.1	0.00e+00	0	62	0	116391936	51	3976
2026-01-01 01:54:13.75	247.38	26.38	-44.3	-45.1	18.1	0.00e+00	0	62	0	119537664	51	3925
2026-01-01 01:54:14.72	247.26	26.23	-44.3	-45.1	18.1	0.00e+00	0	62	0	122683392	51	3939
2026-01-01 01:54:15.68	247.13	26.09	-44.3	-45.1	18.1	0.00e+00	0	62	0	125829120	51	3945
2026-01-01 01:54:16.64	247.01	25.94	-44.3	-45.2	18.0	0.00e+00	0	62	0	128974848	51	3962
2026-01-01 01:54:17.61	246.89	25.80	-44.5	-45.3	17.9	0.00e+00	0	62	0	131072000	51	4040
2026-01-01 01:54:18.58	246.77	25.65	-44.4	-45.2	18.0	0.00e+00	0	62	0	134217728	51	3998
2026-01-01 01:54:19.55	246.65	25.51	-44.5	-45.4	17.8	0.00e+00	0	62	0	137363456	51	4068
2026-01-01 01:54:20.52	246.53	25.37	-44.5	-45.3	17.9	0.00e+00	0	62	0	140509184	51	4030
2026-01-01 01:54:21.48	246.41	25.23	-44.4	-45.3	18.0	0.00e+00	0	62	0	143654912	51	4009
2026-01-01 01:54:22.44	246.29	25.09	-44.3	-45.1	18.1	0.00e+00	0	62	0	146800640	51	3958
2026-01-01 01:54:23.42	246.18	24.95	-44.4	-45.2	18.0	0.00e+00	0	62	0	149946368	51	3999
2026-01-01 01:54:24.38	246.06	24.81	-44.6	-45.4	17.8	0.00e+00	0	62	0	153092096	51	4098
2026-01-01 01:54:25.35	245.95	24.67	-44.7	-45.6	17.6	0.00e+00	0	62	0	155189248	51	4170
2026-01-01 01:54:26.32	245.84	24.53	-44.7	-45.6	17.6	0.00e+00	0	62	0	158334976	51	4186
2026-01-01 01:54:27.29	245.72	24.39	-45.0	-45.9	17.3	0.00e+00	0	62	0	161480704	51	4331
2026-01-01 01:54:28.26	245.61	24.25	-45.0	-45.9	17.3	0.00e+00	0	62	0	164626432	51	4338
2026-01-01 01:54:29.23	245.50	24.11	-45.0	-45.9	17.3	0.00e+00	0	62	0	167772160	51	4340
2026-01-01 01:54:30.20	245.39	23.98	-45.4	-46.5	16.7	0.00e+00	0	62	0	170917888	52	4341
2026-01-01 01:54:31.17	245.29	23.84	-45.5	-46.6	16.6	0.00e+00	0	62	0	174063616	52	4416
2026-01-01 01:54:32.13	245.18	23.71	-45.4	-46.5	16.7	0.00e+00	0	62	0	177209344	52	4344
2026-01-01 01:54:33.10	245.07	23.57	-45.6	-46.7	16.5	0.00e+00	0	62	0	180355072	52	4443
2026-01-01 01:54:34.07	244.97	23.44	-45.9	-47.0	16.2	0.00e+00	0	62	0	182452224	53	4364
2026-01-01 01:54:35.04	244.86	23.30	-45.7	-46.7	16.4	0.00e+00	0	62	0	185597952	53	4229
2026-01-01 01:54:36.01	244.76	23.17	-45.8	-46.8	16.3	0.00e+00	0	62	0	188743680	53	4291
2026-01-01 01:54:36.97	244.66	23.04	-46.2	-47.3	15.8	0.00e+00	0	62	0	191889408	54	4288
2026-01-01 01:54:37.94	244.56	22.91	-45.8	-46.9	16.3	0.00e+00	0	62	0	195035136	54	4076
2026-01-01 01:54:38.91	244.46	22.78	-45.6	-46.6	16.5	0.00e+00	0	62	0	198180864	54	3958
2026-01-01 01:54:39.88	244.36	22.65	-45.4	-46.5	16.7	0.00e+00	0	62	0	201326592	54	3875
2026-01-01 01:54:40.85	244.26	22.52	-45.3	-46.3	16.9	0.00e+00	0	62	0	204472320	53	4022
2026-01-01 01:54:41.82	244.16	22.39	-45.3	-46.3	16.8	0.00e+00	0	62	0	207618048	53	4023
2026-01-01 01:54:42.80	244.06	22.26	-45.1	-46.1	17.1	0.00e+00	0	62	0	209715200	53	3928
2026-01-01 01:54:43.77	243.96	22.13	-45.1	-46.0	17.1	0.00e+00	0	62	0	212860928	53	3900
2026-01-01 01:54:44.73	243.87	22.00	-45.2	-46.2	17.0	0.00e+00	0	62	0	216006656	53	3976
2026-01-01 01:54:45.72	243.77	21.87	-45.0	-46.0	17.1	0.00e+00	0	62	0	219152384	53	3883
2026-01-01 01:54:46.69	243.68	21.74	-44.8	-45.7	17.4	0.00e+00	0	62	0	222298112	52	3984
2026-01-01 01:54:47.67	243.58	21.62	-44.6	-45.4	17.7	0.00e+00	0	62	0	225443840	52	3862
2026-01-01 01:54:48.64	243.49	21.49	-44.4	-45.3	17.8	0.00e+00	0	62	0	228589568	52	3796
2026-01-01 01:54:49.60	243.40	21.37	-44.4	-45.2	17.9	0.00e+00	0	62	0	231735296	51	3998
2026-01-01 01:54:50.57	243.31	21.24	-44.4	-45.3	17.9	0.00e+00	0	62	0	234881024	51	4018
2026-01-01 01:54:51.54	243.22	21.12	-44.5	-45.3	17.8	0.00e+00	0	62	0	236978176	51	4029
2026-01-01 01:54:52.51	243.13	20.99	-44.5	-45.3	17.9	0.00e+00	0	62	0	240123904	51	4030
2026-01-01 01:54:53.47	243.04	20.87	-44.5	-45.3	17.8	0.00e+00	0	62	0	243269632	51	4048
2026-01-01 01:54:54.44	242.96	20.75	-44.4	-45.3	17.9	0.00e+00	0	62	0	246415360	51	4028
2026-01-01 01:54:55.40	242.87	20.63	-44.4	-45.3	17.9	0.00e+00	0	62	0	249561088	51	4005
2026-01-01 01:54:56.37	242.78	20.51	-44.5	-45.4	17.8	0.00e+00	0	62	0	252706816	51	4058
2026-01-01 01:54:57.34	242.70	20.39	-44.6	-45.5	17.7	0.00e+00	0	62	0	255852544	51	4131
2026-01-01 01:54:58.31	242.61	20.26	-44.5	-45.4	17.8	0.00e+00	0	62	0	258998272	51	4076
2026-01-01 01:54:59.29	242.53	20.14	-44.6	-45.5	17.7	0.00e+00	0	62	0	262144000	51	4120
2026-01-01 01:55:00.25	242.44	20.03	-44.8	-45.7	17.5	0.00e+00	0	62	0	264241152	51	4203
2026-01-01 01:55:01.22	242.36	19.91	-44.8	-45.7	17.4	0.00e+00	0	62	0	267386880	51	4228
2026-01-01 01:55:02.19	242.28	19.79	-44.7	-45.6	17.5	0.00e+00	0	62	0	270532608	51	4179
2026-01-01 01:55:03.16	242.20	19.67	-44.7	-45.6	17.5	0.00e+00	0	62	0	273678336	51	4182
2026-01-01 01:55:04.12	242.11	19.55	-44.7	-45.6	17.5	0.00e+00	0	62	0	276824064	51	4172
2026-01-01 01:55:05.09	242.03	19.44	-44.9	-45.9	17.3	0.00e+00	0	62	0	279969792	51	4297
2026-01-01 01:55:06.06	241.95	19.32	-44.7	-45.6	17.5	0.00e+00	0	62	0	283115520	51	4184
2026-01-01 01:55:07.03	241.88	19.20	-44.9	-45.8	17.3	0.00e+00	0	62	0	286261248	51	4291
2026-01-01 01:55:08.01	241.80	19.09	-45.1	-46.1	17.0	0.00e+00	0	62	0	289406976	52	4164
2026-01-01 01:55:08.98	241.72	18.97	-44.8	-45.7	17.3	0.00e+00	0	62	0	291504128	52	3997
2026-01-01 01:55:09.94	241.64	18.86	-44.6	-45.5	17.6	0.00e+00	0	62	0	294649856	52	3874
2026-01-01 01:55:10.91	241.56	18.74	-44.5	-45.3	17.7	0.00e+00	0	62	0	297795584	52	3815
2026-01-01 01:55:11.88	241.49	18.63	-44.5	-45.4	17.8	0.00e+00	0	62	0	300941312	51	4055
2026-01-01 01:55:12.85	241.41	18.52	-44.5	-45.4	17.7	0.00e+00	0	62	0	304087040	51	4071
2026-01-01 01:55:13.81	241.34	18.41	-44.5	-45.4	17.7	0.00e+00	0	62	0	307232768	51	4075
2026-01-01 01:55:14.78	241.26	18.29	-44.7	-45.6	17.6	0.00e+00	0	62	0	310378496	51	4151
2026-01-01 01:55:15.74	241.19	18.18	-44.6	-45.4	17.7	0.00e+00	0	62	0	313524224	51	4088
2026-01-01 01:55:16.71	241.12	18.07	-44.5	-45.4	17.7	0.00e+00	0	62	0	316669952	51	4066
2026-01-01 01:55:17.68	241.04	17.96	-44.6	-45.5	17.6	0.00e+00	0	62	0	318767104	51	4109
2026-01-01 01:55:18.64	240.97	17.85	-44.8	-45.7	17.4	0.00e+00	0	62	0	321912832	51	4214
2026-01-01 01:55:19.61	240.90	17.74	-44.9	-45.8	17.4	0.00e+00	0	62	0	325058560	51	4262
2026-01-01 01:55:20.58	240.83	17.63	-44.9	-45.8	17.3	0.00e+00	0	62	0	328204288	51	4257
2026-01-01 01:55:21.55	240.76	17.52	-45.0	-45.9	17.2	0.00e+00	0	62	0	331350016	51	4316
2026-01-01 01:55:22.52	240.69	17.41	-45.0	-45.9	17.1	0.00e+00	0	62	0	334495744	52	4073
2026-01-01 01:55:23.49	240.62	17.30	-44.9	-45.8	17.2	0.00e+00	0	62	0	337641472	52	4043
2026-01-01 01:55:24.45	240.55	17.20	-45.1	-46.1	16.9	0.00e+00	0	62	0	340787200	52	4174
2026-01-01 01:55:25.42	240.48	17.09	-45.3	-46.3	16.7	0.00e+00	0	62	0	342884352	52	4274
2026-01-01 01:55:26.38	240.41	16.98	-45.3	-46.3	16.7	0.00e+00	0	62	0	346030080	52	4259
2026-01-01 01:55:27.35	240.35	16.88	-45.4	-46.4	16.6	0.00e+00	0	62	0	349175808	52	4314
2026-01-01 01:55:28.32	240.28	16.77	-45.4	-46.4	16.6	0.00e+00	0	62	0	352321536	52	4311
2026-01-01 01:55:29.29	240.21	16.67	-45.5	-46.6	16.5	0.00e+00	0	62	0	355467264	52	4392
2026-01-01 01:55:30.26	240.15	16.56	-45.6	-46.7	16.3	0.00e+00	0	62	0	358612992	52	4450
2026-01-01 01:55:31.24	240.08	16.45	-45.8	-46.9	16.1	0.00e+00	0	62	0	361758720	53	4309
2026-01-01 01:55:32.21	240.02	16.35	-45.7	-46.8	16.2	0.00e+00	0	62	0	364904448	53	4264
2026-01-01 01:55:33.17	239.95	16.25	-45.9	-47.0	16.0	0.00e+00	0	62	0	368050176	53	4385
2026-01-01 01:55:34.14	239.89	16.14	-45.8	-46.9	16.1	0.00e+00	0	62	0	371195904	53	4333
2026-01-01 01:55:35.11	239.82	16.04	-46.0	-47.2	15.8	0.00e+00	0	62	0	373293056	53	4491
2026-01-01 01:55:36.08	239.76	15.94	-45.9	-47.0	16.0	0.00e+00	0	63	0	376438784	53	4384
2026-01-01 01:55:37.04	239.70	15.83	-45.7	-46.8	16.2	0.00e+00	0	62	0	379584512	53	4278
2026-01-01 01:55:38.01	239.64	15.73	-45.9	-47.0	16.0	0.00e+00	0	62	0	382730240	53	4378
2026-01-01 01:55:38.98	239.57	15.63	-45.9	-47.0	16.0	0.00e+00	0	62	0	385875968	53	4366
2026-01-01 01:55:39.95	239.51	15.53	-45.8	-47.0	16.0	0.00e+00	0	62	0	389021696	53	4354
2026-01-01 01:55:40.92	239.45	15.43	-45.8	-46.9	16.0	0.00e+00	0	62	0	392167424	53	4338
2026-01-01 01:55:41.89	239.39	15.33	-45.9	-47.1	15.9	0.00e+00	0	62	0	394264576	53	4417
2026-01-01 01:55:42.86	239.33	15.23	-45.9	-47.0	16.0	0.00e+00	0	62	0	397410304	53	4367
2026-01-01 01:55:43.83	239.27	15.13	-45.9	-47.1	15.9	0.00e+00	0	62	0	400556032	53	4405
2026-01-01 01:55:44.79	239.21	15.03	-46.0	-47.2	15.8	0.00e+00	0	62	0	403701760	53	4442
2026-01-01 01:55:45.76	239.15	14.93	-45.8	-47.0	16.0	0.00e+00	0	62	0	406847488	53	4352
2026-01-01 01:55:46.73	239.09	14.83	-45.7	-46.8	16.1	0.00e+00	0	62	0	409993216	53	4281
2026-01-01 01:55:47.69	239.04	14.73	-45.7	-46.8	16.1	0.00e+00	0	62	0	413138944	53	4275
2026-01-01 01:55:48.66	238.98	14.64	-45.7	-46.8	16.1	0.00e+00	0	62	0	416284672	53	4280
2026-01-01 01:55:49.63	238.92	14.54	-45.7	-46.9	16.0	0.00e+00	0	62	0	419430400	53	4307
2026-01-01 01:55:50.60	238.87	14.44	-45.8	-47.0	16.0	0.00e+00	0	62	0	422576128	53	4348
2026-01-01 01:55:51.57	238.81	14.34	-45.8	-47.0	16.0	0.00e+00	0	62	0	424673280	53	4360
2026-01-01 01:55:52.54	238.75	14.25	-45.8	-47.0	16.0	0.00e+00	0	62	0	427819008	53	4351
2026-01-01 01:55:53.51	238.70	14.15	-46.0	-47.2	15.7	0.00e+00	0	62	0	430964736	53	4488
2026-01-01 01:55:54.48	238.64	14.05	-46.1	-47.3	15.6	0.00e+00	0	62	0	434110464	54	4291
2026-01-01 01:55:55.44	238.59	13.96	-45.8	-47.0	15.9	0.00e+00	0	62	0	437256192	54	4126
2026-01-01 01:55:56.41	238.53	13.87	-45.7	-46.8	16.1	0.00e+00	0	62	0	440401920	54	4028
2026-01-01 01:55:57.38	238.48	13.77	-45.5	-46.6	16.3	0.00e+00	0	62	0	443547648	54	3954
2026-01-01 01:55:58.35	238.42	13.68	-45.4	-46.5	16.4	0.00e+00	0	62	0	446693376	54	3874
2026-01-01 01:55:59.32	238.37	13.58	-45.3	-46.3	16.5	0.00e+00	0	63	0	448790528	53	4050
2026-01-01 01:56:00.28	238.32	13.49	-45.3	-46.3	16.5	0.00e+00	0	62	0	451936256	53	4037
2026-01-01 01:56:01.25	238.26	13.40	-45.4	-46.5	16.3	0.00e+00	0	62	0	455081984	53	4115
2026-01-01 01:56:02.22	238.21	13.30	-45.5	-46.6	16.2	0.00e+00	0	62	0	458227712	53	4169
2026-01-01 01:56:03.19	238.16	13.21	-45.3	-46.4	16.4	0.00e+00	0	62	0	461373440	53	4091
2026-01-01 01:56:04.16	238.11	13.12	-45.3	-46.4	16.4	0.00e+00	0	62	0	464519168	53	4057
2026-01-01 01:56:05.13	238.06	13.02	-45.3	-46.3	16.5	0.00e+00	0	62	0	467664896	53	4045
2026-01-01 01:56:06.09	238.01	12.93	-45.5	-46.6	16.2	0.00e+00	0	62	0	470810624	53	4175
2026-01-01 01:56:07.06	237.96	12.84	-45.3	-46.4	16.4	0.00e+00	0	62	0	473956352	53	4081
2026-01-01 01:56:08.02	237.91	12.75	-45.5	-46.5	16.2	0.00e+00	0	62	0	476053504	53	4144
2026-01-01 01:56:08.99	237.86	12.66	-45.7	-46.8	16.0	0.00e+00	0	62	0	479199232	53	4285
2026-01-01 01:56:09.96	237.81	12.57	-45.5	-46.7	16.1	0.00e+00	0	62	0	482344960	53	4200
2026-01-01 01:56:10.94	237.76	12.48	-45.6	-46.8	16.0	0.00e+00	0	62	0	485490688	53	4266
2026-01-01 01:56:11.91	237.71	12.39	-46.0	-47.2	15.5	0.00e+00	0	62	0	488636416	53	4482
2026-01-01 01:56:12.88	237.66	12.30	-45.8	-47.0	15.7	0.00e+00	0	62	0	491782144	53	4389
2026-01-01 01:56:13.85	237.61	12.21	-45.8	-47.1	15.7	0.00e+00	0	62	0	494927872	53	4397
2026-01-01 01:56:14.82	237.56	12.12	-45.9	-47.1	15.7	0.00e+00	0	62	0	498073600	53	4411
2026-01-01 01:56:15.79	237.51	12.03	-45.9	-47.2	15.6	0.00e+00	0	62	0	500170752	53	4443
2026-01-01 01:56:16.76	237.46	11.94	-46.0	-47.3	15.4	0.00e+00	0	62	0	503316480	53	4525
2026-01-01 01:56:17.73	237.42	11.86	-46.0	-47.3	15.5	0.00e+00	0	62	0	506462208	54	4255
2026-01-01 01:56:18.69	237.37	11.77	-46.0	-47.3	15.5	7.00e-07	0	62	0	509607936	54	4260
2026-01-01 01:56:19.66	237.32	11.68	-46.1	-47.4	15.3	0.00e+00	0	62	0	512753664	54	4307
2026-01-01 01:56:20.62	237.28	11.59	-46.4	-47.7	15.0	7.00e-07	0	62	0	515899392	54	4468
2026-01-01 01:56:21.59	237.23	11.51	-46.3	-47.7	15.0	0.00e+00	0	62	0	519045120	54	4459
2026-01-01 01:56:22.55	237.19	11.42	-46.2	-47.5	15.2	0.00e+00	0	62	0	522190848	54	4341
2026-01-01 01:56:23.52	237.14	11.33	-46.1	-47.4	15.3	0.00e+00	0	62	0	525336576	54	4294
2026-01-01 01:56:24.49	237.10	11.25	-46.0	-47.3	15.4	0.00e+00	0	62	0	527433728	54	4263
2026-01-01 01:56:25.45	237.05	11.16	-45.9	-47.3	15.4	0.00e+00	0	62	0	530579456	54	4245
2026-01-01 01:56:26.42	237.01	11.08	-46.1	-47.4	15.3	0.00e+00	0	62	0	533725184	54	4321
2026-01-01 01:56:27.39	236.96	10.99	-46.2	-47.6	15.1	0.00e+00	0	62	0	536870912	54	4400
2026-01-01 01:56:28.36	236.92	10.91	-46.2	-47.5	15.1	0.00e+00	0	62	0	540016640	54	4373
2026-01-01 01:56:29.33	236.87	10.82	-46.4	-47.8	14.9	0.00e+00	0	62	0	543162368	54	4512
2026-01-01 01:56:30.30	236.83	10.74	-46.6	-48.0	14.6	0.00e+00	0	62	0	546308096	55	4382
2026-01-01 01:56:31.27	236.79	10.65	-46.4	-47.8	14.9	0.00e+00	0	62	0	549453824	55	4244
2026-01-01 01:56:32.23	236.74	10.57	-46.4	-47.8	14.8	0.00e+00	0	62	0	552599552	55	4258
2026-01-01 01:56:33.20	236.70	10.49	-46.4	-47.9	14.7	7.00e-07	0	62	0	554696704	55	4318
2026-01-01 01:56:34.17	236.66	10.40	-46.7	-48.2	14.4	7.00e-07	0	62	0	557842432	55	4473
2026-01-01 01:56:35.13	236.62	10.32	-46.5	-48.0	14.5	0.00e+00	0	62	0	560988160	55	4391
2026-01-01 01:56:36.10	236.58	10.24	-46.8	-48.4	14.2	2.20e-06	0	62	0	564133888	55	4550
2026-01-01 01:56:37.07	236.53	10.16	-46.7	-48.2	14.4	0.00e+00	0	62	0	567279616	55	4454
2026-01-01 01:56:38.04	236.49	10.07	-46.9	-48.5	14.0	7.00e-07	0	62	0	570425344	55	4638
2026-01-01 01:56:39.00	236.45	9.99	-46.8	-48.3	14.2	1.50e-06	0	62	0	573571072	55	4542
2026-01-01 01:56:39.97	236.41	9.91	-46.9	-48.5	14.0	2.20e-06	0	62	0	576716800	55	4645
2026-01-01 01:56:40.95	236.37	9.83	-47.3	-49.1	13.5	9.10e-06	0	62	0	579862528	56	4661
2026-01-01 01:56:41.91	236.33	9.75	-47.1	-48.8	13.8	4.50e-06	0	62	0	581959680	56	4515
2026-01-01 01:56:42.88	236.29	9.67	-47.4	-49.1	13.5	8.30e-06	0	62	0	585105408	56	4689
2026-01-01 01:56:43.85	236.25	9.59	-47.2	-48.9	13.7	1.44e-05	0	62	0	588251136	56	4569
2026-01-01 01:56:44.82	236.21	9.51	-47.1	-48.7	13.8	6.80e-06	0	62	0	591396864	56	4483
2026-01-01 01:56:45.79	236.17	9.42	-47.0	-48.7	13.9	2.20e-06	0	62	0	594542592	56	4457
2026-01-01 01:56:46.76	236.13	9.34	-47.1	-48.8	13.8	3.00e-06	0	62	0	597688320	56	4504
2026-01-01 01:56:47.73	236.09	9.26	-47.2	-49.0	13.6	9.10e-06	0	62	0	600834048	56	4604
2026-01-01 01:56:48.69	236.05	9.19	-47.4	-49.3	13.2	7.60e-06	0	62	0	603979776	56	4773
2026-01-01 01:56:49.66	236.01	9.11	-47.3	-49.1	13.4	1.29e-05	0	62	0	607125504	56	4675
2026-01-01 01:56:50.63	235.97	9.03	-47.2	-48.9	13.5	1.37e-05	0	62	0	609222656	56	4578
2026-01-01 01:56:51.60	235.94	8.95	-47.2	-48.9	13.5	1.06e-05	0	62	0	612368384	56	4578
2026-01-01 01:56:52.57	235.90	8.87	-47.2	-48.9	13.5	5.30e-06	0	62	0	615514112	56	4564
2026-01-01 01:56:53.53	235.86	8.79	-47.2	-49.0	13.4	1.52e-05	0	62	0	618659840	56	4618
2026-01-01 01:56:54.50	235.82	8.71	-47.4	-49.2	13.2	2.44e-05	0	62	0	621805568	56	4747
2026-01-01 01:56:55.47	235.79	8.64	-47.5	-49.4	13.0	4.65e-05	0	62	0	624951296	56	4828
2026-01-01 01:56:56.44	235.75	8.56	-47.6	-49.5	12.9	4.80e-05	0	62	0	628097024	56	4891
2026-01-01 01:56:57.41	235.71	8.48	-47.7	-49.6	12.8	5.79e-05	0	62	0	631242752	57	4688
2026-01-01 01:56:58.38	235.67	8.40	-47.7	-49.7	12.6	8.92e-05	0	62	0	633339904	57	4754
2026-01-01 01:56:59.35	235.64	8.33	-47.6	-49.5	12.8	5.11e-05	0	62	0	636485632	57	4632
2026-01-01 01:57:00.32	235.60	8.25	-47.6	-49.6	12.7	5.95e-05	0	62	0	639631360	57	4677
2026-01-01 01:57:01.29	235.57	8.17	-47.7	-49.7	12.7	7.17e-05	0	62	0	642777088	57	4718
2026-01-01 01:57:02.26	235.53	8.10	-47.9	-50.0	12.3	1.59e-04	0	62	0	645922816	57	4874
2026-01-01 01:57:03.23	235.49	8.02	-47.8	-49.8	12.5	1.08e-04	0	62	0	649068544	57	4804
2026-01-01 01:57:04.20	235.46	7.94	-47.7	-49.7	12.5	1.17e-04	0	62	0	652214272	57	4759
2026-01-01 01:57:05.16	235.42	7.87	-47.7	-49.7	12.6	1.04e-04	0	62	0	655360000	57	4732
2026-01-01 01:57:06.13	235.39	7.79	-47.8	-49.9	12.4	1.30e-04	0	62	0	658505728	57	4850
2026-01-01 01:57:07.10	235.35	7.72	-47.7	-49.7	12.5	1.26e-04	0	62	0	661651456	57	4754
2026-01-01 01:57:08.06	235.32	7.64	-47.9	-50.0	12.2	1.57e-04	0	62	0	663748608	57	4887
2026-01-01 01:57:09.03	235.29	7.57	-47.8	-49.9	12.3	1.79e-04	0	62	0	666894336	57	4833
2026-01-01 01:57:10.00	235.25	7.49	-47.9	-50.0	12.2	1.87e-04	0	62	0	670040064	57	4901
2026-01-01 01:57:10.96	235.22	7.42	-48.1	-50.4	11.8	3.87e-04	0	62	0	673185792	58	4848
2026-01-01 01:57:11.93	235.18	7.35	-48.0	-50.2	12.0	3.75e-04	0	63	0	676331520	58	4733
2026-01-01 01:57:12.90	235.15	7.27	-48.1	-50.4	11.8	3.36e-04	0	62	0	679477248	58	4822
2026-01-01 01:57:13.87	235.12	7.20	-48.3	-50.7	11.5	6.64e-04	0	62	0	682622976	58	5006
2026-01-01 01:57:14.84	235.08	7.12	-48.3	-50.7	11.4	9.46e-04	0	63	0	685768704	58	5017
2026-01-01 01:57:15.81	235.05	7.05	-48.4	-50.8	11.3	1.07e-03	0	62	0	687865856	58	5090
2026-01-01 01:57:16.78	235.02	6.98	-48.4	-51.0	11.1	1.46e-03	0	62	0	691011584	58	5174
2026-01-01 01:57:17.75	234.98	6.90	-48.4	-50.9	11.2	1.64e-03	0	62	0	694157312	58	5141
2026-01-01 01:57:18.72	234.95	6.83	-48.5	-51.0	11.0	1.56e-03	0	62	0	697303040	58	5217
2026-01-01 01:57:19.70	234.92	6.76	-48.4	-51.0	11.0	2.23e-03	0	62	0	700448768	58	5198
2026-01-01 01:57:20.67	234.89	6.69	-48.5	-51.2	10.9	2.21e-03	0	62	0	703594496	58	5289
2026-01-01 01:57:21.64	234.85	6.61	-48.7	-51.4	10.6	3.31e-03	0	63	0	706740224	59	5153
2026-01-01 01:57:22.61	234.82	6.54	-48.6	-51.4	10.6	3.92e-03	0	62	0	709885952	59	5107
2026-01-01 01:57:23.58	234.79	6.47	-48.6	-51.4	10.6	3.02e-03	0	62	0	713031680	59	5103
2026-01-01 01:57:24.54	234.76	6.40	-48.6	-51.4	10.6	4.02e-03	0	62	0	716177408	59	5137
2026-01-01 01:57:25.51	234.73	6.33	-48.5	-51.2	10.7	3.04e-03	0	62	0	718274560	59	5031
2026-01-01 01:57:26.48	234.70	6.26	-48.5	-51.2	10.7	2.46e-03	0	63	0	721420288	59	5034
2026-01-01 01:57:27.45	234.66	6.18	-48.6	-51.5	10.5	3.75e-03	0	62	0	724566016	59	5169
2026-01-01 01:57:28.42	234.63	6.11	-48.6	-51.4	10.5	4.19e-03	0	62	0	727711744	59	5153
2026-01-01 01:57:29.39	234.60	6.04	-48.7	-51.6	10.3	5.16e-03	0	62	0	730857472	59	5254
2026-01-01 01:57:30.36	234.57	5.97	-48.8	-51.8	10.1	6.60e-03	0	62	0	734003200	59	5366
2026-01-01 01:57:31.33	234.54	5.90	-48.8	-51.7	10.2	5.76e-03	0	62	0	737148928	59	5306
2026-01-01 01:57:32.29	234.51	5.83	-48.9	-52.0	9.9	7.99e-03	0	62	0	740294656	59	5479
2026-01-01 01:57:33.26	234.48	5.76	-48.9	-51.9	9.9	8.23e-03	0	62	0	742391808	59	5439
2026-01-01 01:57:34.23	234.45	5.69	-49.0	-52.2	9.6	1.32e-02	0	62	0	745537536	59	5635
2026-01-01 01:57:35.20	234.42	5.62	-48.9	-52.1	9.7	1.13e-02	0	63	0	748683264	59	5544
2026-01-01 01:57:36.17	234.39	5.55	-48.8	-51.8	10.0	7.90e-03	0	62	0	751828992	59	5364
2026-01-01 01:57:37.14	234.36	5.48	-48.8	-51.8	10.0	7.66e-03	0	62	0	754974720	59	5370
2026-01-01 01:57:38.12	234.33	5.41	-48.8	-51.9	9.8	9.69e-03	0	62	0	758120448	59	5456
2026-01-01 01:57:39.09	234.30	5.34	-48.8	-51.9	9.9	9.93e-03	0	62	0	761266176	59	5436
2026-01-01 01:57:40.06	234.28	5.28	-49.1	-52.3	9.4	1.41e-02	0	63	0	764411904	59	5719
2026-01-01 01:57:41.02	234.25	5.21	-48.9	-52.2	9.6	1.33e-02	0	62	0	767557632	59	5598
2026-01-01 01:57:41.99	234.22	5.14	-49.1	-52.4	9.3	1.63e-02	0	62	0	769654784	59	5764
2026-01-01 01:57:42.95	234.19	5.07	-49.9	-54.8	7.1	3.20e-02	0	62	0	772800512	61	6727
2026-01-01 01:57:43.93	234.16	5.00	-51.8	-63.3	3.8	1.49e+00	0	62	104	773849088	65	14294
2026-01-01 01:57:44.91	234.13	4.93	-52.3	-64.0	3.8	1.49e+00	0	62	104	773849088	66	14542
2026-01-01 01:57:45.90	234.10	4.86	-52.6	-64.1	3.8	1.49e+00	0	62	104	773849088	67	13938
2026-01-01 01:57:46.88	234.08	4.80	-52.5	-64.2	3.8	1.49e+00	0	62	104	773849088	67	14059
2026-01-01 01:57:47.87	234.05	4.73	-52.5	-64.1	3.8	1.49e+00	0	63	104	773849088	67	14003
2026-01-01 01:57:48.85	234.02	4.66	-52.5	-64.2	3.8	1.49e+00	0	63	104	773849088	66	15017
2026-01-01 01:57:49.83	233.99	4.59	-52.6	-64.4	3.8	1.49e+00	0	62	104	773849088	67	14384
2026-01-01 01:57:50.81	233.96	4.52	-53.0	-64.4	3.8	1.49e+00	0	63	104	773849088	67	14462
2026-01-01 01:57:51.80	233.94	4.46	-52.9	-64.4	3.8	1.49e+00	0	63	104	773849088	67	14445
2026-01-01 01:57:52.78	233.91	4.39	-52.9	-64.4	3.8	1.49e+00	0	63	104	773849088	67	14488
2026-01-01 01:57:53.77	233.88	4.32	-52.8	-64.5	3.8	1.49e+00	0	63	104	773849088	67	14561
2026-01-01 01:57:54.76	233.85	4.25	-53.0	-64.4	3.8	1.49e+00	0	63	104	773849088	67	14522
2026-01-01 01:57:55.74	233.83	4.19	-53.0	-64.5	3.8	1.49e+00	0	63	104	773849088	67	14574
2026-01-01 01:57:56.72	233.80	4.12	-53.0	-64.5	3.8	1.49e+00	0	63	104	773849088	67	14631
2026-01-01 01:57:57.71	233.77	4.05	-53.0	-64.5	3.8	1.49e+00	0	63	104	773849088	67	14690
2026-01-01 01:57:58.69	233.75	3.98	-53.2	-64.7	3.8	1.49e+00	0	63	104	773849088	68	14048
2026-01-01 01:57:59.67	233.72	3.92	-53.2	-64.7	3.8	1.49e+00	0	63	104	773849088	68	14055
2026-01-01 01:58:00.65	233.69	3.85	-53.2	-64.7	3.8	1.49e+00	0	63	104	773849088	68	14068
2026-01-01 01:58:01.63	233.67	3.79	-53.2	-64.7	3.8	1.49e+00	0	63	104	773849088	68	14114
2026-01-01 01:58:02.61	233.64	3.72	-53.2	-64.7	3.8	1.49e+00	0	63	104	773849088	68	14095
2026-01-01 01:58:03.60	233.61	3.65	-53.2	-64.7	3.8	1.49e+00	0	62	104	773849088	68	14130
2026-01-01 01:58:04.58	233.59	3.59	-53.2	-64.7	3.8	1.49e+00	0	63	104	773849088	68	14108
2026-01-01 01:58:05.56	233.56	3.52	-53.2	-64.7	3.8	1.49e+00	0	63	104	773849088	68	14112
2026-01-01 01:58:06.55	233.54	3.46	-53.2	-64.7	3.8	1.49e+00	0	63	104	773849088	68	14170
2026-01-01 01:58:07.53	233.51	3.39	-53.2	-64.7	3.8	1.49e+00	0	63	104	773849088	68	14078
2026-01-01 01:58:08.51	233.49	3.33	-53.3	-64.7	3.8	1.49e+00	0	63	104	773849088	68	14138
2026-01-01 01:58:09.50	233.46	3.26	-53.2	-64.7	3.8	1.49e+00	0	63	104	773849088	68	14158
2026-01-01 01:58:10.48	233.44	3.20	-53.2	-64.7	3.8	1.49e+00	0	63	104	773849088	68	14177
2026-01-01 01:58:11.47	233.41	3.13	-53.2	-64.7	3.8	1.49e+00	0	63	104	773849088	68	14104
2026-01-01 01:58:12.46	233.39	3.07	-53.2	-64.7	3.8	1.49e+00	0	62	104	773849088	68	14170
2026-01-01 01:58:13.44	233.36	3.00	-53.2	-64.7	3.8	1.49e+00	0	63	104	773849088	68	14099
2026-01-01 01:58:14.42	233.34	2.94	-53.2	-64.7	3.8	1.49e+00	0	63	104	773849088	68	14084

#Closed at: 2026-01-01 01:58:15
#Recorded file [773 MB]: D:/Data/31026_260101_045743.dat