passes_logs/2026/01/01/R3.0SM8_Murmansk_STILSPACE/R3.0SM8_Murmansk_STILSPACE__20260101_044935_AQUA_rec.log

#Pass ID: 20260101_044935_AQUA
#Satellite: AQUA
#Configuration: AQUA
#almurnet v.1.7.20240730
#Start time: 2026-01-01 04:49:36

#Version: 2.2.20231116
#Station: R3.0SM8_Murmansk_STILSPACE
#Location: 33.092731 lon 68.902999 lat
#TLE: 1 27424U 02022A   25364.96158943  .00001951  00000+0  40088-3 0  9998
#TLE: 2 27424  98.4061 326.1389 0001917  95.3187 305.7939 14.61780362258696

#Time	Az	El	Level	Level2	SNR	BER	BlckErr	Temp	State	Recorded	gain1	gain2
2026-01-01 04:49:36.14	34.65	3.05	-54.3	-74.2	3.8	7.42e-01	0	50	0	0	71	36288
2026-01-01 04:49:37.12	34.58	3.11	-54.1	-73.9	3.8	7.47e-01	0	50	104	0	70	37311
2026-01-01 04:49:38.10	34.51	3.17	-53.9	-73.8	3.8	7.47e-01	0	50	104	0	70	36859
2026-01-01 04:49:39.08	34.45	3.23	-53.8	-73.6	3.8	7.45e-01	0	50	104	0	70	35847
2026-01-01 04:49:40.07	34.38	3.29	-53.5	-73.2	3.8	7.45e-01	0	50	104	0	70	34386
2026-01-01 04:49:41.05	34.31	3.35	-53.4	-73.2	3.8	7.47e-01	0	50	104	0	70	34185
2026-01-01 04:49:42.04	34.24	3.42	-53.4	-73.2	3.8	7.46e-01	0	50	104	0	70	34218
2026-01-01 04:49:43.02	34.17	3.48	-53.4	-73.2	3.8	7.49e-01	0	51	104	0	70	34219
2026-01-01 04:49:44.01	34.10	3.54	-53.4	-73.2	3.8	7.46e-01	0	51	104	0	70	34129
2026-01-01 04:49:44.99	34.03	3.60	-53.4	-73.1	3.8	7.46e-01	0	51	104	0	70	34071
2026-01-01 04:49:45.98	33.96	3.66	-53.4	-73.2	3.8	7.43e-01	0	51	104	0	70	34241
2026-01-01 04:49:46.96	33.89	3.73	-53.4	-73.2	3.8	7.44e-01	0	51	104	0	70	34226
2026-01-01 04:49:47.94	33.82	3.79	-53.4	-73.2	3.8	7.45e-01	0	51	104	0	70	34408
2026-01-01 04:49:48.92	33.75	3.85	-53.4	-73.2	3.8	7.42e-01	0	51	104	0	70	34401
2026-01-01 04:49:49.91	33.68	3.92	-53.4	-73.2	3.8	7.42e-01	0	51	104	0	70	34408
2026-01-01 04:49:50.89	33.61	3.98	-53.4	-73.2	3.8	7.43e-01	0	51	104	0	70	34358
2026-01-01 04:49:51.87	33.54	4.04	-53.4	-73.2	3.8	7.45e-01	0	51	104	0	70	34456
2026-01-01 04:49:52.86	33.47	4.10	-53.4	-73.2	3.8	7.44e-01	0	51	104	0	70	34427
2026-01-01 04:49:53.84	33.39	4.17	-53.4	-73.2	3.8	7.48e-01	0	51	104	0	70	34383
2026-01-01 04:49:54.83	33.32	4.23	-53.4	-73.2	3.8	7.44e-01	0	51	104	0	70	34133
2026-01-01 04:49:55.81	33.25	4.30	-53.4	-73.1	3.8	7.46e-01	0	51	104	0	70	33807
2026-01-01 04:49:56.79	33.18	4.36	-53.4	-72.9	3.8	7.44e-01	0	51	104	0	70	33115
2026-01-01 04:49:57.78	33.10	4.42	-53.3	-72.6	3.8	7.47e-01	0	52	104	0	70	32104
2026-01-01 04:49:58.76	33.03	4.49	-53.3	-72.2	3.8	7.46e-01	0	52	104	0	70	30390
2026-01-01 04:49:59.74	32.95	4.55	-53.2	-71.8	3.8	7.44e-01	0	51	104	0	70	29332
2026-01-01 04:50:00.72	32.88	4.61	-53.1	-71.1	3.8	7.48e-01	0	52	104	0	69	28438
2026-01-01 04:50:01.70	32.80	4.68	-52.9	-70.3	3.8	7.45e-01	0	52	104	0	69	25916
2026-01-01 04:50:02.69	32.73	4.74	-52.8	-69.6	3.8	7.44e-01	0	52	104	0	69	23931
2026-01-01 04:50:03.67	32.65	4.81	-52.6	-68.6	3.8	7.47e-01	0	52	104	0	68	22751
2026-01-01 04:50:04.66	32.57	4.87	-52.4	-67.9	3.8	7.43e-01	0	52	104	0	68	20949
2026-01-01 04:50:05.64	32.50	4.94	-52.1	-67.2	3.8	7.47e-01	0	52	104	0	67	20430
2026-01-01 04:50:06.63	32.42	5.00	-52.0	-66.8	3.8	7.45e-01	0	52	104	0	67	19432
2026-01-01 04:50:07.61	32.34	5.07	-51.8	-66.4	3.8	7.46e-01	0	52	104	0	67	18632
2026-01-01 04:50:08.60	32.26	5.13	-52.0	-66.8	3.8	7.43e-01	0	52	104	0	67	19398
2026-01-01 04:50:09.58	32.18	5.20	-52.1	-67.0	3.8	7.42e-01	0	52	104	0	67	19918
2026-01-01 04:50:10.56	32.11	5.26	-52.2	-67.5	3.8	7.42e-01	0	52	104	0	67	21094
2026-01-01 04:50:11.54	32.03	5.33	-52.4	-67.8	3.8	7.44e-01	0	52	104	0	67	22004
2026-01-01 04:50:12.53	31.95	5.40	-52.5	-68.4	3.8	7.48e-01	0	52	104	0	67	23326
2026-01-01 04:50:13.51	31.87	5.46	-52.7	-69.0	3.8	7.47e-01	0	52	104	0	67	25193
2026-01-01 04:50:14.50	31.78	5.53	-52.8	-69.6	3.8	7.42e-01	0	53	104	0	67	26989
2026-01-01 04:50:15.48	31.70	5.59	-53.0	-70.2	3.8	7.46e-01	0	53	104	0	68	27377
2026-01-01 04:50:16.47	31.62	5.66	-53.2	-70.7	3.8	7.47e-01	0	53	104	0	68	28922
2026-01-01 04:50:17.45	31.54	5.73	-53.2	-70.9	3.8	7.45e-01	0	53	104	0	68	29425
2026-01-01 04:50:18.44	31.46	5.79	-53.2	-71.0	3.8	7.46e-01	0	53	104	0	68	29888
2026-01-01 04:50:19.42	31.37	5.86	-53.3	-71.4	3.8	7.48e-01	0	53	104	0	68	31118
2026-01-01 04:50:20.40	31.29	5.93	-53.3	-71.4	3.8	7.43e-01	0	53	104	0	68	31288
2026-01-01 04:50:21.38	31.21	5.99	-53.3	-71.3	3.8	7.46e-01	0	53	104	0	68	30912
2026-01-01 04:50:22.36	31.12	6.06	-53.3	-71.4	3.8	7.43e-01	0	53	104	0	68	31241
2026-01-01 04:50:23.35	31.04	6.13	-53.3	-71.2	3.8	7.45e-01	0	53	104	0	68	30528
2026-01-01 04:50:24.33	30.96	6.20	-53.3	-71.0	3.8	7.40e-01	0	53	104	0	68	29751
2026-01-01 04:50:25.31	30.87	6.26	-53.2	-70.9	3.8	7.44e-01	0	53	104	0	68	29393
2026-01-01 04:50:26.29	30.78	6.33	-53.2	-70.6	3.8	7.47e-01	0	53	104	0	68	28676
2026-01-01 04:50:27.28	30.70	6.40	-53.2	-70.5	3.8	7.46e-01	0	53	104	0	68	28095
2026-01-01 04:50:28.26	30.61	6.47	-53.0	-69.8	3.8	7.48e-01	0	53	104	0	68	26032
2026-01-01 04:50:29.24	30.52	6.54	-52.8	-69.1	3.8	7.45e-01	0	53	104	0	68	23994
2026-01-01 04:50:30.22	30.44	6.60	-52.6	-68.3	3.8	7.45e-01	0	53	104	0	68	21778
2026-01-01 04:50:31.20	30.35	6.67	-52.3	-67.3	3.8	7.43e-01	0	54	104	0	68	19509
2026-01-01 04:50:32.19	30.26	6.74	-52.0	-66.5	3.8	7.46e-01	0	53	104	0	67	18758
2026-01-01 04:50:33.17	30.17	6.81	-51.6	-65.6	3.8	7.45e-01	0	53	104	0	66	18002
2026-01-01 04:50:34.16	30.08	6.88	-51.4	-65.1	3.8	7.47e-01	0	54	104	0	66	17045
2026-01-01 04:50:35.14	29.99	6.95	-51.3	-64.8	3.8	7.42e-01	0	54	104	0	66	16437
2026-01-01 04:50:36.13	29.90	7.02	-51.2	-64.6	3.8	7.42e-01	0	54	104	0	66	16075
2026-01-01 04:50:37.12	29.81	7.09	-51.2	-64.5	3.8	7.42e-01	0	54	104	0	66	15890
2026-01-01 04:50:38.09	29.72	7.15	-51.2	-64.6	3.8	7.43e-01	0	54	104	0	65	16918
2026-01-01 04:50:39.08	29.63	7.22	-51.2	-64.6	3.8	7.46e-01	0	54	104	0	65	16921
2026-01-01 04:50:40.06	29.53	7.29	-50.9	-64.1	3.8	7.45e-01	0	54	104	0	65	15956
2026-01-01 04:50:41.04	29.44	7.36	-50.5	-63.3	3.8	7.45e-01	0	54	104	0	64	15560
2026-01-01 04:50:42.03	29.35	7.43	-50.3	-62.9	3.8	7.45e-01	0	54	104	0	64	14830
2026-01-01 04:50:43.01	29.25	7.50	-50.1	-62.5	3.8	7.45e-01	0	54	104	0	63	14972
2026-01-01 04:50:44.00	29.16	7.57	-49.9	-62.1	3.8	7.45e-01	0	54	104	0	63	14365
2026-01-01 04:50:44.98	29.06	7.64	-50.1	-62.5	3.8	7.46e-01	0	54	104	0	63	14950
2026-01-01 04:50:45.96	28.97	7.72	-50.3	-62.9	3.8	7.45e-01	0	54	104	0	63	15601
2026-01-01 04:50:46.94	28.87	7.79	-50.5	-63.2	3.8	7.41e-01	0	54	104	0	63	16244
2026-01-01 04:50:47.92	28.78	7.86	-50.4	-63.0	3.8	7.43e-01	0	54	104	0	63	15798
2026-01-01 04:50:48.91	28.68	7.93	-50.2	-62.6	3.8	7.43e-01	0	54	104	0	63	15115
2026-01-01 04:50:49.89	28.58	8.00	-50.2	-62.6	3.8	7.43e-01	0	54	104	0	63	15143
2026-01-01 04:50:50.87	28.48	8.07	-50.1	-62.5	3.8	7.43e-01	0	54	104	0	63	14975
2026-01-01 04:50:51.85	28.38	8.14	-50.2	-62.6	3.8	7.44e-01	0	54	104	0	63	15136
2026-01-01 04:50:52.84	28.28	8.21	-50.4	-63.0	3.8	7.43e-01	0	54	104	0	63	15820
2026-01-01 04:50:53.82	28.18	8.28	-50.8	-63.6	3.8	7.43e-01	0	55	104	0	63	16984
2026-01-01 04:50:54.80	28.08	8.36	-51.1	-64.3	3.8	7.45e-01	0	55	104	0	64	17310
2026-01-01 04:50:55.78	27.98	8.43	-51.5	-65.0	3.8	7.46e-01	0	55	104	0	65	17830
2026-01-01 04:50:56.77	27.88	8.50	-51.9	-66.1	3.9	7.47e-01	0	55	104	0	66	18949
2026-01-01 04:50:57.75	27.78	8.57	-52.4	-67.2	3.8	7.47e-01	0	55	104	0	66	21542
2026-01-01 04:50:58.74	27.68	8.65	-52.5	-67.6	3.8	7.49e-01	0	55	104	0	67	21322
2026-01-01 04:50:59.72	27.57	8.72	-52.6	-67.8	3.8	7.45e-01	0	55	104	0	67	21837
2026-01-01 04:51:00.71	27.47	8.79	-52.7	-68.1	3.8	7.42e-01	0	55	104	0	67	22569
2026-01-01 04:51:01.69	27.37	8.86	-52.8	-68.4	3.8	7.45e-01	0	55	104	0	67	23378
2026-01-01 04:51:02.68	27.26	8.94	-52.9	-68.8	3.8	7.41e-01	0	55	104	0	67	24538
2026-01-01 04:51:03.65	27.16	9.01	-53.1	-69.3	3.8	7.46e-01	0	55	104	0	68	24587
2026-01-01 04:51:04.63	27.05	9.08	-53.2	-69.9	3.8	7.40e-01	0	55	104	0	68	26181
2026-01-01 04:51:05.61	26.94	9.16	-53.3	-70.3	3.8	7.45e-01	0	55	104	0	68	27618
2026-01-01 04:51:06.60	26.84	9.23	-53.4	-70.7	3.8	7.47e-01	0	55	104	0	69	27335
2026-01-01 04:51:07.57	26.73	9.30	-53.5	-71.1	3.8	7.44e-01	0	55	104	0	69	28661
2026-01-01 04:51:08.56	26.62	9.38	-53.5	-71.1	3.8	7.42e-01	0	55	104	0	69	28617
2026-01-01 04:51:09.55	26.51	9.45	-53.4	-70.7	3.8	7.43e-01	0	55	104	0	69	27103
2026-01-01 04:51:10.52	26.40	9.52	-53.3	-70.3	3.8	7.47e-01	0	55	104	0	69	25884
2026-01-01 04:51:11.50	26.29	9.60	-53.3	-70.2	3.8	7.43e-01	0	55	104	0	69	25683
2026-01-01 04:51:12.49	26.18	9.67	-53.3	-70.2	3.8	7.45e-01	0	55	104	0	69	25766
2026-01-01 04:51:13.46	26.07	9.75	-53.2	-69.8	3.8	7.47e-01	0	55	104	0	69	24475
2026-01-01 04:51:14.45	25.96	9.82	-53.1	-69.4	3.8	7.43e-01	0	56	104	0	69	23509
2026-01-01 04:51:15.43	25.84	9.90	-53.0	-69.0	3.8	7.44e-01	0	55	104	0	69	22430
2026-01-01 04:51:16.41	25.73	9.97	-52.9	-68.7	3.8	7.42e-01	0	56	104	0	69	21693
2026-01-01 04:51:17.40	25.61	10.05	-52.8	-68.3	3.8	7.48e-01	0	56	104	0	69	20553
2026-01-01 04:51:18.38	25.50	10.12	-52.6	-67.7	3.8	7.47e-01	0	56	104	0	68	20386
2026-01-01 04:51:19.36	25.39	10.20	-52.5	-67.3	3.8	7.43e-01	0	56	104	0	68	19577
2026-01-01 04:51:20.35	25.27	10.27	-52.1	-66.3	3.8	7.44e-01	0	56	104	0	67	18433
2026-01-01 04:51:21.33	25.15	10.35	-51.7	-65.4	3.8	7.47e-01	0	56	104	0	67	16550
2026-01-01 04:51:22.31	25.03	10.43	-51.3	-64.5	3.8	7.44e-01	0	56	104	0	66	15813
2026-01-01 04:51:23.30	24.92	10.50	-50.8	-63.6	3.8	7.45e-01	0	56	104	0	65	15208
2026-01-01 04:51:24.28	24.80	10.58	-50.4	-63.0	3.9	7.42e-01	0	56	104	0	64	14946
2026-01-01 04:51:25.26	24.68	10.65	-50.2	-62.6	3.8	7.44e-01	0	56	104	0	64	14291
2026-01-01 04:51:26.24	24.56	10.73	-50.2	-62.5	3.8	7.43e-01	0	56	104	0	63	15017
2026-01-01 04:51:27.22	24.44	10.81	-50.1	-62.4	3.8	7.42e-01	0	56	104	0	63	14735
2026-01-01 04:51:28.20	24.32	10.88	-50.1	-62.4	3.8	7.44e-01	0	56	104	0	63	14806
2026-01-01 04:51:29.18	24.19	10.96	-50.2	-62.5	3.8	7.45e-01	0	56	104	0	63	14910
2026-01-01 04:51:30.16	24.07	11.04	-50.3	-62.6	3.8	7.42e-01	0	56	104	0	63	15212
2026-01-01 04:51:31.15	23.95	11.12	-50.0	-62.2	3.8	7.47e-01	0	56	104	0	63	14427
2026-01-01 04:51:32.13	23.82	11.19	-49.7	-61.8	3.8	7.42e-01	0	56	104	0	63	13828
2026-01-01 04:51:33.11	23.70	11.27	-49.4	-61.3	3.8	7.43e-01	0	56	104	0	62	13770
2026-01-01 04:51:34.09	23.57	11.35	-49.7	-61.8	3.8	7.44e-01	0	56	104	0	62	14541
2026-01-01 04:51:35.08	23.44	11.43	-50.0	-62.1	3.8	7.48e-01	0	56	104	0	62	15171
2026-01-01 04:51:36.06	23.32	11.50	-50.2	-62.5	3.8	7.46e-01	0	56	104	0	62	15928
2026-01-01 04:51:37.04	23.19	11.58	-50.6	-63.1	3.8	7.45e-01	0	56	104	0	63	16038
2026-01-01 04:51:38.03	23.06	11.66	-50.7	-63.4	3.8	7.44e-01	0	56	104	0	63	16528
2026-01-01 04:51:39.01	22.93	11.74	-50.6	-63.1	3.8	7.43e-01	0	56	104	0	63	15968
2026-01-01 04:51:39.99	22.80	11.82	-50.4	-62.8	3.8	7.44e-01	0	56	104	0	63	15563
2026-01-01 04:51:40.97	22.67	11.90	-50.3	-62.7	3.8	7.46e-01	0	57	104	0	63	15325
2026-01-01 04:51:41.95	22.54	11.97	-50.3	-62.6	3.8	7.44e-01	0	56	104	0	63	15175
2026-01-01 04:51:42.93	22.40	12.05	-50.4	-62.7	3.8	7.43e-01	0	56	104	0	63	15365
2026-01-01 04:51:43.91	22.27	12.13	-50.8	-63.4	3.8	7.42e-01	0	57	104	0	63	16608
2026-01-01 04:51:44.90	22.13	12.21	-51.2	-64.2	3.8	7.44e-01	0	57	104	0	64	17161
2026-01-01 04:51:45.88	22.00	12.29	-51.7	-65.2	3.8	7.45e-01	0	57	104	0	65	18176
2026-01-01 04:51:46.87	21.86	12.37	-52.2	-66.3	3.8	7.43e-01	0	56	104	0	66	19573
2026-01-01 04:51:47.85	21.73	12.45	-52.6	-67.4	3.8	7.46e-01	0	57	104	0	67	20793
2026-01-01 04:51:48.83	21.59	12.53	-52.9	-68.4	3.8	7.45e-01	0	57	104	0	67	23427
2026-01-01 04:51:49.81	21.45	12.61	-53.0	-68.7	3.8	7.46e-01	0	57	104	0	68	22864
2026-01-01 04:51:50.80	21.31	12.69	-53.0	-68.7	3.8	7.47e-01	0	57	104	0	68	22814
2026-01-01 04:51:51.78	21.17	12.77	-53.1	-68.8	3.8	7.48e-01	0	57	104	0	68	23099
2026-01-01 04:51:52.76	21.03	12.85	-53.1	-69.0	3.8	7.45e-01	0	57	104	0	68	23707
2026-01-01 04:51:53.75	20.89	12.93	-53.2	-69.2	3.8	7.42e-01	0	57	104	0	68	24396
2026-01-01 04:51:54.73	20.74	13.01	-53.3	-69.6	3.8	7.48e-01	0	57	104	0	68	25510
2026-01-01 04:51:55.71	20.60	13.09	-53.4	-70.5	3.8	7.44e-01	0	57	104	0	69	26570
2026-01-01 04:51:56.69	20.46	13.17	-53.5	-70.6	3.8	7.46e-01	0	57	104	0	69	26900
2026-01-01 04:51:57.68	20.31	13.26	-53.5	-70.4	3.8	7.46e-01	0	57	104	0	69	26443
2026-01-01 04:51:58.66	20.17	13.34	-53.4	-70.0	3.8	7.42e-01	0	57	104	0	69	25058
2026-01-01 04:51:59.64	20.02	13.42	-53.2	-69.4	3.8	7.46e-01	0	57	104	0	69	23476
2026-01-01 04:52:00.61	19.87	13.50	-53.1	-68.8	3.8	7.47e-01	0	57	104	0	69	21768
2026-01-01 04:52:01.59	19.72	13.58	-52.8	-67.9	3.8	7.45e-01	0	57	104	0	69	19832
2026-01-01 04:52:02.57	19.57	13.66	-52.8	-67.8	3.8	7.46e-01	0	57	104	0	68	20666
2026-01-01 04:52:03.56	19.42	13.74	-53.0	-68.6	3.8	7.46e-01	0	57	104	0	68	22636
2026-01-01 04:52:04.54	19.27	13.82	-53.0	-68.6	3.8	7.43e-01	0	57	104	0	68	22620
2026-01-01 04:52:05.52	19.12	13.91	-52.9	-68.1	3.8	7.45e-01	0	57	104	0	68	21365
2026-01-01 04:52:06.50	18.97	13.99	-52.7	-67.6	3.8	7.47e-01	0	57	104	0	68	20285
2026-01-01 04:52:07.48	18.81	14.07	-52.5	-66.9	3.8	7.44e-01	0	57	104	0	68	18688
2026-01-01 04:52:08.46	18.66	14.15	-52.2	-66.3	3.8	7.46e-01	0	57	104	0	68	17425
2026-01-01 04:52:09.45	18.50	14.23	-51.9	-65.5	3.9	7.44e-01	0	57	104	0	67	16829
2026-01-01 04:52:10.43	18.34	14.32	-51.4	-64.6	3.8	7.47e-01	0	57	104	0	66	16092
2026-01-01 04:52:11.41	18.19	14.40	-50.9	-63.7	3.8	7.46e-01	0	57	104	0	65	15392
2026-01-01 04:52:12.39	18.03	14.48	-50.5	-63.1	3.8	7.45e-01	0	57	104	0	64	15079
2026-01-01 04:52:13.38	17.87	14.56	-50.2	-62.3	3.8	7.48e-01	0	58	104	0	63	14643
2026-01-01 04:52:14.36	17.71	14.65	-49.9	-62.1	3.8	7.43e-01	0	57	104	0	63	14216
2026-01-01 04:52:15.35	17.54	14.73	-49.6	-61.6	3.8	7.43e-01	0	57	104	0	62	14230
2026-01-01 04:52:16.33	17.38	14.81	-49.3	-61.2	3.8	7.44e-01	0	58	104	0	62	13574
2026-01-01 04:52:17.31	17.22	14.90	-49.1	-60.8	3.8	7.45e-01	0	57	104	0	61	13873
2026-01-01 04:52:18.30	17.05	14.98	-48.9	-60.6	3.8	7.45e-01	0	58	104	0	61	13481
2026-01-01 04:52:19.28	16.89	15.06	-48.9	-60.5	3.8	7.46e-01	0	57	104	0	61	13327
2026-01-01 04:52:20.26	16.72	15.15	-48.9	-60.5	3.8	7.43e-01	0	58	104	0	61	13370
2026-01-01 04:52:21.24	16.55	15.23	-48.9	-60.6	3.8	7.45e-01	0	57	104	0	61	13436
2026-01-01 04:52:22.22	16.38	15.31	-48.8	-60.3	3.8	7.45e-01	0	58	104	0	61	13085
2026-01-01 04:52:23.21	16.21	15.40	-48.9	-60.6	3.8	7.43e-01	0	58	104	0	61	13448
2026-01-01 04:52:24.19	16.04	15.48	-49.3	-61.0	3.8	7.40e-01	0	58	104	0	61	14165
2026-01-01 04:52:25.17	15.87	15.56	-49.6	-61.6	3.8	7.41e-01	0	58	104	0	61	15115
2026-01-01 04:52:26.16	15.69	15.65	-50.1	-62.2	3.8	7.42e-01	0	58	104	0	62	15313
2026-01-01 04:52:27.14	15.52	15.73	-50.5	-62.9	3.8	7.45e-01	0	58	104	0	63	15689
2026-01-01 04:52:28.12	15.35	15.81	-50.9	-63.6	3.8	7.44e-01	0	58	104	0	64	16037
2026-01-01 04:52:29.10	15.17	15.90	-51.0	-63.8	3.8	7.44e-01	0	58	104	0	64	16354
2026-01-01 04:52:30.07	14.99	15.98	-51.1	-64.0	3.8	7.47e-01	0	58	104	0	64	16843
2026-01-01 04:52:31.05	14.82	16.07	-51.0	-63.8	3.8	7.40e-01	0	58	104	0	64	16368
2026-01-01 04:52:32.03	14.64	16.15	-50.9	-63.6	3.8	7.43e-01	0	58	104	0	64	15999
2026-01-01 04:52:33.01	14.46	16.23	-50.8	-63.5	3.8	7.45e-01	0	58	104	0	64	15904
2026-01-01 04:52:33.99	14.28	16.32	-50.8	-63.5	3.8	7.44e-01	0	58	104	0	64	15782
2026-01-01 04:52:34.98	14.09	16.40	-51.3	-64.4	3.8	7.42e-01	0	58	104	0	64	17605
2026-01-01 04:52:35.97	13.91	16.49	-51.9	-65.5	3.8	7.44e-01	0	58	104	0	65	18874
2026-01-01 04:52:36.94	13.72	16.57	-52.3	-66.5	3.8	7.45e-01	0	58	104	0	66	19946
2026-01-01 04:52:37.93	13.54	16.66	-52.8	-67.6	3.8	7.45e-01	0	58	104	0	67	21458
2026-01-01 04:52:38.91	13.35	16.74	-53.1	-68.7	3.8	7.46e-01	0	58	104	0	68	22950
2026-01-01 04:52:39.89	13.16	16.82	-53.4	-69.9	3.8	7.43e-01	0	58	104	0	69	24786
2026-01-01 04:52:40.87	12.97	16.91	-53.4	-69.8	3.8	7.47e-01	0	58	104	0	69	24458
2026-01-01 04:52:41.85	12.78	16.99	-53.4	-69.7	3.8	7.46e-01	0	58	104	0	69	24406
2026-01-01 04:52:42.83	12.59	17.08	-53.4	-69.7	3.8	7.43e-01	0	58	104	0	69	24362
2026-01-01 04:52:43.82	12.40	17.16	-53.4	-69.9	3.8	7.46e-01	0	58	104	0	69	24765
2026-01-01 04:52:44.79	12.20	17.24	-53.4	-69.9	3.8	7.47e-01	0	58	104	0	69	24955
2026-01-01 04:52:45.77	12.01	17.33	-53.5	-70.2	3.8	7.45e-01	0	58	104	0	69	25647
2026-01-01 04:52:46.76	11.81	17.41	-53.4	-69.8	3.8	7.45e-01	0	58	104	0	69	24600
2026-01-01 04:52:47.73	11.62	17.50	-53.2	-69.2	3.8	7.46e-01	0	58	104	0	69	22848
2026-01-01 04:52:48.72	11.42	17.58	-53.0	-68.2	3.8	7.45e-01	0	58	104	0	69	20510
2026-01-01 04:52:49.70	11.22	17.67	-52.7	-67.2	3.8	7.42e-01	0	58	104	0	68	19282
2026-01-01 04:52:50.69	11.01	17.75	-52.3	-66.4	3.8	7.42e-01	0	58	104	0	68	17503
2026-01-01 04:52:51.67	10.81	17.83	-51.8	-65.4	3.8	7.44e-01	0	58	104	0	67	16505
2026-01-01 04:52:52.65	10.61	17.92	-51.3	-64.4	3.8	7.47e-01	0	58	104	0	66	15742
2026-01-01 04:52:53.64	10.40	18.00	-51.4	-64.5	3.8	7.41e-01	0	59	104	0	66	15857
2026-01-01 04:52:54.62	10.20	18.09	-51.5	-64.8	3.8	7.47e-01	0	58	104	0	66	16409
2026-01-01 04:52:55.60	9.99	18.17	-51.7	-65.0	3.8	7.44e-01	0	58	104	0	66	16849
2026-01-01 04:52:56.58	9.78	18.25	-52.1	-65.9	3.8	7.45e-01	0	58	104	0	66	18731
2026-01-01 04:52:57.56	9.57	18.34	-52.0	-65.8	3.8	7.46e-01	0	58	104	0	66	18515
2026-01-01 04:52:58.54	9.36	18.42	-51.6	-65.0	3.8	7.43e-01	0	59	104	0	66	16699
2026-01-01 04:52:59.53	9.15	18.51	-51.2	-64.2	3.8	7.42e-01	0	58	104	0	66	15281
2026-01-01 04:53:00.51	8.93	18.59	-50.9	-63.7	3.8	7.41e-01	0	58	104	0	65	15246
2026-01-01 04:53:01.49	8.72	18.67	-50.6	-63.1	3.8	7.44e-01	0	58	104	0	64	15138
2026-01-01 04:53:02.47	8.50	18.76	-50.3	-62.7	3.8	7.43e-01	0	59	104	0	64	14506
2026-01-01 04:53:03.45	8.29	18.84	-50.2	-62.5	3.8	7.46e-01	0	58	104	0	64	14069
2026-01-01 04:53:04.43	8.07	18.92	-50.2	-62.3	3.8	7.44e-01	0	59	104	0	63	14663
2026-01-01 04:53:05.42	7.85	19.01	-50.0	-62.1	3.8	7.42e-01	0	58	104	0	63	14323
2026-01-01 04:53:06.40	7.63	19.09	-49.4	-61.2	3.8	7.41e-01	0	58	104	0	62	13726
2026-01-01 04:53:07.38	7.40	19.17	-49.3	-61.2	3.8	7.46e-01	0	59	104	0	62	13574
2026-01-01 04:53:08.37	7.18	19.26	-49.4	-61.3	3.8	7.44e-01	0	58	104	0	62	13729
2026-01-01 04:53:09.35	6.95	19.34	-49.2	-61.0	3.8	7.44e-01	0	59	104	0	62	13355
2026-01-01 04:53:10.33	6.73	19.42	-48.9	-60.6	3.8	7.45e-01	0	59	104	0	61	13563
2026-01-01 04:53:11.31	6.50	19.50	-48.8	-60.6	3.8	7.45e-01	0	59	104	0	61	13456
2026-01-01 04:53:12.30	6.27	19.59	-49.0	-61.0	3.8	7.42e-01	0	59	104	0	61	14144
2026-01-01 04:53:13.29	6.04	19.67	-49.3	-61.7	3.8	7.43e-01	0	59	104	0	61	15317
2026-01-01 04:53:14.27	5.81	19.75	-49.9	-62.8	3.8	7.45e-01	0	59	104	0	61	17388
2026-01-01 04:53:15.25	5.57	19.83	-50.3	-63.8	3.8	7.43e-01	0	59	104	0	62	18450
2026-01-01 04:53:16.23	5.34	19.91	-50.5	-64.8	3.8	7.47e-01	0	59	104	0	63	19512
2026-01-01 04:53:17.22	5.10	19.99	-50.8	-66.2	3.8	7.45e-01	0	59	104	0	63	22979
2026-01-01 04:53:18.20	4.86	20.08	-50.8	-67.5	3.8	7.47e-01	0	59	104	0	64	24983
2026-01-01 04:53:19.18	4.63	20.16	-51.0	-68.6	3.8	7.48e-01	0	59	104	0	64	28605
2026-01-01 04:53:20.16	4.39	20.24	-51.1	-69.6	3.8	7.45e-01	0	59	104	0	64	31939
2026-01-01 04:53:21.14	4.15	20.32	-51.3	-70.3	3.8	7.43e-01	0	59	104	0	64	34638
2026-01-01 04:53:22.12	3.90	20.40	-51.4	-70.8	3.8	7.46e-01	0	59	104	0	65	34818
2026-01-01 04:53:23.10	3.66	20.48	-51.7	-71.3	3.8	7.43e-01	0	59	104	0	65	36715
2026-01-01 04:53:24.09	3.41	20.56	-51.8	-71.3	3.8	7.48e-01	0	59	104	0	65	36891
2026-01-01 04:53:25.07	3.17	20.64	-52.0	-71.3	3.8	7.47e-01	0	59	104	0	66	34547
2026-01-01 04:53:26.05	2.92	20.71	-52.3	-71.2	3.8	7.45e-01	0	59	104	0	66	34280
2026-01-01 04:53:27.03	2.67	20.79	-52.6	-71.6	3.8	7.45e-01	0	59	104	0	67	34076
2026-01-01 04:53:28.02	2.42	20.87	-53.0	-72.2	3.8	7.44e-01	0	59	104	0	68	34100
2026-01-01 04:53:29.00	2.17	20.95	-53.1	-71.7	3.8	7.43e-01	0	59	104	0	68	32479
2026-01-01 04:53:29.99	1.91	21.03	-53.1	-70.2	3.8	7.48e-01	0	59	104	0	68	27254
2026-01-01 04:53:30.97	1.66	21.11	-53.0	-68.6	3.8	7.44e-01	0	59	104	0	68	22731
2026-01-01 04:53:31.96	1.40	21.18	-52.8	-67.6	3.8	7.44e-01	0	59	104	0	68	20172
2026-01-01 04:53:32.94	1.14	21.26	-52.6	-67.2	3.8	7.44e-01	0	59	104	0	68	19186
2026-01-01 04:53:33.92	0.89	21.34	-52.7	-67.3	3.8	7.44e-01	0	59	104	0	68	19444
2026-01-01 04:53:34.91	0.62	21.42	-52.7	-67.2	3.8	7.45e-01	0	59	104	0	68	19293
2026-01-01 04:53:35.89	0.36	21.49	-52.9	-67.8	3.8	7.43e-01	0	59	104	0	68	20659
2026-01-01 04:53:36.87	0.10	21.57	-52.6	-67.1	3.8	7.40e-01	0	59	104	0	68	18984
2026-01-01 04:53:37.86	359.83	21.64	-52.2	-66.1	3.8	7.44e-01	0	59	104	0	68	16930
2026-01-01 04:53:38.84	359.57	21.72	-51.7	-65.1	3.8	7.45e-01	0	59	104	0	67	15984
2026-01-01 04:53:39.83	359.30	21.79	-51.2	-64.1	3.8	7.45e-01	0	59	104	0	66	15093
2026-01-01 04:53:40.81	359.03	21.87	-50.7	-63.2	3.8	7.45e-01	0	59	104	0	65	14468
2026-01-01 04:53:41.79	358.76	21.94	-50.3	-62.6	3.8	7.44e-01	0	59	104	0	64	14314
2026-01-01 04:53:42.78	358.49	22.01	-50.0	-62.1	3.8	7.46e-01	0	59	104	0	63	14270
2026-01-01 04:53:43.76	358.22	22.09	-49.9	-61.9	3.8	7.44e-01	0	59	104	0	63	13907
2026-01-01 04:53:44.75	357.94	22.16	-50.1	-62.2	3.8	7.42e-01	0	59	104	0	63	14495
2026-01-01 04:53:45.73	357.67	22.23	-50.6	-62.9	3.8	7.47e-01	0	59	104	0	63	15713
2026-01-01 04:53:46.72	357.39	22.30	-50.9	-63.6	3.8	7.45e-01	0	59	104	0	64	16014
2026-01-01 04:53:47.70	357.11	22.37	-51.4	-64.4	3.8	7.44e-01	0	59	104	0	64	17546
2026-01-01 04:53:48.69	356.83	22.44	-51.2	-64.0	3.9	7.43e-01	0	59	104	0	65	15870
2026-01-01 04:53:49.67	356.55	22.51	-50.8	-63.4	3.8	7.43e-01	0	59	104	0	65	14764
2026-01-01 04:53:50.65	356.27	22.58	-50.6	-63.0	3.8	7.42e-01	0	59	104	0	64	15048
2026-01-01 04:53:51.63	355.99	22.65	-50.4	-62.8	3.8	7.45e-01	0	59	104	0	64	14566
2026-01-01 04:53:52.62	355.70	22.72	-50.4	-62.8	3.8	7.47e-01	0	59	104	0	64	14559
2026-01-01 04:53:53.60	355.42	22.79	-50.7	-63.1	3.8	7.44e-01	0	59	104	0	64	15148
2026-01-01 04:53:54.59	355.13	22.86	-50.8	-63.4	3.8	7.42e-01	0	59	104	0	64	15709
2026-01-01 04:53:55.57	354.84	22.92	-50.7	-63.2	3.8	7.44e-01	0	59	104	0	64	15357
2026-01-01 04:53:56.55	354.55	22.99	-50.3	-62.5	3.8	7.45e-01	0	59	104	0	64	14105
2026-01-01 04:53:57.54	354.26	23.05	-49.9	-61.9	3.8	7.42e-01	0	59	104	0	63	13899
2026-01-01 04:53:58.52	353.96	23.12	-49.7	-61.6	3.8	7.45e-01	0	59	104	0	63	13416
2026-01-01 04:53:59.50	353.67	23.18	-49.6	-61.4	3.8	7.42e-01	0	59	104	0	62	13927
2026-01-01 04:54:00.48	353.38	23.25	-49.5	-61.3	3.8	7.44e-01	0	59	104	0	62	13761
2026-01-01 04:54:01.47	353.08	23.31	-49.6	-61.3	3.8	7.43e-01	0	59	104	0	62	13814
2026-01-01 04:54:02.44	352.78	23.37	-49.9	-61.8	3.8	7.43e-01	0	60	104	0	62	14582
2026-01-01 04:54:03.43	352.48	23.44	-50.2	-62.3	3.8	7.43e-01	0	59	104	0	62	15463
2026-01-01 04:54:04.42	352.18	23.50	-50.6	-62.9	3.8	7.46e-01	0	59	104	0	63	15757
2026-01-01 04:54:05.40	351.88	23.56	-51.1	-63.8	3.8	7.45e-01	0	59	104	0	64	16376
2026-01-01 04:54:06.38	351.58	23.62	-51.6	-64.8	3.8	7.43e-01	0	60	104	0	65	17356
2026-01-01 04:54:07.37	351.27	23.68	-52.2	-66.0	3.8	7.45e-01	0	60	104	0	66	18851
2026-01-01 04:54:08.35	350.97	23.74	-52.5	-66.6	3.8	7.44e-01	0	60	104	0	67	19070
2026-01-01 04:54:09.33	350.66	23.79	-52.5	-66.6	3.8	7.42e-01	0	60	104	0	67	18982
2026-01-01 04:54:10.32	350.35	23.85	-52.5	-66.9	3.8	7.43e-01	0	60	104	0	67	19731
2026-01-01 04:54:11.30	350.05	23.91	-52.7	-67.2	3.8	7.44e-01	0	60	104	0	67	20371
2026-01-01 04:54:12.28	349.74	23.96	-52.8	-67.6	3.8	7.47e-01	0	60	104	0	67	21261
2026-01-01 04:54:13.25	349.43	24.02	-53.0	-67.9	3.8	7.47e-01	0	60	104	0	68	20909
2026-01-01 04:54:14.24	349.12	24.07	-52.9	-67.7	3.8	7.46e-01	0	60	104	0	68	20439
2026-01-01 04:54:15.22	348.80	24.12	-53.3	-68.8	3.8	7.45e-01	0	60	104	0	68	23247
2026-01-01 04:54:16.21	348.49	24.18	-53.5	-69.5	3.8	7.43e-01	0	60	104	0	69	23760
2026-01-01 04:54:17.19	348.17	24.23	-53.1	-68.5	3.8	7.46e-01	0	60	104	0	69	21071
2026-01-01 04:54:18.18	347.85	24.28	-52.8	-67.4	3.8	7.47e-01	0	60	104	0	69	18664
2026-01-01 04:54:19.16	347.54	24.33	-52.8	-67.3	3.8	7.45e-01	0	60	104	0	69	18339
2026-01-01 04:54:20.14	347.22	24.38	-52.3	-66.2	3.8	7.46e-01	0	60	104	0	68	17156
2026-01-01 04:54:21.13	346.90	24.43	-52.4	-66.3	3.8	7.46e-01	0	60	104	0	68	17378
2026-01-01 04:54:22.11	346.58	24.48	-52.1	-65.7	3.8	7.44e-01	0	60	104	0	67	17179
2026-01-01 04:54:23.09	346.26	24.52	-51.9	-65.2	3.8	7.46e-01	0	60	104	0	67	16276
2026-01-01 04:54:24.08	345.93	24.57	-51.8	-65.2	3.8	7.44e-01	0	60	104	0	67	16194
2026-01-01 04:54:25.05	345.61	24.61	-51.8	-65.2	3.8	7.47e-01	0	60	104	0	67	16196
2026-01-01 04:54:26.04	345.29	24.66	-51.8	-65.2	3.8	7.48e-01	0	60	104	0	67	16214
2026-01-01 04:54:27.02	344.96	24.70	-51.3	-64.2	3.8	7.45e-01	0	60	104	0	66	15397
2026-01-01 04:54:28.01	344.63	24.74	-50.8	-63.2	3.8	7.42e-01	0	60	104	0	65	14406
2026-01-01 04:54:28.99	344.31	24.78	-50.3	-62.5	3.8	7.46e-01	0	60	104	0	64	14067
2026-01-01 04:54:29.97	343.98	24.82	-49.9	-61.9	3.8	7.44e-01	0	60	104	0	63	13975
2026-01-01 04:54:30.96	343.65	24.86	-49.6	-61.4	3.8	7.44e-01	0	60	104	0	62	14043
2026-01-01 04:54:31.94	343.32	24.90	-49.3	-61.0	3.8	7.45e-01	0	60	104	0	62	13387
2026-01-01 04:54:32.92	342.99	24.94	-49.1	-60.7	3.8	7.43e-01	0	60	104	0	61	13620
2026-01-01 04:54:33.90	342.66	24.98	-49.0	-60.6	3.8	7.44e-01	0	60	104	0	61	13567
2026-01-01 04:54:34.88	342.33	25.01	-49.2	-60.7	3.8	7.41e-01	0	60	104	0	61	13665
2026-01-01 04:54:35.86	341.99	25.05	-49.4	-61.2	3.8	7.46e-01	0	60	104	0	61	14376
2026-01-01 04:54:36.84	341.66	25.08	-49.8	-61.6	3.9	7.43e-01	0	60	104	0	61	15139
2026-01-01 04:54:37.82	341.33	25.11	-50.2	-62.3	3.8	7.44e-01	0	60	104	0	62	15432
2026-01-01 04:54:38.81	340.99	25.15	-50.6	-62.8	3.8	7.46e-01	0	60	104	0	63	15491
2026-01-01 04:54:39.79	340.65	25.18	-50.6	-62.9	3.8	7.44e-01	0	60	104	0	63	15635
2026-01-01 04:54:40.78	340.31	25.21	-50.4	-62.5	3.8	7.47e-01	0	60	104	0	63	15037
2026-01-01 04:54:41.76	339.98	25.24	-50.4	-62.6	3.8	7.41e-01	0	60	104	0	63	15200
2026-01-01 04:54:42.74	339.64	25.26	-50.6	-62.9	3.8	7.43e-01	0	60	104	0	63	15749
2026-01-01 04:54:43.73	339.30	25.29	-50.8	-63.3	3.8	7.46e-01	0	60	104	0	63	16436
2026-01-01 04:54:44.72	338.96	25.32	-50.9	-63.5	3.8	7.45e-01	0	60	104	0	64	15887
2026-01-01 04:54:45.70	338.62	25.34	-50.7	-63.1	3.8	7.42e-01	0	60	104	0	64	15174
2026-01-01 04:54:46.68	338.28	25.37	-50.3	-62.5	3.8	7.47e-01	0	60	104	0	64	14134
2026-01-01 04:54:47.67	337.93	25.39	-50.0	-62.0	3.8	7.42e-01	0	60	104	0	63	14072
2026-01-01 04:54:48.65	337.59	25.41	-49.8	-61.7	3.8	7.45e-01	0	60	104	0	63	13680
2026-01-01 04:54:49.63	337.25	25.43	-49.5	-61.3	3.8	7.46e-01	0	60	104	0	62	13757
2026-01-01 04:54:50.61	336.91	25.45	-49.3	-60.9	3.8	7.41e-01	0	60	104	0	62	13198
2026-01-01 04:54:51.59	336.57	25.47	-49.4	-61.1	3.8	7.43e-01	0	60	104	0	62	13534
2026-01-01 04:54:52.57	336.23	25.49	-49.7	-61.6	3.8	7.43e-01	0	60	104	0	62	14233
2026-01-01 04:54:53.55	335.88	25.50	-50.0	-61.9	3.8	7.45e-01	0	60	104	0	62	14802
2026-01-01 04:54:54.54	335.54	25.52	-50.2	-62.3	3.8	7.47e-01	0	60	104	0	62	15526
2026-01-01 04:54:55.52	335.19	25.53	-50.7	-63.1	3.8	7.42e-01	0	60	104	0	63	16023
2026-01-01 04:54:56.50	334.85	25.54	-51.2	-63.9	3.8	7.43e-01	0	60	104	0	64	16655
2026-01-01 04:54:57.47	334.51	25.56	-51.7	-64.9	3.8	7.47e-01	0	60	104	0	65	17502
2026-01-01 04:54:58.45	334.16	25.57	-52.0	-65.6	3.8	7.45e-01	0	60	104	0	66	17924
2026-01-01 04:54:59.43	333.82	25.58	-52.0	-65.5	3.8	7.47e-01	0	60	104	0	66	17736
2026-01-01 04:55:00.41	333.47	25.59	-52.1	-65.6	3.8	7.44e-01	0	60	104	0	66	18076
2026-01-01 04:55:01.40	333.13	25.59	-52.2	-66.0	3.8	7.44e-01	0	60	104	0	66	18785
2026-01-01 04:55:02.38	332.78	25.60	-52.4	-66.4	3.8	7.47e-01	0	60	104	0	67	18599
2026-01-01 04:55:03.37	332.43	25.60	-52.7	-67.1	3.8	7.45e-01	0	60	104	0	67	20121
2026-01-01 04:55:04.36	332.08	25.61	-53.1	-68.0	3.8	7.45e-01	0	60	104	0	68	21189
2026-01-01 04:55:05.34	331.74	25.61	-53.3	-68.9	3.8	7.46e-01	0	60	104	0	68	23576
2026-01-01 04:55:06.33	331.39	25.61	-53.4	-69.2	3.8	7.43e-01	0	60	104	0	69	23033
2026-01-01 04:55:07.31	331.04	25.62	-53.2	-68.2	3.8	7.41e-01	0	60	104	0	69	20515
2026-01-01 04:55:08.29	330.70	25.61	-52.8	-67.3	3.8	7.44e-01	0	60	104	0	69	18314
2026-01-01 04:55:09.27	330.35	25.61	-52.4	-66.3	3.8	7.41e-01	0	60	104	0	68	17364
2026-01-01 04:55:10.26	330.00	25.61	-52.0	-65.4	3.8	7.41e-01	0	60	104	0	67	16656
2026-01-01 04:55:11.24	329.66	25.61	-51.7	-64.6	3.8	7.43e-01	0	60	104	0	66	16100
2026-01-01 04:55:12.23	329.31	25.60	-51.3	-64.2	3.8	7.43e-01	0	60	104	0	66	15292
2026-01-01 04:55:13.21	328.96	25.60	-51.1	-63.6	3.8	7.46e-01	0	60	104	0	65	15112
2026-01-01 04:55:14.19	328.62	25.59	-51.0	-63.6	3.8	7.46e-01	0	60	104	0	65	15119
2026-01-01 04:55:15.18	328.27	25.58	-50.9	-63.5	3.8	7.47e-01	0	60	104	0	65	14985
2026-01-01 04:55:16.16	327.92	25.57	-50.9	-63.4	3.8	7.45e-01	0	60	104	0	65	14766
2026-01-01 04:55:17.14	327.58	25.56	-50.7	-63.1	3.8	7.45e-01	0	60	104	0	65	14257
2026-01-01 04:55:18.12	327.23	25.55	-50.3	-62.5	3.8	7.45e-01	0	60	104	0	64	14156
2026-01-01 04:55:19.11	326.89	25.54	-50.0	-62.0	3.8	7.45e-01	0	60	104	0	63	14203
2026-01-01 04:55:20.09	326.54	25.53	-49.7	-61.4	3.8	7.43e-01	0	61	104	0	63	13192
2026-01-01 04:55:21.08	326.20	25.51	-49.5	-61.2	3.8	7.45e-01	0	60	104	0	62	13712
2026-01-01 04:55:22.07	325.85	25.50	-49.3	-61.0	3.8	7.45e-01	0	60	104	0	62	13294
2026-01-01 04:55:23.05	325.51	25.48	-49.1	-60.5	3.8	7.49e-01	0	60	104	0	61	13338
2026-01-01 04:55:24.03	325.16	25.46	-49.0	-60.5	3.8	7.45e-01	0	60	104	0	61	13399
2026-01-01 04:55:25.02	324.82	25.44	-49.0	-60.5	3.8	7.43e-01	0	60	104	0	61	13380
2026-01-01 04:55:26.00	324.48	25.42	-49.0	-60.7	3.8	7.45e-01	0	61	104	0	61	13621
2026-01-01 04:55:26.98	324.14	25.40	-49.1	-60.5	3.8	7.45e-01	0	60	104	0	61	13398
2026-01-01 04:55:27.97	323.79	25.38	-49.3	-60.7	3.8	7.47e-01	0	60	104	0	61	13627
2026-01-01 04:55:28.96	323.45	25.36	-49.6	-61.5	3.8	7.51e-01	0	61	104	0	61	14933
2026-01-01 04:55:29.94	323.11	25.33	-49.9	-62.0	3.8	7.43e-01	0	60	104	0	62	14911
2026-01-01 04:55:30.92	322.77	25.31	-49.9	-61.8	3.8	7.44e-01	0	60	104	0	62	14573
2026-01-01 04:55:31.90	322.43	25.28	-49.9	-61.6	3.8	7.42e-01	0	60	104	0	62	14222
2026-01-01 04:55:32.89	322.09	25.25	-50.0	-61.9	3.8	7.47e-01	0	61	104	0	62	14771
2026-01-01 04:55:33.87	321.75	25.22	-50.2	-62.6	3.8	7.44e-01	0	60	104	0	62	16065
2026-01-01 04:55:34.85	321.42	25.19	-50.5	-62.8	3.8	7.44e-01	0	60	104	0	63	15559
2026-01-01 04:55:35.84	321.08	25.16	-50.7	-62.5	3.8	7.42e-01	0	60	104	0	63	15021
2026-01-01 04:55:36.82	320.74	25.13	-50.4	-62.4	3.8	7.43e-01	0	61	104	0	63	14822
2026-01-01 04:55:37.80	320.41	25.10	-50.1	-62.5	3.8	7.46e-01	0	61	104	0	63	14971
2026-01-01 04:55:38.79	320.07	25.07	-49.9	-62.1	3.8	7.47e-01	0	61	104	0	63	14295
2026-01-01 04:55:39.77	319.74	25.03	-49.7	-60.8	3.8	7.45e-01	0	61	104	0	62	13085
2026-01-01 04:55:40.75	319.40	25.00	-49.7	-61.4	3.8	7.44e-01	0	61	104	0	62	13923
2026-01-01 04:55:41.73	319.07	24.96	-49.8	-62.4	3.8	7.46e-01	0	61	104	0	62	15596
2026-01-01 04:55:42.72	318.74	24.92	-49.9	-61.2	3.8	7.47e-01	0	61	104	0	62	13712
2026-01-01 04:55:43.70	318.41	24.89	-50.1	-61.6	3.8	7.50e-01	0	61	104	0	62	14304
2026-01-01 04:55:44.68	318.08	24.85	-50.6	-63.7	3.9	7.41e-01	0	61	104	0	63	17183
2026-01-01 04:55:45.67	317.75	24.81	-50.9	-63.7	3.8	7.47e-01	0	60	104	0	64	16153
2026-01-01 04:55:46.65	317.42	24.76	-50.9	-53.9	18.9	6.00e-01	0	61	0	0	64	5257
2026-01-01 04:55:47.62	317.10	24.72	-51.8	-55.7	17.4	6.01e-01	0	61	0	1572864	66	5780
2026-01-01 04:55:48.59	316.78	24.68	-51.8	-55.8	17.4	6.01e-01	0	60	0	3670016	66	5792
2026-01-01 04:55:49.55	316.46	24.64	-51.2	-54.6	18.5	6.03e-01	0	60	0	5242880	66	5069
2026-01-01 04:55:50.53	316.13	24.59	-51.7	-55.8	17.3	6.01e-01	0	61	0	7340032	65	6152
2026-01-01 04:55:51.50	315.81	24.55	-51.9	-56.3	17.0	6.03e-01	0	61	0	8912896	66	6144
2026-01-01 04:55:52.46	315.50	24.50	-51.2	-54.6	18.7	6.02e-01	0	61	0	11010048	65	5368
2026-01-01 04:55:53.43	315.18	24.46	-51.6	-55.3	17.8	6.00e-01	0	61	0	12582912	66	5471
2026-01-01 04:55:54.40	314.87	24.41	-52.1	-56.6	16.5	6.01e-01	0	61	0	14680064	66	6404
2026-01-01 04:55:55.38	314.55	24.36	-52.0	-56.2	16.9	6.01e-01	0	61	0	16252928	66	6120
2026-01-01 04:55:56.36	314.23	24.31	-51.9	-56.2	16.8	6.00e-01	0	61	0	18350080	66	6065
2026-01-01 04:55:57.32	313.92	24.26	-51.5	-55.2	18.1	6.02e-01	0	61	0	19922944	65	5769
2026-01-01 04:55:58.30	313.60	24.21	-50.6	-53.4	19.8	6.01e-01	0	61	0	21495808	64	4975
2026-01-01 04:55:59.26	313.30	24.16	-50.5	-53.3	19.7	5.99e-01	0	61	0	23592960	64	4922
2026-01-01 04:56:00.24	312.98	24.11	-50.4	-53.2	19.8	6.00e-01	0	61	0	25165824	64	4837
2026-01-01 04:56:01.21	312.67	24.06	-50.4	-53.2	19.8	6.00e-01	0	61	0	27262976	63	5122
2026-01-01 04:56:02.18	312.36	24.00	-50.4	-53.1	20.1	6.00e-01	0	60	0	28835840	63	5096
2026-01-01 04:56:03.15	312.06	23.95	-49.9	-52.3	20.9	6.00e-01	0	61	0	30932992	63	4634
2026-01-01 04:56:04.12	311.75	23.89	-50.5	-53.3	19.9	6.00e-01	0	61	0	32505856	63	5185
2026-01-01 04:56:05.09	311.45	23.84	-50.2	-52.7	20.5	6.01e-01	0	61	0	34603008	63	4860
2026-01-01 04:56:06.06	311.14	23.78	-49.6	-51.8	21.2	6.00e-01	0	61	0	36175872	62	4615
2026-01-01 04:56:07.02	310.84	23.72	-49.7	-52.1	21.1	6.01e-01	0	61	0	38273024	62	4774
2026-01-01 04:56:07.99	310.54	23.66	-49.3	-51.4	21.8	6.00e-01	0	60	0	39845888	62	4405
2026-01-01 04:56:08.95	310.25	23.61	-49.1	-51.2	21.9	6.01e-01	0	61	0	41943040	61	4564
2026-01-01 04:56:09.92	309.95	23.55	-48.9	-50.9	22.3	6.03e-01	0	61	0	43515904	61	4395
2026-01-01 04:56:10.89	309.65	23.49	-49.2	-51.2	21.9	6.00e-01	0	61	0	45088768	61	4592
2026-01-01 04:56:11.86	309.35	23.43	-49.3	-51.5	21.7	6.00e-01	0	61	0	47185920	61	4716
2026-01-01 04:56:12.83	309.06	23.37	-48.6	-50.4	22.6	6.00e-01	0	61	0	48758784	60	4421
2026-01-01 04:56:13.80	308.76	23.30	-49.2	-51.4	21.7	6.01e-01	0	61	0	50855936	60	4954
2026-01-01 04:56:14.76	308.47	23.24	-48.6	-50.5	22.6	6.00e-01	0	61	0	52428800	60	4458
2026-01-01 04:56:15.73	308.18	23.18	-48.8	-50.8	22.1	6.00e-01	0	61	0	54525952	61	4353
2026-01-01 04:56:16.70	307.89	23.11	-49.5	-51.7	21.5	6.02e-01	0	61	0	56098816	61	4852
2026-01-01 04:56:17.67	307.60	23.05	-48.8	-50.7	22.4	6.00e-01	0	61	0	58195968	61	4334
2026-01-01 04:56:18.64	307.32	22.99	-49.0	-51.0	22.1	6.00e-01	0	61	0	59768832	61	4466
2026-01-01 04:56:19.60	307.03	22.92	-49.3	-51.5	21.7	6.03e-01	0	61	0	61865984	61	4707
2026-01-01 04:56:20.57	306.75	22.85	-48.7	-50.6	22.6	6.03e-01	0	61	0	63438848	60	4495
2026-01-01 04:56:21.54	306.46	22.79	-49.3	-51.5	21.5	6.03e-01	0	61	0	65011712	61	4721
2026-01-01 04:56:22.51	306.18	22.72	-49.1	-51.1	21.9	6.01e-01	0	61	0	67108864	60	4810
2026-01-01 04:56:23.47	305.90	22.65	-48.8	-50.7	22.1	6.02e-01	0	61	0	68681728	61	4314
2026-01-01 04:56:24.45	305.62	22.59	-49.7	-52.1	21.1	6.00e-01	0	61	0	70778880	61	5066
2026-01-01 04:56:25.41	305.34	22.52	-48.4	-50.2	22.9	5.98e-01	0	61	0	72351744	60	4303
2026-01-01 04:56:26.38	305.06	22.45	-49.8	-52.2	20.7	6.03e-01	0	61	0	74448896	61	5150
2026-01-01 04:56:27.35	304.79	22.38	-49.1	-51.2	21.9	5.99e-01	0	61	0	76021760	61	4563
2026-01-01 04:56:28.32	304.51	22.31	-49.5	-51.8	21.2	6.02e-01	0	61	0	78118912	62	4599
2026-01-01 04:56:29.29	304.24	22.24	-49.6	-52.0	21.2	6.01e-01	0	61	0	79691776	61	4987
2026-01-01 04:56:30.27	303.96	22.17	-48.9	-50.8	22.2	5.99e-01	0	61	0	81788928	61	4375
2026-01-01 04:56:31.23	303.70	22.10	-49.8	-52.2	21.0	6.02e-01	0	61	0	83361792	61	5137
2026-01-01 04:56:32.21	303.42	22.02	-49.1	-51.1	22.0	6.02e-01	0	61	0	85458944	61	4539
2026-01-01 04:56:33.18	303.15	21.95	-49.9	-52.4	20.7	6.01e-01	0	61	0	87031808	62	4933
2026-01-01 04:56:34.15	302.89	21.88	-49.4	-51.6	21.5	6.02e-01	0	61	0	89128960	62	4540
2026-01-01 04:56:35.11	302.62	21.81	-49.3	-51.5	21.5	6.01e-01	0	61	0	90701824	62	4455
2026-01-01 04:56:36.07	302.36	21.73	-49.6	-52.0	21.2	6.01e-01	0	61	0	92274688	61	5002
2026-01-01 04:56:37.04	302.10	21.66	-49.2	-51.3	21.6	6.02e-01	0	61	0	94371840	62	4367
2026-01-01 04:56:38.02	301.83	21.58	-49.7	-52.0	21.1	6.01e-01	0	61	0	95944704	61	5038
2026-01-01 04:56:38.99	301.57	21.51	-49.5	-51.7	21.4	5.99e-01	0	61	0	98041856	62	4569
2026-01-01 04:56:39.96	301.32	21.43	-49.6	-52.0	21.1	6.00e-01	0	61	0	99614720	62	4714
2026-01-01 04:56:40.93	301.06	21.36	-49.7	-52.1	21.0	6.01e-01	0	61	0	101711872	62	4781
2026-01-01 04:56:41.90	300.80	21.28	-49.5	-51.8	21.4	6.02e-01	0	61	0	103284736	62	4623
2026-01-01 04:56:42.87	300.55	21.21	-49.6	-51.9	21.2	6.03e-01	0	61	0	105381888	62	4681
2026-01-01 04:56:43.83	300.29	21.13	-49.5	-51.8	21.3	5.99e-01	0	61	0	106954752	62	4628
2026-01-01 04:56:44.80	300.04	21.05	-49.3	-51.4	21.7	6.01e-01	0	61	0	109051904	62	4404
2026-01-01 04:56:45.77	299.79	20.98	-49.2	-51.3	21.8	6.01e-01	0	61	0	110624768	62	4368
2026-01-01 04:56:46.74	299.54	20.90	-49.0	-51.1	22.0	6.01e-01	0	61	0	112721920	61	4499
2026-01-01 04:56:47.71	299.29	20.82	-49.2	-51.4	21.8	6.01e-01	0	61	0	114294784	61	4673
2026-01-01 04:56:48.68	299.05	20.74	-49.2	-51.3	21.9	6.02e-01	0	61	0	116391936	61	4633
2026-01-01 04:56:49.65	298.80	20.67	-49.7	-52.0	21.1	5.99e-01	0	61	0	117964800	61	5030
2026-01-01 04:56:50.62	298.55	20.59	-49.2	-51.3	21.8	6.01e-01	0	61	0	120061952	61	4604
2026-01-01 04:56:51.59	298.31	20.51	-49.1	-51.1	21.9	6.00e-01	0	61	0	121634816	61	4538
2026-01-01 04:56:52.56	298.07	20.43	-48.8	-50.8	22.2	6.02e-01	0	61	0	123207680	61	4362
2026-01-01 04:56:53.53	297.83	20.35	-48.7	-50.6	22.4	6.02e-01	0	61	0	125304832	60	4533
2026-01-01 04:56:54.50	297.59	20.27	-49.8	-52.4	20.8	6.00e-01	0	61	0	126877696	61	5231
2026-01-01 04:56:55.47	297.35	20.19	-48.9	-50.8	22.2	6.03e-01	0	61	0	128974848	61	4368
2026-01-01 04:56:56.44	297.11	20.11	-49.0	-51.1	22.0	6.00e-01	0	61	0	130547712	61	4503
2026-01-01 04:56:57.41	296.88	20.03	-49.1	-51.2	21.8	5.99e-01	0	61	0	132644864	61	4547
2026-01-01 04:56:58.37	296.65	19.95	-48.9	-51.0	22.1	5.98e-01	0	61	0	134217728	61	4445
2026-01-01 04:56:59.34	296.41	19.87	-48.8	-50.7	22.3	6.01e-01	0	61	0	136314880	61	4311
2026-01-01 04:57:00.31	296.18	19.79	-49.0	-51.1	22.0	6.00e-01	0	61	0	137887744	61	4517
2026-01-01 04:57:01.28	295.95	19.71	-49.2	-51.3	21.8	6.00e-01	0	61	0	139984896	61	4631
2026-01-01 04:57:02.25	295.72	19.63	-49.1	-51.2	21.8	6.02e-01	0	61	0	141557760	61	4591
2026-01-01 04:57:03.22	295.50	19.55	-49.1	-51.2	22.0	6.00e-01	0	61	0	143654912	61	4554
2026-01-01 04:57:04.19	295.27	19.47	-49.7	-52.1	21.0	6.00e-01	0	61	0	145227776	61	5057
2026-01-01 04:57:05.16	295.05	19.39	-49.3	-51.5	21.5	6.03e-01	0	61	0	147324928	61	4733
2026-01-01 04:57:06.13	294.82	19.30	-48.6	-50.4	22.5	6.02e-01	0	61	0	148897792	60	4416
2026-01-01 04:57:07.10	294.60	19.22	-48.5	-50.4	22.5	6.02e-01	0	61	0	150994944	60	4415
2026-01-01 04:57:08.07	294.38	19.14	-49.0	-51.1	21.9	6.00e-01	0	61	0	152567808	60	4786
2026-01-01 04:57:09.04	294.16	19.06	-48.6	-50.4	22.5	6.01e-01	0	61	0	154664960	60	4441
2026-01-01 04:57:10.02	293.94	18.97	-48.8	-50.7	22.3	5.99e-01	0	61	0	156237824	60	4591
2026-01-01 04:57:10.98	293.72	18.89	-49.1	-51.2	21.9	6.00e-01	0	61	0	157810688	60	4820
2026-01-01 04:57:11.96	293.50	18.81	-48.7	-50.6	22.3	6.01e-01	0	61	0	159907840	60	4509
2026-01-01 04:57:12.92	293.29	18.73	-48.8	-50.8	22.2	6.01e-01	0	61	0	161480704	60	4609
2026-01-01 04:57:13.89	293.08	18.65	-49.3	-51.6	21.4	6.01e-01	0	61	0	163577856	60	5047
2026-01-01 04:57:14.86	292.86	18.56	-48.9	-51.0	21.8	6.02e-01	0	61	0	165150720	60	4733
2026-01-01 04:57:15.83	292.65	18.48	-48.8	-50.9	22.0	6.01e-01	0	61	0	167247872	60	4673
2026-01-01 04:57:16.80	292.44	18.40	-49.2	-51.5	21.4	6.00e-01	0	61	0	168820736	60	5010
2026-01-01 04:57:17.77	292.23	18.31	-49.3	-51.6	21.0	6.02e-01	0	61	0	170917888	60	5094
2026-01-01 04:57:18.75	292.02	18.23	-49.6	-52.1	20.5	5.99e-01	0	61	0	172490752	61	5058
2026-01-01 04:57:19.72	291.82	18.15	-49.9	-52.7	19.9	6.00e-01	0	61	0	174587904	61	5431
2026-01-01 04:57:20.69	291.61	18.06	-50.2	-53.3	19.1	6.02e-01	0	61	0	176160768	62	5517
2026-01-01 04:57:21.66	291.41	17.98	-50.3	-53.7	18.6	6.04e-01	0	61	0	178257920	62	5729
2026-01-01 04:57:22.63	291.21	17.90	-50.3	-53.8	18.4	6.02e-01	0	61	0	179830784	62	5801
2026-01-01 04:57:23.60	291.00	17.81	-50.8	-54.8	17.4	6.02e-01	0	61	0	181927936	63	6153
2026-01-01 04:57:24.57	290.80	17.73	-50.9	-55.3	16.5	6.01e-01	0	61	0	183500800	64	6198
2026-01-01 04:57:25.54	290.60	17.65	-50.8	-55.2	16.5	6.02e-01	0	61	0	185073664	64	6119
2026-01-01 04:57:26.50	290.41	17.56	-50.7	-55.2	16.5	6.00e-01	0	61	0	187170816	64	6077
2026-01-01 04:57:27.48	290.21	17.48	-51.1	-56.4	15.2	6.03e-01	0	61	0	188743680	64	7024
2026-01-01 04:57:28.45	290.01	17.40	-51.3	-57.2	14.3	6.03e-01	0	61	0	190840832	64	7634
2026-01-01 04:57:29.42	289.82	17.31	-51.3	-57.3	14.0	6.00e-01	0	61	0	192413696	64	7794
2026-01-01 04:57:30.39	289.63	17.23	-51.4	-57.8	13.5	6.04e-01	0	61	0	194510848	64	8223
2026-01-01 04:57:31.37	289.43	17.15	-51.5	-58.6	12.6	6.06e-01	0	61	0	196083712	65	8542
2026-01-01 04:57:32.33	289.24	17.06	-51.5	-58.8	12.4	6.04e-01	0	61	0	198180864	65	8719
2026-01-01 04:57:33.31	289.05	16.98	-51.5	-58.9	12.2	6.07e-01	0	61	0	199753728	65	8776
2026-01-01 04:57:34.28	288.86	16.90	-51.6	-59.1	12.0	6.07e-01	0	61	0	201850880	65	9003
2026-01-01 04:57:35.25	288.67	16.81	-51.6	-59.7	11.3	6.10e-01	0	61	0	203423744	65	9629
2026-01-01 04:57:36.22	288.49	16.73	-51.8	-61.1	9.9	6.21e-01	0	61	0	205520896	65	11298
2026-01-01 04:57:37.18	288.30	16.65	-51.9	-61.6	9.3	6.29e-01	0	61	0	207093760	65	12025
2026-01-01 04:57:38.15	288.12	16.56	-51.8	-61.4	9.4	6.27e-01	0	61	0	209190912	65	11806
2026-01-01 04:57:39.12	287.94	16.48	-51.8	-61.8	9.1	6.28e-01	0	61	0	210763776	65	12300
2026-01-01 04:57:40.08	287.76	16.40	-51.9	-62.5	8.4	6.39e-01	33	61	0	212336640	65	13305
2026-01-01 04:57:41.05	287.57	16.31	-51.9	-63.8	7.0	6.64e-01	91	61	0	214433792	66	14592
2026-01-01 04:57:42.02	287.39	16.23	-51.9	-64.0	6.7	6.69e-01	92	61	0	216006656	66	14929
2026-01-01 04:57:42.99	287.22	16.15	-51.9	-63.8	7.0	6.62e-01	91	61	0	218103808	66	14582
2026-01-01 04:57:43.96	287.04	16.06	-51.9	-63.7	7.0	6.64e-01	91	61	0	219676672	66	14490
2026-01-01 04:57:44.93	286.86	15.98	-51.9	-64.3	6.4	6.75e-01	91	61	0	221249536	66	15573
2026-01-01 04:57:45.91	286.68	15.90	-51.9	-64.8	6.0	6.84e-01	91	61	0	223346688	66	16370
2026-01-01 04:57:46.88	286.51	15.81	-52.0	-65.0	5.9	6.89e-01	93	61	0	224919552	66	16776
2026-01-01 04:57:47.85	286.34	15.73	-51.9	-64.3	6.4	6.73e-01	93	61	0	226492416	66	15457
2026-01-01 04:57:48.81	286.16	15.65	-52.0	-64.4	6.4	6.77e-01	91	62	0	228589568	66	15722
2026-01-01 04:57:49.78	285.99	15.57	-52.0	-63.9	6.8	6.64e-01	91	61	0	230162432	66	14784
2026-01-01 04:57:50.75	285.82	15.48	-52.0	-63.3	7.5	6.52e-01	91	61	0	232259584	66	13757
2026-01-01 04:57:51.72	285.65	15.40	-51.9	-62.0	8.8	6.29e-01	1	61	0	233832448	66	11862
2026-01-01 04:57:52.69	285.48	15.32	-51.7	-60.1	10.9	6.14e-01	0	61	0	235929600	66	9536
2026-01-01 04:57:53.66	285.32	15.23	-51.5	-58.3	12.8	6.04e-01	0	61	0	237502464	66	7786
2026-01-01 04:57:54.63	285.15	15.15	-51.1	-56.7	14.6	6.02e-01	0	61	0	239075328	65	6859
2026-01-01 04:57:55.60	284.98	15.07	-50.8	-55.7	15.7	6.00e-01	0	61	0	241172480	65	6084
2026-01-01 04:57:56.58	284.82	14.99	-50.7	-55.3	16.2	6.03e-01	0	61	0	242745344	65	5851
2026-01-01 04:57:57.55	284.65	14.90	-50.7	-55.3	16.3	6.02e-01	0	62	0	244842496	64	6147
2026-01-01 04:57:58.52	284.49	14.82	-50.7	-55.2	16.5	6.02e-01	0	62	0	246415360	64	6085
2026-01-01 04:57:59.48	284.33	14.74	-50.6	-54.7	17.1	5.99e-01	0	61	0	248512512	64	5747
2026-01-01 04:58:00.45	284.17	14.66	-50.3	-53.9	18.0	6.02e-01	0	61	0	250085376	64	5267
2026-01-01 04:58:01.42	284.01	14.58	-50.1	-53.4	18.6	5.99e-01	0	62	0	252182528	63	5270
2026-01-01 04:58:02.39	283.85	14.49	-49.9	-52.9	19.3	6.01e-01	0	61	0	253755392	63	4975
2026-01-01 04:58:03.36	283.69	14.41	-49.8	-52.6	19.7	6.02e-01	0	61	0	255852544	63	4789
2026-01-01 04:58:04.33	283.54	14.33	-49.7	-52.5	19.9	6.01e-01	0	61	0	257425408	63	4736
2026-01-01 04:58:05.30	283.38	14.25	-49.7	-52.4	20.0	6.00e-01	0	62	0	259522560	62	4981
2026-01-01 04:58:06.27	283.23	14.17	-49.7	-52.4	20.1	5.99e-01	0	61	0	261095424	62	4951
2026-01-01 04:58:07.24	283.07	14.09	-49.6	-52.2	20.3	5.99e-01	0	61	0	263192576	62	4849
2026-01-01 04:58:08.20	282.92	14.01	-49.5	-52.0	20.6	5.99e-01	0	61	0	264765440	62	4750
2026-01-01 04:58:09.18	282.77	13.92	-49.3	-51.7	20.9	6.00e-01	0	61	0	266338304	62	4574
2026-01-01 04:58:10.15	282.62	13.84	-49.3	-51.6	21.1	6.00e-01	0	62	0	268435456	62	4523
2026-01-01 04:58:11.12	282.46	13.76	-49.3	-51.6	21.1	6.00e-01	0	61	0	270008320	62	4510
2026-01-01 04:58:12.09	282.32	13.68	-49.0	-51.2	21.5	6.00e-01	0	61	0	272105472	61	4595
2026-01-01 04:58:13.05	282.17	13.60	-49.0	-51.1	21.7	6.01e-01	0	61	0	273678336	61	4527
2026-01-01 04:58:14.03	282.02	13.52	-48.9	-51.1	21.7	6.02e-01	0	61	0	275775488	61	4505
2026-01-01 04:58:15.00	281.87	13.44	-49.0	-51.2	21.6	6.03e-01	0	61	0	277348352	61	4561
2026-01-01 04:58:15.97	281.73	13.36	-49.0	-51.2	21.6	6.01e-01	0	61	0	279445504	61	4560
2026-01-01 04:58:16.93	281.58	13.28	-48.9	-51.0	21.8	6.00e-01	0	61	0	281018368	61	4449
2026-01-01 04:58:17.90	281.44	13.20	-48.9	-51.0	21.8	6.01e-01	0	61	0	283115520	61	4483
2026-01-01 04:58:18.87	281.29	13.12	-48.9	-51.0	21.8	6.02e-01	0	61	0	284688384	61	4463
2026-01-01 04:58:19.84	281.15	13.04	-48.9	-51.1	21.7	6.00e-01	0	61	0	286785536	61	4503
2026-01-01 04:58:20.81	281.01	12.96	-49.0	-51.2	21.7	6.05e-01	0	61	0	288358400	61	4557
2026-01-01 04:58:21.77	280.87	12.88	-49.0	-51.1	21.7	6.02e-01	0	61	0	290455552	61	4511
2026-01-01 04:58:22.74	280.73	12.80	-49.0	-51.2	21.6	6.00e-01	0	61	0	292028416	61	4563
2026-01-01 04:58:23.70	280.59	12.72	-49.1	-51.2	21.6	6.00e-01	0	61	0	294125568	61	4588
2026-01-01 04:58:24.67	280.45	12.64	-48.9	-51.1	21.7	6.00e-01	0	61	0	295698432	61	4496
2026-01-01 04:58:25.64	280.32	12.56	-48.9	-51.0	21.8	6.01e-01	0	61	0	297271296	61	4457
2026-01-01 04:58:26.61	280.18	12.49	-48.8	-50.9	21.9	5.98e-01	0	61	0	299368448	61	4402
2026-01-01 04:58:27.58	280.04	12.41	-48.8	-50.9	21.8	6.00e-01	0	61	0	300941312	61	4393
2026-01-01 04:58:28.55	279.91	12.33	-48.8	-50.8	21.8	6.01e-01	0	61	0	303038464	61	4388
2026-01-01 04:58:29.51	279.77	12.25	-48.8	-50.9	21.8	6.02e-01	0	61	0	304611328	61	4434
2026-01-01 04:58:30.48	279.64	12.17	-49.0	-51.1	21.6	6.01e-01	0	61	0	306708480	61	4537
2026-01-01 04:58:31.45	279.51	12.09	-49.0	-51.2	21.5	6.00e-01	0	61	0	308281344	61	4568
2026-01-01 04:58:32.41	279.38	12.02	-49.1	-51.4	21.4	6.00e-01	0	61	0	310378496	61	4660
2026-01-01 04:58:33.38	279.24	11.94	-49.2	-51.5	21.2	6.00e-01	0	61	0	311951360	61	4723
2026-01-01 04:58:34.35	279.11	11.86	-49.1	-51.4	21.3	6.01e-01	0	62	0	314048512	61	4674
2026-01-01 04:58:35.31	278.98	11.78	-49.1	-51.4	21.4	6.00e-01	0	61	0	315621376	61	4662
2026-01-01 04:58:36.28	278.86	11.70	-49.0	-51.3	21.5	5.99e-01	0	61	0	317194240	61	4607
2026-01-01 04:58:37.25	278.73	11.63	-49.1	-51.4	21.4	6.00e-01	0	61	0	319291392	61	4660
2026-01-01 04:58:38.22	278.60	11.55	-49.2	-51.5	21.2	6.00e-01	0	61	0	320864256	61	4718
2026-01-01 04:58:39.19	278.47	11.47	-48.9	-51.1	21.6	6.02e-01	0	61	0	322961408	61	4522
2026-01-01 04:58:40.16	278.35	11.40	-48.8	-51.0	21.7	6.02e-01	0	61	0	324534272	61	4463
2026-01-01 04:58:41.13	278.22	11.32	-48.9	-51.0	21.6	6.01e-01	0	62	0	326631424	61	4483
2026-01-01 04:58:42.10	278.10	11.24	-49.0	-51.2	21.5	6.00e-01	0	62	0	328204288	61	4584
2026-01-01 04:58:43.07	277.97	11.16	-49.2	-51.5	21.1	6.03e-01	0	61	0	330301440	61	4742
2026-01-01 04:58:44.04	277.85	11.09	-49.1	-51.4	21.2	5.98e-01	0	62	0	331874304	61	4673
2026-01-01 04:58:45.01	277.73	11.01	-49.3	-51.7	20.9	6.00e-01	0	61	0	333971456	61	4816
2026-01-01 04:58:45.97	277.61	10.94	-49.1	-51.4	21.1	6.00e-01	0	61	0	335544320	61	4693
2026-01-01 04:58:46.94	277.48	10.86	-49.3	-51.7	20.8	6.02e-01	0	61	0	337641472	61	4862
2026-01-01 04:58:47.91	277.36	10.78	-49.1	-51.4	21.0	6.02e-01	0	61	0	339214336	61	4686
2026-01-01 04:58:48.88	277.24	10.71	-49.2	-51.6	20.9	5.99e-01	0	61	0	340787200	61	4799
2026-01-01 04:58:49.85	277.12	10.63	-49.1	-51.5	20.9	6.03e-01	0	61	0	342884352	61	4747
2026-01-01 04:58:50.82	277.01	10.56	-49.1	-51.5	20.9	6.02e-01	0	61	0	344457216	61	4709
2026-01-01 04:58:51.79	276.89	10.48	-49.0	-51.4	20.9	6.01e-01	0	61	0	346554368	61	4681
2026-01-01 04:58:52.76	276.77	10.41	-49.1	-51.5	20.7	6.00e-01	0	61	0	348127232	61	4749
2026-01-01 04:58:53.73	276.65	10.33	-49.2	-51.7	20.5	6.02e-01	0	61	0	350224384	61	4866
2026-01-01 04:58:54.69	276.54	10.26	-49.3	-52.0	20.2	6.00e-01	0	61	0	351797248	61	5000
2026-01-01 04:58:55.66	276.42	10.18	-49.3	-51.9	20.2	6.02e-01	0	61	0	353894400	61	4981
2026-01-01 04:58:56.63	276.31	10.11	-49.4	-52.1	20.0	6.01e-01	0	62	0	355467264	61	5080
2026-01-01 04:58:57.60	276.20	10.03	-49.4	-52.2	19.8	6.02e-01	0	62	0	357564416	61	5134
2026-01-01 04:58:58.57	276.08	9.96	-49.2	-51.9	20.0	6.01e-01	0	61	0	359137280	61	4964
2026-01-01 04:58:59.53	275.97	9.88	-49.1	-51.8	20.1	5.99e-01	0	61	0	361234432	61	4903
2026-01-01 04:59:00.50	275.86	9.81	-49.1	-51.8	20.0	6.02e-01	0	61	0	362807296	61	4885
2026-01-01 04:59:01.47	275.75	9.74	-49.1	-51.8	20.0	6.01e-01	0	61	0	364904448	61	4925
2026-01-01 04:59:02.44	275.64	9.66	-49.2	-52.0	19.8	6.01e-01	0	62	0	366477312	61	5034
2026-01-01 04:59:03.41	275.53	9.59	-49.3	-52.1	19.7	6.00e-01	0	61	0	368574464	61	5092
2026-01-01 04:59:04.38	275.42	9.52	-49.2	-52.0	19.8	6.01e-01	0	61	0	370147328	61	5025
2026-01-01 04:59:05.35	275.31	9.44	-49.2	-52.1	19.6	5.99e-01	0	61	0	371720192	61	5070
2026-01-01 04:59:06.32	275.20	9.37	-49.4	-52.4	19.4	6.01e-01	0	61	0	373817344	61	5224
2026-01-01 04:59:07.28	275.09	9.30	-49.4	-52.5	19.2	6.00e-01	0	61	0	375390208	61	5282
2026-01-01 04:59:08.25	274.99	9.22	-49.6	-52.8	18.8	6.01e-01	0	61	0	377487360	61	5497
2026-01-01 04:59:09.22	274.88	9.15	-49.6	-52.9	18.7	6.01e-01	0	62	0	379060224	61	5550
2026-01-01 04:59:10.20	274.77	9.08	-49.7	-53.1	18.3	5.99e-01	0	62	0	381157376	61	5706
2026-01-01 04:59:11.17	274.67	9.00	-49.8	-53.4	18.0	6.00e-01	0	62	0	382730240	61	5897
2026-01-01 04:59:12.13	274.56	8.93	-49.6	-53.3	18.0	6.01e-01	0	62	0	384827392	61	5798
2026-01-01 04:59:13.10	274.46	8.86	-49.7	-53.6	17.6	6.01e-01	0	61	0	386400256	61	6006
2026-01-01 04:59:14.07	274.36	8.79	-49.7	-53.7	17.4	5.99e-01	0	61	0	388497408	61	6092
2026-01-01 04:59:15.03	274.25	8.72	-49.8	-53.9	17.2	6.01e-01	0	62	0	390070272	61	6216
2026-01-01 04:59:16.00	274.15	8.65	-50.0	-54.2	16.8	6.02e-01	0	62	0	392167424	62	6131
2026-01-01 04:59:16.97	274.05	8.57	-49.8	-54.0	16.9	6.00e-01	0	62	0	393740288	62	5992
2026-01-01 04:59:17.94	273.95	8.50	-49.8	-54.0	16.8	6.03e-01	0	62	0	395313152	62	5989
2026-01-01 04:59:18.91	273.85	8.43	-49.8	-54.2	16.6	6.02e-01	0	61	0	397410304	62	6108
2026-01-01 04:59:19.88	273.75	8.36	-49.9	-54.4	16.3	6.01e-01	0	62	0	398983168	62	6235
2026-01-01 04:59:20.86	273.65	8.29	-49.9	-54.7	16.0	6.01e-01	0	62	0	401080320	62	6449
2026-01-01 04:59:21.83	273.55	8.22	-49.9	-54.8	15.8	6.00e-01	0	62	0	402653184	62	6515
2026-01-01 04:59:22.80	273.45	8.15	-50.0	-55.2	15.4	6.01e-01	0	62	0	404750336	62	6831
2026-01-01 04:59:23.77	273.35	8.08	-50.0	-55.2	15.2	6.02e-01	0	62	0	406323200	62	6873
2026-01-01 04:59:24.74	273.25	8.01	-50.0	-55.4	15.0	6.02e-01	0	62	0	408420352	62	6989
2026-01-01 04:59:25.71	273.15	7.93	-50.1	-55.6	14.7	6.00e-01	0	62	0	409993216	62	7195
2026-01-01 04:59:26.67	273.06	7.87	-50.2	-56.0	14.4	6.03e-01	0	62	0	412090368	62	7466
2026-01-01 04:59:27.64	272.96	7.80	-50.2	-56.3	13.9	6.01e-01	0	62	0	413663232	62	7753
2026-01-01 04:59:28.60	272.87	7.73	-50.3	-56.6	13.6	6.04e-01	0	62	0	415760384	62	8054
2026-01-01 04:59:29.57	272.77	7.66	-50.2	-56.6	13.5	6.03e-01	0	62	0	417333248	62	8047
2026-01-01 04:59:30.54	272.68	7.59	-50.3	-57.0	13.0	6.06e-01	0	62	0	419430400	62	8383
2026-01-01 04:59:31.51	272.59	7.52	-50.3	-57.2	12.8	6.04e-01	0	62	0	421003264	62	8601
2026-01-01 04:59:32.48	272.49	7.45	-50.3	-57.4	12.5	6.08e-01	0	62	0	422576128	62	8810
2026-01-01 04:59:33.45	272.40	7.38	-50.3	-57.9	11.9	6.08e-01	0	62	0	424673280	62	9380
2026-01-01 04:59:34.42	272.31	7.31	-50.3	-57.9	11.7	6.08e-01	0	62	0	426246144	62	9378
2026-01-01 04:59:35.39	272.21	7.24	-50.3	-58.3	11.4	6.08e-01	0	62	0	428343296	62	9811
2026-01-01 04:59:36.35	272.12	7.17	-50.3	-58.7	10.8	6.15e-01	0	62	0	429916160	62	10204
2026-01-01 04:59:37.32	272.03	7.10	-50.2	-58.3	11.1	6.08e-01	0	62	0	432013312	62	9827
2026-01-01 04:59:38.29	271.94	7.04	-50.1	-58.3	11.1	6.12e-01	0	62	0	433586176	62	9802
2026-01-01 04:59:39.25	271.85	6.97	-50.1	-58.4	11.1	6.10e-01	0	62	0	435683328	62	9838
2026-01-01 04:59:40.22	271.76	6.90	-50.2	-58.6	10.7	6.15e-01	0	62	0	437256192	62	10153
2026-01-01 04:59:41.20	271.67	6.83	-50.2	-58.8	10.6	6.16e-01	0	62	0	439353344	62	10330
2026-01-01 04:59:42.17	271.58	6.76	-50.2	-58.7	10.7	6.15e-01	0	62	0	440926208	62	10266
2026-01-01 04:59:43.14	271.50	6.69	-50.2	-59.0	10.3	6.16e-01	0	62	0	442499072	62	10586
2026-01-01 04:59:44.10	271.41	6.63	-50.3	-58.7	10.8	6.11e-01	0	62	0	444596224	62	10204
2026-01-01 04:59:45.07	271.32	6.56	-50.3	-58.7	10.7	6.14e-01	0	62	0	446169088	62	10293
2026-01-01 04:59:46.04	271.24	6.49	-50.3	-58.4	11.1	6.12e-01	0	62	0	448266240	62	9934
2026-01-01 04:59:47.01	271.15	6.43	-50.3	-58.5	11.1	6.10e-01	0	62	0	449839104	62	10028
2026-01-01 04:59:47.98	271.06	6.36	-50.3	-58.6	10.9	6.11e-01	0	62	0	451936256	62	10143
2026-01-01 04:59:48.95	270.98	6.29	-50.4	-58.8	10.8	6.13e-01	0	62	0	453509120	62	10401
2026-01-01 04:59:49.92	270.89	6.22	-50.3	-58.5	11.0	6.11e-01	0	62	0	455606272	62	10057
2026-01-01 04:59:50.89	270.81	6.16	-50.4	-58.5	11.1	6.11e-01	0	62	0	457179136	62	10006
2026-01-01 04:59:51.86	270.72	6.09	-50.3	-58.4	11.2	6.13e-01	0	62	0	459276288	62	9916
2026-01-01 04:59:52.83	270.64	6.02	-50.4	-58.6	11.1	6.15e-01	0	62	0	460849152	62	10072
2026-01-01 04:59:53.80	270.56	5.96	-50.4	-58.8	10.8	6.13e-01	0	62	0	462946304	63	9821
2026-01-01 04:59:54.77	270.47	5.89	-50.5	-58.8	10.9	6.13e-01	0	62	0	464519168	63	9783
2026-01-01 04:59:55.74	270.39	5.83	-50.5	-58.7	11.0	6.11e-01	0	62	0	466616320	63	9676
2026-01-01 04:59:56.71	270.31	5.76	-50.5	-58.4	11.4	6.11e-01	0	62	0	468189184	63	9332
2026-01-01 04:59:57.67	270.23	5.69	-50.5	-58.4	11.4	6.10e-01	0	62	0	470286336	63	9302
2026-01-01 04:59:58.65	270.15	5.63	-50.5	-58.4	11.5	6.07e-01	0	62	0	471859200	63	9296
2026-01-01 04:59:59.61	270.07	5.56	-50.5	-58.7	11.1	6.14e-01	0	62	0	473432064	63	9717
2026-01-01 05:00:00.58	269.99	5.50	-50.5	-58.3	11.5	6.09e-01	0	62	0	475004928	63	9191
2026-01-01 05:00:01.55	269.91	5.43	-50.6	-58.6	11.2	6.11e-01	0	62	0	477102080	63	9572
2026-01-01 05:00:02.52	269.83	5.37	-50.6	-58.5	11.3	6.11e-01	0	62	0	479199232	63	9482
2026-01-01 05:00:03.49	269.75	5.30	-50.5	-58.1	11.9	6.08e-01	0	62	0	480772096	63	9005
2026-01-01 05:00:04.46	269.67	5.24	-50.4	-57.4	12.7	6.05e-01	0	62	0	482869248	63	8317
2026-01-01 05:00:05.43	269.59	5.17	-50.4	-57.0	13.2	6.01e-01	0	62	0	484442112	63	7906
2026-01-01 05:00:06.39	269.51	5.11	-50.4	-56.8	13.4	6.02e-01	0	62	0	486539264	63	7722
2026-01-01 05:00:07.37	269.43	5.04	-50.4	-56.8	13.6	6.03e-01	0	62	0	488112128	63	7757
2026-01-01 05:00:08.33	269.36	4.98	-50.6	-64.3	5.7	6.93e-01	92	62	0	489684992	64	17289
2026-01-01 05:00:09.32	269.28	4.91	-51.7	-71.3	3.8	7.47e-01	0	62	104	489684992	65	36910
2026-01-01 05:00:10.30	269.20	4.85	-52.5	-72.3	3.8	7.46e-01	0	62	104	489684992	68	34625
2026-01-01 05:00:11.28	269.13	4.78	-53.9	-73.7	3.8	7.45e-01	0	62	104	489684992	69	38483
2026-01-01 05:00:12.26	269.05	4.72	-54.2	-74.1	3.8	7.41e-01	0	62	104	489684992	70	38000
2026-01-01 05:00:13.24	268.97	4.66	-54.3	-74.2	3.8	7.45e-01	0	62	104	489684992	70	38363
2026-01-01 05:00:14.23	268.90	4.59	-54.3	-74.2	3.8	7.47e-01	0	62	104	489684992	70	38515
2026-01-01 05:00:15.21	268.82	4.53	-54.3	-74.2	3.8	7.45e-01	0	62	104	489684992	70	38446
2026-01-01 05:00:16.19	268.75	4.46	-54.4	-74.3	3.8	7.45e-01	0	62	104	489684992	70	38780
2026-01-01 05:00:17.16	268.67	4.40	-54.4	-74.3	3.8	7.44e-01	0	62	104	489684992	71	36882
2026-01-01 05:00:18.15	268.60	4.34	-54.5	-74.4	3.8	7.43e-01	0	62	104	489684992	71	36960
2026-01-01 05:00:19.13	268.52	4.27	-54.5	-74.4	3.8	7.44e-01	0	62	104	489684992	71	37150
2026-01-01 05:00:20.11	268.45	4.21	-54.5	-74.4	3.8	7.46e-01	0	62	104	489684992	71	37202
2026-01-01 05:00:21.09	268.38	4.14	-54.5	-74.4	3.8	7.47e-01	0	62	104	489684992	71	37322
2026-01-01 05:00:22.07	268.30	4.08	-54.6	-74.5	3.8	7.45e-01	0	62	104	489684992	71	37544
2026-01-01 05:00:23.05	268.23	4.02	-54.6	-74.5	3.8	7.48e-01	0	62	104	489684992	71	37562
2026-01-01 05:00:24.04	268.16	3.95	-54.6	-74.5	3.8	7.47e-01	0	62	104	489684992	71	37647
2026-01-01 05:00:25.02	268.09	3.89	-54.6	-74.5	3.8	7.47e-01	0	62	104	489684992	71	37743
2026-01-01 05:00:26.01	268.01	3.83	-54.6	-74.5	3.8	7.43e-01	0	62	104	489684992	71	37650
2026-01-01 05:00:26.99	267.94	3.77	-54.6	-74.5	3.8	7.41e-01	0	62	104	489684992	71	37769
2026-01-01 05:00:27.97	267.87	3.70	-54.6	-74.5	3.8	7.45e-01	0	62	104	489684992	71	37756
2026-01-01 05:00:28.95	267.80	3.64	-54.7	-74.6	3.8	7.48e-01	0	62	104	489684992	71	37868
2026-01-01 05:00:29.93	267.73	3.58	-54.7	-74.6	3.8	7.46e-01	0	62	104	489684992	71	37920
2026-01-01 05:00:30.91	267.66	3.52	-54.7	-74.6	3.8	7.44e-01	0	62	104	489684992	71	37904
2026-01-01 05:00:31.90	267.59	3.45	-54.7	-74.6	3.8	7.45e-01	0	62	104	489684992	71	38020
2026-01-01 05:00:32.88	267.52	3.39	-54.7	-74.6	3.8	7.41e-01	0	62	104	489684992	71	38052
2026-01-01 05:00:33.86	267.46	3.33	-54.7	-74.6	3.8	7.45e-01	0	62	104	489684992	71	38013
2026-01-01 05:00:34.84	267.39	3.27	-54.7	-74.6	3.8	7.44e-01	0	62	104	489684992	71	37994
2026-01-01 05:00:35.82	267.32	3.21	-54.7	-74.6	3.8	7.48e-01	0	62	104	489684992	71	37974
2026-01-01 05:00:36.80	267.25	3.14	-54.7	-74.6	3.8	7.46e-01	0	62	104	489684992	71	37852
2026-01-01 05:00:37.78	267.18	3.08	-54.7	-74.5	3.8	7.45e-01	0	62	104	489684992	71	37783
2026-01-01 05:00:38.75	267.12	3.02	-54.6	-74.5	3.8	7.48e-01	0	62	104	489684992	71	37794
2026-01-01 05:00:39.74	267.05	2.96	-54.6	-74.5	3.8	7.47e-01	0	62	104	489684992	71	37782
2026-01-01 05:00:40.72	266.98	2.90	-54.6	-74.5	3.8	7.44e-01	0	62	104	489684992	71	37748

#Closed at: 2026-01-01 05:00:40
#Recorded file [489 MB]: D:/Data/31026_260101_080008.dat