passes_logs/2026/01/01/R3.0SM8_Murmansk_STILSPACE/R3.0SM8_Murmansk_STILSPACE__20260101_113234_FENGYUN_3D_rec.log

#Pass ID: 20260101_113234_FENGYUN 3D
#Satellite: FENGYUN 3D
#Configuration: FENGYUN 3D
#almurnet v.1.7.20240730
#Start time: 2026-01-01 11:32:36

#Version: 2.2.20231116
#Station: R3.0SM8_Murmansk_STILSPACE
#Location: 33.092731 lon 68.902999 lat
#TLE: 1 43010U 17072A   25365.48527867  .00000101  00000+0  69745-4 0  9999
#TLE: 2 43010  98.9911 332.0787 0001837 134.4748 225.6578 14.19689788421190

#Time	Az	El	Level	Level2	SNR	BER	BlckErr	Temp	State	Recorded	gain1	gain2
2026-01-01 11:32:36.42	151.71	3.16	-52.6	-63.3	3.8	8.46e-01	0	48	0	0	67	12781
2026-01-01 11:32:37.40	151.72	3.22	-52.4	-63.1	3.8	8.46e-01	0	48	104	0	67	12420
2026-01-01 11:32:38.39	151.72	3.29	-52.2	-63.0	3.8	8.46e-01	0	49	104	0	67	12327
2026-01-01 11:32:39.38	151.72	3.35	-52.1	-62.8	3.8	8.46e-01	0	49	104	0	67	12086
2026-01-01 11:32:40.36	151.73	3.42	-51.9	-62.6	3.8	8.46e-01	0	49	104	0	66	12430
2026-01-01 11:32:41.35	151.73	3.49	-49.9	-60.5	3.8	8.47e-01	0	49	104	0	63	11660
2026-01-01 11:32:42.35	151.74	3.56	-49.4	-60.0	3.8	8.45e-01	0	49	104	0	61	12288
2026-01-01 11:32:43.33	151.74	3.62	-49.4	-59.8	3.8	8.45e-01	0	49	104	0	61	12090
2026-01-01 11:32:44.34	151.74	3.69	-49.3	-59.4	3.8	8.47e-01	0	49	104	0	61	11541
2026-01-01 11:32:45.33	151.75	3.76	-49.2	-59.0	3.8	8.46e-01	0	49	104	0	61	10931
2026-01-01 11:32:46.32	151.75	3.83	-49.1	-58.2	3.8	8.45e-01	0	49	104	0	61	10058
2026-01-01 11:32:47.32	151.75	3.89	-49.0	-57.4	4.0	8.45e-01	0	49	104	0	61	9100
2026-01-01 11:32:48.31	151.76	3.96	-48.8	-56.2	4.3	8.36e-01	0	49	0	0	60	8447
2026-01-01 11:32:49.29	151.76	4.03	-48.6	-55.2	4.7	8.19e-01	0	49	0	0	60	7518
2026-01-01 11:32:50.28	151.76	4.10	-48.4	-54.4	5.1	7.88e-01	0	50	0	0	59	7228
2026-01-01 11:32:51.26	151.77	4.17	-48.2	-53.4	5.8	6.18e-01	0	49	0	1048576	59	6438
2026-01-01 11:32:52.25	151.77	4.24	-47.9	-52.7	6.3	3.31e-01	0	49	0	6291456	59	5931
2026-01-01 11:32:53.24	151.78	4.30	-47.7	-52.0	6.9	2.03e-01	0	50	0	11534336	58	5835
2026-01-01 11:32:54.22	151.78	4.37	-47.5	-51.5	7.4	1.34e-01	0	50	0	17825792	58	5504
2026-01-01 11:32:55.20	151.78	4.44	-47.1	-50.7	8.1	8.23e-02	0	50	0	23068672	57	5322
2026-01-01 11:32:56.20	151.79	4.51	-47.1	-50.6	8.3	6.30e-02	0	50	0	28311552	57	5220
2026-01-01 11:32:57.19	151.79	4.58	-46.7	-49.9	8.9	4.96e-02	0	50	0	33554432	56	5132
2026-01-01 11:32:58.18	151.79	4.65	-46.6	-49.7	9.1	2.71e-02	0	50	0	39845888	56	5019
2026-01-01 11:32:59.17	151.80	4.72	-46.5	-49.5	9.4	2.45e-02	0	50	0	45088768	56	4883
2026-01-01 11:33:00.17	151.80	4.79	-46.2	-49.0	9.8	1.43e-02	0	50	0	50331648	55	4916
2026-01-01 11:33:01.15	151.81	4.86	-45.9	-48.4	10.4	7.44e-03	0	50	0	56623104	54	4861
2026-01-01 11:33:02.14	151.81	4.93	-45.7	-48.2	10.6	4.20e-03	0	50	0	61865984	54	4744
2026-01-01 11:33:03.12	151.81	5.00	-45.5	-47.9	11.0	2.97e-03	0	50	0	67108864	54	4548
2026-01-01 11:33:04.11	151.82	5.07	-45.5	-47.8	11.0	2.07e-03	0	50	0	72351744	54	4530
2026-01-01 11:33:05.10	151.82	5.15	-45.6	-48.0	11.0	2.63e-03	0	50	0	78643200	54	4611
2026-01-01 11:33:06.09	151.82	5.22	-45.3	-47.3	12.0	5.80e-04	0	50	0	83886080	53	4510
2026-01-01 11:33:07.07	151.83	5.29	-46.1	-48.5	10.6	2.78e-03	0	51	0	90177536	53	5204
2026-01-01 11:33:08.06	151.83	5.36	-46.0	-48.3	11.1	3.25e-03	0	50	0	95420416	54	4807
2026-01-01 11:33:09.06	151.83	5.43	-46.7	-49.4	10.0	6.80e-03	0	50	0	100663296	55	5124
2026-01-01 11:33:10.04	151.84	5.50	-46.8	-49.4	10.2	9.14e-03	0	51	0	105906176	55	5106
2026-01-01 11:33:11.03	151.84	5.58	-46.6	-49.2	10.6	5.36e-03	0	51	0	112197632	55	4998
2026-01-01 11:33:12.02	151.85	5.65	-47.2	-50.0	9.9	7.72e-03	0	51	0	117440512	56	5165
2026-01-01 11:33:13.00	151.85	5.72	-46.9	-49.4	10.7	7.02e-03	0	51	0	122683392	56	4829
2026-01-01 11:33:13.99	151.85	5.79	-46.9	-49.2	10.9	3.25e-03	0	51	0	128974848	56	4757
2026-01-01 11:33:14.99	151.86	5.87	-46.8	-49.1	11.1	2.02e-03	0	51	0	134217728	56	4656
2026-01-01 11:33:15.97	151.86	5.94	-46.7	-48.9	11.4	1.29e-03	0	51	0	139460608	56	4548
2026-01-01 11:33:16.97	151.86	6.01	-47.0	-49.4	10.9	1.98e-03	0	51	0	145752064	56	4851
2026-01-01 11:33:17.97	151.87	6.09	-47.0	-49.3	11.2	2.47e-03	0	51	0	150994944	56	4762
2026-01-01 11:33:18.96	151.87	6.16	-47.8	-50.7	9.7	9.34e-03	0	51	0	156237824	57	5308
2026-01-01 11:33:19.95	151.88	6.24	-47.8	-50.5	10.0	1.28e-02	0	51	0	161480704	57	5182
2026-01-01 11:33:20.94	151.88	6.31	-48.2	-51.0	9.5	1.53e-02	0	51	0	167772160	58	5218
2026-01-01 11:33:21.93	151.88	6.39	-47.5	-49.9	10.8	7.26e-03	0	51	0	173015040	58	4585
2026-01-01 11:33:22.92	151.89	6.46	-46.9	-48.9	12.1	4.95e-04	0	51	0	179306496	57	4319
2026-01-01 11:33:23.91	151.89	6.54	-46.6	-48.5	12.7	1.60e-04	0	51	0	184549376	56	4353
2026-01-01 11:33:24.90	151.89	6.61	-46.1	-47.8	13.4	5.72e-05	0	51	0	189792256	55	4250
2026-01-01 11:33:25.89	151.90	6.69	-45.9	-47.4	13.8	1.14e-05	0	51	0	195035136	54	4321
2026-01-01 11:33:26.88	151.90	6.76	-46.0	-47.6	13.8	1.14e-05	0	51	0	201326592	54	4397
2026-01-01 11:33:27.87	151.91	6.84	-46.4	-48.0	13.3	3.43e-05	0	51	0	206569472	54	4629
2026-01-01 11:33:28.85	151.91	6.91	-46.5	-48.2	13.1	5.37e-05	0	51	0	211812352	54	4735
2026-01-01 11:33:29.85	151.91	6.99	-46.1	-47.6	13.7	4.00e-05	0	51	0	218103808	55	4191
2026-01-01 11:33:30.83	151.92	7.07	-45.6	-47.0	14.4	2.20e-06	0	51	0	223346688	54	4137
2026-01-01 11:33:31.82	151.92	7.14	-45.3	-46.6	14.8	0.00e+00	0	52	0	228589568	53	4165
2026-01-01 11:33:32.80	151.92	7.22	-45.0	-46.2	15.2	0.00e+00	0	52	0	233832448	53	3987
2026-01-01 11:33:33.79	151.93	7.30	-44.6	-45.8	15.7	0.00e+00	0	52	0	240123904	52	4005
2026-01-01 11:33:34.78	151.93	7.38	-44.4	-45.5	16.0	0.00e+00	0	52	0	245366784	51	4140
2026-01-01 11:33:35.76	151.94	7.45	-44.2	-45.3	16.3	0.00e+00	0	52	0	250609664	51	4026
2026-01-01 11:33:36.75	151.94	7.53	-44.3	-45.4	16.2	0.00e+00	0	52	0	256901120	51	4068
2026-01-01 11:33:37.74	151.94	7.61	-44.2	-45.3	16.3	0.00e+00	0	52	0	262144000	51	4020
2026-01-01 11:33:38.72	151.95	7.69	-44.3	-45.4	16.2	0.00e+00	0	52	0	267386880	51	4068
2026-01-01 11:33:39.71	151.95	7.77	-44.2	-45.3	16.3	0.00e+00	0	52	0	272629760	51	4026
2026-01-01 11:33:40.70	151.95	7.84	-44.1	-45.1	16.5	0.00e+00	0	52	0	278921216	51	3940
2026-01-01 11:33:41.69	151.96	7.92	-43.9	-44.9	16.7	0.00e+00	0	52	0	284164096	50	4070
2026-01-01 11:33:42.68	151.96	8.00	-43.9	-44.9	16.8	0.00e+00	0	52	0	290455552	50	4070
2026-01-01 11:33:43.67	151.97	8.08	-44.0	-45.0	16.7	0.00e+00	0	52	0	295698432	50	4138
2026-01-01 11:33:44.67	151.97	8.16	-43.9	-44.9	16.8	0.00e+00	0	52	0	300941312	50	4075
2026-01-01 11:33:45.66	151.97	8.24	-44.0	-45.0	16.7	0.00e+00	0	52	0	306184192	50	4138
2026-01-01 11:33:46.65	151.98	8.33	-44.0	-45.0	16.7	0.00e+00	0	52	0	312475648	50	4120
2026-01-01 11:33:47.64	151.98	8.41	-43.8	-44.8	16.9	0.00e+00	0	52	0	317718528	50	4042
2026-01-01 11:33:48.63	151.98	8.49	-43.8	-44.8	16.9	0.00e+00	0	52	0	322961408	50	4032
2026-01-01 11:33:49.62	151.99	8.57	-44.0	-45.0	16.7	0.00e+00	0	52	0	329252864	50	4124
2026-01-01 11:33:50.61	151.99	8.65	-44.0	-45.0	16.8	0.00e+00	0	52	0	334495744	50	4106
2026-01-01 11:33:51.60	152.00	8.73	-43.9	-44.9	16.9	0.00e+00	0	52	0	339738624	50	4066
2026-01-01 11:33:52.59	152.00	8.81	-44.0	-45.0	16.7	0.00e+00	0	52	0	346030080	50	4136
2026-01-01 11:33:53.58	152.00	8.90	-44.0	-45.0	16.8	0.00e+00	0	52	0	351272960	50	4099
2026-01-01 11:33:54.56	152.01	8.98	-43.8	-44.8	17.0	0.00e+00	0	52	0	356515840	50	4006
2026-01-01 11:33:55.56	152.01	9.06	-43.8	-44.8	17.0	0.00e+00	0	53	0	361758720	50	4025
2026-01-01 11:33:56.55	152.02	9.15	-43.8	-44.7	17.0	0.00e+00	0	52	0	368050176	50	3997
2026-01-01 11:33:57.54	152.02	9.23	-43.8	-44.7	17.0	0.00e+00	0	53	0	373293056	50	4000
2026-01-01 11:33:58.52	152.02	9.31	-43.8	-44.7	17.1	0.00e+00	0	53	0	378535936	50	3986
2026-01-01 11:33:59.50	152.03	9.39	-43.8	-44.8	17.0	0.00e+00	0	52	0	384827392	50	4006
2026-01-01 11:34:00.49	152.03	9.48	-43.8	-44.8	17.0	0.00e+00	0	53	0	390070272	50	4021
2026-01-01 11:34:01.47	152.03	9.56	-43.8	-44.7	17.1	0.00e+00	0	53	0	395313152	50	3995
2026-01-01 11:34:02.47	152.04	9.65	-43.8	-44.7	17.1	0.00e+00	0	53	0	401604608	50	3993
2026-01-01 11:34:03.46	152.04	9.73	-43.8	-44.8	17.0	0.00e+00	0	53	0	406847488	50	4038
2026-01-01 11:34:04.45	152.05	9.82	-43.9	-44.9	16.9	0.00e+00	0	53	0	412090368	50	4067
2026-01-01 11:34:05.45	152.05	9.91	-43.9	-44.9	16.9	0.00e+00	0	53	0	418381824	50	4086
2026-01-01 11:34:06.44	152.05	9.99	-43.9	-44.9	16.9	0.00e+00	0	53	0	423624704	50	4079
2026-01-01 11:34:07.43	152.06	10.08	-43.9	-44.9	17.0	0.00e+00	0	53	0	428867584	50	4059
2026-01-01 11:34:08.41	152.06	10.16	-43.9	-44.8	17.0	0.00e+00	0	53	0	434110464	50	4039
2026-01-01 11:34:09.40	152.07	10.25	-44.0	-45.0	16.9	0.00e+00	0	53	0	440401920	50	4102
2026-01-01 11:34:10.38	152.07	10.34	-43.9	-44.9	16.9	0.00e+00	0	53	0	445644800	50	4090
2026-01-01 11:34:11.38	152.07	10.43	-44.1	-45.0	16.8	0.00e+00	0	53	0	451936256	50	4145
2026-01-01 11:34:12.37	152.08	10.51	-43.8	-44.7	17.1	0.00e+00	0	53	0	457179136	50	4004
2026-01-01 11:34:13.36	152.08	10.60	-43.7	-44.6	17.2	0.00e+00	0	53	0	462422016	50	3938
2026-01-01 11:34:14.34	152.08	10.69	-43.6	-44.6	17.3	0.00e+00	0	53	0	467664896	50	3923
2026-01-01 11:34:15.33	152.09	10.78	-43.6	-44.5	17.3	0.00e+00	0	53	0	473956352	50	3910
2026-01-01 11:34:16.32	152.09	10.87	-43.6	-44.5	17.4	0.00e+00	0	53	0	479199232	50	3899
2026-01-01 11:34:17.32	152.10	10.96	-43.6	-44.6	17.3	0.00e+00	0	53	0	484442112	50	3924
2026-01-01 11:34:18.31	152.10	11.05	-43.8	-44.8	17.1	0.00e+00	0	53	0	490733568	50	4005
2026-01-01 11:34:19.31	152.10	11.14	-43.9	-44.9	17.0	0.00e+00	0	53	0	495976448	50	4067
2026-01-01 11:34:20.29	152.11	11.23	-43.7	-44.6	17.3	0.00e+00	0	53	0	501219328	50	3935
2026-01-01 11:34:21.28	152.11	11.32	-43.6	-44.5	17.4	0.00e+00	0	53	0	507510784	50	3875
2026-01-01 11:34:22.27	152.12	11.41	-43.5	-44.4	17.5	0.00e+00	0	53	0	512753664	50	3848
2026-01-01 11:34:23.26	152.12	11.50	-43.5	-44.4	17.5	0.00e+00	0	53	0	517996544	50	3853
2026-01-01 11:34:24.25	152.12	11.60	-43.6	-44.5	17.4	0.00e+00	0	53	0	523239424	50	3878
2026-01-01 11:34:25.24	152.13	11.69	-43.7	-44.6	17.3	0.00e+00	0	53	0	529530880	50	3954
2026-01-01 11:34:26.23	152.13	11.78	-43.5	-44.4	17.5	0.00e+00	0	53	0	534773760	50	3860
2026-01-01 11:34:27.21	152.13	11.87	-43.7	-44.6	17.3	0.00e+00	0	53	0	540016640	50	3939
2026-01-01 11:34:28.20	152.14	11.97	-43.9	-44.8	17.1	0.00e+00	0	54	0	546308096	50	4037
2026-01-01 11:34:29.18	152.14	12.06	-43.6	-44.5	17.4	0.00e+00	0	54	0	551550976	50	3885
2026-01-01 11:34:30.16	152.15	12.15	-43.4	-44.3	17.6	0.00e+00	0	54	0	556793856	50	3798
2026-01-01 11:34:31.14	152.15	12.24	-43.3	-44.1	17.8	0.00e+00	0	53	0	562036736	49	3952
2026-01-01 11:34:32.14	152.15	12.34	-43.2	-44.1	17.8	0.00e+00	0	54	0	568328192	49	3942
2026-01-01 11:34:33.13	152.16	12.44	-43.3	-44.2	17.7	0.00e+00	0	54	0	573571072	49	3973
2026-01-01 11:34:34.11	152.16	12.53	-43.2	-44.0	17.9	0.00e+00	0	54	0	578813952	49	3903
2026-01-01 11:34:35.09	152.17	12.62	-43.3	-44.2	17.8	0.00e+00	0	54	0	585105408	49	3960
2026-01-01 11:34:36.09	152.17	12.72	-43.4	-44.4	17.5	0.00e+00	0	54	0	590348288	49	4052
2026-01-01 11:34:37.08	152.17	12.82	-43.2	-44.0	17.9	0.00e+00	0	54	0	595591168	49	3908
2026-01-01 11:34:38.07	152.18	12.92	-43.1	-43.9	18.0	0.00e+00	0	54	0	600834048	49	3852
2026-01-01 11:34:39.06	152.18	13.01	-43.0	-43.9	18.1	0.00e+00	0	54	0	607125504	49	3829
2026-01-01 11:34:40.04	152.19	13.11	-43.0	-43.8	18.1	0.00e+00	0	53	0	612368384	49	3814
2026-01-01 11:34:41.03	152.19	13.21	-42.9	-43.8	18.2	0.00e+00	0	54	0	618659840	49	3792
2026-01-01 11:34:42.01	152.19	13.31	-42.9	-43.8	18.2	0.00e+00	0	54	0	623902720	49	3793
2026-01-01 11:34:43.00	152.20	13.40	-43.1	-44.0	18.0	0.00e+00	0	54	0	629145600	49	3884
2026-01-01 11:34:43.99	152.20	13.50	-42.9	-43.8	18.2	0.00e+00	0	54	0	634388480	49	3790
2026-01-01 11:34:44.97	152.21	13.60	-42.8	-43.6	18.3	0.00e+00	0	54	0	640679936	48	3935
2026-01-01 11:34:45.96	152.21	13.70	-42.8	-43.6	18.3	0.00e+00	0	54	0	645922816	48	3934
2026-01-01 11:34:46.95	152.21	13.80	-42.7	-43.5	18.4	0.00e+00	0	54	0	651165696	48	3909
2026-01-01 11:34:47.94	152.22	13.90	-42.8	-43.7	18.3	0.00e+00	0	54	0	657457152	48	3959
2026-01-01 11:34:48.93	152.22	14.01	-43.0	-43.9	18.1	0.00e+00	0	54	0	662700032	48	4060
2026-01-01 11:34:49.92	152.23	14.11	-42.9	-43.7	18.3	0.00e+00	0	54	0	667942912	48	3984
2026-01-01 11:34:50.90	152.23	14.21	-42.9	-43.8	18.2	0.00e+00	0	54	0	673185792	48	4021
2026-01-01 11:34:51.89	152.23	14.31	-43.2	-44.1	17.9	0.00e+00	0	54	0	679477248	48	4146
2026-01-01 11:34:52.87	152.24	14.41	-43.0	-43.8	18.1	0.00e+00	0	54	0	684720128	48	4047
2026-01-01 11:34:53.86	152.24	14.52	-43.0	-43.8	18.1	0.00e+00	0	54	0	689963008	48	4045
2026-01-01 11:34:54.86	152.25	14.62	-43.1	-44.0	18.0	0.00e+00	0	54	0	696254464	48	4122
2026-01-01 11:34:55.85	152.25	14.73	-43.0	-43.9	18.1	0.00e+00	0	54	0	701497344	48	4058
2026-01-01 11:34:56.84	152.25	14.83	-43.1	-43.9	18.1	0.00e+00	0	54	0	706740224	48	4076
2026-01-01 11:34:57.83	152.26	14.94	-43.4	-44.3	17.7	0.00e+00	0	54	0	713031680	48	4260
2026-01-01 11:34:58.82	152.26	15.04	-43.3	-44.2	17.8	0.00e+00	0	54	0	718274560	48	4197
2026-01-01 11:34:59.81	152.27	15.15	-42.9	-43.8	18.2	0.00e+00	0	54	0	723517440	48	4012
2026-01-01 11:35:00.80	152.27	15.26	-42.7	-43.5	18.4	0.00e+00	0	54	0	729808896	48	3911
2026-01-01 11:35:01.79	152.27	15.36	-42.7	-43.5	18.5	0.00e+00	0	54	0	735051776	48	3896
2026-01-01 11:35:02.78	152.28	15.47	-42.7	-43.5	18.5	0.00e+00	0	54	0	740294656	48	3886
2026-01-01 11:35:03.78	152.28	15.58	-42.5	-43.3	18.7	0.00e+00	0	54	0	746586112	48	3808
2026-01-01 11:35:04.77	152.29	15.69	-42.2	-43.0	18.8	0.00e+00	0	54	0	751828992	47	3901
2026-01-01 11:35:05.75	152.29	15.80	-42.2	-42.9	18.9	0.00e+00	0	54	0	757071872	47	3864
2026-01-01 11:35:06.74	152.29	15.91	-42.2	-42.9	18.9	0.00e+00	0	54	0	762314752	47	3866
2026-01-01 11:35:07.73	152.30	16.02	-42.2	-43.0	18.8	0.00e+00	0	54	0	768606208	47	3900
2026-01-01 11:35:08.72	152.30	16.13	-42.4	-43.2	18.7	0.00e+00	0	54	0	773849088	47	3970
2026-01-01 11:35:09.71	152.31	16.24	-42.4	-43.2	18.6	0.00e+00	0	54	0	779091968	47	3978
2026-01-01 11:35:10.69	152.31	16.35	-42.3	-43.1	18.7	0.00e+00	0	54	0	785383424	47	3947
2026-01-01 11:35:11.68	152.31	16.46	-42.4	-43.2	18.7	0.00e+00	0	54	0	790626304	47	3970
2026-01-01 11:35:12.67	152.32	16.58	-42.4	-43.2	18.7	0.00e+00	0	54	0	795869184	47	3968
2026-01-01 11:35:13.66	152.32	16.69	-42.2	-43.0	18.8	0.00e+00	0	55	0	801112064	47	3893
2026-01-01 11:35:14.65	152.33	16.80	-42.2	-43.0	18.8	0.00e+00	0	54	0	807403520	47	3886
2026-01-01 11:35:15.64	152.33	16.92	-42.4	-43.2	18.7	0.00e+00	0	54	0	812646400	47	3964
2026-01-01 11:35:16.63	152.33	17.03	-42.2	-43.0	18.8	0.00e+00	0	55	0	818937856	47	3897
2026-01-01 11:35:17.62	152.34	17.15	-41.9	-42.7	19.1	0.00e+00	0	54	0	824180736	47	3755
2026-01-01 11:35:18.61	152.34	17.26	-41.8	-42.5	19.3	0.00e+00	0	55	0	829423616	46	3892
2026-01-01 11:35:19.60	152.35	17.38	-41.8	-42.5	19.3	0.00e+00	0	55	0	834666496	46	3889
2026-01-01 11:35:20.59	152.35	17.50	-41.9	-42.6	19.2	0.00e+00	0	55	0	840957952	46	3944
2026-01-01 11:35:21.57	152.35	17.61	-41.9	-42.7	19.2	0.00e+00	0	55	0	846200832	46	3973
2026-01-01 11:35:22.57	152.36	17.73	-41.9	-42.7	19.2	0.00e+00	0	55	0	851443712	46	3966
2026-01-01 11:35:23.55	152.36	17.85	-41.9	-42.7	19.2	0.00e+00	0	55	0	857735168	46	3976
2026-01-01 11:35:24.54	152.37	17.97	-42.1	-42.8	19.0	0.00e+00	0	55	0	862978048	46	4042
2026-01-01 11:35:25.53	152.37	18.09	-42.0	-42.8	19.1	0.00e+00	0	55	0	868220928	46	4027
2026-01-01 11:35:26.52	152.38	18.21	-41.8	-42.6	19.3	0.00e+00	0	55	0	874512384	46	3919
2026-01-01 11:35:27.51	152.38	18.33	-41.7	-42.4	19.4	0.00e+00	0	55	0	879755264	46	3859
2026-01-01 11:35:28.50	152.38	18.45	-41.7	-42.4	19.4	0.00e+00	0	55	0	884998144	46	3851
2026-01-01 11:35:29.48	152.39	18.57	-41.8	-42.5	19.3	0.00e+00	0	55	0	890241024	46	3903
2026-01-01 11:35:30.47	152.39	18.70	-41.8	-42.5	19.4	0.00e+00	0	55	0	896532480	46	3891
2026-01-01 11:35:31.46	152.40	18.82	-41.5	-42.2	19.7	0.00e+00	0	55	0	901775360	46	3747
2026-01-01 11:35:32.45	152.40	18.94	-41.2	-41.9	19.9	0.00e+00	0	55	0	907018240	45	3858
2026-01-01 11:35:33.45	152.40	19.07	-41.1	-41.8	20.0	0.00e+00	0	55	0	913309696	45	3811
2026-01-01 11:35:34.44	152.41	19.20	-41.2	-41.8	20.0	0.00e+00	0	55	0	918552576	45	3823
2026-01-01 11:35:35.43	152.41	19.32	-41.1	-41.8	20.0	0.00e+00	0	55	0	923795456	45	3811
2026-01-01 11:35:36.42	152.42	19.45	-41.1	-41.8	20.0	0.00e+00	0	55	0	929038336	45	3797
2026-01-01 11:35:37.40	152.42	19.57	-41.2	-41.9	20.0	0.00e+00	0	55	0	935329792	45	3842
2026-01-01 11:35:38.40	152.43	19.70	-41.3	-42.0	19.9	0.00e+00	0	55	0	940572672	45	3877
2026-01-01 11:35:39.39	152.43	19.83	-41.1	-41.7	20.1	0.00e+00	0	55	0	946864128	45	3774
2026-01-01 11:35:40.38	152.43	19.96	-41.1	-41.8	20.1	0.00e+00	0	55	0	952107008	45	3781
2026-01-01 11:35:41.38	152.44	20.09	-41.1	-41.8	20.0	0.00e+00	0	55	0	957349888	45	3811
2026-01-01 11:35:42.37	152.44	20.22	-41.3	-42.0	19.8	0.00e+00	0	55	0	962592768	45	3893
2026-01-01 11:35:43.36	152.45	20.35	-41.4	-42.1	19.8	0.00e+00	0	55	0	968884224	45	3930
2026-01-01 11:35:44.34	152.45	20.49	-41.2	-41.9	19.9	0.00e+00	0	55	0	974127104	45	3854
2026-01-01 11:35:45.32	152.45	20.62	-41.3	-42.0	19.8	0.00e+00	0	55	0	979369984	45	3901
2026-01-01 11:35:46.30	152.46	20.75	-41.4	-42.1	19.8	0.00e+00	0	55	0	985661440	45	3929
2026-01-01 11:35:47.30	152.46	20.88	-41.5	-42.2	19.6	0.00e+00	0	55	0	990904320	45	3989
2026-01-01 11:35:48.29	152.47	21.02	-41.3	-42.0	19.8	0.00e+00	0	55	0	996147200	45	3906
2026-01-01 11:35:49.27	152.47	21.15	-41.6	-42.3	19.6	0.00e+00	0	55	0	1002438656	45	4022
2026-01-01 11:35:50.27	152.48	21.29	-41.3	-42.0	19.9	0.00e+00	0	55	0	1007681536	45	3874
2026-01-01 11:35:51.26	152.48	21.43	-41.0	-41.7	20.1	0.00e+00	0	55	0	1012924416	45	3750
2026-01-01 11:35:52.25	152.48	21.57	-41.0	-41.7	20.2	0.00e+00	0	55	0	1019215872	45	3738
2026-01-01 11:35:53.24	152.49	21.70	-41.1	-41.8	20.1	0.00e+00	0	55	0	1024458752	45	3794
2026-01-01 11:35:54.22	152.49	21.84	-41.3	-42.0	19.8	0.00e+00	0	55	0	1029701632	45	3899
2026-01-01 11:35:55.22	152.50	21.98	-41.2	-41.9	20.0	0.00e+00	0	55	0	1034944512	45	3840
2026-01-01 11:35:56.21	152.50	22.13	-41.4	-42.1	19.7	0.00e+00	0	55	0	1041235968	45	3949
2026-01-01 11:35:57.20	152.51	22.27	-41.1	-41.8	20.0	0.00e+00	0	55	0	1046478848	45	3804
2026-01-01 11:35:58.19	152.51	22.41	-41.0	-41.7	20.1	0.00e+00	0	55	0	1051721728	45	3768
2026-01-01 11:35:59.17	152.51	22.55	-41.0	-41.7	20.2	0.00e+00	0	56	0	1058013184	45	3744
2026-01-01 11:36:00.16	152.52	22.70	-41.0	-41.7	20.1	0.00e+00	0	55	0	1063256064	45	3766
2026-01-01 11:36:01.15	152.52	22.84	-41.1	-41.9	20.0	0.00e+00	0	55	0	1068498944	45	3833
2026-01-01 11:36:02.14	152.53	22.99	-41.0	-41.7	20.2	0.00e+00	0	55	0	1074790400	45	3740
2026-01-01 11:36:03.14	152.53	23.13	-40.9	-41.6	20.2	0.00e+00	0	55	0	1080033280	45	3724
2026-01-01 11:36:04.12	152.54	23.28	-41.1	-41.8	20.1	0.00e+00	0	55	0	1085276160	45	3798
2026-01-01 11:36:05.11	152.54	23.43	-41.0	-41.6	20.2	0.00e+00	0	55	0	1090519040	45	3735
2026-01-01 11:36:06.10	152.54	23.58	-41.0	-41.6	20.2	0.00e+00	0	55	0	1096810496	45	3737
2026-01-01 11:36:07.08	152.55	23.73	-41.0	-41.7	20.1	0.00e+00	0	56	0	1102053376	45	3768
2026-01-01 11:36:08.08	152.55	23.88	-40.9	-41.6	20.2	0.00e+00	0	55	0	1108344832	45	3719
2026-01-01 11:36:09.07	152.56	24.03	-41.1	-41.8	20.1	0.00e+00	0	56	0	1113587712	45	3803
2026-01-01 11:36:10.06	152.56	24.18	-40.8	-41.5	20.4	0.00e+00	0	55	0	1118830592	44	3886
2026-01-01 11:36:11.04	152.57	24.33	-40.6	-41.3	20.5	0.00e+00	0	56	0	1124073472	44	3806
2026-01-01 11:36:12.03	152.57	24.49	-40.5	-41.2	20.6	0.00e+00	0	56	0	1130364928	44	3748
2026-01-01 11:36:13.02	152.58	24.64	-40.5	-41.1	20.7	0.00e+00	0	56	0	1135607808	44	3734
2026-01-01 11:36:14.01	152.58	24.80	-40.5	-41.2	20.7	0.00e+00	0	56	0	1140850688	44	3755
2026-01-01 11:36:15.00	152.58	24.96	-40.4	-41.0	20.8	0.00e+00	0	56	0	1147142144	44	3687
2026-01-01 11:36:16.00	152.59	25.12	-40.3	-40.9	20.8	0.00e+00	0	56	0	1152385024	43	3854
2026-01-01 11:36:16.98	152.59	25.27	-40.4	-41.1	20.7	0.00e+00	0	56	0	1157627904	43	3917
2026-01-01 11:36:17.98	152.60	25.44	-40.4	-41.0	20.8	0.00e+00	0	56	0	1163919360	43	3888
2026-01-01 11:36:18.97	152.60	25.60	-40.3	-40.9	20.8	0.00e+00	0	56	0	1169162240	43	3865
2026-01-01 11:36:19.97	152.61	25.76	-40.3	-41.0	20.8	0.00e+00	0	56	0	1174405120	43	3884
2026-01-01 11:36:20.96	152.61	25.92	-40.6	-41.2	20.5	0.00e+00	0	56	0	1179648000	43	3994
2026-01-01 11:36:21.94	152.62	26.09	-40.4	-41.0	20.7	0.00e+00	0	56	0	1185939456	43	3913
2026-01-01 11:36:22.93	152.62	26.25	-40.3	-40.9	20.8	0.00e+00	0	56	0	1191182336	43	3859
2026-01-01 11:36:23.92	152.63	26.42	-40.3	-40.9	20.8	0.00e+00	0	56	0	1197473792	43	3847
2026-01-01 11:36:24.91	152.63	26.58	-40.4	-41.0	20.8	0.00e+00	0	56	0	1202716672	43	3900
2026-01-01 11:36:25.90	152.63	26.75	-40.6	-41.2	20.6	0.00e+00	0	56	0	1207959552	43	3986
2026-01-01 11:36:26.89	152.64	26.92	-40.4	-41.0	20.7	0.00e+00	0	56	0	1213202432	43	3909
2026-01-01 11:36:27.88	152.64	27.09	-40.3	-40.9	20.8	0.00e+00	0	56	0	1219493888	43	3864
2026-01-01 11:36:28.87	152.65	27.26	-40.4	-41.0	20.7	0.00e+00	0	56	0	1224736768	43	3897
2026-01-01 11:36:29.85	152.65	27.43	-40.4	-41.0	20.8	0.00e+00	0	56	0	1229979648	43	3883
2026-01-01 11:36:30.84	152.66	27.61	-40.3	-40.9	20.8	0.00e+00	0	56	0	1236271104	43	3862
2026-01-01 11:36:31.84	152.66	27.78	-40.4	-41.0	20.7	0.00e+00	0	56	0	1241513984	43	3904
2026-01-01 11:36:32.82	152.67	27.96	-40.4	-41.0	20.8	0.00e+00	0	56	0	1246756864	43	3886
2026-01-01 11:36:33.81	152.67	28.13	-40.3	-40.9	20.8	0.00e+00	0	56	0	1251999744	43	3850
2026-01-01 11:36:34.80	152.68	28.31	-40.3	-40.9	20.8	0.00e+00	0	56	0	1258291200	43	3859
2026-01-01 11:36:35.78	152.68	28.49	-40.5	-41.2	20.6	0.00e+00	0	56	0	1263534080	43	3962
2026-01-01 11:36:36.77	152.68	28.67	-40.4	-41.0	20.8	0.00e+00	0	56	0	1268776960	43	3891
2026-01-01 11:36:37.76	152.69	28.85	-40.2	-40.8	21.0	0.00e+00	0	56	0	1275068416	43	3804
2026-01-01 11:36:38.74	152.69	29.03	-40.1	-40.7	21.0	0.00e+00	0	56	0	1280311296	43	3774
2026-01-01 11:36:39.73	152.70	29.21	-40.1	-40.7	21.0	0.00e+00	0	56	0	1285554176	43	3761
2026-01-01 11:36:40.72	152.70	29.40	-40.2	-40.8	21.0	0.00e+00	0	56	0	1290797056	43	3792
2026-01-01 11:36:41.71	152.71	29.58	-40.4	-41.0	20.8	0.00e+00	0	56	0	1297088512	43	3885
2026-01-01 11:36:42.69	152.71	29.77	-40.2	-40.8	20.9	0.00e+00	0	56	0	1302331392	43	3822
2026-01-01 11:36:43.68	152.72	29.96	-40.0	-40.6	21.1	0.00e+00	0	56	0	1308622848	43	3731
2026-01-01 11:36:44.66	152.72	30.15	-40.0	-40.6	21.2	0.00e+00	0	56	0	1313865728	43	3712
2026-01-01 11:36:45.66	152.73	30.34	-40.0	-40.6	21.2	0.00e+00	0	56	0	1319108608	43	3699
2026-01-01 11:36:46.65	152.73	30.53	-40.0	-40.6	21.1	0.00e+00	0	56	0	1324351488	43	3720
2026-01-01 11:36:47.65	152.74	30.73	-40.0	-40.6	21.2	0.00e+00	0	56	0	1330642944	43	3713
2026-01-01 11:36:48.63	152.74	30.92	-40.0	-40.7	21.1	0.00e+00	0	56	0	1335885824	43	3743
2026-01-01 11:36:49.63	152.75	31.12	-40.0	-40.6	21.2	0.00e+00	0	56	0	1341128704	43	3706
2026-01-01 11:36:50.62	152.75	31.32	-39.8	-40.4	21.4	0.00e+00	0	56	0	1347420160	42	3833
2026-01-01 11:36:51.60	152.76	31.51	-39.6	-40.2	21.5	0.00e+00	0	56	0	1352663040	42	3765
2026-01-01 11:36:52.59	152.76	31.71	-39.5	-40.1	21.6	0.00e+00	0	56	0	1357905920	42	3730
2026-01-01 11:36:53.58	152.77	31.91	-39.5	-40.1	21.6	0.00e+00	0	56	0	1364197376	42	3721
2026-01-01 11:36:54.57	152.77	32.12	-39.5	-40.1	21.6	0.00e+00	0	56	0	1369440256	42	3721
2026-01-01 11:36:55.56	152.78	32.32	-39.5	-40.1	21.6	0.00e+00	0	56	0	1374683136	42	3711
2026-01-01 11:36:56.55	152.78	32.53	-39.6	-40.2	21.6	0.00e+00	0	56	0	1379926016	42	3754
2026-01-01 11:36:57.53	152.79	32.73	-39.7	-40.3	21.4	0.00e+00	0	56	0	1386217472	42	3813
2026-01-01 11:36:58.51	152.79	32.94	-39.8	-40.4	21.3	0.00e+00	0	56	0	1391460352	42	3845
2026-01-01 11:36:59.51	152.80	33.15	-39.8	-40.4	21.3	0.00e+00	0	56	0	1396703232	42	3854
2026-01-01 11:37:00.49	152.80	33.36	-39.8	-40.4	21.3	0.00e+00	0	56	0	1402994688	42	3849
2026-01-01 11:37:01.48	152.81	33.57	-39.7	-40.4	21.4	0.00e+00	0	56	0	1408237568	42	3828
2026-01-01 11:37:02.47	152.81	33.79	-39.8	-40.4	21.3	0.00e+00	0	56	0	1413480448	42	3860
2026-01-01 11:37:03.46	152.82	34.00	-40.0	-40.6	21.2	0.00e+00	0	56	0	1418723328	42	3923
2026-01-01 11:37:04.45	152.82	34.22	-40.0	-40.6	21.2	0.00e+00	0	56	0	1425014784	42	3922
2026-01-01 11:37:05.44	152.83	34.44	-39.7	-40.3	21.5	0.00e+00	0	56	0	1430257664	42	3787
2026-01-01 11:37:06.42	152.83	34.66	-39.5	-40.1	21.6	0.00e+00	0	56	0	1436549120	42	3727
2026-01-01 11:37:07.41	152.84	34.88	-39.6	-40.2	21.5	0.00e+00	0	56	0	1441792000	42	3760
2026-01-01 11:37:08.40	152.84	35.11	-39.8	-40.4	21.3	0.00e+00	0	56	0	1447034880	42	3839
2026-01-01 11:37:09.39	152.85	35.33	-39.9	-40.5	21.3	0.00e+00	0	56	0	1452277760	42	3876
2026-01-01 11:37:10.38	152.85	35.56	-39.8	-40.5	21.3	0.00e+00	0	56	0	1458569216	42	3870
2026-01-01 11:37:11.36	152.86	35.78	-39.6	-40.2	21.5	0.00e+00	0	56	0	1463812096	42	3780
2026-01-01 11:37:12.34	152.86	36.01	-39.5	-40.1	21.7	0.00e+00	0	56	0	1469054976	42	3721
2026-01-01 11:37:13.33	152.87	36.24	-39.6	-40.2	21.6	0.00e+00	0	56	0	1475346432	42	3754
2026-01-01 11:37:14.32	152.87	36.48	-39.8	-40.3	21.5	0.00e+00	0	56	0	1480589312	42	3812
2026-01-01 11:37:15.31	152.88	36.71	-39.3	-39.9	21.9	0.00e+00	0	56	0	1485832192	41	3827
2026-01-01 11:37:16.29	152.88	36.95	-39.1	-39.6	22.1	0.00e+00	0	56	0	1491075072	41	3735
2026-01-01 11:37:17.28	152.89	37.19	-39.1	-39.6	22.1	0.00e+00	0	56	0	1497366528	41	3725
2026-01-01 11:37:18.28	152.89	37.43	-39.2	-39.8	22.0	0.00e+00	0	56	0	1502609408	41	3781
2026-01-01 11:37:19.26	152.90	37.67	-39.2	-39.8	21.9	0.00e+00	0	56	0	1507852288	41	3800
2026-01-01 11:37:20.25	152.91	37.91	-39.4	-39.9	22.0	0.00e+00	0	56	0	1514143744	41	3866
2026-01-01 11:37:21.23	152.91	38.16	-39.5	-40.0	22.0	0.00e+00	0	56	0	1519386624	41	3898
2026-01-01 11:37:22.23	152.92	38.41	-39.7	-40.2	21.7	0.00e+00	0	56	0	1524629504	41	3996
2026-01-01 11:37:23.22	152.92	38.65	-39.8	-40.4	21.6	0.00e+00	0	56	0	1529872384	41	4058
2026-01-01 11:37:24.21	152.93	38.91	-39.9	-40.5	21.5	0.00e+00	0	56	0	1536163840	41	4118
2026-01-01 11:37:25.20	152.93	39.16	-39.9	-40.4	21.5	0.00e+00	0	56	0	1541406720	41	4093
2026-01-01 11:37:26.19	152.94	39.41	-40.0	-40.5	21.4	0.00e+00	0	56	0	1547698176	41	4135
2026-01-01 11:37:27.18	152.94	39.67	-40.3	-40.8	21.2	0.00e+00	0	56	0	1552941056	42	4031
2026-01-01 11:37:28.17	152.95	39.93	-40.1	-40.6	21.4	0.00e+00	0	56	0	1558183936	42	3952
2026-01-01 11:37:29.16	152.96	40.19	-40.3	-40.9	21.1	0.00e+00	0	56	0	1563426816	42	4075
2026-01-01 11:37:30.14	152.96	40.45	-40.1	-40.7	21.4	0.00e+00	0	56	0	1569718272	42	3961
2026-01-01 11:37:31.12	152.97	40.71	-40.0	-40.5	21.5	0.00e+00	0	56	0	1574961152	42	3910
2026-01-01 11:37:32.12	152.97	40.98	-40.1	-40.7	21.4	0.00e+00	0	56	0	1580204032	42	3974
2026-01-01 11:37:33.11	152.98	41.25	-40.1	-40.7	21.3	0.00e+00	0	56	0	1586495488	42	3994
2026-01-01 11:37:34.10	152.98	41.52	-40.3	-40.9	21.2	0.00e+00	0	56	0	1591738368	42	4061
2026-01-01 11:37:35.09	152.99	41.79	-40.4	-41.0	21.1	0.00e+00	0	56	0	1596981248	42	4110
2026-01-01 11:37:36.08	153.00	42.07	-40.2	-40.7	21.3	0.00e+00	0	56	0	1603272704	42	4003
2026-01-01 11:37:37.07	153.00	42.34	-40.1	-40.7	21.4	0.00e+00	0	56	0	1608515584	42	3965
2026-01-01 11:37:38.05	153.01	42.62	-40.2	-40.8	21.3	0.00e+00	0	56	0	1613758464	42	4015
2026-01-01 11:37:39.04	153.01	42.90	-40.4	-41.0	21.1	0.00e+00	0	56	0	1619001344	42	4108
2026-01-01 11:37:40.03	153.02	43.18	-40.4	-41.0	21.1	0.00e+00	0	56	0	1625292800	42	4117
2026-01-01 11:37:41.01	153.03	43.46	-40.4	-41.0	21.0	0.00e+00	0	56	0	1630535680	42	4125
2026-01-01 11:37:41.99	153.03	43.75	-40.4	-41.0	21.1	0.00e+00	0	56	0	1635778560	42	4115
2026-01-01 11:37:42.99	153.04	44.04	-40.6	-41.1	20.9	0.00e+00	0	56	0	1642070016	42	4190
2026-01-01 11:37:43.97	153.05	44.33	-40.9	-41.5	20.6	0.00e+00	0	56	0	1647312896	43	4143
2026-01-01 11:37:44.97	153.05	44.62	-40.7	-41.3	20.8	0.00e+00	0	56	0	1652555776	43	4019
2026-01-01 11:37:45.96	153.06	44.92	-40.5	-41.1	21.0	0.00e+00	0	57	0	1657798656	43	3927
2026-01-01 11:37:46.94	153.06	45.21	-40.3	-40.9	21.1	0.00e+00	0	56	0	1664090112	43	3845
2026-01-01 11:37:47.93	153.07	45.51	-40.2	-40.7	21.4	0.00e+00	0	57	0	1669332992	43	3757
2026-01-01 11:37:48.93	153.08	45.82	-40.3	-40.8	21.2	0.00e+00	0	57	0	1675624448	43	3811
2026-01-01 11:37:49.91	153.08	46.12	-40.3	-40.9	21.2	0.00e+00	0	56	0	1680867328	43	3826
2026-01-01 11:37:50.90	153.09	46.43	-40.3	-40.9	21.2	0.00e+00	0	56	0	1686110208	43	3833
2026-01-01 11:37:51.90	153.10	46.74	-40.3	-40.9	21.2	0.00e+00	0	56	0	1691353088	43	3851
2026-01-01 11:37:52.88	153.10	47.05	-40.3	-40.9	21.2	0.00e+00	0	57	0	1697644544	43	3849
2026-01-01 11:37:53.87	153.11	47.36	-40.6	-41.1	20.9	0.00e+00	0	57	0	1702887424	43	3948
2026-01-01 11:37:54.86	153.12	47.68	-40.3	-40.8	21.2	0.00e+00	0	56	0	1708130304	43	3812
2026-01-01 11:37:55.85	153.13	48.00	-40.1	-40.6	21.4	0.00e+00	0	56	0	1714421760	43	3722
2026-01-01 11:37:56.84	153.13	48.32	-40.1	-40.7	21.4	0.00e+00	0	57	0	1719664640	43	3759
2026-01-01 11:37:57.82	153.14	48.64	-40.4	-41.0	21.1	0.00e+00	0	57	0	1724907520	43	3879
2026-01-01 11:37:58.81	153.15	48.96	-40.5	-41.1	20.9	0.00e+00	0	57	0	1730150400	43	3951
2026-01-01 11:37:59.80	153.15	49.29	-40.5	-41.0	21.0	0.00e+00	0	56	0	1736441856	43	3913
2026-01-01 11:38:00.78	153.16	49.62	-40.5	-41.1	21.0	0.00e+00	0	56	0	1741684736	43	3934
2026-01-01 11:38:01.77	153.17	49.95	-40.6	-41.2	20.9	0.00e+00	0	57	0	1746927616	43	3959
2026-01-01 11:38:02.76	153.18	50.29	-40.6	-41.2	20.9	0.00e+00	0	57	0	1753219072	43	3981
2026-01-01 11:38:03.75	153.18	50.62	-40.5	-41.0	21.1	0.00e+00	0	57	0	1758461952	43	3901
2026-01-01 11:38:04.73	153.19	50.96	-40.7	-41.3	20.8	0.00e+00	0	56	0	1763704832	43	4041
2026-01-01 11:38:05.72	153.20	51.30	-41.0	-41.6	20.5	0.00e+00	0	56	0	1769996288	43	4147
2026-01-01 11:38:06.72	153.21	51.65	-41.6	-42.2	20.0	0.00e+00	0	57	0	1775239168	44	4237
2026-01-01 11:38:07.71	153.21	52.00	-41.9	-42.5	19.7	0.00e+00	0	57	0	1780482048	45	4138
2026-01-01 11:38:08.71	153.22	52.35	-42.1	-42.8	19.5	0.00e+00	0	56	0	1786773504	46	4035
2026-01-01 11:38:09.70	153.23	52.71	-42.1	-42.8	19.5	0.00e+00	0	57	0	1792016384	46	4028
2026-01-01 11:38:10.69	153.24	53.06	-41.8	-42.5	19.8	0.00e+00	0	57	0	1797259264	46	3872
2026-01-01 11:38:11.68	153.25	53.42	-41.7	-42.3	20.0	0.00e+00	0	56	0	1803550720	46	3809
2026-01-01 11:38:12.66	153.26	53.78	-41.8	-42.4	19.8	0.00e+00	0	57	0	1808793600	46	3862
2026-01-01 11:38:13.66	153.27	54.14	-41.7	-42.3	19.9	0.00e+00	0	57	0	1814036480	46	3824
2026-01-01 11:38:14.64	153.27	54.51	-41.8	-42.5	19.8	0.00e+00	0	57	0	1819279360	46	3890
2026-01-01 11:38:15.64	153.28	54.88	-41.9	-42.5	19.7	0.00e+00	0	56	0	1825570816	46	3908
2026-01-01 11:38:16.62	153.29	55.24	-41.4	-42.0	20.3	0.00e+00	0	56	0	1830813696	46	3673
2026-01-01 11:38:17.61	153.30	55.62	-41.0	-41.6	20.6	0.00e+00	0	57	0	1836056576	45	3706
2026-01-01 11:38:18.60	153.31	55.99	-40.9	-41.5	20.7	0.00e+00	0	57	0	1842348032	44	3883
2026-01-01 11:38:19.59	153.32	56.37	-41.0	-41.7	20.6	0.00e+00	0	57	0	1847590912	44	3960
2026-01-01 11:38:20.58	153.33	56.75	-40.8	-41.4	20.8	0.00e+00	0	57	0	1852833792	44	3835
2026-01-01 11:38:21.57	153.34	57.14	-40.4	-41.0	21.2	0.00e+00	0	57	0	1859125248	44	3661
2026-01-01 11:38:22.56	153.35	57.52	-40.5	-41.1	21.0	0.00e+00	0	57	0	1864368128	43	3947
2026-01-01 11:38:23.55	153.36	57.91	-40.7	-41.3	20.8	0.00e+00	0	57	0	1869611008	43	4049
2026-01-01 11:38:24.54	153.37	58.30	-40.5	-41.1	21.0	0.00e+00	0	57	0	1875902464	43	3951
2026-01-01 11:38:25.53	153.38	58.70	-40.5	-41.1	21.0	0.00e+00	0	57	0	1881145344	43	3942
2026-01-01 11:38:26.52	153.39	59.09	-40.9	-41.5	20.6	0.00e+00	0	57	0	1886388224	43	4121
2026-01-01 11:38:27.51	153.40	59.49	-40.8	-41.5	20.6	0.00e+00	0	57	0	1891631104	43	4106
2026-01-01 11:38:28.49	153.41	59.89	-40.5	-41.1	21.0	0.00e+00	0	57	0	1897922560	43	3922
2026-01-01 11:38:29.48	153.42	60.30	-41.0	-41.6	20.6	0.00e+00	0	57	0	1903165440	43	4151
2026-01-01 11:38:30.45	153.44	60.69	-41.6	-42.2	20.0	0.00e+00	0	56	0	1908408320	45	3992
2026-01-01 11:38:31.44	153.45	61.10	-41.2	-41.8	20.5	0.00e+00	0	57	0	1914699776	45	3789
2026-01-01 11:38:32.43	153.46	61.52	-40.7	-41.3	21.0	0.00e+00	0	57	0	1919942656	44	3798
2026-01-01 11:38:33.41	153.47	61.93	-40.5	-41.0	21.2	0.00e+00	0	57	0	1925185536	44	3681
2026-01-01 11:38:34.40	153.48	62.34	-40.7	-41.3	20.9	0.00e+00	0	57	0	1930428416	44	3805
2026-01-01 11:38:35.37	153.50	62.76	-41.0	-41.6	20.7	0.00e+00	0	57	0	1936719872	44	3929
2026-01-01 11:38:36.36	153.51	63.18	-40.4	-41.0	21.2	0.00e+00	0	57	0	1941962752	44	3669
2026-01-01 11:38:37.35	153.52	63.60	-39.9	-40.5	21.6	0.00e+00	0	57	0	1947205632	43	3658
2026-01-01 11:38:38.34	153.54	64.03	-40.0	-40.5	21.6	0.00e+00	0	57	0	1953497088	42	3901
2026-01-01 11:38:39.33	153.55	64.46	-40.3	-40.8	21.3	0.00e+00	0	57	0	1958739968	42	4048
2026-01-01 11:38:40.31	153.57	64.89	-40.3	-40.8	21.2	0.00e+00	0	57	0	1963982848	42	4047
2026-01-01 11:38:41.30	153.58	65.32	-40.3	-40.9	21.2	0.00e+00	0	57	0	1969225728	43	3833
2026-01-01 11:38:42.30	153.60	65.76	-39.6	-40.1	21.9	0.00e+00	0	57	0	1975517184	42	3715
2026-01-01 11:38:43.29	153.61	66.20	-39.4	-39.9	22.1	0.00e+00	0	57	0	1980760064	42	3640
2026-01-01 11:38:44.28	153.63	66.65	-39.2	-39.7	22.3	0.00e+00	0	57	0	1986002944	41	3759
2026-01-01 11:38:45.27	153.65	67.09	-39.1	-39.6	22.4	0.00e+00	0	57	0	1992294400	41	3707
2026-01-01 11:38:46.26	153.67	67.54	-39.2	-39.8	22.3	0.00e+00	0	57	0	1997537280	41	3782
2026-01-01 11:38:47.24	153.68	67.98	-39.1	-39.6	22.4	0.00e+00	0	57	0	2002780160	41	3707
2026-01-01 11:38:48.24	153.70	68.44	-38.6	-39.0	22.9	0.00e+00	0	57	0	2009071616	40	3693
2026-01-01 11:38:49.23	153.72	68.89	-38.8	-39.3	22.7	0.00e+00	0	57	0	2014314496	40	3787
2026-01-01 11:38:50.22	153.74	69.35	-39.4	-39.9	22.1	0.00e+00	0	57	0	2019557376	40	4093
2026-01-01 11:38:51.21	153.77	69.80	-38.9	-39.4	22.6	0.00e+00	0	57	0	2024800256	40	3832
2026-01-01 11:38:52.20	153.79	70.26	-38.5	-39.0	23.0	0.00e+00	0	57	0	2031091712	40	3684
2026-01-01 11:38:53.18	153.81	70.72	-38.8	-39.3	22.7	0.00e+00	0	57	0	2036334592	40	3787
2026-01-01 11:38:54.17	153.84	71.19	-39.0	-39.5	22.5	0.00e+00	0	57	0	2042626048	40	3909
2026-01-01 11:38:55.16	153.86	71.65	-39.1	-39.5	22.4	0.00e+00	0	57	0	2047868928	40	3911
2026-01-01 11:38:56.16	153.89	72.13	-38.6	-39.0	22.9	0.00e+00	0	57	0	2053111808	40	3694
2026-01-01 11:38:57.15	153.92	72.60	-38.5	-39.0	23.0	0.00e+00	0	57	0	2058354688	39	3894
2026-01-01 11:38:58.14	153.95	73.07	-38.6	-39.1	22.9	0.00e+00	0	57	0	2064646144	39	3944
2026-01-01 11:38:59.13	153.98	73.55	-38.5	-39.0	23.1	0.00e+00	0	57	0	2069889024	39	3873
2026-01-01 11:39:00.12	154.01	74.02	-38.8	-39.3	22.8	0.00e+00	0	57	0	2075131904	39	4025
2026-01-01 11:39:01.10	154.04	74.50	-38.8	-39.3	22.7	0.00e+00	0	57	0	2081423360	39	4048
2026-01-01 11:39:02.09	154.08	74.98	-38.8	-39.3	22.8	0.00e+00	0	57	0	2086666240	39	4035
2026-01-01 11:39:03.07	154.12	75.45	-38.9	-39.4	22.7	0.00e+00	0	57	0	2091909120	39	4081
2026-01-01 11:39:04.07	154.16	75.94	-39.3	-39.8	22.3	0.00e+00	0	57	0	2097152000	40	4017
2026-01-01 11:39:05.05	154.20	76.42	-38.5	-39.0	23.0	0.00e+00	0	57	0	2103443456	40	3667
2026-01-01 11:39:06.04	154.25	76.91	-38.3	-38.8	23.2	0.00e+00	0	57	0	2108686336	39	3800
2026-01-01 11:39:07.03	154.30	77.40	-38.2	-38.7	23.3	0.00e+00	0	57	0	2114977792	39	3764
2026-01-01 11:39:08.02	154.36	77.89	-38.0	-38.5	23.5	0.00e+00	0	57	0	2120220672	39	3665
2026-01-01 11:39:09.00	154.41	78.38	-38.0	-38.5	23.5	0.00e+00	0	57	0	2125463552	39	3674
2026-01-01 11:39:10.00	154.48	78.87	-38.5	-39.0	23.0	0.00e+00	0	57	0	2130706432	39	3886
2026-01-01 11:39:10.99	154.55	79.37	-38.1	-38.5	23.4	0.00e+00	0	57	0	2136997888	39	3688
2026-01-01 11:39:11.98	154.62	79.86	-37.5	-38.0	24.0	0.00e+00	0	57	0	2142240768	38	3658
2026-01-01 11:39:12.97	154.71	80.36	-37.3	-37.7	24.2	0.00e+00	0	57	0	2147483648	37	3762
2026-01-01 11:39:13.96	154.80	80.86	-37.9	-38.4	23.6	0.00e+00	0	57	0	2153775104	37	4061
2026-01-01 11:39:14.95	154.90	81.36	-37.8	-38.3	23.6	0.00e+00	0	57	0	2159017984	37	4021
2026-01-01 11:39:15.94	155.02	81.86	-37.0	-37.4	24.5	0.00e+00	0	57	0	2164260864	37	3626
2026-01-01 11:39:16.92	155.15	82.36	-36.8	-37.2	24.6	0.00e+00	0	57	0	2170552320	36	3749
2026-01-01 11:39:17.91	155.29	82.86	-36.8	-37.2	24.6	0.00e+00	0	57	0	2175795200	36	3773
2026-01-01 11:39:18.90	155.46	83.36	-37.1	-37.5	24.3	0.00e+00	0	57	0	2181038080	36	3907
2026-01-01 11:39:19.89	155.66	83.87	-38.0	-38.5	23.5	0.00e+00	0	57	0	2186280960	37	4099
2026-01-01 11:39:20.88	155.89	84.37	-39.1	-39.7	22.4	0.00e+00	0	57	0	2192572416	40	3976
2026-01-01 11:39:21.87	156.17	84.88	-39.8	-40.3	21.7	0.00e+00	0	57	0	2197815296	41	4037
2026-01-01 11:39:22.87	156.51	85.39	-40.3	-40.9	21.2	0.00e+00	0	57	0	2203058176	42	4079
2026-01-01 11:39:23.86	156.93	85.89	-40.3	-40.8	21.3	0.00e+00	0	57	0	2209349632	42	4036
2026-01-01 11:39:24.85	157.47	86.40	-40.4	-41.0	21.1	0.00e+00	0	57	0	2214592512	42	4101
2026-01-01 11:39:25.84	158.18	86.91	-40.5	-41.1	21.0	0.00e+00	0	57	0	2219835392	42	4156
2026-01-01 11:39:26.83	159.17	87.41	-40.6	-41.2	20.9	0.00e+00	0	57	0	2226126848	43	3962
2026-01-01 11:39:27.82	160.64	87.92	-40.5	-41.1	21.0	0.00e+00	0	57	0	2231369728	43	3927
2026-01-01 11:39:28.80	163.02	88.42	-40.8	-41.4	20.7	0.00e+00	0	57	0	2236612608	43	4073
2026-01-01 11:39:29.79	167.62	88.91	-41.8	-42.5	19.8	0.00e+00	0	57	0	2242904064	45	4113
2026-01-01 11:39:30.77	179.51	89.39	-42.4	-43.1	19.2	0.00e+00	0	57	0	2248146944	46	4172
2026-01-01 11:39:31.75	234.10	89.73	-42.2	-42.8	19.5	0.00e+00	0	57	0	2253389824	46	4044
2026-01-01 11:39:32.73	302.73	89.47	-48.0	-49.8	12.7	0.00e+00	0	57	0	2258632704	57	4809
2026-01-01 11:39:33.72	317.58	88.99	-52.5	-61.0	3.8	8.21e-01	0	57	104	2262827008	66	10359
2026-01-01 11:39:34.71	322.81	88.50	-52.7	-62.6	3.8	8.41e-01	0	57	104	2262827008	67	11776
2026-01-01 11:39:35.70	325.44	87.99	-52.8	-63.1	3.8	8.47e-01	0	57	104	2262827008	67	12469
2026-01-01 11:39:36.68	327.00	87.49	-52.8	-63.4	3.8	8.47e-01	0	57	104	2262827008	67	12911
2026-01-01 11:39:37.68	328.05	86.98	-52.6	-62.7	3.8	8.47e-01	0	57	104	2262827008	67	11833
2026-01-01 11:39:38.67	328.80	86.48	-52.7	-62.5	3.8	8.46e-01	0	57	104	2262827008	67	11606
2026-01-01 11:39:39.65	329.36	85.97	-52.6	-62.7	3.8	8.47e-01	0	57	104	2262827008	67	11879
2026-01-01 11:39:40.64	329.79	85.47	-52.7	-63.5	3.8	8.45e-01	0	57	104	2262827008	67	13048
2026-01-01 11:39:41.63	330.14	84.96	-52.8	-63.4	3.8	8.45e-01	0	57	104	2262827008	67	12923
2026-01-01 11:39:42.62	330.43	84.46	-52.9	-63.5	3.8	8.46e-01	0	57	104	2262827008	67	13067
2026-01-01 11:39:43.61	330.67	83.95	-52.6	-63.4	3.8	8.46e-01	0	57	104	2262827008	67	12886
2026-01-01 11:39:44.60	330.87	83.45	-52.8	-63.5	3.8	8.46e-01	0	57	104	2262827008	67	13067
2026-01-01 11:39:45.59	331.04	82.95	-52.8	-63.5	3.8	8.46e-01	0	57	104	2262827008	67	12985
2026-01-01 11:39:46.58	331.19	82.44	-52.8	-63.4	3.8	8.47e-01	0	57	104	2262827008	67	12899
2026-01-01 11:39:47.57	331.33	81.94	-52.8	-63.5	3.8	8.46e-01	0	57	104	2262827008	67	13016
2026-01-01 11:39:48.56	331.44	81.44	-52.9	-63.5	3.8	8.46e-01	0	57	104	2262827008	67	13076
2026-01-01 11:39:49.56	331.55	80.94	-52.8	-63.5	3.8	8.45e-01	0	57	104	2262827008	67	13092
2026-01-01 11:39:50.55	331.64	80.44	-52.8	-63.6	3.8	8.46e-01	0	57	104	2262827008	67	13127
2026-01-01 11:39:51.54	331.73	79.94	-52.9	-63.5	3.8	8.46e-01	0	57	104	2262827008	67	13099
2026-01-01 11:39:52.53	331.80	79.45	-52.8	-63.5	3.8	8.46e-01	0	57	104	2262827008	67	13066
2026-01-01 11:39:53.52	331.87	78.95	-52.7	-63.5	3.8	8.47e-01	0	57	104	2262827008	67	13086
2026-01-01 11:39:54.51	331.94	78.46	-52.7	-63.5	3.8	8.47e-01	0	57	104	2262827008	67	13038
2026-01-01 11:39:55.51	332.00	77.96	-52.7	-63.5	3.8	8.46e-01	0	57	104	2262827008	67	13011
2026-01-01 11:39:56.49	332.05	77.48	-52.7	-63.5	3.8	8.46e-01	0	57	104	2262827008	67	13095
2026-01-01 11:39:57.47	332.10	76.99	-52.8	-63.5	3.8	8.45e-01	0	57	104	2262827008	67	13095
2026-01-01 11:39:58.46	332.15	76.51	-52.7	-63.5	3.8	8.46e-01	0	57	104	2262827008	67	13085
2026-01-01 11:39:59.44	332.20	76.03	-52.8	-63.5	3.8	8.46e-01	0	57	104	2262827008	67	13099
2026-01-01 11:40:00.42	332.24	75.55	-52.8	-63.6	3.8	8.47e-01	0	57	104	2262827008	67	13164
2026-01-01 11:40:01.41	332.28	75.07	-52.7	-63.6	3.8	8.46e-01	0	57	104	2262827008	67	13121
2026-01-01 11:40:02.40	332.31	74.59	-52.7	-63.6	3.8	8.45e-01	0	57	104	2262827008	67	13118
2026-01-01 11:40:03.39	332.35	74.11	-52.7	-63.6	3.8	8.45e-01	0	57	104	2262827008	67	13131
2026-01-01 11:40:04.38	332.38	73.63	-52.8	-63.6	3.8	8.45e-01	0	57	104	2262827008	67	13116
2026-01-01 11:40:05.37	332.41	73.16	-52.8	-63.5	3.8	8.46e-01	0	57	104	2262827008	67	13107
2026-01-01 11:40:06.37	332.44	72.68	-52.8	-63.6	3.8	8.46e-01	0	57	104	2262827008	67	13130
2026-01-01 11:40:07.36	332.47	72.21	-52.8	-63.6	3.8	8.45e-01	0	57	104	2262827008	67	13191
2026-01-01 11:40:08.35	332.50	71.74	-52.8	-63.6	3.8	8.44e-01	0	57	104	2262827008	67	13126
2026-01-01 11:40:09.35	332.52	71.27	-52.9	-63.6	3.8	8.47e-01	0	57	104	2262827008	67	13135
2026-01-01 11:40:10.34	332.55	70.81	-52.9	-63.6	3.8	8.47e-01	0	58	104	2262827008	67	13140
2026-01-01 11:40:11.33	332.57	70.34	-52.9	-63.6	3.8	8.46e-01	0	57	104	2262827008	67	13157
2026-01-01 11:40:12.31	332.59	69.89	-52.8	-63.6	3.8	8.47e-01	0	57	104	2262827008	67	13148
2026-01-01 11:40:13.30	332.62	69.43	-52.8	-63.6	3.8	8.45e-01	0	57	104	2262827008	67	13131
2026-01-01 11:40:14.29	332.64	68.97	-52.9	-63.6	3.8	8.46e-01	0	57	104	2262827008	67	13152
2026-01-01 11:40:15.29	332.66	68.52	-52.9	-63.6	3.8	8.46e-01	0	57	104	2262827008	67	13163
2026-01-01 11:40:16.27	332.68	68.07	-52.9	-63.6	3.8	8.45e-01	0	57	104	2262827008	67	13150
2026-01-01 11:40:17.26	332.69	67.62	-52.7	-63.5	3.8	8.46e-01	0	57	104	2262827008	67	13069
2026-01-01 11:40:18.26	332.71	67.17	-52.7	-63.6	3.8	8.46e-01	0	58	104	2262827008	67	13136
2026-01-01 11:40:19.25	332.73	66.73	-52.7	-63.6	3.8	8.46e-01	0	57	104	2262827008	67	13142
2026-01-01 11:40:20.24	332.75	66.28	-52.8	-63.6	3.8	8.45e-01	0	57	104	2262827008	67	13135
2026-01-01 11:40:21.24	332.76	65.84	-52.8	-63.5	3.8	8.46e-01	0	57	104	2262827008	67	13103
2026-01-01 11:40:22.23	332.78	65.40	-52.7	-63.5	3.8	8.46e-01	0	58	104	2262827008	67	13094
2026-01-01 11:40:23.22	332.80	64.97	-52.8	-63.6	3.8	8.47e-01	0	58	104	2262827008	67	13150
2026-01-01 11:40:24.21	332.81	64.54	-52.8	-63.6	3.8	8.45e-01	0	58	104	2262827008	67	13112
2026-01-01 11:40:25.20	332.82	64.11	-52.9	-63.6	3.8	8.46e-01	0	57	104	2262827008	67	13110
2026-01-01 11:40:26.19	332.84	63.68	-52.9	-63.6	3.8	8.47e-01	0	58	104	2262827008	67	13116
2026-01-01 11:40:27.18	332.85	63.26	-52.9	-63.6	3.8	8.45e-01	0	58	104	2262827008	67	13113
2026-01-01 11:40:28.17	332.87	62.84	-52.8	-63.6	3.8	8.46e-01	0	58	104	2262827008	67	13134
2026-01-01 11:40:29.16	332.88	62.42	-52.9	-63.5	3.8	8.45e-01	0	58	104	2262827008	67	13096
2026-01-01 11:40:30.15	332.89	62.00	-52.8	-63.5	3.8	8.47e-01	0	58	104	2262827008	67	13109
2026-01-01 11:40:31.13	332.90	61.59	-52.9	-63.6	3.8	8.45e-01	0	58	104	2262827008	67	13151
2026-01-01 11:40:32.12	332.92	61.18	-52.8	-63.6	3.8	8.46e-01	0	57	104	2262827008	67	13118
2026-01-01 11:40:33.10	332.93	60.77	-52.8	-63.5	3.8	8.46e-01	0	57	104	2262827008	67	13101
2026-01-01 11:40:34.09	332.94	60.37	-52.7	-63.5	3.8	8.45e-01	0	57	104	2262827008	67	13089
2026-01-01 11:40:35.08	332.95	59.96	-52.7	-63.5	3.8	8.45e-01	0	57	104	2262827008	67	13090
2026-01-01 11:40:36.07	332.96	59.56	-52.8	-63.6	3.8	8.46e-01	0	58	104	2262827008	67	13134
2026-01-01 11:40:37.05	332.97	59.17	-52.7	-63.6	3.8	8.46e-01	0	58	104	2262827008	67	13131
2026-01-01 11:40:38.04	332.99	58.77	-52.8	-63.6	3.8	8.47e-01	0	58	104	2262827008	67	13146
2026-01-01 11:40:39.03	333.00	58.38	-52.6	-63.6	3.8	8.46e-01	0	57	104	2262827008	67	13163
2026-01-01 11:40:40.03	333.01	57.98	-52.7	-63.6	3.8	8.48e-01	0	58	104	2262827008	67	13113
2026-01-01 11:40:41.02	333.02	57.59	-52.7	-63.5	3.8	8.46e-01	0	58	104	2262827008	67	13073
2026-01-01 11:40:42.02	333.03	57.20	-52.8	-63.6	3.8	8.47e-01	0	58	104	2262827008	67	13143
2026-01-01 11:40:43.01	333.04	56.82	-52.8	-63.5	3.8	8.47e-01	0	57	104	2262827008	67	13107
2026-01-01 11:40:44.00	333.05	56.44	-52.9	-63.6	3.8	8.46e-01	0	58	104	2262827008	67	13123
2026-01-01 11:40:44.98	333.06	56.07	-52.8	-63.6	3.8	8.47e-01	0	58	104	2262827008	67	13116
2026-01-01 11:40:45.98	333.07	55.69	-52.8	-63.6	3.8	8.46e-01	0	58	104	2262827008	67	13166
2026-01-01 11:40:46.97	333.07	55.31	-52.6	-63.6	3.8	8.46e-01	0	58	104	2262827008	67	13123
2026-01-01 11:40:47.96	333.08	54.94	-52.7	-63.6	3.8	8.46e-01	0	58	104	2262827008	67	13127
2026-01-01 11:40:48.95	333.09	54.58	-52.7	-63.6	3.8	8.46e-01	0	58	104	2262827008	67	13136
2026-01-01 11:40:49.93	333.10	54.21	-52.6	-63.6	3.8	8.46e-01	0	58	104	2262827008	67	13139
2026-01-01 11:40:50.93	333.11	53.85	-52.7	-63.5	3.8	8.45e-01	0	57	104	2262827008	67	13094
2026-01-01 11:40:51.92	333.12	53.49	-52.7	-63.5	3.8	8.45e-01	0	58	104	2262827008	67	13091
2026-01-01 11:40:52.90	333.13	53.13	-52.7	-63.6	3.8	8.46e-01	0	58	104	2262827008	67	13136
2026-01-01 11:40:53.89	333.14	52.78	-52.6	-63.6	3.8	8.46e-01	0	57	104	2262827008	67	13123
2026-01-01 11:40:54.88	333.14	52.43	-52.8	-63.6	3.8	8.46e-01	0	58	104	2262827008	67	13117
2026-01-01 11:40:55.87	333.15	52.08	-52.9	-63.6	3.8	8.46e-01	0	58	104	2262827008	67	13118
2026-01-01 11:40:56.87	333.16	51.73	-52.8	-63.6	3.8	8.46e-01	0	58	104	2262827008	67	13131
2026-01-01 11:40:57.86	333.17	51.38	-52.8	-63.5	3.8	8.46e-01	0	57	104	2262827008	67	13095
2026-01-01 11:40:58.85	333.18	51.04	-52.9	-63.6	3.8	8.47e-01	0	58	104	2262827008	67	13121
2026-01-01 11:40:59.84	333.18	50.70	-52.8	-63.6	3.8	8.46e-01	0	58	104	2262827008	67	13127
2026-01-01 11:41:00.82	333.19	50.37	-52.8	-63.6	3.8	8.45e-01	0	57	104	2262827008	67	13121
2026-01-01 11:41:01.81	333.20	50.03	-52.8	-63.5	3.8	8.46e-01	0	58	104	2262827008	67	13101
2026-01-01 11:41:02.80	333.21	49.70	-52.8	-63.5	3.8	8.46e-01	0	58	104	2262827008	67	13097
2026-01-01 11:41:03.79	333.22	49.37	-52.7	-63.5	3.8	8.45e-01	0	58	104	2262827008	67	13106
2026-01-01 11:41:04.78	333.22	49.04	-52.6	-63.5	3.8	8.47e-01	0	58	104	2262827008	67	13094
2026-01-01 11:41:05.77	333.23	48.72	-52.7	-63.5	3.8	8.46e-01	0	58	104	2262827008	67	13085
2026-01-01 11:41:06.77	333.24	48.39	-52.6	-63.5	3.8	8.46e-01	0	58	104	2262827008	67	13091
2026-01-01 11:41:07.75	333.24	48.07	-52.8	-63.5	3.8	8.46e-01	0	58	104	2262827008	67	13077
2026-01-01 11:41:08.75	333.25	47.75	-52.8	-63.5	3.8	8.46e-01	0	58	104	2262827008	67	13109
2026-01-01 11:41:09.73	333.26	47.44	-52.8	-63.5	3.8	8.46e-01	0	58	104	2262827008	67	13079
2026-01-01 11:41:10.72	333.27	47.13	-52.8	-63.5	3.8	8.46e-01	0	58	104	2262827008	67	13096
2026-01-01 11:41:11.71	333.27	46.82	-52.8	-63.5	3.8	8.46e-01	0	58	104	2262827008	67	13076
2026-01-01 11:41:12.70	333.28	46.51	-52.8	-63.5	3.8	8.46e-01	0	58	104	2262827008	67	13046
2026-01-01 11:41:13.68	333.29	46.20	-52.7	-63.5	3.8	8.45e-01	0	58	104	2262827008	67	13088
2026-01-01 11:41:14.67	333.29	45.90	-52.8	-63.5	3.8	8.46e-01	0	58	104	2262827008	67	13097
2026-01-01 11:41:15.65	333.30	45.60	-52.8	-63.6	3.8	8.46e-01	0	58	104	2262827008	67	13111
2026-01-01 11:41:16.65	333.31	45.30	-52.7	-63.5	3.8	8.46e-01	0	58	104	2262827008	67	13086
2026-01-01 11:41:17.64	333.31	45.00	-52.8	-63.5	3.8	8.46e-01	0	58	104	2262827008	67	13077
2026-01-01 11:41:18.63	333.32	44.71	-52.8	-63.5	3.8	8.47e-01	0	58	104	2262827008	67	13053
2026-01-01 11:41:19.62	333.33	44.41	-52.7	-63.5	3.8	8.46e-01	0	58	104	2262827008	67	13069
2026-01-01 11:41:20.61	333.33	44.12	-52.8	-63.5	3.8	8.48e-01	0	58	104	2262827008	67	13079
2026-01-01 11:41:21.60	333.34	43.83	-52.8	-63.5	3.8	8.45e-01	0	58	104	2262827008	67	13098
2026-01-01 11:41:22.59	333.35	43.55	-52.8	-63.6	3.8	8.45e-01	0	58	104	2262827008	67	13136
2026-01-01 11:41:23.58	333.35	43.26	-52.8	-63.6	3.8	8.46e-01	0	58	104	2262827008	67	13139
2026-01-01 11:41:24.57	333.36	42.98	-52.9	-63.5	3.8	8.45e-01	0	58	104	2262827008	67	13049
2026-01-01 11:41:25.56	333.37	42.70	-52.8	-63.5	3.8	8.46e-01	0	58	104	2262827008	67	13085
2026-01-01 11:41:26.56	333.37	42.42	-52.7	-63.5	3.8	8.45e-01	0	58	104	2262827008	67	13041
2026-01-01 11:41:27.55	333.38	42.14	-52.9	-63.5	3.8	8.47e-01	0	58	104	2262827008	67	13105
2026-01-01 11:41:28.54	333.38	41.87	-52.8	-63.5	3.8	8.46e-01	0	58	104	2262827008	67	13089
2026-01-01 11:41:29.52	333.39	41.60	-52.8	-63.5	3.8	8.47e-01	0	58	104	2262827008	67	13079
2026-01-01 11:41:30.51	333.40	41.33	-52.8	-63.5	3.8	8.45e-01	0	58	104	2262827008	67	13068
2026-01-01 11:41:31.50	333.40	41.06	-52.8	-63.5	3.8	8.46e-01	0	58	104	2262827008	67	13089
2026-01-01 11:41:32.50	333.41	40.79	-52.7	-63.5	3.8	8.46e-01	0	58	104	2262827008	67	13032
2026-01-01 11:41:33.49	333.41	40.53	-52.8	-63.5	3.8	8.47e-01	0	58	104	2262827008	67	13061
2026-01-01 11:41:34.49	333.42	40.27	-52.8	-63.5	3.8	8.46e-01	0	58	104	2262827008	67	13051
2026-01-01 11:41:35.48	333.43	40.01	-52.7	-63.5	3.8	8.46e-01	0	58	104	2262827008	67	13035
2026-01-01 11:41:36.47	333.43	39.75	-52.8	-63.5	3.8	8.46e-01	0	58	104	2262827008	67	13051
2026-01-01 11:41:37.46	333.44	39.49	-52.8	-63.5	3.8	8.45e-01	0	58	104	2262827008	67	13048
2026-01-01 11:41:38.45	333.44	39.24	-52.7	-63.5	3.8	8.46e-01	0	58	104	2262827008	67	13024
2026-01-01 11:41:39.45	333.45	38.98	-52.8	-63.5	3.8	8.46e-01	0	58	104	2262827008	67	13050
2026-01-01 11:41:40.44	333.46	38.73	-52.8	-63.5	3.8	8.47e-01	0	58	104	2262827008	67	13075
2026-01-01 11:41:41.43	333.46	38.48	-52.8	-63.5	3.8	8.48e-01	0	58	104	2262827008	67	13025
2026-01-01 11:41:42.42	333.47	38.24	-52.8	-63.5	3.8	8.46e-01	0	58	104	2262827008	67	13069
2026-01-01 11:41:43.41	333.47	37.99	-52.8	-63.5	3.8	8.46e-01	0	58	104	2262827008	67	13037
2026-01-01 11:41:44.40	333.48	37.75	-52.6	-63.5	3.8	8.45e-01	0	58	104	2262827008	67	13062
2026-01-01 11:41:45.38	333.48	37.51	-52.8	-63.5	3.8	8.45e-01	0	58	104	2262827008	67	13041
2026-01-01 11:41:46.37	333.49	37.27	-52.8	-63.5	3.8	8.46e-01	0	58	104	2262827008	67	13045
2026-01-01 11:41:47.37	333.50	37.03	-52.7	-63.5	3.8	8.46e-01	0	58	104	2262827008	67	13028
2026-01-01 11:41:48.35	333.50	36.79	-52.7	-63.5	3.8	8.46e-01	0	58	104	2262827008	67	13012
2026-01-01 11:41:49.35	333.51	36.56	-52.6	-63.5	3.8	8.47e-01	0	58	104	2262827008	67	13060
2026-01-01 11:41:50.34	333.51	36.32	-52.8	-63.5	3.8	8.46e-01	0	58	104	2262827008	67	13041
2026-01-01 11:41:51.33	333.52	36.09	-52.7	-63.5	3.8	8.45e-01	0	58	104	2262827008	67	13033
2026-01-01 11:41:52.32	333.52	35.86	-52.6	-63.4	3.8	8.47e-01	0	58	104	2262827008	67	12937
2026-01-01 11:41:53.30	333.53	35.64	-52.4	-63.5	3.8	8.46e-01	0	58	104	2262827008	67	13006
2026-01-01 11:41:54.29	333.53	35.41	-52.7	-63.5	3.8	8.46e-01	0	58	104	2262827008	67	13005
2026-01-01 11:41:55.28	333.54	35.19	-52.8	-63.5	3.8	8.46e-01	0	58	104	2262827008	67	12985
2026-01-01 11:41:56.26	333.54	34.96	-52.8	-63.5	3.8	8.45e-01	0	58	104	2262827008	67	13014
2026-01-01 11:41:57.26	333.55	34.74	-52.8	-63.5	3.8	8.45e-01	0	58	104	2262827008	67	13022
2026-01-01 11:41:58.24	333.56	34.52	-52.7	-63.5	3.8	8.47e-01	0	58	104	2262827008	67	13002
2026-01-01 11:41:59.22	333.56	34.31	-52.6	-63.5	3.8	8.46e-01	0	58	104	2262827008	67	12983
2026-01-01 11:42:00.21	333.57	34.09	-52.7	-63.5	3.8	8.46e-01	0	58	104	2262827008	67	13005
2026-01-01 11:42:01.20	333.57	33.87	-52.4	-63.5	3.8	8.46e-01	0	58	104	2262827008	67	13029
2026-01-01 11:42:02.19	333.58	33.66	-52.7	-63.5	3.8	8.46e-01	0	58	104	2262827008	67	13015
2026-01-01 11:42:03.18	333.58	33.45	-52.6	-63.5	3.8	8.45e-01	0	58	104	2262827008	67	13001
2026-01-01 11:42:04.16	333.59	33.24	-52.7	-63.5	3.8	8.46e-01	0	58	104	2262827008	67	12965
2026-01-01 11:42:05.15	333.59	33.03	-52.8	-63.5	3.8	8.46e-01	0	58	104	2262827008	67	12978
2026-01-01 11:42:06.13	333.60	32.82	-52.7	-63.5	3.8	8.47e-01	0	58	104	2262827008	67	12988
2026-01-01 11:42:07.12	333.60	32.61	-52.5	-63.5	3.8	8.45e-01	0	58	104	2262827008	67	12999
2026-01-01 11:42:08.12	333.61	32.41	-52.7	-63.4	3.8	8.45e-01	0	58	104	2262827008	67	12938
2026-01-01 11:42:09.11	333.61	32.20	-52.6	-63.5	3.8	8.48e-01	0	58	104	2262827008	67	12966
2026-01-01 11:42:10.10	333.62	32.00	-52.7	-63.5	3.8	8.46e-01	0	58	104	2262827008	67	12968
2026-01-01 11:42:11.09	333.62	31.80	-52.7	-63.5	3.8	8.45e-01	0	58	104	2262827008	67	12967
2026-01-01 11:42:12.08	333.63	31.60	-52.7	-63.5	3.8	8.46e-01	0	58	104	2262827008	67	12963
2026-01-01 11:42:13.07	333.63	31.40	-52.6	-63.5	3.8	8.45e-01	0	58	104	2262827008	67	12960
2026-01-01 11:42:14.06	333.64	31.20	-52.5	-63.5	3.8	8.47e-01	0	58	104	2262827008	67	12977
2026-01-01 11:42:15.05	333.64	31.01	-52.6	-63.4	3.8	8.46e-01	0	58	104	2262827008	67	12947
2026-01-01 11:42:16.04	333.65	30.81	-52.7	-63.4	3.8	8.47e-01	0	58	104	2262827008	67	12953
2026-01-01 11:42:17.03	333.66	30.62	-52.8	-63.5	3.8	8.46e-01	0	58	104	2262827008	67	12971
2026-01-01 11:42:18.02	333.66	30.43	-52.7	-63.5	3.8	8.45e-01	0	58	104	2262827008	67	12972
2026-01-01 11:42:19.01	333.67	30.24	-52.8	-63.4	3.8	8.46e-01	0	58	104	2262827008	67	12959
2026-01-01 11:42:20.00	333.67	30.05	-52.7	-63.4	3.8	8.45e-01	0	58	104	2262827008	67	12940
2026-01-01 11:42:20.98	333.68	29.86	-52.5	-63.4	3.8	8.46e-01	0	58	104	2262827008	67	12955
2026-01-01 11:42:21.98	333.68	29.67	-52.7	-63.4	3.8	8.47e-01	0	58	104	2262827008	67	12941
2026-01-01 11:42:22.97	333.69	29.49	-52.5	-63.4	3.8	8.45e-01	0	58	104	2262827008	67	12935
2026-01-01 11:42:23.95	333.69	29.31	-52.7	-63.5	3.8	8.47e-01	0	58	104	2262827008	67	12967
2026-01-01 11:42:24.94	333.70	29.12	-52.7	-63.4	3.8	8.46e-01	0	58	104	2262827008	67	12952
2026-01-01 11:42:25.94	333.70	28.94	-52.7	-63.4	3.8	8.46e-01	0	58	104	2262827008	67	12941
2026-01-01 11:42:26.93	333.71	28.76	-52.7	-63.4	3.8	8.46e-01	0	58	104	2262827008	67	12929
2026-01-01 11:42:27.93	333.71	28.58	-52.7	-63.4	3.8	8.45e-01	0	58	104	2262827008	67	12887
2026-01-01 11:42:28.91	333.72	28.40	-52.5	-63.4	3.8	8.45e-01	0	58	104	2262827008	67	12904
2026-01-01 11:42:29.90	333.72	28.22	-52.7	-63.4	3.8	8.46e-01	0	58	104	2262827008	67	12903
2026-01-01 11:42:30.88	333.73	28.05	-52.6	-63.5	3.8	8.45e-01	0	58	104	2262827008	67	12970
2026-01-01 11:42:31.86	333.73	27.87	-52.7	-63.4	3.8	8.47e-01	0	58	104	2262827008	67	12929
2026-01-01 11:42:32.86	333.74	27.70	-52.7	-63.4	3.8	8.46e-01	0	58	104	2262827008	67	12936
2026-01-01 11:42:33.84	333.74	27.53	-52.7	-63.4	3.8	8.46e-01	0	58	104	2262827008	67	12892
2026-01-01 11:42:34.84	333.75	27.35	-52.7	-63.4	3.8	8.47e-01	0	58	104	2262827008	67	12903
2026-01-01 11:42:35.83	333.75	27.18	-52.7	-63.4	3.8	8.46e-01	0	58	104	2262827008	67	12910
2026-01-01 11:42:36.82	333.76	27.01	-52.7	-63.4	3.8	8.46e-01	0	58	104	2262827008	67	12924
2026-01-01 11:42:37.80	333.76	26.85	-52.6	-63.4	3.8	8.46e-01	0	58	104	2262827008	67	12868
2026-01-01 11:42:38.79	333.76	26.68	-52.7	-63.4	3.8	8.46e-01	0	58	104	2262827008	67	12875
2026-01-01 11:42:39.78	333.77	26.51	-52.7	-63.4	3.8	8.46e-01	0	58	104	2262827008	67	12916
2026-01-01 11:42:40.76	333.77	26.35	-52.6	-63.4	3.8	8.46e-01	0	58	104	2262827008	67	12911
2026-01-01 11:42:41.75	333.78	26.18	-52.7	-63.4	3.8	8.45e-01	0	58	104	2262827008	67	12921
2026-01-01 11:42:42.74	333.78	26.02	-52.6	-63.4	3.8	8.46e-01	0	58	104	2262827008	67	12902
2026-01-01 11:42:43.73	333.79	25.86	-52.6	-63.4	3.8	8.46e-01	0	58	104	2262827008	67	12856
2026-01-01 11:42:44.72	333.79	25.69	-52.7	-63.4	3.8	8.48e-01	0	58	104	2262827008	67	12852
2026-01-01 11:42:45.71	333.80	25.53	-52.4	-63.4	3.8	8.46e-01	0	58	104	2262827008	67	12876
2026-01-01 11:42:46.71	333.80	25.37	-52.7	-63.4	3.8	8.45e-01	0	58	104	2262827008	67	12903
2026-01-01 11:42:47.69	333.81	25.22	-52.7	-63.4	3.8	8.46e-01	0	58	104	2262827008	67	12841
2026-01-01 11:42:48.68	333.81	25.06	-52.6	-63.4	3.8	8.45e-01	0	58	104	2262827008	67	12816
2026-01-01 11:42:49.68	333.82	24.90	-52.6	-63.4	3.8	8.47e-01	0	58	104	2262827008	67	12849
2026-01-01 11:42:50.68	333.82	24.74	-52.4	-63.4	3.8	8.46e-01	0	58	104	2262827008	67	12847
2026-01-01 11:42:51.66	333.83	24.59	-52.6	-63.4	3.8	8.47e-01	0	58	104	2262827008	67	12892
2026-01-01 11:42:52.66	333.83	24.43	-52.6	-63.4	3.8	8.46e-01	0	58	104	2262827008	67	12874
2026-01-01 11:42:53.64	333.84	24.28	-52.6	-63.4	3.8	8.47e-01	0	58	104	2262827008	67	12849
2026-01-01 11:42:54.63	333.84	24.13	-52.6	-63.4	3.8	8.46e-01	0	58	104	2262827008	67	12823
2026-01-01 11:42:55.62	333.85	23.98	-52.6	-63.4	3.8	8.46e-01	0	58	104	2262827008	67	12848
2026-01-01 11:42:56.61	333.85	23.83	-52.7	-63.3	3.8	8.46e-01	0	58	104	2262827008	67	12801
2026-01-01 11:42:57.60	333.86	23.68	-52.6	-63.3	3.8	8.47e-01	0	58	104	2262827008	67	12798
2026-01-01 11:42:58.59	333.86	23.53	-52.6	-63.3	3.8	8.46e-01	0	58	104	2262827008	67	12801
2026-01-01 11:42:59.58	333.87	23.38	-52.5	-63.3	3.8	8.46e-01	0	58	104	2262827008	67	12795
2026-01-01 11:43:00.58	333.87	23.23	-52.5	-63.4	3.8	8.46e-01	0	58	104	2262827008	67	12820
2026-01-01 11:43:01.56	333.88	23.09	-52.4	-63.3	3.8	8.47e-01	0	58	104	2262827008	67	12776
2026-01-01 11:43:02.55	333.88	22.94	-52.4	-63.3	3.8	8.45e-01	0	58	104	2262827008	67	12772
2026-01-01 11:43:03.55	333.89	22.80	-52.4	-63.3	3.8	8.46e-01	0	58	104	2262827008	67	12754
2026-01-01 11:43:04.54	333.89	22.65	-52.5	-63.4	3.8	8.47e-01	0	58	104	2262827008	67	12814
2026-01-01 11:43:05.53	333.89	22.51	-52.4	-63.3	3.8	8.46e-01	0	58	104	2262827008	67	12743
2026-01-01 11:43:06.52	333.90	22.37	-52.4	-63.3	3.8	8.46e-01	0	58	104	2262827008	67	12802
2026-01-01 11:43:07.51	333.90	22.23	-52.4	-63.3	3.8	8.46e-01	0	58	104	2262827008	67	12781
2026-01-01 11:43:08.50	333.91	22.08	-52.4	-63.3	3.8	8.46e-01	0	58	104	2262827008	67	12738
2026-01-01 11:43:09.49	333.91	21.95	-52.6	-63.3	3.8	8.46e-01	0	58	104	2262827008	67	12805
2026-01-01 11:43:10.48	333.92	21.81	-52.6	-63.3	3.8	8.47e-01	0	58	104	2262827008	67	12794
2026-01-01 11:43:11.47	333.92	21.67	-52.6	-63.4	3.8	8.46e-01	0	58	104	2262827008	67	12813
2026-01-01 11:43:12.46	333.93	21.53	-52.4	-63.3	3.8	8.46e-01	0	58	104	2262827008	67	12768
2026-01-01 11:43:13.46	333.93	21.39	-52.4	-63.3	3.8	8.47e-01	0	58	104	2262827008	67	12773
2026-01-01 11:43:14.45	333.94	21.26	-52.5	-63.3	3.8	8.46e-01	0	58	104	2262827008	67	12723
2026-01-01 11:43:15.44	333.94	21.12	-52.4	-63.3	3.8	8.47e-01	0	58	104	2262827008	67	12786
2026-01-01 11:43:16.44	333.95	20.98	-52.5	-63.3	3.8	8.47e-01	0	58	104	2262827008	67	12726
2026-01-01 11:43:17.43	333.95	20.85	-52.3	-63.3	3.8	8.47e-01	0	58	104	2262827008	67	12775
2026-01-01 11:43:18.42	333.96	20.72	-52.5	-63.3	3.8	8.45e-01	0	58	104	2262827008	67	12763
2026-01-01 11:43:19.42	333.96	20.58	-52.5	-63.3	3.8	8.46e-01	0	58	104	2262827008	67	12780
2026-01-01 11:43:20.41	333.96	20.45	-52.6	-63.3	3.8	8.47e-01	0	58	104	2262827008	67	12713
2026-01-01 11:43:21.40	333.97	20.32	-52.6	-63.3	3.8	8.46e-01	0	58	104	2262827008	67	12770
2026-01-01 11:43:22.39	333.97	20.19	-52.4	-63.3	3.8	8.46e-01	0	58	104	2262827008	67	12740
2026-01-01 11:43:23.38	333.98	20.06	-52.4	-63.3	3.8	8.46e-01	0	58	104	2262827008	67	12766
2026-01-01 11:43:24.38	333.98	19.93	-52.4	-63.3	3.8	8.47e-01	0	58	104	2262827008	67	12709
2026-01-01 11:43:25.36	333.99	19.80	-52.3	-63.3	3.8	8.45e-01	0	58	104	2262827008	67	12744
2026-01-01 11:43:26.34	333.99	19.68	-52.5	-63.3	3.8	8.46e-01	0	58	104	2262827008	67	12721
2026-01-01 11:43:27.34	334.00	19.55	-52.4	-63.3	3.8	8.47e-01	0	58	104	2262827008	67	12746
2026-01-01 11:43:28.32	334.00	19.42	-52.3	-63.3	3.8	8.46e-01	0	58	104	2262827008	67	12726
2026-01-01 11:43:29.30	334.01	19.30	-52.4	-63.3	3.8	8.46e-01	0	58	104	2262827008	67	12712
2026-01-01 11:43:30.28	334.01	19.18	-52.5	-63.3	3.8	8.47e-01	0	58	104	2262827008	67	12674
2026-01-01 11:43:31.27	334.02	19.05	-52.6	-63.3	3.8	8.46e-01	0	58	104	2262827008	67	12672
2026-01-01 11:43:32.26	334.02	18.93	-52.6	-63.3	3.8	8.47e-01	0	58	104	2262827008	67	12713
2026-01-01 11:43:33.24	334.02	18.80	-52.5	-63.3	3.8	8.45e-01	0	58	104	2262827008	67	12726
2026-01-01 11:43:34.23	334.03	18.68	-52.5	-63.3	3.8	8.46e-01	0	58	104	2262827008	67	12718
2026-01-01 11:43:35.22	334.03	18.56	-52.5	-63.3	3.8	8.45e-01	0	58	104	2262827008	67	12693
2026-01-01 11:43:36.21	334.04	18.44	-52.4	-63.3	3.8	8.46e-01	0	58	104	2262827008	67	12700
2026-01-01 11:43:37.20	334.04	18.32	-52.4	-63.2	3.8	8.45e-01	0	58	104	2262827008	67	12663
2026-01-01 11:43:38.18	334.05	18.20	-52.4	-63.3	3.8	8.46e-01	0	58	104	2262827008	67	12680
2026-01-01 11:43:39.18	334.05	18.08	-52.5	-63.3	3.8	8.46e-01	0	58	104	2262827008	67	12677
2026-01-01 11:43:40.17	334.06	17.96	-52.5	-63.3	3.8	8.46e-01	0	58	104	2262827008	67	12683
2026-01-01 11:43:41.16	334.06	17.84	-52.5	-63.2	3.8	8.47e-01	0	58	104	2262827008	67	12650
2026-01-01 11:43:42.15	334.07	17.72	-52.5	-63.2	3.8	8.45e-01	0	58	104	2262827008	67	12630
2026-01-01 11:43:43.14	334.07	17.60	-52.5	-63.2	3.8	8.45e-01	0	58	104	2262827008	67	12616
