passes_logs/2026/01/01/R3.0SM8_Murmansk_STILSPACE/R3.0SM8_Murmansk_STILSPACE__20260101_071149_SUOMI_NPP_rec.log

#Pass ID: 20260101_071149_SUOMI NPP
#Satellite: SUOMI NPP
#Configuration: NPP
#almurnet v.1.7.20240730
#Start time: 2026-01-01 07:11:51

#Version: 2.2.20231116
#Station: R3.0SM8_Murmansk_STILSPACE
#Location: 33.092731 lon 68.902999 lat
#TLE: 1 37849U 11061A   25364.87906317  .00000195  00000+0  11345-3 0  9992
#TLE: 2 37849  98.7794 302.0592 0002571  89.2401 270.9069 14.19520347734561

#Time	Az	El	Level	Level2	SNR	BER	BlckErr	Temp	State	Recorded	gain1	gain2
2026-01-01 07:11:51.29	96.63	3.12	-52.4	-66.3	3.8	1.49e+00	0	50	0	0	67	17937
2026-01-01 07:11:52.28	96.58	3.18	-52.4	-66.1	3.8	1.49e+00	0	50	104	0	67	17633
2026-01-01 07:11:53.26	96.52	3.24	-52.3	-66.0	3.8	1.49e+00	0	50	104	0	67	17446
2026-01-01 07:11:54.24	96.47	3.30	-52.2	-65.9	3.8	1.49e+00	0	50	104	0	67	17254
2026-01-01 07:11:55.23	96.42	3.36	-52.0	-65.8	3.8	1.49e+00	0	50	104	0	67	16918
2026-01-01 07:11:56.21	96.37	3.42	-51.8	-65.5	3.8	1.49e+00	0	50	104	0	66	17357
2026-01-01 07:11:57.19	96.31	3.48	-51.7	-65.5	3.8	1.49e+00	0	50	104	0	66	17322
2026-01-01 07:11:58.17	96.26	3.55	-51.8	-65.5	3.8	1.49e+00	0	51	104	0	66	17364
2026-01-01 07:11:59.15	96.21	3.61	-51.8	-65.5	3.8	1.49e+00	0	51	104	0	66	17351
2026-01-01 07:12:00.13	96.15	3.67	-51.8	-65.5	3.8	1.49e+00	0	51	104	0	66	17384
2026-01-01 07:12:01.11	96.10	3.73	-51.7	-65.5	3.8	1.49e+00	0	51	104	0	66	17380
2026-01-01 07:12:02.10	96.04	3.79	-51.8	-65.5	3.8	1.49e+00	0	51	104	0	66	17323
2026-01-01 07:12:03.08	95.99	3.86	-51.8	-65.4	3.8	1.49e+00	0	51	104	0	66	17281
2026-01-01 07:12:04.06	95.94	3.92	-51.7	-65.4	3.8	1.49e+00	0	51	104	0	66	17218
2026-01-01 07:12:05.04	95.88	3.98	-51.6	-65.3	3.8	1.49e+00	0	51	104	0	66	17056
2026-01-01 07:12:06.02	95.82	4.04	-51.6	-65.3	3.8	1.49e+00	0	51	104	0	66	16991
2026-01-01 07:12:07.01	95.77	4.11	-51.6	-65.1	3.8	1.49e+00	0	51	104	0	66	16652
2026-01-01 07:12:07.99	95.71	4.17	-51.5	-64.9	3.8	1.49e+00	0	51	104	0	66	16211
2026-01-01 07:12:08.97	95.66	4.23	-51.7	-64.8	3.8	1.49e+00	0	52	104	0	66	16063
2026-01-01 07:12:09.94	95.60	4.29	-51.7	-64.4	3.8	1.49e+00	0	51	104	0	66	15345
2026-01-01 07:12:10.93	95.54	4.36	-51.7	-64.1	3.8	1.49e+00	0	52	104	0	66	14828
2026-01-01 07:12:11.91	95.49	4.42	-51.7	-63.6	3.8	1.49e+00	0	51	104	0	66	13999
2026-01-01 07:12:12.89	95.43	4.48	-51.6	-63.1	3.9	1.48e+00	0	52	104	0	66	13123
2026-01-01 07:12:13.87	95.37	4.55	-51.5	-62.4	4.1	1.47e+00	0	52	104	0	66	12141
2026-01-01 07:12:14.83	95.32	4.61	-51.5	-62.0	4.2	1.42e+00	0	52	0	0	65	12300
2026-01-01 07:12:15.79	95.26	4.67	-51.2	-61.0	4.5	1.19e+00	0	52	0	0	65	10975
2026-01-01 07:12:16.76	95.20	4.73	-51.4	-60.7	4.6	9.39e-01	0	52	0	2097152	65	10584
2026-01-01 07:12:17.72	95.15	4.80	-51.3	-60.2	4.8	8.24e-01	0	52	0	4194304	65	10043
2026-01-01 07:12:18.69	95.09	4.86	-51.2	-59.8	5.1	6.75e-01	0	52	0	5242880	65	9512
2026-01-01 07:12:19.65	95.03	4.92	-51.2	-59.3	5.4	5.84e-01	0	52	0	7340032	65	9010
2026-01-01 07:12:20.61	94.97	4.98	-51.1	-59.0	5.6	4.78e-01	0	52	0	9437184	65	8684
2026-01-01 07:12:21.58	94.91	5.05	-51.1	-59.0	5.6	3.80e-01	0	52	0	11534336	65	8664
2026-01-01 07:12:22.54	94.86	5.11	-51.0	-59.2	5.5	4.63e-01	0	52	0	12582912	65	8881
2026-01-01 07:12:23.50	94.80	5.17	-51.0	-59.3	5.4	5.32e-01	0	52	0	14680064	65	8993
2026-01-01 07:12:24.47	94.74	5.24	-50.9	-58.6	5.9	4.23e-01	0	53	0	16777216	65	8348
2026-01-01 07:12:25.43	94.68	5.30	-51.1	-58.8	5.8	4.10e-01	0	52	0	18874368	65	8479
2026-01-01 07:12:26.40	94.62	5.37	-50.8	-58.6	5.9	3.47e-01	0	53	0	19922944	64	8763
2026-01-01 07:12:27.36	94.56	5.43	-51.0	-58.7	5.8	3.93e-01	0	53	0	22020096	64	8910
2026-01-01 07:12:28.32	94.50	5.49	-50.9	-58.5	5.9	3.74e-01	0	53	0	24117248	64	8744
2026-01-01 07:12:29.29	94.44	5.56	-50.9	-58.4	6.1	2.97e-01	0	53	0	25165824	64	8649
2026-01-01 07:12:30.25	94.38	5.62	-51.0	-59.1	5.6	4.59e-01	0	53	0	27262976	64	9313
2026-01-01 07:12:31.22	94.32	5.69	-50.8	-57.9	6.4	3.17e-01	0	53	0	29360128	64	8169
2026-01-01 07:12:32.18	94.25	5.75	-50.8	-57.2	7.1	1.86e-01	0	53	0	31457280	64	7476
2026-01-01 07:12:33.15	94.19	5.82	-50.5	-56.1	8.2	9.03e-02	0	53	0	32505856	63	6984
2026-01-01 07:12:34.11	94.13	5.88	-50.4	-55.5	8.9	3.62e-02	0	53	0	34603008	63	6520
2026-01-01 07:12:35.07	94.07	5.95	-50.0	-54.9	9.5	2.01e-02	0	53	0	36700160	63	6085
2026-01-01 07:12:36.06	94.00	6.01	-50.0	-54.5	9.8	9.46e-03	0	53	0	38797312	63	5851
2026-01-01 07:12:37.02	93.94	6.08	-49.7	-53.9	10.5	4.90e-03	0	53	0	39845888	62	5760
2026-01-01 07:12:37.98	93.88	6.14	-49.5	-53.5	11.0	2.49e-03	0	53	0	41943040	62	5481
2026-01-01 07:12:38.95	93.81	6.21	-49.3	-53.1	11.3	1.33e-03	0	53	0	44040192	61	5551
2026-01-01 07:12:39.91	93.75	6.27	-49.1	-52.5	11.9	4.98e-04	0	53	0	45088768	61	5211
2026-01-01 07:12:40.88	93.69	6.34	-49.0	-52.4	12.1	2.85e-04	0	53	0	47185920	61	5107
2026-01-01 07:12:41.84	93.62	6.41	-49.0	-52.4	12.0	3.36e-04	0	53	0	49283072	61	5158
2026-01-01 07:12:42.81	93.56	6.47	-48.9	-52.1	12.4	4.16e-04	0	54	0	51380224	60	5238
2026-01-01 07:12:43.77	93.49	6.54	-48.8	-52.0	12.5	1.35e-04	0	53	0	52428800	60	5189
2026-01-01 07:12:44.73	93.43	6.60	-48.8	-52.0	12.5	1.09e-04	0	54	0	54525952	60	5193
2026-01-01 07:12:45.69	93.36	6.67	-48.9	-52.0	12.5	1.55e-04	0	54	0	56623104	60	5182
2026-01-01 07:12:46.65	93.30	6.74	-48.9	-51.9	12.5	8.92e-05	0	54	0	58720256	60	5159
2026-01-01 07:12:47.62	93.23	6.80	-49.1	-52.4	12.1	1.19e-04	0	54	0	59768832	60	5443
2026-01-01 07:12:48.58	93.16	6.87	-49.0	-52.2	12.4	1.64e-04	0	54	0	61865984	60	5287
2026-01-01 07:12:49.54	93.10	6.94	-48.8	-51.9	12.7	1.33e-04	0	54	0	63963136	60	5110
2026-01-01 07:12:50.51	93.03	7.00	-48.9	-52.0	12.5	7.09e-05	0	54	0	65011712	60	5212
2026-01-01 07:12:51.47	92.96	7.07	-49.0	-52.1	12.4	1.17e-04	0	54	0	67108864	60	5263
2026-01-01 07:12:52.43	92.90	7.14	-49.0	-52.2	12.4	1.68e-04	0	54	0	69206016	60	5297
2026-01-01 07:12:53.40	92.83	7.21	-49.0	-52.2	12.3	2.75e-04	0	54	0	71303168	60	5323
2026-01-01 07:12:54.37	92.76	7.27	-49.0	-52.2	12.4	1.11e-04	0	54	0	72351744	60	5305
2026-01-01 07:12:55.33	92.69	7.34	-48.9	-52.0	12.6	1.03e-04	0	54	0	74448896	60	5183
2026-01-01 07:12:56.29	92.62	7.41	-49.0	-52.1	12.5	1.60e-04	0	54	0	76546048	60	5246
2026-01-01 07:12:57.26	92.55	7.48	-48.8	-51.7	12.9	6.56e-05	0	54	0	77594624	60	5029
2026-01-01 07:12:58.22	92.48	7.55	-48.9	-51.9	12.6	5.41e-05	0	54	0	79691776	60	5139
2026-01-01 07:12:59.18	92.41	7.61	-48.8	-51.8	12.8	7.93e-05	0	55	0	81788928	60	5061
2026-01-01 07:13:00.15	92.34	7.68	-49.0	-52.1	12.4	9.84e-05	0	54	0	83886080	60	5274
2026-01-01 07:13:01.11	92.27	7.75	-49.0	-52.2	12.3	8.23e-05	0	55	0	84934656	60	5328
2026-01-01 07:13:02.07	92.20	7.82	-49.0	-52.0	12.6	9.91e-05	0	54	0	87031808	60	5216
2026-01-01 07:13:03.03	92.13	7.89	-49.0	-52.3	12.3	1.43e-04	0	55	0	89128960	60	5346
2026-01-01 07:13:04.00	92.05	7.96	-48.9	-52.2	12.4	2.12e-04	0	55	0	91226112	60	5295
2026-01-01 07:13:04.96	91.98	8.03	-48.9	-52.1	12.5	1.16e-04	0	55	0	92274688	60	5271
2026-01-01 07:13:05.93	91.91	8.10	-49.0	-52.2	12.4	1.34e-04	0	55	0	94371840	60	5318
2026-01-01 07:13:06.90	91.84	8.17	-48.9	-52.2	12.5	2.04e-04	0	55	0	96468992	60	5291
2026-01-01 07:13:07.86	91.76	8.24	-48.9	-52.1	12.5	1.11e-04	0	55	0	97517568	60	5270
2026-01-01 07:13:08.83	91.69	8.31	-49.2	-52.7	12.1	1.46e-04	0	55	0	99614720	60	5596
2026-01-01 07:13:09.79	91.61	8.38	-49.0	-52.2	12.4	2.82e-04	0	55	0	101711872	60	5320
2026-01-01 07:13:10.75	91.54	8.45	-48.8	-51.9	12.7	8.39e-05	0	55	0	103809024	60	5144
2026-01-01 07:13:11.72	91.47	8.52	-48.8	-52.0	12.7	5.11e-05	0	55	0	104857600	60	5168
2026-01-01 07:13:12.68	91.39	8.59	-48.6	-51.7	13.0	3.05e-05	0	55	0	106954752	60	5000
2026-01-01 07:13:13.64	91.32	8.66	-48.7	-51.8	12.9	4.73e-05	0	55	0	109051904	60	5042
2026-01-01 07:13:14.60	91.24	8.73	-48.7	-51.7	13.0	3.81e-05	0	55	0	110100480	60	4999
2026-01-01 07:13:15.57	91.16	8.80	-48.7	-51.7	13.1	2.59e-05	0	55	0	112197632	60	4995
2026-01-01 07:13:16.54	91.09	8.87	-48.7	-51.7	13.0	4.80e-05	0	55	0	114294784	60	5015
2026-01-01 07:13:17.51	91.01	8.94	-48.7	-51.6	13.0	5.72e-05	0	55	0	116391936	60	4979
2026-01-01 07:13:18.47	90.93	9.01	-48.8	-51.8	12.9	2.67e-05	0	55	0	117440512	60	5084
2026-01-01 07:13:19.43	90.85	9.08	-48.9	-52.0	12.7	7.09e-05	0	55	0	119537664	60	5178
2026-01-01 07:13:20.39	90.77	9.16	-48.7	-51.7	13.0	9.00e-05	0	55	0	121634816	60	5033
2026-01-01 07:13:21.36	90.70	9.23	-48.8	-51.8	13.0	3.35e-05	0	55	0	123731968	60	5057
2026-01-01 07:13:22.32	90.62	9.30	-49.0	-52.3	12.5	6.02e-05	0	55	0	124780544	60	5346
2026-01-01 07:13:23.28	90.54	9.37	-48.6	-51.5	13.2	3.66e-05	0	55	0	126877696	60	4912
2026-01-01 07:13:24.24	90.46	9.44	-48.6	-51.4	13.3	2.74e-05	0	56	0	128974848	60	4846
2026-01-01 07:13:25.21	90.38	9.52	-48.5	-51.3	13.4	8.30e-06	0	56	0	130023424	60	4787
2026-01-01 07:13:26.18	90.30	9.59	-48.6	-51.4	13.3	1.14e-05	0	56	0	132120576	60	4864
2026-01-01 07:13:27.14	90.21	9.66	-48.8	-51.6	13.1	3.12e-05	0	56	0	134217728	60	4981
2026-01-01 07:13:28.11	90.13	9.73	-48.9	-51.8	12.9	6.25e-05	0	56	0	136314880	60	5097
2026-01-01 07:13:29.07	90.05	9.81	-48.9	-52.0	12.8	3.05e-05	0	56	0	137363456	60	5184
2026-01-01 07:13:30.04	89.97	9.88	-48.9	-52.0	12.8	4.80e-05	0	56	0	139460608	60	5190
2026-01-01 07:13:31.00	89.89	9.95	-48.9	-52.0	12.8	8.31e-05	0	56	0	141557760	60	5162
2026-01-01 07:13:31.96	89.80	10.03	-49.1	-52.3	12.5	7.24e-05	0	56	0	143654912	60	5346
2026-01-01 07:13:32.92	89.72	10.10	-49.2	-52.5	12.3	1.37e-04	0	56	0	144703488	60	5518
2026-01-01 07:13:33.89	89.63	10.17	-48.8	-51.8	13.0	9.91e-05	0	56	0	146800640	60	5069
2026-01-01 07:13:34.85	89.55	10.25	-48.5	-51.4	13.4	2.36e-05	0	56	0	148897792	60	4827
2026-01-01 07:13:35.82	89.46	10.32	-48.4	-51.2	13.5	1.37e-05	0	56	0	149946368	60	4746
2026-01-01 07:13:36.78	89.38	10.40	-48.5	-51.1	13.7	6.10e-06	0	56	0	152043520	59	4958
2026-01-01 07:13:37.74	89.29	10.47	-48.3	-50.9	14.0	4.50e-06	0	56	0	154140672	59	4826
2026-01-01 07:13:38.70	89.21	10.54	-48.5	-51.2	13.7	8.30e-06	0	56	0	156237824	59	4991
2026-01-01 07:13:39.67	89.12	10.62	-48.4	-51.0	13.8	4.50e-06	0	56	0	157286400	59	4920
2026-01-01 07:13:40.63	89.03	10.69	-48.5	-51.3	13.6	5.30e-06	0	56	0	159383552	59	5045
2026-01-01 07:13:41.59	88.95	10.77	-48.5	-51.2	13.6	2.44e-05	0	56	0	161480704	59	5012
2026-01-01 07:13:42.55	88.86	10.84	-48.3	-50.9	13.9	2.20e-06	0	56	0	162529280	59	4869
2026-01-01 07:13:43.52	88.77	10.92	-48.4	-51.1	13.8	3.00e-06	0	56	0	164626432	59	4929
2026-01-01 07:13:44.48	88.68	10.99	-48.1	-50.4	14.4	7.00e-07	0	56	0	166723584	59	4585
2026-01-01 07:13:45.45	88.59	11.07	-48.0	-50.4	14.4	7.00e-07	0	56	0	168820736	59	4590
2026-01-01 07:13:46.41	88.50	11.15	-48.0	-50.3	14.5	1.50e-06	0	56	0	169869312	59	4522
2026-01-01 07:13:47.37	88.41	11.22	-48.0	-50.3	14.5	7.00e-07	0	56	0	171966464	59	4542
2026-01-01 07:13:48.33	88.32	11.30	-48.1	-50.5	14.4	0.00e+00	0	56	0	174063616	59	4608
2026-01-01 07:13:49.30	88.23	11.37	-48.1	-50.4	14.4	1.50e-06	0	57	0	176160768	59	4591
2026-01-01 07:13:50.26	88.13	11.45	-48.1	-50.5	14.4	0.00e+00	0	56	0	177209344	59	4636
2026-01-01 07:13:51.23	88.04	11.53	-48.2	-50.8	14.2	0.00e+00	0	56	0	179306496	59	4767
2026-01-01 07:13:52.19	87.95	11.60	-48.2	-50.6	14.3	0.00e+00	0	57	0	181403648	59	4671
2026-01-01 07:13:53.16	87.85	11.68	-48.0	-50.4	14.5	0.00e+00	0	57	0	182452224	59	4557
2026-01-01 07:13:54.12	87.76	11.76	-48.2	-50.6	14.4	0.00e+00	0	57	0	184549376	59	4655
2026-01-01 07:13:55.09	87.67	11.84	-48.2	-50.6	14.3	0.00e+00	0	57	0	186646528	59	4687
2026-01-01 07:13:56.05	87.57	11.91	-48.0	-50.2	14.7	7.00e-07	0	57	0	188743680	59	4468
2026-01-01 07:13:57.01	87.48	11.99	-47.8	-50.0	14.9	0.00e+00	0	57	0	189792256	58	4616
2026-01-01 07:13:57.97	87.38	12.07	-47.8	-50.0	14.9	0.00e+00	0	57	0	191889408	58	4646
2026-01-01 07:13:58.94	87.28	12.15	-47.8	-49.9	15.0	0.00e+00	0	57	0	193986560	58	4589
2026-01-01 07:13:59.90	87.19	12.22	-47.9	-50.1	14.8	0.00e+00	0	57	0	196083712	58	4679
2026-01-01 07:14:00.86	87.09	12.30	-48.1	-50.4	14.6	0.00e+00	0	57	0	197132288	58	4824
2026-01-01 07:14:01.83	86.99	12.38	-48.1	-50.4	14.5	0.00e+00	0	57	0	199229440	58	4856
2026-01-01 07:14:02.80	86.89	12.46	-48.0	-50.3	14.7	7.00e-07	0	57	0	201326592	58	4765
2026-01-01 07:14:03.76	86.79	12.54	-47.9	-50.1	14.8	0.00e+00	0	57	0	202375168	58	4673
2026-01-01 07:14:04.72	86.69	12.62	-47.9	-50.1	14.8	7.00e-07	0	57	0	204472320	58	4664
2026-01-01 07:14:05.68	86.59	12.70	-47.8	-49.9	15.0	0.00e+00	0	57	0	206569472	58	4574
2026-01-01 07:14:06.65	86.49	12.78	-48.0	-50.2	14.8	7.00e-07	0	57	0	208666624	58	4734
2026-01-01 07:14:07.61	86.39	12.86	-47.9	-50.1	14.8	0.00e+00	0	57	0	209715200	58	4704
2026-01-01 07:14:08.57	86.29	12.94	-47.9	-50.1	14.8	1.50e-06	0	57	0	211812352	58	4670
2026-01-01 07:14:09.54	86.18	13.02	-47.9	-50.2	14.8	1.50e-06	0	57	0	213909504	58	4726
2026-01-01 07:14:10.50	86.08	13.10	-48.0	-50.5	14.5	7.00e-07	0	57	0	214958080	58	4872
2026-01-01 07:14:11.47	85.98	13.18	-48.3	-50.7	14.2	1.50e-06	0	57	0	217055232	58	5033
2026-01-01 07:14:12.43	85.87	13.26	-48.1	-50.7	14.3	7.00e-07	0	57	0	219152384	58	4988
2026-01-01 07:14:13.39	85.77	13.34	-48.0	-50.6	14.4	7.00e-07	0	57	0	221249536	58	4931
2026-01-01 07:14:14.36	85.66	13.42	-48.1	-50.4	14.5	0.00e+00	0	57	0	222298112	58	4843
2026-01-01 07:14:15.32	85.55	13.50	-48.0	-50.4	14.5	0.00e+00	0	57	0	224395264	58	4852
2026-01-01 07:14:16.28	85.45	13.58	-48.1	-50.4	14.5	0.00e+00	0	58	0	226492416	58	4838
2026-01-01 07:14:17.24	85.34	13.66	-47.9	-50.2	14.7	0.00e+00	0	57	0	228589568	58	4739
2026-01-01 07:14:18.20	85.23	13.74	-48.0	-50.3	14.5	0.00e+00	0	57	0	229638144	58	4812
2026-01-01 07:14:19.16	85.12	13.82	-48.1	-50.5	14.4	7.00e-07	0	57	0	231735296	58	4912
2026-01-01 07:14:20.12	85.02	13.90	-48.2	-50.6	14.3	1.50e-06	0	57	0	233832448	58	4976
2026-01-01 07:14:21.09	84.91	13.99	-48.0	-50.4	14.6	3.00e-06	0	58	0	234881024	58	4832
2026-01-01 07:14:22.05	84.80	14.07	-48.4	-51.0	14.0	2.20e-06	0	58	0	236978176	58	5178
2026-01-01 07:14:23.02	84.68	14.15	-48.3	-50.8	14.1	2.20e-06	0	58	0	239075328	58	5090
2026-01-01 07:14:23.98	84.57	14.23	-48.2	-50.7	14.3	1.50e-06	0	58	0	241172480	58	4999
2026-01-01 07:14:24.94	84.46	14.31	-48.5	-51.1	13.9	1.50e-06	0	58	0	242221056	58	5253
2026-01-01 07:14:25.91	84.35	14.40	-48.2	-50.6	14.4	3.00e-06	0	58	0	244318208	58	4950
2026-01-01 07:14:26.88	84.23	14.48	-48.0	-50.2	14.8	7.00e-07	0	58	0	246415360	58	4736
2026-01-01 07:14:27.84	84.12	14.56	-47.9	-50.2	14.8	0.00e+00	0	58	0	247463936	58	4725
2026-01-01 07:14:28.80	84.00	14.65	-48.0	-50.2	14.8	7.00e-07	0	58	0	249561088	58	4744
2026-01-01 07:14:29.77	83.89	14.73	-48.3	-50.7	14.3	0.00e+00	0	58	0	251658240	58	5010
2026-01-01 07:14:30.73	83.77	14.81	-48.2	-50.5	14.4	2.20e-06	0	58	0	253755392	58	4919
2026-01-01 07:14:31.70	83.65	14.90	-47.9	-50.1	14.9	1.50e-06	0	58	0	254803968	58	4652
2026-01-01 07:14:32.66	83.54	14.98	-47.9	-50.0	15.0	7.00e-07	0	58	0	256901120	58	4646
2026-01-01 07:14:33.63	83.42	15.07	-47.9	-50.0	15.0	0.00e+00	0	58	0	258998272	58	4639
2026-01-01 07:14:34.59	83.30	15.15	-47.7	-49.7	15.2	0.00e+00	0	58	0	261095424	58	4493
2026-01-01 07:14:35.56	83.18	15.23	-47.8	-50.0	15.0	0.00e+00	0	58	0	262144000	58	4600
2026-01-01 07:14:36.51	83.06	15.32	-47.8	-49.9	15.1	0.00e+00	0	58	0	264241152	58	4558
2026-01-01 07:14:37.48	82.94	15.40	-47.8	-49.8	15.1	0.00e+00	0	58	0	266338304	58	4537
2026-01-01 07:14:38.44	82.82	15.49	-47.9	-50.0	15.0	0.00e+00	0	58	0	267386880	58	4629
2026-01-01 07:14:39.40	82.69	15.57	-47.8	-50.0	15.0	0.00e+00	0	58	0	269484032	58	4604
2026-01-01 07:14:40.37	82.57	15.66	-48.0	-50.2	14.8	0.00e+00	0	58	0	271581184	58	4755
2026-01-01 07:14:41.33	82.45	15.74	-48.1	-50.4	14.6	7.00e-07	0	58	0	273678336	58	4865
2026-01-01 07:14:42.30	82.32	15.83	-47.7	-49.7	15.3	0.00e+00	0	58	0	274726912	58	4490
2026-01-01 07:14:43.27	82.19	15.91	-47.9	-50.1	14.9	0.00e+00	0	58	0	276824064	58	4695
2026-01-01 07:14:44.23	82.07	16.00	-48.1	-50.4	14.6	0.00e+00	0	58	0	278921216	58	4837
2026-01-01 07:14:45.20	81.94	16.09	-48.1	-50.4	14.7	0.00e+00	0	58	0	281018368	58	4863
2026-01-01 07:14:46.16	81.81	16.17	-48.5	-51.1	14.0	2.20e-06	0	58	0	282066944	58	5249
2026-01-01 07:14:47.13	81.68	16.26	-48.6	-51.2	13.8	5.30e-06	0	58	0	284164096	59	5038
2026-01-01 07:14:48.10	81.55	16.35	-48.8	-51.5	13.6	4.50e-06	0	58	0	286261248	59	5163
2026-01-01 07:14:49.06	81.43	16.43	-49.0	-51.9	13.1	1.22e-05	0	58	0	287309824	59	5455
2026-01-01 07:14:50.02	81.30	16.52	-48.9	-51.8	13.3	1.98e-05	0	58	0	289406976	59	5345
2026-01-01 07:14:50.98	81.16	16.61	-48.9	-51.7	13.4	1.14e-05	0	58	0	291504128	59	5308
2026-01-01 07:14:51.95	81.03	16.69	-48.8	-51.6	13.4	9.10e-06	0	58	0	293601280	59	5257
2026-01-01 07:14:52.91	80.90	16.78	-48.5	-51.1	13.9	1.29e-05	0	58	0	294649856	59	4939
2026-01-01 07:14:53.87	80.77	16.87	-48.7	-51.4	13.7	1.50e-06	0	58	0	296747008	59	5132
2026-01-01 07:14:54.83	80.63	16.95	-48.7	-51.4	13.7	4.50e-06	0	58	0	298844160	59	5110
2026-01-01 07:14:55.79	80.50	17.04	-48.5	-51.0	14.1	3.80e-06	0	58	0	299892736	59	4896
2026-01-01 07:14:56.76	80.36	17.13	-48.7	-51.3	13.7	1.50e-06	0	58	0	301989888	59	5099
2026-01-01 07:14:57.72	80.22	17.22	-48.7	-51.3	13.7	4.50e-06	0	59	0	304087040	59	5082
2026-01-01 07:14:58.68	80.09	17.30	-48.7	-51.5	13.6	1.50e-06	0	58	0	306184192	59	5165
2026-01-01 07:14:59.65	79.95	17.39	-48.6	-51.2	13.8	6.10e-06	0	59	0	307232768	59	5028
2026-01-01 07:15:00.62	79.81	17.48	-48.3	-50.9	14.1	2.20e-06	0	58	0	309329920	59	4858
2026-01-01 07:15:01.58	79.67	17.57	-48.3	-50.7	14.3	7.00e-07	0	59	0	311427072	59	4742
2026-01-01 07:15:02.54	79.52	17.66	-48.2	-50.7	14.4	7.00e-07	0	59	0	313524224	59	4727
2026-01-01 07:15:03.50	79.38	17.75	-48.2	-50.6	14.4	7.00e-07	0	59	0	314572800	59	4652
2026-01-01 07:15:04.47	79.24	17.84	-48.5	-51.1	14.0	1.50e-06	0	59	0	316669952	59	4945
2026-01-01 07:15:05.43	79.10	17.93	-48.5	-51.0	14.1	4.50e-06	0	58	0	318767104	59	4882
2026-01-01 07:15:06.40	78.95	18.02	-48.0	-50.2	14.9	7.00e-07	0	59	0	319815680	59	4449
2026-01-01 07:15:07.37	78.80	18.11	-48.0	-50.2	14.9	0.00e+00	0	59	0	321912832	59	4464
2026-01-01 07:15:08.33	78.66	18.19	-47.9	-50.1	14.9	0.00e+00	0	59	0	324009984	59	4434
2026-01-01 07:15:09.29	78.51	18.28	-48.1	-50.4	14.7	0.00e+00	0	59	0	326107136	59	4573
2026-01-01 07:15:10.25	78.36	18.37	-48.0	-50.2	14.9	0.00e+00	0	59	0	327155712	58	4741
2026-01-01 07:15:11.22	78.21	18.46	-48.2	-50.5	14.6	7.00e-07	0	59	0	329252864	58	4911
2026-01-01 07:15:12.18	78.07	18.55	-47.9	-50.1	14.9	0.00e+00	0	59	0	331350016	58	4685
2026-01-01 07:15:13.14	77.92	18.64	-47.7	-49.8	15.3	0.00e+00	0	59	0	332398592	58	4514
2026-01-01 07:15:14.10	77.76	18.73	-47.5	-49.4	15.6	0.00e+00	0	59	0	334495744	58	4314
2026-01-01 07:15:15.07	77.61	18.82	-47.4	-49.3	15.8	0.00e+00	0	59	0	336592896	57	4501
2026-01-01 07:15:16.03	77.46	18.91	-47.3	-49.1	15.9	0.00e+00	0	59	0	338690048	57	4431
2026-01-01 07:15:16.99	77.30	19.00	-47.3	-49.2	15.8	0.00e+00	0	59	0	339738624	57	4484
2026-01-01 07:15:17.95	77.15	19.09	-47.5	-49.5	15.6	0.00e+00	0	59	0	341835776	57	4628
2026-01-01 07:15:18.92	76.99	19.18	-47.7	-49.7	15.3	0.00e+00	0	59	0	343932928	57	4745
2026-01-01 07:15:19.88	76.83	19.28	-48.0	-50.2	14.9	0.00e+00	0	59	0	344981504	57	5007
2026-01-01 07:15:20.84	76.68	19.37	-47.9	-50.0	15.1	0.00e+00	0	59	0	347078656	57	4905
2026-01-01 07:15:21.80	76.52	19.46	-47.8	-49.9	15.2	0.00e+00	0	59	0	349175808	57	4824
2026-01-01 07:15:22.76	76.36	19.55	-48.0	-50.2	15.0	0.00e+00	0	59	0	351272960	57	4985
2026-01-01 07:15:23.72	76.20	19.64	-48.1	-50.3	14.8	0.00e+00	0	59	0	352321536	58	4800
2026-01-01 07:15:24.69	76.04	19.73	-48.2	-50.5	14.6	0.00e+00	0	59	0	354418688	58	4908
2026-01-01 07:15:25.65	75.87	19.82	-48.3	-50.6	14.5	7.00e-07	0	59	0	356515840	58	4980
2026-01-01 07:15:26.62	75.71	19.91	-48.2	-50.5	14.6	0.00e+00	0	59	0	358612992	58	4926
2026-01-01 07:15:27.58	75.54	20.00	-48.1	-50.4	14.7	0.00e+00	0	59	0	359661568	58	4818
2026-01-01 07:15:28.54	75.38	20.10	-48.0	-50.3	14.8	0.00e+00	0	59	0	361758720	58	4768
2026-01-01 07:15:29.51	75.21	20.19	-48.0	-50.3	14.8	0.00e+00	0	59	0	363855872	58	4788
2026-01-01 07:15:30.47	75.04	20.28	-48.0	-50.2	14.9	0.00e+00	0	59	0	364904448	58	4745
2026-01-01 07:15:31.43	74.87	20.37	-47.7	-49.8	15.3	0.00e+00	0	59	0	367001600	58	4496
2026-01-01 07:15:32.40	74.70	20.46	-47.4	-49.4	15.7	0.00e+00	0	59	0	369098752	58	4300
2026-01-01 07:15:33.36	74.53	20.56	-47.2	-49.0	16.0	0.00e+00	0	59	0	371195904	57	4380
2026-01-01 07:15:34.33	74.36	20.65	-47.2	-49.0	16.0	0.00e+00	0	59	0	372244480	57	4364
2026-01-01 07:15:35.29	74.19	20.74	-47.2	-49.0	16.0	0.00e+00	0	60	0	374341632	57	4383
2026-01-01 07:15:36.25	74.01	20.83	-47.1	-48.9	16.1	0.00e+00	0	59	0	376438784	57	4329
2026-01-01 07:15:37.21	73.84	20.92	-47.1	-49.0	16.1	0.00e+00	0	59	0	377487360	57	4348
2026-01-01 07:15:38.18	73.66	21.02	-47.4	-49.4	15.8	0.00e+00	0	59	0	379584512	57	4557
2026-01-01 07:15:39.14	73.48	21.11	-47.5	-49.4	15.7	0.00e+00	0	59	0	381681664	57	4572
2026-01-01 07:15:40.10	73.31	21.20	-47.7	-49.7	15.4	0.00e+00	0	59	0	383778816	57	4732
2026-01-01 07:15:41.06	73.13	21.29	-47.6	-49.6	15.5	0.00e+00	0	59	0	384827392	57	4701
2026-01-01 07:15:42.03	72.94	21.39	-47.8	-49.9	15.2	0.00e+00	0	59	0	386924544	57	4841
2026-01-01 07:15:42.99	72.76	21.48	-47.7	-49.7	15.3	0.00e+00	0	59	0	389021696	57	4754
2026-01-01 07:15:43.95	72.58	21.57	-47.8	-49.8	15.3	0.00e+00	0	59	0	391118848	57	4811
2026-01-01 07:15:44.92	72.40	21.66	-47.9	-50.0	15.1	0.00e+00	0	59	0	392167424	57	4919
2026-01-01 07:15:45.89	72.21	21.76	-47.9	-50.0	15.1	0.00e+00	0	60	0	394264576	57	4872
2026-01-01 07:15:46.85	72.02	21.85	-47.9	-50.0	15.2	0.00e+00	0	59	0	396361728	57	4877
2026-01-01 07:15:47.81	71.84	21.94	-47.8	-49.9	15.3	0.00e+00	0	60	0	397410304	57	4817
2026-01-01 07:15:48.78	71.65	22.03	-47.9	-49.9	15.1	0.00e+00	0	60	0	399507456	57	4858
2026-01-01 07:15:49.74	71.46	22.13	-47.9	-50.0	15.1	0.00e+00	0	60	0	401604608	57	4915
2026-01-01 07:15:50.70	71.27	22.22	-48.0	-50.2	14.9	0.00e+00	0	59	0	403701760	57	5015
2026-01-01 07:15:51.66	71.08	22.31	-48.2	-50.5	14.7	0.00e+00	0	60	0	404750336	58	4895
2026-01-01 07:15:52.62	70.88	22.40	-48.2	-50.4	14.7	0.00e+00	0	59	0	406847488	58	4832
2026-01-01 07:15:53.59	70.69	22.50	-47.8	-49.9	15.3	0.00e+00	0	60	0	408944640	58	4563
2026-01-01 07:15:54.55	70.49	22.59	-47.8	-49.8	15.3	0.00e+00	0	60	0	411041792	58	4519
2026-01-01 07:15:55.51	70.30	22.68	-48.0	-50.1	15.1	0.00e+00	0	60	0	412090368	58	4669
2026-01-01 07:15:56.47	70.10	22.77	-48.0	-50.1	15.0	0.00e+00	0	60	0	414187520	58	4697
2026-01-01 07:15:57.44	69.90	22.87	-48.5	-50.9	14.3	7.00e-07	0	60	0	416284672	58	5148
2026-01-01 07:15:58.40	69.70	22.96	-48.4	-50.7	14.5	7.00e-07	0	60	0	417333248	59	4747
2026-01-01 07:15:59.36	69.50	23.05	-48.0	-50.1	15.0	1.50e-06	0	60	0	419430400	59	4434
2026-01-01 07:16:00.33	69.30	23.14	-47.8	-49.9	15.3	7.00e-07	0	60	0	421527552	58	4562
2026-01-01 07:16:01.29	69.09	23.23	-47.7	-49.7	15.4	0.00e+00	0	60	0	422576128	58	4479
2026-01-01 07:16:02.25	68.89	23.33	-47.8	-49.9	15.2	0.00e+00	0	60	0	424673280	58	4592
2026-01-01 07:16:03.21	68.68	23.42	-47.7	-49.8	15.5	0.00e+00	0	60	0	426770432	58	4494
2026-01-01 07:16:04.17	68.48	23.51	-47.8	-50.0	15.3	0.00e+00	0	60	0	428867584	58	4599
2026-01-01 07:16:05.13	68.27	23.60	-47.8	-49.9	15.3	0.00e+00	0	60	0	429916160	58	4556
2026-01-01 07:16:06.10	68.06	23.69	-47.9	-50.1	15.1	0.00e+00	0	60	0	432013312	58	4671
2026-01-01 07:16:07.06	67.85	23.78	-48.2	-50.6	14.7	7.00e-07	0	60	0	434110464	58	4929
2026-01-01 07:16:08.02	67.63	23.88	-48.1	-50.4	14.8	0.00e+00	0	60	0	436207616	58	4829
2026-01-01 07:16:08.99	67.42	23.97	-48.3	-50.6	14.6	0.00e+00	0	60	0	437256192	58	4969
2026-01-01 07:16:09.95	67.21	24.06	-48.2	-50.4	14.7	1.50e-06	0	60	0	439353344	58	4868
2026-01-01 07:16:10.92	66.99	24.15	-47.9	-49.9	15.3	0.00e+00	0	60	0	441450496	58	4593
2026-01-01 07:16:11.88	66.77	24.24	-47.7	-49.7	15.5	0.00e+00	0	60	0	442499072	58	4454
2026-01-01 07:16:12.84	66.55	24.33	-47.8	-49.9	15.4	0.00e+00	0	60	0	444596224	58	4548
2026-01-01 07:16:13.80	66.33	24.42	-47.6	-49.5	15.7	0.00e+00	0	60	0	446693376	58	4345
2026-01-01 07:16:14.77	66.11	24.51	-47.7	-49.6	15.6	0.00e+00	0	60	0	448790528	58	4428
2026-01-01 07:16:15.73	65.89	24.60	-47.2	-49.0	16.1	0.00e+00	0	60	0	449839104	57	4386
2026-01-01 07:16:16.70	65.66	24.69	-47.1	-48.9	16.2	0.00e+00	0	60	0	451936256	57	4326
2026-01-01 07:16:17.66	65.44	24.78	-47.1	-48.8	16.3	0.00e+00	0	60	0	454033408	57	4278
2026-01-01 07:16:18.63	65.21	24.88	-47.2	-49.0	16.2	0.00e+00	0	60	0	456130560	57	4342
2026-01-01 07:16:19.59	64.98	24.96	-46.8	-48.3	16.8	0.00e+00	0	60	0	457179136	56	4291
2026-01-01 07:16:20.56	64.75	25.06	-46.6	-48.2	16.9	0.00e+00	0	60	0	459276288	56	4227
2026-01-01 07:16:21.52	64.52	25.14	-46.6	-48.2	16.9	0.00e+00	0	60	0	461373440	56	4215
2026-01-01 07:16:22.48	64.29	25.23	-46.5	-48.1	17.1	0.00e+00	0	60	0	462422016	56	4146
2026-01-01 07:16:23.45	64.06	25.32	-46.5	-48.0	17.1	0.00e+00	0	60	0	464519168	56	4139
2026-01-01 07:16:24.42	63.82	25.41	-46.6	-48.2	16.9	0.00e+00	0	60	0	466616320	56	4234
2026-01-01 07:16:25.38	63.59	25.50	-46.7	-48.3	16.8	0.00e+00	0	60	0	468713472	56	4290
2026-01-01 07:16:26.34	63.35	25.59	-46.8	-48.4	16.7	0.00e+00	0	60	0	469762048	56	4336
2026-01-01 07:16:27.31	63.11	25.68	-46.8	-48.5	16.7	0.00e+00	0	60	0	471859200	56	4342
2026-01-01 07:16:28.27	62.87	25.76	-47.0	-48.7	16.4	0.00e+00	0	60	0	473956352	56	4467
2026-01-01 07:16:29.24	62.63	25.85	-47.1	-48.9	16.2	0.00e+00	0	60	0	475004928	56	4586
2026-01-01 07:16:30.20	62.39	25.94	-47.2	-49.1	16.1	0.00e+00	0	60	0	477102080	56	4665
2026-01-01 07:16:31.17	62.14	26.03	-47.5	-49.4	15.8	0.00e+00	0	60	0	479199232	56	4842
2026-01-01 07:16:32.13	61.90	26.11	-47.3	-49.2	16.0	0.00e+00	0	60	0	481296384	56	4731
2026-01-01 07:16:33.10	61.65	26.20	-47.5	-49.4	15.7	0.00e+00	0	60	0	482344960	56	4863
2026-01-01 07:16:34.06	61.40	26.29	-47.4	-49.4	15.8	0.00e+00	0	60	0	484442112	56	4819
2026-01-01 07:16:35.02	61.15	26.37	-47.3	-49.1	16.0	0.00e+00	0	60	0	486539264	56	4698
2026-01-01 07:16:35.99	60.90	26.46	-47.5	-49.4	15.8	0.00e+00	0	60	0	488636416	56	4831
2026-01-01 07:16:36.95	60.65	26.54	-47.4	-49.2	15.9	0.00e+00	0	60	0	489684992	56	4750
2026-01-01 07:16:37.91	60.40	26.63	-47.4	-49.3	15.8	0.00e+00	0	60	0	491782144	56	4790
2026-01-01 07:16:38.88	60.14	26.71	-47.2	-49.0	16.1	0.00e+00	0	60	0	493879296	56	4640
2026-01-01 07:16:39.84	59.89	26.79	-47.3	-49.1	16.0	0.00e+00	0	60	0	495976448	56	4691
2026-01-01 07:16:40.81	59.63	26.88	-47.4	-49.3	15.9	0.00e+00	0	60	0	497025024	56	4775
2026-01-01 07:16:41.77	59.37	26.96	-47.5	-49.5	15.7	0.00e+00	0	60	0	499122176	57	4623
2026-01-01 07:16:42.74	59.11	27.04	-47.7	-49.7	15.4	0.00e+00	0	60	0	501219328	57	4750
2026-01-01 07:16:43.70	58.85	27.13	-47.8	-49.9	15.3	0.00e+00	0	60	0	502267904	57	4834
2026-01-01 07:16:44.66	58.59	27.21	-47.8	-49.8	15.3	0.00e+00	0	60	0	504365056	57	4801
2026-01-01 07:16:45.63	58.32	27.29	-47.6	-49.5	15.7	0.00e+00	0	60	0	506462208	57	4612
2026-01-01 07:16:46.59	58.05	27.37	-47.3	-49.1	16.0	0.00e+00	0	60	0	508559360	57	4432
2026-01-01 07:16:47.56	57.79	27.45	-47.1	-48.9	16.2	0.00e+00	0	60	0	509607936	57	4295
2026-01-01 07:16:48.53	57.52	27.53	-47.3	-49.2	15.9	0.00e+00	0	60	0	511705088	57	4464
2026-01-01 07:16:49.49	57.25	27.61	-47.3	-49.1	15.9	0.00e+00	0	60	0	513802240	57	4405
2026-01-01 07:16:50.45	56.98	27.69	-47.1	-48.9	16.2	0.00e+00	0	60	0	514850816	57	4338
2026-01-01 07:16:51.41	56.71	27.77	-47.6	-49.7	15.5	0.00e+00	0	60	0	516947968	57	4713
2026-01-01 07:16:52.37	56.43	27.85	-47.9	-50.0	15.2	0.00e+00	0	60	0	519045120	57	4903
2026-01-01 07:16:53.34	56.16	27.93	-48.2	-50.7	14.5	0.00e+00	0	60	0	521142272	58	5011
2026-01-01 07:16:54.31	55.88	28.00	-48.3	-50.7	14.5	7.00e-07	0	60	0	522190848	58	4998
2026-01-01 07:16:55.27	55.60	28.08	-48.2	-50.5	14.7	1.50e-06	0	60	0	524288000	58	4919
2026-01-01 07:16:56.23	55.32	28.16	-48.3	-50.6	14.6	1.50e-06	0	61	0	526385152	58	4970
2026-01-01 07:16:57.19	55.04	28.23	-48.4	-50.7	14.5	1.50e-06	0	60	0	528482304	58	5020
2026-01-01 07:16:58.15	54.76	28.30	-48.5	-50.9	14.4	0.00e+00	0	60	0	529530880	58	5118
2026-01-01 07:16:59.11	54.48	28.38	-48.2	-50.4	14.8	0.00e+00	0	60	0	531628032	59	4593
2026-01-01 07:17:00.08	54.19	28.45	-48.3	-50.6	14.6	0.00e+00	0	61	0	533725184	59	4666
2026-01-01 07:17:01.04	53.91	28.53	-48.2	-50.5	14.7	0.00e+00	0	61	0	534773760	59	4629
2026-01-01 07:17:02.00	53.62	28.60	-48.4	-50.8	14.5	0.00e+00	0	60	0	536870912	59	4773
2026-01-01 07:17:02.97	53.33	28.67	-48.3	-50.6	14.6	0.00e+00	0	61	0	538968064	59	4667
2026-01-01 07:17:03.93	53.05	28.74	-48.0	-50.1	15.1	0.00e+00	0	60	0	541065216	59	4439
2026-01-01 07:17:04.89	52.76	28.81	-48.0	-50.3	14.9	7.00e-07	0	60	0	542113792	59	4530
2026-01-01 07:17:05.86	52.46	28.88	-47.9	-50.0	15.2	0.00e+00	0	61	0	544210944	58	4644
2026-01-01 07:17:06.82	52.17	28.95	-47.9	-50.1	15.1	0.00e+00	0	61	0	546308096	58	4669
2026-01-01 07:17:07.78	51.88	29.02	-48.0	-50.2	15.0	7.00e-07	0	61	0	547356672	58	4742
2026-01-01 07:17:08.74	51.58	29.09	-48.0	-50.2	15.0	0.00e+00	0	61	0	549453824	58	4756
2026-01-01 07:17:09.71	51.28	29.16	-47.9	-50.2	15.0	0.00e+00	0	61	0	551550976	58	4725
2026-01-01 07:17:10.67	50.98	29.22	-48.1	-50.3	14.8	0.00e+00	0	61	0	553648128	58	4792
2026-01-01 07:17:11.64	50.68	29.29	-48.4	-50.8	14.5	0.00e+00	0	61	0	554696704	58	5049
2026-01-01 07:17:12.60	50.38	29.35	-48.4	-50.8	14.4	1.50e-06	0	61	0	556793856	58	5084
2026-01-01 07:17:13.56	50.08	29.42	-48.4	-50.8	14.3	0.00e+00	0	61	0	558891008	58	5091
2026-01-01 07:17:14.53	49.78	29.48	-48.3	-50.6	14.6	7.00e-07	0	61	0	559939584	58	4966
2026-01-01 07:17:15.49	49.47	29.54	-48.2	-50.5	14.7	0.00e+00	0	61	0	562036736	58	4880
2026-01-01 07:17:16.45	49.17	29.61	-48.3	-50.7	14.4	0.00e+00	0	61	0	564133888	58	5013
2026-01-01 07:17:17.42	48.86	29.67	-48.3	-50.6	14.6	0.00e+00	0	61	0	566231040	58	4932
2026-01-01 07:17:18.38	48.55	29.73	-48.4	-50.9	14.4	7.00e-07	0	61	0	567279616	58	5105
2026-01-01 07:17:19.34	48.24	29.79	-48.4	-50.8	14.4	1.50e-06	0	61	0	569376768	58	5076
2026-01-01 07:17:20.31	47.93	29.85	-48.2	-50.4	14.8	0.00e+00	0	61	0	571473920	58	4839
2026-01-01 07:17:21.27	47.62	29.91	-48.1	-50.3	14.9	0.00e+00	0	61	0	573571072	58	4789
2026-01-01 07:17:22.24	47.31	29.96	-48.3	-50.6	14.6	0.00e+00	0	61	0	574619648	58	4958
2026-01-01 07:17:23.21	46.99	30.02	-48.4	-50.8	14.4	0.00e+00	0	61	0	576716800	58	5072
2026-01-01 07:17:24.17	46.68	30.07	-48.7	-51.3	13.9	1.50e-06	0	61	0	578813952	59	5087
2026-01-01 07:17:25.13	46.36	30.13	-48.4	-51.0	14.3	7.00e-07	0	61	0	579862528	59	4900
2026-01-01 07:17:26.10	46.04	30.18	-48.5	-51.1	14.1	1.50e-06	0	61	0	581959680	59	4978
2026-01-01 07:17:27.06	45.73	30.24	-48.4	-50.9	14.3	3.00e-06	0	61	0	584056832	59	4868
2026-01-01 07:17:28.02	45.41	30.29	-48.5	-51.0	14.2	7.00e-07	0	61	0	586153984	59	4919
2026-01-01 07:17:28.98	45.09	30.34	-48.4	-50.7	14.5	1.50e-06	0	61	0	587202560	59	4726
2026-01-01 07:17:29.95	44.77	30.39	-48.0	-50.3	14.9	7.00e-07	0	61	0	589299712	59	4506
2026-01-01 07:17:30.91	44.44	30.44	-47.9	-50.0	15.2	0.00e+00	0	61	0	591396864	59	4341
2026-01-01 07:17:31.87	44.12	30.49	-48.1	-50.2	15.0	0.00e+00	0	61	0	593494016	58	4747
2026-01-01 07:17:32.84	43.80	30.53	-48.1	-50.3	15.0	0.00e+00	0	61	0	594542592	58	4806
2026-01-01 07:17:33.80	43.47	30.58	-48.0	-50.1	15.1	0.00e+00	0	61	0	596639744	58	4653
2026-01-01 07:17:34.76	43.15	30.63	-48.0	-50.1	15.2	7.00e-07	0	61	0	598736896	58	4671
2026-01-01 07:17:35.73	42.82	30.67	-48.0	-50.1	15.0	0.00e+00	0	61	0	599785472	58	4675
2026-01-01 07:17:36.69	42.49	30.71	-48.1	-50.3	14.9	0.00e+00	0	61	0	601882624	58	4793
2026-01-01 07:17:37.65	42.17	30.76	-48.3	-50.5	14.7	0.00e+00	0	61	0	603979776	58	4908
2026-01-01 07:17:38.62	41.83	30.80	-48.8	-51.4	13.8	0.00e+00	0	61	0	606076928	59	5130
2026-01-01 07:17:39.58	41.50	30.84	-49.1	-52.0	13.2	2.74e-05	0	61	0	607125504	60	5191
2026-01-01 07:17:40.55	41.17	30.88	-49.2	-52.5	12.7	4.73e-05	0	61	0	609222656	60	5502
2026-01-01 07:17:41.52	40.84	30.92	-49.4	-52.6	12.6	1.07e-04	0	61	0	611319808	60	5562
2026-01-01 07:17:42.48	40.51	30.95	-49.2	-52.3	12.9	5.41e-05	0	61	0	612368384	60	5377
2026-01-01 07:17:43.44	40.17	30.99	-49.1	-52.1	13.0	2.89e-05	0	61	0	614465536	60	5278
2026-01-01 07:17:44.41	39.84	31.02	-49.0	-51.9	13.3	1.52e-05	0	61	0	616562688	60	5136
2026-01-01 07:17:45.37	39.50	31.06	-48.8	-51.6	13.6	1.37e-05	0	61	0	618659840	60	4970
2026-01-01 07:17:46.33	39.17	31.09	-48.8	-51.6	13.7	5.30e-06	0	61	0	619708416	60	4976
2026-01-01 07:17:47.31	38.83	31.12	-48.9	-51.7	13.5	3.00e-06	0	61	0	621805568	60	5035
2026-01-01 07:17:48.27	38.49	31.15	-49.0	-51.8	13.4	9.90e-06	0	61	0	623902720	60	5075
2026-01-01 07:17:49.23	38.15	31.18	-49.1	-52.2	13.0	3.50e-05	0	61	0	625999872	60	5313
2026-01-01 07:17:50.19	37.82	31.21	-49.2	-52.2	12.9	5.18e-05	0	61	0	627048448	60	5337
2026-01-01 07:17:51.16	37.48	31.24	-49.1	-51.9	13.2	2.21e-05	0	61	0	629145600	60	5155
2026-01-01 07:17:52.13	37.13	31.27	-49.1	-52.0	13.2	1.67e-05	0	61	0	631242752	60	5170
2026-01-01 07:17:53.09	36.80	31.29	-49.3	-52.3	12.9	2.97e-05	0	61	0	633339904	60	5400
2026-01-01 07:17:54.06	36.45	31.32	-49.0	-51.9	13.2	2.82e-05	0	61	0	634388480	60	5146
2026-01-01 07:17:55.02	36.11	31.34	-49.1	-52.2	12.9	4.95e-05	0	61	0	636485632	60	5296
2026-01-01 07:17:55.98	35.77	31.36	-49.7	-53.4	11.7	1.65e-04	0	61	0	638582784	61	5762
2026-01-01 07:17:56.95	35.43	31.38	-49.8	-53.5	11.6	8.07e-04	0	61	0	639631360	61	5847
2026-01-01 07:17:57.91	35.09	31.40	-49.7	-53.1	12.0	4.40e-04	0	61	0	641728512	61	5588
2026-01-01 07:17:58.88	34.74	31.42	-49.6	-52.9	12.3	2.20e-04	0	61	0	643825664	61	5419
2026-01-01 07:17:59.84	34.40	31.44	-49.8	-53.2	12.0	1.72e-04	0	61	0	645922816	61	5609
2026-01-01 07:18:00.80	34.06	31.46	-49.7	-53.0	12.1	2.62e-04	0	61	0	646971392	61	5528
2026-01-01 07:18:01.77	33.71	31.47	-49.7	-53.1	12.1	1.57e-04	0	61	0	649068544	61	5532
2026-01-01 07:18:02.73	33.37	31.48	-49.5	-52.8	12.4	1.15e-04	0	61	0	651165696	61	5388
2026-01-01 07:18:03.69	33.03	31.50	-49.5	-52.7	12.5	9.76e-05	0	61	0	652214272	61	5318
2026-01-01 07:18:04.66	32.68	31.51	-49.7	-53.1	12.1	1.51e-04	0	61	0	654311424	61	5563
2026-01-01 07:18:05.62	32.34	31.52	-49.7	-53.4	11.9	3.78e-04	0	61	0	656408576	61	5730
2026-01-01 07:18:06.59	31.99	31.53	-49.5	-53.0	12.2	4.19e-04	0	61	0	658505728	61	5466
2026-01-01 07:18:07.55	31.65	31.54	-49.5	-52.8	12.3	1.09e-04	0	61	0	659554304	61	5386
2026-01-01 07:18:08.52	31.30	31.54	-49.7	-53.2	12.0	8.95e-04	0	61	0	661651456	61	5619
2026-01-01 07:18:09.47	30.96	31.55	-49.5	-52.7	12.3	2.84e-04	0	61	0	663748608	61	5337
2026-01-01 07:18:10.44	30.61	31.55	-49.6	-53.1	12.1	1.57e-04	0	61	0	665845760	61	5548
2026-01-01 07:18:11.41	30.26	31.56	-49.6	-53.3	11.9	2.33e-04	0	61	0	666894336	61	5662
2026-01-01 07:18:12.37	29.92	31.56	-49.9	-53.9	11.3	1.03e-03	0	61	0	668991488	61	6069
2026-01-01 07:18:13.33	29.57	31.56	-49.9	-53.7	11.5	1.45e-03	0	61	0	671088640	62	5606
2026-01-01 07:18:14.30	29.22	31.56	-49.8	-53.5	11.7	7.28e-04	0	61	0	672137216	62	5494
2026-01-01 07:18:15.26	28.88	31.56	-49.7	-53.2	11.9	3.14e-04	0	61	0	674234368	62	5298
2026-01-01 07:18:16.23	28.53	31.56	-49.7	-53.0	12.2	3.85e-04	0	61	0	676331520	62	5213
2026-01-01 07:18:17.19	28.19	31.55	-49.4	-52.6	12.6	1.07e-04	0	61	0	678428672	61	5237
2026-01-01 07:18:18.15	27.84	31.55	-49.1	-51.9	13.4	3.66e-05	0	61	0	679477248	61	4857
2026-01-01 07:18:19.12	27.50	31.54	-48.8	-51.5	13.7	1.22e-05	0	61	0	681574400	60	4879
2026-01-01 07:18:20.08	27.15	31.53	-48.7	-51.4	13.8	4.50e-06	0	61	0	683671552	60	4844
2026-01-01 07:18:21.04	26.81	31.53	-48.9	-51.5	13.6	6.10e-06	0	61	0	684720128	60	4925
2026-01-01 07:18:22.01	26.46	31.52	-49.0	-51.9	13.3	3.80e-06	0	61	0	686817280	60	5115
2026-01-01 07:18:22.97	26.12	31.51	-49.2	-52.4	12.7	3.28e-05	0	61	0	688914432	60	5447
2026-01-01 07:18:23.94	25.77	31.49	-49.2	-52.4	12.6	1.16e-04	0	61	0	691011584	60	5452
2026-01-01 07:18:24.90	25.43	31.48	-49.7	-53.7	11.1	4.16e-04	0	61	0	692060160	61	5937
2026-01-01 07:18:25.86	25.08	31.47	-49.2	-52.8	11.9	7.77e-04	0	61	0	694157312	61	5341
2026-01-01 07:18:26.82	24.74	31.45	-48.6	-51.6	13.1	1.26e-04	0	61	0	696254464	60	4928
2026-01-01 07:18:27.79	24.40	31.44	-48.1	-50.6	14.0	1.14e-05	0	61	0	697303040	59	4704
2026-01-01 07:18:28.75	24.06	31.42	-47.9	-50.4	14.3	3.00e-06	0	61	0	699400192	58	4836
2026-01-01 07:18:29.72	23.71	31.40	-48.0	-50.5	14.2	2.20e-06	0	61	0	701497344	58	4897
2026-01-01 07:18:30.68	23.37	31.38	-48.4	-51.1	13.6	7.60e-06	0	61	0	703594496	58	5258
2026-01-01 07:18:31.64	23.03	31.36	-48.5	-51.2	13.5	3.28e-05	0	61	0	704643072	59	5027
2026-01-01 07:18:32.61	22.69	31.34	-48.7	-51.8	12.9	4.80e-05	0	61	0	706740224	59	5341
2026-01-01 07:18:33.57	22.35	31.31	-48.3	-51.0	13.6	3.05e-05	0	61	0	708837376	59	4900
2026-01-01 07:18:34.53	22.01	31.29	-48.3	-51.1	13.5	5.30e-06	0	61	0	710934528	59	4939
2026-01-01 07:18:35.49	21.67	31.26	-48.2	-51.0	13.6	7.60e-06	0	61	0	711983104	59	4880
2026-01-01 07:18:36.46	21.33	31.24	-48.5	-51.4	13.1	3.35e-05	0	61	0	714080256	59	5129
2026-01-01 07:18:37.42	20.99	31.21	-49.0	-52.4	12.1	1.46e-04	0	61	0	716177408	59	5736
2026-01-01 07:18:38.38	20.65	31.18	-49.3	-53.3	11.1	5.24e-04	0	61	0	717225984	60	5993
2026-01-01 07:18:39.35	20.31	31.15	-49.6	-54.0	10.1	5.16e-03	0	61	0	719323136	60	6548
2026-01-01 07:18:40.31	19.98	31.12	-49.4	-53.8	10.4	5.21e-03	0	61	0	721420288	61	6013
2026-01-01 07:18:41.27	19.64	31.09	-49.4	-53.7	10.4	5.34e-03	0	61	0	723517440	61	5933
2026-01-01 07:18:42.24	19.31	31.05	-49.4	-53.9	10.3	6.25e-03	0	61	0	724566016	61	6077
2026-01-01 07:18:43.20	18.97	31.02	-49.6	-54.0	10.1	5.09e-03	0	61	0	726663168	61	6190
2026-01-01 07:18:44.16	18.64	30.98	-49.8	-54.3	9.9	7.97e-03	0	61	0	728760320	61	6384
2026-01-01 07:18:45.13	18.31	30.95	-50.0	-54.8	9.4	1.20e-02	0	61	0	729808896	61	6757
2026-01-01 07:18:46.09	17.97	30.91	-49.6	-54.1	10.2	8.58e-03	0	61	0	731906048	61	6247
2026-01-01 07:18:47.05	17.64	30.87	-49.7	-54.0	10.4	5.20e-03	0	61	0	734003200	61	6146
2026-01-01 07:18:48.01	17.31	30.83	-49.5	-53.8	10.5	3.64e-03	0	61	0	736100352	61	6022
2026-01-01 07:18:48.98	16.98	30.79	-49.5	-53.7	10.7	2.62e-03	0	61	0	737148928	61	5986
2026-01-01 07:18:49.94	16.65	30.75	-49.7	-53.8	10.6	2.96e-03	0	61	0	739246080	61	6059
2026-01-01 07:18:50.90	16.33	30.71	-49.6	-53.7	10.8	2.39e-03	0	61	0	741343232	61	5951
2026-01-01 07:18:51.87	16.00	30.66	-49.9	-54.3	10.2	3.88e-03	0	61	0	743440384	61	6381
2026-01-01 07:18:52.83	15.67	30.62	-50.0	-54.4	10.2	6.27e-03	0	61	0	744488960	61	6433
2026-01-01 07:18:53.80	15.34	30.57	-49.9	-54.1	10.6	3.91e-03	0	61	0	746586112	61	6204
2026-01-01 07:18:54.76	15.02	30.53	-49.8	-53.9	10.9	3.43e-03	0	61	0	748683264	61	6091
2026-01-01 07:18:55.72	14.70	30.48	-49.9	-53.8	11.1	2.42e-03	0	61	0	749731840	61	6053
2026-01-01 07:18:56.68	14.38	30.43	-50.1	-54.2	10.8	2.39e-03	0	61	0	751828992	62	5935
2026-01-01 07:18:57.64	14.06	30.38	-49.9	-53.6	11.5	2.37e-03	0	61	0	753926144	62	5551
2026-01-01 07:18:58.61	13.73	30.33	-49.7	-53.1	11.9	3.31e-04	0	61	0	756023296	62	5273
2026-01-01 07:18:59.57	13.42	30.28	-49.5	-52.7	12.3	1.88e-04	0	61	0	757071872	62	5023
2026-01-01 07:19:00.53	13.10	30.23	-49.3	-52.4	12.7	1.49e-04	0	61	0	759169024	61	5126
2026-01-01 07:19:01.50	12.78	30.17	-49.3	-52.3	12.8	6.02e-05	0	61	0	761266176	61	5084
2026-01-01 07:19:02.46	12.46	30.12	-49.4	-52.5	12.6	7.47e-05	0	61	0	763363328	61	5215
2026-01-01 07:19:03.42	12.15	30.07	-49.3	-52.4	12.8	6.79e-05	0	61	0	764411904	61	5103
2026-01-01 07:19:04.39	11.83	30.01	-49.4	-52.6	12.6	8.16e-05	0	61	0	766509056	61	5249
2026-01-01 07:19:05.35	11.52	29.95	-49.5	-52.9	12.4	1.73e-04	0	61	0	768606208	61	5403
2026-01-01 07:19:06.31	11.21	29.90	-49.5	-52.8	12.2	1.33e-04	0	62	0	769654784	61	5394
2026-01-01 07:19:07.28	10.90	29.84	-49.5	-52.8	12.3	6.86e-05	0	61	0	771751936	61	5391
2026-01-01 07:19:08.27	10.58	29.78	-49.7	-53.2	11.9	1.97e-04	0	62	0	773849088	61	5635
2026-01-01 07:19:09.27	10.26	29.72	-49.8	-53.3	11.8	4.35e-04	0	61	0	775946240	61	5704
2026-01-01 07:19:10.26	9.94	29.65	-49.5	-53.0	12.2	4.11e-04	0	62	0	776994816	61	5497
2026-01-01 07:19:11.26	9.62	29.59	-49.6	-53.1	12.0	3.14e-04	0	62	0	779091968	61	5566
2026-01-01 07:19:12.23	9.32	29.53	-49.8	-53.5	11.6	3.93e-04	0	62	0	781189120	61	5802
2026-01-01 07:19:13.19	9.01	29.46	-50.0	-53.9	11.2	9.28e-04	0	62	0	783286272	61	6108
2026-01-01 07:19:14.16	8.71	29.40	-49.9	-53.7	11.4	1.10e-03	0	62	0	784334848	61	5965
2026-01-01 07:19:15.12	8.41	29.34	-49.8	-53.5	11.6	1.95e-03	0	62	0	786432000	62	5522
2026-01-01 07:19:16.08	8.11	29.27	-49.8	-53.5	11.7	6.25e-04	0	62	0	788529152	62	5472
2026-01-01 07:19:17.04	7.81	29.20	-50.0	-54.0	11.2	6.99e-04	0	62	0	790626304	62	5807
2026-01-01 07:19:18.00	7.52	29.14	-49.9	-53.6	11.5	5.97e-04	0	62	0	791674880	62	5567
2026-01-01 07:19:18.97	7.22	29.07	-49.9	-53.6	11.5	8.38e-04	0	62	0	793772032	62	5551
2026-01-01 07:19:19.93	6.92	29.00	-49.9	-53.6	11.6	9.72e-04	0	62	0	795869184	62	5558
2026-01-01 07:19:20.90	6.63	28.93	-50.3	-54.5	10.6	4.16e-03	0	62	0	796917760	62	6174
2026-01-01 07:19:21.86	6.34	28.86	-50.3	-54.5	10.6	5.15e-03	0	62	0	799014912	62	6195
2026-01-01 07:19:22.82	6.05	28.79	-50.4	-54.8	10.3	4.68e-03	0	62	0	801112064	62	6394
2026-01-01 07:19:23.79	5.75	28.72	-49.8	-53.5	11.6	2.55e-03	0	61	0	803209216	62	5504
2026-01-01 07:19:24.75	5.47	28.65	-49.4	-52.8	12.4	3.46e-04	0	62	0	804257792	62	5072
2026-01-01 07:19:25.71	5.18	28.58	-49.4	-52.8	12.4	1.50e-04	0	62	0	806354944	61	5341
2026-01-01 07:19:26.67	4.89	28.51	-49.5	-52.8	12.4	1.51e-04	0	62	0	808452096	61	5354
2026-01-01 07:19:27.63	4.61	28.43	-49.3	-52.3	12.9	8.16e-05	0	62	0	809500672	61	5073
2026-01-01 07:19:28.59	4.33	28.36	-49.2	-52.1	13.1	4.04e-05	0	62	0	811597824	61	4951
2026-01-01 07:19:29.56	4.04	28.29	-49.0	-51.7	13.4	4.27e-05	0	62	0	813694976	61	4757
2026-01-01 07:19:30.52	3.76	28.21	-48.7	-51.2	14.0	3.00e-06	0	62	0	815792128	60	4748
2026-01-01 07:19:31.48	3.49	28.14	-48.5	-51.0	14.1	3.00e-06	0	62	0	816840704	60	4645
2026-01-01 07:19:32.44	3.21	28.06	-48.4	-50.9	14.3	7.00e-07	0	62	0	818937856	60	4546
2026-01-01 07:19:33.40	2.93	27.98	-48.4	-50.8	14.4	0.00e+00	0	62	0	821035008	59	4775
2026-01-01 07:19:34.36	2.66	27.91	-48.3	-50.5	14.7	1.50e-06	0	62	0	823132160	59	4625
2026-01-01 07:19:35.33	2.38	27.83	-48.6	-51.0	14.2	0.00e+00	0	62	0	824180736	59	4895
2026-01-01 07:19:36.30	2.11	27.75	-49.0	-51.8	13.3	9.10e-06	0	62	0	826277888	59	5399
2026-01-01 07:19:37.26	1.84	27.67	-49.2	-52.3	12.9	3.28e-05	0	61	0	828375040	60	5354
2026-01-01 07:19:38.22	1.57	27.59	-49.0	-52.0	13.4	4.88e-05	0	62	0	829423616	60	5197
2026-01-01 07:19:39.19	1.30	27.51	-49.1	-52.2	12.9	1.90e-05	0	62	0	831520768	60	5308
2026-01-01 07:19:40.15	1.03	27.43	-48.5	-50.9	14.2	2.20e-06	0	62	0	833617920	60	4581
2026-01-01 07:19:41.11	0.76	27.35	-48.1	-50.3	14.8	0.00e+00	0	62	0	835715072	59	4525
2026-01-01 07:19:42.07	0.50	27.27	-48.1	-50.4	14.8	0.00e+00	0	62	0	836763648	59	4567
2026-01-01 07:19:43.04	0.24	27.19	-48.5	-51.1	14.1	0.00e+00	0	62	0	838860800	59	4932
2026-01-01 07:19:44.00	359.97	27.11	-49.6	-53.0	12.1	1.22e-05	0	62	0	840957952	60	5837
2026-01-01 07:19:44.96	359.71	27.03	-49.8	-53.4	11.8	5.60e-04	0	62	0	843055104	61	5779
2026-01-01 07:19:45.92	359.46	26.94	-49.7	-53.3	11.8	5.77e-04	0	62	0	844103680	61	5698
2026-01-01 07:19:46.89	359.20	26.86	-49.6	-53.0	12.1	1.89e-04	0	62	0	846200832	61	5490
2026-01-01 07:19:47.85	358.94	26.78	-49.3	-52.6	12.6	1.54e-04	0	62	0	848297984	61	5256
2026-01-01 07:19:48.82	358.68	26.69	-49.0	-52.0	13.1	5.72e-05	0	62	0	849346560	61	4876
2026-01-01 07:19:49.78	358.43	26.61	-48.6	-51.3	13.9	3.00e-06	0	62	0	851443712	60	4783
2026-01-01 07:19:50.74	358.18	26.52	-48.4	-50.9	14.3	1.50e-06	0	62	0	853540864	59	4856
2026-01-01 07:19:51.71	357.93	26.44	-48.5	-50.9	14.3	7.00e-07	0	62	0	855638016	59	4839
2026-01-01 07:19:52.67	357.68	26.35	-48.6	-51.1	14.1	0.00e+00	0	62	0	856686592	59	4936
2026-01-01 07:19:53.63	357.43	26.27	-48.6	-51.1	14.1	1.50e-06	0	62	0	858783744	59	4945
2026-01-01 07:19:54.59	357.18	26.18	-48.3	-50.7	14.5	1.50e-06	0	62	0	860880896	59	4738
2026-01-01 07:19:55.55	356.94	26.10	-47.8	-49.8	15.3	0.00e+00	0	62	0	861929472	58	4541
2026-01-01 07:19:56.52	356.69	26.01	-47.2	-49.0	16.2	0.00e+00	0	62	0	864026624	57	4362
2026-01-01 07:19:57.48	356.45	25.92	-46.7	-48.3	16.8	0.00e+00	0	62	0	866123776	56	4261
2026-01-01 07:19:58.45	356.21	25.83	-46.6	-48.2	16.9	0.00e+00	0	62	0	868220928	56	4210
2026-01-01 07:19:59.41	355.97	25.75	-46.7	-48.3	16.8	0.00e+00	0	62	0	869269504	56	4256
2026-01-01 07:20:00.38	355.73	25.66	-46.8	-48.5	16.6	0.00e+00	0	62	0	871366656	56	4354
2026-01-01 07:20:01.34	355.49	25.57	-47.0	-48.7	16.5	0.00e+00	0	62	0	873463808	56	4446
2026-01-01 07:20:02.31	355.25	25.48	-46.8	-48.4	16.7	0.00e+00	0	62	0	875560960	56	4309
2026-01-01 07:20:03.27	355.02	25.39	-46.6	-48.2	16.9	0.00e+00	0	62	0	876609536	56	4220
2026-01-01 07:20:04.24	354.78	25.31	-46.5	-48.0	17.1	0.00e+00	0	62	0	878706688	56	4138
2026-01-01 07:20:05.20	354.55	25.22	-46.5	-48.1	17.0	0.00e+00	0	62	0	880803840	56	4161
2026-01-01 07:20:06.17	354.32	25.13	-46.8	-48.5	16.7	0.00e+00	0	62	0	881852416	56	4345
2026-01-01 07:20:07.13	354.09	25.04	-46.8	-48.5	16.6	0.00e+00	0	62	0	883949568	56	4373
2026-01-01 07:20:08.09	353.86	24.95	-46.9	-48.7	16.5	0.00e+00	0	62	0	886046720	56	4443
2026-01-01 07:20:09.06	353.63	24.86	-47.2	-49.2	15.9	0.00e+00	0	62	0	888143872	56	4724
2026-01-01 07:20:10.02	353.41	24.77	-47.1	-49.0	16.1	0.00e+00	0	62	0	889192448	56	4626
2026-01-01 07:20:10.98	353.19	24.68	-47.0	-48.8	16.2	0.00e+00	0	62	0	891289600	56	4542
2026-01-01 07:20:11.94	352.96	24.59	-47.1	-48.9	16.2	0.00e+00	0	62	0	893386752	56	4571
2026-01-01 07:20:12.91	352.74	24.50	-46.9	-48.6	16.3	0.00e+00	0	62	0	894435328	56	4434
2026-01-01 07:20:13.87	352.52	24.41	-46.9	-48.7	16.4	0.00e+00	0	62	0	896532480	56	4455
2026-01-01 07:20:14.83	352.30	24.32	-46.9	-48.7	16.4	0.00e+00	0	62	0	898629632	56	4464
2026-01-01 07:20:15.79	352.08	24.23	-46.9	-48.6	16.5	0.00e+00	0	62	0	900726784	56	4421
2026-01-01 07:20:16.75	351.87	24.14	-46.8	-48.5	16.6	0.00e+00	0	62	0	901775360	56	4371
2026-01-01 07:20:17.71	351.65	24.05	-46.6	-48.3	16.8	0.00e+00	0	62	0	903872512	56	4255
2026-01-01 07:20:18.68	351.44	23.95	-46.2	-47.7	17.2	0.00e+00	0	62	0	905969664	55	4239
2026-01-01 07:20:19.64	351.23	23.86	-46.2	-47.7	17.3	0.00e+00	0	62	0	908066816	55	4198
2026-01-01 07:20:20.60	351.01	23.77	-46.1	-47.5	17.5	0.00e+00	0	62	0	909115392	55	4110
2026-01-01 07:20:21.57	350.80	23.68	-46.0	-47.4	17.5	0.00e+00	0	62	0	911212544	55	4078
2026-01-01 07:20:22.53	350.59	23.59	-45.8	-47.3	17.7	0.00e+00	0	62	0	913309696	54	4243
2026-01-01 07:20:23.50	350.38	23.50	-45.5	-46.7	18.2	0.00e+00	0	62	0	914358272	54	3984
2026-01-01 07:20:24.46	350.18	23.41	-45.4	-46.7	18.2	0.00e+00	0	62	0	916455424	54	3979
2026-01-01 07:20:25.42	349.97	23.31	-45.8	-47.1	17.8	0.00e+00	0	62	0	918552576	54	4184
2026-01-01 07:20:26.39	349.77	23.22	-46.0	-47.5	17.4	0.00e+00	0	62	0	920649728	54	4384
2026-01-01 07:20:27.35	349.57	23.13	-46.4	-48.0	17.0	0.00e+00	0	62	0	921698304	54	4607
2026-01-01 07:20:28.32	349.36	23.04	-46.6	-48.3	16.7	0.00e+00	0	62	0	923795456	55	4496
2026-01-01 07:20:29.28	349.16	22.95	-47.0	-48.7	16.2	0.00e+00	0	62	0	925892608	55	4739
2026-01-01 07:20:30.25	348.96	22.85	-47.1	-48.9	16.1	0.00e+00	0	62	0	927989760	56	4588
2026-01-01 07:20:31.22	348.76	22.76	-46.8	-48.5	16.6	0.00e+00	0	62	0	929038336	56	4344
2026-01-01 07:20:32.18	348.57	22.67	-46.6	-48.1	16.9	0.00e+00	0	62	0	931135488	56	4190
2026-01-01 07:20:33.14	348.37	22.58	-46.5	-48.0	17.0	0.00e+00	0	62	0	933232640	56	4124
2026-01-01 07:20:34.11	348.17	22.48	-46.6	-48.2	16.9	0.00e+00	0	62	0	934281216	56	4197
2026-01-01 07:20:35.07	347.98	22.39	-46.3	-47.9	17.1	0.00e+00	0	62	0	936378368	55	4315
2026-01-01 07:20:36.04	347.79	22.30	-46.5	-48.1	16.8	0.00e+00	0	62	0	938475520	55	4439
2026-01-01 07:20:37.00	347.60	22.21	-46.8	-48.5	16.4	0.00e+00	0	62	0	940572672	55	4650
2026-01-01 07:20:37.96	347.41	22.11	-46.6	-48.2	16.8	0.00e+00	0	62	0	941621248	55	4469
2026-01-01 07:20:38.93	347.22	22.02	-46.4	-48.0	16.9	0.00e+00	0	62	0	943718400	55	4382
2026-01-01 07:20:39.89	347.03	21.93	-46.5	-48.2	16.7	0.00e+00	0	62	0	945815552	55	4465
2026-01-01 07:20:40.85	346.85	21.84	-46.4	-48.1	16.8	0.00e+00	0	62	0	946864128	55	4411
2026-01-01 07:20:41.82	346.66	21.74	-46.5	-48.2	16.7	0.00e+00	0	62	0	948961280	55	4455
2026-01-01 07:20:42.78	346.47	21.65	-46.5	-48.2	16.8	0.00e+00	0	62	0	951058432	55	4442
2026-01-01 07:20:43.74	346.29	21.56	-46.6	-48.2	16.6	0.00e+00	0	62	0	953155584	55	4489
2026-01-01 07:20:44.70	346.11	21.47	-46.7	-48.4	16.5	0.00e+00	0	62	0	954204160	55	4567
2026-01-01 07:20:45.67	345.93	21.37	-46.6	-48.3	16.7	0.00e+00	0	62	0	956301312	55	4496
2026-01-01 07:20:46.63	345.75	21.28	-46.8	-48.6	16.4	0.00e+00	0	62	0	958398464	55	4691
2026-01-01 07:20:47.59	345.57	21.19	-46.5	-48.1	16.8	0.00e+00	0	62	0	960495616	55	4438
2026-01-01 07:20:48.56	345.39	21.10	-46.3	-47.9	17.0	0.00e+00	0	62	0	961544192	55	4295
2026-01-01 07:20:49.53	345.21	21.01	-46.4	-47.9	16.9	0.00e+00	0	62	0	963641344	55	4328
2026-01-01 07:20:50.49	345.04	20.91	-46.6	-48.2	16.7	0.00e+00	0	62	0	965738496	55	4478
2026-01-01 07:20:51.46	344.86	20.82	-46.8	-48.5	16.4	0.00e+00	0	62	0	966787072	55	4634
2026-01-01 07:20:52.42	344.69	20.73	-47.4	-49.3	15.7	0.00e+00	0	62	0	968884224	56	4767
2026-01-01 07:20:53.39	344.52	20.64	-47.7	-49.8	15.2	0.00e+00	0	62	0	970981376	57	4772
2026-01-01 07:20:54.35	344.35	20.55	-47.5	-49.6	15.4	0.00e+00	0	62	0	973078528	57	4659
2026-01-01 07:20:55.31	344.18	20.45	-47.6	-49.6	15.4	0.00e+00	0	62	0	974127104	57	4688
2026-01-01 07:20:56.29	344.00	20.36	-47.7	-49.7	15.2	0.00e+00	0	62	0	976224256	57	4753
2026-01-01 07:20:57.26	343.83	20.27	-47.6	-49.7	15.3	0.00e+00	0	62	0	978321408	57	4707
2026-01-01 07:20:58.22	343.67	20.18	-47.3	-49.1	15.8	0.00e+00	0	62	0	979369984	57	4438
2026-01-01 07:20:59.18	343.50	20.09	-46.9	-48.7	16.2	0.00e+00	0	62	0	981467136	56	4448
2026-01-01 07:21:00.15	343.33	19.99	-46.6	-48.3	16.5	0.00e+00	0	62	0	983564288	56	4276
2026-01-01 07:21:01.11	343.17	19.90	-46.4	-48.1	16.7	0.00e+00	0	62	0	985661440	56	4162
2026-01-01 07:21:02.08	343.01	19.81	-46.9	-48.7	16.1	0.00e+00	0	62	0	986710016	56	4460
2026-01-01 07:21:03.04	342.85	19.72	-46.9	-48.7	15.9	0.00e+00	0	62	0	988807168	56	4493
2026-01-01 07:21:04.00	342.68	19.63	-47.5	-49.5	15.2	0.00e+00	0	62	0	990904320	56	4919
2026-01-01 07:21:04.96	342.52	19.54	-47.5	-49.6	14.9	0.00e+00	0	62	0	993001472	56	4970
2026-01-01 07:21:05.93	342.36	19.45	-48.2	-50.8	13.8	1.50e-06	0	62	0	994050048	58	5058
2026-01-01 07:21:06.89	342.21	19.36	-48.8	-52.0	12.4	3.05e-05	0	62	0	996147200	59	5471
2026-01-01 07:21:07.86	342.05	19.27	-49.4	-53.4	10.8	4.74e-04	0	62	0	998244352	60	6107
2026-01-01 07:21:08.82	341.89	19.18	-49.8	-54.6	9.4	1.28e-02	0	62	0	999292928	61	6625
2026-01-01 07:21:09.79	341.74	19.08	-49.9	-55.1	8.8	2.22e-02	0	62	0	1001390080	61	7019
2026-01-01 07:21:10.75	341.58	18.99	-50.2	-55.9	8.0	4.83e-02	0	62	0	1003487232	62	7283
2026-01-01 07:21:11.71	341.43	18.90	-50.1	-56.0	7.9	8.26e-02	0	62	0	1005584384	62	7316
2026-01-01 07:21:12.68	341.27	18.81	-49.8	-55.5	8.2	5.62e-02	0	62	0	1006632960	62	6937
2026-01-01 07:21:13.65	341.12	18.72	-49.8	-55.2	8.5	4.84e-02	0	62	0	1008730112	62	6680
2026-01-01 07:21:14.61	340.97	18.63	-49.6	-54.9	8.8	3.65e-02	0	62	0	1010827264	62	6455
2026-01-01 07:21:15.58	340.82	18.54	-49.5	-54.7	8.9	3.48e-02	0	62	0	1012924416	62	6312
2026-01-01 07:21:16.55	340.67	18.45	-49.5	-54.2	9.6	1.89e-02	0	62	0	1013972992	62	5970
2026-01-01 07:21:17.51	340.52	18.36	-49.3	-53.6	10.2	1.15e-02	0	62	0	1016070144	61	5898
2026-01-01 07:21:18.47	340.38	18.27	-48.9	-52.6	11.4	1.53e-03	0	62	0	1018167296	60	5530
2026-01-01 07:21:19.44	340.23	18.18	-48.8	-52.3	11.7	6.41e-04	0	62	0	1019215872	60	5367
2026-01-01 07:21:20.41	340.08	18.09	-48.8	-52.3	11.9	1.03e-03	0	62	0	1021313024	60	5350
2026-01-01 07:21:21.38	339.94	18.00	-48.5	-51.6	12.7	2.11e-04	0	62	0	1023410176	60	4953
2026-01-01 07:21:22.34	339.79	17.92	-48.2	-50.9	13.6	1.06e-05	0	62	0	1025507328	59	4835
2026-01-01 07:21:23.30	339.65	17.83	-47.8	-50.2	14.4	7.00e-07	0	62	0	1026555904	58	4713
2026-01-01 07:21:24.27	339.51	17.74	-47.5	-49.7	15.0	7.00e-07	0	62	0	1028653056	58	4461
2026-01-01 07:21:25.23	339.37	17.65	-47.2	-49.2	15.5	0.00e+00	0	62	0	1030750208	57	4474
2026-01-01 07:21:26.19	339.23	17.56	-47.4	-49.5	15.2	0.00e+00	0	62	0	1032847360	57	4629
2026-01-01 07:21:27.16	339.09	17.47	-47.4	-49.4	15.4	0.00e+00	0	62	0	1033895936	57	4596
2026-01-01 07:21:28.13	338.95	17.38	-47.5	-49.6	15.2	0.00e+00	0	62	0	1035993088	57	4671
2026-01-01 07:21:29.08	338.81	17.30	-47.2	-49.1	15.7	0.00e+00	0	62	0	1038090240	57	4423
2026-01-01 07:21:30.05	338.67	17.21	-46.9	-48.7	16.1	0.00e+00	0	62	0	1039138816	57	4240
2026-01-01 07:21:31.01	338.54	17.12	-46.9	-48.8	16.0	0.00e+00	0	62	0	1041235968	56	4528
2026-01-01 07:21:31.98	338.40	17.03	-47.1	-49.0	15.9	0.00e+00	0	62	0	1043333120	56	4618
2026-01-01 07:21:32.94	338.27	16.95	-47.6	-49.7	15.2	0.00e+00	0	62	0	1045430272	57	4726
2026-01-01 07:21:33.91	338.13	16.86	-47.3	-49.2	15.6	7.00e-07	0	62	0	1046478848	57	4491
2026-01-01 07:21:34.87	338.00	16.77	-47.2	-49.2	15.7	0.00e+00	0	62	0	1048576000	57	4465
2026-01-01 07:21:35.84	337.86	16.68	-47.4	-49.4	15.5	0.00e+00	0	62	0	1050673152	57	4585
2026-01-01 07:21:36.80	337.73	16.60	-47.4	-49.4	15.5	0.00e+00	0	62	0	1052770304	57	4568
2026-01-01 07:21:37.76	337.60	16.51	-47.7	-49.8	15.1	0.00e+00	0	62	0	1053818880	57	4804
2026-01-01 07:21:38.73	337.47	16.43	-47.4	-49.4	15.5	0.00e+00	0	62	0	1055916032	57	4561
2026-01-01 07:21:39.69	337.34	16.34	-47.6	-49.6	15.4	0.00e+00	0	62	0	1058013184	57	4658
2026-01-01 07:21:40.66	337.21	16.25	-47.6	-49.6	15.3	0.00e+00	0	62	0	1059061760	57	4703
2026-01-01 07:21:41.62	337.09	16.17	-47.5	-49.5	15.4	0.00e+00	0	62	0	1061158912	57	4645
2026-01-01 07:21:42.58	336.96	16.08	-47.5	-49.6	15.3	0.00e+00	0	62	0	1063256064	57	4678
2026-01-01 07:21:43.55	336.83	15.99	-47.7	-49.8	15.2	0.00e+00	0	62	0	1065353216	57	4772
2026-01-01 07:21:44.51	336.71	15.91	-47.7	-49.8	15.2	0.00e+00	0	62	0	1066401792	57	4765
2026-01-01 07:21:45.47	336.58	15.82	-47.4	-49.3	15.6	0.00e+00	0	62	0	1068498944	57	4535
2026-01-01 07:21:46.43	336.46	15.74	-47.2	-49.1	15.9	0.00e+00	0	62	0	1070596096	57	4408
2026-01-01 07:21:47.40	336.34	15.65	-47.2	-49.1	15.8	0.00e+00	0	62	0	1071644672	57	4429
2026-01-01 07:21:48.36	336.21	15.57	-47.4	-49.4	15.6	0.00e+00	0	62	0	1073741824	57	4548
2026-01-01 07:21:49.33	336.09	15.48	-47.9	-50.2	14.8	0.00e+00	0	62	0	1075838976	57	4992
2026-01-01 07:21:50.29	335.97	15.40	-48.0	-50.4	14.6	0.00e+00	0	62	0	1077936128	57	5105
2026-01-01 07:21:51.25	335.85	15.32	-48.4	-51.0	14.0	7.00e-07	0	62	0	1078984704	58	5176
2026-01-01 07:21:52.21	335.73	15.23	-48.6	-51.2	13.7	8.30e-06	0	62	0	1081081856	59	5011
2026-01-01 07:21:53.17	335.61	15.15	-48.8	-51.7	13.2	1.83e-05	0	62	0	1083179008	59	5333
2026-01-01 07:21:54.13	335.50	15.06	-48.9	-51.9	13.1	2.97e-05	0	62	0	1084227584	59	5420
2026-01-01 07:21:55.10	335.38	14.98	-48.8	-51.6	13.4	9.10e-06	0	62	0	1086324736	59	5243
2026-01-01 07:21:56.07	335.26	14.90	-48.8	-51.5	13.4	1.44e-05	0	62	0	1088421888	59	5199
2026-01-01 07:21:57.03	335.14	14.81	-48.1	-50.5	14.4	6.80e-06	0	62	0	1090519040	59	4649
2026-01-01 07:21:57.99	335.03	14.73	-47.8	-49.9	15.0	0.00e+00	0	62	0	1091567616	58	4590
2026-01-01 07:21:58.95	334.91	14.65	-47.4	-49.4	15.5	0.00e+00	0	62	0	1093664768	58	4313
2026-01-01 07:21:59.92	334.80	14.56	-47.1	-48.9	16.0	0.00e+00	0	62	0	1095761920	57	4336
2026-01-01 07:22:00.88	334.68	14.48	-47.1	-48.9	16.0	0.00e+00	0	62	0	1097859072	57	4330
2026-01-01 07:22:01.84	334.57	14.40	-46.9	-48.8	16.1	0.00e+00	0	62	0	1098907648	57	4246
2026-01-01 07:22:02.81	334.46	14.32	-47.1	-49.0	15.9	0.00e+00	0	62	0	1101004800	56	4636
2026-01-01 07:22:03.77	334.35	14.23	-47.1	-49.0	16.0	0.00e+00	0	62	0	1103101952	56	4599
2026-01-01 07:22:04.73	334.24	14.15	-47.4	-49.3	15.6	0.00e+00	0	62	0	1104150528	56	4798
2026-01-01 07:22:05.70	334.13	14.07	-47.5	-49.6	15.3	0.00e+00	0	62	0	1106247680	57	4663
2026-01-01 07:22:06.67	334.01	13.99	-47.7	-49.9	15.0	0.00e+00	0	62	0	1108344832	57	4860
2026-01-01 07:22:07.63	333.91	13.91	-48.0	-50.3	14.7	0.00e+00	0	62	0	1110441984	57	5056
2026-01-01 07:22:08.59	333.80	13.82	-48.3	-50.7	14.3	0.00e+00	0	62	0	1111490560	58	5017
2026-01-01 07:22:09.56	333.69	13.74	-48.3	-50.9	14.1	3.00e-06	0	62	0	1113587712	58	5116
2026-01-01 07:22:10.52	333.58	13.66	-48.6	-51.3	13.7	3.00e-06	0	62	0	1115684864	59	5049
2026-01-01 07:22:11.48	333.48	13.58	-48.9	-51.6	13.3	1.37e-05	0	62	0	1116733440	59	5279
2026-01-01 07:22:12.44	333.37	13.50	-48.9	-51.8	13.1	2.59e-05	0	62	0	1118830592	59	5371
2026-01-01 07:22:13.41	333.26	13.42	-48.8	-51.6	13.3	3.20e-05	0	62	0	1120927744	59	5263
2026-01-01 07:22:14.37	333.16	13.34	-48.8	-51.6	13.4	1.22e-05	0	62	0	1123024896	59	5244
2026-01-01 07:22:15.33	333.05	13.26	-48.7	-51.4	13.5	1.14e-05	0	62	0	1124073472	59	5156
2026-01-01 07:22:16.30	332.95	13.18	-48.8	-51.5	13.4	5.30e-06	0	62	0	1126170624	59	5208
2026-01-01 07:22:17.26	332.85	13.10	-48.9	-51.8	13.2	1.37e-05	0	62	0	1128267776	59	5358
2026-01-01 07:22:18.22	332.74	13.02	-48.9	-51.6	13.3	2.74e-05	0	62	0	1130364928	59	5269
2026-01-01 07:22:19.19	332.64	12.94	-48.7	-51.4	13.5	1.67e-05	0	62	0	1131413504	59	5138
2026-01-01 07:22:20.15	332.54	12.86	-48.7	-51.5	13.4	1.44e-05	0	62	0	1133510656	59	5201
2026-01-01 07:22:21.12	332.44	12.78	-49.1	-52.0	13.0	2.59e-05	0	62	0	1135607808	59	5491
2026-01-01 07:22:22.08	332.34	12.70	-49.0	-52.2	12.7	5.26e-05	0	62	0	1136656384	60	5313
2026-01-01 07:22:23.05	332.24	12.62	-48.9	-51.8	13.1	3.28e-05	0	62	0	1138753536	60	5066
2026-01-01 07:22:24.01	332.14	12.54	-49.1	-52.1	12.8	3.35e-05	0	62	0	1140850688	60	5261
2026-01-01 07:22:24.98	332.04	12.46	-49.1	-52.1	12.8	5.26e-05	0	62	0	1142947840	60	5231
2026-01-01 07:22:25.94	331.94	12.39	-48.9	-51.8	13.1	3.96e-05	0	62	0	1143996416	60	5077
2026-01-01 07:22:26.90	331.84	12.31	-48.8	-51.7	13.2	2.13e-05	0	62	0	1146093568	60	5031
2026-01-01 07:22:27.87	331.75	12.23	-49.0	-52.1	12.8	4.27e-05	0	62	0	1148190720	60	5236
2026-01-01 07:22:28.84	331.65	12.15	-49.1	-52.2	12.8	6.17e-05	0	62	0	1150287872	60	5292
2026-01-01 07:22:29.80	331.55	12.07	-49.3	-52.6	12.2	1.16e-04	0	62	0	1151336448	60	5590
2026-01-01 07:22:30.76	331.46	12.00	-49.1	-52.3	12.5	1.81e-04	0	62	0	1153433600	60	5397
2026-01-01 07:22:31.72	331.36	11.92	-48.9	-51.8	13.0	9.30e-05	0	62	0	1155530752	60	5083
2026-01-01 07:22:32.69	331.27	11.84	-48.8	-51.7	13.1	5.03e-05	0	62	0	1156579328	60	5040
2026-01-01 07:22:33.65	331.17	11.77	-48.7	-51.6	13.3	1.75e-05	0	62	0	1158676480	60	4928
2026-01-01 07:22:34.61	331.08	11.69	-48.6	-51.3	13.5	1.22e-05	0	62	0	1160773632	60	4809
2026-01-01 07:22:35.57	330.99	11.61	-48.4	-51.1	13.7	4.50e-06	0	62	0	1162870784	60	4667
2026-01-01 07:22:36.53	330.90	11.54	-48.4	-50.9	13.9	5.30e-06	0	62	0	1163919360	59	4855
2026-01-01 07:22:37.49	330.81	11.46	-48.3	-50.8	14.1	7.00e-07	0	62	0	1166016512	59	4795
2026-01-01 07:22:38.45	330.71	11.38	-48.2	-50.6	14.2	7.00e-07	0	62	0	1168113664	59	4689
2026-01-01 07:22:39.42	330.62	11.31	-48.0	-50.3	14.6	1.50e-06	0	62	0	1169162240	59	4508
2026-01-01 07:22:40.39	330.53	11.23	-48.0	-50.2	14.7	0.00e+00	0	62	0	1171259392	58	4719
2026-01-01 07:22:41.35	330.44	11.15	-47.7	-49.8	15.1	0.00e+00	0	62	0	1173356544	58	4513
2026-01-01 07:22:42.31	330.35	11.08	-47.7	-49.7	15.1	0.00e+00	0	62	0	1175453696	58	4491
2026-01-01 07:22:43.27	330.26	11.00	-47.7	-49.8	15.0	0.00e+00	0	62	0	1176502272	58	4541
2026-01-01 07:22:44.24	330.17	10.93	-47.9	-50.0	14.9	0.00e+00	0	62	0	1178599424	58	4641
2026-01-01 07:22:45.20	330.09	10.85	-47.9	-50.1	14.8	1.50e-06	0	62	0	1180696576	58	4662
2026-01-01 07:22:46.16	330.00	10.78	-47.9	-50.1	14.8	0.00e+00	0	62	0	1182793728	58	4666
2026-01-01 07:22:47.14	329.91	10.70	-48.1	-50.5	14.4	7.00e-07	0	62	0	1183842304	58	4876
2026-01-01 07:22:48.10	329.82	10.63	-48.1	-50.4	14.5	7.00e-07	0	62	0	1185939456	58	4818
2026-01-01 07:22:49.06	329.74	10.55	-48.4	-50.8	14.0	7.00e-07	0	62	0	1188036608	58	5093
2026-01-01 07:22:50.03	329.65	10.48	-48.5	-51.1	13.8	1.50e-06	0	62	0	1189085184	58	5249
2026-01-01 07:22:51.00	329.57	10.40	-48.6	-51.3	13.6	5.30e-06	0	62	0	1191182336	59	5054
2026-01-01 07:22:51.96	329.48	10.33	-48.8	-51.6	13.2	2.05e-05	0	62	0	1193279488	59	5243
2026-01-01 07:22:52.92	329.40	10.26	-48.9	-52.0	12.8	3.35e-05	0	62	0	1195376640	59	5470
2026-01-01 07:22:53.89	329.31	10.18	-49.0	-52.1	12.7	5.26e-05	0	62	0	1196425216	60	5220
2026-01-01 07:22:54.85	329.23	10.11	-49.1	-52.4	12.4	9.68e-05	0	62	0	1198522368	60	5414
2026-01-01 07:22:55.81	329.15	10.04	-49.2	-52.4	12.4	1.27e-04	0	62	0	1200619520	60	5424
2026-01-01 07:22:56.78	329.06	9.96	-49.3	-52.7	12.1	2.42e-04	0	62	0	1201668096	60	5618
2026-01-01 07:22:57.74	328.98	9.89	-49.4	-52.9	11.9	3.78e-04	0	62	0	1203765248	60	5726
2026-01-01 07:22:58.70	328.90	9.82	-49.3	-52.7	12.0	5.16e-04	0	62	0	1205862400	60	5654
