passes_logs/2026/01/01/R3.0SM8_Murmansk_STILSPACE/R3.0SM8_Murmansk_STILSPACE__20260101_055331_NOAA_20_JPSS-1_rec.log

#Pass ID: 20260101_055331_NOAA 20 (JPSS-1)
#Satellite: NOAA 20 (JPSS-1)
#Configuration: NOAA 20
#almurnet v.1.7.20240730
#Start time: 2026-01-01 05:53:31

#Version: 2.2.20231116
#Station: R3.0SM8_Murmansk_STILSPACE
#Location: 33.092731 lon 68.902999 lat
#TLE: 1 43013U 17073A   25365.45761817  .00000173  00000+0  10307-3 0  9993
#TLE: 2 43013  98.7620 301.5517 0001951  60.3814 299.7557 14.19531661420675

#Time	Az	El	Level	Level2	SNR	BER	BlckErr	Temp	State	Recorded	gain1	gain2
2026-01-01 05:53:31.24	72.84	3.00	-52.6	-66.4	3.8	1.49e+00	0	51	0	0	67	18230
2026-01-01 05:53:32.22	72.77	3.06	-52.6	-66.4	3.8	1.49e+00	0	51	104	0	68	17187
2026-01-01 05:53:33.21	72.70	3.12	-52.5	-66.3	3.8	1.49e+00	0	51	104	0	68	17042
2026-01-01 05:53:34.18	72.64	3.18	-52.5	-66.3	3.8	1.49e+00	0	51	104	0	68	17037
2026-01-01 05:53:35.17	72.57	3.23	-52.4	-66.1	3.8	1.49e+00	0	51	104	0	67	17591
2026-01-01 05:53:36.15	72.51	3.29	-52.2	-66.0	3.8	1.49e+00	0	51	104	0	67	17422
2026-01-01 05:53:37.12	72.44	3.35	-52.0	-65.8	3.8	1.49e+00	0	51	104	0	67	17046
2026-01-01 05:53:38.10	72.37	3.41	-51.8	-65.6	3.8	1.49e+00	0	51	104	0	66	17508
2026-01-01 05:53:39.09	72.31	3.47	-51.7	-65.5	3.8	1.49e+00	0	51	104	0	66	17396
2026-01-01 05:53:40.06	72.24	3.52	-51.8	-65.5	3.8	1.49e+00	0	52	104	0	66	17471
2026-01-01 05:53:41.05	72.17	3.58	-51.8	-65.5	3.8	1.49e+00	0	52	104	0	66	17372
2026-01-01 05:53:42.03	72.11	3.64	-51.8	-65.5	3.8	1.49e+00	0	52	104	0	66	17365
2026-01-01 05:53:43.02	72.04	3.70	-51.7	-65.5	3.8	1.49e+00	0	52	104	0	66	17425
2026-01-01 05:53:43.99	71.97	3.76	-51.8	-65.5	3.8	1.49e+00	0	52	104	0	66	17420
2026-01-01 05:53:44.97	71.90	3.82	-51.7	-65.5	3.8	1.49e+00	0	52	104	0	66	17480
2026-01-01 05:53:45.95	71.83	3.88	-51.8	-65.5	3.8	1.49e+00	0	52	104	0	66	17425
2026-01-01 05:53:46.93	71.76	3.93	-51.8	-65.6	3.8	1.49e+00	0	52	104	0	66	17483
2026-01-01 05:53:47.91	71.69	3.99	-51.8	-65.6	3.8	1.49e+00	0	52	104	0	66	17486
2026-01-01 05:53:48.90	71.62	4.05	-51.7	-65.5	3.8	1.49e+00	0	52	104	0	66	17414
2026-01-01 05:53:49.88	71.55	4.11	-51.8	-65.5	3.8	1.49e+00	0	52	104	0	66	17411
2026-01-01 05:53:50.86	71.48	4.17	-51.7	-65.4	3.8	1.49e+00	0	52	104	0	66	17174
2026-01-01 05:53:51.84	71.41	4.23	-51.7	-65.3	3.8	1.49e+00	0	52	104	0	66	17073
2026-01-01 05:53:52.82	71.34	4.29	-51.7	-65.1	3.8	1.49e+00	0	52	104	0	66	16553
2026-01-01 05:53:53.80	71.27	4.35	-51.7	-64.8	3.8	1.49e+00	0	52	104	0	66	16008
2026-01-01 05:53:54.78	71.20	4.41	-51.7	-64.4	3.8	1.49e+00	0	53	104	0	66	15290
2026-01-01 05:53:55.76	71.13	4.47	-51.6	-63.8	3.8	1.49e+00	0	52	104	0	66	14231
2026-01-01 05:53:56.74	71.05	4.53	-51.6	-63.2	3.8	1.48e+00	0	53	104	0	66	13404
2026-01-01 05:53:57.72	70.98	4.59	-51.5	-62.4	3.9	1.46e+00	0	53	104	0	66	12127
2026-01-01 05:53:58.70	70.91	4.65	-51.5	-61.6	4.3	1.38e+00	26	53	0	0	66	11082
2026-01-01 05:53:59.67	70.84	4.71	-51.4	-60.9	4.6	1.01e+00	0	53	0	1048576	66	10193
2026-01-01 05:54:00.64	70.76	4.77	-51.3	-59.9	5.0	7.93e-01	0	53	0	3145728	65	9714
2026-01-01 05:54:01.60	70.69	4.82	-51.1	-59.3	5.4	5.88e-01	0	53	0	5242880	65	8985
2026-01-01 05:54:02.58	70.62	4.89	-51.1	-58.7	5.8	4.54e-01	0	53	0	6291456	65	8434
2026-01-01 05:54:03.55	70.54	4.94	-51.0	-58.4	6.0	3.46e-01	0	53	0	8388608	65	8146
2026-01-01 05:54:04.53	70.47	5.01	-51.0	-58.1	6.3	2.77e-01	0	53	0	10485760	65	7851
2026-01-01 05:54:05.49	70.40	5.06	-50.9	-57.9	6.4	2.52e-01	0	53	0	12582912	65	7706
2026-01-01 05:54:06.46	70.32	5.12	-50.9	-58.0	6.4	2.47e-01	0	53	0	13631488	64	8192
2026-01-01 05:54:07.43	70.25	5.18	-51.0	-58.2	6.2	2.52e-01	0	53	0	15728640	64	8376
2026-01-01 05:54:08.40	70.17	5.24	-51.0	-57.9	6.4	2.54e-01	0	53	0	17825792	64	8136
2026-01-01 05:54:09.37	70.10	5.30	-50.9	-57.8	6.6	2.20e-01	0	53	0	18874368	64	8042
2026-01-01 05:54:10.34	70.02	5.36	-50.9	-57.8	6.5	2.47e-01	0	53	0	20971520	64	8047
2026-01-01 05:54:11.31	69.94	5.43	-51.0	-58.1	6.4	2.07e-01	0	54	0	23068672	64	8287
2026-01-01 05:54:12.28	69.87	5.49	-51.1	-58.6	5.9	2.99e-01	0	53	0	25165824	64	8855
2026-01-01 05:54:13.25	69.79	5.55	-50.9	-57.8	6.6	2.50e-01	0	54	0	26214400	64	8003
2026-01-01 05:54:14.21	69.71	5.61	-50.7	-56.9	7.3	1.38e-01	0	54	0	28311552	64	7285
2026-01-01 05:54:15.18	69.64	5.67	-50.5	-56.0	8.2	7.64e-02	0	54	0	30408704	64	6553
2026-01-01 05:54:16.15	69.56	5.73	-50.4	-55.4	8.9	4.24e-02	0	54	0	32505856	63	6493
2026-01-01 05:54:17.12	69.48	5.79	-50.2	-55.1	9.3	2.35e-02	0	54	0	33554432	63	6217
2026-01-01 05:54:18.09	69.40	5.85	-50.0	-54.6	9.8	1.38e-02	0	54	0	35651584	63	5882
2026-01-01 05:54:19.06	69.32	5.91	-49.9	-54.2	10.3	6.95e-03	0	54	0	37748736	62	5931
2026-01-01 05:54:20.03	69.24	5.97	-49.8	-54.1	10.4	5.13e-03	0	54	0	38797312	62	5900
2026-01-01 05:54:21.00	69.17	6.03	-49.7	-53.9	10.6	4.75e-03	0	54	0	40894464	62	5725
2026-01-01 05:54:21.96	69.09	6.09	-49.5	-53.4	11.0	2.05e-03	0	54	0	42991616	62	5453
2026-01-01 05:54:22.93	69.01	6.16	-49.5	-53.3	11.2	1.40e-03	0	54	0	45088768	62	5372
2026-01-01 05:54:23.90	68.93	6.22	-49.4	-53.2	11.3	1.52e-03	0	54	0	46137344	62	5294
2026-01-01 05:54:24.87	68.84	6.28	-49.4	-53.0	11.4	1.01e-03	0	54	0	48234496	61	5522
2026-01-01 05:54:25.84	68.76	6.34	-49.5	-53.3	11.2	1.19e-03	0	54	0	50331648	61	5658
2026-01-01 05:54:26.80	68.68	6.40	-49.5	-53.2	11.3	1.52e-03	0	54	0	52428800	61	5655
2026-01-01 05:54:27.77	68.60	6.46	-49.4	-53.0	11.5	9.28e-04	0	54	0	53477376	61	5466
2026-01-01 05:54:28.74	68.52	6.53	-49.2	-52.6	11.9	5.93e-04	0	54	0	55574528	61	5268
2026-01-01 05:54:29.71	68.44	6.59	-49.3	-52.8	11.8	5.38e-04	0	54	0	57671680	61	5365
2026-01-01 05:54:30.68	68.35	6.65	-49.3	-52.8	11.7	4.79e-04	0	54	0	59768832	61	5380
2026-01-01 05:54:31.64	68.27	6.71	-49.4	-53.0	11.5	5.11e-04	0	55	0	60817408	61	5505
2026-01-01 05:54:32.61	68.19	6.77	-49.4	-52.9	11.7	8.38e-04	0	55	0	62914560	61	5440
2026-01-01 05:54:33.59	68.10	6.84	-49.2	-52.6	12.0	3.70e-04	0	55	0	65011712	61	5229
2026-01-01 05:54:34.55	68.02	6.90	-49.1	-52.4	12.2	2.77e-04	0	55	0	67108864	61	5145
2026-01-01 05:54:35.52	67.93	6.96	-49.2	-52.5	12.1	2.82e-04	0	55	0	68157440	61	5187
2026-01-01 05:54:36.49	67.85	7.02	-49.2	-52.5	12.1	3.22e-04	0	55	0	70254592	61	5188
2026-01-01 05:54:37.46	67.76	7.09	-49.2	-52.6	12.0	3.00e-04	0	55	0	72351744	61	5268
2026-01-01 05:54:38.43	67.68	7.15	-49.2	-52.8	11.9	3.50e-04	0	55	0	73400320	61	5343
2026-01-01 05:54:39.40	67.59	7.21	-49.3	-52.7	11.9	4.32e-04	0	55	0	75497472	61	5325
2026-01-01 05:54:40.36	67.50	7.28	-49.1	-52.6	12.0	3.41e-04	0	55	0	77594624	61	5224
2026-01-01 05:54:41.33	67.42	7.34	-49.1	-52.7	12.0	3.53e-04	0	55	0	79691776	61	5282
2026-01-01 05:54:42.30	67.33	7.40	-49.3	-53.0	11.6	4.35e-04	0	55	0	80740352	61	5492
2026-01-01 05:54:43.27	67.24	7.47	-49.4	-53.2	11.5	7.16e-04	0	55	0	82837504	61	5601
2026-01-01 05:54:44.24	67.15	7.53	-49.4	-52.8	11.8	5.43e-04	0	55	0	84934656	61	5398
2026-01-01 05:54:45.22	67.06	7.59	-49.3	-52.8	11.9	3.39e-04	0	55	0	87031808	61	5342
2026-01-01 05:54:46.18	66.97	7.66	-49.4	-53.0	11.6	5.42e-04	0	55	0	88080384	61	5522
2026-01-01 05:54:47.15	66.88	7.72	-49.3	-52.8	11.9	4.99e-04	0	55	0	90177536	61	5341
2026-01-01 05:54:48.12	66.79	7.78	-49.2	-52.5	12.2	2.70e-04	0	55	0	92274688	61	5195
2026-01-01 05:54:49.09	66.70	7.85	-49.1	-52.3	12.4	1.99e-04	0	56	0	93323264	61	5083
2026-01-01 05:54:50.05	66.61	7.91	-49.2	-52.4	12.3	1.75e-04	0	56	0	95420416	61	5130
2026-01-01 05:54:51.02	66.52	7.98	-49.3	-52.7	12.1	2.23e-04	0	55	0	97517568	61	5283
2026-01-01 05:54:51.99	66.43	8.04	-49.5	-53.0	11.8	4.50e-04	0	55	0	99614720	61	5467
2026-01-01 05:54:52.96	66.34	8.10	-49.4	-52.8	11.9	3.83e-04	0	55	0	100663296	61	5350
2026-01-01 05:54:53.93	66.25	8.17	-49.3	-52.7	12.0	3.49e-04	0	56	0	102760448	61	5318
2026-01-01 05:54:54.90	66.15	8.23	-49.3	-52.7	12.1	3.23e-04	0	56	0	104857600	61	5284
2026-01-01 05:54:55.86	66.06	8.30	-49.4	-52.7	12.0	3.02e-04	0	56	0	106954752	61	5336
2026-01-01 05:54:56.83	65.97	8.36	-49.4	-52.8	12.0	2.75e-04	0	56	0	108003328	61	5351
2026-01-01 05:54:57.80	65.87	8.43	-49.4	-52.8	11.9	3.76e-04	0	56	0	110100480	61	5400
2026-01-01 05:54:58.77	65.78	8.49	-49.6	-53.2	11.5	5.59e-04	0	56	0	112197632	61	5619
2026-01-01 05:54:59.74	65.68	8.56	-49.5	-53.0	11.8	7.40e-04	0	56	0	113246208	61	5465
2026-01-01 05:55:00.71	65.59	8.62	-49.3	-52.6	12.2	3.03e-04	0	56	0	115343360	61	5226
2026-01-01 05:55:01.68	65.49	8.69	-49.2	-52.3	12.4	1.81e-04	0	56	0	117440512	61	5079
2026-01-01 05:55:02.64	65.40	8.75	-48.9	-52.1	12.7	9.46e-05	0	56	0	119537664	61	4941
2026-01-01 05:55:03.62	65.30	8.82	-48.9	-51.9	12.9	7.62e-05	0	56	0	120586240	60	5159
2026-01-01 05:55:04.59	65.20	8.88	-49.0	-52.0	12.8	5.49e-05	0	56	0	122683392	60	5180
2026-01-01 05:55:05.56	65.10	8.95	-49.0	-52.0	12.8	6.40e-05	0	56	0	124780544	60	5188
2026-01-01 05:55:06.52	65.01	9.01	-49.1	-52.1	12.7	6.94e-05	0	56	0	126877696	60	5243
2026-01-01 05:55:07.49	64.91	9.08	-49.0	-52.1	12.7	8.92e-05	0	56	0	127926272	60	5231
2026-01-01 05:55:08.45	64.81	9.14	-49.0	-52.0	12.8	5.41e-05	0	56	0	130023424	60	5202
2026-01-01 05:55:09.42	64.71	9.21	-48.9	-51.8	13.0	4.65e-05	0	56	0	132120576	60	5095
2026-01-01 05:55:10.39	64.61	9.27	-48.8	-51.7	13.2	2.36e-05	0	56	0	134217728	60	4997
2026-01-01 05:55:11.36	64.51	9.34	-48.8	-51.6	13.2	2.36e-05	0	56	0	135266304	60	4978
2026-01-01 05:55:12.33	64.41	9.41	-48.9	-51.7	13.1	2.82e-05	0	57	0	137363456	60	5033
2026-01-01 05:55:13.30	64.31	9.47	-48.9	-51.8	13.1	3.58e-05	0	56	0	139460608	60	5062
2026-01-01 05:55:14.27	64.21	9.54	-49.0	-52.0	12.9	2.89e-05	0	56	0	140509184	60	5184
2026-01-01 05:55:15.24	64.10	9.61	-49.1	-52.1	12.7	7.85e-05	0	56	0	142606336	60	5254
2026-01-01 05:55:16.21	64.00	9.67	-48.9	-51.8	13.0	4.04e-05	0	57	0	144703488	60	5099
2026-01-01 05:55:17.18	63.90	9.74	-48.8	-51.6	13.3	1.75e-05	0	57	0	146800640	60	4937
2026-01-01 05:55:18.15	63.79	9.81	-48.8	-51.6	13.3	2.36e-05	0	57	0	147849216	60	4931
2026-01-01 05:55:19.12	63.69	9.87	-48.8	-51.6	13.3	1.22e-05	0	57	0	149946368	60	4939
2026-01-01 05:55:20.09	63.58	9.94	-48.8	-51.6	13.3	1.90e-05	0	57	0	152043520	60	4968
2026-01-01 05:55:21.06	63.48	10.01	-48.9	-51.8	13.1	2.51e-05	0	57	0	154140672	60	5042
2026-01-01 05:55:22.02	63.37	10.07	-48.9	-51.7	13.2	2.59e-05	0	57	0	155189248	60	5014
2026-01-01 05:55:22.99	63.27	10.14	-48.9	-51.7	13.2	2.36e-05	0	57	0	157286400	60	4995
2026-01-01 05:55:23.96	63.16	10.21	-48.9	-51.8	13.1	3.05e-05	0	57	0	159383552	60	5049
2026-01-01 05:55:24.93	63.05	10.27	-48.9	-51.7	13.1	1.98e-05	0	57	0	161480704	60	5032
2026-01-01 05:55:25.89	62.95	10.34	-49.0	-52.0	12.9	2.36e-05	0	57	0	162529280	60	5164
2026-01-01 05:55:26.86	62.84	10.41	-49.1	-52.1	12.8	4.57e-05	0	57	0	164626432	60	5234
2026-01-01 05:55:27.83	62.73	10.47	-49.1	-52.1	12.8	6.25e-05	0	57	0	166723584	60	5251
2026-01-01 05:55:28.80	62.62	10.54	-49.2	-52.4	12.6	1.17e-04	0	57	0	168820736	60	5418
2026-01-01 05:55:29.77	62.51	10.61	-49.2	-52.2	12.7	1.04e-04	0	57	0	169869312	60	5331
2026-01-01 05:55:30.74	62.40	10.68	-49.1	-52.1	12.8	5.34e-05	0	57	0	171966464	60	5252
2026-01-01 05:55:31.72	62.29	10.75	-49.1	-52.0	12.9	4.95e-05	0	57	0	174063616	60	5197
2026-01-01 05:55:32.69	62.18	10.81	-49.1	-52.1	12.8	4.11e-05	0	57	0	175112192	60	5229
2026-01-01 05:55:33.66	62.06	10.88	-49.2	-52.2	12.7	6.86e-05	0	57	0	177209344	60	5319
2026-01-01 05:55:34.62	61.95	10.95	-49.0	-52.0	12.9	7.70e-05	0	57	0	179306496	60	5179
2026-01-01 05:55:35.60	61.84	11.02	-48.9	-51.7	13.2	3.35e-05	0	57	0	181403648	60	5028
2026-01-01 05:55:36.57	61.72	11.09	-48.9	-51.7	13.3	1.22e-05	0	57	0	182452224	60	4989
2026-01-01 05:55:37.54	61.61	11.15	-48.8	-51.6	13.3	1.75e-05	0	57	0	184549376	60	4953
2026-01-01 05:55:38.51	61.50	11.22	-48.7	-51.4	13.5	1.06e-05	0	57	0	186646528	60	4851
2026-01-01 05:55:39.48	61.38	11.29	-48.8	-51.4	13.5	9.10e-06	0	57	0	188743680	60	4869
2026-01-01 05:55:40.45	61.27	11.36	-48.8	-51.6	13.4	1.90e-05	0	57	0	189792256	60	4930
2026-01-01 05:55:41.42	61.15	11.43	-48.8	-51.6	13.3	1.60e-05	0	57	0	191889408	60	4962
2026-01-01 05:55:42.39	61.03	11.50	-48.8	-51.5	13.4	1.52e-05	0	57	0	193986560	60	4925
2026-01-01 05:55:43.36	60.91	11.57	-48.7	-51.4	13.6	9.90e-06	0	57	0	196083712	60	4840
2026-01-01 05:55:44.33	60.80	11.63	-48.7	-51.3	13.7	8.30e-06	0	57	0	197132288	60	4791
2026-01-01 05:55:45.30	60.68	11.70	-48.7	-51.4	13.7	6.10e-06	0	57	0	199229440	60	4831
2026-01-01 05:55:46.27	60.56	11.77	-48.8	-51.5	13.5	7.60e-06	0	57	0	201326592	60	4880
2026-01-01 05:55:47.25	60.44	11.84	-48.8	-51.6	13.3	1.52e-05	0	58	0	203423744	60	4964
2026-01-01 05:55:48.21	60.32	11.91	-49.0	-51.8	13.2	2.05e-05	0	58	0	204472320	60	5061
2026-01-01 05:55:49.18	60.20	11.98	-48.8	-51.5	13.5	2.05e-05	0	58	0	206569472	60	4872
2026-01-01 05:55:50.16	60.07	12.05	-48.6	-51.2	13.8	9.10e-06	0	57	0	208666624	60	4740
2026-01-01 05:55:51.13	59.95	12.12	-48.6	-51.1	13.9	1.50e-06	0	58	0	209715200	60	4677
2026-01-01 05:55:52.10	59.83	12.19	-48.5	-51.0	14.0	3.00e-06	0	58	0	211812352	60	4635
2026-01-01 05:55:53.08	59.71	12.26	-48.5	-51.0	14.1	7.00e-07	0	58	0	213909504	60	4610
2026-01-01 05:55:54.04	59.58	12.33	-48.6	-51.2	13.8	1.50e-06	0	58	0	216006656	60	4727
2026-01-01 05:55:55.01	59.46	12.40	-48.5	-51.0	14.1	2.20e-06	0	58	0	217055232	60	4605
2026-01-01 05:55:55.98	59.33	12.47	-48.4	-50.9	14.1	1.50e-06	0	58	0	219152384	60	4560
2026-01-01 05:55:56.95	59.21	12.54	-48.4	-50.8	14.3	0.00e+00	0	58	0	221249536	59	4778
2026-01-01 05:55:57.93	59.08	12.61	-48.5	-51.0	14.1	7.00e-07	0	58	0	223346688	59	4874
2026-01-01 05:55:58.89	58.95	12.68	-48.5	-50.9	14.1	2.20e-06	0	58	0	224395264	59	4864
2026-01-01 05:55:59.86	58.83	12.75	-48.6	-51.0	14.0	3.00e-06	0	58	0	226492416	59	4906
2026-01-01 05:56:00.84	58.70	12.82	-48.6	-51.1	13.9	1.50e-06	0	58	0	228589568	59	4958
2026-01-01 05:56:01.80	58.57	12.88	-48.8	-51.3	13.7	6.80e-06	0	58	0	230686720	59	5094
2026-01-01 05:56:02.77	58.44	12.95	-48.7	-51.2	13.9	3.80e-06	0	58	0	231735296	59	5013
2026-01-01 05:56:03.74	58.31	13.02	-48.6	-51.0	14.0	3.80e-06	0	58	0	233832448	59	4901
2026-01-01 05:56:04.71	58.18	13.10	-48.5	-50.9	14.1	3.00e-06	0	58	0	235929600	59	4858
2026-01-01 05:56:05.69	58.05	13.17	-48.5	-50.9	14.2	7.00e-07	0	58	0	236978176	59	4847
2026-01-01 05:56:06.66	57.92	13.24	-48.6	-51.0	14.0	1.50e-06	0	58	0	239075328	59	4926
2026-01-01 05:56:07.63	57.78	13.31	-48.5	-51.0	14.1	2.20e-06	0	58	0	241172480	59	4886
2026-01-01 05:56:08.60	57.65	13.38	-48.4	-50.8	14.3	0.00e+00	0	58	0	243269632	59	4781
2026-01-01 05:56:09.57	57.52	13.45	-48.3	-50.6	14.4	7.00e-07	0	58	0	244318208	59	4700
2026-01-01 05:56:10.55	57.38	13.52	-48.4	-50.7	14.4	1.50e-06	0	58	0	246415360	59	4708
2026-01-01 05:56:11.52	57.24	13.59	-48.3	-50.6	14.4	0.00e+00	0	58	0	248512512	59	4702
2026-01-01 05:56:12.48	57.11	13.66	-48.2	-50.5	14.6	1.50e-06	0	58	0	250609664	59	4610
2026-01-01 05:56:13.46	56.97	13.73	-48.1	-50.3	14.8	0.00e+00	0	58	0	251658240	59	4535
2026-01-01 05:56:14.43	56.84	13.80	-48.2	-50.4	14.6	7.00e-07	0	58	0	253755392	59	4585
2026-01-01 05:56:15.40	56.70	13.87	-48.2	-50.4	14.7	0.00e+00	0	58	0	255852544	59	4566
2026-01-01 05:56:16.36	56.56	13.94	-48.0	-50.2	14.9	0.00e+00	0	58	0	257949696	59	4466
2026-01-01 05:56:17.33	56.42	14.01	-48.0	-50.1	15.0	0.00e+00	0	58	0	258998272	59	4438
2026-01-01 05:56:18.30	56.28	14.08	-48.0	-50.1	15.0	0.00e+00	0	58	0	261095424	59	4410
2026-01-01 05:56:19.27	56.14	14.15	-48.0	-50.1	15.0	0.00e+00	0	58	0	263192576	59	4397
2026-01-01 05:56:20.24	56.00	14.22	-48.0	-50.0	15.1	0.00e+00	0	58	0	264241152	59	4389
2026-01-01 05:56:21.21	55.86	14.29	-48.1	-50.2	14.9	0.00e+00	0	58	0	266338304	59	4463
2026-01-01 05:56:22.17	55.72	14.36	-48.1	-50.3	14.8	0.00e+00	0	58	0	268435456	59	4522
2026-01-01 05:56:23.14	55.57	14.44	-48.0	-50.1	15.0	0.00e+00	0	59	0	270532608	59	4433
2026-01-01 05:56:24.11	55.43	14.51	-48.0	-50.1	15.0	7.00e-07	0	58	0	271581184	59	4426
2026-01-01 05:56:25.08	55.29	14.58	-48.1	-50.2	14.9	0.00e+00	0	58	0	273678336	59	4482
2026-01-01 05:56:26.04	55.14	14.65	-48.2	-50.3	14.8	0.00e+00	0	58	0	275775488	59	4543
2026-01-01 05:56:27.01	55.00	14.72	-48.2	-50.4	14.7	0.00e+00	0	58	0	277872640	59	4574
2026-01-01 05:56:27.99	54.85	14.79	-48.2	-50.5	14.7	0.00e+00	0	58	0	278921216	59	4608
2026-01-01 05:56:28.95	54.70	14.86	-48.3	-50.6	14.6	0.00e+00	0	59	0	281018368	59	4671
2026-01-01 05:56:29.92	54.55	14.93	-48.3	-50.6	14.6	0.00e+00	0	58	0	283115520	59	4654
2026-01-01 05:56:30.89	54.40	15.00	-48.3	-50.6	14.5	0.00e+00	0	59	0	285212672	59	4681
2026-01-01 05:56:31.86	54.25	15.07	-48.4	-50.8	14.4	1.50e-06	0	59	0	286261248	59	4765
2026-01-01 05:56:32.83	54.10	15.14	-48.4	-50.7	14.4	0.00e+00	0	59	0	288358400	59	4756
2026-01-01 05:56:33.80	53.95	15.22	-48.4	-50.7	14.4	7.00e-07	0	59	0	290455552	59	4735
2026-01-01 05:56:34.76	53.80	15.29	-48.5	-50.9	14.3	7.00e-07	0	59	0	291504128	59	4830
2026-01-01 05:56:35.73	53.65	15.36	-48.6	-51.0	14.1	1.50e-06	0	59	0	293601280	59	4921
2026-01-01 05:56:36.70	53.50	15.43	-48.6	-51.0	14.1	7.00e-07	0	59	0	295698432	59	4918
2026-01-01 05:56:37.67	53.34	15.50	-48.7	-51.2	13.9	7.00e-07	0	59	0	297795584	59	5015
2026-01-01 05:56:38.64	53.19	15.57	-48.7	-51.2	14.0	3.80e-06	0	59	0	298844160	59	4989
2026-01-01 05:56:39.61	53.03	15.64	-48.7	-51.1	14.0	1.50e-06	0	59	0	300941312	59	4958
2026-01-01 05:56:40.57	52.88	15.71	-48.7	-51.3	13.9	2.20e-06	0	59	0	303038464	59	5057
2026-01-01 05:56:41.55	52.72	15.78	-48.7	-51.3	13.9	2.20e-06	0	59	0	305135616	59	5060
2026-01-01 05:56:42.52	52.56	15.85	-48.8	-51.3	13.9	3.00e-06	0	59	0	306184192	59	5059
2026-01-01 05:56:43.49	52.40	15.93	-48.8	-51.3	13.8	2.20e-06	0	59	0	308281344	59	5084
2026-01-01 05:56:44.45	52.24	16.00	-48.8	-51.4	13.8	3.80e-06	0	59	0	310378496	59	5116
2026-01-01 05:56:45.42	52.08	16.07	-48.9	-51.5	13.7	3.00e-06	0	59	0	311427072	59	5187
2026-01-01 05:56:46.39	51.92	16.14	-49.0	-51.6	13.6	9.90e-06	0	59	0	313524224	59	5247
2026-01-01 05:56:47.36	51.76	16.21	-48.7	-51.2	13.9	6.10e-06	0	59	0	315621376	59	5029
2026-01-01 05:56:48.33	51.60	16.28	-48.6	-51.0	14.2	1.50e-06	0	59	0	317718528	59	4895
2026-01-01 05:56:49.30	51.44	16.35	-48.5	-50.8	14.4	7.00e-07	0	59	0	318767104	59	4797
2026-01-01 05:56:50.27	51.27	16.42	-48.5	-50.8	14.4	7.00e-07	0	59	0	320864256	59	4790
2026-01-01 05:56:51.23	51.11	16.49	-48.5	-50.8	14.3	7.00e-07	0	59	0	322961408	59	4812
2026-01-01 05:56:52.20	50.94	16.56	-48.5	-50.9	14.3	7.00e-07	0	59	0	325058560	59	4860
2026-01-01 05:56:53.17	50.78	16.63	-48.6	-51.2	14.0	4.50e-06	0	59	0	326107136	59	5004
2026-01-01 05:56:54.14	50.61	16.70	-48.5	-50.9	14.2	1.50e-06	0	59	0	328204288	59	4853
2026-01-01 05:56:55.11	50.44	16.77	-48.6	-51.0	14.2	0.00e+00	0	59	0	330301440	59	4879
2026-01-01 05:56:56.07	50.28	16.84	-48.6	-51.0	14.2	0.00e+00	0	59	0	332398592	59	4872
2026-01-01 05:56:57.04	50.11	16.91	-48.6	-51.1	14.1	3.00e-06	0	59	0	333447168	59	4938
2026-01-01 05:56:58.01	49.94	16.98	-48.6	-50.9	14.2	3.80e-06	0	59	0	335544320	59	4868
2026-01-01 05:56:58.98	49.76	17.05	-48.5	-50.9	14.3	7.00e-07	0	59	0	337641472	59	4848
2026-01-01 05:56:59.95	49.59	17.12	-48.4	-50.9	14.3	2.20e-06	0	59	0	339738624	59	4845
2026-01-01 05:57:00.92	49.42	17.19	-48.6	-51.0	14.2	7.00e-07	0	59	0	340787200	59	4886
2026-01-01 05:57:01.88	49.25	17.26	-48.6	-51.1	14.1	1.50e-06	0	59	0	342884352	59	4938
2026-01-01 05:57:02.85	49.07	17.33	-48.5	-50.9	14.3	7.00e-07	0	59	0	344981504	59	4823
2026-01-01 05:57:03.82	48.90	17.40	-48.4	-50.7	14.5	0.00e+00	0	59	0	346030080	59	4739
2026-01-01 05:57:04.79	48.72	17.47	-48.5	-50.9	14.4	7.00e-07	0	59	0	348127232	59	4825
2026-01-01 05:57:05.76	48.55	17.54	-48.5	-50.8	14.4	0.00e+00	0	59	0	350224384	59	4805
2026-01-01 05:57:06.73	48.37	17.61	-48.5	-50.8	14.4	0.00e+00	0	59	0	352321536	59	4784
2026-01-01 05:57:07.70	48.19	17.68	-48.5	-50.8	14.3	7.00e-07	0	59	0	353370112	59	4811
2026-01-01 05:57:08.67	48.01	17.75	-48.5	-50.8	14.4	7.00e-07	0	59	0	355467264	59	4793
2026-01-01 05:57:09.63	47.83	17.82	-48.5	-50.8	14.3	7.00e-07	0	59	0	357564416	59	4801
2026-01-01 05:57:10.60	47.65	17.89	-48.5	-50.8	14.4	1.50e-06	0	59	0	359661568	59	4771
2026-01-01 05:57:11.57	47.47	17.96	-48.3	-50.6	14.6	7.00e-07	0	59	0	360710144	59	4678
2026-01-01 05:57:12.54	47.29	18.03	-48.4	-50.6	14.6	7.00e-07	0	59	0	362807296	59	4701
2026-01-01 05:57:13.51	47.10	18.10	-48.3	-50.6	14.7	0.00e+00	0	59	0	364904448	59	4655
2026-01-01 05:57:14.48	46.92	18.17	-48.3	-50.5	14.7	0.00e+00	0	60	0	365953024	59	4629
2026-01-01 05:57:15.45	46.73	18.24	-48.2	-50.4	14.9	0.00e+00	0	59	0	368050176	59	4557
2026-01-01 05:57:16.42	46.55	18.30	-48.2	-50.3	15.0	0.00e+00	0	59	0	370147328	59	4513
2026-01-01 05:57:17.38	46.36	18.37	-48.2	-50.4	14.8	0.00e+00	0	59	0	372244480	59	4586
2026-01-01 05:57:18.36	46.17	18.44	-48.2	-50.4	14.9	0.00e+00	0	59	0	373293056	59	4565
2026-01-01 05:57:19.33	45.98	18.51	-48.0	-50.0	15.2	0.00e+00	0	59	0	375390208	59	4390
2026-01-01 05:57:20.30	45.79	18.58	-47.9	-50.0	15.2	0.00e+00	0	59	0	377487360	58	4621
2026-01-01 05:57:21.26	45.61	18.65	-47.8	-49.8	15.4	0.00e+00	0	59	0	379584512	58	4523
2026-01-01 05:57:22.24	45.41	18.71	-47.7	-49.6	15.6	0.00e+00	0	59	0	380633088	58	4422
2026-01-01 05:57:23.21	45.22	18.78	-47.6	-49.5	15.8	0.00e+00	0	59	0	382730240	58	4345
2026-01-01 05:57:24.18	45.03	18.85	-47.5	-49.4	15.9	0.00e+00	0	59	0	384827392	58	4295
2026-01-01 05:57:25.15	44.83	18.92	-46.9	-48.8	16.1	0.00e+00	0	59	0	386924544	57	4254
2026-01-01 05:57:26.12	44.64	18.98	-47.2	-48.9	16.3	0.00e+00	0	60	0	387973120	57	4329
2026-01-01 05:57:27.09	44.44	19.05	-47.3	-49.0	16.3	0.00e+00	0	60	0	390070272	57	4351
2026-01-01 05:57:28.06	44.25	19.12	-47.1	-48.7	16.5	0.00e+00	0	60	0	392167424	57	4225
2026-01-01 05:57:29.03	44.05	19.18	-46.9	-48.6	16.6	0.00e+00	0	60	0	393216000	57	4150
2026-01-01 05:57:30.00	43.85	19.25	-46.9	-48.5	16.7	0.00e+00	0	60	0	395313152	56	4359
2026-01-01 05:57:30.97	43.65	19.32	-47.0	-48.6	16.7	0.00e+00	0	59	0	397410304	56	4415
2026-01-01 05:57:31.95	43.45	19.38	-47.0	-48.6	16.6	0.00e+00	0	60	0	399507456	56	4439
2026-01-01 05:57:32.92	43.25	19.45	-47.0	-48.6	16.6	0.00e+00	0	60	0	400556032	56	4419
2026-01-01 05:57:33.89	43.05	19.52	-47.1	-48.7	16.5	0.00e+00	0	60	0	402653184	56	4487
2026-01-01 05:57:34.86	42.84	19.58	-46.9	-48.5	16.7	0.00e+00	0	59	0	404750336	56	4382
2026-01-01 05:57:35.82	42.64	19.65	-46.9	-48.5	16.8	0.00e+00	0	59	0	406847488	56	4349
2026-01-01 05:57:36.80	42.44	19.71	-46.9	-48.5	16.8	0.00e+00	0	60	0	407896064	56	4358
2026-01-01 05:57:37.76	42.23	19.78	-47.0	-48.6	16.6	0.00e+00	0	60	0	409993216	56	4437
2026-01-01 05:57:38.73	42.03	19.84	-46.9	-48.6	16.7	0.00e+00	0	60	0	412090368	56	4400
2026-01-01 05:57:39.69	41.82	19.91	-46.8	-48.3	16.9	0.00e+00	0	60	0	414187520	56	4280
2026-01-01 05:57:40.66	41.61	19.97	-46.7	-48.2	17.0	0.00e+00	0	60	0	415236096	56	4242
2026-01-01 05:57:41.63	41.41	20.03	-46.7	-48.2	17.0	0.00e+00	0	60	0	417333248	56	4242
2026-01-01 05:57:42.60	41.20	20.10	-46.6	-48.2	17.0	0.00e+00	0	60	0	419430400	56	4216
2026-01-01 05:57:43.57	40.99	20.16	-46.8	-48.3	16.9	0.00e+00	0	60	0	420478976	56	4283
2026-01-01 05:57:44.54	40.77	20.22	-46.7	-48.3	17.0	0.00e+00	0	60	0	422576128	56	4260
2026-01-01 05:57:45.52	40.56	20.29	-46.7	-48.2	17.0	0.00e+00	0	60	0	424673280	56	4224
2026-01-01 05:57:46.48	40.35	20.35	-46.7	-48.2	17.0	0.00e+00	0	59	0	426770432	56	4230
2026-01-01 05:57:47.45	40.13	20.41	-46.8	-48.4	16.9	0.00e+00	0	60	0	427819008	56	4316
2026-01-01 05:57:48.42	39.92	20.47	-46.8	-48.4	16.8	0.00e+00	0	60	0	429916160	56	4328
2026-01-01 05:57:49.39	39.70	20.54	-46.7	-48.2	17.0	0.00e+00	0	60	0	432013312	56	4242
2026-01-01 05:57:50.36	39.49	20.60	-46.6	-48.2	17.0	0.00e+00	0	60	0	434110464	56	4227
2026-01-01 05:57:51.33	39.27	20.66	-46.5	-48.0	17.2	0.00e+00	0	60	0	435159040	56	4136
2026-01-01 05:57:52.30	39.05	20.72	-46.5	-48.0	17.3	0.00e+00	0	60	0	437256192	56	4105
2026-01-01 05:57:53.27	38.83	20.78	-46.5	-48.0	17.2	0.00e+00	0	60	0	439353344	56	4135
2026-01-01 05:57:54.23	38.61	20.84	-46.5	-48.0	17.3	0.00e+00	0	60	0	441450496	56	4125
2026-01-01 05:57:55.20	38.39	20.90	-46.6	-48.1	17.2	0.00e+00	0	60	0	442499072	56	4175
2026-01-01 05:57:56.17	38.17	20.96	-46.7	-48.3	17.0	0.00e+00	0	60	0	444596224	56	4247
2026-01-01 05:57:57.14	37.95	21.02	-46.9	-48.5	16.8	0.00e+00	0	60	0	446693376	56	4354
2026-01-01 05:57:58.11	37.72	21.08	-46.8	-48.4	16.9	0.00e+00	0	60	0	447741952	56	4308
2026-01-01 05:57:59.08	37.50	21.14	-47.1	-48.7	16.6	0.00e+00	0	60	0	449839104	56	4472
2026-01-01 05:58:00.05	37.27	21.20	-46.9	-48.5	16.8	0.00e+00	0	60	0	451936256	56	4378
2026-01-01 05:58:01.02	37.05	21.26	-47.0	-48.6	16.7	0.00e+00	0	60	0	454033408	56	4422
2026-01-01 05:58:01.99	36.82	21.31	-47.0	-48.6	16.7	0.00e+00	0	60	0	455081984	56	4398
2026-01-01 05:58:02.95	36.60	21.37	-47.1	-48.7	16.6	0.00e+00	0	60	0	457179136	56	4489
2026-01-01 05:58:03.93	36.36	21.43	-47.2	-48.9	16.4	0.00e+00	0	60	0	459276288	56	4594
2026-01-01 05:58:04.90	36.14	21.49	-47.0	-48.7	16.6	0.00e+00	0	60	0	461373440	56	4446
2026-01-01 05:58:05.87	35.90	21.54	-46.8	-48.3	16.9	0.00e+00	0	60	0	462422016	56	4287
2026-01-01 05:58:06.83	35.68	21.60	-46.7	-48.2	17.1	0.00e+00	0	60	0	464519168	56	4210
2026-01-01 05:58:07.80	35.44	21.65	-46.6	-48.1	17.1	0.00e+00	0	60	0	466616320	56	4193
2026-01-01 05:58:08.77	35.21	21.71	-46.8	-48.3	16.9	0.00e+00	0	60	0	468713472	56	4275
2026-01-01 05:58:09.74	34.98	21.76	-46.8	-48.3	16.9	0.00e+00	0	60	0	469762048	56	4278
2026-01-01 05:58:10.71	34.74	21.82	-46.8	-48.4	16.9	0.00e+00	0	60	0	471859200	56	4320
2026-01-01 05:58:11.68	34.51	21.87	-46.8	-48.3	17.0	0.00e+00	0	60	0	473956352	56	4260
2026-01-01 05:58:12.65	34.27	21.93	-46.4	-47.9	17.4	0.00e+00	0	60	0	476053504	56	4054
2026-01-01 05:58:13.62	34.03	21.98	-46.2	-47.6	17.6	0.00e+00	0	60	0	477102080	55	4175
2026-01-01 05:58:14.59	33.79	22.03	-46.2	-47.6	17.6	0.00e+00	0	60	0	479199232	55	4175
2026-01-01 05:58:15.56	33.56	22.09	-46.3	-47.7	17.5	0.00e+00	0	60	0	481296384	55	4208
2026-01-01 05:58:16.53	33.32	22.14	-46.2	-47.6	17.5	0.00e+00	0	60	0	482344960	55	4191
2026-01-01 05:58:17.50	33.08	22.19	-46.2	-47.6	17.6	0.00e+00	0	60	0	484442112	55	4185
2026-01-01 05:58:18.47	32.83	22.24	-46.2	-47.5	17.6	0.00e+00	0	60	0	486539264	55	4142
2026-01-01 05:58:19.44	32.59	22.29	-46.2	-47.6	17.6	0.00e+00	0	60	0	488636416	55	4178
2026-01-01 05:58:20.41	32.35	22.34	-46.3	-47.8	17.4	0.00e+00	0	60	0	489684992	55	4243
2026-01-01 05:58:21.38	32.11	22.39	-46.4	-47.8	17.4	0.00e+00	0	60	0	491782144	55	4271
2026-01-01 05:58:22.35	31.86	22.44	-46.5	-48.0	17.2	0.00e+00	0	60	0	493879296	55	4343
2026-01-01 05:58:23.32	31.62	22.49	-46.3	-47.8	17.4	0.00e+00	0	60	0	495976448	55	4260
2026-01-01 05:58:24.28	31.37	22.54	-46.4	-47.9	17.3	0.00e+00	0	60	0	497025024	55	4297
2026-01-01 05:58:25.25	31.13	22.59	-46.3	-47.7	17.4	0.00e+00	0	60	0	499122176	55	4232
2026-01-01 05:58:26.22	30.88	22.63	-46.2	-47.6	17.6	0.00e+00	0	60	0	501219328	55	4174
2026-01-01 05:58:27.19	30.63	22.68	-46.2	-47.6	17.6	0.00e+00	0	60	0	502267904	55	4175
2026-01-01 05:58:28.16	30.38	22.73	-46.1	-47.5	17.7	0.00e+00	0	60	0	504365056	55	4122
2026-01-01 05:58:29.13	30.13	22.77	-46.1	-47.5	17.6	0.00e+00	0	60	0	506462208	55	4135
2026-01-01 05:58:30.09	29.88	22.82	-46.2	-47.5	17.7	0.00e+00	0	60	0	508559360	55	4145
2026-01-01 05:58:31.06	29.63	22.86	-46.4	-47.8	17.4	0.00e+00	0	60	0	509607936	55	4285
2026-01-01 05:58:32.03	29.38	22.91	-46.4	-47.8	17.3	0.00e+00	0	60	0	511705088	55	4286
2026-01-01 05:58:33.00	29.13	22.95	-46.2	-47.6	17.6	0.00e+00	0	60	0	513802240	55	4147
2026-01-01 05:58:33.97	28.87	23.00	-46.0	-47.4	17.8	0.00e+00	0	60	0	515899392	55	4057
2026-01-01 05:58:34.94	28.62	23.04	-46.0	-47.3	17.8	0.00e+00	0	60	0	516947968	55	4046
2026-01-01 05:58:35.91	28.37	23.08	-46.2	-47.6	17.6	0.00e+00	0	60	0	519045120	55	4175
2026-01-01 05:58:36.88	28.11	23.12	-46.1	-47.5	17.7	0.00e+00	0	60	0	521142272	55	4123
2026-01-01 05:58:37.85	27.85	23.16	-46.4	-47.8	17.4	0.00e+00	0	60	0	523239424	55	4260
2026-01-01 05:58:38.82	27.60	23.20	-46.3	-47.7	17.5	0.00e+00	0	60	0	524288000	55	4242
2026-01-01 05:58:39.79	27.34	23.24	-46.4	-47.9	17.3	0.00e+00	0	60	0	526385152	55	4321
2026-01-01 05:58:40.76	27.08	23.28	-46.4	-47.8	17.3	0.00e+00	0	60	0	528482304	55	4291
2026-01-01 05:58:41.73	26.82	23.32	-46.3	-47.7	17.5	0.00e+00	0	60	0	529530880	55	4205
2026-01-01 05:58:42.70	26.56	23.36	-46.2	-47.6	17.6	0.00e+00	0	60	0	531628032	55	4172
2026-01-01 05:58:43.67	26.30	23.40	-46.3	-47.6	17.5	0.00e+00	0	60	0	533725184	55	4189
2026-01-01 05:58:44.64	26.04	23.44	-46.3	-47.7	17.5	0.00e+00	0	60	0	535822336	55	4216
2026-01-01 05:58:45.61	25.78	23.47	-46.4	-47.8	17.4	0.00e+00	0	60	0	536870912	55	4287
2026-01-01 05:58:46.58	25.52	23.51	-46.5	-48.0	17.2	0.00e+00	0	60	0	538968064	55	4341
2026-01-01 05:58:47.55	25.26	23.55	-46.6	-48.1	17.1	0.00e+00	0	60	0	541065216	55	4404
2026-01-01 05:58:48.52	24.99	23.58	-46.6	-48.1	17.1	0.00e+00	0	60	0	543162368	55	4440
2026-01-01 05:58:49.49	24.73	23.61	-46.8	-48.3	16.9	0.00e+00	0	60	0	544210944	55	4527
2026-01-01 05:58:50.46	24.46	23.65	-47.2	-48.9	16.4	0.00e+00	0	60	0	546308096	56	4575
2026-01-01 05:58:51.42	24.20	23.68	-47.4	-49.2	16.1	0.00e+00	0	61	0	548405248	56	4716
2026-01-01 05:58:52.39	23.94	23.71	-47.5	-49.4	16.0	0.00e+00	0	60	0	550502400	56	4833
2026-01-01 05:58:53.36	23.67	23.75	-47.6	-49.4	16.0	0.00e+00	0	61	0	551550976	57	4562
2026-01-01 05:58:54.33	23.40	23.78	-47.5	-49.3	16.0	0.00e+00	0	61	0	553648128	57	4522
2026-01-01 05:58:55.31	23.13	23.81	-47.6	-49.4	15.9	0.00e+00	0	60	0	555745280	57	4590
2026-01-01 05:58:56.28	22.87	23.84	-47.5	-49.4	16.0	0.00e+00	0	61	0	556793856	57	4546
2026-01-01 05:58:57.25	22.60	23.87	-47.6	-49.5	15.8	0.00e+00	0	61	0	558891008	57	4615
2026-01-01 05:58:58.22	22.33	23.90	-47.7	-49.6	15.8	0.00e+00	0	61	0	560988160	57	4684
2026-01-01 05:58:59.19	22.06	23.92	-47.6	-49.5	15.8	0.00e+00	0	61	0	563085312	57	4628
2026-01-01 05:59:00.16	21.79	23.95	-47.7	-49.6	15.7	0.00e+00	0	60	0	564133888	57	4691
2026-01-01 05:59:01.13	21.52	23.98	-47.6	-49.4	15.9	0.00e+00	0	61	0	566231040	57	4585
2026-01-01 05:59:02.10	21.25	24.00	-47.6	-49.4	15.9	0.00e+00	0	60	0	568328192	57	4571
2026-01-01 05:59:03.06	20.98	24.03	-47.6	-49.5	15.9	0.00e+00	0	61	0	570425344	57	4606
2026-01-01 05:59:04.03	20.71	24.05	-47.7	-49.6	15.7	0.00e+00	0	60	0	571473920	57	4677
2026-01-01 05:59:05.00	20.44	24.08	-47.9	-49.9	15.4	0.00e+00	0	61	0	573571072	57	4854
2026-01-01 05:59:05.97	20.17	24.10	-47.8	-49.8	15.5	0.00e+00	0	60	0	575668224	57	4784
2026-01-01 05:59:06.94	19.89	24.12	-47.8	-49.8	15.6	0.00e+00	0	60	0	577765376	57	4763
2026-01-01 05:59:07.91	19.62	24.14	-47.9	-49.8	15.5	0.00e+00	0	61	0	578813952	57	4799
2026-01-01 05:59:08.88	19.35	24.17	-48.0	-50.0	15.4	0.00e+00	0	61	0	580911104	57	4887
2026-01-01 05:59:09.84	19.08	24.19	-48.1	-50.1	15.2	7.00e-07	0	60	0	583008256	57	4956
2026-01-01 05:59:10.81	18.80	24.21	-48.3	-50.4	14.9	0.00e+00	0	61	0	584056832	58	4844
2026-01-01 05:59:11.78	18.53	24.22	-48.3	-50.5	14.9	0.00e+00	0	60	0	586153984	58	4884
2026-01-01 05:59:12.75	18.25	24.24	-48.3	-50.5	14.8	0.00e+00	0	61	0	588251136	58	4919
2026-01-01 05:59:13.72	17.98	24.26	-48.4	-50.6	14.7	0.00e+00	0	61	0	590348288	58	4970
2026-01-01 05:59:14.69	17.70	24.28	-48.2	-50.3	15.0	0.00e+00	0	61	0	591396864	58	4809
2026-01-01 05:59:15.67	17.43	24.29	-48.0	-50.1	15.3	0.00e+00	0	61	0	593494016	58	4655
2026-01-01 05:59:16.64	17.15	24.31	-47.9	-49.9	15.4	0.00e+00	0	61	0	595591168	58	4571
2026-01-01 05:59:17.61	16.87	24.32	-47.9	-49.8	15.5	0.00e+00	0	61	0	597688320	58	4522
2026-01-01 05:59:18.57	16.60	24.34	-47.9	-49.9	15.4	0.00e+00	0	61	0	598736896	58	4554
2026-01-01 05:59:19.54	16.32	24.35	-47.8	-49.7	15.6	0.00e+00	0	61	0	600834048	58	4460
2026-01-01 05:59:20.51	16.05	24.36	-47.8	-49.7	15.7	0.00e+00	0	60	0	602931200	58	4442
2026-01-01 05:59:21.48	15.77	24.38	-47.8	-49.7	15.6	0.00e+00	0	60	0	605028352	58	4480
2026-01-01 05:59:22.45	15.49	24.39	-47.8	-49.8	15.5	0.00e+00	0	61	0	606076928	58	4501
2026-01-01 05:59:23.42	15.21	24.40	-47.9	-49.9	15.4	0.00e+00	0	61	0	608174080	58	4573
2026-01-01 05:59:24.39	14.94	24.41	-48.0	-50.0	15.3	0.00e+00	0	61	0	610271232	58	4630
2026-01-01 05:59:25.35	14.66	24.42	-48.1	-50.2	15.1	0.00e+00	0	61	0	612368384	58	4732
2026-01-01 05:59:26.32	14.38	24.43	-48.1	-50.2	15.1	0.00e+00	0	61	0	613416960	58	4723
2026-01-01 05:59:27.29	14.10	24.43	-48.1	-50.1	15.1	0.00e+00	0	61	0	615514112	58	4688
2026-01-01 05:59:28.26	13.83	24.44	-47.9	-49.9	15.3	0.00e+00	0	61	0	617611264	58	4577
2026-01-01 05:59:29.23	13.55	24.45	-47.6	-49.6	15.6	0.00e+00	0	61	0	618659840	58	4414
2026-01-01 05:59:30.20	13.27	24.45	-47.5	-49.5	15.7	0.00e+00	0	61	0	620756992	58	4353
2026-01-01 05:59:31.18	12.99	24.46	-47.5	-49.5	15.6	0.00e+00	0	61	0	622854144	58	4345
2026-01-01 05:59:32.15	12.71	24.46	-47.4	-49.4	15.7	0.00e+00	0	61	0	624951296	58	4301
2026-01-01 05:59:33.12	12.43	24.46	-47.5	-49.5	15.6	0.00e+00	0	61	0	625999872	58	4348
2026-01-01 05:59:34.09	12.15	24.47	-47.6	-49.7	15.2	0.00e+00	0	61	0	628097024	58	4490
2026-01-01 05:59:35.06	11.87	24.47	-47.6	-49.7	15.2	0.00e+00	0	61	0	630194176	58	4473
2026-01-01 05:59:36.04	11.59	24.47	-47.6	-49.9	14.9	0.00e+00	0	61	0	632291328	58	4547
2026-01-01 05:59:37.01	11.31	24.47	-47.8	-50.1	14.6	0.00e+00	0	61	0	633339904	58	4658
2026-01-01 05:59:37.98	11.03	24.47	-48.0	-50.5	14.0	0.00e+00	0	61	0	635437056	58	4888
2026-01-01 05:59:38.94	10.76	24.47	-48.5	-51.6	12.6	1.75e-05	0	61	0	637534208	58	5536
2026-01-01 05:59:39.91	10.48	24.47	-48.6	-51.8	12.2	1.05e-04	0	61	0	639631360	58	5673
2026-01-01 05:59:40.88	10.20	24.46	-49.0	-52.9	10.9	4.05e-04	0	61	0	640679936	59	6084
2026-01-01 05:59:41.85	9.92	24.46	-49.2	-53.7	9.9	6.28e-03	0	61	0	642777088	60	6283
2026-01-01 05:59:42.82	9.64	24.46	-49.2	-53.7	9.8	1.08e-02	0	61	0	644874240	60	6347
2026-01-01 05:59:43.79	9.36	24.45	-49.5	-54.8	8.7	1.81e-02	0	61	0	645922816	60	7151
2026-01-01 05:59:44.76	9.09	24.44	-49.5	-54.5	9.0	3.75e-02	0	61	0	648019968	61	6551
2026-01-01 05:59:45.73	8.81	24.44	-49.3	-54.0	9.6	1.33e-02	0	61	0	650117120	61	6175
2026-01-01 05:59:46.70	8.53	24.43	-49.1	-53.5	10.3	8.16e-03	0	61	0	652214272	61	5828
2026-01-01 05:59:47.67	8.25	24.42	-49.3	-53.4	10.5	4.50e-03	0	61	0	653262848	61	5777
2026-01-01 05:59:48.64	7.97	24.41	-49.2	-53.2	10.8	3.08e-03	0	61	0	655360000	61	5604
2026-01-01 05:59:49.61	7.69	24.41	-49.3	-53.2	10.9	2.33e-03	0	61	0	657457152	61	5615
2026-01-01 05:59:50.57	7.42	24.40	-49.0	-52.6	11.6	9.94e-04	0	61	0	659554304	61	5241
2026-01-01 05:59:51.54	7.14	24.38	-48.7	-52.0	12.5	2.96e-04	0	61	0	660602880	60	5163
2026-01-01 05:59:52.51	6.87	24.37	-48.5	-51.3	13.3	5.11e-05	0	61	0	662700032	60	4795
2026-01-01 05:59:53.49	6.59	24.36	-48.4	-50.9	13.9	6.80e-06	0	61	0	664797184	59	4851
2026-01-01 05:59:54.45	6.31	24.35	-48.2	-50.5	14.5	7.00e-07	0	61	0	666894336	59	4626
2026-01-01 05:59:55.42	6.03	24.33	-48.2	-50.5	14.5	2.20e-06	0	61	0	667942912	59	4641
2026-01-01 05:59:56.39	5.76	24.32	-48.1	-50.2	14.9	0.00e+00	0	61	0	670040064	59	4463
2026-01-01 05:59:57.36	5.48	24.30	-48.1	-50.3	14.9	0.00e+00	0	61	0	672137216	59	4504
2026-01-01 05:59:58.33	5.21	24.29	-48.0	-50.1	15.0	0.00e+00	0	61	0	673185792	58	4693
2026-01-01 05:59:59.30	4.93	24.27	-48.4	-50.8	14.3	7.00e-07	0	61	0	675282944	58	5063
2026-01-01 06:00:00.27	4.66	24.25	-48.8	-51.6	13.2	4.50e-06	0	61	0	677380096	59	5251
2026-01-01 06:00:01.24	4.38	24.24	-49.2	-52.6	11.8	1.41e-04	0	61	0	679477248	60	5589
2026-01-01 06:00:02.21	4.11	24.22	-49.4	-53.7	10.2	1.49e-03	0	61	0	680525824	60	6311
2026-01-01 06:00:03.18	3.83	24.20	-49.6	-54.5	9.2	1.91e-02	0	61	0	682622976	61	6557
2026-01-01 06:00:04.15	3.56	24.18	-49.1	-53.4	10.2	1.15e-02	0	61	0	684720128	61	5767
2026-01-01 06:00:05.12	3.28	24.16	-48.5	-51.9	12.0	1.53e-03	0	61	0	686817280	60	5126
2026-01-01 06:00:06.08	3.01	24.14	-47.7	-50.3	13.9	4.88e-05	0	61	0	687865856	58	4771
2026-01-01 06:00:07.05	2.74	24.11	-47.1	-49.0	15.6	0.00e+00	0	61	0	689963008	57	4349
2026-01-01 06:00:08.02	2.47	24.09	-46.6	-48.3	16.6	0.00e+00	0	61	0	692060160	56	4247
2026-01-01 06:00:08.99	2.20	24.07	-46.5	-48.0	17.1	0.00e+00	0	61	0	694157312	56	4117
2026-01-01 06:00:09.96	1.93	24.04	-46.3	-47.7	17.4	0.00e+00	0	61	0	695205888	55	4224
2026-01-01 06:00:10.93	1.65	24.02	-46.3	-47.7	17.4	0.00e+00	0	61	0	697303040	55	4229
2026-01-01 06:00:11.90	1.38	23.99	-46.4	-48.0	17.1	0.00e+00	0	61	0	699400192	55	4349
2026-01-01 06:00:12.87	1.11	23.97	-46.4	-47.9	17.2	0.00e+00	0	61	0	700448768	55	4329
2026-01-01 06:00:13.84	0.84	23.94	-46.3	-47.7	17.4	0.00e+00	0	61	0	702545920	55	4225
2026-01-01 06:00:14.81	0.57	23.91	-46.2	-47.6	17.5	0.00e+00	0	61	0	704643072	55	4170
2026-01-01 06:00:15.78	0.31	23.89	-46.1	-47.5	17.6	0.00e+00	0	61	0	706740224	55	4128
2026-01-01 06:00:16.75	0.04	23.86	-46.1	-47.6	17.6	0.00e+00	0	61	0	707788800	55	4153
2026-01-01 06:00:17.72	359.77	23.83	-46.4	-47.9	17.2	0.00e+00	0	61	0	709885952	55	4313
2026-01-01 06:00:18.69	359.50	23.80	-46.3	-47.7	17.4	0.00e+00	0	61	0	711983104	55	4234
2026-01-01 06:00:19.65	359.24	23.77	-46.3	-47.7	17.4	0.00e+00	0	61	0	714080256	55	4212
2026-01-01 06:00:20.62	358.97	23.74	-46.4	-47.8	17.3	0.00e+00	0	61	0	715128832	55	4271
2026-01-01 06:00:21.59	358.71	23.70	-46.5	-48.0	17.2	0.00e+00	0	61	0	717225984	55	4346
2026-01-01 06:00:22.56	358.44	23.67	-46.6	-48.1	17.0	0.00e+00	0	61	0	719323136	55	4434
2026-01-01 06:00:23.52	358.18	23.64	-46.6	-48.1	17.1	0.00e+00	0	61	0	720371712	55	4410
2026-01-01 06:00:24.49	357.92	23.60	-46.7	-48.2	17.0	0.00e+00	0	61	0	722468864	55	4472
2026-01-01 06:00:25.46	357.65	23.57	-47.0	-48.6	16.5	0.00e+00	0	61	0	724566016	55	4698
2026-01-01 06:00:26.43	357.39	23.53	-47.2	-48.9	16.3	0.00e+00	0	61	0	726663168	56	4587
2026-01-01 06:00:27.40	357.13	23.50	-47.2	-48.9	16.4	0.00e+00	0	61	0	727711744	56	4553
2026-01-01 06:00:28.37	356.87	23.46	-47.3	-49.0	16.3	0.00e+00	0	61	0	729808896	56	4633
2026-01-01 06:00:29.34	356.60	23.43	-47.4	-49.2	16.1	0.00e+00	0	61	0	731906048	56	4733
2026-01-01 06:00:30.31	356.34	23.39	-47.2	-49.0	16.3	0.00e+00	0	61	0	734003200	56	4599
2026-01-01 06:00:31.28	356.08	23.35	-47.1	-48.8	16.5	0.00e+00	0	61	0	735051776	56	4515
2026-01-01 06:00:32.25	355.82	23.31	-47.1	-48.8	16.5	0.00e+00	0	61	0	737148928	56	4496
2026-01-01 06:00:33.23	355.56	23.27	-47.1	-48.8	16.5	0.00e+00	0	61	0	739246080	56	4529
2026-01-01 06:00:34.19	355.31	23.23	-47.3	-49.0	16.3	0.00e+00	0	61	0	741343232	56	4646
2026-01-01 06:00:35.16	355.05	23.19	-47.2	-49.0	16.3	0.00e+00	0	61	0	742391808	56	4629
2026-01-01 06:00:36.13	354.80	23.15	-47.4	-49.2	16.0	0.00e+00	0	61	0	744488960	56	4721
2026-01-01 06:00:37.10	354.54	23.11	-47.4	-49.2	16.1	0.00e+00	0	61	0	746586112	56	4728
2026-01-01 06:00:38.07	354.28	23.07	-47.6	-49.5	15.8	0.00e+00	0	61	0	748683264	57	4625
2026-01-01 06:00:39.04	354.03	23.03	-47.5	-49.3	16.0	0.00e+00	0	61	0	749731840	57	4530
2026-01-01 06:00:40.01	353.78	22.98	-47.6	-49.5	15.7	0.00e+00	0	61	0	751828992	57	4628
2026-01-01 06:00:40.98	353.52	22.94	-47.9	-49.9	15.3	0.00e+00	0	61	0	753926144	57	4858
2026-01-01 06:00:41.95	353.27	22.89	-47.7	-49.7	15.6	0.00e+00	0	61	0	754974720	57	4737
2026-01-01 06:00:42.92	353.02	22.85	-47.6	-49.5	15.8	0.00e+00	0	61	0	757071872	57	4621
2026-01-01 06:00:43.89	352.77	22.80	-47.6	-49.5	15.8	0.00e+00	0	61	0	759169024	57	4610
2026-01-01 06:00:44.86	352.52	22.76	-47.5	-49.4	15.8	0.00e+00	0	61	0	761266176	57	4579
2026-01-01 06:00:45.82	352.27	22.71	-47.6	-49.5	15.8	0.00e+00	0	61	0	762314752	57	4610
2026-01-01 06:00:46.79	352.02	22.67	-47.6	-49.5	15.7	0.00e+00	0	61	0	764411904	57	4639
2026-01-01 06:00:47.76	351.78	22.62	-47.6	-49.5	15.7	0.00e+00	0	61	0	766509056	57	4608
2026-01-01 06:00:48.73	351.53	22.57	-47.7	-49.6	15.6	0.00e+00	0	61	0	768606208	57	4693
2026-01-01 06:00:49.69	351.28	22.52	-47.8	-49.7	15.5	0.00e+00	0	61	0	769654784	57	4735
2026-01-01 06:00:50.66	351.04	22.48	-47.8	-49.8	15.4	0.00e+00	0	61	0	771751936	57	4788
2026-01-01 06:00:51.63	350.79	22.43	-47.9	-49.8	15.4	0.00e+00	0	61	0	773849088	57	4800
2026-01-01 06:00:52.60	350.55	22.38	-47.9	-49.9	15.3	0.00e+00	0	61	0	775946240	57	4861
2026-01-01 06:00:53.57	350.31	22.33	-47.9	-49.9	15.3	0.00e+00	0	61	0	776994816	57	4840
2026-01-01 06:00:54.55	350.06	22.28	-47.9	-50.0	15.2	0.00e+00	0	61	0	779091968	57	4891
2026-01-01 06:00:55.51	349.82	22.23	-48.1	-50.2	15.1	0.00e+00	0	61	0	781189120	58	4721
2026-01-01 06:00:56.48	349.58	22.17	-48.1	-50.2	15.1	0.00e+00	0	61	0	782237696	58	4740
2026-01-01 06:00:57.45	349.34	22.12	-47.8	-49.7	15.5	0.00e+00	0	61	0	784334848	58	4486
2026-01-01 06:00:58.41	349.11	22.07	-47.6	-49.6	15.7	0.00e+00	0	61	0	786432000	58	4394
2026-01-01 06:00:59.38	348.87	22.02	-47.7	-49.6	15.6	0.00e+00	0	61	0	788529152	58	4405
2026-01-01 06:01:00.36	348.63	21.96	-47.8	-49.8	15.5	0.00e+00	0	61	0	789577728	58	4506
2026-01-01 06:01:01.33	348.39	21.91	-48.0	-50.0	15.2	0.00e+00	0	61	0	791674880	58	4635
2026-01-01 06:01:02.30	348.15	21.86	-48.1	-50.2	15.0	0.00e+00	0	61	0	793772032	58	4748
2026-01-01 06:01:03.27	347.92	21.80	-48.2	-50.4	14.9	0.00e+00	0	61	0	795869184	58	4823
2026-01-01 06:01:04.24	347.68	21.75	-47.9	-50.0	15.2	7.00e-07	0	61	0	796917760	58	4620
2026-01-01 06:01:05.21	347.45	21.69	-47.7	-49.6	15.6	0.00e+00	0	61	0	799014912	58	4438
2026-01-01 06:01:06.17	347.22	21.64	-47.5	-49.3	15.8	0.00e+00	0	61	0	801112064	58	4288
2026-01-01 06:01:07.14	346.99	21.58	-47.6	-49.5	15.6	0.00e+00	0	61	0	802160640	58	4375
2026-01-01 06:01:08.11	346.76	21.53	-47.5	-49.4	15.7	0.00e+00	0	61	0	804257792	58	4295
2026-01-01 06:01:09.07	346.53	21.47	-47.5	-49.4	15.7	0.00e+00	0	61	0	806354944	58	4317
2026-01-01 06:01:10.04	346.30	21.41	-47.8	-49.8	15.4	0.00e+00	0	61	0	808452096	58	4532
2026-01-01 06:01:11.01	346.07	21.36	-47.7	-49.7	15.5	0.00e+00	0	62	0	809500672	58	4455
2026-01-01 06:01:11.98	345.85	21.30	-47.9	-50.0	15.2	0.00e+00	0	61	0	811597824	58	4607
2026-01-01 06:01:12.95	345.62	21.24	-47.7	-49.6	15.6	0.00e+00	0	61	0	813694976	58	4426
2026-01-01 06:01:13.92	345.39	21.18	-47.6	-49.5	15.7	0.00e+00	0	61	0	815792128	58	4348
2026-01-01 06:01:14.89	345.17	21.12	-47.4	-49.2	15.8	0.00e+00	0	61	0	816840704	57	4489
2026-01-01 06:01:15.86	344.94	21.06	-47.4	-49.3	15.9	0.00e+00	0	61	0	818937856	57	4512
2026-01-01 06:01:16.83	344.72	21.00	-47.3	-49.1	16.0	0.00e+00	0	61	0	821035008	57	4431
2026-01-01 06:01:17.80	344.50	20.95	-47.3	-49.1	16.1	0.00e+00	0	61	0	823132160	57	4401
2026-01-01 06:01:18.77	344.28	20.89	-47.3	-49.1	16.0	0.00e+00	0	61	0	824180736	57	4425
2026-01-01 06:01:19.74	344.06	20.83	-47.3	-49.1	16.0	0.00e+00	0	61	0	826277888	57	4440
2026-01-01 06:01:20.71	343.84	20.76	-47.3	-49.1	16.1	0.00e+00	0	61	0	828375040	57	4398
2026-01-01 06:01:21.67	343.62	20.70	-47.2	-48.9	16.2	0.00e+00	0	62	0	829423616	57	4331
2026-01-01 06:01:22.65	343.40	20.64	-47.3	-49.1	16.0	0.00e+00	0	61	0	831520768	57	4392
2026-01-01 06:01:23.61	343.19	20.58	-47.2	-49.1	16.0	0.00e+00	0	61	0	833617920	57	4396
2026-01-01 06:01:24.58	342.97	20.52	-47.2	-49.0	16.1	0.00e+00	0	61	0	835715072	57	4344
2026-01-01 06:01:25.55	342.75	20.46	-47.2	-49.0	16.1	0.00e+00	0	61	0	836763648	57	4382
2026-01-01 06:01:26.52	342.54	20.40	-47.5	-49.4	15.7	0.00e+00	0	61	0	838860800	57	4554
2026-01-01 06:01:27.49	342.33	20.33	-47.6	-49.5	15.5	0.00e+00	0	61	0	840957952	57	4620
2026-01-01 06:01:28.46	342.11	20.27	-47.7	-49.8	15.3	0.00e+00	0	61	0	843055104	57	4769
2026-01-01 06:01:29.43	341.90	20.21	-47.9	-50.1	14.9	0.00e+00	0	61	0	844103680	57	4966
2026-01-01 06:01:30.40	341.69	20.14	-48.1	-50.4	14.5	0.00e+00	0	61	0	846200832	57	5116
2026-01-01 06:01:31.37	341.48	20.08	-48.2	-50.5	14.3	7.00e-07	0	62	0	848297984	58	4912
2026-01-01 06:01:32.33	341.27	20.02	-48.4	-50.9	13.9	2.20e-06	0	61	0	850395136	58	5134
2026-01-01 06:01:33.30	341.07	19.95	-48.6	-51.2	13.4	6.80e-06	0	62	0	851443712	58	5326
2026-01-01 06:01:34.27	340.86	19.89	-48.8	-51.7	12.8	3.66e-05	0	61	0	853540864	59	5309
2026-01-01 06:01:35.24	340.65	19.82	-49.0	-52.1	12.5	1.18e-04	0	62	0	855638016	59	5547
2026-01-01 06:01:36.21	340.45	19.76	-48.9	-52.1	12.5	1.44e-04	0	62	0	856686592	59	5531
2026-01-01 06:01:37.18	340.24	19.69	-48.8	-51.8	12.7	8.01e-05	0	62	0	858783744	59	5346
2026-01-01 06:01:38.14	340.04	19.63	-48.7	-51.6	12.9	4.50e-05	0	62	0	860880896	59	5237
2026-01-01 06:01:39.11	339.84	19.56	-48.7	-51.6	12.8	3.58e-05	0	62	0	862978048	59	5279
2026-01-01 06:01:40.08	339.64	19.50	-48.9	-51.9	12.5	5.11e-05	0	62	0	864026624	59	5462
2026-01-01 06:01:41.04	339.44	19.43	-48.8	-51.9	12.6	9.00e-05	0	62	0	866123776	59	5421
2026-01-01 06:01:42.01	339.24	19.37	-48.9	-52.3	12.1	1.79e-04	0	61	0	868220928	59	5692
2026-01-01 06:01:42.98	339.04	19.30	-49.1	-52.3	12.2	2.31e-04	0	61	0	870318080	59	5693
2026-01-01 06:01:43.95	338.84	19.24	-48.9	-52.0	12.5	1.80e-04	0	61	0	871366656	59	5469
2026-01-01 06:01:44.92	338.64	19.17	-48.5	-51.2	13.3	7.24e-05	0	61	0	873463808	59	5034
2026-01-01 06:01:45.89	338.44	19.10	-48.0	-50.4	14.2	2.20e-06	0	61	0	875560960	59	4586
2026-01-01 06:01:46.86	338.25	19.04	-47.9	-50.3	14.4	7.00e-07	0	61	0	877658112	58	4765
2026-01-01 06:01:47.82	338.05	18.97	-48.0	-50.3	14.4	0.00e+00	0	61	0	878706688	58	4811
2026-01-01 06:01:48.80	337.86	18.90	-47.7	-49.9	14.9	7.00e-07	0	62	0	880803840	58	4550
2026-01-01 06:01:49.77	337.66	18.83	-47.6	-49.7	15.1	0.00e+00	0	61	0	882900992	58	4452
2026-01-01 06:01:50.74	337.47	18.77	-47.5	-49.5	15.3	0.00e+00	0	62	0	884998144	58	4364
2026-01-01 06:01:51.71	337.28	18.70	-47.5	-49.6	15.2	0.00e+00	0	61	0	886046720	58	4406
2026-01-01 06:01:52.68	337.09	18.63	-47.7	-49.7	15.1	0.00e+00	0	61	0	888143872	58	4488
2026-01-01 06:01:53.65	336.90	18.56	-48.3	-50.6	14.2	7.00e-07	0	62	0	890241024	58	4974
2026-01-01 06:01:54.61	336.71	18.50	-48.5	-51.0	13.9	3.00e-06	0	62	0	891289600	58	5185
2026-01-01 06:01:55.58	336.52	18.43	-48.2	-50.6	14.4	7.00e-07	0	62	0	893386752	58	4940
2026-01-01 06:01:56.55	336.34	18.36	-47.9	-50.1	14.9	0.00e+00	0	62	0	895483904	58	4659
2026-01-01 06:01:57.52	336.15	18.29	-48.1	-50.2	14.8	1.50e-06	0	62	0	897581056	58	4736
2026-01-01 06:01:58.49	335.96	18.22	-48.1	-50.2	14.9	7.00e-07	0	61	0	898629632	58	4745
2026-01-01 06:01:59.46	335.78	18.15	-47.9	-50.0	15.1	0.00e+00	0	62	0	900726784	58	4638
2026-01-01 06:02:00.42	335.60	18.08	-47.9	-49.9	15.3	0.00e+00	0	62	0	902823936	58	4576
2026-01-01 06:02:01.40	335.41	18.01	-48.0	-50.0	15.2	0.00e+00	0	61	0	904921088	58	4631
2026-01-01 06:02:02.36	335.23	17.95	-48.0	-50.1	15.1	0.00e+00	0	62	0	905969664	58	4690
2026-01-01 06:02:03.33	335.05	17.88	-47.9	-50.0	15.3	0.00e+00	0	61	0	908066816	58	4601
2026-01-01 06:02:04.30	334.87	17.81	-47.7	-49.5	15.6	0.00e+00	0	61	0	910163968	58	4387
2026-01-01 06:02:05.27	334.69	17.74	-47.4	-49.3	15.9	0.00e+00	0	62	0	911212544	58	4251
2026-01-01 06:02:06.24	334.51	17.67	-47.1	-48.9	16.3	0.00e+00	0	61	0	913309696	57	4313
2026-01-01 06:02:07.21	334.33	17.60	-47.0	-48.7	16.5	0.00e+00	0	62	0	915406848	57	4204
2026-01-01 06:02:08.17	334.16	17.53	-46.9	-48.5	16.7	0.00e+00	0	62	0	917504000	56	4363
2026-01-01 06:02:09.14	333.98	17.46	-46.8	-48.4	16.8	0.00e+00	0	61	0	918552576	56	4331
2026-01-01 06:02:10.11	333.81	17.39	-46.8	-48.3	16.9	0.00e+00	0	61	0	920649728	56	4288
2026-01-01 06:02:11.08	333.63	17.32	-47.0	-48.7	16.5	0.00e+00	0	62	0	922746880	56	4489
2026-01-01 06:02:12.04	333.46	17.25	-47.1	-48.8	16.4	0.00e+00	0	62	0	924844032	56	4505
2026-01-01 06:02:13.01	333.29	17.18	-46.9	-48.5	16.7	0.00e+00	0	62	0	925892608	56	4375
2026-01-01 06:02:13.98	333.11	17.11	-46.8	-48.4	16.8	0.00e+00	0	62	0	927989760	56	4301
2026-01-01 06:02:14.95	332.94	17.04	-46.8	-48.4	16.9	0.00e+00	0	62	0	930086912	56	4307
2026-01-01 06:02:15.92	332.77	16.97	-46.8	-48.3	16.9	0.00e+00	0	62	0	931135488	56	4289
2026-01-01 06:02:16.89	332.60	16.90	-46.8	-48.4	16.8	0.00e+00	0	62	0	933232640	56	4323
2026-01-01 06:02:17.86	332.43	16.83	-46.8	-48.3	16.9	0.00e+00	0	61	0	935329792	56	4272
2026-01-01 06:02:18.83	332.26	16.76	-46.6	-48.2	17.0	0.00e+00	0	62	0	937426944	56	4232
2026-01-01 06:02:19.79	332.10	16.69	-46.6	-48.2	17.0	0.00e+00	0	62	0	938475520	56	4195
2026-01-01 06:02:20.77	331.93	16.62	-46.6	-48.2	17.0	0.00e+00	0	62	0	940572672	56	4199
2026-01-01 06:02:21.73	331.77	16.55	-46.8	-48.3	16.9	0.00e+00	0	62	0	942669824	56	4278
2026-01-01 06:02:22.70	331.60	16.48	-46.7	-48.3	16.9	0.00e+00	0	62	0	944766976	56	4259
2026-01-01 06:02:23.67	331.44	16.41	-46.8	-48.3	16.9	0.00e+00	0	62	0	945815552	56	4273
2026-01-01 06:02:24.64	331.27	16.34	-46.7	-48.3	16.9	0.00e+00	0	62	0	947912704	56	4253
2026-01-01 06:02:25.61	331.11	16.27	-46.7	-48.2	17.0	0.00e+00	0	62	0	950009856	56	4232
2026-01-01 06:02:26.59	330.95	16.19	-46.8	-48.4	16.8	0.00e+00	0	62	0	952107008	56	4330
2026-01-01 06:02:27.56	330.79	16.12	-46.9	-48.5	16.7	0.00e+00	0	62	0	953155584	56	4374
2026-01-01 06:02:28.52	330.63	16.05	-47.0	-48.7	16.6	0.00e+00	0	62	0	955252736	56	4451
2026-01-01 06:02:29.50	330.47	15.98	-46.8	-48.4	16.8	0.00e+00	0	62	0	957349888	56	4327
2026-01-01 06:02:30.46	330.31	15.91	-46.7	-48.2	17.0	0.00e+00	0	62	0	958398464	56	4208
2026-01-01 06:02:31.43	330.15	15.84	-46.7	-48.2	16.9	0.00e+00	0	62	0	960495616	56	4235
2026-01-01 06:02:32.40	329.99	15.77	-46.7	-48.3	16.9	0.00e+00	0	62	0	962592768	56	4259
2026-01-01 06:02:33.37	329.84	15.70	-46.8	-48.4	16.8	0.00e+00	0	62	0	964689920	56	4300
2026-01-01 06:02:34.33	329.68	15.63	-46.6	-48.1	17.1	0.00e+00	0	62	0	965738496	56	4180
2026-01-01 06:02:35.30	329.53	15.56	-46.6	-48.1	17.1	0.00e+00	0	62	0	967835648	56	4154
2026-01-01 06:02:36.27	329.37	15.49	-46.6	-48.1	17.1	0.00e+00	0	62	0	969932800	56	4160
2026-01-01 06:02:37.24	329.22	15.42	-46.6	-48.1	17.1	0.00e+00	0	62	0	972029952	56	4189
2026-01-01 06:02:38.22	329.06	15.34	-46.6	-48.1	17.1	0.00e+00	0	62	0	973078528	56	4193
2026-01-01 06:02:39.19	328.91	15.27	-46.7	-48.3	16.9	0.00e+00	0	62	0	975175680	56	4245
2026-01-01 06:02:40.15	328.76	15.20	-46.6	-48.1	17.1	0.00e+00	0	62	0	977272832	56	4168
2026-01-01 06:02:41.12	328.61	15.13	-46.7	-48.2	17.0	0.00e+00	0	62	0	979369984	56	4223
2026-01-01 06:02:42.09	328.46	15.06	-46.8	-48.4	16.8	0.00e+00	0	62	0	980418560	56	4321
2026-01-01 06:02:43.06	328.31	14.99	-46.8	-48.3	16.9	0.00e+00	0	62	0	982515712	56	4281
2026-01-01 06:02:44.03	328.16	14.92	-46.9	-48.5	16.7	0.00e+00	0	62	0	984612864	56	4373
2026-01-01 06:02:44.99	328.02	14.85	-47.0	-48.6	16.6	0.00e+00	0	62	0	986710016	56	4429
2026-01-01 06:02:45.96	327.87	14.78	-46.9	-48.5	16.7	0.00e+00	0	62	0	987758592	56	4373
2026-01-01 06:02:46.93	327.72	14.71	-47.0	-48.7	16.5	0.00e+00	0	62	0	989855744	56	4459
2026-01-01 06:02:47.90	327.58	14.64	-47.0	-48.7	16.5	0.00e+00	0	62	0	991952896	56	4466
2026-01-01 06:02:48.87	327.43	14.57	-47.1	-48.9	16.3	0.00e+00	0	62	0	993001472	56	4572
2026-01-01 06:02:49.84	327.29	14.50	-47.3	-49.1	16.1	0.00e+00	0	62	0	995098624	56	4663
2026-01-01 06:02:50.80	327.15	14.43	-47.3	-49.1	16.1	0.00e+00	0	62	0	997195776	56	4703
2026-01-01 06:02:51.77	327.00	14.35	-47.5	-49.3	15.9	0.00e+00	0	62	0	999292928	56	4784
2026-01-01 06:02:52.74	326.86	14.28	-47.3	-49.2	16.0	0.00e+00	0	62	0	1000341504	56	4739
2026-01-01 06:02:53.71	326.72	14.21	-47.5	-49.3	15.8	0.00e+00	0	62	0	1002438656	56	4801
2026-01-01 06:02:54.68	326.58	14.14	-47.6	-49.5	15.7	0.00e+00	0	62	0	1004535808	56	4875
2026-01-01 06:02:55.65	326.44	14.07	-47.6	-49.4	15.7	0.00e+00	0	62	0	1006632960	57	4593
2026-01-01 06:02:56.62	326.30	14.00	-47.6	-49.5	15.7	0.00e+00	0	62	0	1007681536	57	4602
2026-01-01 06:02:57.58	326.16	13.93	-47.6	-49.6	15.6	0.00e+00	0	62	0	1009778688	57	4663
2026-01-01 06:02:58.55	326.03	13.86	-47.6	-49.6	15.6	0.00e+00	0	62	0	1011875840	57	4656
2026-01-01 06:02:59.52	325.89	13.79	-47.4	-49.3	15.9	0.00e+00	0	62	0	1012924416	57	4507
2026-01-01 06:03:00.49	325.75	13.72	-47.5	-49.3	15.8	0.00e+00	0	62	0	1015021568	57	4535
2026-01-01 06:03:01.46	325.62	13.65	-47.5	-49.3	15.8	0.00e+00	0	62	0	1017118720	57	4540
2026-01-01 06:03:02.43	325.48	13.58	-47.4	-49.3	15.8	0.00e+00	0	62	0	1019215872	57	4514
2026-01-01 06:03:03.40	325.35	13.51	-47.5	-49.4	15.8	0.00e+00	0	62	0	1020264448	57	4561
2026-01-01 06:03:04.37	325.21	13.44	-47.5	-49.3	15.8	0.00e+00	0	62	0	1022361600	57	4538
2026-01-01 06:03:05.34	325.08	13.37	-47.5	-49.3	15.8	0.00e+00	0	62	0	1024458752	57	4532
2026-01-01 06:03:06.31	324.95	13.30	-47.5	-49.4	15.7	0.00e+00	0	62	0	1026555904	57	4565
2026-01-01 06:03:07.28	324.81	13.23	-47.5	-49.4	15.7	0.00e+00	0	62	0	1027604480	57	4590
2026-01-01 06:03:08.25	324.68	13.16	-47.6	-49.5	15.6	0.00e+00	0	62	0	1029701632	57	4626
2026-01-01 06:03:09.22	324.55	13.09	-47.7	-49.7	15.4	0.00e+00	0	62	0	1031798784	57	4735
2026-01-01 06:03:10.19	324.42	13.02	-47.9	-49.9	15.2	0.00e+00	0	62	0	1032847360	57	4855
2026-01-01 06:03:11.16	324.29	12.95	-47.7	-49.7	15.4	0.00e+00	0	62	0	1034944512	57	4742
2026-01-01 06:03:12.12	324.16	12.88	-47.7	-49.7	15.4	0.00e+00	0	62	0	1037041664	57	4715
2026-01-01 06:03:13.10	324.03	12.81	-47.8	-49.8	15.4	0.00e+00	0	62	0	1039138816	57	4765
2026-01-01 06:03:14.07	323.91	12.74	-47.7	-49.7	15.4	0.00e+00	0	62	0	1040187392	57	4753
2026-01-01 06:03:15.03	323.78	12.67	-47.8	-49.8	15.3	0.00e+00	0	62	0	1042284544	57	4809
2026-01-01 06:03:16.00	323.65	12.60	-47.9	-49.9	15.2	0.00e+00	0	62	0	1044381696	57	4865
2026-01-01 06:03:16.97	323.53	12.53	-47.6	-49.7	15.4	0.00e+00	0	62	0	1046478848	57	4737
2026-01-01 06:03:17.93	323.40	12.46	-47.7	-49.7	15.4	0.00e+00	0	62	0	1047527424	57	4759
2026-01-01 06:03:18.91	323.28	12.39	-47.8	-49.8	15.3	0.00e+00	0	62	0	1049624576	57	4769
2026-01-01 06:03:19.88	323.15	12.32	-47.8	-49.9	15.2	0.00e+00	0	62	0	1051721728	57	4816
2026-01-01 06:03:20.85	323.03	12.25	-47.8	-49.8	15.3	0.00e+00	0	62	0	1053818880	57	4770
2026-01-01 06:03:21.81	322.91	12.18	-47.8	-49.8	15.3	0.00e+00	0	62	0	1054867456	57	4784
2026-01-01 06:03:22.78	322.79	12.11	-48.0	-50.1	15.0	0.00e+00	0	62	0	1056964608	57	4946
2026-01-01 06:03:23.75	322.66	12.04	-47.9	-50.0	15.1	0.00e+00	0	62	0	1059061760	57	4876
2026-01-01 06:03:24.71	322.54	11.98	-47.8	-49.8	15.3	0.00e+00	0	62	0	1060110336	57	4763
2026-01-01 06:03:25.69	322.42	11.91	-47.7	-49.7	15.3	0.00e+00	0	62	0	1062207488	57	4738
2026-01-01 06:03:26.66	322.30	11.84	-47.8	-49.8	15.3	0.00e+00	0	62	0	1064304640	57	4793
2026-01-01 06:03:27.62	322.18	11.77	-48.0	-50.1	15.0	0.00e+00	0	62	0	1066401792	57	4965
2026-01-01 06:03:28.59	322.07	11.70	-48.1	-50.3	14.8	7.00e-07	0	62	0	1067450368	57	5052
2026-01-01 06:03:29.56	321.95	11.63	-48.1	-50.4	14.7	0.00e+00	0	62	0	1069547520	58	4821
2026-01-01 06:03:30.53	321.83	11.56	-48.2	-50.4	14.6	0.00e+00	0	62	0	1071644672	58	4869
2026-01-01 06:03:31.50	321.71	11.49	-48.2	-50.5	14.6	0.00e+00	0	62	0	1073741824	58	4903
2026-01-01 06:03:32.47	321.60	11.43	-48.2	-50.5	14.6	0.00e+00	0	62	0	1074790400	58	4883
2026-01-01 06:03:33.44	321.48	11.36	-48.2	-50.5	14.6	0.00e+00	0	62	0	1076887552	58	4892
2026-01-01 06:03:34.40	321.37	11.29	-48.3	-50.6	14.5	7.00e-07	0	62	0	1078984704	58	4956
2026-01-01 06:03:35.37	321.25	11.22	-48.3	-50.7	14.4	7.00e-07	0	62	0	1081081856	58	4991
2026-01-01 06:03:36.34	321.14	11.15	-48.2	-50.5	14.5	0.00e+00	0	62	0	1082130432	58	4901
2026-01-01 06:03:37.30	321.02	11.09	-48.2	-50.5	14.5	0.00e+00	0	62	0	1084227584	58	4899
2026-01-01 06:03:38.28	320.91	11.02	-48.3	-50.6	14.5	7.00e-07	0	62	0	1086324736	58	4928
2026-01-01 06:03:39.25	320.80	10.95	-48.3	-50.6	14.5	7.00e-07	0	62	0	1088421888	58	4944
2026-01-01 06:03:40.22	320.68	10.88	-48.2	-50.5	14.6	0.00e+00	0	62	0	1089470464	58	4887
2026-01-01 06:03:41.19	320.57	10.81	-48.2	-50.4	14.6	1.50e-06	0	62	0	1091567616	58	4851
2026-01-01 06:03:42.16	320.46	10.74	-48.3	-50.6	14.5	0.00e+00	0	62	0	1093664768	58	4954
2026-01-01 06:03:43.13	320.35	10.68	-48.4	-50.8	14.2	7.00e-07	0	62	0	1094713344	58	5086
2026-01-01 06:03:44.09	320.24	10.61	-48.3	-50.6	14.4	0.00e+00	0	62	0	1096810496	58	4955
2026-01-01 06:03:45.06	320.13	10.54	-48.2	-50.5	14.5	0.00e+00	0	62	0	1098907648	58	4895
2026-01-01 06:03:46.03	320.02	10.48	-48.2	-50.5	14.5	7.00e-07	0	62	0	1101004800	58	4899
2026-01-01 06:03:47.00	319.91	10.41	-48.3	-50.5	14.5	0.00e+00	0	62	0	1102053376	58	4923
2026-01-01 06:03:47.97	319.81	10.34	-48.4	-50.7	14.3	7.00e-07	0	62	0	1104150528	58	5040
2026-01-01 06:03:48.94	319.70	10.27	-48.4	-50.7	14.3	1.50e-06	0	62	0	1106247680	58	5025
2026-01-01 06:03:49.91	319.59	10.21	-48.4	-50.8	14.2	1.50e-06	0	62	0	1108344832	58	5067
2026-01-01 06:03:50.88	319.49	10.14	-48.6	-51.1	13.8	3.00e-06	0	62	0	1109393408	59	4981
2026-01-01 06:03:51.85	319.38	10.07	-48.6	-51.1	13.9	2.20e-06	0	62	0	1111490560	59	4944
2026-01-01 06:03:52.84	319.27	10.00	-48.6	-51.2	13.8	3.00e-06	0	62	0	1113587712	59	4996
2026-01-01 06:03:53.81	319.17	9.94	-48.6	-51.1	13.9	3.00e-06	0	62	0	1115684864	59	4955
2026-01-01 06:03:54.77	319.06	9.87	-48.5	-51.0	14.0	3.80e-06	0	62	0	1116733440	59	4906
2026-01-01 06:03:55.74	318.96	9.80	-48.6	-51.1	13.9	3.80e-06	0	62	0	1118830592	59	4950
2026-01-01 06:03:56.72	318.85	9.74	-48.7	-51.2	13.7	7.60e-06	0	62	0	1120927744	59	5040
2026-01-01 06:03:57.69	318.75	9.67	-48.7	-51.3	13.7	3.80e-06	0	62	0	1121976320	59	5065
2026-01-01 06:03:58.66	318.65	9.60	-48.5	-51.2	13.7	7.00e-07	0	62	0	1124073472	59	5035
2026-01-01 06:03:59.62	318.55	9.54	-48.7	-51.4	13.6	1.06e-05	0	62	0	1126170624	59	5103
2026-01-01 06:04:00.59	318.45	9.47	-48.8	-51.5	13.4	1.37e-05	0	62	0	1128267776	59	5200
2026-01-01 06:04:01.56	318.35	9.41	-48.7	-51.4	13.5	1.14e-05	0	62	0	1129316352	59	5142
2026-01-01 06:04:02.53	318.24	9.34	-48.8	-51.6	13.4	8.30e-06	0	62	0	1131413504	59	5233
2026-01-01 06:04:03.50	318.14	9.27	-48.9	-51.7	13.2	2.74e-05	0	62	0	1133510656	59	5337
2026-01-01 06:04:04.47	318.04	9.21	-49.0	-51.8	13.1	2.21e-05	0	62	0	1135607808	59	5377
2026-01-01 06:04:05.44	317.95	9.14	-49.0	-51.9	13.0	3.96e-05	0	62	0	1136656384	59	5435
2026-01-01 06:04:06.41	317.85	9.08	-49.0	-51.9	13.0	2.44e-05	0	62	0	1138753536	59	5429
2026-01-01 06:04:07.38	317.75	9.01	-49.1	-52.1	12.8	4.65e-05	0	62	0	1140850688	60	5254
2026-01-01 06:04:08.38	317.65	8.94	-49.2	-52.3	12.6	1.06e-04	0	62	0	1142947840	60	5367
2026-01-01 06:04:09.36	317.55	8.88	-49.2	-52.3	12.6	9.15e-05	0	62	0	1143996416	60	5356
2026-01-01 06:04:10.34	317.45	8.81	-49.2	-52.3	12.6	8.16e-05	0	62	0	1146093568	60	5371
2026-01-01 06:04:11.32	317.35	8.75	-49.2	-52.3	12.6	1.06e-04	0	62	0	1148190720	60	5351
2026-01-01 06:04:12.28	317.26	8.68	-49.2	-52.4	12.5	1.10e-04	0	62	0	1150287872	60	5424
2026-01-01 06:04:13.25	317.16	8.62	-49.3	-52.6	12.3	1.79e-04	0	62	0	1151336448	60	5553
2026-01-01 06:04:14.22	317.07	8.55	-49.1	-52.4	12.5	1.38e-04	0	62	0	1153433600	60	5423
2026-01-01 06:04:15.19	316.97	8.49	-49.3	-52.5	12.4	1.75e-04	0	62	0	1155530752	60	5498
2026-01-01 06:04:16.16	316.88	8.42	-49.2	-52.3	12.5	1.15e-04	0	62	0	1156579328	60	5396
2026-01-01 06:04:17.13	316.78	8.36	-49.1	-52.1	12.7	6.48e-05	0	62	0	1158676480	60	5274
2026-01-01 06:04:18.10	316.69	8.29	-49.1	-52.1	12.8	5.79e-05	0	62	0	1160773632	60	5230
2026-01-01 06:04:19.07	316.60	8.23	-49.2	-52.3	12.5	9.53e-05	0	62	0	1162870784	60	5377
2026-01-01 06:04:20.04	316.51	8.16	-49.3	-52.4	12.4	1.40e-04	0	62	0	1163919360	60	5450
2026-01-01 06:04:21.01	316.41	8.10	-49.0	-52.0	12.8	8.01e-05	0	62	0	1166016512	60	5217
2026-01-01 06:04:21.98	316.32	8.04	-49.0	-52.1	12.8	6.94e-05	0	62	0	1168113664	60	5223
2026-01-01 06:04:22.95	316.23	7.97	-49.1	-52.3	12.5	7.93e-05	0	62	0	1170210816	60	5367
2026-01-01 06:04:23.92	316.14	7.91	-49.4	-52.8	12.0	1.69e-04	0	62	0	1171259392	60	5671
2026-01-01 06:04:24.89	316.05	7.84	-49.3	-52.5	12.3	2.84e-04	0	62	0	1173356544	60	5479
2026-01-01 06:04:25.86	315.96	7.78	-49.1	-52.4	12.4	1.33e-04	0	62	0	1175453696	60	5424
2026-01-01 06:04:26.83	315.87	7.72	-49.2	-52.4	12.4	1.56e-04	0	62	0	1177550848	60	5408
2026-01-01 06:04:27.80	315.78	7.65	-49.1	-52.3	12.5	1.02e-04	0	62	0	1178599424	60	5366
2026-01-01 06:04:28.76	315.69	7.59	-49.1	-52.3	12.5	9.76e-05	0	62	0	1180696576	60	5359
2026-01-01 06:04:29.74	315.60	7.53	-49.2	-52.5	12.3	1.86e-04	0	62	0	1182793728	60	5469
2026-01-01 06:04:30.71	315.51	7.46	-49.2	-52.5	12.3	2.19e-04	0	62	0	1184890880	60	5465
2026-01-01 06:04:31.68	315.43	7.40	-49.2	-52.5	12.3	1.70e-04	0	62	0	1185939456	60	5471
2026-01-01 06:04:32.65	315.34	7.34	-49.4	-52.8	11.9	2.16e-04	0	62	0	1188036608	60	5707
2026-01-01 06:04:33.62	315.25	7.27	-49.5	-53.0	11.7	5.65e-04	0	62	0	1190133760	60	5827
2026-01-01 06:04:34.58	315.17	7.21	-49.6	-53.2	11.5	7.21e-04	0	62	0	1191182336	60	5974
2026-01-01 06:04:35.55	315.08	7.15	-49.6	-53.3	11.3	1.06e-03	0	62	0	1193279488	61	5710
2026-01-01 06:04:36.52	315.00	7.08	-49.7	-53.4	11.2	1.27e-03	0	62	0	1195376640	61	5770
2026-01-01 06:04:37.49	314.91	7.02	-49.6	-53.4	11.3	1.38e-03	0	62	0	1197473792	61	5754
2026-01-01 06:04:38.45	314.83	6.96	-49.7	-53.5	11.2	1.27e-03	0	62	0	1198522368	61	5819
2026-01-01 06:04:39.42	314.74	6.90	-49.8	-53.7	11.0	1.94e-03	0	62	0	1200619520	61	5955
2026-01-01 06:04:40.39	314.66	6.83	-49.8	-53.8	10.9	2.21e-03	0	62	0	1202716672	61	6025
2026-01-01 06:04:41.36	314.57	6.77	-49.9	-53.9	10.7	1.99e-03	0	62	0	1204813824	61	6110
