passes_logs/2026/01/01/R3.0SM8_Murmansk_STILSPACE/R3.0SM8_Murmansk_STILSPACE__20260101_005435_NOAA_20_JPSS-1_rec.log

#Pass ID: 20260101_005435_NOAA 20 (JPSS-1)
#Satellite: NOAA 20 (JPSS-1)
#Configuration: NOAA 20
#almurnet v.1.7.20240730
#Start time: 2026-01-01 00:54:37

#Version: 2.2.20231116
#Station: R3.0SM8_Murmansk_STILSPACE
#Location: 33.092731 lon 68.902999 lat
#TLE: 1 43013U 17073A   25365.45761817  .00000173  00000+0  10307-3 0  9993
#TLE: 2 43013  98.7620 301.5517 0001951  60.3814 299.7557 14.19531661420675

#Time	Az	El	Level	Level2	SNR	BER	BlckErr	Temp	State	Recorded	gain1	gain2
2026-01-01 00:54:37.69	25.35	3.14	-52.5	-66.3	3.8	1.49e+00	0	51	0	0	66	19070
2026-01-01 00:54:38.68	25.35	3.20	-52.3	-66.3	3.8	1.49e+00	0	52	104	0	67	17938
2026-01-01 00:54:39.66	25.35	3.27	-52.3	-66.2	3.8	1.49e+00	0	52	104	0	67	17822
2026-01-01 00:54:40.65	25.35	3.34	-52.3	-66.1	3.8	1.49e+00	0	52	104	0	67	17609
2026-01-01 00:54:41.63	25.34	3.40	-52.1	-66.0	3.8	1.49e+00	0	52	104	0	67	17316
2026-01-01 00:54:42.61	25.34	3.47	-52.0	-65.8	3.8	1.49e+00	0	52	104	0	67	17036
2026-01-01 00:54:43.60	25.34	3.53	-51.7	-65.0	3.8	1.49e+00	0	52	104	0	66	16465
2026-01-01 00:54:44.58	25.33	3.60	-51.7	-64.7	3.8	1.49e+00	0	52	104	0	66	15897
2026-01-01 00:54:45.57	25.33	3.67	-51.7	-64.5	3.8	1.49e+00	0	52	104	0	66	15439
2026-01-01 00:54:46.55	25.33	3.73	-51.7	-64.2	3.8	1.49e+00	0	52	104	0	66	14964
2026-01-01 00:54:47.53	25.33	3.80	-51.7	-64.0	3.8	1.49e+00	0	52	104	0	66	14562
2026-01-01 00:54:48.51	25.32	3.87	-51.7	-63.7	3.8	1.49e+00	0	52	104	0	66	14199
2026-01-01 00:54:49.50	25.32	3.93	-51.6	-63.6	3.8	1.49e+00	0	52	104	0	66	13952
2026-01-01 00:54:50.48	25.32	4.00	-51.6	-63.4	3.8	1.49e+00	0	52	104	0	66	13671
2026-01-01 00:54:51.47	25.31	4.07	-51.6	-63.0	3.9	1.47e+00	0	53	104	0	66	13017
2026-01-01 00:54:52.44	25.31	4.14	-51.6	-62.6	4.1	1.46e+00	0	52	0	0	66	12390
2026-01-01 00:54:53.40	25.31	4.20	-51.6	-62.2	4.1	1.43e+00	0	53	0	0	66	11880
2026-01-01 00:54:54.37	25.31	4.27	-51.5	-61.8	4.3	1.37e+00	0	53	0	0	66	11325
2026-01-01 00:54:55.33	25.30	4.34	-51.4	-61.2	4.4	1.32e+00	51	53	0	0	66	10646
2026-01-01 00:54:56.29	25.30	4.40	-51.4	-60.7	4.7	9.99e-01	0	53	0	2097152	65	10594
2026-01-01 00:54:57.25	25.30	4.47	-51.3	-60.2	4.9	8.37e-01	0	53	0	4194304	65	10001
2026-01-01 00:54:58.21	25.29	4.54	-51.2	-59.7	5.2	7.18e-01	0	53	0	5242880	65	9393
2026-01-01 00:54:59.17	25.29	4.60	-51.1	-59.0	5.7	4.94e-01	0	53	0	7340032	65	8664
2026-01-01 00:55:00.14	25.29	4.67	-51.0	-58.1	6.3	3.33e-01	0	53	0	9437184	65	7843
2026-01-01 00:55:01.10	25.28	4.74	-50.8	-57.6	6.7	2.16e-01	0	53	0	10485760	64	7854
2026-01-01 00:55:02.08	25.28	4.81	-50.7	-57.0	7.3	1.81e-01	0	53	0	12582912	64	7355
2026-01-01 00:55:03.04	25.28	4.88	-50.4	-56.4	7.8	9.02e-02	0	53	0	14680064	64	6865
2026-01-01 00:55:04.00	25.27	4.94	-50.4	-56.3	8.0	7.29e-02	0	53	0	16777216	63	7185
2026-01-01 00:55:04.96	25.27	5.01	-50.4	-56.0	8.3	5.50e-02	0	53	0	17825792	63	6939
2026-01-01 00:55:05.93	25.27	5.08	-50.4	-55.9	8.5	4.99e-02	0	53	0	19922944	63	6843
2026-01-01 00:55:06.89	25.26	5.15	-50.6	-56.2	8.2	5.51e-02	0	53	0	22020096	63	7075
2026-01-01 00:55:07.87	25.26	5.22	-50.5	-56.0	8.3	5.05e-02	0	53	0	23068672	63	6953
2026-01-01 00:55:08.83	25.26	5.29	-50.4	-55.6	8.8	3.38e-02	0	53	0	25165824	63	6582
2026-01-01 00:55:09.79	25.25	5.36	-50.2	-55.4	9.0	2.92e-02	0	53	0	27262976	63	6429
2026-01-01 00:55:10.75	25.25	5.43	-50.1	-55.0	9.4	2.02e-02	0	54	0	29360128	63	6144
2026-01-01 00:55:11.71	25.25	5.50	-50.0	-54.6	9.8	1.37e-02	0	53	0	30408704	63	5866
2026-01-01 00:55:12.68	25.24	5.57	-49.9	-54.4	10.0	7.74e-03	0	54	0	32505856	62	6099
2026-01-01 00:55:13.64	25.24	5.64	-49.9	-54.3	10.1	6.66e-03	0	54	0	34603008	62	6017
2026-01-01 00:55:14.61	25.23	5.71	-49.9	-54.4	10.0	6.65e-03	0	54	0	36700160	62	6098
2026-01-01 00:55:15.58	25.23	5.78	-50.0	-54.4	10.0	7.53e-03	0	54	0	37748736	62	6072
2026-01-01 00:55:16.54	25.23	5.85	-49.8	-54.0	10.4	6.66e-03	0	54	0	39845888	62	5845
2026-01-01 00:55:17.51	25.22	5.92	-49.6	-53.7	10.7	3.80e-03	0	54	0	41943040	62	5643
2026-01-01 00:55:18.47	25.22	5.99	-49.5	-53.5	11.0	2.54e-03	0	54	0	42991616	62	5503
2026-01-01 00:55:19.43	25.21	6.06	-49.4	-53.3	11.3	1.33e-03	0	54	0	45088768	62	5342
2026-01-01 00:55:20.40	25.21	6.14	-49.5	-53.2	11.3	1.48e-03	0	54	0	47185920	62	5313
2026-01-01 00:55:21.37	25.21	6.21	-49.5	-53.3	11.3	9.84e-04	0	54	0	49283072	62	5363
2026-01-01 00:55:22.33	25.20	6.28	-49.6	-53.3	11.2	1.36e-03	0	54	0	50331648	62	5385
2026-01-01 00:55:23.30	25.20	6.35	-49.6	-53.5	11.1	1.52e-03	0	54	0	52428800	62	5472
2026-01-01 00:55:24.26	25.19	6.42	-49.6	-53.5	11.1	1.52e-03	0	54	0	54525952	62	5479
2026-01-01 00:55:25.22	25.19	6.50	-49.6	-53.3	11.3	1.26e-03	0	54	0	56623104	62	5359
2026-01-01 00:55:26.19	25.19	6.57	-49.6	-53.2	11.4	9.27e-04	0	54	0	57671680	62	5326
2026-01-01 00:55:27.15	25.18	6.64	-49.5	-53.1	11.5	9.47e-04	0	54	0	59768832	62	5276
2026-01-01 00:55:28.11	25.18	6.71	-49.5	-53.1	11.5	8.25e-04	0	54	0	61865984	62	5246
2026-01-01 00:55:29.08	25.17	6.79	-49.5	-53.2	11.4	7.74e-04	0	54	0	62914560	62	5301
2026-01-01 00:55:30.04	25.17	6.86	-49.6	-53.2	11.4	9.09e-04	0	54	0	65011712	62	5306
2026-01-01 00:55:31.00	25.16	6.93	-49.6	-53.2	11.4	9.32e-04	0	54	0	67108864	62	5332
2026-01-01 00:55:31.96	25.16	7.01	-49.6	-53.3	11.4	1.03e-03	0	54	0	69206016	62	5380
2026-01-01 00:55:32.93	25.15	7.08	-49.8	-53.9	10.8	1.66e-03	0	55	0	70254592	62	5730
2026-01-01 00:55:33.89	25.15	7.16	-49.7	-53.6	11.0	2.52e-03	0	55	0	72351744	62	5549
2026-01-01 00:55:34.85	25.14	7.23	-49.6	-53.2	11.4	1.37e-03	0	55	0	74448896	62	5325
2026-01-01 00:55:35.82	25.14	7.31	-49.3	-52.9	11.7	5.52e-04	0	55	0	75497472	62	5149
2026-01-01 00:55:36.78	25.14	7.38	-49.4	-52.9	11.8	4.45e-04	0	55	0	77594624	61	5433
2026-01-01 00:55:37.74	25.13	7.46	-49.4	-52.8	11.9	3.49e-04	0	55	0	79691776	61	5373
2026-01-01 00:55:38.71	25.13	7.53	-49.3	-52.9	11.8	4.39e-04	0	55	0	81788928	61	5426
2026-01-01 00:55:39.67	25.12	7.61	-49.4	-52.8	11.9	4.22e-04	0	55	0	82837504	61	5401
2026-01-01 00:55:40.63	25.12	7.68	-49.3	-52.8	11.9	4.06e-04	0	55	0	84934656	61	5396
2026-01-01 00:55:41.60	25.11	7.76	-49.4	-52.9	11.8	4.21e-04	0	55	0	87031808	61	5445
2026-01-01 00:55:42.56	25.11	7.84	-49.6	-53.1	11.6	6.58e-04	0	55	0	89128960	61	5569
2026-01-01 00:55:43.52	25.10	7.91	-49.6	-53.2	11.6	6.37e-04	0	55	0	90177536	61	5612
2026-01-01 00:55:44.49	25.10	7.99	-49.6	-53.3	11.5	9.18e-04	0	55	0	92274688	61	5673
2026-01-01 00:55:45.45	25.09	8.07	-49.6	-53.3	11.5	9.00e-04	0	55	0	94371840	61	5681
2026-01-01 00:55:46.41	25.09	8.14	-49.5	-53.1	11.7	6.86e-04	0	55	0	95420416	61	5540
2026-01-01 00:55:47.38	25.08	8.22	-49.6	-53.5	11.3	9.46e-04	0	55	0	97517568	61	5825
2026-01-01 00:55:48.34	25.07	8.30	-49.6	-53.4	11.3	1.16e-03	0	55	0	99614720	61	5779
2026-01-01 00:55:49.30	25.07	8.38	-49.7	-53.4	11.4	1.23e-03	0	55	0	101711872	61	5777
2026-01-01 00:55:50.27	25.06	8.46	-49.8	-53.6	11.2	1.18e-03	0	56	0	102760448	61	5889
2026-01-01 00:55:51.24	25.06	8.53	-49.9	-53.8	11.0	1.43e-03	0	56	0	104857600	61	6031
2026-01-01 00:55:52.20	25.05	8.61	-50.0	-54.0	10.8	2.41e-03	0	55	0	106954752	61	6142
2026-01-01 00:55:53.16	25.05	8.69	-49.9	-53.8	11.0	2.13e-03	0	56	0	108003328	61	6025
2026-01-01 00:55:54.13	25.04	8.77	-50.1	-54.1	10.7	2.18e-03	0	56	0	110100480	61	6208
2026-01-01 00:55:55.10	25.04	8.85	-49.9	-53.8	11.0	2.03e-03	0	56	0	112197632	61	6016
2026-01-01 00:55:56.06	25.03	8.93	-49.8	-53.6	11.2	1.44e-03	0	56	0	114294784	61	5870
2026-01-01 00:55:57.03	25.02	9.01	-49.8	-53.5	11.3	1.10e-03	0	56	0	115343360	61	5815
2026-01-01 00:55:57.99	25.02	9.09	-49.7	-53.3	11.6	8.83e-04	0	56	0	117440512	61	5672
2026-01-01 00:55:58.95	25.01	9.17	-50.0	-53.9	11.0	1.52e-03	0	56	0	119537664	61	6088
2026-01-01 00:55:59.91	25.01	9.25	-49.9	-53.8	11.1	1.87e-03	0	56	0	121634816	61	6014
2026-01-01 00:56:00.87	25.00	9.33	-49.8	-53.5	11.4	1.30e-03	0	56	0	122683392	61	5818
2026-01-01 00:56:01.84	24.99	9.41	-49.7	-53.1	11.7	6.42e-04	0	56	0	124780544	61	5584
2026-01-01 00:56:02.80	24.99	9.50	-49.5	-52.9	12.0	4.16e-04	0	56	0	126877696	61	5418
2026-01-01 00:56:03.76	24.98	9.58	-49.5	-52.9	12.0	3.90e-04	0	56	0	127926272	61	5458
2026-01-01 00:56:04.73	24.98	9.66	-49.6	-52.9	12.0	3.10e-04	0	56	0	130023424	61	5461
2026-01-01 00:56:05.69	24.97	9.74	-49.7	-53.2	11.7	4.10e-04	0	56	0	132120576	61	5603
2026-01-01 00:56:06.65	24.96	9.82	-49.6	-53.0	11.9	6.09e-04	0	56	0	134217728	61	5496
2026-01-01 00:56:07.61	24.96	9.91	-49.4	-52.7	12.2	2.96e-04	0	56	0	135266304	61	5336
2026-01-01 00:56:08.58	24.95	9.99	-49.3	-52.4	12.5	1.05e-04	0	56	0	137363456	61	5140
2026-01-01 00:56:09.54	24.94	10.07	-49.2	-52.2	12.7	7.40e-05	0	56	0	139460608	61	5015
2026-01-01 00:56:10.50	24.94	10.16	-49.1	-52.1	12.9	4.73e-05	0	56	0	141557760	61	4951
2026-01-01 00:56:11.46	24.93	10.24	-49.2	-52.2	12.7	5.95e-05	0	56	0	142606336	61	5030
2026-01-01 00:56:12.42	24.92	10.32	-49.2	-52.2	12.7	7.01e-05	0	56	0	144703488	61	5005
2026-01-01 00:56:13.39	24.92	10.41	-49.2	-52.2	12.8	4.65e-05	0	56	0	146800640	61	4992
2026-01-01 00:56:14.35	24.91	10.49	-49.2	-52.2	12.8	5.34e-05	0	56	0	147849216	61	4989
2026-01-01 00:56:15.32	24.90	10.58	-49.2	-52.1	12.9	5.11e-05	0	57	0	149946368	61	4976
2026-01-01 00:56:16.29	24.90	10.67	-49.0	-51.9	13.1	3.73e-05	0	57	0	152043520	61	4856
2026-01-01 00:56:17.25	24.89	10.75	-49.0	-51.8	13.2	3.35e-05	0	56	0	154140672	61	4813
2026-01-01 00:56:18.21	24.88	10.84	-49.0	-51.9	13.1	2.67e-05	0	57	0	155189248	61	4862
2026-01-01 00:56:19.17	24.87	10.92	-49.1	-52.1	13.0	2.82e-05	0	57	0	157286400	61	4928
2026-01-01 00:56:20.13	24.87	11.01	-49.2	-52.3	12.7	5.56e-05	0	57	0	159383552	61	5083
2026-01-01 00:56:21.10	24.86	11.10	-49.2	-52.4	12.6	8.08e-05	0	57	0	160432128	61	5135
2026-01-01 00:56:22.06	24.85	11.18	-49.3	-52.3	12.7	1.02e-04	0	57	0	162529280	61	5093
2026-01-01 00:56:23.02	24.85	11.27	-49.2	-52.3	12.8	6.71e-05	0	57	0	164626432	61	5043
2026-01-01 00:56:23.99	24.84	11.36	-49.3	-52.3	12.6	6.02e-05	0	57	0	166723584	61	5099
2026-01-01 00:56:24.96	24.83	11.45	-49.3	-52.4	12.6	8.69e-05	0	57	0	167772160	61	5159
2026-01-01 00:56:25.92	24.82	11.54	-49.2	-52.2	12.8	7.24e-05	0	57	0	169869312	61	5029
2026-01-01 00:56:26.88	24.81	11.63	-49.3	-52.4	12.6	5.64e-05	0	57	0	171966464	61	5143
2026-01-01 00:56:27.84	24.81	11.72	-49.3	-52.3	12.7	1.16e-04	0	57	0	174063616	61	5084
2026-01-01 00:56:28.81	24.80	11.81	-49.1	-52.0	13.0	4.04e-05	0	57	0	175112192	61	4896
2026-01-01 00:56:29.77	24.79	11.89	-49.0	-51.8	13.3	2.89e-05	0	57	0	177209344	61	4809
2026-01-01 00:56:30.74	24.78	11.99	-48.9	-51.8	13.3	1.52e-05	0	57	0	179306496	61	4768
2026-01-01 00:56:31.70	24.77	12.08	-49.0	-51.8	13.2	1.52e-05	0	57	0	180355072	61	4807
2026-01-01 00:56:32.66	24.77	12.17	-49.1	-51.9	13.2	2.13e-05	0	57	0	182452224	61	4843
2026-01-01 00:56:33.63	24.76	12.26	-49.2	-52.1	12.9	3.20e-05	0	57	0	184549376	61	4983
2026-01-01 00:56:34.59	24.75	12.35	-49.2	-52.1	13.0	5.72e-05	0	57	0	186646528	61	4949
2026-01-01 00:56:35.56	24.74	12.44	-49.1	-51.9	13.2	3.28e-05	0	57	0	187695104	61	4839
2026-01-01 00:56:36.52	24.73	12.53	-49.0	-51.8	13.3	1.90e-05	0	57	0	189792256	61	4786
2026-01-01 00:56:37.48	24.72	12.63	-49.0	-51.8	13.3	2.13e-05	0	57	0	191889408	61	4795
2026-01-01 00:56:38.44	24.72	12.72	-49.0	-51.8	13.3	2.67e-05	0	57	0	192937984	61	4793
2026-01-01 00:56:39.41	24.71	12.81	-49.1	-51.9	13.2	1.75e-05	0	57	0	195035136	60	5153
2026-01-01 00:56:40.37	24.70	12.91	-49.1	-51.9	13.2	2.67e-05	0	57	0	197132288	60	5144
2026-01-01 00:56:41.34	24.69	13.00	-48.9	-51.6	13.5	1.06e-05	0	57	0	199229440	60	4971
2026-01-01 00:56:42.30	24.68	13.09	-48.7	-51.3	13.8	7.60e-06	0	58	0	200278016	60	4792
2026-01-01 00:56:43.26	24.67	13.19	-48.7	-51.2	13.9	6.10e-06	0	57	0	202375168	60	4723
2026-01-01 00:56:44.23	24.66	13.28	-48.6	-51.1	14.1	2.20e-06	0	58	0	204472320	60	4662
2026-01-01 00:56:45.19	24.65	13.38	-48.6	-51.1	14.0	2.20e-06	0	57	0	206569472	60	4681
2026-01-01 00:56:46.15	24.64	13.48	-48.6	-51.1	14.1	1.50e-06	0	58	0	207618048	60	4667
2026-01-01 00:56:47.11	24.63	13.57	-48.6	-51.2	14.0	2.20e-06	0	58	0	209715200	60	4714
2026-01-01 00:56:48.08	24.62	13.67	-48.5	-50.9	14.2	0.00e+00	0	58	0	211812352	60	4596
2026-01-01 00:56:49.04	24.62	13.77	-48.6	-51.0	14.1	0.00e+00	0	58	0	212860928	60	4635
2026-01-01 00:56:50.01	24.61	13.86	-48.5	-50.9	14.3	1.50e-06	0	58	0	214958080	60	4568
2026-01-01 00:56:50.97	24.60	13.96	-48.5	-51.0	14.2	1.50e-06	0	58	0	217055232	60	4602
2026-01-01 00:56:51.94	24.59	14.06	-48.5	-50.9	14.2	1.50e-06	0	58	0	219152384	60	4587
2026-01-01 00:56:52.90	24.58	14.16	-48.5	-50.9	14.2	1.50e-06	0	58	0	220200960	60	4593
2026-01-01 00:56:53.86	24.57	14.26	-48.6	-51.1	14.1	7.00e-07	0	58	0	222298112	60	4653
2026-01-01 00:56:54.82	24.56	14.36	-48.7	-51.2	14.0	7.00e-07	0	58	0	224395264	60	4727
2026-01-01 00:56:55.78	24.55	14.45	-48.7	-51.1	14.0	8.30e-06	0	58	0	225443840	60	4705
2026-01-01 00:56:56.75	24.54	14.56	-48.5	-50.9	14.3	7.00e-07	0	58	0	227540992	60	4573
2026-01-01 00:56:57.71	24.52	14.66	-48.4	-50.8	14.4	1.50e-06	0	58	0	229638144	59	4788
2026-01-01 00:56:58.67	24.51	14.76	-48.4	-50.8	14.5	7.00e-07	0	58	0	231735296	59	4761
2026-01-01 00:56:59.63	24.50	14.86	-48.5	-50.8	14.5	7.00e-07	0	58	0	232783872	59	4760
2026-01-01 00:57:00.60	24.49	14.96	-48.5	-50.8	14.4	7.00e-07	0	58	0	234881024	59	4791
2026-01-01 00:57:01.56	24.48	15.06	-48.6	-51.0	14.2	2.20e-06	0	58	0	236978176	59	4909
2026-01-01 00:57:02.53	24.47	15.17	-48.6	-51.0	14.3	3.00e-06	0	58	0	239075328	59	4877
2026-01-01 00:57:03.49	24.46	15.27	-48.6	-50.9	14.3	7.00e-07	0	58	0	240123904	59	4860
2026-01-01 00:57:04.46	24.45	15.37	-48.7	-51.2	14.1	7.00e-07	0	58	0	242221056	59	5003
2026-01-01 00:57:05.42	24.44	15.48	-48.7	-51.2	14.0	1.50e-06	0	58	0	244318208	59	5015
2026-01-01 00:57:06.38	24.43	15.58	-48.6	-50.9	14.3	3.00e-06	0	58	0	245366784	59	4856
2026-01-01 00:57:07.34	24.41	15.68	-48.6	-51.0	14.3	0.00e+00	0	58	0	247463936	59	4882
2026-01-01 00:57:08.31	24.40	15.79	-48.6	-51.0	14.3	7.00e-07	0	58	0	249561088	59	4881
2026-01-01 00:57:09.27	24.39	15.90	-48.6	-50.9	14.3	1.50e-06	0	58	0	251658240	59	4848
2026-01-01 00:57:10.23	24.38	16.00	-48.7	-51.2	14.1	3.80e-06	0	58	0	252706816	59	4990
2026-01-01 00:57:11.19	24.37	16.11	-48.8	-51.3	13.9	2.20e-06	0	59	0	254803968	59	5083
2026-01-01 00:57:12.15	24.36	16.22	-48.6	-51.0	14.3	2.20e-06	0	58	0	256901120	59	4903
2026-01-01 00:57:13.11	24.34	16.32	-48.8	-51.3	14.0	1.50e-06	0	58	0	257949696	59	5043
2026-01-01 00:57:14.08	24.33	16.43	-49.0	-51.6	13.7	3.00e-06	0	58	0	260046848	59	5232
2026-01-01 00:57:15.04	24.32	16.54	-49.1	-51.9	13.4	1.14e-05	0	58	0	262144000	60	5121
2026-01-01 00:57:16.01	24.31	16.65	-49.0	-51.6	13.6	1.22e-05	0	58	0	264241152	60	4980
2026-01-01 00:57:16.98	24.29	16.76	-48.8	-51.3	13.9	8.30e-06	0	58	0	265289728	60	4807
2026-01-01 00:57:17.94	24.28	16.87	-48.6	-51.1	14.2	0.00e+00	0	58	0	267386880	60	4665
2026-01-01 00:57:18.90	24.27	16.98	-48.6	-51.1	14.2	0.00e+00	0	58	0	269484032	60	4653
2026-01-01 00:57:19.87	24.26	17.09	-48.6	-51.1	14.2	7.00e-07	0	58	0	271581184	60	4679
2026-01-01 00:57:20.83	24.24	17.20	-48.8	-51.4	13.9	2.20e-06	0	59	0	272629760	60	4835
2026-01-01 00:57:21.79	24.23	17.32	-48.7	-51.2	14.1	3.80e-06	0	59	0	274726912	60	4716
2026-01-01 00:57:22.76	24.22	17.43	-48.4	-50.6	14.6	1.50e-06	0	58	0	276824064	60	4437
2026-01-01 00:57:23.72	24.20	17.54	-48.1	-50.2	15.1	0.00e+00	0	59	0	277872640	59	4490
2026-01-01 00:57:24.69	24.19	17.66	-47.9	-49.9	15.4	0.00e+00	0	59	0	279969792	59	4332
2026-01-01 00:57:25.65	24.17	17.77	-47.8	-49.7	15.6	0.00e+00	0	59	0	282066944	58	4471
2026-01-01 00:57:26.61	24.16	17.88	-47.7	-49.7	15.6	0.00e+00	0	59	0	284164096	58	4450
2026-01-01 00:57:27.57	24.15	18.00	-47.8	-49.7	15.7	0.00e+00	0	58	0	285212672	58	4442
2026-01-01 00:57:28.54	24.13	18.12	-47.9	-49.8	15.5	0.00e+00	0	59	0	287309824	58	4520
2026-01-01 00:57:29.50	24.12	18.23	-47.8	-49.7	15.6	0.00e+00	0	59	0	289406976	58	4470
2026-01-01 00:57:30.46	24.10	18.35	-47.7	-49.6	15.8	0.00e+00	0	58	0	290455552	58	4398
2026-01-01 00:57:31.43	24.09	18.47	-47.7	-49.6	15.8	0.00e+00	0	59	0	292552704	58	4398
2026-01-01 00:57:32.39	24.07	18.58	-47.7	-49.6	15.7	0.00e+00	0	59	0	294649856	58	4418
2026-01-01 00:57:33.36	24.06	18.70	-47.7	-49.6	15.7	0.00e+00	0	59	0	296747008	58	4426
2026-01-01 00:57:34.32	24.04	18.82	-47.6	-49.5	15.9	0.00e+00	0	59	0	297795584	58	4342
2026-01-01 00:57:35.28	24.03	18.94	-47.8	-49.7	15.7	0.00e+00	0	59	0	299892736	58	4443
2026-01-01 00:57:36.25	24.01	19.06	-47.9	-49.9	15.4	0.00e+00	0	59	0	301989888	58	4576
2026-01-01 00:57:37.21	24.00	19.18	-47.8	-49.7	15.6	0.00e+00	0	59	0	304087040	58	4493
2026-01-01 00:57:38.17	23.98	19.30	-48.0	-50.0	15.4	0.00e+00	0	59	0	305135616	58	4613
2026-01-01 00:57:39.13	23.97	19.43	-48.2	-50.3	15.1	0.00e+00	0	59	0	307232768	58	4765
2026-01-01 00:57:40.09	23.95	19.55	-47.9	-49.9	15.4	0.00e+00	0	59	0	309329920	58	4590
2026-01-01 00:57:41.06	23.94	19.67	-47.6	-49.5	15.8	0.00e+00	0	59	0	310378496	58	4381
2026-01-01 00:57:42.02	23.92	19.80	-47.6	-49.5	15.9	0.00e+00	0	59	0	312475648	58	4351
2026-01-01 00:57:42.99	23.90	19.92	-47.6	-49.5	15.9	0.00e+00	0	59	0	314572800	58	4352
2026-01-01 00:57:43.94	23.89	20.04	-47.6	-49.5	15.9	0.00e+00	0	59	0	316669952	58	4346
2026-01-01 00:57:44.91	23.87	20.17	-47.8	-49.7	15.7	0.00e+00	0	59	0	317718528	58	4479
2026-01-01 00:57:45.87	23.85	20.30	-47.7	-49.5	15.8	0.00e+00	0	59	0	319815680	58	4379
2026-01-01 00:57:46.84	23.84	20.42	-47.5	-49.4	15.9	0.00e+00	0	59	0	321912832	58	4315
2026-01-01 00:57:47.81	23.82	20.55	-47.7	-49.5	15.9	0.00e+00	0	59	0	324009984	58	4367
2026-01-01 00:57:48.77	23.80	20.68	-47.5	-49.3	16.1	0.00e+00	0	59	0	325058560	58	4254
2026-01-01 00:57:49.73	23.78	20.81	-47.3	-49.0	16.3	0.00e+00	0	59	0	327155712	57	4383
2026-01-01 00:57:50.70	23.77	20.94	-47.3	-49.0	16.3	0.00e+00	0	59	0	329252864	57	4367
2026-01-01 00:57:51.66	23.75	21.07	-47.3	-49.0	16.4	0.00e+00	0	59	0	330301440	57	4353
2026-01-01 00:57:52.62	23.73	21.20	-47.3	-49.0	16.4	0.00e+00	0	59	0	332398592	57	4370
2026-01-01 00:57:53.58	23.71	21.33	-47.4	-49.1	16.3	0.00e+00	0	59	0	334495744	57	4406
2026-01-01 00:57:54.55	23.69	21.47	-47.5	-49.3	16.1	0.00e+00	0	59	0	336592896	57	4496
2026-01-01 00:57:55.52	23.67	21.60	-47.5	-49.3	16.1	0.00e+00	0	59	0	337641472	57	4530
2026-01-01 00:57:56.48	23.65	21.73	-47.4	-49.2	16.2	0.00e+00	0	59	0	339738624	57	4473
2026-01-01 00:57:57.45	23.63	21.87	-47.5	-49.3	16.1	0.00e+00	0	59	0	341835776	57	4526
2026-01-01 00:57:58.41	23.62	22.00	-47.6	-49.5	15.9	0.00e+00	0	59	0	342884352	57	4626
2026-01-01 00:57:59.37	23.60	22.14	-47.5	-49.2	16.2	0.00e+00	0	59	0	344981504	57	4466
2026-01-01 00:58:00.34	23.58	22.28	-47.3	-49.1	16.4	0.00e+00	0	59	0	347078656	57	4400
2026-01-01 00:58:01.30	23.56	22.41	-47.3	-49.1	16.3	0.00e+00	0	59	0	349175808	57	4441
2026-01-01 00:58:02.26	23.54	22.55	-47.4	-49.2	16.2	0.00e+00	0	59	0	350224384	57	4445
2026-01-01 00:58:03.23	23.52	22.69	-47.4	-49.2	16.2	0.00e+00	0	59	0	352321536	57	4474
2026-01-01 00:58:04.19	23.49	22.83	-47.7	-49.5	15.9	0.00e+00	0	59	0	354418688	57	4633
2026-01-01 00:58:05.15	23.47	22.97	-47.9	-49.8	15.6	0.00e+00	0	59	0	356515840	57	4802
2026-01-01 00:58:06.11	23.45	23.11	-47.7	-49.6	15.8	0.00e+00	0	59	0	357564416	57	4662
2026-01-01 00:58:07.07	23.43	23.25	-47.4	-49.2	16.2	0.00e+00	0	59	0	359661568	57	4470
2026-01-01 00:58:08.04	23.41	23.39	-47.3	-49.0	16.4	0.00e+00	0	59	0	361758720	57	4389
2026-01-01 00:58:09.00	23.39	23.54	-47.3	-49.0	16.4	0.00e+00	0	59	0	362807296	57	4384
2026-01-01 00:58:09.96	23.37	23.68	-47.4	-49.1	16.3	0.00e+00	0	59	0	364904448	57	4397
2026-01-01 00:58:10.92	23.34	23.83	-47.4	-49.2	16.2	0.00e+00	0	59	0	367001600	57	4489
2026-01-01 00:58:11.89	23.32	23.97	-47.4	-49.2	16.2	0.00e+00	0	59	0	369098752	57	4446
2026-01-01 00:58:12.85	23.30	24.12	-47.5	-49.4	16.1	0.00e+00	0	59	0	370147328	57	4547
2026-01-01 00:58:13.82	23.28	24.27	-47.4	-49.3	16.2	0.00e+00	0	59	0	372244480	57	4495
2026-01-01 00:58:14.78	23.25	24.42	-47.5	-49.2	16.2	0.00e+00	0	59	0	374341632	57	4463
2026-01-01 00:58:15.75	23.23	24.57	-47.5	-49.3	16.2	0.00e+00	0	60	0	375390208	57	4500
2026-01-01 00:58:16.71	23.21	24.72	-47.5	-49.3	16.1	0.00e+00	0	60	0	377487360	57	4538
2026-01-01 00:58:17.67	23.18	24.87	-47.5	-49.4	16.0	0.00e+00	0	60	0	379584512	57	4569
2026-01-01 00:58:18.63	23.16	25.02	-47.5	-49.3	16.1	0.00e+00	0	60	0	381681664	57	4515
2026-01-01 00:58:19.60	23.13	25.17	-47.6	-49.3	16.1	0.00e+00	0	60	0	382730240	57	4543
2026-01-01 00:58:20.56	23.11	25.32	-47.6	-49.5	16.0	0.00e+00	0	59	0	384827392	57	4599
2026-01-01 00:58:21.52	23.08	25.48	-47.8	-49.6	15.8	0.00e+00	0	59	0	386924544	57	4684
2026-01-01 00:58:22.48	23.06	25.63	-47.7	-49.6	15.9	0.00e+00	0	60	0	387973120	57	4657
2026-01-01 00:58:23.45	23.03	25.79	-47.9	-49.8	15.7	0.00e+00	0	60	0	390070272	57	4784
2026-01-01 00:58:24.41	23.01	25.95	-47.9	-49.8	15.6	0.00e+00	0	60	0	392167424	57	4772
2026-01-01 00:58:25.37	22.98	26.10	-47.7	-49.5	15.9	0.00e+00	0	60	0	394264576	57	4616
2026-01-01 00:58:26.34	22.95	26.26	-47.6	-49.4	16.0	0.00e+00	0	60	0	395313152	57	4585
2026-01-01 00:58:27.30	22.93	26.42	-47.5	-49.3	16.1	0.00e+00	0	60	0	397410304	57	4515
2026-01-01 00:58:28.26	22.90	26.58	-47.5	-49.3	16.1	0.00e+00	0	60	0	399507456	57	4520
2026-01-01 00:58:29.23	22.87	26.75	-47.7	-49.5	16.0	0.00e+00	0	60	0	401604608	57	4620
2026-01-01 00:58:30.19	22.84	26.91	-47.8	-49.6	15.9	0.00e+00	0	60	0	402653184	57	4685
2026-01-01 00:58:31.15	22.81	27.07	-48.0	-49.9	15.5	0.00e+00	0	60	0	404750336	57	4868
2026-01-01 00:58:32.12	22.79	27.24	-47.9	-49.8	15.6	0.00e+00	0	60	0	406847488	57	4814
2026-01-01 00:58:33.09	22.76	27.40	-48.0	-50.1	15.4	0.00e+00	0	60	0	407896064	57	4962
2026-01-01 00:58:34.05	22.73	27.57	-48.0	-50.0	15.5	0.00e+00	0	60	0	409993216	58	4615
2026-01-01 00:58:35.01	22.70	27.74	-47.9	-49.8	15.7	0.00e+00	0	60	0	412090368	58	4522
2026-01-01 00:58:35.98	22.67	27.91	-48.0	-49.9	15.5	0.00e+00	0	60	0	414187520	58	4588
2026-01-01 00:58:36.94	22.64	28.08	-48.1	-50.1	15.4	0.00e+00	0	60	0	415236096	58	4668
2026-01-01 00:58:37.90	22.61	28.25	-48.1	-50.0	15.4	0.00e+00	0	60	0	417333248	58	4638
2026-01-01 00:58:38.86	22.58	28.42	-48.3	-50.4	15.1	0.00e+00	0	60	0	419430400	58	4824
2026-01-01 00:58:39.83	22.55	28.59	-48.5	-50.6	14.8	7.00e-07	0	60	0	420478976	58	4970
2026-01-01 00:58:40.79	22.51	28.77	-48.4	-50.6	14.8	0.00e+00	0	60	0	422576128	58	4946
2026-01-01 00:58:41.75	22.48	28.94	-48.6	-50.8	14.7	7.00e-07	0	60	0	424673280	58	5059
2026-01-01 00:58:42.72	22.45	29.12	-48.7	-51.0	14.4	0.00e+00	0	60	0	426770432	59	4900
2026-01-01 00:58:43.68	22.42	29.29	-48.7	-51.0	14.4	7.00e-07	0	60	0	427819008	59	4912
2026-01-01 00:58:44.64	22.38	29.47	-48.8	-51.1	14.3	7.00e-07	0	60	0	429916160	59	4969
2026-01-01 00:58:45.61	22.35	29.65	-48.9	-51.3	14.1	1.50e-06	0	60	0	432013312	59	5047
2026-01-01 00:58:46.57	22.31	29.83	-48.9	-51.4	14.0	1.50e-06	0	60	0	434110464	59	5133
2026-01-01 00:58:47.54	22.28	30.02	-49.0	-51.5	13.9	2.20e-06	0	60	0	435159040	59	5203
2026-01-01 00:58:48.50	22.24	30.20	-49.0	-51.7	13.6	9.90e-06	0	60	0	437256192	60	5002
2026-01-01 00:58:49.46	22.21	30.38	-49.1	-51.8	13.5	1.37e-05	0	60	0	439353344	60	5067
2026-01-01 00:58:50.42	22.17	30.57	-49.2	-52.0	13.2	1.37e-05	0	60	0	440401920	60	5211
2026-01-01 00:58:51.39	22.14	30.75	-49.2	-52.3	12.8	5.87e-05	0	60	0	442499072	60	5357
2026-01-01 00:58:52.35	22.10	30.94	-49.5	-52.7	12.4	1.16e-04	0	60	0	444596224	60	5607
2026-01-01 00:58:53.31	22.06	31.13	-49.5	-52.8	12.2	2.35e-04	0	60	0	446693376	60	5703
2026-01-01 00:58:54.27	22.03	31.32	-49.6	-52.9	12.0	3.50e-04	0	60	0	447741952	61	5462
2026-01-01 00:58:55.24	21.99	31.51	-49.6	-53.2	11.6	4.74e-04	0	60	0	449839104	61	5617
2026-01-01 00:58:56.20	21.95	31.70	-49.7	-53.6	11.1	8.80e-04	0	60	0	451936256	61	5886
2026-01-01 00:58:57.17	21.91	31.90	-49.7	-53.9	10.7	1.82e-03	0	60	0	454033408	61	6087
2026-01-01 00:58:58.13	21.87	32.09	-49.9	-54.1	10.4	3.85e-03	0	60	0	455081984	61	6260
2026-01-01 00:58:59.09	21.83	32.29	-50.0	-54.5	10.0	5.95e-03	0	60	0	457179136	61	6501
2026-01-01 00:59:00.06	21.79	32.49	-49.9	-54.7	9.7	9.10e-03	0	60	0	459276288	61	6676
2026-01-01 00:59:01.02	21.75	32.69	-50.1	-54.8	9.6	1.32e-02	0	60	0	460324864	62	6369
2026-01-01 00:59:01.98	21.70	32.89	-50.2	-55.0	9.3	1.55e-02	0	60	0	462422016	62	6560
2026-01-01 00:59:02.94	21.66	33.09	-50.1	-54.8	9.6	1.33e-02	0	60	0	464519168	62	6365
2026-01-01 00:59:03.90	21.62	33.29	-50.1	-54.5	9.9	9.65e-03	0	60	0	466616320	62	6196
2026-01-01 00:59:04.86	21.57	33.49	-49.9	-54.3	10.2	7.16e-03	0	60	0	467664896	62	5999
2026-01-01 00:59:05.82	21.53	33.70	-49.8	-54.2	10.4	5.61e-03	0	60	0	469762048	62	5934
2026-01-01 00:59:06.79	21.49	33.90	-49.6	-53.6	11.1	4.11e-03	0	60	0	471859200	62	5575
2026-01-01 00:59:07.75	21.44	34.11	-49.6	-53.1	11.6	9.48e-04	0	60	0	472907776	62	5252
2026-01-01 00:59:08.71	21.39	34.32	-49.3	-52.5	12.4	3.04e-04	0	60	0	475004928	61	5206
2026-01-01 00:59:09.68	21.35	34.53	-49.0	-52.0	13.1	7.93e-05	0	60	0	477102080	61	4898
2026-01-01 00:59:10.64	21.30	34.75	-49.0	-51.8	13.5	1.60e-05	0	60	0	479199232	61	4779
2026-01-01 00:59:11.61	21.25	34.96	-48.9	-51.6	13.8	1.06e-05	0	60	0	480247808	61	4659
2026-01-01 00:59:12.57	21.20	35.18	-48.8	-51.3	14.2	1.50e-06	0	61	0	482344960	60	4795
2026-01-01 00:59:13.54	21.15	35.39	-48.7	-51.3	14.2	1.50e-06	0	60	0	484442112	60	4769
2026-01-01 00:59:14.51	21.10	35.61	-48.7	-51.1	14.4	1.50e-06	0	60	0	486539264	60	4684
2026-01-01 00:59:15.47	21.05	35.83	-48.7	-51.0	14.6	0.00e+00	0	60	0	487587840	60	4602
2026-01-01 00:59:16.44	21.00	36.06	-48.6	-50.8	14.7	0.00e+00	0	60	0	489684992	60	4536
2026-01-01 00:59:17.40	20.95	36.28	-48.6	-50.8	14.7	0.00e+00	0	60	0	491782144	60	4526
2026-01-01 00:59:18.36	20.89	36.50	-48.5	-50.7	14.8	0.00e+00	0	60	0	492830720	60	4466
2026-01-01 00:59:19.32	20.84	36.73	-48.4	-50.5	15.1	0.00e+00	0	60	0	494927872	59	4599
2026-01-01 00:59:20.30	20.78	36.96	-48.2	-50.3	15.3	0.00e+00	0	60	0	497025024	59	4505
2026-01-01 00:59:21.27	20.73	37.19	-48.3	-50.3	15.2	0.00e+00	0	60	0	499122176	59	4523
2026-01-01 00:59:22.23	20.67	37.42	-48.1	-50.1	15.4	0.00e+00	0	60	0	500170752	59	4413
2026-01-01 00:59:23.19	20.61	37.65	-48.4	-50.5	15.0	0.00e+00	0	60	0	502267904	59	4651
2026-01-01 00:59:24.16	20.55	37.88	-48.0	-49.9	15.7	0.00e+00	0	60	0	504365056	59	4319
2026-01-01 00:59:25.12	20.49	38.12	-47.7	-49.5	16.0	0.00e+00	0	61	0	506462208	58	4389
2026-01-01 00:59:26.08	20.43	38.35	-47.6	-49.4	16.2	0.00e+00	0	60	0	507510784	58	4310
2026-01-01 00:59:27.05	20.37	38.59	-47.2	-48.9	16.7	0.00e+00	0	60	0	509607936	57	4307
2026-01-01 00:59:28.01	20.31	38.83	-47.1	-48.7	16.9	0.00e+00	0	61	0	511705088	57	4194
2026-01-01 00:59:28.98	20.25	39.08	-47.1	-48.7	16.9	0.00e+00	0	60	0	512753664	57	4198
2026-01-01 00:59:29.94	20.18	39.32	-47.3	-48.9	16.7	0.00e+00	0	60	0	514850816	57	4308
2026-01-01 00:59:30.90	20.12	39.56	-47.4	-49.0	16.6	0.00e+00	0	60	0	516947968	57	4377
2026-01-01 00:59:31.87	20.05	39.81	-47.6	-49.3	16.3	0.00e+00	0	60	0	519045120	57	4529
2026-01-01 00:59:32.83	19.98	40.06	-47.6	-49.4	16.1	0.00e+00	0	60	0	520093696	57	4571
2026-01-01 00:59:33.79	19.92	40.31	-47.8	-49.8	15.8	0.00e+00	0	60	0	522190848	57	4771
2026-01-01 00:59:34.75	19.85	40.56	-47.9	-49.8	15.7	0.00e+00	0	60	0	524288000	57	4797
2026-01-01 00:59:35.71	19.78	40.81	-48.0	-49.9	15.7	0.00e+00	0	60	0	525336576	57	4822
2026-01-01 00:59:36.67	19.70	41.07	-48.0	-49.9	15.6	0.00e+00	0	60	0	527433728	57	4857
2026-01-01 00:59:37.63	19.63	41.33	-48.0	-50.0	15.6	0.00e+00	0	60	0	529530880	57	4875
2026-01-01 00:59:38.59	19.56	41.58	-48.2	-50.1	15.5	0.00e+00	0	60	0	531628032	58	4685
2026-01-01 00:59:39.56	19.48	41.85	-48.1	-50.1	15.5	0.00e+00	0	60	0	532676608	58	4682
2026-01-01 00:59:40.52	19.41	42.11	-48.1	-50.2	15.4	0.00e+00	0	60	0	534773760	58	4713
2026-01-01 00:59:41.48	19.33	42.37	-48.1	-50.2	15.3	0.00e+00	0	61	0	536870912	58	4736
2026-01-01 00:59:42.44	19.25	42.64	-48.3	-50.4	15.2	0.00e+00	0	60	0	538968064	58	4846
2026-01-01 00:59:43.41	19.17	42.91	-48.4	-50.5	15.1	0.00e+00	0	61	0	540016640	58	4889
2026-01-01 00:59:44.37	19.08	43.18	-48.4	-50.5	15.1	0.00e+00	0	61	0	542113792	58	4899
2026-01-01 00:59:45.34	19.00	43.45	-48.5	-50.6	15.0	0.00e+00	0	61	0	544210944	58	4967
2026-01-01 00:59:46.30	18.92	43.72	-48.6	-50.8	14.8	0.00e+00	0	61	0	545259520	59	4808
2026-01-01 00:59:47.26	18.83	44.00	-48.7	-50.9	14.7	0.00e+00	0	60	0	547356672	59	4843
2026-01-01 00:59:48.22	18.74	44.27	-48.8	-51.2	14.4	0.00e+00	0	61	0	549453824	59	5002
2026-01-01 00:59:49.18	18.65	44.55	-49.0	-51.5	14.2	0.00e+00	0	61	0	551550976	59	5173
2026-01-01 00:59:50.15	18.56	44.84	-48.9	-51.2	14.3	0.00e+00	0	61	0	552599552	59	5040
2026-01-01 00:59:51.11	18.47	45.12	-49.1	-51.6	14.0	2.20e-06	0	61	0	554696704	59	5239
2026-01-01 00:59:52.07	18.37	45.40	-49.5	-52.3	13.3	7.60e-06	0	61	0	556793856	60	5391
2026-01-01 00:59:53.03	18.27	45.69	-49.6	-52.4	13.2	1.67e-05	0	61	0	557842432	60	5445
2026-01-01 00:59:53.99	18.18	45.98	-49.9	-53.0	12.6	7.93e-05	0	61	0	559939584	61	5486
2026-01-01 00:59:54.95	18.07	46.27	-49.7	-52.7	12.8	9.23e-05	0	61	0	562036736	61	5318
2026-01-01 00:59:55.92	17.97	46.56	-49.9	-53.1	12.5	7.70e-05	0	60	0	564133888	61	5530
2026-01-01 00:59:56.88	17.87	46.86	-49.9	-53.4	12.1	1.91e-04	0	61	0	565182464	61	5783
2026-01-01 00:59:57.84	17.76	47.15	-50.4	-54.0	11.6	3.64e-04	0	61	0	567279616	62	5798
2026-01-01 00:59:58.80	17.65	47.45	-50.4	-53.9	11.6	7.32e-04	0	61	0	569376768	62	5785
2026-01-01 00:59:59.76	17.54	47.75	-50.3	-53.9	11.7	6.10e-04	0	61	0	570425344	62	5732
2026-01-01 01:00:00.72	17.43	48.05	-50.4	-54.1	11.4	7.61e-04	0	61	0	572522496	62	5886
2026-01-01 01:00:01.68	17.31	48.35	-50.1	-53.4	12.1	6.12e-04	0	60	0	574619648	62	5436
2026-01-01 01:00:02.65	17.19	48.66	-50.0	-53.1	12.4	2.32e-04	0	61	0	576716800	62	5269
2026-01-01 01:00:03.61	17.07	48.97	-49.8	-53.1	12.5	1.58e-04	0	61	0	577765376	62	5241
2026-01-01 01:00:04.58	16.95	49.29	-49.6	-52.6	13.0	6.40e-05	0	61	0	579862528	62	4963
2026-01-01 01:00:05.54	16.82	49.60	-49.4	-52.2	13.3	2.51e-05	0	61	0	581959680	61	5035
2026-01-01 01:00:06.51	16.70	49.91	-49.3	-52.2	13.4	1.83e-05	0	61	0	584056832	61	5016
2026-01-01 01:00:07.47	16.56	50.23	-49.2	-52.0	13.6	7.60e-06	0	61	0	585105408	61	4902
2026-01-01 01:00:08.43	16.43	50.55	-49.2	-51.9	13.8	8.30e-06	0	61	0	587202560	61	4818
2026-01-01 01:00:09.39	16.29	50.87	-48.7	-50.9	14.6	3.80e-06	0	61	0	589299712	60	4593
2026-01-01 01:00:10.35	16.16	51.19	-48.2	-50.1	15.5	0.00e+00	0	61	0	590348288	59	4413
2026-01-01 01:00:11.31	16.01	51.52	-48.0	-49.9	15.8	0.00e+00	0	61	0	592445440	59	4320
2026-01-01 01:00:12.27	15.87	51.84	-48.1	-49.9	15.7	0.00e+00	0	61	0	594542592	59	4336
2026-01-01 01:00:13.24	15.72	52.17	-48.3	-50.3	15.3	0.00e+00	0	61	0	596639744	59	4539
2026-01-01 01:00:14.19	15.57	52.50	-48.1	-50.0	15.6	0.00e+00	0	61	0	597688320	59	4385
2026-01-01 01:00:15.16	15.41	52.84	-48.0	-49.8	15.8	0.00e+00	0	61	0	599785472	59	4264
2026-01-01 01:00:16.12	15.25	53.17	-48.1	-50.0	15.7	0.00e+00	0	61	0	601882624	59	4380
2026-01-01 01:00:17.08	15.08	53.51	-48.4	-50.4	15.2	0.00e+00	0	61	0	602931200	59	4566
2026-01-01 01:00:18.04	14.92	53.85	-49.0	-51.3	14.3	7.00e-07	0	61	0	605028352	59	5085
2026-01-01 01:00:19.01	14.74	54.19	-48.6	-50.7	14.9	7.00e-07	0	61	0	607125504	59	4742
2026-01-01 01:00:19.98	14.56	54.54	-48.2	-50.1	15.5	0.00e+00	0	61	0	609222656	59	4436
2026-01-01 01:00:20.94	14.38	54.88	-47.8	-49.6	16.1	0.00e+00	0	61	0	610271232	58	4408
2026-01-01 01:00:21.90	14.20	55.23	-48.0	-49.8	15.8	0.00e+00	0	61	0	612368384	58	4543
2026-01-01 01:00:22.87	14.01	55.58	-48.4	-50.4	15.3	0.00e+00	0	61	0	614465536	58	4840
2026-01-01 01:00:23.83	13.81	55.93	-48.5	-50.5	15.1	0.00e+00	0	61	0	615514112	58	4926
2026-01-01 01:00:24.80	13.61	56.28	-48.9	-51.2	14.5	0.00e+00	0	61	0	617611264	59	5021
2026-01-01 01:00:25.76	13.41	56.64	-49.3	-51.9	13.8	3.80e-06	0	61	0	619708416	60	5102
2026-01-01 01:00:26.72	13.20	56.99	-49.6	-52.5	13.1	1.22e-05	0	61	0	621805568	61	5211
2026-01-01 01:00:27.68	12.98	57.35	-49.5	-52.2	13.4	1.60e-05	0	61	0	622854144	61	5005
2026-01-01 01:00:28.64	12.76	57.71	-49.3	-52.0	13.6	1.52e-05	0	61	0	624951296	61	4893
2026-01-01 01:00:29.60	12.53	58.07	-49.6	-52.4	13.2	2.36e-05	0	61	0	627048448	61	5123
2026-01-01 01:00:30.56	12.30	58.44	-49.7	-52.5	13.0	2.67e-05	0	61	0	629145600	61	5214
2026-01-01 01:00:31.53	12.05	58.81	-49.8	-52.8	12.8	3.81e-05	0	61	0	630194176	61	5369
2026-01-01 01:00:32.49	11.81	59.17	-49.7	-52.7	12.9	6.17e-05	0	61	0	632291328	61	5286
2026-01-01 01:00:33.45	11.55	59.54	-49.5	-52.3	13.3	2.89e-05	0	61	0	634388480	61	5059
2026-01-01 01:00:34.41	11.29	59.91	-49.1	-51.6	14.0	7.60e-06	0	61	0	635437056	61	4679
2026-01-01 01:00:35.37	11.02	60.28	-48.6	-50.7	14.9	7.00e-07	0	61	0	637534208	60	4493
2026-01-01 01:00:36.34	10.74	60.66	-48.2	-50.3	15.3	7.00e-07	0	61	0	639631360	59	4518
2026-01-01 01:00:37.30	10.45	61.04	-48.3	-50.2	15.5	0.00e+00	0	61	0	641728512	59	4480
2026-01-01 01:00:38.26	10.15	61.41	-48.1	-50.1	15.6	0.00e+00	0	61	0	642777088	59	4404
2026-01-01 01:00:39.23	9.85	61.79	-47.6	-49.3	16.4	0.00e+00	0	61	0	644874240	58	4253
2026-01-01 01:00:40.19	9.53	62.17	-47.7	-49.5	16.2	0.00e+00	0	61	0	646971392	58	4355
2026-01-01 01:00:41.15	9.21	62.55	-47.7	-49.5	16.2	0.00e+00	0	61	0	648019968	58	4347
2026-01-01 01:00:42.11	8.87	62.94	-47.0	-48.5	17.1	0.00e+00	0	61	0	650117120	57	4135
2026-01-01 01:00:43.07	8.53	63.32	-46.4	-47.8	17.8	0.00e+00	0	61	0	652214272	56	4016
2026-01-01 01:00:44.03	8.17	63.70	-46.1	-47.4	18.1	0.00e+00	0	61	0	654311424	55	4065
2026-01-01 01:00:45.00	7.79	64.09	-46.4	-47.8	17.7	0.00e+00	0	61	0	655360000	55	4271
2026-01-01 01:00:45.96	7.41	64.48	-46.6	-48.0	17.6	0.00e+00	0	61	0	657457152	55	4354
2026-01-01 01:00:46.92	7.01	64.87	-47.0	-48.6	17.0	0.00e+00	0	61	0	659554304	55	4657
2026-01-01 01:00:47.88	6.60	65.26	-47.8	-49.6	16.1	0.00e+00	0	61	0	660602880	57	4700
2026-01-01 01:00:48.85	6.17	65.65	-47.9	-49.7	15.9	0.00e+00	0	61	0	662700032	57	4734
2026-01-01 01:00:49.81	5.73	66.04	-48.3	-50.4	15.3	0.00e+00	0	61	0	664797184	58	4829
2026-01-01 01:00:50.77	5.28	66.43	-48.4	-50.4	15.2	0.00e+00	0	61	0	666894336	58	4853
2026-01-01 01:00:51.74	4.80	66.83	-48.1	-50.0	15.7	0.00e+00	0	61	0	667942912	58	4629
2026-01-01 01:00:52.70	4.31	67.22	-47.8	-49.6	16.0	0.00e+00	0	61	0	670040064	58	4427
2026-01-01 01:00:53.66	3.80	67.61	-47.7	-49.4	16.3	0.00e+00	0	61	0	672137216	58	4330
2026-01-01 01:00:54.62	3.27	68.00	-47.7	-49.4	16.3	0.00e+00	0	61	0	674234368	58	4323
2026-01-01 01:00:55.58	2.71	68.39	-47.8	-49.5	16.2	0.00e+00	0	61	0	675282944	58	4379
2026-01-01 01:00:56.54	2.14	68.78	-47.7	-49.5	16.2	0.00e+00	0	61	0	677380096	58	4373
2026-01-01 01:00:57.51	1.54	69.18	-47.9	-49.8	15.9	0.00e+00	0	61	0	679477248	58	4515
2026-01-01 01:00:58.47	0.91	69.57	-47.9	-49.8	15.9	0.00e+00	0	61	0	680525824	58	4528
2026-01-01 01:00:59.44	0.26	69.96	-47.3	-49.0	16.6	0.00e+00	0	61	0	682622976	57	4382
2026-01-01 01:01:00.40	359.58	70.35	-47.2	-48.8	16.9	0.00e+00	0	61	0	684720128	57	4254
2026-01-01 01:01:01.36	358.87	70.74	-47.5	-49.3	16.4	0.00e+00	0	61	0	686817280	57	4509
2026-01-01 01:01:02.33	358.13	71.13	-47.6	-49.4	16.3	0.00e+00	0	61	0	687865856	57	4575
2026-01-01 01:01:03.29	357.36	71.51	-47.1	-48.6	17.0	0.00e+00	0	61	0	689963008	57	4191
2026-01-01 01:01:04.26	356.55	71.90	-46.6	-48.1	17.5	0.00e+00	0	61	0	692060160	56	4165
2026-01-01 01:01:05.22	355.70	72.28	-46.7	-48.2	17.4	0.00e+00	0	61	0	693108736	56	4209
2026-01-01 01:01:06.18	354.82	72.66	-47.5	-49.1	16.7	0.00e+00	0	61	0	695205888	56	4662
2026-01-01 01:01:07.14	353.90	73.03	-48.0	-49.8	15.9	0.00e+00	0	61	0	697303040	57	4804
2026-01-01 01:01:08.11	352.92	73.41	-48.7	-51.0	14.8	0.00e+00	0	61	0	699400192	59	4898
2026-01-01 01:01:09.07	351.91	73.77	-49.3	-51.9	13.9	0.00e+00	0	61	0	700448768	60	5121
2026-01-01 01:01:10.02	350.86	74.13	-50.2	-53.5	12.2	1.75e-05	0	61	0	702545920	62	5523
2026-01-01 01:01:10.99	349.73	74.50	-50.2	-53.5	12.2	2.82e-04	0	61	0	704643072	62	5515
2026-01-01 01:01:11.95	348.56	74.85	-49.9	-53.0	12.7	1.54e-04	0	61	0	706740224	62	5189
2026-01-01 01:01:12.91	347.33	75.20	-49.7	-52.6	13.1	4.95e-05	0	61	0	707788800	62	4939
2026-01-01 01:01:13.87	346.05	75.54	-49.4	-52.0	13.7	2.28e-05	0	61	0	709885952	61	4885
2026-01-01 01:01:14.84	344.68	75.88	-49.3	-51.8	13.8	9.90e-06	0	61	0	711983104	61	4811
2026-01-01 01:01:15.81	343.24	76.22	-49.4	-52.2	13.5	7.60e-06	0	61	0	713031680	61	5008
2026-01-01 01:01:16.77	341.75	76.54	-49.4	-51.9	13.8	6.10e-06	0	61	0	715128832	61	4870
2026-01-01 01:01:17.73	340.18	76.85	-49.5	-52.3	13.5	9.10e-06	0	61	0	717225984	61	5064
2026-01-01 01:01:18.70	338.51	77.16	-49.3	-52.0	13.7	9.90e-06	0	61	0	719323136	61	4890
2026-01-01 01:01:19.66	336.79	77.45	-49.3	-51.9	13.7	3.80e-06	0	61	0	720371712	61	4819
2026-01-01 01:01:20.62	334.97	77.73	-49.2	-51.8	13.9	3.80e-06	0	61	0	722468864	61	4775
2026-01-01 01:01:21.59	333.06	78.00	-48.7	-51.0	14.7	2.20e-06	0	61	0	724566016	60	4637
2026-01-01 01:01:22.55	331.07	78.26	-48.0	-49.8	15.9	0.00e+00	0	61	0	726663168	59	4273
2026-01-01 01:01:23.51	329.00	78.50	-48.0	-49.9	15.9	0.00e+00	0	61	0	727711744	58	4558
2026-01-01 01:01:24.47	326.84	78.73	-48.0	-49.8	15.9	0.00e+00	0	61	0	729808896	58	4543
2026-01-01 01:01:25.43	324.59	78.94	-48.0	-49.9	15.7	0.00e+00	0	61	0	731906048	58	4590
2026-01-01 01:01:26.40	322.23	79.14	-48.2	-50.2	15.5	0.00e+00	0	61	0	732954624	58	4720
2026-01-01 01:01:27.36	319.81	79.31	-48.1	-49.9	15.8	0.00e+00	0	61	0	735051776	58	4598
2026-01-01 01:01:28.32	317.31	79.47	-47.7	-49.4	16.3	0.00e+00	0	61	0	737148928	58	4299
2026-01-01 01:01:29.29	314.72	79.61	-48.1	-49.9	15.8	0.00e+00	0	61	0	739246080	58	4598
2026-01-01 01:01:30.25	312.08	79.72	-48.6	-50.8	14.8	0.00e+00	0	61	0	740294656	59	4792
2026-01-01 01:01:31.21	309.39	79.81	-48.6	-50.7	15.0	0.00e+00	0	61	0	742391808	59	4722
2026-01-01 01:01:32.18	306.63	79.88	-48.0	-49.8	15.9	0.00e+00	0	61	0	744488960	59	4270
2026-01-01 01:01:33.14	303.87	79.93	-47.9	-49.8	15.9	0.00e+00	0	61	0	745537536	58	4505
2026-01-01 01:01:34.10	301.08	79.96	-47.8	-49.8	15.9	0.00e+00	0	61	0	747634688	58	4495
2026-01-01 01:01:35.06	298.29	79.96	-47.7	-49.4	16.3	0.00e+00	0	61	0	749731840	58	4336
2026-01-01 01:01:36.02	295.50	79.93	-47.8	-49.5	16.2	0.00e+00	0	61	0	751828992	58	4384
2026-01-01 01:01:36.99	292.70	79.89	-47.5	-49.2	16.5	0.00e+00	0	61	0	752877568	58	4229
2026-01-01 01:01:37.95	289.97	79.82	-47.6	-49.3	16.4	0.00e+00	0	61	0	754974720	58	4274
2026-01-01 01:01:38.92	287.25	79.73	-47.8	-49.5	16.2	0.00e+00	0	61	0	757071872	58	4377
2026-01-01 01:01:39.88	284.61	79.61	-47.2	-48.8	16.8	0.00e+00	0	61	0	758120448	57	4266
2026-01-01 01:01:40.84	282.04	79.48	-46.9	-48.4	17.2	0.00e+00	0	61	0	760217600	56	4318
2026-01-01 01:01:41.80	279.54	79.32	-47.4	-49.0	16.7	0.00e+00	0	61	0	762314752	56	4640
2026-01-01 01:01:42.76	277.11	79.15	-47.6	-49.4	16.3	0.00e+00	0	61	0	764411904	57	4551
2026-01-01 01:01:43.73	274.75	78.95	-48.0	-49.8	15.8	0.00e+00	0	62	0	765460480	57	4809
2026-01-01 01:01:44.69	272.49	78.74	-48.3	-50.3	15.5	0.00e+00	0	62	0	767557632	58	4800
2026-01-01 01:01:45.65	270.32	78.52	-48.9	-51.2	14.5	0.00e+00	0	61	0	769654784	59	4998
2026-01-01 01:01:46.61	268.24	78.27	-49.3	-51.9	13.7	1.50e-06	0	61	0	771751936	60	5115
2026-01-01 01:01:47.58	266.23	78.02	-49.8	-53.0	12.6	9.10e-06	0	61	0	772800512	61	5525
2026-01-01 01:01:48.54	264.33	77.75	-50.5	-54.2	11.5	6.41e-04	0	61	0	774897664	62	5926
2026-01-01 01:01:49.50	262.51	77.47	-50.7	-55.0	10.5	2.16e-03	0	62	0	776994816	63	6161
2026-01-01 01:01:50.46	260.78	77.17	-51.2	-56.0	9.4	1.16e-02	0	62	0	778043392	64	6544
2026-01-01 01:01:51.43	259.11	76.87	-51.4	-56.5	8.8	2.29e-02	0	61	0	780140544	64	6954
2026-01-01 01:01:52.39	257.54	76.56	-51.2	-56.1	9.4	2.08e-02	0	62	0	782237696	64	6609
2026-01-01 01:01:53.35	256.04	76.23	-51.2	-56.0	9.5	1.40e-02	0	61	0	784334848	64	6515
2026-01-01 01:01:54.32	254.59	75.90	-51.2	-56.1	9.3	2.24e-02	0	62	0	785383424	64	6587
2026-01-01 01:01:55.28	253.24	75.57	-51.0	-55.6	9.8	1.28e-02	0	62	0	787480576	64	6206
2026-01-01 01:01:56.25	251.93	75.22	-50.8	-55.0	10.6	6.84e-03	0	61	0	789577728	64	5846
2026-01-01 01:01:57.21	250.70	74.87	-50.5	-54.3	11.2	1.46e-03	0	61	0	790626304	63	5687
2026-01-01 01:01:58.18	249.51	74.51	-49.8	-52.8	12.7	2.10e-04	0	61	0	792723456	62	5082
2026-01-01 01:01:59.14	248.39	74.15	-49.3	-51.8	13.7	1.22e-05	0	61	0	794820608	61	4800
2026-01-01 01:02:00.11	247.32	73.78	-49.0	-51.5	14.2	0.00e+00	0	61	0	796917760	61	4620
2026-01-01 01:02:01.07	246.30	73.42	-48.7	-51.0	14.6	0.00e+00	0	62	0	797966336	60	4602
2026-01-01 01:02:02.03	245.33	73.04	-48.1	-50.0	15.7	0.00e+00	0	62	0	800063488	59	4366
2026-01-01 01:02:02.99	244.41	72.67	-47.6	-49.4	16.3	0.00e+00	0	62	0	802160640	58	4303
2026-01-01 01:02:03.95	243.52	72.29	-47.5	-49.3	16.3	0.00e+00	0	62	0	804257792	58	4275
2026-01-01 01:02:04.91	242.68	71.91	-47.6	-49.4	16.2	0.00e+00	0	62	0	805306368	58	4337
2026-01-01 01:02:05.87	241.87	71.53	-48.3	-50.2	15.4	0.00e+00	0	62	0	807403520	58	4756
2026-01-01 01:02:06.83	241.10	71.14	-48.0	-49.8	15.8	0.00e+00	0	61	0	809500672	58	4535
2026-01-01 01:02:07.79	240.36	70.76	-48.0	-50.0	15.7	0.00e+00	0	62	0	810549248	58	4613
2026-01-01 01:02:08.75	239.65	70.37	-48.9	-51.2	14.5	7.00e-07	0	61	0	812646400	59	4998
2026-01-01 01:02:09.72	238.96	69.98	-49.0	-51.4	14.2	7.00e-07	0	62	0	814743552	60	4854
2026-01-01 01:02:10.68	238.31	69.59	-49.2	-51.6	14.0	0.00e+00	0	61	0	816840704	60	4983
2026-01-01 01:02:11.64	237.69	69.19	-49.0	-51.3	14.3	0.00e+00	0	62	0	817889280	60	4801
2026-01-01 01:02:12.60	237.09	68.80	-48.9	-51.2	14.5	7.00e-07	0	62	0	819986432	60	4724
2026-01-01 01:02:13.57	236.51	68.41	-49.5	-52.3	13.4	3.00e-06	0	62	0	822083584	60	5349
2026-01-01 01:02:14.53	235.95	68.02	-50.3	-53.7	11.9	7.32e-05	0	62	0	823132160	62	5636
2026-01-01 01:02:15.50	235.42	67.62	-50.5	-54.5	11.0	8.09e-04	0	62	0	825229312	62	6197
2026-01-01 01:02:16.46	234.90	67.23	-50.4	-54.2	11.3	1.37e-03	0	61	0	827326464	62	5950
2026-01-01 01:02:17.42	234.41	66.84	-50.2	-53.5	12.0	4.65e-04	0	61	0	829423616	62	5499
2026-01-01 01:02:18.38	233.93	66.44	-50.0	-53.1	12.5	1.37e-04	0	62	0	830472192	62	5256
2026-01-01 01:02:19.35	233.47	66.05	-49.7	-52.8	12.8	9.00e-05	0	62	0	832569344	62	5094
2026-01-01 01:02:20.31	233.03	65.66	-49.4	-52.1	13.5	5.56e-05	0	62	0	834666496	61	4954
2026-01-01 01:02:21.27	232.60	65.27	-48.8	-51.2	14.4	1.50e-06	0	62	0	835715072	60	4724
2026-01-01 01:02:22.23	232.19	64.88	-48.8	-51.2	14.5	0.00e+00	0	62	0	837812224	60	4736
2026-01-01 01:02:23.20	231.79	64.49	-48.7	-50.9	14.8	7.00e-07	0	62	0	839909376	60	4555
2026-01-01 01:02:24.17	231.40	64.10	-48.4	-50.4	15.2	0.00e+00	0	62	0	842006528	59	4588
2026-01-01 01:02:25.13	231.03	63.71	-48.0	-49.9	15.8	0.00e+00	0	62	0	843055104	59	4301
2026-01-01 01:02:26.09	230.67	63.32	-47.7	-49.5	16.2	0.00e+00	0	62	0	845152256	58	4359
2026-01-01 01:02:27.05	230.33	62.94	-47.4	-49.1	16.5	0.00e+00	0	62	0	847249408	58	4173
2026-01-01 01:02:28.01	229.99	62.56	-47.2	-48.8	16.8	0.00e+00	0	62	0	849346560	57	4259
2026-01-01 01:02:28.98	229.66	62.17	-47.2	-48.8	16.8	0.00e+00	0	62	0	850395136	57	4255
2026-01-01 01:02:29.94	229.35	61.79	-47.7	-49.4	16.3	0.00e+00	0	62	0	852492288	57	4595
2026-01-01 01:02:30.91	229.04	61.41	-47.8	-49.5	16.0	0.00e+00	0	62	0	854589440	57	4650
2026-01-01 01:02:31.87	228.74	61.03	-48.4	-50.5	15.2	0.00e+00	0	62	0	855638016	58	4915
2026-01-01 01:02:32.83	228.45	60.66	-48.9	-51.3	14.4	2.20e-06	0	62	0	857735168	59	5061
2026-01-01 01:02:33.79	228.18	60.28	-49.7	-52.7	12.9	9.10e-06	0	62	0	859832320	61	5305
2026-01-01 01:02:34.76	227.90	59.91	-49.8	-52.8	12.7	9.68e-05	0	62	0	861929472	61	5380
2026-01-01 01:02:35.72	227.64	59.53	-49.6	-52.5	13.1	2.67e-05	0	62	0	862978048	61	5178
2026-01-01 01:02:36.69	227.38	59.16	-49.6	-52.5	13.1	2.05e-05	0	61	0	865075200	61	5192
2026-01-01 01:02:37.65	227.13	58.79	-50.0	-53.2	12.4	6.17e-05	0	62	0	867172352	61	5613
2026-01-01 01:02:38.61	226.89	58.43	-50.4	-54.0	11.6	3.20e-04	0	62	0	869269504	62	5827
2026-01-01 01:02:39.57	226.66	58.06	-50.7	-54.7	10.9	8.19e-04	0	62	0	870318080	63	5932
2026-01-01 01:02:40.54	226.43	57.70	-50.6	-54.4	11.2	1.84e-03	0	62	0	872415232	63	5732
2026-01-01 01:02:41.50	226.20	57.34	-50.3	-54.1	11.4	1.31e-03	0	61	0	874512384	63	5581
2026-01-01 01:02:42.46	225.99	56.98	-50.2	-53.9	11.6	1.03e-03	0	61	0	875560960	63	5455
2026-01-01 01:02:43.43	225.77	56.62	-50.1	-53.5	12.0	4.70e-04	0	62	0	877658112	63	5211
2026-01-01 01:02:44.39	225.57	56.26	-50.1	-53.3	12.2	2.23e-04	0	62	0	879755264	63	5096
2026-01-01 01:02:45.35	225.37	55.91	-50.2	-53.6	12.0	2.49e-04	0	61	0	881852416	63	5251
2026-01-01 01:02:46.31	225.17	55.56	-50.5	-54.2	11.4	9.43e-04	0	61	0	882900992	63	5628
2026-01-01 01:02:47.28	224.98	55.21	-50.0	-53.5	12.1	4.36e-04	0	61	0	884998144	63	5175
2026-01-01 01:02:48.25	224.79	54.85	-49.3	-52.1	13.5	6.79e-05	0	62	0	887095296	61	4962
2026-01-01 01:02:49.22	224.61	54.51	-48.8	-51.3	14.4	7.00e-07	0	61	0	888143872	60	4777
2026-01-01 01:02:50.18	224.44	54.16	-48.6	-50.8	14.9	0.00e+00	0	61	0	890241024	60	4518
2026-01-01 01:02:51.15	224.26	53.82	-48.6	-50.9	14.8	0.00e+00	0	62	0	892338176	60	4561
2026-01-01 01:02:52.11	224.09	53.48	-48.6	-50.8	14.8	0.00e+00	0	62	0	894435328	60	4539
2026-01-01 01:02:53.07	223.93	53.14	-49.2	-51.8	13.9	0.00e+00	0	62	0	895483904	60	5045
2026-01-01 01:02:54.04	223.77	52.80	-48.9	-51.3	14.3	3.00e-06	0	62	0	897581056	60	4773
2026-01-01 01:02:55.00	223.61	52.47	-48.5	-50.9	14.7	7.00e-07	0	62	0	899678208	60	4551
2026-01-01 01:02:55.96	223.46	52.14	-48.4	-50.5	15.2	0.00e+00	0	62	0	901775360	59	4611
2026-01-01 01:02:56.93	223.31	51.81	-48.6	-50.8	14.9	7.00e-07	0	62	0	902823936	59	4778
2026-01-01 01:02:57.89	223.16	51.48	-48.1	-50.1	15.5	0.00e+00	0	62	0	904921088	59	4406
2026-01-01 01:02:58.85	223.02	51.15	-49.1	-51.5	14.2	7.00e-07	0	61	0	907018240	59	5210
2026-01-01 01:02:59.81	222.88	50.83	-49.3	-51.9	13.7	1.50e-06	0	62	0	908066816	60	5150
2026-01-01 01:03:00.77	222.74	50.51	-49.5	-52.3	13.4	7.60e-06	0	62	0	910163968	60	5345
2026-01-01 01:03:01.74	222.61	50.19	-49.8	-52.8	12.7	4.34e-05	0	62	0	912261120	61	5382
2026-01-01 01:03:02.70	222.48	49.87	-50.4	-54.0	11.6	1.81e-04	0	62	0	914358272	62	5841
2026-01-01 01:03:03.66	222.35	49.56	-50.5	-54.6	10.9	1.85e-03	0	62	0	915406848	63	5894
2026-01-01 01:03:04.63	222.22	49.24	-50.7	-54.6	10.9	2.67e-03	0	61	0	917504000	63	5922
2026-01-01 01:03:05.59	222.10	48.93	-50.4	-54.0	11.5	1.28e-03	0	62	0	919601152	63	5522
2026-01-01 01:03:06.55	221.98	48.62	-50.2	-53.5	12.1	3.64e-04	0	62	0	920649728	63	5177
2026-01-01 01:03:07.52	221.86	48.31	-49.9	-53.1	12.5	1.56e-04	0	62	0	922746880	62	5236
2026-01-01 01:03:08.48	221.74	48.01	-49.7	-52.6	12.9	5.49e-05	0	62	0	924844032	62	4978
2026-01-01 01:03:09.45	221.63	47.70	-49.6	-52.6	13.0	3.73e-05	0	62	0	926941184	62	4971
2026-01-01 01:03:10.41	221.52	47.40	-49.7	-52.8	12.8	3.12e-05	0	62	0	927989760	62	5092
2026-01-01 01:03:11.38	221.41	47.10	-50.1	-53.6	11.9	1.40e-04	0	62	0	930086912	62	5591
2026-01-01 01:03:12.35	221.30	46.80	-50.1	-53.6	11.9	4.21e-04	0	62	0	932184064	62	5576
2026-01-01 01:03:13.31	221.20	46.51	-49.9	-53.3	12.3	2.30e-04	0	62	0	934281216	62	5347
2026-01-01 01:03:14.27	221.09	46.21	-49.8	-52.8	12.8	8.77e-05	0	62	0	935329792	62	5071
2026-01-01 01:03:15.23	220.99	45.92	-49.7	-52.6	12.9	5.34e-05	0	62	0	937426944	62	4980
2026-01-01 01:03:16.19	220.90	45.63	-49.6	-52.5	13.1	3.96e-05	0	62	0	939524096	62	4888
2026-01-01 01:03:17.15	220.80	45.35	-49.5	-52.2	13.5	1.14e-05	0	62	0	940572672	62	4715
2026-01-01 01:03:18.12	220.70	45.06	-49.4	-52.0	13.5	8.30e-06	0	62	0	942669824	61	4904
2026-01-01 01:03:19.08	220.61	44.78	-49.5	-52.3	13.3	1.37e-05	0	62	0	944766976	61	5067
2026-01-01 01:03:20.04	220.52	44.49	-49.5	-52.2	13.3	1.60e-05	0	62	0	946864128	61	5038
2026-01-01 01:03:21.00	220.43	44.22	-49.8	-52.8	12.8	3.05e-05	0	62	0	947912704	61	5388
2026-01-01 01:03:21.96	220.34	43.94	-49.8	-52.9	12.7	7.17e-05	0	62	0	950009856	61	5434
2026-01-01 01:03:22.92	220.25	43.66	-50.1	-53.4	12.1	1.50e-04	0	62	0	952107008	62	5425
2026-01-01 01:03:23.88	220.17	43.39	-50.3	-53.8	11.7	3.58e-04	0	62	0	953155584	62	5709
2026-01-01 01:03:24.85	220.08	43.12	-50.1	-53.6	12.0	4.06e-04	0	62	0	955252736	62	5573
2026-01-01 01:03:25.81	220.00	42.85	-50.1	-53.6	11.9	2.99e-04	0	62	0	957349888	62	5572
2026-01-01 01:03:26.77	219.92	42.58	-50.2	-53.7	11.9	4.97e-04	0	62	0	959447040	62	5630
2026-01-01 01:03:27.74	219.84	42.31	-50.2	-53.7	11.9	3.99e-04	0	62	0	960495616	62	5604
2026-01-01 01:03:28.70	219.76	42.05	-50.2	-53.7	11.9	3.35e-04	0	62	0	962592768	62	5614
2026-01-01 01:03:29.66	219.68	41.78	-50.2	-53.8	11.6	3.79e-04	0	62	0	964689920	62	5722
2026-01-01 01:03:30.62	219.61	41.52	-50.2	-53.8	11.7	7.01e-04	0	62	0	965738496	62	5709
2026-01-01 01:03:31.59	219.53	41.26	-50.0	-53.3	12.3	2.01e-04	0	62	0	967835648	62	5380
2026-01-01 01:03:32.55	219.46	41.00	-50.1	-53.3	12.2	2.22e-04	0	62	0	969932800	62	5398
2026-01-01 01:03:33.51	219.39	40.75	-50.2	-53.6	12.0	3.26e-04	0	62	0	972029952	62	5576
2026-01-01 01:03:34.48	219.32	40.49	-50.3	-53.9	11.6	4.16e-04	0	62	0	973078528	62	5750
2026-01-01 01:03:35.44	219.25	40.24	-50.4	-54.0	11.5	7.99e-04	0	62	0	975175680	62	5838
2026-01-01 01:03:36.40	219.18	39.99	-50.5	-54.3	11.2	9.12e-04	0	62	0	977272832	62	6033
2026-01-01 01:03:37.36	219.11	39.74	-50.6	-54.6	10.9	2.51e-03	0	62	0	979369984	63	5871
2026-01-01 01:03:38.33	219.05	39.49	-50.7	-54.7	10.8	2.18e-03	0	62	0	980418560	63	5955
2026-01-01 01:03:39.29	218.98	39.25	-50.7	-54.7	10.8	2.57e-03	0	62	0	982515712	63	5968
2026-01-01 01:03:40.25	218.92	39.01	-50.7	-54.7	10.7	3.07e-03	0	62	0	984612864	63	5990
2026-01-01 01:03:41.21	218.85	38.76	-50.5	-54.3	11.3	1.48e-03	0	62	0	985661440	63	5659
2026-01-01 01:03:42.18	218.79	38.52	-50.2	-53.7	11.9	5.72e-04	0	62	0	987758592	63	5303
2026-01-01 01:03:43.14	218.73	38.28	-50.0	-53.3	12.3	2.70e-04	0	62	0	989855744	63	5043
2026-01-01 01:03:44.10	218.67	38.05	-49.8	-52.9	12.7	1.17e-04	0	62	0	991952896	62	5133
2026-01-01 01:03:45.06	218.61	37.81	-49.7	-52.6	13.0	4.65e-05	0	62	0	993001472	62	4948
2026-01-01 01:03:46.03	218.55	37.58	-49.6	-52.5	13.1	2.51e-05	0	62	0	995098624	62	4874
2026-01-01 01:03:46.99	218.49	37.34	-49.8	-52.8	12.8	4.04e-05	0	62	0	997195776	62	5052
2026-01-01 01:03:47.95	218.44	37.11	-49.5	-52.3	13.3	4.04e-05	0	62	0	999292928	62	4784
2026-01-01 01:03:48.91	218.38	36.89	-49.6	-52.5	13.1	1.29e-05	0	62	0	1000341504	61	5184
2026-01-01 01:03:49.88	218.32	36.66	-49.5	-52.3	13.2	3.81e-05	0	62	0	1002438656	61	5090
2026-01-01 01:03:50.84	218.27	36.43	-49.4	-52.1	13.5	1.22e-05	0	62	0	1004535808	61	4941
2026-01-01 01:03:51.80	218.22	36.21	-49.4	-52.1	13.5	1.14e-05	0	62	0	1005584384	61	4966
2026-01-01 01:03:52.76	218.16	35.98	-49.3	-52.0	13.6	1.14e-05	0	62	0	1007681536	61	4878
2026-01-01 01:03:53.72	218.11	35.76	-49.4	-52.2	13.4	3.80e-06	0	62	0	1009778688	61	5027
2026-01-01 01:03:54.68	218.06	35.54	-49.4	-52.2	13.4	1.44e-05	0	62	0	1010827264	61	5008
2026-01-01 01:03:55.66	218.01	35.32	-49.3	-52.0	13.6	7.60e-06	0	62	0	1012924416	61	4873
2026-01-01 01:03:56.62	217.96	35.10	-49.1	-51.7	13.8	4.50e-06	0	62	0	1015021568	61	4745
2026-01-01 01:03:57.58	217.91	34.89	-49.1	-51.7	13.9	3.80e-06	0	62	0	1017118720	61	4719
2026-01-01 01:03:58.54	217.86	34.68	-49.1	-51.6	14.0	3.80e-06	0	62	0	1018167296	61	4677
2026-01-01 01:03:59.51	217.81	34.46	-49.1	-51.6	14.0	6.10e-06	0	62	0	1020264448	61	4665
2026-01-01 01:04:00.47	217.77	34.25	-49.1	-51.7	13.9	7.00e-07	0	62	0	1022361600	61	4721
2026-01-01 01:04:01.43	217.72	34.04	-49.1	-51.8	13.8	5.30e-06	0	62	0	1024458752	61	4791
2026-01-01 01:04:02.40	217.67	33.83	-49.2	-52.0	13.6	6.10e-06	0	62	0	1025507328	61	4903
2026-01-01 01:04:03.36	217.63	33.62	-49.4	-52.2	13.3	1.22e-05	0	62	0	1027604480	61	4997
2026-01-01 01:04:04.32	217.58	33.42	-49.2	-52.0	13.5	6.80e-06	0	62	0	1029701632	61	4922
2026-01-01 01:04:05.29	217.54	33.21	-49.2	-51.9	13.7	4.50e-06	0	62	0	1030750208	61	4834
2026-01-01 01:04:06.27	217.50	33.01	-49.1	-51.8	13.7	6.10e-06	0	62	0	1032847360	61	4790
2026-01-01 01:04:07.26	217.45	32.80	-49.3	-52.1	13.5	1.29e-05	0	62	0	1034944512	61	4944
2026-01-01 01:04:08.25	217.41	32.59	-49.3	-52.1	13.4	1.44e-05	0	62	0	1037041664	61	4976
2026-01-01 01:04:09.24	217.37	32.39	-49.5	-52.6	12.9	3.73e-05	0	62	0	1039138816	61	5279
2026-01-01 01:04:10.23	217.32	32.18	-49.6	-52.8	12.8	5.72e-05	0	62	0	1040187392	61	5360
2026-01-01 01:04:11.22	217.28	31.98	-49.6	-52.9	12.7	4.80e-05	0	62	0	1042284544	61	5404
2026-01-01 01:04:12.20	217.24	31.78	-50.0	-53.5	12.0	2.82e-04	0	62	0	1044381696	62	5491
2026-01-01 01:04:13.19	217.20	31.58	-49.9	-53.3	12.2	1.92e-04	0	62	0	1046478848	62	5367
2026-01-01 01:04:14.15	217.16	31.39	-49.9	-53.3	12.2	2.23e-04	0	62	0	1047527424	62	5385
2026-01-01 01:04:15.11	217.12	31.20	-50.0	-53.6	12.0	3.31e-04	0	62	0	1049624576	62	5558
2026-01-01 01:04:16.07	217.09	31.01	-50.1	-53.6	11.9	3.81e-04	0	62	0	1051721728	62	5565
2026-01-01 01:04:17.03	217.05	30.82	-50.2	-53.9	11.7	4.46e-04	0	62	0	1052770304	62	5725
2026-01-01 01:04:17.99	217.01	30.64	-50.1	-53.6	11.8	4.98e-04	0	62	0	1054867456	62	5570
2026-01-01 01:04:18.96	216.97	30.45	-50.1	-53.7	11.8	4.44e-04	0	62	0	1056964608	62	5656
2026-01-01 01:04:19.93	216.94	30.26	-50.2	-53.9	11.6	6.15e-04	0	62	0	1059061760	62	5730
2026-01-01 01:04:20.90	216.90	30.08	-50.1	-53.6	11.8	7.21e-04	0	62	0	1060110336	62	5590
2026-01-01 01:04:21.86	216.87	29.89	-50.0	-53.6	12.0	4.13e-04	0	62	0	1062207488	62	5542
2026-01-01 01:04:22.82	216.83	29.71	-50.1	-53.7	11.8	3.60e-04	0	62	0	1064304640	62	5641
2026-01-01 01:04:23.78	216.80	29.53	-50.0	-53.5	12.0	4.87e-04	0	62	0	1066401792	62	5502
2026-01-01 01:04:24.75	216.76	29.35	-49.7	-52.7	12.8	1.47e-04	0	62	0	1067450368	62	5016
2026-01-01 01:04:25.71	216.73	29.17	-49.4	-52.3	13.3	2.97e-05	0	62	0	1069547520	61	5046
2026-01-01 01:04:26.67	216.70	29.00	-49.2	-51.9	13.6	6.80e-06	0	62	0	1071644672	61	4852
2026-01-01 01:04:27.63	216.66	28.82	-49.1	-51.7	13.8	7.60e-06	0	62	0	1072693248	61	4725
2026-01-01 01:04:28.60	216.63	28.65	-49.0	-51.6	14.0	3.80e-06	0	62	0	1074790400	61	4665
2026-01-01 01:04:29.56	216.60	28.47	-49.0	-51.6	14.0	4.50e-06	0	62	0	1076887552	61	4670
2026-01-01 01:04:30.53	216.57	28.30	-49.0	-51.7	13.9	4.50e-06	0	62	0	1078984704	61	4715
2026-01-01 01:04:31.49	216.54	28.13	-49.0	-51.6	14.0	5.30e-06	0	62	0	1080033280	61	4671
2026-01-01 01:04:32.45	216.51	27.96	-49.0	-51.5	14.0	2.20e-06	0	62	0	1082130432	61	4639
2026-01-01 01:04:33.42	216.47	27.78	-48.8	-51.3	14.2	1.50e-06	0	62	0	1084227584	60	4789
2026-01-01 01:04:34.38	216.44	27.62	-48.7	-51.2	14.3	1.50e-06	0	62	0	1085276160	60	4756
2026-01-01 01:04:35.34	216.42	27.45	-48.8	-51.3	14.2	0.00e+00	0	62	0	1087373312	60	4784
2026-01-01 01:04:36.30	216.39	27.28	-48.8	-51.3	14.3	1.50e-06	0	62	0	1089470464	60	4767
2026-01-01 01:04:37.27	216.36	27.12	-48.8	-51.3	14.3	7.00e-07	0	62	0	1091567616	60	4771
2026-01-01 01:04:38.23	216.33	26.95	-48.9	-51.4	14.2	0.00e+00	0	62	0	1092616192	60	4822
2026-01-01 01:04:39.19	216.30	26.79	-49.1	-51.7	13.7	3.80e-06	0	62	0	1094713344	60	5036
2026-01-01 01:04:40.15	216.27	26.63	-49.2	-51.9	13.6	5.30e-06	0	62	0	1096810496	60	5143
2026-01-01 01:04:41.12	216.24	26.46	-48.9	-51.5	14.0	2.20e-06	0	62	0	1098907648	60	4906
2026-01-01 01:04:42.08	216.22	26.30	-49.0	-51.6	13.9	5.30e-06	0	62	0	1099956224	60	4958
2026-01-01 01:04:43.04	216.19	26.14	-48.8	-51.4	14.1	2.20e-06	0	62	0	1102053376	60	4833
2026-01-01 01:04:44.01	216.16	25.98	-48.8	-51.3	14.2	1.50e-06	0	62	0	1104150528	60	4782
2026-01-01 01:04:44.97	216.14	25.82	-49.0	-51.6	13.9	1.50e-06	0	62	0	1105199104	60	4929
2026-01-01 01:04:45.93	216.11	25.67	-48.7	-51.1	14.4	3.80e-06	0	62	0	1107296256	60	4689
2026-01-01 01:04:46.90	216.08	25.51	-48.6	-50.9	14.6	0.00e+00	0	62	0	1109393408	60	4590
2026-01-01 01:04:47.86	216.06	25.36	-48.8	-51.1	14.4	0.00e+00	0	62	0	1111490560	60	4701
2026-01-01 01:04:48.83	216.03	25.20	-48.6	-50.9	14.6	7.00e-07	0	62	0	1112539136	60	4594
2026-01-01 01:04:49.78	216.01	25.05	-48.4	-50.5	15.0	0.00e+00	0	62	0	1114636288	59	4629
2026-01-01 01:04:50.74	215.98	24.90	-48.3	-50.4	15.2	7.00e-07	0	62	0	1116733440	59	4547
2026-01-01 01:04:51.71	215.96	24.74	-48.2	-50.2	15.3	0.00e+00	0	62	0	1118830592	59	4487
2026-01-01 01:04:52.67	215.93	24.59	-48.2	-50.2	15.3	0.00e+00	0	62	0	1119879168	59	4461
2026-01-01 01:04:53.63	215.91	24.44	-48.2	-50.2	15.3	0.00e+00	0	62	0	1121976320	59	4471
2026-01-01 01:04:54.59	215.89	24.29	-48.1	-50.1	15.4	0.00e+00	0	62	0	1124073472	59	4435
2026-01-01 01:04:55.55	215.86	24.15	-48.1	-50.1	15.5	0.00e+00	0	62	0	1125122048	59	4395
2026-01-01 01:04:56.52	215.84	24.00	-48.2	-50.2	15.3	0.00e+00	0	62	0	1127219200	59	4463
2026-01-01 01:04:57.48	215.82	23.85	-48.2	-50.2	15.3	0.00e+00	0	62	0	1129316352	59	4484
2026-01-01 01:04:58.44	215.79	23.71	-48.2	-50.3	15.2	0.00e+00	0	62	0	1131413504	59	4510
2026-01-01 01:04:59.41	215.77	23.56	-48.3	-50.4	15.1	0.00e+00	0	62	0	1132462080	59	4553
2026-01-01 01:05:00.37	215.75	23.42	-48.4	-50.5	15.0	0.00e+00	0	62	0	1134559232	59	4650
2026-01-01 01:05:01.33	215.73	23.27	-48.3	-50.5	15.0	0.00e+00	0	62	0	1136656384	59	4623
2026-01-01 01:05:02.29	215.70	23.13	-48.5	-50.7	14.8	0.00e+00	0	62	0	1137704960	59	4720
2026-01-01 01:05:03.25	215.68	22.99	-48.4	-50.6	14.9	0.00e+00	0	62	0	1139802112	59	4675
2026-01-01 01:05:04.22	215.66	22.85	-48.4	-50.6	14.9	0.00e+00	0	62	0	1141899264	59	4667
2026-01-01 01:05:05.18	215.64	22.71	-48.5	-50.6	14.9	7.00e-07	0	62	0	1143996416	59	4687
2026-01-01 01:05:06.15	215.62	22.57	-48.5	-50.7	14.9	7.00e-07	0	62	0	1145044992	59	4707
2026-01-01 01:05:07.11	215.60	22.43	-48.3	-50.5	15.0	0.00e+00	0	62	0	1147142144	59	4644
2026-01-01 01:05:08.07	215.58	22.29	-48.4	-50.6	14.9	0.00e+00	0	62	0	1149239296	59	4670
2026-01-01 01:05:09.04	215.56	22.15	-48.6	-50.8	14.7	7.00e-07	0	62	0	1150287872	59	4786
2026-01-01 01:05:10.00	215.54	22.01	-48.3	-50.5	15.0	7.00e-07	0	62	0	1152385024	59	4626
2026-01-01 01:05:10.96	215.52	21.88	-48.2	-50.3	15.1	0.00e+00	0	62	0	1154482176	59	4528
2026-01-01 01:05:11.92	215.50	21.74	-48.2	-50.3	15.2	0.00e+00	0	62	0	1156579328	59	4507
2026-01-01 01:05:12.89	215.48	21.61	-48.2	-50.2	15.3	0.00e+00	0	62	0	1157627904	59	4469
2026-01-01 01:05:13.85	215.46	21.48	-48.2	-50.2	15.2	0.00e+00	0	62	0	1159725056	59	4492
2026-01-01 01:05:14.81	215.44	21.34	-48.1	-50.3	15.2	0.00e+00	0	62	0	1161822208	59	4509
2026-01-01 01:05:15.78	215.42	21.21	-48.2	-50.4	15.1	0.00e+00	0	62	0	1163919360	59	4548
2026-01-01 01:05:16.74	215.40	21.08	-48.2	-50.4	15.1	0.00e+00	0	62	0	1164967936	59	4561
2026-01-01 01:05:17.70	215.38	20.95	-48.2	-50.3	15.2	0.00e+00	0	62	0	1167065088	59	4506
2026-01-01 01:05:18.67	215.36	20.82	-48.2	-50.3	15.1	0.00e+00	0	62	0	1169162240	59	4526
2026-01-01 01:05:19.64	215.35	20.69	-48.3	-50.5	15.0	0.00e+00	0	62	0	1170210816	59	4621
2026-01-01 01:05:20.59	215.33	20.56	-48.4	-50.6	14.9	7.00e-07	0	62	0	1172307968	59	4671
2026-01-01 01:05:21.56	215.31	20.43	-48.5	-50.8	14.7	0.00e+00	0	62	0	1174405120	59	4761
2026-01-01 01:05:22.52	215.29	20.30	-48.6	-50.8	14.6	7.00e-07	0	62	0	1176502272	59	4797
2026-01-01 01:05:23.49	215.28	20.17	-48.7	-51.0	14.5	7.00e-07	0	62	0	1177550848	59	4893
2026-01-01 01:05:24.45	215.26	20.05	-48.8	-51.2	14.3	1.50e-06	0	62	0	1179648000	59	4991
2026-01-01 01:05:25.41	215.24	19.92	-48.9	-51.4	14.0	7.00e-07	0	62	0	1181745152	59	5121
2026-01-01 01:05:26.38	215.22	19.80	-49.0	-51.6	13.8	8.30e-06	0	62	0	1182793728	59	5256
2026-01-01 01:05:27.34	215.21	19.67	-49.0	-51.7	13.7	3.80e-06	0	62	0	1184890880	59	5302
2026-01-01 01:05:28.31	215.19	19.55	-49.2	-52.0	13.4	9.10e-06	0	62	0	1186988032	60	5206
2026-01-01 01:05:29.28	215.17	19.42	-49.1	-51.9	13.5	7.60e-06	0	62	0	1189085184	60	5111
2026-01-01 01:05:30.24	215.16	19.30	-49.3	-52.1	13.3	9.90e-06	0	62	0	1190133760	60	5229
2026-01-01 01:05:31.21	215.14	19.18	-49.5	-52.5	12.8	3.50e-05	0	62	0	1192230912	60	5514
2026-01-01 01:05:32.17	215.13	19.06	-49.3	-52.2	13.2	5.41e-05	0	62	0	1194328064	60	5298
2026-01-01 01:05:33.13	215.11	18.93	-49.4	-52.4	13.0	3.73e-05	0	62	0	1196425216	60	5406
2026-01-01 01:05:34.09	215.09	18.81	-49.3	-52.1	13.2	3.35e-05	0	62	0	1197473792	60	5259
2026-01-01 01:05:35.05	215.08	18.70	-49.2	-51.8	13.5	2.13e-05	0	62	0	1199570944	60	5099
2026-01-01 01:05:36.01	215.06	18.58	-49.0	-51.7	13.6	6.10e-06	0	62	0	1201668096	60	5034
2026-01-01 01:05:36.98	215.05	18.46	-49.1	-51.8	13.6	8.30e-06	0	62	0	1202716672	60	5058
2026-01-01 01:05:37.94	215.03	18.34	-49.1	-51.7	13.6	1.37e-05	0	62	0	1204813824	60	5037
2026-01-01 01:05:38.91	215.02	18.22	-49.0	-51.5	13.9	7.60e-06	0	62	0	1206910976	60	4917
2026-01-01 01:05:39.87	215.00	18.10	-48.8	-51.3	14.1	5.30e-06	0	62	0	1209008128	60	4785
2026-01-01 01:05:40.83	214.99	17.99	-48.8	-51.3	14.1	7.00e-07	0	62	0	1210056704	60	4788
2026-01-01 01:05:41.80	214.97	17.87	-48.8	-51.2	14.1	4.50e-06	0	62	0	1212153856	60	4747
2026-01-01 01:05:42.76	214.96	17.76	-48.9	-51.4	13.9	3.80e-06	0	62	0	1214251008	60	4866
