passes_logs/2026/01/01/R3.0SM8_Murmansk_STILSPACE/R3.0SM8_Murmansk_STILSPACE__20260101_003344_SUOMI_NPP_rec.log

#Pass ID: 20260101_003344_SUOMI NPP
#Satellite: SUOMI NPP
#Configuration: NPP
#almurnet v.1.7.20240730
#Start time: 2026-01-01 00:33:46

#Version: 2.2.20231116
#Station: R3.0SM8_Murmansk_STILSPACE
#Location: 33.092731 lon 68.902999 lat
#TLE: 1 37849U 11061A   25364.87906317  .00000195  00000+0  11345-3 0  9992
#TLE: 2 37849  98.7794 302.0592 0002571  89.2401 270.9069 14.19520347734561

#Time	Az	El	Level	Level2	SNR	BER	BlckErr	Temp	State	Recorded	gain1	gain2
2026-01-01 00:33:46.75	24.00	3.12	-52.5	-66.4	3.8	1.49e+00	0	50	0	0	67	18300
2026-01-01 00:33:47.74	24.01	3.19	-52.5	-66.3	3.8	1.49e+00	0	50	104	0	67	17995
2026-01-01 00:33:48.72	24.02	3.25	-52.4	-66.2	3.8	1.49e+00	0	50	104	0	67	17805
2026-01-01 00:33:49.70	24.03	3.32	-52.3	-66.1	3.8	1.49e+00	0	50	104	0	67	17552
2026-01-01 00:33:50.68	24.04	3.38	-52.1	-65.9	3.8	1.49e+00	0	50	104	0	67	17198
2026-01-01 00:33:51.67	24.05	3.45	-51.6	-65.4	3.8	1.49e+00	0	50	104	0	66	17121
2026-01-01 00:33:52.64	24.05	3.52	-50.2	-56.1	7.9	5.62e-01	0	51	0	0	63	7000
2026-01-01 00:33:53.61	24.06	3.58	-50.0	-55.5	8.5	5.01e-02	0	51	0	2097152	63	6568
2026-01-01 00:33:54.57	24.07	3.65	-50.1	-55.5	8.6	3.72e-02	0	51	0	4194304	63	6505
2026-01-01 00:33:55.53	24.08	3.71	-50.1	-55.4	8.7	3.95e-02	0	51	0	5242880	63	6429
2026-01-01 00:33:56.49	24.09	3.78	-49.9	-54.8	9.2	2.11e-02	0	51	0	7340032	62	6417
2026-01-01 00:33:57.45	24.10	3.84	-49.9	-54.8	9.3	1.89e-02	0	51	0	9437184	62	6393
2026-01-01 00:33:58.42	24.11	3.91	-49.6	-54.3	9.7	1.36e-02	0	51	0	10485760	62	6040
2026-01-01 00:33:59.38	24.12	3.97	-49.5	-54.0	10.0	1.07e-02	0	51	0	12582912	62	5845
2026-01-01 00:34:00.34	24.13	4.04	-49.5	-53.9	10.2	7.22e-03	0	51	0	14680064	62	5759
2026-01-01 00:34:01.31	24.14	4.10	-49.4	-53.8	10.3	5.97e-03	0	51	0	16777216	61	6010
2026-01-01 00:34:02.27	24.15	4.17	-49.5	-53.8	10.2	5.73e-03	0	51	0	17825792	61	6060
2026-01-01 00:34:03.23	24.16	4.24	-49.4	-53.7	10.3	6.56e-03	0	52	0	19922944	61	5988
2026-01-01 00:34:04.19	24.17	4.30	-49.5	-53.9	10.2	5.33e-03	0	52	0	22020096	61	6080
2026-01-01 00:34:05.15	24.18	4.37	-49.4	-53.6	10.5	3.67e-03	0	52	0	23068672	61	5886
2026-01-01 00:34:06.11	24.19	4.44	-49.4	-53.8	10.2	5.22e-03	0	52	0	25165824	61	6056
2026-01-01 00:34:07.08	24.20	4.50	-49.5	-53.8	10.3	4.76e-03	0	52	0	27262976	61	6038
2026-01-01 00:34:08.04	24.21	4.57	-49.6	-54.1	10.0	5.02e-03	0	52	0	29360128	61	6222
2026-01-01 00:34:09.00	24.22	4.64	-49.6	-54.1	10.0	7.99e-03	0	52	0	30408704	61	6208
2026-01-01 00:34:09.97	24.22	4.71	-49.7	-54.4	9.7	9.15e-03	0	52	0	32505856	61	6443
2026-01-01 00:34:10.93	24.23	4.77	-49.8	-54.7	9.3	1.66e-02	0	52	0	34603008	61	6718
2026-01-01 00:34:11.89	24.24	4.84	-49.7	-54.4	9.7	1.26e-02	0	52	0	35651584	61	6455
2026-01-01 00:34:12.86	24.25	4.91	-49.9	-54.8	9.2	1.50e-02	0	52	0	37748736	61	6800
2026-01-01 00:34:13.82	24.26	4.98	-50.1	-55.3	8.7	2.82e-02	0	52	0	39845888	61	7190
2026-01-01 00:34:14.78	24.27	5.05	-50.2	-55.8	8.2	4.29e-02	0	52	0	41943040	62	7199
2026-01-01 00:34:15.75	24.28	5.12	-50.3	-56.1	8.0	6.24e-02	0	52	0	42991616	62	7378
2026-01-01 00:34:16.72	24.29	5.18	-50.1	-55.6	8.5	5.30e-02	0	52	0	45088768	62	6964
2026-01-01 00:34:17.68	24.30	5.25	-50.2	-55.7	8.4	3.25e-02	0	52	0	47185920	62	7077
2026-01-01 00:34:18.65	24.31	5.32	-50.1	-55.7	8.4	5.08e-02	0	52	0	49283072	62	7075
2026-01-01 00:34:19.61	24.32	5.39	-49.9	-54.9	9.3	2.14e-02	0	52	0	50331648	62	6443
2026-01-01 00:34:20.57	24.33	5.46	-49.8	-54.2	10.0	1.06e-02	0	53	0	52428800	62	5989
2026-01-01 00:34:21.54	24.34	5.53	-49.8	-54.3	10.0	5.94e-03	0	53	0	54525952	62	6015
2026-01-01 00:34:22.50	24.35	5.60	-49.8	-54.4	9.9	6.81e-03	0	53	0	55574528	62	6111
2026-01-01 00:34:23.47	24.36	5.67	-49.9	-54.5	9.8	1.13e-02	0	53	0	57671680	62	6161
2026-01-01 00:34:24.43	24.37	5.74	-49.8	-54.2	10.0	1.01e-02	0	53	0	59768832	62	5977
2026-01-01 00:34:25.39	24.38	5.81	-49.8	-54.6	9.7	9.41e-03	0	53	0	61865984	62	6226
2026-01-01 00:34:26.35	24.39	5.88	-49.9	-54.5	9.8	1.21e-02	0	53	0	62914560	62	6199
2026-01-01 00:34:27.32	24.40	5.95	-49.9	-54.4	9.9	1.06e-02	0	53	0	65011712	62	6088
2026-01-01 00:34:28.28	24.41	6.02	-49.6	-53.9	10.4	5.81e-03	0	53	0	67108864	62	5780
2026-01-01 00:34:29.24	24.42	6.10	-49.7	-54.1	10.2	4.40e-03	0	53	0	68157440	62	5900
2026-01-01 00:34:30.20	24.43	6.17	-49.6	-53.9	10.5	4.02e-03	0	53	0	70254592	62	5723
2026-01-01 00:34:31.17	24.44	6.24	-49.5	-53.8	10.6	4.27e-03	0	53	0	72351744	62	5711
2026-01-01 00:34:32.13	24.45	6.31	-49.8	-54.3	10.1	4.74e-03	0	53	0	74448896	62	5994
2026-01-01 00:34:33.09	24.47	6.38	-49.4	-53.6	10.8	4.52e-03	0	53	0	75497472	62	5574
2026-01-01 00:34:34.06	24.48	6.45	-49.2	-53.0	11.4	1.22e-03	0	53	0	77594624	61	5519
2026-01-01 00:34:35.02	24.49	6.53	-49.1	-52.9	11.6	1.13e-03	0	53	0	79691776	61	5435
2026-01-01 00:34:35.99	24.50	6.60	-49.1	-52.5	12.0	4.49e-04	0	53	0	81788928	61	5205
2026-01-01 00:34:36.95	24.51	6.67	-48.9	-52.4	12.2	2.52e-04	0	53	0	82837504	61	5111
2026-01-01 00:34:37.91	24.52	6.74	-48.9	-52.2	12.3	1.38e-04	0	53	0	84934656	60	5329
2026-01-01 00:34:38.89	24.53	6.82	-48.8	-52.0	12.6	1.25e-04	0	54	0	87031808	60	5170
2026-01-01 00:34:39.85	24.54	6.89	-48.9	-52.1	12.5	1.02e-04	0	54	0	89128960	60	5242
2026-01-01 00:34:40.81	24.55	6.97	-48.8	-52.0	12.6	1.31e-04	0	54	0	90177536	60	5191
2026-01-01 00:34:41.78	24.56	7.04	-48.8	-52.1	12.5	1.11e-04	0	54	0	92274688	60	5254
2026-01-01 00:34:42.74	24.57	7.11	-49.0	-52.4	12.2	1.81e-04	0	54	0	94371840	60	5419
2026-01-01 00:34:43.71	24.58	7.19	-48.9	-52.1	12.5	1.31e-04	0	54	0	95420416	60	5261
2026-01-01 00:34:44.68	24.59	7.26	-48.8	-51.9	12.7	6.63e-05	0	54	0	97517568	60	5119
2026-01-01 00:34:45.64	24.60	7.34	-48.8	-52.0	12.6	7.55e-05	0	54	0	99614720	60	5174
2026-01-01 00:34:46.61	24.61	7.41	-48.8	-51.8	12.9	4.19e-05	0	54	0	101711872	60	5076
2026-01-01 00:34:47.57	24.62	7.49	-48.8	-51.8	12.8	3.66e-05	0	54	0	102760448	60	5078
2026-01-01 00:34:48.54	24.64	7.56	-48.7	-51.7	12.9	7.85e-05	0	54	0	104857600	60	5030
2026-01-01 00:34:49.50	24.65	7.64	-48.7	-51.6	13.1	3.66e-05	0	54	0	106954752	60	4961
2026-01-01 00:34:50.46	24.66	7.72	-48.7	-51.8	12.9	3.28e-05	0	54	0	108003328	60	5067
2026-01-01 00:34:51.43	24.67	7.79	-48.7	-51.6	13.1	4.50e-05	0	54	0	110100480	60	4979
2026-01-01 00:34:52.39	24.68	7.87	-48.6	-51.5	13.2	2.67e-05	0	54	0	112197632	60	4924
2026-01-01 00:34:53.35	24.69	7.94	-48.7	-51.6	13.1	2.67e-05	0	54	0	114294784	60	4977
2026-01-01 00:34:54.32	24.70	8.02	-48.6	-51.5	13.2	3.12e-05	0	55	0	115343360	60	4911
2026-01-01 00:34:55.28	24.71	8.10	-48.6	-51.4	13.3	2.28e-05	0	54	0	117440512	60	4860
2026-01-01 00:34:56.25	24.72	8.18	-48.7	-51.6	13.1	2.13e-05	0	54	0	119537664	60	4951
2026-01-01 00:34:57.21	24.73	8.25	-48.7	-51.6	13.2	1.60e-05	0	55	0	121634816	60	4932
2026-01-01 00:34:58.17	24.75	8.33	-48.9	-51.9	12.9	2.67e-05	0	54	0	122683392	60	5149
2026-01-01 00:34:59.14	24.76	8.41	-48.6	-51.4	13.3	3.28e-05	0	55	0	124780544	60	4868
2026-01-01 00:35:00.11	24.77	8.49	-48.5	-51.3	13.4	1.75e-05	0	55	0	126877696	60	4792
2026-01-01 00:35:01.07	24.78	8.57	-48.5	-51.3	13.4	1.06e-05	0	55	0	127926272	60	4809
2026-01-01 00:35:02.04	24.79	8.65	-48.5	-51.1	13.7	6.80e-06	0	55	0	130023424	59	4970
2026-01-01 00:35:03.00	24.80	8.72	-48.5	-51.2	13.6	9.90e-06	0	55	0	132120576	59	5027
2026-01-01 00:35:03.97	24.81	8.80	-48.5	-51.3	13.5	8.30e-06	0	55	0	134217728	59	5049
2026-01-01 00:35:04.94	24.82	8.88	-48.5	-51.1	13.7	6.10e-06	0	55	0	135266304	59	4951
2026-01-01 00:35:05.90	24.84	8.96	-48.4	-51.1	13.7	9.10e-06	0	55	0	137363456	59	4980
2026-01-01 00:35:06.87	24.85	9.04	-48.6	-51.3	13.5	1.29e-05	0	55	0	139460608	59	5100
2026-01-01 00:35:07.83	24.86	9.12	-48.5	-51.2	13.6	9.90e-06	0	55	0	140509184	59	4986
2026-01-01 00:35:08.80	24.87	9.20	-48.4	-51.0	13.8	7.60e-06	0	55	0	142606336	59	4895
2026-01-01 00:35:09.77	24.88	9.29	-48.4	-51.0	13.8	7.60e-06	0	55	0	144703488	59	4909
2026-01-01 00:35:10.73	24.89	9.37	-48.4	-51.0	13.8	3.00e-06	0	55	0	146800640	59	4900
2026-01-01 00:35:11.70	24.91	9.45	-48.5	-51.2	13.7	8.30e-06	0	55	0	147849216	59	4989
2026-01-01 00:35:12.66	24.92	9.53	-48.4	-51.1	13.7	3.80e-06	0	55	0	149946368	59	4944
2026-01-01 00:35:13.63	24.93	9.61	-48.6	-51.3	13.6	7.60e-06	0	55	0	152043520	59	5059
2026-01-01 00:35:14.59	24.94	9.69	-48.6	-51.3	13.5	9.10e-06	0	55	0	154140672	59	5074
2026-01-01 00:35:15.55	24.95	9.78	-48.5	-51.1	13.7	6.80e-06	0	55	0	155189248	59	4972
2026-01-01 00:35:16.51	24.97	9.86	-48.4	-51.0	13.9	3.80e-06	0	55	0	157286400	59	4892
2026-01-01 00:35:17.47	24.98	9.94	-48.5	-51.1	13.8	3.80e-06	0	55	0	159383552	59	4942
2026-01-01 00:35:18.44	24.99	10.02	-48.4	-51.0	13.8	7.00e-07	0	55	0	160432128	59	4924
2026-01-01 00:35:19.41	25.00	10.11	-48.5	-51.2	13.7	3.00e-06	0	55	0	162529280	59	4998
2026-01-01 00:35:20.37	25.01	10.19	-48.3	-50.8	14.1	2.20e-06	0	55	0	164626432	59	4778
2026-01-01 00:35:21.33	25.03	10.28	-48.2	-50.6	14.3	0.00e+00	0	56	0	166723584	59	4687
2026-01-01 00:35:22.29	25.04	10.36	-48.0	-50.3	14.6	0.00e+00	0	56	0	167772160	59	4535
2026-01-01 00:35:23.26	25.05	10.44	-47.9	-50.2	14.7	0.00e+00	0	56	0	169869312	59	4474
2026-01-01 00:35:24.22	25.06	10.53	-48.0	-50.3	14.6	0.00e+00	0	56	0	171966464	58	4796
2026-01-01 00:35:25.18	25.08	10.61	-48.1	-50.4	14.5	7.00e-07	0	56	0	174063616	58	4868
2026-01-01 00:35:26.14	25.09	10.70	-47.9	-50.1	14.8	7.00e-07	0	56	0	175112192	58	4680
2026-01-01 00:35:27.11	25.10	10.79	-47.9	-50.1	14.8	0.00e+00	0	56	0	177209344	58	4698
2026-01-01 00:35:28.08	25.11	10.87	-47.9	-50.1	14.8	0.00e+00	0	56	0	179306496	58	4678
2026-01-01 00:35:29.04	25.13	10.96	-47.9	-50.2	14.7	0.00e+00	0	56	0	180355072	58	4723
2026-01-01 00:35:30.01	25.14	11.05	-47.9	-50.2	14.7	0.00e+00	0	56	0	182452224	58	4734
2026-01-01 00:35:30.97	25.15	11.13	-47.8	-50.0	14.9	0.00e+00	0	56	0	184549376	58	4625
2026-01-01 00:35:31.93	25.16	11.22	-47.8	-50.0	14.9	0.00e+00	0	56	0	186646528	58	4649
2026-01-01 00:35:32.89	25.18	11.31	-47.9	-50.1	14.8	0.00e+00	0	56	0	187695104	58	4672
2026-01-01 00:35:33.86	25.19	11.40	-47.8	-49.9	15.0	0.00e+00	0	56	0	189792256	58	4596
2026-01-01 00:35:34.82	25.20	11.48	-47.9	-50.2	14.8	0.00e+00	0	56	0	191889408	58	4726
2026-01-01 00:35:35.79	25.21	11.57	-47.9	-50.1	14.8	0.00e+00	0	56	0	192937984	58	4672
2026-01-01 00:35:36.75	25.23	11.66	-47.7	-49.9	15.1	0.00e+00	0	56	0	195035136	58	4572
2026-01-01 00:35:37.72	25.24	11.75	-47.7	-49.9	15.1	0.00e+00	0	56	0	197132288	58	4557
2026-01-01 00:35:38.68	25.25	11.84	-47.6	-49.7	15.3	0.00e+00	0	56	0	199229440	58	4461
2026-01-01 00:35:39.65	25.27	11.93	-47.6	-49.7	15.3	0.00e+00	0	56	0	200278016	58	4479
2026-01-01 00:35:40.61	25.28	12.02	-47.7	-49.8	15.2	0.00e+00	0	56	0	202375168	58	4508
2026-01-01 00:35:41.58	25.29	12.11	-47.6	-49.7	15.3	7.00e-07	0	56	0	204472320	58	4451
2026-01-01 00:35:42.54	25.31	12.20	-47.6	-49.6	15.4	0.00e+00	0	56	0	206569472	58	4428
2026-01-01 00:35:43.51	25.32	12.29	-47.4	-49.4	15.5	0.00e+00	0	56	0	207618048	58	4338
2026-01-01 00:35:44.47	25.33	12.38	-47.4	-49.4	15.6	0.00e+00	0	56	0	209715200	57	4560
2026-01-01 00:35:45.44	25.35	12.48	-47.4	-49.3	15.6	0.00e+00	0	56	0	211812352	57	4544
2026-01-01 00:35:46.40	25.36	12.57	-47.4	-49.3	15.7	0.00e+00	0	56	0	213909504	57	4536
2026-01-01 00:35:47.37	25.37	12.66	-47.4	-49.4	15.6	0.00e+00	0	56	0	214958080	57	4564
2026-01-01 00:35:48.33	25.39	12.76	-47.3	-49.3	15.7	0.00e+00	0	57	0	217055232	57	4522
2026-01-01 00:35:49.29	25.40	12.85	-47.2	-49.1	15.8	0.00e+00	0	57	0	219152384	57	4440
2026-01-01 00:35:50.25	25.41	12.94	-47.3	-49.3	15.7	0.00e+00	0	57	0	220200960	57	4501
2026-01-01 00:35:51.22	25.43	13.04	-47.3	-49.2	15.8	0.00e+00	0	57	0	222298112	57	4444
2026-01-01 00:35:52.19	25.44	13.13	-47.3	-49.2	15.8	0.00e+00	0	57	0	224395264	57	4449
2026-01-01 00:35:53.15	25.46	13.23	-47.5	-49.6	15.5	0.00e+00	0	57	0	226492416	57	4665
2026-01-01 00:35:54.12	25.47	13.32	-47.3	-49.2	15.8	0.00e+00	0	57	0	227540992	57	4488
2026-01-01 00:35:55.08	25.48	13.42	-47.2	-49.1	15.9	0.00e+00	0	57	0	229638144	57	4421
2026-01-01 00:35:56.04	25.50	13.51	-47.2	-49.1	16.0	0.00e+00	0	57	0	231735296	57	4392
2026-01-01 00:35:57.01	25.51	13.61	-47.2	-49.1	15.9	0.00e+00	0	57	0	232783872	57	4412
2026-01-01 00:35:57.97	25.53	13.71	-47.3	-49.1	15.9	0.00e+00	0	57	0	234881024	57	4432
2026-01-01 00:35:58.94	25.54	13.80	-47.4	-49.4	15.7	0.00e+00	0	57	0	236978176	57	4559
2026-01-01 00:35:59.90	25.56	13.90	-47.3	-49.2	15.8	0.00e+00	0	57	0	239075328	57	4452
2026-01-01 00:36:00.86	25.57	14.00	-47.1	-48.9	16.1	0.00e+00	0	57	0	240123904	57	4313
2026-01-01 00:36:01.83	25.59	14.10	-47.0	-48.8	16.2	0.00e+00	0	57	0	242221056	57	4285
2026-01-01 00:36:02.79	25.60	14.19	-47.0	-48.7	16.3	0.00e+00	0	57	0	244318208	57	4224
2026-01-01 00:36:03.76	25.61	14.29	-47.0	-48.8	16.2	0.00e+00	0	57	0	246415360	57	4279
2026-01-01 00:36:04.72	25.63	14.39	-47.1	-49.0	16.1	0.00e+00	0	57	0	247463936	57	4349
2026-01-01 00:36:05.68	25.64	14.49	-47.1	-48.9	16.2	0.00e+00	0	57	0	249561088	57	4294
2026-01-01 00:36:06.64	25.66	14.59	-47.1	-48.9	16.2	0.00e+00	0	57	0	251658240	57	4309
2026-01-01 00:36:07.61	25.67	14.69	-47.0	-48.7	16.3	0.00e+00	0	57	0	252706816	57	4236
2026-01-01 00:36:08.57	25.69	14.79	-47.0	-48.7	16.3	0.00e+00	0	57	0	254803968	56	4483
2026-01-01 00:36:09.53	25.70	14.90	-47.0	-48.7	16.3	0.00e+00	0	57	0	256901120	56	4479
2026-01-01 00:36:10.50	25.72	15.00	-47.0	-48.7	16.3	0.00e+00	0	57	0	258998272	56	4481
2026-01-01 00:36:11.47	25.73	15.10	-47.1	-48.9	16.1	0.00e+00	0	57	0	260046848	56	4576
2026-01-01 00:36:12.43	25.75	15.20	-47.1	-49.0	16.1	0.00e+00	0	57	0	262144000	56	4601
2026-01-01 00:36:13.40	25.77	15.31	-47.0	-48.7	16.3	0.00e+00	0	57	0	264241152	56	4487
2026-01-01 00:36:14.36	25.78	15.41	-47.1	-48.9	16.2	0.00e+00	0	57	0	265289728	56	4572
2026-01-01 00:36:15.32	25.80	15.51	-46.9	-48.7	16.4	0.00e+00	0	57	0	267386880	56	4446
2026-01-01 00:36:16.29	25.81	15.62	-46.8	-48.5	16.5	0.00e+00	0	57	0	269484032	56	4374
2026-01-01 00:36:17.25	25.83	15.72	-46.9	-48.6	16.4	0.00e+00	0	57	0	271581184	56	4439
2026-01-01 00:36:18.21	25.84	15.83	-46.9	-48.6	16.5	0.00e+00	0	57	0	272629760	56	4402
2026-01-01 00:36:19.18	25.86	15.94	-46.9	-48.6	16.5	0.00e+00	0	57	0	274726912	56	4433
2026-01-01 00:36:20.14	25.88	16.04	-46.7	-48.4	16.7	0.00e+00	0	58	0	276824064	56	4310
2026-01-01 00:36:21.11	25.89	16.15	-46.8	-48.5	16.6	0.00e+00	0	58	0	278921216	56	4359
2026-01-01 00:36:22.08	25.91	16.26	-47.0	-48.7	16.4	0.00e+00	0	57	0	279969792	56	4469
2026-01-01 00:36:23.04	25.92	16.37	-46.9	-48.5	16.5	0.00e+00	0	58	0	282066944	56	4390
2026-01-01 00:36:24.01	25.94	16.47	-46.7	-48.3	16.8	0.00e+00	0	58	0	284164096	56	4263
2026-01-01 00:36:24.97	25.96	16.58	-46.8	-48.5	16.6	0.00e+00	0	58	0	285212672	56	4351
2026-01-01 00:36:25.94	25.97	16.69	-46.9	-48.6	16.5	0.00e+00	0	58	0	287309824	56	4439
2026-01-01 00:36:26.90	25.99	16.80	-46.8	-48.4	16.7	0.00e+00	0	58	0	289406976	56	4321
2026-01-01 00:36:27.86	26.01	16.91	-46.8	-48.5	16.7	0.00e+00	0	58	0	291504128	56	4358
2026-01-01 00:36:28.82	26.02	17.02	-46.7	-48.4	16.8	0.00e+00	0	58	0	292552704	56	4296
2026-01-01 00:36:29.79	26.04	17.13	-46.9	-48.7	16.4	0.00e+00	0	58	0	294649856	56	4463
2026-01-01 00:36:30.75	26.06	17.25	-46.9	-48.6	16.5	0.00e+00	0	58	0	296747008	56	4426
2026-01-01 00:36:31.72	26.07	17.36	-46.9	-48.6	16.5	0.00e+00	0	58	0	298844160	56	4414
2026-01-01 00:36:32.68	26.09	17.47	-47.1	-48.9	16.3	0.00e+00	0	58	0	299892736	56	4557
2026-01-01 00:36:33.64	26.11	17.58	-47.1	-48.9	16.3	0.00e+00	0	58	0	301989888	56	4548
2026-01-01 00:36:34.60	26.13	17.70	-47.1	-48.9	16.3	0.00e+00	0	58	0	304087040	56	4558
2026-01-01 00:36:35.57	26.14	17.81	-47.1	-48.9	16.2	0.00e+00	0	58	0	305135616	56	4592
2026-01-01 00:36:36.54	26.16	17.93	-47.3	-49.2	15.9	0.00e+00	0	58	0	307232768	56	4740
2026-01-01 00:36:37.51	26.18	18.04	-47.4	-49.3	15.9	0.00e+00	0	58	0	309329920	56	4779
2026-01-01 00:36:38.47	26.20	18.16	-47.3	-49.1	16.1	0.00e+00	0	58	0	311427072	56	4691
2026-01-01 00:36:39.43	26.21	18.28	-47.3	-49.2	16.0	0.00e+00	0	58	0	312475648	56	4713
2026-01-01 00:36:40.39	26.23	18.39	-47.4	-49.4	15.8	0.00e+00	0	58	0	314572800	56	4851
2026-01-01 00:36:41.36	26.25	18.51	-47.3	-49.2	16.0	0.00e+00	0	58	0	316669952	56	4736
2026-01-01 00:36:42.32	26.27	18.63	-47.3	-49.2	16.0	0.00e+00	0	58	0	317718528	56	4729
2026-01-01 00:36:43.28	26.29	18.75	-47.4	-49.3	15.9	0.00e+00	0	58	0	319815680	56	4791
2026-01-01 00:36:44.24	26.30	18.87	-47.4	-49.4	15.8	0.00e+00	0	58	0	321912832	56	4835
2026-01-01 00:36:45.21	26.32	18.99	-47.5	-49.4	15.8	0.00e+00	0	58	0	324009984	56	4847
2026-01-01 00:36:46.17	26.34	19.11	-47.5	-49.4	15.8	0.00e+00	0	58	0	325058560	56	4859
2026-01-01 00:36:47.14	26.36	19.23	-47.4	-49.4	15.8	0.00e+00	0	58	0	327155712	56	4836
2026-01-01 00:36:48.10	26.38	19.35	-47.5	-49.5	15.7	0.00e+00	0	58	0	329252864	56	4923
2026-01-01 00:36:49.07	26.40	19.47	-47.6	-49.6	15.6	0.00e+00	0	58	0	331350016	57	4698
2026-01-01 00:36:50.03	26.42	19.59	-47.5	-49.6	15.6	0.00e+00	0	58	0	332398592	57	4687
2026-01-01 00:36:51.00	26.44	19.72	-47.6	-49.6	15.6	0.00e+00	0	58	0	334495744	57	4661
2026-01-01 00:36:51.97	26.46	19.84	-47.6	-49.8	15.4	0.00e+00	0	58	0	336592896	57	4802
2026-01-01 00:36:52.93	26.48	19.97	-47.7	-49.9	15.4	0.00e+00	0	59	0	337641472	57	4819
2026-01-01 00:36:53.90	26.49	20.09	-47.8	-49.9	15.3	0.00e+00	0	58	0	339738624	57	4838
2026-01-01 00:36:54.86	26.51	20.22	-47.9	-50.1	15.1	0.00e+00	0	58	0	341835776	57	4929
2026-01-01 00:36:55.82	26.53	20.35	-47.9	-50.2	15.0	0.00e+00	0	58	0	343932928	57	5002
2026-01-01 00:36:56.79	26.55	20.47	-48.0	-50.3	14.9	0.00e+00	0	58	0	344981504	57	5050
2026-01-01 00:36:57.76	26.57	20.60	-48.2	-50.5	14.8	0.00e+00	0	58	0	347078656	58	4889
2026-01-01 00:36:58.72	26.59	20.73	-48.1	-50.6	14.7	0.00e+00	0	58	0	349175808	58	4930
2026-01-01 00:36:59.69	26.62	20.86	-48.2	-50.7	14.6	0.00e+00	0	58	0	350224384	58	4993
2026-01-01 00:37:00.66	26.64	20.99	-48.2	-50.5	14.7	0.00e+00	0	58	0	352321536	58	4900
2026-01-01 00:37:01.62	26.66	21.12	-48.2	-50.6	14.6	0.00e+00	0	59	0	354418688	58	4973
2026-01-01 00:37:02.58	26.68	21.25	-48.3	-50.6	14.6	0.00e+00	0	59	0	356515840	58	4982
2026-01-01 00:37:03.54	26.70	21.38	-48.3	-50.6	14.5	0.00e+00	0	59	0	357564416	58	4981
2026-01-01 00:37:04.50	26.72	21.52	-48.2	-50.6	14.7	0.00e+00	0	59	0	359661568	58	4941
2026-01-01 00:37:05.47	26.74	21.65	-48.1	-50.5	14.7	7.00e-07	0	59	0	361758720	58	4920
2026-01-01 00:37:06.43	26.76	21.78	-48.4	-50.9	14.3	7.00e-07	0	59	0	363855872	58	5158
2026-01-01 00:37:07.39	26.78	21.92	-48.2	-50.5	14.8	7.00e-07	0	59	0	364904448	58	4874
2026-01-01 00:37:08.36	26.80	22.05	-48.2	-50.5	14.8	0.00e+00	0	59	0	367001600	58	4885
2026-01-01 00:37:09.32	26.83	22.19	-48.3	-50.7	14.6	0.00e+00	0	59	0	369098752	58	4997
2026-01-01 00:37:10.29	26.85	22.33	-48.4	-50.8	14.5	0.00e+00	0	59	0	370147328	58	5051
2026-01-01 00:37:11.25	26.87	22.47	-48.2	-50.6	14.7	0.00e+00	0	59	0	372244480	58	4930
2026-01-01 00:37:12.22	26.89	22.60	-48.4	-50.8	14.5	0.00e+00	0	59	0	374341632	58	5050
2026-01-01 00:37:13.18	26.92	22.74	-48.4	-50.8	14.4	7.00e-07	0	59	0	376438784	58	5081
2026-01-01 00:37:14.14	26.94	22.88	-48.6	-51.1	14.4	0.00e+00	0	59	0	377487360	58	5224
2026-01-01 00:37:15.11	26.96	23.02	-48.5	-51.0	14.3	1.50e-06	0	59	0	379584512	59	4879
2026-01-01 00:37:16.07	26.98	23.17	-48.4	-50.8	14.5	7.00e-07	0	59	0	381681664	59	4772
2026-01-01 00:37:17.04	27.01	23.31	-48.4	-50.8	14.5	2.20e-06	0	59	0	383778816	59	4785
2026-01-01 00:37:18.00	27.03	23.45	-48.2	-50.6	14.6	7.00e-07	0	59	0	384827392	59	4692
2026-01-01 00:37:18.97	27.05	23.60	-48.4	-50.8	14.5	0.00e+00	0	59	0	386924544	59	4792
2026-01-01 00:37:19.93	27.08	23.74	-48.4	-50.7	14.6	7.00e-07	0	59	0	389021696	59	4756
2026-01-01 00:37:20.90	27.10	23.89	-48.4	-50.8	14.5	0.00e+00	0	59	0	390070272	59	4762
2026-01-01 00:37:21.85	27.12	24.03	-48.4	-50.7	14.6	0.00e+00	0	59	0	392167424	59	4726
2026-01-01 00:37:22.82	27.15	24.18	-48.6	-51.0	14.3	2.20e-06	0	59	0	394264576	59	4925
2026-01-01 00:37:23.79	27.17	24.33	-48.3	-50.6	14.7	7.00e-07	0	59	0	396361728	59	4695
2026-01-01 00:37:24.75	27.20	24.48	-48.2	-50.4	14.9	7.00e-07	0	59	0	397410304	59	4556
2026-01-01 00:37:25.71	27.22	24.62	-48.3	-50.6	14.7	0.00e+00	0	59	0	399507456	59	4682
2026-01-01 00:37:26.67	27.25	24.77	-48.2	-50.4	14.9	7.00e-07	0	59	0	401604608	59	4563
2026-01-01 00:37:27.64	27.27	24.93	-48.2	-50.4	14.9	0.00e+00	0	59	0	402653184	59	4571
2026-01-01 00:37:28.60	27.30	25.08	-48.2	-50.4	14.9	0.00e+00	0	59	0	404750336	59	4573
2026-01-01 00:37:29.56	27.32	25.23	-48.2	-50.5	14.8	0.00e+00	0	59	0	406847488	59	4612
2026-01-01 00:37:30.53	27.35	25.39	-48.2	-50.4	14.9	0.00e+00	0	59	0	408944640	59	4598
2026-01-01 00:37:31.49	27.38	25.54	-48.1	-50.3	15.0	0.00e+00	0	59	0	409993216	59	4535
2026-01-01 00:37:32.45	27.40	25.70	-48.1	-50.2	15.1	0.00e+00	0	59	0	412090368	59	4482
2026-01-01 00:37:33.42	27.43	25.85	-47.9	-50.0	15.3	0.00e+00	0	59	0	414187520	58	4648
2026-01-01 00:37:34.37	27.45	26.01	-48.0	-50.1	15.2	0.00e+00	0	59	0	416284672	58	4692
2026-01-01 00:37:35.34	27.48	26.17	-48.0	-50.1	15.2	7.00e-07	0	59	0	417333248	58	4689
2026-01-01 00:37:36.30	27.51	26.33	-47.6	-49.6	15.7	0.00e+00	0	59	0	419430400	58	4422
2026-01-01 00:37:37.27	27.54	26.49	-47.8	-49.9	15.4	7.00e-07	0	59	0	421527552	58	4563
2026-01-01 00:37:38.23	27.56	26.65	-47.7	-49.8	15.6	0.00e+00	0	59	0	422576128	58	4500
2026-01-01 00:37:39.19	27.59	26.81	-47.9	-50.0	15.3	0.00e+00	0	59	0	424673280	58	4608
2026-01-01 00:37:40.15	27.62	26.97	-48.1	-50.3	15.1	0.00e+00	0	59	0	426770432	58	4782
2026-01-01 00:37:41.12	27.65	27.14	-47.8	-49.9	15.4	7.00e-07	0	60	0	428867584	58	4570
2026-01-01 00:37:42.08	27.68	27.30	-48.2	-50.4	15.0	0.00e+00	0	59	0	429916160	58	4820
2026-01-01 00:37:43.07	27.71	27.47	-48.3	-50.6	14.8	0.00e+00	0	59	0	432013312	58	4937
2026-01-01 00:37:44.03	27.74	27.64	-48.0	-50.1	15.3	0.00e+00	0	59	0	434110464	58	4667
2026-01-01 00:37:45.00	27.76	27.81	-48.4	-50.8	14.6	0.00e+00	0	59	0	436207616	58	5048
2026-01-01 00:37:45.96	27.79	27.98	-48.1	-50.3	15.0	0.00e+00	0	59	0	437256192	58	4773
2026-01-01 00:37:46.93	27.82	28.15	-47.9	-50.0	15.3	0.00e+00	0	59	0	439353344	58	4644
2026-01-01 00:37:47.89	27.85	28.32	-48.0	-50.2	15.2	0.00e+00	0	59	0	441450496	58	4706
2026-01-01 00:37:48.86	27.88	28.50	-47.7	-49.8	15.4	0.00e+00	0	59	0	442499072	58	4525
2026-01-01 00:37:49.82	27.92	28.67	-47.6	-49.7	15.7	0.00e+00	0	59	0	444596224	58	4453
2026-01-01 00:37:50.79	27.95	28.84	-47.9	-50.1	15.2	0.00e+00	0	59	0	446693376	58	4688
2026-01-01 00:37:51.76	27.98	29.02	-47.9	-50.2	15.2	0.00e+00	0	60	0	448790528	58	4722
2026-01-01 00:37:52.72	28.01	29.20	-48.0	-50.1	15.3	0.00e+00	0	59	0	449839104	58	4689
2026-01-01 00:37:53.68	28.04	29.37	-48.2	-50.5	14.9	0.00e+00	0	59	0	451936256	58	4888
2026-01-01 00:37:54.65	28.07	29.56	-48.5	-50.9	14.5	0.00e+00	0	60	0	454033408	58	5136
2026-01-01 00:37:55.62	28.11	29.74	-48.4	-50.7	14.6	0.00e+00	0	60	0	456130560	58	5035
2026-01-01 00:37:56.58	28.14	29.92	-48.7	-51.2	14.2	0.00e+00	0	60	0	457179136	59	4990
2026-01-01 00:37:57.55	28.17	30.10	-48.8	-51.4	14.0	7.00e-07	0	60	0	459276288	59	5125
2026-01-01 00:37:58.52	28.21	30.29	-48.6	-51.1	14.3	7.00e-07	0	60	0	461373440	59	4950
2026-01-01 00:37:59.49	28.24	30.47	-48.8	-51.3	14.1	0.00e+00	0	59	0	462422016	59	5068
2026-01-01 00:38:00.45	28.28	30.66	-48.7	-51.1	14.3	0.00e+00	0	60	0	464519168	59	4964
2026-01-01 00:38:01.42	28.31	30.85	-48.7	-51.2	14.2	1.50e-06	0	60	0	466616320	59	5031
2026-01-01 00:38:02.38	28.34	31.03	-48.9	-51.6	13.8	4.50e-06	0	60	0	468713472	59	5229
2026-01-01 00:38:03.35	28.38	31.23	-48.9	-51.6	13.8	8.30e-06	0	60	0	469762048	60	4952
2026-01-01 00:38:04.31	28.42	31.42	-49.0	-51.8	13.6	5.30e-06	0	60	0	471859200	60	5063
2026-01-01 00:38:05.28	28.45	31.61	-49.3	-52.4	12.9	1.83e-05	0	60	0	473956352	60	5436
2026-01-01 00:38:06.24	28.49	31.80	-49.6	-53.0	12.4	1.16e-04	0	60	0	475004928	61	5509
2026-01-01 00:38:07.21	28.53	32.00	-49.6	-53.1	12.2	2.33e-04	0	60	0	477102080	61	5581
2026-01-01 00:38:08.19	28.56	32.20	-49.9	-53.6	11.7	4.24e-04	0	60	0	479199232	61	5902
2026-01-01 00:38:09.15	28.60	32.39	-49.9	-54.0	11.3	5.71e-04	0	60	0	481296384	61	6145
2026-01-01 00:38:10.12	28.64	32.59	-49.9	-53.8	11.5	1.20e-03	0	60	0	482344960	62	5662
2026-01-01 00:38:11.08	28.68	32.79	-50.0	-53.8	11.5	8.32e-04	0	60	0	484442112	62	5663
2026-01-01 00:38:12.04	28.72	32.99	-50.0	-54.0	11.3	9.44e-04	0	60	0	486539264	62	5818
2026-01-01 00:38:13.01	28.76	33.20	-50.0	-54.1	11.2	1.35e-03	0	60	0	488636416	62	5872
2026-01-01 00:38:13.97	28.80	33.40	-49.7	-53.6	11.7	9.83e-04	0	60	0	489684992	62	5546
2026-01-01 00:38:14.93	28.84	33.61	-49.9	-53.8	11.5	8.28e-04	0	60	0	491782144	62	5703
2026-01-01 00:38:15.90	28.88	33.81	-49.4	-52.9	12.4	4.94e-04	0	60	0	493879296	62	5123
2026-01-01 00:38:16.87	28.92	34.02	-49.5	-53.2	12.1	2.65e-04	0	60	0	495976448	61	5623
2026-01-01 00:38:17.83	28.96	34.23	-49.4	-52.8	12.6	1.36e-04	0	60	0	497025024	61	5352
2026-01-01 00:38:18.80	29.00	34.44	-49.1	-52.1	13.3	6.10e-05	0	60	0	499122176	61	4944
2026-01-01 00:38:19.77	29.04	34.66	-49.3	-52.4	13.0	4.04e-05	0	60	0	501219328	61	5124
2026-01-01 00:38:20.74	29.09	34.87	-49.0	-51.9	13.5	1.98e-05	0	60	0	502267904	61	4842
2026-01-01 00:38:21.70	29.13	35.09	-48.7	-51.3	14.1	7.00e-07	0	60	0	504365056	60	4775
2026-01-01 00:38:22.66	29.18	35.30	-48.3	-50.7	14.7	4.50e-06	0	60	0	506462208	59	4707
2026-01-01 00:38:23.63	29.22	35.52	-47.9	-50.0	15.3	0.00e+00	0	60	0	508559360	59	4386
2026-01-01 00:38:24.59	29.27	35.74	-47.8	-49.8	15.6	0.00e+00	0	60	0	509607936	58	4513
2026-01-01 00:38:25.55	29.31	35.96	-47.2	-49.1	16.2	0.00e+00	0	60	0	511705088	57	4408
2026-01-01 00:38:26.52	29.36	36.19	-47.2	-49.0	16.2	0.00e+00	0	60	0	513802240	57	4389
2026-01-01 00:38:27.48	29.40	36.41	-47.3	-49.2	16.1	0.00e+00	0	60	0	514850816	57	4449
2026-01-01 00:38:28.45	29.45	36.64	-47.2	-49.0	16.3	0.00e+00	0	60	0	516947968	57	4343
2026-01-01 00:38:29.41	29.50	36.86	-47.2	-49.0	16.3	0.00e+00	0	60	0	519045120	57	4386
2026-01-01 00:38:30.38	29.55	37.10	-47.5	-49.4	16.0	0.00e+00	0	60	0	521142272	57	4560
2026-01-01 00:38:31.35	29.60	37.33	-47.5	-49.5	15.8	0.00e+00	0	60	0	522190848	57	4626
2026-01-01 00:38:32.31	29.65	37.56	-47.3	-49.2	16.1	0.00e+00	0	60	0	524288000	57	4463
2026-01-01 00:38:33.27	29.70	37.79	-47.3	-49.2	16.1	0.00e+00	0	60	0	526385152	57	4484
2026-01-01 00:38:34.24	29.75	38.03	-47.6	-49.6	15.7	0.00e+00	0	60	0	528482304	57	4694
2026-01-01 00:38:35.20	29.80	38.27	-47.6	-49.6	15.7	0.00e+00	0	60	0	529530880	57	4672
2026-01-01 00:38:36.16	29.86	38.50	-47.4	-49.4	15.9	0.00e+00	0	60	0	531628032	57	4592
2026-01-01 00:38:37.13	29.91	38.75	-47.1	-49.0	16.4	0.00e+00	0	60	0	533725184	57	4345
2026-01-01 00:38:38.09	29.96	38.99	-46.9	-48.7	16.6	0.00e+00	0	60	0	534773760	57	4209
2026-01-01 00:38:39.05	30.02	39.23	-46.7	-48.4	17.0	0.00e+00	0	60	0	536870912	56	4303
2026-01-01 00:38:40.01	30.07	39.47	-46.7	-48.4	17.0	0.00e+00	0	60	0	538968064	56	4295
2026-01-01 00:38:40.98	30.13	39.72	-46.8	-48.4	16.9	0.00e+00	0	60	0	541065216	56	4326
2026-01-01 00:38:41.94	30.19	39.97	-46.8	-48.4	17.0	0.00e+00	0	60	0	542113792	56	4313
2026-01-01 00:38:42.90	30.25	40.22	-46.8	-48.5	16.8	0.00e+00	0	60	0	544210944	56	4342
2026-01-01 00:38:43.87	30.31	40.47	-46.8	-48.5	16.9	0.00e+00	0	60	0	546308096	56	4358
2026-01-01 00:38:44.83	30.37	40.73	-47.2	-49.1	16.4	0.00e+00	0	60	0	548405248	56	4656
2026-01-01 00:38:45.79	30.43	40.98	-46.9	-48.7	16.6	0.00e+00	0	60	0	549453824	56	4473
2026-01-01 00:38:46.76	30.49	41.24	-47.1	-48.9	16.4	0.00e+00	0	60	0	551550976	56	4589
2026-01-01 00:38:47.72	30.55	41.50	-47.3	-49.3	16.0	0.00e+00	0	60	0	553648128	56	4781
2026-01-01 00:38:48.69	30.62	41.77	-47.5	-49.6	15.7	0.00e+00	0	60	0	554696704	56	4932
2026-01-01 00:38:49.66	30.68	42.03	-47.5	-49.5	15.9	0.00e+00	0	60	0	556793856	57	4641
2026-01-01 00:38:50.62	30.75	42.29	-47.3	-49.2	16.1	0.00e+00	0	60	0	558891008	57	4491
2026-01-01 00:38:51.59	30.81	42.56	-47.3	-49.2	16.1	0.00e+00	0	60	0	560988160	57	4473
2026-01-01 00:38:52.55	30.88	42.83	-47.1	-48.9	16.5	0.00e+00	0	60	0	562036736	57	4313
2026-01-01 00:38:53.52	30.95	43.10	-47.4	-49.3	16.1	0.00e+00	0	60	0	564133888	57	4512
2026-01-01 00:38:54.48	31.02	43.38	-47.4	-49.2	16.2	0.00e+00	0	60	0	566231040	57	4464
2026-01-01 00:38:55.45	31.09	43.65	-47.2	-49.0	16.4	0.00e+00	0	60	0	567279616	57	4361
2026-01-01 00:38:56.41	31.16	43.93	-47.3	-49.1	16.3	0.00e+00	0	60	0	569376768	57	4432
2026-01-01 00:38:57.37	31.24	44.21	-47.6	-49.5	15.9	0.00e+00	0	60	0	571473920	57	4605
2026-01-01 00:38:58.33	31.31	44.49	-47.5	-49.4	16.0	0.00e+00	0	60	0	573571072	57	4575
2026-01-01 00:38:59.30	31.39	44.77	-48.0	-50.0	15.4	0.00e+00	0	60	0	574619648	58	4637
2026-01-01 00:39:00.26	31.46	45.05	-48.4	-50.7	14.8	0.00e+00	0	60	0	576716800	58	5022
2026-01-01 00:39:01.24	31.54	45.35	-48.6	-51.1	14.4	7.00e-07	0	60	0	578813952	59	4965
2026-01-01 00:39:02.21	31.62	45.64	-49.0	-52.1	13.3	1.75e-05	0	60	0	580911104	60	5257
2026-01-01 00:39:03.17	31.71	45.93	-49.7	-53.3	12.3	1.38e-04	0	60	0	581959680	61	5662
2026-01-01 00:39:04.13	31.79	46.22	-49.7	-53.2	12.2	3.39e-04	0	60	0	584056832	61	5624
2026-01-01 00:39:05.10	31.87	46.51	-50.1	-54.0	11.4	8.33e-04	0	60	0	586153984	62	5839
2026-01-01 00:39:06.06	31.96	46.81	-50.1	-53.9	11.4	9.36e-04	0	60	0	588251136	62	5770
2026-01-01 00:39:07.03	32.05	47.11	-50.1	-54.2	11.3	9.41e-04	0	61	0	589299712	62	5944
2026-01-01 00:39:07.99	32.13	47.41	-50.4	-55.1	10.3	2.92e-03	0	60	0	591396864	62	6579
2026-01-01 00:39:08.96	32.23	47.72	-50.2	-54.4	10.9	2.40e-03	0	60	0	593494016	62	6073
2026-01-01 00:39:09.92	32.32	48.02	-50.2	-54.6	10.9	1.42e-03	0	60	0	594542592	62	6203
2026-01-01 00:39:10.88	32.41	48.33	-50.1	-54.2	11.2	3.00e-03	0	60	0	596639744	62	5949
2026-01-01 00:39:11.84	32.51	48.63	-49.5	-52.9	12.5	3.68e-04	0	60	0	598736896	62	5120
2026-01-01 00:39:12.80	32.60	48.94	-49.1	-52.1	13.4	3.81e-05	0	60	0	600834048	61	4934
2026-01-01 00:39:13.77	32.71	49.26	-48.3	-50.6	14.8	0.00e+00	0	60	0	601882624	59	4699
2026-01-01 00:39:14.73	32.81	49.57	-48.0	-50.1	15.3	0.00e+00	0	60	0	603979776	58	4695
2026-01-01 00:39:15.69	32.91	49.89	-47.5	-49.5	15.9	0.00e+00	0	60	0	606076928	58	4383
2026-01-01 00:39:16.66	33.02	50.21	-47.3	-49.1	16.3	0.00e+00	0	61	0	607125504	57	4433
2026-01-01 00:39:17.62	33.12	50.53	-47.4	-49.2	16.2	0.00e+00	0	60	0	609222656	57	4487
2026-01-01 00:39:18.58	33.23	50.86	-47.0	-48.8	16.6	0.00e+00	0	61	0	611319808	57	4247
2026-01-01 00:39:19.55	33.35	51.19	-47.1	-48.9	16.4	0.00e+00	0	60	0	613416960	57	4321
2026-01-01 00:39:20.51	33.46	51.51	-47.2	-49.0	16.4	0.00e+00	0	61	0	614465536	57	4359
2026-01-01 00:39:21.47	33.58	51.84	-46.6	-48.3	17.1	0.00e+00	0	60	0	616562688	56	4251
2026-01-01 00:39:22.44	33.70	52.18	-46.2	-47.7	17.5	0.00e+00	0	61	0	618659840	55	4209
2026-01-01 00:39:23.41	33.82	52.52	-45.7	-47.1	17.9	0.00e+00	0	60	0	620756992	54	4167
2026-01-01 00:39:24.37	33.95	52.85	-45.7	-47.1	18.2	0.00e+00	0	61	0	621805568	54	4147
2026-01-01 00:39:25.33	34.08	53.19	-45.5	-46.8	18.4	0.00e+00	0	61	0	623902720	54	4025
2026-01-01 00:39:26.30	34.21	53.54	-45.5	-46.9	18.3	0.00e+00	0	60	0	625999872	54	4066
2026-01-01 00:39:27.26	34.34	53.88	-45.4	-46.7	18.4	0.00e+00	0	61	0	627048448	53	4223
2026-01-01 00:39:28.22	34.48	54.22	-46.0	-47.4	17.8	0.00e+00	0	61	0	629145600	54	4332
2026-01-01 00:39:29.20	34.62	54.58	-45.6	-47.0	18.2	0.00e+00	0	61	0	631242752	54	4110
2026-01-01 00:39:30.16	34.77	54.93	-45.1	-46.4	18.8	0.00e+00	0	61	0	633339904	53	4076
2026-01-01 00:39:31.12	34.91	55.28	-44.9	-46.1	19.0	0.00e+00	0	61	0	634388480	52	4165
2026-01-01 00:39:32.09	35.07	55.64	-45.0	-46.2	19.0	0.00e+00	0	61	0	636485632	52	4195
2026-01-01 00:39:33.05	35.22	55.99	-44.9	-46.0	19.2	0.00e+00	0	61	0	638582784	52	4127
2026-01-01 00:39:34.01	35.38	56.35	-44.7	-45.8	19.3	0.00e+00	0	61	0	639631360	52	4044
2026-01-01 00:39:34.97	35.54	56.71	-45.2	-46.5	18.7	0.00e+00	0	60	0	641728512	52	4346
2026-01-01 00:39:35.94	35.71	57.08	-45.6	-46.9	18.3	0.00e+00	0	61	0	643825664	53	4328
2026-01-01 00:39:36.90	35.88	57.44	-45.9	-47.4	17.8	0.00e+00	0	61	0	645922816	53	4597
2026-01-01 00:39:37.86	36.06	57.81	-45.4	-46.7	18.5	0.00e+00	0	60	0	646971392	53	4240
2026-01-01 00:39:38.83	36.24	58.18	-45.3	-46.6	18.6	0.00e+00	0	61	0	649068544	53	4163
2026-01-01 00:39:39.80	36.43	58.55	-45.1	-46.3	18.9	0.00e+00	0	61	0	651165696	53	4007
2026-01-01 00:39:40.78	36.62	58.93	-45.5	-46.8	18.4	0.00e+00	0	61	0	653262848	53	4280
2026-01-01 00:39:41.74	36.82	59.31	-46.0	-47.5	17.7	0.00e+00	0	61	0	654311424	53	4639
2026-01-01 00:39:42.70	37.02	59.69	-46.4	-48.0	17.3	0.00e+00	0	61	0	656408576	54	4636
2026-01-01 00:39:43.66	37.23	60.06	-46.0	-47.4	17.8	0.00e+00	0	61	0	658505728	54	4333
2026-01-01 00:39:44.63	37.44	60.45	-45.9	-47.3	17.9	0.00e+00	0	61	0	659554304	54	4272
2026-01-01 00:39:45.59	37.66	60.83	-45.6	-46.9	18.2	0.00e+00	0	61	0	661651456	54	4081
2026-01-01 00:39:46.56	37.89	61.22	-45.3	-46.6	18.5	0.00e+00	0	61	0	663748608	53	4155
2026-01-01 00:39:47.52	38.13	61.61	-45.0	-46.3	18.9	0.00e+00	0	61	0	665845760	53	4005
2026-01-01 00:39:48.48	38.37	62.00	-45.0	-46.2	19.0	0.00e+00	0	61	0	666894336	52	4221
2026-01-01 00:39:49.45	38.62	62.39	-45.4	-46.7	18.5	0.00e+00	0	61	0	668991488	52	4489
2026-01-01 00:39:50.41	38.88	62.78	-45.5	-46.8	18.4	0.00e+00	0	61	0	671088640	52	4504
2026-01-01 00:39:51.38	39.14	63.18	-45.7	-47.1	18.2	0.00e+00	0	61	0	673185792	53	4415
2026-01-01 00:39:52.34	39.42	63.57	-46.2	-47.7	17.5	0.00e+00	0	61	0	674234368	54	4487
2026-01-01 00:39:53.31	39.71	63.98	-46.4	-48.0	17.4	0.00e+00	0	61	0	676331520	54	4613
2026-01-01 00:39:54.27	40.00	64.37	-46.9	-48.6	16.6	0.00e+00	0	61	0	678428672	55	4663
2026-01-01 00:39:55.23	40.30	64.77	-46.9	-48.6	16.8	0.00e+00	0	61	0	679477248	55	4664
2026-01-01 00:39:56.19	40.62	65.18	-46.2	-47.6	17.7	0.00e+00	0	61	0	681574400	55	4181
2026-01-01 00:39:57.16	40.95	65.58	-45.9	-47.2	18.1	0.00e+00	0	61	0	683671552	54	4208
2026-01-01 00:39:58.12	41.29	65.99	-45.8	-47.2	18.1	0.00e+00	0	61	0	685768704	54	4200
2026-01-01 00:39:59.09	41.64	66.40	-46.1	-47.5	17.8	0.00e+00	0	61	0	686817280	54	4382
2026-01-01 00:40:00.05	42.00	66.81	-46.6	-48.1	17.2	0.00e+00	0	61	0	688914432	54	4669
2026-01-01 00:40:01.02	42.39	67.22	-47.4	-49.2	16.3	0.00e+00	0	61	0	691011584	56	4725
2026-01-01 00:40:01.98	42.78	67.63	-48.3	-50.5	15.1	0.00e+00	0	61	0	692060160	58	4887
2026-01-01 00:40:02.95	43.19	68.04	-49.0	-51.6	13.9	2.20e-06	0	61	0	694157312	59	5250
2026-01-01 00:40:03.91	43.62	68.45	-48.9	-51.4	14.2	2.20e-06	0	61	0	696254464	60	4849
2026-01-01 00:40:04.88	44.07	68.87	-48.7	-51.1	14.6	7.00e-07	0	61	0	698351616	59	4954
2026-01-01 00:40:05.85	44.54	69.29	-48.2	-50.2	15.4	0.00e+00	0	61	0	699400192	59	4475
2026-01-01 00:40:06.81	45.02	69.70	-48.6	-50.9	14.6	0.00e+00	0	61	0	701497344	59	4826
2026-01-01 00:40:07.77	45.53	70.11	-49.0	-51.6	13.9	3.00e-06	0	61	0	703594496	60	4983
2026-01-01 00:40:08.74	46.06	70.53	-49.3	-52.3	13.4	1.06e-05	0	61	0	705691648	60	5387
2026-01-01 00:40:09.70	46.61	70.94	-49.4	-52.5	13.1	5.26e-05	0	61	0	706740224	61	5164
2026-01-01 00:40:10.66	47.19	71.36	-49.3	-52.1	13.6	3.96e-05	0	61	0	708837376	61	4943
2026-01-01 00:40:11.63	47.81	71.78	-49.0	-51.7	13.9	4.50e-06	0	61	0	710934528	61	4736
2026-01-01 00:40:12.59	48.44	72.19	-48.7	-51.3	14.2	1.50e-06	0	61	0	711983104	60	4785
2026-01-01 00:40:13.56	49.12	72.61	-48.0	-50.1	15.4	0.00e+00	0	61	0	714080256	59	4401
2026-01-01 00:40:14.53	49.83	73.02	-47.2	-48.9	16.6	0.00e+00	0	61	0	716177408	57	4319
2026-01-01 00:40:15.49	50.57	73.43	-47.4	-49.1	16.3	0.00e+00	0	61	0	718274560	57	4425
2026-01-01 00:40:16.45	51.35	73.84	-48.8	-51.5	14.2	7.00e-07	0	61	0	719323136	59	5164
2026-01-01 00:40:17.42	52.18	74.26	-49.2	-52.1	13.3	1.44e-05	0	61	0	721420288	60	5278
2026-01-01 00:40:18.38	53.04	74.66	-49.2	-51.9	13.6	3.00e-06	0	61	0	723517440	60	5150
2026-01-01 00:40:19.35	53.97	75.07	-48.8	-51.3	14.3	7.00e-07	0	61	0	724566016	60	4775
2026-01-01 00:40:20.31	54.94	75.47	-49.1	-52.0	13.6	3.00e-06	0	61	0	726663168	60	5171
2026-01-01 00:40:21.27	55.96	75.87	-49.4	-52.5	13.1	1.90e-05	0	61	0	728760320	60	5487
2026-01-01 00:40:22.24	57.06	76.27	-50.2	-54.2	11.4	1.12e-03	0	61	0	730857472	62	5945
2026-01-01 00:40:23.21	58.22	76.66	-50.4	-54.5	11.1	1.47e-03	0	61	0	731906048	62	6200
2026-01-01 00:40:24.17	59.45	77.05	-50.5	-54.7	10.7	6.54e-03	0	61	0	734003200	63	5927
2026-01-01 00:40:25.13	60.75	77.43	-50.6	-54.9	10.7	3.04e-03	0	61	0	736100352	63	6076
2026-01-01 00:40:26.10	62.15	77.81	-50.3	-54.1	11.1	2.96e-03	0	61	0	738197504	63	5564
2026-01-01 00:40:27.07	63.64	78.18	-50.6	-54.8	10.7	1.08e-03	0	61	0	739246080	63	5995
2026-01-01 00:40:28.03	65.21	78.54	-50.2	-54.0	11.6	1.56e-03	0	61	0	741343232	63	5487
2026-01-01 00:40:29.00	66.90	78.90	-50.8	-55.5	9.7	2.90e-03	0	61	0	743440384	63	6537
2026-01-01 00:40:29.96	68.69	79.25	-50.8	-55.6	9.8	1.59e-02	0	61	0	745537536	64	6273
2026-01-01 00:40:30.92	70.59	79.58	-50.3	-54.2	11.1	3.42e-03	0	61	0	746586112	63	5598
2026-01-01 00:40:31.89	72.65	79.91	-49.8	-53.0	12.4	3.30e-04	0	61	0	748683264	62	5204
2026-01-01 00:40:32.85	74.81	80.22	-49.6	-52.9	12.7	8.69e-05	0	61	0	750780416	62	5153
2026-01-01 00:40:33.82	77.15	80.51	-49.1	-51.9	13.4	1.16e-04	0	61	0	751828992	61	4854
2026-01-01 00:40:34.78	79.60	80.79	-48.5	-50.9	14.6	3.80e-06	0	61	0	753926144	60	4568
2026-01-01 00:40:35.75	82.23	81.06	-48.7	-51.1	14.3	7.00e-07	0	61	0	756023296	59	4975
2026-01-01 00:40:36.71	84.99	81.30	-49.1	-52.0	13.6	3.80e-06	0	61	0	758120448	60	5188
2026-01-01 00:40:37.67	87.91	81.52	-48.7	-51.1	14.4	6.80e-06	0	61	0	759169024	60	4694
2026-01-01 00:40:38.64	91.00	81.73	-48.6	-50.9	14.6	7.00e-07	0	61	0	761266176	59	4831
2026-01-01 00:40:39.60	94.21	81.90	-48.5	-50.8	14.8	0.00e+00	0	61	0	763363328	59	4800
2026-01-01 00:40:40.57	97.59	82.05	-48.7	-51.1	14.5	7.00e-07	0	61	0	764411904	59	4941
2026-01-01 00:40:41.53	101.05	82.17	-48.6	-51.1	14.3	7.00e-07	0	61	0	766509056	59	4932
2026-01-01 00:40:42.50	104.64	82.27	-48.2	-50.4	15.1	0.00e+00	0	61	0	768606208	59	4554
2026-01-01 00:40:43.46	108.27	82.33	-48.1	-50.1	15.3	0.00e+00	0	61	0	770703360	59	4439
2026-01-01 00:40:44.43	111.98	82.36	-48.0	-50.0	15.4	0.00e+00	0	61	0	771751936	59	4380
2026-01-01 00:40:45.39	115.67	82.36	-47.2	-48.9	16.5	0.00e+00	0	61	0	773849088	57	4309
2026-01-01 00:40:46.36	119.38	82.33	-46.1	-47.4	17.9	0.00e+00	0	61	0	775946240	55	4095
2026-01-01 00:40:47.33	123.05	82.26	-46.9	-48.5	16.9	0.00e+00	0	61	0	778043392	55	4633
2026-01-01 00:40:48.29	126.60	82.17	-49.2	-52.0	13.6	0.00e+00	0	61	0	779091968	60	5206
2026-01-01 00:40:49.25	130.06	82.05	-49.6	-52.7	12.5	2.88e-04	0	61	0	781189120	61	5337
2026-01-01 00:40:50.22	133.44	81.90	-48.9	-51.5	13.8	1.06e-05	0	61	0	783286272	61	4647
2026-01-01 00:40:51.18	136.64	81.72	-49.4	-52.2	13.4	1.44e-05	0	61	0	784334848	61	5012
2026-01-01 00:40:52.15	139.74	81.52	-48.7	-51.1	14.4	4.50e-06	0	61	0	786432000	60	4670
2026-01-01 00:40:53.11	142.65	81.30	-48.1	-50.1	15.4	0.00e+00	0	61	0	788529152	59	4436
2026-01-01 00:40:54.08	145.43	81.05	-49.2	-52.1	13.5	3.80e-06	0	61	0	790626304	60	5260
2026-01-01 00:40:55.05	148.06	80.78	-49.8	-53.2	12.5	2.02e-04	0	61	0	791674880	61	5641
2026-01-01 00:40:56.01	150.51	80.50	-49.3	-52.1	13.3	1.02e-04	0	61	0	793772032	61	4928
2026-01-01 00:40:56.98	152.84	80.20	-49.5	-52.5	13.1	3.80e-06	0	61	0	795869184	61	5198
2026-01-01 00:40:57.94	155.00	79.89	-50.6	-55.1	10.4	7.70e-04	0	61	0	797966336	63	6249
2026-01-01 00:40:58.91	157.05	79.57	-49.5	-52.4	13.1	5.14e-04	0	61	0	799014912	62	4845
2026-01-01 00:40:59.87	158.95	79.23	-48.9	-51.4	14.1	3.80e-06	0	61	0	801112064	60	4815
2026-01-01 00:41:00.83	160.73	78.89	-49.2	-51.9	13.5	6.10e-06	0	61	0	803209216	60	5127
2026-01-01 00:41:01.79	162.41	78.53	-49.6	-52.6	12.9	2.89e-05	0	61	0	804257792	61	5271
2026-01-01 00:41:02.75	163.98	78.17	-49.5	-52.4	13.2	6.56e-05	0	61	0	806354944	61	5143
2026-01-01 00:41:03.72	165.46	77.80	-49.0	-51.6	13.9	1.44e-05	0	61	0	808452096	61	4696
2026-01-01 00:41:04.69	166.86	77.42	-48.4	-50.6	14.9	7.00e-07	0	61	0	810549248	59	4701
2026-01-01 00:41:05.65	168.16	77.04	-49.8	-53.1	12.4	1.67e-05	0	61	0	811597824	61	5560
2026-01-01 00:41:06.61	169.38	76.65	-50.2	-53.9	11.6	7.96e-04	0	61	0	813694976	62	5732
2026-01-01 00:41:07.57	170.54	76.26	-49.3	-52.0	13.5	2.79e-04	0	61	0	815792128	61	4888
2026-01-01 00:41:08.54	171.63	75.86	-48.9	-51.3	14.3	2.20e-06	0	61	0	816840704	60	4788
2026-01-01 00:41:09.51	172.67	75.46	-49.3	-52.1	13.5	4.50e-06	0	61	0	818937856	60	5250
2026-01-01 00:41:10.48	173.65	75.05	-48.8	-51.2	14.5	3.80e-06	0	61	0	821035008	60	4720
2026-01-01 00:41:11.44	174.56	74.65	-48.0	-50.0	15.6	0.00e+00	0	61	0	823132160	59	4359
2026-01-01 00:41:12.41	175.43	74.24	-49.1	-51.6	14.2	0.00e+00	0	61	0	824180736	59	5228
2026-01-01 00:41:13.38	176.26	73.82	-49.6	-52.6	12.8	6.63e-05	0	61	0	826277888	61	5259
2026-01-01 00:41:14.34	177.04	73.41	-49.4	-52.2	13.3	3.58e-05	0	61	0	828375040	61	5014
2026-01-01 00:41:15.31	177.79	73.00	-49.6	-52.6	13.0	1.22e-04	0	61	0	830472192	61	5225
2026-01-01 00:41:16.28	178.49	72.58	-49.4	-52.2	13.4	1.44e-05	0	61	0	831520768	61	5027
2026-01-01 00:41:17.24	179.16	72.17	-50.1	-53.8	11.7	3.76e-04	0	61	0	833617920	62	5685
2026-01-01 00:41:18.20	179.80	71.75	-51.0	-55.7	9.8	2.00e-03	0	61	0	835715072	63	6721
2026-01-01 00:41:19.17	180.41	71.33	-51.3	-57.4	7.9	6.72e-02	0	61	0	837812224	64	7657
2026-01-01 00:41:20.13	180.99	70.92	-50.7	-55.0	10.3	2.67e-02	0	61	0	838860800	64	5826
2026-01-01 00:41:21.09	181.54	70.50	-49.6	-52.5	13.0	9.87e-04	0	61	0	840957952	62	4912
2026-01-01 00:41:22.05	182.07	70.09	-49.4	-52.1	13.4	4.50e-06	0	61	0	843055104	61	4950
2026-01-01 00:41:23.02	182.58	69.67	-50.3	-53.9	11.8	2.90e-04	0	61	0	844103680	62	5773
2026-01-01 00:41:23.98	183.06	69.26	-51.6	-57.7	7.7	3.01e-02	0	61	0	846200832	64	7947
2026-01-01 00:41:24.94	183.52	68.84	-51.2	-56.4	8.2	1.38e-01	0	61	0	848297984	65	6472
2026-01-01 00:41:25.90	183.97	68.43	-49.3	-52.2	13.3	6.10e-03	0	61	0	850395136	61	4993
2026-01-01 00:41:26.87	184.40	68.02	-47.7	-49.5	15.9	0.00e+00	0	61	0	851443712	58	4380
2026-01-01 00:41:27.83	184.81	67.61	-47.3	-49.1	16.4	0.00e+00	0	61	0	853540864	57	4394
2026-01-01 00:41:28.79	185.20	67.20	-47.5	-49.2	16.3	0.00e+00	0	62	0	855638016	57	4480
2026-01-01 00:41:29.76	185.58	66.78	-47.0	-48.7	16.8	0.00e+00	0	61	0	856686592	57	4206
2026-01-01 00:41:30.73	185.95	66.37	-46.8	-48.3	17.3	0.00e+00	0	61	0	858783744	56	4248
2026-01-01 00:41:31.69	186.30	65.96	-46.2	-47.5	17.9	0.00e+00	0	61	0	860880896	55	4135
2026-01-01 00:41:32.66	186.64	65.55	-45.6	-46.9	18.4	0.00e+00	0	61	0	862978048	54	4057
2026-01-01 00:41:33.62	186.97	65.15	-46.7	-48.2	17.1	0.00e+00	0	61	0	864026624	55	4488
2026-01-01 00:41:34.58	187.28	64.75	-48.2	-50.3	15.2	0.00e+00	0	61	0	866123776	58	4804
2026-01-01 00:41:35.55	187.59	64.34	-47.7	-49.7	15.7	0.00e+00	0	61	0	868220928	58	4467
2026-01-01 00:41:36.51	187.88	63.94	-46.8	-48.5	16.9	0.00e+00	0	61	0	870318080	56	4359
2026-01-01 00:41:37.48	188.17	63.54	-48.0	-50.1	15.5	0.00e+00	0	61	0	871366656	57	4933
2026-01-01 00:41:38.44	188.44	63.15	-48.8	-51.3	14.2	7.00e-07	0	62	0	873463808	59	5068
2026-01-01 00:41:39.41	188.71	62.75	-48.7	-51.1	14.4	1.50e-06	0	61	0	875560960	59	4973
2026-01-01 00:41:40.37	188.97	62.35	-48.8	-51.3	14.3	0.00e+00	0	62	0	876609536	59	5083
2026-01-01 00:41:41.34	189.22	61.96	-49.5	-52.4	13.2	1.06e-05	0	62	0	878706688	60	5439
2026-01-01 00:41:42.30	189.46	61.57	-49.7	-53.1	12.4	2.88e-04	0	61	0	880803840	61	5573
2026-01-01 00:41:43.27	189.70	61.18	-49.1	-51.9	13.6	5.03e-05	0	61	0	882900992	61	4867
2026-01-01 00:41:44.23	189.92	60.79	-48.6	-51.1	14.4	3.80e-06	0	62	0	883949568	59	4981
2026-01-01 00:41:45.19	190.14	60.41	-49.1	-52.1	13.4	6.10e-06	0	61	0	886046720	59	5543
2026-01-01 00:41:46.16	190.36	60.02	-49.6	-53.0	12.3	7.01e-05	0	61	0	888143872	61	5495
2026-01-01 00:41:47.12	190.57	59.65	-49.3	-52.4	13.1	8.69e-05	0	61	0	889192448	61	5102
2026-01-01 00:41:48.08	190.77	59.27	-48.4	-50.8	14.6	7.00e-07	0	61	0	891289600	59	4781
2026-01-01 00:41:49.05	190.97	58.89	-48.1	-50.5	15.0	0.00e+00	0	61	0	893386752	59	4623
2026-01-01 00:41:50.01	191.16	58.52	-48.8	-51.5	14.0	1.50e-06	0	61	0	895483904	59	5193
2026-01-01 00:41:50.97	191.34	58.14	-48.7	-51.5	14.0	5.30e-06	0	61	0	896532480	60	4874
2026-01-01 00:41:51.93	191.52	57.77	-47.9	-49.9	15.5	0.00e+00	0	61	0	898629632	59	4336
2026-01-01 00:41:52.89	191.70	57.41	-47.3	-49.1	16.4	0.00e+00	0	61	0	900726784	57	4403
2026-01-01 00:41:53.85	191.87	57.04	-48.2	-50.2	15.3	0.00e+00	0	61	0	902823936	58	4759
2026-01-01 00:41:54.82	192.04	56.68	-48.5	-50.8	14.8	7.00e-07	0	61	0	903872512	59	4770
2026-01-01 00:41:55.79	192.20	56.31	-48.8	-51.3	14.2	0.00e+00	0	62	0	905969664	59	5071
2026-01-01 00:41:56.75	192.36	55.95	-48.4	-50.6	15.0	0.00e+00	0	61	0	908066816	59	4679
2026-01-01 00:41:57.71	192.51	55.60	-49.0	-51.9	13.6	7.00e-07	0	61	0	909115392	60	5103
2026-01-01 00:41:58.67	192.67	55.24	-49.6	-52.9	12.6	3.81e-05	0	61	0	911212544	61	5445
2026-01-01 00:41:59.64	192.81	54.88	-49.9	-53.4	12.0	1.99e-04	0	61	0	913309696	61	5765
2026-01-01 00:42:00.60	192.96	54.53	-49.3	-52.1	13.4	3.96e-05	0	61	0	915406848	61	4968
2026-01-01 00:42:01.57	193.10	54.18	-49.5	-52.7	12.8	2.28e-05	0	61	0	916455424	61	5297
2026-01-01 00:42:02.54	193.24	53.83	-50.4	-54.3	11.2	2.36e-04	0	61	0	918552576	62	6038
2026-01-01 00:42:03.51	193.37	53.49	-51.3	-57.1	8.2	3.46e-02	0	62	0	920649728	64	7374
2026-01-01 00:42:04.47	193.50	53.15	-51.5	-57.9	7.5	1.62e-01	0	62	0	922746880	65	7658
2026-01-01 00:42:05.44	193.63	52.80	-50.7	-55.3	10.0	3.19e-02	0	61	0	923795456	64	6060
2026-01-01 00:42:06.41	193.76	52.46	-50.1	-53.8	11.8	1.81e-03	0	62	0	925892608	63	5371
2026-01-01 00:42:07.38	193.88	52.12	-49.7	-53.3	12.1	3.28e-04	0	62	0	927989760	62	5381
2026-01-01 00:42:08.34	194.00	51.79	-50.1	-54.0	11.5	5.11e-04	0	62	0	929038336	62	5801
2026-01-01 00:42:09.30	194.12	51.46	-50.5	-54.6	10.9	1.32e-03	0	62	0	931135488	62	6218
2026-01-01 00:42:10.27	194.23	51.13	-50.6	-54.7	10.7	1.25e-03	0	62	0	933232640	62	6309
2026-01-01 00:42:11.23	194.35	50.80	-50.7	-55.1	10.4	4.68e-03	0	62	0	935329792	63	6221
2026-01-01 00:42:12.20	194.46	50.48	-50.5	-55.0	10.4	5.45e-03	0	62	0	936378368	63	6167
2026-01-01 00:42:13.16	194.56	50.15	-50.7	-55.0	10.3	6.10e-03	0	62	0	938475520	63	6194
2026-01-01 00:42:14.12	194.67	49.83	-50.0	-53.5	11.9	8.47e-04	0	61	0	940572672	63	5202
2026-01-01 00:42:15.08	194.77	49.52	-49.5	-52.7	12.8	7.47e-05	0	62	0	941621248	62	5012
2026-01-01 00:42:16.06	194.88	49.19	-49.1	-52.0	13.6	1.75e-05	0	62	0	943718400	61	4885
2026-01-01 00:42:17.02	194.98	48.88	-49.7	-52.8	12.7	2.74e-05	0	62	0	945815552	61	5387
2026-01-01 00:42:17.99	195.07	48.57	-50.0	-53.7	11.8	2.84e-04	0	62	0	947912704	61	5958
2026-01-01 00:42:18.95	195.17	48.26	-50.7	-55.1	10.4	1.84e-03	0	62	0	948961280	62	6614
2026-01-01 00:42:19.92	195.26	47.95	-51.1	-57.2	8.2	2.68e-02	0	62	0	951058432	64	7491
2026-01-01 00:42:20.89	195.36	47.64	-50.9	-56.2	8.9	5.66e-02	0	62	0	953155584	64	6667
2026-01-01 00:42:21.85	195.45	47.34	-50.5	-55.2	10.0	2.29e-02	0	62	0	955252736	63	6317
2026-01-01 00:42:22.81	195.53	47.04	-49.8	-53.3	12.1	9.14e-04	0	62	0	956301312	62	5362
2026-01-01 00:42:23.78	195.62	46.74	-48.8	-51.5	13.9	1.06e-05	0	62	0	958398464	60	4918
2026-01-01 00:42:24.74	195.71	46.44	-47.8	-49.9	15.5	0.00e+00	0	62	0	960495616	58	4561
2026-01-01 00:42:25.71	195.79	46.14	-47.3	-49.2	16.2	0.00e+00	0	62	0	962592768	57	4452
2026-01-01 00:42:26.67	195.87	45.85	-47.2	-49.0	16.4	0.00e+00	0	62	0	963641344	57	4365
2026-01-01 00:42:27.64	195.96	45.56	-47.8	-49.9	15.5	0.00e+00	0	62	0	965738496	57	4816
2026-01-01 00:42:28.60	196.04	45.27	-48.9	-51.6	13.9	7.00e-07	0	62	0	967835648	59	5252
2026-01-01 00:42:29.57	196.11	44.98	-48.9	-51.8	13.7	1.50e-06	0	61	0	968884224	59	5380
2026-01-01 00:42:30.53	196.19	44.70	-49.3	-52.7	12.7	5.41e-05	0	62	0	970981376	60	5596
2026-01-01 00:42:31.50	196.27	44.41	-48.8	-51.5	13.8	1.52e-05	0	62	0	973078528	60	4919
2026-01-01 00:42:32.46	196.34	44.13	-48.2	-50.5	14.9	7.00e-07	0	62	0	975175680	59	4645
2026-01-01 00:42:33.42	196.41	43.85	-47.5	-49.5	15.9	0.00e+00	0	62	0	976224256	58	4367
2026-01-01 00:42:34.39	196.49	43.57	-47.5	-49.4	16.0	0.00e+00	0	61	0	978321408	57	4569
2026-01-01 00:42:35.35	196.56	43.30	-47.1	-48.8	16.6	0.00e+00	0	62	0	980418560	57	4254
2026-01-01 00:42:36.32	196.63	43.02	-46.8	-48.3	17.1	0.00e+00	0	62	0	981467136	56	4273
2026-01-01 00:42:37.28	196.70	42.75	-47.4	-49.2	16.2	0.00e+00	0	62	0	983564288	56	4722
2026-01-01 00:42:38.24	196.76	42.48	-47.9	-49.9	15.6	0.00e+00	0	62	0	985661440	57	4860
2026-01-01 00:42:39.21	196.83	42.21	-48.6	-51.3	14.2	1.50e-06	0	62	0	987758592	59	5050
2026-01-01 00:42:40.17	196.89	41.95	-48.6	-51.2	14.4	1.50e-06	0	62	0	988807168	59	4990
2026-01-01 00:42:41.13	196.96	41.69	-49.5	-52.9	12.6	2.89e-05	0	62	0	990904320	60	5727
2026-01-01 00:42:42.10	197.02	41.42	-49.5	-52.7	12.7	1.53e-04	0	62	0	993001472	61	5328
2026-01-01 00:42:43.06	197.08	41.16	-49.3	-52.5	12.9	3.43e-05	0	62	0	995098624	61	5174
2026-01-01 00:42:44.03	197.15	40.90	-49.3	-52.5	12.9	5.41e-05	0	62	0	996147200	61	5160
2026-01-01 00:42:45.00	197.21	40.64	-48.8	-51.6	13.9	2.97e-05	0	62	0	998244352	60	4928
2026-01-01 00:42:45.96	197.27	40.39	-48.3	-50.6	14.8	7.00e-07	0	62	0	1000341504	59	4669
2026-01-01 00:42:46.93	197.33	40.14	-47.1	-48.8	16.5	0.00e+00	0	61	0	1001390080	57	4274
2026-01-01 00:42:47.89	197.38	39.89	-46.9	-48.5	16.8	0.00e+00	0	62	0	1003487232	56	4385
2026-01-01 00:42:48.85	197.44	39.64	-46.8	-48.5	16.9	0.00e+00	0	62	0	1005584384	56	4360
2026-01-01 00:42:49.81	197.50	39.39	-47.1	-49.0	16.4	0.00e+00	0	62	0	1007681536	56	4599
2026-01-01 00:42:50.78	197.55	39.14	-47.8	-49.9	15.4	0.00e+00	0	62	0	1008730112	57	4851
2026-01-01 00:42:51.74	197.61	38.90	-48.4	-51.1	14.3	0.00e+00	0	62	0	1010827264	58	5222
2026-01-01 00:42:52.71	197.66	38.65	-49.3	-52.9	12.5	1.75e-05	0	62	0	1012924416	60	5730
2026-01-01 00:42:53.67	197.72	38.41	-50.1	-54.3	10.9	2.35e-04	0	62	0	1013972992	61	6391
2026-01-01 00:42:54.64	197.77	38.17	-51.1	-58.1	7.3	1.62e-02	0	62	0	1016070144	63	8807
2026-01-01 00:42:55.60	197.82	37.94	-51.2	-58.9	6.4	3.80e-01	0	62	0	1018167296	64	9126
2026-01-01 00:42:56.56	197.87	37.70	-51.2	-59.3	5.8	3.55e-01	0	62	0	1020264448	64	9554
2026-01-01 00:42:57.52	197.92	37.47	-51.5	-60.3	5.1	6.02e-01	0	62	0	1021313024	64	10681
2026-01-01 00:42:58.48	197.97	37.24	-51.2	-58.6	6.5	5.69e-01	0	62	0	1023410176	64	8832
2026-01-01 00:42:59.45	198.02	37.00	-51.0	-57.8	7.3	1.80e-01	0	62	0	1025507328	64	7993
2026-01-01 00:43:00.42	198.07	36.77	-50.6	-55.7	9.4	4.48e-02	0	62	0	1027604480	64	6307
2026-01-01 00:43:01.38	198.12	36.55	-49.7	-53.4	11.9	1.96e-03	0	62	0	1028653056	62	5446
2026-01-01 00:43:02.35	198.16	36.32	-49.0	-52.1	13.4	9.07e-05	0	62	0	1030750208	61	4932
2026-01-01 00:43:03.32	198.21	36.09	-49.0	-51.8	13.6	1.75e-05	0	62	0	1032847360	60	5088
2026-01-01 00:43:04.28	198.26	35.87	-49.2	-52.2	13.3	3.20e-05	0	62	0	1033895936	60	5337
2026-01-01 00:43:05.24	198.30	35.65	-48.9	-51.8	13.6	5.30e-06	0	62	0	1035993088	60	5085
2026-01-01 00:43:06.20	198.35	35.43	-49.7	-53.3	12.1	3.35e-05	0	62	0	1038090240	61	5659
2026-01-01 00:43:07.17	198.39	35.21	-49.9	-54.0	11.4	4.49e-04	0	62	0	1040187392	61	6134
2026-01-01 00:43:08.14	198.44	34.99	-50.6	-55.5	9.9	1.73e-03	0	62	0	1041235968	62	6925
2026-01-01 00:43:09.10	198.48	34.77	-50.8	-56.3	9.0	2.32e-02	0	62	0	1043333120	63	7191
2026-01-01 00:43:10.06	198.52	34.56	-51.3	-58.1	7.1	1.09e-01	0	62	0	1045430272	64	8347
2026-01-01 00:43:11.03	198.57	34.35	-51.3	-59.0	6.4	2.20e-01	0	62	0	1047527424	64	9196
2026-01-01 00:43:11.99	198.61	34.14	-51.5	-59.4	6.0	2.98e-01	0	62	0	1048576000	64	9685
2026-01-01 00:43:12.95	198.65	33.93	-51.7	-60.9	5.1	4.79e-01	0	62	0	1050673152	65	10800
2026-01-01 00:43:13.92	198.69	33.72	-51.6	-60.0	5.4	4.62e-01	0	62	0	1052770304	65	9803
2026-01-01 00:43:14.88	198.73	33.51	-51.3	-58.3	6.8	1.86e-01	0	62	0	1053818880	65	8022
2026-01-01 00:43:15.85	198.77	33.30	-51.1	-57.9	7.2	1.73e-01	0	62	0	1055916032	65	7663
2026-01-01 00:43:16.81	198.81	33.10	-51.1	-57.3	7.7	1.13e-01	0	62	0	1058013184	65	7123
2026-01-01 00:43:17.78	198.85	32.89	-50.9	-56.6	8.5	4.33e-02	0	62	0	1060110336	64	7000
2026-01-01 00:43:18.75	198.89	32.69	-50.8	-56.2	8.9	3.53e-02	0	62	0	1061158912	64	6649
2026-01-01 00:43:19.72	198.93	32.49	-50.3	-54.7	10.6	8.60e-03	0	62	0	1063256064	63	5968
2026-01-01 00:43:20.68	198.96	32.29	-50.1	-54.2	11.2	1.87e-03	0	62	0	1065353216	63	5606
2026-01-01 00:43:21.65	199.00	32.09	-49.7	-53.3	12.1	4.42e-04	0	62	0	1067450368	62	5341
2026-01-01 00:43:22.62	199.04	31.89	-49.7	-53.2	12.2	1.93e-04	0	62	0	1068498944	62	5309
2026-01-01 00:43:23.59	199.07	31.70	-49.6	-52.9	12.6	7.24e-05	0	62	0	1070596096	62	5102
2026-01-01 00:43:24.55	199.11	31.51	-49.9	-53.3	12.1	2.01e-04	0	62	0	1072693248	62	5402
2026-01-01 00:43:25.51	199.15	31.31	-50.2	-53.9	11.5	1.23e-03	0	62	0	1073741824	62	5729
2026-01-01 00:43:26.47	199.18	31.12	-50.0	-53.6	11.8	3.66e-04	0	62	0	1075838976	62	5584
2026-01-01 00:43:27.44	199.22	30.93	-50.2	-54.0	11.4	8.31e-04	0	62	0	1077936128	62	5832
2026-01-01 00:43:28.40	199.25	30.74	-50.6	-54.9	10.4	3.45e-03	0	62	0	1080033280	63	6102
2026-01-01 00:43:29.37	199.29	30.55	-51.0	-56.0	9.3	1.02e-02	0	62	0	1081081856	63	6880
2026-01-01 00:43:30.33	199.32	30.37	-51.0	-56.2	8.9	2.07e-02	0	62	0	1083179008	64	6719
2026-01-01 00:43:31.30	199.35	30.18	-51.1	-56.7	8.5	4.08e-02	0	62	0	1085276160	64	7055
2026-01-01 00:43:32.26	199.39	30.00	-51.3	-57.1	8.2	6.14e-02	0	62	0	1087373312	64	7373
2026-01-01 00:43:33.22	199.42	29.82	-51.4	-57.5	7.8	9.02e-02	0	62	0	1088421888	64	7730
2026-01-01 00:43:34.19	199.45	29.63	-51.1	-56.5	8.7	6.80e-02	0	62	0	1090519040	64	6902
2026-01-01 00:43:35.16	199.48	29.45	-50.8	-55.8	9.4	2.47e-02	0	62	0	1092616192	64	6417
2026-01-01 00:43:36.12	199.52	29.27	-50.4	-54.7	10.6	6.84e-03	0	62	0	1093664768	63	5958
2026-01-01 00:43:37.09	199.55	29.09	-49.9	-53.5	11.9	7.25e-04	0	62	0	1095761920	63	5167
2026-01-01 00:43:38.05	199.58	28.92	-49.5	-52.7	12.7	1.45e-04	0	62	0	1097859072	62	4994
2026-01-01 00:43:39.02	199.61	28.74	-49.1	-51.9	13.4	2.21e-05	0	62	0	1099956224	61	4854
2026-01-01 00:43:39.98	199.64	28.56	-48.7	-51.3	14.1	6.10e-06	0	62	0	1101004800	60	4765
2026-01-01 00:43:40.94	199.67	28.39	-48.6	-51.0	14.4	1.50e-06	0	62	0	1103101952	59	4905
2026-01-01 00:43:41.91	199.70	28.22	-48.4	-50.7	14.6	0.00e+00	0	62	0	1105199104	59	4736
2026-01-01 00:43:42.87	199.73	28.05	-48.0	-50.1	15.2	0.00e+00	0	62	0	1106247680	59	4428
2026-01-01 00:43:43.83	199.76	27.88	-48.1	-50.2	15.1	0.00e+00	0	62	0	1108344832	59	4490
2026-01-01 00:43:44.80	199.79	27.70	-47.8	-49.8	15.5	0.00e+00	0	62	0	1110441984	58	4527
2026-01-01 00:43:45.76	199.82	27.54	-47.5	-49.5	16.0	0.00e+00	0	62	0	1112539136	58	4360
2026-01-01 00:43:46.72	199.85	27.37	-47.7	-49.7	15.7	0.00e+00	0	62	0	1113587712	58	4454
2026-01-01 00:43:47.69	199.88	27.20	-47.6	-49.5	15.9	0.00e+00	0	62	0	1115684864	58	4357
2026-01-01 00:43:48.66	199.91	27.03	-47.3	-49.1	16.2	0.00e+00	0	62	0	1117782016	57	4430
2026-01-01 00:43:49.62	199.93	26.87	-47.1	-48.8	16.6	0.00e+00	0	62	0	1119879168	57	4267
2026-01-01 00:43:50.59	199.96	26.71	-47.2	-48.9	16.4	0.00e+00	0	62	0	1120927744	57	4326
2026-01-01 00:43:51.57	199.99	26.54	-47.0	-48.7	16.7	0.00e+00	0	62	0	1123024896	57	4222
2026-01-01 00:43:52.54	200.02	26.38	-46.9	-48.6	16.7	0.00e+00	0	62	0	1125122048	57	4171
2026-01-01 00:43:53.51	200.04	26.22	-47.1	-48.8	16.6	0.00e+00	0	62	0	1127219200	57	4253
2026-01-01 00:43:54.47	200.07	26.06	-47.1	-48.8	16.5	0.00e+00	0	62	0	1128267776	57	4259
2026-01-01 00:43:55.44	200.10	25.90	-46.8	-48.4	16.9	0.00e+00	0	62	0	1130364928	56	4307
2026-01-01 00:43:56.40	200.12	25.74	-46.7	-48.3	17.0	0.00e+00	0	62	0	1132462080	56	4274
2026-01-01 00:43:57.36	200.15	25.58	-46.7	-48.3	17.0	0.00e+00	0	62	0	1133510656	56	4264
2026-01-01 00:43:58.33	200.18	25.43	-46.9	-48.6	16.8	0.00e+00	0	62	0	1135607808	56	4407
2026-01-01 00:43:59.29	200.20	25.27	-47.2	-49.0	16.3	0.00e+00	0	62	0	1137704960	56	4643
2026-01-01 00:44:00.26	200.23	25.12	-46.9	-48.6	16.7	0.00e+00	0	62	0	1139802112	56	4423
2026-01-01 00:44:01.23	200.25	24.96	-46.8	-48.4	16.9	0.00e+00	0	62	0	1140850688	56	4316
2026-01-01 00:44:02.20	200.28	24.81	-46.8	-48.5	16.9	0.00e+00	0	62	0	1142947840	56	4358
2026-01-01 00:44:03.16	200.30	24.66	-47.1	-48.8	16.5	0.00e+00	0	62	0	1145044992	56	4516
2026-01-01 00:44:04.12	200.33	24.51	-47.0	-48.7	16.6	0.00e+00	0	62	0	1146093568	56	4478
2026-01-01 00:44:05.09	200.35	24.36	-47.0	-48.8	16.6	0.00e+00	0	62	0	1148190720	56	4495
2026-01-01 00:44:06.06	200.38	24.21	-47.2	-49.0	16.3	0.00e+00	0	62	0	1150287872	56	4637
2026-01-01 00:44:07.02	200.40	24.06	-47.2	-48.9	16.4	0.00e+00	0	62	0	1152385024	56	4592
2026-01-01 00:44:07.99	200.42	23.91	-46.8	-48.5	16.8	0.00e+00	0	62	0	1153433600	56	4358
2026-01-01 00:44:08.96	200.45	23.76	-46.7	-48.3	17.0	0.00e+00	0	62	0	1155530752	56	4259
2026-01-01 00:44:09.92	200.47	23.62	-46.5	-48.0	17.3	0.00e+00	0	62	0	1157627904	56	4127
2026-01-01 00:44:10.89	200.49	23.47	-46.3	-47.8	17.3	0.00e+00	0	62	0	1159725056	55	4279
2026-01-01 00:44:11.85	200.52	23.33	-46.2	-47.7	17.5	0.00e+00	0	62	0	1160773632	55	4234
2026-01-01 00:44:12.82	200.54	23.18	-46.1	-47.5	17.6	0.00e+00	0	62	0	1162870784	55	4101
2026-01-01 00:44:13.78	200.56	23.04	-46.0	-47.5	17.7	0.00e+00	0	62	0	1164967936	55	4105
2026-01-01 00:44:14.74	200.58	22.90	-45.9	-47.4	17.8	0.00e+00	0	62	0	1166016512	54	4294
2026-01-01 00:44:15.71	200.61	22.76	-46.0	-47.4	17.7	0.00e+00	0	62	0	1168113664	54	4333
2026-01-01 00:44:16.68	200.63	22.62	-46.0	-47.5	17.6	0.00e+00	0	62	0	1170210816	54	4368
2026-01-01 00:44:17.65	200.65	22.48	-46.0	-47.4	17.8	0.00e+00	0	62	0	1172307968	54	4308
2026-01-01 00:44:18.62	200.67	22.34	-45.9	-47.3	17.8	0.00e+00	0	62	0	1173356544	54	4274
2026-01-01 00:44:19.59	200.70	22.20	-45.9	-47.3	17.9	0.00e+00	0	62	0	1175453696	54	4252
2026-01-01 00:44:20.55	200.72	22.06	-46.0	-47.4	17.8	0.00e+00	0	62	0	1177550848	54	4325
2026-01-01 00:44:21.51	200.74	21.93	-46.1	-47.5	17.6	0.00e+00	0	62	0	1179648000	54	4374
2026-01-01 00:44:22.48	200.76	21.79	-46.1	-47.5	17.7	0.00e+00	0	62	0	1180696576	54	4356
2026-01-01 00:44:23.44	200.78	21.66	-46.3	-47.8	17.4	0.00e+00	0	62	0	1182793728	54	4530
2026-01-01 00:44:24.41	200.80	21.52	-46.4	-48.0	17.2	0.00e+00	0	62	0	1184890880	54	4610
2026-01-01 00:44:25.37	200.82	21.39	-46.3	-47.9	17.3	0.00e+00	0	62	0	1185939456	54	4569
2026-01-01 00:44:26.33	200.84	21.26	-46.5	-48.1	17.0	0.00e+00	0	62	0	1188036608	54	4698
2026-01-01 00:44:27.30	200.86	21.12	-46.6	-48.2	17.0	0.00e+00	0	62	0	1190133760	55	4476
2026-01-01 00:44:28.26	200.88	20.99	-46.7	-48.4	16.8	0.00e+00	0	62	0	1192230912	55	4551
2026-01-01 00:44:29.22	200.90	20.86	-46.7	-48.4	16.8	0.00e+00	0	62	0	1193279488	55	4576
2026-01-01 00:44:30.19	200.92	20.73	-47.0	-48.7	16.5	0.00e+00	0	62	0	1195376640	55	4716
2026-01-01 00:44:31.15	200.94	20.60	-47.0	-48.8	16.4	0.00e+00	0	62	0	1197473792	55	4762
2026-01-01 00:44:32.12	200.96	20.47	-46.9	-48.7	16.4	0.00e+00	0	62	0	1199570944	55	4748
2026-01-01 00:44:33.08	200.98	20.34	-47.4	-49.3	16.0	0.00e+00	0	62	0	1200619520	56	4802
2026-01-01 00:44:34.04	201.00	20.22	-47.4	-49.3	16.0	0.00e+00	0	62	0	1202716672	56	4806
2026-01-01 00:44:35.01	201.02	20.09	-47.3	-49.1	16.1	0.00e+00	0	62	0	1204813824	56	4704
2026-01-01 00:44:35.97	201.04	19.96	-47.8	-49.8	15.5	0.00e+00	0	62	0	1205862400	57	4795
2026-01-01 00:44:36.93	201.06	19.84	-47.4	-49.3	15.9	0.00e+00	0	62	0	1207959552	57	4537
2026-01-01 00:44:37.90	201.08	19.71	-47.2	-49.0	16.2	0.00e+00	0	62	0	1210056704	57	4357
2026-01-01 00:44:38.86	201.10	19.59	-47.2	-49.0	16.3	0.00e+00	0	62	0	1212153856	57	4367
2026-01-01 00:44:39.82	201.12	19.47	-47.0	-48.7	16.5	0.00e+00	0	62	0	1213202432	57	4240
2026-01-01 00:44:40.79	201.14	19.34	-46.9	-48.6	16.6	0.00e+00	0	62	0	1215299584	57	4190
2026-01-01 00:44:41.75	201.15	19.22	-47.0	-48.7	16.5	0.00e+00	0	62	0	1217396736	57	4240
2026-01-01 00:44:42.72	201.17	19.10	-46.9	-48.5	16.7	0.00e+00	0	62	0	1218445312	56	4389
2026-01-01 00:44:43.68	201.19	18.98	-46.9	-48.6	16.6	0.00e+00	0	62	0	1220542464	56	4422
2026-01-01 00:44:44.65	201.21	18.85	-46.9	-48.7	16.6	0.00e+00	0	62	0	1222639616	56	4448
2026-01-01 00:44:45.61	201.23	18.73	-46.8	-48.6	16.6	0.00e+00	0	62	0	1224736768	56	4392
2026-01-01 00:44:46.58	201.25	18.61	-46.7	-48.4	16.8	0.00e+00	0	62	0	1225785344	56	4330
2026-01-01 00:44:47.54	201.26	18.50	-46.8	-48.5	16.8	0.00e+00	0	62	0	1227882496	56	4356
2026-01-01 00:44:48.51	201.28	18.38	-46.9	-48.6	16.6	0.00e+00	0	62	0	1229979648	56	4399
2026-01-01 00:44:49.47	201.30	18.26	-46.9	-48.6	16.5	0.00e+00	0	62	0	1232076800	56	4435
2026-01-01 00:44:50.43	201.32	18.14	-47.0	-48.8	16.4	0.00e+00	0	62	0	1233125376	56	4503
2026-01-01 00:44:51.39	201.33	18.03	-47.1	-48.9	16.3	0.00e+00	0	62	0	1235222528	56	4567
