passes_logs/2026/01/01/R3.0SM8_Murmansk_STILSPACE/R3.0SM8_Murmansk_STILSPACE__20260101_220450_NOAA_21_JPSS-2_rec.log

#Pass ID: 20260101_220450_NOAA 21 (JPSS-2)
#Satellite: NOAA 21 (JPSS-2)
#Configuration: NOAA-21
#almurnet v.1.7.20240730
#Start time: 2026-01-01 22:04:50

#Version: 2.2.20231116
#Station: R3.0SM8_Murmansk_STILSPACE
#Location: 33.092731 lon 68.902999 lat
#TLE: 1 54234U 22150A   26001.26806856  .00000185  00000+0  10843-3 0  9990
#TLE: 2 54234  98.7484 302.3349 0001277 353.3887   6.7272 14.19530660162860

#Time	Az	El	Level	Level2	SNR	BER	BlckErr	Temp	State	Recorded	gain1	gain2
2026-01-01 22:04:50.35	19.96	2.99	-52.3	-63.9	3.8	1.49e+00	0	45	0	0	67	13651
2026-01-01 22:04:51.33	20.04	3.05	-52.3	-63.8	3.8	1.49e+00	0	46	104	0	66	14305
2026-01-01 22:04:52.33	20.12	3.10	-52.3	-63.8	3.8	1.49e+00	0	46	104	0	66	14226
2026-01-01 22:04:53.32	20.20	3.15	-52.3	-63.8	3.8	1.49e+00	0	46	104	0	66	14219
2026-01-01 22:04:54.30	20.29	3.21	-52.1	-63.7	3.8	1.49e+00	0	46	104	0	66	14139
2026-01-01 22:04:55.29	20.37	3.26	-52.1	-63.7	3.8	1.49e+00	0	46	104	0	66	14092
2026-01-01 22:04:56.28	20.45	3.31	-52.0	-63.6	3.8	1.49e+00	0	46	104	0	66	13905
2026-01-01 22:04:57.26	20.53	3.37	-51.9	-63.5	3.8	1.49e+00	0	46	104	0	66	13754
2026-01-01 22:04:58.26	20.62	3.42	-51.8	-63.3	3.8	1.49e+00	0	46	104	0	66	13552
2026-01-01 22:04:59.24	20.70	3.47	-51.5	-62.9	3.8	1.49e+00	0	46	104	0	66	12900
2026-01-01 22:05:00.22	20.78	3.53	-51.3	-62.8	3.8	1.49e+00	0	47	104	0	65	13451
2026-01-01 22:05:01.21	20.86	3.58	-51.3	-62.8	3.8	1.49e+00	0	47	104	0	65	13455
2026-01-01 22:05:02.20	20.95	3.63	-51.3	-62.7	3.8	1.49e+00	0	47	104	0	65	13300
2026-01-01 22:05:03.19	21.03	3.69	-51.3	-62.8	3.8	1.49e+00	0	47	104	0	64	14259
2026-01-01 22:05:04.18	21.12	3.74	-51.3	-62.8	3.8	1.49e+00	0	47	104	0	64	14234
2026-01-01 22:05:05.17	21.20	3.80	-51.3	-62.7	3.8	1.49e+00	0	47	104	0	64	14054
2026-01-01 22:05:06.16	21.29	3.85	-51.3	-62.8	3.8	1.49e+00	0	47	104	0	64	14336
2026-01-01 22:05:07.15	21.37	3.90	-51.2	-62.8	3.8	1.49e+00	0	47	104	0	64	14256
2026-01-01 22:05:08.14	21.46	3.96	-51.3	-62.7	3.8	1.49e+00	0	47	104	0	64	14128
2026-01-01 22:05:09.13	21.55	4.01	-51.2	-62.7	3.8	1.49e+00	0	47	104	0	64	14179
2026-01-01 22:05:10.12	21.63	4.07	-51.3	-62.7	3.8	1.49e+00	0	47	104	0	64	14181
2026-01-01 22:05:11.11	21.72	4.12	-51.3	-62.7	3.8	1.49e+00	0	47	104	0	64	14140
2026-01-01 22:05:12.10	21.81	4.18	-51.3	-62.8	3.8	1.49e+00	0	47	104	0	64	14268
2026-01-01 22:05:13.09	21.89	4.23	-51.3	-62.7	3.8	1.49e+00	0	47	104	0	64	14164
2026-01-01 22:05:14.08	21.98	4.28	-51.2	-62.6	3.8	1.49e+00	0	47	104	0	64	13966
2026-01-01 22:05:15.06	22.07	4.34	-51.3	-62.5	3.8	1.49e+00	0	48	104	0	64	13876
2026-01-01 22:05:16.05	22.16	4.39	-51.3	-62.6	3.8	1.49e+00	0	48	104	0	64	14000
2026-01-01 22:05:17.03	22.24	4.45	-51.3	-62.6	3.8	1.49e+00	0	48	104	0	64	13953
2026-01-01 22:05:18.02	22.33	4.50	-51.3	-62.5	3.8	1.49e+00	0	48	104	0	64	13849
2026-01-01 22:05:19.01	22.42	4.56	-51.2	-62.5	3.8	1.49e+00	0	48	104	0	64	13795
2026-01-01 22:05:20.00	22.51	4.61	-51.0	-62.3	3.8	1.49e+00	0	48	104	0	64	13541
2026-01-01 22:05:20.99	22.60	4.67	-51.2	-61.8	3.8	1.49e+00	0	48	104	0	64	12803
2026-01-01 22:05:21.97	22.69	4.72	-50.9	-60.6	3.9	1.49e+00	0	48	104	0	64	11146
2026-01-01 22:05:22.96	22.78	4.78	-50.8	-58.7	4.3	1.47e+00	0	48	104	0	64	8927
2026-01-01 22:05:23.94	22.87	4.83	-50.5	-57.1	5.1	7.62e-01	0	48	0	0	64	7450
2026-01-01 22:05:24.93	22.96	4.89	-50.2	-55.5	6.2	3.20e-01	0	48	0	3145728	63	6560
2026-01-01 22:05:25.92	23.05	4.94	-49.7	-54.2	7.4	1.62e-01	0	48	0	6291456	62	5977
2026-01-01 22:05:26.91	23.15	5.00	-49.3	-53.4	8.2	6.72e-02	0	48	0	9437184	61	5762
2026-01-01 22:05:27.90	23.24	5.05	-49.3	-53.1	8.5	3.77e-02	0	48	0	12582912	61	5586
2026-01-01 22:05:28.88	23.33	5.11	-49.4	-53.3	8.4	4.36e-02	0	49	0	15728640	61	5679
2026-01-01 22:05:29.87	23.42	5.16	-49.4	-53.1	8.6	4.05e-02	0	48	0	17825792	61	5574
2026-01-01 22:05:30.85	23.51	5.22	-49.1	-52.4	9.3	2.14e-02	0	48	0	20971520	61	5154
2026-01-01 22:05:31.84	23.61	5.27	-48.8	-51.9	9.8	1.14e-02	0	49	0	24117248	60	5146
2026-01-01 22:05:32.83	23.70	5.33	-48.7	-51.8	10.0	8.34e-03	0	49	0	27262976	60	5053
2026-01-01 22:05:33.82	23.80	5.38	-48.6	-51.5	10.3	5.33e-03	0	49	0	30408704	60	4891
2026-01-01 22:05:34.81	23.89	5.44	-48.4	-51.1	10.8	3.16e-03	0	49	0	33554432	59	4940
2026-01-01 22:05:35.80	23.99	5.50	-48.3	-50.9	11.0	2.05e-03	0	49	0	36700160	59	4844
2026-01-01 22:05:36.79	24.08	5.55	-48.3	-51.0	11.0	2.11e-03	0	49	0	39845888	59	4883
2026-01-01 22:05:37.77	24.18	5.61	-48.0	-50.5	11.4	1.06e-03	0	49	0	42991616	59	4637
2026-01-01 22:05:38.77	24.27	5.66	-47.7	-50.0	12.0	4.83e-04	0	49	0	46137344	58	4615
2026-01-01 22:05:39.75	24.37	5.72	-47.5	-49.7	12.3	2.71e-04	0	49	0	49283072	58	4469
2026-01-01 22:05:40.73	24.46	5.78	-47.3	-49.4	12.6	1.17e-04	0	49	0	52428800	57	4549
2026-01-01 22:05:41.72	24.56	5.83	-47.1	-49.0	13.0	4.04e-05	0	49	0	55574528	57	4367
2026-01-01 22:05:42.71	24.66	5.89	-46.9	-48.8	13.2	1.90e-05	0	49	0	58720256	57	4249
2026-01-01 22:05:43.71	24.76	5.94	-46.9	-48.8	13.2	2.36e-05	0	49	0	61865984	56	4513
2026-01-01 22:05:44.69	24.85	6.00	-46.8	-48.7	13.3	2.51e-05	0	49	0	65011712	56	4455
2026-01-01 22:05:45.68	24.95	6.06	-47.0	-48.9	13.1	2.44e-05	0	49	0	68157440	56	4552
2026-01-01 22:05:46.67	25.05	6.11	-47.0	-48.9	13.1	2.36e-05	0	49	0	71303168	56	4568
2026-01-01 22:05:47.66	25.15	6.17	-47.0	-48.8	13.2	2.97e-05	0	49	0	74448896	56	4525
2026-01-01 22:05:48.64	25.25	6.23	-46.7	-48.5	13.5	1.75e-05	0	50	0	76546048	56	4365
2026-01-01 22:05:49.64	25.35	6.28	-46.7	-48.4	13.6	9.10e-06	0	49	0	79691776	56	4338
2026-01-01 22:05:50.63	25.45	6.34	-46.7	-48.4	13.7	6.80e-06	0	50	0	82837504	56	4318
2026-01-01 22:05:51.62	25.55	6.40	-46.7	-48.5	13.6	4.50e-06	0	50	0	85983232	56	4343
2026-01-01 22:05:52.61	25.65	6.45	-46.8	-48.6	13.4	1.52e-05	0	50	0	89128960	56	4431
2026-01-01 22:05:53.60	25.75	6.51	-46.9	-48.7	13.4	1.22e-05	0	50	0	92274688	56	4443
2026-01-01 22:05:54.59	25.85	6.57	-46.9	-48.7	13.4	1.37e-05	0	50	0	95420416	56	4471
2026-01-01 22:05:55.58	25.95	6.62	-46.7	-48.5	13.7	4.50e-06	0	50	0	98566144	56	4342
2026-01-01 22:05:56.57	26.06	6.68	-46.6	-48.3	13.8	6.80e-06	0	50	0	101711872	56	4257
2026-01-01 22:05:57.56	26.16	6.74	-46.5	-48.2	13.8	3.00e-06	0	50	0	104857600	56	4232
2026-01-01 22:05:58.55	26.26	6.79	-46.5	-48.1	13.9	3.00e-06	0	50	0	108003328	56	4188
2026-01-01 22:05:59.54	26.37	6.85	-46.5	-48.2	13.9	5.30e-06	0	50	0	111149056	56	4215
2026-01-01 22:06:00.53	26.47	6.91	-46.8	-48.5	13.6	7.60e-06	0	50	0	114294784	56	4375
2026-01-01 22:06:01.53	26.58	6.97	-46.7	-48.4	13.7	6.80e-06	0	50	0	117440512	56	4331
2026-01-01 22:06:02.52	26.68	7.02	-46.8	-48.5	13.6	3.00e-06	0	50	0	120586240	56	4386
2026-01-01 22:06:03.51	26.79	7.08	-46.9	-48.7	13.5	1.06e-05	0	50	0	123731968	56	4455
2026-01-01 22:06:04.49	26.89	7.14	-47.0	-48.8	13.4	1.44e-05	0	50	0	126877696	56	4517
2026-01-01 22:06:05.48	27.00	7.20	-46.9	-48.7	13.5	4.50e-06	0	50	0	130023424	56	4456
2026-01-01 22:06:06.46	27.10	7.25	-46.9	-48.7	13.5	1.22e-05	0	50	0	133169152	56	4446
2026-01-01 22:06:07.44	27.21	7.31	-46.9	-48.7	13.5	9.90e-06	0	50	0	135266304	56	4464
2026-01-01 22:06:08.44	27.32	7.37	-46.8	-48.5	13.6	8.30e-06	0	50	0	138412032	56	4390
2026-01-01 22:06:09.43	27.42	7.42	-46.8	-48.5	13.6	7.60e-06	0	50	0	141557760	56	4391
2026-01-01 22:06:10.42	27.53	7.48	-46.9	-48.7	13.5	1.29e-05	0	51	0	144703488	56	4459
2026-01-01 22:06:11.41	27.64	7.54	-47.0	-48.8	13.4	6.10e-06	0	50	0	147849216	56	4521
2026-01-01 22:06:12.40	27.75	7.60	-47.0	-48.8	13.4	1.52e-05	0	51	0	150994944	56	4529
2026-01-01 22:06:13.39	27.86	7.66	-46.8	-48.5	13.7	1.29e-05	0	51	0	154140672	56	4368
2026-01-01 22:06:14.38	27.97	7.71	-46.6	-48.3	13.9	5.30e-06	0	51	0	157286400	56	4263
2026-01-01 22:06:15.37	28.08	7.77	-46.5	-48.1	14.1	4.50e-06	0	51	0	160432128	56	4185
2026-01-01 22:06:16.37	28.19	7.83	-46.4	-48.1	14.2	1.50e-06	0	51	0	163577856	56	4146
2026-01-01 22:06:17.35	28.30	7.89	-46.5	-48.1	14.1	3.00e-06	0	51	0	166723584	56	4155
2026-01-01 22:06:18.34	28.41	7.95	-46.5	-48.1	14.2	0.00e+00	0	51	0	169869312	56	4156
2026-01-01 22:06:19.34	28.52	8.00	-46.6	-48.2	14.1	2.20e-06	0	51	0	173015040	56	4204
2026-01-01 22:06:20.33	28.63	8.06	-46.2	-47.7	14.4	1.50e-06	0	51	0	176160768	55	4227
2026-01-01 22:06:21.31	28.75	8.12	-46.1	-47.5	14.6	7.00e-07	0	51	0	179306496	55	4126
2026-01-01 22:06:22.31	28.86	8.18	-46.1	-47.6	14.5	1.50e-06	0	51	0	182452224	55	4160
2026-01-01 22:06:23.29	28.97	8.24	-46.2	-47.6	14.5	7.00e-07	0	51	0	185597952	55	4183
2026-01-01 22:06:24.28	29.09	8.29	-46.4	-47.9	14.3	7.00e-07	0	51	0	188743680	55	4314
2026-01-01 22:06:25.27	29.20	8.35	-46.3	-47.9	14.3	1.50e-06	0	51	0	191889408	55	4301
2026-01-01 22:06:26.26	29.31	8.41	-46.3	-47.8	14.3	1.50e-06	0	51	0	195035136	55	4281
2026-01-01 22:06:27.25	29.43	8.47	-46.3	-47.9	14.3	7.00e-07	0	51	0	198180864	55	4296
2026-01-01 22:06:28.24	29.55	8.53	-46.2	-47.7	14.4	1.50e-06	0	51	0	200278016	55	4237
2026-01-01 22:06:29.22	29.66	8.59	-46.2	-47.7	14.5	1.50e-06	0	51	0	203423744	55	4195
2026-01-01 22:06:30.21	29.78	8.64	-46.2	-47.8	14.4	0.00e+00	0	51	0	206569472	55	4270
2026-01-01 22:06:31.19	29.89	8.70	-46.4	-47.9	14.3	2.20e-06	0	51	0	209715200	55	4325
2026-01-01 22:06:32.18	30.01	8.76	-46.1	-47.5	14.7	7.00e-07	0	51	0	212860928	55	4141
2026-01-01 22:06:33.17	30.13	8.82	-45.8	-47.1	15.1	0.00e+00	0	51	0	216006656	54	4190
2026-01-01 22:06:34.16	30.25	8.88	-45.6	-46.9	15.3	0.00e+00	0	51	0	219152384	54	4069
2026-01-01 22:06:35.15	30.36	8.94	-45.5	-46.8	15.4	0.00e+00	0	51	0	222298112	54	4034
2026-01-01 22:06:36.13	30.48	9.00	-45.5	-46.8	15.4	0.00e+00	0	52	0	225443840	54	4031
2026-01-01 22:06:37.12	30.60	9.05	-45.4	-46.6	15.6	0.00e+00	0	52	0	228589568	53	4165
2026-01-01 22:06:38.11	30.72	9.11	-45.4	-46.6	15.5	0.00e+00	0	52	0	231735296	53	4182
2026-01-01 22:06:39.09	30.84	9.17	-45.4	-46.6	15.6	0.00e+00	0	52	0	234881024	53	4168
2026-01-01 22:06:40.08	30.96	9.23	-45.4	-46.6	15.6	0.00e+00	0	51	0	238026752	53	4152
2026-01-01 22:06:41.07	31.08	9.29	-45.4	-46.7	15.5	0.00e+00	0	52	0	241172480	53	4198
2026-01-01 22:06:42.06	31.21	9.35	-45.5	-46.8	15.4	0.00e+00	0	52	0	244318208	53	4256
2026-01-01 22:06:43.05	31.33	9.41	-45.5	-46.8	15.4	0.00e+00	0	52	0	247463936	53	4249
2026-01-01 22:06:44.04	31.45	9.47	-45.6	-47.0	15.3	0.00e+00	0	52	0	249561088	53	4360
2026-01-01 22:06:45.03	31.57	9.52	-45.7	-47.0	15.2	0.00e+00	0	52	0	252706816	53	4386
2026-01-01 22:06:46.01	31.70	9.58	-45.6	-46.9	15.3	0.00e+00	0	52	0	255852544	53	4336
2026-01-01 22:06:47.00	31.82	9.64	-45.7	-47.0	15.2	0.00e+00	0	52	0	258998272	53	4379
2026-01-01 22:06:47.99	31.95	9.70	-45.8	-47.2	15.1	0.00e+00	0	52	0	262144000	53	4459
2026-01-01 22:06:48.97	32.07	9.76	-46.0	-47.5	14.8	0.00e+00	0	52	0	265289728	53	4609
2026-01-01 22:06:49.96	32.20	9.82	-45.8	-47.1	15.1	0.00e+00	0	52	0	268435456	53	4429
2026-01-01 22:06:50.94	32.32	9.88	-45.8	-47.1	15.1	0.00e+00	0	52	0	271581184	53	4433
2026-01-01 22:06:51.93	32.45	9.94	-45.9	-47.3	14.9	0.00e+00	0	52	0	274726912	53	4524
2026-01-01 22:06:52.92	32.57	10.00	-45.7	-47.0	15.2	0.00e+00	0	52	0	277872640	53	4382
2026-01-01 22:06:53.91	32.70	10.06	-45.6	-46.8	15.4	0.00e+00	0	52	0	281018368	53	4280
2026-01-01 22:06:54.90	32.83	10.11	-45.5	-46.7	15.6	0.00e+00	0	52	0	284164096	53	4222
2026-01-01 22:06:55.89	32.96	10.17	-45.5	-46.8	15.5	0.00e+00	0	52	0	287309824	53	4244
2026-01-01 22:06:56.87	33.09	10.23	-45.7	-47.0	15.3	0.00e+00	0	52	0	290455552	53	4357
2026-01-01 22:06:57.86	33.22	10.29	-45.6	-46.9	15.4	0.00e+00	0	52	0	293601280	53	4306
2026-01-01 22:06:58.85	33.35	10.35	-45.8	-47.1	15.2	0.00e+00	0	52	0	296747008	53	4425
2026-01-01 22:06:59.83	33.48	10.41	-45.7	-47.0	15.3	0.00e+00	0	52	0	299892736	53	4365
2026-01-01 22:07:00.83	33.61	10.47	-45.9	-47.3	15.1	0.00e+00	0	52	0	303038464	53	4503
2026-01-01 22:07:01.81	33.74	10.53	-45.8	-47.2	15.2	7.00e-07	0	52	0	306184192	53	4449
2026-01-01 22:07:02.81	33.87	10.59	-45.9	-47.2	15.1	7.00e-07	0	52	0	309329920	53	4485
2026-01-01 22:07:03.79	34.00	10.65	-46.0	-47.4	14.9	0.00e+00	0	52	0	311427072	53	4584
2026-01-01 22:07:04.78	34.14	10.71	-45.9	-47.3	15.0	0.00e+00	0	52	0	314572800	53	4518
2026-01-01 22:07:05.77	34.27	10.77	-45.8	-47.1	15.2	7.00e-07	0	52	0	317718528	53	4435
2026-01-01 22:07:06.75	34.40	10.82	-45.7	-47.0	15.3	0.00e+00	0	52	0	320864256	53	4371
2026-01-01 22:07:07.74	34.54	10.88	-45.6	-47.0	15.4	0.00e+00	0	52	0	324009984	53	4342
2026-01-01 22:07:08.72	34.67	10.94	-45.7	-47.0	15.3	0.00e+00	0	53	0	327155712	53	4362
2026-01-01 22:07:09.71	34.81	11.00	-45.8	-47.2	15.2	0.00e+00	0	53	0	330301440	53	4449
2026-01-01 22:07:10.70	34.95	11.06	-45.7	-47.0	15.3	0.00e+00	0	52	0	333447168	53	4385
2026-01-01 22:07:11.70	35.08	11.12	-45.5	-46.7	15.6	0.00e+00	0	53	0	336592896	53	4236
2026-01-01 22:07:12.69	35.22	11.18	-45.3	-46.5	15.8	0.00e+00	0	53	0	339738624	53	4143
2026-01-01 22:07:13.67	35.36	11.24	-45.3	-46.4	15.9	0.00e+00	0	53	0	342884352	53	4083
2026-01-01 22:07:14.66	35.50	11.30	-45.3	-46.4	15.9	0.00e+00	0	53	0	346030080	53	4086
2026-01-01 22:07:15.65	35.64	11.36	-45.4	-46.6	15.7	0.00e+00	0	53	0	349175808	53	4178
2026-01-01 22:07:16.64	35.78	11.42	-45.3	-46.6	15.8	0.00e+00	0	53	0	352321536	53	4146
2026-01-01 22:07:17.62	35.92	11.48	-45.5	-46.7	15.6	0.00e+00	0	53	0	355467264	53	4234
2026-01-01 22:07:18.61	36.06	11.54	-45.4	-46.7	15.7	0.00e+00	0	53	0	358612992	53	4205
2026-01-01 22:07:19.60	36.20	11.60	-45.5	-46.8	15.6	0.00e+00	0	53	0	361758720	53	4268
2026-01-01 22:07:20.58	36.34	11.65	-45.8	-47.1	15.3	0.00e+00	0	53	0	363855872	53	4416
2026-01-01 22:07:21.58	36.48	11.71	-45.9	-47.3	15.0	0.00e+00	0	53	0	367001600	53	4536
2026-01-01 22:07:22.57	36.62	11.77	-45.9	-47.2	15.1	0.00e+00	0	53	0	370147328	53	4481
2026-01-01 22:07:23.56	36.77	11.83	-45.9	-47.3	15.1	0.00e+00	0	53	0	373293056	53	4504
2026-01-01 22:07:24.55	36.91	11.89	-46.0	-47.4	15.0	0.00e+00	0	53	0	376438784	53	4554
2026-01-01 22:07:25.54	37.06	11.95	-45.9	-47.3	15.1	0.00e+00	0	53	0	379584512	53	4497
2026-01-01 22:07:26.52	37.20	12.01	-45.7	-47.0	15.4	0.00e+00	0	53	0	382730240	53	4367
2026-01-01 22:07:27.51	37.35	12.07	-45.6	-46.9	15.5	0.00e+00	0	53	0	385875968	53	4296
2026-01-01 22:07:28.49	37.49	12.13	-45.5	-46.8	15.6	7.00e-07	0	53	0	389021696	53	4255
2026-01-01 22:07:29.49	37.64	12.19	-45.5	-46.8	15.6	0.00e+00	0	53	0	392167424	53	4248
2026-01-01 22:07:30.47	37.79	12.25	-45.6	-46.9	15.5	0.00e+00	0	53	0	395313152	53	4305
2026-01-01 22:07:31.46	37.93	12.31	-45.6	-46.9	15.4	0.00e+00	0	53	0	398458880	53	4337
2026-01-01 22:07:32.46	38.08	12.37	-45.4	-46.6	15.8	0.00e+00	0	53	0	401604608	53	4155
2026-01-01 22:07:33.45	38.23	12.43	-45.2	-46.3	16.0	0.00e+00	0	53	0	404750336	53	4046
2026-01-01 22:07:34.44	38.38	12.48	-45.1	-46.3	16.1	0.00e+00	0	53	0	407896064	53	4023
2026-01-01 22:07:35.43	38.53	12.54	-45.1	-46.3	16.1	0.00e+00	0	53	0	411041792	53	4009
2026-01-01 22:07:36.42	38.68	12.60	-45.3	-46.5	15.9	0.00e+00	0	53	0	414187520	53	4103
2026-01-01 22:07:37.41	38.84	12.66	-45.3	-46.6	15.8	0.00e+00	0	53	0	417333248	53	4155
2026-01-01 22:07:38.40	38.99	12.72	-45.3	-46.5	15.8	0.00e+00	0	53	0	419430400	53	4145
2026-01-01 22:07:39.38	39.14	12.78	-45.2	-46.4	16.0	0.00e+00	0	53	0	422576128	53	4078
2026-01-01 22:07:40.37	39.29	12.84	-45.3	-46.4	15.9	0.00e+00	0	53	0	425721856	53	4093
2026-01-01 22:07:41.37	39.45	12.90	-45.3	-46.5	15.8	0.00e+00	0	53	0	428867584	53	4145
2026-01-01 22:07:42.35	39.60	12.96	-45.5	-46.7	15.7	0.00e+00	0	53	0	432013312	53	4218
2026-01-01 22:07:43.34	39.76	13.01	-45.4	-46.6	15.8	0.00e+00	0	53	0	435159040	53	4153
2026-01-01 22:07:44.34	39.91	13.07	-45.6	-46.8	15.6	7.00e-07	0	54	0	438304768	53	4272
2026-01-01 22:07:45.33	40.07	13.13	-45.5	-46.7	15.7	0.00e+00	0	54	0	441450496	53	4223
2026-01-01 22:07:46.32	40.23	13.19	-45.7	-46.9	15.5	0.00e+00	0	53	0	444596224	53	4340
2026-01-01 22:07:47.30	40.38	13.25	-45.5	-46.7	15.7	0.00e+00	0	54	0	447741952	53	4239
2026-01-01 22:07:48.30	40.54	13.31	-45.5	-46.7	15.7	0.00e+00	0	53	0	450887680	53	4239
2026-01-01 22:07:49.29	40.70	13.37	-45.8	-47.0	15.4	0.00e+00	0	53	0	454033408	53	4388
2026-01-01 22:07:50.27	40.86	13.42	-45.8	-47.2	15.3	0.00e+00	0	54	0	457179136	53	4451
2026-01-01 22:07:51.27	41.02	13.48	-45.7	-46.9	15.5	0.00e+00	0	53	0	460324864	53	4328
2026-01-01 22:07:52.25	41.18	13.54	-45.5	-46.7	15.7	0.00e+00	0	54	0	463470592	53	4216
2026-01-01 22:07:53.24	41.34	13.60	-45.4	-46.6	15.8	0.00e+00	0	53	0	466616320	53	4161
2026-01-01 22:07:54.23	41.50	13.66	-45.3	-46.5	15.9	0.00e+00	0	54	0	469762048	53	4128
2026-01-01 22:07:55.21	41.66	13.71	-45.4	-46.6	15.9	0.00e+00	0	54	0	472907776	53	4157
2026-01-01 22:07:56.20	41.83	13.77	-45.4	-46.6	15.8	0.00e+00	0	54	0	476053504	53	4174
2026-01-01 22:07:57.19	41.99	13.83	-45.2	-46.3	16.1	0.00e+00	0	54	0	478150656	53	4035
2026-01-01 22:07:58.17	42.15	13.89	-44.9	-46.0	16.4	0.00e+00	0	53	0	481296384	53	3887
2026-01-01 22:07:59.16	42.32	13.95	-44.8	-45.8	16.6	0.00e+00	0	54	0	484442112	52	4037
2026-01-01 22:08:00.15	42.48	14.00	-44.8	-45.8	16.6	0.00e+00	0	54	0	487587840	52	4041
2026-01-01 22:08:01.14	42.65	14.06	-44.8	-45.9	16.6	0.00e+00	0	54	0	490733568	52	4054
2026-01-01 22:08:02.12	42.81	14.12	-45.0	-46.0	16.4	0.00e+00	0	54	0	493879296	52	4136
2026-01-01 22:08:03.10	42.98	14.18	-44.9	-46.0	16.4	0.00e+00	0	54	0	497025024	52	4134
2026-01-01 22:08:04.09	43.15	14.23	-45.0	-46.1	16.3	0.00e+00	0	54	0	500170752	52	4173
2026-01-01 22:08:05.08	43.32	14.29	-45.1	-46.2	16.2	0.00e+00	0	54	0	503316480	52	4224
2026-01-01 22:08:06.07	43.49	14.35	-45.0	-46.1	16.3	0.00e+00	0	54	0	506462208	52	4183
2026-01-01 22:08:07.07	43.66	14.40	-44.9	-46.0	16.4	0.00e+00	0	54	0	509607936	52	4142
2026-01-01 22:08:08.06	43.83	14.46	-45.0	-46.1	16.3	0.00e+00	0	54	0	512753664	52	4174
2026-01-01 22:08:09.05	44.00	14.52	-45.2	-46.4	16.1	0.00e+00	0	54	0	515899392	52	4305
2026-01-01 22:08:10.04	44.17	14.58	-45.0	-46.1	16.3	0.00e+00	0	54	0	519045120	52	4192
2026-01-01 22:08:11.03	44.34	14.63	-45.2	-46.3	16.1	0.00e+00	0	54	0	522190848	52	4291
2026-01-01 22:08:12.02	44.52	14.69	-45.5	-46.7	15.8	0.00e+00	0	54	0	525336576	52	4470
2026-01-01 22:08:13.00	44.69	14.74	-45.1	-46.3	16.1	0.00e+00	0	54	0	528482304	52	4280
2026-01-01 22:08:13.99	44.86	14.80	-45.0	-46.1	16.3	0.00e+00	0	54	0	531628032	52	4174
2026-01-01 22:08:14.99	45.04	14.86	-45.0	-46.1	16.4	0.00e+00	0	54	0	534773760	52	4156
2026-01-01 22:08:15.97	45.21	14.91	-45.0	-46.1	16.4	0.00e+00	0	54	0	537919488	52	4153
2026-01-01 22:08:16.96	45.39	14.97	-44.9	-46.0	16.4	0.00e+00	0	54	0	541065216	52	4135
2026-01-01 22:08:17.95	45.57	15.03	-45.1	-46.2	16.3	0.00e+00	0	54	0	543162368	52	4221
2026-01-01 22:08:18.94	45.74	15.08	-44.9	-46.0	16.5	0.00e+00	0	54	0	546308096	52	4118
2026-01-01 22:08:19.93	45.92	15.14	-44.8	-45.9	16.6	0.00e+00	0	54	0	549453824	52	4055
2026-01-01 22:08:20.92	46.10	15.19	-44.8	-45.9	16.6	0.00e+00	0	54	0	552599552	52	4077
2026-01-01 22:08:21.91	46.28	15.25	-44.9	-46.0	16.4	0.00e+00	0	54	0	555745280	52	4133
2026-01-01 22:08:22.89	46.46	15.30	-45.1	-46.2	16.3	0.00e+00	0	54	0	558891008	52	4219
2026-01-01 22:08:23.88	46.64	15.36	-45.2	-46.3	16.2	0.00e+00	0	54	0	562036736	52	4266
2026-01-01 22:08:24.87	46.82	15.41	-45.2	-46.3	16.1	0.00e+00	0	54	0	565182464	52	4277
2026-01-01 22:08:25.86	47.00	15.47	-45.3	-46.5	16.0	0.00e+00	0	54	0	568328192	52	4351
2026-01-01 22:08:26.84	47.18	15.52	-45.3	-46.5	16.0	0.00e+00	0	54	0	571473920	52	4344
2026-01-01 22:08:27.83	47.37	15.58	-45.4	-46.6	15.9	0.00e+00	0	54	0	574619648	52	4405
2026-01-01 22:08:28.81	47.55	15.63	-45.5	-46.7	15.8	0.00e+00	0	54	0	577765376	52	4467
2026-01-01 22:08:29.80	47.73	15.68	-45.4	-46.6	15.9	0.00e+00	0	54	0	580911104	52	4430
2026-01-01 22:08:30.79	47.92	15.74	-45.6	-46.8	15.7	0.00e+00	0	54	0	584056832	52	4525
2026-01-01 22:08:31.77	48.10	15.79	-45.4	-46.6	15.9	0.00e+00	0	54	0	587202560	53	4175
2026-01-01 22:08:32.76	48.29	15.85	-45.1	-46.2	16.3	0.00e+00	0	54	0	590348288	53	3999
2026-01-01 22:08:33.75	48.48	15.90	-44.9	-46.0	16.5	0.00e+00	0	54	0	593494016	53	3895
2026-01-01 22:08:34.73	48.66	15.95	-44.8	-45.9	16.6	0.00e+00	0	54	0	595591168	52	4059
2026-01-01 22:08:35.72	48.85	16.01	-44.8	-45.8	16.6	0.00e+00	0	54	0	598736896	52	4046
2026-01-01 22:08:36.71	49.04	16.06	-44.8	-45.8	16.7	0.00e+00	0	54	0	601882624	52	4022
2026-01-01 22:08:37.71	49.23	16.11	-44.6	-45.7	16.8	0.00e+00	0	54	0	605028352	52	3976
2026-01-01 22:08:38.70	49.42	16.16	-44.7	-45.7	16.7	0.00e+00	0	54	0	608174080	52	3992
2026-01-01 22:08:39.69	49.62	16.22	-44.7	-45.8	16.7	0.00e+00	0	54	0	611319808	52	4013
2026-01-01 22:08:40.69	49.81	16.27	-44.7	-45.7	16.7	0.00e+00	0	55	0	614465536	52	3998
2026-01-01 22:08:41.67	50.00	16.32	-44.6	-45.6	16.8	0.00e+00	0	55	0	617611264	52	3945
2026-01-01 22:08:42.66	50.19	16.37	-44.6	-45.6	16.8	0.00e+00	0	54	0	620756992	52	3949
2026-01-01 22:08:43.65	50.39	16.43	-44.7	-45.7	16.8	0.00e+00	0	54	0	623902720	52	4003
2026-01-01 22:08:44.64	50.58	16.48	-44.8	-45.8	16.7	0.00e+00	0	54	0	627048448	52	4029
2026-01-01 22:08:45.63	50.78	16.53	-44.8	-45.9	16.7	0.00e+00	0	54	0	630194176	52	4053
2026-01-01 22:08:46.62	50.97	16.58	-44.8	-45.9	16.6	0.00e+00	0	54	0	633339904	52	4069
2026-01-01 22:08:47.61	51.17	16.63	-44.8	-45.9	16.6	0.00e+00	0	54	0	636485632	52	4075
2026-01-01 22:08:48.60	51.37	16.68	-44.9	-45.9	16.5	0.00e+00	0	54	0	639631360	52	4095
2026-01-01 22:08:49.58	51.56	16.73	-45.0	-46.1	16.4	0.00e+00	0	55	0	642777088	52	4169
2026-01-01 22:08:50.57	51.76	16.78	-45.2	-46.3	16.3	0.00e+00	0	55	0	645922816	52	4255
2026-01-01 22:08:51.56	51.96	16.83	-45.1	-46.2	16.3	0.00e+00	0	54	0	649068544	52	4227
2026-01-01 22:08:52.55	52.16	16.88	-44.8	-45.9	16.6	0.00e+00	0	54	0	652214272	52	4069
2026-01-01 22:08:53.54	52.36	16.93	-44.7	-45.8	16.7	0.00e+00	0	55	0	654311424	52	4016
2026-01-01 22:08:54.54	52.56	16.98	-44.7	-45.7	16.8	0.00e+00	0	55	0	657457152	52	3980
2026-01-01 22:08:55.53	52.76	17.03	-44.7	-45.7	16.8	0.00e+00	0	55	0	660602880	52	3989
2026-01-01 22:08:56.52	52.97	17.08	-44.6	-45.7	16.8	0.00e+00	0	55	0	663748608	52	3980
2026-01-01 22:08:57.51	53.17	17.13	-44.7	-45.8	16.7	0.00e+00	0	55	0	666894336	52	4042
2026-01-01 22:08:58.50	53.37	17.18	-44.8	-45.9	16.6	0.00e+00	0	55	0	670040064	52	4068
2026-01-01 22:08:59.48	53.57	17.22	-44.6	-45.6	16.9	0.00e+00	0	54	0	673185792	52	3941
2026-01-01 22:09:00.47	53.78	17.27	-44.5	-45.5	17.1	0.00e+00	0	55	0	676331520	51	4113
2026-01-01 22:09:01.46	53.98	17.32	-44.5	-45.5	17.1	0.00e+00	0	55	0	679477248	51	4111
2026-01-01 22:09:02.46	54.19	17.37	-44.7	-45.7	16.9	0.00e+00	0	55	0	682622976	51	4241
2026-01-01 22:09:03.45	54.40	17.42	-44.8	-45.9	16.7	0.00e+00	0	55	0	685768704	51	4316
2026-01-01 22:09:04.45	54.61	17.46	-44.8	-45.9	16.7	0.00e+00	0	55	0	688914432	51	4309
2026-01-01 22:09:05.44	54.82	17.51	-44.8	-45.9	16.7	0.00e+00	0	55	0	692060160	51	4315
2026-01-01 22:09:06.43	55.03	17.56	-44.8	-45.9	16.7	0.00e+00	0	55	0	695205888	51	4300
2026-01-01 22:09:07.42	55.23	17.60	-44.8	-45.9	16.7	0.00e+00	0	55	0	698351616	51	4296
2026-01-01 22:09:08.40	55.44	17.65	-44.7	-45.8	16.8	0.00e+00	0	55	0	701497344	51	4243
2026-01-01 22:09:09.40	55.65	17.69	-44.8	-45.8	16.7	0.00e+00	0	55	0	704643072	51	4268
2026-01-01 22:09:10.38	55.86	17.74	-44.9	-45.9	16.7	0.00e+00	0	55	0	707788800	51	4313
2026-01-01 22:09:11.38	56.08	17.78	-44.9	-45.9	16.7	0.00e+00	0	55	0	710934528	51	4327
2026-01-01 22:09:12.36	56.29	17.83	-44.6	-45.6	17.0	0.00e+00	0	55	0	714080256	51	4162
2026-01-01 22:09:13.35	56.50	17.87	-44.4	-45.4	17.3	0.00e+00	0	55	0	717225984	51	4068
2026-01-01 22:09:14.35	56.72	17.92	-44.4	-45.3	17.3	0.00e+00	0	55	0	719323136	51	4037
2026-01-01 22:09:15.33	56.93	17.96	-44.3	-45.3	17.3	0.00e+00	0	55	0	722468864	51	4023
2026-01-01 22:09:16.32	57.14	18.00	-44.4	-45.4	17.1	0.00e+00	0	55	0	725614592	51	4081
2026-01-01 22:09:17.31	57.36	18.05	-44.6	-45.6	17.0	0.00e+00	0	55	0	728760320	51	4156
2026-01-01 22:09:18.30	57.57	18.09	-44.5	-45.4	17.2	0.00e+00	0	55	0	731906048	51	4092
2026-01-01 22:09:19.28	57.79	18.13	-44.7	-45.7	16.9	0.00e+00	0	55	0	735051776	51	4233
2026-01-01 22:09:20.27	58.01	18.17	-44.8	-45.9	16.8	0.00e+00	0	55	0	738197504	51	4296
2026-01-01 22:09:21.26	58.22	18.22	-44.5	-45.5	17.2	0.00e+00	0	55	0	741343232	51	4106
2026-01-01 22:09:22.24	58.44	18.26	-44.2	-45.1	17.5	0.00e+00	0	55	0	744488960	51	3938
2026-01-01 22:09:23.24	58.66	18.30	-44.0	-44.9	17.7	0.00e+00	0	55	0	747634688	51	3827
2026-01-01 22:09:24.22	58.88	18.34	-44.0	-44.8	17.7	0.00e+00	0	55	0	750780416	51	3821
2026-01-01 22:09:25.21	59.10	18.38	-44.0	-44.9	17.7	0.00e+00	0	55	0	753926144	50	4056
2026-01-01 22:09:26.19	59.32	18.42	-43.9	-44.7	17.8	0.00e+00	0	55	0	757071872	50	3993
2026-01-01 22:09:27.18	59.54	18.46	-44.1	-45.1	17.5	0.00e+00	0	55	0	760217600	50	4155
2026-01-01 22:09:28.17	59.76	18.50	-44.1	-45.0	17.6	0.00e+00	0	55	0	763363328	50	4118
2026-01-01 22:09:29.15	59.98	18.54	-44.2	-45.2	17.4	0.00e+00	0	55	0	766509056	50	4204
2026-01-01 22:09:30.14	60.20	18.58	-44.1	-45.0	17.6	0.00e+00	0	55	0	769654784	50	4106
2026-01-01 22:09:31.13	60.43	18.61	-44.0	-44.9	17.7	0.00e+00	0	55	0	771751936	50	4056
2026-01-01 22:09:32.12	60.65	18.65	-44.0	-44.9	17.7	0.00e+00	0	55	0	774897664	50	4064
2026-01-01 22:09:33.11	60.87	18.69	-43.9	-44.8	17.9	0.00e+00	0	55	0	778043392	50	4008
2026-01-01 22:09:34.09	61.10	18.73	-43.9	-44.8	17.8	0.00e+00	0	55	0	781189120	50	4020
2026-01-01 22:09:35.08	61.32	18.76	-43.9	-44.8	17.8	0.00e+00	0	55	0	784334848	50	4012
2026-01-01 22:09:36.07	61.55	18.80	-44.1	-45.0	17.6	0.00e+00	0	55	0	787480576	50	4139
2026-01-01 22:09:37.06	61.78	18.84	-43.9	-44.7	17.9	0.00e+00	0	55	0	790626304	50	4000
2026-01-01 22:09:38.04	62.00	18.87	-43.7	-44.5	18.0	0.00e+00	0	55	0	793772032	50	3912
2026-01-01 22:09:39.03	62.23	18.91	-43.7	-44.6	18.1	0.00e+00	0	55	0	796917760	50	3916
2026-01-01 22:09:40.02	62.46	18.94	-43.7	-44.6	18.0	0.00e+00	0	55	0	800063488	50	3918
2026-01-01 22:09:41.01	62.68	18.98	-43.9	-44.8	17.8	0.00e+00	0	55	0	803209216	50	4009
2026-01-01 22:09:42.00	62.91	19.01	-44.1	-44.9	17.6	0.00e+00	0	55	0	806354944	50	4096
2026-01-01 22:09:42.99	63.14	19.05	-43.8	-44.7	17.9	0.00e+00	0	55	0	809500672	50	3965
2026-01-01 22:09:43.98	63.37	19.08	-43.8	-44.7	18.0	0.00e+00	0	55	0	812646400	50	3960
2026-01-01 22:09:44.98	63.61	19.11	-43.7	-44.6	18.0	0.00e+00	0	55	0	815792128	50	3914
2026-01-01 22:09:45.97	63.84	19.15	-43.8	-44.6	18.0	0.00e+00	0	55	0	818937856	50	3944
2026-01-01 22:09:46.95	64.07	19.18	-43.8	-44.7	17.9	0.00e+00	0	55	0	822083584	50	3970
2026-01-01 22:09:47.94	64.30	19.21	-44.1	-45.0	17.7	0.00e+00	0	55	0	825229312	50	4109
2026-01-01 22:09:48.92	64.53	19.24	-43.9	-44.8	17.8	0.00e+00	0	55	0	828375040	50	4020
2026-01-01 22:09:49.91	64.76	19.27	-43.9	-44.7	17.9	0.00e+00	0	55	0	831520768	50	4004
2026-01-01 22:09:50.90	65.00	19.30	-43.9	-44.8	17.8	0.00e+00	0	55	0	833617920	50	4025
2026-01-01 22:09:51.88	65.23	19.33	-44.0	-45.0	17.6	0.00e+00	0	55	0	836763648	50	4104
2026-01-01 22:09:52.87	65.46	19.36	-43.9	-44.8	17.8	0.00e+00	0	55	0	839909376	50	4027
2026-01-01 22:09:53.87	65.70	19.39	-43.9	-44.8	17.8	0.00e+00	0	55	0	843055104	50	4027
2026-01-01 22:09:54.86	65.94	19.42	-44.1	-45.0	17.6	0.00e+00	0	55	0	846200832	50	4131
2026-01-01 22:09:55.86	66.17	19.45	-44.1	-45.0	17.7	0.00e+00	0	55	0	849346560	50	4100
2026-01-01 22:09:56.84	66.41	19.48	-44.1	-45.1	17.6	0.00e+00	0	55	0	852492288	50	4153
2026-01-01 22:09:57.83	66.64	19.50	-44.0	-44.9	17.7	0.00e+00	0	55	0	855638016	50	4095
2026-01-01 22:09:58.82	66.88	19.53	-43.9	-44.8	17.8	0.00e+00	0	55	0	858783744	50	4035
2026-01-01 22:09:59.81	67.12	19.56	-43.8	-44.7	17.9	0.00e+00	0	56	0	861929472	50	3989
2026-01-01 22:10:00.80	67.36	19.58	-43.9	-44.8	17.8	0.00e+00	0	56	0	865075200	50	4020
2026-01-01 22:10:01.79	67.60	19.61	-43.8	-44.7	18.0	0.00e+00	0	55	0	868220928	50	3969
2026-01-01 22:10:02.77	67.83	19.63	-43.8	-44.6	18.0	0.00e+00	0	56	0	871366656	50	3948
2026-01-01 22:10:03.76	68.07	19.66	-43.7	-44.6	17.9	0.00e+00	0	55	0	874512384	50	3933
2026-01-01 22:10:04.75	68.31	19.68	-43.8	-44.6	17.9	0.00e+00	0	56	0	877658112	50	3947
2026-01-01 22:10:05.74	68.55	19.71	-43.8	-44.7	18.0	0.00e+00	0	56	0	880803840	50	3961
2026-01-01 22:10:06.72	68.79	19.73	-43.9	-44.8	17.8	0.00e+00	0	55	0	883949568	50	4020
2026-01-01 22:10:07.72	69.03	19.75	-43.9	-44.8	17.9	0.00e+00	0	55	0	887095296	50	4007
2026-01-01 22:10:08.71	69.27	19.78	-43.9	-44.8	17.8	0.00e+00	0	56	0	890241024	50	4010
2026-01-01 22:10:09.69	69.51	19.80	-44.0	-44.9	17.7	0.00e+00	0	55	0	892338176	50	4085
2026-01-01 22:10:10.68	69.75	19.82	-44.0	-44.9	17.7	0.00e+00	0	56	0	895483904	50	4093
2026-01-01 22:10:11.68	70.00	19.84	-44.1	-45.0	17.6	0.00e+00	0	56	0	898629632	50	4137
2026-01-01 22:10:12.67	70.24	19.86	-44.2	-45.2	17.5	0.00e+00	0	56	0	901775360	50	4214
2026-01-01 22:10:13.66	70.48	19.88	-44.4	-45.3	17.3	0.00e+00	0	56	0	904921088	50	4286
2026-01-01 22:10:14.64	70.72	19.90	-44.3	-45.3	17.3	0.00e+00	0	56	0	908066816	50	4271
2026-01-01 22:10:15.63	70.96	19.92	-44.4	-45.4	17.2	0.00e+00	0	55	0	911212544	50	4326
2026-01-01 22:10:16.62	71.21	19.94	-44.5	-45.5	17.2	0.00e+00	0	56	0	914358272	51	4102
2026-01-01 22:10:17.61	71.45	19.96	-44.3	-45.3	17.2	0.00e+00	0	56	0	917504000	51	4029
2026-01-01 22:10:18.61	71.70	19.97	-44.6	-45.6	17.0	0.00e+00	0	55	0	920649728	51	4174
2026-01-01 22:10:19.60	71.94	19.99	-44.6	-45.6	17.1	0.00e+00	0	55	0	923795456	51	4154
2026-01-01 22:10:20.59	72.19	20.01	-44.7	-45.6	17.0	0.00e+00	0	56	0	926941184	51	4191
2026-01-01 22:10:21.56	72.43	20.02	-44.7	-45.6	17.0	0.00e+00	0	56	0	930086912	51	4188
2026-01-01 22:10:22.55	72.67	20.04	-44.4	-45.4	17.3	0.00e+00	0	56	0	933232640	51	4066
2026-01-01 22:10:23.54	72.92	20.05	-44.3	-45.2	17.4	0.00e+00	0	55	0	936378368	51	3991
2026-01-01 22:10:24.53	73.16	20.07	-44.1	-45.0	17.6	0.00e+00	0	56	0	939524096	51	3905
2026-01-01 22:10:25.51	73.41	20.08	-44.2	-45.1	17.5	0.00e+00	0	56	0	942669824	51	3937
2026-01-01 22:10:26.51	73.65	20.10	-44.1	-45.0	17.6	0.00e+00	0	56	0	945815552	51	3898
2026-01-01 22:10:27.49	73.90	20.11	-44.0	-44.9	17.8	0.00e+00	0	56	0	948961280	51	3841
2026-01-01 22:10:28.48	74.14	20.12	-44.0	-44.9	17.7	0.00e+00	0	56	0	951058432	50	4057
2026-01-01 22:10:29.47	74.39	20.13	-44.1	-45.0	17.7	0.00e+00	0	56	0	954204160	50	4111
2026-01-01 22:10:30.44	74.63	20.14	-44.1	-45.0	17.6	0.00e+00	0	55	0	957349888	50	4140
2026-01-01 22:10:31.43	74.88	20.16	-44.0	-44.9	17.7	0.00e+00	0	56	0	960495616	50	4089
2026-01-01 22:10:32.42	75.13	20.17	-44.0	-44.9	17.7	0.00e+00	0	56	0	963641344	50	4086
2026-01-01 22:10:33.41	75.37	20.18	-44.3	-45.2	17.4	0.00e+00	0	56	0	966787072	50	4242
2026-01-01 22:10:34.39	75.62	20.19	-44.4	-45.3	17.4	0.00e+00	0	56	0	969932800	50	4264
2026-01-01 22:10:35.38	75.87	20.19	-44.1	-45.0	17.6	0.00e+00	0	56	0	973078528	50	4129
2026-01-01 22:10:36.37	76.11	20.20	-44.0	-44.9	17.7	0.00e+00	0	56	0	976224256	50	4080
2026-01-01 22:10:37.36	76.36	20.21	-43.9	-44.8	17.8	0.00e+00	0	56	0	979369984	50	4037
2026-01-01 22:10:38.35	76.61	20.22	-44.0	-44.8	17.8	0.00e+00	0	56	0	982515712	50	4049
2026-01-01 22:10:39.33	76.86	20.22	-44.0	-44.9	17.7	0.00e+00	0	56	0	985661440	50	4071
2026-01-01 22:10:40.32	77.10	20.23	-44.0	-44.9	17.7	0.00e+00	0	56	0	988807168	50	4089
2026-01-01 22:10:41.31	77.35	20.24	-44.0	-44.9	17.8	0.00e+00	0	56	0	991952896	50	4054
2026-01-01 22:10:42.30	77.60	20.24	-44.0	-44.8	17.8	0.00e+00	0	56	0	995098624	50	4041
2026-01-01 22:10:43.30	77.85	20.25	-44.0	-44.9	17.8	0.00e+00	0	56	0	998244352	50	4072
2026-01-01 22:10:44.29	78.10	20.25	-44.0	-44.8	17.8	0.00e+00	0	56	0	1001390080	50	4044
2026-01-01 22:10:45.28	78.35	20.25	-44.2	-45.1	17.5	0.00e+00	0	56	0	1003487232	50	4160
2026-01-01 22:10:46.28	78.60	20.26	-44.3	-45.3	17.4	0.00e+00	0	56	0	1006632960	50	4247
2026-01-01 22:10:47.27	78.85	20.26	-44.3	-45.3	17.4	0.00e+00	0	56	0	1009778688	50	4256
2026-01-01 22:10:48.26	79.10	20.26	-44.3	-45.2	17.4	0.00e+00	0	56	0	1012924416	50	4222
2026-01-01 22:10:49.25	79.35	20.26	-44.4	-45.3	17.4	0.00e+00	0	56	0	1016070144	50	4266
2026-01-01 22:10:50.24	79.60	20.26	-44.5	-45.5	17.2	0.00e+00	0	56	0	1019215872	51	4115
2026-01-01 22:10:51.23	79.84	20.26	-44.4	-45.4	17.3	0.00e+00	0	56	0	1022361600	51	4065
2026-01-01 22:10:52.22	80.09	20.26	-44.6	-45.6	17.0	0.00e+00	0	56	0	1025507328	51	4160
2026-01-01 22:10:53.21	80.34	20.26	-44.3	-45.3	17.3	0.00e+00	0	56	0	1028653056	51	4024
2026-01-01 22:10:54.20	80.59	20.26	-44.3	-45.3	17.3	0.00e+00	0	56	0	1031798784	51	4016
2026-01-01 22:10:55.19	80.84	20.26	-44.2	-45.2	17.5	0.00e+00	0	56	0	1034944512	51	3960
2026-01-01 22:10:56.18	81.09	20.26	-44.2	-45.1	17.5	0.00e+00	0	56	0	1038090240	51	3920
2026-01-01 22:10:57.16	81.34	20.25	-44.2	-45.1	17.6	0.00e+00	0	56	0	1041235968	51	3927
2026-01-01 22:10:58.16	81.59	20.25	-44.3	-45.2	17.5	0.00e+00	0	56	0	1044381696	51	3987
2026-01-01 22:10:59.15	81.84	20.25	-44.2	-45.1	17.5	0.00e+00	0	56	0	1047527424	51	3957
2026-01-01 22:11:00.13	82.08	20.24	-44.3	-45.2	17.4	0.00e+00	0	56	0	1050673152	51	4002
2026-01-01 22:11:01.12	82.33	20.24	-44.5	-45.4	17.2	0.00e+00	0	56	0	1053818880	51	4093
2026-01-01 22:11:02.11	82.58	20.23	-44.3	-45.2	17.5	0.00e+00	0	56	0	1056964608	51	3990
2026-01-01 22:11:03.09	82.82	20.23	-44.2	-45.2	17.5	0.00e+00	0	56	0	1060110336	51	3960
2026-01-01 22:11:04.08	83.07	20.22	-44.2	-45.1	17.5	0.00e+00	0	56	0	1063256064	51	3942
2026-01-01 22:11:05.08	83.32	20.21	-44.5	-45.4	17.3	0.00e+00	0	56	0	1065353216	51	4081
2026-01-01 22:11:06.07	83.57	20.21	-44.1	-45.0	17.6	0.00e+00	0	56	0	1068498944	51	3897
2026-01-01 22:11:07.06	83.82	20.20	-43.9	-44.7	17.9	0.00e+00	0	56	0	1071644672	51	3774
2026-01-01 22:11:08.05	84.07	20.19	-43.9	-44.8	17.9	0.00e+00	0	56	0	1074790400	50	4005
2026-01-01 22:11:09.04	84.31	20.18	-44.1	-45.0	17.7	0.00e+00	0	56	0	1077936128	50	4104
2026-01-01 22:11:10.03	84.56	20.17	-44.0	-44.9	17.7	0.00e+00	0	56	0	1081081856	50	4062
2026-01-01 22:11:11.02	84.81	20.16	-44.1	-45.0	17.7	0.00e+00	0	56	0	1084227584	50	4112
2026-01-01 22:11:12.01	85.06	20.15	-44.2	-45.1	17.5	0.00e+00	0	56	0	1087373312	50	4161
2026-01-01 22:11:12.99	85.30	20.14	-44.4	-45.3	17.3	0.00e+00	0	56	0	1090519040	50	4259
2026-01-01 22:11:13.99	85.55	20.13	-44.2	-45.1	17.5	0.00e+00	0	56	0	1093664768	50	4160
2026-01-01 22:11:14.98	85.80	20.11	-44.5	-45.4	17.3	0.00e+00	0	56	0	1096810496	50	4322
2026-01-01 22:11:15.97	86.04	20.10	-44.7	-45.6	17.0	0.00e+00	0	56	0	1099956224	51	4192
2026-01-01 22:11:16.96	86.29	20.09	-44.4	-45.3	17.3	0.00e+00	0	56	0	1103101952	51	4051
2026-01-01 22:11:17.95	86.54	20.07	-44.5	-45.5	17.2	0.00e+00	0	56	0	1106247680	51	4102
2026-01-01 22:11:18.94	86.78	20.06	-44.2	-45.1	17.5	0.00e+00	0	56	0	1109393408	51	3955
2026-01-01 22:11:19.93	87.03	20.04	-44.1	-45.0	17.6	0.00e+00	0	56	0	1112539136	51	3887
2026-01-01 22:11:20.92	87.27	20.03	-44.0	-44.8	17.8	0.00e+00	0	56	0	1115684864	51	3816
2026-01-01 22:11:21.91	87.52	20.01	-44.2	-45.1	17.6	0.00e+00	0	56	0	1118830592	51	3923
2026-01-01 22:11:22.90	87.76	20.00	-44.1	-45.0	17.6	0.00e+00	0	56	0	1121976320	51	3911
2026-01-01 22:11:23.89	88.01	19.98	-44.0	-44.9	17.8	0.00e+00	0	56	0	1125122048	51	3826
2026-01-01 22:11:24.87	88.25	19.96	-44.1	-45.0	17.7	0.00e+00	0	56	0	1127219200	51	3881
2026-01-01 22:11:25.85	88.49	19.94	-44.4	-45.4	17.3	0.00e+00	0	56	0	1130364928	51	4061
2026-01-01 22:11:26.84	88.74	19.93	-44.1	-45.0	17.6	0.00e+00	0	56	0	1133510656	51	3900
2026-01-01 22:11:27.83	88.98	19.91	-44.0	-44.8	17.8	0.00e+00	0	56	0	1136656384	51	3819
2026-01-01 22:11:28.82	89.22	19.89	-43.8	-44.6	18.0	0.00e+00	0	56	0	1139802112	50	3956
2026-01-01 22:11:29.80	89.46	19.87	-43.7	-44.5	18.1	0.00e+00	0	56	0	1142947840	50	3910
2026-01-01 22:11:30.78	89.70	19.85	-43.8	-44.6	18.0	0.00e+00	0	56	0	1146093568	50	3940
2026-01-01 22:11:31.76	89.94	19.83	-43.7	-44.5	18.1	0.00e+00	0	56	0	1149239296	50	3891
2026-01-01 22:11:32.75	90.19	19.81	-43.6	-44.4	18.2	0.00e+00	0	56	0	1152385024	50	3865
2026-01-01 22:11:33.74	90.43	19.78	-43.7	-44.5	18.1	0.00e+00	0	56	0	1155530752	50	3885
2026-01-01 22:11:34.73	90.67	19.76	-43.9	-44.8	17.8	0.00e+00	0	56	0	1158676480	50	4024
2026-01-01 22:11:35.72	90.91	19.74	-43.8	-44.7	17.9	0.00e+00	0	56	0	1161822208	50	3975
2026-01-01 22:11:36.71	91.15	19.72	-43.8	-44.6	18.0	0.00e+00	0	56	0	1164967936	50	3934
2026-01-01 22:11:37.71	91.39	19.69	-43.7	-44.6	18.1	0.00e+00	0	56	0	1168113664	50	3919
2026-01-01 22:11:38.70	91.63	19.67	-43.8	-44.6	18.0	0.00e+00	0	56	0	1171259392	50	3933
2026-01-01 22:11:39.69	91.87	19.64	-43.7	-44.6	18.1	0.00e+00	0	56	0	1174405120	50	3921
2026-01-01 22:11:40.68	92.11	19.62	-43.6	-44.5	18.2	0.00e+00	0	56	0	1177550848	50	3882
2026-01-01 22:11:41.67	92.35	19.59	-43.7	-44.6	18.0	0.00e+00	0	56	0	1180696576	50	3915
2026-01-01 22:11:42.66	92.59	19.57	-43.9	-44.7	17.9	0.00e+00	0	56	0	1183842304	50	3986
2026-01-01 22:11:43.65	92.83	19.54	-44.0	-44.8	17.8	0.00e+00	0	56	0	1186988032	50	4049
2026-01-01 22:11:44.64	93.06	19.51	-44.0	-44.9	17.7	0.00e+00	0	56	0	1189085184	50	4070
2026-01-01 22:11:45.63	93.30	19.49	-44.1	-45.0	17.6	0.00e+00	0	56	0	1192230912	50	4126
2026-01-01 22:11:46.62	93.54	19.46	-44.1	-45.1	17.6	0.00e+00	0	56	0	1195376640	50	4155
2026-01-01 22:11:47.61	93.78	19.43	-44.1	-45.0	17.7	0.00e+00	0	56	0	1198522368	50	4136
2026-01-01 22:11:48.61	94.01	19.40	-44.3	-45.2	17.4	0.00e+00	0	56	0	1201668096	50	4215
2026-01-01 22:11:49.58	94.24	19.37	-44.2	-45.1	17.5	0.00e+00	0	56	0	1204813824	50	4171
2026-01-01 22:11:50.57	94.48	19.34	-43.9	-44.8	17.9	0.00e+00	0	56	0	1207959552	50	4020
2026-01-01 22:11:51.57	94.72	19.31	-43.8	-44.6	18.0	0.00e+00	0	56	0	1211105280	50	3947
2026-01-01 22:11:52.55	94.95	19.28	-43.9	-44.8	17.9	0.00e+00	0	56	0	1214251008	50	4008
2026-01-01 22:11:53.55	95.18	19.25	-43.9	-44.8	17.9	0.00e+00	0	56	0	1217396736	50	4031
2026-01-01 22:11:54.54	95.42	19.22	-43.8	-44.6	18.0	0.00e+00	0	56	0	1220542464	50	3958
2026-01-01 22:11:55.54	95.65	19.19	-43.7	-44.6	18.1	0.00e+00	0	56	0	1223688192	50	3917
2026-01-01 22:11:56.51	95.88	19.16	-43.7	-44.6	18.1	0.00e+00	0	56	0	1226833920	50	3915
2026-01-01 22:11:57.50	96.11	19.12	-43.8	-44.7	17.9	0.00e+00	0	56	0	1229979648	50	3982
2026-01-01 22:11:58.49	96.34	19.09	-43.9	-44.7	17.9	0.00e+00	0	56	0	1233125376	50	4004
2026-01-01 22:11:59.48	96.58	19.06	-43.9	-44.7	17.9	0.00e+00	0	56	0	1236271104	50	3997
2026-01-01 22:12:00.48	96.81	19.02	-44.0	-44.9	17.7	0.00e+00	0	56	0	1239416832	50	4084
2026-01-01 22:12:01.46	97.04	18.99	-44.0	-44.9	17.7	0.00e+00	0	56	0	1242562560	50	4090
2026-01-01 22:12:02.45	97.27	18.95	-43.8	-44.6	18.0	0.00e+00	0	56	0	1245708288	50	3945
2026-01-01 22:12:03.44	97.49	18.92	-43.7	-44.6	18.0	0.00e+00	0	56	0	1248854016	50	3926
2026-01-01 22:12:04.43	97.72	18.88	-44.0	-44.8	17.8	0.00e+00	0	56	0	1250951168	50	4029
2026-01-01 22:12:05.42	97.95	18.85	-44.0	-44.9	17.7	0.00e+00	0	56	0	1254096896	50	4072
2026-01-01 22:12:06.41	98.18	18.81	-44.0	-44.9	17.8	0.00e+00	0	56	0	1257242624	50	4060
2026-01-01 22:12:07.40	98.40	18.77	-44.1	-45.0	17.7	0.00e+00	0	56	0	1260388352	50	4122
2026-01-01 22:12:08.39	98.63	18.74	-44.2	-45.1	17.5	0.00e+00	0	56	0	1263534080	50	4167
2026-01-01 22:12:09.38	98.86	18.70	-44.0	-44.9	17.8	0.00e+00	0	56	0	1266679808	50	4080
2026-01-01 22:12:10.38	99.08	18.66	-43.8	-44.7	17.9	0.00e+00	0	56	0	1269825536	50	3995
2026-01-01 22:12:11.36	99.31	18.62	-43.8	-44.6	18.0	0.00e+00	0	56	0	1272971264	50	3938
2026-01-01 22:12:12.35	99.53	18.59	-43.8	-44.6	17.9	0.00e+00	0	56	0	1276116992	50	3958
2026-01-01 22:12:13.33	99.75	18.55	-43.8	-44.6	17.9	0.00e+00	0	56	0	1279262720	50	3952
2026-01-01 22:12:14.32	99.98	18.51	-43.8	-44.7	17.8	0.00e+00	0	56	0	1282408448	50	3985
2026-01-01 22:12:15.31	100.20	18.47	-43.9	-44.8	17.9	0.00e+00	0	56	0	1285554176	50	4028
2026-01-01 22:12:16.30	100.42	18.43	-43.8	-44.7	18.0	0.00e+00	0	56	0	1288699904	50	3964
2026-01-01 22:12:17.30	100.64	18.39	-43.8	-44.7	18.0	0.00e+00	0	56	0	1291845632	50	3979
2026-01-01 22:12:18.28	100.86	18.35	-43.9	-44.8	17.9	0.00e+00	0	56	0	1294991360	50	4011
2026-01-01 22:12:19.28	101.08	18.31	-43.9	-44.7	17.9	0.00e+00	0	56	0	1298137088	50	3996
2026-01-01 22:12:20.27	101.30	18.26	-44.0	-44.9	17.7	0.00e+00	0	56	0	1301282816	50	4065
2026-01-01 22:12:21.27	101.53	18.22	-43.9	-44.8	17.8	0.00e+00	0	56	0	1304428544	50	4024
2026-01-01 22:12:22.26	101.74	18.18	-43.8	-44.7	17.9	0.00e+00	0	56	0	1307574272	50	3986
2026-01-01 22:12:23.25	101.96	18.14	-44.0	-44.9	17.7	0.00e+00	0	56	0	1310720000	50	4071
2026-01-01 22:12:24.24	102.18	18.10	-44.2	-45.1	17.4	0.00e+00	0	56	0	1313865728	50	4192
2026-01-01 22:12:25.24	102.40	18.05	-44.2	-45.1	17.5	0.00e+00	0	56	0	1315962880	50	4157
2026-01-01 22:12:26.22	102.61	18.01	-44.3	-45.2	17.4	0.00e+00	0	56	0	1319108608	50	4219
2026-01-01 22:12:27.22	102.83	17.97	-44.1	-45.0	17.6	0.00e+00	0	56	0	1322254336	50	4110
2026-01-01 22:12:28.20	103.04	17.92	-44.1	-45.0	17.6	0.00e+00	0	56	0	1325400064	50	4129
2026-01-01 22:12:29.19	103.26	17.88	-44.1	-45.0	17.6	0.00e+00	0	56	0	1328545792	50	4136
2026-01-01 22:12:30.17	103.47	17.83	-44.3	-45.2	17.4	0.00e+00	0	56	0	1331691520	50	4232
2026-01-01 22:12:31.16	103.68	17.79	-44.4	-45.3	17.3	0.00e+00	0	57	0	1334837248	50	4269
2026-01-01 22:12:32.15	103.89	17.74	-44.3	-45.2	17.5	0.00e+00	0	56	0	1337982976	50	4216
2026-01-01 22:12:33.15	104.11	17.70	-44.2	-45.1	17.5	0.00e+00	0	57	0	1341128704	50	4181
2026-01-01 22:12:34.13	104.32	17.65	-44.3	-45.3	17.3	0.00e+00	0	56	0	1344274432	50	4254
2026-01-01 22:12:35.13	104.53	17.61	-44.4	-45.3	17.3	0.00e+00	0	56	0	1347420160	50	4265
2026-01-01 22:12:36.12	104.74	17.56	-44.4	-45.4	17.3	0.00e+00	0	56	0	1350565888	50	4296
2026-01-01 22:12:37.11	104.95	17.51	-44.5	-45.4	17.2	0.00e+00	0	56	0	1353711616	50	4333
2026-01-01 22:12:38.10	105.16	17.47	-44.4	-45.4	17.2	0.00e+00	0	56	0	1356857344	50	4304
2026-01-01 22:12:39.08	105.36	17.42	-44.3	-45.2	17.4	0.00e+00	0	56	0	1360003072	50	4227
2026-01-01 22:12:40.07	105.57	17.37	-44.3	-45.3	17.3	0.00e+00	0	56	0	1363148800	50	4254
2026-01-01 22:12:41.06	105.78	17.33	-44.1	-45.1	17.5	0.00e+00	0	56	0	1366294528	50	4162
2026-01-01 22:12:42.05	105.98	17.28	-44.2	-45.1	17.4	0.00e+00	0	56	0	1369440256	50	4177
2026-01-01 22:12:43.04	106.19	17.23	-44.0	-44.9	17.7	0.00e+00	0	56	0	1372585984	50	4055
2026-01-01 22:12:44.03	106.39	17.18	-43.9	-44.7	17.8	0.00e+00	0	56	0	1374683136	50	4004
2026-01-01 22:12:45.02	106.60	17.13	-44.0	-44.9	17.7	0.00e+00	0	56	0	1377828864	50	4091
2026-01-01 22:12:46.00	106.80	17.08	-44.0	-44.9	17.6	0.00e+00	0	56	0	1380974592	50	4088
2026-01-01 22:12:47.00	107.01	17.03	-44.3	-45.3	17.3	0.00e+00	0	56	0	1384120320	50	4248
2026-01-01 22:12:47.99	107.21	16.98	-44.2	-45.2	17.4	0.00e+00	0	57	0	1387266048	50	4200
2026-01-01 22:12:48.98	107.41	16.94	-44.4	-45.4	17.2	0.00e+00	0	57	0	1390411776	50	4319
2026-01-01 22:12:49.97	107.61	16.89	-44.8	-45.9	16.7	0.00e+00	0	56	0	1393557504	51	4293
2026-01-01 22:12:50.96	107.81	16.84	-44.8	-45.8	16.9	0.00e+00	0	57	0	1396703232	51	4272
2026-01-01 22:12:51.96	108.01	16.78	-45.0	-46.0	16.6	0.00e+00	0	57	0	1399848960	51	4384
2026-01-01 22:12:52.94	108.21	16.73	-45.1	-46.1	16.4	0.00e+00	0	56	0	1402994688	52	4182
2026-01-01 22:12:53.93	108.41	16.68	-44.9	-46.0	16.6	0.00e+00	0	56	0	1406140416	52	4118
2026-01-01 22:12:54.92	108.61	16.63	-44.8	-45.9	16.7	0.00e+00	0	56	0	1409286144	52	4052
2026-01-01 22:12:55.91	108.80	16.58	-44.7	-45.8	16.8	0.00e+00	0	57	0	1412431872	52	4012
2026-01-01 22:12:56.90	109.00	16.53	-44.6	-45.6	16.9	0.00e+00	0	56	0	1415577600	52	3952
2026-01-01 22:12:57.89	109.20	16.48	-44.6	-45.6	17.0	0.00e+00	0	56	0	1418723328	52	3932
2026-01-01 22:12:58.88	109.39	16.43	-44.5	-45.5	17.0	0.00e+00	0	57	0	1421869056	52	3884
2026-01-01 22:12:59.87	109.59	16.37	-44.7	-45.7	16.8	0.00e+00	0	56	0	1425014784	52	4003
2026-01-01 22:13:00.86	109.78	16.32	-44.6	-45.6	16.9	0.00e+00	0	56	0	1428160512	52	3943
2026-01-01 22:13:01.86	109.98	16.27	-44.4	-45.3	17.1	0.00e+00	0	57	0	1431306240	52	3821
2026-01-01 22:13:02.85	110.17	16.22	-44.4	-45.4	17.2	0.00e+00	0	57	0	1434451968	51	4054
2026-01-01 22:13:03.83	110.36	16.16	-44.6	-45.6	17.1	0.00e+00	0	57	0	1436549120	51	4147
2026-01-01 22:13:04.82	110.55	16.11	-44.6	-45.6	17.0	0.00e+00	0	56	0	1439694848	51	4174
2026-01-01 22:13:05.82	110.74	16.06	-44.7	-45.7	16.9	0.00e+00	0	57	0	1442840576	51	4236
2026-01-01 22:13:06.81	110.93	16.00	-44.8	-45.8	16.8	0.00e+00	0	57	0	1445986304	51	4252
2026-01-01 22:13:07.79	111.12	15.95	-44.8	-45.8	16.7	0.00e+00	0	56	0	1449132032	51	4291
2026-01-01 22:13:08.78	111.31	15.90	-44.9	-46.0	16.7	0.00e+00	0	56	0	1452277760	51	4367
2026-01-01 22:13:09.76	111.50	15.84	-44.7	-45.7	16.8	0.00e+00	0	56	0	1455423488	51	4233
2026-01-01 22:13:10.75	111.68	15.79	-44.7	-45.7	17.0	0.00e+00	0	56	0	1458569216	51	4200
2026-01-01 22:13:11.74	111.87	15.74	-44.6	-45.6	17.1	0.00e+00	0	56	0	1461714944	51	4153
2026-01-01 22:13:12.73	112.06	15.68	-44.5	-45.5	17.1	0.00e+00	0	57	0	1464860672	51	4115
2026-01-01 22:13:13.72	112.24	15.63	-44.5	-45.4	17.2	0.00e+00	0	56	0	1468006400	51	4082
2026-01-01 22:13:14.72	112.43	15.57	-44.7	-45.7	16.9	0.00e+00	0	56	0	1471152128	51	4222
2026-01-01 22:13:15.71	112.61	15.52	-44.6	-45.6	17.0	0.00e+00	0	56	0	1474297856	51	4187
2026-01-01 22:13:16.69	112.79	15.46	-44.4	-45.4	17.1	0.00e+00	0	56	0	1477443584	51	4084
2026-01-01 22:13:17.68	112.98	15.41	-44.4	-45.4	17.3	0.00e+00	0	57	0	1480589312	51	4055
2026-01-01 22:13:18.68	113.16	15.35	-44.4	-45.4	17.2	0.00e+00	0	56	0	1483735040	51	4075
2026-01-01 22:13:19.66	113.34	15.30	-44.6	-45.6	17.0	0.00e+00	0	57	0	1486880768	51	4146
2026-01-01 22:13:20.65	113.52	15.24	-44.8	-45.9	16.8	0.00e+00	0	56	0	1490026496	51	4303
2026-01-01 22:13:21.64	113.70	15.19	-44.7	-45.7	16.9	0.00e+00	0	56	0	1493172224	51	4242
2026-01-01 22:13:22.63	113.88	15.13	-44.7	-45.7	16.8	0.00e+00	0	57	0	1495269376	51	4236
2026-01-01 22:13:23.62	114.06	15.07	-44.8	-45.9	16.7	0.00e+00	0	57	0	1498415104	51	4302
2026-01-01 22:13:24.61	114.24	15.02	-44.9	-46.0	16.7	0.00e+00	0	56	0	1501560832	51	4343
2026-01-01 22:13:25.60	114.42	14.96	-44.9	-46.0	16.6	0.00e+00	0	57	0	1504706560	51	4356
2026-01-01 22:13:26.59	114.59	14.90	-45.0	-46.1	16.4	0.00e+00	0	57	0	1507852288	51	4423
2026-01-01 22:13:27.58	114.77	14.85	-45.0	-46.1	16.4	0.00e+00	0	57	0	1510998016	52	4153
2026-01-01 22:13:28.57	114.94	14.79	-45.1	-46.2	16.3	0.00e+00	0	57	0	1514143744	52	4242
2026-01-01 22:13:29.55	115.12	14.74	-45.1	-46.2	16.3	0.00e+00	0	57	0	1517289472	52	4199
2026-01-01 22:13:30.54	115.29	14.68	-44.9	-45.9	16.6	0.00e+00	0	57	0	1520435200	52	4078
2026-01-01 22:13:31.53	115.47	14.62	-44.7	-45.8	16.7	0.00e+00	0	57	0	1523580928	52	4029
2026-01-01 22:13:32.52	115.64	14.56	-44.7	-45.7	16.9	0.00e+00	0	57	0	1526726656	52	3967
2026-01-01 22:13:33.51	115.81	14.51	-44.6	-45.7	16.8	0.00e+00	0	57	0	1529872384	52	3962
2026-01-01 22:13:34.50	115.98	14.45	-44.7	-45.7	16.8	0.00e+00	0	57	0	1533018112	52	3989
2026-01-01 22:13:35.49	116.15	14.39	-44.8	-45.9	16.6	0.00e+00	0	56	0	1536163840	52	4059
2026-01-01 22:13:36.49	116.33	14.33	-44.8	-45.8	16.7	0.00e+00	0	57	0	1539309568	52	4039
2026-01-01 22:13:37.47	116.50	14.28	-44.6	-45.6	16.9	0.00e+00	0	57	0	1542455296	52	3939
2026-01-01 22:13:38.45	116.66	14.22	-44.5	-45.5	17.0	0.00e+00	0	57	0	1545601024	52	3903
2026-01-01 22:13:39.44	116.83	14.16	-44.7	-45.7	16.8	0.00e+00	0	57	0	1548746752	52	3974
2026-01-01 22:13:40.43	117.00	14.11	-44.6	-45.7	16.8	0.00e+00	0	57	0	1550843904	52	3984
2026-01-01 22:13:41.42	117.17	14.05	-44.6	-45.7	16.8	0.00e+00	0	57	0	1553989632	52	3960
2026-01-01 22:13:42.41	117.33	13.99	-44.7	-45.7	16.8	0.00e+00	0	57	0	1557135360	52	3980
2026-01-01 22:13:43.40	117.50	13.93	-44.8	-45.8	16.7	0.00e+00	0	57	0	1560281088	52	4034
2026-01-01 22:13:44.39	117.67	13.87	-44.9	-45.9	16.6	0.00e+00	0	56	0	1563426816	52	4095
2026-01-01 22:13:45.38	117.83	13.81	-44.7	-45.7	16.8	0.00e+00	0	56	0	1566572544	52	3982
2026-01-01 22:13:46.37	117.99	13.76	-44.6	-45.6	16.8	0.00e+00	0	57	0	1569718272	52	3939
2026-01-01 22:13:47.36	118.16	13.70	-44.5	-45.5	16.9	0.00e+00	0	56	0	1572864000	52	3905
2026-01-01 22:13:48.34	118.32	13.64	-44.5	-45.5	17.0	0.00e+00	0	57	0	1576009728	52	3883
2026-01-01 22:13:49.33	118.48	13.58	-44.5	-45.6	16.9	0.00e+00	0	57	0	1579155456	52	3929
2026-01-01 22:13:50.32	118.64	13.52	-44.7	-45.7	16.7	0.00e+00	0	57	0	1582301184	52	4004
2026-01-01 22:13:51.31	118.81	13.46	-44.5	-45.5	16.9	0.00e+00	0	57	0	1585446912	52	3903
2026-01-01 22:13:52.30	118.97	13.41	-44.4	-45.4	17.1	0.00e+00	0	56	0	1588592640	51	4078
2026-01-01 22:13:53.29	119.13	13.35	-44.4	-45.3	17.2	0.00e+00	0	57	0	1591738368	51	4044
2026-01-01 22:13:54.29	119.29	13.29	-44.3	-45.2	17.3	0.00e+00	0	57	0	1594884096	51	4002
2026-01-01 22:13:55.28	119.45	13.23	-44.4	-45.4	17.1	0.00e+00	0	57	0	1598029824	51	4072
2026-01-01 22:13:56.28	119.61	13.17	-44.5	-45.4	17.1	0.00e+00	0	57	0	1601175552	51	4093
2026-01-01 22:13:57.26	119.76	13.11	-44.6	-45.7	16.9	0.00e+00	0	57	0	1604321280	51	4197
2026-01-01 22:13:58.25	119.92	13.05	-44.8	-45.8	16.8	0.00e+00	0	57	0	1607467008	51	4257
2026-01-01 22:13:59.24	120.07	12.99	-44.5	-45.5	17.0	0.00e+00	0	57	0	1610612736	51	4116
2026-01-01 22:14:00.23	120.23	12.93	-44.4	-45.4	17.2	0.00e+00	0	57	0	1612709888	51	4059
2026-01-01 22:14:01.22	120.38	12.87	-44.5	-45.5	17.0	0.00e+00	0	57	0	1615855616	51	4103
2026-01-01 22:14:02.21	120.54	12.81	-44.6	-45.6	16.9	0.00e+00	0	57	0	1619001344	51	4191
2026-01-01 22:14:03.20	120.69	12.76	-44.6	-45.8	16.8	0.00e+00	0	57	0	1622147072	51	4247
2026-01-01 22:14:04.19	120.85	12.70	-44.7	-45.7	16.8	0.00e+00	0	57	0	1625292800	51	4242
2026-01-01 22:14:05.18	121.00	12.64	-44.7	-45.7	16.8	0.00e+00	0	57	0	1628438528	51	4230
2026-01-01 22:14:06.16	121.15	12.58	-44.9	-45.9	16.6	0.00e+00	0	57	0	1631584256	51	4328
2026-01-01 22:14:07.14	121.30	12.52	-44.8	-45.9	16.7	0.00e+00	0	57	0	1634729984	51	4300
2026-01-01 22:14:08.13	121.45	12.46	-44.8	-45.8	16.7	0.00e+00	0	56	0	1637875712	51	4268
2026-01-01 22:14:09.12	121.60	12.40	-44.9	-45.9	16.6	0.00e+00	0	57	0	1641021440	51	4317
2026-01-01 22:14:10.11	121.75	12.34	-45.0	-46.1	16.5	0.00e+00	0	57	0	1644167168	51	4406
2026-01-01 22:14:11.10	121.90	12.28	-45.0	-46.1	16.5	0.00e+00	0	57	0	1647312896	51	4395
2026-01-01 22:14:12.09	122.05	12.22	-45.0	-46.1	16.3	0.00e+00	0	57	0	1650458624	52	4185
2026-01-01 22:14:13.09	122.20	12.16	-45.0	-46.1	16.3	0.00e+00	0	57	0	1653604352	52	4162
2026-01-01 22:14:14.08	122.35	12.10	-45.0	-46.1	16.4	0.00e+00	0	57	0	1656750080	52	4152
2026-01-01 22:14:15.07	122.49	12.04	-45.0	-46.1	16.3	0.00e+00	0	57	0	1659895808	52	4175
2026-01-01 22:14:16.06	122.64	11.98	-45.1	-46.2	16.2	0.00e+00	0	57	0	1663041536	52	4236
2026-01-01 22:14:17.05	122.78	11.92	-45.0	-46.1	16.3	0.00e+00	0	57	0	1666187264	52	4187
2026-01-01 22:14:18.04	122.93	11.86	-45.0	-46.2	16.2	0.00e+00	0	57	0	1669332992	52	4204
2026-01-01 22:14:19.03	123.07	11.80	-45.0	-46.2	16.2	0.00e+00	0	57	0	1671430144	52	4210
2026-01-01 22:14:20.01	123.22	11.74	-45.2	-46.4	16.1	0.00e+00	0	57	0	1674575872	52	4299
2026-01-01 22:14:21.00	123.36	11.68	-45.3	-46.4	16.0	0.00e+00	0	57	0	1677721600	52	4335
2026-01-01 22:14:21.99	123.50	11.62	-45.3	-46.5	15.9	0.00e+00	0	57	0	1680867328	52	4375
2026-01-01 22:14:22.97	123.64	11.56	-45.4	-46.6	15.9	0.00e+00	0	57	0	1684013056	52	4400
2026-01-01 22:14:23.96	123.79	11.50	-45.5	-46.7	15.7	7.00e-07	0	57	0	1687158784	52	4465
2026-01-01 22:14:24.95	123.93	11.44	-45.3	-46.5	15.9	0.00e+00	0	57	0	1690304512	52	4369
2026-01-01 22:14:25.92	124.06	11.39	-45.2	-46.3	16.1	0.00e+00	0	57	0	1693450240	52	4282
2026-01-01 22:14:26.91	124.20	11.33	-45.1	-46.3	16.1	0.00e+00	0	57	0	1696595968	52	4245
2026-01-01 22:14:27.90	124.34	11.27	-45.1	-46.2	16.2	0.00e+00	0	57	0	1699741696	52	4215
2026-01-01 22:14:28.88	124.48	11.21	-45.0	-46.2	16.2	0.00e+00	0	57	0	1702887424	52	4204
2026-01-01 22:14:29.87	124.62	11.15	-45.2	-46.3	16.1	0.00e+00	0	57	0	1706033152	52	4257
2026-01-01 22:14:30.85	124.76	11.09	-45.1	-46.2	16.2	0.00e+00	0	57	0	1709178880	52	4212
2026-01-01 22:14:31.84	124.89	11.03	-45.0	-46.1	16.2	0.00e+00	0	57	0	1712324608	52	4176
2026-01-01 22:14:32.82	125.03	10.97	-45.0	-46.2	16.2	0.00e+00	0	57	0	1715470336	52	4198
2026-01-01 22:14:33.81	125.17	10.91	-45.0	-46.2	16.2	0.00e+00	0	57	0	1718616064	52	4195
2026-01-01 22:14:34.80	125.30	10.85	-45.1	-46.2	16.1	0.00e+00	0	57	0	1721761792	52	4239
2026-01-01 22:14:35.79	125.44	10.79	-45.3	-46.5	15.9	0.00e+00	0	57	0	1724907520	52	4371
2026-01-01 22:14:36.79	125.57	10.73	-45.2	-46.4	16.0	0.00e+00	0	57	0	1728053248	52	4313
2026-01-01 22:14:37.78	125.71	10.67	-45.4	-46.6	15.8	0.00e+00	0	57	0	1730150400	52	4394
2026-01-01 22:14:38.77	125.84	10.61	-45.4	-46.6	15.8	0.00e+00	0	57	0	1733296128	52	4411
2026-01-01 22:14:39.75	125.97	10.55	-45.5	-46.7	15.7	0.00e+00	0	57	0	1736441856	52	4488
2026-01-01 22:14:40.74	126.11	10.49	-45.6	-46.9	15.4	0.00e+00	0	57	0	1739587584	53	4326
2026-01-01 22:14:41.74	126.24	10.43	-45.6	-46.9	15.5	0.00e+00	0	57	0	1742733312	53	4297
2026-01-01 22:14:42.73	126.37	10.37	-45.6	-46.9	15.5	0.00e+00	0	57	0	1745879040	53	4306
2026-01-01 22:14:43.72	126.50	10.31	-45.7	-47.0	15.4	0.00e+00	0	57	0	1749024768	53	4345
2026-01-01 22:14:44.71	126.63	10.25	-45.7	-46.9	15.4	0.00e+00	0	57	0	1752170496	53	4327
2026-01-01 22:14:45.70	126.76	10.19	-45.7	-47.0	15.4	0.00e+00	0	57	0	1755316224	53	4359
2026-01-01 22:14:46.69	126.89	10.13	-45.9	-47.2	15.2	0.00e+00	0	57	0	1758461952	53	4460
2026-01-01 22:14:47.68	127.02	10.07	-45.8	-47.1	15.3	0.00e+00	0	57	0	1761607680	53	4425
2026-01-01 22:14:48.67	127.15	10.01	-45.7	-47.0	15.4	0.00e+00	0	57	0	1764753408	53	4359
2026-01-01 22:14:49.65	127.28	9.95	-45.5	-46.8	15.5	0.00e+00	0	57	0	1767899136	53	4291
2026-01-01 22:14:50.65	127.41	9.89	-45.6	-46.9	15.5	0.00e+00	0	57	0	1771044864	53	4303
2026-01-01 22:14:51.63	127.53	9.83	-45.7	-47.0	15.3	0.00e+00	0	57	0	1774190592	53	4363
2026-01-01 22:14:52.63	127.66	9.77	-45.7	-46.9	15.4	0.00e+00	0	57	0	1777336320	53	4337
2026-01-01 22:14:53.62	127.79	9.71	-45.6	-46.9	15.4	0.00e+00	0	57	0	1780482048	53	4296
2026-01-01 22:14:54.61	127.91	9.65	-45.5	-46.8	15.6	0.00e+00	0	57	0	1783627776	53	4251
2026-01-01 22:14:55.59	128.03	9.59	-45.5	-46.8	15.6	0.00e+00	0	57	0	1786773504	53	4256
2026-01-01 22:14:56.58	128.16	9.54	-45.7	-46.9	15.4	0.00e+00	0	57	0	1788870656	53	4338
2026-01-01 22:14:57.57	128.28	9.48	-45.6	-46.9	15.4	0.00e+00	0	57	0	1792016384	53	4339
2026-01-01 22:14:58.56	128.41	9.42	-45.6	-46.9	15.4	0.00e+00	0	57	0	1795162112	53	4319
2026-01-01 22:14:59.54	128.53	9.36	-45.6	-46.9	15.4	0.00e+00	0	57	0	1798307840	53	4324
2026-01-01 22:15:00.53	128.65	9.30	-45.7	-47.0	15.3	0.00e+00	0	57	0	1801453568	53	4389
2026-01-01 22:15:01.52	128.77	9.24	-45.7	-47.1	15.3	0.00e+00	0	57	0	1804599296	53	4397
2026-01-01 22:15:02.50	128.89	9.18	-45.7	-47.0	15.3	0.00e+00	0	57	0	1807745024	53	4389
2026-01-01 22:15:03.49	129.02	9.12	-45.9	-47.2	15.1	0.00e+00	0	57	0	1810890752	53	4490
2026-01-01 22:15:04.49	129.14	9.06	-46.0	-47.3	15.0	0.00e+00	0	57	0	1814036480	53	4545
2026-01-01 22:15:05.48	129.26	9.00	-45.9	-47.3	15.0	0.00e+00	0	57	0	1817182208	53	4514
2026-01-01 22:15:06.47	129.38	8.94	-45.9	-47.3	15.0	0.00e+00	0	57	0	1820327936	53	4537
2026-01-01 22:15:07.45	129.50	8.88	-45.9	-47.2	15.1	0.00e+00	0	57	0	1823473664	53	4473
2026-01-01 22:15:08.44	129.61	8.82	-45.8	-47.1	15.2	0.00e+00	0	57	0	1826619392	53	4422
2026-01-01 22:15:09.44	129.73	8.77	-45.9	-47.3	15.0	0.00e+00	0	57	0	1829765120	53	4514
2026-01-01 22:15:10.43	129.85	8.71	-46.1	-47.5	14.8	0.00e+00	0	57	0	1832910848	53	4610
2026-01-01 22:15:11.42	129.97	8.65	-46.1	-47.6	14.7	0.00e+00	0	57	0	1836056576	54	4408
2026-01-01 22:15:12.40	130.09	8.59	-46.1	-47.4	14.9	0.00e+00	0	57	0	1839202304	54	4336
2026-01-01 22:15:13.38	130.20	8.53	-45.9	-47.2	15.1	0.00e+00	0	57	0	1841299456	54	4225
2026-01-01 22:15:14.36	130.32	8.47	-45.9	-47.3	15.0	0.00e+00	0	57	0	1844445184	54	4249
2026-01-01 22:15:15.36	130.43	8.41	-46.0	-47.4	14.9	0.00e+00	0	57	0	1847590912	54	4329
2026-01-01 22:15:16.34	130.55	8.35	-46.1	-47.5	14.8	0.00e+00	0	57	0	1850736640	54	4376
2026-01-01 22:15:17.34	130.66	8.29	-46.1	-47.5	14.8	7.00e-07	0	57	0	1853882368	54	4380
2026-01-01 22:15:18.32	130.78	8.24	-46.2	-47.6	14.7	1.50e-06	0	57	0	1857028096	54	4420
2026-01-01 22:15:19.31	130.89	8.18	-46.0	-47.4	14.9	0.00e+00	0	57	0	1860173824	54	4299
2026-01-01 22:15:20.30	131.00	8.12	-46.0	-47.4	14.9	7.00e-07	0	57	0	1863319552	54	4308
2026-01-01 22:15:21.28	131.12	8.06	-46.1	-47.5	14.8	0.00e+00	0	57	0	1866465280	54	4356
2026-01-01 22:15:22.28	131.23	8.00	-46.2	-47.6	14.7	0.00e+00	0	57	0	1869611008	54	4416
2026-01-01 22:15:23.26	131.34	7.94	-46.2	-47.7	14.6	2.20e-06	0	57	0	1872756736	54	4454
2026-01-01 22:15:24.25	131.45	7.89	-46.0	-47.5	14.8	0.00e+00	0	57	0	1875902464	54	4345
2026-01-01 22:15:25.23	131.56	7.83	-46.3	-47.8	14.5	1.50e-06	0	57	0	1879048192	54	4494
2026-01-01 22:15:26.22	131.67	7.77	-46.4	-48.0	14.3	1.50e-06	0	57	0	1882193920	54	4600
2026-01-01 22:15:27.21	131.78	7.71	-46.2	-47.7	14.5	0.00e+00	0	57	0	1885339648	54	4453
2026-01-01 22:15:28.20	131.89	7.65	-46.1	-47.5	14.8	0.00e+00	0	57	0	1888485376	54	4355
2026-01-01 22:15:29.19	132.00	7.59	-46.0	-47.4	14.8	0.00e+00	0	57	0	1891631104	54	4324
2026-01-01 22:15:30.17	132.11	7.54	-46.1	-47.6	14.6	0.00e+00	0	57	0	1894776832	54	4411
2026-01-01 22:15:31.16	132.22	7.48	-46.4	-47.9	14.3	0.00e+00	0	57	0	1897922560	54	4582
2026-01-01 22:15:32.16	132.33	7.42	-46.3	-47.8	14.4	0.00e+00	0	57	0	1900019712	54	4500
2026-01-01 22:15:33.16	132.44	7.36	-46.2	-47.7	14.5	7.00e-07	0	57	0	1903165440	54	4478
2026-01-01 22:15:34.14	132.55	7.30	-46.2	-47.6	14.6	0.00e+00	0	57	0	1906311168	54	4432
2026-01-01 22:15:35.13	132.65	7.25	-46.1	-47.6	14.5	0.00e+00	0	57	0	1909456896	54	4433
2026-01-01 22:15:36.12	132.76	7.19	-46.3	-47.8	14.4	0.00e+00	0	57	0	1912602624	54	4514
2026-01-01 22:15:37.12	132.87	7.13	-46.1	-47.6	14.6	7.00e-07	0	57	0	1915748352	54	4434
2026-01-01 22:15:38.10	132.97	7.07	-46.3	-47.8	14.4	7.00e-07	0	57	0	1918894080	54	4504
2026-01-01 22:15:39.09	133.08	7.01	-46.1	-47.6	14.7	0.00e+00	0	57	0	1922039808	54	4392
2026-01-01 22:15:40.08	133.18	6.96	-46.0	-47.4	14.8	0.00e+00	0	57	0	1925185536	54	4310
2026-01-01 22:15:41.06	133.29	6.90	-45.9	-47.4	14.8	0.00e+00	0	57	0	1928331264	54	4323
2026-01-01 22:15:42.05	133.39	6.84	-46.0	-47.4	14.7	1.50e-06	0	57	0	1931476992	54	4327
2026-01-01 22:15:43.04	133.49	6.78	-46.1	-47.5	14.7	0.00e+00	0	57	0	1934622720	54	4363
2026-01-01 22:15:44.02	133.60	6.73	-46.0	-47.5	14.7	0.00e+00	0	57	0	1937768448	54	4356
2026-01-01 22:15:45.01	133.70	6.67	-46.0	-47.4	14.7	7.00e-07	0	57	0	1940914176	54	4338
2026-01-01 22:15:46.01	133.80	6.61	-46.2	-47.7	14.4	7.00e-07	0	57	0	1944059904	54	4480
2026-01-01 22:15:47.00	133.91	6.55	-46.1	-47.6	14.5	7.00e-07	0	57	0	1947205632	54	4432
2026-01-01 22:15:47.99	134.01	6.50	-46.1	-47.5	14.6	0.00e+00	0	57	0	1950351360	54	4370
2026-01-01 22:15:48.97	134.11	6.44	-46.1	-47.6	14.5	0.00e+00	0	57	0	1953497088	54	4412
2026-01-01 22:15:49.95	134.21	6.38	-46.3	-47.9	14.2	2.20e-06	0	57	0	1956642816	54	4563
2026-01-01 22:15:50.94	134.31	6.33	-46.1	-47.6	14.5	7.00e-07	0	57	0	1959788544	54	4412
2026-01-01 22:15:51.93	134.41	6.27	-46.0	-47.5	14.6	7.00e-07	0	57	0	1961885696	54	4350
2026-01-01 22:15:52.91	134.51	6.21	-46.1	-47.6	14.6	0.00e+00	0	57	0	1965031424	54	4393
2026-01-01 22:15:53.91	134.61	6.15	-46.3	-47.9	14.2	7.00e-07	0	57	0	1968177152	54	4565
2026-01-01 22:15:54.90	134.71	6.10	-46.2	-47.7	14.4	1.50e-06	0	57	0	1971322880	54	4464
2026-01-01 22:15:55.89	134.81	6.04	-46.3	-47.9	14.2	7.00e-07	0	57	0	1974468608	54	4572
2026-01-01 22:15:56.87	134.91	5.98	-46.3	-47.8	14.2	7.00e-07	0	57	0	1977614336	54	4541
2026-01-01 22:15:57.86	135.00	5.93	-46.2	-47.7	14.3	1.50e-06	0	57	0	1980760064	54	4477
2026-01-01 22:15:58.86	135.10	5.87	-46.2	-47.7	14.3	7.00e-07	0	57	0	1983905792	54	4490
2026-01-01 22:15:59.85	135.20	5.81	-46.3	-47.9	14.1	0.00e+00	0	57	0	1987051520	54	4595
2026-01-01 22:16:00.83	135.30	5.76	-46.3	-47.9	14.2	1.50e-06	0	57	0	1990197248	54	4561
2026-01-01 22:16:01.83	135.40	5.70	-46.3	-47.8	14.2	0.00e+00	0	57	0	1993342976	54	4516
2026-01-01 22:16:02.81	135.49	5.64	-46.3	-47.8	14.2	7.00e-07	0	57	0	1996488704	54	4543
2026-01-01 22:16:03.80	135.59	5.59	-46.3	-47.9	14.1	3.80e-06	0	57	0	1999634432	54	4565
2026-01-01 22:16:04.78	135.68	5.53	-46.3	-47.9	14.1	2.20e-06	0	57	0	2002780160	54	4549
2026-01-01 22:16:05.77	135.78	5.48	-46.5	-48.1	13.9	3.80e-06	0	57	0	2005925888	54	4668
2026-01-01 22:16:06.76	135.87	5.42	-46.6	-48.3	13.7	4.50e-06	0	57	0	2009071616	55	4517
2026-01-01 22:16:07.74	135.97	5.36	-46.6	-48.2	13.7	8.30e-06	0	57	0	2012217344	55	4491
2026-01-01 22:16:08.74	136.06	5.31	-46.6	-48.3	13.6	5.30e-06	0	57	0	2015363072	55	4530
2026-01-01 22:16:09.73	136.16	5.25	-46.7	-48.4	13.5	3.80e-06	0	57	0	2017460224	55	4580
2026-01-01 22:16:10.71	136.25	5.20	-46.7	-48.5	13.4	1.67e-05	0	57	0	2020605952	55	4634
2026-01-01 22:16:11.69	136.34	5.14	-46.7	-48.5	13.4	1.06e-05	0	57	0	2023751680	55	4628
