passes_logs/2026/01/30/R3.2S-Naryan-Mar/R3.2S-Naryan-Mar__20260130_122418_FENGYUN_3E_rec.log

#Pass ID: 20260130_122418_FENGYUN 3E
#Satellite: FENGYUN 3E
#Configuration: FENGYUN 3E
#almurnet v.1.7.20240730
#Start time: 2026-01-30 12:24:19

#Version: 2.2.20231116
#Station: R3.2S-Naryan-Mar
#Location: 53.008057 lon 67.646978 lat
#TLE: 1 49008U 21062A   26029.52207456 -.00000035  00000+0  41692-5 0  9997
#TLE: 2 49008  98.7499  34.4814 0002557 110.8023 249.3427 14.19887743236900

#Time	Az	El	Level	Level2	SNR	BER	BlckErr	Temp	State	Recorded	gain1	gain2
2026-01-30 12:24:19.97	148.99	0.10	-56.6	-77.5	3.5	3.03e+01	0	43	0	0	60	284109
2026-01-30 12:24:20.97	148.99	0.17	-59.4	-73.7	3.6	8.46e-01	0	44	104	0	60	189065
2026-01-30 12:24:21.98	148.98	0.23	-59.8	-73.8	3.6	8.45e-01	0	44	104	0	60	191328
2026-01-30 12:24:22.99	148.98	0.29	-59.7	-73.8	3.6	8.45e-01	0	44	104	0	60	191014
2026-01-30 12:24:23.99	148.98	0.35	-59.1	-73.7	3.6	8.45e-01	0	44	104	0	60	189930
2026-01-30 12:24:24.99	148.98	0.41	-58.3	-73.7	3.6	8.46e-01	0	44	104	0	60	189294
2026-01-30 12:24:26.00	148.98	0.47	-58.4	-73.7	3.6	8.45e-01	0	44	104	0	60	190749
2026-01-30 12:24:27.01	148.98	0.53	-59.1	-74.0	3.6	8.46e-01	0	44	104	0	60	196310
2026-01-30 12:24:28.02	148.98	0.59	-60.0	-74.2	3.6	8.45e-01	0	44	104	0	60	200871
2026-01-30 12:24:29.03	148.97	0.66	-60.4	-74.2	3.6	8.45e-01	0	44	104	0	60	200928
2026-01-30 12:24:30.04	148.97	0.72	-60.6	-74.1	3.6	8.46e-01	0	44	104	0	60	198611
2026-01-30 12:24:31.04	148.97	0.78	-60.9	-74.1	3.6	8.45e-01	0	44	104	0	60	198913
2026-01-30 12:24:32.05	148.97	0.84	-60.9	-73.9	3.6	8.46e-01	0	44	104	0	60	193870
2026-01-30 12:24:33.06	148.97	0.90	-60.9	-73.9	3.6	8.45e-01	0	44	104	0	60	195180
2026-01-30 12:24:34.06	148.97	0.97	-60.7	-73.7	3.6	8.45e-01	0	44	104	0	60	189582
2026-01-30 12:24:35.07	148.96	1.03	-60.9	-73.7	3.6	8.45e-01	0	44	104	0	60	190248
2026-01-30 12:24:36.08	148.96	1.09	-61.0	-73.9	3.5	8.45e-01	0	44	104	0	60	194357
2026-01-30 12:24:37.08	148.96	1.15	-61.1	-74.0	3.6	8.45e-01	0	44	104	0	60	195843
2026-01-30 12:24:38.09	148.96	1.22	-61.1	-74.1	3.6	8.44e-01	0	44	104	0	60	199362
2026-01-30 12:24:39.10	148.96	1.28	-61.2	-74.2	3.5	8.46e-01	0	44	104	0	60	199833
2026-01-30 12:24:40.11	148.96	1.34	-61.1	-74.0	3.6	8.46e-01	0	44	104	0	60	197344
2026-01-30 12:24:41.11	148.95	1.41	-61.1	-74.1	3.6	8.44e-01	0	44	104	0	60	199200
2026-01-30 12:24:42.12	148.95	1.47	-61.0	-74.0	3.6	8.45e-01	0	44	104	0	60	195992
2026-01-30 12:24:43.12	148.95	1.53	-61.0	-74.0	3.6	8.46e-01	0	44	104	0	60	195737
2026-01-30 12:24:44.13	148.95	1.60	-60.8	-73.8	3.6	8.46e-01	0	44	104	0	60	190815
2026-01-30 12:24:45.14	148.95	1.66	-60.6	-73.7	3.6	8.45e-01	0	44	104	0	60	190175
2026-01-30 12:24:46.15	148.95	1.72	-60.5	-73.5	3.6	8.46e-01	0	44	104	0	60	186144
2026-01-30 12:24:47.15	148.94	1.79	-60.2	-73.3	3.6	8.44e-01	0	44	104	0	60	181698
2026-01-30 12:24:48.16	148.94	1.85	-59.9	-72.9	3.6	8.45e-01	0	44	104	0	60	173887
2026-01-30 12:24:49.17	148.94	1.92	-59.9	-72.9	3.6	8.45e-01	0	44	104	0	60	172797
2026-01-30 12:24:50.18	148.94	1.98	-59.6	-72.6	3.6	8.47e-01	0	44	104	0	60	166610
2026-01-30 12:24:51.18	148.94	2.05	-59.5	-72.5	3.6	8.46e-01	0	44	104	0	60	164540
2026-01-30 12:24:52.19	148.93	2.11	-59.0	-72.1	3.6	8.45e-01	0	44	104	0	60	157512
2026-01-30 12:24:53.20	148.93	2.18	-58.8	-71.8	3.6	8.46e-01	0	44	104	0	60	152486
2026-01-30 12:24:54.21	148.93	2.24	-58.3	-71.4	3.6	8.45e-01	0	44	104	0	60	146206
2026-01-30 12:24:55.21	148.93	2.31	-57.6	-71.3	3.6	8.45e-01	0	44	104	0	60	144402
2026-01-30 12:24:56.22	148.93	2.37	-57.6	-70.6	3.6	8.43e-01	0	44	104	0	60	133212
2026-01-30 12:24:57.22	148.92	2.44	-57.3	-70.6	3.6	8.45e-01	0	44	104	0	60	133146
2026-01-30 12:24:58.23	148.92	2.50	-57.2	-70.5	3.6	8.46e-01	0	44	104	0	60	130999
2026-01-30 12:24:59.23	148.92	2.57	-57.1	-70.4	3.6	8.45e-01	0	44	104	0	60	129561
2026-01-30 12:25:00.22	148.92	2.63	-57.0	-70.4	3.6	8.44e-01	0	44	104	0	60	129405
2026-01-30 12:25:01.22	148.91	2.70	-57.0	-70.3	3.6	8.45e-01	0	44	104	0	60	128222
2026-01-30 12:25:02.23	148.91	2.77	-57.0	-70.3	3.6	8.44e-01	0	44	104	0	60	128506
2026-01-30 12:25:03.24	148.91	2.83	-57.0	-70.2	3.6	8.45e-01	0	45	104	0	60	126734
2026-01-30 12:25:04.24	148.91	2.90	-57.0	-70.3	3.6	8.46e-01	0	44	104	0	60	127605
2026-01-30 12:25:05.25	148.91	2.97	-57.0	-70.1	3.6	8.46e-01	0	44	104	0	60	125623
2026-01-30 12:25:06.26	148.90	3.03	-57.0	-70.0	3.6	8.46e-01	0	44	104	0	60	123773
2026-01-30 12:25:07.26	148.90	3.10	-56.9	-69.8	3.6	8.45e-01	0	44	104	0	60	121179
2026-01-30 12:25:08.27	148.90	3.17	-56.9	-69.6	3.6	8.44e-01	0	44	104	0	60	118846
2026-01-30 12:25:09.28	148.90	3.24	-56.9	-69.5	3.6	8.45e-01	0	44	104	0	60	117519
2026-01-30 12:25:10.29	148.89	3.30	-56.9	-69.3	3.6	8.46e-01	0	44	104	0	60	113715
2026-01-30 12:25:11.30	148.89	3.37	-56.9	-69.2	3.6	8.45e-01	0	45	104	0	60	113133
2026-01-30 12:25:12.30	148.89	3.44	-56.8	-69.1	3.6	8.44e-01	0	44	104	0	60	111336
2026-01-30 12:25:13.30	148.89	3.51	-56.9	-69.2	3.5	8.45e-01	0	44	104	0	60	113537
2026-01-30 12:25:14.31	148.88	3.58	-56.9	-69.2	3.6	8.46e-01	0	45	104	0	60	113621
2026-01-30 12:25:15.32	148.88	3.64	-56.9	-69.2	3.6	8.46e-01	0	45	104	0	60	113010
2026-01-30 12:25:16.32	148.88	3.71	-56.8	-69.0	3.6	8.44e-01	0	45	104	0	60	110146
2026-01-30 12:25:17.33	148.88	3.78	-56.8	-68.9	3.6	8.45e-01	0	45	104	0	60	108763
2026-01-30 12:25:18.34	148.87	3.85	-56.8	-68.5	3.6	8.44e-01	0	45	104	0	60	104721
2026-01-30 12:25:19.35	148.87	3.92	-56.8	-68.3	3.6	8.45e-01	0	45	104	0	60	101674
2026-01-30 12:25:20.35	148.87	3.99	-56.7	-68.2	3.6	8.44e-01	0	45	104	0	60	100556
2026-01-30 12:25:21.36	148.87	4.06	-56.7	-68.0	3.6	8.43e-01	0	45	104	0	60	98118
2026-01-30 12:25:22.36	148.86	4.13	-56.7	-68.1	3.7	8.44e-01	0	45	104	0	60	99643
2026-01-30 12:25:23.36	148.86	4.20	-56.7	-68.3	3.6	8.45e-01	0	45	104	0	60	102341
2026-01-30 12:25:24.37	148.86	4.27	-56.7	-68.5	3.6	8.45e-01	0	45	104	0	60	104253
2026-01-30 12:25:25.38	148.85	4.34	-56.7	-67.4	3.6	8.44e-01	0	45	104	0	60	91427
2026-01-30 12:25:26.38	148.85	4.41	-56.6	-66.6	3.9	8.39e-01	0	45	104	0	60	84042
2026-01-30 12:25:27.39	148.85	4.48	-56.3	-63.5	4.9	7.86e-01	0	45	0	0	60	58307
2026-01-30 12:25:28.39	148.85	4.55	-55.6	-61.1	7.1	2.19e-01	0	45	0	5242880	60	44584
2026-01-30 12:25:29.40	148.84	4.62	-54.8	-59.2	9.3	3.75e-02	0	45	0	12582912	60	35542
2026-01-30 12:25:30.41	148.84	4.69	-53.8	-57.4	11.3	2.32e-03	0	45	0	19922944	60	28958
2026-01-30 12:25:31.41	148.84	4.76	-52.9	-55.9	12.7	1.93e-04	0	45	0	27262976	60	24370
2026-01-30 12:25:32.42	148.83	4.84	-51.8	-54.3	14.2	4.50e-06	0	45	0	33554432	60	20385
2026-01-30 12:25:33.43	148.83	4.91	-50.9	-53.1	15.2	0.00e+00	0	45	0	40894464	60	17730
2026-01-30 12:25:34.43	148.83	4.98	-50.1	-52.1	15.9	0.00e+00	0	45	0	48234496	60	15766
2026-01-30 12:25:35.44	148.82	5.05	-49.3	-51.2	16.5	0.00e+00	0	45	0	55574528	60	14280
2026-01-30 12:25:36.45	148.82	5.12	-48.9	-50.8	16.6	0.00e+00	0	45	0	62914560	60	13516
2026-01-30 12:25:37.46	148.82	5.20	-48.4	-50.1	17.1	0.00e+00	0	45	0	70254592	60	12543
2026-01-30 12:25:38.47	148.81	5.27	-48.0	-49.7	17.2	0.00e+00	0	45	0	77594624	60	12019
2026-01-30 12:25:39.47	148.81	5.34	-47.8	-49.5	17.4	0.00e+00	0	45	0	84934656	60	11720
2026-01-30 12:25:40.48	148.81	5.42	-47.9	-49.6	17.4	0.00e+00	0	45	0	92274688	60	11791
2026-01-30 12:25:41.49	148.80	5.49	-48.0	-49.8	17.3	0.00e+00	0	45	0	99614720	60	12044
2026-01-30 12:25:42.50	148.80	5.56	-48.4	-50.2	17.0	0.00e+00	0	45	0	106954752	60	12608
2026-01-30 12:25:43.51	148.80	5.64	-48.8	-50.6	16.7	0.00e+00	0	45	0	114294784	60	13337
2026-01-30 12:25:44.51	148.79	5.71	-49.4	-51.3	16.3	0.00e+00	0	45	0	121634816	60	14377
2026-01-30 12:25:45.52	148.79	5.79	-50.2	-52.3	15.5	0.00e+00	0	45	0	128974848	60	16081
2026-01-30 12:25:46.52	148.79	5.86	-50.9	-53.2	14.9	0.00e+00	0	45	0	136314880	60	17954
2026-01-30 12:25:47.53	148.78	5.93	-52.0	-54.6	13.8	3.40e-06	0	45	0	142606336	60	20979
2026-01-30 12:25:48.53	148.78	6.01	-52.9	-55.8	12.5	8.46e-05	0	45	0	149946368	60	24220
2026-01-30 12:25:49.53	148.78	6.08	-52.7	-55.6	13.7	4.89e-04	0	45	0	157286400	60	23652
2026-01-30 12:25:50.54	148.77	6.16	-50.0	-52.1	16.4	0.00e+00	0	45	0	164626432	60	15735
2026-01-30 12:25:51.55	148.77	6.23	-50.9	-53.2	12.3	0.00e+00	0	45	0	171966464	60	17959
2026-01-30 12:25:52.56	148.77	6.31	-56.1	-63.7	8.4	8.41e-01	0	45	104	173015040	60	60151
2026-01-30 12:25:53.56	148.76	6.39	-49.5	-51.3	16.6	0.00e+00	0	45	0	3145728	60	14385
2026-01-30 12:25:54.57	148.76	6.46	-50.5	-52.5	15.4	0.00e+00	0	45	0	10485760	60	16532
2026-01-30 12:25:55.57	148.75	6.54	-50.0	-51.9	15.9	0.00e+00	0	45	0	17825792	60	15442
2026-01-30 12:25:56.58	148.75	6.61	-49.9	-51.8	15.8	0.00e+00	0	45	0	25165824	60	15236
2026-01-30 12:25:57.58	148.75	6.69	-49.9	-51.8	16.0	0.00e+00	0	45	0	32505856	60	15189
2026-01-30 12:25:58.59	148.74	6.77	-49.5	-51.3	16.5	0.00e+00	0	45	0	39845888	60	14312
2026-01-30 12:25:59.60	148.74	6.85	-48.7	-50.4	16.9	0.00e+00	0	45	0	47185920	60	12953
2026-01-30 12:26:00.60	148.73	6.92	-48.8	-50.5	16.8	0.00e+00	0	45	0	54525952	60	13077
2026-01-30 12:26:01.61	148.73	7.00	-48.9	-50.6	16.7	0.00e+00	0	45	0	61865984	60	13230
2026-01-30 12:26:02.61	148.73	7.08	-48.6	-50.3	17.0	0.00e+00	0	45	0	69206016	60	12791
2026-01-30 12:26:03.62	148.72	7.16	-48.6	-50.3	16.9	0.00e+00	0	45	0	76546048	60	12815
2026-01-30 12:26:04.63	148.72	7.24	-48.3	-50.0	17.2	0.00e+00	0	45	0	83886080	60	12363
2026-01-30 12:26:05.63	148.71	7.31	-48.6	-50.3	17.0	0.00e+00	0	45	0	90177536	60	12826
2026-01-30 12:26:06.64	148.71	7.39	-48.8	-50.5	17.0	0.00e+00	0	45	0	97517568	60	13141
2026-01-30 12:26:07.64	148.71	7.47	-48.4	-50.1	17.2	0.00e+00	0	45	0	104857600	60	12511
2026-01-30 12:26:08.65	148.70	7.55	-48.0	-49.6	17.4	0.00e+00	0	45	0	112197632	60	11838
2026-01-30 12:26:09.66	148.70	7.63	-47.7	-49.2	17.7	0.00e+00	0	45	0	119537664	60	11316
2026-01-30 12:26:10.67	148.69	7.71	-47.7	-49.2	17.8	0.00e+00	0	45	0	126877696	60	11314
2026-01-30 12:26:11.68	148.69	7.79	-47.4	-48.9	17.9	0.00e+00	0	45	0	134217728	60	10899
2026-01-30 12:26:12.68	148.68	7.87	-47.3	-48.8	18.0	0.00e+00	0	45	0	141557760	60	10756
2026-01-30 12:26:13.69	148.68	7.95	-47.4	-48.9	17.9	0.00e+00	0	45	0	148897792	60	10880
2026-01-30 12:26:14.70	148.67	8.03	-47.5	-49.1	17.7	0.00e+00	0	45	0	156237824	60	11128
2026-01-30 12:26:15.70	148.67	8.12	-47.4	-48.9	18.0	0.00e+00	0	45	0	163577856	60	10925
2026-01-30 12:26:16.71	148.66	8.20	-47.3	-48.9	18.0	0.00e+00	0	45	0	170917888	60	10864
2026-01-30 12:26:17.70	148.66	8.28	-47.2	-48.7	18.0	0.00e+00	0	45	0	178257920	60	10650
2026-01-30 12:26:18.71	148.66	8.36	-47.3	-48.8	17.9	0.00e+00	0	45	0	185597952	60	10736
2026-01-30 12:26:19.71	148.65	8.44	-47.4	-49.0	17.9	0.00e+00	0	45	0	192937984	60	11000
2026-01-30 12:26:20.72	148.65	8.52	-47.3	-48.8	17.9	0.00e+00	0	45	0	199229440	60	10790
2026-01-30 12:26:21.73	148.64	8.61	-47.3	-48.8	18.1	0.00e+00	0	45	0	206569472	60	10802
2026-01-30 12:26:22.74	148.64	8.69	-47.2	-48.7	18.1	0.00e+00	0	45	0	213909504	60	10663
2026-01-30 12:26:23.74	148.63	8.77	-47.0	-48.5	18.1	0.00e+00	0	45	0	221249536	60	10424
2026-01-30 12:26:24.75	148.63	8.86	-47.0	-48.5	18.2	0.00e+00	0	45	0	228589568	60	10414
2026-01-30 12:26:25.75	148.62	8.94	-46.9	-48.4	18.2	0.00e+00	0	45	0	235929600	60	10310
2026-01-30 12:26:26.76	148.62	9.03	-47.1	-48.6	18.1	0.00e+00	0	45	0	243269632	60	10490
2026-01-30 12:26:27.76	148.61	9.11	-47.1	-48.6	18.1	0.00e+00	0	45	0	250609664	60	10581
2026-01-30 12:26:28.77	148.61	9.19	-47.0	-48.5	18.2	0.00e+00	0	45	0	256901120	60	10398
2026-01-30 12:26:29.77	148.60	9.28	-46.9	-48.3	18.3	0.00e+00	0	45	0	264241152	60	10246
2026-01-30 12:26:30.78	148.59	9.36	-47.0	-48.5	18.1	0.00e+00	0	45	0	271581184	60	10402
2026-01-30 12:26:31.78	148.59	9.45	-47.5	-48.4	21.2	0.00e+00	0	45	0	278921216	60	10362
2026-01-30 12:26:32.79	148.58	9.54	-47.4	-48.3	21.3	0.00e+00	0	45	0	287309824	60	10203
2026-01-30 12:26:33.79	148.58	9.62	-47.5	-48.3	21.3	0.00e+00	0	45	0	294649856	60	10236
2026-01-30 12:26:34.80	148.57	9.71	-47.4	-48.3	21.5	0.00e+00	0	45	0	300941312	60	10138
2026-01-30 12:26:35.81	148.57	9.80	-47.5	-48.4	21.3	0.00e+00	0	45	0	308281344	60	10277
2026-01-30 12:26:36.82	148.56	9.88	-47.3	-48.2	21.5	0.00e+00	0	45	0	315621376	60	10067
2026-01-30 12:26:37.83	148.56	9.97	-47.3	-48.2	21.5	0.00e+00	0	45	0	322961408	60	10071
2026-01-30 12:26:38.83	148.55	10.06	-47.3	-48.2	21.6	0.00e+00	0	45	0	330301440	60	10042
2026-01-30 12:26:39.84	148.54	10.15	-47.2	-48.1	21.6	0.00e+00	0	45	0	337641472	60	9912
2026-01-30 12:26:40.85	148.54	10.24	-47.4	-48.2	21.5	0.00e+00	0	45	0	344981504	60	10093
2026-01-30 12:26:41.85	148.53	10.32	-47.3	-48.1	21.5	0.00e+00	0	45	0	352321536	60	10012
2026-01-30 12:26:42.86	148.53	10.41	-47.3	-48.1	21.5	0.00e+00	0	45	0	359661568	60	9972
2026-01-30 12:26:43.87	148.52	10.50	-47.2	-48.1	21.6	0.00e+00	0	45	0	365953024	60	9912
2026-01-30 12:26:44.87	148.51	10.59	-47.3	-48.2	21.4	0.00e+00	0	45	0	373293056	60	10026
2026-01-30 12:26:45.87	148.51	10.68	-47.1	-48.0	21.7	0.00e+00	0	45	0	380633088	60	9812
2026-01-30 12:26:46.88	148.50	10.77	-47.3	-48.1	21.6	0.00e+00	0	45	0	387973120	60	9973
2026-01-30 12:26:47.89	148.50	10.86	-47.2	-48.0	21.6	0.00e+00	0	45	0	396361728	60	9841
2026-01-30 12:26:48.89	148.49	10.95	-47.1	-47.9	21.7	0.00e+00	0	45	0	403701760	60	9740
2026-01-30 12:26:49.89	148.48	11.04	-47.2	-48.0	21.6	0.00e+00	0	45	0	409993216	60	9841
2026-01-30 12:26:50.90	148.48	11.14	-47.1	-47.9	21.7	0.00e+00	0	45	0	417333248	60	9727
2026-01-30 12:26:51.91	148.47	11.23	-47.1	-47.9	21.7	0.00e+00	0	45	0	424673280	60	9721
2026-01-30 12:26:52.91	148.46	11.32	-47.0	-47.8	21.8	0.00e+00	0	45	0	432013312	60	9660
2026-01-30 12:26:53.91	148.46	11.41	-47.0	-47.8	21.9	0.00e+00	0	45	0	439353344	60	9625
2026-01-30 12:26:54.91	148.45	11.51	-47.0	-47.8	21.9	0.00e+00	0	45	0	446693376	60	9655
2026-01-30 12:26:55.91	148.44	11.60	-47.1	-47.9	21.8	0.00e+00	0	45	0	454033408	60	9783
2026-01-30 12:26:56.91	148.44	11.69	-46.9	-47.7	22.0	0.00e+00	0	45	0	461373440	60	9497
2026-01-30 12:26:57.92	148.43	11.79	-46.9	-47.6	22.1	0.00e+00	0	45	0	467664896	60	9436
2026-01-30 12:26:58.92	148.42	11.88	-47.0	-47.8	22.0	0.00e+00	0	45	0	475004928	60	9582
2026-01-30 12:26:59.93	148.42	11.98	-46.9	-47.7	22.0	0.00e+00	0	45	0	482344960	60	9530
2026-01-30 12:27:00.94	148.41	12.07	-46.9	-47.7	22.0	0.00e+00	0	45	0	489684992	60	9469
2026-01-30 12:27:01.94	148.40	12.17	-46.9	-47.6	22.2	0.00e+00	0	45	0	497025024	60	9426
2026-01-30 12:27:02.95	148.39	12.26	-46.9	-47.7	22.2	0.00e+00	0	45	0	504365056	60	9474
2026-01-30 12:27:03.95	148.39	12.36	-47.0	-47.8	22.1	0.00e+00	0	45	0	511705088	60	9583
2026-01-30 12:27:04.96	148.38	12.46	-46.9	-47.7	22.2	0.00e+00	0	45	0	519045120	60	9469
2026-01-30 12:27:05.97	148.37	12.55	-47.0	-47.7	22.1	0.00e+00	0	45	0	526385152	60	9536
2026-01-30 12:27:06.97	148.36	12.65	-47.0	-47.8	22.1	0.00e+00	0	45	0	532676608	60	9625
2026-01-30 12:27:07.98	148.36	12.75	-47.2	-47.9	22.1	0.00e+00	0	45	0	540016640	60	9770
2026-01-30 12:27:08.98	148.35	12.85	-47.2	-47.9	22.0	0.00e+00	0	45	0	547356672	60	9772
2026-01-30 12:27:09.99	148.34	12.95	-47.0	-47.7	22.2	0.00e+00	0	45	0	555745280	60	9552
2026-01-30 12:27:11.00	148.33	13.04	-46.8	-47.6	22.4	0.00e+00	0	45	0	563085312	60	9376
2026-01-30 12:27:12.01	148.33	13.14	-47.2	-48.0	22.1	0.00e+00	0	45	0	570425344	60	9874
2026-01-30 12:27:13.01	148.32	13.24	-47.0	-47.8	22.2	0.00e+00	0	45	0	576716800	60	9616
2026-01-30 12:27:14.02	148.31	13.34	-46.9	-47.6	22.4	0.00e+00	0	45	0	584056832	60	9396
2026-01-30 12:27:15.03	148.30	13.45	-46.9	-47.6	22.4	0.00e+00	0	45	0	591396864	60	9430
2026-01-30 12:27:16.04	148.29	13.55	-47.0	-47.7	22.3	0.00e+00	0	45	0	598736896	60	9548
2026-01-30 12:27:17.05	148.28	13.65	-47.0	-47.7	22.3	0.00e+00	0	45	0	606076928	60	9511
2026-01-30 12:27:18.06	148.28	13.75	-47.2	-48.0	22.0	0.00e+00	0	45	0	613416960	60	9796
2026-01-30 12:27:19.07	148.27	13.85	-47.4	-48.1	21.9	0.00e+00	0	45	0	620756992	60	10010
2026-01-30 12:27:20.07	148.26	13.96	-47.5	-48.3	21.8	0.00e+00	0	45	0	628097024	60	10143
2026-01-30 12:27:21.08	148.25	14.06	-47.1	-47.8	22.2	0.00e+00	0	45	0	635437056	60	9659
2026-01-30 12:27:22.09	148.24	14.16	-46.8	-47.5	22.5	0.00e+00	0	45	0	642777088	60	9287
2026-01-30 12:27:23.09	148.23	14.27	-46.7	-47.5	22.5	0.00e+00	0	45	0	650117120	60	9239
2026-01-30 12:27:24.10	148.22	14.37	-46.7	-47.4	22.6	0.00e+00	0	45	0	657457152	60	9180
2026-01-30 12:27:25.11	148.22	14.48	-46.6	-47.3	22.7	0.00e+00	0	45	0	664797184	60	9124
2026-01-30 12:27:26.11	148.21	14.58	-46.8	-47.5	22.5	0.00e+00	0	45	0	672137216	60	9316
2026-01-30 12:27:27.11	148.20	14.69	-46.7	-47.4	22.6	0.00e+00	0	45	0	679477248	60	9161
2026-01-30 12:27:28.12	148.19	14.80	-46.4	-47.1	22.8	0.00e+00	0	45	0	685768704	60	8889
2026-01-30 12:27:29.12	148.18	14.90	-46.5	-47.2	22.7	0.00e+00	0	45	0	693108736	60	8976
2026-01-30 12:27:30.13	148.17	15.01	-46.4	-47.1	22.9	0.00e+00	0	45	0	700448768	60	8909
2026-01-30 12:27:31.14	148.16	15.12	-46.5	-47.2	22.9	0.00e+00	0	45	0	707788800	60	8926
2026-01-30 12:27:32.15	148.15	15.23	-46.5	-47.2	22.9	0.00e+00	0	45	0	715128832	60	8932
2026-01-30 12:27:33.16	148.14	15.34	-46.3	-47.0	23.0	0.00e+00	0	45	0	722468864	60	8783
2026-01-30 12:27:34.16	148.13	15.45	-46.5	-47.2	22.8	0.00e+00	0	45	0	729808896	60	9024
2026-01-30 12:27:35.17	148.12	15.56	-46.4	-47.1	22.9	0.00e+00	0	45	0	737148928	60	8908
2026-01-30 12:27:36.18	148.11	15.67	-46.3	-46.9	23.0	0.00e+00	0	45	0	743440384	60	8712
2026-01-30 12:27:37.18	148.10	15.78	-46.2	-46.9	23.1	0.00e+00	0	45	0	750780416	60	8686
2026-01-30 12:27:38.19	148.09	15.89	-46.4	-47.1	23.0	0.00e+00	0	45	0	759169024	60	8850
2026-01-30 12:27:39.20	148.08	16.00	-46.2	-46.9	23.2	0.00e+00	0	45	0	766509056	60	8658
2026-01-30 12:27:40.21	148.07	16.11	-46.2	-46.9	23.2	0.00e+00	0	45	0	773849088	60	8696
2026-01-30 12:27:41.21	148.06	16.23	-46.0	-46.7	23.4	0.00e+00	0	45	0	781189120	60	8437
2026-01-30 12:27:42.22	148.05	16.34	-45.9	-46.5	23.5	0.00e+00	0	45	0	787480576	60	8305
2026-01-30 12:27:43.23	148.04	16.45	-45.8	-46.4	23.6	0.00e+00	0	45	0	794820608	60	8231
2026-01-30 12:27:44.24	148.03	16.57	-46.1	-46.8	23.2	0.00e+00	0	45	0	802160640	60	8591
2026-01-30 12:27:45.25	148.02	16.69	-45.9	-46.6	23.5	0.00e+00	0	45	0	809500672	60	8362
2026-01-30 12:27:46.26	148.01	16.80	-45.9	-46.5	23.5	0.00e+00	0	45	0	816840704	60	8316
2026-01-30 12:27:47.27	147.99	16.92	-46.0	-46.7	23.4	0.00e+00	0	45	0	824180736	60	8429
2026-01-30 12:27:48.28	147.98	17.03	-45.8	-46.5	23.5	0.00e+00	0	45	0	831520768	60	8274
2026-01-30 12:27:49.28	147.97	17.15	-45.6	-46.2	23.8	0.00e+00	0	45	0	838860800	60	8031
2026-01-30 12:27:50.29	147.96	17.27	-45.7	-46.3	23.8	0.00e+00	0	45	0	846200832	60	8102
2026-01-30 12:27:51.30	147.95	17.39	-45.5	-46.2	23.9	0.00e+00	0	45	0	853540864	60	7963
2026-01-30 12:27:52.31	147.94	17.51	-45.4	-46.1	24.0	0.00e+00	0	45	0	860880896	60	7875
2026-01-30 12:27:53.31	147.92	17.63	-45.5	-46.2	23.9	0.00e+00	0	45	0	868220928	60	7958
2026-01-30 12:27:54.32	147.91	17.75	-45.7	-46.3	23.8	0.00e+00	0	45	0	875560960	60	8109
2026-01-30 12:27:55.32	147.90	17.87	-45.5	-46.1	24.0	0.00e+00	0	45	0	882900992	60	7918
2026-01-30 12:27:56.33	147.89	17.99	-45.5	-46.2	24.0	0.00e+00	0	45	0	890241024	60	7959
2026-01-30 12:27:57.34	147.88	18.11	-45.4	-46.0	24.0	0.00e+00	0	45	0	896532480	60	7834
2026-01-30 12:27:58.34	147.86	18.23	-45.3	-45.9	24.1	0.00e+00	0	45	0	903872512	60	7754
2026-01-30 12:27:59.35	147.85	18.36	-45.3	-46.0	24.0	0.00e+00	0	45	0	911212544	60	7780
2026-01-30 12:28:00.35	147.84	18.48	-45.4	-46.0	24.0	0.00e+00	0	45	0	918552576	60	7828
2026-01-30 12:28:01.36	147.83	18.61	-45.3	-45.9	24.1	0.00e+00	0	45	0	925892608	60	7735
2026-01-30 12:28:02.36	147.81	18.73	-45.3	-45.9	24.0	0.00e+00	0	45	0	933232640	60	7766
2026-01-30 12:28:03.37	147.80	18.86	-45.2	-45.8	24.2	0.00e+00	0	45	0	940572672	60	7631
2026-01-30 12:28:04.38	147.79	18.98	-45.2	-45.8	24.1	0.00e+00	0	45	0	947912704	60	7664
2026-01-30 12:28:05.38	147.77	19.11	-45.3	-45.9	24.0	0.00e+00	0	45	0	954204160	60	7728
2026-01-30 12:28:06.39	147.76	19.24	-45.4	-46.0	23.8	0.00e+00	0	45	0	962592768	60	7827
2026-01-30 12:28:07.40	147.75	19.37	-45.4	-46.1	23.8	0.00e+00	0	45	0	969932800	60	7879
2026-01-30 12:28:08.41	147.73	19.49	-45.5	-46.2	23.8	0.00e+00	0	45	0	977272832	60	7956
2026-01-30 12:28:09.42	147.72	19.62	-45.5	-46.2	23.7	0.00e+00	0	45	0	984612864	60	7968
2026-01-30 12:28:10.42	147.70	19.75	-45.5	-46.1	23.8	0.00e+00	0	45	0	991952896	60	7937
2026-01-30 12:28:11.42	147.69	19.88	-45.3	-45.9	24.1	0.00e+00	0	45	0	998244352	60	7765
2026-01-30 12:28:12.43	147.67	20.02	-45.3	-45.9	24.1	0.00e+00	0	45	0	1005584384	60	7711
2026-01-30 12:28:13.44	147.66	20.15	-45.3	-45.9	24.0	0.00e+00	0	45	0	1012924416	60	7738
2026-01-30 12:28:14.45	147.65	20.28	-45.4	-46.0	24.1	0.00e+00	0	45	0	1020264448	60	7812
2026-01-30 12:28:15.46	147.63	20.42	-45.4	-46.0	24.1	0.00e+00	0	45	0	1027604480	60	7847
2026-01-30 12:28:16.46	147.62	20.55	-45.4	-46.1	24.0	0.00e+00	0	45	0	1034944512	60	7873
2026-01-30 12:28:17.47	147.60	20.69	-45.4	-46.1	24.0	0.00e+00	0	45	0	1042284544	60	7897
2026-01-30 12:28:18.47	147.59	20.82	-45.4	-46.1	24.0	0.00e+00	0	45	0	1049624576	60	7868
2026-01-30 12:28:19.48	147.57	20.96	-45.5	-46.1	24.0	0.00e+00	0	45	0	1056964608	60	7923
2026-01-30 12:28:20.49	147.55	21.10	-45.6	-46.2	23.8	0.00e+00	0	45	0	1064304640	60	7999
2026-01-30 12:28:21.50	147.54	21.24	-45.5	-46.2	23.9	0.00e+00	0	45	0	1071644672	60	7955
2026-01-30 12:28:22.51	147.52	21.38	-45.7	-46.3	24.0	0.00e+00	0	45	0	1078984704	60	8101
2026-01-30 12:28:23.52	147.51	21.52	-45.7	-46.3	23.8	0.00e+00	0	45	0	1086324736	60	8096
2026-01-30 12:28:24.52	147.49	21.65	-45.7	-46.3	23.9	0.00e+00	0	45	0	1093664768	60	8087
2026-01-30 12:28:25.52	147.47	21.80	-45.8	-46.4	23.9	0.00e+00	0	45	0	1101004800	60	8216
2026-01-30 12:28:26.53	147.46	21.94	-45.7	-46.3	24.0	0.00e+00	0	45	0	1107296256	60	8079
2026-01-30 12:28:27.53	147.44	22.08	-45.6	-46.3	24.0	0.00e+00	0	45	0	1114636288	60	8051
2026-01-30 12:28:28.54	147.42	22.22	-45.8	-46.4	24.1	0.00e+00	0	45	0	1121976320	60	8212
2026-01-30 12:28:29.54	147.40	22.37	-45.6	-46.3	24.3	0.00e+00	0	45	0	1129316352	60	8078
2026-01-30 12:28:30.54	147.39	22.51	-45.7	-46.3	24.2	0.00e+00	0	45	0	1136656384	60	8104
2026-01-30 12:28:31.55	147.37	22.66	-45.8	-46.4	24.2	0.00e+00	0	45	0	1143996416	60	8189
2026-01-30 12:28:32.56	147.35	22.81	-45.9	-46.6	24.2	0.00e+00	0	45	0	1151336448	60	8347
2026-01-30 12:28:33.56	147.33	22.95	-45.8	-46.4	24.3	0.00e+00	0	45	0	1158676480	60	8188
2026-01-30 12:28:34.57	147.31	23.10	-45.6	-46.3	24.5	0.00e+00	0	45	0	1166016512	60	8047
2026-01-30 12:28:35.57	147.30	23.25	-45.5	-46.1	24.5	0.00e+00	0	45	0	1172307968	60	7911
2026-01-30 12:28:36.58	147.28	23.40	-45.6	-46.2	24.6	0.00e+00	0	45	0	1179648000	60	8015
2026-01-30 12:28:37.59	147.26	23.55	-45.5	-46.2	24.6	0.00e+00	0	45	0	1188036608	60	7969
2026-01-30 12:28:38.59	147.24	23.70	-45.6	-46.2	24.5	0.00e+00	0	45	0	1195376640	60	7996
2026-01-30 12:28:39.60	147.22	23.86	-45.6	-46.2	24.5	0.00e+00	0	45	0	1202716672	60	7979
2026-01-30 12:28:40.61	147.20	24.01	-45.5	-46.1	24.6	0.00e+00	0	45	0	1210056704	60	7889
2026-01-30 12:28:41.62	147.18	24.17	-45.4	-46.0	24.7	0.00e+00	0	45	0	1216348160	60	7802
2026-01-30 12:28:42.63	147.16	24.32	-45.5	-46.1	24.7	0.00e+00	0	45	0	1223688192	60	7867
2026-01-30 12:28:43.63	147.14	24.48	-45.5	-46.1	24.6	0.00e+00	0	45	0	1231028224	60	7893
2026-01-30 12:28:44.64	147.12	24.64	-45.4	-46.0	24.8	0.00e+00	0	45	0	1238368256	60	7802
2026-01-30 12:28:45.65	147.10	24.80	-45.3	-45.9	24.8	0.00e+00	0	45	0	1245708288	60	7758
2026-01-30 12:28:46.66	147.08	24.96	-45.5	-46.1	24.7	0.00e+00	0	45	0	1253048320	60	7902
2026-01-30 12:28:47.66	147.06	25.12	-45.3	-45.9	24.8	0.00e+00	0	45	0	1260388352	60	7751
2026-01-30 12:28:48.67	147.03	25.28	-45.4	-46.0	24.7	0.00e+00	0	45	0	1267728384	60	7854
2026-01-30 12:28:49.67	147.01	25.44	-45.5	-46.1	24.8	0.00e+00	0	45	0	1274019840	60	7905
2026-01-30 12:28:50.67	146.99	25.60	-45.5	-46.1	24.8	0.00e+00	0	45	0	1281359872	60	7888
2026-01-30 12:28:51.68	146.97	25.77	-45.6	-46.2	24.7	0.00e+00	0	45	0	1288699904	60	7971
2026-01-30 12:28:52.68	146.95	25.93	-45.5	-46.1	24.8	0.00e+00	0	45	0	1296039936	60	7930
2026-01-30 12:28:53.68	146.92	26.10	-45.5	-46.1	24.8	0.00e+00	0	45	0	1303379968	60	7920
2026-01-30 12:28:54.69	146.90	26.27	-45.7	-46.4	24.7	0.00e+00	0	45	0	1311768576	60	8147
2026-01-30 12:28:55.69	146.88	26.43	-45.7	-46.3	24.8	0.00e+00	0	45	0	1318060032	60	8106
2026-01-30 12:28:56.70	146.85	26.60	-45.9	-46.5	24.5	0.00e+00	0	45	0	1325400064	60	8270
2026-01-30 12:28:57.70	146.83	26.77	-46.0	-46.6	24.6	0.00e+00	0	45	0	1332740096	60	8360
2026-01-30 12:28:58.71	146.80	26.95	-45.8	-46.4	24.7	0.00e+00	0	45	0	1340080128	60	8227
2026-01-30 12:28:59.72	146.78	27.12	-45.8	-46.4	24.8	0.00e+00	0	45	0	1347420160	60	8145
2026-01-30 12:29:00.73	146.75	27.29	-46.1	-46.7	24.6	0.00e+00	0	45	0	1354760192	60	8472
2026-01-30 12:29:01.73	146.73	27.47	-45.7	-46.3	25.0	0.00e+00	0	45	0	1362100224	60	8071
2026-01-30 12:29:02.74	146.70	27.64	-45.6	-46.2	25.0	0.00e+00	0	45	0	1369440256	60	7980
2026-01-30 12:29:03.75	146.68	27.82	-45.4	-46.0	25.2	0.00e+00	0	45	0	1376780288	60	7818
2026-01-30 12:29:04.75	146.65	28.00	-45.4	-46.0	25.2	0.00e+00	0	45	0	1383071744	60	7800
2026-01-30 12:29:05.76	146.62	28.18	-45.3	-45.9	25.3	0.00e+00	0	45	0	1390411776	60	7747
2026-01-30 12:29:06.77	146.60	28.36	-45.4	-46.0	25.3	0.00e+00	0	45	0	1397751808	60	7789
2026-01-30 12:29:07.78	146.57	28.54	-45.3	-45.9	25.3	0.00e+00	0	45	0	1405091840	60	7717
2026-01-30 12:29:08.79	146.54	28.73	-45.5	-46.1	25.2	0.00e+00	0	45	0	1413480448	60	7867
2026-01-30 12:29:09.79	146.52	28.91	-45.3	-45.9	25.5	0.00e+00	0	45	0	1420820480	60	7704
2026-01-30 12:29:10.79	146.49	29.09	-45.3	-45.9	25.5	0.00e+00	0	45	0	1427111936	60	7696
2026-01-30 12:29:11.80	146.46	29.28	-45.2	-45.8	25.5	0.00e+00	0	45	0	1434451968	60	7646
2026-01-30 12:29:12.81	146.43	29.47	-45.4	-45.9	25.4	0.00e+00	0	45	0	1441792000	60	7755
2026-01-30 12:29:13.82	146.40	29.66	-45.2	-45.8	25.5	0.00e+00	0	45	0	1449132032	60	7666
2026-01-30 12:29:14.82	146.37	29.85	-45.3	-45.9	25.4	0.00e+00	0	45	0	1456472064	60	7700
2026-01-30 12:29:15.82	146.34	30.04	-45.3	-45.9	25.4	0.00e+00	0	45	0	1463812096	60	7703
2026-01-30 12:29:16.83	146.31	30.23	-45.4	-46.0	25.3	0.00e+00	0	45	0	1471152128	60	7838
2026-01-30 12:29:17.83	146.28	30.43	-45.4	-46.0	25.4	0.00e+00	0	45	0	1478492160	60	7804
2026-01-30 12:29:18.84	146.25	30.62	-45.6	-46.2	25.2	0.00e+00	0	45	0	1485832192	60	8025
2026-01-30 12:29:19.85	146.21	30.82	-45.7	-46.3	25.1	0.00e+00	0	45	0	1492123648	60	8063
2026-01-30 12:29:20.86	146.18	31.02	-45.8	-46.4	25.1	0.00e+00	0	45	0	1499463680	60	8204
2026-01-30 12:29:21.86	146.15	31.22	-45.8	-46.3	25.1	0.00e+00	0	45	0	1506803712	60	8137
2026-01-30 12:29:22.87	146.12	31.42	-45.9	-46.5	25.0	0.00e+00	0	45	0	1514143744	60	8319
2026-01-30 12:29:23.87	146.08	31.62	-46.0	-46.6	24.9	0.00e+00	0	45	0	1521483776	60	8422
2026-01-30 12:29:24.88	146.05	31.83	-46.2	-46.9	24.7	0.00e+00	0	45	0	1528823808	60	8626
2026-01-30 12:29:25.88	146.01	32.03	-46.2	-46.8	24.7	0.00e+00	0	45	0	1536163840	60	8590
2026-01-30 12:29:26.89	145.98	32.24	-45.9	-46.5	25.0	0.00e+00	0	45	0	1543503872	60	8245
2026-01-30 12:29:27.90	145.94	32.45	-45.8	-46.4	25.0	0.00e+00	0	45	0	1550843904	60	8204
2026-01-30 12:29:28.91	145.91	32.66	-45.7	-46.3	25.1	0.00e+00	0	45	0	1558183936	60	8137
2026-01-30 12:29:29.91	145.87	32.87	-45.8	-46.4	25.1	0.00e+00	0	45	0	1565523968	60	8185
2026-01-30 12:29:30.92	145.83	33.08	-45.6	-46.2	25.2	0.00e+00	0	45	0	1572864000	60	7990
2026-01-30 12:29:31.92	145.80	33.29	-45.6	-46.2	25.2	0.00e+00	0	45	0	1580204032	60	7965
2026-01-30 12:29:32.92	145.76	33.51	-45.6	-46.2	25.3	0.00e+00	0	45	0	1587544064	60	7987
2026-01-30 12:29:33.93	145.72	33.72	-45.6	-46.2	25.2	0.00e+00	0	45	0	1593835520	60	7978
2026-01-30 12:29:34.94	145.68	33.94	-45.6	-46.2	25.2	0.00e+00	0	45	0	1601175552	60	8042
2026-01-30 12:29:35.94	145.64	34.16	-45.4	-46.0	25.3	0.00e+00	0	45	0	1608515584	60	7845
2026-01-30 12:29:36.95	145.60	34.38	-45.4	-46.0	25.3	0.00e+00	0	45	0	1615855616	60	7838
2026-01-30 12:29:37.96	145.56	34.61	-45.5	-46.1	25.3	0.00e+00	0	45	0	1623195648	60	7920
2026-01-30 12:29:38.97	145.52	34.83	-45.5	-46.1	25.2	0.00e+00	0	45	0	1630535680	60	7888
2026-01-30 12:29:39.97	145.47	35.06	-45.5	-46.1	25.3	0.00e+00	0	45	0	1637875712	60	7888
2026-01-30 12:29:40.97	145.43	35.28	-45.6	-46.2	25.2	0.00e+00	0	45	0	1645215744	60	8011
2026-01-30 12:29:41.98	145.39	35.51	-45.6	-46.2	25.3	0.00e+00	0	45	0	1652555776	60	7975
2026-01-30 12:29:42.99	145.34	35.75	-45.7	-46.3	25.3	0.00e+00	0	45	0	1659895808	60	8053
2026-01-30 12:29:44.00	145.30	35.98	-45.8	-46.4	25.1	0.00e+00	0	45	0	1667235840	60	8179
2026-01-30 12:29:45.01	145.25	36.21	-45.8	-46.4	25.2	0.00e+00	0	45	0	1674575872	60	8139
2026-01-30 12:29:46.02	145.20	36.45	-45.8	-46.4	25.2	0.00e+00	0	45	0	1681915904	60	8181
2026-01-30 12:29:47.03	145.16	36.69	-45.6	-46.2	25.4	0.00e+00	0	45	0	1689255936	60	8006
2026-01-30 12:29:48.04	145.11	36.93	-45.7	-46.3	25.4	0.00e+00	0	45	0	1696595968	60	8065
2026-01-30 12:29:49.04	145.06	37.17	-45.8	-46.4	25.1	0.00e+00	0	45	0	1702887424	60	8220
2026-01-30 12:29:50.05	145.01	37.41	-45.6	-46.2	25.4	0.00e+00	0	45	0	1710227456	60	7955
2026-01-30 12:29:51.05	144.96	37.66	-45.5	-46.1	25.4	0.00e+00	0	45	0	1717567488	60	7870
2026-01-30 12:29:52.06	144.91	37.90	-45.4	-46.0	25.5	0.00e+00	0	45	0	1724907520	60	7831
2026-01-30 12:29:53.06	144.86	38.15	-45.4	-45.9	25.6	0.00e+00	0	45	0	1732247552	60	7751
2026-01-30 12:29:54.07	144.81	38.40	-45.3	-45.9	25.6	0.00e+00	0	45	0	1739587584	60	7696
2026-01-30 12:29:55.07	144.75	38.65	-45.4	-46.0	25.5	0.00e+00	0	45	0	1746927616	60	7828
2026-01-30 12:29:56.08	144.70	38.91	-45.5	-46.1	25.4	0.00e+00	0	45	0	1754267648	60	7904
2026-01-30 12:29:57.09	144.64	39.16	-45.7	-46.3	25.3	0.00e+00	0	45	0	1761607680	60	8053
2026-01-30 12:29:58.09	144.59	39.42	-45.8	-46.3	25.2	0.00e+00	0	45	0	1768947712	60	8134
2026-01-30 12:29:59.10	144.53	39.68	-45.8	-46.4	25.3	0.00e+00	0	45	0	1776287744	60	8144
2026-01-30 12:30:00.11	144.47	39.94	-45.9	-46.5	25.1	0.00e+00	0	45	0	1783627776	60	8247
2026-01-30 12:30:01.11	144.41	40.20	-46.1	-46.7	25.0	0.00e+00	0	46	0	1790967808	60	8434
2026-01-30 12:30:02.12	144.35	40.47	-46.1	-46.7	25.0	0.00e+00	0	45	0	1798307840	60	8466
2026-01-30 12:30:03.12	144.29	40.74	-46.0	-46.6	25.0	0.00e+00	0	45	0	1804599296	60	8367
2026-01-30 12:30:04.13	144.23	41.01	-46.2	-46.8	24.9	0.00e+00	0	45	0	1811939328	60	8530
2026-01-30 12:30:05.14	144.16	41.28	-46.1	-46.6	25.1	0.00e+00	0	45	0	1819279360	60	8416
2026-01-30 12:30:06.15	144.10	41.55	-45.9	-46.5	25.0	0.00e+00	0	45	0	1826619392	60	8307
2026-01-30 12:30:07.15	144.03	41.83	-45.9	-46.4	24.8	0.00e+00	0	45	0	1833959424	60	8218
2026-01-30 12:30:08.16	143.96	42.10	-46.1	-46.7	24.8	0.00e+00	0	45	0	1841299456	60	8450
2026-01-30 12:30:09.17	143.90	42.38	-46.2	-46.8	24.6	0.00e+00	0	45	0	1848639488	60	8609
2026-01-30 12:30:10.18	143.83	42.67	-46.2	-46.8	24.5	0.00e+00	0	45	0	1855979520	60	8609
2026-01-30 12:30:11.19	143.76	42.95	-46.4	-47.0	24.5	0.00e+00	0	45	0	1863319552	60	8758
2026-01-30 12:30:12.20	143.68	43.24	-46.2	-46.8	24.6	0.00e+00	0	45	0	1870659584	60	8569
2026-01-30 12:30:13.20	143.61	43.52	-46.4	-47.0	24.4	0.00e+00	0	45	0	1877999616	60	8791
2026-01-30 12:30:14.21	143.53	43.81	-46.5	-47.1	24.4	0.00e+00	0	45	0	1885339648	60	8915
2026-01-30 12:30:15.22	143.46	44.11	-46.7	-47.3	24.2	0.00e+00	0	45	0	1892679680	60	9097
2026-01-30 12:30:16.22	143.38	44.40	-46.9	-47.5	24.0	0.00e+00	0	45	0	1900019712	60	9331
2026-01-30 12:30:17.23	143.30	44.70	-46.9	-47.6	24.2	0.00e+00	0	45	0	1907359744	60	9366
2026-01-30 12:30:18.23	143.22	44.99	-46.9	-47.5	24.2	0.00e+00	0	45	0	1913651200	60	9298
2026-01-30 12:30:19.24	143.14	45.29	-46.7	-47.3	24.3	0.00e+00	0	45	0	1920991232	60	9111
2026-01-30 12:30:20.25	143.05	45.60	-46.7	-47.3	24.3	0.00e+00	0	45	0	1928331264	60	9120
2026-01-30 12:30:21.26	142.97	45.90	-46.8	-47.4	24.2	0.00e+00	0	45	0	1935671296	60	9193
2026-01-30 12:30:22.26	142.88	46.21	-46.7	-47.3	24.3	0.00e+00	0	45	0	1943011328	60	9057
2026-01-30 12:30:23.26	142.79	46.52	-46.6	-47.2	24.4	0.00e+00	0	45	0	1950351360	60	8952
2026-01-30 12:30:24.27	142.70	46.83	-46.8	-47.4	24.2	0.00e+00	0	45	0	1957691392	60	9179
2026-01-30 12:30:25.27	142.61	47.14	-47.1	-47.7	24.1	0.00e+00	0	45	0	1965031424	60	9481
2026-01-30 12:30:26.28	142.51	47.46	-46.7	-47.3	24.4	0.00e+00	0	45	0	1972371456	60	9125
2026-01-30 12:30:27.28	142.41	47.77	-46.9	-47.6	24.2	0.00e+00	0	45	0	1978662912	60	9349
2026-01-30 12:30:28.29	142.31	48.10	-46.9	-47.5	24.2	0.00e+00	0	45	0	1987051520	60	9320
2026-01-30 12:30:29.29	142.21	48.42	-47.0	-47.6	24.0	0.00e+00	0	45	0	1994391552	60	9382
2026-01-30 12:30:30.30	142.11	48.74	-47.1	-47.8	23.9	0.00e+00	0	45	0	2001731584	60	9567
2026-01-30 12:30:31.31	142.00	49.07	-47.1	-47.7	23.9	0.00e+00	0	45	0	2009071616	60	9535
2026-01-30 12:30:32.31	141.89	49.40	-47.3	-48.0	23.7	0.00e+00	0	45	0	2016411648	60	9828
2026-01-30 12:30:33.32	141.78	49.73	-47.1	-47.8	23.8	0.00e+00	0	45	0	2022703104	60	9606
2026-01-30 12:30:34.33	141.67	50.07	-47.1	-47.8	23.9	0.00e+00	0	45	0	2030043136	60	9568
2026-01-30 12:30:35.33	141.55	50.40	-47.0	-47.7	23.9	0.00e+00	0	45	0	2037383168	60	9466
2026-01-30 12:30:36.34	141.43	50.74	-47.2	-47.9	24.3	0.00e+00	0	45	0	2044723200	60	9701
2026-01-30 12:30:37.34	141.31	51.08	-47.1	-47.8	24.0	0.00e+00	0	45	0	2052063232	60	9575
2026-01-30 12:30:38.34	141.19	51.42	-47.2	-47.9	23.8	0.00e+00	0	45	0	2059403264	60	9675
2026-01-30 12:30:39.35	141.06	51.77	-47.2	-47.8	23.9	0.00e+00	0	45	0	2066743296	60	9565
2026-01-30 12:30:40.35	140.93	52.12	-47.4	-48.0	23.8	0.00e+00	0	45	0	2074083328	60	9816
2026-01-30 12:30:41.35	140.80	52.47	-47.6	-48.3	23.5	0.00e+00	0	45	0	2080374784	60	10136
2026-01-30 12:30:42.36	140.66	52.82	-47.7	-48.4	23.5	0.00e+00	0	45	0	2087714816	60	10251
2026-01-30 12:30:43.36	140.52	53.17	-47.9	-48.6	23.4	0.00e+00	0	45	0	2095054848	60	10555
2026-01-30 12:30:44.36	140.38	53.53	-48.0	-48.7	23.3	0.00e+00	0	45	0	2102394880	60	10648
2026-01-30 12:30:45.36	140.23	53.89	-47.7	-48.4	23.5	0.00e+00	0	45	0	2109734912	60	10282
2026-01-30 12:30:46.36	140.08	54.25	-47.6	-48.2	23.7	0.00e+00	0	45	0	2117074944	60	10113
2026-01-30 12:30:47.36	139.93	54.61	-47.7	-48.3	23.7	0.00e+00	0	45	0	2124414976	60	10183
2026-01-30 12:30:48.36	139.77	54.98	-47.5	-48.1	23.9	0.00e+00	0	45	0	2131755008	60	9993
2026-01-30 12:30:49.37	139.61	55.35	-47.5	-48.1	23.8	0.00e+00	0	45	0	2139095040	60	9990
2026-01-30 12:30:50.37	139.44	55.72	-47.6	-48.2	23.7	0.00e+00	0	45	0	2145386496	60	10072
2026-01-30 12:30:51.38	139.26	56.09	-47.9	-48.6	23.3	0.00e+00	0	45	0	2152726528	60	10540
2026-01-30 12:30:52.38	139.09	56.47	-48.1	-48.8	23.5	0.00e+00	0	45	0	2160066560	60	10737
2026-01-30 12:30:53.39	138.90	56.85	-48.0	-48.7	23.4	0.00e+00	0	45	0	2168455168	60	10686
2026-01-30 12:30:54.39	138.72	57.22	-48.0	-48.7	23.4	0.00e+00	0	45	0	2175795200	60	10627
2026-01-30 12:30:55.40	138.52	57.61	-47.9	-48.6	23.5	0.00e+00	0	45	0	2183135232	60	10562
2026-01-30 12:30:56.41	138.32	58.00	-47.9	-48.5	23.7	0.00e+00	0	45	0	2189426688	60	10439
2026-01-30 12:30:57.41	138.12	58.38	-47.9	-48.6	23.5	0.00e+00	0	45	0	2196766720	60	10602
2026-01-30 12:30:58.42	137.91	58.77	-47.8	-48.4	23.9	0.00e+00	0	45	0	2204106752	60	10343
2026-01-30 12:30:59.42	137.69	59.16	-47.9	-48.6	23.6	0.00e+00	0	45	0	2211446784	60	10496
2026-01-30 12:31:00.43	137.47	59.56	-47.8	-48.5	23.9	0.00e+00	0	45	0	2218786816	60	10401
2026-01-30 12:31:01.44	137.24	59.95	-47.5	-48.1	24.2	0.00e+00	0	45	0	2226126848	60	9962
2026-01-30 12:31:02.44	137.00	60.35	-47.4	-48.1	24.3	0.00e+00	0	45	0	2233466880	60	9990
2026-01-30 12:31:03.45	136.75	60.75	-47.2	-47.8	24.5	0.00e+00	0	45	0	2240806912	60	9622
2026-01-30 12:31:04.45	136.50	61.15	-47.2	-47.8	24.3	0.00e+00	0	45	0	2247098368	60	9594
2026-01-30 12:31:05.46	136.24	61.56	-47.1	-47.8	24.3	0.00e+00	0	45	0	2254438400	60	9579
2026-01-30 12:31:06.46	135.97	61.96	-47.0	-47.6	24.5	0.00e+00	0	45	0	2261778432	60	9440
2026-01-30 12:31:07.47	135.68	62.37	-47.0	-47.7	24.3	0.00e+00	0	45	0	2269118464	60	9481
2026-01-30 12:31:08.48	135.39	62.78	-47.0	-47.6	24.8	0.00e+00	0	45	0	2276458496	60	9448
2026-01-30 12:31:09.49	135.09	63.19	-46.6	-47.2	25.0	0.00e+00	0	45	0	2284847104	60	8931
2026-01-30 12:31:10.50	134.78	63.61	-46.5	-47.1	25.0	0.00e+00	0	46	0	2291138560	60	8907
2026-01-30 12:31:11.50	134.46	64.02	-46.5	-47.1	25.1	0.00e+00	0	45	0	2298478592	60	8858
2026-01-30 12:31:12.51	134.12	64.44	-46.0	-46.6	25.1	0.00e+00	0	45	0	2305818624	60	8347
2026-01-30 12:31:13.50	133.78	64.85	-46.1	-46.8	25.0	0.00e+00	0	45	0	2313158656	60	8527
2026-01-30 12:31:14.51	133.42	65.27	-46.0	-46.7	25.3	0.00e+00	0	45	0	2320498688	60	8442
2026-01-30 12:31:15.51	133.05	65.69	-46.1	-46.7	25.3	0.00e+00	0	45	0	2327838720	60	8512
2026-01-30 12:31:16.52	132.66	66.11	-46.2	-46.9	25.1	0.00e+00	0	45	0	2335178752	60	8630
2026-01-30 12:31:17.53	132.25	66.54	-46.0	-46.6	25.3	0.00e+00	0	45	0	2342518784	60	8374
2026-01-30 12:31:18.54	131.83	66.96	-46.2	-46.8	25.1	0.00e+00	0	45	0	2349858816	60	8582
2026-01-30 12:31:19.54	131.39	67.39	-46.1	-46.7	25.3	0.00e+00	0	45	0	2356150272	60	8516
2026-01-30 12:31:20.55	130.93	67.81	-45.9	-46.6	25.4	0.00e+00	0	45	0	2363490304	60	8358
2026-01-30 12:31:21.56	130.45	68.24	-45.9	-46.5	25.6	0.00e+00	0	46	0	2370830336	60	8325
2026-01-30 12:31:22.56	129.96	68.67	-46.1	-46.8	25.5	0.00e+00	0	46	0	2378170368	60	8570
2026-01-30 12:31:23.57	129.44	69.10	-46.1	-46.8	25.3	0.00e+00	0	46	0	2385510400	60	8538
2026-01-30 12:31:24.57	128.90	69.52	-46.2	-46.9	25.3	0.00e+00	0	45	0	2392850432	60	8678
2026-01-30 12:31:25.58	128.32	69.95	-46.4	-47.2	25.1	0.00e+00	0	45	0	2400190464	60	8929
2026-01-30 12:31:26.59	127.73	70.38	-46.5	-47.2	25.0	0.00e+00	0	46	0	2407530496	60	8992
2026-01-30 12:31:27.59	127.11	70.80	-46.3	-47.0	25.2	0.00e+00	0	45	0	2414870528	60	8799
2026-01-30 12:31:28.60	126.45	71.23	-46.2	-46.9	25.1	0.00e+00	0	45	0	2422210560	60	8688
2026-01-30 12:31:29.61	125.76	71.66	-46.4	-47.1	25.2	0.00e+00	0	45	0	2429550592	60	8852
2026-01-30 12:31:30.62	125.03	72.09	-46.4	-47.1	25.2	0.00e+00	0	45	0	2436890624	60	8850
2026-01-30 12:31:31.62	124.28	72.51	-46.3	-46.9	25.3	0.00e+00	0	45	0	2444230656	60	8696
2026-01-30 12:31:32.63	123.48	72.94	-46.1	-46.8	25.1	0.00e+00	0	45	0	2451570688	60	8555
2026-01-30 12:31:33.64	122.63	73.36	-45.8	-46.5	25.6	0.00e+00	0	45	0	2458910720	60	8252
2026-01-30 12:31:34.65	121.74	73.78	-45.6	-46.3	25.8	0.00e+00	0	45	0	2465202176	60	8051
2026-01-30 12:31:35.65	120.81	74.19	-45.6	-46.3	25.9	0.00e+00	0	45	0	2472542208	60	8086
2026-01-30 12:31:36.66	119.81	74.61	-45.8	-46.5	25.6	0.00e+00	0	45	0	2479882240	60	8256
2026-01-30 12:31:37.67	118.76	75.02	-46.0	-46.6	25.4	0.00e+00	0	46	0	2487222272	60	8393
2026-01-30 12:31:38.67	117.66	75.42	-45.6	-46.2	25.6	0.00e+00	0	45	0	2494562304	60	8016
2026-01-30 12:31:39.67	116.49	75.82	-45.5	-46.1	25.9	0.00e+00	0	46	0	2501902336	60	7882
2026-01-30 12:31:40.68	115.24	76.22	-45.2	-45.8	26.1	0.00e+00	0	45	0	2509242368	60	7605
2026-01-30 12:31:41.69	113.92	76.61	-45.1	-45.7	26.2	0.00e+00	0	45	0	2516582400	60	7512
2026-01-30 12:31:42.70	112.51	77.00	-44.7	-45.3	26.3	0.00e+00	0	45	0	2523922432	60	7201
2026-01-30 12:31:43.71	111.01	77.38	-44.8	-45.4	26.2	0.00e+00	0	45	0	2531262464	60	7318
2026-01-30 12:31:44.71	109.44	77.75	-44.7	-45.3	26.2	0.00e+00	0	46	0	2538602496	60	7231
2026-01-30 12:31:45.72	107.75	78.11	-44.7	-45.3	26.2	0.00e+00	0	46	0	2545942528	60	7229
2026-01-30 12:31:46.72	105.97	78.46	-44.6	-45.2	26.2	0.00e+00	0	45	0	2553282560	60	7126
2026-01-30 12:31:47.73	104.05	78.80	-44.4	-45.0	26.2	0.00e+00	0	45	0	2560622592	60	6966
2026-01-30 12:31:48.74	102.02	79.13	-44.2	-44.8	26.4	0.00e+00	0	46	0	2566914048	60	6785
2026-01-30 12:31:49.74	99.88	79.44	-44.0	-44.6	26.3	0.00e+00	0	46	0	2574254080	60	6625
2026-01-30 12:31:50.75	97.59	79.74	-44.6	-45.2	25.9	0.00e+00	0	45	0	2581594112	60	7154
2026-01-30 12:31:51.75	95.19	80.02	-44.9	-45.6	25.6	0.00e+00	0	45	0	2588934144	60	7439
2026-01-30 12:31:52.76	92.63	80.29	-44.4	-45.0	26.1	0.00e+00	0	45	0	2596274176	60	6978
2026-01-30 12:31:53.76	89.95	80.53	-44.4	-45.0	26.2	0.00e+00	0	45	0	2603614208	60	6952
2026-01-30 12:31:54.76	87.13	80.75	-44.4	-45.0	25.9	0.00e+00	0	46	0	2610954240	60	6950
2026-01-30 12:31:55.77	84.16	80.95	-44.9	-45.5	25.5	0.00e+00	0	45	0	2618294272	60	7414
2026-01-30 12:31:56.78	81.05	81.13	-45.1	-45.7	25.4	0.00e+00	0	45	0	2625634304	60	7589
2026-01-30 12:31:57.79	77.82	81.28	-44.9	-45.5	25.7	0.00e+00	0	45	0	2631925760	60	7413
2026-01-30 12:31:58.80	74.50	81.40	-44.5	-45.0	25.9	0.00e+00	0	45	0	2640314368	60	6995
2026-01-30 12:31:59.80	71.12	81.49	-44.4	-45.0	26.1	0.00e+00	0	45	0	2647654400	60	6975
2026-01-30 12:32:00.81	67.65	81.55	-44.6	-45.2	25.9	0.00e+00	0	45	0	2654994432	60	7116
2026-01-30 12:32:01.81	64.17	81.58	-44.8	-45.4	25.9	0.00e+00	0	45	0	2662334464	60	7319
2026-01-30 12:32:02.81	60.69	81.58	-44.8	-45.4	25.7	0.00e+00	0	45	0	2669674496	60	7326
2026-01-30 12:32:03.82	57.18	81.54	-45.0	-45.6	25.4	0.00e+00	0	45	0	2675965952	60	7457
2026-01-30 12:32:04.82	53.75	81.48	-44.9	-45.5	25.3	0.00e+00	0	45	0	2683305984	60	7410
2026-01-30 12:32:05.83	50.34	81.39	-45.0	-45.7	25.3	0.00e+00	0	46	0	2690646016	60	7515
2026-01-30 12:32:06.84	47.02	81.27	-44.5	-45.1	25.9	0.00e+00	0	46	0	2697986048	60	7041
2026-01-30 12:32:07.84	43.84	81.12	-44.2	-44.8	26.0	0.00e+00	0	45	0	2705326080	60	6807
2026-01-30 12:32:08.85	40.74	80.94	-44.4	-45.0	26.1	0.00e+00	0	46	0	2712666112	60	6963
2026-01-30 12:32:09.86	37.77	80.74	-44.5	-45.1	26.3	0.00e+00	0	46	0	2720006144	60	7042
2026-01-30 12:32:10.86	34.96	80.52	-44.3	-44.9	26.5	0.00e+00	0	45	0	2727346176	60	6880
2026-01-30 12:32:11.87	32.27	80.27	-44.4	-44.9	26.7	0.00e+00	0	45	0	2733637632	60	6891
2026-01-30 12:32:12.88	29.71	80.00	-44.7	-45.3	26.5	0.00e+00	0	45	0	2740977664	60	7198
2026-01-30 12:32:13.88	27.32	79.72	-44.7	-45.3	26.3	0.00e+00	0	45	0	2748317696	60	7227
2026-01-30 12:32:14.89	25.04	79.42	-44.7	-45.2	26.4	0.00e+00	0	45	0	2756706304	60	7163
2026-01-30 12:32:15.90	22.89	79.10	-44.6	-45.2	26.4	0.00e+00	0	45	0	2764046336	60	7134
2026-01-30 12:32:16.90	20.89	78.78	-44.6	-45.2	26.6	0.00e+00	0	45	0	2771386368	60	7108
2026-01-30 12:32:17.91	18.98	78.44	-44.4	-45.0	26.6	0.00e+00	0	46	0	2777677824	60	6938
2026-01-30 12:32:18.91	17.21	78.09	-44.4	-44.9	26.6	0.00e+00	0	46	0	2785017856	60	6913
2026-01-30 12:32:19.92	15.53	77.72	-44.7	-45.2	26.3	0.00e+00	0	45	0	2792357888	60	7152
2026-01-30 12:32:20.93	13.95	77.35	-45.0	-45.6	25.8	0.00e+00	0	45	0	2799697920	60	7436
2026-01-30 12:32:21.94	12.46	76.97	-45.2	-45.8	25.5	0.00e+00	0	45	0	2807037952	60	7625
2026-01-30 12:32:22.94	11.07	76.59	-45.2	-45.8	25.5	0.00e+00	0	45	0	2814377984	60	7650
2026-01-30 12:32:23.95	9.75	76.20	-45.2	-45.8	25.6	0.00e+00	0	45	0	2821718016	60	7635
2026-01-30 12:32:24.95	8.52	75.80	-45.3	-45.9	25.5	0.00e+00	0	45	0	2829058048	60	7716
2026-01-30 12:32:25.96	7.34	75.40	-45.6	-46.2	25.1	0.00e+00	0	45	0	2836398080	60	8037
2026-01-30 12:32:26.96	6.24	75.00	-45.8	-46.5	24.8	0.00e+00	0	45	0	2842689536	60	8251
2026-01-30 12:32:27.97	5.20	74.59	-45.8	-46.5	24.7	0.00e+00	0	45	0	2850029568	60	8238
2026-01-30 12:32:28.98	4.21	74.17	-45.7	-46.4	24.8	0.00e+00	0	45	0	2857369600	60	8168
2026-01-30 12:32:29.99	3.27	73.75	-45.7	-46.3	24.9	0.00e+00	0	46	0	2864709632	60	8103
2026-01-30 12:32:30.99	2.39	73.34	-45.8	-46.5	24.9	0.00e+00	0	46	0	2873098240	60	8249
2026-01-30 12:32:32.01	1.54	72.91	-45.8	-46.5	24.8	0.00e+00	0	46	0	2880438272	60	8235
2026-01-30 12:32:33.01	0.75	72.49	-45.9	-46.5	24.7	0.00e+00	0	45	0	2886729728	60	8316
2026-01-30 12:32:34.02	359.99	72.06	-46.0	-46.6	24.6	0.00e+00	0	45	0	2894069760	60	8376
2026-01-30 12:32:35.03	359.27	71.64	-46.1	-46.7	24.5	0.00e+00	0	45	0	2901409792	60	8440
2026-01-30 12:32:36.04	358.58	71.21	-46.2	-46.9	24.6	0.00e+00	0	45	0	2908749824	60	8630
2026-01-30 12:32:37.04	357.93	70.79	-46.1	-46.7	24.7	0.00e+00	0	45	0	2916089856	60	8508
2026-01-30 12:32:38.05	357.31	70.36	-45.9	-46.5	24.9	0.00e+00	0	45	0	2923429888	60	8252
2026-01-30 12:32:39.06	356.71	69.93	-46.1	-46.6	24.8	0.00e+00	0	46	0	2930769920	60	8417
2026-01-30 12:32:40.06	356.15	69.50	-46.2	-46.8	24.8	0.00e+00	0	45	0	2938109952	60	8606
2026-01-30 12:32:41.07	355.61	69.07	-46.4	-47.0	24.7	0.00e+00	0	45	0	2945449984	60	8756
2026-01-30 12:32:42.08	355.09	68.65	-46.3	-46.9	24.8	0.00e+00	0	45	0	2951741440	60	8632
2026-01-30 12:32:43.09	354.59	68.22	-45.9	-46.5	25.2	0.00e+00	0	45	0	2960130048	60	8255
2026-01-30 12:32:44.10	354.11	67.79	-45.8	-46.4	25.2	0.00e+00	0	46	0	2967470080	60	8172
2026-01-30 12:32:45.10	353.66	67.37	-45.7	-46.3	25.4	0.00e+00	0	46	0	2974810112	60	8062
2026-01-30 12:32:46.11	353.22	66.94	-45.9	-46.6	25.2	0.00e+00	0	45	0	2982150144	60	8341
2026-01-30 12:32:47.11	352.80	66.52	-46.1	-46.7	24.8	0.00e+00	0	45	0	2989490176	60	8516
2026-01-30 12:32:48.12	352.40	66.10	-46.1	-46.7	24.9	0.00e+00	0	45	0	2995781632	60	8497
2026-01-30 12:32:49.13	352.01	65.67	-46.1	-46.7	25.0	0.00e+00	0	45	0	3003121664	60	8449
2026-01-30 12:32:50.14	351.63	65.25	-46.1	-46.7	24.9	0.00e+00	0	45	0	3010461696	60	8436
2026-01-30 12:32:51.15	351.27	64.83	-46.2	-46.8	25.1	0.00e+00	0	45	0	3017801728	60	8551
2026-01-30 12:32:52.15	350.93	64.42	-46.4	-47.0	24.8	0.00e+00	0	45	0	3025141760	60	8769
2026-01-30 12:32:53.16	350.60	64.00	-46.6	-47.2	24.8	0.00e+00	0	45	0	3032481792	60	8973
2026-01-30 12:32:54.17	350.27	63.59	-46.8	-47.4	24.3	0.00e+00	0	45	0	3039821824	60	9209
2026-01-30 12:32:55.17	349.96	63.18	-47.0	-47.7	24.4	0.00e+00	0	45	0	3047161856	60	9472
2026-01-30 12:32:56.18	349.66	62.76	-47.0	-47.7	24.3	0.00e+00	0	45	0	3053453312	60	9474
2026-01-30 12:32:57.19	349.37	62.35	-47.1	-47.7	24.4	0.00e+00	0	45	0	3061841920	60	9479
2026-01-30 12:32:58.20	349.09	61.94	-47.0	-47.6	24.5	0.00e+00	0	45	0	3069181952	60	9359
2026-01-30 12:32:59.20	348.82	61.54	-47.1	-47.7	24.2	0.00e+00	0	45	0	3076521984	60	9529
2026-01-30 12:33:00.21	348.56	61.14	-47.2	-47.8	24.3	0.00e+00	0	46	0	3083862016	60	9641
2026-01-30 12:33:01.21	348.31	60.74	-47.4	-48.1	24.0	0.00e+00	0	46	0	3091202048	60	9903
2026-01-30 12:33:02.21	348.07	60.34	-47.5	-48.1	24.0	0.00e+00	0	46	0	3097493504	60	10011
2026-01-30 12:33:03.22	347.83	59.94	-47.4	-48.0	23.9	0.00e+00	0	45	0	3104833536	60	9871
2026-01-30 12:33:04.22	347.60	59.55	-47.7	-48.3	23.7	0.00e+00	0	45	0	3112173568	60	10216
2026-01-30 12:33:05.23	347.37	59.16	-47.9	-48.5	23.4	0.00e+00	0	45	0	3119513600	60	10466
2026-01-30 12:33:06.24	347.16	58.76	-47.9	-48.6	23.3	0.00e+00	0	45	0	3126853632	60	10515
2026-01-30 12:33:07.24	346.95	58.38	-47.7	-48.4	23.3	0.00e+00	0	45	0	3134193664	60	10261
2026-01-30 12:33:08.25	346.74	57.99	-47.5	-48.2	23.2	0.00e+00	0	46	0	3141533696	60	10059
2026-01-30 12:33:09.26	346.54	57.60	-47.4	-48.1	23.3	0.00e+00	0	45	0	3148873728	60	9902
2026-01-30 12:33:10.27	346.35	57.22	-47.5	-48.2	23.3	0.00e+00	0	45	0	3156213760	60	10089
2026-01-30 12:33:11.27	346.17	56.84	-47.6	-48.3	22.8	0.00e+00	0	45	0	3162505216	60	10161
2026-01-30 12:33:12.28	345.98	56.46	-47.7	-48.4	22.8	0.00e+00	0	45	0	3169845248	60	10350
2026-01-30 12:33:13.28	345.81	56.09	-47.8	-48.5	22.3	0.00e+00	0	45	0	3177185280	60	10430
2026-01-30 12:33:14.29	345.63	55.72	-47.7	-48.4	22.7	0.00e+00	0	45	0	3185573888	60	10305
2026-01-30 12:33:15.29	345.47	55.35	-47.6	-48.3	22.8	0.00e+00	0	45	0	3192913920	60	10148
2026-01-30 12:33:16.30	345.30	54.98	-47.7	-48.3	22.7	0.00e+00	0	45	0	3200253952	60	10225
2026-01-30 12:33:17.31	345.14	54.61	-47.6	-48.2	22.7	0.00e+00	0	45	0	3206545408	60	10126
2026-01-30 12:33:18.32	344.99	54.25	-47.2	-47.9	22.9	0.00e+00	0	45	0	3213885440	60	9675
2026-01-30 12:33:19.32	344.84	53.89	-47.1	-47.8	23.3	0.00e+00	0	45	0	3221225472	60	9629
2026-01-30 12:33:20.32	344.69	53.53	-47.1	-47.7	23.5	0.00e+00	0	45	0	3228565504	60	9503
2026-01-30 12:33:21.33	344.55	53.17	-47.1	-47.7	23.4	0.00e+00	0	45	0	3235905536	60	9536
2026-01-30 12:33:22.34	344.41	52.82	-47.1	-47.7	23.6	0.00e+00	0	45	0	3243245568	60	9539
2026-01-30 12:33:23.35	344.27	52.46	-47.3	-47.9	23.4	0.00e+00	0	45	0	3250585600	60	9763
2026-01-30 12:33:24.36	344.14	52.11	-47.3	-48.0	23.3	0.00e+00	0	45	0	3257925632	60	9803
2026-01-30 12:33:25.36	344.01	51.77	-47.4	-48.0	23.5	0.00e+00	0	45	0	3264217088	60	9892
2026-01-30 12:33:26.37	343.88	51.42	-47.3	-47.9	23.6	0.00e+00	0	45	0	3271557120	60	9781
2026-01-30 12:33:27.38	343.76	51.08	-47.2	-47.9	23.8	0.00e+00	0	45	0	3278897152	60	9710
2026-01-30 12:33:28.39	343.64	50.73	-47.1	-47.8	23.8	0.00e+00	0	45	0	3286237184	60	9603
2026-01-30 12:33:29.39	343.52	50.40	-47.1	-47.7	23.8	0.00e+00	0	45	0	3294625792	60	9528
2026-01-30 12:33:30.40	343.40	50.06	-47.0	-47.6	23.9	0.00e+00	0	45	0	3301965824	60	9427
2026-01-30 12:33:31.40	343.29	49.73	-47.2	-47.8	23.8	0.00e+00	0	45	0	3308257280	60	9627
2026-01-30 12:33:32.40	343.18	49.40	-47.3	-48.0	23.6	0.00e+00	0	45	0	3315597312	60	9822
2026-01-30 12:33:33.41	343.07	49.07	-47.4	-48.0	23.6	0.00e+00	0	45	0	3322937344	60	9847
2026-01-30 12:33:34.42	342.97	48.74	-47.2	-47.9	23.6	0.00e+00	0	45	0	3330277376	60	9719
2026-01-30 12:33:35.42	342.87	48.42	-47.3	-48.0	23.7	0.00e+00	0	45	0	3337617408	60	9835
2026-01-30 12:33:36.43	342.76	48.10	-47.0	-47.7	24.1	0.00e+00	0	46	0	3344957440	60	9475
2026-01-30 12:33:37.43	342.67	47.78	-47.0	-47.6	24.2	0.00e+00	0	45	0	3352297472	60	9368
2026-01-30 12:33:38.44	342.57	47.46	-46.7	-47.3	24.5	0.00e+00	0	45	0	3359637504	60	9077
2026-01-30 12:33:39.45	342.47	47.15	-46.5	-47.2	24.3	0.00e+00	0	45	0	3366977536	60	8955
2026-01-30 12:33:40.45	342.38	46.84	-46.5	-47.1	24.9	0.00e+00	0	45	0	3373268992	60	8835
2026-01-30 12:33:41.46	342.29	46.52	-46.4	-47.0	24.8	0.00e+00	0	45	0	3380609024	60	8754
2026-01-30 12:33:42.46	342.20	46.22	-46.2	-46.8	24.8	0.00e+00	0	45	0	3387949056	60	8610
2026-01-30 12:33:43.45	342.12	45.92	-46.2	-46.8	25.1	0.00e+00	0	45	0	3395289088	60	8584
2026-01-30 12:33:44.46	342.03	45.61	-46.0	-46.6	25.2	0.00e+00	0	45	0	3402629120	60	8413
2026-01-30 12:33:45.46	341.95	45.31	-45.8	-46.4	24.9	0.00e+00	0	45	0	3409969152	60	8218
2026-01-30 12:33:46.47	341.86	45.01	-45.8	-46.3	25.3	0.00e+00	0	45	0	3417309184	60	8132
2026-01-30 12:33:47.47	341.78	44.72	-45.7	-46.3	25.2	0.00e+00	0	45	0	3424649216	60	8094
2026-01-30 12:33:48.48	341.70	44.42	-45.8	-46.4	25.1	0.00e+00	0	45	0	3431989248	60	8144
2026-01-30 12:33:49.49	341.63	44.13	-45.8	-46.4	25.0	0.00e+00	0	46	0	3439329280	60	8152
2026-01-30 12:33:50.50	341.55	43.83	-45.8	-46.4	25.0	0.00e+00	0	45	0	3446669312	60	8230
2026-01-30 12:33:51.51	341.48	43.55	-45.8	-46.4	24.9	0.00e+00	0	46	0	3454009344	60	8189
2026-01-30 12:33:52.52	341.40	43.26	-45.8	-46.4	24.8	0.00e+00	0	45	0	3461349376	60	8178
2026-01-30 12:33:53.52	341.33	42.97	-45.7	-46.3	25.1	0.00e+00	0	45	0	3468689408	60	8049
2026-01-30 12:33:54.53	341.26	42.69	-45.5	-46.1	25.0	0.00e+00	0	45	0	3474980864	60	7932
2026-01-30 12:33:55.54	341.19	42.41	-45.6	-46.2	25.2	0.00e+00	0	45	0	3482320896	60	8029
2026-01-30 12:33:56.55	341.12	42.13	-45.7	-46.3	25.1	0.00e+00	0	45	0	3489660928	60	8060
2026-01-30 12:33:57.55	341.06	41.86	-45.7	-46.3	25.2	0.00e+00	0	45	0	3497000960	60	8059
2026-01-30 12:33:58.56	340.99	41.58	-45.9	-46.5	24.9	0.00e+00	0	45	0	3504340992	60	8261
2026-01-30 12:33:59.57	340.93	41.31	-45.9	-46.5	24.7	0.00e+00	0	45	0	3511681024	60	8325
2026-01-30 12:34:00.58	340.86	41.04	-46.1	-46.7	24.4	0.00e+00	0	45	0	3519021056	60	8507
2026-01-30 12:34:01.58	340.80	40.77	-46.2	-46.8	24.5	0.00e+00	0	45	0	3526361088	60	8581
2026-01-30 12:34:02.59	340.74	40.50	-46.3	-46.9	24.3	0.00e+00	0	45	0	3533701120	60	8666
2026-01-30 12:34:03.59	340.68	40.24	-46.2	-46.8	24.1	0.00e+00	0	46	0	3541041152	60	8605
2026-01-30 12:34:04.60	340.62	39.98	-46.3	-46.9	24.1	0.00e+00	0	45	0	3548381184	60	8704
2026-01-30 12:34:05.61	340.56	39.72	-46.4	-47.0	24.0	0.00e+00	0	45	0	3555721216	60	8772
2026-01-30 12:34:06.61	340.51	39.46	-46.5	-47.1	23.9	0.00e+00	0	45	0	3563061248	60	8876
2026-01-30 12:34:07.62	340.45	39.20	-46.4	-47.1	24.0	0.00e+00	0	45	0	3570401280	60	8828
2026-01-30 12:34:08.63	340.39	38.94	-46.4	-47.0	24.1	0.00e+00	0	45	0	3577741312	60	8798
2026-01-30 12:34:09.63	340.34	38.69	-46.4	-47.0	23.9	0.00e+00	0	45	0	3584032768	60	8819
2026-01-30 12:34:10.64	340.29	38.44	-46.4	-47.1	23.9	0.00e+00	0	45	0	3591372800	60	8836
2026-01-30 12:34:11.64	340.24	38.19	-46.4	-47.1	24.0	0.00e+00	0	45	0	3598712832	60	8826
2026-01-30 12:34:12.65	340.18	37.95	-46.3	-46.9	24.1	0.00e+00	0	45	0	3606052864	60	8672
2026-01-30 12:34:13.65	340.13	37.70	-46.2	-46.8	24.2	0.00e+00	0	45	0	3613392896	60	8597
2026-01-30 12:34:14.66	340.08	37.46	-46.2	-46.8	24.4	0.00e+00	0	45	0	3620732928	60	8614
2026-01-30 12:34:15.66	340.03	37.22	-46.3	-46.9	24.3	0.00e+00	0	45	0	3628072960	60	8664
2026-01-30 12:34:16.66	339.99	36.98	-46.0	-46.6	24.7	0.00e+00	0	45	0	3635412992	60	8414
2026-01-30 12:34:17.67	339.94	36.74	-46.1	-46.7	24.8	0.00e+00	0	45	0	3642753024	60	8465
2026-01-30 12:34:18.67	339.89	36.50	-45.8	-46.4	25.0	0.00e+00	0	45	0	3649044480	60	8229
2026-01-30 12:34:19.68	339.85	36.26	-45.6	-46.2	25.1	0.00e+00	0	45	0	3656384512	60	8014
2026-01-30 12:34:20.68	339.80	36.03	-45.7	-46.3	25.0	0.00e+00	0	45	0	3663724544	60	8048
2026-01-30 12:34:21.69	339.76	35.80	-45.6	-46.1	25.2	0.00e+00	0	45	0	3672113152	60	7952
2026-01-30 12:34:22.69	339.71	35.57	-45.6	-46.1	25.4	0.00e+00	0	45	0	3679453184	60	7936
2026-01-30 12:34:23.70	339.67	35.34	-45.5	-46.1	25.3	0.00e+00	0	45	0	3686793216	60	7929
2026-01-30 12:34:24.70	339.63	35.12	-45.5	-46.1	25.4	0.00e+00	0	45	0	3693084672	60	7939
2026-01-30 12:34:25.71	339.58	34.89	-45.6	-46.2	25.4	0.00e+00	0	45	0	3700424704	60	7990
2026-01-30 12:34:26.71	339.54	34.67	-45.5	-46.1	25.5	0.00e+00	0	45	0	3707764736	60	7924
2026-01-30 12:34:27.72	339.50	34.44	-45.5	-46.1	25.3	0.00e+00	0	45	0	3715104768	60	7949
2026-01-30 12:34:28.73	339.46	34.22	-45.6	-46.2	25.4	0.00e+00	0	45	0	3722444800	60	8002
2026-01-30 12:34:29.74	339.42	34.00	-45.6	-46.2	25.3	0.00e+00	0	45	0	3729784832	60	7985
2026-01-30 12:34:30.74	339.38	33.79	-45.8	-46.4	24.8	0.00e+00	0	46	0	3737124864	60	8217
2026-01-30 12:34:31.75	339.34	33.57	-45.4	-46.1	25.3	0.00e+00	0	45	0	3744464896	60	7903
2026-01-30 12:34:32.76	339.31	33.35	-45.4	-46.1	25.5	0.00e+00	0	45	0	3750756352	60	7899
2026-01-30 12:34:33.76	339.27	33.14	-45.5	-46.2	25.5	0.00e+00	0	45	0	3758096384	60	7964
2026-01-30 12:34:34.77	339.23	32.93	-45.4	-46.0	25.4	0.00e+00	0	46	0	3765436416	60	7841
2026-01-30 12:34:35.78	339.20	32.72	-45.6	-46.2	25.4	0.00e+00	0	45	0	3772776448	60	8005
2026-01-30 12:34:36.79	339.16	32.51	-45.6	-46.2	25.4	0.00e+00	0	45	0	3781165056	60	7990
2026-01-30 12:34:37.79	339.13	32.30	-45.7	-46.3	25.3	0.00e+00	0	45	0	3788505088	60	8107
2026-01-30 12:34:38.80	339.09	32.10	-45.8	-46.4	25.2	0.00e+00	0	45	0	3794796544	60	8192
2026-01-30 12:34:39.80	339.06	31.89	-45.7	-46.3	25.3	0.00e+00	0	45	0	3802136576	60	8127
2026-01-30 12:34:40.81	339.02	31.69	-45.8	-46.4	25.2	0.00e+00	0	45	0	3809476608	60	8167
2026-01-30 12:34:41.82	338.99	31.49	-45.9	-46.5	25.1	0.00e+00	0	45	0	3816816640	60	8286
2026-01-30 12:34:42.82	338.96	31.29	-46.0	-46.6	25.0	0.00e+00	0	45	0	3824156672	60	8389
2026-01-30 12:34:43.83	338.92	31.09	-46.1	-46.7	24.9	0.00e+00	0	45	0	3831496704	60	8443
2026-01-30 12:34:44.84	338.89	30.89	-46.1	-46.7	24.9	0.00e+00	0	45	0	3838836736	60	8459
2026-01-30 12:34:45.84	338.86	30.69	-46.0	-46.6	24.9	0.00e+00	0	45	0	3846176768	60	8374
2026-01-30 12:34:46.85	338.83	30.50	-46.0	-46.6	24.9	0.00e+00	0	45	0	3853516800	60	8402
2026-01-30 12:34:47.85	338.80	30.31	-46.0	-46.6	24.9	0.00e+00	0	45	0	3859808256	60	8419
2026-01-30 12:34:48.86	338.77	30.11	-46.0	-46.6	24.8	0.00e+00	0	46	0	3867148288	60	8385
2026-01-30 12:34:49.86	338.74	29.92	-46.0	-46.6	24.7	0.00e+00	0	45	0	3874488320	60	8387
2026-01-30 12:34:50.87	338.71	29.73	-46.1	-46.7	24.7	0.00e+00	0	45	0	3881828352	60	8522
2026-01-30 12:34:51.87	338.68	29.54	-46.2	-46.8	24.5	0.00e+00	0	45	0	3889168384	60	8541
2026-01-30 12:34:52.88	338.65	29.36	-46.1	-46.8	24.6	0.00e+00	0	45	0	3896508416	60	8532
2026-01-30 12:34:53.89	338.62	29.17	-46.0	-46.6	24.9	0.00e+00	0	45	0	3903848448	60	8359
2026-01-30 12:34:54.89	338.60	28.99	-46.1	-46.7	24.7	0.00e+00	0	45	0	3911188480	60	8481
2026-01-30 12:34:55.90	338.57	28.80	-46.1	-46.8	24.6	0.00e+00	0	45	0	3918528512	60	8535
2026-01-30 12:34:56.91	338.54	28.62	-46.1	-46.7	24.8	0.00e+00	0	45	0	3925868544	60	8497
2026-01-30 12:34:57.91	338.51	28.44	-45.9	-46.5	24.9	0.00e+00	0	45	0	3933208576	60	8325
2026-01-30 12:34:58.91	338.49	28.26	-45.8	-46.4	25.1	0.00e+00	0	45	0	3940548608	60	8204
2026-01-30 12:34:59.92	338.46	28.08	-45.9	-46.5	25.0	0.00e+00	0	45	0	3947888640	60	8266
2026-01-30 12:35:00.92	338.44	27.90	-45.8	-46.4	24.9	0.00e+00	0	45	0	3955228672	60	8226
2026-01-30 12:35:01.93	338.41	27.72	-45.9	-46.5	24.9	0.00e+00	0	45	0	3961520128	60	8292
2026-01-30 12:35:02.93	338.38	27.55	-46.0	-46.6	24.8	0.00e+00	0	46	0	3968860160	60	8357
2026-01-30 12:35:03.94	338.36	27.37	-46.1	-46.7	24.8	0.00e+00	0	45	0	3976200192	60	8478
2026-01-30 12:35:04.94	338.34	27.20	-46.1	-46.7	24.8	0.00e+00	0	45	0	3983540224	60	8480
2026-01-30 12:35:05.95	338.31	27.03	-46.1	-46.8	24.9	0.00e+00	0	45	0	3990880256	60	8534
2026-01-30 12:35:06.95	338.29	26.86	-46.1	-46.8	24.9	0.00e+00	0	45	0	3998220288	60	8541
2026-01-30 12:35:07.96	338.26	26.69	-46.2	-46.8	24.7	0.00e+00	0	45	0	4005560320	60	8585
2026-01-30 12:35:08.97	338.24	26.52	-46.2	-46.9	24.8	0.00e+00	0	45	0	4012900352	60	8645
2026-01-30 12:35:09.98	338.22	26.35	-46.4	-47.0	24.7	0.00e+00	0	45	0	4020240384	60	8811
2026-01-30 12:35:10.99	338.19	26.18	-46.3	-46.9	24.7	0.00e+00	0	45	0	4026531840	60	8683
2026-01-30 12:35:11.99	338.17	26.02	-46.3	-46.9	24.7	0.00e+00	0	45	0	4034920448	60	8660
2026-01-30 12:35:13.00	338.15	25.85	-46.3	-46.9	24.8	0.00e+00	0	45	0	4042260480	60	8641
2026-01-30 12:35:14.01	338.13	25.69	-46.3	-47.0	24.7	0.00e+00	0	46	0	4049600512	60	8733
2026-01-30 12:35:15.01	338.11	25.52	-46.5	-47.1	24.6	0.00e+00	0	45	0	4056940544	60	8862
2026-01-30 12:35:16.02	338.08	25.36	-46.3	-46.9	24.6	0.00e+00	0	46	0	4064280576	60	8711
2026-01-30 12:35:17.02	338.06	25.20	-46.2	-46.8	24.9	0.00e+00	0	45	0	4070572032	60	8546
2026-01-30 12:35:18.03	338.04	25.04	-46.1	-46.7	24.9	0.00e+00	0	46	0	4077912064	60	8508
2026-01-30 12:35:19.03	338.02	24.88	-46.2	-46.8	24.9	0.00e+00	0	45	0	4085252096	60	8536
2026-01-30 12:35:20.04	338.00	24.72	-46.2	-46.9	24.8	0.00e+00	0	45	0	4092592128	60	8626
2026-01-30 12:35:21.05	337.98	24.57	-46.2	-46.9	24.7	0.00e+00	0	45	0	4099932160	60	8627
2026-01-30 12:35:22.06	337.96	24.41	-46.1	-46.7	25.0	0.00e+00	0	45	0	4107272192	60	8460
2026-01-30 12:35:23.06	337.94	24.26	-46.2	-46.8	24.7	0.00e+00	0	45	0	4114612224	60	8590
2026-01-30 12:35:24.07	337.92	24.10	-46.2	-46.9	24.8	0.00e+00	0	45	0	4121952256	60	8637
2026-01-30 12:35:25.07	337.90	23.95	-46.1	-46.8	24.9	0.00e+00	0	45	0	4129292288	60	8526
2026-01-30 12:35:26.08	337.88	23.79	-46.1	-46.7	24.9	0.00e+00	0	45	0	4135583744	60	8511
2026-01-30 12:35:27.09	337.87	23.64	-46.2	-46.8	24.8	0.00e+00	0	45	0	4143972352	60	8570
2026-01-30 12:35:28.10	337.85	23.49	-46.2	-46.8	24.8	0.00e+00	0	45	0	4151312384	60	8574
2026-01-30 12:35:29.10	337.83	23.34	-46.2	-46.8	24.8	0.00e+00	0	45	0	4158652416	60	8610
2026-01-30 12:35:30.11	337.81	23.19	-46.2	-46.9	24.8	0.00e+00	0	45	0	4165992448	60	8652
2026-01-30 12:35:31.12	337.79	23.04	-46.3	-46.9	24.8	0.00e+00	0	45	0	4173332480	60	8685
2026-01-30 12:35:32.12	337.77	22.90	-46.2	-46.8	24.8	0.00e+00	0	46	0	4179623936	60	8606
2026-01-30 12:35:33.13	337.76	22.75	-46.2	-46.9	24.6	0.00e+00	0	46	0	4186963968	60	8653
2026-01-30 12:35:34.14	337.74	22.60	-46.1	-46.8	24.8	0.00e+00	0	46	0	4194304000	60	8561
2026-01-30 12:35:35.15	337.72	22.46	-46.2	-46.9	24.7	0.00e+00	0	46	0	4201644032	60	8631
2026-01-30 12:35:36.16	337.71	22.31	-46.2	-46.9	24.6	0.00e+00	0	46	0	4208984064	60	8704
2026-01-30 12:35:37.16	337.69	22.17	-46.2	-46.9	24.6	0.00e+00	0	46	0	4216324096	60	8655
2026-01-30 12:35:38.17	337.67	22.03	-46.3	-47.0	24.6	0.00e+00	0	46	0	4223664128	60	8748
2026-01-30 12:35:39.18	337.66	21.89	-46.3	-47.0	24.6	0.00e+00	0	46	0	4231004160	60	8763
2026-01-30 12:35:40.19	337.64	21.74	-46.4	-47.0	24.4	0.00e+00	0	46	0	4237295616	60	8799
2026-01-30 12:35:41.19	337.62	21.61	-46.6	-47.2	24.3	0.00e+00	0	46	0	4245684224	60	8998
2026-01-30 12:35:42.19	337.61	21.47	-46.5	-47.1	24.4	0.00e+00	0	46	0	4253024256	60	8911
2026-01-30 12:35:43.20	337.59	21.33	-46.7	-47.3	24.2	0.00e+00	0	46	0	4260364288	60	9094
2026-01-30 12:35:44.21	337.58	21.19	-46.7	-47.4	24.2	0.00e+00	0	46	0	4267704320	60	9148
2026-01-30 12:35:45.22	337.56	21.05	-46.9	-47.5	24.0	0.00e+00	0	46	0	4275044352	60	9306
2026-01-30 12:35:46.23	337.55	20.92	-46.9	-47.6	24.0	0.00e+00	0	46	0	4281335808	60	9370
2026-01-30 12:35:47.23	337.53	20.78	-46.7	-47.3	24.2	0.00e+00	0	46	0	4288675840	60	9109
