passes_logs/2026/01/30/R3.2S-Naryan-Mar/R3.2S-Naryan-Mar__20260130_030846_SUOMI_NPP_rec.log

#Pass ID: 20260130_030846_SUOMI NPP
#Satellite: SUOMI NPP
#Configuration: NPP
#almurnet v.1.7.20240730
#Start time: 2026-01-30 03:08:47

#Version: 2.2.20231116
#Station: R3.2S-Naryan-Mar
#Location: 53.008057 lon 67.646978 lat
#TLE: 1 37849U 11061A   26028.91916408  .00000155  00000+0  94467-4 0  9990
#TLE: 2 37849  98.7824 330.8488 0002045  39.4457 320.6868 14.19531289738686

#Time	Az	El	Level	Level2	SNR	BER	BlckErr	Temp	State	Recorded	gain1	gain2
2026-01-30 03:08:47.21	51.14	0.06	-59.7	-74.9	3.5	8.45e-01	0	43	0	0	60	217755
2026-01-30 03:08:48.22	51.08	0.12	-60.7	-78.3	3.6	1.51e+00	0	44	104	0	60	320632
2026-01-30 03:08:49.22	51.02	0.17	-61.0	-78.3	3.6	1.51e+00	0	44	104	0	60	320755
2026-01-30 03:08:50.23	50.96	0.22	-61.9	-78.5	3.6	1.51e+00	0	44	104	0	60	329289
2026-01-30 03:08:51.24	50.90	0.28	-62.2	-78.7	3.6	1.51e+00	0	44	104	0	60	337367
2026-01-30 03:08:52.24	50.84	0.33	-62.1	-78.7	3.6	1.51e+00	0	44	104	0	60	336253
2026-01-30 03:08:53.25	50.78	0.39	-61.5	-78.6	3.6	1.51e+00	0	44	104	0	60	333553
2026-01-30 03:08:54.26	50.71	0.44	-61.9	-78.6	3.6	1.51e+00	0	44	104	0	60	334653
2026-01-30 03:08:55.27	50.65	0.49	-62.2	-78.8	3.6	1.51e+00	0	44	104	0	60	339786
2026-01-30 03:08:56.27	50.59	0.55	-62.4	-78.9	3.6	1.51e+00	0	44	104	0	60	343739
2026-01-30 03:08:57.28	50.53	0.60	-62.4	-78.7	3.6	1.51e+00	0	45	104	0	60	339245
2026-01-30 03:08:58.29	50.47	0.66	-62.3	-78.8	3.6	1.51e+00	0	44	104	0	60	341860
2026-01-30 03:08:59.30	50.40	0.71	-62.4	-78.8	3.6	1.51e+00	0	44	104	0	60	340642
2026-01-30 03:09:00.30	50.34	0.76	-62.2	-78.7	3.6	1.51e+00	0	45	104	0	60	336901
2026-01-30 03:09:01.31	50.28	0.82	-62.4	-78.8	3.6	1.51e+00	0	45	104	0	60	340492
2026-01-30 03:09:02.32	50.21	0.87	-61.6	-78.7	3.6	1.51e+00	0	45	104	0	60	336494
2026-01-30 03:09:03.33	50.15	0.93	-61.1	-78.5	3.6	1.51e+00	0	45	104	0	60	330393
2026-01-30 03:09:04.34	50.09	0.98	-61.5	-78.6	3.6	1.51e+00	0	45	104	0	60	334761
2026-01-30 03:09:05.34	50.02	1.04	-60.4	-78.3	3.6	1.51e+00	0	45	104	0	60	321088
2026-01-30 03:09:06.35	49.96	1.09	-62.3	-78.6	3.6	1.51e+00	0	45	104	0	60	332708
2026-01-30 03:09:07.36	49.89	1.14	-59.6	-78.1	3.6	1.51e+00	0	45	104	0	60	314369
2026-01-30 03:09:08.37	49.83	1.20	-59.7	-78.1	3.6	1.51e+00	0	45	104	0	60	313651
2026-01-30 03:09:09.38	49.76	1.25	-61.6	-78.0	3.6	1.51e+00	0	45	104	0	60	311283
2026-01-30 03:09:10.38	49.70	1.31	-61.4	-77.8	3.6	1.51e+00	0	45	104	0	60	302603
2026-01-30 03:09:11.39	49.63	1.36	-61.2	-77.5	3.6	1.51e+00	0	45	104	0	60	295270
2026-01-30 03:09:12.39	49.57	1.42	-60.9	-77.4	3.6	1.51e+00	0	45	104	0	60	289205
2026-01-30 03:09:13.40	49.50	1.47	-60.9	-77.2	3.6	1.51e+00	0	45	104	0	60	282969
2026-01-30 03:09:14.41	49.44	1.53	-60.4	-76.9	3.6	1.51e+00	0	45	104	0	60	273377
2026-01-30 03:09:15.42	49.37	1.58	-60.0	-76.9	3.6	1.51e+00	0	45	104	0	60	274072
2026-01-30 03:09:16.42	49.30	1.64	-59.7	-76.8	3.6	1.51e+00	0	45	104	0	60	272011
2026-01-30 03:09:17.43	49.24	1.70	-60.4	-76.8	3.5	1.51e+00	0	45	104	0	60	270896
2026-01-30 03:09:18.43	49.17	1.75	-59.9	-76.6	3.6	1.51e+00	0	45	104	0	60	263851
2026-01-30 03:09:19.44	49.10	1.81	-60.0	-76.5	3.6	1.51e+00	0	45	104	0	60	261005
2026-01-30 03:09:20.45	49.03	1.86	-60.2	-76.5	3.6	1.51e+00	0	45	104	0	60	260935
2026-01-30 03:09:21.45	48.96	1.92	-60.1	-76.4	3.6	1.51e+00	0	45	104	0	60	259937
2026-01-30 03:09:22.46	48.90	1.97	-60.1	-76.4	3.6	1.51e+00	0	45	104	0	60	259434
2026-01-30 03:09:23.46	48.83	2.03	-60.1	-76.4	3.6	1.51e+00	0	45	104	0	60	258969
2026-01-30 03:09:24.47	48.76	2.08	-60.1	-76.4	3.6	1.51e+00	0	45	104	0	60	258683
2026-01-30 03:09:25.47	48.69	2.14	-60.1	-76.4	3.6	1.51e+00	0	45	104	0	60	258553
2026-01-30 03:09:26.48	48.62	2.20	-60.1	-76.4	3.6	1.51e+00	0	45	104	0	60	259839
2026-01-30 03:09:27.49	48.55	2.25	-60.1	-76.4	3.6	1.51e+00	0	45	104	0	60	259258
2026-01-30 03:09:28.49	48.48	2.31	-60.1	-76.4	3.6	1.51e+00	0	45	104	0	60	257835
2026-01-30 03:09:29.50	48.41	2.36	-60.1	-76.3	3.6	1.51e+00	0	45	104	0	60	256563
2026-01-30 03:09:30.50	48.34	2.42	-60.1	-76.3	3.6	1.51e+00	0	45	104	0	60	256893
2026-01-30 03:09:31.52	48.27	2.48	-60.1	-76.3	3.6	1.51e+00	0	45	104	0	60	256297
2026-01-30 03:09:32.52	48.20	2.53	-60.1	-76.4	3.6	1.51e+00	0	45	104	0	60	258238
2026-01-30 03:09:33.53	48.13	2.59	-60.1	-76.3	3.6	1.51e+00	0	45	104	0	60	257365
2026-01-30 03:09:34.53	48.05	2.65	-60.1	-76.3	3.6	1.51e+00	0	45	104	0	60	256861
2026-01-30 03:09:35.54	47.98	2.70	-60.1	-76.3	3.6	1.51e+00	0	45	104	0	60	257270
2026-01-30 03:09:36.55	47.91	2.76	-60.1	-76.3	3.6	1.51e+00	0	45	104	0	60	256773
2026-01-30 03:09:37.55	47.84	2.82	-60.0	-76.3	3.6	1.51e+00	0	45	104	0	60	255701
2026-01-30 03:09:38.55	47.76	2.87	-60.0	-76.3	3.6	1.51e+00	0	45	104	0	60	255865
2026-01-30 03:09:39.56	47.69	2.93	-60.0	-76.3	3.6	1.51e+00	0	45	104	0	60	256112
2026-01-30 03:09:40.57	47.62	2.99	-60.0	-76.3	3.6	1.51e+00	0	45	104	0	60	256022
2026-01-30 03:09:41.57	47.54	3.04	-60.0	-76.3	3.6	1.51e+00	0	45	104	0	60	254461
2026-01-30 03:09:42.58	47.47	3.10	-60.0	-76.3	3.6	1.51e+00	0	45	104	0	60	255095
2026-01-30 03:09:43.58	47.40	3.16	-60.0	-76.3	3.6	1.51e+00	0	45	104	0	60	254877
2026-01-30 03:09:44.59	47.32	3.21	-60.0	-76.3	3.6	1.51e+00	0	45	104	0	60	255635
2026-01-30 03:09:45.59	47.25	3.27	-60.0	-76.3	3.6	1.51e+00	0	45	104	0	60	255214
2026-01-30 03:09:46.59	47.17	3.33	-60.0	-76.2	3.6	1.51e+00	0	45	104	0	60	254130
2026-01-30 03:09:47.60	47.10	3.39	-60.0	-76.3	3.6	1.51e+00	0	45	104	0	60	254656
2026-01-30 03:09:48.61	47.02	3.44	-60.0	-76.2	3.6	1.51e+00	0	45	104	0	60	252034
2026-01-30 03:09:49.62	46.94	3.50	-60.0	-76.3	3.6	1.51e+00	0	45	104	0	60	254618
2026-01-30 03:09:50.63	46.87	3.56	-60.0	-76.2	3.6	1.51e+00	0	45	104	0	60	253929
2026-01-30 03:09:51.62	46.79	3.62	-60.0	-76.2	3.6	1.51e+00	0	45	104	0	60	252339
2026-01-30 03:09:52.63	46.71	3.67	-60.0	-76.2	3.6	1.51e+00	0	45	104	0	60	252635
2026-01-30 03:09:53.64	46.64	3.73	-59.9	-76.2	3.6	1.51e+00	0	45	104	0	60	251753
2026-01-30 03:09:54.65	46.56	3.79	-59.9	-76.2	3.6	1.51e+00	0	45	104	0	60	252835
2026-01-30 03:09:55.65	46.48	3.85	-59.9	-76.2	3.6	1.51e+00	0	45	104	0	60	253318
2026-01-30 03:09:56.65	46.40	3.91	-59.9	-76.2	3.6	1.51e+00	0	45	104	0	60	251945
2026-01-30 03:09:57.66	46.32	3.96	-59.9	-76.2	3.6	1.51e+00	0	45	104	0	60	252402
2026-01-30 03:09:58.66	46.24	4.02	-59.9	-76.2	3.6	1.51e+00	0	45	104	0	60	251881
2026-01-30 03:09:59.67	46.16	4.08	-59.9	-76.2	3.6	1.51e+00	0	45	104	0	60	252806
2026-01-30 03:10:00.68	46.08	4.14	-59.9	-76.2	3.6	1.51e+00	0	45	104	0	60	252341
2026-01-30 03:10:01.69	46.00	4.20	-59.9	-76.1	3.6	1.51e+00	0	45	104	0	60	251244
2026-01-30 03:10:02.69	45.92	4.26	-59.9	-76.1	3.6	1.51e+00	0	45	104	0	60	249515
2026-01-30 03:10:03.70	45.84	4.31	-59.9	-76.0	3.6	1.51e+00	0	45	104	0	60	248135
2026-01-30 03:10:04.70	45.76	4.37	-59.9	-76.1	3.6	1.51e+00	0	45	104	0	60	248826
2026-01-30 03:10:05.71	45.68	4.43	-59.9	-76.0	3.6	1.51e+00	0	45	104	0	60	247511
2026-01-30 03:10:06.72	45.60	4.49	-59.9	-76.0	3.6	1.51e+00	0	46	104	0	60	247922
2026-01-30 03:10:07.73	45.52	4.55	-59.9	-76.1	3.6	1.51e+00	0	45	104	0	60	248835
2026-01-30 03:10:08.74	45.43	4.61	-59.9	-76.1	3.6	1.51e+00	0	45	104	0	60	249561
2026-01-30 03:10:09.75	45.35	4.67	-59.9	-76.1	3.6	1.51e+00	0	45	104	0	60	250447
2026-01-30 03:10:10.75	45.27	4.73	-59.9	-76.1	3.6	1.51e+00	0	45	104	0	60	250879
2026-01-30 03:10:11.76	45.18	4.79	-59.9	-76.1	3.6	1.51e+00	0	45	104	0	60	251220
2026-01-30 03:10:12.76	45.10	4.84	-59.9	-76.1	3.6	1.51e+00	0	45	104	0	60	251373
2026-01-30 03:10:13.77	45.01	4.90	-59.9	-76.1	3.6	1.51e+00	0	45	104	0	60	251265
2026-01-30 03:10:14.78	44.93	4.96	-59.9	-76.1	3.6	1.51e+00	0	45	104	0	60	250998
2026-01-30 03:10:15.78	44.85	5.02	-59.9	-76.0	3.6	1.51e+00	0	45	104	0	60	247982
2026-01-30 03:10:16.79	44.76	5.08	-59.9	-75.9	3.6	1.51e+00	0	45	104	0	60	245278
2026-01-30 03:10:17.79	44.67	5.14	-59.9	-75.8	3.6	1.51e+00	0	45	104	0	60	242315
2026-01-30 03:10:18.79	44.59	5.20	-59.8	-75.8	3.6	1.51e+00	0	45	104	0	60	240291
2026-01-30 03:10:19.80	44.50	5.26	-59.8	-75.7	3.6	1.51e+00	0	45	104	0	60	238172
2026-01-30 03:10:20.81	44.42	5.32	-59.8	-75.4	3.6	1.51e+00	0	45	104	0	60	231224
2026-01-30 03:10:21.82	44.33	5.38	-59.8	-74.7	3.6	1.51e+00	0	45	104	0	60	212756
2026-01-30 03:10:22.83	44.24	5.44	-59.7	-72.4	4.1	1.45e+00	0	45	104	0	60	163472
2026-01-30 03:10:23.83	44.15	5.50	-59.5	-68.8	5.3	7.07e-01	0	45	0	1048576	60	107920
2026-01-30 03:10:24.84	44.06	5.56	-59.2	-66.6	7.7	2.20e-01	0	45	0	3145728	60	83639
2026-01-30 03:10:25.84	43.98	5.62	-58.6	-64.5	10.2	3.35e-02	0	45	0	5242880	60	66143
2026-01-30 03:10:26.84	43.89	5.68	-58.0	-62.7	12.3	8.40e-04	0	45	0	6291456	60	53679
2026-01-30 03:10:27.85	43.80	5.74	-57.5	-61.5	13.6	4.73e-05	0	45	0	8388608	60	46432
2026-01-30 03:10:28.86	43.71	5.80	-57.0	-60.5	14.6	1.50e-06	0	45	0	10485760	60	41285
2026-01-30 03:10:29.86	43.62	5.86	-56.6	-59.8	15.3	7.00e-07	0	45	0	12582912	60	38164
2026-01-30 03:10:30.87	43.53	5.92	-56.3	-59.1	15.9	0.00e+00	0	45	0	14680064	60	35521
2026-01-30 03:10:31.88	43.44	5.98	-56.2	-59.1	15.9	0.00e+00	0	45	0	15728640	60	35487
2026-01-30 03:10:32.89	43.34	6.04	-56.3	-59.2	15.8	0.00e+00	0	45	0	17825792	60	35551
2026-01-30 03:10:33.89	43.25	6.10	-56.0	-58.7	16.4	0.00e+00	0	45	0	19922944	60	33760
2026-01-30 03:10:34.90	43.16	6.17	-56.2	-59.1	15.8	0.00e+00	0	45	0	22020096	60	35322
2026-01-30 03:10:35.90	43.07	6.23	-57.3	-61.2	13.3	0.00e+00	0	45	0	24117248	60	45109
2026-01-30 03:10:36.91	42.97	6.29	-56.4	-59.5	15.4	3.48e-04	0	45	0	25165824	60	37185
2026-01-30 03:10:37.91	42.88	6.35	-57.9	-62.7	11.8	0.00e+00	0	45	0	27262976	60	53265
2026-01-30 03:10:38.91	42.79	6.41	-56.8	-60.0	15.0	5.05e-03	0	45	0	29360128	60	39265
2026-01-30 03:10:39.92	42.69	6.47	-56.3	-59.3	15.8	0.00e+00	0	45	0	31457280	60	36074
2026-01-30 03:10:40.93	42.60	6.53	-55.8	-58.5	16.6	0.00e+00	0	45	0	33554432	60	32985
2026-01-30 03:10:41.94	42.50	6.59	-55.5	-58.3	16.8	0.00e+00	0	45	0	34603008	60	32176
2026-01-30 03:10:42.94	42.41	6.65	-55.4	-58.2	16.8	0.00e+00	0	45	0	36700160	60	31979
2026-01-30 03:10:43.95	42.31	6.72	-55.5	-58.3	16.8	0.00e+00	0	45	0	38797312	60	32039
2026-01-30 03:10:44.96	42.22	6.78	-55.6	-58.2	16.8	0.00e+00	0	45	0	40894464	60	31817
2026-01-30 03:10:45.97	42.12	6.84	-55.7	-58.2	16.9	0.00e+00	0	45	0	42991616	60	31946
2026-01-30 03:10:46.97	42.02	6.90	-55.7	-58.2	17.1	0.00e+00	0	45	0	44040192	60	31921
2026-01-30 03:10:47.97	41.93	6.96	-55.7	-58.5	16.8	0.00e+00	0	46	0	46137344	60	32993
2026-01-30 03:10:48.98	41.83	7.02	-55.4	-58.4	16.9	0.00e+00	0	46	0	48234496	60	32424
2026-01-30 03:10:49.98	41.73	7.09	-55.6	-58.7	16.4	0.00e+00	0	45	0	50331648	60	33693
2026-01-30 03:10:50.98	41.63	7.15	-55.7	-58.7	16.4	0.00e+00	0	45	0	52428800	60	33730
2026-01-30 03:10:51.99	41.53	7.21	-56.0	-58.8	16.3	0.00e+00	0	46	0	53477376	60	34304
2026-01-30 03:10:52.99	41.43	7.27	-56.4	-59.3	15.7	0.00e+00	0	46	0	55574528	60	36006
2026-01-30 03:10:53.99	41.33	7.33	-56.4	-59.2	16.0	0.00e+00	0	46	0	57671680	60	35871
2026-01-30 03:10:55.00	41.23	7.39	-56.5	-59.5	15.7	0.00e+00	0	46	0	59768832	60	37084
2026-01-30 03:10:56.01	41.13	7.46	-56.6	-59.8	15.3	0.00e+00	0	46	0	61865984	60	38260
2026-01-30 03:10:57.01	41.03	7.52	-56.6	-59.9	15.2	0.00e+00	0	46	0	62914560	60	38652
2026-01-30 03:10:58.02	40.93	7.58	-56.8	-60.4	14.7	0.00e+00	0	46	0	65011712	60	40863
2026-01-30 03:10:59.03	40.82	7.64	-57.1	-60.8	14.3	1.50e-06	0	46	0	67108864	60	42954
2026-01-30 03:11:00.03	40.72	7.71	-57.0	-60.7	14.3	1.50e-06	0	46	0	69206016	60	42558
2026-01-30 03:11:01.04	40.62	7.77	-57.2	-61.1	13.7	7.00e-07	0	46	0	71303168	60	44311
2026-01-30 03:11:02.05	40.51	7.83	-57.2	-61.1	13.9	7.00e-07	0	45	0	72351744	60	44417
2026-01-30 03:11:03.05	40.41	7.89	-57.4	-61.7	13.5	1.50e-06	0	46	0	74448896	60	47425
2026-01-30 03:11:04.06	40.31	7.96	-57.4	-61.8	13.4	1.98e-05	0	46	0	76546048	60	47973
2026-01-30 03:11:05.06	40.20	8.02	-57.6	-62.1	13.0	3.05e-05	0	46	0	78643200	60	49847
2026-01-30 03:11:06.07	40.10	8.08	-57.7	-62.3	12.9	6.10e-05	0	46	0	80740352	60	50868
2026-01-30 03:11:07.08	39.99	8.15	-57.7	-62.6	12.6	1.29e-04	0	45	0	81788928	60	52610
2026-01-30 03:11:08.08	39.88	8.21	-57.6	-62.3	12.9	1.09e-04	0	46	0	83886080	60	50986
2026-01-30 03:11:09.08	39.78	8.27	-57.6	-62.6	12.4	1.08e-04	0	46	0	85983232	60	52683
2026-01-30 03:11:10.09	39.67	8.33	-57.4	-62.4	12.7	7.85e-05	0	46	0	88080384	60	51935
2026-01-30 03:11:11.09	39.56	8.40	-57.4	-62.6	12.6	1.72e-04	0	46	0	90177536	60	52781
2026-01-30 03:11:12.10	39.45	8.46	-57.5	-62.7	12.3	2.95e-04	0	45	0	91226112	60	53494
2026-01-30 03:11:13.11	39.34	8.52	-57.4	-62.6	12.7	3.91e-04	0	46	0	93323264	60	52640
2026-01-30 03:11:14.12	39.23	8.59	-56.7	-61.2	14.0	9.90e-06	0	46	0	95420416	60	45046
2026-01-30 03:11:15.12	39.12	8.65	-56.6	-60.8	14.3	0.00e+00	0	46	0	97517568	60	42974
2026-01-30 03:11:16.13	39.01	8.71	-56.6	-60.4	15.0	0.00e+00	0	45	0	99614720	60	41104
2026-01-30 03:11:17.13	38.90	8.78	-56.4	-59.8	15.6	0.00e+00	0	46	0	100663296	60	38283
2026-01-30 03:11:18.14	38.79	8.84	-56.5	-59.7	15.6	0.00e+00	0	46	0	102760448	60	37823
2026-01-30 03:11:19.15	38.68	8.91	-56.7	-59.7	15.6	0.00e+00	0	46	0	104857600	60	37808
2026-01-30 03:11:20.15	38.57	8.97	-57.0	-60.1	15.4	0.00e+00	0	46	0	106954752	60	39599
2026-01-30 03:11:21.16	38.45	9.03	-57.2	-60.4	14.9	0.00e+00	0	46	0	109051904	60	40856
2026-01-30 03:11:22.17	38.34	9.10	-57.1	-60.1	15.2	0.00e+00	0	45	0	110100480	60	39757
2026-01-30 03:11:23.17	38.23	9.16	-57.0	-60.1	15.6	0.00e+00	0	45	0	112197632	60	39419
2026-01-30 03:11:24.18	38.11	9.22	-56.6	-59.3	16.3	0.00e+00	0	45	0	114294784	60	36113
2026-01-30 03:11:25.18	38.00	9.29	-56.4	-59.0	16.7	0.00e+00	0	45	0	116391936	60	34751
2026-01-30 03:11:26.18	37.88	9.35	-56.3	-58.9	16.6	0.00e+00	0	45	0	118489088	60	34570
2026-01-30 03:11:27.19	37.77	9.42	-56.4	-59.0	16.4	0.00e+00	0	45	0	119537664	60	35101
2026-01-30 03:11:28.20	37.65	9.48	-56.6	-59.4	16.2	0.00e+00	0	45	0	121634816	60	36671
2026-01-30 03:11:29.21	37.53	9.54	-56.7	-59.5	16.0	0.00e+00	0	46	0	123731968	60	36913
2026-01-30 03:11:30.22	37.41	9.61	-56.7	-59.5	16.0	0.00e+00	0	45	0	125829120	60	37099
2026-01-30 03:11:31.23	37.30	9.67	-56.5	-59.3	16.2	0.00e+00	0	45	0	126877696	60	36043
2026-01-30 03:11:32.23	37.18	9.74	-56.0	-58.5	17.0	0.00e+00	0	45	0	128974848	60	33004
2026-01-30 03:11:33.24	37.06	9.80	-56.1	-58.6	17.0	0.00e+00	0	45	0	131072000	60	33349
2026-01-30 03:11:34.25	36.94	9.87	-56.2	-58.9	16.7	0.00e+00	0	45	0	133169152	60	34426
2026-01-30 03:11:35.26	36.82	9.93	-56.3	-59.0	16.6	0.00e+00	0	45	0	135266304	60	35096
2026-01-30 03:11:36.26	36.70	10.00	-56.2	-59.0	16.6	0.00e+00	0	45	0	137363456	60	34786
2026-01-30 03:11:37.27	36.58	10.06	-56.1	-58.8	16.7	0.00e+00	0	45	0	138412032	60	33933
2026-01-30 03:11:38.28	36.45	10.13	-56.1	-58.7	16.9	0.00e+00	0	45	0	140509184	60	33871
2026-01-30 03:11:39.29	36.33	10.19	-56.1	-58.8	16.7	0.00e+00	0	45	0	142606336	60	33932
2026-01-30 03:11:40.29	36.21	10.25	-55.6	-58.2	17.2	0.00e+00	0	46	0	144703488	60	31899
2026-01-30 03:11:41.29	36.08	10.32	-55.4	-58.0	17.6	0.00e+00	0	45	0	146800640	60	30980
2026-01-30 03:11:42.30	35.96	10.38	-55.1	-57.7	17.5	0.00e+00	0	45	0	147849216	60	29928
2026-01-30 03:11:43.31	35.83	10.45	-55.0	-57.8	17.1	0.00e+00	0	45	0	149946368	60	30386
2026-01-30 03:11:44.31	35.71	10.51	-55.1	-57.9	17.3	0.00e+00	0	45	0	152043520	60	30767
2026-01-30 03:11:45.32	35.58	10.58	-55.3	-57.9	17.3	0.00e+00	0	45	0	154140672	60	30934
2026-01-30 03:11:46.33	35.46	10.64	-55.4	-58.0	17.1	0.00e+00	0	45	0	156237824	60	30970
2026-01-30 03:11:47.34	35.33	10.71	-55.5	-58.1	17.2	0.00e+00	0	45	0	157286400	60	31395
2026-01-30 03:11:48.34	35.20	10.77	-55.7	-58.3	17.2	0.00e+00	0	45	0	159383552	60	32034
2026-01-30 03:11:49.35	35.07	10.84	-55.5	-58.1	17.5	0.00e+00	0	45	0	161480704	60	31322
2026-01-30 03:11:50.36	34.94	10.90	-55.1	-57.4	18.1	0.00e+00	0	45	0	163577856	60	29086
2026-01-30 03:11:51.37	34.82	10.97	-55.0	-57.2	18.2	0.00e+00	0	45	0	165675008	60	28301
2026-01-30 03:11:52.37	34.69	11.03	-55.0	-57.2	18.3	0.00e+00	0	45	0	166723584	60	28253
2026-01-30 03:11:53.38	34.55	11.10	-55.0	-57.0	18.4	0.00e+00	0	45	0	168820736	60	27865
2026-01-30 03:11:54.38	34.42	11.16	-55.2	-57.2	18.0	0.00e+00	0	45	0	170917888	60	28436
2026-01-30 03:11:55.39	34.29	11.23	-55.0	-57.1	18.2	0.00e+00	0	45	0	173015040	60	28030
2026-01-30 03:11:56.40	34.16	11.29	-55.0	-57.3	17.9	0.00e+00	0	45	0	175112192	60	28554
2026-01-30 03:11:57.41	34.03	11.36	-54.9	-57.2	17.7	0.00e+00	0	45	0	176160768	60	28327
2026-01-30 03:11:58.41	33.89	11.42	-55.0	-57.4	17.6	0.00e+00	0	45	0	178257920	60	29047
2026-01-30 03:11:59.42	33.76	11.49	-55.1	-57.5	17.6	0.00e+00	0	45	0	180355072	60	29505
2026-01-30 03:12:00.43	33.62	11.55	-55.5	-57.9	17.4	0.00e+00	0	45	0	182452224	60	30788
2026-01-30 03:12:01.43	33.49	11.62	-55.9	-58.4	17.0	0.00e+00	0	45	0	184549376	60	32581
2026-01-30 03:12:02.44	33.35	11.69	-56.0	-58.6	16.9	0.00e+00	0	45	0	185597952	60	33532
2026-01-30 03:12:03.45	33.22	11.75	-56.1	-58.7	16.8	0.00e+00	0	45	0	187695104	60	33659
2026-01-30 03:12:04.46	33.08	11.82	-56.1	-58.7	16.8	0.00e+00	0	46	0	189792256	60	33748
2026-01-30 03:12:05.46	32.94	11.88	-56.2	-58.7	16.8	0.00e+00	0	46	0	191889408	60	33813
2026-01-30 03:12:06.47	32.80	11.95	-56.1	-58.7	16.8	0.00e+00	0	46	0	193986560	60	33557
2026-01-30 03:12:07.47	32.66	12.01	-56.2	-58.9	16.6	0.00e+00	0	45	0	195035136	60	34550
2026-01-30 03:12:08.48	32.52	12.08	-56.0	-58.6	16.7	0.00e+00	0	46	0	197132288	60	33481
2026-01-30 03:12:09.49	32.38	12.14	-55.8	-58.4	17.0	0.00e+00	0	45	0	199229440	60	32773
2026-01-30 03:12:10.50	32.24	12.21	-55.9	-58.5	16.9	0.00e+00	0	45	0	201326592	60	32994
2026-01-30 03:12:11.50	32.10	12.27	-55.5	-58.1	17.4	0.00e+00	0	45	0	203423744	60	31365
2026-01-30 03:12:12.51	31.96	12.34	-55.5	-58.2	17.1	0.00e+00	0	45	0	204472320	60	31741
2026-01-30 03:12:13.52	31.81	12.40	-55.4	-58.0	17.2	0.00e+00	0	45	0	206569472	60	31153
2026-01-30 03:12:14.51	31.67	12.47	-55.6	-58.5	16.8	0.00e+00	0	45	0	208666624	60	32844
2026-01-30 03:12:15.52	31.53	12.53	-55.7	-58.8	16.6	0.00e+00	0	45	0	210763776	60	33945
2026-01-30 03:12:16.53	31.38	12.60	-55.8	-58.8	16.4	0.00e+00	0	45	0	212860928	60	34191
2026-01-30 03:12:17.54	31.24	12.67	-56.0	-58.9	16.2	0.00e+00	0	45	0	213909504	60	34634
2026-01-30 03:12:18.54	31.09	12.73	-56.3	-59.4	16.2	0.00e+00	0	45	0	216006656	60	36590
2026-01-30 03:12:19.55	30.94	12.80	-56.6	-59.7	15.7	0.00e+00	0	46	0	218103808	60	37961
2026-01-30 03:12:20.56	30.80	12.86	-56.8	-60.0	15.4	0.00e+00	0	46	0	220200960	60	39108
2026-01-30 03:12:21.55	30.65	12.93	-56.9	-60.1	15.3	0.00e+00	0	45	0	222298112	60	39862
2026-01-30 03:12:22.56	30.50	12.99	-57.0	-60.4	14.9	0.00e+00	0	46	0	223346688	60	40870
2026-01-30 03:12:23.57	30.35	13.06	-57.0	-60.3	14.9	0.00e+00	0	45	0	225443840	60	40340
2026-01-30 03:12:24.57	30.20	13.12	-57.4	-61.0	14.3	0.00e+00	0	46	0	227540992	60	44008
2026-01-30 03:12:25.58	30.05	13.19	-57.3	-60.9	14.3	0.00e+00	0	46	0	229638144	60	43310
2026-01-30 03:12:26.58	29.90	13.25	-57.6	-61.4	14.3	0.00e+00	0	46	0	231735296	60	46033
2026-01-30 03:12:27.59	29.75	13.32	-57.5	-61.4	13.9	3.00e-06	0	46	0	232783872	60	45819
2026-01-30 03:12:28.59	29.59	13.38	-57.5	-61.4	14.0	3.00e-06	0	46	0	234881024	60	46057
2026-01-30 03:12:29.60	29.44	13.45	-57.7	-62.0	13.5	1.37e-05	0	46	0	236978176	60	49088
2026-01-30 03:12:30.61	29.28	13.51	-57.7	-62.1	13.2	1.75e-05	0	46	0	239075328	60	49780
2026-01-30 03:12:31.61	29.13	13.58	-57.6	-62.3	12.9	2.82e-05	0	46	0	240123904	60	50784
2026-01-30 03:12:32.62	28.97	13.64	-57.5	-62.3	12.9	4.73e-05	0	45	0	242221056	60	50967
2026-01-30 03:12:33.63	28.82	13.71	-57.2	-61.5	13.8	7.70e-05	0	46	0	244318208	60	46712
2026-01-30 03:12:34.63	28.66	13.77	-56.4	-59.7	15.7	0.00e+00	0	46	0	246415360	60	37779
2026-01-30 03:12:35.64	28.50	13.84	-55.8	-58.4	17.0	0.00e+00	0	46	0	248512512	60	32428
2026-01-30 03:12:36.65	28.34	13.90	-55.2	-57.5	17.9	0.00e+00	0	46	0	250609664	60	29409
2026-01-30 03:12:37.66	28.18	13.97	-55.2	-57.4	18.0	0.00e+00	0	46	0	251658240	60	29132
2026-01-30 03:12:38.66	28.02	14.03	-55.3	-57.7	17.6	0.00e+00	0	45	0	253755392	60	30218
2026-01-30 03:12:39.66	27.87	14.09	-55.7	-58.4	17.1	0.00e+00	0	46	0	255852544	60	32461
2026-01-30 03:12:40.67	27.70	14.16	-55.7	-58.5	17.0	0.00e+00	0	46	0	257949696	60	32933
2026-01-30 03:12:41.68	27.54	14.22	-55.9	-59.0	16.7	0.00e+00	0	46	0	260046848	60	34747
2026-01-30 03:12:42.69	27.38	14.29	-55.7	-58.9	16.6	0.00e+00	0	46	0	261095424	60	34436
2026-01-30 03:12:43.69	27.21	14.35	-55.6	-58.9	16.5	0.00e+00	0	46	0	263192576	60	34376
2026-01-30 03:12:44.70	27.05	14.42	-55.7	-59.2	16.3	0.00e+00	0	46	0	265289728	60	35725
2026-01-30 03:12:45.70	26.89	14.48	-55.9	-59.5	15.9	0.00e+00	0	46	0	267386880	60	37115
2026-01-30 03:12:46.71	26.72	14.54	-56.1	-59.8	15.5	0.00e+00	0	46	0	268435456	60	38106
2026-01-30 03:12:47.72	26.55	14.61	-56.4	-60.2	15.4	0.00e+00	0	46	0	270532608	60	39875
2026-01-30 03:12:48.72	26.39	14.67	-56.4	-59.7	15.7	0.00e+00	0	46	0	272629760	60	37665
2026-01-30 03:12:49.73	26.22	14.74	-56.2	-59.0	16.6	0.00e+00	0	46	0	274726912	60	34738
2026-01-30 03:12:50.74	26.05	14.80	-56.0	-58.5	17.1	0.00e+00	0	46	0	276824064	60	33154
2026-01-30 03:12:51.74	25.88	14.86	-56.1	-58.7	16.8	0.00e+00	0	46	0	278921216	60	33604
2026-01-30 03:12:52.75	25.71	14.93	-56.1	-58.7	16.8	0.00e+00	0	46	0	279969792	60	33575
2026-01-30 03:12:53.76	25.54	14.99	-56.1	-58.8	16.5	0.00e+00	0	46	0	282066944	60	34073
2026-01-30 03:12:54.77	25.37	15.06	-56.2	-59.2	16.3	0.00e+00	0	46	0	284164096	60	35920
2026-01-30 03:12:55.78	25.19	15.12	-55.6	-59.4	15.7	0.00e+00	0	46	0	286261248	60	36520
2026-01-30 03:12:56.78	25.02	15.18	-54.6	-59.8	14.6	0.00e+00	0	46	0	288358400	60	38085
2026-01-30 03:12:57.79	24.85	15.25	-53.7	-60.0	13.9	1.50e-06	0	46	0	289406976	60	39382
2026-01-30 03:12:58.80	24.67	15.31	-53.1	-60.1	13.9	6.10e-06	0	46	0	291504128	60	39541
2026-01-30 03:12:59.80	24.50	15.37	-53.2	-59.7	14.8	0.00e+00	0	46	0	293601280	60	37717
2026-01-30 03:13:00.81	24.32	15.43	-53.4	-60.1	14.5	0.00e+00	0	46	0	295698432	60	39717
2026-01-30 03:13:01.81	24.14	15.50	-52.9	-60.7	13.0	4.50e-06	0	46	0	296747008	60	42419
2026-01-30 03:13:02.82	23.97	15.56	-52.2	-60.7	11.7	8.92e-05	0	46	0	298844160	60	42609
2026-01-30 03:13:03.83	23.79	15.62	-51.9	-59.5	12.5	2.47e-04	0	46	0	300941312	60	36806
2026-01-30 03:13:04.82	23.61	15.68	-52.7	-58.7	14.2	6.80e-06	0	46	0	303038464	60	33669
2026-01-30 03:13:05.83	23.43	15.75	-53.1	-57.9	15.9	0.00e+00	0	46	0	305135616	60	30712
2026-01-30 03:13:06.84	23.25	15.81	-52.8	-57.5	16.5	0.00e+00	0	46	0	307232768	60	29498
2026-01-30 03:13:07.85	23.07	15.87	-52.6	-56.6	17.5	0.00e+00	0	46	0	308281344	60	26636
2026-01-30 03:13:08.86	22.89	15.93	-52.9	-56.2	18.3	0.00e+00	0	46	0	310378496	60	25324
2026-01-30 03:13:09.87	22.70	15.99	-53.5	-56.1	19.1	0.00e+00	0	46	0	312475648	60	24957
2026-01-30 03:13:10.87	22.52	16.06	-53.9	-56.0	19.5	0.00e+00	0	46	0	314572800	60	24654
2026-01-30 03:13:11.88	22.33	16.12	-54.2	-56.0	19.4	0.00e+00	0	46	0	316669952	60	24634
2026-01-30 03:13:12.89	22.15	16.18	-53.9	-55.5	19.8	0.00e+00	0	46	0	317718528	60	23402
2026-01-30 03:13:13.90	21.96	16.24	-53.9	-55.5	19.9	0.00e+00	0	46	0	319815680	60	23452
2026-01-30 03:13:14.90	21.78	16.30	-53.9	-55.6	20.0	0.00e+00	0	46	0	321912832	60	23550
2026-01-30 03:13:15.91	21.59	16.36	-53.8	-55.4	20.1	0.00e+00	0	46	0	324009984	60	23128
2026-01-30 03:13:16.92	21.40	16.42	-53.8	-55.5	20.0	0.00e+00	0	46	0	325058560	60	23433
2026-01-30 03:13:17.92	21.21	16.48	-53.7	-55.6	19.8	0.00e+00	0	46	0	327155712	60	23517
2026-01-30 03:13:18.93	21.02	16.54	-53.6	-55.6	19.8	0.00e+00	0	46	0	329252864	60	23567
2026-01-30 03:13:19.94	20.83	16.60	-53.6	-55.4	20.0	0.00e+00	0	46	0	331350016	60	22992
2026-01-30 03:13:20.94	20.64	16.66	-53.8	-55.4	20.1	0.00e+00	0	46	0	333447168	60	22988
2026-01-30 03:13:21.95	20.45	16.72	-53.7	-55.4	20.2	0.00e+00	0	46	0	335544320	60	23101
2026-01-30 03:13:22.96	20.25	16.78	-53.6	-55.3	20.2	0.00e+00	0	46	0	336592896	60	22859
2026-01-30 03:13:23.97	20.06	16.84	-53.9	-55.7	20.0	0.00e+00	0	46	0	338690048	60	23772
2026-01-30 03:13:24.98	19.86	16.90	-53.8	-55.4	20.1	0.00e+00	0	46	0	340787200	60	23175
2026-01-30 03:13:25.99	19.67	16.96	-53.7	-55.4	20.0	0.00e+00	0	46	0	342884352	60	23173
2026-01-30 03:13:26.99	19.47	17.02	-53.3	-55.2	20.2	0.00e+00	0	46	0	344981504	60	22465
2026-01-30 03:13:28.00	19.27	17.08	-52.9	-54.8	20.4	0.00e+00	0	46	0	346030080	60	21535
2026-01-30 03:13:29.01	19.08	17.14	-53.1	-55.0	20.3	0.00e+00	0	46	0	348127232	60	22158
2026-01-30 03:13:30.01	18.88	17.19	-53.3	-55.1	20.4	0.00e+00	0	45	0	350224384	60	22354
2026-01-30 03:13:31.02	18.68	17.25	-53.4	-55.0	20.5	0.00e+00	0	46	0	352321536	60	22048
2026-01-30 03:13:32.02	18.48	17.31	-53.4	-54.9	20.7	0.00e+00	0	46	0	353370112	60	21685
2026-01-30 03:13:33.03	18.28	17.37	-53.3	-54.8	20.8	0.00e+00	0	46	0	355467264	60	21490
2026-01-30 03:13:34.03	18.08	17.43	-53.0	-54.5	20.9	0.00e+00	0	46	0	357564416	60	20742
2026-01-30 03:13:35.04	17.88	17.48	-53.0	-54.5	21.0	0.00e+00	0	46	0	359661568	60	20747
2026-01-30 03:13:36.05	17.67	17.54	-52.8	-54.3	21.0	0.00e+00	0	46	0	361758720	60	20405
2026-01-30 03:13:37.05	17.47	17.60	-52.7	-54.3	20.9	0.00e+00	0	46	0	363855872	60	20229
2026-01-30 03:13:38.05	17.27	17.65	-52.8	-54.4	20.7	0.00e+00	0	46	0	364904448	60	20471
2026-01-30 03:13:39.06	17.06	17.71	-52.9	-54.4	20.6	0.00e+00	0	46	0	367001600	60	20680
2026-01-30 03:13:40.07	16.85	17.76	-53.1	-54.6	20.6	0.00e+00	0	46	0	369098752	60	20954
2026-01-30 03:13:41.07	16.65	17.82	-53.1	-54.6	20.6	0.00e+00	0	46	0	371195904	60	21009
2026-01-30 03:13:42.08	16.44	17.87	-53.0	-54.5	20.6	0.00e+00	0	46	0	373293056	60	20900
2026-01-30 03:13:43.08	16.23	17.93	-53.1	-54.7	20.8	0.00e+00	0	45	0	374341632	60	21211
2026-01-30 03:13:44.08	16.03	17.98	-53.4	-55.0	20.5	0.00e+00	0	46	0	376438784	60	22141
2026-01-30 03:13:45.08	15.82	18.04	-53.6	-55.3	20.4	0.00e+00	0	46	0	378535936	60	22685
2026-01-30 03:13:46.09	15.61	18.09	-53.7	-55.3	20.3	0.00e+00	0	46	0	380633088	60	22762
2026-01-30 03:13:47.09	15.40	18.15	-53.8	-55.5	20.1	0.00e+00	0	46	0	381681664	60	23231
2026-01-30 03:13:48.09	15.18	18.20	-53.6	-55.1	20.4	0.00e+00	0	46	0	383778816	60	22387
2026-01-30 03:13:49.10	14.97	18.25	-53.3	-54.8	20.7	0.00e+00	0	46	0	385875968	60	21597
2026-01-30 03:13:50.11	14.76	18.31	-53.5	-55.1	20.6	0.00e+00	0	46	0	387973120	60	22162
2026-01-30 03:13:51.11	14.54	18.36	-53.4	-55.1	20.6	0.00e+00	0	46	0	390070272	60	22207
2026-01-30 03:13:52.12	14.33	18.41	-53.5	-55.2	20.4	0.00e+00	0	46	0	391118848	60	22593
2026-01-30 03:13:53.13	14.11	18.46	-53.0	-54.5	20.8	0.00e+00	0	46	0	393216000	60	20808
2026-01-30 03:13:54.13	13.90	18.51	-52.9	-54.5	20.8	0.00e+00	0	46	0	395313152	60	20684
2026-01-30 03:13:55.13	13.68	18.57	-53.0	-54.5	20.8	0.00e+00	0	46	0	397410304	60	20849
2026-01-30 03:13:56.14	13.46	18.62	-53.1	-54.6	20.8	0.00e+00	0	46	0	399507456	60	21148
2026-01-30 03:13:57.14	13.24	18.67	-53.1	-54.6	20.8	0.00e+00	0	45	0	401604608	60	21032
2026-01-30 03:13:58.15	13.02	18.72	-53.1	-54.6	20.9	0.00e+00	0	46	0	402653184	60	21036
2026-01-30 03:13:59.16	12.80	18.77	-53.0	-54.5	21.0	0.00e+00	0	46	0	404750336	60	20722
2026-01-30 03:14:00.17	12.58	18.82	-52.6	-54.0	21.4	0.00e+00	0	46	0	406847488	60	19528
2026-01-30 03:14:01.17	12.36	18.87	-52.4	-53.7	21.8	0.00e+00	0	46	0	408944640	60	18994
2026-01-30 03:14:02.18	12.14	18.92	-52.1	-53.4	22.0	0.00e+00	0	46	0	409993216	60	18225
2026-01-30 03:14:03.19	11.91	18.97	-52.2	-53.5	21.8	0.00e+00	0	46	0	412090368	60	18435
2026-01-30 03:14:04.20	11.69	19.01	-52.3	-53.6	21.7	0.00e+00	0	46	0	414187520	60	18795
2026-01-30 03:14:05.20	11.46	19.06	-52.4	-53.7	21.6	0.00e+00	0	46	0	416284672	60	18883
2026-01-30 03:14:06.20	11.24	19.11	-52.4	-53.7	21.7	0.00e+00	0	46	0	418381824	60	18984
2026-01-30 03:14:07.21	11.01	19.16	-52.4	-53.7	21.7	0.00e+00	0	45	0	419430400	60	18887
2026-01-30 03:14:08.22	10.78	19.20	-52.5	-53.8	21.7	0.00e+00	0	46	0	421527552	60	19268
2026-01-30 03:14:09.23	10.56	19.25	-52.5	-54.0	21.3	0.00e+00	0	46	0	423624704	60	19744
2026-01-30 03:14:10.23	10.33	19.30	-52.8	-54.5	20.9	0.00e+00	0	45	0	425721856	60	20708
2026-01-30 03:14:11.23	10.10	19.34	-53.0	-54.8	20.6	0.00e+00	0	45	0	427819008	60	21553
2026-01-30 03:14:12.24	9.87	19.39	-53.0	-54.9	20.6	0.00e+00	0	45	0	429916160	60	21681
2026-01-30 03:14:13.25	9.64	19.43	-53.0	-54.7	20.7	0.00e+00	0	46	0	430964736	60	21271
2026-01-30 03:14:14.26	9.41	19.48	-53.0	-54.7	20.7	0.00e+00	0	46	0	433061888	60	21325
2026-01-30 03:14:15.26	9.18	19.52	-53.1	-54.8	20.7	0.00e+00	0	46	0	435159040	60	21439
2026-01-30 03:14:16.27	8.94	19.56	-53.3	-55.0	20.5	0.00e+00	0	46	0	437256192	60	22012
2026-01-30 03:14:17.27	8.71	19.61	-53.6	-55.2	20.2	0.00e+00	0	46	0	438304768	60	22624
2026-01-30 03:14:18.28	8.48	19.65	-53.9	-55.5	20.1	0.00e+00	0	46	0	440401920	60	23409
2026-01-30 03:14:19.29	8.24	19.69	-53.3	-55.0	20.7	0.00e+00	0	46	0	442499072	60	21917
2026-01-30 03:14:20.29	8.01	19.73	-53.1	-54.8	20.7	0.00e+00	0	46	0	444596224	60	21484
2026-01-30 03:14:21.30	7.77	19.78	-52.9	-54.6	20.8	0.00e+00	0	46	0	446693376	60	21044
2026-01-30 03:14:22.30	7.54	19.82	-53.2	-54.7	20.9	0.00e+00	0	46	0	447741952	60	21363
2026-01-30 03:14:23.31	7.30	19.86	-53.4	-54.9	20.7	0.00e+00	0	46	0	449839104	60	21743
2026-01-30 03:14:24.32	7.06	19.90	-53.4	-54.8	20.7	0.00e+00	0	45	0	451936256	60	21637
2026-01-30 03:14:25.32	6.83	19.94	-53.4	-54.8	20.9	0.00e+00	0	46	0	454033408	60	21531
2026-01-30 03:14:26.32	6.59	19.98	-52.9	-54.1	21.5	0.00e+00	0	45	0	456130560	60	19975
2026-01-30 03:14:27.33	6.35	20.02	-52.4	-53.6	22.0	0.00e+00	0	46	0	458227712	60	18692
2026-01-30 03:14:28.34	6.11	20.05	-52.3	-53.5	21.9	0.00e+00	0	45	0	459276288	60	18619
2026-01-30 03:14:29.35	5.87	20.09	-52.5	-53.7	21.8	0.00e+00	0	46	0	461373440	60	19049
2026-01-30 03:14:30.35	5.63	20.13	-52.8	-54.1	21.5	0.00e+00	0	46	0	463470592	60	19844
2026-01-30 03:14:31.36	5.38	20.17	-53.0	-54.4	21.3	0.00e+00	0	45	0	465567744	60	20448
2026-01-30 03:14:32.37	5.14	20.20	-52.7	-54.1	21.6	0.00e+00	0	46	0	466616320	60	19754
2026-01-30 03:14:33.38	4.90	20.24	-52.4	-53.8	21.7	0.00e+00	0	46	0	468713472	60	19144
2026-01-30 03:14:34.39	4.65	20.27	-52.2	-53.6	21.8	0.00e+00	0	45	0	470810624	60	18659
2026-01-30 03:14:35.39	4.41	20.31	-52.5	-53.8	21.6	0.00e+00	0	45	0	472907776	60	19276
2026-01-30 03:14:36.39	4.17	20.34	-52.8	-54.2	21.3	0.00e+00	0	46	0	475004928	60	20136
2026-01-30 03:14:37.40	3.92	20.38	-53.4	-54.9	20.9	0.00e+00	0	46	0	476053504	60	21684
2026-01-30 03:14:38.40	3.68	20.41	-53.5	-55.0	20.7	0.00e+00	0	46	0	478150656	60	22133
2026-01-30 03:14:39.41	3.43	20.44	-53.7	-55.2	20.5	0.00e+00	0	46	0	480247808	60	22471
2026-01-30 03:14:40.41	3.18	20.48	-53.5	-54.9	20.7	0.00e+00	0	46	0	482344960	60	21875
2026-01-30 03:14:41.42	2.93	20.51	-53.4	-54.9	20.8	0.00e+00	0	46	0	484442112	60	21664
2026-01-30 03:14:42.43	2.69	20.54	-53.7	-55.2	20.5	0.00e+00	0	46	0	486539264	60	22571
2026-01-30 03:14:43.43	2.44	20.57	-53.6	-55.2	20.4	0.00e+00	0	46	0	487587840	60	22523
2026-01-30 03:14:44.43	2.19	20.60	-53.9	-55.5	20.2	0.00e+00	0	46	0	489684992	60	23425
2026-01-30 03:14:45.44	1.94	20.63	-54.1	-55.7	20.0	0.00e+00	0	46	0	491782144	60	23995
2026-01-30 03:14:46.44	1.69	20.66	-54.1	-55.7	20.0	0.00e+00	0	46	0	493879296	60	23894
2026-01-30 03:14:47.45	1.44	20.69	-54.0	-55.7	20.2	0.00e+00	0	46	0	494927872	60	23822
2026-01-30 03:14:48.45	1.19	20.72	-54.0	-55.7	20.2	0.00e+00	0	46	0	497025024	60	23867
2026-01-30 03:14:49.46	0.94	20.74	-54.0	-55.7	20.2	0.00e+00	0	46	0	499122176	60	23796
2026-01-30 03:14:50.47	0.69	20.77	-54.1	-55.8	19.8	0.00e+00	0	46	0	501219328	60	24296
2026-01-30 03:14:51.48	0.43	20.80	-54.3	-56.0	19.7	0.00e+00	0	46	0	503316480	60	24793
2026-01-30 03:14:52.49	0.18	20.82	-54.2	-56.0	19.8	0.00e+00	0	46	0	504365056	60	24760
2026-01-30 03:14:53.49	359.93	20.85	-53.9	-55.5	20.2	0.00e+00	0	46	0	506462208	60	23407
2026-01-30 03:14:54.50	359.68	20.87	-53.7	-55.3	20.4	0.00e+00	0	46	0	508559360	60	22808
2026-01-30 03:14:55.50	359.42	20.90	-53.7	-55.3	20.4	0.00e+00	0	46	0	510656512	60	22785
2026-01-30 03:14:56.51	359.17	20.92	-53.8	-55.4	20.3	0.00e+00	0	46	0	512753664	60	23123
2026-01-30 03:14:57.52	358.91	20.94	-53.9	-55.5	20.2	0.00e+00	0	46	0	513802240	60	23451
2026-01-30 03:14:58.52	358.66	20.97	-54.3	-56.0	19.8	0.00e+00	0	46	0	515899392	60	24654
2026-01-30 03:14:59.53	358.40	20.99	-54.7	-56.6	19.2	0.00e+00	0	46	0	517996544	60	26470
2026-01-30 03:15:00.54	358.15	21.01	-54.8	-56.7	19.0	0.00e+00	0	46	0	520093696	60	26852
2026-01-30 03:15:01.55	357.89	21.03	-54.9	-56.8	18.9	0.00e+00	0	46	0	522190848	60	27255
2026-01-30 03:15:02.55	357.63	21.05	-55.0	-57.0	18.8	0.00e+00	0	46	0	523239424	60	27841
2026-01-30 03:15:03.56	357.38	21.07	-55.0	-57.0	19.0	0.00e+00	0	46	0	525336576	60	27620
2026-01-30 03:15:04.56	357.12	21.09	-54.9	-56.8	19.1	0.00e+00	0	45	0	527433728	60	27068
2026-01-30 03:15:05.57	356.86	21.11	-54.4	-56.1	19.6	0.00e+00	0	46	0	529530880	60	25111
2026-01-30 03:15:06.58	356.60	21.12	-54.5	-56.2	19.5	0.00e+00	0	45	0	531628032	60	25380
2026-01-30 03:15:07.59	356.35	21.14	-54.4	-56.1	19.7	0.00e+00	0	45	0	532676608	60	24996
2026-01-30 03:15:08.60	356.09	21.16	-54.4	-56.1	19.8	0.00e+00	0	46	0	534773760	60	25016
2026-01-30 03:15:09.60	355.83	21.17	-54.4	-56.1	19.7	0.00e+00	0	46	0	536870912	60	25022
2026-01-30 03:15:10.61	355.57	21.19	-54.6	-56.3	19.4	0.00e+00	0	46	0	538968064	60	25672
2026-01-30 03:15:11.62	355.31	21.20	-54.5	-56.2	19.4	0.00e+00	0	46	0	541065216	60	25307
2026-01-30 03:15:12.62	355.05	21.22	-54.4	-56.1	19.8	0.00e+00	0	46	0	542113792	60	25074
2026-01-30 03:15:13.63	354.79	21.23	-54.0	-55.6	20.2	0.00e+00	0	46	0	544210944	60	23538
2026-01-30 03:15:14.64	354.53	21.24	-53.8	-55.3	20.4	0.00e+00	0	46	0	546308096	60	22702
2026-01-30 03:15:15.64	354.27	21.26	-53.8	-55.3	20.5	0.00e+00	0	46	0	548405248	60	22813
2026-01-30 03:15:16.64	354.01	21.27	-53.9	-55.4	20.3	0.00e+00	0	45	0	550502400	60	23100
2026-01-30 03:15:17.65	353.75	21.28	-54.1	-55.7	20.1	0.00e+00	0	45	0	551550976	60	23985
2026-01-30 03:15:18.66	353.49	21.29	-54.3	-56.0	19.8	0.00e+00	0	46	0	553648128	60	24778
2026-01-30 03:15:19.66	353.23	21.30	-54.7	-56.4	19.4	0.00e+00	0	46	0	555745280	60	26012
2026-01-30 03:15:20.66	352.97	21.31	-54.8	-56.7	19.2	0.00e+00	0	45	0	557842432	60	26784
2026-01-30 03:15:21.67	352.71	21.32	-55.0	-56.9	18.9	0.00e+00	0	46	0	559939584	60	27488
2026-01-30 03:15:22.67	352.45	21.32	-55.0	-57.0	18.9	0.00e+00	0	46	0	560988160	60	27594
2026-01-30 03:15:23.68	352.19	21.33	-54.8	-56.7	19.1	0.00e+00	0	46	0	563085312	60	26826
2026-01-30 03:15:24.69	351.93	21.34	-54.7	-56.5	19.3	0.00e+00	0	46	0	565182464	60	26262
2026-01-30 03:15:25.70	351.66	21.34	-54.6	-56.4	19.4	0.00e+00	0	46	0	567279616	60	25990
2026-01-30 03:15:26.70	351.40	21.35	-54.7	-56.5	19.3	0.00e+00	0	46	0	569376768	60	26127
2026-01-30 03:15:27.70	351.14	21.35	-54.5	-56.3	19.5	0.00e+00	0	46	0	570425344	60	25499
2026-01-30 03:15:28.71	350.88	21.36	-54.7	-56.5	19.3	0.00e+00	0	46	0	572522496	60	26075
2026-01-30 03:15:29.72	350.62	21.36	-54.6	-56.4	19.3	0.00e+00	0	46	0	574619648	60	25941
2026-01-30 03:15:30.72	350.36	21.36	-54.5	-56.3	19.6	0.00e+00	0	46	0	576716800	60	25643
2026-01-30 03:15:31.73	350.10	21.37	-54.2	-55.9	19.9	0.00e+00	0	46	0	578813952	60	24414
2026-01-30 03:15:32.74	349.83	21.37	-53.8	-55.4	20.3	0.00e+00	0	46	0	579862528	60	22951
2026-01-30 03:15:33.74	349.57	21.37	-53.7	-55.3	20.5	0.00e+00	0	46	0	581959680	60	22677
2026-01-30 03:15:34.75	349.31	21.37	-53.6	-55.0	20.7	0.00e+00	0	46	0	584056832	60	22094
2026-01-30 03:15:35.75	349.05	21.37	-53.6	-55.0	20.7	0.00e+00	0	46	0	586153984	60	22129
2026-01-30 03:15:36.76	348.79	21.37	-53.8	-55.3	20.4	0.00e+00	0	46	0	588251136	60	22935
2026-01-30 03:15:37.77	348.52	21.36	-53.9	-55.5	20.1	0.00e+00	0	46	0	589299712	60	23310
2026-01-30 03:15:38.78	348.26	21.36	-53.9	-55.6	20.0	0.00e+00	0	46	0	591396864	60	23490
2026-01-30 03:15:39.79	348.00	21.36	-53.9	-55.6	20.0	0.00e+00	0	46	0	593494016	60	23474
2026-01-30 03:15:40.79	347.74	21.36	-54.0	-55.7	19.6	0.00e+00	0	46	0	595591168	60	23849
2026-01-30 03:15:41.80	347.47	21.35	-54.2	-55.9	19.7	0.00e+00	0	46	0	597688320	60	24402
2026-01-30 03:15:42.81	347.21	21.35	-54.4	-56.2	19.6	0.00e+00	0	46	0	598736896	60	25172
2026-01-30 03:15:43.81	346.95	21.34	-54.4	-56.2	19.4	0.00e+00	0	46	0	600834048	60	25281
2026-01-30 03:15:44.82	346.69	21.34	-54.7	-56.6	19.2	0.00e+00	0	46	0	602931200	60	26487
2026-01-30 03:15:45.82	346.43	21.33	-54.7	-56.6	19.3	0.00e+00	0	46	0	605028352	60	26402
2026-01-30 03:15:46.82	346.17	21.32	-54.6	-56.5	19.3	0.00e+00	0	46	0	607125504	60	26235
2026-01-30 03:15:47.83	345.91	21.31	-54.5	-56.3	19.5	0.00e+00	0	46	0	608174080	60	25536
2026-01-30 03:15:48.84	345.65	21.30	-54.4	-56.2	19.5	0.00e+00	0	46	0	610271232	60	25216
2026-01-30 03:15:49.83	345.39	21.29	-54.0	-55.6	20.0	0.00e+00	0	46	0	612368384	60	23695
2026-01-30 03:15:50.84	345.13	21.28	-53.3	-54.7	20.9	0.00e+00	0	46	0	614465536	60	21239
2026-01-30 03:15:51.85	344.87	21.27	-53.0	-54.3	21.2	0.00e+00	0	46	0	616562688	60	20424
2026-01-30 03:15:52.86	344.61	21.26	-52.7	-54.0	21.5	0.00e+00	0	46	0	617611264	60	19702
2026-01-30 03:15:53.86	344.35	21.25	-52.5	-53.8	21.6	0.00e+00	0	46	0	619708416	60	19204
2026-01-30 03:15:54.87	344.09	21.24	-52.6	-54.0	21.6	0.00e+00	0	46	0	621805568	60	19528
2026-01-30 03:15:55.88	343.83	21.23	-52.8	-54.1	21.4	0.00e+00	0	46	0	623902720	60	19839
2026-01-30 03:15:56.89	343.57	21.21	-52.7	-54.0	21.6	0.00e+00	0	46	0	625999872	60	19617
2026-01-30 03:15:57.90	343.31	21.20	-52.6	-53.9	21.6	0.00e+00	0	46	0	627048448	60	19318
2026-01-30 03:15:58.90	343.05	21.18	-52.8	-54.0	21.6	0.00e+00	0	46	0	629145600	60	19703
2026-01-30 03:15:59.91	342.79	21.17	-52.7	-53.9	21.4	0.00e+00	0	46	0	631242752	60	19453
2026-01-30 03:16:00.91	342.53	21.15	-52.8	-54.1	21.4	0.00e+00	0	46	0	633339904	60	19803
2026-01-30 03:16:01.92	342.27	21.13	-53.0	-54.3	21.3	0.00e+00	0	46	0	635437056	60	20320
2026-01-30 03:16:02.92	342.02	21.12	-53.2	-54.5	21.2	0.00e+00	0	46	0	636485632	60	20774
2026-01-30 03:16:03.93	341.76	21.10	-52.7	-53.9	21.6	0.00e+00	0	46	0	638582784	60	19509
2026-01-30 03:16:04.94	341.50	21.08	-52.7	-53.9	21.4	0.00e+00	0	46	0	640679936	60	19459
2026-01-30 03:16:05.95	341.24	21.06	-52.7	-53.9	21.5	0.00e+00	0	46	0	642777088	60	19487
2026-01-30 03:16:06.95	340.99	21.04	-52.7	-53.9	21.7	0.00e+00	0	46	0	644874240	60	19479
2026-01-30 03:16:07.95	340.73	21.02	-52.7	-54.0	21.5	0.00e+00	0	46	0	645922816	60	19613
2026-01-30 03:16:08.96	340.47	21.00	-52.9	-54.3	21.4	0.00e+00	0	46	0	648019968	60	20274
2026-01-30 03:16:09.97	340.22	20.98	-53.0	-54.3	21.4	0.00e+00	0	46	0	650117120	60	20358
2026-01-30 03:16:10.98	339.96	20.96	-52.9	-54.2	21.4	0.00e+00	0	46	0	652214272	60	20189
2026-01-30 03:16:11.98	339.71	20.93	-52.9	-54.2	21.4	0.00e+00	0	46	0	654311424	60	20166
2026-01-30 03:16:12.99	339.45	20.91	-52.8	-54.1	21.6	0.00e+00	0	46	0	655360000	60	19812
2026-01-30 03:16:14.00	339.20	20.89	-52.7	-54.0	21.7	0.00e+00	0	46	0	657457152	60	19539
2026-01-30 03:16:15.00	338.95	20.86	-52.8	-54.1	21.6	0.00e+00	0	46	0	659554304	60	19886
2026-01-30 03:16:16.00	338.69	20.84	-53.0	-54.3	21.5	0.00e+00	0	46	0	661651456	60	20215
2026-01-30 03:16:17.01	338.44	20.81	-53.0	-54.3	21.5	0.00e+00	0	46	0	663748608	60	20257
2026-01-30 03:16:18.02	338.19	20.79	-53.1	-54.5	21.3	0.00e+00	0	46	0	664797184	60	20682
2026-01-30 03:16:19.02	337.94	20.76	-53.1	-54.4	21.3	0.00e+00	0	46	0	666894336	60	20533
2026-01-30 03:16:20.02	337.69	20.73	-53.1	-54.4	21.3	0.00e+00	0	46	0	668991488	60	20675
2026-01-30 03:16:21.03	337.43	20.70	-53.0	-54.3	21.4	0.00e+00	0	46	0	671088640	60	20353
2026-01-30 03:16:22.04	337.18	20.68	-53.1	-54.5	21.2	0.00e+00	0	45	0	673185792	60	20731
2026-01-30 03:16:23.04	336.93	20.65	-52.9	-54.2	21.4	0.00e+00	0	46	0	674234368	60	20195
2026-01-30 03:16:24.05	336.68	20.62	-52.9	-54.2	21.4	0.00e+00	0	46	0	676331520	60	20088
2026-01-30 03:16:25.05	336.44	20.59	-52.9	-54.2	21.5	0.00e+00	0	46	0	678428672	60	20046
2026-01-30 03:16:26.05	336.19	20.56	-52.9	-54.2	21.5	0.00e+00	0	46	0	680525824	60	20190
2026-01-30 03:16:27.06	335.94	20.53	-53.3	-54.7	21.0	0.00e+00	0	46	0	682622976	60	21253
2026-01-30 03:16:28.06	335.69	20.50	-53.5	-55.0	20.9	0.00e+00	0	46	0	683671552	60	21937
2026-01-30 03:16:29.07	335.45	20.46	-54.0	-55.6	20.2	0.00e+00	0	46	0	685768704	60	23686
2026-01-30 03:16:30.08	335.20	20.43	-54.2	-55.9	20.2	0.00e+00	0	46	0	687865856	60	24333
2026-01-30 03:16:31.08	334.95	20.40	-54.5	-56.2	19.8	0.00e+00	0	46	0	689963008	60	25366
2026-01-30 03:16:32.08	334.71	20.36	-54.6	-56.3	19.7	0.00e+00	0	46	0	692060160	60	25718
2026-01-30 03:16:33.09	334.46	20.33	-54.6	-56.3	19.7	0.00e+00	0	46	0	693108736	60	25583
2026-01-30 03:16:34.10	334.22	20.30	-54.5	-56.2	19.7	0.00e+00	0	45	0	695205888	60	25393
2026-01-30 03:16:35.10	333.98	20.26	-54.6	-56.3	19.7	0.00e+00	0	46	0	697303040	60	25546
2026-01-30 03:16:36.10	333.73	20.22	-54.7	-56.4	19.6	0.00e+00	0	46	0	699400192	60	26026
2026-01-30 03:16:37.11	333.49	20.19	-54.8	-56.6	19.4	0.00e+00	0	46	0	700448768	60	26530
2026-01-30 03:16:38.11	333.25	20.15	-54.9	-56.7	19.3	0.00e+00	0	46	0	702545920	60	26656
2026-01-30 03:16:39.12	333.01	20.12	-55.0	-56.9	19.0	0.00e+00	0	46	0	704643072	60	27381
2026-01-30 03:16:40.12	332.77	20.08	-55.2	-57.1	18.9	0.00e+00	0	46	0	706740224	60	28068
2026-01-30 03:16:41.12	332.53	20.04	-55.2	-57.1	19.0	0.00e+00	0	46	0	708837376	60	28000
2026-01-30 03:16:42.12	332.29	20.00	-55.3	-57.2	18.8	0.00e+00	0	46	0	709885952	60	28382
2026-01-30 03:16:43.13	332.05	19.96	-55.6	-57.6	18.4	0.00e+00	0	46	0	711983104	60	29723
2026-01-30 03:16:44.14	331.81	19.92	-55.7	-57.8	18.3	0.00e+00	0	46	0	714080256	60	30269
2026-01-30 03:16:45.15	331.57	19.88	-55.6	-57.7	18.4	0.00e+00	0	46	0	716177408	60	29924
2026-01-30 03:16:46.15	331.34	19.84	-55.6	-57.6	18.3	0.00e+00	0	46	0	718274560	60	29876
2026-01-30 03:16:47.16	331.10	19.80	-55.6	-57.7	18.3	0.00e+00	0	46	0	720371712	60	30083
2026-01-30 03:16:48.16	330.86	19.76	-55.4	-57.4	18.6	0.00e+00	0	46	0	721420288	60	28994
2026-01-30 03:16:49.17	330.63	19.72	-55.5	-57.5	18.6	0.00e+00	0	46	0	723517440	60	29411
2026-01-30 03:16:50.18	330.39	19.68	-55.4	-57.4	18.6	0.00e+00	0	46	0	725614592	60	28962
2026-01-30 03:16:51.19	330.16	19.63	-55.7	-57.8	18.3	0.00e+00	0	46	0	727711744	60	30275
2026-01-30 03:16:52.19	329.92	19.59	-54.9	-56.8	19.1	0.00e+00	0	46	0	728760320	60	27125
2026-01-30 03:16:53.20	329.69	19.55	-54.5	-56.2	19.7	0.00e+00	0	46	0	730857472	60	25241
2026-01-30 03:16:54.20	329.46	19.50	-54.7	-56.5	19.2	0.00e+00	0	46	0	732954624	60	26101
2026-01-30 03:16:55.21	329.23	19.46	-54.8	-56.5	19.2	0.00e+00	0	46	0	735051776	60	26328
2026-01-30 03:16:56.21	329.00	19.42	-54.8	-56.6	19.4	0.00e+00	0	46	0	737148928	60	26445
2026-01-30 03:16:57.21	328.77	19.37	-54.3	-55.9	19.9	0.00e+00	0	46	0	738197504	60	24576
2026-01-30 03:16:58.21	328.54	19.33	-53.9	-55.4	20.2	0.00e+00	0	46	0	740294656	60	23163
2026-01-30 03:16:59.22	328.31	19.28	-53.8	-55.3	20.3	0.00e+00	0	46	0	742391808	60	22841
2026-01-30 03:17:00.21	328.09	19.23	-53.8	-55.3	20.4	0.00e+00	0	46	0	744488960	60	22677
2026-01-30 03:17:01.20	327.86	19.19	-53.4	-54.8	20.8	0.00e+00	0	46	0	746586112	60	21465
2026-01-30 03:17:02.21	327.64	19.14	-53.2	-54.6	21.0	0.00e+00	0	46	0	747634688	60	20989
2026-01-30 03:17:03.22	327.41	19.09	-53.3	-54.7	20.9	0.00e+00	0	46	0	749731840	60	21332
2026-01-30 03:17:04.23	327.18	19.05	-53.5	-55.0	20.7	0.00e+00	0	46	0	751828992	60	21945
2026-01-30 03:17:05.24	326.96	19.00	-53.1	-54.5	21.0	0.00e+00	0	46	0	753926144	60	20844
2026-01-30 03:17:06.25	326.73	18.95	-53.2	-54.6	20.7	0.00e+00	0	46	0	756023296	60	21108
2026-01-30 03:17:07.25	326.51	18.90	-53.4	-54.9	20.7	0.00e+00	0	46	0	757071872	60	21706
2026-01-30 03:17:08.26	326.29	18.85	-53.6	-55.1	20.5	0.00e+00	0	46	0	759169024	60	22289
2026-01-30 03:17:09.27	326.07	18.80	-53.9	-55.5	20.3	0.00e+00	0	46	0	761266176	60	23285
2026-01-30 03:17:10.28	325.84	18.75	-54.1	-55.8	20.0	0.00e+00	0	46	0	763363328	60	24067
2026-01-30 03:17:11.28	325.63	18.70	-54.6	-56.3	19.4	0.00e+00	0	46	0	765460480	60	25725
2026-01-30 03:17:12.29	325.41	18.65	-55.0	-56.9	18.8	0.00e+00	0	46	0	766509056	60	27542
2026-01-30 03:17:13.30	325.19	18.60	-55.4	-57.5	18.2	0.00e+00	0	46	0	768606208	60	29546
2026-01-30 03:17:14.31	324.97	18.55	-55.6	-57.7	18.2	0.00e+00	0	46	0	770703360	60	30160
2026-01-30 03:17:15.31	324.75	18.50	-55.5	-57.7	18.1	0.00e+00	0	46	0	772800512	60	29949
2026-01-30 03:17:16.32	324.53	18.44	-55.2	-57.3	18.5	0.00e+00	0	46	0	774897664	60	28726
2026-01-30 03:17:17.33	324.32	18.39	-55.2	-57.2	18.5	0.00e+00	0	46	0	775946240	60	28372
2026-01-30 03:17:18.33	324.10	18.34	-55.3	-57.4	18.4	0.00e+00	0	46	0	778043392	60	29108
2026-01-30 03:17:19.34	323.89	18.29	-55.6	-57.9	17.9	0.00e+00	0	46	0	780140544	60	30761
2026-01-30 03:17:20.35	323.67	18.23	-55.7	-58.1	17.7	0.00e+00	0	46	0	782237696	60	31324
2026-01-30 03:17:21.36	323.46	18.18	-55.5	-57.8	18.0	0.00e+00	0	46	0	784334848	60	30317
2026-01-30 03:17:22.37	323.25	18.13	-55.5	-57.7	18.1	0.00e+00	0	46	0	785383424	60	30143
2026-01-30 03:17:23.38	323.04	18.07	-55.6	-57.9	18.0	0.00e+00	0	46	0	787480576	60	30603
2026-01-30 03:17:24.38	322.83	18.02	-55.4	-57.6	18.2	0.00e+00	0	46	0	789577728	60	29836
2026-01-30 03:17:25.39	322.62	17.96	-55.1	-57.1	18.6	0.00e+00	0	46	0	791674880	60	28136
2026-01-30 03:17:26.39	322.41	17.91	-54.8	-56.8	18.9	0.00e+00	0	46	0	793772032	60	27004
2026-01-30 03:17:27.40	322.20	17.85	-54.5	-56.3	19.4	0.00e+00	0	46	0	794820608	60	25454
2026-01-30 03:17:28.41	321.99	17.80	-54.1	-55.8	19.8	0.00e+00	0	46	0	796917760	60	24210
2026-01-30 03:17:29.42	321.78	17.74	-53.7	-55.2	20.4	0.00e+00	0	46	0	799014912	60	22605
2026-01-30 03:17:30.42	321.58	17.69	-53.3	-54.8	20.4	0.00e+00	0	46	0	801112064	60	21531
2026-01-30 03:17:31.43	321.37	17.63	-53.4	-54.9	20.7	0.00e+00	0	46	0	803209216	60	21854
2026-01-30 03:17:32.43	321.17	17.57	-52.9	-54.3	21.1	0.00e+00	0	46	0	805306368	60	20340
2026-01-30 03:17:33.43	320.97	17.52	-52.7	-54.1	21.2	0.00e+00	0	46	0	806354944	60	19759
2026-01-30 03:17:34.44	320.77	17.46	-52.8	-54.1	21.2	0.00e+00	0	46	0	808452096	60	19954
2026-01-30 03:17:35.45	320.56	17.40	-52.7	-54.1	21.0	0.00e+00	0	46	0	810549248	60	19750
2026-01-30 03:17:36.46	320.36	17.35	-53.1	-54.5	20.8	0.00e+00	0	46	0	812646400	60	20850
2026-01-30 03:17:37.46	320.16	17.29	-53.4	-54.9	20.5	0.00e+00	0	46	0	813694976	60	21898
2026-01-30 03:17:38.47	319.96	17.23	-53.6	-55.2	20.2	0.00e+00	0	46	0	815792128	60	22506
2026-01-30 03:17:39.48	319.76	17.17	-54.1	-55.8	19.7	0.00e+00	0	46	0	817889280	60	24122
2026-01-30 03:17:40.49	319.56	17.11	-54.2	-55.9	19.6	0.00e+00	0	46	0	819986432	60	24527
2026-01-30 03:17:41.50	319.36	17.06	-54.1	-55.8	19.6	0.00e+00	0	46	0	822083584	60	24260
2026-01-30 03:17:42.50	319.17	17.00	-53.8	-55.4	20.0	0.00e+00	0	46	0	823132160	60	23196
2026-01-30 03:17:43.51	318.97	16.94	-53.6	-55.2	20.3	0.00e+00	0	46	0	825229312	60	22462
2026-01-30 03:17:44.52	318.78	16.88	-53.5	-55.0	20.4	0.00e+00	0	46	0	827326464	60	22084
2026-01-30 03:17:45.52	318.58	16.82	-53.4	-55.0	20.4	0.00e+00	0	46	0	829423616	60	21949
2026-01-30 03:17:46.53	318.39	16.76	-53.7	-55.3	20.1	0.00e+00	0	46	0	831520768	60	22923
2026-01-30 03:17:47.54	318.20	16.70	-54.0	-55.8	19.6	0.00e+00	0	46	0	833617920	60	24030
2026-01-30 03:17:48.54	318.01	16.64	-54.5	-56.4	19.0	0.00e+00	0	46	0	834666496	60	25937
2026-01-30 03:17:49.54	317.82	16.58	-54.9	-57.1	18.4	0.00e+00	0	46	0	836763648	60	27907
2026-01-30 03:17:50.55	317.62	16.52	-55.4	-57.7	17.8	0.00e+00	0	46	0	838860800	60	30176
2026-01-30 03:17:51.56	317.43	16.46	-55.3	-57.7	17.7	0.00e+00	0	46	0	840957952	60	30078
2026-01-30 03:17:52.57	317.25	16.40	-55.5	-57.9	17.6	0.00e+00	0	46	0	842006528	60	30826
2026-01-30 03:17:53.58	317.06	16.34	-55.7	-58.2	17.5	0.00e+00	0	46	0	844103680	60	31677
2026-01-30 03:17:54.58	316.87	16.28	-55.5	-57.9	17.5	0.00e+00	0	46	0	846200832	60	30688
2026-01-30 03:17:55.59	316.68	16.22	-55.4	-57.7	17.9	0.00e+00	0	46	0	848297984	60	30147
2026-01-30 03:17:56.59	316.50	16.16	-55.0	-57.1	18.6	0.00e+00	0	46	0	850395136	60	28027
2026-01-30 03:17:57.60	316.31	16.09	-54.6	-56.5	19.0	0.00e+00	0	46	0	851443712	60	26150
2026-01-30 03:17:58.61	316.13	16.03	-54.7	-56.6	19.0	0.00e+00	0	46	0	853540864	60	26382
2026-01-30 03:17:59.61	315.95	15.97	-54.7	-56.7	18.7	0.00e+00	0	46	0	855638016	60	26798
2026-01-30 03:18:00.62	315.76	15.91	-54.8	-56.7	18.8	0.00e+00	0	46	0	857735168	60	26907
2026-01-30 03:18:01.62	315.58	15.85	-55.1	-57.2	18.3	0.00e+00	0	46	0	859832320	60	28494
2026-01-30 03:18:02.62	315.40	15.79	-55.2	-57.3	18.2	0.00e+00	0	46	0	860880896	60	28776
2026-01-30 03:18:03.63	315.22	15.72	-55.4	-57.5	17.9	0.00e+00	0	46	0	862978048	60	29487
2026-01-30 03:18:04.63	315.04	15.66	-55.6	-57.8	17.7	0.00e+00	0	46	0	865075200	60	30579
2026-01-30 03:18:05.63	314.86	15.60	-55.9	-58.3	17.2	0.00e+00	0	46	0	867172352	60	32218
2026-01-30 03:18:06.64	314.69	15.54	-56.1	-58.6	16.8	0.00e+00	0	46	0	869269504	60	33278
2026-01-30 03:18:07.65	314.51	15.47	-56.5	-59.2	16.2	0.00e+00	0	46	0	870318080	60	35799
2026-01-30 03:18:08.65	314.33	15.41	-56.6	-59.5	16.2	0.00e+00	0	46	0	872415232	60	36999
2026-01-30 03:18:09.66	314.16	15.35	-56.7	-59.7	16.0	0.00e+00	0	46	0	874512384	60	37703
2026-01-30 03:18:10.67	313.98	15.29	-56.8	-60.0	15.5	0.00e+00	0	46	0	876609536	60	39121
2026-01-30 03:18:11.68	313.80	15.22	-57.0	-60.4	15.0	0.00e+00	0	46	0	878706688	60	40947
2026-01-30 03:18:12.68	313.63	15.16	-57.3	-61.0	14.6	0.00e+00	0	46	0	879755264	60	43813
2026-01-30 03:18:13.69	313.46	15.10	-57.4	-61.1	14.5	1.50e-06	0	46	0	881852416	60	44436
2026-01-30 03:18:14.69	313.29	15.03	-57.4	-61.0	14.5	7.00e-07	0	46	0	883949568	60	44099
2026-01-30 03:18:15.70	313.12	14.97	-57.0	-60.3	15.2	0.00e+00	0	46	0	886046720	60	40408
2026-01-30 03:18:16.71	312.94	14.90	-57.1	-60.5	15.0	0.00e+00	0	46	0	888143872	60	41500
2026-01-30 03:18:17.72	312.77	14.84	-57.3	-60.9	14.6	7.00e-07	0	46	0	889192448	60	43567
2026-01-30 03:18:18.73	312.60	14.78	-57.4	-61.0	14.5	0.00e+00	0	46	0	891289600	60	43778
2026-01-30 03:18:19.74	312.43	14.71	-57.7	-61.6	13.8	6.80e-06	0	46	0	893386752	60	46896
2026-01-30 03:18:20.75	312.27	14.65	-58.0	-62.2	12.9	1.52e-05	0	46	0	895483904	60	50589
2026-01-30 03:18:21.75	312.10	14.59	-58.2	-62.6	12.3	1.15e-04	0	46	0	897581056	60	52944
2026-01-30 03:18:22.76	311.93	14.52	-58.2	-62.8	12.2	1.52e-04	0	46	0	898629632	60	54192
2026-01-30 03:18:23.77	311.77	14.46	-58.6	-64.0	11.4	8.42e-04	0	46	0	900726784	60	62016
2026-01-30 03:18:24.78	311.60	14.39	-58.9	-64.9	9.9	3.26e-03	0	46	0	902823936	60	68504
2026-01-30 03:18:25.79	311.44	14.33	-59.0	-65.4	9.0	1.14e-02	0	46	0	904921088	60	72624
2026-01-30 03:18:26.79	311.28	14.26	-59.3	-66.6	8.3	5.02e-02	0	46	0	907018240	60	83699
2026-01-30 03:18:27.80	311.11	14.20	-59.4	-67.4	6.9	8.41e-02	0	46	0	908066816	60	91987
2026-01-30 03:18:28.80	310.95	14.13	-59.5	-67.6	6.4	1.72e-01	0	46	0	910163968	60	94312
2026-01-30 03:18:29.81	310.79	14.07	-59.7	-68.7	5.8	2.74e-01	0	46	0	912261120	60	106872
2026-01-30 03:18:30.81	310.63	14.01	-59.7	-69.4	4.8	4.66e-01	0	46	0	914358272	60	115452
2026-01-30 03:18:31.82	310.47	13.94	-59.7	-69.6	4.6	6.84e-01	0	46	0	916455424	60	117914
2026-01-30 03:18:32.82	310.31	13.88	-59.8	-70.4	4.3	8.09e-01	0	46	0	917504000	60	129391
2026-01-30 03:18:33.83	310.15	13.81	-58.9	-64.8	10.1	2.91e-01	0	46	0	919601152	60	68182
2026-01-30 03:18:34.84	309.99	13.75	-53.3	-54.9	20.0	2.82e-05	0	46	0	921698304	60	21687
2026-01-30 03:18:35.85	309.84	13.68	-55.2	-57.4	17.7	0.00e+00	0	46	0	923795456	60	29093
2026-01-30 03:18:36.85	309.68	13.62	-53.8	-55.5	19.5	0.00e+00	0	46	0	925892608	60	23257
2026-01-30 03:18:37.86	309.53	13.55	-53.5	-55.1	20.0	0.00e+00	0	46	0	926941184	60	22337
2026-01-30 03:18:38.87	309.37	13.49	-53.3	-54.8	20.4	0.00e+00	0	46	0	929038336	60	21648
2026-01-30 03:18:39.88	309.22	13.42	-52.6	-54.0	20.9	0.00e+00	0	46	0	931135488	60	19665
2026-01-30 03:18:40.89	309.06	13.36	-52.4	-53.7	21.2	0.00e+00	0	46	0	933232640	60	18971
2026-01-30 03:18:41.89	308.91	13.29	-52.2	-53.5	21.4	0.00e+00	0	46	0	935329792	60	18470
2026-01-30 03:18:42.90	308.76	13.23	-52.3	-53.6	21.3	0.00e+00	0	46	0	936378368	60	18715
2026-01-30 03:18:43.91	308.60	13.16	-52.3	-53.6	21.4	0.00e+00	0	46	0	938475520	60	18851
2026-01-30 03:18:44.92	308.45	13.09	-52.4	-53.7	21.2	0.00e+00	0	46	0	940572672	60	19033
2026-01-30 03:18:45.92	308.30	13.03	-52.6	-54.0	20.9	0.00e+00	0	46	0	942669824	60	19691
2026-01-30 03:18:46.93	308.15	12.96	-52.7	-54.2	20.7	0.00e+00	0	46	0	944766976	60	20045
2026-01-30 03:18:47.93	308.01	12.90	-53.0	-54.5	20.5	0.00e+00	0	46	0	946864128	60	20751
2026-01-30 03:18:48.94	307.86	12.83	-53.2	-54.7	20.2	0.00e+00	0	46	0	947912704	60	21400
2026-01-30 03:18:49.94	307.71	12.77	-53.3	-54.9	20.0	0.00e+00	0	45	0	950009856	60	21770
2026-01-30 03:18:50.95	307.56	12.70	-53.3	-54.9	20.0	0.00e+00	0	46	0	952107008	60	21826
2026-01-30 03:18:51.96	307.42	12.64	-53.5	-55.2	19.9	0.00e+00	0	46	0	954204160	60	22544
2026-01-30 03:18:52.96	307.27	12.57	-53.5	-55.2	19.9	0.00e+00	0	46	0	955252736	60	22463
2026-01-30 03:18:53.97	307.13	12.51	-53.6	-55.2	19.7	0.00e+00	0	46	0	957349888	60	22620
2026-01-30 03:18:54.97	306.98	12.44	-53.5	-55.1	19.7	0.00e+00	0	46	0	959447040	60	22260
2026-01-30 03:18:55.97	306.84	12.38	-53.2	-54.7	20.2	0.00e+00	0	46	0	961544192	60	21352
2026-01-30 03:18:56.98	306.70	12.31	-53.0	-54.5	20.4	0.00e+00	0	46	0	963641344	60	20703
2026-01-30 03:18:57.99	306.56	12.25	-52.9	-54.4	20.5	0.00e+00	0	46	0	964689920	60	20519
2026-01-30 03:18:59.00	306.41	12.18	-53.1	-54.6	20.3	0.00e+00	0	46	0	966787072	60	21002
2026-01-30 03:19:00.01	306.27	12.12	-53.1	-54.6	20.0	0.00e+00	0	46	0	968884224	60	21051
2026-01-30 03:19:01.01	306.13	12.05	-53.2	-54.8	19.8	0.00e+00	0	46	0	970981376	60	21541
2026-01-30 03:19:02.01	305.99	11.99	-53.6	-55.2	19.7	0.00e+00	0	46	0	973078528	60	22577
2026-01-30 03:19:03.02	305.86	11.92	-53.7	-55.3	19.7	0.00e+00	0	46	0	974127104	60	22930
2026-01-30 03:19:04.02	305.72	11.86	-53.9	-55.6	19.4	0.00e+00	0	46	0	976224256	60	23622
2026-01-30 03:19:05.03	305.58	11.79	-53.8	-55.5	19.4	0.00e+00	0	46	0	978321408	60	23472
2026-01-30 03:19:06.04	305.44	11.72	-54.1	-55.9	19.1	0.00e+00	0	46	0	980418560	60	24479
2026-01-30 03:19:07.04	305.31	11.66	-54.3	-56.1	18.9	0.00e+00	0	46	0	982515712	60	25087
2026-01-30 03:19:08.05	305.17	11.59	-54.6	-56.6	18.5	0.00e+00	0	46	0	983564288	60	26365
2026-01-30 03:19:09.06	305.03	11.53	-54.6	-56.6	18.5	0.00e+00	0	46	0	985661440	60	26603
2026-01-30 03:19:10.07	304.90	11.46	-54.9	-57.1	18.1	0.00e+00	0	46	0	987758592	60	27927
2026-01-30 03:19:11.07	304.77	11.40	-55.2	-57.5	17.6	0.00e+00	0	46	0	989855744	60	29462
2026-01-30 03:19:12.08	304.63	11.33	-55.4	-57.9	17.3	0.00e+00	0	45	0	991952896	60	30698
2026-01-30 03:19:13.09	304.50	11.27	-55.4	-57.8	17.3	0.00e+00	0	46	0	993001472	60	30508
2026-01-30 03:19:14.10	304.37	11.20	-55.2	-57.5	17.6	0.00e+00	0	46	0	995098624	60	29402
2026-01-30 03:19:15.11	304.23	11.14	-54.8	-57.0	18.0	0.00e+00	0	46	0	997195776	60	27744
2026-01-30 03:19:16.10	304.10	11.07	-54.9	-57.0	18.0	0.00e+00	0	46	0	999292928	60	27799
2026-01-30 03:19:17.11	303.97	11.01	-54.4	-56.4	18.6	0.00e+00	0	46	0	1001390080	60	25916
2026-01-30 03:19:18.12	303.84	10.94	-53.9	-55.7	19.3	0.00e+00	0	46	0	1002438656	60	23772
2026-01-30 03:19:19.13	303.71	10.88	-53.6	-55.3	19.6	0.00e+00	0	46	0	1004535808	60	22806
2026-01-30 03:19:20.14	303.58	10.81	-53.6	-55.3	19.7	0.00e+00	0	46	0	1006632960	60	22792
2026-01-30 03:19:21.15	303.46	10.75	-53.5	-55.2	19.6	0.00e+00	0	46	0	1008730112	60	22481
2026-01-30 03:19:22.15	303.33	10.68	-53.7	-55.4	19.4	0.00e+00	0	46	0	1010827264	60	23155
2026-01-30 03:19:23.16	303.20	10.62	-53.4	-55.1	19.8	0.00e+00	0	46	0	1011875840	60	22187
2026-01-30 03:19:24.16	303.08	10.55	-53.4	-55.1	19.7	0.00e+00	0	46	0	1013972992	60	22301
2026-01-30 03:19:25.17	302.95	10.49	-53.5	-55.2	19.8	0.00e+00	0	46	0	1016070144	60	22461
2026-01-30 03:19:26.18	302.82	10.42	-53.9	-55.7	19.2	0.00e+00	0	46	0	1018167296	60	23852
2026-01-30 03:19:27.18	302.70	10.36	-54.2	-56.2	18.7	0.00e+00	0	46	0	1020264448	60	25159
2026-01-30 03:19:28.18	302.58	10.29	-54.5	-56.5	18.4	0.00e+00	0	46	0	1021313024	60	26292
2026-01-30 03:19:29.19	302.45	10.23	-54.7	-56.9	18.1	0.00e+00	0	46	0	1023410176	60	27288
2026-01-30 03:19:30.19	302.33	10.16	-54.9	-57.1	18.0	0.00e+00	0	46	0	1025507328	60	27954
2026-01-30 03:19:31.20	302.21	10.10	-55.0	-57.2	17.9	0.00e+00	0	46	0	1027604480	60	28542
2026-01-30 03:19:32.20	302.09	10.04	-54.7	-56.8	18.3	0.00e+00	0	46	0	1029701632	60	27219
2026-01-30 03:19:33.21	301.97	9.97	-54.9	-57.1	18.0	0.00e+00	0	46	0	1030750208	60	28032
2026-01-30 03:19:34.22	301.84	9.91	-54.7	-56.8	18.3	0.00e+00	0	46	0	1032847360	60	27068
2026-01-30 03:19:35.22	301.73	9.84	-54.7	-56.8	18.4	0.00e+00	0	46	0	1034944512	60	27195
2026-01-30 03:19:36.23	301.60	9.78	-54.6	-56.7	18.3	0.00e+00	0	46	0	1037041664	60	26645
2026-01-30 03:19:37.24	301.49	9.71	-54.5	-56.5	18.5	0.00e+00	0	46	0	1039138816	60	26248
2026-01-30 03:19:38.24	301.37	9.65	-54.6	-56.6	18.4	0.00e+00	0	46	0	1040187392	60	26619
2026-01-30 03:19:39.25	301.25	9.58	-54.6	-56.7	18.2	0.00e+00	0	46	0	1042284544	60	26646
2026-01-30 03:19:40.26	301.13	9.52	-54.7	-56.9	18.1	0.00e+00	0	46	0	1044381696	60	27424
2026-01-30 03:19:41.26	301.01	9.46	-54.3	-56.3	18.6	0.00e+00	0	46	0	1046478848	60	25548
2026-01-30 03:19:42.27	300.90	9.39	-54.4	-56.4	18.5	0.00e+00	0	46	0	1048576000	60	26000
2026-01-30 03:19:43.27	300.78	9.33	-54.5	-56.5	18.4	0.00e+00	0	46	0	1049624576	60	26208
2026-01-30 03:19:44.28	300.67	9.26	-54.5	-56.5	18.4	0.00e+00	0	46	0	1051721728	60	26197
2026-01-30 03:19:45.29	300.55	9.20	-54.6	-56.7	18.2	0.00e+00	0	46	0	1053818880	60	26749
2026-01-30 03:19:46.28	300.44	9.14	-54.5	-56.5	18.6	0.00e+00	0	46	0	1055916032	60	26282
2026-01-30 03:19:47.29	300.32	9.07	-54.4	-56.4	18.4	0.00e+00	0	46	0	1058013184	60	25925
2026-01-30 03:19:48.29	300.21	9.01	-54.4	-56.5	18.3	0.00e+00	0	46	0	1059061760	60	26077
2026-01-30 03:19:49.30	300.10	8.95	-54.5	-56.6	18.4	0.00e+00	0	46	0	1061158912	60	26392
2026-01-30 03:19:50.31	299.99	8.88	-54.5	-56.7	18.2	0.00e+00	0	46	0	1063256064	60	26654
2026-01-30 03:19:51.32	299.87	8.82	-54.7	-56.9	18.0	0.00e+00	0	46	0	1065353216	60	27560
2026-01-30 03:19:52.33	299.76	8.75	-55.0	-57.4	17.5	0.00e+00	0	46	0	1066401792	60	29001
2026-01-30 03:19:53.33	299.65	8.69	-54.7	-56.9	17.9	0.00e+00	0	46	0	1068498944	60	27508
2026-01-30 03:19:54.34	299.54	8.63	-54.9	-57.2	17.4	0.00e+00	0	46	0	1070596096	60	28382
2026-01-30 03:19:55.35	299.43	8.56	-54.8	-57.0	17.7	0.00e+00	0	46	0	1072693248	60	27721
2026-01-30 03:19:56.35	299.32	8.50	-54.7	-56.9	17.9	0.00e+00	0	46	0	1074790400	60	27527
2026-01-30 03:19:57.36	299.21	8.44	-54.8	-57.0	17.9	0.00e+00	0	46	0	1076887552	60	27804
2026-01-30 03:19:58.37	299.10	8.37	-54.7	-56.9	17.8	0.00e+00	0	46	0	1077936128	60	27516
2026-01-30 03:19:59.37	299.00	8.31	-54.8	-57.1	17.8	0.00e+00	0	46	0	1080033280	60	28002
2026-01-30 03:20:00.38	298.89	8.25	-54.7	-56.9	17.9	0.00e+00	0	46	0	1082130432	60	27320
2026-01-30 03:20:01.39	298.78	8.18	-54.9	-57.2	17.5	0.00e+00	0	46	0	1084227584	60	28343
2026-01-30 03:20:02.39	298.68	8.12	-54.9	-57.1	17.7	0.00e+00	0	46	0	1086324736	60	28104
2026-01-30 03:20:03.40	298.57	8.06	-55.2	-57.6	17.2	0.00e+00	0	46	0	1087373312	60	29650
2026-01-30 03:20:04.40	298.46	8.00	-55.4	-57.9	16.8	0.00e+00	0	46	0	1089470464	60	30756
2026-01-30 03:20:05.41	298.36	7.93	-55.3	-57.9	17.0	0.00e+00	0	46	0	1091567616	60	30710
2026-01-30 03:20:06.42	298.25	7.87	-55.5	-58.2	16.7	0.00e+00	0	46	0	1093664768	60	31713
2026-01-30 03:20:07.43	298.15	7.81	-55.7	-58.4	16.3	0.00e+00	0	46	0	1095761920	60	32615
2026-01-30 03:20:08.44	298.04	7.74	-55.9	-58.8	15.9	0.00e+00	0	46	0	1096810496	60	34114
2026-01-30 03:20:09.44	297.94	7.68	-55.9	-58.9	15.8	0.00e+00	0	46	0	1098907648	60	34531
2026-01-30 03:20:10.45	297.84	7.62	-56.1	-59.3	15.5	0.00e+00	0	46	0	1101004800	60	35945
2026-01-30 03:20:11.46	297.74	7.56	-56.1	-59.2	15.6	0.00e+00	0	46	0	1103101952	60	35749
2026-01-30 03:20:12.46	297.64	7.50	-55.8	-58.7	16.0	0.00e+00	0	46	0	1105199104	60	33920
2026-01-30 03:20:13.47	297.53	7.43	-55.9	-58.9	15.8	0.00e+00	0	46	0	1106247680	60	34336
2026-01-30 03:20:14.48	297.43	7.37	-55.7	-58.5	16.2	0.00e+00	0	46	0	1108344832	60	32958
2026-01-30 03:20:15.49	297.33	7.31	-55.8	-58.6	16.0	0.00e+00	0	46	0	1110441984	60	33537
2026-01-30 03:20:16.49	297.23	7.25	-55.9	-58.9	15.8	0.00e+00	0	46	0	1112539136	60	34516
2026-01-30 03:20:17.50	297.13	7.18	-56.0	-59.0	15.8	0.00e+00	0	46	0	1114636288	60	34802
2026-01-30 03:20:18.50	297.03	7.12	-55.9	-58.8	15.9	0.00e+00	0	46	0	1115684864	60	34157
2026-01-30 03:20:19.51	296.93	7.06	-55.8	-58.7	15.8	0.00e+00	0	46	0	1117782016	60	33821
2026-01-30 03:20:20.52	296.84	7.00	-55.9	-58.8	15.8	0.00e+00	0	46	0	1119879168	60	34144
