passes_logs/2026/01/30/R3.2S-Naryan-Mar/R3.2S-Naryan-Mar__20260130_044734_SUOMI_NPP_rec.log

#Pass ID: 20260130_044734_SUOMI NPP
#Satellite: SUOMI NPP
#Configuration: NPP
#almurnet v.1.7.20240730
#Start time: 2026-01-30 04:47:34

#Version: 2.2.20231116
#Station: R3.2S-Naryan-Mar
#Location: 53.008057 lon 67.646978 lat
#TLE: 1 37849U 11061A   26029.48304708  .00000140  00000+0  87283-4 0  9999
#TLE: 2 37849  98.7824 331.4079 0002024  38.4342 321.6978 14.19531488738761

#Time	Az	El	Level	Level2	SNR	BER	BlckErr	Temp	State	Recorded	gain1	gain2
2026-01-30 04:47:34.49	76.17	0.02	-60.9	-73.5	3.5	8.46e-01	0	43	0	0	60	184696
2026-01-30 04:47:35.49	76.12	0.07	-55.4	-76.7	3.6	1.51e+00	0	44	104	0	60	269025
2026-01-30 04:47:36.50	76.06	0.12	-55.7	-76.0	3.6	1.51e+00	0	44	104	0	60	245899
2026-01-30 04:47:37.51	76.00	0.18	-54.4	-75.7	3.6	1.51e+00	0	44	104	0	60	237502
2026-01-30 04:47:38.51	75.94	0.23	-52.5	-73.4	3.6	1.51e+00	0	44	104	0	60	183943
2026-01-30 04:47:39.52	75.88	0.29	-52.0	-73.9	3.6	1.51e+00	0	44	104	0	60	195184
2026-01-30 04:47:40.53	75.82	0.34	-53.5	-74.6	3.6	1.51e+00	0	44	104	0	60	210045
2026-01-30 04:47:41.54	75.76	0.39	-55.3	-75.9	3.6	1.51e+00	0	44	104	0	60	244641
2026-01-30 04:47:42.55	75.70	0.45	-54.3	-75.5	3.6	1.51e+00	0	44	104	0	60	234450
2026-01-30 04:47:43.55	75.64	0.50	-54.8	-75.5	3.6	1.51e+00	0	44	104	0	60	234722
2026-01-30 04:47:44.56	75.58	0.56	-60.3	-78.8	3.6	1.51e+00	0	44	104	0	60	342214
2026-01-30 04:47:45.56	75.52	0.61	-57.2	-78.0	3.6	1.51e+00	0	45	104	0	60	311036
2026-01-30 04:47:46.57	75.45	0.67	-60.2	-78.8	3.6	1.51e+00	0	44	104	0	60	339367
2026-01-30 04:47:47.57	75.39	0.72	-61.3	-79.2	3.6	1.51e+00	0	44	104	0	60	356353
2026-01-30 04:47:48.58	75.33	0.77	-59.6	-78.6	3.6	1.51e+00	0	45	104	0	60	335303
2026-01-30 04:47:49.58	75.27	0.83	-58.8	-78.0	3.6	1.51e+00	0	44	104	0	60	312316
2026-01-30 04:47:50.59	75.21	0.88	-56.0	-76.6	3.6	1.51e+00	0	45	104	0	60	265022
2026-01-30 04:47:51.60	75.14	0.94	-59.2	-78.6	3.6	1.51e+00	0	45	104	0	60	333086
2026-01-30 04:47:52.61	75.08	0.99	-60.3	-79.0	3.6	1.51e+00	0	45	104	0	60	349484
2026-01-30 04:47:53.61	75.02	1.05	-55.3	-75.9	3.6	1.51e+00	0	45	104	0	60	244532
2026-01-30 04:47:54.62	74.95	1.10	-57.3	-76.7	3.6	1.51e+00	0	45	104	0	60	267096
2026-01-30 04:47:55.62	74.89	1.16	-60.4	-78.4	3.6	1.51e+00	0	45	104	0	60	326827
2026-01-30 04:47:56.63	74.83	1.21	-59.0	-77.9	3.6	1.51e+00	0	45	104	0	60	307169
2026-01-30 04:47:57.64	74.76	1.27	-60.0	-78.7	3.6	1.51e+00	0	45	104	0	60	338152
2026-01-30 04:47:58.65	74.70	1.32	-56.4	-78.0	3.6	1.51e+00	0	45	104	0	60	311809
2026-01-30 04:47:59.66	74.63	1.38	-59.2	-78.0	3.6	1.51e+00	0	45	104	0	60	311702
2026-01-30 04:48:00.66	74.57	1.43	-58.8	-78.3	3.6	1.51e+00	0	45	104	0	60	321550
2026-01-30 04:48:01.67	74.50	1.49	-59.7	-77.4	3.6	1.51e+00	0	45	104	0	60	290116
2026-01-30 04:48:02.67	74.44	1.55	-58.6	-77.9	3.6	1.51e+00	0	45	104	0	60	306598
2026-01-30 04:48:03.68	74.37	1.60	-57.3	-77.0	3.6	1.51e+00	0	45	104	0	60	278011
2026-01-30 04:48:04.69	74.31	1.66	-57.2	-77.1	3.6	1.51e+00	0	45	104	0	60	281068
2026-01-30 04:48:05.69	74.24	1.71	-57.2	-76.8	3.6	1.51e+00	0	45	104	0	60	271873
2026-01-30 04:48:06.70	74.18	1.77	-57.2	-76.9	3.6	1.51e+00	0	45	104	0	60	274374
2026-01-30 04:48:07.70	74.11	1.82	-57.2	-76.9	3.6	1.51e+00	0	45	104	0	60	275316
2026-01-30 04:48:08.72	74.04	1.88	-57.3	-76.9	3.6	1.51e+00	0	45	104	0	60	275394
2026-01-30 04:48:09.72	73.97	1.94	-57.3	-77.0	3.6	1.51e+00	0	45	104	0	60	276277
2026-01-30 04:48:10.73	73.91	1.99	-57.3	-77.0	3.6	1.51e+00	0	45	104	0	60	277576
2026-01-30 04:48:11.73	73.84	2.05	-57.3	-77.1	3.6	1.51e+00	0	45	104	0	60	281630
2026-01-30 04:48:12.74	73.77	2.10	-57.3	-77.1	3.6	1.51e+00	0	45	104	0	60	281922
2026-01-30 04:48:13.75	73.70	2.16	-57.3	-77.1	3.6	1.51e+00	0	45	104	0	60	280140
2026-01-30 04:48:14.75	73.64	2.22	-57.3	-76.8	3.6	1.51e+00	0	45	104	0	60	271742
2026-01-30 04:48:15.76	73.57	2.27	-57.4	-77.0	3.6	1.51e+00	0	45	104	0	60	275998
2026-01-30 04:48:16.76	73.50	2.33	-57.2	-77.0	3.6	1.51e+00	0	45	104	0	60	278060
2026-01-30 04:48:17.77	73.43	2.39	-57.2	-76.8	3.6	1.51e+00	0	45	104	0	60	272423
2026-01-30 04:48:18.77	73.36	2.44	-57.2	-76.9	3.6	1.51e+00	0	45	104	0	60	275268
2026-01-30 04:48:19.78	73.29	2.50	-57.1	-76.8	3.6	1.51e+00	0	45	104	0	60	270478
2026-01-30 04:48:20.79	73.22	2.56	-57.1	-76.8	3.6	1.51e+00	0	45	104	0	60	270174
2026-01-30 04:48:21.79	73.15	2.61	-57.0	-77.0	3.6	1.51e+00	0	45	104	0	60	277989
2026-01-30 04:48:22.80	73.08	2.67	-57.0	-77.0	3.6	1.51e+00	0	45	104	0	60	276963
2026-01-30 04:48:23.80	73.01	2.73	-57.0	-76.7	3.6	1.51e+00	0	45	104	0	60	267925
2026-01-30 04:48:24.81	72.94	2.79	-57.0	-77.0	3.6	1.51e+00	0	45	104	0	60	277820
2026-01-30 04:48:25.82	72.86	2.84	-56.9	-76.6	3.6	1.51e+00	0	45	104	0	60	263807
2026-01-30 04:48:26.83	72.79	2.90	-56.9	-76.8	3.6	1.51e+00	0	45	104	0	60	271875
2026-01-30 04:48:27.83	72.72	2.96	-56.9	-76.9	3.6	1.51e+00	0	45	104	0	60	273132
2026-01-30 04:48:28.84	72.65	3.01	-57.0	-77.0	3.6	1.51e+00	0	45	104	0	60	275975
2026-01-30 04:48:29.85	72.57	3.07	-57.1	-77.0	3.6	1.51e+00	0	45	104	0	60	277405
2026-01-30 04:48:30.85	72.50	3.13	-57.1	-77.0	3.6	1.51e+00	0	45	104	0	60	278452
2026-01-30 04:48:31.86	72.43	3.19	-57.1	-76.7	3.6	1.51e+00	0	45	104	0	60	268669
2026-01-30 04:48:32.86	72.36	3.24	-57.2	-76.7	3.6	1.51e+00	0	45	104	0	60	267759
2026-01-30 04:48:33.87	72.28	3.30	-57.1	-76.6	3.6	1.51e+00	0	45	104	0	60	265335
2026-01-30 04:48:34.88	72.21	3.36	-57.1	-76.9	3.6	1.51e+00	0	45	104	0	60	272956
2026-01-30 04:48:35.88	72.13	3.42	-57.1	-76.9	3.6	1.51e+00	0	45	104	0	60	273874
2026-01-30 04:48:36.89	72.06	3.48	-57.0	-76.7	3.6	1.51e+00	0	45	104	0	60	268048
2026-01-30 04:48:37.90	71.98	3.54	-57.0	-76.8	3.6	1.51e+00	0	45	104	0	60	272266
2026-01-30 04:48:38.90	71.91	3.59	-57.0	-76.9	3.6	1.51e+00	0	45	104	0	60	274986
2026-01-30 04:48:39.90	71.83	3.65	-57.0	-76.9	3.6	1.51e+00	0	45	104	0	60	274972
2026-01-30 04:48:40.91	71.76	3.71	-57.0	-76.5	3.6	1.51e+00	0	45	104	0	60	263338
2026-01-30 04:48:41.92	71.68	3.77	-57.0	-76.7	3.6	1.51e+00	0	45	104	0	60	268345
2026-01-30 04:48:42.93	71.60	3.83	-57.0	-76.7	3.6	1.51e+00	0	45	104	0	60	269137
2026-01-30 04:48:43.94	71.52	3.89	-57.0	-76.8	3.6	1.51e+00	0	45	104	0	60	271042
2026-01-30 04:48:44.94	71.45	3.94	-57.0	-76.7	3.6	1.51e+00	0	45	104	0	60	268222
2026-01-30 04:48:45.95	71.37	4.00	-57.0	-76.7	3.6	1.51e+00	0	45	104	0	60	266685
2026-01-30 04:48:46.95	71.29	4.06	-57.1	-76.8	3.6	1.51e+00	0	45	104	0	60	271563
2026-01-30 04:48:47.96	71.21	4.12	-57.1	-76.9	3.6	1.51e+00	0	45	104	0	60	273866
2026-01-30 04:48:48.96	71.13	4.18	-57.1	-76.5	3.6	1.51e+00	0	45	104	0	60	263279
2026-01-30 04:48:49.97	71.06	4.24	-56.9	-76.5	3.6	1.51e+00	0	45	104	0	60	261332
2026-01-30 04:48:50.98	70.98	4.30	-57.0	-76.6	3.6	1.51e+00	0	45	104	0	60	265902
2026-01-30 04:48:51.99	70.90	4.36	-57.0	-76.8	3.6	1.51e+00	0	45	104	0	60	269967
2026-01-30 04:48:52.99	70.82	4.42	-57.4	-76.8	3.6	1.51e+00	0	45	104	0	60	271492
2026-01-30 04:48:54.00	70.74	4.48	-57.3	-76.8	3.6	1.51e+00	0	45	104	0	60	270726
2026-01-30 04:48:55.01	70.65	4.53	-57.4	-76.9	3.6	1.51e+00	0	45	104	0	60	274329
2026-01-30 04:48:56.02	70.57	4.59	-57.6	-77.0	3.6	1.51e+00	0	45	104	0	60	276096
2026-01-30 04:48:57.02	70.49	4.65	-57.6	-76.7	3.6	1.51e+00	0	45	104	0	60	266591
2026-01-30 04:48:58.03	70.41	4.71	-57.6	-76.9	3.6	1.51e+00	0	45	104	0	60	273396
2026-01-30 04:48:59.04	70.33	4.77	-57.6	-76.6	3.6	1.51e+00	0	45	104	0	60	265934
2026-01-30 04:49:00.05	70.25	4.83	-57.6	-76.8	3.6	1.51e+00	0	45	104	0	60	271015
2026-01-30 04:49:01.06	70.16	4.89	-57.6	-76.6	3.6	1.51e+00	0	45	104	0	60	266272
2026-01-30 04:49:02.06	70.08	4.95	-57.8	-76.9	3.6	1.51e+00	0	45	104	0	60	275060
2026-01-30 04:49:03.07	70.00	5.01	-57.8	-76.7	3.5	1.51e+00	0	45	104	0	60	266889
2026-01-30 04:49:04.08	69.91	5.07	-57.8	-76.6	3.6	1.51e+00	0	45	104	0	60	266255
2026-01-30 04:49:05.09	69.83	5.13	-57.7	-76.4	3.6	1.51e+00	0	45	104	0	60	259713
2026-01-30 04:49:06.10	69.74	5.19	-57.8	-76.1	3.6	1.51e+00	0	45	104	0	60	251436
2026-01-30 04:49:07.10	69.66	5.25	-57.4	-75.9	3.6	1.51e+00	0	45	104	0	60	245703
2026-01-30 04:49:08.11	69.57	5.32	-57.3	-75.7	3.6	1.51e+00	0	45	104	0	60	238547
2026-01-30 04:49:09.12	69.49	5.38	-57.4	-75.8	3.6	1.51e+00	0	45	104	0	60	241303
2026-01-30 04:49:10.12	69.40	5.44	-57.3	-75.4	3.6	1.51e+00	0	45	104	0	60	229597
2026-01-30 04:49:11.13	69.31	5.50	-57.3	-74.1	3.7	1.51e+00	0	45	104	0	60	199009
2026-01-30 04:49:12.14	69.23	5.56	-57.3	-71.5	4.6	1.26e+00	0	45	0	0	60	148039
2026-01-30 04:49:13.14	69.14	5.62	-57.1	-68.3	6.7	4.83e-01	0	45	0	2097152	60	102412
2026-01-30 04:49:14.15	69.05	5.68	-57.0	-66.5	8.9	4.83e-02	0	45	0	3145728	60	83158
2026-01-30 04:49:15.16	68.96	5.74	-56.8	-64.6	11.1	6.45e-03	0	45	0	5242880	60	66222
2026-01-30 04:49:16.17	68.88	5.80	-56.5	-63.2	12.8	5.26e-04	0	45	0	7340032	60	56464
2026-01-30 04:49:17.18	68.79	5.86	-56.3	-62.3	13.6	2.97e-05	0	45	0	9437184	60	51184
2026-01-30 04:49:18.19	68.70	5.92	-56.1	-61.5	14.4	7.00e-07	0	45	0	10485760	60	46477
2026-01-30 04:49:19.19	68.61	5.99	-55.9	-61.1	14.8	0.00e+00	0	45	0	12582912	60	44481
2026-01-30 04:49:20.20	68.52	6.05	-56.0	-61.4	14.5	0.00e+00	0	45	0	14680064	60	45844
2026-01-30 04:49:21.21	68.43	6.11	-57.0	-61.9	14.4	0.00e+00	0	45	0	16777216	60	48581
2026-01-30 04:49:22.22	68.34	6.17	-58.0	-61.4	15.3	0.00e+00	0	45	0	18874368	60	45951
2026-01-30 04:49:23.22	68.25	6.23	-58.9	-68.2	7.9	4.95e-05	0	45	0	20971520	60	100715
2026-01-30 04:49:24.23	68.15	6.29	-58.0	-62.4	14.8	2.20e-06	0	45	0	22020096	60	51529
2026-01-30 04:49:25.23	68.06	6.36	-58.4	-63.9	13.1	3.80e-06	0	45	0	24117248	60	61041
2026-01-30 04:49:26.24	67.97	6.42	-56.7	-60.6	16.1	0.00e+00	0	45	0	26214400	60	41857
2026-01-30 04:49:27.24	67.88	6.48	-57.0	-60.6	16.1	0.00e+00	0	45	0	28311552	60	41916
2026-01-30 04:49:28.25	67.79	6.54	-57.5	-60.8	15.9	0.00e+00	0	45	0	30408704	60	42868
2026-01-30 04:49:29.26	67.69	6.60	-57.6	-60.5	16.3	0.00e+00	0	45	0	31457280	60	41272
2026-01-30 04:49:30.27	67.60	6.67	-57.6	-60.8	15.9	0.00e+00	0	45	0	33554432	60	42855
2026-01-30 04:49:31.27	67.50	6.73	-57.3	-60.9	15.8	0.00e+00	0	46	0	35651584	60	43699
2026-01-30 04:49:32.28	67.41	6.79	-57.2	-60.5	15.9	0.00e+00	0	45	0	37748736	60	41728
2026-01-30 04:49:33.29	67.31	6.85	-57.2	-60.2	16.6	0.00e+00	0	45	0	38797312	60	39904
2026-01-30 04:49:34.29	67.22	6.91	-57.3	-60.1	16.8	0.00e+00	0	45	0	40894464	60	39808
2026-01-30 04:49:35.30	67.12	6.98	-57.1	-59.7	17.2	0.00e+00	0	45	0	42991616	60	37672
2026-01-30 04:49:36.31	67.02	7.04	-57.1	-59.5	17.4	0.00e+00	0	45	0	45088768	60	37142
2026-01-30 04:49:37.32	66.93	7.10	-56.9	-59.4	17.3	0.00e+00	0	45	0	47185920	60	36569
2026-01-30 04:49:38.32	66.83	7.16	-55.3	-59.6	16.9	0.00e+00	0	45	0	49283072	60	37311
2026-01-30 04:49:39.33	66.73	7.23	-54.1	-59.6	15.3	0.00e+00	0	45	0	50331648	60	37328
2026-01-30 04:49:40.34	66.63	7.29	-54.6	-59.4	15.7	0.00e+00	0	45	0	52428800	60	36700
2026-01-30 04:49:41.34	66.54	7.35	-56.1	-59.8	16.7	0.00e+00	0	45	0	54525952	60	38073
2026-01-30 04:49:42.35	66.44	7.42	-57.2	-59.8	17.2	0.00e+00	0	45	0	56623104	60	38265
2026-01-30 04:49:43.35	66.34	7.48	-57.1	-60.0	17.0	0.00e+00	0	45	0	58720256	60	39260
2026-01-30 04:49:44.36	66.24	7.54	-57.0	-60.1	16.9	0.00e+00	0	45	0	59768832	60	39421
2026-01-30 04:49:45.37	66.14	7.61	-56.4	-60.2	16.4	0.00e+00	0	45	0	61865984	60	40249
2026-01-30 04:49:46.37	66.04	7.67	-54.9	-60.1	15.6	0.00e+00	0	45	0	63963136	60	39684
2026-01-30 04:49:47.38	65.94	7.73	-55.3	-60.2	15.6	0.00e+00	0	45	0	66060288	60	40241
2026-01-30 04:49:48.39	65.83	7.80	-55.9	-60.0	16.9	0.00e+00	0	45	0	67108864	60	39110
2026-01-30 04:49:49.39	65.73	7.86	-56.8	-60.4	16.7	0.00e+00	0	45	0	69206016	60	40815
2026-01-30 04:49:50.40	65.63	7.92	-57.6	-60.2	16.7	0.00e+00	0	45	0	71303168	60	40209
2026-01-30 04:49:51.40	65.53	7.99	-57.0	-60.5	16.3	0.00e+00	0	45	0	73400320	60	41287
2026-01-30 04:49:52.40	65.42	8.05	-56.2	-60.8	15.7	0.00e+00	0	45	0	75497472	60	42819
2026-01-30 04:49:53.41	65.32	8.11	-56.0	-60.7	15.0	0.00e+00	0	45	0	77594624	60	42325
2026-01-30 04:49:54.42	65.21	8.18	-56.7	-61.1	15.2	0.00e+00	0	45	0	78643200	60	44620
2026-01-30 04:49:55.42	65.11	8.24	-57.4	-61.1	16.0	0.00e+00	0	45	0	80740352	60	44665
2026-01-30 04:49:56.43	65.00	8.31	-54.7	-60.6	15.8	0.00e+00	0	45	0	82837504	60	42131
2026-01-30 04:49:57.44	64.90	8.37	-52.0	-60.7	12.2	0.00e+00	0	45	0	84934656	60	42258
2026-01-30 04:49:58.45	64.79	8.43	-51.7	-60.5	12.3	3.22e-04	0	45	0	87031808	60	41408
2026-01-30 04:49:59.45	64.69	8.50	-55.0	-60.6	15.5	1.14e-05	0	46	0	88080384	60	41827
2026-01-30 04:50:00.46	64.58	8.56	-57.1	-60.5	16.4	0.00e+00	0	45	0	90177536	60	41599
2026-01-30 04:50:01.47	64.47	8.63	-57.4	-60.1	16.9	0.00e+00	0	45	0	92274688	60	39799
2026-01-30 04:50:02.47	64.36	8.69	-57.2	-60.4	16.4	0.00e+00	0	45	0	94371840	60	41124
2026-01-30 04:50:03.48	64.25	8.76	-57.2	-60.1	17.0	0.00e+00	0	45	0	95420416	60	39612
2026-01-30 04:50:04.49	64.14	8.82	-57.2	-59.8	17.1	0.00e+00	0	45	0	97517568	60	38508
2026-01-30 04:50:05.49	64.03	8.88	-57.1	-59.6	17.1	0.00e+00	0	45	0	99614720	60	37236
2026-01-30 04:50:06.50	63.92	8.95	-57.1	-59.5	17.2	0.00e+00	0	46	0	101711872	60	37142
2026-01-30 04:50:07.51	63.81	9.01	-56.8	-59.6	17.3	0.00e+00	0	45	0	103809024	60	37264
2026-01-30 04:50:08.51	63.70	9.08	-56.9	-59.7	17.1	0.00e+00	0	46	0	105906176	60	37823
2026-01-30 04:50:09.52	63.59	9.14	-53.8	-59.2	14.9	0.00e+00	0	45	0	106954752	60	35848
2026-01-30 04:50:10.53	63.48	9.21	-51.1	-59.4	12.9	2.28e-05	0	46	0	109051904	60	36710
2026-01-30 04:50:11.54	63.36	9.27	-53.2	-59.3	14.4	3.80e-06	0	46	0	111149056	60	36025
2026-01-30 04:50:12.54	63.25	9.34	-53.8	-59.3	15.7	0.00e+00	0	46	0	113246208	60	36328
2026-01-30 04:50:13.54	63.14	9.40	-53.3	-59.5	15.0	0.00e+00	0	46	0	115343360	60	36907
2026-01-30 04:50:14.55	63.02	9.47	-54.1	-59.3	14.9	0.00e+00	0	45	0	116391936	60	36146
2026-01-30 04:50:15.55	62.91	9.53	-54.9	-59.2	16.2	0.00e+00	0	45	0	118489088	60	35789
2026-01-30 04:50:16.56	62.79	9.60	-55.3	-59.6	15.9	0.00e+00	0	45	0	120586240	60	37208
2026-01-30 04:50:17.56	62.68	9.66	-56.3	-59.7	16.7	0.00e+00	0	45	0	122683392	60	37764
2026-01-30 04:50:18.57	62.56	9.73	-57.2	-60.0	17.0	0.00e+00	0	46	0	123731968	60	39333
2026-01-30 04:50:19.58	62.44	9.80	-56.9	-59.8	17.1	0.00e+00	0	45	0	125829120	60	38490
2026-01-30 04:50:20.58	62.33	9.86	-56.6	-60.0	17.0	0.00e+00	0	45	0	127926272	60	39152
2026-01-30 04:50:21.59	62.21	9.93	-56.7	-59.9	17.3	0.00e+00	0	45	0	130023424	60	38662
2026-01-30 04:50:22.60	62.09	9.99	-57.2	-59.7	17.2	0.00e+00	0	45	0	132120576	60	37863
2026-01-30 04:50:23.61	61.97	10.06	-57.0	-59.6	16.9	0.00e+00	0	45	0	134217728	60	37580
2026-01-30 04:50:24.62	61.85	10.12	-55.7	-59.5	16.3	0.00e+00	0	45	0	135266304	60	36808
2026-01-30 04:50:25.63	61.73	10.19	-53.5	-59.2	15.3	0.00e+00	0	45	0	137363456	60	35658
2026-01-30 04:50:26.63	61.61	10.26	-51.4	-58.9	14.6	0.00e+00	0	45	0	139460608	60	34407
2026-01-30 04:50:27.64	61.49	10.32	-52.1	-58.9	14.8	7.00e-07	0	45	0	141557760	60	34389
2026-01-30 04:50:28.65	61.36	10.39	-53.4	-58.6	15.3	0.00e+00	0	45	0	143654912	60	33305
2026-01-30 04:50:29.65	61.24	10.45	-55.3	-58.7	17.3	0.00e+00	0	45	0	144703488	60	33608
2026-01-30 04:50:30.66	61.12	10.52	-56.0	-58.4	18.1	0.00e+00	0	45	0	146800640	60	32560
2026-01-30 04:50:31.67	60.99	10.59	-56.3	-58.6	18.2	0.00e+00	0	45	0	148897792	60	33229
2026-01-30 04:50:32.67	60.87	10.65	-56.4	-58.5	18.2	0.00e+00	0	45	0	150994944	60	33041
2026-01-30 04:50:33.67	60.75	10.72	-56.2	-58.4	18.4	0.00e+00	0	45	0	152043520	60	32562
2026-01-30 04:50:34.68	60.62	10.78	-56.3	-58.5	18.4	0.00e+00	0	45	0	154140672	60	33038
2026-01-30 04:50:35.69	60.49	10.85	-56.1	-58.3	18.4	0.00e+00	0	46	0	156237824	60	32287
2026-01-30 04:50:36.69	60.37	10.92	-56.0	-58.2	18.4	0.00e+00	0	45	0	158334976	60	31825
2026-01-30 04:50:37.70	60.24	10.98	-56.1	-58.4	18.1	0.00e+00	0	45	0	160432128	60	32519
2026-01-30 04:50:38.70	60.11	11.05	-56.1	-58.5	18.3	0.00e+00	0	45	0	162529280	60	32938
2026-01-30 04:50:39.71	59.98	11.12	-55.6	-58.3	18.3	0.00e+00	0	45	0	163577856	60	32389
2026-01-30 04:50:40.72	59.85	11.18	-55.3	-58.3	18.4	0.00e+00	0	45	0	165675008	60	32240
2026-01-30 04:50:41.73	59.72	11.25	-55.3	-58.5	18.4	0.00e+00	0	45	0	167772160	60	32902
2026-01-30 04:50:42.73	59.59	11.31	-55.5	-58.3	18.4	0.00e+00	0	46	0	169869312	60	32171
2026-01-30 04:50:43.74	59.46	11.38	-56.0	-58.5	18.3	0.00e+00	0	46	0	171966464	60	32888
2026-01-30 04:50:44.75	59.33	11.45	-56.1	-58.4	18.1	0.00e+00	0	46	0	173015040	60	32648
2026-01-30 04:50:45.76	59.20	11.52	-56.2	-58.5	17.8	0.00e+00	0	45	0	175112192	60	33004
2026-01-30 04:50:46.76	59.07	11.58	-56.1	-58.5	17.9	0.00e+00	0	45	0	177209344	60	32989
2026-01-30 04:50:47.77	58.93	11.65	-55.3	-58.6	17.0	0.00e+00	0	45	0	179306496	60	33298
2026-01-30 04:50:48.77	58.80	11.71	-54.8	-58.7	16.7	0.00e+00	0	45	0	180355072	60	33648
2026-01-30 04:50:49.77	58.67	11.78	-54.5	-58.9	16.3	0.00e+00	0	45	0	182452224	60	34327
2026-01-30 04:50:50.78	58.53	11.85	-54.6	-58.7	16.7	0.00e+00	0	45	0	184549376	60	33623
2026-01-30 04:50:51.77	58.40	11.91	-54.8	-58.4	17.1	0.00e+00	0	45	0	186646528	60	32637
2026-01-30 04:50:52.78	58.26	11.98	-55.0	-58.4	17.3	0.00e+00	0	45	0	188743680	60	32548
2026-01-30 04:50:53.78	58.13	12.05	-54.9	-58.3	17.6	0.00e+00	0	45	0	189792256	60	32143
2026-01-30 04:50:54.79	57.99	12.11	-54.6	-58.3	17.2	0.00e+00	0	45	0	191889408	60	32266
2026-01-30 04:50:55.79	57.85	12.18	-54.4	-58.3	16.9	0.00e+00	0	45	0	193986560	60	32372
2026-01-30 04:50:56.80	57.71	12.25	-53.8	-58.5	16.7	0.00e+00	0	45	0	196083712	60	32929
2026-01-30 04:50:57.80	57.57	12.31	-52.2	-58.5	15.9	0.00e+00	0	46	0	198180864	60	32897
2026-01-30 04:50:58.81	57.43	12.38	-51.6	-58.3	15.8	0.00e+00	0	45	0	200278016	60	32086
2026-01-30 04:50:59.82	57.29	12.45	-51.5	-58.2	15.6	0.00e+00	0	45	0	201326592	60	31781
2026-01-30 04:51:00.82	57.15	12.51	-51.6	-58.1	16.1	0.00e+00	0	45	0	203423744	60	31394
2026-01-30 04:51:01.83	57.01	12.58	-52.2	-58.0	16.4	0.00e+00	0	45	0	205520896	60	31201
2026-01-30 04:51:02.84	56.86	12.65	-53.1	-57.9	17.1	0.00e+00	0	45	0	207618048	60	30895
2026-01-30 04:51:03.84	56.72	12.72	-54.0	-58.0	17.5	0.00e+00	0	45	0	208666624	60	31228
2026-01-30 04:51:04.85	56.58	12.78	-54.4	-57.9	17.8	0.00e+00	0	45	0	210763776	60	30768
2026-01-30 04:51:05.85	56.43	12.85	-54.8	-57.9	17.8	0.00e+00	0	45	0	212860928	60	30831
2026-01-30 04:51:06.86	56.29	12.92	-54.9	-57.7	18.0	0.00e+00	0	45	0	214958080	60	30111
2026-01-30 04:51:07.86	56.14	12.98	-55.0	-57.7	18.0	0.00e+00	0	45	0	217055232	60	30154
2026-01-30 04:51:08.87	55.99	13.05	-55.1	-57.7	18.2	0.00e+00	0	45	0	218103808	60	30213
2026-01-30 04:51:09.88	55.85	13.12	-54.8	-57.6	18.1	0.00e+00	0	45	0	220200960	60	29630
2026-01-30 04:51:10.88	55.70	13.18	-54.9	-57.6	18.0	0.00e+00	0	45	0	222298112	60	29707
2026-01-30 04:51:11.89	55.55	13.25	-55.2	-57.8	17.9	0.00e+00	0	45	0	224395264	60	30500
2026-01-30 04:51:12.90	55.40	13.32	-55.2	-57.8	17.9	0.00e+00	0	46	0	226492416	60	30496
2026-01-30 04:51:13.90	55.25	13.38	-55.2	-57.8	17.9	0.00e+00	0	45	0	227540992	60	30331
2026-01-30 04:51:14.91	55.10	13.45	-55.3	-58.1	17.7	0.00e+00	0	45	0	229638144	60	31491
2026-01-30 04:51:15.91	54.95	13.52	-55.4	-58.1	17.6	0.00e+00	0	45	0	231735296	60	31663
2026-01-30 04:51:16.92	54.79	13.58	-55.6	-58.2	17.7	0.00e+00	0	46	0	233832448	60	31993
2026-01-30 04:51:17.92	54.64	13.65	-55.9	-58.5	17.3	0.00e+00	0	45	0	235929600	60	32814
2026-01-30 04:51:18.93	54.49	13.72	-55.8	-58.2	17.6	0.00e+00	0	45	0	236978176	60	31818
2026-01-30 04:51:19.93	54.33	13.78	-56.0	-58.4	17.6	0.00e+00	0	45	0	239075328	60	32448
2026-01-30 04:51:20.94	54.18	13.85	-55.8	-58.0	18.1	0.00e+00	0	46	0	241172480	60	31222
2026-01-30 04:51:21.94	54.02	13.92	-55.8	-58.1	18.0	0.00e+00	0	45	0	243269632	60	31533
2026-01-30 04:51:22.95	53.87	13.98	-55.9	-58.2	17.9	0.00e+00	0	46	0	245366784	60	31767
2026-01-30 04:51:23.96	53.71	14.05	-55.6	-57.9	18.0	0.00e+00	0	45	0	246415360	60	30885
2026-01-30 04:51:24.96	53.55	14.12	-55.4	-57.8	18.0	0.00e+00	0	46	0	248512512	60	30473
2026-01-30 04:51:25.96	53.39	14.18	-55.4	-57.9	18.0	0.00e+00	0	46	0	250609664	60	30622
2026-01-30 04:51:26.97	53.23	14.25	-55.1	-57.7	18.0	0.00e+00	0	45	0	252706816	60	29952
2026-01-30 04:51:27.98	53.07	14.32	-55.2	-57.8	17.9	0.00e+00	0	46	0	254803968	60	30442
2026-01-30 04:51:28.98	52.91	14.38	-55.3	-58.0	17.8	0.00e+00	0	46	0	255852544	60	31030
2026-01-30 04:51:29.99	52.75	14.45	-55.3	-57.8	17.7	0.00e+00	0	46	0	257949696	60	30513
2026-01-30 04:51:31.00	52.59	14.52	-55.3	-57.7	17.8	0.00e+00	0	46	0	260046848	60	30213
2026-01-30 04:51:32.00	52.43	14.58	-55.5	-58.1	17.6	0.00e+00	0	46	0	262144000	60	31392
2026-01-30 04:51:33.01	52.26	14.65	-55.6	-58.2	17.8	0.00e+00	0	46	0	264241152	60	31864
2026-01-30 04:51:34.02	52.10	14.72	-55.3	-57.9	17.8	0.00e+00	0	46	0	265289728	60	30817
2026-01-30 04:51:35.03	51.93	14.78	-55.1	-57.9	17.7	0.00e+00	0	46	0	267386880	60	30818
2026-01-30 04:51:36.03	51.77	14.85	-54.9	-57.7	17.7	0.00e+00	0	46	0	269484032	60	30006
2026-01-30 04:51:37.04	51.60	14.91	-54.6	-57.7	17.3	0.00e+00	0	45	0	271581184	60	30017
2026-01-30 04:51:38.04	51.43	14.98	-54.5	-57.6	17.5	0.00e+00	0	45	0	273678336	60	29663
2026-01-30 04:51:39.05	51.26	15.04	-54.6	-57.5	17.8	0.00e+00	0	46	0	274726912	60	29303
2026-01-30 04:51:40.06	51.09	15.11	-54.6	-57.7	17.4	0.00e+00	0	45	0	276824064	60	29921
2026-01-30 04:51:41.06	50.92	15.18	-54.7	-57.4	17.8	0.00e+00	0	46	0	278921216	60	29188
2026-01-30 04:51:42.07	50.75	15.24	-54.7	-57.5	17.7	0.00e+00	0	45	0	281018368	60	29280
2026-01-30 04:51:43.08	50.58	15.31	-54.7	-57.7	17.4	0.00e+00	0	46	0	283115520	60	29987
2026-01-30 04:51:44.09	50.41	15.37	-54.7	-57.9	17.3	0.00e+00	0	45	0	284164096	60	30603
2026-01-30 04:51:45.10	50.24	15.44	-54.6	-58.1	17.2	0.00e+00	0	45	0	286261248	60	31466
2026-01-30 04:51:46.11	50.06	15.50	-54.3	-58.2	16.9	0.00e+00	0	45	0	288358400	60	31818
2026-01-30 04:51:47.11	49.89	15.57	-54.1	-58.1	16.8	0.00e+00	0	45	0	290455552	60	31379
2026-01-30 04:51:48.12	49.71	15.63	-53.9	-58.1	16.6	0.00e+00	0	45	0	292552704	60	31483
2026-01-30 04:51:49.12	49.54	15.70	-54.0	-58.1	16.5	0.00e+00	0	45	0	293601280	60	31573
2026-01-30 04:51:50.13	49.36	15.76	-54.3	-58.4	16.4	0.00e+00	0	46	0	295698432	60	32535
2026-01-30 04:51:51.14	49.18	15.83	-54.8	-58.3	16.6	0.00e+00	0	46	0	297795584	60	32309
2026-01-30 04:51:52.15	49.00	15.89	-55.0	-58.3	16.8	0.00e+00	0	45	0	299892736	60	32072
2026-01-30 04:51:53.16	48.82	15.96	-54.9	-57.8	17.5	0.00e+00	0	46	0	301989888	60	30279
2026-01-30 04:51:54.17	48.64	16.02	-55.0	-57.7	17.9	0.00e+00	0	46	0	303038464	60	30185
2026-01-30 04:51:55.17	48.46	16.09	-55.0	-57.8	18.0	0.00e+00	0	45	0	305135616	60	30383
2026-01-30 04:51:56.18	48.28	16.15	-54.4	-57.2	18.4	0.00e+00	0	46	0	307232768	60	28468
2026-01-30 04:51:57.19	48.10	16.22	-54.2	-57.0	18.6	0.00e+00	0	46	0	309329920	60	27740
2026-01-30 04:51:58.19	47.92	16.28	-53.9	-56.8	18.5	0.00e+00	0	46	0	311427072	60	27024
2026-01-30 04:51:59.20	47.73	16.34	-53.8	-56.7	18.4	0.00e+00	0	46	0	312475648	60	26890
2026-01-30 04:52:00.20	47.55	16.41	-53.9	-56.9	18.3	0.00e+00	0	46	0	314572800	60	27450
2026-01-30 04:52:01.21	47.36	16.47	-53.9	-56.6	19.0	0.00e+00	0	46	0	316669952	60	26549
2026-01-30 04:52:02.22	47.17	16.53	-53.9	-56.4	19.4	0.00e+00	0	46	0	318767104	60	25888
2026-01-30 04:52:03.23	46.99	16.60	-54.1	-56.4	19.4	0.00e+00	0	46	0	320864256	60	25857
2026-01-30 04:52:04.23	46.80	16.66	-54.2	-56.4	19.5	0.00e+00	0	46	0	321912832	60	25800
2026-01-30 04:52:05.24	46.61	16.72	-54.3	-56.5	19.4	0.00e+00	0	46	0	324009984	60	26300
2026-01-30 04:52:06.25	46.42	16.79	-54.5	-56.5	19.4	0.00e+00	0	46	0	326107136	60	26315
2026-01-30 04:52:07.26	46.23	16.85	-54.5	-56.7	19.5	0.00e+00	0	46	0	328204288	60	26708
2026-01-30 04:52:08.27	46.04	16.91	-54.4	-56.4	19.6	0.00e+00	0	46	0	330301440	60	26014
2026-01-30 04:52:09.27	45.85	16.97	-54.1	-56.3	19.5	0.00e+00	0	46	0	331350016	60	25448
2026-01-30 04:52:10.28	45.65	17.04	-54.0	-56.1	19.7	0.00e+00	0	46	0	333447168	60	25012
2026-01-30 04:52:11.29	45.46	17.10	-54.3	-56.3	19.3	0.00e+00	0	46	0	335544320	60	25601
2026-01-30 04:52:12.30	45.27	17.16	-54.5	-56.4	19.2	0.00e+00	0	46	0	337641472	60	25894
2026-01-30 04:52:13.30	45.07	17.22	-54.3	-56.1	19.5	0.00e+00	0	46	0	339738624	60	24913
2026-01-30 04:52:14.31	44.88	17.28	-54.2	-55.9	19.7	0.00e+00	0	46	0	341835776	60	24503
2026-01-30 04:52:15.32	44.68	17.34	-53.8	-55.5	20.0	0.00e+00	0	46	0	342884352	60	23472
2026-01-30 04:52:16.33	44.48	17.41	-53.6	-55.4	19.8	0.00e+00	0	45	0	344981504	60	23142
2026-01-30 04:52:17.33	44.28	17.47	-53.5	-55.4	19.5	0.00e+00	0	46	0	347078656	60	23193
2026-01-30 04:52:18.33	44.09	17.53	-53.4	-55.6	19.1	0.00e+00	0	46	0	349175808	60	23488
2026-01-30 04:52:19.34	43.88	17.59	-53.1	-55.3	19.1	0.00e+00	0	46	0	350224384	60	22826
2026-01-30 04:52:20.35	43.68	17.65	-52.8	-55.1	19.4	0.00e+00	0	46	0	352321536	60	22194
2026-01-30 04:52:21.35	43.48	17.71	-52.8	-55.0	19.5	0.00e+00	0	45	0	354418688	60	21941
2026-01-30 04:52:22.36	43.28	17.77	-52.7	-54.9	19.3	0.00e+00	0	46	0	356515840	60	21865
2026-01-30 04:52:23.37	43.08	17.83	-52.8	-55.0	19.2	0.00e+00	0	46	0	358612992	60	21995
2026-01-30 04:52:24.38	42.87	17.88	-52.9	-55.0	19.3	0.00e+00	0	46	0	359661568	60	22070
2026-01-30 04:52:25.38	42.67	17.94	-52.7	-54.9	19.9	0.00e+00	0	46	0	361758720	60	21662
2026-01-30 04:52:26.39	42.46	18.00	-52.6	-55.0	20.1	0.00e+00	0	46	0	363855872	60	22046
2026-01-30 04:52:27.40	42.26	18.06	-52.4	-54.8	19.9	0.00e+00	0	46	0	365953024	60	21540
2026-01-30 04:52:28.40	42.05	18.12	-52.6	-55.1	19.8	0.00e+00	0	46	0	368050176	60	22346
2026-01-30 04:52:29.41	41.84	18.18	-52.9	-55.4	19.4	0.00e+00	0	46	0	370147328	60	23029
2026-01-30 04:52:30.42	41.63	18.24	-53.3	-55.7	19.3	0.00e+00	0	46	0	371195904	60	23747
2026-01-30 04:52:31.42	41.42	18.29	-53.3	-55.6	19.6	0.00e+00	0	46	0	373293056	60	23484
2026-01-30 04:52:32.43	41.21	18.35	-53.3	-55.4	19.4	0.00e+00	0	46	0	375390208	60	22976
2026-01-30 04:52:33.44	41.00	18.41	-53.4	-55.6	19.4	0.00e+00	0	46	0	377487360	60	23540
2026-01-30 04:52:34.45	40.79	18.46	-53.0	-55.3	19.3	0.00e+00	0	46	0	378535936	60	22875
2026-01-30 04:52:35.46	40.57	18.52	-52.9	-55.6	18.8	0.00e+00	0	46	0	380633088	60	23729
2026-01-30 04:52:36.46	40.36	18.58	-52.6	-55.8	18.7	0.00e+00	0	46	0	382730240	60	24267
2026-01-30 04:52:37.47	40.15	18.63	-52.1	-55.8	18.8	0.00e+00	0	46	0	384827392	60	24275
2026-01-30 04:52:38.48	39.93	18.69	-51.4	-55.4	19.2	0.00e+00	0	46	0	386924544	60	23021
2026-01-30 04:52:39.49	39.71	18.74	-51.3	-55.3	19.5	0.00e+00	0	46	0	387973120	60	22734
2026-01-30 04:52:40.50	39.50	18.80	-51.2	-55.3	19.7	0.00e+00	0	46	0	390070272	60	22884
2026-01-30 04:52:41.50	39.28	18.85	-51.8	-55.5	20.0	0.00e+00	0	46	0	392167424	60	23285
2026-01-30 04:52:42.51	39.06	18.91	-52.4	-55.5	20.0	0.00e+00	0	46	0	394264576	60	23462
2026-01-30 04:52:43.52	38.84	18.96	-52.9	-55.4	20.1	0.00e+00	0	45	0	396361728	60	23030
2026-01-30 04:52:44.53	38.62	19.01	-53.3	-55.3	20.2	0.00e+00	0	46	0	398458880	60	22732
2026-01-30 04:52:45.54	38.40	19.07	-53.2	-55.0	20.3	0.00e+00	0	46	0	399507456	60	21987
2026-01-30 04:52:46.55	38.18	19.12	-52.8	-54.8	20.2	0.00e+00	0	46	0	401604608	60	21517
2026-01-30 04:52:47.54	37.96	19.17	-52.3	-54.7	19.7	0.00e+00	0	46	0	403701760	60	21187
2026-01-30 04:52:48.54	37.74	19.23	-51.8	-54.4	19.5	0.00e+00	0	45	0	405798912	60	20652
2026-01-30 04:52:49.55	37.51	19.28	-51.1	-54.3	19.4	0.00e+00	0	46	0	406847488	60	20309
2026-01-30 04:52:50.56	37.29	19.33	-50.9	-54.0	19.7	0.00e+00	0	46	0	408944640	60	19625
2026-01-30 04:52:51.57	37.06	19.38	-50.9	-53.9	20.3	0.00e+00	0	46	0	411041792	60	19381
2026-01-30 04:52:52.57	36.84	19.43	-51.2	-53.9	20.8	0.00e+00	0	46	0	413138944	60	19371
2026-01-30 04:52:53.58	36.61	19.48	-51.6	-53.9	21.3	0.00e+00	0	46	0	415236096	60	19501
2026-01-30 04:52:54.59	36.38	19.53	-52.1	-54.1	21.4	0.00e+00	0	46	0	416284672	60	19769
2026-01-30 04:52:55.60	36.15	19.58	-52.2	-54.1	21.4	0.00e+00	0	46	0	418381824	60	19948
2026-01-30 04:52:56.60	35.92	19.63	-52.4	-54.2	21.1	0.00e+00	0	46	0	420478976	60	20129
2026-01-30 04:52:57.61	35.69	19.68	-52.5	-54.3	20.4	0.00e+00	0	46	0	422576128	60	20245
2026-01-30 04:52:58.61	35.47	19.73	-52.7	-54.7	19.6	0.00e+00	0	46	0	424673280	60	21272
2026-01-30 04:52:59.62	35.23	19.78	-52.3	-54.6	18.9	0.00e+00	0	46	0	426770432	60	21086
2026-01-30 04:53:00.63	35.00	19.82	-51.7	-54.7	18.4	0.00e+00	0	46	0	427819008	60	21210
2026-01-30 04:53:01.64	34.77	19.87	-50.7	-54.9	17.5	0.00e+00	0	46	0	429916160	60	21676
2026-01-30 04:53:02.64	34.54	19.92	-49.7	-54.8	17.4	0.00e+00	0	46	0	432013312	60	21637
2026-01-30 04:53:03.65	34.30	19.97	-49.2	-54.9	18.4	0.00e+00	0	46	0	434110464	60	21783
2026-01-30 04:53:04.66	34.06	20.01	-49.1	-54.7	19.6	0.00e+00	0	46	0	435159040	60	21200
2026-01-30 04:53:05.66	33.83	20.06	-49.6	-54.6	20.9	0.00e+00	0	46	0	437256192	60	21154
2026-01-30 04:53:06.67	33.59	20.10	-51.0	-54.8	20.8	0.00e+00	0	46	0	439353344	60	21463
2026-01-30 04:53:07.67	33.36	20.15	-51.7	-55.0	18.6	0.00e+00	0	46	0	441450496	60	22049
2026-01-30 04:53:08.68	33.12	20.19	-50.5	-54.9	16.5	0.00e+00	0	46	0	443547648	60	21809
2026-01-30 04:53:09.69	32.88	20.24	-49.1	-54.8	15.5	0.00e+00	0	46	0	444596224	60	21621
2026-01-30 04:53:10.70	32.64	20.28	-48.1	-54.8	14.7	0.00e+00	0	46	0	446693376	60	21619
2026-01-30 04:53:11.71	32.40	20.32	-48.2	-54.8	15.3	0.00e+00	0	46	0	448790528	60	21617
2026-01-30 04:53:12.71	32.16	20.37	-48.3	-54.2	16.7	0.00e+00	0	46	0	450887680	60	20149
2026-01-30 04:53:13.71	31.92	20.41	-48.9	-54.1	18.4	0.00e+00	0	46	0	452984832	60	19817
2026-01-30 04:53:14.72	31.68	20.45	-50.5	-54.2	20.5	0.00e+00	0	46	0	455081984	60	20114
2026-01-30 04:53:15.72	31.44	20.49	-52.1	-54.1	21.8	0.00e+00	0	46	0	456130560	60	19807
2026-01-30 04:53:16.73	31.19	20.53	-52.3	-53.9	20.8	0.00e+00	0	46	0	458227712	60	19362
2026-01-30 04:53:17.73	30.95	20.57	-51.9	-53.8	19.9	0.00e+00	0	46	0	460324864	60	19187
2026-01-30 04:53:18.74	30.71	20.61	-51.7	-54.0	18.9	0.00e+00	0	46	0	462422016	60	19608
2026-01-30 04:53:19.75	30.46	20.65	-51.4	-53.8	18.6	0.00e+00	0	46	0	463470592	60	19294
2026-01-30 04:53:20.75	30.22	20.69	-51.1	-54.1	18.3	0.00e+00	0	46	0	465567744	60	19877
2026-01-30 04:53:21.76	29.97	20.73	-50.4	-54.2	18.0	0.00e+00	0	46	0	467664896	60	20168
2026-01-30 04:53:22.77	29.72	20.77	-49.4	-53.9	18.0	0.00e+00	0	46	0	469762048	60	19354
2026-01-30 04:53:23.78	29.47	20.80	-49.2	-53.7	18.1	0.00e+00	0	46	0	471859200	60	18994
2026-01-30 04:53:24.79	29.23	20.84	-48.7	-53.8	17.5	0.00e+00	0	46	0	472907776	60	19253
2026-01-30 04:53:25.80	28.98	20.88	-48.5	-54.0	17.2	0.00e+00	0	46	0	475004928	60	19719
2026-01-30 04:53:26.80	28.73	20.91	-48.4	-54.4	16.3	0.00e+00	0	46	0	477102080	60	20544
2026-01-30 04:53:27.81	28.48	20.95	-48.7	-54.9	15.8	0.00e+00	0	46	0	479199232	60	21834
2026-01-30 04:53:28.81	28.23	20.98	-49.7	-54.7	16.6	0.00e+00	0	46	0	481296384	60	21303
2026-01-30 04:53:29.82	27.98	21.02	-50.6	-54.9	17.2	0.00e+00	0	46	0	483393536	60	21878
2026-01-30 04:53:30.83	27.72	21.05	-51.8	-55.1	18.1	0.00e+00	0	46	0	484442112	60	22243
2026-01-30 04:53:31.83	27.47	21.08	-52.9	-55.2	19.6	0.00e+00	0	46	0	486539264	60	22645
2026-01-30 04:53:32.84	27.22	21.12	-52.7	-55.5	20.0	0.00e+00	0	46	0	488636416	60	23328
2026-01-30 04:53:33.85	26.97	21.15	-51.9	-55.5	19.8	0.00e+00	0	46	0	490733568	60	23445
2026-01-30 04:53:34.85	26.71	21.18	-51.3	-55.9	19.3	0.00e+00	0	46	0	491782144	60	24403
2026-01-30 04:53:35.85	26.46	21.21	-50.7	-55.6	19.5	0.00e+00	0	46	0	493879296	60	23590
2026-01-30 04:53:36.86	26.21	21.24	-51.1	-55.7	19.3	0.00e+00	0	46	0	495976448	60	24016
2026-01-30 04:53:37.86	25.95	21.27	-51.7	-55.8	18.9	0.00e+00	0	46	0	498073600	60	24155
2026-01-30 04:53:38.87	25.70	21.30	-52.5	-55.8	18.7	0.00e+00	0	46	0	500170752	60	24209
2026-01-30 04:53:39.87	25.44	21.33	-53.0	-55.8	18.5	0.00e+00	0	46	0	501219328	60	24156
2026-01-30 04:53:40.88	25.18	21.36	-53.0	-55.8	18.5	0.00e+00	0	46	0	503316480	60	24125
2026-01-30 04:53:41.88	24.93	21.38	-52.8	-55.6	19.4	0.00e+00	0	46	0	505413632	60	23526
2026-01-30 04:53:42.89	24.67	21.41	-52.3	-55.4	20.1	0.00e+00	0	46	0	507510784	60	22943
2026-01-30 04:53:43.90	24.41	21.44	-51.2	-55.3	20.3	0.00e+00	0	46	0	509607936	60	22888
2026-01-30 04:53:44.90	24.16	21.46	-50.8	-55.6	19.8	0.00e+00	0	46	0	511705088	60	23644
2026-01-30 04:53:45.91	23.90	21.49	-50.8	-56.0	19.4	0.00e+00	0	46	0	512753664	60	24685
2026-01-30 04:53:46.91	23.64	21.51	-51.4	-56.0	19.3	0.00e+00	0	46	0	514850816	60	24824
2026-01-30 04:53:47.92	23.38	21.53	-52.4	-56.2	18.8	0.00e+00	0	46	0	516947968	60	25276
2026-01-30 04:53:48.92	23.12	21.56	-52.8	-56.1	18.0	0.00e+00	0	46	0	519045120	60	25127
2026-01-30 04:53:49.92	22.86	21.58	-53.0	-56.4	17.4	0.00e+00	0	46	0	520093696	60	25832
2026-01-30 04:53:50.93	22.60	21.60	-53.3	-56.6	17.5	0.00e+00	0	46	0	522190848	60	26627
2026-01-30 04:53:51.93	22.34	21.62	-53.7	-56.7	17.6	0.00e+00	0	46	0	524288000	60	26939
2026-01-30 04:53:52.94	22.08	21.64	-52.7	-56.2	17.9	0.00e+00	0	46	0	526385152	60	25328
2026-01-30 04:53:53.94	21.82	21.66	-51.5	-56.0	17.7	0.00e+00	0	46	0	528482304	60	24677
2026-01-30 04:53:54.95	21.55	21.68	-51.4	-55.6	18.1	0.00e+00	0	46	0	529530880	60	23659
2026-01-30 04:53:55.95	21.29	21.70	-51.3	-55.6	17.9	0.00e+00	0	46	0	531628032	60	23635
2026-01-30 04:53:56.96	21.03	21.72	-49.7	-55.8	16.3	0.00e+00	0	46	0	533725184	60	24173
2026-01-30 04:53:57.96	20.77	21.74	-47.9	-56.1	14.0	7.00e-07	0	46	0	535822336	60	24887
2026-01-30 04:53:58.97	20.50	21.76	-46.6	-56.2	12.6	5.30e-06	0	46	0	537919488	60	25180
2026-01-30 04:53:59.98	20.24	21.77	-46.3	-55.8	12.7	6.63e-05	0	46	0	538968064	60	24277
2026-01-30 04:54:00.98	19.98	21.79	-46.9	-55.7	13.1	9.90e-06	0	46	0	541065216	60	23881
2026-01-30 04:54:01.99	19.71	21.80	-48.7	-55.1	15.0	0.00e+00	0	46	0	543162368	60	22293
2026-01-30 04:54:03.00	19.45	21.82	-50.6	-55.2	16.6	0.00e+00	0	46	0	545259520	60	22497
2026-01-30 04:54:04.00	19.18	21.83	-52.2	-55.5	17.7	0.00e+00	0	46	0	547356672	60	23336
2026-01-30 04:54:05.01	18.92	21.85	-53.1	-56.1	17.5	0.00e+00	0	46	0	548405248	60	25092
2026-01-30 04:54:06.02	18.65	21.86	-53.2	-56.4	17.6	0.00e+00	0	46	0	550502400	60	25843
2026-01-30 04:54:07.02	18.39	21.87	-53.6	-56.7	18.2	0.00e+00	0	46	0	552599552	60	26787
2026-01-30 04:54:08.02	18.12	21.88	-53.4	-56.5	19.0	0.00e+00	0	46	0	554696704	60	26286
2026-01-30 04:54:09.03	17.86	21.89	-53.5	-56.8	18.0	0.00e+00	0	46	0	556793856	60	27050
2026-01-30 04:54:10.03	17.59	21.90	-53.7	-57.1	17.1	0.00e+00	0	46	0	557842432	60	27911
2026-01-30 04:54:11.03	17.33	21.91	-54.2	-57.5	16.7	0.00e+00	0	46	0	559939584	60	29449
2026-01-30 04:54:12.04	17.06	21.92	-54.7	-57.9	17.2	0.00e+00	0	46	0	562036736	60	30904
2026-01-30 04:54:13.04	16.80	21.93	-54.8	-57.6	18.1	0.00e+00	0	46	0	564133888	60	29672
2026-01-30 04:54:14.05	16.53	21.93	-54.7	-57.4	18.4	0.00e+00	0	46	0	566231040	60	29078
2026-01-30 04:54:15.06	16.26	21.94	-54.2	-56.8	18.6	0.00e+00	0	46	0	567279616	60	27178
2026-01-30 04:54:16.07	15.99	21.95	-54.1	-56.5	18.6	0.00e+00	0	46	0	569376768	60	26173
2026-01-30 04:54:17.07	15.73	21.95	-54.0	-56.1	18.9	0.00e+00	0	46	0	571473920	60	25121
2026-01-30 04:54:18.07	15.46	21.96	-54.0	-56.1	19.5	0.00e+00	0	46	0	573571072	60	24876
2026-01-30 04:54:19.07	15.20	21.96	-53.5	-55.9	19.9	0.00e+00	0	46	0	575668224	60	24354
2026-01-30 04:54:20.07	14.93	21.96	-52.6	-55.7	19.4	0.00e+00	0	46	0	576716800	60	24011
2026-01-30 04:54:21.08	14.66	21.97	-51.7	-55.8	19.4	0.00e+00	0	46	0	578813952	60	24115
2026-01-30 04:54:22.09	14.40	21.97	-50.7	-55.5	19.3	0.00e+00	0	46	0	580911104	60	23318
2026-01-30 04:54:23.10	14.13	21.97	-50.1	-55.4	19.1	0.00e+00	0	46	0	583008256	60	22993
2026-01-30 04:54:24.11	13.86	21.97	-50.0	-55.4	18.8	0.00e+00	0	46	0	585105408	60	22973
2026-01-30 04:54:25.10	13.60	21.97	-50.0	-55.4	18.2	0.00e+00	0	46	0	586153984	60	23169
2026-01-30 04:54:26.11	13.33	21.97	-50.1	-55.3	18.3	0.00e+00	0	46	0	588251136	60	22847
2026-01-30 04:54:27.12	13.06	21.97	-50.3	-55.5	18.4	0.00e+00	0	46	0	590348288	60	23253
2026-01-30 04:54:28.12	12.80	21.97	-50.7	-55.7	18.5	0.00e+00	0	46	0	592445440	60	23816
2026-01-30 04:54:29.13	12.53	21.96	-51.3	-55.7	18.1	0.00e+00	0	46	0	594542592	60	23903
2026-01-30 04:54:30.14	12.26	21.96	-52.0	-55.6	17.8	0.00e+00	0	46	0	595591168	60	23704
2026-01-30 04:54:31.15	11.99	21.96	-52.5	-55.7	18.2	0.00e+00	0	46	0	597688320	60	23824
2026-01-30 04:54:32.15	11.73	21.95	-52.5	-55.5	18.9	0.00e+00	0	46	0	599785472	60	23238
2026-01-30 04:54:33.16	11.46	21.95	-52.6	-55.6	19.2	0.00e+00	0	46	0	601882624	60	23701
2026-01-30 04:54:34.17	11.19	21.94	-52.6	-55.8	19.5	0.00e+00	0	46	0	603979776	60	24118
2026-01-30 04:54:35.17	10.93	21.94	-52.0	-55.7	19.1	0.00e+00	0	46	0	605028352	60	23939
2026-01-30 04:54:36.18	10.66	21.93	-52.5	-55.3	19.8	0.00e+00	0	46	0	607125504	60	22824
2026-01-30 04:54:37.19	10.39	21.92	-53.2	-55.1	20.5	0.00e+00	0	46	0	609222656	60	22191
2026-01-30 04:54:38.20	10.12	21.91	-53.2	-54.6	21.2	0.00e+00	0	46	0	611319808	60	21013
2026-01-30 04:54:39.20	9.86	21.90	-53.0	-54.4	21.4	0.00e+00	0	46	0	613416960	60	20522
2026-01-30 04:54:40.22	9.59	21.89	-52.9	-54.5	21.0	0.00e+00	0	46	0	614465536	60	20757
2026-01-30 04:54:41.22	9.33	21.88	-52.8	-55.0	19.9	0.00e+00	0	46	0	616562688	60	21942
2026-01-30 04:54:42.22	9.06	21.87	-52.4	-55.1	19.1	0.00e+00	0	46	0	618659840	60	22301
2026-01-30 04:54:43.23	8.80	21.86	-52.1	-55.2	18.3	0.00e+00	0	46	0	620756992	60	22671
2026-01-30 04:54:44.24	8.53	21.85	-51.6	-54.9	18.6	0.00e+00	0	46	0	622854144	60	21787
2026-01-30 04:54:45.24	8.27	21.83	-51.2	-54.4	19.0	0.00e+00	0	46	0	623902720	60	20615
2026-01-30 04:54:46.25	8.00	21.82	-51.0	-54.5	19.3	0.00e+00	0	46	0	625999872	60	20888
2026-01-30 04:54:47.26	7.74	21.80	-51.0	-54.7	19.6	0.00e+00	0	46	0	628097024	60	21242
2026-01-30 04:54:48.27	7.47	21.79	-51.0	-54.7	19.8	0.00e+00	0	46	0	630194176	60	21232
2026-01-30 04:54:49.27	7.21	21.77	-52.1	-55.3	20.2	0.00e+00	0	46	0	632291328	60	22901
2026-01-30 04:54:50.28	6.94	21.76	-53.0	-55.6	20.4	0.00e+00	0	46	0	633339904	60	23532
2026-01-30 04:54:51.29	6.68	21.74	-53.7	-55.8	20.1	0.00e+00	0	46	0	635437056	60	24194
2026-01-30 04:54:52.30	6.42	21.72	-53.8	-55.8	19.9	0.00e+00	0	46	0	637534208	60	24256
2026-01-30 04:54:53.30	6.16	21.70	-53.3	-55.2	20.2	0.00e+00	0	46	0	639631360	60	22444
2026-01-30 04:54:54.31	5.89	21.69	-52.9	-54.6	20.8	0.00e+00	0	46	0	641728512	60	21030
2026-01-30 04:54:55.32	5.63	21.67	-52.7	-54.2	21.1	0.00e+00	0	46	0	642777088	60	20189
2026-01-30 04:54:56.32	5.37	21.65	-52.7	-54.1	21.3	0.00e+00	0	46	0	644874240	60	19868
2026-01-30 04:54:57.33	5.11	21.62	-52.9	-54.3	21.2	0.00e+00	0	46	0	646971392	60	20422
2026-01-30 04:54:58.33	4.85	21.60	-52.8	-54.4	21.2	0.00e+00	0	46	0	649068544	60	20469
2026-01-30 04:54:59.34	4.59	21.58	-52.8	-54.4	21.1	0.00e+00	0	46	0	651165696	60	20664
2026-01-30 04:55:00.35	4.32	21.56	-53.1	-54.8	20.7	0.00e+00	0	46	0	652214272	60	21439
2026-01-30 04:55:01.35	4.07	21.54	-53.3	-54.9	20.9	0.00e+00	0	46	0	654311424	60	21723
2026-01-30 04:55:02.36	3.81	21.51	-53.4	-55.0	20.6	0.00e+00	0	46	0	656408576	60	22102
2026-01-30 04:55:03.37	3.55	21.49	-53.3	-54.9	20.7	0.00e+00	0	46	0	658505728	60	21782
2026-01-30 04:55:04.37	3.29	21.46	-52.9	-54.5	21.1	0.00e+00	0	46	0	660602880	60	20878
2026-01-30 04:55:05.38	3.03	21.44	-52.6	-54.3	21.4	0.00e+00	0	46	0	661651456	60	20286
2026-01-30 04:55:06.38	2.77	21.41	-52.4	-54.2	21.5	0.00e+00	0	46	0	663748608	60	20105
2026-01-30 04:55:07.39	2.52	21.38	-52.3	-54.2	21.4	0.00e+00	0	46	0	665845760	60	20049
2026-01-30 04:55:08.40	2.26	21.36	-52.2	-54.3	21.1	0.00e+00	0	46	0	667942912	60	20216
2026-01-30 04:55:09.41	2.00	21.33	-52.1	-54.1	21.2	0.00e+00	0	46	0	670040064	60	19793
2026-01-30 04:55:10.42	1.74	21.30	-52.1	-54.0	21.1	0.00e+00	0	46	0	671088640	60	19648
2026-01-30 04:55:11.43	1.49	21.27	-52.0	-53.8	21.5	0.00e+00	0	46	0	673185792	60	19186
2026-01-30 04:55:12.43	1.23	21.24	-52.2	-54.0	21.4	0.00e+00	0	46	0	675282944	60	19687
2026-01-30 04:55:13.44	0.98	21.21	-52.4	-54.2	21.3	0.00e+00	0	46	0	677380096	60	20044
2026-01-30 04:55:14.45	0.72	21.18	-52.8	-54.8	20.6	0.00e+00	0	46	0	679477248	60	21621
2026-01-30 04:55:15.45	0.47	21.15	-52.8	-54.9	20.6	0.00e+00	0	46	0	680525824	60	21783
2026-01-30 04:55:16.46	0.22	21.12	-52.9	-55.1	20.4	0.00e+00	0	46	0	682622976	60	22249
2026-01-30 04:55:17.47	359.97	21.08	-53.0	-55.2	20.5	0.00e+00	0	46	0	684720128	60	22484
2026-01-30 04:55:18.47	359.71	21.05	-52.9	-55.0	20.4	0.00e+00	0	46	0	686817280	60	22024
2026-01-30 04:55:19.48	359.46	21.02	-52.9	-55.0	20.4	0.00e+00	0	46	0	688914432	60	22027
2026-01-30 04:55:20.48	359.21	20.98	-53.0	-55.0	20.7	0.00e+00	0	46	0	689963008	60	22033
2026-01-30 04:55:21.49	358.96	20.95	-53.1	-55.0	20.3	0.00e+00	0	46	0	692060160	60	22073
2026-01-30 04:55:22.50	358.71	20.91	-53.1	-55.1	20.0	0.00e+00	0	46	0	694157312	60	22220
2026-01-30 04:55:23.51	358.46	20.88	-53.2	-55.3	19.7	0.00e+00	0	46	0	696254464	60	22837
2026-01-30 04:55:24.51	358.22	20.84	-53.4	-55.7	19.2	0.00e+00	0	46	0	698351616	60	23749
2026-01-30 04:55:25.52	357.97	20.80	-53.8	-56.3	18.4	0.00e+00	0	46	0	699400192	60	25619
2026-01-30 04:55:26.53	357.72	20.77	-53.6	-56.3	18.5	0.00e+00	0	46	0	701497344	60	25448
2026-01-30 04:55:27.53	357.47	20.73	-53.7	-56.6	17.9	0.00e+00	0	46	0	703594496	60	26623
2026-01-30 04:55:28.54	357.23	20.69	-53.7	-56.6	18.3	0.00e+00	0	46	0	705691648	60	26443
2026-01-30 04:55:29.54	356.98	20.65	-53.8	-56.5	18.7	0.00e+00	0	46	0	707788800	60	26055
2026-01-30 04:55:30.55	356.74	20.61	-54.0	-56.4	18.8	0.00e+00	0	46	0	708837376	60	26023
2026-01-30 04:55:31.55	356.50	20.57	-54.1	-56.5	18.8	0.00e+00	0	46	0	710934528	60	26274
2026-01-30 04:55:32.56	356.25	20.53	-54.1	-56.3	18.9	0.00e+00	0	46	0	713031680	60	25567
2026-01-30 04:55:33.57	356.01	20.49	-53.9	-56.1	18.9	0.00e+00	0	46	0	715128832	60	25094
2026-01-30 04:55:34.57	355.77	20.45	-53.6	-55.8	19.0	0.00e+00	0	46	0	717225984	60	24078
2026-01-30 04:55:35.58	355.52	20.41	-53.4	-55.7	19.0	0.00e+00	0	46	0	718274560	60	23746
2026-01-30 04:55:36.59	355.28	20.37	-53.2	-55.5	19.1	0.00e+00	0	46	0	720371712	60	23312
2026-01-30 04:55:37.59	355.04	20.32	-53.1	-55.4	19.3	0.00e+00	0	46	0	722468864	60	23014
2026-01-30 04:55:38.60	354.80	20.28	-53.5	-55.9	19.3	0.00e+00	0	46	0	724566016	60	24336
2026-01-30 04:55:39.61	354.56	20.24	-53.6	-55.7	19.7	0.00e+00	0	46	0	726663168	60	23890
2026-01-30 04:55:40.62	354.32	20.19	-53.9	-55.9	19.6	0.00e+00	0	46	0	727711744	60	24558
2026-01-30 04:55:41.63	354.09	20.15	-54.0	-55.8	19.8	0.00e+00	0	46	0	729808896	60	24282
2026-01-30 04:55:42.63	353.85	20.10	-53.9	-55.7	19.8	0.00e+00	0	46	0	731906048	60	23932
2026-01-30 04:55:43.64	353.61	20.06	-53.7	-55.5	20.0	0.00e+00	0	46	0	734003200	60	23313
2026-01-30 04:55:44.64	353.38	20.01	-53.5	-55.3	20.1	0.00e+00	0	46	0	736100352	60	22798
2026-01-30 04:55:45.65	353.15	19.97	-53.4	-55.2	20.0	0.00e+00	0	46	0	737148928	60	22616
2026-01-30 04:55:46.66	352.91	19.92	-53.2	-55.1	20.2	0.00e+00	0	46	0	739246080	60	22339
2026-01-30 04:55:47.67	352.68	19.87	-53.4	-55.3	20.4	0.00e+00	0	46	0	741343232	60	22691
2026-01-30 04:55:48.67	352.45	19.83	-53.5	-55.3	20.5	0.00e+00	0	46	0	743440384	60	22717
2026-01-30 04:55:49.68	352.21	19.78	-53.6	-55.4	20.4	0.00e+00	0	46	0	745537536	60	22998
2026-01-30 04:55:50.69	351.98	19.73	-53.9	-55.7	20.1	0.00e+00	0	46	0	746586112	60	23992
2026-01-30 04:55:51.70	351.75	19.68	-53.9	-55.9	19.8	0.00e+00	0	46	0	748683264	60	24370
2026-01-30 04:55:52.70	351.52	19.63	-53.9	-56.0	19.5	0.00e+00	0	46	0	750780416	60	24763
2026-01-30 04:55:53.71	351.29	19.58	-53.8	-56.1	19.2	0.00e+00	0	46	0	752877568	60	24994
2026-01-30 04:55:54.72	351.06	19.53	-53.6	-56.3	18.7	0.00e+00	0	46	0	754974720	60	25515
2026-01-30 04:55:55.73	350.84	19.48	-53.7	-56.8	18.4	0.00e+00	0	46	0	756023296	60	27187
2026-01-30 04:55:56.74	350.61	19.43	-53.7	-57.3	17.9	0.00e+00	0	46	0	758120448	60	28581
2026-01-30 04:55:57.75	350.38	19.38	-53.7	-57.3	17.8	0.00e+00	0	46	0	760217600	60	28820
2026-01-30 04:55:58.75	350.16	19.33	-54.2	-57.8	17.6	0.00e+00	0	46	0	762314752	60	30515
2026-01-30 04:55:59.76	349.93	19.28	-54.3	-57.6	17.8	0.00e+00	0	46	0	764411904	60	29843
2026-01-30 04:56:00.76	349.71	19.23	-54.7	-58.1	17.8	0.00e+00	0	46	0	765460480	60	31381
2026-01-30 04:56:01.77	349.49	19.18	-54.2	-57.2	18.6	7.00e-07	0	46	0	767557632	60	28266
2026-01-30 04:56:02.77	349.27	19.12	-54.2	-57.1	18.6	0.00e+00	0	46	0	769654784	60	27970
2026-01-30 04:56:03.78	349.05	19.07	-54.1	-57.0	18.7	0.00e+00	0	46	0	771751936	60	27797
2026-01-30 04:56:04.78	348.83	19.02	-54.5	-57.5	18.3	0.00e+00	0	46	0	773849088	60	29521
2026-01-30 04:56:05.79	348.61	18.96	-55.0	-58.2	17.6	0.00e+00	0	46	0	774897664	60	31833
2026-01-30 04:56:06.80	348.39	18.91	-55.4	-58.5	17.4	0.00e+00	0	46	0	776994816	60	33005
2026-01-30 04:56:07.80	348.17	18.86	-55.7	-58.4	17.6	0.00e+00	0	46	0	779091968	60	32768
2026-01-30 04:56:08.80	347.95	18.80	-56.1	-58.9	17.1	0.00e+00	0	46	0	781189120	60	34500
2026-01-30 04:56:09.81	347.74	18.75	-55.9	-58.3	17.6	0.00e+00	0	46	0	783286272	60	32179
2026-01-30 04:56:10.82	347.52	18.69	-55.5	-57.7	18.1	0.00e+00	0	46	0	784334848	60	30077
2026-01-30 04:56:11.83	347.31	18.64	-55.3	-57.3	18.6	0.00e+00	0	46	0	786432000	60	28854
2026-01-30 04:56:12.84	347.09	18.58	-54.7	-56.6	19.2	0.00e+00	0	46	0	788529152	60	26478
2026-01-30 04:56:13.85	346.88	18.52	-54.5	-56.3	19.3	0.00e+00	0	46	0	790626304	60	25611
2026-01-30 04:56:14.86	346.66	18.47	-54.2	-56.0	19.6	0.00e+00	0	46	0	792723456	60	24679
2026-01-30 04:56:15.87	346.45	18.41	-54.0	-55.8	19.8	0.00e+00	0	46	0	793772032	60	24239
2026-01-30 04:56:16.87	346.24	18.35	-53.2	-55.0	20.3	0.00e+00	0	46	0	795869184	60	21964
2026-01-30 04:56:17.88	346.03	18.30	-52.9	-54.6	20.5	0.00e+00	0	46	0	797966336	60	20974
2026-01-30 04:56:18.89	345.82	18.24	-52.7	-54.4	20.7	0.00e+00	0	46	0	800063488	60	20675
2026-01-30 04:56:19.89	345.61	18.18	-52.8	-54.5	20.7	0.00e+00	0	46	0	802160640	60	20760
2026-01-30 04:56:20.90	345.41	18.12	-52.9	-54.6	20.8	0.00e+00	0	46	0	803209216	60	21003
2026-01-30 04:56:21.90	345.20	18.07	-53.0	-54.5	20.8	0.00e+00	0	46	0	805306368	60	20913
2026-01-30 04:56:22.90	345.00	18.01	-53.3	-54.9	20.5	0.00e+00	0	46	0	807403520	60	21764
2026-01-30 04:56:23.91	344.79	17.95	-53.5	-55.1	20.4	0.00e+00	0	46	0	809500672	60	22211
2026-01-30 04:56:24.91	344.59	17.89	-53.5	-55.2	20.2	0.00e+00	0	46	0	811597824	60	22463
2026-01-30 04:56:25.92	344.38	17.83	-53.5	-55.2	20.2	0.00e+00	0	46	0	812646400	60	22637
2026-01-30 04:56:26.93	344.18	17.77	-53.4	-55.0	20.4	0.00e+00	0	46	0	814743552	60	22148
2026-01-30 04:56:27.94	343.98	17.71	-53.0	-54.5	20.8	0.00e+00	0	46	0	816840704	60	20885
2026-01-30 04:56:28.95	343.77	17.65	-53.0	-54.5	20.9	0.00e+00	0	46	0	818937856	60	20814
2026-01-30 04:56:29.95	343.58	17.59	-53.1	-54.6	20.9	0.00e+00	0	46	0	821035008	60	20967
2026-01-30 04:56:30.96	343.37	17.53	-53.3	-54.8	20.8	0.00e+00	0	46	0	822083584	60	21591
2026-01-30 04:56:31.97	343.18	17.47	-53.6	-55.2	20.3	0.00e+00	0	46	0	824180736	60	22540
2026-01-30 04:56:32.98	342.98	17.41	-53.9	-55.8	19.7	0.00e+00	0	46	0	826277888	60	24147
2026-01-30 04:56:33.98	342.78	17.35	-54.3	-56.5	18.9	0.00e+00	0	46	0	828375040	60	26282
2026-01-30 04:56:34.99	342.58	17.29	-54.6	-57.1	18.4	0.00e+00	0	46	0	830472192	60	28060
2026-01-30 04:56:36.00	342.39	17.23	-54.8	-57.5	18.1	0.00e+00	0	46	0	831520768	60	29428
2026-01-30 04:56:37.00	342.19	17.17	-54.8	-57.5	18.1	0.00e+00	0	46	0	833617920	60	29537
2026-01-30 04:56:38.00	342.00	17.10	-54.9	-57.5	18.2	0.00e+00	0	46	0	835715072	60	29322
2026-01-30 04:56:39.01	341.81	17.04	-54.9	-57.3	18.4	0.00e+00	0	46	0	837812224	60	28834
2026-01-30 04:56:40.01	341.62	16.98	-54.8	-57.1	18.6	0.00e+00	0	46	0	839909376	60	28162
2026-01-30 04:56:41.02	341.42	16.92	-54.4	-56.5	19.2	0.00e+00	0	46	0	840957952	60	26146
2026-01-30 04:56:42.03	341.23	16.86	-54.2	-56.3	19.3	0.00e+00	0	46	0	843055104	60	25524
2026-01-30 04:56:43.04	341.04	16.79	-54.3	-56.4	19.1	0.00e+00	0	46	0	845152256	60	26018
2026-01-30 04:56:44.05	340.85	16.73	-54.2	-56.4	19.0	0.00e+00	0	46	0	847249408	60	25820
2026-01-30 04:56:45.06	340.66	16.67	-54.4	-56.7	19.0	0.00e+00	0	46	0	849346560	60	26789
2026-01-30 04:56:46.07	340.48	16.60	-54.2	-56.6	18.9	0.00e+00	0	46	0	850395136	60	26377
2026-01-30 04:56:47.07	340.29	16.54	-54.2	-56.6	18.9	0.00e+00	0	46	0	852492288	60	26473
2026-01-30 04:56:48.08	340.10	16.48	-54.1	-56.4	19.0	0.00e+00	0	46	0	854589440	60	26019
2026-01-30 04:56:49.09	339.92	16.41	-54.0	-56.3	19.1	0.00e+00	0	46	0	856686592	60	25453
2026-01-30 04:56:50.10	339.73	16.35	-54.0	-56.1	19.2	0.00e+00	0	46	0	858783744	60	25041
2026-01-30 04:56:51.11	339.55	16.29	-54.1	-56.3	18.9	0.00e+00	0	46	0	859832320	60	25538
2026-01-30 04:56:52.11	339.37	16.22	-54.3	-56.7	18.5	0.00e+00	0	46	0	861929472	60	26823
2026-01-30 04:56:53.12	339.18	16.16	-54.5	-57.2	18.1	0.00e+00	0	46	0	864026624	60	28243
2026-01-30 04:56:54.13	339.00	16.09	-54.6	-57.5	17.7	0.00e+00	0	46	0	866123776	60	29405
2026-01-30 04:56:55.13	338.82	16.03	-54.7	-57.7	17.3	0.00e+00	0	46	0	868220928	60	29935
2026-01-30 04:56:56.14	338.64	15.97	-54.7	-57.8	17.2	0.00e+00	0	46	0	869269504	60	30276
2026-01-30 04:56:57.14	338.47	15.90	-54.8	-57.7	17.2	0.00e+00	0	46	0	871366656	60	29991
2026-01-30 04:56:58.15	338.29	15.84	-54.8	-57.5	17.5	0.00e+00	0	46	0	873463808	60	29495
2026-01-30 04:56:59.16	338.11	15.77	-54.8	-57.6	17.4	0.00e+00	0	46	0	875560960	60	29577
2026-01-30 04:57:00.17	337.93	15.71	-54.9	-57.5	17.4	0.00e+00	0	46	0	877658112	60	29464
2026-01-30 04:57:01.17	337.76	15.64	-54.9	-57.6	17.4	0.00e+00	0	46	0	878706688	60	29809
2026-01-30 04:57:02.18	337.58	15.58	-55.1	-57.9	17.1	0.00e+00	0	46	0	880803840	60	30710
2026-01-30 04:57:03.18	337.41	15.51	-55.3	-58.2	16.8	0.00e+00	0	46	0	882900992	60	31825
2026-01-30 04:57:04.19	337.23	15.45	-55.3	-58.4	16.6	0.00e+00	0	46	0	884998144	60	32587
2026-01-30 04:57:05.20	337.06	15.38	-55.3	-58.4	16.6	0.00e+00	0	46	0	887095296	60	32628
2026-01-30 04:57:06.21	336.89	15.32	-55.5	-58.6	16.3	0.00e+00	0	46	0	888143872	60	33167
2026-01-30 04:57:07.22	336.72	15.25	-55.4	-58.5	16.5	0.00e+00	0	46	0	890241024	60	32799
2026-01-30 04:57:08.22	336.55	15.19	-55.5	-58.5	16.5	0.00e+00	0	46	0	892338176	60	32916
2026-01-30 04:57:09.23	336.38	15.12	-55.6	-58.7	16.3	0.00e+00	0	46	0	894435328	60	33755
2026-01-30 04:57:10.23	336.21	15.06	-55.6	-58.6	16.4	0.00e+00	0	46	0	896532480	60	33451
2026-01-30 04:57:11.24	336.04	14.99	-55.5	-58.6	16.3	0.00e+00	0	46	0	897581056	60	33281
2026-01-30 04:57:12.25	335.87	14.92	-55.5	-58.6	16.2	0.00e+00	0	46	0	899678208	60	33306
2026-01-30 04:57:13.26	335.71	14.86	-55.5	-58.5	16.3	0.00e+00	0	46	0	901775360	60	32853
2026-01-30 04:57:14.26	335.54	14.79	-55.4	-58.3	16.5	0.00e+00	0	46	0	903872512	60	32296
2026-01-30 04:57:15.27	335.38	14.73	-55.4	-58.3	16.5	0.00e+00	0	46	0	905969664	60	32051
2026-01-30 04:57:16.28	335.21	14.66	-55.3	-58.3	16.4	0.00e+00	0	46	0	907018240	60	32038
2026-01-30 04:57:17.29	335.05	14.59	-55.4	-58.3	16.5	0.00e+00	0	46	0	909115392	60	32211
2026-01-30 04:57:18.29	334.89	14.53	-55.5	-58.5	16.3	0.00e+00	0	46	0	911212544	60	33080
2026-01-30 04:57:19.30	334.72	14.46	-55.3	-58.5	16.2	0.00e+00	0	46	0	913309696	60	32929
2026-01-30 04:57:20.31	334.56	14.39	-55.3	-58.4	16.3	0.00e+00	0	46	0	915406848	60	32729
2026-01-30 04:57:21.31	334.40	14.33	-55.3	-58.3	16.5	0.00e+00	0	46	0	916455424	60	32288
2026-01-30 04:57:22.32	334.24	14.26	-55.2	-58.1	16.7	0.00e+00	0	46	0	918552576	60	31606
2026-01-30 04:57:23.33	334.08	14.19	-55.0	-57.8	16.9	0.00e+00	0	46	0	920649728	60	30308
2026-01-30 04:57:24.33	333.92	14.13	-54.9	-57.7	16.9	0.00e+00	0	46	0	922746880	60	30174
2026-01-30 04:57:25.34	333.77	14.06	-54.8	-57.9	16.7	0.00e+00	0	46	0	924844032	60	30830
2026-01-30 04:57:26.35	333.61	14.00	-54.8	-58.0	16.6	0.00e+00	0	46	0	925892608	60	30991
2026-01-30 04:57:27.35	333.45	13.93	-54.9	-58.2	16.3	0.00e+00	0	46	0	927989760	60	31736
2026-01-30 04:57:28.36	333.30	13.86	-55.1	-58.4	16.0	0.00e+00	0	46	0	930086912	60	32687
2026-01-30 04:57:29.37	333.14	13.80	-55.5	-58.8	15.6	0.00e+00	0	46	0	932184064	60	34267
2026-01-30 04:57:30.37	332.99	13.73	-55.7	-59.1	15.4	0.00e+00	0	46	0	934281216	60	35270
2026-01-30 04:57:31.38	332.83	13.66	-55.8	-59.4	15.0	0.00e+00	0	46	0	935329792	60	36509
2026-01-30 04:57:32.38	332.68	13.60	-55.8	-59.7	14.8	0.00e+00	0	46	0	937426944	60	37671
2026-01-30 04:57:33.39	332.53	13.53	-55.6	-59.6	14.7	0.00e+00	0	46	0	939524096	60	37618
2026-01-30 04:57:34.40	332.38	13.46	-55.5	-59.9	14.3	0.00e+00	0	46	0	941621248	60	38872
2026-01-30 04:57:35.40	332.23	13.40	-55.4	-60.2	14.0	7.00e-07	0	46	0	943718400	60	39918
2026-01-30 04:57:36.41	332.08	13.33	-55.1	-60.2	13.7	1.50e-06	0	46	0	944766976	60	40222
2026-01-30 04:57:37.41	331.93	13.26	-54.7	-60.2	13.6	4.50e-06	0	46	0	946864128	60	40087
2026-01-30 04:57:38.42	331.78	13.20	-54.0	-60.1	13.1	1.37e-05	0	46	0	948961280	60	39788
2026-01-30 04:57:39.43	331.63	13.13	-53.5	-59.9	12.9	5.11e-05	0	46	0	951058432	60	38869
2026-01-30 04:57:40.43	331.49	13.06	-53.0	-59.8	12.8	4.50e-05	0	46	0	953155584	60	38182
2026-01-30 04:57:41.43	331.34	13.00	-52.7	-59.9	12.4	8.85e-05	0	46	0	954204160	60	38549
2026-01-30 04:57:42.44	331.19	12.93	-52.4	-59.6	12.4	1.17e-04	0	46	0	956301312	60	37548
2026-01-30 04:57:43.45	331.05	12.86	-52.0	-59.8	12.0	2.12e-04	0	46	0	958398464	60	38141
2026-01-30 04:57:44.46	330.90	12.79	-51.7	-59.8	11.8	3.84e-04	0	46	0	960495616	60	38482
2026-01-30 04:57:45.46	330.76	12.73	-51.4	-60.2	11.3	6.44e-04	0	46	0	962592768	60	40012
2026-01-30 04:57:46.47	330.62	12.66	-51.1	-60.3	10.9	1.09e-03	0	46	0	963641344	60	40490
2026-01-30 04:57:47.47	330.48	12.59	-51.1	-60.7	10.4	2.62e-03	0	46	0	965738496	60	42372
2026-01-30 04:57:48.48	330.33	12.53	-51.1	-60.9	10.2	4.86e-03	0	46	0	967835648	60	43449
2026-01-30 04:57:49.49	330.19	12.46	-50.9	-60.9	10.1	5.82e-03	0	46	0	969932800	60	43573
2026-01-30 04:57:50.50	330.05	12.39	-50.9	-61.3	9.6	1.03e-02	0	46	0	972029952	60	45347
2026-01-30 04:57:51.50	329.91	12.33	-50.9	-61.5	9.4	1.26e-02	0	46	0	973078528	60	46397
2026-01-30 04:57:52.51	329.77	12.26	-51.0	-61.6	9.3	1.59e-02	0	46	0	975175680	60	47179
2026-01-30 04:57:53.52	329.63	12.19	-51.0	-61.7	9.3	1.73e-02	0	46	0	977272832	60	47808
2026-01-30 04:57:54.53	329.49	12.13	-51.1	-61.8	9.2	1.77e-02	0	46	0	979369984	60	48232
2026-01-30 04:57:55.54	329.36	12.06	-51.4	-62.0	9.0	2.29e-02	0	46	0	981467136	60	49297
2026-01-30 04:57:56.54	329.22	11.99	-51.7	-62.1	9.0	2.18e-02	0	46	0	982515712	60	49824
2026-01-30 04:57:57.55	329.08	11.93	-51.8	-62.1	9.0	2.38e-02	0	46	0	984612864	60	49723
2026-01-30 04:57:58.56	328.95	11.86	-52.1	-61.8	9.4	1.96e-02	0	46	0	986710016	60	48081
2026-01-30 04:57:59.57	328.81	11.79	-52.3	-61.7	9.7	1.26e-02	0	46	0	988807168	60	47405
2026-01-30 04:58:00.58	328.68	11.73	-52.2	-61.4	10.0	7.58e-03	0	46	0	990904320	60	46147
2026-01-30 04:58:01.57	328.55	11.66	-52.3	-61.4	10.0	6.42e-03	0	46	0	991952896	60	46220
2026-01-30 04:58:02.57	328.41	11.59	-52.8	-61.6	10.3	5.57e-03	0	46	0	994050048	60	46908
2026-01-30 04:58:03.58	328.28	11.53	-53.1	-61.7	10.3	4.30e-03	0	46	0	996147200	60	47570
2026-01-30 04:58:04.58	328.15	11.46	-53.4	-61.9	10.2	4.47e-03	0	46	0	998244352	60	48743
2026-01-30 04:58:05.58	328.02	11.40	-53.7	-62.0	10.3	5.38e-03	0	46	0	1000341504	60	49057
2026-01-30 04:58:06.58	327.89	11.33	-54.3	-62.6	9.8	7.04e-03	0	46	0	1001390080	60	52696
2026-01-30 04:58:07.59	327.76	11.26	-54.7	-62.9	9.5	1.14e-02	0	46	0	1003487232	60	54944
2026-01-30 04:58:08.60	327.63	11.20	-55.3	-63.5	9.2	1.30e-02	0	46	0	1005584384	60	58812
2026-01-30 04:58:09.61	327.50	11.13	-55.9	-63.9	9.0	2.12e-02	0	46	0	1007681536	60	61737
2026-01-30 04:58:10.61	327.37	11.06	-56.3	-64.2	8.7	2.91e-02	0	46	0	1009778688	60	63810
2026-01-30 04:58:11.62	327.25	11.00	-56.6	-64.5	8.5	3.74e-02	0	46	0	1010827264	60	65514
2026-01-30 04:58:12.63	327.12	10.93	-56.8	-64.6	8.6	3.61e-02	0	46	0	1012924416	60	66740
2026-01-30 04:58:13.64	326.99	10.86	-57.0	-64.8	8.4	4.62e-02	0	46	0	1015021568	60	68464
2026-01-30 04:58:14.64	326.87	10.80	-57.0	-64.6	8.6	3.81e-02	0	46	0	1017118720	60	66764
2026-01-30 04:58:15.64	326.74	10.73	-57.1	-64.6	8.5	3.27e-02	0	46	0	1019215872	60	66663
2026-01-30 04:58:16.65	326.62	10.67	-57.1	-64.6	8.7	4.28e-02	0	46	0	1020264448	60	66254
2026-01-30 04:58:17.65	326.49	10.60	-57.1	-64.6	8.7	3.37e-02	0	46	0	1022361600	60	66461
2026-01-30 04:58:18.66	326.37	10.53	-57.1	-64.7	8.5	3.51e-02	0	46	0	1024458752	60	67581
2026-01-30 04:58:19.67	326.25	10.47	-57.1	-64.8	8.3	3.34e-02	0	46	0	1026555904	60	67866
2026-01-30 04:58:20.67	326.13	10.40	-57.1	-65.0	8.2	5.25e-02	0	46	0	1028653056	60	69876
2026-01-30 04:58:21.68	326.00	10.34	-57.0	-64.9	8.3	5.32e-02	0	46	0	1029701632	60	68734
2026-01-30 04:58:22.69	325.88	10.27	-56.9	-65.2	7.9	5.80e-02	0	46	0	1031798784	60	71569
2026-01-30 04:58:23.70	325.76	10.21	-56.9	-65.4	7.8	7.62e-02	0	46	0	1033895936	60	72794
2026-01-30 04:58:24.70	325.64	10.14	-56.8	-65.4	7.7	7.09e-02	0	46	0	1035993088	60	73305
2026-01-30 04:58:25.71	325.52	10.07	-56.7	-65.5	7.6	9.08e-02	0	46	0	1038090240	60	73991
2026-01-30 04:58:26.72	325.40	10.01	-56.6	-65.6	7.5	9.61e-02	0	46	0	1039138816	60	74238
2026-01-30 04:58:27.72	325.29	9.94	-56.5	-65.7	7.3	1.16e-01	0	46	0	1041235968	60	75758
2026-01-30 04:58:28.73	325.17	9.88	-56.5	-65.9	7.0	1.26e-01	0	46	0	1043333120	60	76929
2026-01-30 04:58:29.74	325.05	9.81	-57.0	-66.4	6.5	1.99e-01	0	46	0	1045430272	60	81876
2026-01-30 04:58:30.75	324.93	9.75	-56.5	-66.2	6.7	1.86e-01	0	46	0	1047527424	60	80038
2026-01-30 04:58:31.75	324.82	9.68	-57.6	-67.5	5.6	2.03e-01	0	46	0	1048576000	60	93209
2026-01-30 04:58:32.75	324.70	9.62	-57.2	-68.1	4.9	5.35e-01	0	46	0	1050673152	60	100063
2026-01-30 04:58:33.76	324.59	9.55	-56.6	-66.5	6.2	5.45e-01	0	46	0	1052770304	60	82920
2026-01-30 04:58:34.76	324.47	9.49	-56.6	-67.3	5.6	3.98e-01	0	46	0	1054867456	60	90566
2026-01-30 04:58:35.77	324.36	9.42	-56.5	-67.2	5.7	3.55e-01	0	46	0	1056964608	60	89468
2026-01-30 04:58:36.78	324.24	9.36	-56.6	-67.2	5.6	3.91e-01	0	46	0	1058013184	60	90202
2026-01-30 04:58:37.78	324.13	9.29	-56.6	-67.1	5.6	3.97e-01	0	46	0	1060110336	60	89046
2026-01-30 04:58:38.79	324.02	9.23	-56.6	-67.5	5.3	4.16e-01	0	46	0	1062207488	60	92592
2026-01-30 04:58:39.79	323.91	9.16	-56.7	-67.3	5.4	4.58e-01	0	46	0	1064304640	60	91206
2026-01-30 04:58:40.80	323.79	9.10	-56.7	-67.4	5.5	4.43e-01	0	46	0	1066401792	60	91947
2026-01-30 04:58:41.81	323.68	9.03	-56.8	-67.4	5.4	4.36e-01	0	46	0	1067450368	60	92112
2026-01-30 04:58:42.82	323.57	8.97	-58.0	-68.6	4.3	5.54e-01	0	46	0	1069547520	60	105961
2026-01-30 04:58:43.83	323.46	8.90	-57.6	-69.3	4.1	1.09e+00	0	46	0	1071644672	60	113683
2026-01-30 04:58:44.84	323.35	8.84	-57.3	-67.9	4.9	1.06e+00	0	46	0	1073741824	60	97685
2026-01-30 04:58:45.85	323.24	8.77	-57.4	-68.5	4.6	7.20e-01	0	46	0	1074790400	60	104467
2026-01-30 04:58:46.85	323.13	8.71	-57.3	-68.8	4.4	8.16e-01	0	46	0	1076887552	60	107486
2026-01-30 04:58:47.86	323.03	8.64	-57.3	-69.1	4.2	9.16e-01	0	46	0	1078984704	60	111574
2026-01-30 04:58:48.86	322.92	8.58	-57.3	-69.2	4.2	1.05e+00	0	46	0	1081081856	60	112429
2026-01-30 04:58:49.87	322.81	8.52	-57.2	-69.4	4.1	1.08e+00	0	46	0	1083179008	60	115266
2026-01-30 04:58:50.88	322.71	8.45	-57.2	-69.7	4.0	1.29e+00	0	46	0	1084227584	60	119541
2026-01-30 04:58:51.89	322.60	8.39	-57.2	-69.2	4.1	1.27e+00	0	46	0	1086324736	60	113589
2026-01-30 04:58:52.90	322.49	8.32	-57.5	-70.0	3.8	1.10e+00	0	46	0	1087373312	60	123891
2026-01-30 04:58:53.90	322.39	8.26	-57.1	-72.1	3.7	1.48e+00	0	46	104	1087373312	60	157921
2026-01-30 04:58:54.91	322.28	8.20	-57.4	-70.5	4.3	1.49e+00	0	46	104	1087373312	60	131744
2026-01-30 04:58:55.92	322.18	8.13	-57.1	-72.5	3.6	1.47e+00	0	46	104	1087373312	60	165989
2026-01-30 04:58:56.92	322.08	8.07	-57.2	-71.9	3.9	1.50e+00	0	46	104	1087373312	60	154314
2026-01-30 04:58:57.93	321.97	8.00	-57.2	-71.7	3.7	1.44e+00	0	46	104	1087373312	60	150926
2026-01-30 04:58:58.94	321.87	7.94	-57.2	-71.2	3.9	1.46e+00	0	46	104	1087373312	60	141581
2026-01-30 04:58:59.95	321.77	7.88	-57.3	-71.6	3.9	1.48e+00	0	46	104	1087373312	60	148655
2026-01-30 04:59:00.95	321.66	7.81	-57.4	-70.4	3.8	1.43e+00	0	46	0	1087373312	60	129537
2026-01-30 04:59:01.96	321.56	7.75	-57.4	-71.5	3.7	1.42e+00	0	46	104	1087373312	60	147858
2026-01-30 04:59:02.97	321.46	7.69	-57.3	-71.6	3.8	1.44e+00	0	46	104	1087373312	60	149498
2026-01-30 04:59:03.98	321.36	7.62	-57.2	-71.7	3.9	1.47e+00	0	46	104	1087373312	60	150374
2026-01-30 04:59:04.99	321.26	7.56	-57.1	-71.7	3.7	1.46e+00	0	46	104	1087373312	60	150496
2026-01-30 04:59:05.99	321.16	7.50	-57.7	-73.4	3.6	1.48e+00	0	46	104	1087373312	60	182294
2026-01-30 04:59:07.00	321.06	7.43	-57.8	-73.3	3.6	1.51e+00	0	46	104	1087373312	60	180729
2026-01-30 04:59:08.00	320.96	7.37	-57.2	-72.3	3.7	1.51e+00	0	46	104	1087373312	60	161217
2026-01-30 04:59:09.01	320.87	7.31	-57.3	-72.5	3.7	1.50e+00	0	46	104	1087373312	60	165735
