passes_logs/2026/01/30/R3.2S-Naryan-Mar/R3.2S-Naryan-Mar__20260130_091619_NOAA_21_JPSS-2_rec.log

#Pass ID: 20260130_091619_NOAA 21 (JPSS-2)
#Satellite: NOAA 21 (JPSS-2)
#Configuration: NOAA-21
#almurnet v.1.7.20240730
#Start time: 2026-01-30 09:17:33

#Version: 2.2.20231116
#Station: R3.2S-Naryan-Mar
#Location: 53.008057 lon 67.646978 lat
#TLE: 1 54234U 22150A   26029.46216196  .00000141  00000+0  87503-4 0  9994
#TLE: 2 54234  98.7512 330.1880 0000955 196.3413 163.7732 14.19540905166865

#Time	Az	El	Level	Level2	SNR	BER	BlckErr	Temp	State	Recorded	gain1	gain2
2026-01-30 09:17:33.68	179.04	4.67	-61.5	-74.5	3.4	8.46e-01	0	45	0	0	60	207850
2026-01-30 09:17:34.68	179.07	4.74	-61.8	-76.0	3.5	1.52e+00	0	45	104	0	60	239385
2026-01-30 09:17:35.68	179.11	4.81	-61.4	-75.9	3.5	1.52e+00	0	45	104	0	60	236290
2026-01-30 09:17:36.68	179.15	4.88	-61.1	-75.7	3.5	1.52e+00	0	45	104	0	60	231735
2026-01-30 09:17:37.69	179.19	4.95	-61.5	-75.9	3.5	1.51e+00	0	46	104	0	60	238097
2026-01-30 09:17:38.70	179.23	5.02	-61.9	-76.0	3.5	1.52e+00	0	46	104	0	60	240787
2026-01-30 09:17:39.71	179.27	5.09	-61.9	-75.9	3.5	1.52e+00	0	45	104	0	60	236676
2026-01-30 09:17:40.71	179.30	5.16	-61.8	-75.8	3.5	1.51e+00	0	45	104	0	60	233691
2026-01-30 09:17:41.72	179.34	5.23	-62.0	-75.9	3.5	1.52e+00	0	45	104	0	60	238136
2026-01-30 09:17:42.72	179.38	5.30	-61.8	-75.8	3.5	1.52e+00	0	46	104	0	60	234999
2026-01-30 09:17:43.73	179.42	5.37	-61.8	-75.8	3.5	1.52e+00	0	46	104	0	60	233910
2026-01-30 09:17:44.74	179.46	5.44	-61.7	-75.6	3.5	1.52e+00	0	46	104	0	60	230316
2026-01-30 09:17:45.74	179.50	5.51	-61.5	-75.4	3.4	1.52e+00	0	46	104	0	60	224545
2026-01-30 09:17:46.74	179.54	5.58	-61.5	-75.5	3.5	1.51e+00	0	45	104	0	60	226484
2026-01-30 09:17:47.75	179.58	5.65	-61.5	-75.5	3.5	1.52e+00	0	46	104	0	60	225497
2026-01-30 09:17:48.76	179.62	5.72	-61.6	-75.5	3.5	1.52e+00	0	46	104	0	60	227397
2026-01-30 09:17:49.77	179.66	5.80	-61.7	-75.6	3.5	1.52e+00	0	46	104	0	60	230054
2026-01-30 09:17:50.78	179.70	5.87	-61.8	-75.7	3.5	1.52e+00	0	46	104	0	60	232926
2026-01-30 09:17:51.78	179.74	5.94	-61.7	-75.6	3.5	1.52e+00	0	46	104	0	60	230270
2026-01-30 09:17:52.79	179.78	6.01	-61.6	-75.6	3.5	1.52e+00	0	46	104	0	60	230267
2026-01-30 09:17:53.80	179.83	6.08	-61.5	-75.4	3.5	1.52e+00	0	46	104	0	60	224638
2026-01-30 09:17:54.80	179.87	6.16	-61.6	-75.5	3.5	1.52e+00	0	46	104	0	60	227462
2026-01-30 09:17:55.81	179.91	6.23	-61.5	-75.5	3.5	1.52e+00	0	46	104	0	60	226464
2026-01-30 09:17:56.82	179.95	6.30	-61.1	-75.1	3.5	1.51e+00	0	46	104	0	60	216820
2026-01-30 09:17:57.83	179.99	6.38	-61.0	-75.1	3.5	1.52e+00	0	46	104	0	60	215186
2026-01-30 09:17:58.84	180.03	6.45	-60.9	-74.9	3.5	1.52e+00	0	46	104	0	60	210806
2026-01-30 09:17:59.85	180.08	6.52	-60.9	-74.9	3.5	1.52e+00	0	46	104	0	60	211706
2026-01-30 09:18:00.85	180.12	6.60	-60.8	-74.8	3.5	1.52e+00	0	46	104	0	60	208706
2026-01-30 09:18:01.85	180.16	6.67	-60.7	-74.7	3.5	1.52e+00	0	46	104	0	60	206826
2026-01-30 09:18:02.86	180.20	6.75	-60.5	-74.5	3.5	1.52e+00	0	46	104	0	60	201991
2026-01-30 09:18:03.87	180.25	6.82	-60.3	-74.3	3.5	1.52e+00	0	46	104	0	60	196931
2026-01-30 09:18:04.87	180.29	6.89	-60.4	-74.3	3.5	1.52e+00	0	46	104	0	60	197808
2026-01-30 09:18:05.88	180.33	6.97	-60.3	-74.2	3.5	1.52e+00	0	46	104	0	60	195994
2026-01-30 09:18:06.88	180.38	7.04	-60.0	-73.9	3.5	1.52e+00	0	46	104	0	60	189404
2026-01-30 09:18:07.89	180.42	7.12	-59.6	-73.6	3.5	1.52e+00	0	46	104	0	60	181097
2026-01-30 09:18:08.90	180.47	7.20	-59.4	-73.5	3.5	1.52e+00	0	46	104	0	60	179698
2026-01-30 09:18:09.91	180.51	7.27	-59.1	-72.8	3.5	1.52e+00	0	46	104	0	60	165957
2026-01-30 09:18:10.91	180.55	7.35	-59.0	-73.0	3.5	1.52e+00	0	46	104	0	60	169566
2026-01-30 09:18:11.92	180.60	7.42	-59.0	-72.6	3.5	1.52e+00	0	46	104	0	60	162435
2026-01-30 09:18:12.93	180.65	7.50	-58.9	-72.3	3.5	1.52e+00	0	46	104	0	60	156213
2026-01-30 09:18:13.94	180.69	7.58	-58.9	-72.0	3.5	1.52e+00	0	45	104	0	60	152017
2026-01-30 09:18:14.94	180.74	7.65	-58.9	-71.8	3.5	1.51e+00	0	46	104	0	60	148585
2026-01-30 09:18:15.94	180.78	7.73	-58.8	-71.3	3.5	1.51e+00	0	46	104	0	60	139619
2026-01-30 09:18:16.95	180.83	7.81	-58.7	-69.8	4.0	1.48e+00	0	46	104	0	60	117062
2026-01-30 09:18:17.96	180.87	7.88	-58.4	-67.5	5.2	7.02e-01	0	46	104	0	60	90082
2026-01-30 09:18:18.97	180.92	7.96	-57.9	-64.1	7.3	1.51e-01	0	46	0	2097152	60	61073
2026-01-30 09:18:19.97	180.97	8.04	-57.2	-62.1	9.7	2.90e-02	0	46	0	5242880	60	48301
2026-01-30 09:18:20.98	181.01	8.12	-56.3	-60.1	11.9	1.42e-03	0	46	0	8388608	60	38689
2026-01-30 09:18:21.98	181.06	8.20	-55.4	-58.5	13.7	2.59e-05	0	46	0	11534336	60	31911
2026-01-30 09:18:23.00	181.11	8.28	-54.4	-57.0	15.1	1.50e-06	0	46	0	14680064	60	27039
2026-01-30 09:18:24.00	181.15	8.35	-53.7	-56.0	16.1	0.00e+00	0	46	0	17825792	60	23915
2026-01-30 09:18:25.00	181.20	8.43	-53.1	-55.2	16.8	0.00e+00	0	46	0	20971520	60	21994
2026-01-30 09:18:26.01	181.25	8.51	-52.8	-54.8	17.1	0.00e+00	0	45	0	24117248	60	20951
2026-01-30 09:18:27.02	181.30	8.59	-52.7	-54.7	17.3	0.00e+00	0	46	0	27262976	60	20574
2026-01-30 09:18:28.03	181.35	8.67	-52.7	-54.7	17.2	0.00e+00	0	45	0	30408704	60	20740
2026-01-30 09:18:29.03	181.40	8.75	-53.1	-55.2	16.8	0.00e+00	0	45	0	33554432	60	21846
2026-01-30 09:18:30.04	181.44	8.83	-53.6	-55.9	16.0	0.00e+00	0	46	0	36700160	60	23743
2026-01-30 09:18:31.05	181.49	8.91	-54.3	-56.9	15.1	0.00e+00	0	46	0	39845888	60	26642
2026-01-30 09:18:32.05	181.54	8.99	-55.1	-58.1	13.8	7.00e-07	0	46	0	42991616	60	30665
2026-01-30 09:18:33.06	181.59	9.07	-53.1	-55.2	16.7	0.00e+00	0	46	0	46137344	60	21781
2026-01-30 09:18:34.07	181.64	9.16	-57.9	-65.1	5.0	9.85e-03	0	45	0	49283072	60	68546
2026-01-30 09:18:35.08	181.69	9.24	-52.5	-54.6	16.5	1.52e-05	0	46	104	49283072	60	20462
2026-01-30 09:18:36.09	181.74	9.32	-50.7	-52.2	19.6	0.00e+00	0	46	0	2097152	60	15502
2026-01-30 09:18:37.10	181.79	9.40	-56.7	-61.2	9.4	8.39e-05	0	46	0	6291456	60	43678
2026-01-30 09:18:38.10	181.85	9.48	-50.7	-52.2	19.6	0.00e+00	0	46	0	9437184	60	15446
2026-01-30 09:18:39.11	181.90	9.57	-50.6	-52.1	19.6	0.00e+00	0	46	0	12582912	60	15340
2026-01-30 09:18:40.12	181.95	9.65	-50.6	-52.2	19.6	0.00e+00	0	46	0	14680064	60	15437
2026-01-30 09:18:41.13	182.00	9.73	-50.7	-52.2	19.6	0.00e+00	0	46	0	17825792	60	15497
2026-01-30 09:18:42.14	182.05	9.82	-50.6	-52.1	19.6	0.00e+00	0	45	0	20971520	60	15372
2026-01-30 09:18:43.15	182.11	9.90	-50.6	-52.1	19.7	0.00e+00	0	46	0	24117248	60	15255
2026-01-30 09:18:44.15	182.16	9.98	-50.5	-52.0	19.7	0.00e+00	0	46	0	27262976	60	15181
2026-01-30 09:18:45.16	182.21	10.07	-50.4	-51.9	19.9	0.00e+00	0	46	0	30408704	60	14933
2026-01-30 09:18:46.16	182.26	10.15	-50.4	-51.8	19.8	0.00e+00	0	46	0	33554432	60	14852
2026-01-30 09:18:47.17	182.32	10.24	-50.4	-51.9	19.9	0.00e+00	0	46	0	36700160	60	14907
2026-01-30 09:18:48.18	182.37	10.32	-50.4	-51.8	19.9	0.00e+00	0	46	0	39845888	60	14847
2026-01-30 09:18:49.18	182.42	10.40	-50.4	-51.8	19.9	0.00e+00	0	45	0	42991616	60	14858
2026-01-30 09:18:50.19	182.48	10.49	-50.3	-51.8	20.0	0.00e+00	0	46	0	46137344	60	14729
2026-01-30 09:18:51.19	182.53	10.58	-50.5	-51.9	19.9	0.00e+00	0	45	0	49283072	60	14995
2026-01-30 09:18:52.20	182.59	10.66	-50.4	-51.9	19.9	0.00e+00	0	45	0	53477376	60	14941
2026-01-30 09:18:53.21	182.64	10.75	-50.4	-51.8	20.0	0.00e+00	0	45	0	56623104	60	14812
2026-01-30 09:18:54.22	182.70	10.84	-50.4	-51.8	20.0	0.00e+00	0	46	0	59768832	60	14818
2026-01-30 09:18:55.22	182.76	10.92	-50.2	-51.6	20.2	0.00e+00	0	46	0	61865984	60	14532
2026-01-30 09:18:56.23	182.81	11.01	-50.2	-51.6	20.2	0.00e+00	0	45	0	65011712	60	14527
2026-01-30 09:18:57.24	182.87	11.10	-50.2	-51.6	20.3	0.00e+00	0	46	0	68157440	60	14429
2026-01-30 09:18:58.25	182.93	11.18	-50.2	-51.6	20.3	0.00e+00	0	46	0	71303168	60	14425
2026-01-30 09:18:59.26	182.98	11.27	-50.2	-51.7	20.2	0.00e+00	0	46	0	74448896	60	14582
2026-01-30 09:19:00.26	183.04	11.36	-50.3	-51.8	20.1	0.00e+00	0	45	0	77594624	60	14745
2026-01-30 09:19:01.27	183.10	11.45	-50.3	-51.8	20.1	0.00e+00	0	46	0	80740352	60	14774
2026-01-30 09:19:02.27	183.16	11.54	-50.2	-51.6	20.2	0.00e+00	0	45	0	83886080	60	14480
2026-01-30 09:19:03.28	183.21	11.63	-50.2	-51.7	20.2	0.00e+00	0	45	0	87031808	60	14573
2026-01-30 09:19:04.28	183.27	11.72	-50.3	-51.7	20.2	0.00e+00	0	46	0	90177536	60	14629
2026-01-30 09:19:05.29	183.33	11.81	-50.2	-51.6	20.3	0.00e+00	0	45	0	93323264	60	14471
2026-01-30 09:19:06.29	183.39	11.89	-50.2	-51.6	20.3	0.00e+00	0	46	0	97517568	60	14530
2026-01-30 09:19:07.30	183.45	11.99	-50.2	-51.6	20.3	0.00e+00	0	46	0	100663296	60	14442
2026-01-30 09:19:08.30	183.51	12.08	-50.3	-51.7	20.3	0.00e+00	0	46	0	103809024	60	14622
2026-01-30 09:19:09.30	183.57	12.17	-50.3	-51.7	20.4	0.00e+00	0	46	0	106954752	60	14632
2026-01-30 09:19:10.30	183.63	12.26	-50.2	-51.6	20.4	0.00e+00	0	46	0	109051904	60	14440
2026-01-30 09:19:11.31	183.69	12.35	-50.3	-51.7	20.4	0.00e+00	0	46	0	112197632	60	14579
2026-01-30 09:19:12.31	183.75	12.44	-50.1	-51.5	20.5	0.00e+00	0	45	0	115343360	60	14328
2026-01-30 09:19:13.32	183.82	12.53	-50.2	-51.6	20.5	0.00e+00	0	45	0	118489088	60	14416
2026-01-30 09:19:14.33	183.88	12.62	-50.2	-51.6	20.4	0.00e+00	0	45	0	121634816	60	14465
2026-01-30 09:19:15.34	183.94	12.72	-50.1	-51.5	20.5	0.00e+00	0	46	0	124780544	60	14259
2026-01-30 09:19:16.34	184.00	12.81	-50.2	-51.6	20.5	0.00e+00	0	45	0	127926272	60	14414
2026-01-30 09:19:17.35	184.07	12.90	-50.1	-51.5	20.5	0.00e+00	0	46	0	131072000	60	14297
2026-01-30 09:19:18.36	184.13	13.00	-50.0	-51.4	20.6	0.00e+00	0	46	0	134217728	60	14102
2026-01-30 09:19:19.37	184.19	13.09	-50.0	-51.3	20.7	0.00e+00	0	45	0	137363456	60	14035
2026-01-30 09:19:20.38	184.26	13.19	-50.0	-51.4	20.7	0.00e+00	0	45	0	140509184	60	14126
2026-01-30 09:19:21.38	184.32	13.28	-50.0	-51.4	20.7	0.00e+00	0	46	0	143654912	60	14076
2026-01-30 09:19:22.39	184.39	13.38	-49.9	-51.2	20.8	0.00e+00	0	46	0	146800640	60	13858
2026-01-30 09:19:23.39	184.45	13.47	-49.9	-51.3	20.8	0.00e+00	0	45	0	149946368	60	13957
2026-01-30 09:19:24.39	184.52	13.57	-50.0	-51.4	20.7	0.00e+00	0	45	0	154140672	60	14070
2026-01-30 09:19:25.39	184.59	13.66	-49.9	-51.3	20.8	0.00e+00	0	46	0	156237824	60	13977
2026-01-30 09:19:26.40	184.65	13.76	-50.0	-51.4	20.7	0.00e+00	0	46	0	159383552	60	14113
2026-01-30 09:19:27.40	184.72	13.86	-50.1	-51.4	20.8	0.00e+00	0	46	0	162529280	60	14165
2026-01-30 09:19:28.41	184.79	13.95	-50.1	-51.4	20.7	0.00e+00	0	46	0	165675008	60	14137
2026-01-30 09:19:29.41	184.86	14.05	-50.2	-51.6	20.6	0.00e+00	0	46	0	168820736	60	14424
2026-01-30 09:19:30.42	184.92	14.15	-50.1	-51.4	20.8	0.00e+00	0	46	0	171966464	60	14150
2026-01-30 09:19:31.43	184.99	14.25	-50.1	-51.4	20.7	0.00e+00	0	45	0	175112192	60	14188
2026-01-30 09:19:32.44	185.06	14.35	-50.1	-51.5	20.7	0.00e+00	0	46	0	178257920	60	14225
2026-01-30 09:19:33.44	185.13	14.44	-50.1	-51.5	20.7	0.00e+00	0	45	0	181403648	60	14223
2026-01-30 09:19:34.45	185.20	14.54	-50.3	-51.6	20.6	0.00e+00	0	46	0	184549376	60	14537
2026-01-30 09:19:35.46	185.27	14.64	-50.2	-51.5	20.7	0.00e+00	0	45	0	187695104	60	14336
2026-01-30 09:19:36.46	185.35	14.74	-50.2	-51.6	20.7	0.00e+00	0	45	0	190840832	60	14439
2026-01-30 09:19:37.47	185.42	14.85	-50.3	-51.6	20.6	0.00e+00	0	45	0	193986560	60	14488
2026-01-30 09:19:38.48	185.49	14.95	-50.2	-51.6	20.7	0.00e+00	0	45	0	197132288	60	14396
2026-01-30 09:19:39.49	185.56	15.05	-50.3	-51.7	20.5	0.00e+00	0	45	0	200278016	60	14557
2026-01-30 09:19:40.50	185.64	15.15	-50.2	-51.6	20.6	0.00e+00	0	46	0	203423744	60	14439
2026-01-30 09:19:41.50	185.71	15.25	-50.2	-51.6	20.7	0.00e+00	0	46	0	206569472	60	14400
2026-01-30 09:19:42.52	185.78	15.36	-50.3	-51.6	20.6	0.00e+00	0	45	0	209715200	60	14509
2026-01-30 09:19:43.52	185.86	15.46	-50.3	-51.6	20.7	0.00e+00	0	45	0	212860928	60	14540
2026-01-30 09:19:44.53	185.93	15.56	-50.2	-51.5	20.7	0.00e+00	0	46	0	216006656	60	14373
2026-01-30 09:19:45.54	186.01	15.67	-50.2	-51.5	20.7	0.00e+00	0	46	0	219152384	60	14336
2026-01-30 09:19:46.55	186.08	15.77	-50.2	-51.6	20.7	0.00e+00	0	46	0	222298112	60	14436
2026-01-30 09:19:47.56	186.16	15.87	-50.3	-51.7	20.6	0.00e+00	0	46	0	225443840	60	14644
2026-01-30 09:19:48.57	186.24	15.98	-50.3	-51.6	20.6	0.00e+00	0	46	0	228589568	60	14545
2026-01-30 09:19:49.57	186.32	16.08	-50.4	-51.8	20.5	0.00e+00	0	45	0	231735296	60	14742
2026-01-30 09:19:50.58	186.39	16.19	-50.4	-51.7	20.6	0.00e+00	0	45	0	234881024	60	14698
2026-01-30 09:19:51.59	186.47	16.30	-50.3	-51.7	20.6	0.00e+00	0	46	0	238026752	60	14650
2026-01-30 09:19:52.60	186.55	16.40	-50.5	-51.9	20.5	0.00e+00	0	45	0	242221056	60	14916
2026-01-30 09:19:53.60	186.63	16.51	-50.4	-51.7	20.6	0.00e+00	0	46	0	245366784	60	14709
2026-01-30 09:19:54.61	186.71	16.62	-50.5	-51.8	20.6	0.00e+00	0	46	0	248512512	60	14877
2026-01-30 09:19:55.62	186.79	16.73	-50.5	-51.9	20.6	0.00e+00	0	46	0	250609664	60	14941
2026-01-30 09:19:56.63	186.87	16.83	-50.5	-51.9	20.5	0.00e+00	0	46	0	253755392	60	15016
2026-01-30 09:19:57.63	186.95	16.94	-50.5	-51.9	20.5	0.00e+00	0	45	0	256901120	60	14957
2026-01-30 09:19:58.64	187.04	17.05	-50.5	-51.9	20.6	0.00e+00	0	46	0	260046848	60	14932
2026-01-30 09:19:59.65	187.12	17.16	-50.5	-51.9	20.6	0.00e+00	0	46	0	263192576	60	14889
2026-01-30 09:20:00.66	187.20	17.27	-50.5	-51.9	20.5	0.00e+00	0	45	0	266338304	60	14958
2026-01-30 09:20:01.66	187.29	17.38	-50.6	-51.9	20.5	0.00e+00	0	46	0	269484032	60	15043
2026-01-30 09:20:02.67	187.37	17.49	-50.6	-52.0	20.5	0.00e+00	0	46	0	272629760	60	15084
2026-01-30 09:20:03.67	187.46	17.60	-50.6	-52.0	20.5	0.00e+00	0	45	0	275775488	60	15069
2026-01-30 09:20:04.68	187.54	17.71	-50.5	-51.9	20.6	0.00e+00	0	45	0	278921216	60	14942
2026-01-30 09:20:05.69	187.63	17.83	-50.5	-51.9	20.6	0.00e+00	0	45	0	282066944	60	14985
2026-01-30 09:20:06.70	187.72	17.94	-50.5	-51.9	20.7	0.00e+00	0	45	0	286261248	60	14925
2026-01-30 09:20:07.70	187.80	18.05	-50.4	-51.7	20.8	0.00e+00	0	46	0	289406976	60	14674
2026-01-30 09:20:08.71	187.89	18.17	-50.5	-51.9	20.7	0.00e+00	0	45	0	292552704	60	14889
2026-01-30 09:20:09.72	187.98	18.28	-50.5	-51.8	20.7	0.00e+00	0	45	0	295698432	60	14845
2026-01-30 09:20:10.73	188.07	18.40	-50.6	-52.0	20.7	0.00e+00	0	45	0	297795584	60	15110
2026-01-30 09:20:11.74	188.16	18.51	-50.7	-52.1	20.6	0.00e+00	0	46	0	300941312	60	15304
2026-01-30 09:20:12.75	188.25	18.63	-50.6	-52.0	20.8	0.00e+00	0	45	0	304087040	60	15079
2026-01-30 09:20:13.75	188.34	18.74	-50.6	-52.0	20.7	0.00e+00	0	46	0	307232768	60	15126
2026-01-30 09:20:14.76	188.44	18.86	-50.6	-51.9	20.9	0.00e+00	0	46	0	310378496	60	14999
2026-01-30 09:20:15.77	188.53	18.98	-50.4	-51.7	21.0	0.00e+00	0	45	0	313524224	60	14627
2026-01-30 09:20:16.78	188.62	19.09	-50.4	-51.7	21.0	0.00e+00	0	45	0	316669952	60	14554
2026-01-30 09:20:17.78	188.72	19.21	-50.4	-51.7	21.0	0.00e+00	0	45	0	319815680	60	14674
2026-01-30 09:20:18.79	188.81	19.33	-50.4	-51.7	21.0	0.00e+00	0	45	0	322961408	60	14654
2026-01-30 09:20:19.80	188.91	19.45	-50.4	-51.8	21.0	0.00e+00	0	45	0	327155712	60	14723
2026-01-30 09:20:20.81	189.01	19.57	-50.3	-51.5	21.1	0.00e+00	0	46	0	330301440	60	14376
2026-01-30 09:20:21.81	189.10	19.69	-50.3	-51.5	21.2	0.00e+00	0	46	0	333447168	60	14355
2026-01-30 09:20:22.82	189.20	19.81	-50.3	-51.6	21.2	0.00e+00	0	45	0	336592896	60	14391
2026-01-30 09:20:23.82	189.30	19.93	-50.3	-51.6	21.1	0.00e+00	0	45	0	339738624	60	14480
2026-01-30 09:20:24.82	189.40	20.05	-50.3	-51.5	21.2	0.00e+00	0	46	0	342884352	60	14351
2026-01-30 09:20:25.83	189.50	20.17	-50.3	-51.5	21.3	0.00e+00	0	45	0	346030080	60	14363
2026-01-30 09:20:26.84	189.60	20.29	-50.3	-51.6	21.3	0.00e+00	0	45	0	348127232	60	14387
2026-01-30 09:20:27.84	189.70	20.41	-50.3	-51.6	21.3	0.00e+00	0	45	0	351272960	60	14453
2026-01-30 09:20:28.85	189.80	20.54	-50.4	-51.7	21.3	0.00e+00	0	45	0	354418688	60	14581
2026-01-30 09:20:29.86	189.91	20.66	-50.4	-51.6	21.3	0.00e+00	0	45	0	357564416	60	14527
2026-01-30 09:20:30.86	190.01	20.79	-50.3	-51.6	21.3	0.00e+00	0	45	0	360710144	60	14464
2026-01-30 09:20:31.86	190.11	20.91	-50.3	-51.5	21.4	0.00e+00	0	45	0	363855872	60	14379
2026-01-30 09:20:32.87	190.22	21.04	-50.3	-51.6	21.4	0.00e+00	0	45	0	367001600	60	14426
2026-01-30 09:20:33.88	190.33	21.16	-50.4	-51.6	21.3	0.00e+00	0	46	0	370147328	60	14514
2026-01-30 09:20:34.88	190.43	21.29	-50.3	-51.5	21.5	0.00e+00	0	45	0	373293056	60	14362
2026-01-30 09:20:35.90	190.54	21.42	-50.3	-51.5	21.5	0.00e+00	0	45	0	377487360	60	14368
2026-01-30 09:20:36.90	190.65	21.54	-50.2	-51.5	21.5	0.00e+00	0	45	0	380633088	60	14265
2026-01-30 09:20:37.91	190.76	21.67	-50.1	-51.4	21.6	0.00e+00	0	46	0	383778816	60	14116
2026-01-30 09:20:38.92	190.87	21.80	-50.2	-51.5	21.5	0.00e+00	0	45	0	386924544	60	14252
2026-01-30 09:20:39.93	190.98	21.93	-50.1	-51.3	21.6	0.00e+00	0	45	0	390070272	60	14040
2026-01-30 09:20:40.94	191.10	22.06	-50.1	-51.3	21.7	0.00e+00	0	45	0	393216000	60	13995
2026-01-30 09:20:41.95	191.21	22.19	-50.1	-51.4	21.7	0.00e+00	0	45	0	395313152	60	14107
2026-01-30 09:20:42.95	191.32	22.32	-50.2	-51.5	21.7	0.00e+00	0	45	0	398458880	60	14283
2026-01-30 09:20:43.96	191.44	22.45	-50.1	-51.4	21.8	0.00e+00	0	46	0	401604608	60	14062
2026-01-30 09:20:44.97	191.55	22.59	-50.1	-51.3	21.9	0.00e+00	0	45	0	404750336	60	13937
2026-01-30 09:20:45.97	191.67	22.72	-50.2	-51.4	21.7	0.00e+00	0	45	0	407896064	60	14149
2026-01-30 09:20:46.97	191.79	22.85	-50.2	-51.4	21.8	0.00e+00	0	45	0	411041792	60	14139
2026-01-30 09:20:47.98	191.91	22.98	-50.2	-51.4	21.8	0.00e+00	0	45	0	414187520	60	14184
2026-01-30 09:20:48.98	192.03	23.12	-50.0	-51.2	21.9	0.00e+00	0	45	0	417333248	60	13785
2026-01-30 09:20:49.99	192.15	23.25	-50.1	-51.3	21.9	0.00e+00	0	45	0	420478976	60	13979
2026-01-30 09:20:50.99	192.27	23.39	-50.0	-51.3	21.9	0.00e+00	0	45	0	423624704	60	13911
2026-01-30 09:20:51.99	192.39	23.52	-49.8	-51.0	22.0	0.00e+00	0	45	0	426770432	60	13506
2026-01-30 09:20:52.99	192.52	23.66	-49.8	-51.0	22.0	0.00e+00	0	45	0	430964736	60	13457
2026-01-30 09:20:54.00	192.64	23.79	-49.9	-51.1	22.1	0.00e+00	0	45	0	434110464	60	13596
2026-01-30 09:20:55.00	192.77	23.93	-49.8	-51.0	22.1	0.00e+00	0	45	0	437256192	60	13493
2026-01-30 09:20:56.01	192.89	24.07	-49.8	-51.0	22.1	0.00e+00	0	46	0	440401920	60	13571
2026-01-30 09:20:57.02	193.02	24.21	-49.9	-51.2	22.0	0.00e+00	0	46	0	442499072	60	13741
2026-01-30 09:20:58.02	193.15	24.35	-50.0	-51.2	22.0	0.00e+00	0	45	0	445644800	60	13775
2026-01-30 09:20:59.03	193.28	24.49	-49.9	-51.1	22.2	0.00e+00	0	45	0	448790528	60	13660
2026-01-30 09:21:00.03	193.41	24.63	-50.1	-51.3	22.0	0.00e+00	0	46	0	451936256	60	13907
2026-01-30 09:21:01.04	193.55	24.77	-50.0	-51.2	22.0	0.00e+00	0	45	0	455081984	60	13890
2026-01-30 09:21:02.05	193.68	24.91	-50.0	-51.2	22.1	0.00e+00	0	45	0	458227712	60	13777
2026-01-30 09:21:03.05	193.82	25.05	-50.0	-51.2	22.0	0.00e+00	0	45	0	461373440	60	13822
2026-01-30 09:21:04.05	193.95	25.20	-49.9	-51.1	22.1	0.00e+00	0	46	0	464519168	60	13669
2026-01-30 09:21:05.06	194.09	25.34	-49.9	-51.0	22.1	0.00e+00	0	46	0	467664896	60	13571
2026-01-30 09:21:06.07	194.23	25.49	-49.9	-51.1	22.1	0.00e+00	0	45	0	470810624	60	13669
2026-01-30 09:21:07.08	194.37	25.63	-50.0	-51.2	22.0	0.00e+00	0	46	0	473956352	60	13801
2026-01-30 09:21:08.08	194.51	25.78	-50.0	-51.3	22.0	0.00e+00	0	46	0	477102080	60	13942
2026-01-30 09:21:09.09	194.65	25.92	-50.0	-51.2	22.0	0.00e+00	0	46	0	480247808	60	13832
2026-01-30 09:21:10.10	194.80	26.07	-50.0	-51.2	22.0	0.00e+00	0	45	0	484442112	60	13875
2026-01-30 09:21:11.11	194.94	26.22	-50.1	-51.3	22.0	0.00e+00	0	46	0	487587840	60	14050
2026-01-30 09:21:12.12	195.09	26.37	-50.1	-51.3	21.9	0.00e+00	0	46	0	489684992	60	14009
2026-01-30 09:21:13.12	195.24	26.51	-50.3	-51.5	21.7	0.00e+00	0	46	0	492830720	60	14321
2026-01-30 09:21:14.13	195.38	26.66	-50.3	-51.6	21.6	0.00e+00	0	45	0	495976448	60	14400
2026-01-30 09:21:15.14	195.54	26.81	-50.4	-51.6	21.5	0.00e+00	0	46	0	499122176	60	14534
2026-01-30 09:21:16.14	195.69	26.96	-50.4	-51.7	21.5	0.00e+00	0	46	0	502267904	60	14561
2026-01-30 09:21:17.15	195.84	27.12	-50.5	-51.7	21.4	0.00e+00	0	45	0	505413632	60	14705
2026-01-30 09:21:18.15	195.99	27.27	-50.5	-51.7	21.4	0.00e+00	0	45	0	508559360	60	14708
2026-01-30 09:21:19.16	196.15	27.42	-50.5	-51.8	21.4	0.00e+00	0	45	0	511705088	60	14784
2026-01-30 09:21:20.17	196.31	27.57	-50.5	-51.7	21.4	0.00e+00	0	46	0	514850816	60	14695
2026-01-30 09:21:21.17	196.47	27.73	-50.5	-51.8	21.4	0.00e+00	0	45	0	517996544	60	14779
2026-01-30 09:21:22.17	196.63	27.88	-50.6	-51.9	21.3	0.00e+00	0	45	0	521142272	60	14925
2026-01-30 09:21:23.18	196.79	28.04	-50.8	-52.1	21.2	0.00e+00	0	45	0	524288000	60	15303
2026-01-30 09:21:24.18	196.95	28.19	-50.8	-52.2	21.1	0.00e+00	0	45	0	527433728	60	15411
2026-01-30 09:21:25.18	197.12	28.34	-50.9	-52.2	21.0	0.00e+00	0	45	0	530579456	60	15550
2026-01-30 09:21:26.19	197.28	28.50	-51.0	-52.4	20.9	0.00e+00	0	45	0	533725184	60	15790
2026-01-30 09:21:27.20	197.45	28.66	-51.0	-52.3	21.0	0.00e+00	0	46	0	536870912	60	15678
2026-01-30 09:21:28.20	197.62	28.82	-51.0	-52.3	20.9	0.00e+00	0	45	0	540016640	60	15747
2026-01-30 09:21:29.21	197.79	28.98	-51.2	-52.5	20.9	0.00e+00	0	45	0	543162368	60	16034
2026-01-30 09:21:30.21	197.96	29.14	-51.1	-52.4	20.9	0.00e+00	0	45	0	546308096	60	15938
2026-01-30 09:21:31.22	198.14	29.30	-51.1	-52.5	20.9	0.00e+00	0	45	0	549453824	60	16006
2026-01-30 09:21:32.22	198.31	29.46	-51.1	-52.4	20.9	0.00e+00	0	46	0	552599552	60	15945
2026-01-30 09:21:33.23	198.49	29.62	-51.1	-52.5	20.9	0.00e+00	0	45	0	555745280	60	15967
2026-01-30 09:21:34.23	198.67	29.78	-51.3	-52.6	20.7	0.00e+00	0	45	0	558891008	60	16229
2026-01-30 09:21:35.24	198.85	29.94	-51.3	-52.7	20.7	0.00e+00	0	45	0	562036736	60	16342
2026-01-30 09:21:36.24	199.04	30.10	-51.3	-52.7	20.7	0.00e+00	0	46	0	565182464	60	16396
2026-01-30 09:21:37.25	199.22	30.27	-51.3	-52.7	20.5	0.00e+00	0	45	0	568328192	60	16397
2026-01-30 09:21:38.26	199.41	30.43	-51.3	-52.7	20.6	0.00e+00	0	46	0	571473920	60	16422
2026-01-30 09:21:39.27	199.60	30.60	-51.2	-52.5	20.9	0.00e+00	0	46	0	574619648	60	16066
2026-01-30 09:21:40.27	199.79	30.76	-51.1	-52.4	21.0	0.00e+00	0	45	0	577765376	60	15840
2026-01-30 09:21:41.28	199.98	30.93	-51.0	-52.3	21.1	0.00e+00	0	45	0	580911104	60	15742
2026-01-30 09:21:42.29	200.18	31.10	-51.0	-52.3	21.0	0.00e+00	0	45	0	584056832	60	15724
2026-01-30 09:21:43.29	200.38	31.26	-51.0	-52.3	21.2	0.00e+00	0	46	0	587202560	60	15688
2026-01-30 09:21:44.30	200.57	31.43	-51.0	-52.3	21.2	0.00e+00	0	45	0	590348288	60	15622
2026-01-30 09:21:45.31	200.78	31.60	-50.9	-52.1	21.3	0.00e+00	0	45	0	593494016	60	15380
2026-01-30 09:21:46.32	200.98	31.77	-50.8	-52.1	21.3	0.00e+00	0	45	0	596639744	60	15309
2026-01-30 09:21:47.32	201.18	31.94	-50.7	-52.0	21.5	0.00e+00	0	46	0	599785472	60	15120
2026-01-30 09:21:48.33	201.39	32.11	-50.7	-52.0	21.5	0.00e+00	0	45	0	602931200	60	15078
2026-01-30 09:21:49.33	201.60	32.28	-50.9	-52.1	21.4	0.00e+00	0	45	0	606076928	60	15389
2026-01-30 09:21:50.34	201.81	32.45	-50.8	-52.1	21.5	0.00e+00	0	45	0	609222656	60	15309
2026-01-30 09:21:51.34	202.02	32.62	-50.9	-52.1	21.4	0.00e+00	0	45	0	612368384	60	15381
2026-01-30 09:21:52.35	202.24	32.80	-50.9	-52.2	21.4	0.00e+00	0	45	0	615514112	60	15489
2026-01-30 09:21:53.35	202.46	32.97	-51.1	-52.3	21.3	0.00e+00	0	45	0	618659840	60	15767
2026-01-30 09:21:54.36	202.68	33.14	-51.1	-52.4	21.2	0.00e+00	0	45	0	621805568	60	15917
2026-01-30 09:21:55.37	202.90	33.32	-51.3	-52.6	21.0	0.00e+00	0	45	0	624951296	60	16263
2026-01-30 09:21:56.37	203.12	33.49	-51.2	-52.5	21.0	0.00e+00	0	45	0	628097024	60	16074
2026-01-30 09:21:57.38	203.35	33.67	-51.4	-52.7	20.9	0.00e+00	0	45	0	631242752	60	16486
2026-01-30 09:21:58.38	203.58	33.84	-51.4	-52.8	20.8	0.00e+00	0	45	0	634388480	60	16547
2026-01-30 09:21:59.39	203.81	34.02	-51.5	-52.9	20.8	0.00e+00	0	45	0	637534208	60	16790
2026-01-30 09:22:00.40	204.05	34.19	-51.6	-52.9	20.8	0.00e+00	0	45	0	640679936	60	16852
2026-01-30 09:22:01.41	204.29	34.37	-51.7	-53.0	20.6	0.00e+00	0	45	0	643825664	60	17061
2026-01-30 09:22:02.41	204.52	34.55	-51.6	-53.0	20.7	0.00e+00	0	46	0	646971392	60	16932
2026-01-30 09:22:03.42	204.77	34.73	-51.7	-53.1	20.5	0.00e+00	0	45	0	650117120	60	17235
2026-01-30 09:22:04.43	205.01	34.91	-51.9	-53.4	20.2	0.00e+00	0	46	0	653262848	60	17776
2026-01-30 09:22:05.43	205.26	35.09	-51.9	-53.3	20.4	0.00e+00	0	46	0	656408576	60	17535
2026-01-30 09:22:06.44	205.51	35.27	-51.8	-53.1	20.5	0.00e+00	0	45	0	659554304	60	17219
2026-01-30 09:22:07.45	205.76	35.45	-51.8	-53.2	20.5	0.00e+00	0	46	0	662700032	60	17418
2026-01-30 09:22:08.45	206.02	35.62	-52.0	-53.4	20.3	0.00e+00	0	45	0	665845760	60	17717
2026-01-30 09:22:09.46	206.28	35.81	-52.1	-53.5	20.2	0.00e+00	0	45	0	668991488	60	17972
2026-01-30 09:22:10.46	206.54	35.99	-52.0	-53.5	20.1	0.00e+00	0	46	0	672137216	60	17914
2026-01-30 09:22:11.47	206.80	36.17	-51.9	-53.3	20.2	0.00e+00	0	46	0	675282944	60	17688
2026-01-30 09:22:12.48	207.07	36.35	-52.0	-53.4	20.2	0.00e+00	0	46	0	678428672	60	17746
2026-01-30 09:22:13.48	207.34	36.53	-52.0	-53.4	20.2	0.00e+00	0	45	0	681574400	60	17761
2026-01-30 09:22:14.49	207.61	36.71	-51.7	-53.1	20.4	0.00e+00	0	45	0	684720128	60	17185
2026-01-30 09:22:15.49	207.89	36.90	-51.8	-53.1	20.3	0.00e+00	0	46	0	687865856	60	17259
2026-01-30 09:22:16.50	208.17	37.08	-51.9	-53.3	20.2	0.00e+00	0	45	0	691011584	60	17649
2026-01-30 09:22:17.51	208.45	37.26	-52.0	-53.4	20.0	0.00e+00	0	45	0	694157312	60	17837
2026-01-30 09:22:18.52	208.74	37.45	-52.1	-53.6	19.8	0.00e+00	0	46	0	697303040	60	18116
2026-01-30 09:22:19.52	209.02	37.63	-52.0	-53.5	19.9	0.00e+00	0	46	0	700448768	60	17998
2026-01-30 09:22:20.53	209.32	37.82	-51.9	-53.4	20.0	0.00e+00	0	46	0	703594496	60	17737
2026-01-30 09:22:21.53	209.61	38.00	-52.0	-53.4	20.1	0.00e+00	0	45	0	706740224	60	17834
2026-01-30 09:22:22.53	209.90	38.18	-52.0	-53.4	20.0	0.00e+00	0	45	0	709885952	60	17809
2026-01-30 09:22:23.53	210.20	38.36	-52.1	-53.5	19.9	0.00e+00	0	46	0	713031680	60	18054
2026-01-30 09:22:24.54	210.51	38.55	-52.2	-53.6	19.8	0.00e+00	0	45	0	716177408	60	18297
2026-01-30 09:22:25.55	210.82	38.74	-52.3	-53.8	19.7	0.00e+00	0	45	0	719323136	60	18532
2026-01-30 09:22:26.55	211.13	38.92	-52.5	-54.0	19.6	0.00e+00	0	46	0	722468864	60	19018
2026-01-30 09:22:27.56	211.44	39.10	-52.2	-53.7	19.7	0.00e+00	0	45	0	725614592	60	18474
2026-01-30 09:22:28.56	211.76	39.29	-52.3	-53.8	19.7	0.00e+00	0	45	0	728760320	60	18643
2026-01-30 09:22:29.56	212.08	39.47	-52.4	-53.9	19.5	0.00e+00	0	45	0	731906048	60	18830
2026-01-30 09:22:30.57	212.41	39.66	-52.3	-53.8	19.7	0.00e+00	0	45	0	735051776	60	18550
2026-01-30 09:22:31.58	212.74	39.84	-52.3	-53.8	19.8	0.00e+00	0	45	0	738197504	60	18686
2026-01-30 09:22:32.58	213.07	40.03	-52.3	-53.8	19.8	0.00e+00	0	45	0	741343232	60	18597
2026-01-30 09:22:33.59	213.41	40.21	-52.5	-54.0	19.6	0.00e+00	0	45	0	744488960	60	19029
2026-01-30 09:22:34.59	213.75	40.39	-52.7	-54.2	19.4	0.00e+00	0	45	0	747634688	60	19448
2026-01-30 09:22:35.60	214.09	40.58	-52.5	-54.0	19.4	0.00e+00	0	45	0	750780416	60	19147
2026-01-30 09:22:36.61	214.44	40.76	-52.5	-54.0	19.5	0.00e+00	0	46	0	753926144	60	19157
2026-01-30 09:22:37.61	214.79	40.95	-52.5	-54.0	19.6	0.00e+00	0	45	0	757071872	60	19173
2026-01-30 09:22:38.62	215.15	41.13	-52.6	-54.1	19.6	0.00e+00	0	46	0	760217600	60	19257
2026-01-30 09:22:39.62	215.51	41.31	-52.7	-54.2	19.5	0.00e+00	0	46	0	763363328	60	19559
2026-01-30 09:22:40.63	215.87	41.50	-52.9	-54.4	19.3	0.00e+00	0	46	0	766509056	60	20007
2026-01-30 09:22:41.64	216.24	41.68	-53.1	-54.7	19.0	0.00e+00	0	46	0	769654784	60	20553
2026-01-30 09:22:42.65	216.62	41.86	-53.3	-55.0	18.7	0.00e+00	0	46	0	772800512	60	21333
2026-01-30 09:22:43.66	217.00	42.05	-53.3	-55.0	18.6	0.00e+00	0	46	0	775946240	60	21459
2026-01-30 09:22:44.66	217.37	42.23	-53.4	-55.1	18.6	0.00e+00	0	45	0	779091968	60	21709
2026-01-30 09:22:45.67	217.76	42.41	-53.6	-55.3	18.2	0.00e+00	0	46	0	782237696	60	22176
2026-01-30 09:22:46.68	218.15	42.59	-53.6	-55.4	18.3	0.00e+00	0	46	0	785383424	60	22288
2026-01-30 09:22:47.69	218.55	42.77	-53.7	-55.5	18.1	0.00e+00	0	45	0	788529152	60	22533
2026-01-30 09:22:48.69	218.94	42.95	-53.8	-55.6	18.0	0.00e+00	0	46	0	791674880	60	22851
2026-01-30 09:22:49.70	219.35	43.13	-53.6	-55.4	18.2	0.00e+00	0	45	0	794820608	60	22295
2026-01-30 09:22:50.71	219.76	43.30	-53.8	-55.6	18.1	0.00e+00	0	46	0	797966336	60	22867
2026-01-30 09:22:51.71	220.16	43.48	-53.5	-55.3	18.3	0.00e+00	0	46	0	801112064	60	22127
2026-01-30 09:22:52.72	220.58	43.66	-53.5	-55.2	18.4	0.00e+00	0	46	0	804257792	60	21945
2026-01-30 09:22:53.73	221.00	43.83	-53.2	-54.9	18.5	0.00e+00	0	46	0	807403520	60	21057
2026-01-30 09:22:54.73	221.43	44.01	-53.2	-54.8	18.6	0.00e+00	0	46	0	810549248	60	21012
2026-01-30 09:22:55.74	221.86	44.18	-53.2	-54.9	18.7	0.00e+00	0	46	0	813694976	60	21081
2026-01-30 09:22:56.74	222.29	44.35	-53.0	-54.6	18.9	0.00e+00	0	46	0	816840704	60	20432
2026-01-30 09:22:57.75	222.73	44.52	-52.8	-54.4	19.0	0.00e+00	0	46	0	819986432	60	20033
2026-01-30 09:22:58.76	223.18	44.69	-53.0	-54.6	18.9	0.00e+00	0	45	0	823132160	60	20431
2026-01-30 09:22:59.77	223.63	44.86	-53.1	-54.8	18.6	0.00e+00	0	46	0	826277888	60	20999
2026-01-30 09:23:00.75	224.07	45.03	-53.3	-55.0	18.4	0.00e+00	0	46	0	829423616	60	21400
2026-01-30 09:23:01.75	224.52	45.19	-53.5	-55.3	18.2	0.00e+00	0	46	0	832569344	60	22072
2026-01-30 09:23:02.75	224.98	45.36	-53.1	-54.9	18.5	0.00e+00	0	45	0	835715072	60	21075
2026-01-30 09:23:03.76	225.45	45.52	-52.8	-54.4	18.9	0.00e+00	0	45	0	838860800	60	20056
2026-01-30 09:23:04.77	225.92	45.68	-52.8	-54.4	19.0	0.00e+00	0	45	0	842006528	60	20000
2026-01-30 09:23:05.77	226.40	45.84	-52.9	-54.5	18.8	0.00e+00	0	46	0	845152256	60	20267
2026-01-30 09:23:06.77	226.88	46.00	-52.9	-54.6	18.8	0.00e+00	0	46	0	848297984	60	20371
2026-01-30 09:23:07.78	227.36	46.16	-52.9	-54.5	18.9	0.00e+00	0	46	0	851443712	60	20243
2026-01-30 09:23:08.79	227.86	46.32	-52.9	-54.5	18.7	0.00e+00	0	46	0	854589440	60	20263
2026-01-30 09:23:09.80	228.35	46.47	-52.7	-54.3	19.0	0.00e+00	0	46	0	857735168	60	19751
2026-01-30 09:23:10.81	228.86	46.63	-52.6	-54.3	18.9	0.00e+00	0	46	0	860880896	60	19645
2026-01-30 09:23:11.81	229.36	46.78	-52.6	-54.2	19.0	0.00e+00	0	46	0	864026624	60	19477
2026-01-30 09:23:12.82	229.87	46.93	-52.5	-54.1	19.2	0.00e+00	0	45	0	867172352	60	19324
2026-01-30 09:23:13.83	230.39	47.07	-52.4	-54.0	19.2	0.00e+00	0	46	0	870318080	60	18997
2026-01-30 09:23:14.84	230.91	47.22	-52.6	-54.1	19.3	0.00e+00	0	45	0	873463808	60	19378
2026-01-30 09:23:15.85	231.44	47.36	-52.7	-54.2	19.1	0.00e+00	0	45	0	876609536	60	19592
2026-01-30 09:23:16.85	231.96	47.50	-52.8	-54.4	18.8	0.00e+00	0	45	0	879755264	60	19873
2026-01-30 09:23:17.86	232.50	47.64	-52.9	-54.6	18.6	0.00e+00	0	45	0	882900992	60	20376
2026-01-30 09:23:18.87	233.04	47.78	-53.0	-54.6	18.7	0.00e+00	0	45	0	886046720	60	20406
2026-01-30 09:23:19.88	233.59	47.91	-52.6	-54.2	19.3	0.00e+00	0	45	0	889192448	60	19447
2026-01-30 09:23:20.88	234.13	48.05	-52.3	-53.8	19.6	0.00e+00	0	45	0	892338176	60	18689
2026-01-30 09:23:21.89	234.69	48.18	-52.1	-53.6	19.7	0.00e+00	0	45	0	895483904	60	18235
2026-01-30 09:23:22.90	235.24	48.30	-52.0	-53.5	19.5	0.00e+00	0	46	0	898629632	60	18025
2026-01-30 09:23:23.90	235.80	48.43	-52.0	-53.5	19.4	0.00e+00	0	45	0	901775360	60	17963
2026-01-30 09:23:24.91	236.37	48.55	-52.3	-53.9	19.3	0.00e+00	0	46	0	904921088	60	18801
2026-01-30 09:23:25.92	236.94	48.67	-52.3	-53.9	19.5	0.00e+00	0	46	0	908066816	60	18781
2026-01-30 09:23:26.92	237.52	48.79	-52.2	-53.7	19.5	0.00e+00	0	45	0	911212544	60	18459
2026-01-30 09:23:27.93	238.10	48.90	-51.7	-53.1	19.8	0.00e+00	0	45	0	914358272	60	17170
2026-01-30 09:23:28.94	238.68	49.01	-51.5	-53.0	19.9	0.00e+00	0	45	0	917504000	60	16909
2026-01-30 09:23:29.94	239.27	49.12	-51.6	-53.1	19.8	0.00e+00	0	45	0	920649728	60	17162
2026-01-30 09:23:30.95	239.86	49.22	-51.9	-53.3	19.8	0.00e+00	0	45	0	923795456	60	17653
2026-01-30 09:23:31.96	240.46	49.33	-51.7	-53.1	20.1	0.00e+00	0	45	0	926941184	60	17214
2026-01-30 09:23:32.97	241.06	49.43	-51.6	-53.0	20.2	0.00e+00	0	46	0	930086912	60	17002
2026-01-30 09:23:33.97	241.66	49.52	-51.9	-53.3	19.9	0.00e+00	0	45	0	933232640	60	17666
2026-01-30 09:23:34.98	242.27	49.62	-52.2	-53.8	19.5	0.00e+00	0	45	0	936378368	60	18531
2026-01-30 09:23:35.98	242.88	49.71	-52.3	-53.8	19.5	0.00e+00	0	45	0	939524096	60	18731
2026-01-30 09:23:36.99	243.49	49.79	-52.1	-53.6	19.7	0.00e+00	0	45	0	942669824	60	18236
2026-01-30 09:23:38.00	244.11	49.88	-51.9	-53.3	20.0	0.00e+00	0	45	0	945815552	60	17649
2026-01-30 09:23:39.00	244.73	49.96	-51.9	-53.4	19.6	0.00e+00	0	45	0	948961280	60	17800
2026-01-30 09:23:40.01	245.36	50.03	-52.2	-53.8	19.3	0.00e+00	0	45	0	952107008	60	18603
2026-01-30 09:23:41.02	245.99	50.11	-52.1	-53.5	19.7	0.00e+00	0	45	0	955252736	60	18097
2026-01-30 09:23:42.02	246.61	50.17	-51.9	-53.3	20.1	0.00e+00	0	45	0	958398464	60	17659
2026-01-30 09:23:43.03	247.25	50.24	-52.0	-53.4	20.1	0.00e+00	0	45	0	961544192	60	17896
2026-01-30 09:23:44.03	247.88	50.30	-52.1	-53.5	19.9	0.00e+00	0	45	0	964689920	60	18050
2026-01-30 09:23:45.03	248.51	50.36	-52.3	-53.8	19.7	0.00e+00	0	45	0	967835648	60	18736
2026-01-30 09:23:46.04	249.16	50.42	-52.4	-54.0	19.7	0.00e+00	0	46	0	970981376	60	18968
2026-01-30 09:23:47.04	249.80	50.47	-52.4	-53.9	19.7	0.00e+00	0	45	0	974127104	60	18776
2026-01-30 09:23:48.04	250.44	50.52	-52.3	-53.8	19.8	0.00e+00	0	46	0	977272832	60	18534
2026-01-30 09:23:49.05	251.09	50.56	-52.0	-53.5	19.8	0.00e+00	0	46	0	980418560	60	17978
2026-01-30 09:23:50.05	251.73	50.60	-51.9	-53.4	19.9	0.00e+00	0	45	0	983564288	60	17731
2026-01-30 09:23:51.06	252.38	50.64	-51.8	-53.2	20.2	0.00e+00	0	46	0	986710016	60	17472
2026-01-30 09:23:52.06	253.03	50.67	-51.7	-53.1	20.3	0.00e+00	0	46	0	989855744	60	17279
2026-01-30 09:23:53.07	253.68	50.70	-51.9	-53.3	19.9	0.00e+00	0	46	0	993001472	60	17646
2026-01-30 09:23:54.07	254.33	50.73	-51.9	-53.4	19.8	0.00e+00	0	46	0	996147200	60	17778
2026-01-30 09:23:55.07	254.99	50.75	-51.8	-53.2	19.9	0.00e+00	0	46	0	999292928	60	17408
2026-01-30 09:23:56.08	255.64	50.77	-51.3	-52.7	20.6	0.00e+00	0	45	0	1002438656	60	16410
2026-01-30 09:23:57.09	256.30	50.78	-51.1	-52.5	20.6	0.00e+00	0	45	0	1005584384	60	16006
2026-01-30 09:23:58.10	256.96	50.79	-51.4	-52.8	20.0	0.00e+00	0	45	0	1008730112	60	16629
2026-01-30 09:23:59.10	257.62	50.80	-51.6	-53.1	19.9	0.00e+00	0	45	0	1011875840	60	17104
2026-01-30 09:24:00.10	258.27	50.80	-51.8	-53.3	19.8	0.00e+00	0	46	0	1015021568	60	17612
2026-01-30 09:24:01.10	258.92	50.80	-51.6	-53.0	20.0	0.00e+00	0	45	0	1018167296	60	17078
2026-01-30 09:24:02.10	259.58	50.79	-51.2	-52.5	20.3	0.00e+00	0	45	0	1021313024	60	16128
2026-01-30 09:24:03.11	260.24	50.78	-51.0	-52.4	20.5	0.00e+00	0	45	0	1024458752	60	15887
2026-01-30 09:24:04.12	260.89	50.77	-51.1	-52.4	20.6	0.00e+00	0	45	0	1027604480	60	15941
2026-01-30 09:24:05.12	261.55	50.75	-51.4	-52.8	20.4	0.00e+00	0	45	0	1030750208	60	16680
2026-01-30 09:24:06.13	262.20	50.73	-51.9	-53.4	19.7	0.00e+00	0	45	0	1033895936	60	17847
2026-01-30 09:24:07.14	262.86	50.70	-52.1	-53.7	19.4	0.00e+00	0	45	0	1037041664	60	18330
2026-01-30 09:24:08.14	263.51	50.68	-51.9	-53.5	19.4	0.00e+00	0	45	0	1040187392	60	17911
2026-01-30 09:24:09.14	264.16	50.64	-51.8	-53.3	19.7	0.00e+00	0	45	0	1043333120	60	17578
2026-01-30 09:24:10.15	264.81	50.61	-51.4	-52.9	20.2	0.00e+00	0	45	0	1046478848	60	16747
2026-01-30 09:24:11.15	265.45	50.57	-51.3	-52.7	20.3	0.00e+00	0	45	0	1049624576	60	16448
2026-01-30 09:24:12.16	266.10	50.52	-51.2	-52.6	20.4	0.00e+00	0	45	0	1052770304	60	16309
2026-01-30 09:24:13.17	266.75	50.48	-51.4	-52.8	20.3	0.00e+00	0	45	0	1055916032	60	16600
2026-01-30 09:24:14.18	267.39	50.42	-51.6	-53.1	20.1	0.00e+00	0	45	0	1059061760	60	17106
2026-01-30 09:24:15.18	268.03	50.37	-51.3	-52.8	20.3	0.00e+00	0	45	0	1062207488	60	16531
2026-01-30 09:24:16.19	268.67	50.31	-51.3	-52.7	20.3	0.00e+00	0	45	0	1065353216	60	16428
2026-01-30 09:24:17.19	269.30	50.25	-51.3	-52.7	20.3	0.00e+00	0	45	0	1068498944	60	16418
2026-01-30 09:24:18.20	269.94	50.18	-51.5	-53.0	20.1	0.00e+00	0	45	0	1071644672	60	16995
2026-01-30 09:24:19.21	270.57	50.11	-51.3	-52.8	20.3	0.00e+00	0	45	0	1074790400	60	16534
2026-01-30 09:24:20.21	271.19	50.04	-51.4	-53.0	19.9	0.00e+00	0	45	0	1077936128	60	16908
2026-01-30 09:24:21.21	271.81	49.97	-51.5	-53.1	19.5	0.00e+00	0	45	0	1081081856	60	17179
2026-01-30 09:24:22.22	272.44	49.89	-51.6	-53.2	19.3	0.00e+00	0	45	0	1084227584	60	17460
2026-01-30 09:24:23.22	273.05	49.80	-51.5	-53.1	19.6	0.00e+00	0	45	0	1087373312	60	17253
2026-01-30 09:24:24.23	273.67	49.72	-51.4	-52.9	19.8	0.00e+00	0	45	0	1090519040	60	16796
2026-01-30 09:24:25.24	274.28	49.63	-51.5	-53.0	19.5	0.00e+00	0	45	0	1093664768	60	17059
2026-01-30 09:24:26.24	274.88	49.54	-51.9	-53.5	19.2	0.00e+00	0	45	0	1096810496	60	18054
2026-01-30 09:24:27.24	275.48	49.44	-52.1	-53.8	19.1	0.00e+00	0	45	0	1099956224	60	18673
2026-01-30 09:24:28.25	276.08	49.34	-52.3	-54.0	18.8	0.00e+00	0	45	0	1103101952	60	19080
2026-01-30 09:24:29.26	276.68	49.24	-52.5	-54.3	18.7	0.00e+00	0	45	0	1106247680	60	19633
2026-01-30 09:24:30.27	277.27	49.13	-52.4	-54.1	18.8	0.00e+00	0	45	0	1109393408	60	19367
2026-01-30 09:24:31.28	277.86	49.03	-52.3	-54.1	18.8	0.00e+00	0	45	0	1112539136	60	19303
2026-01-30 09:24:32.28	278.44	48.92	-52.1	-53.7	19.2	0.00e+00	0	45	0	1115684864	60	18500
2026-01-30 09:24:33.29	279.03	48.80	-51.7	-53.2	19.7	0.00e+00	0	45	0	1118830592	60	17474
2026-01-30 09:24:34.30	279.60	48.69	-52.1	-53.8	19.2	0.00e+00	0	45	0	1121976320	60	18566
2026-01-30 09:24:35.30	280.17	48.57	-52.4	-54.1	18.8	0.00e+00	0	45	0	1125122048	60	19292
2026-01-30 09:24:36.30	280.73	48.45	-52.3	-53.9	19.0	0.00e+00	0	45	0	1128267776	60	18924
2026-01-30 09:24:37.30	281.29	48.32	-51.9	-53.5	19.4	0.00e+00	0	45	0	1131413504	60	18009
2026-01-30 09:24:38.31	281.85	48.20	-51.8	-53.3	19.7	0.00e+00	0	45	0	1134559232	60	17613
2026-01-30 09:24:39.32	282.40	48.07	-51.6	-53.1	19.7	0.00e+00	0	45	0	1137704960	60	17114
2026-01-30 09:24:40.32	282.95	47.94	-51.9	-53.4	19.6	0.00e+00	0	45	0	1140850688	60	17871
2026-01-30 09:24:41.32	283.49	47.80	-52.2	-53.8	19.4	0.00e+00	0	45	0	1143996416	60	18574
2026-01-30 09:24:42.33	284.03	47.67	-52.4	-54.0	19.2	0.00e+00	0	45	0	1147142144	60	18977
2026-01-30 09:24:43.34	284.57	47.53	-52.6	-54.3	18.8	0.00e+00	0	46	0	1150287872	60	19823
2026-01-30 09:24:44.35	285.10	47.39	-52.9	-54.7	18.6	0.00e+00	0	45	0	1153433600	60	20630
2026-01-30 09:24:45.35	285.62	47.25	-53.0	-54.7	18.6	0.00e+00	0	45	0	1156579328	60	20657
2026-01-30 09:24:46.37	286.15	47.10	-52.7	-54.3	19.0	0.00e+00	0	45	0	1159725056	60	19799
2026-01-30 09:24:47.37	286.66	46.96	-52.8	-54.5	18.6	0.00e+00	0	46	0	1162870784	60	20284
2026-01-30 09:24:48.38	287.17	46.81	-53.0	-54.8	18.5	0.00e+00	0	46	0	1166016512	60	20827
2026-01-30 09:24:49.39	287.68	46.66	-52.9	-54.6	18.6	0.00e+00	0	45	0	1169162240	60	20449
2026-01-30 09:24:50.40	288.18	46.50	-52.9	-54.7	18.8	0.00e+00	0	46	0	1172307968	60	20568
2026-01-30 09:24:51.40	288.67	46.35	-53.0	-54.7	18.6	0.00e+00	0	46	0	1175453696	60	20739
2026-01-30 09:24:52.41	289.16	46.19	-53.2	-55.0	18.3	0.00e+00	0	46	0	1178599424	60	21429
2026-01-30 09:24:53.41	289.65	46.04	-53.2	-55.1	18.1	0.00e+00	0	45	0	1181745152	60	21733
2026-01-30 09:24:54.42	290.13	45.88	-53.0	-54.8	18.3	0.00e+00	0	45	0	1184890880	60	20987
2026-01-30 09:24:55.42	290.60	45.72	-52.5	-54.3	18.8	0.00e+00	0	45	0	1188036608	60	19738
2026-01-30 09:24:56.42	291.07	45.56	-52.4	-54.2	19.0	0.00e+00	0	45	0	1191182336	60	19480
2026-01-30 09:24:57.43	291.54	45.39	-52.4	-54.1	19.1	0.00e+00	0	46	0	1194328064	60	19361
2026-01-30 09:24:58.44	292.01	45.23	-52.5	-54.3	18.9	0.00e+00	0	45	0	1197473792	60	19767
2026-01-30 09:24:59.45	292.47	45.06	-52.7	-54.5	18.8	0.00e+00	0	45	0	1200619520	60	20110
2026-01-30 09:25:00.45	292.91	44.90	-53.0	-54.9	18.5	0.00e+00	0	46	0	1203765248	60	21045
2026-01-30 09:25:01.46	293.36	44.73	-52.9	-54.8	18.6	0.00e+00	0	45	0	1206910976	60	20894
2026-01-30 09:25:02.46	293.81	44.56	-52.9	-54.7	18.6	0.00e+00	0	45	0	1210056704	60	20739
2026-01-30 09:25:03.47	294.25	44.39	-53.1	-54.9	18.5	0.00e+00	0	46	0	1213202432	60	21117
2026-01-30 09:25:04.48	294.68	44.22	-53.3	-55.1	18.4	0.00e+00	0	45	0	1216348160	60	21680
2026-01-30 09:25:05.49	295.11	44.04	-53.4	-55.2	18.3	0.00e+00	0	45	0	1219493888	60	21930
2026-01-30 09:25:06.50	295.54	43.87	-53.4	-55.2	18.3	0.00e+00	0	45	0	1222639616	60	21993
2026-01-30 09:25:07.50	295.96	43.70	-53.6	-55.6	17.9	0.00e+00	0	45	0	1225785344	60	22829
2026-01-30 09:25:08.51	296.37	43.52	-53.7	-55.7	17.6	0.00e+00	0	45	0	1228931072	60	23212
2026-01-30 09:25:09.52	296.79	43.34	-53.7	-55.6	17.9	0.00e+00	0	45	0	1232076800	60	22863
2026-01-30 09:25:10.52	297.19	43.17	-53.4	-55.1	18.4	0.00e+00	0	46	0	1235222528	60	21756
2026-01-30 09:25:11.52	297.59	42.99	-52.9	-54.5	19.0	0.00e+00	0	45	0	1238368256	60	20185
2026-01-30 09:25:12.53	297.99	42.81	-52.7	-54.3	19.2	0.00e+00	0	45	0	1241513984	60	19771
2026-01-30 09:25:13.53	298.38	42.63	-52.8	-54.4	19.2	0.00e+00	0	45	0	1244659712	60	19971
2026-01-30 09:25:14.54	298.77	42.45	-52.6	-54.1	19.4	0.00e+00	0	46	0	1247805440	60	19394
2026-01-30 09:25:15.54	299.15	42.28	-52.4	-53.9	19.5	0.00e+00	0	46	0	1250951168	60	18859
2026-01-30 09:25:16.55	299.54	42.09	-52.6	-54.2	19.1	0.00e+00	0	45	0	1254096896	60	19527
2026-01-30 09:25:17.56	299.92	41.91	-52.5	-54.1	19.2	0.00e+00	0	46	0	1257242624	60	19208
2026-01-30 09:25:18.57	300.29	41.73	-52.2	-53.7	19.4	0.00e+00	0	46	0	1260388352	60	18460
2026-01-30 09:25:19.58	300.66	41.55	-51.8	-53.4	19.7	0.00e+00	0	45	0	1263534080	60	17715
2026-01-30 09:25:20.58	301.02	41.37	-51.6	-53.1	19.8	0.00e+00	0	46	0	1266679808	60	17194
2026-01-30 09:25:21.59	301.38	41.18	-51.7	-53.2	19.7	0.00e+00	0	45	0	1269825536	60	17384
2026-01-30 09:25:22.60	301.74	41.00	-51.9	-53.6	19.4	0.00e+00	0	45	0	1272971264	60	18120
2026-01-30 09:25:23.61	302.09	40.82	-52.2	-53.9	19.1	0.00e+00	0	46	0	1276116992	60	18814
2026-01-30 09:25:24.61	302.44	40.63	-52.5	-54.2	19.0	0.00e+00	0	46	0	1279262720	60	19429
2026-01-30 09:25:25.62	302.79	40.45	-52.5	-54.2	18.8	0.00e+00	0	45	0	1282408448	60	19527
2026-01-30 09:25:26.62	303.12	40.27	-52.6	-54.3	18.9	0.00e+00	0	46	0	1285554176	60	19735
2026-01-30 09:25:27.63	303.46	40.08	-52.8	-54.5	18.7	0.00e+00	0	46	0	1288699904	60	20307
2026-01-30 09:25:28.64	303.80	39.90	-52.8	-54.4	18.9	0.00e+00	0	46	0	1291845632	60	20067
2026-01-30 09:25:29.64	304.12	39.72	-52.7	-54.4	19.0	0.00e+00	0	46	0	1294991360	60	19953
2026-01-30 09:25:30.65	304.45	39.53	-52.6	-54.2	19.2	0.00e+00	0	46	0	1298137088	60	19424
2026-01-30 09:25:31.66	304.77	39.35	-52.5	-54.1	19.2	0.00e+00	0	46	0	1301282816	60	19369
2026-01-30 09:25:32.67	305.09	39.16	-52.5	-54.0	19.2	0.00e+00	0	45	0	1304428544	60	19125
2026-01-30 09:25:33.67	305.41	38.98	-52.7	-54.3	19.2	0.00e+00	0	45	0	1307574272	60	19680
2026-01-30 09:25:34.67	305.72	38.80	-52.7	-54.3	19.1	0.00e+00	0	46	0	1310720000	60	19786
2026-01-30 09:25:35.68	306.03	38.61	-52.8	-54.4	19.2	0.00e+00	0	46	0	1313865728	60	19872
2026-01-30 09:25:36.69	306.33	38.43	-52.3	-53.9	19.6	0.00e+00	0	46	0	1317011456	60	18798
2026-01-30 09:25:37.70	306.63	38.24	-52.0	-53.4	20.0	0.00e+00	0	46	0	1320157184	60	17866
2026-01-30 09:25:38.70	306.93	38.06	-51.9	-53.4	19.9	0.00e+00	0	46	0	1323302912	60	17796
2026-01-30 09:25:39.71	307.23	37.88	-51.8	-53.3	19.9	0.00e+00	0	46	0	1326448640	60	17504
2026-01-30 09:25:40.71	307.52	37.69	-51.9	-53.4	19.9	0.00e+00	0	46	0	1329594368	60	17700
2026-01-30 09:25:41.72	307.80	37.51	-51.6	-53.1	20.1	0.00e+00	0	46	0	1332740096	60	17197
2026-01-30 09:25:42.73	308.09	37.33	-51.6	-53.1	20.1	0.00e+00	0	45	0	1335885824	60	17105
2026-01-30 09:25:43.73	308.37	37.14	-51.4	-52.8	20.4	0.00e+00	0	46	0	1339031552	60	16559
2026-01-30 09:25:44.74	308.65	36.96	-51.3	-52.8	20.3	0.00e+00	0	46	0	1342177280	60	16558
2026-01-30 09:25:45.75	308.93	36.78	-51.5	-53.0	20.0	0.00e+00	0	45	0	1345323008	60	16946
2026-01-30 09:25:46.76	309.20	36.60	-51.7	-53.2	19.9	0.00e+00	0	46	0	1348468736	60	17462
2026-01-30 09:25:47.77	309.47	36.41	-51.9	-53.5	19.8	0.00e+00	0	45	0	1351614464	60	17950
2026-01-30 09:25:48.77	309.74	36.24	-52.0	-53.5	19.7	0.00e+00	0	45	0	1354760192	60	18049
2026-01-30 09:25:49.78	310.00	36.05	-52.0	-53.6	19.7	0.00e+00	0	45	0	1357905920	60	18133
2026-01-30 09:25:50.78	310.26	35.87	-52.1	-53.7	19.6	0.00e+00	0	45	0	1361051648	60	18444
2026-01-30 09:25:51.79	310.52	35.69	-52.0	-53.5	19.8	0.00e+00	0	45	0	1364197376	60	18068
2026-01-30 09:25:52.80	310.78	35.51	-51.7	-53.2	20.0	0.00e+00	0	45	0	1367343104	60	17377
2026-01-30 09:25:53.80	311.03	35.34	-51.7	-53.2	20.0	0.00e+00	0	45	0	1370488832	60	17315
2026-01-30 09:25:54.81	311.28	35.16	-51.7	-53.2	19.9	0.00e+00	0	45	0	1373634560	60	17297
2026-01-30 09:25:55.82	311.53	34.98	-51.6	-53.0	20.1	0.00e+00	0	45	0	1376780288	60	17080
2026-01-30 09:25:56.82	311.77	34.80	-51.8	-53.3	19.9	0.00e+00	0	45	0	1379926016	60	17557
2026-01-30 09:25:57.83	312.02	34.62	-51.7	-53.1	20.2	0.00e+00	0	46	0	1383071744	60	17266
2026-01-30 09:25:58.84	312.26	34.45	-51.7	-53.1	20.3	0.00e+00	0	46	0	1386217472	60	17188
2026-01-30 09:25:59.84	312.49	34.27	-51.7	-53.1	20.3	0.00e+00	0	46	0	1389363200	60	17257
2026-01-30 09:26:00.84	312.72	34.09	-51.7	-53.1	20.2	0.00e+00	0	46	0	1392508928	60	17229
2026-01-30 09:26:01.85	312.96	33.92	-51.6	-53.0	20.4	0.00e+00	0	46	0	1395654656	60	16934
2026-01-30 09:26:02.86	313.19	33.74	-51.3	-52.6	20.6	0.00e+00	0	46	0	1398800384	60	16257
2026-01-30 09:26:03.86	313.41	33.57	-51.3	-52.7	20.5	0.00e+00	0	46	0	1401946112	60	16342
2026-01-30 09:26:04.87	313.64	33.40	-51.2	-52.6	20.3	0.00e+00	0	46	0	1405091840	60	16308
2026-01-30 09:26:05.87	313.86	33.22	-51.3	-52.7	20.2	0.00e+00	0	46	0	1408237568	60	16482
2026-01-30 09:26:06.87	314.08	33.05	-51.2	-52.7	20.2	0.00e+00	0	46	0	1411383296	60	16345
2026-01-30 09:26:07.87	314.30	32.88	-51.2	-52.7	20.0	0.00e+00	0	46	0	1414529024	60	16344
2026-01-30 09:26:08.88	314.51	32.71	-51.1	-52.6	20.1	0.00e+00	0	46	0	1417674752	60	16186
2026-01-30 09:26:09.89	314.73	32.54	-51.0	-52.4	20.2	0.00e+00	0	45	0	1420820480	60	15948
2026-01-30 09:26:10.89	314.94	32.37	-50.7	-52.2	20.4	0.00e+00	0	45	0	1423966208	60	15445
2026-01-30 09:26:11.89	315.15	32.20	-50.6	-52.0	20.6	0.00e+00	0	45	0	1427111936	60	15202
2026-01-30 09:26:12.90	315.35	32.03	-50.6	-52.0	20.6	0.00e+00	0	45	0	1430257664	60	15167
2026-01-30 09:26:13.90	315.56	31.86	-50.6	-52.1	20.5	0.00e+00	0	45	0	1433403392	60	15241
2026-01-30 09:26:14.91	315.76	31.69	-50.5	-51.9	20.7	0.00e+00	0	46	0	1436549120	60	14969
2026-01-30 09:26:15.92	315.96	31.52	-50.5	-51.9	20.9	0.00e+00	0	46	0	1439694848	60	14896
2026-01-30 09:26:16.93	316.16	31.35	-50.5	-51.8	20.9	0.00e+00	0	46	0	1442840576	60	14860
2026-01-30 09:26:17.94	316.36	31.19	-50.2	-51.5	21.2	0.00e+00	0	46	0	1445986304	60	14301
2026-01-30 09:26:18.94	316.55	31.02	-50.3	-51.6	21.1	0.00e+00	0	46	0	1449132032	60	14478
2026-01-30 09:26:19.94	316.75	30.86	-50.1	-51.4	21.3	0.00e+00	0	46	0	1452277760	60	14054
2026-01-30 09:26:20.95	316.94	30.69	-50.0	-51.3	21.3	0.00e+00	0	45	0	1455423488	60	13957
2026-01-30 09:26:21.95	317.13	30.53	-49.9	-51.2	21.4	0.00e+00	0	45	0	1458569216	60	13799
2026-01-30 09:26:22.96	317.31	30.36	-49.9	-51.2	21.4	0.00e+00	0	45	0	1461714944	60	13746
2026-01-30 09:26:23.96	317.50	30.20	-49.9	-51.2	21.3	0.00e+00	0	45	0	1464860672	60	13855
2026-01-30 09:26:24.97	317.68	30.04	-50.1	-51.4	21.3	0.00e+00	0	45	0	1468006400	60	14109
2026-01-30 09:26:25.97	317.86	29.88	-50.1	-51.5	21.3	0.00e+00	0	45	0	1471152128	60	14246
2026-01-30 09:26:26.98	318.04	29.72	-50.0	-51.3	21.5	0.00e+00	0	45	0	1474297856	60	13966
2026-01-30 09:26:27.99	318.22	29.55	-50.0	-51.3	21.5	0.00e+00	0	45	0	1477443584	60	13946
2026-01-30 09:26:28.99	318.40	29.40	-50.0	-51.3	21.4	0.00e+00	0	45	0	1480589312	60	14024
2026-01-30 09:26:29.99	318.57	29.24	-50.1	-51.4	21.5	0.00e+00	0	45	0	1483735040	60	14071
2026-01-30 09:26:31.00	318.75	29.08	-50.1	-51.4	21.5	0.00e+00	0	46	0	1486880768	60	14180
2026-01-30 09:26:32.00	318.92	28.92	-50.0	-51.3	21.6	0.00e+00	0	45	0	1490026496	60	13965
2026-01-30 09:26:33.01	319.09	28.76	-49.9	-51.1	21.9	0.00e+00	0	46	0	1493172224	60	13656
2026-01-30 09:26:34.01	319.25	28.61	-49.9	-51.2	21.7	0.00e+00	0	45	0	1496317952	60	13769
2026-01-30 09:26:35.02	319.42	28.45	-50.0	-51.3	21.6	0.00e+00	0	45	0	1499463680	60	13939
2026-01-30 09:26:36.02	319.59	28.29	-50.0	-51.2	21.6	0.00e+00	0	46	0	1502609408	60	13861
2026-01-30 09:26:37.03	319.75	28.14	-50.0	-51.3	21.6	0.00e+00	0	46	0	1505755136	60	13962
2026-01-30 09:26:38.03	319.91	27.99	-50.0	-51.3	21.6	0.00e+00	0	46	0	1508900864	60	13992
2026-01-30 09:26:39.04	320.07	27.83	-50.1	-51.4	21.4	0.00e+00	0	46	0	1512046592	60	14061
2026-01-30 09:26:40.04	320.23	27.68	-50.1	-51.4	21.4	0.00e+00	0	46	0	1515192320	60	14127
2026-01-30 09:26:41.05	320.39	27.53	-50.3	-51.6	21.4	0.00e+00	0	46	0	1518338048	60	14385
2026-01-30 09:26:42.05	320.55	27.38	-50.1	-51.4	21.4	0.00e+00	0	46	0	1521483776	60	14108
2026-01-30 09:26:43.06	320.70	27.22	-50.1	-51.4	21.3	0.00e+00	0	45	0	1524629504	60	14168
2026-01-30 09:26:44.07	320.85	27.07	-50.1	-51.4	21.3	0.00e+00	0	45	0	1527775232	60	14209
2026-01-30 09:26:45.08	321.01	26.92	-49.9	-51.1	21.6	0.00e+00	0	45	0	1530920960	60	13720
2026-01-30 09:26:46.09	321.16	26.77	-49.5	-50.8	21.8	0.00e+00	0	46	0	1534066688	60	13135
2026-01-30 09:26:47.10	321.31	26.62	-49.5	-50.7	21.9	0.00e+00	0	46	0	1537212416	60	13062
2026-01-30 09:26:48.10	321.46	26.48	-49.3	-50.5	21.9	0.00e+00	0	46	0	1540358144	60	12776
2026-01-30 09:26:49.11	321.60	26.33	-49.3	-50.5	22.0	0.00e+00	0	45	0	1543503872	60	12755
2026-01-30 09:26:50.11	321.75	26.18	-49.3	-50.5	21.9	0.00e+00	0	45	0	1546649600	60	12801
2026-01-30 09:26:51.11	321.89	26.04	-49.3	-50.5	22.0	0.00e+00	0	45	0	1549795328	60	12713
2026-01-30 09:26:52.12	322.03	25.89	-49.2	-50.4	21.9	0.00e+00	0	45	0	1552941056	60	12632
2026-01-30 09:26:53.13	322.18	25.74	-49.2	-50.4	22.0	0.00e+00	0	45	0	1556086784	60	12627
2026-01-30 09:26:54.13	322.31	25.60	-49.2	-50.5	21.9	0.00e+00	0	46	0	1559232512	60	12672
2026-01-30 09:26:55.14	322.45	25.46	-49.2	-50.5	21.9	0.00e+00	0	46	0	1562378240	60	12718
2026-01-30 09:26:56.14	322.59	25.31	-49.3	-50.5	21.8	0.00e+00	0	45	0	1565523968	60	12751
2026-01-30 09:26:57.14	322.73	25.17	-49.2	-50.5	21.9	0.00e+00	0	46	0	1568669696	60	12694
2026-01-30 09:26:58.15	322.86	25.03	-49.3	-50.5	21.8	0.00e+00	0	45	0	1571815424	60	12749
2026-01-30 09:26:59.16	323.00	24.89	-49.3	-50.5	21.9	0.00e+00	0	45	0	1574961152	60	12754
2026-01-30 09:27:00.17	323.13	24.75	-49.2	-50.4	22.0	0.00e+00	0	45	0	1578106880	60	12564
2026-01-30 09:27:01.18	323.26	24.61	-49.1	-50.4	21.9	0.00e+00	0	46	0	1581252608	60	12529
2026-01-30 09:27:02.18	323.39	24.47	-49.3	-50.5	21.7	0.00e+00	0	45	0	1584398336	60	12754
2026-01-30 09:27:03.18	323.52	24.33	-49.3	-50.6	21.7	0.00e+00	0	46	0	1587544064	60	12904
2026-01-30 09:27:04.19	323.65	24.19	-49.5	-50.8	21.6	0.00e+00	0	46	0	1590689792	60	13138
2026-01-30 09:27:05.19	323.78	24.05	-49.6	-50.9	21.5	0.00e+00	0	46	0	1593835520	60	13301
2026-01-30 09:27:06.19	323.90	23.92	-49.7	-51.0	21.4	0.00e+00	0	46	0	1596981248	60	13533
2026-01-30 09:27:07.20	324.03	23.78	-49.8	-51.1	21.4	0.00e+00	0	45	0	1600126976	60	13637
2026-01-30 09:27:08.21	324.16	23.64	-49.7	-51.0	21.5	0.00e+00	0	45	0	1603272704	60	13516
2026-01-30 09:27:09.22	324.28	23.51	-49.8	-51.1	21.5	0.00e+00	0	45	0	1606418432	60	13644
2026-01-30 09:27:10.22	324.40	23.37	-49.8	-51.1	21.5	0.00e+00	0	45	0	1609564160	60	13620
2026-01-30 09:27:11.23	324.52	23.24	-49.7	-51.0	21.5	0.00e+00	0	46	0	1612709888	60	13474
2026-01-30 09:27:12.24	324.64	23.10	-49.7	-51.0	21.4	0.00e+00	0	45	0	1615855616	60	13496
2026-01-30 09:27:13.25	324.76	22.97	-49.9	-51.2	21.3	0.00e+00	0	45	0	1619001344	60	13781
2026-01-30 09:27:14.25	324.88	22.84	-50.0	-51.4	21.2	0.00e+00	0	45	0	1622147072	60	14055
2026-01-30 09:27:15.26	325.00	22.71	-50.2	-51.6	20.9	0.00e+00	0	45	0	1625292800	60	14397
2026-01-30 09:27:16.27	325.12	22.57	-50.2	-51.6	20.8	0.00e+00	0	45	0	1628438528	60	14480
2026-01-30 09:27:17.27	325.23	22.44	-50.4	-51.8	20.7	0.00e+00	0	45	0	1631584256	60	14742
2026-01-30 09:27:18.28	325.35	22.31	-50.5	-51.9	20.6	0.00e+00	0	45	0	1634729984	60	14965
2026-01-30 09:27:19.29	325.46	22.18	-50.6	-51.9	20.7	0.00e+00	0	46	0	1637875712	60	15056
2026-01-30 09:27:20.30	325.57	22.05	-50.6	-52.0	20.7	0.00e+00	0	45	0	1641021440	60	15147
2026-01-30 09:27:21.30	325.68	21.93	-50.6	-52.0	20.7	0.00e+00	0	46	0	1644167168	60	15188
2026-01-30 09:27:22.31	325.80	21.80	-50.6	-51.9	20.7	0.00e+00	0	45	0	1647312896	60	15056
2026-01-30 09:27:23.32	325.91	21.67	-50.4	-51.8	20.8	0.00e+00	0	45	0	1650458624	60	14809
2026-01-30 09:27:24.33	326.02	21.54	-50.3	-51.7	20.9	0.00e+00	0	45	0	1653604352	60	14598
2026-01-30 09:27:25.33	326.12	21.42	-50.2	-51.6	20.9	0.00e+00	0	46	0	1656750080	60	14400
2026-01-30 09:27:26.34	326.23	21.29	-50.1	-51.4	21.0	0.00e+00	0	45	0	1659895808	60	14094
2026-01-30 09:27:27.35	326.34	21.16	-50.1	-51.5	20.9	0.00e+00	0	45	0	1663041536	60	14235
2026-01-30 09:27:28.36	326.44	21.04	-49.9	-51.2	21.1	0.00e+00	0	46	0	1666187264	60	13772
2026-01-30 09:27:29.36	326.55	20.91	-49.8	-51.1	21.2	0.00e+00	0	46	0	1669332992	60	13648
2026-01-30 09:27:30.37	326.65	20.79	-49.9	-51.3	21.0	0.00e+00	0	45	0	1672478720	60	13907
2026-01-30 09:27:31.37	326.76	20.67	-49.8	-51.1	21.1	0.00e+00	0	45	0	1675624448	60	13713
2026-01-30 09:27:32.38	326.86	20.54	-49.8	-51.1	21.1	0.00e+00	0	45	0	1678770176	60	13656
2026-01-30 09:27:33.38	326.96	20.42	-49.8	-51.1	21.2	0.00e+00	0	45	0	1681915904	60	13616
2026-01-30 09:27:34.39	327.06	20.30	-49.7	-51.0	21.2	0.00e+00	0	46	0	1685061632	60	13560
2026-01-30 09:27:35.40	327.16	20.18	-49.7	-51.0	21.4	0.00e+00	0	45	0	1688207360	60	13459
2026-01-30 09:27:36.40	327.26	20.06	-49.7	-51.0	21.4	0.00e+00	0	46	0	1691353088	60	13431
2026-01-30 09:27:37.41	327.36	19.94	-49.8	-51.1	21.4	0.00e+00	0	46	0	1694498816	60	13584
2026-01-30 09:27:38.41	327.46	19.82	-49.7	-51.0	21.5	0.00e+00	0	46	0	1697644544	60	13494
2026-01-30 09:27:39.42	327.56	19.70	-49.8	-51.0	21.5	0.00e+00	0	45	0	1700790272	60	13541
2026-01-30 09:27:40.42	327.65	19.58	-49.8	-51.1	21.4	0.00e+00	0	46	0	1703936000	60	13657
2026-01-30 09:27:41.43	327.75	19.46	-49.8	-51.1	21.5	0.00e+00	0	46	0	1707081728	60	13606
2026-01-30 09:27:42.44	327.85	19.34	-49.9	-51.2	21.3	0.00e+00	0	45	0	1710227456	60	13813
2026-01-30 09:27:43.44	327.94	19.23	-49.9	-51.2	21.3	0.00e+00	0	45	0	1713373184	60	13864
2026-01-30 09:27:44.45	328.03	19.11	-49.9	-51.2	21.4	0.00e+00	0	45	0	1716518912	60	13823
2026-01-30 09:27:45.46	328.13	18.99	-50.1	-51.4	21.2	0.00e+00	0	45	0	1719664640	60	14110
2026-01-30 09:27:46.46	328.22	18.88	-50.1	-51.4	21.2	0.00e+00	0	46	0	1722810368	60	14112
2026-01-30 09:27:47.47	328.31	18.76	-50.2	-51.5	21.1	0.00e+00	0	45	0	1725956096	60	14297
2026-01-30 09:27:48.48	328.40	18.65	-50.3	-51.6	21.0	0.00e+00	0	45	0	1729101824	60	14520
2026-01-30 09:27:49.49	328.49	18.53	-50.3	-51.6	21.0	0.00e+00	0	46	0	1732247552	60	14535
2026-01-30 09:27:50.50	328.58	18.42	-50.3	-51.7	20.9	0.00e+00	0	46	0	1735393280	60	14579
2026-01-30 09:27:51.50	328.67	18.30	-50.4	-51.7	20.7	0.00e+00	0	46	0	1738539008	60	14701
2026-01-30 09:27:52.50	328.76	18.19	-50.4	-51.7	20.8	0.00e+00	0	45	0	1741684736	60	14704
2026-01-30 09:27:53.50	328.85	18.08	-50.4	-51.7	20.6	0.00e+00	0	45	0	1744830464	60	14681
2026-01-30 09:27:54.50	328.94	17.97	-50.4	-51.8	20.6	0.00e+00	0	46	0	1747976192	60	14720
2026-01-30 09:27:55.51	329.02	17.86	-50.3	-51.7	20.5	0.00e+00	0	46	0	1751121920	60	14714
2026-01-30 09:27:56.51	329.11	17.75	-50.4	-51.8	20.3	0.00e+00	0	45	0	1754267648	60	14873
2026-01-30 09:27:57.52	329.19	17.63	-50.3	-51.8	20.4	0.00e+00	0	46	0	1757413376	60	14754
2026-01-30 09:27:58.52	329.28	17.53	-50.3	-51.8	20.5	0.00e+00	0	45	0	1760559104	60	14728
2026-01-30 09:27:59.53	329.36	17.41	-50.4	-51.8	20.4	0.00e+00	0	45	0	1763704832	60	14860
2026-01-30 09:28:00.53	329.45	17.31	-50.4	-51.9	20.4	0.00e+00	0	45	0	1766850560	60	14910
2026-01-30 09:28:01.54	329.53	17.20	-50.4	-51.8	20.5	0.00e+00	0	45	0	1769996288	60	14815
2026-01-30 09:28:02.54	329.61	17.09	-50.5	-51.9	20.4	0.00e+00	0	45	0	1773142016	60	14938
2026-01-30 09:28:03.55	329.70	16.98	-50.5	-52.0	20.3	0.00e+00	0	45	0	1776287744	60	15080
2026-01-30 09:28:04.55	329.78	16.87	-50.5	-52.0	20.3	0.00e+00	0	45	0	1779433472	60	15112
2026-01-30 09:28:05.55	329.86	16.77	-50.5	-51.9	20.4	0.00e+00	0	46	0	1782579200	60	14988
2026-01-30 09:28:06.56	329.94	16.66	-50.5	-52.0	20.2	0.00e+00	0	45	0	1784676352	60	15112
2026-01-30 09:28:07.57	330.02	16.55	-50.6	-52.1	20.1	0.00e+00	0	46	0	1787822080	60	15289
2026-01-30 09:28:08.57	330.10	16.45	-50.7	-52.2	20.1	0.00e+00	0	46	0	1790967808	60	15452
2026-01-30 09:28:09.57	330.18	16.34	-50.7	-52.2	19.9	0.00e+00	0	45	0	1794113536	60	15584
2026-01-30 09:28:10.58	330.26	16.24	-50.8	-52.3	19.9	0.00e+00	0	45	0	1797259264	60	15745
2026-01-30 09:28:11.58	330.33	16.13	-50.9	-52.4	19.9	0.00e+00	0	46	0	1800404992	60	15866
2026-01-30 09:28:12.59	330.41	16.03	-50.9	-52.4	19.9	0.00e+00	0	46	0	1803550720	60	15918
2026-01-30 09:28:13.60	330.49	15.92	-51.0	-52.6	19.8	0.00e+00	0	46	0	1807745024	60	16153
2026-01-30 09:28:14.60	330.56	15.82	-51.2	-52.7	19.7	0.00e+00	0	46	0	1810890752	60	16396
2026-01-30 09:28:15.61	330.64	15.71	-51.2	-52.8	19.5	0.00e+00	0	46	0	1814036480	60	16539
2026-01-30 09:28:16.61	330.72	15.61	-51.3	-52.9	19.3	0.00e+00	0	46	0	1817182208	60	16781
2026-01-30 09:28:17.62	330.79	15.51	-51.4	-53.0	19.2	0.00e+00	0	46	0	1820327936	60	17051
2026-01-30 09:28:18.61	330.86	15.41	-51.5	-53.1	18.9	0.00e+00	0	45	0	1823473664	60	17277
2026-01-30 09:28:19.62	330.94	15.31	-51.7	-53.3	18.8	0.00e+00	0	46	0	1826619392	60	17654
2026-01-30 09:28:20.63	331.01	15.21	-51.8	-53.5	18.4	0.00e+00	0	45	0	1829765120	60	17978
2026-01-30 09:28:21.63	331.08	15.10	-51.9	-53.7	18.1	0.00e+00	0	45	0	1831862272	60	18359
2026-01-30 09:28:22.64	331.16	15.00	-52.0	-53.9	17.8	0.00e+00	0	46	0	1835008000	60	18905
2026-01-30 09:28:23.65	331.23	14.90	-52.2	-54.1	17.6	0.00e+00	0	45	0	1838153728	60	19369
2026-01-30 09:28:24.65	331.30	14.80	-52.3	-54.3	17.3	0.00e+00	0	46	0	1841299456	60	19810
2026-01-30 09:28:25.66	331.37	14.70	-52.4	-54.5	17.1	0.00e+00	0	46	0	1844445184	60	20280
2026-01-30 09:28:26.67	331.44	14.60	-52.6	-54.7	16.9	0.00e+00	0	46	0	1847590912	60	20751
2026-01-30 09:28:27.68	331.51	14.51	-52.8	-54.9	16.8	0.00e+00	0	46	0	1850736640	60	21249
2026-01-30 09:28:28.68	331.58	14.41	-53.0	-55.2	16.6	0.00e+00	0	46	0	1853882368	60	21841
2026-01-30 09:28:29.69	331.65	14.31	-53.2	-55.4	16.4	0.00e+00	0	46	0	1857028096	60	22422
2026-01-30 09:28:30.70	331.72	14.21	-53.3	-55.6	16.1	0.00e+00	0	45	0	1861222400	60	22994
2026-01-30 09:28:31.70	331.79	14.11	-53.5	-55.9	15.9	0.00e+00	0	46	0	1864368128	60	23671
2026-01-30 09:28:32.71	331.86	14.02	-53.7	-56.1	15.7	0.00e+00	0	46	0	1867513856	60	24282
2026-01-30 09:28:33.71	331.93	13.92	-53.8	-56.3	15.4	0.00e+00	0	46	0	1870659584	60	24949
2026-01-30 09:28:34.71	331.99	13.83	-53.9	-56.5	15.1	0.00e+00	0	46	0	1873805312	60	25460
2026-01-30 09:28:35.72	332.06	13.73	-54.1	-56.9	14.9	0.00e+00	0	46	0	1876951040	60	26477
2026-01-30 09:28:36.73	332.13	13.63	-54.3	-57.1	14.6	0.00e+00	0	46	0	1879048192	60	27131
2026-01-30 09:28:37.73	332.19	13.54	-54.4	-57.3	14.3	1.50e-06	0	46	0	1882193920	60	27889
2026-01-30 09:28:38.74	332.26	13.44	-54.6	-57.5	14.1	2.20e-06	0	46	0	1885339648	60	28489
2026-01-30 09:28:39.75	332.33	13.35	-54.7	-57.7	13.8	1.50e-06	0	46	0	1888485376	60	29276
2026-01-30 09:28:40.76	332.39	13.25	-54.8	-57.9	13.6	1.44e-05	0	46	0	1891631104	60	29871
2026-01-30 09:28:41.76	332.46	13.16	-54.9	-58.2	13.2	1.44e-05	0	46	0	1894776832	60	30803
2026-01-30 09:28:42.77	332.52	13.07	-55.0	-58.3	13.1	3.12e-05	0	46	0	1897922560	60	31448
2026-01-30 09:28:43.77	332.58	12.97	-55.2	-58.7	12.8	6.33e-05	0	46	0	1901068288	60	32571
2026-01-30 09:28:44.78	332.65	12.88	-55.3	-58.9	12.5	1.04e-04	0	46	0	1904214016	60	33567
2026-01-30 09:28:45.79	332.71	12.79	-55.4	-59.1	12.2	1.88e-04	0	46	0	1907359744	60	34469
2026-01-30 09:28:46.79	332.77	12.70	-55.5	-59.4	11.9	3.30e-04	0	46	0	1911554048	60	35444
2026-01-30 09:28:47.80	332.84	12.60	-55.6	-59.6	11.7	5.07e-04	0	46	0	1914699776	60	36306
2026-01-30 09:28:48.81	332.90	12.51	-55.7	-59.8	11.4	8.05e-04	0	45	0	1917845504	60	37316
2026-01-30 09:28:49.82	332.96	12.42	-55.8	-60.1	11.0	1.51e-03	0	45	0	1920991232	60	38566
2026-01-30 09:28:50.82	333.02	12.33	-55.8	-60.3	10.7	2.55e-03	0	46	0	1924136960	60	39458
2026-01-30 09:28:51.82	333.08	12.24	-55.8	-60.6	10.3	3.79e-03	0	46	0	1926234112	60	40654
2026-01-30 09:28:52.83	333.14	12.15	-55.8	-60.8	9.9	7.51e-03	0	46	0	1929379840	60	41665
2026-01-30 09:28:53.83	333.20	12.06	-55.8	-61.1	9.4	1.24e-02	0	46	0	1932525568	60	43031
