passes_logs/2026/01/30/R3.2S-Naryan-Mar/R3.2S-Naryan-Mar__20260130_054805_FENGYUN_3E_rec.log

#Pass ID: 20260130_054805_FENGYUN 3E
#Satellite: FENGYUN 3E
#Configuration: FENGYUN 3E
#almurnet v.1.7.20240730
#Start time: 2026-01-30 05:48:08

#Version: 2.2.20231116
#Station: R3.2S-Naryan-Mar
#Location: 53.008057 lon 67.646978 lat
#TLE: 1 49008U 21062A   26029.52207456 -.00000035  00000+0  41692-5 0  9997
#TLE: 2 49008  98.7499  34.4814 0002557 110.8023 249.3427 14.19887743236900

#Time	Az	El	Level	Level2	SNR	BER	BlckErr	Temp	State	Recorded	gain1	gain2
2026-01-30 05:48:08.75	35.59	0.16	-59.9	-73.3	3.3	8.40e-01	0	44	0	0	60	181650
2026-01-30 05:48:09.76	35.54	0.22	-60.7	-74.5	3.5	8.46e-01	0	44	104	0	60	206860
2026-01-30 05:48:10.76	35.50	0.27	-61.7	-75.4	3.6	8.45e-01	0	45	104	0	60	229973
2026-01-30 05:48:11.77	35.45	0.33	-61.0	-75.6	3.6	8.45e-01	0	45	104	0	60	234893
2026-01-30 05:48:12.78	35.41	0.39	-61.8	-75.6	3.6	8.46e-01	0	45	104	0	60	236938
2026-01-30 05:48:13.79	35.36	0.45	-61.1	-75.5	3.6	8.45e-01	0	45	104	0	60	233958
2026-01-30 05:48:14.80	35.32	0.50	-62.6	-75.7	3.6	8.45e-01	0	45	104	0	60	238015
2026-01-30 05:48:15.80	35.27	0.56	-61.2	-75.5	3.6	8.46e-01	0	45	104	0	60	233357
2026-01-30 05:48:16.81	35.23	0.62	-60.8	-74.3	3.6	8.45e-01	0	45	104	0	60	203864
2026-01-30 05:48:17.82	35.18	0.68	-61.8	-75.2	3.6	8.45e-01	0	45	104	0	60	225862
2026-01-30 05:48:18.82	35.14	0.73	-62.4	-75.6	3.6	8.45e-01	0	45	104	0	60	234913
2026-01-30 05:48:19.83	35.09	0.79	-62.1	-75.3	3.6	8.45e-01	0	45	104	0	60	228792
2026-01-30 05:48:20.83	35.04	0.85	-61.9	-75.4	3.6	8.45e-01	0	45	104	0	60	231137
2026-01-30 05:48:21.84	35.00	0.91	-59.4	-75.6	3.6	8.46e-01	0	45	104	0	60	237130
2026-01-30 05:48:22.85	34.95	0.96	-60.3	-75.4	3.6	8.45e-01	0	45	104	0	60	230407
2026-01-30 05:48:23.86	34.90	1.02	-61.7	-74.5	3.6	8.46e-01	0	45	104	0	60	209159
2026-01-30 05:48:24.87	34.86	1.08	-57.7	-74.9	3.6	8.45e-01	0	45	104	0	60	218322
2026-01-30 05:48:25.88	34.81	1.14	-58.7	-74.3	3.6	8.46e-01	0	45	104	0	60	202619
2026-01-30 05:48:26.89	34.76	1.20	-57.2	-74.9	3.6	8.46e-01	0	45	104	0	60	218575
2026-01-30 05:48:27.90	34.71	1.26	-56.9	-74.5	3.6	8.45e-01	0	45	104	0	60	207530
2026-01-30 05:48:28.90	34.67	1.32	-60.4	-74.1	3.5	8.46e-01	0	45	104	0	60	197649
2026-01-30 05:48:29.91	34.62	1.37	-57.4	-72.8	3.5	8.44e-01	0	45	104	0	60	171416
2026-01-30 05:48:30.92	34.57	1.43	-58.2	-74.2	3.6	8.46e-01	0	45	104	0	60	201743
2026-01-30 05:48:31.93	34.52	1.49	-57.9	-73.4	3.6	8.45e-01	0	45	104	0	60	183822
2026-01-30 05:48:32.93	34.47	1.55	-60.1	-73.2	3.6	8.45e-01	0	45	104	0	60	178063
2026-01-30 05:48:33.94	34.42	1.61	-58.5	-72.5	3.6	8.46e-01	0	45	104	0	60	165487
2026-01-30 05:48:34.94	34.37	1.67	-60.5	-73.6	3.6	8.45e-01	0	45	104	0	60	188214
2026-01-30 05:48:35.95	34.33	1.73	-60.1	-73.8	3.6	8.46e-01	0	45	104	0	60	190921
2026-01-30 05:48:36.96	34.28	1.79	-59.1	-72.4	3.6	8.45e-01	0	45	104	0	60	164026
2026-01-30 05:48:37.96	34.23	1.85	-58.1	-71.8	3.6	8.46e-01	0	45	104	0	60	152785
2026-01-30 05:48:38.96	34.18	1.91	-56.2	-72.9	3.6	8.45e-01	0	45	104	0	60	172023
2026-01-30 05:48:39.97	34.13	1.97	-54.8	-70.3	3.6	8.46e-01	0	45	104	0	60	127761
2026-01-30 05:48:40.98	34.08	2.03	-55.6	-70.3	3.6	8.45e-01	0	45	104	0	60	128605
2026-01-30 05:48:41.99	34.02	2.09	-55.5	-70.2	3.6	8.44e-01	0	45	104	0	60	127323
2026-01-30 05:48:42.99	33.97	2.15	-55.6	-70.3	3.6	8.45e-01	0	45	104	0	60	127659
2026-01-30 05:48:44.00	33.92	2.21	-55.5	-70.2	3.6	8.44e-01	0	45	104	0	60	127182
2026-01-30 05:48:45.01	33.87	2.27	-55.6	-70.2	3.6	8.45e-01	0	45	104	0	60	127058
2026-01-30 05:48:46.02	33.82	2.33	-55.5	-70.1	3.6	8.45e-01	0	45	104	0	60	125273
2026-01-30 05:48:47.03	33.77	2.39	-55.5	-70.2	3.6	8.45e-01	0	45	104	0	60	127306
2026-01-30 05:48:48.03	33.72	2.45	-55.5	-70.2	3.6	8.43e-01	0	45	104	0	60	127187
2026-01-30 05:48:49.03	33.66	2.51	-55.5	-70.1	3.6	8.45e-01	0	45	104	0	60	125855
2026-01-30 05:48:50.04	33.61	2.57	-55.4	-70.2	3.6	8.45e-01	0	45	104	0	60	126129
2026-01-30 05:48:51.05	33.56	2.63	-55.5	-70.1	3.6	8.45e-01	0	45	104	0	60	125239
2026-01-30 05:48:52.05	33.51	2.69	-55.5	-70.2	3.6	8.44e-01	0	45	104	0	60	126418
2026-01-30 05:48:53.06	33.45	2.75	-55.6	-70.2	3.6	8.45e-01	0	45	104	0	60	126753
2026-01-30 05:48:54.07	33.40	2.81	-55.5	-70.2	3.6	8.45e-01	0	45	104	0	60	126440
2026-01-30 05:48:55.08	33.35	2.87	-55.5	-70.3	3.6	8.44e-01	0	45	104	0	60	127648
2026-01-30 05:48:56.09	33.29	2.94	-55.5	-70.3	3.6	8.45e-01	0	45	104	0	60	128728
2026-01-30 05:48:57.10	33.24	3.00	-55.5	-70.2	3.6	8.46e-01	0	45	104	0	60	126367
2026-01-30 05:48:58.10	33.18	3.06	-55.5	-70.1	3.6	8.45e-01	0	45	104	0	60	126056
2026-01-30 05:48:59.11	33.13	3.12	-55.6	-70.1	3.6	8.45e-01	0	45	104	0	60	124662
2026-01-30 05:49:00.12	33.07	3.18	-55.5	-70.0	3.6	8.46e-01	0	45	104	0	60	123856
2026-01-30 05:49:01.12	33.02	3.24	-55.5	-70.0	3.6	8.45e-01	0	45	104	0	60	124304
2026-01-30 05:49:02.13	32.96	3.31	-55.5	-70.0	3.6	8.45e-01	0	45	104	0	60	123313
2026-01-30 05:49:03.14	32.91	3.37	-55.5	-69.9	3.6	8.45e-01	0	45	104	0	60	122864
2026-01-30 05:49:04.15	32.85	3.43	-55.6	-70.1	3.6	8.45e-01	0	45	104	0	60	125322
2026-01-30 05:49:05.15	32.80	3.49	-55.6	-69.9	3.6	8.46e-01	0	45	104	0	60	122859
2026-01-30 05:49:06.16	32.74	3.56	-55.6	-69.9	3.6	8.45e-01	0	45	104	0	60	122504
2026-01-30 05:49:07.16	32.68	3.62	-55.6	-70.1	3.6	8.46e-01	0	45	104	0	60	124649
2026-01-30 05:49:08.17	32.63	3.68	-55.6	-70.0	3.6	8.46e-01	0	45	104	0	60	123869
2026-01-30 05:49:09.17	32.57	3.74	-55.6	-70.0	3.6	8.44e-01	0	45	104	0	60	124409
2026-01-30 05:49:10.18	32.51	3.81	-55.6	-70.0	3.6	8.44e-01	0	45	104	0	60	123520
2026-01-30 05:49:11.19	32.45	3.87	-55.5	-70.0	3.6	8.45e-01	0	45	104	0	60	123230
2026-01-30 05:49:12.19	32.40	3.93	-55.5	-69.9	3.6	8.45e-01	0	45	104	0	60	122873
2026-01-30 05:49:13.20	32.34	4.00	-55.5	-70.1	3.6	8.46e-01	0	45	104	0	60	124883
2026-01-30 05:49:14.21	32.28	4.06	-55.5	-70.1	3.6	8.45e-01	0	45	104	0	60	125034
2026-01-30 05:49:15.21	32.22	4.12	-55.5	-70.0	3.6	8.45e-01	0	45	104	0	60	123594
2026-01-30 05:49:16.22	32.16	4.19	-55.4	-70.0	3.6	8.45e-01	0	45	104	0	60	124007
2026-01-30 05:49:17.23	32.10	4.25	-55.3	-69.9	3.6	8.45e-01	0	45	104	0	60	122740
2026-01-30 05:49:18.23	32.04	4.32	-55.4	-69.9	3.6	8.44e-01	0	46	104	0	60	123063
2026-01-30 05:49:19.24	31.98	4.38	-55.4	-69.9	3.6	8.45e-01	0	46	104	0	60	122931
2026-01-30 05:49:20.25	31.92	4.44	-55.3	-69.7	3.6	8.45e-01	0	45	104	0	60	119401
2026-01-30 05:49:21.25	31.86	4.51	-55.3	-69.8	3.6	8.45e-01	0	45	104	0	60	120590
2026-01-30 05:49:22.26	31.80	4.57	-55.3	-69.9	3.6	8.45e-01	0	45	104	0	60	122799
2026-01-30 05:49:23.27	31.74	4.64	-55.2	-69.8	3.6	8.45e-01	0	45	104	0	60	120526
2026-01-30 05:49:24.28	31.68	4.70	-55.3	-69.8	3.6	8.45e-01	0	45	104	0	60	121716
2026-01-30 05:49:25.28	31.62	4.77	-55.2	-69.7	3.6	8.45e-01	0	46	104	0	60	119857
2026-01-30 05:49:26.29	31.56	4.83	-55.2	-69.5	3.6	8.45e-01	0	45	104	0	60	117635
2026-01-30 05:49:27.29	31.49	4.90	-55.2	-69.3	3.6	8.44e-01	0	45	104	0	60	114660
2026-01-30 05:49:28.30	31.43	4.96	-55.1	-69.1	3.6	8.45e-01	0	46	104	0	60	111933
2026-01-30 05:49:29.31	31.37	5.03	-55.1	-69.0	3.5	8.45e-01	0	46	104	0	60	110947
2026-01-30 05:49:30.31	31.31	5.09	-55.1	-68.8	3.6	8.45e-01	0	46	104	0	60	107453
2026-01-30 05:49:31.32	31.24	5.16	-55.2	-68.1	3.7	8.44e-01	0	45	104	0	60	99641
2026-01-30 05:49:32.33	31.18	5.22	-55.0	-65.4	3.7	8.37e-01	0	46	0	0	60	73161
2026-01-30 05:49:33.34	31.11	5.29	-54.8	-63.5	4.9	7.92e-01	0	46	0	0	60	58497
2026-01-30 05:49:34.34	31.05	5.36	-54.5	-61.6	6.7	2.79e-01	0	46	0	4194304	60	47048
2026-01-30 05:49:35.35	30.99	5.42	-54.1	-59.8	8.7	6.06e-02	0	46	0	11534336	60	38259
2026-01-30 05:49:36.36	30.92	5.49	-53.4	-58.0	10.8	6.81e-03	0	45	0	18874368	60	31175
2026-01-30 05:49:37.37	30.86	5.55	-52.8	-56.6	12.5	8.46e-05	0	46	0	26214400	60	26362
2026-01-30 05:49:38.37	30.79	5.62	-52.1	-55.2	13.9	1.10e-06	0	45	0	33554432	60	22449
2026-01-30 05:49:39.38	30.72	5.69	-51.4	-54.1	14.9	0.00e+00	0	46	0	40894464	60	19802
2026-01-30 05:49:40.39	30.66	5.75	-51.1	-53.4	15.7	0.00e+00	0	45	0	48234496	60	18314
2026-01-30 05:49:41.39	30.59	5.82	-50.6	-52.9	16.2	0.00e+00	0	45	0	55574528	60	17247
2026-01-30 05:49:42.40	30.52	5.89	-50.5	-52.7	16.4	0.00e+00	0	45	0	62914560	60	16838
2026-01-30 05:49:43.41	30.46	5.96	-50.4	-52.6	16.4	0.00e+00	0	46	0	69206016	60	16665
2026-01-30 05:49:44.42	30.39	6.02	-50.8	-53.2	16.5	0.00e+00	0	46	0	76546048	60	17824
2026-01-30 05:49:45.43	30.32	6.09	-51.1	-53.5	15.9	0.00e+00	0	46	0	83886080	60	18548
2026-01-30 05:49:46.43	30.25	6.16	-51.8	-53.6	16.2	0.00e+00	0	46	0	91226112	60	18742
2026-01-30 05:49:47.43	30.19	6.22	-50.9	-52.9	16.9	0.00e+00	0	45	0	98566144	60	17246
2026-01-30 05:49:48.43	30.12	6.29	-53.0	-57.4	12.2	3.75e-03	0	45	0	105906176	60	29078
2026-01-30 05:49:49.44	30.05	6.36	-50.2	-53.1	16.3	0.00e+00	0	46	0	113246208	60	17728
2026-01-30 05:49:50.45	29.98	6.43	-55.0	-58.2	11.4	1.66e-02	0	45	0	120586240	60	31966
2026-01-30 05:49:51.46	29.91	6.50	-50.6	-52.7	16.2	0.00e+00	0	46	0	127926272	60	16901
2026-01-30 05:49:52.46	29.84	6.56	-50.3	-52.6	15.8	0.00e+00	0	46	0	134217728	60	16742
2026-01-30 05:49:53.47	29.77	6.63	-50.3	-52.6	15.5	0.00e+00	0	46	0	142606336	60	16731
2026-01-30 05:49:54.48	29.70	6.70	-50.5	-52.9	15.1	0.00e+00	0	46	0	149946368	60	17333
2026-01-30 05:49:55.48	29.63	6.77	-50.4	-52.7	15.0	0.00e+00	0	46	0	157286400	60	16993
2026-01-30 05:49:56.49	29.56	6.84	-50.0	-52.2	15.6	0.00e+00	0	46	0	164626432	60	15970
2026-01-30 05:49:57.50	29.48	6.91	-49.6	-52.0	16.3	0.00e+00	0	46	0	171966464	60	15575
2026-01-30 05:49:58.50	29.41	6.98	-49.5	-52.0	16.5	0.00e+00	0	46	0	178257920	60	15538
2026-01-30 05:49:59.51	29.34	7.05	-49.1	-51.9	17.3	0.00e+00	0	46	0	185597952	60	15421
2026-01-30 05:50:00.51	29.27	7.12	-49.0	-52.0	17.7	0.00e+00	0	46	0	192937984	60	15569
2026-01-30 05:50:01.52	29.19	7.19	-48.8	-51.8	18.3	0.00e+00	0	46	0	200278016	60	15215
2026-01-30 05:50:02.52	29.12	7.26	-48.7	-51.7	19.0	0.00e+00	0	46	0	207618048	60	15138
2026-01-30 05:50:03.53	29.04	7.33	-48.7	-51.7	19.3	0.00e+00	0	46	0	214958080	60	15020
2026-01-30 05:50:04.54	28.97	7.40	-48.8	-51.5	19.4	0.00e+00	0	46	0	222298112	60	14713
2026-01-30 05:50:05.55	28.89	7.47	-48.8	-51.5	19.4	0.00e+00	0	46	0	229638144	60	14728
2026-01-30 05:50:06.55	28.82	7.54	-49.1	-51.6	19.5	0.00e+00	0	46	0	236978176	60	14949
2026-01-30 05:50:07.56	28.74	7.61	-49.4	-51.7	19.5	0.00e+00	0	46	0	243269632	60	15023
2026-01-30 05:50:08.56	28.67	7.68	-49.5	-51.6	19.5	0.00e+00	0	46	0	250609664	60	14873
2026-01-30 05:50:09.57	28.59	7.75	-49.5	-51.5	19.6	0.00e+00	0	46	0	258998272	60	14766
2026-01-30 05:50:10.58	28.51	7.82	-49.9	-51.8	19.4	0.00e+00	0	46	0	266338304	60	15199
2026-01-30 05:50:11.59	28.44	7.89	-49.8	-51.5	19.3	0.00e+00	0	46	0	273678336	60	14682
2026-01-30 05:50:12.60	28.36	7.96	-49.8	-51.5	19.3	0.00e+00	0	46	0	281018368	60	14805
2026-01-30 05:50:13.61	28.28	8.03	-49.7	-51.5	19.3	0.00e+00	0	46	0	287309824	60	14720
2026-01-30 05:50:14.61	28.20	8.10	-49.6	-51.5	19.3	0.00e+00	0	46	0	294649856	60	14801
2026-01-30 05:50:15.62	28.12	8.18	-49.8	-51.9	18.9	0.00e+00	0	46	0	301989888	60	15410
2026-01-30 05:50:16.63	28.05	8.25	-49.2	-51.6	19.0	0.00e+00	0	46	0	309329920	60	14903
2026-01-30 05:50:17.64	27.97	8.32	-48.9	-51.5	19.1	0.00e+00	0	46	0	316669952	60	14654
2026-01-30 05:50:18.64	27.89	8.39	-48.9	-51.7	18.9	0.00e+00	0	46	0	324009984	60	15107
2026-01-30 05:50:19.65	27.81	8.46	-48.9	-51.7	18.9	0.00e+00	0	46	0	331350016	60	15061
2026-01-30 05:50:20.66	27.72	8.54	-48.9	-51.7	18.9	0.00e+00	0	46	0	338690048	60	15041
2026-01-30 05:50:21.67	27.64	8.61	-49.0	-51.7	18.9	0.00e+00	0	46	0	344981504	60	15046
2026-01-30 05:50:22.67	27.56	8.68	-49.5	-51.8	18.7	0.00e+00	0	46	0	353370112	60	15295
2026-01-30 05:50:23.68	27.48	8.76	-49.7	-52.1	18.5	0.00e+00	0	46	0	360710144	60	15771
2026-01-30 05:50:24.69	27.40	8.83	-49.9	-52.0	18.5	0.00e+00	0	46	0	368050176	60	15636
2026-01-30 05:50:25.70	27.31	8.90	-50.4	-52.4	18.1	0.00e+00	0	46	0	375390208	60	16313
2026-01-30 05:50:26.70	27.23	8.97	-50.7	-52.6	17.9	0.00e+00	0	46	0	382730240	60	16785
2026-01-30 05:50:27.71	27.15	9.05	-51.0	-52.8	17.5	0.00e+00	0	46	0	389021696	60	17197
2026-01-30 05:50:28.72	27.06	9.12	-50.6	-52.3	17.5	0.00e+00	0	46	0	396361728	60	16190
2026-01-30 05:50:29.72	26.98	9.20	-50.0	-51.8	17.5	0.00e+00	0	46	0	403701760	60	15238
2026-01-30 05:50:30.73	26.89	9.27	-49.8	-51.7	17.3	0.00e+00	0	46	0	411041792	60	15053
2026-01-30 05:50:31.74	26.81	9.34	-49.5	-51.5	17.2	0.00e+00	0	46	0	418381824	60	14685
2026-01-30 05:50:32.74	26.72	9.42	-49.5	-51.6	17.0	0.00e+00	0	46	0	425721856	60	14975
2026-01-30 05:50:33.75	26.63	9.49	-49.2	-51.5	17.1	0.00e+00	0	46	0	433061888	60	14653
2026-01-30 05:50:34.75	26.55	9.57	-49.0	-51.2	17.5	0.00e+00	0	46	0	440401920	60	14155
2026-01-30 05:50:35.76	26.46	9.64	-48.9	-50.9	17.8	0.00e+00	0	46	0	447741952	60	13765
2026-01-30 05:50:36.76	26.37	9.72	-49.0	-51.0	17.6	0.00e+00	0	46	0	454033408	60	13822
2026-01-30 05:50:37.77	26.28	9.79	-49.2	-50.9	18.2	0.00e+00	0	46	0	462422016	60	13777
2026-01-30 05:50:38.78	26.19	9.87	-49.3	-51.0	18.4	0.00e+00	0	46	0	469762048	60	13867
2026-01-30 05:50:39.79	26.10	9.94	-49.5	-51.1	18.5	0.00e+00	0	46	0	477102080	60	13982
2026-01-30 05:50:40.79	26.01	10.02	-49.7	-51.2	18.7	0.00e+00	0	46	0	484442112	60	14149
2026-01-30 05:50:41.80	25.92	10.09	-49.7	-51.2	18.6	0.00e+00	0	46	0	491782144	60	14214
2026-01-30 05:50:42.80	25.83	10.17	-49.7	-51.1	18.9	0.00e+00	0	46	0	498073600	60	13989
2026-01-30 05:50:43.81	25.74	10.25	-49.6	-51.1	18.9	0.00e+00	0	46	0	505413632	60	13993
2026-01-30 05:50:44.82	25.65	10.32	-49.4	-50.8	19.1	0.00e+00	0	46	0	512753664	60	13654
2026-01-30 05:50:45.83	25.56	10.40	-49.5	-50.9	19.3	0.00e+00	0	46	0	520093696	60	13766
2026-01-30 05:50:46.84	25.46	10.47	-49.7	-50.9	19.5	0.00e+00	0	46	0	527433728	60	13813
2026-01-30 05:50:47.84	25.37	10.55	-49.8	-51.1	19.3	0.00e+00	0	46	0	534773760	60	14031
2026-01-30 05:50:48.84	25.28	10.63	-49.7	-51.0	19.4	0.00e+00	0	46	0	542113792	60	13943
2026-01-30 05:50:49.84	25.18	10.70	-49.8	-51.1	19.3	0.00e+00	0	46	0	549453824	60	14127
2026-01-30 05:50:50.85	25.09	10.78	-49.7	-51.0	19.3	0.00e+00	0	46	0	556793856	60	13971
2026-01-30 05:50:51.86	24.99	10.86	-49.7	-51.2	19.2	0.00e+00	0	46	0	563085312	60	14287
2026-01-30 05:50:52.87	24.90	10.94	-49.7	-51.5	18.8	0.00e+00	0	46	0	570425344	60	14725
2026-01-30 05:50:53.87	24.80	11.01	-49.7	-51.5	18.7	0.00e+00	0	46	0	578813952	60	14699
2026-01-30 05:50:54.88	24.70	11.09	-49.8	-51.5	18.4	0.00e+00	0	46	0	586153984	60	14731
2026-01-30 05:50:55.89	24.61	11.17	-50.0	-51.6	18.1	0.00e+00	0	46	0	593494016	60	14827
2026-01-30 05:50:56.90	24.51	11.25	-50.1	-51.6	17.8	0.00e+00	0	46	0	599785472	60	14937
2026-01-30 05:50:57.91	24.41	11.33	-50.4	-51.8	17.4	0.00e+00	0	46	0	607125504	60	15176
2026-01-30 05:50:58.91	24.31	11.40	-50.6	-52.1	16.7	0.00e+00	0	46	0	614465536	60	15831
2026-01-30 05:50:59.92	24.21	11.48	-50.6	-52.3	16.4	0.00e+00	0	46	0	621805568	60	16099
2026-01-30 05:51:00.93	24.11	11.56	-50.4	-52.4	16.0	0.00e+00	0	46	0	629145600	60	16396
2026-01-30 05:51:01.93	24.01	11.64	-50.3	-52.6	15.6	0.00e+00	0	46	0	636485632	60	16695
2026-01-30 05:51:02.94	23.91	11.72	-49.8	-52.4	15.8	0.00e+00	0	46	0	643825664	60	16248
2026-01-30 05:51:03.94	23.81	11.80	-49.4	-52.2	15.4	0.00e+00	0	46	0	651165696	60	15883
2026-01-30 05:51:04.95	23.70	11.88	-49.4	-52.6	15.3	0.00e+00	0	46	0	658505728	60	16669
2026-01-30 05:51:05.95	23.60	11.96	-49.5	-52.8	14.8	0.00e+00	0	46	0	664797184	60	17117
2026-01-30 05:51:06.96	23.50	12.04	-49.7	-52.9	14.6	0.00e+00	0	46	0	672137216	60	17391
2026-01-30 05:51:07.97	23.39	12.12	-50.4	-53.4	14.9	1.10e-06	0	46	0	680525824	60	18242
2026-01-30 05:51:08.98	23.29	12.20	-50.2	-52.6	15.7	0.00e+00	0	46	0	687865856	60	16725
2026-01-30 05:51:09.98	23.18	12.28	-49.6	-51.7	16.7	0.00e+00	0	46	0	695205888	60	14994
2026-01-30 05:51:10.99	23.08	12.36	-49.1	-51.0	17.3	0.00e+00	0	46	0	702545920	60	13893
2026-01-30 05:51:12.00	22.97	12.44	-48.7	-50.6	17.4	0.00e+00	0	46	0	708837376	60	13224
2026-01-30 05:51:13.01	22.86	12.52	-48.4	-50.5	17.4	0.00e+00	0	46	0	716177408	60	13060
2026-01-30 05:51:14.01	22.75	12.60	-48.2	-50.4	17.3	0.00e+00	0	46	0	723517440	60	13040
2026-01-30 05:51:15.02	22.65	12.68	-47.9	-50.5	16.9	0.00e+00	0	46	0	730857472	60	13145
2026-01-30 05:51:16.03	22.54	12.76	-47.5	-50.5	16.9	0.00e+00	0	46	0	738197504	60	13109
2026-01-30 05:51:17.03	22.43	12.85	-47.1	-50.5	16.9	0.00e+00	0	46	0	745537536	60	13161
2026-01-30 05:51:18.04	22.32	12.93	-46.7	-50.7	17.0	0.00e+00	0	46	0	752877568	60	13492
2026-01-30 05:51:19.05	22.20	13.01	-46.4	-50.8	17.1	0.00e+00	0	46	0	760217600	60	13517
2026-01-30 05:51:20.05	22.09	13.09	-46.6	-50.6	17.9	0.00e+00	0	46	0	767557632	60	13316
2026-01-30 05:51:21.06	21.98	13.17	-47.4	-50.7	18.3	0.00e+00	0	46	0	773849088	60	13459
2026-01-30 05:51:22.07	21.87	13.26	-48.3	-50.7	18.9	0.00e+00	0	46	0	782237696	60	13390
2026-01-30 05:51:23.07	21.76	13.34	-48.9	-50.5	19.6	0.00e+00	0	46	0	789577728	60	13063
2026-01-30 05:51:24.08	21.64	13.42	-49.1	-50.2	20.1	0.00e+00	0	46	0	796917760	60	12640
2026-01-30 05:51:25.09	21.53	13.50	-49.0	-50.2	20.4	0.00e+00	0	46	0	804257792	60	12608
2026-01-30 05:51:26.10	21.41	13.59	-48.9	-50.1	20.6	0.00e+00	0	46	0	811597824	60	12576
2026-01-30 05:51:27.11	21.29	13.67	-48.8	-50.0	20.6	0.00e+00	0	46	0	817889280	60	12427
2026-01-30 05:51:28.11	21.18	13.75	-48.8	-49.9	21.0	0.00e+00	0	46	0	825229312	60	12281
2026-01-30 05:51:29.12	21.06	13.84	-48.9	-50.0	21.1	0.00e+00	0	46	0	832569344	60	12336
2026-01-30 05:51:30.13	20.94	13.92	-48.8	-49.8	21.4	0.00e+00	0	46	0	839909376	60	12151
2026-01-30 05:51:31.14	20.82	14.00	-48.9	-49.9	21.7	0.00e+00	0	46	0	847249408	60	12203
2026-01-30 05:51:32.15	20.70	14.09	-48.9	-49.9	22.0	0.00e+00	0	46	0	854589440	60	12199
2026-01-30 05:51:33.15	20.58	14.17	-48.9	-49.8	22.0	0.00e+00	0	46	0	861929472	60	12154
2026-01-30 05:51:34.16	20.46	14.26	-49.1	-50.0	21.9	0.00e+00	0	46	0	869269504	60	12445
2026-01-30 05:51:35.17	20.34	14.34	-49.0	-50.0	21.3	0.00e+00	0	46	0	876609536	60	12367
2026-01-30 05:51:36.18	20.21	14.43	-49.0	-50.1	20.7	0.00e+00	0	46	0	883949568	60	12571
2026-01-30 05:51:37.18	20.09	14.51	-49.1	-50.4	20.2	0.00e+00	0	46	0	891289600	60	13031
2026-01-30 05:51:38.19	19.97	14.60	-48.9	-50.5	19.5	0.00e+00	0	46	0	898629632	60	13070
2026-01-30 05:51:39.19	19.84	14.68	-48.9	-50.7	19.4	0.00e+00	0	46	0	905969664	60	13356
2026-01-30 05:51:40.20	19.72	14.77	-48.9	-50.6	19.3	0.00e+00	0	46	0	913309696	60	13299
2026-01-30 05:51:41.20	19.59	14.85	-49.1	-50.9	19.1	0.00e+00	0	46	0	919601152	60	13774
2026-01-30 05:51:42.21	19.47	14.94	-49.2	-51.0	18.9	0.00e+00	0	46	0	926941184	60	13930
2026-01-30 05:51:43.22	19.34	15.02	-49.1	-50.9	19.1	0.00e+00	0	46	0	934281216	60	13807
2026-01-30 05:51:44.23	19.21	15.11	-48.6	-50.7	19.2	0.00e+00	0	46	0	941621248	60	13366
2026-01-30 05:51:45.23	19.08	15.19	-48.0	-50.3	19.0	0.00e+00	0	46	0	948961280	60	12875
2026-01-30 05:51:46.24	18.95	15.28	-47.6	-49.7	19.2	0.00e+00	0	46	0	956301312	60	11979
2026-01-30 05:51:47.25	18.82	15.37	-48.0	-49.9	19.0	0.00e+00	0	46	0	963641344	60	12193
2026-01-30 05:51:48.25	18.69	15.45	-48.4	-49.8	18.8	0.00e+00	0	46	0	970981376	60	12161
2026-01-30 05:51:49.26	18.56	15.54	-48.5	-49.7	18.8	0.00e+00	0	46	0	978321408	60	12030
2026-01-30 05:51:50.26	18.42	15.63	-48.3	-49.7	18.8	0.00e+00	0	46	0	984612864	60	11957
2026-01-30 05:51:51.27	18.29	15.71	-47.9	-49.9	18.8	0.00e+00	0	46	0	991952896	60	12208
2026-01-30 05:51:52.27	18.16	15.80	-47.5	-49.8	18.9	0.00e+00	0	46	0	1000341504	60	12110
2026-01-30 05:51:53.27	18.02	15.89	-47.4	-49.8	18.9	0.00e+00	0	46	0	1007681536	60	12119
2026-01-30 05:51:54.28	17.88	15.97	-47.6	-49.8	18.9	0.00e+00	0	46	0	1015021568	60	12078
2026-01-30 05:51:55.29	17.75	16.06	-48.3	-50.2	18.5	0.00e+00	0	46	0	1022361600	60	12638
2026-01-30 05:51:56.29	17.61	16.15	-48.9	-50.4	18.2	0.00e+00	0	46	0	1028653056	60	13031
2026-01-30 05:51:57.30	17.47	16.24	-49.3	-50.6	18.0	0.00e+00	0	46	0	1035993088	60	13218
2026-01-30 05:51:58.31	17.33	16.32	-49.3	-50.6	18.0	0.00e+00	0	46	0	1043333120	60	13334
2026-01-30 05:51:59.31	17.19	16.41	-49.2	-50.5	18.3	0.00e+00	0	46	0	1050673152	60	13133
2026-01-30 05:52:00.32	17.05	16.50	-48.9	-50.2	18.6	0.00e+00	0	46	0	1058013184	60	12718
2026-01-30 05:52:01.33	16.91	16.59	-49.0	-50.2	18.8	0.00e+00	0	46	0	1065353216	60	12703
2026-01-30 05:52:02.33	16.76	16.68	-49.1	-50.3	18.6	0.00e+00	0	46	0	1072693248	60	12796
2026-01-30 05:52:03.33	16.62	16.76	-49.2	-50.4	18.6	0.00e+00	0	46	0	1080033280	60	12924
2026-01-30 05:52:04.34	16.48	16.85	-49.2	-50.3	18.5	0.00e+00	0	46	0	1087373312	60	12780
2026-01-30 05:52:05.34	16.33	16.94	-49.0	-50.1	18.5	0.00e+00	0	46	0	1093664768	60	12566
2026-01-30 05:52:06.35	16.18	17.03	-48.7	-49.9	18.8	0.00e+00	0	46	0	1101004800	60	12248
2026-01-30 05:52:07.36	16.04	17.12	-48.6	-49.9	18.6	0.00e+00	0	46	0	1108344832	60	12198
2026-01-30 05:52:08.36	15.89	17.21	-48.7	-50.0	18.5	0.00e+00	0	46	0	1115684864	60	12327
2026-01-30 05:52:09.37	15.74	17.30	-48.9	-50.2	18.1	0.00e+00	0	46	0	1124073472	60	12702
2026-01-30 05:52:10.37	15.59	17.39	-49.0	-50.3	17.8	0.00e+00	0	46	0	1130364928	60	12826
2026-01-30 05:52:11.37	15.44	17.48	-49.1	-50.3	17.9	0.00e+00	0	46	0	1137704960	60	12829
2026-01-30 05:52:12.38	15.29	17.57	-49.1	-50.3	17.8	0.00e+00	0	46	0	1145044992	60	12796
2026-01-30 05:52:13.38	15.14	17.66	-49.6	-50.9	17.4	0.00e+00	0	46	0	1152385024	60	13707
2026-01-30 05:52:14.38	14.98	17.75	-49.8	-51.1	17.0	0.00e+00	0	46	0	1159725056	60	14080
2026-01-30 05:52:15.39	14.83	17.84	-50.0	-51.3	17.0	0.00e+00	0	46	0	1167065088	60	14465
2026-01-30 05:52:16.39	14.67	17.93	-49.8	-51.1	17.2	0.00e+00	0	46	0	1174405120	60	14102
2026-01-30 05:52:17.40	14.52	18.02	-50.1	-51.7	16.9	0.00e+00	0	46	0	1181745152	60	15010
2026-01-30 05:52:18.41	14.36	18.11	-50.5	-52.3	16.0	0.00e+00	0	46	0	1189085184	60	16174
2026-01-30 05:52:19.41	14.20	18.20	-50.7	-52.6	15.5	0.00e+00	0	46	0	1195376640	60	16804
2026-01-30 05:52:20.42	14.04	18.29	-51.0	-53.1	15.2	0.00e+00	0	46	0	1202716672	60	17629
2026-01-30 05:52:21.42	13.88	18.38	-51.0	-53.0	15.4	0.00e+00	0	46	0	1210056704	60	17419
2026-01-30 05:52:22.43	13.72	18.47	-50.6	-52.4	16.3	0.00e+00	0	46	0	1217396736	60	16264
2026-01-30 05:52:23.44	13.56	18.56	-50.3	-51.9	16.9	0.00e+00	0	46	0	1224736768	60	15489
2026-01-30 05:52:24.44	13.40	18.65	-50.2	-51.7	17.4	0.00e+00	0	46	0	1232076800	60	15080
2026-01-30 05:52:25.45	13.23	18.74	-50.4	-51.9	17.5	0.00e+00	0	46	0	1239416832	60	15345
2026-01-30 05:52:26.46	13.07	18.83	-50.4	-51.7	18.0	0.00e+00	0	46	0	1246756864	60	15092
2026-01-30 05:52:27.46	12.90	18.92	-50.9	-52.1	18.0	0.00e+00	0	46	0	1254096896	60	15734
2026-01-30 05:52:28.47	12.73	19.02	-51.3	-52.5	17.5	0.00e+00	0	46	0	1261436928	60	16576
2026-01-30 05:52:29.48	12.56	19.11	-51.5	-52.7	17.8	0.00e+00	0	46	0	1268776960	60	16990
2026-01-30 05:52:30.49	12.39	19.20	-51.6	-52.8	18.0	0.00e+00	0	46	0	1276116992	60	17180
2026-01-30 05:52:31.50	12.22	19.29	-52.0	-53.4	17.3	0.00e+00	0	46	0	1283457024	60	18244
2026-01-30 05:52:32.50	12.05	19.38	-52.4	-53.7	17.2	0.00e+00	0	46	0	1290797056	60	18985
2026-01-30 05:52:33.51	11.88	19.47	-53.3	-54.8	16.8	0.00e+00	0	46	0	1298137088	60	21600
2026-01-30 05:52:34.52	11.70	19.57	-54.0	-55.7	15.4	0.00e+00	0	46	0	1304428544	60	23937
2026-01-30 05:52:35.53	11.53	19.66	-54.3	-56.1	14.7	0.00e+00	0	46	0	1311768576	60	25102
2026-01-30 05:52:36.54	11.35	19.75	-54.8	-57.1	13.9	4.50e-06	0	46	0	1319108608	60	28098
2026-01-30 05:52:37.54	11.18	19.84	-54.7	-57.4	12.8	4.00e-05	0	46	0	1326448640	60	29196
2026-01-30 05:52:38.55	11.00	19.93	-54.7	-58.0	12.4	2.99e-04	0	46	0	1333788672	60	31132
2026-01-30 05:52:39.55	10.82	20.03	-55.1	-59.7	10.7	3.34e-03	0	46	0	1341128704	60	37704
2026-01-30 05:52:40.55	10.64	20.12	-54.9	-59.6	10.0	6.22e-03	0	46	0	1348468736	60	37307
2026-01-30 05:52:41.56	10.46	20.21	-54.8	-59.7	9.8	7.63e-03	0	46	0	1355808768	60	37858
2026-01-30 05:52:42.57	10.28	20.30	-54.7	-60.2	9.2	1.71e-02	0	46	0	1363148800	60	40018
2026-01-30 05:52:43.58	10.09	20.39	-54.6	-60.4	8.9	2.57e-02	0	46	0	1370488832	60	40815
2026-01-30 05:52:44.58	9.91	20.49	-54.8	-61.7	8.2	4.90e-02	0	46	0	1377828864	60	47537
2026-01-30 05:52:45.59	9.72	20.58	-55.0	-61.8	7.3	1.13e-01	0	46	0	1385168896	60	48241
2026-01-30 05:52:46.60	9.53	20.67	-55.4	-61.8	6.5	1.25e-01	0	46	0	1392508928	60	48120
2026-01-30 05:52:47.61	9.35	20.76	-56.1	-61.6	7.3	1.87e-01	0	46	0	1399848960	60	47337
2026-01-30 05:52:48.61	9.16	20.86	-57.4	-63.2	6.5	2.49e-01	0	46	0	1406140416	60	56959
2026-01-30 05:52:49.62	8.97	20.95	-58.0	-63.7	5.7	2.66e-01	0	46	0	1413480448	60	59847
2026-01-30 05:52:50.63	8.78	21.04	-58.2	-66.2	4.0	5.06e-01	0	46	0	1418723328	60	80122
2026-01-30 05:52:51.63	8.58	21.13	-57.1	-64.7	6.2	8.19e-01	0	46	0	1418723328	60	67372
2026-01-30 05:52:52.64	8.39	21.22	-47.9	-48.8	22.2	0.00e+00	0	46	0	1426063360	60	10801
2026-01-30 05:52:53.65	8.19	21.32	-50.4	-52.0	19.7	0.00e+00	0	46	0	1433403392	60	15566
2026-01-30 05:52:54.66	8.00	21.41	-48.5	-49.8	21.6	0.00e+00	0	46	0	1440743424	60	12096
2026-01-30 05:52:55.67	7.80	21.50	-50.6	-52.2	19.4	0.00e+00	0	46	0	1448083456	60	16050
2026-01-30 05:52:56.67	7.60	21.59	-49.0	-50.7	20.9	0.00e+00	0	46	0	1455423488	60	13410
2026-01-30 05:52:57.68	7.40	21.69	-48.9	-50.7	21.0	0.00e+00	0	46	0	1462763520	60	13364
2026-01-30 05:52:58.69	7.20	21.78	-49.4	-51.2	21.1	0.00e+00	0	46	0	1470103552	60	14193
2026-01-30 05:52:59.70	7.00	21.87	-49.8	-51.5	21.1	0.00e+00	0	46	0	1477443584	60	14714
2026-01-30 05:53:00.70	6.79	21.96	-50.3	-51.7	20.7	0.00e+00	0	46	0	1484783616	60	15040
2026-01-30 05:53:01.71	6.59	22.05	-50.8	-52.0	20.5	0.00e+00	0	46	0	1492123648	60	15603
2026-01-30 05:53:02.71	6.38	22.15	-51.6	-52.9	19.9	0.00e+00	0	46	0	1499463680	60	17250
2026-01-30 05:53:03.72	6.18	22.24	-52.0	-53.4	19.2	0.00e+00	0	46	0	1506803712	60	18288
2026-01-30 05:53:04.72	5.97	22.33	-52.1	-53.4	18.9	0.00e+00	0	46	0	1514143744	60	18413
2026-01-30 05:53:05.73	5.76	22.42	-52.9	-54.3	18.6	0.00e+00	0	46	0	1520435200	60	20300
2026-01-30 05:53:06.74	5.55	22.51	-53.5	-55.0	17.8	0.00e+00	0	46	0	1527775232	60	21928
2026-01-30 05:53:07.75	5.33	22.60	-53.8	-55.3	17.3	0.00e+00	0	46	0	1535115264	60	22921
2026-01-30 05:53:08.75	5.12	22.70	-53.9	-55.7	17.2	0.00e+00	0	46	0	1542455296	60	23864
2026-01-30 05:53:09.76	4.91	22.79	-54.7	-56.8	16.7	0.00e+00	0	46	0	1549795328	60	27024
2026-01-30 05:53:10.77	4.69	22.88	-55.4	-57.9	15.1	0.00e+00	0	46	0	1558183936	60	30848
2026-01-30 05:53:11.78	4.47	22.97	-55.6	-58.5	14.2	0.00e+00	0	46	0	1564475392	60	32854
2026-01-30 05:53:12.78	4.26	23.06	-55.8	-58.9	13.5	1.94e-05	0	46	0	1571815424	60	34587
2026-01-30 05:53:13.79	4.04	23.15	-56.6	-60.6	11.7	8.12e-05	0	46	0	1579155456	60	42042
2026-01-30 05:53:14.79	3.82	23.24	-56.6	-60.6	11.5	6.63e-04	0	46	0	1586495488	60	41758
2026-01-30 05:53:15.80	3.59	23.33	-56.6	-60.9	11.1	1.50e-03	0	46	0	1593835520	60	43214
2026-01-30 05:53:16.80	3.37	23.42	-56.8	-61.3	10.1	3.20e-03	0	46	0	1601175552	60	45615
2026-01-30 05:53:17.81	3.14	23.51	-56.8	-61.1	10.5	7.54e-03	0	46	0	1608515584	60	44454
2026-01-30 05:53:18.81	2.92	23.60	-57.2	-61.8	10.0	6.04e-03	0	46	0	1615855616	60	48021
2026-01-30 05:53:19.82	2.69	23.69	-57.5	-61.9	9.6	1.53e-02	0	46	0	1622147072	60	48784
2026-01-30 05:53:20.82	2.46	23.78	-57.9	-62.5	8.7	1.85e-02	0	46	0	1629487104	60	52356
2026-01-30 05:53:21.83	2.23	23.87	-57.8	-62.3	9.1	4.05e-02	0	46	0	1636827136	60	51316
2026-01-30 05:53:22.83	2.00	23.96	-58.1	-63.5	8.1	4.53e-02	0	46	0	1644167168	60	58711
2026-01-30 05:53:23.84	1.77	24.05	-58.0	-63.8	7.5	7.49e-03	0	46	0	1651507200	60	60593
2026-01-30 05:53:24.85	1.53	24.14	-58.1	-64.0	6.7	1.21e-01	0	46	0	1658847232	60	62211
2026-01-30 05:53:25.85	1.30	24.22	-58.1	-63.4	8.3	1.35e-01	0	46	0	1666187264	60	58189
2026-01-30 05:53:26.86	1.06	24.31	-58.1	-63.6	7.0	1.08e-01	0	46	0	1673527296	60	59635
2026-01-30 05:53:27.86	0.82	24.40	-58.5	-65.1	6.2	2.77e-01	0	46	0	1680867328	60	70435
2026-01-30 05:53:28.87	0.58	24.49	-58.7	-65.9	5.8	5.80e-01	0	46	0	1687158784	60	77331
2026-01-30 05:53:29.87	0.34	24.58	-59.0	-66.3	5.2	6.02e-01	0	46	0	1691353088	60	80513
2026-01-30 05:53:30.88	0.10	24.66	-59.3	-66.4	5.1	7.12e-01	0	46	0	1693450240	60	82135
2026-01-30 05:53:31.89	359.86	24.75	-59.4	-67.5	4.3	7.90e-01	0	46	0	1695547392	60	93149
2026-01-30 05:53:32.90	359.61	24.84	-55.5	-57.7	16.3	4.63e-02	0	46	0	1697644544	60	29969
2026-01-30 05:53:33.90	359.37	24.92	-47.4	-48.2	23.3	0.00e+00	0	46	0	1704984576	60	10108
2026-01-30 05:53:34.90	359.12	25.01	-49.9	-50.9	21.6	0.00e+00	0	46	0	1712324608	60	13748
2026-01-30 05:53:35.91	358.87	25.10	-48.6	-49.5	22.2	0.00e+00	0	46	0	1719664640	60	11694
2026-01-30 05:53:36.91	358.62	25.18	-49.0	-49.8	23.0	0.00e+00	0	46	0	1727004672	60	12150
2026-01-30 05:53:37.92	358.37	25.27	-48.5	-49.4	23.5	0.00e+00	0	46	0	1733296128	60	11515
2026-01-30 05:53:38.92	358.12	25.35	-48.2	-49.0	23.7	0.00e+00	0	46	0	1740636160	60	11080
2026-01-30 05:53:39.93	357.86	25.43	-48.4	-49.2	23.5	0.00e+00	0	46	0	1747976192	60	11274
2026-01-30 05:53:40.94	357.60	25.52	-48.3	-49.1	23.6	0.00e+00	0	46	0	1755316224	60	11234
2026-01-30 05:53:41.94	357.35	25.60	-48.1	-49.1	23.5	0.00e+00	0	46	0	1762656256	60	11142
2026-01-30 05:53:42.95	357.09	25.69	-48.4	-49.4	23.3	0.00e+00	0	46	0	1769996288	60	11623
2026-01-30 05:53:43.95	356.83	25.77	-48.7	-49.8	23.3	0.00e+00	0	46	0	1777336320	60	12125
2026-01-30 05:53:44.96	356.57	25.85	-47.9	-48.9	24.0	0.00e+00	0	46	0	1784676352	60	10892
2026-01-30 05:53:45.97	356.30	25.93	-47.5	-48.4	24.5	0.00e+00	0	46	0	1792016384	60	10253
2026-01-30 05:53:46.97	356.04	26.01	-47.2	-48.0	24.7	0.00e+00	0	46	0	1799356416	60	9867
2026-01-30 05:53:47.98	355.77	26.10	-47.3	-48.0	24.7	0.00e+00	0	46	0	1806696448	60	9861
2026-01-30 05:53:48.98	355.51	26.18	-47.1	-47.8	24.8	0.00e+00	0	46	0	1814036480	60	9606
2026-01-30 05:53:49.99	355.24	26.26	-47.1	-47.8	24.9	0.00e+00	0	46	0	1821376512	60	9596
2026-01-30 05:53:51.00	354.97	26.34	-47.1	-47.8	24.9	0.00e+00	0	46	0	1828716544	60	9589
2026-01-30 05:53:52.00	354.70	26.42	-47.1	-47.8	24.8	0.00e+00	0	46	0	1836056576	60	9614
2026-01-30 05:53:53.01	354.42	26.50	-47.1	-47.9	24.7	0.00e+00	0	46	0	1842348032	60	9691
2026-01-30 05:53:54.01	354.15	26.57	-47.1	-47.8	24.6	0.00e+00	0	46	0	1849688064	60	9654
2026-01-30 05:53:55.02	353.87	26.65	-47.3	-48.0	24.6	0.00e+00	0	46	0	1857028096	60	9840
2026-01-30 05:53:56.02	353.60	26.73	-47.3	-48.0	24.4	0.00e+00	0	46	0	1864368128	60	9854
2026-01-30 05:53:57.03	353.32	26.81	-47.3	-48.0	24.4	0.00e+00	0	46	0	1871708160	60	9892
2026-01-30 05:53:58.04	353.04	26.88	-47.3	-48.1	24.4	0.00e+00	0	46	0	1879048192	60	9919
2026-01-30 05:53:59.05	352.76	26.96	-47.3	-48.0	24.3	0.00e+00	0	46	0	1886388224	60	9879
2026-01-30 05:54:00.05	352.48	27.03	-47.1	-47.9	24.4	0.00e+00	0	46	0	1893728256	60	9680
2026-01-30 05:54:01.06	352.19	27.11	-47.1	-47.9	24.4	0.00e+00	0	46	0	1900019712	60	9720
2026-01-30 05:54:02.06	351.91	27.18	-47.0	-47.8	24.6	0.00e+00	0	46	0	1907359744	60	9607
2026-01-30 05:54:03.06	351.63	27.26	-47.1	-47.9	24.5	0.00e+00	0	46	0	1914699776	60	9762
2026-01-30 05:54:04.07	351.34	27.33	-47.2	-48.0	24.4	0.00e+00	0	46	0	1923088384	60	9813
2026-01-30 05:54:05.08	351.05	27.40	-47.2	-48.0	24.4	0.00e+00	0	46	0	1930428416	60	9839
2026-01-30 05:54:06.08	350.76	27.47	-47.3	-48.0	24.4	0.00e+00	0	46	0	1937768448	60	9864
2026-01-30 05:54:07.09	350.47	27.55	-47.5	-48.2	24.2	0.00e+00	0	46	0	1944059904	60	10108
2026-01-30 05:54:08.10	350.17	27.62	-47.9	-48.7	23.9	0.00e+00	0	46	0	1951399936	60	10614
2026-01-30 05:54:09.10	349.88	27.69	-48.0	-48.8	23.9	0.00e+00	0	46	0	1958739968	60	10736
2026-01-30 05:54:10.11	349.58	27.76	-48.1	-48.9	23.9	0.00e+00	0	46	0	1966080000	60	10872
2026-01-30 05:54:11.12	349.29	27.82	-48.5	-49.3	23.6	0.00e+00	0	46	0	1973420032	60	11370
2026-01-30 05:54:12.12	348.99	27.89	-48.9	-49.7	23.2	0.00e+00	0	46	0	1980760064	60	11948
2026-01-30 05:54:13.13	348.69	27.96	-48.8	-49.6	23.5	0.00e+00	0	46	0	1988100096	60	11847
2026-01-30 05:54:14.14	348.39	28.03	-48.3	-49.1	23.8	0.00e+00	0	46	0	1995440128	60	11192
2026-01-30 05:54:15.14	348.09	28.09	-47.9	-48.7	24.2	0.00e+00	0	46	0	2002780160	60	10622
2026-01-30 05:54:16.15	347.78	28.16	-47.6	-48.4	24.5	0.00e+00	0	46	0	2009071616	60	10287
2026-01-30 05:54:17.15	347.48	28.22	-47.6	-48.4	24.5	0.00e+00	0	46	0	2016411648	60	10279
2026-01-30 05:54:18.15	347.18	28.28	-47.4	-48.2	24.6	0.00e+00	0	46	0	2023751680	60	10024
2026-01-30 05:54:19.16	346.87	28.35	-47.0	-47.7	25.0	0.00e+00	0	46	0	2031091712	60	9503
2026-01-30 05:54:20.16	346.56	28.41	-46.8	-47.5	25.1	0.00e+00	0	46	0	2038431744	60	9305
2026-01-30 05:54:21.17	346.25	28.47	-46.7	-47.4	25.2	0.00e+00	0	46	0	2046820352	60	9160
2026-01-30 05:54:22.18	345.94	28.53	-46.8	-47.5	25.1	0.00e+00	0	46	0	2053111808	60	9297
2026-01-30 05:54:23.18	345.63	28.59	-46.8	-47.6	25.1	0.00e+00	0	46	0	2060451840	60	9407
2026-01-30 05:54:24.19	345.32	28.65	-46.9	-47.7	25.0	0.00e+00	0	46	0	2067791872	60	9461
2026-01-30 05:54:25.20	345.00	28.71	-46.8	-47.6	25.1	0.00e+00	0	46	0	2075131904	60	9407
2026-01-30 05:54:26.21	344.69	28.76	-47.1	-47.9	25.0	0.00e+00	0	46	0	2082471936	60	9744
2026-01-30 05:54:27.22	344.37	28.82	-47.2	-48.0	24.8	0.00e+00	0	46	0	2089811968	60	9790
2026-01-30 05:54:28.23	344.05	28.87	-47.2	-48.0	24.8	0.00e+00	0	46	0	2097152000	60	9896
2026-01-30 05:54:29.24	343.73	28.93	-47.4	-48.2	24.5	0.00e+00	0	46	0	2104492032	60	10127
2026-01-30 05:54:30.24	343.42	28.98	-47.6	-48.4	24.2	0.00e+00	0	46	0	2111832064	60	10311
2026-01-30 05:54:31.25	343.09	29.04	-47.8	-48.6	24.1	0.00e+00	0	46	0	2118123520	60	10531
2026-01-30 05:54:32.26	342.77	29.09	-48.1	-49.0	23.8	0.00e+00	0	46	0	2125463552	60	10986
2026-01-30 05:54:33.27	342.45	29.14	-48.6	-49.5	23.5	0.00e+00	0	46	0	2133852160	60	11671
2026-01-30 05:54:34.28	342.12	29.19	-48.8	-49.7	23.3	0.00e+00	0	46	0	2141192192	60	11919
2026-01-30 05:54:35.29	341.80	29.24	-48.8	-49.7	23.2	0.00e+00	0	46	0	2148532224	60	12017
2026-01-30 05:54:36.30	341.47	29.29	-49.0	-49.9	23.1	0.00e+00	0	46	0	2155872256	60	12227
2026-01-30 05:54:37.30	341.15	29.33	-48.9	-49.8	23.2	0.00e+00	0	46	0	2162163712	60	12126
2026-01-30 05:54:38.31	340.82	29.38	-49.0	-49.8	23.0	0.00e+00	0	46	0	2169503744	60	12167
2026-01-30 05:54:39.32	340.49	29.42	-48.8	-49.7	23.1	0.00e+00	0	46	0	2176843776	60	11976
2026-01-30 05:54:40.32	340.16	29.47	-49.1	-49.9	22.7	0.00e+00	0	46	0	2184183808	60	12304
2026-01-30 05:54:41.33	339.83	29.51	-49.2	-50.0	22.5	0.00e+00	0	46	0	2191523840	60	12461
2026-01-30 05:54:42.34	339.50	29.55	-49.4	-50.3	22.6	0.00e+00	0	46	0	2198863872	60	12777
2026-01-30 05:54:43.34	339.17	29.59	-49.9	-50.7	22.0	0.00e+00	0	46	0	2206203904	60	13495
2026-01-30 05:54:44.35	338.83	29.63	-50.0	-50.9	21.8	0.00e+00	0	46	0	2213543936	60	13774
2026-01-30 05:54:45.36	338.50	29.67	-50.0	-50.9	21.9	0.00e+00	0	46	0	2219835392	60	13697
2026-01-30 05:54:46.36	338.17	29.71	-50.4	-51.3	21.6	0.00e+00	0	46	0	2227175424	60	14400
2026-01-30 05:54:47.37	337.83	29.75	-50.5	-51.5	21.5	0.00e+00	0	46	0	2235564032	60	14652
2026-01-30 05:54:48.38	337.49	29.78	-49.9	-50.8	22.0	0.00e+00	0	46	0	2242904064	60	13614
2026-01-30 05:54:49.38	337.16	29.82	-49.0	-49.9	22.9	0.00e+00	0	46	0	2250244096	60	12207
2026-01-30 05:54:50.39	336.82	29.85	-48.2	-49.0	23.7	0.00e+00	0	46	0	2257584128	60	10998
2026-01-30 05:54:51.40	336.48	29.88	-47.5	-48.2	24.1	0.00e+00	0	46	0	2263875584	60	10110
2026-01-30 05:54:52.40	336.14	29.92	-47.6	-48.3	24.0	0.00e+00	0	46	0	2271215616	60	10201
2026-01-30 05:54:53.40	335.80	29.95	-47.6	-48.4	23.8	0.00e+00	0	46	0	2278555648	60	10285
2026-01-30 05:54:54.41	335.46	29.97	-47.6	-48.4	23.9	0.00e+00	0	46	0	2285895680	60	10260
2026-01-30 05:54:55.42	335.12	30.00	-47.9	-48.7	23.7	0.00e+00	0	46	0	2293235712	60	10616
2026-01-30 05:54:56.43	334.78	30.03	-48.0	-48.7	23.7	0.00e+00	0	46	0	2300575744	60	10706
2026-01-30 05:54:57.44	334.44	30.06	-48.2	-48.9	23.7	0.00e+00	0	46	0	2307915776	60	10956
2026-01-30 05:54:58.44	334.10	30.08	-48.7	-49.5	23.3	0.00e+00	0	46	0	2315255808	60	11645
2026-01-30 05:54:59.45	333.75	30.10	-48.7	-49.5	23.4	0.00e+00	0	46	0	2322595840	60	11665
2026-01-30 05:55:00.46	333.41	30.13	-48.6	-49.4	23.1	0.00e+00	0	46	0	2328887296	60	11600
2026-01-30 05:55:01.47	333.06	30.15	-49.1	-49.9	22.8	0.00e+00	0	46	0	2337275904	60	12312
2026-01-30 05:55:02.47	332.72	30.17	-49.0	-49.8	22.7	0.00e+00	0	46	0	2344615936	60	12109
2026-01-30 05:55:03.48	332.37	30.19	-47.9	-48.6	23.8	0.00e+00	0	46	0	2351955968	60	10571
2026-01-30 05:55:04.49	332.03	30.21	-47.2	-47.9	24.4	0.00e+00	0	46	0	2359296000	60	9770
2026-01-30 05:55:05.50	331.68	30.22	-46.7	-47.4	24.7	0.00e+00	0	46	0	2366636032	60	9136
2026-01-30 05:55:06.50	331.34	30.24	-46.3	-47.0	24.9	0.00e+00	0	46	0	2372927488	60	8800
2026-01-30 05:55:07.51	330.99	30.25	-46.5	-47.2	24.6	0.00e+00	0	46	0	2380267520	60	8952
2026-01-30 05:55:08.52	330.64	30.27	-46.7	-47.4	24.3	0.00e+00	0	46	0	2387607552	60	9170
2026-01-30 05:55:09.53	330.29	30.28	-46.7	-47.5	24.2	0.00e+00	0	46	0	2394947584	60	9248
2026-01-30 05:55:10.53	329.95	30.29	-46.8	-47.5	24.1	0.00e+00	0	46	0	2402287616	60	9291
2026-01-30 05:55:11.54	329.60	30.30	-47.2	-47.9	23.6	0.00e+00	0	46	0	2409627648	60	9757
2026-01-30 05:55:12.54	329.25	30.31	-47.2	-47.9	23.7	0.00e+00	0	46	0	2416967680	60	9749
2026-01-30 05:55:13.55	328.90	30.32	-47.1	-47.8	23.8	0.00e+00	0	46	0	2424307712	60	9611
2026-01-30 05:55:14.56	328.55	30.32	-46.9	-47.7	24.0	0.00e+00	0	46	0	2430599168	60	9468
2026-01-30 05:55:15.56	328.21	30.33	-46.5	-47.2	24.7	0.00e+00	0	46	0	2437939200	60	8969
2026-01-30 05:55:16.57	327.86	30.33	-46.4	-47.1	24.8	0.00e+00	0	46	0	2446327808	60	8899
2026-01-30 05:55:17.58	327.51	30.33	-46.4	-47.1	25.1	0.00e+00	0	46	0	2453667840	60	8825
2026-01-30 05:55:18.59	327.16	30.33	-46.4	-47.0	25.3	0.00e+00	0	46	0	2461007872	60	8817
2026-01-30 05:55:19.59	326.81	30.33	-46.3	-47.0	25.4	0.00e+00	0	46	0	2468347904	60	8751
2026-01-30 05:55:20.60	326.46	30.33	-46.3	-47.0	25.2	0.00e+00	0	46	0	2474639360	60	8802
2026-01-30 05:55:21.61	326.11	30.33	-46.4	-47.1	25.1	0.00e+00	0	46	0	2481979392	60	8912
2026-01-30 05:55:22.62	325.76	30.33	-46.6	-47.3	24.8	0.00e+00	0	46	0	2489319424	60	9056
2026-01-30 05:55:23.63	325.42	30.32	-46.6	-47.3	24.6	0.00e+00	0	46	0	2496659456	60	9088
2026-01-30 05:55:24.63	325.07	30.32	-46.7	-47.4	24.3	0.00e+00	0	46	0	2503999488	60	9232
2026-01-30 05:55:25.63	324.72	30.31	-47.0	-47.7	23.7	0.00e+00	0	46	0	2511339520	60	9495
2026-01-30 05:55:26.64	324.37	30.30	-47.0	-47.8	23.4	0.00e+00	0	46	0	2518679552	60	9635
2026-01-30 05:55:27.65	324.03	30.29	-47.1	-47.9	23.0	0.00e+00	0	46	0	2526019584	60	9697
2026-01-30 05:55:28.65	323.68	30.28	-47.5	-48.3	22.7	0.00e+00	0	46	0	2533359616	60	10179
2026-01-30 05:55:29.66	323.33	30.27	-47.7	-48.5	22.4	0.00e+00	0	46	0	2539651072	60	10484
2026-01-30 05:55:30.67	322.98	30.26	-47.7	-48.5	22.4	0.00e+00	0	46	0	2546991104	60	10429
2026-01-30 05:55:31.67	322.64	30.25	-47.9	-48.8	22.1	0.00e+00	0	46	0	2555379712	60	10767
2026-01-30 05:55:32.67	322.30	30.23	-48.1	-48.9	22.1	0.00e+00	0	46	0	2562719744	60	10929
2026-01-30 05:55:33.68	321.95	30.21	-48.1	-49.0	22.4	0.00e+00	0	46	0	2570059776	60	10997
2026-01-30 05:55:34.69	321.60	30.20	-48.1	-48.9	22.6	0.00e+00	0	46	0	2577399808	60	10971
2026-01-30 05:55:35.69	321.26	30.18	-48.0	-48.8	23.0	0.00e+00	0	46	0	2583691264	60	10773
2026-01-30 05:55:36.70	320.91	30.16	-48.3	-49.1	22.9	0.00e+00	0	46	0	2591031296	60	11124
2026-01-30 05:55:37.71	320.57	30.14	-48.3	-49.1	22.9	0.00e+00	0	46	0	2598371328	60	11181
2026-01-30 05:55:38.72	320.22	30.11	-48.6	-49.4	22.9	0.00e+00	0	46	0	2605711360	60	11538
2026-01-30 05:55:39.73	319.88	30.09	-49.0	-49.8	22.6	0.00e+00	0	46	0	2613051392	60	12074
2026-01-30 05:55:40.74	319.53	30.07	-48.7	-49.5	22.7	0.00e+00	0	46	0	2620391424	60	11728
2026-01-30 05:55:41.73	319.20	30.04	-49.1	-49.9	22.2	0.00e+00	0	46	0	2627731456	60	12279
2026-01-30 05:55:42.74	318.85	30.01	-49.0	-49.8	22.0	0.00e+00	0	46	0	2635071488	60	12160
2026-01-30 05:55:43.75	318.51	29.99	-48.9	-49.8	21.9	0.00e+00	0	46	0	2642411520	60	12157
2026-01-30 05:55:44.75	318.17	29.96	-49.1	-50.0	21.5	0.00e+00	0	46	0	2648702976	60	12447
2026-01-30 05:55:45.76	317.83	29.93	-49.7	-50.6	20.9	0.00e+00	0	46	0	2656043008	60	13297
2026-01-30 05:55:46.76	317.49	29.90	-49.9	-50.9	20.3	0.00e+00	0	46	0	2663383040	60	13810
2026-01-30 05:55:47.77	317.15	29.87	-50.2	-51.2	19.7	0.00e+00	0	46	0	2671771648	60	14302
2026-01-30 05:55:48.78	316.81	29.83	-50.7	-51.8	19.6	0.00e+00	0	46	0	2679111680	60	15271
2026-01-30 05:55:49.79	316.48	29.80	-51.2	-52.3	18.8	0.00e+00	0	46	0	2686451712	60	16174
2026-01-30 05:55:50.79	316.14	29.76	-51.6	-52.8	18.6	0.00e+00	0	46	0	2692743168	60	17134
2026-01-30 05:55:51.79	315.81	29.73	-51.8	-53.0	18.1	0.00e+00	0	46	0	2700083200	60	17516
2026-01-30 05:55:52.80	315.47	29.69	-52.2	-53.5	17.6	0.00e+00	0	46	0	2707423232	60	18500
2026-01-30 05:55:53.81	315.14	29.65	-52.7	-54.0	17.9	0.00e+00	0	46	0	2714763264	60	19616
2026-01-30 05:55:54.82	314.80	29.61	-50.7	-51.8	19.8	0.00e+00	0	46	0	2722103296	60	15183
2026-01-30 05:55:55.82	314.47	29.57	-49.5	-50.4	21.1	0.00e+00	0	46	0	2729443328	60	12981
2026-01-30 05:55:56.83	314.14	29.53	-48.6	-49.5	22.1	0.00e+00	0	46	0	2736783360	60	11692
2026-01-30 05:55:57.83	313.81	29.49	-47.8	-48.6	23.0	0.00e+00	0	46	0	2744123392	60	10589
2026-01-30 05:55:58.84	313.48	29.44	-47.3	-48.1	23.5	0.00e+00	0	46	0	2750414848	60	9953
2026-01-30 05:55:59.85	313.15	29.40	-47.3	-48.1	23.6	0.00e+00	0	46	0	2757754880	60	9934
2026-01-30 05:56:00.85	312.82	29.35	-47.2	-48.0	23.4	0.00e+00	0	46	0	2765094912	60	9884
2026-01-30 05:56:01.86	312.49	29.30	-46.8	-47.6	24.1	0.00e+00	0	46	0	2772434944	60	9385
2026-01-30 05:56:02.87	312.16	29.26	-46.3	-47.0	24.6	0.00e+00	0	46	0	2780823552	60	8811
2026-01-30 05:56:03.88	311.84	29.21	-45.9	-46.6	25.0	0.00e+00	0	46	0	2788163584	60	8419
2026-01-30 05:56:04.88	311.52	29.16	-46.0	-46.7	24.9	0.00e+00	0	46	0	2794455040	60	8495
2026-01-30 05:56:05.89	311.19	29.11	-46.1	-46.9	24.8	0.00e+00	0	46	0	2801795072	60	8646
2026-01-30 05:56:06.90	310.87	29.06	-46.4	-47.1	24.7	0.00e+00	0	46	0	2809135104	60	8859
2026-01-30 05:56:07.91	310.54	29.00	-46.5	-47.2	24.5	0.00e+00	0	46	0	2816475136	60	9019
2026-01-30 05:56:08.91	310.23	28.95	-46.5	-47.2	24.5	0.00e+00	0	46	0	2823815168	60	8952
2026-01-30 05:56:09.92	309.91	28.90	-46.5	-47.2	24.6	0.00e+00	0	46	0	2831155200	60	9002
2026-01-30 05:56:10.92	309.59	28.84	-46.3	-47.0	24.7	0.00e+00	0	46	0	2838495232	60	8809
2026-01-30 05:56:11.93	309.27	28.79	-46.3	-47.0	24.7	0.00e+00	0	46	0	2845835264	60	8813
2026-01-30 05:56:12.93	308.96	28.73	-46.2	-46.9	24.9	0.00e+00	0	46	0	2853175296	60	8697
2026-01-30 05:56:13.94	308.64	28.67	-46.0	-46.7	25.1	0.00e+00	0	46	0	2859466752	60	8489
2026-01-30 05:56:14.94	308.33	28.61	-45.8	-46.5	25.3	0.00e+00	0	46	0	2866806784	60	8235
2026-01-30 05:56:15.95	308.02	28.56	-45.8	-46.5	25.3	0.00e+00	0	46	0	2874146816	60	8277
2026-01-30 05:56:16.96	307.70	28.49	-45.8	-46.5	25.2	0.00e+00	0	46	0	2881486848	60	8310
2026-01-30 05:56:17.96	307.40	28.43	-45.9	-46.6	25.3	0.00e+00	0	46	0	2888826880	60	8396
2026-01-30 05:56:18.97	307.09	28.37	-46.0	-46.7	25.1	0.00e+00	0	46	0	2896166912	60	8450
2026-01-30 05:56:19.97	306.78	28.31	-46.1	-46.8	25.1	0.00e+00	0	46	0	2903506944	60	8550
2026-01-30 05:56:20.98	306.47	28.25	-46.0	-46.8	25.1	0.00e+00	0	46	0	2910846976	60	8525
2026-01-30 05:56:21.99	306.17	28.18	-46.1	-46.8	24.9	0.00e+00	0	46	0	2918187008	60	8530
2026-01-30 05:56:22.99	305.86	28.12	-46.0	-46.8	25.0	0.00e+00	0	46	0	2925527040	60	8535
2026-01-30 05:56:24.00	305.56	28.05	-46.1	-46.8	25.0	0.00e+00	0	46	0	2932867072	60	8600
2026-01-30 05:56:25.00	305.26	27.99	-46.1	-46.8	25.0	0.00e+00	0	46	0	2940207104	60	8571
2026-01-30 05:56:26.01	304.96	27.92	-46.1	-46.8	25.1	0.00e+00	0	46	0	2947547136	60	8538
2026-01-30 05:56:27.02	304.66	27.85	-46.0	-46.7	25.1	0.00e+00	0	46	0	2954887168	60	8466
2026-01-30 05:56:28.03	304.36	27.78	-46.1	-46.8	25.1	0.00e+00	0	46	0	2961178624	60	8554
2026-01-30 05:56:29.03	304.07	27.71	-46.3	-47.0	25.0	0.00e+00	0	46	0	2968518656	60	8796
2026-01-30 05:56:30.04	303.77	27.64	-46.5	-47.2	24.9	0.00e+00	0	46	0	2975858688	60	9025
2026-01-30 05:56:31.05	303.47	27.57	-46.4	-47.1	24.8	0.00e+00	0	46	0	2983198720	60	8921
2026-01-30 05:56:32.06	303.18	27.50	-46.6	-47.4	24.5	0.00e+00	0	46	0	2990538752	60	9148
2026-01-30 05:56:33.06	302.89	27.43	-46.9	-47.6	24.4	0.00e+00	0	46	0	2997878784	60	9429
2026-01-30 05:56:34.07	302.60	27.36	-46.9	-47.7	24.2	0.00e+00	0	46	0	3005218816	60	9481
2026-01-30 05:56:35.08	302.31	27.29	-46.9	-47.7	24.3	0.00e+00	0	46	0	3012558848	60	9458
2026-01-30 05:56:36.09	302.02	27.21	-46.9	-47.7	24.3	0.00e+00	0	46	0	3019898880	60	9469
2026-01-30 05:56:37.09	301.74	27.14	-47.0	-47.8	24.1	0.00e+00	0	46	0	3027238912	60	9591
2026-01-30 05:56:38.10	301.45	27.06	-46.4	-47.1	24.8	0.00e+00	0	46	0	3034578944	60	8921
2026-01-30 05:56:39.10	301.17	26.99	-46.1	-46.7	25.1	0.00e+00	0	46	0	3041918976	60	8516
2026-01-30 05:56:40.10	300.89	26.91	-46.1	-46.8	24.9	0.00e+00	0	46	0	3049259008	60	8604
2026-01-30 05:56:41.11	300.61	26.84	-46.1	-46.8	25.1	0.00e+00	0	46	0	3056599040	60	8540
2026-01-30 05:56:42.11	300.33	26.76	-46.1	-46.8	24.9	0.00e+00	0	46	0	3063939072	60	8542
2026-01-30 05:56:43.11	300.06	26.68	-46.3	-47.0	24.9	0.00e+00	0	46	0	3070230528	60	8778
2026-01-30 05:56:44.12	299.78	26.61	-46.4	-47.1	24.7	0.00e+00	0	46	0	3077570560	60	8877
2026-01-30 05:56:45.13	299.50	26.53	-46.3	-47.0	24.8	0.00e+00	0	46	0	3084910592	60	8820
2026-01-30 05:56:46.14	299.23	26.45	-46.3	-47.0	24.7	0.00e+00	0	46	0	3092250624	60	8817
2026-01-30 05:56:47.14	298.96	26.37	-46.5	-47.2	24.6	0.00e+00	0	46	0	3099590656	60	8978
2026-01-30 05:56:48.15	298.68	26.29	-46.5	-47.3	24.5	0.00e+00	0	46	0	3106930688	60	9049
2026-01-30 05:56:49.15	298.42	26.21	-46.5	-47.3	24.4	0.00e+00	0	46	0	3114270720	60	9056
2026-01-30 05:56:50.16	298.15	26.13	-46.6	-47.4	24.4	0.00e+00	0	46	0	3121610752	60	9198
2026-01-30 05:56:51.17	297.88	26.05	-46.7	-47.5	24.5	0.00e+00	0	46	0	3128950784	60	9257
2026-01-30 05:56:52.17	297.62	25.96	-46.9	-47.7	24.5	0.00e+00	0	46	0	3136290816	60	9459
2026-01-30 05:56:53.18	297.35	25.88	-46.8	-47.6	23.9	0.00e+00	0	46	0	3143630848	60	9399
2026-01-30 05:56:54.18	297.09	25.80	-46.8	-47.6	24.3	0.00e+00	0	46	0	3150970880	60	9429
2026-01-30 05:56:55.19	296.83	25.72	-47.0	-47.8	24.1	0.00e+00	0	46	0	3158310912	60	9644
2026-01-30 05:56:56.20	296.57	25.63	-47.1	-48.0	24.2	0.00e+00	0	46	0	3165650944	60	9791
2026-01-30 05:56:57.20	296.31	25.55	-47.4	-48.3	23.8	0.00e+00	0	46	0	3172990976	60	10149
2026-01-30 05:56:58.20	296.05	25.47	-47.5	-48.3	23.7	0.00e+00	0	46	0	3179282432	60	10184
2026-01-30 05:56:59.21	295.80	25.38	-47.6	-48.5	23.6	0.00e+00	0	46	0	3186622464	60	10369
2026-01-30 05:57:00.22	295.54	25.30	-47.9	-48.7	23.4	0.00e+00	0	46	0	3193962496	60	10674
2026-01-30 05:57:01.22	295.29	25.21	-48.2	-49.1	23.1	0.00e+00	0	46	0	3201302528	60	11177
2026-01-30 05:57:02.23	295.04	25.13	-48.5	-49.3	22.8	0.00e+00	0	46	0	3208642560	60	11495
2026-01-30 05:57:03.24	294.79	25.04	-48.6	-49.5	22.7	0.00e+00	0	46	0	3215982592	60	11632
2026-01-30 05:57:04.25	294.54	24.95	-48.8	-49.7	22.4	0.00e+00	0	46	0	3223322624	60	11934
2026-01-30 05:57:05.26	294.29	24.87	-49.0	-50.0	22.2	0.00e+00	0	46	0	3230662656	60	12322
2026-01-30 05:57:06.26	294.04	24.78	-49.0	-49.9	22.3	0.00e+00	0	46	0	3236954112	60	12200
2026-01-30 05:57:07.27	293.80	24.69	-49.1	-49.9	22.2	0.00e+00	0	46	0	3245342720	60	12296
2026-01-30 05:57:08.28	293.55	24.60	-49.4	-50.3	21.8	0.00e+00	0	46	0	3252682752	60	12866
2026-01-30 05:57:09.29	293.31	24.52	-49.4	-50.3	22.0	0.00e+00	0	46	0	3260022784	60	12887
2026-01-30 05:57:10.30	293.07	24.43	-49.7	-50.6	21.6	0.00e+00	0	46	0	3267362816	60	13283
2026-01-30 05:57:11.30	292.83	24.34	-49.8	-50.7	21.5	0.00e+00	0	46	0	3274702848	60	13423
2026-01-30 05:57:12.31	292.59	24.25	-49.6	-50.6	21.7	0.00e+00	0	46	0	3280994304	60	13207
2026-01-30 05:57:13.32	292.35	24.16	-49.9	-50.9	21.1	0.00e+00	0	46	0	3288334336	60	13729
2026-01-30 05:57:14.32	292.12	24.07	-50.3	-51.4	20.7	0.00e+00	0	46	0	3295674368	60	14486
2026-01-30 05:57:15.33	291.88	23.99	-50.8	-51.8	20.3	0.00e+00	0	46	0	3303014400	60	15251
2026-01-30 05:57:16.34	291.65	23.90	-51.6	-52.7	19.7	0.00e+00	0	46	0	3310354432	60	16978
2026-01-30 05:57:17.35	291.42	23.81	-52.1	-53.4	18.9	0.00e+00	0	46	0	3317694464	60	18395
2026-01-30 05:57:18.35	291.19	23.72	-52.6	-54.0	18.1	0.00e+00	0	46	0	3325034496	60	19749
2026-01-30 05:57:19.36	290.96	23.63	-52.9	-54.4	17.4	0.00e+00	0	46	0	3332374528	60	20549
2026-01-30 05:57:20.36	290.73	23.54	-53.8	-55.6	16.9	0.00e+00	0	46	0	3339714560	60	23660
2026-01-30 05:57:21.37	290.51	23.45	-54.6	-56.8	15.5	0.00e+00	0	46	0	3347054592	60	27113
2026-01-30 05:57:22.38	290.28	23.36	-54.9	-57.3	14.7	0.00e+00	0	46	0	3354394624	60	28587
2026-01-30 05:57:23.38	290.06	23.27	-55.2	-57.8	14.1	0.00e+00	0	46	0	3361734656	60	30326
2026-01-30 05:57:24.38	289.84	23.18	-55.6	-58.5	13.5	2.40e-05	0	46	0	3369074688	60	32951
2026-01-30 05:57:25.39	289.62	23.08	-55.8	-59.0	13.2	1.83e-05	0	46	0	3376414720	60	34903
2026-01-30 05:57:26.40	289.40	22.99	-56.0	-59.3	12.8	4.69e-05	0	46	0	3383754752	60	36105
2026-01-30 05:57:27.41	289.18	22.90	-56.1	-59.7	11.9	2.57e-04	0	46	0	3390046208	60	37763
2026-01-30 05:57:28.41	288.96	22.81	-56.3	-60.1	12.2	6.16e-04	0	46	0	3397386240	60	39495
2026-01-30 05:57:29.42	288.74	22.72	-56.7	-60.8	11.1	1.35e-03	0	46	0	3404726272	60	43166
2026-01-30 05:57:30.43	288.53	22.63	-56.7	-60.8	10.8	1.53e-03	0	46	0	3412066304	60	42859
2026-01-30 05:57:31.44	288.32	22.54	-56.7	-60.7	10.6	5.83e-03	0	46	0	3419406336	60	42610
2026-01-30 05:57:32.44	288.11	22.44	-57.1	-61.7	9.9	6.85e-03	0	46	0	3426746368	60	47828
2026-01-30 05:57:33.45	287.89	22.35	-57.1	-61.8	9.6	9.52e-03	0	46	0	3434086400	60	48028
2026-01-30 05:57:34.46	287.68	22.26	-57.1	-61.7	9.7	1.41e-02	0	46	0	3441426432	60	47762
2026-01-30 05:57:35.47	287.47	22.17	-57.3	-62.2	9.4	1.67e-02	0	46	0	3447717888	60	50685
2026-01-30 05:57:36.47	287.27	22.08	-57.3	-62.4	9.1	1.61e-02	0	46	0	3456106496	60	51931
2026-01-30 05:57:37.48	287.06	21.98	-57.5	-62.9	8.6	2.76e-02	0	46	0	3463446528	60	54553
2026-01-30 05:57:38.48	286.86	21.89	-57.4	-62.8	8.6	4.62e-02	0	46	0	3470786560	60	53890
2026-01-30 05:57:39.49	286.66	21.80	-57.6	-63.2	8.1	5.58e-02	0	46	0	3478126592	60	56460
2026-01-30 05:57:40.49	286.45	21.71	-57.6	-63.2	8.0	5.42e-02	0	46	0	3485466624	60	56433
2026-01-30 05:57:41.50	286.25	21.62	-57.5	-63.0	7.9	7.24e-02	0	46	0	3491758080	60	55406
2026-01-30 05:57:42.50	286.06	21.52	-57.7	-63.7	7.6	8.59e-02	0	46	0	3499098112	60	60326
2026-01-30 05:57:43.51	285.86	21.43	-57.7	-63.9	7.0	1.22e-01	0	46	0	3506438144	60	61702
2026-01-30 05:57:44.51	285.66	21.34	-57.7	-64.0	6.9	1.63e-01	0	46	0	3513778176	60	62433
2026-01-30 05:57:45.52	285.46	21.25	-57.7	-64.3	6.8	1.90e-01	0	46	0	3521118208	60	63957
2026-01-30 05:57:46.52	285.27	21.15	-57.7	-64.3	6.5	2.04e-01	0	46	0	3528458240	60	64521
2026-01-30 05:57:47.53	285.08	21.06	-57.7	-64.4	6.4	2.13e-01	0	46	0	3535798272	60	65231
2026-01-30 05:57:48.54	284.88	20.97	-57.8	-64.6	10.2	3.80e-01	0	46	0	3543138304	60	66312
2026-01-30 05:57:49.54	284.69	20.88	-46.2	-46.9	24.4	0.00e+00	0	46	0	3549429760	60	8711
2026-01-30 05:57:50.55	284.50	20.78	-54.3	-56.2	16.8	2.05e-05	0	46	0	3556769792	60	25200
2026-01-30 05:57:51.56	284.31	20.69	-49.7	-50.6	22.1	0.00e+00	0	46	0	3564109824	60	13312
2026-01-30 05:57:52.57	284.12	20.60	-47.9	-48.8	22.8	0.00e+00	0	46	0	3571449856	60	10756
2026-01-30 05:57:53.57	283.94	20.51	-48.2	-49.0	22.8	0.00e+00	0	46	0	3579838464	60	11032
2026-01-30 05:57:54.58	283.75	20.41	-48.2	-49.0	22.7	0.00e+00	0	46	0	3587178496	60	11061
2026-01-30 05:57:55.58	283.57	20.32	-48.5	-49.4	22.3	0.00e+00	0	46	0	3593469952	60	11566
2026-01-30 05:57:56.59	283.38	20.23	-48.8	-49.7	22.0	0.00e+00	0	46	0	3600809984	60	11981
2026-01-30 05:57:57.60	283.20	20.14	-49.1	-50.0	21.8	0.00e+00	0	46	0	3608150016	60	12335
2026-01-30 05:57:58.61	283.02	20.04	-49.2	-50.1	21.9	0.00e+00	0	46	0	3615490048	60	12567
2026-01-30 05:57:59.62	282.84	19.95	-49.7	-50.7	21.1	0.00e+00	0	46	0	3622830080	60	13364
2026-01-30 05:58:00.62	282.66	19.86	-49.9	-50.9	20.8	0.00e+00	0	46	0	3630170112	60	13680
2026-01-30 05:58:01.63	282.48	19.77	-50.0	-51.0	20.6	0.00e+00	0	46	0	3637510144	60	13971
2026-01-30 05:58:02.63	282.31	19.68	-49.7	-50.7	20.9	0.00e+00	0	46	0	3644850176	60	13435
2026-01-30 05:58:03.64	282.13	19.58	-49.8	-50.8	20.9	0.00e+00	0	46	0	3651141632	60	13594
2026-01-30 05:58:04.65	281.96	19.49	-49.9	-50.9	20.8	0.00e+00	0	46	0	3658481664	60	13795
2026-01-30 05:58:05.66	281.78	19.40	-50.0	-51.0	20.7	0.00e+00	0	46	0	3665821696	60	13950
2026-01-30 05:58:06.66	281.61	19.31	-50.3	-51.4	20.3	0.00e+00	0	46	0	3673161728	60	14486
2026-01-30 05:58:07.67	281.44	19.22	-50.2	-51.3	20.3	0.00e+00	0	46	0	3681550336	60	14376
2026-01-30 05:58:08.68	281.27	19.12	-50.3	-51.4	20.3	0.00e+00	0	46	0	3688890368	60	14563
2026-01-30 05:58:09.68	281.10	19.03	-50.7	-51.8	19.9	0.00e+00	0	46	0	3695181824	60	15239
2026-01-30 05:58:10.69	280.93	18.94	-50.7	-51.8	19.7	0.00e+00	0	46	0	3702521856	60	15252
2026-01-30 05:58:11.70	280.76	18.85	-51.4	-52.6	19.2	0.00e+00	0	46	0	3709861888	60	16667
2026-01-30 05:58:12.71	280.59	18.76	-51.9	-53.2	18.2	0.00e+00	0	46	0	3717201920	60	17884
2026-01-30 05:58:13.71	280.43	18.67	-52.3	-53.7	17.7	0.00e+00	0	46	0	3724541952	60	18958
2026-01-30 05:58:14.72	280.27	18.57	-53.1	-54.8	17.2	0.00e+00	0	46	0	3731881984	60	21413
2026-01-30 05:58:15.73	280.10	18.48	-53.8	-55.6	15.7	0.00e+00	0	46	0	3739222016	60	23673
2026-01-30 05:58:16.73	279.94	18.39	-54.1	-56.0	15.2	0.00e+00	0	46	0	3746562048	60	24834
2026-01-30 05:58:17.74	279.78	18.30	-54.9	-57.1	14.7	1.10e-06	0	46	0	3753902080	60	28094
2026-01-30 05:58:18.74	279.62	18.21	-55.7	-58.5	13.4	9.10e-06	0	46	0	3760193536	60	33067
2026-01-30 05:58:19.75	279.46	18.12	-56.1	-59.2	12.2	1.19e-04	0	46	0	3767533568	60	35734
2026-01-30 05:58:20.75	279.30	18.03	-56.2	-59.4	11.7	9.76e-04	0	46	0	3774873600	60	36593
2026-01-30 05:58:21.76	279.14	17.94	-56.7	-60.3	11.0	1.20e-03	0	46	0	3782213632	60	40716
2026-01-30 05:58:22.76	278.99	17.85	-56.7	-60.4	10.7	2.79e-03	0	46	0	3789553664	60	40984
2026-01-30 05:58:23.76	278.83	17.76	-56.8	-60.6	10.3	7.50e-03	0	46	0	3796893696	60	41989
2026-01-30 05:58:24.77	278.68	17.67	-57.1	-61.1	10.0	1.62e-02	0	46	0	3804233728	60	44464
2026-01-30 05:58:25.78	278.52	17.58	-57.5	-62.1	8.6	2.89e-02	0	46	0	3811573760	60	50023
2026-01-30 05:58:26.79	278.37	17.49	-57.6	-62.4	8.4	3.03e-02	0	46	0	3818913792	60	51527
2026-01-30 05:58:27.80	278.22	17.40	-57.6	-62.3	8.5	6.44e-02	0	46	0	3826253824	60	50820
2026-01-30 05:58:28.80	278.07	17.31	-58.0	-63.6	6.9	7.80e-02	0	46	0	3833593856	60	59173
2026-01-30 05:58:29.81	277.92	17.22	-58.2	-64.0	6.5	1.61e-01	0	46	0	3840933888	60	62150
2026-01-30 05:58:30.82	277.77	17.13	-58.1	-63.7	6.6	2.71e-01	0	46	0	3848273920	60	60257
2026-01-30 05:58:31.82	277.62	17.04	-58.4	-64.8	5.5	3.28e-01	0	46	0	3855613952	60	68401
2026-01-30 05:58:32.83	277.47	16.95	-58.6	-65.5	5.0	5.80e-01	0	46	0	3860856832	60	73494
2026-01-30 05:58:33.84	277.33	16.86	-58.7	-66.4	4.4	7.63e-01	0	46	0	3861905408	60	81630
2026-01-30 05:58:34.85	277.18	16.77	-57.8	-62.6	8.1	4.65e-01	0	46	0	3864002560	60	52638
2026-01-30 05:58:35.85	277.04	16.68	-47.8	-48.6	22.7	0.00e+00	0	46	0	3871342592	60	10555
2026-01-30 05:58:36.86	276.89	16.59	-50.5	-51.6	19.8	0.00e+00	0	46	0	3878682624	60	14925
2026-01-30 05:58:37.86	276.75	16.51	-47.8	-48.6	22.6	0.00e+00	0	46	0	3884974080	60	10606
2026-01-30 05:58:38.87	276.61	16.42	-48.3	-49.2	22.3	0.00e+00	0	46	0	3893362688	60	11287
2026-01-30 05:58:39.88	276.47	16.33	-48.4	-49.3	22.1	0.00e+00	0	46	0	3900702720	60	11428
2026-01-30 05:58:40.88	276.33	16.24	-48.6	-49.5	22.0	0.00e+00	0	46	0	3908042752	60	11715
2026-01-30 05:58:41.89	276.19	16.15	-48.7	-49.7	21.8	0.00e+00	0	46	0	3915382784	60	11925
2026-01-30 05:58:42.90	276.05	16.07	-48.9	-49.8	21.7	0.00e+00	0	46	0	3922722816	60	12088
2026-01-30 05:58:43.90	275.91	15.98	-49.2	-50.1	21.3	0.00e+00	0	46	0	3929014272	60	12594
2026-01-30 05:58:44.90	275.77	15.89	-49.3	-50.3	21.1	0.00e+00	0	46	0	3936354304	60	12827
2026-01-30 05:58:45.91	275.64	15.80	-49.6	-50.6	20.9	0.00e+00	0	46	0	3943694336	60	13232
2026-01-30 05:58:46.92	275.50	15.72	-50.2	-51.2	20.0	0.00e+00	0	46	0	3951034368	60	14280
2026-01-30 05:58:47.92	275.37	15.63	-50.6	-51.7	19.7	0.00e+00	0	46	0	3958374400	60	15008
2026-01-30 05:58:48.93	275.23	15.54	-50.7	-51.9	19.4	0.00e+00	0	46	0	3965714432	60	15351
2026-01-30 05:58:49.93	275.10	15.46	-51.2	-52.4	19.1	0.00e+00	0	46	0	3973054464	60	16340
2026-01-30 05:58:50.94	274.97	15.37	-51.5	-52.8	18.5	0.00e+00	0	46	0	3980394496	60	17116
2026-01-30 05:58:51.94	274.84	15.28	-51.6	-52.9	18.2	0.00e+00	0	46	0	3987734528	60	17388
2026-01-30 05:58:52.94	274.71	15.20	-52.1	-53.5	17.8	0.00e+00	0	46	0	3994025984	60	18599
2026-01-30 05:58:53.95	274.58	15.11	-52.7	-54.2	16.9	0.00e+00	0	46	0	4001366016	60	20193
2026-01-30 05:58:54.95	274.45	15.02	-53.1	-54.7	16.3	0.00e+00	0	46	0	4008706048	60	21322
2026-01-30 05:58:55.96	274.32	14.94	-53.3	-55.0	15.9	0.00e+00	0	46	0	4016046080	60	21943
2026-01-30 05:58:56.97	274.19	14.85	-53.1	-54.8	16.5	0.00e+00	0	46	0	4024434688	60	21463
2026-01-30 05:58:57.98	274.07	14.77	-52.4	-53.8	17.5	0.00e+00	0	46	0	4031774720	60	19284
2026-01-30 05:58:58.98	273.94	14.68	-52.0	-53.4	18.0	0.00e+00	0	46	0	4038066176	60	18226
2026-01-30 05:58:59.99	273.81	14.60	-51.9	-53.2	18.1	0.00e+00	0	46	0	4045406208	60	17965
2026-01-30 05:59:01.00	273.69	14.51	-52.4	-53.9	17.6	0.00e+00	0	46	0	4052746240	60	19366
2026-01-30 05:59:02.00	273.57	14.43	-52.7	-54.3	17.1	0.00e+00	0	46	0	4060086272	60	20226
2026-01-30 05:59:03.00	273.44	14.34	-52.9	-54.4	17.0	0.00e+00	0	46	0	4067426304	60	20573
2026-01-30 05:59:04.01	273.32	14.26	-52.9	-54.5	16.9	0.00e+00	0	46	0	4074766336	60	20791
2026-01-30 05:59:05.01	273.20	14.17	-53.1	-54.7	16.7	0.00e+00	0	46	0	4082106368	60	21257
2026-01-30 05:59:06.02	273.08	14.09	-53.2	-54.8	16.5	0.00e+00	0	46	0	4089446400	60	21483
2026-01-30 05:59:07.02	272.96	14.00	-53.4	-55.0	16.1	0.00e+00	0	46	0	4095737856	60	22140
2026-01-30 05:59:08.03	272.84	13.92	-53.9	-55.7	15.4	0.00e+00	0	46	0	4103077888	60	24009
2026-01-30 05:59:09.03	272.72	13.84	-54.2	-56.2	14.7	0.00e+00	0	46	0	4110417920	60	25222
2026-01-30 05:59:10.04	272.60	13.75	-54.8	-57.1	14.3	0.00e+00	0	46	0	4117757952	60	28036
2026-01-30 05:59:11.04	272.48	13.67	-55.2	-57.6	13.3	0.00e+00	0	46	0	4125097984	60	29861
2026-01-30 05:59:12.05	272.37	13.59	-55.3	-57.8	12.9	2.17e-05	0	46	0	4132438016	60	30424
2026-01-30 05:59:13.06	272.25	13.50	-55.9	-58.8	12.4	1.46e-04	0	46	0	4139778048	60	34186
2026-01-30 05:59:14.07	272.13	13.42	-56.4	-59.7	11.0	4.36e-04	0	46	0	4147118080	60	37861
2026-01-30 05:59:15.07	272.02	13.34	-56.9	-60.7	9.9	3.80e-03	0	46	0	4154458112	60	42375
2026-01-30 05:59:16.08	271.90	13.25	-57.2	-61.3	9.2	2.21e-02	0	46	0	4161798144	60	45648
2026-01-30 05:59:17.09	271.79	13.17	-57.6	-62.4	8.4	3.43e-02	0	46	0	4169138176	60	51620
2026-01-30 05:59:18.09	271.68	13.09	-57.6	-62.3	8.6	4.35e-02	0	46	0	4176478208	60	51161
2026-01-30 05:59:19.10	271.57	13.01	-57.6	-62.5	8.1	5.31e-02	0	46	0	4183818240	60	52164
2026-01-30 05:59:20.10	271.45	12.93	-57.7	-62.9	7.6	8.73e-02	0	46	0	4191158272	60	54409
2026-01-30 05:59:21.11	271.34	12.84	-57.8	-62.9	7.4	1.29e-01	0	46	0	4198498304	60	54716
2026-01-30 05:59:22.11	271.23	12.76	-58.0	-63.5	6.7	1.24e-01	0	46	0	4204789760	60	58625
2026-01-30 05:59:23.12	271.12	12.68	-58.0	-63.6	6.4	1.78e-01	0	46	0	4212129792	60	59630
2026-01-30 05:59:24.12	271.01	12.60	-58.0	-63.6	6.3	2.62e-01	0	46	0	4219469824	60	59535
2026-01-30 05:59:25.13	270.91	12.52	-58.2	-64.2	5.5	3.59e-01	0	46	0	4226809856	60	63505
2026-01-30 05:59:26.13	270.80	12.44	-49.5	-50.5	20.6	0.00e+00	0	46	0	4234149888	60	13075
2026-01-30 05:59:27.14	270.69	12.36	-55.0	-57.4	13.5	1.10e-06	0	46	0	4241489920	60	29145
2026-01-30 05:59:28.15	270.58	12.28	-48.9	-49.8	21.3	0.00e+00	0	46	0	4248829952	60	12129
2026-01-30 05:59:29.16	270.48	12.19	-57.3	-62.0	8.7	8.01e-05	0	46	0	4255121408	60	49344
2026-01-30 05:59:30.16	270.37	12.11	-49.0	-50.0	21.1	0.00e+00	0	46	0	4262461440	60	12320
2026-01-30 05:59:31.17	270.27	12.03	-49.3	-50.3	20.9	0.00e+00	0	46	0	4270850048	60	12770
2026-01-30 05:59:32.18	270.16	11.95	-49.5	-50.5	20.5	0.00e+00	0	46	0	4278190080	60	13185
2026-01-30 05:59:33.19	270.06	11.87	-49.7	-50.7	20.3	0.00e+00	0	46	0	4285530112	60	13448
2026-01-30 05:59:34.20	269.95	11.79	-49.8	-50.9	20.2	0.00e+00	0	46	0	4292870144	60	13692
2026-01-30 05:59:35.21	269.85	11.71	-49.8	-50.9	20.2	0.00e+00	0	46	0	4299161600	60	13718
2026-01-30 05:59:36.22	269.75	11.63	-50.0	-51.1	19.9	0.00e+00	0	46	0	4306501632	60	14026
2026-01-30 05:59:37.22	269.65	11.56	-50.3	-51.4	19.6	0.00e+00	0	46	0	4313841664	60	14550
