passes_logs/2026/01/30/R3.2S-Naryan-Mar/R3.2S-Naryan-Mar__20260130_104215_FENGYUN_3D_rec.log

#Pass ID: 20260130_104215_FENGYUN 3D
#Satellite: FENGYUN 3D
#Configuration: FENGYUN 3D
#almurnet v.1.7.20240730
#Start time: 2026-01-30 10:42:16

#Version: 2.2.20231116
#Station: R3.2S-Naryan-Mar
#Location: 53.008057 lon 67.646978 lat
#TLE: 1 43010U 17072A   26029.52179110  .00000394  00000+0  20818-3 0  9997
#TLE: 2 43010  98.9957   1.5649 0002507  83.7772 276.3689 14.19703315425310

#Time	Az	El	Level	Level2	SNR	BER	BlckErr	Temp	State	Recorded	gain1	gain2
2026-01-30 10:42:16.95	161.05	0.11	-57.3	-78.7	3.5	3.02e+01	0	42	0	0	60	325883
2026-01-30 10:42:17.95	161.06	0.17	-59.0	-74.4	3.6	8.46e-01	0	43	104	0	60	206431
2026-01-30 10:42:18.96	161.07	0.23	-57.2	-73.9	3.6	8.44e-01	0	43	104	0	60	193563
2026-01-30 10:42:19.96	161.09	0.29	-57.2	-73.9	3.6	8.44e-01	0	43	104	0	60	193512
2026-01-30 10:42:20.96	161.10	0.35	-59.1	-74.8	3.6	8.44e-01	0	44	104	0	60	214951
2026-01-30 10:42:21.97	161.11	0.41	-60.1	-75.0	3.6	8.46e-01	0	44	104	0	60	219503
2026-01-30 10:42:22.98	161.12	0.47	-60.7	-75.0	3.6	8.45e-01	0	43	104	0	60	220849
2026-01-30 10:42:23.98	161.14	0.53	-61.1	-75.1	3.6	8.44e-01	0	44	104	0	60	222545
2026-01-30 10:42:24.98	161.15	0.59	-61.3	-75.1	3.6	8.46e-01	0	44	104	0	60	223068
2026-01-30 10:42:25.99	161.16	0.65	-61.6	-75.3	3.6	8.46e-01	0	44	104	0	60	227919
2026-01-30 10:42:26.99	161.17	0.71	-61.7	-75.3	3.6	8.46e-01	0	44	104	0	60	227305
2026-01-30 10:42:27.99	161.19	0.78	-61.9	-75.4	3.6	8.45e-01	0	44	104	0	60	231840
2026-01-30 10:42:29.00	161.20	0.84	-62.1	-75.5	3.6	8.45e-01	0	44	104	0	60	233888
2026-01-30 10:42:30.01	161.21	0.90	-62.2	-75.5	3.6	8.46e-01	0	44	104	0	60	233984
2026-01-30 10:42:31.01	161.23	0.96	-62.1	-75.4	3.6	8.46e-01	0	44	104	0	60	230708
2026-01-30 10:42:32.02	161.24	1.02	-61.9	-75.2	3.6	8.46e-01	0	44	104	0	60	225470
2026-01-30 10:42:33.02	161.25	1.09	-61.8	-75.1	3.6	8.46e-01	0	44	104	0	60	223845
2026-01-30 10:42:34.03	161.26	1.15	-61.8	-75.1	3.6	8.45e-01	0	44	104	0	60	223534
2026-01-30 10:42:35.04	161.28	1.21	-61.8	-75.2	3.6	8.45e-01	0	44	104	0	60	225799
2026-01-30 10:42:36.05	161.29	1.27	-61.9	-75.3	3.6	8.45e-01	0	44	104	0	60	227364
2026-01-30 10:42:37.05	161.30	1.34	-61.8	-75.2	3.6	8.45e-01	0	44	104	0	60	224994
2026-01-30 10:42:38.05	161.32	1.40	-61.8	-75.1	3.6	8.45e-01	0	44	104	0	60	222659
2026-01-30 10:42:39.06	161.33	1.46	-61.5	-74.9	3.6	8.45e-01	0	44	104	0	60	216633
2026-01-30 10:42:40.06	161.34	1.53	-61.3	-74.6	3.6	8.45e-01	0	44	104	0	60	210507
2026-01-30 10:42:41.07	161.36	1.59	-61.2	-74.5	3.6	8.45e-01	0	44	104	0	60	208109
2026-01-30 10:42:42.07	161.37	1.65	-60.8	-74.2	3.6	8.45e-01	0	44	104	0	60	200363
2026-01-30 10:42:43.08	161.38	1.72	-60.8	-74.2	3.6	8.46e-01	0	44	104	0	60	200532
2026-01-30 10:42:44.09	161.40	1.78	-60.6	-74.1	3.6	8.45e-01	0	44	104	0	60	198884
2026-01-30 10:42:45.09	161.41	1.84	-60.5	-73.9	3.6	8.45e-01	0	44	104	0	60	194584
2026-01-30 10:42:46.10	161.42	1.91	-60.4	-73.8	3.6	8.45e-01	0	44	104	0	60	191790
2026-01-30 10:42:47.10	161.44	1.97	-60.1	-73.6	3.6	8.45e-01	0	44	104	0	60	187989
2026-01-30 10:42:48.11	161.45	2.04	-59.8	-73.5	3.6	8.46e-01	0	44	104	0	60	185419
2026-01-30 10:42:49.12	161.46	2.10	-59.8	-73.0	3.6	8.45e-01	0	44	104	0	60	175934
2026-01-30 10:42:50.13	161.48	2.17	-59.6	-73.0	3.6	8.44e-01	0	44	104	0	60	174684
2026-01-30 10:42:51.13	161.49	2.23	-59.2	-72.6	3.6	8.45e-01	0	44	104	0	60	167304
2026-01-30 10:42:52.13	161.50	2.30	-58.5	-72.1	3.6	8.46e-01	0	44	104	0	60	157801
2026-01-30 10:42:53.14	161.52	2.36	-58.2	-71.7	3.6	8.46e-01	0	44	104	0	60	151444
2026-01-30 10:42:54.15	161.53	2.43	-57.4	-71.4	3.6	8.44e-01	0	44	104	0	60	144933
2026-01-30 10:42:55.15	161.55	2.49	-57.5	-71.1	3.6	8.46e-01	0	44	104	0	60	141262
2026-01-30 10:42:56.16	161.56	2.56	-57.4	-71.1	3.6	8.45e-01	0	44	104	0	60	140740
2026-01-30 10:42:57.16	161.57	2.62	-57.3	-71.0	3.6	8.45e-01	0	44	104	0	60	138992
2026-01-30 10:42:58.17	161.59	2.69	-57.3	-70.9	3.6	8.46e-01	0	44	104	0	60	137729
2026-01-30 10:42:59.18	161.60	2.75	-57.2	-71.0	3.6	8.46e-01	0	44	104	0	60	138244
2026-01-30 10:43:00.18	161.62	2.82	-57.2	-71.0	3.6	8.46e-01	0	44	104	0	60	138440
2026-01-30 10:43:01.19	161.63	2.89	-57.2	-70.8	3.6	8.45e-01	0	44	104	0	60	135905
2026-01-30 10:43:02.19	161.64	2.95	-57.2	-70.8	3.6	8.45e-01	0	44	104	0	60	135543
2026-01-30 10:43:03.20	161.66	3.02	-57.2	-70.6	3.6	8.46e-01	0	44	104	0	60	132178
2026-01-30 10:43:04.21	161.67	3.09	-57.2	-70.5	3.6	8.46e-01	0	44	104	0	60	130935
2026-01-30 10:43:05.21	161.69	3.15	-57.2	-70.4	3.6	8.46e-01	0	44	104	0	60	129175
2026-01-30 10:43:06.22	161.70	3.22	-57.1	-70.2	3.6	8.45e-01	0	44	104	0	60	126930
2026-01-30 10:43:07.23	161.72	3.29	-57.1	-70.1	3.6	8.46e-01	0	44	104	0	60	124660
2026-01-30 10:43:08.23	161.73	3.36	-57.0	-69.8	3.6	8.45e-01	0	44	104	0	60	121534
2026-01-30 10:43:09.24	161.75	3.42	-57.0	-69.8	3.6	8.46e-01	0	44	104	0	60	120833
2026-01-30 10:43:10.25	161.76	3.49	-57.0	-69.8	3.6	8.45e-01	0	45	104	0	60	121592
2026-01-30 10:43:11.26	161.78	3.56	-57.0	-70.1	3.6	8.45e-01	0	44	104	0	60	124899
2026-01-30 10:43:12.26	161.79	3.63	-57.0	-70.1	3.6	8.45e-01	0	44	104	0	60	125763
2026-01-30 10:43:13.27	161.80	3.70	-57.0	-70.4	3.6	8.45e-01	0	44	104	0	60	129402
2026-01-30 10:43:14.28	161.82	3.77	-57.0	-70.5	3.6	8.45e-01	0	44	104	0	60	131371
2026-01-30 10:43:15.29	161.83	3.83	-57.0	-70.4	3.6	8.45e-01	0	44	104	0	60	130030
2026-01-30 10:43:16.29	161.85	3.90	-57.0	-70.3	3.6	8.46e-01	0	44	104	0	60	128548
2026-01-30 10:43:17.30	161.86	3.97	-57.0	-70.2	3.6	8.45e-01	0	44	104	0	60	127137
2026-01-30 10:43:18.30	161.88	4.04	-56.9	-70.0	3.6	8.46e-01	0	44	104	0	60	123851
2026-01-30 10:43:19.31	161.89	4.11	-56.9	-69.8	3.6	8.45e-01	0	44	104	0	60	121764
2026-01-30 10:43:20.32	161.91	4.18	-56.9	-70.2	3.6	8.45e-01	0	44	104	0	60	126907
2026-01-30 10:43:21.33	161.93	4.25	-56.9	-70.4	3.6	8.45e-01	0	44	104	0	60	129423
2026-01-30 10:43:22.33	161.94	4.32	-57.0	-70.3	3.6	8.45e-01	0	44	104	0	60	128253
2026-01-30 10:43:23.34	161.96	4.39	-56.9	-69.7	3.6	8.44e-01	0	44	104	0	60	119684
2026-01-30 10:43:24.35	161.97	4.46	-56.8	-68.2	3.8	8.45e-01	0	44	104	0	60	100215
2026-01-30 10:43:25.35	161.99	4.53	-56.5	-64.5	4.5	8.19e-01	0	44	0	0	60	65466
2026-01-30 10:43:26.36	162.00	4.60	-56.1	-62.2	6.6	4.47e-01	0	44	0	2097152	60	50762
2026-01-30 10:43:27.37	162.02	4.67	-55.3	-60.0	9.2	5.29e-02	0	44	0	8388608	60	39350
2026-01-30 10:43:28.38	162.03	4.74	-54.6	-58.3	11.3	3.06e-03	0	44	0	14680064	60	32110
2026-01-30 10:43:29.38	162.05	4.81	-53.8	-56.7	13.0	2.02e-04	0	45	0	19922944	60	26844
2026-01-30 10:43:30.39	162.07	4.89	-52.9	-55.3	14.4	4.50e-06	0	45	0	25165824	60	22866
2026-01-30 10:43:31.40	162.08	4.96	-52.1	-54.1	15.6	0.00e+00	0	44	0	31457280	60	19902
2026-01-30 10:43:32.41	162.10	5.03	-51.5	-53.3	16.5	0.00e+00	0	44	0	36700160	60	18022
2026-01-30 10:43:33.41	162.11	5.10	-50.8	-52.4	17.4	0.00e+00	0	44	0	41943040	60	16307
2026-01-30 10:43:34.42	162.13	5.17	-50.3	-51.7	18.0	0.00e+00	0	44	0	48234496	60	15081
2026-01-30 10:43:35.43	162.15	5.25	-49.9	-51.2	18.4	0.00e+00	0	45	0	53477376	60	14302
2026-01-30 10:43:36.44	162.16	5.32	-49.6	-50.9	18.7	0.00e+00	0	44	0	59768832	60	13821
2026-01-30 10:43:37.44	162.18	5.39	-49.5	-50.9	18.8	0.00e+00	0	44	0	65011712	60	13692
2026-01-30 10:43:38.45	162.19	5.46	-49.6	-51.0	18.7	0.00e+00	0	44	0	70254592	60	13824
2026-01-30 10:43:39.46	162.21	5.54	-49.9	-51.2	18.3	0.00e+00	0	44	0	76546048	60	14287
2026-01-30 10:43:40.47	162.23	5.61	-50.3	-51.8	17.9	0.00e+00	0	44	0	82837504	60	15163
2026-01-30 10:43:41.48	162.24	5.69	-50.7	-52.3	17.3	0.00e+00	0	44	0	88080384	60	16217
2026-01-30 10:43:42.48	162.26	5.76	-51.4	-53.2	16.4	0.00e+00	0	44	0	93323264	60	18007
2026-01-30 10:43:43.49	162.28	5.83	-52.2	-54.3	15.4	0.00e+00	0	44	0	99614720	60	20233
2026-01-30 10:43:44.50	162.29	5.91	-53.0	-55.5	14.0	0.00e+00	0	44	0	104857600	60	23418
2026-01-30 10:43:45.50	162.31	5.98	-53.8	-56.8	12.5	4.80e-05	0	45	0	110100480	60	27215
2026-01-30 10:43:46.51	162.33	6.06	-54.1	-57.4	13.5	1.61e-03	0	45	0	116391936	60	28962
2026-01-30 10:43:47.52	162.34	6.13	-49.2	-50.5	19.0	0.00e+00	0	45	0	121634816	60	13153
2026-01-30 10:43:48.52	162.36	6.21	-50.5	-52.1	16.6	0.00e+00	0	44	0	126877696	60	15735
2026-01-30 10:43:49.53	162.38	6.28	-56.6	-68.6	3.9	8.44e-01	0	44	104	128974848	60	106041
2026-01-30 10:43:50.54	162.39	6.36	-52.5	-54.7	16.1	3.66e-05	0	45	0	2097152	60	21215
2026-01-30 10:43:51.54	162.41	6.43	-49.0	-50.3	19.2	0.00e+00	0	45	0	7340032	60	12850
2026-01-30 10:43:52.55	162.43	6.51	-49.0	-50.4	19.2	0.00e+00	0	45	0	13631488	60	12906
2026-01-30 10:43:53.55	162.45	6.58	-48.9	-50.2	19.4	0.00e+00	0	45	0	18874368	60	12689
2026-01-30 10:43:54.56	162.46	6.66	-49.0	-50.3	19.4	0.00e+00	0	45	0	24117248	60	12763
2026-01-30 10:43:55.56	162.48	6.74	-48.8	-50.0	19.7	0.00e+00	0	44	0	30408704	60	12440
2026-01-30 10:43:56.57	162.50	6.81	-48.6	-49.9	19.8	0.00e+00	0	44	0	36700160	60	12201
2026-01-30 10:43:57.58	162.52	6.89	-48.6	-49.8	19.9	0.00e+00	0	45	0	41943040	60	12067
2026-01-30 10:43:58.59	162.53	6.97	-48.7	-49.9	19.8	0.00e+00	0	45	0	47185920	60	12301
2026-01-30 10:43:59.60	162.55	7.05	-48.6	-49.8	19.9	0.00e+00	0	45	0	53477376	60	12115
2026-01-30 10:44:00.60	162.57	7.12	-48.5	-49.7	20.1	0.00e+00	0	45	0	58720256	60	11929
2026-01-30 10:44:01.61	162.59	7.20	-48.5	-49.7	19.9	0.00e+00	0	45	0	63963136	60	11995
2026-01-30 10:44:02.61	162.61	7.28	-48.7	-49.9	19.8	0.00e+00	0	45	0	70254592	60	12193
2026-01-30 10:44:03.62	162.62	7.36	-48.5	-49.7	20.1	0.00e+00	0	45	0	75497472	60	11987
2026-01-30 10:44:04.62	162.64	7.44	-48.5	-49.6	20.1	0.00e+00	0	44	0	80740352	60	11865
2026-01-30 10:44:05.63	162.66	7.52	-48.5	-49.7	20.0	0.00e+00	0	45	0	87031808	60	11957
2026-01-30 10:44:06.63	162.68	7.60	-48.6	-49.7	20.0	0.00e+00	0	44	0	92274688	60	12022
2026-01-30 10:44:07.64	162.70	7.67	-48.6	-49.7	20.0	0.00e+00	0	45	0	98566144	60	12032
2026-01-30 10:44:08.64	162.71	7.75	-48.4	-49.5	20.2	0.00e+00	0	45	0	103809024	60	11756
2026-01-30 10:44:09.65	162.73	7.83	-48.4	-49.5	20.3	0.00e+00	0	44	0	109051904	60	11729
2026-01-30 10:44:10.64	162.75	7.91	-48.5	-49.6	20.2	0.00e+00	0	45	0	115343360	60	11835
2026-01-30 10:44:11.65	162.77	7.99	-48.5	-49.6	20.2	0.00e+00	0	45	0	120586240	60	11844
2026-01-30 10:44:12.66	162.79	8.07	-48.4	-49.5	20.3	0.00e+00	0	44	0	125829120	60	11695
2026-01-30 10:44:13.66	162.81	8.16	-48.4	-49.5	20.3	0.00e+00	0	45	0	132120576	60	11744
2026-01-30 10:44:14.67	162.83	8.24	-48.4	-49.5	20.4	0.00e+00	0	45	0	138412032	60	11682
2026-01-30 10:44:15.68	162.85	8.32	-48.4	-49.5	20.4	0.00e+00	0	45	0	143654912	60	11671
2026-01-30 10:44:16.68	162.87	8.40	-48.5	-49.6	20.2	0.00e+00	0	45	0	148897792	60	11870
2026-01-30 10:44:17.69	162.88	8.48	-48.4	-49.5	20.5	0.00e+00	0	45	0	155189248	60	11644
2026-01-30 10:44:18.69	162.90	8.56	-48.2	-49.2	20.7	0.00e+00	0	45	0	160432128	60	11357
2026-01-30 10:44:19.70	162.92	8.65	-48.2	-49.2	20.7	0.00e+00	0	45	0	165675008	60	11289
2026-01-30 10:44:20.70	162.94	8.73	-48.2	-49.3	20.6	0.00e+00	0	45	0	171966464	60	11432
2026-01-30 10:44:21.71	162.96	8.81	-48.3	-49.3	20.7	0.00e+00	0	45	0	177209344	60	11473
2026-01-30 10:44:22.71	162.98	8.90	-48.1	-49.2	20.8	0.00e+00	0	45	0	183500800	60	11253
2026-01-30 10:44:23.71	163.00	8.98	-48.3	-49.3	20.6	0.00e+00	0	44	0	188743680	60	11482
2026-01-30 10:44:24.72	163.02	9.06	-48.3	-49.3	20.6	0.00e+00	0	44	0	193986560	60	11426
2026-01-30 10:44:25.73	163.04	9.15	-48.2	-49.2	20.8	0.00e+00	0	45	0	200278016	60	11312
2026-01-30 10:44:26.73	163.06	9.23	-48.1	-49.1	20.9	0.00e+00	0	45	0	205520896	60	11157
2026-01-30 10:44:27.74	163.08	9.32	-48.2	-49.2	20.9	0.00e+00	0	45	0	210763776	60	11267
2026-01-30 10:44:28.75	163.10	9.40	-48.0	-49.0	21.0	0.00e+00	0	45	0	217055232	60	11064
2026-01-30 10:44:29.75	163.12	9.49	-48.0	-49.0	21.0	0.00e+00	0	45	0	222298112	60	11092
2026-01-30 10:44:30.76	163.14	9.57	-48.0	-49.0	21.0	0.00e+00	0	45	0	228589568	60	11078
2026-01-30 10:44:31.76	163.16	9.66	-48.1	-49.1	21.0	0.00e+00	0	45	0	233832448	60	11112
2026-01-30 10:44:32.77	163.18	9.74	-48.0	-49.0	21.1	0.00e+00	0	45	0	240123904	60	11027
2026-01-30 10:44:33.78	163.20	9.83	-48.1	-49.1	21.0	0.00e+00	0	45	0	245366784	60	11120
2026-01-30 10:44:34.78	163.23	9.92	-48.1	-49.0	21.1	0.00e+00	0	45	0	250609664	60	11088
2026-01-30 10:44:35.79	163.25	10.00	-47.9	-48.9	21.2	0.00e+00	0	45	0	256901120	60	10935
2026-01-30 10:44:36.80	163.27	10.09	-48.0	-49.0	21.1	0.00e+00	0	44	0	262144000	60	11055
2026-01-30 10:44:37.81	163.29	10.18	-48.0	-49.0	21.2	0.00e+00	0	45	0	268435456	60	11035
2026-01-30 10:44:38.81	163.31	10.27	-47.9	-48.9	21.3	0.00e+00	0	44	0	273678336	60	10895
2026-01-30 10:44:39.81	163.33	10.36	-47.9	-48.9	21.3	0.00e+00	0	45	0	278921216	60	10941
2026-01-30 10:44:40.82	163.35	10.44	-47.9	-48.9	21.4	0.00e+00	0	45	0	285212672	60	10891
2026-01-30 10:44:41.82	163.37	10.53	-48.0	-49.0	21.2	0.00e+00	0	45	0	290455552	60	10992
2026-01-30 10:44:42.83	163.40	10.62	-48.0	-49.0	21.3	0.00e+00	0	45	0	295698432	60	11009
2026-01-30 10:44:43.84	163.42	10.71	-48.0	-49.0	21.3	0.00e+00	0	45	0	301989888	60	11083
2026-01-30 10:44:44.85	163.44	10.80	-48.0	-49.0	21.4	0.00e+00	0	45	0	307232768	60	11026
2026-01-30 10:44:45.86	163.46	10.89	-48.0	-49.0	21.4	0.00e+00	0	45	0	312475648	60	10997
2026-01-30 10:44:46.86	163.48	10.98	-48.1	-49.1	21.3	0.00e+00	0	45	0	318767104	60	11116
2026-01-30 10:44:47.87	163.51	11.07	-48.0	-49.0	21.4	0.00e+00	0	45	0	325058560	60	11035
2026-01-30 10:44:48.88	163.53	11.17	-48.0	-49.0	21.3	0.00e+00	0	45	0	330301440	60	11048
2026-01-30 10:44:49.89	163.55	11.26	-48.0	-48.9	21.4	0.00e+00	0	45	0	335544320	60	10940
2026-01-30 10:44:50.90	163.57	11.35	-48.0	-49.0	21.3	0.00e+00	0	45	0	341835776	60	10985
2026-01-30 10:44:51.90	163.60	11.44	-48.0	-49.0	21.4	0.00e+00	0	45	0	347078656	60	11025
2026-01-30 10:44:52.90	163.62	11.53	-48.1	-49.0	21.3	0.00e+00	0	45	0	353370112	60	11070
2026-01-30 10:44:53.91	163.64	11.63	-48.0	-49.0	21.4	0.00e+00	0	45	0	358612992	60	10998
2026-01-30 10:44:54.91	163.67	11.72	-48.0	-48.9	21.5	0.00e+00	0	45	0	363855872	60	10960
2026-01-30 10:44:55.92	163.69	11.81	-48.0	-49.0	21.4	0.00e+00	0	45	0	370147328	60	11072
2026-01-30 10:44:56.93	163.71	11.91	-48.0	-48.9	21.5	0.00e+00	0	45	0	375390208	60	10925
2026-01-30 10:44:57.93	163.74	12.00	-48.0	-48.9	21.5	0.00e+00	0	45	0	380633088	60	10979
2026-01-30 10:44:58.94	163.76	12.10	-47.9	-48.8	21.7	0.00e+00	0	45	0	386924544	60	10805
2026-01-30 10:44:59.94	163.78	12.19	-47.8	-48.7	21.7	0.00e+00	0	45	0	392167424	60	10722
2026-01-30 10:45:00.95	163.81	12.29	-47.8	-48.8	21.7	0.00e+00	0	45	0	397410304	60	10742
2026-01-30 10:45:01.96	163.83	12.38	-47.8	-48.7	21.7	0.00e+00	0	45	0	403701760	60	10728
2026-01-30 10:45:02.97	163.86	12.48	-47.7	-48.7	21.9	0.00e+00	0	45	0	409993216	60	10619
2026-01-30 10:45:03.98	163.88	12.58	-47.7	-48.6	21.9	0.00e+00	0	45	0	415236096	60	10516
2026-01-30 10:45:04.99	163.90	12.68	-47.6	-48.5	21.9	0.00e+00	0	45	0	420478976	60	10477
2026-01-30 10:45:05.99	163.93	12.77	-47.6	-48.5	22.0	0.00e+00	0	45	0	426770432	60	10389
2026-01-30 10:45:07.00	163.95	12.87	-47.7	-48.6	22.0	0.00e+00	0	45	0	432013312	60	10508
2026-01-30 10:45:08.00	163.98	12.97	-47.6	-48.5	22.1	0.00e+00	0	45	0	438304768	60	10380
2026-01-30 10:45:09.01	164.00	13.07	-47.5	-48.3	22.1	0.00e+00	0	45	0	443547648	60	10242
2026-01-30 10:45:10.02	164.03	13.17	-47.4	-48.3	22.2	0.00e+00	0	45	0	448790528	60	10156
2026-01-30 10:45:11.03	164.05	13.27	-47.4	-48.3	22.3	0.00e+00	0	45	0	455081984	60	10135
2026-01-30 10:45:12.04	164.08	13.37	-47.3	-48.2	22.3	0.00e+00	0	45	0	460324864	60	10038
2026-01-30 10:45:13.05	164.11	13.47	-47.3	-48.2	22.2	0.00e+00	0	45	0	465567744	60	10079
2026-01-30 10:45:14.05	164.13	13.57	-47.3	-48.2	22.3	0.00e+00	0	45	0	471859200	60	10047
2026-01-30 10:45:15.06	164.16	13.67	-47.3	-48.2	22.3	0.00e+00	0	45	0	477102080	60	10023
2026-01-30 10:45:16.07	164.18	13.77	-47.1	-48.0	22.4	0.00e+00	0	45	0	483393536	60	9847
2026-01-30 10:45:17.08	164.21	13.87	-47.2	-48.0	22.4	0.00e+00	0	45	0	488636416	60	9887
2026-01-30 10:45:18.09	164.24	13.98	-47.2	-48.1	22.3	0.00e+00	0	45	0	494927872	60	9963
2026-01-30 10:45:19.09	164.26	14.08	-47.1	-48.0	22.5	0.00e+00	0	45	0	500170752	60	9804
2026-01-30 10:45:20.10	164.29	14.18	-47.0	-47.8	22.6	0.00e+00	0	45	0	505413632	60	9659
2026-01-30 10:45:21.11	164.32	14.29	-47.0	-47.8	22.6	0.00e+00	0	45	0	511705088	60	9655
2026-01-30 10:45:22.12	164.34	14.39	-46.9	-47.8	22.7	0.00e+00	0	45	0	516947968	60	9614
2026-01-30 10:45:23.13	164.37	14.49	-47.0	-47.9	22.6	0.00e+00	0	45	0	523239424	60	9707
2026-01-30 10:45:24.13	164.40	14.60	-46.9	-47.7	22.7	0.00e+00	0	45	0	528482304	60	9557
2026-01-30 10:45:25.14	164.42	14.71	-46.8	-47.7	22.7	0.00e+00	0	45	0	533725184	60	9516
2026-01-30 10:45:26.14	164.45	14.81	-46.9	-47.7	22.7	0.00e+00	0	45	0	540016640	60	9525
2026-01-30 10:45:27.15	164.48	14.92	-46.9	-47.7	22.7	0.00e+00	0	45	0	545259520	60	9508
2026-01-30 10:45:28.15	164.51	15.02	-46.8	-47.7	22.7	0.00e+00	0	45	0	550502400	60	9487
2026-01-30 10:45:29.16	164.54	15.13	-46.8	-47.7	22.8	0.00e+00	0	45	0	556793856	60	9455
2026-01-30 10:45:30.17	164.56	15.24	-46.6	-47.5	22.9	0.00e+00	0	45	0	563085312	60	9256
2026-01-30 10:45:31.17	164.59	15.35	-46.6	-47.5	23.0	0.00e+00	0	45	0	568328192	60	9244
2026-01-30 10:45:32.18	164.62	15.46	-46.6	-47.4	23.0	0.00e+00	0	45	0	573571072	60	9194
2026-01-30 10:45:33.18	164.65	15.56	-46.6	-47.4	23.0	0.00e+00	0	45	0	579862528	60	9209
2026-01-30 10:45:34.19	164.68	15.67	-46.5	-47.3	23.2	0.00e+00	0	45	0	585105408	60	9056
2026-01-30 10:45:35.19	164.71	15.78	-46.5	-47.3	23.1	0.00e+00	0	45	0	590348288	60	9127
2026-01-30 10:45:36.20	164.74	15.89	-46.7	-47.5	23.1	0.00e+00	0	45	0	596639744	60	9273
2026-01-30 10:45:37.21	164.77	16.01	-46.5	-47.3	23.2	0.00e+00	0	45	0	601882624	60	9039
2026-01-30 10:45:38.22	164.80	16.12	-46.4	-47.2	23.3	0.00e+00	0	45	0	608174080	60	8983
2026-01-30 10:45:39.22	164.83	16.23	-46.5	-47.2	23.3	0.00e+00	0	45	0	613416960	60	9027
2026-01-30 10:45:40.23	164.86	16.34	-46.5	-47.3	23.2	0.00e+00	0	45	0	618659840	60	9073
2026-01-30 10:45:41.24	164.89	16.46	-46.6	-47.4	23.2	0.00e+00	0	45	0	624951296	60	9184
2026-01-30 10:45:42.25	164.92	16.57	-46.7	-47.5	23.0	0.00e+00	0	45	0	630194176	60	9251
2026-01-30 10:45:43.26	164.95	16.68	-46.5	-47.3	23.3	0.00e+00	0	44	0	635437056	60	9060
2026-01-30 10:45:44.26	164.98	16.80	-46.3	-47.2	23.4	0.00e+00	0	45	0	641728512	60	8930
2026-01-30 10:45:45.27	165.01	16.91	-46.4	-47.1	23.3	0.00e+00	0	45	0	648019968	60	8914
2026-01-30 10:45:46.28	165.04	17.03	-46.3	-47.1	23.3	0.00e+00	0	45	0	653262848	60	8895
2026-01-30 10:45:47.29	165.08	17.15	-46.4	-47.2	23.3	0.00e+00	0	45	0	658505728	60	8929
2026-01-30 10:45:48.29	165.11	17.26	-46.3	-47.1	23.4	0.00e+00	0	45	0	664797184	60	8878
2026-01-30 10:45:49.30	165.14	17.38	-46.3	-47.1	23.4	0.00e+00	0	45	0	670040064	60	8848
2026-01-30 10:45:50.31	165.17	17.50	-46.3	-47.1	23.5	0.00e+00	0	45	0	675282944	60	8861
2026-01-30 10:45:51.32	165.21	17.62	-46.3	-47.1	23.4	0.00e+00	0	45	0	681574400	60	8895
2026-01-30 10:45:52.32	165.24	17.74	-46.4	-47.2	23.3	0.00e+00	0	45	0	686817280	60	8994
2026-01-30 10:45:53.33	165.27	17.86	-46.2	-47.0	23.5	0.00e+00	0	45	0	693108736	60	8806
2026-01-30 10:45:54.33	165.30	17.98	-46.2	-47.0	23.5	0.00e+00	0	45	0	698351616	60	8788
2026-01-30 10:45:55.34	165.34	18.10	-46.3	-47.0	23.5	0.00e+00	0	45	0	703594496	60	8820
2026-01-30 10:45:56.35	165.37	18.22	-46.1	-46.9	23.7	0.00e+00	0	45	0	709885952	60	8635
2026-01-30 10:45:57.36	165.41	18.34	-46.0	-46.8	23.8	0.00e+00	0	45	0	715128832	60	8588
2026-01-30 10:45:58.37	165.44	18.47	-46.0	-46.8	23.8	0.00e+00	0	45	0	721420288	60	8590
2026-01-30 10:45:59.37	165.48	18.59	-46.0	-46.8	23.8	0.00e+00	0	45	0	726663168	60	8587
2026-01-30 10:46:00.38	165.51	18.71	-46.2	-47.0	23.6	0.00e+00	0	45	0	732954624	60	8745
2026-01-30 10:46:01.39	165.55	18.84	-46.1	-46.9	23.7	0.00e+00	0	45	0	738197504	60	8647
2026-01-30 10:46:02.40	165.58	18.96	-46.2	-47.0	23.6	0.00e+00	0	45	0	743440384	60	8762
2026-01-30 10:46:03.40	165.62	19.09	-46.4	-47.2	23.5	0.00e+00	0	45	0	749731840	60	8927
2026-01-30 10:46:04.41	165.65	19.22	-46.2	-46.9	23.8	0.00e+00	0	45	0	754974720	60	8692
2026-01-30 10:46:05.42	165.69	19.34	-46.0	-46.8	23.9	0.00e+00	0	45	0	760217600	60	8535
2026-01-30 10:46:06.42	165.72	19.47	-46.1	-46.8	23.8	0.00e+00	0	45	0	766509056	60	8607
2026-01-30 10:46:07.43	165.76	19.60	-46.1	-46.9	23.9	0.00e+00	0	45	0	771751936	60	8628
2026-01-30 10:46:08.44	165.80	19.73	-46.0	-46.8	23.9	0.00e+00	0	45	0	778043392	60	8559
2026-01-30 10:46:09.44	165.83	19.86	-46.1	-46.8	23.8	0.00e+00	0	45	0	783286272	60	8587
2026-01-30 10:46:10.45	165.87	19.99	-45.9	-46.6	24.1	0.00e+00	0	45	0	788529152	60	8384
2026-01-30 10:46:11.46	165.91	20.12	-45.9	-46.6	24.1	0.00e+00	0	45	0	794820608	60	8362
2026-01-30 10:46:12.46	165.95	20.25	-45.6	-46.3	24.3	0.00e+00	0	45	0	800063488	60	8126
2026-01-30 10:46:13.47	165.99	20.38	-45.5	-46.3	24.4	0.00e+00	0	45	0	806354944	60	8057
2026-01-30 10:46:14.48	166.02	20.52	-45.7	-46.4	24.3	0.00e+00	0	45	0	811597824	60	8179
2026-01-30 10:46:15.49	166.06	20.65	-45.7	-46.5	24.3	0.00e+00	0	45	0	817889280	60	8267
2026-01-30 10:46:16.50	166.10	20.79	-45.6	-46.3	24.4	0.00e+00	0	45	0	823132160	60	8112
2026-01-30 10:46:17.50	166.14	20.92	-45.6	-46.3	24.4	0.00e+00	0	45	0	828375040	60	8100
2026-01-30 10:46:18.51	166.18	21.06	-45.7	-46.4	24.4	0.00e+00	0	45	0	834666496	60	8223
2026-01-30 10:46:19.52	166.22	21.20	-45.7	-46.4	24.4	0.00e+00	0	45	0	839909376	60	8188
2026-01-30 10:46:20.52	166.26	21.33	-45.8	-46.5	24.3	0.00e+00	0	45	0	845152256	60	8313
2026-01-30 10:46:21.53	166.30	21.47	-45.8	-46.5	24.3	0.00e+00	0	45	0	851443712	60	8300
2026-01-30 10:46:22.53	166.35	21.61	-45.8	-46.6	24.3	0.00e+00	0	44	0	856686592	60	8337
2026-01-30 10:46:23.53	166.39	21.75	-45.8	-46.6	24.3	0.00e+00	0	45	0	862978048	60	8347
2026-01-30 10:46:24.54	166.43	21.89	-45.9	-46.6	24.3	0.00e+00	0	45	0	868220928	60	8408
2026-01-30 10:46:25.54	166.47	22.03	-45.9	-46.6	24.3	0.00e+00	0	45	0	873463808	60	8410
2026-01-30 10:46:26.55	166.51	22.17	-45.9	-46.6	24.4	0.00e+00	0	45	0	879755264	60	8356
2026-01-30 10:46:27.56	166.56	22.31	-45.9	-46.6	24.3	0.00e+00	0	45	0	884998144	60	8406
2026-01-30 10:46:28.57	166.60	22.46	-46.1	-46.8	24.2	0.00e+00	0	45	0	891289600	60	8551
2026-01-30 10:46:29.57	166.64	22.60	-45.9	-46.6	24.3	0.00e+00	0	45	0	896532480	60	8395
2026-01-30 10:46:30.58	166.69	22.75	-45.9	-46.7	24.4	0.00e+00	0	44	0	902823936	60	8472
2026-01-30 10:46:31.59	166.73	22.89	-45.9	-46.6	24.4	0.00e+00	0	45	0	908066816	60	8372
2026-01-30 10:46:32.59	166.78	23.04	-45.8	-46.5	24.6	0.00e+00	0	45	0	913309696	60	8297
2026-01-30 10:46:33.60	166.82	23.19	-45.8	-46.6	24.4	0.00e+00	0	45	0	919601152	60	8363
2026-01-30 10:46:34.61	166.87	23.34	-45.7	-46.4	24.7	0.00e+00	0	45	0	924844032	60	8209
2026-01-30 10:46:35.61	166.91	23.49	-45.7	-46.4	24.7	0.00e+00	0	45	0	930086912	60	8170
2026-01-30 10:46:36.62	166.96	23.64	-45.7	-46.4	24.7	0.00e+00	0	45	0	936378368	60	8159
2026-01-30 10:46:37.63	167.01	23.79	-45.6	-46.3	24.8	0.00e+00	0	44	0	941621248	60	8093
2026-01-30 10:46:38.63	167.05	23.94	-45.5	-46.2	24.9	0.00e+00	0	45	0	947912704	60	7984
2026-01-30 10:46:39.64	167.10	24.09	-45.5	-46.2	24.9	0.00e+00	0	45	0	953155584	60	8028
2026-01-30 10:46:40.64	167.15	24.24	-45.5	-46.2	25.0	0.00e+00	0	45	0	958398464	60	7963
2026-01-30 10:46:41.65	167.20	24.40	-45.5	-46.2	25.0	0.00e+00	0	45	0	964689920	60	7971
2026-01-30 10:46:42.66	167.25	24.56	-45.5	-46.2	25.0	0.00e+00	0	45	0	969932800	60	7965
2026-01-30 10:46:43.66	167.30	24.71	-45.4	-46.1	25.0	0.00e+00	0	45	0	976224256	60	7916
2026-01-30 10:46:44.67	167.35	24.87	-45.5	-46.2	24.9	0.00e+00	0	45	0	981467136	60	8011
2026-01-30 10:46:45.68	167.40	25.03	-45.5	-46.2	24.9	0.00e+00	0	45	0	987758592	60	8020
2026-01-30 10:46:46.69	167.45	25.19	-45.5	-46.2	25.0	0.00e+00	0	45	0	993001472	60	7972
2026-01-30 10:46:47.70	167.50	25.35	-45.5	-46.1	25.1	0.00e+00	0	45	0	998244352	60	7943
2026-01-30 10:46:48.70	167.55	25.51	-45.5	-46.2	25.0	0.00e+00	0	45	0	1004535808	60	7968
2026-01-30 10:46:49.71	167.60	25.67	-45.6	-46.3	25.1	0.00e+00	0	45	0	1009778688	60	8081
2026-01-30 10:46:50.72	167.65	25.83	-45.6	-46.3	25.1	0.00e+00	0	45	0	1015021568	60	8069
2026-01-30 10:46:51.73	167.71	26.00	-45.6	-46.3	25.1	0.00e+00	0	45	0	1021313024	60	8094
2026-01-30 10:46:52.72	167.76	26.16	-45.8	-46.5	24.9	0.00e+00	0	45	0	1026555904	60	8255
2026-01-30 10:46:53.73	167.81	26.33	-45.8	-46.6	24.9	0.00e+00	0	45	0	1032847360	60	8358
2026-01-30 10:46:54.74	167.87	26.49	-45.9	-46.6	24.9	0.00e+00	0	45	0	1038090240	60	8377
2026-01-30 10:46:55.75	167.93	26.66	-46.1	-46.8	24.7	0.00e+00	0	45	0	1043333120	60	8581
2026-01-30 10:46:56.76	167.98	26.83	-46.1	-46.8	24.8	0.00e+00	0	45	0	1049624576	60	8575
2026-01-30 10:46:57.77	168.04	27.00	-46.1	-46.9	24.7	0.00e+00	0	45	0	1055916032	60	8635
2026-01-30 10:46:58.78	168.10	27.17	-46.1	-46.8	24.8	0.00e+00	0	45	0	1061158912	60	8577
2026-01-30 10:46:59.78	168.15	27.35	-46.1	-46.8	24.8	0.00e+00	0	45	0	1066401792	60	8592
2026-01-30 10:47:00.79	168.21	27.52	-46.0	-46.7	24.8	0.00e+00	0	45	0	1072693248	60	8465
2026-01-30 10:47:01.80	168.27	27.69	-46.0	-46.7	24.8	0.00e+00	0	45	0	1077936128	60	8464
2026-01-30 10:47:02.81	168.33	27.87	-46.0	-46.7	24.9	0.00e+00	0	45	0	1083179008	60	8500
2026-01-30 10:47:03.81	168.39	28.04	-46.0	-46.7	25.0	0.00e+00	0	45	0	1089470464	60	8488
2026-01-30 10:47:04.82	168.45	28.22	-45.9	-46.6	25.1	0.00e+00	0	45	0	1094713344	60	8386
2026-01-30 10:47:05.83	168.51	28.40	-45.9	-46.6	25.1	0.00e+00	0	45	0	1099956224	60	8386
2026-01-30 10:47:06.83	168.57	28.58	-45.9	-46.6	25.1	0.00e+00	0	45	0	1106247680	60	8343
2026-01-30 10:47:07.84	168.63	28.76	-45.7	-46.4	25.3	0.00e+00	0	45	0	1111490560	60	8148
2026-01-30 10:47:08.84	168.70	28.94	-45.6	-46.3	25.2	0.00e+00	0	45	0	1117782016	60	8094
2026-01-30 10:47:09.85	168.76	29.13	-45.9	-46.5	25.2	0.00e+00	0	45	0	1123024896	60	8304
2026-01-30 10:47:10.86	168.83	29.31	-45.9	-46.6	25.2	0.00e+00	0	45	0	1128267776	60	8376
2026-01-30 10:47:11.86	168.89	29.50	-46.0	-46.7	25.0	0.00e+00	0	45	0	1134559232	60	8454
2026-01-30 10:47:12.86	168.96	29.68	-46.1	-46.8	25.0	0.00e+00	0	45	0	1140850688	60	8595
2026-01-30 10:47:13.87	169.02	29.87	-46.2	-46.9	24.9	0.00e+00	0	45	0	1146093568	60	8676
2026-01-30 10:47:14.88	169.09	30.06	-46.2	-46.9	24.9	0.00e+00	0	45	0	1151336448	60	8671
2026-01-30 10:47:15.89	169.16	30.25	-46.3	-47.0	24.9	0.00e+00	0	45	0	1157627904	60	8801
2026-01-30 10:47:16.90	169.23	30.44	-46.3	-47.0	24.9	0.00e+00	0	45	0	1162870784	60	8792
2026-01-30 10:47:17.91	169.30	30.64	-46.4	-47.1	24.8	0.00e+00	0	45	0	1168113664	60	8868
2026-01-30 10:47:18.91	169.37	30.83	-46.5	-47.2	24.7	0.00e+00	0	45	0	1174405120	60	8964
2026-01-30 10:47:19.92	169.44	31.03	-46.2	-47.0	25.0	0.00e+00	0	45	0	1179648000	60	8723
2026-01-30 10:47:20.93	169.51	31.22	-45.8	-46.5	25.2	0.00e+00	0	45	0	1184890880	60	8269
2026-01-30 10:47:21.93	169.58	31.42	-45.7	-46.4	25.4	0.00e+00	0	45	0	1191182336	60	8161
2026-01-30 10:47:22.94	169.66	31.62	-45.7	-46.4	25.4	0.00e+00	0	45	0	1196425216	60	8163
2026-01-30 10:47:23.94	169.73	31.82	-45.8	-46.5	25.3	0.00e+00	0	45	0	1202716672	60	8235
2026-01-30 10:47:24.95	169.81	32.02	-45.9	-46.6	25.3	0.00e+00	0	45	0	1207959552	60	8340
2026-01-30 10:47:25.95	169.88	32.22	-45.9	-46.6	25.2	0.00e+00	0	45	0	1213202432	60	8374
2026-01-30 10:47:26.95	169.96	32.43	-46.0	-46.6	25.1	0.00e+00	0	45	0	1219493888	60	8411
2026-01-30 10:47:27.96	170.04	32.63	-46.0	-46.7	25.1	0.00e+00	0	45	0	1224736768	60	8510
2026-01-30 10:47:28.97	170.12	32.84	-46.1	-46.8	25.1	0.00e+00	0	45	0	1231028224	60	8598
2026-01-30 10:47:29.98	170.20	33.05	-46.1	-46.9	25.1	0.00e+00	0	45	0	1236271104	60	8626
2026-01-30 10:47:30.99	170.28	33.26	-46.1	-46.8	25.0	0.00e+00	0	45	0	1242562560	60	8582
2026-01-30 10:47:31.99	170.36	33.47	-46.1	-46.8	25.0	0.00e+00	0	45	0	1247805440	60	8604
2026-01-30 10:47:33.00	170.45	33.68	-45.8	-46.5	25.2	0.00e+00	0	45	0	1253048320	60	8235
2026-01-30 10:47:34.01	170.53	33.90	-45.7	-46.3	25.3	0.00e+00	0	45	0	1259339776	60	8134
2026-01-30 10:47:35.02	170.62	34.11	-45.6	-46.2	25.5	0.00e+00	0	45	0	1264582656	60	8045
2026-01-30 10:47:36.02	170.70	34.33	-45.5	-46.2	25.4	0.00e+00	0	45	0	1270874112	60	7971
2026-01-30 10:47:37.03	170.79	34.55	-45.4	-46.0	25.7	0.00e+00	0	45	0	1276116992	60	7854
2026-01-30 10:47:38.04	170.88	34.77	-45.1	-45.8	25.8	0.00e+00	0	45	0	1281359872	60	7642
2026-01-30 10:47:39.04	170.97	34.99	-45.0	-45.7	25.9	0.00e+00	0	45	0	1287651328	60	7534
2026-01-30 10:47:40.05	171.06	35.21	-45.2	-45.8	25.8	0.00e+00	0	45	0	1292894208	60	7662
2026-01-30 10:47:41.06	171.15	35.44	-45.3	-46.0	25.8	0.00e+00	0	45	0	1298137088	60	7825
2026-01-30 10:47:42.07	171.25	35.67	-45.5	-46.2	25.6	0.00e+00	0	45	0	1304428544	60	7976
2026-01-30 10:47:43.07	171.34	35.89	-45.7	-46.4	25.5	0.00e+00	0	45	0	1310720000	60	8158
2026-01-30 10:47:44.07	171.43	36.12	-45.8	-46.4	25.4	0.00e+00	0	45	0	1315962880	60	8232
2026-01-30 10:47:45.08	171.53	36.35	-45.7	-46.5	25.6	0.00e+00	0	45	0	1321205760	60	8239
2026-01-30 10:47:46.09	171.63	36.58	-45.8	-46.5	25.5	0.00e+00	0	45	0	1327497216	60	8264
2026-01-30 10:47:47.10	171.73	36.82	-45.6	-46.3	25.7	0.00e+00	0	45	0	1332740096	60	8086
2026-01-30 10:47:48.10	171.83	37.05	-45.5	-46.2	25.7	0.00e+00	0	45	0	1337982976	60	7981
2026-01-30 10:47:49.11	171.93	37.29	-45.6	-46.3	25.6	0.00e+00	0	45	0	1344274432	60	8066
2026-01-30 10:47:50.12	172.04	37.53	-45.5	-46.2	25.7	0.00e+00	0	45	0	1349517312	60	7965
2026-01-30 10:47:51.13	172.15	37.77	-45.6	-46.2	25.7	0.00e+00	0	45	0	1355808768	60	8021
2026-01-30 10:47:52.13	172.25	38.01	-45.7	-46.4	25.6	0.00e+00	0	45	0	1361051648	60	8142
2026-01-30 10:47:53.14	172.36	38.25	-45.7	-46.3	25.6	0.00e+00	0	45	0	1366294528	60	8120
2026-01-30 10:47:54.14	172.47	38.50	-45.8	-46.5	25.4	0.00e+00	0	45	0	1372585984	60	8272
2026-01-30 10:47:55.15	172.58	38.74	-45.8	-46.4	25.5	0.00e+00	0	45	0	1377828864	60	8213
2026-01-30 10:47:56.16	172.70	38.99	-45.7	-46.4	25.6	0.00e+00	0	45	0	1383071744	60	8210
2026-01-30 10:47:57.16	172.81	39.24	-45.8	-46.5	25.6	0.00e+00	0	45	0	1389363200	60	8254
2026-01-30 10:47:58.17	172.93	39.50	-45.8	-46.5	25.5	0.00e+00	0	45	0	1395654656	60	8263
2026-01-30 10:47:59.18	173.05	39.75	-45.8	-46.5	25.6	0.00e+00	0	45	0	1400897536	60	8284
2026-01-30 10:48:00.18	173.17	40.00	-46.0	-46.6	25.6	0.00e+00	0	45	0	1406140416	60	8394
2026-01-30 10:48:01.19	173.29	40.26	-46.0	-46.6	25.5	0.00e+00	0	45	0	1412431872	60	8423
2026-01-30 10:48:02.19	173.41	40.52	-46.1	-46.8	25.5	0.00e+00	0	45	0	1417674752	60	8594
2026-01-30 10:48:03.20	173.54	40.78	-46.2	-46.8	25.3	0.00e+00	0	45	0	1422917632	60	8619
2026-01-30 10:48:04.20	173.67	41.04	-46.1	-46.8	25.4	0.00e+00	0	45	0	1429209088	60	8542
2026-01-30 10:48:05.21	173.80	41.30	-46.1	-46.8	25.4	0.00e+00	0	45	0	1434451968	60	8536
2026-01-30 10:48:06.22	173.93	41.57	-45.9	-46.6	25.6	0.00e+00	0	45	0	1440743424	60	8390
2026-01-30 10:48:07.22	174.06	41.84	-46.0	-46.6	25.5	0.00e+00	0	45	0	1445986304	60	8393
2026-01-30 10:48:08.23	174.20	42.11	-46.1	-46.8	25.4	0.00e+00	0	45	0	1451229184	60	8572
2026-01-30 10:48:09.24	174.34	42.38	-46.2	-46.9	25.4	0.00e+00	0	45	0	1457520640	60	8622
2026-01-30 10:48:10.24	174.48	42.65	-46.1	-46.8	25.5	0.00e+00	0	45	0	1462763520	60	8539
2026-01-30 10:48:11.25	174.62	42.93	-46.1	-46.8	25.4	0.00e+00	0	45	0	1468006400	60	8615
2026-01-30 10:48:12.25	174.77	43.20	-46.1	-46.8	25.3	0.00e+00	0	45	0	1474297856	60	8576
2026-01-30 10:48:13.26	174.92	43.48	-46.3	-47.0	25.3	0.00e+00	0	45	0	1479540736	60	8727
2026-01-30 10:48:14.26	175.07	43.76	-46.4	-47.0	25.3	0.00e+00	0	45	0	1485832192	60	8812
2026-01-30 10:48:15.27	175.22	44.04	-46.4	-47.1	25.1	0.00e+00	0	45	0	1491075072	60	8843
2026-01-30 10:48:16.28	175.38	44.33	-46.4	-47.1	25.2	0.00e+00	0	45	0	1497366528	60	8910
2026-01-30 10:48:17.29	175.54	44.61	-46.5	-47.2	25.0	0.00e+00	0	45	0	1502609408	60	8960
2026-01-30 10:48:18.29	175.70	44.90	-46.4	-47.1	25.2	0.00e+00	0	45	0	1507852288	60	8863
2026-01-30 10:48:19.30	175.86	45.19	-46.5	-47.2	25.1	0.00e+00	0	45	0	1514143744	60	9005
2026-01-30 10:48:20.30	176.03	45.48	-46.7	-47.3	24.9	0.00e+00	0	45	0	1519386624	60	9130
2026-01-30 10:48:21.31	176.20	45.77	-46.7	-47.4	25.0	0.00e+00	0	45	0	1525678080	60	9138
2026-01-30 10:48:22.31	176.37	46.07	-46.3	-47.0	25.3	0.00e+00	0	45	0	1530920960	60	8802
2026-01-30 10:48:23.32	176.55	46.36	-46.1	-46.8	25.5	0.00e+00	0	45	0	1536163840	60	8594
2026-01-30 10:48:24.33	176.73	46.66	-46.3	-47.0	25.4	0.00e+00	0	45	0	1542455296	60	8756
2026-01-30 10:48:25.32	176.91	46.96	-46.6	-47.3	25.1	0.00e+00	0	45	0	1547698176	60	9058
2026-01-30 10:48:26.33	177.10	47.26	-46.9	-47.6	24.8	0.00e+00	0	45	0	1552941056	60	9431
2026-01-30 10:48:27.34	177.29	47.57	-46.9	-47.6	24.8	0.00e+00	0	45	0	1559232512	60	9386
2026-01-30 10:48:28.34	177.49	47.87	-46.9	-47.6	24.9	0.00e+00	0	45	0	1564475392	60	9440
2026-01-30 10:48:29.35	177.68	48.18	-46.5	-47.1	25.3	0.00e+00	0	45	0	1569718272	60	8924
2026-01-30 10:48:30.36	177.89	48.49	-46.2	-46.9	25.5	0.00e+00	0	45	0	1576009728	60	8703
2026-01-30 10:48:31.36	178.09	48.80	-46.3	-47.0	25.4	0.00e+00	0	45	0	1581252608	60	8750
2026-01-30 10:48:32.37	178.30	49.12	-46.4	-47.1	25.4	0.00e+00	0	45	0	1587544064	60	8866
2026-01-30 10:48:33.38	178.52	49.43	-46.5	-47.2	25.3	0.00e+00	0	45	0	1592786944	60	8986
2026-01-30 10:48:34.38	178.73	49.75	-46.7	-47.4	25.5	0.00e+00	0	45	0	1599078400	60	9227
2026-01-30 10:48:35.38	178.96	50.06	-46.9	-47.6	25.2	0.00e+00	0	45	0	1604321280	60	9426
2026-01-30 10:48:36.39	179.19	50.38	-46.9	-47.6	25.3	0.00e+00	0	45	0	1610612736	60	9388
2026-01-30 10:48:37.39	179.42	50.70	-47.0	-47.7	25.2	0.00e+00	0	45	0	1615855616	60	9551
2026-01-30 10:48:38.40	179.66	51.03	-47.3	-48.0	25.1	0.00e+00	0	45	0	1621098496	60	9804
2026-01-30 10:48:39.41	179.90	51.36	-47.5	-48.3	24.8	0.00e+00	0	45	0	1627389952	60	10142
2026-01-30 10:48:40.41	180.15	51.68	-47.7	-48.4	24.7	0.00e+00	0	45	0	1632632832	60	10294
2026-01-30 10:48:41.42	180.40	52.01	-47.3	-48.0	25.0	0.00e+00	0	45	0	1637875712	60	9833
2026-01-30 10:48:42.43	180.66	52.35	-47.1	-47.8	25.2	0.00e+00	0	45	0	1644167168	60	9565
2026-01-30 10:48:43.43	180.92	52.68	-47.3	-48.0	25.0	0.00e+00	0	45	0	1649410048	60	9858
2026-01-30 10:48:44.43	181.19	53.01	-47.7	-48.5	24.6	0.00e+00	0	45	0	1654652928	60	10392
2026-01-30 10:48:45.44	181.47	53.34	-47.8	-48.6	24.6	0.00e+00	0	45	0	1660944384	60	10486
2026-01-30 10:48:46.45	181.75	53.68	-47.7	-48.4	24.8	0.00e+00	0	45	0	1666187264	60	10316
2026-01-30 10:48:47.45	182.04	54.02	-47.8	-48.4	24.8	0.00e+00	0	45	0	1672478720	60	10353
2026-01-30 10:48:48.46	182.34	54.36	-48.2	-48.9	24.4	0.00e+00	0	45	0	1677721600	60	10940
2026-01-30 10:48:49.46	182.64	54.70	-48.6	-49.3	24.1	0.00e+00	0	45	0	1684013056	60	11449
2026-01-30 10:48:50.47	182.95	55.05	-48.3	-49.1	24.3	0.00e+00	0	45	0	1689255936	60	11121
2026-01-30 10:48:51.48	183.27	55.39	-48.2	-48.9	24.4	0.00e+00	0	45	0	1695547392	60	10959
2026-01-30 10:48:52.48	183.60	55.74	-47.9	-48.6	24.7	0.00e+00	0	45	0	1700790272	60	10576
2026-01-30 10:48:53.49	183.93	56.08	-47.7	-48.3	24.8	0.00e+00	0	45	0	1706033152	60	10245
2026-01-30 10:48:54.49	184.28	56.43	-47.6	-48.3	24.7	0.00e+00	0	45	0	1712324608	60	10195
2026-01-30 10:48:55.50	184.63	56.78	-47.2	-47.9	25.2	0.00e+00	0	45	0	1717567488	60	9740
2026-01-30 10:48:56.51	184.99	57.13	-47.0	-47.7	25.2	0.00e+00	0	45	0	1722810368	60	9538
2026-01-30 10:48:57.51	185.36	57.48	-47.4	-48.1	24.9	0.00e+00	0	45	0	1729101824	60	10007
2026-01-30 10:48:58.52	185.74	57.84	-47.4	-48.2	24.9	0.00e+00	0	45	0	1734344704	60	10046
2026-01-30 10:48:59.52	186.12	58.19	-47.2	-47.9	25.1	0.00e+00	0	45	0	1739587584	60	9747
2026-01-30 10:49:00.52	186.52	58.54	-47.1	-47.8	25.1	0.00e+00	0	45	0	1745879040	60	9597
2026-01-30 10:49:01.53	186.93	58.90	-47.1	-47.8	25.3	0.00e+00	0	45	0	1751121920	60	9634
2026-01-30 10:49:02.53	187.35	59.25	-47.0	-47.7	25.2	0.00e+00	0	45	0	1757413376	60	9551
2026-01-30 10:49:03.54	187.79	59.61	-46.8	-47.5	25.4	0.00e+00	0	45	0	1762656256	60	9304
2026-01-30 10:49:04.54	188.23	59.97	-46.9	-47.6	25.4	0.00e+00	0	45	0	1767899136	60	9346
2026-01-30 10:49:05.55	188.69	60.33	-46.6	-47.2	25.6	0.00e+00	0	45	0	1774190592	60	9017
2026-01-30 10:49:06.56	189.16	60.69	-46.9	-47.7	25.2	0.00e+00	0	45	0	1779433472	60	9469
2026-01-30 10:49:07.56	189.64	61.04	-46.7	-47.4	25.5	0.00e+00	0	45	0	1784676352	60	9207
2026-01-30 10:49:08.56	190.13	61.40	-46.5	-47.2	25.6	0.00e+00	0	45	0	1790967808	60	8982
2026-01-30 10:49:09.57	190.65	61.76	-46.4	-47.1	25.7	0.00e+00	0	45	0	1797259264	60	8831
2026-01-30 10:49:10.57	191.17	62.12	-46.4	-47.1	25.7	0.00e+00	0	45	0	1802502144	60	8841
2026-01-30 10:49:11.57	191.71	62.47	-45.8	-46.5	26.2	0.00e+00	0	45	0	1807745024	60	8271
2026-01-30 10:49:12.58	192.27	62.83	-45.9	-46.6	26.0	0.00e+00	0	45	0	1814036480	60	8350
2026-01-30 10:49:13.59	192.85	63.19	-45.9	-46.6	26.1	0.00e+00	0	45	0	1819279360	60	8392
2026-01-30 10:49:14.59	193.43	63.55	-46.0	-46.7	26.1	0.00e+00	0	45	0	1824522240	60	8463
2026-01-30 10:49:15.60	194.05	63.90	-46.0	-46.7	25.9	0.00e+00	0	45	0	1830813696	60	8438
2026-01-30 10:49:16.60	194.67	64.26	-46.1	-46.8	25.8	0.00e+00	0	45	0	1836056576	60	8543
2026-01-30 10:49:17.61	195.32	64.61	-45.7	-46.4	26.2	0.00e+00	0	45	0	1842348032	60	8151
2026-01-30 10:49:18.61	195.99	64.96	-45.6	-46.3	26.2	0.00e+00	0	45	0	1847590912	60	8069
2026-01-30 10:49:19.62	196.68	65.32	-45.7	-46.3	26.2	0.00e+00	0	45	0	1852833792	60	8102
2026-01-30 10:49:20.62	197.39	65.66	-45.8	-46.4	26.1	0.00e+00	0	45	0	1859125248	60	8227
2026-01-30 10:49:21.63	198.13	66.01	-45.8	-46.4	26.0	0.00e+00	0	45	0	1864368128	60	8214
2026-01-30 10:49:22.63	198.88	66.36	-46.0	-46.7	25.8	0.00e+00	0	45	0	1869611008	60	8481
2026-01-30 10:49:23.63	199.66	66.70	-45.4	-46.1	26.2	0.00e+00	0	45	0	1875902464	60	7923
2026-01-30 10:49:24.63	200.46	67.04	-45.5	-46.2	26.3	0.00e+00	0	45	0	1881145344	60	7960
2026-01-30 10:49:25.63	201.29	67.37	-45.4	-46.1	26.1	0.00e+00	0	45	0	1886388224	60	7929
2026-01-30 10:49:26.64	202.16	67.71	-45.0	-45.7	26.5	0.00e+00	0	45	0	1892679680	60	7534
2026-01-30 10:49:27.65	203.05	68.04	-45.3	-46.0	26.3	0.00e+00	0	45	0	1897922560	60	7844
2026-01-30 10:49:28.65	203.97	68.37	-45.6	-46.3	26.0	0.00e+00	0	45	0	1904214016	60	8059
2026-01-30 10:49:29.66	204.92	68.69	-45.2	-45.9	26.5	0.00e+00	0	45	0	1909456896	60	7708
2026-01-30 10:49:30.66	205.90	69.01	-44.9	-45.5	26.5	0.00e+00	0	45	0	1915748352	60	7407
2026-01-30 10:49:31.67	206.91	69.32	-45.0	-45.7	26.5	0.00e+00	0	45	0	1920991232	60	7548
2026-01-30 10:49:32.68	207.96	69.64	-44.9	-45.5	26.6	0.00e+00	0	45	0	1927282688	60	7420
2026-01-30 10:49:33.69	209.05	69.94	-44.8	-45.4	26.7	0.00e+00	0	45	0	1932525568	60	7336
2026-01-30 10:49:34.69	210.16	70.24	-45.0	-45.7	26.3	0.00e+00	0	45	0	1937768448	60	7533
2026-01-30 10:49:35.70	211.31	70.53	-44.8	-45.4	26.6	0.00e+00	0	45	0	1944059904	60	7330
2026-01-30 10:49:36.70	212.50	70.81	-44.7	-45.4	26.7	0.00e+00	0	45	0	1949302784	60	7260
2026-01-30 10:49:37.71	213.73	71.09	-44.8	-45.4	26.6	0.00e+00	0	45	0	1954545664	60	7317
2026-01-30 10:49:38.71	214.98	71.36	-44.4	-45.0	27.0	0.00e+00	0	45	0	1960837120	60	6971
2026-01-30 10:49:39.72	216.29	71.62	-44.5	-45.1	26.9	0.00e+00	0	45	0	1966080000	60	7061
2026-01-30 10:49:40.72	217.62	71.87	-44.8	-45.4	26.5	0.00e+00	0	45	0	1971322880	60	7308
2026-01-30 10:49:41.72	219.00	72.12	-44.6	-45.3	26.6	0.00e+00	0	45	0	1977614336	60	7247
2026-01-30 10:49:42.73	220.42	72.35	-44.4	-45.1	26.8	0.00e+00	0	45	0	1982857216	60	7062
2026-01-30 10:49:43.74	221.89	72.58	-44.4	-45.0	26.9	0.00e+00	0	45	0	1989148672	60	7003
2026-01-30 10:49:44.74	223.38	72.79	-44.5	-45.1	26.8	0.00e+00	0	45	0	1994391552	60	7066
2026-01-30 10:49:45.75	224.92	72.99	-44.6	-45.3	26.6	0.00e+00	0	45	0	1999634432	60	7181
2026-01-30 10:49:46.76	226.50	73.19	-44.6	-45.3	26.6	0.00e+00	0	45	0	2005925888	60	7244
2026-01-30 10:49:47.77	228.12	73.37	-44.8	-45.5	26.5	0.00e+00	0	45	0	2012217344	60	7371
2026-01-30 10:49:48.77	229.76	73.53	-44.7	-45.4	26.6	0.00e+00	0	45	0	2017460224	60	7305
2026-01-30 10:49:49.78	231.45	73.69	-44.3	-45.0	26.7	0.00e+00	0	45	0	2022703104	60	6961
2026-01-30 10:49:50.79	233.17	73.83	-44.3	-45.1	26.8	0.00e+00	0	45	0	2028994560	60	7014
2026-01-30 10:49:51.79	234.90	73.95	-44.5	-45.2	26.5	0.00e+00	0	45	0	2034237440	60	7145
2026-01-30 10:49:52.79	236.66	74.06	-44.7	-45.4	26.5	0.00e+00	0	45	0	2039480320	60	7319
2026-01-30 10:49:53.79	238.44	74.16	-44.3	-45.1	26.5	0.00e+00	0	45	0	2045771776	60	7008
2026-01-30 10:49:54.80	240.27	74.25	-44.2	-44.9	26.7	0.00e+00	0	45	0	2051014656	60	6896
2026-01-30 10:49:55.81	242.11	74.31	-44.4	-45.2	26.4	0.00e+00	0	45	0	2056257536	60	7148
2026-01-30 10:49:56.81	243.95	74.37	-44.4	-45.3	26.4	0.00e+00	0	45	0	2062548992	60	7183
2026-01-30 10:49:57.82	245.81	74.40	-44.6	-45.4	26.2	0.00e+00	0	45	0	2067791872	60	7320
2026-01-30 10:49:58.82	247.67	74.42	-44.8	-45.7	26.1	0.00e+00	0	45	0	2074083328	60	7524
2026-01-30 10:49:59.83	249.55	74.43	-44.4	-45.2	26.3	0.00e+00	0	45	0	2079326208	60	7092
2026-01-30 10:50:00.84	251.42	74.42	-44.6	-45.5	25.7	0.00e+00	0	45	0	2084569088	60	7380
2026-01-30 10:50:01.84	253.28	74.39	-44.6	-45.5	25.9	0.00e+00	0	45	0	2090860544	60	7346
2026-01-30 10:50:02.85	255.14	74.35	-44.1	-45.0	25.9	0.00e+00	0	45	0	2096103424	60	6984
2026-01-30 10:50:03.86	256.99	74.29	-44.0	-44.8	26.2	0.00e+00	0	45	0	2101346304	60	6841
2026-01-30 10:50:04.87	258.82	74.22	-43.8	-44.6	26.2	0.00e+00	0	45	0	2107637760	60	6653
2026-01-30 10:50:05.87	260.62	74.13	-44.0	-44.8	25.8	0.00e+00	0	45	0	2113929216	60	6841
2026-01-30 10:50:06.88	262.41	74.03	-44.2	-45.1	25.7	0.00e+00	0	45	0	2119172096	60	7034
2026-01-30 10:50:07.88	264.16	73.91	-44.2	-45.1	25.6	0.00e+00	0	45	0	2124414976	60	7026
2026-01-30 10:50:08.88	265.88	73.78	-44.3	-45.2	25.5	0.00e+00	0	45	0	2130706432	60	7122
2026-01-30 10:50:09.89	267.59	73.63	-44.5	-45.3	25.4	0.00e+00	0	45	0	2135949312	60	7242
2026-01-30 10:50:10.90	269.27	73.47	-44.5	-45.4	25.3	0.00e+00	0	45	0	2141192192	60	7289
2026-01-30 10:50:11.90	270.89	73.30	-44.4	-45.3	25.7	0.00e+00	0	45	0	2147483648	60	7214
2026-01-30 10:50:12.91	272.50	73.12	-44.3	-45.1	25.9	0.00e+00	0	45	0	2152726528	60	7032
2026-01-30 10:50:13.91	274.05	72.92	-44.2	-45.0	26.3	0.00e+00	0	45	0	2159017984	60	6944
2026-01-30 10:50:14.92	275.58	72.72	-44.0	-44.7	26.6	0.00e+00	0	45	0	2164260864	60	6732
2026-01-30 10:50:15.93	277.07	72.50	-44.1	-44.9	26.6	0.00e+00	0	45	0	2169503744	60	6858
2026-01-30 10:50:16.94	278.52	72.27	-44.4	-45.2	26.5	0.00e+00	0	45	0	2175795200	60	7099
2026-01-30 10:50:17.94	279.92	72.03	-44.6	-45.3	26.5	0.00e+00	0	45	0	2181038080	60	7228
2026-01-30 10:50:18.95	281.29	71.78	-44.8	-45.5	26.3	0.00e+00	0	45	0	2186280960	60	7402
2026-01-30 10:50:19.96	282.62	71.53	-44.9	-45.6	26.3	0.00e+00	0	45	0	2192572416	60	7451
2026-01-30 10:50:20.97	283.91	71.26	-44.7	-45.4	26.4	0.00e+00	0	45	0	2198863872	60	7291
2026-01-30 10:50:21.98	285.16	70.99	-44.8	-45.5	26.3	0.00e+00	0	45	0	2204106752	60	7412
2026-01-30 10:50:22.98	286.37	70.71	-44.8	-45.6	26.1	0.00e+00	0	45	0	2209349632	60	7456
2026-01-30 10:50:23.99	287.55	70.42	-44.7	-45.4	26.2	0.00e+00	0	45	0	2215641088	60	7324
2026-01-30 10:50:24.98	288.67	70.13	-44.7	-45.5	26.1	0.00e+00	0	45	0	2220883968	60	7387
2026-01-30 10:50:25.99	289.77	69.83	-44.8	-45.5	25.8	0.00e+00	0	45	0	2226126848	60	7417
2026-01-30 10:50:27.00	290.84	69.53	-44.7	-45.5	25.8	0.00e+00	0	45	0	2232418304	60	7366
2026-01-30 10:50:28.01	291.88	69.21	-44.7	-45.6	25.7	0.00e+00	0	45	0	2237661184	60	7500
2026-01-30 10:50:29.02	292.89	68.90	-44.9	-45.8	25.5	0.00e+00	0	45	0	2243952640	60	7610
2026-01-30 10:50:30.02	293.85	68.58	-44.8	-45.8	25.4	0.00e+00	0	45	0	2249195520	60	7635
2026-01-30 10:50:31.03	294.79	68.25	-44.8	-45.8	25.6	0.00e+00	0	45	0	2254438400	60	7613
2026-01-30 10:50:32.04	295.70	67.92	-44.9	-45.8	25.6	0.00e+00	0	45	0	2260729856	60	7617
2026-01-30 10:50:33.05	296.58	67.59	-45.1	-46.0	25.5	0.00e+00	0	45	0	2265972736	60	7861
2026-01-30 10:50:34.06	297.44	67.25	-45.3	-46.2	25.3	0.00e+00	0	45	0	2271215616	60	8024
2026-01-30 10:50:35.06	298.26	66.92	-45.3	-46.2	25.4	0.00e+00	0	45	0	2277507072	60	7998
2026-01-30 10:50:36.07	299.06	66.58	-45.5	-46.4	25.6	0.00e+00	0	45	0	2283798528	60	8152
2026-01-30 10:50:37.08	299.83	66.23	-45.1	-45.9	26.0	0.00e+00	0	45	0	2289041408	60	7730
2026-01-30 10:50:38.09	300.59	65.88	-45.1	-45.9	26.2	0.00e+00	0	45	0	2294284288	60	7714
2026-01-30 10:50:39.09	301.31	65.54	-45.4	-46.1	26.1	0.00e+00	0	45	0	2300575744	60	7936
2026-01-30 10:50:40.10	302.01	65.19	-45.5	-46.2	25.9	0.00e+00	0	45	0	2305818624	60	8001
2026-01-30 10:50:41.11	302.70	64.83	-45.2	-46.0	26.0	0.00e+00	0	45	0	2311061504	60	7824
2026-01-30 10:50:42.12	303.36	64.48	-45.1	-45.7	26.1	0.00e+00	0	45	0	2317352960	60	7590
2026-01-30 10:50:43.12	303.99	64.13	-45.3	-46.1	25.9	0.00e+00	0	45	0	2322595840	60	7872
2026-01-30 10:50:44.12	304.61	63.77	-45.6	-46.4	25.7	0.00e+00	0	45	0	2328887296	60	8154
2026-01-30 10:50:45.13	305.22	63.42	-45.7	-46.4	25.7	0.00e+00	0	45	0	2334130176	60	8208
2026-01-30 10:50:46.14	305.80	63.06	-45.8	-46.6	25.6	0.00e+00	0	45	0	2339373056	60	8335
2026-01-30 10:50:47.14	306.37	62.70	-45.7	-46.4	25.8	0.00e+00	0	45	0	2345664512	60	8208
2026-01-30 10:50:48.14	306.92	62.35	-45.5	-46.2	26.1	0.00e+00	0	45	0	2350907392	60	7984
2026-01-30 10:50:49.15	307.45	61.99	-45.5	-46.1	26.0	0.00e+00	0	45	0	2356150272	60	7946
2026-01-30 10:50:50.16	307.98	61.63	-45.5	-46.2	26.1	0.00e+00	0	45	0	2362441728	60	8000
2026-01-30 10:50:51.16	308.48	61.27	-45.6	-46.3	26.0	0.00e+00	0	45	0	2368733184	60	8074
2026-01-30 10:50:52.17	308.97	60.91	-45.7	-46.4	25.8	0.00e+00	0	45	0	2373976064	60	8196
2026-01-30 10:50:53.18	309.45	60.56	-45.7	-46.5	25.6	0.00e+00	0	45	0	2379218944	60	8242
2026-01-30 10:50:54.19	309.92	60.20	-45.8	-46.5	25.4	0.00e+00	0	45	0	2385510400	60	8262
2026-01-30 10:50:55.19	310.36	59.84	-46.1	-47.0	24.8	0.00e+00	0	45	0	2390753280	60	8726
2026-01-30 10:50:56.20	310.81	59.48	-46.4	-47.3	24.5	0.00e+00	0	45	0	2395996160	60	9073
2026-01-30 10:50:57.20	311.23	59.13	-46.3	-47.2	24.7	0.00e+00	0	45	0	2402287616	60	8946
2026-01-30 10:50:58.21	311.65	58.77	-46.1	-46.9	25.0	0.00e+00	0	45	0	2407530496	60	8623
2026-01-30 10:50:59.21	312.05	58.42	-46.1	-46.9	25.0	0.00e+00	0	45	0	2413821952	60	8701
2026-01-30 10:51:00.22	312.45	58.07	-46.3	-47.1	25.0	0.00e+00	0	45	0	2419064832	60	8897
2026-01-30 10:51:01.23	312.83	57.71	-46.4	-47.1	24.9	0.00e+00	0	45	0	2424307712	60	8919
2026-01-30 10:51:02.23	313.21	57.36	-46.3	-47.1	24.8	0.00e+00	0	45	0	2430599168	60	8845
2026-01-30 10:51:03.24	313.57	57.01	-46.4	-47.2	24.6	0.00e+00	0	45	0	2435842048	60	8926
2026-01-30 10:51:04.25	313.93	56.66	-46.5	-47.3	24.6	0.00e+00	0	45	0	2441084928	60	9051
2026-01-30 10:51:05.25	314.28	56.31	-46.6	-47.4	24.6	0.00e+00	0	45	0	2447376384	60	9146
2026-01-30 10:51:06.26	314.62	55.97	-46.6	-47.4	24.7	0.00e+00	0	45	0	2452619264	60	9214
2026-01-30 10:51:07.26	314.95	55.62	-46.6	-47.5	24.7	0.00e+00	0	45	0	2457862144	60	9293
2026-01-30 10:51:08.26	315.27	55.28	-46.5	-47.3	25.0	0.00e+00	0	45	0	2464153600	60	9034
2026-01-30 10:51:09.26	315.58	54.94	-46.3	-46.9	25.2	0.00e+00	0	45	0	2470445056	60	8711
2026-01-30 10:51:10.27	315.89	54.60	-46.4	-47.1	25.0	0.00e+00	0	45	0	2475687936	60	8854
2026-01-30 10:51:11.28	316.19	54.25	-46.7	-47.5	24.6	0.00e+00	0	45	0	2480930816	60	9268
2026-01-30 10:51:12.28	316.48	53.92	-46.9	-47.8	24.4	0.00e+00	0	45	0	2487222272	60	9587
2026-01-30 10:51:13.29	316.77	53.58	-47.1	-48.0	24.4	0.00e+00	0	45	0	2492465152	60	9838
2026-01-30 10:51:14.29	317.05	53.25	-47.1	-47.9	24.5	0.00e+00	0	45	0	2498756608	60	9765
2026-01-30 10:51:15.30	317.32	52.91	-46.9	-47.6	24.7	0.00e+00	0	45	0	2503999488	60	9427
2026-01-30 10:51:16.30	317.59	52.58	-47.0	-47.7	24.6	0.00e+00	0	45	0	2509242368	60	9470
2026-01-30 10:51:17.31	317.85	52.25	-46.8	-47.5	24.6	0.00e+00	0	45	0	2515533824	60	9280
2026-01-30 10:51:18.32	318.11	51.92	-46.8	-47.5	24.5	0.00e+00	0	45	0	2520776704	60	9305
2026-01-30 10:51:19.32	318.36	51.59	-46.7	-47.6	24.6	0.00e+00	0	45	0	2526019584	60	9350
2026-01-30 10:51:20.33	318.61	51.26	-46.8	-47.5	24.5	0.00e+00	0	45	0	2532311040	60	9334
2026-01-30 10:51:21.34	318.85	50.94	-46.7	-47.6	24.6	0.00e+00	0	45	0	2537553920	60	9406
2026-01-30 10:51:22.34	319.08	50.62	-46.3	-47.2	25.0	0.00e+00	0	45	0	2542796800	60	8941
2026-01-30 10:51:23.35	319.32	50.30	-46.2	-47.0	24.8	0.00e+00	0	45	0	2549088256	60	8760
2026-01-30 10:51:24.36	319.54	49.98	-45.8	-46.7	25.2	0.00e+00	0	45	0	2554331136	60	8449
2026-01-30 10:51:25.36	319.76	49.66	-45.7	-46.6	25.1	0.00e+00	0	45	0	2560622592	60	8344
2026-01-30 10:51:26.37	319.98	49.35	-45.5	-46.3	25.2	0.00e+00	0	45	0	2565865472	60	8111
2026-01-30 10:51:27.38	320.19	49.03	-45.6	-46.4	25.3	0.00e+00	0	45	0	2572156928	60	8144
2026-01-30 10:51:28.38	320.40	48.72	-45.6	-46.4	25.5	0.00e+00	0	45	0	2577399808	60	8185
2026-01-30 10:51:29.39	320.61	48.41	-45.9	-46.7	25.5	0.00e+00	0	45	0	2583691264	60	8470
2026-01-30 10:51:30.39	320.81	48.10	-46.1	-46.8	25.4	0.00e+00	0	45	0	2588934144	60	8559
2026-01-30 10:51:31.40	321.00	47.80	-46.1	-46.9	25.4	0.00e+00	0	45	0	2594177024	60	8626
2026-01-30 10:51:32.40	321.19	47.49	-45.9	-46.6	25.6	0.00e+00	0	45	0	2600468480	60	8387
2026-01-30 10:51:33.41	321.38	47.19	-45.7	-46.3	25.6	0.00e+00	0	45	0	2605711360	60	8095
2026-01-30 10:51:34.41	321.57	46.89	-45.6	-46.3	25.7	0.00e+00	0	45	0	2610954240	60	8096
2026-01-30 10:51:35.41	321.75	46.60	-45.5	-46.1	25.9	0.00e+00	0	45	0	2617245696	60	7884
2026-01-30 10:51:36.42	321.93	46.30	-45.5	-46.1	25.8	0.00e+00	0	45	0	2622488576	60	7897
2026-01-30 10:51:37.42	322.10	46.00	-45.5	-46.2	25.6	0.00e+00	0	45	0	2627731456	60	7971
2026-01-30 10:51:38.42	322.27	45.71	-45.6	-46.3	25.6	0.00e+00	0	45	0	2634022912	60	8083
2026-01-30 10:51:39.42	322.44	45.42	-45.7	-46.5	25.4	0.00e+00	0	45	0	2639265792	60	8294
2026-01-30 10:51:40.43	322.61	45.13	-45.8	-46.5	25.2	0.00e+00	0	45	0	2645557248	60	8267
2026-01-30 10:51:41.44	322.77	44.84	-45.8	-46.7	25.1	0.00e+00	0	45	0	2650800128	60	8439
2026-01-30 10:51:42.45	322.94	44.56	-45.7	-46.4	24.9	0.00e+00	0	45	0	2656043008	60	8212
2026-01-30 10:51:43.46	323.09	44.27	-45.7	-46.5	24.8	0.00e+00	0	45	0	2662334464	60	8274
2026-01-30 10:51:44.46	323.25	43.99	-45.8	-46.7	24.8	0.00e+00	0	45	0	2668625920	60	8433
2026-01-30 10:51:45.47	323.40	43.71	-45.9	-46.6	24.8	0.00e+00	0	45	0	2673868800	60	8367
2026-01-30 10:51:46.48	323.55	43.43	-45.9	-46.6	24.9	0.00e+00	0	45	0	2679111680	60	8367
2026-01-30 10:51:47.49	323.70	43.15	-45.8	-46.6	25.2	0.00e+00	0	45	0	2685403136	60	8396
2026-01-30 10:51:48.50	323.84	42.88	-45.7	-46.5	25.6	0.00e+00	0	45	0	2690646016	60	8239
2026-01-30 10:51:49.50	323.99	42.61	-45.6	-46.3	25.7	0.00e+00	0	45	0	2695888896	60	8121
2026-01-30 10:51:50.51	324.13	42.33	-45.5	-46.1	25.8	0.00e+00	0	45	0	2702180352	60	7910
2026-01-30 10:51:51.52	324.27	42.06	-45.3	-46.0	25.9	0.00e+00	0	45	0	2707423232	60	7860
2026-01-30 10:51:52.52	324.40	41.80	-45.1	-45.7	26.0	0.00e+00	0	45	0	2712666112	60	7543
2026-01-30 10:51:53.53	324.53	41.53	-45.0	-45.6	26.1	0.00e+00	0	45	0	2718957568	60	7465
2026-01-30 10:51:54.53	324.67	41.27	-45.0	-45.6	26.1	0.00e+00	0	45	0	2724200448	60	7435
2026-01-30 10:51:55.53	324.79	41.01	-44.9	-45.5	26.2	0.00e+00	0	45	0	2730491904	60	7392
2026-01-30 10:51:56.54	324.92	40.75	-44.9	-45.6	26.2	0.00e+00	0	45	0	2735734784	60	7502
2026-01-30 10:51:57.55	325.05	40.49	-44.9	-45.4	26.3	0.00e+00	0	45	0	2740977664	60	7323
2026-01-30 10:51:58.55	325.17	40.23	-44.9	-45.6	26.3	0.00e+00	0	45	0	2747269120	60	7446
2026-01-30 10:51:59.56	325.29	39.97	-44.9	-45.6	26.3	0.00e+00	0	45	0	2752512000	60	7462
2026-01-30 10:52:00.57	325.41	39.72	-44.9	-45.5	26.3	0.00e+00	0	45	0	2758803456	60	7364
2026-01-30 10:52:01.58	325.53	39.47	-44.9	-45.5	26.0	0.00e+00	0	45	0	2764046336	60	7417
2026-01-30 10:52:02.58	325.65	39.22	-45.0	-45.7	25.8	0.00e+00	0	45	0	2770337792	60	7512
2026-01-30 10:52:03.59	325.76	38.97	-45.0	-45.8	25.6	0.00e+00	0	45	0	2775580672	60	7642
2026-01-30 10:52:04.60	325.88	38.72	-45.2	-45.9	25.4	0.00e+00	0	45	0	2780823552	60	7701
2026-01-30 10:52:05.60	325.99	38.48	-45.1	-45.8	25.4	0.00e+00	0	45	0	2787115008	60	7673
2026-01-30 10:52:06.61	326.10	38.23	-45.2	-45.9	25.4	0.00e+00	0	45	0	2792357888	60	7752
2026-01-30 10:52:07.62	326.21	37.99	-45.3	-46.1	25.3	0.00e+00	0	45	0	2797600768	60	7868
2026-01-30 10:52:08.62	326.31	37.75	-45.3	-46.3	25.3	0.00e+00	0	45	0	2803892224	60	8053
2026-01-30 10:52:09.62	326.42	37.51	-45.3	-46.3	25.5	0.00e+00	0	45	0	2809135104	60	8047
2026-01-30 10:52:10.63	326.52	37.28	-45.4	-46.1	25.7	0.00e+00	0	45	0	2815426560	60	7897
2026-01-30 10:52:11.64	326.62	37.04	-45.3	-46.0	25.8	0.00e+00	0	45	0	2820669440	60	7821
2026-01-30 10:52:12.64	326.72	36.81	-45.2	-45.9	26.0	0.00e+00	0	45	0	2825912320	60	7723
2026-01-30 10:52:13.65	326.82	36.57	-45.3	-45.9	26.0	0.00e+00	0	45	0	2832203776	60	7749
2026-01-30 10:52:14.66	326.92	36.34	-45.2	-46.0	25.9	0.00e+00	0	45	0	2837446656	60	7824
2026-01-30 10:52:15.67	327.02	36.11	-45.4	-46.0	25.8	0.00e+00	0	45	0	2843738112	60	7829
2026-01-30 10:52:16.67	327.11	35.89	-45.4	-46.2	25.7	0.00e+00	0	45	0	2848980992	60	7968
2026-01-30 10:52:17.68	327.21	35.66	-45.4	-46.1	25.6	0.00e+00	0	45	0	2855272448	60	7880
2026-01-30 10:52:18.69	327.30	35.43	-45.3	-45.9	25.7	0.00e+00	0	45	0	2860515328	60	7748
2026-01-30 10:52:19.70	327.39	35.21	-45.5	-46.1	25.6	0.00e+00	0	45	0	2865758208	60	7900
2026-01-30 10:52:20.71	327.48	34.99	-45.4	-46.1	25.8	0.00e+00	0	45	0	2872049664	60	7946
2026-01-30 10:52:21.72	327.57	34.77	-45.3	-46.1	25.7	0.00e+00	0	45	0	2877292544	60	7917
2026-01-30 10:52:22.73	327.66	34.55	-45.4	-46.1	25.7	0.00e+00	0	45	0	2882535424	60	7908
2026-01-30 10:52:23.73	327.75	34.33	-45.4	-46.1	25.7	0.00e+00	0	45	0	2888826880	60	7876
2026-01-30 10:52:24.74	327.84	34.11	-45.4	-46.1	25.6	0.00e+00	0	45	0	2894069760	60	7898
2026-01-30 10:52:25.74	327.92	33.90	-45.4	-46.1	25.7	0.00e+00	0	45	0	2900361216	60	7951
2026-01-30 10:52:26.75	328.00	33.69	-45.4	-46.2	25.8	0.00e+00	0	45	0	2905604096	60	7966
2026-01-30 10:52:27.75	328.09	33.48	-45.3	-46.1	25.8	0.00e+00	0	45	0	2910846976	60	7882
2026-01-30 10:52:28.76	328.17	33.27	-45.5	-46.2	25.7	0.00e+00	0	45	0	2917138432	60	8010
2026-01-30 10:52:29.77	328.25	33.06	-45.7	-46.3	25.6	0.00e+00	0	45	0	2923429888	60	8129
2026-01-30 10:52:30.78	328.33	32.85	-45.6	-46.3	25.6	0.00e+00	0	45	0	2928672768	60	8076
2026-01-30 10:52:31.78	328.41	32.64	-45.5	-46.1	25.7	0.00e+00	0	45	0	2933915648	60	7945
2026-01-30 10:52:32.79	328.49	32.44	-45.6	-46.3	25.6	0.00e+00	0	45	0	2940207104	60	8050
2026-01-30 10:52:33.80	328.57	32.24	-45.8	-46.4	25.5	0.00e+00	0	45	0	2945449984	60	8165
2026-01-30 10:52:34.81	328.64	32.03	-45.7	-46.4	25.4	0.00e+00	0	45	0	2950692864	60	8156
2026-01-30 10:52:35.82	328.72	31.83	-45.8	-46.6	25.4	0.00e+00	0	45	0	2956984320	60	8336
2026-01-30 10:52:36.82	328.79	31.63	-45.8	-46.5	25.4	0.00e+00	0	45	0	2962227200	60	8301
2026-01-30 10:52:37.83	328.87	31.44	-45.7	-46.4	25.5	0.00e+00	0	45	0	2967470080	60	8165
2026-01-30 10:52:38.83	328.94	31.24	-45.8	-46.5	25.4	0.00e+00	0	45	0	2973761536	60	8246
2026-01-30 10:52:39.84	329.01	31.04	-45.7	-46.4	25.5	0.00e+00	0	45	0	2979004416	60	8220
2026-01-30 10:52:40.85	329.08	30.85	-45.7	-46.4	25.5	0.00e+00	0	45	0	2985295872	60	8152
2026-01-30 10:52:41.86	329.15	30.66	-45.6	-46.2	25.6	0.00e+00	0	45	0	2990538752	60	7978
2026-01-30 10:52:42.86	329.22	30.46	-45.5	-46.3	25.7	0.00e+00	0	45	0	2995781632	60	8051
2026-01-30 10:52:43.87	329.29	30.27	-45.4	-46.1	25.7	0.00e+00	0	45	0	3002073088	60	7923
2026-01-30 10:52:44.87	329.36	30.09	-45.4	-46.0	25.8	0.00e+00	0	45	0	3008364544	60	7830
2026-01-30 10:52:45.87	329.43	29.90	-45.5	-46.1	25.5	0.00e+00	0	45	0	3013607424	60	7905
2026-01-30 10:52:46.88	329.49	29.71	-45.3	-45.9	25.7	0.00e+00	0	45	0	3018850304	60	7745
2026-01-30 10:52:47.88	329.56	29.53	-45.3	-45.9	25.8	0.00e+00	0	45	0	3025141760	60	7709
2026-01-30 10:52:48.90	329.62	29.34	-45.3	-45.9	25.7	0.00e+00	0	45	0	3030384640	60	7716
2026-01-30 10:52:49.90	329.69	29.16	-45.3	-45.9	25.6	0.00e+00	0	45	0	3035627520	60	7764
2026-01-30 10:52:50.91	329.75	28.97	-45.3	-45.9	25.7	0.00e+00	0	45	0	3041918976	60	7764
2026-01-30 10:52:51.92	329.82	28.79	-45.3	-46.0	25.5	0.00e+00	0	45	0	3047161856	60	7820
2026-01-30 10:52:52.92	329.88	28.61	-45.3	-46.1	25.6	0.00e+00	0	45	0	3052404736	60	7915
2026-01-30 10:52:53.93	329.94	28.44	-45.4	-46.3	25.4	0.00e+00	0	45	0	3058696192	60	8067
2026-01-30 10:52:54.93	330.00	28.26	-45.4	-46.2	25.2	0.00e+00	0	45	0	3063939072	60	7954
2026-01-30 10:52:55.94	330.06	28.08	-45.3	-46.2	25.4	0.00e+00	0	45	0	3070230528	60	7992
2026-01-30 10:52:56.94	330.12	27.91	-45.3	-46.1	25.3	0.00e+00	0	45	0	3075473408	60	7872
2026-01-30 10:52:57.95	330.18	27.73	-45.4	-46.1	25.3	0.00e+00	0	45	0	3080716288	60	7934
2026-01-30 10:52:58.95	330.24	27.56	-45.5	-46.3	25.4	0.00e+00	0	45	0	3087007744	60	8086
2026-01-30 10:52:59.96	330.30	27.39	-45.5	-46.3	25.4	0.00e+00	0	45	0	3092250624	60	8138
2026-01-30 10:53:00.97	330.36	27.22	-45.5	-46.2	25.5	0.00e+00	0	45	0	3098542080	60	7967
2026-01-30 10:53:01.97	330.41	27.05	-45.5	-46.2	25.6	0.00e+00	0	45	0	3103784960	60	7966
2026-01-30 10:53:02.98	330.47	26.88	-45.6	-46.3	25.4	0.00e+00	0	45	0	3110076416	60	8134
2026-01-30 10:53:03.98	330.52	26.71	-45.6	-46.2	25.5	0.00e+00	0	45	0	3115319296	60	8025
2026-01-30 10:53:04.99	330.58	26.54	-45.7	-46.3	25.3	0.00e+00	0	45	0	3120562176	60	8134
2026-01-30 10:53:06.00	330.64	26.38	-45.8	-46.6	25.2	0.00e+00	0	45	0	3126853632	60	8352
2026-01-30 10:53:07.01	330.69	26.21	-45.9	-46.5	25.2	0.00e+00	0	45	0	3132096512	60	8303
2026-01-30 10:53:08.02	330.74	26.05	-46.1	-46.9	25.0	0.00e+00	0	45	0	3137339392	60	8668
2026-01-30 10:53:09.02	330.80	25.88	-46.3	-47.1	24.7	0.00e+00	0	45	0	3143630848	60	8892
2026-01-30 10:53:10.03	330.85	25.72	-46.4	-47.2	24.6	0.00e+00	0	45	0	3148873728	60	9009
2026-01-30 10:53:11.02	330.90	25.56	-46.3	-47.0	24.7	0.00e+00	0	45	0	3155165184	60	8761
2026-01-30 10:53:12.03	330.95	25.40	-46.6	-47.2	24.5	0.00e+00	0	45	0	3160408064	60	9024
2026-01-30 10:53:13.04	331.00	25.24	-46.3	-47.1	24.6	0.00e+00	0	45	0	3165650944	60	8854
2026-01-30 10:53:14.04	331.06	25.08	-46.1	-46.9	24.8	0.00e+00	0	45	0	3171942400	60	8660
2026-01-30 10:53:15.05	331.11	24.93	-46.2	-46.9	24.7	0.00e+00	0	45	0	3177185280	60	8715
2026-01-30 10:53:16.05	331.16	24.77	-46.3	-47.0	24.7	0.00e+00	0	45	0	3182428160	60	8726
2026-01-30 10:53:17.06	331.21	24.61	-46.2	-47.0	24.8	0.00e+00	0	45	0	3188719616	60	8821
2026-01-30 10:53:18.06	331.25	24.46	-46.2	-46.9	24.8	0.00e+00	0	45	0	3193962496	60	8644
2026-01-30 10:53:19.07	331.30	24.31	-46.2	-46.8	24.8	0.00e+00	0	45	0	3200253952	60	8610
2026-01-30 10:53:20.07	331.35	24.16	-46.2	-46.9	24.8	0.00e+00	0	45	0	3205496832	60	8626
2026-01-30 10:53:21.08	331.40	24.00	-46.2	-47.0	24.8	0.00e+00	0	45	0	3211788288	60	8804
2026-01-30 10:53:22.08	331.45	23.85	-46.2	-46.8	24.7	0.00e+00	0	45	0	3217031168	60	8611
2026-01-30 10:53:23.09	331.49	23.70	-46.2	-46.8	24.6	0.00e+00	0	45	0	3222274048	60	8594
2026-01-30 10:53:24.10	331.54	23.55	-46.2	-46.8	24.6	0.00e+00	0	45	0	3228565504	60	8621
2026-01-30 10:53:25.10	331.59	23.40	-46.2	-46.9	24.5	0.00e+00	0	45	0	3233808384	60	8624
2026-01-30 10:53:26.11	331.63	23.26	-46.1	-46.9	24.5	0.00e+00	0	45	0	3240099840	60	8719
2026-01-30 10:53:27.11	331.68	23.11	-46.1	-46.8	24.4	0.00e+00	0	45	0	3245342720	60	8594
2026-01-30 10:53:28.12	331.72	22.96	-46.2	-46.8	24.4	0.00e+00	0	45	0	3250585600	60	8600
2026-01-30 10:53:29.13	331.77	22.82	-46.1	-46.7	24.6	0.00e+00	0	45	0	3256877056	60	8507
2026-01-30 10:53:30.14	331.81	22.67	-46.1	-46.9	24.5	0.00e+00	0	45	0	3262119936	60	8664
2026-01-30 10:53:31.14	331.86	22.53	-46.2	-47.0	24.5	0.00e+00	0	45	0	3267362816	60	8755
2026-01-30 10:53:32.15	331.90	22.39	-46.1	-46.9	24.6	0.00e+00	0	45	0	3273654272	60	8676
2026-01-30 10:53:33.15	331.94	22.24	-46.1	-46.8	24.6	0.00e+00	0	45	0	3278897152	60	8577
2026-01-30 10:53:34.16	331.98	22.10	-46.1	-46.8	24.5	0.00e+00	0	45	0	3284140032	60	8549
2026-01-30 10:53:35.16	332.03	21.96	-46.0	-46.8	24.6	0.00e+00	0	45	0	3290431488	60	8600
2026-01-30 10:53:36.17	332.07	21.82	-46.1	-47.0	24.5	0.00e+00	0	45	0	3296722944	60	8722
2026-01-30 10:53:37.17	332.11	21.68	-46.1	-46.9	24.6	0.00e+00	0	45	0	3301965824	60	8639
2026-01-30 10:53:38.18	332.15	21.55	-46.1	-47.0	24.6	0.00e+00	0	45	0	3307208704	60	8750
2026-01-30 10:53:39.19	332.19	21.41	-46.1	-47.0	24.6	0.00e+00	0	45	0	3313500160	60	8767
2026-01-30 10:53:40.19	332.23	21.27	-46.2	-47.1	24.5	0.00e+00	0	45	0	3318743040	60	8922
2026-01-30 10:53:41.20	332.28	21.14	-46.3	-47.0	24.6	0.00e+00	0	45	0	3325034496	60	8765
2026-01-30 10:53:42.21	332.32	21.00	-46.3	-47.2	24.6	0.00e+00	0	45	0	3330277376	60	8965
2026-01-30 10:53:43.22	332.36	20.86	-46.3	-47.2	24.5	0.00e+00	0	45	0	3335520256	60	8948
2026-01-30 10:53:44.22	332.39	20.73	-46.4	-47.1	24.4	0.00e+00	0	45	0	3341811712	60	8887
