passes_logs/2026/01/30/R3.2S-Naryan-Mar/R3.2S-Naryan-Mar__20260130_094626_SUOMI_NPP_rec.log

#Pass ID: 20260130_094626_SUOMI NPP
#Satellite: SUOMI NPP
#Configuration: NPP
#almurnet v.1.7.20240730
#Start time: 2026-01-30 09:46:28

#Version: 2.2.20231116
#Station: R3.2S-Naryan-Mar
#Location: 53.008057 lon 67.646978 lat
#TLE: 1 37849U 11061A   26029.48304708  .00000140  00000+0  87283-4 0  9999
#TLE: 2 37849  98.7824 331.4079 0002024  38.4342 321.6978 14.19531488738761

#Time	Az	El	Level	Level2	SNR	BER	BlckErr	Temp	State	Recorded	gain1	gain2
2026-01-30 09:46:28.39	187.23	0.12	-61.6	-75.3	3.4	1.52e+00	0	42	0	0	60	222225
2026-01-30 09:46:29.40	187.27	0.18	-60.9	-77.7	3.6	1.51e+00	0	43	104	0	60	301653
2026-01-30 09:46:30.41	187.31	0.24	-60.4	-77.8	3.6	1.51e+00	0	43	104	0	60	303162
2026-01-30 09:46:31.41	187.36	0.29	-61.0	-78.1	3.6	1.51e+00	0	43	104	0	60	314339
2026-01-30 09:46:32.42	187.40	0.35	-61.5	-78.1	3.6	1.51e+00	0	44	104	0	60	316214
2026-01-30 09:46:33.42	187.44	0.41	-61.6	-78.1	3.6	1.51e+00	0	44	104	0	60	315888
2026-01-30 09:46:34.43	187.48	0.47	-61.9	-78.3	3.6	1.51e+00	0	44	104	0	60	323942
2026-01-30 09:46:35.44	187.52	0.53	-62.0	-78.5	3.6	1.51e+00	0	44	104	0	60	328944
2026-01-30 09:46:36.45	187.56	0.59	-62.0	-78.4	3.6	1.51e+00	0	44	104	0	60	324751
2026-01-30 09:46:37.46	187.60	0.65	-62.0	-78.4	3.6	1.51e+00	0	44	104	0	60	326244
2026-01-30 09:46:38.47	187.64	0.70	-61.9	-78.3	3.6	1.51e+00	0	44	104	0	60	321697
2026-01-30 09:46:39.47	187.69	0.76	-61.7	-78.1	3.6	1.51e+00	0	44	104	0	60	314384
2026-01-30 09:46:40.48	187.73	0.82	-61.7	-78.1	3.6	1.51e+00	0	44	104	0	60	314192
2026-01-30 09:46:41.49	187.77	0.88	-61.6	-77.9	3.6	1.51e+00	0	44	104	0	60	308899
2026-01-30 09:46:42.49	187.81	0.94	-61.5	-77.8	3.6	1.51e+00	0	44	104	0	60	303949
2026-01-30 09:46:43.50	187.85	1.00	-61.4	-77.8	3.6	1.51e+00	0	44	104	0	60	303374
2026-01-30 09:46:44.51	187.90	1.06	-61.5	-77.8	3.6	1.51e+00	0	44	104	0	60	303922
2026-01-30 09:46:45.52	187.94	1.12	-61.4	-77.8	3.6	1.51e+00	0	44	104	0	60	302777
2026-01-30 09:46:46.53	187.98	1.18	-61.2	-77.5	3.6	1.51e+00	0	44	104	0	60	292959
2026-01-30 09:46:47.54	188.03	1.24	-61.1	-77.4	3.6	1.51e+00	0	44	104	0	60	290547
2026-01-30 09:46:48.55	188.07	1.30	-60.8	-77.3	3.6	1.51e+00	0	44	104	0	60	286608
2026-01-30 09:46:49.55	188.11	1.36	-60.8	-77.2	3.6	1.51e+00	0	44	104	0	60	282900
2026-01-30 09:46:50.56	188.16	1.42	-60.6	-77.1	3.6	1.51e+00	0	44	104	0	60	278981
2026-01-30 09:46:51.57	188.20	1.48	-60.6	-76.9	3.6	1.51e+00	0	44	104	0	60	275508
2026-01-30 09:46:52.57	188.24	1.54	-60.4	-76.8	3.6	1.51e+00	0	44	104	0	60	271381
2026-01-30 09:46:53.57	188.29	1.60	-60.4	-76.7	3.6	1.51e+00	0	44	104	0	60	268455
2026-01-30 09:46:54.58	188.33	1.66	-60.2	-76.6	3.6	1.51e+00	0	44	104	0	60	263528
2026-01-30 09:46:55.58	188.38	1.72	-60.0	-76.5	3.6	1.51e+00	0	44	104	0	60	260406
2026-01-30 09:46:56.59	188.42	1.78	-59.9	-76.3	3.6	1.51e+00	0	44	104	0	60	256238
2026-01-30 09:46:57.59	188.46	1.84	-59.6	-76.0	3.5	1.51e+00	0	44	104	0	60	248029
2026-01-30 09:46:58.60	188.51	1.90	-59.5	-75.9	3.6	1.51e+00	0	44	104	0	60	243618
2026-01-30 09:46:59.61	188.56	1.96	-59.3	-75.7	3.6	1.51e+00	0	44	104	0	60	237650
2026-01-30 09:47:00.62	188.60	2.02	-59.0	-75.4	3.6	1.51e+00	0	44	104	0	60	231037
2026-01-30 09:47:01.62	188.65	2.08	-58.8	-75.3	3.6	1.51e+00	0	44	104	0	60	228055
2026-01-30 09:47:02.63	188.69	2.15	-58.6	-75.1	3.6	1.51e+00	0	44	104	0	60	222675
2026-01-30 09:47:03.64	188.74	2.21	-58.4	-74.8	3.6	1.51e+00	0	44	104	0	60	214375
2026-01-30 09:47:04.65	188.78	2.27	-58.0	-74.6	3.6	1.51e+00	0	44	104	0	60	209358
2026-01-30 09:47:05.65	188.83	2.33	-57.5	-74.2	3.6	1.51e+00	0	44	104	0	60	201473
2026-01-30 09:47:06.66	188.88	2.39	-57.4	-74.1	3.6	1.51e+00	0	44	104	0	60	199210
2026-01-30 09:47:07.67	188.92	2.46	-57.4	-74.1	3.6	1.51e+00	0	44	104	0	60	198978
2026-01-30 09:47:08.68	188.97	2.52	-57.4	-74.1	3.6	1.51e+00	0	44	104	0	60	198533
2026-01-30 09:47:09.68	189.01	2.58	-57.4	-74.0	3.6	1.51e+00	0	44	104	0	60	196747
2026-01-30 09:47:10.69	189.06	2.64	-57.3	-74.0	3.6	1.51e+00	0	44	104	0	60	196372
2026-01-30 09:47:11.70	189.11	2.70	-57.3	-74.0	3.6	1.51e+00	0	44	104	0	60	196431
2026-01-30 09:47:12.70	189.16	2.77	-57.3	-74.0	3.6	1.51e+00	0	44	104	0	60	195595
2026-01-30 09:47:13.71	189.20	2.83	-57.3	-74.0	3.6	1.51e+00	0	44	104	0	60	195326
2026-01-30 09:47:14.72	189.25	2.89	-57.3	-73.9	3.6	1.51e+00	0	44	104	0	60	193753
2026-01-30 09:47:15.72	189.30	2.96	-57.3	-74.0	3.6	1.51e+00	0	44	104	0	60	196003
2026-01-30 09:47:16.73	189.35	3.02	-57.3	-73.9	3.6	1.51e+00	0	44	104	0	60	193291
2026-01-30 09:47:17.73	189.40	3.08	-57.2	-73.9	3.6	1.51e+00	0	44	104	0	60	194730
2026-01-30 09:47:18.74	189.44	3.15	-57.2	-73.9	3.6	1.51e+00	0	44	104	0	60	194629
2026-01-30 09:47:19.75	189.49	3.21	-57.2	-73.8	3.6	1.51e+00	0	44	104	0	60	192845
2026-01-30 09:47:20.76	189.54	3.27	-57.2	-73.9	3.6	1.51e+00	0	44	104	0	60	193048
2026-01-30 09:47:21.76	189.59	3.34	-57.2	-73.8	3.5	1.51e+00	0	44	104	0	60	192503
2026-01-30 09:47:22.77	189.64	3.40	-57.2	-73.8	3.6	1.51e+00	0	44	104	0	60	191227
2026-01-30 09:47:23.78	189.69	3.46	-57.2	-73.8	3.6	1.51e+00	0	44	104	0	60	191214
2026-01-30 09:47:24.78	189.74	3.53	-57.2	-73.8	3.6	1.51e+00	0	44	104	0	60	192896
2026-01-30 09:47:25.79	189.79	3.59	-57.2	-73.8	3.5	1.51e+00	0	44	104	0	60	192055
2026-01-30 09:47:26.79	189.84	3.66	-57.2	-73.8	3.6	1.51e+00	0	44	104	0	60	190995
2026-01-30 09:47:27.80	189.89	3.72	-57.2	-73.8	3.6	1.51e+00	0	44	104	0	60	192146
2026-01-30 09:47:28.81	189.94	3.79	-57.2	-73.8	3.6	1.51e+00	0	44	104	0	60	192185
2026-01-30 09:47:29.81	189.99	3.85	-57.2	-73.8	3.6	1.51e+00	0	44	104	0	60	192265
2026-01-30 09:47:30.82	190.04	3.92	-57.2	-73.8	3.6	1.51e+00	0	44	104	0	60	192588
2026-01-30 09:47:31.82	190.09	3.98	-57.2	-73.8	3.6	1.51e+00	0	44	104	0	60	192104
2026-01-30 09:47:32.83	190.14	4.05	-57.2	-73.8	3.6	1.51e+00	0	44	104	0	60	190842
2026-01-30 09:47:33.84	190.20	4.11	-57.2	-73.7	3.6	1.51e+00	0	44	104	0	60	188979
2026-01-30 09:47:34.85	190.25	4.18	-57.2	-73.7	3.6	1.51e+00	0	44	104	0	60	189350
2026-01-30 09:47:35.86	190.30	4.24	-57.2	-73.7	3.6	1.51e+00	0	44	104	0	60	189168
2026-01-30 09:47:36.87	190.35	4.31	-57.2	-73.7	3.6	1.51e+00	0	44	104	0	60	189276
2026-01-30 09:47:37.88	190.40	4.38	-57.1	-73.7	3.6	1.51e+00	0	44	104	0	60	190042
2026-01-30 09:47:38.88	190.46	4.44	-57.1	-73.8	3.6	1.51e+00	0	44	104	0	60	190796
2026-01-30 09:47:39.89	190.51	4.51	-57.1	-73.8	3.6	1.51e+00	0	44	104	0	60	190848
2026-01-30 09:47:40.90	190.56	4.58	-57.1	-73.7	3.6	1.51e+00	0	44	104	0	60	188804
2026-01-30 09:47:41.90	190.62	4.64	-57.1	-73.5	3.6	1.51e+00	0	44	104	0	60	186205
2026-01-30 09:47:42.90	190.67	4.71	-57.1	-73.4	3.6	1.51e+00	0	44	104	0	60	183083
2026-01-30 09:47:43.91	190.72	4.77	-57.1	-73.3	3.6	1.51e+00	0	44	104	0	60	181036
2026-01-30 09:47:44.91	190.78	4.84	-57.1	-73.2	3.6	1.51e+00	0	44	104	0	60	179319
2026-01-30 09:47:45.92	190.83	4.91	-57.1	-73.0	3.6	1.51e+00	0	44	104	0	60	175876
2026-01-30 09:47:46.93	190.89	4.98	-57.0	-72.3	3.6	1.51e+00	0	44	104	0	60	162298
2026-01-30 09:47:47.94	190.94	5.04	-57.0	-71.1	3.8	1.51e+00	0	45	104	0	60	141364
2026-01-30 09:47:48.95	191.00	5.11	-56.9	-68.2	4.2	1.42e+00	0	44	0	0	60	100744
2026-01-30 09:47:49.95	191.05	5.18	-56.7	-66.2	5.4	5.69e-01	0	44	0	2097152	60	79873
2026-01-30 09:47:50.96	191.11	5.25	-56.5	-64.8	7.0	2.42e-01	0	44	0	3145728	60	67738
2026-01-30 09:47:51.96	191.16	5.31	-56.2	-63.2	8.8	7.82e-02	0	44	0	5242880	60	56926
2026-01-30 09:47:52.97	191.22	5.38	-55.9	-62.0	10.3	1.96e-02	0	44	0	2097152	60	49169
2026-01-30 09:47:53.97	191.27	5.45	-55.7	-61.2	11.2	1.74e-03	0	44	0	4194304	60	44944
2026-01-30 09:47:54.98	191.33	5.52	-55.4	-60.4	12.1	5.10e-04	0	44	0	5242880	60	40946
2026-01-30 09:47:55.99	191.39	5.59	-55.1	-59.7	12.8	1.74e-04	0	44	0	7340032	60	38065
2026-01-30 09:47:56.99	191.44	5.66	-55.0	-59.4	13.2	3.12e-05	0	44	0	9437184	60	36635
2026-01-30 09:47:58.00	191.50	5.73	-55.0	-59.3	13.2	2.89e-05	0	44	0	11534336	60	36301
2026-01-30 09:47:59.00	191.56	5.80	-55.1	-59.6	12.7	2.82e-05	0	45	0	13631488	60	37621
2026-01-30 09:48:00.01	191.62	5.86	-55.2	-60.0	12.5	9.15e-05	0	44	0	15728640	60	39220
2026-01-30 09:48:01.02	191.67	5.93	-55.6	-61.0	11.3	4.02e-04	0	44	0	16777216	60	44207
2026-01-30 09:48:02.02	191.73	6.00	-55.9	-62.0	10.2	1.91e-03	0	45	0	18874368	60	49344
2026-01-30 09:48:03.02	191.79	6.07	-54.2	-57.4	15.4	5.41e-03	0	44	0	20971520	60	29195
2026-01-30 09:48:04.03	191.85	6.14	-56.8	-69.4	3.5	6.62e-02	0	45	0	23068672	60	116189
2026-01-30 09:48:05.04	191.91	6.21	-54.4	-57.9	14.7	7.55e-01	0	45	104	23068672	60	30690
2026-01-30 09:48:06.05	191.97	6.28	-53.8	-56.7	16.0	7.00e-07	0	45	0	1048576	60	26926
2026-01-30 09:48:07.04	192.02	6.35	-55.8	-61.6	10.0	1.44e-05	0	45	0	3145728	60	47374
2026-01-30 09:48:08.05	192.08	6.42	-54.3	-57.7	15.2	4.62e-03	0	45	0	5242880	60	29969
2026-01-30 09:48:09.06	192.14	6.50	-54.0	-57.1	15.7	0.00e+00	0	45	0	7340032	60	28191
2026-01-30 09:48:10.07	192.21	6.57	-54.1	-57.2	15.7	0.00e+00	0	45	0	8388608	60	28329
2026-01-30 09:48:11.07	192.27	6.64	-54.0	-57.1	15.7	0.00e+00	0	45	0	10485760	60	28157
2026-01-30 09:48:12.07	192.33	6.71	-53.8	-56.6	16.1	0.00e+00	0	44	0	12582912	60	26580
2026-01-30 09:48:13.08	192.39	6.78	-53.8	-56.7	16.2	0.00e+00	0	44	0	14680064	60	26942
2026-01-30 09:48:14.09	192.45	6.85	-53.9	-56.8	16.1	0.00e+00	0	45	0	15728640	60	27126
2026-01-30 09:48:15.10	192.51	6.92	-53.7	-56.6	16.2	0.00e+00	0	44	0	17825792	60	26429
2026-01-30 09:48:16.10	192.57	7.00	-53.7	-56.4	16.4	0.00e+00	0	45	0	19922944	60	25953
2026-01-30 09:48:17.11	192.63	7.07	-53.7	-56.5	16.3	0.00e+00	0	45	0	22020096	60	26312
2026-01-30 09:48:18.12	192.70	7.14	-53.6	-56.4	16.5	0.00e+00	0	45	0	24117248	60	25744
2026-01-30 09:48:19.13	192.76	7.21	-53.7	-56.4	16.5	0.00e+00	0	45	0	26214400	60	25849
2026-01-30 09:48:20.14	192.82	7.29	-53.8	-56.6	16.3	0.00e+00	0	44	0	27262976	60	26349
2026-01-30 09:48:21.14	192.89	7.36	-53.8	-56.7	16.3	0.00e+00	0	45	0	29360128	60	26736
2026-01-30 09:48:22.14	192.95	7.43	-53.7	-56.5	16.4	0.00e+00	0	44	0	31457280	60	26180
2026-01-30 09:48:23.15	193.01	7.51	-53.7	-56.4	16.5	0.00e+00	0	45	0	33554432	60	25999
2026-01-30 09:48:24.16	193.08	7.58	-53.5	-56.1	16.8	0.00e+00	0	45	0	35651584	60	24926
2026-01-30 09:48:25.16	193.14	7.65	-53.5	-56.1	16.8	0.00e+00	0	44	0	36700160	60	25041
2026-01-30 09:48:26.16	193.21	7.73	-53.6	-56.2	16.8	0.00e+00	0	44	0	38797312	60	25364
2026-01-30 09:48:27.17	193.27	7.80	-53.4	-55.9	17.0	0.00e+00	0	45	0	40894464	60	24428
2026-01-30 09:48:28.17	193.34	7.87	-53.5	-56.2	16.9	0.00e+00	0	45	0	42991616	60	25309
2026-01-30 09:48:29.18	193.40	7.95	-53.4	-56.0	16.9	0.00e+00	0	45	0	44040192	60	24674
2026-01-30 09:48:30.18	193.47	8.02	-53.3	-55.9	17.1	0.00e+00	0	44	0	46137344	60	24328
2026-01-30 09:48:31.19	193.54	8.10	-53.4	-56.0	16.9	0.00e+00	0	45	0	48234496	60	24683
2026-01-30 09:48:32.20	193.60	8.17	-53.4	-55.9	17.2	0.00e+00	0	45	0	50331648	60	24356
2026-01-30 09:48:33.20	193.67	8.25	-53.4	-56.0	17.0	0.00e+00	0	45	0	52428800	60	24697
2026-01-30 09:48:34.20	193.74	8.32	-53.2	-55.7	17.3	0.00e+00	0	45	0	53477376	60	23761
2026-01-30 09:48:35.21	193.81	8.40	-53.1	-55.5	17.4	0.00e+00	0	45	0	55574528	60	23392
2026-01-30 09:48:36.22	193.87	8.47	-53.2	-55.6	17.3	0.00e+00	0	45	0	57671680	60	23609
2026-01-30 09:48:37.22	193.94	8.55	-53.1	-55.5	17.5	0.00e+00	0	45	0	59768832	60	23314
2026-01-30 09:48:38.23	194.01	8.63	-53.2	-55.6	17.4	0.00e+00	0	45	0	61865984	60	23651
2026-01-30 09:48:39.24	194.08	8.70	-53.3	-55.7	17.4	0.00e+00	0	45	0	63963136	60	23862
2026-01-30 09:48:40.24	194.15	8.78	-53.1	-55.4	17.7	0.00e+00	0	45	0	65011712	60	23189
2026-01-30 09:48:41.25	194.22	8.86	-53.1	-55.4	17.6	0.00e+00	0	45	0	67108864	60	23108
2026-01-30 09:48:42.26	194.29	8.93	-53.0	-55.3	17.8	0.00e+00	0	45	0	69206016	60	22722
2026-01-30 09:48:43.26	194.36	9.01	-53.0	-55.3	17.8	0.00e+00	0	45	0	71303168	60	22855
2026-01-30 09:48:44.26	194.43	9.09	-52.9	-55.1	18.0	0.00e+00	0	45	0	72351744	60	22313
2026-01-30 09:48:45.27	194.50	9.16	-52.9	-55.1	18.0	0.00e+00	0	45	0	74448896	60	22331
2026-01-30 09:48:46.27	194.57	9.24	-53.0	-55.2	17.9	0.00e+00	0	45	0	76546048	60	22579
2026-01-30 09:48:47.28	194.65	9.32	-52.9	-55.0	18.2	0.00e+00	0	45	0	78643200	60	22009
2026-01-30 09:48:48.28	194.72	9.40	-52.8	-54.9	18.2	0.00e+00	0	44	0	80740352	60	21842
2026-01-30 09:48:49.29	194.79	9.48	-52.9	-55.0	18.2	0.00e+00	0	44	0	81788928	60	21989
2026-01-30 09:48:50.29	194.86	9.55	-52.8	-54.9	18.4	0.00e+00	0	44	0	83886080	60	21656
2026-01-30 09:48:51.29	194.94	9.63	-52.9	-55.0	18.3	0.00e+00	0	45	0	85983232	60	22022
2026-01-30 09:48:52.30	195.01	9.71	-52.9	-54.9	18.3	0.00e+00	0	45	0	88080384	60	21859
2026-01-30 09:48:53.30	195.08	9.79	-52.9	-54.9	18.3	0.00e+00	0	45	0	90177536	60	21846
2026-01-30 09:48:54.30	195.16	9.87	-52.7	-54.8	18.5	0.00e+00	0	45	0	91226112	60	21414
2026-01-30 09:48:55.31	195.23	9.95	-52.7	-54.6	18.6	0.00e+00	0	45	0	93323264	60	21130
2026-01-30 09:48:56.32	195.31	10.03	-52.8	-54.8	18.5	0.00e+00	0	45	0	95420416	60	21567
2026-01-30 09:48:57.33	195.38	10.11	-52.6	-54.6	18.6	0.00e+00	0	45	0	97517568	60	21023
2026-01-30 09:48:58.33	195.46	10.19	-52.6	-54.6	18.6	0.00e+00	0	45	0	99614720	60	20971
2026-01-30 09:48:59.33	195.54	10.27	-52.7	-54.6	18.7	0.00e+00	0	45	0	100663296	60	21143
2026-01-30 09:49:00.34	195.61	10.35	-52.6	-54.5	18.8	0.00e+00	0	44	0	102760448	60	20893
2026-01-30 09:49:01.35	195.69	10.43	-52.7	-54.7	18.6	0.00e+00	0	45	0	104857600	60	21230
2026-01-30 09:49:02.35	195.77	10.51	-52.4	-54.3	18.9	0.00e+00	0	45	0	106954752	60	20376
2026-01-30 09:49:03.36	195.85	10.59	-52.4	-54.3	19.0	0.00e+00	0	45	0	109051904	60	20384
2026-01-30 09:49:04.37	195.93	10.68	-52.2	-54.0	19.3	0.00e+00	0	45	0	110100480	60	19666
2026-01-30 09:49:05.37	196.00	10.76	-52.2	-54.0	19.2	0.00e+00	0	45	0	112197632	60	19572
2026-01-30 09:49:06.38	196.08	10.84	-52.1	-53.8	19.4	0.00e+00	0	44	0	114294784	60	19193
2026-01-30 09:49:07.39	196.16	10.92	-52.0	-53.7	19.5	0.00e+00	0	44	0	116391936	60	18944
2026-01-30 09:49:08.39	196.24	11.00	-52.0	-53.7	19.6	0.00e+00	0	45	0	118489088	60	18994
2026-01-30 09:49:09.40	196.32	11.09	-51.9	-53.6	19.6	0.00e+00	0	45	0	119537664	60	18653
2026-01-30 09:49:10.41	196.41	11.17	-51.8	-53.5	19.7	0.00e+00	0	44	0	121634816	60	18476
2026-01-30 09:49:11.42	196.49	11.25	-51.8	-53.5	19.7	0.00e+00	0	45	0	123731968	60	18526
2026-01-30 09:49:12.43	196.57	11.34	-51.8	-53.5	19.8	0.00e+00	0	45	0	125829120	60	18452
2026-01-30 09:49:13.44	196.65	11.42	-51.8	-53.5	19.8	0.00e+00	0	44	0	127926272	60	18545
2026-01-30 09:49:14.44	196.74	11.51	-51.8	-53.5	19.7	0.00e+00	0	44	0	128974848	60	18643
2026-01-30 09:49:15.45	196.82	11.59	-51.7	-53.4	19.9	0.00e+00	0	44	0	131072000	60	18252
2026-01-30 09:49:16.46	196.90	11.67	-51.9	-53.6	19.7	0.00e+00	0	44	0	133169152	60	18771
2026-01-30 09:49:17.47	196.99	11.76	-51.9	-53.6	19.7	0.00e+00	0	45	0	135266304	60	18736
2026-01-30 09:49:18.47	197.07	11.84	-51.9	-53.7	19.6	0.00e+00	0	45	0	137363456	60	18986
2026-01-30 09:49:19.48	197.16	11.93	-51.9	-53.6	19.7	0.00e+00	0	45	0	138412032	60	18856
2026-01-30 09:49:20.49	197.24	12.02	-52.1	-53.9	19.5	0.00e+00	0	45	0	140509184	60	19344
2026-01-30 09:49:21.49	197.33	12.10	-51.9	-53.7	19.7	0.00e+00	0	45	0	142606336	60	18924
2026-01-30 09:49:22.49	197.42	12.19	-52.0	-53.8	19.5	0.00e+00	0	45	0	144703488	60	19131
2026-01-30 09:49:23.50	197.50	12.27	-52.1	-53.9	19.5	0.00e+00	0	45	0	146800640	60	19482
2026-01-30 09:49:24.51	197.59	12.36	-52.2	-54.0	19.3	0.00e+00	0	45	0	147849216	60	19607
2026-01-30 09:49:25.51	197.68	12.44	-52.3	-54.1	19.3	0.00e+00	0	44	0	149946368	60	19902
2026-01-30 09:49:26.52	197.77	12.53	-52.4	-54.2	19.1	0.00e+00	0	44	0	152043520	60	20147
2026-01-30 09:49:27.52	197.86	12.62	-52.5	-54.4	18.9	0.00e+00	0	44	0	154140672	60	20563
2026-01-30 09:49:28.52	197.94	12.71	-52.8	-54.8	18.7	0.00e+00	0	44	0	156237824	60	21431
2026-01-30 09:49:29.53	198.03	12.79	-52.4	-54.2	19.1	0.00e+00	0	44	0	157286400	60	20180
2026-01-30 09:49:30.54	198.13	12.88	-52.2	-54.1	19.4	0.00e+00	0	44	0	159383552	60	19764
2026-01-30 09:49:31.55	198.22	12.97	-52.2	-54.0	19.4	0.00e+00	0	45	0	161480704	60	19533
2026-01-30 09:49:32.56	198.31	13.06	-51.9	-53.6	19.8	0.00e+00	0	44	0	163577856	60	18798
2026-01-30 09:49:33.57	198.40	13.15	-52.1	-53.7	19.7	0.00e+00	0	44	0	165675008	60	19056
2026-01-30 09:49:34.58	198.49	13.24	-52.1	-53.8	19.7	0.00e+00	0	45	0	166723584	60	19225
2026-01-30 09:49:35.58	198.59	13.33	-52.1	-53.8	19.6	0.00e+00	0	44	0	168820736	60	19252
2026-01-30 09:49:36.59	198.68	13.42	-52.2	-53.9	19.7	0.00e+00	0	45	0	170917888	60	19313
2026-01-30 09:49:37.60	198.78	13.51	-52.3	-53.9	19.5	0.00e+00	0	45	0	173015040	60	19521
2026-01-30 09:49:38.61	198.87	13.60	-52.3	-54.0	19.6	0.00e+00	0	45	0	175112192	60	19558
2026-01-30 09:49:39.62	198.97	13.69	-52.3	-54.0	19.6	0.00e+00	0	45	0	177209344	60	19584
2026-01-30 09:49:40.62	199.06	13.78	-52.4	-54.1	19.5	0.00e+00	0	45	0	178257920	60	19924
2026-01-30 09:49:41.63	199.16	13.87	-52.2	-53.9	19.7	0.00e+00	0	45	0	180355072	60	19380
2026-01-30 09:49:42.63	199.26	13.96	-52.3	-53.9	19.7	0.00e+00	0	45	0	182452224	60	19516
2026-01-30 09:49:43.64	199.35	14.05	-52.2	-53.8	19.9	0.00e+00	0	45	0	184549376	60	19174
2026-01-30 09:49:44.64	199.45	14.14	-52.3	-54.0	19.6	0.00e+00	0	45	0	185597952	60	19720
2026-01-30 09:49:45.65	199.55	14.23	-52.4	-54.1	19.6	0.00e+00	0	45	0	187695104	60	19896
2026-01-30 09:49:46.65	199.65	14.32	-52.0	-53.6	20.0	0.00e+00	0	45	0	189792256	60	18827
2026-01-30 09:49:47.65	199.75	14.42	-52.2	-53.8	19.9	0.00e+00	0	45	0	191889408	60	19222
2026-01-30 09:49:48.65	199.85	14.51	-52.4	-54.1	19.6	0.00e+00	0	45	0	193986560	60	19799
2026-01-30 09:49:49.65	199.95	14.60	-52.2	-53.8	19.9	0.00e+00	0	45	0	195035136	60	19216
2026-01-30 09:49:50.65	200.05	14.69	-52.2	-53.8	19.9	0.00e+00	0	45	0	197132288	60	19272
2026-01-30 09:49:51.66	200.15	14.79	-52.2	-53.9	19.8	0.00e+00	0	45	0	199229440	60	19430
2026-01-30 09:49:52.66	200.26	14.88	-52.3	-54.0	19.7	0.00e+00	0	45	0	201326592	60	19594
2026-01-30 09:49:53.67	200.36	14.97	-52.2	-53.9	19.9	0.00e+00	0	44	0	203423744	60	19459
2026-01-30 09:49:54.67	200.46	15.07	-52.5	-54.2	19.7	0.00e+00	0	44	0	204472320	60	20070
2026-01-30 09:49:55.68	200.57	15.16	-52.5	-54.2	19.7	0.00e+00	0	45	0	206569472	60	20111
2026-01-30 09:49:56.69	200.67	15.26	-52.5	-54.1	19.7	0.00e+00	0	45	0	208666624	60	19954
2026-01-30 09:49:57.69	200.78	15.35	-52.5	-54.2	19.9	0.00e+00	0	45	0	210763776	60	20127
2026-01-30 09:49:58.70	200.89	15.45	-52.5	-54.2	19.7	0.00e+00	0	45	0	212860928	60	20070
2026-01-30 09:49:59.71	200.99	15.54	-52.8	-54.5	19.6	0.00e+00	0	45	0	213909504	60	20871
2026-01-30 09:50:00.72	201.10	15.64	-52.5	-54.1	19.8	0.00e+00	0	45	0	216006656	60	19953
2026-01-30 09:50:01.73	201.21	15.74	-52.7	-54.4	19.6	0.00e+00	0	45	0	218103808	60	20553
2026-01-30 09:50:02.74	201.32	15.83	-52.5	-54.2	19.9	0.00e+00	0	45	0	220200960	60	20084
2026-01-30 09:50:03.75	201.43	15.93	-52.5	-54.1	20.0	0.00e+00	0	45	0	222298112	60	19887
2026-01-30 09:50:04.75	201.54	16.03	-52.3	-54.0	20.0	0.00e+00	0	45	0	223346688	60	19552
2026-01-30 09:50:05.76	201.66	16.13	-52.3	-53.9	20.2	0.00e+00	0	45	0	225443840	60	19359
2026-01-30 09:50:06.77	201.77	16.22	-52.2	-53.8	20.2	0.00e+00	0	45	0	227540992	60	19228
2026-01-30 09:50:07.78	201.88	16.32	-52.2	-53.7	20.3	0.00e+00	0	45	0	229638144	60	18951
2026-01-30 09:50:08.78	201.99	16.42	-52.2	-53.7	20.3	0.00e+00	0	45	0	231735296	60	19060
2026-01-30 09:50:09.79	202.11	16.52	-52.3	-53.9	20.2	0.00e+00	0	45	0	232783872	60	19366
2026-01-30 09:50:10.79	202.22	16.62	-52.5	-54.0	20.1	0.00e+00	0	45	0	234881024	60	19748
2026-01-30 09:50:11.80	202.34	16.72	-52.6	-54.2	19.9	0.00e+00	0	45	0	236978176	60	20128
2026-01-30 09:50:12.80	202.46	16.81	-52.8	-54.4	19.8	0.00e+00	0	45	0	239075328	60	20559
2026-01-30 09:50:13.80	202.57	16.91	-53.1	-54.8	19.4	0.00e+00	0	45	0	241172480	60	21554
2026-01-30 09:50:14.81	202.69	17.01	-53.1	-54.8	19.5	0.00e+00	0	45	0	242221056	60	21509
2026-01-30 09:50:15.82	202.81	17.12	-53.2	-55.0	19.3	0.00e+00	0	45	0	244318208	60	21971
2026-01-30 09:50:16.83	202.93	17.22	-53.1	-54.8	19.4	0.00e+00	0	45	0	246415360	60	21636
2026-01-30 09:50:17.84	203.05	17.32	-53.1	-54.8	19.6	0.00e+00	0	45	0	248512512	60	21518
2026-01-30 09:50:18.84	203.17	17.42	-53.1	-54.8	19.5	0.00e+00	0	45	0	250609664	60	21472
2026-01-30 09:50:19.84	203.29	17.52	-53.1	-54.9	19.5	0.00e+00	0	45	0	251658240	60	21662
2026-01-30 09:50:20.85	203.42	17.62	-53.0	-54.7	19.7	0.00e+00	0	45	0	253755392	60	21290
2026-01-30 09:50:21.86	203.54	17.72	-52.9	-54.5	19.8	0.00e+00	0	45	0	255852544	60	20746
2026-01-30 09:50:22.86	203.66	17.83	-53.1	-54.8	19.6	0.00e+00	0	45	0	257949696	60	21558
2026-01-30 09:50:23.87	203.79	17.93	-53.4	-55.1	19.4	0.00e+00	0	45	0	260046848	60	22275
2026-01-30 09:50:24.88	203.92	18.03	-53.4	-55.1	19.4	0.00e+00	0	45	0	261095424	60	22288
2026-01-30 09:50:25.89	204.04	18.14	-53.5	-55.3	19.4	0.00e+00	0	45	0	263192576	60	22747
2026-01-30 09:50:26.89	204.17	18.24	-53.7	-55.5	19.2	0.00e+00	0	45	0	265289728	60	23333
2026-01-30 09:50:27.90	204.30	18.34	-54.0	-55.8	19.0	0.00e+00	0	45	0	267386880	60	24269
2026-01-30 09:50:28.90	204.43	18.45	-53.9	-55.7	19.0	0.00e+00	0	45	0	269484032	60	23998
2026-01-30 09:50:29.91	204.56	18.55	-54.0	-55.8	19.0	0.00e+00	0	45	0	270532608	60	24251
2026-01-30 09:50:30.92	204.69	18.66	-53.6	-55.4	19.3	0.00e+00	0	45	0	272629760	60	23106
2026-01-30 09:50:31.92	204.82	18.76	-53.7	-55.4	19.4	0.00e+00	0	45	0	274726912	60	23188
2026-01-30 09:50:32.93	204.95	18.87	-53.5	-55.1	19.7	0.00e+00	0	45	0	276824064	60	22378
2026-01-30 09:50:33.93	205.09	18.97	-53.3	-55.0	19.8	0.00e+00	0	45	0	278921216	60	21945
2026-01-30 09:50:34.94	205.22	19.08	-53.5	-55.2	19.6	0.00e+00	0	45	0	279969792	60	22669
2026-01-30 09:50:35.95	205.36	19.19	-53.3	-55.0	19.8	0.00e+00	0	45	0	282066944	60	21952
2026-01-30 09:50:36.96	205.49	19.29	-53.3	-54.9	19.7	0.00e+00	0	45	0	284164096	60	21899
2026-01-30 09:50:37.97	205.63	19.40	-53.4	-55.1	19.7	0.00e+00	0	45	0	286261248	60	22335
2026-01-30 09:50:38.98	205.77	19.51	-53.5	-55.2	19.5	0.00e+00	0	45	0	288358400	60	22589
2026-01-30 09:50:39.98	205.91	19.62	-53.6	-55.4	19.5	0.00e+00	0	45	0	289406976	60	22962
2026-01-30 09:50:40.99	206.05	19.72	-53.6	-55.3	19.6	0.00e+00	0	45	0	291504128	60	22777
2026-01-30 09:50:42.00	206.19	19.83	-53.8	-55.6	19.3	0.00e+00	0	45	0	293601280	60	23644
2026-01-30 09:50:43.01	206.34	19.94	-53.7	-55.4	19.5	0.00e+00	0	45	0	295698432	60	23143
2026-01-30 09:50:44.02	206.48	20.05	-53.6	-55.3	19.7	0.00e+00	0	45	0	297795584	60	22891
2026-01-30 09:50:45.02	206.62	20.16	-53.6	-55.4	19.6	0.00e+00	0	45	0	298844160	60	22958
2026-01-30 09:50:46.03	206.77	20.27	-53.7	-55.5	19.5	0.00e+00	0	45	0	300941312	60	23265
2026-01-30 09:50:47.03	206.91	20.38	-53.8	-55.6	19.5	0.00e+00	0	45	0	303038464	60	23652
2026-01-30 09:50:48.03	207.06	20.49	-53.6	-55.3	19.7	0.00e+00	0	45	0	305135616	60	22883
2026-01-30 09:50:49.03	207.21	20.60	-53.9	-55.7	19.5	0.00e+00	0	45	0	307232768	60	23786
2026-01-30 09:50:50.04	207.36	20.71	-53.9	-55.7	19.4	0.00e+00	0	45	0	308281344	60	23994
2026-01-30 09:50:51.04	207.51	20.82	-54.0	-55.8	19.4	0.00e+00	0	45	0	310378496	60	24022
2026-01-30 09:50:52.04	207.66	20.93	-54.1	-55.9	19.3	0.00e+00	0	45	0	312475648	60	24535
2026-01-30 09:50:53.04	207.81	21.04	-53.9	-55.7	19.6	0.00e+00	0	45	0	314572800	60	23817
2026-01-30 09:50:54.05	207.96	21.15	-54.0	-55.7	19.5	0.00e+00	0	45	0	316669952	60	23955
2026-01-30 09:50:55.06	208.12	21.26	-54.0	-55.7	19.6	0.00e+00	0	45	0	317718528	60	23990
2026-01-30 09:50:56.07	208.27	21.38	-53.7	-55.4	19.7	0.00e+00	0	45	0	319815680	60	23081
2026-01-30 09:50:57.08	208.43	21.49	-53.6	-55.2	19.8	0.00e+00	0	45	0	321912832	60	22675
2026-01-30 09:50:58.09	208.59	21.60	-53.3	-54.9	20.2	0.00e+00	0	45	0	324009984	60	21668
2026-01-30 09:50:59.09	208.75	21.72	-53.2	-54.7	20.3	0.00e+00	0	45	0	326107136	60	21246
2026-01-30 09:51:00.10	208.91	21.83	-53.1	-54.6	20.4	0.00e+00	0	45	0	327155712	60	21010
2026-01-30 09:51:01.11	209.07	21.94	-53.3	-54.8	20.2	0.00e+00	0	45	0	329252864	60	21640
2026-01-30 09:51:02.11	209.23	22.06	-53.3	-54.8	20.2	0.00e+00	0	45	0	331350016	60	21651
2026-01-30 09:51:03.12	209.39	22.17	-53.0	-54.5	20.5	0.00e+00	0	45	0	333447168	60	20767
2026-01-30 09:51:04.12	209.56	22.29	-53.1	-54.6	20.4	0.00e+00	0	45	0	335544320	60	20954
2026-01-30 09:51:05.13	209.72	22.40	-53.0	-54.5	20.4	0.00e+00	0	45	0	336592896	60	20860
2026-01-30 09:51:06.13	209.89	22.52	-53.2	-54.8	20.3	0.00e+00	0	45	0	338690048	60	21544
2026-01-30 09:51:07.14	210.06	22.63	-53.5	-55.1	19.9	0.00e+00	0	45	0	340787200	60	22331
2026-01-30 09:51:08.14	210.23	22.75	-53.5	-55.1	19.9	0.00e+00	0	45	0	342884352	60	22370
2026-01-30 09:51:09.15	210.40	22.86	-53.6	-55.2	19.9	0.00e+00	0	45	0	344981504	60	22620
2026-01-30 09:51:10.16	210.57	22.98	-53.9	-55.6	19.5	0.00e+00	0	45	0	346030080	60	23692
2026-01-30 09:51:11.17	210.74	23.10	-54.1	-56.0	19.2	0.00e+00	0	45	0	348127232	60	24731
2026-01-30 09:51:12.17	210.92	23.21	-54.3	-56.2	19.1	0.00e+00	0	45	0	350224384	60	25310
2026-01-30 09:51:13.18	211.09	23.33	-54.2	-56.1	19.1	0.00e+00	0	45	0	352321536	60	25042
2026-01-30 09:51:14.18	211.27	23.45	-54.1	-55.9	19.3	0.00e+00	0	45	0	354418688	60	24560
2026-01-30 09:51:15.19	211.45	23.57	-53.8	-55.6	19.6	0.00e+00	0	45	0	355467264	60	23581
2026-01-30 09:51:16.20	211.63	23.68	-53.7	-55.4	19.8	0.00e+00	0	45	0	357564416	60	22950
2026-01-30 09:51:17.21	211.81	23.80	-53.7	-55.4	19.8	0.00e+00	0	45	0	359661568	60	23007
2026-01-30 09:51:18.22	211.99	23.92	-53.3	-54.9	20.1	0.00e+00	0	45	0	361758720	60	21718
2026-01-30 09:51:19.22	212.18	24.04	-53.4	-55.0	20.2	0.00e+00	0	45	0	363855872	60	21982
2026-01-30 09:51:20.23	212.36	24.16	-53.4	-54.9	20.4	0.00e+00	0	45	0	364904448	60	21878
2026-01-30 09:51:21.24	212.55	24.28	-53.5	-55.0	20.1	0.00e+00	0	45	0	367001600	60	22070
2026-01-30 09:51:22.24	212.73	24.40	-53.5	-55.1	19.7	0.00e+00	0	45	0	369098752	60	22262
2026-01-30 09:51:23.24	212.92	24.52	-53.7	-55.3	19.9	0.00e+00	0	45	0	371195904	60	22812
2026-01-30 09:51:24.24	213.11	24.64	-53.6	-55.2	20.0	0.00e+00	0	45	0	373293056	60	22560
2026-01-30 09:51:25.25	213.30	24.76	-53.6	-55.1	20.2	0.00e+00	0	45	0	374341632	60	22355
2026-01-30 09:51:26.25	213.50	24.88	-53.6	-55.2	20.2	0.00e+00	0	45	0	376438784	60	22538
2026-01-30 09:51:27.26	213.69	25.00	-53.5	-55.0	20.5	0.00e+00	0	45	0	378535936	60	21967
2026-01-30 09:51:28.26	213.89	25.12	-53.4	-54.9	20.6	0.00e+00	0	45	0	380633088	60	21744
2026-01-30 09:51:29.27	214.09	25.24	-53.0	-54.4	20.8	0.00e+00	0	45	0	382730240	60	20528
2026-01-30 09:51:30.28	214.29	25.36	-52.8	-54.2	21.0	0.00e+00	0	45	0	383778816	60	20088
2026-01-30 09:51:31.29	214.49	25.48	-52.7	-54.1	21.1	0.00e+00	0	45	0	385875968	60	19784
2026-01-30 09:51:32.30	214.69	25.60	-52.7	-54.0	21.1	0.00e+00	0	45	0	387973120	60	19719
2026-01-30 09:51:33.31	214.89	25.72	-52.7	-54.0	21.2	0.00e+00	0	45	0	390070272	60	19718
2026-01-30 09:51:34.31	215.10	25.85	-53.1	-54.5	20.8	0.00e+00	0	45	0	392167424	60	20784
2026-01-30 09:51:35.32	215.31	25.97	-53.0	-54.4	20.8	0.00e+00	0	45	0	393216000	60	20673
2026-01-30 09:51:36.33	215.51	26.09	-53.5	-55.0	20.4	0.00e+00	0	45	0	395313152	60	21976
2026-01-30 09:51:37.34	215.72	26.21	-53.6	-55.1	20.2	0.00e+00	0	45	0	397410304	60	22313
2026-01-30 09:51:38.34	215.94	26.34	-53.7	-55.2	20.1	0.00e+00	0	45	0	399507456	60	22651
2026-01-30 09:51:39.35	216.15	26.46	-53.9	-55.5	19.9	0.00e+00	0	45	0	401604608	60	23429
2026-01-30 09:51:40.35	216.36	26.58	-53.8	-55.4	19.9	0.00e+00	0	45	0	402653184	60	23135
2026-01-30 09:51:41.36	216.58	26.70	-53.6	-55.2	20.2	0.00e+00	0	45	0	404750336	60	22431
2026-01-30 09:51:42.37	216.80	26.83	-53.7	-55.3	20.1	0.00e+00	0	45	0	406847488	60	22851
2026-01-30 09:51:43.38	217.02	26.95	-53.8	-55.4	20.0	0.00e+00	0	45	0	408944640	60	23068
2026-01-30 09:51:44.39	217.24	27.07	-53.5	-55.0	20.3	0.00e+00	0	45	0	411041792	60	22084
2026-01-30 09:51:45.39	217.46	27.20	-53.8	-55.4	20.0	0.00e+00	0	45	0	412090368	60	23035
2026-01-30 09:51:46.40	217.69	27.32	-53.9	-55.6	19.7	0.00e+00	0	45	0	414187520	60	23555
2026-01-30 09:51:47.41	217.91	27.45	-54.1	-55.8	19.6	0.00e+00	0	45	0	416284672	60	24232
2026-01-30 09:51:48.42	218.14	27.57	-54.3	-56.0	19.4	0.00e+00	0	45	0	418381824	60	24729
2026-01-30 09:51:49.42	218.37	27.69	-54.5	-56.3	19.1	0.00e+00	0	45	0	420478976	60	25719
2026-01-30 09:51:50.43	218.60	27.82	-54.6	-56.4	19.1	0.00e+00	0	45	0	421527552	60	25985
2026-01-30 09:51:51.44	218.84	27.94	-54.4	-56.1	19.2	0.00e+00	0	45	0	423624704	60	25098
2026-01-30 09:51:52.44	219.07	28.06	-54.4	-56.2	19.2	0.00e+00	0	45	0	425721856	60	25179
2026-01-30 09:51:53.45	219.31	28.19	-54.3	-56.1	19.5	0.00e+00	0	45	0	427819008	60	24953
2026-01-30 09:51:54.45	219.55	28.31	-54.1	-55.9	19.5	0.00e+00	0	45	0	429916160	60	24374
2026-01-30 09:51:55.45	219.79	28.43	-53.9	-55.6	19.8	0.00e+00	0	45	0	430964736	60	23626
2026-01-30 09:51:56.46	220.03	28.56	-54.1	-55.8	19.7	0.00e+00	0	45	0	433061888	60	24050
2026-01-30 09:51:57.46	220.27	28.68	-54.2	-56.0	19.4	0.00e+00	0	45	0	435159040	60	24723
2026-01-30 09:51:58.47	220.52	28.81	-54.4	-56.2	19.3	0.00e+00	0	45	0	437256192	60	25244
2026-01-30 09:51:59.47	220.76	28.93	-54.1	-55.9	19.5	0.00e+00	0	45	0	439353344	60	24438
2026-01-30 09:52:00.48	221.01	29.05	-54.1	-55.9	19.4	0.00e+00	0	45	0	440401920	60	24455
2026-01-30 09:52:01.49	221.27	29.18	-53.9	-55.6	19.8	0.00e+00	0	45	0	442499072	60	23506
2026-01-30 09:52:02.50	221.52	29.30	-54.0	-55.7	19.7	0.00e+00	0	45	0	444596224	60	23796
2026-01-30 09:52:03.50	221.78	29.43	-53.8	-55.5	19.9	0.00e+00	0	45	0	446693376	60	23323
2026-01-30 09:52:04.50	222.03	29.55	-53.9	-55.6	19.7	0.00e+00	0	45	0	447741952	60	23664
2026-01-30 09:52:05.50	222.29	29.67	-53.9	-55.6	19.7	0.00e+00	0	45	0	449839104	60	23735
2026-01-30 09:52:06.51	222.55	29.80	-53.9	-55.6	19.6	0.00e+00	0	45	0	451936256	60	23530
2026-01-30 09:52:07.52	222.81	29.92	-53.9	-55.6	19.8	0.00e+00	0	45	0	454033408	60	23511
2026-01-30 09:52:08.53	223.08	30.04	-53.8	-55.4	19.8	0.00e+00	0	45	0	456130560	60	23161
2026-01-30 09:52:09.54	223.35	30.17	-54.0	-55.7	19.6	0.00e+00	0	45	0	458227712	60	23939
2026-01-30 09:52:10.55	223.62	30.29	-54.3	-56.2	19.2	0.00e+00	0	45	0	459276288	60	25179
2026-01-30 09:52:11.55	223.89	30.41	-54.8	-56.8	18.6	0.00e+00	0	45	0	461373440	60	27212
2026-01-30 09:52:12.56	224.16	30.54	-55.0	-57.2	18.4	0.00e+00	0	45	0	463470592	60	28246
2026-01-30 09:52:13.57	224.44	30.66	-55.2	-57.4	18.0	0.00e+00	0	45	0	465567744	60	29146
2026-01-30 09:52:14.58	224.72	30.78	-55.3	-57.6	18.1	0.00e+00	0	45	0	467664896	60	29605
2026-01-30 09:52:15.59	225.00	30.91	-55.1	-57.1	18.5	0.00e+00	0	45	0	468713472	60	28153
2026-01-30 09:52:16.59	225.28	31.03	-55.0	-57.0	18.7	0.00e+00	0	45	0	470810624	60	27651
2026-01-30 09:52:17.60	225.56	31.15	-55.0	-57.0	18.6	0.00e+00	0	45	0	472907776	60	27808
2026-01-30 09:52:18.61	225.85	31.27	-54.8	-56.8	18.6	0.00e+00	0	45	0	475004928	60	27071
2026-01-30 09:52:19.62	226.14	31.39	-55.2	-57.3	18.2	0.00e+00	0	45	0	477102080	60	28812
2026-01-30 09:52:20.63	226.43	31.51	-55.6	-58.0	17.7	0.00e+00	0	45	0	478150656	60	30993
2026-01-30 09:52:21.63	226.72	31.63	-55.8	-58.3	17.2	0.00e+00	0	45	0	480247808	60	32316
2026-01-30 09:52:22.64	227.01	31.76	-56.1	-58.7	16.9	3.09e-03	0	45	0	482344960	60	33837
2026-01-30 09:52:23.64	227.31	31.87	-56.2	-58.9	16.6	0.00e+00	0	45	0	484442112	60	34497
2026-01-30 09:52:24.65	227.61	31.99	-57.0	-60.3	15.5	0.00e+00	0	45	0	486539264	60	40327
2026-01-30 09:52:25.65	227.91	32.11	-57.0	-60.2	15.2	7.00e-07	0	45	0	487587840	60	40269
2026-01-30 09:52:26.66	228.21	32.23	-57.1	-60.5	14.9	0.00e+00	0	45	0	489684992	60	41698
2026-01-30 09:52:27.66	228.51	32.35	-57.1	-60.5	15.0	0.00e+00	0	45	0	491782144	60	41467
2026-01-30 09:52:28.67	228.82	32.47	-56.6	-59.6	16.0	0.00e+00	0	45	0	493879296	60	37538
2026-01-30 09:52:29.68	229.13	32.59	-56.3	-59.0	16.5	0.00e+00	0	45	0	495976448	60	34780
2026-01-30 09:52:30.69	229.44	32.70	-56.3	-59.1	16.5	0.00e+00	0	45	0	497025024	60	35349
2026-01-30 09:52:31.70	229.76	32.82	-56.3	-59.0	16.5	0.00e+00	0	45	0	499122176	60	34923
2026-01-30 09:52:32.71	230.08	32.94	-56.8	-59.9	15.6	0.00e+00	0	45	0	501219328	60	38510
2026-01-30 09:52:33.71	230.39	33.05	-57.3	-60.9	14.7	7.00e-07	0	45	0	503316480	60	43352
2026-01-30 09:52:34.72	230.71	33.17	-57.5	-61.3	14.3	7.00e-07	0	45	0	505413632	60	45307
2026-01-30 09:52:35.73	231.04	33.28	-57.9	-62.1	13.5	7.00e-07	0	45	0	506462208	60	49760
2026-01-30 09:52:36.74	231.36	33.40	-58.0	-62.1	13.6	9.10e-06	0	45	0	508559360	60	49649
2026-01-30 09:52:37.75	231.69	33.51	-58.0	-62.1	13.8	2.89e-05	0	45	0	510656512	60	49715
2026-01-30 09:52:38.75	232.02	33.62	-57.6	-61.3	14.3	1.06e-05	0	45	0	512753664	60	45512
2026-01-30 09:52:39.76	232.35	33.74	-57.5	-61.1	14.6	7.00e-07	0	45	0	514850816	60	44231
2026-01-30 09:52:40.76	232.68	33.85	-57.2	-60.4	15.3	0.00e+00	0	45	0	515899392	60	41156
2026-01-30 09:52:41.77	233.02	33.96	-56.9	-60.1	15.6	0.00e+00	0	45	0	517996544	60	39429
2026-01-30 09:52:42.78	233.36	34.07	-56.9	-60.1	15.1	0.00e+00	0	45	0	520093696	60	39702
2026-01-30 09:52:43.78	233.70	34.18	-57.7	-61.7	13.8	1.50e-06	0	45	0	522190848	60	47529
2026-01-30 09:52:44.79	234.04	34.29	-57.6	-61.4	14.2	2.20e-06	0	45	0	524288000	60	45776
2026-01-30 09:52:45.80	234.39	34.40	-57.6	-61.5	14.1	3.00e-06	0	45	0	525336576	60	46410
2026-01-30 09:52:46.81	234.74	34.50	-58.0	-62.2	13.4	4.50e-06	0	45	0	527433728	60	50601
2026-01-30 09:52:47.82	235.09	34.61	-58.0	-62.4	13.3	2.20e-06	0	45	0	529530880	60	51697
2026-01-30 09:52:48.83	235.44	34.72	-57.4	-61.2	14.3	3.80e-06	0	45	0	531628032	60	44847
2026-01-30 09:52:49.83	235.79	34.82	-57.4	-61.0	14.7	0.00e+00	0	45	0	533725184	60	44035
2026-01-30 09:52:50.84	236.15	34.93	-57.3	-60.9	14.8	7.00e-07	0	45	0	534773760	60	43399
2026-01-30 09:52:51.85	236.51	35.03	-57.1	-60.4	15.2	7.00e-07	0	45	0	536870912	60	40928
2026-01-30 09:52:52.86	236.87	35.13	-56.8	-59.9	15.5	0.00e+00	0	45	0	538968064	60	38943
2026-01-30 09:52:53.86	237.23	35.23	-56.9	-60.2	15.3	0.00e+00	0	45	0	541065216	60	39908
2026-01-30 09:52:54.87	237.60	35.33	-57.2	-60.6	15.1	0.00e+00	0	45	0	543162368	60	41806
2026-01-30 09:52:55.87	237.96	35.43	-57.1	-60.4	15.5	0.00e+00	0	45	0	544210944	60	40855
2026-01-30 09:52:56.88	238.33	35.53	-57.0	-60.3	15.4	0.00e+00	0	45	0	546308096	60	40499
2026-01-30 09:52:57.89	238.71	35.63	-56.9	-60.1	15.6	0.00e+00	0	45	0	548405248	60	39491
2026-01-30 09:52:58.89	239.08	35.72	-56.6	-59.5	16.1	0.00e+00	0	45	0	550502400	60	37161
2026-01-30 09:52:59.90	239.46	35.82	-56.1	-58.7	16.9	0.00e+00	0	45	0	552599552	60	33639
2026-01-30 09:53:00.90	239.83	35.91	-55.2	-57.3	18.1	0.00e+00	0	45	0	553648128	60	28688
2026-01-30 09:53:01.90	240.21	36.01	-55.4	-57.6	18.0	0.00e+00	0	45	0	555745280	60	29654
2026-01-30 09:53:02.91	240.59	36.10	-55.6	-58.0	17.6	0.00e+00	0	45	0	557842432	60	30982
2026-01-30 09:53:03.91	240.97	36.19	-55.5	-57.8	17.6	0.00e+00	0	45	0	559939584	60	30304
2026-01-30 09:53:04.92	241.36	36.28	-55.4	-57.6	17.7	0.00e+00	0	45	0	562036736	60	29864
2026-01-30 09:53:05.93	241.75	36.37	-55.2	-57.3	18.2	0.00e+00	0	45	0	563085312	60	28722
2026-01-30 09:53:06.94	242.15	36.46	-54.7	-56.7	18.8	0.00e+00	0	45	0	565182464	60	26698
2026-01-30 09:53:07.94	242.54	36.54	-54.1	-55.8	19.6	0.00e+00	0	45	0	567279616	60	24124
2026-01-30 09:53:08.95	242.93	36.63	-54.0	-55.7	19.7	0.00e+00	0	45	0	569376768	60	23819
2026-01-30 09:53:09.96	243.33	36.71	-54.1	-55.8	19.6	0.00e+00	0	45	0	571473920	60	24101
2026-01-30 09:53:10.97	243.73	36.79	-54.4	-56.3	19.1	0.00e+00	0	45	0	572522496	60	25530
2026-01-30 09:53:11.97	244.13	36.87	-54.4	-56.2	19.3	0.00e+00	0	45	0	574619648	60	25309
2026-01-30 09:53:12.98	244.53	36.95	-54.6	-56.5	18.9	0.00e+00	0	45	0	576716800	60	26176
2026-01-30 09:53:13.98	244.93	37.03	-54.6	-56.5	19.2	0.00e+00	0	45	0	578813952	60	26174
2026-01-30 09:53:14.98	245.34	37.11	-54.3	-56.1	19.3	0.00e+00	0	45	0	580911104	60	24956
2026-01-30 09:53:15.98	245.74	37.18	-53.8	-55.5	19.5	0.00e+00	0	45	0	581959680	60	23462
2026-01-30 09:53:16.99	246.16	37.26	-53.7	-55.3	19.9	0.00e+00	0	45	0	584056832	60	22930
2026-01-30 09:53:17.99	246.57	37.33	-53.2	-54.7	20.5	0.00e+00	0	45	0	586153984	60	21260
2026-01-30 09:53:19.00	246.98	37.40	-53.0	-54.5	20.5	0.00e+00	0	45	0	588251136	60	20730
2026-01-30 09:53:20.01	247.40	37.47	-53.4	-55.0	20.1	0.00e+00	0	45	0	589299712	60	21937
2026-01-30 09:53:21.01	247.81	37.54	-54.0	-55.8	19.5	0.00e+00	0	45	0	591396864	60	24069
2026-01-30 09:53:22.02	248.23	37.60	-54.2	-56.0	19.1	0.00e+00	0	45	0	593494016	60	24792
2026-01-30 09:53:23.03	248.66	37.67	-54.0	-55.8	19.4	0.00e+00	0	45	0	595591168	60	24046
2026-01-30 09:53:24.04	249.08	37.73	-53.9	-55.6	19.7	0.00e+00	0	45	0	597688320	60	23567
2026-01-30 09:53:25.05	249.50	37.79	-54.2	-56.0	19.2	0.00e+00	0	45	0	599785472	60	24847
2026-01-30 09:53:26.05	249.93	37.85	-54.8	-56.9	18.4	0.00e+00	0	45	0	600834048	60	27271
2026-01-30 09:53:27.06	250.36	37.91	-54.9	-57.0	18.2	0.00e+00	0	45	0	602931200	60	27753
2026-01-30 09:53:28.07	250.79	37.97	-54.5	-56.4	18.8	0.00e+00	0	45	0	605028352	60	26002
2026-01-30 09:53:29.08	251.22	38.02	-54.2	-56.0	19.3	0.00e+00	0	45	0	607125504	60	24749
2026-01-30 09:53:30.09	251.65	38.08	-53.6	-55.2	20.0	0.00e+00	0	45	0	609222656	60	22543
2026-01-30 09:53:31.09	252.08	38.13	-53.3	-54.9	20.3	0.00e+00	0	45	0	610271232	60	21739
2026-01-30 09:53:32.10	252.51	38.18	-53.3	-54.9	20.3	0.00e+00	0	45	0	612368384	60	21716
2026-01-30 09:53:33.10	252.95	38.22	-53.6	-55.3	19.9	0.00e+00	0	45	0	614465536	60	22853
2026-01-30 09:53:34.11	253.39	38.27	-54.1	-55.9	19.3	0.00e+00	0	45	0	616562688	60	24506
2026-01-30 09:53:35.12	253.82	38.32	-54.2	-56.1	19.1	0.00e+00	0	45	0	618659840	60	24913
2026-01-30 09:53:36.12	254.26	38.36	-54.2	-56.1	19.0	0.00e+00	0	45	0	619708416	60	24976
2026-01-30 09:53:37.13	254.70	38.40	-54.4	-56.4	18.7	0.00e+00	0	45	0	621805568	60	25752
2026-01-30 09:53:38.13	255.14	38.44	-54.6	-56.7	18.5	0.00e+00	0	45	0	623902720	60	26842
2026-01-30 09:53:39.13	255.58	38.48	-54.6	-56.6	18.5	0.00e+00	0	45	0	625999872	60	26508
2026-01-30 09:53:40.14	256.02	38.51	-54.4	-56.3	19.0	0.00e+00	0	45	0	628097024	60	25622
2026-01-30 09:53:41.14	256.46	38.54	-53.7	-55.4	19.7	0.00e+00	0	45	0	629145600	60	23181
2026-01-30 09:53:42.15	256.91	38.58	-53.4	-55.0	20.2	0.00e+00	0	45	0	631242752	60	22044
2026-01-30 09:53:43.14	257.35	38.61	-53.1	-54.7	20.2	0.00e+00	0	45	0	633339904	60	21310
2026-01-30 09:53:44.15	257.80	38.63	-53.4	-55.1	20.0	0.00e+00	0	45	0	635437056	60	22180
2026-01-30 09:53:45.15	258.24	38.66	-53.9	-55.8	19.4	0.00e+00	0	45	0	637534208	60	24046
2026-01-30 09:53:46.15	258.69	38.68	-54.2	-56.2	19.2	0.00e+00	0	45	0	638582784	60	25190
2026-01-30 09:53:47.16	259.14	38.71	-54.4	-56.3	18.8	0.00e+00	0	45	0	640679936	60	25717
2026-01-30 09:53:48.17	259.59	38.73	-54.8	-56.9	18.2	0.00e+00	0	45	0	642777088	60	27400
2026-01-30 09:53:49.18	260.04	38.75	-55.0	-57.2	17.9	0.00e+00	0	45	0	644874240	60	28389
2026-01-30 09:53:50.19	260.49	38.76	-54.9	-57.0	18.1	0.00e+00	0	45	0	645922816	60	27744
2026-01-30 09:53:51.19	260.94	38.78	-54.3	-56.2	18.9	0.00e+00	0	45	0	648019968	60	25174
2026-01-30 09:53:52.20	261.39	38.79	-54.5	-56.4	18.7	0.00e+00	0	45	0	650117120	60	26004
2026-01-30 09:53:53.20	261.84	38.80	-54.7	-56.8	18.5	0.00e+00	0	45	0	652214272	60	27014
2026-01-30 09:53:54.20	262.29	38.81	-54.3	-56.3	19.0	0.00e+00	0	45	0	654311424	60	25444
2026-01-30 09:53:55.21	262.74	38.82	-53.8	-55.5	19.7	0.00e+00	0	45	0	655360000	60	23437
2026-01-30 09:53:56.21	263.19	38.82	-54.0	-55.8	19.3	0.00e+00	0	45	0	657457152	60	24130
2026-01-30 09:53:57.22	263.64	38.82	-55.0	-57.2	18.1	0.00e+00	0	45	0	659554304	60	28476
2026-01-30 09:53:58.23	264.09	38.82	-56.2	-59.2	16.1	0.00e+00	0	45	0	661651456	60	35753
2026-01-30 09:53:59.24	264.55	38.82	-56.6	-59.8	15.6	7.00e-07	0	45	0	663748608	60	38400
2026-01-30 09:54:00.24	265.00	38.82	-55.9	-58.6	16.9	0.00e+00	0	45	0	665845760	60	33281
2026-01-30 09:54:01.24	265.44	38.82	-55.0	-57.1	18.2	0.00e+00	0	45	0	666894336	60	28184
2026-01-30 09:54:02.24	265.89	38.81	-54.2	-56.1	19.0	0.00e+00	0	45	0	668991488	60	25036
2026-01-30 09:54:03.25	266.35	38.80	-53.7	-55.4	19.8	0.00e+00	0	45	0	671088640	60	22993
2026-01-30 09:54:04.25	266.79	38.79	-53.2	-54.8	20.3	0.00e+00	0	45	0	673185792	60	21437
2026-01-30 09:54:05.26	267.25	38.78	-53.1	-54.7	20.4	0.00e+00	0	45	0	674234368	60	21250
2026-01-30 09:54:06.26	267.69	38.76	-52.6	-54.1	20.9	0.00e+00	0	45	0	676331520	60	19839
2026-01-30 09:54:07.27	268.14	38.75	-52.6	-54.1	20.9	0.00e+00	0	45	0	678428672	60	19764
2026-01-30 09:54:08.27	268.59	38.73	-52.7	-54.2	20.6	0.00e+00	0	45	0	680525824	60	20101
2026-01-30 09:54:09.28	269.04	38.71	-53.2	-54.9	20.1	0.00e+00	0	45	0	682622976	60	21685
2026-01-30 09:54:10.28	269.49	38.68	-53.1	-54.7	20.3	0.00e+00	0	45	0	683671552	60	21265
2026-01-30 09:54:11.29	269.93	38.66	-52.7	-54.2	20.8	0.00e+00	0	45	0	685768704	60	20169
2026-01-30 09:54:12.29	270.38	38.63	-52.9	-54.4	20.5	0.00e+00	0	45	0	687865856	60	20668
2026-01-30 09:54:13.30	270.83	38.61	-53.2	-54.9	20.0	0.00e+00	0	45	0	689963008	60	21856
2026-01-30 09:54:14.30	271.27	38.58	-53.5	-55.2	19.8	0.00e+00	0	45	0	692060160	60	22530
2026-01-30 09:54:15.31	271.71	38.54	-53.3	-55.0	20.1	0.00e+00	0	45	0	694157312	60	21963
2026-01-30 09:54:16.32	272.16	38.51	-52.9	-54.4	20.5	0.00e+00	0	45	0	695205888	60	20653
2026-01-30 09:54:17.32	272.60	38.48	-52.8	-54.4	20.6	0.00e+00	0	45	0	697303040	60	20511
2026-01-30 09:54:18.33	273.04	38.44	-52.8	-54.4	20.6	0.00e+00	0	45	0	699400192	60	20576
2026-01-30 09:54:19.34	273.48	38.40	-52.5	-53.9	21.0	0.00e+00	0	45	0	701497344	60	19519
2026-01-30 09:54:20.34	273.92	38.36	-52.5	-54.0	20.9	0.00e+00	0	45	0	702545920	60	19639
2026-01-30 09:54:21.34	274.36	38.32	-52.8	-54.4	20.5	0.00e+00	0	45	0	704643072	60	20494
2026-01-30 09:54:22.35	274.79	38.27	-53.5	-55.3	19.8	0.00e+00	0	45	0	706740224	60	22737
2026-01-30 09:54:23.35	275.23	38.22	-54.0	-55.9	19.2	0.00e+00	0	45	0	708837376	60	24557
2026-01-30 09:54:24.35	275.66	38.18	-53.8	-55.7	19.4	0.00e+00	0	45	0	710934528	60	23792
2026-01-30 09:54:25.36	276.09	38.13	-53.5	-55.3	19.7	0.00e+00	0	45	0	711983104	60	22882
2026-01-30 09:54:26.36	276.52	38.08	-53.1	-54.9	20.1	0.00e+00	0	45	0	714080256	60	21692
2026-01-30 09:54:27.37	276.96	38.02	-53.2	-55.0	20.0	0.00e+00	0	45	0	716177408	60	21991
2026-01-30 09:54:28.37	277.38	37.97	-53.4	-55.2	19.9	0.00e+00	0	45	0	718274560	60	22534
2026-01-30 09:54:29.38	277.81	37.91	-53.3	-55.2	19.9	0.00e+00	0	45	0	720371712	60	22498
2026-01-30 09:54:30.39	278.24	37.85	-53.2	-55.1	19.9	0.00e+00	0	45	0	721420288	60	22256
2026-01-30 09:54:31.40	278.67	37.79	-53.1	-54.9	20.0	0.00e+00	0	45	0	723517440	60	21877
2026-01-30 09:54:32.40	279.09	37.73	-53.7	-55.7	19.2	0.00e+00	0	45	0	725614592	60	23945
2026-01-30 09:54:33.40	279.51	37.67	-54.7	-57.3	17.9	0.00e+00	0	45	0	727711744	60	28596
2026-01-30 09:54:34.41	279.93	37.60	-55.0	-57.7	17.5	0.00e+00	0	45	0	729808896	60	30045
2026-01-30 09:54:35.42	280.35	37.54	-53.7	-55.7	19.2	0.00e+00	0	45	0	730857472	60	23929
2026-01-30 09:54:36.42	280.76	37.47	-52.9	-54.6	20.4	0.00e+00	0	45	0	732954624	60	20930
2026-01-30 09:54:37.43	281.18	37.40	-52.7	-54.4	20.4	0.00e+00	0	45	0	735051776	60	20586
2026-01-30 09:54:38.44	281.59	37.33	-53.3	-55.1	19.7	0.00e+00	0	45	0	737148928	60	22399
2026-01-30 09:54:39.44	282.00	37.26	-53.7	-55.7	19.3	0.00e+00	0	45	0	739246080	60	23838
2026-01-30 09:54:40.45	282.41	37.18	-53.5	-55.3	19.8	0.00e+00	0	45	0	740294656	60	22742
2026-01-30 09:54:41.45	282.82	37.11	-53.0	-54.7	20.3	0.00e+00	0	45	0	742391808	60	21260
2026-01-30 09:54:42.45	283.22	37.03	-52.5	-53.9	20.7	0.00e+00	0	45	0	744488960	60	19518
2026-01-30 09:54:43.46	283.62	36.96	-53.1	-54.7	19.9	0.00e+00	0	45	0	746586112	60	21351
2026-01-30 09:54:44.47	284.03	36.88	-54.6	-56.7	18.4	0.00e+00	0	45	0	748683264	60	26882
2026-01-30 09:54:45.47	284.42	36.80	-55.0	-57.3	17.9	0.00e+00	0	45	0	749731840	60	28768
2026-01-30 09:54:46.48	284.82	36.71	-54.8	-56.9	18.5	0.00e+00	0	45	0	751828992	60	27533
2026-01-30 09:54:47.49	285.22	36.63	-54.2	-56.0	19.4	0.00e+00	0	45	0	753926144	60	24758
2026-01-30 09:54:48.50	285.62	36.55	-53.4	-55.0	20.4	0.00e+00	0	45	0	756023296	60	22055
2026-01-30 09:54:49.50	286.01	36.46	-53.1	-54.7	20.5	0.00e+00	0	45	0	758120448	60	21185
2026-01-30 09:54:50.51	286.40	36.37	-53.4	-55.0	20.2	0.00e+00	0	45	0	759169024	60	22065
2026-01-30 09:54:51.52	286.79	36.29	-53.4	-55.1	20.1	0.00e+00	0	45	0	761266176	60	22363
2026-01-30 09:54:52.53	287.17	36.20	-53.0	-54.6	20.6	0.00e+00	0	45	0	763363328	60	20938
2026-01-30 09:54:53.53	287.56	36.11	-52.1	-53.5	21.4	0.00e+00	0	45	0	765460480	60	18530
2026-01-30 09:54:54.54	287.94	36.01	-51.6	-52.9	21.8	0.00e+00	0	45	0	767557632	60	17388
2026-01-30 09:54:55.54	288.32	35.92	-51.9	-53.3	21.6	0.00e+00	0	45	0	768606208	60	18032
2026-01-30 09:54:56.55	288.69	35.83	-52.3	-53.8	21.0	0.00e+00	0	45	0	770703360	60	19295
2026-01-30 09:54:57.55	289.07	35.73	-52.9	-54.7	20.4	0.00e+00	0	45	0	772800512	60	21240
2026-01-30 09:54:58.56	289.44	35.64	-52.8	-54.6	20.3	0.00e+00	0	45	0	774897664	60	20972
2026-01-30 09:54:59.56	289.81	35.54	-53.0	-54.9	19.9	0.00e+00	0	45	0	776994816	60	21844
2026-01-30 09:55:00.57	290.18	35.44	-52.8	-54.7	20.2	0.00e+00	0	45	0	778043392	60	21196
2026-01-30 09:55:01.58	290.55	35.34	-53.0	-55.0	19.9	0.00e+00	0	45	0	780140544	60	21972
2026-01-30 09:55:02.58	290.91	35.24	-53.9	-56.2	18.9	0.00e+00	0	45	0	782237696	60	25246
2026-01-30 09:55:03.59	291.27	35.14	-54.6	-57.3	17.8	0.00e+00	0	45	0	784334848	60	28713
2026-01-30 09:55:04.60	291.63	35.04	-55.5	-58.8	16.5	0.00e+00	0	45	0	786432000	60	34264
2026-01-30 09:55:05.60	291.99	34.94	-55.7	-59.0	16.3	0.00e+00	0	45	0	787480576	60	35016
2026-01-30 09:55:06.61	292.34	34.83	-55.2	-58.1	17.3	0.00e+00	0	45	0	789577728	60	31462
2026-01-30 09:55:07.62	292.70	34.73	-55.1	-57.7	17.6	0.00e+00	0	45	0	791674880	60	30138
2026-01-30 09:55:08.63	293.05	34.62	-55.1	-57.5	17.9	0.00e+00	0	45	0	793772032	60	29414
2026-01-30 09:55:09.64	293.40	34.52	-55.9	-58.7	16.8	0.00e+00	0	45	0	795869184	60	33773
2026-01-30 09:55:10.65	293.75	34.41	-56.5	-59.7	16.0	0.00e+00	0	45	0	796917760	60	37785
2026-01-30 09:55:11.65	294.09	34.30	-56.7	-59.9	15.6	0.00e+00	0	45	0	799014912	60	38561
2026-01-30 09:55:12.66	294.43	34.19	-55.8	-58.4	17.2	0.00e+00	0	45	0	801112064	60	32445
2026-01-30 09:55:13.66	294.77	34.09	-54.4	-56.3	19.2	0.00e+00	0	45	0	803209216	60	25568
2026-01-30 09:55:14.67	295.11	33.98	-54.1	-55.9	19.3	0.00e+00	0	45	0	805306368	60	24551
2026-01-30 09:55:15.68	295.45	33.86	-54.8	-56.9	18.4	0.00e+00	0	45	0	806354944	60	27388
2026-01-30 09:55:16.68	295.78	33.75	-56.4	-59.5	16.0	0.00e+00	0	45	0	808452096	60	36860
2026-01-30 09:55:17.69	296.11	33.64	-57.2	-61.3	14.2	7.00e-07	0	45	0	810549248	60	45294
2026-01-30 09:55:18.70	296.44	33.53	-57.1	-61.0	14.6	7.00e-07	0	45	0	812646400	60	44095
2026-01-30 09:55:19.71	296.77	33.42	-56.2	-59.3	16.4	0.00e+00	0	45	0	814743552	60	36074
2026-01-30 09:55:20.71	297.09	33.30	-55.4	-57.8	17.9	0.00e+00	0	45	0	815792128	60	30466
2026-01-30 09:55:21.72	297.41	33.19	-55.1	-57.4	18.1	0.00e+00	0	45	0	817889280	60	28936
2026-01-30 09:55:22.73	297.73	33.07	-55.3	-57.6	18.1	0.00e+00	0	45	0	819986432	60	29639
2026-01-30 09:55:23.73	298.05	32.96	-55.7	-58.2	17.3	0.00e+00	0	45	0	822083584	60	31901
2026-01-30 09:55:24.73	298.36	32.84	-56.4	-59.3	16.3	0.00e+00	0	45	0	824180736	60	36323
2026-01-30 09:55:25.74	298.67	32.73	-55.6	-58.1	17.3	0.00e+00	0	45	0	825229312	60	31616
2026-01-30 09:55:26.74	298.98	32.61	-54.2	-56.2	19.1	0.00e+00	0	45	0	827326464	60	25171
2026-01-30 09:55:27.75	299.29	32.49	-53.3	-55.1	20.0	0.00e+00	0	45	0	829423616	60	22203
2026-01-30 09:55:28.75	299.60	32.38	-53.5	-55.5	19.7	0.00e+00	0	45	0	831520768	60	23260
2026-01-30 09:55:29.76	299.90	32.26	-54.2	-56.5	18.7	0.00e+00	0	45	0	833617920	60	26287
2026-01-30 09:55:30.76	300.20	32.14	-54.9	-57.7	17.5	0.00e+00	0	45	0	834666496	60	30174
2026-01-30 09:55:31.77	300.50	32.02	-55.3	-58.5	16.8	0.00e+00	0	45	0	836763648	60	32914
2026-01-30 09:55:32.77	300.80	31.90	-54.7	-57.3	17.9	0.00e+00	0	45	0	838860800	60	28845
2026-01-30 09:55:33.77	301.09	31.79	-54.4	-56.8	18.6	0.00e+00	0	45	0	840957952	60	27019
2026-01-30 09:55:34.78	301.38	31.67	-53.9	-56.0	19.1	0.00e+00	0	45	0	843055104	60	24859
2026-01-30 09:55:35.78	301.67	31.55	-54.0	-56.0	19.3	0.00e+00	0	45	0	844103680	60	24725
2026-01-30 09:55:36.78	301.96	31.43	-54.4	-56.4	18.9	0.00e+00	0	45	0	846200832	60	25903
2026-01-30 09:55:37.79	302.25	31.31	-54.7	-56.7	18.7	0.00e+00	0	45	0	848297984	60	26799
2026-01-30 09:55:38.80	302.54	31.19	-54.0	-55.8	19.7	0.00e+00	0	45	0	850395136	60	24153
2026-01-30 09:55:39.81	302.82	31.06	-52.6	-54.0	21.1	0.00e+00	0	45	0	851443712	60	19724
2026-01-30 09:55:40.82	303.10	30.94	-51.5	-52.8	22.1	0.00e+00	0	45	0	853540864	60	17046
2026-01-30 09:55:41.82	303.38	30.82	-51.3	-52.4	22.4	0.00e+00	0	45	0	855638016	60	16378
2026-01-30 09:55:42.83	303.66	30.70	-51.4	-52.6	22.1	0.00e+00	0	45	0	857735168	60	16683
2026-01-30 09:55:43.84	303.93	30.58	-52.1	-53.4	21.3	0.00e+00	0	45	0	859832320	60	18340
2026-01-30 09:55:44.84	304.20	30.46	-53.2	-54.7	20.2	0.00e+00	0	45	0	861929472	60	21333
2026-01-30 09:55:45.85	304.47	30.33	-53.4	-55.1	19.9	0.00e+00	0	45	0	862978048	60	22265
2026-01-30 09:55:46.85	304.74	30.21	-53.2	-54.9	20.2	0.00e+00	0	45	0	865075200	60	21660
2026-01-30 09:55:47.86	305.01	30.09	-52.8	-54.4	20.6	0.00e+00	0	45	0	867172352	60	20482
2026-01-30 09:55:48.87	305.27	29.96	-52.8	-54.3	20.6	0.00e+00	0	45	0	869269504	60	20339
2026-01-30 09:55:49.88	305.54	29.84	-53.1	-54.7	20.4	0.00e+00	0	45	0	871366656	60	21212
2026-01-30 09:55:50.88	305.80	29.72	-53.7	-55.5	19.5	0.00e+00	0	45	0	872415232	60	23240
2026-01-30 09:55:51.88	306.05	29.60	-54.2	-56.2	18.9	0.00e+00	0	45	0	874512384	60	25341
2026-01-30 09:55:52.89	306.31	29.47	-54.3	-56.3	18.9	0.00e+00	0	45	0	876609536	60	25508
2026-01-30 09:55:53.90	306.57	29.35	-54.0	-55.9	19.2	0.00e+00	0	45	0	878706688	60	24573
2026-01-30 09:55:54.90	306.82	29.23	-53.2	-54.9	20.0	0.00e+00	0	45	0	879755264	60	21669
2026-01-30 09:55:55.91	307.07	29.10	-52.7	-54.3	20.7	0.00e+00	0	45	0	881852416	60	20248
2026-01-30 09:55:56.91	307.32	28.98	-52.1	-53.4	21.4	0.00e+00	0	45	0	883949568	60	18302
2026-01-30 09:55:57.92	307.56	28.86	-52.5	-53.9	20.9	0.00e+00	0	45	0	886046720	60	19416
2026-01-30 09:55:58.92	307.81	28.74	-53.3	-54.9	20.1	0.00e+00	0	45	0	888143872	60	21899
2026-01-30 09:55:59.93	308.05	28.61	-54.1	-56.0	19.1	0.00e+00	0	45	0	890241024	60	24805
2026-01-30 09:56:00.93	308.29	28.49	-54.2	-56.2	18.9	0.00e+00	0	45	0	891289600	60	25200
2026-01-30 09:56:01.94	308.53	28.37	-53.1	-54.8	20.4	0.00e+00	0	45	0	893386752	60	21428
2026-01-30 09:56:02.94	308.77	28.24	-52.2	-53.6	21.3	0.00e+00	0	45	0	895483904	60	18721
2026-01-30 09:56:03.95	309.01	28.12	-51.7	-52.9	21.8	0.00e+00	0	45	0	897581056	60	17356
2026-01-30 09:56:04.96	309.24	28.00	-51.6	-52.9	21.8	0.00e+00	0	45	0	899678208	60	17323
2026-01-30 09:56:05.97	309.48	27.87	-52.5	-53.9	20.9	0.00e+00	0	45	0	900726784	60	19461
2026-01-30 09:56:06.97	309.71	27.75	-53.0	-54.6	20.3	0.00e+00	0	45	0	902823936	60	21117
2026-01-30 09:56:07.98	309.94	27.63	-52.9	-54.5	20.3	0.00e+00	0	45	0	904921088	60	20878
2026-01-30 09:56:08.99	310.17	27.50	-52.4	-53.9	21.0	0.00e+00	0	45	0	907018240	60	19413
2026-01-30 09:56:09.99	310.39	27.38	-51.4	-52.7	22.0	0.00e+00	0	45	0	908066816	60	16958
2026-01-30 09:56:11.00	310.61	27.26	-50.8	-51.9	22.6	0.00e+00	0	45	0	910163968	60	15471
2026-01-30 09:56:12.01	310.84	27.13	-50.5	-51.6	22.8	0.00e+00	0	45	0	912261120	60	14948
2026-01-30 09:56:13.02	311.06	27.01	-50.9	-52.1	22.4	0.00e+00	0	45	0	914358272	60	15776
2026-01-30 09:56:14.02	311.28	26.89	-51.8	-53.2	21.5	0.00e+00	0	45	0	916455424	60	17806
2026-01-30 09:56:15.03	311.50	26.77	-53.0	-54.6	20.3	0.00e+00	0	45	0	918552576	60	21056
2026-01-30 09:56:16.04	311.71	26.64	-53.5	-55.3	19.8	0.00e+00	0	45	0	919601152	60	22816
2026-01-30 09:56:17.05	311.93	26.52	-53.6	-55.4	19.5	0.00e+00	0	45	0	921698304	60	23060
2026-01-30 09:56:18.06	312.14	26.40	-53.4	-55.2	19.8	0.00e+00	0	45	0	923795456	60	22521
2026-01-30 09:56:19.07	312.35	26.28	-52.7	-54.3	20.5	0.00e+00	0	45	0	925892608	60	20441
2026-01-30 09:56:20.07	312.56	26.16	-52.4	-53.9	20.8	0.00e+00	0	45	0	927989760	60	19403
2026-01-30 09:56:21.08	312.77	26.03	-52.4	-53.9	20.9	0.00e+00	0	45	0	929038336	60	19395
2026-01-30 09:56:22.08	312.97	25.91	-52.3	-53.7	21.0	0.00e+00	0	45	0	931135488	60	19022
2026-01-30 09:56:23.09	313.18	25.79	-52.1	-53.5	21.1	0.00e+00	0	45	0	933232640	60	18537
2026-01-30 09:56:24.09	313.38	25.67	-52.2	-53.7	21.0	0.00e+00	0	45	0	935329792	60	18930
2026-01-30 09:56:25.10	313.58	25.55	-52.7	-54.3	20.4	0.00e+00	0	45	0	936378368	60	20257
2026-01-30 09:56:26.10	313.78	25.43	-52.9	-54.5	20.2	0.00e+00	0	45	0	938475520	60	20918
2026-01-30 09:56:27.11	313.98	25.31	-52.6	-54.2	20.4	0.00e+00	0	45	0	940572672	60	20085
2026-01-30 09:56:28.12	314.18	25.19	-52.2	-53.8	20.9	0.00e+00	0	45	0	942669824	60	19103
2026-01-30 09:56:29.13	314.38	25.07	-51.6	-53.0	21.5	0.00e+00	0	45	0	944766976	60	17560
2026-01-30 09:56:30.14	314.57	24.95	-51.3	-52.6	21.7	0.00e+00	0	45	0	946864128	60	16741
2026-01-30 09:56:31.15	314.77	24.83	-51.2	-52.6	21.7	0.00e+00	0	45	0	947912704	60	16757
2026-01-30 09:56:32.15	314.96	24.71	-51.0	-52.4	21.8	0.00e+00	0	45	0	950009856	60	16313
2026-01-30 09:56:33.16	315.15	24.59	-51.1	-52.6	21.7	0.00e+00	0	45	0	952107008	60	16741
2026-01-30 09:56:34.16	315.34	24.47	-51.3	-52.8	21.5	0.00e+00	0	45	0	954204160	60	17117
2026-01-30 09:56:35.17	315.52	24.35	-51.6	-53.2	21.4	0.00e+00	0	45	0	956301312	60	17827
2026-01-30 09:56:36.17	315.71	24.24	-51.7	-53.2	21.1	0.00e+00	0	45	0	957349888	60	17835
2026-01-30 09:56:37.18	315.89	24.12	-52.0	-53.4	21.2	0.00e+00	0	45	0	959447040	60	18421
2026-01-30 09:56:38.19	316.08	24.00	-51.9	-53.2	21.4	0.00e+00	0	45	0	961544192	60	17986
2026-01-30 09:56:39.19	316.26	23.88	-51.4	-52.7	21.9	0.00e+00	0	45	0	963641344	60	16913
2026-01-30 09:56:40.20	316.44	23.76	-51.1	-52.3	22.1	0.00e+00	0	45	0	964689920	60	16186
2026-01-30 09:56:41.21	316.62	23.65	-51.2	-52.4	22.2	0.00e+00	0	45	0	966787072	60	16256
2026-01-30 09:56:42.21	316.80	23.53	-50.7	-51.8	22.6	0.00e+00	0	45	0	968884224	60	15182
2026-01-30 09:56:43.22	316.97	23.41	-50.6	-51.7	22.6	0.00e+00	0	45	0	970981376	60	15044
2026-01-30 09:56:44.23	317.15	23.30	-50.7	-51.9	22.5	0.00e+00	0	45	0	973078528	60	15443
2026-01-30 09:56:45.24	317.33	23.18	-51.0	-52.2	22.1	0.00e+00	0	45	0	975175680	60	15991
2026-01-30 09:56:46.24	317.50	23.07	-51.2	-52.5	22.0	0.00e+00	0	45	0	976224256	60	16506
2026-01-30 09:56:47.25	317.67	22.95	-51.5	-52.8	21.8	0.00e+00	0	45	0	978321408	60	17118
2026-01-30 09:56:48.26	317.84	22.83	-51.4	-52.8	21.7	0.00e+00	0	45	0	980418560	60	17127
2026-01-30 09:56:49.27	318.01	22.72	-51.5	-52.9	21.6	0.00e+00	0	45	0	982515712	60	17258
2026-01-30 09:56:50.27	318.18	22.60	-51.4	-52.7	21.8	0.00e+00	0	45	0	984612864	60	17004
2026-01-30 09:56:51.28	318.35	22.49	-51.1	-52.5	21.9	0.00e+00	0	45	0	985661440	60	16511
2026-01-30 09:56:52.29	318.51	22.37	-51.2	-52.5	21.9	0.00e+00	0	45	0	987758592	60	16607
2026-01-30 09:56:53.29	318.68	22.26	-51.0	-52.3	22.0	0.00e+00	0	45	0	989855744	60	16208
2026-01-30 09:56:54.29	318.84	22.15	-50.9	-52.2	22.1	0.00e+00	0	45	0	991952896	60	15895
2026-01-30 09:56:55.30	319.00	22.03	-50.9	-52.2	22.2	0.00e+00	0	45	0	993001472	60	15913
2026-01-30 09:56:56.30	319.16	21.92	-51.0	-52.3	22.0	0.00e+00	0	45	0	995098624	60	16113
2026-01-30 09:56:57.30	319.32	21.81	-51.1	-52.4	22.0	0.00e+00	0	45	0	997195776	60	16322
2026-01-30 09:56:58.31	319.48	21.70	-51.3	-52.5	21.8	0.00e+00	0	45	0	999292928	60	16596
2026-01-30 09:56:59.32	319.64	21.58	-51.4	-52.7	21.6	0.00e+00	0	45	0	1001390080	60	16975
2026-01-30 09:57:00.32	319.79	21.47	-51.4	-52.7	21.6	0.00e+00	0	45	0	1003487232	60	16994
2026-01-30 09:57:01.33	319.95	21.36	-51.4	-52.7	21.5	0.00e+00	0	45	0	1004535808	60	16927
2026-01-30 09:57:02.34	320.10	21.25	-51.4	-52.8	21.5	0.00e+00	0	45	0	1006632960	60	17064
2026-01-30 09:57:03.35	320.26	21.14	-51.3	-52.7	21.6	0.00e+00	0	45	0	1008730112	60	16820
2026-01-30 09:57:04.36	320.41	21.03	-51.4	-52.8	21.5	0.00e+00	0	45	0	1010827264	60	17093
2026-01-30 09:57:05.36	320.56	20.92	-51.4	-52.7	21.6	0.00e+00	0	45	0	1012924416	60	16999
2026-01-30 09:57:06.37	320.71	20.80	-51.2	-52.5	21.8	0.00e+00	0	45	0	1013972992	60	16510
2026-01-30 09:57:07.38	320.86	20.69	-51.4	-52.8	21.6	0.00e+00	0	45	0	1016070144	60	17085
2026-01-30 09:57:08.38	321.01	20.59	-51.3	-52.6	21.7	0.00e+00	0	45	0	1018167296	60	16731
2026-01-30 09:57:09.39	321.16	20.48	-51.5	-52.8	21.6	0.00e+00	0	45	0	1020264448	60	17104
2026-01-30 09:57:10.40	321.30	20.37	-51.6	-52.9	21.5	0.00e+00	0	45	0	1021313024	60	17380
2026-01-30 09:57:11.40	321.45	20.26	-51.3	-52.6	21.8	0.00e+00	0	45	0	1023410176	60	16692
2026-01-30 09:57:12.41	321.59	20.15	-51.5	-52.8	21.5	0.00e+00	0	45	0	1025507328	60	17147
2026-01-30 09:57:13.41	321.73	20.04	-51.4	-52.7	21.6	0.00e+00	0	45	0	1027604480	60	16886
2026-01-30 09:57:14.42	321.88	19.93	-51.6	-52.9	21.5	0.00e+00	0	45	0	1029701632	60	17219
2026-01-30 09:57:15.42	322.02	19.83	-51.9	-53.2	21.2	0.00e+00	0	45	0	1031798784	60	17922
2026-01-30 09:57:16.43	322.16	19.72	-51.8	-53.1	21.3	0.00e+00	0	45	0	1032847360	60	17788
2026-01-30 09:57:17.44	322.30	19.61	-52.1	-53.6	20.9	0.00e+00	0	45	0	1034944512	60	18674
2026-01-30 09:57:18.44	322.43	19.51	-52.4	-53.9	20.7	0.00e+00	0	45	0	1037041664	60	19379
2026-01-30 09:57:19.44	322.57	19.40	-52.6	-54.1	20.5	0.00e+00	0	45	0	1039138816	60	19868
2026-01-30 09:57:20.45	322.71	19.29	-52.9	-54.5	20.1	0.00e+00	0	45	0	1041235968	60	20865
2026-01-30 09:57:21.44	322.84	19.19	-52.9	-54.6	20.0	0.00e+00	0	45	0	1042284544	60	20968
2026-01-30 09:57:22.45	322.98	19.08	-52.9	-54.5	20.1	0.00e+00	0	45	0	1044381696	60	20815
2026-01-30 09:57:23.45	323.11	18.98	-52.9	-54.6	19.9	0.00e+00	0	45	0	1046478848	60	20979
2026-01-30 09:57:24.46	323.24	18.87	-52.7	-54.2	20.2	0.00e+00	0	45	0	1048576000	60	20177
2026-01-30 09:57:25.46	323.37	18.77	-52.7	-54.3	20.1	0.00e+00	0	45	0	1049624576	60	20334
2026-01-30 09:57:26.46	323.50	18.67	-52.7	-54.3	20.1	0.00e+00	0	45	0	1051721728	60	20309
2026-01-30 09:57:27.46	323.63	18.56	-52.7	-54.3	20.0	0.00e+00	0	45	0	1053818880	60	20442
2026-01-30 09:57:28.47	323.76	18.46	-53.0	-54.7	19.6	0.00e+00	0	45	0	1055916032	60	21194
2026-01-30 09:57:29.47	323.89	18.36	-53.1	-54.8	19.7	0.00e+00	0	45	0	1058013184	60	21648
2026-01-30 09:57:30.48	324.02	18.25	-53.4	-55.1	19.4	0.00e+00	0	45	0	1059061760	60	22346
2026-01-30 09:57:31.49	324.15	18.15	-53.7	-55.6	19.0	0.00e+00	0	45	0	1061158912	60	23525
2026-01-30 09:57:32.49	324.27	18.05	-53.8	-55.8	18.8	0.00e+00	0	45	0	1063256064	60	24181
2026-01-30 09:57:33.50	324.40	17.94	-54.0	-56.1	18.5	0.00e+00	0	45	0	1065353216	60	25015
2026-01-30 09:57:34.51	324.52	17.84	-54.0	-56.1	18.6	0.00e+00	0	45	0	1067450368	60	25031
2026-01-30 09:57:35.51	324.65	17.74	-53.8	-56.0	18.7	0.00e+00	0	45	0	1069547520	60	24628
2026-01-30 09:57:36.52	324.77	17.64	-53.8	-56.0	18.5	0.00e+00	0	45	0	1070596096	60	24733
2026-01-30 09:57:37.53	324.89	17.54	-53.2	-55.2	19.2	0.00e+00	0	45	0	1072693248	60	22476
2026-01-30 09:57:38.54	325.01	17.44	-52.9	-54.7	19.6	0.00e+00	0	45	0	1074790400	60	21379
2026-01-30 09:57:39.54	325.13	17.34	-52.7	-54.5	19.8	0.00e+00	0	45	0	1076887552	60	20794
2026-01-30 09:57:40.55	325.25	17.24	-52.6	-54.4	19.9	0.00e+00	0	45	0	1077936128	60	20452
2026-01-30 09:57:41.56	325.37	17.14	-52.4	-54.1	20.2	0.00e+00	0	45	0	1080033280	60	19960
2026-01-30 09:57:42.56	325.49	17.04	-52.5	-54.1	20.2	0.00e+00	0	45	0	1082130432	60	19952
2026-01-30 09:57:43.57	325.61	16.94	-52.8	-54.5	20.0	0.00e+00	0	45	0	1084227584	60	20719
2026-01-30 09:57:44.58	325.73	16.84	-52.7	-54.3	20.1	0.00e+00	0	45	0	1086324736	60	20385
2026-01-30 09:57:45.59	325.84	16.74	-52.8	-54.5	19.9	0.00e+00	0	45	0	1087373312	60	20741
2026-01-30 09:57:46.59	325.96	16.64	-52.8	-54.4	20.0	0.00e+00	0	45	0	1089470464	60	20595
2026-01-30 09:57:47.59	326.07	16.54	-52.9	-54.6	19.8	0.00e+00	0	45	0	1091567616	60	21114
2026-01-30 09:57:48.60	326.19	16.45	-53.1	-54.9	19.5	0.00e+00	0	45	0	1093664768	60	21851
2026-01-30 09:57:49.61	326.30	16.35	-53.1	-54.9	19.5	0.00e+00	0	45	0	1095761920	60	21822
2026-01-30 09:57:50.62	326.41	16.25	-53.2	-55.0	19.4	0.00e+00	0	45	0	1097859072	60	22120
2026-01-30 09:57:51.62	326.52	16.15	-53.2	-55.0	19.4	0.00e+00	0	45	0	1098907648	60	21975
2026-01-30 09:57:52.63	326.63	16.06	-52.9	-54.7	19.7	0.00e+00	0	45	0	1101004800	60	21212
2026-01-30 09:57:53.64	326.75	15.96	-53.1	-54.9	19.5	0.00e+00	0	45	0	1103101952	60	21788
2026-01-30 09:57:54.64	326.85	15.87	-52.9	-54.6	19.7	0.00e+00	0	45	0	1105199104	60	21137
2026-01-30 09:57:55.65	326.96	15.77	-52.9	-54.6	19.8	0.00e+00	0	45	0	1106247680	60	20997
