passes_logs/2026/01/30/R3.2S-Naryan-Mar/R3.2S-Naryan-Mar__20260130_020444_AQUA_rec.log

#Pass ID: 20260130_020444_AQUA
#Satellite: AQUA
#Configuration: AQUA
#almurnet v.1.7.20240730
#Start time: 2026-01-30 02:04:45

#Version: 2.2.20231116
#Station: R3.2S-Naryan-Mar
#Location: 53.008057 lon 67.646978 lat
#TLE: 1 27424U 02022A   26028.91948147  .00001781  00000+0  36607-3 0  9997
#TLE: 2 27424  98.4103 355.5827 0001815  62.4290   1.4641 14.61871847262923

#Time	Az	El	Level	Level2	SNR	BER	BlckErr	Temp	State	Recorded	gain1	gain2
2026-01-30 02:04:45.54	26.30	0.08	-59.0	-78.1	3.6	1.51e+00	0	44	0	0	60	316620
2026-01-30 02:04:46.54	26.27	0.14	-55.5	-78.6	3.5	3.02e+01	0	45	104	0	60	323155
2026-01-30 02:04:47.54	26.24	0.20	-56.2	-78.2	3.5	3.02e+01	0	45	104	0	60	307716
2026-01-30 02:04:48.55	26.21	0.26	-57.4	-78.3	3.5	3.02e+01	0	45	104	0	60	311946
2026-01-30 02:04:49.55	26.18	0.33	-57.3	-78.4	3.6	3.02e+01	0	45	104	0	60	315761
2026-01-30 02:04:50.56	26.15	0.39	-58.4	-78.9	3.5	3.02e+01	0	45	104	0	60	336676
2026-01-30 02:04:51.57	26.13	0.45	-57.3	-79.0	3.5	3.02e+01	0	45	104	0	60	338495
2026-01-30 02:04:52.57	26.10	0.51	-58.2	-78.9	3.5	3.02e+01	0	45	104	0	60	335675
2026-01-30 02:04:53.58	26.07	0.57	-57.7	-78.9	3.5	3.02e+01	0	45	104	0	60	335523
2026-01-30 02:04:54.59	26.04	0.63	-56.6	-78.5	3.6	3.02e+01	0	45	104	0	60	319049
2026-01-30 02:04:55.59	26.01	0.69	-57.6	-79.5	3.5	3.02e+01	0	45	104	0	60	359294
2026-01-30 02:04:56.60	25.97	0.76	-57.9	-79.4	3.5	3.02e+01	0	46	104	0	60	353860
2026-01-30 02:04:57.60	25.94	0.82	-58.3	-79.7	3.5	3.02e+01	0	46	104	0	60	366112
2026-01-30 02:04:58.61	25.91	0.88	-58.5	-79.7	3.5	3.02e+01	0	45	104	0	60	365959
2026-01-30 02:04:59.61	25.88	0.94	-58.6	-79.7	3.5	3.02e+01	0	46	104	0	60	369044
2026-01-30 02:05:00.62	25.85	1.01	-57.0	-79.5	3.5	3.02e+01	0	46	104	0	60	360583
2026-01-30 02:05:01.63	25.82	1.07	-58.0	-79.6	3.5	3.02e+01	0	46	104	0	60	361449
2026-01-30 02:05:02.63	25.79	1.13	-56.4	-79.7	3.5	3.02e+01	0	45	104	0	60	366254
2026-01-30 02:05:03.64	25.76	1.19	-54.5	-79.6	3.5	3.02e+01	0	46	104	0	60	362159
2026-01-30 02:05:04.64	25.73	1.26	-56.0	-79.4	3.5	3.02e+01	0	46	104	0	60	356644
2026-01-30 02:05:05.65	25.69	1.32	-56.8	-79.6	3.5	3.02e+01	0	46	104	0	60	365109
2026-01-30 02:05:06.66	25.66	1.38	-55.6	-79.5	3.5	3.02e+01	0	46	104	0	60	359752
2026-01-30 02:05:07.66	25.63	1.45	-54.4	-79.4	3.5	3.02e+01	0	46	104	0	60	354473
2026-01-30 02:05:08.67	25.60	1.51	-54.6	-79.1	3.5	3.02e+01	0	46	104	0	60	341864
2026-01-30 02:05:09.68	25.56	1.58	-55.0	-78.9	3.5	3.02e+01	0	46	104	0	60	335892
2026-01-30 02:05:10.69	25.53	1.64	-53.9	-78.9	3.5	3.02e+01	0	46	104	0	60	333554
2026-01-30 02:05:11.70	25.50	1.70	-54.0	-78.7	3.5	3.02e+01	0	46	104	0	60	326233
2026-01-30 02:05:12.70	25.47	1.77	-49.7	-78.3	3.5	3.02e+01	0	46	104	0	60	311953
2026-01-30 02:05:13.71	25.43	1.83	-52.3	-77.8	3.5	3.02e+01	0	46	104	0	60	297005
2026-01-30 02:05:14.71	25.40	1.90	-46.5	-76.8	3.6	3.02e+01	0	46	104	0	60	262709
2026-01-30 02:05:15.72	25.37	1.96	-48.8	-76.1	3.7	3.02e+01	0	46	104	0	60	242702
2026-01-30 02:05:16.72	25.33	2.03	-50.4	-74.8	3.8	3.02e+01	0	46	104	0	60	208323
2026-01-30 02:05:17.73	25.30	2.09	-50.1	-76.7	3.6	3.02e+01	0	46	104	0	60	258766
2026-01-30 02:05:18.74	25.26	2.16	-51.0	-76.8	3.6	3.02e+01	0	46	104	0	60	263653
2026-01-30 02:05:19.74	25.23	2.22	-54.5	-76.7	3.6	3.02e+01	0	46	104	0	60	259882
2026-01-30 02:05:20.75	25.19	2.29	-51.1	-76.6	3.5	3.02e+01	0	46	104	0	60	256634
2026-01-30 02:05:21.76	25.16	2.35	-50.8	-75.9	3.6	3.02e+01	0	46	104	0	60	237447
2026-01-30 02:05:22.76	25.13	2.42	-50.8	-75.8	3.6	3.02e+01	0	46	104	0	60	234151
2026-01-30 02:05:23.77	25.09	2.49	-50.8	-75.8	3.6	3.02e+01	0	46	104	0	60	234454
2026-01-30 02:05:24.77	25.06	2.55	-50.8	-76.0	3.7	3.02e+01	0	46	104	0	60	240860
2026-01-30 02:05:25.78	25.02	2.62	-50.8	-75.7	3.6	3.02e+01	0	46	104	0	60	230628
2026-01-30 02:05:26.78	24.98	2.68	-50.8	-75.5	3.6	3.02e+01	0	46	104	0	60	226732
2026-01-30 02:05:27.79	24.95	2.75	-50.7	-75.6	3.6	3.02e+01	0	46	104	0	60	229588
2026-01-30 02:05:28.80	24.91	2.82	-50.7	-75.6	3.6	3.02e+01	0	46	104	0	60	228768
2026-01-30 02:05:29.80	24.88	2.88	-50.7	-75.5	3.6	3.02e+01	0	46	104	0	60	227585
2026-01-30 02:05:30.81	24.84	2.95	-50.7	-75.7	3.6	3.02e+01	0	46	104	0	60	230632
2026-01-30 02:05:31.82	24.80	3.02	-50.7	-75.7	3.6	3.02e+01	0	46	104	0	60	232709
2026-01-30 02:05:32.82	24.77	3.09	-50.6	-75.7	3.6	3.02e+01	0	46	104	0	60	232417
2026-01-30 02:05:33.83	24.73	3.15	-50.6	-75.8	3.6	3.02e+01	0	46	104	0	60	233679
2026-01-30 02:05:34.84	24.69	3.22	-50.6	-75.3	3.6	3.02e+01	0	46	104	0	60	220423
2026-01-30 02:05:35.85	24.65	3.29	-50.6	-75.3	3.6	3.02e+01	0	46	104	0	60	221258
2026-01-30 02:05:36.86	24.62	3.36	-50.5	-75.2	3.6	3.02e+01	0	46	104	0	60	219153
2026-01-30 02:05:37.86	24.58	3.43	-50.6	-75.3	3.7	3.02e+01	0	46	104	0	60	222218
2026-01-30 02:05:38.87	24.54	3.50	-50.5	-75.6	3.6	3.02e+01	0	46	104	0	60	228147
2026-01-30 02:05:39.88	24.50	3.56	-50.5	-75.3	3.6	3.02e+01	0	46	104	0	60	221389
2026-01-30 02:05:40.89	24.46	3.63	-50.5	-75.6	3.6	3.02e+01	0	46	104	0	60	228237
2026-01-30 02:05:41.89	24.42	3.70	-50.5	-75.6	3.7	3.02e+01	0	46	104	0	60	229791
2026-01-30 02:05:42.90	24.38	3.77	-50.5	-75.4	3.6	3.02e+01	0	46	104	0	60	222907
2026-01-30 02:05:43.90	24.35	3.84	-50.5	-75.7	3.6	3.02e+01	0	46	104	0	60	232116
2026-01-30 02:05:44.90	24.31	3.91	-50.4	-75.4	3.6	3.02e+01	0	46	104	0	60	224331
2026-01-30 02:05:45.91	24.27	3.98	-50.5	-75.3	3.6	3.02e+01	0	46	104	0	60	220408
2026-01-30 02:05:46.92	24.23	4.05	-50.4	-75.2	3.6	3.02e+01	0	46	104	0	60	219376
2026-01-30 02:05:47.93	24.19	4.12	-50.4	-75.1	3.6	3.02e+01	0	46	104	0	60	217318
2026-01-30 02:05:48.93	24.15	4.19	-50.4	-75.0	3.6	3.02e+01	0	46	104	0	60	214861
2026-01-30 02:05:49.94	24.10	4.26	-50.3	-75.1	3.6	3.02e+01	0	46	104	0	60	216526
2026-01-30 02:05:50.95	24.06	4.33	-50.4	-75.1	3.6	3.02e+01	0	46	104	0	60	217266
2026-01-30 02:05:51.96	24.02	4.40	-50.3	-75.4	3.6	3.02e+01	0	46	104	0	60	224861
2026-01-30 02:05:52.97	23.98	4.48	-50.4	-75.1	3.6	3.02e+01	0	46	104	0	60	216633
2026-01-30 02:05:53.97	23.94	4.55	-50.3	-74.9	3.6	3.02e+01	0	46	104	0	60	212012
2026-01-30 02:05:54.98	23.90	4.62	-50.4	-74.6	3.6	3.02e+01	0	46	104	0	60	204475
2026-01-30 02:05:55.99	23.86	4.69	-50.4	-73.6	3.6	3.02e+01	0	46	104	0	60	182327
2026-01-30 02:05:57.00	23.81	4.76	-50.4	-73.8	3.6	3.02e+01	0	46	104	0	60	186914
2026-01-30 02:05:58.01	23.77	4.83	-50.4	-73.2	3.6	3.02e+01	0	46	104	0	60	173476
2026-01-30 02:05:59.01	23.73	4.91	-50.3	-72.5	3.9	3.02e+01	0	46	104	0	60	159993
2026-01-30 02:06:00.02	23.68	4.98	-50.0	-71.1	4.5	3.02e+01	0	46	104	0	60	136729
2026-01-30 02:06:01.03	23.64	5.05	-50.0	-69.5	3.9	3.02e+01	0	46	104	0	60	113443
2026-01-30 02:06:02.03	23.60	5.12	-50.0	-66.8	7.3	3.02e+01	0	46	0	0	60	83289
2026-01-30 02:06:03.03	23.55	5.20	-49.9	-64.4	9.6	3.02e+01	0	46	0	2097152	60	62855
2026-01-30 02:06:04.04	23.51	5.27	-49.8	-62.3	12.0	3.02e+01	0	46	0	3670016	60	49655
2026-01-30 02:06:05.04	23.46	5.34	-49.6	-60.2	14.2	3.02e+01	0	46	0	5767168	60	38885
2026-01-30 02:06:06.05	23.42	5.42	-49.3	-58.5	15.9	3.02e+01	0	46	0	7864320	60	32127
2026-01-30 02:06:07.05	23.38	5.49	-49.0	-56.9	17.6	3.02e+01	0	46	0	9961472	60	26560
2026-01-30 02:06:08.06	23.33	5.57	-48.8	-55.7	18.8	3.02e+01	0	46	0	11534336	60	23064
2026-01-30 02:06:09.07	23.28	5.64	-48.5	-54.7	19.7	3.02e+01	0	46	0	13631488	60	20753
2026-01-30 02:06:10.07	23.24	5.71	-48.3	-54.0	20.4	3.02e+01	0	46	0	15204352	60	19158
2026-01-30 02:06:11.08	23.19	5.79	-48.1	-53.6	20.9	3.02e+01	0	46	0	17301504	60	18269
2026-01-30 02:06:12.09	23.15	5.86	-48.0	-53.4	21.0	3.02e+01	0	46	0	18874368	60	17809
2026-01-30 02:06:13.10	23.10	5.94	-48.1	-53.5	20.8	3.02e+01	0	46	0	20971520	60	18095
2026-01-30 02:06:14.10	23.05	6.02	-48.2	-53.9	20.4	3.02e+01	0	46	0	23068672	60	18927
2026-01-30 02:06:15.11	23.01	6.09	-48.1	-54.1	21.3	3.02e+01	0	46	0	24641536	60	19200
2026-01-30 02:06:16.11	22.96	6.17	-47.7	-54.5	20.7	3.02e+01	0	46	0	26738688	60	20144
2026-01-30 02:06:17.11	22.91	6.24	-50.7	-59.6	15.0	3.02e+01	0	46	0	28311552	60	36185
2026-01-30 02:06:18.12	22.86	6.32	-49.9	-54.9	21.2	3.02e+01	0	46	0	30408704	60	21236
2026-01-30 02:06:19.12	22.81	6.40	-49.6	-61.1	12.6	3.02e+01	0	46	0	31981568	60	43219
2026-01-30 02:06:20.13	22.77	6.47	-49.1	-55.7	19.8	3.02e+01	0	46	0	34078720	60	23153
2026-01-30 02:06:21.14	22.72	6.55	-49.3	-55.0	20.8	3.02e+01	0	46	0	36175872	60	21329
2026-01-30 02:06:22.14	22.67	6.63	-49.3	-54.3	21.5	3.02e+01	0	46	0	37748736	60	19818
2026-01-30 02:06:23.15	22.62	6.70	-48.6	-53.8	22.2	3.02e+01	0	46	0	39845888	60	18602
2026-01-30 02:06:24.15	22.57	6.78	-48.0	-53.6	22.4	3.02e+01	0	46	0	41943040	60	18286
2026-01-30 02:06:25.16	22.52	6.86	-48.2	-53.9	22.3	3.02e+01	0	46	0	43515904	60	18936
2026-01-30 02:06:26.17	22.47	6.94	-48.3	-54.0	22.3	3.02e+01	0	46	0	45613056	60	19036
2026-01-30 02:06:27.18	22.42	7.02	-48.3	-53.9	22.4	3.02e+01	0	46	0	47185920	60	18844
2026-01-30 02:06:28.18	22.36	7.10	-48.1	-53.4	23.1	3.02e+01	0	46	0	49283072	60	17848
2026-01-30 02:06:29.19	22.31	7.18	-47.5	-53.1	23.4	3.02e+01	0	46	0	51380224	60	17144
2026-01-30 02:06:30.20	22.26	7.26	-46.8	-53.0	23.5	3.02e+01	0	46	0	52953088	60	16952
2026-01-30 02:06:31.21	22.21	7.33	-46.5	-52.8	23.6	3.02e+01	0	46	0	55050240	60	16651
2026-01-30 02:06:32.22	22.16	7.42	-46.6	-53.0	23.6	3.02e+01	0	46	0	56623104	60	16897
2026-01-30 02:06:33.23	22.10	7.50	-46.8	-52.7	23.8	3.02e+01	0	46	0	58720256	60	16364
2026-01-30 02:06:34.23	22.05	7.58	-47.0	-52.7	23.9	3.02e+01	0	46	0	60293120	60	16406
2026-01-30 02:06:35.23	22.00	7.66	-47.2	-52.6	23.8	3.02e+01	0	46	0	62390272	60	16276
2026-01-30 02:06:36.24	21.94	7.74	-47.2	-52.6	23.8	3.02e+01	0	46	0	64487424	60	16308
2026-01-30 02:06:37.25	21.89	7.82	-47.0	-52.5	23.9	3.02e+01	0	46	0	66060288	60	16004
2026-01-30 02:06:38.26	21.83	7.90	-46.8	-52.4	23.9	3.02e+01	0	46	0	68157440	60	15822
2026-01-30 02:06:39.26	21.78	7.98	-46.6	-52.3	23.9	3.02e+01	0	46	0	70254592	60	15759
2026-01-30 02:06:40.27	21.72	8.06	-46.0	-52.2	24.0	3.02e+01	0	46	0	71827456	60	15547
2026-01-30 02:06:41.27	21.67	8.14	-45.7	-52.2	24.0	3.02e+01	0	46	0	73924608	60	15568
2026-01-30 02:06:42.27	21.61	8.23	-45.7	-52.1	23.9	3.02e+01	0	46	0	75497472	60	15396
2026-01-30 02:06:43.28	21.56	8.31	-45.9	-52.2	23.9	3.02e+01	0	46	0	77594624	60	15441
2026-01-30 02:06:44.29	21.50	8.39	-46.4	-52.1	23.8	3.02e+01	0	46	0	79691776	60	15343
2026-01-30 02:06:45.29	21.44	8.48	-47.3	-52.2	23.7	3.02e+01	0	46	0	81264640	60	15469
2026-01-30 02:06:46.30	21.38	8.56	-48.1	-52.2	23.7	3.02e+01	0	46	0	83361792	60	15414
2026-01-30 02:06:47.31	21.33	8.64	-48.4	-52.2	23.7	3.02e+01	0	46	0	84934656	60	15432
2026-01-30 02:06:48.31	21.27	8.73	-48.2	-52.4	23.6	3.02e+01	0	46	0	87031808	60	15777
2026-01-30 02:06:49.32	21.21	8.81	-48.2	-52.5	23.5	3.02e+01	0	46	0	88604672	60	15981
2026-01-30 02:06:50.32	21.15	8.90	-48.4	-52.5	23.5	3.02e+01	0	46	0	90701824	60	16099
2026-01-30 02:06:51.33	21.09	8.98	-48.7	-52.6	23.4	3.02e+01	0	46	0	92798976	60	16203
2026-01-30 02:06:52.33	21.03	9.07	-49.1	-52.6	23.4	3.02e+01	0	46	0	94371840	60	16239
2026-01-30 02:06:53.34	20.97	9.15	-49.2	-52.9	23.3	3.02e+01	0	46	0	96468992	60	16716
2026-01-30 02:06:54.35	20.91	9.24	-48.6	-53.2	23.0	3.02e+01	0	46	0	98041856	60	17380
2026-01-30 02:06:55.36	20.85	9.32	-47.8	-53.3	23.0	3.02e+01	0	46	0	100139008	60	17566
2026-01-30 02:06:56.36	20.79	9.41	-47.5	-53.6	22.8	3.02e+01	0	46	0	102236160	60	18133
2026-01-30 02:06:57.37	20.72	9.50	-47.6	-53.8	22.5	3.02e+01	0	46	0	103809024	60	18574
2026-01-30 02:06:58.37	20.66	9.58	-48.2	-54.0	22.4	3.02e+01	0	46	0	105906176	60	19113
2026-01-30 02:06:59.38	20.60	9.67	-48.8	-53.8	22.2	3.02e+01	0	46	0	108003328	60	18729
2026-01-30 02:07:00.38	20.54	9.76	-49.3	-53.5	22.6	3.02e+01	0	46	0	109576192	60	18088
2026-01-30 02:07:01.39	20.47	9.85	-49.7	-53.3	22.7	3.02e+01	0	46	0	111673344	60	17583
2026-01-30 02:07:02.40	20.41	9.94	-49.6	-53.2	22.8	3.02e+01	0	46	0	113246208	60	17425
2026-01-30 02:07:03.41	20.34	10.03	-49.2	-53.3	22.7	3.02e+01	0	46	0	115343360	60	17554
2026-01-30 02:07:04.42	20.28	10.11	-48.7	-53.4	22.5	3.02e+01	0	46	0	116916224	60	17756
2026-01-30 02:07:05.42	20.21	10.20	-48.5	-53.6	22.4	3.02e+01	0	46	0	119013376	60	18214
2026-01-30 02:07:06.43	20.15	10.29	-48.3	-53.4	22.7	3.02e+01	0	46	0	121110528	60	17735
2026-01-30 02:07:07.44	20.08	10.38	-48.1	-52.8	23.2	3.02e+01	0	46	0	122683392	60	16611
2026-01-30 02:07:08.45	20.01	10.47	-47.9	-52.4	23.6	3.02e+01	0	46	0	124780544	60	15876
2026-01-30 02:07:09.46	19.95	10.56	-48.0	-52.3	23.7	3.02e+01	0	46	0	126877696	60	15751
2026-01-30 02:07:10.46	19.88	10.66	-48.1	-52.0	24.0	3.02e+01	0	46	0	128450560	60	15140
2026-01-30 02:07:11.47	19.81	10.75	-48.2	-51.8	24.2	3.02e+01	0	46	0	130547712	60	14839
2026-01-30 02:07:12.48	19.74	10.84	-48.3	-51.8	24.3	3.02e+01	0	46	0	132120576	60	14867
2026-01-30 02:07:13.48	19.67	10.93	-48.3	-51.9	24.3	3.02e+01	0	46	0	134217728	60	14929
2026-01-30 02:07:14.48	19.60	11.02	-48.1	-51.8	24.4	3.02e+01	0	46	0	136314880	60	14869
2026-01-30 02:07:15.48	19.53	11.11	-48.0	-51.8	24.5	3.02e+01	0	46	0	137887744	60	14842
2026-01-30 02:07:16.48	19.46	11.21	-47.6	-51.8	24.4	3.02e+01	0	46	0	139984896	60	14798
2026-01-30 02:07:17.49	19.39	11.30	-47.3	-51.8	24.5	3.02e+01	0	46	0	141557760	60	14757
2026-01-30 02:07:18.50	19.32	11.39	-47.2	-51.8	24.6	3.02e+01	0	46	0	143654912	60	14825
2026-01-30 02:07:19.50	19.25	11.49	-47.4	-52.0	24.4	3.02e+01	0	46	0	145227776	60	15219
2026-01-30 02:07:20.51	19.17	11.58	-47.7	-52.1	24.4	3.02e+01	0	46	0	147324928	60	15365
2026-01-30 02:07:21.52	19.10	11.68	-48.2	-52.1	24.3	3.02e+01	0	46	0	149422080	60	15360
2026-01-30 02:07:22.53	19.02	11.77	-48.7	-51.9	24.7	3.02e+01	0	46	0	150994944	60	15030
2026-01-30 02:07:23.53	18.95	11.87	-49.0	-51.6	25.0	3.02e+01	0	46	0	153092096	60	14472
2026-01-30 02:07:24.54	18.88	11.96	-49.0	-51.5	25.0	3.02e+01	0	46	0	154664960	60	14377
2026-01-30 02:07:25.54	18.80	12.06	-48.9	-51.5	25.0	3.02e+01	0	46	0	156762112	60	14335
2026-01-30 02:07:26.55	18.72	12.16	-48.9	-51.6	25.0	3.02e+01	0	46	0	158859264	60	14458
2026-01-30 02:07:27.56	18.65	12.25	-48.7	-51.4	25.3	3.02e+01	0	46	0	160432128	60	14136
2026-01-30 02:07:28.56	18.57	12.35	-48.7	-51.3	25.4	3.02e+01	0	46	0	162529280	60	13987
2026-01-30 02:07:29.56	18.49	12.45	-48.6	-51.3	25.4	3.02e+01	0	46	0	164626432	60	13934
2026-01-30 02:07:30.57	18.41	12.55	-48.3	-51.2	25.4	3.02e+01	0	46	0	166199296	60	13832
2026-01-30 02:07:31.57	18.33	12.64	-47.9	-51.1	25.6	3.02e+01	0	46	0	168296448	60	13644
2026-01-30 02:07:32.58	18.25	12.74	-47.7	-51.0	25.7	3.02e+01	0	46	0	169869312	60	13538
2026-01-30 02:07:33.58	18.18	12.84	-47.5	-51.0	25.7	3.02e+01	0	46	0	171966464	60	13507
2026-01-30 02:07:34.59	18.09	12.94	-47.5	-51.0	25.7	3.02e+01	0	46	0	173539328	60	13518
2026-01-30 02:07:35.60	18.01	13.04	-47.7	-51.0	25.6	3.02e+01	0	46	0	175636480	60	13528
2026-01-30 02:07:36.61	17.93	13.14	-48.1	-51.0	25.7	3.02e+01	0	46	0	177733632	60	13457
2026-01-30 02:07:37.62	17.85	13.24	-48.5	-50.9	25.7	3.02e+01	0	46	0	179306496	60	13335
2026-01-30 02:07:38.63	17.76	13.35	-48.4	-50.9	25.8	3.02e+01	0	46	0	181403648	60	13311
2026-01-30 02:07:39.63	17.68	13.45	-47.6	-50.9	25.7	3.02e+01	0	46	0	182976512	60	13321
2026-01-30 02:07:40.64	17.59	13.55	-46.3	-50.8	25.7	3.02e+01	0	46	0	185073664	60	13231
2026-01-30 02:07:41.65	17.51	13.65	-45.1	-50.8	25.8	3.02e+01	0	46	0	187170816	60	13174
2026-01-30 02:07:42.65	17.42	13.75	-44.5	-50.8	25.8	3.02e+01	0	46	0	188743680	60	13156
2026-01-30 02:07:43.66	17.34	13.86	-44.3	-50.8	25.9	3.02e+01	0	46	0	190840832	60	13146
2026-01-30 02:07:44.67	17.25	13.96	-44.6	-50.7	25.9	3.02e+01	0	46	0	192937984	60	13085
2026-01-30 02:07:45.67	17.16	14.07	-45.2	-50.8	25.9	3.02e+01	0	46	0	194510848	60	13178
2026-01-30 02:07:46.67	17.07	14.17	-46.2	-50.8	25.9	3.02e+01	0	46	0	196608000	60	13172
2026-01-30 02:07:47.68	16.98	14.28	-47.2	-50.8	25.9	3.02e+01	0	46	0	198180864	60	13212
2026-01-30 02:07:48.69	16.89	14.38	-47.8	-50.8	25.8	3.02e+01	0	46	0	200278016	60	13200
2026-01-30 02:07:49.70	16.80	14.49	-48.0	-50.8	25.7	3.02e+01	0	46	0	201850880	60	13144
2026-01-30 02:07:50.70	16.71	14.59	-47.9	-50.8	25.7	3.02e+01	0	46	0	203948032	60	13219
2026-01-30 02:07:51.71	16.62	14.70	-47.6	-50.7	25.7	3.02e+01	0	46	0	206045184	60	13099
2026-01-30 02:07:52.72	16.52	14.81	-47.3	-50.7	25.6	3.02e+01	0	46	0	207618048	60	13053
2026-01-30 02:07:53.73	16.43	14.92	-47.3	-50.8	25.5	3.02e+01	0	46	0	209715200	60	13158
2026-01-30 02:07:54.74	16.33	15.03	-47.2	-50.8	25.4	3.02e+01	0	46	0	211288064	60	13211
2026-01-30 02:07:55.74	16.24	15.13	-47.3	-50.8	25.2	3.02e+01	0	46	0	213385216	60	13261
2026-01-30 02:07:56.75	16.14	15.24	-47.4	-50.9	25.0	3.02e+01	0	46	0	215482368	60	13371
2026-01-30 02:07:57.75	16.05	15.35	-47.3	-51.0	24.8	3.02e+01	0	46	0	217055232	60	13425
2026-01-30 02:07:58.76	15.95	15.46	-47.2	-51.0	24.6	3.02e+01	0	46	0	219152384	60	13429
2026-01-30 02:07:59.76	15.85	15.57	-47.1	-51.0	24.5	3.02e+01	0	46	0	221249536	60	13514
2026-01-30 02:08:00.77	15.75	15.68	-46.9	-51.1	24.4	3.02e+01	0	46	0	222822400	60	13596
2026-01-30 02:08:01.78	15.65	15.79	-46.8	-51.1	24.2	3.02e+01	0	46	0	224919552	60	13638
2026-01-30 02:08:02.78	15.55	15.91	-46.8	-51.1	24.1	3.02e+01	0	46	0	226492416	60	13628
2026-01-30 02:08:03.78	15.45	16.02	-47.0	-51.0	24.1	3.02e+01	0	46	0	228589568	60	13433
2026-01-30 02:08:04.79	15.35	16.13	-47.5	-50.9	24.4	3.02e+01	0	46	0	230162432	60	13396
2026-01-30 02:08:05.79	15.24	16.24	-47.9	-50.9	24.5	3.02e+01	0	46	0	232259584	60	13279
2026-01-30 02:08:06.80	15.14	16.36	-48.2	-50.9	24.8	3.02e+01	0	46	0	234356736	60	13299
2026-01-30 02:08:07.81	15.03	16.47	-48.4	-50.9	25.1	3.02e+01	0	46	0	235929600	60	13309
2026-01-30 02:08:08.81	14.93	16.59	-48.4	-50.8	25.3	3.02e+01	0	46	0	238026752	60	13242
2026-01-30 02:08:09.82	14.82	16.70	-48.4	-50.8	25.7	3.02e+01	0	46	0	239599616	60	13234
2026-01-30 02:08:10.82	14.71	16.82	-48.4	-50.8	25.9	3.02e+01	0	46	0	241696768	60	13167
2026-01-30 02:08:11.83	14.60	16.93	-48.3	-50.7	26.2	3.02e+01	0	46	0	243793920	60	13050
2026-01-30 02:08:12.84	14.49	17.05	-48.2	-50.7	26.2	3.02e+01	0	46	0	245366784	60	13063
2026-01-30 02:08:13.85	14.38	17.17	-48.2	-50.7	26.1	3.02e+01	0	46	0	247463936	60	13081
2026-01-30 02:08:14.85	14.27	17.29	-48.2	-50.7	26.1	3.02e+01	0	46	0	249036800	60	13026
2026-01-30 02:08:15.86	14.16	17.41	-48.2	-50.7	25.9	3.02e+01	0	46	0	251133952	60	13084
2026-01-30 02:08:16.86	14.05	17.52	-48.2	-50.8	25.9	3.02e+01	0	46	0	253231104	60	13155
2026-01-30 02:08:17.87	13.93	17.64	-48.2	-50.8	25.9	3.02e+01	0	46	0	254803968	60	13167
2026-01-30 02:08:18.87	13.82	17.76	-48.1	-50.8	26.0	3.02e+01	0	46	0	256901120	60	13125
2026-01-30 02:08:19.88	13.70	17.88	-48.1	-50.8	26.0	3.02e+01	0	46	0	258473984	60	13227
2026-01-30 02:08:20.88	13.58	18.00	-48.1	-50.8	25.9	3.02e+01	0	46	0	260571136	60	13238
2026-01-30 02:08:21.89	13.46	18.13	-48.0	-50.8	25.9	3.02e+01	0	46	0	262668288	60	13218
2026-01-30 02:08:22.90	13.34	18.25	-47.9	-50.8	25.8	3.02e+01	0	46	0	264241152	60	13244
2026-01-30 02:08:23.91	13.22	18.37	-47.8	-50.8	25.7	3.02e+01	0	46	0	266338304	60	13225
2026-01-30 02:08:24.91	13.10	18.49	-47.9	-50.9	25.6	3.02e+01	0	46	0	267911168	60	13380
2026-01-30 02:08:25.92	12.98	18.62	-47.9	-50.9	25.5	3.02e+01	0	46	0	270008320	60	13326
2026-01-30 02:08:26.93	12.85	18.74	-48.0	-50.9	25.3	3.02e+01	0	46	0	272105472	60	13407
2026-01-30 02:08:27.93	12.73	18.87	-48.1	-51.0	25.1	3.02e+01	0	46	0	273678336	60	13536
2026-01-30 02:08:28.93	12.60	18.99	-48.3	-51.1	25.1	3.02e+01	0	46	0	275775488	60	13623
2026-01-30 02:08:29.93	12.48	19.12	-48.4	-51.1	25.1	3.02e+01	0	46	0	277348352	60	13621
2026-01-30 02:08:30.93	12.35	19.24	-48.5	-51.0	25.2	3.02e+01	0	46	0	279445504	60	13516
2026-01-30 02:08:31.94	12.22	19.37	-48.5	-50.9	25.2	3.02e+01	0	46	0	281018368	60	13385
2026-01-30 02:08:32.95	12.09	19.50	-48.7	-51.0	25.2	3.02e+01	0	46	0	283115520	60	13458
2026-01-30 02:08:33.95	11.96	19.63	-48.8	-51.0	25.2	3.02e+01	0	46	0	285212672	60	13532
2026-01-30 02:08:34.96	11.82	19.75	-48.8	-51.0	25.2	3.02e+01	0	46	0	286785536	60	13527
2026-01-30 02:08:35.97	11.69	19.88	-48.8	-51.0	25.4	3.02e+01	0	46	0	288882688	60	13489
2026-01-30 02:08:36.97	11.55	20.01	-48.9	-51.0	25.5	3.02e+01	0	46	0	290979840	60	13472
2026-01-30 02:08:37.98	11.41	20.14	-48.8	-50.9	25.6	3.02e+01	0	46	0	292552704	60	13388
2026-01-30 02:08:38.98	11.28	20.27	-48.9	-51.0	25.7	3.02e+01	0	46	0	294649856	60	13493
2026-01-30 02:08:39.99	11.14	20.41	-48.8	-51.0	25.7	3.02e+01	0	46	0	296222720	60	13528
2026-01-30 02:08:41.00	11.00	20.54	-48.7	-51.1	25.8	3.02e+01	0	46	0	298319872	60	13643
2026-01-30 02:08:42.00	10.85	20.67	-48.5	-51.1	25.8	3.02e+01	0	46	0	300417024	60	13666
2026-01-30 02:08:43.01	10.71	20.80	-48.2	-51.0	26.0	3.02e+01	0	46	0	301989888	60	13474
2026-01-30 02:08:44.01	10.57	20.94	-48.1	-51.0	25.9	3.02e+01	0	46	0	304087040	60	13479
2026-01-30 02:08:45.02	10.42	21.07	-47.9	-51.0	25.8	3.02e+01	0	46	0	305659904	60	13461
2026-01-30 02:08:46.02	10.27	21.21	-47.8	-51.0	25.6	3.02e+01	0	46	0	307757056	60	13505
2026-01-30 02:08:47.02	10.13	21.34	-47.8	-51.0	25.3	3.02e+01	0	46	0	309329920	60	13556
2026-01-30 02:08:48.03	9.97	21.48	-48.0	-51.1	25.1	3.02e+01	0	46	0	311427072	60	13670
2026-01-30 02:08:49.03	9.82	21.62	-48.4	-51.1	25.0	3.02e+01	0	46	0	313524224	60	13679
2026-01-30 02:08:50.04	9.67	21.75	-48.7	-51.2	25.0	3.02e+01	0	46	0	315097088	60	13740
2026-01-30 02:08:51.04	9.52	21.89	-48.7	-51.2	25.0	3.02e+01	0	46	0	317194240	60	13735
2026-01-30 02:08:52.05	9.36	22.03	-48.6	-51.1	25.1	3.02e+01	0	46	0	318767104	60	13683
2026-01-30 02:08:53.06	9.20	22.17	-48.5	-51.2	25.3	3.02e+01	0	46	0	320864256	60	13784
2026-01-30 02:08:54.06	9.04	22.31	-48.3	-51.2	25.4	3.02e+01	0	46	0	322961408	60	13869
2026-01-30 02:08:55.07	8.88	22.45	-48.3	-51.3	25.4	3.02e+01	0	46	0	324534272	60	13948
2026-01-30 02:08:56.08	8.72	22.59	-48.4	-51.3	25.4	3.02e+01	0	46	0	326631424	60	14018
2026-01-30 02:08:57.09	8.55	22.73	-48.6	-51.4	25.4	3.02e+01	0	46	0	328728576	60	14145
2026-01-30 02:08:58.10	8.39	22.88	-48.7	-51.4	25.5	3.02e+01	0	46	0	330301440	60	14075
2026-01-30 02:08:59.10	8.22	23.02	-48.5	-51.3	25.6	3.02e+01	0	46	0	332398592	60	14008
2026-01-30 02:09:00.11	8.05	23.16	-48.3	-51.2	25.7	3.02e+01	0	46	0	333971456	60	13853
2026-01-30 02:09:01.12	7.88	23.31	-48.5	-51.2	25.7	3.02e+01	0	46	0	336068608	60	13850
2026-01-30 02:09:02.11	7.71	23.45	-48.8	-51.2	25.7	3.02e+01	0	46	0	337641472	60	13789
2026-01-30 02:09:03.12	7.54	23.60	-49.0	-51.1	25.9	3.02e+01	0	46	0	339738624	60	13597
2026-01-30 02:09:04.13	7.36	23.74	-48.9	-51.1	26.0	3.02e+01	0	46	0	341835776	60	13584
2026-01-30 02:09:05.13	7.19	23.89	-48.9	-51.1	26.0	3.02e+01	0	46	0	343408640	60	13649
2026-01-30 02:09:06.14	7.01	24.04	-49.0	-51.1	26.0	3.02e+01	0	46	0	345505792	60	13693
2026-01-30 02:09:07.15	6.82	24.18	-49.0	-51.2	25.8	3.02e+01	0	46	0	347078656	60	13804
2026-01-30 02:09:08.15	6.64	24.33	-49.0	-51.3	25.8	3.02e+01	0	46	0	349175808	60	13908
2026-01-30 02:09:09.15	6.46	24.48	-49.1	-51.4	25.7	3.02e+01	0	46	0	351272960	60	14059
2026-01-30 02:09:10.16	6.27	24.63	-49.2	-51.5	25.6	3.02e+01	0	46	0	352845824	60	14311
2026-01-30 02:09:11.16	6.09	24.78	-49.3	-51.5	25.6	3.02e+01	0	46	0	354942976	60	14357
2026-01-30 02:09:12.17	5.89	24.93	-49.3	-51.5	25.5	3.02e+01	0	46	0	357040128	60	14362
2026-01-30 02:09:13.17	5.70	25.08	-49.2	-51.5	25.5	3.02e+01	0	46	0	358612992	60	14250
2026-01-30 02:09:14.18	5.51	25.23	-49.1	-51.4	25.6	3.02e+01	0	46	0	360710144	60	14163
2026-01-30 02:09:15.18	5.31	25.38	-49.1	-51.3	25.6	3.02e+01	0	46	0	362283008	60	14007
2026-01-30 02:09:16.19	5.11	25.54	-49.0	-51.2	25.6	3.02e+01	0	46	0	364380160	60	13795
2026-01-30 02:09:17.20	4.91	25.69	-49.1	-51.3	25.6	3.02e+01	0	46	0	365953024	60	13950
2026-01-30 02:09:18.21	4.71	25.85	-49.2	-51.3	25.6	3.02e+01	0	46	0	368050176	60	13991
2026-01-30 02:09:19.22	4.51	26.00	-49.4	-51.5	25.4	3.02e+01	0	46	0	370147328	60	14345
2026-01-30 02:09:20.22	4.30	26.16	-49.5	-51.5	25.5	3.02e+01	0	46	0	371720192	60	14338
2026-01-30 02:09:21.22	4.09	26.31	-49.4	-51.5	25.5	3.02e+01	0	46	0	373817344	60	14251
2026-01-30 02:09:22.23	3.88	26.47	-49.3	-51.4	25.5	3.02e+01	0	46	0	375390208	60	14115
2026-01-30 02:09:23.24	3.67	26.63	-49.4	-51.7	25.1	3.02e+01	0	46	0	377487360	60	14596
2026-01-30 02:09:24.24	3.45	26.78	-49.5	-51.8	25.0	3.02e+01	0	46	0	379060224	60	14760
2026-01-30 02:09:25.25	3.24	26.94	-49.5	-51.7	24.9	3.02e+01	0	46	0	381157376	60	14656
2026-01-30 02:09:26.26	3.01	27.10	-48.9	-51.1	25.4	3.02e+01	0	46	0	383254528	60	13692
2026-01-30 02:09:27.27	2.79	27.26	-48.8	-51.0	25.5	3.02e+01	0	46	0	385351680	60	13491
2026-01-30 02:09:28.27	2.57	27.42	-48.8	-51.0	25.5	3.02e+01	0	46	0	386924544	60	13534
2026-01-30 02:09:29.27	2.34	27.58	-48.9	-51.1	25.6	3.02e+01	0	46	0	389021696	60	13606
2026-01-30 02:09:30.27	2.12	27.74	-48.9	-51.1	25.6	3.02e+01	0	46	0	390594560	60	13687
2026-01-30 02:09:31.28	1.88	27.90	-48.9	-51.1	25.7	3.02e+01	0	46	0	392691712	60	13670
2026-01-30 02:09:32.29	1.65	28.07	-48.7	-51.0	25.6	3.02e+01	0	46	0	394264576	60	13491
2026-01-30 02:09:33.30	1.41	28.23	-48.5	-50.8	25.8	3.02e+01	0	46	0	396361728	60	13208
2026-01-30 02:09:34.31	1.17	28.39	-48.2	-50.4	26.1	3.02e+01	0	46	0	398458880	60	12658
2026-01-30 02:09:35.32	0.93	28.56	-48.1	-50.3	26.3	3.02e+01	0	46	0	400031744	60	12389
2026-01-30 02:09:36.33	0.68	28.72	-48.2	-50.2	26.4	3.02e+01	0	46	0	402128896	60	12379
2026-01-30 02:09:37.33	0.44	28.88	-48.3	-50.3	26.4	3.02e+01	0	46	0	403701760	60	12456
2026-01-30 02:09:38.34	0.19	29.05	-48.5	-50.4	26.3	3.02e+01	0	46	0	405798912	60	12640
2026-01-30 02:09:39.35	359.93	29.22	-48.5	-50.4	26.4	3.02e+01	0	46	0	407371776	60	12585
2026-01-30 02:09:40.35	359.68	29.38	-48.6	-50.5	26.2	3.02e+01	0	46	0	409468928	60	12752
2026-01-30 02:09:41.35	359.42	29.55	-48.7	-50.6	26.1	3.02e+01	0	46	0	411566080	60	12958
2026-01-30 02:09:42.36	359.16	29.71	-48.7	-50.6	26.0	3.02e+01	0	46	0	413663232	60	12936
2026-01-30 02:09:43.36	358.90	29.88	-48.6	-50.5	26.2	3.02e+01	0	46	0	415236096	60	12769
2026-01-30 02:09:44.37	358.63	30.05	-48.5	-50.5	26.3	3.02e+01	0	46	0	417333248	60	12791
2026-01-30 02:09:45.37	358.36	30.21	-48.3	-50.4	26.3	3.02e+01	0	46	0	418906112	60	12577
2026-01-30 02:09:46.38	358.09	30.38	-48.3	-50.5	26.3	3.02e+01	0	46	0	421003264	60	12701
2026-01-30 02:09:47.38	357.82	30.55	-48.5	-50.6	26.1	3.02e+01	0	46	0	422576128	60	12950
2026-01-30 02:09:48.40	357.53	30.72	-48.7	-50.8	26.0	3.02e+01	0	46	0	424673280	60	13183
2026-01-30 02:09:49.40	357.25	30.89	-48.9	-50.9	26.0	3.02e+01	0	46	0	426770432	60	13300
2026-01-30 02:09:50.41	356.97	31.06	-48.8	-50.8	25.9	3.02e+01	0	46	0	428343296	60	13191
2026-01-30 02:09:51.42	356.68	31.23	-48.8	-50.8	25.8	3.02e+01	0	46	0	430440448	60	13201
2026-01-30 02:09:52.42	356.39	31.40	-49.0	-50.9	25.8	3.02e+01	0	46	0	432013312	60	13417
2026-01-30 02:09:53.43	356.10	31.57	-48.9	-50.9	25.8	3.02e+01	0	46	0	434110464	60	13325
2026-01-30 02:09:54.44	355.80	31.74	-48.5	-50.6	26.1	3.02e+01	0	46	0	435683328	60	12947
2026-01-30 02:09:55.44	355.50	31.91	-48.4	-50.7	26.0	3.02e+01	0	46	0	437780480	60	13031
2026-01-30 02:09:56.45	355.20	32.08	-48.3	-50.7	26.0	3.02e+01	0	46	0	439877632	60	13010
2026-01-30 02:09:57.45	354.89	32.25	-48.4	-50.7	26.0	3.02e+01	0	46	0	441450496	60	12992
2026-01-30 02:09:58.46	354.58	32.42	-48.5	-50.7	26.1	3.02e+01	0	46	0	443547648	60	12978
2026-01-30 02:09:59.46	354.27	32.59	-48.6	-50.7	26.2	3.02e+01	0	46	0	445644800	60	13026
2026-01-30 02:10:00.47	353.95	32.76	-48.9	-51.0	25.9	3.02e+01	0	46	0	447217664	60	13517
2026-01-30 02:10:01.48	353.63	32.93	-49.1	-51.1	26.0	3.02e+01	0	46	0	449314816	60	13679
2026-01-30 02:10:02.48	353.30	33.10	-49.1	-51.0	26.1	3.02e+01	0	46	0	450887680	60	13491
2026-01-30 02:10:03.48	352.98	33.27	-49.1	-51.0	26.2	3.02e+01	0	46	0	452984832	60	13427
2026-01-30 02:10:04.49	352.65	33.44	-49.4	-51.3	26.0	3.02e+01	0	46	0	455081984	60	13941
2026-01-30 02:10:05.50	352.31	33.62	-49.7	-51.5	25.7	3.02e+01	0	46	0	456654848	60	14305
2026-01-30 02:10:06.51	351.97	33.79	-49.8	-51.6	25.5	3.02e+01	0	46	0	458752000	60	14439
2026-01-30 02:10:07.51	351.63	33.96	-50.0	-51.8	25.5	3.02e+01	0	46	0	460324864	60	14881
2026-01-30 02:10:08.52	351.28	34.13	-50.3	-52.2	25.2	3.02e+01	0	46	0	462422016	60	15463
2026-01-30 02:10:09.53	350.93	34.30	-50.0	-52.0	25.4	3.02e+01	0	46	0	463994880	60	15086
2026-01-30 02:10:10.53	350.58	34.47	-49.9	-51.7	25.5	3.02e+01	0	46	0	466092032	60	14692
2026-01-30 02:10:11.54	350.22	34.64	-49.9	-51.9	25.5	3.02e+01	0	46	0	468189184	60	14908
2026-01-30 02:10:12.54	349.86	34.81	-49.8	-51.8	25.5	3.02e+01	0	46	0	469762048	60	14814
2026-01-30 02:10:13.55	349.49	34.98	-50.1	-52.1	25.1	3.02e+01	0	46	0	471859200	60	15245
2026-01-30 02:10:14.56	349.12	35.15	-50.4	-52.4	25.0	3.02e+01	0	46	0	473956352	60	15931
2026-01-30 02:10:15.56	348.75	35.31	-50.6	-52.6	24.9	3.02e+01	0	46	0	475529216	60	16178
2026-01-30 02:10:16.57	348.37	35.48	-50.7	-52.8	24.8	3.02e+01	0	46	0	477626368	60	16554
2026-01-30 02:10:17.57	347.99	35.65	-50.2	-52.1	25.3	3.02e+01	0	46	0	479199232	60	15345
2026-01-30 02:10:18.58	347.61	35.82	-49.7	-51.6	25.6	3.02e+01	0	46	0	481296384	60	14480
2026-01-30 02:10:19.59	347.22	35.99	-49.8	-51.8	25.3	3.02e+01	0	46	0	483393536	60	14752
2026-01-30 02:10:20.60	346.82	36.15	-50.1	-52.2	24.9	3.02e+01	0	46	0	484966400	60	15507
2026-01-30 02:10:21.61	346.42	36.32	-50.3	-52.4	24.5	3.02e+01	0	46	0	487063552	60	15921
2026-01-30 02:10:22.62	346.02	36.48	-50.2	-52.3	24.4	3.02e+01	0	46	0	488636416	60	15739
2026-01-30 02:10:23.63	345.61	36.65	-50.3	-52.4	24.2	3.02e+01	0	46	0	490733568	60	15938
2026-01-30 02:10:24.63	345.20	36.81	-50.1	-52.3	24.1	3.02e+01	0	46	0	492306432	60	15708
2026-01-30 02:10:25.64	344.79	36.97	-50.1	-52.3	23.9	3.02e+01	0	46	0	494403584	60	15642
2026-01-30 02:10:26.65	344.37	37.14	-50.2	-52.4	23.7	3.02e+01	0	46	0	496500736	60	15847
2026-01-30 02:10:27.66	343.94	37.30	-50.2	-52.5	23.5	3.02e+01	0	46	0	498597888	60	15987
2026-01-30 02:10:28.66	343.52	37.46	-50.3	-52.6	23.4	3.02e+01	0	46	0	500170752	60	16153
2026-01-30 02:10:29.67	343.08	37.61	-50.5	-52.8	23.3	3.02e+01	0	46	0	502267904	60	16650
2026-01-30 02:10:30.68	342.64	37.77	-50.4	-52.6	23.7	3.02e+01	0	46	0	503840768	60	16186
2026-01-30 02:10:31.69	342.20	37.93	-50.2	-52.4	24.0	3.02e+01	0	46	0	505937920	60	15794
2026-01-30 02:10:32.69	341.76	38.08	-50.2	-52.4	23.9	3.02e+01	0	46	0	507510784	60	15872
2026-01-30 02:10:33.69	341.31	38.24	-50.7	-53.0	23.3	3.02e+01	0	46	0	509607936	60	17088
2026-01-30 02:10:34.70	340.86	38.39	-50.9	-53.3	23.5	3.02e+01	0	46	0	511705088	60	17493
2026-01-30 02:10:35.71	340.40	38.54	-50.8	-53.1	23.5	3.02e+01	0	46	0	513277952	60	17140
2026-01-30 02:10:36.72	339.93	38.70	-50.5	-52.6	23.9	3.02e+01	0	46	0	515375104	60	16239
2026-01-30 02:10:37.73	339.46	38.84	-50.6	-52.7	24.0	3.02e+01	0	46	0	516947968	60	16325
2026-01-30 02:10:38.74	338.99	38.99	-50.9	-53.1	23.7	3.02e+01	0	46	0	519045120	60	17104
2026-01-30 02:10:39.74	338.52	39.14	-50.7	-52.9	23.6	3.02e+01	0	46	0	520617984	60	16783
2026-01-30 02:10:40.75	338.04	39.28	-50.6	-52.7	23.8	3.02e+01	0	46	0	522715136	60	16364
2026-01-30 02:10:41.76	337.55	39.43	-50.6	-52.8	23.9	3.02e+01	0	46	0	524812288	60	16574
2026-01-30 02:10:42.77	337.06	39.57	-50.5	-52.6	24.0	3.02e+01	0	46	0	526909440	60	16253
2026-01-30 02:10:43.77	336.57	39.71	-50.5	-52.6	24.1	3.02e+01	0	46	0	528482304	60	16270
2026-01-30 02:10:44.77	336.07	39.84	-50.5	-52.6	24.1	3.02e+01	0	46	0	530579456	60	16296
2026-01-30 02:10:45.78	335.57	39.98	-50.2	-52.4	24.5	3.02e+01	0	46	0	532152320	60	15895
2026-01-30 02:10:46.79	335.06	40.11	-50.3	-52.4	24.5	3.02e+01	0	46	0	534249472	60	15923
2026-01-30 02:10:47.79	334.56	40.24	-50.5	-52.7	24.2	3.02e+01	0	46	0	535822336	60	16323
2026-01-30 02:10:48.79	334.04	40.37	-50.4	-52.5	24.6	3.02e+01	0	46	0	537919488	60	15983
2026-01-30 02:10:49.79	333.53	40.50	-50.4	-52.5	24.5	3.02e+01	0	46	0	540016640	60	16131
2026-01-30 02:10:50.80	333.00	40.62	-50.6	-52.6	24.6	3.02e+01	0	46	0	541589504	60	16309
2026-01-30 02:10:51.80	332.48	40.75	-50.4	-52.4	24.8	3.02e+01	0	46	0	543686656	60	15834
2026-01-30 02:10:52.81	331.95	40.87	-50.6	-52.7	24.6	3.02e+01	0	46	0	545259520	60	16351
2026-01-30 02:10:53.81	331.41	40.99	-50.6	-52.8	24.5	3.02e+01	0	46	0	547356672	60	16557
2026-01-30 02:10:54.81	330.88	41.10	-50.2	-52.2	24.9	3.02e+01	0	46	0	548929536	60	15548
2026-01-30 02:10:55.82	330.33	41.21	-50.2	-52.2	24.9	3.02e+01	0	46	0	551026688	60	15508
2026-01-30 02:10:56.83	329.78	41.33	-50.2	-52.3	24.8	3.02e+01	0	46	0	553123840	60	15626
2026-01-30 02:10:57.83	329.24	41.43	-50.4	-52.5	24.5	3.02e+01	0	46	0	554696704	60	16023
2026-01-30 02:10:58.84	328.68	41.54	-50.3	-52.5	24.5	3.02e+01	0	46	0	556793856	60	16003
2026-01-30 02:10:59.85	328.12	41.64	-50.2	-52.3	24.7	3.02e+01	0	46	0	558366720	60	15756
2026-01-30 02:11:00.85	327.56	41.74	-50.1	-52.1	25.0	3.02e+01	0	46	0	560463872	60	15338
2026-01-30 02:11:01.86	326.99	41.84	-50.3	-52.3	25.0	3.02e+01	0	46	0	562561024	60	15633
2026-01-30 02:11:02.87	326.42	41.94	-50.6	-52.6	24.7	3.02e+01	0	46	0	564133888	60	16279
2026-01-30 02:11:03.87	325.85	42.03	-50.5	-52.5	24.6	3.02e+01	0	46	0	566231040	60	15980
2026-01-30 02:11:04.88	325.28	42.12	-50.2	-52.1	24.8	3.02e+01	0	46	0	568328192	60	15388
2026-01-30 02:11:05.89	324.70	42.20	-50.3	-52.2	24.8	3.02e+01	0	46	0	569901056	60	15499
2026-01-30 02:11:06.90	324.11	42.29	-50.6	-52.6	24.4	3.02e+01	0	46	0	571998208	60	16301
2026-01-30 02:11:07.91	323.52	42.37	-50.9	-53.0	24.3	3.02e+01	0	46	0	573571072	60	17088
2026-01-30 02:11:08.91	322.94	42.44	-50.5	-52.6	24.8	3.02e+01	0	46	0	575668224	60	16160
2026-01-30 02:11:09.92	322.35	42.51	-50.1	-52.1	25.2	3.02e+01	0	46	0	577241088	60	15381
2026-01-30 02:11:10.93	321.75	42.59	-50.0	-52.0	25.2	3.02e+01	0	46	0	579338240	60	15227
2026-01-30 02:11:11.94	321.15	42.65	-50.2	-52.4	24.6	3.02e+01	0	46	0	581435392	60	15892
2026-01-30 02:11:12.95	320.55	42.72	-50.3	-52.7	24.5	3.02e+01	0	46	0	583008256	60	16325
2026-01-30 02:11:13.95	319.96	42.78	-49.9	-52.0	24.9	3.02e+01	0	46	0	585105408	60	15201
2026-01-30 02:11:14.95	319.36	42.83	-50.2	-52.3	24.6	3.02e+01	0	46	0	586678272	60	15761
2026-01-30 02:11:15.96	318.75	42.88	-50.6	-52.7	24.3	3.02e+01	0	46	0	588775424	60	16418
2026-01-30 02:11:16.97	318.14	42.93	-50.4	-52.4	24.7	3.02e+01	0	46	0	590872576	60	15784
2026-01-30 02:11:17.98	317.53	42.98	-50.4	-52.3	24.8	3.02e+01	0	46	0	592445440	60	15639
2026-01-30 02:11:18.98	316.92	43.02	-50.1	-52.1	24.8	3.02e+01	0	46	0	594542592	60	15300
2026-01-30 02:11:19.99	316.31	43.06	-49.9	-52.1	25.1	3.02e+01	0	46	0	596639744	60	15270
2026-01-30 02:11:21.00	315.69	43.10	-49.6	-51.9	25.0	3.02e+01	0	46	0	598212608	60	15028
2026-01-30 02:11:22.01	315.07	43.13	-49.6	-52.1	24.8	3.02e+01	0	46	0	600309760	60	15282
2026-01-30 02:11:23.01	314.46	43.16	-49.2	-51.5	25.2	3.02e+01	0	46	0	601882624	60	14239
2026-01-30 02:11:24.02	313.84	43.18	-49.3	-51.5	25.1	3.02e+01	0	46	0	603979776	60	14232
2026-01-30 02:11:25.03	313.22	43.20	-49.6	-51.7	25.1	3.02e+01	0	46	0	605552640	60	14610
2026-01-30 02:11:26.03	312.61	43.22	-49.7	-51.7	25.1	3.02e+01	0	46	0	607649792	60	14699
2026-01-30 02:11:27.04	311.98	43.23	-49.7	-51.8	25.1	3.02e+01	0	46	0	609746944	60	14745
2026-01-30 02:11:28.05	311.36	43.24	-49.5	-51.6	25.4	3.02e+01	0	46	0	611319808	60	14419
2026-01-30 02:11:29.06	310.74	43.25	-49.6	-51.7	25.2	3.02e+01	0	46	0	613416960	60	14629
2026-01-30 02:11:30.07	310.12	43.25	-49.9	-52.1	25.0	3.02e+01	0	46	0	615514112	60	15259
2026-01-30 02:11:31.07	309.50	43.25	-49.8	-51.7	25.3	3.02e+01	0	46	0	617086976	60	14700
2026-01-30 02:11:32.08	308.88	43.24	-50.0	-51.9	25.2	3.02e+01	0	46	0	619184128	60	15030
2026-01-30 02:11:33.09	308.25	43.23	-50.0	-51.9	25.3	3.02e+01	0	46	0	620756992	60	14996
2026-01-30 02:11:34.09	307.64	43.22	-49.9	-51.8	25.2	3.02e+01	0	46	0	622854144	60	14769
2026-01-30 02:11:35.10	307.02	43.21	-50.1	-52.0	25.0	3.02e+01	0	46	0	624951296	60	15129
2026-01-30 02:11:36.10	306.40	43.19	-49.5	-51.3	25.8	3.02e+01	0	46	0	626524160	60	14013
2026-01-30 02:11:37.11	305.78	43.16	-49.4	-51.2	25.8	3.02e+01	0	46	0	628621312	60	13889
2026-01-30 02:11:38.12	305.16	43.13	-49.5	-51.4	25.7	3.02e+01	0	46	0	630194176	60	14153
2026-01-30 02:11:39.13	304.54	43.10	-49.6	-51.5	25.7	3.02e+01	0	46	0	632291328	60	14287
2026-01-30 02:11:40.14	303.93	43.07	-49.3	-51.3	25.9	3.02e+01	0	46	0	633864192	60	13925
2026-01-30 02:11:41.14	303.32	43.03	-49.3	-51.4	25.7	3.02e+01	0	46	0	635961344	60	14056
2026-01-30 02:11:42.15	302.71	42.99	-49.6	-51.8	25.2	3.02e+01	0	46	0	638058496	60	14746
2026-01-30 02:11:43.15	302.10	42.94	-49.9	-52.1	25.0	3.02e+01	0	46	0	640155648	60	15404
2026-01-30 02:11:44.16	301.49	42.89	-49.4	-51.4	25.5	3.02e+01	0	46	0	641728512	60	14213
2026-01-30 02:11:45.17	300.88	42.84	-49.3	-51.2	25.6	3.02e+01	0	46	0	643825664	60	13848
2026-01-30 02:11:46.18	300.28	42.78	-49.7	-51.6	25.2	3.02e+01	0	46	0	645398528	60	14542
2026-01-30 02:11:47.18	299.68	42.73	-49.7	-51.6	25.3	3.02e+01	0	46	0	647495680	60	14404
2026-01-30 02:11:48.18	299.08	42.66	-49.6	-51.3	25.5	3.02e+01	0	46	0	649068544	60	14035
2026-01-30 02:11:49.19	298.48	42.60	-49.9	-51.6	25.3	3.02e+01	0	46	0	651165696	60	14510
2026-01-30 02:11:50.20	297.89	42.53	-49.9	-51.7	25.3	3.02e+01	0	46	0	653262848	60	14669
2026-01-30 02:11:51.21	297.29	42.45	-49.8	-51.6	25.4	3.02e+01	0	46	0	654835712	60	14499
2026-01-30 02:11:52.21	296.71	42.38	-49.3	-51.1	25.8	3.02e+01	0	46	0	656932864	60	13587
2026-01-30 02:11:53.22	296.12	42.30	-49.4	-51.2	25.7	3.02e+01	0	46	0	658505728	60	13776
2026-01-30 02:11:54.22	295.54	42.22	-49.2	-51.1	25.8	3.02e+01	0	46	0	660602880	60	13635
2026-01-30 02:11:55.23	294.96	42.13	-48.9	-50.7	26.1	3.02e+01	0	46	0	662175744	60	13092
2026-01-30 02:11:56.24	294.38	42.04	-49.1	-51.0	25.8	3.02e+01	0	46	0	664272896	60	13504
2026-01-30 02:11:57.24	293.81	41.95	-49.2	-51.3	25.4	3.02e+01	0	46	0	666370048	60	13905
2026-01-30 02:11:58.25	293.24	41.86	-49.1	-51.2	25.4	3.02e+01	0	46	0	667942912	60	13826
2026-01-30 02:11:59.26	292.67	41.76	-49.0	-51.2	25.2	3.02e+01	0	46	0	670040064	60	13881
2026-01-30 02:12:00.26	292.11	41.66	-48.8	-51.1	25.3	3.02e+01	0	46	0	672137216	60	13626
2026-01-30 02:12:01.27	291.55	41.56	-49.0	-51.4	25.1	3.02e+01	0	46	0	673710080	60	14081
2026-01-30 02:12:02.28	290.99	41.45	-49.0	-51.4	25.2	3.02e+01	0	46	0	675807232	60	14141
2026-01-30 02:12:03.29	290.43	41.34	-49.2	-51.6	25.0	3.02e+01	0	46	0	677380096	60	14469
2026-01-30 02:12:04.29	289.89	41.23	-49.5	-51.9	24.9	3.02e+01	0	46	0	679477248	60	14989
2026-01-30 02:12:05.30	289.34	41.12	-49.4	-51.6	25.2	3.02e+01	0	46	0	681574400	60	14427
2026-01-30 02:12:06.30	288.81	41.00	-49.6	-51.7	25.3	3.02e+01	0	46	0	683147264	60	14705
2026-01-30 02:12:07.31	288.27	40.89	-49.6	-51.6	25.4	3.02e+01	0	46	0	685244416	60	14436
2026-01-30 02:12:08.32	287.73	40.76	-49.4	-51.3	25.7	3.02e+01	0	46	0	686817280	60	13984
2026-01-30 02:12:09.32	287.21	40.64	-49.5	-51.3	25.7	3.02e+01	0	46	0	688914432	60	13917
2026-01-30 02:12:10.33	286.68	40.52	-49.5	-51.3	25.7	3.02e+01	0	46	0	690487296	60	13905
2026-01-30 02:12:11.34	286.16	40.39	-49.8	-51.6	25.3	3.02e+01	0	46	0	692584448	60	14445
2026-01-30 02:12:12.34	285.65	40.26	-49.8	-51.6	25.3	3.02e+01	0	46	0	694681600	60	14454
2026-01-30 02:12:13.35	285.13	40.13	-49.6	-51.4	25.3	3.02e+01	0	46	0	696254464	60	14195
2026-01-30 02:12:14.35	284.63	40.00	-49.7	-51.7	25.0	3.02e+01	0	46	0	698351616	60	14612
2026-01-30 02:12:15.35	284.13	39.86	-50.3	-52.6	23.9	3.02e+01	0	46	0	699924480	60	16236
2026-01-30 02:12:16.36	283.63	39.72	-49.9	-52.2	23.8	3.02e+01	0	46	0	702021632	60	15505
2026-01-30 02:12:17.36	283.13	39.58	-49.6	-52.1	23.7	3.02e+01	0	46	0	704118784	60	15298
2026-01-30 02:12:18.37	282.64	39.44	-49.4	-51.9	23.7	3.02e+01	0	46	0	705691648	60	15013
2026-01-30 02:12:19.38	282.15	39.30	-49.6	-52.2	23.4	3.02e+01	0	46	0	707788800	60	15553
2026-01-30 02:12:20.39	281.67	39.15	-49.7	-52.5	23.1	3.02e+01	0	46	0	709885952	60	15991
2026-01-30 02:12:21.40	281.19	39.01	-49.3	-52.1	23.2	3.02e+01	0	46	0	711458816	60	15299
2026-01-30 02:12:22.41	280.72	38.86	-48.9	-51.6	23.3	3.02e+01	0	46	0	713555968	60	14528
2026-01-30 02:12:23.42	280.25	38.71	-48.7	-51.4	23.0	3.02e+01	0	46	0	715128832	60	14142
2026-01-30 02:12:24.42	279.79	38.56	-48.5	-51.1	23.5	3.02e+01	0	46	0	717225984	60	13634
2026-01-30 02:12:25.43	279.32	38.41	-49.1	-52.2	22.7	3.02e+01	0	46	0	718798848	60	15429
2026-01-30 02:12:26.43	278.87	38.26	-50.3	-54.0	20.9	3.02e+01	0	46	0	720896000	60	19055
2026-01-30 02:12:27.44	278.42	38.10	-49.6	-52.4	22.4	3.02e+01	0	46	0	722993152	60	15928
2026-01-30 02:12:28.45	277.97	37.94	-48.8	-50.9	24.0	3.02e+01	0	46	0	724566016	60	13396
2026-01-30 02:12:29.45	277.53	37.79	-49.0	-51.1	25.3	3.02e+01	0	46	0	726663168	60	13684
2026-01-30 02:12:30.46	277.09	37.63	-49.6	-51.9	24.2	3.02e+01	0	46	0	728760320	60	14958
2026-01-30 02:12:31.46	276.66	37.47	-50.9	-53.8	22.0	3.02e+01	0	46	0	730333184	60	18672
2026-01-30 02:12:32.47	276.23	37.31	-50.0	-52.5	22.1	3.02e+01	0	46	0	732430336	60	15976
2026-01-30 02:12:33.48	275.80	37.15	-48.8	-50.8	24.4	3.02e+01	0	46	0	734003200	60	13213
2026-01-30 02:12:34.49	275.38	36.99	-49.6	-52.0	23.2	3.02e+01	0	46	0	736100352	60	15069
2026-01-30 02:12:35.50	274.96	36.82	-50.8	-53.7	21.8	3.02e+01	0	46	0	738197504	60	18455
2026-01-30 02:12:36.50	274.56	36.66	-49.5	-51.6	23.4	3.02e+01	0	46	0	739770368	60	14469
2026-01-30 02:12:37.52	274.14	36.50	-49.0	-50.9	24.8	3.02e+01	0	46	0	741867520	60	13403
2026-01-30 02:12:38.52	273.74	36.33	-50.5	-53.1	22.5	3.02e+01	0	46	0	743440384	60	17183
2026-01-30 02:12:39.53	273.34	36.16	-49.8	-52.1	23.3	3.02e+01	0	46	0	745537536	60	15258
2026-01-30 02:12:40.54	272.94	36.00	-48.9	-50.7	25.4	3.02e+01	0	46	0	747110400	60	13115
2026-01-30 02:12:41.55	272.55	35.83	-50.6	-53.0	23.1	3.02e+01	0	46	0	749207552	60	17003
2026-01-30 02:12:42.55	272.17	35.66	-50.2	-52.3	23.6	3.02e+01	0	46	0	751304704	60	15762
2026-01-30 02:12:43.56	271.78	35.49	-49.9	-51.8	24.8	3.02e+01	0	46	0	753401856	60	14875
2026-01-30 02:12:44.56	271.41	35.33	-50.7	-53.1	23.3	3.02e+01	0	46	0	754974720	60	17185
2026-01-30 02:12:45.56	271.03	35.16	-50.4	-52.8	23.1	3.02e+01	0	46	0	757071872	60	16512
2026-01-30 02:12:46.56	270.66	34.99	-50.5	-52.8	23.3	3.02e+01	0	46	0	758644736	60	16666
2026-01-30 02:12:47.56	270.30	34.82	-50.4	-52.6	23.5	3.02e+01	0	46	0	760741888	60	16290
2026-01-30 02:12:48.57	269.94	34.65	-50.0	-52.0	24.4	3.02e+01	0	46	0	762314752	60	15165
2026-01-30 02:12:49.57	269.58	34.48	-50.7	-52.9	23.7	3.02e+01	0	46	0	764411904	60	16737
2026-01-30 02:12:50.58	269.22	34.31	-49.3	-51.0	25.4	3.02e+01	0	46	0	766509056	60	13515
2026-01-30 02:12:51.59	268.87	34.14	-49.7	-51.6	25.0	3.02e+01	0	46	0	768081920	60	14427
2026-01-30 02:12:52.60	268.52	33.97	-49.3	-51.0	25.4	3.02e+01	0	46	0	770179072	60	13490
2026-01-30 02:12:53.61	268.18	33.80	-49.8	-51.9	24.2	3.02e+01	0	46	0	771751936	60	14976
2026-01-30 02:12:54.62	267.83	33.62	-49.8	-51.8	23.8	3.02e+01	0	46	0	773849088	60	14868
2026-01-30 02:12:55.63	267.50	33.45	-49.9	-52.1	23.8	3.02e+01	0	46	0	775421952	60	15271
2026-01-30 02:12:56.63	267.17	33.28	-49.6	-51.5	24.3	3.02e+01	0	46	0	777519104	60	14352
2026-01-30 02:12:57.64	266.84	33.11	-49.7	-51.6	24.8	3.02e+01	0	46	0	779616256	60	14399
2026-01-30 02:12:58.65	266.51	32.94	-49.0	-50.7	25.3	3.02e+01	0	46	0	781189120	60	13042
2026-01-30 02:12:59.66	266.19	32.77	-49.7	-51.6	24.7	3.02e+01	0	46	0	783286272	60	14479
2026-01-30 02:13:00.66	265.87	32.60	-49.3	-51.3	24.5	3.02e+01	0	46	0	785383424	60	13957
2026-01-30 02:13:01.67	265.55	32.42	-49.2	-51.2	24.2	3.02e+01	0	46	0	786956288	60	13837
2026-01-30 02:13:02.68	265.24	32.25	-48.8	-50.9	24.1	3.02e+01	0	46	0	789053440	60	13273
2026-01-30 02:13:03.69	264.93	32.08	-49.0	-51.1	23.8	3.02e+01	0	46	0	790626304	60	13718
2026-01-30 02:13:04.70	264.62	31.91	-48.8	-50.8	24.2	3.02e+01	0	46	0	792723456	60	13220
2026-01-30 02:13:05.71	264.32	31.74	-48.7	-50.7	24.5	3.02e+01	0	46	0	794820608	60	13022
2026-01-30 02:13:06.71	264.02	31.57	-48.8	-50.9	24.1	3.02e+01	0	46	0	796393472	60	13288
2026-01-30 02:13:07.72	263.73	31.40	-48.9	-51.0	23.9	3.02e+01	0	46	0	798490624	60	13540
2026-01-30 02:13:08.73	263.44	31.22	-49.1	-51.3	23.7	3.02e+01	0	46	0	800063488	60	13959
2026-01-30 02:13:09.74	263.15	31.05	-48.8	-50.9	24.4	3.02e+01	0	46	0	802160640	60	13294
2026-01-30 02:13:10.75	262.86	30.88	-48.7	-50.5	24.8	3.02e+01	0	46	0	803733504	60	12774
2026-01-30 02:13:11.76	262.58	30.71	-49.2	-51.1	24.4	3.02e+01	0	46	0	805830656	60	13731
2026-01-30 02:13:12.76	262.30	30.55	-49.2	-51.0	24.7	3.02e+01	0	46	0	807927808	60	13518
2026-01-30 02:13:13.77	262.02	30.38	-48.8	-50.6	25.1	3.02e+01	0	46	0	810024960	60	12890
2026-01-30 02:13:14.77	261.75	30.21	-48.7	-50.5	25.4	3.02e+01	0	46	0	811597824	60	12743
2026-01-30 02:13:15.77	261.48	30.04	-49.0	-51.0	24.9	3.02e+01	0	46	0	813694976	60	13456
2026-01-30 02:13:16.78	261.21	29.87	-49.5	-51.6	24.3	3.02e+01	0	46	0	815267840	60	14521
2026-01-30 02:13:17.79	260.95	29.70	-49.1	-51.2	24.6	3.02e+01	0	46	0	817364992	60	13738
2026-01-30 02:13:18.79	260.69	29.54	-48.7	-50.5	25.1	3.02e+01	0	46	0	818937856	60	12802
2026-01-30 02:13:19.80	260.43	29.37	-48.7	-50.6	25.1	3.02e+01	0	46	0	821035008	60	12824
2026-01-30 02:13:20.81	260.17	29.20	-49.2	-51.1	24.6	3.02e+01	0	46	0	823132160	60	13633
2026-01-30 02:13:21.82	259.91	29.04	-49.1	-51.0	25.1	3.02e+01	0	46	0	824705024	60	13436
2026-01-30 02:13:22.82	259.67	28.87	-48.9	-50.6	25.6	3.02e+01	0	46	0	826802176	60	12932
2026-01-30 02:13:23.83	259.42	28.71	-48.8	-50.5	25.9	3.02e+01	0	46	0	828375040	60	12777
2026-01-30 02:13:24.84	259.17	28.54	-48.8	-50.5	25.8	3.02e+01	0	46	0	830472192	60	12676
2026-01-30 02:13:25.85	258.93	28.38	-49.2	-51.0	25.1	3.02e+01	0	46	0	832045056	60	13431
2026-01-30 02:13:26.86	258.69	28.21	-49.4	-51.2	24.6	3.02e+01	0	46	0	834142208	60	13879
2026-01-30 02:13:27.87	258.45	28.05	-49.4	-51.3	24.3	3.02e+01	0	46	0	836239360	60	14015
2026-01-30 02:13:28.87	258.21	27.89	-49.5	-51.5	23.9	3.02e+01	0	46	0	838336512	60	14237
2026-01-30 02:13:29.88	257.98	27.73	-49.3	-51.3	24.3	3.02e+01	0	46	0	839909376	60	13922
2026-01-30 02:13:30.89	257.75	27.56	-49.6	-51.6	24.2	3.02e+01	0	46	0	842006528	60	14429
2026-01-30 02:13:31.90	257.52	27.40	-49.4	-51.3	24.8	3.02e+01	0	46	0	843579392	60	13917
2026-01-30 02:13:32.90	257.30	27.24	-49.4	-51.2	25.1	3.02e+01	0	46	0	845676544	60	13794
2026-01-30 02:13:33.90	257.07	27.08	-49.4	-51.3	25.0	3.02e+01	0	46	0	847249408	60	13954
2026-01-30 02:13:34.90	256.85	26.93	-49.7	-51.7	24.5	3.02e+01	0	46	0	849346560	60	14644
2026-01-30 02:13:35.91	256.64	26.77	-50.0	-52.2	23.9	3.02e+01	0	46	0	851443712	60	15413
2026-01-30 02:13:36.92	256.42	26.61	-50.3	-52.5	23.5	3.02e+01	0	46	0	853016576	60	15974
2026-01-30 02:13:37.92	256.21	26.45	-50.2	-52.4	23.8	3.02e+01	0	46	0	855113728	60	15777
2026-01-30 02:13:38.93	255.99	26.29	-50.0	-51.9	24.2	3.02e+01	0	46	0	856686592	60	15011
2026-01-30 02:13:39.94	255.78	26.14	-49.9	-51.9	24.2	3.02e+01	0	46	0	858783744	60	14910
2026-01-30 02:13:40.94	255.58	25.98	-49.8	-51.9	24.0	3.02e+01	0	46	0	860356608	60	14971
2026-01-30 02:13:41.95	255.37	25.82	-49.7	-51.9	23.5	3.02e+01	0	46	0	862453760	60	14961
2026-01-30 02:13:42.95	255.17	25.67	-49.8	-52.1	23.3	3.02e+01	0	46	0	864550912	60	15290
2026-01-30 02:13:43.95	254.97	25.52	-49.9	-52.0	23.7	3.02e+01	0	46	0	866648064	60	15118
2026-01-30 02:13:44.96	254.77	25.36	-50.0	-52.0	24.1	3.02e+01	0	46	0	868220928	60	15114
2026-01-30 02:13:45.97	254.57	25.21	-49.7	-51.6	24.6	3.02e+01	0	46	0	870318080	60	14463
2026-01-30 02:13:46.97	254.38	25.06	-49.9	-51.9	24.3	3.02e+01	0	46	0	871890944	60	14908
2026-01-30 02:13:47.98	254.18	24.90	-49.8	-52.0	23.8	3.02e+01	0	46	0	873988096	60	15169
2026-01-30 02:13:48.98	253.99	24.75	-49.4	-51.5	24.1	3.02e+01	0	46	0	875560960	60	14323
2026-01-30 02:13:49.99	253.80	24.60	-49.2	-51.3	24.0	3.02e+01	0	46	0	877658112	60	14007
2026-01-30 02:13:50.99	253.62	24.45	-49.0	-51.2	23.9	3.02e+01	0	46	0	879755264	60	13761
2026-01-30 02:13:52.00	253.43	24.30	-48.9	-51.0	24.0	3.02e+01	0	46	0	881328128	60	13488
2026-01-30 02:13:53.01	253.25	24.15	-48.8	-50.8	24.3	3.02e+01	0	46	0	883425280	60	13236
2026-01-30 02:13:54.01	253.07	24.01	-48.8	-50.7	24.6	3.02e+01	0	46	0	884998144	60	13097
2026-01-30 02:13:55.02	252.89	23.86	-48.8	-50.8	24.7	3.02e+01	0	46	0	887095296	60	13136
2026-01-30 02:13:56.03	252.71	23.71	-48.8	-50.7	25.0	3.02e+01	0	46	0	888668160	60	13053
2026-01-30 02:13:57.03	252.53	23.57	-48.8	-50.7	25.1	3.02e+01	0	46	0	890765312	60	12999
2026-01-30 02:13:58.03	252.36	23.42	-49.0	-50.8	24.9	3.02e+01	0	46	0	892862464	60	13216
2026-01-30 02:13:59.04	252.19	23.27	-48.9	-50.8	24.8	3.02e+01	0	46	0	894435328	60	13167
2026-01-30 02:14:00.05	252.01	23.13	-49.0	-50.9	24.6	3.02e+01	0	46	0	896532480	60	13371
2026-01-30 02:14:01.06	251.84	22.99	-49.1	-51.0	24.5	3.02e+01	0	46	0	898629632	60	13423
2026-01-30 02:14:02.06	251.68	22.84	-49.1	-50.9	24.6	3.02e+01	0	46	0	900202496	60	13370
2026-01-30 02:14:03.07	251.51	22.70	-48.9	-50.6	24.9	3.02e+01	0	46	0	902299648	60	12931
2026-01-30 02:14:04.07	251.35	22.56	-48.7	-50.5	25.2	3.02e+01	0	46	0	903872512	60	12713
2026-01-30 02:14:05.07	251.19	22.42	-48.7	-50.4	25.3	3.02e+01	0	46	0	905969664	60	12603
2026-01-30 02:14:06.08	251.02	22.28	-48.8	-50.6	25.3	3.02e+01	0	46	0	908066816	60	12847
2026-01-30 02:14:07.09	250.86	22.13	-49.0	-50.8	25.2	3.02e+01	0	46	0	909639680	60	13174
2026-01-30 02:14:08.10	250.70	21.99	-49.1	-50.9	25.0	3.02e+01	0	46	0	911736832	60	13365
2026-01-30 02:14:09.10	250.55	21.86	-49.1	-50.9	25.0	3.02e+01	0	46	0	913309696	60	13328
2026-01-30 02:14:10.11	250.39	21.72	-49.1	-50.9	24.9	3.02e+01	0	46	0	915406848	60	13310
2026-01-30 02:14:11.11	250.24	21.58	-48.9	-50.7	25.2	3.02e+01	0	46	0	916979712	60	12995
2026-01-30 02:14:12.12	250.09	21.44	-48.9	-50.6	25.2	3.02e+01	0	46	0	919076864	60	12927
2026-01-30 02:14:13.13	249.93	21.30	-48.9	-50.6	25.2	3.02e+01	0	46	0	921174016	60	12930
2026-01-30 02:14:14.13	249.79	21.17	-48.9	-50.7	25.1	3.02e+01	0	46	0	922746880	60	12998
2026-01-30 02:14:15.14	249.64	21.03	-49.0	-50.7	25.0	3.02e+01	0	46	0	924844032	60	13111
2026-01-30 02:14:16.15	249.49	20.90	-48.9	-50.7	24.9	3.02e+01	0	46	0	926416896	60	13017
2026-01-30 02:14:17.16	249.34	20.76	-48.9	-50.7	24.9	3.02e+01	0	46	0	928514048	60	13040
2026-01-30 02:14:18.16	249.20	20.63	-48.9	-50.8	24.7	3.02e+01	0	46	0	930611200	60	13132
2026-01-30 02:14:19.17	249.06	20.50	-48.9	-50.8	24.6	3.02e+01	0	46	0	932184064	60	13179
2026-01-30 02:14:20.17	248.92	20.36	-48.9	-50.8	24.5	3.02e+01	0	46	0	934281216	60	13173
2026-01-30 02:14:21.18	248.78	20.23	-48.8	-50.8	24.3	3.02e+01	0	46	0	936378368	60	13172
2026-01-30 02:14:22.18	248.64	20.10	-49.0	-51.0	24.1	3.02e+01	0	46	0	937951232	60	13520
2026-01-30 02:14:23.19	248.50	19.97	-49.1	-51.1	24.1	3.02e+01	0	46	0	940048384	60	13665
2026-01-30 02:14:24.20	248.36	19.84	-49.1	-51.1	24.1	3.02e+01	0	46	0	941621248	60	13692
2026-01-30 02:14:25.20	248.23	19.71	-49.1	-51.1	24.2	3.02e+01	0	46	0	943718400	60	13697
2026-01-30 02:14:26.21	248.09	19.58	-49.3	-51.3	24.1	3.02e+01	0	46	0	945291264	60	14052
2026-01-30 02:14:27.22	247.96	19.45	-49.6	-51.6	24.0	3.02e+01	0	46	0	947388416	60	14520
2026-01-30 02:14:28.23	247.83	19.32	-49.6	-51.6	24.0	3.02e+01	0	46	0	949485568	60	14474
2026-01-30 02:14:29.23	247.70	19.20	-49.7	-51.7	24.0	3.02e+01	0	46	0	951058432	60	14680
2026-01-30 02:14:30.24	247.57	19.07	-49.6	-51.6	24.0	3.02e+01	0	46	0	953155584	60	14486
2026-01-30 02:14:31.25	247.44	18.94	-49.7	-51.7	24.1	3.02e+01	0	46	0	954728448	60	14616
2026-01-30 02:14:32.26	247.31	18.82	-49.8	-51.8	24.0	3.02e+01	0	46	0	956825600	60	14722
2026-01-30 02:14:33.27	247.19	18.69	-50.0	-52.0	23.8	3.02e+01	0	46	0	958922752	60	15080
2026-01-30 02:14:34.27	247.06	18.57	-49.9	-52.0	23.7	3.02e+01	0	46	0	960495616	60	15062
2026-01-30 02:14:35.28	246.94	18.44	-50.2	-52.3	23.7	3.02e+01	0	46	0	962592768	60	15623
2026-01-30 02:14:36.29	246.82	18.32	-50.3	-52.5	23.3	3.02e+01	0	46	0	964689920	60	16019
2026-01-30 02:14:37.30	246.70	18.19	-50.6	-52.8	23.0	3.02e+01	0	46	0	966262784	60	16643
2026-01-30 02:14:38.30	246.58	18.07	-50.9	-53.3	22.5	3.02e+01	0	46	0	968359936	60	17559
2026-01-30 02:14:39.31	246.46	17.95	-50.8	-53.2	22.7	3.02e+01	0	46	0	969932800	60	17349
2026-01-30 02:14:40.32	246.34	17.83	-50.7	-52.9	22.9	3.02e+01	0	46	0	972029952	60	16873
2026-01-30 02:14:41.32	246.22	17.71	-49.9	-51.9	23.9	3.02e+01	0	46	0	973602816	60	15053
2026-01-30 02:14:42.33	246.10	17.59	-49.4	-51.4	24.4	3.02e+01	0	46	0	975699968	60	14060
2026-01-30 02:14:43.34	245.99	17.47	-49.2	-51.1	24.6	3.02e+01	0	46	0	977797120	60	13655
2026-01-30 02:14:44.34	245.88	17.35	-49.3	-51.3	24.4	3.02e+01	0	46	0	979369984	60	13907
2026-01-30 02:14:45.35	245.76	17.23	-49.4	-51.4	24.3	3.02e+01	0	46	0	981467136	60	14163
2026-01-30 02:14:46.36	245.65	17.11	-49.6	-51.6	24.0	3.02e+01	0	46	0	983564288	60	14472
2026-01-30 02:14:47.36	245.54	16.99	-49.7	-51.8	23.9	3.02e+01	0	46	0	985137152	60	14719
2026-01-30 02:14:48.37	245.43	16.88	-49.9	-52.0	23.8	3.02e+01	0	46	0	987234304	60	15111
2026-01-30 02:14:49.38	245.32	16.76	-49.8	-52.0	23.6	3.02e+01	0	46	0	988807168	60	15132
2026-01-30 02:14:50.39	245.21	16.64	-49.8	-52.0	23.7	3.02e+01	0	46	0	990904320	60	15123
2026-01-30 02:14:51.39	245.10	16.53	-49.8	-52.0	23.5	3.02e+01	0	46	0	993001472	60	15084
2026-01-30 02:14:52.40	244.99	16.41	-49.9	-52.0	23.5	3.02e+01	0	46	0	994574336	60	15232
2026-01-30 02:14:53.40	244.89	16.30	-49.8	-52.0	23.3	3.02e+01	0	46	0	996671488	60	15175
2026-01-30 02:14:54.40	244.79	16.19	-49.8	-52.1	23.1	3.02e+01	0	46	0	998244352	60	15293
2026-01-30 02:14:55.41	244.68	16.07	-49.6	-51.8	23.3	3.02e+01	0	46	0	1000341504	60	14774
2026-01-30 02:14:56.42	244.58	15.96	-49.4	-51.4	23.7	3.02e+01	0	46	0	1001914368	60	14211
2026-01-30 02:14:57.42	244.48	15.85	-49.4	-51.5	23.8	3.02e+01	0	46	0	1004011520	60	14249
2026-01-30 02:14:58.43	244.37	15.73	-49.6	-51.8	23.4	3.02e+01	0	46	0	1006108672	60	14720
2026-01-30 02:14:59.43	244.27	15.62	-49.8	-52.0	23.0	3.02e+01	0	46	0	1007681536	60	15225
2026-01-30 02:15:00.43	244.17	15.51	-50.1	-52.5	22.5	3.02e+01	0	46	0	1009778688	60	15964
2026-01-30 02:15:01.44	244.07	15.40	-50.4	-52.9	22.2	3.02e+01	0	46	0	1011351552	60	16791
2026-01-30 02:15:02.45	243.98	15.29	-50.4	-52.8	22.2	3.02e+01	0	46	0	1013448704	60	16651
2026-01-30 02:15:03.46	243.88	15.18	-50.4	-52.8	22.0	3.02e+01	0	46	0	1015545856	60	16650
2026-01-30 02:15:04.47	243.78	15.07	-50.3	-52.8	22.1	3.02e+01	0	46	0	1017118720	60	16580
2026-01-30 02:15:05.47	243.69	14.96	-50.3	-52.8	22.2	3.02e+01	0	46	0	1019215872	60	16517
2026-01-30 02:15:06.48	243.59	14.85	-50.5	-52.9	22.0	3.02e+01	0	46	0	1021313024	60	16794
2026-01-30 02:15:07.49	243.50	14.74	-50.6	-53.0	21.9	3.02e+01	0	46	0	1022885888	60	17072
2026-01-30 02:15:08.50	243.40	14.64	-50.9	-53.5	21.5	3.02e+01	0	46	0	1024983040	60	17951
2026-01-30 02:15:09.50	243.31	14.53	-51.1	-53.8	21.3	3.02e+01	0	46	0	1026555904	60	18705
2026-01-30 02:15:10.51	243.22	14.42	-51.5	-54.4	20.7	3.02e+01	0	46	0	1028653056	60	19854
2026-01-30 02:15:11.52	243.12	14.32	-51.8	-54.9	20.2	3.02e+01	0	46	0	1030225920	60	21090
2026-01-30 02:15:12.53	243.03	14.21	-52.0	-55.2	19.8	3.02e+01	0	46	0	1032323072	60	21997
2026-01-30 02:15:13.54	242.94	14.10	-52.1	-55.3	19.7	3.02e+01	0	46	0	1034420224	60	22157
2026-01-30 02:15:14.54	242.85	14.00	-52.2	-55.5	19.6	3.02e+01	0	46	0	1035993088	60	22571
2026-01-30 02:15:15.54	242.77	13.90	-51.5	-54.3	20.8	3.02e+01	0	46	0	1038090240	60	19836
2026-01-30 02:15:16.55	242.68	13.79	-50.9	-53.5	21.6	3.02e+01	0	46	0	1039663104	60	18044
2026-01-30 02:15:17.55	242.59	13.69	-50.3	-52.7	22.6	3.02e+01	0	46	0	1041760256	60	16328
2026-01-30 02:15:18.56	242.50	13.59	-49.8	-52.1	23.1	3.02e+01	0	46	0	1043857408	60	15291
2026-01-30 02:15:19.57	242.42	13.48	-49.5	-51.6	23.6	3.02e+01	0	46	0	1045430272	60	14413
2026-01-30 02:15:20.57	242.33	13.38	-49.2	-51.2	23.9	3.02e+01	0	46	0	1047527424	60	13860
2026-01-30 02:15:21.58	242.25	13.28	-49.2	-51.3	23.9	3.02e+01	0	46	0	1049624576	60	13908
2026-01-30 02:15:22.59	242.16	13.18	-49.3	-51.3	23.9	3.02e+01	0	45	0	1051197440	60	14036
2026-01-30 02:15:23.60	242.08	13.07	-49.3	-51.4	23.8	3.02e+01	0	46	0	1053294592	60	14159
2026-01-30 02:15:24.60	242.00	12.97	-49.3	-51.3	23.8	3.02e+01	0	46	0	1054867456	60	14000
2026-01-30 02:15:25.61	241.92	12.87	-49.4	-51.4	23.6	3.02e+01	0	46	0	1056964608	60	14182
2026-01-30 02:15:26.61	241.84	12.77	-49.4	-51.5	23.7	3.02e+01	0	46	0	1058537472	60	14350
2026-01-30 02:15:27.62	241.75	12.67	-49.5	-51.6	23.5	3.02e+01	0	46	0	1060634624	60	14417
2026-01-30 02:15:28.63	241.67	12.58	-49.5	-51.6	23.6	3.02e+01	0	46	0	1062731776	60	14517
2026-01-30 02:15:29.63	241.59	12.48	-49.4	-51.5	23.5	3.02e+01	0	46	0	1064304640	60	14279
2026-01-30 02:15:30.63	241.52	12.38	-49.4	-51.5	23.4	3.02e+01	0	46	0	1066401792	60	14298
2026-01-30 02:15:31.64	241.44	12.28	-49.6	-51.7	23.4	3.02e+01	0	46	0	1067974656	60	14701
2026-01-30 02:15:32.65	241.36	12.18	-49.4	-51.5	23.6	3.02e+01	0	46	0	1070071808	60	14267
2026-01-30 02:15:33.65	241.28	12.09	-49.3	-51.5	23.6	3.02e+01	0	46	0	1072168960	60	14227
2026-01-30 02:15:34.65	241.21	11.99	-49.2	-51.3	23.7	3.02e+01	0	46	0	1073741824	60	13985
2026-01-30 02:15:35.66	241.13	11.89	-48.9	-50.9	24.0	3.02e+01	0	46	0	1075838976	60	13383
2026-01-30 02:15:36.67	241.05	11.80	-48.8	-50.8	24.2	3.02e+01	0	46	0	1077936128	60	13219
2026-01-30 02:15:37.67	240.98	11.70	-48.7	-50.7	24.2	3.02e+01	0	46	0	1079508992	60	13094
2026-01-30 02:15:38.68	240.90	11.61	-48.9	-51.0	24.0	3.02e+01	0	46	0	1081606144	60	13457
2026-01-30 02:15:39.69	240.83	11.51	-48.8	-50.9	24.0	3.02e+01	0	46	0	1083179008	60	13305
2026-01-30 02:15:40.69	240.76	11.42	-48.5	-50.5	24.4	3.02e+01	0	46	0	1085276160	60	12704
2026-01-30 02:15:41.70	240.68	11.32	-48.5	-50.5	24.3	3.02e+01	0	46	0	1086849024	60	12692
2026-01-30 02:15:42.70	240.61	11.23	-48.5	-50.5	24.3	3.02e+01	0	46	0	1088946176	60	12731
2026-01-30 02:15:43.71	240.54	11.13	-48.5	-50.5	24.3	3.02e+01	0	46	0	1091043328	60	12696
2026-01-30 02:15:44.72	240.47	11.04	-48.5	-50.5	24.2	3.02e+01	0	46	0	1092616192	60	12724
2026-01-30 02:15:45.72	240.40	10.95	-48.6	-50.6	24.2	3.02e+01	0	46	0	1094713344	60	12836
2026-01-30 02:15:46.72	240.33	10.86	-48.6	-50.6	24.1	3.02e+01	0	46	0	1096286208	60	12902
2026-01-30 02:15:47.73	240.26	10.76	-48.6	-50.6	24.0	3.02e+01	0	46	0	1098383360	60	12911
2026-01-30 02:15:48.73	240.19	10.67	-48.5	-50.6	24.0	3.02e+01	0	46	0	1100480512	60	12894
2026-01-30 02:15:49.74	240.12	10.58	-48.6	-50.7	23.8	3.02e+01	0	46	0	1102053376	60	13013
2026-01-30 02:15:50.75	240.05	10.49	-48.5	-50.6	23.6	3.02e+01	0	46	0	1104150528	60	12855
2026-01-30 02:15:51.75	239.98	10.40	-48.5	-50.6	23.5	3.02e+01	0	46	0	1106247680	60	12911
2026-01-30 02:15:52.75	239.92	10.31	-48.4	-50.6	23.4	3.02e+01	0	46	0	1107820544	60	12913
2026-01-30 02:15:53.76	239.85	10.22	-48.4	-50.6	23.3	3.02e+01	0	46	0	1109917696	60	12939
2026-01-30 02:15:54.77	239.78	10.13	-48.3	-50.5	23.1	3.02e+01	0	46	0	1111490560	60	12797
2026-01-30 02:15:55.77	239.72	10.04	-48.3	-50.5	23.1	3.02e+01	0	46	0	1113587712	60	12788
2026-01-30 02:15:56.77	239.65	9.95	-48.3	-50.6	23.1	3.02e+01	0	46	0	1115160576	60	12827
2026-01-30 02:15:57.78	239.58	9.86	-48.3	-50.7	23.1	3.02e+01	0	46	0	1117257728	60	12971
2026-01-30 02:15:58.78	239.52	9.77	-48.3	-50.7	23.0	3.02e+01	0	46	0	1119354880	60	13002
2026-01-30 02:15:59.79	239.46	9.69	-48.4	-50.8	22.9	3.02e+01	0	46	0	1120927744	60	13135
2026-01-30 02:16:00.78	239.39	9.60	-48.6	-51.0	22.8	3.02e+01	0	46	0	1123024896	60	13551
2026-01-30 02:16:01.78	239.33	9.51	-48.3	-50.7	22.8	3.02e+01	0	46	0	1124597760	60	13032
2026-01-30 02:16:02.79	239.27	9.43	-48.1	-50.5	22.8	3.02e+01	0	46	0	1126694912	60	12743
2026-01-30 02:16:03.80	239.20	9.34	-48.0	-50.5	22.7	3.02e+01	0	46	0	1128792064	60	12806
2026-01-30 02:16:04.81	239.14	9.25	-48.0	-50.5	22.5	3.02e+01	0	46	0	1130364928	60	12805
2026-01-30 02:16:05.81	239.08	9.17	-48.0	-50.6	22.3	3.02e+01	0	46	0	1132462080	60	12931
2026-01-30 02:16:06.82	239.02	9.08	-48.1	-50.7	22.2	3.02e+01	0	46	0	1134034944	60	13103
2026-01-30 02:16:07.82	238.96	8.99	-48.0	-50.7	22.2	3.02e+01	0	46	0	1136132096	60	13022
2026-01-30 02:16:08.83	238.90	8.91	-48.1	-50.7	22.4	3.02e+01	0	46	0	1137704960	60	12994
2026-01-30 02:16:09.83	238.84	8.82	-48.2	-50.8	22.6	3.02e+01	0	46	0	1139802112	60	13122
2026-01-30 02:16:10.84	238.78	8.74	-48.3	-50.8	22.6	3.02e+01	0	46	0	1141899264	60	13178
2026-01-30 02:16:11.85	238.72	8.65	-48.4	-50.7	22.8	3.02e+01	0	46	0	1143472128	60	13040
2026-01-30 02:16:12.86	238.66	8.57	-48.5	-50.8	22.9	3.02e+01	0	46	0	1145569280	60	13188
2026-01-30 02:16:13.86	238.60	8.48	-48.6	-50.9	22.9	3.02e+01	0	46	0	1147666432	60	13299
2026-01-30 02:16:14.87	238.54	8.40	-48.6	-50.9	22.9	3.02e+01	0	46	0	1149239296	60	13370
2026-01-30 02:16:15.88	238.48	8.32	-48.6	-50.9	23.0	3.02e+01	0	46	0	1151336448	60	13384
