passes_logs/2026/01/30/R3.2S-Naryan-Mar/R3.2S-Naryan-Mar__20260130_073553_NOAA_21_JPSS-2_rec.log

#Pass ID: 20260130_073553_NOAA 21 (JPSS-2)
#Satellite: NOAA 21 (JPSS-2)
#Configuration: NOAA-21
#almurnet v.1.7.20240730
#Start time: 2026-01-30 07:35:55

#Version: 2.2.20231116
#Station: R3.2S-Naryan-Mar
#Location: 53.008057 lon 67.646978 lat
#TLE: 1 54234U 22150A   26029.46216196  .00000141  00000+0  87503-4 0  9994
#TLE: 2 54234  98.7512 330.1880 0000955 196.3413 163.7732 14.19540905166865

#Time	Az	El	Level	Level2	SNR	BER	BlckErr	Temp	State	Recorded	gain1	gain2
2026-01-30 07:35:55.61	136.73	0.15	-62.5	-75.4	3.3	1.54e+00	0	44	0	0	60	223413
2026-01-30 07:35:56.62	136.71	0.21	-62.2	-76.9	3.5	1.52e+00	0	44	104	0	60	264925
2026-01-30 07:35:57.63	136.70	0.27	-62.2	-76.7	3.5	1.52e+00	0	44	104	0	60	261651
2026-01-30 07:35:58.63	136.69	0.33	-62.5	-76.8	3.5	1.52e+00	0	44	104	0	60	263487
2026-01-30 07:35:59.64	136.67	0.39	-62.4	-76.7	3.5	1.52e+00	0	44	104	0	60	261126
2026-01-30 07:36:00.65	136.66	0.45	-62.5	-76.7	3.5	1.52e+00	0	44	104	0	60	259443
2026-01-30 07:36:01.66	136.64	0.52	-62.6	-76.6	3.5	1.52e+00	0	44	104	0	60	258013
2026-01-30 07:36:02.67	136.63	0.58	-62.6	-76.7	3.5	1.52e+00	0	44	104	0	60	260211
2026-01-30 07:36:03.67	136.61	0.64	-62.6	-76.7	3.5	1.52e+00	0	44	104	0	60	261521
2026-01-30 07:36:04.68	136.60	0.70	-62.8	-76.8	3.5	1.52e+00	0	44	104	0	60	263307
2026-01-30 07:36:05.69	136.58	0.76	-62.8	-76.9	3.5	1.52e+00	0	44	104	0	60	264779
2026-01-30 07:36:06.70	136.57	0.82	-63.0	-77.1	3.5	1.52e+00	0	44	104	0	60	273228
2026-01-30 07:36:07.70	136.55	0.88	-63.0	-77.0	3.5	1.52e+00	0	44	104	0	60	270313
2026-01-30 07:36:08.71	136.54	0.95	-63.1	-77.0	3.5	1.52e+00	0	44	104	0	60	270376
2026-01-30 07:36:09.72	136.52	1.01	-62.9	-76.9	3.5	1.52e+00	0	44	104	0	60	266307
2026-01-30 07:36:10.73	136.51	1.07	-62.8	-76.7	3.5	1.52e+00	0	44	104	0	60	260283
2026-01-30 07:36:11.73	136.49	1.13	-62.7	-76.6	3.5	1.52e+00	0	44	104	0	60	257039
2026-01-30 07:36:12.74	136.48	1.19	-62.6	-76.6	3.5	1.52e+00	0	44	104	0	60	256717
2026-01-30 07:36:13.75	136.46	1.26	-62.5	-76.5	3.5	1.52e+00	0	44	104	0	60	253559
2026-01-30 07:36:14.75	136.45	1.32	-62.5	-76.4	3.5	1.52e+00	0	44	104	0	60	251057
2026-01-30 07:36:15.76	136.43	1.38	-62.4	-76.3	3.5	1.52e+00	0	44	104	0	60	248639
2026-01-30 07:36:16.77	136.42	1.45	-62.3	-76.2	3.5	1.52e+00	0	44	104	0	60	245121
2026-01-30 07:36:17.78	136.40	1.51	-62.0	-76.0	3.5	1.52e+00	0	44	104	0	60	239441
2026-01-30 07:36:18.79	136.39	1.57	-62.0	-76.0	3.5	1.52e+00	0	44	104	0	60	240572
2026-01-30 07:36:19.79	136.37	1.64	-61.9	-75.9	3.5	1.52e+00	0	44	104	0	60	237221
2026-01-30 07:36:20.80	136.35	1.70	-61.6	-75.7	3.5	1.52e+00	0	44	104	0	60	232830
2026-01-30 07:36:21.81	136.34	1.76	-61.5	-75.5	3.5	1.51e+00	0	44	104	0	60	226858
2026-01-30 07:36:22.82	136.32	1.83	-61.4	-75.3	3.5	1.52e+00	0	44	104	0	60	221793
2026-01-30 07:36:23.82	136.31	1.89	-61.2	-75.1	3.5	1.52e+00	0	44	104	0	60	217541
2026-01-30 07:36:24.83	136.29	1.95	-61.0	-75.0	3.5	1.52e+00	0	44	104	0	60	214388
2026-01-30 07:36:25.84	136.27	2.02	-60.9	-74.9	3.5	1.52e+00	0	44	104	0	60	211397
2026-01-30 07:36:26.85	136.26	2.08	-60.7	-74.7	3.5	1.52e+00	0	44	104	0	60	205844
2026-01-30 07:36:27.86	136.24	2.15	-60.2	-74.3	3.5	1.52e+00	0	44	104	0	60	198137
2026-01-30 07:36:28.86	136.22	2.21	-60.0	-74.1	3.5	1.52e+00	0	44	104	0	60	192073
2026-01-30 07:36:29.87	136.21	2.28	-59.4	-73.5	3.5	1.52e+00	0	44	104	0	60	180434
2026-01-30 07:36:30.88	136.19	2.34	-59.3	-73.5	3.5	1.52e+00	0	44	104	0	60	180228
2026-01-30 07:36:31.89	136.17	2.41	-59.2	-73.4	3.5	1.52e+00	0	44	104	0	60	178407
2026-01-30 07:36:32.90	136.16	2.47	-59.2	-73.3	3.5	1.52e+00	0	45	104	0	60	176262
2026-01-30 07:36:33.91	136.14	2.54	-59.2	-73.4	3.5	1.52e+00	0	45	104	0	60	178393
2026-01-30 07:36:34.91	136.12	2.60	-59.2	-73.4	3.5	1.52e+00	0	45	104	0	60	177313
2026-01-30 07:36:35.92	136.11	2.67	-59.2	-73.4	3.5	1.51e+00	0	45	104	0	60	177452
2026-01-30 07:36:36.93	136.09	2.74	-59.2	-73.3	3.5	1.52e+00	0	45	104	0	60	176680
2026-01-30 07:36:37.94	136.07	2.80	-59.2	-73.2	3.5	1.51e+00	0	45	104	0	60	174668
2026-01-30 07:36:38.95	136.05	2.87	-59.1	-73.3	3.5	1.52e+00	0	44	104	0	60	175338
2026-01-30 07:36:39.95	136.04	2.93	-59.1	-73.2	3.5	1.52e+00	0	45	104	0	60	174075
2026-01-30 07:36:40.96	136.02	3.00	-59.1	-73.3	3.5	1.52e+00	0	45	104	0	60	174952
2026-01-30 07:36:41.97	136.00	3.07	-59.1	-73.2	3.5	1.52e+00	0	44	104	0	60	174894
2026-01-30 07:36:42.98	135.98	3.13	-59.1	-73.2	3.5	1.52e+00	0	45	104	0	60	173584
2026-01-30 07:36:43.99	135.97	3.20	-59.1	-73.2	3.5	1.52e+00	0	45	104	0	60	174103
2026-01-30 07:36:44.99	135.95	3.27	-59.1	-73.2	3.5	1.51e+00	0	45	104	0	60	173927
2026-01-30 07:36:46.00	135.93	3.33	-59.0	-73.2	3.5	1.52e+00	0	45	104	0	60	173816
2026-01-30 07:36:47.01	135.91	3.40	-59.0	-73.2	3.5	1.52e+00	0	45	104	0	60	174040
2026-01-30 07:36:48.02	135.89	3.47	-59.0	-73.2	3.5	1.52e+00	0	45	104	0	60	174891
2026-01-30 07:36:49.03	135.88	3.54	-59.0	-73.2	3.5	1.52e+00	0	45	104	0	60	174304
2026-01-30 07:36:50.03	135.86	3.60	-59.0	-73.2	3.5	1.52e+00	0	45	104	0	60	174016
2026-01-30 07:36:51.04	135.84	3.67	-59.0	-73.2	3.5	1.52e+00	0	45	104	0	60	173582
2026-01-30 07:36:52.05	135.82	3.74	-59.0	-73.1	3.5	1.52e+00	0	45	104	0	60	172788
2026-01-30 07:36:53.06	135.80	3.81	-59.0	-73.0	3.5	1.52e+00	0	45	104	0	60	170149
2026-01-30 07:36:54.06	135.78	3.88	-59.0	-73.0	3.5	1.52e+00	0	45	104	0	60	169970
2026-01-30 07:36:55.07	135.76	3.95	-58.9	-72.9	3.5	1.52e+00	0	45	104	0	60	167038
2026-01-30 07:36:56.08	135.74	4.02	-58.9	-72.6	3.5	1.51e+00	0	45	104	0	60	162371
2026-01-30 07:36:57.09	135.73	4.09	-58.9	-72.4	3.5	1.52e+00	0	45	104	0	60	159450
2026-01-30 07:36:58.10	135.71	4.15	-58.9	-72.1	3.5	1.51e+00	0	45	104	0	60	153726
2026-01-30 07:36:59.10	135.69	4.22	-58.9	-71.9	3.5	1.51e+00	0	45	104	0	60	149173
2026-01-30 07:37:00.11	135.67	4.29	-58.8	-71.7	3.5	1.51e+00	0	45	104	0	60	146838
2026-01-30 07:37:01.12	135.65	4.36	-58.8	-71.7	3.6	1.51e+00	0	45	104	0	60	145496
2026-01-30 07:37:02.13	135.63	4.43	-58.8	-71.6	3.5	1.51e+00	0	45	104	0	60	145258
2026-01-30 07:37:03.14	135.61	4.50	-58.8	-71.4	3.5	1.51e+00	0	45	104	0	60	141925
2026-01-30 07:37:04.15	135.59	4.57	-58.8	-70.9	3.8	1.50e+00	0	45	104	0	60	133124
2026-01-30 07:37:05.15	135.57	4.64	-58.7	-69.9	4.1	1.49e+00	0	45	104	0	60	119013
2026-01-30 07:37:06.16	135.55	4.71	-58.5	-68.3	4.8	8.01e-01	0	45	104	0	60	99238
2026-01-30 07:37:07.17	135.53	4.79	-58.2	-66.0	6.1	4.29e-01	0	45	0	0	60	75531
2026-01-30 07:37:08.18	135.51	4.86	-57.8	-64.0	7.6	1.31e-01	0	45	0	3145728	60	60480
2026-01-30 07:37:09.18	135.49	4.93	-57.3	-62.5	9.5	2.29e-02	0	45	0	6291456	60	50450
2026-01-30 07:37:10.20	135.47	5.00	-56.7	-61.1	11.1	4.55e-03	0	45	0	9437184	60	43019
2026-01-30 07:37:11.20	135.45	5.07	-56.1	-59.8	12.5	2.39e-04	0	45	0	12582912	60	37282
2026-01-30 07:37:12.21	135.42	5.14	-55.5	-58.6	13.8	2.59e-05	0	45	0	15728640	60	32427
2026-01-30 07:37:13.22	135.40	5.21	-54.8	-57.6	14.8	7.00e-07	0	45	0	18874368	60	28823
2026-01-30 07:37:14.22	135.38	5.29	-54.4	-56.9	15.4	0.00e+00	0	45	0	22020096	60	26610
2026-01-30 07:37:15.22	135.36	5.36	-53.8	-56.2	16.2	0.00e+00	0	45	0	25165824	60	24436
2026-01-30 07:37:16.23	135.34	5.43	-53.5	-55.7	16.6	0.00e+00	0	45	0	28311552	60	23161
2026-01-30 07:37:17.24	135.32	5.50	-53.2	-55.3	16.9	0.00e+00	0	45	0	31457280	60	22118
2026-01-30 07:37:18.25	135.30	5.58	-53.2	-55.3	16.9	0.00e+00	0	45	0	34603008	60	22174
2026-01-30 07:37:19.25	135.28	5.65	-53.2	-55.3	16.9	0.00e+00	0	45	0	37748736	60	22182
2026-01-30 07:37:20.26	135.25	5.72	-53.3	-55.5	16.8	0.00e+00	0	45	0	40894464	60	22618
2026-01-30 07:37:21.27	135.23	5.80	-53.6	-55.9	16.4	0.00e+00	0	45	0	44040192	60	23603
2026-01-30 07:37:22.28	135.21	5.87	-54.0	-56.4	15.9	0.00e+00	0	45	0	47185920	60	25211
2026-01-30 07:37:23.29	135.19	5.94	-54.5	-57.2	15.1	0.00e+00	0	45	0	50331648	60	27465
2026-01-30 07:37:24.29	135.16	6.02	-55.1	-58.0	14.1	7.00e-07	0	45	0	53477376	60	30245
2026-01-30 07:37:25.30	135.14	6.09	-55.7	-59.1	13.1	1.14e-05	0	45	0	56623104	60	34228
2026-01-30 07:37:26.31	135.12	6.17	-56.5	-60.9	11.5	7.96e-04	0	45	0	59768832	60	42045
2026-01-30 07:37:27.32	135.10	6.24	-52.9	-54.9	17.3	0.00e+00	0	45	0	62914560	60	21164
2026-01-30 07:37:28.33	135.07	6.32	-58.6	-70.6	3.6	1.29e+00	0	45	104	65011712	60	128327
2026-01-30 07:37:29.33	135.05	6.39	-53.1	-55.1	17.5	0.00e+00	0	45	0	65011712	60	21561
2026-01-30 07:37:30.34	135.03	6.47	-55.6	-59.1	13.4	1.90e-05	0	45	0	3145728	60	34213
2026-01-30 07:37:31.35	135.00	6.54	-52.9	-55.0	17.5	0.00e+00	0	45	0	6291456	60	21314
2026-01-30 07:37:32.36	134.98	6.62	-52.7	-54.6	17.8	0.00e+00	0	45	0	9437184	60	20506
2026-01-30 07:37:33.36	134.96	6.69	-52.6	-54.5	17.9	0.00e+00	0	45	0	12582912	60	20263
2026-01-30 07:37:34.37	134.93	6.77	-52.5	-54.4	18.0	0.00e+00	0	45	0	15728640	60	19968
2026-01-30 07:37:35.38	134.91	6.85	-52.6	-54.4	18.0	0.00e+00	0	45	0	18874368	60	20033
2026-01-30 07:37:36.39	134.89	6.92	-52.6	-54.4	18.1	0.00e+00	0	45	0	22020096	60	19901
2026-01-30 07:37:37.39	134.86	7.00	-52.5	-54.3	18.2	0.00e+00	0	45	0	25165824	60	19795
2026-01-30 07:37:38.40	134.84	7.08	-52.5	-54.3	18.2	0.00e+00	0	45	0	28311552	60	19678
2026-01-30 07:37:39.40	134.81	7.16	-52.5	-54.3	18.2	0.00e+00	0	45	0	31457280	60	19718
2026-01-30 07:37:40.41	134.79	7.23	-52.4	-54.2	18.4	0.00e+00	0	45	0	34603008	60	19450
2026-01-30 07:37:41.42	134.76	7.31	-52.5	-54.2	18.3	0.00e+00	0	45	0	37748736	60	19554
2026-01-30 07:37:42.42	134.74	7.39	-52.3	-54.0	18.6	0.00e+00	0	45	0	40894464	60	19133
2026-01-30 07:37:43.43	134.71	7.47	-52.4	-54.1	18.5	0.00e+00	0	45	0	45088768	60	19346
2026-01-30 07:37:44.44	134.69	7.55	-52.4	-54.2	18.5	0.00e+00	0	45	0	47185920	60	19466
2026-01-30 07:37:45.44	134.66	7.62	-52.4	-54.1	18.5	0.00e+00	0	45	0	50331648	60	19325
2026-01-30 07:37:46.45	134.64	7.70	-52.3	-54.0	18.6	0.00e+00	0	45	0	53477376	60	19058
2026-01-30 07:37:47.46	134.61	7.78	-52.2	-53.9	18.8	0.00e+00	0	45	0	56623104	60	18789
2026-01-30 07:37:48.47	134.59	7.86	-52.2	-53.9	18.7	0.00e+00	0	45	0	59768832	60	18893
2026-01-30 07:37:49.48	134.56	7.94	-52.2	-53.9	18.7	0.00e+00	0	45	0	62914560	60	18926
2026-01-30 07:37:50.49	134.54	8.02	-52.1	-53.7	18.9	0.00e+00	0	45	0	66060288	60	18499
2026-01-30 07:37:51.50	134.51	8.10	-52.0	-53.7	19.0	0.00e+00	0	45	0	69206016	60	18358
2026-01-30 07:37:52.50	134.48	8.18	-52.1	-53.8	18.8	0.00e+00	0	45	0	72351744	60	18643
2026-01-30 07:37:53.51	134.46	8.26	-52.0	-53.7	19.0	0.00e+00	0	45	0	75497472	60	18357
2026-01-30 07:37:54.52	134.43	8.34	-51.9	-53.5	19.2	0.00e+00	0	45	0	78643200	60	18081
2026-01-30 07:37:55.53	134.40	8.43	-51.9	-53.5	19.2	0.00e+00	0	45	0	82837504	60	17987
2026-01-30 07:37:56.54	134.38	8.51	-51.9	-53.6	19.2	0.00e+00	0	45	0	85983232	60	18126
2026-01-30 07:37:57.54	134.35	8.59	-51.8	-53.4	19.3	0.00e+00	0	45	0	89128960	60	17714
2026-01-30 07:37:58.55	134.32	8.67	-51.8	-53.3	19.3	0.00e+00	0	45	0	92274688	60	17671
2026-01-30 07:37:59.56	134.29	8.75	-51.8	-53.3	19.4	0.00e+00	0	45	0	94371840	60	17671
2026-01-30 07:38:00.57	134.27	8.84	-51.8	-53.4	19.3	0.00e+00	0	45	0	97517568	60	17732
2026-01-30 07:38:01.58	134.24	8.92	-51.7	-53.3	19.4	0.00e+00	0	45	0	100663296	60	17592
2026-01-30 07:38:02.59	134.21	9.00	-51.7	-53.2	19.5	0.00e+00	0	45	0	103809024	60	17382
2026-01-30 07:38:03.59	134.18	9.09	-51.7	-53.3	19.4	0.00e+00	0	45	0	106954752	60	17535
2026-01-30 07:38:04.60	134.15	9.17	-51.7	-53.3	19.5	0.00e+00	0	45	0	110100480	60	17597
2026-01-30 07:38:05.61	134.12	9.25	-51.7	-53.2	19.6	0.00e+00	0	45	0	113246208	60	17411
2026-01-30 07:38:06.61	134.10	9.34	-51.7	-53.2	19.5	0.00e+00	0	45	0	116391936	60	17456
2026-01-30 07:38:07.62	134.07	9.42	-51.6	-53.1	19.7	0.00e+00	0	45	0	119537664	60	17148
2026-01-30 07:38:08.63	134.04	9.51	-51.6	-53.1	19.7	0.00e+00	0	45	0	123731968	60	17156
2026-01-30 07:38:09.64	134.01	9.59	-51.6	-53.2	19.6	0.00e+00	0	45	0	126877696	60	17302
2026-01-30 07:38:10.65	133.98	9.68	-51.5	-53.0	19.8	0.00e+00	0	45	0	130023424	60	16999
2026-01-30 07:38:11.66	133.95	9.76	-51.5	-53.0	19.9	0.00e+00	0	45	0	133169152	60	16965
2026-01-30 07:38:12.67	133.92	9.85	-51.5	-53.0	19.9	0.00e+00	0	45	0	136314880	60	16969
2026-01-30 07:38:13.67	133.89	9.93	-51.4	-52.9	20.0	0.00e+00	0	45	0	139460608	60	16791
2026-01-30 07:38:14.68	133.86	10.02	-51.3	-52.7	20.0	0.00e+00	0	45	0	141557760	60	16506
2026-01-30 07:38:15.68	133.83	10.11	-51.3	-52.7	20.2	0.00e+00	0	45	0	144703488	60	16411
2026-01-30 07:38:16.68	133.80	10.19	-51.2	-52.7	20.2	0.00e+00	0	45	0	147849216	60	16331
2026-01-30 07:38:17.68	133.77	10.28	-51.2	-52.7	20.3	0.00e+00	0	45	0	150994944	60	16329
2026-01-30 07:38:18.68	133.74	10.37	-51.2	-52.6	20.2	0.00e+00	0	45	0	154140672	60	16303
2026-01-30 07:38:19.68	133.70	10.45	-51.3	-52.7	20.2	0.00e+00	0	45	0	157286400	60	16429
2026-01-30 07:38:20.67	133.67	10.54	-51.1	-52.6	20.3	0.00e+00	0	45	0	160432128	60	16146
2026-01-30 07:38:21.68	133.64	10.63	-51.1	-52.5	20.3	0.00e+00	0	45	0	163577856	60	15965
2026-01-30 07:38:22.67	133.61	10.72	-51.2	-52.6	20.2	0.00e+00	0	45	0	166723584	60	16289
2026-01-30 07:38:23.67	133.58	10.81	-51.1	-52.5	20.3	0.00e+00	0	45	0	169869312	60	16070
2026-01-30 07:38:24.67	133.55	10.89	-51.0	-52.4	20.4	0.00e+00	0	45	0	173015040	60	15917
2026-01-30 07:38:25.67	133.51	10.98	-51.1	-52.5	20.3	0.00e+00	0	45	0	176160768	60	15983
2026-01-30 07:38:26.67	133.48	11.07	-51.0	-52.4	20.4	0.00e+00	0	45	0	179306496	60	15870
2026-01-30 07:38:27.67	133.45	11.16	-51.1	-52.5	20.3	0.00e+00	0	45	0	182452224	60	16039
2026-01-30 07:38:28.67	133.41	11.25	-51.1	-52.4	20.4	0.00e+00	0	45	0	185597952	60	15921
2026-01-30 07:38:29.67	133.38	11.34	-50.9	-52.3	20.6	0.00e+00	0	45	0	188743680	60	15645
2026-01-30 07:38:30.68	133.35	11.43	-51.0	-52.4	20.5	0.00e+00	0	45	0	191889408	60	15860
2026-01-30 07:38:31.68	133.31	11.53	-51.1	-52.5	20.4	0.00e+00	0	45	0	195035136	60	16016
2026-01-30 07:38:32.68	133.28	11.62	-51.1	-52.5	20.5	0.00e+00	0	45	0	198180864	60	15965
2026-01-30 07:38:33.68	133.25	11.71	-51.0	-52.3	20.5	0.00e+00	0	45	0	201326592	60	15748
2026-01-30 07:38:34.68	133.21	11.80	-51.1	-52.4	20.5	0.00e+00	0	45	0	204472320	60	15949
2026-01-30 07:38:35.67	133.18	11.89	-50.9	-52.3	20.6	0.00e+00	0	45	0	207618048	60	15677
2026-01-30 07:38:36.68	133.14	11.99	-50.8	-52.1	20.8	0.00e+00	0	45	0	210763776	60	15387
2026-01-30 07:38:37.68	133.11	12.08	-50.8	-52.2	20.8	0.00e+00	0	45	0	213909504	60	15486
2026-01-30 07:38:38.69	133.07	12.17	-50.8	-52.1	20.8	0.00e+00	0	45	0	217055232	60	15360
2026-01-30 07:38:39.69	133.04	12.27	-50.9	-52.2	20.7	0.00e+00	0	45	0	220200960	60	15509
2026-01-30 07:38:40.70	133.00	12.36	-50.8	-52.2	20.8	0.00e+00	0	45	0	223346688	60	15473
2026-01-30 07:38:41.71	132.96	12.46	-50.7	-52.0	20.9	0.00e+00	0	45	0	226492416	60	15218
2026-01-30 07:38:42.71	132.93	12.55	-50.8	-52.2	20.7	0.00e+00	0	45	0	229638144	60	15498
2026-01-30 07:38:43.72	132.89	12.65	-50.8	-52.2	20.7	0.00e+00	0	45	0	232783872	60	15503
2026-01-30 07:38:44.73	132.85	12.74	-50.8	-52.2	20.7	0.00e+00	0	45	0	235929600	60	15516
2026-01-30 07:38:45.73	132.81	12.84	-50.7	-52.0	20.9	0.00e+00	0	45	0	239075328	60	15117
2026-01-30 07:38:46.74	132.78	12.94	-50.7	-52.0	20.9	0.00e+00	0	45	0	242221056	60	15222
2026-01-30 07:38:47.74	132.74	13.03	-50.8	-52.1	20.8	0.00e+00	0	45	0	245366784	60	15384
2026-01-30 07:38:48.75	132.70	13.13	-50.7	-52.0	20.9	0.00e+00	0	45	0	248512512	60	15169
2026-01-30 07:38:49.76	132.66	13.23	-50.6	-51.9	21.0	0.00e+00	0	45	0	251658240	60	15032
2026-01-30 07:38:50.77	132.62	13.33	-50.7	-52.0	20.9	0.00e+00	0	45	0	254803968	60	15165
2026-01-30 07:38:51.77	132.58	13.43	-50.6	-52.0	20.9	0.00e+00	0	45	0	257949696	60	15087
2026-01-30 07:38:52.78	132.54	13.53	-50.8	-52.1	20.8	0.00e+00	0	45	0	261095424	60	15387
2026-01-30 07:38:53.79	132.51	13.63	-50.7	-52.0	20.9	0.00e+00	0	45	0	264241152	60	15166
2026-01-30 07:38:54.80	132.47	13.73	-50.6	-52.0	21.0	0.00e+00	0	45	0	267386880	60	15105
2026-01-30 07:38:55.80	132.43	13.83	-50.7	-52.1	20.9	0.00e+00	0	45	0	270532608	60	15262
2026-01-30 07:38:56.82	132.38	13.93	-50.7	-52.0	20.9	0.00e+00	0	45	0	273678336	60	15210
2026-01-30 07:38:57.83	132.34	14.03	-50.7	-52.1	20.9	0.00e+00	0	45	0	276824064	60	15244
2026-01-30 07:38:58.83	132.30	14.13	-50.6	-52.0	20.9	0.00e+00	0	45	0	279969792	60	15116
2026-01-30 07:38:59.84	132.26	14.23	-50.7	-52.0	20.8	0.00e+00	0	45	0	283115520	60	15204
2026-01-30 07:39:00.85	132.22	14.34	-50.8	-52.1	20.8	0.00e+00	0	45	0	286261248	60	15313
2026-01-30 07:39:01.86	132.18	14.44	-50.7	-52.1	20.9	0.00e+00	0	45	0	289406976	60	15241
2026-01-30 07:39:02.87	132.13	14.54	-50.7	-52.0	20.9	0.00e+00	0	45	0	292552704	60	15168
2026-01-30 07:39:03.87	132.09	14.64	-50.7	-52.1	20.9	0.00e+00	0	45	0	295698432	60	15269
2026-01-30 07:39:04.88	132.05	14.75	-50.7	-52.0	20.9	0.00e+00	0	45	0	298844160	60	15178
2026-01-30 07:39:05.89	132.01	14.85	-50.7	-52.0	21.0	0.00e+00	0	45	0	301989888	60	15175
2026-01-30 07:39:06.90	131.96	14.96	-50.9	-52.2	20.8	0.00e+00	0	45	0	305135616	60	15531
2026-01-30 07:39:07.91	131.92	15.07	-50.7	-52.0	20.9	0.00e+00	0	45	0	308281344	60	15146
2026-01-30 07:39:08.92	131.87	15.17	-50.7	-52.0	20.9	0.00e+00	0	45	0	311427072	60	15173
2026-01-30 07:39:09.93	131.83	15.28	-50.8	-52.2	20.8	0.00e+00	0	45	0	314572800	60	15431
2026-01-30 07:39:10.94	131.78	15.38	-50.7	-52.0	20.9	0.00e+00	0	45	0	317718528	60	15224
2026-01-30 07:39:11.94	131.74	15.49	-50.7	-52.0	21.0	0.00e+00	0	45	0	320864256	60	15212
2026-01-30 07:39:12.95	131.69	15.60	-50.8	-52.1	21.0	0.00e+00	0	45	0	324009984	60	15362
2026-01-30 07:39:13.96	131.65	15.71	-50.8	-52.1	21.0	0.00e+00	0	45	0	327155712	60	15302
2026-01-30 07:39:14.97	131.60	15.82	-50.8	-52.2	20.9	0.00e+00	0	45	0	330301440	60	15419
2026-01-30 07:39:15.98	131.55	15.93	-50.9	-52.2	20.9	0.00e+00	0	45	0	333447168	60	15533
2026-01-30 07:39:16.99	131.51	16.04	-50.7	-52.1	21.0	0.00e+00	0	45	0	336592896	60	15269
2026-01-30 07:39:18.00	131.46	16.15	-50.8	-52.2	20.9	0.00e+00	0	45	0	339738624	60	15480
2026-01-30 07:39:19.00	131.41	16.26	-50.9	-52.3	20.9	0.00e+00	0	45	0	342884352	60	15611
2026-01-30 07:39:20.01	131.36	16.37	-50.9	-52.2	20.9	0.00e+00	0	45	0	346030080	60	15539
2026-01-30 07:39:21.02	131.31	16.48	-50.9	-52.2	20.9	0.00e+00	0	45	0	349175808	60	15528
2026-01-30 07:39:22.02	131.26	16.59	-50.9	-52.2	20.9	0.00e+00	0	45	0	352321536	60	15571
2026-01-30 07:39:23.03	131.21	16.70	-51.1	-52.4	20.7	0.00e+00	0	45	0	355467264	60	15891
2026-01-30 07:39:24.04	131.17	16.82	-51.1	-52.5	20.7	0.00e+00	0	45	0	358612992	60	16003
2026-01-30 07:39:25.05	131.11	16.93	-51.2	-52.6	20.6	0.00e+00	0	45	0	361758720	60	16256
2026-01-30 07:39:26.06	131.06	17.04	-51.2	-52.6	20.5	0.00e+00	0	45	0	364904448	60	16277
2026-01-30 07:39:27.07	131.01	17.16	-51.3	-52.7	20.5	0.00e+00	0	45	0	368050176	60	16406
2026-01-30 07:39:28.07	130.96	17.27	-51.3	-52.7	20.5	0.00e+00	0	45	0	371195904	60	16409
2026-01-30 07:39:29.08	130.91	17.39	-51.0	-52.4	20.7	0.00e+00	0	45	0	374341632	60	15810
2026-01-30 07:39:30.09	130.86	17.50	-51.0	-52.3	20.8	0.00e+00	0	45	0	377487360	60	15761
2026-01-30 07:39:31.10	130.80	17.62	-51.0	-52.4	20.7	0.00e+00	0	45	0	380633088	60	15844
2026-01-30 07:39:32.11	130.75	17.74	-51.0	-52.4	20.8	0.00e+00	0	45	0	383778816	60	15770
2026-01-30 07:39:33.12	130.70	17.86	-51.0	-52.3	20.8	0.00e+00	0	45	0	386924544	60	15732
2026-01-30 07:39:34.12	130.64	17.97	-51.0	-52.3	20.9	0.00e+00	0	45	0	390070272	60	15685
2026-01-30 07:39:35.13	130.59	18.09	-51.0	-52.4	20.9	0.00e+00	0	45	0	393216000	60	15813
2026-01-30 07:39:36.14	130.53	18.21	-51.0	-52.4	20.9	0.00e+00	0	45	0	396361728	60	15785
2026-01-30 07:39:37.14	130.48	18.33	-51.1	-52.4	20.8	0.00e+00	0	45	0	399507456	60	15938
2026-01-30 07:39:38.15	130.42	18.45	-51.0	-52.3	20.9	0.00e+00	0	45	0	402653184	60	15733
2026-01-30 07:39:39.16	130.37	18.57	-51.0	-52.3	20.9	0.00e+00	0	45	0	405798912	60	15736
2026-01-30 07:39:40.17	130.31	18.69	-50.9	-52.3	21.0	0.00e+00	0	45	0	408944640	60	15602
2026-01-30 07:39:41.18	130.25	18.82	-50.9	-52.2	21.0	0.00e+00	0	45	0	412090368	60	15527
2026-01-30 07:39:42.18	130.19	18.94	-50.9	-52.2	21.1	0.00e+00	0	45	0	415236096	60	15458
2026-01-30 07:39:43.19	130.14	19.06	-51.0	-52.3	21.0	0.00e+00	0	45	0	418381824	60	15686
2026-01-30 07:39:44.20	130.08	19.18	-51.0	-52.3	21.1	0.00e+00	0	45	0	421527552	60	15613
2026-01-30 07:39:45.21	130.02	19.31	-50.8	-52.1	21.1	0.00e+00	0	45	0	424673280	60	15296
2026-01-30 07:39:46.22	129.96	19.43	-50.8	-52.1	21.2	0.00e+00	0	45	0	427819008	60	15287
2026-01-30 07:39:47.22	129.90	19.56	-50.9	-52.2	21.0	0.00e+00	0	45	0	430964736	60	15579
2026-01-30 07:39:48.23	129.84	19.69	-50.7	-52.0	21.2	0.00e+00	0	45	0	434110464	60	15204
2026-01-30 07:39:49.24	129.78	19.81	-50.7	-52.0	21.2	0.00e+00	0	45	0	437256192	60	15113
2026-01-30 07:39:50.25	129.71	19.94	-50.6	-51.9	21.3	0.00e+00	0	45	0	440401920	60	14950
2026-01-30 07:39:51.26	129.65	20.07	-50.7	-52.0	21.2	0.00e+00	0	45	0	443547648	60	15093
2026-01-30 07:39:52.27	129.59	20.20	-50.8	-52.1	21.3	0.00e+00	0	45	0	446693376	60	15272
2026-01-30 07:39:53.27	129.53	20.32	-50.8	-52.1	21.2	0.00e+00	0	45	0	449839104	60	15255
2026-01-30 07:39:54.28	129.46	20.45	-50.6	-51.9	21.3	0.00e+00	0	45	0	452984832	60	15027
2026-01-30 07:39:55.28	129.40	20.58	-50.7	-52.0	21.2	0.00e+00	0	45	0	456130560	60	15084
2026-01-30 07:39:56.29	129.33	20.72	-50.6	-51.8	21.3	0.00e+00	0	45	0	459276288	60	14872
2026-01-30 07:39:57.30	129.27	20.85	-50.5	-51.8	21.4	0.00e+00	0	45	0	462422016	60	14806
2026-01-30 07:39:58.31	129.20	20.98	-50.4	-51.7	21.5	0.00e+00	0	45	0	465567744	60	14651
2026-01-30 07:39:59.32	129.13	21.11	-50.5	-51.7	21.4	0.00e+00	0	45	0	468713472	60	14692
2026-01-30 07:40:00.32	129.06	21.25	-50.3	-51.5	21.7	0.00e+00	0	45	0	471859200	60	14303
2026-01-30 07:40:01.33	129.00	21.38	-50.2	-51.4	21.7	0.00e+00	0	45	0	475004928	60	14179
2026-01-30 07:40:02.34	128.93	21.52	-50.2	-51.4	21.7	0.00e+00	0	45	0	478150656	60	14199
2026-01-30 07:40:03.35	128.86	21.65	-50.1	-51.3	21.8	0.00e+00	0	45	0	481296384	60	14026
2026-01-30 07:40:04.35	128.79	21.79	-49.9	-51.1	21.9	0.00e+00	0	45	0	484442112	60	13700
2026-01-30 07:40:05.36	128.72	21.92	-49.9	-51.1	22.0	0.00e+00	0	45	0	487587840	60	13655
2026-01-30 07:40:06.37	128.65	22.06	-49.9	-51.1	21.9	0.00e+00	0	45	0	490733568	60	13708
2026-01-30 07:40:07.38	128.57	22.20	-49.7	-51.0	22.1	0.00e+00	0	45	0	493879296	60	13423
2026-01-30 07:40:08.39	128.50	22.34	-49.6	-50.7	22.3	0.00e+00	0	45	0	497025024	60	13072
2026-01-30 07:40:09.40	128.43	22.48	-49.6	-50.8	22.2	0.00e+00	0	45	0	500170752	60	13208
2026-01-30 07:40:10.40	128.35	22.62	-49.5	-50.7	22.2	0.00e+00	0	45	0	503316480	60	13076
2026-01-30 07:40:11.41	128.28	22.76	-49.5	-50.7	22.2	0.00e+00	0	45	0	506462208	60	13081
2026-01-30 07:40:12.41	128.20	22.90	-49.5	-50.7	22.3	0.00e+00	0	45	0	509607936	60	13057
2026-01-30 07:40:13.42	128.13	23.05	-49.6	-50.7	22.3	0.00e+00	0	45	0	512753664	60	13076
2026-01-30 07:40:14.42	128.05	23.19	-49.5	-50.7	22.3	0.00e+00	0	45	0	515899392	60	13062
2026-01-30 07:40:15.43	127.97	23.33	-49.6	-50.7	22.3	0.00e+00	0	45	0	520093696	60	13105
2026-01-30 07:40:16.44	127.89	23.48	-49.6	-50.8	22.3	0.00e+00	0	45	0	522190848	60	13120
2026-01-30 07:40:17.45	127.81	23.62	-49.6	-50.8	22.2	0.00e+00	0	45	0	525336576	60	13176
2026-01-30 07:40:18.46	127.73	23.77	-49.6	-50.8	22.1	0.00e+00	0	45	0	528482304	60	13265
2026-01-30 07:40:19.46	127.65	23.92	-49.7	-51.0	22.0	0.00e+00	0	45	0	531628032	60	13437
2026-01-30 07:40:20.47	127.57	24.07	-49.8	-51.0	22.1	0.00e+00	0	45	0	534773760	60	13453
2026-01-30 07:40:21.48	127.49	24.21	-49.8	-51.0	22.0	0.00e+00	0	45	0	537919488	60	13542
2026-01-30 07:40:22.49	127.41	24.36	-49.7	-50.9	22.1	0.00e+00	0	45	0	541065216	60	13400
2026-01-30 07:40:23.50	127.32	24.51	-49.8	-51.0	22.0	0.00e+00	0	45	0	544210944	60	13554
2026-01-30 07:40:24.50	127.24	24.66	-49.8	-51.0	22.1	0.00e+00	0	45	0	547356672	60	13545
2026-01-30 07:40:25.51	127.15	24.82	-49.8	-51.0	22.1	0.00e+00	0	45	0	550502400	60	13543
2026-01-30 07:40:26.52	127.06	24.97	-49.9	-51.1	22.0	0.00e+00	0	45	0	553648128	60	13687
2026-01-30 07:40:27.53	126.98	25.12	-50.0	-51.2	21.9	0.00e+00	0	45	0	556793856	60	13846
2026-01-30 07:40:28.54	126.89	25.28	-50.0	-51.2	22.1	0.00e+00	0	45	0	560988160	60	13833
2026-01-30 07:40:29.54	126.80	25.43	-50.1	-51.4	21.9	0.00e+00	0	45	0	564133888	60	14095
2026-01-30 07:40:30.55	126.71	25.59	-50.1	-51.3	22.0	0.00e+00	0	45	0	567279616	60	14005
2026-01-30 07:40:31.56	126.62	25.75	-50.2	-51.4	21.9	0.00e+00	0	45	0	569376768	60	14107
2026-01-30 07:40:32.57	126.53	25.90	-50.2	-51.4	21.9	0.00e+00	0	45	0	572522496	60	14155
2026-01-30 07:40:33.57	126.43	26.06	-50.3	-51.6	21.7	0.00e+00	0	45	0	575668224	60	14382
2026-01-30 07:40:34.58	126.34	26.22	-50.4	-51.7	21.5	0.00e+00	0	45	0	578813952	60	14566
2026-01-30 07:40:35.59	126.24	26.38	-50.5	-51.7	21.5	0.00e+00	0	46	0	581959680	60	14715
2026-01-30 07:40:36.59	126.15	26.54	-50.6	-51.9	21.4	0.00e+00	0	45	0	585105408	60	14918
2026-01-30 07:40:37.60	126.05	26.70	-50.7	-51.9	21.3	0.00e+00	0	46	0	588251136	60	15038
2026-01-30 07:40:38.61	125.95	26.87	-50.6	-51.9	21.3	0.00e+00	0	45	0	591396864	60	15007
2026-01-30 07:40:39.62	125.85	27.03	-50.8	-52.1	21.2	0.00e+00	0	45	0	594542592	60	15243
2026-01-30 07:40:40.62	125.75	27.19	-50.9	-52.2	21.0	0.00e+00	0	45	0	597688320	60	15476
2026-01-30 07:40:41.63	125.65	27.36	-50.9	-52.2	21.1	0.00e+00	0	45	0	601882624	60	15566
2026-01-30 07:40:42.64	125.55	27.53	-51.0	-52.4	21.0	0.00e+00	0	45	0	605028352	60	15818
2026-01-30 07:40:43.64	125.45	27.69	-51.0	-52.3	21.1	0.00e+00	0	45	0	608174080	60	15676
2026-01-30 07:40:44.65	125.34	27.86	-51.0	-52.4	21.0	0.00e+00	0	45	0	611319808	60	15788
2026-01-30 07:40:45.66	125.24	28.03	-51.0	-52.3	21.1	0.00e+00	0	45	0	614465536	60	15718
2026-01-30 07:40:46.66	125.13	28.20	-51.1	-52.4	21.1	0.00e+00	0	45	0	616562688	60	15887
2026-01-30 07:40:47.67	125.02	28.37	-51.1	-52.4	21.2	0.00e+00	0	45	0	619708416	60	15792
2026-01-30 07:40:48.68	124.91	28.54	-50.9	-52.2	21.4	0.00e+00	0	45	0	622854144	60	15429
2026-01-30 07:40:49.68	124.81	28.72	-51.0	-52.3	21.2	0.00e+00	0	45	0	625999872	60	15645
2026-01-30 07:40:50.69	124.69	28.89	-51.1	-52.4	21.2	0.00e+00	0	45	0	629145600	60	15818
2026-01-30 07:40:51.70	124.58	29.07	-50.9	-52.1	21.4	0.00e+00	0	45	0	632291328	60	15373
2026-01-30 07:40:52.71	124.47	29.24	-50.8	-52.0	21.5	0.00e+00	0	45	0	635437056	60	15173
2026-01-30 07:40:53.70	124.35	29.41	-50.8	-52.0	21.4	0.00e+00	0	45	0	638582784	60	15231
2026-01-30 07:40:54.71	124.24	29.59	-50.6	-51.8	21.6	0.00e+00	0	45	0	641728512	60	14845
2026-01-30 07:40:55.72	124.12	29.77	-50.5	-51.7	21.7	0.00e+00	0	45	0	644874240	60	14631
2026-01-30 07:40:56.72	124.00	29.95	-50.4	-51.7	21.7	0.00e+00	0	45	0	648019968	60	14607
2026-01-30 07:40:57.73	123.88	30.13	-50.4	-51.6	21.9	0.00e+00	0	45	0	652214272	60	14414
2026-01-30 07:40:58.74	123.76	30.31	-50.1	-51.3	22.0	0.00e+00	0	45	0	655360000	60	14044
2026-01-30 07:40:59.74	123.63	30.49	-50.1	-51.3	22.0	0.00e+00	0	45	0	658505728	60	13990
2026-01-30 07:41:00.75	123.51	30.68	-50.1	-51.3	22.0	0.00e+00	0	45	0	661651456	60	13977
2026-01-30 07:41:01.76	123.38	30.86	-50.2	-51.4	21.9	0.00e+00	0	45	0	663748608	60	14198
2026-01-30 07:41:02.77	123.25	31.05	-50.3	-51.6	21.8	0.00e+00	0	45	0	666894336	60	14409
2026-01-30 07:41:03.78	123.12	31.24	-50.5	-51.7	21.8	0.00e+00	0	45	0	670040064	60	14655
2026-01-30 07:41:04.78	122.99	31.42	-50.6	-51.8	21.7	0.00e+00	0	45	0	673185792	60	14852
2026-01-30 07:41:05.79	122.86	31.61	-50.7	-52.0	21.5	0.00e+00	0	45	0	676331520	60	15083
2026-01-30 07:41:06.80	122.73	31.80	-50.7	-52.0	21.6	0.00e+00	0	45	0	679477248	60	15148
2026-01-30 07:41:07.81	122.59	31.99	-50.8	-52.1	21.4	0.00e+00	0	45	0	682622976	60	15339
2026-01-30 07:41:08.81	122.45	32.18	-50.8	-52.1	21.4	0.00e+00	0	45	0	685768704	60	15279
2026-01-30 07:41:09.82	122.31	32.38	-50.8	-52.1	21.5	0.00e+00	0	45	0	688914432	60	15304
2026-01-30 07:41:10.83	122.17	32.57	-50.7	-52.0	21.6	0.00e+00	0	45	0	692060160	60	15072
2026-01-30 07:41:11.83	122.03	32.76	-50.6	-51.8	21.7	0.00e+00	0	45	0	696254464	60	14847
2026-01-30 07:41:12.84	121.89	32.96	-50.6	-51.9	21.6	0.00e+00	0	45	0	699400192	60	14977
2026-01-30 07:41:13.85	121.74	33.16	-50.6	-51.9	21.7	0.00e+00	0	45	0	702545920	60	14920
2026-01-30 07:41:14.85	121.60	33.36	-50.7	-51.9	21.7	0.00e+00	0	45	0	705691648	60	14976
2026-01-30 07:41:15.86	121.45	33.56	-50.7	-52.0	21.6	0.00e+00	0	45	0	708837376	60	15125
2026-01-30 07:41:16.86	121.29	33.75	-50.8	-52.1	21.4	0.00e+00	0	45	0	710934528	60	15390
2026-01-30 07:41:17.87	121.14	33.96	-51.0	-52.3	21.2	0.00e+00	0	45	0	714080256	60	15765
2026-01-30 07:41:18.88	120.99	34.16	-51.1	-52.4	21.1	0.00e+00	0	46	0	717225984	60	15868
2026-01-30 07:41:19.89	120.83	34.36	-51.3	-52.7	20.9	0.00e+00	0	45	0	720371712	60	16355
2026-01-30 07:41:20.89	120.67	34.57	-51.5	-52.9	20.8	0.00e+00	0	45	0	723517440	60	16775
2026-01-30 07:41:21.90	120.51	34.77	-51.7	-53.1	20.7	0.00e+00	0	45	0	726663168	60	17214
2026-01-30 07:41:22.91	120.34	34.98	-52.1	-53.5	20.3	0.00e+00	0	45	0	729808896	60	18023
2026-01-30 07:41:23.92	120.18	35.19	-52.1	-53.6	20.2	0.00e+00	0	45	0	732954624	60	18183
2026-01-30 07:41:24.92	120.01	35.39	-52.4	-53.9	19.9	0.00e+00	0	45	0	736100352	60	18795
2026-01-30 07:41:25.93	119.84	35.60	-52.6	-54.1	19.7	0.00e+00	0	45	0	740294656	60	19249
2026-01-30 07:41:26.94	119.67	35.82	-52.7	-54.2	19.6	0.00e+00	0	45	0	743440384	60	19617
2026-01-30 07:41:27.95	119.49	36.03	-52.8	-54.4	19.6	0.00e+00	0	45	0	746586112	60	19891
2026-01-30 07:41:28.96	119.32	36.24	-52.8	-54.3	19.6	0.00e+00	0	45	0	749731840	60	19846
2026-01-30 07:41:29.97	119.14	36.46	-52.7	-54.2	19.7	0.00e+00	0	45	0	752877568	60	19592
2026-01-30 07:41:30.98	118.95	36.67	-52.8	-54.3	19.6	0.00e+00	0	45	0	756023296	60	19744
2026-01-30 07:41:31.99	118.77	36.89	-52.5	-54.0	19.8	0.00e+00	0	45	0	758120448	60	19028
2026-01-30 07:41:32.99	118.58	37.11	-52.6	-54.1	19.8	0.00e+00	0	45	0	761266176	60	19385
2026-01-30 07:41:34.00	118.39	37.33	-52.7	-54.2	19.7	0.00e+00	0	45	0	764411904	60	19485
2026-01-30 07:41:35.01	118.20	37.55	-52.7	-54.2	19.7	0.00e+00	0	45	0	767557632	60	19504
2026-01-30 07:41:36.02	118.01	37.77	-52.7	-54.3	19.7	0.00e+00	0	45	0	770703360	60	19646
2026-01-30 07:41:37.03	117.81	37.99	-52.7	-54.3	19.6	0.00e+00	0	45	0	773849088	60	19698
2026-01-30 07:41:38.03	117.61	38.21	-52.9	-54.4	19.5	0.00e+00	0	45	0	778043392	60	20040
2026-01-30 07:41:39.04	117.41	38.44	-52.7	-54.2	19.7	0.00e+00	0	45	0	781189120	60	19564
2026-01-30 07:41:40.05	117.20	38.66	-52.6	-54.0	19.9	0.00e+00	0	45	0	784334848	60	19176
2026-01-30 07:41:41.06	116.99	38.89	-52.7	-54.2	19.8	0.00e+00	0	45	0	787480576	60	19572
2026-01-30 07:41:42.07	116.78	39.12	-52.7	-54.2	19.9	0.00e+00	0	45	0	790626304	60	19587
2026-01-30 07:41:43.08	116.57	39.34	-52.7	-54.2	19.9	0.00e+00	0	45	0	793772032	60	19503
2026-01-30 07:41:44.09	116.35	39.57	-52.7	-54.2	19.9	0.00e+00	0	45	0	796917760	60	19615
2026-01-30 07:41:45.09	116.13	39.80	-52.8	-54.3	19.9	0.00e+00	0	45	0	800063488	60	19630
2026-01-30 07:41:46.10	115.91	40.04	-52.7	-54.2	20.0	0.00e+00	0	45	0	803209216	60	19491
2026-01-30 07:41:47.11	115.68	40.27	-52.5	-54.0	20.2	0.00e+00	0	45	0	806354944	60	19038
2026-01-30 07:41:48.12	115.45	40.50	-52.5	-53.9	20.3	0.00e+00	0	45	0	808452096	60	18813
2026-01-30 07:41:49.13	115.21	40.74	-52.4	-53.8	20.2	0.00e+00	0	45	0	811597824	60	18709
2026-01-30 07:41:50.13	114.98	40.97	-52.5	-53.9	20.0	0.00e+00	0	45	0	814743552	60	18796
2026-01-30 07:41:51.13	114.74	41.21	-52.7	-54.3	19.6	0.00e+00	0	45	0	818937856	60	19670
2026-01-30 07:41:52.14	114.49	41.44	-53.0	-54.5	19.4	0.00e+00	0	45	0	822083584	60	20313
2026-01-30 07:41:53.15	114.24	41.68	-53.5	-55.1	19.0	0.00e+00	0	45	0	825229312	60	21724
2026-01-30 07:41:54.16	113.99	41.92	-53.6	-55.2	18.9	0.00e+00	0	45	0	828375040	60	21983
2026-01-30 07:41:55.16	113.74	42.16	-53.4	-55.0	19.2	0.00e+00	0	45	0	831520768	60	21489
2026-01-30 07:41:56.17	113.48	42.40	-53.6	-55.2	19.1	0.00e+00	0	45	0	834666496	60	21873
2026-01-30 07:41:57.18	113.21	42.64	-53.8	-55.5	18.7	0.00e+00	0	45	0	837812224	60	22779
2026-01-30 07:41:58.19	112.95	42.89	-54.0	-55.7	18.5	0.00e+00	0	45	0	840957952	60	23151
2026-01-30 07:41:59.20	112.67	43.13	-54.2	-55.9	18.5	0.00e+00	0	45	0	844103680	60	23763
2026-01-30 07:42:00.21	112.40	43.38	-54.1	-55.8	18.5	0.00e+00	0	45	0	847249408	60	23548
2026-01-30 07:42:01.21	112.12	43.62	-54.0	-55.6	18.7	0.00e+00	0	45	0	850395136	60	23030
2026-01-30 07:42:02.22	111.83	43.87	-54.1	-55.8	18.5	0.00e+00	0	45	0	853540864	60	23366
2026-01-30 07:42:03.23	111.54	44.11	-54.0	-55.7	18.7	0.00e+00	0	45	0	855638016	60	23199
2026-01-30 07:42:04.23	111.25	44.36	-54.0	-55.7	18.7	0.00e+00	0	45	0	859832320	60	23173
2026-01-30 07:42:05.24	110.95	44.61	-54.0	-55.7	18.8	0.00e+00	0	45	0	862978048	60	23264
2026-01-30 07:42:06.25	110.65	44.86	-54.0	-55.6	18.9	0.00e+00	0	45	0	866123776	60	22958
2026-01-30 07:42:07.25	110.35	45.10	-53.8	-55.4	19.2	0.00e+00	0	45	0	869269504	60	22326
2026-01-30 07:42:08.26	110.03	45.35	-53.5	-55.0	19.5	0.00e+00	0	45	0	872415232	60	21514
2026-01-30 07:42:09.26	109.72	45.60	-53.5	-55.0	19.6	0.00e+00	0	45	0	875560960	60	21422
2026-01-30 07:42:10.27	109.39	45.85	-53.5	-55.0	19.5	0.00e+00	0	45	0	878706688	60	21394
2026-01-30 07:42:11.28	109.07	46.11	-53.5	-55.1	19.4	0.00e+00	0	45	0	881852416	60	21646
2026-01-30 07:42:12.29	108.73	46.36	-53.6	-55.3	19.1	0.00e+00	0	45	0	884998144	60	22070
2026-01-30 07:42:13.30	108.39	46.61	-53.5	-55.1	19.5	0.00e+00	0	46	0	888143872	60	21629
2026-01-30 07:42:14.31	108.05	46.87	-53.4	-55.0	19.5	0.00e+00	0	45	0	891289600	60	21296
2026-01-30 07:42:15.31	107.70	47.12	-53.3	-54.9	19.6	0.00e+00	0	45	0	894435328	60	21033
2026-01-30 07:42:16.32	107.34	47.37	-53.1	-54.6	19.8	0.00e+00	0	45	0	897581056	60	20455
2026-01-30 07:42:17.33	106.98	47.63	-53.1	-54.6	19.8	0.00e+00	0	45	0	900726784	60	20527
2026-01-30 07:42:18.34	106.61	47.88	-53.2	-54.8	19.6	0.00e+00	0	45	0	903872512	60	20830
2026-01-30 07:42:19.34	106.24	48.13	-53.5	-55.1	19.5	0.00e+00	0	45	0	907018240	60	21540
2026-01-30 07:42:20.35	105.86	48.39	-53.7	-55.4	19.4	0.00e+00	0	45	0	910163968	60	22279
2026-01-30 07:42:21.36	105.47	48.64	-53.3	-54.8	19.7	0.00e+00	0	45	0	913309696	60	20863
2026-01-30 07:42:22.37	105.08	48.90	-53.1	-54.5	20.0	0.00e+00	0	45	0	916455424	60	20231
2026-01-30 07:42:23.38	104.68	49.16	-52.9	-54.4	20.0	0.00e+00	0	45	0	919601152	60	19867
2026-01-30 07:42:24.39	104.27	49.41	-53.0	-54.5	19.9	0.00e+00	0	45	0	922746880	60	20159
2026-01-30 07:42:25.39	103.86	49.66	-52.8	-54.3	20.1	0.00e+00	0	45	0	925892608	60	19628
2026-01-30 07:42:26.40	103.44	49.92	-52.9	-54.3	20.1	0.00e+00	0	45	0	929038336	60	19767
2026-01-30 07:42:27.40	103.02	50.17	-52.8	-54.3	20.1	0.00e+00	0	45	0	932184064	60	19691
2026-01-30 07:42:28.42	102.58	50.43	-52.7	-54.2	20.2	0.00e+00	0	45	0	935329792	60	19420
2026-01-30 07:42:29.42	102.14	50.68	-52.7	-54.1	20.5	0.00e+00	0	45	0	938475520	60	19216
2026-01-30 07:42:30.42	101.69	50.93	-52.9	-54.3	20.1	0.00e+00	0	45	0	941621248	60	19670
2026-01-30 07:42:31.43	101.24	51.18	-53.5	-55.0	19.4	0.00e+00	0	45	0	944766976	60	21486
2026-01-30 07:42:32.44	100.77	51.43	-53.7	-55.3	19.4	0.00e+00	0	45	0	947912704	60	22041
2026-01-30 07:42:33.45	100.30	51.69	-53.4	-54.9	19.7	0.00e+00	0	45	0	951058432	60	21245
2026-01-30 07:42:34.46	99.82	51.94	-53.1	-54.6	20.0	0.00e+00	0	45	0	954204160	60	20338
2026-01-30 07:42:35.46	99.33	52.18	-52.8	-54.3	20.2	0.00e+00	0	45	0	957349888	60	19691
2026-01-30 07:42:36.47	98.83	52.43	-52.5	-54.0	20.5	0.00e+00	0	45	0	960495616	60	18974
2026-01-30 07:42:37.48	98.33	52.68	-52.7	-54.1	20.4	0.00e+00	0	45	0	963641344	60	19278
2026-01-30 07:42:38.49	97.81	52.93	-52.8	-54.2	20.5	0.00e+00	0	45	0	966787072	60	19464
2026-01-30 07:42:39.50	97.29	53.17	-52.9	-54.3	20.5	0.00e+00	0	45	0	969932800	60	19651
2026-01-30 07:42:40.51	96.75	53.42	-52.6	-54.0	20.8	0.00e+00	0	45	0	973078528	60	19000
2026-01-30 07:42:41.51	96.22	53.66	-52.7	-54.0	20.7	0.00e+00	0	45	0	976224256	60	19152
2026-01-30 07:42:42.52	95.67	53.90	-52.1	-53.5	20.9	0.00e+00	0	45	0	979369984	60	17951
2026-01-30 07:42:43.53	95.11	54.14	-52.1	-53.4	21.1	0.00e+00	0	45	0	982515712	60	17873
2026-01-30 07:42:44.54	94.54	54.38	-52.1	-53.4	21.1	0.00e+00	0	45	0	985661440	60	17735
2026-01-30 07:42:45.54	93.96	54.61	-52.1	-53.5	21.2	0.00e+00	0	45	0	988807168	60	17919
2026-01-30 07:42:46.55	93.37	54.84	-51.9	-53.2	21.4	0.00e+00	0	45	0	991952896	60	17292
2026-01-30 07:42:47.56	92.77	55.08	-51.8	-53.1	21.3	0.00e+00	0	45	0	995098624	60	17139
2026-01-30 07:42:48.57	92.16	55.31	-52.0	-53.4	20.8	0.00e+00	0	45	0	998244352	60	17783
2026-01-30 07:42:49.58	91.55	55.53	-52.4	-53.8	20.3	0.00e+00	0	45	0	1001390080	60	18738
2026-01-30 07:42:50.59	90.92	55.76	-52.7	-54.1	20.4	0.00e+00	0	45	0	1004535808	60	19298
2026-01-30 07:42:51.59	90.28	55.98	-52.2	-53.6	21.0	0.00e+00	0	45	0	1007681536	60	18215
2026-01-30 07:42:52.60	89.64	56.20	-52.0	-53.3	21.3	0.00e+00	0	45	0	1010827264	60	17652
2026-01-30 07:42:53.61	88.98	56.42	-51.8	-53.0	21.5	0.00e+00	0	45	0	1013972992	60	17069
2026-01-30 07:42:54.62	88.31	56.63	-51.6	-52.9	21.7	0.00e+00	0	45	0	1017118720	60	16720
2026-01-30 07:42:55.62	87.63	56.84	-51.7	-52.9	21.5	0.00e+00	0	45	0	1020264448	60	16827
2026-01-30 07:42:56.63	86.94	57.05	-51.6	-52.9	21.5	0.00e+00	0	45	0	1023410176	60	16748
2026-01-30 07:42:57.64	86.24	57.26	-51.5	-52.8	21.6	0.00e+00	0	45	0	1026555904	60	16620
2026-01-30 07:42:58.65	85.53	57.46	-51.2	-52.5	21.8	0.00e+00	0	45	0	1029701632	60	15954
2026-01-30 07:42:59.66	84.81	57.65	-51.3	-52.5	21.8	0.00e+00	0	45	0	1032847360	60	16094
2026-01-30 07:43:00.67	84.07	57.85	-51.3	-52.6	21.8	0.00e+00	0	45	0	1035993088	60	16214
2026-01-30 07:43:01.67	83.34	58.04	-51.4	-52.7	21.8	0.00e+00	0	45	0	1039138816	60	16398
2026-01-30 07:43:02.68	82.58	58.22	-51.5	-52.8	21.9	0.00e+00	0	45	0	1042284544	60	16589
2026-01-30 07:43:03.69	81.82	58.41	-51.6	-52.8	21.8	0.00e+00	0	45	0	1045430272	60	16640
2026-01-30 07:43:04.69	81.05	58.58	-51.6	-52.8	22.0	0.00e+00	0	45	0	1048576000	60	16589
2026-01-30 07:43:05.70	80.27	58.76	-51.2	-52.4	22.3	0.00e+00	0	45	0	1051721728	60	15876
2026-01-30 07:43:06.71	79.47	58.92	-50.8	-52.0	22.6	0.00e+00	0	45	0	1054867456	60	15175
2026-01-30 07:43:07.72	78.67	59.09	-50.6	-51.7	22.8	0.00e+00	0	45	0	1058013184	60	14639
2026-01-30 07:43:08.73	77.85	59.25	-50.4	-51.5	23.0	0.00e+00	0	45	0	1061158912	60	14280
2026-01-30 07:43:09.73	77.03	59.40	-50.6	-51.7	22.9	0.00e+00	0	45	0	1064304640	60	14597
2026-01-30 07:43:10.74	76.20	59.55	-50.5	-51.7	22.9	0.00e+00	0	45	0	1067450368	60	14639
2026-01-30 07:43:11.75	75.35	59.69	-50.6	-51.8	22.6	0.00e+00	0	45	0	1070596096	60	14719
2026-01-30 07:43:12.76	74.50	59.83	-50.6	-51.8	22.5	0.00e+00	0	45	0	1073741824	60	14737
2026-01-30 07:43:13.76	73.65	59.96	-50.5	-51.7	22.6	0.00e+00	0	45	0	1076887552	60	14584
2026-01-30 07:43:14.77	72.77	60.09	-50.5	-51.7	22.5	0.00e+00	0	45	0	1080033280	60	14558
2026-01-30 07:43:15.77	71.90	60.21	-50.8	-51.9	22.5	0.00e+00	0	45	0	1083179008	60	15038
2026-01-30 07:43:16.78	71.02	60.33	-51.1	-52.3	22.3	0.00e+00	0	45	0	1086324736	60	15620
2026-01-30 07:43:17.79	70.12	60.44	-51.2	-52.5	22.1	0.00e+00	0	45	0	1089470464	60	16007
2026-01-30 07:43:18.80	69.22	60.54	-51.0	-52.2	22.3	0.00e+00	0	45	0	1092616192	60	15529
2026-01-30 07:43:19.81	68.31	60.64	-51.1	-52.3	22.3	0.00e+00	0	45	0	1095761920	60	15706
2026-01-30 07:43:20.81	67.40	60.73	-50.8	-52.0	22.4	0.00e+00	0	45	0	1098907648	60	15134
2026-01-30 07:43:21.82	66.47	60.81	-51.0	-52.2	22.3	0.00e+00	0	45	0	1102053376	60	15447
2026-01-30 07:43:22.83	65.54	60.89	-51.4	-52.6	22.2	0.00e+00	0	45	0	1105199104	60	16256
2026-01-30 07:43:23.84	64.61	60.96	-51.4	-52.6	22.1	0.00e+00	0	45	0	1108344832	60	16218
2026-01-30 07:43:24.84	63.68	61.03	-51.3	-52.6	22.1	0.00e+00	0	45	0	1111490560	60	16145
2026-01-30 07:43:25.85	62.73	61.09	-51.1	-52.3	22.3	0.00e+00	0	45	0	1114636288	60	15598
2026-01-30 07:43:26.86	61.78	61.14	-50.8	-52.0	22.4	0.00e+00	0	45	0	1117782016	60	15158
2026-01-30 07:43:27.87	60.83	61.18	-50.8	-52.0	22.6	0.00e+00	0	45	0	1120927744	60	15128
2026-01-30 07:43:28.88	59.87	61.22	-50.9	-52.0	22.5	0.00e+00	0	45	0	1124073472	60	15217
2026-01-30 07:43:29.89	58.92	61.25	-50.3	-51.4	23.0	0.00e+00	0	45	0	1127219200	60	14176
2026-01-30 07:43:30.90	57.95	61.27	-50.3	-51.5	22.7	0.00e+00	0	45	0	1130364928	60	14256
2026-01-30 07:43:31.91	56.99	61.29	-50.8	-52.0	22.5	0.00e+00	0	45	0	1133510656	60	15059
2026-01-30 07:43:32.91	56.04	61.30	-50.9	-52.1	22.5	0.00e+00	0	45	0	1136656384	60	15240
2026-01-30 07:43:33.92	55.08	61.30	-50.5	-51.6	22.9	0.00e+00	0	45	0	1139802112	60	14495
2026-01-30 07:43:34.93	54.11	61.29	-50.6	-51.7	22.8	0.00e+00	0	45	0	1142947840	60	14666
2026-01-30 07:43:35.94	53.15	61.28	-51.2	-52.4	22.3	0.00e+00	0	45	0	1146093568	60	15786
2026-01-30 07:43:36.94	52.20	61.26	-51.3	-52.5	22.2	0.00e+00	0	45	0	1149239296	60	16007
2026-01-30 07:43:37.95	51.24	61.24	-51.1	-52.3	22.5	0.00e+00	0	45	0	1152385024	60	15703
2026-01-30 07:43:38.96	50.28	61.21	-51.1	-52.2	22.5	0.00e+00	0	45	0	1155530752	60	15584
2026-01-30 07:43:39.97	49.33	61.17	-51.4	-52.7	22.0	0.00e+00	0	45	0	1158676480	60	16334
2026-01-30 07:43:40.97	48.38	61.12	-51.9	-53.2	21.7	0.00e+00	0	45	0	1161822208	60	17418
2026-01-30 07:43:41.97	47.45	61.07	-51.9	-53.2	21.6	0.00e+00	0	45	0	1164967936	60	17352
2026-01-30 07:43:42.98	46.50	61.01	-52.0	-53.2	21.6	0.00e+00	0	45	0	1168113664	60	17485
2026-01-30 07:43:43.98	45.57	60.94	-51.7	-52.9	21.6	0.00e+00	0	45	0	1171259392	60	16890
2026-01-30 07:43:44.99	44.64	60.86	-51.8	-53.1	21.1	0.00e+00	0	45	0	1174405120	60	17209
2026-01-30 07:43:46.00	43.71	60.78	-52.0	-53.3	21.1	0.00e+00	0	45	0	1177550848	60	17658
2026-01-30 07:43:47.00	42.80	60.70	-51.6	-52.9	21.8	0.00e+00	0	45	0	1180696576	60	16730
2026-01-30 07:43:48.01	41.89	60.60	-51.8	-53.1	21.5	0.00e+00	0	45	0	1183842304	60	17095
2026-01-30 07:43:49.02	40.98	60.51	-51.4	-52.6	21.6	0.00e+00	0	45	0	1186988032	60	16322
2026-01-30 07:43:50.02	40.09	60.40	-51.2	-52.5	21.8	0.00e+00	0	45	0	1190133760	60	16004
2026-01-30 07:43:51.03	39.20	60.29	-51.0	-52.2	22.3	0.00e+00	0	45	0	1193279488	60	15506
2026-01-30 07:43:52.03	38.32	60.17	-51.2	-52.4	22.1	0.00e+00	0	45	0	1196425216	60	15803
2026-01-30 07:43:53.04	37.44	60.05	-51.2	-52.4	22.2	0.00e+00	0	45	0	1199570944	60	15816
2026-01-30 07:43:54.05	36.58	59.92	-51.4	-52.6	22.1	0.00e+00	0	45	0	1202716672	60	16203
2026-01-30 07:43:55.05	35.73	59.79	-51.7	-52.9	21.8	0.00e+00	0	45	0	1205862400	60	16891
2026-01-30 07:43:56.05	34.88	59.65	-51.8	-53.0	21.6	0.00e+00	0	45	0	1209008128	60	16994
2026-01-30 07:43:57.05	34.05	59.50	-51.8	-53.1	21.4	0.00e+00	0	45	0	1212153856	60	17236
2026-01-30 07:43:58.05	33.23	59.35	-51.8	-53.1	21.6	0.00e+00	0	45	0	1215299584	60	17187
2026-01-30 07:43:59.06	32.41	59.20	-51.7	-53.0	21.4	0.00e+00	0	45	0	1218445312	60	16905
2026-01-30 07:44:00.07	31.60	59.04	-51.4	-52.7	21.9	0.00e+00	0	45	0	1221591040	60	16340
2026-01-30 07:44:01.07	30.80	58.87	-51.3	-52.4	22.2	0.00e+00	0	45	0	1224736768	60	15933
2026-01-30 07:44:02.07	30.02	58.70	-51.8	-53.1	21.8	0.00e+00	0	45	0	1227882496	60	17140
2026-01-30 07:44:03.08	29.24	58.53	-52.5	-53.9	20.9	0.00e+00	0	45	0	1231028224	60	18841
2026-01-30 07:44:04.09	28.47	58.35	-52.4	-53.8	20.9	0.00e+00	0	45	0	1234173952	60	18657
2026-01-30 07:44:05.09	27.71	58.17	-51.9	-53.2	21.5	0.00e+00	0	45	0	1237319680	60	17298
2026-01-30 07:44:06.10	26.96	57.98	-51.5	-52.8	21.8	0.00e+00	0	45	0	1240465408	60	16565
2026-01-30 07:44:07.11	26.22	57.79	-51.5	-52.7	22.1	0.00e+00	0	45	0	1243611136	60	16357
2026-01-30 07:44:08.12	25.50	57.60	-51.9	-53.1	21.6	0.00e+00	0	45	0	1246756864	60	17260
2026-01-30 07:44:09.13	24.78	57.40	-52.8	-54.2	20.9	0.00e+00	0	45	0	1249902592	60	19543
2026-01-30 07:44:10.14	24.07	57.19	-52.7	-54.0	20.8	0.00e+00	0	45	0	1253048320	60	19168
2026-01-30 07:44:11.15	23.37	56.99	-52.3	-53.7	20.6	0.00e+00	0	45	0	1256194048	60	18412
2026-01-30 07:44:12.15	22.69	56.78	-52.3	-53.7	20.7	0.00e+00	0	45	0	1259339776	60	18393
2026-01-30 07:44:13.15	22.02	56.57	-51.8	-53.1	21.5	0.00e+00	0	45	0	1262485504	60	17140
2026-01-30 07:44:14.16	21.36	56.36	-51.7	-52.9	21.7	0.00e+00	0	45	0	1265631232	60	16864
2026-01-30 07:44:15.17	20.70	56.14	-52.4	-53.7	21.1	0.00e+00	0	46	0	1268776960	60	18369
2026-01-30 07:44:16.18	20.06	55.92	-53.1	-54.5	20.2	0.00e+00	0	45	0	1271922688	60	20299
2026-01-30 07:44:17.18	19.43	55.70	-53.3	-54.8	20.0	0.00e+00	0	45	0	1275068416	60	20977
2026-01-30 07:44:18.19	18.80	55.47	-53.1	-54.5	20.3	0.00e+00	0	45	0	1278214144	60	20160
2026-01-30 07:44:19.19	18.19	55.25	-52.6	-53.9	20.9	0.00e+00	0	45	0	1281359872	60	18914
2026-01-30 07:44:20.20	17.59	55.02	-52.5	-53.8	21.0	0.00e+00	0	45	0	1284505600	60	18638
2026-01-30 07:44:21.21	16.99	54.78	-52.5	-53.8	21.1	0.00e+00	0	45	0	1287651328	60	18605
2026-01-30 07:44:22.21	16.41	54.55	-53.0	-54.3	20.8	0.00e+00	0	45	0	1290797056	60	19780
2026-01-30 07:44:23.22	15.84	54.32	-53.6	-55.1	19.9	0.00e+00	0	45	0	1293942784	60	21543
2026-01-30 07:44:24.22	15.28	54.08	-53.7	-55.2	19.6	0.00e+00	0	45	0	1297088512	60	21961
2026-01-30 07:44:25.23	14.72	53.84	-52.7	-54.0	20.6	0.00e+00	0	45	0	1300234240	60	19146
2026-01-30 07:44:26.24	14.17	53.60	-51.8	-53.1	21.6	0.00e+00	0	45	0	1303379968	60	17097
2026-01-30 07:44:27.25	13.63	53.36	-51.7	-53.0	21.7	0.00e+00	0	45	0	1306525696	60	16959
2026-01-30 07:44:28.25	13.11	53.11	-52.7	-54.0	21.0	0.00e+00	0	45	0	1309671424	60	19045
2026-01-30 07:44:29.26	12.59	52.87	-53.8	-55.3	20.0	0.00e+00	0	45	0	1312817152	60	22060
2026-01-30 07:44:30.27	12.08	52.62	-54.1	-55.6	19.6	0.00e+00	0	45	0	1315962880	60	23037
2026-01-30 07:44:31.27	11.58	52.38	-54.3	-55.9	19.3	0.00e+00	0	45	0	1319108608	60	23795
2026-01-30 07:44:32.28	11.08	52.13	-54.4	-56.0	19.2	0.00e+00	0	45	0	1322254336	60	24106
2026-01-30 07:44:33.29	10.60	51.88	-53.6	-55.1	19.8	0.00e+00	0	45	0	1325400064	60	21752
2026-01-30 07:44:34.30	10.12	51.63	-52.3	-53.6	21.0	0.00e+00	0	45	0	1328545792	60	18292
2026-01-30 07:44:35.31	9.65	51.38	-51.5	-52.8	21.7	0.00e+00	0	45	0	1331691520	60	16520
2026-01-30 07:44:36.31	9.19	51.13	-51.8	-53.0	21.6	0.00e+00	0	45	0	1334837248	60	16967
2026-01-30 07:44:37.32	8.73	50.88	-52.8	-54.1	20.8	0.00e+00	0	45	0	1337982976	60	19321
2026-01-30 07:44:38.33	8.29	50.62	-54.3	-55.9	19.0	0.00e+00	0	45	0	1341128704	60	23818
2026-01-30 07:44:39.34	7.85	50.37	-55.2	-57.0	18.0	0.00e+00	0	45	0	1344274432	60	26980
2026-01-30 07:44:40.35	7.41	50.12	-55.4	-57.3	17.7	0.00e+00	0	45	0	1347420160	60	27742
2026-01-30 07:44:41.36	6.99	49.86	-54.7	-56.4	18.5	0.00e+00	0	45	0	1350565888	60	25096
2026-01-30 07:44:42.36	6.57	49.61	-54.2	-55.9	18.7	0.00e+00	0	45	0	1353711616	60	23627
2026-01-30 07:44:43.37	6.16	49.36	-53.7	-55.3	19.2	0.00e+00	0	45	0	1356857344	60	22116
2026-01-30 07:44:44.38	5.76	49.10	-53.4	-54.9	19.8	0.00e+00	0	45	0	1360003072	60	21178
2026-01-30 07:44:45.38	5.36	48.85	-53.4	-54.9	19.9	0.00e+00	0	45	0	1363148800	60	21029
2026-01-30 07:44:46.39	4.97	48.59	-53.6	-55.0	19.9	0.00e+00	0	45	0	1366294528	60	21460
2026-01-30 07:44:47.40	4.59	48.34	-54.3	-56.0	19.1	0.00e+00	0	45	0	1369440256	60	23884
2026-01-30 07:44:48.41	4.21	48.09	-54.8	-56.6	18.1	0.00e+00	0	45	0	1372585984	60	25724
2026-01-30 07:44:49.42	3.84	47.83	-54.2	-55.8	18.6	0.00e+00	0	45	0	1375731712	60	23551
2026-01-30 07:44:50.42	3.48	47.58	-53.1	-54.6	19.6	0.00e+00	0	45	0	1378877440	60	20534
2026-01-30 07:44:51.43	3.11	47.33	-53.0	-54.5	19.9	0.00e+00	0	45	0	1382023168	60	20195
2026-01-30 07:44:52.44	2.76	47.07	-53.6	-55.1	19.7	0.00e+00	0	45	0	1385168896	60	21548
2026-01-30 07:44:53.45	2.41	46.82	-53.9	-55.5	19.4	0.00e+00	0	45	0	1388314624	60	22652
2026-01-30 07:44:54.46	2.07	46.57	-54.0	-55.6	19.4	0.00e+00	0	45	0	1391460352	60	22800
2026-01-30 07:44:55.47	1.73	46.31	-54.2	-55.8	19.2	0.00e+00	0	45	0	1394606080	60	23367
2026-01-30 07:44:56.47	1.40	46.06	-54.5	-56.2	18.8	0.00e+00	0	45	0	1397751808	60	24566
2026-01-30 07:44:57.48	1.08	45.81	-55.3	-57.2	17.9	0.00e+00	0	45	0	1400897536	60	27519
2026-01-30 07:44:58.49	0.76	45.56	-56.2	-58.4	16.6	0.00e+00	0	45	0	1404043264	60	31673
2026-01-30 07:44:59.50	0.44	45.31	-56.5	-58.8	15.9	0.00e+00	0	45	0	1407188992	60	33290
2026-01-30 07:45:00.50	0.13	45.06	-55.8	-58.0	16.4	0.00e+00	0	45	0	1410334720	60	30363
2026-01-30 07:45:01.52	359.82	44.81	-54.8	-56.7	17.9	0.00e+00	0	45	0	1413480448	60	26043
2026-01-30 07:45:02.52	359.52	44.57	-54.2	-55.8	18.9	0.00e+00	0	45	0	1416626176	60	23433
2026-01-30 07:45:03.52	359.23	44.32	-54.1	-55.6	19.4	0.00e+00	0	45	0	1419771904	60	22956
2026-01-30 07:45:04.53	358.94	44.07	-53.5	-54.9	20.0	0.00e+00	0	45	0	1422917632	60	21252
2026-01-30 07:45:05.54	358.65	43.83	-53.8	-55.2	19.4	0.00e+00	0	45	0	1426063360	60	21996
2026-01-30 07:45:06.55	358.37	43.58	-54.5	-56.1	18.8	0.00e+00	0	45	0	1429209088	60	24239
2026-01-30 07:45:07.55	358.09	43.34	-54.9	-56.6	18.5	0.00e+00	0	45	0	1432354816	60	25796
2026-01-30 07:45:08.56	357.81	43.10	-54.8	-56.5	18.3	0.00e+00	0	45	0	1435500544	60	25548
2026-01-30 07:45:09.57	357.54	42.85	-54.6	-56.3	18.6	0.00e+00	0	45	0	1438646272	60	24708
2026-01-30 07:45:10.58	357.28	42.61	-54.9	-56.6	18.4	0.00e+00	0	45	0	1441792000	60	25680
2026-01-30 07:45:11.59	357.02	42.37	-55.1	-56.9	18.1	0.00e+00	0	45	0	1444937728	60	26643
2026-01-30 07:45:12.59	356.76	42.13	-54.6	-56.4	18.2	0.00e+00	0	45	0	1448083456	60	25004
2026-01-30 07:45:13.60	356.50	41.89	-54.3	-56.0	18.5	0.00e+00	0	45	0	1451229184	60	23962
2026-01-30 07:45:14.61	356.25	41.65	-54.0	-55.6	18.9	0.00e+00	0	45	0	1454374912	60	22910
2026-01-30 07:45:15.62	356.01	41.41	-53.1	-54.5	20.0	0.00e+00	0	45	0	1457520640	60	20251
2026-01-30 07:45:16.62	355.77	41.18	-52.8	-54.1	20.4	0.00e+00	0	45	0	1460666368	60	19333
2026-01-30 07:45:17.63	355.53	40.94	-52.6	-54.0	20.7	0.00e+00	0	45	0	1463812096	60	18985
2026-01-30 07:45:18.63	355.29	40.71	-52.7	-54.0	20.6	0.00e+00	0	45	0	1466957824	60	19174
2026-01-30 07:45:19.63	355.06	40.48	-53.1	-54.5	20.2	0.00e+00	0	45	0	1470103552	60	20289
2026-01-30 07:45:20.64	354.83	40.25	-53.8	-55.3	19.6	0.00e+00	0	45	0	1473249280	60	22068
2026-01-30 07:45:21.65	354.61	40.01	-53.9	-55.4	19.5	0.00e+00	0	45	0	1476395008	60	22425
2026-01-30 07:45:22.66	354.38	39.78	-53.8	-55.3	19.5	0.00e+00	0	45	0	1479540736	60	22154
2026-01-30 07:45:23.66	354.16	39.56	-53.5	-55.0	19.7	0.00e+00	0	45	0	1482686464	60	21422
2026-01-30 07:45:24.66	353.95	39.33	-53.3	-54.8	19.9	0.00e+00	0	45	0	1485832192	60	20822
2026-01-30 07:45:25.67	353.74	39.10	-53.2	-54.6	20.0	0.00e+00	0	45	0	1488977920	60	20537
2026-01-30 07:45:26.68	353.53	38.87	-53.3	-54.8	19.8	0.00e+00	0	45	0	1492123648	60	20934
2026-01-30 07:45:27.69	353.32	38.65	-53.4	-54.9	19.7	0.00e+00	0	45	0	1495269376	60	21167
2026-01-30 07:45:28.70	353.11	38.42	-53.5	-55.0	19.6	0.00e+00	0	45	0	1498415104	60	21299
2026-01-30 07:45:29.70	352.91	38.20	-53.5	-55.0	19.6	0.00e+00	0	45	0	1501560832	60	21475
2026-01-30 07:45:30.71	352.71	37.98	-53.1	-54.5	20.0	0.00e+00	0	45	0	1504706560	60	20297
2026-01-30 07:45:31.72	352.52	37.76	-53.0	-54.4	20.1	0.00e+00	0	45	0	1507852288	60	20027
2026-01-30 07:45:32.73	352.32	37.54	-52.8	-54.1	20.6	0.00e+00	0	45	0	1510998016	60	19393
2026-01-30 07:45:33.74	352.13	37.32	-52.6	-54.0	20.7	0.00e+00	0	45	0	1514143744	60	19060
2026-01-30 07:45:34.75	351.94	37.10	-52.6	-53.9	20.9	0.00e+00	0	45	0	1517289472	60	18938
2026-01-30 07:45:35.76	351.76	36.88	-52.6	-53.9	20.9	0.00e+00	0	45	0	1520435200	60	18793
2026-01-30 07:45:36.77	351.57	36.67	-52.9	-54.2	20.6	0.00e+00	0	45	0	1523580928	60	19616
2026-01-30 07:45:37.77	351.40	36.45	-53.1	-54.5	20.3	0.00e+00	0	45	0	1526726656	60	20147
2026-01-30 07:45:38.78	351.22	36.24	-53.2	-54.7	20.0	0.00e+00	0	45	0	1529872384	60	20633
2026-01-30 07:45:39.79	351.04	36.03	-53.0	-54.4	20.0	0.00e+00	0	45	0	1533018112	60	20068
2026-01-30 07:45:40.80	350.87	35.81	-52.9	-54.3	20.1	0.00e+00	0	45	0	1536163840	60	19842
2026-01-30 07:45:41.80	350.70	35.61	-52.8	-54.2	20.1	0.00e+00	0	45	0	1539309568	60	19481
2026-01-30 07:45:42.81	350.53	35.40	-52.6	-54.0	20.4	0.00e+00	0	45	0	1542455296	60	19002
2026-01-30 07:45:43.82	350.36	35.19	-52.5	-53.8	20.6	0.00e+00	0	46	0	1545601024	60	18735
2026-01-30 07:45:44.83	350.20	34.98	-52.4	-53.7	20.8	0.00e+00	0	45	0	1548746752	60	18471
2026-01-30 07:45:45.84	350.03	34.77	-52.3	-53.7	20.9	0.00e+00	0	46	0	1551892480	60	18335
2026-01-30 07:45:46.85	349.87	34.57	-52.4	-53.7	21.0	0.00e+00	0	46	0	1555038208	60	18449
2026-01-30 07:45:47.85	349.71	34.37	-52.6	-53.9	20.9	0.00e+00	0	46	0	1558183936	60	18895
2026-01-30 07:45:48.86	349.56	34.16	-52.6	-53.9	20.8	0.00e+00	0	45	0	1561329664	60	18836
2026-01-30 07:45:49.86	349.40	33.96	-52.7	-54.0	20.8	0.00e+00	0	45	0	1564475392	60	19099
2026-01-30 07:45:50.87	349.25	33.76	-52.4	-53.7	20.9	0.00e+00	0	45	0	1567621120	60	18509
2026-01-30 07:45:51.88	349.10	33.56	-52.2	-53.5	21.1	0.00e+00	0	45	0	1570766848	60	18093
2026-01-30 07:45:52.88	348.95	33.37	-52.0	-53.3	21.4	0.00e+00	0	45	0	1573912576	60	17557
2026-01-30 07:45:53.89	348.81	33.17	-51.8	-53.1	21.5	0.00e+00	0	45	0	1577058304	60	17143
2026-01-30 07:45:54.90	348.66	32.97	-51.6	-52.9	21.6	0.00e+00	0	45	0	1580204032	60	16803
2026-01-30 07:45:55.90	348.52	32.78	-51.6	-52.8	21.5	0.00e+00	0	45	0	1583349760	60	16665
2026-01-30 07:45:56.91	348.38	32.58	-51.6	-52.9	21.4	0.00e+00	0	46	0	1586495488	60	16795
2026-01-30 07:45:57.91	348.24	32.39	-51.8	-53.1	21.3	0.00e+00	0	45	0	1589641216	60	17209
2026-01-30 07:45:58.92	348.10	32.20	-51.8	-53.1	21.3	0.00e+00	0	45	0	1592786944	60	17108
2026-01-30 07:45:59.93	347.96	32.01	-51.7	-53.0	21.3	0.00e+00	0	45	0	1595932672	60	16997
2026-01-30 07:46:00.94	347.83	31.82	-51.7	-53.0	21.4	0.00e+00	0	45	0	1599078400	60	17007
2026-01-30 07:46:01.95	347.69	31.63	-51.6	-52.9	21.5	0.00e+00	0	45	0	1602224128	60	16712
2026-01-30 07:46:02.96	347.56	31.44	-51.6	-52.9	21.5	0.00e+00	0	45	0	1605369856	60	16771
2026-01-30 07:46:03.96	347.43	31.25	-51.6	-52.9	21.6	0.00e+00	0	45	0	1608515584	60	16720
2026-01-30 07:46:04.97	347.30	31.07	-51.5	-52.7	21.8	0.00e+00	0	45	0	1611661312	60	16423
2026-01-30 07:46:05.98	347.18	30.88	-51.6	-52.8	21.7	0.00e+00	0	45	0	1614807040	60	16616
2026-01-30 07:46:06.99	347.05	30.70	-51.6	-52.8	21.7	0.00e+00	0	45	0	1617952768	60	16583
2026-01-30 07:46:07.99	346.93	30.52	-51.6	-52.8	21.7	0.00e+00	0	45	0	1621098496	60	16641
2026-01-30 07:46:09.00	346.80	30.33	-51.7	-53.0	21.5	0.00e+00	0	45	0	1624244224	60	16913
2026-01-30 07:46:10.01	346.68	30.15	-51.9	-53.2	21.4	0.00e+00	0	45	0	1627389952	60	17323
2026-01-30 07:46:11.01	346.56	29.97	-52.0	-53.3	21.2	0.00e+00	0	45	0	1630535680	60	17619
2026-01-30 07:46:12.02	346.44	29.80	-52.2	-53.5	20.9	0.00e+00	0	45	0	1633681408	60	18078
2026-01-30 07:46:13.03	346.33	29.62	-52.1	-53.4	20.9	0.00e+00	0	46	0	1636827136	60	17889
2026-01-30 07:46:14.04	346.21	29.44	-52.2	-53.6	20.7	0.00e+00	0	46	0	1639972864	60	18248
2026-01-30 07:46:15.05	346.10	29.26	-52.1	-53.5	20.8	0.00e+00	0	46	0	1643118592	60	17979
2026-01-30 07:46:16.05	345.98	29.09	-52.1	-53.5	20.8	0.00e+00	0	46	0	1646264320	60	17906
2026-01-30 07:46:17.06	345.87	28.91	-52.1	-53.5	20.8	0.00e+00	0	46	0	1649410048	60	17946
2026-01-30 07:46:18.07	345.76	28.74	-51.9	-53.3	21.0	0.00e+00	0	45	0	1652555776	60	17568
2026-01-30 07:46:19.08	345.65	28.57	-51.8	-53.2	21.0	0.00e+00	0	45	0	1655701504	60	17332
2026-01-30 07:46:20.09	345.54	28.40	-51.7	-53.0	21.2	0.00e+00	0	46	0	1658847232	60	17038
2026-01-30 07:46:21.10	345.43	28.23	-51.7	-53.0	21.2	0.00e+00	0	46	0	1661992960	60	17017
2026-01-30 07:46:22.10	345.33	28.06	-51.6	-52.9	21.5	0.00e+00	0	45	0	1665138688	60	16751
2026-01-30 07:46:23.11	345.22	27.89	-51.4	-52.7	21.7	0.00e+00	0	46	0	1668284416	60	16389
2026-01-30 07:46:24.12	345.12	27.72	-51.4	-52.6	21.8	0.00e+00	0	45	0	1671430144	60	16252
2026-01-30 07:46:25.13	345.02	27.55	-51.2	-52.5	21.9	0.00e+00	0	45	0	1674575872	60	15995
2026-01-30 07:46:26.14	344.92	27.39	-51.2	-52.4	22.0	0.00e+00	0	46	0	1677721600	60	15785
2026-01-30 07:46:27.15	344.81	27.22	-51.2	-52.4	21.9	0.00e+00	0	46	0	1680867328	60	15950
2026-01-30 07:46:28.15	344.72	27.06	-50.9	-52.1	22.2	0.00e+00	0	45	0	1684013056	60	15386
2026-01-30 07:46:29.16	344.62	26.90	-50.9	-52.1	22.2	0.00e+00	0	45	0	1687158784	60	15344
2026-01-30 07:46:30.17	344.52	26.73	-50.9	-52.1	22.2	0.00e+00	0	45	0	1690304512	60	15409
2026-01-30 07:46:31.17	344.42	26.57	-51.0	-52.2	22.1	0.00e+00	0	45	0	1693450240	60	15497
2026-01-30 07:46:32.18	344.33	26.41	-51.1	-52.3	22.1	0.00e+00	0	46	0	1696595968	60	15626
2026-01-30 07:46:33.19	344.23	26.25	-51.0	-52.2	22.1	0.00e+00	0	46	0	1699741696	60	15581
2026-01-30 07:46:34.19	344.14	26.10	-51.0	-52.3	22.0	0.00e+00	0	45	0	1702887424	60	15598
2026-01-30 07:46:35.20	344.05	25.94	-51.1	-52.4	21.9	0.00e+00	0	45	0	1706033152	60	15781
2026-01-30 07:46:36.21	343.96	25.78	-51.1	-52.3	22.0	0.00e+00	0	46	0	1709178880	60	15762
2026-01-30 07:46:37.22	343.87	25.62	-51.1	-52.3	21.9	0.00e+00	0	46	0	1712324608	60	15757
2026-01-30 07:46:38.22	343.78	25.47	-51.1	-52.3	21.9	0.00e+00	0	45	0	1715470336	60	15754
2026-01-30 07:46:39.23	343.69	25.31	-50.9	-52.2	22.1	0.00e+00	0	45	0	1718616064	60	15414
2026-01-30 07:46:40.24	343.60	25.16	-50.8	-52.0	22.2	0.00e+00	0	46	0	1721761792	60	15059
2026-01-30 07:46:41.25	343.52	25.01	-50.8	-52.0	22.1	0.00e+00	0	46	0	1724907520	60	15203
2026-01-30 07:46:42.26	343.43	24.86	-50.8	-52.0	22.2	0.00e+00	0	46	0	1728053248	60	15141
2026-01-30 07:46:43.26	343.34	24.70	-50.7	-51.9	22.2	0.00e+00	0	46	0	1731198976	60	14995
2026-01-30 07:46:44.27	343.26	24.55	-50.8	-52.0	22.1	0.00e+00	0	46	0	1734344704	60	15089
2026-01-30 07:46:45.27	343.18	24.41	-50.8	-52.0	22.0	0.00e+00	0	46	0	1737490432	60	15144
2026-01-30 07:46:46.28	343.09	24.26	-50.8	-52.0	21.9	0.00e+00	0	46	0	1740636160	60	15150
2026-01-30 07:46:47.29	343.01	24.11	-50.9	-52.1	21.9	0.00e+00	0	46	0	1743781888	60	15253
2026-01-30 07:46:48.30	342.93	23.96	-51.0	-52.2	21.7	0.00e+00	0	46	0	1746927616	60	15468
2026-01-30 07:46:49.30	342.85	23.81	-51.1	-52.3	21.6	0.00e+00	0	46	0	1750073344	60	15676
2026-01-30 07:46:50.31	342.77	23.67	-51.1	-52.4	21.6	0.00e+00	0	46	0	1753219072	60	15796
2026-01-30 07:46:51.32	342.69	23.52	-51.2	-52.5	21.4	0.00e+00	0	46	0	1756364800	60	16004
2026-01-30 07:46:52.32	342.62	23.38	-51.2	-52.5	21.4	0.00e+00	0	46	0	1759510528	60	16048
2026-01-30 07:46:53.33	342.54	23.24	-51.2	-52.4	21.4	0.00e+00	0	46	0	1762656256	60	15948
2026-01-30 07:46:54.34	342.46	23.09	-51.1	-52.3	21.6	0.00e+00	0	46	0	1765801984	60	15728
2026-01-30 07:46:55.34	342.39	22.95	-51.1	-52.4	21.6	0.00e+00	0	46	0	1768947712	60	15786
2026-01-30 07:46:56.35	342.31	22.81	-51.0	-52.3	21.5	0.00e+00	0	46	0	1772093440	60	15670
2026-01-30 07:46:57.36	342.24	22.67	-51.1	-52.3	21.5	0.00e+00	0	46	0	1775239168	60	15759
2026-01-30 07:46:58.37	342.16	22.53	-51.1	-52.3	21.5	0.00e+00	0	46	0	1778384896	60	15759
2026-01-30 07:46:59.37	342.09	22.39	-51.1	-52.4	21.6	0.00e+00	0	46	0	1781530624	60	15787
2026-01-30 07:47:00.38	342.02	22.25	-51.1	-52.4	21.4	0.00e+00	0	46	0	1784676352	60	15890
2026-01-30 07:47:01.38	341.95	22.11	-51.2	-52.5	21.4	0.00e+00	0	46	0	1787822080	60	16047
2026-01-30 07:47:02.40	341.88	21.98	-51.3	-52.6	21.4	0.00e+00	0	46	0	1790967808	60	16137
2026-01-30 07:47:03.39	341.81	21.84	-51.1	-52.3	21.6	0.00e+00	0	46	0	1794113536	60	15742
2026-01-30 07:47:04.40	341.74	21.70	-51.2	-52.4	21.5	0.00e+00	0	46	0	1797259264	60	15886
2026-01-30 07:47:05.40	341.67	21.57	-51.0	-52.3	21.5	0.00e+00	0	46	0	1800404992	60	15674
2026-01-30 07:47:06.41	341.60	21.44	-51.0	-52.3	21.6	0.00e+00	0	45	0	1803550720	60	15597
2026-01-30 07:47:07.41	341.53	21.30	-51.1	-52.4	21.5	0.00e+00	0	46	0	1806696448	60	15822
2026-01-30 07:47:08.42	341.47	21.17	-51.0	-52.2	21.6	0.00e+00	0	46	0	1809842176	60	15569
2026-01-30 07:47:09.42	341.40	21.04	-50.9	-52.1	21.7	0.00e+00	0	46	0	1812987904	60	15334
2026-01-30 07:47:10.43	341.34	20.91	-50.9	-52.1	21.7	0.00e+00	0	45	0	1816133632	60	15355
2026-01-30 07:47:11.44	341.27	20.77	-50.9	-52.2	21.6	0.00e+00	0	46	0	1819279360	60	15499
2026-01-30 07:47:12.45	341.20	20.64	-51.0	-52.3	21.6	0.00e+00	0	46	0	1822425088	60	15646
2026-01-30 07:47:13.45	341.14	20.51	-50.8	-52.1	21.7	0.00e+00	0	46	0	1825570816	60	15272
2026-01-30 07:47:14.46	341.08	20.38	-50.8	-52.0	21.7	0.00e+00	0	46	0	1828716544	60	15183
2026-01-30 07:47:15.46	341.02	20.26	-50.9	-52.2	21.6	0.00e+00	0	45	0	1831862272	60	15412
2026-01-30 07:47:16.47	340.95	20.13	-50.8	-52.0	21.6	0.00e+00	0	46	0	1835008000	60	15201
2026-01-30 07:47:17.48	340.89	20.00	-50.8	-52.0	21.7	0.00e+00	0	46	0	1838153728	60	15232
2026-01-30 07:47:18.48	340.83	19.88	-50.8	-52.1	21.6	0.00e+00	0	46	0	1841299456	60	15281
2026-01-30 07:47:19.48	340.77	19.75	-50.9	-52.2	21.6	0.00e+00	0	46	0	1844445184	60	15465
2026-01-30 07:47:20.49	340.71	19.62	-51.0	-52.3	21.5	0.00e+00	0	46	0	1847590912	60	15598
2026-01-30 07:47:21.50	340.65	19.50	-51.0	-52.3	21.5	0.00e+00	0	46	0	1850736640	60	15607
