passes_logs/2026/01/30/R3.2S-Naryan-Mar/R3.2S-Naryan-Mar__20260130_034154_AQUA_rec.log

#Pass ID: 20260130_034154_AQUA
#Satellite: AQUA
#Configuration: AQUA
#almurnet v.1.7.20240730
#Start time: 2026-01-30 03:41:55

#Version: 2.2.20231116
#Station: R3.2S-Naryan-Mar
#Location: 53.008057 lon 67.646978 lat
#TLE: 1 27424U 02022A   26028.91948147  .00001781  00000+0  36607-3 0  9997
#TLE: 2 27424  98.4103 355.5827 0001815  62.4290   1.4641 14.61871847262923

#Time	Az	El	Level	Level2	SNR	BER	BlckErr	Temp	State	Recorded	gain1	gain2
2026-01-30 03:41:55.86	36.27	0.07	-62.5	-79.1	3.5	1.51e+00	0	43	0	0	60	351251
2026-01-30 03:41:56.86	36.21	0.12	-56.7	-77.8	3.5	3.02e+01	0	44	104	0	60	296334
2026-01-30 03:41:57.87	36.15	0.18	-57.2	-77.9	3.6	3.02e+01	0	44	104	0	60	297249
2026-01-30 03:41:58.88	36.09	0.24	-57.0	-77.5	3.6	3.02e+01	0	44	104	0	60	286706
2026-01-30 03:41:59.89	36.02	0.29	-57.5	-77.8	3.5	3.02e+01	0	44	104	0	60	296518
2026-01-30 03:42:00.90	35.96	0.35	-58.0	-78.2	3.5	3.02e+01	0	44	104	0	60	310059
2026-01-30 03:42:01.90	35.89	0.40	-58.7	-78.7	3.5	3.02e+01	0	44	104	0	60	328216
2026-01-30 03:42:02.92	35.83	0.46	-59.0	-78.8	3.5	3.02e+01	0	45	104	0	60	331810
2026-01-30 03:42:03.92	35.76	0.52	-59.0	-79.0	3.5	3.02e+01	0	44	104	0	60	340832
2026-01-30 03:42:04.93	35.70	0.57	-57.3	-78.8	3.5	3.02e+01	0	45	104	0	60	332070
2026-01-30 03:42:05.94	35.63	0.63	-57.6	-78.4	3.5	3.02e+01	0	45	104	0	60	318222
2026-01-30 03:42:06.95	35.57	0.69	-58.6	-78.7	3.6	3.02e+01	0	45	104	0	60	327537
2026-01-30 03:42:07.95	35.50	0.74	-58.4	-79.3	3.5	3.02e+01	0	45	104	0	60	349788
2026-01-30 03:42:08.95	35.44	0.80	-59.3	-79.5	3.5	3.02e+01	0	45	104	0	60	360447
2026-01-30 03:42:09.96	35.37	0.86	-58.3	-79.3	3.5	3.02e+01	0	45	104	0	60	352367
2026-01-30 03:42:10.96	35.30	0.91	-58.2	-79.3	3.5	3.02e+01	0	45	104	0	60	350692
2026-01-30 03:42:11.97	35.24	0.97	-57.8	-79.3	3.5	3.02e+01	0	45	104	0	60	352016
2026-01-30 03:42:12.98	35.17	1.03	-57.7	-79.1	3.5	3.02e+01	0	45	104	0	60	343872
2026-01-30 03:42:13.99	35.10	1.08	-57.1	-79.1	3.5	3.02e+01	0	45	104	0	60	343125
2026-01-30 03:42:14.99	35.03	1.14	-56.7	-78.9	3.5	3.02e+01	0	45	104	0	60	335113
2026-01-30 03:42:16.00	34.97	1.20	-57.4	-79.1	3.5	3.02e+01	0	45	104	0	60	343138
2026-01-30 03:42:17.01	34.90	1.26	-56.9	-78.5	3.5	3.02e+01	0	45	104	0	60	319204
2026-01-30 03:42:18.01	34.83	1.31	-56.5	-78.1	3.5	3.02e+01	0	45	104	0	60	307434
2026-01-30 03:42:19.02	34.76	1.37	-56.1	-78.1	3.5	3.02e+01	0	45	104	0	60	306672
2026-01-30 03:42:20.03	34.69	1.43	-56.0	-78.3	3.5	3.02e+01	0	45	104	0	60	313352
2026-01-30 03:42:21.03	34.62	1.49	-56.0	-78.4	3.5	3.02e+01	0	45	104	0	60	317389
2026-01-30 03:42:22.04	34.55	1.55	-56.9	-78.4	3.5	3.02e+01	0	45	104	0	60	315701
2026-01-30 03:42:23.05	34.48	1.60	-55.8	-77.7	3.6	3.02e+01	0	45	104	0	60	293330
2026-01-30 03:42:24.05	34.41	1.66	-54.5	-77.4	3.5	3.02e+01	0	45	104	0	60	282343
2026-01-30 03:42:25.06	34.34	1.72	-55.6	-78.2	3.5	3.02e+01	0	45	104	0	60	308443
2026-01-30 03:42:26.07	34.27	1.78	-55.2	-76.9	3.6	3.02e+01	0	45	104	0	60	267642
2026-01-30 03:42:27.08	34.19	1.84	-53.3	-76.6	3.6	3.02e+01	0	45	104	0	60	257613
2026-01-30 03:42:28.08	34.12	1.89	-51.4	-76.7	3.6	3.02e+01	0	45	104	0	60	260890
2026-01-30 03:42:29.09	34.05	1.95	-52.4	-74.7	3.7	3.02e+01	0	45	104	0	60	206898
2026-01-30 03:42:30.09	33.98	2.01	-50.2	-75.0	3.7	3.02e+01	0	45	104	0	60	212933
2026-01-30 03:42:31.10	33.90	2.07	-49.9	-72.4	4.1	3.02e+01	0	45	104	0	60	158209
2026-01-30 03:42:32.11	33.83	2.13	-47.6	-72.2	4.3	3.02e+01	0	45	104	0	60	155459
2026-01-30 03:42:33.12	33.76	2.19	-47.5	-71.8	4.2	3.02e+01	0	45	104	0	60	147251
2026-01-30 03:42:34.12	33.68	2.25	-47.5	-71.0	4.3	3.02e+01	0	45	104	0	60	134329
2026-01-30 03:42:35.13	33.61	2.31	-47.5	-70.6	4.2	3.02e+01	0	45	104	0	60	128248
2026-01-30 03:42:36.14	33.53	2.37	-47.4	-70.6	4.3	3.02e+01	0	45	104	0	60	128868
2026-01-30 03:42:37.15	33.46	2.43	-47.4	-71.6	4.3	3.02e+01	0	45	104	0	60	144546
2026-01-30 03:42:38.15	33.38	2.48	-47.4	-72.0	4.3	3.02e+01	0	45	104	0	60	150839
2026-01-30 03:42:39.16	33.31	2.54	-47.3	-72.0	4.3	3.02e+01	0	45	104	0	60	150666
2026-01-30 03:42:40.17	33.23	2.60	-47.3	-71.5	4.3	3.02e+01	0	45	104	0	60	143602
2026-01-30 03:42:41.17	33.16	2.66	-47.3	-71.5	4.3	3.02e+01	0	45	104	0	60	142202
2026-01-30 03:42:42.18	33.08	2.72	-47.3	-71.5	4.3	3.02e+01	0	45	104	0	60	142573
2026-01-30 03:42:43.18	33.00	2.78	-47.3	-70.7	4.3	3.02e+01	0	45	104	0	60	130303
2026-01-30 03:42:44.19	32.92	2.84	-47.3	-70.5	4.2	3.02e+01	0	45	104	0	60	127180
2026-01-30 03:42:45.20	32.85	2.90	-47.3	-71.6	4.4	3.02e+01	0	45	104	0	60	144322
2026-01-30 03:42:46.20	32.77	2.96	-47.2	-71.3	4.3	3.02e+01	0	45	104	0	60	139800
2026-01-30 03:42:47.21	32.69	3.02	-47.2	-71.3	4.3	3.02e+01	0	45	104	0	60	140361
2026-01-30 03:42:48.22	32.61	3.08	-47.3	-71.7	4.3	3.02e+01	0	45	104	0	60	146698
2026-01-30 03:42:49.22	32.53	3.14	-47.2	-71.5	4.2	3.02e+01	0	45	104	0	60	143214
2026-01-30 03:42:50.22	32.45	3.20	-47.2	-71.9	4.3	3.02e+01	0	45	104	0	60	149499
2026-01-30 03:42:51.23	32.37	3.26	-47.3	-71.6	4.3	3.02e+01	0	45	104	0	60	144278
2026-01-30 03:42:52.24	32.29	3.33	-47.2	-70.4	4.3	3.02e+01	0	45	104	0	60	125536
2026-01-30 03:42:53.25	32.21	3.39	-47.1	-70.3	4.2	3.02e+01	0	45	104	0	60	124650
2026-01-30 03:42:54.26	32.13	3.45	-47.1	-71.4	4.3	3.02e+01	0	45	104	0	60	141710
2026-01-30 03:42:55.26	32.05	3.51	-47.1	-71.5	4.4	3.02e+01	0	45	104	0	60	142961
2026-01-30 03:42:56.27	31.96	3.57	-47.1	-71.2	4.3	3.02e+01	0	45	104	0	60	138290
2026-01-30 03:42:57.28	31.88	3.63	-47.1	-71.3	4.4	3.02e+01	0	45	104	0	60	139538
2026-01-30 03:42:58.29	31.80	3.69	-47.1	-71.2	4.2	3.02e+01	0	45	104	0	60	138887
2026-01-30 03:42:59.29	31.72	3.75	-47.1	-71.6	4.3	3.02e+01	0	45	104	0	60	144339
2026-01-30 03:43:00.30	31.63	3.81	-47.2	-71.5	4.4	3.02e+01	0	45	104	0	60	142604
2026-01-30 03:43:01.31	31.55	3.88	-47.2	-70.3	4.3	3.02e+01	0	45	104	0	60	125193
2026-01-30 03:43:02.32	31.46	3.94	-47.2	-71.6	4.3	3.02e+01	0	45	104	0	60	144006
2026-01-30 03:43:03.33	31.38	4.00	-47.2	-71.7	4.4	3.02e+01	0	45	104	0	60	146793
2026-01-30 03:43:04.33	31.29	4.06	-47.3	-71.4	4.3	3.02e+01	0	45	104	0	60	141884
2026-01-30 03:43:05.34	31.21	4.12	-47.3	-71.4	4.3	3.02e+01	0	45	104	0	60	140870
2026-01-30 03:43:06.35	31.12	4.19	-47.3	-71.5	4.3	3.02e+01	0	45	104	0	60	143629
2026-01-30 03:43:07.36	31.03	4.25	-47.2	-71.4	4.3	3.02e+01	0	45	104	0	60	141749
2026-01-30 03:43:08.37	30.95	4.31	-47.3	-71.4	4.3	3.02e+01	0	45	104	0	60	140840
2026-01-30 03:43:09.37	30.86	4.37	-47.3	-70.4	4.4	3.02e+01	0	45	104	0	60	126568
2026-01-30 03:43:10.38	30.77	4.44	-47.2	-71.6	4.3	3.02e+01	0	45	104	0	60	144905
2026-01-30 03:43:11.38	30.68	4.50	-47.2	-71.5	4.4	3.02e+01	0	45	104	0	60	143000
2026-01-30 03:43:12.39	30.60	4.56	-47.2	-71.5	4.3	3.02e+01	0	45	104	0	60	143629
2026-01-30 03:43:13.40	30.51	4.62	-47.2	-71.5	4.3	3.02e+01	0	45	104	0	60	143324
2026-01-30 03:43:14.41	30.42	4.69	-47.2	-71.8	4.3	3.02e+01	0	45	104	0	60	148224
2026-01-30 03:43:15.42	30.33	4.75	-47.2	-71.6	4.3	3.02e+01	0	45	104	0	60	144672
2026-01-30 03:43:16.42	30.24	4.81	-47.2	-71.3	4.3	3.02e+01	0	45	104	0	60	140212
2026-01-30 03:43:17.42	30.15	4.88	-47.2	-70.6	4.3	3.02e+01	0	45	104	0	60	128892
2026-01-30 03:43:18.43	30.05	4.94	-47.2	-70.4	4.2	3.02e+01	0	45	104	0	60	125324
2026-01-30 03:43:19.43	29.96	5.00	-47.3	-71.5	4.3	3.02e+01	0	45	104	0	60	142378
2026-01-30 03:43:20.43	29.87	5.07	-47.2	-71.7	4.3	3.02e+01	0	45	104	0	60	146343
2026-01-30 03:43:21.44	29.78	5.13	-47.3	-71.6	4.3	3.02e+01	0	45	104	0	60	144930
2026-01-30 03:43:22.44	29.69	5.19	-47.3	-71.6	4.3	3.02e+01	0	45	104	0	60	143872
2026-01-30 03:43:23.45	29.59	5.26	-47.3	-71.1	4.2	3.02e+01	0	45	104	0	60	136181
2026-01-30 03:43:24.46	29.50	5.32	-47.3	-71.4	4.3	3.02e+01	0	45	104	0	60	141317
2026-01-30 03:43:25.46	29.40	5.38	-47.4	-71.4	4.2	3.02e+01	0	45	104	0	60	141714
2026-01-30 03:43:26.47	29.31	5.45	-47.3	-70.1	4.0	3.02e+01	0	45	104	0	60	121858
2026-01-30 03:43:27.47	29.21	5.51	-47.2	-68.8	3.9	3.02e+01	0	45	104	0	60	104341
2026-01-30 03:43:28.48	29.12	5.58	-47.2	-68.0	3.7	3.02e+01	0	45	104	0	60	95780
2026-01-30 03:43:29.48	29.02	5.64	-47.1	-66.5	3.6	3.02e+01	0	45	104	0	60	80048
2026-01-30 03:43:30.49	28.92	5.71	-47.0	-65.5	3.6	3.02e+01	0	45	104	0	60	71376
2026-01-30 03:43:31.49	28.83	5.77	-46.8	-64.0	3.5	3.02e+01	0	45	104	0	60	60519
2026-01-30 03:43:32.50	28.73	5.84	-46.6	-63.1	3.5	3.02e+01	0	45	104	0	60	54606
2026-01-30 03:43:33.51	28.63	5.90	-46.5	-62.7	3.5	3.02e+01	0	45	104	0	60	51869
2026-01-30 03:43:34.51	28.53	5.96	-46.5	-62.4	3.5	3.02e+01	0	45	104	0	60	50337
2026-01-30 03:43:35.52	28.43	6.03	-46.5	-62.6	3.5	3.02e+01	0	45	104	0	60	51126
2026-01-30 03:43:36.52	28.33	6.09	-46.6	-62.7	3.5	3.02e+01	0	45	104	0	60	52175
2026-01-30 03:43:37.52	28.23	6.16	-47.1	-62.3	3.5	3.02e+01	0	45	104	0	60	49858
2026-01-30 03:43:38.52	28.13	6.22	-47.3	-62.5	3.6	3.02e+01	0	45	104	0	60	50950
2026-01-30 03:43:39.52	28.03	6.29	-47.5	-65.5	3.5	3.02e+01	0	45	104	0	60	71637
2026-01-30 03:43:40.53	27.93	6.36	-47.7	-62.4	3.5	3.02e+01	0	45	104	0	60	50176
2026-01-30 03:43:41.53	27.83	6.42	-47.7	-64.8	3.5	3.02e+01	0	45	104	0	60	65795
2026-01-30 03:43:42.54	27.73	6.49	-47.9	-62.6	3.5	3.02e+01	0	45	104	0	60	51086
2026-01-30 03:43:43.55	27.62	6.55	-48.1	-62.7	3.5	3.02e+01	0	45	104	0	60	51923
2026-01-30 03:43:44.55	27.52	6.62	-48.7	-63.2	3.5	3.02e+01	0	45	104	0	60	55060
2026-01-30 03:43:45.55	27.42	6.68	-49.4	-64.7	3.5	3.02e+01	0	45	104	0	60	65337
2026-01-30 03:43:46.56	27.31	6.75	-48.4	-62.5	3.5	3.02e+01	0	45	104	0	60	50861
2026-01-30 03:43:47.57	27.20	6.82	-48.3	-63.5	3.6	3.02e+01	0	45	104	0	60	56876
2026-01-30 03:43:48.58	27.10	6.88	-48.3	-62.7	3.5	3.02e+01	0	45	104	0	60	51755
2026-01-30 03:43:49.58	26.99	6.95	-49.3	-64.9	3.5	3.02e+01	0	45	104	0	60	67122
2026-01-30 03:43:50.59	26.88	7.02	-47.9	-62.6	3.5	3.02e+01	0	45	104	0	60	51455
2026-01-30 03:43:51.59	26.78	7.08	-47.8	-62.7	3.5	3.02e+01	0	46	104	0	60	51767
2026-01-30 03:43:52.60	26.67	7.15	-47.5	-62.1	3.5	3.02e+01	0	46	104	0	60	48512
2026-01-30 03:43:53.60	26.56	7.22	-47.9	-62.7	3.5	3.02e+01	0	45	104	0	60	52081
2026-01-30 03:43:54.60	26.45	7.28	-47.9	-62.4	3.5	3.02e+01	0	45	104	0	60	50172
2026-01-30 03:43:55.60	26.34	7.35	-48.1	-64.7	3.5	3.02e+01	0	45	104	0	60	65510
2026-01-30 03:43:56.61	26.23	7.42	-48.0	-62.9	3.5	3.02e+01	0	45	104	0	60	52903
2026-01-30 03:43:57.62	26.12	7.48	-49.8	-68.2	3.5	3.02e+01	0	46	104	0	60	98034
2026-01-30 03:43:58.63	26.01	7.55	-49.0	-64.7	3.5	3.02e+01	0	45	104	0	60	65230
2026-01-30 03:43:59.63	25.90	7.62	-48.8	-63.7	3.5	3.02e+01	0	45	104	0	60	58021
2026-01-30 03:44:00.64	25.78	7.69	-48.4	-62.6	3.5	3.02e+01	0	45	104	0	60	51408
2026-01-30 03:44:01.65	25.67	7.75	-48.5	-63.0	3.5	3.02e+01	0	45	104	0	60	53519
2026-01-30 03:44:02.66	25.55	7.82	-48.5	-63.0	3.5	3.02e+01	0	46	104	0	60	53444
2026-01-30 03:44:03.66	25.44	7.89	-49.2	-62.8	3.5	3.02e+01	0	46	104	0	60	52254
2026-01-30 03:44:04.66	25.33	7.96	-48.9	-62.2	3.5	3.02e+01	0	46	104	0	60	48825
2026-01-30 03:44:05.67	25.21	8.03	-49.8	-65.3	3.5	3.02e+01	0	45	104	0	60	70081
2026-01-30 03:44:06.67	25.09	8.09	-49.6	-63.3	3.5	3.02e+01	0	46	104	0	60	55503
2026-01-30 03:44:07.68	24.98	8.16	-49.8	-63.5	3.5	3.02e+01	0	45	104	0	60	56805
2026-01-30 03:44:08.69	24.86	8.23	-49.7	-63.1	3.5	3.02e+01	0	45	104	0	60	54341
2026-01-30 03:44:09.69	24.74	8.30	-49.6	-63.1	3.5	3.02e+01	0	45	104	0	60	54627
2026-01-30 03:44:10.70	24.62	8.37	-49.5	-62.6	3.5	3.02e+01	0	45	104	0	60	51489
2026-01-30 03:44:11.70	24.50	8.44	-49.6	-62.9	3.5	3.02e+01	0	46	104	0	60	53012
2026-01-30 03:44:12.71	24.38	8.50	-49.6	-63.2	3.5	3.02e+01	0	46	104	0	60	54730
2026-01-30 03:44:13.71	24.26	8.57	-49.7	-63.4	3.5	3.02e+01	0	46	104	0	60	56552
2026-01-30 03:44:14.72	24.14	8.64	-49.0	-61.9	3.5	3.02e+01	0	46	104	0	60	47614
2026-01-30 03:44:15.73	24.02	8.71	-49.0	-61.9	3.5	3.02e+01	0	46	104	0	60	47133
2026-01-30 03:44:16.73	23.90	8.78	-49.1	-62.7	3.5	3.02e+01	0	46	104	0	60	51975
2026-01-30 03:44:17.74	23.77	8.85	-49.2	-63.9	3.5	3.02e+01	0	46	104	0	60	59857
2026-01-30 03:44:18.75	23.65	8.92	-50.1	-63.3	3.5	3.02e+01	0	46	104	0	60	55627
2026-01-30 03:44:19.75	23.52	8.99	-49.2	-62.7	3.5	3.02e+01	0	46	104	0	60	51717
2026-01-30 03:44:20.76	23.40	9.06	-49.2	-62.7	3.5	3.02e+01	0	46	104	0	60	51759
2026-01-30 03:44:21.76	23.27	9.13	-49.4	-63.3	3.5	3.02e+01	0	46	104	0	60	55512
2026-01-30 03:44:22.77	23.14	9.20	-48.2	-61.8	3.5	3.02e+01	0	46	104	0	60	46540
2026-01-30 03:44:23.78	23.02	9.27	-48.1	-61.7	3.5	3.02e+01	0	46	104	0	60	46238
2026-01-30 03:44:24.78	22.89	9.34	-48.5	-62.0	3.5	3.02e+01	0	46	104	0	60	47981
2026-01-30 03:44:25.79	22.76	9.41	-49.1	-62.7	3.5	3.02e+01	0	46	104	0	60	51822
2026-01-30 03:44:26.80	22.63	9.48	-48.7	-62.9	3.6	3.02e+01	0	46	104	0	60	52884
2026-01-30 03:44:27.81	22.50	9.55	-49.0	-63.4	3.5	3.02e+01	0	46	104	0	60	56381
2026-01-30 03:44:28.82	22.37	9.62	-49.9	-64.4	3.5	3.02e+01	0	46	104	0	60	62866
2026-01-30 03:44:29.83	22.24	9.69	-50.1	-64.5	3.5	3.02e+01	0	46	104	0	60	64058
2026-01-30 03:44:30.83	22.11	9.76	-49.7	-63.5	3.5	3.02e+01	0	46	104	0	60	56868
2026-01-30 03:44:31.84	21.97	9.83	-49.8	-63.8	3.5	3.02e+01	0	46	104	0	60	59106
2026-01-30 03:44:32.85	21.84	9.90	-48.7	-61.9	3.5	3.02e+01	0	46	104	0	60	47556
2026-01-30 03:44:33.85	21.70	9.97	-49.5	-63.8	3.5	3.02e+01	0	46	104	0	60	58618
2026-01-30 03:44:34.85	21.57	10.04	-48.6	-61.3	3.5	3.02e+01	0	46	104	0	60	44371
2026-01-30 03:44:35.86	21.43	10.11	-49.8	-63.3	3.5	3.02e+01	0	46	104	0	60	55488
2026-01-30 03:44:36.86	21.30	10.18	-50.2	-63.1	3.5	3.02e+01	0	46	104	0	60	54101
2026-01-30 03:44:37.87	21.16	10.25	-49.8	-62.3	3.5	3.02e+01	0	46	104	0	60	49497
2026-01-30 03:44:38.88	21.02	10.32	-49.4	-61.5	3.5	3.02e+01	0	46	104	0	60	45168
2026-01-30 03:44:39.88	20.88	10.39	-49.2	-61.2	3.5	3.02e+01	0	46	104	0	60	43505
2026-01-30 03:44:40.88	20.75	10.46	-49.5	-61.5	3.5	3.02e+01	0	45	104	0	60	45438
2026-01-30 03:44:41.89	20.60	10.54	-50.0	-62.0	3.5	3.02e+01	0	46	104	0	60	47780
2026-01-30 03:44:42.90	20.46	10.61	-50.5	-63.4	3.5	3.02e+01	0	46	104	0	60	56066
2026-01-30 03:44:43.90	20.32	10.68	-50.4	-63.1	3.5	3.02e+01	0	46	104	0	60	54260
2026-01-30 03:44:44.90	20.18	10.75	-52.5	-66.5	3.5	3.02e+01	0	46	104	0	60	80371
2026-01-30 03:44:45.91	20.04	10.82	-50.1	-62.1	3.5	3.02e+01	0	46	104	0	60	48395
2026-01-30 03:44:46.92	19.89	10.89	-50.0	-61.9	3.6	3.02e+01	0	46	104	0	60	47287
2026-01-30 03:44:47.93	19.75	10.96	-49.8	-61.4	3.5	3.02e+01	0	46	104	0	60	44529
2026-01-30 03:44:48.94	19.60	11.04	-50.1	-62.2	3.5	3.02e+01	0	46	104	0	60	49002
2026-01-30 03:44:49.94	19.46	11.11	-50.3	-61.9	3.5	3.02e+01	0	46	104	0	60	47544
2026-01-30 03:44:50.95	19.31	11.18	-50.7	-62.6	3.5	3.02e+01	0	46	104	0	60	51511
2026-01-30 03:44:51.95	19.16	11.25	-50.6	-63.2	3.5	3.02e+01	0	45	104	0	60	54943
2026-01-30 03:44:52.95	19.01	11.32	-52.7	-65.3	3.5	3.02e+01	0	46	104	0	60	70360
2026-01-30 03:44:53.96	18.86	11.39	-51.3	-63.4	3.5	3.02e+01	0	45	104	0	60	56004
2026-01-30 03:44:54.97	18.71	11.47	-50.9	-63.0	3.5	3.02e+01	0	45	104	0	60	53977
2026-01-30 03:44:55.97	18.56	11.54	-50.9	-63.2	3.5	3.02e+01	0	46	104	0	60	55286
2026-01-30 03:44:56.98	18.41	11.61	-49.6	-61.6	3.5	3.02e+01	0	46	104	0	60	45508
2026-01-30 03:44:57.99	18.26	11.68	-51.1	-64.1	3.5	3.02e+01	0	46	104	0	60	60925
2026-01-30 03:44:58.99	18.10	11.76	-49.6	-61.7	3.5	3.02e+01	0	46	104	0	60	46344
2026-01-30 03:45:00.00	17.95	11.83	-51.2	-64.5	3.5	3.02e+01	0	46	104	0	60	64050
2026-01-30 03:45:01.01	17.79	11.90	-51.6	-65.4	3.5	3.02e+01	0	46	104	0	60	70628
2026-01-30 03:45:02.02	17.63	11.97	-49.9	-62.1	3.5	3.02e+01	0	46	104	0	60	48633
2026-01-30 03:45:03.03	17.48	12.05	-49.8	-62.2	3.5	3.02e+01	0	46	104	0	60	48742
2026-01-30 03:45:04.03	17.32	12.12	-49.9	-62.3	3.5	3.02e+01	0	46	104	0	60	49386
2026-01-30 03:45:05.04	17.16	12.19	-50.0	-61.8	3.5	3.02e+01	0	46	104	0	60	46789
2026-01-30 03:45:06.04	17.00	12.26	-50.1	-61.8	3.5	3.02e+01	0	46	104	0	60	46646
2026-01-30 03:45:07.05	16.84	12.33	-50.5	-63.3	3.5	3.02e+01	0	46	104	0	60	55603
2026-01-30 03:45:08.06	16.68	12.41	-51.2	-63.5	3.5	3.02e+01	0	46	104	0	60	57063
2026-01-30 03:45:09.06	16.52	12.48	-52.4	-67.3	3.5	3.02e+01	0	46	104	0	60	87900
2026-01-30 03:45:10.07	16.35	12.55	-50.8	-62.6	3.5	3.02e+01	0	46	104	0	60	51529
2026-01-30 03:45:11.08	16.19	12.62	-51.0	-62.7	3.5	3.02e+01	0	46	104	0	60	51968
2026-01-30 03:45:12.09	16.02	12.70	-51.3	-62.8	3.5	3.02e+01	0	46	104	0	60	52753
2026-01-30 03:45:13.10	15.86	12.77	-50.4	-61.4	3.5	3.02e+01	0	46	104	0	60	44609
2026-01-30 03:45:14.10	15.69	12.84	-52.4	-64.3	3.5	3.02e+01	0	46	104	0	60	62754
2026-01-30 03:45:15.10	15.53	12.91	-50.6	-61.8	3.5	3.02e+01	0	46	104	0	60	46561
2026-01-30 03:45:16.11	15.36	12.99	-52.1	-63.9	3.5	3.02e+01	0	46	104	0	60	59614
2026-01-30 03:45:17.12	15.19	13.06	-53.2	-66.4	3.5	3.02e+01	0	46	104	0	60	79041
2026-01-30 03:45:18.13	15.02	13.13	-50.4	-61.5	3.5	3.02e+01	0	46	104	0	60	45028
2026-01-30 03:45:19.14	14.84	13.21	-50.6	-61.8	3.5	3.02e+01	0	46	104	0	60	46562
2026-01-30 03:45:20.14	14.67	13.28	-50.3	-61.3	3.5	3.02e+01	0	46	104	0	60	44332
2026-01-30 03:45:21.15	14.50	13.35	-51.1	-62.2	3.5	3.02e+01	0	45	104	0	60	49207
2026-01-30 03:45:22.15	14.33	13.42	-50.8	-62.1	3.5	3.02e+01	0	46	104	0	60	48306
2026-01-30 03:45:23.16	14.15	13.50	-52.1	-63.8	3.5	3.02e+01	0	46	104	0	60	58692
2026-01-30 03:45:24.17	13.97	13.57	-52.1	-63.8	3.5	3.02e+01	0	45	104	0	60	58899
2026-01-30 03:45:25.17	13.80	13.64	-54.0	-68.5	3.5	3.02e+01	0	46	104	0	60	100697
2026-01-30 03:45:26.18	13.62	13.71	-51.1	-62.4	3.5	3.02e+01	0	46	104	0	60	50223
2026-01-30 03:45:27.19	13.44	13.79	-50.5	-61.6	3.6	3.02e+01	0	46	104	0	60	45904
2026-01-30 03:45:28.20	13.26	13.86	-50.3	-61.3	3.6	3.02e+01	0	46	104	0	60	44326
2026-01-30 03:45:29.20	13.08	13.93	-50.9	-62.3	3.5	3.02e+01	0	46	104	0	60	49363
2026-01-30 03:45:30.21	12.90	14.00	-52.4	-64.5	3.5	3.02e+01	0	46	104	0	60	63702
2026-01-30 03:45:31.22	12.72	14.08	-50.4	-61.7	3.5	3.02e+01	0	46	104	0	60	46340
2026-01-30 03:45:32.23	12.53	14.15	-51.9	-63.8	3.6	3.02e+01	0	46	104	0	60	58640
2026-01-30 03:45:33.23	12.35	14.22	-52.9	-66.3	3.5	3.02e+01	0	46	104	0	60	78792
2026-01-30 03:45:34.24	12.16	14.29	-50.1	-61.3	3.5	3.02e+01	0	46	104	0	60	44205
2026-01-30 03:45:35.24	11.98	14.37	-49.8	-60.8	3.6	3.02e+01	0	46	104	0	60	41752
2026-01-30 03:45:36.25	11.79	14.44	-49.8	-60.8	3.5	3.02e+01	0	46	104	0	60	41504
2026-01-30 03:45:37.26	11.60	14.51	-51.4	-63.0	3.5	3.02e+01	0	46	104	0	60	53472
2026-01-30 03:45:38.27	11.41	14.58	-50.6	-61.9	3.5	3.02e+01	0	46	104	0	60	47096
2026-01-30 03:45:39.27	11.22	14.65	-52.4	-64.5	3.5	3.02e+01	0	46	104	0	60	63670
2026-01-30 03:45:40.28	11.03	14.73	-51.1	-62.6	3.5	3.02e+01	0	46	104	0	60	51126
2026-01-30 03:45:41.29	10.84	14.80	-53.6	-67.4	3.5	3.02e+01	0	46	104	0	60	89100
2026-01-30 03:45:42.30	10.64	14.87	-50.6	-62.0	3.5	3.02e+01	0	46	104	0	60	48086
2026-01-30 03:45:43.30	10.45	14.94	-50.2	-61.4	3.5	3.02e+01	0	46	104	0	60	44915
2026-01-30 03:45:44.31	10.25	15.01	-49.9	-60.9	3.5	3.02e+01	0	46	104	0	60	42328
2026-01-30 03:45:45.32	10.05	15.08	-50.4	-61.7	3.5	3.02e+01	0	46	104	0	60	46216
2026-01-30 03:45:46.33	9.86	15.16	-51.3	-63.2	3.5	3.02e+01	0	46	104	0	60	55114
2026-01-30 03:45:47.34	9.66	15.23	-50.6	-62.0	3.5	3.02e+01	0	46	104	0	60	47693
2026-01-30 03:45:48.34	9.46	15.30	-52.2	-64.1	3.5	3.02e+01	0	45	104	0	60	61018
2026-01-30 03:45:49.34	9.26	15.37	-53.2	-66.6	3.5	3.02e+01	0	46	104	0	60	81797
2026-01-30 03:45:50.35	9.06	15.44	-50.6	-61.8	3.5	3.02e+01	0	46	104	0	60	47071
2026-01-30 03:45:51.35	8.86	15.51	-50.5	-61.6	3.5	3.02e+01	0	46	104	0	60	45842
2026-01-30 03:45:52.36	8.65	15.58	-50.6	-61.7	3.5	3.02e+01	0	46	104	0	60	46483
2026-01-30 03:45:53.36	8.45	15.65	-52.9	-65.7	3.5	3.02e+01	0	46	104	0	60	73400
2026-01-30 03:45:54.37	8.24	15.72	-50.1	-61.3	3.5	3.02e+01	0	45	104	0	60	43950
2026-01-30 03:45:55.38	8.03	15.79	-51.9	-63.6	3.5	3.02e+01	0	45	104	0	60	57304
2026-01-30 03:45:56.39	7.83	15.86	-51.0	-62.2	3.6	3.02e+01	0	45	104	0	60	48984
2026-01-30 03:45:57.40	7.62	15.93	-53.4	-67.1	3.5	3.02e+01	0	46	104	0	60	86201
2026-01-30 03:45:58.41	7.40	16.00	-50.9	-62.2	3.5	3.02e+01	0	46	104	0	60	48934
2026-01-30 03:45:59.42	7.19	16.07	-50.8	-61.8	3.5	3.02e+01	0	46	104	0	60	46684
2026-01-30 03:46:00.43	6.98	16.14	-50.4	-61.4	3.5	3.02e+01	0	46	104	0	60	44630
2026-01-30 03:46:01.43	6.77	16.21	-49.8	-60.7	3.5	3.02e+01	0	46	104	0	60	41433
2026-01-30 03:46:02.44	6.55	16.28	-52.3	-64.2	3.5	3.02e+01	0	46	104	0	60	61585
2026-01-30 03:46:03.45	6.34	16.35	-51.5	-63.0	3.5	3.02e+01	0	46	104	0	60	53684
2026-01-30 03:46:04.45	6.12	16.42	-50.7	-61.8	3.5	3.02e+01	0	46	104	0	60	46953
2026-01-30 03:46:05.46	5.90	16.49	-52.0	-63.7	3.5	3.02e+01	0	46	104	0	60	57962
2026-01-30 03:46:06.47	5.68	16.56	-50.2	-61.2	3.5	3.02e+01	0	46	104	0	60	43475
2026-01-30 03:46:07.47	5.47	16.63	-50.1	-61.0	3.5	3.02e+01	0	46	104	0	60	42913
2026-01-30 03:46:08.48	5.24	16.69	-49.9	-60.8	3.5	3.02e+01	0	46	104	0	60	41570
2026-01-30 03:46:09.48	5.02	16.76	-50.4	-61.4	3.5	3.02e+01	0	46	104	0	60	44505
2026-01-30 03:46:10.49	4.80	16.83	-49.7	-60.6	3.5	3.02e+01	0	46	104	0	60	40726
2026-01-30 03:46:11.50	4.58	16.90	-52.5	-64.5	3.5	3.02e+01	0	46	104	0	60	63966
2026-01-30 03:46:12.51	4.35	16.97	-50.4	-61.5	3.5	3.02e+01	0	46	104	0	60	45375
2026-01-30 03:46:13.51	4.13	17.03	-52.4	-64.3	3.5	3.02e+01	0	46	104	0	60	62523
2026-01-30 03:46:14.52	3.90	17.10	-51.0	-62.1	3.5	3.02e+01	0	46	104	0	60	48608
2026-01-30 03:46:15.53	3.67	17.17	-50.6	-61.7	3.5	3.02e+01	0	46	104	0	60	46214
2026-01-30 03:46:16.53	3.44	17.23	-50.3	-61.4	3.5	3.02e+01	0	46	104	0	60	44576
2026-01-30 03:46:17.54	3.21	17.30	-51.5	-62.9	3.5	3.02e+01	0	46	104	0	60	53205
2026-01-30 03:46:18.55	2.98	17.36	-51.5	-63.0	3.5	3.02e+01	0	46	104	0	60	53544
2026-01-30 03:46:19.55	2.75	17.43	-51.4	-62.7	3.5	3.02e+01	0	46	104	0	60	51728
2026-01-30 03:46:20.55	2.51	17.49	-50.5	-61.4	3.5	3.02e+01	0	46	104	0	60	44706
2026-01-30 03:46:21.56	2.28	17.56	-52.3	-63.9	3.5	3.02e+01	0	46	104	0	60	59302
2026-01-30 03:46:22.57	2.04	17.62	-50.8	-61.8	3.5	3.02e+01	0	46	104	0	60	46963
2026-01-30 03:46:23.58	1.80	17.69	-50.6	-61.5	3.5	3.02e+01	0	46	104	0	60	45214
2026-01-30 03:46:24.58	1.57	17.75	-50.0	-60.9	3.5	3.02e+01	0	46	104	0	60	41983
2026-01-30 03:46:25.58	1.33	17.82	-49.8	-60.7	3.5	3.02e+01	0	46	104	0	60	41006
2026-01-30 03:46:26.58	1.09	17.88	-50.0	-60.8	3.5	3.02e+01	0	46	104	0	60	41697
2026-01-30 03:46:27.58	0.85	17.94	-50.6	-61.6	3.5	3.02e+01	0	46	104	0	60	45588
2026-01-30 03:46:28.59	0.61	18.00	-50.1	-61.0	3.5	3.02e+01	0	46	104	0	60	42597
2026-01-30 03:46:29.60	0.36	18.07	-52.5	-64.4	3.5	3.02e+01	0	46	104	0	60	63155
2026-01-30 03:46:30.60	0.12	18.13	-50.5	-61.5	3.5	3.02e+01	0	46	104	0	60	45439
2026-01-30 03:46:31.61	359.87	18.19	-50.0	-60.8	3.6	3.02e+01	0	46	104	0	60	41705
2026-01-30 03:46:32.61	359.63	18.25	-50.5	-61.4	3.5	3.02e+01	0	46	104	0	60	44917
2026-01-30 03:46:33.62	359.38	18.31	-51.0	-62.3	3.5	3.02e+01	0	46	104	0	60	49359
2026-01-30 03:46:34.63	359.13	18.37	-49.8	-60.6	3.5	3.02e+01	0	46	104	0	60	40703
2026-01-30 03:46:35.63	358.88	18.43	-51.0	-62.2	3.5	3.02e+01	0	46	104	0	60	49040
2026-01-30 03:46:36.64	358.63	18.49	-50.2	-61.2	3.5	3.02e+01	0	46	104	0	60	43881
2026-01-30 03:46:37.65	358.38	18.55	-52.5	-64.7	3.5	3.02e+01	0	46	104	0	60	65553
2026-01-30 03:46:38.65	358.13	18.61	-50.6	-61.9	3.5	3.02e+01	0	46	104	0	60	47590
2026-01-30 03:46:39.66	357.87	18.67	-50.2	-61.3	3.5	3.02e+01	0	46	104	0	60	44265
2026-01-30 03:46:40.66	357.62	18.73	-49.7	-60.7	3.5	3.02e+01	0	46	104	0	60	41212
2026-01-30 03:46:41.67	357.36	18.79	-50.2	-61.3	3.5	3.02e+01	0	46	104	0	60	44200
2026-01-30 03:46:42.68	357.10	18.85	-49.8	-60.8	3.5	3.02e+01	0	46	104	0	60	41787
2026-01-30 03:46:43.69	356.84	18.90	-50.8	-62.2	3.5	3.02e+01	0	46	104	0	60	48850
2026-01-30 03:46:44.70	356.58	18.96	-50.3	-61.5	3.5	3.02e+01	0	46	104	0	60	45164
2026-01-30 03:46:45.71	356.32	19.02	-52.1	-64.1	3.5	3.02e+01	0	46	104	0	60	60908
2026-01-30 03:46:46.71	356.06	19.07	-50.6	-61.8	3.5	3.02e+01	0	46	104	0	60	46542
2026-01-30 03:46:47.72	355.80	19.13	-50.2	-61.2	3.5	3.02e+01	0	46	104	0	60	43840
2026-01-30 03:46:48.73	355.54	19.18	-50.7	-61.9	3.5	3.02e+01	0	46	104	0	60	47467
2026-01-30 03:46:49.73	355.27	19.24	-51.2	-62.7	3.5	3.02e+01	0	46	104	0	60	52015
2026-01-30 03:46:50.73	355.01	19.29	-49.9	-60.9	3.5	3.02e+01	0	46	104	0	60	42209
2026-01-30 03:46:51.74	354.74	19.34	-51.0	-62.4	3.5	3.02e+01	0	46	104	0	60	50286
2026-01-30 03:46:52.75	354.47	19.40	-50.5	-61.7	3.5	3.02e+01	0	45	104	0	60	46042
2026-01-30 03:46:53.75	354.21	19.45	-52.2	-64.1	3.6	3.02e+01	0	46	104	0	60	60873
2026-01-30 03:46:54.76	353.94	19.50	-50.8	-62.0	3.6	3.02e+01	0	46	104	0	60	47817
2026-01-30 03:46:55.77	353.67	19.55	-50.3	-61.3	3.5	3.02e+01	0	46	104	0	60	44234
2026-01-30 03:46:56.77	353.40	19.60	-50.3	-61.3	3.5	3.02e+01	0	46	104	0	60	44428
2026-01-30 03:46:57.78	353.12	19.65	-50.7	-61.8	3.5	3.02e+01	0	46	104	0	60	47037
2026-01-30 03:46:58.79	352.85	19.70	-50.3	-61.3	3.5	3.02e+01	0	46	104	0	60	44093
2026-01-30 03:46:59.79	352.58	19.75	-51.5	-62.9	3.5	3.02e+01	0	46	104	0	60	52880
2026-01-30 03:47:00.80	352.30	19.80	-52.2	-63.8	3.5	3.02e+01	0	46	104	0	60	58836
2026-01-30 03:47:01.81	352.02	19.85	-52.0	-63.6	3.6	3.02e+01	0	46	104	0	60	57707
2026-01-30 03:47:02.82	351.75	19.90	-50.9	-62.0	3.5	3.02e+01	0	46	104	0	60	47925
2026-01-30 03:47:03.82	351.47	19.94	-50.5	-61.4	3.5	3.02e+01	0	46	104	0	60	44632
2026-01-30 03:47:04.83	351.19	19.99	-52.1	-63.5	3.5	3.02e+01	0	46	104	0	60	57183
2026-01-30 03:47:05.84	350.91	20.04	-51.8	-63.0	3.5	3.02e+01	0	46	104	0	60	53825
2026-01-30 03:47:06.84	350.63	20.08	-50.8	-61.8	3.5	3.02e+01	0	46	104	0	60	46964
2026-01-30 03:47:07.85	350.35	20.12	-51.6	-62.8	3.5	3.02e+01	0	46	104	0	60	52256
2026-01-30 03:47:08.86	350.07	20.17	-52.6	-64.3	3.5	3.02e+01	0	46	104	0	60	62298
2026-01-30 03:47:09.87	349.78	20.21	-51.5	-62.7	3.5	3.02e+01	0	46	104	0	60	51956
2026-01-30 03:47:10.87	349.50	20.25	-50.9	-62.0	3.5	3.02e+01	0	46	104	0	60	47655
2026-01-30 03:47:11.88	349.21	20.30	-50.5	-61.5	3.5	3.02e+01	0	46	104	0	60	45164
2026-01-30 03:47:12.88	348.93	20.34	-50.7	-61.8	3.5	3.02e+01	0	46	104	0	60	46805
2026-01-30 03:47:13.88	348.65	20.38	-51.0	-62.2	3.5	3.02e+01	0	46	104	0	60	48999
2026-01-30 03:47:14.88	348.36	20.42	-51.1	-62.3	3.5	3.02e+01	0	46	104	0	60	49468
2026-01-30 03:47:15.88	348.07	20.46	-52.1	-63.5	3.5	3.02e+01	0	46	104	0	60	56688
2026-01-30 03:47:16.89	347.78	20.50	-53.2	-65.2	3.5	3.02e+01	0	46	104	0	60	69344
2026-01-30 03:47:17.90	347.49	20.53	-52.2	-63.7	3.5	3.02e+01	0	46	104	0	60	57938
2026-01-30 03:47:18.91	347.20	20.57	-51.3	-62.4	3.5	3.02e+01	0	46	104	0	60	49900
2026-01-30 03:47:19.91	346.91	20.61	-50.8	-61.8	3.5	3.02e+01	0	46	104	0	60	46908
2026-01-30 03:47:20.92	346.62	20.65	-52.5	-64.3	3.5	3.02e+01	0	46	104	0	60	62317
2026-01-30 03:47:21.93	346.33	20.68	-52.2	-63.8	3.5	3.02e+01	0	46	104	0	60	59014
2026-01-30 03:47:22.93	346.04	20.72	-51.1	-62.2	3.5	3.02e+01	0	46	104	0	60	48967
2026-01-30 03:47:23.93	345.74	20.75	-52.0	-63.5	3.5	3.02e+01	0	46	104	0	60	56666
2026-01-30 03:47:24.94	345.45	20.78	-53.7	-66.4	3.5	3.02e+01	0	46	104	0	60	79114
2026-01-30 03:47:25.94	345.15	20.81	-52.1	-63.8	3.6	3.02e+01	0	46	104	0	60	58586
2026-01-30 03:47:26.95	344.86	20.85	-51.5	-62.9	3.5	3.02e+01	0	46	104	0	60	52969
2026-01-30 03:47:27.96	344.56	20.88	-51.2	-62.5	3.5	3.02e+01	0	46	104	0	60	51005
2026-01-30 03:47:28.97	344.26	20.91	-50.9	-62.1	3.5	3.02e+01	0	46	104	0	60	48180
2026-01-30 03:47:29.97	343.97	20.94	-51.3	-62.5	3.6	3.02e+01	0	46	104	0	60	50930
2026-01-30 03:47:30.98	343.67	20.97	-52.0	-63.5	3.5	3.02e+01	0	46	104	0	60	56810
2026-01-30 03:47:31.98	343.37	20.99	-52.4	-64.2	3.5	3.02e+01	0	46	104	0	60	61409
2026-01-30 03:47:32.99	343.07	21.02	-54.5	-68.2	3.5	3.02e+01	0	46	104	0	60	97274
2026-01-30 03:47:34.00	342.77	21.05	-51.0	-62.1	3.5	3.02e+01	0	46	104	0	60	48442
2026-01-30 03:47:35.01	342.47	21.07	-50.8	-61.9	3.4	3.02e+01	0	46	104	0	60	47110
2026-01-30 03:47:36.02	342.16	21.10	-50.4	-61.4	3.5	3.02e+01	0	46	104	0	60	44807
2026-01-30 03:47:37.03	341.86	21.12	-53.0	-65.1	3.5	3.02e+01	0	46	104	0	60	68503
2026-01-30 03:47:38.03	341.56	21.15	-52.2	-64.0	3.5	3.02e+01	0	46	104	0	60	60546
2026-01-30 03:47:39.04	341.26	21.17	-51.7	-63.1	3.5	3.02e+01	0	46	104	0	60	54464
2026-01-30 03:47:40.05	340.95	21.19	-51.8	-63.3	3.5	3.02e+01	0	46	104	0	60	55593
2026-01-30 03:47:41.06	340.65	21.21	-53.7	-66.5	3.5	3.02e+01	0	46	104	0	60	80549
2026-01-30 03:47:42.06	340.35	21.23	-50.5	-61.5	3.5	3.02e+01	0	46	104	0	60	45462
2026-01-30 03:47:43.07	340.04	21.25	-50.4	-61.5	3.5	3.02e+01	0	46	104	0	60	45115
2026-01-30 03:47:44.08	339.73	21.27	-50.4	-61.6	3.5	3.02e+01	0	46	104	0	60	45736
2026-01-30 03:47:45.09	339.43	21.29	-51.2	-62.6	3.5	3.02e+01	0	46	104	0	60	51432
2026-01-30 03:47:46.10	339.12	21.31	-51.6	-63.1	3.5	3.02e+01	0	46	104	0	60	54345
2026-01-30 03:47:47.10	338.82	21.32	-52.0	-63.9	3.5	3.02e+01	0	46	104	0	60	59302
2026-01-30 03:47:48.10	338.51	21.34	-52.1	-64.0	3.5	3.02e+01	0	46	104	0	60	59978
2026-01-30 03:47:49.11	338.21	21.35	-54.7	-69.1	3.5	3.02e+01	0	46	104	0	60	108769
2026-01-30 03:47:50.12	337.90	21.37	-51.8	-63.4	3.5	3.02e+01	0	46	104	0	60	56520
2026-01-30 03:47:51.13	337.59	21.38	-52.1	-63.7	3.5	3.02e+01	0	46	104	0	60	58150
2026-01-30 03:47:52.14	337.28	21.39	-51.9	-63.3	3.5	3.02e+01	0	46	104	0	60	55722
2026-01-30 03:47:53.15	336.97	21.40	-56.2	-72.8	3.6	3.02e+01	0	46	104	0	60	166063
2026-01-30 03:47:54.15	336.67	21.41	-52.6	-64.1	3.5	3.02e+01	0	46	104	0	60	61327
2026-01-30 03:47:55.16	336.36	21.42	-52.1	-63.6	3.5	3.02e+01	0	46	104	0	60	57654
2026-01-30 03:47:56.16	336.05	21.43	-52.6	-64.3	3.5	3.02e+01	0	46	104	0	60	62518
2026-01-30 03:47:57.17	335.74	21.44	-55.4	-69.6	3.5	3.02e+01	0	46	104	0	60	115371
2026-01-30 03:47:58.18	335.43	21.44	-52.0	-63.3	3.5	3.02e+01	0	46	104	0	60	55876
2026-01-30 03:47:59.19	335.12	21.45	-52.1	-63.5	3.5	3.02e+01	0	46	104	0	60	56793
2026-01-30 03:48:00.20	334.81	21.46	-51.7	-63.0	3.5	3.02e+01	0	46	104	0	60	53457
2026-01-30 03:48:01.21	334.50	21.46	-50.8	-61.7	3.6	3.02e+01	0	46	104	0	60	46469
2026-01-30 03:48:02.21	334.19	21.46	-52.4	-64.0	3.5	3.02e+01	0	46	104	0	60	60243
2026-01-30 03:48:03.20	333.89	21.47	-52.5	-64.1	3.5	3.02e+01	0	46	104	0	60	61096
2026-01-30 03:48:04.21	333.58	21.47	-52.0	-63.3	3.5	3.02e+01	0	46	104	0	60	55939
2026-01-30 03:48:05.21	333.27	21.47	-55.3	-69.2	3.5	3.02e+01	0	46	104	0	60	109367
2026-01-30 03:48:06.21	332.97	21.47	-50.9	-61.9	3.5	3.02e+01	0	46	104	0	60	47209
2026-01-30 03:48:07.22	332.66	21.47	-50.7	-61.6	3.5	3.02e+01	0	46	104	0	60	45567
2026-01-30 03:48:08.22	332.35	21.47	-50.5	-61.3	3.5	3.02e+01	0	46	104	0	60	44211
2026-01-30 03:48:09.22	332.04	21.47	-52.2	-63.7	3.6	3.02e+01	0	46	104	0	60	58563
2026-01-30 03:48:10.23	331.73	21.46	-51.9	-63.5	3.5	3.02e+01	0	46	104	0	60	56789
2026-01-30 03:48:11.24	331.42	21.46	-54.8	-69.3	3.5	3.02e+01	0	46	104	0	60	110920
2026-01-30 03:48:12.25	331.11	21.45	-53.0	-65.8	3.5	3.02e+01	0	46	104	0	60	74400
2026-01-30 03:48:13.26	330.80	21.45	-52.7	-64.9	3.5	3.02e+01	0	46	104	0	60	67204
2026-01-30 03:48:14.26	330.49	21.44	-51.6	-63.4	3.5	3.02e+01	0	46	104	0	60	56312
2026-01-30 03:48:15.27	330.18	21.43	-51.3	-63.0	3.5	3.02e+01	0	46	104	0	60	53784
2026-01-30 03:48:16.28	329.87	21.42	-50.8	-62.4	3.5	3.02e+01	0	46	104	0	60	50089
2026-01-30 03:48:17.28	329.57	21.42	-50.1	-61.2	3.5	3.02e+01	0	46	104	0	60	43736
2026-01-30 03:48:18.28	329.26	21.41	-51.7	-63.7	3.5	3.02e+01	0	46	104	0	60	57940
2026-01-30 03:48:19.28	328.96	21.39	-52.0	-64.0	3.5	3.02e+01	0	46	104	0	60	60142
2026-01-30 03:48:20.29	328.65	21.38	-51.6	-63.2	3.5	3.02e+01	0	46	104	0	60	54872
2026-01-30 03:48:21.29	328.34	21.37	-54.9	-69.4	3.5	3.02e+01	0	46	104	0	60	112597
2026-01-30 03:48:22.30	328.03	21.36	-51.2	-62.6	3.5	3.02e+01	0	46	104	0	60	51244
2026-01-30 03:48:23.31	327.73	21.34	-50.9	-62.2	3.5	3.02e+01	0	46	104	0	60	48883
2026-01-30 03:48:24.32	327.42	21.33	-50.6	-61.8	3.5	3.02e+01	0	46	104	0	60	46579
2026-01-30 03:48:25.32	327.11	21.31	-53.6	-66.4	3.5	3.02e+01	0	46	104	0	60	79310
2026-01-30 03:48:26.33	326.81	21.30	-52.2	-63.7	3.5	3.02e+01	0	46	104	0	60	58524
2026-01-30 03:48:27.34	326.50	21.28	-52.1	-64.0	3.5	3.02e+01	0	46	104	0	60	59959
2026-01-30 03:48:28.35	326.19	21.26	-51.7	-63.3	3.5	3.02e+01	0	46	104	0	60	55791
2026-01-30 03:48:29.35	325.89	21.24	-54.9	-68.6	3.5	3.02e+01	0	46	104	0	60	101965
2026-01-30 03:48:30.36	325.59	21.22	-50.9	-61.9	3.5	3.02e+01	0	46	104	0	60	47457
2026-01-30 03:48:31.37	325.28	21.20	-51.0	-62.1	3.5	3.02e+01	0	46	104	0	60	48431
2026-01-30 03:48:32.37	324.98	21.18	-51.1	-62.1	3.5	3.02e+01	0	46	104	0	60	48345
2026-01-30 03:48:33.38	324.68	21.16	-52.9	-64.7	3.5	3.02e+01	0	46	104	0	60	65609
2026-01-30 03:48:34.38	324.38	21.13	-51.4	-62.5	3.5	3.02e+01	0	46	104	0	60	50719
2026-01-30 03:48:35.39	324.07	21.11	-51.8	-63.0	3.5	3.02e+01	0	46	104	0	60	54019
2026-01-30 03:48:36.40	323.77	21.09	-50.8	-61.8	3.5	3.02e+01	0	46	104	0	60	46982
2026-01-30 03:48:37.40	323.47	21.06	-54.3	-67.5	3.5	3.02e+01	0	46	104	0	60	90287
2026-01-30 03:48:38.41	323.17	21.03	-50.8	-61.7	3.5	3.02e+01	0	46	104	0	60	46457
2026-01-30 03:48:39.42	322.87	21.01	-51.0	-62.1	3.5	3.02e+01	0	46	104	0	60	48520
2026-01-30 03:48:40.42	322.57	20.98	-50.8	-62.0	3.5	3.02e+01	0	46	104	0	60	47875
2026-01-30 03:48:41.43	322.27	20.95	-53.7	-66.4	3.5	3.02e+01	0	46	104	0	60	79943
2026-01-30 03:48:42.44	321.97	20.92	-51.9	-63.4	3.5	3.02e+01	0	46	104	0	60	56563
2026-01-30 03:48:43.45	321.67	20.89	-51.9	-63.5	3.5	3.02e+01	0	46	104	0	60	57227
2026-01-30 03:48:44.46	321.37	20.86	-51.8	-63.2	3.5	3.02e+01	0	46	104	0	60	55035
2026-01-30 03:48:45.46	321.08	20.83	-54.7	-69.1	3.5	3.02e+01	0	46	104	0	60	108000
2026-01-30 03:48:46.47	320.78	20.80	-51.9	-63.6	3.5	3.02e+01	0	46	104	0	60	57325
2026-01-30 03:48:47.48	320.49	20.76	-52.2	-64.0	3.5	3.02e+01	0	46	104	0	60	60319
2026-01-30 03:48:48.49	320.19	20.73	-51.8	-63.3	3.5	3.02e+01	0	46	104	0	60	55563
2026-01-30 03:48:49.49	319.90	20.70	-50.6	-61.7	3.5	3.02e+01	0	46	104	0	60	46297
2026-01-30 03:48:50.49	319.61	20.66	-50.7	-61.7	3.5	3.02e+01	0	46	104	0	60	46528
2026-01-30 03:48:51.50	319.31	20.62	-51.5	-62.8	3.5	3.02e+01	0	46	104	0	60	52322
2026-01-30 03:48:52.51	319.02	20.59	-50.1	-61.0	3.5	3.02e+01	0	46	104	0	60	42503
2026-01-30 03:48:53.51	318.73	20.55	-53.6	-66.0	3.5	3.02e+01	0	46	104	0	60	75927
2026-01-30 03:48:54.52	318.44	20.51	-50.5	-61.5	3.5	3.02e+01	0	46	104	0	60	45464
2026-01-30 03:48:55.52	318.15	20.47	-50.3	-61.2	3.5	3.02e+01	0	46	104	0	60	43771
2026-01-30 03:48:56.53	317.86	20.44	-50.8	-61.7	3.5	3.02e+01	0	46	104	0	60	46294
2026-01-30 03:48:57.54	317.58	20.40	-53.6	-66.4	3.5	3.02e+01	0	46	104	0	60	79434
2026-01-30 03:48:58.54	317.29	20.36	-51.1	-62.5	3.5	3.02e+01	0	46	104	0	60	50957
2026-01-30 03:48:59.55	317.00	20.31	-51.1	-61.9	3.5	3.02e+01	0	46	104	0	60	47096
2026-01-30 03:49:00.56	316.72	20.27	-50.4	-61.2	3.5	3.02e+01	0	46	104	0	60	43674
2026-01-30 03:49:01.57	316.43	20.23	-53.4	-66.6	3.5	3.02e+01	0	46	104	0	60	80983
2026-01-30 03:49:02.57	316.15	20.19	-50.6	-61.5	3.5	3.02e+01	0	46	104	0	60	45365
2026-01-30 03:49:03.58	315.87	20.14	-50.9	-61.6	3.5	3.02e+01	0	46	104	0	60	45920
2026-01-30 03:49:04.59	315.58	20.10	-50.2	-61.7	3.5	3.02e+01	0	46	104	0	60	46205
2026-01-30 03:49:05.60	315.30	20.05	-49.9	-60.5	3.5	3.02e+01	0	46	104	0	60	40520
2026-01-30 03:49:06.60	315.02	20.01	-50.2	-60.8	3.5	3.02e+01	0	46	104	0	60	41617
2026-01-30 03:49:07.61	314.74	19.96	-51.7	-64.0	3.5	3.02e+01	0	46	104	0	60	60256
2026-01-30 03:49:08.62	314.46	19.91	-50.7	-61.8	3.5	3.02e+01	0	46	104	0	60	46653
2026-01-30 03:49:09.63	314.18	19.87	-54.0	-66.2	3.5	3.02e+01	0	46	104	0	60	77554
2026-01-30 03:49:10.63	313.91	19.82	-51.3	-63.3	3.5	3.02e+01	0	46	104	0	60	55376
2026-01-30 03:49:11.64	313.63	19.77	-51.0	-62.2	3.5	3.02e+01	0	46	104	0	60	48803
2026-01-30 03:49:12.65	313.36	19.72	-51.0	-61.6	3.5	3.02e+01	0	46	104	0	60	45716
2026-01-30 03:49:13.66	313.08	19.67	-51.9	-63.9	3.5	3.02e+01	0	46	104	0	60	59550
2026-01-30 03:49:14.67	312.81	19.62	-50.8	-61.5	3.5	3.02e+01	0	46	104	0	60	45309
2026-01-30 03:49:15.67	312.54	19.57	-50.7	-61.4	3.5	3.02e+01	0	46	104	0	60	44511
2026-01-30 03:49:16.68	312.27	19.52	-51.1	-63.1	3.5	3.02e+01	0	46	104	0	60	54298
2026-01-30 03:49:17.69	311.99	19.47	-51.9	-63.1	3.5	3.02e+01	0	46	104	0	60	54614
2026-01-30 03:49:18.69	311.73	19.42	-50.4	-60.9	3.5	3.02e+01	0	46	104	0	60	42105
2026-01-30 03:49:19.70	311.46	19.36	-50.3	-61.5	3.5	3.02e+01	0	46	104	0	60	45181
2026-01-30 03:49:20.70	311.19	19.31	-50.9	-61.7	3.5	3.02e+01	0	46	104	0	60	46251
2026-01-30 03:49:21.71	310.93	19.26	-51.0	-62.2	3.6	3.02e+01	0	46	104	0	60	49210
2026-01-30 03:49:22.71	310.66	19.20	-50.8	-62.1	3.5	3.02e+01	0	46	104	0	60	48322
2026-01-30 03:49:23.72	310.40	19.15	-50.9	-61.5	3.6	3.02e+01	0	46	104	0	60	45174
2026-01-30 03:49:24.72	310.14	19.09	-51.2	-54.1	5.1	3.02e+01	0	46	104	0	60	19388
2026-01-30 03:49:25.72	309.88	19.04	-51.7	-54.6	21.8	3.02e+01	0	46	0	0	60	20448
2026-01-30 03:49:26.73	309.61	18.98	-50.0	-52.2	23.8	3.02e+01	0	46	0	2097152	60	15547
2026-01-30 03:49:27.73	309.35	18.93	-49.5	-51.5	24.4	3.02e+01	0	46	0	3670016	60	14290
2026-01-30 03:49:28.74	309.09	18.87	-49.3	-51.2	24.9	3.02e+01	0	46	0	5767168	60	13768
2026-01-30 03:49:29.74	308.84	18.81	-49.5	-51.5	24.6	3.02e+01	0	46	0	7864320	60	14259
2026-01-30 03:49:30.75	308.58	18.75	-49.4	-51.3	24.9	3.02e+01	0	46	0	9437184	60	13979
2026-01-30 03:49:31.76	308.32	18.69	-50.0	-52.0	24.2	3.02e+01	0	46	0	11534336	60	15177
2026-01-30 03:49:32.76	308.07	18.64	-49.3	-51.1	25.1	3.02e+01	0	46	0	13107200	60	13610
2026-01-30 03:49:33.77	307.82	18.58	-49.2	-51.0	25.1	3.02e+01	0	46	0	15204352	60	13566
2026-01-30 03:49:34.78	307.56	18.52	-49.5	-51.4	24.6	3.02e+01	0	46	0	17301504	60	14211
2026-01-30 03:49:35.79	307.31	18.46	-49.3	-51.3	24.5	3.02e+01	0	46	0	18874368	60	13932
2026-01-30 03:49:36.79	307.06	18.40	-49.3	-51.4	24.3	3.02e+01	0	46	0	20971520	60	14060
2026-01-30 03:49:37.80	306.81	18.34	-49.5	-51.5	24.1	3.02e+01	0	46	0	23068672	60	14339
2026-01-30 03:49:38.81	306.56	18.28	-49.5	-51.6	24.0	3.02e+01	0	46	0	24641536	60	14406
2026-01-30 03:49:39.82	306.31	18.21	-49.7	-51.7	23.8	3.02e+01	0	46	0	26738688	60	14714
2026-01-30 03:49:40.83	306.06	18.15	-50.0	-52.3	23.5	3.02e+01	0	46	0	28311552	60	15612
2026-01-30 03:49:41.83	305.82	18.09	-50.3	-52.7	22.9	3.02e+01	0	46	0	30408704	60	16339
2026-01-30 03:49:42.83	305.58	18.03	-50.0	-52.2	23.3	3.02e+01	0	46	0	31981568	60	15520
2026-01-30 03:49:43.84	305.33	17.96	-50.6	-53.1	22.6	3.02e+01	0	46	0	34078720	60	17206
2026-01-30 03:49:44.85	305.09	17.90	-49.9	-52.2	23.3	3.02e+01	0	46	0	36175872	60	15469
2026-01-30 03:49:45.86	304.85	17.84	-49.6	-51.8	23.7	3.02e+01	0	46	0	37748736	60	14787
2026-01-30 03:49:46.86	304.61	17.77	-49.6	-51.7	23.7	3.02e+01	0	46	0	39845888	60	14707
2026-01-30 03:49:47.87	304.37	17.71	-49.4	-51.4	23.9	3.02e+01	0	46	0	41943040	60	14188
2026-01-30 03:49:48.88	304.13	17.65	-49.3	-51.3	24.1	3.02e+01	0	46	0	43515904	60	14053
2026-01-30 03:49:49.89	303.89	17.58	-49.7	-51.9	23.5	3.02e+01	0	46	0	45613056	60	14939
2026-01-30 03:49:50.90	303.66	17.52	-49.1	-51.0	24.4	3.02e+01	0	46	0	47185920	60	13454
2026-01-30 03:49:51.90	303.43	17.45	-50.2	-52.6	22.9	3.02e+01	0	46	0	49283072	60	16210
2026-01-30 03:49:52.90	303.19	17.39	-48.7	-50.6	24.7	3.02e+01	0	46	0	51380224	60	12950
2026-01-30 03:49:53.91	302.96	17.32	-49.5	-51.7	23.7	3.02e+01	0	46	0	52953088	60	14548
2026-01-30 03:49:54.91	302.73	17.25	-49.2	-51.3	24.0	3.02e+01	0	46	0	55050240	60	13898
2026-01-30 03:49:55.92	302.50	17.19	-49.6	-51.6	24.0	3.02e+01	0	46	0	56623104	60	14518
2026-01-30 03:49:56.92	302.27	17.12	-50.2	-52.4	23.4	3.02e+01	0	46	0	58720256	60	15883
2026-01-30 03:49:57.93	302.04	17.05	-49.4	-51.2	24.7	3.02e+01	0	46	0	60293120	60	13853
2026-01-30 03:49:58.93	301.82	16.99	-49.5	-51.5	24.3	3.02e+01	0	46	0	62390272	60	14328
2026-01-30 03:49:59.94	301.59	16.92	-48.8	-50.6	25.0	3.02e+01	0	46	0	64487424	60	12866
2026-01-30 03:50:00.94	301.37	16.85	-49.3	-51.2	24.3	3.02e+01	0	46	0	66060288	60	13807
2026-01-30 03:50:01.95	301.14	16.79	-48.7	-50.6	24.7	3.02e+01	0	46	0	68157440	60	12840
2026-01-30 03:50:02.96	300.92	16.72	-48.9	-50.8	24.4	3.02e+01	0	45	0	69730304	60	13263
2026-01-30 03:50:03.97	300.70	16.65	-49.2	-51.4	23.5	3.02e+01	0	46	0	71827456	60	14107
2026-01-30 03:50:04.98	300.48	16.58	-48.8	-50.8	24.2	3.02e+01	0	46	0	73924608	60	13133
2026-01-30 03:50:05.98	300.26	16.51	-49.1	-51.3	23.3	3.02e+01	0	46	0	75497472	60	14008
2026-01-30 03:50:06.99	300.04	16.44	-48.6	-50.6	24.4	3.02e+01	0	46	0	77594624	60	12825
2026-01-30 03:50:07.99	299.82	16.37	-49.3	-51.4	23.5	3.02e+01	0	46	0	79691776	60	14153
2026-01-30 03:50:09.00	299.61	16.30	-48.7	-50.5	24.9	3.02e+01	0	46	0	81264640	60	12789
2026-01-30 03:50:10.00	299.39	16.24	-48.8	-50.6	24.7	3.02e+01	0	46	0	83361792	60	12947
2026-01-30 03:50:11.01	299.18	16.17	-49.0	-50.8	24.9	3.02e+01	0	46	0	84934656	60	13162
2026-01-30 03:50:12.02	298.96	16.10	-49.1	-50.9	24.7	3.02e+01	0	46	0	87031808	60	13407
2026-01-30 03:50:13.02	298.75	16.03	-49.3	-51.1	24.7	3.02e+01	0	46	0	88604672	60	13689
2026-01-30 03:50:14.03	298.54	15.96	-49.1	-50.9	24.8	3.02e+01	0	46	0	90701824	60	13409
2026-01-30 03:50:15.03	298.33	15.89	-49.1	-51.0	24.7	3.02e+01	0	46	0	92798976	60	13437
2026-01-30 03:50:16.04	298.12	15.82	-49.2	-51.1	24.4	3.02e+01	0	46	0	94371840	60	13695
2026-01-30 03:50:17.05	297.91	15.75	-48.9	-50.7	24.8	3.02e+01	0	46	0	96468992	60	13079
2026-01-30 03:50:18.05	297.71	15.68	-49.1	-50.9	24.5	3.02e+01	0	46	0	98041856	60	13421
2026-01-30 03:50:19.05	297.50	15.61	-49.0	-50.9	24.6	3.02e+01	0	46	0	100139008	60	13293
2026-01-30 03:50:20.06	297.30	15.53	-48.8	-50.6	24.7	3.02e+01	0	46	0	102236160	60	12954
2026-01-30 03:50:21.06	297.10	15.46	-48.8	-50.8	24.4	3.02e+01	0	46	0	103809024	60	13228
2026-01-30 03:50:22.07	296.89	15.39	-48.7	-50.8	24.1	3.02e+01	0	46	0	105906176	60	13226
2026-01-30 03:50:23.08	296.69	15.32	-48.5	-50.7	23.9	3.02e+01	0	46	0	108003328	60	13115
2026-01-30 03:50:24.09	296.49	15.25	-48.1	-50.3	24.0	3.02e+01	0	46	0	109576192	60	12456
2026-01-30 03:50:25.08	296.29	15.18	-48.6	-51.1	23.0	3.02e+01	0	46	0	111673344	60	13639
2026-01-30 03:50:26.09	296.09	15.11	-48.3	-50.7	23.2	3.02e+01	0	46	0	113246208	60	12972
2026-01-30 03:50:27.09	295.90	15.04	-48.6	-51.1	22.9	3.02e+01	0	46	0	115343360	60	13670
2026-01-30 03:50:28.10	295.70	14.96	-48.8	-51.2	22.9	3.02e+01	0	46	0	116916224	60	13848
2026-01-30 03:50:29.11	295.51	14.89	-48.6	-50.9	23.2	3.02e+01	0	46	0	119013376	60	13338
2026-01-30 03:50:30.11	295.31	14.82	-48.8	-51.2	23.2	3.02e+01	0	46	0	121110528	60	13875
2026-01-30 03:50:31.12	295.12	14.75	-49.0	-51.3	23.3	3.02e+01	0	46	0	122683392	60	14025
2026-01-30 03:50:32.12	294.93	14.68	-48.8	-51.0	23.9	3.02e+01	0	46	0	124780544	60	13530
2026-01-30 03:50:33.12	294.74	14.61	-49.0	-51.2	24.1	3.02e+01	0	46	0	126353408	60	13738
2026-01-30 03:50:34.13	294.55	14.53	-49.2	-51.2	24.4	3.02e+01	0	46	0	128450560	60	13850
2026-01-30 03:50:35.12	294.36	14.46	-49.0	-50.9	24.6	3.02e+01	0	46	0	130547712	60	13405
2026-01-30 03:50:36.13	294.17	14.39	-49.3	-51.4	23.9	3.02e+01	0	46	0	132120576	60	14062
2026-01-30 03:50:37.12	293.99	14.32	-49.2	-51.2	23.9	3.02e+01	0	46	0	134217728	60	13874
2026-01-30 03:50:38.13	293.80	14.25	-49.1	-51.1	23.6	3.02e+01	0	46	0	135790592	60	13731
2026-01-30 03:50:39.14	293.61	14.17	-49.3	-51.6	23.2	3.02e+01	0	46	0	137887744	60	14398
2026-01-30 03:50:40.15	293.43	14.10	-48.8	-50.9	23.9	3.02e+01	0	46	0	139460608	60	13278
2026-01-30 03:50:41.15	293.25	14.03	-48.9	-51.0	23.4	3.02e+01	0	46	0	141557760	60	13567
2026-01-30 03:50:42.16	293.06	13.96	-49.5	-51.9	22.8	3.02e+01	0	46	0	143654912	60	14903
2026-01-30 03:50:43.17	292.88	13.88	-49.2	-51.5	23.0	3.02e+01	0	46	0	145227776	60	14361
2026-01-30 03:50:44.18	292.70	13.81	-49.4	-51.8	22.4	3.02e+01	0	46	0	147324928	60	14822
2026-01-30 03:50:45.18	292.52	13.74	-49.8	-52.6	21.5	3.02e+01	0	46	0	149422080	60	16264
2026-01-30 03:50:46.19	292.34	13.67	-49.4	-52.0	21.9	3.02e+01	0	46	0	150994944	60	15138
2026-01-30 03:50:47.19	292.17	13.59	-49.6	-52.4	21.5	3.02e+01	0	46	0	153092096	60	15883
2026-01-30 03:50:48.20	291.99	13.52	-50.0	-53.1	20.8	3.02e+01	0	46	0	154664960	60	17271
2026-01-30 03:50:49.20	291.81	13.45	-49.9	-52.8	21.2	3.02e+01	0	46	0	156762112	60	16612
2026-01-30 03:50:50.20	291.64	13.38	-50.0	-53.1	21.2	3.02e+01	0	46	0	158859264	60	17161
2026-01-30 03:50:51.21	291.47	13.30	-50.3	-53.7	20.8	3.02e+01	0	46	0	160432128	60	18463
2026-01-30 03:50:52.21	291.29	13.23	-50.3	-53.6	21.0	3.02e+01	0	46	0	162529280	60	18277
2026-01-30 03:50:53.22	291.12	13.16	-49.6	-52.4	22.3	3.02e+01	0	46	0	164102144	60	15836
2026-01-30 03:50:54.22	290.95	13.09	-49.7	-52.6	22.2	3.02e+01	0	46	0	166199296	60	16257
2026-01-30 03:50:55.23	290.78	13.01	-50.0	-53.0	22.0	3.02e+01	0	46	0	167772160	60	16916
2026-01-30 03:50:56.24	290.61	12.94	-49.3	-51.8	23.3	3.02e+01	0	46	0	169869312	60	14735
2026-01-30 03:50:57.25	290.44	12.87	-49.5	-51.7	23.6	3.02e+01	0	46	0	171966464	60	14690
2026-01-30 03:50:58.26	290.27	12.79	-50.2	-52.6	22.9	3.02e+01	0	46	0	173539328	60	16289
2026-01-30 03:50:59.26	290.11	12.72	-50.0	-52.2	23.5	3.02e+01	0	46	0	175636480	60	15455
2026-01-30 03:51:00.27	289.94	12.65	-49.1	-51.0	24.6	3.02e+01	0	46	0	177733632	60	13438
2026-01-30 03:51:01.28	289.78	12.58	-49.2	-51.3	23.8	3.02e+01	0	46	0	179306496	60	13980
2026-01-30 03:51:02.29	289.61	12.50	-49.2	-51.4	23.5	3.02e+01	0	46	0	181403648	60	14177
2026-01-30 03:51:03.30	289.45	12.43	-48.5	-50.7	23.7	3.02e+01	0	46	0	182976512	60	13088
2026-01-30 03:51:04.30	289.29	12.36	-48.2	-50.6	23.1	3.02e+01	0	46	0	185073664	60	12950
2026-01-30 03:51:05.31	289.12	12.28	-48.4	-51.4	21.9	3.02e+01	0	46	0	187170816	60	14173
2026-01-30 03:51:06.31	288.96	12.21	-48.3	-51.5	21.4	3.02e+01	0	46	0	188743680	60	14352
2026-01-30 03:51:07.32	288.80	12.14	-48.1	-51.2	21.6	3.02e+01	0	46	0	190840832	60	13745
2026-01-30 03:51:08.33	288.64	12.07	-48.3	-51.3	21.6	3.02e+01	0	46	0	192413696	60	14053
2026-01-30 03:51:09.34	288.49	11.99	-48.9	-52.1	21.1	3.02e+01	0	45	0	194510848	60	15320
2026-01-30 03:51:10.35	288.33	11.92	-49.2	-52.3	21.5	3.02e+01	0	46	0	196083712	60	15645
2026-01-30 03:51:11.35	288.17	11.85	-49.3	-52.0	22.5	3.02e+01	0	46	0	198180864	60	15096
2026-01-30 03:51:12.36	288.02	11.78	-48.6	-50.9	23.5	3.02e+01	0	46	0	200278016	60	13415
2026-01-30 03:51:13.37	287.86	11.70	-49.0	-51.4	23.3	3.02e+01	0	46	0	201850880	60	14184
2026-01-30 03:51:14.38	287.71	11.63	-49.5	-52.0	23.1	3.02e+01	0	46	0	203948032	60	15195
2026-01-30 03:51:15.38	287.56	11.56	-49.5	-51.8	23.2	3.02e+01	0	46	0	206045184	60	14786
2026-01-30 03:51:16.38	287.41	11.49	-49.3	-51.4	23.6	3.02e+01	0	46	0	207618048	60	14142
2026-01-30 03:51:17.39	287.25	11.42	-49.2	-51.3	23.3	3.02e+01	0	46	0	209715200	60	13921
2026-01-30 03:51:18.40	287.10	11.34	-49.8	-52.2	22.0	3.02e+01	0	46	0	211288064	60	15502
2026-01-30 03:51:19.40	286.95	11.27	-49.7	-52.2	21.5	3.02e+01	0	46	0	213385216	60	15551
2026-01-30 03:51:20.41	286.80	11.20	-49.5	-52.0	21.2	3.02e+01	0	46	0	215482368	60	15147
2026-01-30 03:51:21.42	286.66	11.13	-49.0	-51.3	21.9	3.02e+01	0	46	0	217055232	60	14026
2026-01-30 03:51:22.42	286.51	11.06	-49.4	-51.9	21.5	3.02e+01	0	46	0	219152384	60	14956
2026-01-30 03:51:23.43	286.36	10.98	-49.8	-52.4	21.2	3.02e+01	0	46	0	220725248	60	15851
2026-01-30 03:51:24.43	286.22	10.91	-49.8	-52.3	21.5	3.02e+01	0	46	0	222822400	60	15739
2026-01-30 03:51:25.44	286.07	10.84	-49.8	-52.3	21.5	3.02e+01	0	46	0	224395264	60	15623
2026-01-30 03:51:26.45	285.93	10.77	-49.2	-51.4	22.5	3.02e+01	0	46	0	226492416	60	14156
2026-01-30 03:51:27.46	285.78	10.70	-49.1	-51.2	22.8	3.02e+01	0	46	0	228589568	60	13847
2026-01-30 03:51:28.46	285.64	10.63	-49.6	-52.0	22.2	3.02e+01	0	46	0	230162432	60	15141
2026-01-30 03:51:29.47	285.50	10.56	-49.8	-52.1	22.5	3.02e+01	0	46	0	232259584	60	15346
2026-01-30 03:51:30.48	285.36	10.48	-49.3	-51.4	23.5	3.02e+01	0	46	0	234356736	60	14124
2026-01-30 03:51:31.49	285.22	10.41	-49.0	-51.0	24.0	3.02e+01	0	46	0	235929600	60	13499
2026-01-30 03:51:32.50	285.08	10.34	-49.1	-51.1	23.8	3.02e+01	0	46	0	238026752	60	13698
2026-01-30 03:51:33.50	284.94	10.27	-49.4	-51.6	23.5	3.02e+01	0	46	0	239599616	60	14381
2026-01-30 03:51:34.51	284.80	10.20	-49.5	-51.8	23.2	3.02e+01	0	46	0	241696768	60	14812
2026-01-30 03:51:35.51	284.66	10.13	-49.4	-51.7	23.4	3.02e+01	0	46	0	243793920	60	14657
2026-01-30 03:51:36.52	284.53	10.06	-49.1	-51.2	23.7	3.02e+01	0	46	0	245366784	60	13842
2026-01-30 03:51:37.53	284.39	9.99	-49.1	-51.2	23.8	3.02e+01	0	46	0	247463936	60	13768
2026-01-30 03:51:38.53	284.26	9.92	-49.2	-51.4	23.7	3.02e+01	0	46	0	249036800	60	14072
2026-01-30 03:51:39.54	284.12	9.84	-49.5	-51.8	23.3	3.02e+01	0	46	0	251133952	60	14747
2026-01-30 03:51:40.54	283.99	9.77	-49.7	-52.1	23.1	3.02e+01	0	46	0	252706816	60	15314
2026-01-30 03:51:41.55	283.86	9.70	-49.8	-52.2	22.9	3.02e+01	0	46	0	254803968	60	15518
2026-01-30 03:51:42.56	283.72	9.63	-49.3	-51.6	23.4	3.02e+01	0	46	0	256901120	60	14495
2026-01-30 03:51:43.57	283.59	9.56	-49.2	-51.4	23.5	3.02e+01	0	46	0	258473984	60	14157
2026-01-30 03:51:44.57	283.46	9.49	-49.1	-51.3	23.6	3.02e+01	0	46	0	260571136	60	13947
2026-01-30 03:51:45.58	283.33	9.42	-49.1	-51.2	23.7	3.02e+01	0	46	0	262668288	60	13857
2026-01-30 03:51:46.59	283.20	9.35	-49.3	-51.5	23.3	3.02e+01	0	46	0	264241152	60	14295
2026-01-30 03:51:47.60	283.07	9.28	-49.4	-51.7	23.1	3.02e+01	0	46	0	266338304	60	14621
2026-01-30 03:51:48.60	282.94	9.21	-49.3	-51.7	23.0	3.02e+01	0	46	0	267911168	60	14606
2026-01-30 03:51:49.61	282.82	9.14	-49.2	-51.6	22.9	3.02e+01	0	46	0	270008320	60	14424
2026-01-30 03:51:50.61	282.69	9.07	-49.2	-51.6	22.8	3.02e+01	0	46	0	272105472	60	14418
2026-01-30 03:51:51.61	282.56	9.00	-48.9	-51.2	23.0	3.02e+01	0	46	0	273678336	60	13869
2026-01-30 03:51:52.62	282.44	8.93	-48.9	-51.3	22.9	3.02e+01	0	46	0	275775488	60	13969
2026-01-30 03:51:53.63	282.31	8.86	-48.9	-51.4	22.9	3.02e+01	0	46	0	277348352	60	14116
2026-01-30 03:51:54.63	282.19	8.80	-49.0	-51.5	22.8	3.02e+01	0	46	0	279445504	60	14237
2026-01-30 03:51:55.63	282.07	8.73	-49.0	-51.6	22.7	3.02e+01	0	46	0	281018368	60	14411
2026-01-30 03:51:56.64	281.94	8.66	-48.9	-51.5	22.5	3.02e+01	0	46	0	283115520	60	14373
2026-01-30 03:51:57.65	281.82	8.59	-48.9	-51.5	22.3	3.02e+01	0	46	0	285212672	60	14368
2026-01-30 03:51:58.65	281.70	8.52	-48.7	-51.4	22.2	3.02e+01	0	46	0	286785536	60	14102
2026-01-30 03:51:59.66	281.58	8.45	-48.6	-51.4	22.2	3.02e+01	0	46	0	288882688	60	14060
2026-01-30 03:52:00.67	281.46	8.38	-48.5	-51.3	22.4	3.02e+01	0	46	0	290979840	60	14043
2026-01-30 03:52:01.68	281.34	8.31	-48.7	-51.4	22.4	3.02e+01	0	46	0	292552704	60	14213
2026-01-30 03:52:02.69	281.22	8.24	-48.8	-51.6	22.3	3.02e+01	0	46	0	294649856	60	14474
2026-01-30 03:52:03.69	281.10	8.18	-48.8	-51.7	22.3	3.02e+01	0	46	0	296222720	60	14674
2026-01-30 03:52:04.70	280.98	8.11	-48.8	-51.7	22.3	3.02e+01	0	46	0	298319872	60	14701
2026-01-30 03:52:05.71	280.87	8.04	-48.9	-51.8	22.2	3.02e+01	0	46	0	300417024	60	14845
2026-01-30 03:52:06.72	280.75	7.97	-48.8	-51.9	22.3	3.02e+01	0	46	0	301989888	60	14913
2026-01-30 03:52:07.72	280.63	7.90	-48.7	-51.7	22.5	3.02e+01	0	46	0	304087040	60	14591
2026-01-30 03:52:08.73	280.52	7.83	-48.7	-51.7	22.5	3.02e+01	0	46	0	305659904	60	14549
2026-01-30 03:52:09.74	280.40	7.77	-48.9	-51.7	22.6	3.02e+01	0	46	0	307757056	60	14607
2026-01-30 03:52:10.74	280.29	7.70	-48.9	-51.6	22.7	3.02e+01	0	46	0	309329920	60	14507
2026-01-30 03:52:11.75	280.17	7.63	-49.1	-51.7	22.8	3.02e+01	0	46	0	311427072	60	14649
2026-01-30 03:52:12.75	280.06	7.56	-49.2	-51.8	22.9	3.02e+01	0	46	0	313524224	60	14762
2026-01-30 03:52:13.76	279.95	7.50	-49.5	-52.0	22.8	3.02e+01	0	46	0	315097088	60	15143
2026-01-30 03:52:14.76	279.84	7.43	-49.6	-52.1	22.8	3.02e+01	0	46	0	317194240	60	15304
2026-01-30 03:52:15.76	279.73	7.36	-49.7	-52.2	22.7	3.02e+01	0	46	0	318767104	60	15461
2026-01-30 03:52:16.77	279.62	7.29	-49.8	-52.2	22.7	3.02e+01	0	46	0	320864256	60	15473
2026-01-30 03:52:17.78	279.51	7.23	-49.9	-52.4	22.6	3.02e+01	0	46	0	322961408	60	15835
2026-01-30 03:52:18.79	279.40	7.16	-50.1	-52.6	22.4	3.02e+01	0	46	0	324534272	60	16225
2026-01-30 03:52:19.79	279.29	7.09	-50.2	-52.8	22.2	3.02e+01	0	46	0	326631424	60	16614
2026-01-30 03:52:20.80	279.18	7.03	-50.4	-53.1	21.8	3.02e+01	0	46	0	328728576	60	17186
2026-01-30 03:52:21.81	279.07	6.96	-50.3	-53.2	21.6	3.02e+01	0	46	0	330301440	60	17383
2026-01-30 03:52:22.82	278.96	6.89	-50.2	-53.2	21.3	3.02e+01	0	46	0	332398592	60	17475
2026-01-30 03:52:23.82	278.86	6.83	-49.9	-53.1	21.1	3.02e+01	0	46	0	333971456	60	17129
2026-01-30 03:52:24.83	278.75	6.76	-49.4	-52.6	21.3	3.02e+01	0	46	0	336068608	60	16161
2026-01-30 03:52:25.84	278.64	6.69	-49.2	-52.3	21.2	3.02e+01	0	46	0	337641472	60	15719
2026-01-30 03:52:26.84	278.54	6.63	-49.2	-52.4	21.1	3.02e+01	0	46	0	339738624	60	15885
2026-01-30 03:52:27.85	278.44	6.56	-49.4	-52.6	21.1	3.02e+01	0	46	0	341835776	60	16240
2026-01-30 03:52:28.86	278.33	6.49	-49.5	-52.9	20.8	3.02e+01	0	46	0	343408640	60	16726
2026-01-30 03:52:29.86	278.23	6.43	-49.4	-52.6	20.8	3.02e+01	0	46	0	345505792	60	16229
2026-01-30 03:52:30.87	278.12	6.36	-49.5	-52.7	20.7	3.02e+01	0	46	0	347078656	60	16337
2026-01-30 03:52:31.87	278.02	6.30	-49.7	-52.9	20.6	3.02e+01	0	46	0	349175808	60	16845
2026-01-30 03:52:32.88	277.92	6.23	-49.8	-53.0	20.7	3.02e+01	0	46	0	351272960	60	17045
2026-01-30 03:52:33.88	277.82	6.17	-49.9	-53.2	20.6	3.02e+01	0	46	0	352845824	60	17324
2026-01-30 03:52:34.89	277.72	6.10	-50.1	-53.4	20.5	3.02e+01	0	46	0	354942976	60	17847
2026-01-30 03:52:35.90	277.62	6.04	-50.2	-53.5	20.6	3.02e+01	0	46	0	357040128	60	18018
2026-01-30 03:52:36.90	277.52	5.97	-53.1	-63.1	5.8	3.02e+01	0	46	0	358612992	60	54643
2026-01-30 03:52:37.91	277.42	5.91	-53.1	-74.2	3.5	3.02e+01	0	46	104	358612992	60	194892
2026-01-30 03:52:38.92	277.32	5.84	-55.4	-75.2	3.5	3.02e+01	0	46	104	358612992	60	219733
2026-01-30 03:52:39.93	277.22	5.77	-54.7	-75.7	3.5	3.02e+01	0	46	104	358612992	60	232597
2026-01-30 03:52:40.94	277.12	5.71	-54.5	-75.2	3.6	3.02e+01	0	46	104	358612992	60	219927
2026-01-30 03:52:41.94	277.02	5.65	-54.0	-75.3	3.6	3.02e+01	0	46	104	358612992	60	221215
2026-01-30 03:52:42.95	276.93	5.58	-54.0	-74.4	3.7	3.02e+01	0	46	104	358612992	60	199085
2026-01-30 03:52:43.96	276.83	5.52	-53.9	-74.7	3.6	3.02e+01	0	46	104	358612992	60	206836
2026-01-30 03:52:44.97	276.73	5.45	-54.6	-75.2	3.6	3.02e+01	0	46	104	358612992	60	218477
2026-01-30 03:52:45.97	276.64	5.39	-56.2	-75.9	3.6	3.02e+01	0	46	104	358612992	60	238373
2026-01-30 03:52:46.98	276.54	5.32	-57.8	-77.8	3.5	3.02e+01	0	46	104	358612992	60	296958
2026-01-30 03:52:47.99	276.45	5.26	-57.6	-78.1	3.5	3.02e+01	0	46	104	358612992	60	305424
2026-01-30 03:52:49.00	276.35	5.19	-57.7	-78.3	3.5	3.02e+01	0	46	104	358612992	60	313804
2026-01-30 03:52:50.00	276.26	5.13	-57.4	-78.1	3.5	3.02e+01	0	46	104	358612992	60	304274
2026-01-30 03:52:51.01	276.17	5.07	-57.2	-78.2	3.5	3.02e+01	0	46	104	358612992	60	309806
2026-01-30 03:52:52.02	276.07	5.00	-57.5	-78.5	3.5	3.02e+01	0	46	104	358612992	60	321359
2026-01-30 03:52:53.03	275.98	4.94	-58.6	-78.6	3.5	3.02e+01	0	46	104	358612992	60	325623
2026-01-30 03:52:54.04	275.89	4.88	-58.6	-78.8	3.5	3.02e+01	0	46	104	358612992	60	330279
2026-01-30 03:52:55.05	275.80	4.81	-58.8	-78.9	3.5	3.02e+01	0	46	104	358612992	60	335660
2026-01-30 03:52:56.05	275.71	4.75	-58.3	-78.5	3.5	3.02e+01	0	46	104	358612992	60	321802
2026-01-30 03:52:57.06	275.62	4.69	-57.8	-78.7	3.5	3.02e+01	0	46	104	358612992	60	329275
2026-01-30 03:52:58.06	275.53	4.62	-57.5	-78.7	3.5	3.02e+01	0	46	104	358612992	60	327557
2026-01-30 03:52:59.07	275.44	4.56	-57.3	-79.0	3.5	3.02e+01	0	46	104	358612992	60	337541
2026-01-30 03:53:00.07	275.35	4.50	-57.8	-78.8	3.5	3.02e+01	0	46	104	358612992	60	332878
2026-01-30 03:53:01.08	275.26	4.44	-57.9	-78.9	3.5	3.02e+01	0	46	104	358612992	60	335529
2026-01-30 03:53:02.09	275.17	4.37	-58.0	-79.2	3.5	3.02e+01	0	46	104	358612992	60	345384
2026-01-30 03:53:03.10	275.08	4.31	-58.1	-79.2	3.5	3.02e+01	0	46	104	358612992	60	348392
2026-01-30 03:53:04.10	275.00	4.25	-58.4	-79.3	3.5	3.02e+01	0	46	104	358612992	60	350161
2026-01-30 03:53:05.11	274.91	4.19	-58.5	-79.1	3.5	3.02e+01	0	46	104	358612992	60	342974
2026-01-30 03:53:06.11	274.82	4.12	-58.9	-79.0	3.5	3.02e+01	0	46	104	358612992	60	337973
2026-01-30 03:53:07.12	274.74	4.06	-58.1	-78.9	3.5	3.02e+01	0	46	104	358612992	60	336051
2026-01-30 03:53:08.12	274.65	4.00	-57.2	-78.9	3.5	3.02e+01	0	46	104	358612992	60	335813
2026-01-30 03:53:09.13	274.56	3.94	-57.0	-79.1	3.5	3.02e+01	0	46	104	358612992	60	343240
2026-01-30 03:53:10.14	274.48	3.88	-56.9	-79.1	3.5	3.02e+01	0	46	104	358612992	60	342415
2026-01-30 03:53:11.15	274.39	3.81	-57.1	-79.0	3.5	3.02e+01	0	46	104	358612992	60	339264
2026-01-30 03:53:12.15	274.31	3.75	-57.4	-78.9	3.5	3.02e+01	0	46	104	358612992	60	335840
2026-01-30 03:53:13.16	274.23	3.69	-57.4	-78.8	3.5	3.02e+01	0	46	104	358612992	60	332774
2026-01-30 03:53:14.16	274.14	3.63	-57.4	-79.0	3.5	3.02e+01	0	46	104	358612992	60	338677
2026-01-30 03:53:15.17	274.06	3.57	-57.4	-78.9	3.5	3.02e+01	0	46	104	358612992	60	335914
2026-01-30 03:53:16.17	273.98	3.51	-57.3	-78.8	3.5	3.02e+01	0	46	104	358612992	60	332703
2026-01-30 03:53:17.18	273.90	3.45	-57.2	-78.8	3.5	3.02e+01	0	46	104	358612992	60	330144
2026-01-30 03:53:18.18	273.81	3.39	-57.2	-78.9	3.5	3.02e+01	0	46	104	358612992	60	334720
2026-01-30 03:53:19.19	273.73	3.32	-57.1	-78.8	3.5	3.02e+01	0	46	104	358612992	60	331878
2026-01-30 03:53:20.20	273.65	3.26	-57.1	-78.6	3.5	3.02e+01	0	46	104	358612992	60	324218
2026-01-30 03:53:21.21	273.57	3.20	-57.1	-78.6	3.5	3.02e+01	0	46	104	358612992	60	324407
2026-01-30 03:53:22.21	273.49	3.14	-57.1	-78.7	3.5	3.02e+01	0	46	104	358612992	60	327073
2026-01-30 03:53:23.22	273.41	3.08	-57.1	-78.7	3.5	3.02e+01	0	46	104	358612992	60	326553
2026-01-30 03:53:24.23	273.33	3.02	-57.1	-78.8	3.5	3.02e+01	0	46	104	358612992	60	330224
2026-01-30 03:53:25.23	273.25	2.96	-57.0	-78.7	3.5	3.02e+01	0	46	104	358612992	60	327098
2026-01-30 03:53:26.24	273.17	2.90	-57.0	-78.7	3.5	3.02e+01	0	46	104	358612992	60	327673
2026-01-30 03:53:27.24	273.09	2.84	-57.0	-78.8	3.5	3.02e+01	0	46	104	358612992	60	330720
2026-01-30 03:53:28.25	273.02	2.78	-57.0	-78.6	3.5	3.02e+01	0	46	104	358612992	60	322374
2026-01-30 03:53:29.26	272.94	2.72	-57.0	-78.6	3.5	3.02e+01	0	46	104	358612992	60	323495
2026-01-30 03:53:30.27	272.86	2.66	-57.0	-78.8	3.5	3.02e+01	0	46	104	358612992	60	331383
2026-01-30 03:53:31.28	272.78	2.60	-56.9	-78.8	3.5	3.02e+01	0	46	104	358612992	60	330361
2026-01-30 03:53:32.29	272.71	2.54	-56.9	-78.7	3.5	3.02e+01	0	46	104	358612992	60	328332
2026-01-30 03:53:33.29	272.63	2.48	-56.9	-78.6	3.5	3.02e+01	0	46	104	358612992	60	325063
2026-01-30 03:53:34.30	272.55	2.42	-56.9	-78.6	3.5	3.02e+01	0	46	104	358612992	60	325143
2026-01-30 03:53:35.30	272.48	2.36	-56.9	-78.7	3.5	3.02e+01	0	46	104	358612992	60	327539
2026-01-30 03:53:36.31	272.40	2.30	-56.9	-78.8	3.5	3.02e+01	0	46	104	358612992	60	329744
2026-01-30 03:53:37.32	272.33	2.24	-56.9	-78.7	3.5	3.02e+01	0	46	104	358612992	60	328196
2026-01-30 03:53:38.33	272.25	2.18	-56.9	-78.6	3.5	3.02e+01	0	46	104	358612992	60	325279
2026-01-30 03:53:39.33	272.18	2.13	-56.9	-78.7	3.5	3.02e+01	0	46	104	358612992	60	327757
2026-01-30 03:53:40.34	272.10	2.07	-56.9	-78.7	3.5	3.02e+01	0	46	104	358612992	60	328854
2026-01-30 03:53:41.34	272.03	2.01	-56.8	-78.8	3.5	3.02e+01	0	46	104	358612992	60	329543
2026-01-30 03:53:42.35	271.96	1.95	-56.9	-78.6	3.5	3.02e+01	0	46	104	358612992	60	323859
2026-01-30 03:53:43.35	271.89	1.89	-56.9	-78.6	3.5	3.02e+01	0	46	104	358612992	60	324975
2026-01-30 03:53:44.35	271.81	1.83	-56.8	-78.7	3.5	3.02e+01	0	46	104	358612992	60	325724
2026-01-30 03:53:45.36	271.74	1.77	-56.8	-78.6	3.5	3.02e+01	0	46	104	358612992	60	325400
2026-01-30 03:53:46.36	271.67	1.72	-56.8	-78.6	3.5	3.02e+01	0	46	104	358612992	60	324334
2026-01-30 03:53:47.36	271.60	1.66	-56.8	-78.7	3.5	3.02e+01	0	46	104	358612992	60	328913
2026-01-30 03:53:48.36	271.53	1.60	-56.8	-78.7	3.5	3.02e+01	0	46	104	358612992	60	327544
2026-01-30 03:53:49.37	271.46	1.54	-56.8	-78.7	3.5	3.02e+01	0	46	104	358612992	60	329216
2026-01-30 03:53:50.38	271.39	1.48	-56.8	-78.7	3.5	3.02e+01	0	46	104	358612992	60	329125
2026-01-30 03:53:51.38	271.32	1.43	-56.8	-78.7	3.5	3.02e+01	0	46	104	358612992	60	329008
2026-01-30 03:53:52.39	271.25	1.37	-56.8	-78.6	3.5	3.02e+01	0	46	104	358612992	60	325579
2026-01-30 03:53:53.40	271.18	1.31	-56.8	-78.6	3.5	3.02e+01	0	46	104	358612992	60	323140
2026-01-30 03:53:54.41	271.11	1.25	-56.8	-78.6	3.5	3.02e+01	0	46	104	358612992	60	322770
2026-01-30 03:53:55.41	271.04	1.20	-56.8	-78.7	3.5	3.02e+01	0	46	104	358612992	60	326279
2026-01-30 03:53:56.41	270.97	1.14	-56.8	-78.6	3.5	3.02e+01	0	46	104	358612992	60	323426
