passes_logs/2026/01/30/R3.2S-Naryan-Mar/R3.2S-Naryan-Mar__20260130_100655_AQUA_rec.log

#Pass ID: 20260130_100655_AQUA
#Satellite: AQUA
#Configuration: AQUA
#almurnet v.1.7.20240730
#Start time: 2026-01-30 10:06:56

#Version: 2.2.20231116
#Station: R3.2S-Naryan-Mar
#Location: 53.008057 lon 67.646978 lat
#TLE: 1 27424U 02022A   26029.54575153  .00001738  00000+0  35736-3 0  9994
#TLE: 2 27424  98.4104 356.2197 0001804  61.7823  56.0643 14.61874165263019

#Time	Az	El	Level	Level2	SNR	BER	BlckErr	Temp	State	Recorded	gain1	gain2
2026-01-30 10:06:56.12	154.57	0.07	-61.7	-78.0	3.5	1.51e+00	0	43	0	0	60	311304
2026-01-30 10:06:57.12	154.57	0.13	-56.8	-77.8	3.5	3.02e+01	0	44	104	0	60	294316
2026-01-30 10:06:58.13	154.57	0.19	-56.4	-77.7	3.5	3.02e+01	0	44	104	0	60	293145
2026-01-30 10:06:59.14	154.58	0.26	-56.0	-77.9	3.6	3.02e+01	0	44	104	0	60	299923
2026-01-30 10:07:00.14	154.58	0.32	-55.8	-77.8	3.5	3.02e+01	0	44	104	0	60	295459
2026-01-30 10:07:01.15	154.58	0.38	-55.9	-77.8	3.5	3.02e+01	0	44	104	0	60	293738
2026-01-30 10:07:02.16	154.59	0.45	-56.3	-77.7	3.5	3.02e+01	0	44	104	0	60	292560
2026-01-30 10:07:03.17	154.59	0.51	-56.7	-78.0	3.5	3.02e+01	0	44	104	0	60	302320
2026-01-30 10:07:04.18	154.59	0.57	-56.8	-77.5	3.5	3.02e+01	0	44	104	0	60	286230
2026-01-30 10:07:05.18	154.60	0.64	-56.8	-77.4	3.6	3.02e+01	0	44	104	0	60	282977
2026-01-30 10:07:06.19	154.60	0.70	-56.8	-77.4	3.5	3.02e+01	0	44	104	0	60	280654
2026-01-30 10:07:07.20	154.60	0.76	-57.0	-77.7	3.5	3.02e+01	0	44	104	0	60	293558
2026-01-30 10:07:08.21	154.61	0.83	-56.8	-77.5	3.5	3.02e+01	0	44	104	0	60	284990
2026-01-30 10:07:09.21	154.61	0.89	-56.8	-77.5	3.5	3.02e+01	0	44	104	0	60	284391
2026-01-30 10:07:10.22	154.62	0.96	-56.9	-77.5	3.6	3.02e+01	0	44	104	0	60	284119
2026-01-30 10:07:11.23	154.62	1.02	-56.8	-77.3	3.5	3.02e+01	0	44	104	0	60	280161
2026-01-30 10:07:12.24	154.62	1.09	-56.9	-77.3	3.6	3.02e+01	0	44	104	0	60	279610
2026-01-30 10:07:13.24	154.63	1.15	-57.1	-77.4	3.5	3.02e+01	0	44	104	0	60	282390
2026-01-30 10:07:14.25	154.63	1.22	-57.2	-77.4	3.5	3.02e+01	0	44	104	0	60	282363
2026-01-30 10:07:15.26	154.63	1.28	-57.2	-77.6	3.5	3.02e+01	0	44	104	0	60	289675
2026-01-30 10:07:16.26	154.64	1.35	-57.2	-77.4	3.5	3.02e+01	0	44	104	0	60	283395
2026-01-30 10:07:17.27	154.64	1.41	-57.3	-77.6	3.5	3.02e+01	0	44	104	0	60	289264
2026-01-30 10:07:18.28	154.64	1.48	-57.3	-77.5	3.5	3.02e+01	0	44	104	0	60	285488
2026-01-30 10:07:19.28	154.65	1.54	-57.4	-77.5	3.5	3.02e+01	0	44	104	0	60	285670
2026-01-30 10:07:20.29	154.65	1.61	-57.4	-77.3	3.5	3.02e+01	0	44	104	0	60	279684
2026-01-30 10:07:21.30	154.65	1.68	-57.1	-77.3	3.5	3.02e+01	0	44	104	0	60	280170
2026-01-30 10:07:22.30	154.66	1.74	-57.0	-77.1	3.5	3.02e+01	0	44	104	0	60	272142
2026-01-30 10:07:23.31	154.66	1.81	-57.1	-77.1	3.5	3.02e+01	0	44	104	0	60	273497
2026-01-30 10:07:24.32	154.66	1.87	-57.0	-77.2	3.5	3.02e+01	0	44	104	0	60	275553
2026-01-30 10:07:25.33	154.67	1.94	-57.0	-77.1	3.5	3.02e+01	0	44	104	0	60	271520
2026-01-30 10:07:26.34	154.67	2.01	-56.9	-76.8	3.5	3.02e+01	0	44	104	0	60	263952
2026-01-30 10:07:27.35	154.67	2.08	-56.6	-76.6	3.5	3.02e+01	0	44	104	0	60	256129
2026-01-30 10:07:28.35	154.68	2.14	-56.5	-76.4	3.5	3.02e+01	0	44	104	0	60	251453
2026-01-30 10:07:29.36	154.68	2.21	-56.2	-75.9	3.5	3.02e+01	0	44	104	0	60	238090
2026-01-30 10:07:30.37	154.68	2.28	-55.9	-75.7	3.5	3.02e+01	0	44	104	0	60	232673
2026-01-30 10:07:31.38	154.69	2.35	-55.5	-75.5	3.5	3.02e+01	0	44	104	0	60	226090
2026-01-30 10:07:32.38	154.69	2.41	-55.2	-75.3	3.5	3.02e+01	0	44	104	0	60	222064
2026-01-30 10:07:33.39	154.69	2.48	-54.9	-74.5	3.5	3.02e+01	0	44	104	0	60	202888
2026-01-30 10:07:34.40	154.70	2.55	-54.6	-74.7	3.5	3.02e+01	0	44	104	0	60	205586
2026-01-30 10:07:35.41	154.70	2.62	-54.6	-74.6	3.5	3.02e+01	0	44	104	0	60	203465
2026-01-30 10:07:36.41	154.70	2.69	-54.6	-74.6	3.5	3.02e+01	0	44	104	0	60	203790
2026-01-30 10:07:37.42	154.71	2.76	-54.6	-74.6	3.5	3.02e+01	0	44	104	0	60	204336
2026-01-30 10:07:38.42	154.71	2.83	-54.5	-74.6	3.5	3.02e+01	0	44	104	0	60	203527
2026-01-30 10:07:39.43	154.71	2.90	-54.4	-74.5	3.5	3.02e+01	0	44	104	0	60	201867
2026-01-30 10:07:40.44	154.72	2.97	-54.4	-74.4	3.5	3.02e+01	0	44	104	0	60	198613
2026-01-30 10:07:41.45	154.72	3.04	-54.4	-74.2	3.5	3.02e+01	0	44	104	0	60	194291
2026-01-30 10:07:42.45	154.72	3.11	-54.4	-73.9	3.5	3.02e+01	0	44	104	0	60	187737
2026-01-30 10:07:43.45	154.73	3.18	-54.3	-73.6	3.5	3.02e+01	0	44	104	0	60	181897
2026-01-30 10:07:44.46	154.73	3.25	-54.3	-73.3	3.5	3.02e+01	0	45	104	0	60	174918
2026-01-30 10:07:45.47	154.73	3.32	-54.3	-73.2	3.5	3.02e+01	0	44	104	0	60	173183
2026-01-30 10:07:46.47	154.74	3.39	-54.3	-72.9	3.5	3.02e+01	0	45	104	0	60	168860
2026-01-30 10:07:47.48	154.74	3.46	-54.3	-72.9	3.5	3.02e+01	0	45	104	0	60	168587
2026-01-30 10:07:48.49	154.75	3.53	-54.3	-73.0	3.5	3.02e+01	0	44	104	0	60	169390
2026-01-30 10:07:49.50	154.75	3.60	-54.3	-72.9	3.5	3.02e+01	0	45	104	0	60	168217
2026-01-30 10:07:50.50	154.75	3.67	-54.3	-72.9	3.5	3.02e+01	0	45	104	0	60	167790
2026-01-30 10:07:51.50	154.76	3.74	-54.3	-72.7	3.5	3.02e+01	0	45	104	0	60	163684
2026-01-30 10:07:52.51	154.76	3.82	-54.3	-72.2	3.5	3.02e+01	0	45	104	0	60	154312
2026-01-30 10:07:53.52	154.76	3.89	-54.2	-71.5	3.9	3.02e+01	0	45	104	0	60	143144
2026-01-30 10:07:54.52	154.77	3.96	-54.2	-70.9	4.2	3.02e+01	0	45	104	0	60	132958
2026-01-30 10:07:55.53	154.77	4.03	-54.2	-70.6	4.3	3.02e+01	0	45	104	0	60	128282
2026-01-30 10:07:56.53	154.77	4.10	-54.2	-70.5	4.4	3.02e+01	0	45	104	0	60	127083
2026-01-30 10:07:57.54	154.78	4.18	-54.2	-70.6	4.2	3.02e+01	0	45	104	0	60	129571
2026-01-30 10:07:58.55	154.78	4.25	-54.2	-71.2	4.0	3.02e+01	0	44	104	0	60	137606
2026-01-30 10:07:59.56	154.78	4.33	-54.2	-71.3	4.1	3.02e+01	0	45	104	0	60	139081
2026-01-30 10:08:00.57	154.79	4.40	-54.2	-70.1	3.7	3.02e+01	0	45	104	0	60	121739
2026-01-30 10:08:01.57	154.79	4.47	-54.1	-67.2	6.6	3.02e+01	0	45	0	0	60	86761
2026-01-30 10:08:02.58	154.79	4.55	-53.9	-64.0	9.4	3.02e+01	0	45	0	2097152	60	60587
2026-01-30 10:08:03.59	154.80	4.62	-53.5	-61.6	12.2	3.02e+01	0	45	0	3670016	60	45614
2026-01-30 10:08:04.59	154.80	4.70	-52.9	-59.4	14.6	3.02e+01	0	45	0	5767168	60	35472
2026-01-30 10:08:05.59	154.80	4.77	-52.3	-57.5	16.5	3.02e+01	0	44	0	7864320	60	28513
2026-01-30 10:08:06.60	154.81	4.85	-51.6	-55.8	18.2	3.02e+01	0	44	0	9437184	60	23509
2026-01-30 10:08:07.60	154.81	4.92	-50.9	-54.4	19.5	3.02e+01	0	44	0	11534336	60	20052
2026-01-30 10:08:08.61	154.81	5.00	-50.2	-53.4	20.6	3.02e+01	0	44	0	13107200	60	17720
2026-01-30 10:08:09.61	154.82	5.07	-49.7	-52.5	21.5	3.02e+01	0	45	0	15204352	60	15983
2026-01-30 10:08:10.62	154.82	5.15	-49.2	-51.8	22.1	3.02e+01	0	45	0	16777216	60	14741
2026-01-30 10:08:11.63	154.82	5.22	-48.8	-51.3	22.6	3.02e+01	0	44	0	18874368	60	13907
2026-01-30 10:08:12.63	154.83	5.30	-48.6	-51.0	22.8	3.02e+01	0	44	0	20971520	60	13499
2026-01-30 10:08:13.64	154.83	5.38	-48.5	-50.9	22.9	3.02e+01	0	44	0	23068672	60	13328
2026-01-30 10:08:14.65	154.83	5.46	-48.7	-51.1	22.6	3.02e+01	0	44	0	24641536	60	13696
2026-01-30 10:08:15.66	154.84	5.53	-48.9	-51.4	22.3	3.02e+01	0	44	0	26738688	60	14188
2026-01-30 10:08:16.67	154.84	5.61	-49.3	-52.0	21.8	3.02e+01	0	44	0	28311552	60	15104
2026-01-30 10:08:17.67	154.84	5.69	-49.9	-52.8	21.0	3.02e+01	0	44	0	30408704	60	16629
2026-01-30 10:08:18.68	154.85	5.77	-50.5	-53.8	20.0	3.02e+01	0	44	0	31981568	60	18590
2026-01-30 10:08:19.69	154.85	5.84	-51.2	-55.2	18.7	3.02e+01	0	44	0	34078720	60	21827
2026-01-30 10:08:20.70	154.86	5.92	-51.9	-56.7	17.2	3.02e+01	0	44	0	36175872	60	25927
2026-01-30 10:08:21.70	154.86	6.00	-52.6	-58.6	15.1	3.02e+01	0	45	0	37748736	60	32382
2026-01-30 10:08:22.71	154.86	6.08	-51.5	-55.6	18.4	3.02e+01	0	44	0	39845888	60	22819
2026-01-30 10:08:23.72	154.87	6.16	-52.1	-57.1	16.6	3.02e+01	0	44	0	41418752	60	27268
2026-01-30 10:08:24.72	154.87	6.24	-53.2	-60.7	13.8	3.02e+01	0	45	0	43515904	60	41428
2026-01-30 10:08:25.73	154.87	6.32	-51.2	-55.0	20.2	3.02e+01	0	45	0	45613056	60	21347
2026-01-30 10:08:26.74	154.88	6.40	-53.1	-60.1	8.4	3.02e+01	0	45	0	47185920	60	38620
2026-01-30 10:08:27.74	154.88	6.48	-53.4	-62.1	16.0	3.02e+01	0	45	104	47710208	60	48411
2026-01-30 10:08:28.75	154.88	6.56	-49.4	-52.0	22.1	3.02e+01	0	45	0	1048576	60	15123
2026-01-30 10:08:29.75	154.89	6.64	-49.0	-51.4	22.5	3.02e+01	0	45	0	3145728	60	14138
2026-01-30 10:08:30.75	154.89	6.72	-49.0	-51.5	22.5	3.02e+01	0	45	0	4718592	60	14260
2026-01-30 10:08:31.76	154.89	6.81	-48.9	-51.3	22.7	3.02e+01	0	45	0	6815744	60	13932
2026-01-30 10:08:32.76	154.90	6.89	-48.5	-50.7	23.2	3.02e+01	0	45	0	8388608	60	13086
2026-01-30 10:08:33.77	154.90	6.97	-48.2	-50.3	23.6	3.02e+01	0	44	0	10485760	60	12510
2026-01-30 10:08:34.77	154.90	7.05	-48.0	-50.1	23.8	3.02e+01	0	45	0	12582912	60	12234
2026-01-30 10:08:35.77	154.91	7.13	-48.0	-50.1	23.9	3.02e+01	0	44	0	14155776	60	12167
2026-01-30 10:08:36.78	154.91	7.22	-48.0	-50.2	23.9	3.02e+01	0	44	0	16252928	60	12255
2026-01-30 10:08:37.79	154.91	7.30	-48.0	-50.1	23.9	3.02e+01	0	45	0	17825792	60	12182
2026-01-30 10:08:38.79	154.92	7.38	-48.0	-50.1	24.0	3.02e+01	0	45	0	19922944	60	12103
2026-01-30 10:08:39.80	154.92	7.47	-48.0	-50.1	24.0	3.02e+01	0	45	0	21495808	60	12119
2026-01-30 10:08:40.81	154.92	7.55	-48.1	-50.2	23.9	3.02e+01	0	45	0	23592960	60	12334
2026-01-30 10:08:41.81	154.93	7.64	-48.1	-50.2	23.9	3.02e+01	0	45	0	25690112	60	12253
2026-01-30 10:08:42.82	154.93	7.72	-48.2	-50.2	23.8	3.02e+01	0	44	0	27262976	60	12352
2026-01-30 10:08:43.83	154.93	7.81	-48.1	-50.1	24.0	3.02e+01	0	45	0	29360128	60	12161
2026-01-30 10:08:44.83	154.94	7.89	-48.3	-50.4	23.8	3.02e+01	0	44	0	31457280	60	12545
2026-01-30 10:08:45.84	154.94	7.98	-48.1	-50.1	24.0	3.02e+01	0	45	0	33030144	60	12200
2026-01-30 10:08:46.84	154.94	8.06	-48.0	-50.0	24.1	3.02e+01	0	45	0	35127296	60	12043
2026-01-30 10:08:47.84	154.95	8.15	-47.9	-49.9	24.2	3.02e+01	0	45	0	36700160	60	11947
2026-01-30 10:08:48.85	154.95	8.24	-48.0	-50.1	24.1	3.02e+01	0	45	0	38797312	60	12114
2026-01-30 10:08:49.86	154.96	8.32	-47.9	-50.0	24.1	3.02e+01	0	45	0	40894464	60	11993
2026-01-30 10:08:50.86	154.96	8.41	-48.0	-50.1	24.1	3.02e+01	0	45	0	42467328	60	12175
2026-01-30 10:08:51.86	154.96	8.50	-48.1	-50.2	24.0	3.02e+01	0	45	0	44564480	60	12251
2026-01-30 10:08:52.87	154.97	8.59	-48.2	-50.3	23.9	3.02e+01	0	45	0	46137344	60	12411
2026-01-30 10:08:53.87	154.97	8.68	-48.1	-50.2	24.1	3.02e+01	0	45	0	48234496	60	12253
2026-01-30 10:08:54.88	154.97	8.77	-48.1	-50.2	24.0	3.02e+01	0	45	0	49807360	60	12245
2026-01-30 10:08:55.88	154.98	8.85	-48.2	-50.4	23.9	3.02e+01	0	45	0	51904512	60	12532
2026-01-30 10:08:56.89	154.98	8.94	-48.1	-50.2	24.2	3.02e+01	0	45	0	54001664	60	12253
2026-01-30 10:08:57.89	154.98	9.03	-47.9	-49.9	24.4	3.02e+01	0	45	0	55574528	60	11899
2026-01-30 10:08:58.90	154.99	9.12	-47.9	-49.9	24.5	3.02e+01	0	45	0	57671680	60	11842
2026-01-30 10:08:59.90	154.99	9.21	-47.9	-49.9	24.4	3.02e+01	0	45	0	59244544	60	11843
2026-01-30 10:09:00.90	154.99	9.30	-47.9	-49.9	24.4	3.02e+01	0	45	0	61341696	60	11860
2026-01-30 10:09:01.90	155.00	9.40	-47.9	-49.9	24.4	3.02e+01	0	45	0	62914560	60	11944
2026-01-30 10:09:02.90	155.00	9.49	-47.9	-49.9	24.5	3.02e+01	0	44	0	65011712	60	11832
2026-01-30 10:09:03.91	155.00	9.58	-47.9	-49.9	24.4	3.02e+01	0	45	0	67108864	60	11864
2026-01-30 10:09:04.91	155.01	9.67	-47.8	-49.8	24.6	3.02e+01	0	44	0	68681728	60	11694
2026-01-30 10:09:05.92	155.01	9.76	-47.7	-49.6	24.7	3.02e+01	0	45	0	70778880	60	11538
2026-01-30 10:09:06.93	155.01	9.86	-47.7	-49.7	24.6	3.02e+01	0	45	0	72351744	60	11601
2026-01-30 10:09:07.94	155.02	9.95	-47.7	-49.7	24.7	3.02e+01	0	45	0	74448896	60	11618
2026-01-30 10:09:08.94	155.02	10.05	-47.7	-49.6	24.7	3.02e+01	0	45	0	76546048	60	11520
2026-01-30 10:09:09.95	155.02	10.14	-47.8	-49.8	24.6	3.02e+01	0	44	0	78118912	60	11719
2026-01-30 10:09:10.95	155.03	10.24	-47.8	-49.8	24.6	3.02e+01	0	45	0	80216064	60	11703
2026-01-30 10:09:11.96	155.03	10.33	-47.9	-49.9	24.5	3.02e+01	0	45	0	82313216	60	11877
2026-01-30 10:09:12.97	155.04	10.43	-47.8	-49.7	24.7	3.02e+01	0	45	0	83886080	60	11600
2026-01-30 10:09:13.97	155.04	10.52	-47.7	-49.7	24.7	3.02e+01	0	45	0	85983232	60	11568
2026-01-30 10:09:14.98	155.04	10.62	-47.5	-49.4	24.9	3.02e+01	0	44	0	87556096	60	11257
2026-01-30 10:09:15.98	155.05	10.72	-47.5	-49.4	25.0	3.02e+01	0	44	0	89653248	60	11265
2026-01-30 10:09:16.98	155.05	10.81	-47.6	-49.5	24.9	3.02e+01	0	45	0	91226112	60	11341
2026-01-30 10:09:17.99	155.05	10.91	-47.6	-49.5	24.9	3.02e+01	0	45	0	93323264	60	11352
2026-01-30 10:09:19.00	155.06	11.01	-47.5	-49.4	25.0	3.02e+01	0	45	0	95420416	60	11240
2026-01-30 10:09:20.01	155.06	11.11	-47.5	-49.4	25.0	3.02e+01	0	45	0	96993280	60	11212
2026-01-30 10:09:21.02	155.06	11.21	-47.6	-49.5	25.0	3.02e+01	0	45	0	99090432	60	11319
2026-01-30 10:09:22.02	155.07	11.31	-47.5	-49.4	25.1	3.02e+01	0	45	0	100663296	60	11167
2026-01-30 10:09:23.03	155.07	11.41	-47.4	-49.2	25.3	3.02e+01	0	45	0	102760448	60	10937
2026-01-30 10:09:24.04	155.07	11.51	-47.3	-49.1	25.3	3.02e+01	0	45	0	104857600	60	10907
2026-01-30 10:09:25.04	155.08	11.61	-47.4	-49.2	25.2	3.02e+01	0	45	0	106430464	60	10927
2026-01-30 10:09:26.05	155.08	11.71	-47.3	-49.1	25.2	3.02e+01	0	45	0	108527616	60	10907
2026-01-30 10:09:27.06	155.08	11.81	-47.3	-49.1	25.2	3.02e+01	0	45	0	110624768	60	10859
2026-01-30 10:09:28.06	155.09	11.92	-47.4	-49.2	25.2	3.02e+01	0	45	0	112197632	60	10931
2026-01-30 10:09:29.07	155.09	12.02	-47.4	-49.2	25.2	3.02e+01	0	45	0	114294784	60	10999
2026-01-30 10:09:30.07	155.09	12.12	-47.3	-49.1	25.3	3.02e+01	0	45	0	115867648	60	10819
2026-01-30 10:09:31.08	155.10	12.23	-47.4	-49.2	25.3	3.02e+01	0	45	0	117964800	60	10956
2026-01-30 10:09:32.09	155.10	12.33	-47.5	-49.3	25.2	3.02e+01	0	45	0	119537664	60	11048
2026-01-30 10:09:33.10	155.10	12.44	-47.4	-49.2	25.2	3.02e+01	0	45	0	121634816	60	11018
2026-01-30 10:09:34.10	155.11	12.54	-47.4	-49.2	25.3	3.02e+01	0	45	0	123731968	60	10977
2026-01-30 10:09:35.11	155.11	12.65	-47.3	-49.1	25.4	3.02e+01	0	45	0	125304832	60	10803
2026-01-30 10:09:36.12	155.11	12.76	-47.2	-49.0	25.4	3.02e+01	0	45	0	127401984	60	10724
2026-01-30 10:09:37.13	155.12	12.86	-47.2	-49.0	25.4	3.02e+01	0	45	0	128974848	60	10700
2026-01-30 10:09:38.14	155.12	12.97	-47.3	-49.0	25.4	3.02e+01	0	45	0	131072000	60	10771
2026-01-30 10:09:39.14	155.13	13.08	-47.2	-49.0	25.5	3.02e+01	0	45	0	133169152	60	10711
2026-01-30 10:09:40.15	155.13	13.19	-47.2	-49.0	25.4	3.02e+01	0	45	0	134742016	60	10683
2026-01-30 10:09:41.16	155.13	13.30	-47.2	-49.0	25.4	3.02e+01	0	45	0	136839168	60	10713
2026-01-30 10:09:42.16	155.14	13.41	-47.2	-48.9	25.6	3.02e+01	0	44	0	138936320	60	10594
2026-01-30 10:09:43.17	155.14	13.52	-47.1	-48.8	25.6	3.02e+01	0	45	0	140509184	60	10538
2026-01-30 10:09:44.18	155.14	13.63	-47.1	-48.9	25.6	3.02e+01	0	45	0	142606336	60	10541
2026-01-30 10:09:45.18	155.15	13.74	-47.2	-49.0	25.5	3.02e+01	0	45	0	144179200	60	10687
2026-01-30 10:09:46.19	155.15	13.85	-47.3	-49.0	25.5	3.02e+01	0	45	0	146276352	60	10740
2026-01-30 10:09:47.20	155.15	13.96	-47.3	-49.1	25.5	3.02e+01	0	44	0	147849216	60	10800
2026-01-30 10:09:48.20	155.16	14.08	-47.2	-49.0	25.6	3.02e+01	0	45	0	149946368	60	10662
2026-01-30 10:09:49.21	155.16	14.19	-47.2	-48.9	25.7	3.02e+01	0	45	0	152043520	60	10646
2026-01-30 10:09:50.22	155.16	14.30	-47.3	-49.0	25.5	3.02e+01	0	45	0	153616384	60	10744
2026-01-30 10:09:51.23	155.17	14.42	-47.3	-49.1	25.6	3.02e+01	0	45	0	155713536	60	10814
2026-01-30 10:09:52.23	155.17	14.53	-47.5	-49.3	25.3	3.02e+01	0	45	0	157810688	60	11076
2026-01-30 10:09:53.24	155.17	14.65	-47.3	-49.0	25.6	3.02e+01	0	45	0	159383552	60	10746
2026-01-30 10:09:54.25	155.18	14.77	-47.4	-49.1	25.5	3.02e+01	0	45	0	161480704	60	10862
2026-01-30 10:09:55.26	155.18	14.89	-47.4	-49.1	25.6	3.02e+01	0	45	0	163053568	60	10872
2026-01-30 10:09:56.26	155.18	15.00	-47.2	-48.9	25.8	3.02e+01	0	45	0	165150720	60	10596
2026-01-30 10:09:57.27	155.19	15.12	-47.2	-48.9	25.8	3.02e+01	0	45	0	167247872	60	10591
2026-01-30 10:09:58.28	155.19	15.24	-47.3	-48.9	25.7	3.02e+01	0	44	0	168820736	60	10657
2026-01-30 10:09:59.29	155.19	15.36	-47.1	-48.8	25.9	3.02e+01	0	45	0	170917888	60	10507
2026-01-30 10:10:00.30	155.20	15.48	-47.1	-48.7	26.0	3.02e+01	0	44	0	172490752	60	10394
2026-01-30 10:10:01.31	155.20	15.61	-47.1	-48.7	25.9	3.02e+01	0	45	0	174587904	60	10365
2026-01-30 10:10:02.31	155.21	15.73	-47.0	-48.7	26.0	3.02e+01	0	45	0	176160768	60	10327
2026-01-30 10:10:03.32	155.21	15.85	-47.1	-48.8	25.9	3.02e+01	0	45	0	178257920	60	10424
2026-01-30 10:10:04.32	155.21	15.97	-47.1	-48.8	25.9	3.02e+01	0	45	0	180355072	60	10421
2026-01-30 10:10:05.33	155.22	16.10	-46.9	-48.6	26.1	3.02e+01	0	45	0	182452224	60	10222
2026-01-30 10:10:06.34	155.22	16.22	-46.9	-48.6	26.1	3.02e+01	0	45	0	184025088	60	10181
2026-01-30 10:10:07.35	155.22	16.35	-46.9	-48.5	26.1	3.02e+01	0	45	0	186122240	60	10130
2026-01-30 10:10:08.35	155.23	16.47	-47.0	-48.6	26.0	3.02e+01	0	44	0	187695104	60	10283
2026-01-30 10:10:09.36	155.23	16.60	-47.0	-48.6	26.0	3.02e+01	0	44	0	189792256	60	10246
2026-01-30 10:10:10.36	155.23	16.73	-47.0	-48.6	26.0	3.02e+01	0	45	0	191365120	60	10296
2026-01-30 10:10:11.37	155.24	16.85	-47.0	-48.6	26.1	3.02e+01	0	45	0	193462272	60	10283
2026-01-30 10:10:12.38	155.24	16.98	-47.0	-48.7	26.0	3.02e+01	0	45	0	195559424	60	10355
2026-01-30 10:10:13.39	155.24	17.11	-47.1	-48.7	26.0	3.02e+01	0	45	0	197132288	60	10393
2026-01-30 10:10:14.39	155.25	17.24	-47.2	-48.8	26.0	3.02e+01	0	45	0	199229440	60	10530
2026-01-30 10:10:15.40	155.25	17.38	-47.2	-48.9	25.9	3.02e+01	0	45	0	200802304	60	10583
2026-01-30 10:10:16.40	155.25	17.51	-47.3	-48.9	25.9	3.02e+01	0	45	0	202899456	60	10645
2026-01-30 10:10:17.41	155.26	17.64	-47.3	-48.9	25.9	3.02e+01	0	45	0	204472320	60	10643
2026-01-30 10:10:18.42	155.26	17.77	-47.3	-48.9	25.9	3.02e+01	0	45	0	206569472	60	10627
2026-01-30 10:10:19.43	155.26	17.91	-47.2	-48.8	26.0	3.02e+01	0	45	0	208666624	60	10532
2026-01-30 10:10:20.43	155.27	18.04	-47.2	-48.9	26.0	3.02e+01	0	45	0	210763776	60	10565
2026-01-30 10:10:21.44	155.27	18.18	-47.3	-48.9	25.9	3.02e+01	0	45	0	212336640	60	10631
2026-01-30 10:10:22.44	155.27	18.32	-47.3	-49.0	26.0	3.02e+01	0	45	0	214433792	60	10676
2026-01-30 10:10:23.44	155.28	18.45	-47.4	-49.1	25.8	3.02e+01	0	45	0	216006656	60	10867
2026-01-30 10:10:24.45	155.28	18.59	-47.3	-49.0	26.0	3.02e+01	0	45	0	218103808	60	10671
2026-01-30 10:10:25.45	155.29	18.73	-47.3	-48.9	26.0	3.02e+01	0	45	0	219676672	60	10617
2026-01-30 10:10:26.46	155.29	18.87	-47.3	-48.9	26.1	3.02e+01	0	45	0	221773824	60	10637
2026-01-30 10:10:27.47	155.29	19.01	-47.4	-49.0	26.0	3.02e+01	0	45	0	223870976	60	10765
2026-01-30 10:10:28.47	155.30	19.16	-47.4	-49.1	26.0	3.02e+01	0	45	0	225443840	60	10807
2026-01-30 10:10:29.47	155.30	19.30	-47.5	-49.1	25.8	3.02e+01	0	45	0	227540992	60	10908
2026-01-30 10:10:30.48	155.30	19.44	-47.6	-49.3	25.8	3.02e+01	0	45	0	229113856	60	11080
2026-01-30 10:10:31.49	155.31	19.59	-47.7	-49.4	25.7	3.02e+01	0	45	0	231211008	60	11207
2026-01-30 10:10:32.49	155.31	19.73	-47.9	-49.7	25.5	3.02e+01	0	45	0	233308160	60	11576
2026-01-30 10:10:33.50	155.31	19.88	-48.0	-49.8	25.4	3.02e+01	0	45	0	234881024	60	11699
2026-01-30 10:10:34.51	155.32	20.03	-48.0	-49.7	25.5	3.02e+01	0	45	0	236978176	60	11638
2026-01-30 10:10:35.51	155.32	20.18	-48.1	-49.9	25.3	3.02e+01	0	45	0	238551040	60	11926
2026-01-30 10:10:36.52	155.32	20.33	-48.1	-49.9	25.4	3.02e+01	0	45	0	240648192	60	11826
2026-01-30 10:10:37.52	155.33	20.48	-47.8	-49.5	25.7	3.02e+01	0	45	0	242221056	60	11407
2026-01-30 10:10:38.53	155.33	20.63	-47.8	-49.5	25.7	3.02e+01	0	45	0	244318208	60	11390
2026-01-30 10:10:39.53	155.33	20.78	-47.9	-49.6	25.6	3.02e+01	0	45	0	246415360	60	11507
2026-01-30 10:10:40.54	155.34	20.93	-47.9	-49.7	25.6	3.02e+01	0	45	0	247988224	60	11562
2026-01-30 10:10:41.55	155.34	21.09	-47.8	-49.5	25.7	3.02e+01	0	45	0	250085376	60	11328
2026-01-30 10:10:42.56	155.34	21.24	-47.8	-49.5	25.7	3.02e+01	0	45	0	252182528	60	11346
2026-01-30 10:10:43.56	155.35	21.40	-47.9	-49.6	25.6	3.02e+01	0	45	0	253755392	60	11468
2026-01-30 10:10:44.57	155.35	21.56	-47.9	-49.7	25.6	3.02e+01	0	45	0	255852544	60	11572
2026-01-30 10:10:45.58	155.35	21.72	-48.0	-49.7	25.6	3.02e+01	0	45	0	257425408	60	11662
2026-01-30 10:10:46.58	155.36	21.88	-48.1	-49.8	25.5	3.02e+01	0	45	0	259522560	60	11789
2026-01-30 10:10:47.59	155.36	22.04	-48.1	-49.8	25.6	3.02e+01	0	45	0	261619712	60	11769
2026-01-30 10:10:48.59	155.36	22.20	-48.2	-49.9	25.5	3.02e+01	0	45	0	263192576	60	11886
2026-01-30 10:10:49.60	155.37	22.36	-48.1	-49.8	25.7	3.02e+01	0	45	0	265289728	60	11713
2026-01-30 10:10:50.60	155.37	22.53	-48.1	-49.8	25.7	3.02e+01	0	45	0	266862592	60	11765
2026-01-30 10:10:51.61	155.37	22.69	-48.1	-49.9	25.6	3.02e+01	0	45	0	268959744	60	11832
2026-01-30 10:10:52.62	155.38	22.86	-48.2	-49.9	25.6	3.02e+01	0	45	0	270532608	60	11851
2026-01-30 10:10:53.62	155.38	23.03	-48.1	-49.8	25.6	3.02e+01	0	45	0	272629760	60	11803
2026-01-30 10:10:54.63	155.38	23.20	-48.1	-49.8	25.6	3.02e+01	0	45	0	274726912	60	11815
2026-01-30 10:10:55.63	155.39	23.37	-48.1	-49.9	25.6	3.02e+01	0	45	0	276299776	60	11843
2026-01-30 10:10:56.64	155.39	23.54	-48.2	-49.9	25.5	3.02e+01	0	45	0	278396928	60	11933
2026-01-30 10:10:57.65	155.39	23.71	-48.2	-49.9	25.5	3.02e+01	0	45	0	280494080	60	11953
2026-01-30 10:10:58.65	155.40	23.89	-48.1	-49.8	25.7	3.02e+01	0	45	0	282066944	60	11803
2026-01-30 10:10:59.66	155.40	24.06	-48.2	-50.0	25.5	3.02e+01	0	45	0	284164096	60	12002
2026-01-30 10:11:00.66	155.41	24.24	-48.3	-50.0	25.5	3.02e+01	0	45	0	285736960	60	12073
2026-01-30 10:11:01.67	155.41	24.42	-48.2	-50.0	25.6	3.02e+01	0	45	0	287834112	60	12061
2026-01-30 10:11:02.68	155.41	24.60	-48.1	-49.8	25.8	3.02e+01	0	45	0	289931264	60	11731
2026-01-30 10:11:03.68	155.42	24.78	-48.0	-49.7	25.9	3.02e+01	0	45	0	291504128	60	11567
2026-01-30 10:11:04.69	155.42	24.96	-47.9	-49.6	26.0	3.02e+01	0	45	0	293601280	60	11466
2026-01-30 10:11:05.70	155.42	25.14	-48.0	-49.7	25.9	3.02e+01	0	45	0	295174144	60	11642
2026-01-30 10:11:06.71	155.43	25.33	-48.0	-49.7	26.0	3.02e+01	0	45	0	297271296	60	11642
2026-01-30 10:11:07.72	155.43	25.51	-48.0	-49.7	25.9	3.02e+01	0	45	0	298844160	60	11633
2026-01-30 10:11:08.72	155.43	25.70	-48.0	-49.7	25.9	3.02e+01	0	45	0	300941312	60	11677
2026-01-30 10:11:09.73	155.44	25.89	-48.1	-49.8	25.8	3.02e+01	0	45	0	303038464	60	11763
2026-01-30 10:11:10.74	155.44	26.08	-48.1	-49.8	25.9	3.02e+01	0	45	0	304611328	60	11783
2026-01-30 10:11:11.74	155.44	26.27	-48.1	-49.8	25.9	3.02e+01	0	45	0	306708480	60	11795
2026-01-30 10:11:12.75	155.45	26.47	-48.1	-49.8	26.0	3.02e+01	0	45	0	308805632	60	11736
2026-01-30 10:11:13.75	155.45	26.66	-48.1	-49.8	26.0	3.02e+01	0	45	0	310378496	60	11768
2026-01-30 10:11:14.76	155.45	26.86	-48.2	-49.9	26.0	3.02e+01	0	45	0	312475648	60	11916
2026-01-30 10:11:15.76	155.46	27.05	-48.2	-49.9	26.0	3.02e+01	0	45	0	314048512	60	11896
2026-01-30 10:11:16.77	155.46	27.25	-48.2	-49.8	26.1	3.02e+01	0	45	0	316145664	60	11799
2026-01-30 10:11:17.78	155.46	27.46	-48.2	-49.9	26.0	3.02e+01	0	45	0	318242816	60	11926
2026-01-30 10:11:18.79	155.47	27.66	-48.2	-49.8	26.1	3.02e+01	0	45	0	319815680	60	11814
2026-01-30 10:11:19.79	155.47	27.86	-47.9	-49.5	26.3	3.02e+01	0	45	0	321912832	60	11416
2026-01-30 10:11:20.80	155.47	28.07	-47.9	-49.5	26.5	3.02e+01	0	45	0	323485696	60	11336
2026-01-30 10:11:21.81	155.48	28.28	-47.8	-49.4	26.5	3.02e+01	0	45	0	325582848	60	11207
2026-01-30 10:11:22.82	155.48	28.49	-47.8	-49.4	26.5	3.02e+01	0	45	0	327155712	60	11248
2026-01-30 10:11:23.82	155.48	28.70	-48.0	-49.6	26.4	3.02e+01	0	45	0	329252864	60	11502
2026-01-30 10:11:24.82	155.49	28.91	-47.9	-49.5	26.4	3.02e+01	0	45	0	331350016	60	11364
2026-01-30 10:11:25.83	155.49	29.13	-48.0	-49.7	26.3	3.02e+01	0	45	0	332922880	60	11562
2026-01-30 10:11:26.84	155.49	29.34	-48.0	-49.6	26.4	3.02e+01	0	45	0	335020032	60	11434
2026-01-30 10:11:27.84	155.50	29.56	-47.9	-49.5	26.4	3.02e+01	0	45	0	337117184	60	11414
2026-01-30 10:11:28.85	155.50	29.78	-47.9	-49.5	26.5	3.02e+01	0	45	0	338690048	60	11368
2026-01-30 10:11:29.86	155.50	30.00	-47.9	-49.5	26.4	3.02e+01	0	45	0	340787200	60	11342
2026-01-30 10:11:30.86	155.51	30.22	-48.0	-49.6	26.3	3.02e+01	0	45	0	342360064	60	11453
2026-01-30 10:11:31.86	155.51	30.45	-48.2	-49.8	26.0	3.02e+01	0	45	0	344457216	60	11819
2026-01-30 10:11:32.86	155.51	30.67	-48.4	-50.2	25.9	3.02e+01	0	45	0	346554368	60	12260
2026-01-30 10:11:33.87	155.52	30.91	-48.6	-50.3	25.8	3.02e+01	0	45	0	348127232	60	12393
2026-01-30 10:11:34.88	155.52	31.14	-48.0	-49.7	26.3	3.02e+01	0	45	0	350224384	60	11621
2026-01-30 10:11:35.89	155.52	31.37	-47.9	-49.5	26.5	3.02e+01	0	45	0	351797248	60	11305
2026-01-30 10:11:36.89	155.52	31.61	-47.8	-49.4	26.5	3.02e+01	0	45	0	353894400	60	11257
2026-01-30 10:11:37.89	155.53	31.84	-47.9	-49.5	26.5	3.02e+01	0	45	0	355467264	60	11309
2026-01-30 10:11:38.89	155.53	32.08	-48.0	-49.6	26.4	3.02e+01	0	45	0	357564416	60	11528
2026-01-30 10:11:39.90	155.53	32.32	-48.1	-49.7	26.3	3.02e+01	0	45	0	359661568	60	11644
2026-01-30 10:11:40.91	155.54	32.57	-48.2	-49.8	26.3	3.02e+01	0	45	0	361234432	60	11756
2026-01-30 10:11:41.92	155.54	32.81	-48.2	-49.8	26.3	3.02e+01	0	45	0	363331584	60	11797
2026-01-30 10:11:42.93	155.54	33.06	-48.4	-50.0	26.2	3.02e+01	0	45	0	364904448	60	12071
2026-01-30 10:11:43.94	155.55	33.31	-48.4	-50.0	26.2	3.02e+01	0	45	0	367001600	60	12065
2026-01-30 10:11:44.94	155.55	33.56	-48.4	-50.1	26.1	3.02e+01	0	45	0	369098752	60	12124
2026-01-30 10:11:45.95	155.55	33.82	-48.5	-50.2	26.0	3.02e+01	0	45	0	370671616	60	12263
2026-01-30 10:11:46.95	155.56	34.07	-48.6	-50.3	25.7	3.02e+01	0	45	0	372768768	60	12485
2026-01-30 10:11:47.95	155.56	34.33	-48.7	-50.4	25.7	3.02e+01	0	45	0	374865920	60	12596
2026-01-30 10:11:48.95	155.56	34.59	-48.9	-50.6	25.5	3.02e+01	0	45	0	376438784	60	12915
2026-01-30 10:11:49.96	155.57	34.85	-49.0	-50.7	25.5	3.02e+01	0	45	0	378535936	60	13047
2026-01-30 10:11:50.97	155.57	35.12	-49.0	-50.8	25.5	3.02e+01	0	45	0	380108800	60	13160
2026-01-30 10:11:51.97	155.57	35.39	-49.1	-50.9	25.3	3.02e+01	0	45	0	382205952	60	13340
2026-01-30 10:11:52.97	155.58	35.66	-49.3	-51.1	25.1	3.02e+01	0	45	0	383778816	60	13593
2026-01-30 10:11:53.98	155.58	35.93	-49.5	-51.4	24.8	3.02e+01	0	45	0	385875968	60	14143
2026-01-30 10:11:54.98	155.58	36.20	-49.7	-51.6	24.7	3.02e+01	0	45	0	387973120	60	14434
2026-01-30 10:11:55.98	155.59	36.48	-49.7	-51.5	24.7	3.02e+01	0	45	0	389545984	60	14362
2026-01-30 10:11:56.99	155.59	36.76	-49.8	-51.7	24.6	3.02e+01	0	45	0	391643136	60	14587
2026-01-30 10:11:57.99	155.59	37.04	-49.9	-51.8	24.5	3.02e+01	0	45	0	393216000	60	14826
2026-01-30 10:11:59.00	155.59	37.33	-50.1	-52.1	24.3	3.02e+01	0	45	0	395313152	60	15238
2026-01-30 10:12:00.01	155.60	37.62	-50.1	-52.1	24.2	3.02e+01	0	45	0	396886016	60	15265
2026-01-30 10:12:01.02	155.60	37.91	-50.2	-52.3	24.1	3.02e+01	0	45	0	398983168	60	15609
2026-01-30 10:12:02.03	155.60	38.21	-50.4	-52.5	23.9	3.02e+01	0	45	0	401080320	60	15958
2026-01-30 10:12:03.03	155.61	38.50	-50.6	-52.8	23.7	3.02e+01	0	45	0	403177472	60	16531
2026-01-30 10:12:04.03	155.61	38.80	-50.6	-52.7	23.8	3.02e+01	0	45	0	404750336	60	16486
2026-01-30 10:12:05.04	155.61	39.10	-50.5	-52.5	24.0	3.02e+01	0	45	0	406847488	60	16050
2026-01-30 10:12:06.05	155.62	39.41	-50.2	-52.2	24.2	3.02e+01	0	45	0	408420352	60	15445
2026-01-30 10:12:07.06	155.62	39.72	-49.9	-51.9	24.5	3.02e+01	0	45	0	410517504	60	14917
2026-01-30 10:12:08.06	155.62	40.03	-49.9	-51.8	24.6	3.02e+01	0	45	0	412090368	60	14804
2026-01-30 10:12:09.07	155.62	40.34	-50.0	-51.9	24.5	3.02e+01	0	45	0	414187520	60	15050
2026-01-30 10:12:10.08	155.63	40.66	-50.0	-52.0	24.4	3.02e+01	0	45	0	416284672	60	15133
2026-01-30 10:12:11.09	155.63	40.98	-49.8	-51.7	24.6	3.02e+01	0	45	0	417857536	60	14693
2026-01-30 10:12:12.10	155.63	41.30	-49.7	-51.6	24.7	3.02e+01	0	45	0	419954688	60	14509
2026-01-30 10:12:13.10	155.64	41.63	-49.7	-51.5	24.8	3.02e+01	0	45	0	421527552	60	14358
2026-01-30 10:12:14.11	155.64	41.96	-49.5	-51.3	25.1	3.02e+01	0	45	0	423624704	60	14043
2026-01-30 10:12:15.11	155.64	42.29	-49.4	-51.2	25.2	3.02e+01	0	45	0	425197568	60	13805
2026-01-30 10:12:16.12	155.64	42.62	-49.4	-51.2	25.2	3.02e+01	0	45	0	427294720	60	13777
2026-01-30 10:12:17.13	155.65	42.96	-49.7	-60.2	3.6	3.02e+01	0	45	104	427819008	60	39147
2026-01-30 10:12:18.14	155.65	43.30	-49.7	-60.3	3.5	3.02e+01	0	45	104	427819008	60	39341
2026-01-30 10:12:19.14	155.65	43.65	-49.7	-60.3	3.6	3.02e+01	0	45	104	427819008	60	39250
2026-01-30 10:12:20.14	155.66	43.99	-49.7	-60.3	3.6	3.02e+01	0	45	104	427819008	60	39202
2026-01-30 10:12:21.15	155.66	44.34	-56.8	-74.9	3.5	3.02e+01	0	45	104	427819008	60	210417
2026-01-30 10:12:22.16	155.66	44.70	-53.0	-64.7	3.4	3.02e+01	0	45	104	427819008	60	65574
2026-01-30 10:12:23.17	155.66	45.06	-51.1	-62.1	3.5	3.02e+01	0	45	104	427819008	60	48360
2026-01-30 10:12:24.17	155.67	45.42	-50.7	-61.5	3.6	3.02e+01	0	45	104	427819008	60	45324
2026-01-30 10:12:25.17	155.67	45.78	-50.6	-61.3	3.6	3.02e+01	0	45	104	427819008	60	44186
2026-01-30 10:12:26.18	155.67	46.15	-50.5	-61.2	3.5	3.02e+01	0	45	104	427819008	60	43927
2026-01-30 10:12:27.19	155.67	46.52	-51.7	-62.7	3.6	3.02e+01	0	45	104	427819008	60	52122
2026-01-30 10:12:28.19	155.68	46.89	-53.5	-65.6	3.5	3.02e+01	0	45	104	427819008	60	72320
2026-01-30 10:12:29.19	155.68	47.27	-54.7	-67.8	3.5	3.02e+01	0	45	104	427819008	60	93410
2026-01-30 10:12:30.20	155.68	47.65	-51.4	-62.3	3.4	3.02e+01	0	45	104	427819008	60	49384
2026-01-30 10:12:31.21	155.68	48.04	-56.9	-75.2	3.5	3.02e+01	0	45	104	427819008	60	219924
2026-01-30 10:12:32.21	155.69	48.43	-51.1	-62.0	3.9	3.02e+01	0	45	104	427819008	60	47771
2026-01-30 10:12:33.22	155.69	48.82	-50.9	-61.8	4.1	3.02e+01	0	45	104	427819008	60	46552
2026-01-30 10:12:34.23	155.69	49.22	-50.1	-60.7	3.9	3.02e+01	0	45	104	427819008	60	41347
2026-01-30 10:12:35.23	155.69	49.62	-56.9	-74.7	3.5	3.02e+01	0	45	104	427819008	60	205721
2026-01-30 10:12:36.24	155.69	50.03	-49.7	-60.2	4.0	3.02e+01	0	45	104	427819008	60	39007
2026-01-30 10:12:37.24	155.70	50.43	-57.0	-75.3	3.5	3.02e+01	0	45	104	427819008	60	221553
2026-01-30 10:12:38.25	155.70	50.84	-52.8	-64.4	3.5	3.02e+01	0	45	104	427819008	60	62966
2026-01-30 10:12:39.25	155.70	51.26	-50.9	-61.8	3.5	3.02e+01	0	45	104	427819008	60	46634
2026-01-30 10:12:40.26	155.70	51.68	-49.5	-60.2	3.5	3.02e+01	0	45	104	427819008	60	38819
2026-01-30 10:12:41.27	155.71	52.10	-49.4	-60.0	3.5	3.02e+01	0	45	104	427819008	60	37870
2026-01-30 10:12:42.27	155.71	52.53	-48.8	-59.3	3.5	3.02e+01	0	45	104	427819008	60	35004
2026-01-30 10:12:43.28	155.71	52.96	-50.7	-61.6	3.5	3.02e+01	0	45	104	427819008	60	45530
2026-01-30 10:12:44.29	155.71	53.40	-49.0	-59.6	3.5	3.02e+01	0	45	104	427819008	60	36124
2026-01-30 10:12:45.30	155.71	53.84	-56.9	-74.5	3.5	3.02e+01	0	45	104	427819008	60	203062
2026-01-30 10:12:46.30	155.71	54.28	-53.1	-65.1	3.5	3.02e+01	0	45	104	427819008	60	68064
2026-01-30 10:12:47.32	155.72	54.73	-51.0	-61.9	3.5	3.02e+01	0	45	104	427819008	60	47448
2026-01-30 10:12:48.32	155.72	55.18	-50.4	-61.2	3.5	3.02e+01	0	45	104	427819008	60	43843
2026-01-30 10:12:49.33	155.72	55.63	-50.5	-61.4	3.5	3.02e+01	0	45	104	427819008	60	44443
2026-01-30 10:12:50.33	155.72	56.09	-50.0	-60.6	3.5	3.02e+01	0	45	104	427819008	60	40846
2026-01-30 10:12:51.34	155.72	56.55	-50.2	-61.1	3.5	3.02e+01	0	45	104	427819008	60	42996
2026-01-30 10:12:52.35	155.72	57.02	-49.9	-60.5	3.5	3.02e+01	0	45	104	427819008	60	40199
2026-01-30 10:12:53.35	155.72	57.49	-57.0	-74.9	3.5	3.02e+01	0	45	104	427819008	60	211204
2026-01-30 10:12:54.36	155.73	57.97	-54.1	-66.4	3.5	3.02e+01	0	45	104	427819008	60	79319
2026-01-30 10:12:55.37	155.73	58.45	-52.2	-63.5	3.5	3.02e+01	0	45	104	427819008	60	57188
2026-01-30 10:12:56.38	155.73	58.93	-50.7	-61.4	3.5	3.02e+01	0	45	104	427819008	60	44806
2026-01-30 10:12:57.38	155.73	59.42	-50.8	-61.7	3.5	3.02e+01	0	45	104	427819008	60	46511
2026-01-30 10:12:58.39	155.73	59.91	-50.9	-61.8	3.5	3.02e+01	0	45	104	427819008	60	46600
2026-01-30 10:12:59.40	155.73	60.41	-51.2	-62.1	3.5	3.02e+01	0	45	104	427819008	60	48708
2026-01-30 10:13:00.40	155.73	60.90	-50.9	-61.7	3.5	3.02e+01	0	45	104	427819008	60	46344
2026-01-30 10:13:01.41	155.73	61.41	-57.1	-75.1	3.5	3.02e+01	0	45	104	427819008	60	216858
2026-01-30 10:13:02.41	155.73	61.91	-54.6	-67.2	3.5	3.02e+01	0	45	104	427819008	60	87098
2026-01-30 10:13:03.42	155.73	62.42	-53.0	-64.5	3.5	3.02e+01	0	45	104	427819008	60	64075
2026-01-30 10:13:04.42	155.73	62.93	-52.4	-63.7	3.5	3.02e+01	0	45	104	427819008	60	58409
2026-01-30 10:13:05.43	155.73	63.46	-52.4	-63.8	3.5	3.02e+01	0	45	104	427819008	60	58645
2026-01-30 10:13:06.44	155.73	63.98	-52.5	-63.6	3.5	3.02e+01	0	45	104	427819008	60	57750
2026-01-30 10:13:07.45	155.73	64.51	-53.5	-65.4	3.5	3.02e+01	0	45	104	427819008	60	70618
2026-01-30 10:13:08.45	155.73	65.04	-55.3	-68.6	3.5	3.02e+01	0	45	104	427819008	60	101833
2026-01-30 10:13:09.46	155.73	65.57	-56.3	-70.8	3.5	3.02e+01	0	45	104	427819008	60	132648
2026-01-30 10:13:10.46	155.72	66.11	-53.6	-65.4	3.5	3.02e+01	0	45	104	427819008	60	70506
2026-01-30 10:13:11.47	155.72	66.65	-57.4	-76.1	3.5	3.02e+01	0	45	104	427819008	60	243177
2026-01-30 10:13:12.47	155.72	67.19	-54.2	-66.3	3.5	3.02e+01	0	45	104	427819008	60	79010
2026-01-30 10:13:13.48	155.72	67.74	-54.3	-66.6	3.5	3.02e+01	0	45	104	427819008	60	80945
2026-01-30 10:13:14.49	155.72	68.30	-54.3	-66.6	3.5	3.02e+01	0	45	104	427819008	60	80959
2026-01-30 10:13:15.49	155.71	68.85	-56.6	-72.2	3.5	3.02e+01	0	45	104	427819008	60	154438
2026-01-30 10:13:16.50	155.71	69.41	-53.8	-65.6	3.5	3.02e+01	0	45	104	427819008	60	72271
2026-01-30 10:13:17.50	155.71	69.97	-57.4	-76.2	3.5	3.02e+01	0	45	104	427819008	60	245074
2026-01-30 10:13:18.51	155.70	70.54	-56.3	-71.2	3.5	3.02e+01	0	45	104	427819008	60	138652
2026-01-30 10:13:19.51	155.70	71.11	-55.5	-69.8	3.5	3.02e+01	0	45	104	427819008	60	118055
2026-01-30 10:13:20.52	155.69	71.68	-54.5	-67.5	3.5	3.02e+01	0	45	104	427819008	60	89892
2026-01-30 10:13:21.53	155.68	72.26	-54.5	-67.5	3.5	3.02e+01	0	45	104	427819008	60	90074
2026-01-30 10:13:22.54	155.68	72.84	-54.1	-66.9	3.5	3.02e+01	0	45	104	427819008	60	83730
2026-01-30 10:13:23.55	155.67	73.43	-54.0	-66.6	3.5	3.02e+01	0	45	104	427819008	60	81487
2026-01-30 10:13:24.55	155.66	74.01	-54.3	-67.4	3.5	3.02e+01	0	45	104	427819008	60	88684
2026-01-30 10:13:25.55	155.65	74.60	-55.4	-70.0	3.5	3.02e+01	0	45	104	427819008	60	120461
2026-01-30 10:13:26.56	155.64	75.19	-54.0	-66.6	3.5	3.02e+01	0	45	104	427819008	60	81764
2026-01-30 10:13:27.57	155.63	75.79	-56.4	-73.7	3.5	3.02e+01	0	45	104	427819008	60	184809
2026-01-30 10:13:28.57	155.62	76.38	-53.9	-66.6	3.5	3.02e+01	0	45	104	427819008	60	80979
2026-01-30 10:13:29.58	155.60	76.98	-53.8	-66.7	3.5	3.02e+01	0	45	104	427819008	60	81842
2026-01-30 10:13:30.59	155.58	77.58	-52.8	-64.9	3.5	3.02e+01	0	45	104	427819008	60	66541
2026-01-30 10:13:31.60	155.56	78.19	-54.3	-68.1	3.5	3.02e+01	0	45	104	427819008	60	97069
2026-01-30 10:13:32.61	155.54	78.80	-53.4	-66.1	3.5	3.02e+01	0	45	104	427819008	60	76737
2026-01-30 10:13:33.61	155.52	79.40	-52.6	-65.0	3.5	3.02e+01	0	45	104	427819008	60	67410
2026-01-30 10:13:34.62	155.49	80.02	-51.0	-62.4	3.5	3.02e+01	0	45	104	427819008	60	50351
2026-01-30 10:13:35.62	155.46	80.63	-54.4	-69.1	3.6	3.02e+01	0	45	104	427819008	60	108224
2026-01-30 10:13:36.62	155.42	81.24	-50.6	-62.0	3.5	3.02e+01	0	45	104	427819008	60	47668
2026-01-30 10:13:37.63	155.38	81.85	-50.5	-61.7	3.5	3.02e+01	0	45	104	427819008	60	46068
2026-01-30 10:13:38.64	155.33	82.47	-51.0	-62.3	3.5	3.02e+01	0	45	104	427819008	60	49682
2026-01-30 10:13:39.64	155.26	83.09	-53.7	-66.5	3.5	3.02e+01	0	45	104	427819008	60	80209
2026-01-30 10:13:40.65	155.19	83.71	-51.2	-62.7	3.5	3.02e+01	0	45	104	427819008	60	51810
2026-01-30 10:13:41.66	155.10	84.34	-53.7	-66.8	3.5	3.02e+01	0	45	104	427819008	60	83056
2026-01-30 10:13:42.66	154.98	84.96	-52.4	-64.3	3.5	3.02e+01	0	45	104	427819008	60	62071
2026-01-30 10:13:43.66	154.83	85.58	-55.2	-70.3	3.5	3.02e+01	0	45	104	427819008	60	124974
2026-01-30 10:13:44.67	154.63	86.20	-52.5	-64.1	3.5	3.02e+01	0	45	104	427819008	60	61275
2026-01-30 10:13:45.67	154.35	86.82	-51.5	-62.7	3.5	3.02e+01	0	45	104	427819008	60	52167
2026-01-30 10:13:46.67	153.93	87.45	-50.1	-60.9	3.5	3.02e+01	0	45	104	427819008	60	42233
2026-01-30 10:13:47.68	153.24	88.07	-51.3	-62.5	3.5	3.02e+01	0	45	104	427819008	60	50723
2026-01-30 10:13:48.68	151.88	88.70	-50.8	-61.8	3.6	3.02e+01	0	45	104	427819008	60	47068
2026-01-30 10:13:49.69	147.97	89.32	-50.6	-61.7	3.5	3.02e+01	0	45	104	427819008	60	46140
2026-01-30 10:13:50.69	92.23	89.89	-50.1	-61.0	3.5	3.02e+01	0	45	104	427819008	60	42675
2026-01-30 10:13:51.69	345.53	89.42	-53.5	-65.9	3.5	3.02e+01	0	45	104	427819008	60	74992
2026-01-30 10:13:52.69	340.66	88.80	-50.4	-61.4	3.5	3.02e+01	0	45	104	427819008	60	44634
2026-01-30 10:13:53.69	339.11	88.17	-50.3	-61.5	3.5	3.02e+01	0	45	104	427819008	60	45042
2026-01-30 10:13:54.69	338.35	87.55	-50.5	-61.5	3.5	3.02e+01	0	45	104	427819008	60	45189
2026-01-30 10:13:55.70	337.90	86.92	-52.3	-64.4	3.5	3.02e+01	0	45	104	427819008	60	63249
2026-01-30 10:13:56.70	337.60	86.30	-50.5	-61.5	3.5	3.02e+01	0	45	104	427819008	60	45243
2026-01-30 10:13:57.71	337.39	85.68	-52.6	-64.8	3.5	3.02e+01	0	45	104	427819008	60	66376
2026-01-30 10:13:58.71	337.23	85.06	-51.3	-63.0	3.5	3.02e+01	0	45	104	427819008	60	53644
2026-01-30 10:13:59.71	337.12	84.44	-53.5	-66.4	3.5	3.02e+01	0	45	104	427819008	60	79620
2026-01-30 10:14:00.72	337.02	83.81	-51.5	-62.9	3.5	3.02e+01	0	45	104	427819008	60	52968
2026-01-30 10:14:01.72	336.94	83.20	-51.4	-62.9	3.6	3.02e+01	0	45	104	427819008	60	53149
2026-01-30 10:14:02.73	336.88	82.58	-52.6	-64.6	3.5	3.02e+01	0	45	104	427819008	60	64347
2026-01-30 10:14:03.73	336.83	81.96	-53.9	-67.1	3.5	3.02e+01	0	45	104	427819008	60	85854
2026-01-30 10:14:04.73	336.78	81.35	-50.0	-61.0	3.5	3.02e+01	0	45	104	427819008	60	42804
2026-01-30 10:14:05.74	336.74	80.73	-51.4	-62.1	3.5	3.02e+01	0	45	104	427819008	60	48719
2026-01-30 10:14:06.74	336.71	80.12	-50.8	-61.9	3.5	3.02e+01	0	45	104	427819008	60	47436
2026-01-30 10:14:07.75	336.68	79.51	-53.6	-65.9	3.5	3.02e+01	0	45	104	427819008	60	75274
2026-01-30 10:14:08.75	336.66	78.91	-51.9	-62.8	3.5	3.02e+01	0	45	104	427819008	60	52585
2026-01-30 10:14:09.76	336.63	78.30	-52.4	-63.8	3.5	3.02e+01	0	45	104	427819008	60	59123
2026-01-30 10:14:10.76	336.61	77.70	-52.1	-63.6	3.5	3.02e+01	0	45	104	427819008	60	57322
2026-01-30 10:14:11.77	336.60	77.10	-53.1	-64.7	3.5	3.02e+01	0	45	104	427819008	60	65036
2026-01-30 10:14:12.77	336.58	76.50	-52.4	-63.6	3.5	3.02e+01	0	45	104	427819008	60	57482
2026-01-30 10:14:13.78	336.57	75.90	-55.2	-69.2	3.5	3.02e+01	0	45	104	427819008	60	109649
2026-01-30 10:14:14.79	336.56	75.31	-54.1	-66.6	3.5	3.02e+01	0	45	104	427819008	60	81402
2026-01-30 10:14:15.78	336.55	74.72	-55.7	-69.9	3.5	3.02e+01	0	45	104	427819008	60	119410
2026-01-30 10:14:16.78	336.54	74.14	-54.9	-68.5	3.5	3.02e+01	0	45	104	427819008	60	101419
2026-01-30 10:14:17.79	336.53	73.55	-54.7	-67.8	3.5	3.02e+01	0	45	104	427819008	60	93466
2026-01-30 10:14:18.80	336.52	72.97	-52.6	-64.2	3.5	3.02e+01	0	45	104	427819008	60	61824
2026-01-30 10:14:19.81	336.51	72.39	-52.7	-64.4	3.5	3.02e+01	0	45	104	427819008	60	63164
2026-01-30 10:14:20.81	336.51	71.81	-52.2	-63.9	3.5	3.02e+01	0	45	104	427819008	60	59810
2026-01-30 10:14:21.81	336.50	71.24	-54.4	-68.1	3.5	3.02e+01	0	45	104	427819008	60	96131
2026-01-30 10:14:22.82	336.50	70.67	-52.8	-64.8	3.5	3.02e+01	0	45	104	427819008	60	65893
2026-01-30 10:14:23.83	336.49	70.10	-53.5	-66.2	3.5	3.02e+01	0	45	104	427819008	60	77508
2026-01-30 10:14:24.83	336.49	69.54	-53.3	-65.9	3.5	3.02e+01	0	45	104	427819008	60	74991
2026-01-30 10:14:25.84	336.48	68.98	-53.2	-65.8	3.5	3.02e+01	0	45	104	427819008	60	73806
2026-01-30 10:14:26.84	336.48	68.43	-55.1	-70.7	3.5	3.02e+01	0	45	104	427819008	60	130941
2026-01-30 10:14:27.85	336.48	67.88	-53.9	-67.2	3.5	3.02e+01	0	45	104	427819008	60	87150
2026-01-30 10:14:28.86	336.48	67.32	-53.3	-65.9	3.5	3.02e+01	0	45	104	427819008	60	75028
2026-01-30 10:14:29.86	336.47	66.78	-54.5	-69.3	3.5	3.02e+01	0	45	104	427819008	60	110618
2026-01-30 10:14:30.87	336.47	66.24	-53.3	-65.8	3.5	3.02e+01	0	45	104	427819008	60	74156
2026-01-30 10:14:31.88	336.47	65.70	-53.0	-65.1	3.5	3.02e+01	0	45	104	427819008	60	68232
2026-01-30 10:14:32.89	336.47	65.16	-52.6	-64.8	3.5	3.02e+01	0	45	104	427819008	60	66060
2026-01-30 10:14:33.90	336.47	64.63	-52.3	-64.6	3.5	3.02e+01	0	45	104	427819008	60	64488
2026-01-30 10:14:34.91	336.47	64.10	-53.3	-66.1	3.5	3.02e+01	0	45	104	427819008	60	77188
2026-01-30 10:14:35.91	336.47	63.58	-53.4	-66.5	3.5	3.02e+01	0	45	104	427819008	60	80303
2026-01-30 10:14:36.92	336.47	63.06	-50.5	-61.5	3.5	3.02e+01	0	45	104	427819008	60	45272
2026-01-30 10:14:37.93	336.47	62.55	-52.8	-64.8	3.5	3.02e+01	0	45	104	427819008	60	66008
2026-01-30 10:14:38.93	336.47	62.04	-51.8	-63.3	3.5	3.02e+01	0	45	104	427819008	60	55610
2026-01-30 10:14:39.94	336.47	61.53	-52.5	-64.8	3.5	3.02e+01	0	45	104	427819008	60	66062
2026-01-30 10:14:40.95	336.47	61.03	-52.5	-64.1	3.5	3.02e+01	0	45	104	427819008	60	61131
2026-01-30 10:14:41.95	336.47	60.53	-52.2	-63.5	3.5	3.02e+01	0	45	104	427819008	60	56998
2026-01-30 10:14:42.96	336.47	60.04	-50.7	-61.8	3.6	3.02e+01	0	45	104	427819008	60	47001
2026-01-30 10:14:43.97	336.47	59.54	-51.7	-63.1	3.5	3.02e+01	0	45	104	427819008	60	54343
2026-01-30 10:14:44.98	336.47	59.06	-52.1	-63.3	3.5	3.02e+01	0	45	104	427819008	60	55346
2026-01-30 10:14:45.98	336.47	58.58	-54.5	-67.5	3.5	3.02e+01	0	45	104	427819008	60	90440
2026-01-30 10:14:46.99	336.47	58.10	-52.6	-64.3	3.5	3.02e+01	0	45	104	427819008	60	62703
2026-01-30 10:14:48.00	336.47	57.62	-52.8	-64.5	3.6	3.02e+01	0	45	104	427819008	60	63736
2026-01-30 10:14:49.01	336.47	57.15	-52.5	-64.3	3.5	3.02e+01	0	45	104	427819008	60	62528
2026-01-30 10:14:50.01	336.48	56.68	-52.3	-63.6	3.5	3.02e+01	0	45	104	427819008	60	57876
2026-01-30 10:14:51.02	336.48	56.22	-52.1	-63.4	3.6	3.02e+01	0	45	104	427819008	60	56510
2026-01-30 10:14:52.02	336.48	55.76	-52.9	-64.6	3.5	3.02e+01	0	45	104	427819008	60	64528
2026-01-30 10:14:53.03	336.48	55.31	-49.8	-60.4	3.5	3.02e+01	0	45	104	427819008	60	39882
2026-01-30 10:14:54.04	336.48	54.86	-52.7	-64.2	3.6	3.02e+01	0	45	104	427819008	60	61436
2026-01-30 10:14:55.04	336.48	54.41	-51.4	-62.7	3.5	3.02e+01	0	45	104	427819008	60	51945
2026-01-30 10:14:56.05	336.49	53.97	-49.1	-59.9	3.5	3.02e+01	0	45	104	427819008	60	37676
2026-01-30 10:14:57.05	336.49	53.53	-48.9	-59.3	3.6	3.02e+01	0	45	104	427819008	60	35198
2026-01-30 10:14:58.06	336.49	53.10	-48.7	-59.0	3.6	3.02e+01	0	45	104	427819008	60	34074
2026-01-30 10:14:59.05	336.49	52.67	-51.1	-62.0	3.5	3.02e+01	0	45	104	427819008	60	48013
2026-01-30 10:15:00.06	336.49	52.25	-51.3	-62.7	3.6	3.02e+01	0	45	104	427819008	60	51703
2026-01-30 10:15:01.07	336.50	51.82	-52.6	-64.1	3.5	3.02e+01	0	45	104	427819008	60	60766
2026-01-30 10:15:02.07	336.50	51.40	-53.1	-64.6	3.5	3.02e+01	0	45	104	427819008	60	64252
2026-01-30 10:15:03.07	336.50	50.99	-50.9	-61.9	3.5	3.02e+01	0	45	104	427819008	60	47594
2026-01-30 10:15:04.08	336.50	50.58	-50.4	-61.3	3.5	3.02e+01	0	45	104	427819008	60	44221
2026-01-30 10:15:05.09	336.50	50.17	-49.9	-60.5	3.5	3.02e+01	0	45	104	427819008	60	40461
2026-01-30 10:15:06.09	336.51	49.77	-49.7	-60.3	3.5	3.02e+01	0	45	104	427819008	60	39525
2026-01-30 10:15:07.10	336.51	49.37	-50.8	-61.7	3.5	3.02e+01	0	45	104	427819008	60	46321
2026-01-30 10:15:08.11	336.51	48.97	-51.3	-62.4	3.6	3.02e+01	0	45	104	427819008	60	50374
2026-01-30 10:15:09.12	336.51	48.57	-52.3	-63.5	3.6	3.02e+01	0	45	104	427819008	60	57136
2026-01-30 10:15:10.12	336.52	48.19	-54.8	-67.9	3.6	3.02e+01	0	45	104	427819008	60	94166
2026-01-30 10:15:11.12	336.52	47.81	-52.8	-64.3	3.5	3.02e+01	0	45	104	427819008	60	62498
2026-01-30 10:15:12.12	336.52	47.43	-52.1	-63.6	3.5	3.02e+01	0	45	104	427819008	60	57690
2026-01-30 10:15:13.13	336.52	47.05	-51.9	-63.3	3.5	3.02e+01	0	45	104	427819008	60	55462
2026-01-30 10:15:14.14	336.53	46.67	-51.4	-62.5	3.5	3.02e+01	0	45	104	427819008	60	50719
2026-01-30 10:15:15.14	336.53	46.30	-53.2	-65.4	3.5	3.02e+01	0	45	104	427819008	60	70639
2026-01-30 10:15:16.14	336.53	45.94	-52.9	-65.1	3.5	3.02e+01	0	45	104	427819008	60	68578
2026-01-30 10:15:17.15	336.54	45.57	-51.0	-62.1	3.5	3.02e+01	0	45	104	427819008	60	48374
2026-01-30 10:15:18.16	336.54	45.21	-53.6	-65.8	3.5	3.02e+01	0	45	104	427819008	60	74066
2026-01-30 10:15:19.16	336.54	44.85	-52.7	-64.3	3.5	3.02e+01	0	45	104	427819008	60	62615
2026-01-30 10:15:20.16	336.54	44.50	-50.8	-61.8	3.6	3.02e+01	0	45	104	427819008	60	46751
2026-01-30 10:15:21.17	336.55	44.15	-50.8	-61.8	3.5	3.02e+01	0	45	104	427819008	60	46777
2026-01-30 10:15:22.17	336.55	43.80	-50.8	-61.8	3.5	3.02e+01	0	45	104	427819008	60	46681
2026-01-30 10:15:23.17	336.55	43.46	-49.9	-60.7	3.5	3.02e+01	0	45	104	427819008	60	41173
2026-01-30 10:15:24.18	336.56	43.12	-52.4	-64.1	3.5	3.02e+01	0	45	104	427819008	60	60713
2026-01-30 10:15:25.18	336.56	42.78	-53.6	-65.9	3.5	3.02e+01	0	45	104	427819008	60	75353
2026-01-30 10:15:26.19	336.56	42.45	-53.5	-66.1	3.5	3.02e+01	0	45	104	427819008	60	76746
2026-01-30 10:15:27.20	336.56	42.11	-51.8	-63.1	3.5	3.02e+01	0	45	104	427819008	60	54471
2026-01-30 10:15:28.20	336.57	41.79	-50.9	-61.8	3.5	3.02e+01	0	45	104	427819008	60	46895
2026-01-30 10:15:29.21	336.57	41.46	-50.7	-61.8	3.6	3.02e+01	0	45	104	427819008	60	46895
2026-01-30 10:15:30.22	336.57	41.14	-50.7	-62.0	3.5	3.02e+01	0	45	104	427819008	60	47856
2026-01-30 10:15:31.22	336.58	40.82	-53.8	-66.6	3.5	3.02e+01	0	45	104	427819008	60	81768
2026-01-30 10:15:32.23	336.58	40.50	-51.7	-63.2	3.5	3.02e+01	0	45	104	427819008	60	54938
2026-01-30 10:15:33.24	336.58	40.19	-53.3	-65.7	3.5	3.02e+01	0	45	104	427819008	60	73211
2026-01-30 10:15:34.25	336.59	39.88	-54.9	-69.0	3.5	3.02e+01	0	45	104	427819008	60	107529
2026-01-30 10:15:35.26	336.59	39.57	-53.7	-66.3	3.5	3.02e+01	0	45	104	427819008	60	78842
2026-01-30 10:15:36.26	336.59	39.27	-53.0	-65.3	3.5	3.02e+01	0	45	104	427819008	60	69885
2026-01-30 10:15:37.27	336.60	38.96	-53.1	-65.4	3.5	3.02e+01	0	45	104	427819008	60	71084
2026-01-30 10:15:38.28	336.60	38.66	-52.6	-64.6	3.5	3.02e+01	0	45	104	427819008	60	64806
2026-01-30 10:15:39.29	336.60	38.36	-50.7	-61.8	3.5	3.02e+01	0	45	104	427819008	60	46830
2026-01-30 10:15:40.30	336.61	38.07	-52.9	-65.0	3.5	3.02e+01	0	45	104	427819008	60	67532
2026-01-30 10:15:41.30	336.61	37.78	-54.0	-66.8	3.5	3.02e+01	0	45	104	427819008	60	83079
2026-01-30 10:15:42.31	336.61	37.49	-54.4	-67.8	3.5	3.02e+01	0	45	104	427819008	60	93607
2026-01-30 10:15:43.32	336.62	37.20	-52.7	-64.6	3.5	3.02e+01	0	45	104	427819008	60	64318
2026-01-30 10:15:44.32	336.62	36.92	-51.7	-63.0	3.6	3.02e+01	0	45	104	427819008	60	53948
2026-01-30 10:15:45.33	336.62	36.64	-51.7	-63.1	3.5	3.02e+01	0	45	104	427819008	60	54352
2026-01-30 10:15:46.34	336.63	36.36	-51.5	-62.9	3.5	3.02e+01	0	45	104	427819008	60	53373
2026-01-30 10:15:47.34	336.63	36.09	-53.9	-67.0	3.5	3.02e+01	0	45	104	427819008	60	85151
2026-01-30 10:15:48.34	336.63	35.82	-52.5	-64.5	3.5	3.02e+01	0	45	104	427819008	60	63794
2026-01-30 10:15:49.35	336.64	35.55	-52.1	-63.7	3.5	3.02e+01	0	45	104	427819008	60	58168
2026-01-30 10:15:50.36	336.64	35.28	-52.8	-65.1	3.5	3.02e+01	0	45	104	427819008	60	68140
2026-01-30 10:15:51.36	336.64	35.01	-51.4	-63.2	3.5	3.02e+01	0	45	104	427819008	60	54913
2026-01-30 10:15:52.36	336.65	34.75	-50.1	-61.4	3.5	3.02e+01	0	45	104	427819008	60	44852
2026-01-30 10:15:53.37	336.65	34.49	-50.0	-61.2	3.5	3.02e+01	0	45	104	427819008	60	43853
2026-01-30 10:15:54.38	336.65	34.23	-49.3	-60.1	3.5	3.02e+01	0	45	104	427819008	60	38516
2026-01-30 10:15:55.39	336.66	33.97	-49.8	-60.6	3.5	3.02e+01	0	45	104	427819008	60	40576
2026-01-30 10:15:56.39	336.66	33.72	-49.8	-60.5	3.5	3.02e+01	0	45	104	427819008	60	40196
2026-01-30 10:15:57.40	336.66	33.47	-51.7	-63.1	3.5	3.02e+01	0	45	104	427819008	60	54277
2026-01-30 10:15:58.41	336.67	33.22	-52.0	-63.6	3.5	3.02e+01	0	45	104	427819008	60	57496
2026-01-30 10:15:59.42	336.67	32.97	-51.4	-62.7	3.5	3.02e+01	0	45	104	427819008	60	52179
2026-01-30 10:16:00.42	336.67	32.72	-49.5	-60.3	3.5	3.02e+01	0	45	104	427819008	60	39377
2026-01-30 10:16:01.42	336.68	32.48	-49.2	-59.8	3.5	3.02e+01	0	45	104	427819008	60	37357
2026-01-30 10:16:02.43	336.68	32.24	-48.9	-59.5	3.5	3.02e+01	0	45	104	427819008	60	36008
2026-01-30 10:16:03.44	336.68	32.00	-48.9	-59.6	3.5	3.02e+01	0	45	104	427819008	60	36365
2026-01-30 10:16:04.44	336.69	31.77	-50.2	-61.3	3.5	3.02e+01	0	45	104	427819008	60	44147
2026-01-30 10:16:05.45	336.69	31.53	-52.4	-64.4	3.5	3.02e+01	0	45	104	427819008	60	63193
2026-01-30 10:16:06.45	336.69	31.30	-52.1	-64.0	3.5	3.02e+01	0	45	104	427819008	60	60167
2026-01-30 10:16:07.46	336.70	31.07	-51.2	-62.5	3.5	3.02e+01	0	45	104	427819008	60	50915
2026-01-30 10:16:08.46	336.70	30.84	-50.4	-61.4	3.5	3.02e+01	0	45	104	427819008	60	44758
2026-01-30 10:16:09.47	336.71	30.61	-50.6	-61.6	3.5	3.02e+01	0	45	104	427819008	60	45849
2026-01-30 10:16:10.48	336.71	30.38	-51.1	-62.2	3.5	3.02e+01	0	45	104	427819008	60	49273
2026-01-30 10:16:11.49	336.71	30.16	-53.2	-65.8	3.5	3.02e+01	0	45	104	427819008	60	74570
2026-01-30 10:16:12.49	336.72	29.94	-49.3	-60.2	3.5	3.02e+01	0	45	104	427819008	60	38820
2026-01-30 10:16:13.50	336.72	29.72	-51.4	-63.0	3.5	3.02e+01	0	45	104	427819008	60	53918
2026-01-30 10:16:14.50	336.72	29.50	-51.7	-63.4	3.5	3.02e+01	0	45	104	427819008	60	56070
2026-01-30 10:16:15.51	336.73	29.29	-51.3	-62.9	3.5	3.02e+01	0	45	104	427819008	60	52964
2026-01-30 10:16:16.51	336.73	29.07	-49.5	-60.4	3.5	3.02e+01	0	45	104	427819008	60	39953
2026-01-30 10:16:17.52	336.73	28.86	-49.2	-60.0	3.5	3.02e+01	0	45	104	427819008	60	38014
2026-01-30 10:16:18.53	336.74	28.65	-49.2	-59.8	3.5	3.02e+01	0	45	104	427819008	60	37322
2026-01-30 10:16:19.53	336.74	28.44	-50.8	-61.8	3.6	3.02e+01	0	45	104	427819008	60	46731
2026-01-30 10:16:20.54	336.74	28.23	-49.8	-60.5	3.5	3.02e+01	0	45	104	427819008	60	40501
2026-01-30 10:16:21.55	336.75	28.02	-50.7	-61.7	3.5	3.02e+01	0	45	104	427819008	60	46273
2026-01-30 10:16:22.56	336.75	27.82	-50.3	-61.2	3.5	3.02e+01	0	45	104	427819008	60	43623
2026-01-30 10:16:23.56	336.76	27.62	-51.2	-62.3	3.5	3.02e+01	0	45	104	427819008	60	49589
2026-01-30 10:16:24.57	336.76	27.42	-49.8	-60.5	3.5	3.02e+01	0	45	104	427819008	60	40368
2026-01-30 10:16:25.58	336.76	27.22	-49.6	-60.2	3.5	3.02e+01	0	45	104	427819008	60	38707
2026-01-30 10:16:26.58	336.77	27.02	-49.2	-59.8	3.5	3.02e+01	0	45	104	427819008	60	36974
2026-01-30 10:16:27.59	336.77	26.82	-50.2	-60.9	3.5	3.02e+01	0	45	104	427819008	60	42370
2026-01-30 10:16:28.59	336.77	26.63	-49.2	-59.6	3.6	3.02e+01	0	45	104	427819008	60	36339
2026-01-30 10:16:29.60	336.78	26.44	-52.1	-63.4	3.5	3.02e+01	0	45	104	427819008	60	56069
2026-01-30 10:16:30.61	336.78	26.24	-52.4	-64.0	3.5	3.02e+01	0	45	104	427819008	60	60210
2026-01-30 10:16:31.62	336.79	26.05	-52.3	-63.7	3.5	3.02e+01	0	45	104	427819008	60	58544
2026-01-30 10:16:32.62	336.79	25.86	-51.5	-62.7	3.5	3.02e+01	0	45	104	427819008	60	51657
2026-01-30 10:16:33.63	336.79	25.68	-51.1	-62.3	3.5	3.02e+01	0	45	104	427819008	60	49582
2026-01-30 10:16:34.64	336.80	25.49	-50.6	-61.6	3.5	3.02e+01	0	45	104	427819008	60	45966
2026-01-30 10:16:35.65	336.80	25.30	-50.9	-62.2	3.5	3.02e+01	0	45	104	427819008	60	48786
2026-01-30 10:16:36.65	336.80	25.12	-49.8	-60.7	3.6	3.02e+01	0	45	104	427819008	60	41281
2026-01-30 10:16:37.66	336.81	24.94	-51.3	-62.7	3.5	3.02e+01	0	45	104	427819008	60	52091
2026-01-30 10:16:38.66	336.81	24.76	-50.8	-62.1	3.5	3.02e+01	0	45	104	427819008	60	48220
2026-01-30 10:16:39.67	336.82	24.58	-51.9	-63.5	3.6	3.02e+01	0	45	104	427819008	60	56868
2026-01-30 10:16:40.68	336.82	24.40	-50.6	-61.8	3.5	3.02e+01	0	45	104	427819008	60	46914
2026-01-30 10:16:41.69	336.82	24.22	-50.7	-62.0	3.5	3.02e+01	0	45	104	427819008	60	47930
2026-01-30 10:16:42.69	336.83	24.05	-50.6	-61.9	3.5	3.02e+01	0	45	104	427819008	60	47381
2026-01-30 10:16:43.70	336.83	23.88	-50.8	-62.1	3.5	3.02e+01	0	45	104	427819008	60	48570
2026-01-30 10:16:44.71	336.83	23.70	-49.3	-60.2	3.5	3.02e+01	0	45	104	427819008	60	38970
2026-01-30 10:16:45.72	336.84	23.53	-52.0	-64.1	3.5	3.02e+01	0	45	104	427819008	60	60810
2026-01-30 10:16:46.73	336.84	23.36	-50.1	-61.3	3.5	3.02e+01	0	45	104	427819008	60	44321
2026-01-30 10:16:47.73	336.85	23.19	-50.9	-62.3	3.5	3.02e+01	0	45	104	427819008	60	49510
2026-01-30 10:16:48.72	336.85	23.03	-50.1	-61.2	3.5	3.02e+01	0	45	104	427819008	60	43678
2026-01-30 10:16:49.73	336.85	22.86	-49.9	-61.1	3.5	3.02e+01	0	45	104	427819008	60	42994
2026-01-30 10:16:50.74	336.86	22.69	-49.7	-60.8	3.5	3.02e+01	0	45	104	427819008	60	41576
2026-01-30 10:16:51.74	336.86	22.53	-49.6	-60.6	3.5	3.02e+01	0	45	104	427819008	60	40727
2026-01-30 10:16:52.75	336.86	22.37	-50.0	-61.0	3.5	3.02e+01	0	45	104	427819008	60	42896
2026-01-30 10:16:53.75	336.87	22.21	-52.5	-64.5	3.5	3.02e+01	0	45	104	427819008	60	63638
2026-01-30 10:16:54.75	336.87	22.05	-50.1	-61.1	3.5	3.02e+01	0	45	104	427819008	60	43064
2026-01-30 10:16:55.76	336.88	21.88	-50.9	-62.1	3.5	3.02e+01	0	45	104	427819008	60	48429
2026-01-30 10:16:56.77	336.88	21.73	-50.6	-61.8	3.5	3.02e+01	0	45	104	427819008	60	46644
2026-01-30 10:16:57.77	336.88	21.57	-50.1	-60.9	3.5	3.02e+01	0	45	104	427819008	60	42361
2026-01-30 10:16:58.77	336.89	21.41	-49.7	-60.4	3.5	3.02e+01	0	45	104	427819008	60	39979
2026-01-30 10:16:59.78	336.89	21.26	-49.8	-60.5	3.5	3.02e+01	0	45	104	427819008	60	40237
2026-01-30 10:17:00.79	336.89	21.10	-49.3	-59.9	3.5	3.02e+01	0	45	104	427819008	60	37817
2026-01-30 10:17:01.80	336.90	20.95	-52.8	-65.0	3.5	3.02e+01	0	45	104	427819008	60	67741
2026-01-30 10:17:02.80	336.90	20.80	-50.4	-61.3	3.5	3.02e+01	0	45	104	427819008	60	44363
2026-01-30 10:17:03.80	336.91	20.65	-51.5	-62.8	3.5	3.02e+01	0	45	104	427819008	60	52535
2026-01-30 10:17:04.81	336.91	20.49	-51.0	-62.2	3.5	3.02e+01	0	45	104	427819008	60	48827
2026-01-30 10:17:05.82	336.91	20.34	-51.2	-62.4	3.5	3.02e+01	0	45	104	427819008	60	50317
2026-01-30 10:17:06.82	336.92	20.20	-50.4	-61.6	3.5	3.02e+01	0	45	104	427819008	60	45514
2026-01-30 10:17:07.83	336.92	20.05	-50.3	-61.4	3.5	3.02e+01	0	45	104	427819008	60	44800
2026-01-30 10:17:08.84	336.93	19.90	-50.5	-61.7	3.5	3.02e+01	0	45	104	427819008	60	46214
2026-01-30 10:17:09.85	336.93	19.76	-52.2	-64.4	3.5	3.02e+01	0	45	104	427819008	60	63314
2026-01-30 10:17:10.85	336.93	19.61	-50.1	-61.2	3.5	3.02e+01	0	45	104	427819008	60	43453
2026-01-30 10:17:11.86	336.94	19.47	-50.6	-61.8	3.5	3.02e+01	0	45	104	427819008	60	46580
2026-01-30 10:17:12.86	336.94	19.33	-50.5	-61.6	3.5	3.02e+01	0	45	104	427819008	60	45812
2026-01-30 10:17:13.87	336.94	19.18	-50.5	-61.7	3.5	3.02e+01	0	45	104	427819008	60	46125
2026-01-30 10:17:14.88	336.95	19.04	-50.8	-62.1	3.5	3.02e+01	0	45	104	427819008	60	48179
2026-01-30 10:17:15.88	336.95	18.90	-50.1	-61.2	3.5	3.02e+01	0	45	104	427819008	60	43602
2026-01-30 10:17:16.89	336.96	18.76	-49.9	-60.8	3.5	3.02e+01	0	45	104	427819008	60	41919
2026-01-30 10:17:17.90	336.96	18.62	-53.0	-65.5	3.5	3.02e+01	0	45	104	427819008	60	71330
2026-01-30 10:17:18.91	336.96	18.48	-49.5	-60.3	3.5	3.02e+01	0	45	104	427819008	60	39245
2026-01-30 10:17:19.91	336.97	18.35	-49.9	-60.9	3.5	3.02e+01	0	45	104	427819008	60	42061
2026-01-30 10:17:20.92	336.97	18.21	-49.6	-60.4	3.5	3.02e+01	0	45	104	427819008	60	39782
2026-01-30 10:17:21.93	336.98	18.08	-49.5	-60.2	3.5	3.02e+01	0	45	104	427819008	60	38976
2026-01-30 10:17:22.93	336.98	17.94	-49.6	-60.4	3.5	3.02e+01	0	45	104	427819008	60	39894
2026-01-30 10:17:23.94	336.98	17.81	-51.1	-62.6	3.5	3.02e+01	0	45	104	427819008	60	51060
2026-01-30 10:17:24.94	336.99	17.68	-49.7	-60.8	3.5	3.02e+01	0	45	104	427819008	60	41653
2026-01-30 10:17:25.95	336.99	17.54	-51.8	-64.5	3.5	3.02e+01	0	45	104	427819008	60	63630
2026-01-30 10:17:26.96	337.00	17.41	-49.8	-61.0	3.5	3.02e+01	0	45	104	427819008	60	42709
2026-01-30 10:17:27.96	337.00	17.28	-50.5	-62.1	3.5	3.02e+01	0	45	104	427819008	60	48294
2026-01-30 10:17:28.96	337.00	17.15	-50.2	-61.7	3.5	3.02e+01	0	45	104	427819008	60	46502
2026-01-30 10:17:29.97	337.01	17.03	-49.7	-61.1	3.5	3.02e+01	0	45	104	427819008	60	43151
2026-01-30 10:17:30.97	337.01	16.90	-49.4	-60.8	3.5	3.02e+01	0	45	104	427819008	60	41564
2026-01-30 10:17:31.97	337.01	16.77	-50.1	-61.8	3.5	3.02e+01	0	45	104	427819008	60	46646
2026-01-30 10:17:32.98	337.02	16.64	-50.2	-61.8	3.5	3.02e+01	0	45	104	427819008	60	46835
2026-01-30 10:17:33.99	337.02	16.52	-52.3	-65.7	3.5	3.02e+01	0	45	104	427819008	60	73646
2026-01-30 10:17:34.99	337.03	16.39	-50.5	-62.4	3.5	3.02e+01	0	45	104	427819008	60	49944
2026-01-30 10:17:36.00	337.03	16.27	-51.0	-63.2	3.5	3.02e+01	0	45	104	427819008	60	55045
2026-01-30 10:17:37.01	337.03	16.14	-50.8	-62.9	3.5	3.02e+01	0	45	104	427819008	60	53205
2026-01-30 10:17:38.01	337.04	16.02	-50.6	-62.6	3.5	3.02e+01	0	45	104	427819008	60	51420
2026-01-30 10:17:39.02	337.04	15.90	-51.0	-63.1	3.5	3.02e+01	0	45	104	427819008	60	54631
2026-01-30 10:17:40.02	337.05	15.78	-51.6	-64.2	3.5	3.02e+01	0	45	104	427819008	60	61403
2026-01-30 10:17:41.03	337.05	15.66	-50.7	-62.6	3.5	3.02e+01	0	45	104	427819008	60	51572
2026-01-30 10:17:42.04	337.05	15.54	-52.4	-65.5	3.5	3.02e+01	0	45	104	427819008	60	72047
2026-01-30 10:17:43.05	337.06	15.42	-51.2	-63.5	3.5	3.02e+01	0	45	104	427819008	60	56829
2026-01-30 10:17:44.06	337.06	15.30	-50.8	-62.7	3.5	3.02e+01	0	45	104	427819008	60	51938
2026-01-30 10:17:45.06	337.07	15.18	-51.0	-62.9	3.5	3.02e+01	0	45	104	427819008	60	53203
2026-01-30 10:17:46.07	337.07	15.06	-51.0	-62.9	3.5	3.02e+01	0	45	104	427819008	60	53013
2026-01-30 10:17:47.08	337.07	14.94	-51.1	-63.1	3.5	3.02e+01	0	45	104	427819008	60	54132
2026-01-30 10:17:48.08	337.08	14.83	-51.4	-63.5	3.6	3.02e+01	0	45	104	427819008	60	56876
2026-01-30 10:17:49.09	337.08	14.71	-52.1	-65.0	3.5	3.02e+01	0	45	104	427819008	60	67534
2026-01-30 10:17:50.10	337.09	14.59	-52.3	-65.2	3.5	3.02e+01	0	45	104	427819008	60	69535
2026-01-30 10:17:51.11	337.09	14.48	-51.8	-64.4	3.5	3.02e+01	0	45	104	427819008	60	63489
2026-01-30 10:17:52.11	337.09	14.37	-51.6	-64.0	3.5	3.02e+01	0	45	104	427819008	60	60398
2026-01-30 10:17:53.11	337.10	14.25	-51.7	-64.2	3.5	3.02e+01	0	45	104	427819008	60	61913
2026-01-30 10:17:54.12	337.10	14.14	-51.6	-64.1	3.5	3.02e+01	0	45	104	427819008	60	61326
2026-01-30 10:17:55.12	337.11	14.03	-52.5	-66.1	3.5	3.02e+01	0	45	104	427819008	60	76385
2026-01-30 10:17:56.13	337.11	13.91	-52.4	-65.8	3.5	3.02e+01	0	45	104	427819008	60	74147
2026-01-30 10:17:57.14	337.11	13.80	-52.3	-65.8	3.5	3.02e+01	0	45	104	427819008	60	73877
2026-01-30 10:17:58.15	337.12	13.69	-52.5	-67.0	3.5	3.02e+01	0	45	104	427819008	60	84968
2026-01-30 10:17:59.15	337.12	13.58	-52.5	-65.9	3.5	3.02e+01	0	45	104	427819008	60	75260
2026-01-30 10:18:00.16	337.13	13.47	-52.4	-65.8	3.5	3.02e+01	0	45	104	427819008	60	74400
2026-01-30 10:18:01.16	337.13	13.36	-52.4	-66.1	3.5	3.02e+01	0	45	104	427819008	60	76448
2026-01-30 10:18:02.16	337.13	13.26	-52.3	-65.9	3.5	3.02e+01	0	45	104	427819008	60	75295
2026-01-30 10:18:03.17	337.14	13.15	-52.0	-65.3	3.5	3.02e+01	0	45	104	427819008	60	70354
2026-01-30 10:18:04.18	337.14	13.04	-52.3	-66.0	3.5	3.02e+01	0	45	104	427819008	60	76037
2026-01-30 10:18:05.18	337.15	12.93	-52.7	-67.3	3.5	3.02e+01	0	45	104	427819008	60	88065
2026-01-30 10:18:06.19	337.15	12.83	-52.8	-68.0	3.5	3.02e+01	0	45	104	427819008	60	95434
2026-01-30 10:18:07.19	337.15	12.72	-53.0	-67.8	3.5	3.02e+01	0	45	104	427819008	60	93331
2026-01-30 10:18:08.20	337.16	12.62	-52.7	-67.2	3.5	3.02e+01	0	45	104	427819008	60	86907
2026-01-30 10:18:09.21	337.16	12.51	-52.7	-67.4	3.5	3.02e+01	0	45	104	427819008	60	89199
2026-01-30 10:18:10.22	337.17	12.41	-52.7	-67.5	3.5	3.02e+01	0	45	104	427819008	60	90570
2026-01-30 10:18:11.22	337.17	12.30	-52.9	-68.1	3.5	3.02e+01	0	45	104	427819008	60	96428
2026-01-30 10:18:12.23	337.17	12.20	-53.1	-68.7	3.5	3.02e+01	0	45	104	427819008	60	103508
2026-01-30 10:18:13.24	337.18	12.10	-52.9	-69.6	3.5	3.02e+01	0	45	104	427819008	60	115321
2026-01-30 10:18:14.25	337.18	11.99	-52.9	-69.5	3.6	3.02e+01	0	45	104	427819008	60	113480
2026-01-30 10:18:15.25	337.19	11.89	-52.8	-68.7	3.5	3.02e+01	0	45	104	427819008	60	103273
2026-01-30 10:18:16.26	337.19	11.79	-52.8	-68.9	3.5	3.02e+01	0	45	104	427819008	60	105507
2026-01-30 10:18:17.27	337.19	11.69	-52.8	-69.3	3.5	3.02e+01	0	45	104	427819008	60	111058
2026-01-30 10:18:18.27	337.20	11.59	-52.8	-69.5	3.5	3.02e+01	0	45	104	427819008	60	113749
