passes_logs/2026/01/30/R3.2S-Naryan-Mar/R3.2S-Naryan-Mar__20260130_090225_FENGYUN_3D_rec.log

#Pass ID: 20260130_090225_FENGYUN 3D
#Satellite: FENGYUN 3D
#Configuration: FENGYUN 3D
#almurnet v.1.7.20240730
#Start time: 2026-01-30 09:02:25

#Version: 2.2.20231116
#Station: R3.2S-Naryan-Mar
#Location: 53.008057 lon 67.646978 lat
#TLE: 1 43010U 17072A   26029.52179110  .00000394  00000+0  20818-3 0  9997
#TLE: 2 43010  98.9957   1.5649 0002507  83.7772 276.3689 14.19703315425310

#Time	Az	El	Level	Level2	SNR	BER	BlckErr	Temp	State	Recorded	gain1	gain2
2026-01-30 09:02:25.59	122.39	0.03	-59.5	-77.8	3.5	1.51e+00	0	42	0	0	60	303179
2026-01-30 09:02:26.59	122.36	0.09	-59.1	-74.0	3.6	8.44e-01	0	44	104	0	60	197195
2026-01-30 09:02:27.60	122.33	0.15	-59.0	-74.3	3.6	8.44e-01	0	44	104	0	60	203163
2026-01-30 09:02:28.60	122.30	0.21	-58.3	-74.4	3.6	8.46e-01	0	44	104	0	60	205673
2026-01-30 09:02:29.61	122.28	0.27	-56.2	-72.9	3.6	8.45e-01	0	44	104	0	60	173742
2026-01-30 09:02:30.62	122.25	0.33	-56.1	-73.2	3.6	8.46e-01	0	44	104	0	60	179717
2026-01-30 09:02:31.62	122.22	0.39	-57.4	-73.9	3.6	8.45e-01	0	44	104	0	60	194905
2026-01-30 09:02:32.63	122.19	0.45	-58.7	-74.2	3.6	8.45e-01	0	44	104	0	60	200520
2026-01-30 09:02:33.64	122.17	0.51	-58.0	-74.0	3.6	8.45e-01	0	44	104	0	60	196449
2026-01-30 09:02:34.65	122.14	0.57	-58.2	-74.1	3.6	8.45e-01	0	44	104	0	60	198593
2026-01-30 09:02:35.65	122.11	0.63	-61.2	-75.0	3.5	8.44e-01	0	44	104	0	60	221378
2026-01-30 09:02:36.66	122.08	0.69	-59.1	-74.5	3.6	8.46e-01	0	44	104	0	60	208049
2026-01-30 09:02:37.67	122.05	0.75	-60.8	-74.8	3.6	8.45e-01	0	44	104	0	60	215506
2026-01-30 09:02:38.68	122.03	0.81	-60.2	-74.5	3.6	8.45e-01	0	44	104	0	60	207950
2026-01-30 09:02:39.69	122.00	0.87	-58.0	-74.0	3.6	8.45e-01	0	44	104	0	60	196179
2026-01-30 09:02:40.69	121.97	0.93	-59.5	-74.8	3.6	8.44e-01	0	44	104	0	60	215882
2026-01-30 09:02:41.70	121.94	1.00	-59.8	-74.5	3.6	8.45e-01	0	44	104	0	60	207106
2026-01-30 09:02:42.71	121.91	1.06	-57.9	-73.8	3.6	8.45e-01	0	44	104	0	60	192330
2026-01-30 09:02:43.71	121.88	1.12	-59.3	-74.3	3.6	8.45e-01	0	44	104	0	60	203214
2026-01-30 09:02:44.72	121.85	1.18	-60.4	-74.4	3.6	8.45e-01	0	44	104	0	60	205273
2026-01-30 09:02:45.72	121.82	1.24	-59.7	-74.4	3.6	8.45e-01	0	44	104	0	60	204691
2026-01-30 09:02:46.73	121.79	1.30	-60.0	-74.6	3.6	8.45e-01	0	44	104	0	60	211013
2026-01-30 09:02:47.73	121.76	1.36	-59.6	-74.6	3.6	8.47e-01	0	44	104	0	60	210774
2026-01-30 09:02:48.74	121.73	1.42	-58.3	-74.6	3.6	8.46e-01	0	44	104	0	60	209332
2026-01-30 09:02:49.74	121.70	1.49	-58.2	-74.4	3.6	8.45e-01	0	44	104	0	60	205309
2026-01-30 09:02:50.74	121.68	1.55	-55.8	-72.3	3.6	8.44e-01	0	44	104	0	60	161888
2026-01-30 09:02:51.74	121.65	1.61	-59.9	-74.0	3.6	8.45e-01	0	44	104	0	60	196188
2026-01-30 09:02:52.75	121.61	1.67	-58.7	-73.5	3.6	8.45e-01	0	44	104	0	60	186417
2026-01-30 09:02:53.76	121.58	1.73	-58.7	-73.7	3.6	8.46e-01	0	44	104	0	60	189579
2026-01-30 09:02:54.76	121.55	1.80	-60.2	-74.1	3.6	8.44e-01	0	44	104	0	60	198557
2026-01-30 09:02:55.77	121.52	1.86	-57.6	-73.3	3.6	8.45e-01	0	44	104	0	60	181845
2026-01-30 09:02:56.78	121.49	1.92	-58.1	-72.7	3.6	8.44e-01	0	44	104	0	60	169976
2026-01-30 09:02:57.79	121.46	1.99	-60.0	-73.5	3.6	8.45e-01	0	44	104	0	60	186385
2026-01-30 09:02:58.79	121.43	2.05	-59.1	-73.1	3.6	8.45e-01	0	44	104	0	60	176600
2026-01-30 09:02:59.80	121.40	2.11	-58.9	-73.2	3.6	8.46e-01	0	44	104	0	60	178459
2026-01-30 09:03:00.81	121.37	2.17	-59.1	-73.0	3.6	8.44e-01	0	44	104	0	60	174262
2026-01-30 09:03:01.82	121.34	2.24	-57.9	-72.5	3.6	8.45e-01	0	44	104	0	60	164657
2026-01-30 09:03:02.83	121.30	2.30	-55.3	-72.1	3.6	8.46e-01	0	44	104	0	60	158539
2026-01-30 09:03:03.83	121.27	2.37	-55.3	-72.3	3.6	8.46e-01	0	44	104	0	60	161713
2026-01-30 09:03:04.84	121.24	2.43	-55.3	-72.2	3.6	8.44e-01	0	44	104	0	60	159763
2026-01-30 09:03:05.84	121.21	2.49	-55.3	-72.2	3.6	8.45e-01	0	44	104	0	60	160221
2026-01-30 09:03:06.85	121.17	2.56	-55.1	-72.2	3.6	8.46e-01	0	44	104	0	60	159781
2026-01-30 09:03:07.85	121.14	2.62	-55.2	-72.2	3.6	8.45e-01	0	44	104	0	60	160512
2026-01-30 09:03:08.86	121.11	2.69	-54.9	-72.0	3.6	8.45e-01	0	44	104	0	60	155720
2026-01-30 09:03:09.86	121.08	2.75	-55.0	-72.2	3.6	8.46e-01	0	44	104	0	60	160109
2026-01-30 09:03:10.87	121.04	2.81	-55.0	-72.1	3.6	8.45e-01	0	44	104	0	60	157565
2026-01-30 09:03:11.88	121.01	2.88	-55.0	-72.0	3.6	8.44e-01	0	44	104	0	60	156531
2026-01-30 09:03:12.88	120.98	2.94	-55.0	-72.0	3.6	8.46e-01	0	44	104	0	60	155253
2026-01-30 09:03:13.89	120.94	3.01	-55.0	-72.0	3.6	8.45e-01	0	44	104	0	60	156413
2026-01-30 09:03:14.90	120.91	3.07	-54.8	-72.0	3.6	8.45e-01	0	44	104	0	60	156723
2026-01-30 09:03:15.91	120.88	3.14	-55.0	-72.1	3.6	8.46e-01	0	45	104	0	60	158209
2026-01-30 09:03:16.91	120.84	3.21	-55.1	-72.1	3.6	8.45e-01	0	44	104	0	60	158161
2026-01-30 09:03:17.91	120.81	3.27	-55.1	-72.1	3.6	8.45e-01	0	45	104	0	60	157430
2026-01-30 09:03:18.92	120.77	3.34	-55.1	-72.1	3.6	8.45e-01	0	45	104	0	60	157885
2026-01-30 09:03:19.93	120.74	3.40	-54.9	-71.9	3.6	8.45e-01	0	44	104	0	60	155028
2026-01-30 09:03:20.94	120.71	3.47	-54.9	-72.2	3.6	8.45e-01	0	44	104	0	60	158706
2026-01-30 09:03:21.95	120.67	3.54	-55.0	-72.2	3.6	8.45e-01	0	44	104	0	60	159390
2026-01-30 09:03:22.95	120.64	3.60	-55.0	-72.1	3.6	8.45e-01	0	44	104	0	60	157621
2026-01-30 09:03:23.96	120.60	3.67	-54.8	-72.1	3.6	8.45e-01	0	45	104	0	60	157626
2026-01-30 09:03:24.96	120.57	3.73	-55.0	-71.9	3.6	8.45e-01	0	44	104	0	60	154302
2026-01-30 09:03:25.97	120.53	3.80	-55.0	-72.1	3.6	8.45e-01	0	45	104	0	60	157777
2026-01-30 09:03:26.97	120.49	3.87	-55.0	-72.0	3.6	8.46e-01	0	45	104	0	60	155610
2026-01-30 09:03:27.98	120.46	3.94	-55.0	-72.1	3.6	8.46e-01	0	44	104	0	60	157963
2026-01-30 09:03:28.98	120.42	4.00	-55.0	-71.9	3.6	8.46e-01	0	45	104	0	60	153928
2026-01-30 09:03:29.99	120.39	4.07	-55.0	-71.7	3.6	8.45e-01	0	44	104	0	60	150080
2026-01-30 09:03:31.00	120.35	4.14	-54.9	-71.4	3.6	8.46e-01	0	45	104	0	60	144761
2026-01-30 09:03:32.01	120.31	4.21	-55.0	-71.1	3.6	8.44e-01	0	45	104	0	60	140585
2026-01-30 09:03:33.01	120.28	4.27	-55.0	-70.8	3.6	8.44e-01	0	45	104	0	60	135679
2026-01-30 09:03:34.02	120.24	4.34	-55.1	-70.3	3.6	8.46e-01	0	45	104	0	60	128041
2026-01-30 09:03:35.02	120.20	4.41	-55.1	-70.0	3.7	8.44e-01	0	45	104	0	60	124140
2026-01-30 09:03:36.03	120.16	4.48	-55.0	-69.8	3.7	8.43e-01	0	45	104	0	60	121544
2026-01-30 09:03:37.03	120.13	4.55	-55.0	-69.8	3.7	8.44e-01	0	45	104	0	60	120760
2026-01-30 09:03:38.03	120.09	4.61	-55.2	-69.8	3.6	8.42e-01	0	45	104	0	60	121661
2026-01-30 09:03:39.03	120.05	4.68	-55.2	-69.7	3.6	8.44e-01	0	45	104	0	60	119847
2026-01-30 09:03:40.03	120.01	4.75	-55.1	-68.7	3.8	8.42e-01	0	45	104	0	60	106916
2026-01-30 09:03:41.04	119.98	4.82	-55.0	-66.5	4.2	8.32e-01	0	45	0	0	60	82882
2026-01-30 09:03:42.05	119.94	4.89	-54.9	-64.8	5.3	7.58e-01	0	45	0	0	60	67946
2026-01-30 09:03:43.06	119.90	4.96	-54.8	-63.2	7.1	2.16e-01	0	45	0	4194304	60	56451
2026-01-30 09:03:44.06	119.86	5.03	-54.6	-61.6	9.1	5.06e-02	0	45	0	10485760	60	46849
2026-01-30 09:03:45.07	119.82	5.10	-54.1	-59.9	10.9	7.62e-03	0	45	0	15728640	60	38787
2026-01-30 09:03:46.07	119.78	5.17	-53.5	-58.4	12.6	3.78e-04	0	45	0	22020096	60	32630
2026-01-30 09:03:47.07	119.74	5.24	-53.0	-57.1	14.1	1.94e-05	0	45	0	27262976	60	27972
2026-01-30 09:03:48.07	119.70	5.31	-52.5	-55.9	15.3	0.00e+00	0	45	0	32505856	60	24452
2026-01-30 09:03:49.08	119.66	5.38	-52.0	-54.9	16.2	0.00e+00	0	45	0	38797312	60	21888
2026-01-30 09:03:50.09	119.62	5.45	-51.5	-54.2	17.0	0.00e+00	0	45	0	44040192	60	20079
2026-01-30 09:03:51.09	119.58	5.52	-51.2	-53.7	17.4	0.00e+00	0	45	0	49283072	60	19006
2026-01-30 09:03:52.10	119.54	5.59	-50.9	-53.3	17.8	0.00e+00	0	45	0	55574528	60	18104
2026-01-30 09:03:53.10	119.50	5.66	-50.9	-53.2	17.9	0.00e+00	0	45	0	61865984	60	17942
2026-01-30 09:03:54.10	119.46	5.73	-50.9	-53.3	17.8	0.00e+00	0	45	0	67108864	60	18127
2026-01-30 09:03:55.11	119.42	5.81	-51.1	-53.6	17.5	0.00e+00	0	45	0	72351744	60	18734
2026-01-30 09:03:56.11	119.38	5.88	-51.3	-54.2	16.9	0.00e+00	0	45	0	78643200	60	20004
2026-01-30 09:03:57.12	119.34	5.95	-51.8	-54.9	16.1	0.00e+00	0	45	0	83886080	60	21893
2026-01-30 09:03:58.13	119.29	6.02	-52.3	-55.9	15.1	0.00e+00	0	45	0	89128960	60	24331
2026-01-30 09:03:59.13	119.25	6.09	-51.7	-57.0	13.0	2.86e-05	0	45	0	95420416	60	27785
2026-01-30 09:04:00.14	119.21	6.17	-50.7	-53.0	17.6	0.00e+00	0	45	0	100663296	60	17415
2026-01-30 09:04:01.15	119.17	6.24	-54.9	-65.6	4.2	2.35e-01	0	45	0	105906176	60	74581
2026-01-30 09:04:02.16	119.13	6.31	-50.8	-52.3	18.8	0.00e+00	0	45	0	110100480	60	16127
2026-01-30 09:04:03.16	119.08	6.39	-52.5	-58.8	10.2	1.12e-03	0	45	0	116391936	60	34304
2026-01-30 09:04:04.17	119.04	6.46	-51.0	-53.1	17.3	0.00e+00	0	45	0	121634816	60	17756
2026-01-30 09:04:05.17	119.00	6.53	-51.1	-53.2	17.3	0.00e+00	0	45	0	127926272	60	17895
2026-01-30 09:04:06.18	118.95	6.61	-50.9	-52.7	17.7	0.00e+00	0	45	0	133169152	60	16947
2026-01-30 09:04:07.19	118.91	6.68	-51.0	-52.8	17.7	0.00e+00	0	45	0	138412032	60	17116
2026-01-30 09:04:08.20	118.86	6.76	-51.1	-52.7	18.0	0.00e+00	0	45	0	144703488	60	16990
2026-01-30 09:04:09.20	118.82	6.83	-50.9	-52.3	18.7	0.00e+00	0	45	0	150994944	60	16183
2026-01-30 09:04:10.21	118.77	6.90	-50.8	-52.1	19.0	0.00e+00	0	45	0	156237824	60	15825
2026-01-30 09:04:11.21	118.73	6.98	-50.9	-52.3	19.0	0.00e+00	0	45	0	161480704	60	16068
2026-01-30 09:04:12.21	118.69	7.05	-50.8	-52.1	19.3	0.00e+00	0	45	0	167772160	60	15809
2026-01-30 09:04:13.22	118.64	7.13	-50.8	-52.1	19.5	0.00e+00	0	45	0	173015040	60	15727
2026-01-30 09:04:14.23	118.59	7.20	-50.9	-52.2	19.4	0.00e+00	0	45	0	178257920	60	15959
2026-01-30 09:04:15.23	118.55	7.28	-50.6	-51.8	19.7	0.00e+00	0	45	0	184549376	60	15328
2026-01-30 09:04:16.24	118.50	7.35	-50.5	-51.8	19.7	0.00e+00	0	45	0	189792256	60	15210
2026-01-30 09:04:17.24	118.46	7.43	-50.6	-51.8	19.7	0.00e+00	0	45	0	195035136	60	15299
2026-01-30 09:04:18.24	118.41	7.51	-50.6	-51.8	19.6	0.00e+00	0	45	0	201326592	60	15312
2026-01-30 09:04:19.25	118.36	7.58	-50.6	-52.0	19.3	0.00e+00	0	45	0	206569472	60	15529
2026-01-30 09:04:20.25	118.32	7.66	-50.6	-52.0	19.3	0.00e+00	0	45	0	212860928	60	15534
2026-01-30 09:04:21.25	118.27	7.73	-50.5	-51.9	19.3	0.00e+00	0	45	0	218103808	60	15361
2026-01-30 09:04:22.25	118.22	7.81	-50.4	-51.7	19.4	0.00e+00	0	45	0	223346688	60	15130
2026-01-30 09:04:23.26	118.17	7.89	-50.4	-51.8	19.4	0.00e+00	0	45	0	229638144	60	15218
2026-01-30 09:04:24.26	118.13	7.96	-50.2	-51.6	19.3	0.00e+00	0	45	0	234881024	60	14902
2026-01-30 09:04:25.27	118.08	8.04	-50.2	-51.7	19.1	0.00e+00	0	45	0	240123904	60	14998
2026-01-30 09:04:26.27	118.03	8.12	-50.2	-51.7	19.1	0.00e+00	0	45	0	246415360	60	15117
2026-01-30 09:04:27.27	117.98	8.20	-50.3	-51.8	19.0	0.00e+00	0	45	0	251658240	60	15182
2026-01-30 09:04:28.28	117.93	8.28	-50.2	-51.7	19.2	0.00e+00	0	45	0	256901120	60	15025
2026-01-30 09:04:29.28	117.88	8.35	-50.3	-51.8	19.3	0.00e+00	0	45	0	263192576	60	15230
2026-01-30 09:04:30.29	117.83	8.43	-50.3	-51.7	19.2	0.00e+00	0	45	0	268435456	60	15074
2026-01-30 09:04:31.30	117.78	8.51	-50.1	-51.5	19.0	0.00e+00	0	45	0	274726912	60	14775
2026-01-30 09:04:32.31	117.73	8.59	-50.1	-51.6	18.8	0.00e+00	0	45	0	279969792	60	14937
2026-01-30 09:04:33.31	117.68	8.67	-50.2	-51.7	18.9	0.00e+00	0	45	0	286261248	60	15021
2026-01-30 09:04:34.32	117.63	8.75	-50.3	-51.7	19.2	0.00e+00	0	45	0	291504128	60	15019
2026-01-30 09:04:35.33	117.58	8.83	-50.5	-51.8	19.3	0.00e+00	0	45	0	297795584	60	15308
2026-01-30 09:04:36.33	117.52	8.91	-50.3	-51.7	19.3	0.00e+00	0	45	0	303038464	60	15113
2026-01-30 09:04:37.34	117.47	8.99	-50.1	-51.5	19.2	0.00e+00	0	45	0	308281344	60	14807
2026-01-30 09:04:38.35	117.42	9.07	-50.1	-51.6	19.0	0.00e+00	0	45	0	314572800	60	14981
2026-01-30 09:04:39.35	117.37	9.15	-50.0	-51.6	19.1	0.00e+00	0	45	0	319815680	60	14850
2026-01-30 09:04:40.36	117.31	9.23	-49.9	-51.4	19.4	0.00e+00	0	45	0	325058560	60	14599
2026-01-30 09:04:41.37	117.26	9.31	-49.9	-51.5	19.4	0.00e+00	0	45	0	331350016	60	14746
2026-01-30 09:04:42.37	117.21	9.40	-49.9	-51.5	19.5	0.00e+00	0	45	0	336592896	60	14666
2026-01-30 09:04:43.38	117.15	9.48	-49.8	-51.4	19.6	0.00e+00	0	45	0	341835776	60	14485
2026-01-30 09:04:44.38	117.10	9.56	-49.8	-51.3	19.9	0.00e+00	0	45	0	348127232	60	14308
2026-01-30 09:04:45.39	117.05	9.64	-49.9	-51.3	20.0	0.00e+00	0	45	0	353370112	60	14390
2026-01-30 09:04:46.40	116.99	9.72	-49.8	-51.2	20.3	0.00e+00	0	45	0	359661568	60	14189
2026-01-30 09:04:47.41	116.94	9.81	-49.8	-51.2	20.3	0.00e+00	0	45	0	364904448	60	14297
2026-01-30 09:04:48.42	116.88	9.89	-49.8	-51.1	20.5	0.00e+00	0	45	0	371195904	60	14119
2026-01-30 09:04:49.42	116.82	9.97	-49.8	-51.1	20.7	0.00e+00	0	45	0	376438784	60	13990
2026-01-30 09:04:50.43	116.77	10.06	-49.8	-51.0	20.8	0.00e+00	0	45	0	382730240	60	13842
2026-01-30 09:04:51.43	116.71	10.14	-49.9	-51.1	20.6	0.00e+00	0	45	0	387973120	60	14105
2026-01-30 09:04:52.44	116.65	10.22	-49.8	-51.0	20.6	0.00e+00	0	45	0	393216000	60	13905
2026-01-30 09:04:53.45	116.60	10.31	-49.7	-50.9	20.5	0.00e+00	0	45	0	399507456	60	13719
2026-01-30 09:04:54.46	116.54	10.39	-49.8	-51.0	20.4	0.00e+00	0	45	0	404750336	60	13870
2026-01-30 09:04:55.46	116.48	10.48	-49.8	-50.9	20.5	0.00e+00	0	45	0	409993216	60	13731
2026-01-30 09:04:56.47	116.42	10.56	-49.8	-50.9	20.3	0.00e+00	0	45	0	416284672	60	13821
2026-01-30 09:04:57.48	116.36	10.65	-49.9	-51.0	20.2	0.00e+00	0	45	0	421527552	60	13978
2026-01-30 09:04:58.49	116.31	10.73	-49.8	-50.9	20.4	0.00e+00	0	45	0	426770432	60	13767
2026-01-30 09:04:59.48	116.25	10.82	-49.8	-50.9	20.4	0.00e+00	0	45	0	433061888	60	13778
2026-01-30 09:05:00.49	116.19	10.91	-49.7	-50.9	20.5	0.00e+00	0	45	0	438304768	60	13705
2026-01-30 09:05:01.50	116.13	10.99	-49.7	-50.9	20.5	0.00e+00	0	45	0	444596224	60	13680
2026-01-30 09:05:02.50	116.07	11.08	-49.6	-50.8	20.4	0.00e+00	0	45	0	449839104	60	13599
2026-01-30 09:05:03.51	116.01	11.17	-49.7	-50.9	20.3	0.00e+00	0	45	0	456130560	60	13772
2026-01-30 09:05:04.52	115.94	11.25	-49.7	-50.9	20.4	0.00e+00	0	45	0	461373440	60	13788
2026-01-30 09:05:05.53	115.88	11.34	-49.8	-51.0	20.4	0.00e+00	0	45	0	467664896	60	13893
2026-01-30 09:05:06.54	115.82	11.43	-49.7	-50.9	20.6	0.00e+00	0	45	0	472907776	60	13736
2026-01-30 09:05:07.54	115.76	11.52	-49.7	-50.9	20.7	0.00e+00	0	45	0	478150656	60	13739
2026-01-30 09:05:08.55	115.70	11.60	-49.8	-51.0	20.6	0.00e+00	0	45	0	484442112	60	13931
2026-01-30 09:05:09.56	115.63	11.69	-49.9	-51.1	20.5	0.00e+00	0	45	0	489684992	60	14040
2026-01-30 09:05:10.56	115.57	11.78	-50.0	-51.2	20.3	0.00e+00	0	45	0	494927872	60	14168
2026-01-30 09:05:11.57	115.51	11.87	-49.7	-50.9	20.7	0.00e+00	0	45	0	501219328	60	13665
2026-01-30 09:05:12.58	115.44	11.96	-49.5	-50.6	20.8	0.00e+00	0	45	0	506462208	60	13336
2026-01-30 09:05:13.59	115.38	12.05	-49.5	-50.6	20.9	0.00e+00	0	45	0	511705088	60	13272
2026-01-30 09:05:14.60	115.31	12.14	-49.6	-50.7	20.7	0.00e+00	0	45	0	517996544	60	13393
2026-01-30 09:05:15.61	115.24	12.23	-49.4	-50.5	21.0	0.00e+00	0	45	0	524288000	60	13117
2026-01-30 09:05:16.62	115.18	12.32	-49.4	-50.5	20.9	0.00e+00	0	45	0	529530880	60	13093
2026-01-30 09:05:17.62	115.11	12.41	-49.4	-50.5	21.0	0.00e+00	0	45	0	534773760	60	13104
2026-01-30 09:05:18.63	115.05	12.50	-49.4	-50.4	21.1	0.00e+00	0	45	0	541065216	60	12947
2026-01-30 09:05:19.64	114.98	12.60	-49.5	-50.5	21.0	0.00e+00	0	45	0	546308096	60	13175
2026-01-30 09:05:20.65	114.91	12.69	-49.4	-50.4	21.4	0.00e+00	0	45	0	552599552	60	12973
2026-01-30 09:05:21.66	114.84	12.78	-49.2	-50.2	21.5	0.00e+00	0	45	0	557842432	60	12702
2026-01-30 09:05:22.66	114.77	12.87	-49.2	-50.2	21.5	0.00e+00	0	45	0	563085312	60	12741
2026-01-30 09:05:23.66	114.70	12.97	-49.1	-50.2	21.6	0.00e+00	0	45	0	569376768	60	12672
2026-01-30 09:05:24.67	114.63	13.06	-49.2	-50.2	21.4	0.00e+00	0	45	0	574619648	60	12734
2026-01-30 09:05:25.66	114.57	13.15	-49.2	-50.3	21.4	0.00e+00	0	45	0	579862528	60	12776
2026-01-30 09:05:26.67	114.49	13.24	-48.9	-50.0	21.4	0.00e+00	0	45	0	586153984	60	12371
2026-01-30 09:05:27.68	114.42	13.34	-49.0	-50.0	21.1	0.00e+00	0	45	0	591396864	60	12425
2026-01-30 09:05:28.69	114.35	13.43	-49.1	-50.2	20.9	0.00e+00	0	45	0	596639744	60	12744
2026-01-30 09:05:29.69	114.28	13.53	-49.0	-50.0	21.1	0.00e+00	0	45	0	602931200	60	12413
2026-01-30 09:05:30.70	114.21	13.62	-49.0	-50.0	21.1	0.00e+00	0	45	0	608174080	60	12435
2026-01-30 09:05:31.70	114.14	13.72	-49.1	-50.2	21.1	0.00e+00	0	45	0	614465536	60	12612
2026-01-30 09:05:32.71	114.06	13.81	-49.2	-50.2	21.0	0.00e+00	0	45	0	619708416	60	12674
2026-01-30 09:05:33.71	113.99	13.91	-49.2	-50.3	21.0	0.00e+00	0	45	0	625999872	60	12790
2026-01-30 09:05:34.72	113.91	14.01	-49.2	-50.2	21.0	0.00e+00	0	45	0	631242752	60	12716
2026-01-30 09:05:35.73	113.84	14.10	-49.2	-50.2	21.2	0.00e+00	0	45	0	637534208	60	12691
2026-01-30 09:05:36.73	113.76	14.20	-49.1	-50.2	21.4	0.00e+00	0	45	0	642777088	60	12613
2026-01-30 09:05:37.74	113.69	14.30	-49.1	-50.1	21.6	0.00e+00	0	45	0	648019968	60	12526
2026-01-30 09:05:38.75	113.61	14.39	-49.2	-50.2	21.5	0.00e+00	0	45	0	654311424	60	12713
2026-01-30 09:05:39.76	113.53	14.49	-49.0	-50.0	21.8	0.00e+00	0	45	0	659554304	60	12356
2026-01-30 09:05:40.76	113.46	14.59	-48.8	-49.7	21.9	0.00e+00	0	45	0	664797184	60	12033
2026-01-30 09:05:41.77	113.38	14.69	-48.8	-49.8	21.8	0.00e+00	0	45	0	671088640	60	12042
2026-01-30 09:05:42.78	113.30	14.79	-48.9	-49.8	21.8	0.00e+00	0	45	0	676331520	60	12133
2026-01-30 09:05:43.78	113.22	14.89	-48.7	-49.7	21.8	0.00e+00	0	45	0	681574400	60	11951
2026-01-30 09:05:44.79	113.14	14.99	-48.7	-49.7	21.8	0.00e+00	0	45	0	687865856	60	11915
2026-01-30 09:05:45.80	113.06	15.09	-48.7	-49.7	21.8	0.00e+00	0	45	0	693108736	60	11919
2026-01-30 09:05:46.80	112.98	15.19	-48.4	-49.4	22.1	0.00e+00	0	45	0	699400192	60	11581
2026-01-30 09:05:47.81	112.90	15.29	-48.2	-49.3	22.4	0.00e+00	0	45	0	704643072	60	11369
2026-01-30 09:05:48.82	112.82	15.39	-48.3	-49.3	22.3	0.00e+00	0	45	0	710934528	60	11379
2026-01-30 09:05:49.83	112.73	15.49	-48.2	-49.2	22.4	0.00e+00	0	45	0	716177408	60	11319
2026-01-30 09:05:50.83	112.65	15.59	-48.3	-49.3	22.2	0.00e+00	0	45	0	722468864	60	11416
2026-01-30 09:05:51.83	112.57	15.69	-48.2	-49.2	22.1	0.00e+00	0	45	0	727711744	60	11298
2026-01-30 09:05:52.84	112.48	15.80	-48.2	-49.2	21.9	0.00e+00	0	45	0	732954624	60	11313
2026-01-30 09:05:53.85	112.40	15.90	-48.1	-49.1	22.1	0.00e+00	0	45	0	739246080	60	11223
2026-01-30 09:05:54.86	112.31	16.00	-48.3	-49.3	22.1	0.00e+00	0	45	0	744488960	60	11481
2026-01-30 09:05:55.87	112.23	16.11	-48.3	-49.3	22.3	0.00e+00	0	45	0	749731840	60	11468
2026-01-30 09:05:56.88	112.14	16.21	-48.3	-49.3	22.3	0.00e+00	0	45	0	756023296	60	11407
2026-01-30 09:05:57.89	112.05	16.32	-48.3	-49.2	22.4	0.00e+00	0	45	0	761266176	60	11328
2026-01-30 09:05:58.89	111.97	16.42	-48.2	-49.1	22.4	0.00e+00	0	45	0	766509056	60	11202
2026-01-30 09:05:59.90	111.88	16.53	-48.2	-49.2	22.3	0.00e+00	0	45	0	772800512	60	11255
2026-01-30 09:06:00.90	111.79	16.63	-48.2	-49.2	22.3	0.00e+00	0	45	0	779091968	60	11240
2026-01-30 09:06:01.91	111.70	16.74	-48.1	-49.0	22.3	0.00e+00	0	45	0	784334848	60	11028
2026-01-30 09:06:02.91	111.61	16.84	-48.1	-49.1	22.3	0.00e+00	0	45	0	789577728	60	11177
2026-01-30 09:06:03.92	111.52	16.95	-48.2	-49.1	22.4	0.00e+00	0	45	0	795869184	60	11207
2026-01-30 09:06:04.93	111.42	17.06	-48.2	-49.1	22.5	0.00e+00	0	45	0	801112064	60	11208
2026-01-30 09:06:05.94	111.33	17.17	-48.0	-48.9	22.8	0.00e+00	0	45	0	807403520	60	10942
2026-01-30 09:06:06.94	111.24	17.27	-47.8	-48.8	22.9	0.00e+00	0	45	0	812646400	60	10792
2026-01-30 09:06:07.95	111.14	17.38	-48.0	-48.9	22.8	0.00e+00	0	45	0	817889280	60	10929
2026-01-30 09:06:08.96	111.05	17.49	-47.9	-48.9	22.8	0.00e+00	0	45	0	824180736	60	10863
2026-01-30 09:06:09.97	110.95	17.60	-47.8	-48.7	22.7	0.00e+00	0	45	0	829423616	60	10708
2026-01-30 09:06:10.98	110.86	17.71	-47.9	-48.8	22.4	0.00e+00	0	45	0	834666496	60	10812
2026-01-30 09:06:11.98	110.76	17.82	-47.8	-48.8	22.5	0.00e+00	0	45	0	840957952	60	10785
2026-01-30 09:06:12.99	110.66	17.93	-47.8	-48.7	22.7	0.00e+00	0	45	0	846200832	60	10622
2026-01-30 09:06:14.00	110.57	18.04	-47.8	-48.8	22.6	0.00e+00	0	45	0	852492288	60	10809
2026-01-30 09:06:15.01	110.47	18.15	-47.8	-48.8	22.7	0.00e+00	0	45	0	857735168	60	10755
2026-01-30 09:06:16.02	110.37	18.27	-47.8	-48.8	22.8	0.00e+00	0	45	0	864026624	60	10730
2026-01-30 09:06:17.03	110.26	18.38	-47.8	-48.7	23.0	0.00e+00	0	45	0	869269504	60	10712
2026-01-30 09:06:18.03	110.16	18.49	-47.9	-48.8	22.9	0.00e+00	0	45	0	874512384	60	10853
2026-01-30 09:06:19.04	110.06	18.60	-47.8	-48.8	23.0	0.00e+00	0	45	0	880803840	60	10757
2026-01-30 09:06:20.04	109.96	18.71	-47.6	-48.5	23.2	0.00e+00	0	45	0	886046720	60	10481
2026-01-30 09:06:21.04	109.86	18.83	-47.6	-48.6	23.1	0.00e+00	0	45	0	892338176	60	10511
2026-01-30 09:06:22.05	109.75	18.94	-47.5	-48.5	23.1	0.00e+00	0	45	0	897581056	60	10394
2026-01-30 09:06:23.06	109.65	19.06	-47.6	-48.5	23.1	0.00e+00	0	45	0	902823936	60	10410
2026-01-30 09:06:24.06	109.54	19.17	-47.7	-48.6	23.0	0.00e+00	0	45	0	909115392	60	10579
2026-01-30 09:06:25.06	109.44	19.29	-47.5	-48.4	23.3	0.00e+00	0	45	0	914358272	60	10308
2026-01-30 09:06:26.07	109.33	19.40	-47.4	-48.3	23.5	0.00e+00	0	45	0	919601152	60	10135
2026-01-30 09:06:27.08	109.22	19.52	-47.5	-48.3	23.5	0.00e+00	0	45	0	925892608	60	10157
2026-01-30 09:06:28.08	109.11	19.63	-47.5	-48.3	23.5	0.00e+00	0	45	0	931135488	60	10167
2026-01-30 09:06:29.09	109.00	19.75	-47.4	-48.3	23.5	0.00e+00	0	45	0	936378368	60	10130
2026-01-30 09:06:30.10	108.89	19.87	-47.3	-48.1	23.4	0.00e+00	0	45	0	942669824	60	9932
2026-01-30 09:06:31.11	108.78	19.99	-47.3	-48.2	23.2	0.00e+00	0	45	0	948961280	60	10027
2026-01-30 09:06:32.11	108.66	20.11	-47.4	-48.3	23.1	0.00e+00	0	45	0	954204160	60	10148
2026-01-30 09:06:33.11	108.55	20.22	-47.2	-48.2	23.0	0.00e+00	0	45	0	959447040	60	10031
2026-01-30 09:06:34.12	108.44	20.34	-47.1	-48.1	23.0	0.00e+00	0	45	0	965738496	60	9932
2026-01-30 09:06:35.13	108.32	20.46	-47.3	-48.2	23.0	0.00e+00	0	45	0	970981376	60	10119
2026-01-30 09:06:36.14	108.20	20.58	-47.1	-48.1	23.3	0.00e+00	0	45	0	977272832	60	9974
2026-01-30 09:06:37.14	108.09	20.70	-47.2	-48.2	23.4	0.00e+00	0	45	0	982515712	60	10014
2026-01-30 09:06:38.15	107.97	20.83	-47.3	-48.2	23.4	0.00e+00	0	45	0	987758592	60	10111
2026-01-30 09:06:39.15	107.85	20.95	-47.2	-48.2	23.6	0.00e+00	0	45	0	994050048	60	10020
2026-01-30 09:06:40.16	107.73	21.07	-47.2	-48.0	23.5	0.00e+00	0	45	0	999292928	60	9889
2026-01-30 09:06:41.16	107.61	21.19	-47.1	-47.9	23.7	0.00e+00	0	45	0	1004535808	60	9784
2026-01-30 09:06:42.17	107.49	21.31	-47.1	-48.0	23.7	0.00e+00	0	45	0	1010827264	60	9819
2026-01-30 09:06:43.18	107.36	21.44	-47.3	-48.1	23.5	0.00e+00	0	45	0	1016070144	60	9932
2026-01-30 09:06:44.19	107.24	21.56	-47.0	-47.9	23.5	0.00e+00	0	45	0	1021313024	60	9749
2026-01-30 09:06:45.19	107.11	21.68	-47.0	-48.0	23.1	0.00e+00	0	45	0	1027604480	60	9788
2026-01-30 09:06:46.19	106.99	21.81	-47.1	-48.1	23.0	0.00e+00	0	45	0	1032847360	60	9901
2026-01-30 09:06:47.20	106.86	21.93	-47.2	-48.1	22.9	0.00e+00	0	45	0	1039138816	60	9938
2026-01-30 09:06:48.20	106.73	22.06	-47.3	-48.2	23.1	0.00e+00	0	45	0	1044381696	60	10065
2026-01-30 09:06:49.21	106.60	22.19	-47.2	-48.0	23.3	0.00e+00	0	45	0	1050673152	60	9874
2026-01-30 09:06:50.22	106.47	22.31	-47.2	-48.0	23.6	0.00e+00	0	45	0	1055916032	60	9898
2026-01-30 09:06:51.22	106.34	22.44	-47.3	-48.1	23.6	0.00e+00	0	45	0	1062207488	60	9981
2026-01-30 09:06:52.23	106.21	22.57	-47.3	-48.1	23.5	0.00e+00	0	45	0	1067450368	60	9939
2026-01-30 09:06:53.24	106.07	22.70	-47.4	-48.2	23.3	0.00e+00	0	45	0	1072693248	60	10062
2026-01-30 09:06:54.25	105.94	22.82	-47.5	-48.3	23.3	0.00e+00	0	45	0	1078984704	60	10180
2026-01-30 09:06:55.25	105.80	22.95	-47.3	-48.1	23.5	0.00e+00	0	45	0	1084227584	60	9954
2026-01-30 09:06:56.26	105.66	23.08	-47.4	-48.2	23.7	0.00e+00	0	45	0	1089470464	60	10037
2026-01-30 09:06:57.27	105.52	23.21	-47.3	-48.1	23.7	0.00e+00	0	45	0	1095761920	60	10005
2026-01-30 09:06:58.27	105.39	23.34	-47.2	-48.0	23.9	0.00e+00	0	45	0	1101004800	60	9823
2026-01-30 09:06:59.27	105.25	23.47	-47.1	-47.9	23.9	0.00e+00	0	45	0	1107296256	60	9753
2026-01-30 09:07:00.28	105.10	23.60	-46.8	-47.6	24.1	0.00e+00	0	45	0	1112539136	60	9432
2026-01-30 09:07:01.29	104.96	23.74	-46.6	-47.5	24.2	0.00e+00	0	45	0	1117782016	60	9262
2026-01-30 09:07:02.29	104.82	23.87	-46.6	-47.4	24.3	0.00e+00	0	45	0	1124073472	60	9204
2026-01-30 09:07:03.30	104.67	24.00	-46.6	-47.4	24.2	0.00e+00	0	45	0	1129316352	60	9222
2026-01-30 09:07:04.31	104.52	24.13	-46.7	-47.5	24.1	0.00e+00	0	45	0	1135607808	60	9323
2026-01-30 09:07:05.31	104.38	24.27	-46.7	-47.5	24.0	0.00e+00	0	45	0	1140850688	60	9304
2026-01-30 09:07:06.32	104.23	24.40	-46.8	-47.6	23.8	0.00e+00	0	45	0	1147142144	60	9370
2026-01-30 09:07:07.32	104.08	24.53	-46.9	-47.8	23.7	0.00e+00	0	45	0	1152385024	60	9567
2026-01-30 09:07:08.33	103.92	24.67	-46.8	-47.6	23.8	0.00e+00	0	45	0	1157627904	60	9413
2026-01-30 09:07:09.34	103.77	24.81	-46.9	-47.7	23.7	0.00e+00	0	45	0	1163919360	60	9550
2026-01-30 09:07:10.34	103.62	24.94	-46.8	-47.6	23.6	0.00e+00	0	45	0	1169162240	60	9417
2026-01-30 09:07:11.35	103.46	25.08	-46.6	-47.5	23.5	0.00e+00	0	45	0	1174405120	60	9300
2026-01-30 09:07:12.36	103.30	25.21	-46.6	-47.4	23.4	0.00e+00	0	45	0	1180696576	60	9180
2026-01-30 09:07:13.36	103.14	25.35	-46.7	-47.5	23.6	0.00e+00	0	45	0	1185939456	60	9286
2026-01-30 09:07:14.36	102.98	25.49	-46.8	-47.6	23.8	0.00e+00	0	45	0	1192230912	60	9426
2026-01-30 09:07:15.37	102.82	25.63	-46.8	-47.5	23.8	0.00e+00	0	45	0	1197473792	60	9334
2026-01-30 09:07:16.38	102.66	25.77	-46.6	-47.4	23.6	0.00e+00	0	45	0	1202716672	60	9159
2026-01-30 09:07:17.38	102.49	25.90	-46.6	-47.4	23.3	0.00e+00	0	45	0	1209008128	60	9170
2026-01-30 09:07:18.39	102.33	26.04	-46.8	-47.6	23.3	0.00e+00	0	45	0	1214251008	60	9410
2026-01-30 09:07:19.40	102.16	26.19	-46.6	-47.4	23.9	0.00e+00	0	45	0	1220542464	60	9177
2026-01-30 09:07:20.40	101.99	26.32	-46.7	-47.5	24.2	0.00e+00	0	45	0	1225785344	60	9287
2026-01-30 09:07:21.41	101.82	26.47	-46.7	-47.5	24.0	0.00e+00	0	45	0	1232076800	60	9248
2026-01-30 09:07:22.42	101.65	26.61	-47.0	-47.7	23.7	0.00e+00	0	45	0	1237319680	60	9501
2026-01-30 09:07:23.43	101.47	26.75	-46.6	-47.4	24.2	0.00e+00	0	45	0	1242562560	60	9174
2026-01-30 09:07:24.43	101.30	26.89	-46.5	-47.3	24.4	0.00e+00	0	45	0	1248854016	60	9030
2026-01-30 09:07:25.44	101.12	27.04	-46.6	-47.4	24.3	0.00e+00	0	45	0	1254096896	60	9164
2026-01-30 09:07:26.43	100.94	27.18	-46.4	-47.1	24.6	0.00e+00	0	45	0	1259339776	60	8914
2026-01-30 09:07:27.44	100.76	27.32	-46.3	-47.1	24.5	0.00e+00	0	45	0	1265631232	60	8883
2026-01-30 09:07:28.45	100.58	27.46	-46.2	-47.0	24.4	0.00e+00	0	45	0	1270874112	60	8784
2026-01-30 09:07:29.46	100.40	27.61	-46.3	-47.1	24.4	0.00e+00	0	45	0	1277165568	60	8840
2026-01-30 09:07:30.47	100.21	27.76	-46.3	-47.1	24.5	0.00e+00	0	45	0	1282408448	60	8908
2026-01-30 09:07:31.47	100.02	27.90	-46.3	-47.0	24.5	0.00e+00	0	45	0	1287651328	60	8804
2026-01-30 09:07:32.48	99.83	28.05	-46.2	-47.0	24.4	0.00e+00	0	45	0	1293942784	60	8783
2026-01-30 09:07:33.49	99.64	28.19	-46.1	-46.9	24.3	0.00e+00	0	45	0	1299185664	60	8705
2026-01-30 09:07:34.49	99.45	28.34	-46.3	-47.1	24.3	0.00e+00	0	45	0	1304428544	60	8856
2026-01-30 09:07:35.50	99.26	28.49	-46.2	-46.9	24.7	0.00e+00	0	45	0	1310720000	60	8713
2026-01-30 09:07:36.51	99.06	28.63	-46.2	-47.0	24.7	0.00e+00	0	45	0	1317011456	60	8734
2026-01-30 09:07:37.51	98.86	28.78	-46.4	-47.1	24.7	0.00e+00	0	45	0	1322254336	60	8905
2026-01-30 09:07:38.52	98.66	28.93	-46.3	-47.1	24.7	0.00e+00	0	45	0	1327497216	60	8823
2026-01-30 09:07:39.52	98.46	29.08	-46.3	-47.0	24.5	0.00e+00	0	45	0	1333788672	60	8812
2026-01-30 09:07:40.52	98.26	29.23	-46.4	-47.1	24.5	0.00e+00	0	45	0	1339031552	60	8920
2026-01-30 09:07:41.52	98.06	29.37	-46.5	-47.2	24.4	0.00e+00	0	45	0	1344274432	60	9027
2026-01-30 09:07:42.53	97.85	29.52	-46.5	-47.2	24.5	0.00e+00	0	45	0	1350565888	60	9024
2026-01-30 09:07:43.54	97.64	29.67	-46.6	-47.3	24.3	0.00e+00	0	45	0	1355808768	60	9124
2026-01-30 09:07:44.55	97.43	29.83	-46.6	-47.4	24.2	0.00e+00	0	45	0	1362100224	60	9139
2026-01-30 09:07:45.55	97.22	29.98	-46.3	-47.1	24.3	0.00e+00	0	45	0	1367343104	60	8853
2026-01-30 09:07:46.55	97.00	30.13	-46.3	-47.0	24.4	0.00e+00	0	45	0	1372585984	60	8821
2026-01-30 09:07:47.55	96.79	30.28	-46.2	-46.9	24.8	0.00e+00	0	45	0	1378877440	60	8717
2026-01-30 09:07:48.55	96.57	30.43	-46.2	-46.9	24.7	0.00e+00	0	45	0	1384120320	60	8714
2026-01-30 09:07:49.56	96.35	30.58	-46.2	-47.0	24.4	0.00e+00	0	45	0	1389363200	60	8801
2026-01-30 09:07:50.56	96.13	30.73	-46.3	-47.1	24.2	0.00e+00	0	45	0	1395654656	60	8879
2026-01-30 09:07:51.57	95.90	30.88	-46.5	-47.3	24.2	0.00e+00	0	45	0	1400897536	60	9097
2026-01-30 09:07:52.57	95.67	31.04	-46.6	-47.3	24.7	0.00e+00	0	45	0	1406140416	60	9124
2026-01-30 09:07:53.58	95.44	31.19	-46.7	-47.5	24.8	0.00e+00	0	45	0	1412431872	60	9296
2026-01-30 09:07:54.59	95.21	31.34	-46.8	-47.6	24.8	0.00e+00	0	45	0	1417674752	60	9405
2026-01-30 09:07:55.59	94.98	31.50	-46.7	-47.5	24.8	0.00e+00	0	45	0	1423966208	60	9250
2026-01-30 09:07:56.60	94.74	31.65	-46.5	-47.3	24.8	0.00e+00	0	45	0	1429209088	60	9088
2026-01-30 09:07:57.60	94.50	31.81	-46.6	-47.4	24.9	0.00e+00	0	45	0	1435500544	60	9191
2026-01-30 09:07:58.61	94.26	31.96	-46.6	-47.4	25.0	0.00e+00	0	45	0	1440743424	60	9132
2026-01-30 09:07:59.61	94.02	32.11	-46.3	-47.0	25.3	0.00e+00	0	45	0	1447034880	60	8795
2026-01-30 09:08:00.62	93.77	32.27	-46.2	-46.9	25.3	0.00e+00	0	45	0	1452277760	60	8698
2026-01-30 09:08:01.62	93.52	32.42	-46.3	-47.0	25.4	0.00e+00	0	45	0	1457520640	60	8806
2026-01-30 09:08:02.62	93.27	32.58	-46.4	-47.1	25.3	0.00e+00	0	45	0	1463812096	60	8883
2026-01-30 09:08:03.63	93.02	32.73	-46.4	-47.1	25.2	0.00e+00	0	45	0	1469054976	60	8884
2026-01-30 09:08:04.63	92.77	32.89	-46.2	-46.9	25.4	0.00e+00	0	45	0	1474297856	60	8696
2026-01-30 09:08:05.63	92.51	33.04	-46.3	-47.0	25.5	0.00e+00	0	45	0	1480589312	60	8784
2026-01-30 09:08:06.64	92.25	33.20	-46.5	-47.2	25.3	0.00e+00	0	45	0	1485832192	60	8955
2026-01-30 09:08:07.65	91.98	33.36	-46.4	-47.1	25.3	0.00e+00	0	45	0	1491075072	60	8911
2026-01-30 09:08:08.65	91.72	33.51	-46.4	-47.2	25.3	0.00e+00	0	45	0	1497366528	60	8976
2026-01-30 09:08:09.66	91.45	33.67	-46.5	-47.3	25.1	0.00e+00	0	45	0	1502609408	60	9078
2026-01-30 09:08:10.66	91.18	33.82	-46.4	-47.2	25.3	0.00e+00	0	45	0	1508900864	60	8958
2026-01-30 09:08:11.66	90.91	33.98	-46.6	-47.3	25.3	0.00e+00	0	45	0	1514143744	60	9091
2026-01-30 09:08:12.67	90.63	34.14	-46.6	-47.3	25.3	0.00e+00	0	45	0	1519386624	60	9106
2026-01-30 09:08:13.68	90.35	34.29	-46.7	-47.4	25.3	0.00e+00	0	45	0	1525678080	60	9184
2026-01-30 09:08:14.68	90.07	34.45	-46.5	-47.2	25.3	0.00e+00	0	45	0	1530920960	60	8974
2026-01-30 09:08:15.69	89.79	34.61	-46.5	-47.2	25.5	0.00e+00	0	45	0	1536163840	60	8989
2026-01-30 09:08:16.70	89.50	34.76	-46.5	-47.2	25.5	0.00e+00	0	45	0	1542455296	60	8978
2026-01-30 09:08:17.71	89.21	34.92	-46.6	-47.3	25.4	0.00e+00	0	45	0	1548746752	60	9060
2026-01-30 09:08:18.71	88.92	35.08	-46.6	-47.3	25.3	0.00e+00	0	45	0	1553989632	60	9066
2026-01-30 09:08:19.72	88.62	35.23	-46.6	-47.3	25.2	0.00e+00	0	45	0	1559232512	60	9078
2026-01-30 09:08:20.72	88.33	35.39	-46.5	-47.2	25.4	0.00e+00	0	45	0	1565523968	60	9021
2026-01-30 09:08:21.73	88.02	35.54	-46.6	-47.3	25.3	0.00e+00	0	45	0	1570766848	60	9089
2026-01-30 09:08:22.73	87.72	35.70	-46.6	-47.3	25.4	0.00e+00	0	45	0	1576009728	60	9043
2026-01-30 09:08:23.74	87.41	35.86	-46.5	-47.2	25.3	0.00e+00	0	45	0	1582301184	60	8988
2026-01-30 09:08:24.75	87.10	36.01	-46.4	-47.2	25.3	0.00e+00	0	45	0	1587544064	60	8932
2026-01-30 09:08:25.76	86.79	36.17	-46.6	-47.4	25.3	0.00e+00	0	45	0	1593835520	60	9159
2026-01-30 09:08:26.76	86.48	36.32	-46.7	-47.4	25.4	0.00e+00	0	45	0	1599078400	60	9211
2026-01-30 09:08:27.77	86.16	36.48	-46.8	-47.6	25.2	0.00e+00	0	45	0	1604321280	60	9345
2026-01-30 09:08:28.77	85.84	36.63	-46.7	-47.4	25.3	0.00e+00	0	45	0	1610612736	60	9211
2026-01-30 09:08:29.78	85.51	36.78	-46.5	-47.2	25.4	0.00e+00	0	45	0	1615855616	60	8978
2026-01-30 09:08:30.79	85.18	36.94	-46.6	-47.3	25.3	0.00e+00	0	45	0	1621098496	60	9089
2026-01-30 09:08:31.80	84.85	37.09	-46.7	-47.4	25.2	0.00e+00	0	45	0	1627389952	60	9221
2026-01-30 09:08:32.80	84.51	37.24	-46.9	-47.6	25.0	0.00e+00	0	45	0	1633681408	60	9451
2026-01-30 09:08:33.81	84.18	37.40	-47.1	-47.9	24.8	0.00e+00	0	45	0	1638924288	60	9713
2026-01-30 09:08:34.82	83.83	37.55	-47.3	-48.0	24.8	0.00e+00	0	45	0	1644167168	60	9857
2026-01-30 09:08:35.83	83.49	37.70	-47.3	-48.1	24.8	0.00e+00	0	45	0	1650458624	60	9903
2026-01-30 09:08:36.83	83.14	37.85	-47.2	-48.0	24.7	0.00e+00	0	45	0	1655701504	60	9786
2026-01-30 09:08:37.84	82.79	38.00	-47.0	-47.8	24.8	0.00e+00	0	45	0	1660944384	60	9586
2026-01-30 09:08:38.85	82.44	38.15	-46.9	-47.7	25.0	0.00e+00	0	45	0	1667235840	60	9454
2026-01-30 09:08:39.86	82.08	38.30	-47.0	-47.7	25.1	0.00e+00	0	45	0	1672478720	60	9532
2026-01-30 09:08:40.86	81.72	38.45	-47.0	-47.7	24.9	0.00e+00	0	45	0	1678770176	60	9496
2026-01-30 09:08:41.87	81.35	38.60	-47.1	-47.8	24.9	0.00e+00	0	45	0	1684013056	60	9613
2026-01-30 09:08:42.88	80.99	38.75	-47.1	-47.8	25.1	0.00e+00	0	45	0	1689255936	60	9580
2026-01-30 09:08:43.89	80.61	38.90	-46.9	-47.6	25.2	0.00e+00	0	45	0	1695547392	60	9413
2026-01-30 09:08:44.90	80.24	39.04	-47.0	-47.7	25.2	0.00e+00	0	45	0	1700790272	60	9508
2026-01-30 09:08:45.90	79.86	39.19	-47.0	-47.8	25.0	0.00e+00	0	45	0	1707081728	60	9564
2026-01-30 09:08:46.91	79.48	39.33	-47.2	-47.9	25.0	0.00e+00	0	45	0	1712324608	60	9700
2026-01-30 09:08:47.92	79.10	39.48	-47.2	-48.0	24.8	0.00e+00	0	45	0	1718616064	60	9857
2026-01-30 09:08:48.92	78.71	39.62	-46.9	-47.6	25.2	0.00e+00	0	45	0	1723858944	60	9441
2026-01-30 09:08:49.93	78.32	39.76	-46.7	-47.4	25.6	0.00e+00	0	45	0	1729101824	60	9138
2026-01-30 09:08:50.94	77.92	39.90	-46.5	-47.2	25.7	0.00e+00	0	45	0	1735393280	60	8954
2026-01-30 09:08:51.94	77.53	40.04	-46.5	-47.2	25.8	0.00e+00	0	45	0	1740636160	60	8928
2026-01-30 09:08:52.95	77.13	40.18	-46.6	-47.3	25.7	0.00e+00	0	45	0	1745879040	60	9100
2026-01-30 09:08:53.96	76.72	40.32	-46.8	-47.5	25.4	0.00e+00	0	45	0	1752170496	60	9320
2026-01-30 09:08:54.96	76.31	40.45	-46.8	-47.5	25.5	0.00e+00	0	45	0	1757413376	60	9334
2026-01-30 09:08:55.97	75.90	40.59	-46.8	-47.5	25.4	0.00e+00	0	45	0	1763704832	60	9315
2026-01-30 09:08:56.98	75.48	40.72	-46.9	-47.6	25.3	0.00e+00	0	45	0	1768947712	60	9405
2026-01-30 09:08:57.98	75.07	40.85	-47.0	-47.7	25.4	0.00e+00	0	45	0	1774190592	60	9464
2026-01-30 09:08:58.99	74.65	40.99	-47.0	-47.7	25.5	0.00e+00	0	45	0	1780482048	60	9508
2026-01-30 09:08:59.99	74.22	41.12	-47.1	-47.8	25.3	0.00e+00	0	45	0	1785724928	60	9653
2026-01-30 09:09:01.00	73.79	41.24	-47.0	-47.7	25.3	0.00e+00	0	45	0	1792016384	60	9510
2026-01-30 09:09:02.01	73.36	41.37	-47.0	-47.6	25.5	0.00e+00	0	45	0	1797259264	60	9452
2026-01-30 09:09:03.02	72.92	41.50	-46.9	-47.6	25.6	0.00e+00	0	45	0	1803550720	60	9363
2026-01-30 09:09:04.02	72.49	41.62	-46.9	-47.6	25.6	0.00e+00	0	45	0	1808793600	60	9397
2026-01-30 09:09:05.03	72.04	41.75	-46.8	-47.5	25.6	0.00e+00	0	45	0	1814036480	60	9330
2026-01-30 09:09:06.04	71.59	41.87	-46.8	-47.5	25.6	0.00e+00	0	45	0	1820327936	60	9289
2026-01-30 09:09:07.05	71.14	41.99	-46.8	-47.5	25.5	0.00e+00	0	45	0	1825570816	60	9297
2026-01-30 09:09:08.05	70.69	42.11	-46.7	-47.4	25.5	0.00e+00	0	45	0	1830813696	60	9237
2026-01-30 09:09:09.06	70.24	42.22	-46.7	-47.3	25.8	0.00e+00	0	45	0	1837105152	60	9094
2026-01-30 09:09:10.07	69.78	42.34	-46.4	-47.1	26.0	0.00e+00	0	45	0	1842348032	60	8858
2026-01-30 09:09:11.08	69.31	42.45	-46.5	-47.1	25.9	0.00e+00	0	45	0	1848639488	60	8916
2026-01-30 09:09:12.08	68.85	42.56	-46.4	-47.1	25.9	0.00e+00	0	45	0	1853882368	60	8854
2026-01-30 09:09:13.09	68.38	42.67	-46.5	-47.2	25.7	0.00e+00	0	45	0	1859125248	60	8979
2026-01-30 09:09:14.10	67.90	42.78	-46.6	-47.3	25.6	0.00e+00	0	45	0	1865416704	60	9061
2026-01-30 09:09:15.10	67.43	42.89	-46.7	-47.4	25.5	0.00e+00	0	45	0	1870659584	60	9205
2026-01-30 09:09:16.11	66.95	42.99	-46.7	-47.4	25.6	0.00e+00	0	45	0	1876951040	60	9234
2026-01-30 09:09:17.11	66.47	43.09	-46.7	-47.4	25.3	0.00e+00	0	45	0	1882193920	60	9163
2026-01-30 09:09:18.12	65.99	43.19	-46.7	-47.4	25.4	0.00e+00	0	45	0	1888485376	60	9207
2026-01-30 09:09:19.13	65.50	43.29	-46.4	-47.1	25.8	0.00e+00	0	45	0	1893728256	60	8882
2026-01-30 09:09:20.13	65.01	43.39	-46.3	-47.0	26.0	0.00e+00	0	45	0	1898971136	60	8755
2026-01-30 09:09:21.14	64.52	43.48	-46.2	-46.8	26.1	0.00e+00	0	45	0	1905262592	60	8598
2026-01-30 09:09:22.14	64.02	43.57	-46.0	-46.7	25.9	0.00e+00	0	45	0	1910505472	60	8482
2026-01-30 09:09:23.15	63.52	43.66	-46.3	-47.0	25.9	0.00e+00	0	45	0	1915748352	60	8749
2026-01-30 09:09:24.15	63.02	43.75	-46.4	-47.2	25.6	0.00e+00	0	45	0	1922039808	60	8926
2026-01-30 09:09:25.16	62.52	43.83	-46.3	-47.1	25.5	0.00e+00	0	45	0	1927282688	60	8833
2026-01-30 09:09:26.16	62.01	43.91	-46.4	-47.2	25.3	0.00e+00	0	45	0	1933574144	60	8968
2026-01-30 09:09:27.16	61.51	43.99	-46.5	-47.3	25.2	0.00e+00	0	45	0	1938817024	60	9047
2026-01-30 09:09:28.17	60.99	44.07	-46.4	-47.1	25.6	0.00e+00	0	45	0	1944059904	60	8892
2026-01-30 09:09:29.18	60.48	44.15	-46.4	-47.0	25.7	0.00e+00	0	45	0	1950351360	60	8807
2026-01-30 09:09:30.19	59.96	44.22	-46.3	-47.0	25.8	0.00e+00	0	45	0	1955594240	60	8794
2026-01-30 09:09:31.19	59.44	44.29	-46.4	-47.1	25.6	0.00e+00	0	45	0	1960837120	60	8849
2026-01-30 09:09:32.20	58.92	44.36	-46.4	-47.0	25.7	0.00e+00	0	45	0	1967128576	60	8813
2026-01-30 09:09:33.21	58.39	44.42	-46.2	-46.9	25.8	0.00e+00	0	45	0	1973420032	60	8646
2026-01-30 09:09:34.22	57.86	44.49	-46.2	-46.9	25.7	0.00e+00	0	45	0	1978662912	60	8644
2026-01-30 09:09:35.23	57.33	44.55	-46.3	-47.0	25.7	0.00e+00	0	45	0	1983905792	60	8730
2026-01-30 09:09:36.23	56.81	44.60	-46.3	-46.9	25.7	0.00e+00	0	45	0	1990197248	60	8707
2026-01-30 09:09:37.23	56.28	44.66	-46.3	-46.9	25.8	0.00e+00	0	45	0	1995440128	60	8718
2026-01-30 09:09:38.24	55.74	44.71	-46.1	-46.8	25.8	0.00e+00	0	45	0	2000683008	60	8593
2026-01-30 09:09:39.25	55.21	44.76	-46.0	-46.7	25.7	0.00e+00	0	45	0	2006974464	60	8435
2026-01-30 09:09:40.25	54.67	44.81	-46.1	-46.8	25.7	0.00e+00	0	45	0	2012217344	60	8538
2026-01-30 09:09:41.26	54.13	44.85	-46.1	-46.8	25.8	0.00e+00	0	45	0	2018508800	60	8557
2026-01-30 09:09:42.26	53.60	44.89	-46.2	-46.8	25.8	0.00e+00	0	45	0	2023751680	60	8617
2026-01-30 09:09:43.27	53.05	44.93	-46.0	-46.7	25.9	0.00e+00	0	45	0	2028994560	60	8497
2026-01-30 09:09:44.27	52.51	44.96	-45.9	-46.6	25.8	0.00e+00	0	45	0	2035286016	60	8384
2026-01-30 09:09:45.28	51.97	45.00	-45.9	-46.5	25.8	0.00e+00	0	45	0	2040528896	60	8314
2026-01-30 09:09:46.29	51.42	45.03	-45.8	-46.5	25.8	0.00e+00	0	45	0	2045771776	60	8318
2026-01-30 09:09:47.30	50.87	45.05	-45.9	-46.6	25.8	0.00e+00	0	45	0	2052063232	60	8345
2026-01-30 09:09:48.31	50.33	45.08	-45.9	-46.5	25.8	0.00e+00	0	45	0	2058354688	60	8305
2026-01-30 09:09:49.31	49.78	45.10	-45.7	-46.4	25.9	0.00e+00	0	45	0	2063597568	60	8217
2026-01-30 09:09:50.31	49.24	45.12	-45.7	-46.4	25.8	0.00e+00	0	45	0	2068840448	60	8181
2026-01-30 09:09:51.32	48.69	45.13	-45.7	-46.3	25.9	0.00e+00	0	45	0	2075131904	60	8132
2026-01-30 09:09:52.33	48.14	45.14	-45.8	-46.4	26.0	0.00e+00	0	45	0	2080374784	60	8210
2026-01-30 09:09:53.33	47.59	45.15	-45.8	-46.4	26.0	0.00e+00	0	45	0	2085617664	60	8221
2026-01-30 09:09:54.34	47.04	45.16	-46.1	-46.7	25.9	0.00e+00	0	45	0	2091909120	60	8513
2026-01-30 09:09:55.35	46.49	45.16	-46.1	-46.7	25.9	0.00e+00	0	45	0	2097152000	60	8495
2026-01-30 09:09:56.36	45.94	45.16	-45.9	-46.6	26.0	0.00e+00	0	45	0	2103443456	60	8348
2026-01-30 09:09:57.36	45.39	45.16	-45.9	-46.6	26.1	0.00e+00	0	45	0	2108686336	60	8382
2026-01-30 09:09:58.37	44.84	45.16	-46.4	-47.0	25.5	0.00e+00	0	45	0	2113929216	60	8777
2026-01-30 09:09:59.37	44.29	45.15	-46.5	-47.2	25.3	0.00e+00	0	45	0	2120220672	60	8979
2026-01-30 09:10:00.38	43.74	45.14	-46.0	-46.7	25.9	0.00e+00	0	45	0	2125463552	60	8454
2026-01-30 09:10:01.38	43.20	45.12	-45.7	-46.3	26.2	0.00e+00	0	45	0	2130706432	60	8125
2026-01-30 09:10:02.39	42.65	45.10	-45.7	-46.3	26.2	0.00e+00	0	45	0	2136997888	60	8086
2026-01-30 09:10:03.40	42.10	45.08	-45.8	-46.4	26.1	0.00e+00	0	45	0	2142240768	60	8189
2026-01-30 09:10:04.41	41.55	45.06	-45.5	-46.1	26.4	0.00e+00	0	45	0	2148532224	60	7948
2026-01-30 09:10:05.42	41.00	45.04	-45.5	-46.2	26.2	0.00e+00	0	45	0	2153775104	60	8004
2026-01-30 09:10:06.42	40.46	45.01	-45.9	-46.6	25.9	0.00e+00	0	45	0	2160066560	60	8405
2026-01-30 09:10:07.42	39.92	44.98	-46.2	-46.8	25.8	0.00e+00	0	45	0	2165309440	60	8572
2026-01-30 09:10:08.43	39.37	44.94	-46.2	-46.9	25.8	0.00e+00	0	45	0	2170552320	60	8679
2026-01-30 09:10:09.43	38.83	44.91	-45.9	-46.5	26.0	0.00e+00	0	45	0	2176843776	60	8317
2026-01-30 09:10:10.44	38.29	44.87	-46.0	-46.7	25.9	0.00e+00	0	45	0	2182086656	60	8434
2026-01-30 09:10:11.45	37.75	44.82	-46.2	-46.9	25.7	0.00e+00	0	45	0	2188378112	60	8665
2026-01-30 09:10:12.45	37.22	44.78	-46.3	-47.0	25.8	0.00e+00	0	45	0	2193620992	60	8790
2026-01-30 09:10:13.45	36.69	44.73	-46.4	-47.2	25.7	0.00e+00	0	45	0	2198863872	60	8931
2026-01-30 09:10:14.46	36.15	44.68	-46.4	-47.1	25.7	0.00e+00	0	45	0	2205155328	60	8877
2026-01-30 09:10:15.47	35.62	44.62	-46.2	-46.9	25.8	0.00e+00	0	45	0	2210398208	60	8710
2026-01-30 09:10:16.47	35.09	44.57	-46.0	-46.6	25.9	0.00e+00	0	45	0	2215641088	60	8418
2026-01-30 09:10:17.48	34.56	44.51	-46.1	-46.7	25.9	0.00e+00	0	45	0	2221932544	60	8496
2026-01-30 09:10:18.48	34.04	44.45	-46.1	-46.7	25.8	0.00e+00	0	45	0	2227175424	60	8505
2026-01-30 09:10:19.49	33.51	44.38	-46.0	-46.6	25.8	0.00e+00	0	45	0	2232418304	60	8391
2026-01-30 09:10:20.50	32.99	44.32	-46.0	-46.7	26.0	0.00e+00	0	45	0	2238709760	60	8430
2026-01-30 09:10:21.50	32.47	44.25	-46.0	-46.7	26.0	0.00e+00	0	45	0	2245001216	60	8464
2026-01-30 09:10:22.50	31.95	44.18	-46.1	-46.8	26.0	0.00e+00	0	45	0	2250244096	60	8525
2026-01-30 09:10:23.51	31.44	44.10	-46.1	-46.7	25.9	0.00e+00	0	45	0	2255486976	60	8491
2026-01-30 09:10:24.52	30.92	44.03	-46.0	-46.7	26.0	0.00e+00	0	45	0	2261778432	60	8428
2026-01-30 09:10:25.53	30.41	43.95	-45.9	-46.5	26.1	0.00e+00	0	45	0	2267021312	60	8314
2026-01-30 09:10:26.54	29.90	43.87	-45.8	-46.5	26.2	0.00e+00	0	45	0	2273312768	60	8261
2026-01-30 09:10:27.54	29.40	43.78	-45.9	-46.5	26.2	0.00e+00	0	45	0	2278555648	60	8262
2026-01-30 09:10:28.55	28.90	43.70	-45.9	-46.5	26.0	0.00e+00	0	45	0	2283798528	60	8305
2026-01-30 09:10:29.56	28.39	43.61	-45.9	-46.6	26.0	0.00e+00	0	45	0	2290089984	60	8350
2026-01-30 09:10:30.56	27.90	43.52	-45.7	-46.4	26.0	0.00e+00	0	45	0	2295332864	60	8168
2026-01-30 09:10:31.57	27.40	43.42	-46.0	-46.7	25.9	0.00e+00	0	45	0	2300575744	60	8504
2026-01-30 09:10:32.58	26.91	43.33	-46.0	-46.7	25.7	0.00e+00	0	45	0	2306867200	60	8437
2026-01-30 09:10:33.59	26.42	43.23	-46.0	-46.6	25.8	0.00e+00	0	45	0	2312110080	60	8406
2026-01-30 09:10:34.60	25.94	43.13	-46.0	-46.6	25.9	0.00e+00	0	45	0	2318401536	60	8366
2026-01-30 09:10:35.61	25.45	43.03	-46.1	-46.7	25.9	0.00e+00	0	45	0	2323644416	60	8459
2026-01-30 09:10:36.61	24.98	42.93	-46.0	-46.6	25.9	0.00e+00	0	45	0	2329935872	60	8349
2026-01-30 09:10:37.63	24.49	42.82	-45.9	-46.5	25.9	0.00e+00	0	45	0	2335178752	60	8299
2026-01-30 09:10:38.63	24.02	42.72	-45.9	-46.7	25.6	0.00e+00	0	45	0	2340421632	60	8483
2026-01-30 09:10:39.64	23.55	42.61	-46.0	-46.8	25.6	0.00e+00	0	45	0	2346713088	60	8558
2026-01-30 09:10:40.64	23.09	42.50	-45.7	-46.5	25.9	0.00e+00	0	45	0	2351955968	60	8248
2026-01-30 09:10:41.65	22.62	42.38	-45.7	-46.3	26.1	0.00e+00	0	45	0	2358247424	60	8131
2026-01-30 09:10:42.65	22.17	42.27	-45.9	-46.6	26.0	0.00e+00	0	45	0	2363490304	60	8415
2026-01-30 09:10:43.65	21.71	42.16	-46.2	-46.8	25.9	0.00e+00	0	45	0	2368733184	60	8545
2026-01-30 09:10:44.66	21.26	42.04	-46.2	-46.9	25.7	0.00e+00	0	45	0	2375024640	60	8631
2026-01-30 09:10:45.67	20.81	41.92	-46.0	-46.7	25.7	0.00e+00	0	45	0	2380267520	60	8514
2026-01-30 09:10:46.67	20.36	41.80	-45.9	-46.6	25.7	0.00e+00	0	45	0	2385510400	60	8348
2026-01-30 09:10:47.68	19.92	41.68	-46.0	-46.7	25.8	0.00e+00	0	45	0	2391801856	60	8499
2026-01-30 09:10:48.68	19.48	41.55	-45.9	-46.6	25.9	0.00e+00	0	45	0	2397044736	60	8370
2026-01-30 09:10:49.68	19.05	41.43	-45.6	-46.3	26.0	0.00e+00	0	45	0	2402287616	60	8123
2026-01-30 09:10:50.69	18.62	41.30	-45.5	-46.2	26.0	0.00e+00	0	45	0	2408579072	60	7969
2026-01-30 09:10:51.69	18.19	41.17	-45.5	-46.2	26.0	0.00e+00	0	45	0	2413821952	60	8032
2026-01-30 09:10:52.69	17.77	41.05	-45.7	-46.4	25.8	0.00e+00	0	45	0	2420113408	60	8211
2026-01-30 09:10:53.70	17.34	40.91	-45.6	-46.3	25.8	0.00e+00	0	45	0	2425356288	60	8137
2026-01-30 09:10:54.70	16.92	40.78	-45.8	-46.4	25.8	0.00e+00	0	45	0	2431647744	60	8188
2026-01-30 09:10:55.71	16.51	40.65	-45.8	-46.5	25.9	0.00e+00	0	45	0	2436890624	60	8261
2026-01-30 09:10:56.72	16.09	40.51	-45.9	-46.6	25.6	0.00e+00	0	45	0	2443182080	60	8417
2026-01-30 09:10:57.73	15.68	40.38	-45.8	-46.6	25.7	0.00e+00	0	45	0	2448424960	60	8357
2026-01-30 09:10:58.74	15.28	40.24	-45.7	-46.3	26.0	0.00e+00	0	45	0	2453667840	60	8135
2026-01-30 09:10:59.74	14.88	40.10	-45.8	-46.5	25.9	0.00e+00	0	45	0	2459959296	60	8263
2026-01-30 09:11:00.74	14.48	39.97	-45.8	-46.5	25.9	0.00e+00	0	45	0	2465202176	60	8280
2026-01-30 09:11:01.75	14.09	39.83	-45.9	-46.6	25.7	0.00e+00	0	45	0	2470445056	60	8382
2026-01-30 09:11:02.75	13.70	39.69	-45.9	-46.6	25.7	0.00e+00	0	45	0	2476736512	60	8378
2026-01-30 09:11:03.76	13.31	39.54	-45.8	-46.5	26.0	0.00e+00	0	45	0	2481979392	60	8289
2026-01-30 09:11:04.77	12.92	39.40	-45.7	-46.4	25.9	0.00e+00	0	45	0	2487222272	60	8201
2026-01-30 09:11:05.77	12.54	39.26	-45.7	-46.4	26.0	0.00e+00	0	45	0	2493513728	60	8152
2026-01-30 09:11:06.78	12.16	39.11	-45.7	-46.4	26.0	0.00e+00	0	45	0	2498756608	60	8181
2026-01-30 09:11:07.79	11.79	38.97	-45.8	-46.5	25.7	0.00e+00	0	45	0	2505048064	60	8292
2026-01-30 09:11:08.79	11.42	38.82	-45.9	-46.6	25.7	0.00e+00	0	45	0	2510290944	60	8351
2026-01-30 09:11:09.80	11.05	38.67	-46.1	-46.9	25.2	0.00e+00	0	45	0	2516582400	60	8637
2026-01-30 09:11:10.81	10.68	38.53	-46.1	-46.9	25.1	0.00e+00	0	45	0	2521825280	60	8667
2026-01-30 09:11:11.82	10.32	38.38	-46.2	-46.8	25.4	0.00e+00	0	45	0	2528116736	60	8619
2026-01-30 09:11:12.83	9.96	38.23	-46.2	-46.9	25.6	0.00e+00	0	45	0	2533359616	60	8689
2026-01-30 09:11:13.83	9.61	38.08	-46.3	-47.1	25.4	0.00e+00	0	45	0	2538602496	60	8864
2026-01-30 09:11:14.83	9.26	37.93	-46.2	-47.0	25.3	0.00e+00	0	45	0	2544893952	60	8784
2026-01-30 09:11:15.84	8.91	37.78	-46.1	-46.8	25.4	0.00e+00	0	45	0	2550136832	60	8532
2026-01-30 09:11:16.85	8.56	37.63	-46.3	-47.0	25.2	0.00e+00	0	45	0	2555379712	60	8732
2026-01-30 09:11:17.84	8.23	37.48	-46.4	-47.1	25.1	0.00e+00	0	45	0	2561671168	60	8847
2026-01-30 09:11:18.85	7.89	37.33	-46.2	-46.9	25.1	0.00e+00	0	45	0	2566914048	60	8711
2026-01-30 09:11:19.85	7.56	37.18	-46.0	-46.7	25.4	0.00e+00	0	45	0	2572156928	60	8477
2026-01-30 09:11:20.86	7.22	37.02	-45.7	-46.4	25.7	0.00e+00	0	45	0	2578448384	60	8148
2026-01-30 09:11:21.86	6.90	36.87	-45.5	-46.2	26.2	0.00e+00	0	45	0	2583691264	60	8012
2026-01-30 09:11:22.87	6.57	36.72	-45.5	-46.2	26.0	0.00e+00	0	45	0	2589982720	60	7991
2026-01-30 09:11:23.87	6.25	36.56	-45.5	-46.1	25.8	0.00e+00	0	45	0	2595225600	60	7914
2026-01-30 09:11:24.88	5.93	36.41	-45.5	-46.1	26.0	0.00e+00	0	45	0	2600468480	60	7945
2026-01-30 09:11:25.89	5.61	36.25	-45.4	-46.0	26.0	0.00e+00	0	45	0	2606759936	60	7845
2026-01-30 09:11:26.90	5.29	36.10	-45.4	-46.1	26.0	0.00e+00	0	45	0	2612002816	60	7916
2026-01-30 09:11:27.90	4.99	35.94	-45.4	-46.0	26.1	0.00e+00	0	45	0	2618294272	60	7817
2026-01-30 09:11:28.91	4.68	35.79	-45.5	-46.1	26.0	0.00e+00	0	45	0	2623537152	60	7896
2026-01-30 09:11:29.91	4.37	35.63	-45.5	-46.3	26.0	0.00e+00	0	45	0	2629828608	60	8064
2026-01-30 09:11:30.92	4.07	35.48	-45.6	-46.3	26.0	0.00e+00	0	45	0	2635071488	60	8061
2026-01-30 09:11:31.93	3.77	35.32	-45.6	-46.2	25.9	0.00e+00	0	45	0	2640314368	60	8015
2026-01-30 09:11:32.93	3.48	35.17	-45.7	-46.4	26.0	0.00e+00	0	45	0	2646605824	60	8223
2026-01-30 09:11:33.94	3.18	35.01	-45.6	-46.4	26.1	0.00e+00	0	45	0	2651848704	60	8163
2026-01-30 09:11:34.94	2.89	34.86	-45.6	-46.3	26.1	0.00e+00	0	45	0	2657091584	60	8127
2026-01-30 09:11:35.95	2.61	34.70	-45.5	-46.2	26.1	0.00e+00	0	45	0	2663383040	60	7956
2026-01-30 09:11:36.95	2.32	34.54	-45.5	-46.1	26.1	0.00e+00	0	45	0	2668625920	60	7870
2026-01-30 09:11:37.95	2.04	34.39	-45.3	-46.0	26.3	0.00e+00	0	45	0	2674917376	60	7783
2026-01-30 09:11:38.96	1.76	34.23	-45.3	-46.0	26.4	0.00e+00	0	45	0	2680160256	60	7790
2026-01-30 09:11:39.97	1.48	34.08	-45.3	-46.0	26.3	0.00e+00	0	45	0	2685403136	60	7792
2026-01-30 09:11:40.98	1.21	33.92	-45.3	-45.9	26.3	0.00e+00	0	45	0	2691694592	60	7720
2026-01-30 09:11:41.98	0.94	33.76	-45.3	-46.0	26.2	0.00e+00	0	45	0	2696937472	60	7862
2026-01-30 09:11:43.00	0.67	33.61	-45.3	-45.9	26.3	0.00e+00	0	45	0	2702180352	60	7758
2026-01-30 09:11:44.00	0.40	33.45	-45.4	-46.1	26.1	0.00e+00	0	45	0	2708471808	60	7899
2026-01-30 09:11:45.01	0.14	33.30	-45.3	-46.1	26.1	0.00e+00	0	45	0	2714763264	60	7897
2026-01-30 09:11:46.02	359.88	33.14	-45.5	-46.2	26.0	0.00e+00	0	45	0	2720006144	60	8021
2026-01-30 09:11:47.03	359.62	32.98	-45.7	-46.3	25.8	0.00e+00	0	45	0	2725249024	60	8113
2026-01-30 09:11:48.03	359.36	32.83	-45.7	-46.4	25.8	0.00e+00	0	45	0	2731540480	60	8228
2026-01-30 09:11:49.04	359.11	32.67	-45.6	-46.2	25.8	0.00e+00	0	45	0	2736783360	60	8033
2026-01-30 09:11:50.05	358.86	32.52	-45.6	-46.3	25.8	0.00e+00	0	45	0	2742026240	60	8084
2026-01-30 09:11:51.05	358.61	32.36	-45.6	-46.3	25.9	0.00e+00	0	45	0	2748317696	60	8124
2026-01-30 09:11:52.06	358.36	32.21	-45.7	-46.4	25.8	0.00e+00	0	45	0	2753560576	60	8205
2026-01-30 09:11:53.07	358.12	32.05	-45.8	-46.5	25.7	0.00e+00	0	45	0	2759852032	60	8313
2026-01-30 09:11:54.07	357.88	31.90	-45.8	-46.5	25.5	0.00e+00	0	45	0	2765094912	60	8287
2026-01-30 09:11:55.08	357.64	31.75	-45.8	-46.5	25.4	0.00e+00	0	45	0	2770337792	60	8283
2026-01-30 09:11:56.09	357.40	31.59	-45.8	-46.6	25.4	0.00e+00	0	45	0	2776629248	60	8359
2026-01-30 09:11:57.09	357.17	31.44	-45.7	-46.5	25.6	0.00e+00	0	45	0	2781872128	60	8269
2026-01-30 09:11:58.10	356.93	31.29	-45.7	-46.4	25.6	0.00e+00	0	45	0	2788163584	60	8203
2026-01-30 09:11:59.11	356.70	31.13	-45.8	-46.5	25.7	0.00e+00	0	45	0	2793406464	60	8282
2026-01-30 09:12:00.12	356.47	30.98	-45.8	-46.6	25.5	0.00e+00	0	45	0	2799697920	60	8383
2026-01-30 09:12:01.12	356.25	30.83	-45.9	-46.5	25.5	0.00e+00	0	45	0	2804940800	60	8286
2026-01-30 09:12:02.13	356.02	30.67	-46.0	-46.7	25.4	0.00e+00	0	45	0	2810183680	60	8483
2026-01-30 09:12:03.14	355.80	30.52	-46.0	-46.8	25.3	0.00e+00	0	45	0	2816475136	60	8538
2026-01-30 09:12:04.14	355.58	30.37	-46.0	-46.6	25.4	0.00e+00	0	45	0	2821718016	60	8386
2026-01-30 09:12:05.15	355.36	30.22	-45.9	-46.6	25.5	0.00e+00	0	45	0	2826960896	60	8359
2026-01-30 09:12:06.16	355.15	30.07	-45.8	-46.4	25.5	0.00e+00	0	45	0	2833252352	60	8211
2026-01-30 09:12:07.17	354.93	29.92	-45.7	-46.4	25.3	0.00e+00	0	45	0	2838495232	60	8225
2026-01-30 09:12:08.18	354.72	29.77	-45.7	-46.5	25.3	0.00e+00	0	45	0	2844786688	60	8288
2026-01-30 09:12:09.19	354.51	29.62	-45.9	-46.7	25.3	0.00e+00	0	45	0	2850029568	60	8464
2026-01-30 09:12:10.19	354.31	29.47	-45.9	-46.6	25.2	0.00e+00	0	45	0	2855272448	60	8347
2026-01-30 09:12:11.20	354.10	29.32	-46.0	-46.7	25.1	0.00e+00	0	45	0	2861563904	60	8465
2026-01-30 09:12:12.21	353.90	29.17	-46.0	-46.7	24.9	0.00e+00	0	45	0	2867855360	60	8494
2026-01-30 09:12:13.22	353.69	29.02	-45.9	-46.7	25.0	0.00e+00	0	45	0	2873098240	60	8490
2026-01-30 09:12:14.23	353.49	28.87	-46.0	-46.7	25.0	0.00e+00	0	45	0	2878341120	60	8429
2026-01-30 09:12:15.23	353.30	28.73	-45.9	-46.6	25.2	0.00e+00	0	45	0	2884632576	60	8372
2026-01-30 09:12:16.24	353.10	28.58	-45.9	-46.7	25.4	0.00e+00	0	45	0	2889875456	60	8494
2026-01-30 09:12:17.24	352.91	28.43	-46.0	-46.8	25.3	0.00e+00	0	45	0	2895118336	60	8556
2026-01-30 09:12:18.25	352.71	28.29	-46.0	-46.8	25.3	0.00e+00	0	45	0	2901409792	60	8599
2026-01-30 09:12:19.26	352.52	28.14	-46.1	-46.8	25.1	0.00e+00	0	45	0	2906652672	60	8564
2026-01-30 09:12:20.26	352.34	27.99	-46.2	-46.9	24.9	0.00e+00	0	45	0	2911895552	60	8667
2026-01-30 09:12:21.26	352.15	27.85	-46.2	-47.0	25.0	0.00e+00	0	45	0	2918187008	60	8741
2026-01-30 09:12:22.27	351.96	27.70	-46.2	-46.9	24.8	0.00e+00	0	45	0	2923429888	60	8683
2026-01-30 09:12:23.28	351.78	27.56	-46.2	-46.8	24.9	0.00e+00	0	45	0	2929721344	60	8603
2026-01-30 09:12:24.28	351.60	27.42	-46.1	-47.0	24.9	0.00e+00	0	45	0	2934964224	60	8724
2026-01-30 09:12:25.28	351.42	27.27	-46.1	-47.0	24.9	0.00e+00	0	45	0	2940207104	60	8741
2026-01-30 09:12:26.29	351.24	27.13	-46.1	-46.9	24.9	0.00e+00	0	45	0	2946498560	60	8697
2026-01-30 09:12:27.29	351.06	26.99	-46.1	-46.7	25.1	0.00e+00	0	45	0	2951741440	60	8484
2026-01-30 09:12:28.30	350.89	26.85	-46.1	-46.9	25.1	0.00e+00	0	45	0	2956984320	60	8680
2026-01-30 09:12:29.30	350.71	26.71	-46.4	-47.0	25.1	0.00e+00	0	45	0	2963275776	60	8788
2026-01-30 09:12:30.31	350.54	26.56	-46.1	-46.9	25.3	0.00e+00	0	45	0	2969567232	60	8640
2026-01-30 09:12:31.32	350.37	26.42	-46.1	-46.8	25.4	0.00e+00	0	45	0	2974810112	60	8541
2026-01-30 09:12:32.33	350.20	26.28	-46.2	-46.9	25.3	0.00e+00	0	45	0	2980052992	60	8630
2026-01-30 09:12:33.34	350.03	26.14	-46.3	-47.1	25.2	0.00e+00	0	45	0	2986344448	60	8886
2026-01-30 09:12:34.35	349.87	26.00	-46.5	-47.1	25.1	0.00e+00	0	45	0	2991587328	60	8860
2026-01-30 09:12:35.35	349.70	25.86	-46.3	-47.1	25.2	0.00e+00	0	45	0	2996830208	60	8864
2026-01-30 09:12:36.36	349.54	25.72	-46.3	-46.9	25.1	0.00e+00	0	45	0	3003121664	60	8705
2026-01-30 09:12:37.36	349.38	25.59	-46.3	-46.9	25.1	0.00e+00	0	45	0	3008364544	60	8713
2026-01-30 09:12:38.37	349.22	25.45	-46.3	-47.0	25.1	0.00e+00	0	45	0	3014656000	60	8725
2026-01-30 09:12:39.37	349.06	25.31	-46.3	-46.9	25.1	0.00e+00	0	45	0	3019898880	60	8655
2026-01-30 09:12:40.38	348.90	25.18	-46.2	-47.0	25.0	0.00e+00	0	45	0	3025141760	60	8800
2026-01-30 09:12:41.38	348.74	25.04	-46.2	-47.0	25.1	0.00e+00	0	45	0	3031433216	60	8731
2026-01-30 09:12:42.39	348.59	24.90	-46.1	-46.9	25.1	0.00e+00	0	45	0	3036676096	60	8684
2026-01-30 09:12:43.40	348.44	24.77	-46.1	-46.8	25.1	0.00e+00	0	45	0	3041918976	60	8589
2026-01-30 09:12:44.40	348.28	24.64	-46.1	-46.8	25.0	0.00e+00	0	45	0	3048210432	60	8558
2026-01-30 09:12:45.41	348.13	24.50	-46.1	-46.7	25.1	0.00e+00	0	45	0	3054501888	60	8515
2026-01-30 09:12:46.42	347.98	24.37	-46.2	-46.8	25.0	0.00e+00	0	45	0	3059744768	60	8590
2026-01-30 09:12:47.43	347.83	24.23	-46.3	-46.9	25.1	0.00e+00	0	45	0	3064987648	60	8685
2026-01-30 09:12:48.43	347.69	24.10	-46.3	-47.1	25.0	0.00e+00	0	45	0	3071279104	60	8857
2026-01-30 09:12:49.44	347.54	23.97	-46.3	-47.0	25.0	0.00e+00	0	45	0	3076521984	60	8768
2026-01-30 09:12:50.44	347.40	23.84	-46.4	-47.0	25.0	0.00e+00	0	45	0	3081764864	60	8804
2026-01-30 09:12:51.45	347.25	23.70	-46.3	-47.1	25.1	0.00e+00	0	45	0	3088056320	60	8879
2026-01-30 09:12:52.45	347.11	23.57	-46.3	-47.0	25.1	0.00e+00	0	45	0	3093299200	60	8737
2026-01-30 09:12:53.46	346.97	23.44	-46.2	-46.9	25.2	0.00e+00	0	45	0	3099590656	60	8628
2026-01-30 09:12:54.47	346.83	23.31	-46.2	-46.8	25.3	0.00e+00	0	45	0	3104833536	60	8579
2026-01-30 09:12:55.48	346.69	23.18	-46.2	-46.8	25.3	0.00e+00	0	45	0	3110076416	60	8594
2026-01-30 09:12:56.49	346.56	23.05	-46.3	-47.0	25.2	0.00e+00	0	45	0	3116367872	60	8748
2026-01-30 09:12:57.49	346.42	22.93	-46.3	-47.1	25.1	0.00e+00	0	45	0	3121610752	60	8826
2026-01-30 09:12:58.49	346.29	22.80	-46.3	-47.1	25.0	0.00e+00	0	45	0	3126853632	60	8905
2026-01-30 09:12:59.49	346.15	22.67	-46.5	-47.1	25.0	0.00e+00	0	45	0	3133145088	60	8913
2026-01-30 09:13:00.50	346.02	22.54	-46.6	-47.4	24.9	0.00e+00	0	45	0	3138387968	60	9160
2026-01-30 09:13:01.50	345.89	22.42	-46.8	-47.6	24.7	0.00e+00	0	45	0	3143630848	60	9349
2026-01-30 09:13:02.50	345.76	22.29	-46.9	-47.7	24.7	0.00e+00	0	45	0	3149922304	60	9483
2026-01-30 09:13:03.51	345.63	22.16	-47.0	-47.8	24.6	0.00e+00	0	45	0	3156213760	60	9630
2026-01-30 09:13:04.52	345.50	22.04	-46.9	-47.7	24.7	0.00e+00	0	45	0	3161456640	60	9479
2026-01-30 09:13:05.53	345.37	21.91	-47.0	-47.8	24.6	0.00e+00	0	45	0	3166699520	60	9593
2026-01-30 09:13:06.53	345.25	21.79	-47.0	-47.6	24.6	0.00e+00	0	45	0	3172990976	60	9436
2026-01-30 09:13:07.54	345.12	21.67	-46.9	-47.7	24.5	0.00e+00	0	45	0	3178233856	60	9475
2026-01-30 09:13:08.55	345.00	21.54	-47.0	-47.7	24.5	0.00e+00	0	45	0	3184525312	60	9501
2026-01-30 09:13:09.56	344.88	21.42	-47.0	-47.8	24.5	0.00e+00	0	45	0	3189768192	60	9590
2026-01-30 09:13:10.57	344.75	21.29	-46.8	-47.5	24.5	0.00e+00	0	45	0	3195011072	60	9291
2026-01-30 09:13:11.57	344.63	21.17	-46.9	-47.6	24.4	0.00e+00	0	45	0	3201302528	60	9374
2026-01-30 09:13:12.58	344.51	21.05	-46.8	-47.5	24.4	0.00e+00	0	45	0	3206545408	60	9327
2026-01-30 09:13:13.58	344.39	20.93	-46.8	-47.5	24.4	0.00e+00	0	45	0	3211788288	60	9333
2026-01-30 09:13:14.59	344.27	20.81	-46.8	-47.7	24.3	0.00e+00	0	45	0	3218079744	60	9519
2026-01-30 09:13:15.60	344.16	20.69	-46.8	-47.5	24.4	0.00e+00	0	45	0	3224371200	60	9328
2026-01-30 09:13:16.60	344.04	20.57	-46.8	-47.6	24.3	0.00e+00	0	45	0	3229614080	60	9379
2026-01-30 09:13:17.61	343.93	20.45	-46.8	-47.7	24.3	0.00e+00	0	45	0	3234856960	60	9506
2026-01-30 09:13:18.61	343.81	20.33	-46.9	-47.7	24.3	0.00e+00	0	45	0	3241148416	60	9559
2026-01-30 09:13:19.62	343.70	20.21	-46.9	-47.6	24.4	0.00e+00	0	45	0	3246391296	60	9407
2026-01-30 09:13:20.62	343.59	20.09	-46.9	-47.8	24.3	0.00e+00	0	45	0	3251634176	60	9574
2026-01-30 09:13:21.63	343.47	19.98	-47.0	-47.8	24.4	0.00e+00	0	45	0	3257925632	60	9620
2026-01-30 09:13:22.63	343.36	19.86	-47.0	-47.8	24.4	0.00e+00	0	45	0	3263168512	60	9652
2026-01-30 09:13:23.63	343.25	19.74	-47.0	-47.7	24.4	0.00e+00	0	45	0	3269459968	60	9532
2026-01-30 09:13:24.64	343.14	19.63	-47.1	-47.8	24.3	0.00e+00	0	45	0	3274702848	60	9615
2026-01-30 09:13:25.64	343.04	19.51	-47.0	-47.6	24.4	0.00e+00	0	45	0	3279945728	60	9448
2026-01-30 09:13:26.65	342.93	19.39	-47.0	-47.8	24.4	0.00e+00	0	45	0	3286237184	60	9606
2026-01-30 09:13:27.66	342.82	19.28	-47.1	-47.8	24.4	0.00e+00	0	45	0	3291480064	60	9662
2026-01-30 09:13:28.66	342.72	19.17	-47.1	-47.9	24.3	0.00e+00	0	45	0	3296722944	60	9738
2026-01-30 09:13:29.67	342.61	19.05	-47.3	-48.0	24.1	0.00e+00	0	45	0	3303014400	60	9793
2026-01-30 09:13:30.67	342.51	18.94	-47.3	-48.0	24.0	0.00e+00	0	45	0	3308257280	60	9853
2026-01-30 09:13:31.67	342.41	18.82	-47.5	-48.3	23.9	0.00e+00	0	45	0	3313500160	60	10212
2026-01-30 09:13:32.68	342.30	18.71	-47.4	-48.2	24.0	0.00e+00	0	45	0	3319791616	60	10052
2026-01-30 09:13:33.68	342.20	18.60	-47.5	-48.2	23.8	0.00e+00	0	45	0	3325034496	60	10084
2026-01-30 09:13:34.69	342.10	18.49	-47.6	-48.4	23.7	0.00e+00	0	45	0	3331325952	60	10322
2026-01-30 09:13:35.70	342.00	18.37	-47.6	-48.3	23.7	0.00e+00	0	45	0	3336568832	60	10226
2026-01-30 09:13:36.70	341.90	18.26	-47.6	-48.4	23.7	0.00e+00	0	45	0	3341811712	60	10363
2026-01-30 09:13:37.70	341.80	18.15	-47.8	-48.5	23.6	0.00e+00	0	45	0	3348103168	60	10453
2026-01-30 09:13:38.70	341.71	18.04	-47.6	-48.4	23.7	0.00e+00	0	45	0	3353346048	60	10248
2026-01-30 09:13:39.70	341.61	17.93	-47.7	-48.4	23.6	0.00e+00	0	45	0	3359637504	60	10274
2026-01-30 09:13:40.71	341.51	17.82	-47.7	-48.5	23.6	0.00e+00	0	45	0	3364880384	60	10375
2026-01-30 09:13:41.71	341.42	17.72	-47.7	-48.4	23.7	0.00e+00	0	45	0	3371171840	60	10259
2026-01-30 09:13:42.72	341.32	17.61	-47.7	-48.4	23.6	0.00e+00	0	45	0	3376414720	60	10309
2026-01-30 09:13:43.72	341.23	17.50	-47.7	-48.6	23.5	0.00e+00	0	45	0	3381657600	60	10498
2026-01-30 09:13:44.73	341.13	17.39	-47.8	-48.6	23.5	0.00e+00	0	45	0	3387949056	60	10499
2026-01-30 09:13:45.73	341.04	17.28	-47.9	-48.8	23.3	0.00e+00	0	45	0	3393191936	60	10770
2026-01-30 09:13:46.74	340.95	17.17	-48.0	-48.7	23.2	0.00e+00	0	45	0	3399483392	60	10722
2026-01-30 09:13:47.74	340.86	17.07	-48.0	-48.9	23.2	0.00e+00	0	45	0	3404726272	60	10954
2026-01-30 09:13:48.75	340.77	16.96	-48.1	-48.9	23.1	0.00e+00	0	45	0	3409969152	60	10954
2026-01-30 09:13:49.75	340.68	16.86	-48.1	-48.9	23.0	0.00e+00	0	45	0	3416260608	60	10944
2026-01-30 09:13:50.76	340.59	16.75	-48.1	-49.0	23.0	0.00e+00	0	45	0	3421503488	60	11012
2026-01-30 09:13:51.77	340.50	16.64	-48.4	-49.2	22.8	0.00e+00	0	45	0	3426746368	60	11359
2026-01-30 09:13:52.78	340.41	16.54	-48.3	-49.1	22.8	0.00e+00	0	45	0	3433037824	60	11165
2026-01-30 09:13:53.78	340.32	16.43	-48.5	-49.4	22.6	0.00e+00	0	45	0	3438280704	60	11539
2026-01-30 09:13:54.79	340.23	16.33	-48.5	-49.3	22.5	0.00e+00	0	45	0	3443523584	60	11388
