passes_logs/2026/01/30/R3.2S-Naryan-Mar/R3.2S-Naryan-Mar__20260130_012915_SUOMI_NPP_rec.log

#Pass ID: 20260130_012915_SUOMI NPP
#Satellite: SUOMI NPP
#Configuration: NPP
#almurnet v.1.7.20240730
#Start time: 2026-01-30 01:29:17

#Version: 2.2.20231116
#Station: R3.2S-Naryan-Mar
#Location: 53.008057 lon 67.646978 lat
#TLE: 1 37849U 11061A   26028.91916408  .00000155  00000+0  94467-4 0  9990
#TLE: 2 37849  98.7824 330.8488 0002045  39.4457 320.6868 14.19531289738686

#Time	Az	El	Level	Level2	SNR	BER	BlckErr	Temp	State	Recorded	gain1	gain2
2026-01-30 01:29:17.26	34.87	0.11	-61.5	-75.0	3.5	8.45e-01	0	43	0	0	60	219357
2026-01-30 01:29:18.26	34.82	0.17	-58.3	-77.5	3.6	1.51e+00	0	44	104	0	60	293586
2026-01-30 01:29:19.27	34.78	0.22	-56.7	-76.3	3.6	1.51e+00	0	44	104	0	60	257307
2026-01-30 01:29:20.27	34.74	0.28	-57.7	-76.8	3.6	1.51e+00	0	45	104	0	60	271672
2026-01-30 01:29:21.28	34.70	0.34	-60.2	-78.1	3.6	1.51e+00	0	44	104	0	60	316298
2026-01-30 01:29:22.29	34.65	0.40	-59.9	-77.7	3.6	1.51e+00	0	44	104	0	60	300797
2026-01-30 01:29:23.29	34.61	0.45	-60.3	-78.0	3.6	1.51e+00	0	44	104	0	60	309867
2026-01-30 01:29:24.30	34.57	0.51	-58.3	-78.1	3.6	1.51e+00	0	44	104	0	60	313566
2026-01-30 01:29:25.30	34.52	0.57	-60.1	-78.1	3.6	1.51e+00	0	44	104	0	60	316190
2026-01-30 01:29:26.31	34.48	0.63	-60.5	-78.2	3.6	1.51e+00	0	44	104	0	60	320046
2026-01-30 01:29:27.32	34.44	0.68	-60.9	-78.0	3.6	1.51e+00	0	45	104	0	60	312958
2026-01-30 01:29:28.33	34.39	0.74	-61.3	-78.1	3.6	1.51e+00	0	45	104	0	60	314948
2026-01-30 01:29:29.34	34.35	0.80	-60.4	-78.0	3.6	1.51e+00	0	45	104	0	60	310102
2026-01-30 01:29:30.35	34.31	0.86	-60.6	-78.3	3.6	1.51e+00	0	45	104	0	60	322631
2026-01-30 01:29:31.35	34.26	0.92	-60.9	-78.2	3.6	1.51e+00	0	45	104	0	60	318387
2026-01-30 01:29:32.36	34.22	0.98	-61.1	-78.3	3.6	1.51e+00	0	45	104	0	60	321477
2026-01-30 01:29:33.36	34.17	1.03	-57.9	-77.7	3.6	1.51e+00	0	45	104	0	60	300941
2026-01-30 01:29:34.37	34.13	1.09	-55.9	-76.6	3.6	1.51e+00	0	45	104	0	60	264616
2026-01-30 01:29:35.37	34.08	1.15	-59.0	-77.7	3.6	1.51e+00	0	45	104	0	60	299813
2026-01-30 01:29:36.38	34.04	1.21	-52.7	-74.4	3.6	1.51e+00	0	45	104	0	60	206267
2026-01-30 01:29:37.38	33.99	1.27	-60.5	-77.9	3.6	1.51e+00	0	45	104	0	60	307954
2026-01-30 01:29:38.39	33.95	1.33	-53.5	-75.8	3.6	1.51e+00	0	45	104	0	60	242533
2026-01-30 01:29:39.40	33.90	1.39	-56.0	-77.2	3.6	1.51e+00	0	45	104	0	60	283714
2026-01-30 01:29:40.40	33.85	1.45	-50.7	-73.0	3.6	1.51e+00	0	45	104	0	60	174930
2026-01-30 01:29:41.41	33.81	1.50	-56.8	-74.8	3.6	1.51e+00	0	45	104	0	60	215965
2026-01-30 01:29:42.42	33.76	1.56	-57.5	-77.2	3.6	1.51e+00	0	45	104	0	60	284945
2026-01-30 01:29:43.42	33.71	1.62	-57.4	-76.3	3.6	1.51e+00	0	45	104	0	60	255880
2026-01-30 01:29:44.43	33.67	1.68	-57.3	-76.2	3.6	1.51e+00	0	45	104	0	60	254383
2026-01-30 01:29:45.43	33.62	1.74	-57.2	-76.8	3.6	1.51e+00	0	45	104	0	60	271333
2026-01-30 01:29:46.44	33.57	1.80	-60.6	-77.6	3.6	1.51e+00	0	45	104	0	60	295725
2026-01-30 01:29:47.45	33.52	1.86	-58.6	-76.0	3.6	1.51e+00	0	45	104	0	60	247212
2026-01-30 01:29:48.46	33.48	1.92	-55.4	-76.4	3.6	1.51e+00	0	45	104	0	60	257521
2026-01-30 01:29:49.46	33.43	1.98	-51.9	-73.1	3.6	1.51e+00	0	45	104	0	60	177971
2026-01-30 01:29:50.46	33.38	2.04	-53.8	-75.4	3.6	1.51e+00	0	45	104	0	60	231886
2026-01-30 01:29:51.47	33.33	2.10	-56.5	-76.0	3.6	1.51e+00	0	45	104	0	60	247528
2026-01-30 01:29:52.48	33.28	2.16	-52.8	-73.5	3.6	1.51e+00	0	45	104	0	60	184798
2026-01-30 01:29:53.49	33.24	2.22	-57.6	-76.2	3.6	1.51e+00	0	45	104	0	60	253379
2026-01-30 01:29:54.50	33.19	2.29	-58.3	-75.8	3.6	1.51e+00	0	45	104	0	60	240310
2026-01-30 01:29:55.50	33.14	2.35	-58.2	-75.8	3.6	1.51e+00	0	45	104	0	60	240494
2026-01-30 01:29:56.51	33.09	2.41	-58.3	-75.8	3.6	1.51e+00	0	45	104	0	60	240977
2026-01-30 01:29:57.52	33.04	2.47	-58.3	-75.8	3.6	1.51e+00	0	45	104	0	60	241470
2026-01-30 01:29:58.53	32.99	2.53	-58.3	-75.7	3.6	1.51e+00	0	45	104	0	60	239036
2026-01-30 01:29:59.54	32.94	2.59	-58.2	-75.7	3.6	1.51e+00	0	45	104	0	60	239104
2026-01-30 01:30:00.54	32.89	2.65	-58.3	-75.7	3.6	1.51e+00	0	45	104	0	60	239459
2026-01-30 01:30:01.55	32.84	2.71	-58.3	-75.7	3.6	1.51e+00	0	45	104	0	60	239372
2026-01-30 01:30:02.56	32.79	2.77	-58.3	-75.8	3.6	1.51e+00	0	45	104	0	60	241697
2026-01-30 01:30:03.56	32.73	2.84	-58.2	-75.8	3.6	1.51e+00	0	45	104	0	60	240402
2026-01-30 01:30:04.57	32.68	2.90	-58.3	-75.8	3.6	1.51e+00	0	45	104	0	60	240498
2026-01-30 01:30:05.58	32.63	2.96	-58.2	-75.7	3.6	1.51e+00	0	45	104	0	60	239031
2026-01-30 01:30:06.59	32.58	3.02	-58.2	-75.6	3.6	1.51e+00	0	45	104	0	60	236591
2026-01-30 01:30:07.60	32.53	3.08	-58.3	-75.6	3.6	1.51e+00	0	45	104	0	60	235284
2026-01-30 01:30:08.61	32.48	3.15	-58.2	-75.7	3.6	1.51e+00	0	45	104	0	60	238717
2026-01-30 01:30:09.62	32.42	3.21	-58.2	-75.6	3.6	1.51e+00	0	45	104	0	60	236790
2026-01-30 01:30:10.62	32.37	3.27	-58.2	-75.6	3.6	1.51e+00	0	45	104	0	60	235361
2026-01-30 01:30:11.63	32.32	3.33	-58.2	-75.7	3.6	1.51e+00	0	45	104	0	60	240029
2026-01-30 01:30:12.63	32.26	3.40	-58.2	-75.7	3.6	1.51e+00	0	45	104	0	60	237812
2026-01-30 01:30:13.64	32.21	3.46	-58.2	-75.6	3.6	1.51e+00	0	45	104	0	60	236665
2026-01-30 01:30:14.64	32.16	3.52	-58.2	-75.5	3.6	1.51e+00	0	45	104	0	60	234568
2026-01-30 01:30:15.64	32.10	3.58	-58.1	-75.5	3.6	1.51e+00	0	45	104	0	60	233965
2026-01-30 01:30:16.65	32.05	3.65	-58.1	-75.7	3.6	1.51e+00	0	45	104	0	60	237834
2026-01-30 01:30:17.65	32.00	3.71	-58.1	-75.6	3.6	1.51e+00	0	45	104	0	60	235996
2026-01-30 01:30:18.66	31.94	3.77	-58.1	-75.5	3.5	1.51e+00	0	45	104	0	60	234647
2026-01-30 01:30:19.67	31.89	3.84	-58.1	-75.6	3.6	1.51e+00	0	45	104	0	60	236407
2026-01-30 01:30:20.67	31.83	3.90	-58.1	-75.5	3.6	1.51e+00	0	45	104	0	60	233252
2026-01-30 01:30:21.68	31.77	3.97	-58.1	-75.7	3.6	1.51e+00	0	45	104	0	60	237700
2026-01-30 01:30:22.69	31.72	4.03	-58.1	-75.5	3.6	1.51e+00	0	45	104	0	60	233315
2026-01-30 01:30:23.70	31.66	4.09	-58.1	-75.5	3.6	1.51e+00	0	45	104	0	60	233751
2026-01-30 01:30:24.71	31.61	4.16	-58.1	-75.5	3.6	1.51e+00	0	45	104	0	60	234504
2026-01-30 01:30:25.72	31.55	4.22	-58.2	-75.5	3.6	1.51e+00	0	45	104	0	60	233096
2026-01-30 01:30:26.73	31.49	4.29	-58.2	-75.5	3.6	1.51e+00	0	45	104	0	60	232988
2026-01-30 01:30:27.73	31.44	4.35	-58.2	-75.5	3.6	1.51e+00	0	45	104	0	60	233333
2026-01-30 01:30:28.74	31.38	4.42	-58.2	-75.4	3.6	1.51e+00	0	45	104	0	60	231645
2026-01-30 01:30:29.75	31.32	4.48	-58.2	-75.5	3.6	1.51e+00	0	45	104	0	60	234480
2026-01-30 01:30:30.75	31.26	4.55	-58.2	-75.6	3.6	1.51e+00	0	45	104	0	60	235783
2026-01-30 01:30:31.76	31.21	4.61	-58.1	-75.4	3.6	1.51e+00	0	45	104	0	60	230647
2026-01-30 01:30:32.76	31.15	4.68	-58.1	-75.4	3.6	1.51e+00	0	45	104	0	60	231644
2026-01-30 01:30:33.77	31.09	4.74	-58.0	-75.6	3.6	1.51e+00	0	45	104	0	60	236654
2026-01-30 01:30:34.78	31.03	4.81	-58.1	-75.5	3.6	1.51e+00	0	45	104	0	60	232693
2026-01-30 01:30:35.78	30.97	4.87	-58.1	-75.5	3.6	1.51e+00	0	45	104	0	60	232177
2026-01-30 01:30:36.79	30.91	4.94	-58.1	-75.1	3.6	1.51e+00	0	45	104	0	60	221961
2026-01-30 01:30:37.79	30.85	5.00	-58.1	-75.0	3.6	1.51e+00	0	45	104	0	60	219607
2026-01-30 01:30:38.80	30.79	5.07	-58.1	-74.7	3.6	1.51e+00	0	45	104	0	60	211774
2026-01-30 01:30:39.81	30.73	5.14	-58.1	-74.1	3.6	1.51e+00	0	45	104	0	60	198648
2026-01-30 01:30:40.81	30.67	5.20	-58.0	-73.3	3.6	1.51e+00	0	45	104	0	60	181792
2026-01-30 01:30:41.82	30.61	5.27	-57.9	-71.6	4.1	1.50e+00	0	45	104	0	60	149708
2026-01-30 01:30:42.83	30.55	5.33	-57.9	-68.5	5.2	6.70e-01	0	45	0	1048576	60	104260
2026-01-30 01:30:43.83	30.49	5.40	-57.6	-66.7	6.8	2.92e-01	0	45	0	2097152	60	84902
2026-01-30 01:30:44.83	30.42	5.47	-57.4	-65.0	8.8	8.85e-02	0	45	0	4194304	60	69595
2026-01-30 01:30:45.84	30.36	5.53	-57.0	-63.5	10.6	5.82e-03	0	45	0	6291456	60	58895
2026-01-30 01:30:46.84	30.30	5.60	-56.7	-62.3	12.0	7.90e-04	0	45	0	8388608	60	50895
2026-01-30 01:30:47.85	30.24	5.67	-56.1	-60.8	13.7	8.01e-05	0	45	0	10485760	60	42843
2026-01-30 01:30:48.85	30.17	5.74	-55.9	-60.3	14.3	1.14e-05	0	45	0	11534336	60	40406
2026-01-30 01:30:49.85	30.11	5.80	-55.6	-59.6	14.7	0.00e+00	0	45	0	13631488	60	37531
2026-01-30 01:30:50.86	30.05	5.87	-55.4	-59.2	15.3	0.00e+00	0	45	0	15728640	60	35615
2026-01-30 01:30:51.86	29.98	5.94	-55.3	-58.9	15.4	0.00e+00	0	45	0	17825792	60	34694
2026-01-30 01:30:52.86	29.92	6.00	-55.3	-59.0	15.4	0.00e+00	0	45	0	19922944	60	34885
2026-01-30 01:30:53.87	29.86	6.07	-55.2	-58.7	16.1	0.00e+00	0	45	0	20971520	60	33550
2026-01-30 01:30:54.87	29.79	6.14	-53.5	-59.6	14.3	0.00e+00	0	45	0	23068672	60	37566
2026-01-30 01:30:55.88	29.73	6.21	-55.2	-62.3	11.1	2.20e-06	0	45	0	25165824	60	50920
2026-01-30 01:30:56.89	29.66	6.28	-55.9	-59.4	15.3	5.22e-04	0	45	0	27262976	60	36551
2026-01-30 01:30:57.90	29.59	6.35	-56.6	-61.0	13.1	0.00e+00	0	45	0	29360128	60	43941
2026-01-30 01:30:58.90	29.53	6.41	-55.7	-58.9	16.2	1.47e-04	0	45	0	30408704	60	34348
2026-01-30 01:30:59.91	29.46	6.48	-55.1	-58.6	16.3	0.00e+00	0	45	0	32505856	60	33303
2026-01-30 01:31:00.92	29.39	6.55	-54.8	-58.7	16.0	0.00e+00	0	45	0	34603008	60	33714
2026-01-30 01:31:01.93	29.33	6.62	-54.5	-58.7	15.6	0.00e+00	0	45	0	36700160	60	33657
2026-01-30 01:31:02.94	29.26	6.69	-54.0	-58.8	15.0	0.00e+00	0	45	0	38797312	60	34010
2026-01-30 01:31:03.95	29.19	6.76	-52.0	-58.1	14.4	0.00e+00	0	45	0	39845888	60	31447
2026-01-30 01:31:04.95	29.12	6.83	-51.1	-58.2	13.8	7.00e-07	0	45	0	41943040	60	31737
2026-01-30 01:31:05.96	29.05	6.90	-51.0	-58.3	13.5	3.00e-06	0	45	0	44040192	60	32238
2026-01-30 01:31:06.97	28.98	6.97	-50.8	-58.3	13.4	2.20e-06	0	45	0	46137344	60	32032
2026-01-30 01:31:07.97	28.92	7.04	-50.9	-58.1	13.9	4.50e-06	0	45	0	48234496	60	31446
2026-01-30 01:31:08.98	28.85	7.11	-51.2	-57.9	14.5	0.00e+00	0	45	0	49283072	60	30888
2026-01-30 01:31:09.98	28.78	7.18	-51.4	-57.8	14.7	0.00e+00	0	45	0	51380224	60	30516
2026-01-30 01:31:10.99	28.71	7.25	-51.3	-57.9	14.8	0.00e+00	0	45	0	53477376	60	30640
2026-01-30 01:31:12.00	28.63	7.32	-51.5	-58.0	14.7	0.00e+00	0	45	0	55574528	60	30954
2026-01-30 01:31:13.01	28.56	7.39	-52.6	-58.0	15.7	0.00e+00	0	45	0	57671680	60	30998
2026-01-30 01:31:14.02	28.49	7.46	-53.1	-57.7	16.4	0.00e+00	0	45	0	58720256	60	30234
2026-01-30 01:31:15.03	28.42	7.54	-53.5	-57.8	16.5	0.00e+00	0	45	0	60817408	60	30289
2026-01-30 01:31:16.03	28.35	7.61	-53.7	-58.0	16.2	0.00e+00	0	45	0	62914560	60	31083
2026-01-30 01:31:17.03	28.28	7.68	-53.7	-57.8	16.7	0.00e+00	0	45	0	65011712	60	30352
2026-01-30 01:31:18.04	28.20	7.75	-53.8	-58.0	16.5	0.00e+00	0	45	0	67108864	60	31260
2026-01-30 01:31:19.05	28.13	7.82	-53.8	-58.1	16.6	0.00e+00	0	45	0	68157440	60	31519
2026-01-30 01:31:20.06	28.05	7.89	-53.4	-58.0	16.4	0.00e+00	0	45	0	70254592	60	31153
2026-01-30 01:31:21.06	27.98	7.96	-53.4	-57.9	16.6	0.00e+00	0	45	0	72351744	60	30797
2026-01-30 01:31:22.07	27.91	8.04	-52.8	-57.7	16.4	0.00e+00	0	45	0	74448896	60	30054
2026-01-30 01:31:23.08	27.83	8.11	-52.4	-57.5	16.2	0.00e+00	0	45	0	76546048	60	29390
2026-01-30 01:31:24.08	27.76	8.18	-52.9	-57.4	16.4	0.00e+00	0	45	0	77594624	60	29107
2026-01-30 01:31:25.09	27.68	8.25	-53.0	-57.4	16.4	0.00e+00	0	45	0	79691776	60	28980
2026-01-30 01:31:26.10	27.60	8.33	-53.0	-57.4	16.4	0.00e+00	0	45	0	81788928	60	29048
2026-01-30 01:31:27.10	27.53	8.40	-53.4	-57.3	16.6	0.00e+00	0	45	0	83886080	60	28587
2026-01-30 01:31:28.11	27.45	8.47	-53.8	-57.3	16.9	0.00e+00	0	45	0	85983232	60	28810
2026-01-30 01:31:29.12	27.37	8.55	-54.1	-57.4	16.8	0.00e+00	0	45	0	87031808	60	29076
2026-01-30 01:31:30.13	27.30	8.62	-54.1	-57.3	17.2	0.00e+00	0	45	0	89128960	60	28564
2026-01-30 01:31:31.13	27.22	8.69	-54.2	-57.4	17.2	0.00e+00	0	45	0	91226112	60	29100
2026-01-30 01:31:32.14	27.14	8.77	-54.2	-57.6	17.1	0.00e+00	0	45	0	93323264	60	29617
2026-01-30 01:31:33.14	27.06	8.84	-53.9	-57.5	17.3	0.00e+00	0	45	0	95420416	60	29231
2026-01-30 01:31:34.15	26.98	8.92	-53.3	-57.2	17.2	0.00e+00	0	45	0	96468992	60	28502
2026-01-30 01:31:35.16	26.90	8.99	-52.8	-57.1	16.8	0.00e+00	0	45	0	98566144	60	27953
2026-01-30 01:31:36.17	26.82	9.06	-52.2	-57.0	16.3	0.00e+00	0	45	0	100663296	60	27631
2026-01-30 01:31:37.17	26.74	9.14	-51.9	-56.8	15.9	0.00e+00	0	45	0	102760448	60	27199
2026-01-30 01:31:38.18	26.66	9.21	-51.8	-57.0	15.5	0.00e+00	0	45	0	104857600	60	27652
2026-01-30 01:31:39.18	26.58	9.29	-51.1	-56.8	15.0	0.00e+00	0	45	0	105906176	60	27122
2026-01-30 01:31:40.18	26.50	9.36	-50.7	-56.8	14.7	0.00e+00	0	45	0	108003328	60	27086
2026-01-30 01:31:41.19	26.41	9.44	-50.6	-57.1	14.3	0.00e+00	0	46	0	110100480	60	28037
2026-01-30 01:31:42.19	26.33	9.51	-50.6	-56.8	14.6	0.00e+00	0	46	0	112197632	60	27128
2026-01-30 01:31:43.20	26.25	9.59	-50.6	-56.9	14.6	0.00e+00	0	46	0	114294784	60	27380
2026-01-30 01:31:44.20	26.17	9.66	-50.7	-56.9	14.9	0.00e+00	0	46	0	115343360	60	27274
2026-01-30 01:31:45.21	26.08	9.74	-50.7	-56.9	15.4	0.00e+00	0	46	0	117440512	60	27409
2026-01-30 01:31:46.21	26.00	9.82	-50.8	-56.9	15.7	0.00e+00	0	45	0	119537664	60	27400
2026-01-30 01:31:47.23	25.91	9.89	-50.2	-56.7	15.8	0.00e+00	0	46	0	121634816	60	26937
2026-01-30 01:31:48.23	25.83	9.97	-50.1	-56.8	15.6	0.00e+00	0	45	0	123731968	60	27192
2026-01-30 01:31:49.24	25.74	10.05	-49.7	-57.0	15.9	0.00e+00	0	45	0	124780544	60	27853
2026-01-30 01:31:50.24	25.65	10.12	-49.2	-56.9	15.1	0.00e+00	0	45	0	126877696	60	27321
2026-01-30 01:31:51.25	25.57	10.20	-48.8	-56.9	14.5	0.00e+00	0	45	0	128974848	60	27473
2026-01-30 01:31:52.25	25.48	10.28	-48.6	-56.7	15.0	0.00e+00	0	46	0	131072000	60	26692
2026-01-30 01:31:53.26	25.39	10.35	-48.6	-57.0	15.0	0.00e+00	0	46	0	133169152	60	27599
2026-01-30 01:31:54.26	25.30	10.43	-48.7	-56.9	14.8	0.00e+00	0	46	0	134217728	60	27570
2026-01-30 01:31:55.27	25.21	10.51	-49.2	-56.9	15.0	0.00e+00	0	45	0	136314880	60	27443
2026-01-30 01:31:56.27	25.12	10.59	-49.7	-57.2	15.2	0.00e+00	0	45	0	138412032	60	28258
2026-01-30 01:31:57.28	25.03	10.66	-50.5	-57.2	16.2	0.00e+00	0	45	0	140509184	60	28543
2026-01-30 01:31:58.29	24.94	10.74	-50.9	-57.0	16.6	0.00e+00	0	45	0	142606336	60	27896
2026-01-30 01:31:59.29	24.85	10.82	-51.7	-57.0	17.2	0.00e+00	0	45	0	143654912	60	27891
2026-01-30 01:32:00.30	24.76	10.90	-52.4	-57.1	17.8	0.00e+00	0	45	0	145752064	60	28040
2026-01-30 01:32:01.30	24.67	10.98	-52.9	-57.3	17.9	0.00e+00	0	45	0	147849216	60	28768
2026-01-30 01:32:02.31	24.58	11.06	-53.3	-57.0	18.2	0.00e+00	0	45	0	149946368	60	27634
2026-01-30 01:32:03.32	24.48	11.14	-52.8	-56.9	18.6	0.00e+00	0	45	0	152043520	60	27563
2026-01-30 01:32:04.33	24.39	11.21	-52.0	-56.9	18.7	0.00e+00	0	45	0	153092096	60	27508
2026-01-30 01:32:05.34	24.30	11.29	-51.6	-56.9	18.7	0.00e+00	0	45	0	155189248	60	27265
2026-01-30 01:32:06.35	24.20	11.37	-51.2	-56.7	18.5	0.00e+00	0	45	0	157286400	60	26771
2026-01-30 01:32:07.36	24.11	11.45	-50.8	-56.8	17.9	0.00e+00	0	46	0	159383552	60	27257
2026-01-30 01:32:08.36	24.01	11.53	-50.0	-56.6	17.7	0.00e+00	0	45	0	161480704	60	26613
2026-01-30 01:32:09.37	23.92	11.61	-49.4	-56.6	17.1	0.00e+00	0	45	0	162529280	60	26567
2026-01-30 01:32:10.38	23.82	11.69	-49.1	-56.7	16.2	0.00e+00	0	45	0	164626432	60	26779
2026-01-30 01:32:11.38	23.72	11.77	-48.5	-56.3	15.6	0.00e+00	0	45	0	166723584	60	25466
2026-01-30 01:32:12.39	23.62	11.86	-48.4	-56.2	14.8	0.00e+00	0	46	0	168820736	60	25326
2026-01-30 01:32:13.39	23.53	11.94	-48.7	-56.0	14.6	0.00e+00	0	46	0	170917888	60	24861
2026-01-30 01:32:14.39	23.43	12.02	-49.0	-56.1	13.9	7.00e-07	0	45	0	171966464	60	24871
2026-01-30 01:32:15.39	23.33	12.10	-49.6	-55.8	14.1	0.00e+00	0	46	0	174063616	60	24250
2026-01-30 01:32:16.40	23.23	12.18	-50.9	-55.8	14.6	0.00e+00	0	45	0	176160768	60	24200
2026-01-30 01:32:17.41	23.13	12.26	-51.5	-55.7	15.2	7.00e-07	0	45	0	178257920	60	23837
2026-01-30 01:32:18.42	23.03	12.34	-51.9	-56.0	15.1	0.00e+00	0	45	0	180355072	60	24626
2026-01-30 01:32:19.42	22.92	12.42	-51.3	-55.8	15.1	0.00e+00	0	45	0	181403648	60	24023
2026-01-30 01:32:20.43	22.82	12.51	-50.6	-55.8	14.5	0.00e+00	0	45	0	183500800	60	24194
2026-01-30 01:32:21.44	22.72	12.59	-49.8	-55.7	14.0	0.00e+00	0	46	0	185597952	60	23995
2026-01-30 01:32:22.45	22.61	12.67	-49.0	-55.9	13.5	1.50e-06	0	46	0	187695104	60	24578
2026-01-30 01:32:23.45	22.51	12.75	-48.1	-56.0	12.9	1.50e-06	0	45	0	189792256	60	24682
2026-01-30 01:32:24.46	22.41	12.84	-46.5	-55.8	12.8	3.80e-06	0	45	0	190840832	60	24283
2026-01-30 01:32:25.46	22.30	12.92	-45.7	-55.9	12.6	2.89e-05	0	46	0	192937984	60	24574
2026-01-30 01:32:26.47	22.19	13.00	-45.5	-55.7	13.4	6.80e-06	0	46	0	195035136	60	23965
2026-01-30 01:32:27.47	22.09	13.09	-45.8	-55.9	13.4	3.00e-06	0	46	0	197132288	60	24313
2026-01-30 01:32:28.48	21.98	13.17	-46.8	-55.9	14.1	7.00e-07	0	46	0	199229440	60	24375
2026-01-30 01:32:29.48	21.87	13.25	-48.6	-55.6	15.5	0.00e+00	0	46	0	200278016	60	23621
2026-01-30 01:32:30.49	21.77	13.34	-51.5	-55.9	16.6	0.00e+00	0	46	0	202375168	60	24500
2026-01-30 01:32:31.49	21.66	13.42	-54.1	-56.0	18.1	0.00e+00	0	45	0	204472320	60	24862
2026-01-30 01:32:32.50	21.55	13.51	-52.6	-55.9	19.3	0.00e+00	0	45	0	206569472	60	24361
2026-01-30 01:32:33.50	21.44	13.59	-51.4	-56.0	19.5	0.00e+00	0	46	0	208666624	60	24627
2026-01-30 01:32:34.51	21.33	13.67	-51.4	-55.8	19.1	0.00e+00	0	45	0	209715200	60	24186
2026-01-30 01:32:35.52	21.21	13.76	-52.2	-56.0	18.3	0.00e+00	0	45	0	211812352	60	24772
2026-01-30 01:32:36.53	21.10	13.85	-53.0	-56.0	17.7	0.00e+00	0	46	0	213909504	60	24676
2026-01-30 01:32:37.54	20.99	13.93	-53.5	-56.1	17.4	0.00e+00	0	46	0	216006656	60	24962
2026-01-30 01:32:38.54	20.87	14.02	-53.5	-56.1	16.9	0.00e+00	0	46	0	218103808	60	25143
2026-01-30 01:32:39.55	20.76	14.10	-53.6	-56.2	17.6	0.00e+00	0	46	0	219152384	60	25173
2026-01-30 01:32:40.55	20.65	14.19	-53.8	-56.1	18.8	0.00e+00	0	45	0	221249536	60	25084
2026-01-30 01:32:41.56	20.53	14.27	-53.6	-56.2	19.2	0.00e+00	0	46	0	223346688	60	25188
2026-01-30 01:32:42.56	20.41	14.36	-52.9	-56.1	19.4	0.00e+00	0	45	0	225443840	60	24995
2026-01-30 01:32:43.57	20.30	14.45	-52.0	-56.2	18.3	0.00e+00	0	45	0	226492416	60	25211
2026-01-30 01:32:44.57	20.18	14.53	-51.2	-56.4	17.4	0.00e+00	0	46	0	228589568	60	25790
2026-01-30 01:32:45.58	20.06	14.62	-50.9	-56.3	16.7	0.00e+00	0	46	0	230686720	60	25653
2026-01-30 01:32:46.58	19.94	14.70	-50.7	-56.6	16.6	0.00e+00	0	46	0	232783872	60	26485
2026-01-30 01:32:47.59	19.82	14.79	-50.4	-56.6	16.4	0.00e+00	0	46	0	234881024	60	26638
2026-01-30 01:32:48.59	19.70	14.88	-50.1	-56.4	16.5	0.00e+00	0	46	0	236978176	60	25906
2026-01-30 01:32:49.60	19.58	14.97	-49.9	-56.5	16.1	0.00e+00	0	46	0	238026752	60	26036
2026-01-30 01:32:50.61	19.46	15.05	-49.3	-56.2	15.4	0.00e+00	0	46	0	240123904	60	25256
2026-01-30 01:32:51.62	19.33	15.14	-49.1	-56.2	14.8	0.00e+00	0	46	0	242221056	60	25202
2026-01-30 01:32:52.63	19.21	15.23	-49.0	-56.2	14.3	0.00e+00	0	46	0	244318208	60	25228
2026-01-30 01:32:53.63	19.09	15.32	-49.5	-56.1	14.1	0.00e+00	0	46	0	246415360	60	25095
2026-01-30 01:32:54.64	18.96	15.41	-50.6	-56.3	14.6	7.00e-07	0	46	0	247463936	60	25636
2026-01-30 01:32:55.65	18.83	15.50	-51.6	-56.3	15.8	0.00e+00	0	46	0	249561088	60	25703
2026-01-30 01:32:56.66	18.71	15.59	-53.1	-56.6	17.0	0.00e+00	0	45	0	251658240	60	26501
2026-01-30 01:32:57.66	18.58	15.67	-52.9	-56.5	17.3	0.00e+00	0	46	0	253755392	60	26200
2026-01-30 01:32:58.67	18.45	15.76	-51.1	-56.3	16.3	0.00e+00	0	46	0	255852544	60	25635
2026-01-30 01:32:59.68	18.32	15.85	-50.1	-56.5	15.2	0.00e+00	0	46	0	256901120	60	26163
2026-01-30 01:33:00.68	18.19	15.94	-49.9	-56.4	15.1	0.00e+00	0	46	0	258998272	60	26030
2026-01-30 01:33:01.69	18.06	16.03	-50.1	-56.0	15.8	0.00e+00	0	46	0	261095424	60	24651
2026-01-30 01:33:02.69	17.93	16.12	-50.3	-55.9	16.4	0.00e+00	0	45	0	263192576	60	24510
2026-01-30 01:33:03.70	17.80	16.21	-50.8	-55.4	17.8	0.00e+00	0	46	0	265289728	60	23124
2026-01-30 01:33:04.71	17.66	16.30	-51.6	-55.6	18.8	0.00e+00	0	45	0	266338304	60	23709
2026-01-30 01:33:05.71	17.53	16.39	-52.8	-55.6	20.1	0.00e+00	0	46	0	268435456	60	23737
2026-01-30 01:33:06.72	17.40	16.48	-53.1	-55.5	19.9	0.00e+00	0	45	0	270532608	60	23360
2026-01-30 01:33:07.73	17.26	16.57	-53.1	-55.7	19.2	0.00e+00	0	45	0	272629760	60	24008
2026-01-30 01:33:08.73	17.12	16.66	-53.1	-55.8	19.1	0.00e+00	0	46	0	274726912	60	24129
2026-01-30 01:33:09.74	16.99	16.75	-53.3	-55.9	19.3	0.00e+00	0	46	0	275775488	60	24375
2026-01-30 01:33:10.75	16.85	16.85	-53.9	-56.3	19.4	0.00e+00	0	45	0	277872640	60	25481
2026-01-30 01:33:11.75	16.71	16.94	-54.3	-56.3	19.5	0.00e+00	0	45	0	279969792	60	25632
2026-01-30 01:33:12.76	16.57	17.03	-54.7	-56.9	18.9	0.00e+00	0	45	0	282066944	60	27509
2026-01-30 01:33:13.77	16.43	17.12	-54.5	-56.7	18.9	0.00e+00	0	45	0	283115520	60	26901
2026-01-30 01:33:14.78	16.29	17.21	-54.2	-56.6	18.7	0.00e+00	0	46	0	285212672	60	26480
2026-01-30 01:33:15.78	16.14	17.30	-53.9	-56.9	18.0	0.00e+00	0	46	0	287309824	60	27339
2026-01-30 01:33:16.79	16.00	17.40	-53.9	-57.5	17.3	0.00e+00	0	46	0	289406976	60	29378
2026-01-30 01:33:17.80	15.86	17.49	-54.1	-57.7	16.6	0.00e+00	0	46	0	291504128	60	29962
2026-01-30 01:33:18.80	15.71	17.58	-54.4	-57.9	16.5	0.00e+00	0	46	0	293601280	60	30919
2026-01-30 01:33:19.81	15.57	17.67	-54.6	-57.6	17.2	0.00e+00	0	46	0	294649856	60	29572
2026-01-30 01:33:20.81	15.42	17.77	-55.0	-57.7	17.4	0.00e+00	0	46	0	296747008	60	29985
2026-01-30 01:33:21.82	15.27	17.86	-55.2	-57.7	17.9	0.00e+00	0	45	0	298844160	60	29945
2026-01-30 01:33:22.82	15.12	17.95	-54.8	-57.2	18.6	0.00e+00	0	46	0	300941312	60	28278
2026-01-30 01:33:23.83	14.97	18.04	-54.4	-56.8	19.1	0.00e+00	0	46	0	303038464	60	27115
2026-01-30 01:33:24.84	14.82	18.14	-54.0	-56.5	19.4	0.00e+00	0	46	0	304087040	60	26284
2026-01-30 01:33:25.85	14.67	18.23	-53.8	-56.5	19.1	0.00e+00	0	46	0	306184192	60	26233
2026-01-30 01:33:26.85	14.52	18.32	-53.3	-56.5	18.8	0.00e+00	0	46	0	308281344	60	26140
2026-01-30 01:33:27.86	14.36	18.42	-53.0	-56.4	18.7	0.00e+00	0	46	0	310378496	60	25855
2026-01-30 01:33:28.87	14.21	18.51	-52.9	-56.7	18.1	0.00e+00	0	46	0	311427072	60	26833
2026-01-30 01:33:29.88	14.05	18.61	-52.5	-56.3	18.3	0.00e+00	0	45	0	313524224	60	25674
2026-01-30 01:33:30.88	13.90	18.70	-52.5	-56.1	18.6	0.00e+00	0	45	0	315621376	60	25105
2026-01-30 01:33:31.89	13.74	18.80	-52.7	-56.1	18.8	0.00e+00	0	45	0	317718528	60	25114
2026-01-30 01:33:32.90	13.58	18.89	-53.0	-56.4	18.5	0.00e+00	0	46	0	319815680	60	25792
2026-01-30 01:33:33.90	13.42	18.98	-53.4	-56.4	18.8	0.00e+00	0	46	0	321912832	60	25896
2026-01-30 01:33:34.91	13.26	19.08	-53.5	-56.3	19.0	0.00e+00	0	45	0	322961408	60	25477
2026-01-30 01:33:35.91	13.10	19.17	-53.8	-56.4	19.2	0.00e+00	0	46	0	325058560	60	25921
2026-01-30 01:33:36.91	12.94	19.27	-53.9	-56.2	19.7	0.00e+00	0	46	0	327155712	60	25309
2026-01-30 01:33:37.92	12.77	19.36	-53.9	-56.2	19.7	0.00e+00	0	45	0	329252864	60	25189
2026-01-30 01:33:38.91	12.61	19.46	-54.1	-56.4	19.5	0.00e+00	0	45	0	331350016	60	25893
2026-01-30 01:33:39.92	12.45	19.55	-54.2	-56.3	19.4	0.00e+00	0	46	0	332398592	60	25617
2026-01-30 01:33:40.93	12.28	19.65	-54.3	-56.2	19.4	0.00e+00	0	46	0	334495744	60	25419
2026-01-30 01:33:41.93	12.11	19.74	-54.1	-56.0	19.5	0.00e+00	0	46	0	336592896	60	24834
2026-01-30 01:33:42.94	11.94	19.84	-54.0	-55.9	19.9	0.00e+00	0	46	0	338690048	60	24390
2026-01-30 01:33:43.95	11.77	19.93	-54.2	-56.1	19.6	0.00e+00	0	45	0	339738624	60	25087
2026-01-30 01:33:44.95	11.60	20.03	-54.1	-56.0	19.5	0.00e+00	0	45	0	341835776	60	24619
2026-01-30 01:33:45.95	11.43	20.13	-54.1	-56.1	19.2	0.00e+00	0	46	0	343932928	60	24925
2026-01-30 01:33:46.96	11.26	20.22	-54.0	-56.3	18.9	0.00e+00	0	46	0	346030080	60	25602
2026-01-30 01:33:47.97	11.08	20.32	-53.7	-56.6	18.3	0.00e+00	0	46	0	348127232	60	26412
2026-01-30 01:33:48.97	10.91	20.41	-53.2	-56.4	18.6	0.00e+00	0	46	0	350224384	60	26020
2026-01-30 01:33:49.98	10.73	20.51	-52.7	-56.2	18.9	0.00e+00	0	46	0	351272960	60	25262
2026-01-30 01:33:50.99	10.55	20.61	-52.5	-56.3	18.9	0.00e+00	0	46	0	353370112	60	25494
2026-01-30 01:33:52.00	10.37	20.70	-52.6	-56.2	18.9	0.00e+00	0	46	0	355467264	60	25363
2026-01-30 01:33:53.00	10.19	20.80	-52.7	-56.3	18.8	0.00e+00	0	45	0	357564416	60	25630
2026-01-30 01:33:54.01	10.01	20.90	-52.7	-56.3	18.6	0.00e+00	0	45	0	359661568	60	25604
2026-01-30 01:33:55.01	9.83	20.99	-52.6	-56.5	18.3	0.00e+00	0	46	0	360710144	60	26292
2026-01-30 01:33:56.01	9.65	21.09	-53.0	-56.7	18.5	0.00e+00	0	46	0	362807296	60	26826
2026-01-30 01:33:57.01	9.46	21.18	-53.5	-56.5	19.1	0.00e+00	0	46	0	364904448	60	26233
2026-01-30 01:33:58.02	9.28	21.28	-54.5	-56.4	19.7	0.00e+00	0	46	0	367001600	60	25801
2026-01-30 01:33:59.03	9.09	21.38	-54.4	-56.5	19.0	0.00e+00	0	46	0	368050176	60	26094
2026-01-30 01:34:00.04	8.90	21.48	-53.3	-56.1	18.3	0.00e+00	0	46	0	370147328	60	25011
2026-01-30 01:34:01.04	8.71	21.57	-52.6	-55.9	17.8	0.00e+00	0	45	0	372244480	60	24358
2026-01-30 01:34:02.05	8.52	21.67	-52.0	-55.8	17.5	0.00e+00	0	46	0	374341632	60	24261
2026-01-30 01:34:03.05	8.33	21.76	-51.4	-55.6	17.5	0.00e+00	0	46	0	376438784	60	23717
2026-01-30 01:34:04.06	8.14	21.86	-51.0	-55.9	17.3	0.00e+00	0	46	0	377487360	60	24355
2026-01-30 01:34:05.06	7.94	21.96	-50.9	-56.1	17.3	0.00e+00	0	46	0	379584512	60	25137
2026-01-30 01:34:06.07	7.75	22.06	-51.1	-56.3	18.0	0.00e+00	0	46	0	381681664	60	25542
2026-01-30 01:34:07.08	7.55	22.15	-51.7	-56.1	18.5	0.00e+00	0	46	0	383778816	60	25119
2026-01-30 01:34:08.08	7.35	22.25	-52.4	-56.2	19.2	0.00e+00	0	46	0	385875968	60	25435
2026-01-30 01:34:09.09	7.15	22.35	-52.9	-55.9	20.0	0.00e+00	0	46	0	387973120	60	24407
2026-01-30 01:34:10.10	6.95	22.44	-53.4	-56.1	19.8	0.00e+00	0	46	0	389021696	60	25054
2026-01-30 01:34:11.10	6.75	22.54	-53.3	-56.2	19.7	0.00e+00	0	46	0	391118848	60	25398
2026-01-30 01:34:12.10	6.55	22.64	-52.5	-56.0	19.3	0.00e+00	0	46	0	393216000	60	24669
2026-01-30 01:34:13.10	6.35	22.73	-51.9	-56.3	18.5	0.00e+00	0	46	0	395313152	60	25626
2026-01-30 01:34:14.11	6.14	22.83	-51.1	-56.0	18.2	0.00e+00	0	46	0	396361728	60	24670
2026-01-30 01:34:15.12	5.93	22.93	-51.0	-55.7	18.3	0.00e+00	0	46	0	398458880	60	23940
2026-01-30 01:34:16.12	5.73	23.02	-51.2	-55.8	17.9	0.00e+00	0	46	0	400556032	60	24103
2026-01-30 01:34:17.13	5.52	23.12	-51.7	-55.9	18.0	0.00e+00	0	46	0	402653184	60	24317
2026-01-30 01:34:18.13	5.31	23.22	-52.4	-56.0	18.0	0.00e+00	0	46	0	404750336	60	24763
2026-01-30 01:34:19.14	5.09	23.31	-52.8	-56.2	18.2	0.00e+00	0	46	0	405798912	60	25215
2026-01-30 01:34:20.13	4.88	23.41	-53.0	-56.0	18.4	0.00e+00	0	46	0	407896064	60	24801
2026-01-30 01:34:21.14	4.67	23.50	-52.9	-56.0	18.3	0.00e+00	0	46	0	409993216	60	24745
2026-01-30 01:34:22.15	4.45	23.60	-52.8	-56.1	18.1	0.00e+00	0	46	0	412090368	60	25086
2026-01-30 01:34:23.15	4.24	23.70	-53.1	-56.5	17.9	0.00e+00	0	46	0	414187520	60	26121
2026-01-30 01:34:24.16	4.02	23.79	-53.2	-56.1	18.4	0.00e+00	0	46	0	415236096	60	25058
2026-01-30 01:34:25.17	3.80	23.89	-53.8	-56.3	18.8	0.00e+00	0	46	0	417333248	60	25473
2026-01-30 01:34:26.17	3.58	23.99	-54.4	-56.4	19.1	0.00e+00	0	46	0	419430400	60	25887
2026-01-30 01:34:27.18	3.35	24.08	-54.5	-56.4	19.5	0.00e+00	0	46	0	421527552	60	25868
2026-01-30 01:34:28.18	3.13	24.18	-54.5	-56.5	19.2	0.00e+00	0	45	0	423624704	60	26265
2026-01-30 01:34:29.19	2.90	24.27	-54.3	-56.5	19.4	0.00e+00	0	45	0	424673280	60	26159
2026-01-30 01:34:30.20	2.67	24.37	-54.2	-56.6	19.1	0.00e+00	0	45	0	426770432	60	26510
2026-01-30 01:34:31.21	2.44	24.46	-53.8	-56.6	18.9	0.00e+00	0	46	0	428867584	60	26395
2026-01-30 01:34:32.21	2.22	24.56	-53.5	-56.4	18.6	0.00e+00	0	46	0	430964736	60	25844
2026-01-30 01:34:33.22	1.98	24.65	-53.7	-56.7	18.0	0.00e+00	0	46	0	433061888	60	26828
2026-01-30 01:34:34.23	1.75	24.75	-53.9	-57.0	17.7	0.00e+00	0	45	0	434110464	60	27815
2026-01-30 01:34:35.24	1.52	24.84	-54.0	-56.8	17.8	0.00e+00	0	46	0	436207616	60	27218
2026-01-30 01:34:36.24	1.28	24.94	-53.8	-56.7	18.1	0.00e+00	0	46	0	438304768	60	26792
2026-01-30 01:34:37.25	1.04	25.03	-53.4	-56.3	18.4	0.00e+00	0	46	0	440401920	60	25490
2026-01-30 01:34:38.26	0.80	25.13	-53.3	-56.0	19.0	0.00e+00	0	46	0	442499072	60	24705
2026-01-30 01:34:39.26	0.57	25.22	-53.2	-55.6	19.4	0.00e+00	0	46	0	443547648	60	23656
2026-01-30 01:34:40.27	0.32	25.31	-53.5	-55.7	19.5	0.00e+00	0	46	0	445644800	60	23818
2026-01-30 01:34:41.27	0.08	25.41	-53.8	-55.8	19.5	0.00e+00	0	46	0	447741952	60	24119
2026-01-30 01:34:42.28	359.84	25.50	-54.0	-56.1	19.6	0.00e+00	0	46	0	449839104	60	24944
2026-01-30 01:34:43.28	359.59	25.59	-53.7	-55.5	19.8	0.00e+00	0	46	0	451936256	60	23465
2026-01-30 01:34:44.29	359.34	25.69	-53.5	-55.2	20.1	0.00e+00	0	46	0	452984832	60	22552
2026-01-30 01:34:45.29	359.10	25.78	-53.6	-55.4	20.1	0.00e+00	0	46	0	455081984	60	22965
2026-01-30 01:34:46.30	358.85	25.87	-53.5	-55.2	20.7	0.00e+00	0	46	0	457179136	60	22514
2026-01-30 01:34:47.30	358.60	25.96	-53.2	-55.1	20.9	0.00e+00	0	46	0	459276288	60	22199
2026-01-30 01:34:48.31	358.34	26.05	-53.2	-55.4	20.5	0.00e+00	0	46	0	461373440	60	23138
2026-01-30 01:34:49.31	358.09	26.14	-53.1	-55.8	20.0	0.00e+00	0	46	0	462422016	60	24209
2026-01-30 01:34:50.32	357.83	26.23	-53.4	-56.3	19.7	0.00e+00	0	45	0	464519168	60	25646
2026-01-30 01:34:51.33	357.57	26.32	-53.5	-56.1	19.7	0.00e+00	0	46	0	466616320	60	25035
2026-01-30 01:34:52.34	357.31	26.42	-53.4	-55.4	20.4	0.00e+00	0	46	0	468713472	60	22996
2026-01-30 01:34:53.34	357.06	26.50	-53.6	-55.3	20.5	0.00e+00	0	46	0	470810624	60	22901
2026-01-30 01:34:54.35	356.79	26.59	-54.1	-55.9	19.8	0.00e+00	0	46	0	471859200	60	24510
2026-01-30 01:34:55.35	356.53	26.68	-54.4	-56.3	19.4	0.00e+00	0	46	0	473956352	60	25570
2026-01-30 01:34:56.36	356.26	26.77	-54.8	-56.7	19.1	0.00e+00	0	46	0	476053504	60	26913
2026-01-30 01:34:57.37	356.00	26.86	-55.2	-57.2	18.8	0.00e+00	0	46	0	478150656	60	28525
2026-01-30 01:34:58.38	355.73	26.95	-54.9	-56.9	19.2	0.00e+00	0	46	0	480247808	60	27275
2026-01-30 01:34:59.38	355.46	27.04	-54.6	-56.7	19.4	0.00e+00	0	46	0	481296384	60	26746
2026-01-30 01:35:00.39	355.19	27.12	-54.3	-56.5	19.5	0.00e+00	0	46	0	483393536	60	26188
2026-01-30 01:35:01.39	354.92	27.21	-54.1	-56.5	19.3	0.00e+00	0	46	0	485490688	60	26058
2026-01-30 01:35:02.39	354.65	27.29	-54.1	-56.5	19.2	0.00e+00	0	46	0	487587840	60	26157
2026-01-30 01:35:03.40	354.37	27.38	-54.5	-56.8	19.3	0.00e+00	0	46	0	489684992	60	27017
2026-01-30 01:35:04.41	354.09	27.47	-54.7	-57.1	19.2	0.00e+00	0	46	0	490733568	60	27919
2026-01-30 01:35:05.41	353.81	27.55	-54.4	-56.4	19.8	0.00e+00	0	46	0	492830720	60	26002
2026-01-30 01:35:06.42	353.53	27.63	-54.3	-56.1	20.1	0.00e+00	0	46	0	494927872	60	25128
2026-01-30 01:35:07.43	353.25	27.72	-54.4	-56.2	20.0	0.00e+00	0	46	0	497025024	60	25293
2026-01-30 01:35:08.43	352.97	27.80	-54.5	-56.4	19.8	0.00e+00	0	46	0	499122176	60	25881
2026-01-30 01:35:09.44	352.69	27.88	-54.5	-56.4	19.8	0.00e+00	0	46	0	500170752	60	25917
2026-01-30 01:35:10.45	352.40	27.97	-54.6	-56.6	19.4	0.00e+00	0	46	0	502267904	60	26495
2026-01-30 01:35:11.45	352.11	28.05	-54.2	-56.2	19.4	0.00e+00	0	45	0	504365056	60	25396
2026-01-30 01:35:12.46	351.82	28.13	-54.0	-56.0	19.6	0.00e+00	0	46	0	506462208	60	24622
2026-01-30 01:35:13.46	351.53	28.21	-54.1	-56.0	19.7	0.00e+00	0	46	0	507510784	60	24657
2026-01-30 01:35:14.46	351.24	28.29	-54.4	-56.2	19.7	0.00e+00	0	46	0	509607936	60	25429
2026-01-30 01:35:15.47	350.95	28.37	-55.4	-57.5	18.6	0.00e+00	0	46	0	511705088	60	29380
2026-01-30 01:35:16.48	350.65	28.45	-56.1	-58.4	17.9	0.00e+00	0	46	0	513802240	60	32754
2026-01-30 01:35:17.48	350.36	28.52	-56.6	-59.1	17.2	0.00e+00	0	46	0	515899392	60	35429
2026-01-30 01:35:18.49	350.06	28.60	-56.7	-59.4	17.1	0.00e+00	0	46	0	517996544	60	36587
2026-01-30 01:35:19.50	349.76	28.68	-56.6	-59.1	17.4	0.00e+00	0	46	0	519045120	60	35489
2026-01-30 01:35:20.51	349.46	28.75	-56.7	-59.3	17.3	0.00e+00	0	46	0	521142272	60	36229
2026-01-30 01:35:21.51	349.16	28.83	-57.0	-59.7	16.9	0.00e+00	0	46	0	523239424	60	37706
2026-01-30 01:35:22.52	348.86	28.90	-57.0	-59.8	16.7	0.00e+00	0	46	0	525336576	60	38506
2026-01-30 01:35:23.53	348.55	28.98	-56.7	-59.2	17.3	0.00e+00	0	46	0	527433728	60	35918
2026-01-30 01:35:24.53	348.25	29.05	-56.2	-58.6	17.8	0.00e+00	0	46	0	528482304	60	33512
2026-01-30 01:35:25.53	347.94	29.12	-55.8	-57.9	18.5	0.00e+00	0	46	0	530579456	60	30940
2026-01-30 01:35:26.54	347.63	29.20	-55.5	-57.6	18.7	0.00e+00	0	46	0	532676608	60	29561
2026-01-30 01:35:27.54	347.32	29.27	-55.4	-57.3	18.9	0.00e+00	0	46	0	534773760	60	28777
2026-01-30 01:35:28.55	347.01	29.34	-55.3	-57.2	19.1	0.00e+00	0	46	0	536870912	60	28493
2026-01-30 01:35:29.56	346.69	29.41	-55.2	-57.1	19.2	0.00e+00	0	46	0	537919488	60	28166
2026-01-30 01:35:30.56	346.38	29.47	-55.3	-57.3	19.1	0.00e+00	0	46	0	540016640	60	28678
2026-01-30 01:35:31.57	346.07	29.54	-55.1	-57.1	19.4	0.00e+00	0	45	0	542113792	60	27989
2026-01-30 01:35:32.58	345.75	29.61	-54.9	-56.7	20.0	0.00e+00	0	46	0	544210944	60	26899
2026-01-30 01:35:33.58	345.43	29.67	-54.8	-56.6	19.8	0.00e+00	0	46	0	546308096	60	26563
2026-01-30 01:35:34.58	345.11	29.74	-55.0	-57.0	19.4	0.00e+00	0	45	0	547356672	60	27719
2026-01-30 01:35:35.59	344.79	29.80	-55.0	-57.1	19.0	0.00e+00	0	46	0	549453824	60	28168
2026-01-30 01:35:36.60	344.47	29.87	-55.3	-57.5	18.7	0.00e+00	0	46	0	551550976	60	29526
2026-01-30 01:35:37.61	344.14	29.93	-55.4	-57.7	18.5	0.00e+00	0	46	0	553648128	60	30085
2026-01-30 01:35:38.62	343.82	29.99	-55.6	-57.7	18.8	0.00e+00	0	46	0	555745280	60	30038
2026-01-30 01:35:39.63	343.49	30.05	-55.5	-57.6	18.8	0.00e+00	0	46	0	556793856	60	29623
2026-01-30 01:35:40.63	343.16	30.11	-55.6	-57.7	18.6	0.00e+00	0	46	0	558891008	60	30179
2026-01-30 01:35:41.63	342.84	30.17	-55.4	-57.9	18.4	0.00e+00	0	46	0	560988160	60	30663
2026-01-30 01:35:42.64	342.51	30.23	-55.2	-58.0	18.2	0.00e+00	0	46	0	563085312	60	31135
2026-01-30 01:35:43.64	342.18	30.29	-55.3	-58.4	17.9	0.00e+00	0	46	0	565182464	60	32642
2026-01-30 01:35:44.65	341.84	30.34	-54.7	-57.5	18.8	0.00e+00	0	46	0	566231040	60	29420
2026-01-30 01:35:45.66	341.51	30.40	-54.2	-56.7	19.4	0.00e+00	0	46	0	568328192	60	26887
2026-01-30 01:35:46.66	341.18	30.45	-54.0	-56.4	19.8	0.00e+00	0	46	0	570425344	60	25790
2026-01-30 01:35:47.67	340.84	30.51	-54.4	-56.8	19.4	0.00e+00	0	46	0	572522496	60	27194
2026-01-30 01:35:48.67	340.51	30.56	-54.8	-57.4	18.8	0.00e+00	0	46	0	574619648	60	29180
2026-01-30 01:35:49.68	340.17	30.61	-55.2	-57.8	18.5	0.00e+00	0	46	0	575668224	60	30436
2026-01-30 01:35:50.68	339.83	30.66	-55.2	-57.4	18.9	0.00e+00	0	46	0	577765376	60	29138
2026-01-30 01:35:51.69	339.49	30.71	-54.9	-56.8	19.5	0.00e+00	0	46	0	579862528	60	27075
2026-01-30 01:35:52.70	339.15	30.76	-54.4	-56.0	20.3	0.00e+00	0	45	0	581959680	60	24591
2026-01-30 01:35:53.70	338.81	30.80	-54.0	-55.5	20.7	0.00e+00	0	46	0	584056832	60	23213
2026-01-30 01:35:54.70	338.47	30.85	-53.9	-55.3	20.7	0.00e+00	0	46	0	585105408	60	22862
2026-01-30 01:35:55.71	338.12	30.89	-54.4	-56.0	20.3	0.00e+00	0	46	0	587202560	60	24701
2026-01-30 01:35:56.72	337.78	30.94	-54.5	-56.2	20.0	0.00e+00	0	46	0	589299712	60	25172
2026-01-30 01:35:57.73	337.43	30.98	-54.3	-56.0	20.3	0.00e+00	0	46	0	591396864	60	24626
2026-01-30 01:35:58.73	337.08	31.02	-54.2	-55.9	20.2	0.00e+00	0	46	0	593494016	60	24497
2026-01-30 01:35:59.74	336.74	31.06	-54.3	-56.1	20.0	0.00e+00	0	46	0	594542592	60	24886
2026-01-30 01:36:00.74	336.39	31.10	-54.5	-56.3	19.8	0.00e+00	0	45	0	596639744	60	25644
2026-01-30 01:36:01.75	336.04	31.14	-55.0	-57.2	19.0	0.00e+00	0	46	0	598736896	60	28258
2026-01-30 01:36:02.76	335.69	31.18	-55.5	-58.0	18.2	0.00e+00	0	45	0	600834048	60	30966
2026-01-30 01:36:03.77	335.34	31.21	-55.8	-58.4	17.7	0.00e+00	0	45	0	601882624	60	32660
2026-01-30 01:36:04.78	334.98	31.25	-55.8	-58.6	17.7	0.00e+00	0	46	0	603979776	60	33257
2026-01-30 01:36:05.79	334.63	31.28	-55.2	-57.9	18.3	0.00e+00	0	46	0	606076928	60	30727
2026-01-30 01:36:06.79	334.28	31.31	-55.1	-57.7	18.5	0.00e+00	0	46	0	608174080	60	30200
2026-01-30 01:36:07.80	333.92	31.34	-54.8	-57.4	18.8	0.00e+00	0	46	0	610271232	60	29176
2026-01-30 01:36:08.81	333.57	31.37	-54.6	-56.9	19.1	0.00e+00	0	46	0	612368384	60	27531
2026-01-30 01:36:09.82	333.21	31.40	-55.1	-57.5	19.0	0.00e+00	0	46	0	613416960	60	29354
2026-01-30 01:36:10.83	332.85	31.43	-55.4	-57.8	18.3	0.00e+00	0	46	0	615514112	60	30574
2026-01-30 01:36:11.83	332.50	31.45	-55.6	-57.8	18.3	0.00e+00	0	46	0	617611264	60	30569
2026-01-30 01:36:12.84	332.14	31.48	-55.4	-57.6	18.3	0.00e+00	0	46	0	619708416	60	29811
2026-01-30 01:36:13.85	331.78	31.50	-55.0	-57.1	19.1	0.00e+00	0	46	0	621805568	60	27946
2026-01-30 01:36:14.85	331.43	31.52	-54.6	-56.5	19.5	0.00e+00	0	46	0	622854144	60	26237
2026-01-30 01:36:15.86	331.07	31.55	-54.4	-56.2	19.8	0.00e+00	0	46	0	624951296	60	25159
2026-01-30 01:36:16.86	330.71	31.57	-54.8	-56.7	19.3	0.00e+00	0	46	0	627048448	60	26727
2026-01-30 01:36:17.87	330.35	31.58	-55.1	-57.1	18.9	0.00e+00	0	46	0	629145600	60	28048
2026-01-30 01:36:18.87	329.99	31.60	-55.3	-57.5	18.6	0.00e+00	0	46	0	631242752	60	29374
2026-01-30 01:36:19.87	329.63	31.62	-55.4	-57.8	18.3	0.00e+00	0	46	0	632291328	60	30429
2026-01-30 01:36:20.88	329.27	31.63	-55.4	-57.8	18.2	0.00e+00	0	46	0	634388480	60	30277
2026-01-30 01:36:21.88	328.91	31.65	-55.2	-57.2	19.0	0.00e+00	0	46	0	636485632	60	28450
2026-01-30 01:36:22.88	328.56	31.66	-55.1	-57.0	19.2	0.00e+00	0	46	0	638582784	60	27869
2026-01-30 01:36:23.88	328.20	31.67	-55.2	-57.2	18.9	0.00e+00	0	46	0	640679936	60	28334
2026-01-30 01:36:24.89	327.83	31.68	-55.0	-57.0	19.0	0.00e+00	0	46	0	641728512	60	27754
2026-01-30 01:36:25.89	327.47	31.69	-54.8	-57.0	19.1	0.00e+00	0	46	0	643825664	60	27731
2026-01-30 01:36:26.90	327.11	31.69	-54.8	-57.0	18.9	0.00e+00	0	46	0	645922816	60	27713
2026-01-30 01:36:27.90	326.75	31.70	-54.8	-57.0	18.9	0.00e+00	0	46	0	648019968	60	27702
2026-01-30 01:36:28.91	326.39	31.70	-54.9	-57.0	19.1	0.00e+00	0	46	0	650117120	60	27752
2026-01-30 01:36:29.92	326.02	31.71	-55.1	-57.1	18.7	0.00e+00	0	46	0	651165696	60	28218
2026-01-30 01:36:30.93	325.66	31.71	-55.6	-57.7	18.4	0.00e+00	0	46	0	653262848	60	30022
2026-01-30 01:36:31.94	325.30	31.71	-55.6	-57.8	18.4	0.00e+00	0	46	0	655360000	60	30315
2026-01-30 01:36:32.95	324.93	31.71	-55.7	-58.0	18.3	0.00e+00	0	46	0	657457152	60	30977
2026-01-30 01:36:33.95	324.57	31.71	-55.7	-58.0	18.1	0.00e+00	0	46	0	658505728	60	31107
2026-01-30 01:36:34.96	324.21	31.70	-55.7	-58.0	18.4	0.00e+00	0	46	0	660602880	60	30952
2026-01-30 01:36:35.97	323.85	31.70	-55.6	-57.7	18.4	0.00e+00	0	46	0	662700032	60	30218
2026-01-30 01:36:36.97	323.49	31.69	-55.9	-58.1	17.9	0.00e+00	0	46	0	664797184	60	31507
2026-01-30 01:36:37.98	323.12	31.69	-55.8	-57.9	18.5	0.00e+00	0	46	0	666894336	60	30607
2026-01-30 01:36:38.98	322.76	31.68	-55.4	-57.4	18.7	0.00e+00	0	46	0	668991488	60	29108
2026-01-30 01:36:39.98	322.40	31.67	-55.2	-57.2	18.9	0.00e+00	0	46	0	670040064	60	28396
2026-01-30 01:36:40.99	322.04	31.66	-54.8	-56.7	19.5	0.00e+00	0	46	0	672137216	60	26647
2026-01-30 01:36:41.99	321.68	31.64	-54.3	-56.1	20.0	0.00e+00	0	45	0	674234368	60	24950
2026-01-30 01:36:43.00	321.32	31.63	-54.1	-55.8	20.2	0.00e+00	0	46	0	676331520	60	24155
2026-01-30 01:36:44.00	320.96	31.62	-54.3	-56.2	19.9	0.00e+00	0	46	0	678428672	60	25351
2026-01-30 01:36:45.02	320.60	31.60	-54.6	-56.8	19.3	0.00e+00	0	46	0	679477248	60	26959
2026-01-30 01:36:46.03	320.24	31.58	-55.2	-57.8	18.3	0.00e+00	0	46	0	681574400	60	30534
2026-01-30 01:36:47.03	319.88	31.56	-55.5	-58.4	17.7	0.00e+00	0	46	0	683671552	60	32776
2026-01-30 01:36:48.04	319.52	31.54	-55.3	-58.1	18.1	0.00e+00	0	46	0	685768704	60	31620
2026-01-30 01:36:49.04	319.16	31.52	-54.9	-57.3	18.9	0.00e+00	0	46	0	686817280	60	28634
2026-01-30 01:36:50.05	318.80	31.50	-54.8	-56.8	19.3	0.00e+00	0	46	0	688914432	60	27227
2026-01-30 01:36:51.05	318.45	31.48	-54.6	-56.4	19.6	0.00e+00	0	46	0	691011584	60	25875
2026-01-30 01:36:52.06	318.09	31.45	-54.8	-56.6	19.4	0.00e+00	0	46	0	693108736	60	26576
2026-01-30 01:36:53.06	317.74	31.42	-54.9	-56.7	19.2	0.00e+00	0	46	0	695205888	60	26756
2026-01-30 01:36:54.07	317.38	31.40	-55.3	-57.4	18.7	0.00e+00	0	46	0	697303040	60	28885
2026-01-30 01:36:55.08	317.02	31.37	-55.4	-57.5	18.5	0.00e+00	0	46	0	698351616	60	29228
2026-01-30 01:36:56.09	316.67	31.34	-55.4	-57.5	18.6	0.00e+00	0	46	0	700448768	60	29366
2026-01-30 01:36:57.09	316.31	31.31	-55.0	-57.0	19.1	0.00e+00	0	46	0	702545920	60	27831
2026-01-30 01:36:58.09	315.96	31.28	-54.5	-56.5	19.6	0.00e+00	0	46	0	704643072	60	26078
2026-01-30 01:36:59.10	315.61	31.24	-54.2	-56.4	19.7	0.00e+00	0	46	0	706740224	60	25967
2026-01-30 01:37:00.10	315.26	31.21	-54.0	-56.6	19.4	0.00e+00	0	46	0	707788800	60	26378
2026-01-30 01:37:01.12	314.90	31.17	-54.0	-57.2	18.7	0.00e+00	0	46	0	709885952	60	28386
2026-01-30 01:37:02.12	314.56	31.13	-54.0	-57.7	18.1	0.00e+00	0	46	0	711983104	60	29995
2026-01-30 01:37:03.13	314.21	31.10	-54.1	-58.0	17.9	0.00e+00	0	46	0	714080256	60	30961
2026-01-30 01:37:04.13	313.86	31.06	-54.2	-58.0	18.0	0.00e+00	0	45	0	715128832	60	31074
2026-01-30 01:37:05.14	313.51	31.02	-54.0	-57.4	18.3	0.00e+00	0	46	0	717225984	60	29108
2026-01-30 01:37:06.15	313.16	30.98	-53.8	-56.7	19.0	0.00e+00	0	46	0	719323136	60	26940
2026-01-30 01:37:07.15	312.82	30.93	-53.5	-55.9	20.0	0.00e+00	0	45	0	721420288	60	24361
2026-01-30 01:37:08.16	312.47	30.89	-53.7	-55.8	19.9	0.00e+00	0	46	0	723517440	60	24251
2026-01-30 01:37:09.17	312.13	30.84	-53.8	-55.9	19.9	0.00e+00	0	46	0	724566016	60	24358
2026-01-30 01:37:10.17	311.79	30.80	-53.8	-55.7	20.1	0.00e+00	0	46	0	726663168	60	23906
2026-01-30 01:37:11.18	311.44	30.75	-54.2	-56.1	19.7	0.00e+00	0	46	0	728760320	60	24884
2026-01-30 01:37:12.19	311.10	30.70	-54.0	-55.8	19.7	0.00e+00	0	46	0	730857472	60	24119
2026-01-30 01:37:13.19	310.76	30.65	-54.4	-56.4	19.2	0.00e+00	0	46	0	732954624	60	25789
2026-01-30 01:37:14.20	310.42	30.60	-54.8	-57.2	18.6	0.00e+00	0	46	0	735051776	60	28347
2026-01-30 01:37:15.20	310.09	30.55	-54.8	-57.3	18.1	0.00e+00	0	46	0	736100352	60	28873
2026-01-30 01:37:16.20	309.75	30.50	-55.0	-57.8	17.7	0.00e+00	0	46	0	738197504	60	30526
2026-01-30 01:37:17.20	309.42	30.45	-54.9	-57.8	17.8	0.00e+00	0	46	0	740294656	60	30476
2026-01-30 01:37:18.21	309.08	30.39	-54.0	-56.3	19.0	0.00e+00	0	45	0	742391808	60	25544
2026-01-30 01:37:19.22	308.75	30.34	-53.4	-55.6	19.6	0.00e+00	0	45	0	743440384	60	23518
2026-01-30 01:37:20.23	308.41	30.28	-53.5	-55.6	19.6	0.00e+00	0	45	0	745537536	60	23688
2026-01-30 01:37:21.23	308.09	30.22	-53.7	-56.0	19.3	0.00e+00	0	45	0	747634688	60	24683
2026-01-30 01:37:22.24	307.75	30.17	-53.8	-56.0	19.4	0.00e+00	0	45	0	749731840	60	24701
2026-01-30 01:37:23.25	307.42	30.11	-53.5	-55.6	19.7	0.00e+00	0	45	0	751828992	60	23714
2026-01-30 01:37:24.25	307.10	30.05	-53.8	-55.9	19.3	0.00e+00	0	46	0	752877568	60	24541
2026-01-30 01:37:25.26	306.77	29.99	-53.9	-56.0	19.3	0.00e+00	0	46	0	754974720	60	24692
2026-01-30 01:37:26.27	306.45	29.92	-54.1	-56.3	18.9	0.00e+00	0	46	0	757071872	60	25628
2026-01-30 01:37:27.27	306.12	29.86	-54.5	-56.8	18.8	0.00e+00	0	46	0	759169024	60	26952
2026-01-30 01:37:28.28	305.80	29.80	-54.6	-56.8	18.7	0.00e+00	0	46	0	761266176	60	27096
2026-01-30 01:37:29.29	305.48	29.73	-54.8	-57.0	18.5	0.00e+00	0	46	0	763363328	60	27786
2026-01-30 01:37:30.30	305.16	29.67	-55.2	-57.5	18.1	0.00e+00	0	45	0	764411904	60	29236
2026-01-30 01:37:31.30	304.84	29.60	-55.2	-57.4	18.0	0.00e+00	0	45	0	766509056	60	29160
2026-01-30 01:37:32.31	304.52	29.53	-55.1	-57.2	18.4	0.00e+00	0	45	0	768606208	60	28473
2026-01-30 01:37:33.31	304.21	29.47	-55.1	-57.2	18.6	0.00e+00	0	46	0	770703360	60	28223
2026-01-30 01:37:34.32	303.89	29.40	-55.1	-57.1	18.4	0.00e+00	0	45	0	771751936	60	28175
2026-01-30 01:37:35.32	303.58	29.33	-55.4	-57.6	18.1	0.00e+00	0	45	0	773849088	60	29624
2026-01-30 01:37:36.33	303.27	29.26	-55.8	-58.2	17.6	0.00e+00	0	45	0	775946240	60	31886
2026-01-30 01:37:37.34	302.96	29.19	-56.0	-58.5	17.2	0.00e+00	0	46	0	778043392	60	33002
2026-01-30 01:37:38.35	302.64	29.11	-56.1	-58.7	17.2	0.00e+00	0	45	0	780140544	60	33672
2026-01-30 01:37:39.36	302.34	29.04	-56.1	-58.7	17.1	0.00e+00	0	46	0	781189120	60	33867
2026-01-30 01:37:40.37	302.03	28.97	-56.1	-58.8	16.9	0.00e+00	0	46	0	783286272	60	34107
2026-01-30 01:37:41.37	301.73	28.89	-56.0	-58.6	17.1	0.00e+00	0	46	0	785383424	60	33459
2026-01-30 01:37:42.37	301.42	28.82	-55.9	-58.4	17.4	0.00e+00	0	46	0	787480576	60	32685
2026-01-30 01:37:43.38	301.12	28.74	-55.6	-58.1	17.7	0.00e+00	0	46	0	789577728	60	31436
2026-01-30 01:37:44.39	300.82	28.67	-55.6	-58.2	17.4	0.00e+00	0	45	0	791674880	60	31890
2026-01-30 01:37:45.39	300.52	28.59	-55.6	-58.2	17.6	0.00e+00	0	46	0	792723456	60	31854
2026-01-30 01:37:46.40	300.22	28.51	-55.8	-58.6	17.2	0.00e+00	0	46	0	794820608	60	33181
2026-01-30 01:37:47.41	299.93	28.43	-55.3	-57.7	18.1	0.00e+00	0	46	0	796917760	60	29943
2026-01-30 01:37:48.42	299.63	28.36	-55.0	-57.3	18.4	0.00e+00	0	46	0	799014912	60	28608
2026-01-30 01:37:49.43	299.33	28.28	-54.6	-56.7	18.8	0.00e+00	0	46	0	800063488	60	26815
2026-01-30 01:37:50.43	299.04	28.20	-54.3	-56.3	19.3	0.00e+00	0	46	0	802160640	60	25592
2026-01-30 01:37:51.44	298.75	28.12	-53.7	-55.4	20.2	0.00e+00	0	45	0	804257792	60	23055
2026-01-30 01:37:52.45	298.46	28.03	-53.2	-54.8	20.7	0.00e+00	0	46	0	806354944	60	21525
2026-01-30 01:37:53.46	298.17	27.95	-53.0	-54.5	21.2	0.00e+00	0	46	0	808452096	60	20792
2026-01-30 01:37:54.47	297.89	27.87	-53.0	-54.6	20.9	0.00e+00	0	46	0	809500672	60	20963
2026-01-30 01:37:55.47	297.60	27.79	-53.4	-55.1	20.5	0.00e+00	0	46	0	811597824	60	22274
2026-01-30 01:37:56.48	297.32	27.70	-53.4	-55.1	20.7	0.00e+00	0	46	0	813694976	60	22356
2026-01-30 01:37:57.49	297.04	27.62	-53.2	-54.9	20.8	0.00e+00	0	46	0	815792128	60	21701
2026-01-30 01:37:58.49	296.76	27.54	-52.9	-54.5	21.0	0.00e+00	0	46	0	817889280	60	20773
2026-01-30 01:37:59.50	296.48	27.45	-53.2	-54.9	20.4	0.00e+00	0	46	0	819986432	60	21757
2026-01-30 01:38:00.50	296.20	27.36	-53.8	-55.7	19.7	0.00e+00	0	46	0	821035008	60	23997
2026-01-30 01:38:01.51	295.93	27.28	-54.1	-56.2	19.4	0.00e+00	0	46	0	823132160	60	25351
2026-01-30 01:38:02.51	295.66	27.19	-53.6	-55.5	20.0	0.00e+00	0	46	0	825229312	60	23267
2026-01-30 01:38:03.52	295.38	27.11	-53.4	-55.1	20.3	0.00e+00	0	46	0	827326464	60	22273
2026-01-30 01:38:04.51	295.12	27.02	-53.0	-54.6	20.6	0.00e+00	0	46	0	828375040	60	21112
2026-01-30 01:38:05.52	294.84	26.93	-53.3	-55.0	20.3	0.00e+00	0	46	0	830472192	60	22130
2026-01-30 01:38:06.53	294.58	26.84	-53.8	-55.7	19.7	0.00e+00	0	46	0	832569344	60	23773
2026-01-30 01:38:07.53	294.31	26.76	-54.6	-56.7	18.7	0.00e+00	0	46	0	834666496	60	26928
2026-01-30 01:38:08.54	294.04	26.67	-55.4	-57.9	17.7	0.00e+00	0	46	0	836763648	60	30806
2026-01-30 01:38:09.54	293.78	26.58	-55.6	-58.2	17.6	0.00e+00	0	46	0	837812224	60	31778
2026-01-30 01:38:10.55	293.52	26.49	-55.2	-57.6	17.9	0.00e+00	0	46	0	839909376	60	29886
2026-01-30 01:38:11.56	293.26	26.40	-55.3	-57.8	17.8	0.00e+00	0	46	0	842006528	60	30484
2026-01-30 01:38:12.57	293.00	26.31	-54.9	-57.3	18.3	0.00e+00	0	46	0	844103680	60	28710
2026-01-30 01:38:13.58	292.74	26.22	-54.2	-56.3	19.2	0.00e+00	0	46	0	846200832	60	25663
2026-01-30 01:38:14.58	292.48	26.13	-53.8	-56.0	19.4	0.00e+00	0	46	0	848297984	60	24630
2026-01-30 01:38:15.59	292.23	26.03	-53.5	-55.7	20.0	0.00e+00	0	46	0	849346560	60	23782
2026-01-30 01:38:16.60	291.97	25.94	-53.5	-55.7	19.7	0.00e+00	0	45	0	851443712	60	23858
2026-01-30 01:38:17.60	291.72	25.85	-53.1	-55.4	19.8	0.00e+00	0	46	0	853540864	60	23086
2026-01-30 01:38:18.61	291.47	25.76	-53.2	-55.6	19.5	0.00e+00	0	45	0	855638016	60	23510
2026-01-30 01:38:19.62	291.22	25.67	-52.5	-54.7	20.3	0.00e+00	0	46	0	856686592	60	21385
2026-01-30 01:38:20.62	290.98	25.57	-52.0	-54.2	20.7	0.00e+00	0	45	0	858783744	60	19987
2026-01-30 01:38:21.63	290.73	25.48	-51.7	-53.9	20.7	0.00e+00	0	46	0	860880896	60	19333
2026-01-30 01:38:22.63	290.49	25.39	-51.6	-53.8	20.7	0.00e+00	0	46	0	862978048	60	19186
2026-01-30 01:38:23.64	290.24	25.29	-51.6	-53.8	20.8	0.00e+00	0	45	0	865075200	60	19184
2026-01-30 01:38:24.65	290.00	25.20	-51.6	-53.9	20.6	0.00e+00	0	45	0	866123776	60	19339
2026-01-30 01:38:25.65	289.76	25.11	-51.6	-53.8	20.5	0.00e+00	0	46	0	868220928	60	19255
2026-01-30 01:38:26.66	289.52	25.01	-51.5	-53.7	20.4	0.00e+00	0	46	0	870318080	60	18980
2026-01-30 01:38:27.67	289.28	24.92	-51.5	-53.7	20.6	0.00e+00	0	46	0	872415232	60	19061
2026-01-30 01:38:28.67	289.05	24.82	-51.5	-53.7	20.7	0.00e+00	0	46	0	874512384	60	18961
2026-01-30 01:38:29.68	288.81	24.73	-51.7	-53.9	20.5	0.00e+00	0	46	0	876609536	60	19481
2026-01-30 01:38:30.69	288.58	24.63	-51.9	-54.3	20.2	0.00e+00	0	46	0	877658112	60	20275
2026-01-30 01:38:31.70	288.35	24.54	-52.0	-54.3	20.1	0.00e+00	0	46	0	879755264	60	20385
2026-01-30 01:38:32.70	288.12	24.44	-52.3	-54.7	19.8	0.00e+00	0	46	0	881852416	60	21177
2026-01-30 01:38:33.71	287.89	24.35	-52.3	-54.7	19.8	0.00e+00	0	46	0	883949568	60	21286
2026-01-30 01:38:34.72	287.66	24.25	-52.5	-54.8	20.0	0.00e+00	0	46	0	884998144	60	21616
2026-01-30 01:38:35.72	287.44	24.15	-52.7	-55.0	19.7	0.00e+00	0	46	0	887095296	60	22149
2026-01-30 01:38:36.73	287.21	24.06	-52.8	-55.1	19.7	0.00e+00	0	45	0	889192448	60	22243
2026-01-30 01:38:37.74	286.99	23.96	-52.7	-54.9	19.9	0.00e+00	0	46	0	891289600	60	21880
2026-01-30 01:38:38.74	286.77	23.87	-52.8	-55.0	19.9	0.00e+00	0	46	0	893386752	60	21930
2026-01-30 01:38:39.75	286.55	23.77	-52.7	-54.8	19.8	0.00e+00	0	46	0	894435328	60	21578
2026-01-30 01:38:40.75	286.33	23.67	-52.9	-55.0	19.9	0.00e+00	0	46	0	896532480	60	22006
2026-01-30 01:38:41.76	286.11	23.58	-52.9	-55.0	20.0	0.00e+00	0	46	0	898629632	60	22020
2026-01-30 01:38:42.77	285.89	23.48	-52.6	-54.5	20.4	0.00e+00	0	46	0	900726784	60	20871
2026-01-30 01:38:43.78	285.68	23.38	-52.2	-54.1	20.7	0.00e+00	0	45	0	902823936	60	19958
2026-01-30 01:38:44.78	285.46	23.29	-52.0	-53.8	21.1	0.00e+00	0	46	0	904921088	60	19186
2026-01-30 01:38:45.79	285.25	23.19	-51.9	-53.6	21.1	0.00e+00	0	46	0	905969664	60	18824
2026-01-30 01:38:46.79	285.04	23.09	-51.4	-53.1	21.5	0.00e+00	0	46	0	908066816	60	17682
2026-01-30 01:38:47.80	284.83	23.00	-50.9	-52.5	21.9	0.00e+00	0	46	0	910163968	60	16507
2026-01-30 01:38:48.80	284.62	22.90	-50.8	-52.3	22.0	0.00e+00	0	46	0	912261120	60	16238
2026-01-30 01:38:49.81	284.41	22.80	-50.9	-52.5	21.8	0.00e+00	0	46	0	913309696	60	16470
2026-01-30 01:38:50.82	284.21	22.71	-51.0	-52.7	21.5	0.00e+00	0	46	0	915406848	60	16848
2026-01-30 01:38:51.83	284.00	22.61	-51.1	-52.9	21.2	0.00e+00	0	46	0	917504000	60	17396
2026-01-30 01:38:52.83	283.80	22.51	-51.4	-53.3	20.9	0.00e+00	0	46	0	919601152	60	18164
2026-01-30 01:38:53.84	283.60	22.41	-51.6	-53.6	20.8	0.00e+00	0	46	0	921698304	60	18820
2026-01-30 01:38:54.85	283.40	22.32	-51.5	-53.5	20.8	0.00e+00	0	46	0	922746880	60	18525
2026-01-30 01:38:55.86	283.20	22.22	-51.3	-53.3	20.9	0.00e+00	0	46	0	924844032	60	18100
2026-01-30 01:38:56.86	283.00	22.12	-51.3	-53.3	20.8	0.00e+00	0	46	0	926941184	60	18076
2026-01-30 01:38:57.87	282.80	22.03	-51.1	-53.1	20.9	0.00e+00	0	46	0	929038336	60	17677
2026-01-30 01:38:58.88	282.61	21.93	-51.1	-53.1	20.9	0.00e+00	0	46	0	931135488	60	17615
2026-01-30 01:38:59.89	282.41	21.83	-51.2	-53.2	20.7	0.00e+00	0	46	0	933232640	60	18002
2026-01-30 01:39:00.90	282.22	21.73	-51.5	-53.7	20.3	0.00e+00	0	46	0	934281216	60	18886
2026-01-30 01:39:01.91	282.02	21.64	-51.5	-53.7	20.2	0.00e+00	0	46	0	936378368	60	18906
2026-01-30 01:39:02.91	281.83	21.54	-51.4	-53.5	20.4	0.00e+00	0	46	0	938475520	60	18595
2026-01-30 01:39:03.92	281.64	21.44	-51.5	-53.6	20.3	0.00e+00	0	46	0	940572672	60	18792
2026-01-30 01:39:04.93	281.45	21.34	-51.5	-53.5	20.2	0.00e+00	0	46	0	941621248	60	18602
2026-01-30 01:39:05.93	281.27	21.25	-51.7	-53.8	20.1	0.00e+00	0	46	0	943718400	60	19287
2026-01-30 01:39:06.93	281.08	21.15	-52.0	-54.2	20.0	0.00e+00	0	46	0	945815552	60	20102
2026-01-30 01:39:07.94	280.90	21.05	-51.7	-53.7	20.3	0.00e+00	0	46	0	947912704	60	19064
2026-01-30 01:39:08.95	280.71	20.96	-51.7	-53.8	20.4	0.00e+00	0	46	0	950009856	60	19102
2026-01-30 01:39:09.96	280.53	20.86	-51.5	-53.5	20.5	0.00e+00	0	46	0	951058432	60	18487
2026-01-30 01:39:10.97	280.35	20.76	-51.4	-53.4	20.6	0.00e+00	0	46	0	953155584	60	18286
2026-01-30 01:39:11.97	280.17	20.67	-51.1	-52.8	21.0	0.00e+00	0	46	0	955252736	60	17179
2026-01-30 01:39:12.98	279.99	20.57	-51.1	-52.8	20.9	0.00e+00	0	46	0	957349888	60	17180
2026-01-30 01:39:13.98	279.81	20.47	-51.2	-52.9	21.1	0.00e+00	0	46	0	959447040	60	17309
2026-01-30 01:39:14.99	279.64	20.38	-51.3	-53.1	21.0	0.00e+00	0	45	0	961544192	60	17630
2026-01-30 01:39:16.00	279.46	20.28	-51.3	-53.1	20.8	0.00e+00	0	46	0	962592768	60	17660
2026-01-30 01:39:17.01	279.28	20.19	-51.8	-53.7	20.3	0.00e+00	0	46	0	964689920	60	19003
2026-01-30 01:39:18.02	279.11	20.09	-52.1	-54.1	19.9	0.00e+00	0	46	0	966787072	60	19860
2026-01-30 01:39:19.02	278.94	19.99	-52.1	-54.1	20.0	0.00e+00	0	46	0	968884224	60	19851
2026-01-30 01:39:20.03	278.77	19.90	-52.5	-54.6	19.8	0.00e+00	0	46	0	969932800	60	21076
2026-01-30 01:39:21.04	278.60	19.80	-52.4	-54.5	19.7	0.00e+00	0	46	0	972029952	60	20767
2026-01-30 01:39:22.05	278.43	19.70	-52.3	-54.4	19.8	0.00e+00	0	46	0	974127104	60	20515
2026-01-30 01:39:23.06	278.26	19.61	-51.9	-53.7	20.3	0.00e+00	0	46	0	976224256	60	19054
2026-01-30 01:39:24.06	278.09	19.51	-51.7	-53.5	20.7	0.00e+00	0	46	0	978321408	60	18632
2026-01-30 01:39:25.07	277.93	19.42	-51.3	-53.0	21.0	0.00e+00	0	46	0	979369984	60	17505
2026-01-30 01:39:26.07	277.76	19.32	-51.3	-52.9	21.2	0.00e+00	0	46	0	981467136	60	17305
2026-01-30 01:39:27.07	277.60	19.23	-51.4	-53.0	21.2	0.00e+00	0	45	0	983564288	60	17434
2026-01-30 01:39:28.08	277.44	19.13	-51.3	-52.8	21.4	0.00e+00	0	45	0	985661440	60	17038
2026-01-30 01:39:29.09	277.27	19.04	-51.4	-52.9	21.2	0.00e+00	0	46	0	987758592	60	17244
2026-01-30 01:39:30.10	277.11	18.94	-51.6	-53.2	21.1	0.00e+00	0	46	0	989855744	60	17887
2026-01-30 01:39:31.10	276.95	18.85	-51.8	-53.4	20.9	0.00e+00	0	46	0	990904320	60	18249
2026-01-30 01:39:32.10	276.80	18.75	-52.0	-53.6	20.8	0.00e+00	0	46	0	993001472	60	18767
2026-01-30 01:39:33.11	276.64	18.66	-52.3	-54.1	20.3	0.00e+00	0	46	0	995098624	60	19767
2026-01-30 01:39:34.12	276.48	18.57	-52.4	-54.2	20.2	0.00e+00	0	46	0	997195776	60	20041
2026-01-30 01:39:35.13	276.32	18.47	-52.7	-54.6	19.7	0.00e+00	0	46	0	998244352	60	21152
2026-01-30 01:39:36.13	276.17	18.38	-53.1	-55.1	19.4	0.00e+00	0	46	0	1000341504	60	22242
2026-01-30 01:39:37.14	276.02	18.28	-53.2	-55.3	19.1	0.00e+00	0	46	0	1002438656	60	22899
2026-01-30 01:39:38.15	275.86	18.19	-53.2	-55.3	19.2	0.00e+00	0	46	0	1004535808	60	22747
2026-01-30 01:39:39.16	275.71	18.10	-53.1	-55.1	19.4	0.00e+00	0	46	0	1006632960	60	22196
2026-01-30 01:39:40.16	275.56	18.00	-53.0	-54.9	19.7	0.00e+00	0	46	0	1007681536	60	21866
2026-01-30 01:39:41.17	275.41	17.91	-52.7	-54.5	20.0	0.00e+00	0	46	0	1009778688	60	20777
2026-01-30 01:39:42.17	275.26	17.82	-52.8	-54.5	20.1	0.00e+00	0	45	0	1011875840	60	20734
2026-01-30 01:39:43.18	275.11	17.72	-52.3	-53.9	20.5	0.00e+00	0	45	0	1013972992	60	19498
2026-01-30 01:39:44.18	274.97	17.63	-52.5	-54.1	20.4	0.00e+00	0	45	0	1016070144	60	19859
2026-01-30 01:39:45.19	274.82	17.54	-52.4	-54.0	20.4	0.00e+00	0	46	0	1018167296	60	19739
2026-01-30 01:39:46.20	274.67	17.44	-52.7	-54.4	20.2	0.00e+00	0	46	0	1019215872	60	20617
2026-01-30 01:39:47.20	274.53	17.35	-53.2	-55.1	19.5	0.00e+00	0	46	0	1021313024	60	22182
2026-01-30 01:39:48.21	274.39	17.26	-53.2	-55.0	19.5	0.00e+00	0	46	0	1023410176	60	22158
2026-01-30 01:39:49.22	274.24	17.17	-53.3	-55.2	19.2	0.00e+00	0	45	0	1025507328	60	22589
2026-01-30 01:39:50.22	274.10	17.08	-53.4	-55.4	19.3	0.00e+00	0	46	0	1026555904	60	22992
2026-01-30 01:39:51.23	273.96	16.98	-53.3	-55.2	19.4	0.00e+00	0	46	0	1028653056	60	22622
2026-01-30 01:39:52.24	273.82	16.89	-53.0	-54.8	19.8	0.00e+00	0	46	0	1030750208	60	21533
2026-01-30 01:39:53.24	273.68	16.80	-53.0	-54.8	19.7	0.00e+00	0	46	0	1032847360	60	21500
2026-01-30 01:39:54.25	273.54	16.71	-52.9	-54.6	20.0	0.00e+00	0	46	0	1034944512	60	21045
2026-01-30 01:39:55.26	273.40	16.62	-53.0	-54.7	20.0	0.00e+00	0	46	0	1035993088	60	21282
2026-01-30 01:39:56.26	273.27	16.53	-53.0	-54.7	20.0	0.00e+00	0	46	0	1038090240	60	21163
2026-01-30 01:39:57.26	273.13	16.44	-52.7	-54.2	20.4	0.00e+00	0	46	0	1040187392	60	20175
2026-01-30 01:39:58.27	273.00	16.35	-52.6	-54.1	20.4	0.00e+00	0	46	0	1042284544	60	19914
2026-01-30 01:39:59.27	272.86	16.26	-52.7	-54.3	20.2	0.00e+00	0	46	0	1044381696	60	20405
2026-01-30 01:40:00.28	272.73	16.17	-52.7	-54.2	20.3	0.00e+00	0	46	0	1046478848	60	20125
2026-01-30 01:40:01.29	272.60	16.08	-52.1	-53.6	20.9	0.00e+00	0	46	0	1047527424	60	18681
2026-01-30 01:40:02.30	272.47	15.99	-52.5	-54.0	20.5	0.00e+00	0	46	0	1049624576	60	19622
2026-01-30 01:40:03.30	272.34	15.90	-52.4	-53.9	20.6	0.00e+00	0	46	0	1051721728	60	19364
2026-01-30 01:40:04.31	272.20	15.81	-52.4	-53.8	20.6	0.00e+00	0	46	0	1053818880	60	19298
2026-01-30 01:40:05.32	272.07	15.72	-52.5	-54.1	20.4	0.00e+00	0	46	0	1054867456	60	19771
2026-01-30 01:40:06.33	271.95	15.63	-52.6	-54.2	20.3	0.00e+00	0	46	0	1056964608	60	20023
2026-01-30 01:40:07.34	271.82	15.54	-52.7	-54.3	20.2	0.00e+00	0	46	0	1059061760	60	20295
2026-01-30 01:40:08.34	271.69	15.45	-52.8	-54.4	20.1	0.00e+00	0	46	0	1061158912	60	20572
2026-01-30 01:40:09.35	271.56	15.36	-52.8	-54.4	20.1	0.00e+00	0	46	0	1063256064	60	20506
2026-01-30 01:40:10.36	271.44	15.27	-52.5	-54.0	20.5	0.00e+00	0	46	0	1064304640	60	19550
2026-01-30 01:40:11.37	271.31	15.18	-52.5	-54.0	20.5	0.00e+00	0	46	0	1066401792	60	19701
2026-01-30 01:40:12.38	271.19	15.10	-52.4	-53.9	20.5	0.00e+00	0	46	0	1068498944	60	19320
2026-01-30 01:40:13.38	271.07	15.01	-52.4	-53.8	20.6	0.00e+00	0	46	0	1070596096	60	19280
2026-01-30 01:40:14.39	270.94	14.92	-52.4	-53.9	20.5	0.00e+00	0	46	0	1072693248	60	19317
2026-01-30 01:40:15.39	270.82	14.83	-52.3	-53.7	20.8	0.00e+00	0	46	0	1074790400	60	18996
2026-01-30 01:40:16.40	270.70	14.75	-52.5	-54.1	20.5	0.00e+00	0	46	0	1075838976	60	19807
2026-01-30 01:40:17.40	270.58	14.66	-52.7	-54.3	20.1	0.00e+00	0	46	0	1077936128	60	20236
2026-01-30 01:40:18.41	270.46	14.57	-53.1	-54.8	19.7	0.00e+00	0	46	0	1080033280	60	21563
2026-01-30 01:40:19.42	270.34	14.48	-53.3	-55.1	19.4	0.00e+00	0	46	0	1082130432	60	22398
2026-01-30 01:40:20.42	270.23	14.40	-53.7	-55.7	18.9	0.00e+00	0	46	0	1083179008	60	23830
2026-01-30 01:40:21.43	270.11	14.31	-54.1	-56.2	18.5	0.00e+00	0	46	0	1085276160	60	25251
2026-01-30 01:40:22.43	269.99	14.23	-54.1	-56.2	18.3	0.00e+00	0	46	0	1087373312	60	25353
2026-01-30 01:40:23.44	269.88	14.14	-54.3	-56.4	18.3	0.00e+00	0	46	0	1089470464	60	25861
2026-01-30 01:40:24.45	269.76	14.05	-53.9	-55.9	18.7	0.00e+00	0	46	0	1091567616	60	24492
2026-01-30 01:40:25.45	269.65	13.97	-53.8	-55.7	19.0	0.00e+00	0	46	0	1092616192	60	23979
2026-01-30 01:40:26.46	269.53	13.88	-53.4	-55.1	19.4	0.00e+00	0	46	0	1094713344	60	22333
2026-01-30 01:40:27.46	269.42	13.80	-53.2	-54.9	19.7	0.00e+00	0	46	0	1096810496	60	21658
2026-01-30 01:40:28.47	269.31	13.71	-52.5	-54.0	20.4	0.00e+00	0	46	0	1098907648	60	19737
2026-01-30 01:40:29.48	269.19	13.63	-52.3	-53.8	20.6	0.00e+00	0	46	0	1101004800	60	19187
2026-01-30 01:40:30.48	269.08	13.54	-52.1	-53.6	20.8	0.00e+00	0	46	0	1103101952	60	18680
2026-01-30 01:40:31.49	268.97	13.46	-52.0	-53.4	21.0	0.00e+00	0	46	0	1104150528	60	18291
2026-01-30 01:40:32.50	268.86	13.37	-52.0	-53.4	20.9	0.00e+00	0	46	0	1106247680	60	18256
2026-01-30 01:40:33.51	268.75	13.29	-52.1	-53.6	20.8	0.00e+00	0	46	0	1108344832	60	18722
2026-01-30 01:40:34.51	268.64	13.21	-52.3	-53.8	20.5	0.00e+00	0	46	0	1110441984	60	19162
2026-01-30 01:40:35.52	268.53	13.12	-52.5	-54.1	20.2	0.00e+00	0	46	0	1111490560	60	19885
2026-01-30 01:40:36.53	268.43	13.04	-52.9	-54.6	19.9	0.00e+00	0	46	0	1113587712	60	21009
2026-01-30 01:40:37.53	268.32	12.95	-53.4	-55.2	19.3	0.00e+00	0	46	0	1115684864	60	22568
2026-01-30 01:40:38.54	268.21	12.87	-53.5	-55.4	19.1	0.00e+00	0	46	0	1117782016	60	23107
2026-01-30 01:40:39.55	268.11	12.79	-53.9	-55.9	18.6	0.00e+00	0	46	0	1119879168	60	24408
2026-01-30 01:40:40.56	268.00	12.70	-54.1	-56.2	18.4	0.00e+00	0	46	0	1120927744	60	25219
2026-01-30 01:40:41.57	267.90	12.62	-54.4	-56.6	17.9	0.00e+00	0	46	0	1123024896	60	26457
2026-01-30 01:40:42.58	267.79	12.54	-54.5	-56.9	17.7	0.00e+00	0	46	0	1125122048	60	27318
2026-01-30 01:40:43.58	267.69	12.46	-54.5	-56.8	17.7	0.00e+00	0	46	0	1127219200	60	26972
2026-01-30 01:40:44.59	267.59	12.37	-54.5	-56.8	17.8	0.00e+00	0	46	0	1129316352	60	27008
2026-01-30 01:40:45.60	267.49	12.29	-54.5	-56.8	17.6	0.00e+00	0	46	0	1131413504	60	27112
2026-01-30 01:40:46.60	267.38	12.21	-54.5	-56.8	17.7	0.00e+00	0	46	0	1132462080	60	27019
2026-01-30 01:40:47.60	267.28	12.13	-54.6	-56.8	17.7	0.00e+00	0	46	0	1134559232	60	27216
2026-01-30 01:40:48.60	267.18	12.05	-54.6	-56.8	17.8	0.00e+00	0	46	0	1136656384	60	27071
