passes_logs/2026/01/30/R3.2S-Naryan-Mar/R3.2S-Naryan-Mar__20260130_064623_NOAA_20_JPSS-1_rec.log

#Pass ID: 20260130_064623_NOAA 20 (JPSS-1)
#Satellite: NOAA 20 (JPSS-1)
#Configuration: NOAA 20
#almurnet v.1.7.20240730
#Start time: 2026-01-30 06:46:24

#Version: 2.2.20231116
#Station: R3.2S-Naryan-Mar
#Location: 53.008057 lon 67.646978 lat
#TLE: 1 43013U 17073A   26029.42702672  .00000137  00000+0  85918-4 0  9993
#TLE: 2 43013  98.7646 330.2153 0000804  19.9045 340.2162 14.19525092424781

#Time	Az	El	Level	Level2	SNR	BER	BlckErr	Temp	State	Recorded	gain1	gain2
2026-01-30 06:46:24.76	117.93	0.10	-62.7	-79.2	3.5	1.51e+00	0	43	0	0	60	356326
2026-01-30 06:46:25.76	117.90	0.15	-62.2	-79.2	3.6	1.51e+00	0	44	104	0	60	355548
2026-01-30 06:46:26.77	117.87	0.21	-62.3	-79.4	3.6	1.51e+00	0	44	104	0	60	364405
2026-01-30 06:46:27.78	117.84	0.27	-61.8	-79.4	3.6	1.51e+00	0	44	104	0	60	366035
2026-01-30 06:46:28.79	117.80	0.33	-61.0	-79.1	3.6	1.51e+00	0	44	104	0	60	354671
2026-01-30 06:46:29.79	117.77	0.39	-60.7	-78.8	3.6	1.51e+00	0	44	104	0	60	342985
2026-01-30 06:46:30.80	117.74	0.45	-61.5	-79.0	3.6	1.51e+00	0	44	104	0	60	350746
2026-01-30 06:46:31.81	117.71	0.51	-62.1	-79.3	3.6	1.51e+00	0	44	104	0	60	362871
2026-01-30 06:46:32.82	117.67	0.57	-61.7	-79.2	3.5	1.51e+00	0	44	104	0	60	356198
2026-01-30 06:46:33.83	117.64	0.63	-62.3	-79.4	3.6	1.51e+00	0	44	104	0	60	364298
2026-01-30 06:46:34.83	117.61	0.69	-63.0	-79.5	3.6	1.51e+00	0	44	104	0	60	367816
2026-01-30 06:46:35.84	117.57	0.75	-62.4	-79.3	3.6	1.51e+00	0	44	104	0	60	360568
2026-01-30 06:46:36.85	117.54	0.81	-63.0	-79.4	3.6	1.51e+00	0	44	104	0	60	366407
2026-01-30 06:46:37.85	117.51	0.87	-62.9	-79.5	3.6	1.51e+00	0	44	104	0	60	369192
2026-01-30 06:46:38.85	117.47	0.93	-62.9	-79.4	3.6	1.51e+00	0	44	104	0	60	364736
2026-01-30 06:46:39.86	117.44	0.99	-62.9	-79.4	3.6	1.51e+00	0	45	104	0	60	367022
2026-01-30 06:46:40.87	117.41	1.05	-62.5	-79.2	3.6	1.51e+00	0	44	104	0	60	357453
2026-01-30 06:46:41.87	117.37	1.11	-62.6	-79.3	3.6	1.51e+00	0	45	104	0	60	360475
2026-01-30 06:46:42.88	117.34	1.17	-62.8	-79.3	3.6	1.51e+00	0	44	104	0	60	360813
2026-01-30 06:46:43.89	117.30	1.23	-62.5	-79.3	3.6	1.51e+00	0	45	104	0	60	360873
2026-01-30 06:46:44.90	117.27	1.29	-62.2	-79.1	3.6	1.51e+00	0	44	104	0	60	355114
2026-01-30 06:46:45.91	117.24	1.35	-61.8	-78.9	3.6	1.51e+00	0	45	104	0	60	344047
2026-01-30 06:46:46.92	117.20	1.42	-61.6	-79.0	3.6	1.51e+00	0	45	104	0	60	348560
2026-01-30 06:46:47.92	117.17	1.48	-61.8	-78.8	3.6	1.51e+00	0	45	104	0	60	339360
2026-01-30 06:46:48.93	117.13	1.54	-61.3	-78.5	3.6	1.51e+00	0	45	104	0	60	330147
2026-01-30 06:46:49.94	117.09	1.60	-61.7	-78.5	3.6	1.51e+00	0	45	104	0	60	330853
2026-01-30 06:46:50.94	117.06	1.66	-61.1	-78.0	3.6	1.51e+00	0	45	104	0	60	311889
2026-01-30 06:46:51.95	117.02	1.72	-61.1	-78.2	3.6	1.51e+00	0	45	104	0	60	317986
2026-01-30 06:46:52.96	116.99	1.78	-61.0	-78.3	3.6	1.51e+00	0	45	104	0	60	321479
2026-01-30 06:46:53.96	116.95	1.85	-61.0	-78.0	3.6	1.51e+00	0	45	104	0	60	312152
2026-01-30 06:46:54.97	116.92	1.91	-61.0	-77.8	3.6	1.51e+00	0	45	104	0	60	304503
2026-01-30 06:46:55.97	116.88	1.97	-61.2	-77.8	3.6	1.51e+00	0	45	104	0	60	305633
2026-01-30 06:46:56.98	116.84	2.03	-60.9	-77.6	3.6	1.51e+00	0	45	104	0	60	298107
2026-01-30 06:46:57.99	116.81	2.10	-60.3	-77.3	3.6	1.51e+00	0	45	104	0	60	287260
2026-01-30 06:46:59.00	116.77	2.16	-60.2	-77.1	3.6	1.51e+00	0	45	104	0	60	280475
2026-01-30 06:47:00.00	116.73	2.22	-59.8	-76.5	3.6	1.51e+00	0	45	104	0	60	261618
2026-01-30 06:47:01.01	116.70	2.28	-59.2	-76.3	3.6	1.51e+00	0	45	104	0	60	256096
2026-01-30 06:47:02.02	116.66	2.35	-58.5	-76.3	3.6	1.51e+00	0	45	104	0	60	254731
2026-01-30 06:47:03.03	116.62	2.41	-58.5	-76.3	3.6	1.51e+00	0	45	104	0	60	255672
2026-01-30 06:47:04.03	116.58	2.47	-58.5	-76.3	3.6	1.51e+00	0	45	104	0	60	255500
2026-01-30 06:47:05.04	116.55	2.54	-58.4	-76.2	3.6	1.51e+00	0	45	104	0	60	253220
2026-01-30 06:47:06.04	116.51	2.60	-58.4	-76.2	3.6	1.51e+00	0	45	104	0	60	253586
2026-01-30 06:47:07.05	116.47	2.66	-58.4	-76.2	3.6	1.51e+00	0	45	104	0	60	252896
2026-01-30 06:47:08.06	116.43	2.73	-58.4	-76.2	3.6	1.51e+00	0	45	104	0	60	252666
2026-01-30 06:47:09.07	116.39	2.79	-58.4	-76.2	3.6	1.51e+00	0	45	104	0	60	253362
2026-01-30 06:47:10.08	116.35	2.86	-58.5	-76.2	3.6	1.51e+00	0	45	104	0	60	252207
2026-01-30 06:47:11.09	116.32	2.92	-58.4	-76.2	3.6	1.51e+00	0	45	104	0	60	252619
2026-01-30 06:47:12.09	116.28	2.98	-58.4	-76.2	3.6	1.51e+00	0	45	104	0	60	254393
2026-01-30 06:47:13.10	116.24	3.05	-58.4	-76.2	3.6	1.51e+00	0	45	104	0	60	252971
2026-01-30 06:47:14.10	116.20	3.11	-58.4	-76.2	3.6	1.51e+00	0	45	104	0	60	252284
2026-01-30 06:47:15.11	116.16	3.18	-58.4	-76.2	3.6	1.51e+00	0	45	104	0	60	252104
2026-01-30 06:47:16.12	116.12	3.24	-58.5	-76.2	3.6	1.51e+00	0	45	104	0	60	252665
2026-01-30 06:47:17.13	116.08	3.31	-58.5	-76.1	3.6	1.51e+00	0	45	104	0	60	251089
2026-01-30 06:47:18.14	116.04	3.37	-58.5	-76.2	3.6	1.51e+00	0	45	104	0	60	252529
2026-01-30 06:47:19.14	116.00	3.44	-58.5	-76.1	3.6	1.51e+00	0	45	104	0	60	251397
2026-01-30 06:47:20.15	115.96	3.50	-58.5	-76.2	3.6	1.51e+00	0	45	104	0	60	251552
2026-01-30 06:47:21.16	115.92	3.57	-58.5	-76.2	3.6	1.51e+00	0	45	104	0	60	251670
2026-01-30 06:47:22.16	115.88	3.63	-58.6	-76.2	3.6	1.51e+00	0	45	104	0	60	252444
2026-01-30 06:47:23.17	115.84	3.70	-58.5	-76.2	3.6	1.51e+00	0	45	104	0	60	251627
2026-01-30 06:47:24.18	115.79	3.77	-58.5	-76.2	3.6	1.51e+00	0	45	104	0	60	251975
2026-01-30 06:47:25.18	115.75	3.83	-58.5	-76.2	3.6	1.51e+00	0	45	104	0	60	251947
2026-01-30 06:47:26.19	115.71	3.90	-58.5	-76.2	3.6	1.51e+00	0	45	104	0	60	253975
2026-01-30 06:47:27.20	115.67	3.96	-58.5	-76.2	3.6	1.51e+00	0	45	104	0	60	253182
2026-01-30 06:47:28.20	115.63	4.03	-58.4	-76.2	3.6	1.51e+00	0	45	104	0	60	252695
2026-01-30 06:47:29.21	115.58	4.10	-58.4	-76.1	3.6	1.51e+00	0	45	104	0	60	251093
2026-01-30 06:47:30.22	115.54	4.16	-58.4	-76.1	3.6	1.51e+00	0	45	104	0	60	250694
2026-01-30 06:47:31.23	115.50	4.23	-58.4	-76.1	3.6	1.51e+00	0	45	104	0	60	249803
2026-01-30 06:47:32.23	115.46	4.30	-58.4	-76.0	3.6	1.51e+00	0	45	104	0	60	246479
2026-01-30 06:47:33.24	115.41	4.37	-58.4	-75.8	3.6	1.51e+00	0	45	104	0	60	242269
2026-01-30 06:47:34.25	115.37	4.43	-58.4	-75.6	3.6	1.51e+00	0	45	104	0	60	236928
2026-01-30 06:47:35.26	115.33	4.50	-58.4	-75.4	3.6	1.51e+00	0	45	104	0	60	231806
2026-01-30 06:47:36.27	115.28	4.57	-58.4	-75.3	3.6	1.51e+00	0	45	104	0	60	227795
2026-01-30 06:47:37.27	115.24	4.64	-58.4	-75.2	3.6	1.51e+00	0	45	104	0	60	225044
2026-01-30 06:47:38.28	115.19	4.71	-58.4	-75.2	3.6	1.51e+00	0	45	104	0	60	224862
2026-01-30 06:47:39.28	115.15	4.77	-58.4	-75.2	3.6	1.51e+00	0	45	104	0	60	225673
2026-01-30 06:47:40.29	115.10	4.84	-58.4	-75.1	3.6	1.51e+00	0	45	104	0	60	222731
2026-01-30 06:47:41.30	115.06	4.91	-58.4	-74.5	3.6	1.51e+00	0	45	104	0	60	207518
2026-01-30 06:47:42.30	115.01	4.98	-58.3	-73.3	3.8	1.51e+00	0	45	104	0	60	181016
2026-01-30 06:47:43.30	114.97	5.05	-58.2	-70.2	4.3	1.21e+00	0	45	0	0	60	126901
2026-01-30 06:47:44.31	114.92	5.12	-58.1	-68.2	5.8	5.63e-01	0	45	0	2097152	60	101215
2026-01-30 06:47:45.32	114.88	5.19	-57.9	-66.7	7.5	2.03e-01	0	45	0	4194304	60	84445
2026-01-30 06:47:46.33	114.83	5.26	-57.6	-65.0	9.5	3.57e-03	0	45	0	5242880	60	69748
2026-01-30 06:47:47.34	114.79	5.32	-57.2	-63.5	11.3	2.93e-03	0	45	0	2097152	60	58473
2026-01-30 06:47:48.33	114.74	5.39	-56.9	-62.3	12.6	3.13e-04	0	45	0	4194304	60	51243
2026-01-30 06:47:49.34	114.69	5.46	-56.5	-61.2	13.7	2.44e-05	0	45	0	5242880	60	45159
2026-01-30 06:47:50.35	114.65	5.53	-56.1	-60.4	14.6	3.00e-06	0	45	0	7340032	60	40975
2026-01-30 06:47:51.35	114.60	5.60	-55.9	-59.8	15.3	0.00e+00	0	45	0	9437184	60	38288
2026-01-30 06:47:52.36	114.55	5.67	-55.8	-59.5	15.5	0.00e+00	0	45	0	11534336	60	36942
2026-01-30 06:47:53.37	114.50	5.74	-55.7	-59.4	15.7	0.00e+00	0	45	0	13631488	60	36355
2026-01-30 06:47:54.38	114.45	5.82	-55.7	-59.4	15.7	0.00e+00	0	45	0	15728640	60	36468
2026-01-30 06:47:55.38	114.41	5.89	-55.8	-59.7	15.3	0.00e+00	0	45	0	16777216	60	37686
2026-01-30 06:47:56.39	114.36	5.96	-56.0	-60.1	14.8	0.00e+00	0	45	0	18874368	60	39731
2026-01-30 06:47:57.40	114.31	6.03	-56.4	-60.9	14.0	1.50e-06	0	45	0	20971520	60	43447
2026-01-30 06:47:58.41	114.26	6.10	-55.8	-62.4	13.2	5.59e-04	0	45	0	23068672	60	51856
2026-01-30 06:47:59.41	114.21	6.17	-55.6	-59.3	15.8	0.00e+00	0	45	0	24117248	60	36113
2026-01-30 06:48:00.42	114.16	6.24	-55.4	-65.3	10.2	1.88e-01	0	45	0	26214400	60	72201
2026-01-30 06:48:01.42	114.11	6.31	-54.6	-58.7	16.4	0.00e+00	0	45	0	28311552	60	33731
2026-01-30 06:48:02.43	114.06	6.39	-57.0	-63.5	11.2	1.04e-04	0	45	0	30408704	60	58831
2026-01-30 06:48:03.43	114.01	6.46	-55.6	-60.0	14.7	0.00e+00	0	45	0	32505856	60	39206
2026-01-30 06:48:04.43	113.96	6.53	-55.6	-60.1	14.6	0.00e+00	0	45	0	33554432	60	39809
2026-01-30 06:48:05.43	113.91	6.60	-55.5	-60.4	14.2	3.80e-06	0	45	0	35651584	60	40995
2026-01-30 06:48:06.44	113.86	6.68	-55.5	-60.7	13.9	7.00e-07	0	45	0	37748736	60	42616
2026-01-30 06:48:07.45	113.81	6.75	-55.4	-60.8	13.9	2.20e-06	0	45	0	39845888	60	43179
2026-01-30 06:48:08.46	113.76	6.82	-55.2	-60.7	14.0	3.80e-06	0	45	0	41943040	60	42515
2026-01-30 06:48:09.46	113.70	6.89	-55.4	-61.2	13.7	5.30e-06	0	45	0	42991616	60	44795
2026-01-30 06:48:10.47	113.65	6.97	-55.3	-61.1	13.8	3.80e-06	0	45	0	45088768	60	44667
2026-01-30 06:48:11.48	113.60	7.04	-55.3	-61.0	13.9	4.50e-06	0	45	0	47185920	60	44136
2026-01-30 06:48:12.49	113.55	7.12	-55.4	-61.3	13.6	5.30e-06	0	45	0	49283072	60	45271
2026-01-30 06:48:13.50	113.49	7.19	-55.5	-61.3	13.7	3.80e-06	0	45	0	51380224	60	45378
2026-01-30 06:48:14.51	113.44	7.27	-55.5	-61.0	13.9	7.60e-06	0	45	0	53477376	60	44053
2026-01-30 06:48:15.51	113.39	7.34	-55.7	-61.7	13.2	6.10e-06	0	45	0	54525952	60	47583
2026-01-30 06:48:16.52	113.33	7.41	-55.9	-61.8	13.0	1.14e-05	0	45	0	56623104	60	48198
2026-01-30 06:48:17.53	113.28	7.49	-56.2	-61.9	12.8	2.67e-05	0	45	0	58720256	60	48735
2026-01-30 06:48:18.53	113.22	7.56	-56.5	-62.2	12.5	5.56e-05	0	45	0	60817408	60	50345
2026-01-30 06:48:19.54	113.17	7.64	-56.8	-62.5	12.2	8.62e-05	0	45	0	61865984	60	52145
2026-01-30 06:48:20.55	113.11	7.71	-57.1	-62.6	12.2	2.39e-04	0	45	0	63963136	60	52557
2026-01-30 06:48:21.55	113.06	7.79	-57.4	-62.9	12.1	3.49e-04	0	45	0	66060288	60	54901
2026-01-30 06:48:22.56	113.00	7.87	-57.7	-63.6	11.1	1.14e-03	0	45	0	68157440	60	59098
2026-01-30 06:48:23.57	112.95	7.94	-57.9	-63.6	10.7	3.25e-03	0	45	0	70254592	60	59203
2026-01-30 06:48:24.58	112.89	8.02	-58.2	-64.7	10.2	4.63e-03	0	45	0	72351744	60	67347
2026-01-30 06:48:25.59	112.83	8.10	-58.4	-64.8	9.3	1.01e-02	0	45	0	73400320	60	67710
2026-01-30 06:48:26.59	112.78	8.17	-58.5	-65.6	9.0	2.45e-02	0	45	0	75497472	60	74766
2026-01-30 06:48:27.60	112.72	8.25	-58.7	-65.9	8.1	4.55e-02	0	45	0	77594624	60	76896
2026-01-30 06:48:28.61	112.66	8.33	-58.9	-67.1	7.1	6.86e-02	0	45	0	79691776	60	88642
2026-01-30 06:48:29.62	112.60	8.40	-59.0	-67.1	7.0	1.54e-01	0	45	0	81788928	60	88287
2026-01-30 06:48:30.62	112.55	8.48	-59.2	-68.3	5.9	2.01e-01	0	45	0	82837504	60	101347
2026-01-30 06:48:31.63	112.49	8.56	-59.3	-68.4	6.0	3.20e-01	0	45	0	84934656	60	102723
2026-01-30 06:48:32.64	112.43	8.64	-59.3	-69.5	4.9	4.58e-01	0	45	0	87031808	60	116513
2026-01-30 06:48:33.64	112.37	8.71	-59.2	-69.6	4.7	5.98e-01	0	45	0	89128960	60	118464
2026-01-30 06:48:34.65	112.31	8.79	-58.6	-68.8	5.8	6.82e-01	0	45	0	90177536	60	108442
2026-01-30 06:48:35.65	112.25	8.87	-56.4	-61.0	15.4	1.45e-01	0	45	0	92274688	60	43817
2026-01-30 06:48:36.66	112.19	8.95	-54.8	-57.5	17.3	0.00e+00	0	45	0	94371840	60	29535
2026-01-30 06:48:37.67	112.13	9.03	-54.6	-57.4	17.4	0.00e+00	0	45	0	96468992	60	28905
2026-01-30 06:48:38.67	112.07	9.11	-57.0	-61.2	14.2	9.30e-05	0	45	0	98566144	60	44886
2026-01-30 06:48:39.67	112.01	9.19	-55.2	-58.4	16.5	0.00e+00	0	45	0	100663296	60	32650
2026-01-30 06:48:40.68	111.95	9.27	-54.7	-57.9	16.9	0.00e+00	0	45	0	101711872	60	30757
2026-01-30 06:48:41.69	111.88	9.35	-54.4	-57.5	17.3	0.00e+00	0	45	0	103809024	60	29333
2026-01-30 06:48:42.69	111.82	9.43	-54.4	-57.5	17.3	0.00e+00	0	45	0	105906176	60	29497
2026-01-30 06:48:43.70	111.76	9.51	-54.4	-57.5	17.5	0.00e+00	0	45	0	108003328	60	29223
2026-01-30 06:48:44.70	111.70	9.59	-54.5	-57.6	17.4	0.00e+00	0	45	0	110100480	60	29749
2026-01-30 06:48:45.71	111.63	9.67	-54.6	-57.7	17.6	0.00e+00	0	45	0	111149056	60	29994
2026-01-30 06:48:46.71	111.57	9.75	-54.7	-57.8	17.6	0.00e+00	0	45	0	113246208	60	30319
2026-01-30 06:48:47.72	111.51	9.83	-54.8	-57.9	17.6	0.00e+00	0	45	0	115343360	60	30713
2026-01-30 06:48:48.72	111.44	9.91	-55.0	-58.1	17.5	0.00e+00	0	45	0	117440512	60	31576
2026-01-30 06:48:49.73	111.38	9.99	-54.9	-58.0	17.6	0.00e+00	0	45	0	118489088	60	31166
2026-01-30 06:48:50.74	111.31	10.07	-55.1	-58.3	17.7	0.00e+00	0	45	0	120586240	60	32038
2026-01-30 06:48:51.74	111.25	10.16	-54.7	-57.9	17.7	0.00e+00	0	45	0	122683392	60	30607
2026-01-30 06:48:52.75	111.18	10.24	-54.8	-58.0	17.3	0.00e+00	0	45	0	124780544	60	31210
2026-01-30 06:48:53.76	111.11	10.32	-54.8	-58.2	17.2	0.00e+00	0	45	0	126877696	60	31890
2026-01-30 06:48:54.76	111.05	10.40	-54.8	-58.5	16.8	0.00e+00	0	45	0	127926272	60	32923
2026-01-30 06:48:55.77	110.98	10.49	-54.9	-58.8	16.5	0.00e+00	0	45	0	130023424	60	33967
2026-01-30 06:48:56.78	110.91	10.57	-54.8	-58.8	16.1	0.00e+00	0	45	0	132120576	60	34165
2026-01-30 06:48:57.78	110.84	10.65	-55.0	-59.1	16.0	0.00e+00	0	45	0	134217728	60	35492
2026-01-30 06:48:58.79	110.77	10.74	-55.1	-59.4	15.8	0.00e+00	0	45	0	136314880	60	36423
2026-01-30 06:48:59.80	110.71	10.82	-55.2	-59.5	15.5	0.00e+00	0	45	0	138412032	60	36821
2026-01-30 06:49:00.81	110.64	10.91	-55.4	-59.8	15.2	7.00e-07	0	45	0	139460608	60	38310
2026-01-30 06:49:01.82	110.57	10.99	-55.6	-60.0	15.0	0.00e+00	0	45	0	141557760	60	39054
2026-01-30 06:49:02.83	110.50	11.08	-55.6	-60.0	15.3	0.00e+00	0	45	0	143654912	60	39064
2026-01-30 06:49:03.83	110.43	11.16	-54.9	-58.7	16.5	0.00e+00	0	45	0	145752064	60	33601
2026-01-30 06:49:04.84	110.35	11.25	-54.3	-57.7	17.6	0.00e+00	0	45	0	146800640	60	30042
2026-01-30 06:49:05.85	110.28	11.33	-53.9	-56.9	18.2	0.00e+00	0	45	0	148897792	60	27532
2026-01-30 06:49:06.85	110.21	11.42	-53.8	-56.6	18.7	0.00e+00	0	45	0	150994944	60	26341
2026-01-30 06:49:07.86	110.14	11.50	-53.8	-56.5	18.6	0.00e+00	0	45	0	153092096	60	26227
2026-01-30 06:49:08.87	110.07	11.59	-54.0	-56.6	18.4	0.00e+00	0	45	0	155189248	60	26493
2026-01-30 06:49:09.87	109.99	11.68	-54.1	-56.7	18.3	0.00e+00	0	45	0	157286400	60	26905
2026-01-30 06:49:10.88	109.92	11.76	-54.3	-56.9	18.2	0.00e+00	0	45	0	158334976	60	27390
2026-01-30 06:49:11.89	109.85	11.85	-54.4	-57.1	18.1	0.00e+00	0	45	0	160432128	60	27909
2026-01-30 06:49:12.90	109.77	11.94	-54.5	-57.2	18.2	0.00e+00	0	45	0	162529280	60	28322
2026-01-30 06:49:13.91	109.70	12.03	-54.6	-57.2	18.3	0.00e+00	0	45	0	164626432	60	28423
2026-01-30 06:49:14.91	109.62	12.11	-54.6	-57.2	18.7	0.00e+00	0	45	0	166723584	60	28432
2026-01-30 06:49:15.92	109.54	12.20	-54.6	-57.1	18.8	0.00e+00	0	45	0	167772160	60	28101
2026-01-30 06:49:16.93	109.47	12.29	-54.7	-57.3	18.8	0.00e+00	0	45	0	169869312	60	28581
2026-01-30 06:49:17.93	109.39	12.38	-54.8	-57.3	18.7	0.00e+00	0	45	0	171966464	60	28595
2026-01-30 06:49:18.94	109.31	12.47	-54.8	-57.3	18.7	0.00e+00	0	45	0	174063616	60	28860
2026-01-30 06:49:19.94	109.24	12.56	-54.9	-57.5	18.5	0.00e+00	0	45	0	175112192	60	29371
2026-01-30 06:49:20.95	109.16	12.65	-55.0	-57.6	18.4	0.00e+00	0	45	0	177209344	60	29653
2026-01-30 06:49:21.95	109.08	12.73	-55.0	-57.7	18.3	0.00e+00	0	45	0	179306496	60	30098
2026-01-30 06:49:22.95	109.00	12.82	-55.1	-57.8	18.2	0.00e+00	0	45	0	181403648	60	30292
2026-01-30 06:49:23.96	108.92	12.91	-55.1	-57.8	18.0	0.00e+00	0	45	0	183500800	60	30370
2026-01-30 06:49:24.96	108.84	13.00	-55.2	-58.0	18.0	0.00e+00	0	45	0	184549376	60	31245
2026-01-30 06:49:25.97	108.76	13.10	-55.3	-58.0	18.1	0.00e+00	0	45	0	186646528	60	31051
2026-01-30 06:49:26.98	108.68	13.19	-55.4	-58.0	17.7	0.00e+00	0	45	0	188743680	60	31151
2026-01-30 06:49:27.99	108.60	13.28	-55.7	-58.3	17.5	0.00e+00	0	45	0	190840832	60	32279
2026-01-30 06:49:28.99	108.51	13.37	-55.9	-58.5	17.1	0.00e+00	0	45	0	192937984	60	33053
2026-01-30 06:49:30.00	108.43	13.46	-56.1	-58.8	17.0	0.00e+00	0	45	0	195035136	60	34022
2026-01-30 06:49:31.01	108.35	13.55	-56.3	-59.0	16.9	0.00e+00	0	45	0	196083712	60	35097
2026-01-30 06:49:32.02	108.26	13.65	-56.4	-59.2	16.7	0.00e+00	0	45	0	198180864	60	35911
2026-01-30 06:49:33.03	108.18	13.74	-56.6	-59.5	16.6	0.00e+00	0	45	0	200278016	60	36871
2026-01-30 06:49:34.04	108.09	13.83	-56.8	-59.8	16.3	0.00e+00	0	45	0	202375168	60	38271
2026-01-30 06:49:35.04	108.01	13.93	-56.9	-59.9	16.1	0.00e+00	0	45	0	203423744	60	38886
2026-01-30 06:49:36.05	107.92	14.02	-57.0	-60.2	16.0	0.00e+00	0	45	0	205520896	60	39989
2026-01-30 06:49:37.06	107.83	14.11	-57.0	-60.2	16.0	0.00e+00	0	45	0	207618048	60	40063
2026-01-30 06:49:38.06	107.75	14.21	-57.4	-61.0	15.1	0.00e+00	0	45	0	209715200	60	43836
2026-01-30 06:49:39.06	107.66	14.30	-57.2	-60.6	15.5	0.00e+00	0	45	0	211812352	60	41962
2026-01-30 06:49:40.07	107.57	14.40	-57.4	-60.9	15.2	0.00e+00	0	45	0	212860928	60	43527
2026-01-30 06:49:41.08	107.48	14.49	-57.6	-61.4	14.5	0.00e+00	0	45	0	214958080	60	45874
2026-01-30 06:49:42.08	107.39	14.59	-57.6	-61.5	14.4	7.00e-07	0	45	0	217055232	60	46597
2026-01-30 06:49:43.09	107.30	14.68	-57.8	-61.9	14.1	6.10e-06	0	45	0	219152384	60	48801
2026-01-30 06:49:44.10	107.21	14.78	-58.0	-62.3	13.6	6.10e-06	0	45	0	221249536	60	51152
2026-01-30 06:49:45.11	107.12	14.88	-58.0	-62.5	13.5	1.29e-05	0	45	0	223346688	60	52037
2026-01-30 06:49:46.11	107.03	14.97	-58.1	-62.7	13.2	2.59e-05	0	45	0	224395264	60	53630
2026-01-30 06:49:47.12	106.93	15.07	-58.3	-63.4	12.4	7.62e-05	0	45	0	226492416	60	57823
2026-01-30 06:49:48.13	106.84	15.17	-58.5	-63.7	11.8	3.16e-04	0	45	0	228589568	60	60223
2026-01-30 06:49:49.14	106.75	15.27	-58.7	-64.5	11.5	6.32e-04	0	45	0	230686720	60	65779
2026-01-30 06:49:50.15	106.65	15.36	-58.8	-64.9	10.4	1.72e-03	0	45	0	231735296	60	68865
2026-01-30 06:49:51.15	106.56	15.46	-58.9	-65.2	10.0	5.39e-03	0	45	0	233832448	60	71354
2026-01-30 06:49:52.16	106.46	15.56	-59.2	-66.3	9.3	1.11e-02	0	45	0	235929600	60	81290
2026-01-30 06:49:53.16	106.37	15.66	-59.3	-66.8	8.7	3.86e-02	0	45	0	238026752	60	85692
2026-01-30 06:49:54.17	106.27	15.76	-59.0	-65.1	10.8	1.13e-02	0	45	0	240123904	60	70268
2026-01-30 06:49:55.18	106.17	15.86	-58.3	-63.0	13.1	7.45e-04	0	45	0	242221056	60	55363
2026-01-30 06:49:56.18	106.07	15.96	-57.6	-61.3	15.0	9.10e-06	0	45	0	243269632	60	45253
2026-01-30 06:49:57.19	105.97	16.06	-56.7	-59.6	16.7	0.00e+00	0	45	0	245366784	60	37283
2026-01-30 06:49:58.20	105.87	16.16	-55.9	-58.2	17.9	0.00e+00	0	45	0	247463936	60	31904
2026-01-30 06:49:59.20	105.77	16.26	-55.3	-57.2	19.0	0.00e+00	0	45	0	249561088	60	28358
2026-01-30 06:50:00.21	105.67	16.36	-54.7	-56.5	19.6	0.00e+00	0	45	0	251658240	60	26088
2026-01-30 06:50:01.21	105.57	16.46	-54.4	-56.1	20.0	0.00e+00	0	45	0	252706816	60	25002
2026-01-30 06:50:02.22	105.47	16.56	-54.2	-55.9	20.1	0.00e+00	0	45	0	254803968	60	24515
2026-01-30 06:50:03.23	105.36	16.67	-54.1	-55.9	20.1	0.00e+00	0	45	0	256901120	60	24356
2026-01-30 06:50:04.23	105.26	16.77	-54.1	-56.0	20.0	0.00e+00	0	45	0	258998272	60	24655
2026-01-30 06:50:05.24	105.15	16.87	-54.1	-56.0	19.8	0.00e+00	0	45	0	260046848	60	24660
2026-01-30 06:50:06.25	105.05	16.97	-54.2	-56.1	19.7	0.00e+00	0	45	0	262144000	60	24990
2026-01-30 06:50:07.26	104.94	17.08	-54.1	-56.0	19.8	0.00e+00	0	45	0	264241152	60	24580
2026-01-30 06:50:08.26	104.83	17.18	-54.0	-55.9	19.8	0.00e+00	0	45	0	266338304	60	24434
2026-01-30 06:50:09.27	104.73	17.29	-54.0	-55.8	20.0	0.00e+00	0	45	0	268435456	60	24250
2026-01-30 06:50:10.28	104.62	17.39	-53.9	-55.8	20.1	0.00e+00	0	45	0	270532608	60	24150
2026-01-30 06:50:11.29	104.51	17.49	-53.9	-55.8	20.3	0.00e+00	0	45	0	271581184	60	24055
2026-01-30 06:50:12.29	104.40	17.60	-54.0	-55.9	20.2	0.00e+00	0	45	0	273678336	60	24404
2026-01-30 06:50:13.30	104.29	17.71	-54.2	-56.0	20.0	0.00e+00	0	45	0	275775488	60	24790
2026-01-30 06:50:14.31	104.17	17.81	-54.2	-56.0	20.0	0.00e+00	0	45	0	277872640	60	24776
2026-01-30 06:50:15.32	104.06	17.92	-54.1	-55.9	20.1	0.00e+00	0	45	0	279969792	60	24335
2026-01-30 06:50:16.32	103.95	18.02	-54.2	-55.9	20.1	0.00e+00	0	45	0	281018368	60	24417
2026-01-30 06:50:17.32	103.84	18.13	-54.4	-56.1	19.9	0.00e+00	0	45	0	283115520	60	25051
2026-01-30 06:50:18.32	103.72	18.24	-54.3	-56.0	20.1	0.00e+00	0	45	0	285212672	60	24611
2026-01-30 06:50:19.33	103.60	18.34	-54.3	-55.9	20.2	0.00e+00	0	45	0	287309824	60	24480
2026-01-30 06:50:20.33	103.49	18.45	-54.4	-56.0	20.1	0.00e+00	0	45	0	288358400	60	24730
2026-01-30 06:50:21.34	103.37	18.56	-54.5	-56.1	19.9	0.00e+00	0	45	0	290455552	60	25150
2026-01-30 06:50:22.34	103.25	18.67	-54.7	-56.4	19.7	0.00e+00	0	45	0	292552704	60	25935
2026-01-30 06:50:23.35	103.13	18.78	-54.7	-56.5	19.6	0.00e+00	0	45	0	294649856	60	26040
2026-01-30 06:50:24.36	103.01	18.89	-54.7	-56.5	19.6	0.00e+00	0	45	0	296747008	60	26201
2026-01-30 06:50:25.36	102.89	18.99	-54.7	-56.5	19.6	0.00e+00	0	45	0	297795584	60	26047
2026-01-30 06:50:26.37	102.77	19.11	-54.7	-56.6	19.5	0.00e+00	0	45	0	299892736	60	26347
2026-01-30 06:50:27.38	102.65	19.22	-54.8	-56.6	19.3	0.00e+00	0	45	0	301989888	60	26590
2026-01-30 06:50:28.38	102.52	19.33	-55.1	-57.0	19.1	0.00e+00	0	45	0	304087040	60	27814
2026-01-30 06:50:29.38	102.40	19.44	-55.1	-57.0	19.1	0.00e+00	0	45	0	306184192	60	27823
2026-01-30 06:50:30.39	102.27	19.55	-55.2	-57.1	19.1	0.00e+00	0	45	0	308281344	60	28128
2026-01-30 06:50:31.40	102.15	19.66	-55.3	-57.4	18.9	0.00e+00	0	45	0	309329920	60	29092
2026-01-30 06:50:32.41	102.02	19.77	-55.2	-57.2	19.2	0.00e+00	0	45	0	311427072	60	28503
2026-01-30 06:50:33.42	101.89	19.88	-54.9	-56.8	19.5	0.00e+00	0	45	0	313524224	60	27127
2026-01-30 06:50:34.42	101.76	20.00	-54.8	-56.7	19.6	0.00e+00	0	45	0	315621376	60	26698
2026-01-30 06:50:35.42	101.63	20.11	-54.7	-56.6	19.6	0.00e+00	0	45	0	316669952	60	26603
2026-01-30 06:50:36.43	101.50	20.22	-54.6	-56.6	19.4	0.00e+00	0	45	0	318767104	60	26641
2026-01-30 06:50:37.44	101.37	20.34	-54.6	-56.7	19.2	0.00e+00	0	45	0	320864256	60	26885
2026-01-30 06:50:38.44	101.23	20.45	-54.7	-56.9	18.9	0.00e+00	0	45	0	322961408	60	27521
2026-01-30 06:50:39.45	101.10	20.56	-54.9	-57.2	18.7	0.00e+00	0	45	0	325058560	60	28391
2026-01-30 06:50:40.46	100.96	20.68	-54.8	-57.1	19.0	0.00e+00	0	45	0	326107136	60	27994
2026-01-30 06:50:41.46	100.83	20.79	-54.8	-57.0	19.2	0.00e+00	0	45	0	328204288	60	27721
2026-01-30 06:50:42.47	100.69	20.91	-54.9	-57.1	19.2	0.00e+00	0	45	0	330301440	60	28043
2026-01-30 06:50:43.48	100.55	21.03	-55.1	-57.3	19.0	0.00e+00	0	45	0	332398592	60	28835
2026-01-30 06:50:44.48	100.41	21.14	-55.1	-57.2	19.1	0.00e+00	0	45	0	334495744	60	28380
2026-01-30 06:50:45.49	100.27	21.26	-54.8	-56.7	19.6	0.00e+00	0	45	0	336592896	60	26739
2026-01-30 06:50:46.50	100.13	21.38	-54.7	-56.4	19.9	0.00e+00	0	45	0	337641472	60	25805
2026-01-30 06:50:47.50	99.99	21.49	-54.8	-56.4	19.8	0.00e+00	0	45	0	339738624	60	26020
2026-01-30 06:50:48.50	99.84	21.61	-54.9	-56.5	19.7	0.00e+00	0	45	0	341835776	60	26265
2026-01-30 06:50:49.50	99.70	21.73	-54.7	-56.3	19.9	0.00e+00	0	45	0	343932928	60	25538
2026-01-30 06:50:50.51	99.55	21.85	-54.7	-56.4	19.9	0.00e+00	0	45	0	344981504	60	25770
2026-01-30 06:50:51.51	99.41	21.96	-54.7	-56.3	19.8	0.00e+00	0	45	0	347078656	60	25679
2026-01-30 06:50:52.52	99.26	22.08	-54.8	-56.6	19.8	0.00e+00	0	45	0	349175808	60	26385
2026-01-30 06:50:53.52	99.11	22.20	-54.9	-56.7	19.7	0.00e+00	0	45	0	351272960	60	26705
2026-01-30 06:50:54.53	98.96	22.32	-55.0	-56.9	19.5	0.00e+00	0	45	0	353370112	60	27330
2026-01-30 06:50:55.53	98.81	22.44	-54.8	-56.6	19.7	0.00e+00	0	45	0	354418688	60	26523
2026-01-30 06:50:56.54	98.65	22.56	-54.8	-56.6	19.6	0.00e+00	0	45	0	356515840	60	26576
2026-01-30 06:50:57.55	98.50	22.68	-54.9	-56.8	19.3	0.00e+00	0	45	0	358612992	60	27140
2026-01-30 06:50:58.56	98.34	22.80	-54.9	-56.9	19.0	0.00e+00	0	45	0	360710144	60	27548
2026-01-30 06:50:59.56	98.19	22.92	-54.8	-56.9	19.2	0.00e+00	0	45	0	362807296	60	27385
2026-01-30 06:51:00.57	98.03	23.05	-54.9	-57.0	19.3	0.00e+00	0	45	0	364904448	60	27814
2026-01-30 06:51:01.58	97.87	23.17	-55.0	-57.1	19.2	0.00e+00	0	45	0	365953024	60	28097
2026-01-30 06:51:02.59	97.71	23.29	-55.0	-56.9	19.4	0.00e+00	0	45	0	368050176	60	27515
2026-01-30 06:51:03.60	97.54	23.42	-54.7	-56.6	19.7	0.00e+00	0	45	0	370147328	60	26440
2026-01-30 06:51:04.61	97.38	23.54	-54.7	-56.6	19.8	0.00e+00	0	45	0	372244480	60	26359
2026-01-30 06:51:05.61	97.22	23.66	-54.9	-56.8	19.5	0.00e+00	0	45	0	373293056	60	27012
2026-01-30 06:51:06.62	97.05	23.79	-55.0	-56.8	19.6	0.00e+00	0	45	0	375390208	60	27046
2026-01-30 06:51:07.63	96.88	23.91	-55.1	-56.9	19.4	0.00e+00	0	45	0	377487360	60	27555
2026-01-30 06:51:08.63	96.72	24.03	-55.3	-57.1	19.3	0.00e+00	0	45	0	379584512	60	27908
2026-01-30 06:51:09.64	96.54	24.16	-55.3	-57.1	19.2	0.00e+00	0	45	0	381681664	60	28065
2026-01-30 06:51:10.65	96.37	24.28	-55.5	-57.4	19.1	0.00e+00	0	45	0	382730240	60	28953
2026-01-30 06:51:11.66	96.20	24.41	-55.1	-56.9	19.4	0.00e+00	0	45	0	384827392	60	27563
2026-01-30 06:51:12.67	96.03	24.54	-54.9	-56.7	19.7	0.00e+00	0	45	0	386924544	60	26692
2026-01-30 06:51:13.67	95.85	24.66	-55.0	-56.7	19.7	0.00e+00	0	45	0	389021696	60	26921
2026-01-30 06:51:14.68	95.67	24.79	-55.0	-56.8	19.6	0.00e+00	0	45	0	391118848	60	27085
2026-01-30 06:51:15.69	95.49	24.91	-55.2	-57.1	19.5	0.00e+00	0	45	0	393216000	60	27943
2026-01-30 06:51:16.70	95.31	25.04	-54.9	-56.7	19.7	0.00e+00	0	45	0	394264576	60	26914
2026-01-30 06:51:17.70	95.13	25.17	-54.8	-56.6	19.6	0.00e+00	0	45	0	396361728	60	26448
2026-01-30 06:51:18.70	94.95	25.29	-55.0	-57.0	19.3	0.00e+00	0	45	0	398458880	60	27660
2026-01-30 06:51:19.71	94.77	25.42	-55.0	-57.1	19.3	0.00e+00	0	45	0	400556032	60	28138
2026-01-30 06:51:20.72	94.58	25.55	-55.0	-57.2	19.0	0.00e+00	0	45	0	401604608	60	28520
2026-01-30 06:51:21.72	94.39	25.68	-55.2	-57.6	18.6	0.00e+00	0	45	0	403701760	60	29716
2026-01-30 06:51:22.72	94.21	25.81	-55.2	-57.6	18.5	0.00e+00	0	45	0	405798912	60	29725
2026-01-30 06:51:23.73	94.02	25.94	-55.4	-57.8	18.4	0.00e+00	0	45	0	407896064	60	30472
2026-01-30 06:51:24.74	93.82	26.07	-55.6	-58.0	18.3	0.00e+00	0	45	0	409993216	60	30993
2026-01-30 06:51:25.75	93.63	26.19	-55.7	-58.1	18.3	0.00e+00	0	45	0	411041792	60	31375
2026-01-30 06:51:26.76	93.43	26.32	-55.8	-58.3	18.0	0.00e+00	0	45	0	413138944	60	32089
2026-01-30 06:51:27.77	93.24	26.46	-55.9	-58.4	17.8	0.00e+00	0	45	0	415236096	60	32475
2026-01-30 06:51:28.78	93.04	26.59	-56.0	-58.6	17.6	0.00e+00	0	45	0	417333248	60	33427
2026-01-30 06:51:29.78	92.84	26.72	-56.1	-58.9	17.4	0.00e+00	0	45	0	419430400	60	34570
2026-01-30 06:51:30.79	92.63	26.85	-56.2	-59.3	17.1	0.00e+00	0	45	0	421527552	60	36041
2026-01-30 06:51:31.79	92.43	26.98	-56.2	-59.3	17.2	0.00e+00	0	45	0	422576128	60	35949
2026-01-30 06:51:32.80	92.23	27.11	-56.6	-59.7	16.5	0.00e+00	0	45	0	424673280	60	37934
2026-01-30 06:51:33.80	92.02	27.24	-56.8	-59.8	16.3	0.00e+00	0	45	0	426770432	60	38243
2026-01-30 06:51:34.81	91.81	27.37	-57.2	-60.2	16.1	0.00e+00	0	45	0	428867584	60	40155
2026-01-30 06:51:35.82	91.60	27.50	-57.5	-60.6	16.0	0.00e+00	0	45	0	429916160	60	41952
2026-01-30 06:51:36.82	91.39	27.63	-57.8	-60.9	15.7	0.00e+00	0	45	0	432013312	60	43399
2026-01-30 06:51:37.83	91.18	27.77	-58.0	-61.3	15.2	0.00e+00	0	45	0	434110464	60	45553
2026-01-30 06:51:38.84	90.96	27.90	-58.2	-61.7	14.8	0.00e+00	0	45	0	436207616	60	47804
2026-01-30 06:51:39.85	90.74	28.03	-58.3	-62.0	14.5	0.00e+00	0	45	0	438304768	60	49375
2026-01-30 06:51:40.85	90.52	28.16	-58.3	-62.3	14.0	7.00e-07	0	45	0	439353344	60	51224
2026-01-30 06:51:41.86	90.30	28.30	-58.2	-62.2	14.2	2.20e-06	0	45	0	441450496	60	50302
2026-01-30 06:51:42.86	90.08	28.43	-57.8	-61.2	15.3	1.50e-06	0	45	0	443547648	60	45184
2026-01-30 06:51:43.87	89.85	28.56	-57.4	-60.3	16.3	0.00e+00	0	45	0	445644800	60	40482
2026-01-30 06:51:44.88	89.63	28.69	-57.1	-59.8	16.7	0.00e+00	0	45	0	447741952	60	38137
2026-01-30 06:51:45.89	89.40	28.83	-56.9	-59.4	17.0	0.00e+00	0	45	0	449839104	60	36773
2026-01-30 06:51:46.89	89.17	28.96	-56.9	-59.5	17.2	0.00e+00	0	45	0	450887680	60	36914
2026-01-30 06:51:47.90	88.93	29.09	-57.0	-59.5	17.2	0.00e+00	0	45	0	452984832	60	36988
2026-01-30 06:51:48.90	88.70	29.23	-56.9	-59.5	17.1	0.00e+00	0	45	0	455081984	60	37152
2026-01-30 06:51:49.91	88.46	29.36	-56.7	-59.5	17.1	0.00e+00	0	45	0	457179136	60	36974
2026-01-30 06:51:50.91	88.23	29.49	-56.8	-59.5	17.2	0.00e+00	0	45	0	458227712	60	36820
2026-01-30 06:51:51.92	87.99	29.63	-56.9	-59.5	17.1	0.00e+00	0	45	0	460324864	60	36938
2026-01-30 06:51:52.92	87.75	29.76	-56.7	-59.1	17.5	0.00e+00	0	45	0	462422016	60	35485
2026-01-30 06:51:53.93	87.50	29.90	-56.6	-59.1	17.6	0.00e+00	0	45	0	464519168	60	35135
2026-01-30 06:51:54.94	87.25	30.03	-56.7	-59.1	17.4	0.00e+00	0	45	0	466616320	60	35268
2026-01-30 06:51:55.95	87.00	30.16	-56.7	-59.2	17.4	0.00e+00	0	45	0	467664896	60	35826
2026-01-30 06:51:56.95	86.75	30.30	-56.7	-59.2	17.2	0.00e+00	0	45	0	469762048	60	35898
2026-01-30 06:51:57.96	86.50	30.43	-56.9	-59.5	17.1	0.00e+00	0	45	0	471859200	60	37184
2026-01-30 06:51:58.96	86.25	30.56	-57.0	-59.7	17.0	0.00e+00	0	45	0	473956352	60	37738
2026-01-30 06:51:59.97	85.99	30.70	-57.2	-59.9	16.8	0.00e+00	0	45	0	476053504	60	38542
2026-01-30 06:52:00.98	85.73	30.83	-57.4	-60.1	16.6	0.00e+00	0	45	0	478150656	60	39738
2026-01-30 06:52:01.98	85.47	30.97	-57.7	-60.6	16.2	0.00e+00	0	45	0	479199232	60	41828
2026-01-30 06:52:02.99	85.20	31.10	-57.7	-60.7	16.4	0.00e+00	0	45	0	481296384	60	42276
2026-01-30 06:52:04.00	84.94	31.23	-57.6	-60.7	16.2	0.00e+00	0	45	0	483393536	60	42408
2026-01-30 06:52:05.00	84.67	31.37	-57.6	-60.7	16.3	0.00e+00	0	45	0	485490688	60	42491
2026-01-30 06:52:06.01	84.40	31.50	-57.4	-60.1	16.7	0.00e+00	0	45	0	486539264	60	39835
2026-01-30 06:52:07.02	84.13	31.63	-57.2	-59.8	17.1	0.00e+00	0	45	0	488636416	60	38321
2026-01-30 06:52:08.02	83.85	31.77	-57.1	-59.5	17.5	0.00e+00	0	45	0	490733568	60	36829
2026-01-30 06:52:09.03	83.58	31.90	-57.0	-59.3	17.6	0.00e+00	0	45	0	492830720	60	36210
2026-01-30 06:52:10.04	83.30	32.03	-56.9	-59.1	17.7	0.00e+00	0	45	0	494927872	60	35483
2026-01-30 06:52:11.05	83.01	32.17	-57.0	-59.2	17.7	0.00e+00	0	45	0	495976448	60	35826
2026-01-30 06:52:12.06	82.73	32.30	-56.8	-59.0	17.9	0.00e+00	0	45	0	498073600	60	34934
2026-01-30 06:52:13.06	82.44	32.43	-56.7	-58.8	18.0	0.00e+00	0	45	0	500170752	60	34246
2026-01-30 06:52:14.07	82.15	32.56	-56.7	-59.0	17.9	0.00e+00	0	45	0	502267904	60	34847
2026-01-30 06:52:15.08	81.86	32.70	-56.8	-59.1	17.9	0.00e+00	0	45	0	504365056	60	35203
2026-01-30 06:52:16.09	81.57	32.83	-56.9	-59.1	17.6	0.00e+00	0	45	0	506462208	60	35474
2026-01-30 06:52:17.09	81.27	32.96	-56.9	-59.3	17.4	0.00e+00	0	45	0	507510784	60	36215
2026-01-30 06:52:18.10	80.97	33.09	-57.0	-59.4	17.6	0.00e+00	0	45	0	509607936	60	36620
2026-01-30 06:52:19.11	80.67	33.22	-56.7	-58.9	17.9	0.00e+00	0	45	0	511705088	60	34629
2026-01-30 06:52:20.12	80.37	33.35	-56.9	-59.2	17.6	0.00e+00	0	45	0	513802240	60	35678
2026-01-30 06:52:21.12	80.07	33.48	-57.1	-59.5	17.4	0.00e+00	0	45	0	514850816	60	36847
2026-01-30 06:52:22.13	79.76	33.61	-57.1	-59.7	17.2	0.00e+00	0	45	0	516947968	60	37661
2026-01-30 06:52:23.14	79.44	33.74	-57.1	-59.6	17.5	0.00e+00	0	45	0	519045120	60	37283
2026-01-30 06:52:24.14	79.13	33.87	-56.8	-59.0	18.0	0.00e+00	0	45	0	521142272	60	34949
2026-01-30 06:52:25.15	78.82	33.99	-56.8	-59.0	18.0	0.00e+00	0	45	0	523239424	60	35057
2026-01-30 06:52:26.16	78.50	34.12	-56.9	-59.2	17.7	0.00e+00	0	45	0	524288000	60	35850
2026-01-30 06:52:27.16	78.18	34.25	-57.2	-59.7	17.4	0.00e+00	0	45	0	526385152	60	37724
2026-01-30 06:52:28.17	77.86	34.38	-57.4	-59.9	17.2	0.00e+00	0	45	0	528482304	60	38651
2026-01-30 06:52:29.18	77.53	34.50	-57.4	-60.0	17.0	0.00e+00	0	45	0	530579456	60	39306
2026-01-30 06:52:30.18	77.20	34.63	-57.4	-60.0	16.9	0.00e+00	0	45	0	532676608	60	39130
2026-01-30 06:52:31.18	76.88	34.75	-57.3	-59.8	17.2	0.00e+00	0	45	0	534773760	60	38316
2026-01-30 06:52:32.19	76.54	34.88	-57.5	-59.9	17.0	0.00e+00	0	45	0	535822336	60	38871
2026-01-30 06:52:33.20	76.20	35.00	-57.9	-60.5	16.6	0.00e+00	0	45	0	537919488	60	41611
2026-01-30 06:52:34.20	75.87	35.12	-58.0	-60.9	16.2	0.00e+00	0	45	0	540016640	60	43307
2026-01-30 06:52:35.22	75.52	35.25	-58.3	-61.4	15.7	0.00e+00	0	45	0	542113792	60	45838
2026-01-30 06:52:36.22	75.18	35.37	-58.4	-61.7	15.2	0.00e+00	0	45	0	543162368	60	47549
2026-01-30 06:52:37.23	74.83	35.49	-58.4	-61.8	15.3	0.00e+00	0	45	0	545259520	60	47955
2026-01-30 06:52:38.23	74.49	35.61	-58.7	-62.2	14.9	0.00e+00	0	45	0	547356672	60	50261
2026-01-30 06:52:39.24	74.14	35.73	-59.0	-62.6	14.6	0.00e+00	0	45	0	549453824	60	52844
2026-01-30 06:52:40.25	73.78	35.85	-59.1	-62.7	14.3	7.00e-07	0	45	0	551550976	60	53625
2026-01-30 06:52:41.26	73.42	35.96	-58.9	-62.3	15.0	0.00e+00	0	45	0	552599552	60	50944
2026-01-30 06:52:42.26	73.07	36.08	-58.5	-61.5	15.8	0.00e+00	0	45	0	554696704	60	46603
2026-01-30 06:52:43.27	72.70	36.20	-58.3	-61.1	15.9	0.00e+00	0	45	0	556793856	60	44687
2026-01-30 06:52:44.28	72.34	36.31	-58.4	-61.4	15.8	0.00e+00	0	45	0	558891008	60	46043
2026-01-30 06:52:45.28	71.97	36.43	-58.6	-61.8	15.7	0.00e+00	0	45	0	560988160	60	48144
2026-01-30 06:52:46.29	71.60	36.54	-58.5	-61.6	15.6	0.00e+00	0	45	0	563085312	60	46870
2026-01-30 06:52:47.29	71.24	36.65	-58.7	-62.0	15.3	0.00e+00	0	45	0	564133888	60	49120
2026-01-30 06:52:48.29	70.86	36.76	-58.8	-62.3	14.8	0.00e+00	0	45	0	566231040	60	50814
2026-01-30 06:52:49.30	70.49	36.87	-59.0	-62.7	14.8	0.00e+00	0	45	0	568328192	60	53451
2026-01-30 06:52:50.30	70.11	36.98	-59.3	-63.4	13.9	1.50e-06	0	45	0	570425344	60	58125
2026-01-30 06:52:51.31	69.72	37.09	-59.4	-63.4	13.4	4.50e-06	0	45	0	571473920	60	58203
2026-01-30 06:52:52.32	69.34	37.20	-59.8	-64.2	13.2	5.03e-05	0	45	0	573571072	60	63540
2026-01-30 06:52:53.33	68.95	37.30	-59.7	-64.0	13.2	3.89e-05	0	45	0	575668224	60	62123
2026-01-30 06:52:54.33	68.56	37.41	-59.7	-64.2	13.0	4.42e-05	0	46	0	577765376	60	63544
2026-01-30 06:52:55.34	68.17	37.51	-60.0	-64.8	12.4	1.07e-04	0	46	0	579862528	60	68008
2026-01-30 06:52:56.35	67.77	37.61	-60.1	-64.8	12.3	2.39e-04	0	45	0	580911104	60	67924
2026-01-30 06:52:57.35	67.38	37.71	-60.3	-65.2	12.1	1.89e-04	0	45	0	583008256	60	71601
2026-01-30 06:52:58.36	66.98	37.81	-60.3	-65.2	12.0	3.15e-04	0	45	0	585105408	60	71442
2026-01-30 06:52:59.37	66.58	37.91	-60.2	-65.1	12.1	3.49e-04	0	45	0	587202560	60	70692
2026-01-30 06:53:00.37	66.17	38.01	-60.1	-65.0	12.4	3.77e-04	0	45	0	589299712	60	69907
2026-01-30 06:53:01.38	65.77	38.11	-60.4	-65.7	11.6	6.28e-04	0	45	0	591396864	60	75930
2026-01-30 06:53:02.38	65.36	38.20	-60.7	-66.4	11.0	1.30e-03	0	45	0	592445440	60	82308
2026-01-30 06:53:03.39	64.95	38.29	-60.8	-66.4	10.6	3.69e-03	0	45	0	594542592	60	82285
2026-01-30 06:53:04.39	64.54	38.38	-61.0	-67.0	10.1	7.49e-03	0	45	0	596639744	60	87705
2026-01-30 06:53:05.39	64.12	38.47	-61.0	-67.5	9.4	1.53e-02	0	46	0	598736896	60	92758
2026-01-30 06:53:06.39	63.71	38.56	-61.0	-67.4	9.7	3.07e-02	0	46	0	599785472	60	91455
2026-01-30 06:53:07.40	63.28	38.65	-60.4	-65.2	12.6	1.32e-03	0	45	0	601882624	60	71141
2026-01-30 06:53:08.41	62.86	38.73	-59.6	-63.2	14.7	2.36e-05	0	45	0	603979776	60	56644
2026-01-30 06:53:09.42	62.43	38.82	-58.6	-61.4	16.5	0.00e+00	0	45	0	606076928	60	46162
2026-01-30 06:53:10.42	62.01	38.90	-57.8	-60.1	17.8	0.00e+00	0	45	0	608174080	60	39431
2026-01-30 06:53:11.42	61.58	38.98	-57.2	-59.3	18.4	0.00e+00	0	45	0	609222656	60	36119
2026-01-30 06:53:12.43	61.15	39.06	-56.7	-58.6	19.0	0.00e+00	0	45	0	611319808	60	33303
2026-01-30 06:53:13.44	60.71	39.14	-56.5	-58.3	19.4	0.00e+00	0	45	0	613416960	60	32177
2026-01-30 06:53:14.44	60.28	39.21	-56.5	-58.4	19.2	0.00e+00	0	45	0	615514112	60	32459
2026-01-30 06:53:15.45	59.84	39.28	-56.7	-58.6	19.3	0.00e+00	0	45	0	617611264	60	33403
2026-01-30 06:53:16.46	59.40	39.36	-56.9	-59.0	18.7	0.00e+00	0	45	0	618659840	60	35047
2026-01-30 06:53:17.47	58.96	39.43	-57.0	-59.1	18.4	0.00e+00	0	45	0	620756992	60	35375
2026-01-30 06:53:18.46	58.52	39.49	-57.3	-59.4	18.0	0.00e+00	0	45	0	622854144	60	36754
2026-01-30 06:53:19.47	58.08	39.56	-57.5	-59.7	17.7	0.00e+00	0	45	0	624951296	60	37798
2026-01-30 06:53:20.47	57.63	39.63	-57.6	-59.9	17.4	0.00e+00	0	45	0	627048448	60	38819
2026-01-30 06:53:21.47	57.19	39.69	-57.8	-60.4	17.2	0.00e+00	0	45	0	628097024	60	41026
2026-01-30 06:53:22.48	56.73	39.75	-57.9	-60.6	17.3	0.00e+00	0	45	0	630194176	60	41945
2026-01-30 06:53:23.49	56.28	39.81	-58.1	-60.9	16.7	0.00e+00	0	45	0	632291328	60	43300
2026-01-30 06:53:24.50	55.82	39.87	-58.1	-60.7	16.8	0.00e+00	0	45	0	634388480	60	42323
2026-01-30 06:53:25.50	55.37	39.92	-58.5	-61.2	16.4	0.00e+00	0	45	0	636485632	60	44915
2026-01-30 06:53:26.51	54.91	39.97	-58.4	-61.2	16.4	0.00e+00	0	45	0	637534208	60	45026
2026-01-30 06:53:27.52	54.45	40.03	-58.6	-61.5	16.3	0.00e+00	0	45	0	639631360	60	46819
2026-01-30 06:53:28.53	53.99	40.08	-58.8	-61.8	15.6	0.00e+00	0	45	0	641728512	60	48416
2026-01-30 06:53:29.54	53.53	40.12	-59.2	-62.5	15.0	0.00e+00	0	45	0	643825664	60	52389
2026-01-30 06:53:30.54	53.07	40.17	-59.2	-62.5	15.0	0.00e+00	0	46	0	645922816	60	52237
2026-01-30 06:53:31.55	52.60	40.21	-59.5	-63.2	14.5	0.00e+00	0	45	0	646971392	60	56809
2026-01-30 06:53:32.56	52.14	40.25	-59.7	-63.5	14.0	2.20e-06	0	45	0	649068544	60	58311
2026-01-30 06:53:33.56	51.67	40.29	-59.9	-63.9	13.6	4.50e-06	0	45	0	651165696	60	61649
2026-01-30 06:53:34.56	51.21	40.33	-60.0	-64.2	13.3	9.90e-06	0	45	0	653262848	60	63641
2026-01-30 06:53:35.57	50.74	40.36	-60.0	-64.1	13.9	1.44e-05	0	45	0	655360000	60	62802
2026-01-30 06:53:36.57	50.27	40.39	-59.2	-62.4	15.4	3.00e-06	0	45	0	656408576	60	51919
2026-01-30 06:53:37.58	49.80	40.42	-58.4	-61.2	16.5	0.00e+00	0	45	0	658505728	60	44958
2026-01-30 06:53:38.58	49.33	40.45	-58.0	-60.4	17.2	0.00e+00	0	45	0	660602880	60	41159
2026-01-30 06:53:39.59	48.86	40.48	-57.6	-59.9	17.8	0.00e+00	0	46	0	662700032	60	38556
2026-01-30 06:53:40.59	48.39	40.50	-57.3	-59.5	18.0	0.00e+00	0	45	0	664797184	60	36921
2026-01-30 06:53:41.60	47.92	40.52	-57.2	-59.5	18.0	0.00e+00	0	45	0	665845760	60	36835
2026-01-30 06:53:42.61	47.44	40.54	-57.1	-59.4	18.1	0.00e+00	0	45	0	667942912	60	36612
2026-01-30 06:53:43.61	46.97	40.56	-57.2	-59.6	18.0	0.00e+00	0	45	0	670040064	60	37243
2026-01-30 06:53:44.62	46.49	40.57	-57.5	-60.1	17.7	0.00e+00	0	45	0	672137216	60	39595
2026-01-30 06:53:45.62	46.02	40.59	-57.9	-60.7	17.2	0.00e+00	0	45	0	674234368	60	42249
2026-01-30 06:53:46.63	45.55	40.60	-58.3	-61.1	16.3	0.00e+00	0	45	0	675282944	60	44516
2026-01-30 06:53:47.64	45.07	40.60	-58.9	-62.1	15.7	0.00e+00	0	45	0	677380096	60	49716
2026-01-30 06:53:48.64	44.60	40.61	-58.9	-62.0	15.4	0.00e+00	0	45	0	679477248	60	49298
2026-01-30 06:53:49.64	44.12	40.61	-59.2	-62.5	15.5	0.00e+00	0	45	0	681574400	60	52302
2026-01-30 06:53:50.64	43.65	40.62	-59.3	-62.8	14.8	0.00e+00	0	45	0	683671552	60	54335
2026-01-30 06:53:51.65	43.17	40.61	-59.5	-63.2	14.0	1.50e-06	0	45	0	684720128	60	56949
2026-01-30 06:53:52.65	42.70	40.61	-59.8	-63.7	13.4	9.90e-06	0	45	0	686817280	60	60144
2026-01-30 06:53:53.66	42.22	40.61	-59.9	-64.0	13.4	3.20e-05	0	45	0	688914432	60	62040
2026-01-30 06:53:54.66	41.75	40.60	-60.3	-64.9	12.8	5.26e-05	0	45	0	691011584	60	69237
2026-01-30 06:53:55.66	41.28	40.59	-60.5	-65.3	12.1	9.38e-05	0	45	0	692060160	60	71951
2026-01-30 06:53:56.67	40.80	40.58	-60.7	-66.0	10.7	1.97e-03	0	45	0	694157312	60	78099
2026-01-30 06:53:57.67	40.33	40.56	-61.0	-67.4	9.2	7.96e-03	0	45	0	696254464	60	91342
2026-01-30 06:53:58.68	39.85	40.55	-61.2	-67.9	8.9	2.08e-02	0	45	0	698351616	60	97303
2026-01-30 06:53:59.69	39.38	40.53	-60.7	-66.0	11.2	9.20e-03	0	45	0	700448768	60	78069
2026-01-30 06:54:00.69	38.91	40.51	-59.9	-63.9	13.6	7.09e-05	0	45	0	702545920	60	61046
2026-01-30 06:54:01.70	38.43	40.48	-59.4	-62.8	14.7	1.50e-06	0	46	0	703594496	60	54118
2026-01-30 06:54:02.70	37.97	40.46	-59.2	-62.4	15.2	0.00e+00	0	45	0	705691648	60	51781
2026-01-30 06:54:03.71	37.49	40.43	-59.4	-62.9	14.7	0.00e+00	0	45	0	707788800	60	54500
2026-01-30 06:54:04.71	37.03	40.40	-59.7	-63.6	13.8	3.00e-06	0	45	0	709885952	60	58983
2026-01-30 06:54:05.72	36.55	40.37	-59.9	-64.2	13.4	3.00e-06	0	45	0	711983104	60	63782
2026-01-30 06:54:06.72	36.09	40.34	-59.9	-64.5	12.9	5.64e-05	0	45	0	713031680	60	66041
2026-01-30 06:54:07.73	35.62	40.30	-59.9	-64.7	12.5	7.55e-05	0	45	0	715128832	60	67424
2026-01-30 06:54:08.73	35.16	40.26	-60.0	-65.4	12.2	1.23e-04	0	45	0	717225984	60	72976
2026-01-30 06:54:09.75	34.69	40.22	-59.7	-65.2	11.9	2.93e-04	0	45	0	719323136	60	70972
2026-01-30 06:54:10.75	34.23	40.18	-59.6	-65.3	11.3	5.89e-04	0	45	0	720371712	60	71776
2026-01-30 06:54:11.76	33.76	40.13	-59.7	-65.7	10.8	9.67e-04	0	45	0	722468864	60	75933
2026-01-30 06:54:12.76	33.30	40.09	-59.7	-65.9	11.2	1.64e-03	0	45	0	724566016	60	76865
2026-01-30 06:54:13.77	32.84	40.04	-59.9	-66.1	10.5	2.47e-03	0	45	0	726663168	60	79205
2026-01-30 06:54:14.78	32.38	39.99	-60.0	-66.0	11.0	3.06e-03	0	45	0	728760320	60	78173
2026-01-30 06:54:15.78	31.93	39.94	-60.1	-65.7	11.1	1.49e-03	0	45	0	730857472	60	75651
2026-01-30 06:54:16.79	31.47	39.88	-60.1	-65.5	11.4	1.72e-03	0	45	0	731906048	60	73887
2026-01-30 06:54:17.79	31.02	39.83	-59.7	-64.5	12.8	1.73e-04	0	45	0	734003200	60	65851
2026-01-30 06:54:18.79	30.57	39.77	-59.6	-64.3	13.1	4.34e-05	0	45	0	736100352	60	64120
2026-01-30 06:54:19.80	30.12	39.71	-59.6	-64.5	13.0	3.58e-05	0	45	0	738197504	60	65506
2026-01-30 06:54:20.80	29.67	39.64	-59.6	-64.4	13.2	2.13e-05	0	45	0	740294656	60	65075
2026-01-30 06:54:21.80	29.23	39.58	-58.7	-62.2	15.1	0.00e+00	0	45	0	741343232	60	50730
2026-01-30 06:54:22.80	28.79	39.52	-57.8	-60.6	16.8	0.00e+00	0	45	0	743440384	60	42005
2026-01-30 06:54:23.81	28.34	39.45	-57.1	-59.4	17.9	0.00e+00	0	45	0	745537536	60	36749
2026-01-30 06:54:24.82	27.90	39.38	-56.2	-58.1	19.1	0.00e+00	0	45	0	747634688	60	31594
2026-01-30 06:54:25.82	27.46	39.31	-55.5	-57.1	20.0	0.00e+00	0	45	0	748683264	60	28209
2026-01-30 06:54:26.83	27.02	39.23	-55.1	-56.6	20.6	0.00e+00	0	45	0	750780416	60	26385
2026-01-30 06:54:27.84	26.58	39.16	-54.8	-56.3	20.9	0.00e+00	0	45	0	752877568	60	25522
2026-01-30 06:54:28.84	26.15	39.08	-54.9	-56.3	20.8	0.00e+00	0	45	0	754974720	60	25672
2026-01-30 06:54:29.85	25.72	39.00	-54.7	-56.1	21.1	0.00e+00	0	45	0	757071872	60	25109
2026-01-30 06:54:30.86	25.29	38.92	-54.6	-55.9	21.3	0.00e+00	0	46	0	758120448	60	24511
2026-01-30 06:54:31.87	24.86	38.84	-54.3	-55.6	21.6	0.00e+00	0	45	0	760217600	60	23534
2026-01-30 06:54:32.87	24.44	38.76	-54.1	-55.4	21.7	0.00e+00	0	45	0	762314752	60	23099
2026-01-30 06:54:33.87	24.02	38.67	-54.0	-55.3	21.8	0.00e+00	0	45	0	764411904	60	22686
2026-01-30 06:54:34.88	23.60	38.59	-54.1	-55.4	21.7	0.00e+00	0	45	0	766509056	60	22958
2026-01-30 06:54:35.89	23.18	38.50	-54.2	-55.5	21.6	0.00e+00	0	45	0	768606208	60	23437
2026-01-30 06:54:36.90	22.76	38.41	-54.4	-55.7	21.3	0.00e+00	0	45	0	769654784	60	23932
2026-01-30 06:54:37.90	22.35	38.32	-54.4	-55.8	21.2	0.00e+00	0	46	0	771751936	60	24171
2026-01-30 06:54:38.91	21.94	38.23	-54.3	-55.6	21.3	0.00e+00	0	45	0	773849088	60	23660
2026-01-30 06:54:39.92	21.52	38.13	-54.2	-55.5	21.6	0.00e+00	0	45	0	775946240	60	23365
2026-01-30 06:54:40.92	21.12	38.04	-54.3	-55.7	21.3	0.00e+00	0	45	0	776994816	60	23957
2026-01-30 06:54:41.92	20.72	37.94	-54.4	-55.7	21.4	0.00e+00	0	45	0	779091968	60	23839
2026-01-30 06:54:42.93	20.32	37.84	-54.4	-55.7	21.6	0.00e+00	0	45	0	781189120	60	23846
2026-01-30 06:54:43.93	19.92	37.75	-54.5	-55.8	21.2	0.00e+00	0	45	0	783286272	60	24137
2026-01-30 06:54:44.93	19.52	37.65	-54.7	-56.1	20.9	0.00e+00	0	45	0	785383424	60	25085
2026-01-30 06:54:45.94	19.13	37.54	-54.9	-56.4	20.7	0.00e+00	0	46	0	786432000	60	25905
2026-01-30 06:54:46.95	18.74	37.44	-54.9	-56.4	20.9	0.00e+00	0	45	0	788529152	60	26034
2026-01-30 06:54:47.96	18.34	37.34	-55.0	-56.7	20.4	0.00e+00	0	45	0	790626304	60	26709
2026-01-30 06:54:48.96	17.96	37.23	-55.3	-57.2	19.7	0.00e+00	0	45	0	792723456	60	28237
2026-01-30 06:54:49.96	17.58	37.13	-55.4	-57.4	19.5	0.00e+00	0	45	0	794820608	60	29180
2026-01-30 06:54:50.97	17.19	37.02	-55.1	-57.0	20.2	0.00e+00	0	45	0	795869184	60	27721
2026-01-30 06:54:51.97	16.82	36.91	-55.0	-56.7	20.1	0.00e+00	0	45	0	797966336	60	26845
2026-01-30 06:54:52.98	16.44	36.80	-54.7	-56.3	20.4	0.00e+00	0	45	0	800063488	60	25676
2026-01-30 06:54:53.99	16.06	36.69	-54.5	-56.0	20.8	0.00e+00	0	45	0	802160640	60	24811
2026-01-30 06:54:54.99	15.69	36.58	-54.7	-56.3	20.9	0.00e+00	0	45	0	804257792	60	25565
2026-01-30 06:54:56.00	15.32	36.46	-54.8	-56.4	20.8	0.00e+00	0	45	0	805306368	60	25950
2026-01-30 06:54:57.01	14.96	36.35	-55.0	-56.7	20.5	0.00e+00	0	45	0	807403520	60	26730
2026-01-30 06:54:58.02	14.59	36.24	-54.9	-56.5	20.5	0.00e+00	0	45	0	809500672	60	26290
2026-01-30 06:54:59.02	14.23	36.12	-54.9	-56.5	20.5	0.00e+00	0	45	0	811597824	60	26310
2026-01-30 06:55:00.03	13.87	36.00	-54.9	-56.5	20.9	0.00e+00	0	45	0	813694976	60	26095
2026-01-30 06:55:01.03	13.52	35.89	-54.7	-56.2	21.2	0.00e+00	0	45	0	814743552	60	25218
2026-01-30 06:55:02.04	13.16	35.77	-54.7	-56.1	21.1	0.00e+00	0	45	0	816840704	60	25057
2026-01-30 06:55:03.05	12.81	35.65	-55.1	-56.6	20.8	0.00e+00	0	45	0	818937856	60	26409
2026-01-30 06:55:04.05	12.46	35.53	-55.2	-56.7	20.6	0.00e+00	0	45	0	821035008	60	26788
2026-01-30 06:55:05.06	12.12	35.41	-55.2	-56.8	20.6	0.00e+00	0	45	0	823132160	60	26980
2026-01-30 06:55:06.07	11.77	35.29	-55.3	-56.8	20.6	0.00e+00	0	45	0	824180736	60	27120
2026-01-30 06:55:07.08	11.43	35.17	-55.3	-56.9	20.5	0.00e+00	0	45	0	826277888	60	27322
2026-01-30 06:55:08.08	11.10	35.04	-55.3	-56.9	20.5	0.00e+00	0	45	0	828375040	60	27470
2026-01-30 06:55:09.09	10.76	34.92	-55.6	-57.2	20.1	0.00e+00	0	45	0	830472192	60	28483
2026-01-30 06:55:10.09	10.43	34.80	-55.7	-57.4	19.9	0.00e+00	0	45	0	832569344	60	28936
2026-01-30 06:55:11.10	10.10	34.67	-56.0	-57.8	19.5	0.00e+00	0	45	0	833617920	60	30443
2026-01-30 06:55:12.11	9.77	34.55	-56.3	-58.1	19.1	0.00e+00	0	45	0	835715072	60	31408
2026-01-30 06:55:13.12	9.44	34.42	-56.1	-57.9	19.5	0.00e+00	0	45	0	837812224	60	30633
2026-01-30 06:55:14.13	9.12	34.30	-56.0	-57.7	19.6	0.00e+00	0	45	0	839909376	60	29981
2026-01-30 06:55:15.13	8.80	34.17	-56.2	-58.0	19.3	0.00e+00	0	45	0	842006528	60	31238
2026-01-30 06:55:16.14	8.48	34.04	-56.6	-58.6	18.8	0.00e+00	0	45	0	843055104	60	33340
2026-01-30 06:55:17.14	8.17	33.92	-56.6	-58.7	18.5	0.00e+00	0	45	0	845152256	60	33766
2026-01-30 06:55:18.15	7.85	33.79	-56.6	-58.7	18.7	0.00e+00	0	45	0	847249408	60	33577
2026-01-30 06:55:19.15	7.54	33.66	-56.9	-59.1	18.3	0.00e+00	0	45	0	849346560	60	35219
2026-01-30 06:55:20.16	7.23	33.53	-56.9	-59.1	18.2	0.00e+00	0	45	0	851443712	60	35481
2026-01-30 06:55:21.17	6.93	33.40	-57.0	-59.2	18.0	0.00e+00	0	45	0	852492288	60	35891
2026-01-30 06:55:22.18	6.62	33.27	-57.2	-59.5	17.9	0.00e+00	0	45	0	854589440	60	36954
2026-01-30 06:55:23.18	6.33	33.14	-56.9	-59.0	18.3	0.00e+00	0	45	0	856686592	60	34878
2026-01-30 06:55:24.19	6.03	33.01	-57.0	-59.3	17.9	0.00e+00	0	45	0	858783744	60	36077
2026-01-30 06:55:25.19	5.73	32.88	-57.4	-59.9	17.4	0.00e+00	0	45	0	860880896	60	38545
2026-01-30 06:55:26.20	5.44	32.75	-57.2	-59.6	17.6	0.00e+00	0	45	0	861929472	60	37305
2026-01-30 06:55:27.21	5.15	32.62	-57.1	-59.3	17.9	0.00e+00	0	45	0	864026624	60	36249
2026-01-30 06:55:28.21	4.86	32.49	-57.0	-59.3	18.0	0.00e+00	0	45	0	866123776	60	36172
2026-01-30 06:55:29.22	4.57	32.35	-57.1	-59.4	17.8	0.00e+00	0	45	0	868220928	60	36678
2026-01-30 06:55:30.23	4.29	32.22	-57.1	-59.6	17.7	0.00e+00	0	45	0	870318080	60	37248
2026-01-30 06:55:31.24	4.00	32.09	-57.2	-59.7	17.5	0.00e+00	0	45	0	871366656	60	37794
2026-01-30 06:55:32.24	3.73	31.96	-57.2	-59.8	17.5	0.00e+00	0	45	0	873463808	60	38431
2026-01-30 06:55:33.25	3.45	31.82	-57.1	-59.7	17.5	0.00e+00	0	45	0	875560960	60	37833
2026-01-30 06:55:34.25	3.18	31.69	-56.8	-59.6	17.6	0.00e+00	0	45	0	877658112	60	37298
2026-01-30 06:55:35.25	2.91	31.56	-56.5	-59.4	17.7	0.00e+00	0	45	0	879755264	60	36499
2026-01-30 06:55:36.26	2.63	31.43	-56.3	-59.3	17.6	0.00e+00	0	46	0	880803840	60	36000
2026-01-30 06:55:37.26	2.37	31.30	-56.3	-59.5	17.4	0.00e+00	0	46	0	882900992	60	36902
2026-01-30 06:55:38.27	2.10	31.16	-56.5	-59.8	17.1	0.00e+00	0	45	0	884998144	60	38350
2026-01-30 06:55:39.28	1.84	31.03	-56.6	-59.8	17.2	0.00e+00	0	45	0	887095296	60	38285
2026-01-30 06:55:40.29	1.57	30.89	-56.7	-59.6	17.4	0.00e+00	0	45	0	889192448	60	37609
2026-01-30 06:55:41.30	1.31	30.76	-56.8	-59.7	17.5	0.00e+00	0	45	0	890241024	60	37652
2026-01-30 06:55:42.31	1.06	30.63	-57.0	-59.7	17.4	0.00e+00	0	45	0	892338176	60	37935
2026-01-30 06:55:43.31	0.80	30.49	-57.0	-59.6	17.6	0.00e+00	0	45	0	894435328	60	37328
2026-01-30 06:55:44.31	0.55	30.36	-57.1	-59.7	17.5	0.00e+00	0	45	0	896532480	60	37639
2026-01-30 06:55:45.32	0.30	30.23	-57.2	-59.8	17.6	0.00e+00	0	45	0	898629632	60	38249
2026-01-30 06:55:46.32	0.05	30.09	-57.2	-59.8	17.5	0.00e+00	0	45	0	899678208	60	38220
2026-01-30 06:55:47.33	359.81	29.96	-57.1	-59.6	17.6	0.00e+00	0	45	0	901775360	60	37541
2026-01-30 06:55:48.33	359.56	29.83	-57.1	-59.5	17.8	0.00e+00	0	45	0	903872512	60	36880
2026-01-30 06:55:49.33	359.32	29.70	-57.1	-59.4	17.9	0.00e+00	0	45	0	905969664	60	36578
2026-01-30 06:55:50.34	359.08	29.56	-57.2	-59.5	17.8	0.00e+00	0	45	0	908066816	60	36845
2026-01-30 06:55:51.34	358.84	29.43	-56.9	-59.0	18.3	0.00e+00	0	45	0	909115392	60	34862
2026-01-30 06:55:52.34	358.61	29.30	-56.5	-58.5	18.8	0.00e+00	0	45	0	911212544	60	32804
2026-01-30 06:55:53.35	358.37	29.16	-56.3	-58.2	19.0	0.00e+00	0	45	0	913309696	60	31890
2026-01-30 06:55:54.36	358.14	29.03	-56.2	-58.0	19.3	0.00e+00	0	45	0	915406848	60	31024
2026-01-30 06:55:55.37	357.91	28.90	-56.3	-58.1	19.0	0.00e+00	0	45	0	916455424	60	31651
2026-01-30 06:55:56.38	357.68	28.76	-56.3	-58.1	19.2	0.00e+00	0	45	0	918552576	60	31422
2026-01-30 06:55:57.38	357.46	28.63	-56.3	-58.1	19.2	0.00e+00	0	45	0	920649728	60	31394
2026-01-30 06:55:58.39	357.23	28.50	-56.3	-58.1	19.1	0.00e+00	0	45	0	922746880	60	31626
2026-01-30 06:55:59.40	357.01	28.37	-56.4	-58.3	18.9	0.00e+00	0	45	0	924844032	60	32193
2026-01-30 06:56:00.41	356.78	28.23	-56.2	-58.0	19.2	0.00e+00	0	45	0	926941184	60	31291
2026-01-30 06:56:01.41	356.57	28.10	-56.0	-57.8	19.4	0.00e+00	0	45	0	927989760	60	30399
2026-01-30 06:56:02.42	356.35	27.97	-55.9	-57.7	19.5	0.00e+00	0	45	0	930086912	60	30063
2026-01-30 06:56:03.43	356.13	27.84	-56.0	-57.8	19.3	0.00e+00	0	45	0	932184064	60	30521
2026-01-30 06:56:04.44	355.92	27.70	-55.8	-57.6	19.5	0.00e+00	0	46	0	934281216	60	29856
2026-01-30 06:56:05.44	355.71	27.57	-55.6	-57.4	19.7	0.00e+00	0	45	0	936378368	60	29094
2026-01-30 06:56:06.45	355.50	27.44	-55.7	-57.5	19.6	0.00e+00	0	45	0	937426944	60	29399
2026-01-30 06:56:07.46	355.29	27.31	-55.7	-57.5	19.6	0.00e+00	0	45	0	939524096	60	29446
2026-01-30 06:56:08.46	355.08	27.18	-55.7	-57.4	19.6	0.00e+00	0	45	0	941621248	60	29156
2026-01-30 06:56:09.46	354.88	27.05	-55.6	-57.4	19.6	0.00e+00	0	45	0	943718400	60	29097
2026-01-30 06:56:10.47	354.67	26.92	-55.7	-57.5	19.6	0.00e+00	0	45	0	945815552	60	29226
2026-01-30 06:56:11.48	354.47	26.79	-55.8	-57.6	19.5	0.00e+00	0	45	0	946864128	60	29772
2026-01-30 06:56:12.49	354.27	26.66	-55.9	-57.6	19.5	0.00e+00	0	45	0	948961280	60	29811
2026-01-30 06:56:13.50	354.07	26.53	-56.0	-57.7	19.4	0.00e+00	0	45	0	951058432	60	30125
2026-01-30 06:56:14.50	353.88	26.40	-56.1	-57.9	19.3	0.00e+00	0	45	0	953155584	60	30771
2026-01-30 06:56:15.51	353.68	26.27	-56.1	-57.9	19.3	0.00e+00	0	45	0	955252736	60	30807
2026-01-30 06:56:16.52	353.49	26.14	-56.6	-58.6	18.6	0.00e+00	0	45	0	956301312	60	33198
2026-01-30 06:56:17.53	353.29	26.01	-56.8	-58.9	18.3	0.00e+00	0	45	0	958398464	60	34579
2026-01-30 06:56:18.54	353.10	25.88	-56.9	-59.1	18.1	0.00e+00	0	45	0	960495616	60	35428
2026-01-30 06:56:19.54	352.92	25.76	-57.1	-59.4	17.9	0.00e+00	0	45	0	962592768	60	36450
2026-01-30 06:56:20.55	352.73	25.63	-57.2	-59.6	17.4	0.00e+00	0	45	0	964689920	60	37361
2026-01-30 06:56:21.55	352.54	25.50	-57.4	-59.8	17.2	0.00e+00	0	45	0	965738496	60	38360
2026-01-30 06:56:22.55	352.36	25.37	-57.0	-59.3	17.7	0.00e+00	0	45	0	967835648	60	36243
2026-01-30 06:56:23.56	352.18	25.25	-56.7	-59.0	18.0	0.00e+00	0	45	0	969932800	60	34743
2026-01-30 06:56:24.56	352.00	25.12	-56.8	-59.0	18.0	0.00e+00	0	45	0	972029952	60	34856
2026-01-30 06:56:25.57	351.82	24.99	-56.6	-58.8	18.2	0.00e+00	0	45	0	974127104	60	34173
2026-01-30 06:56:26.58	351.64	24.87	-56.0	-57.9	19.1	0.00e+00	0	45	0	975175680	60	30756
2026-01-30 06:56:27.59	351.46	24.74	-55.6	-57.3	19.6	0.00e+00	0	45	0	977272832	60	28847
2026-01-30 06:56:28.60	351.28	24.61	-55.4	-57.1	19.7	0.00e+00	0	45	0	979369984	60	28155
2026-01-30 06:56:29.61	351.11	24.49	-55.5	-57.3	19.7	0.00e+00	0	45	0	981467136	60	28591
2026-01-30 06:56:30.62	350.94	24.36	-55.6	-57.4	19.6	0.00e+00	0	45	0	983564288	60	29005
2026-01-30 06:56:31.63	350.77	24.24	-55.8	-57.6	19.3	0.00e+00	0	45	0	984612864	60	29707
2026-01-30 06:56:32.63	350.60	24.11	-56.0	-57.9	19.2	0.00e+00	0	45	0	986710016	60	30646
2026-01-30 06:56:33.64	350.43	23.99	-56.2	-58.1	18.8	0.00e+00	0	45	0	988807168	60	31445
2026-01-30 06:56:34.65	350.26	23.87	-56.4	-58.3	18.7	0.00e+00	0	45	0	990904320	60	32347
2026-01-30 06:56:35.66	350.09	23.74	-56.5	-58.5	18.6	0.00e+00	0	45	0	993001472	60	32920
2026-01-30 06:56:36.66	349.93	23.62	-56.6	-58.6	18.5	0.00e+00	0	45	0	994050048	60	33461
2026-01-30 06:56:37.67	349.77	23.50	-56.8	-58.9	18.1	0.00e+00	0	45	0	996147200	60	34493
2026-01-30 06:56:38.68	349.60	23.37	-56.9	-59.1	18.0	0.00e+00	0	45	0	998244352	60	35184
2026-01-30 06:56:39.69	349.44	23.25	-57.0	-59.3	17.8	0.00e+00	0	45	0	1000341504	60	36094
2026-01-30 06:56:40.69	349.29	23.13	-57.0	-59.3	17.7	0.00e+00	0	45	0	1002438656	60	36013
2026-01-30 06:56:41.70	349.13	23.01	-57.0	-59.3	17.8	0.00e+00	0	45	0	1003487232	60	36069
2026-01-30 06:56:42.71	348.97	22.89	-57.4	-59.9	17.2	0.00e+00	0	45	0	1005584384	60	38585
2026-01-30 06:56:43.72	348.81	22.77	-57.4	-59.9	17.0	0.00e+00	0	45	0	1007681536	60	38812
2026-01-30 06:56:44.73	348.66	22.65	-57.4	-60.0	16.9	0.00e+00	0	45	0	1009778688	60	39216
2026-01-30 06:56:45.74	348.51	22.52	-57.7	-60.5	16.6	0.00e+00	0	45	0	1011875840	60	41403
2026-01-30 06:56:46.74	348.35	22.41	-58.0	-61.0	16.1	0.00e+00	0	45	0	1012924416	60	43849
2026-01-30 06:56:47.75	348.20	22.29	-58.1	-61.2	15.6	0.00e+00	0	45	0	1015021568	60	44878
2026-01-30 06:56:48.75	348.06	22.17	-58.3	-61.6	15.3	0.00e+00	0	45	0	1017118720	60	46965
2026-01-30 06:56:49.75	347.91	22.05	-58.2	-61.3	15.6	0.00e+00	0	45	0	1019215872	60	45456
2026-01-30 06:56:50.76	347.76	21.93	-58.2	-61.3	15.6	0.00e+00	0	45	0	1021313024	60	45382
2026-01-30 06:56:51.77	347.61	21.81	-57.9	-60.7	16.1	0.00e+00	0	45	0	1022361600	60	42677
2026-01-30 06:56:52.77	347.47	21.70	-57.6	-60.3	16.4	0.00e+00	0	45	0	1024458752	60	40750
2026-01-30 06:56:53.77	347.33	21.58	-57.3	-60.2	16.5	0.00e+00	0	45	0	1026555904	60	39914
2026-01-30 06:56:54.78	347.18	21.46	-57.2	-60.1	16.5	0.00e+00	0	45	0	1028653056	60	39634
2026-01-30 06:56:55.79	347.04	21.34	-57.0	-59.9	16.7	0.00e+00	0	45	0	1030750208	60	38887
2026-01-30 06:56:56.79	346.90	21.23	-56.9	-59.9	16.7	0.00e+00	0	45	0	1031798784	60	38596
2026-01-30 06:56:57.80	346.76	21.11	-57.0	-60.2	16.5	0.00e+00	0	45	0	1033895936	60	40076
2026-01-30 06:56:58.81	346.62	21.00	-57.3	-60.7	16.1	0.00e+00	0	45	0	1035993088	60	42344
2026-01-30 06:56:59.82	346.49	20.88	-57.4	-60.8	15.8	0.00e+00	0	45	0	1038090240	60	42931
2026-01-30 06:57:00.83	346.35	20.77	-57.5	-60.8	15.8	0.00e+00	0	45	0	1040187392	60	43042
2026-01-30 06:57:01.83	346.22	20.65	-57.7	-61.1	15.6	0.00e+00	0	45	0	1041235968	60	44480
2026-01-30 06:57:02.84	346.08	20.54	-57.8	-61.1	15.5	0.00e+00	0	46	0	1043333120	60	44613
2026-01-30 06:57:03.85	345.95	20.42	-58.0	-61.5	15.1	0.00e+00	0	45	0	1045430272	60	46781
2026-01-30 06:57:04.86	345.81	20.31	-58.1	-61.7	15.1	0.00e+00	0	45	0	1047527424	60	47629
2026-01-30 06:57:05.86	345.68	20.20	-58.2	-62.0	14.6	0.00e+00	0	45	0	1049624576	60	49345
2026-01-30 06:57:06.87	345.55	20.08	-58.3	-62.1	14.6	7.00e-07	0	45	0	1051721728	60	49952
2026-01-30 06:57:07.88	345.42	19.97	-58.4	-62.2	14.4	7.00e-07	0	45	0	1052770304	60	50258
2026-01-30 06:57:08.89	345.30	19.86	-58.5	-62.3	14.2	0.00e+00	0	45	0	1054867456	60	51339
2026-01-30 06:57:09.90	345.17	19.75	-58.5	-62.4	14.4	0.00e+00	0	45	0	1056964608	60	51361
2026-01-30 06:57:10.90	345.04	19.64	-59.0	-63.3	13.4	1.50e-06	0	45	0	1059061760	60	57499
2026-01-30 06:57:11.90	344.92	19.52	-59.2	-63.7	12.8	2.05e-05	0	45	0	1060110336	60	60023
2026-01-30 06:57:12.91	344.79	19.41	-59.3	-64.0	12.4	1.23e-04	0	45	0	1062207488	60	61983
2026-01-30 06:57:13.92	344.67	19.30	-59.4	-64.1	12.3	2.07e-04	0	45	0	1064304640	60	62910
2026-01-30 06:57:14.93	344.55	19.19	-59.0	-63.2	13.5	6.71e-05	0	45	0	1066401792	60	56319
2026-01-30 06:57:15.93	344.43	19.08	-58.7	-62.4	14.2	7.00e-07	0	45	0	1068498944	60	51661
2026-01-30 06:57:16.94	344.30	18.97	-58.4	-61.9	14.7	7.00e-07	0	45	0	1069547520	60	48724
2026-01-30 06:57:17.95	344.18	18.86	-58.3	-61.7	15.0	0.00e+00	0	45	0	1071644672	60	47527
2026-01-30 06:57:18.95	344.07	18.76	-58.5	-62.0	14.6	0.00e+00	0	45	0	1073741824	60	49305
2026-01-30 06:57:19.96	343.95	18.65	-58.4	-61.9	14.6	0.00e+00	0	45	0	1075838976	60	48838
2026-01-30 06:57:20.97	343.83	18.54	-58.7	-62.5	14.0	7.00e-07	0	45	0	1077936128	60	52267
2026-01-30 06:57:21.98	343.71	18.43	-58.8	-62.7	13.8	6.10e-06	0	45	0	1080033280	60	53317
2026-01-30 06:57:22.98	343.60	18.33	-59.0	-63.1	13.3	1.22e-05	0	45	0	1081081856	60	56270
2026-01-30 06:57:23.99	343.48	18.22	-59.0	-63.1	13.2	1.98e-05	0	45	0	1083179008	60	56022
2026-01-30 06:57:24.99	343.37	18.11	-59.3	-64.0	12.7	3.20e-05	0	45	0	1085276160	60	62173
2026-01-30 06:57:25.99	343.26	18.01	-59.3	-64.1	12.1	1.66e-04	0	45	0	1087373312	60	62707
2026-01-30 06:57:26.99	343.15	17.90	-59.3	-64.2	11.7	6.03e-04	0	45	0	1088421888	60	63738
2026-01-30 06:57:28.00	343.03	17.80	-59.4	-64.6	11.3	9.77e-04	0	45	0	1090519040	60	66336
2026-01-30 06:57:29.00	342.92	17.69	-59.8	-66.0	10.0	4.70e-03	0	45	0	1092616192	60	78413
2026-01-30 06:57:30.00	342.81	17.59	-59.9	-66.4	8.8	9.71e-03	0	45	0	1094713344	60	81836
2026-01-30 06:57:31.00	342.71	17.48	-60.0	-66.6	9.0	2.68e-02	0	45	0	1096810496	60	83825
2026-01-30 06:57:32.00	342.60	17.38	-60.3	-67.6	8.0	4.39e-02	0	45	0	1097859072	60	93756
2026-01-30 06:57:33.00	342.49	17.28	-60.4	-68.0	7.8	6.31e-02	0	45	0	1099956224	60	98309
2026-01-30 06:57:34.00	342.39	17.17	-60.3	-67.7	7.3	1.18e-01	0	45	0	1102053376	60	95489
2026-01-30 06:57:35.00	342.28	17.07	-60.4	-68.6	6.7	1.41e-01	0	45	0	1104150528	60	105710
2026-01-30 06:57:36.00	342.18	16.97	-60.3	-68.7	6.3	1.90e-01	0	45	0	1106247680	60	107043
2026-01-30 06:57:37.01	342.07	16.87	-60.2	-68.8	6.4	2.65e-01	0	45	0	1107296256	60	107311
2026-01-30 06:57:38.01	341.97	16.76	-59.8	-66.6	9.0	9.88e-02	0	45	0	1109393408	60	83686
2026-01-30 06:57:39.02	341.86	16.66	-59.1	-64.6	11.3	9.95e-03	0	45	0	1111490560	60	66298
2026-01-30 06:57:40.02	341.76	16.56	-58.5	-62.9	13.2	1.14e-04	0	45	0	1113587712	60	54535
2026-01-30 06:57:41.02	341.66	16.46	-57.8	-61.5	14.5	3.00e-06	0	45	0	1114636288	60	46768
2026-01-30 06:57:42.03	341.56	16.36	-57.3	-60.5	15.6	0.00e+00	0	45	0	1116733440	60	41392
2026-01-30 06:57:43.03	341.46	16.26	-56.8	-59.7	16.3	0.00e+00	0	45	0	1118830592	60	37840
2026-01-30 06:57:44.03	341.36	16.16	-56.5	-59.2	16.8	0.00e+00	0	45	0	1120927744	60	35584
2026-01-30 06:57:45.03	341.26	16.06	-56.2	-58.7	17.1	0.00e+00	0	45	0	1123024896	60	33903
2026-01-30 06:57:46.04	341.16	15.96	-56.1	-58.6	17.3	0.00e+00	0	45	0	1124073472	60	33524
2026-01-30 06:57:47.04	341.07	15.86	-56.0	-58.5	17.3	0.00e+00	0	45	0	1126170624	60	32994
2026-01-30 06:57:48.04	340.97	15.76	-56.1	-58.7	17.1	0.00e+00	0	45	0	1128267776	60	33629
2026-01-30 06:57:49.04	340.88	15.66	-56.2	-58.9	16.9	0.00e+00	0	45	0	1130364928	60	34414
2026-01-30 06:57:50.05	340.78	15.57	-56.3	-59.1	16.5	0.00e+00	0	45	0	1132462080	60	35217
2026-01-30 06:57:51.05	340.69	15.47	-56.1	-58.9	16.7	0.00e+00	0	45	0	1133510656	60	34476
2026-01-30 06:57:52.06	340.59	15.37	-56.2	-59.0	16.6	0.00e+00	0	45	0	1135607808	60	35084
2026-01-30 06:57:53.06	340.50	15.27	-56.3	-59.2	16.4	0.00e+00	0	45	0	1137704960	60	35610
2026-01-30 06:57:54.06	340.41	15.18	-56.4	-59.3	16.2	0.00e+00	0	45	0	1139802112	60	36213
2026-01-30 06:57:55.06	340.31	15.08	-56.5	-59.5	16.0	0.00e+00	0	45	0	1141899264	60	36938
