passes_logs/2026/01/30/R3.2S-Naryan-Mar/R3.2S-Naryan-Mar__20260130_114516_AQUA_rec.log

#Pass ID: 20260130_114516_AQUA
#Satellite: AQUA
#Configuration: AQUA
#almurnet v.1.7.20240730
#Start time: 2026-01-30 11:45:19

#Version: 2.2.20231116
#Station: R3.2S-Naryan-Mar
#Location: 53.008057 lon 67.646978 lat
#TLE: 1 27424U 02022A   26029.54575153  .00001738  00000+0  35736-3 0  9994
#TLE: 2 27424  98.4104 356.2197 0001804  61.7823  56.0643 14.61874165263019

#Time	Az	El	Level	Level2	SNR	BER	BlckErr	Temp	State	Recorded	gain1	gain2
2026-01-30 11:45:19.78	196.79	0.17	-56.2	-76.6	3.3	3.03e+01	0	44	0	0	60	258463
2026-01-30 11:45:20.79	196.85	0.22	-57.3	-77.8	3.5	3.03e+01	0	44	104	0	60	295853
2026-01-30 11:45:21.79	196.90	0.28	-57.8	-78.3	3.5	3.03e+01	0	44	104	0	60	311770
2026-01-30 11:45:22.80	196.96	0.34	-57.9	-78.2	3.5	3.03e+01	0	44	104	0	60	310889
2026-01-30 11:45:23.80	197.02	0.40	-58.7	-78.9	3.5	3.03e+01	0	44	104	0	60	334664
2026-01-30 11:45:24.81	197.07	0.45	-58.7	-78.4	3.5	3.03e+01	0	44	104	0	60	314633
2026-01-30 11:45:25.82	197.13	0.51	-58.5	-78.0	3.5	3.03e+01	0	44	104	0	60	302787
2026-01-30 11:45:26.83	197.19	0.57	-58.0	-77.8	3.5	3.03e+01	0	44	104	0	60	295084
2026-01-30 11:45:27.83	197.25	0.63	-58.8	-78.4	3.5	3.03e+01	0	44	104	0	60	315036
2026-01-30 11:45:28.84	197.31	0.69	-58.6	-78.4	3.5	3.03e+01	0	44	104	0	60	316449
2026-01-30 11:45:29.85	197.36	0.75	-58.6	-78.4	3.5	3.03e+01	0	44	104	0	60	315303
2026-01-30 11:45:30.86	197.42	0.81	-58.5	-78.2	3.5	3.03e+01	0	44	104	0	60	310450
2026-01-30 11:45:31.86	197.48	0.86	-58.5	-78.1	3.5	3.03e+01	0	44	104	0	60	306514
2026-01-30 11:45:32.87	197.54	0.92	-58.2	-78.0	3.5	3.03e+01	0	44	104	0	60	301494
2026-01-30 11:45:33.87	197.60	0.98	-57.9	-77.7	3.5	3.03e+01	0	44	104	0	60	290874
2026-01-30 11:45:34.88	197.66	1.04	-57.8	-77.8	3.5	3.03e+01	0	44	104	0	60	294723
2026-01-30 11:45:35.88	197.72	1.10	-57.8	-77.6	3.5	3.03e+01	0	44	104	0	60	289232
2026-01-30 11:45:36.89	197.78	1.16	-57.3	-77.0	3.5	3.03e+01	0	44	104	0	60	269445
2026-01-30 11:45:37.90	197.84	1.22	-57.1	-77.2	3.5	3.03e+01	0	44	104	0	60	274153
2026-01-30 11:45:38.91	197.90	1.28	-56.9	-77.1	3.5	3.03e+01	0	44	104	0	60	273437
2026-01-30 11:45:39.91	197.96	1.34	-56.8	-76.6	3.5	3.03e+01	0	44	104	0	60	255777
2026-01-30 11:45:40.92	198.02	1.40	-56.6	-76.5	3.5	3.03e+01	0	44	104	0	60	254758
2026-01-30 11:45:41.93	198.08	1.46	-56.2	-76.3	3.5	3.03e+01	0	44	104	0	60	248130
2026-01-30 11:45:42.94	198.14	1.52	-55.3	-75.7	3.5	3.03e+01	0	44	104	0	60	231951
2026-01-30 11:45:43.94	198.21	1.58	-55.3	-75.6	3.5	3.03e+01	0	44	104	0	60	229556
2026-01-30 11:45:44.95	198.27	1.64	-55.2	-75.8	3.5	3.03e+01	0	44	104	0	60	233528
2026-01-30 11:45:45.96	198.33	1.70	-55.7	-75.8	3.5	3.03e+01	0	44	104	0	60	235750
2026-01-30 11:45:46.97	198.39	1.76	-55.6	-75.5	3.5	3.03e+01	0	44	104	0	60	227285
2026-01-30 11:45:47.97	198.46	1.82	-55.5	-75.5	3.5	3.03e+01	0	45	104	0	60	225510
2026-01-30 11:45:48.97	198.52	1.88	-55.2	-75.1	3.5	3.03e+01	0	44	104	0	60	217597
2026-01-30 11:45:49.97	198.58	1.94	-54.9	-74.9	3.5	3.03e+01	0	44	104	0	60	212675
2026-01-30 11:45:50.98	198.65	2.00	-54.5	-74.6	3.5	3.03e+01	0	44	104	0	60	205086
2026-01-30 11:45:51.99	198.71	2.07	-53.7	-74.3	3.5	3.03e+01	0	44	104	0	60	197728
2026-01-30 11:45:52.99	198.77	2.13	-53.8	-74.3	3.5	3.03e+01	0	45	104	0	60	197029
2026-01-30 11:45:54.00	198.84	2.19	-53.7	-74.3	3.5	3.03e+01	0	45	104	0	60	197034
2026-01-30 11:45:55.00	198.90	2.25	-53.6	-74.3	3.5	3.03e+01	0	45	104	0	60	196392
2026-01-30 11:45:56.01	198.97	2.31	-53.6	-74.2	3.5	3.03e+01	0	44	104	0	60	194700
2026-01-30 11:45:57.01	199.03	2.37	-53.6	-74.2	3.5	3.03e+01	0	44	104	0	60	194235
2026-01-30 11:45:58.02	199.10	2.44	-53.6	-74.1	3.5	3.03e+01	0	44	104	0	60	192045
2026-01-30 11:45:59.02	199.16	2.50	-53.5	-74.1	3.5	3.03e+01	0	44	104	0	60	191860
2026-01-30 11:46:00.03	199.23	2.56	-53.5	-74.1	3.5	3.03e+01	0	44	104	0	60	192213
2026-01-30 11:46:01.04	199.30	2.62	-53.5	-74.0	3.5	3.03e+01	0	44	104	0	60	191298
2026-01-30 11:46:02.05	199.36	2.68	-53.5	-74.0	3.5	3.03e+01	0	44	104	0	60	189949
2026-01-30 11:46:03.05	199.43	2.75	-53.6	-74.1	3.5	3.03e+01	0	44	104	0	60	192622
2026-01-30 11:46:04.06	199.50	2.81	-53.6	-74.1	3.5	3.03e+01	0	44	104	0	60	192307
2026-01-30 11:46:05.07	199.57	2.87	-53.5	-74.0	3.5	3.03e+01	0	44	104	0	60	190295
2026-01-30 11:46:06.07	199.63	2.93	-53.6	-74.1	3.5	3.03e+01	0	45	104	0	60	192541
2026-01-30 11:46:07.08	199.70	3.00	-53.6	-74.0	3.5	3.03e+01	0	44	104	0	60	191255
2026-01-30 11:46:08.09	199.77	3.06	-53.6	-74.0	3.5	3.03e+01	0	45	104	0	60	191569
2026-01-30 11:46:09.10	199.84	3.13	-53.5	-74.1	3.5	3.03e+01	0	44	104	0	60	191871
2026-01-30 11:46:10.11	199.91	3.19	-53.5	-74.0	3.5	3.03e+01	0	44	104	0	60	191199
2026-01-30 11:46:11.11	199.98	3.25	-53.5	-74.1	3.5	3.03e+01	0	45	104	0	60	192111
2026-01-30 11:46:12.12	200.05	3.32	-53.5	-74.0	3.5	3.03e+01	0	44	104	0	60	190951
2026-01-30 11:46:13.12	200.12	3.38	-53.5	-74.1	3.5	3.03e+01	0	44	104	0	60	191891
2026-01-30 11:46:14.13	200.19	3.44	-53.5	-73.9	3.5	3.03e+01	0	45	104	0	60	189060
2026-01-30 11:46:15.13	200.26	3.51	-53.5	-74.0	3.5	3.03e+01	0	45	104	0	60	190633
2026-01-30 11:46:16.14	200.33	3.57	-53.5	-74.0	3.5	3.03e+01	0	44	104	0	60	190582
2026-01-30 11:46:17.14	200.40	3.64	-53.5	-73.9	3.5	3.03e+01	0	45	104	0	60	188359
2026-01-30 11:46:18.15	200.47	3.70	-53.5	-73.8	3.6	3.03e+01	0	45	104	0	60	187174
2026-01-30 11:46:19.15	200.54	3.76	-53.5	-73.8	3.5	3.03e+01	0	45	104	0	60	187211
2026-01-30 11:46:20.16	200.62	3.83	-53.5	-73.9	3.5	3.03e+01	0	45	104	0	60	188396
2026-01-30 11:46:21.16	200.69	3.89	-53.5	-73.8	3.5	3.03e+01	0	45	104	0	60	186522
2026-01-30 11:46:22.17	200.76	3.96	-53.4	-73.8	3.5	3.03e+01	0	45	104	0	60	187147
2026-01-30 11:46:23.16	200.84	4.02	-53.4	-73.7	3.5	3.03e+01	0	45	104	0	60	184545
2026-01-30 11:46:24.17	200.91	4.09	-53.4	-73.7	3.5	3.03e+01	0	45	104	0	60	184456
2026-01-30 11:46:25.17	200.98	4.15	-53.4	-73.6	3.5	3.03e+01	0	44	104	0	60	182632
2026-01-30 11:46:26.18	201.06	4.22	-53.4	-73.8	3.5	3.03e+01	0	44	104	0	60	186198
2026-01-30 11:46:27.19	201.13	4.29	-53.4	-73.8	3.5	3.03e+01	0	45	104	0	60	185637
2026-01-30 11:46:28.20	201.21	4.35	-53.4	-73.8	3.5	3.03e+01	0	45	104	0	60	185687
2026-01-30 11:46:29.20	201.28	4.42	-53.4	-73.8	3.5	3.03e+01	0	44	104	0	60	186209
2026-01-30 11:46:30.21	201.36	4.48	-53.4	-73.8	3.5	3.03e+01	0	44	104	0	60	185867
2026-01-30 11:46:31.22	201.44	4.55	-53.4	-73.5	3.5	3.03e+01	0	44	104	0	60	179583
2026-01-30 11:46:32.23	201.51	4.62	-53.4	-73.3	3.5	3.03e+01	0	44	104	0	60	175054
2026-01-30 11:46:33.23	201.59	4.68	-53.4	-73.0	3.5	3.03e+01	0	44	104	0	60	170763
2026-01-30 11:46:34.24	201.67	4.75	-53.3	-73.1	3.5	3.03e+01	0	44	104	0	60	171460
2026-01-30 11:46:35.25	201.74	4.82	-53.3	-73.2	3.5	3.03e+01	0	45	104	0	60	173544
2026-01-30 11:46:36.25	201.82	4.88	-53.3	-73.0	3.5	3.03e+01	0	45	104	0	60	170632
2026-01-30 11:46:37.26	201.90	4.95	-53.3	-72.4	3.5	3.03e+01	0	45	104	0	60	158407
2026-01-30 11:46:38.27	201.98	5.02	-53.3	-71.4	3.6	3.03e+01	0	45	104	0	60	141506
2026-01-30 11:46:39.28	202.06	5.09	-53.3	-70.4	4.2	3.03e+01	0	45	104	0	60	125762
2026-01-30 11:46:40.28	202.14	5.15	-53.3	-69.7	4.5	3.03e+01	0	45	104	0	60	116598
2026-01-30 11:46:41.29	202.22	5.22	-53.2	-69.4	3.7	3.03e+01	0	45	104	0	60	112029
2026-01-30 11:46:42.29	202.30	5.29	-53.2	-68.2	5.0	3.03e+01	0	45	0	0	60	97458
2026-01-30 11:46:43.30	202.38	5.36	-53.1	-66.8	6.6	3.03e+01	0	45	104	0	60	82890
2026-01-30 11:46:44.31	202.46	5.43	-52.9	-63.5	9.1	3.03e+01	0	45	0	1572864	60	57111
2026-01-30 11:46:45.32	202.54	5.50	-52.6	-61.0	12.0	3.03e+01	0	45	0	3145728	60	42685
2026-01-30 11:46:46.32	202.62	5.56	-52.1	-58.9	14.4	3.03e+01	0	45	0	5242880	60	33390
2026-01-30 11:46:47.33	202.70	5.63	-51.5	-57.0	16.3	3.03e+01	0	45	0	7340032	60	26801
2026-01-30 11:46:48.33	202.79	5.70	-51.0	-55.8	17.7	3.03e+01	0	45	0	8912896	60	23418
2026-01-30 11:46:49.34	202.87	5.77	-50.6	-54.8	18.6	3.03e+01	0	45	0	11010048	60	20904
2026-01-30 11:46:50.35	202.95	5.84	-50.3	-54.4	19.0	3.03e+01	0	45	0	12582912	60	19854
2026-01-30 11:46:51.35	203.04	5.91	-50.3	-54.2	19.1	3.03e+01	0	45	0	14680064	60	19582
2026-01-30 11:46:52.36	203.12	5.98	-50.5	-54.7	18.6	3.03e+01	0	45	0	16252928	60	20630
2026-01-30 11:46:53.36	203.21	6.05	-50.7	-55.2	18.5	3.03e+01	0	45	0	18350080	60	21798
2026-01-30 11:46:54.37	203.29	6.12	-50.3	-54.1	18.5	3.03e+01	0	45	0	20447232	60	19389
2026-01-30 11:46:55.38	203.38	6.19	-53.1	-64.4	10.4	3.03e+01	0	45	0	22020096	60	63345
2026-01-30 11:46:56.38	203.46	6.26	-47.9	-50.4	22.8	3.03e+01	0	45	0	24117248	60	12641
2026-01-30 11:46:57.39	203.55	6.33	-48.3	-50.9	22.6	3.03e+01	0	45	0	25690112	60	13342
2026-01-30 11:46:58.40	203.64	6.40	-50.1	-54.0	19.8	3.03e+01	0	45	0	27787264	60	18980
2026-01-30 11:46:59.40	203.72	6.47	-48.5	-51.4	21.9	3.03e+01	0	45	0	29884416	60	14073
2026-01-30 11:47:00.41	203.81	6.54	-48.1	-50.7	22.4	3.03e+01	0	45	0	31457280	60	13021
2026-01-30 11:47:01.42	203.90	6.61	-47.9	-50.3	22.8	3.03e+01	0	45	0	33554432	60	12495
2026-01-30 11:47:02.43	203.99	6.68	-47.8	-50.2	23.0	3.03e+01	0	45	0	35127296	60	12247
2026-01-30 11:47:03.43	204.08	6.75	-47.9	-50.3	22.9	3.03e+01	0	45	0	37224448	60	12429
2026-01-30 11:47:04.43	204.17	6.83	-47.7	-50.1	23.0	3.03e+01	0	45	0	39321600	60	12148
2026-01-30 11:47:05.44	204.26	6.90	-47.8	-50.1	23.0	3.03e+01	0	45	0	40894464	60	12228
2026-01-30 11:47:06.45	204.35	6.97	-47.8	-50.2	23.0	3.03e+01	0	45	0	42991616	60	12299
2026-01-30 11:47:07.46	204.44	7.04	-47.7	-50.0	23.1	3.03e+01	0	45	0	44564480	60	12092
2026-01-30 11:47:08.47	204.53	7.11	-47.7	-50.0	23.1	3.03e+01	0	45	0	46661632	60	12092
2026-01-30 11:47:09.47	204.62	7.19	-47.7	-50.0	23.2	3.03e+01	0	45	0	48234496	60	11992
2026-01-30 11:47:10.48	204.71	7.26	-47.7	-50.0	23.2	3.03e+01	0	45	0	50331648	60	12088
2026-01-30 11:47:11.49	204.81	7.33	-47.9	-50.2	23.1	3.03e+01	0	45	0	52428800	60	12281
2026-01-30 11:47:12.50	204.90	7.40	-47.8	-50.0	23.3	3.03e+01	0	45	0	54525952	60	11994
2026-01-30 11:47:13.51	204.99	7.48	-47.9	-50.1	23.2	3.03e+01	0	44	0	56098816	60	12206
2026-01-30 11:47:14.51	205.09	7.55	-47.9	-50.1	23.2	3.03e+01	0	44	0	58195968	60	12238
2026-01-30 11:47:15.52	205.18	7.62	-47.7	-50.0	23.4	3.03e+01	0	45	0	59768832	60	12004
2026-01-30 11:47:16.52	205.28	7.70	-47.8	-50.0	23.4	3.03e+01	0	45	0	61865984	60	12061
2026-01-30 11:47:17.53	205.37	7.77	-47.9	-50.2	23.2	3.03e+01	0	45	0	63438848	60	12342
2026-01-30 11:47:18.54	205.47	7.85	-47.7	-49.9	23.6	3.03e+01	0	45	0	65536000	60	11859
2026-01-30 11:47:19.54	205.57	7.92	-47.6	-49.8	23.6	3.03e+01	0	44	0	67633152	60	11767
2026-01-30 11:47:20.55	205.66	7.99	-47.5	-49.6	23.7	3.03e+01	0	44	0	69206016	60	11473
2026-01-30 11:47:21.55	205.76	8.07	-47.4	-49.6	23.8	3.03e+01	0	44	0	71303168	60	11437
2026-01-30 11:47:22.56	205.86	8.14	-47.6	-49.7	23.7	3.03e+01	0	45	0	72876032	60	11674
2026-01-30 11:47:23.56	205.96	8.22	-47.6	-49.7	23.6	3.03e+01	0	45	0	74973184	60	11661
2026-01-30 11:47:24.57	206.06	8.29	-47.5	-49.6	23.8	3.03e+01	0	44	0	76546048	60	11499
2026-01-30 11:47:25.58	206.16	8.37	-47.5	-49.6	23.9	3.03e+01	0	45	0	78643200	60	11457
2026-01-30 11:47:26.58	206.26	8.44	-47.5	-49.6	23.9	3.03e+01	0	45	0	80740352	60	11475
2026-01-30 11:47:27.58	206.36	8.52	-47.6	-49.7	23.8	3.03e+01	0	45	0	82313216	60	11582
2026-01-30 11:47:28.59	206.46	8.59	-47.5	-49.6	23.9	3.03e+01	0	44	0	84410368	60	11526
2026-01-30 11:47:29.60	206.56	8.67	-47.5	-49.6	23.9	3.03e+01	0	45	0	86507520	60	11461
2026-01-30 11:47:30.61	206.67	8.75	-47.6	-49.7	23.9	3.03e+01	0	45	0	88080384	60	11568
2026-01-30 11:47:31.61	206.77	8.82	-47.5	-49.5	24.0	3.03e+01	0	45	0	90177536	60	11338
2026-01-30 11:47:32.62	206.87	8.90	-47.6	-49.6	23.9	3.03e+01	0	45	0	91750400	60	11507
2026-01-30 11:47:33.62	206.98	8.97	-47.6	-49.6	24.0	3.03e+01	0	45	0	93847552	60	11497
2026-01-30 11:47:34.63	207.08	9.05	-47.5	-49.5	24.1	3.03e+01	0	45	0	95944704	60	11359
2026-01-30 11:47:35.63	207.19	9.13	-47.6	-49.6	24.0	3.03e+01	0	45	0	97517568	60	11532
2026-01-30 11:47:36.64	207.29	9.21	-47.6	-49.6	24.1	3.03e+01	0	45	0	99614720	60	11465
2026-01-30 11:47:37.65	207.40	9.28	-47.6	-49.6	24.0	3.03e+01	0	45	0	101187584	60	11536
2026-01-30 11:47:38.65	207.51	9.36	-47.5	-49.5	24.1	3.03e+01	0	45	0	103284736	60	11332
2026-01-30 11:47:39.66	207.61	9.44	-47.6	-49.6	24.1	3.03e+01	0	45	0	104857600	60	11460
2026-01-30 11:47:40.66	207.72	9.52	-47.6	-49.6	24.1	3.03e+01	0	45	0	106954752	60	11436
2026-01-30 11:47:41.66	207.83	9.59	-47.4	-49.4	24.3	3.03e+01	0	45	0	109051904	60	11221
2026-01-30 11:47:42.67	207.94	9.67	-47.4	-49.4	24.2	3.03e+01	0	45	0	110624768	60	11206
2026-01-30 11:47:43.67	208.05	9.75	-47.4	-49.4	24.3	3.03e+01	0	45	0	112721920	60	11225
2026-01-30 11:47:44.68	208.16	9.83	-47.4	-49.4	24.3	3.03e+01	0	45	0	114294784	60	11224
2026-01-30 11:47:45.69	208.27	9.91	-47.5	-49.4	24.2	3.03e+01	0	45	0	116391936	60	11275
2026-01-30 11:47:46.69	208.38	9.99	-47.4	-49.3	24.3	3.03e+01	0	45	0	117964800	60	11157
2026-01-30 11:47:47.70	208.50	10.07	-47.3	-49.3	24.4	3.03e+01	0	45	0	120061952	60	11080
2026-01-30 11:47:48.71	208.61	10.15	-47.3	-49.3	24.3	3.03e+01	0	45	0	122159104	60	11056
2026-01-30 11:47:49.72	208.72	10.23	-47.3	-49.4	24.3	3.03e+01	0	45	0	124256256	60	11166
2026-01-30 11:47:50.72	208.84	10.31	-47.3	-49.3	24.3	3.03e+01	0	45	0	125829120	60	11130
2026-01-30 11:47:51.73	208.95	10.39	-47.5	-49.5	24.1	3.03e+01	0	45	0	127926272	60	11415
2026-01-30 11:47:52.74	209.07	10.47	-47.3	-49.4	24.2	3.03e+01	0	45	0	129499136	60	11215
2026-01-30 11:47:53.74	209.19	10.55	-47.2	-49.3	24.2	3.03e+01	0	45	0	131596288	60	11074
2026-01-30 11:47:54.74	209.30	10.63	-47.2	-49.2	24.4	3.03e+01	0	45	0	133169152	60	10939
2026-01-30 11:47:55.75	209.42	10.71	-47.2	-49.2	24.3	3.03e+01	0	45	0	135266304	60	10974
2026-01-30 11:47:56.75	209.54	10.79	-47.3	-49.3	24.2	3.03e+01	0	45	0	137363456	60	11106
2026-01-30 11:47:57.76	209.66	10.87	-47.3	-49.2	24.4	3.03e+01	0	45	0	138936320	60	11025
2026-01-30 11:47:58.77	209.78	10.95	-47.2	-49.2	24.4	3.03e+01	0	45	0	141033472	60	10952
2026-01-30 11:47:59.77	209.90	11.03	-47.2	-49.2	24.4	3.03e+01	0	45	0	142606336	60	10931
2026-01-30 11:48:00.78	210.02	11.12	-47.3	-49.3	24.3	3.03e+01	0	45	0	144703488	60	11038
2026-01-30 11:48:01.78	210.14	11.20	-47.3	-49.2	24.3	3.03e+01	0	45	0	146276352	60	11007
2026-01-30 11:48:02.79	210.27	11.28	-47.3	-49.2	24.3	3.03e+01	0	45	0	148373504	60	11006
2026-01-30 11:48:03.79	210.39	11.36	-47.3	-49.3	24.4	3.03e+01	0	44	0	150470656	60	11046
2026-01-30 11:48:04.80	210.51	11.44	-47.3	-49.3	24.3	3.03e+01	0	44	0	152567808	60	11056
2026-01-30 11:48:05.81	210.64	11.53	-47.2	-49.2	24.3	3.03e+01	0	45	0	154140672	60	10988
2026-01-30 11:48:06.81	210.76	11.61	-47.3	-49.3	24.2	3.03e+01	0	45	0	156237824	60	11134
2026-01-30 11:48:07.82	210.89	11.69	-47.3	-49.3	24.3	3.03e+01	0	45	0	157810688	60	11091
2026-01-30 11:48:08.83	211.02	11.78	-47.2	-49.1	24.5	3.03e+01	0	45	0	159907840	60	10894
2026-01-30 11:48:09.83	211.15	11.86	-47.2	-49.1	24.6	3.03e+01	0	45	0	161480704	60	10810
2026-01-30 11:48:10.84	211.27	11.94	-47.3	-49.2	24.6	3.03e+01	0	45	0	163577856	60	10989
2026-01-30 11:48:11.85	211.40	12.03	-47.2	-49.1	24.8	3.03e+01	0	45	0	165675008	60	10814
2026-01-30 11:48:12.86	211.54	12.11	-47.3	-49.1	24.8	3.03e+01	0	45	0	167247872	60	10907
2026-01-30 11:48:13.86	211.67	12.20	-47.3	-49.1	24.9	3.03e+01	0	45	0	169345024	60	10909
2026-01-30 11:48:14.87	211.80	12.28	-47.5	-49.3	24.9	3.03e+01	0	45	0	170917888	60	11132
2026-01-30 11:48:15.87	211.93	12.37	-47.6	-49.4	24.8	3.03e+01	0	45	0	173015040	60	11253
2026-01-30 11:48:16.88	212.06	12.45	-47.7	-49.5	24.8	3.03e+01	0	45	0	174587904	60	11360
2026-01-30 11:48:17.89	212.20	12.54	-47.5	-49.3	24.9	3.03e+01	0	45	0	176685056	60	11105
2026-01-30 11:48:18.90	212.33	12.62	-47.6	-49.4	24.9	3.03e+01	0	45	0	178782208	60	11260
2026-01-30 11:48:19.91	212.47	12.71	-47.5	-49.3	24.9	3.03e+01	0	45	0	180879360	60	11157
2026-01-30 11:48:20.92	212.61	12.79	-47.5	-49.3	24.9	3.03e+01	0	45	0	182452224	60	11093
2026-01-30 11:48:21.92	212.74	12.88	-47.5	-49.3	24.9	3.03e+01	0	45	0	184549376	60	11093
2026-01-30 11:48:22.93	212.88	12.97	-47.5	-49.3	24.9	3.03e+01	0	45	0	186122240	60	11104
2026-01-30 11:48:23.94	213.02	13.05	-47.5	-49.4	24.8	3.03e+01	0	45	0	188219392	60	11177
2026-01-30 11:48:24.95	213.16	13.14	-47.4	-49.3	24.9	3.03e+01	0	45	0	189792256	60	11065
2026-01-30 11:48:25.95	213.30	13.23	-47.4	-49.3	24.8	3.03e+01	0	45	0	191889408	60	11093
2026-01-30 11:48:26.96	213.44	13.31	-47.4	-49.4	24.7	3.03e+01	0	45	0	193986560	60	11185
2026-01-30 11:48:27.96	213.59	13.40	-47.4	-49.5	24.4	3.03e+01	0	45	0	195559424	60	11389
2026-01-30 11:48:28.97	213.73	13.49	-47.4	-49.6	24.3	3.03e+01	0	45	0	197656576	60	11451
2026-01-30 11:48:29.98	213.87	13.58	-47.4	-49.5	24.2	3.03e+01	0	45	0	199229440	60	11423
2026-01-30 11:48:30.99	214.02	13.66	-47.4	-49.5	24.2	3.03e+01	0	45	0	201326592	60	11380
2026-01-30 11:48:31.99	214.17	13.75	-47.3	-49.4	24.4	3.03e+01	0	45	0	202899456	60	11267
2026-01-30 11:48:33.00	214.31	13.84	-47.4	-49.5	24.3	3.03e+01	0	45	0	204996608	60	11350
2026-01-30 11:48:34.00	214.46	13.93	-47.4	-49.5	24.4	3.03e+01	0	45	0	207093760	60	11330
2026-01-30 11:48:35.01	214.61	14.02	-47.4	-49.5	24.4	3.03e+01	0	45	0	209190912	60	11422
2026-01-30 11:48:36.00	214.76	14.10	-47.5	-49.6	24.4	3.03e+01	0	45	0	210763776	60	11546
2026-01-30 11:48:37.01	214.91	14.19	-47.5	-49.6	24.3	3.03e+01	0	45	0	212860928	60	11523
2026-01-30 11:48:38.01	215.06	14.28	-47.6	-49.8	24.2	3.03e+01	0	45	0	214433792	60	11709
2026-01-30 11:48:39.02	215.21	14.37	-47.6	-49.8	24.0	3.03e+01	0	45	0	216530944	60	11820
2026-01-30 11:48:40.02	215.36	14.46	-47.5	-49.7	24.1	3.03e+01	0	45	0	218103808	60	11674
2026-01-30 11:48:41.03	215.52	14.55	-47.5	-49.7	24.2	3.03e+01	0	45	0	220200960	60	11606
2026-01-30 11:48:42.04	215.68	14.64	-47.6	-49.8	24.0	3.03e+01	0	45	0	222298112	60	11777
2026-01-30 11:48:43.05	215.83	14.73	-47.6	-49.8	24.2	3.03e+01	0	45	0	223870976	60	11816
2026-01-30 11:48:44.05	215.99	14.82	-47.5	-49.7	24.3	3.03e+01	0	45	0	225968128	60	11589
2026-01-30 11:48:45.06	216.15	14.91	-47.7	-49.9	24.3	3.03e+01	0	45	0	227540992	60	11911
2026-01-30 11:48:46.07	216.31	15.00	-47.7	-49.7	24.7	3.03e+01	0	45	0	229638144	60	11685
2026-01-30 11:48:47.08	216.47	15.09	-47.7	-49.7	25.0	3.03e+01	0	45	0	231211008	60	11573
2026-01-30 11:48:48.09	216.63	15.18	-47.8	-49.6	25.2	3.03e+01	0	45	0	233308160	60	11497
2026-01-30 11:48:49.10	216.79	15.28	-47.9	-49.7	25.3	3.03e+01	0	45	0	235405312	60	11673
2026-01-30 11:48:50.10	216.96	15.37	-47.9	-49.6	25.4	3.03e+01	0	45	0	237502464	60	11555
2026-01-30 11:48:51.11	217.12	15.46	-47.9	-49.7	25.4	3.03e+01	0	45	0	239075328	60	11638
2026-01-30 11:48:52.11	217.29	15.55	-48.0	-49.8	25.4	3.03e+01	0	45	0	241172480	60	11766
2026-01-30 11:48:53.12	217.45	15.64	-48.1	-49.8	25.4	3.03e+01	0	45	0	242745344	60	11753
2026-01-30 11:48:54.12	217.62	15.73	-48.1	-49.9	25.3	3.03e+01	0	45	0	244842496	60	11884
2026-01-30 11:48:55.13	217.79	15.82	-48.1	-49.9	25.4	3.03e+01	0	44	0	246415360	60	11840
2026-01-30 11:48:56.14	217.96	15.92	-48.1	-49.9	25.3	3.03e+01	0	45	0	248512512	60	11892
2026-01-30 11:48:57.15	218.13	16.01	-48.2	-50.0	25.0	3.03e+01	0	45	0	250609664	60	12048
2026-01-30 11:48:58.15	218.30	16.10	-48.2	-50.0	25.0	3.03e+01	0	45	0	252182528	60	12030
2026-01-30 11:48:59.16	218.48	16.19	-48.1	-49.9	25.2	3.03e+01	0	45	0	254279680	60	11875
2026-01-30 11:49:00.17	218.65	16.29	-48.1	-49.8	25.2	3.03e+01	0	45	0	255852544	60	11818
2026-01-30 11:49:01.18	218.83	16.38	-48.0	-49.8	25.2	3.03e+01	0	45	0	257949696	60	11773
2026-01-30 11:49:02.19	219.00	16.47	-48.1	-50.0	25.1	3.03e+01	0	45	0	259522560	60	11972
2026-01-30 11:49:03.19	219.18	16.57	-48.1	-49.8	25.4	3.03e+01	0	45	0	261619712	60	11789
2026-01-30 11:49:04.20	219.36	16.66	-48.2	-49.9	25.4	3.03e+01	0	45	0	263716864	60	11943
2026-01-30 11:49:05.21	219.54	16.76	-48.2	-49.9	25.5	3.03e+01	0	45	0	265814016	60	11916
2026-01-30 11:49:06.22	219.72	16.85	-48.2	-49.9	25.5	3.03e+01	0	45	0	267386880	60	11935
2026-01-30 11:49:07.23	219.90	16.94	-48.2	-49.9	25.4	3.03e+01	0	45	0	269484032	60	11956
2026-01-30 11:49:08.23	220.09	17.04	-48.0	-49.7	25.7	3.03e+01	0	45	0	271056896	60	11652
2026-01-30 11:49:09.24	220.27	17.13	-48.0	-49.7	25.6	3.03e+01	0	45	0	273154048	60	11684
2026-01-30 11:49:10.25	220.46	17.23	-48.0	-49.8	25.6	3.03e+01	0	45	0	274726912	60	11773
2026-01-30 11:49:11.26	220.65	17.32	-48.1	-49.9	25.5	3.03e+01	0	45	0	276824064	60	11873
2026-01-30 11:49:12.27	220.83	17.42	-48.2	-50.1	25.4	3.03e+01	0	45	0	278921216	60	12107
2026-01-30 11:49:13.28	221.02	17.51	-48.2	-50.0	25.4	3.03e+01	0	45	0	280494080	60	12059
2026-01-30 11:49:14.28	221.21	17.60	-48.3	-50.1	25.3	3.03e+01	0	45	0	282591232	60	12185
2026-01-30 11:49:15.29	221.41	17.70	-48.3	-50.1	25.3	3.03e+01	0	45	0	284164096	60	12103
2026-01-30 11:49:16.30	221.60	17.80	-48.5	-50.3	25.2	3.03e+01	0	45	0	286261248	60	12453
2026-01-30 11:49:17.31	221.79	17.89	-48.3	-50.0	25.6	3.03e+01	0	45	0	288358400	60	12065
2026-01-30 11:49:18.32	221.99	17.99	-48.2	-49.9	25.8	3.03e+01	0	45	0	289931264	60	11888
2026-01-30 11:49:19.32	222.19	18.08	-48.2	-49.9	25.7	3.03e+01	0	45	0	292028416	60	11877
2026-01-30 11:49:20.33	222.39	18.18	-48.2	-50.0	25.6	3.03e+01	0	45	0	294125568	60	11965
2026-01-30 11:49:21.34	222.59	18.27	-48.3	-50.1	25.4	3.03e+01	0	45	0	295698432	60	12167
2026-01-30 11:49:22.34	222.79	18.37	-48.3	-50.1	25.5	3.03e+01	0	45	0	297795584	60	12118
2026-01-30 11:49:23.35	222.99	18.46	-48.3	-50.0	25.4	3.03e+01	0	45	0	299368448	60	12097
2026-01-30 11:49:24.36	223.19	18.56	-48.4	-50.3	25.2	3.03e+01	0	45	0	301465600	60	12394
2026-01-30 11:49:25.36	223.40	18.65	-48.5	-50.3	25.0	3.03e+01	0	45	0	303038464	60	12441
2026-01-30 11:49:26.36	223.60	18.75	-48.6	-50.5	24.9	3.03e+01	0	45	0	305135616	60	12778
2026-01-30 11:49:27.36	223.81	18.85	-48.7	-50.5	24.7	3.03e+01	0	45	0	307232768	60	12814
2026-01-30 11:49:28.37	224.02	18.94	-48.4	-50.3	25.1	3.03e+01	0	45	0	308805632	60	12382
2026-01-30 11:49:29.38	224.23	19.04	-48.3	-50.0	25.4	3.03e+01	0	45	0	310902784	60	12052
2026-01-30 11:49:30.39	224.44	19.13	-48.2	-50.0	25.3	3.03e+01	0	45	0	312475648	60	12049
2026-01-30 11:49:31.39	224.65	19.23	-48.4	-50.1	25.3	3.03e+01	0	45	0	314572800	60	12194
2026-01-30 11:49:32.40	224.86	19.33	-48.3	-49.9	25.5	3.03e+01	0	45	0	316669952	60	11961
2026-01-30 11:49:33.41	225.08	19.42	-48.3	-50.0	25.6	3.03e+01	0	45	0	318242816	60	11968
2026-01-30 11:49:34.41	225.30	19.52	-48.3	-49.9	25.7	3.03e+01	0	45	0	320339968	60	11914
2026-01-30 11:49:35.42	225.52	19.61	-48.3	-50.0	25.6	3.03e+01	0	45	0	322437120	60	12021
2026-01-30 11:49:36.42	225.73	19.71	-48.4	-50.1	25.3	3.03e+01	0	45	0	324009984	60	12185
2026-01-30 11:49:37.43	225.96	19.81	-48.4	-50.1	25.3	3.03e+01	0	45	0	326107136	60	12169
2026-01-30 11:49:38.44	226.18	19.90	-48.3	-50.0	25.3	3.03e+01	0	45	0	327680000	60	12044
2026-01-30 11:49:39.44	226.40	20.00	-48.0	-49.7	25.6	3.03e+01	0	45	0	329777152	60	11647
2026-01-30 11:49:40.45	226.63	20.10	-48.0	-49.7	25.5	3.03e+01	0	45	0	331350016	60	11683
2026-01-30 11:49:41.45	226.85	20.19	-48.1	-49.9	25.5	3.03e+01	0	45	0	333447168	60	11866
2026-01-30 11:49:42.46	227.08	20.29	-48.2	-49.9	25.5	3.03e+01	0	45	0	335544320	60	11915
2026-01-30 11:49:43.47	227.31	20.38	-48.2	-49.9	25.5	3.03e+01	0	45	0	337117184	60	11949
2026-01-30 11:49:44.47	227.54	20.48	-48.2	-49.9	25.6	3.03e+01	0	45	0	339214336	60	11955
2026-01-30 11:49:45.48	227.78	20.58	-48.3	-50.0	25.5	3.03e+01	0	45	0	340787200	60	11997
2026-01-30 11:49:46.49	228.01	20.67	-48.4	-50.1	25.5	3.03e+01	0	45	0	342884352	60	12138
2026-01-30 11:49:47.50	228.25	20.77	-48.1	-49.8	25.7	3.03e+01	0	45	0	344981504	60	11797
2026-01-30 11:49:48.51	228.49	20.86	-48.2	-49.8	25.6	3.03e+01	0	45	0	346554368	60	11821
2026-01-30 11:49:49.51	228.73	20.96	-48.2	-49.9	25.6	3.03e+01	0	45	0	348651520	60	11925
2026-01-30 11:49:50.52	228.97	21.06	-48.3	-50.0	25.5	3.03e+01	0	45	0	350748672	60	12029
2026-01-30 11:49:51.52	229.21	21.15	-48.2	-49.9	25.7	3.03e+01	0	45	0	352321536	60	11885
2026-01-30 11:49:52.53	229.45	21.25	-48.3	-50.1	25.5	3.03e+01	0	45	0	354418688	60	12118
2026-01-30 11:49:53.53	229.70	21.34	-48.5	-50.2	25.4	3.03e+01	0	45	0	355991552	60	12307
2026-01-30 11:49:54.54	229.94	21.44	-48.4	-50.1	25.5	3.03e+01	0	45	0	358088704	60	12238
2026-01-30 11:49:55.54	230.19	21.53	-48.3	-50.0	25.7	3.03e+01	0	45	0	359661568	60	11999
2026-01-30 11:49:56.55	230.44	21.63	-48.3	-50.0	25.6	3.03e+01	0	45	0	361758720	60	11972
2026-01-30 11:49:57.56	230.69	21.72	-48.3	-50.0	25.6	3.03e+01	0	45	0	363855872	60	12091
2026-01-30 11:49:58.56	230.94	21.82	-48.5	-50.2	25.4	3.03e+01	0	45	0	365428736	60	12325
2026-01-30 11:49:59.57	231.20	21.91	-48.5	-50.2	25.4	3.03e+01	0	45	0	367525888	60	12346
2026-01-30 11:50:00.58	231.46	22.01	-48.4	-50.1	25.5	3.03e+01	0	45	0	369098752	60	12221
2026-01-30 11:50:01.59	231.71	22.10	-48.6	-50.4	25.3	3.03e+01	0	45	0	371195904	60	12553
2026-01-30 11:50:02.59	231.97	22.19	-48.6	-50.5	25.2	3.03e+01	0	45	0	373293056	60	12672
2026-01-30 11:50:03.60	232.23	22.29	-48.3	-50.1	25.4	3.03e+01	0	45	0	374865920	60	12158
2026-01-30 11:50:04.61	232.50	22.38	-48.3	-50.1	25.4	3.03e+01	0	45	0	376963072	60	12159
2026-01-30 11:50:05.62	232.76	22.48	-48.4	-50.2	25.3	3.03e+01	0	45	0	379060224	60	12297
2026-01-30 11:50:06.63	233.03	22.57	-48.5	-50.3	25.2	3.03e+01	0	45	0	380633088	60	12426
2026-01-30 11:50:07.63	233.29	22.66	-48.3	-50.1	25.4	3.03e+01	0	45	0	382730240	60	12144
2026-01-30 11:50:08.64	233.56	22.76	-48.4	-50.2	25.3	3.03e+01	0	45	0	384303104	60	12274
2026-01-30 11:50:09.64	233.83	22.85	-48.5	-50.3	25.3	3.03e+01	0	45	0	386400256	60	12383
2026-01-30 11:50:10.65	234.11	22.94	-48.4	-50.1	25.4	3.03e+01	0	45	0	387973120	60	12185
2026-01-30 11:50:11.66	234.38	23.03	-48.4	-50.1	25.4	3.03e+01	0	45	0	390070272	60	12159
2026-01-30 11:50:12.67	234.66	23.12	-48.5	-50.3	25.3	3.03e+01	0	45	0	392167424	60	12396
2026-01-30 11:50:13.68	234.94	23.22	-48.5	-50.3	25.2	3.03e+01	0	45	0	393740288	60	12405
2026-01-30 11:50:14.68	235.21	23.31	-48.5	-50.3	25.2	3.03e+01	0	45	0	395837440	60	12446
2026-01-30 11:50:15.69	235.50	23.40	-48.5	-50.4	25.0	3.03e+01	0	45	0	397410304	60	12554
2026-01-30 11:50:16.69	235.78	23.49	-48.5	-50.3	25.1	3.03e+01	0	45	0	399507456	60	12484
2026-01-30 11:50:17.70	236.06	23.58	-48.5	-50.3	25.2	3.03e+01	0	45	0	401604608	60	12460
2026-01-30 11:50:18.71	236.35	23.67	-48.5	-50.3	25.0	3.03e+01	0	45	0	403177472	60	12494
2026-01-30 11:50:19.71	236.63	23.76	-48.4	-50.3	25.1	3.03e+01	0	45	0	405274624	60	12383
2026-01-30 11:50:20.72	236.92	23.84	-49.0	-59.5	3.6	3.03e+01	0	45	104	406323200	60	36084
2026-01-30 11:50:21.73	237.22	23.93	-49.1	-59.6	3.6	3.03e+01	0	45	104	406323200	60	36193
2026-01-30 11:50:22.74	237.51	24.02	-49.0	-59.4	3.5	3.03e+01	0	45	104	406323200	60	35471
2026-01-30 11:50:23.74	237.80	24.11	-49.2	-59.8	3.6	3.03e+01	0	45	104	406323200	60	37045
2026-01-30 11:50:24.74	238.09	24.20	-53.3	-65.3	3.5	3.03e+01	0	45	104	406323200	60	70037
2026-01-30 11:50:25.75	238.39	24.28	-53.2	-65.3	3.5	3.03e+01	0	45	104	406323200	60	70286
2026-01-30 11:50:26.75	238.69	24.37	-51.3	-62.4	3.6	3.03e+01	0	45	104	406323200	60	50144
2026-01-30 11:50:27.76	238.99	24.45	-51.3	-62.4	3.6	3.03e+01	0	45	104	406323200	60	50092
2026-01-30 11:50:28.76	239.29	24.54	-50.9	-61.8	3.4	3.03e+01	0	45	104	406323200	60	46853
2026-01-30 11:50:29.77	239.60	24.62	-50.2	-61.0	3.5	3.03e+01	0	45	104	406323200	60	42892
2026-01-30 11:50:30.77	239.90	24.71	-50.8	-61.6	3.8	3.03e+01	0	45	104	406323200	60	45633
2026-01-30 11:50:31.78	240.21	24.79	-49.4	-59.9	4.0	3.03e+01	0	45	104	406323200	60	37452
2026-01-30 11:50:32.79	240.52	24.88	-53.6	-66.0	3.8	3.03e+01	0	45	104	406323200	60	75940
2026-01-30 11:50:33.79	240.83	24.96	-52.1	-63.5	3.8	3.03e+01	0	45	104	406323200	60	56846
2026-01-30 11:50:34.79	241.14	25.04	-51.0	-62.0	4.0	3.03e+01	0	45	104	406323200	60	48067
2026-01-30 11:50:35.80	241.45	25.12	-50.0	-60.6	4.0	3.03e+01	0	45	104	406323200	60	40614
2026-01-30 11:50:36.80	241.77	25.20	-49.9	-60.6	3.5	3.03e+01	0	45	104	406323200	60	40655
2026-01-30 11:50:37.81	242.09	25.28	-49.8	-60.6	3.5	3.03e+01	0	45	104	406323200	60	40615
2026-01-30 11:50:38.82	242.41	25.36	-51.6	-62.9	3.5	3.03e+01	0	45	104	406323200	60	52955
2026-01-30 11:50:39.82	242.72	25.44	-49.2	-59.8	3.5	3.03e+01	0	45	104	406323200	60	37110
2026-01-30 11:50:40.83	243.05	25.52	-53.9	-67.0	3.5	3.03e+01	0	45	104	406323200	60	85441
2026-01-30 11:50:41.84	243.37	25.60	-52.8	-65.1	3.5	3.03e+01	0	45	104	406323200	60	68261
2026-01-30 11:50:42.85	243.70	25.67	-51.5	-62.8	3.5	3.03e+01	0	45	104	406323200	60	52517
2026-01-30 11:50:43.86	244.03	25.75	-51.5	-62.9	3.5	3.03e+01	0	45	104	406323200	60	53194
2026-01-30 11:50:44.86	244.35	25.83	-51.5	-62.9	3.5	3.03e+01	0	45	104	406323200	60	53303
2026-01-30 11:50:45.87	244.68	25.90	-50.8	-62.0	3.5	3.03e+01	0	45	104	406323200	60	47950
2026-01-30 11:50:46.87	245.01	25.97	-49.5	-60.2	3.5	3.03e+01	0	45	104	406323200	60	38790
2026-01-30 11:50:47.88	245.35	26.05	-51.4	-62.9	3.5	3.03e+01	0	45	104	406323200	60	52936
2026-01-30 11:50:48.88	245.68	26.12	-51.9	-63.9	3.5	3.03e+01	0	45	104	406323200	60	59420
2026-01-30 11:50:49.88	246.02	26.19	-55.2	-70.8	3.5	3.03e+01	0	45	104	406323200	60	131914
2026-01-30 11:50:50.89	246.36	26.26	-50.1	-61.1	3.5	3.03e+01	0	45	104	406323200	60	42952
2026-01-30 11:50:51.90	246.70	26.33	-50.2	-61.1	3.5	3.03e+01	0	45	104	406323200	60	42938
2026-01-30 11:50:52.90	247.03	26.40	-49.9	-60.8	3.5	3.03e+01	0	45	104	406323200	60	41833
2026-01-30 11:50:53.91	247.38	26.47	-49.9	-60.7	3.5	3.03e+01	0	45	104	406323200	60	41382
2026-01-30 11:50:54.92	247.72	26.54	-51.6	-63.0	3.5	3.03e+01	0	45	104	406323200	60	53625
2026-01-30 11:50:55.93	248.07	26.60	-49.5	-60.2	3.5	3.03e+01	0	45	104	406323200	60	39087
2026-01-30 11:50:56.94	248.42	26.67	-55.3	-69.8	3.5	3.03e+01	0	45	104	406323200	60	118243
2026-01-30 11:50:57.94	248.77	26.73	-51.8	-63.3	3.5	3.03e+01	0	45	104	406323200	60	55625
2026-01-30 11:50:58.95	249.12	26.80	-51.4	-62.7	3.5	3.03e+01	0	45	104	406323200	60	51873
2026-01-30 11:50:59.96	249.47	26.86	-49.8	-60.7	3.5	3.03e+01	0	45	104	406323200	60	41226
2026-01-30 11:51:00.97	249.82	26.92	-50.0	-60.7	3.5	3.03e+01	0	45	104	406323200	60	41322
2026-01-30 11:51:01.97	250.17	26.99	-49.6	-60.3	3.5	3.03e+01	0	45	104	406323200	60	39595
2026-01-30 11:51:02.98	250.53	27.05	-50.1	-61.0	3.5	3.03e+01	0	45	104	406323200	60	42822
2026-01-30 11:51:03.99	250.89	27.10	-49.3	-60.0	3.5	3.03e+01	0	45	104	406323200	60	37892
2026-01-30 11:51:05.00	251.25	27.16	-55.2	-70.0	3.5	3.03e+01	0	45	104	406323200	60	120047
2026-01-30 11:51:06.01	251.61	27.22	-51.1	-62.4	3.5	3.03e+01	0	45	104	406323200	60	49961
2026-01-30 11:51:07.01	251.97	27.28	-50.9	-62.1	3.5	3.03e+01	0	45	104	406323200	60	48222
2026-01-30 11:51:08.02	252.33	27.33	-50.0	-60.7	3.5	3.03e+01	0	45	104	406323200	60	41078
2026-01-30 11:51:09.03	252.70	27.39	-50.1	-61.1	3.5	3.03e+01	0	45	104	406323200	60	42945
2026-01-30 11:51:10.03	253.06	27.44	-49.5	-60.1	3.5	3.03e+01	0	45	104	406323200	60	38536
2026-01-30 11:51:11.04	253.43	27.49	-49.9	-60.5	3.5	3.03e+01	0	45	104	406323200	60	40496
2026-01-30 11:51:12.05	253.79	27.54	-49.3	-59.9	3.5	3.03e+01	0	45	104	406323200	60	37545
2026-01-30 11:51:13.05	254.16	27.59	-55.7	-71.3	3.5	3.03e+01	0	45	104	406323200	60	139667
2026-01-30 11:51:14.06	254.53	27.64	-52.5	-64.5	3.5	3.03e+01	0	45	104	406323200	60	64097
2026-01-30 11:51:15.07	254.90	27.69	-52.3	-64.1	3.5	3.03e+01	0	45	104	406323200	60	60695
2026-01-30 11:51:16.07	255.27	27.73	-51.5	-62.9	3.5	3.03e+01	0	45	104	406323200	60	52851
2026-01-30 11:51:17.08	255.64	27.78	-51.7	-63.1	3.5	3.03e+01	0	45	104	406323200	60	54602
2026-01-30 11:51:18.09	256.02	27.82	-50.9	-62.0	3.5	3.03e+01	0	45	104	406323200	60	47933
2026-01-30 11:51:19.09	256.39	27.86	-51.2	-62.3	3.5	3.03e+01	0	45	104	406323200	60	49380
2026-01-30 11:51:20.10	256.77	27.90	-53.1	-65.2	3.5	3.03e+01	0	45	104	406323200	60	69213
2026-01-30 11:51:21.11	257.15	27.94	-52.4	-64.1	3.5	3.03e+01	0	45	104	406323200	60	60865
2026-01-30 11:51:22.12	257.53	27.98	-55.9	-72.6	3.5	3.03e+01	0	45	104	406323200	60	163184
2026-01-30 11:51:23.12	257.90	28.02	-49.3	-60.2	3.5	3.03e+01	0	45	104	406323200	60	38835
2026-01-30 11:51:24.13	258.28	28.06	-49.2	-59.9	3.5	3.03e+01	0	45	104	406323200	60	37653
2026-01-30 11:51:25.14	258.66	28.09	-49.4	-60.1	3.5	3.03e+01	0	45	104	406323200	60	38530
2026-01-30 11:51:26.15	259.05	28.13	-49.2	-60.0	3.5	3.03e+01	0	45	104	406323200	60	38115
2026-01-30 11:51:27.15	259.43	28.16	-50.7	-62.1	3.5	3.03e+01	0	45	104	406323200	60	48473
2026-01-30 11:51:28.16	259.81	28.19	-49.0	-59.7	3.5	3.03e+01	0	45	104	406323200	60	36554
2026-01-30 11:51:29.17	260.19	28.22	-54.9	-71.0	3.5	3.03e+01	0	45	104	406323200	60	134361
2026-01-30 11:51:30.17	260.58	28.25	-50.6	-61.8	3.5	3.03e+01	0	45	104	406323200	60	46850
2026-01-30 11:51:31.18	260.96	28.28	-52.0	-63.8	3.5	3.03e+01	0	45	104	406323200	60	59065
2026-01-30 11:51:32.19	261.35	28.30	-49.5	-60.4	3.5	3.03e+01	0	45	104	406323200	60	39642
2026-01-30 11:51:33.20	261.74	28.33	-49.5	-60.2	3.5	3.03e+01	0	45	104	406323200	60	38854
2026-01-30 11:51:34.20	262.12	28.35	-49.6	-60.2	3.5	3.03e+01	0	45	104	406323200	60	38968
2026-01-30 11:51:35.21	262.51	28.37	-49.7	-60.6	3.5	3.03e+01	0	45	104	406323200	60	40533
2026-01-30 11:51:36.21	262.89	28.40	-49.0	-59.6	3.5	3.03e+01	0	45	104	406323200	60	36285
2026-01-30 11:51:37.22	263.28	28.42	-55.0	-71.3	3.5	3.03e+01	0	45	104	406323200	60	139163
2026-01-30 11:51:38.22	263.67	28.43	-51.4	-62.9	3.5	3.03e+01	0	45	104	406323200	60	53135
2026-01-30 11:51:39.23	264.06	28.45	-53.1	-65.5	3.5	3.03e+01	0	45	104	406323200	60	71703
2026-01-30 11:51:40.23	264.45	28.47	-51.1	-62.3	3.5	3.03e+01	0	45	104	406323200	60	49645
2026-01-30 11:51:41.24	264.84	28.48	-51.1	-62.3	3.5	3.03e+01	0	45	104	406323200	60	49511
2026-01-30 11:51:42.25	265.23	28.49	-51.4	-62.7	3.5	3.03e+01	0	45	104	406323200	60	51938
2026-01-30 11:51:43.26	265.62	28.50	-50.3	-61.2	3.5	3.03e+01	0	45	104	406323200	60	43579
2026-01-30 11:51:44.27	266.01	28.51	-52.9	-65.1	3.5	3.03e+01	0	45	104	406323200	60	68318
2026-01-30 11:51:45.27	266.40	28.52	-51.8	-63.3	3.5	3.03e+01	0	45	104	406323200	60	55869
2026-01-30 11:51:46.27	266.79	28.53	-55.7	-71.5	3.5	3.03e+01	0	45	104	406323200	60	143655
2026-01-30 11:51:47.28	267.18	28.53	-49.2	-59.8	3.5	3.03e+01	0	45	104	406323200	60	37358
2026-01-30 11:51:48.29	267.57	28.54	-49.4	-60.2	3.5	3.03e+01	0	45	104	406323200	60	38857
2026-01-30 11:51:49.30	267.97	28.54	-49.6	-60.4	3.5	3.03e+01	0	45	104	406323200	60	39924
2026-01-30 11:51:50.31	268.36	28.54	-49.5	-60.3	3.5	3.03e+01	0	45	104	406323200	60	39233
2026-01-30 11:51:51.32	268.75	28.54	-50.5	-61.8	3.5	3.03e+01	0	45	104	406323200	60	46733
2026-01-30 11:51:52.32	269.14	28.54	-48.6	-59.5	3.5	3.03e+01	0	45	104	406323200	60	35719
2026-01-30 11:51:53.33	269.53	28.54	-55.0	-69.3	3.5	3.03e+01	0	45	104	406323200	60	111198
2026-01-30 11:51:54.34	269.93	28.54	-50.4	-61.6	3.5	3.03e+01	0	45	104	406323200	60	45565
2026-01-30 11:51:55.34	270.32	28.53	-52.3	-64.4	3.5	3.03e+01	0	45	104	406323200	60	63446
2026-01-30 11:51:56.35	270.71	28.52	-49.9	-60.8	3.5	3.03e+01	0	45	104	406323200	60	41934
2026-01-30 11:51:57.35	271.10	28.52	-50.1	-61.2	3.5	3.03e+01	0	45	104	406323200	60	43443
2026-01-30 11:51:58.36	271.49	28.51	-49.6	-60.6	3.5	3.03e+01	0	45	104	406323200	60	40895
2026-01-30 11:51:59.36	271.88	28.50	-50.7	-62.2	3.5	3.03e+01	0	45	104	406323200	60	48949
2026-01-30 11:52:00.37	272.27	28.48	-51.2	-62.8	3.5	3.03e+01	0	45	104	406323200	60	52588
2026-01-30 11:52:01.37	272.65	28.47	-51.2	-63.2	3.5	3.03e+01	0	45	104	406323200	60	54743
2026-01-30 11:52:02.38	273.04	28.46	-54.3	-68.7	3.5	3.03e+01	0	45	104	406323200	60	103880
2026-01-30 11:52:03.39	273.44	28.44	-48.6	-59.6	3.5	3.03e+01	0	45	104	406323200	60	36232
2026-01-30 11:52:04.39	273.82	28.42	-48.8	-59.8	3.5	3.03e+01	0	45	104	406323200	60	37320
2026-01-30 11:52:05.40	274.21	28.40	-48.9	-60.0	3.5	3.03e+01	0	45	104	406323200	60	38137
2026-01-30 11:52:06.41	274.60	28.38	-48.4	-59.3	3.5	3.03e+01	0	45	104	406323200	60	35103
2026-01-30 11:52:07.41	274.98	28.36	-48.6	-59.3	3.5	3.03e+01	0	45	104	406323200	60	35279
2026-01-30 11:52:08.42	275.37	28.34	-48.3	-59.1	3.5	3.03e+01	0	45	104	406323200	60	34160
2026-01-30 11:52:09.42	275.75	28.31	-53.2	-68.0	3.5	3.03e+01	0	45	104	406323200	60	95436
2026-01-30 11:52:10.43	276.14	28.29	-49.8	-60.6	3.5	3.03e+01	0	45	104	406323200	60	40924
2026-01-30 11:52:11.43	276.52	28.26	-51.9	-63.9	3.5	3.03e+01	0	45	104	406323200	60	59613
2026-01-30 11:52:12.44	276.91	28.23	-50.6	-61.9	3.5	3.03e+01	0	45	104	406323200	60	47242
2026-01-30 11:52:13.45	277.29	28.20	-50.0	-61.4	3.5	3.03e+01	0	45	104	406323200	60	44493
2026-01-30 11:52:14.46	277.68	28.17	-49.7	-61.2	3.5	3.03e+01	0	45	104	406323200	60	43591
2026-01-30 11:52:15.47	278.06	28.14	-49.8	-61.1	3.5	3.03e+01	0	45	104	406323200	60	43118
2026-01-30 11:52:16.48	278.44	28.11	-50.3	-61.9	3.5	3.03e+01	0	45	104	406323200	60	47354
2026-01-30 11:52:17.48	278.82	28.07	-52.1	-63.9	3.5	3.03e+01	0	45	104	406323200	60	59328
2026-01-30 11:52:18.49	279.20	28.04	-53.0	-65.2	3.5	3.03e+01	0	45	104	406323200	60	69188
2026-01-30 11:52:19.50	279.58	28.00	-49.0	-60.0	3.5	3.03e+01	0	45	104	406323200	60	38161
2026-01-30 11:52:20.51	279.96	27.96	-49.0	-60.2	3.5	3.03e+01	0	45	104	406323200	60	39139
2026-01-30 11:52:21.51	280.33	27.92	-48.8	-60.0	3.5	3.03e+01	0	45	104	406323200	60	38158
2026-01-30 11:52:22.51	280.70	27.88	-49.2	-61.0	3.5	3.03e+01	0	45	104	406323200	60	42442
2026-01-30 11:52:23.52	281.08	27.84	-48.9	-60.6	3.5	3.03e+01	0	45	104	406323200	60	40913
2026-01-30 11:52:24.52	281.45	27.79	-48.2	-59.7	3.5	3.03e+01	0	45	104	406323200	60	36953
2026-01-30 11:52:25.53	281.82	27.75	-50.4	-64.8	3.6	3.03e+01	0	45	104	406323200	60	66359
2026-01-30 11:52:26.53	282.19	27.70	-48.2	-60.1	3.5	3.03e+01	0	45	104	406323200	60	38491
2026-01-30 11:52:27.54	282.57	27.66	-49.4	-62.0	3.5	3.03e+01	0	45	104	406323200	60	47722
2026-01-30 11:52:28.55	282.94	27.61	-48.4	-60.5	3.5	3.03e+01	0	45	104	406323200	60	40233
2026-01-30 11:52:29.55	283.30	27.56	-48.4	-60.5	3.5	3.03e+01	0	45	104	406323200	60	40374
2026-01-30 11:52:30.55	283.67	27.51	-48.1	-59.8	3.5	3.03e+01	0	45	104	406323200	60	37375
2026-01-30 11:52:31.56	284.03	27.46	-48.7	-60.1	3.5	3.03e+01	0	45	104	406323200	60	38696
2026-01-30 11:52:32.57	284.40	27.41	-49.3	-61.3	3.5	3.03e+01	0	45	104	406323200	60	43942
2026-01-30 11:52:33.58	284.76	27.35	-52.1	-64.3	3.5	3.03e+01	0	45	104	406323200	60	62346
2026-01-30 11:52:34.58	285.12	27.30	-51.7	-63.1	3.5	3.03e+01	0	45	104	406323200	60	54500
2026-01-30 11:52:35.59	285.48	27.24	-49.5	-60.2	3.5	3.03e+01	0	45	104	406323200	60	38763
2026-01-30 11:52:36.59	285.84	27.19	-49.7	-60.5	3.5	3.03e+01	0	45	104	406323200	60	40467
2026-01-30 11:52:37.59	286.20	27.13	-49.8	-60.4	3.5	3.03e+01	0	45	104	406323200	60	39743
2026-01-30 11:52:38.60	286.55	27.07	-50.6	-61.6	3.5	3.03e+01	0	45	104	406323200	60	45778
2026-01-30 11:52:39.61	286.91	27.01	-50.0	-60.8	3.5	3.03e+01	0	45	104	406323200	60	41861
2026-01-30 11:52:40.62	287.26	26.95	-49.8	-60.5	3.5	3.03e+01	0	45	104	406323200	60	40322
2026-01-30 11:52:41.62	287.61	26.89	-52.5	-64.2	3.5	3.03e+01	0	45	104	406323200	60	61521
2026-01-30 11:52:42.63	287.97	26.83	-49.5	-60.0	3.5	3.03e+01	0	45	104	406323200	60	38215
2026-01-30 11:52:43.64	288.32	26.77	-51.2	-62.5	3.5	3.03e+01	0	45	104	406323200	60	50848
2026-01-30 11:52:44.65	288.67	26.70	-50.3	-61.4	3.5	3.03e+01	0	45	104	406323200	60	44652
2026-01-30 11:52:45.65	289.01	26.64	-50.0	-61.1	3.5	3.03e+01	0	45	104	406323200	60	43062
2026-01-30 11:52:46.65	289.35	26.57	-48.9	-59.6	3.6	3.03e+01	0	45	104	406323200	60	36371
2026-01-30 11:52:47.66	289.70	26.50	-49.4	-60.3	3.5	3.03e+01	0	45	104	406323200	60	39560
2026-01-30 11:52:48.67	290.04	26.44	-49.5	-60.3	3.5	3.03e+01	0	45	104	406323200	60	39374
2026-01-30 11:52:49.67	290.38	26.37	-53.7	-66.6	3.5	3.03e+01	0	45	104	406323200	60	81606
2026-01-30 11:52:50.68	290.72	26.30	-49.5	-60.3	3.5	3.03e+01	0	45	104	406323200	60	39307
2026-01-30 11:52:51.69	291.06	26.23	-49.2	-60.1	3.5	3.03e+01	0	45	104	406323200	60	38310
2026-01-30 11:52:52.70	291.40	26.16	-49.2	-60.0	3.5	3.03e+01	0	45	104	406323200	60	38230
2026-01-30 11:52:53.70	291.73	26.08	-49.2	-60.2	3.5	3.03e+01	0	45	104	406323200	60	38751
2026-01-30 11:52:54.71	292.06	26.01	-50.3	-61.5	3.5	3.03e+01	0	45	104	406323200	60	45138
2026-01-30 11:52:55.72	292.40	25.94	-48.9	-59.5	3.5	3.03e+01	0	45	104	406323200	60	35993
2026-01-30 11:52:56.72	292.72	25.86	-51.9	-63.7	3.5	3.03e+01	0	45	104	406323200	60	58370
2026-01-30 11:52:57.72	293.05	25.79	-51.8	-63.4	3.5	3.03e+01	0	45	104	406323200	60	55953
2026-01-30 11:52:58.73	293.38	25.71	-49.4	-60.2	3.5	3.03e+01	0	45	104	406323200	60	38790
2026-01-30 11:52:59.73	293.70	25.64	-50.6	-61.7	3.5	3.03e+01	0	45	104	406323200	60	46168
2026-01-30 11:53:00.74	294.03	25.56	-50.3	-61.2	3.5	3.03e+01	0	45	104	406323200	60	43908
2026-01-30 11:53:01.74	294.35	25.48	-50.2	-61.2	3.5	3.03e+01	0	45	104	406323200	60	43448
2026-01-30 11:53:02.75	294.67	25.40	-49.0	-59.9	3.6	3.03e+01	0	45	104	406323200	60	37484
2026-01-30 11:53:03.76	294.99	25.33	-49.5	-60.7	3.5	3.03e+01	0	45	104	406323200	60	41182
2026-01-30 11:53:04.76	295.30	25.25	-49.4	-60.6	3.5	3.03e+01	0	45	104	406323200	60	40747
2026-01-30 11:53:05.77	295.62	25.17	-53.2	-67.4	3.5	3.03e+01	0	45	104	406323200	60	88887
2026-01-30 11:53:06.78	295.93	25.08	-49.0	-60.0	3.5	3.03e+01	0	45	104	406323200	60	38190
2026-01-30 11:53:07.78	296.24	25.00	-49.5	-60.6	3.6	3.03e+01	0	45	104	406323200	60	40743
2026-01-30 11:53:08.79	296.55	24.92	-49.5	-60.6	3.5	3.03e+01	0	45	104	406323200	60	40954
2026-01-30 11:53:09.79	296.86	24.84	-49.3	-60.5	3.5	3.03e+01	0	45	104	406323200	60	40286
2026-01-30 11:53:10.80	297.17	24.76	-49.8	-61.2	3.5	3.03e+01	0	45	104	406323200	60	43928
2026-01-30 11:53:11.81	297.48	24.67	-49.0	-60.1	3.5	3.03e+01	0	45	104	406323200	60	38306
2026-01-30 11:53:12.81	297.78	24.59	-52.0	-65.0	3.5	3.03e+01	0	45	104	406323200	60	67554
2026-01-30 11:53:13.82	298.08	24.50	-51.3	-63.3	3.5	3.03e+01	0	45	104	406323200	60	55399
2026-01-30 11:53:14.83	298.38	24.42	-49.5	-60.7	3.5	3.03e+01	0	45	104	406323200	60	41129
2026-01-30 11:53:15.83	298.68	24.33	-49.9	-61.1	3.5	3.03e+01	0	45	104	406323200	60	43253
2026-01-30 11:53:16.84	298.98	24.25	-50.1	-61.3	3.5	3.03e+01	0	45	104	406323200	60	44061
2026-01-30 11:53:17.84	299.27	24.16	-49.9	-61.1	3.5	3.03e+01	0	45	104	406323200	60	43172
2026-01-30 11:53:18.85	299.56	24.07	-49.0	-60.0	3.5	3.03e+01	0	45	104	406323200	60	38092
2026-01-30 11:53:19.86	299.86	23.99	-50.0	-61.3	3.5	3.03e+01	0	45	104	406323200	60	44190
2026-01-30 11:53:20.87	300.15	23.90	-50.1	-61.8	3.5	3.03e+01	0	45	104	406323200	60	46721
2026-01-30 11:53:21.88	300.44	23.81	-53.4	-69.2	3.5	3.03e+01	0	45	104	406323200	60	109396
2026-01-30 11:53:22.88	300.72	23.72	-49.1	-60.1	3.5	3.03e+01	0	45	104	406323200	60	38647
2026-01-30 11:53:23.89	301.01	23.63	-49.4	-60.4	3.5	3.03e+01	0	45	104	406323200	60	39776
2026-01-30 11:53:24.90	301.29	23.54	-49.2	-60.0	3.5	3.03e+01	0	45	104	406323200	60	38233
2026-01-30 11:53:25.90	301.57	23.45	-49.2	-60.1	3.5	3.03e+01	0	45	104	406323200	60	38338
2026-01-30 11:53:26.91	301.86	23.36	-50.6	-62.0	3.5	3.03e+01	0	45	104	406323200	60	47798
2026-01-30 11:53:27.92	302.14	23.27	-49.2	-60.1	3.5	3.03e+01	0	45	104	406323200	60	38388
2026-01-30 11:53:28.92	302.41	23.18	-53.2	-66.0	3.5	3.03e+01	0	45	104	406323200	60	75872
2026-01-30 11:53:29.93	302.69	23.09	-52.8	-65.0	3.5	3.03e+01	0	45	104	406323200	60	67971
2026-01-30 11:53:30.93	302.96	23.00	-50.9	-62.2	3.5	3.03e+01	0	45	104	406323200	60	49141
2026-01-30 11:53:31.94	303.23	22.91	-51.4	-62.9	3.5	3.03e+01	0	45	104	406323200	60	53066
2026-01-30 11:53:32.95	303.50	22.82	-51.3	-62.7	3.5	3.03e+01	0	45	104	406323200	60	51887
2026-01-30 11:53:33.96	303.77	22.72	-51.1	-62.5	3.5	3.03e+01	0	45	104	406323200	60	50629
2026-01-30 11:53:34.96	304.04	22.63	-50.2	-61.3	3.5	3.03e+01	0	45	104	406323200	60	44038
2026-01-30 11:53:35.96	304.30	22.54	-51.2	-62.5	3.5	3.03e+01	0	45	104	406323200	60	51019
2026-01-30 11:53:36.97	304.57	22.45	-51.1	-62.3	3.5	3.03e+01	0	45	104	406323200	60	49307
2026-01-30 11:53:37.97	304.83	22.36	-54.9	-69.7	3.5	3.03e+01	0	45	104	406323200	60	115732
2026-01-30 11:53:38.97	305.09	22.26	-49.4	-60.1	3.5	3.03e+01	0	45	104	406323200	60	38264
2026-01-30 11:53:39.98	305.35	22.17	-49.7	-60.5	3.5	3.03e+01	0	45	104	406323200	60	40383
2026-01-30 11:53:40.98	305.60	22.08	-49.9	-60.8	3.5	3.03e+01	0	45	104	406323200	60	41860
2026-01-30 11:53:41.99	305.86	21.98	-49.7	-60.5	3.5	3.03e+01	0	45	104	406323200	60	40404
2026-01-30 11:53:42.99	306.11	21.89	-51.7	-63.2	3.5	3.03e+01	0	45	104	406323200	60	54883
2026-01-30 11:53:44.00	306.37	21.79	-49.7	-60.4	3.5	3.03e+01	0	45	104	406323200	60	40029
2026-01-30 11:53:45.01	306.62	21.70	-54.4	-68.1	3.5	3.03e+01	0	45	104	406323200	60	96287
2026-01-30 11:53:46.01	306.87	21.61	-51.4	-62.7	3.5	3.03e+01	0	45	104	406323200	60	52132
2026-01-30 11:53:47.02	307.11	21.51	-50.6	-61.7	3.5	3.03e+01	0	45	104	406323200	60	46457
2026-01-30 11:53:48.02	307.36	21.42	-49.7	-60.5	3.5	3.03e+01	0	45	104	406323200	60	40306
2026-01-30 11:53:49.03	307.60	21.32	-49.9	-60.6	3.5	3.03e+01	0	45	104	406323200	60	40903
2026-01-30 11:53:50.04	307.85	21.23	-49.4	-60.1	3.5	3.03e+01	0	45	104	406323200	60	38342
2026-01-30 11:53:51.05	308.09	21.13	-48.4	-59.0	3.5	3.03e+01	0	45	104	406323200	60	33901
2026-01-30 11:53:52.05	308.33	21.04	-50.6	-61.6	3.5	3.03e+01	0	45	104	406323200	60	45930
2026-01-30 11:53:53.05	308.57	20.94	-51.1	-62.7	3.5	3.03e+01	0	45	104	406323200	60	51936
2026-01-30 11:53:54.06	308.81	20.85	-54.1	-69.0	3.5	3.03e+01	0	45	104	406323200	60	106907
2026-01-30 11:53:55.06	309.04	20.75	-49.2	-60.1	3.5	3.03e+01	0	45	104	406323200	60	38686
2026-01-30 11:53:56.07	309.28	20.66	-48.6	-59.5	3.5	3.03e+01	0	45	104	406323200	60	35720
2026-01-30 11:53:57.08	309.51	20.56	-48.6	-59.3	3.5	3.03e+01	0	45	104	406323200	60	34999
2026-01-30 11:53:58.09	309.74	20.47	-48.5	-59.1	3.5	3.03e+01	0	45	104	406323200	60	34343
2026-01-30 11:53:59.10	309.97	20.37	-50.0	-60.9	3.5	3.03e+01	0	45	104	406323200	60	42117
2026-01-30 11:54:00.10	310.20	20.28	-49.4	-60.1	3.5	3.03e+01	0	45	104	406323200	60	38562
2026-01-30 11:54:01.11	310.43	20.18	-54.1	-67.9	3.5	3.03e+01	0	45	104	406323200	60	94731
2026-01-30 11:54:02.11	310.65	20.08	-52.5	-64.6	3.5	3.03e+01	0	45	104	406323200	60	64470
2026-01-30 11:54:03.12	310.87	19.99	-51.5	-63.1	3.5	3.03e+01	0	45	104	406323200	60	54246
2026-01-30 11:54:04.12	311.10	19.89	-51.1	-62.4	3.5	3.03e+01	0	45	104	406323200	60	50072
2026-01-30 11:54:05.13	311.32	19.80	-50.4	-61.5	3.6	3.03e+01	0	45	104	406323200	60	45141
2026-01-30 11:54:06.13	311.54	19.70	-49.9	-60.9	3.5	3.03e+01	0	45	104	406323200	60	41982
2026-01-30 11:54:07.14	311.75	19.61	-48.5	-59.1	3.5	3.03e+01	0	45	104	406323200	60	34421
2026-01-30 11:54:08.15	311.97	19.51	-50.7	-61.9	3.5	3.03e+01	0	45	104	406323200	60	47311
2026-01-30 11:54:09.16	312.19	19.42	-51.1	-62.4	3.5	3.03e+01	0	45	104	406323200	60	50378
2026-01-30 11:54:10.16	312.40	19.32	-54.8	-70.3	3.5	3.03e+01	0	45	104	406323200	60	124927
2026-01-30 11:54:11.17	312.61	19.22	-49.6	-60.5	3.5	3.03e+01	0	45	104	406323200	60	40144
2026-01-30 11:54:12.18	312.83	19.13	-49.4	-60.2	3.5	3.03e+01	0	45	104	406323200	60	39095
2026-01-30 11:54:13.19	313.04	19.03	-49.5	-60.4	3.5	3.03e+01	0	45	104	406323200	60	39662
2026-01-30 11:54:14.19	313.24	18.94	-49.3	-60.1	3.5	3.03e+01	0	45	104	406323200	60	38332
2026-01-30 11:54:15.20	313.45	18.84	-49.6	-60.4	3.5	3.03e+01	0	45	104	406323200	60	40051
2026-01-30 11:54:16.21	313.66	18.75	-48.9	-59.7	3.5	3.03e+01	0	45	104	406323200	60	36732
2026-01-30 11:54:17.22	313.86	18.65	-53.9	-67.5	3.5	3.03e+01	0	45	104	406323200	60	90559
2026-01-30 11:54:18.23	314.07	18.56	-50.6	-61.7	3.5	3.03e+01	0	45	104	406323200	60	46469
2026-01-30 11:54:19.22	314.27	18.46	-50.7	-62.0	3.5	3.03e+01	0	45	104	406323200	60	48006
2026-01-30 11:54:20.22	314.47	18.37	-49.2	-60.0	3.5	3.03e+01	0	45	104	406323200	60	37956
2026-01-30 11:54:21.23	314.67	18.27	-49.3	-60.1	3.5	3.03e+01	0	45	104	406323200	60	38293
2026-01-30 11:54:22.23	314.86	18.18	-49.1	-59.8	3.5	3.03e+01	0	45	104	406323200	60	37358
2026-01-30 11:54:23.24	315.06	18.08	-49.2	-60.0	3.6	3.03e+01	0	45	104	406323200	60	37892
2026-01-30 11:54:24.25	315.26	17.99	-50.7	-61.7	3.5	3.03e+01	0	45	104	406323200	60	46511
2026-01-30 11:54:25.25	315.45	17.90	-51.1	-62.5	3.5	3.03e+01	0	45	104	406323200	60	50847
2026-01-30 11:54:26.25	315.64	17.80	-54.1	-69.5	3.5	3.03e+01	0	45	104	406323200	60	113950
2026-01-30 11:54:27.26	315.84	17.71	-49.6	-60.4	3.5	3.03e+01	0	45	104	406323200	60	39758
2026-01-30 11:54:28.27	316.03	17.61	-49.4	-60.0	3.5	3.03e+01	0	45	104	406323200	60	38255
2026-01-30 11:54:29.28	316.22	17.52	-49.2	-59.9	3.5	3.03e+01	0	45	104	406323200	60	37721
2026-01-30 11:54:30.28	316.40	17.42	-49.2	-60.0	3.5	3.03e+01	0	45	104	406323200	60	38113
2026-01-30 11:54:31.29	316.59	17.33	-49.8	-60.8	3.5	3.03e+01	0	45	104	406323200	60	41796
2026-01-30 11:54:32.30	316.78	17.24	-48.8	-59.6	3.5	3.03e+01	0	45	104	406323200	60	36164
2026-01-30 11:54:33.30	316.96	17.14	-53.8	-67.4	3.5	3.03e+01	0	45	104	406323200	60	89687
2026-01-30 11:54:34.31	317.15	17.05	-51.5	-63.2	3.5	3.03e+01	0	45	104	406323200	60	55135
2026-01-30 11:54:35.32	317.33	16.96	-51.4	-63.0	3.5	3.03e+01	0	45	104	406323200	60	53458
2026-01-30 11:54:36.32	317.51	16.86	-50.4	-61.6	3.5	3.03e+01	0	45	104	406323200	60	45498
2026-01-30 11:54:37.33	317.69	16.77	-50.6	-61.7	3.6	3.03e+01	0	45	104	406323200	60	46395
2026-01-30 11:54:38.33	317.87	16.68	-50.8	-62.2	3.5	3.03e+01	0	45	104	406323200	60	49082
2026-01-30 11:54:39.34	318.04	16.59	-51.0	-62.5	3.5	3.03e+01	0	45	104	406323200	60	50856
2026-01-30 11:54:40.34	318.22	16.49	-49.9	-60.8	3.5	3.03e+01	0	45	104	406323200	60	41889
2026-01-30 11:54:41.35	318.40	16.40	-51.2	-62.9	3.5	3.03e+01	0	45	104	406323200	60	53131
2026-01-30 11:54:42.35	318.57	16.31	-52.5	-65.5	3.5	3.03e+01	0	45	104	406323200	60	71545
2026-01-30 11:54:43.36	318.74	16.22	-49.3	-60.1	3.5	3.03e+01	0	45	104	406323200	60	38484
2026-01-30 11:54:44.37	318.92	16.12	-48.7	-59.4	3.5	3.03e+01	0	45	104	406323200	60	35595
2026-01-30 11:54:45.37	319.09	16.03	-48.4	-59.1	3.5	3.03e+01	0	45	104	406323200	60	34296
2026-01-30 11:54:46.38	319.26	15.94	-48.4	-59.1	3.5	3.03e+01	0	45	104	406323200	60	34444
2026-01-30 11:54:47.39	319.43	15.85	-48.7	-59.6	3.5	3.03e+01	0	45	104	406323200	60	36171
2026-01-30 11:54:48.40	319.59	15.76	-48.3	-59.1	3.5	3.03e+01	0	45	104	406323200	60	34111
2026-01-30 11:54:49.40	319.76	15.67	-52.3	-65.0	3.5	3.03e+01	0	45	104	406323200	60	67572
2026-01-30 11:54:50.41	319.93	15.57	-49.2	-60.2	3.5	3.03e+01	0	45	104	406323200	60	39005
2026-01-30 11:54:51.41	320.09	15.48	-50.3	-61.6	3.5	3.03e+01	0	45	104	406323200	60	45772
2026-01-30 11:54:52.42	320.25	15.39	-49.2	-60.0	3.5	3.03e+01	0	45	104	406323200	60	38003
2026-01-30 11:54:53.42	320.41	15.30	-48.9	-59.6	3.5	3.03e+01	0	45	104	406323200	60	36343
2026-01-30 11:54:54.42	320.58	15.21	-48.7	-59.3	3.5	3.03e+01	0	45	104	406323200	60	35173
2026-01-30 11:54:55.42	320.74	15.12	-48.9	-59.5	3.5	3.03e+01	0	45	104	406323200	60	36031
2026-01-30 11:54:56.43	320.90	15.03	-49.6	-60.8	3.5	3.03e+01	0	45	104	406323200	60	41493
2026-01-30 11:54:57.44	321.05	14.94	-50.7	-63.0	3.5	3.03e+01	0	45	104	406323200	60	53635
2026-01-30 11:54:58.45	321.21	14.85	-51.4	-64.4	3.5	3.03e+01	0	45	104	406323200	60	63348
2026-01-30 11:54:59.45	321.37	14.76	-49.6	-61.2	3.5	3.03e+01	0	45	104	406323200	60	43442
2026-01-30 11:55:00.46	321.52	14.68	-49.7	-61.5	3.5	3.03e+01	0	45	104	406323200	60	44992
2026-01-30 11:55:01.47	321.68	14.59	-49.8	-61.6	3.5	3.03e+01	0	45	104	406323200	60	45670
2026-01-30 11:55:02.48	321.83	14.50	-49.8	-61.6	3.5	3.03e+01	0	45	104	406323200	60	45867
2026-01-30 11:55:03.48	321.99	14.41	-50.4	-62.6	3.5	3.03e+01	0	45	104	406323200	60	51133
2026-01-30 11:55:04.49	322.14	14.32	-48.9	-60.3	3.5	3.03e+01	0	45	104	406323200	60	39233
2026-01-30 11:55:05.50	322.29	14.23	-52.2	-64.7	3.5	3.03e+01	0	45	104	406323200	60	65117
2026-01-30 11:55:06.50	322.44	14.14	-50.3	-61.8	3.5	3.03e+01	0	45	104	406323200	60	46561
2026-01-30 11:55:07.51	322.59	14.05	-51.2	-63.3	3.5	3.03e+01	0	45	104	406323200	60	55737
2026-01-30 11:55:08.51	322.74	13.97	-50.8	-62.4	3.5	3.03e+01	0	45	104	406323200	60	49980
2026-01-30 11:55:09.52	322.88	13.88	-50.6	-62.1	3.5	3.03e+01	0	45	104	406323200	60	48227
2026-01-30 11:55:10.53	323.03	13.79	-50.4	-61.8	3.5	3.03e+01	0	45	104	406323200	60	46735
2026-01-30 11:55:11.53	323.17	13.71	-51.3	-63.5	3.5	3.03e+01	0	45	104	406323200	60	56901
2026-01-30 11:55:12.54	323.32	13.62	-50.3	-61.8	3.6	3.03e+01	0	45	104	406323200	60	46750
2026-01-30 11:55:13.54	323.46	13.53	-50.5	-62.4	3.5	3.03e+01	0	45	104	406323200	60	50135
2026-01-30 11:55:14.56	323.61	13.44	-50.2	-62.0	3.5	3.03e+01	0	45	104	406323200	60	47896
2026-01-30 11:55:15.56	323.75	13.36	-51.3	-63.6	3.5	3.03e+01	0	45	104	406323200	60	57660
2026-01-30 11:55:16.57	323.89	13.27	-50.8	-63.0	3.5	3.03e+01	0	45	104	406323200	60	53565
2026-01-30 11:55:17.58	324.03	13.18	-50.6	-62.7	3.5	3.03e+01	0	45	104	406323200	60	52168
2026-01-30 11:55:18.59	324.17	13.10	-50.2	-62.3	3.5	3.03e+01	0	45	104	406323200	60	49673
2026-01-30 11:55:19.60	324.31	13.01	-50.6	-63.0	3.5	3.03e+01	0	45	104	406323200	60	53980
2026-01-30 11:55:20.60	324.45	12.93	-50.6	-62.6	3.5	3.03e+01	0	45	104	406323200	60	51424
2026-01-30 11:55:21.61	324.58	12.84	-52.3	-65.3	3.5	3.03e+01	0	45	104	406323200	60	69703
2026-01-30 11:55:22.62	324.72	12.76	-51.5	-63.9	3.5	3.03e+01	0	45	104	406323200	60	59395
2026-01-30 11:55:23.62	324.85	12.67	-52.5	-65.9	3.5	3.03e+01	0	45	104	406323200	60	74895
2026-01-30 11:55:24.63	324.99	12.59	-52.2	-65.1	3.5	3.03e+01	0	45	104	406323200	60	68516
2026-01-30 11:55:25.63	325.12	12.50	-52.3	-65.0	3.5	3.03e+01	0	45	104	406323200	60	67973
2026-01-30 11:55:26.64	325.26	12.42	-52.3	-64.9	3.5	3.03e+01	0	45	104	406323200	60	67069
2026-01-30 11:55:27.65	325.39	12.33	-52.4	-65.2	3.5	3.03e+01	0	45	104	406323200	60	68925
2026-01-30 11:55:28.65	325.52	12.25	-52.1	-64.5	3.5	3.03e+01	0	45	104	406323200	60	63735
2026-01-30 11:55:29.66	325.65	12.17	-52.8	-66.2	3.5	3.03e+01	0	45	104	406323200	60	77295
2026-01-30 11:55:30.67	325.78	12.08	-52.3	-65.1	3.5	3.03e+01	0	45	104	406323200	60	68635
2026-01-30 11:55:31.67	325.91	12.00	-52.5	-65.6	3.5	3.03e+01	0	45	104	406323200	60	72871
2026-01-30 11:55:32.68	326.04	11.92	-52.4	-65.4	3.5	3.03e+01	0	45	104	406323200	60	70938
2026-01-30 11:55:33.69	326.16	11.83	-52.4	-65.7	3.5	3.03e+01	0	45	104	406323200	60	73275
2026-01-30 11:55:34.70	326.29	11.75	-52.7	-66.3	3.5	3.03e+01	0	45	104	406323200	60	78400
2026-01-30 11:55:35.71	326.42	11.67	-52.5	-66.2	3.5	3.03e+01	0	45	104	406323200	60	77824
2026-01-30 11:55:36.72	326.54	11.58	-53.1	-67.0	3.5	3.03e+01	0	45	104	406323200	60	85221
2026-01-30 11:55:37.72	326.67	11.50	-53.4	-67.6	3.5	3.03e+01	0	45	104	406323200	60	91096
2026-01-30 11:55:38.72	326.79	11.42	-53.3	-67.8	3.5	3.03e+01	0	45	104	406323200	60	92946
2026-01-30 11:55:39.73	326.91	11.34	-53.5	-68.2	3.5	3.03e+01	0	45	104	406323200	60	97262
2026-01-30 11:55:40.74	327.04	11.26	-53.6	-68.3	3.5	3.03e+01	0	45	104	406323200	60	98971
2026-01-30 11:55:41.75	327.16	11.18	-53.6	-68.3	3.5	3.03e+01	0	45	104	406323200	60	99418
2026-01-30 11:55:42.75	327.28	11.09	-53.3	-67.7	3.5	3.03e+01	0	45	104	406323200	60	92373
2026-01-30 11:55:43.75	327.40	11.01	-53.6	-68.7	3.5	3.03e+01	0	45	104	406323200	60	103915
2026-01-30 11:55:44.76	327.52	10.93	-53.7	-68.7	3.5	3.03e+01	0	45	104	406323200	60	103225
2026-01-30 11:55:45.77	327.64	10.85	-54.1	-69.9	3.5	3.03e+01	0	45	104	406323200	60	119434
2026-01-30 11:55:46.77	327.76	10.77	-53.9	-69.3	3.5	3.03e+01	0	45	104	406323200	60	110913
2026-01-30 11:55:47.78	327.87	10.69	-54.1	-69.6	3.5	3.03e+01	0	45	104	406323200	60	114246
2026-01-30 11:55:48.79	327.99	10.61	-54.1	-69.8	3.5	3.03e+01	0	45	104	406323200	60	117812
2026-01-30 11:55:49.80	328.11	10.53	-54.2	-69.8	3.5	3.03e+01	0	45	104	406323200	60	118120
2026-01-30 11:55:50.80	328.22	10.45	-54.2	-70.1	3.5	3.03e+01	0	45	104	406323200	60	121759
2026-01-30 11:55:51.81	328.34	10.37	-54.2	-70.3	3.5	3.03e+01	0	45	104	406323200	60	124507
2026-01-30 11:55:52.82	328.45	10.29	-54.5	-71.4	3.5	3.03e+01	0	45	104	406323200	60	141038
2026-01-30 11:55:53.83	328.57	10.21	-54.4	-71.8	3.5	3.03e+01	0	45	104	406323200	60	147381
2026-01-30 11:55:54.83	328.68	10.14	-54.6	-71.7	3.5	3.03e+01	0	45	104	406323200	60	146451
2026-01-30 11:55:55.84	328.79	10.06	-54.5	-71.9	3.5	3.03e+01	0	45	104	406323200	60	149220
2026-01-30 11:55:56.85	328.91	9.98	-54.5	-72.0	3.5	3.03e+01	0	45	104	406323200	60	151938
2026-01-30 11:55:57.85	329.02	9.90	-54.5	-72.4	3.5	3.03e+01	0	45	104	406323200	60	158013
2026-01-30 11:55:58.86	329.13	9.82	-54.7	-73.0	3.5	3.03e+01	0	45	104	406323200	60	170298
2026-01-30 11:55:59.86	329.24	9.74	-54.8	-73.4	3.5	3.03e+01	0	45	104	406323200	60	178124
2026-01-30 11:56:00.87	329.35	9.67	-54.6	-72.5	3.5	3.03e+01	0	45	104	406323200	60	159512
2026-01-30 11:56:01.87	329.45	9.59	-54.8	-73.4	3.5	3.03e+01	0	45	104	406323200	60	177046
2026-01-30 11:56:02.88	329.56	9.51	-54.6	-72.6	3.5	3.03e+01	0	45	104	406323200	60	161777
2026-01-30 11:56:03.89	329.67	9.43	-54.6	-72.8	3.5	3.03e+01	0	45	104	406323200	60	166155
2026-01-30 11:56:04.89	329.78	9.36	-54.7	-73.0	3.5	3.03e+01	0	45	104	406323200	60	170274
2026-01-30 11:56:05.90	329.88	9.28	-54.8	-73.2	3.5	3.03e+01	0	45	104	406323200	60	174539
2026-01-30 11:56:06.91	329.99	9.20	-54.8	-73.2	3.5	3.03e+01	0	45	104	406323200	60	173775
2026-01-30 11:56:07.92	330.10	9.13	-54.9	-74.0	3.5	3.03e+01	0	45	104	406323200	60	190475
2026-01-30 11:56:08.92	330.20	9.05	-55.1	-74.4	3.5	3.03e+01	0	45	104	406323200	60	199421
2026-01-30 11:56:09.93	330.30	8.97	-55.1	-74.7	3.5	3.03e+01	0	45	104	406323200	60	205953
2026-01-30 11:56:10.94	330.41	8.90	-54.9	-74.2	3.5	3.03e+01	0	45	104	406323200	60	194061
2026-01-30 11:56:11.94	330.51	8.82	-55.0	-74.2	3.5	3.03e+01	0	45	104	406323200	60	194225
2026-01-30 11:56:12.95	330.61	8.75	-55.0	-74.3	3.5	3.03e+01	0	45	104	406323200	60	196457
2026-01-30 11:56:13.96	330.72	8.67	-55.1	-74.5	3.5	3.03e+01	0	45	104	406323200	60	201649
2026-01-30 11:56:14.96	330.82	8.60	-55.2	-74.6	3.5	3.03e+01	0	45	104	406323200	60	204726
2026-01-30 11:56:15.97	330.92	8.52	-55.1	-74.7	3.5	3.03e+01	0	45	104	406323200	60	206965
2026-01-30 11:56:16.97	331.02	8.45	-55.0	-74.9	3.5	3.03e+01	0	45	104	406323200	60	210351
2026-01-30 11:56:17.98	331.12	8.37	-55.0	-75.0	3.5	3.03e+01	0	45	104	406323200	60	214078
2026-01-30 11:56:18.98	331.22	8.30	-55.1	-74.9	3.5	3.03e+01	0	45	104	406323200	60	211391
2026-01-30 11:56:19.99	331.32	8.22	-54.9	-74.8	3.5	3.03e+01	0	45	104	406323200	60	209904
2026-01-30 11:56:20.99	331.41	8.15	-55.1	-74.9	3.5	3.03e+01	0	45	104	406323200	60	211800
2026-01-30 11:56:22.00	331.51	8.08	-55.0	-75.0	3.5	3.03e+01	0	45	104	406323200	60	212948
2026-01-30 11:56:23.00	331.61	8.00	-55.0	-74.9	3.5	3.03e+01	0	45	104	406323200	60	211324
2026-01-30 11:56:24.01	331.71	7.93	-54.8	-74.8	3.5	3.03e+01	0	45	104	406323200	60	209270
2026-01-30 11:56:25.01	331.80	7.86	-55.1	-75.0	3.5	3.03e+01	0	45	104	406323200	60	214546
2026-01-30 11:56:26.02	331.90	7.78	-54.8	-75.0	3.5	3.03e+01	0	45	104	406323200	60	213366
2026-01-30 11:56:27.03	331.99	7.71	-55.0	-74.9	3.5	3.03e+01	0	45	104	406323200	60	211475
2026-01-30 11:56:28.03	332.09	7.64	-54.7	-74.8	3.5	3.03e+01	0	45	104	406323200	60	210009
2026-01-30 11:56:29.04	332.18	7.56	-54.8	-75.0	3.5	3.03e+01	0	45	104	406323200	60	214668
2026-01-30 11:56:30.05	332.28	7.49	-54.7	-74.9	3.5	3.03e+01	0	45	104	406323200	60	210458
2026-01-30 11:56:31.06	332.37	7.42	-54.8	-75.0	3.5	3.03e+01	0	45	104	406323200	60	213661
2026-01-30 11:56:32.06	332.46	7.35	-54.8	-74.9	3.5	3.03e+01	0	45	104	406323200	60	210999
2026-01-30 11:56:33.07	332.55	7.27	-54.6	-74.9	3.5	3.03e+01	0	45	104	406323200	60	210526
2026-01-30 11:56:34.08	332.65	7.20	-54.9	-74.9	3.5	3.03e+01	0	45	104	406323200	60	212379
2026-01-30 11:56:35.09	332.74	7.13	-54.7	-75.1	3.5	3.03e+01	0	45	104	406323200	60	215181
2026-01-30 11:56:36.09	332.83	7.06	-54.8	-74.7	3.5	3.03e+01	0	45	104	406323200	60	206777
2026-01-30 11:56:37.10	332.92	6.99	-54.6	-74.9	3.5	3.03e+01	0	45	104	406323200	60	210518
2026-01-30 11:56:38.10	333.01	6.92	-54.8	-74.9	3.5	3.03e+01	0	45	104	406323200	60	210295
2026-01-30 11:56:39.11	333.10	6.85	-54.9	-74.9	3.5	3.03e+01	0	45	104	406323200	60	212273
2026-01-30 11:56:40.12	333.19	6.78	-54.6	-74.6	3.5	3.03e+01	0	45	104	406323200	60	204328
2026-01-30 11:56:41.12	333.28	6.71	-54.8	-74.7	3.5	3.03e+01	0	45	104	406323200	60	207436
2026-01-30 11:56:42.13	333.36	6.63	-54.6	-74.6	3.5	3.03e+01	0	45	104	406323200	60	204824
2026-01-30 11:56:43.14	333.45	6.56	-54.9	-74.8	3.6	3.03e+01	0	45	104	406323200	60	210002
