passes_logs/2026/01/30/R3.2S-Naryan-Mar/R3.2S-Naryan-Mar__20260130_014938_NOAA_20_JPSS-1_rec.log

#Pass ID: 20260130_014938_NOAA 20 (JPSS-1)
#Satellite: NOAA 20 (JPSS-1)
#Configuration: NOAA 20
#almurnet v.1.7.20240730
#Start time: 2026-01-30 01:49:39

#Version: 2.2.20231116
#Station: R3.2S-Naryan-Mar
#Location: 53.008057 lon 67.646978 lat
#TLE: 1 43013U 17073A   26028.86313978  .00000144  00000+0  89200-4 0  9993
#TLE: 2 43013  98.7648 329.6571 0000891  20.0014 340.1197 14.19541559424709

#Time	Az	El	Level	Level2	SNR	BER	BlckErr	Temp	State	Recorded	gain1	gain2
2026-01-30 01:49:39.13	38.23	0.03	-59.3	-78.0	3.5	1.51e+00	0	43	0	0	60	309749
2026-01-30 01:49:40.13	38.19	0.09	-57.1	-76.7	3.6	1.51e+00	0	44	104	0	60	266496
2026-01-30 01:49:41.14	38.14	0.14	-57.6	-77.3	3.6	1.51e+00	0	44	104	0	60	286735
2026-01-30 01:49:42.15	38.09	0.20	-61.0	-78.8	3.6	1.51e+00	0	44	104	0	60	340976
2026-01-30 01:49:43.15	38.04	0.26	-61.3	-78.7	3.6	1.51e+00	0	45	104	0	60	338969
2026-01-30 01:49:44.15	37.99	0.31	-60.7	-78.9	3.6	1.51e+00	0	45	104	0	60	344324
2026-01-30 01:49:45.16	37.94	0.37	-58.9	-78.5	3.6	1.51e+00	0	45	104	0	60	327989
2026-01-30 01:49:46.17	37.89	0.43	-60.1	-78.6	3.6	1.51e+00	0	45	104	0	60	333579
2026-01-30 01:49:47.17	37.84	0.48	-61.5	-79.2	3.6	1.51e+00	0	45	104	0	60	357248
2026-01-30 01:49:48.18	37.79	0.54	-61.8	-79.1	3.6	1.51e+00	0	45	104	0	60	353634
2026-01-30 01:49:49.19	37.75	0.59	-62.5	-79.4	3.6	1.51e+00	0	45	104	0	60	364146
2026-01-30 01:49:50.20	37.69	0.65	-60.8	-79.2	3.6	1.51e+00	0	45	104	0	60	358069
2026-01-30 01:49:51.21	37.64	0.71	-62.4	-79.1	3.6	1.51e+00	0	45	104	0	60	354058
2026-01-30 01:49:52.22	37.59	0.77	-61.7	-79.0	3.6	1.51e+00	0	45	104	0	60	348185
2026-01-30 01:49:53.22	37.54	0.82	-61.1	-78.8	3.6	1.51e+00	0	45	104	0	60	343099
2026-01-30 01:49:54.23	37.49	0.88	-57.1	-77.8	3.6	1.51e+00	0	45	104	0	60	305557
2026-01-30 01:49:55.24	37.44	0.94	-59.8	-77.7	3.6	1.51e+00	0	45	104	0	60	300706
2026-01-30 01:49:56.25	37.39	0.99	-57.4	-77.9	3.6	1.51e+00	0	45	104	0	60	307747
2026-01-30 01:49:57.26	37.34	1.05	-53.4	-73.9	3.6	1.51e+00	0	45	104	0	60	193036
2026-01-30 01:49:58.26	37.29	1.11	-59.2	-78.7	3.6	1.51e+00	0	45	104	0	60	335576
2026-01-30 01:49:59.27	37.24	1.17	-55.2	-76.9	3.6	1.51e+00	0	45	104	0	60	275461
2026-01-30 01:50:00.28	37.18	1.22	-55.4	-74.5	3.6	1.51e+00	0	45	104	0	60	208205
2026-01-30 01:50:01.28	37.13	1.28	-56.0	-76.5	3.6	1.51e+00	0	45	104	0	60	262539
2026-01-30 01:50:02.29	37.08	1.34	-59.6	-76.4	3.6	1.51e+00	0	45	104	0	60	259475
2026-01-30 01:50:03.29	37.03	1.40	-56.0	-76.9	3.6	1.51e+00	0	45	104	0	60	274962
2026-01-30 01:50:04.30	36.97	1.45	-59.9	-77.8	3.6	1.51e+00	0	45	104	0	60	302681
2026-01-30 01:50:05.31	36.92	1.51	-57.9	-76.8	3.6	1.51e+00	0	45	104	0	60	272288
2026-01-30 01:50:06.32	36.87	1.57	-57.4	-76.1	3.6	1.51e+00	0	45	104	0	60	250504
2026-01-30 01:50:07.33	36.81	1.63	-60.7	-77.7	3.6	1.51e+00	0	45	104	0	60	300017
2026-01-30 01:50:08.33	36.76	1.69	-57.7	-76.6	3.6	1.51e+00	0	45	104	0	60	264496
2026-01-30 01:50:09.34	36.70	1.75	-56.4	-75.6	3.6	1.51e+00	0	45	104	0	60	236607
2026-01-30 01:50:10.35	36.65	1.81	-54.6	-74.6	3.6	1.51e+00	0	45	104	0	60	209261
2026-01-30 01:50:11.35	36.60	1.86	-56.9	-75.5	3.6	1.51e+00	0	45	104	0	60	233897
2026-01-30 01:50:12.36	36.54	1.92	-55.8	-75.9	3.6	1.51e+00	0	45	104	0	60	244046
2026-01-30 01:50:13.37	36.49	1.98	-55.7	-74.8	3.6	1.51e+00	0	45	104	0	60	214395
2026-01-30 01:50:14.37	36.43	2.04	-54.6	-73.9	3.6	1.51e+00	0	45	104	0	60	193332
2026-01-30 01:50:15.38	36.38	2.10	-54.6	-74.0	3.6	1.51e+00	0	45	104	0	60	195677
2026-01-30 01:50:16.39	36.32	2.16	-54.6	-73.9	3.5	1.51e+00	0	45	104	0	60	193080
2026-01-30 01:50:17.39	36.26	2.22	-54.6	-74.5	3.6	1.51e+00	0	45	104	0	60	208492
2026-01-30 01:50:18.40	36.21	2.28	-54.6	-74.5	3.6	1.51e+00	0	45	104	0	60	208775
2026-01-30 01:50:19.40	36.15	2.34	-54.6	-74.0	3.6	1.51e+00	0	45	104	0	60	196292
2026-01-30 01:50:20.41	36.09	2.39	-54.7	-74.0	3.6	1.51e+00	0	45	104	0	60	195244
2026-01-30 01:50:21.41	36.04	2.45	-54.8	-74.2	3.6	1.51e+00	0	45	104	0	60	201018
2026-01-30 01:50:22.42	35.98	2.51	-54.7	-74.2	3.6	1.51e+00	0	45	104	0	60	199792
2026-01-30 01:50:23.43	35.92	2.57	-54.7	-73.9	3.6	1.51e+00	0	45	104	0	60	194767
2026-01-30 01:50:24.44	35.87	2.63	-54.7	-74.2	3.6	1.51e+00	0	45	104	0	60	201603
2026-01-30 01:50:25.44	35.81	2.69	-54.7	-74.6	3.6	1.51e+00	0	45	104	0	60	209518
2026-01-30 01:50:26.45	35.75	2.75	-54.7	-74.6	3.6	1.51e+00	0	45	104	0	60	210684
2026-01-30 01:50:27.46	35.69	2.81	-54.8	-74.1	3.6	1.51e+00	0	45	104	0	60	199762
2026-01-30 01:50:28.47	35.63	2.87	-54.7	-74.2	3.6	1.51e+00	0	45	104	0	60	200328
2026-01-30 01:50:29.48	35.57	2.93	-54.7	-74.1	3.6	1.51e+00	0	45	104	0	60	197695
2026-01-30 01:50:30.49	35.51	3.00	-54.7	-74.2	3.6	1.51e+00	0	45	104	0	60	201737
2026-01-30 01:50:31.49	35.45	3.06	-54.6	-74.1	3.6	1.51e+00	0	45	104	0	60	199107
2026-01-30 01:50:32.50	35.39	3.12	-54.8	-74.1	3.6	1.51e+00	0	45	104	0	60	199488
2026-01-30 01:50:33.51	35.33	3.18	-54.8	-74.0	3.6	1.51e+00	0	45	104	0	60	196846
2026-01-30 01:50:34.51	35.27	3.24	-54.7	-73.9	3.6	1.51e+00	0	45	104	0	60	194664
2026-01-30 01:50:35.52	35.21	3.30	-54.8	-74.0	3.6	1.51e+00	0	45	104	0	60	196957
2026-01-30 01:50:36.52	35.15	3.36	-54.8	-74.3	3.6	1.51e+00	0	45	104	0	60	203613
2026-01-30 01:50:37.53	35.09	3.42	-54.7	-74.6	3.6	1.51e+00	0	45	104	0	60	209700
2026-01-30 01:50:38.54	35.03	3.48	-54.8	-74.5	3.6	1.51e+00	0	45	104	0	60	208190
2026-01-30 01:50:39.55	34.97	3.54	-54.7	-74.2	3.6	1.51e+00	0	45	104	0	60	200568
2026-01-30 01:50:40.55	34.91	3.60	-54.7	-73.9	3.6	1.51e+00	0	45	104	0	60	195027
2026-01-30 01:50:41.56	34.85	3.67	-54.7	-74.2	3.6	1.51e+00	0	45	104	0	60	201237
2026-01-30 01:50:42.56	34.78	3.73	-54.7	-74.0	3.6	1.51e+00	0	45	104	0	60	196176
2026-01-30 01:50:43.57	34.72	3.79	-54.7	-74.0	3.6	1.51e+00	0	45	104	0	60	197144
2026-01-30 01:50:44.57	34.66	3.85	-54.8	-74.0	3.6	1.51e+00	0	45	104	0	60	195606
2026-01-30 01:50:45.58	34.59	3.91	-54.7	-74.3	3.6	1.51e+00	0	45	104	0	60	204017
2026-01-30 01:50:46.59	34.53	3.98	-54.7	-74.5	3.6	1.51e+00	0	45	104	0	60	208470
2026-01-30 01:50:47.59	34.47	4.04	-54.8	-74.1	3.6	1.51e+00	0	45	104	0	60	199257
2026-01-30 01:50:48.59	34.40	4.10	-54.8	-74.0	3.6	1.51e+00	0	45	104	0	60	195687
2026-01-30 01:50:49.59	34.34	4.16	-54.7	-73.9	3.6	1.51e+00	0	45	104	0	60	193513
2026-01-30 01:50:50.60	34.27	4.22	-54.8	-74.0	3.6	1.51e+00	0	45	104	0	60	195332
2026-01-30 01:50:51.60	34.21	4.29	-54.7	-74.0	3.6	1.51e+00	0	45	104	0	60	195538
2026-01-30 01:50:52.60	34.15	4.35	-54.7	-73.9	3.6	1.51e+00	0	45	104	0	60	194508
2026-01-30 01:50:53.61	34.08	4.41	-54.7	-74.1	3.6	1.51e+00	0	45	104	0	60	197689
2026-01-30 01:50:54.62	34.01	4.47	-54.8	-74.6	3.6	1.51e+00	0	45	104	0	60	209996
2026-01-30 01:50:55.62	33.95	4.54	-54.7	-74.5	3.6	1.51e+00	0	45	104	0	60	208452
2026-01-30 01:50:56.63	33.88	4.60	-54.8	-74.0	3.6	1.51e+00	0	45	104	0	60	195348
2026-01-30 01:50:57.64	33.81	4.66	-54.8	-74.3	3.6	1.51e+00	0	45	104	0	60	202196
2026-01-30 01:50:58.65	33.75	4.73	-54.7	-74.2	3.6	1.51e+00	0	45	104	0	60	199924
2026-01-30 01:50:59.65	33.68	4.79	-54.7	-74.1	3.6	1.51e+00	0	46	104	0	60	198825
2026-01-30 01:51:00.66	33.61	4.86	-55.0	-74.1	3.6	1.51e+00	0	45	104	0	60	198404
2026-01-30 01:51:01.66	33.54	4.92	-54.7	-74.3	3.6	1.51e+00	0	45	104	0	60	203221
2026-01-30 01:51:02.67	33.48	4.98	-54.7	-74.5	3.6	1.51e+00	0	45	104	0	60	207792
2026-01-30 01:51:03.67	33.41	5.05	-54.7	-74.4	3.5	1.51e+00	0	45	104	0	60	205273
2026-01-30 01:51:04.68	33.34	5.11	-54.7	-74.1	3.6	1.51e+00	0	45	104	0	60	198730
2026-01-30 01:51:05.69	33.27	5.17	-54.7	-73.9	3.6	1.51e+00	0	45	104	0	60	193935
2026-01-30 01:51:06.69	33.20	5.24	-54.7	-74.0	3.6	1.51e+00	0	45	104	0	60	195682
2026-01-30 01:51:07.70	33.13	5.30	-54.6	-73.3	3.6	1.51e+00	0	45	104	0	60	182019
2026-01-30 01:51:08.71	33.06	5.37	-54.6	-72.7	3.6	1.51e+00	0	45	104	0	60	168250
2026-01-30 01:51:09.71	32.99	5.43	-54.6	-71.7	3.9	1.50e+00	0	45	104	0	60	151365
2026-01-30 01:51:10.72	32.92	5.50	-54.6	-68.6	4.4	1.29e+00	0	45	0	0	60	105608
2026-01-30 01:51:11.72	32.85	5.56	-54.5	-66.7	6.0	3.97e-01	0	45	0	2097152	60	84794
2026-01-30 01:51:12.73	32.78	5.63	-54.4	-65.0	7.8	1.41e-01	0	45	0	4194304	60	69738
2026-01-30 01:51:13.74	32.70	5.69	-54.2	-63.5	9.5	3.47e-02	0	45	0	1048576	60	58636
2026-01-30 01:51:14.74	32.63	5.76	-54.0	-62.3	11.0	3.03e-03	0	45	0	3145728	60	50815
2026-01-30 01:51:15.75	32.56	5.82	-53.8	-61.0	12.4	4.59e-04	0	45	0	5242880	60	44137
2026-01-30 01:51:16.75	32.49	5.89	-53.6	-60.4	13.0	7.09e-05	0	45	0	7340032	60	40940
2026-01-30 01:51:17.76	32.41	5.95	-53.5	-59.9	13.7	1.44e-05	0	45	0	8388608	60	38531
2026-01-30 01:51:18.77	32.34	6.02	-53.4	-59.5	13.9	5.30e-06	0	45	0	10485760	60	36985
2026-01-30 01:51:19.78	32.27	6.09	-54.8	-60.3	14.4	1.50e-06	0	45	0	12582912	60	40528
2026-01-30 01:51:20.78	32.19	6.15	-55.2	-61.9	12.7	1.98e-05	0	45	0	14680064	60	48785
2026-01-30 01:51:21.79	32.12	6.22	-53.9	-60.0	13.7	6.80e-06	0	45	0	15728640	60	39051
2026-01-30 01:51:22.80	32.04	6.28	-52.5	-60.0	11.8	2.33e-04	0	45	0	17825792	60	38977
2026-01-30 01:51:23.80	31.97	6.35	-54.2	-62.4	11.6	3.84e-04	0	45	0	19922944	60	51424
2026-01-30 01:51:24.81	31.89	6.42	-54.4	-60.5	14.9	4.47e-03	0	45	0	22020096	60	41296
2026-01-30 01:51:25.81	31.81	6.48	-54.9	-59.8	15.1	0.00e+00	0	45	0	24117248	60	38495
2026-01-30 01:51:26.81	31.74	6.55	-54.4	-59.4	15.2	0.00e+00	0	45	0	25165824	60	36459
2026-01-30 01:51:27.82	31.66	6.62	-54.4	-59.4	14.7	0.00e+00	0	45	0	27262976	60	36553
2026-01-30 01:51:28.83	31.58	6.68	-54.5	-59.3	14.7	7.00e-07	0	45	0	29360128	60	36090
2026-01-30 01:51:29.84	31.51	6.75	-54.9	-59.2	14.8	0.00e+00	0	45	0	31457280	60	35548
2026-01-30 01:51:30.84	31.43	6.82	-55.1	-58.9	15.7	0.00e+00	0	45	0	33554432	60	34444
2026-01-30 01:51:31.85	31.35	6.88	-55.0	-58.7	15.9	0.00e+00	0	45	0	35651584	60	33839
2026-01-30 01:51:32.86	31.27	6.95	-54.7	-58.7	16.0	0.00e+00	0	45	0	36700160	60	33895
2026-01-30 01:51:33.87	31.19	7.02	-54.3	-58.8	15.9	0.00e+00	0	45	0	38797312	60	34223
2026-01-30 01:51:34.87	31.11	7.09	-54.0	-58.8	15.8	0.00e+00	0	45	0	40894464	60	34154
2026-01-30 01:51:35.88	31.03	7.15	-53.7	-58.8	15.6	0.00e+00	0	45	0	42991616	60	34221
2026-01-30 01:51:36.88	30.95	7.22	-53.6	-58.8	15.5	0.00e+00	0	45	0	44040192	60	34299
2026-01-30 01:51:37.89	30.87	7.29	-53.5	-58.8	15.5	0.00e+00	0	45	0	46137344	60	33967
2026-01-30 01:51:38.90	30.79	7.36	-52.9	-58.7	15.1	0.00e+00	0	45	0	48234496	60	33702
2026-01-30 01:51:39.90	30.71	7.43	-52.4	-58.7	14.5	0.00e+00	0	45	0	50331648	60	33668
2026-01-30 01:51:40.90	30.63	7.49	-52.2	-58.6	14.0	7.00e-07	0	45	0	52428800	60	33330
2026-01-30 01:51:41.91	30.55	7.56	-52.0	-58.6	13.5	2.20e-06	0	45	0	53477376	60	33281
2026-01-30 01:51:42.91	30.46	7.63	-51.9	-58.5	13.2	5.30e-06	0	45	0	55574528	60	32905
2026-01-30 01:51:43.92	30.38	7.70	-51.8	-58.5	12.9	2.13e-05	0	45	0	57671680	60	32973
2026-01-30 01:51:44.92	30.30	7.77	-52.0	-58.6	13.0	2.74e-05	0	45	0	59768832	60	33391
2026-01-30 01:51:45.93	30.21	7.84	-52.3	-58.6	13.2	1.29e-05	0	45	0	61865984	60	33428
2026-01-30 01:51:46.93	30.13	7.91	-52.8	-58.7	13.7	5.30e-06	0	45	0	62914560	60	33771
2026-01-30 01:51:47.94	30.04	7.98	-53.3	-58.8	14.3	0.00e+00	0	45	0	65011712	60	33933
2026-01-30 01:51:48.95	29.96	8.05	-54.0	-58.8	15.2	0.00e+00	0	45	0	67108864	60	34219
2026-01-30 01:51:49.96	29.87	8.12	-54.1	-58.9	15.3	0.00e+00	0	45	0	69206016	60	34707
2026-01-30 01:51:50.96	29.79	8.18	-54.4	-58.9	16.1	0.00e+00	0	45	0	71303168	60	34428
2026-01-30 01:51:51.97	29.70	8.25	-54.7	-58.9	16.5	0.00e+00	0	46	0	72351744	60	34412
2026-01-30 01:51:52.97	29.62	8.32	-54.9	-59.1	16.5	0.00e+00	0	45	0	74448896	60	35391
2026-01-30 01:51:53.98	29.53	8.39	-54.9	-59.0	16.8	0.00e+00	0	45	0	76546048	60	35021
2026-01-30 01:51:54.99	29.44	8.46	-54.5	-58.9	16.6	0.00e+00	0	45	0	78643200	60	34622
2026-01-30 01:51:56.00	29.35	8.54	-53.8	-58.9	16.4	0.00e+00	0	46	0	80740352	60	34476
2026-01-30 01:51:57.00	29.26	8.61	-52.6	-58.7	15.9	0.00e+00	0	45	0	81788928	60	33673
2026-01-30 01:51:58.01	29.17	8.68	-51.9	-58.6	15.5	0.00e+00	0	45	0	83886080	60	33274
2026-01-30 01:51:59.02	29.08	8.75	-51.3	-58.3	15.2	0.00e+00	0	45	0	85983232	60	32130
2026-01-30 01:52:00.03	28.99	8.82	-51.3	-58.3	15.1	0.00e+00	0	45	0	88080384	60	32297
2026-01-30 01:52:01.03	28.90	8.89	-51.9	-58.2	15.8	7.00e-07	0	45	0	90177536	60	31749
2026-01-30 01:52:02.04	28.81	8.96	-52.4	-58.2	16.5	0.00e+00	0	45	0	91226112	60	31692
2026-01-30 01:52:03.05	28.72	9.03	-53.1	-58.2	17.2	0.00e+00	0	45	0	93323264	60	31768
2026-01-30 01:52:04.06	28.63	9.10	-53.9	-58.1	17.8	0.00e+00	0	46	0	95420416	60	31445
2026-01-30 01:52:05.06	28.54	9.17	-54.0	-58.1	17.8	0.00e+00	0	46	0	97517568	60	31501
2026-01-30 01:52:06.07	28.44	9.25	-54.1	-58.1	17.4	0.00e+00	0	45	0	99614720	60	31442
2026-01-30 01:52:07.07	28.35	9.32	-54.2	-58.1	17.1	0.00e+00	0	45	0	100663296	60	31565
2026-01-30 01:52:08.07	28.26	9.39	-54.2	-58.1	16.8	0.00e+00	0	45	0	102760448	60	31462
2026-01-30 01:52:09.08	28.16	9.46	-54.3	-58.1	16.7	0.00e+00	0	45	0	104857600	60	31641
2026-01-30 01:52:10.09	28.07	9.53	-54.7	-58.3	16.6	0.00e+00	0	45	0	106954752	60	32050
2026-01-30 01:52:11.09	27.97	9.60	-55.0	-58.3	17.0	0.00e+00	0	46	0	109051904	60	32332
2026-01-30 01:52:12.10	27.88	9.68	-55.3	-58.4	17.2	0.00e+00	0	46	0	110100480	60	32601
2026-01-30 01:52:13.11	27.78	9.75	-55.5	-58.5	17.4	0.00e+00	0	46	0	112197632	60	33034
2026-01-30 01:52:14.11	27.69	9.82	-55.5	-58.5	17.4	0.00e+00	0	46	0	114294784	60	33137
2026-01-30 01:52:15.12	27.59	9.90	-55.7	-58.7	17.4	0.00e+00	0	45	0	116391936	60	33798
2026-01-30 01:52:16.12	27.49	9.97	-55.7	-58.8	17.2	0.00e+00	0	46	0	118489088	60	34095
2026-01-30 01:52:17.13	27.39	10.04	-55.8	-58.9	17.0	0.00e+00	0	45	0	119537664	60	34693
2026-01-30 01:52:18.13	27.30	10.11	-55.8	-59.1	16.8	0.00e+00	0	45	0	121634816	60	35295
2026-01-30 01:52:19.14	27.20	10.19	-55.8	-59.1	16.7	0.00e+00	0	45	0	123731968	60	35267
2026-01-30 01:52:20.15	27.10	10.26	-55.8	-59.3	16.7	0.00e+00	0	45	0	125829120	60	35978
2026-01-30 01:52:21.16	27.00	10.34	-56.0	-59.4	16.5	0.00e+00	0	46	0	127926272	60	36729
2026-01-30 01:52:22.17	26.89	10.41	-56.3	-59.5	16.5	0.00e+00	0	45	0	128974848	60	37040
2026-01-30 01:52:23.17	26.79	10.48	-56.5	-59.4	16.7	0.00e+00	0	46	0	131072000	60	36555
2026-01-30 01:52:24.18	26.69	10.56	-56.7	-59.5	16.6	0.00e+00	0	46	0	133169152	60	37004
2026-01-30 01:52:25.18	26.59	10.63	-56.4	-59.6	16.2	0.00e+00	0	46	0	135266304	60	37448
2026-01-30 01:52:26.19	26.49	10.70	-55.8	-59.8	15.8	0.00e+00	0	46	0	137363456	60	38118
2026-01-30 01:52:27.20	26.38	10.78	-55.2	-59.8	15.5	0.00e+00	0	46	0	138412032	60	38132
2026-01-30 01:52:28.20	26.28	10.85	-55.1	-59.8	15.5	0.00e+00	0	45	0	140509184	60	38364
2026-01-30 01:52:29.21	26.18	10.93	-55.4	-59.7	15.7	0.00e+00	0	45	0	142606336	60	37982
2026-01-30 01:52:30.22	26.07	11.00	-56.1	-60.0	15.7	0.00e+00	0	46	0	144703488	60	39042
2026-01-30 01:52:31.23	25.96	11.08	-56.6	-59.5	16.7	0.00e+00	0	46	0	146800640	60	36787
2026-01-30 01:52:32.23	25.86	11.15	-55.9	-59.5	16.6	0.00e+00	0	46	0	147849216	60	36820
2026-01-30 01:52:33.24	25.75	11.23	-55.2	-59.2	16.8	0.00e+00	0	45	0	149946368	60	35670
2026-01-30 01:52:34.25	25.64	11.30	-54.6	-58.7	17.1	0.00e+00	0	46	0	152043520	60	33565
2026-01-30 01:52:35.26	25.54	11.38	-53.8	-58.3	17.1	0.00e+00	0	46	0	154140672	60	32115
2026-01-30 01:52:36.26	25.43	11.45	-53.2	-58.2	16.4	0.00e+00	0	46	0	156237824	60	32011
2026-01-30 01:52:37.27	25.32	11.53	-53.3	-58.3	16.2	0.00e+00	0	46	0	157286400	60	32147
2026-01-30 01:52:38.28	25.21	11.61	-54.0	-58.1	16.4	0.00e+00	0	46	0	159383552	60	31441
2026-01-30 01:52:39.29	25.10	11.68	-54.5	-58.0	16.9	0.00e+00	0	46	0	161480704	60	30977
2026-01-30 01:52:40.30	24.99	11.76	-54.6	-57.8	17.2	0.00e+00	0	46	0	163577856	60	30493
2026-01-30 01:52:41.30	24.88	11.83	-54.5	-57.8	17.6	0.00e+00	0	46	0	165675008	60	30580
2026-01-30 01:52:42.31	24.76	11.91	-53.4	-57.9	17.6	0.00e+00	0	46	0	166723584	60	30722
2026-01-30 01:52:43.32	24.65	11.99	-52.7	-57.7	17.3	0.00e+00	0	46	0	168820736	60	30210
2026-01-30 01:52:44.32	24.54	12.06	-51.4	-57.9	16.6	0.00e+00	0	46	0	170917888	60	30605
2026-01-30 01:52:45.32	24.43	12.14	-50.7	-57.9	15.7	0.00e+00	0	46	0	173015040	60	30840
2026-01-30 01:52:46.33	24.31	12.22	-50.6	-57.8	15.0	0.00e+00	0	46	0	175112192	60	30364
2026-01-30 01:52:47.33	24.20	12.29	-50.7	-57.7	14.5	0.00e+00	0	46	0	176160768	60	30206
2026-01-30 01:52:48.34	24.08	12.37	-51.1	-57.8	14.2	0.00e+00	0	46	0	178257920	60	30484
2026-01-30 01:52:49.35	23.96	12.45	-51.8	-57.9	14.0	1.50e-06	0	46	0	180355072	60	30807
2026-01-30 01:52:50.36	23.85	12.53	-53.0	-58.2	14.4	0.00e+00	0	46	0	182452224	60	31676
2026-01-30 01:52:51.37	23.73	12.60	-53.3	-57.8	15.2	0.00e+00	0	46	0	184549376	60	30386
2026-01-30 01:52:52.37	23.61	12.68	-54.1	-57.8	16.4	0.00e+00	0	46	0	185597952	60	30570
2026-01-30 01:52:53.38	23.49	12.76	-54.3	-57.8	17.3	0.00e+00	0	46	0	187695104	60	30432
2026-01-30 01:52:54.39	23.37	12.84	-54.0	-57.7	18.1	0.00e+00	0	46	0	189792256	60	30180
2026-01-30 01:52:55.40	23.25	12.92	-52.8	-57.7	17.6	0.00e+00	0	46	0	191889408	60	30198
2026-01-30 01:52:56.41	23.13	12.99	-52.2	-57.5	16.4	0.00e+00	0	46	0	193986560	60	29374
2026-01-30 01:52:57.42	23.01	13.07	-52.0	-57.3	14.8	0.00e+00	0	46	0	195035136	60	28788
2026-01-30 01:52:58.42	22.89	13.15	-52.5	-57.3	14.0	0.00e+00	0	46	0	197132288	60	28695
2026-01-30 01:52:59.43	22.77	13.23	-52.2	-57.2	13.7	1.50e-06	0	46	0	199229440	60	28293
2026-01-30 01:53:00.44	22.64	13.31	-51.3	-57.2	13.5	7.00e-07	0	46	0	201326592	60	28309
2026-01-30 01:53:01.44	22.52	13.39	-50.1	-57.1	13.6	2.20e-06	0	46	0	203423744	60	28213
2026-01-30 01:53:02.45	22.39	13.46	-49.5	-57.2	13.9	3.00e-06	0	46	0	205520896	60	28289
2026-01-30 01:53:03.45	22.27	13.54	-49.0	-57.2	14.3	0.00e+00	0	46	0	206569472	60	28362
2026-01-30 01:53:04.45	22.14	13.62	-49.6	-57.2	15.2	0.00e+00	0	46	0	208666624	60	28281
2026-01-30 01:53:05.46	22.02	13.70	-51.0	-57.4	16.3	0.00e+00	0	46	0	210763776	60	28989
2026-01-30 01:53:06.47	21.89	13.78	-53.0	-57.5	17.6	0.00e+00	0	46	0	212860928	60	29471
2026-01-30 01:53:07.48	21.76	13.86	-53.5	-57.6	18.5	0.00e+00	0	46	0	213909504	60	29559
2026-01-30 01:53:08.49	21.63	13.94	-53.2	-57.7	18.3	0.00e+00	0	46	0	216006656	60	30153
2026-01-30 01:53:09.49	21.50	14.02	-52.2	-57.7	17.7	0.00e+00	0	46	0	218103808	60	30196
2026-01-30 01:53:10.50	21.37	14.10	-51.7	-57.6	17.5	0.00e+00	0	46	0	220200960	60	29746
2026-01-30 01:53:11.51	21.24	14.18	-52.1	-57.7	17.4	0.00e+00	0	46	0	222298112	60	30063
2026-01-30 01:53:12.51	21.11	14.26	-52.7	-57.7	17.5	0.00e+00	0	46	0	223346688	60	29896
2026-01-30 01:53:13.52	20.98	14.34	-53.9	-57.8	17.1	0.00e+00	0	46	0	225443840	60	30424
2026-01-30 01:53:14.52	20.84	14.42	-54.7	-57.9	16.7	0.00e+00	0	46	0	227540992	60	30777
2026-01-30 01:53:15.53	20.71	14.50	-55.0	-58.0	16.4	0.00e+00	0	46	0	229638144	60	31140
2026-01-30 01:53:16.54	20.57	14.58	-55.1	-57.8	16.9	0.00e+00	0	46	0	231735296	60	30255
2026-01-30 01:53:17.55	20.44	14.66	-54.9	-57.5	18.5	0.00e+00	0	46	0	233832448	60	29316
2026-01-30 01:53:18.55	20.30	14.74	-54.1	-57.5	18.5	0.00e+00	0	46	0	234881024	60	29363
2026-01-30 01:53:19.56	20.17	14.82	-52.9	-57.3	17.8	0.00e+00	0	46	0	236978176	60	28577
2026-01-30 01:53:20.57	20.03	14.90	-52.1	-57.2	17.1	0.00e+00	0	46	0	239075328	60	28294
2026-01-30 01:53:21.58	19.89	14.98	-51.8	-57.3	16.7	0.00e+00	0	46	0	241172480	60	28556
2026-01-30 01:53:22.58	19.75	15.06	-51.5	-57.4	16.7	0.00e+00	0	46	0	242221056	60	29066
2026-01-30 01:53:23.59	19.61	15.15	-51.0	-57.4	16.3	0.00e+00	0	46	0	244318208	60	29001
2026-01-30 01:53:24.59	19.47	15.23	-50.2	-57.4	15.4	0.00e+00	0	46	0	246415360	60	29032
2026-01-30 01:53:25.60	19.33	15.31	-49.7	-57.4	14.2	0.00e+00	0	46	0	248512512	60	29050
2026-01-30 01:53:26.61	19.18	15.39	-49.5	-57.3	13.3	2.20e-06	0	46	0	250609664	60	28605
2026-01-30 01:53:27.62	19.04	15.47	-50.2	-57.2	13.7	1.50e-06	0	46	0	251658240	60	28411
2026-01-30 01:53:28.62	18.90	15.55	-51.9	-57.2	14.9	7.00e-07	0	46	0	253755392	60	28544
2026-01-30 01:53:29.63	18.75	15.63	-53.3	-57.3	16.3	0.00e+00	0	46	0	255852544	60	28660
2026-01-30 01:53:30.64	18.61	15.72	-53.4	-56.8	17.3	0.00e+00	0	46	0	257949696	60	27256
2026-01-30 01:53:31.64	18.46	15.80	-53.3	-56.6	17.9	0.00e+00	0	46	0	260046848	60	26544
2026-01-30 01:53:32.65	18.31	15.88	-52.4	-56.6	17.4	0.00e+00	0	46	0	262144000	60	26515
2026-01-30 01:53:33.66	18.16	15.96	-50.7	-56.5	15.6	0.00e+00	0	46	0	263192576	60	26124
2026-01-30 01:53:34.67	18.02	16.04	-49.9	-56.3	15.3	0.00e+00	0	46	0	265289728	60	25498
2026-01-30 01:53:35.67	17.87	16.12	-50.2	-56.3	15.7	0.00e+00	0	46	0	267386880	60	25548
2026-01-30 01:53:36.68	17.72	16.21	-51.2	-56.4	17.2	0.00e+00	0	46	0	269484032	60	25871
2026-01-30 01:53:37.69	17.56	16.29	-52.4	-56.5	18.8	0.00e+00	0	46	0	270532608	60	26231
2026-01-30 01:53:38.69	17.41	16.37	-53.3	-56.5	19.6	0.00e+00	0	46	0	272629760	60	26134
2026-01-30 01:53:39.70	17.26	16.45	-53.7	-56.4	19.9	0.00e+00	0	46	0	274726912	60	25891
2026-01-30 01:53:40.70	17.11	16.54	-53.8	-56.4	19.6	0.00e+00	0	46	0	276824064	60	25781
2026-01-30 01:53:41.70	16.95	16.62	-53.7	-56.3	19.2	0.00e+00	0	46	0	278921216	60	25693
2026-01-30 01:53:42.71	16.80	16.70	-53.6	-56.4	18.8	0.00e+00	0	46	0	279969792	60	25966
2026-01-30 01:53:43.71	16.64	16.78	-53.6	-56.5	18.7	0.00e+00	0	46	0	282066944	60	26188
2026-01-30 01:53:44.72	16.48	16.87	-53.7	-56.4	18.7	0.00e+00	0	46	0	284164096	60	25936
2026-01-30 01:53:45.73	16.32	16.95	-53.9	-56.4	19.0	0.00e+00	0	46	0	286261248	60	25751
2026-01-30 01:53:46.73	16.17	17.03	-54.3	-56.4	19.7	0.00e+00	0	46	0	288358400	60	25788
2026-01-30 01:53:47.74	16.00	17.11	-54.5	-56.3	19.9	0.00e+00	0	46	0	290455552	60	25654
2026-01-30 01:53:48.75	15.84	17.20	-54.6	-56.4	19.8	0.00e+00	0	46	0	291504128	60	25786
2026-01-30 01:53:49.76	15.68	17.28	-54.4	-56.3	19.4	0.00e+00	0	46	0	293601280	60	25505
2026-01-30 01:53:50.76	15.52	17.36	-54.3	-56.3	18.8	0.00e+00	0	46	0	295698432	60	25672
2026-01-30 01:53:51.77	15.35	17.45	-54.3	-56.4	18.6	0.00e+00	0	46	0	297795584	60	25785
2026-01-30 01:53:52.78	15.19	17.53	-54.4	-56.4	18.7	0.00e+00	0	46	0	298844160	60	25973
2026-01-30 01:53:53.78	15.02	17.61	-54.3	-56.3	19.1	0.00e+00	0	46	0	300941312	60	25720
2026-01-30 01:53:54.78	14.86	17.69	-54.4	-56.4	19.5	0.00e+00	0	46	0	303038464	60	25841
2026-01-30 01:53:55.79	14.69	17.78	-54.3	-56.4	19.8	0.00e+00	0	46	0	305135616	60	25950
2026-01-30 01:53:56.79	14.52	17.86	-54.2	-56.4	19.8	0.00e+00	0	46	0	307232768	60	25938
2026-01-30 01:53:57.80	14.35	17.94	-54.0	-56.4	19.7	0.00e+00	0	46	0	308281344	60	25922
2026-01-30 01:53:58.81	14.18	18.03	-54.2	-56.6	19.6	0.00e+00	0	46	0	310378496	60	26458
2026-01-30 01:53:59.81	14.01	18.11	-54.3	-56.8	19.5	0.00e+00	0	46	0	312475648	60	26960
2026-01-30 01:54:00.82	13.84	18.19	-54.4	-56.9	19.5	0.00e+00	0	46	0	314572800	60	27306
2026-01-30 01:54:01.82	13.67	18.27	-54.3	-56.7	19.4	0.00e+00	0	46	0	316669952	60	26654
2026-01-30 01:54:02.83	13.49	18.36	-54.4	-56.7	19.0	0.00e+00	0	46	0	317718528	60	26680
2026-01-30 01:54:03.83	13.32	18.44	-54.5	-56.8	18.5	0.00e+00	0	46	0	319815680	60	27110
2026-01-30 01:54:04.84	13.14	18.52	-54.6	-57.0	17.8	0.00e+00	0	46	0	321912832	60	27618
2026-01-30 01:54:05.85	12.97	18.61	-54.4	-57.0	17.4	0.00e+00	0	46	0	324009984	60	27654
2026-01-30 01:54:06.85	12.79	18.69	-54.2	-57.0	17.6	0.00e+00	0	46	0	326107136	60	27770
2026-01-30 01:54:07.86	12.61	18.77	-54.3	-57.2	18.2	0.00e+00	0	46	0	327155712	60	28370
2026-01-30 01:54:08.86	12.43	18.86	-54.2	-57.1	18.7	0.00e+00	0	46	0	329252864	60	28126
2026-01-30 01:54:09.86	12.25	18.94	-54.3	-57.1	19.2	0.00e+00	0	46	0	331350016	60	28003
2026-01-30 01:54:10.87	12.07	19.02	-54.3	-56.9	19.2	0.00e+00	0	46	0	333447168	60	27385
2026-01-30 01:54:11.86	11.89	19.10	-54.5	-56.8	19.0	0.00e+00	0	46	0	335544320	60	27109
2026-01-30 01:54:12.87	11.70	19.19	-54.6	-56.8	18.9	0.00e+00	0	46	0	336592896	60	27064
2026-01-30 01:54:13.87	11.52	19.27	-54.7	-56.7	18.9	0.00e+00	0	46	0	338690048	60	26901
2026-01-30 01:54:14.87	11.33	19.35	-54.9	-56.8	19.2	0.00e+00	0	46	0	340787200	60	26974
2026-01-30 01:54:15.88	11.15	19.44	-54.5	-56.7	19.4	0.00e+00	0	46	0	342884352	60	26747
2026-01-30 01:54:16.89	10.96	19.52	-54.0	-56.7	19.3	0.00e+00	0	46	0	344981504	60	26812
2026-01-30 01:54:17.90	10.77	19.60	-53.4	-56.7	19.0	0.00e+00	0	46	0	346030080	60	26690
2026-01-30 01:54:18.90	10.58	19.68	-53.0	-56.5	18.8	0.00e+00	0	46	0	348127232	60	26110
2026-01-30 01:54:19.91	10.39	19.77	-52.7	-56.6	18.7	0.00e+00	0	46	0	350224384	60	26416
2026-01-30 01:54:20.91	10.20	19.85	-52.2	-56.6	18.2	0.00e+00	0	46	0	352321536	60	26471
2026-01-30 01:54:21.92	10.00	19.93	-51.8	-56.6	17.7	0.00e+00	0	46	0	354418688	60	26621
2026-01-30 01:54:22.93	9.81	20.01	-51.9	-56.7	17.5	0.00e+00	0	46	0	355467264	60	26839
2026-01-30 01:54:23.94	9.61	20.10	-52.2	-56.7	17.7	0.00e+00	0	46	0	357564416	60	26794
2026-01-30 01:54:24.94	9.42	20.18	-53.0	-56.7	18.2	0.00e+00	0	46	0	359661568	60	26848
2026-01-30 01:54:25.95	9.22	20.26	-53.1	-56.7	18.3	0.00e+00	0	46	0	361758720	60	26773
2026-01-30 01:54:26.96	9.02	20.34	-52.8	-56.7	17.9	0.00e+00	0	46	0	363855872	60	26914
2026-01-30 01:54:27.97	8.82	20.43	-52.8	-56.8	17.9	0.00e+00	0	46	0	364904448	60	27039
2026-01-30 01:54:28.98	8.62	20.51	-53.7	-56.8	18.6	0.00e+00	0	46	0	367001600	60	27150
2026-01-30 01:54:29.99	8.41	20.59	-54.7	-56.8	19.4	0.00e+00	0	46	0	369098752	60	27038
2026-01-30 01:54:30.99	8.21	20.67	-54.8	-56.5	19.8	0.00e+00	0	46	0	371195904	60	26075
2026-01-30 01:54:32.00	8.01	20.75	-53.9	-56.4	19.3	0.00e+00	0	46	0	373293056	60	25805
2026-01-30 01:54:33.01	7.80	20.84	-52.9	-56.3	18.5	0.00e+00	0	46	0	374341632	60	25700
2026-01-30 01:54:34.02	7.59	20.92	-52.0	-56.2	17.9	0.00e+00	0	46	0	376438784	60	25269
2026-01-30 01:54:35.02	7.39	21.00	-51.1	-56.3	17.2	0.00e+00	0	46	0	378535936	60	25494
2026-01-30 01:54:36.03	7.18	21.08	-50.7	-56.1	17.1	0.00e+00	0	46	0	380633088	60	24875
2026-01-30 01:54:37.04	6.97	21.16	-50.8	-56.0	17.0	0.00e+00	0	46	0	382730240	60	24828
2026-01-30 01:54:38.05	6.76	21.24	-51.4	-56.0	17.5	0.00e+00	0	46	0	383778816	60	24734
2026-01-30 01:54:39.05	6.55	21.32	-52.2	-56.1	18.0	0.00e+00	0	46	0	385875968	60	24897
2026-01-30 01:54:40.06	6.33	21.40	-52.8	-56.0	18.7	0.00e+00	0	46	0	387973120	60	24602
2026-01-30 01:54:41.06	6.12	21.48	-52.9	-55.7	19.2	0.00e+00	0	46	0	390070272	60	23907
2026-01-30 01:54:42.07	5.90	21.56	-52.8	-55.7	19.1	0.00e+00	0	46	0	392167424	60	23797
2026-01-30 01:54:43.08	5.69	21.64	-52.8	-55.4	19.3	0.00e+00	0	46	0	393216000	60	23201
2026-01-30 01:54:44.08	5.47	21.72	-53.1	-55.4	19.5	0.00e+00	0	46	0	395313152	60	23197
2026-01-30 01:54:45.09	5.25	21.80	-53.5	-55.4	20.1	0.00e+00	0	46	0	397410304	60	22991
2026-01-30 01:54:46.09	5.03	21.88	-53.7	-55.3	20.5	0.00e+00	0	46	0	399507456	60	22937
2026-01-30 01:54:47.10	4.81	21.96	-53.6	-55.3	20.7	0.00e+00	0	46	0	401604608	60	22884
2026-01-30 01:54:48.11	4.59	22.04	-53.4	-55.3	20.6	0.00e+00	0	46	0	402653184	60	22908
2026-01-30 01:54:49.11	4.37	22.12	-53.3	-55.4	20.5	0.00e+00	0	46	0	404750336	60	22958
2026-01-30 01:54:50.12	4.14	22.20	-53.2	-55.5	20.3	0.00e+00	0	46	0	406847488	60	23306
2026-01-30 01:54:51.13	3.91	22.27	-53.0	-55.6	20.1	0.00e+00	0	46	0	408944640	60	23673
2026-01-30 01:54:52.13	3.69	22.35	-52.8	-55.4	20.4	0.00e+00	0	46	0	411041792	60	22986
2026-01-30 01:54:53.14	3.46	22.43	-52.9	-55.3	20.5	0.00e+00	0	46	0	412090368	60	22737
2026-01-30 01:54:54.14	3.23	22.51	-52.7	-55.0	20.6	0.00e+00	0	46	0	414187520	60	22071
2026-01-30 01:54:55.15	3.00	22.58	-52.7	-54.9	20.6	0.00e+00	0	46	0	416284672	60	21669
2026-01-30 01:54:56.15	2.77	22.66	-52.6	-54.7	20.4	0.00e+00	0	46	0	418381824	60	21216
2026-01-30 01:54:57.16	2.54	22.74	-52.6	-54.6	20.3	0.00e+00	0	46	0	420478976	60	21132
2026-01-30 01:54:58.16	2.31	22.81	-52.8	-54.7	20.4	0.00e+00	0	46	0	421527552	60	21246
2026-01-30 01:54:59.17	2.07	22.89	-53.0	-54.7	20.6	0.00e+00	0	46	0	423624704	60	21367
2026-01-30 01:55:00.17	1.84	22.96	-53.2	-54.9	20.7	0.00e+00	0	46	0	425721856	60	21695
2026-01-30 01:55:01.17	1.60	23.04	-53.1	-54.9	20.8	0.00e+00	0	46	0	427819008	60	21757
2026-01-30 01:55:02.19	1.36	23.12	-53.0	-54.9	20.9	0.00e+00	0	46	0	429916160	60	21736
2026-01-30 01:55:03.19	1.12	23.19	-53.0	-54.9	21.1	0.00e+00	0	46	0	430964736	60	21783
2026-01-30 01:55:04.20	0.88	23.27	-53.1	-54.9	21.2	0.00e+00	0	46	0	433061888	60	21769
2026-01-30 01:55:05.21	0.64	23.34	-53.2	-54.9	21.4	0.00e+00	0	46	0	435159040	60	21784
2026-01-30 01:55:06.22	0.39	23.41	-53.3	-55.0	21.4	0.00e+00	0	46	0	437256192	60	21930
2026-01-30 01:55:07.22	0.15	23.49	-53.3	-55.0	21.4	0.00e+00	0	46	0	439353344	60	22050
2026-01-30 01:55:08.22	359.91	23.56	-53.3	-55.0	21.3	0.00e+00	0	46	0	440401920	60	22142
2026-01-30 01:55:09.23	359.66	23.63	-53.4	-55.0	21.4	0.00e+00	0	46	0	442499072	60	22152
2026-01-30 01:55:10.24	359.41	23.70	-53.4	-55.1	21.5	0.00e+00	0	46	0	444596224	60	22221
2026-01-30 01:55:11.24	359.17	23.78	-53.5	-55.1	21.3	0.00e+00	0	46	0	446693376	60	22319
2026-01-30 01:55:12.25	358.91	23.85	-53.4	-55.1	21.0	0.00e+00	0	46	0	448790528	60	22259
2026-01-30 01:55:13.25	358.67	23.92	-53.2	-55.1	20.8	0.00e+00	0	46	0	449839104	60	22406
2026-01-30 01:55:14.25	358.41	23.99	-53.1	-55.0	20.6	0.00e+00	0	46	0	451936256	60	22108
2026-01-30 01:55:15.26	358.16	24.06	-53.0	-54.9	20.5	0.00e+00	0	46	0	454033408	60	21903
2026-01-30 01:55:16.26	357.91	24.13	-53.0	-54.8	20.5	0.00e+00	0	46	0	456130560	60	21583
2026-01-30 01:55:17.26	357.65	24.20	-53.2	-55.0	20.4	0.00e+00	0	46	0	458227712	60	21990
2026-01-30 01:55:18.26	357.40	24.27	-53.3	-55.0	20.6	0.00e+00	0	46	0	459276288	60	21976
2026-01-30 01:55:19.27	357.14	24.34	-53.4	-55.0	20.8	0.00e+00	0	46	0	461373440	60	22125
2026-01-30 01:55:20.28	356.88	24.40	-53.5	-55.1	21.0	0.00e+00	0	46	0	463470592	60	22168
2026-01-30 01:55:21.29	356.62	24.47	-53.6	-55.1	21.1	0.00e+00	0	46	0	465567744	60	22302
2026-01-30 01:55:22.29	356.36	24.54	-53.2	-55.1	20.4	0.00e+00	0	46	0	467664896	60	22383
2026-01-30 01:55:23.30	356.10	24.61	-53.2	-55.1	20.6	2.63e-03	0	46	0	468713472	60	22372
2026-01-30 01:55:24.30	355.83	24.67	-53.2	-55.4	20.3	6.70e-03	0	46	0	470810624	60	22992
2026-01-30 01:55:25.31	355.57	24.74	-53.0	-55.5	20.3	6.23e-03	0	46	0	472907776	60	23336
2026-01-30 01:55:26.31	355.30	24.80	-53.2	-55.7	20.1	5.10e-03	0	46	0	475004928	60	23802
2026-01-30 01:55:27.32	355.04	24.87	-53.4	-55.7	19.9	5.51e-03	0	46	0	476053504	60	23903
2026-01-30 01:55:28.32	354.77	24.93	-53.2	-55.5	20.0	6.51e-03	0	46	0	478150656	60	23462
2026-01-30 01:55:29.32	354.50	25.00	-53.8	-55.5	20.8	5.16e-03	0	46	0	480247808	60	23424
2026-01-30 01:55:30.33	354.23	25.06	-53.7	-55.5	20.7	0.00e+00	0	46	0	482344960	60	23264
2026-01-30 01:55:31.33	353.96	25.12	-53.7	-55.7	20.3	0.00e+00	0	46	0	484442112	60	23846
2026-01-30 01:55:32.34	353.69	25.18	-53.6	-55.5	20.4	0.00e+00	0	46	0	485490688	60	23283
2026-01-30 01:55:33.34	353.42	25.24	-53.9	-55.8	20.0	0.00e+00	0	46	0	487587840	60	24063
2026-01-30 01:55:34.34	353.15	25.30	-54.2	-56.0	20.3	0.00e+00	0	46	0	489684992	60	24593
2026-01-30 01:55:35.34	352.87	25.36	-54.5	-56.2	20.3	0.00e+00	0	46	0	491782144	60	25363
2026-01-30 01:55:36.35	352.59	25.42	-54.6	-56.3	20.2	0.00e+00	0	46	0	493879296	60	25542
2026-01-30 01:55:37.36	352.32	25.48	-54.2	-55.8	20.5	0.00e+00	0	46	0	495976448	60	24286
2026-01-30 01:55:38.37	352.04	25.54	-53.9	-55.4	20.7	0.00e+00	0	46	0	497025024	60	23147
2026-01-30 01:55:39.38	351.76	25.60	-53.8	-55.4	20.7	0.00e+00	0	46	0	499122176	60	23096
2026-01-30 01:55:40.38	351.48	25.66	-53.9	-55.5	20.8	0.00e+00	0	46	0	501219328	60	23236
2026-01-30 01:55:41.38	351.20	25.71	-53.9	-55.4	20.8	0.00e+00	0	46	0	503316480	60	23092
2026-01-30 01:55:42.38	350.92	25.77	-54.0	-55.5	20.7	0.00e+00	0	46	0	504365056	60	23298
2026-01-30 01:55:43.39	350.63	25.82	-54.0	-55.5	20.8	0.00e+00	0	46	0	506462208	60	23325
2026-01-30 01:55:44.39	350.35	25.88	-54.0	-55.5	20.9	0.00e+00	0	46	0	508559360	60	23380
2026-01-30 01:55:45.40	350.06	25.93	-53.8	-55.4	21.1	0.00e+00	0	46	0	510656512	60	22939
2026-01-30 01:55:46.41	349.77	25.99	-53.6	-55.2	21.2	0.00e+00	0	46	0	512753664	60	22507
2026-01-30 01:55:47.41	349.49	26.04	-53.4	-55.0	21.4	0.00e+00	0	46	0	513802240	60	22153
2026-01-30 01:55:48.42	349.20	26.09	-53.4	-55.0	21.5	0.00e+00	0	46	0	515899392	60	22026
2026-01-30 01:55:49.42	348.91	26.14	-53.6	-55.1	21.4	0.00e+00	0	46	0	517996544	60	22283
2026-01-30 01:55:50.42	348.62	26.19	-53.6	-55.0	21.6	0.00e+00	0	46	0	520093696	60	22009
2026-01-30 01:55:51.43	348.33	26.24	-53.6	-55.0	21.5	0.00e+00	0	46	0	522190848	60	22041
2026-01-30 01:55:52.44	348.04	26.29	-53.7	-55.1	21.4	0.00e+00	0	46	0	523239424	60	22212
2026-01-30 01:55:53.45	347.74	26.34	-53.7	-55.1	21.1	0.00e+00	0	46	0	525336576	60	22363
2026-01-30 01:55:54.46	347.45	26.39	-53.6	-55.1	20.9	0.00e+00	0	46	0	527433728	60	22267
2026-01-30 01:55:55.47	347.15	26.43	-53.7	-55.2	20.9	0.00e+00	0	46	0	529530880	60	22562
2026-01-30 01:55:56.47	346.86	26.48	-53.9	-55.4	20.8	0.00e+00	0	46	0	531628032	60	23034
2026-01-30 01:55:57.48	346.56	26.53	-54.2	-55.6	20.8	0.00e+00	0	46	0	532676608	60	23640
2026-01-30 01:55:58.49	346.26	26.57	-54.3	-55.8	20.7	0.00e+00	0	46	0	534773760	60	24174
2026-01-30 01:55:59.50	345.96	26.61	-54.5	-56.0	20.5	0.00e+00	0	46	0	536870912	60	24861
2026-01-30 01:56:00.50	345.66	26.66	-54.4	-56.1	20.6	0.00e+00	0	46	0	538968064	60	24980
2026-01-30 01:56:01.51	345.36	26.70	-54.5	-56.1	20.4	0.00e+00	0	46	0	541065216	60	25100
2026-01-30 01:56:02.52	345.06	26.74	-54.6	-56.2	20.4	0.00e+00	0	46	0	542113792	60	25397
2026-01-30 01:56:03.53	344.76	26.78	-54.7	-56.4	20.3	0.00e+00	0	46	0	544210944	60	25747
2026-01-30 01:56:04.53	344.46	26.82	-54.8	-56.6	20.0	0.00e+00	0	46	0	546308096	60	26473
2026-01-30 01:56:05.54	344.15	26.86	-54.9	-56.8	19.7	0.00e+00	0	46	0	548405248	60	27255
2026-01-30 01:56:06.54	343.85	26.90	-55.0	-57.1	19.4	0.00e+00	0	46	0	550502400	60	27967
2026-01-30 01:56:07.55	343.54	26.94	-55.0	-57.0	19.4	0.00e+00	0	46	0	552599552	60	27893
2026-01-30 01:56:08.56	343.24	26.97	-55.1	-57.1	19.5	0.00e+00	0	46	0	553648128	60	28181
2026-01-30 01:56:09.57	342.93	27.01	-55.1	-57.1	19.5	0.00e+00	0	46	0	555745280	60	27942
2026-01-30 01:56:10.57	342.63	27.04	-55.1	-56.9	19.9	0.00e+00	0	46	0	557842432	60	27301
2026-01-30 01:56:11.58	342.32	27.08	-55.3	-57.2	19.6	0.00e+00	0	46	0	559939584	60	28276
2026-01-30 01:56:12.59	342.01	27.11	-55.1	-56.7	20.1	0.00e+00	0	46	0	560988160	60	26900
2026-01-30 01:56:13.60	341.70	27.14	-55.1	-56.8	19.9	0.00e+00	0	46	0	563085312	60	27016
2026-01-30 01:56:14.60	341.39	27.17	-55.0	-56.8	19.9	0.00e+00	0	46	0	565182464	60	27084
2026-01-30 01:56:15.61	341.08	27.20	-54.9	-56.7	20.0	0.00e+00	0	46	0	567279616	60	26800
2026-01-30 01:56:16.62	340.77	27.23	-55.0	-56.8	19.9	0.00e+00	0	46	0	569376768	60	27012
2026-01-30 01:56:17.63	340.46	27.26	-55.1	-56.8	19.8	0.00e+00	0	46	0	570425344	60	27246
2026-01-30 01:56:18.63	340.15	27.29	-55.1	-56.9	19.6	0.00e+00	0	46	0	572522496	60	27453
2026-01-30 01:56:19.64	339.83	27.31	-55.0	-56.7	19.7	0.00e+00	0	46	0	574619648	60	26902
2026-01-30 01:56:20.65	339.52	27.34	-55.0	-56.9	19.5	0.00e+00	0	46	0	576716800	60	27280
2026-01-30 01:56:21.65	339.21	27.36	-55.0	-56.9	19.6	0.00e+00	0	46	0	578813952	60	27284
2026-01-30 01:56:22.66	338.89	27.39	-55.1	-57.0	19.6	0.00e+00	0	46	0	580911104	60	27818
2026-01-30 01:56:23.67	338.58	27.41	-55.1	-57.2	19.5	0.00e+00	0	46	0	581959680	60	28455
2026-01-30 01:56:24.67	338.27	27.43	-55.2	-57.3	19.4	0.00e+00	0	46	0	584056832	60	28853
2026-01-30 01:56:25.68	337.95	27.45	-55.1	-57.2	19.5	0.00e+00	0	46	0	586153984	60	28492
2026-01-30 01:56:26.69	337.63	27.47	-55.2	-57.2	19.7	0.00e+00	0	46	0	588251136	60	28309
2026-01-30 01:56:27.69	337.32	27.49	-55.1	-57.0	19.7	0.00e+00	0	46	0	589299712	60	27581
2026-01-30 01:56:28.70	337.00	27.51	-55.3	-57.1	19.4	0.00e+00	0	46	0	591396864	60	28124
2026-01-30 01:56:29.71	336.68	27.53	-55.5	-57.3	19.4	0.00e+00	0	46	0	593494016	60	28727
2026-01-30 01:56:30.72	336.37	27.54	-55.6	-57.6	19.1	0.00e+00	0	46	0	595591168	60	29637
2026-01-30 01:56:31.73	336.05	27.56	-55.6	-57.6	19.1	0.00e+00	0	46	0	597688320	60	29804
2026-01-30 01:56:32.74	335.73	27.57	-55.6	-57.7	19.1	0.00e+00	0	46	0	598736896	60	29907
2026-01-30 01:56:33.75	335.41	27.59	-55.5	-57.5	19.2	0.00e+00	0	46	0	600834048	60	29531
2026-01-30 01:56:34.75	335.09	27.60	-55.2	-57.1	19.6	0.00e+00	0	46	0	602931200	60	28149
2026-01-30 01:56:35.76	334.77	27.61	-55.1	-57.0	19.6	0.00e+00	0	46	0	605028352	60	27792
2026-01-30 01:56:36.77	334.46	27.62	-55.2	-57.0	19.8	0.00e+00	0	46	0	607125504	60	27699
2026-01-30 01:56:37.77	334.14	27.63	-55.4	-57.2	19.5	0.00e+00	0	46	0	609222656	60	28520
2026-01-30 01:56:38.78	333.82	27.64	-55.6	-57.5	19.1	0.00e+00	0	46	0	610271232	60	29465
2026-01-30 01:56:39.79	333.50	27.65	-55.6	-57.7	18.9	0.00e+00	0	46	0	612368384	60	30013
2026-01-30 01:56:40.79	333.18	27.65	-55.7	-57.8	18.9	0.00e+00	0	46	0	614465536	60	30251
2026-01-30 01:56:41.80	332.86	27.66	-55.6	-57.5	19.1	0.00e+00	0	46	0	616562688	60	29549
2026-01-30 01:56:42.80	332.54	27.66	-55.4	-57.3	19.3	0.00e+00	0	46	0	617611264	60	28796
2026-01-30 01:56:43.81	332.22	27.67	-55.3	-57.3	19.4	0.00e+00	0	46	0	619708416	60	28641
2026-01-30 01:56:44.80	331.91	27.67	-55.2	-57.3	19.4	0.00e+00	0	46	0	621805568	60	28559
2026-01-30 01:56:45.81	331.59	27.67	-55.1	-57.1	19.0	0.00e+00	0	46	0	623902720	60	28171
2026-01-30 01:56:46.82	331.27	27.67	-55.1	-57.0	19.5	0.00e+00	0	46	0	625999872	60	27883
2026-01-30 01:56:47.83	330.95	27.67	-55.1	-56.9	19.7	0.00e+00	0	46	0	627048448	60	27408
2026-01-30 01:56:48.82	330.63	27.67	-54.9	-56.7	19.9	0.00e+00	0	46	0	629145600	60	26851
2026-01-30 01:56:49.83	330.31	27.67	-54.8	-56.6	20.0	0.00e+00	0	46	0	631242752	60	26602
2026-01-30 01:56:50.84	329.99	27.66	-54.3	-56.4	20.0	0.00e+00	0	46	0	633339904	60	25945
2026-01-30 01:56:51.84	329.67	27.66	-54.0	-56.2	20.1	0.00e+00	0	46	0	635437056	60	25334
2026-01-30 01:56:52.85	329.35	27.65	-53.9	-56.2	20.2	0.00e+00	0	46	0	637534208	60	25188
2026-01-30 01:56:53.85	329.04	27.65	-54.0	-56.2	20.3	0.00e+00	0	46	0	638582784	60	25220
2026-01-30 01:56:54.86	328.71	27.64	-54.2	-56.3	20.3	0.00e+00	0	46	0	640679936	60	25516
2026-01-30 01:56:55.86	328.40	27.63	-54.4	-56.3	20.2	0.00e+00	0	46	0	642777088	60	25734
2026-01-30 01:56:56.87	328.08	27.62	-54.5	-56.4	20.1	0.00e+00	0	46	0	644874240	60	25876
2026-01-30 01:56:57.87	327.76	27.61	-54.4	-56.2	20.2	0.00e+00	0	46	0	645922816	60	25431
2026-01-30 01:56:58.87	327.45	27.60	-54.2	-56.1	20.3	0.00e+00	0	46	0	648019968	60	25030
2026-01-30 01:56:59.88	327.13	27.59	-54.3	-56.3	20.1	0.00e+00	0	46	0	650117120	60	25494
2026-01-30 01:57:00.89	326.81	27.57	-54.4	-56.3	20.1	0.00e+00	0	46	0	652214272	60	25567
2026-01-30 01:57:01.90	326.49	27.56	-54.5	-56.4	20.0	0.00e+00	0	46	0	654311424	60	25910
2026-01-30 01:57:02.90	326.17	27.54	-54.7	-56.6	19.7	0.00e+00	0	46	0	655360000	60	26391
2026-01-30 01:57:03.91	325.85	27.53	-54.7	-56.5	19.9	0.00e+00	0	46	0	657457152	60	26045
2026-01-30 01:57:04.92	325.54	27.51	-54.8	-56.5	19.6	0.00e+00	0	46	0	659554304	60	26199
2026-01-30 01:57:05.93	325.22	27.49	-54.6	-56.3	19.8	0.00e+00	0	46	0	661651456	60	25594
2026-01-30 01:57:06.94	324.90	27.47	-54.1	-55.7	20.2	0.00e+00	0	46	0	663748608	60	24017
2026-01-30 01:57:07.94	324.59	27.45	-54.0	-55.6	20.3	0.00e+00	0	46	0	665845760	60	23559
2026-01-30 01:57:08.95	324.27	27.43	-53.8	-55.4	20.7	0.00e+00	0	46	0	666894336	60	22957
2026-01-30 01:57:09.96	323.96	27.41	-53.8	-55.2	21.0	0.00e+00	0	46	0	668991488	60	22672
2026-01-30 01:57:10.96	323.64	27.39	-53.6	-55.1	21.1	0.00e+00	0	46	0	671088640	60	22177
2026-01-30 01:57:11.97	323.33	27.36	-53.5	-55.1	21.1	0.00e+00	0	46	0	673185792	60	22373
2026-01-30 01:57:12.98	323.02	27.34	-53.4	-55.2	21.1	0.00e+00	0	46	0	674234368	60	22539
2026-01-30 01:57:13.99	322.70	27.31	-53.4	-55.3	20.9	0.00e+00	0	46	0	676331520	60	22882
2026-01-30 01:57:14.98	322.39	27.29	-53.2	-55.3	21.0	0.00e+00	0	46	0	678428672	60	22730
2026-01-30 01:57:15.99	322.08	27.26	-53.3	-55.3	21.0	0.00e+00	0	46	0	680525824	60	22774
2026-01-30 01:57:17.00	321.77	27.23	-53.3	-55.3	21.1	0.00e+00	0	46	0	682622976	60	22819
2026-01-30 01:57:18.01	321.46	27.20	-53.1	-54.9	21.4	0.00e+00	0	46	0	683671552	60	21845
2026-01-30 01:57:19.01	321.15	27.17	-53.1	-54.8	21.4	0.00e+00	0	46	0	685768704	60	21634
2026-01-30 01:57:20.02	320.84	27.14	-53.2	-54.9	21.4	0.00e+00	0	46	0	687865856	60	21810
2026-01-30 01:57:21.03	320.53	27.11	-53.3	-55.1	21.0	0.00e+00	0	46	0	689963008	60	22182
2026-01-30 01:57:22.03	320.22	27.08	-53.6	-55.4	20.8	0.00e+00	0	46	0	692060160	60	23020
2026-01-30 01:57:23.04	319.91	27.04	-53.7	-55.4	20.9	0.00e+00	0	46	0	693108736	60	23041
2026-01-30 01:57:24.04	319.61	27.01	-54.1	-55.8	20.7	0.00e+00	0	46	0	695205888	60	24162
2026-01-30 01:57:25.05	319.30	26.97	-54.3	-55.9	20.6	0.00e+00	0	46	0	697303040	60	24357
2026-01-30 01:57:26.06	318.99	26.94	-54.1	-55.6	20.8	0.00e+00	0	46	0	699400192	60	23563
2026-01-30 01:57:27.06	318.69	26.90	-53.8	-55.3	21.0	0.00e+00	0	46	0	701497344	60	22788
2026-01-30 01:57:28.07	318.39	26.86	-53.7	-55.3	21.0	0.00e+00	0	46	0	702545920	60	22884
2026-01-30 01:57:29.08	318.08	26.82	-53.5	-55.3	20.8	0.00e+00	0	46	0	704643072	60	22825
2026-01-30 01:57:30.09	317.78	26.78	-53.3	-55.1	20.8	0.00e+00	0	46	0	706740224	60	22385
2026-01-30 01:57:31.10	317.47	26.74	-53.4	-55.4	20.6	0.00e+00	0	46	0	708837376	60	23076
2026-01-30 01:57:32.10	317.18	26.70	-53.6	-55.7	20.4	0.00e+00	0	46	0	710934528	60	23758
2026-01-30 01:57:33.11	316.87	26.66	-53.7	-55.7	20.3	0.00e+00	0	46	0	711983104	60	23903
2026-01-30 01:57:34.12	316.57	26.61	-53.8	-55.9	20.3	0.00e+00	0	46	0	714080256	60	24374
2026-01-30 01:57:35.13	316.27	26.57	-53.9	-55.8	20.2	0.00e+00	0	46	0	716177408	60	24268
2026-01-30 01:57:36.13	315.98	26.53	-53.9	-56.0	20.0	0.00e+00	0	46	0	718274560	60	24581
2026-01-30 01:57:37.14	315.68	26.48	-53.8	-55.9	20.0	0.00e+00	0	46	0	720371712	60	24317
2026-01-30 01:57:38.15	315.38	26.43	-53.6	-55.6	20.3	0.00e+00	0	46	0	722468864	60	23723
2026-01-30 01:57:39.16	315.09	26.39	-53.7	-55.5	20.5	0.00e+00	0	46	0	723517440	60	23323
2026-01-30 01:57:40.16	314.79	26.34	-53.8	-55.5	20.5	0.00e+00	0	46	0	725614592	60	23412
2026-01-30 01:57:41.17	314.50	26.29	-53.9	-55.6	20.6	0.00e+00	0	46	0	727711744	60	23599
2026-01-30 01:57:42.17	314.21	26.24	-54.1	-55.7	20.6	0.00e+00	0	46	0	729808896	60	23794
2026-01-30 01:57:43.18	313.91	26.19	-54.4	-55.9	20.3	0.00e+00	0	46	0	730857472	60	24493
2026-01-30 01:57:44.19	313.62	26.14	-54.3	-55.9	20.3	0.00e+00	0	46	0	732954624	60	24469
2026-01-30 01:57:45.20	313.33	26.09	-54.4	-56.1	20.1	0.00e+00	0	46	0	735051776	60	24924
2026-01-30 01:57:46.20	313.05	26.04	-54.4	-56.2	19.9	0.00e+00	0	46	0	737148928	60	25205
2026-01-30 01:57:47.21	312.76	25.99	-54.3	-56.2	19.9	0.00e+00	0	46	0	739246080	60	25305
2026-01-30 01:57:48.22	312.47	25.93	-54.4	-56.3	19.7	0.00e+00	0	46	0	740294656	60	25595
2026-01-30 01:57:49.22	312.18	25.88	-54.5	-56.5	19.6	0.00e+00	0	46	0	742391808	60	26177
2026-01-30 01:57:50.23	311.90	25.82	-54.5	-56.5	19.6	0.00e+00	0	46	0	744488960	60	26099
2026-01-30 01:57:51.24	311.61	25.77	-54.4	-56.4	19.8	0.00e+00	0	46	0	746586112	60	25944
2026-01-30 01:57:52.25	311.33	25.71	-54.4	-56.5	19.8	0.00e+00	0	46	0	748683264	60	26169
2026-01-30 01:57:53.26	311.05	25.65	-54.3	-56.4	19.8	0.00e+00	0	46	0	750780416	60	25817
2026-01-30 01:57:54.26	310.77	25.60	-54.2	-56.4	19.8	0.00e+00	0	46	0	751828992	60	25816
2026-01-30 01:57:55.27	310.49	25.54	-54.2	-56.4	19.7	0.00e+00	0	46	0	753926144	60	25966
2026-01-30 01:57:56.28	310.21	25.48	-54.1	-56.5	19.7	0.00e+00	0	46	0	756023296	60	26068
2026-01-30 01:57:57.29	309.93	25.42	-54.2	-56.5	19.5	0.00e+00	0	46	0	758120448	60	26245
2026-01-30 01:57:58.29	309.65	25.36	-54.3	-56.6	19.4	0.00e+00	0	46	0	759169024	60	26577
2026-01-30 01:57:59.30	309.37	25.30	-54.5	-56.8	19.4	0.00e+00	0	46	0	761266176	60	27014
2026-01-30 01:58:00.30	309.10	25.24	-54.7	-56.9	19.3	0.00e+00	0	46	0	763363328	60	27378
2026-01-30 01:58:01.30	308.83	25.18	-54.7	-56.8	19.3	0.00e+00	0	46	0	765460480	60	27241
2026-01-30 01:58:02.31	308.56	25.12	-54.8	-56.9	19.3	0.00e+00	0	46	0	767557632	60	27275
2026-01-30 01:58:03.32	308.28	25.05	-54.9	-56.9	19.3	0.00e+00	0	46	0	768606208	60	27431
2026-01-30 01:58:04.32	308.01	24.99	-54.8	-56.8	19.2	0.00e+00	0	46	0	770703360	60	27109
2026-01-30 01:58:05.33	307.74	24.93	-54.7	-56.8	19.2	0.00e+00	0	46	0	772800512	60	26951
2026-01-30 01:58:06.33	307.48	24.86	-54.6	-56.6	19.4	0.00e+00	0	46	0	774897664	60	26585
2026-01-30 01:58:07.33	307.21	24.80	-54.5	-56.5	19.5	0.00e+00	0	46	0	776994816	60	26212
2026-01-30 01:58:08.34	306.95	24.73	-54.4	-56.4	19.6	0.00e+00	0	46	0	778043392	60	25794
2026-01-30 01:58:09.34	306.68	24.67	-54.3	-56.4	19.6	0.00e+00	0	46	0	780140544	60	25803
2026-01-30 01:58:10.35	306.42	24.60	-54.3	-56.4	19.6	0.00e+00	0	46	0	782237696	60	25907
2026-01-30 01:58:11.36	306.15	24.53	-54.3	-56.4	19.7	0.00e+00	0	46	0	784334848	60	25912
2026-01-30 01:58:12.37	305.89	24.47	-54.4	-56.4	19.7	0.00e+00	0	46	0	786432000	60	25947
2026-01-30 01:58:13.38	305.63	24.40	-54.3	-56.4	19.7	0.00e+00	0	46	0	787480576	60	25862
2026-01-30 01:58:14.38	305.37	24.33	-54.2	-56.3	19.7	0.00e+00	0	46	0	789577728	60	25641
2026-01-30 01:58:15.39	305.11	24.26	-54.2	-56.3	19.6	0.00e+00	0	46	0	791674880	60	25613
2026-01-30 01:58:16.40	304.86	24.19	-54.0	-56.1	19.7	0.00e+00	0	46	0	793772032	60	25088
2026-01-30 01:58:17.41	304.60	24.12	-54.0	-56.1	19.6	0.00e+00	0	46	0	795869184	60	24917
2026-01-30 01:58:18.42	304.34	24.05	-53.8	-56.0	19.5	0.00e+00	0	46	0	796917760	60	24711
2026-01-30 01:58:19.42	304.09	23.98	-53.7	-55.9	19.4	0.00e+00	0	46	0	799014912	60	24501
2026-01-30 01:58:20.43	303.84	23.91	-53.7	-56.0	19.3	0.00e+00	0	46	0	801112064	60	24596
2026-01-30 01:58:21.44	303.59	23.84	-53.7	-55.9	19.2	0.00e+00	0	46	0	803209216	60	24555
2026-01-30 01:58:22.44	303.34	23.77	-53.6	-55.8	19.3	0.00e+00	0	46	0	805306368	60	24245
2026-01-30 01:58:23.45	303.09	23.70	-53.5	-55.7	19.2	0.00e+00	0	46	0	807403520	60	23877
2026-01-30 01:58:24.46	302.84	23.62	-53.6	-55.8	19.0	0.00e+00	0	46	0	808452096	60	24201
2026-01-30 01:58:25.46	302.59	23.55	-53.4	-55.6	19.2	0.00e+00	0	46	0	810549248	60	23501
2026-01-30 01:58:26.47	302.35	23.48	-53.3	-55.4	19.3	0.00e+00	0	46	0	812646400	60	23202
2026-01-30 01:58:27.47	302.10	23.40	-53.2	-55.3	19.3	0.00e+00	0	46	0	814743552	60	22795
2026-01-30 01:58:28.48	301.86	23.33	-53.2	-55.3	19.5	0.00e+00	0	46	0	815792128	60	22732
2026-01-30 01:58:29.49	301.62	23.26	-53.1	-55.2	19.5	0.00e+00	0	46	0	817889280	60	22522
2026-01-30 01:58:30.49	301.38	23.18	-53.1	-55.1	19.8	0.00e+00	0	46	0	819986432	60	22261
2026-01-30 01:58:31.50	301.14	23.11	-53.1	-55.0	19.9	0.00e+00	0	46	0	822083584	60	22083
2026-01-30 01:58:32.51	300.90	23.03	-53.1	-54.9	20.0	0.00e+00	0	46	0	824180736	60	21880
2026-01-30 01:58:33.51	300.66	22.96	-53.0	-54.8	20.3	0.00e+00	0	46	0	825229312	60	21581
2026-01-30 01:58:34.51	300.43	22.88	-52.9	-54.7	20.5	0.00e+00	0	46	0	827326464	60	21297
2026-01-30 01:58:35.52	300.19	22.80	-52.9	-54.7	20.5	0.00e+00	0	46	0	829423616	60	21369
2026-01-30 01:58:36.53	299.96	22.73	-52.8	-54.6	20.8	0.00e+00	0	46	0	831520768	60	21013
2026-01-30 01:58:37.53	299.73	22.65	-52.8	-54.6	20.9	0.00e+00	0	46	0	833617920	60	20951
2026-01-30 01:58:38.54	299.49	22.57	-52.8	-54.5	21.0	0.00e+00	0	46	0	835715072	60	20814
2026-01-30 01:58:39.55	299.26	22.50	-52.8	-54.6	20.9	0.00e+00	0	46	0	836763648	60	20944
2026-01-30 01:58:40.55	299.03	22.42	-52.7	-54.5	21.0	0.00e+00	0	46	0	838860800	60	20832
2026-01-30 01:58:41.56	298.80	22.34	-52.7	-54.5	20.9	0.00e+00	0	46	0	840957952	60	20803
2026-01-30 01:58:42.57	298.58	22.26	-52.6	-54.4	21.0	0.00e+00	0	46	0	843055104	60	20673
2026-01-30 01:58:43.58	298.35	22.18	-52.7	-54.5	20.9	0.00e+00	0	46	0	844103680	60	20891
2026-01-30 01:58:44.58	298.13	22.10	-52.6	-54.5	21.0	0.00e+00	0	46	0	846200832	60	20751
2026-01-30 01:58:45.59	297.90	22.03	-52.5	-54.4	21.1	0.00e+00	0	46	0	848297984	60	20564
2026-01-30 01:58:46.59	297.68	21.95	-52.5	-54.4	21.0	0.00e+00	0	46	0	850395136	60	20645
2026-01-30 01:58:47.60	297.46	21.87	-52.6	-54.5	20.9	0.00e+00	0	46	0	852492288	60	20835
2026-01-30 01:58:48.61	297.24	21.79	-52.6	-54.5	20.9	0.00e+00	0	46	0	853540864	60	20917
2026-01-30 01:58:49.61	297.02	21.71	-52.6	-54.6	20.8	0.00e+00	0	46	0	855638016	60	21053
2026-01-30 01:58:50.62	296.80	21.63	-52.6	-54.6	20.8	0.00e+00	0	46	0	857735168	60	20987
2026-01-30 01:58:51.63	296.58	21.55	-52.6	-54.5	20.8	0.00e+00	0	46	0	859832320	60	20810
2026-01-30 01:58:52.63	296.37	21.47	-52.5	-54.4	20.9	0.00e+00	0	46	0	861929472	60	20615
2026-01-30 01:58:53.64	296.16	21.39	-52.4	-54.3	21.0	0.00e+00	0	46	0	862978048	60	20241
2026-01-30 01:58:54.64	295.94	21.31	-52.3	-54.1	21.1	0.00e+00	0	46	0	865075200	60	19966
2026-01-30 01:58:55.65	295.73	21.23	-52.4	-54.3	21.0	0.00e+00	0	46	0	867172352	60	20258
2026-01-30 01:58:56.66	295.52	21.15	-52.4	-54.4	20.9	0.00e+00	0	46	0	869269504	60	20532
2026-01-30 01:58:57.66	295.31	21.07	-52.4	-54.3	20.9	0.00e+00	0	46	0	871366656	60	20242
2026-01-30 01:58:58.67	295.10	20.98	-52.4	-54.3	20.9	0.00e+00	0	46	0	872415232	60	20344
2026-01-30 01:58:59.68	294.89	20.90	-52.5	-54.3	20.9	0.00e+00	0	46	0	874512384	60	20424
2026-01-30 01:59:00.69	294.68	20.82	-52.4	-54.3	21.0	0.00e+00	0	46	0	876609536	60	20250
2026-01-30 01:59:01.70	294.48	20.74	-52.5	-54.2	21.1	0.00e+00	0	46	0	878706688	60	20170
2026-01-30 01:59:02.70	294.27	20.66	-52.1	-53.7	21.6	0.00e+00	0	46	0	880803840	60	19035
2026-01-30 01:59:03.71	294.07	20.57	-52.0	-53.6	21.8	0.00e+00	0	46	0	881852416	60	18686
2026-01-30 01:59:04.72	293.87	20.49	-52.0	-53.5	22.0	0.00e+00	0	46	0	883949568	60	18544
2026-01-30 01:59:05.73	293.67	20.41	-52.0	-53.4	22.0	0.00e+00	0	46	0	886046720	60	18373
2026-01-30 01:59:06.73	293.47	20.33	-52.0	-53.4	22.1	0.00e+00	0	46	0	888143872	60	18310
2026-01-30 01:59:07.73	293.27	20.25	-52.0	-53.4	22.0	0.00e+00	0	46	0	890241024	60	18393
2026-01-30 01:59:08.74	293.07	20.16	-52.1	-53.5	22.0	0.00e+00	0	46	0	891289600	60	18496
2026-01-30 01:59:09.75	292.87	20.08	-52.1	-53.5	22.0	0.00e+00	0	46	0	893386752	60	18532
2026-01-30 01:59:10.76	292.68	20.00	-52.1	-53.5	21.9	0.00e+00	0	46	0	895483904	60	18547
2026-01-30 01:59:11.77	292.48	19.92	-52.1	-53.4	22.1	0.00e+00	0	46	0	897581056	60	18297
2026-01-30 01:59:12.77	292.29	19.83	-52.0	-53.3	22.1	0.00e+00	0	46	0	899678208	60	18117
2026-01-30 01:59:13.78	292.10	19.75	-51.8	-53.1	22.3	0.00e+00	0	46	0	900726784	60	17615
2026-01-30 01:59:14.78	291.90	19.67	-51.7	-52.9	22.3	0.00e+00	0	46	0	902823936	60	17388
2026-01-30 01:59:15.79	291.71	19.58	-51.6	-52.9	22.4	0.00e+00	0	46	0	904921088	60	17206
2026-01-30 01:59:16.80	291.52	19.50	-51.6	-52.8	22.4	0.00e+00	0	46	0	907018240	60	17184
2026-01-30 01:59:17.80	291.34	19.42	-51.6	-52.8	22.4	0.00e+00	0	46	0	909115392	60	17152
2026-01-30 01:59:18.81	291.15	19.34	-51.7	-52.9	22.2	0.00e+00	0	46	0	910163968	60	17399
2026-01-30 01:59:19.82	290.96	19.25	-51.8	-53.0	22.1	0.00e+00	0	46	0	912261120	60	17557
2026-01-30 01:59:20.82	290.78	19.17	-51.9	-53.2	22.1	0.00e+00	0	46	0	914358272	60	17896
2026-01-30 01:59:21.83	290.59	19.09	-52.0	-53.3	21.9	0.00e+00	0	46	0	916455424	60	18124
2026-01-30 01:59:22.84	290.41	19.00	-52.0	-53.4	21.8	0.00e+00	0	46	0	918552576	60	18259
2026-01-30 01:59:23.84	290.23	18.92	-52.1	-53.5	21.5	0.00e+00	0	46	0	920649728	60	18511
2026-01-30 01:59:24.85	290.04	18.84	-52.2	-53.5	21.6	0.00e+00	0	46	0	921698304	60	18592
2026-01-30 01:59:25.86	289.86	18.75	-52.1	-53.5	21.6	0.00e+00	0	46	0	923795456	60	18588
2026-01-30 01:59:26.86	289.69	18.67	-52.1	-53.5	21.7	0.00e+00	0	46	0	925892608	60	18471
2026-01-30 01:59:27.87	289.51	18.59	-51.6	-52.9	21.7	0.00e+00	0	46	0	927989760	60	17393
2026-01-30 01:59:28.87	289.33	18.50	-51.5	-52.8	22.2	0.00e+00	0	46	0	929038336	60	17138
2026-01-30 01:59:29.88	289.15	18.42	-51.6	-52.9	22.0	0.00e+00	0	46	0	931135488	60	17392
2026-01-30 01:59:30.89	288.98	18.34	-51.7	-53.0	22.1	0.00e+00	0	46	0	933232640	60	17488
2026-01-30 01:59:31.90	288.80	18.25	-51.7	-53.0	22.0	0.00e+00	0	46	0	935329792	60	17510
2026-01-30 01:59:32.91	288.63	18.17	-51.7	-53.1	22.0	0.00e+00	0	46	0	937426944	60	17691
2026-01-30 01:59:33.91	288.46	18.09	-51.8	-53.1	21.9	0.00e+00	0	46	0	938475520	60	17716
2026-01-30 01:59:34.92	288.28	18.00	-51.8	-53.2	22.0	0.00e+00	0	46	0	940572672	60	17843
2026-01-30 01:59:35.93	288.11	17.92	-51.8	-53.2	22.0	0.00e+00	0	46	0	942669824	60	17922
2026-01-30 01:59:36.94	287.94	17.84	-51.9	-53.3	21.9	0.00e+00	0	46	0	944766976	60	18019
2026-01-30 01:59:37.94	287.78	17.75	-51.8	-53.1	22.0	0.00e+00	0	46	0	946864128	60	17774
2026-01-30 01:59:38.95	287.61	17.67	-52.0	-53.3	21.8	0.00e+00	0	46	0	948961280	60	18208
2026-01-30 01:59:39.96	287.44	17.59	-52.0	-53.4	21.8	0.00e+00	0	46	0	950009856	60	18304
2026-01-30 01:59:40.96	287.28	17.50	-52.0	-53.4	21.8	0.00e+00	0	46	0	952107008	60	18260
2026-01-30 01:59:41.97	287.11	17.42	-52.0	-53.4	21.8	0.00e+00	0	46	0	954204160	60	18279
2026-01-30 01:59:42.98	286.95	17.34	-52.0	-53.3	21.8	0.00e+00	0	46	0	956301312	60	18200
2026-01-30 01:59:43.99	286.78	17.25	-52.0	-53.3	21.9	0.00e+00	0	46	0	957349888	60	18211
2026-01-30 01:59:44.99	286.62	17.17	-52.0	-53.3	21.9	0.00e+00	0	46	0	959447040	60	18073
2026-01-30 01:59:46.00	286.46	17.09	-52.1	-53.5	21.8	0.00e+00	0	46	0	961544192	60	18447
2026-01-30 01:59:47.00	286.30	17.01	-52.1	-53.5	21.7	0.00e+00	0	46	0	963641344	60	18568
2026-01-30 01:59:48.01	286.14	16.92	-52.2	-53.6	21.6	0.00e+00	0	46	0	965738496	60	18817
2026-01-30 01:59:49.02	285.98	16.84	-52.4	-53.8	21.5	0.00e+00	0	46	0	966787072	60	19158
2026-01-30 01:59:50.02	285.82	16.76	-52.5	-54.0	21.3	0.00e+00	0	46	0	968884224	60	19533
2026-01-30 01:59:51.03	285.67	16.67	-52.6	-54.1	21.1	0.00e+00	0	46	0	970981376	60	19768
2026-01-30 01:59:52.04	285.51	16.59	-52.7	-54.2	21.0	0.00e+00	0	46	0	973078528	60	19997
2026-01-30 01:59:53.05	285.35	16.51	-52.8	-54.3	21.0	0.00e+00	0	46	0	975175680	60	20260
2026-01-30 01:59:54.05	285.20	16.43	-52.7	-54.2	21.0	0.00e+00	0	46	0	977272832	60	20104
2026-01-30 01:59:55.05	285.05	16.34	-52.8	-54.3	20.9	0.00e+00	0	46	0	978321408	60	20385
2026-01-30 01:59:56.06	284.89	16.26	-52.8	-54.3	20.9	0.00e+00	0	46	0	980418560	60	20355
2026-01-30 01:59:57.07	284.74	16.18	-52.8	-54.3	20.9	0.00e+00	0	46	0	982515712	60	20332
2026-01-30 01:59:58.08	284.59	16.10	-52.8	-54.3	20.9	0.00e+00	0	46	0	984612864	60	20334
2026-01-30 01:59:59.08	284.44	16.01	-52.8	-54.3	20.8	0.00e+00	0	46	0	985661440	60	20407
2026-01-30 02:00:00.09	284.29	15.93	-52.8	-54.3	20.8	0.00e+00	0	46	0	987758592	60	20323
2026-01-30 02:00:01.10	284.14	15.85	-52.8	-54.3	20.7	0.00e+00	0	46	0	989855744	60	20403
2026-01-30 02:00:02.11	284.00	15.77	-52.8	-54.4	20.7	0.00e+00	0	46	0	991952896	60	20493
2026-01-30 02:00:03.11	283.85	15.69	-52.8	-54.4	20.7	0.00e+00	0	46	0	994050048	60	20461
2026-01-30 02:00:04.12	283.70	15.60	-52.8	-54.4	20.6	0.00e+00	0	46	0	995098624	60	20475
2026-01-30 02:00:05.13	283.56	15.52	-52.7	-54.3	20.7	0.00e+00	0	46	0	997195776	60	20353
2026-01-30 02:00:06.14	283.41	15.44	-52.8	-54.4	20.6	0.00e+00	0	46	0	999292928	60	20515
2026-01-30 02:00:07.15	283.27	15.36	-52.7	-54.3	20.6	0.00e+00	0	46	0	1001390080	60	20310
2026-01-30 02:00:08.15	283.13	15.28	-52.8	-54.4	20.6	0.00e+00	0	46	0	1003487232	60	20451
2026-01-30 02:00:09.16	282.98	15.20	-52.8	-54.4	20.5	0.00e+00	0	46	0	1005584384	60	20465
2026-01-30 02:00:10.17	282.84	15.11	-52.8	-54.4	20.6	0.00e+00	0	46	0	1006632960	60	20508
2026-01-30 02:00:11.18	282.70	15.03	-52.8	-54.4	20.5	0.00e+00	0	46	0	1008730112	60	20551
2026-01-30 02:00:12.19	282.56	14.95	-52.9	-54.5	20.5	0.00e+00	0	46	0	1010827264	60	20761
2026-01-30 02:00:13.19	282.42	14.87	-52.9	-54.5	20.5	0.00e+00	0	46	0	1012924416	60	20834
2026-01-30 02:00:14.20	282.29	14.79	-52.9	-54.6	20.4	0.00e+00	0	46	0	1013972992	60	20921
2026-01-30 02:00:15.20	282.15	14.71	-53.1	-54.7	20.3	0.00e+00	0	46	0	1016070144	60	21255
2026-01-30 02:00:16.21	282.01	14.63	-53.1	-54.8	20.1	0.00e+00	0	46	0	1018167296	60	21538
2026-01-30 02:00:17.21	281.88	14.55	-53.2	-54.9	20.1	0.00e+00	0	46	0	1020264448	60	21815
2026-01-30 02:00:18.22	281.74	14.47	-53.3	-55.0	20.0	0.00e+00	0	46	0	1022361600	60	21996
2026-01-30 02:00:19.23	281.61	14.39	-53.2	-55.0	20.0	0.00e+00	0	46	0	1023410176	60	22048
2026-01-30 02:00:20.24	281.47	14.31	-53.3	-55.0	19.9	0.00e+00	0	46	0	1025507328	60	22152
2026-01-30 02:00:21.25	281.34	14.23	-53.3	-55.0	19.9	0.00e+00	0	46	0	1027604480	60	22126
2026-01-30 02:00:22.26	281.21	14.15	-53.2	-55.0	20.0	0.00e+00	0	46	0	1029701632	60	22026
2026-01-30 02:00:23.26	281.08	14.07	-53.2	-54.9	20.1	0.00e+00	0	46	0	1031798784	60	21883
2026-01-30 02:00:24.27	280.95	13.99	-53.2	-54.9	20.0	0.00e+00	0	46	0	1033895936	60	21776
2026-01-30 02:00:25.28	280.82	13.91	-53.2	-55.0	20.0	0.00e+00	0	46	0	1034944512	60	21959
2026-01-30 02:00:26.29	280.69	13.83	-53.3	-55.0	19.9	0.00e+00	0	46	0	1037041664	60	22120
2026-01-30 02:00:27.30	280.56	13.75	-53.3	-55.1	19.9	0.00e+00	0	46	0	1039138816	60	22281
2026-01-30 02:00:28.30	280.43	13.67	-53.4	-55.2	19.6	0.00e+00	0	46	0	1041235968	60	22494
2026-01-30 02:00:29.31	280.30	13.59	-53.5	-55.3	19.5	0.00e+00	0	46	0	1042284544	60	22873
2026-01-30 02:00:30.31	280.18	13.51	-53.4	-55.2	19.6	0.00e+00	0	46	0	1044381696	60	22657
2026-01-30 02:00:31.32	280.05	13.43	-53.5	-55.3	19.5	0.00e+00	0	46	0	1046478848	60	22894
2026-01-30 02:00:32.33	279.93	13.35	-53.5	-55.3	19.5	0.00e+00	0	46	0	1048576000	60	22901
2026-01-30 02:00:33.34	279.80	13.27	-53.4	-55.3	19.6	0.00e+00	0	46	0	1050673152	60	22699
2026-01-30 02:00:34.35	279.68	13.19	-53.3	-55.2	19.6	0.00e+00	0	46	0	1052770304	60	22494
2026-01-30 02:00:35.35	279.55	13.12	-53.3	-55.1	19.7	0.00e+00	0	46	0	1053818880	60	22371
2026-01-30 02:00:36.36	279.43	13.04	-53.2	-55.1	19.6	0.00e+00	0	46	0	1055916032	60	22267
2026-01-30 02:00:37.36	279.31	12.96	-53.3	-55.1	19.6	0.00e+00	0	46	0	1058013184	60	22239
2026-01-30 02:00:38.37	279.19	12.88	-53.3	-55.1	19.6	0.00e+00	0	46	0	1060110336	60	22230
2026-01-30 02:00:39.38	279.07	12.80	-53.4	-55.2	19.6	0.00e+00	0	46	0	1062207488	60	22549
2026-01-30 02:00:40.39	278.95	12.72	-53.4	-55.3	19.4	0.00e+00	0	46	0	1063256064	60	22772
2026-01-30 02:00:41.40	278.83	12.65	-53.5	-55.4	19.4	0.00e+00	0	46	0	1065353216	60	23033
2026-01-30 02:00:42.40	278.71	12.57	-53.6	-55.5	19.2	0.00e+00	0	46	0	1067450368	60	23446
2026-01-30 02:00:43.41	278.59	12.49	-53.8	-55.8	19.0	0.00e+00	0	46	0	1069547520	60	24110
2026-01-30 02:00:44.42	278.48	12.41	-53.9	-56.0	18.8	0.00e+00	0	46	0	1070596096	60	24741
2026-01-30 02:00:45.43	278.36	12.34	-54.1	-56.3	18.5	0.00e+00	0	46	0	1072693248	60	25509
2026-01-30 02:00:46.44	278.24	12.26	-54.0	-56.2	18.5	0.00e+00	0	46	0	1074790400	60	25374
2026-01-30 02:00:47.44	278.13	12.18	-54.0	-56.3	18.3	0.00e+00	0	46	0	1076887552	60	25517
2026-01-30 02:00:48.44	278.01	12.11	-54.2	-56.5	18.3	0.00e+00	0	46	0	1078984704	60	26070
2026-01-30 02:00:49.44	277.90	12.03	-54.3	-56.6	18.0	0.00e+00	0	46	0	1081081856	60	26577
2026-01-30 02:00:50.45	277.79	11.95	-54.4	-56.8	17.7	0.00e+00	0	46	0	1082130432	60	27115
2026-01-30 02:00:51.45	277.67	11.88	-54.5	-56.9	17.6	0.00e+00	0	46	0	1084227584	60	27477
2026-01-30 02:00:52.46	277.56	11.80	-54.6	-57.0	17.8	0.00e+00	0	46	0	1086324736	60	27675
2026-01-30 02:00:53.47	277.45	11.72	-54.6	-57.0	17.7	0.00e+00	0	46	0	1088421888	60	27805
2026-01-30 02:00:54.47	277.34	11.65	-54.6	-57.1	17.5	0.00e+00	0	46	0	1090519040	60	28161
2026-01-30 02:00:55.48	277.23	11.57	-54.8	-57.4	17.3	0.00e+00	0	46	0	1091567616	60	28968
2026-01-30 02:00:56.49	277.12	11.49	-55.0	-57.8	17.0	0.00e+00	0	46	0	1093664768	60	30274
2026-01-30 02:00:57.50	277.01	11.42	-55.1	-57.9	16.7	0.00e+00	0	46	0	1095761920	60	30864
2026-01-30 02:00:58.50	276.90	11.34	-55.1	-57.9	16.7	0.00e+00	0	46	0	1097859072	60	30732
2026-01-30 02:00:59.51	276.79	11.27	-55.2	-58.2	16.4	0.00e+00	0	46	0	1098907648	60	31945
2026-01-30 02:01:00.52	276.68	11.19	-55.1	-58.1	16.6	0.00e+00	0	46	0	1101004800	60	31326
2026-01-30 02:01:01.53	276.58	11.12	-55.3	-58.3	16.4	0.00e+00	0	46	0	1103101952	60	32258
2026-01-30 02:01:02.54	276.47	11.04	-55.5	-58.7	15.9	0.00e+00	0	46	0	1105199104	60	33547
2026-01-30 02:01:03.55	276.36	10.97	-55.6	-58.9	15.6	0.00e+00	0	46	0	1107296256	60	34411
2026-01-30 02:01:04.55	276.26	10.89	-55.5	-58.7	15.7	0.00e+00	0	46	0	1109393408	60	33836
2026-01-30 02:01:05.56	276.15	10.82	-55.5	-58.8	15.7	0.00e+00	0	46	0	1110441984	60	33970
2026-01-30 02:01:06.57	276.05	10.74	-55.4	-58.5	16.1	0.00e+00	0	46	0	1112539136	60	32803
2026-01-30 02:01:07.58	275.95	10.67	-54.8	-57.5	17.0	0.00e+00	0	46	0	1114636288	60	29507
2026-01-30 02:01:08.58	275.84	10.59	-54.4	-57.0	17.4	0.00e+00	0	46	0	1116733440	60	27646
2026-01-30 02:01:09.59	275.74	10.52	-54.2	-56.5	17.9	0.00e+00	0	46	0	1118830592	60	26328
2026-01-30 02:01:10.59	275.64	10.45	-54.2	-56.6	17.8	0.00e+00	0	46	0	1119879168	60	26446
