passes_logs/2026/01/30/R3.2S-Naryan-Mar/R3.2S-Naryan-Mar__20260130_040801_FENGYUN_3E_rec.log

#Pass ID: 20260130_040801_FENGYUN 3E
#Satellite: FENGYUN 3E
#Configuration: FENGYUN 3E
#almurnet v.1.7.20240730
#Start time: 2026-01-30 04:08:03

#Version: 2.2.20231116
#Station: R3.2S-Naryan-Mar
#Location: 53.008057 lon 67.646978 lat
#TLE: 1 49008U 21062A   26029.52207456 -.00000035  00000+0  41692-5 0  9997
#TLE: 2 49008  98.7499  34.4814 0002557 110.8023 249.3427 14.19887743236900

#Time	Az	El	Level	Level2	SNR	BER	BlckErr	Temp	State	Recorded	gain1	gain2
2026-01-30 04:08:03.53	25.56	0.14	-60.1	-73.1	3.3	8.40e-01	0	44	0	0	60	177122
2026-01-30 04:08:04.53	25.55	0.20	-60.8	-73.9	3.6	8.44e-01	0	44	104	0	60	194556
2026-01-30 04:08:05.54	25.54	0.26	-62.0	-75.2	3.6	8.47e-01	0	45	104	0	60	224605
2026-01-30 04:08:06.54	25.52	0.32	-61.1	-75.5	3.6	8.45e-01	0	44	104	0	60	232821
2026-01-30 04:08:07.54	25.51	0.38	-61.8	-75.2	3.6	8.44e-01	0	45	104	0	60	226208
2026-01-30 04:08:08.55	25.50	0.44	-61.4	-75.0	3.6	8.45e-01	0	45	104	0	60	221040
2026-01-30 04:08:09.56	25.49	0.50	-61.7	-75.2	3.6	8.45e-01	0	45	104	0	60	226009
2026-01-30 04:08:10.56	25.48	0.56	-60.9	-74.8	3.6	8.44e-01	0	45	104	0	60	214580
2026-01-30 04:08:11.57	25.47	0.62	-61.3	-74.1	3.6	8.45e-01	0	45	104	0	60	198710
2026-01-30 04:08:12.58	25.46	0.68	-61.4	-74.9	3.6	8.45e-01	0	45	104	0	60	217336
2026-01-30 04:08:13.58	25.45	0.74	-61.7	-75.1	3.6	8.45e-01	0	45	104	0	60	223999
2026-01-30 04:08:14.59	25.43	0.81	-61.9	-74.9	3.6	8.46e-01	0	45	104	0	60	217233
2026-01-30 04:08:15.59	25.42	0.87	-60.6	-74.6	3.6	8.46e-01	0	45	104	0	60	210321
2026-01-30 04:08:16.60	25.41	0.93	-61.9	-75.4	3.6	8.45e-01	0	45	104	0	60	229610
2026-01-30 04:08:17.61	25.40	0.99	-61.0	-75.1	3.6	8.45e-01	0	45	104	0	60	223066
2026-01-30 04:08:18.61	25.39	1.05	-59.2	-74.7	3.6	8.45e-01	0	45	104	0	60	212551
2026-01-30 04:08:19.62	25.37	1.11	-60.7	-74.1	3.6	8.46e-01	0	45	104	0	60	197569
2026-01-30 04:08:20.62	25.36	1.18	-60.3	-74.3	3.6	8.45e-01	0	45	104	0	60	203045
2026-01-30 04:08:21.63	25.35	1.24	-60.6	-74.5	3.6	8.45e-01	0	45	104	0	60	209144
2026-01-30 04:08:22.64	25.34	1.30	-60.6	-74.0	3.6	8.45e-01	0	45	104	0	60	196693
2026-01-30 04:08:23.64	25.33	1.36	-57.5	-74.3	3.6	8.45e-01	0	45	104	0	60	203280
2026-01-30 04:08:24.65	25.31	1.43	-57.7	-72.4	3.6	8.45e-01	0	45	104	0	60	163359
2026-01-30 04:08:25.66	25.30	1.49	-56.5	-72.8	3.5	8.45e-01	0	45	104	0	60	170955
2026-01-30 04:08:26.66	25.29	1.55	-53.3	-73.5	3.6	8.46e-01	0	45	104	0	60	184654
2026-01-30 04:08:27.67	25.28	1.61	-57.3	-73.1	3.5	8.46e-01	0	45	104	0	60	176121
2026-01-30 04:08:28.68	25.26	1.68	-58.0	-70.6	3.6	8.45e-01	0	45	104	0	60	133225
2026-01-30 04:08:29.69	25.25	1.74	-60.0	-72.6	3.6	8.45e-01	0	45	104	0	60	167192
2026-01-30 04:08:30.70	25.24	1.80	-57.6	-72.1	3.6	8.45e-01	0	45	104	0	60	158221
2026-01-30 04:08:31.70	25.23	1.87	-57.9	-70.4	3.6	8.46e-01	0	45	104	0	60	129690
2026-01-30 04:08:32.70	25.21	1.93	-58.6	-71.3	3.6	8.45e-01	0	45	104	0	60	144218
2026-01-30 04:08:33.71	25.20	2.00	-55.0	-66.4	3.6	8.45e-01	0	45	104	0	60	81534
2026-01-30 04:08:34.72	25.19	2.06	-56.3	-69.8	3.6	8.45e-01	0	45	104	0	60	120610
2026-01-30 04:08:35.72	25.17	2.12	-54.0	-65.4	3.6	8.45e-01	0	45	104	0	60	73162
2026-01-30 04:08:36.73	25.16	2.19	-52.9	-64.8	3.6	8.46e-01	0	45	104	0	60	67856
2026-01-30 04:08:37.73	25.15	2.25	-52.9	-64.6	3.5	8.45e-01	0	45	104	0	60	66746
2026-01-30 04:08:38.73	25.13	2.32	-52.8	-64.7	3.6	8.44e-01	0	45	104	0	60	67187
2026-01-30 04:08:39.73	25.12	2.38	-52.8	-64.6	3.6	8.44e-01	0	45	104	0	60	66530
2026-01-30 04:08:40.74	25.11	2.45	-52.8	-64.5	3.6	8.46e-01	0	45	104	0	60	65785
2026-01-30 04:08:41.75	25.09	2.51	-52.7	-64.7	3.6	8.44e-01	0	45	104	0	60	66945
2026-01-30 04:08:42.75	25.08	2.58	-52.6	-64.7	3.6	8.44e-01	0	45	104	0	60	67673
2026-01-30 04:08:43.76	25.07	2.64	-52.8	-64.7	3.6	8.45e-01	0	45	104	0	60	67257
2026-01-30 04:08:44.76	25.05	2.71	-52.8	-64.6	3.6	8.46e-01	0	45	104	0	60	66793
2026-01-30 04:08:45.77	25.04	2.77	-52.7	-64.6	3.6	8.45e-01	0	45	104	0	60	66281
2026-01-30 04:08:46.78	25.02	2.84	-52.8	-64.7	3.6	8.43e-01	0	45	104	0	60	67231
2026-01-30 04:08:47.79	25.01	2.90	-52.8	-64.7	3.6	8.44e-01	0	45	104	0	60	67066
2026-01-30 04:08:48.79	25.00	2.97	-52.7	-64.5	3.6	8.45e-01	0	45	104	0	60	65715
2026-01-30 04:08:49.80	24.98	3.04	-52.7	-64.5	3.6	8.44e-01	0	45	104	0	60	65550
2026-01-30 04:08:50.81	24.97	3.10	-52.7	-64.7	3.6	8.45e-01	0	45	104	0	60	67483
2026-01-30 04:08:51.82	24.95	3.17	-52.6	-64.6	3.6	8.44e-01	0	45	104	0	60	66623
2026-01-30 04:08:52.82	24.94	3.24	-52.6	-64.5	3.6	8.46e-01	0	45	104	0	60	65484
2026-01-30 04:08:53.83	24.92	3.30	-52.6	-64.4	3.5	8.44e-01	0	45	104	0	60	65151
2026-01-30 04:08:54.84	24.91	3.37	-52.6	-64.4	3.6	8.45e-01	0	45	104	0	60	65030
2026-01-30 04:08:55.84	24.90	3.44	-52.6	-64.4	3.6	8.45e-01	0	45	104	0	60	65232
2026-01-30 04:08:56.85	24.88	3.50	-52.5	-64.3	3.6	8.46e-01	0	45	104	0	60	64370
2026-01-30 04:08:57.85	24.87	3.57	-52.5	-64.4	3.6	8.45e-01	0	45	104	0	60	64799
2026-01-30 04:08:58.86	24.85	3.64	-52.4	-64.4	3.6	8.46e-01	0	45	104	0	60	64974
2026-01-30 04:08:59.86	24.84	3.71	-52.4	-64.4	3.6	8.45e-01	0	45	104	0	60	64931
2026-01-30 04:09:00.87	24.82	3.77	-52.4	-64.1	3.6	8.46e-01	0	45	104	0	60	63120
2026-01-30 04:09:01.88	24.80	3.84	-52.4	-64.1	3.6	8.46e-01	0	45	104	0	60	62675
2026-01-30 04:09:02.89	24.79	3.91	-52.4	-64.1	3.6	8.44e-01	0	45	104	0	60	63174
2026-01-30 04:09:03.89	24.77	3.98	-52.4	-64.1	3.6	8.46e-01	0	45	104	0	60	62973
2026-01-30 04:09:04.90	24.76	4.05	-52.3	-64.0	3.6	8.45e-01	0	45	104	0	60	61980
2026-01-30 04:09:05.91	24.74	4.12	-52.3	-64.0	3.6	8.45e-01	0	45	104	0	60	62121
2026-01-30 04:09:06.91	24.73	4.19	-52.3	-64.0	3.6	8.45e-01	0	45	104	0	60	62003
2026-01-30 04:09:07.91	24.71	4.26	-52.3	-64.1	3.6	8.46e-01	0	46	104	0	60	62501
2026-01-30 04:09:08.92	24.70	4.32	-52.3	-64.2	3.6	8.46e-01	0	45	104	0	60	63738
2026-01-30 04:09:09.92	24.68	4.39	-52.2	-64.0	3.6	8.45e-01	0	45	104	0	60	62396
2026-01-30 04:09:10.93	24.66	4.46	-52.1	-63.8	3.6	8.45e-01	0	45	104	0	60	60858
2026-01-30 04:09:11.93	24.65	4.53	-52.2	-63.9	3.6	8.45e-01	0	46	104	0	60	61391
2026-01-30 04:09:12.94	24.63	4.60	-52.1	-63.8	3.6	8.44e-01	0	46	104	0	60	60769
2026-01-30 04:09:13.94	24.61	4.67	-52.1	-63.7	3.6	8.45e-01	0	45	104	0	60	59834
2026-01-30 04:09:14.95	24.60	4.74	-52.1	-63.7	3.6	8.46e-01	0	46	104	0	60	59778
2026-01-30 04:09:15.96	24.58	4.81	-52.1	-63.5	3.6	8.45e-01	0	46	104	0	60	58718
2026-01-30 04:09:16.96	24.56	4.89	-52.0	-63.1	3.6	8.45e-01	0	46	104	0	60	56307
2026-01-30 04:09:17.97	24.55	4.96	-51.9	-62.3	3.6	8.45e-01	0	45	104	0	60	51228
2026-01-30 04:09:18.97	24.53	5.03	-51.8	-61.2	3.8	8.43e-01	0	45	104	0	60	45231
2026-01-30 04:09:19.98	24.51	5.10	-51.6	-58.9	4.3	8.29e-01	0	45	0	0	60	34714
2026-01-30 04:09:20.98	24.50	5.17	-51.3	-57.7	5.1	6.92e-01	0	45	0	0	60	30022
2026-01-30 04:09:21.99	24.48	5.24	-51.0	-56.6	6.1	3.47e-01	0	45	0	4194304	60	26452
2026-01-30 04:09:23.00	24.46	5.31	-50.6	-55.5	7.1	1.45e-01	0	46	0	10485760	60	23267
2026-01-30 04:09:24.01	24.44	5.39	-50.2	-54.5	8.0	7.61e-02	0	46	0	17825792	60	20828
2026-01-30 04:09:25.02	24.43	5.46	-49.9	-53.7	8.8	3.33e-02	0	46	0	25165824	60	19014
2026-01-30 04:09:26.02	24.41	5.53	-49.5	-52.9	9.8	1.05e-02	0	46	0	32505856	60	17212
2026-01-30 04:09:27.02	24.39	5.60	-49.2	-52.4	10.3	4.79e-03	0	46	0	39845888	60	16322
2026-01-30 04:09:28.03	24.37	5.68	-48.9	-51.9	10.6	2.07e-03	0	46	0	47185920	60	15361
2026-01-30 04:09:29.03	24.36	5.75	-48.7	-51.6	11.0	1.41e-03	0	46	0	54525952	60	14914
2026-01-30 04:09:30.04	24.34	5.82	-48.6	-51.4	11.2	7.79e-04	0	46	0	61865984	60	14495
2026-01-30 04:09:31.05	24.32	5.90	-48.6	-51.4	11.3	8.01e-04	0	46	0	69206016	60	14499
2026-01-30 04:09:32.05	24.30	5.97	-48.8	-51.6	11.1	7.66e-04	0	46	0	76546048	60	14863
2026-01-30 04:09:33.06	24.28	6.04	-48.9	-51.9	10.6	1.42e-03	0	46	0	83886080	60	15470
2026-01-30 04:09:34.07	24.26	6.12	-49.0	-51.5	12.0	2.00e-04	0	45	0	91226112	60	14797
2026-01-30 04:09:35.07	24.25	6.19	-49.7	-52.9	9.3	5.23e-03	0	46	0	98566144	60	17330
2026-01-30 04:09:36.08	24.23	6.27	-50.6	-54.2	9.5	2.00e-03	0	46	0	105906176	60	20157
2026-01-30 04:09:37.08	24.21	6.34	-50.2	-52.6	11.9	1.20e-04	0	46	0	113246208	60	16672
2026-01-30 04:09:38.09	24.19	6.42	-52.0	-58.9	4.2	2.33e-01	0	46	0	118489088	60	34577
2026-01-30 04:09:39.09	24.17	6.49	-49.9	-52.7	11.4	1.37e-02	0	46	0	123731968	60	16959
2026-01-30 04:09:40.10	24.15	6.57	-49.9	-52.5	11.8	2.18e-04	0	46	0	131072000	60	16553
2026-01-30 04:09:41.10	24.13	6.64	-49.9	-52.3	11.9	8.81e-05	0	46	0	138412032	60	16089
2026-01-30 04:09:42.11	24.11	6.72	-49.6	-51.8	12.4	3.43e-05	0	46	0	145752064	60	15313
2026-01-30 04:09:43.12	24.09	6.79	-49.6	-52.0	12.4	4.69e-05	0	46	0	153092096	60	15529
2026-01-30 04:09:44.12	24.07	6.87	-49.4	-51.8	12.7	2.05e-05	0	46	0	160432128	60	15205
2026-01-30 04:09:45.12	24.05	6.95	-49.2	-51.8	12.7	2.74e-05	0	46	0	166723584	60	15254
2026-01-30 04:09:46.13	24.03	7.02	-49.6	-52.3	12.4	2.97e-05	0	46	0	174063616	60	16112
2026-01-30 04:09:47.13	24.01	7.10	-49.6	-52.3	12.5	1.02e-05	0	46	0	181403648	60	16117
2026-01-30 04:09:48.14	23.99	7.18	-49.7	-52.3	12.9	6.80e-06	0	46	0	188743680	60	16071
2026-01-30 04:09:49.15	23.97	7.25	-49.6	-52.1	12.9	4.50e-06	0	46	0	197132288	60	15860
2026-01-30 04:09:50.16	23.95	7.33	-49.8	-52.4	13.1	6.80e-06	0	46	0	204472320	60	16353
2026-01-30 04:09:51.17	23.93	7.41	-49.6	-51.9	14.1	0.00e+00	0	46	0	210763776	60	15471
2026-01-30 04:09:52.18	23.91	7.49	-49.5	-51.5	15.1	0.00e+00	0	46	0	218103808	60	14687
2026-01-30 04:09:53.18	23.89	7.57	-49.5	-51.4	15.6	0.00e+00	0	46	0	225443840	60	14486
2026-01-30 04:09:54.18	23.87	7.65	-49.8	-51.5	15.8	0.00e+00	0	46	0	232783872	60	14707
2026-01-30 04:09:55.19	23.85	7.72	-49.9	-51.5	16.0	0.00e+00	0	46	0	240123904	60	14719
2026-01-30 04:09:56.20	23.82	7.80	-50.2	-51.6	16.1	0.00e+00	0	46	0	247463936	60	14962
2026-01-30 04:09:57.21	23.80	7.88	-50.1	-51.5	16.5	0.00e+00	0	46	0	254803968	60	14755
2026-01-30 04:09:58.22	23.78	7.96	-50.0	-51.5	16.7	0.00e+00	0	46	0	262144000	60	14699
2026-01-30 04:09:59.22	23.76	8.04	-50.0	-51.6	16.6	0.00e+00	0	46	0	269484032	60	14907
2026-01-30 04:10:00.23	23.74	8.12	-49.9	-51.7	16.4	0.00e+00	0	46	0	275775488	60	15132
2026-01-30 04:10:01.24	23.72	8.20	-49.8	-51.6	16.4	0.00e+00	0	46	0	283115520	60	14821
2026-01-30 04:10:02.24	23.69	8.28	-49.7	-51.6	16.2	0.00e+00	0	46	0	290455552	60	14942
2026-01-30 04:10:03.25	23.67	8.36	-49.6	-51.7	15.4	0.00e+00	0	46	0	298844160	60	15020
2026-01-30 04:10:04.26	23.65	8.45	-49.5	-51.8	14.8	0.00e+00	0	46	0	306184192	60	15201
2026-01-30 04:10:05.27	23.63	8.53	-49.6	-52.0	13.9	0.00e+00	0	46	0	313524224	60	15628
2026-01-30 04:10:06.27	23.60	8.61	-49.7	-52.2	13.3	3.40e-06	0	46	0	319815680	60	16034
2026-01-30 04:10:07.28	23.58	8.69	-49.7	-52.2	13.1	1.14e-05	0	46	0	327155712	60	15926
2026-01-30 04:10:08.29	23.56	8.77	-49.9	-52.7	12.5	3.77e-05	0	46	0	334495744	60	16839
2026-01-30 04:10:09.29	23.53	8.85	-49.8	-52.4	12.4	5.37e-05	0	46	0	341835776	60	16289
2026-01-30 04:10:10.30	23.51	8.94	-50.2	-53.0	12.0	1.10e-04	0	46	0	349175808	60	17464
2026-01-30 04:10:11.30	23.49	9.02	-50.4	-53.2	11.6	2.10e-04	0	46	0	356515840	60	17818
2026-01-30 04:10:12.31	23.46	9.10	-50.7	-53.6	11.3	5.87e-04	0	46	0	363855872	60	18839
2026-01-30 04:10:13.32	23.44	9.19	-50.8	-53.7	11.4	3.09e-04	0	46	0	371195904	60	18992
2026-01-30 04:10:14.32	23.41	9.27	-50.7	-53.5	11.8	4.12e-04	0	46	0	377487360	60	18486
2026-01-30 04:10:15.33	23.39	9.35	-51.0	-53.8	11.7	1.65e-04	0	46	0	384827392	60	19172
2026-01-30 04:10:16.33	23.37	9.44	-51.0	-53.7	12.1	1.62e-04	0	46	0	392167424	60	19070
2026-01-30 04:10:17.33	23.34	9.52	-51.1	-54.0	12.5	8.46e-05	0	46	0	399507456	60	19612
2026-01-30 04:10:18.34	23.32	9.61	-51.4	-54.6	12.7	2.74e-05	0	46	0	406847488	60	20970
2026-01-30 04:10:19.34	23.29	9.69	-51.4	-54.7	12.9	2.28e-05	0	46	0	414187520	60	21260
2026-01-30 04:10:20.35	23.27	9.78	-51.5	-54.8	13.5	4.50e-06	0	46	0	421527552	60	21502
2026-01-30 04:10:21.36	23.24	9.86	-51.6	-54.9	13.8	1.10e-06	0	46	0	428867584	60	21857
2026-01-30 04:10:22.37	23.22	9.95	-51.7	-55.3	13.9	2.20e-06	0	46	0	436207616	60	22846
2026-01-30 04:10:23.37	23.19	10.04	-51.9	-55.5	14.2	0.00e+00	0	46	0	443547648	60	23224
2026-01-30 04:10:24.38	23.16	10.12	-52.2	-55.9	13.9	5.70e-06	0	46	0	450887680	60	24431
2026-01-30 04:10:25.38	23.14	10.21	-52.6	-56.6	12.8	4.50e-06	0	46	0	458227712	60	26545
2026-01-30 04:10:26.39	23.11	10.30	-52.7	-56.6	12.7	2.28e-05	0	46	0	465567744	60	26607
2026-01-30 04:10:27.40	23.09	10.38	-52.8	-56.9	12.0	2.12e-04	0	46	0	472907776	60	27486
2026-01-30 04:10:28.40	23.06	10.47	-52.9	-57.5	10.9	6.35e-04	0	46	0	480247808	60	29357
2026-01-30 04:10:29.41	23.03	10.56	-53.0	-57.8	9.5	3.87e-03	0	46	0	486539264	60	30552
2026-01-30 04:10:30.41	23.01	10.65	-53.0	-58.1	8.6	2.59e-02	0	46	0	493879296	60	31349
2026-01-30 04:10:31.42	22.98	10.74	-52.9	-58.3	8.3	3.56e-02	0	46	0	501219328	60	32050
2026-01-30 04:10:32.42	22.95	10.83	-52.6	-58.2	8.0	6.14e-02	0	46	0	508559360	60	31664
2026-01-30 04:10:33.42	22.93	10.91	-52.3	-58.4	7.6	8.90e-02	0	46	0	515899392	60	32490
2026-01-30 04:10:34.43	22.90	11.00	-51.9	-58.6	6.7	1.60e-01	0	46	0	523239424	60	33244
2026-01-30 04:10:35.43	22.87	11.09	-51.8	-59.2	5.9	3.75e-01	0	46	0	530579456	60	35594
2026-01-30 04:10:36.43	22.84	11.18	-51.6	-59.9	4.9	6.57e-01	0	46	0	534773760	60	38660
2026-01-30 04:10:37.44	22.81	11.27	-51.1	-60.2	4.8	7.46e-01	0	46	0	536870912	60	40293
2026-01-30 04:10:38.45	22.79	11.37	-51.2	-57.9	7.3	7.68e-01	0	46	0	537919488	60	30830
2026-01-30 04:10:39.45	22.76	11.46	-48.4	-50.1	16.7	0.00e+00	0	46	0	545259520	60	12565
2026-01-30 04:10:40.46	22.73	11.55	-51.1	-54.2	14.7	9.10e-06	0	46	0	552599552	60	20031
2026-01-30 04:10:41.46	22.70	11.64	-49.1	-51.6	16.0	0.00e+00	0	46	0	559939584	60	14894
2026-01-30 04:10:42.47	22.67	11.73	-50.6	-53.4	13.7	4.50e-06	0	46	0	567279616	60	18417
2026-01-30 04:10:43.47	22.64	11.82	-49.4	-51.7	14.6	0.00e+00	0	46	0	574619648	60	15087
2026-01-30 04:10:44.48	22.61	11.92	-49.2	-51.2	14.9	0.00e+00	0	46	0	581959680	60	14231
2026-01-30 04:10:45.49	22.58	12.01	-48.8	-50.6	15.3	0.00e+00	0	46	0	588251136	60	13254
2026-01-30 04:10:46.49	22.55	12.10	-48.9	-50.8	15.1	0.00e+00	0	46	0	595591168	60	13560
2026-01-30 04:10:47.49	22.52	12.20	-48.8	-50.7	14.8	0.00e+00	0	46	0	602931200	60	13487
2026-01-30 04:10:48.50	22.49	12.29	-49.1	-51.1	14.5	0.00e+00	0	46	0	610271232	60	14068
2026-01-30 04:10:49.49	22.46	12.38	-48.8	-50.9	14.5	0.00e+00	0	46	0	617611264	60	13751
2026-01-30 04:10:50.50	22.43	12.48	-48.9	-51.3	14.2	2.20e-06	0	46	0	624951296	60	14336
2026-01-30 04:10:51.50	22.40	12.58	-48.7	-51.3	14.0	0.00e+00	0	46	0	632291328	60	14348
2026-01-30 04:10:52.51	22.37	12.67	-48.5	-51.3	14.4	0.00e+00	0	46	0	639631360	60	14330
2026-01-30 04:10:53.50	22.33	12.77	-48.1	-51.0	14.5	0.00e+00	0	46	0	645922816	60	13975
2026-01-30 04:10:54.51	22.30	12.86	-48.0	-51.1	14.7	0.00e+00	0	46	0	653262848	60	14083
2026-01-30 04:10:55.51	22.27	12.96	-47.5	-50.5	16.0	0.00e+00	0	46	0	660602880	60	13175
2026-01-30 04:10:56.52	22.24	13.06	-47.5	-50.1	17.0	0.00e+00	0	46	0	667942912	60	12559
2026-01-30 04:10:57.53	22.21	13.15	-47.7	-50.1	17.4	0.00e+00	0	46	0	675282944	60	12545
2026-01-30 04:10:58.53	22.17	13.25	-48.1	-50.3	17.5	0.00e+00	0	46	0	682622976	60	12847
2026-01-30 04:10:59.53	22.14	13.35	-48.3	-50.2	17.9	0.00e+00	0	46	0	689963008	60	12730
2026-01-30 04:11:00.54	22.11	13.45	-48.8	-50.4	18.3	0.00e+00	0	46	0	697303040	60	12987
2026-01-30 04:11:01.55	22.07	13.55	-49.2	-50.4	18.9	0.00e+00	0	46	0	704643072	60	13022
2026-01-30 04:11:02.55	22.04	13.65	-49.6	-50.7	19.0	0.00e+00	0	46	0	711983104	60	13485
2026-01-30 04:11:03.56	22.00	13.75	-49.9	-51.0	18.9	0.00e+00	0	46	0	719323136	60	13968
2026-01-30 04:11:04.57	21.97	13.85	-49.8	-51.0	19.4	0.00e+00	0	46	0	726663168	60	13906
2026-01-30 04:11:05.57	21.94	13.95	-50.3	-51.7	19.1	0.00e+00	0	46	0	734003200	60	15115
2026-01-30 04:11:06.58	21.90	14.05	-50.4	-51.9	18.7	0.00e+00	0	46	0	741343232	60	15430
2026-01-30 04:11:07.59	21.87	14.15	-50.5	-52.1	18.9	0.00e+00	0	46	0	748683264	60	15806
2026-01-30 04:11:08.59	21.83	14.25	-50.7	-52.3	18.9	0.00e+00	0	46	0	754974720	60	16232
2026-01-30 04:11:09.60	21.79	14.36	-51.5	-53.2	18.4	0.00e+00	0	46	0	762314752	60	17910
2026-01-30 04:11:10.60	21.76	14.46	-51.7	-53.3	17.7	0.00e+00	0	46	0	769654784	60	18176
2026-01-30 04:11:11.61	21.72	14.56	-52.0	-53.5	18.1	0.00e+00	0	46	0	776994816	60	18446
2026-01-30 04:11:12.62	21.69	14.67	-52.4	-53.9	17.7	0.00e+00	0	46	0	784334848	60	19430
2026-01-30 04:11:13.62	21.65	14.77	-52.5	-54.0	17.4	0.00e+00	0	46	0	791674880	60	19627
2026-01-30 04:11:14.63	21.61	14.88	-52.7	-54.3	17.4	0.00e+00	0	46	0	799014912	60	20234
2026-01-30 04:11:15.64	21.57	14.98	-52.9	-54.6	17.2	0.00e+00	0	46	0	806354944	60	21022
2026-01-30 04:11:16.64	21.54	15.09	-52.9	-54.7	17.0	0.00e+00	0	46	0	813694976	60	21354
2026-01-30 04:11:17.65	21.50	15.19	-53.5	-55.7	16.2	0.00e+00	0	46	0	821035008	60	23853
2026-01-30 04:11:18.66	21.46	15.30	-53.5	-55.8	15.7	0.00e+00	0	46	0	828375040	60	24235
2026-01-30 04:11:19.66	21.42	15.40	-53.7	-56.2	15.0	1.10e-06	0	46	0	835715072	60	25294
2026-01-30 04:11:20.67	21.38	15.51	-54.0	-56.7	14.1	0.00e+00	0	46	0	843055104	60	26720
2026-01-30 04:11:21.67	21.34	15.62	-54.3	-57.1	13.4	2.20e-06	0	46	0	850395136	60	27914
2026-01-30 04:11:22.68	21.30	15.73	-54.5	-57.5	12.8	1.25e-05	0	46	0	857735168	60	29275
2026-01-30 04:11:23.69	21.26	15.84	-54.6	-57.7	12.4	2.28e-05	0	46	0	864026624	60	30170
2026-01-30 04:11:24.70	21.22	15.95	-54.1	-57.0	13.2	7.32e-05	0	46	0	871366656	60	27671
2026-01-30 04:11:25.70	21.18	16.06	-53.5	-56.6	13.4	1.02e-05	0	46	0	878706688	60	26487
2026-01-30 04:11:26.70	21.14	16.17	-53.3	-56.3	13.6	2.20e-06	0	46	0	886046720	60	25722
2026-01-30 04:11:27.71	21.10	16.28	-53.6	-56.4	13.3	1.37e-05	0	46	0	893386752	60	25951
2026-01-30 04:11:28.72	21.06	16.39	-54.7	-57.6	12.5	1.28e-04	0	46	0	900726784	60	29871
2026-01-30 04:11:29.73	21.02	16.50	-55.0	-57.7	11.9	3.68e-04	0	46	0	908066816	60	30093
2026-01-30 04:11:30.73	20.98	16.61	-55.1	-57.8	11.7	8.26e-04	0	46	0	915406848	60	30352
2026-01-30 04:11:31.74	20.93	16.72	-55.7	-59.1	10.2	1.68e-03	0	46	0	921698304	60	35434
2026-01-30 04:11:32.74	20.89	16.84	-55.9	-59.8	10.2	5.55e-03	0	46	0	929038336	60	38194
2026-01-30 04:11:33.75	20.85	16.95	-55.7	-59.1	10.3	6.42e-03	0	46	0	937426944	60	35520
2026-01-30 04:11:34.76	20.80	17.06	-56.0	-59.3	10.5	3.71e-03	0	46	0	944766976	60	36234
2026-01-30 04:11:35.76	20.76	17.18	-56.0	-59.3	10.6	6.86e-03	0	46	0	952107008	60	36156
2026-01-30 04:11:36.77	20.72	17.29	-55.7	-59.4	9.6	6.73e-03	0	46	0	959447040	60	36630
2026-01-30 04:11:37.78	20.67	17.41	-54.6	-57.9	12.3	5.45e-04	0	46	0	965738496	60	30700
2026-01-30 04:11:38.78	20.63	17.53	-53.3	-56.0	14.7	0.00e+00	0	46	0	973078528	60	24710
2026-01-30 04:11:39.79	20.58	17.64	-52.2	-54.2	16.7	0.00e+00	0	46	0	980418560	60	20039
2026-01-30 04:11:40.79	20.53	17.76	-51.3	-52.8	18.4	0.00e+00	0	46	0	987758592	60	17080
2026-01-30 04:11:41.79	20.49	17.88	-50.5	-51.7	19.8	0.00e+00	0	46	0	995098624	60	15033
2026-01-30 04:11:42.79	20.44	17.99	-49.7	-50.9	20.7	0.00e+00	0	46	0	1002438656	60	13664
2026-01-30 04:11:43.80	20.39	18.11	-48.9	-50.1	21.7	0.00e+00	0	46	0	1009778688	60	12585
2026-01-30 04:11:44.80	20.35	18.23	-48.3	-49.6	22.2	0.00e+00	0	46	0	1017118720	60	11897
2026-01-30 04:11:45.81	20.30	18.35	-48.3	-49.9	22.1	0.00e+00	0	46	0	1024458752	60	12224
2026-01-30 04:11:46.82	20.25	18.47	-48.4	-50.2	22.1	0.00e+00	0	46	0	1030750208	60	12669
2026-01-30 04:11:47.82	20.20	18.59	-48.6	-50.4	22.0	0.00e+00	0	46	0	1038090240	60	12930
2026-01-30 04:11:48.83	20.15	18.72	-48.7	-50.4	22.0	0.00e+00	0	46	0	1045430272	60	12916
2026-01-30 04:11:49.84	20.10	18.84	-49.1	-50.5	21.7	0.00e+00	0	46	0	1052770304	60	13183
2026-01-30 04:11:50.84	20.05	18.96	-48.3	-49.5	22.6	0.00e+00	0	46	0	1060110336	60	11719
2026-01-30 04:11:51.85	20.00	19.09	-47.8	-48.8	23.3	0.00e+00	0	46	0	1068498944	60	10784
2026-01-30 04:11:52.86	19.95	19.21	-47.8	-48.8	23.3	0.00e+00	0	46	0	1074790400	60	10733
2026-01-30 04:11:53.86	19.90	19.33	-47.7	-48.5	23.4	0.00e+00	0	46	0	1082130432	60	10482
2026-01-30 04:11:54.87	19.85	19.46	-47.7	-48.5	23.4	0.00e+00	0	46	0	1089470464	60	10405
2026-01-30 04:11:55.88	19.80	19.59	-47.6	-48.5	23.2	0.00e+00	0	46	0	1096810496	60	10460
2026-01-30 04:11:56.88	19.75	19.71	-47.4	-48.5	23.3	0.00e+00	0	46	0	1104150528	60	10427
2026-01-30 04:11:57.89	19.69	19.84	-47.2	-48.5	23.2	0.00e+00	0	46	0	1111490560	60	10414
2026-01-30 04:11:58.90	19.64	19.97	-47.0	-48.3	23.4	0.00e+00	0	46	0	1118830592	60	10216
2026-01-30 04:11:59.91	19.58	20.10	-47.0	-48.3	23.5	0.00e+00	0	46	0	1126170624	60	10196
2026-01-30 04:12:00.91	19.53	20.22	-47.4	-48.6	23.4	0.00e+00	0	46	0	1132462080	60	10502
2026-01-30 04:12:01.92	19.47	20.35	-47.6	-48.6	23.3	0.00e+00	0	46	0	1139802112	60	10545
2026-01-30 04:12:02.93	19.42	20.49	-47.5	-48.4	23.5	0.00e+00	0	46	0	1147142144	60	10356
2026-01-30 04:12:03.94	19.36	20.62	-47.2	-48.1	24.0	0.00e+00	0	46	0	1154482176	60	10004
2026-01-30 04:12:04.94	19.31	20.75	-47.1	-48.0	24.0	0.00e+00	0	46	0	1161822208	60	9862
2026-01-30 04:12:05.95	19.25	20.88	-46.9	-47.9	24.3	0.00e+00	0	46	0	1170210816	60	9678
2026-01-30 04:12:06.95	19.19	21.01	-46.9	-48.0	24.3	0.00e+00	0	46	0	1176502272	60	9802
2026-01-30 04:12:07.96	19.13	21.15	-46.8	-47.8	24.5	0.00e+00	0	46	0	1183842304	60	9613
2026-01-30 04:12:08.97	19.07	21.28	-46.7	-47.7	24.6	0.00e+00	0	46	0	1191182336	60	9501
2026-01-30 04:12:09.97	19.02	21.42	-46.9	-47.9	24.4	0.00e+00	0	46	0	1198522368	60	9679
2026-01-30 04:12:10.98	18.96	21.55	-46.9	-47.7	24.4	0.00e+00	0	46	0	1205862400	60	9552
2026-01-30 04:12:11.99	18.89	21.69	-47.0	-47.8	24.4	0.00e+00	0	46	0	1213202432	60	9612
2026-01-30 04:12:12.99	18.83	21.82	-47.1	-47.9	24.2	0.00e+00	0	46	0	1220542464	60	9688
2026-01-30 04:12:14.00	18.77	21.96	-47.1	-47.9	24.0	0.00e+00	0	46	0	1227882496	60	9728
2026-01-30 04:12:15.00	18.71	22.10	-47.0	-47.8	24.0	0.00e+00	0	46	0	1235222528	60	9597
2026-01-30 04:12:16.00	18.65	22.24	-46.9	-47.7	24.1	0.00e+00	0	46	0	1241513984	60	9474
2026-01-30 04:12:17.01	18.58	22.38	-46.7	-47.4	24.3	0.00e+00	0	46	0	1248854016	60	9217
2026-01-30 04:12:18.02	18.52	22.52	-46.7	-47.4	24.3	0.00e+00	0	46	0	1256194048	60	9200
2026-01-30 04:12:19.02	18.46	22.66	-46.6	-47.3	24.4	0.00e+00	0	46	0	1263534080	60	9113
2026-01-30 04:12:20.03	18.39	22.80	-46.6	-47.3	24.5	0.00e+00	0	46	0	1270874112	60	9090
2026-01-30 04:12:21.04	18.33	22.95	-46.6	-47.3	24.5	0.00e+00	0	46	0	1278214144	60	9095
2026-01-30 04:12:22.04	18.26	23.09	-46.5	-47.3	24.5	0.00e+00	0	46	0	1285554176	60	9050
2026-01-30 04:12:23.05	18.19	23.23	-46.6	-47.4	24.4	0.00e+00	0	46	0	1292894208	60	9153
2026-01-30 04:12:24.06	18.12	23.38	-46.7	-47.4	24.3	0.00e+00	0	46	0	1300234240	60	9217
2026-01-30 04:12:25.06	18.06	23.53	-46.8	-47.5	24.1	0.00e+00	0	46	0	1307574272	60	9341
2026-01-30 04:12:26.07	17.99	23.67	-47.0	-47.7	24.0	0.00e+00	0	46	0	1314914304	60	9519
2026-01-30 04:12:27.07	17.92	23.82	-47.2	-47.9	23.8	0.00e+00	0	46	0	1322254336	60	9761
2026-01-30 04:12:28.08	17.85	23.97	-47.1	-47.9	23.8	0.00e+00	0	46	0	1329594368	60	9739
2026-01-30 04:12:29.08	17.78	24.12	-47.1	-47.9	24.2	0.00e+00	0	46	0	1336934400	60	9765
2026-01-30 04:12:30.09	17.70	24.27	-47.1	-47.9	24.1	0.00e+00	0	46	0	1344274432	60	9674
2026-01-30 04:12:31.09	17.63	24.42	-47.0	-47.8	24.3	0.00e+00	0	46	0	1350565888	60	9639
2026-01-30 04:12:32.10	17.56	24.57	-47.1	-47.9	24.2	0.00e+00	0	46	0	1357905920	60	9681
2026-01-30 04:12:33.10	17.48	24.72	-47.3	-48.1	24.2	0.00e+00	0	46	0	1365245952	60	9983
2026-01-30 04:12:34.11	17.41	24.87	-47.5	-48.3	23.9	0.00e+00	0	46	0	1372585984	60	10166
2026-01-30 04:12:35.12	17.33	25.03	-47.5	-48.4	24.0	0.00e+00	0	46	0	1379926016	60	10286
2026-01-30 04:12:36.13	17.26	25.18	-47.8	-48.7	23.7	0.00e+00	0	46	0	1387266048	60	10659
2026-01-30 04:12:37.14	17.18	25.34	-47.9	-48.9	23.4	0.00e+00	0	46	0	1394606080	60	10857
2026-01-30 04:12:38.14	17.10	25.50	-48.2	-49.2	23.2	0.00e+00	0	46	0	1401946112	60	11268
2026-01-30 04:12:39.15	17.02	25.65	-48.3	-49.3	23.1	0.00e+00	0	46	0	1408237568	60	11423
2026-01-30 04:12:40.15	16.94	25.81	-48.5	-49.4	23.2	0.00e+00	0	46	0	1415577600	60	11538
2026-01-30 04:12:41.15	16.86	25.97	-48.9	-49.8	22.5	0.00e+00	0	46	0	1423966208	60	12173
2026-01-30 04:12:42.16	16.78	26.13	-48.6	-49.5	22.7	0.00e+00	0	46	0	1431306240	60	11687
2026-01-30 04:12:43.17	16.70	26.29	-48.8	-49.7	22.1	0.00e+00	0	46	0	1438646272	60	11915
2026-01-30 04:12:44.17	16.62	26.45	-48.6	-49.5	22.0	0.00e+00	0	46	0	1445986304	60	11674
2026-01-30 04:12:45.18	16.53	26.62	-48.8	-49.7	21.6	0.00e+00	0	46	0	1452277760	60	11981
2026-01-30 04:12:46.18	16.45	26.78	-49.3	-50.3	21.1	0.00e+00	0	46	0	1459617792	60	12811
2026-01-30 04:12:47.19	16.36	26.94	-49.5	-50.5	20.6	0.00e+00	0	46	0	1466957824	60	13134
2026-01-30 04:12:48.19	16.28	27.11	-49.4	-50.4	20.8	0.00e+00	0	46	0	1474297856	60	13012
2026-01-30 04:12:49.20	16.19	27.28	-48.2	-49.1	22.1	0.00e+00	0	46	0	1481637888	60	11201
2026-01-30 04:12:50.21	16.10	27.44	-47.4	-48.3	23.0	0.00e+00	0	46	0	1488977920	60	10159
2026-01-30 04:12:51.22	16.01	27.61	-47.1	-47.9	23.5	0.00e+00	0	46	0	1496317952	60	9731
2026-01-30 04:12:52.22	15.92	27.78	-47.1	-47.9	23.5	0.00e+00	0	46	0	1503657984	60	9694
2026-01-30 04:12:53.23	15.83	27.95	-47.1	-47.9	23.4	0.00e+00	0	46	0	1510998016	60	9756
2026-01-30 04:12:54.24	15.73	28.12	-47.0	-47.8	23.6	0.00e+00	0	46	0	1517289472	60	9645
2026-01-30 04:12:55.25	15.64	28.30	-46.5	-47.3	24.1	0.00e+00	0	46	0	1525678080	60	9112
2026-01-30 04:12:56.26	15.54	28.47	-46.6	-47.4	24.2	0.00e+00	0	46	0	1533018112	60	9177
2026-01-30 04:12:57.26	15.45	28.64	-46.5	-47.3	24.6	0.00e+00	0	46	0	1540358144	60	9070
2026-01-30 04:12:58.27	15.35	28.82	-46.2	-46.9	25.0	0.00e+00	0	46	0	1547698176	60	8679
2026-01-30 04:12:59.27	15.25	29.00	-46.3	-47.0	25.2	0.00e+00	0	46	0	1555038208	60	8758
2026-01-30 04:13:00.28	15.15	29.17	-46.2	-47.0	25.4	0.00e+00	0	46	0	1561329664	60	8725
2026-01-30 04:13:01.29	15.05	29.35	-46.2	-46.9	25.4	0.00e+00	0	46	0	1568669696	60	8677
2026-01-30 04:13:02.30	14.95	29.53	-46.1	-46.8	25.5	0.00e+00	0	46	0	1576009728	60	8571
2026-01-30 04:13:03.31	14.85	29.71	-46.3	-47.0	25.4	0.00e+00	0	46	0	1583349760	60	8758
2026-01-30 04:13:04.31	14.75	29.89	-46.4	-47.1	25.3	0.00e+00	0	46	0	1590689792	60	8865
2026-01-30 04:13:05.32	14.64	30.08	-46.4	-47.2	25.3	0.00e+00	0	46	0	1598029824	60	8956
2026-01-30 04:13:06.33	14.53	30.26	-46.6	-47.4	25.0	0.00e+00	0	46	0	1605369856	60	9231
2026-01-30 04:13:07.34	14.42	30.45	-46.2	-47.1	25.4	0.00e+00	0	46	0	1612709888	60	8862
2026-01-30 04:13:08.34	14.32	30.63	-46.0	-46.9	25.4	0.00e+00	0	46	0	1619001344	60	8701
2026-01-30 04:13:09.35	14.21	30.82	-46.2	-47.1	25.1	0.00e+00	0	46	0	1627389952	60	8847
2026-01-30 04:13:10.36	14.09	31.01	-46.5	-47.3	25.1	0.00e+00	0	46	0	1634729984	60	9049
2026-01-30 04:13:11.36	13.98	31.20	-46.5	-47.2	25.1	0.00e+00	0	46	0	1642070016	60	8956
2026-01-30 04:13:12.37	13.87	31.39	-46.6	-47.3	25.0	0.00e+00	0	46	0	1649410048	60	9130
2026-01-30 04:13:13.38	13.75	31.58	-46.6	-47.4	25.0	0.00e+00	0	46	0	1656750080	60	9206
2026-01-30 04:13:14.38	13.63	31.77	-46.6	-47.5	24.8	0.00e+00	0	46	0	1663041536	60	9247
2026-01-30 04:13:15.39	13.52	31.96	-46.7	-47.6	24.7	0.00e+00	0	46	0	1670381568	60	9383
2026-01-30 04:13:16.39	13.40	32.16	-46.5	-47.4	24.6	0.00e+00	0	46	0	1677721600	60	9219
2026-01-30 04:13:17.40	13.27	32.35	-46.5	-47.4	24.5	0.00e+00	0	46	0	1685061632	60	9231
2026-01-30 04:13:18.41	13.15	32.55	-46.7	-47.6	24.3	0.00e+00	0	46	0	1692401664	60	9360
2026-01-30 04:13:19.41	13.03	32.75	-46.8	-47.6	24.4	0.00e+00	0	46	0	1699741696	60	9396
2026-01-30 04:13:20.42	12.90	32.95	-46.9	-47.6	24.4	0.00e+00	0	46	0	1707081728	60	9419
2026-01-30 04:13:21.43	12.77	33.15	-47.1	-47.9	24.5	0.00e+00	0	46	0	1714421760	60	9680
2026-01-30 04:13:22.43	12.64	33.35	-47.2	-47.9	24.4	0.00e+00	0	46	0	1721761792	60	9734
2026-01-30 04:13:23.44	12.51	33.55	-47.2	-47.9	24.7	0.00e+00	0	46	0	1728053248	60	9769
2026-01-30 04:13:24.45	12.38	33.76	-46.9	-47.6	25.0	0.00e+00	0	46	0	1736441856	60	9443
2026-01-30 04:13:25.45	12.25	33.96	-47.0	-47.7	25.0	0.00e+00	0	46	0	1743781888	60	9518
2026-01-30 04:13:26.46	12.11	34.17	-47.0	-47.8	25.0	0.00e+00	0	46	0	1751121920	60	9604
2026-01-30 04:13:27.46	11.97	34.37	-46.7	-47.4	25.5	0.00e+00	0	46	0	1758461952	60	9152
2026-01-30 04:13:28.47	11.83	34.58	-46.7	-47.4	25.4	0.00e+00	0	46	0	1765801984	60	9164
2026-01-30 04:13:29.48	11.69	34.79	-46.6	-47.3	25.6	0.00e+00	0	46	0	1772093440	60	9045
2026-01-30 04:13:30.48	11.55	35.00	-46.6	-47.3	25.4	0.00e+00	0	46	0	1779433472	60	9047
2026-01-30 04:13:31.49	11.40	35.22	-46.5	-47.2	25.4	0.00e+00	0	46	0	1786773504	60	8992
2026-01-30 04:13:32.50	11.25	35.43	-46.5	-47.2	25.2	0.00e+00	0	46	0	1794113536	60	8995
2026-01-30 04:13:33.50	11.10	35.64	-46.5	-47.2	25.0	0.00e+00	0	46	0	1801453568	60	8968
2026-01-30 04:13:34.51	10.95	35.86	-46.5	-47.2	24.9	0.00e+00	0	46	0	1808793600	60	9023
2026-01-30 04:13:35.51	10.80	36.08	-46.5	-47.3	24.8	0.00e+00	0	46	0	1816133632	60	9058
2026-01-30 04:13:36.52	10.64	36.30	-46.6	-47.4	24.7	0.00e+00	0	46	0	1823473664	60	9151
2026-01-30 04:13:37.52	10.49	36.51	-46.5	-47.3	24.6	0.00e+00	0	46	0	1830813696	60	9114
2026-01-30 04:13:38.52	10.33	36.73	-46.7	-47.5	24.6	0.00e+00	0	46	0	1837105152	60	9312
2026-01-30 04:13:39.53	10.16	36.96	-46.8	-47.6	24.6	0.00e+00	0	46	0	1844445184	60	9397
2026-01-30 04:13:40.53	10.00	37.18	-46.9	-47.6	24.6	0.00e+00	0	46	0	1851785216	60	9428
2026-01-30 04:13:41.54	9.83	37.40	-46.9	-47.6	24.9	0.00e+00	0	46	0	1859125248	60	9400
2026-01-30 04:13:42.55	9.66	37.63	-46.7	-47.4	25.3	0.00e+00	0	46	0	1867513856	60	9185
2026-01-30 04:13:43.56	9.49	37.86	-46.6	-47.3	25.4	0.00e+00	0	46	0	1874853888	60	9069
2026-01-30 04:13:44.56	9.32	38.08	-46.6	-47.3	25.5	0.00e+00	0	46	0	1881145344	60	9043
2026-01-30 04:13:45.56	9.14	38.31	-46.4	-47.1	25.5	0.00e+00	0	46	0	1888485376	60	8914
2026-01-30 04:13:46.55	8.97	38.54	-46.5	-47.2	25.2	0.00e+00	0	46	0	1895825408	60	8977
2026-01-30 04:13:47.56	8.78	38.77	-46.3	-47.0	25.4	0.00e+00	0	46	0	1903165440	60	8750
2026-01-30 04:13:48.57	8.60	39.01	-46.4	-47.1	25.1	0.00e+00	0	46	0	1910505472	60	8922
2026-01-30 04:13:49.57	8.41	39.24	-46.8	-47.5	24.9	0.00e+00	0	46	0	1917845504	60	9297
2026-01-30 04:13:50.58	8.22	39.48	-46.9	-47.7	24.8	0.00e+00	0	46	0	1925185536	60	9475
2026-01-30 04:13:51.59	8.03	39.71	-47.2	-48.0	24.4	0.00e+00	0	46	0	1932525568	60	9799
2026-01-30 04:13:52.59	7.83	39.95	-47.4	-48.1	24.2	0.00e+00	0	46	0	1938817024	60	9959
2026-01-30 04:13:53.60	7.63	40.19	-47.6	-48.3	24.1	0.00e+00	0	46	0	1946157056	60	10202
2026-01-30 04:13:54.60	7.43	40.43	-47.6	-48.3	23.7	0.00e+00	0	46	0	1953497088	60	10221
2026-01-30 04:13:55.61	7.23	40.67	-48.0	-48.8	23.7	0.00e+00	0	46	0	1960837120	60	10785
2026-01-30 04:13:56.61	7.02	40.91	-48.3	-49.1	23.4	0.00e+00	0	46	0	1968177152	60	11155
2026-01-30 04:13:57.61	6.81	41.16	-48.3	-49.1	23.4	0.00e+00	0	46	0	1975517184	60	11134
2026-01-30 04:13:58.62	6.60	41.40	-49.0	-49.8	22.9	0.00e+00	0	46	0	1982857216	60	12138
2026-01-30 04:13:59.63	6.38	41.65	-48.9	-49.8	22.9	0.00e+00	0	46	0	1990197248	60	12053
2026-01-30 04:14:00.63	6.16	41.90	-48.7	-49.5	23.2	0.00e+00	0	46	0	1997537280	60	11747
2026-01-30 04:14:01.64	5.93	42.15	-48.8	-49.6	23.3	0.00e+00	0	46	0	2003828736	60	11823
2026-01-30 04:14:02.64	5.71	42.40	-48.8	-49.7	23.2	0.00e+00	0	46	0	2011168768	60	11905
2026-01-30 04:14:03.64	5.48	42.65	-49.0	-49.8	22.7	0.00e+00	0	46	0	2018508800	60	12095
2026-01-30 04:14:04.64	5.24	42.90	-49.8	-50.7	22.3	0.00e+00	0	46	0	2025848832	60	13418
2026-01-30 04:14:05.65	5.00	43.15	-49.5	-50.4	21.4	0.00e+00	0	46	0	2034237440	60	13017
2026-01-30 04:14:06.65	4.76	43.40	-50.2	-51.2	21.2	0.00e+00	0	46	0	2041577472	60	14198
2026-01-30 04:14:07.66	4.51	43.66	-50.9	-51.9	20.3	0.00e+00	0	46	0	2047868928	60	15493
2026-01-30 04:14:08.67	4.26	43.92	-50.8	-51.9	20.1	0.00e+00	0	46	0	2055208960	60	15350
2026-01-30 04:14:09.67	4.01	44.18	-50.8	-51.8	20.2	0.00e+00	0	46	0	2062548992	60	15195
2026-01-30 04:14:10.67	3.75	44.43	-51.0	-52.0	20.4	0.00e+00	0	46	0	2069889024	60	15537
2026-01-30 04:14:11.67	3.49	44.69	-50.8	-51.8	20.5	0.00e+00	0	46	0	2077229056	60	15185
2026-01-30 04:14:12.67	3.22	44.95	-50.3	-51.2	21.1	0.00e+00	0	46	0	2084569088	60	14283
2026-01-30 04:14:13.67	2.95	45.21	-48.8	-49.6	22.3	0.00e+00	0	46	0	2091909120	60	11866
2026-01-30 04:14:14.68	2.67	45.48	-48.5	-49.3	22.7	0.00e+00	0	46	0	2099249152	60	11471
2026-01-30 04:14:15.69	2.39	45.74	-47.5	-48.3	23.3	0.00e+00	0	46	0	2106589184	60	10134
2026-01-30 04:14:16.69	2.10	46.00	-47.2	-47.9	23.5	0.00e+00	0	46	0	2112880640	60	9778
2026-01-30 04:14:17.69	1.81	46.27	-47.5	-48.2	23.1	0.00e+00	0	46	0	2120220672	60	10107
2026-01-30 04:14:18.70	1.52	46.54	-47.7	-48.5	23.1	0.00e+00	0	46	0	2127560704	60	10374
2026-01-30 04:14:19.70	1.22	46.80	-48.3	-49.2	23.0	0.00e+00	0	46	0	2134900736	60	11312
2026-01-30 04:14:20.70	0.91	47.07	-48.8	-49.6	22.1	0.00e+00	0	46	0	2142240768	60	11898
2026-01-30 04:14:21.71	0.60	47.34	-49.2	-50.1	21.7	0.00e+00	0	46	0	2149580800	60	12537
2026-01-30 04:14:22.72	0.28	47.61	-49.4	-50.3	21.5	0.00e+00	0	46	0	2156920832	60	12872
2026-01-30 04:14:23.72	359.96	47.88	-49.8	-50.7	21.3	0.00e+00	0	46	0	2164260864	60	13452
2026-01-30 04:14:24.72	359.63	48.15	-49.5	-50.4	21.9	0.00e+00	0	46	0	2170552320	60	12906
2026-01-30 04:14:25.73	359.29	48.42	-49.4	-50.2	21.6	0.00e+00	0	46	0	2177892352	60	12742
2026-01-30 04:14:26.74	358.95	48.70	-49.6	-50.5	21.3	0.00e+00	0	46	0	2185232384	60	13139
2026-01-30 04:14:27.74	358.60	48.97	-50.0	-50.9	21.3	0.00e+00	0	46	0	2192572416	60	13754
2026-01-30 04:14:28.74	358.25	49.24	-48.7	-49.6	21.8	0.00e+00	0	46	0	2199912448	60	11765
2026-01-30 04:14:29.74	357.89	49.51	-48.3	-49.2	22.1	0.00e+00	0	46	0	2207252480	60	11287
2026-01-30 04:14:30.75	357.53	49.79	-48.0	-48.8	22.4	0.00e+00	0	46	0	2214592512	60	10771
2026-01-30 04:14:31.76	357.15	50.07	-48.1	-48.9	22.4	0.00e+00	0	46	0	2221932544	60	10914
2026-01-30 04:14:32.77	356.77	50.34	-48.2	-49.0	22.4	0.00e+00	0	46	0	2229272576	60	11079
2026-01-30 04:14:33.78	356.38	50.62	-48.3	-49.2	22.2	0.00e+00	0	46	0	2236612608	60	11265
2026-01-30 04:14:34.79	355.98	50.90	-48.6	-49.5	21.8	0.00e+00	0	46	0	2243952640	60	11687
2026-01-30 04:14:35.79	355.58	51.17	-48.5	-49.4	21.8	0.00e+00	0	46	0	2251292672	60	11550
2026-01-30 04:14:36.80	355.17	51.45	-48.4	-49.3	22.1	0.00e+00	0	46	0	2258632704	60	11411
2026-01-30 04:14:37.81	354.75	51.73	-48.8	-49.6	22.5	0.00e+00	0	46	0	2265972736	60	11890
2026-01-30 04:14:38.81	354.33	52.00	-48.7	-49.5	23.2	0.00e+00	0	46	0	2273312768	60	11670
2026-01-30 04:14:39.82	353.89	52.28	-48.3	-49.1	23.6	0.00e+00	0	46	0	2279604224	60	11165
2026-01-30 04:14:40.83	353.45	52.56	-48.2	-49.0	22.9	0.00e+00	0	46	0	2286944256	60	11052
2026-01-30 04:14:41.84	353.00	52.83	-48.2	-49.0	22.9	0.00e+00	0	46	0	2294284288	60	11064
2026-01-30 04:14:42.84	352.54	53.11	-48.1	-48.9	22.8	0.00e+00	0	46	0	2301624320	60	10951
2026-01-30 04:14:43.85	352.07	53.38	-48.3	-49.1	23.0	0.00e+00	0	46	0	2308964352	60	11123
2026-01-30 04:14:44.85	351.60	53.66	-48.3	-49.1	23.3	0.00e+00	0	46	0	2317352960	60	11133
2026-01-30 04:14:45.86	351.11	53.93	-48.8	-49.6	23.3	0.00e+00	0	46	0	2323644416	60	11839
2026-01-30 04:14:46.85	350.62	54.20	-48.8	-49.7	23.2	0.00e+00	0	46	0	2330984448	60	11908
2026-01-30 04:14:47.86	350.12	54.47	-49.3	-50.2	22.5	0.00e+00	0	46	0	2338324480	60	12670
2026-01-30 04:14:48.87	349.60	54.75	-49.6	-50.4	22.2	0.00e+00	0	46	0	2345664512	60	13033
2026-01-30 04:14:49.87	349.08	55.01	-49.8	-50.7	22.1	0.00e+00	0	46	0	2353004544	60	13357
2026-01-30 04:14:50.88	348.54	55.29	-50.3	-51.3	21.5	0.00e+00	0	46	0	2360344576	60	14424
2026-01-30 04:14:51.89	348.00	55.56	-48.8	-49.6	22.4	0.00e+00	0	46	0	2367684608	60	11822
2026-01-30 04:14:52.90	347.44	55.82	-48.0	-48.8	22.6	0.00e+00	0	46	0	2375024640	60	10852
2026-01-30 04:14:53.90	346.87	56.09	-48.2	-49.0	22.5	0.00e+00	0	46	0	2381316096	60	11043
2026-01-30 04:14:54.91	346.30	56.35	-48.1	-48.9	22.5	0.00e+00	0	46	0	2388656128	60	10870
2026-01-30 04:14:55.91	345.71	56.61	-48.8	-49.6	22.7	0.00e+00	0	46	0	2395996160	60	11876
2026-01-30 04:14:56.92	345.11	56.88	-48.5	-49.3	23.0	0.00e+00	0	46	0	2403336192	60	11478
2026-01-30 04:14:57.92	344.50	57.13	-48.7	-49.5	23.1	0.00e+00	0	46	0	2410676224	60	11746
2026-01-30 04:14:58.93	343.88	57.39	-49.2	-50.0	23.2	0.00e+00	0	46	0	2418016256	60	12368
2026-01-30 04:14:59.93	343.24	57.64	-48.3	-49.1	23.8	0.00e+00	0	46	0	2425356288	60	11116
2026-01-30 04:15:00.94	342.59	57.90	-47.6	-48.3	24.0	0.00e+00	0	46	0	2432696320	60	10216
2026-01-30 04:15:01.94	341.94	58.15	-47.6	-48.3	23.9	0.00e+00	0	46	0	2440036352	60	10159
2026-01-30 04:15:02.95	341.26	58.40	-47.9	-48.6	23.7	0.00e+00	0	46	0	2447376384	60	10595
2026-01-30 04:15:03.95	340.58	58.64	-47.8	-48.5	24.0	0.00e+00	0	46	0	2454716416	60	10475
2026-01-30 04:15:04.96	339.88	58.88	-47.9	-48.6	24.1	0.00e+00	0	46	0	2462056448	60	10599
2026-01-30 04:15:05.97	339.17	59.12	-48.1	-48.9	24.2	0.00e+00	0	46	0	2469396480	60	10886
2026-01-30 04:15:06.97	338.45	59.36	-47.9	-48.6	24.2	0.00e+00	0	46	0	2476736512	60	10605
2026-01-30 04:15:07.98	337.71	59.59	-48.1	-48.9	24.2	0.00e+00	0	46	0	2484076544	60	10908
2026-01-30 04:15:08.99	336.96	59.82	-48.3	-49.0	23.9	0.00e+00	0	46	0	2490368000	60	11088
2026-01-30 04:15:10.00	336.20	60.04	-48.3	-49.1	23.8	0.00e+00	0	46	0	2497708032	60	11178
2026-01-30 04:15:11.00	335.42	60.26	-48.4	-49.2	23.6	0.00e+00	0	46	0	2505048064	60	11307
2026-01-30 04:15:12.00	334.64	60.48	-48.3	-49.1	23.8	0.00e+00	0	46	0	2512388096	60	11158
2026-01-30 04:15:13.01	333.83	60.69	-47.8	-48.6	24.1	0.00e+00	0	46	0	2519728128	60	10525
2026-01-30 04:15:14.02	333.01	60.90	-47.5	-48.3	24.2	0.00e+00	0	46	0	2527068160	60	10172
2026-01-30 04:15:15.02	332.19	61.11	-47.8	-48.5	24.1	0.00e+00	0	46	0	2534408192	60	10461
2026-01-30 04:15:16.03	331.34	61.31	-48.0	-48.9	23.9	0.00e+00	0	46	0	2541748224	60	10862
2026-01-30 04:15:17.02	330.50	61.50	-48.2	-48.9	23.6	0.00e+00	0	46	0	2549088256	60	10964
2026-01-30 04:15:18.03	329.62	61.69	-48.2	-49.0	23.7	0.00e+00	0	46	0	2555379712	60	10996
2026-01-30 04:15:19.04	328.74	61.87	-48.0	-48.8	23.8	0.00e+00	0	46	0	2562719744	60	10745
2026-01-30 04:15:20.05	327.83	62.05	-48.0	-48.8	24.0	0.00e+00	0	46	0	2571108352	60	10789
2026-01-30 04:15:21.06	326.92	62.22	-48.3	-49.1	23.7	0.00e+00	0	46	0	2578448384	60	11164
2026-01-30 04:15:22.07	325.99	62.39	-48.6	-49.4	23.5	0.00e+00	0	46	0	2585788416	60	11522
2026-01-30 04:15:23.08	325.05	62.55	-48.9	-49.7	23.4	0.00e+00	0	46	0	2593128448	60	11946
2026-01-30 04:15:24.08	324.11	62.71	-49.1	-49.9	23.0	0.00e+00	0	46	0	2599419904	60	12292
2026-01-30 04:15:25.09	323.15	62.86	-48.5	-49.3	23.6	0.00e+00	0	46	0	2606759936	60	11477
2026-01-30 04:15:26.10	322.17	63.00	-48.5	-49.3	23.5	0.00e+00	0	46	0	2614099968	60	11414
2026-01-30 04:15:27.10	321.19	63.13	-48.4	-49.2	23.4	0.00e+00	0	46	0	2621440000	60	11322
2026-01-30 04:15:28.10	320.20	63.26	-48.8	-49.7	22.9	0.00e+00	0	46	0	2628780032	60	11911
2026-01-30 04:15:29.11	319.20	63.38	-49.0	-49.8	22.6	0.00e+00	0	46	0	2636120064	60	12153
2026-01-30 04:15:30.12	318.18	63.50	-49.3	-50.1	22.2	0.00e+00	0	46	0	2643460096	60	12600
2026-01-30 04:15:31.13	317.15	63.60	-49.3	-50.2	22.3	0.00e+00	0	46	0	2650800128	60	12673
2026-01-30 04:15:32.13	316.12	63.70	-49.7	-50.6	21.8	0.00e+00	0	46	0	2657091584	60	13263
2026-01-30 04:15:33.14	315.07	63.79	-50.2	-51.1	21.7	0.00e+00	0	46	0	2664431616	60	14106
2026-01-30 04:15:34.14	314.03	63.88	-48.7	-49.5	23.0	0.00e+00	0	46	0	2671771648	60	11696
2026-01-30 04:15:35.14	312.98	63.95	-47.9	-48.7	24.1	0.00e+00	0	46	0	2679111680	60	10613
2026-01-30 04:15:36.15	311.91	64.02	-47.4	-48.2	24.3	0.00e+00	0	46	0	2687500288	60	10026
2026-01-30 04:15:37.16	310.84	64.08	-47.6	-48.4	24.1	0.00e+00	0	46	0	2694840320	60	10276
2026-01-30 04:15:38.17	309.76	64.13	-47.8	-48.6	23.8	0.00e+00	0	46	0	2701131776	60	10533
2026-01-30 04:15:39.18	308.67	64.18	-47.6	-48.3	24.2	0.00e+00	0	46	0	2708471808	60	10215
2026-01-30 04:15:40.18	307.59	64.21	-46.9	-47.6	24.8	0.00e+00	0	46	0	2715811840	60	9433
2026-01-30 04:15:41.19	306.50	64.24	-46.7	-47.4	24.9	0.00e+00	0	46	0	2723151872	60	9161
2026-01-30 04:15:42.20	305.41	64.26	-46.5	-47.2	25.2	0.00e+00	0	46	0	2730491904	60	8927
2026-01-30 04:15:43.20	304.33	64.27	-46.6	-47.4	24.5	0.00e+00	0	46	0	2737831936	60	9132
2026-01-30 04:15:44.21	303.23	64.27	-46.8	-47.5	24.8	0.00e+00	0	46	0	2745171968	60	9309
2026-01-30 04:15:45.22	302.14	64.26	-46.8	-47.5	24.9	0.00e+00	0	46	0	2752512000	60	9308
2026-01-30 04:15:46.23	301.04	64.25	-46.6	-47.3	24.9	0.00e+00	0	46	0	2759852032	60	9051
2026-01-30 04:15:47.23	299.96	64.23	-46.3	-47.0	24.9	0.00e+00	0	46	0	2766143488	60	8767
2026-01-30 04:15:48.24	298.87	64.20	-46.5	-47.3	24.7	0.00e+00	0	46	0	2773483520	60	9035
2026-01-30 04:15:49.24	297.79	64.16	-46.8	-47.5	24.7	0.00e+00	0	46	0	2780823552	60	9303
2026-01-30 04:15:50.25	296.71	64.11	-47.1	-47.8	24.3	0.00e+00	0	46	0	2789212160	60	9666
2026-01-30 04:15:51.26	295.63	64.05	-47.3	-48.1	23.9	0.00e+00	0	46	0	2796552192	60	9939
2026-01-30 04:15:52.26	294.57	63.99	-47.3	-48.1	24.0	0.00e+00	0	46	0	2803892224	60	10009
2026-01-30 04:15:53.27	293.51	63.92	-47.2	-47.9	24.1	0.00e+00	0	46	0	2810183680	60	9772
2026-01-30 04:15:54.28	292.45	63.84	-47.0	-47.8	24.5	0.00e+00	0	46	0	2817523712	60	9568
2026-01-30 04:15:55.29	291.40	63.75	-46.9	-47.7	24.5	0.00e+00	0	46	0	2824863744	60	9524
2026-01-30 04:15:56.30	290.35	63.65	-47.2	-48.0	24.3	0.00e+00	0	46	0	2832203776	60	9861
2026-01-30 04:15:57.30	289.33	63.55	-47.6	-48.4	24.2	0.00e+00	0	46	0	2839543808	60	10252
2026-01-30 04:15:58.30	288.32	63.44	-47.7	-48.5	24.3	0.00e+00	0	46	0	2846883840	60	10444
2026-01-30 04:15:59.31	287.30	63.32	-47.6	-48.4	24.0	0.00e+00	0	46	0	2854223872	60	10330
2026-01-30 04:16:00.32	286.30	63.20	-47.2	-48.0	24.5	0.00e+00	0	46	0	2861563904	60	9810
2026-01-30 04:16:01.32	285.31	63.07	-47.4	-48.2	24.3	0.00e+00	0	46	0	2867855360	60	10017
2026-01-30 04:16:02.33	284.33	62.93	-47.6	-48.4	24.3	0.00e+00	0	46	0	2875195392	60	10318
2026-01-30 04:16:03.33	283.37	62.78	-47.8	-48.6	24.1	0.00e+00	0	46	0	2882535424	60	10485
2026-01-30 04:16:04.34	282.41	62.63	-47.8	-48.6	24.0	0.00e+00	0	46	0	2889875456	60	10547
2026-01-30 04:16:05.35	281.46	62.47	-48.1	-48.9	24.0	0.00e+00	0	46	0	2898264064	60	10875
2026-01-30 04:16:06.35	280.54	62.31	-48.1	-48.9	24.0	0.00e+00	0	46	0	2905604096	60	10866
2026-01-30 04:16:07.36	279.62	62.14	-48.1	-48.8	24.1	0.00e+00	0	46	0	2911895552	60	10853
2026-01-30 04:16:08.36	278.72	61.96	-47.8	-48.5	24.3	0.00e+00	0	46	0	2919235584	60	10478
2026-01-30 04:16:09.37	277.82	61.78	-47.5	-48.2	24.5	0.00e+00	0	46	0	2926575616	60	10118
2026-01-30 04:16:10.38	276.94	61.60	-47.8	-48.6	24.3	0.00e+00	0	46	0	2933915648	60	10542
2026-01-30 04:16:11.38	276.08	61.40	-47.9	-48.7	24.3	0.00e+00	0	46	0	2941255680	60	10707
2026-01-30 04:16:12.39	275.23	61.21	-47.4	-48.1	24.7	0.00e+00	0	46	0	2948595712	60	9968
2026-01-30 04:16:13.40	274.38	61.00	-47.2	-48.0	24.9	0.00e+00	0	46	0	2955935744	60	9789
2026-01-30 04:16:14.40	273.56	60.80	-47.5	-48.2	24.8	0.00e+00	0	46	0	2963275776	60	10122
2026-01-30 04:16:15.41	272.75	60.59	-47.9	-48.7	24.3	0.00e+00	0	46	0	2970615808	60	10671
2026-01-30 04:16:16.41	271.96	60.37	-48.2	-49.0	23.7	0.00e+00	0	46	0	2976907264	60	11048
2026-01-30 04:16:17.42	271.17	60.15	-47.9	-48.7	24.3	0.00e+00	0	46	0	2984247296	60	10676
2026-01-30 04:16:18.42	270.40	59.93	-47.7	-48.5	24.3	0.00e+00	0	46	0	2991587328	60	10386
2026-01-30 04:16:19.42	269.65	59.70	-47.8	-48.6	24.3	0.00e+00	0	46	0	2998927360	60	10515
2026-01-30 04:16:20.43	268.90	59.47	-48.1	-48.9	24.0	0.00e+00	0	46	0	3006267392	60	10967
2026-01-30 04:16:21.44	268.17	59.24	-48.6	-49.4	23.7	0.00e+00	0	46	0	3013607424	60	11561
2026-01-30 04:16:22.45	267.45	59.00	-48.4	-49.2	23.8	0.00e+00	0	46	0	3020947456	60	11256
2026-01-30 04:16:23.45	266.75	58.76	-48.2	-48.9	24.0	0.00e+00	0	46	0	3028287488	60	10966
2026-01-30 04:16:24.46	266.06	58.51	-47.8	-48.6	24.2	0.00e+00	0	46	0	3035627520	60	10523
2026-01-30 04:16:25.46	265.38	58.27	-47.6	-48.3	24.4	0.00e+00	0	46	0	3042967552	60	10240
2026-01-30 04:16:26.46	264.72	58.02	-47.6	-48.3	24.4	0.00e+00	0	46	0	3050307584	60	10225
2026-01-30 04:16:27.47	264.06	57.77	-47.4	-48.2	24.4	0.00e+00	0	46	0	3057647616	60	10039
2026-01-30 04:16:28.48	263.42	57.51	-47.4	-48.1	24.6	0.00e+00	0	46	0	3064987648	60	9979
2026-01-30 04:16:29.49	262.79	57.26	-47.6	-48.4	24.4	0.00e+00	0	46	0	3072327680	60	10307
2026-01-30 04:16:30.49	262.17	57.00	-47.6	-48.4	24.3	0.00e+00	0	46	0	3078619136	60	10293
2026-01-30 04:16:31.50	261.56	56.74	-47.7	-48.5	24.3	0.00e+00	0	46	0	3085959168	60	10365
2026-01-30 04:16:32.50	260.97	56.48	-47.4	-48.1	24.3	0.00e+00	0	46	0	3093299200	60	9989
2026-01-30 04:16:33.51	260.38	56.21	-47.4	-48.1	24.5	0.00e+00	0	46	0	3100639232	60	9984
2026-01-30 04:16:34.51	259.82	55.95	-47.7	-48.5	24.1	0.00e+00	0	46	0	3107979264	60	10426
2026-01-30 04:16:35.52	259.25	55.68	-48.1	-48.9	23.9	0.00e+00	0	46	0	3115319296	60	10900
2026-01-30 04:16:36.53	258.70	55.41	-47.9	-48.7	23.9	0.00e+00	0	46	0	3122659328	60	10659
2026-01-30 04:16:37.54	258.16	55.14	-47.5	-48.3	24.1	0.00e+00	0	46	0	3129999360	60	10153
2026-01-30 04:16:38.54	257.63	54.87	-47.3	-48.0	24.3	0.00e+00	0	46	0	3137339392	60	9863
2026-01-30 04:16:39.54	257.11	54.60	-47.2	-48.0	24.4	0.00e+00	0	46	0	3143630848	60	9787
2026-01-30 04:16:40.55	256.60	54.33	-47.3	-48.0	24.2	0.00e+00	0	46	0	3152019456	60	9897
2026-01-30 04:16:41.56	256.10	54.05	-47.4	-48.2	24.2	0.00e+00	0	46	0	3159359488	60	10057
2026-01-30 04:16:42.57	255.60	53.78	-47.6	-48.4	24.2	0.00e+00	0	46	0	3166699520	60	10277
2026-01-30 04:16:43.57	255.12	53.50	-47.7	-48.4	24.1	0.00e+00	0	46	0	3174039552	60	10359
2026-01-30 04:16:44.58	254.65	53.23	-47.5	-48.3	24.2	0.00e+00	0	46	0	3181379584	60	10179
2026-01-30 04:16:45.59	254.18	52.95	-47.3	-48.1	24.3	0.00e+00	0	46	0	3187671040	60	9904
2026-01-30 04:16:46.59	253.73	52.67	-47.2	-47.9	24.4	0.00e+00	0	46	0	3195011072	60	9731
2026-01-30 04:16:47.60	253.28	52.40	-47.5	-48.2	24.3	0.00e+00	0	46	0	3202351104	60	10112
2026-01-30 04:16:48.61	252.84	52.12	-47.8	-48.5	24.0	0.00e+00	0	46	0	3209691136	60	10459
2026-01-30 04:16:49.61	252.41	51.84	-48.0	-48.8	23.7	0.00e+00	0	46	0	3217031168	60	10844
2026-01-30 04:16:50.62	251.99	51.56	-47.9	-48.7	23.7	0.00e+00	0	46	0	3224371200	60	10673
2026-01-30 04:16:51.62	251.58	51.29	-47.6	-48.3	24.1	0.00e+00	0	46	0	3231711232	60	10213
2026-01-30 04:16:52.63	251.17	51.01	-47.4	-48.1	24.2	0.00e+00	0	46	0	3239051264	60	9946
2026-01-30 04:16:53.63	250.77	50.74	-47.4	-48.1	24.3	0.00e+00	0	46	0	3246391296	60	9978
2026-01-30 04:16:54.64	250.38	50.46	-47.5	-48.3	23.8	0.00e+00	0	46	0	3252682752	60	10139
2026-01-30 04:16:55.65	249.99	50.18	-47.8	-48.6	23.9	0.00e+00	0	46	0	3261071360	60	10560
2026-01-30 04:16:56.65	249.62	49.91	-47.7	-48.4	23.8	0.00e+00	0	46	0	3268411392	60	10360
2026-01-30 04:16:57.66	249.25	49.63	-47.3	-48.1	24.3	0.00e+00	0	46	0	3275751424	60	9948
2026-01-30 04:16:58.66	248.88	49.36	-47.2	-47.9	24.5	0.00e+00	0	46	0	3283091456	60	9728
2026-01-30 04:16:59.67	248.53	49.08	-47.0	-47.8	24.5	0.00e+00	0	46	0	3290431488	60	9569
2026-01-30 04:17:00.67	248.18	48.81	-47.2	-48.0	24.3	0.00e+00	0	46	0	3296722944	60	9791
2026-01-30 04:17:01.68	247.83	48.53	-47.5	-48.2	22.7	0.00e+00	0	46	0	3304062976	60	10100
2026-01-30 04:17:02.69	247.49	48.26	-47.8	-48.5	23.8	0.00e+00	0	46	0	3311403008	60	10478
2026-01-30 04:17:03.69	247.16	47.99	-47.7	-48.5	24.0	0.00e+00	0	46	0	3318743040	60	10408
2026-01-30 04:17:04.70	246.83	47.71	-47.3	-48.1	24.3	0.00e+00	0	46	0	3326083072	60	9934
2026-01-30 04:17:05.70	246.51	47.44	-47.1	-47.9	24.4	0.00e+00	0	46	0	3333423104	60	9681
2026-01-30 04:17:06.71	246.19	47.17	-47.0	-47.8	24.4	0.00e+00	0	46	0	3340763136	60	9583
2026-01-30 04:17:07.71	245.89	46.90	-46.7	-47.4	24.8	0.00e+00	0	46	0	3348103168	60	9187
2026-01-30 04:17:08.72	245.58	46.63	-46.5	-47.2	25.0	0.00e+00	0	46	0	3354394624	60	8925
2026-01-30 04:17:09.73	245.28	46.37	-46.2	-46.9	25.1	0.00e+00	0	46	0	3361734656	60	8675
2026-01-30 04:17:10.74	244.98	46.10	-46.2	-46.9	25.1	0.00e+00	0	46	0	3369074688	60	8668
2026-01-30 04:17:11.74	244.69	45.83	-46.2	-46.9	25.1	0.00e+00	0	46	0	3376414720	60	8680
2026-01-30 04:17:12.75	244.41	45.57	-46.3	-47.0	25.0	0.00e+00	0	46	0	3384803328	60	8748
2026-01-30 04:17:13.76	244.13	45.30	-46.6	-47.3	24.7	0.00e+00	0	46	0	3392143360	60	9066
2026-01-30 04:17:14.77	243.85	45.04	-46.4	-47.1	24.7	0.00e+00	0	46	0	3398434816	60	8879
2026-01-30 04:17:15.77	243.58	44.78	-46.4	-47.1	24.9	0.00e+00	0	46	0	3405774848	60	8867
2026-01-30 04:17:16.78	243.31	44.51	-46.5	-47.2	24.8	0.00e+00	0	46	0	3413114880	60	8937
2026-01-30 04:17:17.78	243.05	44.25	-46.6	-47.4	24.6	0.00e+00	0	46	0	3420454912	60	9134
2026-01-30 04:17:18.79	242.80	43.99	-46.7	-47.4	24.5	0.00e+00	0	46	0	3427794944	60	9192
2026-01-30 04:17:19.80	242.54	43.73	-46.6	-47.3	24.4	0.00e+00	0	46	0	3435134976	60	9098
2026-01-30 04:17:20.81	242.29	43.48	-46.9	-47.6	24.1	0.00e+00	0	46	0	3442475008	60	9435
2026-01-30 04:17:21.81	242.05	43.22	-47.2	-47.9	23.9	0.00e+00	0	46	0	3449815040	60	9765
2026-01-30 04:17:22.82	241.80	42.97	-47.3	-48.0	23.5	0.00e+00	0	46	0	3457155072	60	9885
2026-01-30 04:17:23.83	241.57	42.71	-47.3	-48.1	23.7	0.00e+00	0	46	0	3463446528	60	9918
2026-01-30 04:17:24.83	241.33	42.46	-47.4	-48.1	23.7	0.00e+00	0	46	0	3470786560	60	10002
2026-01-30 04:17:25.84	241.10	42.21	-47.5	-48.3	23.5	0.00e+00	0	46	0	3478126592	60	10182
2026-01-30 04:17:26.84	240.88	41.96	-47.9	-48.7	23.3	0.00e+00	0	46	0	3485466624	60	10630
2026-01-30 04:17:27.84	240.66	41.71	-47.9	-48.7	23.2	0.00e+00	0	46	0	3492806656	60	10694
2026-01-30 04:17:28.85	240.44	41.46	-48.0	-48.8	23.1	0.00e+00	0	46	0	3501195264	60	10761
2026-01-30 04:17:29.85	240.22	41.22	-47.8	-48.6	23.3	0.00e+00	0	46	0	3507486720	60	10569
2026-01-30 04:17:30.85	240.01	40.97	-47.6	-48.3	23.5	0.00e+00	0	46	0	3514826752	60	10218
2026-01-30 04:17:31.86	239.80	40.73	-46.5	-47.2	24.5	0.00e+00	0	46	0	3522166784	60	8985
2026-01-30 04:17:32.86	239.59	40.49	-45.7	-46.4	24.5	0.00e+00	0	46	0	3529506816	60	8208
2026-01-30 04:17:33.87	239.39	40.24	-45.7	-46.4	24.8	0.00e+00	0	46	0	3536846848	60	8189
2026-01-30 04:17:34.87	239.19	40.01	-46.0	-46.7	24.7	0.00e+00	0	46	0	3544186880	60	8495
2026-01-30 04:17:35.88	238.99	39.77	-46.1	-46.8	24.6	0.00e+00	0	46	0	3551526912	60	8540
2026-01-30 04:17:36.89	238.80	39.53	-46.3	-47.0	24.2	0.00e+00	0	46	0	3558866944	60	8798
2026-01-30 04:17:37.89	238.61	39.29	-46.4	-47.1	24.3	0.00e+00	0	46	0	3565158400	60	8916
2026-01-30 04:17:38.90	238.42	39.05	-46.4	-47.2	24.6	0.00e+00	0	46	0	3572498432	60	8945
2026-01-30 04:17:39.90	238.23	38.82	-46.4	-47.1	24.5	0.00e+00	0	46	0	3579838464	60	8883
2026-01-30 04:17:40.90	238.05	38.59	-46.5	-47.2	24.4	0.00e+00	0	46	0	3587178496	60	9024
2026-01-30 04:17:41.91	237.87	38.36	-46.3	-47.0	24.5	0.00e+00	0	46	0	3594518528	60	8808
2026-01-30 04:17:42.91	237.69	38.13	-46.4	-47.1	23.9	0.00e+00	0	46	0	3601858560	60	8872
2026-01-30 04:17:43.91	237.52	37.90	-46.5	-47.3	24.2	0.00e+00	0	46	0	3609198592	60	9057
2026-01-30 04:17:44.91	237.35	37.67	-46.8	-47.6	24.2	0.00e+00	0	46	0	3616538624	60	9395
2026-01-30 04:17:45.92	237.17	37.44	-47.0	-47.7	24.0	0.00e+00	0	46	0	3623878656	60	9552
2026-01-30 04:17:46.92	237.01	37.22	-47.4	-48.2	23.6	0.00e+00	0	46	0	3630170112	60	10091
2026-01-30 04:17:47.92	236.84	37.00	-47.6	-48.4	23.3	0.00e+00	0	46	0	3637510144	60	10268
2026-01-30 04:17:48.92	236.68	36.78	-47.9	-48.7	22.9	0.00e+00	0	46	0	3644850176	60	10710
2026-01-30 04:17:49.93	236.52	36.55	-48.3	-49.1	22.7	0.00e+00	0	46	0	3652190208	60	11215
2026-01-30 04:17:50.94	236.36	36.33	-48.5	-49.4	22.8	0.00e+00	0	46	0	3659530240	60	11546
2026-01-30 04:17:51.95	236.20	36.11	-48.3	-49.1	22.7	0.00e+00	0	46	0	3667918848	60	11169
2026-01-30 04:17:52.95	236.05	35.89	-48.6	-49.5	22.3	0.00e+00	0	46	0	3674210304	60	11686
2026-01-30 04:17:53.96	235.89	35.68	-49.0	-49.8	21.8	0.00e+00	0	46	0	3681550336	60	12149
2026-01-30 04:17:54.97	235.74	35.46	-48.9	-49.8	21.9	0.00e+00	0	46	0	3688890368	60	12042
2026-01-30 04:17:55.97	235.59	35.25	-49.2	-50.1	21.9	0.00e+00	0	46	0	3696230400	60	12538
2026-01-30 04:17:56.98	235.45	35.03	-49.2	-50.1	21.7	0.00e+00	0	46	0	3703570432	60	12591
2026-01-30 04:17:57.98	235.30	34.82	-49.8	-50.7	21.4	0.00e+00	0	46	0	3710910464	60	13460
2026-01-30 04:17:58.99	235.16	34.61	-50.2	-51.2	20.8	0.00e+00	0	46	0	3718250496	60	14175
2026-01-30 04:18:00.00	235.02	34.40	-50.4	-51.3	20.7	0.00e+00	0	46	0	3725590528	60	14446
2026-01-30 04:18:00.98	234.88	34.20	-50.5	-51.5	20.6	0.00e+00	0	46	0	3732930560	60	14705
2026-01-30 04:18:01.98	234.74	33.99	-51.0	-52.1	19.9	0.00e+00	0	46	0	3739222016	60	15716
2026-01-30 04:18:02.99	234.61	33.78	-51.8	-53.0	19.0	0.00e+00	0	46	0	3746562048	60	17586
2026-01-30 04:18:04.00	234.47	33.58	-52.2	-53.5	18.5	0.00e+00	0	46	0	3753902080	60	18477
2026-01-30 04:18:05.00	234.34	33.37	-52.2	-53.5	18.4	0.00e+00	0	46	0	3761242112	60	18534
2026-01-30 04:18:06.01	234.21	33.17	-52.3	-53.6	18.2	0.00e+00	0	46	0	3768582144	60	18662
2026-01-30 04:18:07.02	234.08	32.97	-53.6	-55.2	17.4	0.00e+00	0	46	0	3775922176	60	22418
2026-01-30 04:18:08.03	233.95	32.77	-54.2	-56.0	15.6	0.00e+00	0	46	0	3783262208	60	24756
2026-01-30 04:18:09.03	233.83	32.57	-54.7	-56.7	14.9	0.00e+00	0	46	0	3790602240	60	26759
2026-01-30 04:18:10.04	233.70	32.37	-55.5	-57.7	14.6	5.70e-06	0	46	0	3796893696	60	30104
2026-01-30 04:18:11.05	233.58	32.17	-55.8	-58.2	13.1	6.80e-06	0	46	0	3805282304	60	31855
2026-01-30 04:18:12.06	233.46	31.98	-56.4	-59.3	12.5	1.12e-04	0	46	0	3812622336	60	36109
2026-01-30 04:18:13.07	233.34	31.78	-56.5	-59.4	11.9	2.87e-04	0	46	0	3819962368	60	36648
2026-01-30 04:18:14.07	233.22	31.59	-56.3	-59.4	12.4	3.35e-04	0	46	0	3827302400	60	36413
2026-01-30 04:18:15.08	233.11	31.40	-56.5	-59.7	12.0	6.67e-04	0	46	0	3834642432	60	37715
2026-01-30 04:18:16.08	232.99	31.21	-56.7	-59.9	11.3	8.49e-04	0	46	0	3840933888	60	38790
2026-01-30 04:18:17.08	232.88	31.02	-56.7	-60.0	11.7	1.42e-03	0	46	0	3848273920	60	39009
2026-01-30 04:18:18.09	232.76	30.83	-57.4	-61.3	10.3	2.96e-03	0	46	0	3855613952	60	45553
2026-01-30 04:18:19.10	232.65	30.64	-57.8	-62.3	9.3	1.24e-02	0	46	0	3862953984	60	51122
2026-01-30 04:18:20.10	232.54	30.45	-58.0	-62.6	8.7	3.31e-02	0	46	0	3870294016	60	52780
2026-01-30 04:18:21.11	232.44	30.27	-58.0	-62.7	8.3	3.72e-02	0	46	0	3877634048	60	53226
2026-01-30 04:18:22.12	232.33	30.08	-58.1	-63.0	8.2	4.34e-02	0	46	0	3884974080	60	55112
2026-01-30 04:18:23.13	232.22	29.90	-58.2	-63.2	7.6	6.70e-02	0	46	0	3892314112	60	56851
2026-01-30 04:18:24.13	232.12	29.72	-58.3	-63.8	6.9	2.00e-01	0	46	0	3899654144	60	60345
2026-01-30 04:18:25.14	232.01	29.54	-58.4	-64.1	6.5	1.91e-01	0	46	0	3905945600	60	62565
2026-01-30 04:18:26.14	231.91	29.36	-58.5	-64.2	6.4	2.41e-01	0	46	0	3913285632	60	63489
2026-01-30 04:18:27.15	231.81	29.18	-58.5	-64.3	6.1	2.37e-01	0	46	0	3921674240	60	64248
2026-01-30 04:18:28.16	231.71	29.00	-58.5	-64.4	6.1	2.68e-01	0	46	0	3929014272	60	64898
2026-01-30 04:18:29.16	231.61	28.82	-52.4	-53.7	18.4	0.00e+00	0	46	0	3936354304	60	18949
2026-01-30 04:18:30.17	231.51	28.64	-46.7	-47.5	23.6	0.00e+00	0	46	0	3943694336	60	9293
2026-01-30 04:18:31.18	231.42	28.47	-52.7	-54.2	17.5	0.00e+00	0	46	0	3949985792	60	20046
2026-01-30 04:18:32.18	231.32	28.30	-46.5	-47.3	23.9	0.00e+00	0	46	0	3957325824	60	9087
2026-01-30 04:18:33.18	231.23	28.12	-45.8	-46.5	24.5	0.00e+00	0	46	0	3964665856	60	8283
2026-01-30 04:18:34.19	231.13	27.95	-45.9	-46.7	24.4	0.00e+00	0	46	0	3972005888	60	8464
2026-01-30 04:18:35.20	231.04	27.78	-46.1	-46.9	24.1	0.00e+00	0	46	0	3979345920	60	8648
2026-01-30 04:18:36.20	230.95	27.61	-46.4	-47.2	23.7	0.00e+00	0	46	0	3986685952	60	8985
2026-01-30 04:18:37.21	230.86	27.44	-46.7	-47.5	23.5	0.00e+00	0	46	0	3994025984	60	9250
2026-01-30 04:18:38.22	230.77	27.27	-46.6	-47.4	23.7	0.00e+00	0	46	0	4001366016	60	9227
2026-01-30 04:18:39.23	230.68	27.10	-46.1	-46.8	24.2	0.00e+00	0	46	0	4007657472	60	8600
2026-01-30 04:18:40.23	230.59	26.94	-45.7	-46.5	24.4	0.00e+00	0	46	0	4014997504	60	8275
2026-01-30 04:18:41.24	230.50	26.77	-45.6	-46.4	24.6	0.00e+00	0	46	0	4022337536	60	8141
2026-01-30 04:18:42.24	230.42	26.61	-45.5	-46.3	24.5	0.00e+00	0	46	0	4029677568	60	8077
2026-01-30 04:18:43.25	230.33	26.44	-45.5	-46.2	24.6	0.00e+00	0	46	0	4037017600	60	8036
2026-01-30 04:18:44.25	230.25	26.28	-45.5	-46.3	24.4	0.00e+00	0	46	0	4045406208	60	8055
2026-01-30 04:18:45.25	230.17	26.12	-45.5	-46.2	24.5	0.00e+00	0	46	0	4051697664	60	8042
2026-01-30 04:18:46.26	230.09	25.96	-45.5	-46.2	24.7	0.00e+00	0	46	0	4059037696	60	8021
2026-01-30 04:18:47.27	230.00	25.80	-45.5	-46.2	24.7	0.00e+00	0	46	0	4066377728	60	8025
2026-01-30 04:18:48.27	229.92	25.64	-45.5	-46.3	24.6	0.00e+00	0	46	0	4073717760	60	8068
2026-01-30 04:18:49.28	229.84	25.48	-45.5	-46.2	24.5	0.00e+00	0	46	0	4081057792	60	8032
2026-01-30 04:18:50.29	229.76	25.32	-45.5	-46.2	24.6	0.00e+00	0	46	0	4088397824	60	8033
2026-01-30 04:18:51.30	229.69	25.16	-45.5	-46.3	24.5	0.00e+00	0	46	0	4095737856	60	8053
2026-01-30 04:18:52.30	229.61	25.01	-45.7	-46.4	24.4	0.00e+00	0	46	0	4103077888	60	8232
2026-01-30 04:18:53.31	229.53	24.85	-45.7	-46.4	24.3	0.00e+00	0	46	0	4110417920	60	8198
2026-01-30 04:18:54.32	229.46	24.70	-45.9	-46.7	24.2	0.00e+00	0	46	0	4116709376	60	8429
2026-01-30 04:18:55.33	229.38	24.55	-46.0	-46.7	24.1	0.00e+00	0	46	0	4124049408	60	8493
2026-01-30 04:18:56.34	229.31	24.39	-46.0	-46.8	24.0	0.00e+00	0	46	0	4131389440	60	8584
2026-01-30 04:18:57.34	229.23	24.24	-46.2	-47.0	23.9	0.00e+00	0	46	0	4138729472	60	8738
2026-01-30 04:18:58.35	229.16	24.09	-46.4	-47.1	23.8	0.00e+00	0	46	0	4146069504	60	8907
2026-01-30 04:18:59.35	229.09	23.94	-46.3	-47.0	23.8	0.00e+00	0	46	0	4154458112	60	8804
2026-01-30 04:19:00.36	229.02	23.79	-46.7	-47.5	23.4	0.00e+00	0	46	0	4160749568	60	9312
2026-01-30 04:19:01.37	228.95	23.64	-46.9	-47.7	23.3	0.00e+00	0	46	0	4168089600	60	9491
2026-01-30 04:19:02.38	228.88	23.50	-47.4	-48.2	22.9	0.00e+00	0	46	0	4175429632	60	10102
2026-01-30 04:19:03.38	228.81	23.35	-47.7	-48.6	22.5	0.00e+00	0	46	0	4182769664	60	10558
2026-01-30 04:19:04.39	228.74	23.20	-47.7	-48.6	22.4	0.00e+00	0	46	0	4190109696	60	10499
2026-01-30 04:19:05.40	228.67	23.06	-47.8	-48.7	22.2	0.00e+00	0	46	0	4197449728	60	10702
2026-01-30 04:19:06.41	228.61	22.91	-47.9	-48.8	22.3	0.00e+00	0	46	0	4204789760	60	10763
2026-01-30 04:19:07.41	228.54	22.77	-48.2	-49.2	21.9	0.00e+00	0	46	0	4212129792	60	11239
2026-01-30 04:19:08.42	228.47	22.63	-48.5	-49.4	21.7	0.00e+00	0	46	0	4219469824	60	11586
2026-01-30 04:19:09.42	228.41	22.49	-48.8	-49.7	21.3	0.00e+00	0	46	0	4225761280	60	12036
2026-01-30 04:19:10.43	228.34	22.34	-49.3	-50.3	20.8	0.00e+00	0	46	0	4233101312	60	12798
2026-01-30 04:19:11.43	228.28	22.20	-49.6	-50.6	20.6	0.00e+00	0	46	0	4240441344	60	13351
2026-01-30 04:19:12.44	228.22	22.06	-49.9	-51.0	20.2	0.00e+00	0	46	0	4247781376	60	13825
2026-01-30 04:19:13.44	228.15	21.93	-50.2	-51.3	19.9	0.00e+00	0	46	0	4255121408	60	14373
2026-01-30 04:19:14.45	228.09	21.79	-50.3	-51.4	19.4	0.00e+00	0	46	0	4262461440	60	14574
2026-01-30 04:19:15.45	228.03	21.65	-50.6	-51.8	19.4	0.00e+00	0	46	0	4269801472	60	15273
2026-01-30 04:19:16.46	227.97	21.51	-51.1	-52.3	18.7	0.00e+00	0	46	0	4277141504	60	16186
2026-01-30 04:19:17.46	227.91	21.38	-51.5	-52.8	18.7	0.00e+00	0	46	0	4284481536	60	17027
2026-01-30 04:19:18.46	227.85	21.24	-51.9	-53.3	17.9	0.00e+00	0	46	0	4291821568	60	18103
2026-01-30 04:19:19.47	227.79	21.11	-52.5	-54.1	17.0	0.00e+00	0	46	0	4299161600	60	19819
2026-01-30 04:19:20.48	227.73	20.97	-53.1	-54.8	16.5	0.00e+00	0	46	0	4306501632	60	21481
2026-01-30 04:19:21.49	227.67	20.84	-53.3	-55.2	15.8	0.00e+00	0	46	0	4313841664	60	22421
2026-01-30 04:19:22.49	227.61	20.71	-53.5	-55.5	15.4	0.00e+00	0	46	0	4321181696	60	23214
2026-01-30 04:19:23.49	227.56	20.57	-53.8	-55.8	15.4	0.00e+00	0	46	0	4327473152	60	24292
2026-01-30 04:19:24.50	227.50	20.44	-54.1	-56.2	14.4	0.00e+00	0	46	0	4334813184	60	25361
2026-01-30 04:19:25.50	227.44	20.31	-54.1	-56.2	14.6	1.10e-06	0	46	0	4342153216	60	25409
2026-01-30 04:19:26.51	227.39	20.18	-54.9	-57.4	13.8	4.50e-06	0	46	0	4349493248	60	29181
2026-01-30 04:19:27.52	227.33	20.05	-55.2	-57.8	12.9	1.14e-05	0	46	0	4356833280	60	30571
2026-01-30 04:19:28.53	227.28	19.92	-55.2	-57.8	13.1	3.54e-05	0	46	0	4364173312	60	30534
2026-01-30 04:19:29.53	227.22	19.79	-55.7	-58.6	12.3	1.73e-04	0	46	0	4371513344	60	33450
2026-01-30 04:19:30.54	227.17	19.67	-55.9	-59.1	11.6	6.34e-04	0	46	0	4378853376	60	35378
2026-01-30 04:19:31.55	227.12	19.54	-56.2	-59.6	11.4	8.67e-04	0	46	0	4386193408	60	37244
2026-01-30 04:19:32.56	227.06	19.41	-56.4	-59.9	10.7	2.89e-03	0	46	0	4393533440	60	38648
