passes_logs/2026/01/30/R3.2S-Naryan-Mar/R3.2S-Naryan-Mar__20260130_080533_SUOMI_NPP_rec.log

#Pass ID: 20260130_080533_SUOMI NPP
#Satellite: SUOMI NPP
#Configuration: NPP
#almurnet v.1.7.20240730
#Start time: 2026-01-30 08:05:34

#Version: 2.2.20231116
#Station: R3.2S-Naryan-Mar
#Location: 53.008057 lon 67.646978 lat
#TLE: 1 37849U 11061A   26029.48304708  .00000140  00000+0  87283-4 0  9999
#TLE: 2 37849  98.7824 331.4079 0002024  38.4342 321.6978 14.19531488738761

#Time	Az	El	Level	Level2	SNR	BER	BlckErr	Temp	State	Recorded	gain1	gain2
2026-01-30 08:05:34.07	146.44	0.06	-62.9	-76.7	3.4	1.52e+00	0	43	0	0	60	260302
2026-01-30 08:05:35.07	146.44	0.12	-62.2	-78.9	3.6	1.51e+00	0	44	104	0	60	344893
2026-01-30 08:05:36.08	146.43	0.18	-62.4	-79.0	3.6	1.51e+00	0	44	104	0	60	350144
2026-01-30 08:05:37.08	146.43	0.24	-62.4	-79.2	3.6	1.51e+00	0	44	104	0	60	355497
2026-01-30 08:05:38.09	146.42	0.30	-62.5	-79.2	3.6	1.51e+00	0	44	104	0	60	355803
2026-01-30 08:05:39.10	146.42	0.36	-62.6	-79.2	3.6	1.51e+00	0	44	104	0	60	356498
2026-01-30 08:05:40.11	146.42	0.42	-62.6	-79.2	3.6	1.51e+00	0	44	104	0	60	357888
2026-01-30 08:05:41.11	146.41	0.48	-62.2	-79.1	3.6	1.51e+00	0	44	104	0	60	352116
2026-01-30 08:05:42.12	146.41	0.54	-62.1	-79.1	3.6	1.51e+00	0	44	104	0	60	352887
2026-01-30 08:05:43.13	146.40	0.61	-62.3	-79.3	3.6	1.51e+00	0	44	104	0	60	363539
2026-01-30 08:05:44.13	146.40	0.67	-62.5	-79.3	3.6	1.51e+00	0	44	104	0	60	359912
2026-01-30 08:05:45.14	146.40	0.73	-62.7	-79.2	3.6	1.51e+00	0	44	104	0	60	359338
2026-01-30 08:05:46.14	146.39	0.79	-63.0	-79.4	3.6	1.51e+00	0	44	104	0	60	364936
2026-01-30 08:05:47.15	146.39	0.85	-63.1	-79.4	3.6	1.51e+00	0	44	104	0	60	367137
2026-01-30 08:05:48.15	146.38	0.92	-63.1	-79.5	3.6	1.51e+00	0	44	104	0	60	368353
2026-01-30 08:05:49.16	146.38	0.98	-63.1	-79.4	3.6	1.51e+00	0	44	104	0	60	365609
2026-01-30 08:05:50.16	146.37	1.04	-63.0	-79.3	3.6	1.51e+00	0	44	104	0	60	359890
2026-01-30 08:05:51.17	146.37	1.10	-63.0	-79.3	3.6	1.51e+00	0	44	104	0	60	360740
2026-01-30 08:05:52.18	146.36	1.17	-62.8	-79.0	3.6	1.51e+00	0	44	104	0	60	350984
2026-01-30 08:05:53.19	146.36	1.23	-62.6	-79.0	3.6	1.51e+00	0	44	104	0	60	347273
2026-01-30 08:05:54.20	146.36	1.29	-62.6	-78.8	3.6	1.51e+00	0	44	104	0	60	341486
2026-01-30 08:05:55.20	146.35	1.35	-62.5	-78.8	3.6	1.51e+00	0	44	104	0	60	341639
2026-01-30 08:05:56.20	146.35	1.42	-62.5	-78.8	3.6	1.51e+00	0	44	104	0	60	342520
2026-01-30 08:05:57.21	146.34	1.48	-62.2	-78.5	3.6	1.51e+00	0	44	104	0	60	329838
2026-01-30 08:05:58.22	146.34	1.55	-62.2	-78.5	3.6	1.51e+00	0	44	104	0	60	329926
2026-01-30 08:05:59.23	146.33	1.61	-62.2	-78.4	3.6	1.51e+00	0	44	104	0	60	327444
2026-01-30 08:06:00.24	146.33	1.67	-62.0	-78.2	3.6	1.51e+00	0	44	104	0	60	319029
2026-01-30 08:06:01.24	146.32	1.74	-61.8	-78.1	3.6	1.51e+00	0	44	104	0	60	316395
2026-01-30 08:06:02.25	146.32	1.80	-61.7	-78.0	3.6	1.51e+00	0	44	104	0	60	310897
2026-01-30 08:06:03.26	146.31	1.87	-61.7	-78.0	3.6	1.51e+00	0	44	104	0	60	309708
2026-01-30 08:06:04.26	146.31	1.93	-61.5	-77.8	3.6	1.51e+00	0	44	104	0	60	302498
2026-01-30 08:06:05.26	146.30	1.99	-61.3	-77.6	3.6	1.51e+00	0	44	104	0	60	297012
2026-01-30 08:06:06.27	146.30	2.06	-61.3	-77.6	3.6	1.51e+00	0	44	104	0	60	296311
2026-01-30 08:06:07.28	146.29	2.12	-61.0	-77.4	3.6	1.51e+00	0	44	104	0	60	290825
2026-01-30 08:06:08.29	146.29	2.19	-60.8	-77.2	3.6	1.51e+00	0	44	104	0	60	284598
2026-01-30 08:06:09.30	146.28	2.25	-60.5	-76.8	3.6	1.51e+00	0	44	104	0	60	270794
2026-01-30 08:06:10.30	146.28	2.32	-59.6	-76.5	3.6	1.51e+00	0	44	104	0	60	261296
2026-01-30 08:06:11.31	146.27	2.38	-59.6	-75.9	3.6	1.51e+00	0	44	104	0	60	245657
2026-01-30 08:06:12.32	146.27	2.45	-59.3	-75.8	3.6	1.51e+00	0	44	104	0	60	241601
2026-01-30 08:06:13.33	146.26	2.52	-59.3	-75.7	3.6	1.51e+00	0	44	104	0	60	238625
2026-01-30 08:06:14.34	146.26	2.58	-59.3	-75.7	3.6	1.51e+00	0	44	104	0	60	238846
2026-01-30 08:06:15.34	146.25	2.65	-59.3	-75.6	3.6	1.51e+00	0	44	104	0	60	237437
2026-01-30 08:06:16.35	146.25	2.71	-59.2	-75.6	3.6	1.51e+00	0	45	104	0	60	237363
2026-01-30 08:06:17.36	146.24	2.78	-59.2	-75.6	3.6	1.51e+00	0	45	104	0	60	237408
2026-01-30 08:06:18.36	146.24	2.85	-59.2	-75.6	3.6	1.51e+00	0	44	104	0	60	236832
2026-01-30 08:06:19.37	146.23	2.91	-59.2	-75.6	3.6	1.51e+00	0	44	104	0	60	236615
2026-01-30 08:06:20.37	146.23	2.98	-59.2	-75.6	3.6	1.51e+00	0	44	104	0	60	236663
2026-01-30 08:06:21.38	146.22	3.05	-59.2	-75.5	3.6	1.51e+00	0	44	104	0	60	233864
2026-01-30 08:06:22.39	146.22	3.12	-59.2	-75.5	3.6	1.51e+00	0	44	104	0	60	233844
2026-01-30 08:06:23.39	146.21	3.18	-59.2	-75.4	3.6	1.51e+00	0	45	104	0	60	231930
2026-01-30 08:06:24.39	146.20	3.25	-59.2	-75.5	3.6	1.51e+00	0	45	104	0	60	232342
2026-01-30 08:06:25.39	146.20	3.32	-59.2	-75.4	3.6	1.51e+00	0	45	104	0	60	231010
2026-01-30 08:06:26.40	146.19	3.38	-59.2	-75.3	3.6	1.51e+00	0	44	104	0	60	228868
2026-01-30 08:06:27.41	146.19	3.45	-59.1	-75.3	3.5	1.51e+00	0	45	104	0	60	228792
2026-01-30 08:06:28.41	146.18	3.52	-59.1	-75.3	3.6	1.51e+00	0	45	104	0	60	229097
2026-01-30 08:06:29.42	146.18	3.59	-59.1	-75.3	3.5	1.51e+00	0	45	104	0	60	227481
2026-01-30 08:06:30.43	146.17	3.66	-59.1	-75.2	3.6	1.51e+00	0	45	104	0	60	224970
2026-01-30 08:06:31.43	146.16	3.73	-59.1	-75.1	3.6	1.51e+00	0	45	104	0	60	223360
2026-01-30 08:06:32.44	146.16	3.80	-59.1	-74.9	3.6	1.51e+00	0	44	104	0	60	216781
2026-01-30 08:06:33.45	146.15	3.86	-59.1	-74.7	3.6	1.51e+00	0	45	104	0	60	213766
2026-01-30 08:06:34.45	146.15	3.93	-59.1	-74.6	3.6	1.51e+00	0	45	104	0	60	210597
2026-01-30 08:06:35.46	146.14	4.00	-59.1	-74.5	3.6	1.51e+00	0	45	104	0	60	207971
2026-01-30 08:06:36.46	146.13	4.07	-59.1	-74.5	3.6	1.51e+00	0	45	104	0	60	207176
2026-01-30 08:06:37.47	146.13	4.14	-59.1	-74.6	3.6	1.51e+00	0	45	104	0	60	211150
2026-01-30 08:06:38.47	146.12	4.21	-59.1	-74.8	3.6	1.51e+00	0	45	104	0	60	215132
2026-01-30 08:06:39.48	146.12	4.28	-59.1	-74.9	3.6	1.51e+00	0	45	104	0	60	218239
2026-01-30 08:06:40.48	146.11	4.35	-59.0	-74.6	3.6	1.51e+00	0	45	104	0	60	211461
2026-01-30 08:06:41.49	146.10	4.42	-59.0	-73.6	3.6	1.51e+00	0	45	104	0	60	187464
2026-01-30 08:06:42.50	146.10	4.49	-58.9	-71.9	4.1	1.43e+00	0	45	104	0	60	154773
2026-01-30 08:06:43.50	146.09	4.56	-58.8	-68.8	4.8	8.76e-01	0	45	0	1048576	60	108441
2026-01-30 08:06:44.51	146.08	4.63	-58.6	-67.0	6.4	3.92e-01	0	45	0	3145728	60	88043
2026-01-30 08:06:45.52	146.08	4.71	-58.3	-65.6	8.2	1.31e-01	0	45	0	4194304	60	74479
2026-01-30 08:06:46.52	146.07	4.78	-57.9	-64.1	10.0	3.31e-02	0	45	0	6291456	60	62698
2026-01-30 08:06:47.53	146.06	4.85	-57.5	-62.8	11.4	3.03e-03	0	45	0	8388608	60	54330
2026-01-30 08:06:48.53	146.06	4.92	-57.1	-61.8	12.6	5.07e-04	0	45	0	10485760	60	47984
2026-01-30 08:06:49.54	146.05	4.99	-56.7	-60.7	13.6	3.66e-05	0	45	0	12582912	60	42606
2026-01-30 08:06:50.54	146.04	5.06	-56.3	-59.9	14.4	1.50e-06	0	45	0	13631488	60	38832
2026-01-30 08:06:51.55	146.04	5.14	-55.9	-59.1	15.3	0.00e+00	0	45	0	15728640	60	35481
2026-01-30 08:06:52.55	146.03	5.21	-55.6	-58.6	15.8	0.00e+00	0	45	0	17825792	60	33312
2026-01-30 08:06:53.55	146.02	5.28	-55.5	-58.5	15.9	0.00e+00	0	45	0	19922944	60	32826
2026-01-30 08:06:54.56	146.02	5.35	-55.3	-58.1	16.3	0.00e+00	0	45	0	20971520	60	31352
2026-01-30 08:06:55.57	146.01	5.43	-55.2	-57.9	16.5	0.00e+00	0	45	0	23068672	60	30719
2026-01-30 08:06:56.58	146.00	5.50	-55.3	-58.0	16.4	0.00e+00	0	45	0	25165824	60	31021
2026-01-30 08:06:57.58	146.00	5.57	-55.4	-58.2	16.1	0.00e+00	0	45	0	27262976	60	31829
2026-01-30 08:06:58.59	145.99	5.65	-55.7	-58.8	15.6	0.00e+00	0	45	0	29360128	60	34016
2026-01-30 08:06:59.59	145.98	5.72	-55.9	-59.1	15.3	0.00e+00	0	45	0	31457280	60	35351
2026-01-30 08:07:00.60	145.97	5.80	-56.4	-60.0	14.3	0.00e+00	0	45	0	32505856	60	39235
2026-01-30 08:07:01.60	145.97	5.87	-56.9	-61.3	12.9	1.29e-05	0	45	0	34603008	60	45642
2026-01-30 08:07:02.61	145.96	5.95	-57.3	-62.2	11.7	7.55e-05	0	45	0	36700160	60	50247
2026-01-30 08:07:03.61	145.95	6.02	-57.8	-63.6	10.2	2.61e-03	0	45	0	38797312	60	59500
2026-01-30 08:07:04.62	145.94	6.09	-57.2	-61.9	14.0	1.84e-02	0	45	0	40894464	60	48490
2026-01-30 08:07:05.62	145.94	6.17	-55.1	-57.7	16.8	0.00e+00	0	45	0	41943040	60	29985
2026-01-30 08:07:06.63	145.93	6.25	-56.8	-61.0	10.5	7.00e-07	0	45	0	44040192	60	43723
2026-01-30 08:07:07.63	145.92	6.32	-58.8	-70.6	4.7	1.51e+00	0	45	104	44040192	60	133097
2026-01-30 08:07:08.64	145.91	6.40	-55.7	-58.8	15.3	1.06e+00	0	45	104	44040192	60	33950
2026-01-30 08:07:09.65	145.91	6.47	-56.8	-60.7	14.0	2.20e-06	0	45	0	1048576	60	42524
2026-01-30 08:07:10.65	145.90	6.55	-56.0	-59.2	15.5	0.00e+00	0	45	0	3145728	60	35592
2026-01-30 08:07:11.66	145.89	6.63	-55.8	-58.7	15.8	0.00e+00	0	45	0	4194304	60	33733
2026-01-30 08:07:12.66	145.88	6.70	-55.6	-58.5	16.1	0.00e+00	0	45	0	6291456	60	32834
2026-01-30 08:07:13.67	145.87	6.78	-55.6	-58.4	16.1	0.00e+00	0	45	0	8388608	60	32766
2026-01-30 08:07:14.68	145.87	6.86	-55.8	-58.7	15.8	0.00e+00	0	45	0	10485760	60	33882
2026-01-30 08:07:15.69	145.86	6.93	-55.2	-57.8	16.9	0.00e+00	0	45	0	12582912	60	30365
2026-01-30 08:07:16.70	145.85	7.01	-54.9	-57.3	17.4	0.00e+00	0	45	0	13631488	60	28623
2026-01-30 08:07:17.70	145.84	7.09	-54.9	-57.3	17.5	0.00e+00	0	45	0	15728640	60	28570
2026-01-30 08:07:18.71	145.83	7.17	-54.7	-57.0	17.6	0.00e+00	0	45	0	17825792	60	27737
2026-01-30 08:07:19.71	145.83	7.25	-54.7	-57.0	17.6	0.00e+00	0	45	0	19922944	60	27706
2026-01-30 08:07:20.72	145.82	7.33	-54.7	-57.1	17.6	0.00e+00	0	45	0	22020096	60	27950
2026-01-30 08:07:21.72	145.81	7.40	-54.6	-56.8	17.8	0.00e+00	0	45	0	23068672	60	27214
2026-01-30 08:07:22.73	145.80	7.48	-54.8	-57.1	17.6	0.00e+00	0	45	0	25165824	60	28091
2026-01-30 08:07:23.73	145.79	7.56	-54.8	-57.1	17.6	0.00e+00	0	45	0	27262976	60	28179
2026-01-30 08:07:24.74	145.78	7.64	-54.7	-57.0	17.7	0.00e+00	0	45	0	29360128	60	27717
2026-01-30 08:07:25.74	145.77	7.72	-54.7	-57.1	17.6	0.00e+00	0	45	0	31457280	60	28012
2026-01-30 08:07:26.75	145.77	7.80	-54.7	-57.0	17.7	0.00e+00	0	45	0	32505856	60	27885
2026-01-30 08:07:27.76	145.76	7.88	-54.6	-56.8	17.8	0.00e+00	0	45	0	34603008	60	27181
2026-01-30 08:07:28.76	145.75	7.96	-54.6	-56.9	17.8	0.00e+00	0	45	0	36700160	60	27441
2026-01-30 08:07:29.77	145.74	8.04	-54.6	-56.8	17.9	0.00e+00	0	45	0	38797312	60	27223
2026-01-30 08:07:30.78	145.73	8.13	-54.6	-56.9	17.8	0.00e+00	0	45	0	40894464	60	27538
2026-01-30 08:07:31.78	145.72	8.21	-54.5	-56.7	18.1	0.00e+00	0	45	0	41943040	60	26711
2026-01-30 08:07:32.79	145.71	8.29	-54.4	-56.6	18.1	0.00e+00	0	45	0	44040192	60	26404
2026-01-30 08:07:33.80	145.70	8.37	-54.4	-56.5	18.2	0.00e+00	0	45	0	46137344	60	26262
2026-01-30 08:07:34.81	145.69	8.45	-54.3	-56.4	18.2	0.00e+00	0	45	0	48234496	60	25940
2026-01-30 08:07:35.82	145.68	8.54	-54.3	-56.5	18.3	0.00e+00	0	45	0	50331648	60	26062
2026-01-30 08:07:36.83	145.67	8.62	-54.3	-56.5	18.1	0.00e+00	0	45	0	51380224	60	26255
2026-01-30 08:07:37.83	145.66	8.70	-54.2	-56.3	18.4	0.00e+00	0	45	0	53477376	60	25709
2026-01-30 08:07:38.84	145.65	8.79	-54.3	-56.4	18.3	0.00e+00	0	45	0	55574528	60	25976
2026-01-30 08:07:39.85	145.64	8.87	-54.1	-56.2	18.6	0.00e+00	0	45	0	57671680	60	25306
2026-01-30 08:07:40.85	145.63	8.95	-54.0	-56.1	18.7	0.00e+00	0	45	0	59768832	60	25074
2026-01-30 08:07:41.86	145.62	9.04	-54.2	-56.3	18.5	0.00e+00	0	45	0	60817408	60	25701
2026-01-30 08:07:42.87	145.61	9.12	-54.1	-56.3	18.6	0.00e+00	0	45	0	62914560	60	25519
2026-01-30 08:07:43.88	145.60	9.21	-54.1	-56.2	18.6	0.00e+00	0	45	0	65011712	60	25211
2026-01-30 08:07:44.88	145.59	9.29	-54.0	-56.0	18.9	0.00e+00	0	45	0	67108864	60	24641
2026-01-30 08:07:45.89	145.58	9.38	-53.9	-55.9	18.9	0.00e+00	0	45	0	69206016	60	24545
2026-01-30 08:07:46.90	145.57	9.46	-54.1	-56.1	18.8	0.00e+00	0	45	0	71303168	60	25148
2026-01-30 08:07:47.90	145.56	9.55	-54.1	-56.1	18.9	0.00e+00	0	45	0	72351744	60	25042
2026-01-30 08:07:48.90	145.55	9.63	-54.1	-56.1	18.8	0.00e+00	0	45	0	74448896	60	25031
2026-01-30 08:07:49.91	145.54	9.72	-54.1	-56.1	18.8	0.00e+00	0	45	0	76546048	60	24887
2026-01-30 08:07:50.92	145.53	9.81	-54.1	-56.1	18.8	0.00e+00	0	45	0	78643200	60	24916
2026-01-30 08:07:51.93	145.52	9.90	-54.1	-56.0	18.9	0.00e+00	0	45	0	79691776	60	24744
2026-01-30 08:07:52.94	145.51	9.98	-54.1	-56.0	19.0	0.00e+00	0	45	0	81788928	60	24620
2026-01-30 08:07:53.95	145.50	10.07	-54.0	-55.9	19.1	0.00e+00	0	45	0	83886080	60	24374
2026-01-30 08:07:54.95	145.49	10.16	-54.2	-56.0	18.9	0.00e+00	0	45	0	85983232	60	24857
2026-01-30 08:07:55.96	145.48	10.25	-54.0	-55.8	19.1	0.00e+00	0	45	0	88080384	60	24286
2026-01-30 08:07:56.97	145.47	10.34	-53.9	-55.7	19.2	0.00e+00	0	45	0	89128960	60	23791
2026-01-30 08:07:57.97	145.46	10.43	-54.0	-55.8	19.1	0.00e+00	0	45	0	91226112	60	24112
2026-01-30 08:07:58.98	145.44	10.51	-53.9	-55.6	19.3	0.00e+00	0	45	0	93323264	60	23620
2026-01-30 08:07:59.99	145.43	10.60	-54.0	-55.8	19.1	0.00e+00	0	45	0	95420416	60	24271
2026-01-30 08:08:00.99	145.42	10.69	-53.9	-55.7	19.2	0.00e+00	0	45	0	97517568	60	23953
2026-01-30 08:08:01.99	145.41	10.78	-53.8	-55.5	19.3	0.00e+00	0	45	0	99614720	60	23434
2026-01-30 08:08:02.99	145.40	10.87	-53.9	-55.7	19.4	0.00e+00	0	45	0	100663296	60	23764
2026-01-30 08:08:04.00	145.39	10.97	-53.9	-55.6	19.3	0.00e+00	0	45	0	102760448	60	23685
2026-01-30 08:08:05.00	145.38	11.06	-53.8	-55.5	19.4	0.00e+00	0	45	0	104857600	60	23374
2026-01-30 08:08:06.01	145.36	11.15	-53.8	-55.5	19.3	0.00e+00	0	45	0	106954752	60	23378
2026-01-30 08:08:07.01	145.35	11.24	-53.8	-55.6	19.4	0.00e+00	0	45	0	108003328	60	23583
2026-01-30 08:08:08.02	145.34	11.33	-53.9	-55.7	19.2	0.00e+00	0	45	0	110100480	60	23815
2026-01-30 08:08:09.02	145.33	11.42	-53.8	-55.6	19.3	0.00e+00	0	45	0	112197632	60	23672
2026-01-30 08:08:10.02	145.31	11.52	-53.9	-55.7	19.3	0.00e+00	0	45	0	114294784	60	23914
2026-01-30 08:08:11.03	145.30	11.61	-53.8	-55.6	19.4	0.00e+00	0	45	0	116391936	60	23571
2026-01-30 08:08:12.03	145.29	11.70	-53.7	-55.5	19.5	0.00e+00	0	45	0	117440512	60	23294
2026-01-30 08:08:13.04	145.28	11.80	-53.7	-55.5	19.6	0.00e+00	0	45	0	119537664	60	23305
2026-01-30 08:08:14.05	145.26	11.89	-53.8	-55.5	19.3	0.00e+00	0	45	0	121634816	60	23439
2026-01-30 08:08:15.05	145.25	11.99	-53.7	-55.4	19.5	0.00e+00	0	45	0	123731968	60	23154
2026-01-30 08:08:16.06	145.24	12.08	-53.7	-55.5	19.4	0.00e+00	0	45	0	125829120	60	23237
2026-01-30 08:08:17.07	145.23	12.18	-53.6	-55.3	19.6	0.00e+00	0	45	0	126877696	60	22843
2026-01-30 08:08:18.07	145.21	12.27	-53.5	-55.2	19.7	0.00e+00	0	45	0	128974848	60	22485
2026-01-30 08:08:19.08	145.20	12.37	-53.5	-55.2	19.8	0.00e+00	0	45	0	131072000	60	22429
2026-01-30 08:08:20.08	145.19	12.47	-53.5	-55.2	19.7	0.00e+00	0	45	0	133169152	60	22456
2026-01-30 08:08:21.09	145.17	12.56	-53.5	-55.1	19.8	0.00e+00	0	45	0	135266304	60	22243
2026-01-30 08:08:22.09	145.16	12.66	-53.6	-55.2	19.7	0.00e+00	0	45	0	136314880	60	22623
2026-01-30 08:08:23.10	145.15	12.76	-53.6	-55.2	19.8	0.00e+00	0	45	0	138412032	60	22547
2026-01-30 08:08:24.11	145.13	12.86	-53.7	-55.3	19.7	0.00e+00	0	45	0	140509184	60	22873
2026-01-30 08:08:25.11	145.12	12.96	-53.5	-55.2	19.8	0.00e+00	0	45	0	142606336	60	22497
2026-01-30 08:08:26.12	145.10	13.05	-53.6	-55.3	19.7	0.00e+00	0	45	0	144703488	60	22687
2026-01-30 08:08:27.13	145.09	13.15	-53.6	-55.3	19.8	0.00e+00	0	45	0	145752064	60	22716
2026-01-30 08:08:28.13	145.08	13.25	-53.7	-55.4	19.7	0.00e+00	0	45	0	147849216	60	23011
2026-01-30 08:08:29.14	145.06	13.35	-53.6	-55.2	19.7	0.00e+00	0	45	0	149946368	60	22667
2026-01-30 08:08:30.14	145.05	13.45	-53.7	-55.4	19.7	0.00e+00	0	45	0	152043520	60	22960
2026-01-30 08:08:31.15	145.03	13.56	-53.7	-55.4	19.7	0.00e+00	0	45	0	154140672	60	23067
2026-01-30 08:08:32.15	145.02	13.66	-53.9	-55.7	19.5	0.00e+00	0	45	0	155189248	60	23827
2026-01-30 08:08:33.15	145.00	13.76	-53.9	-55.6	19.6	0.00e+00	0	45	0	157286400	60	23629
2026-01-30 08:08:34.16	144.99	13.86	-53.9	-55.6	19.5	0.00e+00	0	45	0	159383552	60	23631
2026-01-30 08:08:35.17	144.97	13.96	-54.0	-55.8	19.5	0.00e+00	0	45	0	161480704	60	24037
2026-01-30 08:08:36.17	144.96	14.07	-53.9	-55.6	19.6	0.00e+00	0	45	0	162529280	60	23482
2026-01-30 08:08:37.18	144.94	14.17	-53.9	-55.6	19.5	0.00e+00	0	45	0	164626432	60	23521
2026-01-30 08:08:38.19	144.93	14.27	-54.0	-55.7	19.4	0.00e+00	0	45	0	166723584	60	23964
2026-01-30 08:08:39.20	144.91	14.38	-53.8	-55.4	19.7	0.00e+00	0	45	0	168820736	60	23107
2026-01-30 08:08:40.20	144.90	14.48	-53.8	-55.5	19.7	0.00e+00	0	45	0	170917888	60	23213
2026-01-30 08:08:41.21	144.88	14.59	-53.7	-55.3	19.8	0.00e+00	0	45	0	173015040	60	22829
2026-01-30 08:08:42.22	144.86	14.70	-53.7	-55.3	19.8	0.00e+00	0	45	0	174063616	60	22923
2026-01-30 08:08:43.23	144.85	14.80	-53.6	-55.2	20.0	0.00e+00	0	45	0	176160768	60	22634
2026-01-30 08:08:44.24	144.83	14.91	-53.7	-55.3	19.9	0.00e+00	0	45	0	178257920	60	22854
2026-01-30 08:08:45.24	144.81	15.02	-53.6	-55.2	19.9	0.00e+00	0	45	0	180355072	60	22505
2026-01-30 08:08:46.25	144.80	15.12	-53.5	-55.0	20.2	0.00e+00	0	45	0	182452224	60	22103
2026-01-30 08:08:47.25	144.78	15.23	-53.4	-54.9	20.2	0.00e+00	0	45	0	183500800	60	21838
2026-01-30 08:08:48.26	144.76	15.34	-53.4	-55.0	20.2	0.00e+00	0	45	0	185597952	60	21973
2026-01-30 08:08:49.27	144.75	15.45	-53.4	-54.9	20.2	0.00e+00	0	45	0	187695104	60	21862
2026-01-30 08:08:50.26	144.73	15.56	-53.4	-54.9	20.4	0.00e+00	0	45	0	189792256	60	21841
2026-01-30 08:08:51.27	144.71	15.67	-53.3	-54.8	20.4	0.00e+00	0	45	0	190840832	60	21501
2026-01-30 08:08:52.28	144.69	15.78	-53.2	-54.7	20.5	0.00e+00	0	45	0	192937984	60	21238
2026-01-30 08:08:53.28	144.68	15.89	-53.2	-54.7	20.5	0.00e+00	0	45	0	195035136	60	21304
2026-01-30 08:08:54.29	144.66	16.00	-53.2	-54.7	20.5	0.00e+00	0	45	0	197132288	60	21190
2026-01-30 08:08:55.30	144.64	16.12	-53.2	-54.7	20.5	0.00e+00	0	45	0	199229440	60	21204
2026-01-30 08:08:56.30	144.62	16.23	-53.3	-54.8	20.4	0.00e+00	0	45	0	201326592	60	21455
2026-01-30 08:08:57.32	144.60	16.34	-53.1	-54.6	20.6	0.00e+00	0	45	0	202375168	60	21094
2026-01-30 08:08:58.32	144.59	16.46	-52.9	-54.4	20.7	0.00e+00	0	45	0	204472320	60	20520
2026-01-30 08:08:59.33	144.57	16.57	-52.9	-54.3	20.7	0.00e+00	0	45	0	206569472	60	20357
2026-01-30 08:09:00.33	144.55	16.68	-52.9	-54.3	20.8	0.00e+00	0	45	0	208666624	60	20396
2026-01-30 08:09:01.34	144.53	16.80	-52.9	-54.3	20.7	0.00e+00	0	45	0	210763776	60	20388
2026-01-30 08:09:02.35	144.51	16.92	-52.9	-54.3	20.8	0.00e+00	0	45	0	211812352	60	20292
2026-01-30 08:09:03.35	144.49	17.03	-52.7	-54.1	20.9	0.00e+00	0	45	0	213909504	60	19855
2026-01-30 08:09:04.36	144.47	17.15	-52.8	-54.2	20.9	0.00e+00	0	45	0	216006656	60	20086
2026-01-30 08:09:05.36	144.45	17.27	-52.8	-54.1	20.8	0.00e+00	0	45	0	218103808	60	19978
2026-01-30 08:09:06.37	144.43	17.38	-52.6	-54.0	21.0	0.00e+00	0	45	0	219152384	60	19631
2026-01-30 08:09:07.38	144.41	17.50	-52.8	-54.1	20.9	0.00e+00	0	45	0	221249536	60	19968
2026-01-30 08:09:08.38	144.39	17.62	-52.8	-54.2	20.9	0.00e+00	0	45	0	223346688	60	20020
2026-01-30 08:09:09.39	144.37	17.74	-52.9	-54.3	20.7	0.00e+00	0	45	0	225443840	60	20274
2026-01-30 08:09:10.39	144.35	17.86	-52.8	-54.2	20.8	0.00e+00	0	45	0	227540992	60	20113
2026-01-30 08:09:11.40	144.33	17.98	-52.9	-54.3	20.8	0.00e+00	0	45	0	229638144	60	20369
2026-01-30 08:09:12.40	144.31	18.10	-52.8	-54.3	20.8	0.00e+00	0	45	0	230686720	60	20274
2026-01-30 08:09:13.41	144.29	18.23	-52.9	-54.3	20.9	0.00e+00	0	45	0	232783872	60	20276
2026-01-30 08:09:14.41	144.27	18.35	-52.7	-54.1	20.9	0.00e+00	0	45	0	234881024	60	19939
2026-01-30 08:09:15.42	144.25	18.47	-52.8	-54.2	20.8	0.00e+00	0	45	0	236978176	60	20136
2026-01-30 08:09:16.42	144.22	18.60	-52.7	-54.1	20.9	0.00e+00	0	45	0	239075328	60	19861
2026-01-30 08:09:17.43	144.20	18.72	-52.8	-54.2	20.8	0.00e+00	0	45	0	240123904	60	20151
2026-01-30 08:09:18.43	144.18	18.85	-52.7	-54.1	20.9	0.00e+00	0	45	0	242221056	60	19916
2026-01-30 08:09:19.43	144.16	18.97	-52.7	-54.1	20.9	0.00e+00	0	45	0	244318208	60	19813
2026-01-30 08:09:20.44	144.14	19.10	-52.8	-54.2	20.9	0.00e+00	0	45	0	246415360	60	19981
2026-01-30 08:09:21.44	144.11	19.22	-52.7	-54.1	21.0	0.00e+00	0	45	0	247463936	60	19774
2026-01-30 08:09:22.45	144.09	19.35	-52.7	-54.0	21.0	0.00e+00	0	45	0	249561088	60	19721
2026-01-30 08:09:23.45	144.07	19.48	-52.8	-54.2	20.9	0.00e+00	0	45	0	251658240	60	20143
2026-01-30 08:09:24.46	144.04	19.61	-52.8	-54.2	20.9	0.00e+00	0	45	0	253755392	60	20175
2026-01-30 08:09:25.46	144.02	19.74	-53.0	-54.4	20.9	0.00e+00	0	45	0	255852544	60	20567
2026-01-30 08:09:26.47	144.00	19.87	-52.9	-54.3	20.7	0.00e+00	0	45	0	256901120	60	20411
2026-01-30 08:09:27.48	143.97	20.00	-52.9	-54.3	20.8	0.00e+00	0	45	0	258998272	60	20304
2026-01-30 08:09:28.48	143.95	20.13	-53.0	-54.4	20.9	0.00e+00	0	45	0	261095424	60	20508
2026-01-30 08:09:29.49	143.92	20.26	-53.0	-54.4	20.9	0.00e+00	0	45	0	263192576	60	20578
2026-01-30 08:09:30.50	143.90	20.40	-52.9	-54.3	20.8	0.00e+00	0	45	0	265289728	60	20369
2026-01-30 08:09:31.50	143.87	20.53	-53.0	-54.4	20.8	0.00e+00	0	45	0	267386880	60	20645
2026-01-30 08:09:32.50	143.85	20.67	-53.0	-54.4	20.8	0.00e+00	0	45	0	268435456	60	20636
2026-01-30 08:09:33.51	143.82	20.80	-53.1	-54.6	20.7	0.00e+00	0	45	0	270532608	60	20950
2026-01-30 08:09:34.52	143.80	20.94	-53.0	-54.4	20.9	0.00e+00	0	45	0	272629760	60	20530
2026-01-30 08:09:35.52	143.77	21.07	-53.0	-54.3	20.9	0.00e+00	0	45	0	274726912	60	20414
2026-01-30 08:09:36.52	143.74	21.21	-52.8	-54.1	21.2	0.00e+00	0	45	0	275775488	60	19763
2026-01-30 08:09:37.52	143.72	21.35	-52.7	-54.0	21.2	0.00e+00	0	45	0	277872640	60	19727
2026-01-30 08:09:38.53	143.69	21.49	-52.8	-54.1	21.1	0.00e+00	0	45	0	279969792	60	19871
2026-01-30 08:09:39.53	143.66	21.63	-52.7	-54.0	21.2	0.00e+00	0	45	0	282066944	60	19673
2026-01-30 08:09:40.54	143.63	21.77	-52.7	-54.0	21.3	0.00e+00	0	45	0	284164096	60	19606
2026-01-30 08:09:41.54	143.61	21.91	-52.9	-54.2	21.2	0.00e+00	0	45	0	285212672	60	20086
2026-01-30 08:09:42.55	143.58	22.05	-52.7	-54.0	21.2	0.00e+00	0	45	0	287309824	60	19702
2026-01-30 08:09:43.56	143.55	22.19	-52.7	-54.0	21.2	0.00e+00	0	45	0	289406976	60	19695
2026-01-30 08:09:44.57	143.52	22.34	-52.8	-54.1	21.3	0.00e+00	0	45	0	291504128	60	19759
2026-01-30 08:09:45.58	143.49	22.48	-52.7	-54.0	21.3	0.00e+00	0	45	0	293601280	60	19637
2026-01-30 08:09:46.58	143.46	22.63	-53.0	-54.3	21.1	0.00e+00	0	45	0	295698432	60	20320
2026-01-30 08:09:47.59	143.43	22.77	-52.8	-54.1	21.3	0.00e+00	0	45	0	296747008	60	19791
2026-01-30 08:09:48.60	143.40	22.92	-52.6	-53.9	21.5	0.00e+00	0	45	0	298844160	60	19313
2026-01-30 08:09:49.61	143.37	23.07	-52.8	-54.0	21.3	0.00e+00	0	45	0	300941312	60	19723
2026-01-30 08:09:50.61	143.34	23.22	-52.6	-53.8	21.5	0.00e+00	0	45	0	303038464	60	19231
2026-01-30 08:09:51.62	143.31	23.37	-52.5	-53.7	21.6	0.00e+00	0	45	0	304087040	60	18991
2026-01-30 08:09:52.62	143.28	23.52	-52.5	-53.7	21.5	0.00e+00	0	45	0	306184192	60	19006
2026-01-30 08:09:53.63	143.25	23.67	-52.4	-53.6	21.7	0.00e+00	0	45	0	308281344	60	18768
2026-01-30 08:09:54.63	143.22	23.82	-52.5	-53.7	21.5	0.00e+00	0	45	0	310378496	60	19077
2026-01-30 08:09:55.64	143.19	23.97	-52.4	-53.6	21.8	0.00e+00	0	45	0	312475648	60	18833
2026-01-30 08:09:56.65	143.15	24.13	-52.5	-53.7	21.7	0.00e+00	0	45	0	313524224	60	18899
2026-01-30 08:09:57.65	143.12	24.28	-52.7	-54.0	21.5	0.00e+00	0	45	0	315621376	60	19643
2026-01-30 08:09:58.66	143.09	24.44	-52.6	-53.9	21.5	0.00e+00	0	45	0	317718528	60	19370
2026-01-30 08:09:59.67	143.05	24.60	-52.7	-54.0	21.4	0.00e+00	0	45	0	319815680	60	19626
2026-01-30 08:10:00.68	143.02	24.75	-52.9	-54.2	21.3	0.00e+00	0	45	0	321912832	60	20052
2026-01-30 08:10:01.68	142.99	24.91	-53.0	-54.4	21.2	0.00e+00	0	45	0	324009984	60	20468
2026-01-30 08:10:02.69	142.95	25.07	-53.4	-54.8	20.8	0.00e+00	0	45	0	325058560	60	21490
2026-01-30 08:10:03.70	142.92	25.23	-53.2	-54.6	20.9	0.00e+00	0	45	0	327155712	60	21091
2026-01-30 08:10:04.71	142.88	25.39	-53.4	-54.8	20.8	0.00e+00	0	45	0	329252864	60	21462
2026-01-30 08:10:05.71	142.84	25.56	-53.5	-54.9	20.7	0.00e+00	0	45	0	331350016	60	21767
2026-01-30 08:10:06.72	142.81	25.72	-53.3	-54.7	20.7	0.00e+00	0	45	0	332398592	60	21364
2026-01-30 08:10:07.72	142.77	25.88	-53.1	-54.4	20.8	0.00e+00	0	45	0	334495744	60	20678
2026-01-30 08:10:08.72	142.73	26.05	-53.1	-54.4	21.0	0.00e+00	0	45	0	336592896	60	20591
2026-01-30 08:10:09.73	142.70	26.21	-52.9	-54.2	21.3	0.00e+00	0	45	0	338690048	60	20137
2026-01-30 08:10:10.74	142.66	26.38	-53.0	-54.3	21.1	0.00e+00	0	45	0	340787200	60	20354
2026-01-30 08:10:11.75	142.62	26.55	-52.8	-54.0	21.4	0.00e+00	0	45	0	341835776	60	19738
2026-01-30 08:10:12.75	142.58	26.72	-52.9	-54.2	21.3	0.00e+00	0	45	0	343932928	60	20025
2026-01-30 08:10:13.76	142.54	26.89	-53.2	-54.5	21.1	0.00e+00	0	45	0	346030080	60	20809
2026-01-30 08:10:14.76	142.50	27.06	-53.2	-54.6	21.0	0.00e+00	0	45	0	348127232	60	20940
2026-01-30 08:10:15.77	142.46	27.23	-53.3	-54.7	20.8	0.00e+00	0	45	0	350224384	60	21173
2026-01-30 08:10:16.78	142.42	27.41	-53.3	-54.7	20.8	0.00e+00	0	45	0	351272960	60	21272
2026-01-30 08:10:17.78	142.38	27.58	-53.6	-55.1	20.5	0.00e+00	0	45	0	353370112	60	22249
2026-01-30 08:10:18.78	142.34	27.76	-53.8	-55.3	20.4	0.00e+00	0	45	0	355467264	60	22851
2026-01-30 08:10:19.78	142.30	27.93	-53.8	-55.2	20.4	0.00e+00	0	45	0	357564416	60	22665
2026-01-30 08:10:20.79	142.25	28.11	-53.7	-55.1	20.5	0.00e+00	0	45	0	359661568	60	22309
2026-01-30 08:10:21.80	142.21	28.29	-53.5	-54.9	20.8	0.00e+00	0	45	0	360710144	60	21842
2026-01-30 08:10:22.81	142.17	28.47	-53.6	-55.1	20.6	0.00e+00	0	45	0	362807296	60	22215
2026-01-30 08:10:23.81	142.12	28.65	-53.7	-55.1	20.7	0.00e+00	0	45	0	364904448	60	22376
2026-01-30 08:10:24.82	142.08	28.84	-53.4	-54.7	20.8	0.00e+00	0	45	0	367001600	60	21341
2026-01-30 08:10:25.82	142.03	29.02	-53.5	-54.9	20.7	0.00e+00	0	45	0	369098752	60	21710
2026-01-30 08:10:26.83	141.99	29.20	-53.6	-55.0	20.6	0.00e+00	0	45	0	370147328	60	22076
2026-01-30 08:10:27.83	141.94	29.39	-53.9	-55.4	20.3	0.00e+00	0	45	0	372244480	60	22988
2026-01-30 08:10:28.84	141.89	29.58	-54.2	-55.8	20.0	0.00e+00	0	45	0	374341632	60	24260
2026-01-30 08:10:29.85	141.84	29.77	-54.5	-56.1	19.8	0.00e+00	0	45	0	376438784	60	25136
2026-01-30 08:10:30.85	141.80	29.95	-54.6	-56.3	19.5	0.00e+00	0	45	0	378535936	60	25650
2026-01-30 08:10:31.86	141.75	30.15	-54.8	-56.6	19.3	0.00e+00	0	45	0	379584512	60	26370
2026-01-30 08:10:32.86	141.70	30.34	-54.7	-56.4	19.3	0.00e+00	0	45	0	381681664	60	25987
2026-01-30 08:10:33.87	141.65	30.53	-54.8	-56.6	19.3	0.00e+00	0	45	0	383778816	60	26406
2026-01-30 08:10:34.87	141.60	30.73	-54.5	-56.2	19.6	0.00e+00	0	45	0	385875968	60	25273
2026-01-30 08:10:35.88	141.55	30.92	-54.3	-55.9	19.9	0.00e+00	0	45	0	387973120	60	24573
2026-01-30 08:10:36.89	141.49	31.12	-54.2	-55.7	20.0	0.00e+00	0	45	0	389021696	60	23895
2026-01-30 08:10:37.89	141.44	31.32	-54.2	-55.8	20.1	0.00e+00	0	45	0	391118848	60	24128
2026-01-30 08:10:38.90	141.39	31.52	-54.4	-56.0	19.8	0.00e+00	0	45	0	393216000	60	24627
2026-01-30 08:10:39.91	141.33	31.72	-54.5	-56.1	19.8	0.00e+00	0	45	0	395313152	60	24951
2026-01-30 08:10:40.91	141.28	31.92	-55.0	-56.8	19.1	0.00e+00	0	45	0	397410304	60	27013
2026-01-30 08:10:41.91	141.22	32.13	-55.6	-57.6	18.3	0.00e+00	0	45	0	398458880	60	29680
2026-01-30 08:10:42.92	141.17	32.33	-55.6	-57.7	18.4	0.00e+00	0	45	0	400556032	60	29913
2026-01-30 08:10:43.92	141.11	32.54	-55.8	-57.8	18.2	0.00e+00	0	45	0	402653184	60	30528
2026-01-30 08:10:44.93	141.05	32.75	-55.8	-57.9	18.2	0.00e+00	0	45	0	404750336	60	30609
2026-01-30 08:10:45.93	140.99	32.96	-56.1	-58.3	17.8	0.00e+00	0	45	0	406847488	60	32397
2026-01-30 08:10:46.94	140.93	33.17	-55.8	-57.9	18.2	0.00e+00	0	45	0	407896064	60	30724
2026-01-30 08:10:47.95	140.87	33.38	-55.7	-57.7	18.3	0.00e+00	0	45	0	409993216	60	30094
2026-01-30 08:10:48.95	140.81	33.59	-56.0	-58.2	17.9	0.00e+00	0	45	0	412090368	60	31812
2026-01-30 08:10:49.94	140.75	33.81	-56.3	-58.7	17.4	0.00e+00	0	45	0	414187520	60	33693
2026-01-30 08:10:50.95	140.69	34.02	-56.1	-58.3	17.6	0.00e+00	0	45	0	416284672	60	32244
2026-01-30 08:10:51.96	140.62	34.24	-56.4	-58.8	17.2	0.00e+00	0	45	0	417333248	60	34057
2026-01-30 08:10:52.96	140.56	34.46	-56.5	-58.9	17.3	0.00e+00	0	45	0	419430400	60	34565
2026-01-30 08:10:53.97	140.49	34.68	-56.7	-59.2	17.2	0.00e+00	0	45	0	421527552	60	35580
2026-01-30 08:10:54.98	140.43	34.91	-56.1	-58.3	18.0	0.00e+00	0	45	0	423624704	60	32095
2026-01-30 08:10:55.98	140.36	35.13	-55.5	-57.4	19.0	0.00e+00	0	45	0	425721856	60	29060
2026-01-30 08:10:56.98	140.29	35.35	-55.3	-57.2	19.0	0.00e+00	0	45	0	426770432	60	28544
2026-01-30 08:10:57.98	140.22	35.58	-54.9	-56.7	19.3	0.00e+00	0	45	0	428867584	60	26753
2026-01-30 08:10:58.99	140.15	35.81	-54.6	-56.3	19.5	0.00e+00	0	45	0	430964736	60	25457
2026-01-30 08:10:59.99	140.08	36.04	-54.9	-56.7	19.3	0.00e+00	0	45	0	433061888	60	26834
2026-01-30 08:11:01.00	140.01	36.27	-55.3	-57.3	19.0	0.00e+00	0	45	0	435159040	60	28652
2026-01-30 08:11:02.01	139.93	36.51	-55.5	-57.4	18.6	0.00e+00	0	45	0	436207616	60	29198
2026-01-30 08:11:03.01	139.86	36.74	-55.6	-57.6	18.3	0.00e+00	0	45	0	438304768	60	29672
2026-01-30 08:11:04.02	139.78	36.98	-55.5	-57.4	18.9	0.00e+00	0	45	0	440401920	60	29167
2026-01-30 08:11:05.02	139.70	37.22	-55.4	-57.4	18.7	0.00e+00	0	45	0	442499072	60	29050
2026-01-30 08:11:06.03	139.63	37.46	-54.9	-56.7	19.3	0.00e+00	0	45	0	444596224	60	26675
2026-01-30 08:11:07.03	139.55	37.70	-54.3	-55.8	19.9	0.00e+00	0	45	0	445644800	60	24294
2026-01-30 08:11:08.04	139.47	37.95	-54.1	-55.6	20.3	0.00e+00	0	45	0	447741952	60	23573
2026-01-30 08:11:09.05	139.38	38.19	-54.1	-55.6	20.2	0.00e+00	0	45	0	449839104	60	23597
2026-01-30 08:11:10.05	139.30	38.44	-54.1	-55.6	20.2	0.00e+00	0	45	0	451936256	60	23688
2026-01-30 08:11:11.06	139.22	38.69	-54.2	-55.8	20.1	0.00e+00	0	45	0	452984832	60	24157
2026-01-30 08:11:12.07	139.13	38.94	-54.9	-56.8	19.1	0.00e+00	0	45	0	455081984	60	27127
2026-01-30 08:11:13.08	139.04	39.19	-55.1	-57.0	19.0	0.00e+00	0	45	0	457179136	60	27697
2026-01-30 08:11:14.09	138.95	39.45	-55.4	-57.5	18.7	0.00e+00	0	45	0	459276288	60	29222
2026-01-30 08:11:15.10	138.86	39.71	-55.8	-58.0	18.2	0.00e+00	0	45	0	461373440	60	31044
2026-01-30 08:11:16.10	138.77	39.96	-55.8	-58.0	18.1	0.00e+00	0	45	0	463470592	60	31133
2026-01-30 08:11:17.11	138.68	40.22	-55.5	-57.5	18.7	0.00e+00	0	45	0	464519168	60	29296
2026-01-30 08:11:18.12	138.58	40.49	-55.6	-57.7	18.5	0.00e+00	0	45	0	466616320	60	29918
2026-01-30 08:11:19.13	138.48	40.75	-55.6	-57.7	18.6	0.00e+00	0	45	0	468713472	60	29918
2026-01-30 08:11:20.13	138.39	41.02	-56.1	-58.4	17.7	0.00e+00	0	45	0	470810624	60	32502
2026-01-30 08:11:21.14	138.28	41.28	-55.7	-57.7	18.3	0.00e+00	0	45	0	472907776	60	30233
2026-01-30 08:11:22.15	138.18	41.55	-55.6	-57.6	18.5	0.00e+00	0	45	0	473956352	60	29872
2026-01-30 08:11:23.15	138.08	41.82	-55.6	-57.6	18.5	0.00e+00	0	45	0	476053504	60	29860
2026-01-30 08:11:24.16	137.97	42.10	-55.7	-57.8	18.5	0.00e+00	0	45	0	478150656	60	30244
2026-01-30 08:11:25.17	137.87	42.37	-55.4	-57.3	18.7	0.00e+00	0	45	0	480247808	60	28588
2026-01-30 08:11:26.18	137.76	42.65	-55.6	-57.6	18.6	0.00e+00	0	45	0	481296384	60	29674
2026-01-30 08:11:27.19	137.65	42.93	-55.8	-57.9	18.3	0.00e+00	0	45	0	483393536	60	30678
2026-01-30 08:11:28.19	137.53	43.21	-55.5	-57.5	18.8	0.00e+00	0	45	0	485490688	60	29352
2026-01-30 08:11:29.20	137.42	43.49	-55.8	-57.9	18.4	0.00e+00	0	45	0	487587840	60	30835
2026-01-30 08:11:30.21	137.30	43.78	-56.0	-58.2	18.2	0.00e+00	0	45	0	489684992	60	31812
2026-01-30 08:11:31.22	137.18	44.07	-56.1	-58.3	18.0	0.00e+00	0	45	0	491782144	60	32221
2026-01-30 08:11:32.22	137.06	44.35	-56.0	-58.2	18.0	0.00e+00	0	45	0	492830720	60	32011
2026-01-30 08:11:33.23	136.93	44.65	-56.1	-58.3	17.8	0.00e+00	0	45	0	494927872	60	32073
2026-01-30 08:11:34.23	136.81	44.94	-55.8	-57.9	18.3	0.00e+00	0	45	0	497025024	60	30928
2026-01-30 08:11:35.24	136.68	45.23	-55.2	-57.1	19.2	0.00e+00	0	45	0	499122176	60	27900
2026-01-30 08:11:36.25	136.55	45.53	-54.4	-56.0	20.1	0.00e+00	0	45	0	501219328	60	24677
2026-01-30 08:11:37.26	136.41	45.83	-54.2	-55.7	20.4	0.00e+00	0	45	0	502267904	60	23905
2026-01-30 08:11:38.27	136.28	46.13	-54.5	-56.1	20.0	0.00e+00	0	45	0	504365056	60	25055
2026-01-30 08:11:39.27	136.14	46.43	-55.2	-57.0	19.3	0.00e+00	0	45	0	506462208	60	27707
2026-01-30 08:11:40.28	136.00	46.74	-56.3	-58.5	17.9	0.00e+00	0	45	0	508559360	60	33141
2026-01-30 08:11:41.28	135.85	47.04	-56.7	-59.2	17.1	0.00e+00	0	45	0	510656512	60	35920
2026-01-30 08:11:42.29	135.70	47.35	-56.5	-58.8	17.6	0.00e+00	0	45	0	511705088	60	34212
2026-01-30 08:11:43.30	135.55	47.66	-56.3	-58.5	18.0	0.00e+00	0	45	0	513802240	60	33122
2026-01-30 08:11:44.30	135.40	47.98	-55.8	-57.8	18.7	0.00e+00	0	45	0	515899392	60	30366
2026-01-30 08:11:45.30	135.24	48.29	-55.1	-56.8	19.6	0.00e+00	0	45	0	517996544	60	27190
2026-01-30 08:11:46.31	135.08	48.61	-55.4	-57.1	19.4	0.00e+00	0	45	0	520093696	60	28175
2026-01-30 08:11:47.32	134.92	48.93	-54.8	-56.4	19.9	0.00e+00	0	45	0	521142272	60	25988
2026-01-30 08:11:48.33	134.75	49.25	-54.6	-56.1	20.1	0.00e+00	0	45	0	523239424	60	24872
2026-01-30 08:11:49.33	134.58	49.57	-54.1	-55.5	20.8	0.00e+00	0	45	0	525336576	60	23252
2026-01-30 08:11:50.33	134.41	49.89	-53.5	-54.7	21.5	0.00e+00	0	45	0	527433728	60	21353
2026-01-30 08:11:51.34	134.23	50.22	-53.2	-54.4	21.7	0.00e+00	0	45	0	529530880	60	20524
2026-01-30 08:11:52.35	134.04	50.55	-53.1	-54.3	21.7	0.00e+00	0	45	0	530579456	60	20328
2026-01-30 08:11:53.36	133.86	50.88	-53.7	-55.0	21.5	0.00e+00	0	45	0	532676608	60	21959
2026-01-30 08:11:54.37	133.66	51.22	-54.2	-55.7	20.6	0.00e+00	0	45	0	534773760	60	23957
2026-01-30 08:11:55.37	133.47	51.55	-53.8	-55.1	21.1	0.00e+00	0	45	0	536870912	60	22365
2026-01-30 08:11:56.38	133.27	51.89	-53.8	-55.2	21.0	0.00e+00	0	45	0	538968064	60	22502
2026-01-30 08:11:57.39	133.06	52.23	-54.2	-55.8	20.5	0.00e+00	0	45	0	540016640	60	24022
2026-01-30 08:11:58.40	132.85	52.57	-54.9	-56.6	19.7	0.00e+00	0	45	0	542113792	60	26587
2026-01-30 08:11:59.41	132.64	52.92	-55.6	-57.6	18.9	0.00e+00	0	45	0	544210944	60	29632
2026-01-30 08:12:00.42	132.42	53.26	-56.1	-58.2	18.4	0.00e+00	0	45	0	546308096	60	32010
2026-01-30 08:12:01.42	132.20	53.61	-55.5	-57.3	19.1	0.00e+00	0	45	0	548405248	60	28877
2026-01-30 08:12:02.43	131.96	53.96	-54.5	-56.0	20.5	0.00e+00	0	45	0	549453824	60	24825
2026-01-30 08:12:03.43	131.73	54.31	-54.1	-55.6	20.9	0.00e+00	0	45	0	551550976	60	23655
2026-01-30 08:12:04.44	131.49	54.66	-54.5	-56.1	20.2	0.00e+00	0	45	0	553648128	60	25088
2026-01-30 08:12:05.45	131.24	55.02	-54.7	-56.4	20.0	0.00e+00	0	45	0	555745280	60	25995
2026-01-30 08:12:06.46	130.98	55.38	-54.5	-56.1	20.2	0.00e+00	0	45	0	557842432	60	25099
2026-01-30 08:12:07.46	130.72	55.73	-54.1	-55.7	20.7	0.00e+00	0	45	0	558891008	60	23778
2026-01-30 08:12:08.47	130.45	56.09	-53.5	-54.9	21.4	0.00e+00	0	45	0	560988160	60	21705
2026-01-30 08:12:09.47	130.18	56.45	-53.2	-54.4	21.6	0.00e+00	0	45	0	563085312	60	20650
2026-01-30 08:12:10.48	129.90	56.82	-53.4	-54.7	21.6	0.00e+00	0	45	0	565182464	60	21375
2026-01-30 08:12:11.49	129.60	57.18	-54.0	-55.6	20.7	0.00e+00	0	45	0	567279616	60	23477
2026-01-30 08:12:12.50	129.30	57.55	-54.2	-55.8	20.5	0.00e+00	0	45	0	568328192	60	24127
2026-01-30 08:12:13.50	129.00	57.92	-54.5	-56.3	20.1	0.00e+00	0	45	0	570425344	60	25477
2026-01-30 08:12:14.51	128.68	58.29	-54.7	-56.5	19.8	0.00e+00	0	45	0	572522496	60	26134
2026-01-30 08:12:15.52	128.36	58.66	-55.2	-57.2	19.2	0.00e+00	0	45	0	574619648	60	28443
2026-01-30 08:12:16.53	128.02	59.04	-55.1	-57.1	19.4	0.00e+00	0	45	0	576716800	60	28062
2026-01-30 08:12:17.54	127.68	59.41	-55.0	-57.1	19.4	0.00e+00	0	45	0	577765376	60	27960
2026-01-30 08:12:18.55	127.32	59.79	-54.7	-56.7	19.3	0.00e+00	0	45	0	579862528	60	26727
2026-01-30 08:12:19.55	126.96	60.16	-54.8	-56.9	19.3	0.00e+00	0	45	0	581959680	60	27293
2026-01-30 08:12:20.56	126.59	60.54	-54.3	-56.2	19.9	0.00e+00	0	45	0	584056832	60	25200
2026-01-30 08:12:21.57	126.20	60.92	-53.5	-55.1	20.9	0.00e+00	0	45	0	586153984	60	22320
2026-01-30 08:12:22.58	125.80	61.30	-53.2	-54.8	21.2	0.00e+00	0	45	0	587202560	60	21638
2026-01-30 08:12:23.58	125.39	61.68	-53.1	-54.7	21.0	0.00e+00	0	45	0	589299712	60	21254
2026-01-30 08:12:24.59	124.96	62.06	-53.1	-54.7	21.1	0.00e+00	0	45	0	591396864	60	21308
2026-01-30 08:12:25.60	124.53	62.45	-53.3	-54.9	21.0	0.00e+00	0	45	0	593494016	60	21729
2026-01-30 08:12:26.60	124.08	62.83	-53.0	-54.5	21.5	0.00e+00	0	45	0	595591168	60	20747
2026-01-30 08:12:27.61	123.61	63.21	-53.0	-54.6	21.2	0.00e+00	0	45	0	596639744	60	20923
2026-01-30 08:12:28.62	123.13	63.60	-53.2	-54.7	21.2	0.00e+00	0	45	0	598736896	60	21217
2026-01-30 08:12:29.62	122.63	63.98	-53.2	-54.7	21.2	0.00e+00	0	45	0	600834048	60	21397
2026-01-30 08:12:30.63	122.11	64.36	-53.3	-54.8	21.1	0.00e+00	0	45	0	602931200	60	21617
2026-01-30 08:12:31.64	121.58	64.75	-53.5	-55.2	20.9	0.00e+00	0	45	0	605028352	60	22502
2026-01-30 08:12:32.65	121.03	65.14	-53.3	-54.9	21.1	0.00e+00	0	45	0	606076928	60	21706
2026-01-30 08:12:33.66	120.45	65.52	-53.5	-55.1	20.9	0.00e+00	0	45	0	608174080	60	22316
2026-01-30 08:12:34.66	119.87	65.90	-53.7	-55.5	20.4	0.00e+00	0	45	0	610271232	60	23375
2026-01-30 08:12:35.67	119.25	66.29	-54.4	-56.5	19.8	0.00e+00	0	45	0	612368384	60	26180
2026-01-30 08:12:36.68	118.62	66.67	-54.8	-57.0	19.4	0.00e+00	0	45	0	614465536	60	27733
2026-01-30 08:12:37.69	117.96	67.05	-54.8	-57.0	19.5	0.00e+00	0	45	0	615514112	60	27797
2026-01-30 08:12:38.70	117.27	67.43	-54.5	-56.6	19.9	0.00e+00	0	45	0	617611264	60	26344
2026-01-30 08:12:39.70	116.57	67.81	-54.5	-56.5	20.1	0.00e+00	0	45	0	619708416	60	26194
2026-01-30 08:12:40.71	115.83	68.19	-54.6	-56.7	19.9	0.00e+00	0	45	0	621805568	60	26712
2026-01-30 08:12:41.71	115.08	68.56	-54.6	-56.7	19.8	0.00e+00	0	45	0	623902720	60	26826
2026-01-30 08:12:42.72	114.28	68.94	-55.6	-58.3	18.3	0.00e+00	0	45	0	624951296	60	32087
2026-01-30 08:12:43.73	113.45	69.31	-56.4	-59.6	17.2	0.00e+00	0	45	0	627048448	60	37424
2026-01-30 08:12:44.73	112.60	69.67	-56.5	-59.9	16.6	0.00e+00	0	45	0	629145600	60	38783
2026-01-30 08:12:45.74	111.71	70.04	-56.4	-59.8	16.6	0.00e+00	0	45	0	631242752	60	38083
2026-01-30 08:12:46.74	110.79	70.40	-56.0	-59.1	17.5	0.00e+00	0	45	0	633339904	60	35141
2026-01-30 08:12:47.75	109.83	70.76	-55.4	-57.9	18.9	0.00e+00	0	45	0	634388480	60	30929
2026-01-30 08:12:48.75	108.84	71.11	-55.0	-57.6	18.9	0.00e+00	0	45	0	636485632	60	29615
2026-01-30 08:12:49.75	107.80	71.46	-55.1	-57.9	18.3	0.00e+00	0	45	0	638582784	60	30664
2026-01-30 08:12:50.76	106.72	71.80	-55.2	-58.2	18.3	0.00e+00	0	45	0	640679936	60	31912
2026-01-30 08:12:51.77	105.59	72.14	-55.4	-58.8	17.3	0.00e+00	0	45	0	642777088	60	34318
2026-01-30 08:12:52.77	104.42	72.48	-55.4	-59.1	16.9	0.00e+00	0	45	0	643825664	60	35420
2026-01-30 08:12:53.78	103.20	72.80	-55.2	-58.9	17.0	0.00e+00	0	45	0	645922816	60	34323
2026-01-30 08:12:54.78	101.94	73.12	-53.8	-56.4	19.3	0.00e+00	0	45	0	648019968	60	25964
2026-01-30 08:12:55.79	100.61	73.44	-52.9	-54.9	20.9	0.00e+00	0	45	0	650117120	60	21693
2026-01-30 08:12:56.80	99.23	73.74	-52.7	-54.6	21.1	0.00e+00	0	45	0	652214272	60	21028
2026-01-30 08:12:57.81	97.80	74.04	-53.3	-55.4	20.3	0.00e+00	0	45	0	653262848	60	23086
2026-01-30 08:12:58.82	96.31	74.33	-53.7	-55.9	20.0	0.00e+00	0	45	0	655360000	60	24357
2026-01-30 08:12:59.82	94.78	74.60	-53.6	-55.6	20.2	0.00e+00	0	45	0	657457152	60	23678
2026-01-30 08:13:00.82	93.19	74.87	-53.9	-56.0	20.0	0.00e+00	0	45	0	659554304	60	24793
2026-01-30 08:13:01.83	91.53	75.13	-53.6	-55.6	20.5	0.00e+00	0	45	0	661651456	60	23514
2026-01-30 08:13:02.83	89.83	75.37	-53.4	-55.3	20.3	0.00e+00	0	45	0	662700032	60	22865
2026-01-30 08:13:03.84	88.05	75.60	-53.4	-55.4	20.6	0.00e+00	0	45	0	664797184	60	22960
2026-01-30 08:13:04.84	86.23	75.81	-52.9	-54.7	21.1	0.00e+00	0	45	0	666894336	60	21204
2026-01-30 08:13:05.85	84.33	76.02	-53.5	-55.3	20.7	0.00e+00	0	45	0	668991488	60	22784
2026-01-30 08:13:06.85	82.40	76.21	-54.5	-56.7	19.5	0.00e+00	0	45	0	671088640	60	26778
2026-01-30 08:13:07.86	80.40	76.38	-54.5	-56.5	19.7	0.00e+00	0	45	0	672137216	60	26297
2026-01-30 08:13:08.86	78.37	76.53	-55.4	-57.8	18.6	0.00e+00	0	45	0	674234368	60	30566
2026-01-30 08:13:09.87	76.26	76.67	-56.2	-59.0	17.6	0.00e+00	0	45	0	676331520	60	35020
2026-01-30 08:13:10.88	74.12	76.80	-56.3	-58.9	17.8	0.00e+00	0	45	0	678428672	60	34463
2026-01-30 08:13:11.88	71.96	76.90	-57.4	-60.7	15.9	0.00e+00	0	45	0	680525824	60	42323
2026-01-30 08:13:12.89	69.74	76.99	-55.1	-57.0	19.6	0.00e+00	0	45	0	681574400	60	27616
2026-01-30 08:13:13.89	67.52	77.05	-54.0	-55.4	20.6	0.00e+00	0	45	0	683671552	60	23186
2026-01-30 08:13:14.90	65.26	77.10	-54.4	-56.1	19.7	0.00e+00	0	45	0	685768704	60	24914
2026-01-30 08:13:15.90	63.01	77.13	-55.5	-57.5	19.0	0.00e+00	0	45	0	687865856	60	29227
2026-01-30 08:13:16.91	60.73	77.13	-55.3	-57.2	19.1	0.00e+00	0	45	0	689963008	60	28516
2026-01-30 08:13:17.92	58.44	77.12	-56.6	-59.1	17.4	0.00e+00	0	45	0	691011584	60	35354
2026-01-30 08:13:18.92	56.19	77.09	-56.9	-59.5	17.5	0.00e+00	0	45	0	693108736	60	36801
2026-01-30 08:13:19.93	53.94	77.04	-55.8	-57.7	18.9	0.00e+00	0	45	0	695205888	60	30189
2026-01-30 08:13:20.94	51.70	76.97	-55.9	-58.0	19.3	0.00e+00	0	45	0	697303040	60	31029
2026-01-30 08:13:21.94	49.52	76.88	-55.3	-57.0	20.0	0.00e+00	0	45	0	699400192	60	27882
2026-01-30 08:13:22.94	47.36	76.77	-55.0	-56.6	20.2	0.00e+00	0	45	0	700448768	60	26624
2026-01-30 08:13:23.95	45.23	76.64	-56.2	-58.3	18.4	0.00e+00	0	45	0	702545920	60	32333
2026-01-30 08:13:24.95	43.16	76.50	-56.6	-59.0	18.1	0.00e+00	0	45	0	704643072	60	34948
2026-01-30 08:13:25.94	41.16	76.34	-56.3	-58.6	18.4	0.00e+00	0	45	0	706740224	60	33273
2026-01-30 08:13:26.95	39.16	76.17	-55.7	-57.9	18.9	0.00e+00	0	45	0	707788800	60	30638
2026-01-30 08:13:27.96	37.23	75.97	-54.4	-56.1	20.7	0.00e+00	0	45	0	709885952	60	24904
2026-01-30 08:13:28.97	35.35	75.77	-54.4	-56.2	20.2	0.00e+00	0	45	0	711983104	60	25178
2026-01-30 08:13:29.97	33.54	75.55	-56.1	-58.8	18.0	0.00e+00	0	45	0	714080256	60	33969
2026-01-30 08:13:30.98	31.78	75.31	-56.8	-60.0	17.0	0.00e+00	0	45	0	716177408	60	39267
2026-01-30 08:13:31.98	30.09	75.07	-56.3	-59.0	18.0	0.00e+00	0	45	0	718274560	60	34936
2026-01-30 08:13:32.99	28.44	74.81	-57.5	-60.9	16.1	0.00e+00	0	45	0	719323136	60	43491
2026-01-30 08:13:33.99	26.87	74.54	-56.5	-59.0	18.0	0.00e+00	0	45	0	721420288	60	34978
2026-01-30 08:13:34.99	25.35	74.27	-55.3	-57.2	19.7	0.00e+00	0	45	0	723517440	60	28342
2026-01-30 08:13:36.00	23.87	73.98	-56.3	-58.7	18.0	0.00e+00	0	45	0	725614592	60	33814
2026-01-30 08:13:37.00	22.47	73.68	-57.5	-60.7	16.5	0.00e+00	0	45	0	727711744	60	42245
2026-01-30 08:13:37.99	21.13	73.38	-56.5	-59.0	17.9	0.00e+00	0	45	0	728760320	60	34872
2026-01-30 08:13:39.00	19.82	73.06	-56.4	-58.9	18.1	0.00e+00	0	45	0	730857472	60	34656
2026-01-30 08:13:40.00	18.57	72.74	-55.6	-57.6	19.3	0.00e+00	0	45	0	732954624	60	29735
2026-01-30 08:13:41.00	17.36	72.42	-55.8	-58.1	18.7	0.00e+00	0	45	0	735051776	60	31628
2026-01-30 08:13:42.01	16.20	72.08	-56.4	-59.1	17.4	0.00e+00	0	45	0	736100352	60	35271
2026-01-30 08:13:43.01	15.09	71.75	-56.0	-58.5	18.3	0.00e+00	0	45	0	738197504	60	32921
2026-01-30 08:13:44.01	14.02	71.40	-56.2	-58.9	18.2	0.00e+00	0	45	0	740294656	60	34526
2026-01-30 08:13:45.01	12.99	71.06	-56.2	-58.9	18.0	0.00e+00	0	45	0	742391808	60	34497
2026-01-30 08:13:46.01	12.01	70.70	-56.7	-59.7	17.3	0.00e+00	0	45	0	744488960	60	37694
2026-01-30 08:13:47.01	11.06	70.35	-57.4	-60.8	16.1	0.00e+00	0	45	0	745537536	60	43169
2026-01-30 08:13:48.01	10.15	69.99	-56.8	-59.5	17.7	0.00e+00	0	45	0	747634688	60	36823
2026-01-30 08:13:49.01	9.27	69.63	-56.3	-58.7	18.5	0.00e+00	0	45	0	749731840	60	33656
2026-01-30 08:13:50.01	8.43	69.26	-55.8	-57.8	19.0	0.00e+00	0	45	0	751828992	60	30386
2026-01-30 08:13:51.01	7.61	68.89	-55.8	-57.8	19.2	0.00e+00	0	45	0	753926144	60	30378
2026-01-30 08:13:52.01	6.83	68.52	-55.8	-57.9	19.0	0.00e+00	0	45	0	754974720	60	30831
2026-01-30 08:13:53.01	6.08	68.15	-56.0	-58.2	18.9	0.00e+00	0	45	0	757071872	60	32005
2026-01-30 08:13:54.02	5.35	67.77	-55.4	-57.3	19.8	0.00e+00	0	45	0	759169024	60	28571
2026-01-30 08:13:55.01	4.65	67.40	-54.4	-56.0	20.7	0.00e+00	0	45	0	761266176	60	24708
2026-01-30 08:13:56.02	3.97	67.02	-55.4	-57.2	19.3	0.00e+00	0	45	0	763363328	60	28497
2026-01-30 08:13:57.02	3.32	66.64	-55.5	-57.4	19.9	0.00e+00	0	45	0	764411904	60	28922
2026-01-30 08:13:58.03	2.69	66.26	-54.2	-55.6	21.1	0.00e+00	0	45	0	766509056	60	23737
2026-01-30 08:13:59.03	2.09	65.88	-53.4	-54.7	21.9	0.00e+00	0	45	0	768606208	60	21316
2026-01-30 08:14:00.03	1.50	65.50	-53.1	-54.4	22.1	0.00e+00	0	45	0	770703360	60	20540
2026-01-30 08:14:01.03	0.94	65.12	-52.3	-53.5	22.3	0.00e+00	0	45	0	771751936	60	18452
2026-01-30 08:14:02.03	0.39	64.73	-51.9	-53.0	23.2	0.00e+00	0	45	0	773849088	60	17505
2026-01-30 08:14:03.03	359.86	64.35	-52.4	-53.6	22.8	0.00e+00	0	45	0	775946240	60	18680
2026-01-30 08:14:04.03	359.35	63.97	-52.8	-54.0	22.5	0.00e+00	0	45	0	778043392	60	19695
2026-01-30 08:14:05.03	358.86	63.59	-54.5	-56.1	20.6	0.00e+00	0	45	0	780140544	60	25018
2026-01-30 08:14:06.03	358.38	63.21	-54.1	-55.5	21.2	0.00e+00	0	45	0	781189120	60	23336
2026-01-30 08:14:07.04	357.92	62.83	-54.0	-55.3	21.3	0.00e+00	0	45	0	783286272	60	22799
2026-01-30 08:14:08.04	357.47	62.45	-55.1	-56.8	20.1	0.00e+00	0	45	0	785383424	60	27085
2026-01-30 08:14:09.05	357.03	62.06	-55.6	-57.4	19.3	0.00e+00	0	45	0	787480576	60	29116
2026-01-30 08:14:10.05	356.61	61.69	-55.5	-57.3	19.5	0.00e+00	0	45	0	789577728	60	28863
2026-01-30 08:14:11.05	356.20	61.31	-56.9	-59.6	17.0	0.00e+00	0	45	0	790626304	60	37337
2026-01-30 08:14:12.06	355.81	60.93	-57.9	-61.5	15.3	7.00e-07	0	45	0	792723456	60	46627
2026-01-30 08:14:13.06	355.42	60.55	-57.2	-60.2	17.2	0.00e+00	0	45	0	794820608	60	39946
2026-01-30 08:14:14.07	355.05	60.18	-56.7	-59.5	17.4	0.00e+00	0	45	0	796917760	60	36900
2026-01-30 08:14:15.07	354.69	59.80	-56.7	-59.3	17.6	0.00e+00	0	45	0	797966336	60	35956
2026-01-30 08:14:16.07	354.33	59.43	-55.3	-57.1	19.9	0.00e+00	0	45	0	800063488	60	27927
2026-01-30 08:14:17.07	353.99	59.06	-53.0	-54.2	22.0	0.00e+00	0	45	0	802160640	60	20124
2026-01-30 08:14:18.07	353.66	58.69	-52.8	-54.0	22.0	0.00e+00	0	45	0	804257792	60	19622
2026-01-30 08:14:19.07	353.34	58.32	-53.4	-54.7	21.4	0.00e+00	0	45	0	806354944	60	21224
2026-01-30 08:14:20.07	353.03	57.96	-53.6	-55.1	20.9	0.00e+00	0	45	0	807403520	60	22169
2026-01-30 08:14:21.08	352.72	57.59	-53.9	-55.4	20.6	0.00e+00	0	45	0	809500672	60	23181
2026-01-30 08:14:22.08	352.42	57.22	-54.6	-56.3	20.0	0.00e+00	0	45	0	811597824	60	25612
2026-01-30 08:14:23.08	352.14	56.86	-54.5	-56.1	20.2	0.00e+00	0	45	0	813694976	60	25010
2026-01-30 08:14:24.08	351.85	56.50	-54.1	-55.6	20.8	0.00e+00	0	45	0	815792128	60	23572
2026-01-30 08:14:25.08	351.58	56.14	-54.3	-55.8	20.8	0.00e+00	0	45	0	817889280	60	24279
2026-01-30 08:14:26.09	351.31	55.78	-54.7	-56.3	20.2	0.00e+00	0	45	0	818937856	60	25622
2026-01-30 08:14:27.09	351.05	55.43	-55.4	-57.2	19.6	0.00e+00	0	45	0	821035008	60	28237
2026-01-30 08:14:28.10	350.80	55.07	-55.9	-57.9	18.9	0.00e+00	0	45	0	823132160	60	30763
2026-01-30 08:14:29.11	350.55	54.72	-56.4	-58.7	18.0	0.00e+00	0	45	0	825229312	60	33823
2026-01-30 08:14:30.11	350.31	54.37	-56.0	-58.1	18.7	0.00e+00	0	45	0	826277888	60	31628
2026-01-30 08:14:31.12	350.07	54.02	-55.7	-57.8	19.0	0.00e+00	0	45	0	828375040	60	30369
2026-01-30 08:14:32.13	349.84	53.67	-55.1	-57.0	19.6	0.00e+00	0	45	0	830472192	60	27587
2026-01-30 08:14:33.14	349.61	53.32	-55.0	-56.9	19.8	0.00e+00	0	45	0	832569344	60	27319
2026-01-30 08:14:34.14	349.39	52.98	-54.6	-56.4	20.2	0.00e+00	0	45	0	834666496	60	25880
2026-01-30 08:14:35.15	349.18	52.63	-55.1	-57.1	19.5	0.00e+00	0	45	0	835715072	60	28199
2026-01-30 08:14:36.16	348.97	52.29	-55.7	-58.0	18.8	0.00e+00	0	45	0	837812224	60	30985
2026-01-30 08:14:37.17	348.76	51.95	-55.3	-57.5	19.2	0.00e+00	0	45	0	839909376	60	29313
2026-01-30 08:14:38.17	348.57	51.62	-55.4	-57.6	19.0	0.00e+00	0	45	0	842006528	60	29739
2026-01-30 08:14:39.18	348.37	51.28	-55.3	-57.6	19.2	0.00e+00	0	45	0	844103680	60	29565
2026-01-30 08:14:40.18	348.18	50.95	-55.0	-57.0	19.5	0.00e+00	0	45	0	846200832	60	27789
2026-01-30 08:14:41.19	347.99	50.62	-54.4	-56.1	20.2	0.00e+00	0	45	0	847249408	60	25112
2026-01-30 08:14:42.20	347.81	50.29	-54.2	-55.9	20.4	0.00e+00	0	45	0	849346560	60	24567
2026-01-30 08:14:43.20	347.63	49.97	-54.9	-56.8	19.5	0.00e+00	0	45	0	851443712	60	27040
2026-01-30 08:14:44.21	347.46	49.64	-55.9	-58.1	18.3	0.00e+00	0	45	0	853540864	60	31585
2026-01-30 08:14:45.22	347.29	49.32	-55.8	-57.9	18.6	0.00e+00	0	45	0	854589440	60	30802
2026-01-30 08:14:46.23	347.12	49.00	-56.1	-58.3	18.5	0.00e+00	0	45	0	856686592	60	32099
2026-01-30 08:14:47.23	346.96	48.68	-56.1	-58.2	18.2	0.00e+00	0	45	0	858783744	60	31954
2026-01-30 08:14:48.24	346.79	48.36	-56.4	-58.7	17.6	0.00e+00	0	45	0	860880896	60	33814
2026-01-30 08:14:49.25	346.64	48.05	-57.4	-60.5	16.1	0.00e+00	0	45	0	862978048	60	41606
2026-01-30 08:14:50.25	346.48	47.74	-57.9	-61.4	15.1	0.00e+00	0	45	0	864026624	60	46116
2026-01-30 08:14:51.25	346.33	47.43	-57.7	-61.1	15.6	0.00e+00	0	45	0	866123776	60	44538
2026-01-30 08:14:52.26	346.19	47.12	-57.2	-60.0	16.4	0.00e+00	0	45	0	868220928	60	39362
2026-01-30 08:14:53.26	346.04	46.82	-56.8	-59.4	17.2	0.00e+00	0	45	0	870318080	60	36515
2026-01-30 08:14:54.27	345.90	46.51	-57.0	-59.7	16.8	0.00e+00	0	45	0	872415232	60	37917
2026-01-30 08:14:55.28	345.76	46.21	-56.6	-59.3	17.6	0.00e+00	0	45	0	873463808	60	36194
2026-01-30 08:14:56.29	345.62	45.91	-55.0	-57.1	19.2	0.00e+00	0	45	0	875560960	60	28217
2026-01-30 08:14:57.29	345.49	45.61	-54.3	-56.3	19.7	0.00e+00	0	45	0	877658112	60	25512
2026-01-30 08:14:58.29	345.36	45.32	-54.0	-56.0	20.0	0.00e+00	0	45	0	879755264	60	24584
2026-01-30 08:14:59.30	345.23	45.02	-54.9	-57.4	18.6	0.00e+00	0	45	0	881852416	60	28935
2026-01-30 08:15:00.31	345.10	44.73	-55.1	-57.6	18.4	0.00e+00	0	45	0	882900992	60	29578
2026-01-30 08:15:01.31	344.98	44.44	-55.1	-57.5	18.6	0.00e+00	0	45	0	884998144	60	29253
2026-01-30 08:15:02.32	344.86	44.15	-55.5	-58.0	18.2	0.00e+00	0	45	0	887095296	60	30994
2026-01-30 08:15:03.33	344.74	43.87	-55.9	-58.5	17.8	0.00e+00	0	45	0	889192448	60	32904
2026-01-30 08:15:04.34	344.62	43.58	-55.0	-57.1	18.9	0.00e+00	0	45	0	891289600	60	28111
2026-01-30 08:15:05.34	344.51	43.30	-55.4	-57.8	18.5	0.00e+00	0	45	0	892338176	60	30513
2026-01-30 08:15:06.34	344.40	43.02	-55.3	-57.8	18.3	0.00e+00	0	45	0	894435328	60	30356
2026-01-30 08:15:07.35	344.28	42.74	-56.1	-59.2	17.0	0.00e+00	0	45	0	896532480	60	35853
2026-01-30 08:15:08.35	344.18	42.47	-56.8	-60.5	15.6	0.00e+00	0	45	0	898629632	60	41738
2026-01-30 08:15:09.36	344.07	42.19	-57.7	-62.1	13.8	7.00e-07	0	45	0	900726784	60	49806
2026-01-30 08:15:10.37	343.96	41.92	-57.1	-60.6	15.7	3.80e-06	0	45	0	901775360	60	41847
2026-01-30 08:15:11.38	343.86	41.65	-56.1	-58.6	17.6	0.00e+00	0	45	0	903872512	60	33371
2026-01-30 08:15:12.38	343.76	41.38	-54.9	-56.8	18.9	0.00e+00	0	45	0	905969664	60	27008
2026-01-30 08:15:13.38	343.66	41.12	-55.4	-57.4	18.7	0.00e+00	0	45	0	908066816	60	29154
2026-01-30 08:15:14.39	343.56	40.85	-55.3	-57.3	18.9	0.00e+00	0	45	0	910163968	60	28552
2026-01-30 08:15:15.39	343.46	40.59	-55.3	-57.5	18.4	0.00e+00	0	45	0	911212544	60	29324
2026-01-30 08:15:16.40	343.37	40.33	-55.4	-57.6	18.4	0.00e+00	0	45	0	913309696	60	29693
2026-01-30 08:15:17.41	343.28	40.07	-55.5	-57.9	18.1	0.00e+00	0	45	0	915406848	60	30775
2026-01-30 08:15:18.42	343.18	39.81	-55.3	-57.9	18.0	0.00e+00	0	45	0	917504000	60	30612
2026-01-30 08:15:19.43	343.09	39.55	-55.7	-58.7	17.2	0.00e+00	0	45	0	919601152	60	33671
2026-01-30 08:15:20.42	343.01	39.30	-56.1	-59.6	16.1	0.00e+00	0	45	0	920649728	60	37302
2026-01-30 08:15:21.43	342.92	39.05	-55.5	-58.6	17.1	0.00e+00	0	45	0	922746880	60	33442
2026-01-30 08:15:22.43	342.83	38.80	-54.8	-57.5	18.1	0.00e+00	0	45	0	924844032	60	29471
2026-01-30 08:15:23.44	342.75	38.55	-54.2	-56.6	19.0	0.00e+00	0	45	0	926941184	60	26339
2026-01-30 08:15:24.44	342.66	38.30	-53.9	-56.0	19.5	0.00e+00	0	45	0	929038336	60	24736
2026-01-30 08:15:25.45	342.58	38.06	-53.6	-55.5	20.0	0.00e+00	0	45	0	930086912	60	23426
2026-01-30 08:15:26.45	342.50	37.82	-54.3	-56.3	19.6	0.00e+00	0	45	0	932184064	60	25524
2026-01-30 08:15:27.46	342.42	37.57	-55.1	-57.3	18.7	0.00e+00	0	45	0	934281216	60	28756
2026-01-30 08:15:28.46	342.34	37.34	-55.4	-57.5	18.7	0.00e+00	0	45	0	936378368	60	29544
2026-01-30 08:15:29.46	342.27	37.10	-55.7	-58.0	18.1	0.00e+00	0	45	0	938475520	60	31274
2026-01-30 08:15:30.47	342.19	36.86	-56.2	-58.8	17.5	0.00e+00	0	45	0	939524096	60	34240
2026-01-30 08:15:31.48	342.12	36.62	-56.1	-58.7	17.7	0.00e+00	0	45	0	941621248	60	33716
2026-01-30 08:15:32.48	342.04	36.39	-55.7	-58.1	18.2	0.00e+00	0	45	0	943718400	60	31384
2026-01-30 08:15:33.49	341.97	36.16	-56.2	-58.9	17.5	0.00e+00	0	45	0	945815552	60	34590
2026-01-30 08:15:34.49	341.90	35.93	-56.4	-59.2	17.2	0.00e+00	0	45	0	947912704	60	35547
2026-01-30 08:15:35.50	341.83	35.70	-57.0	-60.3	16.0	0.00e+00	0	45	0	948961280	60	40385
2026-01-30 08:15:36.50	341.76	35.48	-57.4	-60.8	15.7	0.00e+00	0	45	0	951058432	60	43121
2026-01-30 08:15:37.51	341.69	35.25	-57.0	-60.0	16.2	0.00e+00	0	45	0	953155584	60	39147
2026-01-30 08:15:38.51	341.62	35.03	-56.5	-59.2	16.9	0.00e+00	0	45	0	955252736	60	35786
2026-01-30 08:15:39.52	341.56	34.80	-56.1	-58.6	17.3	0.00e+00	0	45	0	957349888	60	33304
2026-01-30 08:15:40.52	341.49	34.58	-55.4	-57.7	17.9	0.00e+00	0	45	0	958398464	60	30238
2026-01-30 08:15:41.53	341.43	34.36	-55.1	-57.4	18.2	0.00e+00	0	45	0	960495616	60	29135
2026-01-30 08:15:42.54	341.36	34.14	-55.1	-57.6	18.0	0.00e+00	0	45	0	962592768	60	29706
2026-01-30 08:15:43.55	341.30	33.93	-55.0	-57.7	18.0	0.00e+00	0	45	0	964689920	60	29975
2026-01-30 08:15:44.55	341.24	33.71	-55.0	-58.0	17.6	0.00e+00	0	45	0	966787072	60	31016
2026-01-30 08:15:45.55	341.18	33.50	-55.1	-58.3	17.3	0.00e+00	0	45	0	967835648	60	32033
2026-01-30 08:15:46.55	341.12	33.29	-55.3	-58.7	17.1	0.00e+00	0	45	0	969932800	60	33846
2026-01-30 08:15:47.56	341.06	33.08	-55.5	-58.9	16.8	0.00e+00	0	45	0	972029952	60	34484
2026-01-30 08:15:48.55	341.00	32.87	-55.6	-58.8	17.3	0.00e+00	0	45	0	974127104	60	34047
2026-01-30 08:15:49.56	340.94	32.66	-55.8	-58.8	16.8	0.00e+00	0	45	0	975175680	60	34168
2026-01-30 08:15:50.56	340.89	32.46	-56.2	-59.3	16.9	0.00e+00	0	45	0	977272832	60	35952
2026-01-30 08:15:51.57	340.83	32.25	-56.5	-59.7	16.0	0.00e+00	0	45	0	979369984	60	37860
2026-01-30 08:15:52.57	340.78	32.05	-56.5	-59.7	15.9	0.00e+00	0	45	0	981467136	60	37813
2026-01-30 08:15:53.57	340.72	31.85	-56.5	-59.8	15.9	0.00e+00	0	45	0	983564288	60	38100
2026-01-30 08:15:54.59	340.67	31.65	-56.0	-58.9	16.4	0.00e+00	0	45	0	985661440	60	34697
2026-01-30 08:15:55.59	340.61	31.45	-56.4	-59.5	16.2	0.00e+00	0	45	0	986710016	60	37023
2026-01-30 08:15:56.60	340.56	31.25	-56.4	-59.6	16.3	0.00e+00	0	45	0	988807168	60	37293
2026-01-30 08:15:57.60	340.51	31.05	-56.2	-59.3	16.7	0.00e+00	0	45	0	990904320	60	36241
2026-01-30 08:15:58.60	340.46	30.86	-56.2	-59.3	16.9	0.00e+00	0	45	0	993001472	60	35980
2026-01-30 08:15:59.60	340.41	30.66	-55.9	-58.9	17.3	0.00e+00	0	45	0	995098624	60	34674
2026-01-30 08:16:00.61	340.36	30.47	-55.8	-58.9	17.4	0.00e+00	0	45	0	996147200	60	34372
2026-01-30 08:16:01.61	340.31	30.28	-55.8	-58.9	17.4	0.00e+00	0	45	0	998244352	60	34357
2026-01-30 08:16:02.62	340.26	30.09	-55.9	-59.2	17.1	0.00e+00	0	45	0	1000341504	60	35575
2026-01-30 08:16:03.62	340.21	29.90	-55.4	-58.3	17.9	0.00e+00	0	45	0	1002438656	60	32286
2026-01-30 08:16:04.63	340.16	29.71	-55.4	-58.3	17.8	0.00e+00	0	45	0	1003487232	60	32194
2026-01-30 08:16:05.63	340.12	29.53	-55.3	-58.2	17.7	0.00e+00	0	45	0	1005584384	60	31766
2026-01-30 08:16:06.64	340.07	29.34	-55.0	-57.6	18.2	0.00e+00	0	45	0	1007681536	60	29695
2026-01-30 08:16:07.64	340.03	29.16	-54.9	-57.4	18.5	0.00e+00	0	45	0	1009778688	60	29069
2026-01-30 08:16:08.65	339.98	28.97	-54.7	-57.0	18.9	0.00e+00	0	45	0	1011875840	60	27731
2026-01-30 08:16:09.65	339.94	28.79	-54.4	-56.6	19.2	0.00e+00	0	45	0	1012924416	60	26432
2026-01-30 08:16:10.66	339.89	28.61	-54.4	-56.5	19.5	0.00e+00	0	45	0	1015021568	60	26058
2026-01-30 08:16:11.67	339.85	28.43	-54.3	-56.3	19.5	0.00e+00	0	45	0	1017118720	60	25632
2026-01-30 08:16:12.67	339.81	28.25	-54.3	-56.3	19.5	0.00e+00	0	45	0	1019215872	60	25685
2026-01-30 08:16:13.67	339.76	28.07	-54.8	-56.9	19.1	0.00e+00	0	45	0	1021313024	60	27287
2026-01-30 08:16:14.67	339.72	27.90	-55.1	-57.3	18.8	0.00e+00	0	45	0	1022361600	60	28736
2026-01-30 08:16:15.68	339.68	27.72	-55.5	-58.0	18.6	0.00e+00	0	45	0	1024458752	60	30947
2026-01-30 08:16:16.68	339.64	27.55	-55.6	-58.1	17.8	0.00e+00	0	45	0	1026555904	60	31538
2026-01-30 08:16:17.69	339.60	27.37	-55.8	-58.4	17.6	0.00e+00	0	45	0	1028653056	60	32496
2026-01-30 08:16:18.69	339.56	27.20	-55.5	-57.9	18.0	0.00e+00	0	45	0	1030750208	60	30692
2026-01-30 08:16:19.70	339.52	27.03	-55.5	-57.8	18.0	0.00e+00	0	45	0	1031798784	60	30411
2026-01-30 08:16:20.70	339.48	26.86	-55.3	-57.5	18.4	0.00e+00	0	45	0	1033895936	60	29228
2026-01-30 08:16:21.70	339.44	26.69	-55.0	-57.0	18.9	0.00e+00	0	45	0	1035993088	60	27650
2026-01-30 08:16:22.70	339.41	26.53	-54.8	-56.7	19.1	0.00e+00	0	45	0	1038090240	60	26771
2026-01-30 08:16:23.71	339.37	26.36	-54.3	-56.0	19.8	0.00e+00	0	45	0	1040187392	60	24583
2026-01-30 08:16:24.71	339.33	26.19	-54.0	-55.6	20.2	0.00e+00	0	45	0	1041235968	60	23655
2026-01-30 08:16:25.71	339.29	26.03	-53.7	-55.2	20.5	0.00e+00	0	45	0	1043333120	60	22669
2026-01-30 08:16:26.72	339.26	25.87	-53.4	-54.9	20.8	0.00e+00	0	45	0	1045430272	60	21841
2026-01-30 08:16:27.73	339.22	25.70	-53.3	-54.8	20.9	0.00e+00	0	45	0	1047527424	60	21483
2026-01-30 08:16:28.73	339.19	25.54	-53.6	-55.1	20.8	0.00e+00	0	45	0	1049624576	60	22206
2026-01-30 08:16:29.74	339.15	25.38	-53.7	-55.2	20.6	0.00e+00	0	45	0	1050673152	60	22566
2026-01-30 08:16:30.75	339.12	25.22	-53.9	-55.4	20.4	0.00e+00	0	45	0	1052770304	60	23160
2026-01-30 08:16:31.75	339.08	25.06	-54.4	-56.0	19.9	0.00e+00	0	45	0	1054867456	60	24848
2026-01-30 08:16:32.75	339.05	24.90	-54.9	-56.7	19.3	0.00e+00	0	45	0	1056964608	60	26821
2026-01-30 08:16:33.76	339.01	24.75	-55.0	-56.9	19.1	0.00e+00	0	45	0	1058013184	60	27326
2026-01-30 08:16:34.76	338.98	24.59	-55.3	-57.4	18.4	0.00e+00	0	45	0	1060110336	60	29135
2026-01-30 08:16:35.76	338.95	24.44	-55.5	-57.8	18.2	0.00e+00	0	45	0	1062207488	60	30329
2026-01-30 08:16:36.77	338.92	24.28	-55.4	-57.7	17.6	0.00e+00	0	45	0	1064304640	60	29930
2026-01-30 08:16:37.78	338.88	24.13	-55.8	-58.2	17.8	0.00e+00	0	45	0	1066401792	60	31780
2026-01-30 08:16:38.78	338.85	23.97	-55.8	-58.3	17.8	0.00e+00	0	45	0	1068498944	60	32080
2026-01-30 08:16:39.79	338.82	23.82	-55.7	-58.3	17.8	0.00e+00	0	45	0	1069547520	60	32139
2026-01-30 08:16:40.79	338.79	23.67	-55.5	-58.0	18.2	0.00e+00	0	45	0	1071644672	60	31108
2026-01-30 08:16:41.80	338.76	23.52	-55.4	-57.8	18.3	0.00e+00	0	45	0	1073741824	60	30368
2026-01-30 08:16:42.80	338.73	23.37	-55.1	-57.4	18.6	0.00e+00	0	45	0	1075838976	60	29107
2026-01-30 08:16:43.81	338.70	23.22	-54.7	-57.0	18.9	0.00e+00	0	45	0	1077936128	60	27723
2026-01-30 08:16:44.82	338.67	23.08	-54.6	-56.9	18.9	0.00e+00	0	45	0	1078984704	60	27568
2026-01-30 08:16:45.82	338.64	22.93	-54.1	-56.5	19.1	0.00e+00	0	45	0	1081081856	60	26094
2026-01-30 08:16:46.83	338.61	22.78	-54.0	-56.5	19.2	0.00e+00	0	45	0	1083179008	60	26260
2026-01-30 08:16:47.83	338.58	22.64	-53.8	-56.4	19.3	0.00e+00	0	45	0	1085276160	60	25765
2026-01-30 08:16:48.83	338.55	22.50	-53.2	-55.6	20.0	0.00e+00	0	45	0	1086324736	60	23574
2026-01-30 08:16:49.83	338.52	22.35	-53.2	-55.5	20.0	0.00e+00	0	45	0	1088421888	60	23338
2026-01-30 08:16:50.83	338.50	22.21	-52.9	-55.0	20.5	0.00e+00	0	45	0	1090519040	60	22149
2026-01-30 08:16:51.84	338.47	22.07	-52.8	-54.8	20.8	0.00e+00	0	45	0	1092616192	60	21491
2026-01-30 08:16:52.84	338.44	21.93	-52.9	-54.8	20.8	0.00e+00	0	45	0	1094713344	60	21579
2026-01-30 08:16:53.85	338.41	21.79	-52.8	-54.6	20.9	0.00e+00	0	45	0	1095761920	60	20925
2026-01-30 08:16:54.85	338.39	21.65	-52.8	-54.4	21.0	0.00e+00	0	45	0	1097859072	60	20615
2026-01-30 08:16:55.86	338.36	21.51	-52.9	-54.5	21.1	0.00e+00	0	45	0	1099956224	60	20852
2026-01-30 08:16:56.87	338.33	21.37	-53.2	-54.7	20.9	0.00e+00	0	45	0	1102053376	60	21340
2026-01-30 08:16:57.87	338.31	21.23	-53.3	-54.8	21.0	0.00e+00	0	45	0	1104150528	60	21491
2026-01-30 08:16:58.88	338.28	21.10	-53.4	-54.9	20.8	0.00e+00	0	45	0	1105199104	60	21709
2026-01-30 08:16:59.89	338.26	20.96	-53.5	-55.0	20.7	0.00e+00	0	45	0	1107296256	60	22031
2026-01-30 08:17:00.89	338.23	20.83	-53.5	-55.1	20.5	0.00e+00	0	45	0	1109393408	60	22415
