passes_logs/2026/01/30/R3.2S-Naryan-Mar/R3.2S-Naryan-Mar__20260130_112926_SUOMI_NPP_rec.log

#Pass ID: 20260130_112926_SUOMI NPP
#Satellite: SUOMI NPP
#Configuration: NPP
#almurnet v.1.7.20240730
#Start time: 2026-01-30 11:29:28

#Version: 2.2.20231116
#Station: R3.2S-Naryan-Mar
#Location: 53.008057 lon 67.646978 lat
#TLE: 1 37849U 11061A   26029.48304708  .00000140  00000+0  87283-4 0  9999
#TLE: 2 37849  98.7824 331.4079 0002024  38.4342 321.6978 14.19531488738761

#Time	Az	El	Level	Level2	SNR	BER	BlckErr	Temp	State	Recorded	gain1	gain2
2026-01-30 11:29:28.74	232.52	0.08	-58.9	-74.4	3.5	1.51e+00	0	42	0	0	60	199492
2026-01-30 11:29:29.75	232.61	0.13	-58.2	-77.6	3.6	1.51e+00	0	43	104	0	60	297133
2026-01-30 11:29:30.76	232.69	0.17	-59.0	-77.8	3.6	1.51e+00	0	43	104	0	60	304020
2026-01-30 11:29:31.76	232.78	0.22	-59.5	-78.0	3.6	1.51e+00	0	43	104	0	60	310569
2026-01-30 11:29:32.77	232.86	0.27	-59.7	-78.0	3.6	1.51e+00	0	43	104	0	60	309644
2026-01-30 11:29:33.77	232.95	0.31	-59.7	-78.2	3.6	1.51e+00	0	43	104	0	60	319150
2026-01-30 11:29:34.78	233.03	0.36	-59.3	-78.0	3.6	1.51e+00	0	43	104	0	60	309808
2026-01-30 11:29:35.79	233.12	0.40	-58.7	-78.0	3.6	1.51e+00	0	43	104	0	60	310058
2026-01-30 11:29:36.79	233.21	0.45	-57.7	-77.5	3.6	1.51e+00	0	44	104	0	60	292741
2026-01-30 11:29:37.80	233.29	0.50	-57.0	-76.8	3.6	1.51e+00	0	44	104	0	60	271420
2026-01-30 11:29:38.80	233.38	0.54	-56.0	-76.2	3.6	1.51e+00	0	44	104	0	60	252732
2026-01-30 11:29:39.81	233.47	0.59	-57.0	-77.2	3.6	1.51e+00	0	44	104	0	60	285134
2026-01-30 11:29:40.82	233.55	0.64	-58.7	-77.8	3.6	1.51e+00	0	44	104	0	60	303393
2026-01-30 11:29:41.83	233.64	0.68	-59.8	-78.0	3.6	1.51e+00	0	44	104	0	60	309617
2026-01-30 11:29:42.83	233.73	0.73	-60.7	-78.3	3.6	1.51e+00	0	44	104	0	60	321130
2026-01-30 11:29:43.84	233.82	0.77	-61.2	-78.3	3.6	1.51e+00	0	44	104	0	60	321922
2026-01-30 11:29:44.85	233.91	0.82	-61.3	-78.2	3.6	1.51e+00	0	44	104	0	60	318134
2026-01-30 11:29:45.85	233.99	0.87	-61.4	-78.1	3.6	1.51e+00	0	44	104	0	60	316102
2026-01-30 11:29:46.86	234.08	0.91	-61.5	-78.1	3.6	1.51e+00	0	44	104	0	60	315367
2026-01-30 11:29:47.87	234.17	0.96	-61.4	-78.0	3.6	1.51e+00	0	44	104	0	60	311244
2026-01-30 11:29:48.88	234.26	1.01	-61.3	-77.8	3.6	1.51e+00	0	44	104	0	60	302736
2026-01-30 11:29:49.89	234.35	1.05	-61.1	-77.6	3.6	1.51e+00	0	44	104	0	60	298647
2026-01-30 11:29:50.89	234.44	1.10	-61.1	-77.6	3.6	1.51e+00	0	44	104	0	60	297243
2026-01-30 11:29:51.90	234.53	1.15	-61.0	-77.5	3.6	1.51e+00	0	44	104	0	60	293890
2026-01-30 11:29:52.90	234.62	1.19	-60.8	-77.2	3.6	1.51e+00	0	44	104	0	60	282749
2026-01-30 11:29:53.91	234.71	1.24	-60.6	-77.1	3.6	1.51e+00	0	44	104	0	60	280880
2026-01-30 11:29:54.92	234.80	1.29	-60.4	-76.8	3.6	1.51e+00	0	44	104	0	60	272281
2026-01-30 11:29:55.92	234.89	1.33	-60.3	-76.7	3.6	1.51e+00	0	44	104	0	60	268333
2026-01-30 11:29:56.93	234.99	1.38	-59.9	-76.4	3.6	1.51e+00	0	44	104	0	60	258385
2026-01-30 11:29:57.93	235.08	1.42	-59.5	-76.0	3.6	1.51e+00	0	44	104	0	60	247504
2026-01-30 11:29:58.94	235.17	1.47	-59.2	-75.8	3.6	1.51e+00	0	44	104	0	60	241502
2026-01-30 11:29:59.94	235.26	1.52	-59.1	-75.8	3.6	1.51e+00	0	44	104	0	60	240248
2026-01-30 11:30:00.95	235.35	1.56	-59.1	-75.7	3.6	1.51e+00	0	44	104	0	60	237514
2026-01-30 11:30:01.96	235.45	1.61	-59.0	-75.6	3.6	1.51e+00	0	44	104	0	60	236070
2026-01-30 11:30:02.96	235.54	1.66	-59.0	-75.6	3.6	1.51e+00	0	44	104	0	60	236814
2026-01-30 11:30:03.97	235.63	1.70	-59.0	-75.6	3.6	1.51e+00	0	44	104	0	60	236243
2026-01-30 11:30:04.97	235.73	1.75	-59.0	-75.6	3.6	1.51e+00	0	44	104	0	60	235335
2026-01-30 11:30:05.97	235.82	1.80	-58.9	-75.5	3.6	1.51e+00	0	44	104	0	60	233854
2026-01-30 11:30:06.98	235.91	1.84	-58.9	-75.5	3.6	1.51e+00	0	44	104	0	60	233558
2026-01-30 11:30:07.99	236.01	1.89	-58.9	-75.5	3.6	1.51e+00	0	44	104	0	60	233259
2026-01-30 11:30:09.00	236.10	1.94	-58.9	-75.5	3.6	1.51e+00	0	44	104	0	60	233206
2026-01-30 11:30:10.00	236.20	1.98	-58.9	-75.5	3.6	1.51e+00	0	44	104	0	60	232404
2026-01-30 11:30:11.01	236.30	2.03	-58.9	-75.4	3.6	1.51e+00	0	44	104	0	60	230533
2026-01-30 11:30:12.02	236.39	2.08	-58.9	-75.5	3.6	1.51e+00	0	44	104	0	60	233399
2026-01-30 11:30:13.03	236.49	2.12	-58.9	-75.4	3.6	1.51e+00	0	44	104	0	60	231831
2026-01-30 11:30:14.04	236.58	2.17	-58.8	-75.5	3.6	1.51e+00	0	44	104	0	60	233529
2026-01-30 11:30:15.04	236.68	2.22	-58.8	-75.4	3.6	1.51e+00	0	44	104	0	60	231696
2026-01-30 11:30:16.04	236.78	2.26	-58.8	-75.5	3.6	1.51e+00	0	44	104	0	60	232726
2026-01-30 11:30:17.05	236.87	2.31	-58.8	-75.5	3.6	1.51e+00	0	44	104	0	60	232606
2026-01-30 11:30:18.05	236.97	2.36	-58.8	-75.4	3.6	1.51e+00	0	44	104	0	60	230701
2026-01-30 11:30:19.06	237.07	2.41	-58.8	-75.4	3.6	1.51e+00	0	44	104	0	60	230564
2026-01-30 11:30:20.07	237.17	2.45	-58.8	-75.4	3.6	1.51e+00	0	44	104	0	60	232022
2026-01-30 11:30:21.07	237.26	2.50	-58.8	-75.4	3.6	1.51e+00	0	44	104	0	60	231692
2026-01-30 11:30:22.07	237.36	2.55	-58.8	-75.4	3.6	1.51e+00	0	44	104	0	60	231782
2026-01-30 11:30:23.07	237.46	2.59	-58.8	-75.4	3.6	1.51e+00	0	44	104	0	60	229961
2026-01-30 11:30:24.08	237.56	2.64	-58.8	-75.4	3.6	1.51e+00	0	44	104	0	60	229806
2026-01-30 11:30:25.08	237.66	2.69	-58.7	-75.4	3.6	1.51e+00	0	44	104	0	60	230463
2026-01-30 11:30:26.08	237.76	2.73	-58.7	-75.4	3.6	1.51e+00	0	44	104	0	60	230216
2026-01-30 11:30:27.09	237.86	2.78	-58.7	-75.4	3.6	1.51e+00	0	44	104	0	60	230570
2026-01-30 11:30:28.09	237.96	2.83	-58.7	-75.4	3.6	1.51e+00	0	44	104	0	60	230220
2026-01-30 11:30:29.10	238.06	2.87	-58.7	-75.4	3.6	1.51e+00	0	44	104	0	60	231289
2026-01-30 11:30:30.10	238.16	2.92	-58.7	-75.4	3.6	1.51e+00	0	44	104	0	60	229872
2026-01-30 11:30:31.11	238.26	2.97	-58.7	-75.4	3.6	1.51e+00	0	44	104	0	60	229779
2026-01-30 11:30:32.11	238.36	3.01	-58.7	-75.3	3.6	1.51e+00	0	44	104	0	60	229216
2026-01-30 11:30:33.12	238.47	3.06	-58.7	-75.3	3.6	1.51e+00	0	44	104	0	60	228519
2026-01-30 11:30:34.13	238.57	3.11	-58.7	-75.3	3.6	1.51e+00	0	44	104	0	60	229129
2026-01-30 11:30:35.13	238.67	3.16	-58.7	-75.4	3.6	1.51e+00	0	44	104	0	60	229507
2026-01-30 11:30:36.14	238.77	3.20	-58.7	-75.4	3.6	1.51e+00	0	44	104	0	60	229649
2026-01-30 11:30:37.15	238.88	3.25	-58.7	-75.3	3.6	1.51e+00	0	44	104	0	60	229274
2026-01-30 11:30:38.15	238.98	3.30	-58.7	-75.3	3.6	1.51e+00	0	44	104	0	60	227952
2026-01-30 11:30:39.16	239.08	3.34	-58.7	-75.3	3.6	1.51e+00	0	44	104	0	60	228244
2026-01-30 11:30:40.17	239.19	3.39	-58.7	-75.3	3.6	1.51e+00	0	44	104	0	60	228920
2026-01-30 11:30:41.17	239.29	3.44	-58.7	-75.3	3.6	1.51e+00	0	44	104	0	60	228625
2026-01-30 11:30:42.18	239.40	3.48	-58.7	-75.3	3.6	1.51e+00	0	44	104	0	60	229221
2026-01-30 11:30:43.19	239.50	3.53	-58.6	-75.3	3.6	1.51e+00	0	44	104	0	60	228239
2026-01-30 11:30:44.20	239.61	3.58	-58.6	-75.2	3.6	1.51e+00	0	44	104	0	60	226434
2026-01-30 11:30:45.21	239.71	3.63	-58.6	-75.3	3.6	1.51e+00	0	44	104	0	60	229171
2026-01-30 11:30:46.21	239.82	3.67	-58.6	-75.3	3.6	1.51e+00	0	44	104	0	60	226976
2026-01-30 11:30:47.21	239.93	3.72	-58.6	-75.3	3.6	1.51e+00	0	44	104	0	60	227930
2026-01-30 11:30:48.22	240.03	3.77	-58.6	-75.3	3.6	1.51e+00	0	44	104	0	60	227591
2026-01-30 11:30:49.22	240.14	3.81	-58.6	-75.3	3.6	1.51e+00	0	44	104	0	60	228962
2026-01-30 11:30:50.23	240.25	3.86	-58.6	-75.3	3.5	1.51e+00	0	44	104	0	60	227102
2026-01-30 11:30:51.24	240.36	3.91	-58.6	-75.3	3.6	1.51e+00	0	44	104	0	60	227645
2026-01-30 11:30:52.24	240.46	3.96	-58.6	-75.2	3.6	1.51e+00	0	44	104	0	60	226637
2026-01-30 11:30:53.24	240.57	4.00	-58.6	-75.3	3.6	1.51e+00	0	44	104	0	60	227725
2026-01-30 11:30:54.25	240.68	4.05	-58.6	-75.3	3.6	1.51e+00	0	44	104	0	60	228186
2026-01-30 11:30:55.26	240.79	4.10	-58.6	-75.3	3.6	1.51e+00	0	44	104	0	60	227773
2026-01-30 11:30:56.27	240.90	4.14	-58.6	-75.3	3.6	1.51e+00	0	44	104	0	60	227372
2026-01-30 11:30:57.27	241.01	4.19	-58.6	-75.3	3.6	1.51e+00	0	44	104	0	60	227037
2026-01-30 11:30:58.28	241.12	4.24	-58.6	-75.2	3.6	1.51e+00	0	44	104	0	60	225493
2026-01-30 11:30:59.29	241.23	4.29	-58.6	-75.2	3.6	1.51e+00	0	44	104	0	60	226498
2026-01-30 11:31:00.30	241.34	4.33	-58.6	-75.2	3.6	1.51e+00	0	44	104	0	60	225990
2026-01-30 11:31:01.31	241.45	4.38	-58.6	-75.2	3.6	1.51e+00	0	45	104	0	60	225359
2026-01-30 11:31:02.31	241.56	4.43	-58.6	-75.1	3.6	1.51e+00	0	45	104	0	60	224032
2026-01-30 11:31:03.32	241.67	4.47	-58.6	-75.2	3.6	1.51e+00	0	44	104	0	60	225441
2026-01-30 11:31:04.33	241.79	4.52	-58.6	-75.2	3.6	1.51e+00	0	44	104	0	60	224701
2026-01-30 11:31:05.33	241.90	4.57	-58.5	-75.1	3.6	1.51e+00	0	45	104	0	60	223929
2026-01-30 11:31:06.33	242.01	4.61	-58.6	-75.1	3.6	1.51e+00	0	45	104	0	60	223916
2026-01-30 11:31:07.34	242.12	4.66	-58.5	-75.2	3.6	1.51e+00	0	45	104	0	60	225241
2026-01-30 11:31:08.35	242.24	4.71	-58.5	-75.2	3.6	1.51e+00	0	45	104	0	60	225304
2026-01-30 11:31:09.36	242.35	4.76	-58.5	-75.2	3.6	1.51e+00	0	45	104	0	60	226209
2026-01-30 11:31:10.37	242.47	4.80	-58.5	-75.1	3.6	1.51e+00	0	44	104	0	60	224115
2026-01-30 11:31:11.37	242.58	4.85	-58.5	-75.2	3.6	1.51e+00	0	45	104	0	60	224654
2026-01-30 11:31:12.38	242.70	4.90	-58.5	-75.1	3.6	1.51e+00	0	44	104	0	60	223489
2026-01-30 11:31:13.39	242.81	4.94	-58.5	-75.2	3.6	1.51e+00	0	44	104	0	60	224306
2026-01-30 11:31:14.39	242.93	4.99	-58.5	-75.1	3.6	1.51e+00	0	45	104	0	60	222221
2026-01-30 11:31:15.40	243.04	5.04	-58.5	-75.1	3.6	1.51e+00	0	45	104	0	60	223171
2026-01-30 11:31:16.41	243.16	5.09	-58.5	-75.0	3.6	1.51e+00	0	44	104	0	60	220252
2026-01-30 11:31:17.42	243.28	5.13	-58.5	-75.0	3.6	1.51e+00	0	45	104	0	60	220725
2026-01-30 11:31:18.43	243.39	5.18	-58.5	-75.1	3.6	1.51e+00	0	45	104	0	60	221855
2026-01-30 11:31:19.43	243.51	5.23	-58.5	-74.9	3.6	1.51e+00	0	45	104	0	60	217545
2026-01-30 11:31:20.44	243.63	5.27	-58.5	-74.9	3.6	1.51e+00	0	45	104	0	60	218711
2026-01-30 11:31:21.45	243.75	5.32	-58.5	-75.1	3.6	1.51e+00	0	45	104	0	60	222515
2026-01-30 11:31:22.45	243.87	5.37	-58.5	-75.0	3.6	1.51e+00	0	45	104	0	60	220624
2026-01-30 11:31:23.46	243.99	5.41	-58.5	-74.9	3.6	1.51e+00	0	45	104	0	60	217851
2026-01-30 11:31:24.47	244.11	5.46	-58.5	-75.0	3.6	1.51e+00	0	45	104	0	60	219447
2026-01-30 11:31:25.47	244.22	5.51	-58.4	-74.3	3.6	1.51e+00	0	44	104	0	60	203226
2026-01-30 11:31:26.48	244.34	5.55	-58.4	-73.6	3.6	1.51e+00	0	45	104	0	60	187290
2026-01-30 11:31:27.49	244.47	5.60	-58.4	-73.7	3.6	1.51e+00	0	45	104	0	60	190792
2026-01-30 11:31:28.49	244.59	5.65	-58.4	-73.8	3.6	1.51e+00	0	45	104	0	60	192262
2026-01-30 11:31:29.50	244.71	5.69	-58.4	-73.3	3.7	1.51e+00	0	45	104	0	60	181747
2026-01-30 11:31:30.50	244.83	5.74	-58.4	-71.1	3.7	1.48e+00	0	45	104	0	60	141308
2026-01-30 11:31:31.51	244.95	5.79	-58.2	-69.0	5.4	9.63e-01	0	45	104	0	60	110418
2026-01-30 11:31:32.51	245.07	5.83	-57.8	-65.6	7.8	2.76e-01	0	44	0	1048576	60	74397
2026-01-30 11:31:33.52	245.19	5.88	-57.5	-64.0	9.7	1.71e-03	0	45	0	3145728	60	61817
2026-01-30 11:31:34.53	245.32	5.93	-57.0	-62.5	11.1	2.96e-03	0	45	0	2097152	60	52353
2026-01-30 11:31:35.53	245.44	5.97	-56.9	-62.1	11.8	9.16e-04	0	45	0	3145728	60	49743
2026-01-30 11:31:36.54	245.56	6.02	-56.8	-61.8	12.0	4.30e-04	0	45	0	5242880	60	48059
2026-01-30 11:31:37.55	245.69	6.07	-56.4	-60.7	13.6	2.92e-04	0	45	0	7340032	60	42322
2026-01-30 11:31:38.56	245.81	6.11	-56.0	-60.1	13.3	0.00e+00	0	44	0	9437184	60	39454
2026-01-30 11:31:39.57	245.94	6.16	-56.7	-61.6	12.7	7.51e-04	0	45	0	11534336	60	46870
2026-01-30 11:31:40.58	246.06	6.21	-58.1	-68.7	4.1	1.04e-01	0	45	0	12582912	60	107134
2026-01-30 11:31:41.58	246.19	6.25	-57.0	-62.4	5.9	1.51e+00	0	45	104	13631488	60	51395
2026-01-30 11:31:42.59	246.32	6.30	-54.5	-57.2	16.3	8.43e-01	0	45	104	13631488	60	28226
2026-01-30 11:31:43.60	246.44	6.35	-54.4	-56.8	17.4	0.00e+00	0	45	0	1048576	60	27094
2026-01-30 11:31:44.60	246.57	6.39	-54.5	-57.0	17.1	0.00e+00	0	45	0	3145728	60	27870
2026-01-30 11:31:45.61	246.70	6.44	-54.5	-57.0	17.3	0.00e+00	0	45	0	5242880	60	27617
2026-01-30 11:31:46.62	246.82	6.48	-54.3	-56.7	17.5	0.00e+00	0	45	0	6291456	60	26683
2026-01-30 11:31:47.62	246.95	6.53	-54.4	-56.8	17.4	0.00e+00	0	45	0	8388608	60	27039
2026-01-30 11:31:48.63	247.08	6.58	-54.2	-56.5	17.7	0.00e+00	0	45	0	10485760	60	26155
2026-01-30 11:31:49.64	247.21	6.62	-54.3	-56.6	17.6	0.00e+00	0	45	0	12582912	60	26393
2026-01-30 11:31:50.65	247.34	6.67	-54.3	-56.6	17.5	0.00e+00	0	44	0	13631488	60	26596
2026-01-30 11:31:51.66	247.47	6.72	-54.3	-56.6	17.6	0.00e+00	0	45	0	15728640	60	26486
2026-01-30 11:31:52.66	247.60	6.76	-54.4	-56.8	17.4	0.00e+00	0	45	0	17825792	60	27048
2026-01-30 11:31:53.67	247.73	6.81	-54.5	-56.9	17.3	0.00e+00	0	45	0	19922944	60	27572
2026-01-30 11:31:54.67	247.86	6.85	-54.3	-56.6	17.7	0.00e+00	0	45	0	22020096	60	26344
2026-01-30 11:31:55.68	247.99	6.90	-54.3	-56.6	17.8	0.00e+00	0	45	0	24117248	60	26346
2026-01-30 11:31:56.69	248.12	6.94	-54.1	-56.2	18.0	0.00e+00	0	45	0	25165824	60	25433
2026-01-30 11:31:57.70	248.25	6.99	-53.8	-55.9	18.4	0.00e+00	0	45	0	27262976	60	24476
2026-01-30 11:31:58.71	248.39	7.04	-53.8	-55.8	18.4	0.00e+00	0	45	0	29360128	60	24261
2026-01-30 11:31:59.71	248.52	7.08	-53.7	-55.8	18.5	0.00e+00	0	45	0	31457280	60	24091
2026-01-30 11:32:00.72	248.65	7.13	-53.7	-55.8	18.4	0.00e+00	0	45	0	33554432	60	24085
2026-01-30 11:32:01.72	248.79	7.17	-53.6	-55.7	18.5	0.00e+00	0	45	0	34603008	60	23829
2026-01-30 11:32:02.72	248.92	7.22	-53.8	-55.8	18.3	0.00e+00	0	44	0	36700160	60	24180
2026-01-30 11:32:03.73	249.05	7.26	-53.7	-55.7	18.5	0.00e+00	0	45	0	38797312	60	23888
2026-01-30 11:32:04.74	249.19	7.31	-53.6	-55.6	18.5	0.00e+00	0	45	0	40894464	60	23612
2026-01-30 11:32:05.74	249.32	7.35	-53.7	-55.8	18.3	0.00e+00	0	45	0	41943040	60	24074
2026-01-30 11:32:06.75	249.46	7.40	-53.6	-55.7	18.4	0.00e+00	0	45	0	44040192	60	23857
2026-01-30 11:32:07.75	249.59	7.45	-53.7	-55.8	18.3	0.00e+00	0	45	0	46137344	60	24164
2026-01-30 11:32:08.76	249.73	7.49	-53.5	-55.5	18.5	0.00e+00	0	45	0	48234496	60	23427
2026-01-30 11:32:09.76	249.87	7.54	-53.4	-55.3	18.8	0.00e+00	0	44	0	50331648	60	22934
2026-01-30 11:32:10.77	250.00	7.58	-53.4	-55.3	18.7	0.00e+00	0	44	0	52428800	60	22883
2026-01-30 11:32:11.78	250.14	7.63	-53.2	-55.0	18.9	0.00e+00	0	44	0	53477376	60	22120
2026-01-30 11:32:12.79	250.28	7.67	-53.1	-54.9	19.0	0.00e+00	0	44	0	55574528	60	21896
2026-01-30 11:32:13.79	250.42	7.72	-52.9	-54.7	19.2	0.00e+00	0	45	0	57671680	60	21196
2026-01-30 11:32:14.80	250.56	7.76	-53.0	-54.9	19.0	0.00e+00	0	45	0	59768832	60	21755
2026-01-30 11:32:15.81	250.70	7.81	-53.0	-54.9	19.1	0.00e+00	0	44	0	61865984	60	21757
2026-01-30 11:32:16.82	250.84	7.85	-53.0	-54.8	19.1	0.00e+00	0	45	0	62914560	60	21553
2026-01-30 11:32:17.83	250.98	7.90	-53.1	-55.0	18.9	0.00e+00	0	45	0	65011712	60	21922
2026-01-30 11:32:18.84	251.12	7.94	-53.1	-55.0	18.9	0.00e+00	0	45	0	67108864	60	22093
2026-01-30 11:32:19.84	251.26	7.98	-53.2	-55.2	18.7	0.00e+00	0	44	0	69206016	60	22596
2026-01-30 11:32:20.84	251.40	8.03	-53.3	-55.3	18.7	0.00e+00	0	45	0	71303168	60	22798
2026-01-30 11:32:21.85	251.54	8.07	-53.5	-55.5	18.5	0.00e+00	0	45	0	72351744	60	23421
2026-01-30 11:32:22.85	251.68	8.12	-53.5	-55.5	18.5	0.00e+00	0	45	0	74448896	60	23462
2026-01-30 11:32:23.86	251.82	8.16	-53.5	-55.6	18.5	0.00e+00	0	44	0	76546048	60	23523
2026-01-30 11:32:24.87	251.97	8.21	-53.5	-55.5	18.4	0.00e+00	0	45	0	78643200	60	23428
2026-01-30 11:32:25.88	252.11	8.25	-53.6	-55.6	18.4	0.00e+00	0	45	0	80740352	60	23543
2026-01-30 11:32:26.88	252.25	8.29	-53.5	-55.5	18.5	0.00e+00	0	45	0	81788928	60	23349
2026-01-30 11:32:27.89	252.40	8.34	-53.3	-55.2	18.7	0.00e+00	0	45	0	83886080	60	22537
2026-01-30 11:32:28.90	252.54	8.38	-53.4	-55.3	18.7	0.00e+00	0	45	0	85983232	60	22827
2026-01-30 11:32:29.90	252.69	8.43	-53.3	-55.2	18.8	0.00e+00	0	45	0	88080384	60	22480
2026-01-30 11:32:30.90	252.83	8.47	-53.3	-55.2	18.8	0.00e+00	0	45	0	90177536	60	22557
2026-01-30 11:32:31.91	252.98	8.51	-53.3	-55.2	18.7	0.00e+00	0	44	0	91226112	60	22601
2026-01-30 11:32:32.92	253.13	8.56	-53.3	-55.3	18.7	0.00e+00	0	45	0	93323264	60	22718
2026-01-30 11:32:33.93	253.27	8.60	-53.4	-55.4	18.6	0.00e+00	0	45	0	95420416	60	23000
2026-01-30 11:32:34.93	253.42	8.64	-53.4	-55.4	18.5	0.00e+00	0	44	0	97517568	60	23204
2026-01-30 11:32:35.94	253.57	8.69	-53.4	-55.4	18.6	0.00e+00	0	45	0	99614720	60	23073
2026-01-30 11:32:36.95	253.72	8.73	-53.5	-55.4	18.6	0.00e+00	0	45	0	100663296	60	23150
2026-01-30 11:32:37.95	253.86	8.77	-53.5	-55.4	18.6	0.00e+00	0	45	0	102760448	60	23193
2026-01-30 11:32:38.95	254.01	8.82	-53.4	-55.4	18.6	0.00e+00	0	45	0	104857600	60	23016
2026-01-30 11:32:39.96	254.16	8.86	-53.4	-55.3	18.7	0.00e+00	0	45	0	106954752	60	22844
2026-01-30 11:32:40.96	254.31	8.90	-53.5	-55.5	18.5	0.00e+00	0	45	0	109051904	60	23375
2026-01-30 11:32:41.97	254.46	8.94	-53.4	-55.4	18.6	0.00e+00	0	45	0	110100480	60	23086
2026-01-30 11:32:42.97	254.61	8.99	-53.4	-55.4	18.6	0.00e+00	0	45	0	112197632	60	23100
2026-01-30 11:32:43.97	254.76	9.03	-53.3	-55.2	18.7	0.00e+00	0	45	0	114294784	60	22644
2026-01-30 11:32:44.98	254.91	9.07	-53.2	-55.2	18.8	0.00e+00	0	45	0	116391936	60	22489
2026-01-30 11:32:45.99	255.06	9.11	-53.2	-55.1	18.8	0.00e+00	0	45	0	118489088	60	22384
2026-01-30 11:32:46.99	255.21	9.16	-53.2	-55.2	18.8	0.00e+00	0	45	0	119537664	60	22490
2026-01-30 11:32:48.00	255.37	9.20	-53.3	-55.3	18.7	0.00e+00	0	45	0	121634816	60	22679
2026-01-30 11:32:49.01	255.52	9.24	-53.2	-55.2	18.8	0.00e+00	0	45	0	123731968	60	22449
2026-01-30 11:32:50.02	255.67	9.28	-53.4	-55.4	18.6	0.00e+00	0	44	0	125829120	60	23054
2026-01-30 11:32:51.02	255.83	9.32	-53.1	-55.0	19.0	0.00e+00	0	45	0	127926272	60	22098
2026-01-30 11:32:52.03	255.98	9.37	-53.1	-55.0	19.0	0.00e+00	0	45	0	128974848	60	21982
2026-01-30 11:32:53.04	256.14	9.41	-53.0	-54.9	19.0	0.00e+00	0	45	0	131072000	60	21716
2026-01-30 11:32:54.04	256.29	9.45	-53.0	-54.8	19.1	0.00e+00	0	45	0	133169152	60	21626
2026-01-30 11:32:55.05	256.45	9.49	-53.0	-54.8	19.0	0.00e+00	0	45	0	135266304	60	21655
2026-01-30 11:32:56.05	256.60	9.53	-53.1	-54.9	18.9	0.00e+00	0	45	0	136314880	60	21839
2026-01-30 11:32:57.06	256.76	9.57	-53.2	-55.0	18.9	0.00e+00	0	45	0	138412032	60	22133
2026-01-30 11:32:58.07	256.92	9.61	-53.2	-55.1	18.8	0.00e+00	0	45	0	140509184	60	22222
2026-01-30 11:32:59.08	257.07	9.65	-53.3	-55.3	18.7	0.00e+00	0	45	0	142606336	60	22772
2026-01-30 11:33:00.09	257.23	9.70	-53.3	-55.2	18.7	0.00e+00	0	45	0	144703488	60	22598
2026-01-30 11:33:01.09	257.39	9.74	-53.4	-55.3	18.7	0.00e+00	0	45	0	146800640	60	22828
2026-01-30 11:33:02.10	257.55	9.78	-53.3	-55.2	18.8	0.00e+00	0	45	0	147849216	60	22488
2026-01-30 11:33:03.11	257.71	9.82	-53.4	-55.3	18.7	7.00e-07	0	45	0	149946368	60	22881
2026-01-30 11:33:04.12	257.87	9.86	-53.3	-55.2	18.9	0.00e+00	0	45	0	152043520	60	22664
2026-01-30 11:33:05.12	258.03	9.90	-53.2	-55.0	19.0	0.00e+00	0	45	0	154140672	60	21987
2026-01-30 11:33:06.13	258.19	9.94	-53.3	-55.1	18.9	0.00e+00	0	45	0	156237824	60	22385
2026-01-30 11:33:07.14	258.35	9.98	-53.2	-55.1	18.9	0.00e+00	0	45	0	157286400	60	22276
2026-01-30 11:33:08.14	258.51	10.02	-53.3	-55.2	18.8	0.00e+00	0	45	0	159383552	60	22600
2026-01-30 11:33:09.15	258.67	10.06	-53.5	-55.4	18.6	0.00e+00	0	45	0	161480704	60	23161
2026-01-30 11:33:10.16	258.83	10.10	-53.5	-55.5	18.5	0.00e+00	0	45	0	163577856	60	23299
2026-01-30 11:33:11.16	259.00	10.14	-53.6	-55.7	18.4	0.00e+00	0	45	0	165675008	60	23790
2026-01-30 11:33:12.17	259.16	10.17	-53.6	-55.7	18.3	0.00e+00	0	45	0	166723584	60	23791
2026-01-30 11:33:13.18	259.32	10.21	-53.7	-55.9	18.1	0.00e+00	0	45	0	168820736	60	24306
2026-01-30 11:33:14.19	259.49	10.25	-53.6	-55.6	18.4	0.00e+00	0	45	0	170917888	60	23568
2026-01-30 11:33:15.19	259.65	10.29	-53.8	-55.9	18.2	0.00e+00	0	45	0	173015040	60	24395
2026-01-30 11:33:16.20	259.81	10.33	-53.8	-55.9	18.1	0.00e+00	0	45	0	175112192	60	24572
2026-01-30 11:33:17.21	259.98	10.37	-53.6	-55.6	18.4	0.00e+00	0	45	0	176160768	60	23572
2026-01-30 11:33:18.21	260.14	10.41	-53.4	-55.4	18.6	0.00e+00	0	45	0	178257920	60	23020
2026-01-30 11:33:19.22	260.31	10.45	-53.5	-55.5	18.4	0.00e+00	0	45	0	180355072	60	23428
2026-01-30 11:33:20.23	260.48	10.48	-53.6	-55.5	18.5	0.00e+00	0	45	0	182452224	60	23462
2026-01-30 11:33:21.23	260.64	10.52	-53.6	-55.6	18.6	0.00e+00	0	45	0	184549376	60	23574
2026-01-30 11:33:22.24	260.81	10.56	-53.7	-55.8	18.3	0.00e+00	0	45	0	185597952	60	24024
2026-01-30 11:33:23.25	260.98	10.60	-53.8	-55.8	18.1	0.00e+00	0	45	0	187695104	60	24262
2026-01-30 11:33:24.26	261.15	10.63	-53.8	-55.9	18.2	0.00e+00	0	45	0	189792256	60	24519
2026-01-30 11:33:25.26	261.31	10.67	-53.7	-55.8	18.3	0.00e+00	0	45	0	191889408	60	24145
2026-01-30 11:33:26.27	261.48	10.71	-53.9	-56.1	18.2	0.00e+00	0	45	0	193986560	60	24877
2026-01-30 11:33:27.27	261.65	10.75	-54.1	-56.2	17.9	0.00e+00	0	45	0	195035136	60	25439
2026-01-30 11:33:28.28	261.82	10.78	-54.1	-56.2	18.0	0.00e+00	0	45	0	197132288	60	25299
2026-01-30 11:33:29.29	261.99	10.82	-54.1	-56.3	17.9	0.00e+00	0	45	0	199229440	60	25631
2026-01-30 11:33:30.29	262.16	10.86	-54.3	-56.5	17.7	0.00e+00	0	45	0	201326592	60	26255
2026-01-30 11:33:31.30	262.33	10.89	-54.2	-56.5	17.7	0.00e+00	0	45	0	203423744	60	26081
2026-01-30 11:33:32.31	262.50	10.93	-54.3	-56.5	17.8	0.00e+00	0	45	0	204472320	60	26144
2026-01-30 11:33:33.32	262.67	10.96	-54.2	-56.4	17.8	0.00e+00	0	45	0	206569472	60	26014
2026-01-30 11:33:34.33	262.85	11.00	-54.3	-56.6	17.7	0.00e+00	0	45	0	208666624	60	26483
2026-01-30 11:33:35.33	263.02	11.03	-54.3	-56.6	17.7	0.00e+00	0	45	0	210763776	60	26491
2026-01-30 11:33:36.34	263.19	11.07	-54.4	-56.7	17.7	0.00e+00	0	45	0	212860928	60	26651
2026-01-30 11:33:37.34	263.36	11.11	-54.4	-56.7	17.7	0.00e+00	0	45	0	213909504	60	26814
2026-01-30 11:33:38.35	263.54	11.14	-54.5	-56.8	17.5	0.00e+00	0	45	0	216006656	60	27125
2026-01-30 11:33:39.36	263.71	11.18	-54.6	-56.9	17.5	0.00e+00	0	45	0	218103808	60	27349
2026-01-30 11:33:40.36	263.88	11.21	-54.5	-56.8	17.7	0.00e+00	0	45	0	220200960	60	26951
2026-01-30 11:33:41.37	264.06	11.24	-54.6	-56.9	17.6	0.00e+00	0	45	0	222298112	60	27343
2026-01-30 11:33:42.37	264.23	11.28	-54.5	-56.7	17.7	0.00e+00	0	45	0	223346688	60	26817
2026-01-30 11:33:43.37	264.41	11.31	-54.5	-56.7	17.8	0.00e+00	0	45	0	225443840	60	26809
2026-01-30 11:33:44.38	264.58	11.35	-54.5	-56.8	17.8	0.00e+00	0	45	0	227540992	60	26959
2026-01-30 11:33:45.39	264.76	11.38	-54.4	-56.6	18.0	0.00e+00	0	45	0	229638144	60	26426
2026-01-30 11:33:46.40	264.94	11.41	-54.5	-56.7	17.8	0.00e+00	0	45	0	231735296	60	26811
2026-01-30 11:33:47.40	265.11	11.45	-54.5	-56.7	17.9	0.00e+00	0	45	0	232783872	60	26818
2026-01-30 11:33:48.41	265.29	11.48	-54.4	-56.5	17.9	0.00e+00	0	44	0	234881024	60	26265
2026-01-30 11:33:49.42	265.47	11.51	-54.5	-56.7	17.9	0.00e+00	0	44	0	236978176	60	26773
2026-01-30 11:33:50.43	265.65	11.55	-54.6	-56.9	17.7	0.00e+00	0	44	0	239075328	60	27268
2026-01-30 11:33:51.43	265.83	11.58	-54.5	-56.7	17.9	0.00e+00	0	45	0	241172480	60	26808
2026-01-30 11:33:52.44	266.01	11.61	-54.6	-56.8	17.9	0.00e+00	0	45	0	242221056	60	27163
2026-01-30 11:33:53.44	266.18	11.64	-54.6	-56.8	17.8	0.00e+00	0	45	0	244318208	60	27136
2026-01-30 11:33:54.45	266.36	11.67	-54.6	-56.8	18.0	0.00e+00	0	45	0	246415360	60	27044
2026-01-30 11:33:55.46	266.54	11.71	-54.6	-56.8	17.8	0.00e+00	0	45	0	248512512	60	26997
2026-01-30 11:33:56.46	266.72	11.74	-54.4	-56.5	18.0	0.00e+00	0	45	0	250609664	60	26097
2026-01-30 11:33:57.47	266.91	11.77	-54.2	-56.3	18.3	0.00e+00	0	45	0	251658240	60	25536
2026-01-30 11:33:58.48	267.09	11.80	-54.2	-56.3	18.3	0.00e+00	0	45	0	253755392	60	25577
2026-01-30 11:33:59.48	267.27	11.83	-54.3	-56.3	18.2	0.00e+00	0	45	0	255852544	60	25691
2026-01-30 11:34:00.49	267.45	11.86	-54.3	-56.3	18.3	0.00e+00	0	45	0	257949696	60	25612
2026-01-30 11:34:01.50	267.63	11.89	-54.4	-56.5	18.1	0.00e+00	0	45	0	260046848	60	26041
2026-01-30 11:34:02.51	267.82	11.92	-54.3	-56.3	18.2	0.00e+00	0	45	0	261095424	60	25718
2026-01-30 11:34:03.52	268.00	11.95	-54.4	-56.5	17.9	0.00e+00	0	45	0	263192576	60	26311
2026-01-30 11:34:04.52	268.18	11.98	-54.5	-56.7	17.8	0.00e+00	0	45	0	265289728	60	26811
2026-01-30 11:34:05.53	268.37	12.01	-54.6	-56.7	17.9	0.00e+00	0	45	0	267386880	60	26942
2026-01-30 11:34:06.54	268.55	12.04	-54.6	-56.8	17.8	0.00e+00	0	45	0	269484032	60	27135
2026-01-30 11:34:07.55	268.74	12.07	-54.5	-56.6	18.0	0.00e+00	0	45	0	270532608	60	26616
2026-01-30 11:34:08.55	268.92	12.10	-54.4	-56.5	18.0	0.00e+00	0	45	0	272629760	60	26299
2026-01-30 11:34:09.56	269.10	12.13	-54.5	-56.6	17.9	0.00e+00	0	45	0	274726912	60	26591
2026-01-30 11:34:10.57	269.29	12.16	-54.4	-56.5	18.1	0.00e+00	0	45	0	276824064	60	26231
2026-01-30 11:34:11.57	269.48	12.18	-54.3	-56.4	18.3	0.00e+00	0	45	0	278921216	60	25819
2026-01-30 11:34:12.58	269.66	12.21	-54.2	-56.2	18.4	0.00e+00	0	45	0	279969792	60	25347
2026-01-30 11:34:13.58	269.85	12.24	-54.4	-56.5	18.1	0.00e+00	0	45	0	282066944	60	26145
2026-01-30 11:34:14.57	270.03	12.27	-54.3	-56.3	18.3	0.00e+00	0	45	0	284164096	60	25643
2026-01-30 11:34:15.58	270.22	12.29	-54.0	-56.0	18.5	0.00e+00	0	45	0	286261248	60	24780
2026-01-30 11:34:16.59	270.41	12.32	-54.0	-56.0	18.6	0.00e+00	0	45	0	288358400	60	24626
2026-01-30 11:34:17.59	270.59	12.35	-53.9	-55.9	18.9	0.00e+00	0	45	0	289406976	60	24305
2026-01-30 11:34:18.59	270.78	12.37	-53.8	-55.7	18.9	0.00e+00	0	45	0	291504128	60	23912
2026-01-30 11:34:19.60	270.97	12.40	-53.7	-55.5	19.0	0.00e+00	0	45	0	293601280	60	23380
2026-01-30 11:34:20.61	271.16	12.43	-53.6	-55.4	19.1	0.00e+00	0	45	0	295698432	60	23171
2026-01-30 11:34:21.61	271.35	12.45	-53.5	-55.3	19.2	0.00e+00	0	45	0	297795584	60	22927
2026-01-30 11:34:22.62	271.54	12.48	-53.6	-55.4	19.1	0.00e+00	0	45	0	298844160	60	23113
2026-01-30 11:34:23.63	271.73	12.50	-53.6	-55.5	19.1	0.00e+00	0	45	0	300941312	60	23300
2026-01-30 11:34:24.63	271.92	12.53	-53.8	-55.7	18.9	0.00e+00	0	45	0	303038464	60	24007
2026-01-30 11:34:25.64	272.11	12.55	-53.8	-55.8	18.6	0.00e+00	0	45	0	305135616	60	24236
2026-01-30 11:34:26.64	272.30	12.57	-53.9	-55.9	18.6	0.00e+00	0	45	0	306184192	60	24413
2026-01-30 11:34:27.64	272.48	12.60	-54.0	-56.1	18.5	0.00e+00	0	45	0	308281344	60	24891
2026-01-30 11:34:28.65	272.68	12.62	-53.9	-55.9	18.7	0.00e+00	0	45	0	310378496	60	24356
2026-01-30 11:34:29.66	272.87	12.65	-53.9	-55.9	18.6	0.00e+00	0	45	0	312475648	60	24382
2026-01-30 11:34:30.67	273.06	12.67	-53.6	-55.5	18.9	0.00e+00	0	45	0	314572800	60	23387
2026-01-30 11:34:31.68	273.25	12.69	-53.4	-55.2	19.3	0.00e+00	0	45	0	316669952	60	22609
2026-01-30 11:34:32.68	273.44	12.72	-53.3	-55.1	19.4	0.00e+00	0	45	0	317718528	60	22194
2026-01-30 11:34:33.68	273.64	12.74	-53.4	-55.2	19.3	0.00e+00	0	45	0	319815680	60	22644
2026-01-30 11:34:34.69	273.83	12.76	-53.5	-55.4	19.2	0.00e+00	0	45	0	321912832	60	23042
2026-01-30 11:34:35.69	274.02	12.78	-53.7	-55.6	19.0	0.00e+00	0	45	0	324009984	60	23560
2026-01-30 11:34:36.70	274.22	12.80	-53.9	-55.9	18.7	0.00e+00	0	45	0	326107136	60	24561
2026-01-30 11:34:37.71	274.41	12.82	-53.8	-55.8	18.9	0.00e+00	0	45	0	327155712	60	24036
2026-01-30 11:34:38.71	274.60	12.85	-53.8	-55.7	19.0	0.00e+00	0	45	0	329252864	60	23942
2026-01-30 11:34:39.71	274.80	12.87	-53.6	-55.4	19.3	0.00e+00	0	45	0	331350016	60	23155
2026-01-30 11:34:40.72	274.99	12.89	-53.6	-55.4	19.3	0.00e+00	0	45	0	333447168	60	23045
2026-01-30 11:34:41.73	275.19	12.91	-53.4	-55.1	19.6	0.00e+00	0	45	0	334495744	60	22388
2026-01-30 11:34:42.73	275.38	12.93	-53.3	-55.1	19.5	0.00e+00	0	45	0	336592896	60	22295
2026-01-30 11:34:43.74	275.58	12.95	-53.6	-55.5	19.2	0.00e+00	0	45	0	338690048	60	23293
2026-01-30 11:34:44.74	275.77	12.97	-53.8	-55.7	18.9	0.00e+00	0	45	0	340787200	60	23861
2026-01-30 11:34:45.75	275.97	12.99	-54.0	-56.1	18.5	0.00e+00	0	45	0	342884352	60	24887
2026-01-30 11:34:46.76	276.16	13.00	-54.3	-56.4	18.2	0.00e+00	0	45	0	343932928	60	25984
2026-01-30 11:34:47.76	276.36	13.02	-54.3	-56.6	18.0	0.00e+00	0	45	0	346030080	60	26351
2026-01-30 11:34:48.77	276.56	13.04	-54.1	-56.3	18.4	0.00e+00	0	45	0	348127232	60	25596
2026-01-30 11:34:49.77	276.75	13.06	-53.9	-56.0	18.6	0.00e+00	0	45	0	350224384	60	24591
2026-01-30 11:34:50.78	276.95	13.08	-53.8	-55.8	18.8	0.00e+00	0	45	0	352321536	60	24191
2026-01-30 11:34:51.78	277.14	13.09	-53.8	-55.8	18.8	0.00e+00	0	45	0	354418688	60	24289
2026-01-30 11:34:52.79	277.34	13.11	-54.1	-56.3	18.3	0.00e+00	0	45	0	355467264	60	25455
2026-01-30 11:34:53.79	277.54	13.13	-54.5	-56.8	17.9	0.00e+00	0	45	0	357564416	60	27225
2026-01-30 11:34:54.80	277.74	13.14	-54.9	-57.4	17.3	0.00e+00	0	45	0	359661568	60	29122
2026-01-30 11:34:55.81	277.94	13.16	-55.2	-57.8	16.9	0.00e+00	0	45	0	361758720	60	30560
2026-01-30 11:34:56.81	278.13	13.18	-55.3	-58.1	16.6	0.00e+00	0	45	0	362807296	60	31586
2026-01-30 11:34:57.82	278.33	13.19	-55.1	-57.7	17.1	0.00e+00	0	45	0	364904448	60	29959
2026-01-30 11:34:58.82	278.53	13.21	-54.8	-57.2	17.5	0.00e+00	0	45	0	367001600	60	28536
2026-01-30 11:34:59.83	278.73	13.22	-54.4	-56.6	18.0	0.00e+00	0	45	0	369098752	60	26641
2026-01-30 11:35:00.84	278.93	13.24	-54.3	-56.5	18.2	0.00e+00	0	45	0	371195904	60	26194
2026-01-30 11:35:01.85	279.13	13.25	-54.1	-56.2	18.5	0.00e+00	0	45	0	372244480	60	25256
2026-01-30 11:35:02.86	279.33	13.27	-54.3	-56.4	18.3	0.00e+00	0	45	0	374341632	60	26004
2026-01-30 11:35:03.86	279.53	13.28	-54.5	-56.8	17.9	0.00e+00	0	45	0	376438784	60	27010
2026-01-30 11:35:04.87	279.73	13.29	-54.6	-56.9	17.8	0.00e+00	0	45	0	378535936	60	27511
2026-01-30 11:35:05.87	279.93	13.31	-54.7	-57.1	17.7	0.00e+00	0	45	0	380633088	60	28044
2026-01-30 11:35:06.87	280.12	13.32	-54.7	-57.0	17.7	0.00e+00	0	45	0	382730240	60	27860
2026-01-30 11:35:07.88	280.33	13.33	-54.6	-56.9	17.9	0.00e+00	0	45	0	383778816	60	27284
2026-01-30 11:35:08.89	280.53	13.34	-54.3	-56.4	18.1	0.00e+00	0	45	0	385875968	60	25999
2026-01-30 11:35:09.89	280.73	13.35	-54.3	-56.5	18.2	0.00e+00	0	45	0	387973120	60	26092
2026-01-30 11:35:10.90	280.93	13.37	-54.3	-56.5	18.1	0.00e+00	0	45	0	390070272	60	26211
2026-01-30 11:35:11.91	281.13	13.38	-54.1	-56.3	18.3	0.00e+00	0	45	0	391118848	60	25622
2026-01-30 11:35:12.92	281.33	13.39	-54.4	-56.7	17.9	0.00e+00	0	45	0	393216000	60	26697
2026-01-30 11:35:13.93	281.53	13.40	-54.4	-56.8	17.7	0.00e+00	0	45	0	395313152	60	26982
2026-01-30 11:35:14.93	281.73	13.41	-54.5	-56.9	17.6	0.00e+00	0	45	0	397410304	60	27346
2026-01-30 11:35:15.94	281.93	13.42	-54.3	-56.7	17.8	0.00e+00	0	45	0	399507456	60	26833
2026-01-30 11:35:16.95	282.14	13.43	-54.1	-56.3	18.0	0.00e+00	0	45	0	400556032	60	25720
2026-01-30 11:35:17.96	282.34	13.44	-53.9	-56.0	18.5	0.00e+00	0	45	0	402653184	60	24699
2026-01-30 11:35:18.96	282.54	13.45	-53.6	-55.5	18.9	0.00e+00	0	45	0	404750336	60	23462
2026-01-30 11:35:19.97	282.74	13.46	-53.5	-55.5	19.0	0.00e+00	0	45	0	406847488	60	23246
2026-01-30 11:35:20.98	282.94	13.46	-53.5	-55.5	19.0	0.00e+00	0	45	0	408944640	60	23453
2026-01-30 11:35:21.98	283.14	13.47	-53.7	-55.8	18.7	0.00e+00	0	45	0	411041792	60	24279
2026-01-30 11:35:22.98	283.35	13.48	-53.8	-56.0	18.5	0.00e+00	0	45	0	412090368	60	24784
2026-01-30 11:35:23.99	283.55	13.49	-53.9	-56.1	18.4	0.00e+00	0	45	0	414187520	60	24994
2026-01-30 11:35:24.99	283.75	13.49	-53.9	-56.2	18.4	0.00e+00	0	45	0	416284672	60	25203
2026-01-30 11:35:26.00	283.95	13.50	-53.9	-56.0	18.6	0.00e+00	0	45	0	418381824	60	24804
2026-01-30 11:35:27.01	284.16	13.51	-53.7	-55.8	18.8	0.00e+00	0	45	0	419430400	60	24141
2026-01-30 11:35:28.02	284.36	13.51	-53.4	-55.3	19.2	0.00e+00	0	45	0	421527552	60	22886
2026-01-30 11:35:29.03	284.56	13.52	-53.1	-54.9	19.7	0.00e+00	0	45	0	423624704	60	21685
2026-01-30 11:35:30.03	284.76	13.53	-52.9	-54.6	19.9	0.00e+00	0	45	0	425721856	60	21131
2026-01-30 11:35:31.04	284.97	13.53	-52.9	-54.7	19.9	0.00e+00	0	45	0	427819008	60	21207
2026-01-30 11:35:32.05	285.17	13.53	-53.0	-54.7	19.9	0.00e+00	0	45	0	428867584	60	21247
2026-01-30 11:35:33.06	285.37	13.54	-53.0	-54.8	19.8	0.00e+00	0	45	0	430964736	60	21511
2026-01-30 11:35:34.06	285.58	13.54	-53.2	-55.0	19.7	0.00e+00	0	45	0	433061888	60	21933
2026-01-30 11:35:35.06	285.78	13.55	-53.3	-55.1	19.6	0.00e+00	0	45	0	435159040	60	22165
2026-01-30 11:35:36.07	285.98	13.55	-53.3	-55.1	19.6	0.00e+00	0	45	0	437256192	60	22284
2026-01-30 11:35:37.07	286.18	13.55	-53.3	-55.1	19.6	0.00e+00	0	45	0	439353344	60	22333
2026-01-30 11:35:38.08	286.39	13.56	-53.6	-55.4	19.5	0.00e+00	0	45	0	440401920	60	23037
2026-01-30 11:35:39.09	286.59	13.56	-53.7	-55.5	19.4	0.00e+00	0	45	0	442499072	60	23403
2026-01-30 11:35:40.10	286.79	13.56	-53.7	-55.5	19.3	0.00e+00	0	45	0	444596224	60	23444
2026-01-30 11:35:41.10	287.00	13.56	-53.8	-55.7	19.1	0.00e+00	0	45	0	446693376	60	23763
2026-01-30 11:35:42.11	287.20	13.56	-53.8	-55.7	19.2	0.00e+00	0	45	0	447741952	60	23844
2026-01-30 11:35:43.12	287.40	13.57	-53.7	-55.6	19.3	0.00e+00	0	45	0	449839104	60	23539
2026-01-30 11:35:44.13	287.61	13.57	-53.8	-55.7	19.2	0.00e+00	0	45	0	451936256	60	23755
2026-01-30 11:35:45.13	287.81	13.57	-53.5	-55.4	19.5	0.00e+00	0	45	0	454033408	60	23049
2026-01-30 11:35:46.14	288.01	13.57	-53.5	-55.3	19.6	0.00e+00	0	45	0	456130560	60	22776
2026-01-30 11:35:47.14	288.22	13.57	-53.4	-55.1	19.7	0.00e+00	0	45	0	457179136	60	22363
2026-01-30 11:35:48.14	288.42	13.57	-53.5	-55.3	19.5	0.00e+00	0	45	0	459276288	60	22877
2026-01-30 11:35:49.15	288.62	13.57	-53.5	-55.4	19.4	0.00e+00	0	45	0	461373440	60	23186
2026-01-30 11:35:50.16	288.83	13.57	-53.6	-55.6	19.2	0.00e+00	0	45	0	463470592	60	23503
2026-01-30 11:35:51.17	289.03	13.56	-53.8	-55.9	18.9	0.00e+00	0	45	0	465567744	60	24404
2026-01-30 11:35:52.18	289.23	13.56	-53.7	-55.8	19.0	0.00e+00	0	45	0	467664896	60	24021
2026-01-30 11:35:53.18	289.44	13.56	-53.5	-55.6	19.2	0.00e+00	0	45	0	468713472	60	23579
2026-01-30 11:35:54.19	289.64	13.56	-53.6	-55.6	18.7	0.00e+00	0	45	0	470810624	60	23686
2026-01-30 11:35:55.19	289.84	13.55	-53.6	-55.7	19.1	0.00e+00	0	45	0	472907776	60	23801
2026-01-30 11:35:56.20	290.05	13.55	-53.4	-55.5	19.3	0.00e+00	0	45	0	475004928	60	23342
2026-01-30 11:35:57.21	290.25	13.55	-53.4	-55.5	19.3	0.00e+00	0	45	0	476053504	60	23380
2026-01-30 11:35:58.22	290.45	13.54	-53.6	-55.7	19.2	0.00e+00	0	45	0	478150656	60	23816
2026-01-30 11:35:59.22	290.65	13.54	-53.7	-55.8	19.1	0.00e+00	0	45	0	480247808	60	24148
2026-01-30 11:36:00.23	290.86	13.54	-53.6	-55.7	19.3	0.00e+00	0	45	0	482344960	60	23858
2026-01-30 11:36:01.24	291.06	13.53	-53.6	-55.6	19.5	0.00e+00	0	45	0	484442112	60	23531
2026-01-30 11:36:02.24	291.26	13.53	-53.4	-55.3	19.6	0.00e+00	0	45	0	485490688	60	22824
2026-01-30 11:36:03.24	291.46	13.52	-53.4	-55.2	19.7	0.00e+00	0	45	0	487587840	60	22654
2026-01-30 11:36:04.25	291.67	13.51	-53.5	-55.2	19.7	0.00e+00	0	45	0	489684992	60	22673
2026-01-30 11:36:05.26	291.87	13.51	-53.5	-55.3	19.7	0.00e+00	0	45	0	491782144	60	22806
2026-01-30 11:36:06.26	292.07	13.50	-53.7	-55.5	19.5	0.00e+00	0	45	0	493879296	60	23273
2026-01-30 11:36:07.27	292.27	13.50	-53.8	-55.6	19.3	0.00e+00	0	45	0	495976448	60	23593
2026-01-30 11:36:08.27	292.48	13.49	-53.6	-55.4	19.5	0.00e+00	0	45	0	497025024	60	22996
2026-01-30 11:36:09.27	292.68	13.48	-53.5	-55.2	19.5	0.00e+00	0	45	0	499122176	60	22646
2026-01-30 11:36:10.28	292.88	13.47	-53.3	-55.0	19.7	0.00e+00	0	45	0	501219328	60	22000
2026-01-30 11:36:11.29	293.08	13.47	-53.2	-54.9	19.8	0.00e+00	0	45	0	503316480	60	21687
2026-01-30 11:36:12.29	293.28	13.46	-52.8	-54.4	20.2	0.00e+00	0	45	0	504365056	60	20618
2026-01-30 11:36:13.30	293.48	13.45	-52.7	-54.4	20.1	0.00e+00	0	45	0	506462208	60	20541
2026-01-30 11:36:14.30	293.68	13.44	-52.6	-54.3	20.3	0.00e+00	0	45	0	508559360	60	20313
2026-01-30 11:36:15.31	293.89	13.43	-52.5	-54.2	20.2	0.00e+00	0	45	0	510656512	60	20206
2026-01-30 11:36:16.32	294.09	13.42	-52.5	-54.3	20.1	0.00e+00	0	45	0	512753664	60	20323
2026-01-30 11:36:17.32	294.29	13.41	-52.6	-54.4	20.0	0.00e+00	0	45	0	513802240	60	20676
2026-01-30 11:36:18.33	294.49	13.40	-52.6	-54.4	20.0	0.00e+00	0	45	0	515899392	60	20659
2026-01-30 11:36:19.33	294.69	13.39	-52.5	-54.4	20.1	0.00e+00	0	45	0	517996544	60	20597
2026-01-30 11:36:20.34	294.89	13.38	-52.6	-54.5	20.0	0.00e+00	0	45	0	520093696	60	20805
2026-01-30 11:36:21.35	295.09	13.37	-52.7	-54.6	20.0	0.00e+00	0	45	0	522190848	60	21042
2026-01-30 11:36:22.35	295.29	13.36	-52.6	-54.5	20.1	0.00e+00	0	45	0	523239424	60	20759
2026-01-30 11:36:23.35	295.49	13.35	-52.7	-54.5	20.1	0.00e+00	0	45	0	525336576	60	20870
2026-01-30 11:36:24.36	295.69	13.33	-52.9	-54.8	19.9	0.00e+00	0	45	0	527433728	60	21488
2026-01-30 11:36:25.36	295.89	13.32	-52.9	-54.7	20.0	0.00e+00	0	45	0	529530880	60	21211
2026-01-30 11:36:26.37	296.09	13.31	-53.2	-55.0	19.9	0.00e+00	0	45	0	531628032	60	21984
2026-01-30 11:36:27.38	296.29	13.30	-53.3	-55.0	19.9	0.00e+00	0	45	0	532676608	60	22139
2026-01-30 11:36:28.38	296.49	13.28	-53.3	-55.1	19.9	0.00e+00	0	45	0	534773760	60	22186
2026-01-30 11:36:29.38	296.69	13.27	-53.3	-55.0	20.0	0.00e+00	0	45	0	536870912	60	22090
2026-01-30 11:36:30.38	296.88	13.25	-53.2	-54.8	20.2	0.00e+00	0	45	0	538968064	60	21570
2026-01-30 11:36:31.39	297.08	13.24	-53.2	-54.7	20.3	0.00e+00	0	45	0	541065216	60	21297
2026-01-30 11:36:32.39	297.28	13.23	-53.1	-54.6	20.4	0.00e+00	0	45	0	542113792	60	21124
2026-01-30 11:36:33.40	297.48	13.21	-53.1	-54.7	20.4	0.00e+00	0	45	0	544210944	60	21236
2026-01-30 11:36:34.40	297.68	13.20	-53.1	-54.7	20.3	0.00e+00	0	45	0	546308096	60	21193
2026-01-30 11:36:35.41	297.88	13.18	-53.3	-54.9	20.0	0.00e+00	0	45	0	548405248	60	21733
2026-01-30 11:36:36.41	298.07	13.17	-53.2	-54.9	20.1	0.00e+00	0	45	0	550502400	60	21725
2026-01-30 11:36:37.42	298.27	13.15	-53.2	-54.8	20.1	0.00e+00	0	45	0	551550976	60	21628
2026-01-30 11:36:38.42	298.47	13.13	-53.3	-55.0	20.0	0.00e+00	0	45	0	553648128	60	22058
2026-01-30 11:36:39.43	298.67	13.12	-53.3	-55.0	20.0	0.00e+00	0	45	0	555745280	60	22031
2026-01-30 11:36:40.43	298.86	13.10	-53.1	-54.8	20.1	0.00e+00	0	45	0	557842432	60	21606
2026-01-30 11:36:41.44	299.06	13.08	-53.2	-54.9	20.1	0.00e+00	0	45	0	558891008	60	21683
2026-01-30 11:36:42.44	299.25	13.06	-53.1	-54.8	20.2	0.00e+00	0	45	0	560988160	60	21625
2026-01-30 11:36:43.45	299.45	13.05	-53.1	-54.8	20.2	0.00e+00	0	45	0	563085312	60	21457
2026-01-30 11:36:44.46	299.65	13.03	-53.1	-54.8	20.3	0.00e+00	0	45	0	565182464	60	21481
2026-01-30 11:36:45.47	299.84	13.01	-53.0	-54.6	20.4	0.00e+00	0	45	0	567279616	60	21020
2026-01-30 11:36:46.47	300.04	12.99	-53.1	-54.7	20.2	0.00e+00	0	45	0	569376768	60	21381
2026-01-30 11:36:47.48	300.23	12.97	-53.2	-54.8	20.2	0.00e+00	0	45	0	570425344	60	21593
2026-01-30 11:36:48.48	300.43	12.95	-53.1	-54.6	20.3	0.00e+00	0	45	0	572522496	60	21078
2026-01-30 11:36:49.49	300.62	12.93	-53.0	-54.5	20.1	0.00e+00	0	45	0	574619648	60	20851
2026-01-30 11:36:50.49	300.82	12.91	-52.9	-54.4	20.5	0.00e+00	0	45	0	576716800	60	20644
2026-01-30 11:36:51.50	301.01	12.89	-52.9	-54.4	20.5	0.00e+00	0	45	0	578813952	60	20529
2026-01-30 11:36:52.51	301.21	12.87	-52.8	-54.3	20.5	0.00e+00	0	45	0	579862528	60	20303
2026-01-30 11:36:53.51	301.40	12.85	-52.9	-54.3	20.4	0.00e+00	0	45	0	581959680	60	20421
2026-01-30 11:36:54.52	301.59	12.83	-52.7	-54.2	20.6	0.00e+00	0	45	0	584056832	60	20101
2026-01-30 11:36:55.53	301.79	12.81	-52.7	-54.1	20.6	0.00e+00	0	45	0	586153984	60	19949
2026-01-30 11:36:56.52	301.98	12.79	-52.6	-54.1	20.6	0.00e+00	0	45	0	587202560	60	19767
2026-01-30 11:36:57.53	302.17	12.77	-52.7	-54.1	20.6	0.00e+00	0	45	0	589299712	60	19946
2026-01-30 11:36:58.54	302.36	12.75	-52.7	-54.2	20.7	0.00e+00	0	45	0	591396864	60	20017
2026-01-30 11:36:59.55	302.56	12.72	-52.6	-54.1	20.7	0.00e+00	0	45	0	593494016	60	19776
2026-01-30 11:37:00.55	302.75	12.70	-52.7	-54.2	20.6	0.00e+00	0	45	0	595591168	60	20081
2026-01-30 11:37:01.56	302.94	12.68	-52.6	-54.0	20.8	0.00e+00	0	45	0	597688320	60	19705
2026-01-30 11:37:02.56	303.13	12.65	-52.7	-54.1	20.7	0.00e+00	0	45	0	598736896	60	19904
2026-01-30 11:37:03.56	303.32	12.63	-52.6	-54.0	20.6	0.00e+00	0	45	0	600834048	60	19681
2026-01-30 11:37:04.57	303.51	12.61	-52.6	-54.0	20.7	0.00e+00	0	45	0	602931200	60	19616
2026-01-30 11:37:05.58	303.70	12.58	-52.6	-54.0	20.7	0.00e+00	0	45	0	605028352	60	19675
2026-01-30 11:37:06.58	303.89	12.56	-52.8	-54.3	20.3	0.00e+00	0	45	0	607125504	60	20377
2026-01-30 11:37:07.59	304.08	12.54	-52.8	-54.4	20.2	0.00e+00	0	45	0	608174080	60	20480
2026-01-30 11:37:08.59	304.27	12.51	-52.8	-54.4	20.1	0.00e+00	0	45	0	610271232	60	20651
2026-01-30 11:37:09.59	304.46	12.49	-52.9	-54.6	19.9	0.00e+00	0	45	0	612368384	60	20939
2026-01-30 11:37:10.60	304.65	12.46	-52.8	-54.5	19.9	0.00e+00	0	45	0	614465536	60	20855
2026-01-30 11:37:11.61	304.84	12.44	-52.8	-54.5	19.9	0.00e+00	0	45	0	615514112	60	20841
2026-01-30 11:37:12.62	305.03	12.41	-52.7	-54.4	20.0	0.00e+00	0	45	0	617611264	60	20458
2026-01-30 11:37:13.63	305.21	12.38	-52.7	-54.4	20.1	0.00e+00	0	45	0	619708416	60	20453
2026-01-30 11:37:14.63	305.40	12.36	-52.4	-53.9	20.5	0.00e+00	0	45	0	621805568	60	19502
2026-01-30 11:37:15.64	305.59	12.33	-52.3	-53.8	20.6	0.00e+00	0	45	0	623902720	60	19229
2026-01-30 11:37:16.65	305.78	12.30	-52.5	-54.0	20.5	0.00e+00	0	45	0	624951296	60	19634
2026-01-30 11:37:17.66	305.96	12.28	-52.4	-53.9	20.8	0.00e+00	0	45	0	627048448	60	19461
2026-01-30 11:37:18.66	306.15	12.25	-52.5	-54.0	20.6	0.00e+00	0	45	0	629145600	60	19685
2026-01-30 11:37:19.67	306.33	12.22	-52.7	-54.2	20.7	0.00e+00	0	45	0	631242752	60	20021
2026-01-30 11:37:20.68	306.52	12.19	-52.6	-54.1	20.7	0.00e+00	0	45	0	633339904	60	19801
2026-01-30 11:37:21.69	306.71	12.17	-52.5	-53.9	20.8	0.00e+00	0	45	0	635437056	60	19392
2026-01-30 11:37:22.69	306.89	12.14	-52.4	-53.8	21.0	0.00e+00	0	45	0	636485632	60	19084
2026-01-30 11:37:23.70	307.08	12.11	-52.4	-53.8	20.8	0.00e+00	0	45	0	638582784	60	19283
2026-01-30 11:37:24.71	307.26	12.08	-52.2	-53.5	21.1	0.00e+00	0	45	0	640679936	60	18622
2026-01-30 11:37:25.71	307.44	12.05	-52.2	-53.6	21.1	0.00e+00	0	45	0	642777088	60	18795
2026-01-30 11:37:26.72	307.63	12.02	-52.2	-53.6	21.1	0.00e+00	0	45	0	643825664	60	18660
2026-01-30 11:37:27.73	307.81	11.99	-52.2	-53.6	21.0	0.00e+00	0	45	0	645922816	60	18752
2026-01-30 11:37:28.74	307.99	11.97	-52.3	-53.7	21.0	0.00e+00	0	45	0	648019968	60	18887
2026-01-30 11:37:29.74	308.18	11.94	-52.3	-53.7	21.0	0.00e+00	0	45	0	650117120	60	18867
2026-01-30 11:37:30.75	308.36	11.91	-52.4	-53.8	20.8	0.00e+00	0	45	0	652214272	60	19288
2026-01-30 11:37:31.76	308.54	11.88	-52.6	-54.1	20.6	0.00e+00	0	45	0	654311424	60	19751
2026-01-30 11:37:32.76	308.72	11.85	-52.7	-54.1	20.5	0.00e+00	0	45	0	655360000	60	19960
2026-01-30 11:37:33.77	308.90	11.81	-52.7	-54.2	20.4	0.00e+00	0	45	0	657457152	60	19986
2026-01-30 11:37:34.78	309.08	11.78	-52.8	-54.4	20.3	0.00e+00	0	45	0	659554304	60	20533
2026-01-30 11:37:35.79	309.26	11.75	-52.8	-54.4	20.3	0.00e+00	0	45	0	661651456	60	20491
2026-01-30 11:37:36.79	309.44	11.72	-52.8	-54.4	20.2	0.00e+00	0	45	0	663748608	60	20562
2026-01-30 11:37:37.79	309.62	11.69	-52.9	-54.5	20.2	0.00e+00	0	45	0	664797184	60	20740
2026-01-30 11:37:38.80	309.80	11.66	-52.9	-54.5	20.1	0.00e+00	0	45	0	666894336	60	20869
2026-01-30 11:37:39.81	309.98	11.63	-52.6	-54.2	20.2	0.00e+00	0	45	0	668991488	60	20181
2026-01-30 11:37:40.82	310.16	11.59	-52.7	-54.4	20.1	0.00e+00	0	45	0	671088640	60	20586
2026-01-30 11:37:41.83	310.34	11.56	-52.7	-54.4	20.1	0.00e+00	0	45	0	672137216	60	20475
2026-01-30 11:37:42.84	310.52	11.53	-52.7	-54.4	20.0	0.00e+00	0	45	0	674234368	60	20593
2026-01-30 11:37:43.84	310.69	11.50	-52.8	-54.6	19.9	0.00e+00	0	45	0	676331520	60	21060
2026-01-30 11:37:44.85	310.87	11.46	-52.8	-54.6	19.7	0.00e+00	0	45	0	678428672	60	21146
2026-01-30 11:37:45.85	311.04	11.43	-53.0	-54.8	19.5	0.00e+00	0	45	0	680525824	60	21556
2026-01-30 11:37:46.86	311.22	11.40	-53.1	-54.9	19.3	0.00e+00	0	45	0	682622976	60	21890
2026-01-30 11:37:47.87	311.40	11.36	-53.2	-55.1	19.1	0.00e+00	0	45	0	683671552	60	22373
2026-01-30 11:37:48.87	311.57	11.33	-53.4	-55.4	18.9	0.00e+00	0	45	0	685768704	60	22983
2026-01-30 11:37:49.88	311.75	11.30	-53.5	-55.5	18.7	0.00e+00	0	45	0	687865856	60	23298
2026-01-30 11:37:50.89	311.92	11.26	-53.6	-55.6	18.7	0.00e+00	0	45	0	689963008	60	23655
2026-01-30 11:37:51.89	312.10	11.23	-53.7	-55.8	18.5	0.00e+00	0	45	0	692060160	60	24086
2026-01-30 11:37:52.89	312.27	11.19	-53.9	-56.0	18.1	0.00e+00	0	45	0	693108736	60	24849
2026-01-30 11:37:53.90	312.44	11.16	-54.1	-56.3	18.0	0.00e+00	0	45	0	695205888	60	25723
2026-01-30 11:37:54.90	312.61	11.13	-54.3	-56.6	17.7	0.00e+00	0	45	0	697303040	60	26536
2026-01-30 11:37:55.91	312.79	11.09	-54.4	-56.8	17.4	0.00e+00	0	45	0	699400192	60	27145
2026-01-30 11:37:56.92	312.96	11.05	-54.4	-56.9	17.3	0.00e+00	0	45	0	700448768	60	27406
2026-01-30 11:37:57.92	313.13	11.02	-54.5	-57.1	17.0	0.00e+00	0	45	0	702545920	60	28153
2026-01-30 11:37:58.93	313.30	10.98	-54.6	-57.2	17.0	0.00e+00	0	45	0	704643072	60	28503
2026-01-30 11:37:59.93	313.47	10.95	-54.6	-57.4	16.7	0.00e+00	0	45	0	706740224	60	28904
2026-01-30 11:38:00.94	313.64	10.91	-54.7	-57.4	16.7	0.00e+00	0	45	0	708837376	60	29040
2026-01-30 11:38:01.94	313.81	10.88	-54.6	-57.4	16.7	0.00e+00	0	45	0	709885952	60	29027
2026-01-30 11:38:02.95	313.98	10.84	-54.7	-57.5	16.5	0.00e+00	0	45	0	711983104	60	29506
2026-01-30 11:38:03.96	314.15	10.80	-54.5	-57.3	16.7	0.00e+00	0	45	0	714080256	60	28873
2026-01-30 11:38:04.96	314.32	10.77	-54.6	-57.6	16.5	0.00e+00	0	45	0	716177408	60	29608
2026-01-30 11:38:05.96	314.49	10.73	-54.6	-57.6	16.4	0.00e+00	0	45	0	718274560	60	29585
2026-01-30 11:38:06.96	314.65	10.70	-54.6	-57.7	16.2	0.00e+00	0	45	0	720371712	60	30084
2026-01-30 11:38:07.97	314.82	10.66	-54.8	-58.1	15.7	0.00e+00	0	45	0	721420288	60	31400
2026-01-30 11:38:08.97	314.99	10.62	-55.0	-58.4	15.5	0.00e+00	0	45	0	723517440	60	32459
2026-01-30 11:38:09.97	315.15	10.58	-55.3	-59.0	14.8	0.00e+00	0	45	0	725614592	60	34738
2026-01-30 11:38:10.98	315.32	10.55	-55.5	-59.4	14.3	0.00e+00	0	45	0	727711744	60	36539
2026-01-30 11:38:11.99	315.49	10.51	-55.7	-59.8	13.9	2.20e-06	0	45	0	728760320	60	38380
2026-01-30 11:38:13.00	315.65	10.47	-55.8	-60.0	13.6	6.10e-06	0	45	0	730857472	60	39173
2026-01-30 11:38:14.01	315.82	10.43	-55.8	-60.3	13.3	1.44e-05	0	45	0	732954624	60	40432
2026-01-30 11:38:15.02	315.98	10.40	-55.8	-60.3	13.2	1.98e-05	0	45	0	735051776	60	40478
2026-01-30 11:38:16.02	316.15	10.36	-55.6	-60.0	13.5	2.21e-05	0	45	0	737148928	60	39122
2026-01-30 11:38:17.03	316.31	10.32	-55.5	-60.0	13.4	9.90e-06	0	45	0	738197504	60	38967
2026-01-30 11:38:18.04	316.48	10.28	-55.6	-60.1	13.2	1.75e-05	0	45	0	740294656	60	39669
2026-01-30 11:38:19.05	316.64	10.24	-55.7	-60.3	13.0	3.43e-05	0	45	0	742391808	60	40711
2026-01-30 11:38:20.05	316.80	10.20	-55.9	-60.8	12.4	9.07e-05	0	45	0	744488960	60	43045
2026-01-30 11:38:21.06	316.96	10.16	-56.0	-61.2	12.0	1.88e-04	0	45	0	746586112	60	44736
2026-01-30 11:38:22.07	317.13	10.12	-56.0	-61.6	11.5	3.62e-04	0	45	0	748683264	60	47055
2026-01-30 11:38:23.08	317.29	10.09	-56.0	-61.6	11.4	1.03e-03	0	45	0	749731840	60	47292
2026-01-30 11:38:24.08	317.45	10.05	-55.9	-61.8	11.2	1.19e-03	0	45	0	751828992	60	47969
2026-01-30 11:38:25.09	317.61	10.01	-55.9	-61.9	11.1	1.41e-03	0	45	0	753926144	60	48534
2026-01-30 11:38:26.09	317.77	9.97	-55.8	-61.7	11.2	1.24e-03	0	45	0	756023296	60	47611
2026-01-30 11:38:27.10	317.93	9.93	-55.7	-61.7	11.1	1.63e-03	0	45	0	757071872	60	47644
2026-01-30 11:38:28.10	318.09	9.89	-55.6	-61.8	11.0	1.80e-03	0	45	0	759169024	60	48298
2026-01-30 11:38:29.11	318.25	9.85	-55.7	-62.1	10.7	1.94e-03	0	45	0	761266176	60	49643
2026-01-30 11:38:30.11	318.40	9.81	-55.7	-62.4	10.3	3.23e-03	0	45	0	763363328	60	51830
2026-01-30 11:38:31.11	318.56	9.77	-55.6	-62.7	9.9	6.64e-03	0	45	0	765460480	60	53588
2026-01-30 11:38:32.11	318.72	9.73	-55.6	-63.1	9.4	1.08e-02	0	45	0	766509056	60	55748
2026-01-30 11:38:33.12	318.87	9.69	-55.6	-63.3	9.1	1.67e-02	0	45	0	768606208	60	57455
2026-01-30 11:38:34.13	319.03	9.65	-55.7	-63.7	8.7	2.93e-02	0	45	0	770703360	60	59928
2026-01-30 11:38:35.14	319.19	9.61	-55.8	-63.9	8.5	4.27e-02	0	45	0	772800512	60	61106
2026-01-30 11:38:36.14	319.34	9.57	-55.9	-63.8	8.5	4.14e-02	0	45	0	774897664	60	60880
2026-01-30 11:38:37.14	319.50	9.53	-56.0	-64.1	8.2	5.03e-02	0	45	0	775946240	60	62793
2026-01-30 11:38:38.15	319.65	9.48	-56.1	-64.2	8.1	5.58e-02	0	45	0	778043392	60	63823
2026-01-30 11:38:39.16	319.81	9.44	-56.2	-64.2	8.1	6.64e-02	0	45	0	780140544	60	63755
2026-01-30 11:38:40.16	319.96	9.40	-56.4	-64.7	7.6	7.48e-02	0	45	0	782237696	60	67529
2026-01-30 11:38:41.17	320.12	9.36	-56.5	-64.9	7.4	9.42e-02	0	45	0	784334848	60	69153
2026-01-30 11:38:42.18	320.27	9.32	-56.6	-64.9	7.4	1.06e-01	0	45	0	785383424	60	69040
2026-01-30 11:38:43.18	320.42	9.28	-56.8	-65.3	7.0	1.21e-01	0	45	0	787480576	60	71991
2026-01-30 11:38:44.18	320.57	9.24	-56.9	-65.4	6.9	1.53e-01	0	45	0	789577728	60	73033
2026-01-30 11:38:45.19	320.73	9.19	-57.0	-65.7	6.6	1.64e-01	0	45	0	791674880	60	75527
2026-01-30 11:38:46.20	320.88	9.15	-57.4	-66.7	5.6	3.88e-01	0	45	0	793772032	60	84315
2026-01-30 11:38:47.20	321.03	9.11	-57.1	-66.0	6.2	2.64e-01	0	45	0	794820608	60	78485
2026-01-30 11:38:48.21	321.18	9.07	-57.5	-68.2	4.3	5.37e-01	0	45	0	796917760	60	101205
2026-01-30 11:38:49.21	321.33	9.03	-57.0	-67.2	5.0	5.46e-01	0	45	0	799014912	60	90163
2026-01-30 11:38:50.22	321.48	8.98	-57.2	-67.8	4.5	5.96e-01	0	45	0	801112064	60	96637
2026-01-30 11:38:51.22	321.63	8.94	-57.0	-67.1	5.1	5.32e-01	0	45	0	803209216	60	88455
2026-01-30 11:38:52.23	321.78	8.90	-57.0	-67.2	4.9	5.67e-01	0	45	0	804257792	60	89627
2026-01-30 11:38:53.23	321.93	8.86	-57.1	-67.4	4.8	6.39e-01	0	45	0	806354944	60	91878
2026-01-30 11:38:54.23	322.07	8.81	-57.1	-67.5	4.8	6.19e-01	0	45	0	808452096	60	92693
2026-01-30 11:38:55.24	322.22	8.77	-57.1	-67.4	4.8	6.28e-01	0	45	0	810549248	60	91609
2026-01-30 11:38:56.25	322.37	8.73	-57.0	-67.4	4.8	6.22e-01	0	45	0	812646400	60	91920
2026-01-30 11:38:57.26	322.52	8.69	-56.9	-67.5	4.7	7.13e-01	0	45	0	813694976	60	93394
2026-01-30 11:38:58.27	322.66	8.64	-56.8	-67.3	4.8	6.42e-01	0	45	0	815792128	60	90827
2026-01-30 11:38:59.27	322.81	8.60	-57.1	-69.3	3.8	1.44e+00	0	45	0	816840704	60	114560
2026-01-30 11:39:00.27	322.95	8.56	-57.1	-68.4	4.2	1.12e+00	0	45	0	818937856	60	102650
2026-01-30 11:39:01.28	323.10	8.51	-56.9	-68.4	4.2	7.94e-01	0	45	0	821035008	60	102468
2026-01-30 11:39:02.29	323.25	8.47	-57.0	-68.2	4.3	8.85e-01	0	45	0	823132160	60	100148
2026-01-30 11:39:03.30	323.39	8.43	-57.0	-68.2	4.3	9.07e-01	0	45	0	824180736	60	100380
2026-01-30 11:39:04.30	323.53	8.38	-57.2	-68.7	4.0	1.04e+00	0	45	0	826277888	60	106072
2026-01-30 11:39:05.31	323.68	8.34	-57.3	-69.1	3.8	1.33e+00	0	45	0	827326464	60	111880
2026-01-30 11:39:06.32	323.82	8.30	-57.4	-69.3	3.8	1.42e+00	0	45	0	827326464	60	114159
2026-01-30 11:39:07.32	323.96	8.25	-57.4	-71.1	3.8	1.49e+00	0	45	104	827326464	60	140847
2026-01-30 11:39:08.33	324.11	8.21	-57.3	-71.2	3.8	1.48e+00	0	45	104	827326464	60	142855
2026-01-30 11:39:09.33	324.25	8.17	-57.3	-71.5	3.6	1.48e+00	0	45	104	827326464	60	146775
2026-01-30 11:39:10.34	324.39	8.12	-57.3	-73.2	3.6	1.51e+00	0	45	104	827326464	60	178248
2026-01-30 11:39:11.35	324.53	8.08	-57.3	-72.7	3.6	1.51e+00	0	45	104	827326464	60	168589
2026-01-30 11:39:12.35	324.67	8.03	-57.4	-72.2	3.6	1.51e+00	0	45	104	827326464	60	160385
2026-01-30 11:39:13.36	324.81	7.99	-57.3	-72.4	3.6	1.51e+00	0	45	104	827326464	60	163019
2026-01-30 11:39:14.37	324.95	7.94	-57.3	-72.3	3.6	1.51e+00	0	45	104	827326464	60	162373
2026-01-30 11:39:15.38	325.09	7.90	-57.4	-72.6	3.6	1.51e+00	0	45	104	827326464	60	166853
2026-01-30 11:39:16.39	325.23	7.86	-57.5	-72.6	3.6	1.51e+00	0	45	104	827326464	60	166788
2026-01-30 11:39:17.40	325.37	7.81	-57.5	-73.1	3.6	1.51e+00	0	45	104	827326464	60	177002
2026-01-30 11:39:18.40	325.51	7.77	-57.5	-73.7	3.6	1.51e+00	0	45	104	827326464	60	189666
2026-01-30 11:39:19.41	325.65	7.72	-57.6	-73.3	3.6	1.51e+00	0	45	104	827326464	60	182152
2026-01-30 11:39:20.41	325.79	7.68	-57.6	-73.2	3.6	1.51e+00	0	45	104	827326464	60	178367
2026-01-30 11:39:21.42	325.92	7.63	-57.5	-73.3	3.6	1.51e+00	0	45	104	827326464	60	181884
2026-01-30 11:39:22.43	326.06	7.59	-57.5	-73.5	3.6	1.51e+00	0	45	104	827326464	60	184378
2026-01-30 11:39:23.44	326.20	7.54	-57.6	-73.6	3.6	1.51e+00	0	45	104	827326464	60	187814
2026-01-30 11:39:24.44	326.33	7.50	-57.7	-73.8	3.6	1.51e+00	0	45	104	827326464	60	191674
2026-01-30 11:39:25.45	326.47	7.45	-57.6	-73.9	3.6	1.51e+00	0	45	104	827326464	60	193921
2026-01-30 11:39:26.45	326.60	7.41	-57.5	-74.0	3.6	1.51e+00	0	45	104	827326464	60	196787
2026-01-30 11:39:27.46	326.74	7.36	-57.7	-74.1	3.6	1.51e+00	0	45	104	827326464	60	197798
2026-01-30 11:39:28.47	326.87	7.32	-57.6	-74.1	3.6	1.51e+00	0	45	104	827326464	60	198111
2026-01-30 11:39:29.47	327.01	7.27	-57.7	-74.1	3.6	1.51e+00	0	45	104	827326464	60	198117
2026-01-30 11:39:30.48	327.14	7.23	-57.8	-74.0	3.6	1.51e+00	0	45	104	827326464	60	196619
2026-01-30 11:39:31.49	327.27	7.18	-57.5	-74.0	3.6	1.51e+00	0	45	104	827326464	60	197108
2026-01-30 11:39:32.48	327.40	7.14	-57.6	-74.0	3.6	1.51e+00	0	45	104	827326464	60	196624
2026-01-30 11:39:33.49	327.54	7.09	-57.5	-74.1	3.6	1.51e+00	0	45	104	827326464	60	197781
2026-01-30 11:39:34.50	327.67	7.05	-57.6	-74.1	3.6	1.51e+00	0	45	104	827326464	60	199410
2026-01-30 11:39:35.50	327.80	7.00	-57.6	-74.1	3.6	1.51e+00	0	45	104	827326464	60	199153
2026-01-30 11:39:36.51	327.93	6.96	-57.5	-74.1	3.6	1.51e+00	0	45	104	827326464	60	198598
2026-01-30 11:39:37.52	328.06	6.91	-57.6	-74.1	3.6	1.51e+00	0	45	104	827326464	60	199353
2026-01-30 11:39:38.53	328.19	6.87	-57.6	-74.2	3.6	1.51e+00	0	45	104	827326464	60	201455
2026-01-30 11:39:39.54	328.32	6.82	-57.7	-74.2	3.6	1.51e+00	0	45	104	827326464	60	201345
2026-01-30 11:39:40.54	328.45	6.78	-57.7	-74.2	3.6	1.51e+00	0	45	104	827326464	60	200325
2026-01-30 11:39:41.56	328.58	6.73	-57.7	-74.1	3.6	1.51e+00	0	45	104	827326464	60	199206
2026-01-30 11:39:42.56	328.71	6.68	-57.7	-74.2	3.6	1.51e+00	0	45	104	827326464	60	201930
2026-01-30 11:39:43.57	328.84	6.64	-57.7	-74.2	3.6	1.51e+00	0	45	104	827326464	60	200430
2026-01-30 11:39:44.58	328.97	6.59	-57.5	-74.1	3.6	1.51e+00	0	45	104	827326464	60	198592
2026-01-30 11:39:45.59	329.10	6.55	-57.6	-74.2	3.6	1.51e+00	0	45	104	827326464	60	200232
2026-01-30 11:39:46.59	329.22	6.50	-57.6	-74.2	3.6	1.51e+00	0	45	104	827326464	60	200722
2026-01-30 11:39:47.60	329.35	6.46	-57.5	-74.2	3.6	1.51e+00	0	45	104	827326464	60	201295
2026-01-30 11:39:48.61	329.48	6.41	-57.3	-74.1	3.6	1.51e+00	0	45	104	827326464	60	199341
2026-01-30 11:39:49.61	329.60	6.36	-57.5	-74.2	3.6	1.51e+00	0	45	104	827326464	60	200865
2026-01-30 11:39:50.62	329.73	6.32	-57.6	-74.1	3.6	1.51e+00	0	45	104	827326464	60	198757
2026-01-30 11:39:51.62	329.85	6.27	-57.5	-74.2	3.6	1.51e+00	0	45	104	827326464	60	200466
2026-01-30 11:39:52.63	329.98	6.23	-57.3	-74.1	3.6	1.51e+00	0	45	104	827326464	60	199376
2026-01-30 11:39:53.63	330.10	6.18	-57.6	-74.1	3.6	1.51e+00	0	45	104	827326464	60	199680
2026-01-30 11:39:54.63	330.23	6.13	-57.6	-74.2	3.6	1.51e+00	0	45	104	827326464	60	202096
2026-01-30 11:39:55.63	330.35	6.09	-57.5	-74.2	3.6	1.51e+00	0	45	104	827326464	60	200264
2026-01-30 11:39:56.64	330.47	6.04	-57.2	-74.1	3.6	1.51e+00	0	45	104	827326464	60	197820
2026-01-30 11:39:57.65	330.60	6.00	-57.2	-74.2	3.6	1.51e+00	0	45	104	827326464	60	200156
2026-01-30 11:39:58.65	330.72	5.95	-57.1	-74.5	3.5	1.51e+00	0	45	104	827326464	60	207002
2026-01-30 11:39:59.66	330.84	5.90	-54.5	-73.7	3.6	1.51e+00	0	45	104	827326464	60	189312
2026-01-30 11:40:00.67	330.96	5.86	-56.9	-74.2	3.6	1.51e+00	0	45	104	827326464	60	201494
2026-01-30 11:40:01.67	331.09	5.81	-57.1	-75.0	3.6	1.51e+00	0	45	104	827326464	60	220055
2026-01-30 11:40:02.68	331.21	5.77	-59.4	-76.1	3.6	1.51e+00	0	45	104	827326464	60	249345
2026-01-30 11:40:03.69	331.33	5.72	-59.8	-76.7	3.6	1.51e+00	0	45	104	827326464	60	266717
2026-01-30 11:40:04.70	331.45	5.67	-59.4	-76.9	3.6	1.51e+00	0	45	104	827326464	60	273340
2026-01-30 11:40:05.70	331.57	5.63	-60.1	-76.6	3.6	1.51e+00	0	45	104	827326464	60	264664
2026-01-30 11:40:06.71	331.69	5.58	-60.1	-76.7	3.6	1.51e+00	0	45	104	827326464	60	267389
2026-01-30 11:40:07.72	331.81	5.53	-60.1	-76.8	3.6	1.51e+00	0	45	104	827326464	60	272182
2026-01-30 11:40:08.72	331.93	5.49	-60.0	-76.9	3.6	1.51e+00	0	45	104	827326464	60	274580
2026-01-30 11:40:09.73	332.05	5.44	-60.1	-76.9	3.6	1.51e+00	0	45	104	827326464	60	275168
2026-01-30 11:40:10.74	332.17	5.39	-58.5	-76.2	3.6	1.51e+00	0	45	104	827326464	60	252549
2026-01-30 11:40:11.75	332.28	5.35	-58.4	-77.0	3.6	1.51e+00	0	45	104	827326464	60	278971
2026-01-30 11:40:12.76	332.40	5.30	-60.8	-77.1	3.6	1.51e+00	0	45	104	827326464	60	281449
2026-01-30 11:40:13.76	332.52	5.26	-60.1	-77.1	3.6	1.51e+00	0	45	104	827326464	60	281489
2026-01-30 11:40:14.77	332.64	5.21	-59.1	-76.5	3.6	1.51e+00	0	45	104	827326464	60	260517
2026-01-30 11:40:15.78	332.75	5.16	-60.6	-77.2	3.6	1.51e+00	0	45	104	827326464	60	284230
2026-01-30 11:40:16.79	332.87	5.12	-60.7	-77.3	3.6	1.51e+00	0	45	104	827326464	60	285892
2026-01-30 11:40:17.79	332.98	5.07	-60.5	-77.4	3.6	1.51e+00	0	45	104	827326464	60	289509
2026-01-30 11:40:18.80	333.10	5.02	-60.9	-77.5	3.6	1.51e+00	0	45	104	827326464	60	292993
2026-01-30 11:40:19.81	333.22	4.98	-60.7	-77.6	3.6	1.51e+00	0	45	104	827326464	60	296941
2026-01-30 11:40:20.82	333.33	4.93	-60.8	-77.7	3.6	1.51e+00	0	45	104	827326464	60	299442
2026-01-30 11:40:21.82	333.44	4.88	-60.0	-77.4	3.6	1.51e+00	0	45	104	827326464	60	288985
2026-01-30 11:40:22.83	333.56	4.84	-59.8	-77.2	3.6	1.51e+00	0	45	104	827326464	60	285181
2026-01-30 11:40:23.83	333.67	4.79	-61.3	-77.7	3.6	1.51e+00	0	45	104	827326464	60	302306
2026-01-30 11:40:24.83	333.78	4.74	-60.8	-77.8	3.6	1.51e+00	0	45	104	827326464	60	305725
2026-01-30 11:40:25.84	333.90	4.70	-60.8	-77.8	3.6	1.51e+00	0	45	104	827326464	60	303816
2026-01-30 11:40:26.84	334.01	4.65	-60.7	-78.0	3.6	1.51e+00	0	45	104	827326464	60	309763
2026-01-30 11:40:27.85	334.12	4.60	-60.6	-77.9	3.6	1.51e+00	0	45	104	827326464	60	307677
2026-01-30 11:40:28.86	334.24	4.56	-61.3	-78.2	3.6	1.51e+00	0	45	104	827326464	60	317249
2026-01-30 11:40:29.86	334.35	4.51	-61.1	-78.3	3.6	1.51e+00	0	45	104	827326464	60	320765
2026-01-30 11:40:30.87	334.46	4.46	-58.9	-77.9	3.6	1.51e+00	0	45	104	827326464	60	306397
2026-01-30 11:40:31.87	334.57	4.42	-58.3	-77.3	3.6	1.51e+00	0	45	104	827326464	60	285624
2026-01-30 11:40:32.88	334.68	4.37	-58.1	-77.3	3.6	1.51e+00	0	45	104	827326464	60	285844
2026-01-30 11:40:33.89	334.79	4.32	-58.7	-77.4	3.6	1.51e+00	0	45	104	827326464	60	289365
2026-01-30 11:40:34.89	334.90	4.28	-59.8	-78.2	3.6	1.51e+00	0	45	104	827326464	60	316832
2026-01-30 11:40:35.90	335.01	4.23	-59.9	-78.2	3.6	1.51e+00	0	45	104	827326464	60	317188
2026-01-30 11:40:36.91	335.12	4.18	-59.8	-78.1	3.6	1.51e+00	0	45	104	827326464	60	316457
2026-01-30 11:40:37.91	335.23	4.14	-59.9	-78.1	3.6	1.51e+00	0	45	104	827326464	60	315923
2026-01-30 11:40:38.92	335.34	4.09	-59.8	-78.1	3.6	1.51e+00	0	45	104	827326464	60	314050
2026-01-30 11:40:39.93	335.45	4.04	-59.8	-78.0	3.6	1.51e+00	0	45	104	827326464	60	312585
2026-01-30 11:40:40.94	335.55	4.00	-59.9	-78.1	3.6	1.51e+00	0	45	104	827326464	60	314576
2026-01-30 11:40:41.94	335.66	3.95	-59.9	-78.2	3.6	1.51e+00	0	45	104	827326464	60	317925
2026-01-30 11:40:42.95	335.77	3.90	-59.9	-78.0	3.6	1.51e+00	0	45	104	827326464	60	312596
2026-01-30 11:40:43.96	335.88	3.86	-59.9	-78.0	3.6	1.51e+00	0	45	104	827326464	60	312605
2026-01-30 11:40:44.96	335.98	3.81	-59.8	-78.1	3.6	1.51e+00	0	45	104	827326464	60	314864
2026-01-30 11:40:45.97	336.09	3.76	-59.8	-77.9	3.6	1.51e+00	0	45	104	827326464	60	309406
2026-01-30 11:40:46.97	336.19	3.72	-59.8	-78.0	3.6	1.51e+00	0	45	104	827326464	60	312870
2026-01-30 11:40:47.97	336.30	3.67	-59.8	-78.1	3.6	1.51e+00	0	45	104	827326464	60	313115
2026-01-30 11:40:48.98	336.41	3.63	-59.9	-78.1	3.6	1.51e+00	0	45	104	827326464	60	316026
2026-01-30 11:40:49.99	336.51	3.58	-59.9	-78.2	3.6	1.51e+00	0	45	104	827326464	60	317198
2026-01-30 11:40:50.99	336.62	3.53	-59.9	-78.0	3.6	1.51e+00	0	45	104	827326464	60	312169
2026-01-30 11:40:52.00	336.72	3.49	-59.9	-78.1	3.6	1.51e+00	0	45	104	827326464	60	315845
2026-01-30 11:40:53.00	336.82	3.44	-60.0	-78.2	3.6	1.51e+00	0	45	104	827326464	60	316836
2026-01-30 11:40:54.01	336.93	3.39	-59.9	-78.0	3.6	1.51e+00	0	45	104	827326464	60	312735
2026-01-30 11:40:55.02	337.03	3.35	-59.9	-78.1	3.6	1.51e+00	0	45	104	827326464	60	313929
2026-01-30 11:40:56.02	337.13	3.30	-59.9	-77.9	3.6	1.51e+00	0	45	104	827326464	60	308294
2026-01-30 11:40:57.03	337.24	3.25	-59.9	-78.0	3.6	1.51e+00	0	45	104	827326464	60	312888
2026-01-30 11:40:58.04	337.34	3.21	-59.9	-78.1	3.6	1.51e+00	0	45	104	827326464	60	314885
2026-01-30 11:40:59.04	337.44	3.16	-59.9	-78.1	3.6	1.51e+00	0	45	104	827326464	60	314598
