passes_logs/2026/01/30/R3.2S-Naryan-Mar/R3.2S-Naryan-Mar__20260130_062611_SUOMI_NPP_rec.log

#Pass ID: 20260130_062611_SUOMI NPP
#Satellite: SUOMI NPP
#Configuration: NPP
#almurnet v.1.7.20240730
#Start time: 2026-01-30 06:26:11

#Version: 2.2.20231116
#Station: R3.2S-Naryan-Mar
#Location: 53.008057 lon 67.646978 lat
#TLE: 1 37849U 11061A   26029.48304708  .00000140  00000+0  87283-4 0  9999
#TLE: 2 37849  98.7824 331.4079 0002024  38.4342 321.6978 14.19531488738761

#Time	Az	El	Level	Level2	SNR	BER	BlckErr	Temp	State	Recorded	gain1	gain2
2026-01-30 06:26:11.96	108.94	0.04	-61.3	-74.5	3.5	8.45e-01	0	43	0	0	60	208808
2026-01-30 06:26:12.97	108.90	0.09	-61.3	-78.7	3.6	1.51e+00	0	44	104	0	60	336997
2026-01-30 06:26:13.98	108.86	0.15	-61.5	-78.9	3.6	1.51e+00	0	44	104	0	60	346054
2026-01-30 06:26:14.98	108.82	0.21	-61.5	-78.9	3.6	1.51e+00	0	44	104	0	60	345404
2026-01-30 06:26:15.99	108.78	0.27	-60.4	-78.6	3.6	1.51e+00	0	44	104	0	60	334914
2026-01-30 06:26:17.00	108.74	0.33	-59.6	-78.3	3.6	1.51e+00	0	44	104	0	60	320474
2026-01-30 06:26:18.01	108.70	0.38	-59.7	-78.0	3.6	1.51e+00	0	44	104	0	60	310606
2026-01-30 06:26:19.01	108.66	0.44	-60.6	-78.6	3.6	1.51e+00	0	44	104	0	60	333027
2026-01-30 06:26:20.01	108.62	0.50	-61.0	-78.6	3.6	1.51e+00	0	44	104	0	60	333496
2026-01-30 06:26:21.02	108.58	0.56	-60.7	-78.9	3.6	1.51e+00	0	44	104	0	60	345088
2026-01-30 06:26:22.03	108.54	0.62	-61.7	-79.0	3.6	1.51e+00	0	44	104	0	60	347715
2026-01-30 06:26:23.03	108.50	0.68	-62.5	-79.1	3.6	1.51e+00	0	44	104	0	60	354551
2026-01-30 06:26:24.03	108.46	0.73	-61.9	-79.0	3.5	1.51e+00	0	45	104	0	60	350199
2026-01-30 06:26:25.04	108.42	0.79	-62.8	-79.2	3.6	1.51e+00	0	45	104	0	60	357439
2026-01-30 06:26:26.04	108.38	0.85	-62.3	-79.2	3.6	1.51e+00	0	45	104	0	60	356642
2026-01-30 06:26:27.05	108.34	0.91	-62.5	-79.3	3.6	1.51e+00	0	44	104	0	60	362910
2026-01-30 06:26:28.06	108.29	0.97	-61.8	-79.1	3.6	1.51e+00	0	45	104	0	60	351885
2026-01-30 06:26:29.06	108.25	1.03	-62.7	-79.5	3.6	1.51e+00	0	45	104	0	60	371420
2026-01-30 06:26:30.07	108.21	1.09	-62.5	-79.3	3.6	1.51e+00	0	44	104	0	60	362432
2026-01-30 06:26:31.08	108.17	1.15	-61.7	-79.2	3.6	1.51e+00	0	45	104	0	60	356489
2026-01-30 06:26:32.09	108.13	1.21	-62.2	-79.2	3.6	1.51e+00	0	45	104	0	60	356492
2026-01-30 06:26:33.10	108.08	1.27	-61.3	-79.1	3.6	1.51e+00	0	44	104	0	60	354708
2026-01-30 06:26:34.10	108.04	1.33	-61.5	-79.0	3.6	1.51e+00	0	44	104	0	60	348525
2026-01-30 06:26:35.11	108.00	1.39	-61.6	-78.3	3.6	1.51e+00	0	45	104	0	60	323950
2026-01-30 06:26:36.12	107.95	1.45	-61.3	-78.5	3.6	1.51e+00	0	45	104	0	60	329610
2026-01-30 06:26:37.13	107.91	1.51	-62.0	-78.7	3.6	1.51e+00	0	45	104	0	60	336226
2026-01-30 06:26:38.13	107.87	1.57	-61.4	-78.6	3.6	1.51e+00	0	45	104	0	60	332367
2026-01-30 06:26:39.14	107.82	1.63	-60.1	-78.0	3.6	1.51e+00	0	45	104	0	60	312980
2026-01-30 06:26:40.15	107.78	1.69	-59.6	-77.8	3.6	1.51e+00	0	45	104	0	60	305173
2026-01-30 06:26:41.15	107.74	1.75	-60.1	-77.9	3.6	1.51e+00	0	45	104	0	60	307457
2026-01-30 06:26:42.16	107.69	1.81	-60.6	-77.7	3.6	1.51e+00	0	45	104	0	60	301968
2026-01-30 06:26:43.17	107.65	1.87	-59.8	-77.4	3.6	1.51e+00	0	45	104	0	60	289867
2026-01-30 06:26:44.18	107.60	1.93	-61.1	-77.7	3.6	1.51e+00	0	45	104	0	60	300889
2026-01-30 06:26:45.18	107.56	1.99	-59.8	-77.3	3.6	1.51e+00	0	45	104	0	60	287745
2026-01-30 06:26:46.19	107.51	2.05	-60.7	-77.4	3.6	1.51e+00	0	45	104	0	60	291277
2026-01-30 06:26:47.20	107.47	2.12	-60.6	-77.2	3.6	1.51e+00	0	45	104	0	60	282594
2026-01-30 06:26:48.20	107.42	2.18	-58.9	-76.9	3.6	1.51e+00	0	45	104	0	60	274465
2026-01-30 06:26:49.21	107.38	2.24	-59.4	-76.8	3.6	1.51e+00	0	45	104	0	60	271308
2026-01-30 06:26:50.22	107.33	2.30	-59.4	-76.8	3.6	1.51e+00	0	45	104	0	60	271708
2026-01-30 06:26:51.23	107.28	2.36	-59.4	-76.9	3.6	1.51e+00	0	45	104	0	60	272719
2026-01-30 06:26:52.23	107.24	2.42	-59.4	-76.8	3.6	1.51e+00	0	45	104	0	60	270571
2026-01-30 06:26:53.24	107.19	2.49	-59.4	-76.9	3.6	1.51e+00	0	45	104	0	60	272838
2026-01-30 06:26:54.25	107.15	2.55	-59.4	-76.8	3.6	1.51e+00	0	45	104	0	60	269569
2026-01-30 06:26:55.26	107.10	2.61	-59.4	-76.8	3.6	1.51e+00	0	45	104	0	60	271498
2026-01-30 06:26:56.26	107.05	2.67	-59.4	-76.8	3.6	1.51e+00	0	45	104	0	60	270577
2026-01-30 06:26:57.27	107.00	2.73	-59.4	-76.8	3.6	1.51e+00	0	45	104	0	60	269794
2026-01-30 06:26:58.28	106.96	2.80	-59.4	-76.7	3.6	1.51e+00	0	45	104	0	60	269084
2026-01-30 06:26:59.29	106.91	2.86	-59.4	-76.8	3.6	1.51e+00	0	45	104	0	60	270034
2026-01-30 06:27:00.29	106.86	2.92	-59.4	-76.7	3.6	1.51e+00	0	45	104	0	60	268954
2026-01-30 06:27:01.30	106.81	2.99	-59.4	-76.7	3.6	1.51e+00	0	45	104	0	60	268997
2026-01-30 06:27:02.30	106.76	3.05	-59.5	-76.7	3.6	1.51e+00	0	45	104	0	60	267627
2026-01-30 06:27:03.31	106.72	3.11	-59.4	-76.7	3.6	1.51e+00	0	45	104	0	60	268768
2026-01-30 06:27:04.32	106.67	3.17	-59.4	-76.7	3.6	1.51e+00	0	45	104	0	60	268672
2026-01-30 06:27:05.33	106.62	3.24	-59.4	-76.7	3.6	1.51e+00	0	45	104	0	60	267835
2026-01-30 06:27:06.33	106.57	3.30	-59.4	-76.7	3.6	1.51e+00	0	45	104	0	60	267160
2026-01-30 06:27:07.34	106.52	3.37	-59.4	-76.7	3.6	1.51e+00	0	45	104	0	60	268012
2026-01-30 06:27:08.35	106.47	3.43	-59.4	-76.7	3.6	1.51e+00	0	45	104	0	60	266998
2026-01-30 06:27:09.35	106.42	3.49	-59.4	-76.7	3.6	1.51e+00	0	45	104	0	60	267342
2026-01-30 06:27:10.36	106.37	3.56	-59.4	-76.7	3.6	1.51e+00	0	45	104	0	60	267656
2026-01-30 06:27:11.37	106.32	3.62	-59.4	-76.7	3.6	1.51e+00	0	45	104	0	60	268959
2026-01-30 06:27:12.38	106.27	3.69	-59.4	-76.7	3.6	1.51e+00	0	45	104	0	60	267174
2026-01-30 06:27:13.38	106.22	3.75	-59.4	-76.7	3.6	1.51e+00	0	45	104	0	60	267500
2026-01-30 06:27:14.39	106.17	3.81	-59.4	-76.7	3.6	1.51e+00	0	45	104	0	60	267143
2026-01-30 06:27:15.40	106.11	3.88	-59.4	-76.7	3.6	1.51e+00	0	45	104	0	60	269423
2026-01-30 06:27:16.40	106.06	3.94	-59.4	-76.7	3.6	1.51e+00	0	45	104	0	60	268282
2026-01-30 06:27:17.41	106.01	4.01	-59.4	-76.6	3.6	1.51e+00	0	45	104	0	60	266142
2026-01-30 06:27:18.42	105.96	4.07	-59.3	-76.6	3.6	1.51e+00	0	45	104	0	60	266198
2026-01-30 06:27:19.43	105.91	4.14	-59.4	-76.7	3.6	1.51e+00	0	45	104	0	60	267896
2026-01-30 06:27:20.43	105.85	4.20	-59.4	-76.7	3.6	1.51e+00	0	45	104	0	60	267808
2026-01-30 06:27:21.44	105.80	4.27	-59.4	-76.7	3.6	1.51e+00	0	45	104	0	60	268901
2026-01-30 06:27:22.45	105.75	4.34	-59.4	-76.7	3.6	1.51e+00	0	45	104	0	60	267228
2026-01-30 06:27:23.46	105.69	4.40	-59.4	-76.7	3.6	1.51e+00	0	45	104	0	60	267291
2026-01-30 06:27:24.46	105.64	4.47	-59.4	-76.7	3.6	1.51e+00	0	45	104	0	60	266581
2026-01-30 06:27:25.47	105.59	4.53	-59.4	-76.5	3.5	1.51e+00	0	45	104	0	60	261494
2026-01-30 06:27:26.48	105.53	4.60	-59.4	-76.3	3.6	1.51e+00	0	45	104	0	60	256541
2026-01-30 06:27:27.49	105.48	4.67	-59.3	-76.2	3.6	1.51e+00	0	45	104	0	60	252711
2026-01-30 06:27:28.49	105.42	4.73	-59.4	-76.0	3.6	1.51e+00	0	45	104	0	60	245919
2026-01-30 06:27:29.50	105.37	4.80	-59.3	-75.7	3.6	1.51e+00	0	45	104	0	60	240000
2026-01-30 06:27:30.51	105.31	4.87	-59.3	-75.6	3.6	1.51e+00	0	45	104	0	60	237445
2026-01-30 06:27:31.51	105.26	4.93	-59.3	-75.6	3.6	1.51e+00	0	45	104	0	60	235293
2026-01-30 06:27:32.52	105.20	5.00	-59.4	-75.4	3.5	1.51e+00	0	45	104	0	60	230187
2026-01-30 06:27:33.53	105.15	5.07	-59.3	-74.8	3.6	1.51e+00	0	45	104	0	60	216116
2026-01-30 06:27:34.54	105.09	5.13	-59.3	-73.9	3.7	1.50e+00	0	45	104	0	60	193972
2026-01-30 06:27:35.55	105.03	5.20	-59.2	-71.7	4.3	1.36e+00	0	45	0	0	60	150524
2026-01-30 06:27:36.55	104.98	5.27	-59.1	-69.0	5.5	5.99e-01	0	45	0	2097152	60	109983
2026-01-30 06:27:37.56	104.92	5.34	-58.8	-67.2	7.5	2.34e-01	0	45	0	3145728	60	89831
2026-01-30 06:27:38.57	104.86	5.41	-58.5	-65.4	9.7	2.47e-02	0	45	0	5242880	60	72620
2026-01-30 06:27:39.58	104.80	5.47	-58.2	-64.0	11.4	3.94e-03	0	45	0	7340032	60	61905
2026-01-30 06:27:40.59	104.74	5.54	-57.8	-63.0	12.6	4.07e-04	0	45	0	9437184	60	55552
2026-01-30 06:27:41.59	104.69	5.61	-57.5	-62.1	13.4	1.60e-05	0	45	0	11534336	60	49977
2026-01-30 06:27:42.60	104.63	5.68	-57.1	-61.1	14.5	2.20e-06	0	45	0	12582912	60	44407
2026-01-30 06:27:43.60	104.57	5.75	-56.9	-60.6	15.1	0.00e+00	0	45	0	14680064	60	41888
2026-01-30 06:27:44.61	104.51	5.82	-56.6	-60.2	15.4	0.00e+00	0	45	0	16777216	60	39880
2026-01-30 06:27:45.62	104.45	5.88	-56.5	-59.8	15.8	0.00e+00	0	45	0	18874368	60	38291
2026-01-30 06:27:46.62	104.39	5.95	-56.4	-59.6	15.8	0.00e+00	0	45	0	20971520	60	37554
2026-01-30 06:27:47.62	104.33	6.02	-56.7	-60.3	15.2	0.00e+00	0	45	0	22020096	60	40373
2026-01-30 06:27:48.63	104.27	6.09	-56.2	-59.4	16.7	0.00e+00	0	45	0	24117248	60	36574
2026-01-30 06:27:49.64	104.21	6.16	-55.7	-58.7	16.8	0.00e+00	0	45	0	26214400	60	33640
2026-01-30 06:27:50.64	104.15	6.23	-56.2	-59.8	15.1	0.00e+00	0	45	0	28311552	60	38157
2026-01-30 06:27:51.64	104.09	6.30	-57.5	-62.3	14.2	1.10e-01	0	45	0	30408704	60	51193
2026-01-30 06:27:52.65	104.03	6.37	-55.9	-58.9	16.1	0.00e+00	0	45	0	31457280	60	34711
2026-01-30 06:27:53.66	103.97	6.44	-57.4	-62.5	13.6	3.22e-03	0	45	0	33554432	60	52242
2026-01-30 06:27:54.67	103.90	6.51	-56.3	-59.7	15.8	0.00e+00	0	45	0	35651584	60	38040
2026-01-30 06:27:55.68	103.84	6.58	-56.6	-60.2	15.5	0.00e+00	0	45	0	37748736	60	40090
2026-01-30 06:27:56.68	103.78	6.65	-56.7	-60.2	15.3	0.00e+00	0	45	0	39845888	60	40243
2026-01-30 06:27:57.69	103.72	6.72	-56.8	-60.2	15.4	0.00e+00	0	45	0	40894464	60	40293
2026-01-30 06:27:58.69	103.65	6.79	-57.1	-60.6	15.2	0.00e+00	0	45	0	42991616	60	42159
2026-01-30 06:27:59.70	103.59	6.86	-57.1	-60.6	15.2	0.00e+00	0	45	0	45088768	60	42075
2026-01-30 06:28:00.70	103.52	6.93	-56.9	-60.2	15.5	0.00e+00	0	45	0	47185920	60	40282
2026-01-30 06:28:01.71	103.46	7.01	-57.0	-60.4	15.5	0.00e+00	0	45	0	49283072	60	40993
2026-01-30 06:28:02.71	103.40	7.08	-57.1	-60.5	15.3	0.00e+00	0	45	0	50331648	60	41685
2026-01-30 06:28:03.72	103.33	7.15	-57.1	-60.7	15.1	0.00e+00	0	45	0	52428800	60	42253
2026-01-30 06:28:04.72	103.27	7.22	-56.7	-60.2	15.6	0.00e+00	0	45	0	54525952	60	40131
2026-01-30 06:28:05.73	103.20	7.29	-56.5	-60.0	15.7	0.00e+00	0	45	0	56623104	60	39065
2026-01-30 06:28:06.74	103.13	7.37	-56.7	-60.2	15.5	0.00e+00	0	45	0	58720256	60	40274
2026-01-30 06:28:07.74	103.07	7.44	-56.6	-59.9	15.9	0.00e+00	0	45	0	59768832	60	38646
2026-01-30 06:28:08.75	103.00	7.51	-56.6	-59.9	15.8	0.00e+00	0	45	0	61865984	60	38535
2026-01-30 06:28:09.76	102.93	7.58	-56.8	-60.1	15.5	0.00e+00	0	45	0	63963136	60	39480
2026-01-30 06:28:10.77	102.87	7.66	-56.7	-59.8	15.7	0.00e+00	0	45	0	66060288	60	38487
2026-01-30 06:28:11.78	102.80	7.73	-56.8	-60.2	15.5	0.00e+00	0	45	0	68157440	60	40044
2026-01-30 06:28:12.79	102.73	7.80	-56.8	-60.2	15.4	0.00e+00	0	45	0	69206016	60	40113
2026-01-30 06:28:13.79	102.66	7.88	-56.7	-59.9	15.7	0.00e+00	0	45	0	71303168	60	38657
2026-01-30 06:28:14.80	102.59	7.95	-56.7	-59.9	15.9	0.00e+00	0	45	0	73400320	60	38851
2026-01-30 06:28:15.81	102.52	8.02	-56.6	-59.8	16.0	0.00e+00	0	45	0	75497472	60	38185
2026-01-30 06:28:16.82	102.45	8.10	-56.9	-60.3	15.5	0.00e+00	0	45	0	77594624	60	40326
2026-01-30 06:28:17.82	102.38	8.17	-57.1	-60.7	14.8	0.00e+00	0	45	0	78643200	60	42545
2026-01-30 06:28:18.83	102.31	8.25	-57.3	-61.3	14.3	7.00e-07	0	45	0	80740352	60	45289
2026-01-30 06:28:19.83	102.24	8.32	-57.4	-61.7	13.9	0.00e+00	0	45	0	82837504	60	47382
2026-01-30 06:28:20.84	102.17	8.40	-57.4	-61.8	14.0	7.00e-07	0	45	0	84934656	60	48112
2026-01-30 06:28:21.84	102.10	8.47	-57.5	-62.3	13.6	5.30e-06	0	45	0	87031808	60	50851
2026-01-30 06:28:22.85	102.03	8.54	-57.5	-62.6	13.3	1.83e-05	0	45	0	88080384	60	53144
2026-01-30 06:28:23.86	101.95	8.62	-57.3	-62.4	13.5	2.67e-05	0	45	0	90177536	60	51466
2026-01-30 06:28:24.86	101.88	8.70	-57.0	-62.2	13.3	1.37e-05	0	45	0	92274688	60	50314
2026-01-30 06:28:25.87	101.81	8.77	-57.1	-62.6	13.0	3.50e-05	0	45	0	94371840	60	52972
2026-01-30 06:28:26.88	101.74	8.85	-57.0	-62.8	12.4	8.16e-05	0	45	0	96468992	60	53789
2026-01-30 06:28:27.89	101.66	8.92	-57.1	-62.9	12.4	1.52e-04	0	45	0	97517568	60	54623
2026-01-30 06:28:28.89	101.59	9.00	-57.0	-62.9	12.3	1.63e-04	0	45	0	99614720	60	54728
2026-01-30 06:28:29.89	101.51	9.07	-57.3	-63.5	11.6	3.33e-04	0	45	0	101711872	60	58588
2026-01-30 06:28:30.90	101.44	9.15	-57.6	-64.1	11.1	9.22e-04	0	45	0	103809024	60	62609
2026-01-30 06:28:31.90	101.36	9.23	-57.9	-64.8	10.4	2.34e-03	0	45	0	105906176	60	68013
2026-01-30 06:28:32.91	101.29	9.30	-58.2	-65.3	10.1	3.84e-03	0	45	0	106954752	60	72091
2026-01-30 06:28:33.92	101.21	9.38	-58.5	-65.6	9.7	6.17e-03	0	45	0	109051904	60	74871
2026-01-30 06:28:34.92	101.13	9.46	-58.6	-65.3	10.0	8.07e-03	0	45	0	111149056	60	71754
2026-01-30 06:28:35.93	101.06	9.54	-58.7	-65.6	9.9	8.25e-03	0	45	0	113246208	60	74498
2026-01-30 06:28:36.93	100.98	9.61	-58.9	-65.6	9.7	9.17e-03	0	45	0	115343360	60	75076
2026-01-30 06:28:37.94	100.90	9.69	-58.9	-65.7	9.9	7.93e-03	0	45	0	116391936	60	75329
2026-01-30 06:28:38.95	100.82	9.77	-59.0	-66.0	9.7	1.65e-02	0	45	0	118489088	60	78034
2026-01-30 06:28:39.95	100.74	9.85	-59.0	-65.6	9.9	1.17e-02	0	45	0	120586240	60	74752
2026-01-30 06:28:40.96	100.66	9.93	-59.1	-66.3	9.1	1.44e-02	0	45	0	122683392	60	81339
2026-01-30 06:28:41.97	100.58	10.00	-59.1	-66.5	8.7	2.02e-02	0	45	0	123731968	60	82899
2026-01-30 06:28:42.98	100.50	10.08	-59.1	-66.8	8.1	5.01e-02	0	45	0	125829120	60	85732
2026-01-30 06:28:43.98	100.42	10.16	-59.2	-67.7	7.3	1.26e-01	0	45	0	127926272	60	94678
2026-01-30 06:28:44.99	100.34	10.24	-59.2	-67.9	6.9	1.60e-01	0	45	0	130023424	60	96960
2026-01-30 06:28:46.00	100.26	10.32	-59.3	-68.2	6.5	1.90e-01	0	45	0	132120576	60	100929
2026-01-30 06:28:47.01	100.18	10.40	-59.6	-68.9	6.0	2.83e-01	0	45	0	134217728	60	108560
2026-01-30 06:28:48.02	100.10	10.48	-59.8	-69.6	5.6	3.68e-01	0	45	0	135266304	60	117713
2026-01-30 06:28:49.02	100.01	10.56	-60.1	-69.5	5.6	3.96e-01	0	45	0	137363456	60	117303
2026-01-30 06:28:50.03	99.93	10.64	-56.2	-58.8	17.2	1.09e-01	0	45	0	139460608	60	33978
2026-01-30 06:28:51.03	99.85	10.72	-57.8	-62.6	12.6	0.00e+00	0	45	0	141557760	60	52729
2026-01-30 06:28:52.04	99.76	10.80	-55.4	-57.7	17.9	0.00e+00	0	45	0	143654912	60	30143
2026-01-30 06:28:53.05	99.68	10.88	-58.5	-64.0	11.3	0.00e+00	0	45	0	144703488	60	62317
2026-01-30 06:28:54.06	99.59	10.96	-56.0	-58.5	17.5	2.98e-03	0	45	0	146800640	60	33126
2026-01-30 06:28:55.06	99.51	11.04	-55.9	-58.3	17.6	0.00e+00	0	45	0	148897792	60	32114
2026-01-30 06:28:56.07	99.42	11.12	-56.1	-58.6	17.4	0.00e+00	0	45	0	150994944	60	33430
2026-01-30 06:28:57.08	99.33	11.21	-55.6	-57.9	18.0	0.00e+00	0	45	0	153092096	60	30884
2026-01-30 06:28:58.09	99.24	11.29	-55.1	-57.3	18.5	0.00e+00	0	45	0	154140672	60	28788
2026-01-30 06:28:59.10	99.16	11.37	-55.1	-57.3	18.7	0.00e+00	0	45	0	156237824	60	28594
2026-01-30 06:29:00.11	99.07	11.45	-55.2	-57.4	18.4	0.00e+00	0	45	0	158334976	60	29120
2026-01-30 06:29:01.11	98.98	11.53	-55.4	-57.7	18.2	0.00e+00	0	45	0	160432128	60	29922
2026-01-30 06:29:02.12	98.89	11.62	-55.2	-57.4	18.5	0.00e+00	0	45	0	162529280	60	28953
2026-01-30 06:29:03.13	98.80	11.70	-55.5	-57.9	18.1	0.00e+00	0	45	0	163577856	60	30637
2026-01-30 06:29:04.14	98.71	11.78	-55.3	-57.6	18.3	0.00e+00	0	45	0	165675008	60	29598
2026-01-30 06:29:05.14	98.62	11.87	-55.5	-57.8	18.1	0.00e+00	0	45	0	167772160	60	30316
2026-01-30 06:29:06.15	98.53	11.95	-55.5	-57.7	18.1	0.00e+00	0	45	0	169869312	60	30191
2026-01-30 06:29:07.16	98.43	12.03	-55.6	-58.0	17.7	0.00e+00	0	45	0	171966464	60	30986
2026-01-30 06:29:08.17	98.34	12.12	-55.6	-58.0	17.8	0.00e+00	0	45	0	173015040	60	31155
2026-01-30 06:29:09.18	98.25	12.20	-55.5	-57.9	18.0	0.00e+00	0	45	0	175112192	60	30610
2026-01-30 06:29:10.18	98.16	12.29	-55.5	-57.9	18.0	0.00e+00	0	45	0	177209344	60	30595
2026-01-30 06:29:11.19	98.06	12.37	-55.6	-57.9	18.1	0.00e+00	0	45	0	179306496	60	30746
2026-01-30 06:29:12.19	97.97	12.45	-55.4	-57.6	18.2	0.00e+00	0	45	0	181403648	60	29785
2026-01-30 06:29:13.20	97.87	12.54	-55.6	-57.9	17.9	0.00e+00	0	45	0	182452224	60	30833
2026-01-30 06:29:14.21	97.77	12.63	-55.7	-58.0	17.9	0.00e+00	0	45	0	184549376	60	31177
2026-01-30 06:29:15.22	97.68	12.71	-56.1	-58.5	17.8	0.00e+00	0	45	0	186646528	60	32994
2026-01-30 06:29:16.23	97.58	12.80	-56.0	-58.3	17.7	0.00e+00	0	45	0	188743680	60	32255
2026-01-30 06:29:17.23	97.48	12.88	-56.1	-58.4	17.6	0.00e+00	0	45	0	190840832	60	32663
2026-01-30 06:29:18.24	97.39	12.97	-56.1	-58.4	17.5	0.00e+00	0	45	0	191889408	60	32652
2026-01-30 06:29:19.24	97.29	13.05	-56.1	-58.5	17.5	0.00e+00	0	45	0	193986560	60	32899
2026-01-30 06:29:20.25	97.19	13.14	-56.4	-58.8	17.3	0.00e+00	0	45	0	196083712	60	34227
2026-01-30 06:29:21.25	97.09	13.23	-55.9	-58.1	17.9	0.00e+00	0	45	0	198180864	60	31489
2026-01-30 06:29:22.26	96.99	13.31	-56.1	-58.3	17.8	0.00e+00	0	45	0	200278016	60	32386
2026-01-30 06:29:23.26	96.89	13.40	-55.9	-58.2	17.7	0.00e+00	0	45	0	201326592	60	31836
2026-01-30 06:29:24.27	96.78	13.49	-56.1	-58.6	17.4	0.00e+00	0	45	0	203423744	60	33157
2026-01-30 06:29:25.27	96.68	13.57	-56.4	-59.1	17.0	0.00e+00	0	45	0	205520896	60	35205
2026-01-30 06:29:26.28	96.58	13.66	-56.3	-59.0	16.9	0.00e+00	0	45	0	207618048	60	34962
2026-01-30 06:29:27.29	96.47	13.75	-56.4	-59.1	16.7	0.00e+00	0	45	0	209715200	60	35494
2026-01-30 06:29:28.30	96.37	13.84	-56.6	-59.4	16.2	0.00e+00	0	45	0	210763776	60	36695
2026-01-30 06:29:29.31	96.26	13.93	-56.7	-59.7	16.2	0.00e+00	0	45	0	212860928	60	37895
2026-01-30 06:29:30.31	96.16	14.02	-56.7	-59.7	16.2	0.00e+00	0	45	0	214958080	60	37874
2026-01-30 06:29:31.32	96.05	14.11	-56.8	-60.0	15.9	0.00e+00	0	45	0	217055232	60	39096
2026-01-30 06:29:32.33	95.95	14.19	-56.8	-59.9	16.1	0.00e+00	0	45	0	219152384	60	38730
2026-01-30 06:29:33.33	95.84	14.28	-55.9	-58.5	17.4	0.00e+00	0	45	0	220200960	60	32917
2026-01-30 06:29:34.34	95.73	14.37	-55.2	-57.4	18.4	0.00e+00	0	45	0	222298112	60	28993
2026-01-30 06:29:35.35	95.62	14.46	-54.9	-57.0	18.8	0.00e+00	0	45	0	224395264	60	27868
2026-01-30 06:29:36.36	95.51	14.55	-54.7	-56.6	19.0	0.00e+00	0	45	0	226492416	60	26604
2026-01-30 06:29:37.37	95.40	14.64	-54.9	-56.9	18.7	0.00e+00	0	45	0	228589568	60	27522
2026-01-30 06:29:38.37	95.29	14.73	-55.0	-57.1	18.6	0.00e+00	0	45	0	229638144	60	27933
2026-01-30 06:29:39.38	95.18	14.82	-55.0	-57.0	18.8	0.00e+00	0	45	0	231735296	60	27866
2026-01-30 06:29:40.38	95.07	14.91	-55.1	-57.2	18.5	0.00e+00	0	45	0	233832448	60	28421
2026-01-30 06:29:41.39	94.95	15.01	-54.6	-56.7	19.2	0.00e+00	0	45	0	235929600	60	26683
2026-01-30 06:29:42.39	94.84	15.10	-54.6	-56.7	19.0	0.00e+00	0	45	0	238026752	60	26745
2026-01-30 06:29:43.40	94.73	15.19	-54.5	-56.5	19.1	0.00e+00	0	45	0	239075328	60	26072
2026-01-30 06:29:44.41	94.61	15.28	-54.4	-56.3	19.2	0.00e+00	0	45	0	241172480	60	25625
2026-01-30 06:29:45.42	94.49	15.37	-54.7	-56.7	19.1	0.00e+00	0	45	0	243269632	60	26658
2026-01-30 06:29:46.43	94.38	15.47	-54.7	-56.7	19.0	0.00e+00	0	45	0	245366784	60	26763
2026-01-30 06:29:47.43	94.26	15.56	-54.9	-56.8	19.1	0.00e+00	0	45	0	247463936	60	27179
2026-01-30 06:29:48.44	94.14	15.65	-54.7	-56.6	19.3	0.00e+00	0	45	0	248512512	60	26491
2026-01-30 06:29:49.44	94.02	15.74	-54.7	-56.4	19.5	0.00e+00	0	45	0	250609664	60	25941
2026-01-30 06:29:50.45	93.90	15.84	-54.9	-56.8	19.2	0.00e+00	0	45	0	252706816	60	27004
2026-01-30 06:29:51.45	93.78	15.93	-54.6	-56.3	19.6	0.00e+00	0	45	0	254803968	60	25688
2026-01-30 06:29:52.45	93.66	16.02	-54.4	-56.2	19.7	0.00e+00	0	45	0	256901120	60	25184
2026-01-30 06:29:53.45	93.54	16.11	-54.7	-56.5	19.4	0.00e+00	0	45	0	257949696	60	26316
2026-01-30 06:29:54.46	93.42	16.21	-54.6	-56.4	19.4	0.00e+00	0	45	0	260046848	60	26019
2026-01-30 06:29:55.47	93.29	16.30	-54.7	-56.7	19.3	0.00e+00	0	45	0	262144000	60	26787
2026-01-30 06:29:56.48	93.17	16.40	-54.7	-56.7	19.2	0.00e+00	0	45	0	264241152	60	26803
2026-01-30 06:29:57.48	93.05	16.49	-54.4	-56.3	19.6	0.00e+00	0	45	0	266338304	60	25465
2026-01-30 06:29:58.49	92.92	16.59	-54.3	-56.1	19.7	0.00e+00	0	45	0	267386880	60	24969
2026-01-30 06:29:59.50	92.79	16.68	-54.2	-56.0	19.9	0.00e+00	0	45	0	269484032	60	24601
2026-01-30 06:30:00.50	92.67	16.78	-54.3	-56.0	19.7	0.00e+00	0	45	0	271581184	60	24741
2026-01-30 06:30:01.51	92.54	16.87	-54.2	-56.0	19.7	0.00e+00	0	45	0	273678336	60	24621
2026-01-30 06:30:02.52	92.41	16.97	-54.2	-56.1	19.7	0.00e+00	0	45	0	275775488	60	24882
2026-01-30 06:30:03.53	92.28	17.07	-54.2	-56.1	19.8	0.00e+00	0	45	0	276824064	60	25008
2026-01-30 06:30:04.54	92.14	17.16	-54.4	-56.2	19.8	0.00e+00	0	45	0	278921216	60	25435
2026-01-30 06:30:05.55	92.01	17.26	-54.2	-56.0	20.1	0.00e+00	0	45	0	281018368	60	24648
2026-01-30 06:30:06.55	91.88	17.36	-54.3	-56.0	19.9	0.00e+00	0	45	0	283115520	60	24742
2026-01-30 06:30:07.56	91.75	17.45	-54.2	-55.8	20.1	0.00e+00	0	45	0	285212672	60	24141
2026-01-30 06:30:08.57	91.61	17.55	-54.3	-55.9	19.7	0.00e+00	0	45	0	286261248	60	24455
2026-01-30 06:30:09.58	91.48	17.65	-54.5	-56.2	19.7	0.00e+00	0	45	0	288358400	60	25303
2026-01-30 06:30:10.58	91.34	17.75	-54.8	-56.5	19.4	0.00e+00	0	45	0	290455552	60	26216
2026-01-30 06:30:11.59	91.20	17.84	-55.1	-57.0	19.1	0.00e+00	0	45	0	292552704	60	27615
2026-01-30 06:30:12.59	91.07	17.94	-55.2	-57.1	19.1	0.00e+00	0	45	0	294649856	60	28073
2026-01-30 06:30:13.60	90.93	18.04	-55.2	-57.0	19.0	0.00e+00	0	45	0	295698432	60	27768
2026-01-30 06:30:14.61	90.79	18.14	-55.2	-57.1	18.9	0.00e+00	0	45	0	297795584	60	27949
2026-01-30 06:30:15.62	90.64	18.24	-55.1	-57.0	19.1	0.00e+00	0	45	0	299892736	60	27683
2026-01-30 06:30:16.62	90.50	18.34	-55.3	-57.3	18.6	0.00e+00	0	45	0	301989888	60	28854
2026-01-30 06:30:17.63	90.36	18.43	-55.4	-57.5	18.4	0.00e+00	0	45	0	304087040	60	29509
2026-01-30 06:30:18.63	90.22	18.53	-55.4	-57.7	18.2	0.00e+00	0	45	0	305135616	60	29923
2026-01-30 06:30:19.64	90.07	18.63	-55.5	-57.7	18.3	0.00e+00	0	45	0	307232768	60	30056
2026-01-30 06:30:20.65	89.93	18.73	-55.4	-57.5	18.7	0.00e+00	0	45	0	309329920	60	29267
2026-01-30 06:30:21.66	89.78	18.83	-55.4	-57.3	18.8	0.00e+00	0	45	0	311427072	60	28862
2026-01-30 06:30:22.66	89.63	18.93	-55.1	-56.9	19.2	0.00e+00	0	45	0	313524224	60	27450
2026-01-30 06:30:23.67	89.48	19.03	-54.9	-56.6	19.3	0.00e+00	0	45	0	314572800	60	26521
2026-01-30 06:30:24.68	89.33	19.13	-54.8	-56.5	19.6	0.00e+00	0	45	0	316669952	60	26270
2026-01-30 06:30:25.68	89.19	19.23	-54.8	-56.6	19.5	0.00e+00	0	45	0	318767104	60	26551
2026-01-30 06:30:26.68	89.03	19.33	-55.1	-56.9	19.2	0.00e+00	0	45	0	320864256	60	27464
2026-01-30 06:30:27.68	88.88	19.43	-55.0	-56.8	19.4	0.00e+00	0	45	0	322961408	60	26999
2026-01-30 06:30:28.69	88.73	19.54	-54.9	-56.6	19.5	0.00e+00	0	45	0	324009984	60	26614
2026-01-30 06:30:29.70	88.57	19.64	-54.8	-56.5	19.5	0.00e+00	0	45	0	326107136	60	26312
2026-01-30 06:30:30.70	88.42	19.74	-54.6	-56.2	19.8	0.00e+00	0	45	0	328204288	60	25441
2026-01-30 06:30:31.71	88.26	19.84	-54.6	-56.3	19.8	0.00e+00	0	45	0	330301440	60	25631
2026-01-30 06:30:32.71	88.11	19.94	-54.7	-56.3	19.8	0.00e+00	0	45	0	332398592	60	25619
2026-01-30 06:30:33.72	87.95	20.05	-54.9	-56.7	19.5	0.00e+00	0	45	0	333447168	60	26689
2026-01-30 06:30:34.72	87.79	20.15	-54.9	-56.7	19.3	0.00e+00	0	45	0	335544320	60	26829
2026-01-30 06:30:35.73	87.63	20.25	-54.9	-56.7	19.4	0.00e+00	0	45	0	337641472	60	26915
2026-01-30 06:30:36.74	87.46	20.35	-54.8	-56.6	19.5	0.00e+00	0	45	0	339738624	60	26406
2026-01-30 06:30:37.74	87.30	20.46	-54.9	-56.8	19.4	0.00e+00	0	45	0	341835776	60	26983
2026-01-30 06:30:38.74	87.14	20.56	-55.0	-56.9	19.3	0.00e+00	0	45	0	342884352	60	27311
2026-01-30 06:30:39.75	86.97	20.66	-55.0	-57.0	19.2	0.00e+00	0	45	0	344981504	60	27813
2026-01-30 06:30:40.76	86.81	20.77	-55.0	-56.9	19.3	0.00e+00	0	45	0	347078656	60	27520
2026-01-30 06:30:41.76	86.64	20.87	-55.0	-56.9	19.3	0.00e+00	0	45	0	349175808	60	27389
2026-01-30 06:30:42.77	86.47	20.97	-55.2	-57.2	19.0	0.00e+00	0	45	0	350224384	60	28304
2026-01-30 06:30:43.78	86.30	21.08	-54.9	-56.9	19.3	0.00e+00	0	45	0	352321536	60	27386
2026-01-30 06:30:44.78	86.13	21.18	-54.9	-56.8	19.3	0.00e+00	0	45	0	354418688	60	27238
2026-01-30 06:30:45.79	85.96	21.29	-54.9	-56.9	19.3	0.00e+00	0	45	0	356515840	60	27298
2026-01-30 06:30:46.80	85.78	21.39	-54.8	-56.7	19.3	0.00e+00	0	45	0	358612992	60	26770
2026-01-30 06:30:47.80	85.61	21.49	-55.1	-57.2	18.6	0.00e+00	0	45	0	360710144	60	28444
2026-01-30 06:30:48.80	85.43	21.60	-54.7	-56.7	19.1	0.00e+00	0	45	0	361758720	60	26844
2026-01-30 06:30:49.81	85.26	21.70	-54.9	-57.0	19.2	0.00e+00	0	45	0	363855872	60	27767
2026-01-30 06:30:50.82	85.08	21.81	-55.1	-57.3	18.7	0.00e+00	0	45	0	365953024	60	28579
2026-01-30 06:30:51.82	84.90	21.91	-55.3	-57.4	18.7	0.00e+00	0	45	0	368050176	60	29010
2026-01-30 06:30:52.82	84.72	22.02	-55.5	-57.6	18.6	0.00e+00	0	45	0	370147328	60	29661
2026-01-30 06:30:53.82	84.54	22.12	-55.7	-57.7	18.7	0.00e+00	0	45	0	371195904	60	30141
2026-01-30 06:30:54.83	84.35	22.23	-55.7	-57.7	18.8	0.00e+00	0	45	0	373293056	60	30042
2026-01-30 06:30:55.84	84.17	22.33	-56.2	-58.3	18.2	0.00e+00	0	45	0	375390208	60	32279
2026-01-30 06:30:56.85	83.98	22.44	-55.9	-57.9	18.7	0.00e+00	0	45	0	377487360	60	30755
2026-01-30 06:30:57.86	83.80	22.55	-55.7	-57.6	18.9	0.00e+00	0	45	0	378535936	60	29635
2026-01-30 06:30:58.87	83.61	22.65	-55.8	-57.8	18.8	0.00e+00	0	45	0	380633088	60	30254
2026-01-30 06:30:59.87	83.42	22.76	-55.8	-57.8	18.8	0.00e+00	0	45	0	382730240	60	30429
2026-01-30 06:31:00.88	83.23	22.86	-55.7	-57.6	19.0	0.00e+00	0	45	0	384827392	60	29699
2026-01-30 06:31:01.88	83.04	22.97	-55.8	-57.7	18.9	0.00e+00	0	45	0	386924544	60	30066
2026-01-30 06:31:02.89	82.84	23.08	-55.5	-57.2	19.4	0.00e+00	0	45	0	389021696	60	28545
2026-01-30 06:31:03.89	82.65	23.18	-55.7	-57.5	19.3	0.00e+00	0	45	0	390070272	60	29513
2026-01-30 06:31:04.90	82.45	23.29	-55.4	-57.3	19.5	0.00e+00	0	45	0	392167424	60	28560
2026-01-30 06:31:05.91	82.25	23.40	-55.2	-57.0	19.7	0.00e+00	0	45	0	394264576	60	27631
2026-01-30 06:31:06.92	82.05	23.50	-55.0	-56.8	19.8	0.00e+00	0	45	0	396361728	60	27069
2026-01-30 06:31:07.92	81.85	23.61	-55.0	-56.7	19.9	0.00e+00	0	45	0	398458880	60	26732
2026-01-30 06:31:08.92	81.65	23.72	-55.1	-56.7	19.8	0.00e+00	0	45	0	399507456	60	26919
2026-01-30 06:31:09.93	81.45	23.82	-55.1	-56.7	19.8	0.00e+00	0	45	0	401604608	60	26913
2026-01-30 06:31:10.94	81.24	23.93	-55.2	-56.9	19.8	0.00e+00	0	45	0	403701760	60	27521
2026-01-30 06:31:11.95	81.04	24.04	-55.4	-57.1	19.5	0.00e+00	0	45	0	405798912	60	28191
2026-01-30 06:31:12.95	80.83	24.14	-55.3	-57.2	19.5	0.00e+00	0	45	0	406847488	60	28247
2026-01-30 06:31:13.96	80.62	24.25	-55.4	-57.3	19.5	0.00e+00	0	45	0	408944640	60	28628
2026-01-30 06:31:14.97	80.41	24.36	-55.5	-57.3	19.4	0.00e+00	0	45	0	411041792	60	28685
2026-01-30 06:31:15.98	80.20	24.46	-55.7	-57.5	19.2	0.00e+00	0	45	0	413138944	60	29531
2026-01-30 06:31:16.99	79.98	24.57	-55.5	-57.3	19.1	0.00e+00	0	45	0	415236096	60	28834
2026-01-30 06:31:17.99	79.77	24.68	-55.4	-57.3	19.3	0.00e+00	0	45	0	417333248	60	28576
2026-01-30 06:31:19.00	79.55	24.79	-55.4	-57.3	19.2	0.00e+00	0	45	0	418381824	60	28672
2026-01-30 06:31:20.01	79.34	24.89	-55.3	-57.2	19.5	0.00e+00	0	45	0	420478976	60	28297
2026-01-30 06:31:21.01	79.12	25.00	-55.3	-57.3	19.5	0.00e+00	0	45	0	422576128	60	28602
2026-01-30 06:31:22.02	78.90	25.11	-55.6	-57.6	19.2	0.00e+00	0	45	0	424673280	60	29610
2026-01-30 06:31:23.03	78.67	25.21	-55.8	-57.7	19.1	0.00e+00	0	45	0	426770432	60	30218
2026-01-30 06:31:24.04	78.45	25.32	-55.9	-57.8	19.1	0.00e+00	0	45	0	427819008	60	30341
2026-01-30 06:31:25.05	78.22	25.43	-56.0	-58.0	18.8	0.00e+00	0	45	0	429916160	60	30990
2026-01-30 06:31:26.05	78.00	25.53	-55.9	-57.8	19.1	0.00e+00	0	45	0	432013312	60	30271
2026-01-30 06:31:27.06	77.77	25.64	-55.6	-57.3	19.5	0.00e+00	0	45	0	434110464	60	28753
2026-01-30 06:31:28.07	77.54	25.75	-55.6	-57.3	19.6	0.00e+00	0	45	0	435159040	60	28678
2026-01-30 06:31:29.08	77.31	25.85	-55.6	-57.4	19.6	0.00e+00	0	45	0	437256192	60	28959
2026-01-30 06:31:30.09	77.07	25.96	-55.7	-57.4	19.6	0.00e+00	0	45	0	439353344	60	29197
2026-01-30 06:31:31.09	76.84	26.07	-55.8	-57.6	19.5	0.00e+00	0	45	0	441450496	60	29779
2026-01-30 06:31:32.10	76.60	26.17	-55.9	-57.6	19.4	0.00e+00	0	45	0	443547648	60	29876
2026-01-30 06:31:33.10	76.37	26.28	-55.7	-57.4	19.6	0.00e+00	0	45	0	445644800	60	29072
2026-01-30 06:31:34.11	76.13	26.38	-56.3	-58.2	19.0	0.00e+00	0	45	0	446693376	60	31833
2026-01-30 06:31:35.11	75.89	26.49	-56.5	-58.4	18.6	0.00e+00	0	45	0	448790528	60	32743
2026-01-30 06:31:36.12	75.64	26.59	-56.7	-58.7	18.6	0.00e+00	0	45	0	450887680	60	33923
2026-01-30 06:31:37.13	75.40	26.70	-56.6	-58.5	18.8	0.00e+00	0	45	0	452984832	60	33115
2026-01-30 06:31:38.14	75.15	26.81	-56.0	-57.8	19.5	0.00e+00	0	45	0	455081984	60	30330
2026-01-30 06:31:39.14	74.91	26.91	-55.7	-57.4	19.7	0.00e+00	0	45	0	456130560	60	29192
2026-01-30 06:31:40.15	74.66	27.02	-54.9	-56.5	20.5	0.00e+00	0	45	0	458227712	60	26079
2026-01-30 06:31:41.16	74.40	27.12	-54.7	-56.2	20.7	0.00e+00	0	45	0	460324864	60	25265
2026-01-30 06:31:42.17	74.15	27.22	-54.7	-56.1	21.0	0.00e+00	0	45	0	462422016	60	25073
2026-01-30 06:31:43.17	73.90	27.33	-54.6	-56.0	21.0	0.00e+00	0	45	0	463470592	60	24786
2026-01-30 06:31:44.18	73.64	27.43	-54.5	-55.9	21.0	0.00e+00	0	45	0	465567744	60	24400
2026-01-30 06:31:45.19	73.38	27.54	-54.6	-56.0	20.9	0.00e+00	0	45	0	467664896	60	24594
2026-01-30 06:31:46.20	73.12	27.64	-54.8	-56.3	20.8	0.00e+00	0	45	0	469762048	60	25569
2026-01-30 06:31:47.20	72.86	27.74	-55.0	-56.5	20.5	0.00e+00	0	45	0	471859200	60	26146
2026-01-30 06:31:48.21	72.60	27.85	-55.3	-56.9	20.1	0.00e+00	0	45	0	473956352	60	27291
2026-01-30 06:31:49.21	72.34	27.95	-55.3	-56.9	20.1	0.00e+00	0	45	0	475004928	60	27358
2026-01-30 06:31:50.22	72.07	28.05	-55.5	-57.1	19.9	0.00e+00	0	45	0	477102080	60	28176
2026-01-30 06:31:51.23	71.80	28.15	-55.3	-57.0	19.9	0.00e+00	0	45	0	479199232	60	27667
2026-01-30 06:31:52.23	71.53	28.25	-55.2	-56.8	20.1	0.00e+00	0	45	0	481296384	60	27148
2026-01-30 06:31:53.24	71.26	28.36	-55.6	-57.3	19.6	0.00e+00	0	45	0	483393536	60	28862
2026-01-30 06:31:54.25	70.99	28.46	-56.1	-58.0	19.0	0.00e+00	0	45	0	484442112	60	30955
2026-01-30 06:31:55.26	70.71	28.56	-56.4	-58.4	18.8	0.00e+00	0	45	0	486539264	60	32534
2026-01-30 06:31:56.27	70.44	28.66	-56.8	-58.9	18.4	0.00e+00	0	45	0	488636416	60	34518
2026-01-30 06:31:57.27	70.16	28.76	-57.2	-59.5	17.7	0.00e+00	0	45	0	490733568	60	37076
2026-01-30 06:31:58.28	69.88	28.86	-57.0	-59.2	18.1	0.00e+00	0	45	0	492830720	60	35656
2026-01-30 06:31:59.28	69.60	28.95	-57.0	-59.2	18.0	0.00e+00	0	45	0	493879296	60	35749
2026-01-30 06:32:00.29	69.32	29.05	-56.9	-59.0	18.4	0.00e+00	0	45	0	495976448	60	34959
2026-01-30 06:32:01.30	69.03	29.15	-56.7	-58.6	18.7	0.00e+00	0	45	0	498073600	60	33445
2026-01-30 06:32:02.31	68.74	29.25	-56.5	-58.4	18.8	0.00e+00	0	45	0	500170752	60	32757
2026-01-30 06:32:03.31	68.46	29.35	-56.5	-58.5	18.8	0.00e+00	0	45	0	502267904	60	32882
2026-01-30 06:32:04.32	68.16	29.44	-56.5	-58.4	18.8	0.00e+00	0	45	0	503316480	60	32767
2026-01-30 06:32:05.33	67.87	29.54	-56.4	-58.2	18.7	0.00e+00	0	45	0	505413632	60	31957
2026-01-30 06:32:06.34	67.58	29.64	-57.0	-59.0	18.3	0.00e+00	0	45	0	507510784	60	34991
2026-01-30 06:32:07.34	67.28	29.73	-57.4	-59.6	17.7	0.00e+00	0	45	0	509607936	60	37554
2026-01-30 06:32:08.35	66.98	29.82	-57.6	-59.9	17.4	0.00e+00	0	45	0	511705088	60	38828
2026-01-30 06:32:09.36	66.68	29.92	-57.9	-60.4	17.0	0.00e+00	0	45	0	512753664	60	41186
2026-01-30 06:32:10.37	66.38	30.01	-58.0	-60.6	16.7	0.00e+00	0	45	0	514850816	60	42092
2026-01-30 06:32:11.37	66.08	30.10	-58.1	-60.9	16.4	0.00e+00	0	45	0	516947968	60	43627
2026-01-30 06:32:12.37	65.78	30.20	-58.2	-61.2	16.1	0.00e+00	0	45	0	519045120	60	45068
2026-01-30 06:32:13.38	65.47	30.29	-59.0	-62.6	14.9	0.00e+00	0	45	0	521142272	60	52612
2026-01-30 06:32:14.39	65.16	30.38	-59.2	-62.7	14.4	0.00e+00	0	45	0	522190848	60	53742
2026-01-30 06:32:15.39	64.86	30.47	-58.7	-61.9	15.5	0.00e+00	0	45	0	524288000	60	48880
2026-01-30 06:32:16.40	64.54	30.56	-58.4	-61.5	15.9	0.00e+00	0	45	0	526385152	60	46426
2026-01-30 06:32:17.41	64.23	30.65	-58.4	-61.5	15.6	0.00e+00	0	45	0	528482304	60	46649
2026-01-30 06:32:18.41	63.92	30.74	-58.4	-61.3	16.1	0.00e+00	0	45	0	530579456	60	45708
2026-01-30 06:32:19.42	63.60	30.82	-57.9	-60.5	16.7	0.00e+00	0	45	0	531628032	60	41659
2026-01-30 06:32:20.42	63.28	30.91	-58.1	-60.8	16.6	0.00e+00	0	45	0	533725184	60	42754
2026-01-30 06:32:21.43	62.96	31.00	-58.1	-60.7	16.8	0.00e+00	0	45	0	535822336	60	42671
2026-01-30 06:32:22.43	62.64	31.08	-58.0	-60.6	16.8	0.00e+00	0	45	0	537919488	60	42223
2026-01-30 06:32:23.44	62.32	31.17	-58.3	-61.0	16.5	0.00e+00	0	45	0	540016640	60	43930
2026-01-30 06:32:24.45	61.99	31.25	-58.2	-60.9	16.7	0.00e+00	0	45	0	541065216	60	43263
2026-01-30 06:32:25.45	61.67	31.33	-58.0	-60.5	17.1	0.00e+00	0	45	0	543162368	60	41606
2026-01-30 06:32:26.46	61.34	31.41	-58.1	-60.6	16.9	0.00e+00	0	45	0	545259520	60	42040
2026-01-30 06:32:27.46	61.01	31.49	-58.1	-60.6	17.0	0.00e+00	0	45	0	547356672	60	42117
2026-01-30 06:32:28.47	60.68	31.57	-57.9	-60.3	17.4	0.00e+00	0	45	0	548405248	60	40743
2026-01-30 06:32:29.47	60.35	31.65	-58.1	-60.8	16.9	0.00e+00	0	45	0	550502400	60	42753
2026-01-30 06:32:30.47	60.01	31.73	-58.2	-61.0	16.7	0.00e+00	0	45	0	552599552	60	43915
2026-01-30 06:32:31.47	59.68	31.81	-58.6	-61.7	15.9	0.00e+00	0	45	0	554696704	60	47676
2026-01-30 06:32:32.48	59.34	31.89	-58.4	-61.3	16.6	7.00e-07	0	45	0	556793856	60	45650
2026-01-30 06:32:33.49	59.00	31.96	-58.5	-61.3	16.6	0.00e+00	0	45	0	558891008	60	45559
2026-01-30 06:32:34.49	58.66	32.04	-58.1	-60.7	16.9	0.00e+00	0	45	0	559939584	60	42254
2026-01-30 06:32:35.49	58.32	32.11	-58.0	-60.5	17.3	0.00e+00	0	45	0	562036736	60	41476
2026-01-30 06:32:36.50	57.98	32.18	-58.2	-61.0	16.7	0.00e+00	0	45	0	564133888	60	43955
2026-01-30 06:32:37.51	57.63	32.25	-58.3	-61.3	16.3	0.00e+00	0	45	0	566231040	60	45677
2026-01-30 06:32:38.52	57.28	32.33	-57.8	-60.5	17.1	0.00e+00	0	45	0	568328192	60	41412
2026-01-30 06:32:39.53	56.93	32.40	-57.6	-60.2	17.6	0.00e+00	0	45	0	569376768	60	40050
2026-01-30 06:32:40.53	56.58	32.46	-57.8	-60.3	17.2	0.00e+00	0	45	0	571473920	60	40619
2026-01-30 06:32:41.54	56.23	32.53	-57.7	-60.0	17.8	0.00e+00	0	45	0	573571072	60	39406
2026-01-30 06:32:42.54	55.88	32.60	-57.0	-58.9	18.8	0.00e+00	0	45	0	575668224	60	34522
2026-01-30 06:32:43.55	55.52	32.66	-56.7	-58.5	19.3	0.00e+00	0	45	0	576716800	60	32847
2026-01-30 06:32:44.55	55.17	32.73	-56.4	-58.1	19.5	0.00e+00	0	45	0	578813952	60	31515
2026-01-30 06:32:45.55	54.81	32.79	-56.6	-58.5	19.3	0.00e+00	0	45	0	580911104	60	32823
2026-01-30 06:32:46.55	54.46	32.85	-56.7	-58.6	19.2	0.00e+00	0	45	0	583008256	60	33252
2026-01-30 06:32:47.56	54.09	32.91	-56.4	-58.2	19.5	0.00e+00	0	45	0	585105408	60	31698
2026-01-30 06:32:48.56	53.73	32.97	-55.8	-57.4	20.2	0.00e+00	0	45	0	586153984	60	29183
2026-01-30 06:32:49.57	53.37	33.03	-55.9	-57.6	20.2	0.00e+00	0	45	0	588251136	60	29580
2026-01-30 06:32:50.58	53.00	33.09	-55.9	-57.6	20.1	0.00e+00	0	45	0	590348288	60	29651
2026-01-30 06:32:51.58	52.64	33.15	-55.9	-57.7	20.0	0.00e+00	0	45	0	592445440	60	30185
2026-01-30 06:32:52.59	52.27	33.20	-56.3	-58.4	19.4	0.00e+00	0	45	0	594542592	60	32522
2026-01-30 06:32:53.60	51.90	33.25	-56.6	-58.9	18.8	0.00e+00	0	45	0	596639744	60	34609
2026-01-30 06:32:54.60	51.54	33.31	-57.1	-59.6	18.2	0.00e+00	0	45	0	597688320	60	37230
2026-01-30 06:32:55.61	51.17	33.36	-57.5	-59.9	18.0	0.00e+00	0	45	0	599785472	60	38811
2026-01-30 06:32:56.62	50.79	33.41	-57.4	-59.7	18.1	0.00e+00	0	45	0	601882624	60	37720
2026-01-30 06:32:57.63	50.42	33.46	-57.1	-59.2	18.6	0.00e+00	0	45	0	603979776	60	35557
2026-01-30 06:32:58.63	50.05	33.50	-56.7	-58.7	19.3	0.00e+00	0	45	0	605028352	60	33620
2026-01-30 06:32:59.64	49.67	33.55	-56.5	-58.5	19.3	0.00e+00	0	45	0	607125504	60	32822
2026-01-30 06:33:00.65	49.29	33.60	-55.6	-57.5	20.1	0.00e+00	0	45	0	609222656	60	29296
2026-01-30 06:33:01.65	48.92	33.64	-55.4	-57.2	20.4	0.00e+00	0	45	0	611319808	60	28239
2026-01-30 06:33:02.66	48.54	33.68	-55.2	-56.9	20.6	0.00e+00	0	45	0	613416960	60	27390
2026-01-30 06:33:03.67	48.16	33.72	-55.2	-56.7	20.7	0.00e+00	0	45	0	614465536	60	26808
2026-01-30 06:33:04.68	47.78	33.76	-55.0	-56.5	21.1	0.00e+00	0	45	0	616562688	60	26104
2026-01-30 06:33:05.69	47.40	33.80	-55.2	-56.7	20.8	0.00e+00	0	45	0	618659840	60	26659
2026-01-30 06:33:06.70	47.01	33.83	-55.8	-57.5	19.9	0.00e+00	0	45	0	620756992	60	29410
2026-01-30 06:33:07.70	46.63	33.87	-56.7	-58.8	18.8	0.00e+00	0	45	0	622854144	60	33968
2026-01-30 06:33:08.71	46.25	33.90	-57.0	-59.5	18.1	0.00e+00	0	45	0	624951296	60	36920
2026-01-30 06:33:09.72	45.86	33.94	-56.3	-58.6	18.9	0.00e+00	0	45	0	625999872	60	33238
2026-01-30 06:33:10.73	45.48	33.97	-56.0	-58.0	19.4	0.00e+00	0	45	0	628097024	60	31134
2026-01-30 06:33:11.73	45.09	34.00	-56.3	-58.3	19.0	0.00e+00	0	45	0	630194176	60	32109
2026-01-30 06:33:12.73	44.71	34.02	-56.8	-58.8	18.5	0.00e+00	0	45	0	632291328	60	34272
2026-01-30 06:33:13.74	44.32	34.05	-57.4	-59.8	17.7	0.00e+00	0	45	0	633339904	60	38410
2026-01-30 06:33:14.75	43.93	34.07	-57.0	-59.3	18.1	0.00e+00	0	45	0	635437056	60	36340
2026-01-30 06:33:15.76	43.54	34.10	-56.4	-58.6	18.9	0.00e+00	0	45	0	637534208	60	33217
2026-01-30 06:33:16.76	43.16	34.12	-56.2	-58.3	19.1	0.00e+00	0	45	0	639631360	60	32398
2026-01-30 06:33:17.77	42.77	34.14	-56.4	-58.7	18.6	0.00e+00	0	45	0	641728512	60	33836
2026-01-30 06:33:18.78	42.38	34.16	-56.1	-58.3	19.2	0.00e+00	0	45	0	643825664	60	32206
2026-01-30 06:33:19.78	41.99	34.18	-55.5	-57.5	19.7	0.00e+00	0	45	0	644874240	60	29509
2026-01-30 06:33:20.79	41.60	34.19	-55.7	-57.7	19.6	0.00e+00	0	45	0	646971392	60	29969
2026-01-30 06:33:21.79	41.21	34.21	-56.1	-58.2	19.2	0.00e+00	0	45	0	649068544	60	31997
2026-01-30 06:33:22.80	40.82	34.22	-56.5	-58.8	18.5	0.00e+00	0	45	0	651165696	60	34017
2026-01-30 06:33:23.81	40.42	34.23	-56.9	-59.4	18.1	0.00e+00	0	45	0	653262848	60	36624
2026-01-30 06:33:24.82	40.03	34.24	-57.1	-59.6	17.9	0.00e+00	0	45	0	654311424	60	37475
2026-01-30 06:33:25.82	39.64	34.25	-57.5	-60.0	17.7	0.00e+00	0	45	0	656408576	60	39034
2026-01-30 06:33:26.83	39.25	34.26	-58.1	-60.7	17.3	0.00e+00	0	45	0	658505728	60	42363
2026-01-30 06:33:27.84	38.86	34.26	-58.3	-61.0	16.8	0.00e+00	0	45	0	660602880	60	43997
2026-01-30 06:33:28.85	38.46	34.27	-57.7	-60.0	17.8	0.00e+00	0	45	0	661651456	60	39309
2026-01-30 06:33:29.85	38.07	34.27	-57.2	-59.5	18.1	0.00e+00	0	45	0	663748608	60	37128
2026-01-30 06:33:30.85	37.68	34.27	-57.2	-59.6	18.1	0.00e+00	0	45	0	665845760	60	37547
2026-01-30 06:33:31.86	37.29	34.27	-57.0	-59.4	18.2	0.00e+00	0	45	0	667942912	60	36467
2026-01-30 06:33:32.86	36.90	34.27	-56.6	-59.1	18.2	0.00e+00	0	45	0	670040064	60	35401
2026-01-30 06:33:33.87	36.51	34.26	-56.3	-58.5	19.1	0.00e+00	0	45	0	671088640	60	32932
2026-01-30 06:33:34.88	36.11	34.26	-55.8	-57.9	19.2	0.00e+00	0	45	0	673185792	60	30841
2026-01-30 06:33:35.88	35.72	34.25	-55.8	-58.0	19.4	0.00e+00	0	45	0	675282944	60	31068
2026-01-30 06:33:36.89	35.33	34.24	-55.9	-58.2	19.0	0.00e+00	0	45	0	677380096	60	31985
2026-01-30 06:33:37.89	34.94	34.23	-56.2	-58.9	18.3	0.00e+00	0	45	0	679477248	60	34433
2026-01-30 06:33:38.90	34.55	34.22	-56.4	-59.3	17.9	0.00e+00	0	45	0	681574400	60	36041
2026-01-30 06:33:39.90	34.16	34.21	-56.1	-58.7	18.7	0.00e+00	0	45	0	682622976	60	33633
2026-01-30 06:33:40.91	33.77	34.19	-55.6	-57.7	19.2	0.00e+00	0	45	0	684720128	60	29972
2026-01-30 06:33:41.92	33.38	34.18	-55.6	-57.5	19.8	0.00e+00	0	45	0	686817280	60	29245
2026-01-30 06:33:42.93	32.99	34.16	-56.0	-57.9	19.5	0.00e+00	0	45	0	688914432	60	30702
2026-01-30 06:33:43.93	32.60	34.14	-56.7	-58.7	18.9	0.00e+00	0	45	0	689963008	60	33710
2026-01-30 06:33:44.93	32.21	34.12	-57.8	-60.3	17.3	0.00e+00	0	45	0	692060160	60	40437
2026-01-30 06:33:45.94	31.82	34.10	-58.2	-60.9	16.7	0.00e+00	0	45	0	694157312	60	43500
2026-01-30 06:33:46.94	31.44	34.07	-58.0	-60.6	17.0	0.00e+00	0	45	0	696254464	60	41966
2026-01-30 06:33:47.95	31.05	34.05	-57.7	-60.3	17.3	0.00e+00	0	45	0	698351616	60	40336
2026-01-30 06:33:48.95	30.66	34.02	-57.2	-59.8	17.6	0.00e+00	0	45	0	699400192	60	38253
2026-01-30 06:33:49.95	30.28	34.00	-57.0	-59.5	18.0	0.00e+00	0	45	0	701497344	60	36863
2026-01-30 06:33:50.95	29.90	33.97	-56.9	-59.1	18.3	0.00e+00	0	45	0	703594496	60	35526
2026-01-30 06:33:51.95	29.52	33.94	-56.9	-59.0	18.8	0.00e+00	0	45	0	705691648	60	35118
2026-01-30 06:33:52.96	29.13	33.90	-56.8	-58.8	18.9	0.00e+00	0	45	0	707788800	60	34031
2026-01-30 06:33:53.96	28.75	33.87	-57.3	-59.4	18.1	0.00e+00	0	45	0	708837376	60	36763
2026-01-30 06:33:54.97	28.37	33.83	-57.1	-59.3	18.1	0.00e+00	0	45	0	710934528	60	36086
2026-01-30 06:33:55.97	27.99	33.80	-57.2	-59.6	17.7	0.00e+00	0	45	0	713031680	60	37629
2026-01-30 06:33:56.98	27.61	33.76	-57.4	-60.1	17.1	0.00e+00	0	45	0	715128832	60	39455
2026-01-30 06:33:57.99	27.23	33.72	-57.2	-59.6	17.6	0.00e+00	0	45	0	717225984	60	37518
2026-01-30 06:33:59.00	26.85	33.68	-57.2	-59.6	17.7	0.00e+00	0	45	0	718274560	60	37322
2026-01-30 06:34:00.00	26.47	33.64	-57.5	-59.8	17.8	0.00e+00	0	45	0	720371712	60	38319
2026-01-30 06:34:01.00	26.10	33.60	-57.0	-59.1	18.2	0.00e+00	0	45	0	722468864	60	35479
2026-01-30 06:34:02.00	25.72	33.55	-57.0	-59.1	18.4	0.00e+00	0	45	0	724566016	60	35168
2026-01-30 06:34:03.00	25.35	33.51	-57.0	-59.1	18.0	0.00e+00	0	45	0	726663168	60	35497
2026-01-30 06:34:04.01	24.98	33.46	-57.1	-59.5	17.7	0.00e+00	0	45	0	727711744	60	37168
2026-01-30 06:34:05.01	24.61	33.41	-57.0	-59.5	17.9	0.00e+00	0	45	0	729808896	60	37043
2026-01-30 06:34:06.02	24.23	33.36	-56.5	-58.9	18.3	0.00e+00	0	45	0	731906048	60	34422
2026-01-30 06:34:07.03	23.86	33.31	-56.8	-59.3	17.9	0.00e+00	0	45	0	734003200	60	35997
2026-01-30 06:34:08.04	23.49	33.26	-57.1	-59.7	17.8	0.00e+00	0	45	0	736100352	60	37711
2026-01-30 06:34:09.04	23.13	33.20	-56.9	-59.1	18.4	0.00e+00	0	45	0	737148928	60	35232
2026-01-30 06:34:10.05	22.76	33.15	-56.4	-58.3	19.2	0.00e+00	0	45	0	739246080	60	32286
2026-01-30 06:34:11.06	22.39	33.09	-55.8	-57.5	20.0	0.00e+00	0	45	0	741343232	60	29284
2026-01-30 06:34:12.06	22.03	33.04	-55.8	-57.5	19.8	0.00e+00	0	45	0	743440384	60	29496
2026-01-30 06:34:13.07	21.67	32.98	-55.6	-57.3	19.8	0.00e+00	0	45	0	745537536	60	28738
2026-01-30 06:34:14.07	21.31	32.92	-56.2	-58.1	19.2	0.00e+00	0	45	0	746586112	60	31352
2026-01-30 06:34:15.08	20.95	32.86	-56.9	-59.1	18.3	0.00e+00	0	45	0	748683264	60	35167
2026-01-30 06:34:16.09	20.59	32.79	-57.5	-59.9	17.6	0.00e+00	0	45	0	750780416	60	38718
2026-01-30 06:34:17.09	20.23	32.73	-57.5	-59.8	17.6	0.00e+00	0	45	0	752877568	60	38473
2026-01-30 06:34:18.10	19.88	32.67	-57.3	-59.5	17.9	0.00e+00	0	45	0	754974720	60	37149
2026-01-30 06:34:19.10	19.52	32.60	-56.9	-59.0	18.4	0.00e+00	0	45	0	756023296	60	35004
2026-01-30 06:34:20.11	19.17	32.54	-56.1	-58.0	19.3	0.00e+00	0	45	0	758120448	60	31133
2026-01-30 06:34:21.11	18.82	32.47	-55.7	-57.7	19.4	0.00e+00	0	45	0	760217600	60	30070
2026-01-30 06:34:22.12	18.47	32.40	-55.9	-58.2	18.8	0.00e+00	0	45	0	762314752	60	31859
2026-01-30 06:34:23.12	18.12	32.33	-56.2	-58.8	18.2	0.00e+00	0	45	0	764411904	60	33932
2026-01-30 06:34:24.13	17.77	32.26	-56.2	-58.7	18.1	0.00e+00	0	45	0	765460480	60	33873
2026-01-30 06:34:25.14	17.43	32.19	-56.5	-59.0	18.0	0.00e+00	0	45	0	767557632	60	34953
2026-01-30 06:34:26.14	17.09	32.12	-57.2	-59.8	17.7	0.00e+00	0	45	0	769654784	60	38088
2026-01-30 06:34:27.14	16.75	32.04	-57.7	-60.5	16.9	0.00e+00	0	45	0	771751936	60	41315
2026-01-30 06:34:28.15	16.40	31.97	-57.9	-60.8	16.8	0.00e+00	0	46	0	773849088	60	42977
2026-01-30 06:34:29.15	16.07	31.89	-58.0	-60.8	16.6	0.00e+00	0	45	0	774897664	60	43177
2026-01-30 06:34:30.16	15.73	31.82	-58.0	-61.1	16.4	0.00e+00	0	45	0	776994816	60	44310
2026-01-30 06:34:31.17	15.39	31.74	-57.6	-60.8	16.9	0.00e+00	0	45	0	779091968	60	42812
2026-01-30 06:34:32.17	15.06	31.66	-57.3	-60.3	17.2	0.00e+00	0	45	0	781189120	60	40385
2026-01-30 06:34:33.17	14.73	31.58	-56.9	-59.5	17.8	0.00e+00	0	45	0	782237696	60	36880
2026-01-30 06:34:34.18	14.40	31.50	-57.3	-59.8	17.8	0.00e+00	0	45	0	784334848	60	38393
2026-01-30 06:34:35.19	14.07	31.42	-57.8	-60.4	17.1	0.00e+00	0	45	0	786432000	60	41063
2026-01-30 06:34:36.19	13.74	31.34	-57.6	-60.1	17.3	0.00e+00	0	45	0	788529152	60	39578
2026-01-30 06:34:37.20	13.41	31.26	-57.3	-59.7	17.9	0.00e+00	0	45	0	790626304	60	37685
2026-01-30 06:34:38.20	13.09	31.17	-57.0	-59.3	18.3	0.00e+00	0	46	0	792723456	60	36170
2026-01-30 06:34:39.21	12.77	31.09	-56.5	-58.6	19.0	0.00e+00	0	45	0	793772032	60	33349
2026-01-30 06:34:40.21	12.45	31.00	-56.3	-58.5	18.9	0.00e+00	0	45	0	795869184	60	32832
2026-01-30 06:34:41.22	12.13	30.92	-56.0	-58.1	19.0	0.00e+00	0	45	0	797966336	60	31396
2026-01-30 06:34:42.22	11.81	30.83	-55.5	-57.6	19.4	0.00e+00	0	45	0	800063488	60	29662
2026-01-30 06:34:43.23	11.50	30.74	-55.4	-57.3	19.9	0.00e+00	0	45	0	802160640	60	28577
2026-01-30 06:34:44.24	11.18	30.66	-55.1	-56.8	20.3	0.00e+00	0	45	0	803209216	60	27227
2026-01-30 06:34:45.24	10.87	30.57	-55.8	-57.7	19.7	0.00e+00	0	45	0	805306368	60	29938
2026-01-30 06:34:46.25	10.56	30.48	-56.5	-58.5	19.0	0.00e+00	0	45	0	807403520	60	32937
2026-01-30 06:34:47.26	10.25	30.39	-57.5	-59.7	17.8	0.00e+00	0	45	0	809500672	60	37960
2026-01-30 06:34:48.26	9.94	30.30	-58.0	-60.4	17.2	0.00e+00	0	45	0	810549248	60	41212
2026-01-30 06:34:49.27	9.64	30.21	-58.2	-60.7	16.9	0.00e+00	0	45	0	812646400	60	42622
2026-01-30 06:34:50.28	9.33	30.11	-57.7	-60.0	17.7	0.00e+00	0	45	0	814743552	60	39044
2026-01-30 06:34:51.28	9.03	30.02	-56.7	-58.7	19.0	0.00e+00	0	45	0	816840704	60	33544
2026-01-30 06:34:52.29	8.73	29.93	-56.1	-57.9	19.5	0.00e+00	0	45	0	818937856	60	30706
2026-01-30 06:34:53.30	8.43	29.83	-56.3	-58.1	19.1	0.00e+00	0	45	0	821035008	60	31365
2026-01-30 06:34:54.30	8.14	29.74	-56.2	-58.0	19.4	0.00e+00	0	45	0	822083584	60	31278
2026-01-30 06:34:55.31	7.84	29.65	-57.0	-59.2	17.9	0.00e+00	0	45	0	824180736	60	35818
2026-01-30 06:34:56.31	7.55	29.55	-58.0	-60.7	16.7	0.00e+00	0	45	0	826277888	60	42230
2026-01-30 06:34:57.32	7.26	29.45	-58.6	-61.7	15.8	0.00e+00	0	45	0	828375040	60	47510
2026-01-30 06:34:58.32	6.97	29.36	-58.6	-61.6	16.4	0.00e+00	0	45	0	830472192	60	47113
2026-01-30 06:34:59.33	6.68	29.26	-58.3	-61.1	16.5	0.00e+00	0	45	0	831520768	60	44306
2026-01-30 06:35:00.34	6.40	29.16	-58.0	-60.6	16.9	0.00e+00	0	45	0	833617920	60	41860
2026-01-30 06:35:01.35	6.11	29.07	-57.8	-60.2	17.1	0.00e+00	0	45	0	835715072	60	39990
2026-01-30 06:35:02.35	5.83	28.97	-57.4	-59.7	17.9	0.00e+00	0	45	0	837812224	60	37755
2026-01-30 06:35:03.35	5.55	28.87	-57.2	-59.4	18.1	0.00e+00	0	45	0	838860800	60	36443
2026-01-30 06:35:04.36	5.27	28.77	-57.2	-59.4	18.1	0.00e+00	0	45	0	840957952	60	36369
2026-01-30 06:35:05.37	4.99	28.67	-57.5	-59.9	17.4	0.00e+00	0	45	0	843055104	60	38840
2026-01-30 06:35:06.38	4.71	28.57	-57.7	-60.3	17.4	0.00e+00	0	45	0	845152256	60	40337
2026-01-30 06:35:07.39	4.44	28.47	-58.0	-60.8	16.8	0.00e+00	0	45	0	847249408	60	42767
2026-01-30 06:35:08.39	4.17	28.37	-57.8	-60.5	17.0	0.00e+00	0	45	0	849346560	60	41432
2026-01-30 06:35:09.40	3.90	28.27	-57.2	-59.6	17.9	0.00e+00	0	45	0	850395136	60	37233
2026-01-30 06:35:10.40	3.63	28.17	-56.3	-58.2	19.1	0.00e+00	0	45	0	852492288	60	31904
2026-01-30 06:35:11.41	3.36	28.07	-56.1	-57.9	19.4	0.00e+00	0	45	0	854589440	60	30858
2026-01-30 06:35:12.41	3.10	27.97	-56.2	-58.0	19.4	0.00e+00	0	45	0	856686592	60	31269
2026-01-30 06:35:13.42	2.84	27.86	-55.8	-57.5	19.7	0.00e+00	0	45	0	858783744	60	29294
2026-01-30 06:35:14.42	2.57	27.76	-55.8	-57.6	19.7	0.00e+00	0	45	0	859832320	60	29676
2026-01-30 06:35:15.43	2.31	27.66	-56.0	-57.8	19.4	0.00e+00	0	45	0	861929472	60	30475
2026-01-30 06:35:16.44	2.05	27.55	-56.2	-58.2	19.1	0.00e+00	0	45	0	864026624	60	31704
2026-01-30 06:35:17.44	1.80	27.45	-56.6	-58.6	18.8	0.00e+00	0	45	0	866123776	60	33504
2026-01-30 06:35:18.44	1.55	27.35	-56.6	-58.6	18.7	0.00e+00	0	45	0	867172352	60	33202
2026-01-30 06:35:19.45	1.29	27.25	-56.4	-58.4	18.9	0.00e+00	0	45	0	869269504	60	32526
2026-01-30 06:35:20.45	1.04	27.14	-55.9	-57.7	19.6	0.00e+00	0	45	0	871366656	60	30025
2026-01-30 06:35:21.46	0.79	27.04	-55.2	-56.8	20.4	0.00e+00	0	45	0	873463808	60	26986
2026-01-30 06:35:22.47	0.54	26.93	-55.2	-56.8	20.3	0.00e+00	0	45	0	875560960	60	26981
2026-01-30 06:35:23.48	0.29	26.83	-55.3	-56.8	20.2	0.00e+00	0	45	0	876609536	60	27235
2026-01-30 06:35:24.48	0.05	26.72	-55.3	-56.9	20.1	0.00e+00	0	45	0	878706688	60	27574
2026-01-30 06:35:25.48	359.81	26.62	-55.4	-57.0	20.1	0.00e+00	0	45	0	880803840	60	27705
2026-01-30 06:35:26.49	359.56	26.51	-55.7	-57.4	19.8	0.00e+00	0	45	0	882900992	60	28996
2026-01-30 06:35:27.50	359.32	26.41	-55.8	-57.5	19.5	0.00e+00	0	45	0	884998144	60	29373
2026-01-30 06:35:28.51	359.08	26.30	-55.4	-57.0	20.0	0.00e+00	0	45	0	887095296	60	27713
2026-01-30 06:35:29.52	358.85	26.20	-55.0	-56.5	20.4	0.00e+00	0	45	0	888143872	60	26318
2026-01-30 06:35:30.52	358.61	26.09	-54.6	-56.1	20.8	0.00e+00	0	45	0	890241024	60	24979
2026-01-30 06:35:31.53	358.38	25.98	-54.4	-55.8	21.0	0.00e+00	0	45	0	892338176	60	24052
2026-01-30 06:35:32.54	358.14	25.88	-54.3	-55.7	21.2	0.00e+00	0	45	0	894435328	60	23810
2026-01-30 06:35:33.54	357.91	25.77	-54.2	-55.6	21.3	0.00e+00	0	45	0	895483904	60	23551
2026-01-30 06:35:34.55	357.68	25.67	-54.2	-55.6	21.2	0.00e+00	0	45	0	897581056	60	23564
2026-01-30 06:35:35.56	357.46	25.56	-54.4	-55.9	20.9	0.00e+00	0	45	0	899678208	60	24576
2026-01-30 06:35:36.57	357.23	25.45	-54.9	-56.6	20.3	0.00e+00	0	45	0	901775360	60	26517
2026-01-30 06:35:37.58	357.00	25.35	-55.2	-57.0	20.0	0.00e+00	0	45	0	903872512	60	27731
2026-01-30 06:35:38.59	356.78	25.24	-55.2	-56.9	20.0	0.00e+00	0	45	0	905969664	60	27576
2026-01-30 06:35:39.59	356.56	25.13	-55.2	-56.9	20.2	0.00e+00	0	45	0	907018240	60	27422
2026-01-30 06:35:40.60	356.34	25.03	-54.8	-56.4	20.5	0.00e+00	0	45	0	909115392	60	25738
2026-01-30 06:35:41.61	356.12	24.92	-54.4	-55.8	21.0	0.00e+00	0	45	0	911212544	60	24255
2026-01-30 06:35:42.62	355.90	24.81	-54.1	-55.4	21.3	0.00e+00	0	45	0	913309696	60	23143
2026-01-30 06:35:43.62	355.69	24.71	-54.2	-55.5	21.2	0.00e+00	0	45	0	915406848	60	23457
2026-01-30 06:35:44.63	355.47	24.60	-54.1	-55.5	21.2	0.00e+00	0	45	0	916455424	60	23283
2026-01-30 06:35:45.63	355.26	24.49	-54.2	-55.5	21.1	0.00e+00	0	45	0	918552576	60	23400
2026-01-30 06:35:46.63	355.05	24.39	-54.3	-55.7	20.9	0.00e+00	0	45	0	920649728	60	23893
2026-01-30 06:35:47.64	354.84	24.28	-54.4	-55.8	21.0	0.00e+00	0	45	0	922746880	60	24128
2026-01-30 06:35:48.64	354.63	24.18	-54.5	-55.9	21.0	0.00e+00	0	45	0	923795456	60	24315
2026-01-30 06:35:49.64	354.43	24.07	-54.3	-55.7	21.1	0.00e+00	0	45	0	925892608	60	23759
2026-01-30 06:35:50.65	354.22	23.96	-54.4	-55.9	20.7	0.00e+00	0	45	0	927989760	60	24311
2026-01-30 06:35:51.66	354.02	23.86	-54.4	-55.8	20.9	0.00e+00	0	45	0	930086912	60	24245
2026-01-30 06:35:52.67	353.81	23.75	-54.1	-55.4	21.1	0.00e+00	0	45	0	932184064	60	23123
2026-01-30 06:35:53.67	353.61	23.64	-54.0	-55.3	21.2	0.00e+00	0	45	0	933232640	60	22877
2026-01-30 06:35:54.68	353.41	23.54	-53.6	-54.9	21.5	0.00e+00	0	45	0	935329792	60	21656
2026-01-30 06:35:55.69	353.21	23.43	-53.6	-54.9	21.6	0.00e+00	0	45	0	937426944	60	21671
2026-01-30 06:35:56.70	353.02	23.32	-53.6	-54.8	21.5	0.00e+00	0	45	0	939524096	60	21588
2026-01-30 06:35:57.70	352.82	23.22	-54.0	-55.4	21.3	0.00e+00	0	45	0	941621248	60	22988
2026-01-30 06:35:58.70	352.63	23.11	-54.0	-55.4	21.2	0.00e+00	0	45	0	943718400	60	23013
2026-01-30 06:35:59.71	352.44	23.01	-53.9	-55.2	20.9	0.00e+00	0	45	0	944766976	60	22599
2026-01-30 06:36:00.72	352.24	22.90	-54.3	-55.7	20.8	0.00e+00	0	45	0	946864128	60	23785
2026-01-30 06:36:01.73	352.05	22.79	-54.4	-55.8	20.8	0.00e+00	0	45	0	948961280	60	24135
2026-01-30 06:36:02.74	351.86	22.69	-54.0	-55.4	21.1	0.00e+00	0	45	0	951058432	60	22968
2026-01-30 06:36:03.74	351.68	22.58	-54.3	-55.8	20.4	0.00e+00	0	45	0	952107008	60	24068
2026-01-30 06:36:04.75	351.49	22.48	-54.5	-56.0	20.6	0.00e+00	0	45	0	954204160	60	24768
2026-01-30 06:36:05.76	351.30	22.37	-54.4	-56.0	20.5	0.00e+00	0	45	0	956301312	60	24639
2026-01-30 06:36:06.77	351.12	22.27	-54.8	-56.5	20.2	0.00e+00	0	45	0	958398464	60	26037
2026-01-30 06:36:07.78	350.93	22.16	-55.3	-57.0	19.6	0.00e+00	0	45	0	960495616	60	27893
2026-01-30 06:36:08.79	350.75	22.06	-55.3	-57.0	19.6	0.00e+00	0	45	0	962592768	60	27839
2026-01-30 06:36:09.79	350.57	21.95	-55.3	-57.1	19.5	0.00e+00	0	45	0	963641344	60	28130
2026-01-30 06:36:10.80	350.39	21.85	-55.4	-57.3	19.4	0.00e+00	0	45	0	965738496	60	28552
2026-01-30 06:36:11.81	350.22	21.74	-55.2	-56.9	19.7	0.00e+00	0	45	0	967835648	60	27462
2026-01-30 06:36:12.82	350.04	21.64	-55.2	-56.9	19.6	0.00e+00	0	45	0	969932800	60	27527
2026-01-30 06:36:13.82	349.86	21.53	-54.8	-56.4	20.1	0.00e+00	0	45	0	972029952	60	25910
2026-01-30 06:36:14.83	349.69	21.43	-55.0	-56.7	19.8	0.00e+00	0	45	0	973078528	60	26734
2026-01-30 06:36:15.83	349.52	21.32	-55.0	-56.7	19.6	0.00e+00	0	45	0	975175680	60	26921
2026-01-30 06:36:16.84	349.35	21.22	-55.4	-57.3	19.3	0.00e+00	0	45	0	977272832	60	28581
2026-01-30 06:36:17.85	349.17	21.12	-55.3	-57.2	19.4	0.00e+00	0	45	0	979369984	60	28330
2026-01-30 06:36:18.85	349.01	21.01	-55.4	-57.3	19.1	0.00e+00	0	45	0	980418560	60	28671
2026-01-30 06:36:19.86	348.84	20.91	-55.2	-57.0	19.5	0.00e+00	0	45	0	982515712	60	27806
2026-01-30 06:36:20.86	348.67	20.81	-55.2	-56.9	19.6	0.00e+00	0	45	0	984612864	60	27571
2026-01-30 06:36:21.87	348.50	20.70	-55.3	-57.1	19.5	0.00e+00	0	45	0	986710016	60	28130
2026-01-30 06:36:22.88	348.34	20.60	-54.8	-56.4	20.1	0.00e+00	0	45	0	988807168	60	25975
2026-01-30 06:36:23.88	348.18	20.50	-54.8	-56.5	20.0	0.00e+00	0	45	0	990904320	60	26142
2026-01-30 06:36:24.88	348.02	20.40	-54.8	-56.3	20.2	0.00e+00	0	45	0	991952896	60	25732
2026-01-30 06:36:25.89	347.85	20.29	-54.9	-56.5	19.9	0.00e+00	0	45	0	994050048	60	26156
2026-01-30 06:36:26.89	347.69	20.19	-54.8	-56.3	20.1	1.90e-05	0	45	0	996147200	60	25708
2026-01-30 06:36:27.90	347.53	20.09	-55.1	-56.8	19.7	0.00e+00	0	45	0	998244352	60	26987
2026-01-30 06:36:28.91	347.38	19.99	-54.9	-56.6	19.7	0.00e+00	0	45	0	1000341504	60	26361
2026-01-30 06:36:29.91	347.22	19.89	-54.8	-56.4	19.9	0.00e+00	0	45	0	1001390080	60	25842
2026-01-30 06:36:30.92	347.06	19.78	-54.5	-56.0	20.3	0.00e+00	0	45	0	1003487232	60	24858
2026-01-30 06:36:31.92	346.91	19.68	-54.5	-56.0	20.4	0.00e+00	0	45	0	1005584384	60	24753
2026-01-30 06:36:32.93	346.75	19.58	-54.2	-55.7	20.6	0.00e+00	0	45	0	1007681536	60	23879
2026-01-30 06:36:33.94	346.60	19.48	-54.3	-55.8	20.5	0.00e+00	0	45	0	1008730112	60	24279
2026-01-30 06:36:34.95	346.45	19.38	-54.7	-56.3	20.0	0.00e+00	0	45	0	1010827264	60	25729
2026-01-30 06:36:35.95	346.30	19.28	-54.2	-55.7	20.6	0.00e+00	0	45	0	1012924416	60	23827
2026-01-30 06:36:36.96	346.15	19.18	-54.3	-55.8	20.6	0.00e+00	0	45	0	1015021568	60	24080
2026-01-30 06:36:37.97	346.00	19.08	-54.3	-55.8	20.4	0.00e+00	0	45	0	1017118720	60	24211
2026-01-30 06:36:38.97	345.85	18.98	-54.6	-56.1	20.1	0.00e+00	0	45	0	1018167296	60	25141
2026-01-30 06:36:39.97	345.71	18.88	-54.3	-55.8	20.5	0.00e+00	0	45	0	1020264448	60	24058
2026-01-30 06:36:40.98	345.56	18.78	-54.1	-55.5	20.7	0.00e+00	0	45	0	1022361600	60	23314
2026-01-30 06:36:41.98	345.41	18.68	-54.1	-55.6	20.6	0.00e+00	0	45	0	1024458752	60	23513
2026-01-30 06:36:42.99	345.27	18.58	-53.8	-55.2	20.8	0.00e+00	0	45	0	1026555904	60	22555
2026-01-30 06:36:44.00	345.13	18.48	-54.0	-55.5	20.9	0.00e+00	0	45	0	1028653056	60	23215
2026-01-30 06:36:45.01	344.98	18.38	-54.1	-55.5	20.9	0.00e+00	0	45	0	1029701632	60	23456
2026-01-30 06:36:46.02	344.84	18.28	-54.1	-55.6	20.6	0.00e+00	0	45	0	1031798784	60	23606
2026-01-30 06:36:47.02	344.70	18.19	-54.0	-55.4	20.8	0.00e+00	0	45	0	1033895936	60	23036
2026-01-30 06:36:48.03	344.56	18.09	-54.1	-55.6	20.6	0.00e+00	0	45	0	1035993088	60	23642
2026-01-30 06:36:49.03	344.43	17.99	-54.4	-55.9	20.4	0.00e+00	0	45	0	1037041664	60	24347
2026-01-30 06:36:50.04	344.29	17.89	-54.6	-56.1	20.2	0.00e+00	0	45	0	1039138816	60	25144
2026-01-30 06:36:51.04	344.15	17.80	-55.1	-56.8	19.7	0.00e+00	0	45	0	1041235968	60	27138
2026-01-30 06:36:52.05	344.02	17.70	-55.2	-56.9	19.5	0.00e+00	0	45	0	1043333120	60	27567
2026-01-30 06:36:53.06	343.88	17.60	-55.5	-57.3	18.8	0.00e+00	0	45	0	1045430272	60	28873
2026-01-30 06:36:54.06	343.75	17.50	-55.9	-58.0	18.4	0.00e+00	0	45	0	1046478848	60	31109
2026-01-30 06:36:55.06	343.62	17.41	-56.3	-58.5	17.7	0.00e+00	0	45	0	1048576000	60	32859
2026-01-30 06:36:56.07	343.48	17.31	-56.7	-59.1	17.2	0.00e+00	0	46	0	1050673152	60	35137
2026-01-30 06:36:57.07	343.35	17.22	-56.9	-59.4	17.1	0.00e+00	0	46	0	1052770304	60	36506
2026-01-30 06:36:58.08	343.22	17.12	-56.8	-59.2	17.1	0.00e+00	0	45	0	1054867456	60	35835
2026-01-30 06:36:59.09	343.09	17.02	-56.5	-58.8	17.6	0.00e+00	0	45	0	1056964608	60	34315
2026-01-30 06:37:00.10	342.96	16.93	-56.1	-58.3	18.0	0.00e+00	0	45	0	1058013184	60	32109
2026-01-30 06:37:01.10	342.84	16.83	-55.8	-57.9	18.3	0.00e+00	0	45	0	1060110336	60	30630
2026-01-30 06:37:02.11	342.71	16.74	-55.2	-56.9	19.3	0.00e+00	0	45	0	1062207488	60	27574
2026-01-30 06:37:03.12	342.58	16.64	-54.9	-56.6	19.5	0.00e+00	0	45	0	1064304640	60	26489
2026-01-30 06:37:04.13	342.46	16.55	-54.8	-56.4	19.7	0.00e+00	0	45	0	1065353216	60	25970
2026-01-30 06:37:05.13	342.33	16.45	-54.6	-56.3	19.8	0.00e+00	0	45	0	1067450368	60	25472
2026-01-30 06:37:06.14	342.21	16.36	-54.9	-56.7	19.3	0.00e+00	0	45	0	1069547520	60	26800
2026-01-30 06:37:07.15	342.08	16.26	-55.1	-57.0	19.0	0.00e+00	0	45	0	1071644672	60	27716
2026-01-30 06:37:08.15	341.96	16.17	-55.5	-57.5	18.6	0.00e+00	0	45	0	1073741824	60	29270
2026-01-30 06:37:09.16	341.84	16.08	-55.7	-57.9	18.1	0.00e+00	0	45	0	1074790400	60	30681
2026-01-30 06:37:10.16	341.72	15.98	-56.0	-58.4	17.6	0.00e+00	0	45	0	1076887552	60	32553
2026-01-30 06:37:11.17	341.60	15.89	-56.2	-58.8	16.9	0.00e+00	0	45	0	1078984704	60	33955
2026-01-30 06:37:12.18	341.48	15.80	-56.5	-59.2	16.9	0.00e+00	0	45	0	1081081856	60	35686
2026-01-30 06:37:13.18	341.36	15.71	-56.4	-59.1	16.5	0.00e+00	0	45	0	1083179008	60	35370
2026-01-30 06:37:14.19	341.24	15.61	-56.5	-59.3	16.4	0.00e+00	0	45	0	1085276160	60	36085
2026-01-30 06:37:15.19	341.13	15.52	-56.2	-58.9	16.7	0.00e+00	0	45	0	1086324736	60	34595
2026-01-30 06:37:16.20	341.01	15.43	-56.1	-58.8	16.8	0.00e+00	0	45	0	1088421888	60	34042
2026-01-30 06:37:17.21	340.90	15.34	-56.0	-58.6	16.9	0.00e+00	0	45	0	1090519040	60	33474
2026-01-30 06:37:18.21	340.78	15.25	-55.9	-58.6	16.8	0.00e+00	0	45	0	1092616192	60	33219
2026-01-30 06:37:19.22	340.67	15.16	-55.9	-58.7	16.7	0.00e+00	0	46	0	1093664768	60	33573
2026-01-30 06:37:20.23	340.55	15.06	-56.0	-58.7	16.5	0.00e+00	0	45	0	1095761920	60	33867
2026-01-30 06:37:21.23	340.44	14.97	-56.3	-59.3	16.1	0.00e+00	0	45	0	1097859072	60	35977
2026-01-30 06:37:22.24	340.33	14.88	-56.5	-59.6	15.6	0.00e+00	0	45	0	1099956224	60	37518
2026-01-30 06:37:23.25	340.22	14.79	-56.7	-60.0	15.2	0.00e+00	0	45	0	1102053376	60	39218
2026-01-30 06:37:24.26	340.11	14.70	-56.6	-60.0	15.2	0.00e+00	0	45	0	1103101952	60	39109
2026-01-30 06:37:25.26	340.00	14.61	-56.7	-60.1	14.9	7.00e-07	0	45	0	1105199104	60	39849
2026-01-30 06:37:26.27	339.89	14.52	-56.9	-60.6	14.6	0.00e+00	0	45	0	1107296256	60	41758
2026-01-30 06:37:27.27	339.78	14.43	-57.1	-61.0	14.1	7.00e-07	0	45	0	1109393408	60	44026
2026-01-30 06:37:28.28	339.67	14.34	-57.3	-61.4	13.6	5.30e-06	0	45	0	1111490560	60	45880
2026-01-30 06:37:29.28	339.57	14.26	-57.6	-62.0	13.0	1.60e-05	0	45	0	1113587712	60	49387
2026-01-30 06:37:30.29	339.46	14.17	-57.7	-62.3	12.6	4.57e-05	0	45	0	1114636288	60	51135
2026-01-30 06:37:31.29	339.36	14.08	-57.8	-62.5	12.3	1.27e-04	0	45	0	1116733440	60	52477
2026-01-30 06:37:32.30	339.25	13.99	-57.9	-62.8	12.0	2.32e-04	0	45	0	1118830592	60	53791
2026-01-30 06:37:33.30	339.15	13.90	-57.9	-63.0	11.7	3.60e-04	0	45	0	1120927744	60	55233
2026-01-30 06:37:34.31	339.04	13.81	-58.0	-63.1	11.5	8.24e-04	0	45	0	1121976320	60	56094
2026-01-30 06:37:35.32	338.94	13.73	-58.0	-63.3	11.3	7.66e-04	0	45	0	1124073472	60	57377
2026-01-30 06:37:36.33	338.84	13.64	-57.9	-63.4	11.1	1.67e-03	0	45	0	1126170624	60	57705
2026-01-30 06:37:37.34	338.73	13.55	-57.8	-63.0	11.3	1.50e-03	0	45	0	1128267776	60	55616
2026-01-30 06:37:38.34	338.63	13.46	-57.8	-63.4	11.0	1.17e-03	0	46	0	1130364928	60	57780
2026-01-30 06:37:39.35	338.53	13.38	-57.8	-63.3	11.1	1.53e-03	0	45	0	1131413504	60	57152
2026-01-30 06:37:40.36	338.43	13.29	-57.8	-63.4	10.8	2.20e-03	0	45	0	1133510656	60	57750
2026-01-30 06:37:41.37	338.33	13.20	-57.8	-63.5	10.7	2.59e-03	0	46	0	1135607808	60	58488
2026-01-30 06:37:42.38	338.23	13.12	-57.9	-63.6	10.5	3.01e-03	0	46	0	1137704960	60	59033
2026-01-30 06:37:43.38	338.13	13.03	-57.9	-63.8	9.9	4.90e-03	0	46	0	1139802112	60	61016
2026-01-30 06:37:44.39	338.04	12.95	-58.0	-64.1	9.9	9.78e-03	0	46	0	1141899264	60	62590
