passes_logs/2026/01/30/R3.2S-Naryan-Mar/R3.2S-Naryan-Mar__20260130_002711_AQUA_rec.log

#Pass ID: 20260130_002711_AQUA
#Satellite: AQUA
#Configuration: AQUA
#almurnet v.1.7.20240730
#Start time: 2026-01-30 00:27:13

#Version: 2.2.20231116
#Station: R3.2S-Naryan-Mar
#Location: 53.008057 lon 67.646978 lat
#TLE: 1 27424U 02022A   26028.91948147  .00001781  00000+0  36607-3 0  9997
#TLE: 2 27424  98.4103 355.5827 0001815  62.4290   1.4641 14.61871847262923

#Time	Az	El	Level	Level2	SNR	BER	BlckErr	Temp	State	Recorded	gain1	gain2
2026-01-30 00:27:13.15	21.08	0.10	-61.4	-78.3	3.5	1.51e+00	0	43	0	0	60	320437
2026-01-30 00:27:14.15	21.10	0.17	-57.2	-78.3	3.5	3.02e+01	0	45	104	0	60	314050
2026-01-30 00:27:15.15	21.12	0.23	-57.4	-77.9	3.5	3.02e+01	0	45	104	0	60	298690
2026-01-30 00:27:16.16	21.13	0.29	-57.4	-77.9	3.5	3.02e+01	0	45	104	0	60	297117
2026-01-30 00:27:17.17	21.15	0.35	-57.1	-77.7	3.5	3.02e+01	0	45	104	0	60	292338
2026-01-30 00:27:18.17	21.17	0.41	-57.8	-78.1	3.6	3.02e+01	0	45	104	0	60	305014
2026-01-30 00:27:19.18	21.19	0.48	-57.9	-78.2	3.5	3.02e+01	0	45	104	0	60	308864
2026-01-30 00:27:20.18	21.21	0.54	-58.4	-78.3	3.5	3.02e+01	0	45	104	0	60	311695
2026-01-30 00:27:21.19	21.23	0.60	-58.4	-78.5	3.5	3.02e+01	0	45	104	0	60	318854
2026-01-30 00:27:22.20	21.25	0.66	-56.8	-78.1	3.5	3.02e+01	0	45	104	0	60	306494
2026-01-30 00:27:23.21	21.27	0.73	-57.6	-78.5	3.5	3.02e+01	0	45	104	0	60	320370
2026-01-30 00:27:24.21	21.29	0.79	-57.8	-78.2	3.5	3.02e+01	0	45	104	0	60	310406
2026-01-30 00:27:25.22	21.30	0.85	-58.1	-78.7	3.5	3.02e+01	0	45	104	0	60	328520
2026-01-30 00:27:26.22	21.32	0.91	-58.3	-78.7	3.5	3.02e+01	0	45	104	0	60	326726
2026-01-30 00:27:27.22	21.34	0.98	-57.4	-78.7	3.5	3.02e+01	0	45	104	0	60	326491
2026-01-30 00:27:28.23	21.36	1.04	-57.4	-78.8	3.5	3.02e+01	0	45	104	0	60	332950
2026-01-30 00:27:29.24	21.38	1.10	-57.2	-78.6	3.5	3.02e+01	0	45	104	0	60	324292
2026-01-30 00:27:30.24	21.40	1.17	-57.2	-78.6	3.5	3.02e+01	0	45	104	0	60	325500
2026-01-30 00:27:31.25	21.42	1.23	-56.0	-78.4	3.5	3.02e+01	0	45	104	0	60	318216
2026-01-30 00:27:32.25	21.44	1.30	-55.9	-78.4	3.5	3.02e+01	0	45	104	0	60	314988
2026-01-30 00:27:33.25	21.46	1.36	-57.1	-78.6	3.5	3.02e+01	0	45	104	0	60	323083
2026-01-30 00:27:34.26	21.48	1.42	-56.1	-78.5	3.5	3.02e+01	0	45	104	0	60	318544
2026-01-30 00:27:35.26	21.50	1.49	-56.2	-78.5	3.5	3.02e+01	0	45	104	0	60	318829
2026-01-30 00:27:36.27	21.52	1.55	-55.5	-78.3	3.5	3.02e+01	0	45	104	0	60	313249
2026-01-30 00:27:37.27	21.54	1.62	-56.5	-78.2	3.5	3.02e+01	0	45	104	0	60	309075
2026-01-30 00:27:38.28	21.56	1.68	-57.4	-78.4	3.5	3.02e+01	0	45	104	0	60	314742
2026-01-30 00:27:39.28	21.58	1.75	-56.2	-78.2	3.5	3.02e+01	0	45	104	0	60	309488
2026-01-30 00:27:40.29	21.60	1.81	-53.3	-77.8	3.5	3.02e+01	0	45	104	0	60	295697
2026-01-30 00:27:41.30	21.62	1.88	-55.5	-77.4	3.5	3.02e+01	0	45	104	0	60	283485
2026-01-30 00:27:42.30	21.64	1.94	-50.9	-76.9	3.6	3.02e+01	0	45	104	0	60	266036
2026-01-30 00:27:43.30	21.66	2.01	-51.2	-76.1	3.6	3.02e+01	0	45	104	0	60	243353
2026-01-30 00:27:44.31	21.68	2.08	-52.1	-75.7	3.7	3.02e+01	0	45	104	0	60	231152
2026-01-30 00:27:45.31	21.70	2.14	-52.0	-75.6	3.6	3.02e+01	0	45	104	0	60	228698
2026-01-30 00:27:46.32	21.72	2.21	-51.6	-76.4	3.6	3.02e+01	0	45	104	0	60	251094
2026-01-30 00:27:47.33	21.75	2.28	-51.8	-76.5	3.5	3.02e+01	0	45	104	0	60	255102
2026-01-30 00:27:48.34	21.77	2.34	-52.5	-76.7	3.5	3.02e+01	0	45	104	0	60	259076
2026-01-30 00:27:49.34	21.79	2.41	-51.8	-75.9	3.6	3.02e+01	0	45	104	0	60	238380
2026-01-30 00:27:50.35	21.81	2.48	-51.8	-75.7	3.6	3.02e+01	0	45	104	0	60	231058
2026-01-30 00:27:51.36	21.83	2.54	-51.8	-75.8	3.6	3.02e+01	0	45	104	0	60	235493
2026-01-30 00:27:52.37	21.85	2.61	-51.8	-75.9	3.5	3.02e+01	0	45	104	0	60	236546
2026-01-30 00:27:53.38	21.87	2.68	-51.8	-75.6	3.5	3.02e+01	0	45	104	0	60	229094
2026-01-30 00:27:54.39	21.89	2.75	-51.8	-75.6	3.6	3.02e+01	0	45	104	0	60	229727
2026-01-30 00:27:55.39	21.92	2.81	-51.7	-75.4	3.6	3.02e+01	0	45	104	0	60	225281
2026-01-30 00:27:56.40	21.94	2.88	-51.7	-75.4	3.6	3.02e+01	0	45	104	0	60	223311
2026-01-30 00:27:57.40	21.96	2.95	-51.7	-75.8	3.6	3.02e+01	0	45	104	0	60	233637
2026-01-30 00:27:58.41	21.98	3.02	-51.7	-75.5	3.5	3.02e+01	0	46	104	0	60	225623
2026-01-30 00:27:59.42	22.00	3.09	-51.7	-75.3	3.6	3.02e+01	0	46	104	0	60	221318
2026-01-30 00:28:00.43	22.02	3.16	-51.7	-75.5	3.5	3.02e+01	0	46	104	0	60	227805
2026-01-30 00:28:01.44	22.05	3.23	-51.7	-75.5	3.6	3.02e+01	0	45	104	0	60	227658
2026-01-30 00:28:02.44	22.07	3.30	-51.7	-75.4	3.5	3.02e+01	0	46	104	0	60	223718
2026-01-30 00:28:03.44	22.09	3.37	-51.7	-75.2	3.5	3.02e+01	0	46	104	0	60	218422
2026-01-30 00:28:04.45	22.11	3.43	-51.7	-75.2	3.5	3.02e+01	0	46	104	0	60	218177
2026-01-30 00:28:05.45	22.14	3.50	-51.6	-75.0	3.6	3.02e+01	0	46	104	0	60	214215
2026-01-30 00:28:06.45	22.16	3.57	-51.7	-75.2	3.5	3.02e+01	0	46	104	0	60	218233
2026-01-30 00:28:07.46	22.18	3.64	-51.7	-75.4	3.6	3.02e+01	0	46	104	0	60	223824
2026-01-30 00:28:08.46	22.20	3.71	-51.7	-75.3	3.6	3.02e+01	0	45	104	0	60	220484
2026-01-30 00:28:09.47	22.23	3.79	-51.7	-75.1	3.6	3.02e+01	0	45	104	0	60	216817
2026-01-30 00:28:10.48	22.25	3.86	-51.6	-74.7	3.6	3.02e+01	0	46	104	0	60	205852
2026-01-30 00:28:11.49	22.27	3.93	-51.6	-74.7	3.5	3.02e+01	0	46	104	0	60	206206
2026-01-30 00:28:12.50	22.29	4.00	-51.6	-74.4	3.5	3.02e+01	0	45	104	0	60	198739
2026-01-30 00:28:13.50	22.32	4.07	-51.6	-74.3	3.5	3.02e+01	0	45	104	0	60	196456
2026-01-30 00:28:14.51	22.34	4.14	-51.6	-74.1	3.5	3.02e+01	0	45	104	0	60	193720
2026-01-30 00:28:15.51	22.36	4.21	-51.6	-73.8	3.5	3.02e+01	0	46	104	0	60	186846
2026-01-30 00:28:16.52	22.39	4.29	-51.6	-73.8	3.7	3.02e+01	0	45	104	0	60	185963
2026-01-30 00:28:17.52	22.41	4.36	-51.6	-73.3	3.6	3.02e+01	0	45	104	0	60	175632
2026-01-30 00:28:18.53	22.44	4.43	-51.5	-72.7	3.9	3.02e+01	0	46	104	0	60	163450
2026-01-30 00:28:19.54	22.46	4.50	-51.5	-72.0	4.2	3.02e+01	0	46	104	0	60	150867
2026-01-30 00:28:20.55	22.48	4.58	-51.5	-71.7	4.4	3.02e+01	0	46	104	0	60	147013
2026-01-30 00:28:21.55	22.51	4.65	-51.5	-71.7	4.4	3.02e+01	0	46	104	0	60	146505
2026-01-30 00:28:22.56	22.53	4.72	-51.5	-71.8	4.2	3.02e+01	0	46	104	0	60	148611
2026-01-30 00:28:23.56	22.56	4.80	-51.5	-72.0	4.2	3.02e+01	0	46	104	0	60	151521
2026-01-30 00:28:24.57	22.58	4.87	-51.5	-72.3	4.1	3.02e+01	0	46	104	0	60	155887
2026-01-30 00:28:25.58	22.60	4.94	-51.5	-71.5	3.7	3.02e+01	0	46	104	0	60	142753
2026-01-30 00:28:26.59	22.63	5.02	-51.4	-68.9	6.0	3.02e+01	0	46	0	0	60	106554
2026-01-30 00:28:27.59	22.65	5.09	-51.4	-65.8	8.6	3.02e+01	0	46	0	2097152	60	74585
2026-01-30 00:28:28.60	22.68	5.17	-51.2	-63.2	11.6	3.02e+01	0	46	0	3670016	60	55251
2026-01-30 00:28:29.60	22.70	5.24	-51.0	-61.0	14.0	3.02e+01	0	46	0	5767168	60	42889
2026-01-30 00:28:30.60	22.73	5.32	-50.7	-59.2	16.0	3.02e+01	0	46	0	7340032	60	34882
2026-01-30 00:28:31.61	22.75	5.39	-50.3	-57.5	17.7	3.02e+01	0	46	0	9437184	60	28493
2026-01-30 00:28:32.61	22.78	5.47	-49.9	-56.1	19.2	3.02e+01	0	46	0	11010048	60	24263
2026-01-30 00:28:33.62	22.80	5.54	-49.6	-55.1	20.2	3.02e+01	0	46	0	13107200	60	21570
2026-01-30 00:28:34.63	22.83	5.62	-49.3	-54.2	21.0	3.02e+01	0	45	0	15204352	60	19416
2026-01-30 00:28:35.63	22.85	5.70	-49.0	-53.6	21.6	3.02e+01	0	46	0	16777216	60	18196
2026-01-30 00:28:36.64	22.88	5.77	-48.8	-53.2	21.9	3.02e+01	0	46	0	18874368	60	17482
2026-01-30 00:28:37.65	22.91	5.85	-48.7	-53.0	22.1	3.02e+01	0	46	0	20447232	60	16951
2026-01-30 00:28:38.66	22.93	5.93	-48.7	-53.0	22.1	3.02e+01	0	46	0	22544384	60	16994
2026-01-30 00:28:39.67	22.96	6.00	-48.9	-53.4	21.8	3.02e+01	0	46	0	24641536	60	17779
2026-01-30 00:28:40.67	22.98	6.08	-48.7	-53.0	22.1	3.02e+01	0	46	0	26214400	60	17058
2026-01-30 00:28:41.68	23.01	6.16	-49.4	-54.8	19.4	3.02e+01	0	46	0	28311552	60	20946
2026-01-30 00:28:42.68	23.04	6.24	-48.9	-53.1	22.4	3.02e+01	0	46	0	30408704	60	17218
2026-01-30 00:28:43.69	23.06	6.32	-49.4	-54.2	21.3	3.02e+01	0	45	0	31981568	60	19466
2026-01-30 00:28:44.70	23.09	6.40	-49.4	-53.9	20.3	3.02e+01	0	46	0	34078720	60	18887
2026-01-30 00:28:45.70	23.12	6.47	-50.2	-56.1	20.3	3.02e+01	0	46	0	35651584	60	24215
2026-01-30 00:28:46.70	23.14	6.55	-49.7	-54.5	21.2	3.02e+01	0	45	0	37748736	60	20309
2026-01-30 00:28:47.71	23.17	6.63	-49.7	-54.8	21.0	3.02e+01	0	46	0	39321600	60	20898
2026-01-30 00:28:48.71	23.20	6.71	-49.5	-54.8	20.9	3.02e+01	0	46	0	41418752	60	20886
2026-01-30 00:28:49.72	23.23	6.79	-48.9	-53.9	21.9	3.02e+01	0	46	0	43515904	60	18874
2026-01-30 00:28:50.73	23.25	6.87	-48.4	-53.1	22.7	3.02e+01	0	46	0	45088768	60	17174
2026-01-30 00:28:51.74	23.28	6.95	-48.5	-52.7	23.0	3.02e+01	0	46	0	47185920	60	16433
2026-01-30 00:28:52.74	23.31	7.03	-48.6	-52.6	23.1	3.02e+01	0	46	0	48758784	60	16203
2026-01-30 00:28:53.75	23.34	7.11	-48.7	-52.6	23.1	3.02e+01	0	46	0	50855936	60	16222
2026-01-30 00:28:54.76	23.36	7.20	-48.6	-52.4	23.2	3.02e+01	0	46	0	52428800	60	15944
2026-01-30 00:28:55.76	23.39	7.28	-48.6	-52.4	23.2	3.02e+01	0	46	0	54525952	60	15912
2026-01-30 00:28:56.77	23.42	7.36	-48.8	-52.5	23.2	3.02e+01	0	46	0	56623104	60	16004
2026-01-30 00:28:57.77	23.45	7.44	-48.9	-52.5	23.2	3.02e+01	0	46	0	58720256	60	16022
2026-01-30 00:28:58.78	23.48	7.52	-48.9	-52.5	23.1	3.02e+01	0	46	0	60293120	60	15956
2026-01-30 00:28:59.79	23.51	7.61	-49.0	-52.5	23.1	3.02e+01	0	46	0	62390272	60	16055
2026-01-30 00:29:00.79	23.54	7.69	-49.2	-52.6	23.1	3.02e+01	0	46	0	63963136	60	16227
2026-01-30 00:29:01.80	23.56	7.77	-49.1	-52.6	23.1	3.02e+01	0	46	0	66060288	60	16185
2026-01-30 00:29:02.81	23.59	7.86	-49.2	-52.7	23.0	3.02e+01	0	46	0	67633152	60	16360
2026-01-30 00:29:03.82	23.62	7.94	-49.2	-52.6	23.1	3.02e+01	0	46	0	69730304	60	16246
2026-01-30 00:29:04.82	23.65	8.03	-49.2	-52.6	23.1	3.02e+01	0	46	0	71827456	60	16287
2026-01-30 00:29:05.83	23.68	8.11	-49.3	-52.7	23.1	3.02e+01	0	46	0	73400320	60	16330
2026-01-30 00:29:06.84	23.71	8.20	-49.5	-52.7	23.0	3.02e+01	0	46	0	75497472	60	16407
2026-01-30 00:29:07.85	23.74	8.28	-49.5	-52.7	23.0	3.02e+01	0	46	0	77070336	60	16359
2026-01-30 00:29:08.85	23.77	8.37	-49.5	-52.7	23.0	3.02e+01	0	46	0	79167488	60	16415
2026-01-30 00:29:09.85	23.80	8.45	-49.4	-52.7	22.9	3.02e+01	0	46	0	80740352	60	16434
2026-01-30 00:29:10.86	23.83	8.54	-49.3	-52.7	22.9	3.02e+01	0	46	0	82837504	60	16421
2026-01-30 00:29:11.86	23.86	8.63	-49.1	-52.7	22.9	3.02e+01	0	46	0	84934656	60	16436
2026-01-30 00:29:12.87	23.90	8.71	-48.9	-52.6	22.9	3.02e+01	0	46	0	87031808	60	16262
2026-01-30 00:29:13.87	23.93	8.80	-48.9	-52.8	22.7	3.02e+01	0	46	0	88604672	60	16516
2026-01-30 00:29:14.88	23.96	8.89	-48.8	-52.6	22.7	3.02e+01	0	46	0	90701824	60	16297
2026-01-30 00:29:15.89	23.99	8.98	-48.7	-52.6	22.8	3.02e+01	0	46	0	92274688	60	16286
2026-01-30 00:29:16.90	24.02	9.06	-48.7	-52.7	22.7	3.02e+01	0	46	0	94371840	60	16511
2026-01-30 00:29:17.91	24.05	9.15	-48.6	-52.8	22.7	3.02e+01	0	46	0	95944704	60	16535
2026-01-30 00:29:18.91	24.08	9.24	-48.5	-52.8	22.7	3.02e+01	0	46	0	98041856	60	16689
2026-01-30 00:29:19.92	24.12	9.33	-48.5	-52.8	22.6	3.02e+01	0	46	0	100139008	60	16695
2026-01-30 00:29:20.93	24.15	9.42	-48.2	-52.5	23.0	3.02e+01	0	46	0	101711872	60	16028
2026-01-30 00:29:21.94	24.18	9.51	-48.1	-52.3	23.1	3.02e+01	0	46	0	103809024	60	15605
2026-01-30 00:29:22.95	24.21	9.60	-48.0	-52.1	23.3	3.02e+01	0	46	0	105381888	60	15305
2026-01-30 00:29:23.95	24.25	9.69	-48.0	-52.2	23.2	3.02e+01	0	46	0	107479040	60	15430
2026-01-30 00:29:24.96	24.28	9.78	-48.0	-52.2	23.2	3.02e+01	0	46	0	109051904	60	15453
2026-01-30 00:29:25.97	24.31	9.88	-47.9	-52.0	23.4	3.02e+01	0	46	0	111149056	60	15147
2026-01-30 00:29:26.97	24.35	9.97	-47.9	-52.0	23.5	3.02e+01	0	46	0	113246208	60	15088
2026-01-30 00:29:27.97	24.38	10.06	-47.9	-51.9	23.6	3.02e+01	0	46	0	115343360	60	14994
2026-01-30 00:29:28.98	24.41	10.15	-47.9	-51.9	23.6	3.02e+01	0	46	0	116916224	60	14994
2026-01-30 00:29:29.98	24.45	10.24	-48.0	-51.9	23.7	3.02e+01	0	46	0	119013376	60	14943
2026-01-30 00:29:30.99	24.48	10.34	-48.0	-51.9	23.7	3.02e+01	0	46	0	120586240	60	14952
2026-01-30 00:29:32.00	24.52	10.43	-48.0	-51.9	23.8	3.02e+01	0	46	0	122683392	60	14933
2026-01-30 00:29:33.01	24.55	10.53	-48.0	-51.8	23.9	3.02e+01	0	46	0	124256256	60	14774
2026-01-30 00:29:34.02	24.59	10.62	-48.0	-51.7	23.9	3.02e+01	0	46	0	126353408	60	14676
2026-01-30 00:29:35.02	24.62	10.71	-48.0	-51.7	24.0	3.02e+01	0	46	0	128450560	60	14575
2026-01-30 00:29:36.03	24.66	10.81	-48.0	-51.7	23.9	3.02e+01	0	46	0	130023424	60	14567
2026-01-30 00:29:37.04	24.69	10.91	-48.1	-51.6	23.8	3.02e+01	0	46	0	132120576	60	14397
2026-01-30 00:29:38.04	24.73	11.00	-48.1	-51.5	23.8	3.02e+01	0	46	0	133693440	60	14262
2026-01-30 00:29:39.05	24.76	11.10	-48.1	-51.5	23.8	3.02e+01	0	46	0	135790592	60	14223
2026-01-30 00:29:40.06	24.80	11.20	-48.0	-51.4	23.7	3.02e+01	0	46	0	137363456	60	14149
2026-01-30 00:29:41.07	24.84	11.29	-48.0	-51.4	23.6	3.02e+01	0	46	0	139460608	60	14083
2026-01-30 00:29:42.07	24.87	11.39	-48.0	-51.3	23.6	3.02e+01	0	46	0	141557760	60	14041
2026-01-30 00:29:43.08	24.91	11.49	-47.9	-51.3	23.5	3.02e+01	0	46	0	143654912	60	13963
2026-01-30 00:29:44.08	24.95	11.59	-47.9	-51.3	23.4	3.02e+01	0	46	0	145227776	60	13980
2026-01-30 00:29:45.09	24.98	11.69	-47.9	-51.3	23.4	3.02e+01	0	46	0	147324928	60	13954
2026-01-30 00:29:46.09	25.02	11.79	-47.9	-51.3	23.3	3.02e+01	0	46	0	148897792	60	13930
2026-01-30 00:29:47.10	25.06	11.89	-47.8	-51.3	23.2	3.02e+01	0	46	0	150994944	60	13917
2026-01-30 00:29:48.10	25.10	11.99	-47.7	-51.2	23.2	3.02e+01	0	46	0	152567808	60	13854
2026-01-30 00:29:49.11	25.14	12.09	-47.7	-51.2	23.3	3.02e+01	0	46	0	154664960	60	13738
2026-01-30 00:29:50.12	25.17	12.19	-47.7	-51.2	23.3	3.02e+01	0	46	0	156762112	60	13744
2026-01-30 00:29:51.13	25.21	12.29	-47.7	-51.2	23.3	3.02e+01	0	46	0	158334976	60	13747
2026-01-30 00:29:52.13	25.25	12.39	-47.8	-51.2	23.4	3.02e+01	0	46	0	160432128	60	13743
2026-01-30 00:29:53.14	25.29	12.50	-47.8	-51.1	23.5	3.02e+01	0	46	0	162004992	60	13685
2026-01-30 00:29:54.15	25.33	12.60	-47.9	-51.1	23.5	3.02e+01	0	46	0	164102144	60	13635
2026-01-30 00:29:55.15	25.37	12.70	-47.9	-51.1	23.6	3.02e+01	0	46	0	165675008	60	13621
2026-01-30 00:29:56.16	25.41	12.81	-48.0	-51.1	23.7	3.02e+01	0	46	0	167772160	60	13626
2026-01-30 00:29:57.17	25.45	12.91	-48.0	-51.0	23.8	3.02e+01	0	46	0	169869312	60	13539
2026-01-30 00:29:58.18	25.49	13.02	-48.0	-51.0	24.0	3.02e+01	0	46	0	171966464	60	13518
2026-01-30 00:29:59.19	25.53	13.12	-48.0	-51.0	24.2	3.02e+01	0	46	0	173539328	60	13474
2026-01-30 00:30:00.19	25.58	13.23	-48.0	-51.0	24.3	3.02e+01	0	46	0	175636480	60	13530
2026-01-30 00:30:01.20	25.62	13.34	-48.0	-51.0	24.5	3.02e+01	0	46	0	177209344	60	13480
2026-01-30 00:30:02.20	25.66	13.44	-48.0	-51.0	24.6	3.02e+01	0	46	0	179306496	60	13489
2026-01-30 00:30:03.21	25.70	13.55	-48.0	-51.0	24.7	3.02e+01	0	46	0	180879360	60	13471
2026-01-30 00:30:04.21	25.74	13.66	-48.1	-51.0	24.8	3.02e+01	0	46	0	182976512	60	13440
2026-01-30 00:30:05.22	25.79	13.77	-48.2	-51.0	24.8	3.02e+01	0	46	0	185073664	60	13507
2026-01-30 00:30:06.23	25.83	13.88	-48.3	-51.0	24.9	3.02e+01	0	46	0	186646528	60	13529
2026-01-30 00:30:07.24	25.87	13.99	-48.4	-51.0	25.0	3.02e+01	0	46	0	188743680	60	13503
2026-01-30 00:30:08.24	25.92	14.10	-48.5	-51.0	25.1	3.02e+01	0	46	0	190316544	60	13507
2026-01-30 00:30:09.25	25.96	14.21	-48.6	-51.0	25.2	3.02e+01	0	46	0	192413696	60	13532
2026-01-30 00:30:10.25	26.00	14.32	-48.6	-50.9	25.3	3.02e+01	0	46	0	194510848	60	13415
2026-01-30 00:30:11.26	26.05	14.43	-48.7	-50.9	25.4	3.02e+01	0	46	0	196083712	60	13367
2026-01-30 00:30:12.26	26.09	14.54	-48.7	-50.9	25.4	3.02e+01	0	46	0	198180864	60	13316
2026-01-30 00:30:13.27	26.14	14.66	-48.8	-50.9	25.4	3.02e+01	0	46	0	200278016	60	13312
2026-01-30 00:30:14.28	26.18	14.77	-48.8	-50.9	25.4	3.02e+01	0	46	0	201850880	60	13286
2026-01-30 00:30:15.28	26.23	14.89	-48.8	-50.9	25.4	3.02e+01	0	46	0	203948032	60	13340
2026-01-30 00:30:16.29	26.28	15.00	-48.8	-50.9	25.4	3.02e+01	0	46	0	205520896	60	13392
2026-01-30 00:30:17.30	26.32	15.12	-48.7	-50.9	25.5	3.02e+01	0	46	0	207618048	60	13354
2026-01-30 00:30:18.30	26.37	15.23	-48.6	-50.9	25.4	3.02e+01	0	46	0	209190912	60	13279
2026-01-30 00:30:19.31	26.42	15.35	-48.5	-50.8	25.5	3.02e+01	0	46	0	211288064	60	13138
2026-01-30 00:30:20.32	26.46	15.47	-48.5	-50.8	25.5	3.02e+01	0	46	0	213385216	60	13179
2026-01-30 00:30:21.33	26.51	15.59	-48.4	-50.8	25.5	3.02e+01	0	46	0	214958080	60	13217
2026-01-30 00:30:22.34	26.56	15.70	-48.3	-50.8	25.5	3.02e+01	0	46	0	217055232	60	13142
2026-01-30 00:30:23.35	26.61	15.82	-48.3	-50.8	25.5	3.02e+01	0	46	0	218628096	60	13159
2026-01-30 00:30:24.35	26.66	15.94	-48.2	-50.8	25.4	3.02e+01	0	46	0	220725248	60	13213
2026-01-30 00:30:25.35	26.71	16.06	-48.2	-50.8	25.4	3.02e+01	0	46	0	222822400	60	13229
2026-01-30 00:30:26.36	26.76	16.18	-48.1	-50.8	25.4	3.02e+01	0	46	0	224395264	60	13202
2026-01-30 00:30:27.37	26.81	16.31	-48.2	-50.8	25.4	3.02e+01	0	46	0	226492416	60	13214
2026-01-30 00:30:28.37	26.86	16.43	-48.2	-50.7	25.4	3.02e+01	0	46	0	228589568	60	13072
2026-01-30 00:30:29.38	26.91	16.55	-48.3	-50.7	25.5	3.02e+01	0	46	0	230162432	60	12968
2026-01-30 00:30:30.38	26.96	16.67	-48.4	-50.6	25.6	3.02e+01	0	46	0	232259584	60	12898
2026-01-30 00:30:31.39	27.01	16.80	-48.4	-50.5	25.5	3.02e+01	0	46	0	233832448	60	12817
2026-01-30 00:30:32.40	27.07	16.92	-48.4	-50.5	25.6	3.02e+01	0	46	0	235929600	60	12764
2026-01-30 00:30:33.40	27.12	17.05	-48.5	-50.5	25.6	3.02e+01	0	46	0	237502464	60	12785
2026-01-30 00:30:34.41	27.17	17.18	-48.6	-50.6	25.6	3.02e+01	0	46	0	239599616	60	12845
2026-01-30 00:30:35.42	27.23	17.30	-48.7	-50.6	25.6	3.02e+01	0	46	0	241696768	60	12883
2026-01-30 00:30:36.42	27.28	17.43	-48.7	-50.6	25.6	3.02e+01	0	46	0	243269632	60	12905
2026-01-30 00:30:37.43	27.33	17.56	-48.7	-50.7	25.5	3.02e+01	0	46	0	245366784	60	12983
2026-01-30 00:30:38.44	27.39	17.69	-48.7	-50.7	25.6	3.02e+01	0	46	0	246939648	60	13051
2026-01-30 00:30:39.44	27.44	17.82	-48.7	-50.8	25.6	3.02e+01	0	46	0	249036800	60	13140
2026-01-30 00:30:40.45	27.50	17.95	-48.6	-50.8	25.6	3.02e+01	0	46	0	251133952	60	13126
2026-01-30 00:30:41.46	27.56	18.08	-48.5	-50.8	25.7	3.02e+01	0	46	0	252706816	60	13178
2026-01-30 00:30:42.47	27.61	18.22	-48.4	-50.8	25.8	3.02e+01	0	46	0	254803968	60	13135
2026-01-30 00:30:43.48	27.67	18.35	-48.4	-50.8	25.8	3.02e+01	0	46	0	256901120	60	13137
2026-01-30 00:30:44.48	27.73	18.48	-48.3	-50.8	25.8	3.02e+01	0	46	0	258473984	60	13128
2026-01-30 00:30:45.49	27.79	18.62	-48.2	-50.7	25.8	3.02e+01	0	46	0	260571136	60	13000
2026-01-30 00:30:46.50	27.85	18.75	-48.1	-50.5	26.0	3.02e+01	0	46	0	262144000	60	12817
2026-01-30 00:30:47.50	27.91	18.89	-48.1	-50.6	26.0	3.02e+01	0	46	0	264241152	60	12859
2026-01-30 00:30:48.51	27.97	19.03	-48.0	-50.6	25.9	3.02e+01	0	46	0	265814016	60	12849
2026-01-30 00:30:49.50	28.03	19.16	-48.0	-50.6	25.9	3.02e+01	0	46	0	267911168	60	12824
2026-01-30 00:30:50.51	28.09	19.30	-48.0	-50.6	25.9	3.02e+01	0	46	0	270008320	60	12871
2026-01-30 00:30:51.51	28.15	19.44	-47.9	-50.6	25.9	3.02e+01	0	46	0	271581184	60	12851
2026-01-30 00:30:52.51	28.21	19.58	-47.9	-50.6	25.9	3.02e+01	0	46	0	273678336	60	12831
2026-01-30 00:30:53.52	28.27	19.72	-48.0	-50.6	25.9	3.02e+01	0	46	0	275251200	60	12842
2026-01-30 00:30:54.52	28.33	19.86	-48.1	-50.6	25.9	3.02e+01	0	46	0	277348352	60	12844
2026-01-30 00:30:55.53	28.40	20.00	-48.2	-50.6	25.9	3.02e+01	0	46	0	279445504	60	12857
2026-01-30 00:30:56.54	28.46	20.15	-48.3	-50.6	25.9	3.02e+01	0	46	0	281018368	60	12847
2026-01-30 00:30:57.54	28.53	20.29	-48.4	-50.5	25.9	3.02e+01	0	46	0	283115520	60	12744
2026-01-30 00:30:58.55	28.59	20.44	-48.4	-50.5	25.9	3.02e+01	0	46	0	284688384	60	12732
2026-01-30 00:30:59.56	28.66	20.59	-48.4	-50.5	26.0	3.02e+01	0	46	0	286785536	60	12705
2026-01-30 00:31:00.57	28.73	20.73	-48.3	-50.5	26.0	3.02e+01	0	46	0	288882688	60	12716
2026-01-30 00:31:01.57	28.79	20.88	-48.3	-50.5	26.0	3.02e+01	0	46	0	290455552	60	12785
2026-01-30 00:31:02.58	28.86	21.03	-48.2	-50.6	26.0	3.02e+01	0	46	0	292552704	60	12826
2026-01-30 00:31:03.58	28.93	21.18	-48.3	-50.6	25.9	3.02e+01	0	46	0	294125568	60	12893
2026-01-30 00:31:04.59	29.00	21.33	-48.4	-50.7	25.8	3.02e+01	0	46	0	296222720	60	13004
2026-01-30 00:31:05.60	29.07	21.48	-48.5	-50.7	25.8	3.02e+01	0	46	0	298319872	60	13082
2026-01-30 00:31:06.61	29.14	21.64	-48.6	-50.7	25.8	3.02e+01	0	46	0	299892736	60	13097
2026-01-30 00:31:07.61	29.21	21.79	-48.7	-50.8	25.8	3.02e+01	0	46	0	301989888	60	13117
2026-01-30 00:31:08.61	29.28	21.94	-48.7	-50.7	25.7	3.02e+01	0	46	0	303562752	60	13091
2026-01-30 00:31:09.62	29.36	22.10	-48.8	-50.8	25.8	3.02e+01	0	46	0	305659904	60	13129
2026-01-30 00:31:10.62	29.43	22.26	-48.8	-50.8	25.7	3.02e+01	0	46	0	307757056	60	13164
2026-01-30 00:31:11.63	29.50	22.42	-48.8	-50.8	25.7	3.02e+01	0	46	0	309329920	60	13245
2026-01-30 00:31:12.63	29.58	22.57	-48.9	-50.9	25.6	3.02e+01	0	46	0	311427072	60	13415
2026-01-30 00:31:13.64	29.66	22.73	-49.0	-51.0	25.5	3.02e+01	0	46	0	312999936	60	13522
2026-01-30 00:31:14.65	29.73	22.90	-49.0	-51.0	25.6	3.02e+01	0	46	0	315097088	60	13564
2026-01-30 00:31:15.65	29.81	23.06	-49.1	-51.1	25.5	3.02e+01	0	46	0	316669952	60	13687
2026-01-30 00:31:16.65	29.89	23.22	-49.1	-51.1	25.5	3.02e+01	0	46	0	318767104	60	13671
2026-01-30 00:31:17.66	29.97	23.38	-49.1	-51.1	25.5	3.02e+01	0	46	0	320864256	60	13592
2026-01-30 00:31:18.67	30.05	23.55	-49.1	-51.1	25.6	3.02e+01	0	46	0	322437120	60	13607
2026-01-30 00:31:19.67	30.13	23.72	-49.1	-51.0	25.6	3.02e+01	0	46	0	324534272	60	13496
2026-01-30 00:31:20.68	30.21	23.88	-49.0	-51.0	25.6	3.02e+01	0	46	0	326631424	60	13477
2026-01-30 00:31:21.69	30.29	24.05	-49.0	-51.0	25.7	3.02e+01	0	46	0	328204288	60	13452
2026-01-30 00:31:22.69	30.37	24.22	-48.9	-51.0	25.7	3.02e+01	0	46	0	330301440	60	13438
2026-01-30 00:31:23.70	30.46	24.39	-48.9	-51.0	25.8	3.02e+01	0	46	0	331874304	60	13437
2026-01-30 00:31:24.70	30.54	24.56	-48.9	-51.0	25.7	3.02e+01	0	46	0	333971456	60	13483
2026-01-30 00:31:25.71	30.63	24.74	-48.9	-51.0	25.7	3.02e+01	0	46	0	336068608	60	13481
2026-01-30 00:31:26.72	30.72	24.91	-48.9	-51.0	25.8	3.02e+01	0	46	0	337641472	60	13478
2026-01-30 00:31:27.72	30.80	25.09	-48.9	-51.1	25.6	3.02e+01	0	46	0	339738624	60	13599
2026-01-30 00:31:28.73	30.89	25.27	-48.9	-51.1	25.7	3.02e+01	0	46	0	341311488	60	13650
2026-01-30 00:31:29.74	30.98	25.44	-48.9	-51.1	25.7	3.02e+01	0	45	0	343408640	60	13648
2026-01-30 00:31:30.74	31.07	25.62	-48.8	-51.1	25.7	3.02e+01	0	46	0	344981504	60	13598
2026-01-30 00:31:31.75	31.16	25.80	-48.8	-51.0	25.8	3.02e+01	0	46	0	347078656	60	13491
2026-01-30 00:31:32.76	31.26	25.99	-48.8	-51.0	25.7	3.02e+01	0	46	0	349175808	60	13534
2026-01-30 00:31:33.76	31.35	26.17	-49.0	-51.2	25.6	3.02e+01	0	46	0	350748672	60	13756
2026-01-30 00:31:34.77	31.45	26.35	-49.1	-51.2	25.5	3.02e+01	0	46	0	352845824	60	13822
2026-01-30 00:31:35.78	31.54	26.54	-49.2	-51.3	25.3	3.02e+01	0	46	0	354942976	60	14024
2026-01-30 00:31:36.78	31.64	26.73	-49.2	-51.4	25.4	3.02e+01	0	46	0	356515840	60	14058
2026-01-30 00:31:37.79	31.74	26.92	-49.3	-51.4	25.4	3.02e+01	0	46	0	358612992	60	14148
2026-01-30 00:31:38.79	31.84	27.10	-49.1	-51.0	25.8	3.02e+01	0	46	0	360185856	60	13572
2026-01-30 00:31:39.80	31.94	27.30	-49.1	-51.0	25.8	3.02e+01	0	46	0	362283008	60	13477
2026-01-30 00:31:40.81	32.04	27.49	-48.9	-50.7	26.0	3.02e+01	0	46	0	364380160	60	13112
2026-01-30 00:31:41.82	32.15	27.68	-48.8	-50.7	26.1	3.02e+01	0	46	0	365953024	60	13043
2026-01-30 00:31:42.82	32.25	27.88	-48.9	-50.8	26.0	3.02e+01	0	46	0	368050176	60	13130
2026-01-30 00:31:43.83	32.36	28.08	-48.8	-50.8	25.9	3.02e+01	0	45	0	369623040	60	13120
2026-01-30 00:31:44.84	32.46	28.27	-48.7	-50.7	26.1	3.02e+01	0	46	0	371720192	60	13007
2026-01-30 00:31:45.84	32.57	28.47	-48.6	-50.6	26.2	3.02e+01	0	46	0	373293056	60	12955
2026-01-30 00:31:46.84	32.68	28.67	-48.5	-50.5	26.2	3.02e+01	0	46	0	375390208	60	12784
2026-01-30 00:31:47.85	32.79	28.88	-48.5	-50.5	26.2	3.02e+01	0	46	0	377487360	60	12796
2026-01-30 00:31:48.86	32.90	29.08	-48.5	-50.6	26.2	3.02e+01	0	46	0	379060224	60	12838
2026-01-30 00:31:49.87	33.02	29.29	-48.5	-50.5	26.2	3.02e+01	0	46	0	381157376	60	12797
2026-01-30 00:31:50.87	33.13	29.49	-48.6	-50.5	26.3	3.02e+01	0	46	0	383254528	60	12781
2026-01-30 00:31:51.88	33.25	29.70	-48.7	-50.6	26.1	3.02e+01	0	46	0	384827392	60	12937
2026-01-30 00:31:52.88	33.37	29.91	-48.7	-50.7	26.0	3.02e+01	0	46	0	386924544	60	13073
2026-01-30 00:31:53.89	33.49	30.12	-48.7	-50.7	26.0	3.02e+01	0	46	0	388497408	60	13082
2026-01-30 00:31:54.90	33.61	30.34	-48.7	-50.6	26.1	3.02e+01	0	46	0	390594560	60	12940
2026-01-30 00:31:55.90	33.73	30.55	-48.4	-50.3	26.4	3.02e+01	0	46	0	392691712	60	12466
2026-01-30 00:31:56.91	33.86	30.77	-48.3	-50.2	26.5	3.02e+01	0	46	0	394264576	60	12336
2026-01-30 00:31:57.92	33.99	30.98	-48.4	-50.3	26.4	3.02e+01	0	46	0	396361728	60	12488
2026-01-30 00:31:58.92	34.11	31.20	-48.7	-50.6	26.1	3.02e+01	0	46	0	397934592	60	12924
2026-01-30 00:31:59.93	34.24	31.42	-48.9	-50.9	25.9	3.02e+01	0	46	0	400031744	60	13321
2026-01-30 00:32:00.94	34.38	31.65	-48.9	-50.9	25.9	3.02e+01	0	46	0	401604608	60	13269
2026-01-30 00:32:01.95	34.51	31.87	-48.8	-50.8	26.0	3.02e+01	0	46	0	403701760	60	13134
2026-01-30 00:32:02.95	34.64	32.10	-48.7	-50.6	26.2	3.02e+01	0	46	0	405798912	60	12872
2026-01-30 00:32:03.96	34.78	32.33	-48.9	-50.9	26.0	3.02e+01	0	46	0	407371776	60	13280
2026-01-30 00:32:04.97	34.92	32.56	-49.1	-51.0	25.8	3.02e+01	0	46	0	409468928	60	13524
2026-01-30 00:32:05.98	35.06	32.79	-49.3	-51.3	25.5	3.02e+01	0	46	0	411566080	60	13995
2026-01-30 00:32:06.98	35.21	33.02	-49.4	-51.3	25.5	3.02e+01	0	46	0	413138944	60	14012
2026-01-30 00:32:07.99	35.35	33.26	-49.2	-51.1	25.8	3.02e+01	0	46	0	415236096	60	13710
2026-01-30 00:32:09.00	35.50	33.49	-49.2	-51.2	25.7	3.02e+01	0	46	0	416808960	60	13798
2026-01-30 00:32:10.01	35.65	33.73	-49.3	-51.4	25.5	3.02e+01	0	46	0	418906112	60	14105
2026-01-30 00:32:11.02	35.80	33.97	-49.4	-51.4	25.4	3.02e+01	0	46	0	421003264	60	14216
2026-01-30 00:32:12.03	35.96	34.22	-49.4	-51.4	25.3	3.02e+01	0	46	0	422576128	60	14208
2026-01-30 00:32:13.03	36.11	34.46	-49.5	-51.8	25.1	3.02e+01	0	46	0	424673280	60	14742
2026-01-30 00:32:14.04	36.27	34.71	-49.5	-51.8	25.2	3.02e+01	0	46	0	426246144	60	14779
2026-01-30 00:32:15.04	36.43	34.95	-49.6	-51.7	25.2	3.02e+01	0	46	0	428343296	60	14695
2026-01-30 00:32:16.05	36.60	35.20	-49.6	-51.8	25.1	3.02e+01	0	46	0	429916160	60	14871
2026-01-30 00:32:17.05	36.76	35.45	-49.7	-51.9	25.0	3.02e+01	0	46	0	432013312	60	14981
2026-01-30 00:32:18.06	36.93	35.70	-49.7	-52.0	25.0	3.02e+01	0	46	0	434110464	60	15172
2026-01-30 00:32:19.06	37.10	35.96	-49.9	-52.2	24.7	3.02e+01	0	46	0	435683328	60	15456
2026-01-30 00:32:20.07	37.28	36.21	-50.1	-52.4	24.6	3.02e+01	0	46	0	437780480	60	15843
2026-01-30 00:32:21.08	37.45	36.47	-50.0	-52.4	24.6	3.02e+01	0	46	0	439877632	60	15769
2026-01-30 00:32:22.09	37.63	36.74	-50.0	-52.2	24.8	3.02e+01	0	46	0	441450496	60	15581
2026-01-30 00:32:23.10	37.82	37.00	-50.1	-52.4	24.7	3.02e+01	0	46	0	443547648	60	15806
2026-01-30 00:32:24.10	38.00	37.26	-50.5	-52.9	24.2	3.02e+01	0	46	0	445120512	60	16733
2026-01-30 00:32:25.11	38.19	37.53	-50.6	-53.1	24.1	3.02e+01	0	46	0	447217664	60	17129
2026-01-30 00:32:26.12	38.38	37.80	-50.6	-52.8	24.3	3.02e+01	0	46	0	449314816	60	16631
2026-01-30 00:32:27.13	38.58	38.07	-50.4	-52.6	24.6	3.02e+01	0	46	0	450887680	60	16199
2026-01-30 00:32:28.13	38.78	38.34	-50.6	-52.8	24.3	3.02e+01	0	46	0	452984832	60	16663
2026-01-30 00:32:29.14	38.98	38.61	-51.1	-53.4	23.8	3.02e+01	0	46	0	454557696	60	17858
2026-01-30 00:32:30.14	39.18	38.89	-51.1	-53.4	23.9	3.02e+01	0	46	0	456654848	60	17858
2026-01-30 00:32:31.15	39.39	39.17	-50.9	-53.2	24.2	3.02e+01	0	46	0	458227712	60	17290
2026-01-30 00:32:32.16	39.61	39.45	-51.0	-53.2	24.1	3.02e+01	0	46	0	460324864	60	17341
2026-01-30 00:32:33.16	39.82	39.73	-51.2	-53.4	24.1	3.02e+01	0	46	0	462422016	60	17758
2026-01-30 00:32:34.17	40.04	40.01	-51.3	-53.5	24.0	3.02e+01	0	46	0	463994880	60	17937
2026-01-30 00:32:35.18	40.26	40.30	-51.4	-53.6	23.9	3.02e+01	0	46	0	466092032	60	18164
2026-01-30 00:32:36.19	40.49	40.59	-51.3	-53.5	24.1	3.02e+01	0	46	0	468189184	60	17920
2026-01-30 00:32:37.19	40.72	40.88	-50.9	-52.8	24.7	3.02e+01	0	46	0	469762048	60	16701
2026-01-30 00:32:38.20	40.96	41.17	-50.9	-52.9	24.5	3.02e+01	0	46	0	471859200	60	16886
2026-01-30 00:32:39.21	41.20	41.47	-50.7	-52.7	24.6	3.02e+01	0	46	0	473432064	60	16459
2026-01-30 00:32:40.22	41.45	41.76	-50.6	-52.6	24.6	3.02e+01	0	46	0	475529216	60	16252
2026-01-30 00:32:41.22	41.69	42.06	-50.8	-52.8	24.5	3.02e+01	0	46	0	477626368	60	16595
2026-01-30 00:32:42.23	41.95	42.36	-50.6	-52.6	24.7	3.02e+01	0	46	0	479199232	60	16166
2026-01-30 00:32:43.24	42.21	42.66	-49.9	-51.7	25.4	3.02e+01	0	46	0	481296384	60	14659
2026-01-30 00:32:44.24	42.47	42.97	-49.8	-51.7	25.5	3.02e+01	0	46	0	482869248	60	14574
2026-01-30 00:32:45.25	42.74	43.27	-49.8	-51.7	25.5	3.02e+01	0	46	0	484966400	60	14623
2026-01-30 00:32:46.25	43.01	43.58	-49.5	-51.3	25.9	3.02e+01	0	46	0	486539264	60	13978
2026-01-30 00:32:47.26	43.29	43.89	-49.3	-51.1	26.1	3.02e+01	0	46	0	488636416	60	13650
2026-01-30 00:32:48.26	43.57	44.20	-49.0	-50.7	26.4	3.02e+01	0	46	0	490733568	60	13063
2026-01-30 00:32:49.27	43.86	44.51	-49.1	-50.8	26.4	3.02e+01	0	46	0	492306432	60	13152
2026-01-30 00:32:50.28	44.16	44.83	-49.2	-50.9	26.3	3.02e+01	0	46	0	494403584	60	13310
2026-01-30 00:32:51.28	44.46	45.14	-48.9	-50.6	26.6	3.02e+01	0	46	0	496500736	60	12833
2026-01-30 00:32:52.29	44.77	45.46	-49.1	-50.8	26.4	3.02e+01	0	46	0	498073600	60	13205
2026-01-30 00:32:53.30	45.09	45.78	-48.9	-50.5	26.7	3.02e+01	0	46	0	500170752	60	12754
2026-01-30 00:32:54.30	45.40	46.11	-48.9	-50.6	26.6	3.02e+01	0	46	0	501743616	60	12901
2026-01-30 00:32:55.31	45.73	46.43	-49.2	-50.8	26.5	3.02e+01	0	46	0	503840768	60	13253
2026-01-30 00:32:56.32	46.07	46.76	-49.0	-50.7	26.6	3.02e+01	0	46	0	505937920	60	13065
2026-01-30 00:32:57.33	46.41	47.09	-49.1	-50.8	26.6	3.02e+01	0	46	0	507510784	60	13161
2026-01-30 00:32:58.34	46.76	47.42	-49.0	-50.6	26.8	3.02e+01	0	46	0	509607936	60	12917
2026-01-30 00:32:59.35	47.12	47.75	-49.2	-50.8	26.5	3.02e+01	0	46	0	511180800	60	13242
2026-01-30 00:33:00.35	47.48	48.08	-49.2	-50.8	26.6	3.02e+01	0	46	0	513277952	60	13184
2026-01-30 00:33:01.36	47.85	48.41	-49.1	-50.7	26.7	3.02e+01	0	46	0	515375104	60	13032
2026-01-30 00:33:02.37	48.23	48.75	-49.3	-50.9	26.5	3.02e+01	0	46	0	516947968	60	13419
2026-01-30 00:33:03.37	48.62	49.08	-49.2	-50.8	26.8	3.02e+01	0	46	0	519045120	60	13172
2026-01-30 00:33:04.38	49.02	49.42	-49.3	-50.8	26.8	3.02e+01	0	46	0	520617984	60	13261
2026-01-30 00:33:05.38	49.42	49.76	-49.4	-51.0	26.6	3.02e+01	0	46	0	522715136	60	13485
2026-01-30 00:33:06.39	49.84	50.10	-49.6	-51.2	26.5	3.02e+01	0	46	0	524812288	60	13844
2026-01-30 00:33:07.39	50.26	50.44	-49.1	-50.7	26.8	3.02e+01	0	46	0	526385152	60	13083
2026-01-30 00:33:08.40	50.69	50.78	-49.4	-51.0	26.6	3.02e+01	0	46	0	528482304	60	13514
2026-01-30 00:33:09.41	51.14	51.12	-49.3	-50.9	26.6	3.02e+01	0	46	0	530055168	60	13416
2026-01-30 00:33:10.42	51.59	51.47	-49.5	-51.1	26.4	3.02e+01	0	46	0	532152320	60	13719
2026-01-30 00:33:11.42	52.06	51.81	-49.2	-50.7	26.8	3.02e+01	0	46	0	534249472	60	13062
2026-01-30 00:33:12.43	52.53	52.16	-49.4	-51.0	26.5	3.02e+01	0	46	0	535822336	60	13576
2026-01-30 00:33:13.43	53.02	52.50	-49.3	-50.8	26.7	3.02e+01	0	46	0	537919488	60	13248
2026-01-30 00:33:14.44	53.52	52.85	-49.3	-50.9	26.7	3.02e+01	0	46	0	539492352	60	13310
2026-01-30 00:33:15.45	54.03	53.20	-49.0	-50.5	27.0	3.02e+01	0	46	0	541589504	60	12814
2026-01-30 00:33:16.46	54.55	53.55	-49.3	-50.8	26.8	3.02e+01	0	46	0	543162368	60	13249
2026-01-30 00:33:17.47	55.09	53.89	-49.2	-50.7	27.0	3.02e+01	0	46	0	545259520	60	13087
2026-01-30 00:33:18.47	55.64	54.24	-49.5	-51.0	26.6	3.02e+01	0	46	0	547356672	60	13571
2026-01-30 00:33:19.48	56.20	54.59	-49.5	-51.0	26.6	3.02e+01	0	46	0	548929536	60	13554
2026-01-30 00:33:20.48	56.77	54.93	-49.4	-51.0	26.5	3.02e+01	0	46	0	551026688	60	13527
2026-01-30 00:33:21.49	57.36	55.28	-49.8	-51.4	26.3	3.02e+01	0	46	0	553123840	60	14084
2026-01-30 00:33:22.50	57.97	55.62	-50.3	-51.9	26.1	3.02e+01	0	46	0	554696704	60	15038
2026-01-30 00:33:23.50	58.59	55.96	-50.2	-51.8	26.2	3.02e+01	0	46	0	556793856	60	14773
2026-01-30 00:33:24.51	59.22	56.31	-50.4	-52.1	26.0	3.02e+01	0	46	0	558366720	60	15377
2026-01-30 00:33:25.52	59.88	56.65	-50.6	-52.3	25.8	3.02e+01	0	46	0	560463872	60	15686
2026-01-30 00:33:26.53	60.54	56.99	-50.8	-52.6	25.7	3.02e+01	0	46	0	562561024	60	16208
2026-01-30 00:33:27.54	61.23	57.33	-51.1	-52.9	25.3	3.02e+01	0	46	0	564133888	60	16738
2026-01-30 00:33:28.54	61.93	57.67	-51.3	-53.2	25.1	3.02e+01	0	46	0	566231040	60	17314
2026-01-30 00:33:29.55	62.65	58.00	-51.5	-53.4	25.0	3.02e+01	0	46	0	567803904	60	17796
2026-01-30 00:33:30.55	63.38	58.34	-51.9	-54.0	24.3	3.02e+01	0	46	0	569901056	60	19041
2026-01-30 00:33:31.55	64.13	58.66	-52.0	-54.1	24.2	3.02e+01	0	46	0	571473920	60	19338
2026-01-30 00:33:32.56	64.91	58.99	-52.2	-54.4	23.8	3.02e+01	0	46	0	573571072	60	19951
2026-01-30 00:33:33.57	65.71	59.32	-52.5	-54.8	23.5	3.02e+01	0	46	0	575668224	60	20839
2026-01-30 00:33:34.58	66.52	59.64	-52.4	-54.6	23.7	3.02e+01	0	46	0	577765376	60	20473
2026-01-30 00:33:35.58	67.35	59.96	-52.7	-55.0	23.5	3.02e+01	0	46	0	579338240	60	21517
2026-01-30 00:33:36.59	68.21	60.27	-52.6	-55.0	23.5	3.02e+01	0	46	0	581435392	60	21377
2026-01-30 00:33:37.59	69.08	60.58	-52.5	-54.9	23.5	3.02e+01	0	46	0	583008256	60	21160
2026-01-30 00:33:38.59	69.97	60.88	-52.5	-54.9	23.5	3.02e+01	0	46	0	585105408	60	21132
2026-01-30 00:33:39.60	70.89	61.18	-52.5	-54.9	23.5	3.02e+01	0	46	0	586678272	60	21062
2026-01-30 00:33:40.61	71.84	61.48	-52.7	-55.1	23.3	3.02e+01	0	46	0	588775424	60	21616
2026-01-30 00:33:41.62	72.80	61.77	-52.7	-55.1	23.3	3.02e+01	0	46	0	590872576	60	21653
2026-01-30 00:33:42.62	73.78	62.05	-53.0	-55.6	23.0	3.02e+01	0	46	0	592445440	60	22865
2026-01-30 00:33:43.62	74.79	62.33	-53.0	-55.6	23.0	3.02e+01	0	46	0	594542592	60	23031
2026-01-30 00:33:44.63	75.82	62.60	-53.3	-56.1	22.5	3.02e+01	0	46	0	596115456	60	24376
2026-01-30 00:33:45.63	76.87	62.87	-53.4	-56.1	22.5	3.02e+01	0	46	0	598212608	60	24253
2026-01-30 00:33:46.63	77.94	63.12	-53.8	-56.6	22.2	3.02e+01	0	46	0	599785472	60	25654
2026-01-30 00:33:47.64	79.05	63.37	-54.0	-56.7	22.0	3.02e+01	0	46	0	601882624	60	26158
2026-01-30 00:33:48.64	80.17	63.62	-53.7	-56.1	22.7	3.02e+01	0	46	0	603979776	60	24375
2026-01-30 00:33:49.65	81.32	63.85	-54.2	-56.7	22.3	3.02e+01	0	46	0	605552640	60	26045
2026-01-30 00:33:50.65	82.49	64.07	-54.1	-56.5	22.5	3.02e+01	0	46	0	607649792	60	25537
2026-01-30 00:33:51.66	83.68	64.29	-54.3	-56.7	22.4	3.02e+01	0	46	0	609746944	60	25915
2026-01-30 00:33:52.67	84.91	64.50	-54.0	-56.3	22.8	3.02e+01	0	46	0	611319808	60	24974
2026-01-30 00:33:53.67	86.14	64.70	-54.6	-57.2	22.0	3.02e+01	0	46	0	613416960	60	27571
2026-01-30 00:33:54.67	87.39	64.88	-54.2	-56.8	22.4	3.02e+01	0	46	0	614989824	60	26367
2026-01-30 00:33:55.67	88.66	65.06	-53.8	-56.4	22.7	3.02e+01	0	46	0	617086976	60	25168
2026-01-30 00:33:56.67	89.95	65.22	-54.5	-57.3	21.9	3.02e+01	0	46	0	619184128	60	27955
2026-01-30 00:33:57.68	91.27	65.38	-54.5	-57.3	21.9	3.02e+01	0	46	0	620756992	60	27762
2026-01-30 00:33:58.69	92.61	65.52	-54.8	-57.6	21.5	3.02e+01	0	46	0	622854144	60	28730
2026-01-30 00:33:59.70	93.97	65.65	-55.2	-58.1	21.0	3.02e+01	0	46	0	624427008	60	30663
2026-01-30 00:34:00.70	95.33	65.77	-55.1	-57.9	21.3	3.02e+01	0	46	0	626524160	60	29758
2026-01-30 00:34:01.71	96.72	65.88	-54.9	-57.7	21.4	3.02e+01	0	46	0	628097024	60	29172
2026-01-30 00:34:02.71	98.10	65.97	-54.7	-57.6	21.7	3.02e+01	0	46	0	630194176	60	28718
2026-01-30 00:34:03.72	99.52	66.05	-55.1	-58.2	21.1	3.02e+01	0	46	0	632291328	60	31059
2026-01-30 00:34:04.72	100.92	66.12	-54.4	-57.2	22.2	3.02e+01	0	46	0	633864192	60	27712
2026-01-30 00:34:05.73	102.35	66.18	-54.2	-57.1	22.2	3.02e+01	0	46	0	635961344	60	27348
2026-01-30 00:34:06.73	103.77	66.22	-54.0	-56.8	22.6	3.02e+01	0	46	0	637534208	60	26365
2026-01-30 00:34:07.74	105.22	66.25	-53.8	-56.5	22.7	3.02e+01	0	46	0	639631360	60	25480
2026-01-30 00:34:08.74	106.65	66.27	-53.9	-56.6	22.6	3.02e+01	0	46	0	641204224	60	25793
2026-01-30 00:34:09.75	108.09	66.27	-53.8	-56.4	22.9	3.02e+01	0	46	0	643301376	60	25009
2026-01-30 00:34:10.75	109.52	66.26	-54.3	-56.9	22.3	3.02e+01	0	46	0	645398528	60	26762
2026-01-30 00:34:11.76	110.96	66.23	-54.4	-57.0	22.3	3.02e+01	0	46	0	646971392	60	26938
2026-01-30 00:34:12.76	112.39	66.19	-53.8	-56.2	22.9	3.02e+01	0	46	0	649068544	60	24621
2026-01-30 00:34:13.76	113.81	66.14	-54.4	-57.0	22.3	3.02e+01	0	46	0	650641408	60	26918
2026-01-30 00:34:14.76	115.22	66.08	-54.0	-56.4	22.6	3.02e+01	0	46	0	652738560	60	25163
2026-01-30 00:34:15.77	116.63	66.00	-53.9	-56.4	22.7	3.02e+01	0	46	0	654835712	60	25044
2026-01-30 00:34:16.77	118.02	65.91	-53.9	-56.4	22.6	3.02e+01	0	46	0	656408576	60	25258
2026-01-30 00:34:17.78	119.41	65.81	-54.4	-57.1	22.1	3.02e+01	0	46	0	658505728	60	27170
2026-01-30 00:34:18.79	120.79	65.69	-53.5	-55.9	23.2	3.02e+01	0	46	0	660602880	60	23648
2026-01-30 00:34:19.79	122.14	65.57	-53.6	-56.0	23.2	3.02e+01	0	46	0	662175744	60	23914
2026-01-30 00:34:20.80	123.49	65.43	-53.9	-56.4	22.7	3.02e+01	0	46	0	664272896	60	25230
2026-01-30 00:34:21.80	124.81	65.27	-53.4	-55.7	23.4	3.02e+01	0	46	0	665845760	60	23119
2026-01-30 00:34:22.81	126.12	65.11	-53.2	-55.4	23.7	3.02e+01	0	46	0	667942912	60	22421
2026-01-30 00:34:23.82	127.41	64.94	-53.2	-55.4	23.4	3.02e+01	0	46	0	669515776	60	22360
2026-01-30 00:34:24.82	128.67	64.75	-53.6	-55.9	23.3	3.02e+01	0	46	0	671612928	60	23823
2026-01-30 00:34:25.82	129.91	64.56	-53.0	-55.1	24.1	3.02e+01	0	46	0	673710080	60	21569
2026-01-30 00:34:26.83	131.13	64.36	-53.4	-55.6	23.4	3.02e+01	0	46	0	675282944	60	22970
2026-01-30 00:34:27.84	132.34	64.14	-53.3	-55.5	23.7	3.02e+01	0	46	0	677380096	60	22622
2026-01-30 00:34:28.84	133.51	63.92	-53.3	-55.6	23.6	3.02e+01	0	46	0	678952960	60	22811
2026-01-30 00:34:29.84	134.66	63.69	-53.3	-55.6	23.3	3.02e+01	0	46	0	681050112	60	22878
2026-01-30 00:34:30.85	135.80	63.45	-52.9	-55.0	23.8	3.02e+01	0	46	0	682622976	60	21467
2026-01-30 00:34:31.86	136.92	63.20	-53.0	-55.2	23.5	3.02e+01	0	46	0	684720128	60	21896
2026-01-30 00:34:32.86	138.00	62.95	-52.4	-54.5	24.0	3.02e+01	0	46	0	686817280	60	20290
2026-01-30 00:34:33.87	139.06	62.68	-52.6	-54.8	23.7	3.02e+01	0	46	0	688914432	60	20979
2026-01-30 00:34:34.88	140.11	62.41	-52.1	-54.2	24.4	3.02e+01	0	46	0	690487296	60	19435
2026-01-30 00:34:35.89	141.13	62.13	-52.5	-54.7	23.8	3.02e+01	0	46	0	692584448	60	20652
2026-01-30 00:34:36.90	142.13	61.85	-52.4	-54.6	23.9	3.02e+01	0	46	0	694157312	60	20410
2026-01-30 00:34:37.91	143.10	61.56	-52.2	-54.3	24.0	3.02e+01	0	46	0	696254464	60	19756
2026-01-30 00:34:38.91	144.05	61.27	-52.1	-54.2	24.1	3.02e+01	0	46	0	697827328	60	19421
2026-01-30 00:34:39.92	144.97	60.97	-52.2	-54.3	23.9	3.02e+01	0	46	0	699924480	60	19787
2026-01-30 00:34:40.93	145.88	60.66	-52.2	-54.4	23.8	3.02e+01	0	46	0	702021632	60	19996
2026-01-30 00:34:41.94	146.77	60.35	-52.5	-54.9	23.1	3.02e+01	0	46	0	703594496	60	21202
2026-01-30 00:34:42.94	147.62	60.04	-52.1	-54.4	23.6	3.02e+01	0	46	0	705691648	60	19943
2026-01-30 00:34:43.94	148.46	59.72	-51.6	-53.7	24.2	3.02e+01	0	46	0	707264512	60	18411
2026-01-30 00:34:44.95	149.28	59.40	-52.0	-54.3	23.5	3.02e+01	0	46	0	709361664	60	19775
2026-01-30 00:34:45.96	150.09	59.08	-52.0	-54.4	23.4	3.02e+01	0	46	0	710934528	60	20072
2026-01-30 00:34:46.97	150.87	58.75	-51.6	-53.8	23.8	3.02e+01	0	46	0	713031680	60	18718
2026-01-30 00:34:47.98	151.63	58.42	-50.8	-52.9	24.7	3.02e+01	0	46	0	715128832	60	16797
2026-01-30 00:34:48.98	152.37	58.08	-51.4	-53.7	23.9	3.02e+01	0	46	0	717225984	60	18351
2026-01-30 00:34:49.99	153.10	57.75	-51.2	-53.5	23.9	3.02e+01	0	46	0	718798848	60	17956
2026-01-30 00:34:51.00	153.81	57.41	-54.4	-58.7	19.1	3.02e+01	0	46	0	720896000	60	32709
2026-01-30 00:34:52.01	154.50	57.07	-54.1	-58.2	19.3	3.02e+01	0	46	0	722468864	60	30930
2026-01-30 00:34:53.02	155.17	56.73	-53.9	-57.8	19.4	3.02e+01	0	46	0	724566016	60	29395
2026-01-30 00:34:54.02	155.83	56.39	-54.0	-58.3	19.1	3.02e+01	0	46	0	726138880	60	31437
2026-01-30 00:34:55.03	156.47	56.04	-53.9	-58.4	19.0	3.02e+01	0	46	0	728236032	60	31575
2026-01-30 00:34:56.04	157.09	55.70	-54.2	-59.1	18.2	3.02e+01	0	46	0	730333184	60	34451
2026-01-30 00:34:57.05	157.71	55.35	-54.2	-59.3	18.6	3.02e+01	0	46	0	731906048	60	35293
2026-01-30 00:34:58.06	158.30	55.00	-53.2	-57.0	20.2	3.02e+01	0	46	0	734003200	60	27082
2026-01-30 00:34:59.07	158.88	54.65	-52.4	-55.7	21.5	3.02e+01	0	46	0	736100352	60	23060
2026-01-30 00:35:00.07	159.45	54.31	-51.6	-54.5	22.6	3.02e+01	0	46	0	737673216	60	20148
2026-01-30 00:35:01.08	160.00	53.96	-51.0	-53.6	23.4	3.02e+01	0	46	0	739770368	60	18239
2026-01-30 00:35:02.09	160.54	53.61	-50.3	-52.5	24.3	3.02e+01	0	46	0	741343232	60	16125
2026-01-30 00:35:03.10	161.07	53.26	-50.0	-52.2	24.6	3.02e+01	0	46	0	743440384	60	15524
2026-01-30 00:35:04.10	161.58	52.92	-50.2	-52.5	24.3	3.02e+01	0	46	0	745537536	60	15952
2026-01-30 00:35:05.11	162.08	52.57	-50.3	-52.5	24.4	3.02e+01	0	46	0	747110400	60	16122
2026-01-30 00:35:06.12	162.58	52.22	-50.3	-52.4	24.5	3.02e+01	0	46	0	749207552	60	15936
2026-01-30 00:35:07.13	163.06	51.87	-50.1	-52.1	25.0	3.02e+01	0	46	0	750780416	60	15261
2026-01-30 00:35:08.14	163.53	51.52	-50.4	-52.5	24.6	3.02e+01	0	46	0	752877568	60	16124
2026-01-30 00:35:09.15	163.98	51.18	-50.2	-52.2	25.0	3.02e+01	0	46	0	754450432	60	15416
2026-01-30 00:35:10.15	164.43	50.84	-50.4	-52.4	25.0	3.02e+01	0	46	0	756547584	60	15845
2026-01-30 00:35:11.16	164.87	50.49	-50.5	-52.4	25.0	3.02e+01	0	46	0	758644736	60	15920
2026-01-30 00:35:12.16	165.29	50.15	-50.3	-52.1	25.3	3.02e+01	0	46	0	760741888	60	15380
2026-01-30 00:35:13.17	165.71	49.81	-50.7	-52.7	24.7	3.02e+01	0	46	0	762314752	60	16444
2026-01-30 00:35:14.17	166.12	49.47	-50.6	-52.6	24.7	3.02e+01	0	46	0	764411904	60	16140
2026-01-30 00:35:15.18	166.52	49.13	-50.6	-52.4	24.8	3.02e+01	0	46	0	765984768	60	15907
2026-01-30 00:35:16.19	166.91	48.79	-50.7	-52.6	24.7	3.02e+01	0	46	0	768081920	60	16244
2026-01-30 00:35:17.20	167.29	48.46	-50.8	-52.8	24.5	3.02e+01	0	46	0	769654784	60	16557
2026-01-30 00:35:18.20	167.66	48.12	-50.8	-52.7	24.6	3.02e+01	0	46	0	771751936	60	16482
2026-01-30 00:35:19.21	168.03	47.79	-50.7	-52.5	24.8	3.02e+01	0	46	0	773849088	60	16094
2026-01-30 00:35:20.21	168.39	47.46	-50.6	-52.4	24.9	3.02e+01	0	46	0	775421952	60	15916
2026-01-30 00:35:21.21	168.73	47.13	-50.5	-52.3	24.9	3.02e+01	0	46	0	777519104	60	15653
2026-01-30 00:35:22.22	169.08	46.80	-50.4	-52.2	24.9	3.02e+01	0	46	0	779091968	60	15457
2026-01-30 00:35:23.23	169.42	46.47	-50.3	-52.1	25.0	3.02e+01	0	46	0	781189120	60	15399
2026-01-30 00:35:24.24	169.75	46.14	-50.4	-52.3	24.8	3.02e+01	0	46	0	782761984	60	15660
2026-01-30 00:35:25.24	170.07	45.82	-50.6	-52.4	24.7	3.02e+01	0	46	0	784859136	60	15924
2026-01-30 00:35:26.25	170.38	45.50	-50.4	-52.3	24.8	3.02e+01	0	46	0	786956288	60	15656
2026-01-30 00:35:27.26	170.70	45.18	-50.2	-52.0	25.0	3.02e+01	0	46	0	788529152	60	15142
2026-01-30 00:35:28.27	171.00	44.86	-50.4	-52.3	24.7	3.02e+01	0	46	0	790626304	60	15681
2026-01-30 00:35:29.27	171.30	44.54	-50.3	-52.2	24.8	3.02e+01	0	46	0	792723456	60	15446
2026-01-30 00:35:30.28	171.59	44.23	-50.3	-52.2	24.9	3.02e+01	0	46	0	794296320	60	15532
2026-01-30 00:35:31.29	171.88	43.91	-50.5	-52.4	24.8	3.02e+01	0	46	0	796393472	60	15787
2026-01-30 00:35:32.29	172.15	43.61	-50.6	-52.4	24.9	3.02e+01	0	46	0	797966336	60	15911
2026-01-30 00:35:33.29	172.43	43.30	-50.6	-52.5	24.9	3.02e+01	0	46	0	800063488	60	15995
2026-01-30 00:35:34.30	172.70	42.99	-50.6	-52.4	25.1	3.02e+01	0	46	0	802160640	60	15832
2026-01-30 00:35:35.31	172.96	42.68	-50.5	-52.3	25.3	3.02e+01	0	46	0	803733504	60	15607
2026-01-30 00:35:36.31	173.22	42.38	-50.7	-52.5	25.0	3.02e+01	0	45	0	805830656	60	16132
2026-01-30 00:35:37.32	173.48	42.08	-50.8	-52.6	25.0	3.02e+01	0	46	0	807403520	60	16239
2026-01-30 00:35:38.33	173.73	41.78	-50.6	-52.3	25.2	3.02e+01	0	46	0	809500672	60	15766
2026-01-30 00:35:39.34	173.98	41.48	-50.4	-52.1	25.3	3.02e+01	0	46	0	811073536	60	15335
2026-01-30 00:35:40.34	174.22	41.19	-50.3	-52.0	25.4	3.02e+01	0	46	0	813170688	60	15225
2026-01-30 00:35:41.35	174.45	40.89	-50.5	-52.2	25.1	3.02e+01	0	46	0	815267840	60	15566
2026-01-30 00:35:42.36	174.69	40.60	-50.6	-52.4	24.9	3.02e+01	0	46	0	816840704	60	15833
2026-01-30 00:35:43.36	174.91	40.31	-50.6	-52.4	24.9	3.02e+01	0	46	0	818937856	60	15811
2026-01-30 00:35:44.37	175.14	40.02	-50.5	-52.3	24.9	3.02e+01	0	46	0	821035008	60	15733
2026-01-30 00:35:45.38	175.36	39.74	-50.3	-52.1	25.0	3.02e+01	0	46	0	822607872	60	15306
2026-01-30 00:35:46.38	175.58	39.46	-50.5	-52.2	24.9	3.02e+01	0	46	0	824705024	60	15552
2026-01-30 00:35:47.39	175.79	39.17	-50.6	-52.4	24.8	3.02e+01	0	46	0	826277888	60	15931
2026-01-30 00:35:48.40	176.00	38.89	-50.6	-52.5	24.7	3.02e+01	0	46	0	828375040	60	15977
2026-01-30 00:35:49.41	176.21	38.62	-50.5	-52.3	24.9	3.02e+01	0	46	0	830472192	60	15657
2026-01-30 00:35:50.42	176.41	38.34	-50.5	-52.3	24.9	3.02e+01	0	46	0	832045056	60	15687
2026-01-30 00:35:51.42	176.61	38.07	-50.4	-52.2	24.9	3.02e+01	0	46	0	834142208	60	15577
2026-01-30 00:35:52.43	176.80	37.79	-50.2	-52.0	25.1	3.02e+01	0	46	0	835715072	60	15131
2026-01-30 00:35:53.43	177.00	37.53	-50.1	-51.8	25.2	3.02e+01	0	46	0	837812224	60	14883
2026-01-30 00:35:54.44	177.19	37.26	-50.0	-51.8	25.3	3.02e+01	0	46	0	839385088	60	14765
2026-01-30 00:35:55.45	177.37	36.99	-50.0	-51.7	25.3	3.02e+01	0	46	0	841482240	60	14659
2026-01-30 00:35:56.46	177.56	36.73	-49.9	-51.6	25.4	3.02e+01	0	46	0	843579392	60	14515
2026-01-30 00:35:57.47	177.74	36.46	-49.8	-51.5	25.6	3.02e+01	0	46	0	845676544	60	14254
2026-01-30 00:35:58.47	177.91	36.21	-49.8	-51.5	25.5	3.02e+01	0	46	0	847249408	60	14311
2026-01-30 00:35:59.48	178.09	35.95	-49.6	-51.3	25.8	3.02e+01	0	46	0	849346560	60	13960
2026-01-30 00:36:00.49	178.26	35.69	-49.4	-51.0	25.9	3.02e+01	0	46	0	850919424	60	13538
2026-01-30 00:36:01.50	178.43	35.44	-49.2	-50.9	26.0	3.02e+01	0	46	0	853016576	60	13293
2026-01-30 00:36:02.50	178.60	35.18	-49.3	-50.9	25.9	3.02e+01	0	46	0	854589440	60	13337
2026-01-30 00:36:03.51	178.76	34.93	-49.2	-50.8	25.9	3.02e+01	0	46	0	856686592	60	13248
2026-01-30 00:36:04.52	178.93	34.68	-48.9	-50.5	26.2	3.02e+01	0	46	0	858783744	60	12700
2026-01-30 00:36:05.53	179.09	34.44	-48.7	-50.3	26.3	3.02e+01	0	46	0	860356608	60	12420
2026-01-30 00:36:06.54	179.24	34.19	-48.8	-50.4	26.2	3.02e+01	0	46	0	862453760	60	12595
2026-01-30 00:36:07.54	179.40	33.95	-48.9	-50.5	26.0	3.02e+01	0	46	0	864026624	60	12800
2026-01-30 00:36:08.55	179.55	33.71	-48.8	-50.4	26.2	3.02e+01	0	46	0	866123776	60	12585
2026-01-30 00:36:09.56	179.70	33.47	-48.7	-50.3	26.1	3.02e+01	0	46	0	867696640	60	12515
2026-01-30 00:36:10.56	179.85	33.23	-48.5	-50.1	26.4	3.02e+01	0	46	0	869793792	60	12131
2026-01-30 00:36:11.56	179.99	33.00	-48.4	-49.9	26.4	3.02e+01	0	46	0	871890944	60	11904
2026-01-30 00:36:12.57	180.14	32.76	-48.3	-49.9	26.5	3.02e+01	0	46	0	873988096	60	11846
2026-01-30 00:36:13.58	180.28	32.53	-48.1	-49.6	26.7	3.02e+01	0	46	0	875560960	60	11552
2026-01-30 00:36:14.58	180.42	32.30	-48.0	-49.5	26.8	3.02e+01	0	46	0	877658112	60	11341
2026-01-30 00:36:15.59	180.56	32.07	-47.9	-49.4	26.9	3.02e+01	0	46	0	879230976	60	11281
2026-01-30 00:36:16.60	180.69	31.84	-47.9	-49.4	26.8	3.02e+01	0	46	0	881328128	60	11269
2026-01-30 00:36:17.61	180.83	31.61	-48.0	-49.5	26.8	3.02e+01	0	46	0	882900992	60	11378
2026-01-30 00:36:18.62	180.96	31.39	-48.0	-49.6	26.7	3.02e+01	0	46	0	884998144	60	11433
2026-01-30 00:36:19.63	181.09	31.17	-48.0	-49.5	26.7	3.02e+01	0	46	0	887095296	60	11364
2026-01-30 00:36:20.63	181.22	30.95	-48.0	-49.5	26.8	3.02e+01	0	46	0	888668160	60	11362
2026-01-30 00:36:21.64	181.34	30.73	-47.9	-49.4	26.9	3.02e+01	0	46	0	890765312	60	11226
2026-01-30 00:36:22.65	181.47	30.51	-47.9	-49.4	26.9	3.02e+01	0	46	0	892338176	60	11201
2026-01-30 00:36:23.65	181.59	30.30	-48.0	-49.5	26.8	3.02e+01	0	46	0	894435328	60	11402
2026-01-30 00:36:24.66	181.71	30.08	-48.0	-49.6	26.7	3.02e+01	0	46	0	896008192	60	11451
2026-01-30 00:36:25.66	181.83	29.87	-48.0	-49.5	26.7	3.02e+01	0	46	0	898105344	60	11409
2026-01-30 00:36:26.66	181.95	29.66	-48.1	-49.6	26.8	3.02e+01	0	46	0	900202496	60	11541
2026-01-30 00:36:27.67	182.07	29.45	-48.1	-49.7	26.6	3.02e+01	0	46	0	902299648	60	11597
2026-01-30 00:36:28.68	182.19	29.24	-48.2	-49.7	26.6	3.02e+01	0	46	0	903872512	60	11683
2026-01-30 00:36:29.69	182.30	29.03	-48.3	-49.9	26.5	3.02e+01	0	46	0	905969664	60	11833
2026-01-30 00:36:30.70	182.41	28.83	-48.4	-50.0	26.3	3.02e+01	0	46	0	907542528	60	12014
2026-01-30 00:36:31.70	182.52	28.63	-48.4	-50.0	26.3	3.02e+01	0	46	0	909639680	60	12059
2026-01-30 00:36:32.70	182.63	28.42	-48.4	-50.0	26.3	3.02e+01	0	46	0	911212544	60	12011
2026-01-30 00:36:33.71	182.74	28.22	-48.3	-49.9	26.3	3.02e+01	0	46	0	913309696	60	11950
2026-01-30 00:36:34.71	182.85	28.03	-48.3	-49.9	26.3	3.02e+01	0	46	0	915406848	60	11833
2026-01-30 00:36:35.72	182.95	27.83	-48.2	-49.8	26.4	3.02e+01	0	46	0	916979712	60	11739
2026-01-30 00:36:36.72	183.06	27.63	-48.2	-49.8	26.3	3.02e+01	0	46	0	919076864	60	11727
2026-01-30 00:36:37.73	183.16	27.44	-48.2	-49.8	26.4	3.02e+01	0	46	0	920649728	60	11731
2026-01-30 00:36:38.74	183.26	27.24	-48.2	-49.8	26.2	3.02e+01	0	46	0	922746880	60	11795
2026-01-30 00:36:39.74	183.36	27.05	-48.3	-49.9	26.2	3.02e+01	0	46	0	924319744	60	11844
2026-01-30 00:36:40.75	183.46	26.86	-48.3	-50.0	26.2	3.02e+01	0	46	0	926416896	60	11966
2026-01-30 00:36:41.75	183.56	26.67	-48.4	-50.0	26.0	3.02e+01	0	46	0	928514048	60	12087
2026-01-30 00:36:42.76	183.66	26.48	-48.5	-50.2	25.9	3.02e+01	0	46	0	930611200	60	12296
2026-01-30 00:36:43.76	183.76	26.30	-48.6	-50.3	25.7	3.02e+01	0	46	0	932184064	60	12507
2026-01-30 00:36:44.77	183.85	26.11	-48.7	-50.5	25.6	3.02e+01	0	46	0	934281216	60	12681
2026-01-30 00:36:45.78	183.95	25.93	-48.8	-50.6	25.5	3.02e+01	0	46	0	935854080	60	12844
2026-01-30 00:36:46.79	184.04	25.74	-48.9	-50.6	25.5	3.02e+01	0	46	0	937951232	60	12927
2026-01-30 00:36:47.79	184.13	25.56	-48.9	-50.7	25.4	3.02e+01	0	46	0	939524096	60	13020
2026-01-30 00:36:48.80	184.22	25.38	-48.9	-50.7	25.4	3.02e+01	0	46	0	941621248	60	13015
2026-01-30 00:36:49.81	184.31	25.20	-48.9	-50.8	25.4	3.02e+01	0	46	0	943718400	60	13121
2026-01-30 00:36:50.81	184.40	25.03	-49.0	-50.7	25.4	3.02e+01	0	46	0	945291264	60	13102
2026-01-30 00:36:51.81	184.49	24.85	-49.0	-50.8	25.3	3.02e+01	0	46	0	947388416	60	13141
2026-01-30 00:36:52.82	184.57	24.68	-49.1	-51.0	25.2	3.02e+01	0	46	0	948961280	60	13444
2026-01-30 00:36:53.83	184.66	24.50	-49.2	-51.1	25.2	3.02e+01	0	46	0	951058432	60	13623
2026-01-30 00:36:54.83	184.74	24.33	-49.2	-51.1	25.1	3.02e+01	0	46	0	952631296	60	13595
2026-01-30 00:36:55.84	184.83	24.16	-49.1	-50.9	25.2	3.02e+01	0	46	0	954728448	60	13379
2026-01-30 00:36:56.85	184.91	23.98	-49.0	-50.8	25.3	3.02e+01	0	46	0	956825600	60	13233
2026-01-30 00:36:57.86	185.00	23.81	-49.1	-51.0	25.2	3.02e+01	0	46	0	958398464	60	13502
2026-01-30 00:36:58.86	185.08	23.65	-49.2	-51.1	25.2	3.02e+01	0	46	0	960495616	60	13617
2026-01-30 00:36:59.86	185.16	23.48	-49.1	-50.9	25.3	3.02e+01	0	46	0	962592768	60	13369
2026-01-30 00:37:00.87	185.24	23.31	-49.0	-50.7	25.5	3.02e+01	0	46	0	964165632	60	13109
2026-01-30 00:37:01.87	185.31	23.15	-48.8	-50.6	25.7	3.02e+01	0	46	0	966262784	60	12842
2026-01-30 00:37:02.88	185.39	22.99	-48.8	-50.6	25.7	3.02e+01	0	46	0	967835648	60	12871
2026-01-30 00:37:03.89	185.47	22.82	-48.8	-50.5	25.6	3.02e+01	0	46	0	969932800	60	12795
2026-01-30 00:37:04.90	185.55	22.66	-48.9	-50.6	25.5	3.02e+01	0	46	0	972029952	60	12927
2026-01-30 00:37:05.90	185.62	22.50	-48.8	-50.5	25.6	3.02e+01	0	46	0	973602816	60	12774
2026-01-30 00:37:06.91	185.70	22.34	-48.8	-50.5	25.7	3.02e+01	0	46	0	975699968	60	12681
2026-01-30 00:37:07.92	185.77	22.18	-48.7	-50.4	25.7	3.02e+01	0	46	0	977272832	60	12584
2026-01-30 00:37:08.93	185.85	22.02	-48.7	-50.4	25.7	3.02e+01	0	46	0	979369984	60	12537
2026-01-30 00:37:09.94	185.92	21.87	-48.6	-50.3	25.7	3.02e+01	0	46	0	980942848	60	12450
2026-01-30 00:37:10.94	185.99	21.71	-48.6	-50.2	25.8	3.02e+01	0	46	0	983040000	60	12309
2026-01-30 00:37:11.95	186.06	21.56	-48.5	-50.2	25.8	3.02e+01	0	46	0	985137152	60	12292
2026-01-30 00:37:12.95	186.13	21.40	-48.5	-50.2	25.8	3.02e+01	0	46	0	986710016	60	12294
2026-01-30 00:37:13.96	186.20	21.25	-48.5	-50.2	25.7	3.02e+01	0	46	0	988807168	60	12329
2026-01-30 00:37:14.96	186.27	21.10	-48.5	-50.2	25.7	3.02e+01	0	46	0	990904320	60	12313
2026-01-30 00:37:15.97	186.34	20.95	-48.5	-50.2	25.6	3.02e+01	0	46	0	992477184	60	12355
2026-01-30 00:37:16.98	186.41	20.80	-48.5	-50.2	25.6	3.02e+01	0	46	0	994574336	60	12276
2026-01-30 00:37:17.99	186.47	20.65	-48.5	-50.3	25.5	3.02e+01	0	46	0	996147200	60	12391
2026-01-30 00:37:19.00	186.54	20.50	-48.5	-50.3	25.5	3.02e+01	0	46	0	998244352	60	12400
2026-01-30 00:37:20.00	186.61	20.35	-48.5	-50.2	25.5	3.02e+01	0	46	0	1000341504	60	12367
2026-01-30 00:37:21.01	186.67	20.21	-48.5	-50.2	25.5	3.02e+01	0	46	0	1001914368	60	12302
2026-01-30 00:37:22.02	186.74	20.06	-48.5	-50.2	25.5	3.02e+01	0	46	0	1004011520	60	12335
2026-01-30 00:37:23.03	186.80	19.92	-48.4	-50.2	25.5	3.02e+01	0	46	0	1005584384	60	12244
2026-01-30 00:37:24.03	186.86	19.77	-48.4	-50.1	25.5	3.02e+01	0	46	0	1007681536	60	12177
2026-01-30 00:37:25.03	186.93	19.63	-48.3	-50.0	25.6	3.02e+01	0	46	0	1009254400	60	12012
2026-01-30 00:37:26.04	186.99	19.49	-48.2	-49.9	25.6	3.02e+01	0	46	0	1011351552	60	11927
2026-01-30 00:37:27.05	187.05	19.35	-48.2	-49.9	25.7	3.02e+01	0	46	0	1013448704	60	11901
2026-01-30 00:37:28.05	187.11	19.21	-48.1	-49.8	25.7	3.02e+01	0	46	0	1015021568	60	11755
2026-01-30 00:37:29.06	187.17	19.07	-48.1	-49.8	25.8	3.02e+01	0	46	0	1017118720	60	11744
2026-01-30 00:37:30.07	187.23	18.93	-48.1	-49.8	25.8	3.02e+01	0	46	0	1019215872	60	11747
2026-01-30 00:37:31.07	187.29	18.79	-48.1	-49.8	25.8	3.02e+01	0	46	0	1020788736	60	11695
2026-01-30 00:37:32.08	187.35	18.66	-48.1	-49.8	25.7	3.02e+01	0	46	0	1022885888	60	11754
2026-01-30 00:37:33.09	187.41	18.52	-48.0	-49.7	25.8	3.02e+01	0	46	0	1024458752	60	11637
2026-01-30 00:37:34.10	187.47	18.39	-48.0	-49.7	25.8	3.02e+01	0	46	0	1026555904	60	11645
2026-01-30 00:37:35.10	187.53	18.25	-48.0	-49.8	25.8	3.02e+01	0	46	0	1028653056	60	11706
2026-01-30 00:37:36.10	187.58	18.12	-48.0	-49.7	25.8	3.02e+01	0	46	0	1030225920	60	11654
2026-01-30 00:37:37.11	187.64	17.99	-48.0	-49.7	25.8	3.02e+01	0	46	0	1032323072	60	11607
2026-01-30 00:37:38.12	187.70	17.85	-48.0	-49.7	25.8	3.02e+01	0	46	0	1033895936	60	11563
2026-01-30 00:37:39.13	187.75	17.72	-47.9	-49.6	25.9	3.02e+01	0	46	0	1035993088	60	11519
2026-01-30 00:37:40.14	187.81	17.59	-47.9	-49.5	25.9	3.02e+01	0	46	0	1037565952	60	11419
2026-01-30 00:37:41.14	187.86	17.46	-47.9	-49.6	26.0	3.02e+01	0	46	0	1039663104	60	11448
2026-01-30 00:37:42.15	187.92	17.33	-47.9	-49.6	25.9	3.02e+01	0	46	0	1041760256	60	11468
2026-01-30 00:37:43.16	187.97	17.20	-47.8	-49.4	26.0	3.02e+01	0	46	0	1043333120	60	11284
2026-01-30 00:37:44.16	188.02	17.08	-47.8	-49.4	26.0	3.02e+01	0	46	0	1045430272	60	11255
2026-01-30 00:37:45.17	188.08	16.95	-47.8	-49.5	26.0	3.02e+01	0	46	0	1047527424	60	11377
2026-01-30 00:37:46.18	188.13	16.82	-47.8	-49.5	26.0	3.02e+01	0	46	0	1049100288	60	11341
2026-01-30 00:37:47.19	188.18	16.70	-47.9	-49.5	25.9	3.02e+01	0	46	0	1051197440	60	11403
2026-01-30 00:37:48.20	188.23	16.57	-47.8	-49.5	25.8	3.02e+01	0	46	0	1052770304	60	11385
2026-01-30 00:37:49.21	188.28	16.45	-47.9	-49.5	25.8	3.02e+01	0	46	0	1054867456	60	11402
2026-01-30 00:37:50.21	188.33	16.32	-47.9	-49.6	25.8	3.02e+01	0	46	0	1056964608	60	11427
2026-01-30 00:37:51.22	188.38	16.20	-47.9	-49.5	25.8	3.02e+01	0	46	0	1058537472	60	11373
2026-01-30 00:37:52.23	188.43	16.08	-47.9	-49.6	25.7	3.02e+01	0	46	0	1060634624	60	11507
2026-01-30 00:37:53.24	188.48	15.96	-47.9	-49.6	25.7	3.02e+01	0	46	0	1062207488	60	11453
2026-01-30 00:37:54.25	188.53	15.84	-47.9	-49.6	25.7	3.02e+01	0	46	0	1064304640	60	11462
2026-01-30 00:37:55.26	188.58	15.71	-47.9	-49.6	25.7	3.02e+01	0	46	0	1065877504	60	11441
2026-01-30 00:37:56.26	188.63	15.60	-47.9	-49.6	25.7	3.02e+01	0	46	0	1067974656	60	11533
2026-01-30 00:37:57.27	188.68	15.48	-47.9	-49.6	25.7	3.02e+01	0	46	0	1070071808	60	11477
2026-01-30 00:37:58.28	188.73	15.36	-47.9	-49.6	25.7	3.02e+01	0	46	0	1072168960	60	11510
2026-01-30 00:37:59.29	188.77	15.24	-47.9	-49.6	25.7	3.02e+01	0	46	0	1073741824	60	11467
2026-01-30 00:38:00.30	188.82	15.12	-47.8	-49.5	25.7	3.02e+01	0	46	0	1075838976	60	11394
2026-01-30 00:38:01.30	188.87	15.01	-47.9	-49.6	25.6	3.02e+01	0	46	0	1077411840	60	11531
2026-01-30 00:38:02.31	188.91	14.89	-47.9	-49.6	25.7	3.02e+01	0	46	0	1079508992	60	11469
2026-01-30 00:38:03.32	188.96	14.77	-47.9	-49.6	25.6	3.02e+01	0	46	0	1081081856	60	11544
2026-01-30 00:38:04.32	189.00	14.66	-47.9	-49.6	25.6	3.02e+01	0	46	0	1083179008	60	11552
2026-01-30 00:38:05.32	189.05	14.55	-48.0	-49.7	25.5	3.02e+01	0	46	0	1085276160	60	11637
2026-01-30 00:38:06.32	189.09	14.43	-47.9	-49.7	25.5	3.02e+01	0	46	0	1086849024	60	11578
2026-01-30 00:38:07.33	189.14	14.32	-48.0	-49.7	25.5	3.02e+01	0	46	0	1088946176	60	11629
2026-01-30 00:38:08.33	189.18	14.21	-47.9	-49.7	25.5	3.02e+01	0	46	0	1090519040	60	11588
2026-01-30 00:38:09.34	189.23	14.10	-47.9	-49.6	25.6	3.02e+01	0	46	0	1092616192	60	11531
2026-01-30 00:38:10.35	189.27	13.99	-47.9	-49.6	25.6	3.02e+01	0	46	0	1094189056	60	11474
2026-01-30 00:38:11.35	189.31	13.88	-47.9	-49.7	25.5	3.02e+01	0	46	0	1096286208	60	11577
2026-01-30 00:38:12.35	189.36	13.77	-47.9	-49.6	25.6	3.02e+01	0	46	0	1098383360	60	11495
2026-01-30 00:38:13.36	189.40	13.66	-47.9	-49.6	25.5	3.02e+01	0	46	0	1099956224	60	11528
2026-01-30 00:38:14.37	189.44	13.55	-48.0	-49.7	25.5	3.02e+01	0	46	0	1102053376	60	11597
2026-01-30 00:38:15.37	189.48	13.44	-48.0	-49.7	25.5	3.02e+01	0	46	0	1104150528	60	11680
2026-01-30 00:38:16.38	189.52	13.33	-48.0	-49.8	25.4	3.02e+01	0	46	0	1105723392	60	11743
2026-01-30 00:38:17.39	189.57	13.22	-48.1	-49.9	25.4	3.02e+01	0	46	0	1107820544	60	11825
2026-01-30 00:38:18.40	189.61	13.11	-48.1	-49.9	25.3	3.02e+01	0	46	0	1109393408	60	11882
2026-01-30 00:38:19.40	189.65	13.01	-48.1	-49.9	25.2	3.02e+01	0	46	0	1111490560	60	11868
2026-01-30 00:38:20.41	189.69	12.90	-48.1	-49.8	25.3	3.02e+01	0	46	0	1113587712	60	11784
2026-01-30 00:38:21.42	189.73	12.80	-48.1	-49.9	25.3	3.02e+01	0	46	0	1115160576	60	11868
2026-01-30 00:38:22.43	189.77	12.69	-48.1	-49.9	25.2	3.02e+01	0	46	0	1117257728	60	11947
2026-01-30 00:38:23.43	189.81	12.59	-48.1	-49.9	25.3	3.02e+01	0	46	0	1118830592	60	11910
2026-01-30 00:38:24.44	189.85	12.48	-48.1	-49.9	25.1	3.02e+01	0	46	0	1120927744	60	11957
2026-01-30 00:38:25.45	189.89	12.38	-48.1	-49.9	25.1	3.02e+01	0	46	0	1122500608	60	11960
2026-01-30 00:38:26.46	189.93	12.28	-48.0	-49.8	25.3	3.02e+01	0	46	0	1124597760	60	11731
2026-01-30 00:38:27.46	189.96	12.17	-48.0	-49.7	25.3	3.02e+01	0	46	0	1126694912	60	11663
2026-01-30 00:38:28.47	190.00	12.07	-48.0	-49.8	25.3	3.02e+01	0	46	0	1128792064	60	11693
2026-01-30 00:38:29.48	190.04	11.97	-48.0	-49.7	25.2	3.02e+01	0	46	0	1130364928	60	11680
2026-01-30 00:38:30.49	190.08	11.87	-47.9	-49.7	25.2	3.02e+01	0	46	0	1132462080	60	11662
2026-01-30 00:38:31.49	190.12	11.77	-47.9	-49.7	25.2	3.02e+01	0	46	0	1134034944	60	11567
2026-01-30 00:38:32.50	190.15	11.67	-47.9	-49.7	25.2	3.02e+01	0	46	0	1136132096	60	11586
2026-01-30 00:38:33.50	190.19	11.57	-47.9	-49.7	25.1	3.02e+01	0	46	0	1137704960	60	11593
2026-01-30 00:38:34.51	190.23	11.47	-47.9	-49.7	25.2	3.02e+01	0	46	0	1139802112	60	11564
2026-01-30 00:38:35.52	190.26	11.37	-47.9	-49.7	25.1	3.02e+01	0	46	0	1141899264	60	11644
2026-01-30 00:38:36.52	190.30	11.27	-47.9	-49.7	25.1	3.02e+01	0	46	0	1143472128	60	11619
2026-01-30 00:38:37.53	190.34	11.17	-47.9	-49.7	25.1	3.02e+01	0	46	0	1145569280	60	11640
2026-01-30 00:38:38.54	190.37	11.07	-47.9	-49.7	25.2	3.02e+01	0	46	0	1147142144	60	11658
2026-01-30 00:38:39.54	190.41	10.98	-48.0	-49.8	25.0	3.02e+01	0	46	0	1149239296	60	11755
2026-01-30 00:38:40.55	190.44	10.88	-48.0	-49.8	25.0	3.02e+01	0	46	0	1150812160	60	11814
2026-01-30 00:38:41.56	190.48	10.78	-48.0	-49.9	25.0	3.02e+01	0	46	0	1152909312	60	11875
2026-01-30 00:38:42.56	190.51	10.69	-47.9	-49.8	25.0	3.02e+01	0	46	0	1155006464	60	11735
2026-01-30 00:38:43.57	190.55	10.59	-47.9	-49.8	25.0	3.02e+01	0	46	0	1157103616	60	11753
