passes_logs/2026/01/30/R3.2S-Naryan-Mar/R3.2S-Naryan-Mar__20260130_140517_FENGYUN_3E_rec.log

#Pass ID: 20260130_140517_FENGYUN 3E
#Satellite: FENGYUN 3E
#Configuration: FENGYUN 3E
#almurnet v.1.7.20240730
#Start time: 2026-01-30 14:05:18

#Version: 2.2.20231116
#Station: R3.2S-Naryan-Mar
#Location: 53.008057 lon 67.646978 lat
#TLE: 1 49008U 21062A   26030.15628484 -.00000231  00000+0 -88238-4 0  9991
#TLE: 2 49008  98.7496  35.1082 0002567 110.3408 249.8045 14.19886954236998

#Time	Az	El	Level	Level2	SNR	BER	BlckErr	Temp	State	Recorded	gain1	gain2
2026-01-30 14:05:18.01	189.96	0.05	-59.9	-73.8	3.5	8.45e-01	0	43	0	0	60	191788
2026-01-30 14:05:19.01	190.00	0.11	-58.6	-73.5	3.6	8.45e-01	0	44	104	0	60	186391
2026-01-30 14:05:20.02	190.04	0.16	-56.7	-73.0	3.6	8.45e-01	0	44	104	0	60	175711
2026-01-30 14:05:21.03	190.09	0.22	-57.2	-73.4	3.6	8.45e-01	0	44	104	0	60	182418
2026-01-30 14:05:22.03	190.13	0.28	-58.9	-73.7	3.6	8.45e-01	0	44	104	0	60	190283
2026-01-30 14:05:23.03	190.17	0.34	-60.3	-74.0	3.6	8.45e-01	0	44	104	0	60	196659
2026-01-30 14:05:24.04	190.22	0.39	-60.5	-74.0	3.6	8.45e-01	0	44	104	0	60	196397
2026-01-30 14:05:25.04	190.26	0.45	-60.8	-74.0	3.6	8.45e-01	0	44	104	0	60	196646
2026-01-30 14:05:26.05	190.30	0.51	-60.9	-74.3	3.6	8.45e-01	0	44	104	0	60	202260
2026-01-30 14:05:27.05	190.35	0.57	-61.0	-74.1	3.6	8.46e-01	0	44	104	0	60	198182
2026-01-30 14:05:28.06	190.39	0.63	-61.0	-74.0	3.6	8.45e-01	0	44	104	0	60	196341
2026-01-30 14:05:29.06	190.44	0.68	-60.9	-74.0	3.6	8.45e-01	0	44	104	0	60	197066
2026-01-30 14:05:30.07	190.48	0.74	-60.9	-73.9	3.6	8.45e-01	0	44	104	0	60	193958
2026-01-30 14:05:31.07	190.53	0.80	-60.7	-73.8	3.6	8.46e-01	0	44	104	0	60	192892
2026-01-30 14:05:32.08	190.57	0.86	-60.5	-73.7	3.6	8.45e-01	0	44	104	0	60	189139
2026-01-30 14:05:33.09	190.62	0.92	-60.7	-73.8	3.6	8.45e-01	0	44	104	0	60	191514
2026-01-30 14:05:34.10	190.66	0.98	-60.7	-73.7	3.6	8.45e-01	0	44	104	0	60	190624
2026-01-30 14:05:35.10	190.71	1.03	-60.2	-73.5	3.6	8.45e-01	0	44	104	0	60	184886
2026-01-30 14:05:36.11	190.75	1.09	-60.2	-73.6	3.6	8.45e-01	0	44	104	0	60	187595
2026-01-30 14:05:37.12	190.80	1.15	-60.6	-73.7	3.6	8.46e-01	0	44	104	0	60	188647
2026-01-30 14:05:38.12	190.85	1.21	-60.4	-73.6	3.6	8.45e-01	0	44	104	0	60	187728
2026-01-30 14:05:39.13	190.89	1.27	-60.1	-73.4	3.6	8.45e-01	0	44	104	0	60	183111
2026-01-30 14:05:40.13	190.94	1.33	-60.1	-73.3	3.6	8.44e-01	0	44	104	0	60	181426
2026-01-30 14:05:41.14	190.99	1.39	-59.8	-73.1	3.6	8.44e-01	0	44	104	0	60	176624
2026-01-30 14:05:42.14	191.03	1.45	-59.6	-72.9	3.6	8.45e-01	0	45	104	0	60	173833
2026-01-30 14:05:43.15	191.08	1.51	-59.4	-72.8	3.6	8.46e-01	0	44	104	0	60	170704
2026-01-30 14:05:44.15	191.13	1.57	-59.2	-72.8	3.6	8.46e-01	0	44	104	0	60	170352
2026-01-30 14:05:45.16	191.17	1.63	-59.1	-72.6	3.6	8.45e-01	0	44	104	0	60	167241
2026-01-30 14:05:46.17	191.22	1.69	-59.2	-72.6	3.6	8.45e-01	0	44	104	0	60	167299
2026-01-30 14:05:47.17	191.27	1.75	-58.7	-72.4	3.6	8.46e-01	0	44	104	0	60	163202
2026-01-30 14:05:48.18	191.32	1.81	-58.5	-72.3	3.6	8.45e-01	0	45	104	0	60	161566
2026-01-30 14:05:49.18	191.36	1.87	-58.7	-72.2	3.6	8.47e-01	0	45	104	0	60	159573
2026-01-30 14:05:50.19	191.41	1.93	-58.5	-72.1	3.6	8.45e-01	0	45	104	0	60	157006
2026-01-30 14:05:51.20	191.46	1.99	-58.3	-71.7	3.6	8.45e-01	0	45	104	0	60	151016
2026-01-30 14:05:52.21	191.51	2.05	-57.7	-71.4	3.6	8.46e-01	0	45	104	0	60	146308
2026-01-30 14:05:53.22	191.56	2.11	-57.5	-71.1	3.6	8.45e-01	0	45	104	0	60	140206
2026-01-30 14:05:54.22	191.61	2.17	-56.3	-70.4	3.6	8.46e-01	0	45	104	0	60	130231
2026-01-30 14:05:55.23	191.66	2.23	-56.0	-70.2	3.6	8.45e-01	0	45	104	0	60	126944
2026-01-30 14:05:56.23	191.70	2.29	-56.0	-70.2	3.6	8.46e-01	0	45	104	0	60	126493
2026-01-30 14:05:57.24	191.75	2.35	-55.9	-70.1	3.6	8.46e-01	0	45	104	0	60	125230
2026-01-30 14:05:58.25	191.80	2.42	-55.9	-70.0	3.6	8.45e-01	0	45	104	0	60	124138
2026-01-30 14:05:59.25	191.85	2.48	-55.9	-69.9	3.6	8.45e-01	0	45	104	0	60	123150
2026-01-30 14:06:00.26	191.90	2.54	-55.9	-70.0	3.6	8.46e-01	0	45	104	0	60	123198
2026-01-30 14:06:01.27	191.95	2.60	-55.8	-70.1	3.6	8.45e-01	0	45	104	0	60	124614
2026-01-30 14:06:02.28	192.01	2.66	-55.8	-70.0	3.6	8.46e-01	0	45	104	0	60	123757
2026-01-30 14:06:03.28	192.06	2.72	-55.8	-69.9	3.6	8.47e-01	0	45	104	0	60	123071
2026-01-30 14:06:04.29	192.11	2.79	-55.8	-69.9	3.6	8.46e-01	0	45	104	0	60	122640
2026-01-30 14:06:05.30	192.16	2.85	-55.8	-70.0	3.6	8.46e-01	0	45	104	0	60	123985
2026-01-30 14:06:06.31	192.21	2.91	-55.7	-70.0	3.6	8.45e-01	0	45	104	0	60	123873
2026-01-30 14:06:07.32	192.26	2.97	-55.8	-70.0	3.6	8.46e-01	0	45	104	0	60	124102
2026-01-30 14:06:08.32	192.31	3.04	-55.7	-69.9	3.6	8.45e-01	0	45	104	0	60	123016
2026-01-30 14:06:09.33	192.36	3.10	-55.7	-69.9	3.6	8.45e-01	0	45	104	0	60	121864
2026-01-30 14:06:10.33	192.42	3.16	-55.7	-69.9	3.6	8.46e-01	0	45	104	0	60	122021
2026-01-30 14:06:11.34	192.47	3.22	-55.7	-70.0	3.6	8.45e-01	0	45	104	0	60	123628
2026-01-30 14:06:12.34	192.52	3.29	-55.7	-69.9	3.6	8.46e-01	0	45	104	0	60	123149
2026-01-30 14:06:13.35	192.57	3.35	-55.7	-69.9	3.6	8.44e-01	0	45	104	0	60	122424
2026-01-30 14:06:14.36	192.63	3.41	-55.7	-69.8	3.6	8.45e-01	0	45	104	0	60	121545
2026-01-30 14:06:15.37	192.68	3.48	-55.6	-69.8	3.6	8.45e-01	0	45	104	0	60	120952
2026-01-30 14:06:16.37	192.73	3.54	-55.6	-69.7	3.6	8.46e-01	0	45	104	0	60	119578
2026-01-30 14:06:17.38	192.79	3.60	-55.6	-69.7	3.6	8.45e-01	0	45	104	0	60	119494
2026-01-30 14:06:18.39	192.84	3.67	-55.6	-69.6	3.6	8.45e-01	0	45	104	0	60	118778
2026-01-30 14:06:19.40	192.89	3.73	-55.6	-69.5	3.6	8.45e-01	0	45	104	0	60	117490
2026-01-30 14:06:20.41	192.95	3.80	-55.6	-69.5	3.6	8.45e-01	0	45	104	0	60	117613
2026-01-30 14:06:21.42	193.00	3.86	-55.6	-69.6	3.6	8.44e-01	0	45	104	0	60	118803
2026-01-30 14:06:22.42	193.06	3.93	-55.5	-69.7	3.6	8.46e-01	0	45	104	0	60	119451
2026-01-30 14:06:23.43	193.11	3.99	-55.5	-69.7	3.6	8.46e-01	0	45	104	0	60	120289
2026-01-30 14:06:24.44	193.17	4.06	-55.5	-69.8	3.6	8.46e-01	0	45	104	0	60	120890
2026-01-30 14:06:25.44	193.22	4.12	-55.5	-69.7	3.6	8.46e-01	0	45	104	0	60	119277
2026-01-30 14:06:26.45	193.28	4.18	-55.5	-69.6	3.6	8.46e-01	0	45	104	0	60	118111
2026-01-30 14:06:27.46	193.34	4.25	-55.5	-69.5	3.6	8.46e-01	0	45	104	0	60	116298
2026-01-30 14:06:28.46	193.39	4.31	-55.5	-69.4	3.6	8.45e-01	0	45	104	0	60	116250
2026-01-30 14:06:29.47	193.45	4.38	-55.5	-69.3	3.6	8.46e-01	0	45	104	0	60	114187
2026-01-30 14:06:30.47	193.50	4.44	-55.5	-69.3	3.6	8.44e-01	0	45	104	0	60	114540
2026-01-30 14:06:31.48	193.56	4.51	-55.5	-69.4	3.6	8.46e-01	0	45	104	0	60	115456
2026-01-30 14:06:32.49	193.62	4.58	-55.5	-69.5	3.6	8.46e-01	0	45	104	0	60	116536
2026-01-30 14:06:33.49	193.67	4.64	-55.4	-69.5	3.6	8.46e-01	0	45	104	0	60	117133
2026-01-30 14:06:34.50	193.73	4.71	-55.5	-69.3	3.6	8.46e-01	0	45	104	0	60	114415
2026-01-30 14:06:35.50	193.79	4.77	-55.4	-68.9	3.6	8.45e-01	0	45	104	0	60	109739
2026-01-30 14:06:36.51	193.85	4.84	-55.4	-68.6	3.6	8.44e-01	0	45	104	0	60	104931
2026-01-30 14:06:37.51	193.91	4.91	-55.4	-68.3	3.5	8.45e-01	0	45	104	0	60	102338
2026-01-30 14:06:38.52	193.96	4.97	-55.3	-68.0	3.6	8.44e-01	0	45	104	0	60	98767
2026-01-30 14:06:39.53	194.02	5.04	-55.3	-67.3	3.8	8.45e-01	0	45	104	0	60	90598
2026-01-30 14:06:40.54	194.08	5.11	-55.1	-64.0	4.1	8.30e-01	0	45	0	0	60	61961
2026-01-30 14:06:41.55	194.14	5.17	-54.8	-62.1	5.5	7.41e-01	0	45	0	0	60	49643
2026-01-30 14:06:42.56	194.20	5.24	-54.2	-60.1	7.5	1.04e-01	0	45	0	6291456	60	39554
2026-01-30 14:06:43.56	194.26	5.31	-53.5	-58.2	9.7	2.04e-02	0	45	0	13631488	60	31841
2026-01-30 14:06:44.57	194.32	5.38	-52.7	-56.5	11.4	1.13e-03	0	45	0	20971520	60	26225
2026-01-30 14:06:45.58	194.38	5.44	-51.9	-55.1	12.9	7.89e-05	0	45	0	28311552	60	22268
2026-01-30 14:06:46.59	194.44	5.51	-51.2	-53.9	14.0	2.20e-06	0	45	0	35651584	60	19520
2026-01-30 14:06:47.59	194.50	5.58	-50.6	-53.0	14.7	0.00e+00	0	45	0	41943040	60	17559
2026-01-30 14:06:48.60	194.56	5.65	-50.2	-52.5	15.2	0.00e+00	0	45	0	49283072	60	16454
2026-01-30 14:06:49.61	194.62	5.72	-50.0	-52.2	15.4	0.00e+00	0	45	0	56623104	60	15939
2026-01-30 14:06:50.62	194.69	5.78	-49.7	-51.8	15.7	0.00e+00	0	45	0	63963136	60	15315
2026-01-30 14:06:51.62	194.75	5.85	-50.1	-52.4	15.1	0.00e+00	0	45	0	72351744	60	16405
2026-01-30 14:06:52.63	194.81	5.92	-50.5	-52.9	14.7	0.00e+00	0	45	0	79691776	60	17247
2026-01-30 14:06:53.63	194.87	5.99	-51.0	-53.7	14.0	1.10e-06	0	45	0	85983232	60	19008
2026-01-30 14:06:54.64	194.94	6.06	-48.8	-50.6	16.9	0.00e+00	0	45	0	93323264	60	13330
2026-01-30 14:06:55.64	195.00	6.13	-48.2	-49.9	16.5	0.00e+00	0	45	0	100663296	60	12270
2026-01-30 14:06:56.65	195.06	6.20	-51.5	-54.4	12.1	0.00e+00	0	45	0	108003328	60	20523
2026-01-30 14:06:57.65	195.12	6.27	-53.9	-59.0	8.4	1.63e-01	0	45	0	115343360	60	34952
2026-01-30 14:06:58.66	195.19	6.34	-48.9	-50.9	17.0	3.90e-02	0	45	0	122683392	60	13795
2026-01-30 14:06:59.67	195.25	6.41	-47.1	-48.7	17.9	0.00e+00	0	45	0	130023424	60	10628
2026-01-30 14:07:00.68	195.32	6.48	-47.1	-48.6	17.7	0.00e+00	0	45	0	137363456	60	10491
2026-01-30 14:07:01.69	195.38	6.55	-47.2	-48.7	17.7	0.00e+00	0	45	0	144703488	60	10694
2026-01-30 14:07:02.69	195.45	6.62	-46.9	-48.4	17.9	0.00e+00	0	45	0	150994944	60	10360
2026-01-30 14:07:03.70	195.51	6.69	-46.8	-48.3	17.9	0.00e+00	0	45	0	158334976	60	10220
2026-01-30 14:07:04.71	195.58	6.76	-46.8	-48.3	18.0	0.00e+00	0	45	0	165675008	60	10153
2026-01-30 14:07:05.71	195.64	6.83	-46.9	-48.5	17.9	0.00e+00	0	45	0	173015040	60	10369
2026-01-30 14:07:06.72	195.71	6.90	-46.8	-48.4	17.8	0.00e+00	0	45	0	180355072	60	10296
2026-01-30 14:07:07.72	195.78	6.97	-46.8	-48.3	18.0	0.00e+00	0	45	0	188743680	60	10223
2026-01-30 14:07:08.73	195.84	7.04	-46.9	-48.4	17.9	0.00e+00	0	45	0	195035136	60	10338
2026-01-30 14:07:09.74	195.91	7.11	-46.8	-48.3	18.0	0.00e+00	0	45	0	202375168	60	10245
2026-01-30 14:07:10.75	195.98	7.18	-46.8	-48.3	18.1	0.00e+00	0	45	0	209715200	60	10144
2026-01-30 14:07:11.75	196.04	7.25	-46.7	-48.2	18.0	0.00e+00	0	45	0	217055232	60	10110
2026-01-30 14:07:12.76	196.11	7.33	-46.8	-48.3	18.0	0.00e+00	0	45	0	224395264	60	10241
2026-01-30 14:07:13.76	196.18	7.40	-46.8	-48.3	18.0	0.00e+00	0	45	0	231735296	60	10204
2026-01-30 14:07:14.77	196.25	7.47	-46.8	-48.3	18.0	0.00e+00	0	45	0	239075328	60	10188
2026-01-30 14:07:15.78	196.32	7.54	-46.8	-48.3	18.1	0.00e+00	0	45	0	246415360	60	10213
2026-01-30 14:07:16.79	196.39	7.62	-46.9	-48.3	18.5	0.00e+00	0	45	0	253755392	60	10242
2026-01-30 14:07:17.80	196.46	7.69	-46.9	-48.4	18.0	0.00e+00	0	45	0	260046848	60	10308
2026-01-30 14:07:18.80	196.53	7.76	-46.9	-48.5	18.0	0.00e+00	0	45	0	267386880	60	10377
2026-01-30 14:07:19.81	196.60	7.84	-46.7	-48.2	18.1	0.00e+00	0	45	0	274726912	60	10126
2026-01-30 14:07:20.82	196.67	7.91	-46.7	-48.2	18.2	0.00e+00	0	45	0	282066944	60	10039
2026-01-30 14:07:21.82	196.74	7.98	-46.6	-48.1	18.1	0.00e+00	0	45	0	290455552	60	9906
2026-01-30 14:07:22.84	196.81	8.06	-46.7	-48.2	18.2	0.00e+00	0	45	0	297795584	60	10089
2026-01-30 14:07:23.84	196.88	8.13	-46.8	-48.3	18.1	0.00e+00	0	45	0	304087040	60	10230
2026-01-30 14:07:24.85	196.96	8.20	-46.8	-48.3	18.1	0.00e+00	0	45	0	311427072	60	10216
2026-01-30 14:07:25.85	197.03	8.28	-46.6	-48.2	18.2	0.00e+00	0	45	0	318767104	60	10038
2026-01-30 14:07:26.86	197.10	8.35	-46.6	-48.1	18.2	0.00e+00	0	45	0	326107136	60	9981
2026-01-30 14:07:27.86	197.17	8.43	-46.5	-48.1	18.2	0.00e+00	0	45	0	333447168	60	9916
2026-01-30 14:07:28.87	197.25	8.50	-46.4	-47.9	18.3	0.00e+00	0	45	0	340787200	60	9765
2026-01-30 14:07:29.87	197.32	8.58	-46.5	-48.0	18.3	0.00e+00	0	45	0	348127232	60	9808
2026-01-30 14:07:30.88	197.39	8.65	-46.4	-47.9	18.4	0.00e+00	0	45	0	355467264	60	9728
2026-01-30 14:07:31.89	197.47	8.73	-46.4	-47.9	18.4	0.00e+00	0	45	0	361758720	60	9698
2026-01-30 14:07:32.90	197.54	8.80	-46.5	-48.0	18.4	0.00e+00	0	45	0	369098752	60	9809
2026-01-30 14:07:33.90	197.62	8.88	-46.4	-47.9	18.4	0.00e+00	0	45	0	376438784	60	9685
2026-01-30 14:07:34.91	197.69	8.95	-46.4	-47.9	18.4	0.00e+00	0	45	0	383778816	60	9687
2026-01-30 14:07:35.91	197.77	9.03	-46.4	-47.8	18.4	0.00e+00	0	45	0	391118848	60	9665
2026-01-30 14:07:36.92	197.85	9.10	-46.3	-47.8	18.4	0.00e+00	0	45	0	398458880	60	9608
2026-01-30 14:07:37.92	197.92	9.18	-46.5	-47.9	18.5	0.00e+00	0	45	0	405798912	60	9771
2026-01-30 14:07:38.93	198.00	9.26	-46.3	-47.7	18.6	0.00e+00	0	45	0	413138944	60	9524
2026-01-30 14:07:39.94	198.08	9.33	-46.4	-47.8	18.5	0.00e+00	0	45	0	420478976	60	9634
2026-01-30 14:07:40.94	198.15	9.41	-46.3	-47.7	18.6	0.00e+00	0	45	0	427819008	60	9509
2026-01-30 14:07:41.95	198.23	9.49	-46.4	-47.8	18.6	0.00e+00	0	45	0	435159040	60	9606
2026-01-30 14:07:42.96	198.31	9.57	-46.3	-47.7	18.6	0.00e+00	0	45	0	442499072	60	9515
2026-01-30 14:07:43.97	198.39	9.64	-46.1	-47.5	18.6	0.00e+00	0	45	0	449839104	60	9258
2026-01-30 14:07:44.97	198.47	9.72	-46.1	-47.5	18.7	0.00e+00	0	45	0	457179136	60	9243
2026-01-30 14:07:45.98	198.55	9.80	-46.1	-47.4	18.8	0.00e+00	0	45	0	464519168	60	9176
2026-01-30 14:07:46.99	198.63	9.88	-46.1	-47.5	18.8	0.00e+00	0	45	0	470810624	60	9303
2026-01-30 14:07:48.00	198.71	9.96	-46.0	-47.3	18.8	0.00e+00	0	45	0	478150656	60	9118
2026-01-30 14:07:49.00	198.79	10.03	-46.0	-47.3	18.8	0.00e+00	0	45	0	485490688	60	9086
2026-01-30 14:07:50.01	198.87	10.11	-46.0	-47.3	18.8	0.00e+00	0	45	0	492830720	60	9100
2026-01-30 14:07:51.02	198.96	10.19	-46.0	-47.3	18.9	0.00e+00	0	45	0	500170752	60	9111
2026-01-30 14:07:52.02	199.04	10.27	-46.1	-47.4	18.9	0.00e+00	0	45	0	507510784	60	9158
2026-01-30 14:07:53.02	199.12	10.35	-46.0	-47.4	18.9	0.00e+00	0	45	0	514850816	60	9143
2026-01-30 14:07:54.03	199.20	10.43	-46.0	-47.3	18.9	0.00e+00	0	45	0	522190848	60	9095
2026-01-30 14:07:55.03	199.29	10.51	-46.0	-47.3	19.0	0.00e+00	0	45	0	529530880	60	9124
2026-01-30 14:07:56.04	199.37	10.59	-46.0	-47.3	19.1	0.00e+00	0	45	0	536870912	60	9115
2026-01-30 14:07:57.05	199.46	10.67	-46.0	-47.3	19.1	0.00e+00	0	45	0	544210944	60	9073
2026-01-30 14:07:58.05	199.54	10.75	-46.1	-47.3	19.2	0.00e+00	0	45	0	551550976	60	9131
2026-01-30 14:07:59.05	199.63	10.83	-46.0	-47.3	19.2	0.00e+00	0	45	0	558891008	60	9061
2026-01-30 14:08:00.06	199.71	10.91	-46.2	-47.5	19.1	0.00e+00	0	45	0	566231040	60	9245
2026-01-30 14:08:01.06	199.80	10.99	-46.1	-47.4	19.1	0.00e+00	0	45	0	572522496	60	9200
2026-01-30 14:08:02.07	199.88	11.07	-46.3	-47.6	19.1	0.00e+00	0	45	0	579862528	60	9415
2026-01-30 14:08:03.07	199.97	11.15	-46.2	-47.5	19.1	0.00e+00	0	45	0	587202560	60	9301
2026-01-30 14:08:04.07	200.06	11.24	-46.7	-47.6	21.9	0.00e+00	0	45	0	594542592	60	9391
2026-01-30 14:08:05.08	200.15	11.32	-46.8	-47.7	21.8	0.00e+00	0	45	0	601882624	60	9461
2026-01-30 14:08:06.08	200.23	11.40	-46.8	-47.7	21.7	0.00e+00	0	45	0	609222656	60	9458
2026-01-30 14:08:07.09	200.32	11.48	-46.9	-47.7	21.7	0.00e+00	0	45	0	616562688	60	9548
2026-01-30 14:08:08.10	200.41	11.56	-46.6	-47.5	22.0	0.00e+00	0	45	0	623902720	60	9277
2026-01-30 14:08:09.11	200.50	11.65	-46.8	-47.6	21.9	0.00e+00	0	45	0	631242752	60	9410
2026-01-30 14:08:10.11	200.59	11.73	-46.8	-47.6	21.8	0.00e+00	0	45	0	637534208	60	9430
2026-01-30 14:08:11.12	200.68	11.81	-46.7	-47.5	21.9	0.00e+00	0	45	0	644874240	60	9309
2026-01-30 14:08:12.12	200.78	11.90	-46.7	-47.5	21.9	0.00e+00	0	45	0	653262848	60	9331
2026-01-30 14:08:13.13	200.87	11.98	-46.7	-47.6	21.9	0.00e+00	0	45	0	660602880	60	9355
2026-01-30 14:08:14.14	200.96	12.06	-46.7	-47.6	21.9	0.00e+00	0	45	0	667942912	60	9377
2026-01-30 14:08:15.15	201.05	12.15	-46.7	-47.6	21.9	0.00e+00	0	45	0	675282944	60	9381
2026-01-30 14:08:16.15	201.15	12.23	-46.7	-47.6	22.0	0.00e+00	0	45	0	681574400	60	9366
2026-01-30 14:08:17.15	201.24	12.32	-46.8	-47.6	21.9	0.00e+00	0	45	0	688914432	60	9403
2026-01-30 14:08:18.16	201.34	12.40	-46.8	-47.6	21.9	0.00e+00	0	45	0	696254464	60	9419
2026-01-30 14:08:19.17	201.43	12.49	-46.8	-47.7	21.9	0.00e+00	0	45	0	703594496	60	9479
2026-01-30 14:08:20.18	201.53	12.57	-46.8	-47.6	22.0	0.00e+00	0	45	0	710934528	60	9442
2026-01-30 14:08:21.18	201.62	12.66	-46.7	-47.5	22.1	0.00e+00	0	45	0	718274560	60	9286
2026-01-30 14:08:22.19	201.72	12.74	-46.7	-47.5	22.1	0.00e+00	0	45	0	725614592	60	9331
2026-01-30 14:08:23.20	201.82	12.83	-46.8	-47.6	22.0	0.00e+00	0	45	0	732954624	60	9383
2026-01-30 14:08:24.20	201.91	12.92	-46.7	-47.5	22.1	0.00e+00	0	45	0	740294656	60	9250
2026-01-30 14:08:25.20	202.01	13.00	-46.7	-47.6	22.1	0.00e+00	0	45	0	746586112	60	9348
2026-01-30 14:08:26.20	202.11	13.09	-46.7	-47.5	22.1	0.00e+00	0	45	0	753926144	60	9328
2026-01-30 14:08:27.21	202.21	13.17	-46.6	-47.4	22.3	0.00e+00	0	45	0	761266176	60	9171
2026-01-30 14:08:28.22	202.31	13.26	-46.6	-47.4	22.3	0.00e+00	0	45	0	768606208	60	9150
2026-01-30 14:08:29.22	202.41	13.35	-46.5	-47.3	22.4	0.00e+00	0	45	0	775946240	60	9110
2026-01-30 14:08:30.23	202.51	13.44	-46.5	-47.3	22.6	0.00e+00	0	45	0	784334848	60	9035
2026-01-30 14:08:31.24	202.61	13.52	-46.4	-47.2	22.5	0.00e+00	0	45	0	790626304	60	8985
2026-01-30 14:08:32.24	202.71	13.61	-46.5	-47.3	22.5	0.00e+00	0	45	0	797966336	60	9058
2026-01-30 14:08:33.25	202.82	13.70	-46.4	-47.2	22.5	0.00e+00	0	45	0	805306368	60	8944
2026-01-30 14:08:34.25	202.92	13.79	-46.3	-47.1	22.7	0.00e+00	0	45	0	812646400	60	8893
2026-01-30 14:08:35.26	203.02	13.88	-46.3	-47.1	22.6	0.00e+00	0	45	0	819986432	60	8878
2026-01-30 14:08:36.27	203.13	13.97	-46.3	-47.0	22.7	0.00e+00	0	45	0	827326464	60	8812
2026-01-30 14:08:37.27	203.23	14.06	-46.3	-47.0	22.7	0.00e+00	0	45	0	834666496	60	8809
2026-01-30 14:08:38.27	203.34	14.14	-46.3	-47.0	22.8	0.00e+00	0	45	0	842006528	60	8804
2026-01-30 14:08:39.28	203.45	14.23	-46.4	-47.2	22.6	0.00e+00	0	45	0	848297984	60	8976
2026-01-30 14:08:40.29	203.55	14.32	-46.4	-47.1	22.6	0.00e+00	0	45	0	855638016	60	8899
2026-01-30 14:08:41.30	203.66	14.42	-46.4	-47.2	22.6	0.00e+00	0	45	0	862978048	60	8961
2026-01-30 14:08:42.31	203.77	14.51	-46.2	-47.0	22.8	0.00e+00	0	45	0	870318080	60	8763
2026-01-30 14:08:43.32	203.88	14.60	-46.3	-47.0	22.7	0.00e+00	0	45	0	877658112	60	8812
2026-01-30 14:08:44.32	203.99	14.69	-46.3	-47.0	22.8	0.00e+00	0	45	0	886046720	60	8812
2026-01-30 14:08:45.33	204.10	14.78	-46.3	-47.1	22.7	0.00e+00	0	45	0	892338176	60	8866
2026-01-30 14:08:46.34	204.21	14.87	-46.3	-47.0	22.8	0.00e+00	0	45	0	899678208	60	8820
2026-01-30 14:08:47.35	204.32	14.96	-46.3	-47.1	22.8	0.00e+00	0	45	0	907018240	60	8832
2026-01-30 14:08:48.35	204.43	15.05	-46.3	-47.1	22.8	0.00e+00	0	45	0	914358272	60	8853
2026-01-30 14:08:49.36	204.55	15.15	-46.3	-47.1	22.8	0.00e+00	0	45	0	921698304	60	8866
2026-01-30 14:08:50.36	204.66	15.24	-46.2	-47.0	22.9	0.00e+00	0	45	0	929038336	60	8766
2026-01-30 14:08:51.37	204.77	15.33	-46.2	-46.9	22.9	0.00e+00	0	45	0	936378368	60	8713
2026-01-30 14:08:52.37	204.89	15.42	-46.2	-46.9	23.0	0.00e+00	0	45	0	943718400	60	8676
2026-01-30 14:08:53.38	205.00	15.52	-46.2	-46.9	22.9	0.00e+00	0	46	0	951058432	60	8650
2026-01-30 14:08:54.39	205.12	15.61	-46.2	-46.9	23.0	0.00e+00	0	45	0	957349888	60	8691
2026-01-30 14:08:55.39	205.24	15.70	-46.1	-46.8	23.0	0.00e+00	0	45	0	964689920	60	8618
2026-01-30 14:08:56.40	205.35	15.80	-46.2	-46.9	23.0	0.00e+00	0	45	0	972029952	60	8654
2026-01-30 14:08:57.41	205.47	15.89	-46.2	-46.9	23.0	0.00e+00	0	45	0	979369984	60	8690
2026-01-30 14:08:58.41	205.59	15.99	-46.2	-46.9	23.0	0.00e+00	0	45	0	986710016	60	8718
2026-01-30 14:08:59.42	205.71	16.08	-46.3	-47.0	23.1	0.00e+00	0	45	0	995098624	60	8768
2026-01-30 14:09:00.43	205.83	16.18	-46.2	-46.9	23.1	0.00e+00	0	45	0	1001390080	60	8684
2026-01-30 14:09:01.44	205.95	16.27	-46.3	-47.0	23.1	0.00e+00	0	45	0	1008730112	60	8808
2026-01-30 14:09:02.44	206.08	16.37	-46.3	-47.0	23.1	0.00e+00	0	45	0	1016070144	60	8793
2026-01-30 14:09:03.45	206.20	16.46	-46.3	-47.0	23.3	0.00e+00	0	45	0	1023410176	60	8760
2026-01-30 14:09:04.46	206.32	16.56	-46.4	-47.1	23.3	0.00e+00	0	45	0	1030750208	60	8848
2026-01-30 14:09:05.47	206.45	16.66	-46.4	-47.1	23.2	0.00e+00	0	45	0	1038090240	60	8867
2026-01-30 14:09:06.47	206.57	16.75	-46.2	-46.9	23.4	0.00e+00	0	45	0	1045430272	60	8704
2026-01-30 14:09:07.48	206.70	16.85	-46.3	-47.0	23.3	0.00e+00	0	46	0	1052770304	60	8757
2026-01-30 14:09:08.49	206.83	16.95	-46.2	-46.9	23.4	0.00e+00	0	45	0	1059061760	60	8677
2026-01-30 14:09:09.50	206.95	17.04	-46.3	-47.0	23.4	0.00e+00	0	45	0	1066401792	60	8744
2026-01-30 14:09:10.50	207.08	17.14	-46.1	-46.8	23.5	0.00e+00	0	45	0	1073741824	60	8568
2026-01-30 14:09:11.51	207.21	17.24	-46.0	-46.7	23.6	0.00e+00	0	45	0	1081081856	60	8507
2026-01-30 14:09:12.52	207.34	17.34	-46.0	-46.7	23.5	0.00e+00	0	45	0	1089470464	60	8481
2026-01-30 14:09:13.53	207.47	17.44	-46.1	-46.7	23.6	0.00e+00	0	45	0	1096810496	60	8511
2026-01-30 14:09:14.54	207.60	17.53	-46.1	-46.8	23.5	0.00e+00	0	45	0	1103101952	60	8575
2026-01-30 14:09:15.54	207.74	17.63	-46.2	-46.9	23.6	0.00e+00	0	45	0	1110441984	60	8660
2026-01-30 14:09:16.55	207.87	17.73	-46.2	-46.9	23.7	0.00e+00	0	45	0	1117782016	60	8700
2026-01-30 14:09:17.55	208.00	17.83	-46.1	-46.8	23.7	0.00e+00	0	46	0	1125122048	60	8574
2026-01-30 14:09:18.56	208.14	17.93	-46.2	-46.9	23.7	0.00e+00	0	45	0	1132462080	60	8673
2026-01-30 14:09:19.57	208.27	18.03	-46.4	-47.1	23.5	0.00e+00	0	46	0	1139802112	60	8832
2026-01-30 14:09:20.57	208.41	18.13	-46.1	-46.8	23.8	0.00e+00	0	45	0	1147142144	60	8564
2026-01-30 14:09:21.58	208.55	18.23	-46.2	-46.8	23.7	0.00e+00	0	45	0	1154482176	60	8614
2026-01-30 14:09:22.59	208.69	18.33	-46.1	-46.8	23.8	0.00e+00	0	45	0	1161822208	60	8547
2026-01-30 14:09:23.60	208.83	18.43	-46.2	-46.9	23.6	0.00e+00	0	46	0	1168113664	60	8676
2026-01-30 14:09:24.61	208.97	18.53	-46.2	-46.9	23.7	0.00e+00	0	45	0	1175453696	60	8658
2026-01-30 14:09:25.61	209.11	18.64	-46.0	-46.7	23.9	0.00e+00	0	45	0	1182793728	60	8451
2026-01-30 14:09:26.61	209.25	18.74	-46.2	-46.9	23.7	0.00e+00	0	46	0	1190133760	60	8623
2026-01-30 14:09:27.62	209.39	18.84	-46.1	-46.8	23.8	0.00e+00	0	45	0	1197473792	60	8544
2026-01-30 14:09:28.63	209.54	18.94	-46.1	-46.8	23.9	0.00e+00	0	45	0	1205862400	60	8535
2026-01-30 14:09:29.64	209.68	19.04	-46.2	-46.9	23.9	0.00e+00	0	45	0	1212153856	60	8628
2026-01-30 14:09:30.64	209.83	19.15	-46.1	-46.8	23.9	0.00e+00	0	45	0	1219493888	60	8559
2026-01-30 14:09:31.65	209.97	19.25	-46.2	-46.9	23.9	0.00e+00	0	45	0	1226833920	60	8639
2026-01-30 14:09:32.65	210.12	19.35	-46.4	-47.1	23.8	0.00e+00	0	45	0	1234173952	60	8842
2026-01-30 14:09:33.66	210.27	19.45	-46.4	-47.1	23.8	0.00e+00	0	45	0	1241513984	60	8830
2026-01-30 14:09:34.67	210.42	19.56	-46.4	-47.0	23.8	0.00e+00	0	45	0	1248854016	60	8820
2026-01-30 14:09:35.67	210.57	19.66	-46.3	-47.0	23.9	0.00e+00	0	45	0	1256194048	60	8749
2026-01-30 14:09:36.68	210.72	19.77	-46.5	-47.1	23.8	0.00e+00	0	45	0	1263534080	60	8901
2026-01-30 14:09:37.68	210.87	19.87	-46.2	-46.8	24.0	0.00e+00	0	45	0	1270874112	60	8587
2026-01-30 14:09:38.69	211.03	19.97	-46.2	-46.9	24.0	0.00e+00	0	45	0	1277165568	60	8670
2026-01-30 14:09:39.69	211.18	20.08	-46.0	-46.6	24.1	0.00e+00	0	45	0	1284505600	60	8417
2026-01-30 14:09:40.70	211.34	20.18	-46.0	-46.7	24.2	0.00e+00	0	45	0	1291845632	60	8490
2026-01-30 14:09:41.71	211.49	20.29	-45.9	-46.6	24.3	0.00e+00	0	45	0	1299185664	60	8375
2026-01-30 14:09:42.72	211.65	20.40	-45.9	-46.5	24.3	0.00e+00	0	45	0	1306525696	60	8306
2026-01-30 14:09:43.73	211.81	20.50	-46.0	-46.6	24.3	0.00e+00	0	45	0	1314914304	60	8394
2026-01-30 14:09:44.74	211.97	20.61	-45.9	-46.6	24.3	0.00e+00	0	45	0	1321205760	60	8365
2026-01-30 14:09:45.74	212.13	20.71	-45.9	-46.6	24.3	0.00e+00	0	45	0	1328545792	60	8374
2026-01-30 14:09:46.75	212.29	20.82	-46.0	-46.6	24.3	0.00e+00	0	45	0	1335885824	60	8374
2026-01-30 14:09:47.76	212.46	20.93	-46.1	-46.7	24.2	0.00e+00	0	45	0	1343225856	60	8508
2026-01-30 14:09:48.77	212.62	21.03	-45.9	-46.5	24.2	0.00e+00	0	45	0	1350565888	60	8291
2026-01-30 14:09:49.77	212.79	21.14	-46.0	-46.6	24.4	0.00e+00	0	45	0	1357905920	60	8389
2026-01-30 14:09:50.78	212.95	21.25	-45.9	-46.5	24.5	0.00e+00	0	45	0	1365245952	60	8295
2026-01-30 14:09:51.78	213.12	21.35	-45.9	-46.6	24.4	0.00e+00	0	45	0	1372585984	60	8335
2026-01-30 14:09:52.79	213.29	21.46	-45.9	-46.5	24.4	0.00e+00	0	45	0	1378877440	60	8271
2026-01-30 14:09:53.79	213.46	21.57	-45.9	-46.6	24.3	0.00e+00	0	46	0	1386217472	60	8335
2026-01-30 14:09:54.79	213.63	21.68	-45.9	-46.6	24.4	0.00e+00	0	45	0	1393557504	60	8356
2026-01-30 14:09:55.80	213.80	21.79	-45.9	-46.5	24.4	0.00e+00	0	45	0	1400897536	60	8297
2026-01-30 14:09:56.80	213.97	21.89	-45.9	-46.5	24.4	0.00e+00	0	45	0	1408237568	60	8276
2026-01-30 14:09:57.81	214.15	22.00	-45.9	-46.5	24.5	0.00e+00	0	45	0	1415577600	60	8313
2026-01-30 14:09:58.82	214.32	22.11	-45.9	-46.5	24.4	0.00e+00	0	45	0	1422917632	60	8307
2026-01-30 14:09:59.83	214.50	22.22	-45.9	-46.6	24.4	0.00e+00	0	45	0	1430257664	60	8341
2026-01-30 14:10:00.84	214.68	22.33	-45.9	-46.5	24.5	0.00e+00	0	45	0	1437597696	60	8304
2026-01-30 14:10:01.84	214.86	22.44	-46.0	-46.6	24.5	0.00e+00	0	45	0	1444937728	60	8379
2026-01-30 14:10:02.85	215.04	22.55	-45.9	-46.6	24.4	0.00e+00	0	45	0	1452277760	60	8345
2026-01-30 14:10:03.86	215.22	22.66	-46.1	-46.7	24.3	0.00e+00	0	45	0	1459617792	60	8513
2026-01-30 14:10:04.87	215.40	22.77	-46.1	-46.7	24.4	0.00e+00	0	45	0	1466957824	60	8488
2026-01-30 14:10:05.87	215.59	22.88	-46.1	-46.7	24.3	0.00e+00	0	45	0	1474297856	60	8483
2026-01-30 14:10:06.87	215.77	22.99	-45.8	-46.5	24.5	0.00e+00	0	45	0	1481637888	60	8258
2026-01-30 14:10:07.87	215.96	23.10	-45.8	-46.4	24.5	0.00e+00	0	46	0	1487929344	60	8228
2026-01-30 14:10:08.88	216.15	23.21	-45.7	-46.3	24.7	0.00e+00	0	45	0	1495269376	60	8109
2026-01-30 14:10:09.88	216.33	23.32	-45.6	-46.3	24.8	0.00e+00	0	45	0	1502609408	60	8051
2026-01-30 14:10:10.89	216.52	23.43	-45.6	-46.2	24.8	0.00e+00	0	45	0	1509949440	60	8032
2026-01-30 14:10:11.89	216.72	23.54	-45.6	-46.2	24.8	0.00e+00	0	45	0	1517289472	60	7992
2026-01-30 14:10:12.90	216.91	23.66	-45.5	-46.1	24.9	0.00e+00	0	45	0	1524629504	60	7898
2026-01-30 14:10:13.91	217.10	23.77	-45.6	-46.3	24.8	0.00e+00	0	45	0	1531969536	60	8050
2026-01-30 14:10:14.92	217.30	23.88	-45.7	-46.3	24.8	0.00e+00	0	45	0	1539309568	60	8104
2026-01-30 14:10:15.92	217.50	23.99	-45.5	-46.1	24.9	0.00e+00	0	45	0	1546649600	60	7917
2026-01-30 14:10:16.93	217.70	24.10	-45.4	-46.0	25.0	0.00e+00	0	45	0	1553989632	60	7814
2026-01-30 14:10:17.94	217.90	24.22	-45.6	-46.2	24.9	0.00e+00	0	45	0	1561329664	60	7955
2026-01-30 14:10:18.95	218.10	24.33	-45.5	-46.1	24.9	0.00e+00	0	45	0	1568669696	60	7953
2026-01-30 14:10:19.96	218.30	24.44	-45.3	-45.9	25.1	0.00e+00	0	45	0	1576009728	60	7735
2026-01-30 14:10:20.96	218.51	24.55	-45.3	-45.9	25.2	0.00e+00	0	46	0	1583349760	60	7699
2026-01-30 14:10:21.97	218.71	24.67	-45.3	-45.9	25.1	0.00e+00	0	45	0	1589641216	60	7741
2026-01-30 14:10:22.98	218.92	24.78	-45.4	-46.0	25.0	0.00e+00	0	45	0	1596981248	60	7853
2026-01-30 14:10:23.98	219.13	24.89	-45.3	-45.9	25.0	0.00e+00	0	45	0	1604321280	60	7744
2026-01-30 14:10:24.98	219.34	25.00	-45.5	-46.1	24.9	0.00e+00	0	45	0	1611661312	60	7880
2026-01-30 14:10:25.98	219.55	25.11	-45.5	-46.1	24.9	0.00e+00	0	45	0	1619001344	60	7953
2026-01-30 14:10:26.99	219.76	25.23	-45.6	-46.2	24.9	0.00e+00	0	45	0	1626341376	60	8025
2026-01-30 14:10:28.00	219.98	25.34	-45.6	-46.2	24.9	0.00e+00	0	45	0	1633681408	60	7971
2026-01-30 14:10:29.00	220.19	25.45	-45.7	-46.3	24.9	0.00e+00	0	45	0	1641021440	60	8066
2026-01-30 14:10:30.01	220.41	25.57	-45.6	-46.2	24.8	0.00e+00	0	45	0	1648361472	60	8008
2026-01-30 14:10:31.02	220.63	25.68	-45.4	-46.0	25.1	0.00e+00	0	45	0	1654652928	60	7833
2026-01-30 14:10:32.02	220.85	25.79	-45.5	-46.1	24.9	0.00e+00	0	45	0	1663041536	60	7943
2026-01-30 14:10:33.03	221.07	25.91	-45.7	-46.3	24.8	0.00e+00	0	45	0	1670381568	60	8065
2026-01-30 14:10:34.03	221.29	26.02	-45.5	-46.1	24.9	0.00e+00	0	45	0	1677721600	60	7904
2026-01-30 14:10:35.04	221.52	26.13	-45.5	-46.1	24.9	0.00e+00	0	45	0	1685061632	60	7908
2026-01-30 14:10:36.05	221.75	26.25	-45.5	-46.1	24.9	0.00e+00	0	45	0	1692401664	60	7915
2026-01-30 14:10:37.06	221.98	26.36	-45.5	-46.1	24.9	0.00e+00	0	46	0	1698693120	60	7916
2026-01-30 14:10:38.06	222.21	26.47	-45.6	-46.2	24.9	0.00e+00	0	46	0	1706033152	60	7968
2026-01-30 14:10:39.07	222.44	26.59	-45.4	-46.0	25.0	0.00e+00	0	45	0	1713373184	60	7836
2026-01-30 14:10:40.07	222.67	26.70	-45.4	-46.0	25.0	0.00e+00	0	45	0	1720713216	60	7797
2026-01-30 14:10:41.07	222.90	26.81	-45.6	-46.2	25.1	0.00e+00	0	45	0	1728053248	60	7985
2026-01-30 14:10:42.08	223.14	26.93	-45.5	-46.1	25.1	0.00e+00	0	45	0	1735393280	60	7947
2026-01-30 14:10:43.09	223.38	27.04	-45.2	-45.8	25.2	0.00e+00	0	45	0	1742733312	60	7673
2026-01-30 14:10:44.10	223.62	27.15	-45.2	-45.8	25.1	0.00e+00	0	45	0	1750073344	60	7654
2026-01-30 14:10:45.11	223.86	27.27	-45.3	-45.9	25.1	0.00e+00	0	45	0	1757413376	60	7717
2026-01-30 14:10:46.11	224.11	27.38	-45.2	-45.8	25.1	0.00e+00	0	45	0	1763704832	60	7655
2026-01-30 14:10:47.11	224.35	27.49	-45.2	-45.8	25.2	0.00e+00	0	45	0	1771044864	60	7614
2026-01-30 14:10:48.11	224.59	27.60	-45.2	-45.8	25.1	0.00e+00	0	45	0	1778384896	60	7649
2026-01-30 14:10:49.12	224.84	27.72	-45.1	-45.7	25.2	0.00e+00	0	45	0	1785724928	60	7561
2026-01-30 14:10:50.12	225.09	27.83	-45.1	-45.7	25.2	0.00e+00	0	45	0	1794113536	60	7568
2026-01-30 14:10:51.12	225.34	27.94	-45.1	-45.7	25.2	0.00e+00	0	45	0	1801453568	60	7525
2026-01-30 14:10:52.13	225.60	28.05	-45.0	-45.6	25.2	0.00e+00	0	45	0	1807745024	60	7503
2026-01-30 14:10:53.14	225.85	28.17	-45.1	-45.7	25.2	0.00e+00	0	45	0	1815085056	60	7540
2026-01-30 14:10:54.14	226.11	28.28	-45.0	-45.6	25.3	0.00e+00	0	45	0	1822425088	60	7460
2026-01-30 14:10:55.15	226.37	28.39	-45.0	-45.6	25.2	0.00e+00	0	46	0	1829765120	60	7424
2026-01-30 14:10:56.15	226.63	28.50	-45.0	-45.6	25.2	0.00e+00	0	45	0	1837105152	60	7431
2026-01-30 14:10:57.16	226.89	28.61	-44.9	-45.5	25.3	0.00e+00	0	45	0	1844445184	60	7364
2026-01-30 14:10:58.17	227.15	28.73	-45.0	-45.6	25.3	0.00e+00	0	45	0	1851785216	60	7472
2026-01-30 14:10:59.18	227.42	28.84	-44.9	-45.5	25.3	0.00e+00	0	46	0	1859125248	60	7398
2026-01-30 14:11:00.19	227.69	28.95	-45.0	-45.6	25.2	0.00e+00	0	45	0	1865416704	60	7450
2026-01-30 14:11:01.19	227.96	29.06	-44.9	-45.5	25.3	0.00e+00	0	46	0	1872756736	60	7373
2026-01-30 14:11:02.19	228.23	29.17	-44.9	-45.4	25.4	0.00e+00	0	45	0	1880096768	60	7324
2026-01-30 14:11:03.20	228.50	29.28	-44.9	-45.5	25.3	0.00e+00	0	45	0	1887436800	60	7400
2026-01-30 14:11:04.21	228.78	29.39	-45.1	-45.7	25.2	0.00e+00	0	45	0	1894776832	60	7544
2026-01-30 14:11:05.22	229.05	29.50	-45.1	-45.7	25.1	0.00e+00	0	46	0	1902116864	60	7525
2026-01-30 14:11:06.22	229.33	29.61	-45.2	-45.7	25.2	0.00e+00	0	46	0	1909456896	60	7580
2026-01-30 14:11:07.23	229.61	29.72	-45.1	-45.7	25.2	0.00e+00	0	45	0	1916796928	60	7562
2026-01-30 14:11:08.24	229.90	29.83	-45.0	-45.6	25.2	0.00e+00	0	45	0	1924136960	60	7476
2026-01-30 14:11:09.24	230.18	29.94	-45.0	-45.6	25.2	0.00e+00	0	45	0	1931476992	60	7464
2026-01-30 14:11:10.25	230.47	30.04	-45.0	-45.5	25.4	0.00e+00	0	45	0	1938817024	60	7421
2026-01-30 14:11:11.26	230.76	30.15	-44.8	-45.4	25.5	0.00e+00	0	45	0	1946157056	60	7294
2026-01-30 14:11:12.27	231.05	30.26	-44.8	-45.4	25.3	0.00e+00	0	45	0	1953497088	60	7312
2026-01-30 14:11:13.27	231.34	30.37	-44.9	-45.5	25.2	0.00e+00	0	45	0	1960837120	60	7382
2026-01-30 14:11:14.28	231.63	30.47	-44.9	-45.5	25.3	0.00e+00	0	45	0	1968177152	60	7346
2026-01-30 14:11:15.29	231.93	30.58	-44.9	-45.5	25.4	0.00e+00	0	45	0	1974468608	60	7370
2026-01-30 14:11:16.30	232.23	30.69	-44.8	-45.4	25.5	0.00e+00	0	45	0	1981808640	60	7271
2026-01-30 14:11:17.31	232.53	30.79	-44.7	-45.2	25.5	0.00e+00	0	45	0	1989148672	60	7159
2026-01-30 14:11:18.31	232.83	30.90	-44.6	-45.1	25.5	0.00e+00	0	45	0	1996488704	60	7080
2026-01-30 14:11:19.32	233.13	31.00	-44.7	-45.3	25.3	0.00e+00	0	46	0	2003828736	60	7191
2026-01-30 14:11:20.33	233.44	31.11	-44.7	-45.3	25.5	0.00e+00	0	46	0	2012217344	60	7174
2026-01-30 14:11:21.33	233.74	31.21	-44.8	-45.3	25.3	0.00e+00	0	45	0	2018508800	60	7242
2026-01-30 14:11:22.34	234.05	31.31	-44.7	-45.3	25.4	0.00e+00	0	45	0	2025848832	60	7216
2026-01-30 14:11:23.35	234.36	31.41	-44.9	-45.5	25.2	0.00e+00	0	45	0	2033188864	60	7394
2026-01-30 14:11:24.36	234.68	31.52	-44.9	-45.4	25.2	0.00e+00	0	46	0	2040528896	60	7335
2026-01-30 14:11:25.36	234.99	31.62	-44.9	-45.5	25.2	0.00e+00	0	45	0	2047868928	60	7373
2026-01-30 14:11:26.37	235.31	31.72	-44.8	-45.4	25.3	0.00e+00	0	45	0	2055208960	60	7288
2026-01-30 14:11:27.38	235.63	31.82	-44.9	-45.5	25.2	0.00e+00	0	45	0	2062548992	60	7348
2026-01-30 14:11:28.39	235.95	31.92	-44.8	-45.4	25.3	0.00e+00	0	45	0	2069889024	60	7257
2026-01-30 14:11:29.39	236.27	32.02	-44.9	-45.5	25.2	0.00e+00	0	45	0	2077229056	60	7352
2026-01-30 14:11:30.40	236.60	32.11	-44.7	-45.3	25.3	0.00e+00	0	45	0	2083520512	60	7228
2026-01-30 14:11:31.41	236.92	32.21	-44.7	-45.3	25.3	0.00e+00	0	45	0	2090860544	60	7204
2026-01-30 14:11:32.41	237.25	32.31	-44.7	-45.2	25.4	0.00e+00	0	45	0	2098200576	60	7161
2026-01-30 14:11:33.42	237.58	32.40	-44.6	-45.2	25.4	0.00e+00	0	45	0	2106589184	60	7108
2026-01-30 14:11:34.43	237.92	32.50	-45.4	-46.0	25.5	0.00e+00	0	45	0	2113929216	60	7807
2026-01-30 14:11:35.44	238.25	32.59	-45.2	-45.8	25.4	0.00e+00	0	45	0	2120220672	60	7643
2026-01-30 14:11:36.44	238.58	32.69	-45.0	-45.6	25.6	0.00e+00	0	45	0	2127560704	60	7460
2026-01-30 14:11:37.45	238.92	32.78	-45.0	-45.5	25.6	0.00e+00	0	45	0	2134900736	60	7397
2026-01-30 14:11:38.45	239.26	32.87	-44.9	-45.5	25.5	0.00e+00	0	45	0	2142240768	60	7363
2026-01-30 14:11:39.46	239.60	32.96	-44.9	-45.5	25.5	0.00e+00	0	45	0	2149580800	60	7352
2026-01-30 14:11:40.47	239.95	33.05	-44.9	-45.5	25.5	0.00e+00	0	45	0	2156920832	60	7401
2026-01-30 14:11:41.47	240.29	33.14	-45.0	-45.6	25.5	0.00e+00	0	45	0	2164260864	60	7455
2026-01-30 14:11:42.48	240.64	33.23	-44.9	-45.5	25.5	0.00e+00	0	45	0	2171600896	60	7403
2026-01-30 14:11:43.49	240.99	33.32	-44.9	-45.5	25.4	0.00e+00	0	45	0	2178940928	60	7391
2026-01-30 14:11:44.50	241.34	33.41	-44.9	-45.4	25.5	0.00e+00	0	45	0	2185232384	60	7320
2026-01-30 14:11:45.51	241.70	33.49	-44.9	-45.4	25.5	0.00e+00	0	45	0	2192572416	60	7318
2026-01-30 14:11:46.50	242.05	33.58	-44.9	-45.5	25.4	0.00e+00	0	45	0	2199912448	60	7345
2026-01-30 14:11:47.51	242.40	33.66	-45.0	-45.6	25.3	0.00e+00	0	45	0	2207252480	60	7489
2026-01-30 14:11:48.52	242.76	33.75	-45.1	-45.6	25.3	0.00e+00	0	45	0	2215641088	60	7489
2026-01-30 14:11:49.52	243.12	33.83	-44.8	-45.4	25.4	0.00e+00	0	45	0	2222981120	60	7276
2026-01-30 14:11:50.53	243.48	33.91	-44.9	-45.4	25.5	0.00e+00	0	45	0	2229272576	60	7310
2026-01-30 14:11:51.54	243.85	33.99	-44.9	-45.5	25.4	0.00e+00	0	45	0	2236612608	60	7348
2026-01-30 14:11:52.54	244.21	34.07	-45.1	-45.7	25.3	0.00e+00	0	45	0	2243952640	60	7515
2026-01-30 14:11:53.55	244.58	34.14	-45.2	-45.8	25.2	0.00e+00	0	45	0	2251292672	60	7597
2026-01-30 14:11:54.55	244.95	34.22	-45.1	-45.7	25.2	0.00e+00	0	45	0	2258632704	60	7546
2026-01-30 14:11:55.55	245.31	34.30	-45.1	-45.7	25.2	0.00e+00	0	45	0	2265972736	60	7550
2026-01-30 14:11:56.56	245.69	34.37	-45.1	-45.6	25.3	0.00e+00	0	45	0	2273312768	60	7487
2026-01-30 14:11:57.57	246.06	34.44	-45.1	-45.6	25.3	0.00e+00	0	46	0	2280652800	60	7498
2026-01-30 14:11:58.57	246.44	34.52	-45.0	-45.6	25.2	0.00e+00	0	45	0	2287992832	60	7471
2026-01-30 14:11:59.58	246.81	34.59	-45.1	-45.7	25.3	0.00e+00	0	45	0	2294284288	60	7518
2026-01-30 14:12:00.58	247.19	34.66	-45.1	-45.7	25.2	0.00e+00	0	46	0	2301624320	60	7567
2026-01-30 14:12:01.59	247.57	34.73	-45.2	-45.8	25.0	0.00e+00	0	46	0	2308964352	60	7658
2026-01-30 14:12:02.59	247.95	34.79	-45.0	-45.6	25.3	0.00e+00	0	46	0	2316304384	60	7454
2026-01-30 14:12:03.60	248.34	34.86	-45.1	-45.7	25.2	0.00e+00	0	45	0	2323644416	60	7516
2026-01-30 14:12:04.60	248.72	34.92	-44.8	-45.3	25.5	0.00e+00	0	45	0	2330984448	60	7221
2026-01-30 14:12:05.61	249.11	34.99	-44.8	-45.4	25.5	0.00e+00	0	45	0	2338324480	60	7258
2026-01-30 14:12:06.61	249.49	35.05	-44.8	-45.4	25.5	0.00e+00	0	45	0	2345664512	60	7287
2026-01-30 14:12:07.62	249.88	35.11	-44.8	-45.4	25.4	0.00e+00	0	45	0	2351955968	60	7297
2026-01-30 14:12:08.63	250.27	35.17	-44.7	-45.3	25.5	0.00e+00	0	45	0	2360344576	60	7210
2026-01-30 14:12:09.63	250.66	35.23	-44.7	-45.3	25.5	0.00e+00	0	45	0	2367684608	60	7172
2026-01-30 14:12:10.63	251.05	35.28	-44.6	-45.2	25.5	0.00e+00	0	45	0	2375024640	60	7100
2026-01-30 14:12:11.63	251.45	35.34	-44.7	-45.3	25.6	0.00e+00	0	45	0	2382364672	60	7208
2026-01-30 14:12:12.64	251.84	35.39	-44.8	-45.4	25.4	0.00e+00	0	45	0	2389704704	60	7292
2026-01-30 14:12:13.64	252.24	35.44	-45.0	-45.5	25.3	0.00e+00	0	45	0	2395996160	60	7411
2026-01-30 14:12:14.64	252.63	35.50	-44.8	-45.4	25.4	0.00e+00	0	45	0	2403336192	60	7272
2026-01-30 14:12:15.65	253.03	35.55	-44.9	-45.5	25.4	0.00e+00	0	45	0	2410676224	60	7370
2026-01-30 14:12:16.65	253.43	35.59	-44.9	-45.5	25.4	0.00e+00	0	45	0	2418016256	60	7369
2026-01-30 14:12:17.66	253.84	35.64	-44.7	-45.2	25.6	0.00e+00	0	45	0	2425356288	60	7126
2026-01-30 14:12:18.67	254.24	35.69	-44.8	-45.4	25.5	0.00e+00	0	45	0	2432696320	60	7265
2026-01-30 14:12:19.68	254.65	35.73	-44.6	-45.2	25.6	0.00e+00	0	45	0	2440036352	60	7116
2026-01-30 14:12:20.69	255.05	35.77	-44.4	-45.0	25.8	0.00e+00	0	45	0	2447376384	60	6931
2026-01-30 14:12:21.69	255.46	35.81	-44.3	-44.9	25.8	0.00e+00	0	45	0	2454716416	60	6880
2026-01-30 14:12:22.70	255.87	35.85	-44.5	-45.1	25.5	0.00e+00	0	45	0	2461007872	60	7041
2026-01-30 14:12:23.70	256.27	35.89	-44.5	-45.1	25.7	0.00e+00	0	45	0	2468347904	60	7035
2026-01-30 14:12:24.71	256.68	35.93	-44.6	-45.1	25.6	0.00e+00	0	45	0	2475687936	60	7078
2026-01-30 14:12:25.71	257.09	35.96	-44.6	-45.2	25.5	0.00e+00	0	45	0	2483027968	60	7123
2026-01-30 14:12:26.71	257.50	35.99	-44.7	-45.2	25.6	0.00e+00	0	45	0	2490368000	60	7146
2026-01-30 14:12:27.72	257.91	36.02	-44.6	-45.2	25.5	0.00e+00	0	45	0	2498756608	60	7109
2026-01-30 14:12:28.73	258.32	36.05	-44.7	-45.2	25.5	0.00e+00	0	45	0	2505048064	60	7141
2026-01-30 14:12:29.74	258.74	36.08	-44.6	-45.2	25.6	0.00e+00	0	45	0	2512388096	60	7109
2026-01-30 14:12:30.75	259.15	36.11	-44.7	-45.2	25.5	0.00e+00	0	45	0	2519728128	60	7162
2026-01-30 14:12:31.75	259.56	36.13	-44.8	-45.3	25.4	0.00e+00	0	45	0	2527068160	60	7221
2026-01-30 14:12:32.76	259.98	36.16	-44.8	-45.4	25.3	0.00e+00	0	45	0	2534408192	60	7291
2026-01-30 14:12:33.76	260.39	36.18	-45.0	-45.6	25.2	0.00e+00	0	45	0	2541748224	60	7440
2026-01-30 14:12:34.77	260.81	36.20	-44.7	-45.3	25.5	0.00e+00	0	45	0	2549088256	60	7217
2026-01-30 14:12:35.77	261.23	36.22	-44.6	-45.2	25.6	0.00e+00	0	46	0	2556428288	60	7132
2026-01-30 14:12:36.77	261.64	36.23	-44.6	-45.1	25.6	0.00e+00	0	46	0	2563768320	60	7087
2026-01-30 14:12:37.77	262.05	36.25	-44.4	-45.0	25.7	0.00e+00	0	46	0	2570059776	60	6956
2026-01-30 14:12:38.78	262.47	36.26	-44.6	-45.1	25.8	0.00e+00	0	45	0	2577399808	60	7084
2026-01-30 14:12:39.79	262.89	36.27	-44.4	-45.0	25.7	0.00e+00	0	45	0	2584739840	60	6931
2026-01-30 14:12:40.80	263.31	36.28	-44.7	-45.3	25.6	0.00e+00	0	45	0	2592079872	60	7202
2026-01-30 14:12:41.80	263.73	36.29	-44.8	-45.3	25.6	0.00e+00	0	45	0	2599419904	60	7234
2026-01-30 14:12:42.81	264.15	36.30	-44.9	-45.4	25.6	0.00e+00	0	45	0	2606759936	60	7325
2026-01-30 14:12:43.82	264.57	36.30	-44.7	-45.3	25.5	0.00e+00	0	45	0	2614099968	60	7187
2026-01-30 14:12:44.82	264.98	36.31	-44.8	-45.4	25.5	0.00e+00	0	45	0	2621440000	60	7314
2026-01-30 14:12:45.83	265.40	36.31	-45.0	-45.6	25.4	0.00e+00	0	45	0	2628780032	60	7482
2026-01-30 14:12:46.84	265.83	36.31	-45.2	-45.7	25.2	0.00e+00	0	45	0	2636120064	60	7585
2026-01-30 14:12:47.84	266.24	36.31	-45.1	-45.7	25.3	0.00e+00	0	45	0	2643460096	60	7559
2026-01-30 14:12:48.85	266.66	36.31	-44.9	-45.5	25.5	0.00e+00	0	45	0	2650800128	60	7405
2026-01-30 14:12:49.86	267.08	36.30	-45.0	-45.6	25.4	0.00e+00	0	45	0	2658140160	60	7426
2026-01-30 14:12:50.87	267.50	36.29	-44.8	-45.4	25.5	0.00e+00	0	45	0	2665480192	60	7289
2026-01-30 14:12:51.87	267.92	36.28	-44.9	-45.5	25.5	0.00e+00	0	45	0	2671771648	60	7349
2026-01-30 14:12:52.88	268.34	36.27	-44.8	-45.4	25.4	0.00e+00	0	45	0	2679111680	60	7274
2026-01-30 14:12:53.89	268.76	36.26	-45.0	-45.6	25.3	0.00e+00	0	45	0	2686451712	60	7462
2026-01-30 14:12:54.89	269.17	36.25	-45.0	-45.6	25.3	0.00e+00	0	45	0	2693791744	60	7431
2026-01-30 14:12:55.90	269.59	36.23	-44.9	-45.5	25.4	0.00e+00	0	45	0	2701131776	60	7373
2026-01-30 14:12:56.91	270.01	36.22	-44.8	-45.3	25.4	0.00e+00	0	45	0	2708471808	60	7240
2026-01-30 14:12:57.91	270.42	36.20	-44.8	-45.3	25.5	0.00e+00	0	45	0	2715811840	60	7226
2026-01-30 14:12:58.92	270.84	36.18	-44.8	-45.4	25.6	0.00e+00	0	45	0	2723151872	60	7310
2026-01-30 14:12:59.93	271.26	36.16	-45.0	-45.6	25.6	0.00e+00	0	45	0	2730491904	60	7426
2026-01-30 14:13:00.93	271.67	36.13	-45.1	-45.7	25.5	0.00e+00	0	45	0	2737831936	60	7540
2026-01-30 14:13:01.94	272.08	36.11	-44.9	-45.5	25.6	0.00e+00	0	45	0	2745171968	60	7381
2026-01-30 14:13:02.95	272.50	36.08	-44.9	-45.5	25.6	0.00e+00	0	45	0	2752512000	60	7412
2026-01-30 14:13:03.96	272.91	36.05	-44.9	-45.5	25.6	0.00e+00	0	46	0	2759852032	60	7352
2026-01-30 14:13:04.96	273.32	36.03	-44.8	-45.4	25.6	0.00e+00	0	45	0	2767192064	60	7290
2026-01-30 14:13:05.97	273.73	35.99	-44.8	-45.4	25.6	0.00e+00	0	45	0	2774532096	60	7312
2026-01-30 14:13:06.98	274.15	35.96	-44.8	-45.4	25.7	0.00e+00	0	45	0	2780823552	60	7283
2026-01-30 14:13:07.99	274.56	35.93	-44.9	-45.5	25.6	0.00e+00	0	46	0	2788163584	60	7392
2026-01-30 14:13:08.99	274.96	35.89	-45.1	-45.7	25.5	0.00e+00	0	45	0	2795503616	60	7527
2026-01-30 14:13:10.00	275.37	35.85	-45.0	-45.6	25.5	0.00e+00	0	45	0	2802843648	60	7457
2026-01-30 14:13:11.00	275.78	35.81	-45.1	-45.8	25.4	0.00e+00	0	45	0	2810183680	60	7619
2026-01-30 14:13:12.01	276.18	35.77	-45.1	-45.7	25.5	0.00e+00	0	45	0	2817523712	60	7556
2026-01-30 14:13:13.01	276.59	35.73	-45.1	-45.7	25.5	0.00e+00	0	45	0	2824863744	60	7587
2026-01-30 14:13:14.01	276.99	35.69	-45.0	-45.6	25.6	0.00e+00	0	46	0	2832203776	60	7484
2026-01-30 14:13:15.02	277.39	35.64	-44.9	-45.5	25.5	0.00e+00	0	45	0	2838495232	60	7408
2026-01-30 14:13:16.02	277.79	35.60	-44.7	-45.3	25.6	0.00e+00	0	45	0	2846883840	60	7248
2026-01-30 14:13:17.03	278.19	35.55	-44.7	-45.3	25.6	0.00e+00	0	45	0	2854223872	60	7225
2026-01-30 14:13:18.04	278.59	35.50	-44.8	-45.4	25.6	0.00e+00	0	45	0	2861563904	60	7300
2026-01-30 14:13:19.05	278.99	35.45	-44.8	-45.5	25.5	0.00e+00	0	45	0	2868903936	60	7379
2026-01-30 14:13:20.05	279.39	35.39	-45.0	-45.6	25.4	0.00e+00	0	45	0	2876243968	60	7488
2026-01-30 14:13:21.06	279.78	35.34	-45.0	-45.7	25.3	0.00e+00	0	45	0	2882535424	60	7545
2026-01-30 14:13:22.07	280.18	35.28	-45.2	-45.9	25.2	0.00e+00	0	45	0	2889875456	60	7698
2026-01-30 14:13:23.08	280.57	35.23	-45.1	-45.8	25.4	0.00e+00	0	45	0	2897215488	60	7615
2026-01-30 14:13:24.09	280.97	35.17	-45.0	-45.6	25.6	0.00e+00	0	45	0	2904555520	60	7475
2026-01-30 14:13:25.09	281.35	35.11	-45.0	-45.7	25.6	0.00e+00	0	45	0	2911895552	60	7513
2026-01-30 14:13:26.10	281.74	35.05	-45.1	-45.7	25.4	0.00e+00	0	45	0	2919235584	60	7556
2026-01-30 14:13:27.11	282.13	34.99	-45.1	-45.7	25.4	0.00e+00	0	45	0	2926575616	60	7578
2026-01-30 14:13:28.12	282.52	34.92	-45.2	-45.9	25.3	0.00e+00	0	45	0	2933915648	60	7716
2026-01-30 14:13:29.12	282.90	34.86	-45.3	-46.0	25.4	0.00e+00	0	45	0	2941255680	60	7808
2026-01-30 14:13:30.13	283.28	34.79	-45.2	-45.9	25.3	0.00e+00	0	46	0	2948595712	60	7685
2026-01-30 14:13:31.13	283.66	34.73	-45.2	-45.9	25.3	0.00e+00	0	46	0	2955935744	60	7716
2026-01-30 14:13:32.14	284.04	34.66	-45.3	-45.9	25.3	0.00e+00	0	46	0	2963275776	60	7756
2026-01-30 14:13:33.15	284.42	34.59	-45.6	-46.2	25.1	0.00e+00	0	45	0	2970615808	60	8012
2026-01-30 14:13:34.15	284.80	34.52	-45.4	-46.1	25.2	0.00e+00	0	46	0	2977955840	60	7896
2026-01-30 14:13:35.16	285.17	34.45	-45.4	-46.1	25.2	0.00e+00	0	45	0	2985295872	60	7880
2026-01-30 14:13:36.16	285.54	34.37	-45.6	-46.2	25.1	0.00e+00	0	45	0	2991587328	60	8033
2026-01-30 14:13:37.16	285.91	34.30	-45.6	-46.2	25.2	0.00e+00	0	45	0	2998927360	60	7980
2026-01-30 14:13:38.17	286.28	34.22	-45.6	-46.2	25.2	0.00e+00	0	45	0	3006267392	60	8008
2026-01-30 14:13:39.18	286.65	34.15	-45.5	-46.1	25.4	0.00e+00	0	45	0	3013607424	60	7904
2026-01-30 14:13:40.18	287.02	34.07	-45.4	-46.0	25.3	0.00e+00	0	45	0	3020947456	60	7841
2026-01-30 14:13:41.19	287.38	33.99	-45.4	-46.1	25.4	0.00e+00	0	45	0	3028287488	60	7876
2026-01-30 14:13:42.19	287.74	33.91	-45.4	-46.1	25.4	0.00e+00	0	45	0	3035627520	60	7904
2026-01-30 14:13:43.20	288.10	33.83	-45.5	-46.2	25.3	0.00e+00	0	45	0	3042967552	60	7973
2026-01-30 14:13:44.20	288.46	33.75	-45.4	-46.2	25.4	0.00e+00	0	45	0	3049259008	60	7965
2026-01-30 14:13:45.21	288.82	33.67	-45.5	-46.2	25.4	0.00e+00	0	45	0	3056599040	60	8004
2026-01-30 14:13:46.21	289.17	33.58	-45.3	-46.0	25.5	0.00e+00	0	45	0	3063939072	60	7862
2026-01-30 14:13:47.22	289.53	33.50	-45.3	-46.0	25.5	0.00e+00	0	45	0	3071279104	60	7775
2026-01-30 14:13:48.22	289.88	33.41	-45.2	-45.9	25.5	0.00e+00	0	45	0	3079667712	60	7760
2026-01-30 14:13:49.23	290.23	33.33	-45.4	-46.1	25.4	0.00e+00	0	45	0	3087007744	60	7914
2026-01-30 14:13:50.23	290.58	33.24	-45.5	-46.2	25.2	0.00e+00	0	45	0	3093299200	60	7969
2026-01-30 14:13:51.24	290.92	33.15	-45.5	-46.2	25.2	0.00e+00	0	45	0	3100639232	60	8037
2026-01-30 14:13:52.25	291.27	33.06	-45.7	-46.4	25.1	0.00e+00	0	45	0	3107979264	60	8182
2026-01-30 14:13:53.26	291.61	32.97	-45.7	-46.4	25.1	0.00e+00	0	45	0	3115319296	60	8186
2026-01-30 14:13:54.27	291.96	32.88	-45.5	-46.2	25.2	0.00e+00	0	45	0	3122659328	60	7999
2026-01-30 14:13:55.27	292.29	32.79	-45.6	-46.2	25.3	0.00e+00	0	45	0	3129999360	60	8028
2026-01-30 14:13:56.27	292.63	32.70	-45.5	-46.1	25.3	0.00e+00	0	45	0	3137339392	60	7901
2026-01-30 14:13:57.28	292.96	32.60	-45.6	-46.2	25.3	0.00e+00	0	45	0	3144679424	60	7979
2026-01-30 14:13:58.28	293.30	32.51	-45.5	-46.1	25.4	0.00e+00	0	45	0	3152019456	60	7943
2026-01-30 14:13:59.29	293.63	32.41	-45.6	-46.1	25.3	0.00e+00	0	45	0	3158310912	60	7951
2026-01-30 14:14:00.29	293.96	32.32	-45.4	-46.0	25.4	0.00e+00	0	45	0	3165650944	60	7835
2026-01-30 14:14:01.30	294.28	32.22	-45.5	-46.1	25.3	0.00e+00	0	45	0	3172990976	60	7932
2026-01-30 14:14:02.31	294.61	32.13	-45.6	-46.2	25.1	0.00e+00	0	45	0	3180331008	60	8011
2026-01-30 14:14:03.31	294.93	32.03	-45.6	-46.2	25.2	0.00e+00	0	45	0	3187671040	60	7974
2026-01-30 14:14:04.32	295.26	31.93	-45.7	-46.3	25.1	0.00e+00	0	45	0	3196059648	60	8094
2026-01-30 14:14:05.33	295.58	31.83	-45.6	-46.3	25.2	0.00e+00	0	45	0	3202351104	60	8056
2026-01-30 14:14:06.34	295.90	31.73	-45.7	-46.3	25.1	0.00e+00	0	45	0	3209691136	60	8115
2026-01-30 14:14:07.35	296.21	31.63	-45.7	-46.3	25.1	0.00e+00	0	45	0	3217031168	60	8086
2026-01-30 14:14:08.35	296.53	31.53	-45.7	-46.3	25.1	0.00e+00	0	45	0	3224371200	60	8125
2026-01-30 14:14:09.36	296.84	31.43	-45.5	-46.2	25.2	0.00e+00	0	45	0	3231711232	60	7956
2026-01-30 14:14:10.36	297.15	31.33	-45.6	-46.2	25.1	0.00e+00	0	45	0	3239051264	60	8024
2026-01-30 14:14:11.37	297.46	31.22	-45.4	-46.1	25.2	0.00e+00	0	45	0	3246391296	60	7887
2026-01-30 14:14:12.36	297.76	31.12	-45.4	-46.0	25.3	0.00e+00	0	45	0	3253731328	60	7819
2026-01-30 14:14:13.36	298.06	31.02	-45.3	-46.0	25.4	0.00e+00	0	45	0	3261071360	60	7812
2026-01-30 14:14:14.36	298.36	30.92	-45.3	-46.0	25.2	0.00e+00	0	45	0	3267362816	60	7812
2026-01-30 14:14:15.37	298.66	30.81	-45.4	-46.1	25.2	0.00e+00	0	45	0	3274702848	60	7903
2026-01-30 14:14:16.37	298.96	30.71	-45.3	-46.0	25.3	0.00e+00	0	45	0	3282042880	60	7824
2026-01-30 14:14:17.38	299.26	30.60	-45.4	-46.1	25.2	0.00e+00	0	45	0	3289382912	60	7915
2026-01-30 14:14:18.39	299.55	30.50	-45.4	-46.1	25.2	0.00e+00	0	45	0	3296722944	60	7946
2026-01-30 14:14:19.39	299.85	30.39	-45.4	-46.1	25.2	0.00e+00	0	45	0	3304062976	60	7921
2026-01-30 14:14:20.39	300.13	30.29	-45.4	-46.0	25.2	0.00e+00	0	46	0	3311403008	60	7851
2026-01-30 14:14:21.40	300.43	30.18	-45.4	-46.0	25.1	0.00e+00	0	46	0	3318743040	60	7825
2026-01-30 14:14:22.41	300.71	30.07	-45.4	-46.0	25.1	0.00e+00	0	45	0	3325034496	60	7839
2026-01-30 14:14:23.41	301.00	29.96	-45.5	-46.1	25.1	0.00e+00	0	45	0	3332374528	60	7904
2026-01-30 14:14:24.42	301.28	29.86	-45.6	-46.2	25.0	0.00e+00	0	45	0	3340763136	60	7970
2026-01-30 14:14:25.42	301.56	29.75	-45.6	-46.2	24.9	0.00e+00	0	46	0	3347054592	60	8021
2026-01-30 14:14:26.43	301.84	29.64	-45.6	-46.2	25.0	0.00e+00	0	45	0	3355443200	60	8043
2026-01-30 14:14:27.44	302.12	29.53	-45.7	-46.3	24.9	0.00e+00	0	45	0	3362783232	60	8072
2026-01-30 14:14:28.44	302.40	29.42	-45.6	-46.2	25.0	0.00e+00	0	45	0	3369074688	60	7968
2026-01-30 14:14:29.45	302.67	29.31	-45.6	-46.2	24.9	0.00e+00	0	45	0	3376414720	60	8021
2026-01-30 14:14:30.45	302.94	29.20	-45.6	-46.2	25.0	0.00e+00	0	45	0	3383754752	60	8012
2026-01-30 14:14:31.46	303.22	29.09	-45.4	-46.0	25.2	0.00e+00	0	45	0	3391094784	60	7794
2026-01-30 14:14:32.46	303.48	28.98	-45.5	-46.1	25.1	0.00e+00	0	45	0	3398434816	60	7868
2026-01-30 14:14:33.47	303.75	28.87	-45.3	-45.9	25.3	0.00e+00	0	45	0	3405774848	60	7691
2026-01-30 14:14:34.47	304.01	28.76	-45.3	-46.0	25.1	0.00e+00	0	45	0	3413114880	60	7777
2026-01-30 14:14:35.47	304.28	28.65	-45.4	-46.1	25.1	0.00e+00	0	45	0	3420454912	60	7877
2026-01-30 14:14:36.48	304.54	28.54	-45.6	-46.2	24.9	0.00e+00	0	45	0	3427794944	60	8004
2026-01-30 14:14:37.48	304.80	28.43	-45.5	-46.2	25.0	0.00e+00	0	45	0	3434086400	60	7980
2026-01-30 14:14:38.48	305.05	28.32	-45.6	-46.3	24.8	0.00e+00	0	45	0	3441426432	60	8070
2026-01-30 14:14:39.49	305.31	28.21	-45.7	-46.4	24.8	0.00e+00	0	45	0	3448766464	60	8159
2026-01-30 14:14:40.49	305.56	28.09	-45.7	-46.4	24.7	0.00e+00	0	45	0	3456106496	60	8185
2026-01-30 14:14:41.50	305.82	27.98	-45.7	-46.3	24.7	0.00e+00	0	45	0	3463446528	60	8136
2026-01-30 14:14:42.51	306.07	27.87	-45.6	-46.3	24.8	0.00e+00	0	45	0	3470786560	60	8089
2026-01-30 14:14:43.52	306.32	27.76	-45.5	-46.2	24.7	0.00e+00	0	46	0	3478126592	60	7988
2026-01-30 14:14:44.52	306.57	27.65	-45.5	-46.1	24.9	0.00e+00	0	46	0	3485466624	60	7939
2026-01-30 14:14:45.53	306.81	27.53	-45.4	-46.0	25.0	0.00e+00	0	46	0	3492806656	60	7860
2026-01-30 14:14:46.54	307.06	27.42	-45.4	-46.0	25.0	0.00e+00	0	46	0	3500146688	60	7788
2026-01-30 14:14:47.55	307.30	27.31	-45.3	-45.9	25.0	0.00e+00	0	45	0	3507486720	60	7701
2026-01-30 14:14:48.55	307.54	27.20	-45.3	-45.9	25.0	0.00e+00	0	45	0	3514826752	60	7689
2026-01-30 14:14:49.56	307.78	27.08	-45.3	-45.8	25.0	0.00e+00	0	45	0	3522166784	60	7682
2026-01-30 14:14:50.57	308.02	26.97	-45.4	-46.0	24.8	0.00e+00	0	45	0	3529506816	60	7791
2026-01-30 14:14:51.58	308.26	26.86	-45.4	-46.1	24.9	0.00e+00	0	45	0	3535798272	60	7868
2026-01-30 14:14:52.58	308.49	26.74	-45.5	-46.1	24.7	0.00e+00	0	45	0	3543138304	60	7937
2026-01-30 14:14:53.59	308.73	26.63	-45.6	-46.3	24.5	0.00e+00	0	45	0	3550478336	60	8052
2026-01-30 14:14:54.60	308.96	26.52	-45.6	-46.3	24.4	0.00e+00	0	45	0	3557818368	60	8070
2026-01-30 14:14:55.60	309.19	26.41	-45.8	-46.4	24.3	0.00e+00	0	45	0	3565158400	60	8170
2026-01-30 14:14:56.61	309.42	26.29	-45.7	-46.4	24.3	0.00e+00	0	45	0	3572498432	60	8146
2026-01-30 14:14:57.61	309.64	26.18	-45.6	-46.2	24.4	0.00e+00	0	45	0	3579838464	60	8040
2026-01-30 14:14:58.62	309.87	26.07	-45.6	-46.3	24.3	0.00e+00	0	46	0	3587178496	60	8059
2026-01-30 14:14:59.63	310.09	25.95	-45.7	-46.4	24.2	0.00e+00	0	46	0	3594518528	60	8180
2026-01-30 14:15:00.63	310.31	25.84	-45.7	-46.3	24.3	0.00e+00	0	46	0	3601858560	60	8095
2026-01-30 14:15:01.64	310.53	25.73	-45.6	-46.3	24.3	0.00e+00	0	46	0	3609198592	60	8068
2026-01-30 14:15:02.65	310.75	25.62	-45.6	-46.2	24.4	0.00e+00	0	46	0	3616538624	60	8023
2026-01-30 14:15:03.65	310.97	25.50	-45.5	-46.2	24.4	0.00e+00	0	45	0	3623878656	60	7988
2026-01-30 14:15:04.66	311.18	25.39	-45.3	-46.0	24.3	0.00e+00	0	45	0	3631218688	60	7793
2026-01-30 14:15:05.67	311.40	25.28	-45.5	-46.1	24.5	0.00e+00	0	45	0	3638558720	60	7923
2026-01-30 14:15:06.67	311.61	25.17	-45.6	-46.2	24.3	0.00e+00	0	46	0	3644850176	60	8007
2026-01-30 14:15:07.68	311.82	25.05	-45.6	-46.2	24.3	0.00e+00	0	45	0	3652190208	60	8019
2026-01-30 14:15:08.68	312.03	24.94	-45.6	-46.3	24.3	0.00e+00	0	46	0	3659530240	60	8052
2026-01-30 14:15:09.69	312.24	24.83	-45.7	-46.4	24.2	0.00e+00	0	46	0	3666870272	60	8152
2026-01-30 14:15:10.70	312.45	24.72	-45.7	-46.4	24.2	0.00e+00	0	46	0	3674210304	60	8143
2026-01-30 14:15:11.71	312.65	24.61	-45.8	-46.5	24.1	0.00e+00	0	46	0	3681550336	60	8290
2026-01-30 14:15:12.72	312.86	24.49	-45.9	-46.6	24.0	0.00e+00	0	46	0	3688890368	60	8340
2026-01-30 14:15:13.72	313.06	24.38	-45.8	-46.5	23.9	0.00e+00	0	45	0	3696230400	60	8307
2026-01-30 14:15:14.73	313.26	24.27	-45.9	-46.6	23.9	0.00e+00	0	46	0	3703570432	60	8350
2026-01-30 14:15:15.74	313.46	24.16	-45.9	-46.6	23.9	0.00e+00	0	46	0	3710910464	60	8374
2026-01-30 14:15:16.75	313.66	24.05	-45.8	-46.5	24.0	0.00e+00	0	46	0	3718250496	60	8306
2026-01-30 14:15:17.75	313.86	23.94	-45.8	-46.5	23.9	0.00e+00	0	45	0	3725590528	60	8305
2026-01-30 14:15:18.76	314.05	23.82	-45.8	-46.5	24.0	0.00e+00	0	46	0	3732930560	60	8270
2026-01-30 14:15:19.77	314.25	23.71	-45.8	-46.6	23.8	0.00e+00	0	46	0	3740270592	60	8332
2026-01-30 14:15:20.78	314.44	23.60	-45.9	-46.6	23.7	0.00e+00	0	46	0	3747610624	60	8414
2026-01-30 14:15:21.78	314.63	23.49	-46.0	-46.7	23.8	0.00e+00	0	46	0	3753902080	60	8459
2026-01-30 14:15:22.79	314.82	23.38	-46.1	-46.7	23.6	0.00e+00	0	46	0	3761242112	60	8514
2026-01-30 14:15:23.80	315.01	23.27	-46.0	-46.7	23.7	0.00e+00	0	45	0	3768582144	60	8438
2026-01-30 14:15:24.80	315.20	23.16	-46.0	-46.7	23.7	0.00e+00	0	45	0	3775922176	60	8444
2026-01-30 14:15:25.81	315.39	23.05	-46.1	-46.8	23.5	0.00e+00	0	45	0	3783262208	60	8559
2026-01-30 14:15:26.81	315.57	22.94	-46.1	-46.7	23.7	0.00e+00	0	45	0	3790602240	60	8468
2026-01-30 14:15:27.82	315.76	22.83	-46.2	-46.8	23.5	0.00e+00	0	45	0	3797942272	60	8607
2026-01-30 14:15:28.83	315.94	22.72	-46.1	-46.8	23.6	0.00e+00	0	46	0	3805282304	60	8536
2026-01-30 14:15:29.83	316.12	22.61	-46.1	-46.7	23.6	0.00e+00	0	46	0	3812622336	60	8476
2026-01-30 14:15:30.83	316.30	22.50	-46.1	-46.7	23.6	0.00e+00	0	46	0	3819962368	60	8494
2026-01-30 14:15:31.84	316.48	22.40	-45.9	-46.5	23.7	0.00e+00	0	46	0	3827302400	60	8323
2026-01-30 14:15:32.85	316.66	22.29	-45.9	-46.5	23.4	0.00e+00	0	46	0	3834642432	60	8314
2026-01-30 14:15:33.86	316.84	22.18	-45.9	-46.6	23.4	0.00e+00	0	46	0	3841982464	60	8366
2026-01-30 14:15:34.87	317.01	22.07	-45.9	-46.5	23.4	0.00e+00	0	46	0	3849322496	60	8295
2026-01-30 14:15:35.88	317.19	21.96	-45.9	-46.6	23.7	0.00e+00	0	46	0	3855613952	60	8336
2026-01-30 14:15:36.88	317.36	21.85	-46.0	-46.7	23.5	0.00e+00	0	46	0	3862953984	60	8492
2026-01-30 14:15:37.89	317.53	21.74	-46.1	-46.8	23.3	0.00e+00	0	46	0	3870294016	60	8565
2026-01-30 14:15:38.90	317.70	21.64	-46.1	-46.8	23.3	0.00e+00	0	46	0	3877634048	60	8576
2026-01-30 14:15:39.91	317.87	21.53	-46.3	-47.0	23.1	0.00e+00	0	46	0	3884974080	60	8779
2026-01-30 14:15:40.91	318.04	21.42	-46.4	-47.1	23.1	0.00e+00	0	46	0	3892314112	60	8874
2026-01-30 14:15:41.92	318.21	21.32	-46.6	-47.3	23.0	0.00e+00	0	46	0	3899654144	60	9126
2026-01-30 14:15:42.93	318.37	21.21	-46.7	-47.4	23.0	0.00e+00	0	46	0	3906994176	60	9225
2026-01-30 14:15:43.94	318.54	21.10	-46.8	-47.6	22.8	0.00e+00	0	46	0	3914334208	60	9375
2026-01-30 14:15:44.94	318.70	21.00	-46.9	-47.6	22.7	0.00e+00	0	46	0	3921674240	60	9412
2026-01-30 14:15:45.95	318.87	20.89	-47.0	-47.8	22.6	0.00e+00	0	46	0	3929014272	60	9563
2026-01-30 14:15:46.96	319.03	20.78	-47.0	-47.7	22.7	0.00e+00	0	46	0	3936354304	60	9515
2026-01-30 14:15:47.97	319.19	20.68	-46.9	-47.7	22.9	0.00e+00	0	46	0	3943694336	60	9503
2026-01-30 14:15:48.97	319.35	20.57	-46.9	-47.7	22.9	0.00e+00	0	45	0	3951034368	60	9491
2026-01-30 14:15:49.98	319.51	20.47	-46.7	-47.5	23.1	0.00e+00	0	46	0	3958374400	60	9244
2026-01-30 14:15:50.99	319.67	20.36	-46.7	-47.4	23.2	0.00e+00	0	45	0	3964665856	60	9200
2026-01-30 14:15:52.00	319.82	20.26	-46.6	-47.3	23.2	0.00e+00	0	46	0	3972005888	60	9121
2026-01-30 14:15:53.01	319.98	20.15	-46.5	-47.2	23.4	0.00e+00	0	46	0	3979345920	60	9025
2026-01-30 14:15:54.02	320.13	20.05	-46.6	-47.3	23.3	0.00e+00	0	46	0	3986685952	60	9059
2026-01-30 14:15:55.03	320.29	19.94	-46.5	-47.2	23.3	0.00e+00	0	46	0	3995074560	60	9020
2026-01-30 14:15:56.03	320.44	19.84	-46.6	-47.3	23.3	0.00e+00	0	46	0	4002414592	60	9051
2026-01-30 14:15:57.04	320.59	19.74	-46.5	-47.3	23.3	0.00e+00	0	46	0	4008706048	60	9038
2026-01-30 14:15:58.05	320.74	19.63	-46.6	-47.3	23.2	0.00e+00	0	46	0	4016046080	60	9051
2026-01-30 14:15:59.06	320.89	19.53	-46.7	-47.4	23.1	0.00e+00	0	46	0	4023386112	60	9227
2026-01-30 14:16:00.07	321.04	19.43	-46.8	-47.5	23.1	0.00e+00	0	46	0	4030726144	60	9251
2026-01-30 14:16:01.07	321.19	19.32	-46.9	-47.6	22.9	0.00e+00	0	46	0	4038066176	60	9400
2026-01-30 14:16:02.08	321.34	19.22	-47.0	-47.7	22.9	0.00e+00	0	46	0	4045406208	60	9519
2026-01-30 14:16:03.09	321.48	19.12	-47.1	-47.8	23.0	0.00e+00	0	46	0	4052746240	60	9583
2026-01-30 14:16:04.10	321.63	19.02	-46.9	-47.6	23.0	0.00e+00	0	46	0	4060086272	60	9434
2026-01-30 14:16:05.11	321.77	18.92	-47.0	-47.7	22.9	0.00e+00	0	45	0	4066377728	60	9496
2026-01-30 14:16:06.11	321.91	18.82	-47.1	-47.8	22.8	0.00e+00	0	46	0	4073717760	60	9565
2026-01-30 14:16:07.12	322.06	18.71	-47.1	-47.8	22.6	0.00e+00	0	46	0	4082106368	60	9652
2026-01-30 14:16:08.13	322.20	18.61	-47.1	-47.9	22.5	0.00e+00	0	46	0	4089446400	60	9680
2026-01-30 14:16:09.14	322.34	18.51	-47.2	-48.0	22.5	0.00e+00	0	46	0	4096786432	60	9790
2026-01-30 14:16:10.14	322.48	18.41	-47.1	-47.8	22.6	0.00e+00	0	46	0	4104126464	60	9647
2026-01-30 14:16:11.15	322.61	18.31	-47.2	-47.9	22.6	0.00e+00	0	46	0	4110417920	60	9685
2026-01-30 14:16:12.15	322.75	18.21	-47.3	-48.0	22.5	0.00e+00	0	46	0	4117757952	60	9830
2026-01-30 14:16:13.15	322.89	18.11	-47.3	-48.0	22.5	0.00e+00	0	46	0	4125097984	60	9818
2026-01-30 14:16:14.16	323.02	18.01	-47.2	-47.9	22.6	0.00e+00	0	46	0	4132438016	60	9734
2026-01-30 14:16:15.17	323.16	17.91	-47.2	-47.9	22.6	0.00e+00	0	46	0	4139778048	60	9784
2026-01-30 14:16:16.18	323.29	17.82	-47.1	-47.8	22.5	0.00e+00	0	46	0	4147118080	60	9659
2026-01-30 14:16:17.19	323.43	17.72	-47.0	-47.7	22.8	0.00e+00	0	45	0	4154458112	60	9505
2026-01-30 14:16:18.19	323.56	17.62	-47.1	-47.8	22.8	0.00e+00	0	45	0	4161798144	60	9654
2026-01-30 14:16:19.19	323.69	17.52	-47.1	-47.8	22.7	0.00e+00	0	46	0	4169138176	60	9643
2026-01-30 14:16:20.20	323.82	17.42	-47.0	-47.7	22.8	0.00e+00	0	46	0	4175429632	60	9513
2026-01-30 14:16:21.21	323.95	17.33	-47.0	-47.7	22.8	0.00e+00	0	46	0	4182769664	60	9486
2026-01-30 14:16:22.22	324.08	17.23	-47.0	-47.7	22.8	0.00e+00	0	45	0	4190109696	60	9490
2026-01-30 14:16:23.23	324.21	17.13	-47.0	-47.7	22.7	0.00e+00	0	46	0	4198498304	60	9532
2026-01-30 14:16:24.24	324.34	17.03	-46.9	-47.7	22.9	0.00e+00	0	45	0	4205838336	60	9464
2026-01-30 14:16:25.24	324.46	16.94	-46.9	-47.7	22.8	0.00e+00	0	45	0	4213178368	60	9482
2026-01-30 14:16:26.25	324.59	16.84	-46.9	-47.7	22.8	0.00e+00	0	46	0	4219469824	60	9530
2026-01-30 14:16:27.26	324.72	16.75	-47.0	-47.8	22.8	0.00e+00	0	45	0	4226809856	60	9579
2026-01-30 14:16:28.26	324.84	16.65	-47.0	-47.8	22.7	0.00e+00	0	46	0	4234149888	60	9650
2026-01-30 14:16:29.27	324.96	16.55	-47.1	-47.9	22.6	0.00e+00	0	46	0	4241489920	60	9725
2026-01-30 14:16:30.28	325.09	16.46	-47.2	-48.0	22.5	0.00e+00	0	46	0	4248829952	60	9819
2026-01-30 14:16:31.28	325.21	16.36	-47.4	-48.1	22.4	0.00e+00	0	45	0	4256169984	60	9974
2026-01-30 14:16:32.29	325.33	16.27	-47.4	-48.2	22.2	0.00e+00	0	46	0	4263510016	60	10084
2026-01-30 14:16:33.30	325.45	16.17	-47.5	-48.3	22.1	0.00e+00	0	46	0	4270850048	60	10182
2026-01-30 14:16:34.30	325.57	16.08	-47.7	-48.4	22.0	0.00e+00	0	46	0	4277141504	60	10359
2026-01-30 14:16:35.31	325.69	15.99	-47.7	-48.5	21.9	0.00e+00	0	46	0	4284481536	60	10436
2026-01-30 14:16:36.31	325.81	15.89	-47.9	-48.7	21.7	0.00e+00	0	46	0	4291821568	60	10624
2026-01-30 14:16:37.32	325.93	15.80	-48.0	-48.8	21.6	0.00e+00	0	45	0	4299161600	60	10755
2026-01-30 14:16:38.33	326.04	15.71	-48.0	-48.8	21.7	0.00e+00	0	45	0	4307550208	60	10736
2026-01-30 14:16:39.33	326.16	15.61	-48.2	-49.0	21.3	0.00e+00	0	45	0	4314890240	60	11069
2026-01-30 14:16:40.33	326.27	15.52	-48.2	-49.1	21.4	0.00e+00	0	45	0	4321181696	60	11137
2026-01-30 14:16:41.34	326.39	15.43	-48.1	-49.0	21.5	0.00e+00	0	45	0	4328521728	60	11004
2026-01-30 14:16:42.35	326.50	15.34	-48.2	-49.1	21.5	0.00e+00	0	45	0	4335861760	60	11150
2026-01-30 14:16:43.36	326.62	15.24	-48.4	-49.2	21.3	0.00e+00	0	46	0	4343201792	60	11351
2026-01-30 14:16:44.36	326.73	15.15	-48.3	-49.2	21.3	0.00e+00	0	46	0	4350541824	60	11351
2026-01-30 14:16:45.37	326.84	15.06	-48.4	-49.4	21.1	0.00e+00	0	45	0	4357881856	60	11566
2026-01-30 14:16:46.38	326.96	14.97	-48.5	-49.6	20.9	0.00e+00	0	46	0	4365221888	60	11781
