passes_logs/2026/01/30/R3.2S-Naryan-Mar/R3.2S-Naryan-Mar__20260130_082603_NOAA_20_JPSS-1_rec.log

#Pass ID: 20260130_082603_NOAA 20 (JPSS-1)
#Satellite: NOAA 20 (JPSS-1)
#Configuration: NOAA 20
#almurnet v.1.7.20240730
#Start time: 2026-01-30 08:26:04

#Version: 2.2.20231116
#Station: R3.2S-Naryan-Mar
#Location: 53.008057 lon 67.646978 lat
#TLE: 1 43013U 17073A   26029.42702672  .00000137  00000+0  85918-4 0  9993
#TLE: 2 43013  98.7646 330.2153 0000804  19.9045 340.2162 14.19525092424781

#Time	Az	El	Level	Level2	SNR	BER	BlckErr	Temp	State	Recorded	gain1	gain2
2026-01-30 08:26:04.76	156.30	0.05	-59.1	-77.8	3.5	1.51e+00	0	43	0	0	60	305236
2026-01-30 08:26:05.77	156.31	0.11	-58.7	-77.6	3.6	1.51e+00	0	44	104	0	60	297615
2026-01-30 08:26:06.77	156.31	0.17	-57.1	-76.7	3.6	1.51e+00	0	44	104	0	60	266883
2026-01-30 08:26:07.78	156.32	0.23	-56.5	-76.3	3.6	1.51e+00	0	44	104	0	60	255098
2026-01-30 08:26:08.79	156.33	0.29	-56.2	-76.6	3.6	1.51e+00	0	44	104	0	60	266227
2026-01-30 08:26:09.79	156.33	0.35	-56.9	-77.2	3.6	1.51e+00	0	44	104	0	60	285217
2026-01-30 08:26:10.80	156.34	0.41	-58.4	-78.1	3.6	1.51e+00	0	44	104	0	60	313282
2026-01-30 08:26:11.80	156.35	0.47	-59.8	-78.2	3.6	1.51e+00	0	44	104	0	60	317018
2026-01-30 08:26:12.81	156.35	0.54	-60.7	-78.1	3.6	1.51e+00	0	44	104	0	60	316524
2026-01-30 08:26:13.82	156.36	0.60	-61.3	-78.4	3.6	1.51e+00	0	44	104	0	60	326684
2026-01-30 08:26:14.83	156.37	0.66	-61.4	-78.4	3.6	1.51e+00	0	44	104	0	60	325834
2026-01-30 08:26:15.84	156.37	0.72	-61.4	-78.5	3.6	1.51e+00	0	44	104	0	60	328078
2026-01-30 08:26:16.85	156.38	0.78	-61.7	-78.5	3.6	1.51e+00	0	44	104	0	60	328611
2026-01-30 08:26:17.85	156.39	0.84	-62.0	-78.6	3.6	1.51e+00	0	44	104	0	60	335290
2026-01-30 08:26:18.86	156.39	0.91	-62.3	-78.8	3.6	1.51e+00	0	44	104	0	60	342247
2026-01-30 08:26:19.87	156.40	0.97	-62.5	-79.0	3.6	1.51e+00	0	44	104	0	60	350011
2026-01-30 08:26:20.88	156.41	1.03	-62.5	-78.9	3.6	1.51e+00	0	44	104	0	60	347047
2026-01-30 08:26:21.88	156.41	1.09	-62.2	-78.8	3.6	1.51e+00	0	44	104	0	60	341676
2026-01-30 08:26:22.88	156.42	1.16	-62.3	-78.8	3.6	1.51e+00	0	44	104	0	60	340246
2026-01-30 08:26:23.89	156.43	1.22	-62.4	-78.8	3.6	1.51e+00	0	44	104	0	60	342749
2026-01-30 08:26:24.90	156.43	1.28	-62.3	-78.8	3.6	1.51e+00	0	44	104	0	60	340611
2026-01-30 08:26:25.90	156.44	1.35	-62.2	-78.7	3.6	1.51e+00	0	44	104	0	60	338540
2026-01-30 08:26:26.91	156.45	1.41	-62.1	-78.5	3.6	1.51e+00	0	44	104	0	60	330408
2026-01-30 08:26:27.91	156.45	1.47	-62.0	-78.5	3.6	1.51e+00	0	44	104	0	60	330015
2026-01-30 08:26:28.92	156.46	1.54	-61.9	-78.4	3.6	1.51e+00	0	44	104	0	60	325179
2026-01-30 08:26:29.92	156.47	1.60	-61.7	-78.2	3.6	1.51e+00	0	44	104	0	60	319413
2026-01-30 08:26:30.93	156.47	1.66	-61.6	-78.2	3.6	1.51e+00	0	44	104	0	60	317190
2026-01-30 08:26:31.94	156.48	1.73	-61.7	-78.2	3.6	1.51e+00	0	44	104	0	60	318071
2026-01-30 08:26:32.95	156.49	1.79	-61.4	-77.9	3.6	1.51e+00	0	44	104	0	60	308034
2026-01-30 08:26:33.95	156.49	1.85	-61.3	-77.8	3.6	1.51e+00	0	44	104	0	60	303738
2026-01-30 08:26:34.95	156.50	1.92	-61.2	-77.7	3.6	1.51e+00	0	44	104	0	60	300120
2026-01-30 08:26:35.96	156.51	1.98	-60.9	-77.4	3.6	1.51e+00	0	44	104	0	60	289016
2026-01-30 08:26:36.97	156.52	2.05	-60.7	-77.2	3.6	1.51e+00	0	44	104	0	60	284225
2026-01-30 08:26:37.97	156.52	2.11	-60.5	-77.0	3.6	1.51e+00	0	44	104	0	60	278529
2026-01-30 08:26:38.97	156.53	2.18	-59.9	-76.6	3.6	1.51e+00	0	44	104	0	60	264081
2026-01-30 08:26:39.98	156.54	2.24	-59.6	-76.3	3.6	1.51e+00	0	44	104	0	60	256192
2026-01-30 08:26:40.98	156.54	2.31	-59.0	-76.0	3.6	1.51e+00	0	44	104	0	60	247822
2026-01-30 08:26:41.99	156.55	2.37	-59.1	-75.5	3.6	1.51e+00	0	44	104	0	60	233782
2026-01-30 08:26:42.99	156.56	2.44	-58.7	-75.4	3.6	1.51e+00	0	44	104	0	60	231772
2026-01-30 08:26:44.00	156.56	2.50	-58.6	-75.4	3.6	1.51e+00	0	44	104	0	60	230202
2026-01-30 08:26:45.01	156.57	2.57	-58.6	-75.4	3.6	1.51e+00	0	44	104	0	60	229697
2026-01-30 08:26:46.01	156.58	2.64	-58.5	-75.3	3.6	1.51e+00	0	44	104	0	60	227682
2026-01-30 08:26:47.01	156.59	2.70	-58.5	-75.3	3.6	1.51e+00	0	44	104	0	60	228175
2026-01-30 08:26:48.02	156.59	2.77	-58.4	-75.2	3.5	1.51e+00	0	44	104	0	60	225456
2026-01-30 08:26:49.02	156.60	2.83	-58.4	-75.2	3.6	1.51e+00	0	45	104	0	60	224432
2026-01-30 08:26:50.03	156.61	2.90	-58.4	-75.2	3.6	1.51e+00	0	45	104	0	60	224188
2026-01-30 08:26:51.03	156.61	2.97	-58.4	-75.1	3.6	1.51e+00	0	45	104	0	60	224041
2026-01-30 08:26:52.04	156.62	3.03	-58.3	-75.0	3.6	1.51e+00	0	45	104	0	60	220128
2026-01-30 08:26:53.04	156.63	3.10	-58.3	-74.9	3.6	1.51e+00	0	45	104	0	60	218550
2026-01-30 08:26:54.05	156.64	3.17	-58.3	-74.8	3.6	1.51e+00	0	45	104	0	60	216261
2026-01-30 08:26:55.05	156.64	3.24	-58.3	-74.8	3.6	1.51e+00	0	45	104	0	60	215112
2026-01-30 08:26:56.06	156.65	3.30	-58.3	-74.7	3.6	1.51e+00	0	45	104	0	60	212567
2026-01-30 08:26:57.06	156.66	3.37	-58.3	-74.6	3.6	1.51e+00	0	45	104	0	60	211493
2026-01-30 08:26:58.06	156.67	3.44	-58.2	-74.7	3.6	1.51e+00	0	45	104	0	60	211669
2026-01-30 08:26:59.07	156.67	3.51	-58.2	-74.7	3.6	1.51e+00	0	45	104	0	60	212618
2026-01-30 08:27:00.08	156.68	3.57	-58.2	-74.7	3.6	1.51e+00	0	44	104	0	60	213595
2026-01-30 08:27:01.09	156.69	3.64	-58.2	-74.7	3.6	1.51e+00	0	45	104	0	60	213133
2026-01-30 08:27:02.10	156.69	3.71	-58.2	-74.7	3.6	1.51e+00	0	45	104	0	60	212837
2026-01-30 08:27:03.10	156.70	3.78	-58.2	-74.7	3.6	1.51e+00	0	45	104	0	60	212344
2026-01-30 08:27:04.11	156.71	3.85	-58.2	-74.6	3.6	1.51e+00	0	45	104	0	60	209798
2026-01-30 08:27:05.12	156.72	3.92	-58.2	-74.5	3.6	1.51e+00	0	45	104	0	60	207457
2026-01-30 08:27:06.12	156.72	3.99	-58.2	-74.4	3.6	1.51e+00	0	45	104	0	60	206538
2026-01-30 08:27:07.13	156.73	4.06	-58.2	-74.4	3.6	1.51e+00	0	45	104	0	60	204752
2026-01-30 08:27:08.14	156.74	4.13	-58.2	-74.4	3.6	1.51e+00	0	45	104	0	60	205646
2026-01-30 08:27:09.14	156.75	4.20	-58.2	-74.5	3.6	1.51e+00	0	45	104	0	60	207858
2026-01-30 08:27:10.15	156.75	4.27	-58.1	-74.5	3.6	1.51e+00	0	45	104	0	60	208148
2026-01-30 08:27:11.16	156.76	4.34	-58.1	-74.4	3.5	1.51e+00	0	45	104	0	60	206394
2026-01-30 08:27:12.16	156.77	4.41	-58.1	-73.9	3.6	1.51e+00	0	45	104	0	60	194026
2026-01-30 08:27:13.16	156.78	4.48	-58.1	-72.7	3.6	1.51e+00	0	45	104	0	60	168858
2026-01-30 08:27:14.17	156.79	4.55	-58.0	-70.9	4.2	1.49e+00	0	45	104	0	60	137484
2026-01-30 08:27:15.18	156.79	4.62	-57.9	-67.8	5.3	6.53e-01	0	45	0	1048576	60	95792
2026-01-30 08:27:16.19	156.80	4.69	-57.7	-66.1	6.8	2.94e-01	0	45	0	3145728	60	79094
2026-01-30 08:27:17.19	156.81	4.76	-57.5	-65.0	8.2	1.15e-01	0	45	0	5242880	60	69346
2026-01-30 08:27:18.20	156.82	4.83	-57.2	-63.7	9.7	1.96e-02	0	45	0	6291456	60	60225
2026-01-30 08:27:19.20	156.82	4.90	-56.8	-62.6	11.1	4.01e-03	0	45	0	8388608	60	52859
2026-01-30 08:27:20.20	156.83	4.98	-56.5	-61.6	12.2	7.53e-04	0	45	0	10485760	60	46838
2026-01-30 08:27:21.20	156.84	5.05	-56.2	-60.7	13.1	1.02e-04	0	45	0	12582912	60	42406
2026-01-30 08:27:22.21	156.85	5.12	-55.8	-59.9	14.0	6.80e-06	0	45	0	13631488	60	38664
2026-01-30 08:27:23.22	156.85	5.19	-55.6	-59.4	14.5	1.50e-06	0	45	0	15728640	60	36364
2026-01-30 08:27:24.22	156.86	5.27	-55.4	-59.0	14.9	7.00e-07	0	45	0	17825792	60	35070
2026-01-30 08:27:25.23	156.87	5.34	-55.4	-58.9	15.0	0.00e+00	0	45	0	19922944	60	34565
2026-01-30 08:27:26.24	156.88	5.41	-55.4	-58.9	15.0	0.00e+00	0	45	0	22020096	60	34553
2026-01-30 08:27:27.24	156.89	5.48	-55.4	-58.9	14.9	0.00e+00	0	45	0	23068672	60	34582
2026-01-30 08:27:28.25	156.89	5.56	-55.5	-59.2	14.7	0.00e+00	0	44	0	25165824	60	35698
2026-01-30 08:27:29.25	156.90	5.63	-55.7	-59.6	14.3	7.00e-07	0	45	0	27262976	60	37288
2026-01-30 08:27:30.25	156.91	5.71	-55.9	-60.1	13.7	1.50e-06	0	45	0	29360128	60	39808
2026-01-30 08:27:31.26	156.92	5.78	-56.2	-61.0	12.8	1.52e-05	0	45	0	31457280	60	43739
2026-01-30 08:27:32.26	156.93	5.85	-56.6	-61.9	11.7	3.06e-04	0	45	0	32505856	60	48949
2026-01-30 08:27:33.27	156.93	5.93	-56.9	-63.0	10.4	2.16e-03	0	45	0	34603008	60	55362
2026-01-30 08:27:34.28	156.94	6.00	-57.3	-64.5	8.6	1.14e-02	0	45	0	36700160	60	65714
2026-01-30 08:27:35.28	156.95	6.08	-57.5	-65.8	7.1	8.95e-02	0	45	0	38797312	60	76319
2026-01-30 08:27:36.29	156.96	6.15	-57.3	-64.2	9.3	5.61e-02	0	45	0	40894464	60	63797
2026-01-30 08:27:37.29	156.97	6.23	-56.8	-62.4	11.4	7.01e-03	0	45	0	42991616	60	51714
2026-01-30 08:27:38.30	156.98	6.30	-56.4	-61.0	13.0	4.25e-04	0	45	0	44040192	60	43808
2026-01-30 08:27:39.30	156.98	6.38	-55.9	-59.8	14.2	9.10e-06	0	45	0	46137344	60	38352
2026-01-30 08:27:40.31	156.99	6.46	-55.5	-59.0	15.0	7.00e-07	0	45	0	48234496	60	34855
2026-01-30 08:27:41.32	157.00	6.53	-55.2	-58.5	15.4	0.00e+00	0	45	0	50331648	60	32826
2026-01-30 08:27:42.32	157.01	6.61	-55.1	-58.2	15.7	0.00e+00	0	45	0	51380224	60	32012
2026-01-30 08:27:43.32	157.02	6.68	-55.1	-58.2	15.6	0.00e+00	0	45	0	53477376	60	31847
2026-01-30 08:27:44.32	157.02	6.76	-55.1	-58.2	15.7	0.00e+00	0	45	0	55574528	60	31979
2026-01-30 08:27:45.32	157.03	6.84	-55.1	-58.1	15.8	0.00e+00	0	45	0	57671680	60	31378
2026-01-30 08:27:46.32	157.04	6.91	-55.0	-58.0	16.0	0.00e+00	0	45	0	59768832	60	31013
2026-01-30 08:27:47.33	157.05	6.99	-55.0	-58.0	15.9	0.00e+00	0	45	0	60817408	60	31044
2026-01-30 08:27:48.33	157.06	7.07	-55.0	-58.0	15.9	0.00e+00	0	45	0	62914560	60	31155
2026-01-30 08:27:49.33	157.07	7.15	-55.0	-58.0	16.0	0.00e+00	0	45	0	65011712	60	30945
2026-01-30 08:27:50.34	157.08	7.23	-54.9	-57.9	16.0	0.00e+00	0	45	0	67108864	60	30740
2026-01-30 08:27:51.34	157.08	7.30	-54.9	-57.9	16.0	0.00e+00	0	45	0	69206016	60	30724
2026-01-30 08:27:52.34	157.09	7.38	-54.9	-57.9	16.1	0.00e+00	0	45	0	70254592	60	30703
2026-01-30 08:27:53.35	157.10	7.46	-54.9	-57.9	16.1	0.00e+00	0	45	0	72351744	60	30693
2026-01-30 08:27:54.35	157.11	7.54	-54.9	-57.9	16.1	0.00e+00	0	45	0	74448896	60	30725
2026-01-30 08:27:55.36	157.12	7.62	-55.0	-58.0	16.1	0.00e+00	0	45	0	76546048	60	31001
2026-01-30 08:27:56.37	157.13	7.70	-55.0	-58.0	16.1	0.00e+00	0	45	0	77594624	60	30970
2026-01-30 08:27:57.37	157.14	7.78	-55.1	-58.1	16.1	0.00e+00	0	45	0	79691776	60	31419
2026-01-30 08:27:58.37	157.14	7.86	-54.9	-57.9	16.2	0.00e+00	0	45	0	81788928	60	30687
2026-01-30 08:27:59.38	157.15	7.94	-54.8	-57.7	16.5	0.00e+00	0	45	0	83886080	60	29970
2026-01-30 08:28:00.39	157.16	8.02	-54.7	-57.5	16.6	0.00e+00	0	45	0	85983232	60	29504
2026-01-30 08:28:01.39	157.17	8.10	-54.8	-57.6	16.7	0.00e+00	0	45	0	88080384	60	29555
2026-01-30 08:28:02.39	157.18	8.18	-54.8	-57.6	16.6	0.00e+00	0	45	0	89128960	60	29600
2026-01-30 08:28:03.39	157.19	8.26	-54.8	-57.6	16.6	0.00e+00	0	45	0	91226112	60	29674
2026-01-30 08:28:04.40	157.20	8.35	-54.7	-57.4	16.8	0.00e+00	0	45	0	93323264	60	29114
2026-01-30 08:28:05.39	157.21	8.43	-54.7	-57.4	16.9	0.00e+00	0	45	0	95420416	60	29069
2026-01-30 08:28:06.40	157.22	8.51	-54.8	-57.5	16.8	0.00e+00	0	45	0	97517568	60	29464
2026-01-30 08:28:07.40	157.22	8.59	-54.8	-57.5	16.9	0.00e+00	0	45	0	98566144	60	29263
2026-01-30 08:28:08.41	157.23	8.68	-54.7	-57.3	17.0	0.00e+00	0	45	0	100663296	60	28786
2026-01-30 08:28:09.41	157.24	8.76	-54.7	-57.3	17.1	0.00e+00	0	45	0	102760448	60	28679
2026-01-30 08:28:10.41	157.25	8.84	-54.7	-57.3	17.1	0.00e+00	0	45	0	104857600	60	28558
2026-01-30 08:28:11.41	157.26	8.92	-54.7	-57.3	17.1	0.00e+00	0	45	0	105906176	60	28728
2026-01-30 08:28:12.42	157.27	9.01	-54.6	-57.2	17.2	0.00e+00	0	45	0	108003328	60	28297
2026-01-30 08:28:13.43	157.28	9.09	-54.7	-57.3	17.2	0.00e+00	0	45	0	110100480	60	28563
2026-01-30 08:28:14.43	157.29	9.18	-54.7	-57.2	17.3	0.00e+00	0	45	0	112197632	60	28479
2026-01-30 08:28:15.44	157.30	9.26	-54.6	-57.0	17.4	0.00e+00	0	45	0	114294784	60	27840
2026-01-30 08:28:16.44	157.31	9.35	-54.6	-57.0	17.4	0.00e+00	0	45	0	115343360	60	27831
2026-01-30 08:28:17.44	157.32	9.43	-54.5	-57.0	17.5	0.00e+00	0	45	0	117440512	60	27634
2026-01-30 08:28:18.45	157.33	9.52	-54.6	-57.1	17.4	0.00e+00	0	45	0	119537664	60	28038
2026-01-30 08:28:19.45	157.34	9.60	-54.6	-57.1	17.4	0.00e+00	0	45	0	121634816	60	27927
2026-01-30 08:28:20.45	157.34	9.69	-54.4	-56.8	17.7	0.00e+00	0	45	0	123731968	60	27161
2026-01-30 08:28:21.46	157.35	9.78	-54.4	-56.9	17.6	0.00e+00	0	45	0	124780544	60	27323
2026-01-30 08:28:22.47	157.36	9.86	-54.5	-56.9	17.6	0.00e+00	0	45	0	126877696	60	27470
2026-01-30 08:28:23.48	157.37	9.95	-54.5	-57.0	17.5	0.00e+00	0	45	0	128974848	60	27644
2026-01-30 08:28:24.48	157.38	10.04	-54.4	-56.8	17.6	0.00e+00	0	45	0	131072000	60	27210
2026-01-30 08:28:25.49	157.39	10.13	-54.3	-56.8	17.7	0.00e+00	0	45	0	133169152	60	26992
2026-01-30 08:28:26.49	157.40	10.22	-54.4	-56.9	17.5	0.00e+00	0	45	0	134217728	60	27526
2026-01-30 08:28:27.50	157.41	10.30	-54.4	-56.9	17.6	0.00e+00	0	45	0	136314880	60	27404
2026-01-30 08:28:28.50	157.42	10.39	-54.3	-56.8	17.7	0.00e+00	0	45	0	138412032	60	27055
2026-01-30 08:28:29.51	157.43	10.48	-54.3	-56.7	17.7	0.00e+00	0	45	0	140509184	60	26926
2026-01-30 08:28:30.52	157.44	10.57	-54.3	-56.7	17.8	0.00e+00	0	45	0	142606336	60	26760
2026-01-30 08:28:31.52	157.45	10.66	-54.3	-56.8	17.8	0.00e+00	0	45	0	143654912	60	26984
2026-01-30 08:28:32.53	157.46	10.75	-54.4	-56.8	17.7	0.00e+00	0	45	0	145752064	60	27210
2026-01-30 08:28:33.54	157.47	10.84	-54.2	-56.6	18.0	0.00e+00	0	45	0	147849216	60	26426
2026-01-30 08:28:34.54	157.48	10.93	-54.2	-56.5	18.0	0.00e+00	0	45	0	149946368	60	26242
2026-01-30 08:28:35.55	157.49	11.02	-54.2	-56.5	18.0	0.00e+00	0	45	0	152043520	60	26317
2026-01-30 08:28:36.55	157.50	11.12	-54.3	-56.6	18.0	0.00e+00	0	45	0	153092096	60	26458
2026-01-30 08:28:37.56	157.51	11.21	-54.2	-56.4	18.2	0.00e+00	0	45	0	155189248	60	25965
2026-01-30 08:28:38.56	157.52	11.30	-54.2	-56.4	18.1	0.00e+00	0	45	0	157286400	60	25967
2026-01-30 08:28:39.57	157.53	11.39	-54.3	-56.6	18.1	0.00e+00	0	45	0	159383552	60	26402
2026-01-30 08:28:40.58	157.54	11.49	-54.1	-56.3	18.4	0.00e+00	0	45	0	161480704	60	25504
2026-01-30 08:28:41.59	157.55	11.58	-54.0	-56.1	18.5	0.00e+00	0	45	0	162529280	60	25085
2026-01-30 08:28:42.59	157.56	11.67	-54.0	-56.1	18.6	0.00e+00	0	45	0	164626432	60	25050
2026-01-30 08:28:43.60	157.57	11.77	-54.1	-56.2	18.5	0.00e+00	0	45	0	166723584	60	25204
2026-01-30 08:28:44.61	157.58	11.86	-54.1	-56.1	18.6	0.00e+00	0	45	0	168820736	60	25115
2026-01-30 08:28:45.62	157.59	11.96	-54.2	-56.2	18.5	0.00e+00	0	45	0	170917888	60	25398
2026-01-30 08:28:46.62	157.60	12.05	-54.1	-56.2	18.6	0.00e+00	0	45	0	171966464	60	25241
2026-01-30 08:28:47.63	157.62	12.15	-54.2	-56.3	18.5	0.00e+00	0	45	0	174063616	60	25520
2026-01-30 08:28:48.64	157.63	12.24	-54.2	-56.2	18.6	0.00e+00	0	45	0	176160768	60	25283
2026-01-30 08:28:49.65	157.64	12.34	-54.1	-56.1	18.7	0.00e+00	0	45	0	178257920	60	25145
2026-01-30 08:28:50.65	157.65	12.44	-54.2	-56.2	18.7	0.00e+00	0	45	0	180355072	60	25201
2026-01-30 08:28:51.66	157.66	12.53	-54.2	-56.2	18.7	0.00e+00	0	45	0	181403648	60	25370
2026-01-30 08:28:52.67	157.67	12.63	-54.2	-56.2	18.7	0.00e+00	0	45	0	183500800	60	25269
2026-01-30 08:28:53.67	157.68	12.73	-54.2	-56.2	18.7	0.00e+00	0	45	0	185597952	60	25300
2026-01-30 08:28:54.68	157.69	12.83	-54.2	-56.2	18.8	0.00e+00	0	45	0	187695104	60	25168
2026-01-30 08:28:55.69	157.70	12.92	-54.2	-56.2	18.8	0.00e+00	0	45	0	189792256	60	25236
2026-01-30 08:28:56.70	157.71	13.02	-54.1	-56.0	19.0	0.00e+00	0	45	0	190840832	60	24641
2026-01-30 08:28:57.70	157.72	13.12	-54.1	-55.9	19.1	0.00e+00	0	45	0	192937984	60	24499
2026-01-30 08:28:58.71	157.73	13.22	-54.2	-56.0	19.0	0.00e+00	0	45	0	195035136	60	24775
2026-01-30 08:28:59.72	157.75	13.32	-54.1	-56.0	19.1	0.00e+00	0	45	0	197132288	60	24580
2026-01-30 08:29:00.73	157.76	13.42	-54.0	-55.8	19.2	0.00e+00	0	45	0	199229440	60	24097
2026-01-30 08:29:01.74	157.77	13.53	-54.0	-55.9	19.2	0.00e+00	0	45	0	200278016	60	24383
2026-01-30 08:29:02.74	157.78	13.63	-53.9	-55.7	19.3	0.00e+00	0	45	0	202375168	60	23995
2026-01-30 08:29:03.75	157.79	13.73	-54.0	-55.9	19.2	0.00e+00	0	45	0	204472320	60	24481
2026-01-30 08:29:04.76	157.80	13.83	-53.9	-55.7	19.3	0.00e+00	0	45	0	206569472	60	24006
2026-01-30 08:29:05.76	157.81	13.93	-53.8	-55.6	19.4	0.00e+00	0	45	0	208666624	60	23702
2026-01-30 08:29:06.77	157.83	14.04	-53.9	-55.7	19.3	0.00e+00	0	45	0	209715200	60	23809
2026-01-30 08:29:07.78	157.84	14.14	-53.7	-55.5	19.5	0.00e+00	0	45	0	211812352	60	23355
2026-01-30 08:29:08.78	157.85	14.24	-53.7	-55.5	19.5	0.00e+00	0	45	0	213909504	60	23438
2026-01-30 08:29:09.78	157.86	14.35	-53.8	-55.6	19.4	0.00e+00	0	45	0	216006656	60	23602
2026-01-30 08:29:10.79	157.87	14.45	-53.8	-55.6	19.5	0.00e+00	0	45	0	218103808	60	23563
2026-01-30 08:29:11.79	157.88	14.56	-53.6	-55.5	19.5	0.00e+00	0	45	0	219152384	60	23209
2026-01-30 08:29:12.80	157.90	14.66	-53.7	-55.5	19.5	0.00e+00	0	45	0	221249536	60	23422
2026-01-30 08:29:13.81	157.91	14.77	-53.6	-55.4	19.7	0.00e+00	0	45	0	223346688	60	23169
2026-01-30 08:29:14.82	157.92	14.88	-53.7	-55.5	19.6	0.00e+00	0	45	0	225443840	60	23229
2026-01-30 08:29:15.83	157.93	14.99	-53.7	-55.5	19.6	0.00e+00	0	45	0	227540992	60	23215
2026-01-30 08:29:16.83	157.94	15.09	-53.6	-55.4	19.7	0.00e+00	0	45	0	228589568	60	22939
2026-01-30 08:29:17.84	157.96	15.20	-53.6	-55.4	19.7	0.00e+00	0	45	0	230686720	60	23064
2026-01-30 08:29:18.85	157.97	15.31	-53.7	-55.4	19.7	0.00e+00	0	45	0	232783872	60	23139
2026-01-30 08:29:19.85	157.98	15.42	-53.6	-55.3	19.8	0.00e+00	0	45	0	234881024	60	22853
2026-01-30 08:29:20.86	157.99	15.53	-53.6	-55.3	19.8	0.00e+00	0	45	0	236978176	60	22838
2026-01-30 08:29:21.86	158.01	15.64	-53.6	-55.3	19.8	0.00e+00	0	45	0	238026752	60	22805
2026-01-30 08:29:22.87	158.02	15.75	-53.5	-55.2	19.9	0.00e+00	0	45	0	240123904	60	22610
2026-01-30 08:29:23.88	158.03	15.86	-53.4	-55.1	20.0	0.00e+00	0	45	0	242221056	60	22205
2026-01-30 08:29:24.88	158.04	15.97	-53.4	-55.1	19.9	0.00e+00	0	45	0	244318208	60	22231
2026-01-30 08:29:25.89	158.06	16.09	-53.4	-55.1	19.9	0.00e+00	0	45	0	246415360	60	22279
2026-01-30 08:29:26.90	158.07	16.20	-53.4	-55.0	20.0	0.00e+00	0	45	0	247463936	60	22106
2026-01-30 08:29:27.90	158.08	16.31	-53.3	-55.0	20.1	0.00e+00	0	45	0	249561088	60	21914
2026-01-30 08:29:28.91	158.09	16.42	-53.4	-55.0	20.1	0.00e+00	0	45	0	251658240	60	22038
2026-01-30 08:29:29.92	158.11	16.54	-53.3	-54.9	20.3	0.00e+00	0	45	0	253755392	60	21733
2026-01-30 08:29:30.93	158.12	16.65	-53.3	-54.9	20.2	0.00e+00	0	45	0	255852544	60	21857
2026-01-30 08:29:31.94	158.13	16.77	-53.3	-54.9	20.2	0.00e+00	0	45	0	256901120	60	21819
2026-01-30 08:29:32.94	158.15	16.89	-53.3	-54.9	20.3	0.00e+00	0	45	0	258998272	60	21775
2026-01-30 08:29:33.95	158.16	17.00	-53.3	-54.9	20.2	0.00e+00	0	45	0	261095424	60	21813
2026-01-30 08:29:34.96	158.17	17.12	-53.4	-55.0	20.2	0.00e+00	0	45	0	263192576	60	22143
2026-01-30 08:29:35.96	158.19	17.24	-53.4	-55.0	20.2	0.00e+00	0	45	0	265289728	60	21983
2026-01-30 08:29:36.97	158.20	17.36	-53.4	-55.0	20.3	0.00e+00	0	45	0	266338304	60	21955
2026-01-30 08:29:37.97	158.21	17.47	-53.2	-54.7	20.6	0.00e+00	0	45	0	268435456	60	21347
2026-01-30 08:29:38.98	158.23	17.59	-53.1	-54.5	20.6	0.00e+00	0	45	0	270532608	60	20896
2026-01-30 08:29:39.98	158.24	17.71	-53.2	-54.7	20.6	0.00e+00	0	45	0	272629760	60	21201
2026-01-30 08:29:40.99	158.26	17.83	-53.1	-54.6	20.6	0.00e+00	0	45	0	274726912	60	21082
2026-01-30 08:29:42.00	158.27	17.95	-53.2	-54.7	20.6	0.00e+00	0	45	0	275775488	60	21209
2026-01-30 08:29:43.01	158.28	18.08	-53.1	-54.6	20.6	0.00e+00	0	45	0	277872640	60	21135
2026-01-30 08:29:44.02	158.30	18.20	-53.1	-54.6	20.7	0.00e+00	0	45	0	279969792	60	21105
2026-01-30 08:29:45.03	158.31	18.32	-53.2	-54.7	20.6	0.00e+00	0	45	0	282066944	60	21262
2026-01-30 08:29:46.03	158.33	18.45	-53.1	-54.6	20.8	0.00e+00	0	45	0	284164096	60	20930
2026-01-30 08:29:47.04	158.34	18.57	-53.0	-54.4	20.8	0.00e+00	0	45	0	285212672	60	20655
2026-01-30 08:29:48.05	158.35	18.70	-53.0	-54.5	20.9	0.00e+00	0	45	0	287309824	60	20901
2026-01-30 08:29:49.06	158.37	18.82	-53.1	-54.6	20.8	0.00e+00	0	45	0	289406976	60	20975
2026-01-30 08:29:50.06	158.38	18.95	-53.1	-54.6	20.8	0.00e+00	0	45	0	291504128	60	21158
2026-01-30 08:29:51.07	158.40	19.07	-53.1	-54.6	20.8	0.00e+00	0	45	0	293601280	60	20981
2026-01-30 08:29:52.08	158.41	19.20	-53.1	-54.5	20.9	0.00e+00	0	45	0	295698432	60	20812
2026-01-30 08:29:53.09	158.43	19.33	-53.1	-54.5	21.0	0.00e+00	0	45	0	296747008	60	20863
2026-01-30 08:29:54.08	158.44	19.46	-53.1	-54.5	21.0	0.00e+00	0	45	0	298844160	60	20798
2026-01-30 08:29:55.09	158.46	19.59	-52.9	-54.4	21.1	0.00e+00	0	45	0	300941312	60	20484
2026-01-30 08:29:56.10	158.47	19.72	-53.0	-54.4	21.1	0.00e+00	0	45	0	303038464	60	20538
2026-01-30 08:29:57.10	158.49	19.85	-53.0	-54.5	20.9	0.00e+00	0	45	0	304087040	60	20733
2026-01-30 08:29:58.10	158.50	19.98	-53.1	-54.5	21.0	0.00e+00	0	45	0	306184192	60	20805
2026-01-30 08:29:59.11	158.52	20.11	-53.1	-54.5	20.9	0.00e+00	0	45	0	308281344	60	20868
2026-01-30 08:30:00.11	158.53	20.24	-53.1	-54.6	21.0	0.00e+00	0	45	0	310378496	60	20929
2026-01-30 08:30:01.12	158.55	20.38	-53.0	-54.3	21.1	0.00e+00	0	45	0	312475648	60	20441
2026-01-30 08:30:02.13	158.57	20.51	-53.0	-54.4	21.0	0.00e+00	0	45	0	313524224	60	20602
2026-01-30 08:30:03.13	158.58	20.64	-53.0	-54.4	21.0	0.00e+00	0	45	0	315621376	60	20660
2026-01-30 08:30:04.14	158.60	20.78	-53.1	-54.5	21.0	0.00e+00	0	45	0	317718528	60	20721
2026-01-30 08:30:05.14	158.61	20.92	-53.1	-54.5	21.0	0.00e+00	0	45	0	319815680	60	20887
2026-01-30 08:30:06.15	158.63	21.05	-53.1	-54.5	21.0	0.00e+00	0	45	0	321912832	60	20755
2026-01-30 08:30:07.16	158.65	21.19	-53.2	-54.7	20.9	0.00e+00	0	45	0	322961408	60	21192
2026-01-30 08:30:08.16	158.66	21.33	-53.1	-54.5	21.0	0.00e+00	0	45	0	325058560	60	20778
2026-01-30 08:30:09.17	158.68	21.47	-53.0	-54.4	21.1	0.00e+00	0	45	0	327155712	60	20598
2026-01-30 08:30:10.17	158.70	21.61	-53.1	-54.5	21.0	0.00e+00	0	45	0	329252864	60	20764
2026-01-30 08:30:11.18	158.71	21.75	-53.2	-54.6	21.0	0.00e+00	0	45	0	331350016	60	21023
2026-01-30 08:30:12.18	158.73	21.89	-53.0	-54.4	21.2	0.00e+00	0	45	0	332398592	60	20511
2026-01-30 08:30:13.19	158.75	22.03	-53.1	-54.4	21.1	0.00e+00	0	45	0	334495744	60	20670
2026-01-30 08:30:14.20	158.76	22.18	-53.1	-54.5	21.2	0.00e+00	0	45	0	336592896	60	20738
2026-01-30 08:30:15.20	158.78	22.32	-53.2	-54.6	21.0	0.00e+00	0	45	0	338690048	60	21094
2026-01-30 08:30:16.20	158.80	22.46	-53.2	-54.6	21.0	0.00e+00	0	45	0	340787200	60	21135
2026-01-30 08:30:17.21	158.82	22.61	-53.3	-54.7	21.0	0.00e+00	0	45	0	341835776	60	21223
2026-01-30 08:30:18.21	158.83	22.76	-53.4	-54.8	20.9	0.00e+00	0	45	0	343932928	60	21484
2026-01-30 08:30:19.22	158.85	22.90	-53.5	-54.9	20.8	0.00e+00	0	45	0	346030080	60	21820
2026-01-30 08:30:20.22	158.87	23.05	-53.5	-55.0	20.8	0.00e+00	0	45	0	348127232	60	21960
2026-01-30 08:30:21.23	158.89	23.20	-53.6	-55.1	20.7	0.00e+00	0	45	0	350224384	60	22181
2026-01-30 08:30:22.23	158.91	23.35	-53.4	-54.9	20.9	0.00e+00	0	45	0	351272960	60	21735
2026-01-30 08:30:23.24	158.92	23.50	-53.4	-54.8	21.0	0.00e+00	0	45	0	353370112	60	21446
2026-01-30 08:30:24.24	158.94	23.65	-53.5	-54.9	20.9	0.00e+00	0	45	0	355467264	60	21733
2026-01-30 08:30:25.24	158.96	23.80	-53.5	-55.0	20.9	0.00e+00	0	45	0	357564416	60	21946
2026-01-30 08:30:26.24	158.98	23.96	-53.4	-54.8	21.0	0.00e+00	0	45	0	359661568	60	21623
2026-01-30 08:30:27.25	159.00	24.11	-53.5	-55.0	20.9	0.00e+00	0	45	0	360710144	60	22012
2026-01-30 08:30:28.25	159.02	24.26	-53.4	-54.8	21.0	0.00e+00	0	45	0	362807296	60	21617
2026-01-30 08:30:29.26	159.04	24.42	-53.5	-55.0	20.8	0.00e+00	0	45	0	364904448	60	21935
2026-01-30 08:30:30.27	159.06	24.58	-53.6	-55.1	20.7	0.00e+00	0	45	0	367001600	60	22295
2026-01-30 08:30:31.27	159.08	24.74	-53.5	-55.0	20.8	0.00e+00	0	45	0	368050176	60	22036
2026-01-30 08:30:32.28	159.10	24.90	-53.6	-55.1	20.7	0.00e+00	0	45	0	370147328	60	22375
2026-01-30 08:30:33.29	159.12	25.06	-53.7	-55.2	20.6	0.00e+00	0	45	0	372244480	60	22659
2026-01-30 08:30:34.30	159.14	25.22	-53.7	-55.3	20.6	0.00e+00	0	45	0	374341632	60	22710
2026-01-30 08:30:35.29	159.16	25.38	-53.9	-55.5	20.3	0.00e+00	0	45	0	376438784	60	23208
2026-01-30 08:30:36.30	159.18	25.54	-53.6	-55.1	20.6	0.00e+00	0	45	0	378535936	60	22412
2026-01-30 08:30:37.31	159.20	25.71	-53.8	-55.3	20.4	0.00e+00	0	45	0	379584512	60	22913
2026-01-30 08:30:38.32	159.22	25.87	-53.9	-55.5	20.2	0.00e+00	0	45	0	381681664	60	23442
2026-01-30 08:30:39.32	159.24	26.04	-54.0	-55.6	20.1	0.00e+00	0	45	0	383778816	60	23721
2026-01-30 08:30:40.33	159.26	26.20	-54.0	-55.6	20.1	0.00e+00	0	45	0	385875968	60	23617
2026-01-30 08:30:41.33	159.28	26.37	-54.1	-55.7	20.1	0.00e+00	0	45	0	387973120	60	23851
2026-01-30 08:30:42.34	159.30	26.54	-54.2	-55.8	20.0	0.00e+00	0	45	0	389021696	60	24240
2026-01-30 08:30:43.34	159.32	26.71	-54.2	-55.8	19.9	0.00e+00	0	45	0	391118848	60	24189
2026-01-30 08:30:44.34	159.35	26.88	-54.2	-55.9	19.9	0.00e+00	0	45	0	393216000	60	24351
2026-01-30 08:30:45.35	159.37	27.05	-54.4	-56.1	19.7	0.00e+00	0	45	0	395313152	60	24972
2026-01-30 08:30:46.35	159.39	27.22	-54.5	-56.2	19.6	0.00e+00	0	45	0	396361728	60	25293
2026-01-30 08:30:47.35	159.41	27.40	-54.6	-56.4	19.4	0.00e+00	0	45	0	398458880	60	25893
2026-01-30 08:30:48.35	159.43	27.57	-54.7	-56.4	19.4	0.00e+00	0	45	0	400556032	60	26011
2026-01-30 08:30:49.35	159.46	27.75	-54.9	-56.8	19.1	0.00e+00	0	45	0	402653184	60	27123
2026-01-30 08:30:50.35	159.48	27.92	-55.0	-57.0	18.9	0.00e+00	0	45	0	404750336	60	27714
2026-01-30 08:30:51.35	159.50	28.10	-55.0	-56.9	19.0	0.00e+00	0	45	0	405798912	60	27311
2026-01-30 08:30:52.36	159.53	28.28	-55.1	-57.1	18.9	0.00e+00	0	45	0	407896064	60	28028
2026-01-30 08:30:53.37	159.55	28.47	-55.2	-57.2	18.7	0.00e+00	0	45	0	409993216	60	28380
2026-01-30 08:30:54.37	159.57	28.65	-55.2	-57.2	18.7	0.00e+00	0	45	0	412090368	60	28527
2026-01-30 08:30:55.38	159.60	28.83	-55.4	-57.5	18.5	0.00e+00	0	45	0	414187520	60	29445
2026-01-30 08:30:56.39	159.62	29.02	-55.4	-57.5	18.4	0.00e+00	0	45	0	416284672	60	29521
2026-01-30 08:30:57.39	159.65	29.20	-55.6	-57.8	18.2	0.00e+00	0	45	0	417333248	60	30371
2026-01-30 08:30:58.40	159.67	29.39	-55.7	-57.9	18.1	0.00e+00	0	45	0	419430400	60	30652
2026-01-30 08:30:59.40	159.70	29.58	-55.7	-57.9	18.0	0.00e+00	0	45	0	421527552	60	30754
2026-01-30 08:31:00.41	159.72	29.77	-55.8	-58.1	18.0	0.00e+00	0	45	0	423624704	60	31467
2026-01-30 08:31:01.42	159.75	29.96	-55.9	-58.2	17.7	0.00e+00	0	45	0	424673280	60	31897
2026-01-30 08:31:02.42	159.77	30.15	-55.9	-58.3	17.7	0.00e+00	0	45	0	426770432	60	32140
2026-01-30 08:31:03.43	159.80	30.35	-56.1	-58.5	17.4	0.00e+00	0	45	0	428867584	60	33113
2026-01-30 08:31:04.44	159.83	30.54	-56.2	-58.7	17.3	0.00e+00	0	45	0	430964736	60	33642
2026-01-30 08:31:05.45	159.85	30.74	-56.2	-58.7	17.3	0.00e+00	0	45	0	433061888	60	33544
2026-01-30 08:31:06.45	159.88	30.93	-56.3	-58.8	17.3	0.00e+00	0	45	0	434110464	60	33953
2026-01-30 08:31:07.46	159.91	31.13	-56.1	-58.5	17.6	0.00e+00	0	45	0	436207616	60	32796
2026-01-30 08:31:08.46	159.94	31.33	-56.0	-58.3	17.7	0.00e+00	0	45	0	438304768	60	32180
2026-01-30 08:31:09.47	159.96	31.54	-56.1	-58.4	17.7	0.00e+00	0	45	0	440401920	60	32436
2026-01-30 08:31:10.47	159.99	31.74	-55.9	-58.1	17.9	0.00e+00	0	45	0	442499072	60	31560
2026-01-30 08:31:11.48	160.02	31.94	-55.9	-58.1	18.0	0.00e+00	0	45	0	444596224	60	31430
2026-01-30 08:31:12.49	160.05	32.15	-55.9	-58.2	17.9	0.00e+00	0	45	0	445644800	60	31688
2026-01-30 08:31:13.49	160.08	32.36	-55.8	-58.0	18.1	0.00e+00	0	45	0	447741952	60	31002
2026-01-30 08:31:14.50	160.11	32.57	-55.7	-57.8	18.3	0.00e+00	0	45	0	449839104	60	30489
2026-01-30 08:31:15.50	160.14	32.77	-55.7	-57.8	18.2	0.00e+00	0	45	0	451936256	60	30474
2026-01-30 08:31:16.51	160.17	32.99	-55.6	-57.7	18.4	0.00e+00	0	45	0	452984832	60	29990
2026-01-30 08:31:17.52	160.20	33.20	-55.6	-57.6	18.5	0.00e+00	0	45	0	455081984	60	29839
2026-01-30 08:31:18.53	160.23	33.42	-55.3	-57.3	18.9	0.00e+00	0	45	0	457179136	60	28670
2026-01-30 08:31:19.53	160.26	33.63	-55.3	-57.2	18.9	0.00e+00	0	45	0	459276288	60	28357
2026-01-30 08:31:20.54	160.29	33.85	-55.2	-57.1	19.1	0.00e+00	0	45	0	461373440	60	28003
2026-01-30 08:31:21.54	160.32	34.07	-54.8	-56.6	19.6	0.00e+00	0	45	0	462422016	60	26486
2026-01-30 08:31:22.55	160.36	34.29	-54.7	-56.4	19.7	0.00e+00	0	45	0	464519168	60	25997
2026-01-30 08:31:23.55	160.39	34.51	-54.5	-56.1	20.0	0.00e+00	0	45	0	466616320	60	25103
2026-01-30 08:31:24.56	160.42	34.73	-54.6	-56.3	20.0	0.00e+00	0	45	0	468713472	60	25525
2026-01-30 08:31:25.57	160.46	34.96	-54.1	-55.6	20.4	0.00e+00	0	45	0	470810624	60	23732
2026-01-30 08:31:26.58	160.49	35.19	-54.0	-55.5	20.6	0.00e+00	0	45	0	472907776	60	23311
2026-01-30 08:31:27.59	160.52	35.42	-53.9	-55.4	20.8	0.00e+00	0	45	0	473956352	60	22943
2026-01-30 08:31:28.59	160.56	35.65	-53.7	-55.1	21.0	0.00e+00	0	45	0	476053504	60	22278
2026-01-30 08:31:29.60	160.59	35.88	-53.5	-54.9	21.1	0.00e+00	0	45	0	478150656	60	21813
2026-01-30 08:31:30.61	160.63	36.12	-53.6	-54.9	21.2	0.00e+00	0	45	0	480247808	60	21867
2026-01-30 08:31:31.61	160.67	36.35	-53.6	-54.9	21.2	0.00e+00	0	45	0	481296384	60	21878
2026-01-30 08:31:32.62	160.70	36.59	-53.5	-54.9	21.3	0.00e+00	0	45	0	483393536	60	21664
2026-01-30 08:31:33.63	160.74	36.83	-53.6	-55.0	21.2	0.00e+00	0	45	0	485490688	60	21956
2026-01-30 08:31:34.63	160.78	37.07	-53.4	-54.7	21.4	0.00e+00	0	45	0	487587840	60	21388
2026-01-30 08:31:35.64	160.82	37.31	-53.3	-54.6	21.6	0.00e+00	0	45	0	489684992	60	21023
2026-01-30 08:31:36.64	160.85	37.55	-53.2	-54.5	21.6	0.00e+00	0	45	0	490733568	60	20761
2026-01-30 08:31:37.65	160.89	37.80	-53.0	-54.2	21.9	0.00e+00	0	45	0	492830720	60	20158
2026-01-30 08:31:38.65	160.93	38.05	-53.1	-54.4	21.7	0.00e+00	0	45	0	494927872	60	20467
2026-01-30 08:31:39.66	160.97	38.30	-52.8	-54.0	22.1	0.00e+00	0	45	0	497025024	60	19536
2026-01-30 08:31:40.67	161.01	38.55	-52.8	-54.0	21.9	0.00e+00	0	45	0	499122176	60	19681
2026-01-30 08:31:41.67	161.06	38.80	-52.9	-54.2	21.9	0.00e+00	0	45	0	500170752	60	20009
2026-01-30 08:31:42.67	161.10	39.05	-52.8	-54.0	21.9	0.00e+00	0	45	0	502267904	60	19723
2026-01-30 08:31:43.67	161.14	39.31	-52.9	-54.2	21.8	0.00e+00	0	45	0	504365056	60	20038
2026-01-30 08:31:44.68	161.18	39.57	-52.9	-54.1	21.9	0.00e+00	0	45	0	506462208	60	19864
2026-01-30 08:31:45.69	161.23	39.83	-53.0	-54.2	21.8	0.00e+00	0	45	0	508559360	60	20118
2026-01-30 08:31:46.70	161.27	40.10	-53.0	-54.3	21.8	0.00e+00	0	45	0	509607936	60	20338
2026-01-30 08:31:47.70	161.32	40.36	-52.9	-54.1	21.9	0.00e+00	0	45	0	511705088	60	19902
2026-01-30 08:31:48.71	161.36	40.63	-52.8	-54.0	22.0	0.00e+00	0	45	0	513802240	60	19612
2026-01-30 08:31:49.72	161.41	40.90	-52.6	-53.8	22.2	0.00e+00	0	45	0	515899392	60	19137
2026-01-30 08:31:50.72	161.46	41.17	-52.6	-53.8	22.1	0.00e+00	0	45	0	517996544	60	19215
2026-01-30 08:31:51.73	161.50	41.44	-52.8	-54.0	22.0	0.00e+00	0	45	0	519045120	60	19615
2026-01-30 08:31:52.74	161.55	41.72	-52.9	-54.2	21.9	0.00e+00	0	45	0	521142272	60	20004
2026-01-30 08:31:53.74	161.60	41.99	-53.3	-54.6	21.5	0.00e+00	0	45	0	523239424	60	21117
2026-01-30 08:31:54.75	161.65	42.27	-53.5	-54.9	21.2	0.00e+00	0	45	0	525336576	60	21706
2026-01-30 08:31:55.76	161.70	42.55	-53.6	-55.0	21.1	0.00e+00	0	45	0	527433728	60	22038
2026-01-30 08:31:56.77	161.76	42.84	-53.9	-55.3	20.9	0.00e+00	0	45	0	528482304	60	22805
2026-01-30 08:31:57.77	161.81	43.12	-53.9	-55.3	20.9	0.00e+00	0	45	0	530579456	60	22923
2026-01-30 08:31:58.78	161.86	43.41	-54.1	-55.6	20.6	0.00e+00	0	45	0	532676608	60	23696
2026-01-30 08:31:59.78	161.92	43.70	-54.2	-55.7	20.5	0.00e+00	0	45	0	534773760	60	23944
2026-01-30 08:32:00.79	161.97	43.99	-54.2	-55.7	20.5	0.00e+00	0	45	0	536870912	60	23847
2026-01-30 08:32:01.80	162.03	44.28	-54.3	-55.8	20.3	0.00e+00	0	45	0	537919488	60	24219
2026-01-30 08:32:02.81	162.09	44.58	-54.4	-56.0	20.3	0.00e+00	0	45	0	540016640	60	24800
2026-01-30 08:32:03.81	162.14	44.88	-54.7	-56.3	19.9	0.00e+00	0	45	0	542113792	60	25593
2026-01-30 08:32:04.82	162.20	45.18	-55.0	-56.7	19.5	0.00e+00	0	45	0	544210944	60	26878
2026-01-30 08:32:05.83	162.27	45.48	-55.2	-57.1	19.3	0.00e+00	0	45	0	546308096	60	28027
2026-01-30 08:32:06.84	162.33	45.79	-55.4	-57.3	19.0	0.00e+00	0	45	0	547356672	60	28702
2026-01-30 08:32:07.85	162.39	46.10	-55.6	-57.6	18.7	0.00e+00	0	45	0	549453824	60	29693
2026-01-30 08:32:08.85	162.45	46.41	-55.7	-57.7	18.6	0.00e+00	0	45	0	551550976	60	30150
2026-01-30 08:32:09.86	162.52	46.72	-55.9	-57.9	18.5	0.00e+00	0	45	0	553648128	60	30699
2026-01-30 08:32:10.86	162.59	47.03	-55.8	-57.8	18.6	0.00e+00	0	45	0	555745280	60	30580
2026-01-30 08:32:11.86	162.65	47.35	-56.1	-58.2	18.2	0.00e+00	0	45	0	556793856	60	31943
2026-01-30 08:32:12.87	162.72	47.67	-55.9	-58.1	18.4	0.00e+00	0	45	0	558891008	60	31312
2026-01-30 08:32:13.87	162.79	47.99	-55.9	-58.1	18.3	0.00e+00	0	45	0	560988160	60	31341
2026-01-30 08:32:14.88	162.86	48.31	-56.1	-58.3	18.1	0.00e+00	0	45	0	563085312	60	32120
2026-01-30 08:32:15.89	162.94	48.64	-56.3	-58.6	17.9	0.00e+00	0	45	0	565182464	60	33191
2026-01-30 08:32:16.90	163.01	48.97	-56.4	-58.6	17.8	0.00e+00	0	45	0	566231040	60	33474
2026-01-30 08:32:17.91	163.09	49.30	-56.5	-58.8	17.6	0.00e+00	0	45	0	568328192	60	34044
2026-01-30 08:32:18.91	163.17	49.63	-56.5	-58.8	17.6	0.00e+00	0	45	0	570425344	60	34208
2026-01-30 08:32:19.92	163.25	49.97	-56.1	-58.3	18.1	0.00e+00	0	45	0	572522496	60	32095
2026-01-30 08:32:20.92	163.33	50.30	-55.7	-57.6	18.9	0.00e+00	0	45	0	574619648	60	29785
2026-01-30 08:32:21.92	163.41	50.64	-54.9	-56.5	19.9	0.00e+00	0	45	0	575668224	60	26256
2026-01-30 08:32:22.93	163.49	50.99	-54.3	-55.8	20.6	0.00e+00	0	45	0	577765376	60	24277
2026-01-30 08:32:23.93	163.58	51.33	-54.1	-55.6	20.8	0.00e+00	0	45	0	579862528	60	23662
2026-01-30 08:32:24.93	163.67	51.68	-54.0	-55.5	21.0	0.00e+00	0	45	0	581959680	60	23212
2026-01-30 08:32:25.94	163.76	52.03	-53.5	-54.9	21.5	0.00e+00	0	45	0	584056832	60	21699
2026-01-30 08:32:26.94	163.85	52.38	-53.1	-54.3	22.1	0.00e+00	0	45	0	585105408	60	20320
2026-01-30 08:32:27.95	163.95	52.73	-52.7	-53.8	22.4	0.00e+00	0	45	0	587202560	60	19266
2026-01-30 08:32:28.94	164.04	53.09	-52.9	-54.0	22.2	0.00e+00	0	45	0	589299712	60	19705
2026-01-30 08:32:29.94	164.14	53.44	-53.0	-54.2	22.3	0.00e+00	0	45	0	591396864	60	20017
2026-01-30 08:32:30.94	164.24	53.80	-52.8	-54.0	22.4	0.00e+00	0	45	0	593494016	60	19664
2026-01-30 08:32:31.95	164.34	54.17	-52.7	-53.8	22.5	0.00e+00	0	45	0	594542592	60	19244
2026-01-30 08:32:32.95	164.45	54.54	-52.8	-53.9	22.4	0.00e+00	0	45	0	596639744	60	19522
2026-01-30 08:32:33.96	164.56	54.91	-52.9	-54.1	22.2	0.00e+00	0	45	0	598736896	60	19964
2026-01-30 08:32:34.96	164.67	55.28	-53.0	-54.2	22.1	0.00e+00	0	45	0	600834048	60	20118
2026-01-30 08:32:35.97	164.79	55.66	-53.0	-54.2	22.2	0.00e+00	0	45	0	601882624	60	20057
2026-01-30 08:32:36.98	164.91	56.03	-52.9	-54.1	22.3	0.00e+00	0	45	0	603979776	60	19789
2026-01-30 08:32:37.98	165.03	56.41	-53.0	-54.2	22.2	0.00e+00	0	45	0	606076928	60	20165
2026-01-30 08:32:38.98	165.15	56.79	-53.1	-54.3	22.0	0.00e+00	0	45	0	608174080	60	20407
2026-01-30 08:32:39.99	165.28	57.18	-53.6	-54.9	21.6	0.00e+00	0	45	0	610271232	60	21761
2026-01-30 08:32:41.00	165.41	57.57	-54.1	-55.5	20.9	0.00e+00	0	45	0	612368384	60	23447
2026-01-30 08:32:42.01	165.54	57.96	-54.6	-56.1	20.5	0.00e+00	0	45	0	613416960	60	24966
2026-01-30 08:32:43.01	165.68	58.35	-54.7	-56.3	20.3	0.00e+00	0	45	0	615514112	60	25499
2026-01-30 08:32:44.02	165.83	58.75	-54.4	-55.9	20.6	0.00e+00	0	45	0	617611264	60	24522
2026-01-30 08:32:45.03	165.97	59.15	-53.8	-55.2	21.2	0.00e+00	0	45	0	619708416	60	22595
2026-01-30 08:32:46.03	166.12	59.54	-53.3	-54.6	21.9	0.00e+00	0	45	0	621805568	60	20954
2026-01-30 08:32:47.04	166.28	59.95	-52.5	-53.7	22.7	0.00e+00	0	45	0	622854144	60	18933
2026-01-30 08:32:48.05	166.44	60.35	-51.9	-53.0	23.3	0.00e+00	0	45	0	624951296	60	17418
2026-01-30 08:32:49.06	166.61	60.76	-51.8	-52.9	23.2	0.00e+00	0	45	0	627048448	60	17203
2026-01-30 08:32:50.06	166.78	61.17	-51.9	-53.0	23.2	0.00e+00	0	45	0	629145600	60	17550
2026-01-30 08:32:51.07	166.96	61.58	-51.9	-53.0	23.1	0.00e+00	0	45	0	630194176	60	17440
2026-01-30 08:32:52.07	167.14	62.00	-51.4	-52.4	23.8	0.00e+00	0	45	0	632291328	60	16398
2026-01-30 08:32:53.08	167.33	62.41	-51.3	-52.2	23.8	0.00e+00	0	45	0	634388480	60	16005
2026-01-30 08:32:54.09	167.53	62.83	-51.5	-52.5	23.7	0.00e+00	0	45	0	636485632	60	16458
2026-01-30 08:32:55.10	167.73	63.26	-51.8	-52.9	23.2	0.00e+00	0	45	0	638582784	60	17250
2026-01-30 08:32:56.11	167.94	63.68	-52.4	-53.6	22.5	0.00e+00	0	45	0	640679936	60	18718
2026-01-30 08:32:57.11	168.16	64.10	-52.9	-54.2	22.0	0.00e+00	0	45	0	641728512	60	20087
2026-01-30 08:32:58.12	168.38	64.53	-53.2	-54.5	21.8	0.00e+00	0	45	0	643825664	60	20892
2026-01-30 08:32:59.12	168.62	64.96	-53.6	-55.0	21.3	0.00e+00	0	45	0	645922816	60	22083
2026-01-30 08:33:00.13	168.86	65.39	-54.0	-55.5	20.8	0.00e+00	0	45	0	648019968	60	23279
2026-01-30 08:33:01.13	169.11	65.82	-54.6	-56.3	19.9	0.00e+00	0	45	0	650117120	60	25526
2026-01-30 08:33:02.14	169.37	66.26	-55.2	-57.1	19.2	0.00e+00	0	45	0	651165696	60	28115
2026-01-30 08:33:03.14	169.64	66.70	-55.6	-57.7	18.5	0.00e+00	0	45	0	653262848	60	30080
2026-01-30 08:33:04.15	169.93	67.14	-55.7	-58.0	18.4	0.00e+00	0	45	0	655360000	60	30982
2026-01-30 08:33:05.15	170.22	67.58	-55.0	-56.8	19.6	0.00e+00	0	45	0	657457152	60	27066
2026-01-30 08:33:06.15	170.53	68.02	-54.2	-55.8	20.4	0.00e+00	0	45	0	658505728	60	24269
2026-01-30 08:33:07.16	170.86	68.46	-54.0	-55.6	20.5	0.00e+00	0	45	0	660602880	60	23652
2026-01-30 08:33:08.17	171.19	68.91	-54.0	-55.6	20.6	0.00e+00	0	45	0	662700032	60	23553
2026-01-30 08:33:09.18	171.55	69.36	-53.9	-55.5	20.8	0.00e+00	0	45	0	664797184	60	23274
2026-01-30 08:33:10.18	171.92	69.81	-53.5	-54.9	21.2	0.00e+00	0	45	0	666894336	60	21733
2026-01-30 08:33:11.19	172.30	70.26	-53.4	-54.9	21.2	0.00e+00	0	45	0	668991488	60	21702
2026-01-30 08:33:12.20	172.71	70.71	-53.6	-55.0	20.9	0.00e+00	0	45	0	670040064	60	22146
2026-01-30 08:33:13.21	173.14	71.17	-53.6	-55.1	21.1	0.00e+00	0	45	0	672137216	60	22254
2026-01-30 08:33:14.21	173.59	71.62	-53.7	-55.3	20.9	0.00e+00	0	45	0	674234368	60	22684
2026-01-30 08:33:15.22	174.06	72.07	-53.8	-55.3	21.0	0.00e+00	0	45	0	676331520	60	22882
2026-01-30 08:33:16.22	174.56	72.52	-53.7	-55.3	20.7	0.00e+00	0	45	0	678428672	60	22745
2026-01-30 08:33:17.23	175.09	72.98	-54.2	-55.9	20.4	0.00e+00	0	45	0	679477248	60	24331
2026-01-30 08:33:18.24	175.65	73.44	-54.9	-56.9	19.2	0.00e+00	0	45	0	681574400	60	27371
2026-01-30 08:33:19.24	176.24	73.89	-55.3	-57.5	18.7	0.00e+00	0	45	0	683671552	60	29465
2026-01-30 08:33:20.25	176.86	74.35	-55.1	-57.3	19.1	0.00e+00	0	45	0	685768704	60	28663
2026-01-30 08:33:21.25	177.52	74.80	-54.9	-57.0	19.2	0.00e+00	0	45	0	686817280	60	27790
2026-01-30 08:33:22.26	178.23	75.26	-54.8	-57.0	19.1	0.00e+00	0	45	0	688914432	60	27713
2026-01-30 08:33:23.26	178.98	75.71	-54.7	-57.0	19.4	0.00e+00	0	45	0	691011584	60	27645
2026-01-30 08:33:24.27	179.79	76.17	-54.2	-56.4	19.7	0.00e+00	0	45	0	693108736	60	25915
2026-01-30 08:33:25.28	180.66	76.62	-54.0	-56.1	19.8	0.00e+00	0	45	0	695205888	60	25149
2026-01-30 08:33:26.28	181.57	77.07	-54.4	-56.8	19.2	0.00e+00	0	45	0	697303040	60	27140
2026-01-30 08:33:27.29	182.57	77.52	-54.2	-56.8	19.0	0.00e+00	0	45	0	698351616	60	27006
2026-01-30 08:33:28.30	183.64	77.97	-54.2	-56.9	19.1	0.00e+00	0	45	0	700448768	60	27491
2026-01-30 08:33:29.30	184.78	78.41	-54.2	-57.1	18.7	0.00e+00	0	45	0	702545920	60	28077
2026-01-30 08:33:30.31	186.03	78.85	-54.0	-56.8	19.3	0.00e+00	0	45	0	704643072	60	27053
2026-01-30 08:33:31.32	187.38	79.28	-53.3	-55.9	19.8	0.00e+00	0	45	0	706740224	60	24540
2026-01-30 08:33:32.32	188.83	79.71	-52.8	-55.2	20.6	0.00e+00	0	45	0	707788800	60	22508
2026-01-30 08:33:33.33	190.43	80.14	-52.4	-54.7	20.6	0.00e+00	0	45	0	709885952	60	21252
2026-01-30 08:33:34.34	192.17	80.55	-52.8	-55.6	19.9	0.00e+00	0	45	0	711983104	60	23576
2026-01-30 08:33:35.34	194.05	80.96	-53.7	-57.4	17.9	0.00e+00	0	45	0	714080256	60	29162
2026-01-30 08:33:36.34	196.10	81.35	-53.9	-58.3	17.0	0.00e+00	0	45	0	715128832	60	32363
2026-01-30 08:33:37.35	198.38	81.74	-53.6	-57.6	17.6	0.00e+00	0	45	0	717225984	60	29830
2026-01-30 08:33:38.35	200.85	82.11	-53.4	-57.2	17.9	0.00e+00	0	45	0	719323136	60	28415
2026-01-30 08:33:39.36	203.60	82.47	-52.7	-56.0	19.1	0.00e+00	0	45	0	721420288	60	24701
2026-01-30 08:33:40.36	206.58	82.81	-52.2	-55.2	19.6	0.00e+00	0	45	0	723517440	60	22568
2026-01-30 08:33:41.36	209.84	83.12	-52.1	-55.0	19.7	0.00e+00	0	45	0	724566016	60	22141
2026-01-30 08:33:42.37	213.45	83.42	-51.7	-54.3	20.4	0.00e+00	0	45	0	726663168	60	20227
2026-01-30 08:33:43.38	217.38	83.69	-51.2	-53.4	21.2	0.00e+00	0	45	0	728760320	60	18236
2026-01-30 08:33:44.38	221.59	83.92	-51.1	-53.3	21.3	0.00e+00	0	45	0	730857472	60	18028
2026-01-30 08:33:45.39	226.17	84.12	-51.2	-53.5	21.1	0.00e+00	0	45	0	732954624	60	18534
2026-01-30 08:33:46.40	231.03	84.28	-51.7	-54.0	20.9	0.00e+00	0	45	0	735051776	60	19694
2026-01-30 08:33:47.40	236.08	84.40	-52.4	-54.9	20.1	0.00e+00	0	45	0	736100352	60	21747
2026-01-30 08:33:48.41	241.36	84.47	-52.2	-54.5	20.8	0.00e+00	0	45	0	738197504	60	20804
2026-01-30 08:33:49.41	246.68	84.49	-52.2	-54.4	20.8	0.00e+00	0	45	0	740294656	60	20631
2026-01-30 08:33:50.42	252.05	84.47	-52.5	-54.8	20.7	0.00e+00	0	45	0	742391808	60	21513
2026-01-30 08:33:51.42	257.28	84.40	-52.5	-54.6	21.1	0.00e+00	0	45	0	743440384	60	21118
2026-01-30 08:33:52.43	262.39	84.28	-52.8	-54.9	20.9	0.00e+00	0	45	0	745537536	60	21747
2026-01-30 08:33:53.43	267.21	84.12	-53.8	-56.2	19.7	0.00e+00	0	45	0	747634688	60	25165
2026-01-30 08:33:54.44	271.80	83.93	-54.5	-57.2	18.7	0.00e+00	0	45	0	749731840	60	28409
2026-01-30 08:33:55.44	276.02	83.69	-55.0	-57.9	18.2	0.00e+00	0	45	0	751828992	60	30758
2026-01-30 08:33:56.44	279.92	83.43	-55.4	-58.5	17.6	0.00e+00	0	45	0	752877568	60	33071
2026-01-30 08:33:57.45	283.54	83.14	-55.5	-58.9	17.1	0.00e+00	0	45	0	754974720	60	34663
2026-01-30 08:33:58.46	286.85	82.82	-55.5	-59.1	17.0	0.00e+00	0	45	0	757071872	60	35431
2026-01-30 08:33:59.47	289.87	82.48	-55.7	-60.1	15.9	0.00e+00	0	45	0	759169024	60	39734
2026-01-30 08:34:00.47	292.59	82.12	-55.4	-60.5	15.4	0.00e+00	0	45	0	761266176	60	41413
2026-01-30 08:34:01.48	295.09	81.75	-54.8	-59.4	16.3	0.00e+00	0	45	0	763363328	60	36617
2026-01-30 08:34:02.49	297.37	81.36	-54.0	-58.2	17.1	0.00e+00	0	45	0	764411904	60	31890
2026-01-30 08:34:03.49	299.43	80.97	-53.3	-56.9	18.3	0.00e+00	0	45	0	766509056	60	27518
2026-01-30 08:34:04.50	301.33	80.56	-52.6	-55.9	18.9	0.00e+00	0	45	0	768606208	60	24349
2026-01-30 08:34:05.50	303.06	80.15	-52.5	-55.7	19.1	0.00e+00	0	45	0	770703360	60	23991
2026-01-30 08:34:06.51	304.66	79.72	-52.6	-55.8	19.1	0.00e+00	0	45	0	771751936	60	24131
2026-01-30 08:34:07.51	306.11	79.30	-52.8	-55.8	19.3	0.00e+00	0	45	0	773849088	60	24112
2026-01-30 08:34:08.51	307.45	78.87	-52.8	-55.6	19.4	0.00e+00	0	45	0	775946240	60	23685
2026-01-30 08:34:09.51	308.69	78.43	-52.9	-55.6	19.7	0.00e+00	0	45	0	778043392	60	23514
2026-01-30 08:34:10.52	309.85	77.99	-53.8	-56.8	18.6	0.00e+00	0	45	0	780140544	60	27074
2026-01-30 08:34:11.52	310.91	77.54	-55.2	-59.2	16.5	0.00e+00	0	45	0	781189120	60	35536
2026-01-30 08:34:12.52	311.90	77.10	-56.1	-61.0	14.8	0.00e+00	0	45	0	783286272	60	43990
2026-01-30 08:34:13.53	312.83	76.65	-56.6	-62.1	13.5	3.80e-06	0	45	0	785383424	60	49825
2026-01-30 08:34:14.54	313.69	76.19	-56.7	-62.5	13.0	3.05e-05	0	45	0	787480576	60	52480
2026-01-30 08:34:15.54	314.50	75.74	-56.6	-62.1	13.6	3.28e-05	0	45	0	789577728	60	49688
2026-01-30 08:34:16.55	315.26	75.29	-56.0	-60.4	15.5	1.50e-06	0	45	0	790626304	60	41064
2026-01-30 08:34:17.56	315.97	74.83	-55.8	-59.8	15.8	0.00e+00	0	45	0	792723456	60	38397
2026-01-30 08:34:18.56	316.63	74.38	-56.0	-60.3	15.2	0.00e+00	0	45	0	794820608	60	40708
2026-01-30 08:34:19.57	317.26	73.92	-56.2	-60.8	15.1	0.00e+00	0	45	0	796917760	60	42732
2026-01-30 08:34:20.57	317.85	73.47	-56.3	-60.4	15.6	0.00e+00	0	45	0	797966336	60	41132
2026-01-30 08:34:21.58	318.41	73.01	-55.3	-57.9	18.5	0.00e+00	0	45	0	800063488	60	30631
2026-01-30 08:34:22.58	318.93	72.56	-54.9	-57.0	19.3	0.00e+00	0	45	0	802160640	60	27670
2026-01-30 08:34:23.58	319.43	72.11	-55.1	-57.0	19.3	0.00e+00	0	45	0	804257792	60	27894
2026-01-30 08:34:24.59	319.91	71.65	-54.9	-56.8	19.6	0.00e+00	0	45	0	806354944	60	27118
2026-01-30 08:34:25.59	320.36	71.20	-54.1	-55.8	20.5	0.00e+00	0	45	0	808452096	60	24057
2026-01-30 08:34:26.59	320.78	70.75	-53.7	-55.3	20.8	0.00e+00	0	45	0	809500672	60	22759
2026-01-30 08:34:27.60	321.19	70.30	-53.7	-55.4	20.6	0.00e+00	0	45	0	811597824	60	23113
2026-01-30 08:34:28.61	321.58	69.85	-54.2	-56.1	19.9	0.00e+00	0	45	0	813694976	60	25023
2026-01-30 08:34:29.61	321.95	69.41	-55.0	-57.2	18.9	0.00e+00	0	45	0	815792128	60	28515
2026-01-30 08:34:30.62	322.31	68.96	-54.9	-57.1	19.1	0.00e+00	0	45	0	817889280	60	28105
2026-01-30 08:34:31.62	322.64	68.51	-54.6	-56.7	19.4	0.00e+00	0	45	0	818937856	60	26700
2026-01-30 08:34:32.62	322.96	68.07	-55.3	-57.7	18.2	0.00e+00	0	45	0	821035008	60	30226
2026-01-30 08:34:33.63	323.27	67.63	-56.1	-59.2	16.7	0.00e+00	0	45	0	823132160	60	35852
2026-01-30 08:34:34.63	323.57	67.19	-55.9	-59.4	16.4	0.00e+00	0	45	0	825229312	60	36568
2026-01-30 08:34:35.63	323.85	66.76	-55.5	-58.8	17.0	0.00e+00	0	45	0	826277888	60	34092
2026-01-30 08:34:36.64	324.13	66.32	-55.0	-58.1	17.8	0.00e+00	0	45	0	828375040	60	31364
2026-01-30 08:34:37.65	324.39	65.88	-54.8	-57.7	18.3	0.00e+00	0	45	0	830472192	60	30096
2026-01-30 08:34:38.66	324.65	65.45	-54.6	-57.2	18.9	0.00e+00	0	45	0	832569344	60	28424
2026-01-30 08:34:39.66	324.89	65.02	-54.9	-57.5	18.7	0.00e+00	0	45	0	834666496	60	29386
2026-01-30 08:34:40.66	325.12	64.59	-54.6	-56.8	19.4	0.00e+00	0	45	0	835715072	60	27065
2026-01-30 08:34:41.67	325.35	64.16	-53.5	-55.2	21.1	0.00e+00	0	45	0	837812224	60	22501
2026-01-30 08:34:42.68	325.57	63.74	-53.0	-54.4	21.7	0.00e+00	0	45	0	839909376	60	20552
2026-01-30 08:34:43.69	325.78	63.31	-52.7	-54.1	22.2	0.00e+00	0	45	0	842006528	60	19868
2026-01-30 08:34:44.69	325.98	62.90	-52.8	-54.2	21.8	0.00e+00	0	45	0	844103680	60	20053
2026-01-30 08:34:45.69	326.18	62.48	-52.7	-54.1	22.0	0.00e+00	0	45	0	846200832	60	19958
2026-01-30 08:34:46.70	326.37	62.06	-52.5	-53.9	22.2	0.00e+00	0	45	0	847249408	60	19373
2026-01-30 08:34:47.71	326.55	61.65	-52.5	-53.9	22.2	0.00e+00	0	45	0	849346560	60	19305
2026-01-30 08:34:48.71	326.73	61.24	-52.4	-53.8	22.3	0.00e+00	0	45	0	851443712	60	19095
2026-01-30 08:34:49.72	326.90	60.83	-52.6	-54.0	22.0	0.00e+00	0	45	0	853540864	60	19637
2026-01-30 08:34:50.73	327.07	60.42	-53.7	-55.5	20.6	0.00e+00	0	45	0	854589440	60	23448
2026-01-30 08:34:51.73	327.23	60.02	-54.8	-57.1	19.0	0.00e+00	0	45	0	856686592	60	28078
2026-01-30 08:34:52.74	327.38	59.62	-54.8	-57.2	19.1	0.00e+00	0	45	0	858783744	60	28365
2026-01-30 08:34:53.75	327.54	59.22	-54.5	-56.7	19.1	0.00e+00	0	45	0	860880896	60	26867
2026-01-30 08:34:54.75	327.68	58.82	-54.5	-56.7	19.3	0.00e+00	0	45	0	862978048	60	26766
2026-01-30 08:34:55.76	327.83	58.43	-54.8	-57.2	18.9	0.00e+00	0	45	0	864026624	60	28408
2026-01-30 08:34:56.76	327.97	58.04	-55.2	-57.7	18.2	0.00e+00	0	45	0	866123776	60	30226
2026-01-30 08:34:57.77	328.10	57.64	-55.4	-58.1	18.1	0.00e+00	0	45	0	868220928	60	31406
2026-01-30 08:34:58.78	328.23	57.26	-55.4	-58.0	18.2	0.00e+00	0	45	0	870318080	60	31222
2026-01-30 08:34:59.79	328.36	56.87	-55.0	-57.4	19.0	0.00e+00	0	45	0	872415232	60	28998
2026-01-30 08:35:00.80	328.49	56.49	-54.5	-56.6	19.9	0.00e+00	0	45	0	874512384	60	26411
2026-01-30 08:35:01.81	328.61	56.11	-54.2	-56.0	20.2	0.00e+00	0	45	0	875560960	60	24838
2026-01-30 08:35:02.81	328.73	55.73	-53.6	-55.1	21.1	0.00e+00	0	45	0	877658112	60	22356
2026-01-30 08:35:03.82	328.84	55.36	-53.3	-54.9	21.3	0.00e+00	0	45	0	879755264	60	21713
2026-01-30 08:35:04.83	328.96	54.98	-53.4	-54.9	21.3	0.00e+00	0	45	0	881852416	60	21855
2026-01-30 08:35:05.83	329.07	54.62	-53.0	-54.5	21.7	0.00e+00	0	45	0	883949568	60	20696
2026-01-30 08:35:06.83	329.17	54.25	-52.5	-53.8	22.2	0.00e+00	0	45	0	884998144	60	19279
2026-01-30 08:35:07.84	329.28	53.89	-52.7	-54.0	22.1	0.00e+00	0	45	0	887095296	60	19581
2026-01-30 08:35:08.85	329.38	53.52	-53.1	-54.4	21.8	0.00e+00	0	45	0	889192448	60	20476
2026-01-30 08:35:09.85	329.48	53.16	-53.2	-54.5	21.7	0.00e+00	0	45	0	891289600	60	20770
2026-01-30 08:35:10.86	329.58	52.81	-52.9	-54.1	22.1	0.00e+00	0	45	0	892338176	60	19962
2026-01-30 08:35:11.87	329.67	52.45	-53.0	-54.2	22.0	0.00e+00	0	45	0	894435328	60	20193
2026-01-30 08:35:12.87	329.76	52.10	-53.4	-54.8	21.3	0.00e+00	0	45	0	896532480	60	21549
2026-01-30 08:35:13.88	329.85	51.75	-54.4	-56.1	20.2	0.00e+00	0	45	0	898629632	60	24912
2026-01-30 08:35:14.88	329.94	51.41	-55.4	-57.5	18.8	0.00e+00	0	45	0	900726784	60	29303
2026-01-30 08:35:15.88	330.03	51.06	-56.5	-59.2	17.0	0.00e+00	0	45	0	902823936	60	35589
2026-01-30 08:35:16.89	330.11	50.72	-57.2	-60.4	15.6	0.00e+00	0	45	0	903872512	60	40907
2026-01-30 08:35:17.90	330.20	50.38	-57.7	-61.4	14.6	0.00e+00	0	45	0	905969664	60	45954
2026-01-30 08:35:18.91	330.28	50.04	-57.6	-61.4	14.8	0.00e+00	0	45	0	908066816	60	45987
2026-01-30 08:35:19.91	330.36	49.71	-57.0	-60.2	16.0	0.00e+00	0	45	0	910163968	60	40064
2026-01-30 08:35:20.91	330.44	49.38	-56.4	-59.3	17.0	0.00e+00	0	45	0	912261120	60	36194
2026-01-30 08:35:21.92	330.51	49.05	-56.5	-59.7	16.4	0.00e+00	0	45	0	913309696	60	37828
2026-01-30 08:35:22.93	330.59	48.72	-57.4	-61.9	14.0	0.00e+00	0	45	0	915406848	60	48909
2026-01-30 08:35:23.93	330.66	48.39	-58.2	-65.4	10.2	5.07e-04	0	45	0	917504000	60	72703
2026-01-30 08:35:24.93	330.73	48.07	-58.6	-68.2	6.9	8.75e-02	0	45	0	919601152	60	101147
2026-01-30 08:35:25.93	330.80	47.75	-58.0	-64.4	11.4	7.67e-02	0	45	0	920649728	60	64924
2026-01-30 08:35:26.94	330.87	47.44	-56.7	-60.7	15.6	1.63e-04	0	45	0	922746880	60	42387
2026-01-30 08:35:27.94	330.94	47.12	-56.0	-58.8	17.4	0.00e+00	0	45	0	924844032	60	34204
2026-01-30 08:35:28.95	331.01	46.81	-55.8	-58.2	18.0	0.00e+00	0	45	0	926941184	60	32026
2026-01-30 08:35:29.96	331.07	46.49	-55.6	-57.8	18.5	0.00e+00	0	45	0	929038336	60	30376
2026-01-30 08:35:30.96	331.14	46.19	-55.8	-57.9	18.4	0.00e+00	0	45	0	930086912	60	30635
2026-01-30 08:35:31.96	331.20	45.88	-55.7	-57.6	18.9	0.00e+00	0	45	0	932184064	60	29697
2026-01-30 08:35:32.97	331.26	45.58	-56.2	-58.3	18.2	0.00e+00	0	45	0	934281216	60	32311
2026-01-30 08:35:33.98	331.32	45.27	-56.1	-58.2	18.2	0.00e+00	0	45	0	936378368	60	31957
2026-01-30 08:35:34.99	331.38	44.97	-56.2	-58.3	18.1	0.00e+00	0	45	0	938475520	60	32324
2026-01-30 08:35:35.99	331.44	44.68	-55.6	-57.6	18.7	0.00e+00	0	45	0	940572672	60	29797
2026-01-30 08:35:37.00	331.50	44.38	-55.1	-57.1	19.1	0.00e+00	0	45	0	941621248	60	28039
2026-01-30 08:35:38.01	331.55	44.09	-54.3	-56.2	19.9	0.00e+00	0	45	0	943718400	60	25361
2026-01-30 08:35:39.02	331.61	43.79	-53.8	-55.7	20.4	0.00e+00	0	45	0	945815552	60	23889
2026-01-30 08:35:40.02	331.66	43.51	-53.4	-55.3	21.1	0.00e+00	0	45	0	947912704	60	22759
2026-01-30 08:35:41.03	331.72	43.22	-52.5	-54.1	22.0	0.00e+00	0	45	0	948961280	60	19932
2026-01-30 08:35:42.03	331.77	42.94	-51.9	-53.3	22.8	0.00e+00	0	45	0	951058432	60	18087
2026-01-30 08:35:43.04	331.82	42.65	-51.9	-53.3	22.7	0.00e+00	0	45	0	953155584	60	18124
2026-01-30 08:35:44.05	331.88	42.37	-52.5	-53.9	21.8	0.00e+00	0	45	0	955252736	60	19384
2026-01-30 08:35:45.06	331.93	42.09	-53.2	-54.7	20.9	0.00e+00	0	45	0	957349888	60	21356
2026-01-30 08:35:46.06	331.98	41.82	-54.1	-56.1	19.5	0.00e+00	0	45	0	958398464	60	24910
2026-01-30 08:35:47.07	332.02	41.54	-54.7	-57.0	18.7	0.00e+00	0	45	0	960495616	60	27742
2026-01-30 08:35:48.08	332.07	41.27	-55.2	-57.7	18.0	0.00e+00	0	45	0	962592768	60	30031
2026-01-30 08:35:49.09	332.12	41.00	-54.7	-56.9	19.0	0.00e+00	0	45	0	964689920	60	27468
2026-01-30 08:35:50.09	332.17	40.73	-54.3	-56.3	19.8	0.00e+00	0	45	0	966787072	60	25494
2026-01-30 08:35:51.09	332.21	40.47	-53.9	-55.6	20.6	0.00e+00	0	45	0	968884224	60	23672
2026-01-30 08:35:52.10	332.26	40.20	-53.7	-55.3	21.0	0.00e+00	0	45	0	969932800	60	22937
2026-01-30 08:35:53.11	332.30	39.94	-53.7	-55.2	21.1	0.00e+00	0	45	0	972029952	60	22632
2026-01-30 08:35:54.12	332.35	39.68	-53.6	-55.0	21.3	0.00e+00	0	45	0	974127104	60	22047
2026-01-30 08:35:55.13	332.39	39.42	-53.8	-55.2	21.1	0.00e+00	0	45	0	976224256	60	22582
2026-01-30 08:35:56.14	332.43	39.16	-54.3	-55.9	20.4	0.00e+00	0	45	0	977272832	60	24343
2026-01-30 08:35:57.15	332.48	38.91	-55.0	-56.8	19.3	0.00e+00	0	45	0	979369984	60	27010
2026-01-30 08:35:58.15	332.52	38.65	-55.2	-57.4	18.6	0.00e+00	0	45	0	981467136	60	29070
2026-01-30 08:35:59.16	332.56	38.40	-55.6	-58.7	17.1	0.00e+00	0	45	0	983564288	60	33583
2026-01-30 08:36:00.16	332.60	38.16	-55.7	-59.8	15.9	0.00e+00	0	45	0	985661440	60	38311
2026-01-30 08:36:01.17	332.64	37.91	-55.8	-60.8	15.0	0.00e+00	0	45	0	986710016	60	42752
2026-01-30 08:36:02.18	332.68	37.66	-55.6	-60.6	15.2	7.00e-07	0	45	0	988807168	60	42089
2026-01-30 08:36:03.19	332.72	37.42	-55.5	-60.4	15.6	0.00e+00	0	45	0	990904320	60	41170
2026-01-30 08:36:04.19	332.76	37.18	-55.0	-58.9	17.3	0.00e+00	0	45	0	993001472	60	34699
2026-01-30 08:36:05.20	332.80	36.93	-54.6	-57.8	18.5	0.00e+00	0	45	0	995098624	60	30512
2026-01-30 08:36:06.21	332.83	36.70	-54.4	-57.2	19.3	0.00e+00	0	45	0	997195776	60	28235
2026-01-30 08:36:07.22	332.87	36.46	-54.2	-56.7	19.7	0.00e+00	0	45	0	998244352	60	26813
2026-01-30 08:36:08.22	332.91	36.22	-54.4	-56.7	19.7	0.00e+00	0	45	0	1000341504	60	26940
2026-01-30 08:36:09.23	332.94	35.99	-54.4	-56.4	19.9	0.00e+00	0	45	0	1002438656	60	25913
2026-01-30 08:36:10.24	332.98	35.76	-54.1	-55.8	19.8	0.00e+00	0	45	0	1004535808	60	24228
2026-01-30 08:36:11.25	333.01	35.53	-54.0	-55.8	19.5	0.00e+00	0	45	0	1005584384	60	24201
2026-01-30 08:36:12.26	333.05	35.30	-54.0	-56.1	18.9	0.00e+00	0	45	0	1007681536	60	24979
2026-01-30 08:36:13.26	333.08	35.07	-54.2	-56.7	18.3	0.00e+00	0	45	0	1009778688	60	26696
2026-01-30 08:36:14.27	333.12	34.85	-54.4	-57.3	17.7	0.00e+00	0	45	0	1011875840	60	28688
2026-01-30 08:36:15.27	333.15	34.63	-54.9	-58.4	16.8	0.00e+00	0	45	0	1013972992	60	32635
2026-01-30 08:36:16.28	333.18	34.40	-55.6	-59.6	15.8	0.00e+00	0	45	0	1016070144	60	37436
2026-01-30 08:36:17.29	333.21	34.18	-56.2	-60.7	14.9	0.00e+00	0	45	0	1017118720	60	42623
2026-01-30 08:36:18.29	333.25	33.96	-56.7	-61.5	14.5	1.50e-06	0	45	0	1019215872	60	46690
2026-01-30 08:36:19.30	333.28	33.75	-57.1	-62.2	13.9	2.20e-06	0	45	0	1021313024	60	50185
2026-01-30 08:36:20.30	333.31	33.53	-57.2	-62.0	13.0	1.86e-04	0	45	0	1023410176	60	49431
2026-01-30 08:36:21.30	333.34	33.32	-57.3	-61.4	14.8	7.00e-07	0	45	0	1025507328	60	45891
2026-01-30 08:36:22.31	333.37	33.11	-57.4	-60.8	15.6	7.00e-07	0	45	0	1026555904	60	42995
2026-01-30 08:36:23.31	333.40	32.90	-56.9	-59.8	16.6	0.00e+00	0	45	0	1028653056	60	38240
2026-01-30 08:36:24.32	333.43	32.69	-56.4	-58.8	17.6	0.00e+00	0	45	0	1030750208	60	34195
2026-01-30 08:36:25.33	333.46	32.48	-56.2	-58.4	17.9	0.00e+00	0	45	0	1032847360	60	32755
2026-01-30 08:36:26.34	333.49	32.27	-56.0	-58.2	18.0	0.00e+00	0	45	0	1033895936	60	31865
2026-01-30 08:36:27.35	333.52	32.06	-55.7	-57.9	18.3	0.00e+00	0	45	0	1035993088	60	30820
2026-01-30 08:36:28.35	333.55	31.86	-55.6	-58.0	18.2	0.00e+00	0	45	0	1038090240	60	31150
2026-01-30 08:36:29.36	333.58	31.66	-55.5	-58.0	18.2	0.00e+00	0	45	0	1040187392	60	31150
2026-01-30 08:36:30.37	333.61	31.45	-55.6	-58.4	17.9	0.00e+00	0	45	0	1042284544	60	32409
2026-01-30 08:36:31.37	333.63	31.26	-55.6	-58.4	17.8	0.00e+00	0	45	0	1043333120	60	32610
2026-01-30 08:36:32.38	333.66	31.06	-55.7	-58.4	18.0	0.00e+00	0	45	0	1045430272	60	32522
2026-01-30 08:36:33.38	333.69	30.86	-55.7	-58.3	18.0	0.00e+00	0	45	0	1047527424	60	32175
2026-01-30 08:36:34.39	333.72	30.66	-55.6	-58.1	18.2	0.00e+00	0	45	0	1049624576	60	31448
2026-01-30 08:36:35.40	333.74	30.47	-55.7	-58.0	18.2	0.00e+00	0	45	0	1051721728	60	31173
2026-01-30 08:36:36.41	333.77	30.28	-55.8	-58.0	18.2	0.00e+00	0	45	0	1053818880	60	31199
2026-01-30 08:36:37.41	333.80	30.08	-55.8	-58.0	18.1	0.00e+00	0	45	0	1054867456	60	31183
2026-01-30 08:36:38.42	333.82	29.89	-55.8	-58.0	18.1	0.00e+00	0	45	0	1056964608	60	31104
2026-01-30 08:36:39.42	333.85	29.70	-55.7	-57.8	18.1	0.00e+00	0	45	0	1059061760	60	30474
2026-01-30 08:36:40.43	333.87	29.52	-55.7	-57.8	18.0	0.00e+00	0	45	0	1061158912	60	30552
2026-01-30 08:36:41.44	333.90	29.33	-55.9	-58.1	18.0	0.00e+00	0	45	0	1062207488	60	31408
2026-01-30 08:36:42.44	333.92	29.14	-55.9	-58.2	18.0	0.00e+00	0	45	0	1064304640	60	31719
2026-01-30 08:36:43.44	333.95	28.96	-56.0	-58.2	18.0	0.00e+00	0	45	0	1066401792	60	31844
2026-01-30 08:36:44.45	333.97	28.78	-55.7	-57.7	18.5	0.00e+00	0	45	0	1068498944	60	30049
2026-01-30 08:36:45.46	334.00	28.59	-55.5	-57.4	18.8	0.00e+00	0	45	0	1070596096	60	29111
2026-01-30 08:36:46.46	334.02	28.41	-55.4	-57.3	19.0	0.00e+00	0	45	0	1071644672	60	28593
2026-01-30 08:36:47.47	334.05	28.23	-55.3	-57.2	18.9	0.00e+00	0	45	0	1073741824	60	28544
2026-01-30 08:36:48.48	334.07	28.05	-55.1	-56.9	19.2	0.00e+00	0	45	0	1075838976	60	27526
2026-01-30 08:36:49.48	334.09	27.88	-54.8	-56.5	19.6	0.00e+00	0	45	0	1077936128	60	26332
2026-01-30 08:36:50.49	334.12	27.70	-54.7	-56.4	19.6	0.00e+00	0	45	0	1080033280	60	25936
2026-01-30 08:36:51.49	334.14	27.53	-54.7	-56.4	19.6	0.00e+00	0	45	0	1082130432	60	25947
2026-01-30 08:36:52.50	334.16	27.35	-54.3	-56.0	20.0	0.00e+00	0	45	0	1083179008	60	24823
2026-01-30 08:36:53.51	334.18	27.18	-54.1	-55.9	20.0	0.00e+00	0	45	0	1085276160	60	24357
2026-01-30 08:36:54.51	334.21	27.01	-54.2	-56.0	20.0	0.00e+00	0	45	0	1087373312	60	24602
2026-01-30 08:36:55.52	334.23	26.84	-53.9	-55.6	20.4	0.00e+00	0	45	0	1089470464	60	23485
2026-01-30 08:36:56.52	334.25	26.67	-53.9	-55.5	20.5	0.00e+00	0	45	0	1090519040	60	23389
2026-01-30 08:36:57.53	334.27	26.50	-54.0	-55.6	20.4	0.00e+00	0	45	0	1092616192	60	23510
2026-01-30 08:36:58.54	334.29	26.33	-53.9	-55.5	20.5	0.00e+00	0	45	0	1094713344	60	23361
2026-01-30 08:36:59.54	334.32	26.17	-54.0	-55.6	20.4	0.00e+00	0	45	0	1096810496	60	23656
2026-01-30 08:37:00.55	334.34	26.00	-54.0	-55.5	20.5	0.00e+00	0	45	0	1098907648	60	23344
2026-01-30 08:37:01.56	334.36	25.83	-54.0	-55.5	20.5	0.00e+00	0	45	0	1099956224	60	23315
2026-01-30 08:37:02.57	334.38	25.67	-54.0	-55.5	20.6	0.00e+00	0	45	0	1102053376	60	23250
2026-01-30 08:37:03.58	334.40	25.51	-53.9	-55.5	20.5	0.00e+00	0	45	0	1104150528	60	23276
2026-01-30 08:37:04.58	334.42	25.35	-53.9	-55.4	20.8	0.00e+00	0	45	0	1106247680	60	23047
2026-01-30 08:37:05.59	334.44	25.19	-53.9	-55.4	20.6	0.00e+00	0	45	0	1108344832	60	23195
2026-01-30 08:37:06.60	334.46	25.03	-53.8	-55.3	20.7	0.00e+00	0	45	0	1110441984	60	22919
2026-01-30 08:37:07.60	334.48	24.87	-53.6	-55.1	20.9	0.00e+00	0	45	0	1111490560	60	22344
2026-01-30 08:37:08.61	334.50	24.71	-53.5	-55.1	20.9	0.00e+00	0	45	0	1113587712	60	22237
2026-01-30 08:37:09.62	334.52	24.55	-53.4	-55.0	21.0	0.00e+00	0	45	0	1115684864	60	22100
2026-01-30 08:37:10.62	334.54	24.40	-53.4	-55.0	20.9	0.00e+00	0	45	0	1117782016	60	22104
2026-01-30 08:37:11.62	334.56	24.24	-53.5	-55.1	20.9	0.00e+00	0	45	0	1118830592	60	22169
2026-01-30 08:37:12.63	334.58	24.09	-53.2	-54.8	21.1	0.00e+00	0	45	0	1120927744	60	21417
2026-01-30 08:37:13.64	334.60	23.94	-53.0	-54.5	21.3	0.00e+00	0	45	0	1123024896	60	20719
2026-01-30 08:37:14.64	334.62	23.78	-53.0	-54.5	21.2	0.00e+00	0	45	0	1125122048	60	20776
2026-01-30 08:37:15.65	334.64	23.63	-53.0	-54.4	21.1	0.00e+00	0	45	0	1127219200	60	20649
2026-01-30 08:37:16.66	334.66	23.48	-52.8	-54.2	21.2	0.00e+00	0	45	0	1128267776	60	20170
2026-01-30 08:37:17.66	334.67	23.33	-52.7	-54.1	21.3	0.00e+00	0	45	0	1130364928	60	19943
2026-01-30 08:37:18.67	334.69	23.18	-52.6	-53.9	21.4	0.00e+00	0	45	0	1132462080	60	19512
2026-01-30 08:37:19.68	334.71	23.03	-52.6	-54.0	21.4	0.00e+00	0	45	0	1134559232	60	19538
2026-01-30 08:37:20.69	334.73	22.89	-52.5	-53.9	21.6	0.00e+00	0	45	0	1136656384	60	19439
2026-01-30 08:37:21.70	334.75	22.74	-52.6	-54.0	21.5	0.00e+00	0	45	0	1138753536	60	19551
2026-01-30 08:37:22.70	334.77	22.60	-52.6	-53.9	21.5	0.00e+00	0	45	0	1139802112	60	19453
2026-01-30 08:37:23.71	334.78	22.45	-52.6	-54.0	21.5	0.00e+00	0	45	0	1141899264	60	19528
2026-01-30 08:37:24.71	334.80	22.31	-52.6	-53.9	21.6	0.00e+00	0	45	0	1143996416	60	19474
2026-01-30 08:37:25.72	334.82	22.17	-52.5	-53.9	21.8	0.00e+00	0	45	0	1146093568	60	19403
2026-01-30 08:37:26.72	334.84	22.02	-52.5	-53.9	21.8	0.00e+00	0	45	0	1147142144	60	19388
2026-01-30 08:37:27.73	334.85	21.88	-52.6	-54.0	21.7	0.00e+00	0	45	0	1149239296	60	19564
2026-01-30 08:37:28.73	334.87	21.74	-52.7	-54.0	21.7	0.00e+00	0	45	0	1151336448	60	19640
2026-01-30 08:37:29.74	334.89	21.60	-52.7	-54.1	21.6	0.00e+00	0	45	0	1153433600	60	19827
