passes_logs/2026/01/30/R3.2S-Naryan-Mar/R3.2S-Naryan-Mar__20260130_105844_NOAA_21_JPSS-2_rec.log

#Pass ID: 20260130_105844_NOAA 21 (JPSS-2)
#Satellite: NOAA 21 (JPSS-2)
#Configuration: NOAA-21
#almurnet v.1.7.20240730
#Start time: 2026-01-30 10:58:47

#Version: 2.2.20231116
#Station: R3.2S-Naryan-Mar
#Location: 53.008057 lon 67.646978 lat
#TLE: 1 54234U 22150A   26029.46216196  .00000141  00000+0  87503-4 0  9994
#TLE: 2 54234  98.7512 330.1880 0000955 196.3413 163.7732 14.19540905166865

#Time	Az	El	Level	Level2	SNR	BER	BlckErr	Temp	State	Recorded	gain1	gain2
2026-01-30 10:58:47.28	220.59	0.11	-59.5	-73.8	3.3	1.54e+00	0	45	0	0	60	186205
2026-01-30 10:58:48.28	220.66	0.16	-58.3	-74.8	3.6	1.51e+00	0	45	104	0	60	209713
2026-01-30 10:58:49.29	220.73	0.21	-60.1	-75.4	3.5	1.51e+00	0	45	104	0	60	223345
2026-01-30 10:58:50.29	220.81	0.26	-61.3	-75.9	3.5	1.52e+00	0	44	104	0	60	235998
2026-01-30 10:58:51.29	220.88	0.31	-61.5	-75.9	3.5	1.52e+00	0	45	104	0	60	238522
2026-01-30 10:58:52.30	220.96	0.36	-61.7	-76.0	3.5	1.52e+00	0	45	104	0	60	238891
2026-01-30 10:58:53.30	221.03	0.41	-61.7	-76.0	3.5	1.52e+00	0	45	104	0	60	239743
2026-01-30 10:58:54.31	221.11	0.46	-62.0	-76.1	3.5	1.52e+00	0	45	104	0	60	242477
2026-01-30 10:58:55.32	221.18	0.51	-61.9	-75.9	3.5	1.52e+00	0	45	104	0	60	237742
2026-01-30 10:58:56.33	221.26	0.56	-61.8	-75.9	3.5	1.52e+00	0	45	104	0	60	238215
2026-01-30 10:58:57.33	221.33	0.61	-61.7	-75.7	3.6	1.52e+00	0	45	104	0	60	232074
2026-01-30 10:58:58.34	221.41	0.66	-61.5	-75.5	3.5	1.52e+00	0	45	104	0	60	227324
2026-01-30 10:58:59.35	221.49	0.71	-61.4	-75.4	3.5	1.52e+00	0	45	104	0	60	223030
2026-01-30 10:59:00.36	221.56	0.77	-61.1	-75.0	3.5	1.51e+00	0	45	104	0	60	214940
2026-01-30 10:59:01.37	221.64	0.82	-61.0	-75.1	3.5	1.52e+00	0	45	104	0	60	215728
2026-01-30 10:59:02.37	221.72	0.87	-60.8	-74.9	3.5	1.52e+00	0	45	104	0	60	211903
2026-01-30 10:59:03.38	221.80	0.92	-60.4	-74.6	3.5	1.52e+00	0	45	104	0	60	204098
2026-01-30 10:59:04.38	221.87	0.97	-60.4	-74.5	3.5	1.52e+00	0	45	104	0	60	201881
2026-01-30 10:59:05.39	221.95	1.02	-60.1	-74.2	3.5	1.52e+00	0	45	104	0	60	194702
2026-01-30 10:59:06.40	222.03	1.07	-59.8	-74.1	3.5	1.52e+00	0	45	104	0	60	192649
2026-01-30 10:59:07.41	222.11	1.12	-60.0	-74.1	3.5	1.52e+00	0	45	104	0	60	192399
2026-01-30 10:59:08.42	222.19	1.17	-59.6	-73.8	3.5	1.52e+00	0	45	104	0	60	186702
2026-01-30 10:59:09.43	222.27	1.22	-59.7	-73.8	3.5	1.52e+00	0	45	104	0	60	185337
2026-01-30 10:59:10.43	222.34	1.27	-59.5	-73.6	3.5	1.52e+00	0	45	104	0	60	181112
2026-01-30 10:59:11.44	222.42	1.32	-59.3	-73.3	3.5	1.52e+00	0	45	104	0	60	176559
2026-01-30 10:59:12.45	222.50	1.37	-58.8	-73.0	3.5	1.52e+00	0	45	104	0	60	169026
2026-01-30 10:59:13.46	222.58	1.43	-58.4	-72.5	3.5	1.52e+00	0	45	104	0	60	161258
2026-01-30 10:59:14.47	222.67	1.48	-58.2	-72.4	3.5	1.52e+00	0	45	104	0	60	159115
2026-01-30 10:59:15.47	222.75	1.53	-58.2	-72.3	3.5	1.52e+00	0	45	104	0	60	157490
2026-01-30 10:59:16.48	222.83	1.58	-58.2	-72.4	3.5	1.51e+00	0	45	104	0	60	159234
2026-01-30 10:59:17.49	222.91	1.63	-58.2	-72.4	3.5	1.52e+00	0	45	104	0	60	158804
2026-01-30 10:59:18.50	222.99	1.68	-58.2	-72.4	3.5	1.51e+00	0	45	104	0	60	158469
2026-01-30 10:59:19.50	223.07	1.73	-58.2	-72.4	3.5	1.52e+00	0	45	104	0	60	158669
2026-01-30 10:59:20.51	223.15	1.79	-58.2	-72.4	3.5	1.52e+00	0	45	104	0	60	158832
2026-01-30 10:59:21.52	223.23	1.84	-58.2	-72.4	3.5	1.51e+00	0	45	104	0	60	158755
2026-01-30 10:59:22.52	223.32	1.89	-58.2	-72.3	3.5	1.51e+00	0	45	104	0	60	157170
2026-01-30 10:59:23.53	223.40	1.94	-58.1	-72.3	3.5	1.52e+00	0	45	104	0	60	157587
2026-01-30 10:59:24.54	223.48	1.99	-58.2	-72.3	3.5	1.52e+00	0	45	104	0	60	157143
2026-01-30 10:59:25.54	223.57	2.04	-58.1	-72.3	3.5	1.52e+00	0	45	104	0	60	157585
2026-01-30 10:59:26.55	223.65	2.09	-58.1	-72.3	3.5	1.52e+00	0	45	104	0	60	156929
2026-01-30 10:59:27.55	223.73	2.15	-58.1	-72.2	3.5	1.52e+00	0	45	104	0	60	155625
2026-01-30 10:59:28.56	223.82	2.20	-58.1	-72.3	3.5	1.52e+00	0	45	104	0	60	156801
2026-01-30 10:59:29.57	223.90	2.25	-58.1	-72.3	3.5	1.52e+00	0	45	104	0	60	156251
2026-01-30 10:59:30.58	223.99	2.30	-58.1	-72.3	3.5	1.52e+00	0	45	104	0	60	156471
2026-01-30 10:59:31.58	224.07	2.35	-58.1	-72.3	3.5	1.51e+00	0	45	104	0	60	156407
2026-01-30 10:59:32.59	224.16	2.41	-58.1	-72.2	3.5	1.52e+00	0	45	104	0	60	155345
2026-01-30 10:59:33.60	224.24	2.46	-58.0	-72.3	3.5	1.51e+00	0	45	104	0	60	155988
2026-01-30 10:59:34.60	224.33	2.51	-58.0	-72.2	3.5	1.51e+00	0	45	104	0	60	155866
2026-01-30 10:59:35.61	224.41	2.56	-58.0	-72.1	3.5	1.51e+00	0	45	104	0	60	153909
2026-01-30 10:59:36.62	224.50	2.61	-58.0	-72.2	3.5	1.52e+00	0	45	104	0	60	155145
2026-01-30 10:59:37.63	224.59	2.67	-58.0	-72.3	3.5	1.52e+00	0	45	104	0	60	156156
2026-01-30 10:59:38.63	224.67	2.72	-58.0	-72.2	3.5	1.52e+00	0	45	104	0	60	154914
2026-01-30 10:59:39.64	224.76	2.77	-58.0	-72.2	3.5	1.52e+00	0	45	104	0	60	154980
2026-01-30 10:59:40.65	224.85	2.82	-58.0	-72.2	3.5	1.52e+00	0	45	104	0	60	155344
2026-01-30 10:59:41.66	224.94	2.88	-58.0	-72.2	3.5	1.52e+00	0	45	104	0	60	154246
2026-01-30 10:59:42.67	225.02	2.93	-58.0	-72.2	3.5	1.52e+00	0	45	104	0	60	154776
2026-01-30 10:59:43.67	225.11	2.98	-58.0	-72.2	3.5	1.52e+00	0	45	104	0	60	154116
2026-01-30 10:59:44.68	225.20	3.03	-58.0	-72.1	3.5	1.52e+00	0	45	104	0	60	153544
2026-01-30 10:59:45.69	225.29	3.09	-58.0	-72.2	3.5	1.52e+00	0	45	104	0	60	154239
2026-01-30 10:59:46.70	225.38	3.14	-58.0	-72.1	3.5	1.52e+00	0	45	104	0	60	153761
2026-01-30 10:59:47.71	225.47	3.19	-58.0	-72.2	3.5	1.52e+00	0	45	104	0	60	154802
2026-01-30 10:59:48.71	225.56	3.24	-58.0	-72.1	3.5	1.52e+00	0	45	104	0	60	153828
2026-01-30 10:59:49.72	225.65	3.30	-58.0	-72.1	3.5	1.52e+00	0	45	104	0	60	152905
2026-01-30 10:59:50.73	225.74	3.35	-58.0	-72.2	3.5	1.52e+00	0	45	104	0	60	155519
2026-01-30 10:59:51.73	225.83	3.40	-58.0	-72.1	3.5	1.52e+00	0	45	104	0	60	154066
2026-01-30 10:59:52.73	225.92	3.45	-58.0	-72.1	3.5	1.52e+00	0	45	104	0	60	153834
2026-01-30 10:59:53.74	226.01	3.51	-58.0	-72.1	3.5	1.52e+00	0	45	104	0	60	153657
2026-01-30 10:59:54.75	226.10	3.56	-58.0	-72.1	3.5	1.52e+00	0	45	104	0	60	153479
2026-01-30 10:59:55.75	226.20	3.61	-57.9	-72.1	3.5	1.52e+00	0	45	104	0	60	153975
2026-01-30 10:59:56.76	226.29	3.67	-57.9	-72.2	3.5	1.52e+00	0	45	104	0	60	154310
2026-01-30 10:59:57.77	226.38	3.72	-57.9	-72.1	3.5	1.52e+00	0	45	104	0	60	153643
2026-01-30 10:59:58.77	226.47	3.77	-57.9	-72.2	3.5	1.52e+00	0	45	104	0	60	154100
2026-01-30 10:59:59.78	226.57	3.83	-57.9	-72.1	3.5	1.52e+00	0	45	104	0	60	153646
2026-01-30 11:00:00.79	226.66	3.88	-57.9	-72.0	3.5	1.52e+00	0	45	104	0	60	152166
2026-01-30 11:00:01.80	226.76	3.93	-57.9	-72.1	3.5	1.52e+00	0	45	104	0	60	152933
2026-01-30 11:00:02.80	226.85	3.98	-57.9	-72.1	3.5	1.52e+00	0	45	104	0	60	152458
2026-01-30 11:00:03.81	226.95	4.04	-57.9	-72.1	3.5	1.52e+00	0	45	104	0	60	153258
2026-01-30 11:00:04.82	227.04	4.09	-57.9	-72.1	3.5	1.51e+00	0	45	104	0	60	153213
2026-01-30 11:00:05.82	227.13	4.14	-57.9	-72.1	3.5	1.52e+00	0	45	104	0	60	153729
2026-01-30 11:00:06.83	227.23	4.20	-57.9	-72.1	3.5	1.52e+00	0	45	104	0	60	152936
2026-01-30 11:00:07.84	227.33	4.25	-57.9	-72.1	3.5	1.51e+00	0	45	104	0	60	153993
2026-01-30 11:00:08.85	227.42	4.31	-57.9	-72.1	3.5	1.52e+00	0	45	104	0	60	153643
2026-01-30 11:00:09.86	227.52	4.36	-57.9	-72.1	3.5	1.52e+00	0	45	104	0	60	153474
2026-01-30 11:00:10.86	227.62	4.41	-57.9	-72.1	3.5	1.52e+00	0	45	104	0	60	153033
2026-01-30 11:00:11.87	227.71	4.47	-57.9	-72.1	3.5	1.52e+00	0	45	104	0	60	153047
2026-01-30 11:00:12.88	227.81	4.52	-57.9	-72.0	3.5	1.52e+00	0	45	104	0	60	152030
2026-01-30 11:00:13.88	227.91	4.57	-57.9	-72.1	3.5	1.52e+00	0	45	104	0	60	153202
2026-01-30 11:00:14.88	228.01	4.63	-57.9	-72.0	3.5	1.52e+00	0	45	104	0	60	151458
2026-01-30 11:00:15.89	228.11	4.68	-57.9	-72.0	3.5	1.52e+00	0	45	104	0	60	151257
2026-01-30 11:00:16.89	228.21	4.73	-57.8	-71.9	3.5	1.52e+00	0	45	104	0	60	150465
2026-01-30 11:00:17.89	228.30	4.79	-57.8	-71.9	3.5	1.52e+00	0	45	104	0	60	148921
2026-01-30 11:00:18.90	228.40	4.84	-57.9	-71.9	3.5	1.52e+00	0	45	104	0	60	149006
2026-01-30 11:00:19.91	228.50	4.90	-57.8	-72.0	3.5	1.52e+00	0	45	104	0	60	151038
2026-01-30 11:00:20.91	228.60	4.95	-57.8	-72.0	3.5	1.52e+00	0	45	104	0	60	151011
2026-01-30 11:00:21.92	228.71	5.00	-57.8	-72.1	3.5	1.52e+00	0	45	104	0	60	152405
2026-01-30 11:00:22.93	228.81	5.06	-57.8	-71.9	3.5	1.52e+00	0	45	104	0	60	150133
2026-01-30 11:00:23.93	228.91	5.11	-57.8	-71.9	3.5	1.51e+00	0	45	104	0	60	150463
2026-01-30 11:00:24.94	229.01	5.17	-57.8	-71.8	3.5	1.52e+00	0	45	104	0	60	147952
2026-01-30 11:00:25.94	229.11	5.22	-57.8	-71.9	3.5	1.51e+00	0	45	104	0	60	149355
2026-01-30 11:00:26.94	229.21	5.27	-57.8	-72.0	3.5	1.51e+00	0	45	104	0	60	151447
2026-01-30 11:00:27.95	229.32	5.33	-57.8	-72.0	3.5	1.52e+00	0	45	104	0	60	151042
2026-01-30 11:00:28.96	229.42	5.38	-57.8	-71.9	3.5	1.52e+00	0	45	104	0	60	148930
2026-01-30 11:00:29.96	229.52	5.44	-57.8	-71.6	3.5	1.52e+00	0	45	104	0	60	145105
2026-01-30 11:00:30.97	229.63	5.49	-57.8	-71.4	3.5	1.52e+00	0	45	104	0	60	141926
2026-01-30 11:00:31.97	229.73	5.55	-57.8	-71.3	3.5	1.52e+00	0	45	104	0	60	139972
2026-01-30 11:00:32.98	229.84	5.60	-57.7	-70.6	3.5	1.51e+00	0	45	104	0	60	128776
2026-01-30 11:00:33.98	229.94	5.65	-57.6	-68.6	3.6	1.51e+00	0	45	104	0	60	102310
2026-01-30 11:00:34.99	230.05	5.71	-57.2	-64.7	5.9	4.41e-01	0	45	0	0	60	65540
2026-01-30 11:00:36.00	230.15	5.76	-56.4	-61.8	8.9	4.78e-02	0	45	0	3145728	60	46819
2026-01-30 11:00:37.01	230.26	5.82	-55.5	-59.6	11.4	5.37e-03	0	45	0	6291456	60	36495
2026-01-30 11:00:38.01	230.37	5.87	-54.6	-57.9	13.2	9.99e-05	0	45	0	9437184	60	29957
2026-01-30 11:00:39.02	230.47	5.93	-53.9	-56.8	14.5	1.50e-06	0	45	0	12582912	60	26203
2026-01-30 11:00:40.03	230.58	5.98	-53.4	-56.1	15.2	0.00e+00	0	45	0	15728640	60	24148
2026-01-30 11:00:41.03	230.69	6.04	-53.3	-55.9	15.3	0.00e+00	0	45	0	18874368	60	23642
2026-01-30 11:00:42.03	230.80	6.09	-56.1	-61.6	9.0	3.80e-06	0	45	0	22020096	60	45699
2026-01-30 11:00:43.04	230.90	6.15	-56.9	-64.5	5.7	2.68e-01	0	45	0	25165824	60	63817
2026-01-30 11:00:44.04	231.01	6.20	-51.9	-54.0	16.6	1.31e-04	0	45	104	26214400	60	18974
2026-01-30 11:00:45.05	231.12	6.26	-53.7	-56.3	14.8	0.00e+00	0	45	0	2097152	60	24850
2026-01-30 11:00:46.06	231.23	6.31	-52.1	-54.1	16.9	0.00e+00	0	45	0	5242880	60	19216
2026-01-30 11:00:47.06	231.34	6.37	-52.2	-54.3	17.1	0.00e+00	0	45	0	8388608	60	19690
2026-01-30 11:00:48.06	231.45	6.42	-52.3	-54.3	17.1	0.00e+00	0	45	0	11534336	60	19734
2026-01-30 11:00:49.07	231.56	6.48	-52.2	-54.3	17.1	0.00e+00	0	45	0	14680064	60	19633
2026-01-30 11:00:50.07	231.67	6.53	-52.2	-54.2	17.2	0.00e+00	0	45	0	17825792	60	19602
2026-01-30 11:00:51.07	231.79	6.58	-52.2	-54.2	17.1	0.00e+00	0	45	0	20971520	60	19565
2026-01-30 11:00:52.08	231.90	6.64	-52.3	-54.4	17.2	0.00e+00	0	45	0	24117248	60	19855
2026-01-30 11:00:53.08	232.01	6.69	-52.0	-54.0	17.2	0.00e+00	0	45	0	27262976	60	19062
2026-01-30 11:00:54.09	232.12	6.75	-52.0	-54.0	17.3	0.00e+00	0	45	0	30408704	60	18991
2026-01-30 11:00:55.09	232.24	6.80	-52.0	-53.9	17.4	0.00e+00	0	45	0	33554432	60	18942
2026-01-30 11:00:56.10	232.35	6.86	-52.1	-54.1	17.4	0.00e+00	0	45	0	36700160	60	19306
2026-01-30 11:00:57.11	232.46	6.91	-52.0	-54.0	17.3	0.00e+00	0	45	0	39845888	60	19077
2026-01-30 11:00:58.12	232.58	6.97	-52.2	-54.2	17.4	0.00e+00	0	45	0	42991616	60	19527
2026-01-30 11:00:59.13	232.70	7.03	-52.3	-54.2	17.6	0.00e+00	0	45	0	46137344	60	19577
2026-01-30 11:01:00.13	232.81	7.08	-52.2	-54.1	17.5	0.00e+00	0	45	0	49283072	60	19327
2026-01-30 11:01:01.14	232.93	7.14	-52.2	-54.2	17.4	0.00e+00	0	45	0	52428800	60	19482
2026-01-30 11:01:02.15	233.04	7.19	-52.3	-54.2	17.5	0.00e+00	0	45	0	55574528	60	19615
2026-01-30 11:01:03.15	233.16	7.25	-52.3	-54.2	17.7	0.00e+00	0	45	0	58720256	60	19574
2026-01-30 11:01:04.16	233.28	7.30	-52.3	-54.3	17.5	0.00e+00	0	45	0	61865984	60	19646
2026-01-30 11:01:05.17	233.39	7.36	-52.3	-54.2	17.7	0.00e+00	0	45	0	65011712	60	19514
2026-01-30 11:01:06.18	233.51	7.41	-52.2	-54.1	17.8	0.00e+00	0	45	0	68157440	60	19318
2026-01-30 11:01:07.18	233.63	7.47	-52.3	-54.2	17.8	0.00e+00	0	45	0	71303168	60	19406
2026-01-30 11:01:08.20	233.75	7.52	-52.2	-54.1	17.8	0.00e+00	0	45	0	74448896	60	19225
2026-01-30 11:01:09.20	233.87	7.58	-52.2	-54.1	17.9	0.00e+00	0	45	0	77594624	60	19196
2026-01-30 11:01:10.21	233.99	7.63	-52.3	-54.2	17.7	0.00e+00	0	45	0	80740352	60	19497
2026-01-30 11:01:11.22	234.11	7.69	-52.1	-53.9	18.1	0.00e+00	0	45	0	83886080	60	18957
2026-01-30 11:01:12.23	234.23	7.75	-52.2	-54.1	17.8	0.00e+00	0	45	0	87031808	60	19216
2026-01-30 11:01:13.23	234.35	7.80	-52.2	-54.1	17.8	0.00e+00	0	45	0	90177536	60	19263
2026-01-30 11:01:14.24	234.47	7.86	-52.2	-54.0	18.1	0.00e+00	0	45	0	93323264	60	19096
2026-01-30 11:01:15.24	234.59	7.91	-52.1	-53.9	18.0	0.00e+00	0	45	0	96468992	60	18791
2026-01-30 11:01:16.25	234.72	7.97	-52.2	-54.0	18.1	0.00e+00	0	45	0	99614720	60	19173
2026-01-30 11:01:17.26	234.84	8.02	-52.0	-53.8	18.1	0.00e+00	0	45	0	102760448	60	18528
2026-01-30 11:01:18.27	234.96	8.08	-52.2	-54.0	18.3	0.00e+00	0	45	0	105906176	60	19059
2026-01-30 11:01:19.27	235.09	8.13	-52.1	-53.8	18.2	0.00e+00	0	45	0	109051904	60	18726
2026-01-30 11:01:20.28	235.21	8.19	-52.1	-53.8	18.4	0.00e+00	0	45	0	112197632	60	18729
2026-01-30 11:01:21.29	235.34	8.25	-52.1	-53.9	18.2	0.00e+00	0	45	0	115343360	60	18850
2026-01-30 11:01:22.29	235.46	8.30	-52.0	-53.8	18.2	0.00e+00	0	45	0	118489088	60	18617
2026-01-30 11:01:23.30	235.59	8.36	-52.1	-53.9	18.3	0.00e+00	0	45	0	121634816	60	18788
2026-01-30 11:01:24.31	235.71	8.41	-51.9	-53.7	18.1	0.00e+00	0	45	0	124780544	60	18346
2026-01-30 11:01:25.32	235.84	8.47	-52.0	-53.8	18.3	0.00e+00	0	45	0	127926272	60	18740
2026-01-30 11:01:26.33	235.97	8.52	-51.9	-53.7	18.3	0.00e+00	0	45	0	131072000	60	18382
2026-01-30 11:01:27.33	236.09	8.58	-52.0	-53.8	18.3	0.00e+00	0	45	0	134217728	60	18670
2026-01-30 11:01:28.34	236.22	8.63	-51.9	-53.7	18.3	0.00e+00	0	45	0	137363456	60	18505
2026-01-30 11:01:29.35	236.35	8.69	-51.9	-53.7	18.3	0.00e+00	0	45	0	140509184	60	18521
2026-01-30 11:01:30.35	236.48	8.75	-51.8	-53.5	18.3	0.00e+00	0	45	0	143654912	60	18095
2026-01-30 11:01:31.36	236.61	8.80	-51.5	-53.3	18.5	0.00e+00	0	45	0	146800640	60	17505
2026-01-30 11:01:32.36	236.74	8.86	-51.3	-53.0	18.7	0.00e+00	0	45	0	149946368	60	17042
2026-01-30 11:01:33.37	236.87	8.91	-51.2	-52.9	18.9	0.00e+00	0	46	0	153092096	60	16785
2026-01-30 11:01:34.38	237.00	8.97	-51.2	-52.8	18.9	0.00e+00	0	45	0	156237824	60	16634
2026-01-30 11:01:35.39	237.13	9.02	-51.1	-52.8	19.0	0.00e+00	0	45	0	159383552	60	16597
2026-01-30 11:01:36.39	237.26	9.08	-51.3	-52.9	19.0	0.00e+00	0	45	0	162529280	60	16863
2026-01-30 11:01:37.40	237.40	9.13	-51.3	-53.0	19.0	0.00e+00	0	45	0	165675008	60	16900
2026-01-30 11:01:38.40	237.53	9.19	-51.4	-53.0	19.0	0.00e+00	0	45	0	168820736	60	17066
2026-01-30 11:01:39.41	237.66	9.24	-51.4	-53.0	19.0	0.00e+00	0	45	0	171966464	60	17012
2026-01-30 11:01:40.42	237.80	9.30	-51.4	-53.0	18.9	0.00e+00	0	45	0	175112192	60	17021
2026-01-30 11:01:41.42	237.93	9.36	-51.4	-53.1	18.9	0.00e+00	0	45	0	178257920	60	17108
2026-01-30 11:01:42.42	238.06	9.41	-51.4	-53.1	18.8	0.00e+00	0	45	0	181403648	60	17127
2026-01-30 11:01:43.43	238.20	9.47	-51.3	-53.0	18.8	0.00e+00	0	45	0	184549376	60	17069
2026-01-30 11:01:44.44	238.33	9.52	-51.2	-52.9	18.9	0.00e+00	0	45	0	187695104	60	16888
2026-01-30 11:01:45.45	238.47	9.58	-51.3	-52.9	18.9	0.00e+00	0	45	0	190840832	60	16859
2026-01-30 11:01:46.46	238.61	9.63	-51.3	-52.9	18.8	0.00e+00	0	45	0	193986560	60	16877
2026-01-30 11:01:47.46	238.74	9.69	-51.2	-52.9	18.9	0.00e+00	0	45	0	197132288	60	16791
2026-01-30 11:01:48.47	238.88	9.74	-51.1	-52.8	19.0	0.00e+00	0	45	0	200278016	60	16563
2026-01-30 11:01:49.47	239.02	9.80	-51.1	-52.8	19.2	0.00e+00	0	45	0	203423744	60	16586
2026-01-30 11:01:50.48	239.16	9.85	-51.1	-52.7	19.3	0.00e+00	0	45	0	206569472	60	16502
2026-01-30 11:01:51.49	239.30	9.91	-50.9	-52.5	19.4	0.00e+00	0	45	0	209715200	60	16038
2026-01-30 11:01:52.49	239.44	9.96	-51.0	-52.6	19.3	0.00e+00	0	45	0	212860928	60	16267
2026-01-30 11:01:53.50	239.58	10.02	-50.9	-52.6	19.3	0.00e+00	0	45	0	216006656	60	16148
2026-01-30 11:01:54.50	239.72	10.08	-50.9	-52.6	19.3	0.00e+00	0	45	0	219152384	60	16258
2026-01-30 11:01:55.51	239.86	10.13	-51.0	-52.6	19.3	0.00e+00	0	45	0	222298112	60	16284
2026-01-30 11:01:56.52	240.00	10.19	-51.0	-52.6	19.3	0.00e+00	0	45	0	225443840	60	16140
2026-01-30 11:01:57.53	240.14	10.24	-51.1	-52.7	19.3	0.00e+00	0	45	0	228589568	60	16496
2026-01-30 11:01:58.53	240.29	10.30	-51.0	-52.6	19.4	0.00e+00	0	45	0	231735296	60	16190
2026-01-30 11:01:59.54	240.43	10.35	-51.0	-52.6	19.5	0.00e+00	0	45	0	234881024	60	16160
2026-01-30 11:02:00.54	240.57	10.41	-51.0	-52.6	19.4	0.00e+00	0	45	0	238026752	60	16286
2026-01-30 11:02:01.55	240.72	10.46	-51.1	-52.7	19.5	0.00e+00	0	45	0	241172480	60	16419
2026-01-30 11:02:02.56	240.86	10.52	-51.1	-52.7	19.4	0.00e+00	0	45	0	244318208	60	16479
2026-01-30 11:02:03.56	241.01	10.57	-51.0	-52.6	19.4	0.00e+00	0	45	0	247463936	60	16253
2026-01-30 11:02:04.57	241.15	10.63	-50.9	-52.5	19.5	0.00e+00	0	45	0	250609664	60	15955
2026-01-30 11:02:05.57	241.30	10.68	-50.9	-52.5	19.5	0.00e+00	0	45	0	253755392	60	16024
2026-01-30 11:02:06.58	241.45	10.74	-51.0	-52.6	19.4	0.00e+00	0	45	0	256901120	60	16140
2026-01-30 11:02:07.59	241.59	10.79	-51.0	-52.7	19.4	0.00e+00	0	45	0	260046848	60	16328
2026-01-30 11:02:08.59	241.74	10.85	-50.9	-52.5	19.5	0.00e+00	0	45	0	263192576	60	15969
2026-01-30 11:02:09.60	241.89	10.90	-50.9	-52.5	19.5	0.00e+00	0	45	0	266338304	60	15967
2026-01-30 11:02:10.60	242.04	10.95	-51.0	-52.6	19.5	0.00e+00	0	45	0	269484032	60	16140
2026-01-30 11:02:11.61	242.19	11.01	-50.9	-52.5	19.5	0.00e+00	0	45	0	272629760	60	16024
2026-01-30 11:02:12.60	242.33	11.06	-50.9	-52.5	19.5	0.00e+00	0	45	0	275775488	60	16017
2026-01-30 11:02:13.61	242.49	11.12	-51.0	-52.6	19.5	0.00e+00	0	45	0	278921216	60	16231
2026-01-30 11:02:14.62	242.64	11.17	-51.0	-52.6	19.5	0.00e+00	0	45	0	282066944	60	16189
2026-01-30 11:02:15.62	242.79	11.23	-50.9	-52.5	19.5	0.00e+00	0	45	0	285212672	60	16061
2026-01-30 11:02:16.63	242.94	11.28	-51.0	-52.6	19.4	0.00e+00	0	45	0	288358400	60	16171
2026-01-30 11:02:17.64	243.09	11.33	-50.8	-52.4	19.6	0.00e+00	0	45	0	291504128	60	15852
2026-01-30 11:02:18.64	243.25	11.39	-50.8	-52.4	19.6	0.00e+00	0	45	0	294649856	60	15825
2026-01-30 11:02:19.65	243.40	11.44	-50.7	-52.3	19.7	0.00e+00	0	45	0	297795584	60	15664
2026-01-30 11:02:20.65	243.55	11.50	-50.6	-52.1	19.8	0.00e+00	0	45	0	300941312	60	15327
2026-01-30 11:02:21.66	243.71	11.55	-50.6	-52.1	19.8	0.00e+00	0	45	0	304087040	60	15402
2026-01-30 11:02:22.66	243.86	11.60	-50.7	-52.2	19.8	0.00e+00	0	45	0	307232768	60	15513
2026-01-30 11:02:23.67	244.02	11.66	-50.6	-52.1	19.8	0.00e+00	0	45	0	310378496	60	15322
2026-01-30 11:02:24.68	244.18	11.71	-50.6	-52.0	19.9	0.00e+00	0	45	0	313524224	60	15198
2026-01-30 11:02:25.68	244.33	11.77	-50.5	-52.0	19.9	0.00e+00	0	45	0	316669952	60	15168
2026-01-30 11:02:26.69	244.49	11.82	-50.3	-51.7	20.1	0.00e+00	0	45	0	319815680	60	14680
2026-01-30 11:02:27.69	244.65	11.87	-50.4	-51.8	20.1	0.00e+00	0	45	0	322961408	60	14816
2026-01-30 11:02:28.70	244.81	11.93	-50.4	-51.8	20.0	0.00e+00	0	45	0	326107136	60	14870
2026-01-30 11:02:29.70	244.97	11.98	-50.4	-51.9	19.9	0.00e+00	0	45	0	329252864	60	15001
2026-01-30 11:02:30.71	245.13	12.03	-50.4	-51.8	20.0	0.00e+00	0	45	0	332398592	60	14879
2026-01-30 11:02:31.72	245.29	12.09	-50.5	-52.0	19.8	0.00e+00	0	45	0	335544320	60	15125
2026-01-30 11:02:32.73	245.45	12.14	-50.5	-52.0	19.9	0.00e+00	0	45	0	338690048	60	15166
2026-01-30 11:02:33.74	245.61	12.19	-50.5	-52.0	19.9	0.00e+00	0	45	0	341835776	60	15141
2026-01-30 11:02:34.74	245.77	12.25	-50.5	-52.0	19.8	0.00e+00	0	45	0	344981504	60	15219
2026-01-30 11:02:35.75	245.94	12.30	-50.5	-52.0	19.9	0.00e+00	0	45	0	348127232	60	15139
2026-01-30 11:02:36.76	246.10	12.35	-50.5	-51.9	20.0	0.00e+00	0	45	0	351272960	60	14991
2026-01-30 11:02:37.77	246.27	12.40	-50.4	-51.9	20.1	0.00e+00	0	45	0	354418688	60	14945
2026-01-30 11:02:38.77	246.43	12.46	-50.6	-52.1	20.0	0.00e+00	0	45	0	357564416	60	15254
2026-01-30 11:02:39.78	246.60	12.51	-50.3	-51.7	20.3	0.00e+00	0	45	0	360710144	60	14689
2026-01-30 11:02:40.79	246.76	12.56	-50.3	-51.8	20.3	0.00e+00	0	45	0	363855872	60	14773
2026-01-30 11:02:41.79	246.93	12.61	-50.3	-51.8	20.1	0.00e+00	0	45	0	367001600	60	14780
2026-01-30 11:02:42.80	247.09	12.67	-50.3	-51.8	20.2	0.00e+00	0	45	0	370147328	60	14718
2026-01-30 11:02:43.80	247.26	12.72	-50.4	-51.9	20.1	0.00e+00	0	45	0	373293056	60	14964
2026-01-30 11:02:44.81	247.43	12.77	-50.2	-51.6	20.3	0.00e+00	0	45	0	376438784	60	14519
2026-01-30 11:02:45.82	247.60	12.82	-50.2	-51.6	20.4	0.00e+00	0	45	0	379584512	60	14444
2026-01-30 11:02:46.83	247.77	12.87	-50.0	-51.4	20.4	0.00e+00	0	45	0	382730240	60	14202
2026-01-30 11:02:47.83	247.94	12.93	-50.1	-51.5	20.4	0.00e+00	0	45	0	385875968	60	14320
2026-01-30 11:02:48.83	248.10	12.98	-50.0	-51.4	20.5	0.00e+00	0	45	0	389021696	60	14193
2026-01-30 11:02:49.84	248.28	13.03	-50.0	-51.5	20.4	0.00e+00	0	45	0	392167424	60	14223
2026-01-30 11:02:50.85	248.45	13.08	-50.2	-51.6	20.2	0.00e+00	0	45	0	395313152	60	14431
2026-01-30 11:02:51.86	248.62	13.13	-50.1	-51.5	20.3	0.00e+00	0	45	0	398458880	60	14359
2026-01-30 11:02:52.86	248.79	13.18	-50.0	-51.5	20.4	0.00e+00	0	45	0	401604608	60	14220
2026-01-30 11:02:53.86	248.96	13.23	-50.1	-51.5	20.4	0.00e+00	0	45	0	404750336	60	14227
2026-01-30 11:02:54.87	249.14	13.28	-50.2	-51.6	20.4	0.00e+00	0	45	0	407896064	60	14405
2026-01-30 11:02:55.87	249.31	13.33	-50.1	-51.5	20.5	0.00e+00	0	45	0	411041792	60	14272
2026-01-30 11:02:56.87	249.48	13.38	-50.2	-51.6	20.4	0.00e+00	0	45	0	414187520	60	14398
2026-01-30 11:02:57.88	249.66	13.43	-50.1	-51.5	20.5	0.00e+00	0	45	0	417333248	60	14298
2026-01-30 11:02:58.88	249.84	13.48	-50.1	-51.5	20.5	0.00e+00	0	45	0	420478976	60	14306
2026-01-30 11:02:59.89	250.01	13.53	-50.2	-51.6	20.4	0.00e+00	0	45	0	423624704	60	14453
2026-01-30 11:03:00.89	250.19	13.58	-50.2	-51.7	20.3	0.00e+00	0	45	0	426770432	60	14564
2026-01-30 11:03:01.90	250.37	13.63	-50.3	-51.8	20.3	0.00e+00	0	45	0	429916160	60	14731
2026-01-30 11:03:02.91	250.55	13.68	-50.3	-51.7	20.3	0.00e+00	0	45	0	433061888	60	14602
2026-01-30 11:03:03.91	250.72	13.73	-50.3	-51.8	20.3	0.00e+00	0	45	0	436207616	60	14723
2026-01-30 11:03:04.92	250.90	13.78	-50.3	-51.7	20.3	0.00e+00	0	45	0	439353344	60	14666
2026-01-30 11:03:05.93	251.08	13.83	-50.2	-51.7	20.3	0.00e+00	0	45	0	442499072	60	14592
2026-01-30 11:03:06.94	251.26	13.88	-50.3	-51.7	20.2	0.00e+00	0	45	0	445644800	60	14651
2026-01-30 11:03:07.94	251.44	13.93	-50.3	-51.7	20.2	0.00e+00	0	45	0	448790528	60	14588
2026-01-30 11:03:08.95	251.63	13.98	-50.3	-51.7	20.3	0.00e+00	0	45	0	451936256	60	14616
2026-01-30 11:03:09.95	251.81	14.03	-50.1	-51.6	20.3	0.00e+00	0	45	0	455081984	60	14407
2026-01-30 11:03:10.96	251.99	14.07	-50.3	-51.8	20.1	0.00e+00	0	45	0	458227712	60	14821
2026-01-30 11:03:11.97	252.18	14.12	-50.3	-51.8	20.1	0.00e+00	0	45	0	461373440	60	14731
2026-01-30 11:03:12.98	252.36	14.17	-50.4	-51.8	20.1	0.00e+00	0	46	0	464519168	60	14832
2026-01-30 11:03:13.98	252.54	14.22	-50.4	-51.8	20.1	0.00e+00	0	45	0	467664896	60	14830
2026-01-30 11:03:14.99	252.73	14.27	-50.6	-52.1	19.9	0.00e+00	0	45	0	470810624	60	15286
2026-01-30 11:03:15.99	252.91	14.31	-50.6	-52.1	19.9	0.00e+00	0	45	0	473956352	60	15390
2026-01-30 11:03:17.00	253.10	14.36	-50.6	-52.0	20.0	0.00e+00	0	45	0	477102080	60	15204
2026-01-30 11:03:18.00	253.29	14.41	-50.7	-52.2	20.0	0.00e+00	0	45	0	480247808	60	15454
2026-01-30 11:03:19.01	253.47	14.45	-50.7	-52.2	20.0	0.00e+00	0	45	0	483393536	60	15457
2026-01-30 11:03:20.02	253.66	14.50	-50.5	-51.9	20.2	0.00e+00	0	45	0	486539264	60	15038
2026-01-30 11:03:21.02	253.85	14.55	-50.4	-51.8	20.3	0.00e+00	0	45	0	489684992	60	14865
2026-01-30 11:03:22.03	254.04	14.59	-50.3	-51.7	20.3	0.00e+00	0	45	0	492830720	60	14680
2026-01-30 11:03:23.03	254.23	14.64	-50.2	-51.6	20.4	0.00e+00	0	45	0	495976448	60	14544
2026-01-30 11:03:24.04	254.42	14.69	-50.2	-51.6	20.4	0.00e+00	0	45	0	499122176	60	14437
2026-01-30 11:03:25.04	254.61	14.73	-50.0	-51.4	20.5	0.00e+00	0	45	0	502267904	60	14195
2026-01-30 11:03:26.05	254.80	14.78	-50.0	-51.4	20.4	0.00e+00	0	45	0	505413632	60	14213
2026-01-30 11:03:27.05	254.99	14.82	-50.0	-51.4	20.4	0.00e+00	0	45	0	508559360	60	14153
2026-01-30 11:03:28.06	255.18	14.87	-49.9	-51.3	20.5	0.00e+00	0	45	0	511705088	60	14016
2026-01-30 11:03:29.06	255.38	14.91	-50.0	-51.4	20.4	0.00e+00	0	45	0	514850816	60	14117
2026-01-30 11:03:30.07	255.57	14.96	-50.1	-51.5	20.4	0.00e+00	0	45	0	517996544	60	14315
2026-01-30 11:03:31.08	255.77	15.00	-50.1	-51.5	20.3	0.00e+00	0	45	0	521142272	60	14350
2026-01-30 11:03:32.09	255.96	15.04	-50.2	-51.6	20.3	0.00e+00	0	45	0	524288000	60	14466
2026-01-30 11:03:33.09	256.16	15.09	-50.2	-51.6	20.3	0.00e+00	0	45	0	527433728	60	14523
2026-01-30 11:03:34.10	256.35	15.13	-50.1	-51.6	20.3	0.00e+00	0	45	0	530579456	60	14410
2026-01-30 11:03:35.10	256.55	15.18	-50.0	-51.5	20.4	0.00e+00	0	45	0	533725184	60	14221
2026-01-30 11:03:36.11	256.74	15.22	-49.9	-51.3	20.5	0.00e+00	0	45	0	536870912	60	14029
2026-01-30 11:03:37.11	256.94	15.26	-49.8	-51.2	20.7	0.00e+00	0	45	0	540016640	60	13801
2026-01-30 11:03:38.11	257.14	15.30	-49.9	-51.3	20.6	0.00e+00	0	45	0	543162368	60	13941
2026-01-30 11:03:39.11	257.33	15.35	-49.9	-51.2	20.6	0.00e+00	0	45	0	546308096	60	13838
2026-01-30 11:03:40.12	257.53	15.39	-49.8	-51.2	20.6	0.00e+00	0	45	0	549453824	60	13787
2026-01-30 11:03:41.13	257.74	15.43	-49.8	-51.2	20.6	0.00e+00	0	45	0	552599552	60	13801
2026-01-30 11:03:42.13	257.93	15.47	-49.9	-51.3	20.5	0.00e+00	0	45	0	555745280	60	13904
2026-01-30 11:03:43.14	258.14	15.51	-49.9	-51.3	20.5	0.00e+00	0	45	0	558891008	60	14033
2026-01-30 11:03:44.14	258.34	15.55	-50.0	-51.4	20.5	0.00e+00	0	45	0	562036736	60	14114
2026-01-30 11:03:45.14	258.54	15.60	-50.0	-51.4	20.4	0.00e+00	0	45	0	565182464	60	14106
2026-01-30 11:03:46.15	258.74	15.64	-50.1	-51.5	20.4	0.00e+00	0	45	0	568328192	60	14272
2026-01-30 11:03:47.16	258.94	15.68	-50.0	-51.4	20.5	0.00e+00	0	45	0	571473920	60	14119
2026-01-30 11:03:48.17	259.15	15.72	-50.0	-51.5	20.5	0.00e+00	0	45	0	574619648	60	14267
2026-01-30 11:03:49.17	259.35	15.76	-50.0	-51.4	20.6	0.00e+00	0	45	0	577765376	60	14193
2026-01-30 11:03:50.18	259.55	15.80	-49.9	-51.3	20.7	0.00e+00	0	45	0	580911104	60	13992
2026-01-30 11:03:51.18	259.76	15.84	-49.9	-51.3	20.7	0.00e+00	0	45	0	584056832	60	13922
2026-01-30 11:03:52.19	259.96	15.87	-49.9	-51.2	20.6	0.00e+00	0	45	0	587202560	60	13868
2026-01-30 11:03:53.19	260.17	15.91	-49.8	-51.2	20.7	0.00e+00	0	45	0	590348288	60	13777
2026-01-30 11:03:54.20	260.38	15.95	-49.8	-51.2	20.6	0.00e+00	0	45	0	593494016	60	13849
2026-01-30 11:03:55.21	260.58	15.99	-49.9	-51.3	20.6	0.00e+00	0	45	0	596639744	60	13916
2026-01-30 11:03:56.22	260.79	16.03	-49.8	-51.2	20.6	0.00e+00	0	45	0	599785472	60	13748
2026-01-30 11:03:57.23	261.00	16.07	-49.8	-51.2	20.5	0.00e+00	0	45	0	602931200	60	13877
2026-01-30 11:03:58.23	261.21	16.10	-49.8	-51.2	20.6	0.00e+00	0	46	0	606076928	60	13794
2026-01-30 11:03:59.24	261.42	16.14	-49.7	-51.1	20.7	0.00e+00	0	45	0	609222656	60	13708
2026-01-30 11:04:00.25	261.63	16.18	-49.7	-51.1	20.7	0.00e+00	0	45	0	612368384	60	13692
2026-01-30 11:04:01.25	261.84	16.21	-49.8	-51.2	20.7	0.00e+00	0	45	0	615514112	60	13813
2026-01-30 11:04:02.25	262.05	16.25	-49.6	-51.0	20.9	0.00e+00	0	45	0	618659840	60	13508
2026-01-30 11:04:03.26	262.26	16.28	-49.7	-51.1	20.9	0.00e+00	0	46	0	621805568	60	13602
2026-01-30 11:04:04.27	262.47	16.32	-49.5	-50.9	21.0	0.00e+00	0	45	0	624951296	60	13280
2026-01-30 11:04:05.27	262.68	16.35	-49.4	-50.8	21.1	0.00e+00	0	45	0	628097024	60	13128
2026-01-30 11:04:06.28	262.89	16.39	-49.5	-50.8	21.0	0.00e+00	0	45	0	631242752	60	13200
2026-01-30 11:04:07.29	263.11	16.42	-49.5	-50.9	20.8	0.00e+00	0	45	0	634388480	60	13353
2026-01-30 11:04:08.30	263.32	16.46	-49.6	-51.0	20.8	0.00e+00	0	45	0	637534208	60	13431
2026-01-30 11:04:09.30	263.54	16.49	-49.6	-51.0	20.8	0.00e+00	0	45	0	640679936	60	13526
2026-01-30 11:04:10.30	263.75	16.53	-49.8	-51.1	20.7	0.00e+00	0	45	0	643825664	60	13706
2026-01-30 11:04:11.31	263.96	16.56	-49.7	-51.1	20.7	0.00e+00	0	45	0	646971392	60	13640
2026-01-30 11:04:12.32	264.18	16.59	-49.7	-51.1	20.8	0.00e+00	0	45	0	650117120	60	13660
2026-01-30 11:04:13.32	264.39	16.62	-49.7	-51.1	20.8	0.00e+00	0	45	0	653262848	60	13660
2026-01-30 11:04:14.33	264.61	16.66	-49.7	-51.1	20.9	0.00e+00	0	45	0	656408576	60	13587
2026-01-30 11:04:15.33	264.83	16.69	-49.6	-51.0	21.1	0.00e+00	0	45	0	659554304	60	13440
2026-01-30 11:04:16.34	265.04	16.72	-49.6	-51.0	21.0	0.00e+00	0	45	0	662700032	60	13442
2026-01-30 11:04:17.34	265.26	16.75	-49.5	-50.9	21.1	0.00e+00	0	45	0	665845760	60	13312
2026-01-30 11:04:18.35	265.48	16.78	-49.6	-50.9	21.1	0.00e+00	0	45	0	668991488	60	13401
2026-01-30 11:04:19.36	265.70	16.81	-49.6	-50.9	21.0	0.00e+00	0	45	0	672137216	60	13381
2026-01-30 11:04:20.37	265.92	16.84	-49.5	-50.8	21.1	0.00e+00	0	46	0	675282944	60	13234
2026-01-30 11:04:21.37	266.14	16.87	-49.3	-50.6	21.3	0.00e+00	0	45	0	678428672	60	12931
2026-01-30 11:04:22.37	266.35	16.90	-49.4	-50.7	21.2	0.00e+00	0	45	0	681574400	60	13068
2026-01-30 11:04:23.38	266.57	16.93	-49.3	-50.6	21.3	0.00e+00	0	45	0	684720128	60	12918
2026-01-30 11:04:24.38	266.79	16.96	-49.3	-50.6	21.2	0.00e+00	0	45	0	687865856	60	12933
2026-01-30 11:04:25.39	267.01	16.99	-49.4	-50.7	21.2	0.00e+00	0	45	0	691011584	60	13082
2026-01-30 11:04:26.40	267.24	17.01	-49.4	-50.8	21.2	0.00e+00	0	45	0	694157312	60	13130
2026-01-30 11:04:27.40	267.46	17.04	-49.4	-50.7	21.2	0.00e+00	0	45	0	697303040	60	12996
2026-01-30 11:04:28.41	267.68	17.07	-49.4	-50.7	21.2	0.00e+00	0	45	0	700448768	60	13103
2026-01-30 11:04:29.42	267.90	17.09	-49.4	-50.7	21.2	0.00e+00	0	45	0	703594496	60	13107
2026-01-30 11:04:30.42	268.12	17.12	-49.5	-50.8	21.2	0.00e+00	0	45	0	706740224	60	13214
2026-01-30 11:04:31.43	268.35	17.15	-49.5	-50.8	21.3	0.00e+00	0	45	0	709885952	60	13133
2026-01-30 11:04:32.43	268.57	17.17	-49.4	-50.8	21.2	0.00e+00	0	45	0	713031680	60	13124
2026-01-30 11:04:33.44	268.79	17.20	-49.4	-50.7	21.3	0.00e+00	0	45	0	716177408	60	13008
2026-01-30 11:04:34.44	269.02	17.22	-49.4	-50.7	21.2	0.00e+00	0	45	0	719323136	60	13086
2026-01-30 11:04:35.45	269.24	17.25	-49.5	-50.9	21.1	0.00e+00	0	45	0	722468864	60	13270
2026-01-30 11:04:36.46	269.47	17.27	-49.4	-50.7	21.1	0.00e+00	0	45	0	725614592	60	13112
2026-01-30 11:04:37.47	269.69	17.29	-49.6	-50.9	21.1	0.00e+00	0	45	0	728760320	60	13318
2026-01-30 11:04:38.47	269.92	17.32	-49.6	-51.0	21.1	0.00e+00	0	45	0	731906048	60	13494
2026-01-30 11:04:39.48	270.15	17.34	-49.6	-51.0	21.1	0.00e+00	0	45	0	735051776	60	13492
2026-01-30 11:04:40.49	270.37	17.36	-49.6	-50.9	21.2	0.00e+00	0	45	0	738197504	60	13303
2026-01-30 11:04:41.50	270.60	17.38	-49.5	-50.8	21.4	0.00e+00	0	45	0	741343232	60	13218
2026-01-30 11:04:42.50	270.82	17.40	-49.5	-50.8	21.3	0.00e+00	0	45	0	744488960	60	13146
2026-01-30 11:04:43.52	271.05	17.43	-49.5	-50.9	21.2	0.00e+00	0	45	0	747634688	60	13279
2026-01-30 11:04:44.52	271.28	17.45	-49.6	-50.9	21.1	0.00e+00	0	45	0	750780416	60	13341
2026-01-30 11:04:45.53	271.51	17.47	-49.4	-50.8	21.2	0.00e+00	0	45	0	753926144	60	13158
2026-01-30 11:04:46.54	271.74	17.49	-49.5	-50.8	21.2	0.00e+00	0	45	0	757071872	60	13241
2026-01-30 11:04:47.55	271.97	17.51	-49.5	-50.9	21.2	0.00e+00	0	45	0	760217600	60	13303
2026-01-30 11:04:48.55	272.19	17.52	-49.6	-51.0	21.2	0.00e+00	0	45	0	763363328	60	13441
2026-01-30 11:04:49.56	272.42	17.54	-49.5	-50.9	21.3	0.00e+00	0	45	0	766509056	60	13306
2026-01-30 11:04:50.57	272.65	17.56	-49.6	-51.0	21.2	0.00e+00	0	46	0	769654784	60	13441
2026-01-30 11:04:51.58	272.88	17.58	-49.5	-50.8	21.3	0.00e+00	0	46	0	772800512	60	13226
2026-01-30 11:04:52.58	273.11	17.60	-49.5	-50.9	21.3	0.00e+00	0	45	0	775946240	60	13294
2026-01-30 11:04:53.59	273.34	17.61	-49.6	-51.0	21.0	0.00e+00	0	45	0	779091968	60	13446
2026-01-30 11:04:54.60	273.57	17.63	-49.7	-51.1	20.8	0.00e+00	0	45	0	782237696	60	13679
2026-01-30 11:04:55.60	273.80	17.65	-49.8	-51.2	20.7	0.00e+00	0	45	0	785383424	60	13811
2026-01-30 11:04:56.61	274.03	17.66	-49.9	-51.4	20.6	0.00e+00	0	45	0	788529152	60	14093
2026-01-30 11:04:57.61	274.26	17.68	-49.9	-51.3	20.7	0.00e+00	0	45	0	791674880	60	14005
2026-01-30 11:04:58.62	274.50	17.69	-49.9	-51.3	20.7	0.00e+00	0	45	0	794820608	60	14015
2026-01-30 11:04:59.62	274.73	17.71	-49.8	-51.3	20.7	0.00e+00	0	45	0	797966336	60	13952
2026-01-30 11:05:00.63	274.96	17.72	-49.7	-51.1	20.7	0.00e+00	0	45	0	801112064	60	13716
2026-01-30 11:05:01.64	275.19	17.73	-49.7	-51.1	20.8	0.00e+00	0	45	0	804257792	60	13732
2026-01-30 11:05:02.65	275.42	17.75	-49.8	-51.2	20.7	0.00e+00	0	46	0	807403520	60	13750
2026-01-30 11:05:03.66	275.66	17.76	-49.7	-51.1	20.7	0.00e+00	0	46	0	810549248	60	13657
2026-01-30 11:05:04.66	275.89	17.77	-49.8	-51.2	20.7	0.00e+00	0	45	0	813694976	60	13758
2026-01-30 11:05:05.67	276.12	17.78	-49.9	-51.3	20.6	0.00e+00	0	45	0	816840704	60	13976
2026-01-30 11:05:06.68	276.35	17.79	-49.8	-51.2	20.7	0.00e+00	0	46	0	819986432	60	13804
2026-01-30 11:05:07.69	276.59	17.80	-49.9	-51.3	20.6	0.00e+00	0	45	0	823132160	60	13960
2026-01-30 11:05:08.69	276.82	17.81	-49.9	-51.3	20.7	0.00e+00	0	45	0	826277888	60	13969
2026-01-30 11:05:09.70	277.05	17.82	-49.7	-51.0	20.9	0.00e+00	0	45	0	829423616	60	13551
2026-01-30 11:05:10.70	277.28	17.83	-49.5	-50.9	21.1	0.00e+00	0	45	0	832569344	60	13321
2026-01-30 11:05:11.71	277.52	17.84	-49.6	-51.0	21.0	0.00e+00	0	45	0	835715072	60	13484
2026-01-30 11:05:12.71	277.75	17.85	-49.5	-50.9	21.0	0.00e+00	0	45	0	838860800	60	13343
2026-01-30 11:05:13.72	277.98	17.86	-49.7	-51.1	20.9	0.00e+00	0	45	0	842006528	60	13664
2026-01-30 11:05:14.73	278.22	17.87	-49.7	-51.1	20.9	0.00e+00	0	45	0	845152256	60	13699
2026-01-30 11:05:15.73	278.45	17.87	-49.8	-51.2	20.8	0.00e+00	0	45	0	848297984	60	13831
2026-01-30 11:05:16.74	278.69	17.88	-49.8	-51.2	20.8	0.00e+00	0	45	0	851443712	60	13887
2026-01-30 11:05:17.75	278.92	17.88	-49.7	-51.2	20.9	0.00e+00	0	45	0	854589440	60	13736
2026-01-30 11:05:18.76	279.16	17.89	-49.8	-51.2	20.9	0.00e+00	0	45	0	857735168	60	13856
2026-01-30 11:05:19.77	279.39	17.90	-49.8	-51.3	20.8	0.00e+00	0	45	0	860880896	60	13951
2026-01-30 11:05:20.78	279.63	17.90	-49.9	-51.4	20.8	0.00e+00	0	45	0	864026624	60	14133
2026-01-30 11:05:21.79	279.86	17.90	-49.8	-51.3	20.9	0.00e+00	0	45	0	867172352	60	13932
2026-01-30 11:05:22.79	280.09	17.91	-49.7	-51.2	20.9	0.00e+00	0	45	0	870318080	60	13793
2026-01-30 11:05:23.79	280.33	17.91	-49.7	-51.1	20.9	0.00e+00	0	45	0	873463808	60	13707
2026-01-30 11:05:24.80	280.56	17.91	-49.6	-51.0	21.1	0.00e+00	0	45	0	876609536	60	13537
2026-01-30 11:05:25.80	280.79	17.92	-49.7	-51.1	20.9	0.00e+00	0	45	0	879755264	60	13725
2026-01-30 11:05:26.81	281.03	17.92	-49.7	-51.1	20.9	0.00e+00	0	45	0	882900992	60	13655
2026-01-30 11:05:27.82	281.26	17.92	-49.6	-51.0	20.9	0.00e+00	0	45	0	886046720	60	13575
2026-01-30 11:05:28.83	281.50	17.92	-49.6	-51.1	20.8	0.00e+00	0	45	0	889192448	60	13591
2026-01-30 11:05:29.83	281.73	17.92	-49.6	-51.0	21.0	0.00e+00	0	46	0	892338176	60	13476
2026-01-30 11:05:30.84	281.97	17.92	-49.6	-51.0	20.8	0.00e+00	0	45	0	895483904	60	13564
2026-01-30 11:05:31.84	282.20	17.92	-49.6	-51.0	20.9	0.00e+00	0	46	0	898629632	60	13477
2026-01-30 11:05:32.85	282.44	17.92	-49.6	-51.1	20.8	0.00e+00	0	46	0	901775360	60	13597
2026-01-30 11:05:33.86	282.67	17.92	-49.4	-50.8	20.9	0.00e+00	0	45	0	904921088	60	13262
2026-01-30 11:05:34.87	282.91	17.92	-49.5	-51.0	20.7	0.00e+00	0	45	0	908066816	60	13523
2026-01-30 11:05:35.88	283.14	17.92	-49.5	-51.0	20.6	0.00e+00	0	45	0	911212544	60	13483
2026-01-30 11:05:36.89	283.38	17.91	-49.5	-51.0	20.7	0.00e+00	0	45	0	914358272	60	13443
2026-01-30 11:05:37.90	283.61	17.91	-49.4	-50.9	20.7	0.00e+00	0	45	0	917504000	60	13361
2026-01-30 11:05:38.90	283.85	17.91	-49.5	-51.1	20.4	0.00e+00	0	45	0	920649728	60	13588
2026-01-30 11:05:39.91	284.08	17.90	-49.5	-51.0	20.5	0.00e+00	0	45	0	923795456	60	13454
2026-01-30 11:05:40.92	284.32	17.90	-49.5	-51.0	20.6	0.00e+00	0	45	0	926941184	60	13543
2026-01-30 11:05:41.93	284.55	17.89	-49.5	-51.1	20.5	0.00e+00	0	45	0	930086912	60	13647
2026-01-30 11:05:42.93	284.78	17.89	-49.5	-51.0	20.6	0.00e+00	0	45	0	933232640	60	13486
2026-01-30 11:05:43.94	285.02	17.88	-49.6	-51.2	20.5	0.00e+00	0	45	0	936378368	60	13794
2026-01-30 11:05:44.95	285.25	17.88	-49.6	-51.1	20.6	0.00e+00	0	45	0	939524096	60	13642
2026-01-30 11:05:45.95	285.48	17.87	-49.6	-51.1	20.6	0.00e+00	0	46	0	942669824	60	13615
2026-01-30 11:05:46.96	285.72	17.86	-49.7	-51.1	20.7	0.00e+00	0	46	0	945815552	60	13733
2026-01-30 11:05:47.96	285.95	17.85	-49.6	-51.0	20.9	0.00e+00	0	45	0	948961280	60	13464
2026-01-30 11:05:48.97	286.18	17.85	-49.5	-50.9	20.9	0.00e+00	0	45	0	952107008	60	13293
2026-01-30 11:05:49.98	286.42	17.84	-49.6	-51.0	20.9	0.00e+00	0	45	0	955252736	60	13512
2026-01-30 11:05:50.99	286.65	17.83	-49.6	-51.0	20.8	0.00e+00	0	45	0	958398464	60	13561
2026-01-30 11:05:51.99	286.88	17.82	-49.8	-51.3	20.7	0.00e+00	0	45	0	961544192	60	13919
2026-01-30 11:05:53.00	287.12	17.81	-49.7	-51.2	20.8	0.00e+00	0	45	0	964689920	60	13780
2026-01-30 11:05:54.01	287.35	17.80	-49.8	-51.2	20.8	0.00e+00	0	46	0	967835648	60	13869
2026-01-30 11:05:55.02	287.58	17.79	-49.7	-51.1	20.8	0.00e+00	0	45	0	970981376	60	13664
2026-01-30 11:05:56.02	287.82	17.78	-49.7	-51.2	20.8	0.00e+00	0	45	0	974127104	60	13803
2026-01-30 11:05:57.03	288.05	17.76	-49.5	-51.0	20.9	0.00e+00	0	46	0	977272832	60	13445
2026-01-30 11:05:58.04	288.28	17.75	-49.6	-51.1	20.8	0.00e+00	0	45	0	980418560	60	13623
2026-01-30 11:05:59.05	288.51	17.74	-49.7	-51.1	20.7	0.00e+00	0	45	0	983564288	60	13714
2026-01-30 11:06:00.05	288.74	17.73	-49.6	-51.1	20.6	0.00e+00	0	46	0	986710016	60	13687
2026-01-30 11:06:01.06	288.98	17.71	-49.7	-51.2	20.5	0.00e+00	0	45	0	989855744	60	13875
2026-01-30 11:06:02.06	289.21	17.70	-49.7	-51.2	20.4	0.00e+00	0	45	0	993001472	60	13880
2026-01-30 11:06:03.07	289.44	17.68	-49.7	-51.2	20.5	0.00e+00	0	45	0	996147200	60	13855
2026-01-30 11:06:04.08	289.67	17.67	-49.6	-51.1	20.7	0.00e+00	0	45	0	999292928	60	13651
2026-01-30 11:06:05.09	289.90	17.65	-49.5	-51.0	20.8	0.00e+00	0	46	0	1002438656	60	13530
2026-01-30 11:06:06.10	290.13	17.64	-49.6	-51.1	20.8	0.00e+00	0	45	0	1005584384	60	13690
2026-01-30 11:06:07.10	290.36	17.62	-49.6	-51.1	20.8	0.00e+00	0	45	0	1008730112	60	13710
2026-01-30 11:06:08.11	290.59	17.61	-49.8	-51.2	20.8	0.00e+00	0	45	0	1011875840	60	13857
2026-01-30 11:06:09.12	290.82	17.59	-49.9	-51.4	20.7	0.00e+00	0	45	0	1015021568	60	14175
2026-01-30 11:06:10.13	291.05	17.57	-50.1	-51.6	20.7	0.00e+00	0	45	0	1018167296	60	14398
2026-01-30 11:06:11.13	291.28	17.55	-50.1	-51.6	20.6	0.00e+00	0	45	0	1021313024	60	14420
2026-01-30 11:06:12.13	291.50	17.53	-50.1	-51.5	20.7	0.00e+00	0	45	0	1024458752	60	14321
2026-01-30 11:06:13.14	291.73	17.52	-50.0	-51.5	20.7	0.00e+00	0	45	0	1027604480	60	14283
2026-01-30 11:06:14.14	291.96	17.50	-50.0	-51.4	20.9	0.00e+00	0	45	0	1030750208	60	14156
2026-01-30 11:06:15.15	292.19	17.48	-50.0	-51.4	20.8	0.00e+00	0	45	0	1033895936	60	14182
2026-01-30 11:06:16.15	292.42	17.46	-50.0	-51.4	20.7	0.00e+00	0	45	0	1037041664	60	14197
2026-01-30 11:06:17.15	292.64	17.44	-49.9	-51.4	20.7	0.00e+00	0	45	0	1040187392	60	14058
2026-01-30 11:06:18.16	292.87	17.42	-49.7	-51.1	21.0	0.00e+00	0	45	0	1043333120	60	13687
2026-01-30 11:06:19.16	293.09	17.40	-49.7	-51.2	21.0	0.00e+00	0	45	0	1046478848	60	13745
2026-01-30 11:06:20.17	293.32	17.37	-49.6	-51.0	21.0	0.00e+00	0	45	0	1049624576	60	13529
2026-01-30 11:06:21.18	293.55	17.35	-49.7	-51.1	20.9	0.00e+00	0	45	0	1052770304	60	13647
2026-01-30 11:06:22.19	293.77	17.33	-49.6	-51.0	20.8	0.00e+00	0	45	0	1055916032	60	13544
2026-01-30 11:06:23.19	294.00	17.31	-49.7	-51.1	20.6	0.00e+00	0	45	0	1059061760	60	13733
2026-01-30 11:06:24.20	294.22	17.28	-49.7	-51.2	20.5	0.00e+00	0	45	0	1062207488	60	13768
2026-01-30 11:06:25.21	294.45	17.26	-49.7	-51.3	20.4	0.00e+00	0	45	0	1065353216	60	13910
2026-01-30 11:06:26.22	294.67	17.24	-49.7	-51.2	20.4	0.00e+00	0	45	0	1068498944	60	13819
2026-01-30 11:06:27.22	294.90	17.21	-49.7	-51.1	20.5	0.00e+00	0	45	0	1071644672	60	13719
2026-01-30 11:06:28.23	295.12	17.19	-49.6	-51.1	20.5	0.00e+00	0	45	0	1074790400	60	13627
2026-01-30 11:06:29.24	295.35	17.16	-49.6	-51.1	20.6	0.00e+00	0	45	0	1077936128	60	13603
2026-01-30 11:06:30.25	295.57	17.14	-49.7	-51.2	20.5	0.00e+00	0	45	0	1081081856	60	13811
2026-01-30 11:06:31.25	295.79	17.11	-49.7	-51.1	20.7	0.00e+00	0	45	0	1084227584	60	13722
2026-01-30 11:06:32.26	296.01	17.08	-49.6	-51.1	20.7	0.00e+00	0	45	0	1087373312	60	13646
2026-01-30 11:06:33.27	296.24	17.06	-49.7	-51.1	20.8	0.00e+00	0	45	0	1090519040	60	13728
2026-01-30 11:06:34.27	296.46	17.03	-49.8	-51.3	20.7	0.00e+00	0	45	0	1093664768	60	13922
2026-01-30 11:06:35.27	296.67	17.00	-49.9	-51.3	20.7	0.00e+00	0	45	0	1096810496	60	14024
2026-01-30 11:06:36.28	296.90	16.97	-49.8	-51.2	20.9	0.00e+00	0	45	0	1099956224	60	13884
2026-01-30 11:06:37.29	297.12	16.95	-49.9	-51.3	20.8	0.00e+00	0	45	0	1103101952	60	13969
2026-01-30 11:06:38.29	297.34	16.92	-49.9	-51.3	21.0	0.00e+00	0	45	0	1106247680	60	13904
2026-01-30 11:06:39.29	297.55	16.89	-49.8	-51.2	21.1	0.00e+00	0	45	0	1109393408	60	13752
2026-01-30 11:06:40.30	297.77	16.86	-49.9	-51.3	21.0	0.00e+00	0	45	0	1112539136	60	14017
2026-01-30 11:06:41.30	297.99	16.83	-50.0	-51.4	20.9	0.00e+00	0	45	0	1115684864	60	14165
2026-01-30 11:06:42.31	298.21	16.80	-49.9	-51.3	21.1	0.00e+00	0	45	0	1118830592	60	13960
2026-01-30 11:06:43.32	298.43	16.77	-50.0	-51.4	21.1	0.00e+00	0	45	0	1121976320	60	14106
2026-01-30 11:06:44.33	298.64	16.74	-49.9	-51.3	21.1	0.00e+00	0	45	0	1125122048	60	13964
2026-01-30 11:06:45.34	298.86	16.71	-50.0	-51.3	21.1	0.00e+00	0	45	0	1128267776	60	13996
2026-01-30 11:06:46.35	299.08	16.68	-49.9	-51.2	21.1	0.00e+00	0	45	0	1131413504	60	13780
2026-01-30 11:06:47.35	299.29	16.64	-49.7	-51.1	21.1	0.00e+00	0	45	0	1134559232	60	13640
2026-01-30 11:06:48.36	299.51	16.61	-49.8	-51.2	21.1	0.00e+00	0	45	0	1137704960	60	13753
2026-01-30 11:06:49.37	299.73	16.58	-49.8	-51.2	21.1	0.00e+00	0	45	0	1140850688	60	13756
2026-01-30 11:06:50.38	299.94	16.55	-49.8	-51.2	21.1	0.00e+00	0	45	0	1143996416	60	13804
2026-01-30 11:06:51.39	300.16	16.51	-49.7	-51.1	21.2	0.00e+00	0	45	0	1147142144	60	13672
2026-01-30 11:06:52.39	300.37	16.48	-49.7	-51.1	21.2	0.00e+00	0	45	0	1150287872	60	13648
2026-01-30 11:06:53.40	300.58	16.45	-49.8	-51.1	21.3	0.00e+00	0	45	0	1153433600	60	13704
2026-01-30 11:06:54.40	300.79	16.41	-49.7	-51.0	21.3	0.00e+00	0	45	0	1156579328	60	13545
2026-01-30 11:06:55.40	301.00	16.38	-49.7	-51.1	21.3	0.00e+00	0	45	0	1159725056	60	13599
2026-01-30 11:06:56.41	301.22	16.34	-49.8	-51.2	21.2	0.00e+00	0	45	0	1162870784	60	13744
2026-01-30 11:06:57.41	301.43	16.31	-49.7	-51.1	21.3	0.00e+00	0	45	0	1166016512	60	13714
2026-01-30 11:06:58.42	301.64	16.27	-49.9	-51.2	21.1	0.00e+00	0	45	0	1169162240	60	13880
2026-01-30 11:06:59.43	301.85	16.24	-49.8	-51.2	21.1	0.00e+00	0	45	0	1172307968	60	13839
2026-01-30 11:07:00.44	302.06	16.20	-49.9	-51.3	21.1	0.00e+00	0	45	0	1175453696	60	13917
2026-01-30 11:07:01.45	302.27	16.16	-49.8	-51.2	21.2	0.00e+00	0	45	0	1178599424	60	13834
2026-01-30 11:07:02.46	302.48	16.13	-49.9	-51.2	21.2	0.00e+00	0	46	0	1181745152	60	13891
2026-01-30 11:07:03.46	302.69	16.09	-49.9	-51.3	21.1	0.00e+00	0	45	0	1184890880	60	13967
2026-01-30 11:07:04.47	302.89	16.05	-50.0	-51.4	21.2	0.00e+00	0	45	0	1188036608	60	14096
2026-01-30 11:07:05.47	303.10	16.02	-49.9	-51.3	21.2	0.00e+00	0	46	0	1191182336	60	13893
2026-01-30 11:07:06.48	303.31	15.98	-49.9	-51.2	21.3	0.00e+00	0	46	0	1194328064	60	13884
2026-01-30 11:07:07.49	303.51	15.94	-49.8	-51.2	21.4	0.00e+00	0	45	0	1197473792	60	13808
2026-01-30 11:07:08.50	303.72	15.90	-49.8	-51.1	21.4	0.00e+00	0	45	0	1200619520	60	13693
2026-01-30 11:07:09.50	303.92	15.86	-49.8	-51.1	21.2	0.00e+00	0	45	0	1203765248	60	13694
2026-01-30 11:07:10.51	304.13	15.82	-49.7	-51.0	21.2	0.00e+00	0	46	0	1206910976	60	13566
2026-01-30 11:07:11.52	304.33	15.78	-49.8	-51.2	21.0	0.00e+00	0	46	0	1210056704	60	13797
2026-01-30 11:07:12.52	304.54	15.75	-49.8	-51.2	20.8	0.00e+00	0	45	0	1213202432	60	13819
2026-01-30 11:07:13.53	304.74	15.71	-49.8	-51.2	20.8	0.00e+00	0	45	0	1216348160	60	13767
2026-01-30 11:07:14.54	304.94	15.67	-49.7	-51.1	20.7	0.00e+00	0	45	0	1219493888	60	13628
2026-01-30 11:07:15.55	305.15	15.62	-49.8	-51.2	20.4	0.00e+00	0	46	0	1222639616	60	13812
2026-01-30 11:07:16.56	305.35	15.58	-49.6	-51.0	20.6	0.00e+00	0	46	0	1225785344	60	13506
2026-01-30 11:07:17.56	305.55	15.54	-49.5	-50.9	20.6	0.00e+00	0	46	0	1228931072	60	13403
2026-01-30 11:07:18.57	305.75	15.50	-49.6	-51.0	20.5	0.00e+00	0	46	0	1232076800	60	13539
2026-01-30 11:07:19.58	305.95	15.46	-49.6	-51.0	20.6	0.00e+00	0	45	0	1235222528	60	13574
2026-01-30 11:07:20.58	306.15	15.42	-49.5	-50.9	20.7	0.00e+00	0	46	0	1238368256	60	13375
2026-01-30 11:07:21.59	306.35	15.38	-49.5	-50.9	20.8	0.00e+00	0	45	0	1241513984	60	13306
2026-01-30 11:07:22.60	306.55	15.33	-49.5	-50.9	20.6	0.00e+00	0	46	0	1244659712	60	13385
2026-01-30 11:07:23.61	306.74	15.29	-49.6	-51.0	20.7	0.00e+00	0	45	0	1247805440	60	13475
2026-01-30 11:07:24.62	306.94	15.25	-49.7	-51.1	20.8	0.00e+00	0	46	0	1250951168	60	13682
2026-01-30 11:07:25.62	307.14	15.21	-49.7	-51.1	20.8	0.00e+00	0	45	0	1254096896	60	13640
2026-01-30 11:07:26.62	307.33	15.16	-49.8	-51.3	20.6	0.00e+00	0	45	0	1257242624	60	13917
2026-01-30 11:07:27.63	307.53	15.12	-50.0	-51.4	20.5	0.00e+00	0	45	0	1260388352	60	14170
2026-01-30 11:07:28.64	307.72	15.08	-50.0	-51.5	20.6	0.00e+00	0	46	0	1263534080	60	14221
2026-01-30 11:07:29.64	307.92	15.03	-50.1	-51.6	20.5	0.00e+00	0	45	0	1266679808	60	14426
2026-01-30 11:07:30.65	308.11	14.99	-50.1	-51.6	20.5	0.00e+00	0	46	0	1269825536	60	14516
2026-01-30 11:07:31.66	308.31	14.95	-50.1	-51.7	20.4	0.00e+00	0	46	0	1272971264	60	14591
2026-01-30 11:07:32.66	308.50	14.90	-50.2	-51.8	20.4	0.00e+00	0	46	0	1276116992	60	14833
2026-01-30 11:07:33.67	308.69	14.86	-50.4	-51.9	20.3	0.00e+00	0	46	0	1279262720	60	14948
2026-01-30 11:07:34.68	308.88	14.81	-50.2	-51.6	20.7	0.00e+00	0	46	0	1282408448	60	14525
2026-01-30 11:07:35.69	309.07	14.77	-49.9	-51.4	20.8	0.00e+00	0	45	0	1285554176	60	14081
2026-01-30 11:07:36.70	309.27	14.72	-50.0	-51.5	20.7	0.00e+00	0	46	0	1288699904	60	14268
2026-01-30 11:07:37.70	309.45	14.68	-50.2	-51.6	20.7	0.00e+00	0	45	0	1291845632	60	14461
2026-01-30 11:07:38.71	309.64	14.63	-50.3	-51.7	20.6	0.00e+00	0	45	0	1294991360	60	14599
2026-01-30 11:07:39.72	309.83	14.58	-50.3	-51.7	20.5	0.00e+00	0	45	0	1298137088	60	14702
2026-01-30 11:07:40.72	310.02	14.54	-50.4	-51.8	20.4	0.00e+00	0	45	0	1301282816	60	14761
2026-01-30 11:07:41.73	310.21	14.49	-50.5	-51.9	20.2	0.00e+00	0	46	0	1304428544	60	15004
2026-01-30 11:07:42.74	310.40	14.44	-50.5	-52.0	20.1	0.00e+00	0	45	0	1307574272	60	15124
2026-01-30 11:07:43.75	310.58	14.40	-50.6	-52.1	20.0	0.00e+00	0	45	0	1310720000	60	15264
2026-01-30 11:07:44.75	310.77	14.35	-50.4	-52.0	19.9	0.00e+00	0	45	0	1313865728	60	15061
2026-01-30 11:07:45.76	310.95	14.30	-50.4	-51.9	19.8	0.00e+00	0	45	0	1317011456	60	15050
2026-01-30 11:07:46.77	311.14	14.26	-50.4	-51.9	19.8	0.00e+00	0	45	0	1320157184	60	14973
2026-01-30 11:07:47.78	311.32	14.21	-50.4	-51.9	19.7	0.00e+00	0	46	0	1323302912	60	15020
2026-01-30 11:07:48.79	311.51	14.16	-50.3	-51.9	19.8	0.00e+00	0	45	0	1326448640	60	14940
2026-01-30 11:07:49.80	311.69	14.11	-50.4	-51.9	19.9	0.00e+00	0	45	0	1329594368	60	14969
2026-01-30 11:07:50.80	311.87	14.07	-50.5	-52.0	19.9	0.00e+00	0	46	0	1332740096	60	15115
2026-01-30 11:07:51.81	312.06	14.02	-50.4	-51.9	20.1	0.00e+00	0	46	0	1335885824	60	14955
2026-01-30 11:07:52.81	312.24	13.97	-50.4	-51.9	20.2	0.00e+00	0	45	0	1339031552	60	14914
2026-01-30 11:07:53.82	312.42	13.92	-50.3	-51.8	20.3	0.00e+00	0	45	0	1342177280	60	14764
2026-01-30 11:07:54.82	312.60	13.87	-50.5	-51.9	20.2	0.00e+00	0	45	0	1345323008	60	14993
2026-01-30 11:07:55.83	312.78	13.82	-50.5	-51.9	20.4	0.00e+00	0	45	0	1348468736	60	14998
2026-01-30 11:07:56.83	312.95	13.78	-50.4	-51.9	20.4	0.00e+00	0	46	0	1351614464	60	14963
2026-01-30 11:07:57.84	313.13	13.73	-50.5	-51.9	20.4	0.00e+00	0	46	0	1354760192	60	14978
2026-01-30 11:07:58.85	313.31	13.68	-50.6	-52.0	20.3	0.00e+00	0	46	0	1357905920	60	15167
2026-01-30 11:07:59.85	313.49	13.63	-50.7	-52.1	20.2	0.00e+00	0	46	0	1361051648	60	15332
2026-01-30 11:08:00.85	313.66	13.58	-50.7	-52.2	20.1	0.00e+00	0	45	0	1364197376	60	15495
2026-01-30 11:08:01.86	313.84	13.53	-50.7	-52.1	20.1	0.00e+00	0	45	0	1367343104	60	15401
2026-01-30 11:08:02.86	314.02	13.48	-50.6	-52.1	20.1	0.00e+00	0	46	0	1370488832	60	15335
2026-01-30 11:08:03.87	314.19	13.43	-50.6	-52.2	20.0	0.00e+00	0	45	0	1373634560	60	15418
2026-01-30 11:08:04.87	314.36	13.38	-50.6	-52.1	20.0	0.00e+00	0	45	0	1376780288	60	15261
2026-01-30 11:08:05.87	314.54	13.33	-50.3	-51.9	20.0	0.00e+00	0	45	0	1379926016	60	14934
2026-01-30 11:08:06.88	314.71	13.28	-50.3	-51.9	19.8	0.00e+00	0	46	0	1383071744	60	15058
2026-01-30 11:08:07.89	314.88	13.23	-50.4	-52.0	19.7	0.00e+00	0	46	0	1386217472	60	15230
2026-01-30 11:08:08.90	315.06	13.18	-50.5	-52.2	19.5	0.00e+00	0	46	0	1389363200	60	15465
2026-01-30 11:08:09.90	315.23	13.13	-50.6	-52.3	19.3	0.00e+00	0	46	0	1392508928	60	15740
2026-01-30 11:08:10.90	315.40	13.08	-50.6	-52.4	19.3	0.00e+00	0	46	0	1395654656	60	15789
2026-01-30 11:08:11.91	315.57	13.03	-50.6	-52.3	19.3	0.00e+00	0	46	0	1398800384	60	15766
2026-01-30 11:08:12.92	315.74	12.97	-50.7	-52.5	19.2	0.00e+00	0	46	0	1401946112	60	15961
2026-01-30 11:08:13.93	315.91	12.92	-50.8	-52.5	19.2	0.00e+00	0	45	0	1405091840	60	16107
2026-01-30 11:08:14.93	316.08	12.87	-50.9	-52.7	19.1	0.00e+00	0	45	0	1408237568	60	16395
2026-01-30 11:08:15.94	316.25	12.82	-51.1	-52.9	18.9	0.00e+00	0	46	0	1411383296	60	16765
2026-01-30 11:08:16.94	316.41	12.77	-51.2	-53.0	18.8	0.00e+00	0	45	0	1414529024	60	17055
2026-01-30 11:08:17.94	316.58	12.72	-51.3	-53.1	18.6	0.00e+00	0	46	0	1417674752	60	17277
2026-01-30 11:08:18.94	316.74	12.67	-51.4	-53.2	18.6	0.00e+00	0	46	0	1420820480	60	17361
2026-01-30 11:08:19.95	316.91	12.61	-51.5	-53.4	18.4	0.00e+00	0	45	0	1423966208	60	17694
2026-01-30 11:08:20.96	317.08	12.56	-51.6	-53.4	18.3	0.00e+00	0	45	0	1427111936	60	17724
2026-01-30 11:08:21.97	317.24	12.51	-51.7	-53.4	18.3	0.00e+00	0	45	0	1430257664	60	17872
2026-01-30 11:08:22.97	317.40	12.46	-51.7	-53.5	18.2	0.00e+00	0	45	0	1433403392	60	17997
2026-01-30 11:08:23.98	317.57	12.41	-51.8	-53.6	17.9	0.00e+00	0	45	0	1436549120	60	18197
2026-01-30 11:08:24.98	317.73	12.35	-51.8	-53.7	17.9	0.00e+00	0	45	0	1439694848	60	18383
2026-01-30 11:08:25.98	317.89	12.30	-51.9	-53.8	17.7	0.00e+00	0	45	0	1442840576	60	18652
2026-01-30 11:08:26.99	318.05	12.25	-51.8	-53.9	17.4	0.00e+00	0	46	0	1445986304	60	18861
2026-01-30 11:08:27.99	318.21	12.20	-51.7	-53.9	17.2	0.00e+00	0	46	0	1449132032	60	18854
2026-01-30 11:08:29.00	318.38	12.14	-51.8	-54.0	17.0	0.00e+00	0	45	0	1452277760	60	19118
2026-01-30 11:08:30.01	318.54	12.09	-51.8	-54.1	16.8	0.00e+00	0	45	0	1455423488	60	19217
2026-01-30 11:08:31.02	318.70	12.04	-51.8	-54.2	16.6	0.00e+00	0	45	0	1458569216	60	19533
2026-01-30 11:08:32.03	318.86	11.99	-51.8	-54.2	16.5	0.00e+00	0	46	0	1461714944	60	19595
2026-01-30 11:08:33.03	319.01	11.93	-51.9	-54.4	16.3	0.00e+00	0	45	0	1464860672	60	19915
2026-01-30 11:08:34.04	319.17	11.88	-52.1	-54.5	16.2	0.00e+00	0	46	0	1468006400	60	20305
2026-01-30 11:08:35.04	319.33	11.83	-52.3	-54.7	16.1	0.00e+00	0	46	0	1471152128	60	20777
2026-01-30 11:08:36.04	319.49	11.77	-52.5	-55.0	15.9	0.00e+00	0	46	0	1474297856	60	21303
2026-01-30 11:08:37.05	319.64	11.72	-52.7	-55.1	15.8	0.00e+00	0	46	0	1477443584	60	21688
2026-01-30 11:08:38.06	319.80	11.67	-52.9	-55.3	15.7	0.00e+00	0	46	0	1480589312	60	22258
2026-01-30 11:08:39.07	319.95	11.61	-53.0	-55.5	15.6	0.00e+00	0	46	0	1483735040	60	22682
2026-01-30 11:08:40.07	320.11	11.56	-53.2	-55.7	15.5	7.00e-07	0	46	0	1486880768	60	23080
2026-01-30 11:08:41.08	320.26	11.51	-53.3	-55.8	15.4	0.00e+00	0	46	0	1490026496	60	23467
2026-01-30 11:08:42.09	320.42	11.45	-53.4	-55.9	15.3	0.00e+00	0	46	0	1493172224	60	23859
2026-01-30 11:08:43.10	320.57	11.40	-53.5	-56.1	15.1	0.00e+00	0	46	0	1496317952	60	24333
2026-01-30 11:08:44.10	320.72	11.34	-53.6	-56.3	14.8	0.00e+00	0	46	0	1499463680	60	24785
2026-01-30 11:08:45.11	320.88	11.29	-53.5	-56.4	14.2	0.00e+00	0	46	0	1502609408	60	25090
2026-01-30 11:08:46.12	321.03	11.24	-53.5	-56.5	13.8	6.10e-06	0	46	0	1505755136	60	25531
2026-01-30 11:08:47.13	321.18	11.18	-53.7	-56.7	14.0	4.50e-06	0	46	0	1508900864	60	26041
2026-01-30 11:08:48.13	321.33	11.13	-53.8	-56.8	14.0	0.00e+00	0	46	0	1512046592	60	26301
2026-01-30 11:08:49.14	321.48	11.07	-53.8	-57.0	13.7	5.30e-06	0	45	0	1515192320	60	27002
2026-01-30 11:08:50.15	321.63	11.02	-53.8	-57.2	13.4	1.37e-05	0	46	0	1518338048	60	27675
2026-01-30 11:08:51.15	321.78	10.97	-53.8	-57.4	13.1	2.13e-05	0	46	0	1521483776	60	28238
2026-01-30 11:08:52.16	321.93	10.91	-53.8	-57.7	12.6	6.17e-05	0	46	0	1524629504	60	29295
2026-01-30 11:08:53.17	322.07	10.86	-53.8	-57.9	12.2	1.57e-04	0	46	0	1527775232	60	29871
2026-01-30 11:08:54.17	322.22	10.80	-53.8	-58.1	12.0	3.15e-04	0	46	0	1530920960	60	30701
2026-01-30 11:08:55.18	322.37	10.75	-53.9	-58.4	11.6	5.23e-04	0	46	0	1534066688	60	31514
2026-01-30 11:08:56.19	322.51	10.69	-53.9	-58.5	11.4	8.88e-04	0	46	0	1537212416	60	32090
2026-01-30 11:08:57.19	322.66	10.64	-54.0	-58.8	11.1	1.41e-03	0	46	0	1540358144	60	32983
2026-01-30 11:08:58.20	322.80	10.58	-54.1	-58.9	10.8	2.13e-03	0	45	0	1543503872	60	33693
2026-01-30 11:08:59.21	322.95	10.53	-54.2	-59.1	10.6	3.12e-03	0	46	0	1546649600	60	34465
2026-01-30 11:09:00.22	323.09	10.48	-54.3	-59.3	10.4	4.31e-03	0	46	0	1549795328	60	35206
2026-01-30 11:09:01.23	323.24	10.42	-54.4	-59.5	10.2	5.15e-03	0	46	0	1552941056	60	35832
2026-01-30 11:09:02.23	323.38	10.37	-54.6	-59.7	10.1	6.73e-03	0	46	0	1556086784	60	36684
2026-01-30 11:09:03.24	323.52	10.31	-54.7	-59.9	9.9	7.96e-03	0	46	0	1559232512	60	37550
2026-01-30 11:09:04.25	323.67	10.26	-54.8	-60.0	9.7	1.04e-02	0	45	0	1562378240	60	38236
2026-01-30 11:09:05.25	323.81	10.20	-54.9	-60.3	9.5	1.28e-02	0	45	0	1565523968	60	39279
2026-01-30 11:09:06.26	323.95	10.15	-55.1	-60.5	9.4	1.60e-02	0	45	0	1568669696	60	40206
2026-01-30 11:09:07.27	324.09	10.09	-55.1	-60.8	9.0	2.28e-02	0	46	0	1571815424	60	41647
2026-01-30 11:09:08.27	324.23	10.04	-55.1	-61.1	8.7	2.78e-02	0	46	0	1574961152	60	42978
2026-01-30 11:09:09.27	324.37	9.98	-55.1	-61.3	8.3	4.21e-02	0	46	0	1578106880	60	44347
2026-01-30 11:09:10.27	324.50	9.93	-55.0	-61.5	8.1	5.44e-02	0	46	0	1581252608	60	45362
2026-01-30 11:09:11.28	324.64	9.87	-55.0	-61.8	7.8	6.97e-02	0	46	0	1584398336	60	46840
2026-01-30 11:09:12.29	324.78	9.82	-55.1	-62.0	7.6	8.56e-02	0	46	0	1587544064	60	47875
2026-01-30 11:09:13.29	324.92	9.76	-55.1	-62.2	7.3	1.06e-01	0	46	0	1590689792	60	49129
2026-01-30 11:09:14.30	325.06	9.71	-55.2	-62.5	7.1	1.27e-01	0	45	0	1593835520	60	50449
2026-01-30 11:09:15.31	325.19	9.65	-55.4	-62.7	6.9	1.56e-01	0	46	0	1596981248	60	51836
2026-01-30 11:09:16.32	325.33	9.60	-55.6	-62.9	6.6	1.88e-01	0	46	0	1600126976	60	53136
2026-01-30 11:09:17.32	325.46	9.54	-55.8	-63.1	6.4	2.12e-01	0	46	0	1603272704	60	54564
2026-01-30 11:09:18.33	325.60	9.49	-56.0	-63.4	6.2	2.50e-01	0	46	0	1606418432	60	56255
2026-01-30 11:09:19.34	325.73	9.43	-56.9	-66.9	4.6	1.38e+00	0	46	104	1607467008	60	84502
2026-01-30 11:09:20.35	325.87	9.38	-56.6	-66.2	4.9	1.49e+00	0	46	104	1607467008	60	77971
2026-01-30 11:09:21.35	326.00	9.32	-56.5	-66.1	3.8	1.32e+00	0	46	104	1607467008	60	77183
2026-01-30 11:09:22.36	326.14	9.27	-56.7	-66.5	4.7	1.16e+00	0	46	104	1607467008	60	80247
2026-01-30 11:09:23.36	326.27	9.21	-56.7	-66.7	4.6	9.24e-01	0	46	104	1607467008	60	82181
2026-01-30 11:09:24.36	326.40	9.16	-56.7	-66.9	4.5	1.27e+00	0	46	104	1607467008	60	84079
2026-01-30 11:09:25.36	326.53	9.10	-56.6	-66.4	4.7	9.97e-01	0	46	104	1607467008	60	79458
2026-01-30 11:09:26.36	326.66	9.05	-56.8	-68.0	4.0	1.46e+00	0	46	104	1607467008	60	95668
2026-01-30 11:09:27.37	326.79	8.99	-56.7	-68.5	3.8	1.49e+00	0	46	104	1607467008	60	101432
2026-01-30 11:09:28.37	326.92	8.94	-57.0	-69.4	3.6	1.50e+00	0	46	104	1607467008	60	112782
2026-01-30 11:09:29.38	327.05	8.88	-56.8	-68.0	4.1	1.47e+00	0	46	104	1607467008	60	95701
2026-01-30 11:09:30.39	327.18	8.83	-56.9	-68.3	3.6	1.47e+00	0	46	104	1607467008	60	99380
2026-01-30 11:09:31.39	327.31	8.77	-56.8	-68.4	3.8	1.49e+00	0	46	104	1607467008	60	100424
2026-01-30 11:09:32.40	327.44	8.72	-56.6	-68.7	3.7	1.50e+00	0	46	104	1607467008	60	103608
2026-01-30 11:09:33.40	327.56	8.66	-56.0	-69.2	3.5	1.51e+00	0	46	104	1607467008	60	109269
2026-01-30 11:09:34.41	327.69	8.61	-56.1	-69.1	3.7	1.51e+00	0	46	104	1607467008	60	108390
2026-01-30 11:09:35.42	327.82	8.55	-57.1	-70.6	3.5	1.51e+00	0	46	104	1607467008	60	128663
2026-01-30 11:09:36.42	327.95	8.50	-55.9	-70.2	3.5	1.52e+00	0	46	104	1607467008	60	122965
2026-01-30 11:09:37.43	328.07	8.44	-56.0	-69.6	3.5	1.51e+00	0	46	104	1607467008	60	114609
2026-01-30 11:09:38.44	328.20	8.39	-55.9	-69.7	3.5	1.51e+00	0	46	104	1607467008	60	116815
2026-01-30 11:09:39.44	328.32	8.33	-55.8	-69.8	3.5	1.52e+00	0	46	104	1607467008	60	118191
2026-01-30 11:09:40.45	328.45	8.28	-55.8	-70.1	3.5	1.51e+00	0	46	104	1607467008	60	122161
2026-01-30 11:09:41.45	328.57	8.22	-56.0	-70.4	3.5	1.51e+00	0	46	104	1607467008	60	125782
2026-01-30 11:09:42.46	328.70	8.17	-57.3	-71.1	3.5	1.52e+00	0	46	104	1607467008	60	136620
2026-01-30 11:09:43.46	328.82	8.11	-57.3	-71.2	3.5	1.52e+00	0	46	104	1607467008	60	138510
2026-01-30 11:09:44.47	328.94	8.06	-57.3	-71.3	3.5	1.52e+00	0	46	104	1607467008	60	139522
2026-01-30 11:09:45.48	329.06	8.00	-56.9	-70.9	3.5	1.52e+00	0	46	104	1607467008	60	132734
2026-01-30 11:09:46.49	329.19	7.95	-57.2	-71.2	3.5	1.52e+00	0	46	104	1607467008	60	138370
2026-01-30 11:09:47.50	329.31	7.89	-57.3	-71.3	3.5	1.52e+00	0	46	104	1607467008	60	139894
2026-01-30 11:09:48.50	329.43	7.84	-57.3	-71.4	3.5	1.52e+00	0	46	104	1607467008	60	140988
2026-01-30 11:09:49.50	329.55	7.78	-56.9	-71.4	3.5	1.52e+00	0	46	104	1607467008	60	140662
2026-01-30 11:09:50.51	329.67	7.73	-56.9	-71.1	3.5	1.51e+00	0	46	104	1607467008	60	135993
2026-01-30 11:09:51.51	329.79	7.67	-57.3	-71.4	3.5	1.52e+00	0	46	104	1607467008	60	140779
2026-01-30 11:09:52.52	329.91	7.62	-56.9	-71.0	3.5	1.52e+00	0	46	104	1607467008	60	134462
2026-01-30 11:09:53.52	330.03	7.56	-57.0	-71.2	3.5	1.52e+00	0	46	104	1607467008	60	138264
2026-01-30 11:09:54.53	330.15	7.51	-56.5	-70.9	3.6	1.52e+00	0	46	104	1607467008	60	133259
2026-01-30 11:09:55.53	330.26	7.45	-56.8	-71.0	3.5	1.51e+00	0	46	104	1607467008	60	135634
2026-01-30 11:09:56.54	330.38	7.40	-56.7	-71.0	3.5	1.52e+00	0	46	104	1607467008	60	134850
2026-01-30 11:09:57.54	330.50	7.35	-56.5	-70.7	3.6	1.52e+00	0	46	104	1607467008	60	131086
2026-01-30 11:09:58.54	330.61	7.29	-56.6	-70.9	3.5	1.51e+00	0	45	104	1607467008	60	132695
2026-01-30 11:09:59.54	330.73	7.24	-56.5	-70.8	3.5	1.52e+00	0	46	104	1607467008	60	132057
2026-01-30 11:10:00.55	330.85	7.18	-56.8	-71.2	3.5	1.52e+00	0	46	104	1607467008	60	137661
2026-01-30 11:10:01.56	330.96	7.13	-56.1	-70.5	3.6	1.51e+00	0	46	104	1607467008	60	127873
2026-01-30 11:10:02.57	331.08	7.07	-56.0	-70.6	3.6	1.51e+00	0	46	104	1607467008	60	129429
2026-01-30 11:10:03.58	331.19	7.02	-56.0	-70.5	3.5	1.51e+00	0	46	104	1607467008	60	127775
2026-01-30 11:10:04.58	331.31	6.96	-55.8	-70.5	3.6	1.51e+00	0	46	104	1607467008	60	128066
2026-01-30 11:10:05.58	331.42	6.91	-55.6	-70.5	3.6	1.51e+00	0	46	104	1607467008	60	126914
2026-01-30 11:10:06.59	331.53	6.85	-56.5	-70.8	3.5	1.52e+00	0	46	104	1607467008	60	131874
2026-01-30 11:10:07.60	331.65	6.80	-56.7	-70.7	3.6	1.51e+00	0	46	104	1607467008	60	130995
2026-01-30 11:10:08.61	331.76	6.74	-55.9	-70.4	3.6	1.51e+00	0	46	104	1607467008	60	126130
2026-01-30 11:10:09.62	331.87	6.69	-55.9	-70.6	3.6	1.51e+00	0	46	104	1607467008	60	129230
2026-01-30 11:10:10.63	331.99	6.63	-55.8	-70.5	3.6	1.51e+00	0	46	104	1607467008	60	126809
2026-01-30 11:10:11.63	332.10	6.58	-56.0	-70.7	3.5	1.52e+00	0	46	104	1607467008	60	130549
2026-01-30 11:10:12.64	332.21	6.53	-56.1	-70.7	3.5	1.52e+00	0	46	104	1607467008	60	130218
2026-01-30 11:10:13.65	332.32	6.47	-56.6	-71.2	3.5	1.52e+00	0	46	104	1607467008	60	137449
