passes_logs/2026/01/30/R3.2S-Naryan-Mar/R3.2S-Naryan-Mar__20260130_154825_FENGYUN_3E_rec.log

#Pass ID: 20260130_154825_FENGYUN 3E
#Satellite: FENGYUN 3E
#Configuration: FENGYUN 3E
#almurnet v.1.7.20240730
#Start time: 2026-01-30 15:48:27

#Version: 2.2.20231116
#Station: R3.2S-Naryan-Mar
#Location: 53.008057 lon 67.646978 lat
#TLE: 1 49008U 21062A   26030.15628484 -.00000231  00000+0 -88238-4 0  9991
#TLE: 2 49008  98.7496  35.1082 0002567 110.3408 249.8045 14.19886954236998

#Time	Az	El	Level	Level2	SNR	BER	BlckErr	Temp	State	Recorded	gain1	gain2
2026-01-30 15:48:27.86	235.71	0.09	-58.3	-72.9	3.4	8.45e-01	0	43	0	0	60	172127
2026-01-30 15:48:28.86	235.80	0.14	-60.3	-73.2	3.6	8.45e-01	0	44	104	0	60	179443
2026-01-30 15:48:29.86	235.88	0.18	-60.5	-73.5	3.6	8.46e-01	0	44	104	0	60	184887
2026-01-30 15:48:30.87	235.97	0.22	-60.7	-73.5	3.6	8.44e-01	0	44	104	0	60	185668
2026-01-30 15:48:31.87	236.06	0.27	-60.7	-73.5	3.6	8.45e-01	0	44	104	0	60	185448
2026-01-30 15:48:32.88	236.15	0.31	-61.0	-73.9	3.6	8.45e-01	0	44	104	0	60	194457
2026-01-30 15:48:33.89	236.24	0.36	-61.0	-74.0	3.6	8.46e-01	0	44	104	0	60	195485
2026-01-30 15:48:34.89	236.32	0.40	-61.3	-74.3	3.6	8.46e-01	0	44	104	0	60	203500
2026-01-30 15:48:35.89	236.41	0.45	-61.5	-74.6	3.6	8.45e-01	0	44	104	0	60	209985
2026-01-30 15:48:36.90	236.50	0.49	-61.5	-74.9	3.6	8.44e-01	0	44	104	0	60	216656
2026-01-30 15:48:37.91	236.59	0.54	-61.5	-74.8	3.6	8.47e-01	0	44	104	0	60	216350
2026-01-30 15:48:38.91	236.68	0.58	-61.4	-74.8	3.6	8.46e-01	0	44	104	0	60	214384
2026-01-30 15:48:39.92	236.77	0.63	-61.4	-74.7	3.6	8.46e-01	0	44	104	0	60	213694
2026-01-30 15:48:40.93	236.86	0.67	-61.4	-74.8	3.6	8.44e-01	0	44	104	0	60	215033
2026-01-30 15:48:41.94	236.95	0.72	-61.2	-74.5	3.6	8.45e-01	0	45	104	0	60	208073
2026-01-30 15:48:42.94	237.04	0.76	-61.0	-74.2	3.6	8.46e-01	0	45	104	0	60	201273
2026-01-30 15:48:43.95	237.13	0.81	-60.9	-74.0	3.6	8.47e-01	0	45	104	0	60	195939
2026-01-30 15:48:44.95	237.22	0.85	-60.9	-73.9	3.6	8.45e-01	0	45	104	0	60	194998
2026-01-30 15:48:45.96	237.32	0.90	-61.0	-74.1	3.6	8.46e-01	0	45	104	0	60	198035
2026-01-30 15:48:46.97	237.41	0.95	-60.8	-73.9	3.6	8.46e-01	0	45	104	0	60	193311
2026-01-30 15:48:47.98	237.50	0.99	-60.7	-73.7	3.6	8.45e-01	0	45	104	0	60	189103
2026-01-30 15:48:48.99	237.59	1.04	-60.5	-73.5	3.6	8.45e-01	0	45	104	0	60	185796
2026-01-30 15:48:49.99	237.69	1.08	-60.2	-73.2	3.6	8.46e-01	0	45	104	0	60	179105
2026-01-30 15:48:51.00	237.78	1.13	-60.1	-73.0	3.6	8.45e-01	0	45	104	0	60	175536
2026-01-30 15:48:52.01	237.87	1.17	-60.1	-73.1	3.6	8.45e-01	0	45	104	0	60	177883
2026-01-30 15:48:53.02	237.97	1.22	-59.9	-72.9	3.6	8.45e-01	0	45	104	0	60	172064
2026-01-30 15:48:54.02	238.06	1.26	-59.7	-72.7	3.6	8.45e-01	0	45	104	0	60	168768
2026-01-30 15:48:55.03	238.15	1.31	-59.5	-72.5	3.6	8.46e-01	0	45	104	0	60	164938
2026-01-30 15:48:56.03	238.25	1.35	-59.1	-72.1	3.6	8.46e-01	0	45	104	0	60	157048
2026-01-30 15:48:57.04	238.34	1.40	-58.8	-71.8	3.6	8.45e-01	0	45	104	0	60	152687
2026-01-30 15:48:58.05	238.44	1.44	-58.6	-71.6	3.6	8.46e-01	0	45	104	0	60	149774
2026-01-30 15:48:59.05	238.53	1.49	-58.5	-71.5	3.5	8.45e-01	0	45	104	0	60	147661
2026-01-30 15:49:00.06	238.63	1.53	-58.5	-71.4	3.6	8.45e-01	0	45	104	0	60	146339
2026-01-30 15:49:01.06	238.72	1.58	-58.4	-71.4	3.6	8.45e-01	0	45	104	0	60	146318
2026-01-30 15:49:02.07	238.82	1.62	-58.5	-71.5	3.6	8.45e-01	0	45	104	0	60	146707
2026-01-30 15:49:03.08	238.91	1.67	-58.5	-71.4	3.6	8.45e-01	0	45	104	0	60	145406
2026-01-30 15:49:04.09	239.01	1.72	-58.4	-71.5	3.6	8.45e-01	0	45	104	0	60	146979
2026-01-30 15:49:05.10	239.11	1.76	-58.4	-71.4	3.6	8.45e-01	0	45	104	0	60	144907
2026-01-30 15:49:06.11	239.20	1.81	-58.4	-71.4	3.6	8.45e-01	0	45	104	0	60	145385
2026-01-30 15:49:07.11	239.30	1.85	-58.3	-71.3	3.6	8.46e-01	0	45	104	0	60	144407
2026-01-30 15:49:08.12	239.40	1.90	-58.3	-71.3	3.6	8.45e-01	0	45	104	0	60	144065
2026-01-30 15:49:09.13	239.50	1.94	-58.3	-71.2	3.6	8.46e-01	0	45	104	0	60	142096
2026-01-30 15:49:10.14	239.60	1.99	-58.2	-71.2	3.6	8.46e-01	0	45	104	0	60	143062
2026-01-30 15:49:11.15	239.69	2.03	-58.2	-71.2	3.6	8.45e-01	0	45	104	0	60	142596
2026-01-30 15:49:12.16	239.79	2.08	-58.2	-71.2	3.6	8.45e-01	0	45	104	0	60	142835
2026-01-30 15:49:13.16	239.89	2.12	-58.2	-71.1	3.6	8.45e-01	0	45	104	0	60	141066
2026-01-30 15:49:14.17	239.99	2.17	-58.2	-71.1	3.6	8.44e-01	0	45	104	0	60	141230
2026-01-30 15:49:15.17	240.09	2.21	-58.1	-71.1	3.6	8.45e-01	0	45	104	0	60	141091
2026-01-30 15:49:16.17	240.19	2.26	-58.1	-71.1	3.6	8.46e-01	0	45	104	0	60	141286
2026-01-30 15:49:17.18	240.29	2.31	-58.1	-71.1	3.6	8.45e-01	0	45	104	0	60	140687
2026-01-30 15:49:18.19	240.39	2.35	-58.1	-71.2	3.6	8.45e-01	0	45	104	0	60	141696
2026-01-30 15:49:19.20	240.49	2.40	-58.1	-71.1	3.6	8.46e-01	0	45	104	0	60	140500
2026-01-30 15:49:20.20	240.59	2.44	-58.1	-71.1	3.6	8.45e-01	0	45	104	0	60	140748
2026-01-30 15:49:21.21	240.69	2.49	-58.1	-71.1	3.6	8.45e-01	0	45	104	0	60	140726
2026-01-30 15:49:22.21	240.79	2.53	-58.1	-71.1	3.6	8.46e-01	0	45	104	0	60	140226
2026-01-30 15:49:23.22	240.90	2.58	-58.1	-71.1	3.6	8.45e-01	0	45	104	0	60	141045
2026-01-30 15:49:24.22	241.00	2.62	-58.1	-71.1	3.6	8.46e-01	0	45	104	0	60	140216
2026-01-30 15:49:25.23	241.10	2.67	-58.1	-71.0	3.6	8.44e-01	0	45	104	0	60	139604
2026-01-30 15:49:26.23	241.20	2.71	-58.1	-71.1	3.6	8.46e-01	0	45	104	0	60	139875
2026-01-30 15:49:27.24	241.31	2.76	-58.1	-71.1	3.6	8.45e-01	0	45	104	0	60	140726
2026-01-30 15:49:28.25	241.41	2.81	-58.1	-71.1	3.6	8.44e-01	0	45	104	0	60	140149
2026-01-30 15:49:29.26	241.51	2.85	-58.1	-71.1	3.6	8.45e-01	0	45	104	0	60	140611
2026-01-30 15:49:30.26	241.62	2.90	-58.1	-71.1	3.6	8.45e-01	0	45	104	0	60	140001
2026-01-30 15:49:31.27	241.72	2.94	-58.1	-71.0	3.6	8.45e-01	0	45	104	0	60	139551
2026-01-30 15:49:32.27	241.83	2.99	-58.1	-71.0	3.6	8.45e-01	0	45	104	0	60	139729
2026-01-30 15:49:33.28	241.93	3.03	-58.1	-71.1	3.6	8.45e-01	0	45	104	0	60	140598
2026-01-30 15:49:34.28	242.04	3.08	-58.1	-71.1	3.6	8.45e-01	0	45	104	0	60	140505
2026-01-30 15:49:35.29	242.14	3.12	-58.1	-71.0	3.6	8.46e-01	0	45	104	0	60	139345
2026-01-30 15:49:36.30	242.25	3.17	-58.1	-71.0	3.6	8.46e-01	0	45	104	0	60	139516
2026-01-30 15:49:37.31	242.36	3.21	-58.1	-71.0	3.6	8.45e-01	0	45	104	0	60	139125
2026-01-30 15:49:38.32	242.46	3.26	-58.1	-71.0	3.6	8.46e-01	0	45	104	0	60	139787
2026-01-30 15:49:39.32	242.57	3.30	-58.0	-71.0	3.6	8.45e-01	0	45	104	0	60	139456
2026-01-30 15:49:40.33	242.68	3.35	-58.0	-71.1	3.6	8.46e-01	0	45	104	0	60	140632
2026-01-30 15:49:41.34	242.78	3.40	-58.1	-71.1	3.6	8.45e-01	0	45	104	0	60	139999
2026-01-30 15:49:42.34	242.89	3.44	-58.0	-71.0	3.6	8.45e-01	0	45	104	0	60	139215
2026-01-30 15:49:43.34	243.00	3.49	-58.0	-71.0	3.6	8.45e-01	0	45	104	0	60	139446
2026-01-30 15:49:44.35	243.11	3.53	-58.0	-71.1	3.6	8.45e-01	0	45	104	0	60	139835
2026-01-30 15:49:45.36	243.22	3.58	-58.0	-71.1	3.6	8.46e-01	0	45	104	0	60	140010
2026-01-30 15:49:46.37	243.33	3.62	-58.0	-71.0	3.6	8.44e-01	0	45	104	0	60	139261
2026-01-30 15:49:47.38	243.44	3.67	-58.0	-71.0	3.6	8.46e-01	0	45	104	0	60	138261
2026-01-30 15:49:48.38	243.54	3.71	-58.0	-70.9	3.6	8.47e-01	0	45	104	0	60	138197
2026-01-30 15:49:49.39	243.65	3.76	-58.0	-71.0	3.6	8.45e-01	0	45	104	0	60	138571
2026-01-30 15:49:50.40	243.77	3.80	-58.0	-70.9	3.6	8.46e-01	0	45	104	0	60	138214
2026-01-30 15:49:51.41	243.88	3.85	-58.0	-70.9	3.6	8.45e-01	0	45	104	0	60	137932
2026-01-30 15:49:52.42	243.99	3.90	-58.0	-70.8	3.6	8.46e-01	0	45	104	0	60	136190
2026-01-30 15:49:53.43	244.10	3.94	-58.0	-70.8	3.6	8.45e-01	0	45	104	0	60	136510
2026-01-30 15:49:54.43	244.21	3.99	-58.0	-70.7	3.6	8.46e-01	0	45	104	0	60	133616
2026-01-30 15:49:55.44	244.32	4.03	-58.0	-70.8	3.6	8.45e-01	0	45	104	0	60	135166
2026-01-30 15:49:56.45	244.44	4.08	-58.0	-70.6	3.6	8.45e-01	0	45	104	0	60	132863
2026-01-30 15:49:57.45	244.55	4.12	-58.0	-71.0	3.6	8.46e-01	0	45	104	0	60	139289
2026-01-30 15:49:58.45	244.66	4.17	-58.0	-70.8	3.6	8.45e-01	0	45	104	0	60	135268
2026-01-30 15:49:59.46	244.77	4.21	-58.0	-70.9	3.6	8.45e-01	0	45	104	0	60	136771
2026-01-30 15:50:00.47	244.89	4.26	-58.0	-70.9	3.6	8.45e-01	0	45	104	0	60	138007
2026-01-30 15:50:01.47	245.00	4.30	-58.0	-70.9	3.6	8.45e-01	0	45	104	0	60	136844
2026-01-30 15:50:02.48	245.12	4.35	-58.0	-70.8	3.6	8.45e-01	0	45	104	0	60	136129
2026-01-30 15:50:03.49	245.23	4.39	-58.0	-71.0	3.6	8.45e-01	0	45	104	0	60	139117
2026-01-30 15:50:04.50	245.35	4.44	-58.0	-70.9	3.6	8.44e-01	0	45	104	0	60	137652
2026-01-30 15:50:05.50	245.46	4.48	-58.0	-70.9	3.6	8.46e-01	0	45	104	0	60	137785
2026-01-30 15:50:06.50	245.58	4.53	-58.0	-70.9	3.6	8.45e-01	0	45	104	0	60	137386
2026-01-30 15:50:07.51	245.69	4.57	-58.0	-70.9	3.6	8.45e-01	0	45	104	0	60	138064
2026-01-30 15:50:08.52	245.81	4.62	-58.0	-71.0	3.6	8.46e-01	0	45	104	0	60	138770
2026-01-30 15:50:09.52	245.93	4.66	-58.0	-71.0	3.6	8.47e-01	0	45	104	0	60	139045
2026-01-30 15:50:10.53	246.04	4.71	-58.0	-71.0	3.6	8.45e-01	0	46	104	0	60	139286
2026-01-30 15:50:11.54	246.16	4.75	-58.0	-71.0	3.6	8.45e-01	0	45	104	0	60	139584
2026-01-30 15:50:12.55	246.28	4.80	-58.0	-71.1	3.6	8.45e-01	0	45	104	0	60	139925
2026-01-30 15:50:13.55	246.40	4.84	-58.0	-71.0	3.6	8.46e-01	0	45	104	0	60	139153
2026-01-30 15:50:14.56	246.51	4.89	-58.0	-71.0	3.5	8.46e-01	0	45	104	0	60	138800
2026-01-30 15:50:15.56	246.63	4.93	-58.0	-70.9	3.6	8.44e-01	0	45	104	0	60	138021
2026-01-30 15:50:16.57	246.75	4.98	-58.0	-70.9	3.6	8.45e-01	0	45	104	0	60	137742
2026-01-30 15:50:17.58	246.87	5.02	-58.0	-70.8	3.6	8.45e-01	0	45	104	0	60	136353
2026-01-30 15:50:18.58	246.99	5.07	-58.0	-70.8	3.5	8.45e-01	0	45	104	0	60	136170
2026-01-30 15:50:19.58	247.11	5.11	-58.0	-70.9	3.6	8.45e-01	0	46	104	0	60	136921
2026-01-30 15:50:20.59	247.23	5.16	-58.0	-71.0	3.6	8.45e-01	0	45	104	0	60	138559
2026-01-30 15:50:21.59	247.35	5.20	-58.0	-71.0	3.6	8.44e-01	0	46	104	0	60	138257
2026-01-30 15:50:22.59	247.47	5.25	-58.0	-70.9	3.6	8.46e-01	0	45	104	0	60	137504
2026-01-30 15:50:23.60	247.59	5.29	-58.0	-71.0	3.6	8.45e-01	0	45	104	0	60	138789
2026-01-30 15:50:24.60	247.72	5.34	-58.0	-70.9	3.6	8.45e-01	0	46	104	0	60	137898
2026-01-30 15:50:25.61	247.84	5.38	-58.0	-71.0	3.6	8.46e-01	0	46	104	0	60	138599
2026-01-30 15:50:26.61	247.96	5.42	-58.0	-70.8	3.6	8.45e-01	0	45	104	0	60	136043
2026-01-30 15:50:27.62	248.08	5.47	-57.9	-70.0	3.6	8.45e-01	0	45	104	0	60	124238
2026-01-30 15:50:28.62	248.21	5.51	-57.8	-68.9	3.6	8.45e-01	0	45	104	0	60	109782
2026-01-30 15:50:29.63	248.33	5.56	-57.7	-67.8	3.9	8.41e-01	0	45	104	0	60	96604
2026-01-30 15:50:30.64	248.46	5.60	-57.7	-66.0	3.8	8.35e-01	0	45	0	0	60	78424
2026-01-30 15:50:31.64	248.58	5.65	-57.6	-65.9	3.9	8.31e-01	0	45	0	0	60	76864
2026-01-30 15:50:32.65	248.70	5.69	-57.5	-65.0	4.3	8.18e-01	0	46	0	0	60	69373
2026-01-30 15:50:33.66	248.83	5.74	-57.1	-62.9	6.1	4.36e-01	0	46	0	1048576	60	54609
2026-01-30 15:50:34.67	248.96	5.78	-56.3	-60.7	8.6	7.00e-02	0	46	0	8388608	60	42332
2026-01-30 15:50:35.68	249.08	5.82	-55.2	-58.3	11.4	2.23e-03	0	45	0	15728640	60	32172
2026-01-30 15:50:36.68	249.21	5.87	-54.3	-56.8	13.1	8.81e-05	0	45	0	23068672	60	27037
2026-01-30 15:50:37.69	249.34	5.91	-53.7	-55.8	14.1	4.50e-06	0	45	0	30408704	60	24143
2026-01-30 15:50:38.70	249.46	5.96	-53.5	-55.5	14.4	0.00e+00	0	45	0	37748736	60	23368
2026-01-30 15:50:39.71	249.59	6.00	-53.6	-55.6	14.2	0.00e+00	0	46	0	45088768	60	23721
2026-01-30 15:50:40.71	249.72	6.05	-52.6	-54.3	15.8	1.10e-06	0	46	0	52428800	60	20350
2026-01-30 15:50:41.72	249.85	6.09	-53.1	-55.0	14.8	0.00e+00	0	45	0	59768832	60	21918
2026-01-30 15:50:42.73	249.98	6.13	-53.6	-55.8	13.4	0.00e+00	0	46	0	67108864	60	24176
2026-01-30 15:50:43.74	250.11	6.18	-57.3	-64.3	4.5	7.78e-02	0	45	0	73400320	60	64629
2026-01-30 15:50:44.74	250.23	6.22	-52.0	-53.6	16.9	7.33e-02	0	45	104	73400320	60	18758
2026-01-30 15:50:45.75	250.36	6.27	-49.9	-50.9	19.4	0.00e+00	0	45	0	5242880	60	13740
2026-01-30 15:50:46.75	250.49	6.31	-49.8	-50.8	19.4	0.00e+00	0	45	0	11534336	60	13642
2026-01-30 15:50:47.76	250.62	6.35	-49.9	-50.9	19.3	0.00e+00	0	46	0	18874368	60	13764
2026-01-30 15:50:48.77	250.76	6.40	-49.8	-50.8	19.5	0.00e+00	0	45	0	26214400	60	13541
2026-01-30 15:50:49.77	250.89	6.44	-49.9	-50.9	19.3	0.00e+00	0	46	0	34603008	60	13745
2026-01-30 15:50:50.78	251.02	6.48	-49.8	-50.8	19.5	0.00e+00	0	45	0	41943040	60	13519
2026-01-30 15:50:51.79	251.15	6.53	-49.8	-50.8	19.5	0.00e+00	0	45	0	49283072	60	13587
2026-01-30 15:50:52.80	251.28	6.57	-49.7	-50.7	19.5	0.00e+00	0	46	0	55574528	60	13483
2026-01-30 15:50:53.81	251.42	6.61	-49.7	-50.7	19.6	0.00e+00	0	45	0	62914560	60	13450
2026-01-30 15:50:54.81	251.55	6.66	-49.7	-50.7	19.6	0.00e+00	0	45	0	70254592	60	13500
2026-01-30 15:50:55.82	251.68	6.70	-49.7	-50.7	19.5	0.00e+00	0	45	0	77594624	60	13448
2026-01-30 15:50:56.83	251.82	6.74	-49.8	-50.8	19.6	0.00e+00	0	45	0	84934656	60	13518
2026-01-30 15:50:57.83	251.95	6.79	-49.8	-50.8	19.5	0.00e+00	0	46	0	92274688	60	13586
2026-01-30 15:50:58.84	252.09	6.83	-49.8	-50.8	19.6	0.00e+00	0	45	0	99614720	60	13603
2026-01-30 15:50:59.84	252.22	6.87	-49.7	-50.7	19.7	0.00e+00	0	46	0	106954752	60	13378
2026-01-30 15:51:00.85	252.36	6.92	-49.7	-50.7	19.7	0.00e+00	0	45	0	113246208	60	13383
2026-01-30 15:51:01.86	252.49	6.96	-49.7	-50.7	19.7	0.00e+00	0	45	0	120586240	60	13474
2026-01-30 15:51:02.87	252.63	7.00	-49.7	-50.7	19.7	0.00e+00	0	45	0	127926272	60	13447
2026-01-30 15:51:03.87	252.76	7.05	-49.8	-50.8	19.6	0.00e+00	0	45	0	136314880	60	13624
2026-01-30 15:51:04.88	252.90	7.09	-49.8	-50.8	19.5	0.00e+00	0	46	0	143654912	60	13627
2026-01-30 15:51:05.89	253.04	7.13	-49.7	-50.7	19.7	0.00e+00	0	45	0	150994944	60	13358
2026-01-30 15:51:06.90	253.18	7.17	-49.6	-50.6	19.7	0.00e+00	0	46	0	157286400	60	13292
2026-01-30 15:51:07.90	253.31	7.22	-49.7	-50.7	19.7	0.00e+00	0	45	0	164626432	60	13401
2026-01-30 15:51:08.91	253.45	7.26	-49.7	-50.7	19.7	0.00e+00	0	45	0	171966464	60	13453
2026-01-30 15:51:09.92	253.59	7.30	-49.7	-50.7	19.7	0.00e+00	0	45	0	179306496	60	13367
2026-01-30 15:51:10.93	253.73	7.34	-49.6	-50.5	19.8	0.00e+00	0	45	0	186646528	60	13184
2026-01-30 15:51:11.94	253.87	7.39	-49.6	-50.6	19.8	0.00e+00	0	45	0	193986560	60	13256
2026-01-30 15:51:12.95	254.01	7.43	-49.7	-50.6	19.8	0.00e+00	0	45	0	201326592	60	13346
2026-01-30 15:51:13.96	254.15	7.47	-49.6	-50.6	19.9	0.00e+00	0	45	0	208666624	60	13285
2026-01-30 15:51:14.96	254.29	7.51	-49.6	-50.6	19.8	0.00e+00	0	45	0	216006656	60	13217
2026-01-30 15:51:15.97	254.44	7.56	-49.5	-50.4	20.0	0.00e+00	0	45	0	223346688	60	13020
2026-01-30 15:51:16.98	254.58	7.60	-49.5	-50.4	19.9	0.00e+00	0	46	0	230686720	60	13047
2026-01-30 15:51:17.99	254.72	7.64	-49.5	-50.5	20.0	0.00e+00	0	45	0	238026752	60	13133
2026-01-30 15:51:19.00	254.86	7.68	-49.6	-50.6	19.9	0.00e+00	0	46	0	245366784	60	13234
2026-01-30 15:51:20.00	255.01	7.72	-49.4	-50.4	20.1	0.00e+00	0	46	0	252706816	60	12924
2026-01-30 15:51:21.01	255.15	7.76	-49.5	-50.4	20.0	0.00e+00	0	46	0	260046848	60	13005
2026-01-30 15:51:22.02	255.29	7.81	-49.6	-50.5	20.0	0.00e+00	0	46	0	266338304	60	13129
2026-01-30 15:51:23.03	255.44	7.85	-49.5	-50.5	20.0	0.00e+00	0	46	0	273678336	60	13119
2026-01-30 15:51:24.03	255.58	7.89	-49.5	-50.5	20.0	0.00e+00	0	46	0	281018368	60	13074
2026-01-30 15:51:25.04	255.73	7.93	-49.4	-50.4	20.1	0.00e+00	0	46	0	288358400	60	12942
2026-01-30 15:51:26.05	255.87	7.97	-49.5	-50.5	20.1	0.00e+00	0	46	0	295698432	60	13110
2026-01-30 15:51:27.05	256.02	8.01	-49.5	-50.4	20.1	0.00e+00	0	46	0	303038464	60	13033
2026-01-30 15:51:28.05	256.16	8.05	-49.3	-50.2	20.2	0.00e+00	0	45	0	310378496	60	12672
2026-01-30 15:51:29.06	256.31	8.09	-49.5	-50.5	20.1	0.00e+00	0	45	0	317718528	60	13069
2026-01-30 15:51:30.07	256.46	8.13	-49.3	-50.2	20.3	0.00e+00	0	45	0	324009984	60	12728
2026-01-30 15:51:31.08	256.60	8.18	-49.2	-50.1	20.5	0.00e+00	0	46	0	332398592	60	12517
2026-01-30 15:51:32.08	256.75	8.22	-49.1	-50.0	20.5	0.00e+00	0	46	0	339738624	60	12358
2026-01-30 15:51:33.09	256.90	8.26	-49.1	-50.0	20.5	0.00e+00	0	45	0	347078656	60	12340
2026-01-30 15:51:34.10	257.05	8.30	-49.1	-49.9	20.4	0.00e+00	0	45	0	354418688	60	12305
2026-01-30 15:51:35.11	257.20	8.34	-49.1	-50.0	20.5	0.00e+00	0	45	0	361758720	60	12390
2026-01-30 15:51:36.11	257.35	8.38	-49.1	-50.0	20.4	0.00e+00	0	46	0	368050176	60	12405
2026-01-30 15:51:37.12	257.50	8.42	-49.0	-49.9	20.5	0.00e+00	0	46	0	375390208	60	12267
2026-01-30 15:51:38.13	257.65	8.46	-49.1	-50.0	20.4	0.00e+00	0	46	0	382730240	60	12377
2026-01-30 15:51:39.14	257.80	8.50	-49.1	-50.0	20.4	0.00e+00	0	46	0	390070272	60	12413
2026-01-30 15:51:40.15	257.95	8.54	-49.1	-49.9	20.5	0.00e+00	0	46	0	397410304	60	12291
2026-01-30 15:51:41.15	258.10	8.58	-49.0	-49.9	20.6	0.00e+00	0	46	0	404750336	60	12254
2026-01-30 15:51:42.16	258.25	8.62	-49.1	-50.0	20.5	0.00e+00	0	46	0	412090368	60	12394
2026-01-30 15:51:43.16	258.40	8.66	-49.2	-50.1	20.4	0.00e+00	0	46	0	419430400	60	12464
2026-01-30 15:51:44.17	258.55	8.70	-49.0	-49.9	20.6	0.00e+00	0	46	0	426770432	60	12220
2026-01-30 15:51:45.18	258.71	8.73	-48.9	-49.8	20.7	0.00e+00	0	46	0	434110464	60	12112
2026-01-30 15:51:46.18	258.86	8.77	-49.0	-49.8	20.6	0.00e+00	0	46	0	441450496	60	12152
2026-01-30 15:51:47.19	259.01	8.81	-49.0	-49.9	20.5	0.00e+00	0	46	0	448790528	60	12236
2026-01-30 15:51:48.20	259.17	8.85	-49.0	-49.9	20.5	0.00e+00	0	46	0	456130560	60	12183
2026-01-30 15:51:49.21	259.32	8.89	-48.9	-49.7	20.7	0.00e+00	0	45	0	463470592	60	12017
2026-01-30 15:51:50.21	259.48	8.93	-49.0	-49.9	20.6	0.00e+00	0	46	0	470810624	60	12180
2026-01-30 15:51:51.22	259.63	8.97	-49.0	-49.9	20.6	0.00e+00	0	46	0	477102080	60	12270
2026-01-30 15:51:52.23	259.79	9.01	-49.0	-49.9	20.6	0.00e+00	0	46	0	484442112	60	12202
2026-01-30 15:51:53.24	259.94	9.04	-49.0	-49.8	20.6	0.00e+00	0	46	0	491782144	60	12163
2026-01-30 15:51:54.24	260.10	9.08	-49.0	-49.9	20.7	0.00e+00	0	46	0	499122176	60	12246
2026-01-30 15:51:55.25	260.26	9.12	-49.0	-49.9	20.7	0.00e+00	0	46	0	506462208	60	12188
2026-01-30 15:51:56.26	260.41	9.16	-48.9	-49.8	20.7	0.00e+00	0	46	0	513802240	60	12041
2026-01-30 15:51:57.26	260.57	9.20	-49.1	-50.0	20.7	0.00e+00	0	46	0	521142272	60	12349
2026-01-30 15:51:58.27	260.73	9.23	-49.0	-49.9	20.6	0.00e+00	0	46	0	528482304	60	12182
2026-01-30 15:51:59.27	260.89	9.27	-49.0	-49.9	20.5	0.00e+00	0	46	0	535822336	60	12201
2026-01-30 15:52:00.28	261.05	9.31	-49.1	-50.0	20.6	0.00e+00	0	46	0	543162368	60	12319
2026-01-30 15:52:01.29	261.20	9.35	-49.2	-50.1	20.5	0.00e+00	0	46	0	550502400	60	12560
2026-01-30 15:52:02.30	261.36	9.38	-49.2	-50.1	20.3	0.00e+00	0	46	0	557842432	60	12596
2026-01-30 15:52:03.30	261.52	9.42	-49.3	-50.2	20.4	0.00e+00	0	46	0	565182464	60	12732
2026-01-30 15:52:04.31	261.68	9.46	-49.3	-50.3	20.3	0.00e+00	0	46	0	572522496	60	12772
2026-01-30 15:52:05.32	261.85	9.49	-49.2	-50.1	20.6	0.00e+00	0	46	0	579862528	60	12469
2026-01-30 15:52:06.33	262.01	9.53	-48.8	-49.6	20.9	0.00e+00	0	46	0	586153984	60	11854
2026-01-30 15:52:07.34	262.17	9.57	-48.7	-49.6	21.0	0.00e+00	0	46	0	593494016	60	11800
2026-01-30 15:52:08.35	262.33	9.60	-48.6	-49.4	21.2	0.00e+00	0	46	0	600834048	60	11626
2026-01-30 15:52:09.35	262.49	9.64	-48.7	-49.5	21.0	0.00e+00	0	46	0	608174080	60	11744
2026-01-30 15:52:10.36	262.66	9.68	-48.7	-49.6	21.1	0.00e+00	0	46	0	615514112	60	11781
2026-01-30 15:52:11.37	262.82	9.71	-48.7	-49.5	21.1	0.00e+00	0	46	0	622854144	60	11708
2026-01-30 15:52:12.37	262.98	9.75	-48.7	-49.5	21.2	0.00e+00	0	46	0	630194176	60	11681
2026-01-30 15:52:13.38	263.15	9.78	-48.7	-49.6	21.0	0.00e+00	0	46	0	637534208	60	11794
2026-01-30 15:52:14.39	263.31	9.82	-48.6	-49.5	21.2	0.00e+00	0	46	0	644874240	60	11665
2026-01-30 15:52:15.40	263.47	9.85	-48.6	-49.4	21.3	0.00e+00	0	46	0	652214272	60	11530
2026-01-30 15:52:16.41	263.64	9.89	-48.5	-49.3	21.3	0.00e+00	0	46	0	659554304	60	11490
2026-01-30 15:52:17.41	263.80	9.92	-48.5	-49.3	21.4	0.00e+00	0	46	0	666894336	60	11464
2026-01-30 15:52:18.42	263.97	9.96	-48.5	-49.3	21.3	0.00e+00	0	46	0	674234368	60	11471
2026-01-30 15:52:19.43	264.14	9.99	-48.6	-49.4	21.3	0.00e+00	0	46	0	681574400	60	11514
2026-01-30 15:52:20.43	264.30	10.03	-48.6	-49.4	21.2	0.00e+00	0	46	0	687865856	60	11596
2026-01-30 15:52:21.44	264.47	10.06	-48.8	-49.6	21.1	0.00e+00	0	46	0	695205888	60	11814
2026-01-30 15:52:22.45	264.64	10.10	-48.8	-49.6	21.1	0.00e+00	0	46	0	702545920	60	11838
2026-01-30 15:52:23.45	264.80	10.13	-48.7	-49.6	21.2	0.00e+00	0	46	0	709885952	60	11811
2026-01-30 15:52:24.46	264.97	10.16	-48.7	-49.5	21.2	0.00e+00	0	46	0	717225984	60	11708
2026-01-30 15:52:25.47	265.14	10.20	-48.7	-49.6	21.2	0.00e+00	0	46	0	724566016	60	11765
2026-01-30 15:52:26.47	265.31	10.23	-48.7	-49.5	21.2	0.00e+00	0	46	0	731906048	60	11760
2026-01-30 15:52:27.47	265.48	10.26	-48.7	-49.6	21.3	0.00e+00	0	46	0	739246080	60	11766
2026-01-30 15:52:28.48	265.65	10.30	-48.7	-49.5	21.3	0.00e+00	0	46	0	746586112	60	11726
2026-01-30 15:52:29.49	265.82	10.33	-48.5	-49.3	21.4	0.00e+00	0	46	0	753926144	60	11458
2026-01-30 15:52:30.49	265.99	10.36	-48.5	-49.3	21.4	0.00e+00	0	45	0	761266176	60	11383
2026-01-30 15:52:31.50	266.16	10.39	-48.5	-49.3	21.4	0.00e+00	0	46	0	768606208	60	11487
2026-01-30 15:52:32.51	266.33	10.43	-48.6	-49.4	21.2	0.00e+00	0	46	0	775946240	60	11585
2026-01-30 15:52:33.52	266.50	10.46	-48.6	-49.5	21.3	0.00e+00	0	46	0	783286272	60	11641
2026-01-30 15:52:34.52	266.67	10.49	-48.8	-49.6	21.2	0.00e+00	0	45	0	790626304	60	11876
2026-01-30 15:52:35.53	266.84	10.52	-48.7	-49.5	21.3	0.00e+00	0	46	0	796917760	60	11664
2026-01-30 15:52:36.54	267.02	10.55	-48.7	-49.5	21.2	0.00e+00	0	46	0	804257792	60	11709
2026-01-30 15:52:37.54	267.19	10.59	-48.6	-49.4	21.2	0.00e+00	0	46	0	811597824	60	11575
2026-01-30 15:52:38.56	267.36	10.62	-48.5	-49.3	21.4	0.00e+00	0	46	0	818937856	60	11391
2026-01-30 15:52:39.56	267.53	10.65	-48.5	-49.3	21.4	0.00e+00	0	45	0	826277888	60	11412
2026-01-30 15:52:40.57	267.71	10.68	-48.5	-49.3	21.4	0.00e+00	0	46	0	833617920	60	11428
2026-01-30 15:52:41.58	267.88	10.71	-48.4	-49.2	21.6	0.00e+00	0	46	0	840957952	60	11284
2026-01-30 15:52:42.59	268.06	10.74	-48.3	-49.1	21.7	0.00e+00	0	46	0	848297984	60	11118
2026-01-30 15:52:43.59	268.23	10.77	-48.4	-49.2	21.6	0.00e+00	0	46	0	855638016	60	11341
2026-01-30 15:52:44.60	268.41	10.80	-48.3	-49.0	21.7	0.00e+00	0	45	0	862978048	60	11091
2026-01-30 15:52:45.61	268.58	10.83	-48.3	-49.1	21.7	0.00e+00	0	46	0	870318080	60	11167
2026-01-30 15:52:46.62	268.76	10.86	-48.3	-49.0	21.8	0.00e+00	0	46	0	877658112	60	11071
2026-01-30 15:52:47.62	268.93	10.89	-48.3	-49.0	21.8	0.00e+00	0	46	0	884998144	60	11063
2026-01-30 15:52:48.63	269.11	10.92	-48.3	-49.1	21.8	0.00e+00	0	45	0	892338176	60	11143
2026-01-30 15:52:49.64	269.29	10.95	-48.3	-49.1	21.7	0.00e+00	0	45	0	898629632	60	11180
2026-01-30 15:52:50.65	269.47	10.98	-48.5	-49.3	21.6	0.00e+00	0	46	0	905969664	60	11455
2026-01-30 15:52:51.65	269.64	11.01	-48.5	-49.3	21.6	0.00e+00	0	45	0	913309696	60	11420
2026-01-30 15:52:52.66	269.82	11.03	-48.5	-49.3	21.6	0.00e+00	0	45	0	920649728	60	11418
2026-01-30 15:52:53.67	270.00	11.06	-48.5	-49.3	21.5	0.00e+00	0	46	0	927989760	60	11466
2026-01-30 15:52:54.68	270.18	11.09	-48.6	-49.4	21.4	0.00e+00	0	46	0	936378368	60	11558
2026-01-30 15:52:55.68	270.36	11.12	-48.5	-49.3	21.5	0.00e+00	0	45	0	942669824	60	11489
2026-01-30 15:52:56.68	270.53	11.15	-48.3	-49.1	21.6	0.00e+00	0	46	0	950009856	60	11184
2026-01-30 15:52:57.69	270.71	11.17	-48.3	-49.0	21.7	0.00e+00	0	46	0	957349888	60	11079
2026-01-30 15:52:58.70	270.89	11.20	-48.3	-49.1	21.7	0.00e+00	0	46	0	964689920	60	11173
2026-01-30 15:52:59.70	271.07	11.23	-48.3	-49.1	21.7	0.00e+00	0	46	0	972029952	60	11152
2026-01-30 15:53:00.71	271.25	11.25	-48.4	-49.1	21.6	0.00e+00	0	46	0	979369984	60	11209
2026-01-30 15:53:01.72	271.44	11.28	-48.3	-49.1	21.7	0.00e+00	0	46	0	986710016	60	11208
2026-01-30 15:53:02.72	271.62	11.31	-48.4	-49.3	21.5	0.00e+00	0	46	0	994050048	60	11372
2026-01-30 15:53:03.73	271.80	11.33	-48.4	-49.2	21.5	0.00e+00	0	46	0	1001390080	60	11266
2026-01-30 15:53:04.73	271.98	11.36	-48.5	-49.3	21.4	0.00e+00	0	46	0	1007681536	60	11413
2026-01-30 15:53:05.74	272.16	11.38	-48.4	-49.3	21.5	0.00e+00	0	46	0	1015021568	60	11395
2026-01-30 15:53:06.75	272.34	11.41	-48.4	-49.2	21.5	0.00e+00	0	46	0	1022361600	60	11361
2026-01-30 15:53:07.75	272.52	11.43	-48.4	-49.2	21.5	0.00e+00	0	46	0	1029701632	60	11273
2026-01-30 15:53:08.76	272.71	11.46	-48.3	-49.1	21.6	0.00e+00	0	46	0	1037041664	60	11220
2026-01-30 15:53:09.77	272.89	11.48	-48.4	-49.2	21.6	0.00e+00	0	46	0	1044381696	60	11258
2026-01-30 15:53:10.78	273.08	11.51	-48.4	-49.2	21.5	0.00e+00	0	46	0	1051721728	60	11350
2026-01-30 15:53:11.78	273.26	11.53	-48.2	-49.1	21.6	0.00e+00	0	46	0	1059061760	60	11107
2026-01-30 15:53:12.79	273.44	11.56	-48.2	-49.0	21.7	0.00e+00	0	46	0	1066401792	60	11001
2026-01-30 15:53:13.80	273.63	11.58	-48.4	-49.2	21.5	0.00e+00	0	46	0	1073741824	60	11271
2026-01-30 15:53:14.81	273.81	11.60	-48.4	-49.3	21.5	0.00e+00	0	46	0	1081081856	60	11389
2026-01-30 15:53:15.82	274.00	11.63	-48.3	-49.1	21.6	0.00e+00	0	46	0	1088421888	60	11177
2026-01-30 15:53:16.82	274.18	11.65	-48.4	-49.2	21.5	0.00e+00	0	46	0	1095761920	60	11337
2026-01-30 15:53:17.83	274.37	11.67	-48.3	-49.1	21.7	0.00e+00	0	46	0	1103101952	60	11120
2026-01-30 15:53:18.83	274.55	11.70	-48.2	-49.1	21.6	0.00e+00	0	46	0	1110441984	60	11124
2026-01-30 15:53:19.84	274.74	11.72	-48.3	-49.2	21.6	0.00e+00	0	46	0	1116733440	60	11280
2026-01-30 15:53:20.85	274.93	11.74	-48.2	-49.0	21.7	0.00e+00	0	46	0	1124073472	60	11078
2026-01-30 15:53:21.86	275.11	11.76	-48.1	-48.9	21.8	0.00e+00	0	46	0	1131413504	60	10973
2026-01-30 15:53:22.87	275.30	11.78	-48.1	-48.9	21.8	0.00e+00	0	46	0	1138753536	60	10896
2026-01-30 15:53:23.87	275.49	11.80	-48.2	-49.0	21.9	0.00e+00	0	46	0	1146093568	60	11026
2026-01-30 15:53:24.88	275.68	11.82	-48.1	-48.9	22.0	0.00e+00	0	46	0	1153433600	60	10858
2026-01-30 15:53:25.89	275.86	11.85	-48.1	-48.9	21.8	0.00e+00	0	46	0	1160773632	60	10927
2026-01-30 15:53:26.90	276.05	11.87	-48.0	-48.7	22.0	0.00e+00	0	46	0	1168113664	60	10708
2026-01-30 15:53:27.90	276.24	11.89	-48.0	-48.7	22.0	0.00e+00	0	46	0	1175453696	60	10695
2026-01-30 15:53:28.90	276.43	11.91	-48.1	-48.8	22.0	0.00e+00	0	46	0	1182793728	60	10814
2026-01-30 15:53:29.91	276.61	11.93	-48.0	-48.8	22.0	0.00e+00	0	46	0	1190133760	60	10767
2026-01-30 15:53:30.92	276.80	11.95	-48.0	-48.8	22.0	0.00e+00	0	46	0	1197473792	60	10738
2026-01-30 15:53:31.92	276.99	11.96	-48.1	-48.9	22.0	0.00e+00	0	46	0	1204813824	60	10895
2026-01-30 15:53:32.93	277.18	11.98	-48.0	-48.8	22.0	0.00e+00	0	46	0	1212153856	60	10776
2026-01-30 15:53:33.94	277.37	12.00	-48.1	-48.9	21.9	0.00e+00	0	46	0	1218445312	60	10861
2026-01-30 15:53:34.95	277.56	12.02	-48.1	-48.8	21.9	0.00e+00	0	46	0	1225785344	60	10827
2026-01-30 15:53:35.95	277.75	12.04	-48.0	-48.8	22.0	0.00e+00	0	46	0	1233125376	60	10774
2026-01-30 15:53:36.95	277.94	12.06	-48.1	-48.8	22.0	0.00e+00	0	46	0	1240465408	60	10853
2026-01-30 15:53:37.95	278.13	12.07	-47.9	-48.7	22.1	0.00e+00	0	46	0	1247805440	60	10632
2026-01-30 15:53:38.96	278.32	12.09	-47.8	-48.5	22.3	0.00e+00	0	46	0	1255145472	60	10431
2026-01-30 15:53:39.96	278.51	12.11	-47.8	-48.5	22.3	0.00e+00	0	46	0	1262485504	60	10473
2026-01-30 15:53:40.96	278.70	12.12	-47.7	-48.4	22.3	0.00e+00	0	46	0	1269825536	60	10360
2026-01-30 15:53:41.96	278.89	12.14	-47.8	-48.5	22.3	0.00e+00	0	46	0	1277165568	60	10421
2026-01-30 15:53:42.97	279.08	12.16	-47.8	-48.5	22.3	0.00e+00	0	46	0	1283457024	60	10466
2026-01-30 15:53:43.97	279.27	12.17	-47.9	-48.6	22.2	0.00e+00	0	46	0	1291845632	60	10548
2026-01-30 15:53:44.98	279.46	12.19	-47.9	-48.7	22.2	0.00e+00	0	46	0	1299185664	60	10624
2026-01-30 15:53:45.98	279.66	12.20	-48.0	-48.8	22.2	0.00e+00	0	46	0	1306525696	60	10794
2026-01-30 15:53:46.98	279.85	12.22	-48.1	-48.8	22.0	0.00e+00	0	46	0	1313865728	60	10809
2026-01-30 15:53:47.99	280.04	12.23	-48.0	-48.8	22.1	0.00e+00	0	46	0	1321205760	60	10742
2026-01-30 15:53:48.99	280.23	12.25	-48.1	-48.9	22.0	0.00e+00	0	46	0	1327497216	60	10902
2026-01-30 15:53:50.00	280.42	12.26	-48.1	-48.9	22.0	0.00e+00	0	46	0	1334837248	60	10915
2026-01-30 15:53:51.00	280.62	12.28	-48.2	-48.9	22.0	0.00e+00	0	46	0	1342177280	60	10973
2026-01-30 15:53:52.01	280.81	12.29	-48.2	-48.9	21.9	0.00e+00	0	46	0	1349517312	60	10967
2026-01-30 15:53:53.01	281.00	12.30	-48.2	-49.0	21.9	0.00e+00	0	46	0	1356857344	60	11077
2026-01-30 15:53:54.02	281.20	12.32	-48.1	-48.9	22.1	0.00e+00	0	46	0	1364197376	60	10908
2026-01-30 15:53:55.03	281.39	12.33	-48.1	-48.8	22.1	0.00e+00	0	46	0	1371537408	60	10810
2026-01-30 15:53:56.03	281.58	12.34	-48.1	-48.8	22.2	0.00e+00	0	46	0	1378877440	60	10803
2026-01-30 15:53:57.04	281.78	12.35	-48.0	-48.7	22.3	0.00e+00	0	46	0	1385168896	60	10721
2026-01-30 15:53:58.05	281.97	12.37	-48.1	-48.8	22.2	0.00e+00	0	46	0	1392508928	60	10809
2026-01-30 15:53:59.05	282.16	12.38	-48.2	-48.9	22.1	0.00e+00	0	45	0	1399848960	60	10941
2026-01-30 15:54:00.06	282.36	12.39	-48.2	-48.9	22.0	0.00e+00	0	46	0	1407188992	60	10943
2026-01-30 15:54:01.06	282.55	12.40	-48.2	-49.0	22.1	0.00e+00	0	46	0	1414529024	60	11002
2026-01-30 15:54:02.07	282.75	12.41	-48.2	-49.0	22.0	0.00e+00	0	46	0	1421869056	60	10998
2026-01-30 15:54:03.08	282.94	12.42	-48.2	-49.0	22.1	0.00e+00	0	46	0	1429209088	60	11028
2026-01-30 15:54:04.08	283.14	12.43	-48.3	-49.1	21.9	0.00e+00	0	46	0	1436549120	60	11204
2026-01-30 15:54:05.09	283.33	12.44	-48.3	-49.1	22.0	0.00e+00	0	46	0	1443889152	60	11129
2026-01-30 15:54:06.09	283.53	12.45	-48.3	-49.1	22.0	0.00e+00	0	46	0	1451229184	60	11157
2026-01-30 15:54:07.10	283.72	12.46	-48.2	-48.9	22.1	0.00e+00	0	46	0	1458569216	60	10959
2026-01-30 15:54:08.10	283.92	12.47	-48.3	-49.0	22.1	0.00e+00	0	46	0	1465909248	60	11075
2026-01-30 15:54:09.11	284.11	12.48	-48.1	-48.9	22.2	0.00e+00	0	46	0	1473249280	60	10914
2026-01-30 15:54:10.11	284.31	12.49	-48.1	-48.9	22.2	0.00e+00	0	46	0	1480589312	60	10884
2026-01-30 15:54:11.11	284.50	12.49	-48.1	-48.9	22.2	0.00e+00	0	46	0	1487929344	60	10855
2026-01-30 15:54:12.12	284.70	12.50	-48.1	-48.8	22.2	0.00e+00	0	46	0	1494220800	60	10801
2026-01-30 15:54:13.13	284.89	12.51	-48.1	-48.9	22.2	0.00e+00	0	46	0	1501560832	60	10900
2026-01-30 15:54:14.14	285.09	12.52	-48.2	-49.0	22.1	0.00e+00	0	46	0	1508900864	60	11017
2026-01-30 15:54:15.15	285.29	12.52	-48.3	-49.0	22.1	0.00e+00	0	46	0	1516240896	60	11102
2026-01-30 15:54:16.15	285.48	12.53	-48.4	-49.2	21.9	0.00e+00	0	46	0	1523580928	60	11315
2026-01-30 15:54:17.16	285.68	12.54	-48.4	-49.2	21.9	0.00e+00	0	46	0	1530920960	60	11339
2026-01-30 15:54:18.16	285.87	12.54	-48.5	-49.2	21.9	0.00e+00	0	46	0	1538260992	60	11340
2026-01-30 15:54:19.17	286.07	12.55	-48.5	-49.2	21.9	0.00e+00	0	46	0	1545601024	60	11339
2026-01-30 15:54:20.17	286.27	12.55	-48.5	-49.3	21.9	0.00e+00	0	46	0	1552941056	60	11444
2026-01-30 15:54:21.18	286.46	12.56	-48.4	-49.2	22.0	0.00e+00	0	46	0	1560281088	60	11293
2026-01-30 15:54:22.19	286.66	12.56	-48.4	-49.1	22.0	0.00e+00	0	46	0	1567621120	60	11210
2026-01-30 15:54:23.19	286.86	12.57	-48.3	-49.1	22.0	0.00e+00	0	46	0	1574961152	60	11131
2026-01-30 15:54:24.20	287.05	12.57	-48.3	-49.0	22.2	0.00e+00	0	46	0	1582301184	60	11087
2026-01-30 15:54:25.21	287.25	12.57	-48.2	-48.9	22.2	0.00e+00	0	46	0	1589641216	60	10956
2026-01-30 15:54:26.21	287.45	12.58	-48.3	-49.0	22.2	0.00e+00	0	46	0	1596981248	60	11084
2026-01-30 15:54:27.22	287.64	12.58	-48.3	-49.0	22.2	0.00e+00	0	46	0	1603272704	60	11082
2026-01-30 15:54:28.22	287.84	12.58	-48.3	-49.0	22.1	0.00e+00	0	46	0	1610612736	60	11094
2026-01-30 15:54:29.22	288.03	12.59	-48.5	-49.2	22.0	0.00e+00	0	46	0	1617952768	60	11361
2026-01-30 15:54:30.23	288.23	12.59	-48.4	-49.2	22.0	0.00e+00	0	45	0	1625292800	60	11303
2026-01-30 15:54:31.24	288.43	12.59	-48.5	-49.3	22.0	0.00e+00	0	46	0	1632632832	60	11397
2026-01-30 15:54:32.24	288.63	12.59	-48.4	-49.2	22.1	0.00e+00	0	46	0	1639972864	60	11266
2026-01-30 15:54:33.25	288.82	12.59	-48.4	-49.1	22.1	0.00e+00	0	46	0	1647312896	60	11169
2026-01-30 15:54:34.26	289.02	12.60	-48.3	-49.1	22.2	0.00e+00	0	46	0	1654652928	60	11175
2026-01-30 15:54:35.26	289.22	12.60	-48.4	-49.1	22.1	0.00e+00	0	46	0	1660944384	60	11214
2026-01-30 15:54:36.27	289.41	12.60	-48.4	-49.2	22.1	0.00e+00	0	46	0	1668284416	60	11294
2026-01-30 15:54:37.28	289.61	12.60	-48.4	-49.2	22.1	0.00e+00	0	46	0	1676673024	60	11246
2026-01-30 15:54:38.28	289.81	12.60	-48.3	-49.1	22.2	0.00e+00	0	46	0	1684013056	60	11149
2026-01-30 15:54:39.29	290.01	12.60	-48.4	-49.1	22.1	0.00e+00	0	46	0	1691353088	60	11229
2026-01-30 15:54:40.30	290.20	12.60	-48.3	-49.1	22.2	0.00e+00	0	46	0	1698693120	60	11117
2026-01-30 15:54:41.31	290.40	12.60	-48.3	-49.1	22.1	0.00e+00	0	46	0	1704984576	60	11188
2026-01-30 15:54:42.32	290.60	12.59	-48.3	-49.1	22.1	0.00e+00	0	46	0	1712324608	60	11166
2026-01-30 15:54:43.32	290.79	12.59	-48.4	-49.1	22.1	0.00e+00	0	46	0	1719664640	60	11232
2026-01-30 15:54:44.33	290.99	12.59	-48.4	-49.2	22.1	0.00e+00	0	46	0	1727004672	60	11259
2026-01-30 15:54:45.34	291.19	12.59	-48.4	-49.1	22.1	0.00e+00	0	46	0	1734344704	60	11234
2026-01-30 15:54:46.35	291.39	12.59	-48.3	-49.1	22.2	0.00e+00	0	46	0	1741684736	60	11155
2026-01-30 15:54:47.36	291.58	12.58	-48.4	-49.2	22.0	0.00e+00	0	46	0	1749024768	60	11260
2026-01-30 15:54:48.36	291.78	12.58	-48.4	-49.1	22.1	0.00e+00	0	46	0	1756364800	60	11233
2026-01-30 15:54:49.37	291.98	12.58	-48.4	-49.1	22.1	0.00e+00	0	46	0	1763704832	60	11171
2026-01-30 15:54:50.37	292.17	12.57	-48.4	-49.1	22.1	0.00e+00	0	46	0	1769996288	60	11183
2026-01-30 15:54:51.38	292.37	12.57	-48.4	-49.1	22.0	0.00e+00	0	46	0	1778384896	60	11186
2026-01-30 15:54:52.39	292.57	12.56	-48.4	-49.1	22.1	0.00e+00	0	46	0	1785724928	60	11185
2026-01-30 15:54:53.39	292.76	12.56	-48.5	-49.2	22.0	0.00e+00	0	45	0	1793064960	60	11341
2026-01-30 15:54:54.40	292.96	12.55	-48.5	-49.3	22.0	0.00e+00	0	45	0	1800404992	60	11397
2026-01-30 15:54:55.41	293.16	12.55	-48.4	-49.1	22.1	0.00e+00	0	45	0	1807745024	60	11196
2026-01-30 15:54:56.42	293.35	12.54	-48.5	-49.3	22.1	0.00e+00	0	45	0	1814036480	60	11406
2026-01-30 15:54:57.43	293.55	12.54	-48.6	-49.3	22.1	0.00e+00	0	45	0	1821376512	60	11470
2026-01-30 15:54:58.44	293.75	12.53	-48.6	-49.3	22.1	0.00e+00	0	46	0	1828716544	60	11467
2026-01-30 15:54:59.44	293.94	12.53	-48.6	-49.4	22.0	0.00e+00	0	45	0	1836056576	60	11511
2026-01-30 15:55:00.45	294.14	12.52	-48.6	-49.3	22.0	0.00e+00	0	45	0	1843396608	60	11473
2026-01-30 15:55:01.46	294.33	12.51	-48.6	-49.3	22.0	0.00e+00	0	45	0	1850736640	60	11496
2026-01-30 15:55:02.47	294.53	12.50	-48.5	-49.3	22.1	0.00e+00	0	45	0	1858076672	60	11413
2026-01-30 15:55:03.47	294.73	12.50	-48.7	-49.4	22.0	0.00e+00	0	45	0	1865416704	60	11596
2026-01-30 15:55:04.48	294.92	12.49	-48.5	-49.3	22.2	0.00e+00	0	45	0	1872756736	60	11380
2026-01-30 15:55:05.49	295.12	12.48	-48.5	-49.2	22.1	0.00e+00	0	46	0	1880096768	60	11357
2026-01-30 15:55:06.49	295.31	12.47	-48.5	-49.3	22.1	0.00e+00	0	46	0	1887436800	60	11438
2026-01-30 15:55:07.50	295.51	12.46	-48.5	-49.3	22.1	0.00e+00	0	46	0	1894776832	60	11422
2026-01-30 15:55:08.51	295.70	12.45	-48.6	-49.3	22.1	0.00e+00	0	46	0	1902116864	60	11475
2026-01-30 15:55:09.52	295.90	12.44	-48.6	-49.3	22.1	0.00e+00	0	46	0	1909456896	60	11454
2026-01-30 15:55:10.53	296.09	12.43	-48.5	-49.3	22.1	0.00e+00	0	46	0	1915748352	60	11390
2026-01-30 15:55:11.54	296.29	12.42	-48.6	-49.4	22.1	0.00e+00	0	46	0	1923088384	60	11501
2026-01-30 15:55:12.55	296.49	12.41	-48.5	-49.3	22.2	0.00e+00	0	45	0	1930428416	60	11414
2026-01-30 15:55:13.55	296.68	12.40	-48.6	-49.3	22.1	0.00e+00	0	46	0	1937768448	60	11489
2026-01-30 15:55:14.56	296.87	12.39	-48.5	-49.3	22.2	0.00e+00	0	45	0	1945108480	60	11407
2026-01-30 15:55:15.57	297.07	12.38	-48.6	-49.4	22.2	0.00e+00	0	46	0	1952448512	60	11503
2026-01-30 15:55:16.58	297.26	12.37	-48.6	-49.4	22.1	0.00e+00	0	46	0	1959788544	60	11545
2026-01-30 15:55:17.59	297.46	12.36	-48.6	-49.3	22.1	0.00e+00	0	46	0	1967128576	60	11485
2026-01-30 15:55:18.59	297.65	12.35	-48.7	-49.5	22.1	0.00e+00	0	46	0	1974468608	60	11686
2026-01-30 15:55:19.60	297.84	12.33	-48.7	-49.5	22.0	0.00e+00	0	46	0	1981808640	60	11693
2026-01-30 15:55:20.61	298.04	12.32	-48.7	-49.5	21.9	0.00e+00	0	46	0	1989148672	60	11665
2026-01-30 15:55:21.62	298.23	12.31	-48.8	-49.6	22.0	0.00e+00	0	46	0	1996488704	60	11800
2026-01-30 15:55:22.63	298.43	12.29	-48.7	-49.5	22.0	0.00e+00	0	46	0	2003828736	60	11642
2026-01-30 15:55:23.63	298.62	12.28	-48.9	-49.7	21.8	0.00e+00	0	46	0	2011168768	60	11985
2026-01-30 15:55:24.64	298.81	12.27	-48.8	-49.6	21.9	0.00e+00	0	46	0	2018508800	60	11869
2026-01-30 15:55:25.65	299.00	12.25	-48.7	-49.5	22.0	0.00e+00	0	46	0	2024800256	60	11692
2026-01-30 15:55:26.66	299.20	12.24	-48.7	-49.4	22.0	0.00e+00	0	46	0	2032140288	60	11591
2026-01-30 15:55:27.67	299.39	12.22	-48.6	-49.3	22.2	0.00e+00	0	46	0	2039480320	60	11453
2026-01-30 15:55:28.67	299.58	12.21	-48.6	-49.3	22.1	0.00e+00	0	45	0	2046820352	60	11449
2026-01-30 15:55:29.68	299.77	12.19	-48.5	-49.3	22.2	0.00e+00	0	46	0	2055208960	60	11390
2026-01-30 15:55:30.68	299.96	12.18	-48.4	-49.2	22.2	0.00e+00	0	46	0	2062548992	60	11304
2026-01-30 15:55:31.69	300.16	12.16	-48.5	-49.3	22.2	0.00e+00	0	46	0	2068840448	60	11432
2026-01-30 15:55:32.70	300.35	12.15	-48.6	-49.4	22.2	0.00e+00	0	46	0	2076180480	60	11510
2026-01-30 15:55:33.71	300.54	12.13	-48.7	-49.5	22.0	0.00e+00	0	46	0	2083520512	60	11668
2026-01-30 15:55:34.71	300.73	12.11	-48.7	-49.5	22.0	0.00e+00	0	46	0	2090860544	60	11646
2026-01-30 15:55:35.72	300.92	12.10	-48.7	-49.5	22.0	0.00e+00	0	46	0	2098200576	60	11711
2026-01-30 15:55:36.73	301.11	12.08	-48.9	-49.7	21.8	0.00e+00	0	46	0	2105540608	60	12007
2026-01-30 15:55:37.74	301.30	12.06	-48.9	-49.7	21.8	0.00e+00	0	46	0	2112880640	60	11972
2026-01-30 15:55:38.75	301.49	12.04	-48.9	-49.7	21.7	0.00e+00	0	46	0	2120220672	60	12002
2026-01-30 15:55:39.75	301.68	12.03	-49.0	-49.8	21.6	0.00e+00	0	46	0	2126512128	60	12155
2026-01-30 15:55:40.76	301.87	12.01	-49.1	-49.9	21.6	0.00e+00	0	46	0	2133852160	60	12313
2026-01-30 15:55:41.77	302.06	11.99	-49.1	-49.9	21.7	0.00e+00	0	46	0	2141192192	60	12267
2026-01-30 15:55:42.78	302.25	11.97	-48.9	-49.7	21.8	0.00e+00	0	46	0	2149580800	60	11928
2026-01-30 15:55:43.79	302.44	11.95	-48.9	-49.6	21.8	0.00e+00	0	46	0	2156920832	60	11892
2026-01-30 15:55:44.80	302.63	11.93	-48.8	-49.6	22.0	0.00e+00	0	46	0	2164260864	60	11778
2026-01-30 15:55:45.81	302.82	11.91	-48.8	-49.6	21.9	0.00e+00	0	46	0	2170552320	60	11778
2026-01-30 15:55:46.82	303.01	11.89	-48.9	-49.7	21.9	0.00e+00	0	46	0	2177892352	60	11919
2026-01-30 15:55:47.82	303.19	11.87	-48.8	-49.5	22.0	0.00e+00	0	46	0	2185232384	60	11754
2026-01-30 15:55:48.83	303.38	11.85	-48.7	-49.5	22.0	0.00e+00	0	46	0	2192572416	60	11671
2026-01-30 15:55:49.83	303.57	11.83	-48.6	-49.4	22.0	0.00e+00	0	45	0	2199912448	60	11508
2026-01-30 15:55:50.84	303.75	11.81	-48.7	-49.4	22.0	0.00e+00	0	46	0	2207252480	60	11582
2026-01-30 15:55:51.85	303.94	11.79	-48.7	-49.5	21.9	0.00e+00	0	46	0	2214592512	60	11657
2026-01-30 15:55:52.86	304.13	11.77	-48.8	-49.6	21.9	0.00e+00	0	45	0	2221932544	60	11797
2026-01-30 15:55:53.87	304.31	11.75	-48.9	-49.7	21.8	0.00e+00	0	46	0	2229272576	60	11957
2026-01-30 15:55:54.88	304.50	11.73	-49.0	-49.8	21.6	0.00e+00	0	46	0	2236612608	60	12087
2026-01-30 15:55:55.88	304.69	11.70	-49.0	-49.8	21.6	0.00e+00	0	45	0	2243952640	60	12088
2026-01-30 15:55:56.89	304.87	11.68	-48.9	-49.7	21.7	0.00e+00	0	45	0	2251292672	60	11936
2026-01-30 15:55:57.89	305.06	11.66	-48.8	-49.6	21.7	0.00e+00	0	46	0	2258632704	60	11795
2026-01-30 15:55:58.90	305.24	11.64	-48.8	-49.5	21.7	0.00e+00	0	46	0	2265972736	60	11759
2026-01-30 15:55:59.91	305.43	11.61	-48.7	-49.5	21.8	0.00e+00	0	46	0	2273312768	60	11757
2026-01-30 15:56:00.91	305.61	11.59	-48.8	-49.6	21.7	0.00e+00	0	46	0	2279604224	60	11836
2026-01-30 15:56:01.92	305.79	11.57	-48.8	-49.6	21.8	0.00e+00	0	46	0	2286944256	60	11771
2026-01-30 15:56:02.93	305.98	11.54	-48.9	-49.7	21.7	0.00e+00	0	46	0	2294284288	60	11928
2026-01-30 15:56:03.94	306.16	11.52	-48.8	-49.6	21.7	0.00e+00	0	46	0	2301624320	60	11819
2026-01-30 15:56:04.95	306.35	11.49	-48.9	-49.7	21.6	0.00e+00	0	45	0	2308964352	60	11930
2026-01-30 15:56:05.96	306.53	11.47	-49.0	-49.7	21.6	0.00e+00	0	46	0	2316304384	60	12035
2026-01-30 15:56:06.97	306.71	11.44	-48.9	-49.7	21.6	0.00e+00	0	46	0	2323644416	60	11928
2026-01-30 15:56:07.97	306.89	11.42	-48.9	-49.6	21.4	0.00e+00	0	46	0	2330984448	60	11889
2026-01-30 15:56:08.98	307.08	11.39	-49.0	-49.8	21.4	0.00e+00	0	46	0	2338324480	60	12118
2026-01-30 15:56:09.99	307.26	11.37	-49.0	-49.8	21.3	0.00e+00	0	46	0	2345664512	60	12145
2026-01-30 15:56:11.00	307.44	11.34	-49.2	-50.0	21.2	0.00e+00	0	46	0	2353004544	60	12407
2026-01-30 15:56:12.01	307.62	11.32	-49.2	-50.0	21.1	0.00e+00	0	46	0	2360344576	60	12432
2026-01-30 15:56:13.02	307.80	11.29	-49.3	-50.1	21.0	0.00e+00	0	46	0	2367684608	60	12603
2026-01-30 15:56:14.02	307.98	11.27	-49.4	-50.2	20.9	0.00e+00	0	46	0	2375024640	60	12736
2026-01-30 15:56:15.03	308.16	11.24	-49.3	-50.2	20.9	0.00e+00	0	46	0	2382364672	60	12696
2026-01-30 15:56:16.03	308.34	11.21	-49.5	-50.4	20.8	0.00e+00	0	46	0	2388656128	60	12903
2026-01-30 15:56:17.04	308.52	11.19	-49.4	-50.3	20.8	0.00e+00	0	46	0	2395996160	60	12848
2026-01-30 15:56:18.05	308.70	11.16	-49.5	-50.3	20.7	0.00e+00	0	46	0	2403336192	60	12895
2026-01-30 15:56:19.05	308.88	11.13	-49.5	-50.4	20.7	0.00e+00	0	46	0	2410676224	60	13005
2026-01-30 15:56:20.06	309.06	11.10	-49.6	-50.5	20.5	0.00e+00	0	46	0	2418016256	60	13150
2026-01-30 15:56:21.06	309.23	11.08	-49.5	-50.4	20.7	0.00e+00	0	46	0	2425356288	60	12998
2026-01-30 15:56:22.07	309.41	11.05	-49.5	-50.4	20.6	0.00e+00	0	46	0	2432696320	60	13013
2026-01-30 15:56:23.08	309.59	11.02	-49.7	-50.6	20.4	0.00e+00	0	46	0	2440036352	60	13239
2026-01-30 15:56:24.09	309.77	10.99	-49.6	-50.5	20.4	0.00e+00	0	46	0	2447376384	60	13131
2026-01-30 15:56:25.09	309.94	10.96	-49.6	-50.5	20.3	0.00e+00	0	46	0	2454716416	60	13136
2026-01-30 15:56:26.10	310.12	10.93	-49.7	-50.7	20.1	0.00e+00	0	46	0	2462056448	60	13385
2026-01-30 15:56:27.11	310.30	10.90	-49.8	-50.8	20.0	0.00e+00	0	46	0	2469396480	60	13527
2026-01-30 15:56:28.12	310.47	10.87	-49.9	-50.9	19.6	0.00e+00	0	46	0	2476736512	60	13695
2026-01-30 15:56:29.12	310.65	10.85	-49.8	-50.8	19.7	0.00e+00	0	46	0	2484076544	60	13656
2026-01-30 15:56:30.13	310.82	10.82	-49.9	-50.9	19.6	0.00e+00	0	46	0	2490368000	60	13817
2026-01-30 15:56:31.14	311.00	10.79	-50.0	-51.0	19.5	0.00e+00	0	46	0	2497708032	60	13918
2026-01-30 15:56:32.15	311.17	10.76	-50.1	-51.1	19.4	0.00e+00	0	46	0	2505048064	60	14091
2026-01-30 15:56:33.16	311.35	10.72	-50.3	-51.3	19.2	0.00e+00	0	46	0	2512388096	60	14389
2026-01-30 15:56:34.16	311.52	10.69	-50.3	-51.4	19.1	0.00e+00	0	46	0	2519728128	60	14474
2026-01-30 15:56:35.17	311.69	10.66	-50.6	-51.7	18.9	0.00e+00	0	46	0	2527068160	60	15002
2026-01-30 15:56:36.18	311.87	10.63	-50.6	-51.7	18.8	0.00e+00	0	46	0	2534408192	60	15130
2026-01-30 15:56:37.19	312.04	10.60	-50.7	-51.8	18.6	0.00e+00	0	46	0	2541748224	60	15249
2026-01-30 15:56:38.19	312.21	10.57	-50.9	-52.1	18.4	0.00e+00	0	46	0	2549088256	60	15746
2026-01-30 15:56:39.20	312.38	10.54	-51.0	-52.2	18.3	0.00e+00	0	46	0	2556428288	60	15881
2026-01-30 15:56:40.21	312.56	10.51	-51.1	-52.3	18.2	0.00e+00	0	46	0	2563768320	60	16194
2026-01-30 15:56:41.22	312.73	10.48	-51.2	-52.4	18.0	0.00e+00	0	46	0	2571108352	60	16283
2026-01-30 15:56:42.23	312.90	10.44	-51.3	-52.5	17.9	0.00e+00	0	46	0	2578448384	60	16601
2026-01-30 15:56:43.23	313.07	10.41	-51.2	-52.5	17.9	0.00e+00	0	46	0	2585788416	60	16481
2026-01-30 15:56:44.23	313.24	10.38	-51.3	-52.6	17.7	0.00e+00	0	46	0	2593128448	60	16706
2026-01-30 15:56:45.24	313.41	10.35	-51.4	-52.7	17.5	0.00e+00	0	46	0	2599419904	60	16941
2026-01-30 15:56:46.25	313.58	10.31	-51.6	-52.9	17.4	0.00e+00	0	46	0	2606759936	60	17267
2026-01-30 15:56:47.26	313.75	10.28	-51.6	-52.9	17.3	0.00e+00	0	46	0	2614099968	60	17342
2026-01-30 15:56:48.27	313.92	10.25	-51.7	-53.1	17.2	0.00e+00	0	46	0	2621440000	60	17688
2026-01-30 15:56:49.27	314.08	10.22	-51.7	-53.1	17.1	0.00e+00	0	46	0	2628780032	60	17686
2026-01-30 15:56:50.28	314.25	10.18	-51.8	-53.2	16.8	0.00e+00	0	46	0	2637168640	60	17970
2026-01-30 15:56:51.29	314.42	10.15	-51.8	-53.3	16.8	0.00e+00	0	46	0	2643460096	60	18086
2026-01-30 15:56:52.30	314.59	10.11	-51.9	-53.4	16.7	0.00e+00	0	46	0	2650800128	60	18298
2026-01-30 15:56:53.31	314.76	10.08	-52.0	-53.5	16.5	0.00e+00	0	46	0	2658140160	60	18522
2026-01-30 15:56:54.32	314.92	10.05	-52.1	-53.7	16.4	0.00e+00	0	46	0	2665480192	60	18899
2026-01-30 15:56:55.32	315.09	10.01	-52.2	-53.8	16.2	0.00e+00	0	46	0	2672820224	60	19090
2026-01-30 15:56:56.33	315.25	9.98	-52.3	-53.9	16.0	0.00e+00	0	46	0	2680160256	60	19520
2026-01-30 15:56:57.34	315.42	9.94	-52.5	-54.1	15.9	0.00e+00	0	46	0	2687500288	60	19916
2026-01-30 15:56:58.34	315.58	9.91	-52.6	-54.4	15.6	0.00e+00	0	46	0	2694840320	60	20569
2026-01-30 15:56:59.35	315.75	9.87	-52.7	-54.5	15.4	0.00e+00	0	46	0	2701131776	60	20887
2026-01-30 15:57:00.35	315.91	9.84	-52.8	-54.7	15.2	0.00e+00	0	46	0	2708471808	60	21289
2026-01-30 15:57:01.36	316.07	9.80	-52.9	-54.9	14.9	0.00e+00	0	46	0	2715811840	60	21850
2026-01-30 15:57:02.37	316.24	9.77	-53.1	-55.2	14.7	0.00e+00	0	46	0	2723151872	60	22577
2026-01-30 15:57:03.38	316.40	9.73	-53.2	-55.4	14.4	0.00e+00	0	46	0	2731540480	60	23058
2026-01-30 15:57:04.39	316.56	9.70	-53.3	-55.6	14.2	0.00e+00	0	46	0	2738880512	60	23590
2026-01-30 15:57:05.40	316.73	9.66	-53.5	-55.8	13.9	2.20e-06	0	46	0	2745171968	60	24131
2026-01-30 15:57:06.40	316.89	9.63	-53.6	-55.9	13.8	5.70e-06	0	46	0	2752512000	60	24460
2026-01-30 15:57:07.41	317.05	9.59	-53.8	-56.1	13.6	1.71e-05	0	46	0	2759852032	60	25100
2026-01-30 15:57:08.42	317.21	9.55	-53.8	-56.2	13.5	1.25e-05	0	46	0	2767192064	60	25334
2026-01-30 15:57:09.42	317.37	9.52	-53.9	-56.4	13.3	2.86e-05	0	46	0	2774532096	60	25790
2026-01-30 15:57:10.43	317.53	9.48	-54.1	-56.6	13.1	3.31e-05	0	46	0	2781872128	60	26424
2026-01-30 15:57:11.44	317.69	9.44	-54.1	-56.7	12.9	3.66e-05	0	46	0	2789212160	60	26643
2026-01-30 15:57:12.44	317.85	9.41	-54.2	-56.8	12.8	7.89e-05	0	46	0	2796552192	60	27171
2026-01-30 15:57:13.45	318.01	9.37	-54.2	-56.9	12.6	9.26e-05	0	46	0	2803892224	60	27500
2026-01-30 15:57:14.46	318.17	9.33	-54.4	-57.2	12.3	1.44e-04	0	46	0	2810183680	60	28245
2026-01-30 15:57:15.47	318.33	9.30	-54.5	-57.3	12.2	2.71e-04	0	46	0	2817523712	60	28807
2026-01-30 15:57:16.48	318.49	9.26	-54.6	-57.6	11.9	4.35e-04	0	46	0	2825912320	60	29595
2026-01-30 15:57:17.48	318.64	9.22	-54.8	-57.9	11.5	6.97e-04	0	46	0	2833252352	60	30638
2026-01-30 15:57:18.48	318.80	9.19	-54.9	-58.1	11.2	1.28e-03	0	46	0	2840592384	60	31406
2026-01-30 15:57:19.49	318.96	9.15	-55.0	-58.3	11.0	2.12e-03	0	46	0	2847932416	60	32383
2026-01-30 15:57:20.50	319.11	9.11	-55.2	-58.6	10.6	3.11e-03	0	46	0	2854223872	60	33456
2026-01-30 15:57:21.51	319.27	9.07	-55.3	-58.9	10.2	4.97e-03	0	46	0	2861563904	60	34587
2026-01-30 15:57:22.51	319.42	9.03	-55.4	-59.2	10.1	7.44e-03	0	46	0	2868903936	60	35659
2026-01-30 15:57:23.52	319.58	9.00	-55.5	-59.4	9.7	1.00e-02	0	46	0	2876243968	60	36634
2026-01-30 15:57:24.52	319.73	8.96	-55.5	-59.6	9.5	1.42e-02	0	46	0	2883584000	60	37247
2026-01-30 15:57:25.53	319.89	8.92	-55.6	-59.9	9.2	1.79e-02	0	46	0	2890924032	60	38649
2026-01-30 15:57:26.53	320.04	8.88	-55.7	-60.1	8.9	2.49e-02	0	46	0	2898264064	60	39563
2026-01-30 15:57:27.54	320.20	8.84	-55.7	-60.2	8.8	3.05e-02	0	46	0	2905604096	60	40068
2026-01-30 15:57:28.55	320.35	8.80	-55.8	-60.4	8.5	4.11e-02	0	46	0	2911895552	60	41210
2026-01-30 15:57:29.55	320.50	8.76	-55.8	-60.6	8.3	4.64e-02	0	46	0	2919235584	60	42130
2026-01-30 15:57:30.56	320.65	8.73	-55.9	-60.8	8.0	6.38e-02	0	46	0	2926575616	60	42990
2026-01-30 15:57:31.57	320.81	8.69	-55.9	-60.9	7.9	7.26e-02	0	46	0	2933915648	60	43651
2026-01-30 15:57:32.57	320.96	8.65	-56.0	-61.2	7.6	8.46e-02	0	46	0	2941255680	60	45006
2026-01-30 15:57:33.58	321.11	8.61	-56.1	-61.3	7.4	1.06e-01	0	46	0	2949644288	60	45765
2026-01-30 15:57:34.58	321.26	8.57	-56.2	-61.6	7.1	1.32e-01	0	46	0	2955935744	60	46945
2026-01-30 15:57:35.59	321.41	8.53	-56.3	-61.8	6.8	1.69e-01	0	46	0	2963275776	60	48407
2026-01-30 15:57:36.60	321.56	8.49	-56.4	-62.1	6.5	2.02e-01	0	46	0	2970615808	60	49766
2026-01-30 15:57:37.60	321.71	8.45	-56.5	-62.3	6.3	2.37e-01	0	46	0	2977955840	60	50878
2026-01-30 15:57:38.61	321.86	8.41	-56.6	-62.4	6.2	2.72e-01	0	46	0	2985295872	60	51447
2026-01-30 15:57:39.62	322.01	8.37	-56.7	-62.9	5.2	3.72e-01	0	46	0	2992635904	60	55018
2026-01-30 15:57:40.63	322.16	8.33	-56.8	-63.9	4.8	8.10e-01	0	46	0	2992635904	60	61112
2026-01-30 15:57:41.63	322.30	8.29	-56.8	-63.1	5.4	6.94e-01	0	46	0	2993684480	60	56000
2026-01-30 15:57:42.64	322.45	8.25	-56.9	-63.7	5.0	8.21e-01	0	46	0	2995781632	60	59958
2026-01-30 15:57:43.65	322.60	8.21	-56.9	-63.6	4.9	7.46e-01	0	46	0	2997878784	60	59425
2026-01-30 15:57:44.66	322.75	8.17	-57.0	-63.9	4.7	7.66e-01	0	46	0	2997878784	60	61512
2026-01-30 15:57:45.67	322.89	8.13	-57.0	-64.0	4.6	7.79e-01	0	46	0	2998927360	60	62212
2026-01-30 15:57:46.68	323.04	8.09	-57.0	-64.1	4.6	7.87e-01	0	46	0	2998927360	60	62875
2026-01-30 15:57:47.68	323.18	8.05	-57.0	-64.4	4.4	7.97e-01	0	46	0	2998927360	60	64974
2026-01-30 15:57:48.68	323.33	8.01	-57.0	-64.7	4.2	8.09e-01	0	46	0	2998927360	60	66927
2026-01-30 15:57:49.69	323.47	7.97	-57.1	-65.0	4.0	8.22e-01	0	46	0	2998927360	60	69496
2026-01-30 15:57:50.70	323.62	7.93	-57.2	-67.8	3.6	8.30e-01	0	46	104	2998927360	60	96531
2026-01-30 15:57:51.71	323.76	7.88	-57.2	-68.0	3.6	8.44e-01	0	46	104	2998927360	60	97871
2026-01-30 15:57:52.72	323.91	7.84	-57.1	-66.1	3.8	8.42e-01	0	46	0	2998927360	60	79342
2026-01-30 15:57:53.72	324.05	7.80	-57.1	-67.4	3.9	8.40e-01	0	46	104	2998927360	60	91361
2026-01-30 15:57:54.73	324.19	7.76	-57.1	-67.6	3.8	8.42e-01	0	46	104	2998927360	60	94152
2026-01-30 15:57:55.74	324.34	7.72	-57.1	-67.8	3.8	8.43e-01	0	46	104	2998927360	60	96343
2026-01-30 15:57:56.74	324.48	7.68	-57.1	-68.1	3.7	8.43e-01	0	46	104	2998927360	60	99286
2026-01-30 15:57:57.75	324.62	7.64	-57.1	-68.4	3.6	8.46e-01	0	46	104	2998927360	60	102759
2026-01-30 15:57:58.76	324.76	7.59	-57.2	-68.6	3.6	8.45e-01	0	46	104	2998927360	60	105043
2026-01-30 15:57:59.76	324.90	7.55	-57.3	-69.4	3.6	8.43e-01	0	46	104	2998927360	60	115920
2026-01-30 15:58:00.76	325.04	7.51	-57.3	-69.4	3.6	8.45e-01	0	46	104	2998927360	60	116274
2026-01-30 15:58:01.77	325.18	7.47	-57.4	-69.2	3.6	8.45e-01	0	46	104	2998927360	60	113015
2026-01-30 15:58:02.77	325.32	7.43	-57.4	-69.3	3.6	8.45e-01	0	46	104	2998927360	60	113951
2026-01-30 15:58:03.78	325.46	7.39	-57.4	-69.4	3.6	8.45e-01	0	46	104	2998927360	60	115721
2026-01-30 15:58:04.78	325.60	7.34	-57.4	-69.5	3.6	8.45e-01	0	46	104	2998927360	60	116856
2026-01-30 15:58:05.78	325.74	7.30	-57.4	-69.7	3.6	8.45e-01	0	46	104	2998927360	60	119827
2026-01-30 15:58:06.79	325.88	7.26	-57.4	-69.8	3.6	8.46e-01	0	46	104	2998927360	60	120637
2026-01-30 15:58:07.79	326.01	7.22	-57.2	-69.8	3.6	8.46e-01	0	46	104	2998927360	60	121475
2026-01-30 15:58:08.80	326.15	7.18	-57.3	-70.0	3.6	8.45e-01	0	46	104	2998927360	60	123454
2026-01-30 15:58:09.80	326.29	7.13	-57.3	-70.0	3.6	8.46e-01	0	46	104	2998927360	60	123505
2026-01-30 15:58:10.81	326.42	7.09	-57.2	-70.0	3.6	8.44e-01	0	46	104	2998927360	60	124005
2026-01-30 15:58:11.82	326.56	7.05	-57.4	-70.1	3.6	8.46e-01	0	46	104	2998927360	60	125065
2026-01-30 15:58:12.82	326.70	7.01	-57.4	-70.2	3.6	8.46e-01	0	46	104	2998927360	60	126207
2026-01-30 15:58:13.83	326.83	6.96	-57.4	-70.2	3.6	8.45e-01	0	46	104	2998927360	60	127494
2026-01-30 15:58:14.84	326.97	6.92	-57.2	-70.2	3.6	8.45e-01	0	46	104	2998927360	60	126266
2026-01-30 15:58:15.85	327.10	6.88	-57.5	-70.3	3.6	8.45e-01	0	46	104	2998927360	60	128322
2026-01-30 15:58:16.86	327.24	6.84	-57.4	-70.3	3.6	8.46e-01	0	46	104	2998927360	60	127744
2026-01-30 15:58:17.86	327.37	6.79	-57.4	-70.3	3.6	8.45e-01	0	46	104	2998927360	60	128819
2026-01-30 15:58:18.87	327.51	6.75	-57.2	-70.1	3.6	8.45e-01	0	46	104	2998927360	60	125678
2026-01-30 15:58:19.87	327.64	6.71	-57.4	-70.3	3.6	8.45e-01	0	46	104	2998927360	60	128478
2026-01-30 15:58:20.88	327.77	6.66	-57.3	-70.3	3.6	8.45e-01	0	46	104	2998927360	60	128467
2026-01-30 15:58:21.89	327.90	6.62	-57.4	-70.4	3.6	8.45e-01	0	46	104	2998927360	60	129377
2026-01-30 15:58:22.89	328.04	6.58	-57.2	-70.1	3.6	8.45e-01	0	46	104	2998927360	60	125254
2026-01-30 15:58:23.90	328.17	6.53	-57.4	-70.4	3.6	8.48e-01	0	46	104	2998927360	60	129423
2026-01-30 15:58:24.91	328.30	6.49	-57.3	-70.2	3.6	8.45e-01	0	46	104	2998927360	60	126260
2026-01-30 15:58:25.92	328.43	6.45	-57.4	-70.3	3.6	8.45e-01	0	46	104	2998927360	60	127759
2026-01-30 15:58:26.92	328.56	6.40	-57.1	-70.0	3.6	8.45e-01	0	46	104	2998927360	60	123850
2026-01-30 15:58:27.93	328.69	6.36	-57.4	-70.3	3.6	8.45e-01	0	46	104	2998927360	60	127731
2026-01-30 15:58:28.94	328.82	6.32	-57.3	-70.1	3.6	8.47e-01	0	46	104	2998927360	60	124820
2026-01-30 15:58:29.95	328.95	6.27	-57.3	-70.2	3.6	8.46e-01	0	46	104	2998927360	60	126638
2026-01-30 15:58:30.95	329.08	6.23	-57.0	-69.9	3.6	8.45e-01	0	46	104	2998927360	60	122014
2026-01-30 15:58:31.96	329.21	6.19	-57.3	-70.1	3.6	8.46e-01	0	46	104	2998927360	60	124861
2026-01-30 15:58:32.97	329.34	6.14	-57.2	-70.0	3.6	8.44e-01	0	46	104	2998927360	60	123577
2026-01-30 15:58:33.98	329.47	6.10	-57.2	-70.2	3.6	8.46e-01	0	46	104	2998927360	60	126407
2026-01-30 15:58:34.98	329.59	6.06	-56.9	-69.8	3.6	8.44e-01	0	46	104	2998927360	60	120433
2026-01-30 15:58:35.99	329.72	6.01	-57.3	-70.0	3.6	8.45e-01	0	46	104	2998927360	60	123245
2026-01-30 15:58:36.99	329.85	5.97	-57.5	-70.5	3.6	8.45e-01	0	46	104	2998927360	60	131428
2026-01-30 15:58:38.00	329.97	5.92	-57.8	-70.9	3.6	8.46e-01	0	46	104	2998927360	60	137746
2026-01-30 15:58:39.01	330.10	5.88	-57.7	-70.8	3.6	8.45e-01	0	46	104	2998927360	60	135515
2026-01-30 15:58:40.02	330.23	5.84	-58.3	-71.1	3.6	8.46e-01	0	46	104	2998927360	60	141194
2026-01-30 15:58:41.02	330.35	5.79	-59.0	-71.9	3.6	8.46e-01	0	46	104	2998927360	60	153983
2026-01-30 15:58:42.03	330.48	5.75	-59.6	-72.6	3.6	8.44e-01	0	46	104	2998927360	60	168090
2026-01-30 15:58:43.04	330.60	5.70	-59.8	-72.7	3.6	8.45e-01	0	46	104	2998927360	60	168294
2026-01-30 15:58:44.05	330.73	5.66	-60.0	-72.8	3.6	8.46e-01	0	46	104	2998927360	60	171956
2026-01-30 15:58:45.06	330.85	5.62	-60.0	-72.9	3.6	8.44e-01	0	46	104	2998927360	60	173162
2026-01-30 15:58:46.06	330.98	5.57	-60.0	-72.9	3.6	8.46e-01	0	46	104	2998927360	60	173305
2026-01-30 15:58:47.07	331.10	5.53	-60.2	-73.1	3.6	8.46e-01	0	46	104	2998927360	60	177283
2026-01-30 15:58:48.08	331.22	5.48	-60.2	-72.9	3.6	8.46e-01	0	46	104	2998927360	60	172909
2026-01-30 15:58:49.08	331.34	5.44	-60.2	-73.2	3.6	8.45e-01	0	46	104	2998927360	60	179466
2026-01-30 15:58:50.09	331.47	5.40	-60.3	-73.4	3.6	8.45e-01	0	46	104	2998927360	60	182683
2026-01-30 15:58:51.10	331.59	5.35	-60.5	-73.6	3.6	8.46e-01	0	46	104	2998927360	60	186781
2026-01-30 15:58:52.10	331.71	5.31	-60.6	-73.4	3.6	8.45e-01	0	46	104	2998927360	60	183037
2026-01-30 15:58:53.10	331.83	5.26	-60.4	-73.2	3.6	8.45e-01	0	46	104	2998927360	60	179384
2026-01-30 15:58:54.11	331.95	5.22	-60.5	-73.2	3.6	8.47e-01	0	46	104	2998927360	60	179501
2026-01-30 15:58:55.12	332.07	5.17	-60.7	-73.5	3.6	8.45e-01	0	46	104	2998927360	60	186039
2026-01-30 15:58:56.12	332.19	5.13	-60.8	-73.7	3.6	8.44e-01	0	46	104	2998927360	60	189425
2026-01-30 15:58:57.13	332.31	5.08	-60.8	-73.7	3.6	8.46e-01	0	46	104	2998927360	60	190363
2026-01-30 15:58:58.14	332.43	5.04	-60.9	-73.9	3.6	8.46e-01	0	46	104	2998927360	60	193017
2026-01-30 15:58:59.15	332.55	5.00	-60.9	-73.9	3.6	8.45e-01	0	46	104	2998927360	60	193287
2026-01-30 15:59:00.15	332.67	4.95	-60.8	-73.7	3.6	8.44e-01	0	46	104	2998927360	60	189633
2026-01-30 15:59:01.16	332.79	4.91	-60.7	-73.6	3.6	8.46e-01	0	46	104	2998927360	60	186688
2026-01-30 15:59:02.16	332.91	4.86	-60.6	-73.3	3.6	8.45e-01	0	46	104	2998927360	60	181375
2026-01-30 15:59:03.17	333.02	4.82	-60.8	-73.6	3.6	8.46e-01	0	46	104	2998927360	60	187728
2026-01-30 15:59:04.18	333.14	4.77	-60.8	-73.6	3.6	8.46e-01	0	46	104	2998927360	60	187660
2026-01-30 15:59:05.18	333.26	4.73	-61.0	-73.9	3.6	8.45e-01	0	46	104	2998927360	60	194245
2026-01-30 15:59:06.19	333.38	4.68	-61.1	-74.1	3.6	8.45e-01	0	46	104	2998927360	60	198411
2026-01-30 15:59:07.20	333.49	4.64	-61.2	-74.2	3.6	8.44e-01	0	46	104	2998927360	60	201935
2026-01-30 15:59:08.20	333.61	4.59	-61.1	-74.2	3.6	8.46e-01	0	46	104	2998927360	60	201816
2026-01-30 15:59:09.20	333.72	4.55	-60.9	-74.0	3.6	8.46e-01	0	46	104	2998927360	60	196858
2026-01-30 15:59:10.21	333.84	4.51	-60.7	-73.7	3.6	8.46e-01	0	46	104	2998927360	60	190581
2026-01-30 15:59:11.22	333.95	4.46	-60.7	-73.7	3.6	8.45e-01	0	46	104	2998927360	60	189392
2026-01-30 15:59:12.23	334.07	4.42	-61.0	-73.9	3.6	8.45e-01	0	46	104	2998927360	60	193086
2026-01-30 15:59:13.23	334.18	4.37	-61.2	-74.0	3.6	8.46e-01	0	46	104	2998927360	60	196789
2026-01-30 15:59:14.24	334.30	4.33	-61.4	-74.2	3.6	8.45e-01	0	46	104	2998927360	60	200407
2026-01-30 15:59:15.24	334.41	4.28	-61.3	-74.1	3.6	8.45e-01	0	46	104	2998927360	60	198138
2026-01-30 15:59:16.25	334.52	4.24	-61.3	-74.1	3.6	8.44e-01	0	46	104	2998927360	60	198235
2026-01-30 15:59:17.25	334.64	4.19	-61.3	-74.1	3.6	8.44e-01	0	46	104	2998927360	60	198477
2026-01-30 15:59:18.26	334.75	4.15	-61.2	-74.1	3.6	8.45e-01	0	46	104	2998927360	60	197928
2026-01-30 15:59:19.27	334.86	4.10	-61.2	-74.1	3.6	8.45e-01	0	46	104	2998927360	60	199010
2026-01-30 15:59:20.27	334.97	4.06	-61.2	-74.1	3.6	8.45e-01	0	46	104	2998927360	60	198334
2026-01-30 15:59:21.28	335.08	4.01	-61.3	-74.1	3.6	8.45e-01	0	46	104	2998927360	60	198675
2026-01-30 15:59:22.29	335.20	3.97	-61.2	-74.1	3.6	8.45e-01	0	46	104	2998927360	60	197692
2026-01-30 15:59:23.30	335.31	3.92	-61.2	-74.1	3.6	8.44e-01	0	46	104	2998927360	60	199074
2026-01-30 15:59:24.31	335.42	3.88	-61.2	-74.0	3.6	8.45e-01	0	46	104	2998927360	60	197440
2026-01-30 15:59:25.31	335.53	3.83	-61.2	-74.0	3.6	8.45e-01	0	46	104	2998927360	60	196954
2026-01-30 15:59:26.32	335.64	3.79	-61.2	-74.0	3.6	8.46e-01	0	46	104	2998927360	60	197274
2026-01-30 15:59:27.32	335.75	3.74	-61.2	-74.0	3.6	8.45e-01	0	46	104	2998927360	60	196630
2026-01-30 15:59:28.32	335.86	3.70	-61.2	-74.0	3.6	8.46e-01	0	46	104	2998927360	60	196957
2026-01-30 15:59:29.33	335.97	3.65	-61.1	-73.9	3.6	8.46e-01	0	46	104	2998927360	60	194718
2026-01-30 15:59:30.34	336.08	3.61	-61.1	-73.9	3.6	8.44e-01	0	46	104	2998927360	60	193937
2026-01-30 15:59:31.34	336.18	3.56	-61.1	-73.9	3.6	8.45e-01	0	46	104	2998927360	60	193774
2026-01-30 15:59:32.35	336.29	3.52	-61.1	-73.9	3.6	8.45e-01	0	46	104	2998927360	60	193713
2026-01-30 15:59:33.35	336.40	3.47	-61.0	-73.9	3.6	8.46e-01	0	46	104	2998927360	60	193511
2026-01-30 15:59:34.35	336.51	3.43	-61.0	-73.8	3.6	8.45e-01	0	46	104	2998927360	60	192853
2026-01-30 15:59:35.36	336.61	3.38	-61.0	-74.0	3.6	8.45e-01	0	46	104	2998927360	60	195377
2026-01-30 15:59:36.36	336.72	3.34	-61.0	-73.9	3.6	8.47e-01	0	46	104	2998927360	60	194233
2026-01-30 15:59:37.37	336.83	3.29	-61.0	-73.9	3.6	8.45e-01	0	46	104	2998927360	60	193434
2026-01-30 15:59:38.37	336.93	3.25	-61.0	-73.8	3.6	8.45e-01	0	46	104	2998927360	60	192522
2026-01-30 15:59:39.39	337.04	3.20	-61.0	-73.8	3.6	8.45e-01	0	46	104	2998927360	60	191485
2026-01-30 15:59:40.39	337.14	3.16	-61.0	-73.7	3.6	8.44e-01	0	46	104	2998927360	60	190514
2026-01-30 15:59:41.40	337.25	3.11	-60.9	-73.9	3.5	8.46e-01	0	46	104	2998927360	60	193297
2026-01-30 15:59:42.41	337.36	3.07	-60.9	-73.7	3.6	8.45e-01	0	46	104	2998927360	60	189528
2026-01-30 15:59:43.41	337.46	3.02	-60.9	-73.8	3.6	8.45e-01	0	46	104	2998927360	60	190823
2026-01-30 15:59:44.42	337.56	2.98	-60.9	-73.8	3.6	8.45e-01	0	46	104	2998927360	60	191903
2026-01-30 15:59:45.43	337.67	2.93	-60.9	-73.8	3.6	8.45e-01	0	46	104	2998927360	60	192030
2026-01-30 15:59:46.43	337.77	2.89	-60.9	-73.7	3.6	8.46e-01	0	46	104	2998927360	60	189226
2026-01-30 15:59:47.44	337.88	2.84	-60.9	-73.8	3.6	8.46e-01	0	46	104	2998927360	60	192179
2026-01-30 15:59:48.44	337.98	2.80	-60.9	-73.7	3.6	8.46e-01	0	46	104	2998927360	60	190683
2026-01-30 15:59:49.45	338.08	2.75	-60.9	-73.8	3.6	8.46e-01	0	46	104	2998927360	60	191380
2026-01-30 15:59:50.46	338.18	2.71	-60.9	-73.8	3.6	8.46e-01	0	46	104	2998927360	60	190898
2026-01-30 15:59:51.47	338.29	2.66	-60.9	-73.8	3.6	8.46e-01	0	46	104	2998927360	60	191515
2026-01-30 15:59:52.48	338.39	2.62	-60.9	-73.7	3.6	8.44e-01	0	46	104	2998927360	60	190356
2026-01-30 15:59:53.49	338.49	2.57	-60.9	-73.7	3.6	8.45e-01	0	46	104	2998927360	60	190548
2026-01-30 15:59:54.50	338.59	2.53	-60.9	-73.7	3.6	8.45e-01	0	46	104	2998927360	60	190574
