passes_logs/2026/01/30/R3.2S-Naryan-Mar/R3.2S-Naryan-Mar__20260130_000938_NOAA_20_JPSS-1_rec.log

#Pass ID: 20260130_000938_NOAA 20 (JPSS-1)
#Satellite: NOAA 20 (JPSS-1)
#Configuration: NOAA 20
#almurnet v.1.7.20240730
#Start time: 2026-01-30 00:09:40

#Version: 2.2.20231116
#Station: R3.2S-Naryan-Mar
#Location: 53.008057 lon 67.646978 lat
#TLE: 1 43013U 17073A   26028.86313978  .00000144  00000+0  89200-4 0  9993
#TLE: 2 43013  98.7648 329.6571 0000891  20.0014 340.1197 14.19541559424709

#Time	Az	El	Level	Level2	SNR	BER	BlckErr	Temp	State	Recorded	gain1	gain2
2026-01-30 00:09:40.09	27.08	0.10	-61.2	-78.3	3.5	1.51e+00	0	43	0	0	60	323282
2026-01-30 00:09:41.09	27.06	0.16	-61.8	-78.5	3.6	1.51e+00	0	45	104	0	60	330565
2026-01-30 00:09:42.10	27.04	0.22	-61.8	-78.5	3.6	1.51e+00	0	44	104	0	60	330576
2026-01-30 00:09:43.11	27.02	0.28	-62.2	-78.6	3.6	1.51e+00	0	45	104	0	60	334472
2026-01-30 00:09:44.11	27.01	0.34	-62.2	-78.6	3.6	1.51e+00	0	45	104	0	60	334763
2026-01-30 00:09:45.12	26.99	0.40	-62.1	-78.6	3.6	1.51e+00	0	45	104	0	60	331586
2026-01-30 00:09:46.12	26.97	0.46	-61.8	-78.5	3.6	1.51e+00	0	45	104	0	60	328726
2026-01-30 00:09:47.13	26.95	0.52	-62.0	-78.5	3.6	1.51e+00	0	45	104	0	60	330334
2026-01-30 00:09:48.14	26.93	0.58	-62.1	-78.5	3.6	1.51e+00	0	45	104	0	60	329912
2026-01-30 00:09:49.15	26.91	0.65	-62.0	-78.3	3.6	1.51e+00	0	45	104	0	60	322685
2026-01-30 00:09:50.15	26.90	0.71	-62.1	-78.4	3.6	1.51e+00	0	45	104	0	60	325954
2026-01-30 00:09:51.16	26.88	0.77	-61.9	-78.3	3.6	1.51e+00	0	45	104	0	60	321059
2026-01-30 00:09:52.17	26.86	0.83	-62.1	-78.4	3.6	1.51e+00	0	45	104	0	60	327726
2026-01-30 00:09:53.18	26.84	0.89	-62.2	-78.7	3.6	1.51e+00	0	45	104	0	60	335812
2026-01-30 00:09:54.18	26.82	0.95	-62.1	-78.6	3.6	1.51e+00	0	45	104	0	60	331707
2026-01-30 00:09:55.19	26.80	1.01	-61.3	-78.4	3.6	1.51e+00	0	45	104	0	60	325610
2026-01-30 00:09:56.20	26.78	1.07	-61.8	-78.4	3.6	1.51e+00	0	45	104	0	60	324142
2026-01-30 00:09:57.21	26.76	1.14	-61.0	-78.1	3.6	1.51e+00	0	45	104	0	60	314531
2026-01-30 00:09:58.21	26.74	1.20	-58.8	-77.2	3.6	1.51e+00	0	45	104	0	60	284224
2026-01-30 00:09:59.22	26.72	1.26	-61.4	-77.9	3.6	1.51e+00	0	45	104	0	60	306898
2026-01-30 00:10:00.23	26.70	1.32	-60.7	-77.7	3.6	1.51e+00	0	45	104	0	60	300865
2026-01-30 00:10:01.23	26.68	1.38	-61.5	-77.9	3.6	1.51e+00	0	45	104	0	60	308103
2026-01-30 00:10:02.24	26.66	1.44	-60.5	-77.7	3.6	1.51e+00	0	45	104	0	60	301650
2026-01-30 00:10:03.24	26.64	1.51	-58.8	-77.4	3.6	1.51e+00	0	45	104	0	60	290223
2026-01-30 00:10:04.25	26.62	1.57	-56.6	-76.4	3.6	1.51e+00	0	45	104	0	60	260194
2026-01-30 00:10:05.26	26.60	1.63	-60.1	-77.0	3.6	1.51e+00	0	45	104	0	60	277792
2026-01-30 00:10:06.26	26.58	1.69	-57.9	-76.4	3.6	1.51e+00	0	45	104	0	60	259837
2026-01-30 00:10:07.27	26.56	1.76	-58.2	-77.4	3.6	1.51e+00	0	45	104	0	60	290453
2026-01-30 00:10:08.28	26.54	1.82	-60.4	-77.2	3.6	1.51e+00	0	45	104	0	60	285470
2026-01-30 00:10:09.29	26.52	1.88	-60.6	-77.3	3.6	1.51e+00	0	45	104	0	60	288514
2026-01-30 00:10:10.29	26.50	1.95	-59.3	-77.1	3.6	1.51e+00	0	45	104	0	60	280733
2026-01-30 00:10:11.30	26.48	2.01	-59.6	-76.9	3.6	1.51e+00	0	45	104	0	60	272782
2026-01-30 00:10:12.31	26.46	2.07	-60.3	-77.0	3.6	1.51e+00	0	45	104	0	60	276380
2026-01-30 00:10:13.31	26.44	2.14	-59.1	-76.6	3.6	1.51e+00	0	45	104	0	60	263453
2026-01-30 00:10:14.32	26.42	2.20	-59.4	-76.4	3.6	1.51e+00	0	45	104	0	60	257848
2026-01-30 00:10:15.32	26.40	2.27	-58.5	-76.2	3.6	1.51e+00	0	45	104	0	60	251869
2026-01-30 00:10:16.33	26.38	2.33	-56.5	-75.9	3.6	1.51e+00	0	45	104	0	60	244633
2026-01-30 00:10:17.34	26.35	2.39	-56.4	-75.7	3.6	1.51e+00	0	45	104	0	60	237655
2026-01-30 00:10:18.34	26.33	2.46	-56.4	-75.8	3.6	1.51e+00	0	45	104	0	60	242455
2026-01-30 00:10:19.35	26.31	2.52	-56.5	-75.8	3.6	1.51e+00	0	45	104	0	60	241305
2026-01-30 00:10:20.35	26.29	2.59	-56.7	-75.9	3.6	1.51e+00	0	45	104	0	60	244757
2026-01-30 00:10:21.35	26.27	2.65	-56.6	-75.5	3.6	1.51e+00	0	45	104	0	60	234657
2026-01-30 00:10:22.36	26.25	2.72	-56.5	-75.7	3.6	1.51e+00	0	45	104	0	60	239657
2026-01-30 00:10:23.37	26.22	2.78	-56.5	-75.7	3.6	1.51e+00	0	45	104	0	60	239525
2026-01-30 00:10:24.38	26.20	2.85	-56.6	-75.7	3.6	1.51e+00	0	45	104	0	60	238464
2026-01-30 00:10:25.38	26.18	2.91	-56.7	-75.7	3.6	1.51e+00	0	45	104	0	60	239797
2026-01-30 00:10:26.38	26.16	2.98	-56.6	-75.6	3.6	1.51e+00	0	45	104	0	60	236896
2026-01-30 00:10:27.39	26.14	3.04	-56.7	-75.8	3.6	1.51e+00	0	45	104	0	60	241498
2026-01-30 00:10:28.40	26.11	3.11	-56.5	-75.9	3.6	1.51e+00	0	45	104	0	60	243074
2026-01-30 00:10:29.40	26.09	3.18	-56.6	-75.8	3.6	1.51e+00	0	45	104	0	60	240947
2026-01-30 00:10:30.41	26.07	3.24	-56.6	-75.7	3.6	1.51e+00	0	45	104	0	60	240125
2026-01-30 00:10:31.42	26.04	3.31	-56.6	-75.6	3.6	1.51e+00	0	45	104	0	60	236773
2026-01-30 00:10:32.42	26.02	3.37	-56.6	-75.6	3.6	1.51e+00	0	45	104	0	60	234865
2026-01-30 00:10:33.43	26.00	3.44	-56.5	-75.6	3.6	1.51e+00	0	45	104	0	60	234873
2026-01-30 00:10:34.43	25.97	3.51	-56.6	-75.7	3.6	1.51e+00	0	45	104	0	60	237665
2026-01-30 00:10:35.44	25.95	3.58	-56.5	-75.7	3.6	1.51e+00	0	45	104	0	60	238501
2026-01-30 00:10:36.45	25.93	3.64	-56.5	-75.7	3.6	1.51e+00	0	45	104	0	60	239933
2026-01-30 00:10:37.45	25.90	3.71	-56.4	-75.7	3.6	1.51e+00	0	45	104	0	60	238362
2026-01-30 00:10:38.46	25.88	3.78	-56.4	-75.8	3.6	1.51e+00	0	45	104	0	60	241267
2026-01-30 00:10:39.47	25.86	3.84	-56.6	-75.8	3.6	1.51e+00	0	45	104	0	60	242332
2026-01-30 00:10:40.48	25.83	3.91	-56.5	-75.5	3.6	1.51e+00	0	46	104	0	60	233252
2026-01-30 00:10:41.49	25.81	3.98	-56.4	-75.4	3.6	1.51e+00	0	45	104	0	60	231670
2026-01-30 00:10:42.50	25.78	4.05	-56.4	-75.3	3.6	1.51e+00	0	45	104	0	60	228720
2026-01-30 00:10:43.50	25.76	4.12	-56.5	-75.2	3.6	1.51e+00	0	45	104	0	60	224895
2026-01-30 00:10:44.51	25.73	4.19	-56.5	-75.4	3.6	1.51e+00	0	46	104	0	60	230961
2026-01-30 00:10:45.52	25.71	4.25	-56.5	-75.5	3.6	1.51e+00	0	46	104	0	60	232982
2026-01-30 00:10:46.52	25.68	4.32	-56.5	-75.5	3.6	1.51e+00	0	46	104	0	60	232326
2026-01-30 00:10:47.53	25.66	4.39	-56.5	-75.6	3.6	1.51e+00	0	45	104	0	60	237184
2026-01-30 00:10:48.53	25.63	4.46	-56.3	-75.7	3.6	1.51e+00	0	45	104	0	60	239400
2026-01-30 00:10:49.54	25.61	4.53	-56.3	-75.5	3.6	1.51e+00	0	45	104	0	60	233514
2026-01-30 00:10:50.54	25.58	4.60	-56.5	-75.7	3.6	1.51e+00	0	46	104	0	60	239555
2026-01-30 00:10:51.55	25.56	4.67	-56.5	-75.4	3.6	1.51e+00	0	45	104	0	60	230126
2026-01-30 00:10:52.56	25.53	4.74	-56.6	-75.1	3.6	1.51e+00	0	45	104	0	60	222799
2026-01-30 00:10:53.57	25.50	4.81	-56.5	-74.7	3.6	1.51e+00	0	45	104	0	60	213825
2026-01-30 00:10:54.58	25.48	4.88	-56.5	-74.7	3.6	1.51e+00	0	45	104	0	60	211917
2026-01-30 00:10:55.58	25.45	4.95	-56.5	-73.6	3.7	1.51e+00	0	46	104	0	60	187540
2026-01-30 00:10:56.59	25.43	5.02	-56.2	-72.4	3.9	1.49e+00	0	46	104	0	60	163825
2026-01-30 00:10:57.60	25.40	5.09	-56.2	-69.8	4.5	1.15e+00	0	46	0	0	60	121150
2026-01-30 00:10:58.61	25.37	5.16	-56.1	-67.5	6.0	3.83e-01	0	46	0	2097152	60	93236
2026-01-30 00:10:59.61	25.35	5.23	-55.9	-65.9	7.9	1.14e-01	0	46	0	4194304	60	77399
2026-01-30 00:11:00.62	25.32	5.30	-55.7	-64.2	9.9	2.39e-02	0	46	0	6291456	60	63889
2026-01-30 00:11:01.63	25.29	5.38	-55.4	-62.6	11.7	2.94e-03	0	45	0	7340032	60	53050
2026-01-30 00:11:02.63	25.26	5.45	-55.1	-61.3	13.3	6.94e-05	0	45	0	9437184	60	45359
2026-01-30 00:11:03.64	25.24	5.52	-54.7	-60.1	14.5	1.50e-06	0	46	0	11534336	60	39412
2026-01-30 00:11:04.64	25.21	5.59	-54.2	-59.0	15.7	0.00e+00	0	46	0	13631488	60	34753
2026-01-30 00:11:05.65	25.18	5.66	-53.7	-58.1	16.5	0.00e+00	0	45	0	15728640	60	31324
2026-01-30 00:11:06.65	25.15	5.73	-53.4	-57.3	17.2	0.00e+00	0	45	0	16777216	60	28834
2026-01-30 00:11:07.66	25.13	5.81	-53.2	-56.9	17.7	0.00e+00	0	46	0	18874368	60	27304
2026-01-30 00:11:08.67	25.10	5.88	-53.0	-56.5	18.0	0.00e+00	0	46	0	20971520	60	26304
2026-01-30 00:11:09.67	25.07	5.95	-53.1	-56.4	18.3	0.00e+00	0	46	0	23068672	60	25839
2026-01-30 00:11:10.68	25.04	6.03	-53.1	-56.4	18.2	0.00e+00	0	46	0	25165824	60	25773
2026-01-30 00:11:11.69	25.01	6.10	-53.5	-56.3	18.5	0.00e+00	0	46	0	26214400	60	25696
2026-01-30 00:11:12.69	24.98	6.17	-54.8	-57.1	17.6	0.00e+00	0	46	0	28311552	60	28016
2026-01-30 00:11:13.70	24.95	6.25	-53.7	-56.4	17.6	0.00e+00	0	45	0	30408704	60	25941
2026-01-30 00:11:14.71	24.92	6.32	-54.7	-57.1	17.8	2.59e-05	0	46	0	32505856	60	28108
2026-01-30 00:11:15.71	24.90	6.39	-54.6	-58.0	16.1	0.00e+00	0	45	0	34603008	60	31066
2026-01-30 00:11:16.72	24.87	6.47	-55.2	-58.3	16.9	4.50e-06	0	46	0	35651584	60	32218
2026-01-30 00:11:17.73	24.84	6.54	-54.9	-57.3	17.9	0.00e+00	0	46	0	37748736	60	28712
2026-01-30 00:11:18.74	24.81	6.62	-54.7	-56.8	18.3	0.00e+00	0	45	0	39845888	60	27181
2026-01-30 00:11:19.75	24.78	6.69	-54.3	-56.2	18.7	0.00e+00	0	45	0	41943040	60	25342
2026-01-30 00:11:20.75	24.75	6.77	-54.2	-56.1	18.8	0.00e+00	0	46	0	44040192	60	24923
2026-01-30 00:11:21.76	24.71	6.84	-54.2	-56.1	18.9	0.00e+00	0	45	0	45088768	60	24911
2026-01-30 00:11:22.77	24.68	6.92	-54.2	-56.0	19.0	0.00e+00	0	45	0	47185920	60	24790
2026-01-30 00:11:23.77	24.65	7.00	-54.1	-56.0	19.0	0.00e+00	0	46	0	49283072	60	24816
2026-01-30 00:11:24.77	24.62	7.07	-54.1	-56.0	19.1	0.00e+00	0	46	0	51380224	60	24738
2026-01-30 00:11:25.78	24.59	7.15	-54.0	-56.1	19.1	0.00e+00	0	45	0	53477376	60	24958
2026-01-30 00:11:26.78	24.56	7.22	-53.9	-56.1	19.0	0.00e+00	0	46	0	54525952	60	25124
2026-01-30 00:11:27.79	24.53	7.30	-53.5	-55.9	19.2	0.00e+00	0	46	0	56623104	60	24488
2026-01-30 00:11:28.80	24.50	7.38	-53.0	-55.9	18.9	0.00e+00	0	45	0	58720256	60	24444
2026-01-30 00:11:29.81	24.46	7.45	-52.7	-55.9	18.7	0.00e+00	0	45	0	60817408	60	24377
2026-01-30 00:11:30.80	24.43	7.53	-52.6	-55.8	18.7	0.00e+00	0	45	0	62914560	60	24072
2026-01-30 00:11:31.82	24.40	7.61	-52.6	-55.8	18.6	0.00e+00	0	46	0	63963136	60	24239
2026-01-30 00:11:32.82	24.37	7.69	-52.6	-55.7	18.8	0.00e+00	0	46	0	66060288	60	23961
2026-01-30 00:11:33.83	24.34	7.76	-52.8	-55.7	18.8	0.00e+00	0	46	0	68157440	60	23866
2026-01-30 00:11:34.83	24.30	7.84	-53.2	-55.7	19.1	0.00e+00	0	46	0	70254592	60	23965
2026-01-30 00:11:35.84	24.27	7.92	-53.5	-55.7	19.2	0.00e+00	0	46	0	72351744	60	23827
2026-01-30 00:11:36.84	24.24	8.00	-53.7	-55.7	19.3	0.00e+00	0	46	0	73400320	60	23804
2026-01-30 00:11:37.85	24.20	8.08	-53.7	-55.7	19.3	0.00e+00	0	46	0	75497472	60	23840
2026-01-30 00:11:38.86	24.17	8.16	-53.5	-55.6	19.2	0.00e+00	0	46	0	77594624	60	23703
2026-01-30 00:11:39.86	24.14	8.24	-53.4	-55.8	18.8	0.00e+00	0	46	0	79691776	60	24257
2026-01-30 00:11:40.86	24.10	8.32	-53.3	-55.8	18.7	0.00e+00	0	46	0	81788928	60	24261
2026-01-30 00:11:41.87	24.07	8.40	-53.2	-55.9	18.5	0.00e+00	0	46	0	82837504	60	24383
2026-01-30 00:11:42.88	24.03	8.48	-53.1	-55.9	18.5	0.00e+00	0	46	0	84934656	60	24539
2026-01-30 00:11:43.88	24.00	8.56	-53.1	-55.8	18.8	0.00e+00	0	46	0	87031808	60	24204
2026-01-30 00:11:44.89	23.96	8.64	-53.4	-55.9	19.0	0.00e+00	0	46	0	89128960	60	24455
2026-01-30 00:11:45.90	23.93	8.72	-53.8	-56.2	19.1	0.00e+00	0	46	0	90177536	60	25179
2026-01-30 00:11:46.90	23.89	8.80	-54.0	-56.2	19.1	0.00e+00	0	46	0	92274688	60	25257
2026-01-30 00:11:47.91	23.86	8.88	-54.0	-56.2	18.9	0.00e+00	0	46	0	94371840	60	25242
2026-01-30 00:11:48.92	23.82	8.96	-54.2	-56.5	18.8	0.00e+00	0	46	0	96468992	60	26083
2026-01-30 00:11:49.93	23.78	9.04	-54.3	-56.6	18.4	0.00e+00	0	46	0	98566144	60	26495
2026-01-30 00:11:50.93	23.75	9.13	-54.2	-56.7	18.2	0.00e+00	0	46	0	100663296	60	26808
2026-01-30 00:11:51.94	23.71	9.21	-54.3	-56.8	18.2	0.00e+00	0	46	0	101711872	60	27032
2026-01-30 00:11:52.95	23.67	9.29	-54.7	-57.4	17.9	0.00e+00	0	46	0	103809024	60	28894
2026-01-30 00:11:53.95	23.64	9.37	-54.9	-57.6	17.7	0.00e+00	0	46	0	105906176	60	29580
2026-01-30 00:11:54.95	23.60	9.46	-55.0	-57.7	17.3	0.00e+00	0	46	0	108003328	60	30146
2026-01-30 00:11:55.96	23.56	9.54	-55.1	-58.0	17.1	0.00e+00	0	46	0	110100480	60	30962
2026-01-30 00:11:56.96	23.53	9.62	-55.1	-58.1	16.9	0.00e+00	0	46	0	111149056	60	31482
2026-01-30 00:11:57.97	23.49	9.71	-55.2	-58.4	16.6	0.00e+00	0	46	0	113246208	60	32427
2026-01-30 00:11:58.98	23.45	9.79	-55.2	-58.5	16.4	0.00e+00	0	46	0	115343360	60	33153
2026-01-30 00:11:59.99	23.41	9.88	-55.2	-58.8	16.3	0.00e+00	0	46	0	117440512	60	34144
2026-01-30 00:12:00.99	23.37	9.96	-55.3	-59.0	16.2	0.00e+00	0	46	0	118489088	60	35098
2026-01-30 00:12:02.00	23.33	10.05	-54.7	-58.1	17.1	0.00e+00	0	46	0	120586240	60	31572
2026-01-30 00:12:03.01	23.29	10.13	-54.3	-57.4	17.9	0.00e+00	0	46	0	122683392	60	28913
2026-01-30 00:12:04.02	23.25	10.22	-54.1	-57.0	18.3	0.00e+00	0	46	0	124780544	60	27585
2026-01-30 00:12:05.03	23.21	10.30	-54.0	-56.9	18.3	0.00e+00	0	46	0	126877696	60	27350
2026-01-30 00:12:06.03	23.17	10.39	-53.5	-56.2	19.2	0.00e+00	0	46	0	128974848	60	25281
2026-01-30 00:12:07.04	23.13	10.48	-53.0	-55.6	19.8	0.00e+00	0	46	0	130023424	60	23534
2026-01-30 00:12:08.04	23.09	10.56	-52.7	-55.2	20.1	0.00e+00	0	46	0	132120576	60	22480
2026-01-30 00:12:09.04	23.05	10.65	-52.6	-55.1	20.1	0.00e+00	0	46	0	134217728	60	22384
2026-01-30 00:12:10.05	23.01	10.74	-52.8	-55.2	20.0	0.00e+00	0	46	0	136314880	60	22431
2026-01-30 00:12:11.06	22.97	10.82	-52.8	-55.3	19.8	0.00e+00	0	46	0	138412032	60	22705
2026-01-30 00:12:12.07	22.93	10.91	-52.9	-55.3	19.7	0.00e+00	0	46	0	139460608	60	22811
2026-01-30 00:12:13.07	22.89	11.00	-52.9	-55.4	19.6	0.00e+00	0	46	0	141557760	60	23172
2026-01-30 00:12:14.08	22.85	11.09	-53.0	-55.7	19.2	0.00e+00	0	46	0	143654912	60	23846
2026-01-30 00:12:15.09	22.80	11.18	-52.8	-55.6	19.2	0.00e+00	0	46	0	145752064	60	23529
2026-01-30 00:12:16.09	22.76	11.27	-52.7	-55.5	19.1	0.00e+00	0	46	0	146800640	60	23362
2026-01-30 00:12:17.09	22.72	11.36	-52.6	-55.4	19.0	0.00e+00	0	46	0	148897792	60	23200
2026-01-30 00:12:18.10	22.67	11.45	-52.6	-55.5	19.0	0.00e+00	0	46	0	150994944	60	23451
2026-01-30 00:12:19.11	22.63	11.54	-52.7	-55.5	18.9	0.00e+00	0	46	0	153092096	60	23393
2026-01-30 00:12:20.11	22.59	11.63	-52.8	-55.4	19.0	0.00e+00	0	46	0	155189248	60	23188
2026-01-30 00:12:21.12	22.54	11.72	-53.0	-55.7	19.0	0.00e+00	0	46	0	157286400	60	23845
2026-01-30 00:12:22.13	22.50	11.81	-53.2	-55.8	18.7	0.00e+00	0	46	0	158334976	60	24088
2026-01-30 00:12:23.14	22.45	11.90	-53.1	-55.3	19.3	0.00e+00	0	46	0	160432128	60	22901
2026-01-30 00:12:24.14	22.41	11.99	-53.0	-55.0	19.5	0.00e+00	0	46	0	162529280	60	22133
2026-01-30 00:12:25.14	22.36	12.08	-52.8	-55.0	19.3	0.00e+00	0	46	0	164626432	60	22095
2026-01-30 00:12:26.15	22.32	12.18	-52.8	-55.2	19.2	0.00e+00	0	46	0	166723584	60	22570
2026-01-30 00:12:27.15	22.27	12.27	-52.7	-55.4	18.8	0.00e+00	0	46	0	167772160	60	22991
2026-01-30 00:12:28.16	22.23	12.36	-52.5	-55.4	18.7	0.00e+00	0	46	0	169869312	60	22949
2026-01-30 00:12:29.16	22.18	12.45	-52.1	-55.3	18.6	0.00e+00	0	46	0	171966464	60	22817
2026-01-30 00:12:30.17	22.13	12.55	-51.8	-55.3	18.6	0.00e+00	0	46	0	174063616	60	22822
2026-01-30 00:12:31.17	22.09	12.64	-51.6	-55.5	18.3	0.00e+00	0	46	0	175112192	60	23222
2026-01-30 00:12:32.17	22.04	12.73	-51.7	-55.5	18.5	0.00e+00	0	46	0	177209344	60	23372
2026-01-30 00:12:33.17	21.99	12.83	-51.7	-55.5	18.4	0.00e+00	0	46	0	179306496	60	23453
2026-01-30 00:12:34.18	21.94	12.92	-51.8	-55.5	18.5	0.00e+00	0	46	0	181403648	60	23227
2026-01-30 00:12:35.18	21.89	13.02	-52.2	-55.5	18.6	0.00e+00	0	46	0	183500800	60	23301
2026-01-30 00:12:36.19	21.85	13.11	-52.6	-55.5	18.7	0.00e+00	0	46	0	184549376	60	23417
2026-01-30 00:12:37.20	21.80	13.21	-53.1	-55.7	18.9	0.00e+00	0	46	0	186646528	60	23797
2026-01-30 00:12:38.20	21.75	13.31	-53.6	-55.8	19.1	0.00e+00	0	46	0	188743680	60	24127
2026-01-30 00:12:39.21	21.70	13.40	-53.9	-55.9	19.2	0.00e+00	0	46	0	190840832	60	24557
2026-01-30 00:12:40.21	21.65	13.50	-53.9	-56.0	19.5	0.00e+00	0	46	0	192937984	60	24598
2026-01-30 00:12:41.22	21.60	13.60	-53.9	-56.1	19.6	0.00e+00	0	46	0	195035136	60	25089
2026-01-30 00:12:42.22	21.55	13.70	-54.1	-56.4	19.3	0.00e+00	0	46	0	196083712	60	25904
2026-01-30 00:12:43.22	21.49	13.79	-54.2	-56.5	19.0	0.00e+00	0	46	0	198180864	60	26233
2026-01-30 00:12:44.22	21.44	13.89	-54.0	-56.2	19.3	0.00e+00	0	46	0	200278016	60	25174
2026-01-30 00:12:45.23	21.39	13.99	-54.0	-55.9	19.5	0.00e+00	0	46	0	202375168	60	24547
2026-01-30 00:12:46.24	21.34	14.09	-54.1	-55.9	19.7	0.00e+00	0	46	0	203423744	60	24557
2026-01-30 00:12:47.25	21.29	14.19	-54.0	-55.7	19.9	0.00e+00	0	46	0	205520896	60	23833
2026-01-30 00:12:48.26	21.23	14.29	-54.2	-55.8	19.7	0.00e+00	0	46	0	207618048	60	24285
2026-01-30 00:12:49.27	21.18	14.39	-54.1	-55.9	19.8	0.00e+00	0	46	0	209715200	60	24412
2026-01-30 00:12:50.27	21.12	14.49	-54.0	-55.9	19.9	0.00e+00	0	45	0	211812352	60	24431
2026-01-30 00:12:51.28	21.07	14.59	-54.0	-56.3	19.7	0.00e+00	0	46	0	212860928	60	25530
2026-01-30 00:12:52.29	21.01	14.70	-53.9	-56.4	19.4	0.00e+00	0	46	0	214958080	60	25866
2026-01-30 00:12:53.30	20.96	14.80	-53.8	-56.7	19.2	0.00e+00	0	46	0	217055232	60	26737
2026-01-30 00:12:54.31	20.90	14.90	-53.9	-56.9	18.9	0.00e+00	0	46	0	219152384	60	27451
2026-01-30 00:12:55.31	20.85	15.00	-54.1	-57.0	18.9	0.00e+00	0	46	0	221249536	60	27676
2026-01-30 00:12:56.32	20.79	15.11	-54.2	-56.9	18.8	0.00e+00	0	46	0	223346688	60	27507
2026-01-30 00:12:57.33	20.73	15.21	-54.5	-57.2	18.6	0.00e+00	0	46	0	224395264	60	28414
2026-01-30 00:12:58.33	20.68	15.31	-53.9	-56.2	19.6	0.00e+00	0	46	0	226492416	60	25269
2026-01-30 00:12:59.34	20.62	15.42	-53.3	-55.4	20.3	0.00e+00	0	46	0	228589568	60	23081
2026-01-30 00:13:00.35	20.56	15.52	-53.0	-54.9	20.7	0.00e+00	0	46	0	230686720	60	21901
2026-01-30 00:13:01.36	20.50	15.63	-52.8	-54.7	21.0	0.00e+00	0	46	0	231735296	60	21170
2026-01-30 00:13:02.36	20.44	15.74	-52.8	-54.7	20.7	0.00e+00	0	46	0	233832448	60	21234
2026-01-30 00:13:03.37	20.38	15.84	-52.8	-54.7	20.7	0.00e+00	0	46	0	235929600	60	21279
2026-01-30 00:13:04.37	20.32	15.95	-52.7	-54.7	20.7	0.00e+00	0	46	0	238026752	60	21259
2026-01-30 00:13:05.38	20.26	16.06	-52.7	-54.6	20.7	0.00e+00	0	46	0	240123904	60	21119
2026-01-30 00:13:06.38	20.20	16.16	-52.9	-54.6	20.8	0.00e+00	0	46	0	241172480	60	21083
2026-01-30 00:13:07.39	20.14	16.27	-53.1	-54.7	20.8	0.00e+00	0	46	0	243269632	60	21282
2026-01-30 00:13:08.39	20.08	16.38	-53.2	-54.7	21.0	0.00e+00	0	46	0	245366784	60	21200
2026-01-30 00:13:09.40	20.02	16.49	-53.3	-54.7	21.1	0.00e+00	0	46	0	247463936	60	21351
2026-01-30 00:13:10.41	19.95	16.60	-53.4	-54.9	21.0	0.00e+00	0	46	0	249561088	60	21722
2026-01-30 00:13:11.42	19.89	16.71	-53.4	-54.9	20.8	0.00e+00	0	46	0	251658240	60	21848
2026-01-30 00:13:12.42	19.83	16.82	-53.4	-55.0	20.9	0.00e+00	0	46	0	252706816	60	22008
2026-01-30 00:13:13.43	19.76	16.93	-53.5	-55.2	20.7	0.00e+00	0	46	0	254803968	60	22437
2026-01-30 00:13:14.43	19.70	17.04	-53.6	-55.2	20.5	0.00e+00	0	46	0	256901120	60	22618
2026-01-30 00:13:15.44	19.63	17.15	-53.7	-55.3	20.6	0.00e+00	0	46	0	258998272	60	22794
2026-01-30 00:13:16.45	19.57	17.26	-53.5	-55.2	20.5	0.00e+00	0	46	0	260046848	60	22660
2026-01-30 00:13:17.45	19.50	17.37	-53.4	-55.3	20.3	0.00e+00	0	46	0	262144000	60	22763
2026-01-30 00:13:18.46	19.43	17.49	-53.0	-55.2	20.3	0.00e+00	0	46	0	264241152	60	22596
2026-01-30 00:13:19.46	19.37	17.60	-52.8	-55.4	20.2	0.00e+00	0	46	0	266338304	60	23029
2026-01-30 00:13:20.47	19.30	17.71	-52.8	-55.4	20.1	0.00e+00	0	46	0	268435456	60	23174
2026-01-30 00:13:21.47	19.23	17.83	-52.6	-54.9	20.7	0.00e+00	0	46	0	269484032	60	21822
2026-01-30 00:13:22.48	19.16	17.94	-52.8	-54.6	21.2	0.00e+00	0	46	0	271581184	60	21071
2026-01-30 00:13:23.49	19.09	18.06	-52.7	-54.4	21.3	0.00e+00	0	46	0	273678336	60	20554
2026-01-30 00:13:24.49	19.02	18.18	-52.5	-54.4	21.1	0.00e+00	0	46	0	275775488	60	20622
2026-01-30 00:13:25.50	18.95	18.29	-52.1	-54.3	20.9	0.00e+00	0	46	0	277872640	60	20354
2026-01-30 00:13:26.51	18.88	18.41	-52.0	-54.3	20.8	0.00e+00	0	46	0	279969792	60	20382
2026-01-30 00:13:27.51	18.81	18.53	-52.0	-54.3	20.7	0.00e+00	0	46	0	281018368	60	20353
2026-01-30 00:13:28.52	18.74	18.64	-52.1	-54.2	20.8	0.00e+00	0	46	0	283115520	60	20117
2026-01-30 00:13:29.52	18.66	18.76	-52.4	-54.3	20.7	0.00e+00	0	46	0	285212672	60	20392
2026-01-30 00:13:30.53	18.59	18.88	-52.6	-54.3	20.8	0.00e+00	0	46	0	287309824	60	20257
2026-01-30 00:13:31.54	18.52	19.00	-52.8	-54.2	21.0	0.00e+00	0	46	0	288358400	60	20104
2026-01-30 00:13:32.54	18.44	19.12	-52.8	-54.2	21.3	0.00e+00	0	46	0	290455552	60	19981
2026-01-30 00:13:33.55	18.37	19.24	-52.8	-54.1	21.5	0.00e+00	0	46	0	292552704	60	19955
2026-01-30 00:13:34.55	18.29	19.36	-52.7	-54.3	21.5	0.00e+00	0	46	0	294649856	60	20267
2026-01-30 00:13:35.56	18.21	19.48	-52.7	-54.3	21.4	0.00e+00	0	46	0	296747008	60	20441
2026-01-30 00:13:36.56	18.14	19.61	-52.8	-54.5	21.1	0.00e+00	0	46	0	297795584	60	20695
2026-01-30 00:13:37.56	18.06	19.73	-52.9	-54.5	20.9	0.00e+00	0	46	0	299892736	60	20718
2026-01-30 00:13:38.56	17.98	19.85	-52.9	-54.3	21.1	0.00e+00	0	46	0	301989888	60	20386
2026-01-30 00:13:39.57	17.90	19.97	-52.9	-54.2	21.3	0.00e+00	0	46	0	304087040	60	20193
2026-01-30 00:13:40.57	17.82	20.10	-53.0	-54.3	21.5	0.00e+00	0	46	0	306184192	60	20383
2026-01-30 00:13:41.58	17.74	20.22	-53.0	-54.3	21.5	0.00e+00	0	46	0	307232768	60	20415
2026-01-30 00:13:42.58	17.66	20.35	-52.9	-54.4	21.5	0.00e+00	0	46	0	309329920	60	20539
2026-01-30 00:13:43.59	17.58	20.47	-52.7	-54.3	21.6	0.00e+00	0	46	0	311427072	60	20227
2026-01-30 00:13:44.60	17.50	20.60	-52.6	-54.2	21.7	0.00e+00	0	46	0	313524224	60	20104
2026-01-30 00:13:45.60	17.41	20.73	-52.5	-54.2	21.5	0.00e+00	0	46	0	315621376	60	20169
2026-01-30 00:13:46.60	17.33	20.86	-52.5	-54.3	21.5	0.00e+00	0	46	0	316669952	60	20210
2026-01-30 00:13:47.61	17.24	20.98	-52.6	-54.3	21.4	0.00e+00	0	46	0	318767104	60	20221
2026-01-30 00:13:48.62	17.16	21.11	-52.6	-54.2	21.5	0.00e+00	0	46	0	320864256	60	20120
2026-01-30 00:13:49.62	17.07	21.24	-52.7	-54.2	21.5	0.00e+00	0	46	0	322961408	60	20189
2026-01-30 00:13:50.62	16.98	21.37	-52.8	-54.3	21.5	0.00e+00	0	46	0	325058560	60	20275
2026-01-30 00:13:51.63	16.90	21.50	-52.9	-54.3	21.5	0.00e+00	0	46	0	326107136	60	20339
2026-01-30 00:13:52.63	16.81	21.63	-52.9	-54.3	21.5	0.00e+00	0	46	0	328204288	60	20304
2026-01-30 00:13:53.64	16.72	21.77	-53.0	-54.4	21.4	0.00e+00	0	46	0	330301440	60	20444
2026-01-30 00:13:54.64	16.63	21.90	-53.0	-54.4	21.6	0.00e+00	0	46	0	332398592	60	20449
2026-01-30 00:13:55.65	16.54	22.03	-53.1	-54.4	21.5	0.00e+00	0	46	0	334495744	60	20665
2026-01-30 00:13:56.65	16.45	22.16	-53.1	-54.4	21.6	0.00e+00	0	46	0	335544320	60	20525
2026-01-30 00:13:57.66	16.35	22.30	-53.0	-54.3	21.6	0.00e+00	0	46	0	337641472	60	20344
2026-01-30 00:13:58.66	16.26	22.43	-53.0	-54.3	21.6	0.00e+00	0	46	0	339738624	60	20381
2026-01-30 00:13:59.67	16.17	22.57	-52.9	-54.3	21.5	0.00e+00	0	46	0	341835776	60	20381
2026-01-30 00:14:00.66	16.07	22.70	-52.9	-54.3	21.5	0.00e+00	0	46	0	343932928	60	20225
2026-01-30 00:14:01.66	15.98	22.84	-53.0	-54.5	21.3	0.00e+00	0	46	0	344981504	60	20735
2026-01-30 00:14:02.66	15.88	22.98	-53.1	-54.5	21.2	0.00e+00	0	46	0	347078656	60	20770
2026-01-30 00:14:03.67	15.78	23.11	-53.3	-54.8	21.0	0.00e+00	0	46	0	349175808	60	21450
2026-01-30 00:14:04.67	15.68	23.25	-53.4	-54.8	20.9	0.00e+00	0	46	0	351272960	60	21557
2026-01-30 00:14:05.68	15.58	23.39	-53.5	-55.0	20.8	0.00e+00	0	46	0	352321536	60	21944
2026-01-30 00:14:06.68	15.48	23.53	-53.6	-55.1	20.8	0.00e+00	0	46	0	354418688	60	22210
2026-01-30 00:14:07.69	15.38	23.67	-53.6	-55.2	20.8	0.00e+00	0	46	0	356515840	60	22422
2026-01-30 00:14:08.69	15.28	23.81	-53.6	-55.2	20.7	0.00e+00	0	46	0	358612992	60	22605
2026-01-30 00:14:09.70	15.18	23.96	-54.0	-55.8	20.2	0.00e+00	0	46	0	360710144	60	24066
2026-01-30 00:14:10.71	15.07	24.10	-54.2	-56.1	20.0	0.00e+00	0	46	0	362807296	60	24950
2026-01-30 00:14:11.72	14.96	24.24	-54.5	-56.4	19.7	0.00e+00	0	46	0	363855872	60	25993
2026-01-30 00:14:12.72	14.86	24.39	-54.7	-56.7	19.4	0.00e+00	0	46	0	365953024	60	26708
2026-01-30 00:14:13.72	14.75	24.53	-54.7	-56.6	19.3	0.00e+00	0	46	0	368050176	60	26602
2026-01-30 00:14:14.73	14.64	24.68	-54.8	-56.9	19.1	0.00e+00	0	46	0	370147328	60	27277
2026-01-30 00:14:15.73	14.53	24.82	-54.8	-56.9	19.0	0.00e+00	0	46	0	372244480	60	27368
2026-01-30 00:14:16.74	14.42	24.97	-55.1	-57.2	18.7	0.00e+00	0	46	0	373293056	60	28458
2026-01-30 00:14:17.75	14.31	25.12	-55.4	-57.5	18.4	0.00e+00	0	46	0	375390208	60	29540
2026-01-30 00:14:18.76	14.20	25.27	-55.5	-57.5	18.6	0.00e+00	0	46	0	377487360	60	29420
2026-01-30 00:14:19.76	14.08	25.42	-55.8	-57.9	18.3	0.00e+00	0	46	0	379584512	60	30631
2026-01-30 00:14:20.76	13.97	25.56	-56.1	-58.4	18.0	0.00e+00	0	46	0	380633088	60	32491
2026-01-30 00:14:21.77	13.85	25.72	-56.0	-58.6	17.7	0.00e+00	0	46	0	382730240	60	33199
2026-01-30 00:14:22.78	13.74	25.87	-56.2	-59.0	17.0	0.00e+00	0	46	0	384827392	60	34850
2026-01-30 00:14:23.78	13.62	26.02	-56.3	-59.2	16.7	0.00e+00	0	46	0	386924544	60	35852
2026-01-30 00:14:24.78	13.50	26.17	-56.8	-59.7	16.2	0.00e+00	0	46	0	389021696	60	37952
2026-01-30 00:14:25.78	13.38	26.32	-57.2	-60.3	15.6	0.00e+00	0	46	0	390070272	60	40705
2026-01-30 00:14:26.79	13.26	26.48	-57.5	-60.7	15.4	0.00e+00	0	46	0	392167424	60	42317
2026-01-30 00:14:27.80	13.13	26.63	-57.6	-61.0	15.0	0.00e+00	0	46	0	394264576	60	43784
2026-01-30 00:14:28.81	13.01	26.79	-57.7	-61.5	14.2	0.00e+00	0	46	0	396361728	60	46752
2026-01-30 00:14:29.81	12.88	26.94	-57.7	-62.1	13.9	1.50e-06	0	46	0	398458880	60	49652
2026-01-30 00:14:30.81	12.76	27.10	-57.7	-62.6	13.5	1.67e-05	0	46	0	400556032	60	53035
2026-01-30 00:14:31.82	12.63	27.26	-57.7	-63.2	12.8	4.11e-05	0	46	0	401604608	60	56411
2026-01-30 00:14:32.83	12.50	27.42	-57.7	-63.8	12.2	1.02e-04	0	46	0	403701760	60	60566
2026-01-30 00:14:33.84	12.37	27.58	-57.8	-64.3	11.3	7.46e-04	0	46	0	405798912	60	64149
2026-01-30 00:14:34.85	12.23	27.74	-57.9	-64.7	10.6	1.77e-03	0	46	0	407896064	60	67195
2026-01-30 00:14:35.86	12.10	27.90	-57.9	-64.9	10.3	4.75e-03	0	46	0	408944640	60	68507
2026-01-30 00:14:36.86	11.97	28.06	-58.3	-65.2	10.5	4.16e-03	0	46	0	411041792	60	71398
2026-01-30 00:14:37.87	11.83	28.22	-58.7	-65.2	10.6	6.52e-03	0	46	0	413138944	60	71385
2026-01-30 00:14:38.87	11.69	28.39	-59.5	-65.7	9.3	6.56e-03	0	46	0	415236096	60	75458
2026-01-30 00:14:39.87	11.55	28.55	-59.9	-66.3	9.7	8.25e-03	0	46	0	417333248	60	80875
2026-01-30 00:14:40.88	11.41	28.71	-59.6	-65.7	10.5	1.51e-02	0	46	0	418381824	60	75332
2026-01-30 00:14:41.88	11.27	28.88	-58.7	-63.4	12.8	8.80e-04	0	46	0	420478976	60	57932
2026-01-30 00:14:42.89	11.13	29.04	-57.9	-61.6	14.6	1.50e-06	0	46	0	422576128	60	47289
2026-01-30 00:14:43.90	10.98	29.21	-56.9	-60.2	15.9	0.00e+00	0	46	0	424673280	60	40292
2026-01-30 00:14:44.90	10.83	29.38	-56.3	-59.4	16.7	0.00e+00	0	46	0	426770432	60	36646
2026-01-30 00:14:45.91	10.69	29.55	-55.9	-58.7	17.4	0.00e+00	0	46	0	428867584	60	33800
2026-01-30 00:14:46.92	10.53	29.72	-55.7	-58.2	18.0	0.00e+00	0	46	0	429916160	60	31936
2026-01-30 00:14:47.92	10.38	29.89	-55.7	-58.0	18.0	0.00e+00	0	46	0	432013312	60	31256
2026-01-30 00:14:48.93	10.23	30.06	-55.6	-57.7	18.4	0.00e+00	0	46	0	434110464	60	30099
2026-01-30 00:14:49.94	10.07	30.23	-55.5	-57.6	18.5	0.00e+00	0	46	0	436207616	60	29598
2026-01-30 00:14:50.94	9.92	30.40	-55.5	-57.5	18.7	0.00e+00	0	46	0	437256192	60	29236
2026-01-30 00:14:51.95	9.76	30.58	-55.7	-57.6	18.6	0.00e+00	0	46	0	439353344	60	29875
2026-01-30 00:14:52.96	9.60	30.75	-55.5	-57.4	18.9	0.00e+00	0	46	0	441450496	60	29109
2026-01-30 00:14:53.97	9.44	30.93	-55.4	-57.3	19.0	0.00e+00	0	46	0	443547648	60	28641
2026-01-30 00:14:54.98	9.27	31.10	-55.5	-57.6	18.7	0.00e+00	0	46	0	445644800	60	29608
2026-01-30 00:14:55.98	9.11	31.28	-55.5	-57.6	18.5	0.00e+00	0	46	0	446693376	60	29885
2026-01-30 00:14:56.99	8.94	31.46	-55.5	-57.7	18.4	0.00e+00	0	46	0	448790528	60	29978
2026-01-30 00:14:58.00	8.77	31.64	-55.4	-57.6	18.4	0.00e+00	0	46	0	450887680	60	29836
2026-01-30 00:14:59.00	8.60	31.81	-55.2	-57.4	18.6	0.00e+00	0	46	0	452984832	60	29088
2026-01-30 00:15:00.01	8.42	31.99	-55.3	-57.4	18.7	0.00e+00	0	46	0	455081984	60	28970
2026-01-30 00:15:01.02	8.25	32.17	-55.4	-57.5	18.6	0.00e+00	0	46	0	457179136	60	29513
2026-01-30 00:15:02.02	8.07	32.35	-55.3	-57.3	18.8	0.00e+00	0	46	0	458227712	60	28785
2026-01-30 00:15:03.03	7.89	32.54	-55.4	-57.4	18.8	0.00e+00	0	46	0	460324864	60	28997
2026-01-30 00:15:04.03	7.71	32.72	-55.5	-57.5	18.8	0.00e+00	0	46	0	462422016	60	29467
2026-01-30 00:15:05.04	7.53	32.90	-55.7	-57.7	18.6	0.00e+00	0	46	0	464519168	60	30162
2026-01-30 00:15:06.05	7.34	33.09	-56.0	-58.1	18.1	0.00e+00	0	46	0	465567744	60	31541
2026-01-30 00:15:07.06	7.15	33.27	-56.2	-58.4	17.9	0.00e+00	0	46	0	467664896	60	32581
2026-01-30 00:15:08.07	6.96	33.46	-56.3	-58.6	17.7	0.00e+00	0	46	0	469762048	60	33207
2026-01-30 00:15:09.07	6.77	33.65	-56.2	-58.4	17.9	0.00e+00	0	46	0	471859200	60	32705
2026-01-30 00:15:10.08	6.58	33.83	-56.2	-58.5	17.9	0.00e+00	0	46	0	473956352	60	32807
2026-01-30 00:15:11.08	6.38	34.02	-56.2	-58.5	17.8	0.00e+00	0	46	0	475004928	60	32915
2026-01-30 00:15:12.09	6.18	34.21	-56.3	-58.5	17.6	0.00e+00	0	46	0	477102080	60	33123
2026-01-30 00:15:13.10	5.98	34.40	-56.6	-59.0	17.4	0.00e+00	0	46	0	479199232	60	34809
2026-01-30 00:15:14.10	5.78	34.59	-56.9	-59.4	16.8	0.00e+00	0	46	0	481296384	60	36730
2026-01-30 00:15:15.11	5.57	34.78	-56.9	-59.5	16.8	0.00e+00	0	46	0	483393536	60	37015
2026-01-30 00:15:16.12	5.36	34.97	-56.9	-59.5	16.8	0.00e+00	0	46	0	485490688	60	37009
2026-01-30 00:15:17.12	5.15	35.17	-56.9	-59.5	16.7	0.00e+00	0	46	0	486539264	60	37167
2026-01-30 00:15:18.13	4.94	35.36	-56.7	-59.2	17.1	0.00e+00	0	46	0	488636416	60	35821
2026-01-30 00:15:19.13	4.72	35.55	-56.4	-58.8	17.5	0.00e+00	0	46	0	490733568	60	34039
2026-01-30 00:15:20.14	4.50	35.75	-56.7	-59.2	17.2	0.00e+00	0	46	0	492830720	60	35530
2026-01-30 00:15:21.14	4.28	35.94	-56.9	-59.4	17.0	0.00e+00	0	46	0	493879296	60	36507
2026-01-30 00:15:22.15	4.06	36.14	-56.8	-59.3	17.1	0.00e+00	0	46	0	495976448	60	35948
2026-01-30 00:15:23.16	3.83	36.34	-56.7	-59.2	17.0	0.00e+00	0	46	0	498073600	60	35824
2026-01-30 00:15:24.16	3.60	36.53	-56.7	-59.3	16.9	0.00e+00	0	46	0	500170752	60	36353
2026-01-30 00:15:25.17	3.37	36.73	-56.6	-59.2	17.1	0.00e+00	0	46	0	502267904	60	35869
2026-01-30 00:15:26.18	3.13	36.93	-56.4	-58.8	17.3	0.00e+00	0	46	0	503316480	60	34170
2026-01-30 00:15:27.18	2.89	37.13	-56.5	-59.0	17.1	0.00e+00	0	46	0	505413632	60	34989
2026-01-30 00:15:28.19	2.65	37.33	-56.7	-59.3	16.9	0.00e+00	0	46	0	507510784	60	36339
2026-01-30 00:15:29.20	2.40	37.53	-56.5	-59.1	17.0	0.00e+00	0	46	0	509607936	60	35143
2026-01-30 00:15:30.20	2.16	37.73	-56.6	-59.2	17.1	0.00e+00	0	46	0	511705088	60	35618
2026-01-30 00:15:31.20	1.91	37.93	-56.6	-59.1	17.4	0.00e+00	0	46	0	513802240	60	35372
2026-01-30 00:15:32.21	1.65	38.14	-56.5	-58.9	17.5	0.00e+00	0	46	0	514850816	60	34548
2026-01-30 00:15:33.22	1.40	38.34	-56.6	-59.0	17.3	0.00e+00	0	46	0	516947968	60	34745
2026-01-30 00:15:34.22	1.14	38.54	-56.8	-59.3	16.9	0.00e+00	0	46	0	519045120	60	36196
2026-01-30 00:15:35.23	0.87	38.75	-57.1	-59.7	16.6	0.00e+00	0	46	0	521142272	60	38048
2026-01-30 00:15:36.24	0.60	38.95	-57.3	-59.9	16.3	0.00e+00	0	46	0	522190848	60	38955
2026-01-30 00:15:37.24	0.33	39.16	-57.2	-59.9	16.5	0.00e+00	0	46	0	524288000	60	38587
2026-01-30 00:15:38.25	0.06	39.36	-57.0	-59.5	16.9	0.00e+00	0	46	0	526385152	60	37153
2026-01-30 00:15:39.26	359.78	39.57	-57.2	-59.9	16.5	0.00e+00	0	46	0	528482304	60	38694
2026-01-30 00:15:40.27	359.50	39.78	-57.3	-59.9	16.6	0.00e+00	0	46	0	530579456	60	38870
2026-01-30 00:15:41.28	359.21	39.99	-56.9	-59.2	17.3	0.00e+00	0	46	0	531628032	60	35872
2026-01-30 00:15:42.29	358.92	40.19	-56.8	-59.1	17.4	0.00e+00	0	46	0	533725184	60	35307
2026-01-30 00:15:43.30	358.63	40.40	-57.1	-59.5	17.1	0.00e+00	0	46	0	535822336	60	37001
2026-01-30 00:15:44.30	358.33	40.61	-57.0	-59.5	17.1	0.00e+00	0	46	0	537919488	60	36913
2026-01-30 00:15:45.31	358.03	40.82	-57.2	-59.8	16.7	0.00e+00	0	46	0	540016640	60	38094
2026-01-30 00:15:46.32	357.73	41.03	-57.2	-59.9	16.7	0.00e+00	0	46	0	542113792	60	38517
2026-01-30 00:15:47.32	357.42	41.24	-57.1	-59.6	17.1	0.00e+00	0	46	0	543162368	60	37328
2026-01-30 00:15:48.33	357.11	41.45	-56.8	-59.2	17.4	0.00e+00	0	46	0	545259520	60	35647
2026-01-30 00:15:49.33	356.79	41.65	-56.6	-58.9	17.8	0.00e+00	0	46	0	547356672	60	34415
2026-01-30 00:15:50.34	356.47	41.86	-56.3	-58.4	18.2	0.00e+00	0	46	0	549453824	60	32475
2026-01-30 00:15:51.35	356.15	42.08	-56.0	-58.1	18.5	0.00e+00	0	46	0	550502400	60	31341
2026-01-30 00:15:52.35	355.82	42.28	-55.7	-57.6	19.0	0.00e+00	0	46	0	552599552	60	29686
2026-01-30 00:15:53.36	355.49	42.49	-55.7	-57.5	18.9	0.00e+00	0	46	0	554696704	60	29536
2026-01-30 00:15:54.36	355.15	42.70	-55.6	-57.5	19.0	0.00e+00	0	46	0	556793856	60	29423
2026-01-30 00:15:55.37	354.81	42.91	-55.7	-57.6	18.9	0.00e+00	0	46	0	558891008	60	29818
2026-01-30 00:15:56.38	354.46	43.13	-55.8	-57.7	18.8	0.00e+00	0	46	0	559939584	60	30016
2026-01-30 00:15:57.39	354.11	43.34	-55.7	-57.6	19.0	0.00e+00	0	46	0	562036736	60	29657
2026-01-30 00:15:58.39	353.75	43.54	-55.8	-57.7	18.9	0.00e+00	0	46	0	564133888	60	30034
2026-01-30 00:15:59.40	353.39	43.76	-56.0	-57.9	18.5	0.00e+00	0	46	0	566231040	60	30814
2026-01-30 00:16:00.40	353.03	43.96	-56.1	-58.1	18.3	0.00e+00	0	46	0	568328192	60	31637
2026-01-30 00:16:01.41	352.65	44.17	-56.5	-58.7	17.9	0.00e+00	0	46	0	570425344	60	33601
2026-01-30 00:16:02.42	352.28	44.38	-56.7	-59.0	17.5	0.00e+00	0	46	0	571473920	60	34943
2026-01-30 00:16:03.42	351.90	44.59	-56.7	-59.0	17.5	0.00e+00	0	46	0	573571072	60	34953
2026-01-30 00:16:04.43	351.51	44.80	-57.1	-59.6	17.0	0.00e+00	0	46	0	575668224	60	37484
2026-01-30 00:16:05.43	351.12	45.01	-57.3	-59.9	16.6	0.00e+00	0	46	0	577765376	60	38816
2026-01-30 00:16:06.43	350.73	45.22	-57.3	-59.9	16.9	0.00e+00	0	46	0	578813952	60	38781
2026-01-30 00:16:07.44	350.33	45.42	-57.2	-59.7	17.2	0.00e+00	0	46	0	580911104	60	37675
2026-01-30 00:16:08.45	349.92	45.63	-56.5	-58.7	17.9	0.00e+00	0	46	0	583008256	60	33610
2026-01-30 00:16:09.45	349.51	45.84	-56.7	-59.0	17.6	0.00e+00	0	46	0	585105408	60	34882
2026-01-30 00:16:10.46	349.09	46.04	-57.1	-59.5	17.3	0.00e+00	0	46	0	587202560	60	37033
2026-01-30 00:16:11.47	348.67	46.25	-57.0	-59.5	17.2	0.00e+00	0	46	0	588251136	60	36841
2026-01-30 00:16:12.48	348.24	46.45	-56.8	-59.1	17.5	0.00e+00	0	46	0	590348288	60	35404
2026-01-30 00:16:13.48	347.81	46.66	-56.9	-59.2	17.5	0.00e+00	0	46	0	592445440	60	35928
2026-01-30 00:16:14.49	347.36	46.86	-57.1	-59.6	17.3	0.00e+00	0	46	0	594542592	60	37204
2026-01-30 00:16:15.49	346.92	47.06	-57.5	-60.1	16.7	0.00e+00	0	46	0	596639744	60	39724
2026-01-30 00:16:16.50	346.47	47.26	-57.5	-60.1	16.8	0.00e+00	0	46	0	597688320	60	39604
2026-01-30 00:16:17.51	346.01	47.46	-57.4	-59.9	16.9	0.00e+00	0	46	0	599785472	60	38715
2026-01-30 00:16:18.52	345.54	47.66	-57.2	-59.6	17.1	0.00e+00	0	46	0	601882624	60	37486
2026-01-30 00:16:19.52	345.08	47.86	-56.9	-59.2	17.5	0.00e+00	0	46	0	603979776	60	35784
2026-01-30 00:16:20.53	344.60	48.06	-56.7	-59.0	17.8	0.00e+00	0	46	0	606076928	60	34812
2026-01-30 00:16:21.53	344.12	48.25	-56.9	-59.1	17.6	0.00e+00	0	46	0	607125504	60	35412
2026-01-30 00:16:22.54	343.63	48.44	-56.7	-58.9	17.8	0.00e+00	0	46	0	609222656	60	34696
2026-01-30 00:16:23.54	343.14	48.64	-57.0	-59.3	17.4	0.00e+00	0	46	0	611319808	60	36292
2026-01-30 00:16:24.55	342.64	48.83	-57.1	-59.6	17.0	0.00e+00	0	46	0	613416960	60	37488
2026-01-30 00:16:25.55	342.14	49.02	-57.3	-59.8	17.2	0.00e+00	0	46	0	615514112	60	38227
2026-01-30 00:16:26.56	341.62	49.20	-56.7	-58.9	18.0	0.00e+00	0	46	0	616562688	60	34513
2026-01-30 00:16:27.57	341.10	49.39	-55.9	-57.8	18.9	0.00e+00	0	46	0	618659840	60	30514
2026-01-30 00:16:28.58	340.58	49.57	-55.4	-57.1	19.6	0.00e+00	0	46	0	620756992	60	28063
2026-01-30 00:16:29.58	340.05	49.76	-55.1	-56.7	20.0	0.00e+00	0	46	0	622854144	60	26854
2026-01-30 00:16:30.59	339.51	49.94	-55.0	-56.6	20.2	0.00e+00	0	46	0	624951296	60	26495
2026-01-30 00:16:31.60	338.96	50.12	-54.8	-56.3	20.5	0.00e+00	0	46	0	625999872	60	25487
2026-01-30 00:16:32.61	338.41	50.29	-54.4	-55.8	21.0	0.00e+00	0	46	0	628097024	60	24293
2026-01-30 00:16:33.62	337.85	50.47	-54.5	-55.9	21.0	0.00e+00	0	46	0	630194176	60	24388
2026-01-30 00:16:34.63	337.28	50.64	-54.4	-55.7	21.1	0.00e+00	0	46	0	632291328	60	23950
2026-01-30 00:16:35.63	336.72	50.81	-54.3	-55.6	21.2	0.00e+00	0	46	0	634388480	60	23693
2026-01-30 00:16:36.64	336.14	50.98	-54.5	-55.9	20.9	0.00e+00	0	46	0	635437056	60	24382
2026-01-30 00:16:37.64	335.56	51.14	-54.6	-56.0	20.8	0.00e+00	0	46	0	637534208	60	24680
2026-01-30 00:16:38.65	334.97	51.30	-54.5	-56.0	20.7	0.00e+00	0	46	0	639631360	60	24624
2026-01-30 00:16:39.66	334.37	51.46	-54.6	-56.0	20.9	0.00e+00	0	46	0	641728512	60	24630
2026-01-30 00:16:40.66	333.77	51.62	-54.4	-55.8	20.8	0.00e+00	0	46	0	643825664	60	24252
2026-01-30 00:16:41.67	333.16	51.77	-54.7	-56.1	20.8	0.00e+00	0	46	0	644874240	60	25100
2026-01-30 00:16:42.68	332.54	51.92	-54.2	-55.5	21.3	0.00e+00	0	46	0	646971392	60	23465
2026-01-30 00:16:43.68	331.93	52.07	-53.9	-55.2	21.5	0.00e+00	0	46	0	649068544	60	22485
2026-01-30 00:16:44.68	331.30	52.21	-54.1	-55.4	21.4	0.00e+00	0	46	0	651165696	60	23056
2026-01-30 00:16:45.69	330.67	52.35	-54.2	-55.6	21.2	0.00e+00	0	46	0	653262848	60	23547
2026-01-30 00:16:46.70	330.02	52.49	-54.6	-56.1	20.7	0.00e+00	0	46	0	654311424	60	24892
2026-01-30 00:16:47.71	329.38	52.63	-54.9	-56.5	20.4	0.00e+00	0	46	0	656408576	60	26097
2026-01-30 00:16:48.71	328.73	52.76	-54.7	-56.2	20.6	0.00e+00	0	46	0	658505728	60	25273
2026-01-30 00:16:49.72	328.07	52.89	-54.6	-56.0	20.7	0.00e+00	0	46	0	660602880	60	24744
2026-01-30 00:16:50.72	327.41	53.01	-54.6	-56.0	20.7	0.00e+00	0	46	0	662700032	60	24825
2026-01-30 00:16:51.73	326.74	53.13	-54.6	-56.0	20.9	0.00e+00	0	46	0	663748608	60	24749
2026-01-30 00:16:52.74	326.06	53.25	-54.2	-55.6	21.2	0.00e+00	0	46	0	665845760	60	23617
2026-01-30 00:16:53.74	325.39	53.36	-53.8	-55.1	21.6	0.00e+00	0	46	0	667942912	60	22321
2026-01-30 00:16:54.75	324.70	53.47	-53.7	-54.9	21.8	0.00e+00	0	46	0	670040064	60	21868
2026-01-30 00:16:55.76	324.01	53.57	-53.4	-54.6	22.0	0.00e+00	0	46	0	672137216	60	21071
2026-01-30 00:16:56.76	323.32	53.67	-53.3	-54.5	22.0	0.00e+00	0	46	0	673185792	60	20815
2026-01-30 00:16:57.77	322.62	53.77	-53.2	-54.4	22.2	0.00e+00	0	46	0	675282944	60	20613
2026-01-30 00:16:58.78	321.91	53.87	-53.0	-54.2	22.4	0.00e+00	0	46	0	677380096	60	20180
2026-01-30 00:16:59.78	321.20	53.95	-53.1	-54.3	22.2	0.00e+00	0	46	0	679477248	60	20347
2026-01-30 00:17:00.79	320.49	54.04	-53.2	-54.4	22.2	0.00e+00	0	46	0	681574400	60	20599
2026-01-30 00:17:01.80	319.77	54.12	-52.9	-54.1	22.4	0.00e+00	0	46	0	682622976	60	19895
2026-01-30 00:17:02.81	319.05	54.19	-52.6	-53.8	22.8	0.00e+00	0	46	0	684720128	60	19096
2026-01-30 00:17:03.82	318.32	54.26	-52.4	-53.5	23.0	0.00e+00	0	46	0	686817280	60	18467
2026-01-30 00:17:04.82	317.60	54.33	-52.1	-53.2	23.1	0.00e+00	0	46	0	688914432	60	17936
2026-01-30 00:17:05.83	316.86	54.39	-51.8	-52.9	23.5	0.00e+00	0	46	0	691011584	60	17282
2026-01-30 00:17:06.84	316.12	54.45	-51.5	-52.5	23.7	0.00e+00	0	46	0	692060160	60	16616
2026-01-30 00:17:07.85	315.38	54.50	-51.5	-52.5	23.9	0.00e+00	0	46	0	694157312	60	16562
2026-01-30 00:17:08.86	314.64	54.55	-51.2	-52.2	24.1	0.00e+00	0	46	0	696254464	60	15944
2026-01-30 00:17:09.86	313.90	54.59	-51.3	-52.2	24.1	0.00e+00	0	46	0	698351616	60	16039
2026-01-30 00:17:10.87	313.16	54.63	-51.3	-52.2	24.1	0.00e+00	0	46	0	700448768	60	16016
2026-01-30 00:17:11.88	312.41	54.66	-51.2	-52.2	24.1	0.00e+00	0	46	0	701497344	60	15995
2026-01-30 00:17:12.88	311.66	54.69	-51.2	-52.2	24.0	0.00e+00	0	46	0	703594496	60	15967
2026-01-30 00:17:13.88	310.92	54.71	-51.3	-52.3	23.8	0.00e+00	0	46	0	705691648	60	16222
2026-01-30 00:17:14.89	310.17	54.73	-51.1	-52.2	24.0	0.00e+00	0	46	0	707788800	60	15898
2026-01-30 00:17:15.90	309.41	54.75	-51.0	-52.0	24.1	0.00e+00	0	46	0	709885952	60	15621
2026-01-30 00:17:16.91	308.66	54.75	-51.1	-52.1	24.0	0.00e+00	0	46	0	711983104	60	15865
2026-01-30 00:17:17.90	307.92	54.76	-51.5	-52.6	22.8	0.00e+00	0	46	0	713031680	60	16627
2026-01-30 00:17:18.91	307.16	54.76	-51.6	-52.6	23.6	0.00e+00	0	46	0	715128832	60	16740
2026-01-30 00:17:19.91	306.42	54.75	-51.4	-52.5	23.8	0.00e+00	0	46	0	717225984	60	16438
2026-01-30 00:17:20.92	305.66	54.74	-51.7	-52.7	23.5	0.00e+00	0	46	0	719323136	60	16964
2026-01-30 00:17:21.93	304.91	54.72	-51.8	-52.9	23.4	0.00e+00	0	46	0	720371712	60	17313
2026-01-30 00:17:22.94	304.16	54.70	-52.0	-53.1	23.3	0.00e+00	0	46	0	722468864	60	17749
2026-01-30 00:17:23.94	303.41	54.68	-52.3	-53.4	23.0	0.00e+00	0	46	0	724566016	60	18425
2026-01-30 00:17:24.94	302.67	54.65	-52.5	-53.6	22.9	0.00e+00	0	46	0	726663168	60	18836
2026-01-30 00:17:25.95	301.92	54.61	-52.2	-53.3	23.2	0.00e+00	0	46	0	728760320	60	18152
2026-01-30 00:17:26.96	301.17	54.57	-52.0	-53.1	23.5	0.00e+00	0	46	0	729808896	60	17642
2026-01-30 00:17:27.97	300.43	54.52	-51.8	-52.8	23.5	0.00e+00	0	46	0	731906048	60	17136
2026-01-30 00:17:28.98	299.69	54.47	-51.5	-52.5	23.6	0.00e+00	0	46	0	734003200	60	16617
2026-01-30 00:17:29.98	298.96	54.42	-51.8	-52.8	23.7	0.00e+00	0	46	0	736100352	60	17143
2026-01-30 00:17:30.99	298.22	54.36	-51.9	-53.0	23.4	0.00e+00	0	46	0	738197504	60	17510
2026-01-30 00:17:32.00	297.49	54.30	-52.0	-53.1	23.4	0.00e+00	0	46	0	739246080	60	17617
2026-01-30 00:17:33.00	296.77	54.23	-51.5	-52.5	23.8	0.00e+00	0	46	0	741343232	60	16578
2026-01-30 00:17:34.01	296.04	54.15	-51.2	-52.2	24.1	0.00e+00	0	46	0	743440384	60	16028
2026-01-30 00:17:35.02	295.32	54.08	-51.1	-52.1	24.2	0.00e+00	0	46	0	745537536	60	15729
2026-01-30 00:17:36.02	294.61	53.99	-51.0	-52.0	24.1	0.00e+00	0	46	0	747634688	60	15642
2026-01-30 00:17:37.03	293.89	53.91	-51.0	-52.0	24.3	0.00e+00	0	46	0	748683264	60	15643
2026-01-30 00:17:38.04	293.19	53.82	-51.0	-52.0	24.3	0.00e+00	0	46	0	750780416	60	15656
2026-01-30 00:17:39.05	292.48	53.72	-50.9	-51.9	24.3	0.00e+00	0	46	0	752877568	60	15394
2026-01-30 00:17:40.05	291.79	53.62	-50.9	-51.9	24.3	0.00e+00	0	46	0	754974720	60	15485
2026-01-30 00:17:41.06	291.09	53.52	-50.9	-52.0	24.2	0.00e+00	0	46	0	757071872	60	15513
2026-01-30 00:17:42.06	290.41	53.41	-51.0	-52.1	24.0	0.00e+00	0	46	0	758120448	60	15724
2026-01-30 00:17:43.07	289.72	53.30	-51.3	-52.4	23.8	0.00e+00	0	46	0	760217600	60	16252
2026-01-30 00:17:44.08	289.04	53.19	-51.4	-52.5	23.7	0.00e+00	0	46	0	762314752	60	16437
2026-01-30 00:17:45.08	288.38	53.07	-51.4	-52.5	23.8	0.00e+00	0	46	0	764411904	60	16461
2026-01-30 00:17:46.09	287.71	52.95	-51.7	-52.8	23.5	0.00e+00	0	46	0	766509056	60	17083
2026-01-30 00:17:47.09	287.05	52.82	-51.8	-52.9	23.3	0.00e+00	0	46	0	767557632	60	17331
2026-01-30 00:17:48.10	286.39	52.69	-51.9	-52.9	23.3	0.00e+00	0	46	0	769654784	60	17365
2026-01-30 00:17:49.10	285.75	52.56	-52.1	-53.2	23.0	0.00e+00	0	46	0	771751936	60	17823
2026-01-30 00:17:50.10	285.11	52.42	-52.6	-53.8	22.4	0.00e+00	0	46	0	773849088	60	19120
2026-01-30 00:17:51.10	284.48	52.28	-53.2	-54.5	21.8	0.00e+00	0	46	0	775946240	60	20845
2026-01-30 00:17:52.11	283.84	52.14	-53.8	-55.2	21.4	0.00e+00	0	46	0	776994816	60	22418
2026-01-30 00:17:53.12	283.22	51.99	-53.9	-55.4	21.2	0.00e+00	0	46	0	779091968	60	23021
2026-01-30 00:17:54.12	282.60	51.84	-53.8	-55.2	21.2	0.00e+00	0	46	0	781189120	60	22594
2026-01-30 00:17:55.12	281.99	51.69	-53.7	-55.1	21.3	0.00e+00	0	46	0	783286272	60	22363
2026-01-30 00:17:56.13	281.38	51.54	-53.7	-55.1	21.3	0.00e+00	0	46	0	785383424	60	22257
2026-01-30 00:17:57.14	280.78	51.38	-54.0	-55.4	21.0	0.00e+00	0	46	0	786432000	60	23172
2026-01-30 00:17:58.15	280.19	51.22	-54.2	-55.8	20.6	0.00e+00	0	46	0	788529152	60	24097
2026-01-30 00:17:59.15	279.60	51.05	-54.2	-55.8	20.4	0.00e+00	0	46	0	790626304	60	24209
2026-01-30 00:18:00.16	279.02	50.89	-54.2	-55.9	20.4	0.00e+00	0	46	0	792723456	60	24459
2026-01-30 00:18:01.17	278.44	50.72	-54.2	-56.0	20.4	0.00e+00	0	46	0	794820608	60	24599
2026-01-30 00:18:02.17	277.88	50.55	-53.9	-55.5	20.6	0.00e+00	0	46	0	795869184	60	23453
2026-01-30 00:18:03.18	277.32	50.38	-53.9	-55.5	20.6	0.00e+00	0	46	0	797966336	60	23334
2026-01-30 00:18:04.18	276.76	50.20	-54.2	-55.9	20.2	0.00e+00	0	46	0	800063488	60	24543
2026-01-30 00:18:05.19	276.21	50.02	-54.2	-56.1	20.1	0.00e+00	0	46	0	802160640	60	24982
2026-01-30 00:18:06.19	275.67	49.84	-54.4	-56.4	19.7	0.00e+00	0	46	0	804257792	60	25889
2026-01-30 00:18:07.20	275.14	49.66	-54.7	-56.8	19.5	0.00e+00	0	46	0	805306368	60	27017
2026-01-30 00:18:08.21	274.61	49.48	-54.8	-56.9	19.3	0.00e+00	0	46	0	807403520	60	27485
2026-01-30 00:18:09.22	274.08	49.29	-54.7	-56.8	19.4	0.00e+00	0	46	0	809500672	60	27100
2026-01-30 00:18:10.22	273.57	49.11	-54.6	-56.6	19.5	0.00e+00	0	46	0	811597824	60	26489
2026-01-30 00:18:11.23	273.06	48.92	-54.5	-56.4	19.7	0.00e+00	0	46	0	813694976	60	25910
2026-01-30 00:18:12.24	272.55	48.73	-54.7	-56.7	19.4	0.00e+00	0	46	0	814743552	60	26706
2026-01-30 00:18:13.24	272.06	48.53	-55.1	-57.3	18.8	0.00e+00	0	46	0	816840704	60	28746
2026-01-30 00:18:14.25	271.56	48.34	-55.3	-57.4	18.7	0.00e+00	0	46	0	818937856	60	29156
2026-01-30 00:18:15.25	271.08	48.15	-55.7	-58.0	18.2	0.00e+00	0	46	0	821035008	60	31011
2026-01-30 00:18:16.26	270.60	47.95	-55.9	-58.4	17.8	0.00e+00	0	46	0	823132160	60	32656
2026-01-30 00:18:17.27	270.13	47.75	-56.1	-58.7	17.5	0.00e+00	0	46	0	824180736	60	33724
2026-01-30 00:18:18.27	269.66	47.55	-56.1	-58.7	17.3	0.00e+00	0	46	0	826277888	60	33772
2026-01-30 00:18:19.28	269.20	47.35	-56.5	-59.4	16.8	0.00e+00	0	46	0	828375040	60	36375
2026-01-30 00:18:20.29	268.74	47.15	-56.8	-59.7	16.2	0.00e+00	0	46	0	830472192	60	37962
2026-01-30 00:18:21.29	268.30	46.95	-57.1	-60.2	16.0	0.00e+00	0	46	0	832569344	60	40071
2026-01-30 00:18:22.30	267.85	46.75	-57.3	-60.5	15.8	0.00e+00	0	46	0	833617920	60	41386
2026-01-30 00:18:23.30	267.41	46.55	-57.4	-60.7	15.6	0.00e+00	0	46	0	835715072	60	42496
2026-01-30 00:18:24.31	266.98	46.34	-57.2	-60.4	15.9	0.00e+00	0	46	0	837812224	60	40962
2026-01-30 00:18:25.31	266.56	46.14	-56.7	-59.4	16.7	0.00e+00	0	46	0	839909376	60	36660
2026-01-30 00:18:26.32	266.13	45.93	-56.5	-59.2	17.0	0.00e+00	0	46	0	842006528	60	35638
2026-01-30 00:18:27.33	265.72	45.72	-56.6	-59.4	16.7	0.00e+00	0	46	0	843055104	60	36362
2026-01-30 00:18:28.34	265.31	45.51	-56.9	-59.8	16.4	0.00e+00	0	46	0	845152256	60	38290
2026-01-30 00:18:29.34	264.90	45.31	-56.7	-59.5	16.5	0.00e+00	0	46	0	847249408	60	37090
2026-01-30 00:18:30.35	264.50	45.10	-56.3	-58.8	17.3	0.00e+00	0	46	0	849346560	60	34123
2026-01-30 00:18:31.35	264.11	44.89	-56.2	-58.7	17.4	0.00e+00	0	46	0	851443712	60	33593
2026-01-30 00:18:32.36	263.72	44.68	-56.3	-58.8	17.3	0.00e+00	0	46	0	852492288	60	34202
2026-01-30 00:18:33.37	263.34	44.47	-56.3	-58.9	17.2	0.00e+00	0	46	0	854589440	60	34383
2026-01-30 00:18:34.37	262.96	44.26	-56.3	-58.8	17.2	0.00e+00	0	46	0	856686592	60	34098
2026-01-30 00:18:35.38	262.59	44.05	-56.1	-58.6	17.4	0.00e+00	0	46	0	858783744	60	33163
2026-01-30 00:18:36.38	262.22	43.84	-56.1	-58.4	17.7	0.00e+00	0	46	0	860880896	60	32651
2026-01-30 00:18:37.39	261.85	43.63	-55.7	-57.8	18.2	0.00e+00	0	46	0	861929472	60	30496
2026-01-30 00:18:38.39	261.50	43.42	-55.4	-57.5	18.4	0.00e+00	0	46	0	864026624	60	29296
2026-01-30 00:18:39.40	261.14	43.21	-55.3	-57.3	18.7	0.00e+00	0	46	0	866123776	60	28651
2026-01-30 00:18:40.40	260.79	43.00	-55.3	-57.3	18.5	0.00e+00	0	46	0	868220928	60	28740
2026-01-30 00:18:41.41	260.45	42.79	-55.6	-57.8	18.1	0.00e+00	0	46	0	870318080	60	30442
2026-01-30 00:18:42.42	260.11	42.58	-55.8	-58.1	17.8	0.00e+00	0	46	0	871366656	60	31581
2026-01-30 00:18:43.42	259.77	42.37	-55.8	-58.0	17.8	0.00e+00	0	46	0	873463808	60	31286
2026-01-30 00:18:44.43	259.44	42.16	-55.7	-57.9	17.9	0.00e+00	0	46	0	875560960	60	30772
2026-01-30 00:18:45.44	259.11	41.95	-55.7	-58.0	17.9	0.00e+00	0	46	0	877658112	60	31062
2026-01-30 00:18:46.45	258.78	41.74	-55.9	-58.1	17.7	0.00e+00	0	46	0	879755264	60	31513
2026-01-30 00:18:47.46	258.46	41.52	-56.1	-58.5	17.4	0.00e+00	0	46	0	880803840	60	32982
2026-01-30 00:18:48.47	258.15	41.31	-56.2	-58.6	17.2	0.00e+00	0	46	0	882900992	60	33333
2026-01-30 00:18:49.47	257.84	41.11	-56.4	-59.0	16.7	0.00e+00	0	46	0	884998144	60	34815
2026-01-30 00:18:50.48	257.53	40.90	-56.7	-59.4	16.3	0.00e+00	0	46	0	887095296	60	36662
2026-01-30 00:18:51.48	257.23	40.69	-56.8	-59.6	16.4	0.00e+00	0	46	0	889192448	60	37593
2026-01-30 00:18:52.49	256.93	40.48	-56.5	-59.2	16.7	0.00e+00	0	46	0	890241024	60	35596
2026-01-30 00:18:53.50	256.64	40.27	-56.7	-59.4	16.2	0.00e+00	0	46	0	892338176	60	36744
2026-01-30 00:18:54.50	256.35	40.06	-56.9	-59.7	16.1	0.00e+00	0	46	0	894435328	60	37923
2026-01-30 00:18:55.51	256.06	39.85	-57.2	-60.3	15.5	0.00e+00	0	46	0	896532480	60	40555
2026-01-30 00:18:56.52	255.77	39.65	-57.2	-60.4	15.4	0.00e+00	0	46	0	898629632	60	41182
2026-01-30 00:18:57.53	255.49	39.44	-56.9	-59.8	16.0	0.00e+00	0	46	0	899678208	60	38258
2026-01-30 00:18:58.54	255.21	39.23	-56.8	-59.6	16.2	0.00e+00	0	46	0	901775360	60	37471
2026-01-30 00:18:59.55	254.94	39.02	-56.6	-59.2	16.6	0.00e+00	0	46	0	903872512	60	35859
2026-01-30 00:19:00.55	254.67	38.82	-56.5	-59.1	16.7	0.00e+00	0	46	0	905969664	60	35146
2026-01-30 00:19:01.56	254.41	38.61	-56.1	-58.6	17.2	0.00e+00	0	46	0	908066816	60	33232
2026-01-30 00:19:02.56	254.14	38.41	-56.0	-58.4	17.4	0.00e+00	0	46	0	909115392	60	32447
2026-01-30 00:19:03.56	253.89	38.21	-56.2	-58.6	16.9	0.00e+00	0	46	0	911212544	60	33489
2026-01-30 00:19:04.57	253.63	38.00	-56.3	-58.7	17.1	0.00e+00	0	46	0	913309696	60	33838
2026-01-30 00:19:05.58	253.38	37.80	-56.3	-58.7	17.1	0.00e+00	0	46	0	915406848	60	33774
2026-01-30 00:19:06.58	253.13	37.60	-56.2	-58.5	17.4	0.00e+00	0	46	0	917504000	60	33001
2026-01-30 00:19:07.59	252.88	37.40	-56.1	-58.4	17.5	0.00e+00	0	46	0	918552576	60	32633
2026-01-30 00:19:08.60	252.64	37.20	-56.1	-58.4	17.5	0.00e+00	0	46	0	920649728	60	32594
2026-01-30 00:19:09.60	252.40	37.00	-56.3	-58.8	17.1	0.00e+00	0	46	0	922746880	60	34160
2026-01-30 00:19:10.61	252.16	36.80	-56.4	-58.9	17.1	0.00e+00	0	46	0	924844032	60	34533
2026-01-30 00:19:11.62	251.92	36.60	-56.0	-58.2	17.8	0.00e+00	0	46	0	926941184	60	31887
2026-01-30 00:19:12.62	251.69	36.40	-55.6	-57.6	18.5	0.00e+00	0	46	0	927989760	60	29797
2026-01-30 00:19:13.63	251.46	36.20	-55.5	-57.5	18.4	0.00e+00	0	46	0	930086912	60	29539
2026-01-30 00:19:14.63	251.24	36.00	-55.7	-57.8	18.2	0.00e+00	0	46	0	932184064	60	30319
2026-01-30 00:19:15.64	251.01	35.81	-55.7	-57.8	18.0	0.00e+00	0	46	0	934281216	60	30485
2026-01-30 00:19:16.65	250.79	35.61	-55.9	-58.0	17.8	0.00e+00	0	46	0	936378368	60	31298
2026-01-30 00:19:17.66	250.57	35.41	-56.1	-58.4	17.7	0.00e+00	0	46	0	937426944	60	32566
2026-01-30 00:19:18.67	250.36	35.22	-56.1	-58.3	17.7	0.00e+00	0	46	0	939524096	60	32312
2026-01-30 00:19:19.67	250.14	35.03	-56.0	-58.2	17.7	0.00e+00	0	46	0	941621248	60	31841
2026-01-30 00:19:20.68	249.93	34.83	-56.1	-58.4	17.6	0.00e+00	0	46	0	943718400	60	32436
2026-01-30 00:19:21.69	249.72	34.64	-56.1	-58.4	17.6	0.00e+00	0	46	0	945815552	60	32605
2026-01-30 00:19:22.70	249.52	34.45	-56.0	-58.3	17.6	0.00e+00	0	46	0	946864128	60	32120
2026-01-30 00:19:23.70	249.32	34.26	-55.8	-57.9	18.0	0.00e+00	0	46	0	948961280	60	30897
2026-01-30 00:19:24.71	249.11	34.07	-56.0	-58.3	17.5	0.00e+00	0	46	0	951058432	60	32275
2026-01-30 00:19:25.71	248.92	33.88	-56.2	-58.6	17.3	0.00e+00	0	46	0	953155584	60	33194
2026-01-30 00:19:26.72	248.72	33.69	-56.5	-59.1	17.0	0.00e+00	0	46	0	955252736	60	35345
2026-01-30 00:19:27.73	248.53	33.50	-56.5	-59.1	16.9	0.00e+00	0	46	0	956301312	60	35179
2026-01-30 00:19:28.73	248.34	33.32	-56.5	-59.0	16.9	0.00e+00	0	46	0	958398464	60	35079
2026-01-30 00:19:29.74	248.15	33.13	-56.6	-59.3	16.6	0.00e+00	0	46	0	960495616	60	35946
2026-01-30 00:19:30.75	247.96	32.95	-57.0	-59.8	16.2	0.00e+00	0	46	0	962592768	60	38454
2026-01-30 00:19:31.76	247.77	32.76	-57.0	-59.9	16.1	0.00e+00	0	46	0	964689920	60	38655
2026-01-30 00:19:32.76	247.59	32.58	-56.4	-59.0	16.8	0.00e+00	0	46	0	965738496	60	34930
2026-01-30 00:19:33.77	247.41	32.39	-55.8	-58.1	17.6	0.00e+00	0	46	0	967835648	60	31496
2026-01-30 00:19:34.78	247.23	32.21	-55.6	-57.7	18.0	0.00e+00	0	46	0	969932800	60	30152
2026-01-30 00:19:35.79	247.05	32.03	-55.3	-57.4	18.3	0.00e+00	0	46	0	972029952	60	29011
2026-01-30 00:19:36.80	246.88	31.85	-55.1	-57.1	18.5	0.00e+00	0	46	0	974127104	60	28080
2026-01-30 00:19:37.80	246.71	31.67	-55.2	-57.2	18.5	0.00e+00	0	46	0	975175680	60	28345
2026-01-30 00:19:38.81	246.53	31.49	-55.1	-57.0	18.6	0.00e+00	0	46	0	977272832	60	27761
2026-01-30 00:19:39.82	246.37	31.31	-55.2	-57.2	18.5	0.00e+00	0	46	0	979369984	60	28482
2026-01-30 00:19:40.82	246.20	31.14	-55.2	-57.2	18.4	0.00e+00	0	46	0	981467136	60	28295
2026-01-30 00:19:41.83	246.03	30.96	-55.3	-57.4	18.0	0.00e+00	0	46	0	983564288	60	29120
2026-01-30 00:19:42.84	245.87	30.78	-55.5	-57.6	17.9	0.00e+00	0	46	0	984612864	60	29867
2026-01-30 00:19:43.84	245.71	30.61	-55.7	-57.9	17.6	0.00e+00	0	46	0	986710016	60	30873
2026-01-30 00:19:44.84	245.55	30.44	-55.6	-57.8	17.8	0.00e+00	0	46	0	988807168	60	30405
2026-01-30 00:19:45.85	245.39	30.26	-55.4	-57.5	18.1	0.00e+00	0	46	0	990904320	60	29403
2026-01-30 00:19:46.86	245.23	30.09	-55.3	-57.4	18.2	0.00e+00	0	46	0	993001472	60	29055
2026-01-30 00:19:47.86	245.08	29.92	-55.2	-57.2	18.4	0.00e+00	0	46	0	994050048	60	28532
2026-01-30 00:19:48.87	244.93	29.75	-54.9	-56.9	18.6	0.00e+00	0	46	0	996147200	60	27297
2026-01-30 00:19:49.88	244.78	29.57	-55.1	-57.1	18.5	0.00e+00	0	46	0	998244352	60	27970
2026-01-30 00:19:50.88	244.63	29.41	-55.1	-57.2	18.3	0.00e+00	0	46	0	1000341504	60	28394
2026-01-30 00:19:51.89	244.48	29.24	-55.2	-57.3	18.2	0.00e+00	0	46	0	1002438656	60	28591
2026-01-30 00:19:52.90	244.33	29.07	-55.2	-57.3	18.1	0.00e+00	0	46	0	1003487232	60	28679
2026-01-30 00:19:53.91	244.19	28.90	-55.3	-57.4	18.0	0.00e+00	0	46	0	1005584384	60	29131
2026-01-30 00:19:54.92	244.04	28.73	-55.3	-57.4	17.8	0.00e+00	0	46	0	1007681536	60	28985
2026-01-30 00:19:55.92	243.90	28.57	-55.4	-57.5	17.7	0.00e+00	0	46	0	1009778688	60	29358
2026-01-30 00:19:56.93	243.76	28.40	-55.2	-57.3	18.3	0.00e+00	0	46	0	1011875840	60	28587
2026-01-30 00:19:57.93	243.62	28.24	-54.6	-56.5	19.1	0.00e+00	0	46	0	1012924416	60	26062
2026-01-30 00:19:58.94	243.48	28.08	-54.5	-56.3	19.3	0.00e+00	0	46	0	1015021568	60	25616
2026-01-30 00:19:59.95	243.35	27.91	-54.5	-56.3	19.2	0.00e+00	0	46	0	1017118720	60	25470
2026-01-30 00:20:00.95	243.21	27.75	-54.5	-56.3	19.2	0.00e+00	0	46	0	1019215872	60	25724
2026-01-30 00:20:01.96	243.08	27.59	-54.4	-56.1	19.2	0.00e+00	0	46	0	1021313024	60	25082
2026-01-30 00:20:02.97	242.95	27.43	-54.5	-56.4	19.2	0.00e+00	0	46	0	1022361600	60	25799
2026-01-30 00:20:03.97	242.82	27.27	-54.5	-56.3	19.1	0.00e+00	0	46	0	1024458752	60	25731
2026-01-30 00:20:04.98	242.69	27.11	-54.9	-56.9	18.6	0.00e+00	0	46	0	1026555904	60	27318
2026-01-30 00:20:05.98	242.56	26.96	-55.0	-57.0	18.5	0.00e+00	0	46	0	1028653056	60	27666
2026-01-30 00:20:06.99	242.43	26.80	-55.1	-57.1	18.3	0.00e+00	0	46	0	1030750208	60	28188
2026-01-30 00:20:08.00	242.31	26.64	-55.2	-57.3	18.2	0.00e+00	0	46	0	1031798784	60	28556
2026-01-30 00:20:09.01	242.18	26.49	-55.2	-57.3	18.1	0.00e+00	0	46	0	1033895936	60	28793
2026-01-30 00:20:10.02	242.06	26.33	-55.3	-57.4	17.8	0.00e+00	0	46	0	1035993088	60	29086
2026-01-30 00:20:11.03	241.94	26.18	-55.4	-57.7	17.8	0.00e+00	0	46	0	1038090240	60	30026
2026-01-30 00:20:12.03	241.82	26.02	-55.2	-57.4	18.1	0.00e+00	0	46	0	1040187392	60	28880
2026-01-30 00:20:13.04	241.70	25.87	-54.7	-56.6	18.8	0.00e+00	0	46	0	1041235968	60	26459
2026-01-30 00:20:14.05	241.58	25.72	-54.3	-56.1	19.2	0.00e+00	0	46	0	1043333120	60	25123
2026-01-30 00:20:15.06	241.46	25.57	-54.3	-56.1	19.2	0.00e+00	0	46	0	1045430272	60	24990
2026-01-30 00:20:16.06	241.34	25.42	-54.3	-56.1	19.3	0.00e+00	0	46	0	1047527424	60	25017
2026-01-30 00:20:17.07	241.23	25.27	-54.3	-56.1	19.3	0.00e+00	0	46	0	1049624576	60	25007
2026-01-30 00:20:18.07	241.12	25.12	-54.4	-56.2	19.1	0.00e+00	0	46	0	1050673152	60	25365
2026-01-30 00:20:19.08	241.00	24.97	-54.4	-56.3	18.9	0.00e+00	0	46	0	1052770304	60	25688
2026-01-30 00:20:20.08	240.89	24.82	-54.5	-56.4	18.9	0.00e+00	0	46	0	1054867456	60	25827
2026-01-30 00:20:21.09	240.78	24.68	-54.5	-56.5	18.7	0.00e+00	0	46	0	1056964608	60	26173
2026-01-30 00:20:22.10	240.67	24.53	-54.5	-56.4	18.8	0.00e+00	0	46	0	1059061760	60	25944
2026-01-30 00:20:23.11	240.56	24.38	-54.6	-56.5	18.7	0.00e+00	0	46	0	1060110336	60	26328
2026-01-30 00:20:24.11	240.46	24.24	-54.7	-56.7	18.7	0.00e+00	0	46	0	1062207488	60	26750
2026-01-30 00:20:25.12	240.35	24.09	-54.8	-56.8	18.5	0.00e+00	0	46	0	1064304640	60	27183
2026-01-30 00:20:26.13	240.24	23.95	-54.6	-56.6	18.7	0.00e+00	0	46	0	1066401792	60	26338
2026-01-30 00:20:27.13	240.14	23.81	-54.4	-56.2	19.2	0.00e+00	0	46	0	1068498944	60	25229
2026-01-30 00:20:28.14	240.04	23.67	-53.8	-55.5	19.8	0.00e+00	0	46	0	1069547520	60	23302
2026-01-30 00:20:29.15	239.93	23.52	-53.5	-55.1	20.1	0.00e+00	0	46	0	1071644672	60	22331
2026-01-30 00:20:30.15	239.83	23.38	-53.5	-55.1	20.2	0.00e+00	0	46	0	1073741824	60	22208
2026-01-30 00:20:31.16	239.73	23.24	-53.5	-55.0	20.2	0.00e+00	0	46	0	1075838976	60	22079
2026-01-30 00:20:32.16	239.63	23.10	-53.5	-55.1	20.1	0.00e+00	0	46	0	1077936128	60	22223
2026-01-30 00:20:33.17	239.53	22.96	-53.5	-55.1	20.1	0.00e+00	0	46	0	1078984704	60	22341
2026-01-30 00:20:34.18	239.43	22.83	-53.7	-55.3	20.0	0.00e+00	0	46	0	1081081856	60	22740
2026-01-30 00:20:35.18	239.34	22.69	-53.7	-55.4	19.8	0.00e+00	0	46	0	1083179008	60	23103
2026-01-30 00:20:36.18	239.24	22.55	-53.8	-55.4	19.7	0.00e+00	0	46	0	1085276160	60	23193
2026-01-30 00:20:37.19	239.15	22.42	-53.8	-55.5	19.6	0.00e+00	0	46	0	1087373312	60	23306
2026-01-30 00:20:38.20	239.05	22.28	-53.8	-55.5	19.6	0.00e+00	0	46	0	1088421888	60	23367
2026-01-30 00:20:39.21	238.96	22.14	-53.8	-55.5	19.6	0.00e+00	0	46	0	1090519040	60	23466
2026-01-30 00:20:40.22	238.87	22.01	-53.8	-55.6	19.6	0.00e+00	0	46	0	1092616192	60	23494
2026-01-30 00:20:41.23	238.77	21.88	-53.9	-55.7	19.6	0.00e+00	0	46	0	1094713344	60	23753
2026-01-30 00:20:42.23	238.68	21.74	-53.8	-55.5	19.7	0.00e+00	0	46	0	1096810496	60	23401
2026-01-30 00:20:43.24	238.59	21.61	-53.9	-55.7	19.5	0.00e+00	0	46	0	1097859072	60	23760
2026-01-30 00:20:44.24	238.50	21.48	-53.8	-55.5	19.7	0.00e+00	0	46	0	1099956224	60	23461
2026-01-30 00:20:45.25	238.41	21.35	-53.7	-55.4	19.7	0.00e+00	0	46	0	1102053376	60	23063
2026-01-30 00:20:46.25	238.33	21.22	-53.7	-55.3	19.8	0.00e+00	0	46	0	1104150528	60	22932
2026-01-30 00:20:47.26	238.24	21.09	-53.6	-55.3	19.9	0.00e+00	0	46	0	1106247680	60	22734
2026-01-30 00:20:48.26	238.15	20.96	-53.5	-55.2	19.8	0.00e+00	0	46	0	1107296256	60	22576
2026-01-30 00:20:49.26	238.07	20.83	-53.6	-55.3	19.8	0.00e+00	0	46	0	1109393408	60	22692
2026-01-30 00:20:50.27	237.98	20.70	-53.6	-55.3	19.7	0.00e+00	0	46	0	1111490560	60	22750
2026-01-30 00:20:51.27	237.90	20.57	-53.7	-55.5	19.5	0.00e+00	0	46	0	1113587712	60	23263
2026-01-30 00:20:52.27	237.82	20.45	-53.8	-55.5	19.4	0.00e+00	0	46	0	1115684864	60	23452
2026-01-30 00:20:53.27	237.73	20.32	-53.9	-55.7	19.3	0.00e+00	0	46	0	1116733440	60	23908
2026-01-30 00:20:54.27	237.65	20.20	-53.9	-55.6	19.2	0.00e+00	0	46	0	1118830592	60	23706
2026-01-30 00:20:55.28	237.57	20.07	-54.0	-55.8	19.2	0.00e+00	0	46	0	1120927744	60	24141
2026-01-30 00:20:56.29	237.49	19.95	-54.0	-55.8	19.3	0.00e+00	0	46	0	1123024896	60	24180
2026-01-30 00:20:57.29	237.41	19.82	-53.9	-55.8	19.2	0.00e+00	0	46	0	1124073472	60	24080
2026-01-30 00:20:58.30	237.33	19.70	-53.9	-55.7	19.3	0.00e+00	0	46	0	1126170624	60	23912
2026-01-30 00:20:59.30	237.25	19.58	-53.8	-55.6	19.3	0.00e+00	0	46	0	1128267776	60	23647
2026-01-30 00:21:00.31	237.17	19.45	-53.7	-55.4	19.5	0.00e+00	0	46	0	1130364928	60	23126
2026-01-30 00:21:01.32	237.10	19.33	-53.6	-55.3	19.6	0.00e+00	0	46	0	1132462080	60	22817
2026-01-30 00:21:02.33	237.02	19.21	-53.4	-55.0	19.9	0.00e+00	0	46	0	1134559232	60	22065
2026-01-30 00:21:03.33	236.94	19.09	-53.2	-54.9	20.0	0.00e+00	0	46	0	1135607808	60	21684
2026-01-30 00:21:04.34	236.87	18.97	-53.2	-54.8	20.1	0.00e+00	0	46	0	1137704960	60	21446
2026-01-30 00:21:05.34	236.79	18.85	-53.0	-54.6	20.3	0.00e+00	0	46	0	1139802112	60	20963
2026-01-30 00:21:06.35	236.72	18.73	-53.0	-54.5	20.3	0.00e+00	0	46	0	1141899264	60	20805
2026-01-30 00:21:07.35	236.65	18.61	-53.0	-54.6	20.2	0.00e+00	0	46	0	1143996416	60	20948
2026-01-30 00:21:08.36	236.57	18.49	-53.0	-54.6	20.1	0.00e+00	0	46	0	1145044992	60	21055
2026-01-30 00:21:09.36	236.50	18.37	-53.0	-54.6	20.1	0.00e+00	0	46	0	1147142144	60	21023
2026-01-30 00:21:10.37	236.43	18.26	-53.1	-54.8	20.0	0.00e+00	0	46	0	1149239296	60	21429
