passes_logs/2026/01/30/R3.2S-Naryan-Mar/R3.2S-Naryan-Mar__20260130_050740_NOAA_20_JPSS-1_rec.log

#Pass ID: 20260130_050740_NOAA 20 (JPSS-1)
#Satellite: NOAA 20 (JPSS-1)
#Configuration: NOAA 20
#almurnet v.1.7.20240730
#Start time: 2026-01-30 05:07:40

#Version: 2.2.20231116
#Station: R3.2S-Naryan-Mar
#Location: 53.008057 lon 67.646978 lat
#TLE: 1 43013U 17073A   26029.42702672  .00000137  00000+0  85918-4 0  9993
#TLE: 2 43013  98.7646 330.2153 0000804  19.9045 340.2162 14.19525092424781

#Time	Az	El	Level	Level2	SNR	BER	BlckErr	Temp	State	Recorded	gain1	gain2
2026-01-30 05:07:40.85	83.72	0.04	-58.9	-78.0	3.5	1.51e+00	0	43	0	0	60	311566
2026-01-30 05:07:41.85	83.66	0.09	-59.0	-78.3	3.6	1.51e+00	0	44	104	0	60	320918
2026-01-30 05:07:42.85	83.61	0.15	-59.6	-78.5	3.6	1.51e+00	0	44	104	0	60	328864
2026-01-30 05:07:43.86	83.55	0.20	-59.3	-78.0	3.6	1.51e+00	0	45	104	0	60	310722
2026-01-30 05:07:44.87	83.49	0.26	-57.8	-77.2	3.6	1.51e+00	0	44	104	0	60	284914
2026-01-30 05:07:45.87	83.44	0.31	-56.6	-77.3	3.6	1.51e+00	0	45	104	0	60	286660
2026-01-30 05:07:46.88	83.38	0.37	-56.5	-76.1	3.6	1.51e+00	0	45	104	0	60	251333
2026-01-30 05:07:47.88	83.32	0.42	-58.2	-77.5	3.6	1.51e+00	0	45	104	0	60	294340
2026-01-30 05:07:48.89	83.27	0.48	-59.1	-78.2	3.6	1.51e+00	0	45	104	0	60	318421
2026-01-30 05:07:49.89	83.21	0.53	-57.7	-78.5	3.6	1.51e+00	0	45	104	0	60	330802
2026-01-30 05:07:50.90	83.15	0.59	-59.6	-78.6	3.6	1.51e+00	0	45	104	0	60	333386
2026-01-30 05:07:51.91	83.09	0.64	-61.7	-78.9	3.6	1.51e+00	0	45	104	0	60	346209
2026-01-30 05:07:52.92	83.03	0.70	-60.1	-78.5	3.6	1.51e+00	0	45	104	0	60	328449
2026-01-30 05:07:53.93	82.98	0.75	-62.6	-79.4	3.6	1.51e+00	0	45	104	0	60	364149
2026-01-30 05:07:54.94	82.92	0.81	-61.2	-79.2	3.6	1.51e+00	0	45	104	0	60	355943
2026-01-30 05:07:55.95	82.86	0.87	-61.4	-79.1	3.6	1.51e+00	0	45	104	0	60	354127
2026-01-30 05:07:56.95	82.80	0.92	-60.0	-78.2	3.6	1.51e+00	0	45	104	0	60	317686
2026-01-30 05:07:57.96	82.74	0.98	-61.0	-79.0	3.6	1.51e+00	0	45	104	0	60	350198
2026-01-30 05:07:58.97	82.68	1.03	-60.5	-78.9	3.6	1.51e+00	0	45	104	0	60	343678
2026-01-30 05:07:59.98	82.62	1.09	-61.0	-78.4	3.6	1.51e+00	0	45	104	0	60	324066
2026-01-30 05:08:00.99	82.56	1.14	-62.0	-78.6	3.6	1.51e+00	0	45	104	0	60	334857
2026-01-30 05:08:01.99	82.50	1.20	-60.3	-77.7	3.6	1.51e+00	0	45	104	0	60	301409
2026-01-30 05:08:03.00	82.44	1.26	-57.2	-76.7	3.6	1.51e+00	0	45	104	0	60	268716
2026-01-30 05:08:04.00	82.38	1.31	-60.8	-78.1	3.6	1.51e+00	0	45	104	0	60	315438
2026-01-30 05:08:05.01	82.32	1.37	-61.1	-77.9	3.6	1.51e+00	0	45	104	0	60	307828
2026-01-30 05:08:06.02	82.26	1.42	-60.0	-77.6	3.6	1.51e+00	0	45	104	0	60	296058
2026-01-30 05:08:07.03	82.20	1.48	-60.2	-77.7	3.5	1.51e+00	0	45	104	0	60	302066
2026-01-30 05:08:08.03	82.13	1.54	-60.6	-77.6	3.6	1.51e+00	0	45	104	0	60	297163
2026-01-30 05:08:09.04	82.07	1.59	-59.0	-77.2	3.6	1.51e+00	0	45	104	0	60	285169
2026-01-30 05:08:10.05	82.01	1.65	-60.2	-77.3	3.6	1.51e+00	0	45	104	0	60	287457
2026-01-30 05:08:11.06	81.95	1.71	-59.4	-77.1	3.6	1.51e+00	0	45	104	0	60	279313
2026-01-30 05:08:12.06	81.88	1.76	-59.4	-77.0	3.5	1.51e+00	0	45	104	0	60	278867
2026-01-30 05:08:13.07	81.82	1.82	-59.4	-77.0	3.6	1.51e+00	0	45	104	0	60	277383
2026-01-30 05:08:14.08	81.76	1.88	-59.4	-77.1	3.6	1.51e+00	0	45	104	0	60	279397
2026-01-30 05:08:15.08	81.70	1.93	-59.4	-77.0	3.6	1.51e+00	0	45	104	0	60	277410
2026-01-30 05:08:16.09	81.63	1.99	-59.4	-77.0	3.6	1.51e+00	0	45	104	0	60	276666
2026-01-30 05:08:17.09	81.57	2.05	-59.3	-77.0	3.6	1.51e+00	0	45	104	0	60	276376
2026-01-30 05:08:18.10	81.50	2.11	-59.4	-77.0	3.6	1.51e+00	0	45	104	0	60	276341
2026-01-30 05:08:19.10	81.44	2.16	-59.3	-77.0	3.6	1.51e+00	0	45	104	0	60	277154
2026-01-30 05:08:20.10	81.38	2.22	-59.3	-76.9	3.6	1.51e+00	0	45	104	0	60	274940
2026-01-30 05:08:21.11	81.31	2.28	-59.3	-76.9	3.6	1.51e+00	0	45	104	0	60	274708
2026-01-30 05:08:22.11	81.25	2.34	-59.3	-77.0	3.6	1.51e+00	0	45	104	0	60	277434
2026-01-30 05:08:23.12	81.18	2.39	-59.3	-76.9	3.6	1.51e+00	0	45	104	0	60	274317
2026-01-30 05:08:24.12	81.11	2.45	-59.3	-77.0	3.6	1.51e+00	0	45	104	0	60	277774
2026-01-30 05:08:25.13	81.05	2.51	-59.3	-77.0	3.6	1.51e+00	0	45	104	0	60	276359
2026-01-30 05:08:26.13	80.98	2.57	-59.3	-76.9	3.6	1.51e+00	0	45	104	0	60	275177
2026-01-30 05:08:27.14	80.92	2.62	-59.3	-77.0	3.6	1.51e+00	0	45	104	0	60	276235
2026-01-30 05:08:28.15	80.85	2.68	-59.4	-77.0	3.6	1.51e+00	0	45	104	0	60	278944
2026-01-30 05:08:29.16	80.78	2.74	-59.3	-77.0	3.6	1.51e+00	0	45	104	0	60	277247
2026-01-30 05:08:30.17	80.71	2.80	-59.3	-77.0	3.6	1.51e+00	0	45	104	0	60	275992
2026-01-30 05:08:31.17	80.65	2.86	-59.3	-77.0	3.6	1.51e+00	0	45	104	0	60	276890
2026-01-30 05:08:32.18	80.58	2.92	-59.3	-76.9	3.6	1.51e+00	0	45	104	0	60	274271
2026-01-30 05:08:33.19	80.51	2.97	-59.3	-77.0	3.6	1.51e+00	0	45	104	0	60	275871
2026-01-30 05:08:34.19	80.44	3.03	-59.3	-76.9	3.6	1.51e+00	0	45	104	0	60	274694
2026-01-30 05:08:35.20	80.37	3.09	-59.3	-77.0	3.6	1.51e+00	0	45	104	0	60	276592
2026-01-30 05:08:36.21	80.30	3.15	-59.3	-76.9	3.6	1.51e+00	0	45	104	0	60	275505
2026-01-30 05:08:37.21	80.23	3.21	-59.3	-76.9	3.6	1.51e+00	0	45	104	0	60	273945
2026-01-30 05:08:38.22	80.16	3.27	-59.2	-76.8	3.6	1.51e+00	0	46	104	0	60	272557
2026-01-30 05:08:39.23	80.09	3.33	-59.3	-76.9	3.6	1.51e+00	0	45	104	0	60	273961
2026-01-30 05:08:40.23	80.02	3.39	-59.3	-76.8	3.6	1.51e+00	0	45	104	0	60	272174
2026-01-30 05:08:41.24	79.95	3.44	-59.2	-76.8	3.6	1.51e+00	0	45	104	0	60	271546
2026-01-30 05:08:42.25	79.88	3.50	-59.2	-76.8	3.6	1.51e+00	0	45	104	0	60	272120
2026-01-30 05:08:43.26	79.81	3.56	-59.2	-76.7	3.6	1.51e+00	0	45	104	0	60	269410
2026-01-30 05:08:44.26	79.74	3.62	-59.2	-76.8	3.6	1.51e+00	0	45	104	0	60	271679
2026-01-30 05:08:45.27	79.67	3.68	-59.1	-76.7	3.6	1.51e+00	0	45	104	0	60	268619
2026-01-30 05:08:46.28	79.59	3.74	-59.2	-76.8	3.6	1.51e+00	0	45	104	0	60	269673
2026-01-30 05:08:47.28	79.52	3.80	-59.1	-76.8	3.6	1.51e+00	0	45	104	0	60	271541
2026-01-30 05:08:48.29	79.45	3.86	-59.2	-76.8	3.6	1.51e+00	0	45	104	0	60	272497
2026-01-30 05:08:49.30	79.38	3.92	-59.1	-76.7	3.6	1.51e+00	0	45	104	0	60	268075
2026-01-30 05:08:50.30	79.30	3.98	-59.1	-76.7	3.6	1.51e+00	0	45	104	0	60	268651
2026-01-30 05:08:51.31	79.23	4.04	-59.1	-76.7	3.6	1.51e+00	0	45	104	0	60	267925
2026-01-30 05:08:52.32	79.16	4.10	-59.1	-76.7	3.6	1.51e+00	0	45	104	0	60	268440
2026-01-30 05:08:53.32	79.08	4.16	-59.0	-76.7	3.6	1.51e+00	0	45	104	0	60	266856
2026-01-30 05:08:54.33	79.01	4.22	-59.1	-76.7	3.6	1.51e+00	0	45	104	0	60	267712
2026-01-30 05:08:55.33	78.93	4.28	-59.0	-76.6	3.6	1.51e+00	0	45	104	0	60	265061
2026-01-30 05:08:56.34	78.86	4.34	-59.0	-76.6	3.6	1.51e+00	0	45	104	0	60	264805
2026-01-30 05:08:57.34	78.78	4.40	-59.0	-76.7	3.6	1.51e+00	0	45	104	0	60	266554
2026-01-30 05:08:58.35	78.71	4.46	-59.0	-76.6	3.6	1.51e+00	0	46	104	0	60	264301
2026-01-30 05:08:59.36	78.63	4.52	-59.0	-76.7	3.6	1.51e+00	0	45	104	0	60	266809
2026-01-30 05:09:00.37	78.55	4.58	-59.0	-76.6	3.6	1.51e+00	0	46	104	0	60	266163
2026-01-30 05:09:01.38	78.48	4.65	-58.9	-76.7	3.6	1.51e+00	0	45	104	0	60	268055
2026-01-30 05:09:02.39	78.40	4.71	-58.9	-76.8	3.6	1.51e+00	0	45	104	0	60	269541
2026-01-30 05:09:03.39	78.32	4.77	-58.9	-76.7	3.6	1.51e+00	0	45	104	0	60	267437
2026-01-30 05:09:04.40	78.24	4.83	-58.9	-76.8	3.6	1.51e+00	0	46	104	0	60	270159
2026-01-30 05:09:05.41	78.16	4.89	-58.9	-76.7	3.6	1.51e+00	0	45	104	0	60	268212
2026-01-30 05:09:06.42	78.09	4.95	-58.9	-76.7	3.6	1.51e+00	0	45	104	0	60	268592
2026-01-30 05:09:07.42	78.01	5.01	-59.1	-76.6	3.6	1.51e+00	0	46	104	0	60	264302
2026-01-30 05:09:08.43	77.93	5.07	-59.1	-76.3	3.6	1.51e+00	0	45	104	0	60	257322
2026-01-30 05:09:09.44	77.85	5.14	-59.1	-76.0	3.6	1.51e+00	0	46	104	0	60	246084
2026-01-30 05:09:10.45	77.77	5.20	-59.1	-75.5	3.6	1.51e+00	0	46	104	0	60	233797
2026-01-30 05:09:11.46	77.69	5.26	-59.1	-75.4	3.6	1.51e+00	0	45	104	0	60	229835
2026-01-30 05:09:12.47	77.61	5.32	-59.1	-75.0	3.6	1.51e+00	0	46	104	0	60	220619
2026-01-30 05:09:13.47	77.53	5.38	-59.1	-74.7	3.6	1.51e+00	0	46	104	0	60	212917
2026-01-30 05:09:14.48	77.44	5.45	-59.0	-73.4	4.0	1.50e+00	0	46	104	0	60	182338
2026-01-30 05:09:15.49	77.36	5.51	-58.9	-70.3	4.8	1.16e+00	0	46	0	0	60	128202
2026-01-30 05:09:16.50	77.28	5.57	-58.8	-68.1	6.8	2.76e-01	0	46	0	2097152	60	99187
2026-01-30 05:09:17.50	77.20	5.63	-58.5	-66.2	9.0	5.89e-02	0	46	0	4194304	60	79688
2026-01-30 05:09:18.50	77.11	5.69	-58.1	-64.5	10.9	7.63e-03	0	45	0	6291456	60	65714
2026-01-30 05:09:19.51	77.03	5.76	-57.7	-63.0	12.6	8.38e-04	0	46	0	8388608	60	55470
2026-01-30 05:09:20.52	76.95	5.82	-57.2	-61.9	13.8	7.60e-06	0	46	0	9437184	60	48821
2026-01-30 05:09:21.52	76.86	5.88	-56.9	-61.1	14.5	3.00e-06	0	45	0	11534336	60	44659
2026-01-30 05:09:22.53	76.78	5.95	-56.6	-60.6	15.0	0.00e+00	0	46	0	13631488	60	42061
2026-01-30 05:09:23.54	76.69	6.01	-56.5	-60.5	15.2	0.00e+00	0	46	0	15728640	60	41600
2026-01-30 05:09:24.54	76.61	6.07	-56.4	-60.5	15.3	0.00e+00	0	46	0	17825792	60	41287
2026-01-30 05:09:25.55	76.52	6.13	-56.7	-60.0	15.8	0.00e+00	0	45	0	18874368	60	39254
2026-01-30 05:09:26.56	76.44	6.20	-56.4	-59.7	15.9	0.00e+00	0	45	0	20971520	60	38061
2026-01-30 05:09:27.56	76.35	6.26	-58.2	-64.0	12.2	2.25e-02	0	45	0	23068672	60	61982
2026-01-30 05:09:28.56	76.27	6.32	-55.7	-60.2	15.4	2.20e-06	0	45	0	25165824	60	40110
2026-01-30 05:09:29.57	76.18	6.39	-57.7	-62.0	14.0	1.72e-04	0	45	0	27262976	60	49403
2026-01-30 05:09:30.58	76.09	6.45	-55.9	-60.6	14.9	0.00e+00	0	46	0	28311552	60	41773
2026-01-30 05:09:31.58	76.00	6.51	-55.7	-60.5	15.1	0.00e+00	0	45	0	30408704	60	41601
2026-01-30 05:09:32.59	75.92	6.58	-55.3	-60.2	15.2	0.00e+00	0	45	0	32505856	60	40296
2026-01-30 05:09:33.60	75.83	6.64	-55.5	-60.3	15.1	0.00e+00	0	45	0	34603008	60	40520
2026-01-30 05:09:34.60	75.74	6.71	-56.0	-60.7	14.8	0.00e+00	0	45	0	36700160	60	42536
2026-01-30 05:09:35.60	75.65	6.77	-56.5	-60.8	14.9	0.00e+00	0	45	0	37748736	60	42934
2026-01-30 05:09:36.61	75.56	6.83	-56.9	-60.6	15.3	0.00e+00	0	45	0	39845888	60	42131
2026-01-30 05:09:37.61	75.47	6.90	-56.7	-60.0	16.0	0.00e+00	0	45	0	41943040	60	39372
2026-01-30 05:09:38.62	75.38	6.96	-56.5	-59.8	16.1	0.00e+00	0	46	0	44040192	60	38481
2026-01-30 05:09:39.63	75.29	7.03	-56.1	-60.0	15.4	0.00e+00	0	45	0	46137344	60	38997
2026-01-30 05:09:40.63	75.20	7.09	-55.7	-59.8	15.3	0.00e+00	0	46	0	47185920	60	38311
2026-01-30 05:09:41.64	75.10	7.15	-55.7	-59.9	15.4	0.00e+00	0	46	0	49283072	60	38931
2026-01-30 05:09:42.65	75.01	7.22	-56.5	-60.1	16.0	0.00e+00	0	46	0	51380224	60	39837
2026-01-30 05:09:43.66	74.92	7.28	-56.7	-60.0	16.2	0.00e+00	0	46	0	53477376	60	39342
2026-01-30 05:09:44.66	74.83	7.35	-57.1	-60.1	15.8	0.00e+00	0	45	0	55574528	60	39434
2026-01-30 05:09:45.67	74.73	7.41	-57.2	-60.1	16.0	7.00e-07	0	46	0	56623104	60	39604
2026-01-30 05:09:46.68	74.64	7.48	-57.2	-60.1	16.0	0.00e+00	0	45	0	58720256	60	39662
2026-01-30 05:09:47.69	74.54	7.54	-57.1	-60.3	16.1	0.00e+00	0	46	0	60817408	60	40688
2026-01-30 05:09:48.70	74.45	7.61	-56.5	-59.9	16.1	0.00e+00	0	46	0	62914560	60	38806
2026-01-30 05:09:49.71	74.35	7.68	-56.6	-60.0	15.8	0.00e+00	0	45	0	65011712	60	39004
2026-01-30 05:09:50.71	74.26	7.74	-56.4	-60.0	16.1	0.00e+00	0	45	0	66060288	60	39147
2026-01-30 05:09:51.72	74.16	7.81	-56.0	-60.1	16.1	0.00e+00	0	46	0	68157440	60	39731
2026-01-30 05:09:52.73	74.06	7.87	-55.9	-60.0	16.1	0.00e+00	0	46	0	70254592	60	38967
2026-01-30 05:09:53.74	73.97	7.94	-55.9	-59.7	16.3	0.00e+00	0	46	0	72351744	60	37722
2026-01-30 05:09:54.74	73.87	8.00	-56.0	-59.7	16.4	0.00e+00	0	46	0	74448896	60	37963
2026-01-30 05:09:55.75	73.77	8.07	-56.2	-59.8	16.7	0.00e+00	0	46	0	75497472	60	38083
2026-01-30 05:09:56.76	73.67	8.13	-56.2	-59.5	16.6	0.00e+00	0	46	0	77594624	60	36804
2026-01-30 05:09:57.76	73.57	8.20	-56.1	-59.6	16.7	0.00e+00	0	45	0	79691776	60	37603
2026-01-30 05:09:58.77	73.47	8.27	-56.6	-59.8	16.4	0.00e+00	0	45	0	81788928	60	38257
2026-01-30 05:09:59.77	73.37	8.33	-57.2	-60.0	16.4	0.00e+00	0	46	0	83886080	60	38987
2026-01-30 05:10:00.78	73.27	8.40	-57.0	-60.1	16.3	0.00e+00	0	45	0	84934656	60	39634
2026-01-30 05:10:01.79	73.17	8.46	-56.7	-60.2	15.9	0.00e+00	0	45	0	87031808	60	40187
2026-01-30 05:10:02.79	73.07	8.53	-56.6	-59.8	16.3	0.00e+00	0	46	0	89128960	60	38465
2026-01-30 05:10:03.80	72.97	8.60	-56.7	-59.6	16.7	0.00e+00	0	46	0	91226112	60	37255
2026-01-30 05:10:04.80	72.87	8.66	-56.7	-59.4	16.9	0.00e+00	0	46	0	93323264	60	36680
2026-01-30 05:10:05.81	72.77	8.73	-56.9	-59.5	17.0	0.00e+00	0	46	0	94371840	60	37045
2026-01-30 05:10:06.82	72.66	8.80	-56.9	-59.7	16.9	0.00e+00	0	46	0	96468992	60	37638
2026-01-30 05:10:07.83	72.56	8.86	-56.7	-59.5	17.2	0.00e+00	0	46	0	98566144	60	36948
2026-01-30 05:10:08.84	72.45	8.93	-56.4	-59.3	17.2	0.00e+00	0	46	0	100663296	60	36306
2026-01-30 05:10:09.85	72.35	9.00	-56.0	-59.3	17.1	0.00e+00	0	45	0	102760448	60	35969
2026-01-30 05:10:10.85	72.24	9.07	-56.5	-59.3	17.2	0.00e+00	0	45	0	103809024	60	36108
2026-01-30 05:10:11.86	72.14	9.13	-56.5	-59.3	17.0	0.00e+00	0	46	0	105906176	60	36300
2026-01-30 05:10:12.87	72.03	9.20	-56.7	-59.5	16.8	0.00e+00	0	45	0	108003328	60	36942
2026-01-30 05:10:13.88	71.92	9.27	-57.0	-59.6	17.0	0.00e+00	0	46	0	110100480	60	37571
2026-01-30 05:10:14.88	71.82	9.34	-56.6	-59.5	16.6	0.00e+00	0	46	0	112197632	60	37091
2026-01-30 05:10:15.89	71.71	9.40	-56.6	-59.4	17.1	0.00e+00	0	45	0	113246208	60	36663
2026-01-30 05:10:16.89	71.60	9.47	-56.4	-59.6	16.9	0.00e+00	0	45	0	115343360	60	37258
2026-01-30 05:10:17.90	71.49	9.54	-55.9	-59.8	16.2	0.00e+00	0	46	0	117440512	60	38084
2026-01-30 05:10:18.90	71.38	9.61	-56.5	-59.9	16.3	0.00e+00	0	45	0	119537664	60	38777
2026-01-30 05:10:19.91	71.27	9.67	-57.0	-60.0	16.7	0.00e+00	0	45	0	121634816	60	39092
2026-01-30 05:10:20.92	71.16	9.74	-56.8	-59.9	16.9	0.00e+00	0	45	0	122683392	60	38846
2026-01-30 05:10:21.93	71.05	9.81	-56.8	-60.2	16.6	0.00e+00	0	45	0	124780544	60	39976
2026-01-30 05:10:22.93	70.94	9.88	-56.8	-60.2	16.5	0.00e+00	0	45	0	126877696	60	40070
2026-01-30 05:10:23.94	70.83	9.95	-56.3	-60.2	16.1	0.00e+00	0	46	0	128974848	60	40256
2026-01-30 05:10:24.94	70.72	10.01	-56.3	-60.2	16.1	0.00e+00	0	46	0	131072000	60	40191
2026-01-30 05:10:25.95	70.60	10.08	-56.1	-59.9	16.4	0.00e+00	0	46	0	132120576	60	38873
2026-01-30 05:10:26.95	70.49	10.15	-56.0	-59.8	16.8	0.00e+00	0	46	0	134217728	60	38139
2026-01-30 05:10:27.96	70.38	10.22	-56.2	-59.8	16.7	0.00e+00	0	46	0	136314880	60	38082
2026-01-30 05:10:28.96	70.26	10.29	-57.1	-60.0	16.8	0.00e+00	0	46	0	138412032	60	39250
2026-01-30 05:10:29.97	70.15	10.36	-57.1	-59.9	17.1	0.00e+00	0	45	0	140509184	60	38697
2026-01-30 05:10:30.98	70.03	10.42	-57.0	-59.7	17.3	0.00e+00	0	45	0	141557760	60	37976
2026-01-30 05:10:31.99	69.92	10.49	-56.8	-59.8	17.0	0.00e+00	0	46	0	143654912	60	38141
2026-01-30 05:10:32.99	69.80	10.56	-56.8	-59.8	17.1	0.00e+00	0	46	0	145752064	60	38212
2026-01-30 05:10:34.00	69.68	10.63	-56.4	-59.6	17.3	0.00e+00	0	45	0	147849216	60	37382
2026-01-30 05:10:35.01	69.56	10.70	-56.1	-59.6	17.2	0.00e+00	0	46	0	149946368	60	37218
2026-01-30 05:10:36.02	69.44	10.77	-55.6	-59.6	16.4	0.00e+00	0	46	0	150994944	60	37234
2026-01-30 05:10:37.02	69.33	10.84	-55.4	-59.7	15.3	0.00e+00	0	46	0	153092096	60	37697
2026-01-30 05:10:38.03	69.21	10.91	-55.3	-59.5	16.0	0.00e+00	0	46	0	155189248	60	36874
2026-01-30 05:10:39.04	69.09	10.98	-56.1	-59.5	17.2	0.00e+00	0	46	0	157286400	60	36990
2026-01-30 05:10:40.05	68.96	11.05	-56.8	-59.5	17.5	0.00e+00	0	46	0	159383552	60	37099
2026-01-30 05:10:41.06	68.84	11.12	-57.0	-59.6	17.5	0.00e+00	0	46	0	160432128	60	37397
2026-01-30 05:10:42.07	68.72	11.19	-56.5	-59.3	17.6	0.00e+00	0	46	0	162529280	60	36033
2026-01-30 05:10:43.07	68.60	11.26	-55.4	-59.1	16.9	0.00e+00	0	46	0	164626432	60	35435
2026-01-30 05:10:44.08	68.47	11.33	-56.1	-59.3	17.6	0.00e+00	0	46	0	166723584	60	36118
2026-01-30 05:10:45.09	68.35	11.40	-56.4	-59.4	17.3	0.00e+00	0	46	0	168820736	60	36438
2026-01-30 05:10:46.09	68.23	11.47	-56.5	-59.6	17.4	0.00e+00	0	46	0	169869312	60	37478
2026-01-30 05:10:47.10	68.10	11.54	-56.4	-59.8	16.5	0.00e+00	0	46	0	171966464	60	38411
2026-01-30 05:10:48.10	67.98	11.60	-56.1	-59.8	16.7	0.00e+00	0	46	0	174063616	60	38263
2026-01-30 05:10:49.10	67.85	11.67	-56.2	-60.4	16.5	0.00e+00	0	45	0	176160768	60	40868
2026-01-30 05:10:50.10	67.73	11.74	-56.6	-60.8	15.8	0.00e+00	0	46	0	178257920	60	43058
2026-01-30 05:10:51.11	67.60	11.81	-56.9	-60.8	15.2	0.00e+00	0	45	0	179306496	60	42720
2026-01-30 05:10:52.12	67.47	11.88	-57.9	-61.2	15.4	0.00e+00	0	46	0	181403648	60	44742
2026-01-30 05:10:53.12	67.34	11.95	-57.4	-61.6	14.8	7.00e-07	0	46	0	183500800	60	46900
2026-01-30 05:10:54.14	67.21	12.03	-57.0	-61.9	14.9	7.00e-07	0	46	0	185597952	60	48523
2026-01-30 05:10:55.14	67.08	12.10	-56.7	-61.5	14.9	0.00e+00	0	46	0	187695104	60	46527
2026-01-30 05:10:56.15	66.95	12.17	-56.4	-61.1	14.7	0.00e+00	0	46	0	188743680	60	44679
2026-01-30 05:10:57.15	66.82	12.24	-56.3	-60.5	16.2	0.00e+00	0	46	0	190840832	60	41455
2026-01-30 05:10:58.16	66.69	12.31	-56.6	-59.7	17.3	0.00e+00	0	46	0	192937984	60	37934
2026-01-30 05:10:59.16	66.56	12.38	-56.2	-59.0	18.0	0.00e+00	0	46	0	195035136	60	34915
2026-01-30 05:11:00.16	66.42	12.45	-55.4	-58.8	17.5	0.00e+00	0	46	0	196083712	60	34228
2026-01-30 05:11:01.17	66.29	12.52	-55.4	-58.8	17.5	0.00e+00	0	46	0	198180864	60	34128
2026-01-30 05:11:02.18	66.15	12.59	-55.7	-58.7	18.1	0.00e+00	0	46	0	200278016	60	33603
2026-01-30 05:11:03.19	66.02	12.66	-56.0	-58.8	18.2	0.00e+00	0	46	0	202375168	60	34191
2026-01-30 05:11:04.19	65.88	12.73	-55.9	-58.8	18.2	0.00e+00	0	46	0	204472320	60	34226
2026-01-30 05:11:05.20	65.75	12.80	-55.7	-58.8	17.9	0.00e+00	0	46	0	206569472	60	33950
2026-01-30 05:11:06.21	65.61	12.87	-55.4	-58.5	18.3	0.00e+00	0	46	0	207618048	60	32946
2026-01-30 05:11:07.22	65.47	12.94	-55.6	-58.4	18.6	0.00e+00	0	46	0	209715200	60	32504
2026-01-30 05:11:08.22	65.33	13.01	-56.0	-58.3	18.7	0.00e+00	0	46	0	211812352	60	32117
2026-01-30 05:11:09.23	65.19	13.09	-56.0	-58.2	18.9	0.00e+00	0	46	0	213909504	60	31803
2026-01-30 05:11:10.23	65.05	13.16	-55.1	-58.0	18.5	0.00e+00	0	46	0	216006656	60	31191
2026-01-30 05:11:11.24	64.91	13.23	-52.7	-57.9	17.0	0.00e+00	0	46	0	217055232	60	30910
2026-01-30 05:11:12.25	64.77	13.30	-51.5	-58.1	15.8	0.00e+00	0	46	0	219152384	60	31307
2026-01-30 05:11:13.26	64.63	13.37	-50.7	-58.0	14.8	0.00e+00	0	46	0	221249536	60	30975
2026-01-30 05:11:14.26	64.49	13.44	-51.8	-58.0	14.7	0.00e+00	0	46	0	223346688	60	31301
2026-01-30 05:11:15.26	64.34	13.51	-53.2	-58.2	16.4	0.00e+00	0	46	0	224395264	60	31756
2026-01-30 05:11:16.26	64.20	13.58	-55.5	-58.4	17.8	0.00e+00	0	46	0	226492416	60	32596
2026-01-30 05:11:17.27	64.06	13.65	-56.5	-58.5	18.7	0.00e+00	0	46	0	228589568	60	32999
2026-01-30 05:11:18.28	63.91	13.72	-56.2	-58.7	18.3	0.00e+00	0	46	0	230686720	60	33669
2026-01-30 05:11:19.28	63.77	13.80	-55.9	-58.9	17.7	0.00e+00	0	46	0	232783872	60	34330
2026-01-30 05:11:20.29	63.62	13.87	-56.5	-59.1	18.1	0.00e+00	0	46	0	234881024	60	35364
2026-01-30 05:11:21.30	63.47	13.94	-56.8	-59.0	18.0	0.00e+00	0	46	0	235929600	60	35112
2026-01-30 05:11:22.30	63.32	14.01	-57.3	-59.5	17.8	0.00e+00	0	46	0	238026752	60	37068
2026-01-30 05:11:23.30	63.17	14.08	-57.5	-59.9	17.4	0.00e+00	0	45	0	240123904	60	38683
2026-01-30 05:11:24.31	63.02	14.15	-56.8	-59.2	18.0	0.00e+00	0	46	0	242221056	60	35702
2026-01-30 05:11:25.31	62.87	14.22	-56.5	-59.0	18.4	0.00e+00	0	46	0	244318208	60	34747
2026-01-30 05:11:26.32	62.72	14.29	-56.0	-59.0	17.7	0.00e+00	0	46	0	245366784	60	34990
2026-01-30 05:11:27.32	62.57	14.37	-52.5	-58.9	15.0	0.00e+00	0	46	0	247463936	60	34337
2026-01-30 05:11:28.33	62.42	14.44	-51.7	-58.9	13.8	1.50e-06	0	46	0	249561088	60	34638
2026-01-30 05:11:29.34	62.26	14.51	-53.5	-59.2	15.4	1.50e-06	0	46	0	251658240	60	35530
2026-01-30 05:11:30.35	62.11	14.58	-52.9	-59.1	15.3	0.00e+00	0	46	0	252706816	60	35295
2026-01-30 05:11:31.35	61.96	14.65	-52.6	-58.8	15.4	0.00e+00	0	46	0	254803968	60	34116
2026-01-30 05:11:32.36	61.80	14.72	-52.9	-58.5	15.8	0.00e+00	0	46	0	256901120	60	33099
2026-01-30 05:11:33.37	61.64	14.79	-54.4	-58.7	16.6	0.00e+00	0	46	0	258998272	60	33894
2026-01-30 05:11:34.37	61.49	14.87	-54.9	-58.9	16.5	0.00e+00	0	46	0	261095424	60	34330
2026-01-30 05:11:35.38	61.33	14.94	-55.4	-58.9	16.4	0.00e+00	0	46	0	263192576	60	34712
2026-01-30 05:11:36.38	61.17	15.01	-55.8	-59.1	16.8	0.00e+00	0	46	0	264241152	60	35457
2026-01-30 05:11:37.39	61.01	15.08	-56.7	-59.1	18.0	0.00e+00	0	46	0	266338304	60	35495
2026-01-30 05:11:38.39	60.85	15.15	-56.9	-59.3	18.1	0.00e+00	0	46	0	268435456	60	36127
2026-01-30 05:11:39.40	60.69	15.22	-56.6	-59.3	17.9	0.00e+00	0	46	0	270532608	60	36067
2026-01-30 05:11:40.40	60.53	15.29	-56.0	-59.6	17.1	0.00e+00	0	46	0	272629760	60	37301
2026-01-30 05:11:41.40	60.37	15.36	-55.8	-59.5	17.1	0.00e+00	0	46	0	273678336	60	36867
2026-01-30 05:11:42.41	60.20	15.43	-56.2	-59.6	17.3	0.00e+00	0	46	0	275775488	60	37264
2026-01-30 05:11:43.41	60.04	15.51	-57.0	-59.6	17.8	0.00e+00	0	46	0	277872640	60	37475
2026-01-30 05:11:44.42	59.87	15.58	-57.3	-59.8	17.7	0.00e+00	0	46	0	279969792	60	38276
2026-01-30 05:11:45.43	59.71	15.65	-56.9	-59.3	18.1	0.00e+00	0	46	0	281018368	60	36034
2026-01-30 05:11:46.44	59.54	15.72	-56.4	-59.0	18.2	0.00e+00	0	46	0	283115520	60	34868
2026-01-30 05:11:47.44	59.37	15.79	-55.7	-59.0	17.7	0.00e+00	0	46	0	285212672	60	35051
2026-01-30 05:11:48.44	59.21	15.86	-54.1	-58.8	16.4	0.00e+00	0	46	0	287309824	60	34174
2026-01-30 05:11:49.45	59.04	15.93	-52.9	-58.9	15.6	0.00e+00	0	46	0	289406976	60	34616
2026-01-30 05:11:50.46	58.87	16.00	-52.5	-58.8	15.9	0.00e+00	0	46	0	290455552	60	34193
2026-01-30 05:11:51.46	58.70	16.07	-53.2	-59.0	15.8	0.00e+00	0	46	0	292552704	60	34797
2026-01-30 05:11:52.47	58.53	16.14	-54.0	-58.9	15.7	0.00e+00	0	46	0	294649856	60	34375
2026-01-30 05:11:53.48	58.35	16.22	-54.3	-58.9	15.6	0.00e+00	0	46	0	296747008	60	34633
2026-01-30 05:11:54.49	58.18	16.29	-53.9	-58.9	16.0	0.00e+00	0	46	0	298844160	60	34398
2026-01-30 05:11:55.49	58.01	16.36	-53.6	-58.8	16.7	0.00e+00	0	45	0	300941312	60	34057
2026-01-30 05:11:56.50	57.83	16.43	-53.8	-58.9	17.6	0.00e+00	0	46	0	301989888	60	34505
2026-01-30 05:11:57.50	57.66	16.50	-54.6	-58.9	18.0	0.00e+00	0	46	0	304087040	60	34347
2026-01-30 05:11:58.50	57.48	16.57	-55.3	-58.9	17.7	0.00e+00	0	46	0	306184192	60	34414
2026-01-30 05:11:59.51	57.30	16.64	-55.3	-58.8	17.5	0.00e+00	0	46	0	308281344	60	34007
2026-01-30 05:12:00.52	57.12	16.71	-55.3	-58.7	17.8	0.00e+00	0	46	0	309329920	60	33849
2026-01-30 05:12:01.53	56.94	16.78	-55.6	-58.8	18.0	0.00e+00	0	46	0	311427072	60	34167
2026-01-30 05:12:02.54	56.76	16.85	-56.2	-58.8	18.2	0.00e+00	0	46	0	313524224	60	34305
2026-01-30 05:12:03.54	56.58	16.92	-56.5	-58.9	18.1	0.00e+00	0	46	0	315621376	60	34497
2026-01-30 05:12:04.55	56.40	16.99	-56.4	-58.9	18.0	0.00e+00	0	46	0	317718528	60	34690
2026-01-30 05:12:05.56	56.22	17.06	-56.6	-59.0	18.1	0.00e+00	0	46	0	318767104	60	34869
2026-01-30 05:12:06.57	56.03	17.13	-56.7	-59.1	17.9	0.00e+00	0	46	0	320864256	60	35330
2026-01-30 05:12:07.58	55.85	17.20	-56.9	-59.2	17.9	0.00e+00	0	46	0	322961408	60	35926
2026-01-30 05:12:08.58	55.67	17.27	-57.0	-59.3	17.5	0.00e+00	0	46	0	325058560	60	36090
2026-01-30 05:12:09.59	55.48	17.34	-56.9	-59.3	17.7	0.00e+00	0	46	0	327155712	60	36018
2026-01-30 05:12:10.60	55.29	17.41	-56.7	-59.0	17.8	0.00e+00	0	46	0	329252864	60	34914
2026-01-30 05:12:11.61	55.10	17.48	-56.3	-58.9	17.6	0.00e+00	0	46	0	330301440	60	34371
2026-01-30 05:12:12.62	54.91	17.54	-56.0	-59.0	17.3	0.00e+00	0	46	0	332398592	60	34883
2026-01-30 05:12:13.62	54.73	17.61	-55.6	-58.8	17.1	0.00e+00	0	46	0	334495744	60	34202
2026-01-30 05:12:14.62	54.54	17.68	-55.3	-58.7	16.9	0.00e+00	0	46	0	336592896	60	33611
2026-01-30 05:12:15.63	54.35	17.75	-54.8	-58.0	17.6	0.00e+00	0	46	0	337641472	60	31248
2026-01-30 05:12:16.64	54.15	17.82	-54.5	-57.7	18.2	0.00e+00	0	46	0	339738624	60	30017
2026-01-30 05:12:17.65	53.96	17.89	-54.5	-57.6	18.6	0.00e+00	0	46	0	341835776	60	29682
2026-01-30 05:12:18.65	53.77	17.95	-54.6	-57.6	18.8	0.00e+00	0	46	0	343932928	60	29889
2026-01-30 05:12:19.66	53.57	18.02	-54.5	-57.1	19.5	0.00e+00	0	46	0	346030080	60	28165
2026-01-30 05:12:20.66	53.38	18.09	-54.6	-57.1	19.6	0.00e+00	0	45	0	347078656	60	28037
2026-01-30 05:12:21.66	53.18	18.16	-54.7	-56.9	20.0	0.00e+00	0	46	0	349175808	60	27303
2026-01-30 05:12:22.67	52.98	18.23	-54.9	-56.7	20.0	0.00e+00	0	46	0	351272960	60	26882
2026-01-30 05:12:23.68	52.79	18.29	-55.0	-56.8	19.7	0.00e+00	0	46	0	353370112	60	26978
2026-01-30 05:12:24.69	52.59	18.36	-54.8	-56.6	19.5	0.00e+00	0	46	0	355467264	60	26600
2026-01-30 05:12:25.70	52.39	18.43	-54.9	-56.8	19.3	0.00e+00	0	46	0	357564416	60	27132
2026-01-30 05:12:26.70	52.19	18.49	-54.2	-56.3	19.5	0.00e+00	0	46	0	358612992	60	25734
2026-01-30 05:12:27.71	51.98	18.56	-54.0	-56.2	19.7	0.00e+00	0	46	0	360710144	60	25285
2026-01-30 05:12:28.72	51.78	18.63	-54.0	-55.9	20.3	0.00e+00	0	46	0	362807296	60	24569
2026-01-30 05:12:29.72	51.58	18.69	-54.0	-55.8	20.5	0.00e+00	0	46	0	364904448	60	24218
2026-01-30 05:12:30.73	51.37	18.76	-54.1	-55.9	20.7	0.00e+00	0	46	0	365953024	60	24462
2026-01-30 05:12:31.73	51.17	18.82	-54.2	-55.9	20.7	0.00e+00	0	46	0	368050176	60	24419
2026-01-30 05:12:32.74	50.96	18.89	-54.2	-55.6	20.9	0.00e+00	0	46	0	370147328	60	23712
2026-01-30 05:12:33.74	50.76	18.95	-54.2	-55.7	20.8	0.00e+00	0	46	0	372244480	60	23814
2026-01-30 05:12:34.75	50.55	19.02	-54.2	-55.6	20.7	0.00e+00	0	46	0	374341632	60	23742
2026-01-30 05:12:35.76	50.34	19.09	-54.1	-55.6	20.6	0.00e+00	0	46	0	376438784	60	23517
2026-01-30 05:12:36.77	50.13	19.15	-54.0	-55.6	20.2	0.00e+00	0	46	0	377487360	60	23647
2026-01-30 05:12:37.78	49.92	19.21	-53.9	-55.7	20.0	0.00e+00	0	46	0	379584512	60	23845
2026-01-30 05:12:38.79	49.70	19.28	-53.7	-55.8	19.6	0.00e+00	0	46	0	381681664	60	24079
2026-01-30 05:12:39.80	49.49	19.34	-53.2	-55.8	19.1	0.00e+00	0	46	0	383778816	60	24121
2026-01-30 05:12:40.81	49.28	19.41	-52.6	-55.8	18.5	0.00e+00	0	46	0	385875968	60	24143
2026-01-30 05:12:41.81	49.06	19.47	-52.1	-55.5	18.8	0.00e+00	0	46	0	386924544	60	23308
2026-01-30 05:12:42.82	48.85	19.53	-51.4	-55.1	18.7	0.00e+00	0	46	0	389021696	60	22387
2026-01-30 05:12:43.83	48.63	19.60	-50.6	-55.0	18.0	0.00e+00	0	46	0	391118848	60	22158
2026-01-30 05:12:44.84	48.41	19.66	-50.3	-55.0	17.6	0.00e+00	0	46	0	393216000	60	21998
2026-01-30 05:12:45.85	48.20	19.72	-49.9	-55.0	17.0	0.00e+00	0	46	0	395313152	60	21966
2026-01-30 05:12:46.85	47.98	19.78	-49.8	-54.8	17.2	0.00e+00	0	46	0	396361728	60	21464
2026-01-30 05:12:47.86	47.76	19.85	-49.7	-54.8	17.2	0.00e+00	0	46	0	398458880	60	21557
2026-01-30 05:12:48.86	47.54	19.91	-49.2	-54.9	16.6	0.00e+00	0	46	0	400556032	60	21678
2026-01-30 05:12:49.87	47.32	19.97	-49.3	-54.7	16.4	0.00e+00	0	46	0	402653184	60	21375
2026-01-30 05:12:50.87	47.10	20.03	-48.9	-54.8	16.2	0.00e+00	0	46	0	404750336	60	21484
2026-01-30 05:12:51.88	46.87	20.09	-48.8	-54.8	16.6	0.00e+00	0	46	0	405798912	60	21476
2026-01-30 05:12:52.89	46.65	20.15	-49.0	-54.8	16.9	0.00e+00	0	46	0	407896064	60	21409
2026-01-30 05:12:53.89	46.42	20.21	-48.9	-54.7	16.8	0.00e+00	0	46	0	409993216	60	21346
2026-01-30 05:12:54.90	46.20	20.27	-48.7	-54.9	16.7	0.00e+00	0	46	0	412090368	60	21701
2026-01-30 05:12:55.91	45.97	20.33	-49.2	-54.8	17.2	0.00e+00	0	46	0	414187520	60	21617
2026-01-30 05:12:56.92	45.74	20.39	-49.4	-54.9	17.4	0.00e+00	0	46	0	415236096	60	21767
2026-01-30 05:12:57.93	45.51	20.45	-49.7	-55.0	17.5	0.00e+00	0	46	0	417333248	60	22013
2026-01-30 05:12:58.93	45.28	20.50	-49.9	-55.0	17.4	0.00e+00	0	46	0	419430400	60	22048
2026-01-30 05:12:59.94	45.05	20.56	-50.2	-55.0	17.4	0.00e+00	0	46	0	421527552	60	21945
2026-01-30 05:13:00.94	44.82	20.62	-50.1	-55.0	16.8	0.00e+00	0	46	0	423624704	60	22029
2026-01-30 05:13:01.95	44.59	20.68	-49.9	-55.0	16.5	0.00e+00	0	46	0	424673280	60	21941
2026-01-30 05:13:02.95	44.36	20.73	-49.4	-55.0	15.9	0.00e+00	0	46	0	426770432	60	22031
2026-01-30 05:13:03.96	44.12	20.79	-49.2	-55.0	15.5	0.00e+00	0	46	0	428867584	60	21957
2026-01-30 05:13:04.97	43.89	20.85	-48.9	-54.9	15.7	0.00e+00	0	46	0	430964736	60	21803
2026-01-30 05:13:05.98	43.65	20.90	-49.2	-55.0	15.9	0.00e+00	0	46	0	433061888	60	21911
2026-01-30 05:13:06.98	43.42	20.96	-48.8	-55.0	15.9	0.00e+00	0	46	0	434110464	60	21917
2026-01-30 05:13:08.00	43.18	21.01	-48.6	-55.0	16.1	0.00e+00	0	46	0	436207616	60	22120
2026-01-30 05:13:09.00	42.94	21.07	-48.4	-55.0	16.0	0.00e+00	0	46	0	438304768	60	21971
2026-01-30 05:13:10.01	42.70	21.12	-48.5	-55.0	16.8	0.00e+00	0	46	0	440401920	60	22146
2026-01-30 05:13:11.02	42.46	21.18	-48.5	-54.9	17.6	0.00e+00	0	46	0	442499072	60	21724
2026-01-30 05:13:12.03	42.22	21.23	-49.0	-54.8	18.7	0.00e+00	0	46	0	443547648	60	21426
2026-01-30 05:13:13.03	41.98	21.28	-49.5	-54.8	19.1	0.00e+00	0	46	0	445644800	60	21643
2026-01-30 05:13:14.04	41.74	21.33	-50.3	-54.7	20.0	0.00e+00	0	46	0	447741952	60	21398
2026-01-30 05:13:15.05	41.49	21.39	-51.5	-54.7	21.7	0.00e+00	0	46	0	449839104	60	21172
2026-01-30 05:13:16.06	41.25	21.44	-52.4	-54.6	21.7	0.00e+00	0	46	0	451936256	60	21133
2026-01-30 05:13:17.06	41.00	21.49	-52.7	-54.5	21.4	0.00e+00	0	46	0	452984832	60	20906
2026-01-30 05:13:18.07	40.76	21.54	-53.0	-54.6	21.3	0.00e+00	0	46	0	455081984	60	21142
2026-01-30 05:13:19.07	40.51	21.59	-53.1	-54.7	21.2	0.00e+00	0	46	0	457179136	60	21405
2026-01-30 05:13:20.08	40.27	21.64	-53.1	-54.7	21.3	0.00e+00	0	46	0	459276288	60	21239
2026-01-30 05:13:21.08	40.02	21.69	-53.1	-54.7	21.4	0.00e+00	0	46	0	461373440	60	21276
2026-01-30 05:13:22.09	39.77	21.74	-53.1	-54.7	21.7	0.00e+00	0	46	0	462422016	60	21190
2026-01-30 05:13:23.09	39.52	21.78	-53.1	-54.6	21.5	0.00e+00	0	46	0	464519168	60	20961
2026-01-30 05:13:24.10	39.27	21.83	-53.1	-54.5	21.2	0.00e+00	0	46	0	466616320	60	20745
2026-01-30 05:13:25.10	39.02	21.88	-52.8	-54.4	20.9	0.00e+00	0	46	0	468713472	60	20466
2026-01-30 05:13:26.11	38.77	21.93	-52.7	-54.4	20.4	0.00e+00	0	46	0	470810624	60	20514
2026-01-30 05:13:27.12	38.52	21.97	-52.3	-54.3	20.1	0.00e+00	0	46	0	471859200	60	20436
2026-01-30 05:13:28.13	38.26	22.02	-52.1	-54.5	20.4	0.00e+00	0	46	0	473956352	60	20856
2026-01-30 05:13:29.13	38.01	22.06	-52.0	-54.7	20.9	0.00e+00	0	46	0	476053504	60	21183
2026-01-30 05:13:30.14	37.75	22.11	-52.0	-54.8	21.1	0.00e+00	0	46	0	478150656	60	21613
2026-01-30 05:13:31.14	37.50	22.15	-52.1	-54.8	21.5	0.00e+00	0	46	0	480247808	60	21409
2026-01-30 05:13:32.15	37.24	22.19	-52.2	-54.7	21.6	0.00e+00	0	46	0	481296384	60	21369
2026-01-30 05:13:33.16	36.99	22.24	-52.5	-55.0	21.5	0.00e+00	0	46	0	483393536	60	22052
2026-01-30 05:13:34.16	36.73	22.28	-52.8	-55.2	21.4	0.00e+00	0	46	0	485490688	60	22620
2026-01-30 05:13:35.17	36.47	22.32	-53.2	-55.3	20.8	0.00e+00	0	46	0	487587840	60	22789
2026-01-30 05:13:36.17	36.21	22.36	-53.4	-55.2	20.8	0.00e+00	0	46	0	489684992	60	22602
2026-01-30 05:13:37.18	35.95	22.40	-53.7	-55.5	20.3	0.00e+00	0	46	0	490733568	60	23234
2026-01-30 05:13:38.18	35.69	22.44	-53.2	-55.2	19.6	0.00e+00	0	46	0	492830720	60	22587
2026-01-30 05:13:39.19	35.43	22.48	-52.7	-55.4	18.1	0.00e+00	0	46	0	494927872	60	22969
2026-01-30 05:13:40.20	35.17	22.52	-52.0	-55.3	17.3	0.00e+00	0	46	0	497025024	60	22745
2026-01-30 05:13:41.20	34.91	22.56	-51.5	-55.2	16.6	0.00e+00	0	46	0	499122176	60	22432
2026-01-30 05:13:42.21	34.64	22.60	-51.4	-55.0	16.5	0.00e+00	0	46	0	500170752	60	22114
2026-01-30 05:13:43.21	34.38	22.64	-51.9	-55.4	16.6	0.00e+00	0	46	0	502267904	60	23047
2026-01-30 05:13:44.22	34.12	22.67	-52.5	-55.7	17.1	0.00e+00	0	46	0	504365056	60	23956
2026-01-30 05:13:45.22	33.85	22.71	-52.7	-55.7	18.0	0.00e+00	0	46	0	506462208	60	23992
2026-01-30 05:13:46.23	33.59	22.74	-52.6	-56.2	18.7	0.00e+00	0	46	0	508559360	60	25265
2026-01-30 05:13:47.24	33.32	22.78	-52.3	-56.9	19.0	0.00e+00	0	46	0	509607936	60	27394
2026-01-30 05:13:48.24	33.06	22.81	-51.7	-57.3	18.9	0.00e+00	0	46	0	511705088	60	28557
2026-01-30 05:13:49.25	32.79	22.85	-51.7	-57.6	18.4	0.00e+00	0	46	0	513802240	60	29765
2026-01-30 05:13:50.25	32.52	22.88	-51.8	-57.7	17.9	0.00e+00	0	46	0	515899392	60	30001
2026-01-30 05:13:51.26	32.25	22.91	-51.3	-58.0	16.5	0.00e+00	0	46	0	516947968	60	31102
2026-01-30 05:13:52.26	31.98	22.94	-50.9	-57.9	16.0	0.00e+00	0	46	0	519045120	60	30873
2026-01-30 05:13:53.27	31.71	22.97	-50.6	-57.8	15.5	0.00e+00	0	46	0	521142272	60	30461
2026-01-30 05:13:54.28	31.44	23.01	-50.6	-57.9	14.8	0.00e+00	0	46	0	523239424	60	30679
2026-01-30 05:13:55.28	31.17	23.03	-50.7	-58.4	13.3	7.00e-07	0	46	0	525336576	60	32644
2026-01-30 05:13:56.28	30.90	23.06	-51.1	-58.7	12.9	1.67e-05	0	46	0	527433728	60	33551
2026-01-30 05:13:57.29	30.63	23.09	-52.8	-58.8	14.0	3.00e-06	0	46	0	528482304	60	34309
2026-01-30 05:13:58.30	30.36	23.12	-55.3	-59.0	16.2	0.00e+00	0	46	0	530579456	60	34749
2026-01-30 05:13:59.31	30.09	23.15	-56.4	-59.3	17.4	0.00e+00	0	46	0	532676608	60	36202
2026-01-30 05:14:00.31	29.81	23.17	-54.8	-59.3	17.5	0.00e+00	0	46	0	534773760	60	36121
2026-01-30 05:14:01.32	29.54	23.20	-53.7	-59.2	17.4	0.00e+00	0	46	0	536870912	60	35867
2026-01-30 05:14:02.32	29.27	23.22	-53.5	-59.7	16.7	0.00e+00	0	46	0	537919488	60	37636
2026-01-30 05:14:03.33	28.99	23.25	-53.9	-59.8	15.1	0.00e+00	0	46	0	540016640	60	38347
2026-01-30 05:14:04.33	28.72	23.27	-53.3	-59.7	14.8	0.00e+00	0	46	0	542113792	60	37882
2026-01-30 05:14:05.34	28.44	23.30	-52.4	-58.7	15.3	7.00e-07	0	46	0	544210944	60	33748
2026-01-30 05:14:06.34	28.17	23.32	-51.8	-58.2	15.6	0.00e+00	0	46	0	545259520	60	31989
2026-01-30 05:14:07.35	27.89	23.34	-52.1	-58.3	15.8	0.00e+00	0	46	0	547356672	60	32216
2026-01-30 05:14:08.36	27.61	23.36	-53.4	-58.5	16.4	0.00e+00	0	46	0	549453824	60	32992
2026-01-30 05:14:09.36	27.34	23.38	-54.3	-58.1	17.8	0.00e+00	0	46	0	551550976	60	31328
2026-01-30 05:14:10.36	27.06	23.40	-54.4	-57.5	18.8	0.00e+00	0	46	0	553648128	60	29231
2026-01-30 05:14:11.36	26.79	23.42	-53.6	-57.5	18.6	0.00e+00	0	46	0	554696704	60	29424
2026-01-30 05:14:12.36	26.51	23.44	-52.6	-57.7	17.8	0.00e+00	0	46	0	556793856	60	30108
2026-01-30 05:14:13.37	26.23	23.45	-52.2	-57.9	16.9	0.00e+00	0	46	0	558891008	60	30917
2026-01-30 05:14:14.38	25.95	23.47	-52.4	-57.9	16.0	0.00e+00	0	46	0	560988160	60	30817
2026-01-30 05:14:15.39	25.68	23.49	-52.7	-57.6	16.1	0.00e+00	0	46	0	563085312	60	29584
2026-01-30 05:14:16.39	25.40	23.50	-52.8	-57.2	16.5	0.00e+00	0	46	0	565182464	60	28443
2026-01-30 05:14:17.40	25.12	23.52	-53.3	-57.2	16.9	0.00e+00	0	46	0	566231040	60	28491
2026-01-30 05:14:18.41	24.84	23.53	-53.8	-57.3	17.1	0.00e+00	0	46	0	568328192	60	28783
2026-01-30 05:14:19.41	24.56	23.54	-54.1	-57.6	17.0	0.00e+00	0	46	0	570425344	60	29887
2026-01-30 05:14:20.41	24.28	23.55	-53.5	-57.8	16.3	0.00e+00	0	46	0	572522496	60	30302
2026-01-30 05:14:21.42	24.00	23.57	-52.7	-58.0	15.5	0.00e+00	0	46	0	573571072	60	31002
2026-01-30 05:14:22.43	23.72	23.58	-52.4	-58.0	15.2	0.00e+00	0	46	0	575668224	60	31008
2026-01-30 05:14:23.43	23.44	23.59	-52.3	-58.0	15.0	0.00e+00	0	46	0	577765376	60	30994
2026-01-30 05:14:24.44	23.16	23.60	-53.1	-58.2	14.8	0.00e+00	0	46	0	579862528	60	31909
2026-01-30 05:14:25.45	22.88	23.61	-53.8	-58.5	14.4	0.00e+00	0	46	0	581959680	60	33107
2026-01-30 05:14:26.45	22.60	23.61	-54.3	-58.6	14.3	0.00e+00	0	46	0	583008256	60	33417
2026-01-30 05:14:27.45	22.32	23.62	-54.6	-58.6	14.8	0.00e+00	0	46	0	585105408	60	33343
2026-01-30 05:14:28.46	22.04	23.63	-55.0	-58.9	15.6	0.00e+00	0	46	0	587202560	60	34467
2026-01-30 05:14:29.46	21.76	23.63	-55.0	-58.8	15.8	0.00e+00	0	46	0	589299712	60	34298
2026-01-30 05:14:30.47	21.47	23.64	-54.7	-59.5	15.4	0.00e+00	0	46	0	591396864	60	36948
2026-01-30 05:14:31.48	21.19	23.64	-53.8	-59.7	14.8	0.00e+00	0	46	0	593494016	60	37825
2026-01-30 05:14:32.49	20.91	23.64	-52.6	-59.8	14.4	0.00e+00	0	46	0	594542592	60	38081
2026-01-30 05:14:33.50	20.63	23.65	-52.2	-60.2	13.8	2.20e-06	0	46	0	596639744	60	40254
2026-01-30 05:14:34.51	20.34	23.65	-52.7	-60.6	14.0	1.50e-06	0	46	0	598736896	60	41989
2026-01-30 05:14:35.51	20.06	23.65	-53.6	-60.7	14.9	7.00e-07	0	46	0	600834048	60	42322
2026-01-30 05:14:36.52	19.78	23.65	-54.8	-61.2	15.4	0.00e+00	0	46	0	601882624	60	44729
2026-01-30 05:14:37.53	19.50	23.65	-55.3	-61.4	15.3	0.00e+00	0	46	0	603979776	60	45934
2026-01-30 05:14:38.54	19.22	23.65	-55.2	-61.7	14.6	0.00e+00	0	46	0	606076928	60	47755
2026-01-30 05:14:39.54	18.94	23.65	-54.7	-62.3	13.2	0.00e+00	0	46	0	608174080	60	50967
2026-01-30 05:14:40.55	18.65	23.64	-54.1	-61.8	13.1	2.67e-05	0	46	0	610271232	60	48207
2026-01-30 05:14:41.56	18.37	23.64	-53.8	-61.9	12.8	5.26e-05	0	46	0	611319808	60	48773
2026-01-30 05:14:42.57	18.09	23.64	-54.2	-61.1	14.2	1.83e-05	0	46	0	613416960	60	44654
2026-01-30 05:14:43.57	17.81	23.63	-55.2	-61.1	14.6	0.00e+00	0	46	0	615514112	60	44288
2026-01-30 05:14:44.58	17.53	23.63	-56.6	-60.5	15.4	0.00e+00	0	46	0	617611264	60	41378
2026-01-30 05:14:45.59	17.24	23.62	-57.2	-60.5	15.9	0.00e+00	0	46	0	619708416	60	41523
2026-01-30 05:14:46.60	16.96	23.61	-57.2	-61.0	15.3	0.00e+00	0	46	0	621805568	60	43841
2026-01-30 05:14:47.60	16.68	23.61	-57.2	-61.5	14.7	0.00e+00	0	46	0	622854144	60	46672
2026-01-30 05:14:48.61	16.40	23.60	-57.3	-61.4	14.8	1.50e-06	0	46	0	624951296	60	46011
2026-01-30 05:14:49.62	16.12	23.59	-57.3	-61.0	15.5	0.00e+00	0	46	0	627048448	60	43870
2026-01-30 05:14:50.63	15.84	23.58	-57.0	-60.6	15.9	0.00e+00	0	46	0	629145600	60	41867
2026-01-30 05:14:51.64	15.56	23.57	-57.3	-61.4	15.5	0.00e+00	0	46	0	630194176	60	46123
2026-01-30 05:14:52.64	15.28	23.55	-56.2	-60.6	15.7	0.00e+00	0	46	0	632291328	60	41789
2026-01-30 05:14:53.65	15.00	23.54	-55.2	-60.2	15.5	0.00e+00	0	46	0	634388480	60	40306
2026-01-30 05:14:54.66	14.72	23.53	-54.8	-60.4	15.0	0.00e+00	0	46	0	636485632	60	41221
2026-01-30 05:14:55.66	14.44	23.52	-54.9	-60.6	14.8	0.00e+00	0	46	0	638582784	60	41936
2026-01-30 05:14:56.67	14.16	23.50	-55.2	-60.3	16.0	0.00e+00	0	46	0	640679936	60	40745
2026-01-30 05:14:57.68	13.88	23.49	-55.1	-58.5	18.2	0.00e+00	0	46	0	641728512	60	33046
2026-01-30 05:14:58.69	13.60	23.47	-54.9	-57.5	19.1	0.00e+00	0	46	0	643825664	60	29326
2026-01-30 05:14:59.69	13.32	23.45	-54.0	-56.0	20.0	0.00e+00	0	46	0	645922816	60	24647
2026-01-30 05:15:00.70	13.05	23.44	-53.4	-55.0	20.7	0.00e+00	0	46	0	648019968	60	22032
2026-01-30 05:15:01.70	12.77	23.42	-53.0	-54.6	21.4	0.00e+00	0	46	0	650117120	60	20967
2026-01-30 05:15:02.71	12.49	23.40	-52.6	-54.0	22.3	0.00e+00	0	46	0	651165696	60	19743
2026-01-30 05:15:03.72	12.21	23.38	-52.6	-54.0	22.4	0.00e+00	0	46	0	653262848	60	19637
2026-01-30 05:15:04.73	11.94	23.36	-52.6	-54.0	22.1	0.00e+00	0	46	0	655360000	60	19660
2026-01-30 05:15:05.74	11.66	23.34	-52.4	-54.0	22.2	0.00e+00	0	46	0	657457152	60	19635
2026-01-30 05:15:06.74	11.38	23.32	-52.1	-53.9	22.3	0.00e+00	0	46	0	658505728	60	19345
2026-01-30 05:15:07.75	11.11	23.29	-51.7	-53.8	22.2	0.00e+00	0	46	0	660602880	60	19189
2026-01-30 05:15:08.76	10.83	23.27	-51.5	-54.0	21.5	0.00e+00	0	46	0	662700032	60	19718
2026-01-30 05:15:09.77	10.56	23.25	-51.3	-54.2	20.4	0.00e+00	0	46	0	664797184	60	20023
2026-01-30 05:15:10.77	10.28	23.22	-51.5	-54.2	19.9	0.00e+00	0	46	0	666894336	60	20129
2026-01-30 05:15:11.78	10.01	23.20	-52.1	-54.4	20.0	0.00e+00	0	46	0	668991488	60	20659
2026-01-30 05:15:12.79	9.74	23.17	-52.8	-54.6	20.5	0.00e+00	0	46	0	670040064	60	21100
2026-01-30 05:15:13.79	9.46	23.15	-53.0	-54.9	20.7	0.00e+00	0	46	0	672137216	60	21759
2026-01-30 05:15:14.80	9.19	23.12	-52.9	-55.2	20.7	0.00e+00	0	46	0	674234368	60	22441
2026-01-30 05:15:15.81	8.92	23.09	-52.7	-55.2	20.8	0.00e+00	0	46	0	676331520	60	22561
2026-01-30 05:15:16.82	8.65	23.06	-52.5	-55.4	20.8	0.00e+00	0	46	0	678428672	60	23064
2026-01-30 05:15:17.82	8.38	23.03	-52.2	-55.5	20.6	0.00e+00	0	46	0	679477248	60	23359
2026-01-30 05:15:18.82	8.11	23.00	-52.0	-55.6	20.4	0.00e+00	0	46	0	681574400	60	23676
2026-01-30 05:15:19.83	7.84	22.97	-52.2	-55.7	20.3	0.00e+00	0	46	0	683671552	60	23989
2026-01-30 05:15:20.84	7.57	22.94	-53.0	-56.0	20.1	0.00e+00	0	46	0	685768704	60	24780
2026-01-30 05:15:21.85	7.30	22.91	-53.5	-56.3	20.1	0.00e+00	0	46	0	686817280	60	25704
2026-01-30 05:15:22.86	7.03	22.88	-53.4	-56.3	20.0	0.00e+00	0	46	0	688914432	60	25562
2026-01-30 05:15:23.86	6.76	22.84	-53.3	-56.5	19.5	0.00e+00	0	46	0	691011584	60	26103
2026-01-30 05:15:24.87	6.49	22.81	-53.2	-57.0	18.6	0.00e+00	0	46	0	693108736	60	27708
2026-01-30 05:15:25.87	6.23	22.78	-53.4	-57.5	18.1	0.00e+00	0	46	0	695205888	60	29250
2026-01-30 05:15:26.87	5.97	22.74	-53.4	-57.4	18.0	0.00e+00	0	46	0	697303040	60	29142
2026-01-30 05:15:27.88	5.70	22.71	-53.1	-56.8	18.3	0.00e+00	0	46	0	698351616	60	27082
2026-01-30 05:15:28.89	5.43	22.67	-53.7	-57.1	18.3	0.00e+00	0	46	0	700448768	60	28024
2026-01-30 05:15:29.90	5.17	22.63	-53.8	-56.8	18.6	0.00e+00	0	46	0	702545920	60	27057
2026-01-30 05:15:30.91	4.90	22.60	-53.8	-56.5	19.1	0.00e+00	0	46	0	704643072	60	26132
2026-01-30 05:15:31.91	4.64	22.56	-53.9	-56.7	18.8	0.00e+00	0	46	0	706740224	60	26785
2026-01-30 05:15:32.92	4.38	22.52	-54.0	-56.9	18.5	0.00e+00	0	46	0	707788800	60	27276
2026-01-30 05:15:33.93	4.12	22.48	-54.0	-56.7	18.6	0.00e+00	0	46	0	709885952	60	26791
2026-01-30 05:15:34.93	3.86	22.44	-53.7	-56.1	19.5	0.00e+00	0	46	0	711983104	60	24957
2026-01-30 05:15:35.93	3.60	22.40	-53.5	-55.7	19.8	0.00e+00	0	46	0	714080256	60	23995
2026-01-30 05:15:36.94	3.34	22.36	-53.8	-55.9	19.6	0.00e+00	0	46	0	715128832	60	24523
2026-01-30 05:15:37.95	3.08	22.32	-54.0	-56.1	19.4	0.00e+00	0	46	0	717225984	60	25076
2026-01-30 05:15:38.96	2.82	22.28	-54.0	-56.1	19.4	0.00e+00	0	46	0	719323136	60	25019
2026-01-30 05:15:39.96	2.57	22.24	-54.1	-56.1	19.3	0.00e+00	0	46	0	721420288	60	25023
2026-01-30 05:15:40.97	2.31	22.19	-54.1	-56.1	19.4	0.00e+00	0	46	0	723517440	60	25057
2026-01-30 05:15:41.98	2.05	22.15	-54.3	-56.2	19.6	0.00e+00	0	46	0	725614592	60	25360
2026-01-30 05:15:42.98	1.80	22.10	-54.3	-56.2	19.8	0.00e+00	0	46	0	726663168	60	25269
2026-01-30 05:15:43.99	1.54	22.06	-54.4	-56.1	20.1	0.00e+00	0	46	0	728760320	60	25074
2026-01-30 05:15:45.00	1.29	22.01	-54.3	-55.9	20.4	0.00e+00	0	46	0	730857472	60	24521
2026-01-30 05:15:46.00	1.04	21.97	-54.4	-56.0	20.4	0.00e+00	0	46	0	732954624	60	24790
2026-01-30 05:15:47.00	0.79	21.92	-54.6	-56.2	20.3	0.00e+00	0	46	0	735051776	60	25226
2026-01-30 05:15:48.01	0.53	21.88	-54.7	-56.3	20.1	0.00e+00	0	46	0	736100352	60	25573
2026-01-30 05:15:49.02	0.28	21.83	-54.7	-56.4	19.9	0.00e+00	0	46	0	738197504	60	25782
2026-01-30 05:15:50.02	0.03	21.78	-54.8	-56.6	19.8	0.00e+00	0	46	0	740294656	60	26339
2026-01-30 05:15:51.03	359.78	21.73	-54.7	-56.6	19.5	0.00e+00	0	46	0	742391808	60	26385
2026-01-30 05:15:52.04	359.54	21.68	-54.7	-56.7	19.2	0.00e+00	0	46	0	743440384	60	26798
2026-01-30 05:15:53.04	359.29	21.64	-54.8	-56.9	18.8	0.00e+00	0	46	0	745537536	60	27453
2026-01-30 05:15:54.05	359.04	21.59	-54.8	-57.0	18.6	0.00e+00	0	46	0	747634688	60	27786
2026-01-30 05:15:55.05	358.80	21.54	-54.7	-57.0	18.4	0.00e+00	0	46	0	749731840	60	27706
2026-01-30 05:15:56.06	358.55	21.49	-54.9	-57.2	18.5	0.00e+00	0	46	0	751828992	60	28308
2026-01-30 05:15:57.07	358.31	21.43	-55.1	-57.4	18.4	0.00e+00	0	46	0	753926144	60	29054
2026-01-30 05:15:58.08	358.06	21.38	-55.1	-57.3	18.7	0.00e+00	0	46	0	754974720	60	28865
2026-01-30 05:15:59.08	357.82	21.33	-54.6	-56.7	19.2	0.00e+00	0	46	0	757071872	60	26780
2026-01-30 05:16:00.09	357.58	21.28	-54.4	-56.6	19.0	0.00e+00	0	46	0	759169024	60	26578
2026-01-30 05:16:01.09	357.34	21.23	-54.6	-56.9	18.5	0.00e+00	0	46	0	761266176	60	27416
2026-01-30 05:16:02.10	357.10	21.17	-54.9	-57.5	18.0	0.00e+00	0	46	0	763363328	60	29229
2026-01-30 05:16:03.10	356.86	21.12	-54.9	-57.5	18.0	0.00e+00	0	46	0	764411904	60	29217
2026-01-30 05:16:04.11	356.62	21.07	-55.0	-57.4	17.9	0.00e+00	0	46	0	766509056	60	28944
2026-01-30 05:16:05.11	356.39	21.01	-54.8	-56.9	18.8	0.00e+00	0	46	0	768606208	60	27463
2026-01-30 05:16:06.12	356.15	20.96	-54.4	-56.4	19.3	0.00e+00	0	46	0	770703360	60	25888
2026-01-30 05:16:07.13	355.91	20.90	-54.1	-56.1	19.5	0.00e+00	0	46	0	771751936	60	24983
2026-01-30 05:16:08.14	355.68	20.85	-54.0	-56.1	19.4	0.00e+00	0	46	0	773849088	60	24906
2026-01-30 05:16:09.15	355.44	20.79	-53.9	-56.1	19.2	0.00e+00	0	46	0	775946240	60	25097
2026-01-30 05:16:10.15	355.21	20.73	-53.9	-56.2	19.3	0.00e+00	0	46	0	778043392	60	25217
2026-01-30 05:16:11.16	354.97	20.68	-54.0	-56.2	19.4	0.00e+00	0	46	0	780140544	60	25393
2026-01-30 05:16:12.17	354.74	20.62	-54.1	-56.2	19.7	0.00e+00	0	46	0	782237696	60	25347
2026-01-30 05:16:13.18	354.51	20.56	-54.3	-56.2	20.0	0.00e+00	0	46	0	783286272	60	25420
2026-01-30 05:16:14.18	354.28	20.50	-54.5	-56.2	20.2	0.00e+00	0	46	0	785383424	60	25272
2026-01-30 05:16:15.19	354.05	20.45	-54.6	-56.1	20.2	0.00e+00	0	46	0	787480576	60	25110
2026-01-30 05:16:16.19	353.83	20.39	-54.5	-56.0	20.4	0.00e+00	0	46	0	789577728	60	24805
2026-01-30 05:16:17.20	353.60	20.33	-54.4	-56.0	20.5	0.00e+00	0	46	0	791674880	60	24717
2026-01-30 05:16:18.21	353.37	20.27	-54.2	-55.9	20.5	0.00e+00	0	46	0	792723456	60	24368
2026-01-30 05:16:19.22	353.14	20.21	-54.2	-56.0	20.4	0.00e+00	0	46	0	794820608	60	24603
2026-01-30 05:16:20.22	352.92	20.15	-54.1	-55.9	20.5	0.00e+00	0	46	0	796917760	60	24445
2026-01-30 05:16:21.23	352.70	20.09	-54.2	-56.0	20.5	0.00e+00	0	46	0	799014912	60	24808
2026-01-30 05:16:22.24	352.47	20.03	-54.3	-56.1	20.5	0.00e+00	0	46	0	800063488	60	25032
2026-01-30 05:16:23.24	352.25	19.97	-54.3	-56.1	20.4	0.00e+00	0	46	0	802160640	60	25075
2026-01-30 05:16:24.24	352.03	19.91	-54.2	-56.1	20.4	0.00e+00	0	46	0	804257792	60	24971
2026-01-30 05:16:25.25	351.81	19.85	-54.0	-55.9	20.4	0.00e+00	0	46	0	806354944	60	24343
2026-01-30 05:16:26.26	351.59	19.78	-54.0	-56.0	20.2	0.00e+00	0	46	0	808452096	60	24702
2026-01-30 05:16:27.26	351.38	19.72	-53.9	-56.0	20.0	0.00e+00	0	46	0	810549248	60	24838
2026-01-30 05:16:28.27	351.16	19.66	-53.6	-56.1	19.6	0.00e+00	0	46	0	811597824	60	25031
2026-01-30 05:16:29.28	350.94	19.60	-53.4	-56.1	19.6	0.00e+00	0	46	0	813694976	60	24956
2026-01-30 05:16:30.29	350.72	19.53	-53.2	-56.1	19.4	0.00e+00	0	46	0	815792128	60	25036
2026-01-30 05:16:31.30	350.51	19.47	-53.1	-56.2	19.4	0.00e+00	0	46	0	817889280	60	25225
2026-01-30 05:16:32.31	350.29	19.41	-53.2	-56.2	19.6	0.00e+00	0	46	0	819986432	60	25238
2026-01-30 05:16:33.31	350.08	19.34	-53.6	-56.3	19.9	0.00e+00	0	46	0	821035008	60	25522
2026-01-30 05:16:34.32	349.87	19.28	-54.0	-56.2	20.3	0.00e+00	0	46	0	823132160	60	25431
2026-01-30 05:16:35.33	349.66	19.22	-54.3	-56.3	20.3	0.00e+00	0	46	0	825229312	60	25710
2026-01-30 05:16:36.34	349.45	19.15	-54.4	-56.4	20.2	0.00e+00	0	46	0	827326464	60	25893
2026-01-30 05:16:37.35	349.24	19.09	-54.3	-56.4	19.9	0.00e+00	0	46	0	828375040	60	25992
2026-01-30 05:16:38.35	349.03	19.02	-54.4	-56.6	20.0	0.00e+00	0	46	0	830472192	60	26391
2026-01-30 05:16:39.35	348.82	18.96	-54.6	-56.6	19.9	0.00e+00	0	46	0	832569344	60	26617
2026-01-30 05:16:40.36	348.62	18.89	-54.5	-56.3	20.2	0.00e+00	0	46	0	834666496	60	25675
2026-01-30 05:16:41.37	348.41	18.83	-54.8	-56.5	19.9	0.00e+00	0	46	0	836763648	60	26303
2026-01-30 05:16:42.37	348.21	18.76	-55.0	-56.7	19.8	0.00e+00	0	46	0	838860800	60	26817
2026-01-30 05:16:43.38	348.00	18.69	-55.2	-56.9	19.5	0.00e+00	0	46	0	839909376	60	27482
2026-01-30 05:16:44.38	347.80	18.63	-55.2	-57.0	19.3	0.00e+00	0	46	0	842006528	60	27717
2026-01-30 05:16:45.40	347.59	18.56	-55.3	-57.1	19.3	0.00e+00	0	46	0	844103680	60	28095
2026-01-30 05:16:46.40	347.39	18.50	-55.7	-57.7	18.9	0.00e+00	0	46	0	846200832	60	29924
2026-01-30 05:16:47.40	347.20	18.43	-55.8	-57.8	18.7	0.00e+00	0	46	0	848297984	60	30471
2026-01-30 05:16:48.40	347.00	18.36	-55.8	-58.0	18.5	0.00e+00	0	46	0	849346560	60	31248
2026-01-30 05:16:49.41	346.80	18.30	-55.6	-57.9	18.4	0.00e+00	0	46	0	851443712	60	30920
2026-01-30 05:16:50.42	346.60	18.23	-55.5	-57.9	18.2	0.00e+00	0	46	0	853540864	60	30602
2026-01-30 05:16:51.43	346.40	18.16	-55.7	-58.3	18.0	0.00e+00	0	46	0	855638016	60	32188
2026-01-30 05:16:52.43	346.21	18.09	-55.5	-58.0	18.4	0.00e+00	0	46	0	856686592	60	31043
2026-01-30 05:16:53.44	346.01	18.03	-55.7	-58.2	18.0	0.00e+00	0	46	0	858783744	60	31674
2026-01-30 05:16:54.44	345.82	17.96	-55.9	-58.2	18.4	0.00e+00	0	46	0	860880896	60	31772
2026-01-30 05:16:55.45	345.63	17.89	-56.4	-58.8	18.2	0.00e+00	0	46	0	862978048	60	33998
2026-01-30 05:16:56.46	345.43	17.82	-56.4	-58.6	18.1	0.00e+00	0	46	0	865075200	60	33449
2026-01-30 05:16:57.46	345.24	17.75	-56.3	-58.3	18.0	0.00e+00	0	46	0	866123776	60	32358
2026-01-30 05:16:58.47	345.05	17.69	-56.2	-58.3	18.2	0.00e+00	0	46	0	868220928	60	32322
2026-01-30 05:16:59.48	344.86	17.62	-55.5	-57.4	19.2	0.00e+00	0	46	0	870318080	60	28925
2026-01-30 05:17:00.49	344.67	17.55	-54.9	-56.6	19.9	0.00e+00	0	46	0	872415232	60	26641
2026-01-30 05:17:01.49	344.48	17.48	-54.6	-56.2	20.2	0.00e+00	0	46	0	874512384	60	25434
2026-01-30 05:17:02.50	344.30	17.41	-54.6	-56.3	20.1	0.00e+00	0	46	0	876609536	60	25570
2026-01-30 05:17:03.51	344.11	17.34	-54.6	-56.4	20.2	0.00e+00	0	46	0	877658112	60	25785
2026-01-30 05:17:04.51	343.92	17.27	-54.6	-56.3	20.3	0.00e+00	0	46	0	879755264	60	25538
2026-01-30 05:17:05.52	343.74	17.20	-54.4	-56.0	20.5	0.00e+00	0	46	0	881852416	60	24685
2026-01-30 05:17:06.53	343.55	17.13	-54.3	-55.8	20.7	0.00e+00	0	46	0	883949568	60	24060
2026-01-30 05:17:07.53	343.37	17.06	-54.2	-55.7	20.7	0.00e+00	0	46	0	884998144	60	23853
2026-01-30 05:17:08.54	343.19	16.99	-54.1	-55.6	20.7	0.00e+00	0	46	0	887095296	60	23626
2026-01-30 05:17:09.55	343.01	16.92	-54.1	-55.6	20.6	0.00e+00	0	46	0	889192448	60	23726
2026-01-30 05:17:10.56	342.83	16.85	-53.9	-55.4	20.8	0.00e+00	0	46	0	891289600	60	23179
2026-01-30 05:17:11.56	342.65	16.78	-53.8	-55.4	20.8	0.00e+00	0	46	0	893386752	60	22992
2026-01-30 05:17:12.57	342.47	16.71	-53.8	-55.4	20.8	0.00e+00	0	46	0	895483904	60	23136
2026-01-30 05:17:13.57	342.29	16.64	-53.9	-55.5	20.7	0.00e+00	0	46	0	896532480	60	23323
2026-01-30 05:17:14.58	342.12	16.57	-54.0	-55.5	20.6	0.00e+00	0	46	0	898629632	60	23447
2026-01-30 05:17:15.59	341.94	16.50	-54.2	-55.7	20.5	0.00e+00	0	46	0	900726784	60	23901
2026-01-30 05:17:16.59	341.77	16.43	-54.4	-55.9	20.2	0.00e+00	0	46	0	902823936	60	24492
2026-01-30 05:17:17.60	341.59	16.36	-54.4	-56.0	20.1	0.00e+00	0	46	0	904921088	60	24811
2026-01-30 05:17:18.61	341.42	16.29	-54.6	-56.4	19.8	0.00e+00	0	46	0	905969664	60	25740
2026-01-30 05:17:19.62	341.24	16.22	-54.5	-56.2	19.8	0.00e+00	0	46	0	908066816	60	25198
2026-01-30 05:17:20.62	341.07	16.15	-54.2	-55.8	20.2	0.00e+00	0	46	0	910163968	60	24131
2026-01-30 05:17:21.63	340.90	16.08	-54.1	-55.7	20.0	0.00e+00	0	46	0	912261120	60	23998
2026-01-30 05:17:22.63	340.73	16.01	-54.1	-55.7	20.1	0.00e+00	0	46	0	913309696	60	23889
2026-01-30 05:17:23.64	340.56	15.94	-54.1	-55.7	20.0	0.00e+00	0	46	0	915406848	60	23991
2026-01-30 05:17:24.64	340.39	15.87	-54.1	-55.7	19.9	0.00e+00	0	46	0	917504000	60	23930
2026-01-30 05:17:25.64	340.23	15.80	-54.1	-55.8	19.7	0.00e+00	0	46	0	919601152	60	24228
2026-01-30 05:17:26.65	340.06	15.73	-54.1	-55.9	19.5	0.00e+00	0	46	0	921698304	60	24461
2026-01-30 05:17:27.66	339.89	15.66	-54.1	-56.0	19.4	0.00e+00	0	46	0	922746880	60	24629
2026-01-30 05:17:28.67	339.73	15.59	-54.2	-56.1	19.0	0.00e+00	0	46	0	924844032	60	25146
2026-01-30 05:17:29.67	339.56	15.51	-54.2	-56.3	18.9	0.00e+00	0	46	0	926941184	60	25568
2026-01-30 05:17:30.68	339.40	15.44	-54.3	-56.5	18.6	0.00e+00	0	46	0	929038336	60	26061
2026-01-30 05:17:31.69	339.23	15.37	-54.4	-56.6	18.4	0.00e+00	0	46	0	931135488	60	26376
2026-01-30 05:17:32.70	339.07	15.30	-54.5	-56.7	18.1	0.00e+00	0	46	0	933232640	60	26868
2026-01-30 05:17:33.70	338.91	15.23	-54.5	-56.7	18.1	0.00e+00	0	46	0	934281216	60	26888
2026-01-30 05:17:34.71	338.75	15.16	-54.5	-56.9	17.7	0.00e+00	0	46	0	936378368	60	27283
2026-01-30 05:17:35.72	338.59	15.09	-54.6	-57.0	17.6	0.00e+00	0	46	0	938475520	60	27603
2026-01-30 05:17:36.73	338.43	15.02	-54.5	-57.0	17.5	0.00e+00	0	46	0	940572672	60	27703
2026-01-30 05:17:37.74	338.27	14.94	-54.6	-57.1	17.4	0.00e+00	0	46	0	941621248	60	28143
2026-01-30 05:17:38.74	338.11	14.87	-54.6	-57.2	17.3	0.00e+00	0	46	0	943718400	60	28499
2026-01-30 05:17:39.75	337.96	14.80	-54.8	-57.4	17.1	0.00e+00	0	46	0	945815552	60	29185
2026-01-30 05:17:40.75	337.80	14.73	-54.8	-57.5	17.0	0.00e+00	0	46	0	947912704	60	29463
2026-01-30 05:17:41.76	337.65	14.66	-54.9	-57.7	16.9	0.00e+00	0	46	0	950009856	60	29940
2026-01-30 05:17:42.77	337.49	14.59	-55.0	-57.7	16.7	0.00e+00	0	46	0	952107008	60	30213
2026-01-30 05:17:43.78	337.34	14.52	-55.1	-58.0	16.5	0.00e+00	0	46	0	953155584	60	30958
2026-01-30 05:17:44.78	337.18	14.45	-55.3	-58.1	16.5	0.00e+00	0	46	0	955252736	60	31558
2026-01-30 05:17:45.79	337.03	14.37	-55.4	-58.3	16.2	0.00e+00	0	46	0	957349888	60	32288
2026-01-30 05:17:46.80	336.88	14.30	-55.5	-58.6	16.0	0.00e+00	0	46	0	959447040	60	33278
2026-01-30 05:17:47.80	336.73	14.23	-55.6	-58.7	15.8	0.00e+00	0	46	0	961544192	60	33726
2026-01-30 05:17:48.80	336.58	14.16	-55.8	-58.9	15.6	0.00e+00	0	46	0	962592768	60	34532
2026-01-30 05:17:49.81	336.43	14.09	-55.9	-59.1	15.4	0.00e+00	0	46	0	964689920	60	35127
2026-01-30 05:17:50.82	336.28	14.02	-56.0	-59.3	15.3	0.00e+00	0	46	0	966787072	60	36238
2026-01-30 05:17:51.82	336.14	13.95	-56.1	-59.5	15.0	0.00e+00	0	46	0	968884224	60	37182
2026-01-30 05:17:52.83	335.99	13.88	-56.1	-59.8	14.8	0.00e+00	0	46	0	969932800	60	38239
2026-01-30 05:17:53.84	335.84	13.80	-56.0	-60.0	14.5	7.00e-07	0	46	0	972029952	60	39274
2026-01-30 05:17:54.85	335.69	13.73	-56.0	-60.3	14.1	7.00e-07	0	46	0	974127104	60	40354
2026-01-30 05:17:55.86	335.55	13.66	-55.9	-60.4	13.8	1.50e-06	0	46	0	976224256	60	41049
2026-01-30 05:17:56.87	335.40	13.59	-56.1	-60.6	13.6	6.80e-06	0	46	0	978321408	60	42214
2026-01-30 05:17:57.87	335.26	13.52	-56.2	-60.8	13.3	1.14e-05	0	46	0	980418560	60	43091
2026-01-30 05:17:58.88	335.12	13.45	-56.1	-60.9	13.2	1.44e-05	0	46	0	981467136	60	43590
2026-01-30 05:17:59.88	334.98	13.38	-56.1	-61.1	13.0	2.97e-05	0	46	0	983564288	60	44388
2026-01-30 05:18:00.89	334.83	13.31	-56.1	-61.1	12.8	4.73e-05	0	46	0	985661440	60	44591
2026-01-30 05:18:01.89	334.69	13.24	-56.0	-61.3	12.5	6.25e-05	0	46	0	987758592	60	45337
2026-01-30 05:18:02.89	334.56	13.17	-56.0	-61.4	12.3	1.59e-04	0	46	0	989855744	60	46168
2026-01-30 05:18:03.90	334.42	13.09	-56.1	-61.6	12.1	2.21e-04	0	46	0	990904320	60	46843
2026-01-30 05:18:04.90	334.28	13.02	-56.3	-61.8	11.9	3.17e-04	0	46	0	993001472	60	48097
2026-01-30 05:18:05.91	334.14	12.95	-56.6	-62.0	11.7	5.26e-04	0	46	0	995098624	60	49524
2026-01-30 05:18:06.91	334.00	12.88	-56.9	-62.3	11.6	5.83e-04	0	46	0	997195776	60	51138
2026-01-30 05:18:07.92	333.87	12.81	-57.0	-62.6	11.4	7.92e-04	0	46	0	998244352	60	52750
2026-01-30 05:18:08.93	333.73	12.74	-57.1	-62.9	11.2	1.19e-03	0	46	0	1000341504	60	54680
2026-01-30 05:18:09.93	333.59	12.67	-57.1	-63.0	11.1	1.42e-03	0	46	0	1002438656	60	55150
2026-01-30 05:18:10.93	333.46	12.60	-57.0	-63.1	10.9	1.70e-03	0	46	0	1004535808	60	56264
2026-01-30 05:18:11.94	333.33	12.53	-56.9	-63.2	10.5	2.66e-03	0	46	0	1006632960	60	56929
2026-01-30 05:18:12.94	333.19	12.46	-56.7	-63.4	10.3	5.08e-03	0	46	0	1007681536	60	57946
2026-01-30 05:18:13.95	333.06	12.39	-56.4	-63.6	10.0	6.81e-03	0	46	0	1009778688	60	59265
2026-01-30 05:18:14.95	332.93	12.32	-56.1	-63.8	9.6	9.73e-03	0	46	0	1011875840	60	60573
2026-01-30 05:18:15.96	332.80	12.25	-55.7	-63.9	9.3	1.62e-02	0	46	0	1013972992	60	61058
2026-01-30 05:18:16.97	332.67	12.18	-55.4	-63.9	9.1	2.16e-02	0	46	0	1016070144	60	61609
2026-01-30 05:18:17.97	332.54	12.11	-55.3	-64.1	8.9	2.48e-02	0	46	0	1018167296	60	63156
2026-01-30 05:18:18.98	332.41	12.04	-55.1	-64.2	8.9	2.81e-02	0	46	0	1019215872	60	63729
2026-01-30 05:18:19.98	332.28	11.97	-54.7	-64.5	8.6	3.20e-02	0	46	0	1021313024	60	65661
2026-01-30 05:18:20.98	332.15	11.90	-54.6	-64.5	8.3	4.31e-02	0	46	0	1023410176	60	65997
2026-01-30 05:18:21.99	332.02	11.83	-54.6	-64.6	8.2	5.03e-02	0	46	0	1025507328	60	66846
2026-01-30 05:18:23.00	331.90	11.76	-54.6	-64.8	7.9	6.28e-02	0	46	0	1026555904	60	67798
2026-01-30 05:18:24.01	331.77	11.69	-54.7	-64.9	7.7	7.74e-02	0	46	0	1028653056	60	69245
2026-01-30 05:18:25.01	331.64	11.62	-54.7	-65.1	7.5	8.91e-02	0	46	0	1030750208	60	70673
2026-01-30 05:18:26.02	331.52	11.55	-55.0	-65.3	7.3	1.04e-01	0	46	0	1032847360	60	71948
2026-01-30 05:18:27.03	331.39	11.48	-55.0	-65.4	7.0	1.25e-01	0	46	0	1034944512	60	72811
2026-01-30 05:18:28.03	331.27	11.41	-54.9	-65.5	6.8	1.49e-01	0	46	0	1035993088	60	73937
2026-01-30 05:18:29.04	331.15	11.34	-54.8	-65.7	6.4	1.93e-01	0	46	0	1038090240	60	75729
2026-01-30 05:18:30.04	331.02	11.27	-55.1	-65.6	6.4	2.00e-01	0	46	0	1040187392	60	74868
2026-01-30 05:18:31.05	330.90	11.20	-55.0	-67.2	5.1	2.65e-01	0	46	0	1042284544	60	89795
2026-01-30 05:18:32.05	330.78	11.13	-55.5	-67.7	4.7	5.13e-01	0	46	0	1044381696	60	95338
2026-01-30 05:18:33.06	330.66	11.06	-54.8	-66.3	5.7	3.15e-01	0	46	0	1045430272	60	80730
2026-01-30 05:18:34.07	330.54	10.99	-55.2	-66.5	5.5	4.39e-01	0	46	0	1047527424	60	83111
2026-01-30 05:18:35.07	330.42	10.92	-55.3	-66.6	5.5	4.25e-01	0	46	0	1049624576	60	84174
2026-01-30 05:18:36.08	330.30	10.85	-55.5	-66.9	5.3	4.47e-01	0	46	0	1051721728	60	86560
2026-01-30 05:18:37.08	330.18	10.79	-55.6	-67.0	5.2	4.78e-01	0	46	0	1053818880	60	87991
2026-01-30 05:18:38.09	330.06	10.72	-55.7	-67.2	5.2	5.01e-01	0	46	0	1054867456	60	89885
2026-01-30 05:18:39.09	329.95	10.65	-56.0	-67.4	5.1	5.04e-01	0	46	0	1056964608	60	91403
2026-01-30 05:18:40.10	329.83	10.58	-56.6	-67.0	5.5	4.37e-01	0	46	0	1059061760	60	87946
2026-01-30 05:18:41.11	329.71	10.51	-56.6	-68.0	4.9	4.40e-01	0	46	0	1061158912	60	98489
2026-01-30 05:18:42.12	329.60	10.44	-57.8	-69.4	4.1	7.97e-01	0	46	0	1063256064	60	115005
2026-01-30 05:18:43.12	329.48	10.37	-57.4	-67.8	5.1	6.44e-01	0	46	0	1064304640	60	96198
2026-01-30 05:18:44.13	329.37	10.30	-58.0	-69.6	4.1	6.72e-01	0	46	0	1066401792	60	118345
2026-01-30 05:18:45.14	329.25	10.24	-57.6	-68.1	5.0	8.42e-01	0	46	0	1068498944	60	99366
2026-01-30 05:18:46.15	329.14	10.17	-57.7	-68.1	4.9	5.97e-01	0	46	0	1070596096	60	100061
2026-01-30 05:18:47.15	329.02	10.10	-57.9	-68.3	4.8	6.31e-01	0	46	0	1072693248	60	102425
2026-01-30 05:18:48.16	328.91	10.03	-58.0	-68.6	4.7	6.76e-01	0	46	0	1073741824	60	104906
2026-01-30 05:18:49.16	328.80	9.96	-58.1	-68.7	4.6	7.49e-01	0	46	0	1075838976	60	107194
2026-01-30 05:18:50.17	328.69	9.89	-58.2	-68.9	4.5	7.76e-01	0	46	0	1077936128	60	109377
2026-01-30 05:18:51.18	328.58	9.83	-58.4	-73.3	3.6	1.30e+00	0	46	104	1078984704	60	180905
2026-01-30 05:18:52.19	328.47	9.76	-58.4	-70.2	4.7	1.24e+00	0	46	104	1078984704	60	126592
2026-01-30 05:18:53.19	328.36	9.69	-57.8	-72.5	3.6	1.38e+00	0	46	104	1078984704	60	165500
2026-01-30 05:18:54.20	328.25	9.62	-58.7	-72.1	3.8	1.44e+00	0	46	104	1078984704	60	157858
2026-01-30 05:18:55.20	328.14	9.56	-58.2	-69.9	4.0	1.15e+00	0	46	0	1048576	60	122928
2026-01-30 05:18:56.21	328.03	9.49	-58.3	-70.1	3.9	1.35e+00	0	46	0	2097152	60	125898
2026-01-30 05:18:57.22	327.92	9.42	-58.4	-70.4	3.8	1.39e+00	0	46	0	2097152	60	129087
2026-01-30 05:18:58.23	327.82	9.35	-58.5	-70.4	3.8	1.41e+00	0	46	0	2097152	60	129922
2026-01-30 05:18:59.24	327.71	9.29	-58.5	-72.0	3.7	1.44e+00	0	46	104	2097152	60	155766
2026-01-30 05:19:00.24	327.60	9.22	-58.6	-71.6	3.8	1.43e+00	0	46	0	2097152	60	148308
2026-01-30 05:19:01.23	327.50	9.15	-58.7	-72.5	3.8	1.49e+00	0	46	104	2097152	60	164708
2026-01-30 05:19:02.24	327.39	9.09	-58.7	-72.7	3.7	1.49e+00	0	46	104	2097152	60	169107
2026-01-30 05:19:03.25	327.29	9.02	-58.8	-73.1	3.7	1.50e+00	0	46	104	2097152	60	176733
2026-01-30 05:19:04.25	327.18	8.95	-58.5	-73.3	3.6	1.50e+00	0	46	104	2097152	60	181614
2026-01-30 05:19:05.26	327.08	8.88	-58.7	-73.9	3.6	1.51e+00	0	46	104	2097152	60	194226
2026-01-30 05:19:06.27	326.98	8.82	-58.6	-72.8	3.7	1.49e+00	0	46	104	2097152	60	171429
2026-01-30 05:19:07.27	326.87	8.75	-58.8	-74.2	3.6	1.51e+00	0	46	104	2097152	60	200787
2026-01-30 05:19:08.28	326.77	8.68	-58.6	-73.2	3.7	1.51e+00	0	46	104	2097152	60	178291
2026-01-30 05:19:09.29	326.67	8.62	-58.6	-73.4	3.6	1.51e+00	0	46	104	2097152	60	182296
2026-01-30 05:19:10.29	326.57	8.55	-58.7	-73.4	3.6	1.51e+00	0	46	104	2097152	60	184234
2026-01-30 05:19:11.30	326.47	8.49	-58.6	-74.3	3.6	1.51e+00	0	46	104	2097152	60	203199
2026-01-30 05:19:12.31	326.37	8.42	-58.7	-73.5	3.6	1.51e+00	0	46	104	2097152	60	185207
2026-01-30 05:19:13.32	326.27	8.35	-58.5	-74.6	3.6	1.51e+00	0	46	104	2097152	60	209541
2026-01-30 05:19:14.33	326.17	8.29	-58.5	-74.3	3.6	1.51e+00	0	46	104	2097152	60	202558
2026-01-30 05:19:15.34	326.07	8.22	-58.7	-73.9	3.6	1.51e+00	0	46	104	2097152	60	194238
