passes_logs/2026/01/30/R3.2S-Naryan-Mar/R3.2S-Naryan-Mar__20260130_022551_FENGYUN_3D_rec.log

#Pass ID: 20260130_022551_FENGYUN 3D
#Satellite: FENGYUN 3D
#Configuration: FENGYUN 3D
#almurnet v.1.7.20240730
#Start time: 2026-01-30 02:25:52

#Version: 2.2.20231116
#Station: R3.2S-Naryan-Mar
#Location: 53.008057 lon 67.646978 lat
#TLE: 1 43010U 17072A   26028.95797775  .00000451  00000+0  23492-3 0  9991
#TLE: 2 43010  98.9958   0.9922 0002505  85.7480 274.3981 14.19703224425237

#Time	Az	El	Level	Level2	SNR	BER	BlckErr	Temp	State	Recorded	gain1	gain2
2026-01-30 02:25:52.36	28.55	0.03	-57.0	-79.1	3.5	3.02e+01	0	43	0	0	60	343683
2026-01-30 02:25:53.36	28.53	0.09	-56.3	-73.7	3.6	8.45e-01	0	44	104	0	60	189663
2026-01-30 02:25:54.37	28.51	0.15	-57.2	-74.1	3.6	8.45e-01	0	44	104	0	60	198659
2026-01-30 02:25:55.38	28.49	0.21	-60.4	-75.7	3.6	8.45e-01	0	44	104	0	60	238195
2026-01-30 02:25:56.39	28.47	0.27	-59.8	-75.0	3.6	8.45e-01	0	44	104	0	60	221567
2026-01-30 02:25:57.40	28.45	0.33	-60.8	-75.8	3.6	8.45e-01	0	44	104	0	60	242716
2026-01-30 02:25:58.41	28.43	0.39	-58.2	-75.3	3.6	8.45e-01	0	45	104	0	60	228210
2026-01-30 02:25:59.42	28.41	0.45	-60.8	-75.9	3.6	8.45e-01	0	45	104	0	60	243098
2026-01-30 02:26:00.43	28.38	0.51	-60.6	-75.9	3.6	8.45e-01	0	45	104	0	60	244572
2026-01-30 02:26:01.43	28.36	0.57	-60.9	-75.6	3.6	8.45e-01	0	45	104	0	60	236075
2026-01-30 02:26:02.44	28.34	0.63	-60.5	-75.4	3.6	8.44e-01	0	45	104	0	60	230966
2026-01-30 02:26:03.45	28.32	0.69	-61.3	-75.9	3.6	8.44e-01	0	45	104	0	60	244338
2026-01-30 02:26:04.45	28.30	0.75	-59.3	-75.6	3.6	8.45e-01	0	45	104	0	60	237234
2026-01-30 02:26:05.46	28.28	0.81	-61.6	-75.8	3.6	8.45e-01	0	45	104	0	60	240297
2026-01-30 02:26:06.46	28.25	0.87	-61.5	-75.9	3.6	8.46e-01	0	45	104	0	60	244572
2026-01-30 02:26:07.47	28.23	0.93	-57.6	-74.5	3.6	8.44e-01	0	45	104	0	60	207958
2026-01-30 02:26:08.47	28.21	0.99	-56.1	-74.1	3.6	8.43e-01	0	45	104	0	60	199453
2026-01-30 02:26:09.48	28.19	1.06	-58.3	-74.2	3.6	8.45e-01	0	45	104	0	60	201347
2026-01-30 02:26:10.49	28.16	1.12	-53.1	-73.2	3.6	8.41e-01	0	45	104	0	60	179784
2026-01-30 02:26:11.49	28.14	1.18	-58.2	-74.5	3.6	8.45e-01	0	45	104	0	60	208645
2026-01-30 02:26:12.50	28.12	1.24	-58.4	-73.1	3.6	8.44e-01	0	45	104	0	60	177673
2026-01-30 02:26:13.51	28.10	1.30	-58.2	-74.9	3.6	8.44e-01	0	45	104	0	60	218248
2026-01-30 02:26:14.52	28.07	1.36	-47.5	-68.4	3.6	8.38e-01	0	45	104	0	60	102536
2026-01-30 02:26:15.52	28.05	1.43	-47.7	-69.5	3.6	8.43e-01	0	45	104	0	60	117026
2026-01-30 02:26:16.53	28.03	1.49	-57.6	-73.5	3.6	8.45e-01	0	45	104	0	60	186039
2026-01-30 02:26:17.53	28.00	1.55	-52.9	-73.4	3.6	8.44e-01	0	45	104	0	60	182609
2026-01-30 02:26:18.54	27.98	1.61	-50.2	-69.5	3.6	8.40e-01	0	45	104	0	60	117090
2026-01-30 02:26:19.55	27.96	1.68	-57.3	-73.1	3.6	8.44e-01	0	45	104	0	60	177559
2026-01-30 02:26:20.55	27.93	1.74	-51.8	-70.6	3.6	8.44e-01	0	45	104	0	60	133070
2026-01-30 02:26:21.56	27.91	1.80	-56.0	-74.4	3.6	8.45e-01	0	45	104	0	60	205585
2026-01-30 02:26:22.56	27.89	1.86	-58.2	-73.8	3.6	8.44e-01	0	45	104	0	60	192407
2026-01-30 02:26:23.57	27.86	1.93	-56.4	-73.4	3.6	8.46e-01	0	45	104	0	60	182772
2026-01-30 02:26:24.57	27.84	1.99	-57.8	-73.3	3.6	8.44e-01	0	45	104	0	60	181618
2026-01-30 02:26:25.58	27.81	2.05	-52.6	-71.5	3.6	8.43e-01	0	45	104	0	60	147017
2026-01-30 02:26:26.59	27.79	2.12	-55.9	-73.2	3.6	8.46e-01	0	45	104	0	60	179484
2026-01-30 02:26:27.59	27.76	2.18	-52.4	-72.3	3.6	8.45e-01	0	45	104	0	60	160648
2026-01-30 02:26:28.60	27.74	2.24	-46.0	-67.4	3.5	8.37e-01	0	45	104	0	60	91538
2026-01-30 02:26:29.61	27.71	2.31	-46.1	-67.6	3.6	8.37e-01	0	45	104	0	60	93938
2026-01-30 02:26:30.62	27.69	2.37	-46.1	-66.2	3.6	8.37e-01	0	45	104	0	60	80277
2026-01-30 02:26:31.62	27.66	2.44	-46.0	-66.1	3.6	8.37e-01	0	45	104	0	60	79346
2026-01-30 02:26:32.62	27.64	2.50	-46.1	-67.5	3.6	8.36e-01	0	45	104	0	60	92447
2026-01-30 02:26:33.63	27.61	2.56	-45.9	-67.2	3.6	8.37e-01	0	45	104	0	60	89896
2026-01-30 02:26:34.64	27.59	2.63	-45.7	-67.4	3.6	8.38e-01	0	45	104	0	60	92310
2026-01-30 02:26:35.65	27.56	2.69	-45.9	-67.3	3.6	8.39e-01	0	45	104	0	60	90836
2026-01-30 02:26:36.65	27.54	2.76	-45.9	-67.4	3.6	8.37e-01	0	45	104	0	60	91970
2026-01-30 02:26:37.66	27.51	2.82	-45.8	-67.0	3.6	8.37e-01	0	45	104	0	60	87317
2026-01-30 02:26:38.67	27.49	2.89	-45.8	-67.5	3.6	8.37e-01	0	45	104	0	60	92662
2026-01-30 02:26:39.67	27.46	2.95	-45.6	-65.8	3.6	8.35e-01	0	45	104	0	60	76181
2026-01-30 02:26:40.67	27.43	3.02	-45.7	-65.8	3.6	8.36e-01	0	45	104	0	60	76606
2026-01-30 02:26:41.68	27.41	3.08	-45.7	-66.8	3.6	8.37e-01	0	45	104	0	60	85927
2026-01-30 02:26:42.68	27.38	3.15	-46.1	-67.7	3.6	8.37e-01	0	45	104	0	60	95321
2026-01-30 02:26:43.69	27.35	3.22	-46.3	-67.6	3.6	8.38e-01	0	45	104	0	60	93957
2026-01-30 02:26:44.70	27.33	3.28	-46.2	-67.6	3.6	8.38e-01	0	45	104	0	60	94235
2026-01-30 02:26:45.70	27.30	3.35	-46.3	-67.8	3.6	8.38e-01	0	45	104	0	60	96423
2026-01-30 02:26:46.71	27.27	3.41	-46.5	-67.3	3.5	8.37e-01	0	45	104	0	60	90983
2026-01-30 02:26:47.72	27.25	3.48	-46.4	-66.4	3.6	8.37e-01	0	45	104	0	60	81589
2026-01-30 02:26:48.73	27.22	3.55	-46.4	-67.8	3.6	8.38e-01	0	45	104	0	60	95642
2026-01-30 02:26:49.74	27.19	3.61	-46.6	-67.9	3.6	8.37e-01	0	45	104	0	60	97220
2026-01-30 02:26:50.74	27.16	3.68	-46.3	-67.4	3.6	8.38e-01	0	45	104	0	60	92093
2026-01-30 02:26:51.75	27.14	3.75	-46.1	-67.4	3.6	8.37e-01	0	45	104	0	60	92326
2026-01-30 02:26:52.76	27.11	3.82	-46.2	-67.3	3.5	8.39e-01	0	45	104	0	60	90373
2026-01-30 02:26:53.76	27.08	3.88	-46.3	-67.4	3.6	8.38e-01	0	45	104	0	60	91963
2026-01-30 02:26:54.77	27.05	3.95	-46.3	-67.7	3.6	8.38e-01	0	45	104	0	60	95394
2026-01-30 02:26:55.78	27.02	4.02	-46.1	-67.1	3.6	8.39e-01	0	45	104	0	60	88797
2026-01-30 02:26:56.79	27.00	4.09	-46.2	-66.2	3.6	8.38e-01	0	45	104	0	60	79762
2026-01-30 02:26:57.79	26.97	4.15	-46.1	-67.1	3.6	8.37e-01	0	45	104	0	60	88951
2026-01-30 02:26:58.80	26.94	4.22	-46.1	-66.0	3.6	8.38e-01	0	45	104	0	60	78131
2026-01-30 02:26:59.80	26.91	4.29	-46.3	-66.3	3.6	8.39e-01	0	45	104	0	60	80745
2026-01-30 02:27:00.81	26.88	4.36	-46.3	-67.1	3.6	8.39e-01	0	45	104	0	60	88847
2026-01-30 02:27:01.82	26.85	4.43	-46.1	-67.4	3.6	8.37e-01	0	45	104	0	60	91960
2026-01-30 02:27:02.83	26.82	4.50	-46.1	-67.7	3.6	8.37e-01	0	45	104	0	60	94676
2026-01-30 02:27:03.84	26.79	4.57	-46.0	-67.1	3.6	8.38e-01	0	45	104	0	60	88269
2026-01-30 02:27:04.85	26.76	4.64	-46.0	-67.0	3.6	8.39e-01	0	45	104	0	60	87641
2026-01-30 02:27:05.85	26.73	4.71	-45.9	-67.5	3.6	8.38e-01	0	45	104	0	60	93015
2026-01-30 02:27:06.86	26.70	4.77	-46.0	-67.3	3.6	8.40e-01	0	45	104	0	60	90519
2026-01-30 02:27:07.87	26.67	4.84	-46.0	-65.8	3.6	8.38e-01	0	45	104	0	60	76789
2026-01-30 02:27:08.88	26.64	4.91	-45.9	-66.9	3.6	8.40e-01	0	46	104	0	60	86744
2026-01-30 02:27:09.88	26.61	4.98	-45.9	-66.7	3.6	8.42e-01	0	46	104	0	60	85057
2026-01-30 02:27:10.89	26.58	5.06	-45.9	-65.6	3.6	8.42e-01	0	45	104	0	60	74566
2026-01-30 02:27:11.89	26.55	5.13	-45.9	-64.6	3.7	8.44e-01	0	45	104	0	60	66556
2026-01-30 02:27:12.90	26.52	5.20	-45.6	-62.5	4.0	8.41e-01	0	45	104	0	60	52434
2026-01-30 02:27:13.91	26.49	5.27	-45.7	-60.3	5.4	7.14e-01	0	45	0	0	60	40517
2026-01-30 02:27:14.92	26.46	5.34	-45.6	-59.0	6.2	3.35e-01	0	45	0	4194304	60	34951
2026-01-30 02:27:15.92	26.42	5.41	-45.6	-57.7	7.2	1.03e-01	0	45	0	10485760	60	30175
2026-01-30 02:27:16.93	26.39	5.48	-45.5	-56.5	8.3	6.81e-02	0	46	0	3145728	60	26254
2026-01-30 02:27:17.93	26.36	5.55	-45.3	-55.5	9.2	3.14e-02	0	45	0	8388608	60	23285
2026-01-30 02:27:18.94	26.33	5.62	-45.2	-54.6	10.0	8.60e-03	0	45	0	14680064	60	21027
2026-01-30 02:27:19.95	26.30	5.70	-45.1	-53.8	10.8	2.84e-03	0	46	0	19922944	60	19240
2026-01-30 02:27:20.96	26.26	5.77	-45.1	-53.4	11.4	1.09e-03	0	45	0	25165824	60	18342
2026-01-30 02:27:21.97	26.23	5.84	-44.9	-53.0	11.7	4.73e-04	0	46	0	31457280	60	17520
2026-01-30 02:27:22.98	26.20	5.91	-45.0	-52.8	11.8	2.62e-04	0	45	0	37748736	60	17149
2026-01-30 02:27:23.98	26.16	5.99	-45.0	-52.8	11.9	2.46e-04	0	45	0	42991616	60	17029
2026-01-30 02:27:24.99	26.13	6.06	-44.9	-53.0	11.7	3.40e-04	0	46	0	48234496	60	17443
2026-01-30 02:27:26.00	26.10	6.13	-45.0	-52.9	12.3	2.15e-04	0	46	0	54525952	60	17400
2026-01-30 02:27:27.01	26.06	6.21	-48.5	-54.4	14.3	1.10e-06	0	45	0	59768832	60	20676
2026-01-30 02:27:28.02	26.03	6.28	-46.3	-56.7	8.0	1.83e-03	0	46	0	65011712	60	26864
2026-01-30 02:27:29.02	26.00	6.35	-48.0	-53.5	16.3	1.14e-05	0	46	0	71303168	60	18623
2026-01-30 02:27:30.03	25.96	6.43	-48.5	-57.8	8.6	5.92e-03	0	46	0	76546048	60	30508
2026-01-30 02:27:31.03	25.93	6.50	-45.7	-53.6	12.6	5.16e-04	0	46	0	81788928	60	18670
2026-01-30 02:27:32.04	25.89	6.57	-47.1	-53.3	14.8	0.00e+00	0	46	0	88080384	60	18179
2026-01-30 02:27:33.04	25.86	6.65	-48.6	-53.3	16.9	0.00e+00	0	46	0	93323264	60	18067
2026-01-30 02:27:34.05	25.82	6.72	-49.9	-53.2	18.0	0.00e+00	0	46	0	99614720	60	17919
2026-01-30 02:27:35.06	25.79	6.80	-50.4	-53.3	18.1	0.00e+00	0	46	0	104857600	60	18164
2026-01-30 02:27:36.07	25.75	6.87	-51.1	-53.1	18.6	0.00e+00	0	46	0	110100480	60	17735
2026-01-30 02:27:37.08	25.72	6.95	-51.3	-52.6	19.1	0.00e+00	0	46	0	116391936	60	16803
2026-01-30 02:27:38.09	25.68	7.02	-51.4	-52.7	19.1	0.00e+00	0	46	0	122683392	60	16925
2026-01-30 02:27:39.10	25.65	7.10	-51.4	-52.8	19.0	0.00e+00	0	45	0	127926272	60	17135
2026-01-30 02:27:40.10	25.61	7.18	-51.4	-52.8	19.1	0.00e+00	0	46	0	133169152	60	17170
2026-01-30 02:27:41.11	25.57	7.25	-51.2	-52.7	19.4	0.00e+00	0	46	0	139460608	60	16820
2026-01-30 02:27:42.12	25.54	7.33	-50.6	-52.4	19.6	0.00e+00	0	46	0	144703488	60	16254
2026-01-30 02:27:43.12	25.50	7.40	-50.3	-52.4	19.4	0.00e+00	0	46	0	149946368	60	16251
2026-01-30 02:27:44.13	25.46	7.48	-49.8	-52.2	19.2	0.00e+00	0	46	0	156237824	60	15959
2026-01-30 02:27:45.14	25.42	7.56	-49.2	-52.0	18.5	0.00e+00	0	45	0	161480704	60	15602
2026-01-30 02:27:46.14	25.39	7.64	-48.7	-51.9	17.7	0.00e+00	0	46	0	166723584	60	15418
2026-01-30 02:27:47.15	25.35	7.71	-48.5	-52.0	17.4	0.00e+00	0	46	0	173015040	60	15509
2026-01-30 02:27:48.16	25.31	7.79	-48.3	-52.0	16.9	0.00e+00	0	46	0	178257920	60	15607
2026-01-30 02:27:49.16	25.27	7.87	-48.3	-52.0	16.7	0.00e+00	0	46	0	184549376	60	15668
2026-01-30 02:27:50.17	25.24	7.95	-48.4	-52.1	16.7	0.00e+00	0	45	0	189792256	60	15791
2026-01-30 02:27:51.18	25.20	8.03	-49.2	-52.2	17.6	0.00e+00	0	46	0	196083712	60	15878
2026-01-30 02:27:52.19	25.16	8.10	-49.8	-52.2	18.6	0.00e+00	0	46	0	201326592	60	15925
2026-01-30 02:27:53.20	25.12	8.18	-50.2	-52.1	19.1	0.00e+00	0	46	0	207618048	60	15795
2026-01-30 02:27:54.20	25.08	8.26	-50.4	-52.0	19.8	0.00e+00	0	46	0	212860928	60	15619
2026-01-30 02:27:55.20	25.04	8.34	-50.2	-51.9	19.9	0.00e+00	0	46	0	218103808	60	15463
2026-01-30 02:27:56.21	25.00	8.42	-49.7	-51.8	19.3	0.00e+00	0	46	0	224395264	60	15245
2026-01-30 02:27:57.22	24.96	8.50	-49.0	-51.7	18.1	0.00e+00	0	46	0	229638144	60	15011
2026-01-30 02:27:58.23	24.92	8.58	-48.2	-51.7	16.4	0.00e+00	0	46	0	234881024	60	15122
2026-01-30 02:27:59.23	24.88	8.66	-46.9	-51.5	14.7	0.00e+00	0	46	0	241172480	60	14735
2026-01-30 02:28:00.24	24.84	8.74	-46.5	-51.5	14.4	0.00e+00	0	46	0	246415360	60	14671
2026-01-30 02:28:01.24	24.80	8.82	-46.3	-51.5	14.3	0.00e+00	0	46	0	251658240	60	14807
2026-01-30 02:28:02.25	24.76	8.90	-46.6	-51.6	14.7	0.00e+00	0	46	0	257949696	60	14901
2026-01-30 02:28:03.25	24.72	8.98	-46.6	-51.5	15.0	0.00e+00	0	46	0	263192576	60	14773
2026-01-30 02:28:04.25	24.67	9.06	-47.0	-51.6	15.6	0.00e+00	0	46	0	269484032	60	14951
2026-01-30 02:28:05.25	24.63	9.15	-47.5	-51.6	16.5	0.00e+00	0	46	0	274726912	60	14892
2026-01-30 02:28:06.26	24.59	9.23	-48.3	-51.6	18.1	0.00e+00	0	46	0	279969792	60	14955
2026-01-30 02:28:07.26	24.55	9.31	-49.0	-51.6	18.8	0.00e+00	0	46	0	286261248	60	14862
2026-01-30 02:28:08.27	24.50	9.39	-49.4	-51.6	19.0	0.00e+00	0	46	0	291504128	60	14885
2026-01-30 02:28:09.28	24.46	9.47	-49.7	-51.6	18.8	0.00e+00	0	46	0	297795584	60	14856
2026-01-30 02:28:10.29	24.42	9.56	-49.8	-51.6	18.1	0.00e+00	0	46	0	303038464	60	14873
2026-01-30 02:28:11.30	24.37	9.64	-49.5	-51.5	17.5	0.00e+00	0	46	0	309329920	60	14763
2026-01-30 02:28:12.30	24.33	9.72	-49.5	-51.6	17.2	0.00e+00	0	46	0	314572800	60	14877
2026-01-30 02:28:13.31	24.29	9.81	-49.4	-51.6	17.2	0.00e+00	0	46	0	319815680	60	14885
2026-01-30 02:28:14.32	24.24	9.89	-49.3	-51.6	17.3	0.00e+00	0	46	0	326107136	60	14897
2026-01-30 02:28:15.33	24.20	9.98	-49.4	-51.6	17.5	0.00e+00	0	46	0	331350016	60	14903
2026-01-30 02:28:16.34	24.15	10.06	-49.5	-51.7	18.0	0.00e+00	0	46	0	336592896	60	14983
2026-01-30 02:28:17.34	24.11	10.15	-49.5	-51.6	18.4	0.00e+00	0	46	0	342884352	60	14972
2026-01-30 02:28:18.35	24.06	10.23	-49.5	-51.7	19.0	0.00e+00	0	46	0	348127232	60	15070
2026-01-30 02:28:19.35	24.02	10.32	-49.3	-51.7	19.4	0.00e+00	0	46	0	354418688	60	15017
2026-01-30 02:28:20.35	23.97	10.40	-49.0	-51.6	19.8	0.00e+00	0	46	0	359661568	60	14949
2026-01-30 02:28:21.36	23.92	10.49	-48.8	-51.6	20.0	0.00e+00	0	46	0	364904448	60	14907
2026-01-30 02:28:22.37	23.88	10.57	-48.4	-51.6	19.8	0.00e+00	0	46	0	371195904	60	14933
2026-01-30 02:28:23.37	23.83	10.66	-47.9	-51.6	19.6	0.00e+00	0	46	0	376438784	60	14966
2026-01-30 02:28:24.38	23.78	10.75	-47.6	-51.6	18.9	0.00e+00	0	46	0	382730240	60	14953
2026-01-30 02:28:25.39	23.73	10.83	-47.3	-51.6	18.8	0.00e+00	0	46	0	387973120	60	14927
2026-01-30 02:28:26.39	23.69	10.92	-47.4	-51.6	18.4	0.00e+00	0	45	0	394264576	60	14916
2026-01-30 02:28:27.40	23.64	11.01	-47.2	-51.6	18.0	0.00e+00	0	46	0	399507456	60	14890
2026-01-30 02:28:28.41	23.59	11.10	-46.9	-51.6	17.2	0.00e+00	0	45	0	404750336	60	14834
2026-01-30 02:28:29.41	23.54	11.18	-46.5	-51.6	16.4	0.00e+00	0	46	0	411041792	60	14833
2026-01-30 02:28:30.42	23.49	11.27	-46.4	-51.5	16.0	0.00e+00	0	46	0	416284672	60	14731
2026-01-30 02:28:31.43	23.44	11.36	-46.1	-51.3	15.8	0.00e+00	0	45	0	421527552	60	14391
2026-01-30 02:28:32.44	23.39	11.45	-46.0	-51.2	15.3	0.00e+00	0	46	0	427819008	60	14302
2026-01-30 02:28:33.45	23.34	11.54	-46.0	-51.3	14.7	1.10e-06	0	46	0	433061888	60	14332
2026-01-30 02:28:34.45	23.29	11.63	-46.1	-51.2	14.6	0.00e+00	0	46	0	439353344	60	14202
2026-01-30 02:28:35.46	23.24	11.72	-46.3	-51.0	14.6	0.00e+00	0	46	0	444596224	60	13975
2026-01-30 02:28:36.47	23.19	11.81	-46.6	-51.1	14.7	0.00e+00	0	46	0	449839104	60	14048
2026-01-30 02:28:37.47	23.14	11.90	-47.1	-51.1	14.8	0.00e+00	0	46	0	456130560	60	14055
2026-01-30 02:28:38.48	23.09	11.99	-47.5	-51.0	15.2	0.00e+00	0	46	0	462422016	60	13938
2026-01-30 02:28:39.49	23.03	12.08	-48.4	-51.0	16.0	0.00e+00	0	46	0	467664896	60	13930
2026-01-30 02:28:40.50	22.98	12.18	-48.8	-51.1	16.5	0.00e+00	0	46	0	472907776	60	13995
2026-01-30 02:28:41.50	22.93	12.27	-48.7	-50.9	17.3	0.00e+00	0	46	0	479199232	60	13802
2026-01-30 02:28:42.52	22.87	12.36	-48.5	-50.9	17.1	0.00e+00	0	46	0	484442112	60	13720
2026-01-30 02:28:43.52	22.82	12.45	-47.9	-50.8	16.5	0.00e+00	0	46	0	489684992	60	13626
2026-01-30 02:28:44.53	22.77	12.55	-47.5	-50.7	16.1	0.00e+00	0	46	0	495976448	60	13489
2026-01-30 02:28:45.54	22.71	12.64	-47.0	-50.6	15.7	0.00e+00	0	46	0	501219328	60	13322
2026-01-30 02:28:46.54	22.66	12.73	-46.5	-50.5	15.3	0.00e+00	0	46	0	506462208	60	13168
2026-01-30 02:28:47.54	22.60	12.83	-46.0	-50.6	15.1	0.00e+00	0	46	0	512753664	60	13231
2026-01-30 02:28:48.55	22.55	12.92	-45.4	-50.6	14.9	0.00e+00	0	46	0	517996544	60	13247
2026-01-30 02:28:49.56	22.49	13.02	-44.9	-50.5	15.1	0.00e+00	0	46	0	524288000	60	13190
2026-01-30 02:28:50.57	22.43	13.11	-44.8	-50.5	15.4	0.00e+00	0	46	0	529530880	60	13073
2026-01-30 02:28:51.57	22.38	13.21	-45.0	-50.5	16.2	0.00e+00	0	46	0	534773760	60	13174
2026-01-30 02:28:52.58	22.32	13.30	-45.9	-50.5	17.1	0.00e+00	0	46	0	541065216	60	13106
2026-01-30 02:28:53.59	22.26	13.40	-46.9	-50.5	18.1	0.00e+00	0	46	0	547356672	60	13081
2026-01-30 02:28:54.58	22.21	13.49	-47.8	-50.4	19.5	0.00e+00	0	46	0	552599552	60	13044
2026-01-30 02:28:55.59	22.15	13.59	-48.6	-50.5	20.7	0.00e+00	0	46	0	557842432	60	13077
2026-01-30 02:28:56.60	22.09	13.69	-48.7	-50.3	21.7	0.00e+00	0	46	0	564133888	60	12887
2026-01-30 02:28:57.60	22.03	13.78	-48.4	-50.3	22.2	0.00e+00	0	46	0	569376768	60	12851
2026-01-30 02:28:58.61	21.97	13.88	-47.9	-50.3	21.7	0.00e+00	0	46	0	574619648	60	12854
2026-01-30 02:28:59.62	21.91	13.98	-47.2	-50.2	20.8	0.00e+00	0	46	0	580911104	60	12751
2026-01-30 02:29:00.62	21.85	14.08	-47.0	-50.2	20.0	0.00e+00	0	46	0	586153984	60	12729
2026-01-30 02:29:01.63	21.79	14.18	-47.2	-50.3	19.6	0.00e+00	0	46	0	591396864	60	12825
2026-01-30 02:29:02.64	21.73	14.28	-47.6	-50.3	19.4	0.00e+00	0	46	0	597688320	60	12814
2026-01-30 02:29:03.65	21.67	14.38	-48.1	-50.3	19.9	0.00e+00	0	46	0	602931200	60	12810
2026-01-30 02:29:04.65	21.60	14.47	-48.4	-50.3	20.3	0.00e+00	0	46	0	609222656	60	12890
2026-01-30 02:29:05.66	21.54	14.57	-48.5	-50.3	21.1	0.00e+00	0	46	0	614465536	60	12887
2026-01-30 02:29:06.66	21.48	14.67	-48.4	-50.3	21.9	0.00e+00	0	46	0	619708416	60	12851
2026-01-30 02:29:07.67	21.42	14.78	-47.9	-50.3	22.2	0.00e+00	0	46	0	625999872	60	12772
2026-01-30 02:29:08.68	21.35	14.88	-47.5	-50.3	22.3	0.00e+00	0	46	0	632291328	60	12784
2026-01-30 02:29:09.68	21.29	14.98	-47.3	-50.2	22.3	0.00e+00	0	46	0	637534208	60	12736
2026-01-30 02:29:10.69	21.22	15.08	-47.3	-50.2	22.3	0.00e+00	0	46	0	642777088	60	12727
2026-01-30 02:29:11.70	21.16	15.18	-47.3	-50.1	22.4	0.00e+00	0	46	0	649068544	60	12599
2026-01-30 02:29:12.70	21.09	15.29	-47.6	-50.1	22.5	0.00e+00	0	46	0	654311424	60	12492
2026-01-30 02:29:13.70	21.03	15.39	-48.0	-50.1	22.5	0.00e+00	0	46	0	659554304	60	12488
2026-01-30 02:29:14.71	20.96	15.49	-48.0	-50.0	22.5	0.00e+00	0	46	0	665845760	60	12378
2026-01-30 02:29:15.71	20.89	15.60	-47.9	-49.9	22.0	0.00e+00	0	46	0	671088640	60	12225
2026-01-30 02:29:16.72	20.82	15.70	-47.4	-49.8	21.0	0.00e+00	0	46	0	677380096	60	12110
2026-01-30 02:29:17.73	20.76	15.81	-46.9	-49.7	20.3	0.00e+00	0	46	0	682622976	60	11976
2026-01-30 02:29:18.73	20.69	15.91	-46.7	-49.6	19.9	0.00e+00	0	46	0	687865856	60	11845
2026-01-30 02:29:19.73	20.62	16.02	-46.7	-49.6	19.8	0.00e+00	0	46	0	694157312	60	11794
2026-01-30 02:29:20.74	20.55	16.12	-46.9	-49.6	19.9	0.00e+00	0	46	0	699400192	60	11774
2026-01-30 02:29:21.74	20.48	16.23	-47.7	-49.5	21.0	0.00e+00	0	46	0	704643072	60	11715
2026-01-30 02:29:22.75	20.41	16.34	-48.3	-49.4	21.9	0.00e+00	0	46	0	710934528	60	11618
2026-01-30 02:29:23.75	20.34	16.44	-48.5	-49.4	23.0	0.00e+00	0	46	0	716177408	60	11564
2026-01-30 02:29:24.75	20.27	16.55	-48.3	-49.4	23.3	0.00e+00	0	46	0	721420288	60	11531
2026-01-30 02:29:25.76	20.19	16.66	-48.1	-49.3	23.4	0.00e+00	0	46	0	727711744	60	11422
2026-01-30 02:29:26.76	20.12	16.77	-48.1	-49.3	23.4	0.00e+00	0	46	0	732954624	60	11409
2026-01-30 02:29:27.77	20.05	16.88	-48.2	-49.3	23.4	0.00e+00	0	46	0	739246080	60	11376
2026-01-30 02:29:28.77	19.97	16.99	-48.2	-49.2	22.8	0.00e+00	0	46	0	744488960	60	11332
2026-01-30 02:29:29.78	19.90	17.10	-47.8	-49.2	22.1	0.00e+00	0	46	0	750780416	60	11308
2026-01-30 02:29:30.78	19.82	17.21	-47.1	-49.2	21.4	0.00e+00	0	46	0	756023296	60	11294
2026-01-30 02:29:31.79	19.75	17.32	-46.5	-49.2	20.9	0.00e+00	0	46	0	762314752	60	11346
2026-01-30 02:29:32.80	19.67	17.43	-46.2	-49.3	21.1	0.00e+00	0	46	0	767557632	60	11386
2026-01-30 02:29:33.81	19.59	17.54	-46.4	-49.3	21.9	0.00e+00	0	46	0	772800512	60	11407
2026-01-30 02:29:34.82	19.52	17.65	-46.9	-49.3	22.9	0.00e+00	0	46	0	779091968	60	11449
2026-01-30 02:29:35.83	19.44	17.77	-47.5	-49.3	23.1	0.00e+00	0	46	0	784334848	60	11479
2026-01-30 02:29:36.83	19.36	17.88	-47.5	-49.3	22.4	0.00e+00	0	46	0	789577728	60	11423
2026-01-30 02:29:37.84	19.28	17.99	-47.0	-49.3	21.0	0.00e+00	0	46	0	795869184	60	11398
2026-01-30 02:29:38.85	19.20	18.11	-46.4	-49.3	19.9	0.00e+00	0	46	0	801112064	60	11390
2026-01-30 02:29:39.86	19.12	18.22	-45.2	-49.1	18.4	0.00e+00	0	46	0	806354944	60	11111
2026-01-30 02:29:40.86	19.04	18.34	-44.9	-49.0	17.7	0.00e+00	0	46	0	812646400	60	11034
2026-01-30 02:29:41.87	18.95	18.45	-44.9	-48.9	17.4	0.00e+00	0	46	0	817889280	60	10966
2026-01-30 02:29:42.88	18.87	18.57	-45.4	-48.8	17.7	0.00e+00	0	46	0	824180736	60	10823
2026-01-30 02:29:43.88	18.79	18.69	-45.8	-48.8	18.2	0.00e+00	0	46	0	829423616	60	10770
2026-01-30 02:29:44.88	18.70	18.80	-46.6	-48.8	18.8	0.00e+00	0	46	0	835715072	60	10752
2026-01-30 02:29:45.89	18.62	18.92	-47.4	-48.7	20.9	0.00e+00	0	46	0	840957952	60	10669
2026-01-30 02:29:46.90	18.53	19.04	-47.6	-48.7	22.4	0.00e+00	0	46	0	847249408	60	10630
2026-01-30 02:29:47.91	18.45	19.16	-47.4	-48.7	23.6	0.00e+00	0	46	0	852492288	60	10644
2026-01-30 02:29:48.92	18.36	19.28	-46.9	-48.7	22.8	0.00e+00	0	46	0	857735168	60	10614
2026-01-30 02:29:49.93	18.27	19.40	-46.5	-48.6	21.3	0.00e+00	0	46	0	864026624	60	10566
2026-01-30 02:29:50.93	18.19	19.52	-46.6	-48.6	20.5	0.00e+00	0	46	0	869269504	60	10507
2026-01-30 02:29:51.94	18.10	19.64	-46.8	-48.6	20.4	0.00e+00	0	46	0	874512384	60	10498
2026-01-30 02:29:52.95	18.01	19.76	-47.2	-48.5	20.9	0.00e+00	0	46	0	880803840	60	10459
2026-01-30 02:29:53.96	17.92	19.88	-47.3	-48.5	21.8	0.00e+00	0	46	0	886046720	60	10419
2026-01-30 02:29:54.97	17.82	20.00	-47.5	-48.4	22.9	0.00e+00	0	46	0	891289600	60	10363
2026-01-30 02:29:55.97	17.73	20.12	-47.3	-48.5	24.0	0.00e+00	0	46	0	897581056	60	10377
2026-01-30 02:29:56.98	17.64	20.25	-46.9	-48.4	24.0	0.00e+00	0	46	0	903872512	60	10358
2026-01-30 02:29:57.99	17.55	20.37	-46.6	-48.5	23.4	0.00e+00	0	46	0	909115392	60	10386
2026-01-30 02:29:59.00	17.45	20.50	-46.3	-48.4	23.2	0.00e+00	0	46	0	914358272	60	10307
2026-01-30 02:30:00.01	17.36	20.62	-46.3	-48.4	22.9	0.00e+00	0	46	0	920649728	60	10282
2026-01-30 02:30:01.01	17.26	20.75	-46.4	-48.5	22.7	0.00e+00	0	46	0	925892608	60	10404
2026-01-30 02:30:02.02	17.16	20.87	-46.6	-48.4	23.0	0.00e+00	0	46	0	932184064	60	10299
2026-01-30 02:30:03.03	17.07	21.00	-46.9	-48.3	23.3	0.00e+00	0	46	0	937426944	60	10224
2026-01-30 02:30:04.03	16.97	21.12	-47.2	-48.3	23.3	0.00e+00	0	46	0	942669824	60	10231
2026-01-30 02:30:05.04	16.87	21.25	-47.3	-48.4	23.1	0.00e+00	0	46	0	948961280	60	10254
2026-01-30 02:30:06.05	16.77	21.38	-47.3	-48.3	23.0	0.00e+00	0	46	0	954204160	60	10197
2026-01-30 02:30:07.06	16.67	21.51	-47.2	-48.2	23.0	0.00e+00	0	46	0	959447040	60	10100
2026-01-30 02:30:08.06	16.57	21.64	-47.3	-48.3	22.8	0.00e+00	0	46	0	965738496	60	10136
2026-01-30 02:30:09.07	16.46	21.77	-47.3	-48.3	22.9	0.00e+00	0	46	0	970981376	60	10161
2026-01-30 02:30:10.08	16.36	21.90	-47.4	-48.3	23.3	0.00e+00	0	46	0	977272832	60	10182
2026-01-30 02:30:11.09	16.25	22.03	-47.4	-48.3	24.0	0.00e+00	0	46	0	982515712	60	10131
2026-01-30 02:30:12.10	16.15	22.16	-47.4	-48.4	24.2	0.00e+00	0	46	0	988807168	60	10255
2026-01-30 02:30:13.10	16.04	22.29	-47.3	-48.3	24.0	0.00e+00	0	46	0	994050048	60	10215
2026-01-30 02:30:14.11	15.94	22.43	-47.2	-48.2	23.7	0.00e+00	0	46	0	999292928	60	10096
2026-01-30 02:30:15.11	15.83	22.56	-47.1	-48.3	23.5	0.00e+00	0	46	0	1005584384	60	10130
2026-01-30 02:30:16.12	15.72	22.69	-47.2	-48.3	23.4	0.00e+00	0	46	0	1010827264	60	10171
2026-01-30 02:30:17.13	15.61	22.83	-47.4	-48.3	23.8	0.00e+00	0	46	0	1017118720	60	10201
2026-01-30 02:30:18.14	15.50	22.96	-47.4	-48.2	24.3	0.00e+00	0	46	0	1022361600	60	10061
2026-01-30 02:30:19.14	15.39	23.10	-47.4	-48.2	24.4	0.00e+00	0	46	0	1027604480	60	10116
2026-01-30 02:30:20.15	15.27	23.23	-47.3	-48.2	24.4	0.00e+00	0	46	0	1033895936	60	10088
2026-01-30 02:30:21.16	15.16	23.37	-47.1	-48.2	24.2	0.00e+00	0	46	0	1039138816	60	10039
2026-01-30 02:30:22.16	15.04	23.51	-47.0	-48.2	24.0	0.00e+00	0	46	0	1044381696	60	10104
2026-01-30 02:30:23.17	14.93	23.64	-46.9	-48.1	24.0	0.00e+00	0	46	0	1050673152	60	9985
2026-01-30 02:30:24.17	14.81	23.78	-46.7	-47.8	23.8	0.00e+00	0	46	0	1055916032	60	9634
2026-01-30 02:30:25.17	14.69	23.92	-46.6	-47.6	24.0	0.00e+00	0	46	0	1061158912	60	9451
2026-01-30 02:30:26.17	14.57	24.06	-46.5	-47.5	23.6	0.00e+00	0	46	0	1067450368	60	9336
2026-01-30 02:30:27.18	14.45	24.20	-46.4	-47.5	23.4	0.00e+00	0	46	0	1073741824	60	9238
2026-01-30 02:30:28.19	14.33	24.34	-46.3	-47.4	23.6	0.00e+00	0	46	0	1078984704	60	9194
2026-01-30 02:30:29.19	14.21	24.48	-46.4	-47.4	23.7	0.00e+00	0	46	0	1084227584	60	9197
2026-01-30 02:30:30.20	14.08	24.62	-46.5	-47.4	24.3	0.00e+00	0	46	0	1090519040	60	9228
2026-01-30 02:30:31.21	13.96	24.77	-46.7	-47.5	24.8	0.00e+00	0	46	0	1095761920	60	9254
2026-01-30 02:30:32.22	13.83	24.91	-46.7	-47.5	25.1	0.00e+00	0	46	0	1102053376	60	9284
2026-01-30 02:30:33.22	13.71	25.05	-46.7	-47.5	24.8	0.00e+00	0	46	0	1107296256	60	9313
2026-01-30 02:30:34.23	13.58	25.20	-46.6	-47.6	24.1	0.00e+00	0	46	0	1112539136	60	9361
2026-01-30 02:30:35.23	13.45	25.34	-46.4	-47.5	23.3	0.00e+00	0	46	0	1118830592	60	9291
2026-01-30 02:30:36.24	13.32	25.49	-46.4	-47.6	23.0	0.00e+00	0	46	0	1124073472	60	9380
2026-01-30 02:30:37.24	13.18	25.63	-46.5	-47.6	23.1	0.00e+00	0	46	0	1129316352	60	9361
2026-01-30 02:30:38.25	13.05	25.78	-46.7	-47.6	23.2	0.00e+00	0	46	0	1135607808	60	9416
2026-01-30 02:30:39.26	12.91	25.93	-46.7	-47.6	23.5	0.00e+00	0	46	0	1140850688	60	9433
2026-01-30 02:30:40.27	12.78	26.08	-46.7	-47.6	23.8	0.00e+00	0	46	0	1146093568	60	9418
2026-01-30 02:30:41.27	12.64	26.23	-46.6	-47.6	24.0	0.00e+00	0	46	0	1152385024	60	9405
2026-01-30 02:30:42.28	12.50	26.38	-46.3	-47.6	24.0	0.00e+00	0	46	0	1158676480	60	9382
2026-01-30 02:30:43.28	12.36	26.53	-46.0	-47.5	23.8	0.00e+00	0	46	0	1163919360	60	9324
2026-01-30 02:30:44.29	12.22	26.68	-45.8	-47.5	23.4	0.00e+00	0	46	0	1169162240	60	9252
2026-01-30 02:30:45.30	12.08	26.83	-45.7	-47.5	22.5	0.00e+00	0	46	0	1175453696	60	9318
2026-01-30 02:30:46.30	11.93	26.98	-45.7	-47.5	22.0	0.00e+00	0	46	0	1180696576	60	9292
2026-01-30 02:30:47.30	11.79	27.13	-45.7	-47.5	21.8	0.00e+00	0	46	0	1186988032	60	9284
2026-01-30 02:30:48.30	11.64	27.29	-45.8	-47.6	21.9	0.00e+00	0	46	0	1192230912	60	9373
2026-01-30 02:30:49.31	11.49	27.44	-46.2	-47.7	22.6	0.00e+00	0	46	0	1197473792	60	9526
2026-01-30 02:30:50.32	11.34	27.60	-46.6	-47.8	23.6	0.00e+00	0	46	0	1203765248	60	9603
2026-01-30 02:30:51.33	11.19	27.75	-46.9	-47.8	24.5	0.00e+00	0	46	0	1209008128	60	9588
2026-01-30 02:30:52.34	11.04	27.91	-47.0	-47.8	24.8	0.00e+00	0	46	0	1214251008	60	9613
2026-01-30 02:30:53.34	10.88	28.06	-46.8	-47.7	24.7	0.00e+00	0	46	0	1220542464	60	9537
2026-01-30 02:30:54.35	10.73	28.22	-46.5	-47.6	24.0	0.00e+00	0	46	0	1225785344	60	9389
2026-01-30 02:30:55.35	10.57	28.38	-46.3	-47.5	23.1	0.00e+00	0	46	0	1231028224	60	9335
2026-01-30 02:30:56.36	10.41	28.54	-46.0	-47.5	22.2	0.00e+00	0	46	0	1237319680	60	9259
2026-01-30 02:30:57.37	10.25	28.70	-45.9	-47.5	21.9	0.00e+00	0	46	0	1242562560	60	9252
2026-01-30 02:30:58.38	10.09	28.86	-46.1	-47.5	22.1	0.00e+00	0	46	0	1248854016	60	9343
2026-01-30 02:30:59.38	9.92	29.02	-46.5	-47.6	22.9	0.00e+00	0	46	0	1254096896	60	9420
2026-01-30 02:31:00.38	9.76	29.18	-46.8	-47.7	23.9	0.00e+00	0	46	0	1260388352	60	9528
2026-01-30 02:31:01.39	9.59	29.34	-46.8	-47.6	24.6	0.00e+00	0	46	0	1265631232	60	9446
2026-01-30 02:31:02.40	9.42	29.50	-46.6	-47.5	24.6	0.00e+00	0	46	0	1271922688	60	9295
2026-01-30 02:31:03.40	9.25	29.67	-46.6	-47.5	24.8	0.00e+00	0	46	0	1277165568	60	9241
2026-01-30 02:31:04.41	9.07	29.83	-46.7	-47.5	25.0	0.00e+00	0	46	0	1282408448	60	9277
2026-01-30 02:31:05.41	8.90	29.99	-46.7	-47.5	24.8	0.00e+00	0	46	0	1288699904	60	9323
2026-01-30 02:31:06.42	8.72	30.16	-46.6	-47.5	24.0	0.00e+00	0	46	0	1293942784	60	9340
2026-01-30 02:31:07.42	8.55	30.32	-46.5	-47.6	23.1	0.00e+00	0	46	0	1299185664	60	9441
2026-01-30 02:31:08.43	8.37	30.49	-46.5	-47.6	22.9	0.00e+00	0	46	0	1305477120	60	9400
2026-01-30 02:31:09.44	8.18	30.66	-46.5	-47.6	22.8	0.00e+00	0	46	0	1310720000	60	9401
2026-01-30 02:31:10.45	8.00	30.83	-46.7	-47.6	23.2	0.00e+00	0	46	0	1315962880	60	9435
2026-01-30 02:31:11.46	7.81	31.00	-46.7	-47.6	23.6	0.00e+00	0	46	0	1322254336	60	9373
2026-01-30 02:31:12.46	7.62	31.16	-46.6	-47.5	23.8	0.00e+00	0	46	0	1327497216	60	9294
2026-01-30 02:31:13.47	7.43	31.34	-46.5	-47.4	24.0	0.00e+00	0	46	0	1333788672	60	9202
2026-01-30 02:31:14.47	7.24	31.50	-46.3	-47.2	24.7	0.00e+00	0	46	0	1339031552	60	8943
2026-01-30 02:31:15.47	7.05	31.67	-46.3	-47.1	25.1	0.00e+00	0	46	0	1344274432	60	8873
2026-01-30 02:31:16.48	6.85	31.85	-46.3	-47.1	25.4	0.00e+00	0	46	0	1350565888	60	8829
2026-01-30 02:31:17.49	6.65	32.02	-46.3	-47.0	25.7	0.00e+00	0	46	0	1356857344	60	8769
2026-01-30 02:31:18.50	6.45	32.19	-46.3	-47.0	25.7	0.00e+00	0	46	0	1362100224	60	8765
2026-01-30 02:31:19.50	6.25	32.36	-46.3	-47.0	25.6	0.00e+00	0	46	0	1367343104	60	8789
2026-01-30 02:31:20.51	6.04	32.54	-46.2	-46.9	25.4	0.00e+00	0	46	0	1373634560	60	8693
2026-01-30 02:31:21.51	5.84	32.71	-46.2	-47.0	25.2	0.00e+00	0	46	0	1378877440	60	8755
2026-01-30 02:31:22.52	5.63	32.89	-46.3	-47.1	25.1	0.00e+00	0	46	0	1384120320	60	8846
2026-01-30 02:31:23.51	5.42	33.06	-46.3	-47.1	25.4	0.00e+00	0	46	0	1390411776	60	8914
2026-01-30 02:31:24.51	5.21	33.24	-46.3	-47.2	25.2	0.00e+00	0	46	0	1395654656	60	8956
2026-01-30 02:31:25.51	4.99	33.41	-46.1	-47.1	25.0	0.00e+00	0	46	0	1400897536	60	8880
2026-01-30 02:31:26.52	4.77	33.59	-45.9	-47.1	24.5	0.00e+00	0	46	0	1407188992	60	8837
2026-01-30 02:31:27.53	4.55	33.77	-45.8	-47.0	24.3	0.00e+00	0	46	0	1412431872	60	8807
2026-01-30 02:31:28.54	4.32	33.95	-45.9	-47.0	24.5	0.00e+00	0	46	0	1418723328	60	8785
2026-01-30 02:31:29.55	4.10	34.13	-46.1	-47.1	24.7	0.00e+00	0	46	0	1423966208	60	8840
2026-01-30 02:31:30.55	3.87	34.30	-46.3	-47.1	24.8	0.00e+00	0	46	0	1429209088	60	8923
2026-01-30 02:31:31.56	3.64	34.49	-46.4	-47.2	25.0	0.00e+00	0	46	0	1435500544	60	8997
2026-01-30 02:31:32.56	3.40	34.66	-46.4	-47.2	25.1	0.00e+00	0	46	0	1440743424	60	8937
2026-01-30 02:31:33.57	3.17	34.85	-46.3	-47.0	25.5	0.00e+00	0	46	0	1445986304	60	8813
2026-01-30 02:31:34.58	2.93	35.03	-46.3	-47.0	25.6	0.00e+00	0	46	0	1452277760	60	8750
2026-01-30 02:31:35.59	2.68	35.21	-46.2	-47.0	25.3	0.00e+00	0	46	0	1458569216	60	8744
2026-01-30 02:31:36.60	2.44	35.39	-46.2	-47.0	25.1	0.00e+00	0	46	0	1463812096	60	8736
2026-01-30 02:31:37.61	2.19	35.58	-46.2	-47.0	25.3	0.00e+00	0	46	0	1469054976	60	8815
2026-01-30 02:31:38.61	1.94	35.76	-46.3	-47.1	25.4	0.00e+00	0	46	0	1475346432	60	8858
2026-01-30 02:31:39.62	1.68	35.94	-46.3	-47.0	25.6	0.00e+00	0	46	0	1480589312	60	8802
2026-01-30 02:31:40.63	1.43	36.13	-46.2	-47.0	25.8	0.00e+00	0	46	0	1485832192	60	8743
2026-01-30 02:31:41.64	1.17	36.31	-46.3	-47.1	25.6	0.00e+00	0	46	0	1492123648	60	8835
2026-01-30 02:31:42.64	0.91	36.50	-46.4	-47.1	25.4	0.00e+00	0	46	0	1497366528	60	8909
2026-01-30 02:31:43.65	0.64	36.68	-46.3	-47.1	25.4	0.00e+00	0	46	0	1503657984	60	8916
2026-01-30 02:31:44.65	0.37	36.87	-46.4	-47.1	25.6	0.00e+00	0	46	0	1508900864	60	8881
2026-01-30 02:31:45.65	0.10	37.05	-46.4	-47.1	25.7	0.00e+00	0	46	0	1514143744	60	8840
2026-01-30 02:31:46.66	359.83	37.24	-46.3	-47.0	25.7	0.00e+00	0	46	0	1520435200	60	8790
2026-01-30 02:31:47.67	359.55	37.43	-46.4	-47.0	25.8	0.00e+00	0	46	0	1525678080	60	8810
2026-01-30 02:31:48.68	359.27	37.61	-46.3	-46.9	25.8	0.00e+00	0	46	0	1531969536	60	8700
2026-01-30 02:31:49.68	358.98	37.80	-46.3	-47.0	25.6	0.00e+00	0	46	0	1537212416	60	8777
2026-01-30 02:31:50.69	358.70	37.99	-46.4	-47.1	25.4	0.00e+00	0	46	0	1543503872	60	8861
2026-01-30 02:31:51.70	358.40	38.17	-46.5	-47.2	25.4	0.00e+00	0	46	0	1548746752	60	9021
2026-01-30 02:31:52.71	358.11	38.36	-46.6	-47.3	25.5	0.00e+00	0	46	0	1553989632	60	9049
2026-01-30 02:31:53.72	357.81	38.55	-46.5	-47.2	25.7	0.00e+00	0	46	0	1560281088	60	8927
2026-01-30 02:31:54.72	357.51	38.74	-46.5	-47.2	25.8	0.00e+00	0	46	0	1565523968	60	8945
2026-01-30 02:31:55.73	357.20	38.93	-46.6	-47.2	25.6	0.00e+00	0	46	0	1570766848	60	9027
2026-01-30 02:31:56.74	356.89	39.11	-46.7	-47.4	25.4	0.00e+00	0	46	0	1577058304	60	9204
2026-01-30 02:31:57.75	356.58	39.30	-46.7	-47.5	25.3	0.00e+00	0	46	0	1582301184	60	9286
2026-01-30 02:31:58.75	356.27	39.49	-46.8	-47.5	25.5	0.00e+00	0	46	0	1588592640	60	9241
2026-01-30 02:31:59.76	355.94	39.68	-46.6	-47.3	25.6	0.00e+00	0	46	0	1593835520	60	9123
2026-01-30 02:32:00.76	355.62	39.87	-46.5	-47.2	25.8	0.00e+00	0	46	0	1599078400	60	8979
2026-01-30 02:32:01.77	355.29	40.05	-46.6	-47.3	25.8	0.00e+00	0	46	0	1605369856	60	9039
2026-01-30 02:32:02.78	354.96	40.24	-46.5	-47.2	25.8	0.00e+00	0	46	0	1611661312	60	8963
2026-01-30 02:32:03.79	354.63	40.43	-46.6	-47.3	25.6	0.00e+00	0	46	0	1616904192	60	9116
2026-01-30 02:32:04.79	354.29	40.62	-46.8	-47.5	25.2	0.00e+00	0	46	0	1622147072	60	9299
2026-01-30 02:32:05.80	353.95	40.81	-46.9	-47.7	25.0	0.00e+00	0	46	0	1628438528	60	9487
2026-01-30 02:32:06.81	353.60	40.99	-46.8	-47.6	25.0	0.00e+00	0	46	0	1633681408	60	9420
2026-01-30 02:32:07.82	353.24	41.18	-46.7	-47.5	25.2	0.00e+00	0	46	0	1638924288	60	9276
2026-01-30 02:32:08.83	352.89	41.37	-46.6	-47.3	25.6	0.00e+00	0	46	0	1645215744	60	9054
2026-01-30 02:32:09.83	352.53	41.55	-46.5	-47.3	25.8	0.00e+00	0	46	0	1650458624	60	9039
2026-01-30 02:32:10.84	352.17	41.74	-46.6	-47.4	25.6	0.00e+00	0	46	0	1655701504	60	9177
2026-01-30 02:32:11.85	351.80	41.93	-46.8	-47.5	25.5	0.00e+00	0	46	0	1661992960	60	9306
2026-01-30 02:32:12.86	351.42	42.11	-46.9	-47.6	25.1	0.00e+00	0	46	0	1667235840	60	9425
2026-01-30 02:32:13.87	351.05	42.30	-46.9	-47.7	25.0	0.00e+00	0	46	0	1673527296	60	9471
2026-01-30 02:32:14.87	350.67	42.48	-46.8	-47.5	25.4	0.00e+00	0	46	0	1678770176	60	9324
2026-01-30 02:32:15.88	350.28	42.67	-46.7	-47.5	25.4	0.00e+00	0	46	0	1685061632	60	9291
2026-01-30 02:32:16.89	349.89	42.85	-46.8	-47.5	25.4	0.00e+00	0	46	0	1690304512	60	9329
2026-01-30 02:32:17.90	349.49	43.03	-46.7	-47.4	25.5	0.00e+00	0	46	0	1696595968	60	9148
2026-01-30 02:32:18.90	349.10	43.22	-46.6	-47.3	25.5	0.00e+00	0	46	0	1701838848	60	9067
2026-01-30 02:32:19.92	348.69	43.40	-46.7	-47.3	25.6	0.00e+00	0	46	0	1707081728	60	9126
2026-01-30 02:32:20.92	348.28	43.58	-46.6	-47.3	25.8	0.00e+00	0	46	0	1713373184	60	9049
2026-01-30 02:32:21.93	347.87	43.76	-46.6	-47.3	25.7	0.00e+00	0	46	0	1718616064	60	9074
2026-01-30 02:32:22.93	347.45	43.94	-46.8	-47.5	25.3	0.00e+00	0	46	0	1723858944	60	9336
2026-01-30 02:32:23.94	347.03	44.11	-46.9	-47.7	25.1	0.00e+00	0	46	0	1730150400	60	9473
2026-01-30 02:32:24.94	346.61	44.29	-46.6	-47.5	25.0	0.00e+00	0	46	0	1735393280	60	9251
2026-01-30 02:32:25.95	346.17	44.47	-46.5	-47.3	25.1	0.00e+00	0	46	0	1740636160	60	9103
2026-01-30 02:32:26.95	345.74	44.64	-46.5	-47.3	25.0	0.00e+00	0	46	0	1746927616	60	9077
2026-01-30 02:32:27.96	345.30	44.82	-46.7	-47.6	24.5	0.00e+00	0	46	0	1752170496	60	9419
2026-01-30 02:32:28.97	344.85	44.99	-46.8	-47.8	24.2	0.00e+00	0	46	0	1758461952	60	9581
2026-01-30 02:32:29.97	344.40	45.16	-46.8	-47.7	24.4	0.00e+00	0	46	0	1763704832	60	9512
2026-01-30 02:32:30.98	343.94	45.33	-46.6	-47.4	24.9	0.00e+00	0	46	0	1769996288	60	9183
2026-01-30 02:32:31.99	343.48	45.50	-46.5	-47.3	25.5	0.00e+00	0	46	0	1775239168	60	9038
2026-01-30 02:32:33.00	343.01	45.67	-46.5	-47.2	25.5	0.00e+00	0	46	0	1781530624	60	8945
2026-01-30 02:32:34.00	342.54	45.83	-46.6	-47.3	25.6	0.00e+00	0	46	0	1786773504	60	9109
2026-01-30 02:32:35.01	342.07	46.00	-46.9	-47.6	25.5	0.00e+00	0	46	0	1792016384	60	9373
2026-01-30 02:32:36.02	341.58	46.16	-47.0	-47.7	25.4	0.00e+00	0	46	0	1798307840	60	9458
2026-01-30 02:32:37.03	341.10	46.32	-47.0	-47.7	25.5	0.00e+00	0	46	0	1803550720	60	9516
2026-01-30 02:32:38.03	340.61	46.48	-47.1	-47.8	25.4	0.00e+00	0	46	0	1808793600	60	9576
2026-01-30 02:32:39.03	340.11	46.64	-47.4	-48.1	25.2	0.00e+00	0	46	0	1815085056	60	9956
2026-01-30 02:32:40.04	339.61	46.80	-47.5	-48.2	25.1	0.00e+00	0	46	0	1820327936	60	10031
2026-01-30 02:32:41.05	339.10	46.95	-47.5	-48.2	25.1	0.00e+00	0	46	0	1825570816	60	10049
2026-01-30 02:32:42.06	338.59	47.10	-47.4	-48.1	25.2	0.00e+00	0	46	0	1831862272	60	9998
2026-01-30 02:32:43.07	338.07	47.25	-47.3	-48.1	25.2	0.00e+00	0	46	0	1837105152	60	9907
2026-01-30 02:32:44.07	337.56	47.40	-47.4	-48.2	25.0	0.00e+00	0	46	0	1843396608	60	10022
2026-01-30 02:32:45.08	337.03	47.55	-47.3	-48.1	24.9	0.00e+00	0	46	0	1848639488	60	9967
2026-01-30 02:32:46.09	336.49	47.69	-47.5	-48.3	24.8	0.00e+00	0	46	0	1854930944	60	10144
2026-01-30 02:32:47.09	335.96	47.83	-47.6	-48.4	25.0	0.00e+00	0	46	0	1860173824	60	10291
2026-01-30 02:32:48.09	335.42	47.97	-47.7	-48.5	24.9	0.00e+00	0	46	0	1866465280	60	10426
2026-01-30 02:32:49.10	334.88	48.11	-47.8	-48.5	24.8	0.00e+00	0	46	0	1871708160	60	10452
2026-01-30 02:32:50.10	334.33	48.24	-47.6	-48.4	24.9	0.00e+00	0	46	0	1876951040	60	10272
2026-01-30 02:32:51.11	333.77	48.38	-47.7	-48.4	24.9	0.00e+00	0	46	0	1883242496	60	10349
2026-01-30 02:32:52.12	333.21	48.51	-47.9	-48.6	24.8	0.00e+00	0	46	0	1888485376	60	10537
2026-01-30 02:32:53.13	332.64	48.63	-47.8	-48.6	24.5	0.00e+00	0	46	0	1893728256	60	10522
2026-01-30 02:32:54.14	332.07	48.76	-47.6	-48.4	24.5	0.00e+00	0	46	0	1900019712	60	10313
2026-01-30 02:32:55.14	331.50	48.88	-47.4	-48.2	24.6	0.00e+00	0	46	0	1905262592	60	10068
2026-01-30 02:32:56.15	330.92	49.00	-47.5	-48.4	24.6	0.00e+00	0	46	0	1910505472	60	10259
2026-01-30 02:32:57.16	330.33	49.12	-47.6	-48.4	24.8	0.00e+00	0	46	0	1916796928	60	10301
2026-01-30 02:32:58.16	329.75	49.23	-47.5	-48.4	24.8	0.00e+00	0	46	0	1922039808	60	10296
2026-01-30 02:32:59.17	329.16	49.34	-47.5	-48.3	25.0	0.00e+00	0	46	0	1928331264	60	10217
2026-01-30 02:33:00.18	328.56	49.45	-47.5	-48.3	24.9	0.00e+00	0	46	0	1933574144	60	10245
2026-01-30 02:33:01.18	327.96	49.55	-47.7	-48.5	24.7	0.00e+00	0	46	0	1939865600	60	10434
2026-01-30 02:33:02.19	327.35	49.65	-47.8	-48.6	24.6	0.00e+00	0	46	0	1945108480	60	10554
2026-01-30 02:33:03.19	326.75	49.75	-48.0	-48.8	24.4	0.00e+00	0	46	0	1951399936	60	10825
2026-01-30 02:33:04.20	326.13	49.84	-47.8	-48.6	24.7	0.00e+00	0	46	0	1956642816	60	10525
2026-01-30 02:33:05.20	325.52	49.93	-47.7	-48.5	24.7	0.00e+00	0	46	0	1961885696	60	10378
2026-01-30 02:33:06.21	324.90	50.02	-47.9	-48.7	24.7	0.00e+00	0	46	0	1968177152	60	10621
2026-01-30 02:33:07.21	324.28	50.10	-47.7	-48.4	24.7	0.00e+00	0	46	0	1973420032	60	10324
2026-01-30 02:33:08.22	323.65	50.18	-47.4	-48.2	24.9	0.00e+00	0	46	0	1978662912	60	10035
2026-01-30 02:33:09.23	323.02	50.26	-47.3	-48.1	24.9	0.00e+00	0	46	0	1984954368	60	9918
2026-01-30 02:33:10.24	322.38	50.34	-47.3	-48.1	25.0	0.00e+00	0	46	0	1990197248	60	9944
2026-01-30 02:33:11.24	321.75	50.40	-47.4	-48.2	24.8	0.00e+00	0	46	0	1995440128	60	10067
2026-01-30 02:33:12.25	321.11	50.47	-47.5	-48.3	24.4	0.00e+00	0	46	0	2001731584	60	10173
2026-01-30 02:33:13.26	320.47	50.53	-47.6	-48.5	24.0	0.00e+00	0	46	0	2006974464	60	10433
2026-01-30 02:33:14.27	319.82	50.59	-47.7	-48.7	23.6	0.00e+00	0	46	0	2013265920	60	10645
2026-01-30 02:33:15.27	319.18	50.65	-47.8	-48.8	23.6	0.00e+00	0	46	0	2018508800	60	10847
2026-01-30 02:33:16.28	318.53	50.70	-47.7	-48.7	24.0	0.00e+00	0	46	0	2024800256	60	10690
2026-01-30 02:33:17.29	317.87	50.75	-47.7	-48.7	24.2	0.00e+00	0	46	0	2030043136	60	10609
2026-01-30 02:33:18.29	317.22	50.79	-47.9	-48.8	24.1	0.00e+00	0	46	0	2036334592	60	10850
2026-01-30 02:33:19.30	316.57	50.83	-48.0	-49.0	23.9	0.00e+00	0	46	0	2041577472	60	11043
2026-01-30 02:33:20.31	315.91	50.86	-47.6	-48.6	24.3	0.00e+00	0	46	0	2046820352	60	10509
2026-01-30 02:33:21.31	315.25	50.90	-47.5	-48.4	24.6	0.00e+00	0	46	0	2053111808	60	10280
2026-01-30 02:33:22.32	314.59	50.92	-47.6	-48.4	24.5	0.00e+00	0	46	0	2058354688	60	10303
2026-01-30 02:33:23.33	313.93	50.95	-47.6	-48.3	24.8	0.00e+00	0	46	0	2063597568	60	10209
2026-01-30 02:33:24.33	313.27	50.97	-47.5	-48.3	25.0	0.00e+00	0	46	0	2069889024	60	10144
2026-01-30 02:33:25.34	312.60	50.98	-47.5	-48.3	24.9	0.00e+00	0	46	0	2075131904	60	10175
2026-01-30 02:33:26.34	311.95	50.99	-47.4	-48.3	24.7	0.00e+00	0	46	0	2080374784	60	10203
2026-01-30 02:33:27.35	311.28	51.00	-47.3	-48.3	24.2	0.00e+00	0	46	0	2086666240	60	10162
2026-01-30 02:33:28.36	310.61	51.01	-47.3	-48.3	23.9	0.00e+00	0	45	0	2091909120	60	10229
2026-01-30 02:33:29.37	309.95	51.00	-47.4	-48.4	23.6	0.00e+00	0	46	0	2098200576	60	10292
2026-01-30 02:33:30.38	309.28	51.00	-47.4	-48.4	23.7	0.00e+00	0	46	0	2103443456	60	10284
2026-01-30 02:33:31.38	308.62	50.99	-47.6	-48.6	23.7	0.00e+00	0	46	0	2109734912	60	10511
2026-01-30 02:33:32.39	307.96	50.98	-47.7	-48.7	23.8	0.00e+00	0	46	0	2114977792	60	10647
2026-01-30 02:33:33.40	307.29	50.96	-47.7	-48.7	24.0	0.00e+00	0	46	0	2121269248	60	10692
2026-01-30 02:33:34.41	306.63	50.94	-47.6	-48.7	24.1	0.00e+00	0	46	0	2126512128	60	10661
2026-01-30 02:33:35.42	305.96	50.92	-47.5	-48.7	24.3	0.00e+00	0	46	0	2131755008	60	10667
2026-01-30 02:33:36.42	305.31	50.89	-47.2	-48.3	24.5	0.00e+00	0	46	0	2138046464	60	10180
2026-01-30 02:33:37.42	304.65	50.85	-47.2	-48.2	24.4	0.00e+00	0	46	0	2143289344	60	10118
2026-01-30 02:33:38.42	304.00	50.82	-47.3	-48.3	24.5	0.00e+00	0	46	0	2148532224	60	10192
2026-01-30 02:33:39.43	303.35	50.78	-47.3	-48.2	24.7	0.00e+00	0	46	0	2154823680	60	10108
2026-01-30 02:33:40.43	302.70	50.73	-47.6	-48.5	24.8	0.00e+00	0	46	0	2160066560	60	10391
2026-01-30 02:33:41.44	302.04	50.68	-47.8	-48.6	24.6	0.00e+00	0	46	0	2165309440	60	10569
2026-01-30 02:33:42.44	301.40	50.63	-47.6	-48.4	24.9	0.00e+00	0	46	0	2171600896	60	10312
2026-01-30 02:33:43.45	300.75	50.58	-47.5	-48.3	24.9	0.00e+00	0	46	0	2176843776	60	10151
2026-01-30 02:33:44.45	300.11	50.52	-47.4	-48.3	24.6	0.00e+00	0	46	0	2183135232	60	10153
2026-01-30 02:33:45.46	299.47	50.45	-47.6	-48.5	24.0	0.00e+00	0	46	0	2188378112	60	10469
2026-01-30 02:33:46.47	298.82	50.39	-47.8	-48.9	23.6	0.00e+00	0	46	0	2193620992	60	10900
2026-01-30 02:33:47.47	298.19	50.31	-47.4	-48.5	23.8	0.00e+00	0	46	0	2199912448	60	10445
2026-01-30 02:33:48.47	297.56	50.24	-47.2	-48.3	24.0	0.00e+00	0	46	0	2205155328	60	10168
2026-01-30 02:33:49.47	296.94	50.16	-47.1	-48.2	23.9	0.00e+00	0	46	0	2210398208	60	10084
2026-01-30 02:33:50.48	296.31	50.08	-47.1	-48.2	23.9	0.00e+00	0	46	0	2216689664	60	10061
2026-01-30 02:33:51.49	295.69	50.00	-47.1	-48.1	23.8	0.00e+00	0	46	0	2222981120	60	9956
2026-01-30 02:33:52.50	295.06	49.91	-47.3	-48.5	23.6	0.00e+00	0	46	0	2228224000	60	10375
2026-01-30 02:33:53.50	294.45	49.82	-47.3	-48.5	23.4	0.00e+00	0	46	0	2233466880	60	10429
2026-01-30 02:33:54.50	293.84	49.72	-46.9	-48.2	23.5	0.00e+00	0	46	0	2239758336	60	10094
2026-01-30 02:33:55.50	293.24	49.62	-46.8	-48.0	23.4	0.00e+00	0	46	0	2245001216	60	9873
2026-01-30 02:33:56.51	292.63	49.52	-47.0	-48.4	23.1	0.00e+00	0	46	0	2250244096	60	10268
2026-01-30 02:33:57.50	292.04	49.42	-46.9	-48.4	22.6	0.00e+00	0	46	0	2256535552	60	10346
2026-01-30 02:33:58.52	291.44	49.31	-46.6	-48.2	22.9	0.00e+00	0	46	0	2261778432	60	10017
2026-01-30 02:33:59.52	290.85	49.20	-46.6	-48.1	23.0	0.00e+00	0	46	0	2268069888	60	9976
2026-01-30 02:34:00.52	290.27	49.08	-46.7	-48.2	22.9	0.00e+00	0	46	0	2273312768	60	10087
2026-01-30 02:34:01.52	289.69	48.97	-46.9	-48.4	23.0	0.00e+00	0	46	0	2278555648	60	10339
2026-01-30 02:34:02.53	289.11	48.85	-47.0	-48.3	23.3	0.00e+00	0	46	0	2284847104	60	10197
2026-01-30 02:34:03.54	288.53	48.73	-47.1	-48.3	23.8	0.00e+00	0	46	0	2290089984	60	10174
2026-01-30 02:34:04.54	287.97	48.60	-47.3	-48.2	24.1	0.00e+00	0	46	0	2295332864	60	10091
2026-01-30 02:34:05.55	287.40	48.47	-47.5	-48.4	24.2	0.00e+00	0	46	0	2301624320	60	10284
2026-01-30 02:34:06.55	286.85	48.34	-47.7	-48.7	24.2	0.00e+00	0	46	0	2306867200	60	10639
2026-01-30 02:34:07.56	286.29	48.21	-47.7	-48.5	24.5	0.00e+00	0	46	0	2312110080	60	10443
2026-01-30 02:34:08.57	285.74	48.07	-47.7	-48.6	24.5	0.00e+00	0	46	0	2318401536	60	10520
2026-01-30 02:34:09.58	285.19	47.94	-47.5	-48.3	24.7	0.00e+00	0	46	0	2324692992	60	10148
2026-01-30 02:34:10.58	284.65	47.80	-47.4	-48.3	24.5	0.00e+00	0	46	0	2329935872	60	10163
2026-01-30 02:34:11.59	284.11	47.65	-47.6	-48.4	24.2	0.00e+00	0	46	0	2335178752	60	10313
2026-01-30 02:34:12.60	283.58	47.51	-47.6	-48.5	24.1	0.00e+00	0	46	0	2341470208	60	10388
2026-01-30 02:34:13.60	283.06	47.36	-47.2	-48.2	24.0	0.00e+00	0	46	0	2346713088	60	10062
2026-01-30 02:34:14.60	282.54	47.21	-47.0	-47.9	23.9	0.00e+00	0	46	0	2353004544	60	9724
2026-01-30 02:34:15.61	282.02	47.06	-46.9	-47.8	23.7	0.00e+00	0	46	0	2358247424	60	9663
2026-01-30 02:34:16.62	281.51	46.91	-46.9	-47.9	23.3	0.00e+00	0	46	0	2363490304	60	9750
2026-01-30 02:34:17.63	281.00	46.75	-46.8	-47.9	23.3	0.00e+00	0	46	0	2369781760	60	9754
2026-01-30 02:34:18.63	280.51	46.60	-46.6	-47.7	23.4	0.00e+00	0	46	0	2375024640	60	9529
2026-01-30 02:34:19.64	280.01	46.44	-46.5	-47.6	23.4	0.00e+00	0	46	0	2380267520	60	9402
2026-01-30 02:34:20.64	279.52	46.28	-46.4	-47.5	23.5	0.00e+00	0	46	0	2386558976	60	9288
2026-01-30 02:34:21.65	279.04	46.12	-46.3	-47.4	23.5	0.00e+00	0	46	0	2391801856	60	9142
2026-01-30 02:34:22.66	278.55	45.95	-46.1	-47.2	23.6	0.00e+00	0	46	0	2397044736	60	9008
2026-01-30 02:34:23.66	278.08	45.79	-45.9	-47.0	23.7	0.00e+00	0	46	0	2403336192	60	8779
2026-01-30 02:34:24.67	277.61	45.62	-46.0	-47.0	23.8	0.00e+00	0	46	0	2408579072	60	8821
2026-01-30 02:34:25.67	277.15	45.45	-46.0	-47.1	23.9	0.00e+00	0	46	0	2414870528	60	8918
2026-01-30 02:34:26.68	276.68	45.28	-46.0	-47.2	23.8	0.00e+00	0	46	0	2420113408	60	8996
2026-01-30 02:34:27.68	276.23	45.11	-46.1	-47.3	23.8	0.00e+00	0	46	0	2426404864	60	9031
2026-01-30 02:34:28.69	275.78	44.94	-46.2	-47.3	23.8	0.00e+00	0	46	0	2431647744	60	9121
2026-01-30 02:34:29.69	275.34	44.77	-46.3	-47.5	23.9	0.00e+00	0	46	0	2437939200	60	9283
2026-01-30 02:34:30.70	274.89	44.59	-46.2	-47.3	24.2	0.00e+00	0	46	0	2443182080	60	9112
2026-01-30 02:34:31.71	274.46	44.42	-46.2	-47.2	24.4	0.00e+00	0	46	0	2448424960	60	8979
2026-01-30 02:34:32.72	274.02	44.24	-46.2	-47.3	24.6	0.00e+00	0	46	0	2454716416	60	9096
2026-01-30 02:34:33.73	273.59	44.06	-46.3	-47.4	24.7	0.00e+00	0	46	0	2459959296	60	9133
2026-01-30 02:34:34.73	273.18	43.88	-46.3	-47.3	24.7	0.00e+00	0	46	0	2465202176	60	9069
2026-01-30 02:34:35.74	272.76	43.70	-46.2	-47.2	25.0	0.00e+00	0	46	0	2471493632	60	8951
2026-01-30 02:34:36.75	272.34	43.52	-46.1	-47.0	25.1	0.00e+00	0	46	0	2476736512	60	8782
2026-01-30 02:34:37.75	271.94	43.34	-46.0	-46.8	25.3	0.00e+00	0	46	0	2481979392	60	8581
2026-01-30 02:34:38.76	271.53	43.16	-46.0	-46.9	25.4	0.00e+00	0	46	0	2488270848	60	8681
2026-01-30 02:34:39.77	271.13	42.98	-46.0	-46.8	25.5	0.00e+00	0	46	0	2493513728	60	8561
2026-01-30 02:34:40.78	270.74	42.79	-46.0	-46.9	25.4	0.00e+00	0	46	0	2499805184	60	8654
2026-01-30 02:34:41.79	270.35	42.61	-46.3	-47.1	25.3	0.00e+00	0	46	0	2505048064	60	8886
2026-01-30 02:34:42.79	269.97	42.43	-46.4	-47.2	25.1	0.00e+00	0	46	0	2511339520	60	8967
2026-01-30 02:34:43.80	269.58	42.24	-46.5	-47.3	25.0	0.00e+00	0	46	0	2516582400	60	9043
2026-01-30 02:34:44.81	269.21	42.05	-46.6	-47.5	24.9	0.00e+00	0	46	0	2522873856	60	9251
2026-01-30 02:34:45.82	268.83	41.87	-46.6	-47.4	25.0	0.00e+00	0	46	0	2528116736	60	9137
2026-01-30 02:34:46.82	268.47	41.68	-46.4	-47.2	25.2	0.00e+00	0	46	0	2533359616	60	8968
2026-01-30 02:34:47.82	268.11	41.50	-46.3	-47.1	25.3	0.00e+00	0	46	0	2539651072	60	8851
2026-01-30 02:34:48.83	267.75	41.31	-46.3	-47.0	25.4	0.00e+00	0	46	0	2544893952	60	8753
2026-01-30 02:34:49.84	267.39	41.12	-46.2	-47.0	25.4	0.00e+00	0	46	0	2550136832	60	8767
2026-01-30 02:34:50.85	267.04	40.93	-46.2	-47.0	25.1	0.00e+00	0	46	0	2556428288	60	8753
2026-01-30 02:34:51.86	266.69	40.74	-46.3	-47.1	24.9	0.00e+00	0	46	0	2561671168	60	8874
2026-01-30 02:34:52.86	266.35	40.56	-46.4	-47.1	25.1	0.00e+00	0	46	0	2566914048	60	8856
2026-01-30 02:34:53.87	266.01	40.37	-46.5	-47.3	25.1	0.00e+00	0	46	0	2573205504	60	9059
2026-01-30 02:34:54.88	265.67	40.18	-46.3	-47.1	25.3	0.00e+00	0	46	0	2579496960	60	8889
2026-01-30 02:34:55.89	265.34	39.99	-46.3	-47.0	25.3	0.00e+00	0	46	0	2584739840	60	8750
2026-01-30 02:34:56.89	265.02	39.80	-46.4	-47.0	25.2	0.00e+00	0	46	0	2589982720	60	8802
2026-01-30 02:34:57.89	264.70	39.61	-46.4	-47.1	25.5	0.00e+00	0	46	0	2596274176	60	8888
2026-01-30 02:34:58.90	264.38	39.43	-46.4	-47.2	25.3	0.00e+00	0	46	0	2601517056	60	8937
2026-01-30 02:34:59.90	264.06	39.24	-46.3	-47.0	25.5	0.00e+00	0	46	0	2607808512	60	8806
2026-01-30 02:35:00.91	263.75	39.05	-46.1	-46.9	25.6	0.00e+00	0	46	0	2613051392	60	8667
2026-01-30 02:35:01.92	263.44	38.86	-46.0	-46.8	25.7	0.00e+00	0	46	0	2618294272	60	8577
2026-01-30 02:35:02.93	263.13	38.67	-46.0	-46.7	25.7	0.00e+00	0	46	0	2624585728	60	8460
2026-01-30 02:35:03.93	262.83	38.48	-46.0	-46.7	25.8	0.00e+00	0	46	0	2629828608	60	8433
2026-01-30 02:35:04.93	262.54	38.30	-45.9	-46.6	25.7	0.00e+00	0	46	0	2635071488	60	8369
2026-01-30 02:35:05.94	262.24	38.11	-46.0	-46.8	25.7	0.00e+00	0	46	0	2641362944	60	8535
2026-01-30 02:35:06.95	261.95	37.92	-46.0	-46.7	25.6	0.00e+00	0	46	0	2646605824	60	8473
2026-01-30 02:35:07.95	261.66	37.73	-46.1	-46.8	25.7	0.00e+00	0	46	0	2652897280	60	8574
2026-01-30 02:35:08.96	261.38	37.55	-46.1	-46.8	25.5	0.00e+00	0	46	0	2658140160	60	8536
2026-01-30 02:35:09.97	261.10	37.36	-46.5	-47.2	25.4	0.00e+00	0	46	0	2663383040	60	8969
2026-01-30 02:35:10.98	260.82	37.17	-46.7	-47.3	25.1	0.00e+00	0	46	0	2669674496	60	9088
2026-01-30 02:35:11.99	260.54	36.98	-46.8	-47.4	25.0	0.00e+00	0	46	0	2674917376	60	9199
2026-01-30 02:35:12.99	260.27	36.80	-46.6	-47.3	25.2	0.00e+00	0	46	0	2681208832	60	9073
2026-01-30 02:35:14.00	260.00	36.61	-46.5	-47.1	25.3	0.00e+00	0	46	0	2686451712	60	8892
2026-01-30 02:35:15.01	259.74	36.43	-46.3	-47.1	25.3	0.00e+00	0	46	0	2692743168	60	8882
2026-01-30 02:35:16.01	259.48	36.24	-46.1	-46.8	25.6	0.00e+00	0	46	0	2697986048	60	8596
2026-01-30 02:35:17.02	259.22	36.06	-46.1	-46.8	25.6	0.00e+00	0	46	0	2703228928	60	8526
2026-01-30 02:35:18.02	258.96	35.87	-46.1	-46.8	25.4	0.00e+00	0	46	0	2709520384	60	8558
2026-01-30 02:35:19.03	258.71	35.69	-45.9	-46.6	25.7	0.00e+00	0	46	0	2714763264	60	8423
2026-01-30 02:35:20.04	258.46	35.50	-46.0	-46.7	25.7	0.00e+00	0	46	0	2720006144	60	8441
2026-01-30 02:35:21.04	258.21	35.32	-45.8	-46.4	25.8	0.00e+00	0	46	0	2726297600	60	8189
2026-01-30 02:35:22.05	257.96	35.14	-45.7	-46.4	25.8	0.00e+00	0	46	0	2731540480	60	8139
2026-01-30 02:35:23.06	257.72	34.96	-45.7	-46.4	25.8	0.00e+00	0	46	0	2737831936	60	8215
2026-01-30 02:35:24.06	257.48	34.77	-45.8	-46.6	25.8	0.00e+00	0	46	0	2743074816	60	8331
2026-01-30 02:35:25.07	257.25	34.59	-45.9	-46.5	25.8	0.00e+00	0	46	0	2748317696	60	8250
2026-01-30 02:35:26.08	257.01	34.41	-45.9	-46.5	25.8	0.00e+00	0	46	0	2754609152	60	8305
2026-01-30 02:35:27.09	256.78	34.23	-45.9	-46.7	25.7	0.00e+00	0	46	0	2759852032	60	8460
2026-01-30 02:35:28.10	256.55	34.05	-45.9	-46.5	25.7	0.00e+00	0	46	0	2766143488	60	8300
2026-01-30 02:35:29.10	256.32	33.87	-45.8	-46.5	25.7	0.00e+00	0	46	0	2771386368	60	8302
2026-01-30 02:35:30.11	256.10	33.69	-45.8	-46.5	25.7	0.00e+00	0	46	0	2777677824	60	8300
2026-01-30 02:35:31.12	255.88	33.51	-45.9	-46.5	25.8	0.00e+00	0	46	0	2782920704	60	8298
2026-01-30 02:35:32.13	255.66	33.34	-46.0	-46.6	25.5	0.00e+00	0	46	0	2788163584	60	8394
2026-01-30 02:35:33.13	255.44	33.16	-46.0	-46.8	25.6	0.00e+00	0	46	0	2794455040	60	8556
2026-01-30 02:35:34.14	255.23	32.98	-46.2	-47.0	25.4	0.00e+00	0	46	0	2799697920	60	8731
2026-01-30 02:35:35.14	255.02	32.81	-46.2	-46.8	25.5	0.00e+00	0	46	0	2804940800	60	8573
2026-01-30 02:35:36.15	254.81	32.63	-46.2	-46.8	25.3	0.00e+00	0	46	0	2811232256	60	8564
2026-01-30 02:35:37.16	254.60	32.46	-46.3	-47.1	25.3	0.00e+00	0	46	0	2816475136	60	8843
2026-01-30 02:35:38.16	254.39	32.28	-46.4	-47.0	25.2	0.00e+00	0	46	0	2822766592	60	8805
2026-01-30 02:35:39.17	254.19	32.11	-46.5	-47.3	25.0	0.00e+00	0	46	0	2828009472	60	9045
2026-01-30 02:35:40.18	253.99	31.93	-46.4	-47.1	25.1	0.00e+00	0	46	0	2834300928	60	8839
2026-01-30 02:35:41.19	253.79	31.76	-46.1	-46.9	25.4	0.00e+00	0	46	0	2839543808	60	8672
2026-01-30 02:35:42.20	253.59	31.59	-46.0	-46.7	25.4	0.00e+00	0	46	0	2845835264	60	8515
2026-01-30 02:35:43.20	253.40	31.42	-46.0	-46.7	25.5	0.00e+00	0	46	0	2851078144	60	8495
2026-01-30 02:35:44.21	253.21	31.25	-46.0	-46.6	25.5	0.00e+00	0	46	0	2856321024	60	8407
2026-01-30 02:35:45.21	253.02	31.08	-45.8	-46.5	25.6	0.00e+00	0	46	0	2862612480	60	8282
2026-01-30 02:35:46.22	252.83	30.91	-45.8	-46.4	25.6	0.00e+00	0	46	0	2867855360	60	8229
2026-01-30 02:35:47.22	252.64	30.74	-45.9	-46.6	25.6	0.00e+00	0	46	0	2873098240	60	8354
2026-01-30 02:35:48.22	252.46	30.57	-46.1	-46.9	25.4	0.00e+00	0	46	0	2879389696	60	8626
2026-01-30 02:35:49.23	252.28	30.41	-46.3	-46.9	25.3	0.00e+00	0	46	0	2884632576	60	8695
2026-01-30 02:35:50.23	252.10	30.24	-46.2	-46.8	25.4	0.00e+00	0	46	0	2889875456	60	8587
2026-01-30 02:35:51.24	251.92	30.07	-46.2	-46.8	25.2	0.00e+00	0	46	0	2896166912	60	8591
2026-01-30 02:35:52.24	251.74	29.91	-46.2	-46.9	25.3	0.00e+00	0	46	0	2901409792	60	8701
2026-01-30 02:35:53.25	251.57	29.74	-46.2	-46.9	25.3	0.00e+00	0	46	0	2907701248	60	8704
2026-01-30 02:35:54.25	251.40	29.58	-46.2	-46.8	25.3	0.00e+00	0	46	0	2912944128	60	8561
2026-01-30 02:35:55.25	251.23	29.42	-46.2	-46.9	25.1	0.00e+00	0	46	0	2918187008	60	8691
2026-01-30 02:35:56.26	251.06	29.26	-46.3	-47.1	25.2	0.00e+00	0	46	0	2924478464	60	8860
2026-01-30 02:35:57.27	250.89	29.09	-46.5	-47.2	25.1	0.00e+00	0	46	0	2929721344	60	8928
2026-01-30 02:35:58.28	250.72	28.93	-46.6	-47.3	24.9	0.00e+00	0	46	0	2936012800	60	9036
2026-01-30 02:35:59.28	250.56	28.77	-46.5	-47.1	25.0	0.00e+00	0	46	0	2941255680	60	8916
2026-01-30 02:36:00.29	250.39	28.61	-46.5	-47.3	25.0	0.00e+00	0	46	0	2947547136	60	9053
2026-01-30 02:36:01.29	250.23	28.45	-46.7	-47.3	24.8	0.00e+00	0	46	0	2952790016	60	9113
2026-01-30 02:36:02.30	250.07	28.29	-46.7	-47.5	24.8	0.00e+00	0	46	0	2958032896	60	9254
2026-01-30 02:36:03.30	249.92	28.13	-46.7	-47.4	24.8	0.00e+00	0	46	0	2964324352	60	9138
2026-01-30 02:36:04.31	249.76	27.98	-46.7	-47.4	24.9	0.00e+00	0	46	0	2969567232	60	9212
2026-01-30 02:36:05.32	249.60	27.82	-46.6	-47.3	24.8	0.00e+00	0	46	0	2974810112	60	9064
2026-01-30 02:36:06.32	249.45	27.66	-46.7	-47.5	24.8	0.00e+00	0	46	0	2981101568	60	9240
2026-01-30 02:36:07.32	249.30	27.51	-46.6	-47.2	24.8	0.00e+00	0	46	0	2986344448	60	9027
2026-01-30 02:36:08.33	249.15	27.35	-46.6	-47.2	24.9	0.00e+00	0	46	0	2992635904	60	8984
2026-01-30 02:36:09.33	249.00	27.20	-46.4	-47.1	24.9	0.00e+00	0	46	0	2997878784	60	8824
2026-01-30 02:36:10.34	248.86	27.05	-46.3	-47.1	25.0	0.00e+00	0	46	0	3003121664	60	8905
2026-01-30 02:36:11.34	248.71	26.89	-46.3	-47.1	24.9	0.00e+00	0	46	0	3009413120	60	8899
2026-01-30 02:36:12.35	248.57	26.74	-46.4	-47.0	24.9	0.00e+00	0	46	0	3014656000	60	8782
2026-01-30 02:36:13.36	248.42	26.59	-46.3	-46.9	24.9	0.00e+00	0	46	0	3019898880	60	8688
2026-01-30 02:36:14.36	248.28	26.44	-46.2	-46.8	25.0	0.00e+00	0	46	0	3026190336	60	8609
2026-01-30 02:36:15.36	248.14	26.29	-46.0	-46.7	25.3	0.00e+00	0	46	0	3031433216	60	8450
2026-01-30 02:36:16.37	248.00	26.14	-45.9	-46.6	25.2	0.00e+00	0	46	0	3036676096	60	8333
2026-01-30 02:36:17.38	247.86	25.99	-46.0	-46.6	25.2	0.00e+00	0	46	0	3042967552	60	8348
2026-01-30 02:36:18.38	247.73	25.84	-46.0	-46.6	25.2	0.00e+00	0	46	0	3049259008	60	8380
2026-01-30 02:36:19.39	247.59	25.69	-46.0	-46.6	25.2	0.00e+00	0	46	0	3054501888	60	8363
2026-01-30 02:36:20.39	247.46	25.55	-46.0	-46.6	25.1	0.00e+00	0	46	0	3059744768	60	8375
2026-01-30 02:36:21.40	247.33	25.40	-46.0	-46.7	25.1	0.00e+00	0	46	0	3066036224	60	8441
2026-01-30 02:36:22.40	247.20	25.25	-46.1	-46.7	25.0	0.00e+00	0	46	0	3071279104	60	8474
2026-01-30 02:36:23.41	247.07	25.11	-46.1	-46.9	25.0	0.00e+00	0	46	0	3077570560	60	8660
2026-01-30 02:36:24.42	246.94	24.96	-46.1	-46.8	25.0	0.00e+00	0	46	0	3082813440	60	8539
2026-01-30 02:36:25.42	246.81	24.82	-46.1	-46.9	24.9	0.00e+00	0	46	0	3088056320	60	8704
2026-01-30 02:36:26.43	246.68	24.67	-46.2	-46.8	24.9	0.00e+00	0	46	0	3094347776	60	8563
2026-01-30 02:36:27.43	246.56	24.53	-46.2	-47.0	24.9	0.00e+00	0	46	0	3099590656	60	8779
2026-01-30 02:36:28.44	246.43	24.39	-46.4	-47.2	24.8	0.00e+00	0	46	0	3104833536	60	8928
2026-01-30 02:36:29.44	246.31	24.25	-46.5	-47.3	24.6	0.00e+00	0	46	0	3111124992	60	9088
2026-01-30 02:36:30.45	246.19	24.11	-46.5	-47.3	24.7	0.00e+00	0	46	0	3116367872	60	9056
2026-01-30 02:36:31.46	246.07	23.97	-46.6	-47.2	24.5	0.00e+00	0	46	0	3121610752	60	9013
2026-01-30 02:36:32.46	245.95	23.83	-46.5	-47.2	24.4	0.00e+00	0	46	0	3127902208	60	8972
2026-01-30 02:36:33.47	245.83	23.69	-46.6	-47.4	24.4	0.00e+00	0	46	0	3133145088	60	9153
2026-01-30 02:36:34.48	245.71	23.55	-46.7	-47.5	24.3	0.00e+00	0	46	0	3139436544	60	9257
2026-01-30 02:36:35.49	245.60	23.41	-46.6	-47.5	24.4	0.00e+00	0	46	0	3144679424	60	9253
2026-01-30 02:36:36.50	245.48	23.27	-46.7	-47.5	24.3	0.00e+00	0	46	0	3150970880	60	9254
2026-01-30 02:36:37.50	245.37	23.14	-46.4	-47.2	24.6	0.00e+00	0	46	0	3156213760	60	8950
2026-01-30 02:36:38.51	245.25	23.00	-46.2	-47.0	24.7	0.00e+00	0	46	0	3162505216	60	8764
2026-01-30 02:36:39.52	245.14	22.86	-46.2	-46.9	24.7	0.00e+00	0	46	0	3167748096	60	8635
2026-01-30 02:36:40.52	245.03	22.73	-46.2	-46.9	24.7	0.00e+00	0	46	0	3172990976	60	8689
2026-01-30 02:36:41.52	244.92	22.60	-46.2	-47.0	24.7	0.00e+00	0	46	0	3179282432	60	8723
2026-01-30 02:36:42.53	244.81	22.46	-46.1	-46.9	24.8	0.00e+00	0	46	0	3184525312	60	8697
2026-01-30 02:36:43.53	244.70	22.33	-46.1	-46.9	24.7	0.00e+00	0	46	0	3189768192	60	8627
2026-01-30 02:36:44.54	244.59	22.20	-46.0	-46.7	24.8	0.00e+00	0	46	0	3196059648	60	8473
2026-01-30 02:36:45.55	244.49	22.06	-46.1	-46.7	24.8	0.00e+00	0	46	0	3201302528	60	8515
2026-01-30 02:36:46.56	244.38	21.93	-46.1	-46.7	24.8	0.00e+00	0	46	0	3206545408	60	8472
2026-01-30 02:36:47.57	244.28	21.80	-46.1	-46.8	24.7	0.00e+00	0	46	0	3212836864	60	8559
2026-01-30 02:36:48.58	244.17	21.67	-45.9	-46.5	24.8	0.00e+00	0	46	0	3219128320	60	8312
2026-01-30 02:36:49.58	244.07	21.54	-45.9	-46.5	24.7	0.00e+00	0	46	0	3224371200	60	8326
2026-01-30 02:36:50.59	243.97	21.41	-46.0	-46.6	24.7	0.00e+00	0	46	0	3229614080	60	8421
2026-01-30 02:36:51.59	243.87	21.28	-46.0	-46.8	24.8	0.00e+00	0	46	0	3235905536	60	8527
2026-01-30 02:36:52.60	243.77	21.16	-46.1	-46.7	24.6	0.00e+00	0	46	0	3241148416	60	8478
2026-01-30 02:36:53.61	243.67	21.03	-46.1	-46.8	24.5	0.00e+00	0	46	0	3247439872	60	8537
2026-01-30 02:36:54.62	243.57	20.90	-46.1	-46.9	24.5	0.00e+00	0	46	0	3252682752	60	8662
2026-01-30 02:36:55.62	243.47	20.77	-46.1	-46.9	24.5	0.00e+00	0	46	0	3257925632	60	8657
2026-01-30 02:36:56.63	243.37	20.65	-46.4	-47.1	24.3	0.00e+00	0	46	0	3264217088	60	8835
2026-01-30 02:36:57.64	243.28	20.52	-46.6	-47.2	24.2	0.00e+00	0	46	0	3269459968	60	9006
2026-01-30 02:36:58.65	243.18	20.40	-46.6	-47.5	23.9	0.00e+00	0	46	0	3274702848	60	9243
2026-01-30 02:36:59.66	243.09	20.27	-46.8	-47.7	23.8	0.00e+00	0	46	0	3280994304	60	9476
2026-01-30 02:37:00.67	242.99	20.15	-46.9	-47.7	23.7	0.00e+00	0	46	0	3286237184	60	9515
2026-01-30 02:37:01.67	242.90	20.03	-47.1	-47.8	23.5	0.00e+00	0	46	0	3291480064	60	9592
2026-01-30 02:37:02.68	242.81	19.90	-47.3	-48.2	23.3	0.00e+00	0	46	0	3297771520	60	10112
2026-01-30 02:37:03.69	242.72	19.78	-47.4	-48.2	23.3	0.00e+00	0	46	0	3304062976	60	10055
2026-01-30 02:37:04.70	242.63	19.66	-47.3	-48.0	23.4	0.00e+00	0	46	0	3309305856	60	9863
2026-01-30 02:37:05.70	242.54	19.54	-47.3	-48.0	23.4	0.00e+00	0	46	0	3314548736	60	9865
2026-01-30 02:37:06.71	242.45	19.42	-47.0	-47.9	23.5	0.00e+00	0	46	0	3320840192	60	9681
2026-01-30 02:37:07.72	242.36	19.30	-47.0	-47.7	23.6	0.00e+00	0	46	0	3326083072	60	9515
2026-01-30 02:37:08.72	242.27	19.18	-47.1	-47.8	23.5	0.00e+00	0	46	0	3332374528	60	9641
2026-01-30 02:37:09.73	242.18	19.06	-47.3	-48.2	23.3	0.00e+00	0	46	0	3337617408	60	10020
2026-01-30 02:37:10.73	242.10	18.94	-47.1	-47.9	23.4	0.00e+00	0	46	0	3342860288	60	9744
2026-01-30 02:37:11.74	242.01	18.82	-46.9	-47.6	23.6	0.00e+00	0	46	0	3349151744	60	9412
2026-01-30 02:37:12.75	241.93	18.70	-46.9	-47.6	23.7	0.00e+00	0	46	0	3354394624	60	9385
2026-01-30 02:37:13.75	241.84	18.59	-46.9	-47.7	23.7	0.00e+00	0	46	0	3359637504	60	9562
2026-01-30 02:37:14.76	241.76	18.47	-46.7	-47.5	23.9	0.00e+00	0	46	0	3365928960	60	9239
2026-01-30 02:37:15.77	241.67	18.35	-46.8	-47.7	23.8	0.00e+00	0	46	0	3371171840	60	9474
2026-01-30 02:37:16.78	241.59	18.24	-47.0	-47.8	23.6	0.00e+00	0	46	0	3377463296	60	9637
2026-01-30 02:37:17.78	241.51	18.12	-47.1	-47.8	23.5	0.00e+00	0	46	0	3382706176	60	9633
2026-01-30 02:37:18.78	241.43	18.01	-47.2	-47.9	23.4	0.00e+00	0	46	0	3388997632	60	9749
2026-01-30 02:37:19.79	241.35	17.89	-47.0	-47.9	23.5	0.00e+00	0	46	0	3394240512	60	9690
2026-01-30 02:37:20.80	241.27	17.78	-47.1	-47.9	23.5	0.00e+00	0	46	0	3399483392	60	9694
2026-01-30 02:37:21.81	241.19	17.67	-47.0	-47.7	23.5	0.00e+00	0	46	0	3405774848	60	9507
2026-01-30 02:37:22.81	241.11	17.55	-47.1	-47.9	23.5	0.00e+00	0	46	0	3411017728	60	9765
2026-01-30 02:37:23.82	241.03	17.44	-47.1	-47.8	23.4	0.00e+00	0	46	0	3417309184	60	9665
