passes_logs/2026/01/30/R3.2S-Naryan-Mar/R3.2S-Naryan-Mar__20260130_004530_FENGYUN_3D_rec.log

#Pass ID: 20260130_004530_FENGYUN 3D
#Satellite: FENGYUN 3D
#Configuration: FENGYUN 3D
#almurnet v.1.7.20240730
#Start time: 2026-01-30 00:45:31

#Version: 2.2.20231116
#Station: R3.2S-Naryan-Mar
#Location: 53.008057 lon 67.646978 lat
#TLE: 1 43010U 17072A   26028.95797775  .00000451  00000+0  23492-3 0  9991
#TLE: 2 43010  98.9958   0.9922 0002505  85.7480 274.3981 14.19703224425237

#Time	Az	El	Level	Level2	SNR	BER	BlckErr	Temp	State	Recorded	gain1	gain2
2026-01-30 00:45:31.30	21.55	0.04	-57.9	-78.4	3.5	3.02e+01	0	43	0	0	60	316155
2026-01-30 00:45:32.30	21.57	0.10	-61.4	-75.4	3.6	8.45e-01	0	44	104	0	60	231958
2026-01-30 00:45:33.31	21.59	0.16	-61.7	-75.4	3.6	8.45e-01	0	45	104	0	60	230113
2026-01-30 00:45:34.32	21.61	0.22	-62.1	-75.6	3.6	8.46e-01	0	44	104	0	60	235373
2026-01-30 00:45:35.33	21.63	0.28	-62.0	-75.5	3.6	8.46e-01	0	45	104	0	60	233176
2026-01-30 00:45:36.33	21.65	0.34	-61.9	-75.2	3.6	8.45e-01	0	45	104	0	60	226126
2026-01-30 00:45:37.33	21.67	0.40	-61.2	-75.1	3.6	8.45e-01	0	45	104	0	60	223969
2026-01-30 00:45:38.33	21.69	0.46	-61.8	-75.3	3.6	8.44e-01	0	45	104	0	60	227054
2026-01-30 00:45:39.34	21.71	0.52	-62.0	-75.4	3.6	8.45e-01	0	45	104	0	60	230709
2026-01-30 00:45:40.35	21.73	0.58	-62.0	-75.5	3.6	8.46e-01	0	45	104	0	60	232128
2026-01-30 00:45:41.35	21.75	0.64	-62.1	-75.4	3.6	8.45e-01	0	45	104	0	60	231567
2026-01-30 00:45:42.36	21.77	0.70	-62.0	-75.5	3.6	8.45e-01	0	45	104	0	60	232302
2026-01-30 00:45:43.37	21.79	0.76	-61.8	-75.3	3.6	8.44e-01	0	45	104	0	60	228448
2026-01-30 00:45:44.38	21.81	0.82	-62.1	-75.4	3.6	8.46e-01	0	45	104	0	60	231357
2026-01-30 00:45:45.38	21.84	0.88	-62.2	-75.5	3.6	8.45e-01	0	45	104	0	60	234002
2026-01-30 00:45:46.39	21.86	0.94	-61.5	-75.3	3.6	8.45e-01	0	45	104	0	60	227629
2026-01-30 00:45:47.40	21.88	1.00	-60.6	-75.2	3.6	8.46e-01	0	45	104	0	60	224889
2026-01-30 00:45:48.40	21.90	1.07	-60.6	-75.0	3.6	8.45e-01	0	45	104	0	60	221124
2026-01-30 00:45:49.41	21.92	1.13	-58.2	-74.0	3.6	8.44e-01	0	45	104	0	60	196631
2026-01-30 00:45:50.41	21.94	1.19	-61.2	-75.0	3.6	8.45e-01	0	45	104	0	60	221169
2026-01-30 00:45:51.42	21.96	1.25	-61.0	-74.9	3.6	8.45e-01	0	45	104	0	60	218308
2026-01-30 00:45:52.42	21.98	1.31	-59.3	-74.4	3.6	8.45e-01	0	45	104	0	60	205019
2026-01-30 00:45:53.43	22.00	1.37	-60.3	-74.7	3.6	8.46e-01	0	45	104	0	60	213059
2026-01-30 00:45:54.44	22.02	1.44	-61.0	-74.8	3.6	8.44e-01	0	45	104	0	60	216036
2026-01-30 00:45:55.45	22.04	1.50	-60.5	-74.6	3.6	8.45e-01	0	45	104	0	60	209537
2026-01-30 00:45:56.46	22.07	1.56	-56.5	-73.2	3.6	8.45e-01	0	45	104	0	60	179897
2026-01-30 00:45:57.47	22.09	1.62	-54.5	-70.8	3.5	8.46e-01	0	45	104	0	60	135823
2026-01-30 00:45:58.47	22.11	1.69	-54.1	-73.7	3.6	8.43e-01	0	45	104	0	60	189546
2026-01-30 00:45:59.48	22.13	1.75	-58.6	-74.1	3.6	8.45e-01	0	45	104	0	60	198401
2026-01-30 00:46:00.49	22.15	1.81	-55.4	-73.1	3.6	8.44e-01	0	45	104	0	60	177745
2026-01-30 00:46:01.49	22.17	1.88	-58.5	-74.0	3.6	8.45e-01	0	45	104	0	60	196972
2026-01-30 00:46:02.50	22.20	1.94	-58.8	-73.8	3.6	8.46e-01	0	45	104	0	60	192583
2026-01-30 00:46:03.51	22.22	2.00	-60.2	-73.7	3.6	8.46e-01	0	45	104	0	60	189028
2026-01-30 00:46:04.52	22.24	2.07	-58.8	-72.9	3.6	8.44e-01	0	45	104	0	60	172459
2026-01-30 00:46:05.52	22.26	2.13	-55.9	-72.6	3.6	8.44e-01	0	45	104	0	60	167874
2026-01-30 00:46:06.53	22.28	2.19	-58.4	-72.8	3.6	8.44e-01	0	45	104	0	60	170938
2026-01-30 00:46:07.53	22.31	2.26	-59.5	-73.1	3.6	8.44e-01	0	45	104	0	60	177465
2026-01-30 00:46:08.54	22.33	2.32	-59.3	-73.0	3.6	8.45e-01	0	45	104	0	60	175751
2026-01-30 00:46:09.54	22.35	2.38	-59.3	-73.1	3.6	8.46e-01	0	45	104	0	60	176351
2026-01-30 00:46:10.55	22.37	2.45	-59.2	-73.0	3.6	8.45e-01	0	45	104	0	60	175779
2026-01-30 00:46:11.56	22.39	2.51	-59.3	-73.0	3.6	8.46e-01	0	45	104	0	60	175544
2026-01-30 00:46:12.57	22.42	2.58	-59.2	-72.9	3.6	8.45e-01	0	45	104	0	60	173841
2026-01-30 00:46:13.58	22.44	2.64	-59.2	-73.0	3.6	8.44e-01	0	45	104	0	60	175250
2026-01-30 00:46:14.58	22.46	2.71	-59.2	-72.8	3.5	8.45e-01	0	45	104	0	60	171238
2026-01-30 00:46:15.59	22.49	2.77	-59.1	-72.9	3.5	8.46e-01	0	45	104	0	60	173049
2026-01-30 00:46:16.59	22.51	2.84	-59.2	-73.0	3.5	8.45e-01	0	45	104	0	60	174008
2026-01-30 00:46:17.60	22.53	2.90	-59.1	-72.9	3.6	8.46e-01	0	45	104	0	60	172554
2026-01-30 00:46:18.60	22.55	2.97	-59.1	-72.8	3.6	8.45e-01	0	45	104	0	60	171646
2026-01-30 00:46:19.61	22.58	3.03	-59.1	-72.6	3.6	8.45e-01	0	45	104	0	60	167063
2026-01-30 00:46:20.62	22.60	3.10	-59.1	-72.7	3.6	8.46e-01	0	45	104	0	60	168821
2026-01-30 00:46:21.63	22.62	3.17	-59.1	-72.5	3.6	8.45e-01	0	45	104	0	60	165182
2026-01-30 00:46:22.63	22.65	3.23	-59.0	-72.6	3.6	8.47e-01	0	45	104	0	60	166257
2026-01-30 00:46:23.64	22.67	3.30	-59.0	-72.4	3.6	8.45e-01	0	45	104	0	60	163419
2026-01-30 00:46:24.65	22.69	3.37	-59.0	-72.2	3.6	8.46e-01	0	45	104	0	60	159004
2026-01-30 00:46:25.65	22.72	3.43	-59.1	-72.2	3.6	8.45e-01	0	45	104	0	60	158888
2026-01-30 00:46:26.65	22.74	3.50	-59.0	-72.2	3.6	8.46e-01	0	45	104	0	60	160282
2026-01-30 00:46:27.66	22.76	3.57	-59.0	-72.4	3.5	8.46e-01	0	45	104	0	60	163209
2026-01-30 00:46:28.67	22.79	3.63	-59.0	-72.1	3.6	8.44e-01	0	45	104	0	60	157701
2026-01-30 00:46:29.67	22.81	3.70	-59.0	-72.0	3.6	8.45e-01	0	45	104	0	60	156872
2026-01-30 00:46:30.68	22.84	3.77	-59.0	-72.2	3.5	8.46e-01	0	45	104	0	60	160159
2026-01-30 00:46:31.69	22.86	3.84	-59.0	-72.2	3.6	8.46e-01	0	45	104	0	60	160102
2026-01-30 00:46:32.70	22.88	3.90	-59.0	-72.2	3.6	8.45e-01	0	45	104	0	60	159272
2026-01-30 00:46:33.70	22.91	3.97	-59.0	-72.2	3.6	8.45e-01	0	46	104	0	60	159950
2026-01-30 00:46:34.71	22.93	4.04	-59.0	-72.0	3.6	8.46e-01	0	45	104	0	60	155392
2026-01-30 00:46:35.72	22.96	4.11	-59.0	-71.9	3.6	8.46e-01	0	45	104	0	60	155018
2026-01-30 00:46:36.72	22.98	4.18	-58.9	-71.6	3.6	8.45e-01	0	45	104	0	60	149242
2026-01-30 00:46:37.73	23.01	4.24	-58.9	-71.5	3.6	8.46e-01	0	45	104	0	60	147442
2026-01-30 00:46:38.73	23.03	4.31	-58.9	-71.3	3.6	8.44e-01	0	45	104	0	60	143478
2026-01-30 00:46:39.74	23.06	4.38	-58.9	-70.9	3.6	8.44e-01	0	46	104	0	60	137409
2026-01-30 00:46:40.74	23.08	4.45	-58.9	-70.6	3.7	8.45e-01	0	45	104	0	60	132876
2026-01-30 00:46:41.75	23.11	4.52	-58.8	-70.4	3.8	8.44e-01	0	45	104	0	60	130369
2026-01-30 00:46:42.76	23.13	4.59	-58.8	-70.4	3.8	8.45e-01	0	46	104	0	60	129846
2026-01-30 00:46:43.76	23.16	4.66	-58.8	-70.4	3.7	8.43e-01	0	45	104	0	60	129826
2026-01-30 00:46:44.77	23.18	4.73	-58.8	-70.6	3.6	8.43e-01	0	46	104	0	60	133038
2026-01-30 00:46:45.78	23.21	4.80	-58.9	-70.9	3.6	8.43e-01	0	46	104	0	60	137635
2026-01-30 00:46:46.79	23.23	4.87	-58.9	-70.8	3.6	8.44e-01	0	46	104	0	60	136301
2026-01-30 00:46:47.80	23.26	4.94	-58.7	-69.7	4.0	8.44e-01	0	45	104	0	60	119501
2026-01-30 00:46:48.80	23.28	5.01	-58.5	-66.5	4.6	8.20e-01	0	45	0	0	60	82816
2026-01-30 00:46:49.80	23.31	5.08	-58.2	-64.5	6.4	3.02e-01	0	46	0	2097152	60	65610
2026-01-30 00:46:50.81	23.34	5.15	-57.5	-62.3	8.9	4.79e-02	0	46	0	8388608	60	51128
2026-01-30 00:46:51.82	23.36	5.22	-56.7	-60.4	11.2	5.27e-03	0	46	0	13631488	60	40881
2026-01-30 00:46:52.82	23.39	5.29	-55.8	-58.8	13.0	3.13e-04	0	45	0	19922944	60	33964
2026-01-30 00:46:53.83	23.41	5.37	-54.7	-57.1	14.7	0.00e+00	0	45	0	25165824	60	28022
2026-01-30 00:46:54.84	23.44	5.44	-53.9	-55.9	16.0	0.00e+00	0	46	0	31457280	60	24336
2026-01-30 00:46:55.85	23.47	5.51	-53.1	-54.8	17.1	0.00e+00	0	46	0	36700160	60	21422
2026-01-30 00:46:56.86	23.49	5.58	-52.4	-53.9	18.0	0.00e+00	0	46	0	41943040	60	19304
2026-01-30 00:46:57.87	23.52	5.65	-51.7	-53.1	18.8	0.00e+00	0	46	0	48234496	60	17672
2026-01-30 00:46:58.87	23.55	5.73	-51.3	-52.6	19.2	0.00e+00	0	45	0	53477376	60	16689
2026-01-30 00:46:59.88	23.57	5.80	-51.1	-52.3	19.4	0.00e+00	0	45	0	58720256	60	16185
2026-01-30 00:47:00.89	23.60	5.87	-51.0	-52.2	19.6	0.00e+00	0	45	0	65011712	60	15917
2026-01-30 00:47:01.90	23.63	5.95	-51.0	-52.2	19.6	0.00e+00	0	45	0	70254592	60	15922
2026-01-30 00:47:02.90	23.66	6.02	-51.1	-52.4	19.3	0.00e+00	0	45	0	75497472	60	16314
2026-01-30 00:47:03.91	23.68	6.09	-50.5	-52.1	19.3	0.00e+00	0	45	0	81788928	60	15734
2026-01-30 00:47:04.92	23.71	6.17	-53.5	-55.2	16.3	0.00e+00	0	45	0	88080384	60	22504
2026-01-30 00:47:05.93	23.74	6.24	-50.9	-53.0	18.0	0.00e+00	0	45	0	93323264	60	17472
2026-01-30 00:47:06.93	23.77	6.31	-53.6	-55.5	16.3	0.00e+00	0	45	0	98566144	60	23209
2026-01-30 00:47:07.94	23.79	6.39	-54.1	-56.1	14.7	0.00e+00	0	45	0	104857600	60	24958
2026-01-30 00:47:08.95	23.82	6.46	-52.4	-54.9	16.6	0.00e+00	0	46	0	110100480	60	21732
2026-01-30 00:47:09.96	23.85	6.54	-51.4	-54.3	16.9	0.00e+00	0	45	0	116391936	60	20217
2026-01-30 00:47:10.96	23.88	6.61	-51.1	-53.5	17.9	0.00e+00	0	46	0	121634816	60	18433
2026-01-30 00:47:11.97	23.91	6.69	-51.5	-53.0	19.0	0.00e+00	0	46	0	126877696	60	17421
2026-01-30 00:47:12.98	23.93	6.76	-51.4	-52.7	18.8	0.00e+00	0	45	0	133169152	60	16912
2026-01-30 00:47:13.98	23.96	6.84	-50.9	-52.4	18.8	0.00e+00	0	46	0	138412032	60	16277
2026-01-30 00:47:14.99	23.99	6.91	-50.4	-52.0	19.1	0.00e+00	0	45	0	143654912	60	15536
2026-01-30 00:47:15.99	24.02	6.99	-50.1	-51.7	19.4	0.00e+00	0	45	0	149946368	60	15056
2026-01-30 00:47:17.00	24.05	7.07	-50.1	-51.6	19.6	0.00e+00	0	45	0	155189248	60	14963
2026-01-30 00:47:18.00	24.08	7.14	-50.2	-51.6	19.9	0.00e+00	0	45	0	160432128	60	14888
2026-01-30 00:47:19.01	24.11	7.22	-50.3	-51.7	20.0	0.00e+00	0	46	0	166723584	60	14988
2026-01-30 00:47:20.01	24.14	7.30	-50.0	-51.6	19.7	0.00e+00	0	46	0	173015040	60	14966
2026-01-30 00:47:21.02	24.17	7.37	-49.7	-51.6	19.3	0.00e+00	0	46	0	178257920	60	14846
2026-01-30 00:47:22.02	24.19	7.45	-49.3	-51.4	19.1	0.00e+00	0	45	0	183500800	60	14590
2026-01-30 00:47:23.03	24.22	7.53	-49.2	-51.4	18.9	0.00e+00	0	46	0	189792256	60	14577
2026-01-30 00:47:24.04	24.25	7.61	-49.1	-51.3	19.2	0.00e+00	0	46	0	195035136	60	14362
2026-01-30 00:47:25.04	24.28	7.68	-49.4	-51.3	19.5	0.00e+00	0	46	0	201326592	60	14378
2026-01-30 00:47:26.05	24.31	7.76	-49.7	-51.3	20.1	0.00e+00	0	46	0	206569472	60	14349
2026-01-30 00:47:27.05	24.34	7.84	-49.9	-51.2	20.5	0.00e+00	0	46	0	211812352	60	14245
2026-01-30 00:47:28.06	24.38	7.92	-50.1	-51.2	20.8	0.00e+00	0	46	0	218103808	60	14276
2026-01-30 00:47:29.06	24.41	8.00	-50.1	-51.2	20.7	0.00e+00	0	46	0	223346688	60	14235
2026-01-30 00:47:30.07	24.44	8.08	-49.8	-51.1	20.5	0.00e+00	0	46	0	228589568	60	14066
2026-01-30 00:47:31.07	24.47	8.16	-49.8	-51.1	20.3	0.00e+00	0	46	0	234881024	60	14135
2026-01-30 00:47:32.08	24.50	8.24	-49.5	-51.1	20.1	0.00e+00	0	46	0	240123904	60	14117
2026-01-30 00:47:33.09	24.53	8.32	-49.3	-51.1	19.9	0.00e+00	0	46	0	245366784	60	14055
2026-01-30 00:47:34.09	24.56	8.40	-49.3	-51.1	20.0	0.00e+00	0	46	0	251658240	60	14068
2026-01-30 00:47:35.10	24.59	8.48	-49.3	-51.1	20.2	0.00e+00	0	46	0	256901120	60	13991
2026-01-30 00:47:36.11	24.62	8.56	-49.5	-51.1	20.4	0.00e+00	0	46	0	263192576	60	14063
2026-01-30 00:47:37.11	24.65	8.64	-49.6	-51.1	20.5	0.00e+00	0	46	0	268435456	60	14110
2026-01-30 00:47:38.12	24.69	8.72	-49.5	-51.0	20.3	0.00e+00	0	46	0	274726912	60	13869
2026-01-30 00:47:39.12	24.72	8.80	-49.3	-50.9	19.8	0.00e+00	0	46	0	279969792	60	13821
2026-01-30 00:47:40.13	24.75	8.88	-49.3	-51.0	19.4	0.00e+00	0	46	0	286261248	60	13937
2026-01-30 00:47:41.14	24.78	8.97	-49.0	-50.9	19.3	0.00e+00	0	46	0	291504128	60	13717
2026-01-30 00:47:42.14	24.81	9.05	-49.0	-50.8	19.7	0.00e+00	0	46	0	296747008	60	13656
2026-01-30 00:47:43.14	24.85	9.13	-49.2	-50.8	20.4	0.00e+00	0	46	0	303038464	60	13537
2026-01-30 00:47:44.15	24.88	9.21	-49.6	-50.8	21.1	0.00e+00	0	46	0	308281344	60	13533
2026-01-30 00:47:45.15	24.91	9.30	-49.6	-50.7	21.3	0.00e+00	0	46	0	313524224	60	13399
2026-01-30 00:47:46.16	24.95	9.38	-49.7	-50.7	21.4	0.00e+00	0	46	0	319815680	60	13462
2026-01-30 00:47:47.16	24.98	9.46	-49.7	-50.7	21.2	0.00e+00	0	46	0	325058560	60	13394
2026-01-30 00:47:48.16	25.01	9.55	-49.5	-50.6	21.2	0.00e+00	0	46	0	331350016	60	13219
2026-01-30 00:47:49.17	25.05	9.63	-49.5	-50.5	21.3	0.00e+00	0	46	0	336592896	60	13147
2026-01-30 00:47:50.17	25.08	9.71	-49.5	-50.5	21.2	0.00e+00	0	46	0	341835776	60	13107
2026-01-30 00:47:51.18	25.11	9.80	-49.4	-50.4	21.3	0.00e+00	0	46	0	348127232	60	13041
2026-01-30 00:47:52.18	25.15	9.88	-49.4	-50.4	21.1	0.00e+00	0	46	0	353370112	60	13036
2026-01-30 00:47:53.19	25.18	9.97	-49.2	-50.4	20.6	0.00e+00	0	46	0	358612992	60	13036
2026-01-30 00:47:54.20	25.22	10.05	-48.9	-50.4	20.2	0.00e+00	0	46	0	364904448	60	12967
2026-01-30 00:47:55.21	25.25	10.14	-48.7	-50.4	20.0	0.00e+00	0	46	0	370147328	60	12925
2026-01-30 00:47:56.22	25.29	10.23	-48.6	-50.4	19.9	0.00e+00	0	46	0	376438784	60	12976
2026-01-30 00:47:57.22	25.32	10.31	-48.6	-50.4	20.2	0.00e+00	0	46	0	381681664	60	12977
2026-01-30 00:47:58.22	25.36	10.40	-48.8	-50.4	20.8	0.00e+00	0	46	0	387973120	60	12976
2026-01-30 00:47:59.23	25.39	10.49	-48.9	-50.4	21.3	0.00e+00	0	46	0	393216000	60	13018
2026-01-30 00:48:00.23	25.43	10.57	-49.2	-50.5	21.6	0.00e+00	0	46	0	398458880	60	13087
2026-01-30 00:48:01.24	25.46	10.66	-49.4	-50.5	21.8	0.00e+00	0	46	0	404750336	60	13099
2026-01-30 00:48:02.25	25.50	10.75	-49.5	-50.5	21.8	0.00e+00	0	46	0	409993216	60	13129
2026-01-30 00:48:03.24	25.53	10.84	-49.6	-50.5	21.8	0.00e+00	0	46	0	416284672	60	13151
2026-01-30 00:48:04.25	25.57	10.93	-49.6	-50.5	21.7	0.00e+00	0	46	0	421527552	60	13130
2026-01-30 00:48:05.26	25.61	11.02	-49.6	-50.5	21.8	0.00e+00	0	46	0	426770432	60	13165
2026-01-30 00:48:06.26	25.64	11.10	-49.6	-50.5	21.9	0.00e+00	0	46	0	433061888	60	13086
2026-01-30 00:48:07.27	25.68	11.19	-49.5	-50.5	21.9	0.00e+00	0	46	0	438304768	60	13062
2026-01-30 00:48:08.27	25.72	11.28	-49.5	-50.5	21.7	0.00e+00	0	46	0	443547648	60	13113
2026-01-30 00:48:09.28	25.75	11.37	-49.6	-50.6	21.5	0.00e+00	0	46	0	449839104	60	13218
2026-01-30 00:48:10.29	25.79	11.46	-49.5	-50.6	21.4	0.00e+00	0	46	0	455081984	60	13222
2026-01-30 00:48:11.29	25.83	11.55	-49.6	-50.6	21.3	0.00e+00	0	46	0	460324864	60	13297
2026-01-30 00:48:12.30	25.87	11.65	-49.6	-50.7	21.4	0.00e+00	0	46	0	466616320	60	13390
2026-01-30 00:48:13.31	25.90	11.74	-49.7	-50.7	21.5	0.00e+00	0	46	0	471859200	60	13494
2026-01-30 00:48:14.31	25.94	11.83	-49.7	-50.8	21.6	0.00e+00	0	46	0	478150656	60	13538
2026-01-30 00:48:15.32	25.98	11.92	-49.8	-50.9	21.5	0.00e+00	0	46	0	483393536	60	13708
2026-01-30 00:48:16.33	26.02	12.01	-49.9	-50.9	21.5	0.00e+00	0	46	0	489684992	60	13707
2026-01-30 00:48:17.33	26.06	12.11	-49.9	-50.9	21.4	0.00e+00	0	46	0	494927872	60	13785
2026-01-30 00:48:18.33	26.10	12.20	-50.1	-51.2	21.2	0.00e+00	0	46	0	501219328	60	14150
2026-01-30 00:48:19.34	26.14	12.29	-50.1	-51.2	21.0	0.00e+00	0	46	0	506462208	60	14256
2026-01-30 00:48:20.35	26.18	12.39	-50.1	-51.2	20.9	0.00e+00	0	46	0	511705088	60	14268
2026-01-30 00:48:21.35	26.22	12.48	-50.0	-51.1	21.0	0.00e+00	0	46	0	517996544	60	14131
2026-01-30 00:48:22.36	26.26	12.58	-49.7	-50.8	21.4	0.00e+00	0	46	0	523239424	60	13541
2026-01-30 00:48:23.36	26.30	12.67	-49.6	-50.7	21.5	0.00e+00	0	46	0	528482304	60	13366
2026-01-30 00:48:24.37	26.34	12.77	-49.5	-50.6	21.5	0.00e+00	0	46	0	534773760	60	13253
2026-01-30 00:48:25.38	26.38	12.86	-49.5	-50.6	21.6	0.00e+00	0	46	0	540016640	60	13310
2026-01-30 00:48:26.38	26.42	12.96	-49.5	-50.6	21.5	0.00e+00	0	46	0	545259520	60	13255
2026-01-30 00:48:27.39	26.46	13.06	-49.5	-50.6	21.6	0.00e+00	0	46	0	551550976	60	13254
2026-01-30 00:48:28.40	26.50	13.15	-49.6	-50.7	21.7	0.00e+00	0	46	0	556793856	60	13431
2026-01-30 00:48:29.41	26.54	13.25	-49.7	-50.8	21.7	0.00e+00	0	46	0	563085312	60	13514
2026-01-30 00:48:30.41	26.58	13.35	-49.5	-50.5	21.9	0.00e+00	0	46	0	568328192	60	13061
2026-01-30 00:48:31.42	26.63	13.45	-49.6	-50.5	21.8	0.00e+00	0	46	0	574619648	60	13176
2026-01-30 00:48:32.43	26.67	13.54	-49.6	-50.6	21.8	0.00e+00	0	46	0	579862528	60	13286
2026-01-30 00:48:33.43	26.71	13.64	-49.6	-50.6	21.7	0.00e+00	0	46	0	586153984	60	13259
2026-01-30 00:48:34.44	26.75	13.74	-49.6	-50.6	21.6	0.00e+00	0	46	0	591396864	60	13327
2026-01-30 00:48:35.44	26.80	13.84	-49.6	-50.7	21.5	0.00e+00	0	46	0	596639744	60	13365
2026-01-30 00:48:36.45	26.84	13.94	-49.6	-50.7	21.5	0.00e+00	0	46	0	602931200	60	13377
2026-01-30 00:48:37.45	26.88	14.04	-49.5	-50.6	21.6	0.00e+00	0	46	0	608174080	60	13350
2026-01-30 00:48:38.46	26.93	14.14	-49.4	-50.5	21.9	0.00e+00	0	46	0	613416960	60	13157
2026-01-30 00:48:39.47	26.97	14.24	-49.0	-50.1	22.3	0.00e+00	0	46	0	619708416	60	12564
2026-01-30 00:48:40.47	27.02	14.34	-48.9	-50.0	22.4	0.00e+00	0	46	0	624951296	60	12355
2026-01-30 00:48:41.48	27.06	14.45	-49.1	-50.1	22.5	0.00e+00	0	46	0	630194176	60	12502
2026-01-30 00:48:42.49	27.11	14.55	-49.2	-50.2	22.4	0.00e+00	0	46	0	636485632	60	12630
2026-01-30 00:48:43.50	27.15	14.65	-49.4	-50.3	22.3	0.00e+00	0	46	0	641728512	60	12804
2026-01-30 00:48:44.51	27.20	14.76	-49.5	-50.4	22.2	0.00e+00	0	46	0	648019968	60	12953
2026-01-30 00:48:45.51	27.24	14.86	-49.6	-50.5	22.2	0.00e+00	0	46	0	653262848	60	13080
2026-01-30 00:48:46.52	27.29	14.96	-49.7	-50.6	21.9	0.00e+00	0	46	0	659554304	60	13343
2026-01-30 00:48:47.52	27.34	15.07	-49.6	-50.6	21.9	0.00e+00	0	46	0	664797184	60	13322
2026-01-30 00:48:48.53	27.38	15.17	-49.6	-50.7	21.9	0.00e+00	0	46	0	671088640	60	13411
2026-01-30 00:48:49.54	27.43	15.28	-49.7	-50.8	21.8	0.00e+00	0	46	0	676331520	60	13624
2026-01-30 00:48:50.54	27.48	15.38	-49.9	-50.9	21.7	0.00e+00	0	46	0	681574400	60	13718
2026-01-30 00:48:51.55	27.53	15.49	-50.0	-51.0	21.8	0.00e+00	0	46	0	687865856	60	13832
2026-01-30 00:48:52.55	27.57	15.60	-49.8	-50.6	22.0	0.00e+00	0	46	0	693108736	60	13342
2026-01-30 00:48:53.56	27.62	15.70	-49.2	-50.2	22.2	0.00e+00	0	46	0	698351616	60	12701
2026-01-30 00:48:54.56	27.67	15.81	-49.1	-50.2	21.9	0.00e+00	0	46	0	704643072	60	12742
2026-01-30 00:48:55.57	27.72	15.92	-49.2	-50.5	21.6	0.00e+00	0	46	0	709885952	60	13104
2026-01-30 00:48:56.57	27.77	16.03	-49.4	-50.6	21.2	0.00e+00	0	46	0	715128832	60	13259
2026-01-30 00:48:57.58	27.82	16.14	-49.5	-50.7	21.1	0.00e+00	0	46	0	721420288	60	13411
2026-01-30 00:48:58.59	27.87	16.25	-49.6	-50.6	21.5	0.00e+00	0	46	0	726663168	60	13346
2026-01-30 00:48:59.59	27.92	16.36	-49.6	-50.6	21.7	0.00e+00	0	46	0	732954624	60	13212
2026-01-30 00:49:00.60	27.97	16.47	-49.9	-50.9	21.8	0.00e+00	0	46	0	738197504	60	13789
2026-01-30 00:49:01.60	28.02	16.58	-49.8	-51.0	21.7	0.00e+00	0	46	0	743440384	60	13915
2026-01-30 00:49:02.61	28.07	16.69	-49.9	-51.2	21.8	0.00e+00	0	46	0	749731840	60	14164
2026-01-30 00:49:03.62	28.12	16.80	-49.7	-51.0	21.6	0.00e+00	0	46	0	756023296	60	13880
2026-01-30 00:49:04.63	28.17	16.91	-49.8	-51.2	21.3	0.00e+00	0	46	0	761266176	60	14306
2026-01-30 00:49:05.63	28.23	17.03	-49.8	-51.3	21.2	0.00e+00	0	46	0	766509056	60	14353
2026-01-30 00:49:06.63	28.28	17.14	-49.7	-51.2	21.2	0.00e+00	0	46	0	772800512	60	14254
2026-01-30 00:49:07.63	28.33	17.25	-50.2	-51.7	20.9	0.00e+00	0	46	0	778043392	60	15057
2026-01-30 00:49:08.64	28.39	17.37	-50.3	-51.7	20.8	0.00e+00	0	46	0	783286272	60	15068
2026-01-30 00:49:09.65	28.44	17.48	-50.5	-51.9	20.6	0.00e+00	0	46	0	789577728	60	15398
2026-01-30 00:49:10.66	28.49	17.60	-50.7	-51.9	20.8	0.00e+00	0	46	0	794820608	60	15488
2026-01-30 00:49:11.66	28.55	17.71	-49.7	-50.9	21.5	0.00e+00	0	46	0	800063488	60	13786
2026-01-30 00:49:12.67	28.60	17.83	-49.1	-50.2	22.1	0.00e+00	0	46	0	806354944	60	12730
2026-01-30 00:49:13.68	28.66	17.95	-48.7	-49.8	22.6	0.00e+00	0	46	0	811597824	60	12132
2026-01-30 00:49:14.69	28.71	18.07	-48.3	-49.4	23.0	0.00e+00	0	46	0	817889280	60	11505
2026-01-30 00:49:15.70	28.77	18.18	-48.1	-49.3	23.0	0.00e+00	0	46	0	823132160	60	11392
2026-01-30 00:49:16.71	28.83	18.30	-48.4	-49.5	22.5	0.00e+00	0	46	0	828375040	60	11689
2026-01-30 00:49:17.71	28.88	18.42	-48.4	-49.5	22.4	0.00e+00	0	46	0	834666496	60	11642
2026-01-30 00:49:18.72	28.94	18.54	-48.4	-49.4	22.1	0.00e+00	0	46	0	840957952	60	11590
2026-01-30 00:49:19.72	29.00	18.66	-48.4	-49.5	21.8	0.00e+00	0	46	0	846200832	60	11749
2026-01-30 00:49:20.73	29.06	18.78	-48.3	-49.5	21.5	0.00e+00	0	46	0	851443712	60	11667
2026-01-30 00:49:21.73	29.12	18.90	-48.0	-49.2	21.7	0.00e+00	0	46	0	857735168	60	11255
2026-01-30 00:49:22.74	29.17	19.03	-47.6	-48.6	22.1	0.00e+00	0	46	0	862978048	60	10602
2026-01-30 00:49:23.74	29.23	19.15	-47.3	-48.3	22.4	0.00e+00	0	46	0	868220928	60	10240
2026-01-30 00:49:24.75	29.29	19.27	-47.3	-48.4	22.1	0.00e+00	0	46	0	874512384	60	10269
2026-01-30 00:49:25.75	29.35	19.40	-47.3	-48.4	22.3	0.00e+00	0	46	0	879755264	60	10280
2026-01-30 00:49:26.76	29.41	19.52	-47.3	-48.3	22.5	0.00e+00	0	46	0	884998144	60	10210
2026-01-30 00:49:27.76	29.48	19.65	-47.4	-48.3	22.8	0.00e+00	0	46	0	891289600	60	10200
2026-01-30 00:49:28.77	29.54	19.77	-47.4	-48.3	23.0	0.00e+00	0	46	0	896532480	60	10226
2026-01-30 00:49:29.77	29.60	19.90	-47.5	-48.3	23.2	0.00e+00	0	46	0	902823936	60	10243
2026-01-30 00:49:30.78	29.66	20.02	-47.6	-48.5	23.5	0.00e+00	0	46	0	908066816	60	10378
2026-01-30 00:49:31.79	29.73	20.15	-47.8	-48.7	23.4	0.00e+00	0	46	0	913309696	60	10623
2026-01-30 00:49:32.79	29.79	20.28	-48.0	-48.9	23.2	0.00e+00	0	46	0	919601152	60	10870
2026-01-30 00:49:33.80	29.85	20.41	-47.7	-48.6	23.6	0.00e+00	0	46	0	924844032	60	10521
2026-01-30 00:49:34.81	29.92	20.54	-47.5	-48.3	23.5	0.00e+00	0	46	0	930086912	60	10246
2026-01-30 00:49:35.82	29.98	20.67	-47.7	-48.6	23.2	0.00e+00	0	46	0	936378368	60	10552
2026-01-30 00:49:36.82	30.05	20.80	-47.6	-48.6	22.9	0.00e+00	0	46	0	942669824	60	10500
2026-01-30 00:49:37.82	30.11	20.93	-47.7	-48.7	22.6	0.00e+00	0	46	0	947912704	60	10721
2026-01-30 00:49:38.82	30.18	21.06	-47.8	-48.8	22.7	0.00e+00	0	46	0	953155584	60	10824
2026-01-30 00:49:39.83	30.25	21.19	-47.7	-48.8	22.7	0.00e+00	0	46	0	959447040	60	10830
2026-01-30 00:49:40.84	30.32	21.33	-47.5	-48.8	22.8	0.00e+00	0	46	0	964689920	60	10754
2026-01-30 00:49:41.85	30.39	21.46	-47.3	-48.7	22.8	0.00e+00	0	46	0	969932800	60	10712
2026-01-30 00:49:42.85	30.45	21.60	-47.3	-48.8	22.5	0.00e+00	0	46	0	976224256	60	10752
2026-01-30 00:49:43.86	30.52	21.73	-47.3	-48.8	22.3	0.00e+00	0	46	0	981467136	60	10773
2026-01-30 00:49:44.86	30.59	21.87	-47.5	-48.9	22.2	0.00e+00	0	46	0	987758592	60	10862
2026-01-30 00:49:45.87	30.66	22.00	-47.4	-48.3	23.3	0.00e+00	0	46	0	993001472	60	10236
2026-01-30 00:49:46.88	30.74	22.14	-47.5	-48.3	23.8	0.00e+00	0	46	0	998244352	60	10237
2026-01-30 00:49:47.89	30.81	22.28	-47.5	-48.3	24.0	0.00e+00	0	46	0	1004535808	60	10213
2026-01-30 00:49:48.90	30.88	22.42	-47.4	-48.3	23.8	0.00e+00	0	46	0	1009778688	60	10177
2026-01-30 00:49:49.91	30.95	22.56	-47.0	-48.0	23.8	0.00e+00	0	46	0	1015021568	60	9801
2026-01-30 00:49:50.91	31.03	22.70	-46.7	-47.6	24.1	0.00e+00	0	46	0	1021313024	60	9451
2026-01-30 00:49:51.92	31.10	22.84	-46.5	-47.6	23.8	0.00e+00	0	46	0	1027604480	60	9370
2026-01-30 00:49:52.93	31.18	22.98	-46.5	-47.5	23.8	0.00e+00	0	46	0	1032847360	60	9324
2026-01-30 00:49:53.94	31.25	23.13	-46.5	-47.5	23.9	0.00e+00	0	46	0	1038090240	60	9295
2026-01-30 00:49:54.94	31.33	23.27	-46.5	-47.5	24.0	0.00e+00	0	46	0	1044381696	60	9282
2026-01-30 00:49:55.95	31.41	23.41	-46.6	-47.5	24.1	0.00e+00	0	46	0	1049624576	60	9246
2026-01-30 00:49:56.96	31.48	23.56	-46.6	-47.5	24.3	0.00e+00	0	46	0	1054867456	60	9256
2026-01-30 00:49:57.96	31.56	23.70	-46.8	-47.6	24.3	0.00e+00	0	46	0	1061158912	60	9390
2026-01-30 00:49:58.97	31.64	23.85	-46.8	-47.5	24.5	0.00e+00	0	46	0	1066401792	60	9341
2026-01-30 00:49:59.97	31.72	24.00	-47.0	-47.8	24.6	0.00e+00	0	46	0	1072693248	60	9587
2026-01-30 00:50:00.98	31.80	24.15	-46.8	-47.6	24.7	0.00e+00	0	46	0	1077936128	60	9348
2026-01-30 00:50:01.99	31.88	24.29	-46.8	-47.5	24.8	0.00e+00	0	46	0	1083179008	60	9298
2026-01-30 00:50:02.99	31.96	24.44	-46.8	-47.5	24.9	0.00e+00	0	46	0	1089470464	60	9283
2026-01-30 00:50:04.00	32.05	24.59	-46.8	-47.5	24.9	0.00e+00	0	46	0	1094713344	60	9323
2026-01-30 00:50:05.01	32.13	24.75	-47.0	-47.7	24.7	0.00e+00	0	46	0	1099956224	60	9530
2026-01-30 00:50:06.02	32.21	24.90	-47.1	-47.8	24.6	0.00e+00	0	46	0	1106247680	60	9649
2026-01-30 00:50:07.03	32.30	25.05	-47.2	-48.0	24.6	0.00e+00	0	46	0	1112539136	60	9799
2026-01-30 00:50:08.03	32.38	25.20	-47.3	-48.0	24.4	0.00e+00	0	46	0	1117782016	60	9873
2026-01-30 00:50:09.04	32.47	25.36	-46.9	-47.6	24.9	0.00e+00	0	46	0	1123024896	60	9410
2026-01-30 00:50:10.05	32.56	25.52	-46.9	-47.7	24.7	0.00e+00	0	46	0	1129316352	60	9502
2026-01-30 00:50:11.05	32.65	25.67	-46.7	-47.5	24.8	0.00e+00	0	46	0	1134559232	60	9281
2026-01-30 00:50:12.06	32.73	25.83	-46.6	-47.5	24.7	0.00e+00	0	46	0	1139802112	60	9253
2026-01-30 00:50:13.06	32.82	25.98	-46.2	-47.0	24.8	0.00e+00	0	46	0	1146093568	60	8795
2026-01-30 00:50:14.07	32.91	26.14	-45.9	-46.7	24.8	0.00e+00	0	46	0	1151336448	60	8504
2026-01-30 00:50:15.07	33.01	26.30	-45.9	-46.7	25.0	0.00e+00	0	46	0	1157627904	60	8453
2026-01-30 00:50:16.07	33.10	26.46	-45.9	-46.7	25.0	0.00e+00	0	46	0	1162870784	60	8433
2026-01-30 00:50:17.08	33.19	26.62	-46.0	-46.7	25.2	0.00e+00	0	46	0	1168113664	60	8473
2026-01-30 00:50:18.08	33.28	26.79	-46.1	-46.8	25.2	0.00e+00	0	46	0	1174405120	60	8553
2026-01-30 00:50:19.09	33.38	26.95	-46.2	-46.9	25.3	0.00e+00	0	46	0	1179648000	60	8642
2026-01-30 00:50:20.10	33.48	27.11	-46.2	-46.9	25.3	0.00e+00	0	46	0	1184890880	60	8685
2026-01-30 00:50:21.11	33.57	27.28	-46.3	-47.0	25.1	0.00e+00	0	46	0	1191182336	60	8722
2026-01-30 00:50:22.12	33.67	27.45	-46.3	-47.0	25.1	0.00e+00	0	46	0	1197473792	60	8784
2026-01-30 00:50:23.13	33.77	27.61	-46.3	-47.0	25.1	0.00e+00	0	46	0	1202716672	60	8728
2026-01-30 00:50:24.13	33.87	27.78	-46.3	-47.0	25.2	0.00e+00	0	46	0	1207959552	60	8734
2026-01-30 00:50:25.14	33.97	27.95	-46.3	-47.0	25.3	0.00e+00	0	46	0	1214251008	60	8767
2026-01-30 00:50:26.14	34.07	28.12	-46.3	-47.0	25.3	0.00e+00	0	46	0	1219493888	60	8789
2026-01-30 00:50:27.15	34.18	28.29	-46.3	-47.0	25.4	0.00e+00	0	46	0	1224736768	60	8740
2026-01-30 00:50:28.15	34.28	28.46	-46.3	-47.0	25.4	0.00e+00	0	46	0	1231028224	60	8738
2026-01-30 00:50:29.15	34.38	28.63	-46.2	-46.9	25.5	0.00e+00	0	46	0	1236271104	60	8650
2026-01-30 00:50:30.16	34.49	28.81	-46.2	-46.9	25.4	0.00e+00	0	46	0	1242562560	60	8711
2026-01-30 00:50:31.16	34.60	28.98	-46.2	-47.0	25.2	0.00e+00	0	46	0	1247805440	60	8782
2026-01-30 00:50:32.17	34.71	29.16	-46.3	-47.1	25.0	0.00e+00	0	46	0	1253048320	60	8920
2026-01-30 00:50:33.17	34.81	29.33	-46.2	-47.1	24.5	0.00e+00	0	46	0	1259339776	60	8918
2026-01-30 00:50:34.18	34.93	29.51	-46.1	-47.0	24.3	0.00e+00	0	46	0	1264582656	60	8794
2026-01-30 00:50:35.18	35.04	29.69	-46.1	-47.1	24.1	0.00e+00	0	46	0	1269825536	60	8861
2026-01-30 00:50:36.19	35.15	29.87	-45.8	-46.8	24.3	0.00e+00	0	46	0	1276116992	60	8532
2026-01-30 00:50:37.19	35.26	30.05	-45.6	-46.6	24.8	0.00e+00	0	46	0	1281359872	60	8344
2026-01-30 00:50:38.20	35.38	30.23	-45.7	-46.5	25.2	0.00e+00	0	46	0	1286602752	60	8317
2026-01-30 00:50:39.21	35.50	30.41	-45.9	-46.7	25.2	0.00e+00	0	46	0	1292894208	60	8455
2026-01-30 00:50:40.22	35.61	30.60	-46.1	-46.8	24.9	0.00e+00	0	46	0	1299185664	60	8606
2026-01-30 00:50:41.22	35.73	30.78	-46.2	-47.0	25.0	0.00e+00	0	46	0	1304428544	60	8741
2026-01-30 00:50:42.23	35.85	30.97	-46.4	-47.1	25.0	0.00e+00	0	46	0	1309671424	60	8864
2026-01-30 00:50:43.24	35.98	31.15	-46.4	-47.1	25.1	0.00e+00	0	46	0	1315962880	60	8924
2026-01-30 00:50:44.25	36.10	31.34	-46.4	-47.2	25.2	0.00e+00	0	46	0	1321205760	60	8942
2026-01-30 00:50:45.25	36.22	31.53	-46.2	-46.9	25.5	0.00e+00	0	46	0	1327497216	60	8631
2026-01-30 00:50:46.26	36.35	31.72	-46.1	-46.8	25.5	0.00e+00	0	46	0	1332740096	60	8536
2026-01-30 00:50:47.27	36.48	31.91	-46.1	-46.7	25.6	0.00e+00	0	46	0	1337982976	60	8496
2026-01-30 00:50:48.27	36.61	32.10	-46.1	-46.8	25.5	0.00e+00	0	46	0	1344274432	60	8571
2026-01-30 00:50:49.27	36.74	32.30	-46.2	-46.9	25.5	0.00e+00	0	46	0	1349517312	60	8657
2026-01-30 00:50:50.28	36.87	32.49	-46.4	-47.0	25.4	0.00e+00	0	46	0	1354760192	60	8791
2026-01-30 00:50:51.28	37.00	32.69	-46.4	-47.1	25.4	0.00e+00	0	46	0	1361051648	60	8850
2026-01-30 00:50:52.29	37.14	32.88	-46.4	-47.1	25.4	0.00e+00	0	46	0	1366294528	60	8869
2026-01-30 00:50:53.29	37.27	33.08	-46.3	-47.0	25.5	0.00e+00	0	46	0	1371537408	60	8760
2026-01-30 00:50:54.30	37.41	33.28	-46.2	-46.9	25.6	0.00e+00	0	46	0	1377828864	60	8691
2026-01-30 00:50:55.30	37.55	33.48	-46.1	-46.8	25.5	0.00e+00	0	46	0	1383071744	60	8615
2026-01-30 00:50:56.31	37.69	33.68	-46.2	-46.9	25.4	0.00e+00	0	46	0	1389363200	60	8707
2026-01-30 00:50:57.32	37.84	33.88	-46.3	-47.0	25.3	0.00e+00	0	46	0	1394606080	60	8782
2026-01-30 00:50:58.33	37.98	34.09	-46.2	-46.9	25.5	0.00e+00	0	46	0	1400897536	60	8647
2026-01-30 00:50:59.33	38.13	34.29	-46.2	-46.9	25.5	0.00e+00	0	46	0	1406140416	60	8690
2026-01-30 00:51:00.34	38.28	34.50	-46.1	-46.9	25.0	0.00e+00	0	45	0	1412431872	60	8649
2026-01-30 00:51:01.35	38.43	34.71	-45.8	-46.7	24.7	0.00e+00	0	46	0	1417674752	60	8466
2026-01-30 00:51:02.36	38.58	34.92	-45.8	-46.6	25.0	0.00e+00	0	46	0	1422917632	60	8423
2026-01-30 00:51:03.37	38.74	35.13	-45.7	-46.5	25.4	0.00e+00	0	46	0	1429209088	60	8301
2026-01-30 00:51:04.37	38.89	35.33	-45.9	-46.6	25.5	0.00e+00	0	46	0	1434451968	60	8393
2026-01-30 00:51:05.38	39.05	35.55	-45.9	-46.7	25.4	0.00e+00	0	46	0	1439694848	60	8487
2026-01-30 00:51:06.39	39.21	35.76	-46.0	-46.7	25.4	0.00e+00	0	46	0	1445986304	60	8472
2026-01-30 00:51:07.39	39.38	35.97	-45.9	-46.7	25.6	0.00e+00	0	46	0	1451229184	60	8432
2026-01-30 00:51:08.40	39.54	36.19	-45.9	-46.6	25.7	0.00e+00	0	46	0	1456472064	60	8379
2026-01-30 00:51:09.41	39.71	36.41	-45.9	-46.6	25.7	0.00e+00	0	46	0	1462763520	60	8333
2026-01-30 00:51:10.42	39.88	36.63	-45.8	-46.5	25.7	0.00e+00	0	46	0	1469054976	60	8315
2026-01-30 00:51:11.42	40.05	36.84	-45.8	-46.5	25.8	0.00e+00	0	46	0	1474297856	60	8244
2026-01-30 00:51:12.43	40.22	37.06	-45.8	-46.5	26.0	0.00e+00	0	46	0	1479540736	60	8267
2026-01-30 00:51:13.44	40.40	37.29	-45.7	-46.4	26.0	0.00e+00	0	46	0	1485832192	60	8186
2026-01-30 00:51:14.44	40.57	37.51	-45.7	-46.4	25.9	0.00e+00	0	46	0	1491075072	60	8224
2026-01-30 00:51:15.45	40.76	37.73	-45.8	-46.5	25.9	0.00e+00	0	46	0	1497366528	60	8284
2026-01-30 00:51:16.46	40.94	37.96	-45.9	-46.5	26.0	0.00e+00	0	46	0	1502609408	60	8316
2026-01-30 00:51:17.47	41.13	38.19	-45.9	-46.5	26.1	0.00e+00	0	46	0	1507852288	60	8277
2026-01-30 00:51:18.47	41.31	38.41	-45.8	-46.5	26.1	0.00e+00	0	46	0	1514143744	60	8276
2026-01-30 00:51:19.48	41.50	38.64	-45.8	-46.4	26.1	0.00e+00	0	46	0	1519386624	60	8231
2026-01-30 00:51:20.49	41.70	38.87	-45.8	-46.5	26.0	0.00e+00	0	46	0	1524629504	60	8294
2026-01-30 00:51:21.49	41.89	39.10	-45.9	-46.5	26.1	0.00e+00	0	46	0	1530920960	60	8322
2026-01-30 00:51:22.50	42.09	39.33	-46.0	-46.6	26.0	0.00e+00	0	46	0	1536163840	60	8398
2026-01-30 00:51:23.50	42.29	39.57	-45.9	-46.6	26.0	0.00e+00	0	46	0	1541406720	60	8370
2026-01-30 00:51:24.51	42.50	39.80	-45.9	-46.6	25.9	0.00e+00	0	46	0	1547698176	60	8360
2026-01-30 00:51:25.52	42.70	40.04	-46.0	-46.7	25.9	0.00e+00	0	46	0	1553989632	60	8428
2026-01-30 00:51:26.52	42.91	40.27	-46.1	-46.8	25.9	0.00e+00	0	46	0	1559232512	60	8579
2026-01-30 00:51:27.52	43.12	40.51	-46.1	-46.8	25.9	0.00e+00	0	46	0	1564475392	60	8554
2026-01-30 00:51:28.53	43.34	40.75	-46.0	-46.6	26.1	0.00e+00	0	46	0	1570766848	60	8402
2026-01-30 00:51:29.54	43.56	40.99	-45.8	-46.4	26.1	0.00e+00	0	46	0	1576009728	60	8213
2026-01-30 00:51:30.54	43.78	41.23	-45.9	-46.6	26.1	0.00e+00	0	46	0	1582301184	60	8345
2026-01-30 00:51:31.55	44.01	41.48	-46.2	-46.9	25.9	0.00e+00	0	46	0	1587544064	60	8638
2026-01-30 00:51:32.56	44.24	41.72	-46.4	-47.0	25.6	0.00e+00	0	46	0	1592786944	60	8816
2026-01-30 00:51:33.57	44.47	41.97	-46.5	-47.2	25.6	0.00e+00	0	46	0	1599078400	60	8945
2026-01-30 00:51:34.58	44.71	42.21	-46.5	-47.2	25.5	0.00e+00	0	46	0	1604321280	60	8934
2026-01-30 00:51:35.58	44.95	42.46	-46.5	-47.2	25.5	0.00e+00	0	46	0	1609564160	60	8967
2026-01-30 00:51:36.59	45.19	42.71	-46.6	-47.2	25.6	0.00e+00	0	46	0	1615855616	60	8998
2026-01-30 00:51:37.59	45.44	42.96	-46.6	-47.2	25.6	0.00e+00	0	46	0	1621098496	60	9008
2026-01-30 00:51:38.60	45.69	43.21	-46.5	-47.1	25.7	0.00e+00	0	46	0	1626341376	60	8879
2026-01-30 00:51:39.60	45.94	43.46	-46.3	-47.0	25.9	0.00e+00	0	46	0	1632632832	60	8753
2026-01-30 00:51:40.60	46.20	43.71	-46.3	-46.9	25.8	0.00e+00	0	46	0	1637875712	60	8711
2026-01-30 00:51:41.60	46.46	43.96	-46.3	-46.9	25.9	0.00e+00	0	46	0	1644167168	60	8712
2026-01-30 00:51:42.61	46.73	44.22	-46.4	-47.0	25.8	0.00e+00	0	46	0	1649410048	60	8817
2026-01-30 00:51:43.61	47.00	44.47	-46.5	-47.2	25.7	0.00e+00	0	46	0	1654652928	60	8945
2026-01-30 00:51:44.62	47.27	44.73	-46.7	-47.4	25.5	0.00e+00	0	46	0	1660944384	60	9144
2026-01-30 00:51:45.62	47.55	44.99	-46.8	-47.5	25.6	0.00e+00	0	46	0	1667235840	60	9267
2026-01-30 00:51:46.63	47.84	45.24	-46.7	-47.3	25.6	0.00e+00	0	46	0	1672478720	60	9122
2026-01-30 00:51:47.64	48.13	45.51	-46.7	-47.3	25.6	0.00e+00	0	46	0	1677721600	60	9107
2026-01-30 00:51:48.65	48.42	45.77	-46.5	-47.2	25.8	0.00e+00	0	46	0	1684013056	60	8936
2026-01-30 00:51:49.66	48.72	46.03	-46.4	-47.1	25.8	0.00e+00	0	46	0	1689255936	60	8874
2026-01-30 00:51:50.67	49.03	46.29	-46.5	-47.2	25.8	0.00e+00	0	46	0	1694498816	60	8940
2026-01-30 00:51:51.67	49.33	46.55	-46.7	-47.4	25.7	0.00e+00	0	46	0	1700790272	60	9213
2026-01-30 00:51:52.68	49.65	46.82	-46.9	-47.6	25.6	0.00e+00	0	46	0	1706033152	60	9379
2026-01-30 00:51:53.68	49.97	47.08	-46.8	-47.5	25.7	0.00e+00	0	46	0	1711276032	60	9326
2026-01-30 00:51:54.69	50.29	47.35	-46.8	-47.5	25.6	0.00e+00	0	46	0	1717567488	60	9260
2026-01-30 00:51:55.70	50.62	47.61	-47.0	-47.7	25.4	0.00e+00	0	46	0	1722810368	60	9537
2026-01-30 00:51:56.71	50.96	47.88	-47.3	-48.0	25.2	0.00e+00	0	46	0	1729101824	60	9789
2026-01-30 00:51:57.71	51.30	48.15	-47.6	-48.3	25.0	0.00e+00	0	46	0	1734344704	60	10203
2026-01-30 00:51:58.72	51.65	48.42	-47.3	-48.1	25.1	0.00e+00	0	46	0	1740636160	60	9940
2026-01-30 00:51:59.72	52.00	48.68	-47.1	-47.8	25.4	0.00e+00	0	46	0	1745879040	60	9582
2026-01-30 00:52:00.73	52.36	48.95	-47.1	-47.8	25.4	0.00e+00	0	46	0	1752170496	60	9641
2026-01-30 00:52:01.74	52.73	49.22	-47.2	-47.9	25.3	0.00e+00	0	46	0	1757413376	60	9748
2026-01-30 00:52:02.74	53.09	49.49	-47.5	-48.2	25.0	0.00e+00	0	46	0	1762656256	60	10056
2026-01-30 00:52:03.75	53.47	49.76	-48.0	-48.7	24.8	0.00e+00	0	46	0	1768947712	60	10691
2026-01-30 00:52:04.76	53.86	50.03	-48.3	-49.0	24.6	0.00e+00	0	46	0	1774190592	60	11057
2026-01-30 00:52:05.77	54.26	50.31	-48.4	-49.2	24.5	0.00e+00	0	46	0	1779433472	60	11255
2026-01-30 00:52:06.77	54.65	50.57	-48.3	-49.1	24.7	0.00e+00	0	46	0	1785724928	60	11109
2026-01-30 00:52:07.77	55.06	50.84	-47.9	-48.7	24.9	0.00e+00	0	46	0	1790967808	60	10624
2026-01-30 00:52:08.78	55.47	51.12	-48.4	-49.1	24.6	0.00e+00	0	46	0	1797259264	60	11198
2026-01-30 00:52:09.79	55.89	51.39	-48.9	-49.6	24.3	0.00e+00	0	46	0	1802502144	60	11826
2026-01-30 00:52:10.79	56.32	51.66	-49.0	-49.8	24.2	0.00e+00	0	46	0	1807745024	60	12076
2026-01-30 00:52:11.80	56.76	51.93	-48.8	-49.5	24.4	0.00e+00	0	46	0	1814036480	60	11737
2026-01-30 00:52:12.81	57.20	52.20	-48.9	-49.6	24.4	0.00e+00	0	46	0	1819279360	60	11812
2026-01-30 00:52:13.82	57.66	52.47	-48.6	-49.3	24.9	0.00e+00	0	46	0	1825570816	60	11389
2026-01-30 00:52:14.83	58.12	52.74	-48.2	-48.8	25.0	0.00e+00	0	46	0	1830813696	60	10830
2026-01-30 00:52:15.83	58.59	53.01	-48.4	-49.0	24.9	0.00e+00	0	46	0	1837105152	60	11097
2026-01-30 00:52:16.84	59.07	53.28	-48.5	-49.1	24.9	0.00e+00	0	46	0	1842348032	60	11211
2026-01-30 00:52:17.85	59.55	53.55	-48.7	-49.4	24.7	0.00e+00	0	46	0	1847590912	60	11540
2026-01-30 00:52:18.86	60.05	53.82	-48.8	-49.6	24.5	0.00e+00	0	46	0	1853882368	60	11770
2026-01-30 00:52:19.87	60.56	54.09	-49.1	-49.9	24.3	0.00e+00	0	46	0	1859125248	60	12220
2026-01-30 00:52:20.87	61.07	54.35	-49.1	-49.8	24.3	0.00e+00	0	46	0	1864368128	60	12116
2026-01-30 00:52:21.88	61.60	54.62	-49.0	-49.7	24.6	0.00e+00	0	46	0	1870659584	60	12024
2026-01-30 00:52:22.89	62.13	54.89	-49.0	-49.8	24.6	0.00e+00	0	46	0	1875902464	60	12051
2026-01-30 00:52:23.90	62.68	55.15	-48.9	-49.6	24.6	0.00e+00	0	46	0	1882193920	60	11856
2026-01-30 00:52:24.90	63.23	55.41	-48.9	-49.6	24.6	0.00e+00	0	46	0	1887436800	60	11780
2026-01-30 00:52:25.91	63.79	55.67	-48.7	-49.4	24.6	0.00e+00	0	46	0	1892679680	60	11559
2026-01-30 00:52:26.92	64.37	55.93	-49.3	-50.0	24.3	0.00e+00	0	46	0	1898971136	60	12371
2026-01-30 00:52:27.93	64.96	56.19	-49.5	-50.2	24.2	0.00e+00	0	46	0	1904214016	60	12722
2026-01-30 00:52:28.93	65.55	56.44	-49.1	-49.9	24.5	0.00e+00	0	46	0	1910505472	60	12215
2026-01-30 00:52:29.94	66.16	56.70	-48.7	-49.4	24.8	0.00e+00	0	46	0	1915748352	60	11574
2026-01-30 00:52:30.94	66.78	56.95	-48.5	-49.2	25.0	0.00e+00	0	46	0	1922039808	60	11305
2026-01-30 00:52:31.95	67.41	57.20	-48.5	-49.2	25.0	0.00e+00	0	46	0	1927282688	60	11338
2026-01-30 00:52:32.96	68.05	57.45	-48.4	-49.1	25.2	0.00e+00	0	46	0	1932525568	60	11176
2026-01-30 00:52:33.96	68.70	57.69	-48.4	-49.1	25.2	0.00e+00	0	46	0	1938817024	60	11137
2026-01-30 00:52:34.97	69.37	57.94	-48.6	-49.3	24.9	0.00e+00	0	46	0	1944059904	60	11384
2026-01-30 00:52:35.98	70.05	58.18	-48.5	-49.2	25.0	0.00e+00	0	46	0	1949302784	60	11353
2026-01-30 00:52:36.99	70.74	58.42	-48.2	-48.9	25.3	0.00e+00	0	46	0	1955594240	60	10889
2026-01-30 00:52:38.00	71.44	58.65	-48.0	-48.7	25.3	0.00e+00	0	46	0	1960837120	60	10722
2026-01-30 00:52:39.00	72.15	58.88	-48.1	-48.8	25.4	0.00e+00	0	46	0	1967128576	60	10763
2026-01-30 00:52:40.01	72.88	59.11	-48.1	-48.8	25.2	0.00e+00	0	46	0	1972371456	60	10743
2026-01-30 00:52:41.02	73.62	59.34	-48.0	-48.7	25.4	0.00e+00	0	46	0	1978662912	60	10612
2026-01-30 00:52:42.02	74.37	59.56	-47.6	-48.3	25.7	0.00e+00	0	46	0	1983905792	60	10168
2026-01-30 00:52:43.03	75.13	59.78	-47.5	-48.2	25.9	0.00e+00	0	46	0	1990197248	60	10068
2026-01-30 00:52:44.04	75.91	59.99	-47.7	-48.4	25.7	0.00e+00	0	46	0	1995440128	60	10303
2026-01-30 00:52:45.04	76.70	60.20	-48.0	-48.7	25.5	0.00e+00	0	46	0	2000683008	60	10661
2026-01-30 00:52:46.05	77.51	60.41	-47.7	-48.4	25.7	0.00e+00	0	46	0	2006974464	60	10284
2026-01-30 00:52:47.05	78.32	60.61	-47.5	-48.2	25.9	0.00e+00	0	46	0	2012217344	60	10046
2026-01-30 00:52:48.06	79.15	60.81	-47.6	-48.2	25.8	0.00e+00	0	46	0	2017460224	60	10122
2026-01-30 00:52:49.07	79.99	61.00	-48.0	-48.7	25.4	0.00e+00	0	46	0	2023751680	60	10661
2026-01-30 00:52:50.07	80.84	61.18	-48.5	-49.2	25.1	0.00e+00	0	46	0	2028994560	60	11314
2026-01-30 00:52:51.08	81.71	61.37	-48.4	-49.1	25.3	0.00e+00	0	46	0	2034237440	60	11196
2026-01-30 00:52:52.09	82.59	61.54	-48.1	-48.7	25.6	0.00e+00	0	46	0	2040528896	60	10701
2026-01-30 00:52:53.10	83.49	61.72	-47.7	-48.4	25.7	0.00e+00	0	46	0	2045771776	60	10270
2026-01-30 00:52:54.11	84.39	61.88	-47.8	-48.5	25.8	0.00e+00	0	46	0	2052063232	60	10383
2026-01-30 00:52:55.11	85.30	62.04	-47.3	-47.9	26.2	0.00e+00	0	46	0	2057306112	60	9737
2026-01-30 00:52:56.12	86.24	62.20	-47.6	-48.3	26.0	0.00e+00	0	46	0	2063597568	60	10167
2026-01-30 00:52:57.13	87.18	62.35	-47.9	-48.6	25.7	0.00e+00	0	46	0	2068840448	60	10515
2026-01-30 00:52:58.14	88.13	62.49	-47.8	-48.5	25.9	0.00e+00	0	46	0	2075131904	60	10400
2026-01-30 00:52:59.14	89.09	62.62	-48.0	-48.7	25.8	0.00e+00	0	46	0	2080374784	60	10635
2026-01-30 00:53:00.15	90.06	62.75	-48.4	-49.0	25.5	0.00e+00	0	46	0	2085617664	60	11103
2026-01-30 00:53:01.16	91.05	62.88	-48.4	-49.1	25.2	0.00e+00	0	46	0	2091909120	60	11181
2026-01-30 00:53:02.17	92.05	62.99	-48.5	-49.3	25.3	0.00e+00	0	46	0	2097152000	60	11374
2026-01-30 00:53:03.17	93.04	63.10	-47.9	-48.6	25.8	0.00e+00	0	46	0	2102394880	60	10556
2026-01-30 00:53:04.17	94.05	63.20	-47.7	-48.3	25.9	0.00e+00	0	46	0	2108686336	60	10221
2026-01-30 00:53:05.18	95.07	63.30	-47.8	-48.5	25.8	0.00e+00	0	46	0	2113929216	60	10380
2026-01-30 00:53:06.19	96.10	63.38	-47.6	-48.3	25.7	0.00e+00	0	46	0	2119172096	60	10213
2026-01-30 00:53:07.19	97.13	63.46	-47.7	-48.4	26.0	0.00e+00	0	46	0	2125463552	60	10251
2026-01-30 00:53:08.20	98.17	63.54	-47.5	-48.2	26.1	0.00e+00	0	46	0	2130706432	60	10073
2026-01-30 00:53:09.21	99.22	63.60	-47.6	-48.3	26.0	0.00e+00	0	46	0	2136997888	60	10232
2026-01-30 00:53:10.21	100.27	63.66	-47.5	-48.2	26.0	0.00e+00	0	46	0	2142240768	60	10111
2026-01-30 00:53:11.22	101.33	63.70	-47.5	-48.2	26.0	0.00e+00	0	46	0	2148532224	60	10118
2026-01-30 00:53:12.23	102.39	63.75	-47.7	-48.3	25.9	0.00e+00	0	46	0	2153775104	60	10221
2026-01-30 00:53:13.23	103.45	63.78	-47.6	-48.3	25.8	0.00e+00	0	46	0	2160066560	60	10246
2026-01-30 00:53:14.23	104.51	63.80	-47.6	-48.3	25.8	0.00e+00	0	46	0	2165309440	60	10148
2026-01-30 00:53:15.24	105.58	63.82	-47.6	-48.3	25.8	0.00e+00	0	46	0	2170552320	60	10189
2026-01-30 00:53:16.25	106.66	63.83	-47.5	-48.1	25.9	0.00e+00	0	46	0	2176843776	60	9990
2026-01-30 00:53:17.26	107.73	63.83	-47.4	-48.1	26.0	0.00e+00	0	46	0	2182086656	60	9944
2026-01-30 00:53:18.26	108.79	63.82	-47.6	-48.2	26.0	0.00e+00	0	46	0	2187329536	60	10083
2026-01-30 00:53:19.27	109.87	63.81	-47.7	-48.4	25.7	0.00e+00	0	46	0	2193620992	60	10323
2026-01-30 00:53:20.28	110.94	63.79	-47.8	-48.5	25.6	0.00e+00	0	46	0	2198863872	60	10460
2026-01-30 00:53:21.28	112.00	63.75	-48.1	-48.8	25.5	0.00e+00	0	46	0	2204106752	60	10766
2026-01-30 00:53:22.29	113.06	63.72	-48.3	-49.0	25.2	0.00e+00	0	46	0	2210398208	60	11053
2026-01-30 00:53:23.29	114.12	63.67	-48.4	-49.1	25.2	0.00e+00	0	46	0	2215641088	60	11159
2026-01-30 00:53:24.30	115.17	63.61	-48.1	-48.9	25.6	0.00e+00	0	46	0	2221932544	60	10869
2026-01-30 00:53:25.30	116.21	63.55	-48.4	-49.1	25.4	0.00e+00	0	46	0	2227175424	60	11153
2026-01-30 00:53:26.31	117.26	63.48	-48.7	-49.4	25.2	0.00e+00	0	46	0	2232418304	60	11612
2026-01-30 00:53:27.31	118.29	63.40	-48.6	-49.3	25.2	0.00e+00	0	46	0	2238709760	60	11451
2026-01-30 00:53:28.31	119.31	63.32	-48.8	-49.5	25.3	0.00e+00	0	46	0	2245001216	60	11645
2026-01-30 00:53:29.32	120.34	63.23	-49.1	-49.8	25.1	0.00e+00	0	46	0	2250244096	60	12117
2026-01-30 00:53:30.32	121.35	63.13	-49.6	-50.3	24.8	0.00e+00	0	46	0	2255486976	60	12766
2026-01-30 00:53:31.33	122.35	63.02	-49.6	-50.4	24.6	0.00e+00	0	46	0	2261778432	60	12977
2026-01-30 00:53:32.34	123.35	62.90	-49.5	-50.2	24.7	0.00e+00	0	46	0	2267021312	60	12732
2026-01-30 00:53:33.34	124.33	62.78	-49.6	-50.4	24.5	0.00e+00	0	46	0	2272264192	60	12924
2026-01-30 00:53:34.35	125.31	62.66	-49.5	-50.2	24.6	0.00e+00	0	46	0	2278555648	60	12748
2026-01-30 00:53:35.36	126.28	62.52	-49.8	-50.5	24.4	0.00e+00	0	46	0	2283798528	60	13162
2026-01-30 00:53:36.36	127.23	62.38	-50.0	-50.8	24.2	0.00e+00	0	46	0	2289041408	60	13580
2026-01-30 00:53:37.37	128.17	62.23	-50.1	-50.8	24.1	0.00e+00	0	46	0	2295332864	60	13630
2026-01-30 00:53:38.37	129.10	62.08	-50.1	-50.8	24.1	0.00e+00	0	46	0	2300575744	60	13592
2026-01-30 00:53:39.38	130.02	61.92	-50.0	-50.7	24.4	0.00e+00	0	46	0	2306867200	60	13446
2026-01-30 00:53:40.38	130.92	61.76	-49.5	-50.2	24.9	0.00e+00	0	46	0	2312110080	60	12686
2026-01-30 00:53:41.38	131.81	61.59	-48.8	-49.5	25.4	0.00e+00	0	46	0	2317352960	60	11684
2026-01-30 00:53:42.39	132.70	61.41	-48.5	-49.2	25.7	0.00e+00	0	46	0	2323644416	60	11296
2026-01-30 00:53:43.40	133.57	61.23	-48.6	-49.3	25.7	0.00e+00	0	46	0	2328887296	60	11429
2026-01-30 00:53:44.40	134.43	61.05	-48.2	-48.8	25.8	0.00e+00	0	46	0	2334130176	60	10826
2026-01-30 00:53:45.41	135.28	60.85	-48.4	-49.1	25.5	0.00e+00	0	46	0	2340421632	60	11191
2026-01-30 00:53:46.42	136.11	60.66	-48.4	-49.0	25.6	0.00e+00	0	46	0	2346713088	60	11059
2026-01-30 00:53:47.42	136.93	60.46	-48.5	-49.0	25.6	0.00e+00	0	46	0	2351955968	60	11083
2026-01-30 00:53:48.43	137.74	60.25	-48.9	-49.5	25.1	0.00e+00	0	46	0	2357198848	60	11698
2026-01-30 00:53:49.43	138.53	60.04	-49.0	-49.7	25.1	0.00e+00	0	46	0	2363490304	60	11985
2026-01-30 00:53:50.44	139.31	59.83	-48.5	-49.2	25.4	0.00e+00	0	46	0	2368733184	60	11274
2026-01-30 00:53:51.45	140.08	59.61	-48.3	-48.9	25.6	0.00e+00	0	46	0	2373976064	60	10968
2026-01-30 00:53:52.45	140.83	59.39	-48.5	-49.3	25.4	0.00e+00	0	46	0	2380267520	60	11366
2026-01-30 00:53:53.46	141.58	59.17	-48.7	-49.5	25.2	0.00e+00	0	46	0	2385510400	60	11662
2026-01-30 00:53:54.47	142.31	58.94	-48.7	-49.4	25.3	0.00e+00	0	46	0	2391801856	60	11501
2026-01-30 00:53:55.47	143.02	58.71	-48.6	-49.3	25.3	0.00e+00	0	46	0	2397044736	60	11469
2026-01-30 00:53:56.47	143.72	58.48	-48.4	-49.1	25.3	0.00e+00	0	46	0	2402287616	60	11159
2026-01-30 00:53:57.47	144.41	58.24	-48.6	-49.3	25.2	0.00e+00	0	46	0	2408579072	60	11425
2026-01-30 00:53:58.48	145.10	58.00	-48.9	-49.6	25.1	0.00e+00	0	46	0	2413821952	60	11842
2026-01-30 00:53:59.49	145.77	57.75	-49.0	-49.6	24.9	0.00e+00	0	46	0	2419064832	60	11863
2026-01-30 00:54:00.49	146.42	57.51	-48.8	-49.5	25.2	0.00e+00	0	46	0	2425356288	60	11638
2026-01-30 00:54:01.50	147.07	57.26	-48.9	-49.6	25.0	0.00e+00	0	46	0	2430599168	60	11820
2026-01-30 00:54:02.50	147.70	57.01	-49.2	-49.9	24.8	0.00e+00	0	46	0	2435842048	60	12315
2026-01-30 00:54:03.51	148.32	56.76	-49.1	-49.7	24.9	0.00e+00	0	46	0	2442133504	60	12006
2026-01-30 00:54:04.52	148.94	56.51	-48.9	-49.6	25.0	0.00e+00	0	46	0	2448424960	60	11812
2026-01-30 00:54:05.52	149.53	56.25	-49.1	-49.8	24.8	0.00e+00	0	46	0	2453667840	60	12120
2026-01-30 00:54:06.53	150.12	55.99	-49.3	-50.0	24.6	0.00e+00	0	46	0	2458910720	60	12326
2026-01-30 00:54:07.54	150.70	55.73	-49.4	-50.1	24.5	0.00e+00	0	46	0	2465202176	60	12509
2026-01-30 00:54:08.54	151.27	55.47	-49.2	-49.9	24.6	0.00e+00	0	46	0	2470445056	60	12284
2026-01-30 00:54:09.55	151.83	55.21	-48.8	-49.4	24.9	0.00e+00	0	46	0	2476736512	60	11629
2026-01-30 00:54:10.56	152.38	54.94	-48.9	-49.6	24.7	0.00e+00	0	46	0	2481979392	60	11892
2026-01-30 00:54:11.57	152.92	54.68	-49.1	-49.9	24.5	0.00e+00	0	46	0	2487222272	60	12272
2026-01-30 00:54:12.57	153.44	54.41	-49.2	-49.9	24.5	0.00e+00	0	46	0	2493513728	60	12261
2026-01-30 00:54:13.57	153.96	54.15	-49.0	-49.7	24.7	0.00e+00	0	46	0	2498756608	60	11923
2026-01-30 00:54:14.58	154.47	53.88	-48.3	-49.0	25.3	0.00e+00	0	46	0	2503999488	60	10996
2026-01-30 00:54:15.59	154.97	53.61	-48.4	-49.1	25.1	0.00e+00	0	46	0	2510290944	60	11141
2026-01-30 00:54:16.59	155.45	53.34	-48.4	-49.0	25.1	0.00e+00	0	46	0	2515533824	60	11069
2026-01-30 00:54:17.60	155.94	53.07	-48.4	-49.0	25.1	0.00e+00	0	46	0	2520776704	60	11040
2026-01-30 00:54:18.60	156.41	52.80	-48.3	-49.0	25.2	0.00e+00	0	46	0	2527068160	60	10983
2026-01-30 00:54:19.61	156.87	52.53	-48.2	-48.9	25.2	0.00e+00	0	46	0	2532311040	60	10910
2026-01-30 00:54:20.61	157.32	52.26	-48.0	-48.6	25.3	0.00e+00	0	46	0	2538602496	60	10566
2026-01-30 00:54:21.61	157.77	51.99	-47.9	-48.6	25.4	0.00e+00	0	46	0	2543845376	60	10582
2026-01-30 00:54:22.62	158.21	51.72	-47.7	-48.4	25.5	0.00e+00	0	46	0	2550136832	60	10287
2026-01-30 00:54:23.63	158.64	51.45	-47.8	-48.5	25.5	0.00e+00	0	46	0	2555379712	60	10409
2026-01-30 00:54:24.63	159.06	51.18	-47.7	-48.4	25.4	0.00e+00	0	46	0	2561671168	60	10261
2026-01-30 00:54:25.64	159.48	50.90	-47.7	-48.3	25.5	0.00e+00	0	46	0	2566914048	60	10163
2026-01-30 00:54:26.64	159.89	50.63	-48.0	-48.6	25.3	0.00e+00	0	46	0	2572156928	60	10582
2026-01-30 00:54:27.64	160.29	50.36	-48.2	-48.9	25.0	0.00e+00	0	46	0	2578448384	60	10928
2026-01-30 00:54:28.65	160.68	50.09	-48.1	-48.8	25.0	0.00e+00	0	46	0	2583691264	60	10767
2026-01-30 00:54:29.66	161.07	49.82	-47.8	-48.5	25.2	0.00e+00	0	46	0	2588934144	60	10403
2026-01-30 00:54:30.66	161.45	49.55	-47.8	-48.5	24.9	0.00e+00	0	46	0	2595225600	60	10457
2026-01-30 00:54:31.66	161.82	49.28	-47.8	-48.4	25.1	0.00e+00	0	46	0	2600468480	60	10318
2026-01-30 00:54:32.67	162.19	49.01	-48.0	-48.6	24.8	0.00e+00	0	46	0	2605711360	60	10603
2026-01-30 00:54:33.68	162.56	48.74	-48.2	-48.8	24.7	0.00e+00	0	46	0	2612002816	60	10829
2026-01-30 00:54:34.69	162.91	48.47	-47.9	-48.5	25.0	0.00e+00	0	46	0	2617245696	60	10426
2026-01-30 00:54:35.70	163.26	48.20	-48.0	-48.8	25.0	0.00e+00	0	46	0	2623537152	60	10775
2026-01-30 00:54:36.71	163.61	47.93	-48.1	-48.8	24.9	0.00e+00	0	46	0	2628780032	60	10782
2026-01-30 00:54:37.71	163.94	47.66	-48.1	-48.8	24.8	0.00e+00	0	46	0	2635071488	60	10811
2026-01-30 00:54:38.72	164.28	47.40	-48.4	-49.1	24.8	0.00e+00	0	46	0	2640314368	60	11123
2026-01-30 00:54:39.72	164.60	47.13	-48.3	-49.1	24.9	0.00e+00	0	46	0	2646605824	60	11183
2026-01-30 00:54:40.72	164.92	46.87	-48.1	-48.8	25.0	0.00e+00	0	46	0	2651848704	60	10772
2026-01-30 00:54:41.73	165.24	46.60	-48.0	-48.7	25.2	0.00e+00	0	46	0	2657091584	60	10716
2026-01-30 00:54:42.74	165.55	46.34	-48.2	-48.8	24.9	0.00e+00	0	46	0	2663383040	60	10813
2026-01-30 00:54:43.74	165.85	46.07	-48.2	-49.0	24.9	0.00e+00	0	46	0	2668625920	60	11041
2026-01-30 00:54:44.75	166.15	45.81	-48.2	-48.9	24.8	0.00e+00	0	46	0	2673868800	60	10959
2026-01-30 00:54:45.75	166.45	45.55	-48.0	-48.8	24.9	0.00e+00	0	46	0	2680160256	60	10752
2026-01-30 00:54:46.76	166.74	45.29	-47.3	-48.0	25.1	0.00e+00	0	46	0	2685403136	60	9803
2026-01-30 00:54:47.76	167.02	45.03	-46.9	-47.7	25.4	0.00e+00	0	46	0	2690646016	60	9498
2026-01-30 00:54:48.77	167.31	44.77	-46.9	-47.5	25.4	0.00e+00	0	46	0	2696937472	60	9298
2026-01-30 00:54:49.78	167.58	44.51	-46.9	-47.6	25.3	0.00e+00	0	46	0	2702180352	60	9381
2026-01-30 00:54:50.78	167.86	44.26	-47.0	-47.6	25.3	0.00e+00	0	46	0	2708471808	60	9368
2026-01-30 00:54:51.79	168.13	44.00	-47.2	-47.9	25.1	0.00e+00	0	46	0	2713714688	60	9677
2026-01-30 00:54:52.79	168.39	43.75	-47.2	-47.9	25.1	0.00e+00	0	46	0	2718957568	60	9740
2026-01-30 00:54:53.80	168.65	43.49	-46.9	-47.5	25.3	0.00e+00	0	46	0	2725249024	60	9300
2026-01-30 00:54:54.81	168.91	43.24	-46.7	-47.4	25.5	0.00e+00	0	46	0	2730491904	60	9168
2026-01-30 00:54:55.82	169.16	42.99	-46.7	-47.4	25.4	0.00e+00	0	46	0	2736783360	60	9166
2026-01-30 00:54:56.82	169.41	42.74	-46.7	-47.2	25.5	0.00e+00	0	46	0	2742026240	60	9015
2026-01-30 00:54:57.83	169.65	42.49	-46.7	-47.2	25.5	0.00e+00	0	46	0	2748317696	60	9013
2026-01-30 00:54:58.83	169.89	42.24	-46.6	-47.1	25.5	0.00e+00	0	46	0	2753560576	60	8923
2026-01-30 00:54:59.84	170.13	41.99	-46.6	-47.4	25.4	0.00e+00	0	46	0	2758803456	60	9142
2026-01-30 00:55:00.85	170.36	41.74	-46.5	-47.3	25.5	0.00e+00	0	46	0	2765094912	60	9033
2026-01-30 00:55:01.86	170.60	41.50	-46.5	-47.2	25.5	0.00e+00	0	46	0	2770337792	60	9003
2026-01-30 00:55:02.86	170.82	41.25	-46.4	-47.0	25.5	0.00e+00	0	46	0	2775580672	60	8755
2026-01-30 00:55:03.87	171.05	41.01	-46.4	-47.1	25.5	0.00e+00	0	46	0	2781872128	60	8907
2026-01-30 00:55:04.88	171.27	40.77	-46.4	-47.1	25.6	0.00e+00	0	46	0	2787115008	60	8827
2026-01-30 00:55:05.89	171.48	40.53	-46.5	-47.1	25.4	0.00e+00	0	46	0	2793406464	60	8889
2026-01-30 00:55:06.90	171.70	40.29	-46.6	-47.2	25.3	0.00e+00	0	46	0	2798649344	60	8990
2026-01-30 00:55:07.91	171.91	40.05	-46.7	-47.3	25.3	0.00e+00	0	46	0	2803892224	60	9053
2026-01-30 00:55:08.91	172.12	39.81	-46.7	-47.4	25.3	0.00e+00	0	46	0	2810183680	60	9208
2026-01-30 00:55:09.92	172.32	39.58	-46.7	-47.3	25.3	0.00e+00	0	46	0	2816475136	60	9059
2026-01-30 00:55:10.93	172.53	39.34	-46.6	-47.4	25.3	0.00e+00	0	46	0	2821718016	60	9167
2026-01-30 00:55:11.94	172.73	39.11	-46.5	-47.1	25.4	0.00e+00	0	46	0	2826960896	60	8836
2026-01-30 00:55:12.94	172.92	38.88	-46.5	-47.1	25.4	0.00e+00	0	46	0	2833252352	60	8849
2026-01-30 00:55:13.95	173.12	38.64	-46.5	-47.2	25.4	0.00e+00	0	46	0	2838495232	60	9016
2026-01-30 00:55:14.95	173.31	38.42	-46.6	-47.3	25.2	0.00e+00	0	46	0	2843738112	60	9049
2026-01-30 00:55:15.96	173.50	38.19	-46.4	-47.2	25.5	0.00e+00	0	46	0	2850029568	60	8977
2026-01-30 00:55:16.96	173.68	37.96	-46.5	-47.2	25.4	0.00e+00	0	46	0	2855272448	60	9008
2026-01-30 00:55:17.97	173.86	37.73	-46.3	-47.0	25.6	0.00e+00	0	46	0	2860515328	60	8743
2026-01-30 00:55:18.98	174.05	37.51	-46.0	-46.6	25.8	0.00e+00	0	46	0	2866806784	60	8383
2026-01-30 00:55:19.98	174.22	37.28	-45.9	-46.4	25.7	0.00e+00	0	46	0	2872049664	60	8232
2026-01-30 00:55:20.99	174.40	37.06	-45.9	-46.5	25.7	0.00e+00	0	46	0	2878341120	60	8313
2026-01-30 00:55:22.00	174.57	36.84	-45.8	-46.4	25.7	0.00e+00	0	46	0	2883584000	60	8212
2026-01-30 00:55:23.01	174.75	36.62	-45.9	-46.6	25.7	0.00e+00	0	46	0	2888826880	60	8423
2026-01-30 00:55:24.02	174.92	36.40	-46.0	-46.8	25.6	0.00e+00	0	46	0	2895118336	60	8547
2026-01-30 00:55:25.02	175.08	36.18	-46.2	-46.8	25.4	0.00e+00	0	46	0	2901409792	60	8534
2026-01-30 00:55:26.03	175.25	35.97	-46.2	-46.8	25.4	0.00e+00	0	46	0	2906652672	60	8572
2026-01-30 00:55:27.04	175.41	35.75	-46.1	-46.8	25.4	0.00e+00	0	46	0	2911895552	60	8573
2026-01-30 00:55:28.05	175.57	35.53	-46.2	-46.9	25.3	0.00e+00	0	46	0	2918187008	60	8656
2026-01-30 00:55:29.06	175.73	35.32	-46.0	-46.6	25.3	0.00e+00	0	46	0	2923429888	60	8409
2026-01-30 00:55:30.07	175.89	35.11	-45.9	-46.5	25.3	0.00e+00	0	46	0	2928672768	60	8290
2026-01-30 00:55:31.07	176.04	34.90	-45.9	-46.6	25.4	0.00e+00	0	46	0	2934964224	60	8387
2026-01-30 00:55:32.07	176.20	34.69	-45.9	-46.7	25.4	0.00e+00	0	46	0	2940207104	60	8463
2026-01-30 00:55:33.08	176.35	34.48	-45.9	-46.7	25.4	0.00e+00	0	46	0	2945449984	60	8461
2026-01-30 00:55:34.09	176.50	34.27	-46.0	-46.7	25.3	0.00e+00	0	46	0	2951741440	60	8490
2026-01-30 00:55:35.09	176.64	34.07	-46.0	-46.6	25.1	0.00e+00	0	46	0	2956984320	60	8368
2026-01-30 00:55:36.10	176.79	33.86	-46.0	-46.8	25.1	0.00e+00	0	46	0	2963275776	60	8532
2026-01-30 00:55:37.11	176.93	33.66	-46.1	-46.8	25.1	0.00e+00	0	46	0	2968518656	60	8588
2026-01-30 00:55:38.12	177.08	33.46	-46.2	-46.8	25.1	0.00e+00	0	46	0	2974810112	60	8557
2026-01-30 00:55:39.13	177.22	33.26	-46.3	-46.9	24.9	0.00e+00	0	46	0	2980052992	60	8686
2026-01-30 00:55:40.14	177.36	33.05	-46.4	-47.2	24.9	0.00e+00	0	46	0	2986344448	60	8970
2026-01-30 00:55:41.14	177.49	32.86	-46.2	-46.8	25.0	0.00e+00	0	46	0	2991587328	60	8567
2026-01-30 00:55:42.15	177.63	32.66	-46.1	-46.8	25.1	0.00e+00	0	46	0	2996830208	60	8572
2026-01-30 00:55:43.16	177.76	32.46	-46.1	-46.9	25.1	0.00e+00	0	46	0	3003121664	60	8682
2026-01-30 00:55:44.17	177.90	32.27	-46.0	-46.8	25.1	0.00e+00	0	46	0	3008364544	60	8538
2026-01-30 00:55:45.17	178.03	32.07	-46.1	-46.8	25.1	0.00e+00	0	46	0	3013607424	60	8530
2026-01-30 00:55:46.18	178.16	31.88	-46.1	-46.7	25.0	0.00e+00	0	46	0	3019898880	60	8507
2026-01-30 00:55:47.18	178.28	31.69	-46.2	-46.9	25.0	0.00e+00	0	46	0	3025141760	60	8650
2026-01-30 00:55:48.19	178.41	31.50	-46.4	-47.0	24.8	0.00e+00	0	46	0	3030384640	60	8815
2026-01-30 00:55:49.20	178.54	31.30	-46.4	-47.0	24.7	0.00e+00	0	46	0	3036676096	60	8794
2026-01-30 00:55:50.21	178.66	31.12	-46.4	-47.2	24.6	0.00e+00	0	46	0	3041918976	60	9012
2026-01-30 00:55:51.22	178.78	30.93	-46.5	-47.3	24.6	0.00e+00	0	46	0	3048210432	60	9056
2026-01-30 00:55:52.23	178.90	30.74	-46.7	-47.3	24.4	0.00e+00	0	46	0	3053453312	60	9096
2026-01-30 00:55:53.23	179.02	30.55	-46.6	-47.3	24.4	0.00e+00	0	46	0	3059744768	60	9088
2026-01-30 00:55:54.24	179.14	30.37	-46.5	-47.1	24.6	0.00e+00	0	46	0	3064987648	60	8900
2026-01-30 00:55:55.25	179.26	30.19	-46.5	-47.2	24.6	0.00e+00	0	46	0	3071279104	60	9005
2026-01-30 00:55:56.26	179.37	30.00	-46.4	-47.2	24.7	0.00e+00	0	46	0	3076521984	60	8934
2026-01-30 00:55:57.27	179.49	29.82	-46.4	-47.0	24.8	0.00e+00	0	46	0	3081764864	60	8797
2026-01-30 00:55:58.27	179.60	29.64	-46.5	-47.2	24.6	0.00e+00	0	46	0	3088056320	60	8991
2026-01-30 00:55:59.28	179.71	29.46	-46.5	-47.3	24.6	0.00e+00	0	46	0	3093299200	60	9061
2026-01-30 00:56:00.28	179.82	29.28	-46.6	-47.2	24.5	0.00e+00	0	46	0	3098542080	60	9010
2026-01-30 00:56:01.29	179.93	29.11	-46.4	-47.0	24.6	0.00e+00	0	46	0	3104833536	60	8797
2026-01-30 00:56:02.29	180.04	28.93	-46.1	-46.8	25.0	0.00e+00	0	46	0	3110076416	60	8581
2026-01-30 00:56:03.30	180.15	28.75	-46.1	-46.7	25.0	0.00e+00	0	46	0	3115319296	60	8455
2026-01-30 00:56:04.30	180.26	28.58	-46.2	-46.9	24.7	0.00e+00	0	46	0	3121610752	60	8637
2026-01-30 00:56:05.31	180.36	28.41	-46.2	-46.8	24.7	0.00e+00	0	46	0	3127902208	60	8578
2026-01-30 00:56:06.32	180.46	28.23	-46.4	-47.0	24.8	0.00e+00	0	46	0	3133145088	60	8799
2026-01-30 00:56:07.33	180.57	28.06	-46.4	-47.1	24.6	0.00e+00	0	46	0	3138387968	60	8849
2026-01-30 00:56:08.33	180.67	27.89	-46.6	-47.4	24.4	0.00e+00	0	46	0	3144679424	60	9159
2026-01-30 00:56:09.33	180.77	27.72	-46.5	-47.1	24.5	0.00e+00	0	46	0	3149922304	60	8922
2026-01-30 00:56:10.34	180.87	27.55	-46.6	-47.4	24.5	0.00e+00	0	46	0	3156213760	60	9160
2026-01-30 00:56:11.35	180.97	27.39	-46.6	-47.3	24.6	0.00e+00	0	46	0	3161456640	60	9095
2026-01-30 00:56:12.35	181.07	27.22	-46.8	-47.5	24.3	0.00e+00	0	46	0	3166699520	60	9242
2026-01-30 00:56:13.36	181.16	27.05	-47.0	-47.8	24.2	0.00e+00	0	46	0	3172990976	60	9628
2026-01-30 00:56:14.36	181.26	26.89	-47.3	-48.0	23.9	0.00e+00	0	46	0	3178233856	60	9863
2026-01-30 00:56:15.37	181.35	26.73	-47.3	-48.0	23.7	0.00e+00	0	46	0	3183476736	60	9823
2026-01-30 00:56:16.38	181.45	26.56	-47.3	-47.9	24.0	0.00e+00	0	46	0	3189768192	60	9759
2026-01-30 00:56:17.39	181.54	26.40	-47.1	-47.9	24.0	0.00e+00	0	46	0	3195011072	60	9774
2026-01-30 00:56:18.40	181.63	26.24	-47.2	-48.0	23.9	0.00e+00	0	46	0	3200253952	60	9857
2026-01-30 00:56:19.41	181.73	26.08	-47.3	-48.1	23.9	0.00e+00	0	46	0	3206545408	60	9938
2026-01-30 00:56:20.41	181.82	25.92	-47.2	-47.9	23.6	0.00e+00	0	46	0	3212836864	60	9715
2026-01-30 00:56:21.42	181.91	25.76	-47.7	-48.4	23.4	0.00e+00	0	46	0	3218079744	60	10331
2026-01-30 00:56:22.42	181.99	25.60	-47.8	-48.5	23.2	0.00e+00	0	46	0	3223322624	60	10471
2026-01-30 00:56:23.43	182.08	25.45	-47.9	-48.6	23.2	0.00e+00	0	46	0	3229614080	60	10602
2026-01-30 00:56:24.43	182.17	25.29	-47.0	-47.7	23.8	0.00e+00	0	46	0	3234856960	60	9522
2026-01-30 00:56:25.44	182.26	25.13	-46.5	-47.3	24.2	0.00e+00	0	46	0	3241148416	60	9116
2026-01-30 00:56:26.45	182.34	24.98	-46.4	-47.1	24.3	0.00e+00	0	46	0	3246391296	60	8831
2026-01-30 00:56:27.45	182.43	24.83	-46.3	-47.1	24.4	0.00e+00	0	46	0	3251634176	60	8831
2026-01-30 00:56:28.46	182.51	24.67	-46.1	-46.8	24.5	0.00e+00	0	46	0	3257925632	60	8548
2026-01-30 00:56:29.47	182.59	24.52	-45.9	-46.7	24.7	0.00e+00	0	46	0	3263168512	60	8479
2026-01-30 00:56:30.48	182.68	24.37	-46.0	-46.7	24.6	0.00e+00	0	46	0	3268411392	60	8520
2026-01-30 00:56:31.48	182.76	24.22	-46.2	-46.8	24.5	0.00e+00	0	46	0	3274702848	60	8592
2026-01-30 00:56:32.49	182.84	24.07	-46.1	-46.9	24.5	0.00e+00	0	46	0	3279945728	60	8636
2026-01-30 00:56:33.50	182.92	23.92	-46.3	-47.0	24.3	0.00e+00	0	46	0	3285188608	60	8724
2026-01-30 00:56:34.50	183.00	23.78	-46.3	-47.1	24.3	0.00e+00	0	46	0	3291480064	60	8877
2026-01-30 00:56:35.51	183.08	23.63	-46.3	-47.0	24.3	0.00e+00	0	46	0	3296722944	60	8773
2026-01-30 00:56:36.51	183.15	23.48	-46.3	-46.9	24.4	0.00e+00	0	46	0	3303014400	60	8714
2026-01-30 00:56:37.52	183.23	23.34	-46.1	-46.7	24.5	0.00e+00	0	46	0	3308257280	60	8471
2026-01-30 00:56:38.53	183.31	23.19	-46.0	-46.7	24.5	0.00e+00	0	46	0	3314548736	60	8456
2026-01-30 00:56:39.54	183.38	23.05	-46.0	-46.8	24.5	0.00e+00	0	46	0	3319791616	60	8610
2026-01-30 00:56:40.54	183.46	22.90	-46.2	-47.0	24.4	0.00e+00	0	46	0	3326083072	60	8790
2026-01-30 00:56:41.55	183.53	22.76	-46.1	-46.8	24.3	0.00e+00	0	46	0	3331325952	60	8565
2026-01-30 00:56:42.55	183.61	22.62	-46.1	-46.7	24.4	0.00e+00	0	46	0	3336568832	60	8485
2026-01-30 00:56:43.55	183.68	22.48	-46.1	-46.7	24.4	0.00e+00	0	46	0	3342860288	60	8508
2026-01-30 00:56:44.56	183.75	22.34	-46.2	-46.8	24.4	0.00e+00	0	46	0	3348103168	60	8612
2026-01-30 00:56:45.57	183.83	22.20	-46.1	-46.9	24.5	0.00e+00	0	46	0	3353346048	60	8638
2026-01-30 00:56:46.58	183.90	22.06	-46.1	-46.7	24.4	0.00e+00	0	46	0	3359637504	60	8514
2026-01-30 00:56:47.59	183.97	21.92	-46.1	-46.8	24.3	0.00e+00	0	46	0	3364880384	60	8556
2026-01-30 00:56:48.59	184.04	21.79	-46.1	-46.8	24.4	0.00e+00	0	46	0	3370123264	60	8604
2026-01-30 00:56:49.60	184.11	21.65	-46.2	-47.0	24.3	0.00e+00	0	46	0	3376414720	60	8735
2026-01-30 00:56:50.61	184.18	21.51	-46.2	-46.9	24.3	0.00e+00	0	46	0	3381657600	60	8646
2026-01-30 00:56:51.61	184.25	21.38	-46.3	-47.1	24.3	0.00e+00	0	46	0	3387949056	60	8834
2026-01-30 00:56:52.62	184.32	21.24	-46.3	-47.1	24.3	0.00e+00	0	46	0	3393191936	60	8871
2026-01-30 00:56:53.63	184.38	21.11	-46.3	-47.0	24.2	0.00e+00	0	46	0	3399483392	60	8734
2026-01-30 00:56:54.63	184.45	20.98	-46.3	-47.1	24.2	0.00e+00	0	46	0	3404726272	60	8844
2026-01-30 00:56:55.63	184.52	20.84	-46.4	-47.2	24.2	0.00e+00	0	46	0	3411017728	60	8958
2026-01-30 00:56:56.64	184.58	20.71	-46.4	-47.1	24.1	0.00e+00	0	46	0	3416260608	60	8909
2026-01-30 00:56:57.65	184.65	20.58	-46.6	-47.2	24.0	0.00e+00	0	46	0	3421503488	60	9008
2026-01-30 00:56:58.66	184.71	20.45	-46.6	-47.4	23.9	0.00e+00	0	46	0	3427794944	60	9208
2026-01-30 00:56:59.66	184.78	20.32	-46.7	-47.4	23.9	0.00e+00	0	46	0	3433037824	60	9215
2026-01-30 00:57:00.66	184.84	20.19	-46.8	-47.6	23.9	0.00e+00	0	46	0	3438280704	60	9406
2026-01-30 00:57:01.67	184.90	20.06	-46.8	-47.5	23.7	0.00e+00	0	46	0	3444572160	60	9309
