passes_logs/2026/01/28/planumMaritime01/planumMaritime01__20260128_001652_METEOR-M2_4_rec.log

#Pass ID: 20260128_001652_METEOR-M2 4
#Satellite: METEOR-M2 4
#Configuration: METEOR-M2 4
#Start time: 2026-01-28 00:16:57.620088

#LorettStation: 1.0.0 05.05.2024
#Station: planumMaritime01
#Location: 37.49445 lon 55.92918 lat
#TLE: 1 59051U 24039A   26026.51377740  .00000074  00000+0  52756-4 0  9997
#TLE: 2 59051  98.6831 347.7355 0006350 213.0382 147.0400 14.22409886 99125

#Time	Az	El	Level	SNR
2026-01-28 00:16:59.790109	26.1	10.2	-81.0	0.0
2026-01-28 00:17:00.914918	26.2	10.3	-80.4	0.0
2026-01-28 00:17:02.040567	26.3	10.4	-79.7	0.0
2026-01-28 00:17:03.163629	26.3	10.5	-78.0	0.0
2026-01-28 00:17:04.288439	26.4	10.5	-77.3	0.0
2026-01-28 00:17:05.411772	26.5	10.6	-76.0	0.0
2026-01-28 00:17:06.534215	26.6	10.7	-73.4	0.0
2026-01-28 00:17:07.656624	26.7	10.8	-74.2	0.0
2026-01-28 00:17:08.779977	26.7	10.9	-69.9	0.0
2026-01-28 00:17:09.904050	26.8	11.0	-70.6	0.0
2026-01-28 00:17:11.028870	26.9	11.1	-68.4	0.0
2026-01-28 00:17:12.151986	27.0	11.2	-69.1	0.0
2026-01-28 00:17:13.275884	27.0	11.3	-68.3	0.0
2026-01-28 00:17:14.399383	27.1	11.4	-70.6	0.0
2026-01-28 00:17:15.522882	27.2	11.5	-70.8	0.0
2026-01-28 00:17:16.645482	27.3	11.6	-68.8	0.0
2026-01-28 00:17:17.769663	27.4	11.7	-66.3	0.0
2026-01-28 00:17:18.894373	27.4	11.8	-70.1	0.0
2026-01-28 00:17:20.020026	27.5	11.9	-67.1	0.0
2026-01-28 00:17:21.145088	27.6	12.0	-69.6	0.0
2026-01-28 00:17:22.271852	27.7	12.1	-67.1	0.0
2026-01-28 00:17:23.395138	27.8	12.2	-71.7	0.0
2026-01-28 00:17:24.519005	27.9	12.3	-69.0	0.0
2026-01-28 00:17:25.642595	28.0	12.4	-68.9	0.0
2026-01-28 00:17:26.764469	28.0	12.5	-70.7	0.0
2026-01-28 00:17:27.888885	28.1	12.6	-70.5	0.0
2026-01-28 00:17:29.013970	28.2	12.7	-67.8	0.0
2026-01-28 00:17:30.138113	28.3	12.8	-70.1	0.0
2026-01-28 00:17:31.262903	28.4	12.9	-69.1	0.0
2026-01-28 00:17:32.389047	28.5	13.0	-68.8	0.0
2026-01-28 00:17:33.515874	28.6	13.1	-69.0	0.0
2026-01-28 00:17:34.639421	28.7	13.2	-67.7	0.0
2026-01-28 00:17:35.763240	28.7	13.3	-70.3	0.0
2026-01-28 00:17:36.888718	28.8	13.4	-69.7	0.0
2026-01-28 00:17:38.011726	28.9	13.5	-65.9	0.0
2026-01-28 00:17:39.135575	29.0	13.6	-69.4	0.0
2026-01-28 00:17:40.257382	29.1	13.7	-70.3	0.0
2026-01-28 00:17:41.379298	29.2	13.8	-69.1	0.0
2026-01-28 00:17:42.504016	29.3	13.9	-69.1	0.0
2026-01-28 00:17:43.628275	29.4	14.0	-67.7	0.0
2026-01-28 00:17:44.751706	29.5	14.1	-69.7	0.0
2026-01-28 00:17:45.875519	29.6	14.2	-69.4	0.0
2026-01-28 00:17:46.998829	29.7	14.3	-70.9	0.0
2026-01-28 00:17:48.122792	29.8	14.4	-68.2	0.0
2026-01-28 00:17:49.248224	29.9	14.5	-70.9	0.0
2026-01-28 00:17:50.373668	30.0	14.6	-70.0	0.0
2026-01-28 00:17:51.498491	30.1	14.7	-68.8	0.0
2026-01-28 00:17:52.621919	30.2	14.8	-70.9	0.0
2026-01-28 00:17:53.747532	30.3	15.0	-70.6	0.0
2026-01-28 00:17:54.869686	30.4	15.1	-71.9	0.0
2026-01-28 00:17:55.992547	30.5	15.2	-71.3	0.0
2026-01-28 00:17:57.116906	30.6	15.3	-71.9	0.0
2026-01-28 00:17:58.240900	30.7	15.4	-72.3	0.0
2026-01-28 00:17:59.363605	30.8	15.5	-71.6	0.0
2026-01-28 00:18:00.490565	30.9	15.6	-67.5	0.0
2026-01-28 00:18:01.614511	31.0	15.7	-71.6	0.0
2026-01-28 00:18:02.736321	31.1	15.8	-72.1	0.0
2026-01-28 00:18:03.860106	31.2	15.9	-71.3	0.0
2026-01-28 00:18:04.983354	31.3	16.1	-71.3	0.0
2026-01-28 00:18:06.105735	31.4	16.2	-68.4	0.0
2026-01-28 00:18:07.227574	31.5	16.3	-70.2	0.0
2026-01-28 00:18:08.351823	31.7	16.4	-68.6	0.0
2026-01-28 00:18:09.477319	31.8	16.5	-71.1	0.0
2026-01-28 00:18:10.601319	31.9	16.6	-72.3	0.0
2026-01-28 00:18:11.725135	32.0	16.7	-72.5	0.0
2026-01-28 00:18:12.848430	32.1	16.9	-72.4	0.0
2026-01-28 00:18:13.972208	32.2	17.0	-71.8	0.0
2026-01-28 00:18:15.096701	32.3	17.1	-71.0	0.0
2026-01-28 00:18:16.219740	32.4	17.2	-71.5	0.0
2026-01-28 00:18:17.345011	32.6	17.3	-71.1	0.0
2026-01-28 00:18:18.469552	32.7	17.4	-67.3	0.0
2026-01-28 00:18:19.593287	32.8	17.6	-70.8	0.0
2026-01-28 00:18:20.718305	32.9	17.7	-72.6	0.0
2026-01-28 00:18:21.843103	33.0	17.8	-71.7	0.0
2026-01-28 00:18:22.967383	33.2	17.9	-67.6	0.0
2026-01-28 00:18:24.091158	33.3	18.0	-70.8	0.0
2026-01-28 00:18:25.214658	33.4	18.2	-69.6	0.0
2026-01-28 00:18:26.338557	33.5	18.3	-72.1	0.0
2026-01-28 00:18:27.460655	33.7	18.4	-71.7	0.0
2026-01-28 00:18:28.585963	33.8	18.5	-70.0	0.0
2026-01-28 00:18:29.709319	33.9	18.6	-73.2	0.0
2026-01-28 00:18:30.830041	34.0	18.8	-73.0	0.0
2026-01-28 00:18:31.955306	34.2	18.9	-72.4	0.0
2026-01-28 00:18:33.078096	34.3	19.0	-72.6	0.0
2026-01-28 00:18:34.202193	34.4	19.1	-72.2	0.0
2026-01-28 00:18:35.327870	34.6	19.3	-72.0	0.0
2026-01-28 00:18:36.450964	34.7	19.4	-72.5	0.0
2026-01-28 00:18:37.575468	34.8	19.5	-73.0	0.0
2026-01-28 00:18:38.701489	35.0	19.6	-72.7	0.0
2026-01-28 00:18:39.824203	35.1	19.8	-72.8	0.0
2026-01-28 00:18:40.947105	35.2	19.9	-72.9	0.0
2026-01-28 00:18:42.070227	35.4	20.0	-73.3	0.0
2026-01-28 00:18:43.194433	35.5	20.2	-73.3	0.3
2026-01-28 00:18:44.317041	35.7	20.3	-73.2	0.0
2026-01-28 00:18:45.441964	35.8	20.4	-73.0	0.0
2026-01-28 00:18:46.564837	36.0	20.5	-73.7	0.4
2026-01-28 00:18:47.691379	36.1	20.7	-73.2	0.7
2026-01-28 00:18:48.817881	36.2	20.8	-74.1	0.9
2026-01-28 00:18:49.940776	36.4	20.9	-73.9	0.0
2026-01-28 00:18:51.067560	36.5	21.1	-73.0	0.0
2026-01-28 00:18:52.190864	36.7	21.2	-73.3	0.0
2026-01-28 00:18:53.313994	36.8	21.3	-73.8	1.0
2026-01-28 00:18:54.438322	37.0	21.5	-73.6	1.1
2026-01-28 00:18:55.559914	37.1	21.6	-73.7	0.0
2026-01-28 00:18:56.684009	37.3	21.7	-74.2	2.3
2026-01-28 00:18:57.807687	37.5	21.9	-72.8	2.3
2026-01-28 00:18:58.930248	37.6	22.0	-74.4	4.3
2026-01-28 00:19:00.051975	37.8	22.1	-74.1	3.3
2026-01-28 00:19:01.175991	37.9	22.3	-74.2	0.0
2026-01-28 00:19:02.298669	38.1	22.4	-74.7	3.8
2026-01-28 00:19:03.421890	38.3	22.6	-72.4	0.0
2026-01-28 00:19:04.547080	38.4	22.7	-74.4	2.5
2026-01-28 00:19:05.669646	38.6	22.8	-72.1	0.0
2026-01-28 00:19:06.793913	38.8	23.0	-75.4	2.4
2026-01-28 00:19:07.918483	38.9	23.1	-72.3	0.0
2026-01-28 00:19:09.042756	39.1	23.3	-74.4	3.9
2026-01-28 00:19:10.168527	39.3	23.4	-74.9	0.2
2026-01-28 00:19:11.293772	39.4	23.5	-74.6	6.8
2026-01-28 00:19:12.415955	39.6	23.7	-75.0	0.0
2026-01-28 00:19:13.539348	39.8	23.8	-74.3	5.8
2026-01-28 00:19:14.661875	40.0	24.0	-74.8	3.3
2026-01-28 00:19:15.788343	40.1	24.1	-74.5	0.0
2026-01-28 00:19:16.911793	40.3	24.2	-74.5	3.9
2026-01-28 00:19:18.034361	40.5	24.4	-74.1	0.0
2026-01-28 00:19:19.156135	40.7	24.5	-75.0	5.6
2026-01-28 00:19:20.280320	40.9	24.7	-74.9	4.6
2026-01-28 00:19:21.405482	41.1	24.8	-75.3	6.9
2026-01-28 00:19:22.530509	41.3	25.0	-73.0	0.0
2026-01-28 00:19:23.653835	41.4	25.1	-75.0	3.8
2026-01-28 00:19:24.777982	41.6	25.3	-75.3	7.7
2026-01-28 00:19:25.904367	41.8	25.4	-75.6	6.9
2026-01-28 00:19:27.028451	42.0	25.6	-75.8	8.0
2026-01-28 00:19:28.152730	42.2	25.7	-75.7	8.0
2026-01-28 00:19:29.275656	42.4	25.9	-75.5	7.4
2026-01-28 00:19:30.400596	42.6	26.0	-76.0	7.8
2026-01-28 00:19:31.527794	42.8	26.2	-75.9	7.3
2026-01-28 00:19:32.650823	43.0	26.3	-75.1	8.0
2026-01-28 00:19:33.772569	43.3	26.5	-75.3	6.8
2026-01-28 00:19:34.896413	43.5	26.6	-76.1	7.5
2026-01-28 00:19:36.020813	43.7	26.8	-76.3	8.1
2026-01-28 00:19:37.144126	43.9	26.9	-75.9	7.1
2026-01-28 00:19:38.266362	44.1	27.1	-76.1	7.4
2026-01-28 00:19:39.389662	44.3	27.2	-73.7	2.1
2026-01-28 00:19:40.513336	44.5	27.4	-76.1	8.9
2026-01-28 00:19:41.637925	44.8	27.5	-76.1	9.0
2026-01-28 00:19:42.760590	45.0	27.7	-76.3	8.0
2026-01-28 00:19:43.885443	45.2	27.9	-76.3	9.4
2026-01-28 00:19:45.007850	45.4	28.0	-76.1	8.9
2026-01-28 00:19:46.132475	45.7	28.2	-76.7	7.6
2026-01-28 00:19:47.256273	45.9	28.3	-76.4	8.8
2026-01-28 00:19:48.379181	46.1	28.5	-76.7	7.5
2026-01-28 00:19:49.503437	46.4	28.6	-75.7	7.8
2026-01-28 00:19:50.626574	46.6	28.8	-76.4	8.9
2026-01-28 00:19:51.751553	46.9	29.0	-76.2	8.1
2026-01-28 00:19:52.876217	47.1	29.1	-76.9	9.9
2026-01-28 00:19:53.999561	47.4	29.3	-76.8	9.0
2026-01-28 00:19:55.124651	47.6	29.4	-76.3	10.1
2026-01-28 00:19:56.247643	47.9	29.6	-77.0	9.8
2026-01-28 00:19:57.371749	48.1	29.8	-76.8	5.8
2026-01-28 00:19:58.493984	48.4	29.9	-76.6	9.5
2026-01-28 00:19:59.615087	48.6	30.1	-76.7	8.2
2026-01-28 00:20:00.739177	48.9	30.2	-76.0	5.3
2026-01-28 00:20:01.862163	49.1	30.4	-76.6	6.6
2026-01-28 00:20:02.988367	49.4	30.6	-76.5	7.7
2026-01-28 00:20:04.114708	49.7	30.7	-76.6	9.8
2026-01-28 00:20:05.238164	50.0	30.9	-77.1	9.8
2026-01-28 00:20:06.360362	50.2	31.0	-76.4	3.5
2026-01-28 00:20:07.484361	50.5	31.2	-77.4	10.6
2026-01-28 00:20:08.607584	50.8	31.4	-77.5	8.4
2026-01-28 00:20:09.730615	51.1	31.5	-77.0	9.8
2026-01-28 00:20:10.855635	51.4	31.7	-76.9	9.7
2026-01-28 00:20:11.979054	51.6	31.9	-76.9	10.8
2026-01-28 00:20:13.101922	51.9	32.0	-77.0	9.7
2026-01-28 00:20:14.224307	52.2	32.2	-77.1	8.8
2026-01-28 00:20:15.346520	52.5	32.3	-76.5	9.6
2026-01-28 00:20:16.469057	52.8	32.5	-77.4	9.8
2026-01-28 00:20:17.593308	53.1	32.7	-76.9	9.5
2026-01-28 00:20:18.718331	53.4	32.8	-77.0	9.5
2026-01-28 00:20:19.842301	53.7	33.0	-77.0	8.9
2026-01-28 00:20:20.966712	54.1	33.2	-77.3	10.4
2026-01-28 00:20:22.090859	54.4	33.3	-76.2	5.9
2026-01-28 00:20:23.215231	54.7	33.5	-77.1	9.9
2026-01-28 00:20:24.338286	55.0	33.7	-77.0	10.3
2026-01-28 00:20:25.461966	55.3	33.8	-76.6	6.4
2026-01-28 00:20:26.585747	55.7	34.0	-76.3	7.9
2026-01-28 00:20:27.709592	56.0	34.1	-77.4	10.5
2026-01-28 00:20:28.836770	56.3	34.3	-76.7	8.9
2026-01-28 00:20:29.958817	56.7	34.5	-77.5	10.3
2026-01-28 00:20:31.084506	57.0	34.6	-77.5	9.8
2026-01-28 00:20:32.208784	57.4	34.8	-77.8	10.0
2026-01-28 00:20:33.332301	57.7	35.0	-77.5	10.2
2026-01-28 00:20:34.456012	58.1	35.1	-77.2	10.4
2026-01-28 00:20:35.580554	58.4	35.3	-77.5	10.3
2026-01-28 00:20:36.703274	58.8	35.4	-77.0	10.5
2026-01-28 00:20:37.826979	59.1	35.6	-76.9	9.1
2026-01-28 00:20:38.952131	59.5	35.8	-77.3	9.4
2026-01-28 00:20:40.073982	59.9	35.9	-76.1	6.0
2026-01-28 00:20:41.196906	60.3	36.1	-77.6	11.9
2026-01-28 00:20:42.321720	60.6	36.2	-76.7	10.1
2026-01-28 00:20:43.444017	61.0	36.4	-76.2	10.2
2026-01-28 00:20:44.570458	61.4	36.6	-77.3	11.5
2026-01-28 00:20:45.694587	61.8	36.7	-75.9	6.9
2026-01-28 00:20:46.818577	62.2	36.9	-76.9	10.8
2026-01-28 00:20:47.944898	62.6	37.0	-76.4	10.3
2026-01-28 00:20:49.068020	63.0	37.2	-76.6	10.7
2026-01-28 00:20:50.191974	63.4	37.3	-76.6	11.2
2026-01-28 00:20:51.314134	63.8	37.5	-77.2	12.3
2026-01-28 00:20:52.439653	64.2	37.6	-76.5	11.3
2026-01-28 00:20:53.565736	64.6	37.8	-77.0	11.6
2026-01-28 00:20:54.688245	65.0	37.9	-77.1	10.7
2026-01-28 00:20:55.814226	65.4	38.1	-76.8	8.1
2026-01-28 00:20:56.937936	65.9	38.2	-77.7	10.5
2026-01-28 00:20:58.064016	66.3	38.4	-76.1	9.1
2026-01-28 00:20:59.187123	66.7	38.5	-77.7	11.4
2026-01-28 00:21:00.309764	67.2	38.7	-77.2	10.1
2026-01-28 00:21:01.432692	67.6	38.8	-77.8	10.8
2026-01-28 00:21:02.556360	68.1	39.0	-77.9	10.2
2026-01-28 00:21:03.678560	68.5	39.1	-77.9	10.7
2026-01-28 00:21:04.802132	69.0	39.2	-77.8	10.1
2026-01-28 00:21:05.925659	69.4	39.4	-78.3	9.9
2026-01-28 00:21:07.051007	69.9	39.5	-77.8	9.1
2026-01-28 00:21:08.175545	70.3	39.6	-78.3	10.5
2026-01-28 00:21:09.299634	70.8	39.8	-78.1	9.6
2026-01-28 00:21:10.423878	71.3	39.9	-78.4	10.4
2026-01-28 00:21:11.547039	71.8	40.0	-77.8	9.8
2026-01-28 00:21:12.671485	72.2	40.2	-77.3	9.5
2026-01-28 00:21:13.793837	72.7	40.3	-76.9	11.3
2026-01-28 00:21:14.919059	73.2	40.4	-77.9	11.2
2026-01-28 00:21:16.042415	73.7	40.5	-77.8	11.4
2026-01-28 00:21:17.164281	74.2	40.7	-77.8	8.9
2026-01-28 00:21:18.286754	74.7	40.8	-77.7	10.7
2026-01-28 00:21:19.409802	75.2	40.9	-77.6	9.8
2026-01-28 00:21:20.534573	75.7	41.0	-77.6	11.3
2026-01-28 00:21:21.657965	76.2	41.1	-76.4	6.9
2026-01-28 00:21:22.784582	76.7	41.2	-77.1	9.4
2026-01-28 00:21:23.908557	77.2	41.3	-77.2	8.1
2026-01-28 00:21:25.031895	77.8	41.4	-77.2	8.3
2026-01-28 00:21:26.155418	78.3	41.5	-77.1	9.5
2026-01-28 00:21:27.278736	78.8	41.6	-77.9	10.2
2026-01-28 00:21:28.403545	79.3	41.7	-77.9	10.3
2026-01-28 00:21:29.527051	79.9	41.8	-78.0	10.0
2026-01-28 00:21:30.648779	80.4	41.9	-77.2	9.5
2026-01-28 00:21:31.773228	80.9	42.0	-77.8	8.4
2026-01-28 00:21:32.895161	81.5	42.1	-77.7	7.7
2026-01-28 00:21:34.019170	82.0	42.2	-77.4	6.2
2026-01-28 00:21:35.144057	82.6	42.3	-77.7	9.6
2026-01-28 00:21:36.268008	83.1	42.4	-77.7	9.6
2026-01-28 00:21:37.391247	83.7	42.4	-77.0	4.4
2026-01-28 00:21:38.515089	84.2	42.5	-77.7	7.2
2026-01-28 00:21:39.640578	84.8	42.6	-78.2	6.2
2026-01-28 00:21:40.763855	85.3	42.7	-78.2	6.7
2026-01-28 00:21:41.886934	85.9	42.7	-78.1	8.1
2026-01-28 00:21:43.009687	86.5	42.8	-76.8	4.0
2026-01-28 00:21:44.134404	87.0	42.9	-77.7	6.6
2026-01-28 00:21:45.257338	87.6	42.9	-77.4	8.8
2026-01-28 00:21:46.382865	88.2	43.0	-76.9	6.5
2026-01-28 00:21:47.508185	88.8	43.0	-76.5	8.1
2026-01-28 00:21:48.632694	89.3	43.1	-77.5	10.1
2026-01-28 00:21:49.756131	89.9	43.1	-77.5	9.3
2026-01-28 00:21:50.880928	90.5	43.2	-77.8	10.2
2026-01-28 00:21:52.004220	91.1	43.2	-78.5	9.6
2026-01-28 00:21:53.126432	91.7	43.2	-78.1	10.9
2026-01-28 00:21:54.248903	92.2	43.3	-78.1	8.5
2026-01-28 00:21:55.373760	92.8	43.3	-77.8	9.9
2026-01-28 00:21:56.497167	93.4	43.3	-77.9	8.1
2026-01-28 00:21:57.620515	94.0	43.4	-77.8	9.3
2026-01-28 00:21:58.745240	94.6	43.4	-77.4	4.6
2026-01-28 00:21:59.869867	95.2	43.4	-77.6	9.4
2026-01-28 00:22:00.994542	95.8	43.4	-78.6	9.8
2026-01-28 00:22:02.120147	96.3	43.4	-78.8	9.3
2026-01-28 00:22:03.246282	96.9	43.4	-78.9	9.5
2026-01-28 00:22:04.368736	97.5	43.4	-78.4	7.9
2026-01-28 00:22:05.492594	98.1	43.4	-78.8	9.1
2026-01-28 00:22:06.615570	98.7	43.4	-79.1	10.0
2026-01-28 00:22:07.738582	99.3	43.4	-78.9	10.5
2026-01-28 00:22:08.863641	99.9	43.4	-79.1	9.9
2026-01-28 00:22:09.986992	100.5	43.4	-78.9	9.7
2026-01-28 00:22:11.110578	101.1	43.4	-78.5	8.9
2026-01-28 00:22:12.234747	101.6	43.4	-78.8	9.7
2026-01-28 00:22:13.359121	102.2	43.3	-78.4	9.2
2026-01-28 00:22:14.488427	102.8	43.3	-78.8	9.9
2026-01-28 00:22:15.612704	103.4	43.3	-79.0	10.5
2026-01-28 00:22:16.735750	104.0	43.3	-78.8	10.0
2026-01-28 00:22:17.859169	104.6	43.2	-78.9	11.0
2026-01-28 00:22:18.983342	105.2	43.2	-78.7	10.7
2026-01-28 00:22:20.109875	105.7	43.1	-79.0	10.7
2026-01-28 00:22:21.237420	106.3	43.1	-78.8	11.0
2026-01-28 00:22:22.360850	106.9	43.0	-77.9	6.6
2026-01-28 00:22:23.484540	107.5	43.0	-78.5	9.8
2026-01-28 00:22:24.608588	108.0	42.9	-78.4	9.6
2026-01-28 00:22:25.732503	108.6	42.9	-77.7	8.0
2026-01-28 00:22:26.854249	109.2	42.8	-78.6	10.2
2026-01-28 00:22:27.978390	109.8	42.8	-78.8	8.3
2026-01-28 00:22:29.101815	110.3	42.7	-78.4	9.4
2026-01-28 00:22:30.226690	110.9	42.6	-78.9	9.5
2026-01-28 00:22:31.353982	111.4	42.5	-79.1	9.5
2026-01-28 00:22:32.477074	112.0	42.5	-78.8	9.8
2026-01-28 00:22:33.605318	112.6	42.4	-78.7	9.2
2026-01-28 00:22:34.730140	113.1	42.3	-79.0	10.5
2026-01-28 00:22:35.853702	113.7	42.2	-78.8	8.8
2026-01-28 00:22:36.978604	114.2	42.1	-79.1	10.3
2026-01-28 00:22:38.104046	114.8	42.1	-78.9	10.1
2026-01-28 00:22:39.227997	115.3	42.0	-78.9	10.8
2026-01-28 00:22:40.352687	115.8	41.9	-78.9	10.4
2026-01-28 00:22:41.478199	116.4	41.8	-78.9	8.9
2026-01-28 00:22:42.605585	116.9	41.7	-79.0	10.7
2026-01-28 00:22:43.728774	117.4	41.6	-78.7	10.8
2026-01-28 00:22:44.852382	118.0	41.5	-78.8	10.4
2026-01-28 00:22:45.976917	118.5	41.4	-78.7	10.9
2026-01-28 00:22:47.100866	119.0	41.3	-78.6	10.6
2026-01-28 00:22:48.222342	119.5	41.1	-78.7	11.5
2026-01-28 00:22:49.346040	120.0	41.0	-78.8	11.6
2026-01-28 00:22:50.469624	120.5	40.9	-78.9	11.4
2026-01-28 00:22:51.594028	121.0	40.8	-78.8	10.9
2026-01-28 00:22:52.716808	121.5	40.7	-78.6	10.2
2026-01-28 00:22:53.840920	122.0	40.6	-78.6	11.6
2026-01-28 00:22:54.966107	122.5	40.4	-78.5	12.1
2026-01-28 00:22:56.092089	123.0	40.3	-78.7	11.1
2026-01-28 00:22:57.217057	123.5	40.2	-78.5	11.4
2026-01-28 00:22:58.342838	124.0	40.1	-78.1	8.8
2026-01-28 00:22:59.465481	124.5	39.9	-78.1	9.9
2026-01-28 00:23:00.591817	124.9	39.8	-78.3	10.1
2026-01-28 00:23:01.717297	125.4	39.7	-78.2	11.3
2026-01-28 00:23:02.842404	125.9	39.5	-78.6	12.5
2026-01-28 00:23:03.966751	126.3	39.4	-78.4	10.0
2026-01-28 00:23:05.089872	126.8	39.3	-78.1	10.5
2026-01-28 00:23:06.213338	127.3	39.1	-78.0	9.1
2026-01-28 00:23:07.338952	127.7	39.0	-78.1	11.0
2026-01-28 00:23:08.462797	128.2	38.8	-78.3	11.0
2026-01-28 00:23:09.587059	128.6	38.7	-78.2	12.2
2026-01-28 00:23:10.711707	129.0	38.5	-78.0	11.0
2026-01-28 00:23:11.834482	129.5	38.4	-78.4	12.4
2026-01-28 00:23:12.957840	129.9	38.3	-78.0	12.1
2026-01-28 00:23:14.084854	130.3	38.1	-78.1	12.9
2026-01-28 00:23:15.211009	130.8	38.0	-78.1	12.6
2026-01-28 00:23:16.334796	131.2	37.8	-78.4	11.5
2026-01-28 00:23:17.457843	131.6	37.7	-78.3	12.7
2026-01-28 00:23:18.584409	132.0	37.5	-78.5	13.0
2026-01-28 00:23:19.709023	132.4	37.3	-78.5	11.5
2026-01-28 00:23:20.832893	132.8	37.2	-78.3	13.1
2026-01-28 00:23:21.959458	133.2	37.0	-78.7	13.2
2026-01-28 00:23:23.082910	133.6	36.9	-78.6	13.3
2026-01-28 00:23:24.205647	134.0	36.7	-78.7	12.4
2026-01-28 00:23:25.330241	134.4	36.6	-78.7	12.1
2026-01-28 00:23:26.452902	134.8	36.4	-78.6	12.7
2026-01-28 00:23:27.579856	135.2	36.2	-78.4	12.5
2026-01-28 00:23:28.704549	135.6	36.1	-78.6	13.2
2026-01-28 00:23:29.828531	135.9	35.9	-78.5	13.4
2026-01-28 00:23:30.953738	136.3	35.8	-78.4	12.7
2026-01-28 00:23:32.077024	136.7	35.6	-78.4	13.6
2026-01-28 00:23:33.202382	137.1	35.4	-78.3	13.3
2026-01-28 00:23:34.327905	137.4	35.3	-78.6	12.5
2026-01-28 00:23:35.451390	137.8	35.1	-78.3	13.3
2026-01-28 00:23:36.574625	138.1	35.0	-78.7	12.9
2026-01-28 00:23:37.699701	138.5	34.8	-78.3	12.8
2026-01-28 00:23:38.824524	138.8	34.6	-78.5	13.6
2026-01-28 00:23:39.951667	139.2	34.5	-78.4	13.3
2026-01-28 00:23:41.075232	139.5	34.3	-78.3	13.1
2026-01-28 00:23:42.196670	139.9	34.1	-78.5	13.1
2026-01-28 00:23:43.321312	140.2	34.0	-78.3	13.5
2026-01-28 00:23:44.444859	140.5	33.8	-78.6	14.1
2026-01-28 00:23:45.569447	140.8	33.6	-78.4	13.7
2026-01-28 00:23:46.693547	141.2	33.5	-78.6	13.4
2026-01-28 00:23:47.817613	141.5	33.3	-78.5	12.9
2026-01-28 00:23:48.939749	141.8	33.2	-78.5	13.7
2026-01-28 00:23:50.065412	142.1	33.0	-78.4	13.0
2026-01-28 00:23:51.189595	142.4	32.8	-78.5	13.5
2026-01-28 00:23:52.314219	142.7	32.7	-78.0	13.5
2026-01-28 00:23:53.438054	143.1	32.5	-78.2	14.4
2026-01-28 00:23:54.562512	143.4	32.3	-77.9	13.7
2026-01-28 00:23:55.687319	143.7	32.2	-78.3	14.0
2026-01-28 00:23:56.811794	144.0	32.0	-77.9	13.7
2026-01-28 00:23:57.936278	144.2	31.8	-78.2	14.3
2026-01-28 00:23:59.058763	144.5	31.7	-78.3	14.0
2026-01-28 00:24:00.184005	144.8	31.5	-78.2	13.6
2026-01-28 00:24:01.308005	145.1	31.3	-77.2	10.2
2026-01-28 00:24:02.432119	145.4	31.2	-77.0	10.0
2026-01-28 00:24:03.556784	145.7	31.0	-77.2	9.5
2026-01-28 00:24:04.681094	145.9	30.8	-76.9	9.7
2026-01-28 00:24:05.804990	146.2	30.7	-77.3	8.8
2026-01-28 00:24:06.928579	146.5	30.5	-77.0	9.9
2026-01-28 00:24:08.051272	146.8	30.4	-77.2	9.5
2026-01-28 00:24:09.175420	147.0	30.2	-77.0	9.6
2026-01-28 00:24:10.297208	147.3	30.0	-77.2	9.5
2026-01-28 00:24:11.420848	147.6	29.9	-77.3	9.7
2026-01-28 00:24:12.543992	147.8	29.7	-77.2	9.3
2026-01-28 00:24:13.669470	148.1	29.5	-77.4	8.8
2026-01-28 00:24:14.793796	148.3	29.4	-77.4	9.5
2026-01-28 00:24:15.916404	148.6	29.2	-77.2	9.8
2026-01-28 00:24:17.038212	148.8	29.1	-77.1	10.0
2026-01-28 00:24:18.161812	149.1	28.9	-77.0	9.4
2026-01-28 00:24:19.285786	149.3	28.7	-77.0	9.1
2026-01-28 00:24:20.409642	149.5	28.6	-77.0	9.2
2026-01-28 00:24:21.533093	149.8	28.4	-76.8	9.5
2026-01-28 00:24:22.657617	150.0	28.3	-77.4	9.2
2026-01-28 00:24:23.782894	150.3	28.1	-77.1	9.6
2026-01-28 00:24:24.909008	150.5	27.9	-77.3	9.1
2026-01-28 00:24:26.034393	150.7	27.8	-77.3	8.9
2026-01-28 00:24:27.157334	150.9	27.6	-77.3	9.0
2026-01-28 00:24:28.281802	151.2	27.5	-77.3	9.2
2026-01-28 00:24:29.404411	151.4	27.3	-77.2	8.8
2026-01-28 00:24:30.528921	151.6	27.2	-77.4	9.5
2026-01-28 00:24:31.653187	151.8	27.0	-77.4	8.8
2026-01-28 00:24:32.775804	152.1	26.9	-77.1	8.9
2026-01-28 00:24:33.899964	152.3	26.7	-77.5	8.9
2026-01-28 00:24:35.026968	152.5	26.5	-77.2	9.2
2026-01-28 00:24:36.148642	152.7	26.4	-77.3	9.0
2026-01-28 00:24:37.273246	152.9	26.2	-77.2	8.4
2026-01-28 00:24:38.398346	153.1	26.1	-77.2	9.0
2026-01-28 00:24:39.522441	153.3	25.9	-77.1	9.1
2026-01-28 00:24:40.645783	153.5	25.8	-77.2	7.9
2026-01-28 00:24:41.769803	153.7	25.6	-77.0	8.4
2026-01-28 00:24:42.894286	153.9	25.5	-76.9	9.2
2026-01-28 00:24:44.017987	154.1	25.3	-77.1	9.4
2026-01-28 00:24:45.140524	154.3	25.2	-77.2	9.0
2026-01-28 00:24:46.264574	154.5	25.0	-77.0	9.4
2026-01-28 00:24:47.388005	154.7	24.9	-76.9	8.7
2026-01-28 00:24:48.512652	154.9	24.7	-76.7	8.9
2026-01-28 00:24:49.635658	155.1	24.6	-76.9	9.3
2026-01-28 00:24:50.760276	155.3	24.4	-77.3	8.8
2026-01-28 00:24:51.885191	155.4	24.3	-77.1	8.7
2026-01-28 00:24:53.010606	155.6	24.1	-77.3	9.1
2026-01-28 00:24:54.133679	155.8	24.0	-77.2	8.6
2026-01-28 00:24:55.258516	156.0	23.9	-77.1	9.7
2026-01-28 00:24:56.380304	156.2	23.7	-77.0	9.4
2026-01-28 00:24:57.507113	156.3	23.6	-76.8	10.3
2026-01-28 00:24:58.630202	156.5	23.4	-76.9	9.0
2026-01-28 00:24:59.754551	156.7	23.3	-77.0	9.7
2026-01-28 00:25:00.878321	156.9	23.1	-77.3	9.1
2026-01-28 00:25:02.001706	157.0	23.0	-77.1	9.3
2026-01-28 00:25:03.125809	157.2	22.9	-77.1	9.8
2026-01-28 00:25:04.248568	157.4	22.7	-77.3	9.8
2026-01-28 00:25:05.372950	157.5	22.6	-77.3	9.4
2026-01-28 00:25:06.495753	157.7	22.4	-77.5	10.4
2026-01-28 00:25:07.620665	157.9	22.3	-77.2	9.8
2026-01-28 00:25:08.744358	158.0	22.2	-77.1	9.8
2026-01-28 00:25:09.866056	158.2	22.0	-77.5	10.2
2026-01-28 00:25:10.988945	158.4	21.9	-77.5	9.6
2026-01-28 00:25:12.111622	158.5	21.7	-77.7	10.0
2026-01-28 00:25:13.237602	158.7	21.6	-77.5	9.7
2026-01-28 00:25:14.359944	158.8	21.5	-77.8	9.3
2026-01-28 00:25:15.483159	159.0	21.3	-77.6	10.1
2026-01-28 00:25:16.606936	159.1	21.2	-77.7	9.6
2026-01-28 00:25:17.730718	159.3	21.1	-77.9	9.5
2026-01-28 00:25:18.852515	159.4	20.9	-77.8	9.4
2026-01-28 00:25:19.974675	159.6	20.8	-77.7	10.2
2026-01-28 00:25:21.099157	159.7	20.7	-77.8	10.5
2026-01-28 00:25:22.222404	159.9	20.5	-77.7	9.4
2026-01-28 00:25:23.346187	160.0	20.4	-77.9	10.2
2026-01-28 00:25:24.469039	160.2	20.3	-77.7	8.8
2026-01-28 00:25:25.592228	160.3	20.1	-78.1	9.9
2026-01-28 00:25:26.715805	160.4	20.0	-78.1	10.6
2026-01-28 00:25:27.838651	160.6	19.9	-77.7	10.2
2026-01-28 00:25:28.964656	160.7	19.8	-77.9	10.4
2026-01-28 00:25:30.088588	160.9	19.6	-77.9	10.0
2026-01-28 00:25:31.213535	161.0	19.5	-78.0	10.0
2026-01-28 00:25:32.338602	161.1	19.4	-78.0	9.6
2026-01-28 00:25:33.464442	161.3	19.2	-78.2	9.9
2026-01-28 00:25:34.588586	161.4	19.1	-77.8	9.9
2026-01-28 00:25:35.711695	161.5	19.0	-77.5	9.1
2026-01-28 00:25:36.833817	161.7	18.9	-78.1	10.4
2026-01-28 00:25:37.959189	161.8	18.7	-78.1	9.8
2026-01-28 00:25:39.084658	161.9	18.6	-78.1	10.1
2026-01-28 00:25:40.212267	162.1	18.5	-78.0	8.4
2026-01-28 00:25:41.336199	162.2	18.4	-78.1	8.7
2026-01-28 00:25:42.459645	162.3	18.2	-78.0	10.2
2026-01-28 00:25:43.581887	162.4	18.1	-78.1	8.2
2026-01-28 00:25:44.706429	162.6	18.0	-78.1	7.5
2026-01-28 00:25:45.828993	162.7	17.9	-77.9	8.4
2026-01-28 00:25:46.954069	162.8	17.8	-78.6	9.9
2026-01-28 00:25:48.078696	162.9	17.6	-78.3	9.2
2026-01-28 00:25:49.203748	163.0	17.5	-78.4	9.0
2026-01-28 00:25:50.327101	163.2	17.4	-78.1	9.6
2026-01-28 00:25:51.450343	163.3	17.3	-78.3	9.4
2026-01-28 00:25:52.576348	163.4	17.2	-78.2	8.5
2026-01-28 00:25:53.702306	163.5	17.0	-78.4	6.8
2026-01-28 00:25:54.824667	163.6	16.9	-78.1	9.0
2026-01-28 00:25:55.947940	163.8	16.8	-78.5	7.1
2026-01-28 00:25:57.070610	163.9	16.7	-78.0	6.9
2026-01-28 00:25:58.194037	164.0	16.6	-78.1	9.0
2026-01-28 00:25:59.317740	164.1	16.5	-78.5	8.2
2026-01-28 00:26:00.442185	164.2	16.3	-78.4	8.8
2026-01-28 00:26:01.565176	164.3	16.2	-78.3	9.0
2026-01-28 00:26:02.688012	164.4	16.1	-78.3	8.9
2026-01-28 00:26:03.811251	164.5	16.0	-78.2	8.3
2026-01-28 00:26:04.934558	164.6	15.9	-78.3	8.5
2026-01-28 00:26:06.059999	164.8	15.8	-77.9	8.6
2026-01-28 00:26:07.185129	164.9	15.7	-78.4	9.2
2026-01-28 00:26:08.311253	165.0	15.5	-78.2	9.3
2026-01-28 00:26:09.434629	165.1	15.4	-78.6	9.3
2026-01-28 00:26:10.556988	165.2	15.3	-78.3	8.9
2026-01-28 00:26:11.680897	165.3	15.2	-78.3	8.8
2026-01-28 00:26:12.806118	165.4	15.1	-78.4	9.0
2026-01-28 00:26:13.928628	165.5	15.0	-78.7	8.0
2026-01-28 00:26:15.052904	165.6	14.9	-78.5	9.6
2026-01-28 00:26:16.178278	165.7	14.8	-78.3	9.2
2026-01-28 00:26:17.300128	165.8	14.7	-78.6	8.9
2026-01-28 00:26:18.422865	165.9	14.5	-78.5	9.2
2026-01-28 00:26:19.546636	166.0	14.4	-78.7	9.6
2026-01-28 00:26:20.672258	166.1	14.3	-78.6	9.0
2026-01-28 00:26:21.795853	166.2	14.2	-78.2	9.5
2026-01-28 00:26:22.920510	166.3	14.1	-78.6	9.0
2026-01-28 00:26:24.045128	166.4	14.0	-78.7	9.4
2026-01-28 00:26:25.169732	166.5	13.9	-78.7	9.1
2026-01-28 00:26:26.294947	166.6	13.8	-78.7	9.0
2026-01-28 00:26:27.419102	166.7	13.7	-78.6	9.3
2026-01-28 00:26:28.542592	166.8	13.6	-78.7	9.7
2026-01-28 00:26:29.664329	166.8	13.5	-78.7	9.0
2026-01-28 00:26:30.789516	166.9	13.4	-78.5	9.5
2026-01-28 00:26:31.913036	167.0	13.3	-79.3	8.5
2026-01-28 00:26:33.036429	167.1	13.2	-78.8	8.9
2026-01-28 00:26:34.162271	167.2	13.1	-78.7	9.3
2026-01-28 00:26:35.287843	167.3	13.0	-79.2	8.6
2026-01-28 00:26:36.408521	167.4	12.9	-78.7	8.5
2026-01-28 00:26:37.532922	167.5	12.8	-78.8	9.1
2026-01-28 00:26:38.657097	167.6	12.7	-78.7	8.9
2026-01-28 00:26:39.779493	167.7	12.6	-79.0	8.5
2026-01-28 00:26:40.904500	167.7	12.5	-78.9	8.5
2026-01-28 00:26:42.030297	167.8	12.4	-79.1	8.3
2026-01-28 00:26:43.153504	167.9	12.3	-78.4	9.5
2026-01-28 00:26:44.276716	168.0	12.2	-79.2	7.9
2026-01-28 00:26:45.402293	168.1	12.1	-78.9	8.5
2026-01-28 00:26:46.526912	168.2	12.0	-78.5	9.0
2026-01-28 00:26:47.651707	168.3	11.9	-78.8	8.0
2026-01-28 00:26:48.776888	168.3	11.8	-79.2	7.8
2026-01-28 00:26:49.902556	168.4	11.7	-78.5	8.9
2026-01-28 00:26:51.025788	168.5	11.6	-79.3	8.7
2026-01-28 00:26:52.148608	168.6	11.5	-79.3	7.2
2026-01-28 00:26:53.275994	168.7	11.4	-79.0	7.9
2026-01-28 00:26:54.399779	168.7	11.3	-78.5	8.0
2026-01-28 00:26:55.524838	168.8	11.2	-79.5	5.2
2026-01-28 00:26:56.647266	168.9	11.1	-78.3	8.1
2026-01-28 00:26:57.771883	169.0	11.0	-78.8	9.3
2026-01-28 00:26:58.896967	169.1	10.9	-79.3	7.5
2026-01-28 00:27:00.019995	169.1	10.8	-80.8	1.9
2026-01-28 00:27:01.142411	169.2	10.7	-80.8	0.0
2026-01-28 00:27:02.266303	169.3	10.6	-82.5	0.0
2026-01-28 00:27:03.388661	169.4	10.5	-82.8	0.0
2026-01-28 00:27:04.514323	169.4	10.4	-82.7	0.0
2026-01-28 00:27:05.636849	169.5	10.3	-83.7	0.0
2026-01-28 00:27:06.760432	169.6	10.2	-85.0	0.0
2026-01-28 00:27:07.884466	169.7	10.1	-85.8	0.0
2026-01-28 00:27:09.006986	169.7	10.0	-86.2	0.0
#Closed at: 2026-01-28 00:16:52.627031