passes_logs/2026/01/28/R2.0S_Moscow/R2.0S_Moscow__20260128_045043_FENGYUN_3E_rec.log

#Pass ID: 20260128_045043_FENGYUN 3E
#Satellite: FENGYUN 3E
#Configuration: FENGYUN 3E
#almurnet v.1.7.20251203
#Start time: 2026-01-28 04:50:45

#Version: 2.2.20231116
#Station: R2.0S_Moscow
#Location: 37.707566 lon 55.798166 lat
#TLE: 1 49008U 21062A   26027.61944472  .00000309  00000+0  16619-3 0  9993
#TLE: 2 49008  98.7500  32.6009 0002501 114.4803 245.6635 14.19888604236631

#Time	Az	El	Level	Level2	SNR	BER	BlckErr	Temp	State	Recorded	gain1	gain2
2026-01-28 04:50:45.65	12.56	2.12	-40.5	-51.3	3.8	8.46e-01	0	53	0	0	52	11846
2026-01-28 04:50:46.65	12.53	2.19	-40.5	-51.3	3.8	8.46e-01	0	53	104	0	52	11859
2026-01-28 04:50:47.66	12.49	2.25	-40.5	-51.3	3.8	8.46e-01	0	53	104	0	52	11889
2026-01-28 04:50:48.67	12.46	2.31	-40.5	-51.3	3.8	8.46e-01	0	53	104	0	52	11839
2026-01-28 04:50:49.68	12.42	2.38	-40.5	-51.3	3.8	8.45e-01	0	53	104	0	52	11857
2026-01-28 04:50:50.69	12.39	2.44	-40.5	-51.3	3.8	8.45e-01	0	53	104	0	52	11876
2026-01-28 04:50:51.70	12.35	2.50	-40.5	-51.3	3.8	8.47e-01	0	53	104	0	52	11890
2026-01-28 04:50:52.71	12.32	2.57	-40.5	-51.3	3.8	8.46e-01	0	53	104	0	52	11882
2026-01-28 04:50:53.72	12.28	2.63	-40.5	-51.3	3.8	8.47e-01	0	53	104	0	52	11894
2026-01-28 04:50:54.73	12.24	2.69	-40.5	-51.3	3.8	8.45e-01	0	54	104	0	52	11898
2026-01-28 04:50:55.75	12.21	2.76	-40.5	-51.3	3.8	8.46e-01	0	53	104	0	52	11870
2026-01-28 04:50:56.76	12.17	2.82	-40.5	-51.3	3.8	8.45e-01	0	54	104	0	52	11870
2026-01-28 04:50:57.77	12.13	2.89	-40.5	-51.3	3.8	8.45e-01	0	54	104	0	52	11866
2026-01-28 04:50:58.78	12.10	2.95	-40.5	-51.3	3.8	8.45e-01	0	54	104	0	52	11847
2026-01-28 04:50:59.79	12.06	3.01	-40.5	-51.3	3.8	8.46e-01	0	54	104	0	52	11844
2026-01-28 04:51:00.80	12.02	3.08	-40.5	-51.3	3.8	8.46e-01	0	54	104	0	52	11857
2026-01-28 04:51:01.81	11.98	3.14	-40.6	-51.3	3.8	8.45e-01	0	54	104	0	51	12647
2026-01-28 04:51:02.82	11.94	3.21	-40.6	-51.4	3.8	8.45e-01	0	54	104	0	51	12713
2026-01-28 04:51:03.83	11.91	3.27	-40.6	-51.4	3.8	8.46e-01	0	54	104	0	51	12665
2026-01-28 04:51:04.84	11.87	3.34	-40.6	-51.3	3.8	8.46e-01	0	54	104	0	51	12641
2026-01-28 04:51:05.85	11.83	3.40	-40.6	-51.4	3.8	8.46e-01	0	54	104	0	51	12672
2026-01-28 04:51:06.86	11.79	3.47	-40.6	-51.4	3.8	8.46e-01	0	54	104	0	51	12725
2026-01-28 04:51:07.87	11.75	3.53	-40.6	-51.3	3.8	8.45e-01	0	54	104	0	51	12661
2026-01-28 04:51:08.88	11.71	3.60	-40.5	-51.3	3.8	8.47e-01	0	54	104	0	51	12660
2026-01-28 04:51:09.89	11.67	3.67	-40.6	-51.3	3.8	8.46e-01	0	55	104	0	51	12656
2026-01-28 04:51:10.90	11.64	3.73	-40.5	-51.3	3.8	8.46e-01	0	55	104	0	51	12592
2026-01-28 04:51:11.91	11.60	3.80	-40.5	-51.3	3.8	8.46e-01	0	55	104	0	51	12545
2026-01-28 04:51:12.92	11.56	3.86	-40.5	-51.3	3.8	8.47e-01	0	55	104	0	51	12573
2026-01-28 04:51:13.93	11.52	3.93	-40.6	-51.3	3.8	8.46e-01	0	55	104	0	51	12664
2026-01-28 04:51:14.94	11.48	4.00	-40.6	-51.3	3.8	8.46e-01	0	55	104	0	51	12620
2026-01-28 04:51:15.95	11.44	4.06	-40.6	-51.3	3.8	8.46e-01	0	55	104	0	51	12652
2026-01-28 04:51:16.97	11.39	4.13	-40.6	-51.3	3.8	8.46e-01	0	55	104	0	51	12580
2026-01-28 04:51:17.97	11.35	4.20	-40.6	-51.4	3.8	8.46e-01	0	55	104	0	51	12678
2026-01-28 04:51:18.98	11.31	4.26	-40.6	-51.3	3.8	8.46e-01	0	55	104	0	51	12606
2026-01-28 04:51:20.00	11.27	4.33	-40.6	-51.3	3.8	8.45e-01	0	55	104	0	51	12652
2026-01-28 04:51:21.01	11.23	4.40	-40.6	-51.3	3.8	8.46e-01	0	55	104	0	51	12619
2026-01-28 04:51:22.02	11.19	4.47	-40.5	-51.3	3.8	8.46e-01	0	56	104	0	51	12580
2026-01-28 04:51:23.03	11.15	4.53	-40.6	-51.3	3.8	8.47e-01	0	55	104	0	51	12581
2026-01-28 04:51:24.04	11.10	4.60	-40.5	-51.3	3.8	8.46e-01	0	56	104	0	51	12600
2026-01-28 04:51:25.05	11.06	4.67	-40.6	-51.3	3.8	8.46e-01	0	56	104	0	51	12623
2026-01-28 04:51:26.06	11.02	4.74	-40.5	-51.3	3.8	8.47e-01	0	56	104	0	51	12556
2026-01-28 04:51:27.07	10.98	4.81	-40.5	-51.3	3.8	8.46e-01	0	56	104	0	51	12578
2026-01-28 04:51:28.08	10.93	4.88	-40.5	-51.3	3.8	8.45e-01	0	56	104	0	51	12629
2026-01-28 04:51:29.09	10.89	4.94	-40.5	-51.3	3.8	8.47e-01	0	56	104	0	51	12561
2026-01-28 04:51:30.10	10.85	5.01	-40.5	-51.3	3.8	8.45e-01	0	56	104	0	51	12606
2026-01-28 04:51:31.11	10.80	5.08	-40.5	-51.3	3.8	8.46e-01	0	56	104	0	51	12526
2026-01-28 04:51:32.12	10.76	5.15	-40.5	-51.3	3.8	8.46e-01	0	56	104	0	51	12562
2026-01-28 04:51:33.13	10.72	5.22	-40.5	-51.3	3.8	8.46e-01	0	56	104	0	51	12568
2026-01-28 04:51:34.14	10.67	5.29	-40.5	-51.3	3.8	8.47e-01	0	56	104	0	51	12537
2026-01-28 04:51:35.15	10.63	5.36	-40.5	-51.3	3.8	8.47e-01	0	56	104	0	51	12583
2026-01-28 04:51:36.16	10.58	5.43	-40.5	-51.3	3.8	8.45e-01	0	56	104	0	51	12592
2026-01-28 04:51:37.17	10.54	5.50	-40.5	-51.3	3.8	8.46e-01	0	57	104	0	51	12576
2026-01-28 04:51:38.18	10.49	5.57	-40.6	-51.3	3.8	8.45e-01	0	56	104	0	51	12613
2026-01-28 04:51:39.19	10.45	5.64	-40.5	-51.3	3.8	8.47e-01	0	56	104	0	51	12606
2026-01-28 04:51:40.20	10.40	5.71	-40.6	-51.3	3.8	8.46e-01	0	56	104	0	51	12586
2026-01-28 04:51:41.21	10.36	5.78	-40.5	-51.3	3.8	8.46e-01	0	56	104	0	51	12648
2026-01-28 04:51:42.22	10.31	5.85	-40.6	-51.3	3.8	8.46e-01	0	57	104	0	51	12621
2026-01-28 04:51:43.23	10.26	5.92	-40.5	-51.3	3.8	8.45e-01	0	56	104	0	51	12586
2026-01-28 04:51:44.25	10.22	5.99	-40.5	-51.3	3.8	8.46e-01	0	57	104	0	51	12625
2026-01-28 04:51:45.26	10.17	6.07	-40.5	-51.3	3.8	8.45e-01	0	57	104	0	51	12596
2026-01-28 04:51:46.27	10.12	6.14	-40.5	-51.3	3.8	8.46e-01	0	57	104	0	51	12654
2026-01-28 04:51:47.28	10.07	6.21	-40.5	-51.3	3.8	8.46e-01	0	57	104	0	51	12629
2026-01-28 04:51:48.29	10.03	6.28	-40.5	-51.3	3.8	8.46e-01	0	57	104	0	51	12563
2026-01-28 04:51:49.30	9.98	6.35	-40.5	-51.3	3.8	8.46e-01	0	57	104	0	51	12602
2026-01-28 04:51:50.31	9.93	6.43	-40.5	-51.3	3.8	8.46e-01	0	57	104	0	51	12573
2026-01-28 04:51:51.32	9.88	6.50	-40.5	-51.3	3.8	8.47e-01	0	57	104	0	51	12658
2026-01-28 04:51:52.33	9.83	6.57	-40.6	-51.4	3.8	8.46e-01	0	57	104	0	51	12710
2026-01-28 04:51:53.34	9.78	6.64	-40.6	-51.3	3.8	8.46e-01	0	57	104	0	51	12613
2026-01-28 04:51:54.35	9.74	6.72	-40.5	-51.3	3.8	8.46e-01	0	57	104	0	51	12591
2026-01-28 04:51:55.36	9.69	6.79	-40.5	-51.3	3.8	8.46e-01	0	57	104	0	51	12622
2026-01-28 04:51:56.37	9.64	6.86	-40.5	-51.3	3.8	8.47e-01	0	57	104	0	51	12642
2026-01-28 04:51:57.38	9.59	6.94	-40.5	-51.3	3.8	8.46e-01	0	57	104	0	51	12611
2026-01-28 04:51:58.39	9.54	7.01	-40.6	-51.3	3.8	8.45e-01	0	57	104	0	51	12619
2026-01-28 04:51:59.40	9.49	7.08	-40.5	-51.3	3.8	8.47e-01	0	57	104	0	51	12662
2026-01-28 04:52:00.41	9.43	7.16	-40.5	-51.3	3.8	8.45e-01	0	58	104	0	51	12631
2026-01-28 04:52:01.42	9.38	7.23	-40.5	-51.3	3.8	8.46e-01	0	58	104	0	51	12605
2026-01-28 04:52:02.43	9.33	7.31	-40.5	-51.3	3.8	8.46e-01	0	58	104	0	51	12651
2026-01-28 04:52:03.44	9.28	7.38	-40.5	-51.3	3.8	8.47e-01	0	58	104	0	51	12622
2026-01-28 04:52:04.45	9.23	7.46	-40.5	-51.3	3.8	8.45e-01	0	58	104	0	51	12581
2026-01-28 04:52:05.47	9.18	7.53	-40.6	-51.4	3.8	8.45e-01	0	58	104	0	51	12667
2026-01-28 04:52:06.48	9.12	7.61	-40.5	-51.3	3.8	8.45e-01	0	58	104	0	51	12597
2026-01-28 04:52:07.49	9.07	7.68	-40.5	-51.3	3.8	8.47e-01	0	58	104	0	51	12632
2026-01-28 04:52:08.50	9.02	7.76	-40.5	-51.3	3.8	8.47e-01	0	58	104	0	51	12645
2026-01-28 04:52:09.51	8.96	7.84	-40.5	-51.4	3.8	8.45e-01	0	58	104	0	51	12691
2026-01-28 04:52:10.52	8.91	7.91	-40.5	-51.3	3.8	8.45e-01	0	58	104	0	51	12657
2026-01-28 04:52:11.53	8.86	7.99	-40.5	-51.4	3.8	8.46e-01	0	58	104	0	51	12699
2026-01-28 04:52:12.54	8.80	8.06	-40.5	-51.3	3.8	8.47e-01	0	58	104	0	51	12593
2026-01-28 04:52:13.55	8.75	8.14	-40.5	-51.3	3.8	8.45e-01	0	58	104	0	51	12550
2026-01-28 04:52:14.56	8.69	8.22	-40.6	-51.4	3.8	8.46e-01	0	58	104	0	51	12758
2026-01-28 04:52:15.57	8.64	8.29	-40.7	-51.5	3.8	8.48e-01	0	58	104	0	51	12833
2026-01-28 04:52:16.58	8.58	8.37	-40.6	-51.3	3.8	8.46e-01	0	58	104	0	51	12650
2026-01-28 04:52:17.59	8.52	8.45	-40.5	-51.2	3.8	8.46e-01	0	58	104	0	51	12492
2026-01-28 04:52:18.60	8.47	8.53	-40.6	-51.3	3.8	8.46e-01	0	58	104	0	51	12657
2026-01-28 04:52:19.61	8.41	8.61	-40.6	-51.4	3.8	8.46e-01	0	58	104	0	51	12715
2026-01-28 04:52:20.62	8.35	8.68	-40.5	-51.3	3.8	8.46e-01	0	58	104	0	51	12541
2026-01-28 04:52:21.63	8.30	8.76	-40.5	-51.2	3.8	8.46e-01	0	58	104	0	51	12499
2026-01-28 04:52:22.64	8.24	8.84	-40.5	-51.3	3.8	8.46e-01	0	58	104	0	51	12572
2026-01-28 04:52:23.64	8.18	8.92	-40.6	-51.3	3.8	8.47e-01	0	58	104	0	51	12630
2026-01-28 04:52:24.66	8.12	9.00	-40.4	-51.2	3.8	8.45e-01	0	58	104	0	51	12458
2026-01-28 04:52:25.67	8.06	9.08	-40.5	-51.3	3.8	8.46e-01	0	58	104	0	51	12587
2026-01-28 04:52:26.67	8.01	9.16	-40.5	-51.2	3.8	8.47e-01	0	58	104	0	51	12493
2026-01-28 04:52:27.68	7.95	9.24	-40.6	-51.4	3.8	8.45e-01	0	59	104	0	51	12726
2026-01-28 04:52:28.70	7.89	9.32	-40.4	-51.2	3.8	8.46e-01	0	58	104	0	51	12429
2026-01-28 04:52:29.71	7.83	9.40	-40.6	-51.4	3.8	8.46e-01	0	58	104	0	51	12676
2026-01-28 04:52:30.72	7.77	9.48	-40.4	-51.2	3.8	8.47e-01	0	59	104	0	51	12448
2026-01-28 04:52:31.73	7.71	9.56	-40.7	-51.4	3.8	8.46e-01	0	59	104	0	51	12781
2026-01-28 04:52:32.74	7.64	9.64	-40.4	-51.2	3.8	8.46e-01	0	59	104	0	51	12454
2026-01-28 04:52:33.75	7.58	9.72	-40.7	-51.4	3.8	8.45e-01	0	59	104	0	51	12789
2026-01-28 04:52:34.75	7.52	9.80	-40.5	-51.2	3.8	8.46e-01	0	59	104	0	51	12508
2026-01-28 04:52:35.77	7.46	9.88	-40.8	-51.6	3.8	8.48e-01	0	59	104	0	51	12970
2026-01-28 04:52:36.78	7.40	9.96	-40.4	-51.2	3.8	8.46e-01	0	59	104	0	51	12381
2026-01-28 04:52:37.79	7.33	10.05	-40.3	-51.1	3.8	8.47e-01	0	59	104	0	51	12253
2026-01-28 04:52:38.80	7.27	10.13	-40.3	-51.1	3.8	8.47e-01	0	59	104	0	51	12248
2026-01-28 04:52:39.80	7.21	10.21	-40.3	-51.1	3.8	8.45e-01	0	59	104	0	51	12236
2026-01-28 04:52:40.81	7.14	10.29	-40.3	-51.1	3.8	8.46e-01	0	59	104	0	51	12317
2026-01-28 04:52:41.82	7.08	10.38	-40.4	-51.2	3.8	8.46e-01	0	59	104	0	51	12377
2026-01-28 04:52:42.83	7.01	10.46	-41.2	-52.0	3.8	8.46e-01	0	59	104	0	51	13578
2026-01-28 04:52:43.84	6.95	10.54	-40.8	-51.6	3.8	8.44e-01	0	59	104	0	52	12276
2026-01-28 04:52:44.85	6.88	10.63	-40.4	-51.1	3.8	8.47e-01	0	59	104	0	51	12374
2026-01-28 04:52:45.86	6.82	10.71	-40.5	-51.3	3.8	8.46e-01	0	59	104	0	51	12654
2026-01-28 04:52:46.87	6.75	10.80	-40.5	-51.3	3.8	8.45e-01	0	59	104	0	51	12609
2026-01-28 04:52:47.88	6.68	10.88	-40.5	-51.3	3.8	8.45e-01	0	59	104	0	51	12610
2026-01-28 04:52:48.89	6.62	10.96	-40.8	-51.5	3.8	8.45e-01	0	59	104	0	51	12871
2026-01-28 04:52:49.90	6.55	11.05	-40.7	-51.3	3.8	8.46e-01	0	59	104	0	51	12596
2026-01-28 04:52:50.91	6.48	11.13	-41.8	-50.7	3.8	8.46e-01	0	59	104	0	53	10498
2026-01-28 04:52:51.91	6.41	11.22	-42.5	-50.8	4.1	8.40e-01	0	59	0	0	54	9996
2026-01-28 04:52:52.92	6.35	11.31	-41.3	-51.2	3.8	8.45e-01	0	59	104	0	53	11107
2026-01-28 04:52:53.93	6.28	11.39	-42.2	-50.3	4.1	8.41e-01	0	59	104	0	53	9992
2026-01-28 04:52:54.94	6.21	11.48	-42.0	-49.5	4.3	8.34e-01	0	59	0	0	53	9131
2026-01-28 04:52:55.95	6.14	11.56	-41.8	-48.5	4.7	8.07e-01	0	60	0	0	53	8127
2026-01-28 04:52:56.96	6.07	11.65	-41.4	-47.4	5.3	7.53e-01	0	59	0	0	53	7173
2026-01-28 04:52:57.97	5.99	11.74	-41.2	-46.5	5.9	4.47e-01	0	59	0	1048576	53	6470
2026-01-28 04:52:58.98	5.92	11.83	-40.9	-45.7	6.5	2.64e-01	0	59	0	8388608	52	6239
2026-01-28 04:52:59.99	5.85	11.91	-42.1	-48.5	5.0	4.97e-01	0	59	0	13631488	53	8119
2026-01-28 04:53:01.00	5.78	12.00	-40.6	-44.6	7.9	1.24e-01	0	59	0	18874368	52	5475
2026-01-28 04:53:02.01	5.71	12.09	-41.0	-48.7	4.2	5.49e-01	0	60	0	24117248	51	9357
2026-01-28 04:53:03.02	5.63	12.18	-42.4	-49.0	4.9	3.56e-01	0	60	0	28311552	54	8120
2026-01-28 04:53:04.03	5.56	12.27	-39.5	-43.8	7.3	2.54e-02	0	60	0	34603008	48	6328
2026-01-28 04:53:05.04	5.48	12.35	-38.1	-40.5	11.7	8.08e-04	0	59	0	41943040	47	4580
2026-01-28 04:53:06.05	5.41	12.44	-37.4	-39.7	12.5	1.66e-04	0	59	0	49283072	45	4654
2026-01-28 04:53:07.06	5.33	12.53	-36.7	-38.7	13.5	1.02e-05	0	60	0	56623104	44	4403
2026-01-28 04:53:08.07	5.26	12.62	-36.1	-37.9	14.1	2.20e-06	0	60	0	63963136	43	4249
2026-01-28 04:53:09.08	5.18	12.71	-36.4	-38.3	13.8	1.10e-06	0	60	0	71303168	43	4443
2026-01-28 04:53:10.09	5.11	12.80	-36.7	-38.7	13.4	1.02e-05	0	60	0	78643200	43	4659
2026-01-28 04:53:11.10	5.03	12.89	-37.1	-39.2	12.9	2.40e-05	0	60	0	85983232	43	4979
2026-01-28 04:53:12.11	4.95	12.99	-37.6	-39.8	12.4	9.72e-05	0	60	0	93323264	44	5029
2026-01-28 04:53:13.12	4.87	13.08	-37.9	-40.2	12.0	1.86e-04	0	59	0	100663296	45	4973
2026-01-28 04:53:14.13	4.79	13.17	-37.9	-40.2	12.1	2.93e-04	0	60	0	108003328	45	4974
2026-01-28 04:53:15.14	4.71	13.26	-37.9	-40.2	12.2	2.48e-04	0	60	0	115343360	45	4954
2026-01-28 04:53:16.15	4.63	13.35	-37.5	-39.5	13.2	2.51e-05	0	60	0	122683392	45	4565
2026-01-28 04:53:17.16	4.55	13.44	-37.3	-39.1	13.7	2.20e-06	0	60	0	130023424	45	4390
2026-01-28 04:53:18.17	4.47	13.54	-37.1	-38.9	14.1	3.40e-06	0	60	0	137363456	45	4260
2026-01-28 04:53:19.19	4.39	13.63	-36.7	-38.4	14.6	0.00e+00	0	60	0	143654912	44	4256
2026-01-28 04:53:20.20	4.31	13.72	-36.7	-38.4	14.6	0.00e+00	0	60	0	150994944	44	4270
2026-01-28 04:53:21.21	4.23	13.82	-36.8	-38.5	14.7	0.00e+00	0	60	0	158334976	44	4300
2026-01-28 04:53:22.22	4.14	13.91	-36.8	-38.4	14.9	0.00e+00	0	60	0	165675008	44	4266
2026-01-28 04:53:23.23	4.06	14.01	-37.1	-38.8	14.5	0.00e+00	0	60	0	173015040	44	4490
2026-01-28 04:53:24.24	3.98	14.10	-37.4	-39.2	14.2	1.10e-06	0	60	0	180355072	44	4661
2026-01-28 04:53:25.25	3.89	14.19	-37.4	-39.2	14.3	0.00e+00	0	60	0	187695104	44	4679
2026-01-28 04:53:26.26	3.81	14.29	-37.5	-39.2	14.2	0.00e+00	0	60	0	195035136	44	4700
2026-01-28 04:53:27.27	3.72	14.38	-37.5	-39.2	14.2	0.00e+00	0	60	0	202375168	44	4702
2026-01-28 04:53:28.28	3.64	14.48	-37.3	-39.1	14.5	0.00e+00	0	60	0	209715200	44	4602
2026-01-28 04:53:29.29	3.55	14.58	-37.2	-38.9	14.7	0.00e+00	0	60	0	217055232	44	4526
2026-01-28 04:53:30.30	3.46	14.67	-37.0	-38.6	15.0	0.00e+00	0	60	0	224395264	44	4374
2026-01-28 04:53:31.31	3.37	14.77	-37.1	-38.8	14.9	0.00e+00	0	60	0	231735296	44	4456
2026-01-28 04:53:32.32	3.28	14.87	-37.5	-39.2	14.5	1.10e-06	0	60	0	239075328	44	4678
2026-01-28 04:53:33.34	3.19	14.96	-37.5	-39.2	14.6	0.00e+00	0	60	0	246415360	44	4682
2026-01-28 04:53:34.35	3.10	15.06	-37.4	-39.0	14.9	0.00e+00	0	60	0	253755392	44	4586
2026-01-28 04:53:35.36	3.01	15.16	-37.1	-38.7	15.3	1.10e-06	0	60	0	261095424	44	4400
2026-01-28 04:53:36.37	2.92	15.26	-37.3	-38.9	15.1	0.00e+00	0	60	0	268435456	44	4543
2026-01-28 04:53:37.38	2.83	15.36	-37.6	-39.2	14.9	0.00e+00	0	60	0	275775488	44	4689
2026-01-28 04:53:38.39	2.74	15.46	-37.4	-39.0	15.0	1.10e-06	0	60	0	283115520	44	4594
2026-01-28 04:53:39.40	2.65	15.56	-37.4	-39.0	15.2	0.00e+00	0	60	0	289406976	44	4586
2026-01-28 04:53:40.41	2.55	15.65	-37.8	-39.4	14.7	0.00e+00	0	60	0	297795584	45	4535
2026-01-28 04:53:41.41	2.46	15.75	-37.7	-39.3	15.0	0.00e+00	0	60	0	305135616	45	4468
2026-01-28 04:53:42.43	2.36	15.85	-37.3	-38.9	15.4	0.00e+00	0	60	0	311427072	45	4259
2026-01-28 04:53:43.44	2.27	15.96	-37.3	-38.8	15.5	0.00e+00	0	60	0	318767104	45	4238
2026-01-28 04:53:44.45	2.17	16.06	-37.3	-38.8	15.5	0.00e+00	0	60	0	326107136	45	4215
2026-01-28 04:53:45.45	2.07	16.16	-37.1	-38.7	15.7	0.00e+00	0	60	0	333447168	45	4147
2026-01-28 04:53:46.46	1.98	16.26	-37.2	-38.7	15.6	0.00e+00	0	60	0	340787200	45	4169
2026-01-28 04:53:47.47	1.88	16.36	-37.2	-38.7	15.7	0.00e+00	0	60	0	348127232	45	4163
2026-01-28 04:53:48.48	1.78	16.46	-37.0	-38.4	15.9	0.00e+00	0	60	0	355467264	44	4278
2026-01-28 04:53:49.49	1.68	16.56	-37.0	-38.4	16.0	0.00e+00	0	61	0	362807296	44	4280
2026-01-28 04:53:50.51	1.58	16.67	-37.1	-38.5	15.9	0.00e+00	0	60	0	370147328	44	4336
2026-01-28 04:53:51.52	1.48	16.77	-36.7	-38.2	16.3	0.00e+00	0	60	0	377487360	44	4148
2026-01-28 04:53:52.53	1.37	16.87	-36.8	-38.2	16.2	0.00e+00	0	60	0	384827392	44	4180
2026-01-28 04:53:53.54	1.27	16.98	-36.7	-38.2	16.3	0.00e+00	0	61	0	392167424	44	4152
2026-01-28 04:53:54.55	1.17	17.08	-36.9	-38.3	16.2	0.00e+00	0	60	0	399507456	44	4221
2026-01-28 04:53:55.56	1.06	17.19	-36.9	-38.3	16.1	0.00e+00	0	60	0	406847488	44	4234
2026-01-28 04:53:56.57	0.96	17.29	-36.9	-38.3	16.2	0.00e+00	0	60	0	414187520	44	4239
2026-01-28 04:53:57.57	0.85	17.40	-36.7	-38.1	16.4	0.00e+00	0	60	0	421527552	44	4123
2026-01-28 04:53:58.58	0.75	17.50	-36.6	-38.0	16.6	0.00e+00	0	60	0	428867584	44	4069
2026-01-28 04:53:59.59	0.64	17.61	-36.6	-37.9	16.6	0.00e+00	0	61	0	436207616	44	4050
2026-01-28 04:54:00.60	0.53	17.71	-36.7	-38.0	16.5	0.00e+00	0	61	0	443547648	44	4090
2026-01-28 04:54:01.61	0.42	17.82	-36.6	-38.0	16.6	0.00e+00	0	60	0	450887680	44	4067
2026-01-28 04:54:02.62	0.31	17.93	-36.6	-38.0	16.6	0.00e+00	0	61	0	458227712	44	4060
2026-01-28 04:54:03.63	0.20	18.04	-36.6	-37.9	16.6	0.00e+00	0	61	0	464519168	44	4047
2026-01-28 04:54:04.64	0.09	18.14	-36.6	-37.9	16.7	0.00e+00	0	61	0	471859200	44	4047
2026-01-28 04:54:05.65	359.98	18.25	-36.2	-37.5	16.9	0.00e+00	0	60	0	480247808	43	4075
2026-01-28 04:54:06.66	359.87	18.36	-36.3	-37.7	16.8	0.00e+00	0	61	0	486539264	42	4398
2026-01-28 04:54:07.67	359.75	18.47	-36.3	-37.7	16.8	0.00e+00	0	61	0	493879296	42	4404
2026-01-28 04:54:08.68	359.64	18.58	-36.2	-37.5	16.9	0.00e+00	0	60	0	501219328	42	4336
2026-01-28 04:54:09.69	359.52	18.69	-36.2	-37.5	16.9	0.00e+00	0	60	0	508559360	42	4318
2026-01-28 04:54:10.70	359.41	18.80	-36.1	-37.5	17.0	0.00e+00	0	60	0	515899392	42	4293
2026-01-28 04:54:11.71	359.29	18.91	-36.1	-37.5	17.0	0.00e+00	0	61	0	523239424	42	4305
2026-01-28 04:54:12.72	359.17	19.02	-36.0	-37.3	17.1	0.00e+00	0	61	0	530579456	42	4239
2026-01-28 04:54:13.73	359.05	19.13	-36.0	-37.3	17.1	0.00e+00	0	61	0	537919488	42	4205
2026-01-28 04:54:14.74	358.93	19.24	-35.9	-37.1	17.3	0.00e+00	0	61	0	545259520	42	4140
2026-01-28 04:54:15.75	358.81	19.35	-35.8	-37.1	17.4	0.00e+00	0	61	0	552599552	42	4106
2026-01-28 04:54:16.76	358.69	19.47	-35.8	-37.1	17.4	0.00e+00	0	61	0	559939584	41	4342
2026-01-28 04:54:17.78	358.57	19.58	-35.8	-37.1	17.3	0.00e+00	0	60	0	567279616	41	4354
2026-01-28 04:54:18.79	358.45	19.69	-35.8	-37.0	17.3	0.00e+00	0	61	0	574619648	41	4338
2026-01-28 04:54:19.80	358.32	19.81	-35.7	-37.0	17.5	0.00e+00	0	61	0	581959680	41	4292
2026-01-28 04:54:20.81	358.20	19.92	-35.7	-37.0	17.4	0.00e+00	0	61	0	589299712	41	4302
2026-01-28 04:54:21.82	358.07	20.03	-35.8	-37.1	17.2	0.00e+00	0	61	0	596639744	41	4376
2026-01-28 04:54:22.83	357.94	20.15	-36.1	-37.5	16.8	0.00e+00	0	61	0	603979776	41	4570
2026-01-28 04:54:23.84	357.81	20.26	-36.2	-37.5	16.7	0.00e+00	0	61	0	610271232	41	4578
2026-01-28 04:54:24.85	357.68	20.38	-35.9	-37.2	17.0	0.00e+00	0	61	0	618659840	41	4435
2026-01-28 04:54:25.86	357.55	20.49	-35.8	-37.1	17.0	0.00e+00	0	61	0	625999872	41	4382
2026-01-28 04:54:26.87	357.42	20.61	-36.1	-37.4	16.7	0.00e+00	0	61	0	632291328	41	4539
2026-01-28 04:54:27.88	357.29	20.72	-35.9	-37.2	16.9	0.00e+00	0	61	0	639631360	41	4412
2026-01-28 04:54:28.89	357.16	20.84	-35.9	-37.2	16.9	0.00e+00	0	61	0	646971392	41	4425
2026-01-28 04:54:29.90	357.02	20.96	-35.9	-37.3	16.8	0.00e+00	0	61	0	654311424	41	4468
2026-01-28 04:54:30.91	356.89	21.08	-35.9	-37.3	16.9	0.00e+00	0	61	0	661651456	41	4449
2026-01-28 04:54:31.92	356.75	21.19	-35.9	-37.2	17.0	0.00e+00	0	61	0	668991488	41	4437
2026-01-28 04:54:32.93	356.61	21.31	-35.8	-37.1	17.1	0.00e+00	0	61	0	676331520	41	4344
2026-01-28 04:54:33.94	356.47	21.43	-35.7	-37.0	17.2	0.00e+00	0	61	0	683671552	41	4305
2026-01-28 04:54:34.95	356.34	21.55	-35.6	-36.8	17.3	0.00e+00	0	61	0	691011584	41	4242
2026-01-28 04:54:35.95	356.20	21.67	-35.5	-36.7	17.4	0.00e+00	0	61	0	698351616	41	4192
2026-01-28 04:54:36.96	356.05	21.79	-35.5	-36.8	17.3	0.00e+00	0	61	0	705691648	41	4211
2026-01-28 04:54:37.97	355.91	21.91	-35.6	-36.9	17.3	0.00e+00	0	61	0	713031680	41	4252
2026-01-28 04:54:38.98	355.77	22.03	-35.6	-36.9	17.2	0.00e+00	0	61	0	720371712	41	4274
2026-01-28 04:54:40.00	355.62	22.15	-35.5	-36.8	17.3	0.00e+00	0	61	0	727711744	41	4216
2026-01-28 04:54:41.01	355.47	22.27	-35.5	-36.8	17.3	0.00e+00	0	61	0	735051776	41	4194
2026-01-28 04:54:42.02	355.33	22.39	-35.6	-36.8	17.2	0.00e+00	0	61	0	742391808	41	4237
2026-01-28 04:54:43.03	355.18	22.51	-35.9	-37.2	16.9	0.00e+00	0	61	0	749731840	41	4433
2026-01-28 04:54:44.04	355.03	22.64	-36.1	-37.4	16.8	0.00e+00	0	61	0	757071872	41	4516
2026-01-28 04:54:45.05	354.88	22.76	-35.7	-37.0	17.4	0.00e+00	0	61	0	764411904	41	4298
2026-01-28 04:54:46.06	354.72	22.88	-35.4	-36.7	17.7	0.00e+00	0	61	0	771751936	41	4159
2026-01-28 04:54:47.07	354.57	23.01	-35.6	-36.9	17.6	0.00e+00	0	61	0	779091968	41	4247
2026-01-28 04:54:48.08	354.41	23.13	-35.9	-37.2	17.3	0.00e+00	0	61	0	785383424	41	4394
2026-01-28 04:54:49.09	354.26	23.25	-35.9	-37.2	17.3	0.00e+00	0	61	0	792723456	41	4428
2026-01-28 04:54:50.10	354.10	23.38	-35.8	-37.1	17.4	0.00e+00	0	61	0	800063488	41	4384
2026-01-28 04:54:51.11	353.94	23.50	-35.8	-37.1	17.4	0.00e+00	0	61	0	807403520	41	4377
2026-01-28 04:54:52.12	353.78	23.63	-35.8	-37.1	17.4	0.00e+00	0	61	0	814743552	41	4365
2026-01-28 04:54:53.13	353.62	23.75	-35.9	-37.2	17.4	0.00e+00	0	61	0	822083584	41	4398
2026-01-28 04:54:54.14	353.46	23.88	-35.7	-36.9	17.6	0.00e+00	0	61	0	829423616	41	4291
2026-01-28 04:54:55.15	353.29	24.01	-35.7	-37.0	17.6	0.00e+00	0	61	0	836763648	41	4312
2026-01-28 04:54:56.16	353.13	24.13	-35.7	-36.9	17.7	0.00e+00	0	61	0	844103680	41	4286
2026-01-28 04:54:57.17	352.96	24.26	-35.6	-36.8	17.8	0.00e+00	0	61	0	851443712	41	4218
2026-01-28 04:54:58.18	352.79	24.39	-35.6	-36.8	17.9	0.00e+00	0	61	0	858783744	41	4218
2026-01-28 04:54:59.19	352.62	24.51	-35.6	-36.9	17.8	0.00e+00	0	61	0	866123776	41	4252
2026-01-28 04:55:00.20	352.45	24.64	-35.6	-36.8	17.9	0.00e+00	0	61	0	873463808	41	4222
2026-01-28 04:55:01.21	352.28	24.77	-35.5	-36.7	17.9	0.00e+00	0	61	0	880803840	41	4189
2026-01-28 04:55:02.22	352.10	24.90	-35.5	-36.7	18.0	0.00e+00	0	61	0	888143872	41	4152
2026-01-28 04:55:03.23	351.93	25.03	-35.1	-36.2	18.4	0.00e+00	0	61	0	895483904	41	3949
2026-01-28 04:55:04.24	351.75	25.16	-35.4	-36.6	18.1	0.00e+00	0	61	0	902823936	41	4131
2026-01-28 04:55:05.25	351.57	25.29	-35.3	-36.5	18.2	0.00e+00	0	62	0	910163968	41	4077
2026-01-28 04:55:06.26	351.39	25.42	-35.3	-36.5	18.2	0.00e+00	0	61	0	917504000	41	4079
2026-01-28 04:55:07.27	351.21	25.55	-35.4	-36.5	18.2	0.00e+00	0	62	0	924844032	41	4096
2026-01-28 04:55:08.28	351.03	25.68	-35.4	-36.6	18.1	0.00e+00	0	61	0	931135488	41	4119
2026-01-28 04:55:09.29	350.85	25.81	-35.4	-36.5	18.2	0.00e+00	0	61	0	938475520	41	4090
2026-01-28 04:55:10.30	350.66	25.94	-35.4	-36.6	18.1	0.00e+00	0	62	0	946864128	41	4139
2026-01-28 04:55:11.31	350.47	26.07	-35.6	-36.8	18.0	0.00e+00	0	61	0	953155584	41	4208
2026-01-28 04:55:12.32	350.28	26.21	-35.7	-36.9	18.0	0.00e+00	0	61	0	960495616	41	4261
2026-01-28 04:55:13.33	350.09	26.34	-35.7	-36.9	17.9	0.00e+00	0	61	0	967835648	41	4260
2026-01-28 04:55:14.34	349.90	26.47	-35.7	-36.9	17.9	0.00e+00	0	61	0	975175680	41	4280
2026-01-28 04:55:15.35	349.71	26.60	-35.8	-37.0	17.8	0.00e+00	0	61	0	982515712	41	4313
2026-01-28 04:55:16.36	349.51	26.74	-35.7	-37.0	17.9	0.00e+00	0	61	0	989855744	41	4292
2026-01-28 04:55:17.37	349.31	26.87	-35.8	-37.0	17.8	0.00e+00	0	61	0	997195776	41	4340
2026-01-28 04:55:18.38	349.11	27.00	-35.8	-37.0	17.8	0.00e+00	0	61	0	1004535808	41	4329
2026-01-28 04:55:19.39	348.91	27.14	-35.7	-36.9	18.0	0.00e+00	0	61	0	1011875840	41	4270
2026-01-28 04:55:20.40	348.71	27.27	-35.7	-36.9	18.0	0.00e+00	0	62	0	1019215872	41	4273
2026-01-28 04:55:21.41	348.51	27.41	-35.4	-36.6	18.2	0.00e+00	0	62	0	1026555904	41	4119
2026-01-28 04:55:22.42	348.30	27.54	-35.2	-36.4	18.5	0.00e+00	0	62	0	1033895936	41	4015
2026-01-28 04:55:23.43	348.09	27.68	-35.2	-36.4	18.5	0.00e+00	0	61	0	1041235968	41	4007
2026-01-28 04:55:24.44	347.88	27.81	-35.3	-36.4	18.5	0.00e+00	0	61	0	1048576000	41	4034
2026-01-28 04:55:25.45	347.67	27.95	-35.2	-36.3	18.6	0.00e+00	0	61	0	1055916032	41	3988
2026-01-28 04:55:26.46	347.46	28.08	-35.2	-36.3	18.6	0.00e+00	0	61	0	1063256064	41	3998
2026-01-28 04:55:27.47	347.24	28.22	-35.3	-36.4	18.5	0.00e+00	0	62	0	1070596096	41	4039
2026-01-28 04:55:28.48	347.02	28.36	-35.3	-36.5	18.4	0.00e+00	0	62	0	1077936128	41	4074
2026-01-28 04:55:29.49	346.81	28.49	-35.3	-36.4	18.5	0.00e+00	0	62	0	1084227584	41	4029
2026-01-28 04:55:30.50	346.59	28.63	-35.2	-36.3	18.6	0.00e+00	0	61	0	1092616192	41	3995
2026-01-28 04:55:31.51	346.36	28.76	-35.2	-36.4	18.5	0.00e+00	0	61	0	1099956224	41	4007
2026-01-28 04:55:32.52	346.14	28.90	-35.2	-36.3	18.6	0.00e+00	0	61	0	1106247680	41	3975
2026-01-28 04:55:33.53	345.91	29.04	-35.0	-36.1	18.8	0.00e+00	0	62	0	1113587712	41	3893
2026-01-28 04:55:34.54	345.68	29.18	-34.8	-35.9	19.0	0.00e+00	0	61	0	1120927744	40	4042
2026-01-28 04:55:35.56	345.45	29.32	-35.0	-36.2	18.8	0.00e+00	0	61	0	1128267776	40	4152
2026-01-28 04:55:36.57	345.22	29.45	-35.0	-36.2	18.8	0.00e+00	0	61	0	1135607808	40	4150
2026-01-28 04:55:37.58	344.98	29.59	-35.1	-36.2	18.8	0.00e+00	0	61	0	1142947840	40	4163
2026-01-28 04:55:38.59	344.75	29.73	-35.1	-36.2	18.7	0.00e+00	0	62	0	1150287872	40	4179
2026-01-28 04:55:39.60	344.51	29.87	-35.1	-36.3	18.7	0.00e+00	0	62	0	1157627904	40	4209
2026-01-28 04:55:40.61	344.27	30.00	-34.9	-36.0	19.0	0.00e+00	0	62	0	1164967936	40	4084
2026-01-28 04:55:41.62	344.02	30.14	-34.9	-36.0	19.0	0.00e+00	0	62	0	1172307968	40	4069
2026-01-28 04:55:42.63	343.78	30.28	-34.8	-35.9	19.1	0.00e+00	0	62	0	1179648000	40	4023
2026-01-28 04:55:43.64	343.53	30.42	-34.8	-35.9	19.0	0.00e+00	0	62	0	1186988032	40	4047
2026-01-28 04:55:44.65	343.28	30.56	-34.9	-36.0	19.0	0.00e+00	0	62	0	1194328064	40	4080
2026-01-28 04:55:45.66	343.03	30.70	-34.9	-36.0	19.0	0.00e+00	0	62	0	1201668096	40	4066
2026-01-28 04:55:46.67	342.78	30.83	-34.9	-36.0	18.9	0.00e+00	0	61	0	1209008128	40	4089
2026-01-28 04:55:47.68	342.52	30.97	-35.0	-36.1	18.9	0.00e+00	0	62	0	1216348160	40	4111
2026-01-28 04:55:48.69	342.26	31.11	-35.0	-36.2	18.9	0.00e+00	0	61	0	1223688192	40	4147
2026-01-28 04:55:49.70	342.00	31.25	-35.1	-36.3	18.7	0.00e+00	0	62	0	1231028224	40	4202
2026-01-28 04:55:50.71	341.74	31.39	-35.1	-36.3	18.8	0.00e+00	0	61	0	1238368256	40	4211
2026-01-28 04:55:51.72	341.48	31.53	-35.2	-36.3	18.7	0.00e+00	0	62	0	1245708288	40	4215
2026-01-28 04:55:52.73	341.21	31.67	-35.2	-36.3	18.7	0.00e+00	0	62	0	1251999744	40	4211
2026-01-28 04:55:53.74	340.94	31.80	-35.2	-36.3	18.7	0.00e+00	0	62	0	1259339776	40	4234
2026-01-28 04:55:54.75	340.67	31.94	-35.3	-36.5	18.5	0.00e+00	0	61	0	1267728384	40	4310
2026-01-28 04:55:55.76	340.39	32.08	-35.3	-36.5	18.6	0.00e+00	0	62	0	1274019840	40	4301
2026-01-28 04:55:56.77	340.12	32.22	-35.3	-36.4	18.6	0.00e+00	0	62	0	1281359872	40	4260
2026-01-28 04:55:57.78	339.84	32.36	-35.3	-36.4	18.6	0.00e+00	0	62	0	1288699904	40	4291
2026-01-28 04:55:58.79	339.56	32.49	-35.3	-36.4	18.6	0.00e+00	0	62	0	1296039936	40	4278
2026-01-28 04:55:59.80	339.27	32.63	-35.3	-36.5	18.6	0.00e+00	0	61	0	1303379968	40	4294
2026-01-28 04:56:00.81	338.99	32.77	-35.2	-36.3	18.7	0.00e+00	0	62	0	1310720000	40	4222
2026-01-28 04:56:01.82	338.70	32.91	-35.3	-36.4	18.6	0.00e+00	0	62	0	1318060032	40	4257
2026-01-28 04:56:02.84	338.40	33.04	-35.3	-36.4	18.7	0.00e+00	0	62	0	1325400064	40	4268
2026-01-28 04:56:03.85	338.11	33.18	-35.2	-36.3	18.8	0.00e+00	0	62	0	1332740096	40	4207
2026-01-28 04:56:04.86	337.81	33.32	-35.2	-36.3	18.8	0.00e+00	0	62	0	1340080128	40	4207
2026-01-28 04:56:05.87	337.52	33.45	-35.1	-36.3	18.8	0.00e+00	0	62	0	1347420160	40	4204
2026-01-28 04:56:06.88	337.21	33.59	-35.1	-36.3	18.8	0.00e+00	0	62	0	1354760192	40	4208
2026-01-28 04:56:07.89	336.91	33.73	-35.1	-36.2	18.8	0.00e+00	0	61	0	1362100224	40	4187
2026-01-28 04:56:08.90	336.60	33.86	-35.0	-36.1	19.0	0.00e+00	0	62	0	1369440256	40	4134
2026-01-28 04:56:09.90	336.30	34.00	-35.0	-36.1	19.0	0.00e+00	0	62	0	1376780288	40	4102
2026-01-28 04:56:10.91	335.99	34.13	-34.5	-35.6	19.5	0.00e+00	0	62	0	1384120320	40	3876
2026-01-28 04:56:11.93	335.67	34.27	-34.5	-35.6	19.5	0.00e+00	0	62	0	1391460352	40	3880
2026-01-28 04:56:12.94	335.35	34.40	-34.6	-35.6	19.5	0.00e+00	0	62	0	1398800384	39	4124
2026-01-28 04:56:13.95	335.03	34.53	-34.6	-35.6	19.5	0.00e+00	0	62	0	1406140416	39	4132
2026-01-28 04:56:14.96	334.71	34.67	-34.6	-35.6	19.5	0.00e+00	0	62	0	1413480448	39	4131
2026-01-28 04:56:15.97	334.39	34.80	-34.6	-35.7	19.5	0.00e+00	0	62	0	1420820480	39	4157
2026-01-28 04:56:16.98	334.06	34.93	-34.8	-35.9	19.2	0.00e+00	0	62	0	1427111936	39	4270
2026-01-28 04:56:17.99	333.73	35.06	-34.9	-36.0	19.2	0.00e+00	0	62	0	1434451968	39	4302
2026-01-28 04:56:19.00	333.40	35.19	-35.0	-36.1	19.0	0.00e+00	0	62	0	1442840576	39	4381
2026-01-28 04:56:20.01	333.06	35.32	-35.0	-36.1	19.0	0.00e+00	0	62	0	1449132032	39	4357
2026-01-28 04:56:21.02	332.72	35.45	-34.9	-36.0	19.1	0.00e+00	0	62	0	1456472064	39	4321
2026-01-28 04:56:22.03	332.38	35.58	-35.0	-36.1	19.1	0.00e+00	0	62	0	1463812096	39	4344
2026-01-28 04:56:23.04	332.04	35.71	-35.0	-36.1	19.1	0.00e+00	0	62	0	1471152128	39	4343
2026-01-28 04:56:24.05	331.69	35.84	-34.9	-36.0	19.1	0.00e+00	0	62	0	1478492160	39	4335
2026-01-28 04:56:25.06	331.34	35.97	-35.1	-36.2	19.0	0.00e+00	0	62	0	1485832192	39	4412
2026-01-28 04:56:26.07	330.99	36.09	-35.2	-36.4	18.8	0.00e+00	0	62	0	1493172224	40	4245
2026-01-28 04:56:27.08	330.63	36.22	-35.2	-36.4	18.7	0.00e+00	0	62	0	1500512256	40	4251
2026-01-28 04:56:28.09	330.28	36.34	-35.3	-36.5	18.6	0.00e+00	0	62	0	1507852288	40	4296
2026-01-28 04:56:29.10	329.92	36.47	-35.4	-36.5	18.6	0.00e+00	0	62	0	1515192320	40	4311
2026-01-28 04:56:30.11	329.55	36.59	-35.4	-36.6	18.5	0.00e+00	0	62	0	1522532352	40	4343
2026-01-28 04:56:31.12	329.19	36.71	-35.4	-36.6	18.5	0.00e+00	0	62	0	1529872384	40	4366
2026-01-28 04:56:32.13	328.82	36.83	-35.3	-36.5	18.6	0.00e+00	0	62	0	1537212416	40	4292
2026-01-28 04:56:33.14	328.45	36.96	-35.3	-36.4	18.7	0.00e+00	0	62	0	1544552448	40	4270
2026-01-28 04:56:34.15	328.07	37.08	-35.1	-36.2	18.9	0.00e+00	0	62	0	1551892480	40	4176
2026-01-28 04:56:35.16	327.70	37.19	-35.1	-36.2	18.9	0.00e+00	0	62	0	1559232512	40	4189
2026-01-28 04:56:36.17	327.32	37.31	-35.1	-36.2	18.9	0.00e+00	0	62	0	1566572544	40	4171
2026-01-28 04:56:37.18	326.93	37.43	-35.0	-36.1	19.0	0.00e+00	0	62	0	1572864000	40	4129
2026-01-28 04:56:38.19	326.55	37.54	-35.2	-36.3	18.8	0.00e+00	0	62	0	1580204032	40	4238
2026-01-28 04:56:39.20	326.16	37.66	-35.1	-36.2	18.9	0.00e+00	0	62	0	1588592640	40	4174
2026-01-28 04:56:40.21	325.77	37.77	-35.0	-36.1	19.0	0.00e+00	0	62	0	1594884096	40	4139
2026-01-28 04:56:41.22	325.38	37.88	-35.0	-36.1	19.0	0.00e+00	0	62	0	1602224128	40	4115
2026-01-28 04:56:42.23	324.98	38.00	-34.9	-36.0	19.1	0.00e+00	0	62	0	1609564160	40	4075
2026-01-28 04:56:43.24	324.58	38.11	-35.1	-36.2	18.9	0.00e+00	0	62	0	1616904192	40	4182
2026-01-28 04:56:44.25	324.18	38.21	-35.2	-36.4	18.7	0.00e+00	0	62	0	1624244224	40	4252
2026-01-28 04:56:45.26	323.78	38.32	-35.4	-36.6	18.6	0.00e+00	0	62	0	1631584256	40	4351
2026-01-28 04:56:46.27	323.37	38.43	-35.6	-36.7	18.4	0.00e+00	0	62	0	1638924288	40	4427
2026-01-28 04:56:47.28	322.96	38.53	-35.5	-36.6	18.5	0.00e+00	0	62	0	1646264320	40	4391
2026-01-28 04:56:48.29	322.55	38.64	-35.4	-36.6	18.5	0.00e+00	0	62	0	1653604352	40	4363
2026-01-28 04:56:49.30	322.13	38.74	-35.5	-36.6	18.5	0.00e+00	0	62	0	1660944384	40	4377
2026-01-28 04:56:50.30	321.72	38.84	-35.2	-36.3	18.8	0.00e+00	0	62	0	1668284416	40	4225
2026-01-28 04:56:51.31	321.30	38.94	-35.0	-36.1	19.0	0.00e+00	0	62	0	1675624448	40	4117
2026-01-28 04:56:52.32	320.88	39.03	-35.0	-36.1	19.0	0.00e+00	0	62	0	1682964480	40	4113
2026-01-28 04:56:53.33	320.45	39.13	-35.0	-36.1	19.0	0.00e+00	0	62	0	1690304512	40	4128
2026-01-28 04:56:54.34	320.02	39.23	-35.0	-36.1	19.0	0.00e+00	0	62	0	1697644544	40	4109
2026-01-28 04:56:55.35	319.59	39.32	-35.1	-36.2	18.9	0.00e+00	0	62	0	1704984576	40	4156
2026-01-28 04:56:56.37	319.16	39.41	-35.1	-36.3	18.9	0.00e+00	0	62	0	1712324608	40	4199
2026-01-28 04:56:57.38	318.72	39.50	-35.2	-36.3	18.8	0.00e+00	0	62	0	1719664640	40	4228
2026-01-28 04:56:58.39	318.28	39.59	-35.2	-36.3	18.7	0.00e+00	0	62	0	1725956096	40	4232
2026-01-28 04:56:59.40	317.84	39.68	-35.3	-36.4	18.7	0.00e+00	0	62	0	1734344704	40	4275
2026-01-28 04:57:00.41	317.40	39.76	-35.4	-36.5	18.6	0.00e+00	0	62	0	1741684736	40	4328
2026-01-28 04:57:01.42	316.96	39.84	-35.5	-36.7	18.5	0.00e+00	0	62	0	1747976192	40	4402
2026-01-28 04:57:02.43	316.51	39.92	-35.5	-36.7	18.4	0.00e+00	0	62	0	1755316224	40	4413
2026-01-28 04:57:03.44	316.06	40.00	-35.4	-36.6	18.5	0.00e+00	0	62	0	1762656256	40	4366
2026-01-28 04:57:04.45	315.61	40.08	-35.4	-36.5	18.6	0.00e+00	0	62	0	1769996288	40	4314
2026-01-28 04:57:05.46	315.15	40.16	-35.3	-36.4	18.7	0.00e+00	0	62	0	1777336320	40	4263
2026-01-28 04:57:06.47	314.70	40.23	-35.1	-36.2	18.9	0.00e+00	0	62	0	1784676352	40	4186
2026-01-28 04:57:07.48	314.24	40.30	-35.1	-36.2	18.9	0.00e+00	0	62	0	1792016384	40	4162
2026-01-28 04:57:08.49	313.78	40.37	-35.0	-36.1	19.1	0.00e+00	0	62	0	1799356416	40	4102
2026-01-28 04:57:09.50	313.32	40.44	-35.0	-36.1	19.1	0.00e+00	0	62	0	1806696448	40	4102
2026-01-28 04:57:10.51	312.85	40.51	-34.9	-36.0	19.1	0.00e+00	0	62	0	1814036480	40	4068
2026-01-28 04:57:11.52	312.39	40.57	-34.9	-36.0	19.1	0.00e+00	0	62	0	1821376512	40	4077
2026-01-28 04:57:12.53	311.92	40.63	-35.0	-36.1	19.0	0.00e+00	0	62	0	1828716544	40	4131
2026-01-28 04:57:13.54	311.45	40.69	-35.1	-36.2	18.9	0.00e+00	0	62	0	1836056576	40	4172
2026-01-28 04:57:14.55	310.98	40.75	-35.2	-36.4	18.8	0.00e+00	0	62	0	1843396608	40	4247
2026-01-28 04:57:15.56	310.51	40.81	-35.3	-36.5	18.6	0.00e+00	0	62	0	1850736640	40	4293
2026-01-28 04:57:16.57	310.03	40.86	-35.5	-36.7	18.5	0.00e+00	0	62	0	1858076672	40	4395
2026-01-28 04:57:17.58	309.56	40.91	-35.4	-36.5	18.6	0.00e+00	0	62	0	1865416704	40	4330
2026-01-28 04:57:18.59	309.08	40.96	-35.3	-36.4	18.7	0.00e+00	0	62	0	1871708160	40	4284
2026-01-28 04:57:19.60	308.60	41.01	-35.3	-36.4	18.7	0.00e+00	0	62	0	1880096768	40	4273
2026-01-28 04:57:20.61	308.12	41.05	-35.2	-36.3	18.8	0.00e+00	0	62	0	1887436800	40	4212
2026-01-28 04:57:21.62	307.64	41.10	-35.1	-36.2	18.9	0.00e+00	0	62	0	1893728256	40	4176
2026-01-28 04:57:22.63	307.16	41.14	-35.0	-36.0	19.1	0.00e+00	0	62	0	1901068288	40	4098
2026-01-28 04:57:23.65	306.67	41.17	-35.0	-36.1	19.0	0.00e+00	0	62	0	1908408320	40	4136
2026-01-28 04:57:24.66	306.18	41.21	-35.0	-36.1	19.0	0.00e+00	0	62	0	1915748352	40	4112
2026-01-28 04:57:25.67	305.70	41.24	-34.9	-36.0	19.1	0.00e+00	0	62	0	1923088384	40	4077
2026-01-28 04:57:26.68	305.21	41.28	-35.0	-36.1	19.1	0.00e+00	0	62	0	1930428416	40	4105
2026-01-28 04:57:27.69	304.72	41.30	-35.0	-36.1	19.0	0.00e+00	0	62	0	1937768448	40	4106
2026-01-28 04:57:28.70	304.23	41.33	-34.8	-35.9	19.2	0.00e+00	0	62	0	1945108480	40	4024
2026-01-28 04:57:29.71	303.74	41.36	-34.8	-35.8	19.3	0.00e+00	0	62	0	1952448512	40	3998
2026-01-28 04:57:30.72	303.25	41.38	-34.7	-35.8	19.3	0.00e+00	0	62	0	1959788544	40	3986
2026-01-28 04:57:31.73	302.76	41.40	-34.8	-35.9	19.2	0.00e+00	0	62	0	1967128576	40	4015
2026-01-28 04:57:32.74	302.27	41.41	-34.9	-36.0	19.1	0.00e+00	0	62	0	1974468608	40	4059
2026-01-28 04:57:33.75	301.78	41.43	-34.9	-36.0	19.1	0.00e+00	0	62	0	1981808640	40	4054
2026-01-28 04:57:34.76	301.29	41.44	-34.8	-35.9	19.2	0.00e+00	0	62	0	1989148672	40	4025
2026-01-28 04:57:35.77	300.79	41.45	-34.9	-36.0	19.1	0.00e+00	0	62	0	1996488704	40	4072
2026-01-28 04:57:36.78	300.30	41.46	-35.1	-36.2	19.0	0.00e+00	0	62	0	2003828736	40	4153
2026-01-28 04:57:37.79	299.81	41.46	-35.1	-36.2	18.9	0.00e+00	0	62	0	2011168768	40	4183
2026-01-28 04:57:38.80	299.31	41.47	-35.1	-36.2	18.9	0.00e+00	0	62	0	2018508800	40	4173
2026-01-28 04:57:39.81	298.82	41.47	-35.1	-36.2	19.0	0.00e+00	0	62	0	2025848832	40	4149
2026-01-28 04:57:40.82	298.33	41.46	-34.9	-36.0	19.1	0.00e+00	0	62	0	2033188864	40	4081
2026-01-28 04:57:41.83	297.83	41.46	-34.8	-35.8	19.2	0.00e+00	0	62	0	2040528896	40	3993
2026-01-28 04:57:42.84	297.34	41.45	-34.8	-35.9	19.2	0.00e+00	0	62	0	2046820352	40	4018
2026-01-28 04:57:43.85	296.84	41.44	-34.9	-36.0	19.1	0.00e+00	0	62	0	2055208960	40	4075
2026-01-28 04:57:44.86	296.35	41.43	-35.0	-36.1	19.0	0.00e+00	0	62	0	2062548992	40	4102
2026-01-28 04:57:45.87	295.86	41.42	-35.0	-36.1	19.0	0.00e+00	0	62	0	2068840448	40	4129
2026-01-28 04:57:46.88	295.37	41.40	-35.0	-36.1	19.0	0.00e+00	0	62	0	2076180480	40	4109
2026-01-28 04:57:47.89	294.88	41.38	-34.9	-36.0	19.1	0.00e+00	0	62	0	2083520512	40	4060
2026-01-28 04:57:48.90	294.39	41.36	-34.9	-35.9	19.2	0.00e+00	0	62	0	2090860544	40	4045
2026-01-28 04:57:49.91	293.90	41.34	-34.8	-35.9	19.2	0.00e+00	0	62	0	2098200576	40	4025
2026-01-28 04:57:50.92	293.41	41.31	-34.8	-35.9	19.2	0.00e+00	0	62	0	2105540608	40	4045
2026-01-28 04:57:51.93	292.92	41.28	-34.8	-35.9	19.2	0.00e+00	0	62	0	2112880640	40	4036
2026-01-28 04:57:52.94	292.43	41.25	-34.9	-35.9	19.1	0.00e+00	0	62	0	2120220672	40	4049
2026-01-28 04:57:53.95	291.94	41.22	-35.0	-36.1	18.9	0.00e+00	0	62	0	2127560704	40	4102
2026-01-28 04:57:54.96	291.46	41.19	-35.0	-36.1	19.0	0.00e+00	0	62	0	2134900736	40	4107
2026-01-28 04:57:55.98	290.97	41.15	-34.9	-36.1	19.0	0.00e+00	0	62	0	2142240768	40	4105
2026-01-28 04:57:56.99	290.48	41.11	-34.8	-35.9	19.2	0.00e+00	0	62	0	2149580800	40	4025
2026-01-28 04:57:58.00	290.00	41.07	-34.8	-35.9	19.1	0.00e+00	0	62	0	2156920832	40	4042
2026-01-28 04:57:59.01	289.52	41.02	-34.8	-35.8	19.2	0.00e+00	0	62	0	2164260864	40	3998
2026-01-28 04:58:00.02	289.04	40.98	-34.7	-35.8	19.3	0.00e+00	0	62	0	2171600896	40	3967
2026-01-28 04:58:01.03	288.56	40.93	-34.8	-35.9	19.2	0.00e+00	0	62	0	2178940928	40	4031
2026-01-28 04:58:02.04	288.09	40.88	-34.9	-36.0	19.1	0.00e+00	0	62	0	2186280960	40	4058
2026-01-28 04:58:03.05	287.61	40.82	-34.9	-36.0	19.1	0.00e+00	0	62	0	2193620992	40	4066
2026-01-28 04:58:04.06	287.14	40.77	-34.9	-36.0	19.0	0.00e+00	0	62	0	2200961024	40	4091
2026-01-28 04:58:05.07	286.66	40.71	-34.8	-35.9	19.2	0.00e+00	0	62	0	2208301056	40	4023
2026-01-28 04:58:06.09	286.19	40.65	-34.7	-35.8	19.3	0.00e+00	0	62	0	2214592512	40	3962
2026-01-28 04:58:07.09	285.72	40.59	-34.7	-35.8	19.3	0.00e+00	0	62	0	2221932544	40	3985
2026-01-28 04:58:08.10	285.26	40.53	-34.7	-35.8	19.3	0.00e+00	0	62	0	2230321152	40	3974
2026-01-28 04:58:09.11	284.79	40.46	-34.7	-35.8	19.3	0.00e+00	0	62	0	2236612608	40	3968
2026-01-28 04:58:10.12	284.33	40.39	-34.6	-35.7	19.4	0.00e+00	0	62	0	2243952640	40	3946
2026-01-28 04:58:11.13	283.87	40.32	-34.6	-35.6	19.4	0.00e+00	0	62	0	2251292672	40	3899
2026-01-28 04:58:12.14	283.41	40.25	-34.5	-35.6	19.5	0.00e+00	0	62	0	2258632704	40	3898
2026-01-28 04:58:13.15	282.95	40.18	-34.6	-35.7	19.4	0.00e+00	0	62	0	2265972736	40	3916
2026-01-28 04:58:14.16	282.50	40.10	-34.7	-35.8	19.3	0.00e+00	0	62	0	2273312768	40	3959
2026-01-28 04:58:15.17	282.04	40.03	-34.6	-35.7	19.4	0.00e+00	0	62	0	2280652800	40	3930
2026-01-28 04:58:16.18	281.59	39.95	-34.6	-35.7	19.3	0.00e+00	0	62	0	2287992832	40	3934
2026-01-28 04:58:17.19	281.14	39.87	-34.7	-35.8	19.3	0.00e+00	0	62	0	2295332864	40	3970
2026-01-28 04:58:18.20	280.70	39.78	-34.8	-35.9	19.2	0.00e+00	0	62	0	2302672896	40	4040
2026-01-28 04:58:19.22	280.25	39.70	-35.0	-36.1	19.0	0.00e+00	0	62	0	2310012928	40	4118
2026-01-28 04:58:20.23	279.81	39.61	-35.0	-36.1	18.9	0.00e+00	0	62	0	2317352960	40	4143
2026-01-28 04:58:21.24	279.37	39.52	-34.9	-36.0	19.1	0.00e+00	0	62	0	2324692992	40	4062
2026-01-28 04:58:22.25	278.93	39.43	-34.8	-35.9	19.1	0.00e+00	0	62	0	2332033024	40	4035
2026-01-28 04:58:23.26	278.50	39.34	-34.8	-35.8	19.2	0.00e+00	0	62	0	2339373056	40	4001
2026-01-28 04:58:24.27	278.07	39.25	-34.7	-35.8	19.3	0.00e+00	0	62	0	2346713088	40	3961
2026-01-28 04:58:25.28	277.64	39.15	-34.8	-35.9	19.2	0.00e+00	0	62	0	2354053120	40	4035
2026-01-28 04:58:26.29	277.21	39.06	-34.8	-35.9	19.1	0.00e+00	0	62	0	2361393152	40	4047
2026-01-28 04:58:27.30	276.78	38.96	-34.9	-36.1	19.0	0.00e+00	0	62	0	2368733184	40	4101
2026-01-28 04:58:28.31	276.36	38.86	-35.0	-36.1	18.9	0.00e+00	0	62	0	2376073216	40	4133
2026-01-28 04:58:29.32	275.94	38.76	-35.0	-36.1	19.0	0.00e+00	0	62	0	2383413248	40	4127
2026-01-28 04:58:30.33	275.53	38.66	-34.9	-36.0	19.0	0.00e+00	0	62	0	2389704704	40	4092
2026-01-28 04:58:31.34	275.11	38.56	-34.9	-36.1	19.0	0.00e+00	0	62	0	2397044736	40	4106
2026-01-28 04:58:32.35	274.70	38.45	-35.0	-36.1	19.0	0.00e+00	0	62	0	2405433344	40	4120
2026-01-28 04:58:33.36	274.29	38.35	-34.9	-36.1	19.0	0.00e+00	0	62	0	2411724800	40	4104
2026-01-28 04:58:34.37	273.89	38.24	-34.9	-36.0	19.0	0.00e+00	0	62	0	2419064832	40	4090
2026-01-28 04:58:35.38	273.48	38.13	-35.0	-36.1	19.0	0.00e+00	0	62	0	2426404864	40	4103
2026-01-28 04:58:36.39	273.08	38.02	-34.9	-36.0	19.0	0.00e+00	0	62	0	2433744896	40	4077
2026-01-28 04:58:37.40	272.68	37.91	-34.9	-36.0	19.0	0.00e+00	0	62	0	2441084928	40	4080
2026-01-28 04:58:38.41	272.29	37.80	-34.9	-36.0	19.1	0.00e+00	0	62	0	2448424960	40	4070
2026-01-28 04:58:39.42	271.90	37.68	-34.9	-35.9	19.1	0.00e+00	0	62	0	2455764992	40	4046
2026-01-28 04:58:40.43	271.51	37.57	-34.8	-35.9	19.2	0.00e+00	0	62	0	2463105024	40	4022
2026-01-28 04:58:41.44	271.12	37.45	-34.8	-35.9	19.1	0.00e+00	0	62	0	2470445056	40	4041
2026-01-28 04:58:42.45	270.74	37.34	-34.8	-35.9	19.2	0.00e+00	0	62	0	2477785088	40	4009
2026-01-28 04:58:43.46	270.35	37.22	-34.8	-35.8	19.2	0.00e+00	0	62	0	2485125120	40	4001
2026-01-28 04:58:44.47	269.97	37.10	-34.9	-35.9	19.1	0.00e+00	0	62	0	2492465152	40	4050
2026-01-28 04:58:45.48	269.60	36.98	-34.9	-36.0	19.1	0.00e+00	0	62	0	2499805184	40	4054
2026-01-28 04:58:46.49	269.23	36.86	-34.9	-36.1	19.0	0.00e+00	0	62	0	2507145216	40	4100
2026-01-28 04:58:47.51	268.85	36.73	-34.9	-36.0	19.0	0.00e+00	0	62	0	2514485248	40	4072
2026-01-28 04:58:48.52	268.48	36.61	-34.8	-35.9	19.1	0.00e+00	0	62	0	2521825280	40	4036
2026-01-28 04:58:49.53	268.12	36.49	-34.8	-35.9	19.2	0.00e+00	0	62	0	2529165312	40	4006
2026-01-28 04:58:50.54	267.76	36.36	-34.8	-35.9	19.2	0.00e+00	0	62	0	2536505344	40	4008
2026-01-28 04:58:51.55	267.40	36.24	-34.7	-35.8	19.2	0.00e+00	0	62	0	2543845376	40	3974
2026-01-28 04:58:52.56	267.04	36.11	-34.8	-35.8	19.2	0.00e+00	0	62	0	2551185408	40	3989
2026-01-28 04:58:53.57	266.69	35.99	-34.8	-35.9	19.1	0.00e+00	0	62	0	2557476864	40	4009
2026-01-28 04:58:54.58	266.34	35.86	-34.9	-36.0	19.0	0.00e+00	0	62	0	2564816896	40	4070
2026-01-28 04:58:55.59	265.99	35.73	-35.0	-36.1	19.0	0.00e+00	0	62	0	2572156928	40	4099
2026-01-28 04:58:56.60	265.64	35.60	-34.8	-35.9	19.1	0.00e+00	0	62	0	2579496960	40	4015
2026-01-28 04:58:57.61	265.30	35.47	-34.7	-35.8	19.2	0.00e+00	0	62	0	2586836992	40	3976
2026-01-28 04:58:58.62	264.96	35.34	-34.7	-35.8	19.3	0.00e+00	0	62	0	2594177024	39	4198
2026-01-28 04:58:59.63	264.62	35.21	-34.7	-35.8	19.3	0.00e+00	0	62	0	2601517056	39	4207
2026-01-28 04:59:00.64	264.29	35.08	-34.7	-35.8	19.2	0.00e+00	0	62	0	2608857088	39	4236
2026-01-28 04:59:01.65	263.96	34.95	-34.7	-35.8	19.3	0.00e+00	0	62	0	2616197120	39	4218
2026-01-28 04:59:02.66	263.63	34.82	-34.6	-35.7	19.4	0.00e+00	0	62	0	2623537152	39	4158
2026-01-28 04:59:03.68	263.30	34.68	-34.5	-35.6	19.5	0.00e+00	0	62	0	2630877184	39	4120
2026-01-28 04:59:04.69	262.97	34.55	-34.6	-35.6	19.4	0.00e+00	0	62	0	2638217216	39	4131
2026-01-28 04:59:05.70	262.65	34.41	-34.6	-35.7	19.4	0.00e+00	0	62	0	2645557248	39	4173
2026-01-28 04:59:06.71	262.33	34.28	-34.8	-35.9	19.1	0.00e+00	0	62	0	2652897280	39	4271
2026-01-28 04:59:07.72	262.02	34.14	-34.9	-35.9	19.1	0.00e+00	0	62	0	2660237312	39	4291
2026-01-28 04:59:08.73	261.70	34.01	-34.9	-36.0	19.0	0.00e+00	0	62	0	2667577344	39	4302
2026-01-28 04:59:09.74	261.39	33.87	-34.9	-36.0	19.1	0.00e+00	0	62	0	2674917376	39	4293
2026-01-28 04:59:10.75	261.08	33.74	-34.7	-35.8	19.3	0.00e+00	0	62	0	2682257408	39	4211
2026-01-28 04:59:11.76	260.78	33.60	-34.6	-35.7	19.4	0.00e+00	0	62	0	2689597440	39	4157
2026-01-28 04:59:12.77	260.48	33.46	-34.6	-35.6	19.4	0.00e+00	0	62	0	2696937472	39	4134
2026-01-28 04:59:13.78	260.17	33.33	-34.6	-35.6	19.4	0.00e+00	0	62	0	2704277504	39	4135
2026-01-28 04:59:14.79	259.88	33.19	-34.7	-35.8	19.3	0.00e+00	0	62	0	2710568960	39	4207
2026-01-28 04:59:15.80	259.58	33.05	-34.6	-35.6	19.4	0.00e+00	0	62	0	2718957568	39	4143
2026-01-28 04:59:16.82	259.29	32.91	-34.5	-35.6	19.4	0.00e+00	0	62	0	2726297600	39	4122
2026-01-28 04:59:17.82	259.00	32.78	-34.6	-35.7	19.4	0.00e+00	0	62	0	2732589056	39	4156
2026-01-28 04:59:18.83	258.71	32.64	-34.7	-35.8	19.2	0.00e+00	0	62	0	2739929088	39	4208
2026-01-28 04:59:19.84	258.42	32.50	-34.6	-35.7	19.3	0.00e+00	0	62	0	2747269120	39	4185
2026-01-28 04:59:20.85	258.14	32.36	-34.6	-35.7	19.4	0.00e+00	0	62	0	2754609152	39	4153
2026-01-28 04:59:21.87	257.86	32.22	-34.7	-35.8	19.2	0.00e+00	0	62	0	2761949184	39	4211
2026-01-28 04:59:22.88	257.58	32.09	-34.7	-35.8	19.2	0.00e+00	0	62	0	2769289216	39	4216
2026-01-28 04:59:23.89	257.30	31.95	-34.8	-35.9	19.1	0.00e+00	0	62	0	2776629248	39	4275
2026-01-28 04:59:24.90	257.03	31.81	-35.0	-36.1	19.0	0.00e+00	0	62	0	2783969280	39	4359
2026-01-28 04:59:25.90	256.76	31.67	-34.9	-36.0	19.0	0.00e+00	0	62	0	2791309312	39	4336
2026-01-28 04:59:26.91	256.49	31.53	-34.9	-36.0	19.0	0.00e+00	0	62	0	2798649344	39	4315
2026-01-28 04:59:27.92	256.23	31.39	-34.9	-36.0	19.1	0.00e+00	0	62	0	2805989376	39	4297
2026-01-28 04:59:28.93	255.96	31.25	-34.8	-35.9	19.2	0.00e+00	0	62	0	2813329408	39	4261
2026-01-28 04:59:29.94	255.70	31.11	-34.8	-35.9	19.1	0.00e+00	0	62	0	2820669440	39	4271
2026-01-28 04:59:30.95	255.44	30.97	-34.8	-35.9	19.1	0.00e+00	0	62	0	2828009472	39	4268
2026-01-28 04:59:31.96	255.18	30.84	-34.8	-35.9	19.1	0.00e+00	0	62	0	2835349504	39	4260
2026-01-28 04:59:32.97	254.93	30.70	-34.9	-36.0	19.0	0.00e+00	0	62	0	2842689536	39	4297
2026-01-28 04:59:33.99	254.67	30.56	-34.9	-36.0	19.0	0.00e+00	0	62	0	2850029568	39	4303
2026-01-28 04:59:35.00	254.42	30.42	-35.0	-36.1	18.9	0.00e+00	0	62	0	2857369600	39	4347
2026-01-28 04:59:36.01	254.17	30.28	-35.0	-36.1	18.9	0.00e+00	0	62	0	2864709632	39	4360
2026-01-28 04:59:37.02	253.93	30.14	-35.0	-36.1	18.9	0.00e+00	0	62	0	2872049664	39	4385
2026-01-28 04:59:38.03	253.68	30.00	-35.1	-36.2	18.8	0.00e+00	0	62	0	2878341120	39	4404
2026-01-28 04:59:39.04	253.44	29.86	-35.2	-36.3	18.7	0.00e+00	0	62	0	2885681152	39	4492
2026-01-28 04:59:40.05	253.20	29.72	-35.1	-36.3	18.6	0.00e+00	0	62	0	2894069760	40	4211
2026-01-28 04:59:41.06	252.96	29.58	-35.1	-36.3	18.7	0.00e+00	0	62	0	2900361216	40	4201
2026-01-28 04:59:42.07	252.72	29.45	-35.1	-36.2	18.7	0.00e+00	0	62	0	2907701248	40	4173
2026-01-28 04:59:43.08	252.49	29.31	-35.1	-36.2	18.7	0.00e+00	0	62	0	2915041280	40	4155
2026-01-28 04:59:44.09	252.26	29.17	-35.1	-36.2	18.7	0.00e+00	0	62	0	2922381312	40	4177
2026-01-28 04:59:45.10	252.03	29.03	-34.9	-36.0	18.9	0.00e+00	0	62	0	2929721344	40	4093
2026-01-28 04:59:46.11	251.80	28.89	-34.9	-36.0	18.9	0.00e+00	0	62	0	2937061376	40	4066
2026-01-28 04:59:47.12	251.57	28.76	-34.9	-36.0	18.9	0.00e+00	0	62	0	2944401408	40	4067
2026-01-28 04:59:48.13	251.35	28.62	-35.0	-36.1	18.8	0.00e+00	0	62	0	2951741440	40	4133
2026-01-28 04:59:49.14	251.13	28.48	-35.1	-36.2	18.7	0.00e+00	0	62	0	2959081472	40	4184
2026-01-28 04:59:50.14	250.91	28.35	-35.1	-36.2	18.7	0.00e+00	0	62	0	2966421504	40	4168
2026-01-28 04:59:51.15	250.69	28.21	-35.1	-36.2	18.7	0.00e+00	0	62	0	2973761536	40	4171
2026-01-28 04:59:52.17	250.47	28.07	-35.1	-36.2	18.7	0.00e+00	0	62	0	2981101568	40	4175
2026-01-28 04:59:53.18	250.26	27.93	-35.0	-36.1	18.8	0.00e+00	0	62	0	2988441600	40	4122
2026-01-28 04:59:54.19	250.04	27.80	-35.0	-36.1	18.8	0.00e+00	0	62	0	2995781632	40	4127
2026-01-28 04:59:55.20	249.83	27.66	-35.0	-36.1	18.8	0.00e+00	0	62	0	3003121664	40	4109
2026-01-28 04:59:56.21	249.62	27.53	-35.0	-36.1	18.8	0.00e+00	0	62	0	3010461696	40	4128
2026-01-28 04:59:57.22	249.42	27.39	-35.1	-36.2	18.7	0.00e+00	0	62	0	3017801728	40	4159
2026-01-28 04:59:58.23	249.21	27.26	-35.1	-36.3	18.6	0.00e+00	0	62	0	3025141760	40	4203
2026-01-28 04:59:59.24	249.01	27.12	-35.2	-36.4	18.5	0.00e+00	0	62	0	3031433216	40	4243
2026-01-28 05:00:00.25	248.80	26.99	-35.3	-36.4	18.5	0.00e+00	0	62	0	3039821824	40	4281
2026-01-28 05:00:01.26	248.60	26.85	-35.2	-36.4	18.5	0.00e+00	0	62	0	3047161856	40	4249
2026-01-28 05:00:02.27	248.41	26.72	-35.1	-36.2	18.6	0.00e+00	0	62	0	3053453312	40	4193
2026-01-28 05:00:03.28	248.21	26.58	-35.1	-36.2	18.7	0.00e+00	0	62	0	3060793344	40	4158
2026-01-28 05:00:04.29	248.01	26.45	-35.1	-36.2	18.7	0.00e+00	0	62	0	3068133376	40	4189
2026-01-28 05:00:05.30	247.82	26.32	-35.1	-36.2	18.6	0.00e+00	0	62	0	3075473408	40	4172
2026-01-28 05:00:06.31	247.63	26.18	-35.0	-36.1	18.7	0.00e+00	0	62	0	3082813440	40	4131
2026-01-28 05:00:07.32	247.44	26.05	-35.0	-36.1	18.8	0.00e+00	0	62	0	3090153472	40	4116
2026-01-28 05:00:08.33	247.25	25.92	-35.0	-36.1	18.7	0.00e+00	0	62	0	3097493504	40	4137
2026-01-28 05:00:09.35	247.06	25.79	-35.2	-36.3	18.6	0.00e+00	0	62	0	3104833536	40	4222
2026-01-28 05:00:10.36	246.87	25.65	-35.2	-36.3	18.5	0.00e+00	0	62	0	3112173568	40	4240
2026-01-28 05:00:11.37	246.69	25.52	-35.3	-36.5	18.3	0.00e+00	0	62	0	3119513600	40	4308
2026-01-28 05:00:12.38	246.51	25.39	-35.2	-36.3	18.6	0.00e+00	0	62	0	3126853632	40	4228
2026-01-28 05:00:13.39	246.32	25.26	-35.0	-36.2	18.7	0.00e+00	0	62	0	3134193664	40	4159
2026-01-28 05:00:14.40	246.14	25.13	-35.0	-36.1	18.8	0.00e+00	0	62	0	3141533696	40	4110
2026-01-28 05:00:15.41	245.97	25.00	-34.9	-36.0	18.8	0.00e+00	0	62	0	3148873728	40	4087
2026-01-28 05:00:16.42	245.79	24.87	-34.9	-36.0	18.8	0.00e+00	0	62	0	3156213760	40	4081
2026-01-28 05:00:17.43	245.61	24.74	-34.9	-36.0	18.9	0.00e+00	0	62	0	3163553792	40	4052
2026-01-28 05:00:18.44	245.44	24.61	-34.9	-36.0	18.9	0.00e+00	0	62	0	3170893824	40	4060
2026-01-28 05:00:19.45	245.27	24.48	-35.0	-36.2	18.7	0.00e+00	0	62	0	3178233856	40	4155
2026-01-28 05:00:20.46	245.10	24.35	-35.1	-36.3	18.6	0.00e+00	0	62	0	3185573888	40	4197
2026-01-28 05:00:21.47	244.93	24.23	-35.2	-36.4	18.5	0.00e+00	0	62	0	3192913920	40	4258
2026-01-28 05:00:22.48	244.76	24.10	-35.4	-36.5	18.3	0.00e+00	0	62	0	3199205376	40	4334
2026-01-28 05:00:23.49	244.59	23.97	-35.4	-36.6	18.3	0.00e+00	0	62	0	3206545408	40	4371
2026-01-28 05:00:24.50	244.43	23.84	-35.4	-36.6	18.3	0.00e+00	0	62	0	3214934016	40	4363
2026-01-28 05:00:25.51	244.26	23.72	-35.5	-36.6	18.2	0.00e+00	0	62	0	3221225472	40	4389
2026-01-28 05:00:26.52	244.10	23.59	-35.5	-36.7	18.2	0.00e+00	0	62	0	3228565504	40	4399
2026-01-28 05:00:27.53	243.94	23.47	-35.2	-36.4	18.4	0.00e+00	0	62	0	3235905536	40	4266
2026-01-28 05:00:28.54	243.78	23.34	-35.2	-36.3	18.5	0.00e+00	0	62	0	3243245568	40	4236
2026-01-28 05:00:29.55	243.62	23.21	-35.1	-36.3	18.6	0.00e+00	0	62	0	3250585600	40	4199
2026-01-28 05:00:30.56	243.46	23.09	-35.0	-36.2	18.6	0.00e+00	0	62	0	3257925632	40	4155
2026-01-28 05:00:31.57	243.31	22.97	-35.1	-36.3	18.6	0.00e+00	0	62	0	3265265664	40	4194
2026-01-28 05:00:32.59	243.15	22.84	-35.0	-36.1	18.7	0.00e+00	0	62	0	3272605696	40	4144
2026-01-28 05:00:33.60	243.00	22.72	-35.0	-36.2	18.7	0.00e+00	0	62	0	3279945728	40	4155
2026-01-28 05:00:34.61	242.84	22.59	-35.1	-36.2	18.6	0.00e+00	0	62	0	3287285760	40	4178
2026-01-28 05:00:35.62	242.69	22.47	-35.1	-36.2	18.6	0.00e+00	0	62	0	3294625792	40	4182
2026-01-28 05:00:36.63	242.54	22.35	-35.1	-36.2	18.6	0.00e+00	0	62	0	3301965824	40	4189
2026-01-28 05:00:37.64	242.39	22.23	-35.2	-36.4	18.4	0.00e+00	0	62	0	3309305856	40	4258
2026-01-28 05:00:38.65	242.25	22.10	-35.3	-36.5	18.3	0.00e+00	0	62	0	3316645888	40	4318
2026-01-28 05:00:39.66	242.10	21.98	-35.4	-36.5	18.3	0.00e+00	0	62	0	3323985920	40	4337
2026-01-28 05:00:40.67	241.95	21.86	-35.4	-36.5	18.3	0.00e+00	0	62	0	3331325952	40	4325
2026-01-28 05:00:41.68	241.81	21.74	-35.4	-36.6	18.2	0.00e+00	0	62	0	3338665984	40	4378
2026-01-28 05:00:42.69	241.67	21.62	-35.4	-36.6	18.2	0.00e+00	0	62	0	3346006016	40	4363
2026-01-28 05:00:43.70	241.52	21.50	-35.4	-36.5	18.2	0.00e+00	0	62	0	3353346048	40	4339
2026-01-28 05:00:44.72	241.38	21.38	-35.3	-36.4	18.4	0.00e+00	0	62	0	3360686080	40	4276
2026-01-28 05:00:45.72	241.24	21.26	-35.1	-36.3	18.5	0.00e+00	0	62	0	3368026112	40	4209
2026-01-28 05:00:46.73	241.10	21.14	-35.0	-36.2	18.6	0.00e+00	0	62	0	3374317568	40	4158
2026-01-28 05:00:47.74	240.97	21.02	-35.1	-36.2	18.5	0.00e+00	0	62	0	3381657600	40	4192
2026-01-28 05:00:48.75	240.83	20.91	-35.2	-36.3	18.4	0.00e+00	0	62	0	3390046208	40	4231
2026-01-28 05:00:49.76	240.69	20.79	-35.3	-36.4	18.3	0.00e+00	0	62	0	3396337664	40	4277
2026-01-28 05:00:50.77	240.56	20.67	-35.5	-36.6	18.1	0.00e+00	0	62	0	3403677696	40	4387
2026-01-28 05:00:51.78	240.43	20.55	-35.7	-36.9	17.9	0.00e+00	0	62	0	3411017728	40	4508
2026-01-28 05:00:52.79	240.29	20.44	-35.8	-37.0	17.8	0.00e+00	0	62	0	3418357760	41	4306
2026-01-28 05:00:53.80	240.16	20.32	-35.9	-37.2	17.6	0.00e+00	0	62	0	3425697792	41	4403
2026-01-28 05:00:54.82	240.03	20.21	-36.0	-37.3	17.5	0.00e+00	0	62	0	3433037824	41	4449
2026-01-28 05:00:55.83	239.90	20.09	-36.1	-37.4	17.4	0.00e+00	0	62	0	3440377856	41	4519
2026-01-28 05:00:56.84	239.77	19.98	-36.1	-37.4	17.3	0.00e+00	0	62	0	3447717888	41	4524
2026-01-28 05:00:57.85	239.65	19.86	-36.2	-37.5	17.3	0.00e+00	0	62	0	3455057920	41	4554
2026-01-28 05:00:58.86	239.52	19.75	-36.2	-37.5	17.2	0.00e+00	0	62	0	3462397952	42	4327
2026-01-28 05:00:59.87	239.39	19.63	-36.2	-37.4	17.3	0.00e+00	0	62	0	3469737984	42	4278
2026-01-28 05:01:00.88	239.27	19.52	-36.2	-37.5	17.2	0.00e+00	0	62	0	3477078016	42	4320
2026-01-28 05:01:01.89	239.15	19.41	-36.2	-37.5	17.2	0.00e+00	0	62	0	3484418048	42	4326
2026-01-28 05:01:02.90	239.02	19.29	-36.2	-37.5	17.2	0.00e+00	0	62	0	3491758080	42	4316
2026-01-28 05:01:03.91	238.90	19.18	-36.3	-37.6	17.1	0.00e+00	0	62	0	3499098112	42	4379
2026-01-28 05:01:04.92	238.78	19.07	-36.3	-37.6	17.1	0.00e+00	0	62	0	3506438144	42	4390
2026-01-28 05:01:05.93	238.66	18.96	-36.5	-37.8	17.0	0.00e+00	0	62	0	3513778176	42	4466
2026-01-28 05:01:06.94	238.54	18.85	-36.5	-37.8	16.9	0.00e+00	0	62	0	3520069632	42	4483
2026-01-28 05:01:07.95	238.42	18.74	-36.4	-37.8	17.0	0.00e+00	0	62	0	3528458240	42	4443
2026-01-28 05:01:08.96	238.31	18.62	-36.4	-37.7	17.0	0.00e+00	0	62	0	3535798272	42	4425
2026-01-28 05:01:09.97	238.19	18.51	-36.4	-37.7	17.0	0.00e+00	0	62	0	3542089728	42	4440
2026-01-28 05:01:10.98	238.07	18.40	-36.4	-37.7	17.0	0.00e+00	0	62	0	3549429760	42	4407
2026-01-28 05:01:11.99	237.96	18.30	-36.4	-37.7	17.0	0.00e+00	0	62	0	3556769792	42	4417
2026-01-28 05:01:13.01	237.84	18.19	-36.4	-37.7	17.0	0.00e+00	0	62	0	3564109824	42	4430
2026-01-28 05:01:14.02	237.73	18.08	-36.3	-37.6	17.1	0.00e+00	0	62	0	3571449856	42	4372
2026-01-28 05:01:15.03	237.62	17.97	-36.4	-37.7	17.0	0.00e+00	0	62	0	3578789888	42	4433
2026-01-28 05:01:16.04	237.51	17.86	-36.3	-37.6	17.1	0.00e+00	0	62	0	3586129920	42	4390
2026-01-28 05:01:17.05	237.40	17.75	-36.3	-37.5	17.2	0.00e+00	0	62	0	3593469952	42	4334
2026-01-28 05:01:18.06	237.29	17.65	-36.3	-37.7	17.0	0.00e+00	0	62	0	3600809984	42	4393
2026-01-28 05:01:19.07	237.18	17.54	-36.4	-37.7	17.0	0.00e+00	0	62	0	3608150016	42	4434
2026-01-28 05:01:20.08	237.07	17.43	-36.4	-37.7	17.0	0.00e+00	0	62	0	3615490048	42	4419
2026-01-28 05:01:21.09	236.96	17.33	-36.4	-37.7	17.0	0.00e+00	0	62	0	3622830080	42	4414
2026-01-28 05:01:22.10	236.86	17.22	-36.4	-37.7	16.9	0.00e+00	0	62	0	3630170112	42	4438
2026-01-28 05:01:23.11	236.75	17.11	-36.5	-37.8	16.8	0.00e+00	0	62	0	3637510144	42	4490
2026-01-28 05:01:24.12	236.64	17.01	-36.5	-37.9	16.8	0.00e+00	0	62	0	3644850176	42	4495
2026-01-28 05:01:25.13	236.54	16.91	-36.6	-38.0	16.7	0.00e+00	0	62	0	3652190208	42	4563
2026-01-28 05:01:26.14	236.44	16.80	-36.6	-38.0	16.7	0.00e+00	0	62	0	3659530240	43	4298
2026-01-28 05:01:27.15	236.33	16.70	-36.6	-38.0	16.6	0.00e+00	0	62	0	3666870272	43	4303
2026-01-28 05:01:28.16	236.23	16.59	-36.7	-38.0	16.6	0.00e+00	0	62	0	3674210304	43	4332
2026-01-28 05:01:29.17	236.13	16.49	-36.7	-38.0	16.6	0.00e+00	0	62	0	3681550336	43	4327
2026-01-28 05:01:30.18	236.03	16.39	-36.7	-38.1	16.6	0.00e+00	0	62	0	3688890368	43	4362
2026-01-28 05:01:31.19	235.93	16.28	-36.8	-38.2	16.5	0.00e+00	0	62	0	3695181824	43	4403
2026-01-28 05:01:32.20	235.83	16.18	-36.8	-38.3	16.4	0.00e+00	0	62	0	3703570432	43	4443
2026-01-28 05:01:33.21	235.73	16.08	-36.9	-38.3	16.3	0.00e+00	0	62	0	3710910464	43	4486
2026-01-28 05:01:34.22	235.63	15.98	-37.0	-38.4	16.2	0.00e+00	0	62	0	3717201920	43	4512
2026-01-28 05:01:35.24	235.53	15.88	-36.9	-38.3	16.3	0.00e+00	0	62	0	3724541952	43	4478
2026-01-28 05:01:36.25	235.44	15.77	-37.0	-38.4	16.2	0.00e+00	0	62	0	3731881984	43	4516
2026-01-28 05:01:37.26	235.34	15.67	-37.0	-38.5	16.1	0.00e+00	0	62	0	3739222016	43	4560
2026-01-28 05:01:38.27	235.24	15.57	-37.1	-38.5	16.1	0.00e+00	0	62	0	3746562048	43	4585
2026-01-28 05:01:39.28	235.15	15.47	-37.1	-38.5	16.1	0.00e+00	0	62	0	3753902080	43	4584
2026-01-28 05:01:40.29	235.06	15.37	-37.1	-38.5	16.0	0.00e+00	0	62	0	3761242112	43	4598
2026-01-28 05:01:41.30	234.96	15.27	-37.1	-38.5	16.1	0.00e+00	0	62	0	3768582144	43	4588
2026-01-28 05:01:42.31	234.87	15.18	-37.1	-38.5	16.1	0.00e+00	0	62	0	3775922176	43	4590
2026-01-28 05:01:43.32	234.78	15.08	-37.1	-38.6	16.0	0.00e+00	0	62	0	3783262208	43	4607
2026-01-28 05:01:44.33	234.69	14.98	-37.0	-38.5	16.1	0.00e+00	0	62	0	3790602240	43	4557
2026-01-28 05:01:45.34	234.60	14.88	-37.1	-38.5	16.0	0.00e+00	0	62	0	3797942272	43	4594
2026-01-28 05:01:46.36	234.50	14.78	-37.1	-38.6	16.0	0.00e+00	0	62	0	3805282304	43	4613
2026-01-28 05:01:47.37	234.41	14.69	-37.1	-38.5	16.0	0.00e+00	0	62	0	3812622336	43	4588
2026-01-28 05:01:48.38	234.32	14.59	-37.2	-38.6	15.9	0.00e+00	0	62	0	3819962368	43	4641
2026-01-28 05:01:49.39	234.24	14.49	-37.1	-38.6	16.0	1.10e-06	0	62	0	3827302400	43	4599
2026-01-28 05:01:50.40	234.15	14.39	-37.2	-38.7	15.9	0.00e+00	0	62	0	3834642432	43	4667
2026-01-28 05:01:51.41	234.06	14.30	-37.4	-38.9	15.8	0.00e+00	0	62	0	3841982464	44	4510
2026-01-28 05:01:52.42	233.97	14.20	-37.5	-39.0	15.7	0.00e+00	0	62	0	3849322496	44	4551
2026-01-28 05:01:53.43	233.89	14.11	-37.5	-39.1	15.6	0.00e+00	0	62	0	3856662528	44	4607
2026-01-28 05:01:54.44	233.80	14.01	-37.6	-39.1	15.6	0.00e+00	0	62	0	3862953984	44	4643
2026-01-28 05:01:55.45	233.72	13.92	-37.6	-39.2	15.5	0.00e+00	0	62	0	3871342592	44	4672
2026-01-28 05:01:56.46	233.63	13.82	-37.7	-39.3	15.3	0.00e+00	0	62	0	3878682624	45	4478
2026-01-28 05:01:57.47	233.55	13.73	-37.8	-39.4	15.3	0.00e+00	0	62	0	3884974080	45	4516
2026-01-28 05:01:58.48	233.47	13.63	-37.9	-39.5	15.1	0.00e+00	0	62	0	3892314112	45	4582
2026-01-28 05:01:59.49	233.38	13.54	-37.9	-39.5	15.1	0.00e+00	0	62	0	3899654144	45	4584
2026-01-28 05:02:00.50	233.30	13.45	-38.0	-39.6	15.0	0.00e+00	0	62	0	3906994176	45	4618
2026-01-28 05:02:01.51	233.22	13.35	-38.0	-39.7	15.0	0.00e+00	0	62	0	3914334208	45	4670
2026-01-28 05:02:02.52	233.14	13.26	-38.0	-39.7	14.9	0.00e+00	0	62	0	3921674240	45	4684
2026-01-28 05:02:03.53	233.06	13.17	-37.9	-39.6	15.1	0.00e+00	0	62	0	3929014272	45	4604
2026-01-28 05:02:04.54	232.98	13.08	-37.9	-39.6	15.1	0.00e+00	0	62	0	3936354304	45	4619
2026-01-28 05:02:05.55	232.90	12.99	-38.0	-39.6	15.0	0.00e+00	0	62	0	3943694336	45	4625
2026-01-28 05:02:06.56	232.82	12.89	-37.9	-39.6	15.1	0.00e+00	0	62	0	3951034368	45	4607
2026-01-28 05:02:07.57	232.74	12.80	-37.8	-39.4	15.2	0.00e+00	0	62	0	3958374400	45	4535
2026-01-28 05:02:08.59	232.66	12.71	-37.9	-39.5	15.2	0.00e+00	0	62	0	3965714432	45	4550
2026-01-28 05:02:09.60	232.58	12.62	-37.8	-39.4	15.3	0.00e+00	0	62	0	3973054464	45	4499
2026-01-28 05:02:10.61	232.50	12.53	-37.7	-39.3	15.3	0.00e+00	0	62	0	3980394496	45	4449
2026-01-28 05:02:11.62	232.43	12.44	-37.7	-39.3	15.3	0.00e+00	0	62	0	3987734528	45	4460
2026-01-28 05:02:12.63	232.35	12.35	-37.6	-39.2	15.4	0.00e+00	0	62	0	3995074560	45	4413
2026-01-28 05:02:13.64	232.28	12.26	-37.7	-39.2	15.4	0.00e+00	0	62	0	4002414592	45	4413
2026-01-28 05:02:14.65	232.20	12.17	-37.7	-39.2	15.3	0.00e+00	0	62	0	4009754624	45	4421
2026-01-28 05:02:15.66	232.13	12.08	-37.6	-39.1	15.4	0.00e+00	0	62	0	4017094656	45	4386
2026-01-28 05:02:16.67	232.05	11.99	-37.7	-39.2	15.4	0.00e+00	0	62	0	4024434688	45	4417
2026-01-28 05:02:17.68	231.98	11.90	-37.5	-39.1	15.5	0.00e+00	0	62	0	4031774720	45	4350
2026-01-28 05:02:18.70	231.90	11.82	-37.6	-39.1	15.4	0.00e+00	0	62	0	4038066176	45	4372
2026-01-28 05:02:19.71	231.83	11.73	-37.7	-39.2	15.3	0.00e+00	0	62	0	4046454784	45	4432
2026-01-28 05:02:20.72	231.76	11.64	-37.8	-39.4	15.2	0.00e+00	0	62	0	4053794816	45	4506
2026-01-28 05:02:21.73	231.69	11.55	-37.8	-39.5	15.1	0.00e+00	0	62	0	4060086272	45	4549
2026-01-28 05:02:22.74	231.61	11.47	-37.9	-39.6	15.0	0.00e+00	0	62	0	4067426304	45	4602
2026-01-28 05:02:23.75	231.54	11.38	-37.8	-39.4	15.2	0.00e+00	0	62	0	4075814912	45	4507
2026-01-28 05:02:24.76	231.47	11.29	-37.8	-39.4	15.1	1.10e-06	0	62	0	4082106368	45	4541
2026-01-28 05:02:25.77	231.40	11.21	-37.9	-39.5	15.0	0.00e+00	0	62	0	4089446400	45	4581
