passes_logs/2026/01/28/R2.0S_Moscow/R2.0S_Moscow__20260128_003106_SUOMI_NPP_rec.log

#Pass ID: 20260128_003106_SUOMI NPP
#Satellite: SUOMI NPP
#Configuration: NPP
#almurnet v.1.7.20251203
#Start time: 2026-01-28 00:31:08

#Version: 2.2.20231116
#Station: R2.0S_Moscow
#Location: 37.707566 lon 55.798166 lat
#TLE: 1 37849U 11061A   26027.50945616  .00000185  00000+0  10897-3 0  9994
#TLE: 2 37849  98.7823 329.4511 0002105  42.1421 317.9917 14.19530771738482

#Time	Az	El	Level	Level2	SNR	BER	BlckErr	Temp	State	Recorded	gain1	gain2
2026-01-28 00:31:08.67	13.10	2.14	-40.5	-54.8	3.8	1.49e+00	0	53	0	0	52	18945
2026-01-28 00:31:09.69	13.07	2.20	-40.5	-54.9	3.8	1.49e+00	0	53	104	0	52	18967
2026-01-28 00:31:10.70	13.04	2.27	-40.5	-54.9	3.8	1.49e+00	0	53	104	0	52	18997
2026-01-28 00:31:11.71	13.01	2.33	-40.5	-54.9	3.8	1.49e+00	0	53	104	0	52	19043
2026-01-28 00:31:12.72	12.98	2.39	-40.5	-54.9	3.8	1.49e+00	0	53	104	0	52	18960
2026-01-28 00:31:13.73	12.95	2.46	-40.5	-54.9	3.8	1.49e+00	0	53	104	0	52	18964
2026-01-28 00:31:14.74	12.92	2.52	-40.4	-54.9	3.8	1.49e+00	0	53	104	0	52	19003
2026-01-28 00:31:15.75	12.89	2.59	-40.4	-54.9	3.8	1.49e+00	0	53	104	0	52	18951
2026-01-28 00:31:16.76	12.85	2.65	-40.4	-54.9	3.8	1.49e+00	0	53	104	0	52	19000
2026-01-28 00:31:17.77	12.82	2.71	-40.4	-54.9	3.8	1.49e+00	0	53	104	0	52	18971
2026-01-28 00:31:18.78	12.79	2.78	-40.4	-54.9	3.8	1.49e+00	0	53	104	0	52	19002
2026-01-28 00:31:19.79	12.76	2.84	-40.4	-54.9	3.8	1.49e+00	0	53	104	0	52	18968
2026-01-28 00:31:20.80	12.73	2.91	-40.4	-54.9	3.8	1.49e+00	0	54	104	0	52	18964
2026-01-28 00:31:21.81	12.70	2.97	-40.4	-54.8	3.8	1.49e+00	0	54	104	0	52	18942
2026-01-28 00:31:22.83	12.67	3.04	-40.4	-54.8	3.8	1.49e+00	0	54	104	0	52	18864
2026-01-28 00:31:23.84	12.64	3.10	-40.4	-54.9	3.8	1.49e+00	0	54	104	0	52	18953
2026-01-28 00:31:24.85	12.60	3.17	-40.4	-54.8	3.8	1.49e+00	0	54	104	0	52	18940
2026-01-28 00:31:25.86	12.57	3.24	-40.4	-54.8	3.8	1.49e+00	0	54	104	0	52	18919
2026-01-28 00:31:26.87	12.54	3.30	-40.4	-54.8	3.8	1.49e+00	0	54	104	0	52	18936
2026-01-28 00:31:27.88	12.51	3.37	-40.4	-54.8	3.8	1.49e+00	0	54	104	0	52	18906
2026-01-28 00:31:28.89	12.47	3.43	-40.4	-54.8	3.8	1.49e+00	0	54	104	0	52	18885
2026-01-28 00:31:29.90	12.44	3.50	-40.4	-54.8	3.8	1.49e+00	0	54	104	0	52	18846
2026-01-28 00:31:30.91	12.41	3.57	-40.4	-54.8	3.8	1.49e+00	0	54	104	0	52	18875
2026-01-28 00:31:31.92	12.38	3.63	-40.4	-54.8	3.8	1.49e+00	0	54	104	0	52	18871
2026-01-28 00:31:32.93	12.34	3.70	-40.4	-54.8	3.8	1.49e+00	0	54	104	0	52	18893
2026-01-28 00:31:33.94	12.31	3.76	-40.4	-54.8	3.8	1.49e+00	0	55	104	0	52	18903
2026-01-28 00:31:34.95	12.28	3.83	-40.4	-54.8	3.8	1.49e+00	0	55	104	0	52	18903
2026-01-28 00:31:35.96	12.24	3.90	-40.4	-54.8	3.8	1.49e+00	0	54	104	0	52	18906
2026-01-28 00:31:36.97	12.21	3.97	-40.4	-54.8	3.8	1.49e+00	0	54	104	0	52	18904
2026-01-28 00:31:37.98	12.17	4.03	-40.4	-54.8	3.8	1.49e+00	0	55	104	0	52	18889
2026-01-28 00:31:38.99	12.14	4.10	-40.4	-54.8	3.8	1.49e+00	0	55	104	0	52	18761
2026-01-28 00:31:40.00	12.11	4.17	-40.4	-54.8	3.8	1.49e+00	0	55	104	0	52	18743
2026-01-28 00:31:41.01	12.07	4.24	-40.4	-54.7	3.8	1.49e+00	0	55	104	0	52	18684
2026-01-28 00:31:42.02	12.04	4.30	-40.4	-54.6	3.8	1.49e+00	0	55	104	0	52	18421
2026-01-28 00:31:43.03	12.00	4.37	-40.4	-54.5	3.8	1.49e+00	0	55	104	0	52	18262
2026-01-28 00:31:44.04	11.97	4.44	-40.4	-54.6	3.8	1.49e+00	0	55	104	0	52	18337
2026-01-28 00:31:45.05	11.93	4.51	-40.4	-54.5	3.8	1.49e+00	0	55	104	0	52	18179
2026-01-28 00:31:46.06	11.90	4.58	-40.4	-54.3	3.8	1.49e+00	0	55	104	0	52	17809
2026-01-28 00:31:47.08	11.86	4.65	-40.4	-54.2	3.8	1.49e+00	0	55	104	0	52	17598
2026-01-28 00:31:48.09	11.82	4.72	-40.4	-54.2	3.8	1.49e+00	0	56	104	0	52	17576
2026-01-28 00:31:49.10	11.79	4.79	-40.4	-54.1	3.8	1.49e+00	0	55	104	0	52	17474
2026-01-28 00:31:50.11	11.75	4.85	-40.4	-54.1	3.8	1.49e+00	0	56	104	0	52	17403
2026-01-28 00:31:51.12	11.71	4.92	-40.4	-54.1	3.8	1.49e+00	0	55	104	0	52	17352
2026-01-28 00:31:52.13	11.68	4.99	-40.4	-54.1	3.8	1.49e+00	0	56	104	0	52	17442
2026-01-28 00:31:53.14	11.64	5.06	-40.4	-54.1	3.8	1.49e+00	0	56	104	0	52	17407
2026-01-28 00:31:54.15	11.60	5.13	-40.4	-54.2	3.8	1.49e+00	0	56	104	0	52	17613
2026-01-28 00:31:55.16	11.57	5.20	-40.4	-54.2	3.8	1.49e+00	0	56	104	0	52	17633
2026-01-28 00:31:56.17	11.53	5.27	-40.4	-54.3	3.8	1.49e+00	0	56	104	0	52	17860
2026-01-28 00:31:57.18	11.49	5.34	-40.4	-54.4	3.8	1.49e+00	0	56	104	0	52	18001
2026-01-28 00:31:58.19	11.45	5.41	-40.4	-54.5	3.8	1.49e+00	0	56	104	0	52	18113
2026-01-28 00:31:59.21	11.42	5.49	-40.4	-54.4	3.8	1.49e+00	0	56	104	0	52	17941
2026-01-28 00:32:00.22	11.38	5.56	-40.4	-54.4	3.8	1.49e+00	0	56	104	0	52	17909
2026-01-28 00:32:01.23	11.34	5.63	-40.4	-54.4	3.8	1.49e+00	0	56	104	0	52	17952
2026-01-28 00:32:02.24	11.30	5.70	-40.4	-54.3	3.8	1.49e+00	0	56	104	0	52	17842
2026-01-28 00:32:03.25	11.26	5.77	-40.4	-54.3	3.8	1.49e+00	0	56	104	0	52	17817
2026-01-28 00:32:04.26	11.22	5.84	-40.4	-54.3	3.8	1.49e+00	0	56	104	0	52	17883
2026-01-28 00:32:05.27	11.18	5.91	-40.4	-54.3	3.8	1.49e+00	0	56	104	0	52	17869
2026-01-28 00:32:06.28	11.14	5.99	-40.4	-54.4	3.8	1.49e+00	0	56	104	0	52	17925
2026-01-28 00:32:07.29	11.10	6.06	-40.4	-54.4	3.8	1.49e+00	0	56	104	0	52	17938
2026-01-28 00:32:08.30	11.06	6.13	-40.4	-54.3	3.8	1.49e+00	0	56	104	0	52	17867
2026-01-28 00:32:09.31	11.02	6.20	-40.4	-54.5	3.8	1.49e+00	0	56	104	0	52	18155
2026-01-28 00:32:10.32	10.98	6.28	-40.4	-54.5	3.8	1.49e+00	0	56	104	0	52	18160
2026-01-28 00:32:11.33	10.94	6.35	-40.4	-54.5	3.8	1.49e+00	0	56	104	0	52	18143
2026-01-28 00:32:12.34	10.90	6.42	-40.4	-54.5	3.8	1.49e+00	0	56	104	0	52	18251
2026-01-28 00:32:13.36	10.86	6.50	-40.4	-54.6	3.8	1.49e+00	0	56	104	0	52	18384
2026-01-28 00:32:14.37	10.82	6.57	-40.4	-54.7	3.8	1.49e+00	0	56	104	0	52	18545
2026-01-28 00:32:15.38	10.78	6.64	-40.4	-54.7	3.8	1.49e+00	0	56	104	0	52	18626
2026-01-28 00:32:16.39	10.74	6.72	-40.4	-54.7	3.8	1.49e+00	0	56	104	0	52	18702
2026-01-28 00:32:17.40	10.69	6.79	-40.4	-54.7	3.8	1.49e+00	0	56	104	0	52	18704
2026-01-28 00:32:18.41	10.65	6.87	-40.4	-54.7	3.8	1.49e+00	0	57	104	0	52	18694
2026-01-28 00:32:19.42	10.61	6.94	-40.4	-54.7	3.8	1.49e+00	0	56	104	0	52	18706
2026-01-28 00:32:20.43	10.57	7.02	-40.4	-54.8	3.8	1.49e+00	0	57	104	0	52	18796
2026-01-28 00:32:21.44	10.52	7.09	-40.4	-54.8	3.8	1.49e+00	0	57	104	0	52	18814
2026-01-28 00:32:22.45	10.48	7.17	-40.4	-54.7	3.8	1.49e+00	0	57	104	0	52	18719
2026-01-28 00:32:23.46	10.44	7.24	-40.4	-54.7	3.8	1.49e+00	0	57	104	0	52	18627
2026-01-28 00:32:24.47	10.39	7.32	-40.4	-54.7	3.8	1.49e+00	0	57	104	0	52	18623
2026-01-28 00:32:25.48	10.35	7.39	-40.4	-54.7	3.8	1.49e+00	0	57	104	0	52	18530
2026-01-28 00:32:26.49	10.30	7.47	-40.4	-54.7	3.8	1.49e+00	0	57	104	0	52	18534
2026-01-28 00:32:27.51	10.26	7.55	-40.4	-54.7	3.8	1.49e+00	0	57	104	0	52	18590
2026-01-28 00:32:28.52	10.21	7.62	-40.4	-54.7	3.8	1.49e+00	0	57	104	0	52	18669
2026-01-28 00:32:29.53	10.17	7.70	-40.4	-54.7	3.8	1.49e+00	0	57	104	0	52	18526
2026-01-28 00:32:30.54	10.12	7.78	-40.4	-54.6	3.8	1.49e+00	0	57	104	0	52	18451
2026-01-28 00:32:31.55	10.08	7.85	-40.4	-54.6	3.8	1.49e+00	0	57	104	0	52	18501
2026-01-28 00:32:32.56	10.03	7.93	-40.4	-54.6	3.8	1.49e+00	0	57	104	0	52	18439
2026-01-28 00:32:33.57	9.99	8.01	-40.4	-54.6	3.8	1.49e+00	0	57	104	0	52	18515
2026-01-28 00:32:34.58	9.94	8.09	-40.3	-54.7	3.8	1.49e+00	0	57	104	0	52	18583
2026-01-28 00:32:35.59	9.89	8.16	-40.3	-54.8	3.8	1.49e+00	0	57	104	0	52	18762
2026-01-28 00:32:36.60	9.85	8.24	-40.5	-54.9	3.8	1.49e+00	0	57	104	0	52	19004
2026-01-28 00:32:37.61	9.80	8.32	-40.8	-54.9	3.8	1.49e+00	0	58	104	0	52	19121
2026-01-28 00:32:38.62	9.75	8.40	-40.4	-54.8	3.8	1.49e+00	0	57	104	0	52	18778
2026-01-28 00:32:39.63	9.71	8.48	-40.3	-54.7	3.8	1.49e+00	0	57	104	0	52	18630
2026-01-28 00:32:40.64	9.66	8.56	-40.5	-54.8	3.8	1.49e+00	0	58	104	0	52	18846
2026-01-28 00:32:41.65	9.61	8.64	-40.7	-54.8	3.8	1.49e+00	0	58	104	0	52	18815
2026-01-28 00:32:42.66	9.56	8.72	-40.3	-54.7	3.8	1.49e+00	0	58	104	0	52	18532
2026-01-28 00:32:43.67	9.51	8.80	-40.2	-54.6	3.8	1.49e+00	0	58	104	0	52	18504
2026-01-28 00:32:44.68	9.46	8.88	-40.4	-54.8	3.8	1.49e+00	0	58	104	0	52	18796
2026-01-28 00:32:45.69	9.41	8.96	-40.6	-55.0	3.8	1.49e+00	0	58	104	0	52	19279
2026-01-28 00:32:46.70	9.36	9.04	-40.2	-54.6	3.8	1.49e+00	0	58	104	0	52	18385
2026-01-28 00:32:47.71	9.31	9.12	-40.3	-54.7	3.8	1.49e+00	0	58	104	0	52	18574
2026-01-28 00:32:48.72	9.26	9.20	-40.3	-54.8	3.8	1.49e+00	0	58	104	0	52	18736
2026-01-28 00:32:49.73	9.21	9.28	-40.6	-55.0	3.8	1.49e+00	0	58	104	0	52	19273
2026-01-28 00:32:50.74	9.16	9.36	-40.1	-54.6	3.8	1.49e+00	0	58	104	0	52	18315
2026-01-28 00:32:51.74	9.11	9.44	-40.0	-54.4	3.8	1.49e+00	0	58	104	0	52	18066
2026-01-28 00:32:52.76	9.06	9.52	-40.0	-54.4	3.8	1.49e+00	0	58	104	0	52	18000
2026-01-28 00:32:53.76	9.01	9.61	-40.0	-54.5	3.8	1.49e+00	0	58	104	0	51	19172
2026-01-28 00:32:54.77	8.96	9.69	-40.1	-54.5	3.8	1.49e+00	0	58	104	0	51	19174
2026-01-28 00:32:55.78	8.90	9.77	-40.1	-54.5	3.8	1.49e+00	0	58	104	0	51	19245
2026-01-28 00:32:56.79	8.85	9.85	-40.6	-55.0	3.8	1.49e+00	0	58	104	0	51	20488
2026-01-28 00:32:57.80	8.80	9.94	-40.3	-54.6	3.8	1.49e+00	0	58	104	0	52	18473
2026-01-28 00:32:58.81	8.74	10.02	-40.1	-54.5	3.8	1.49e+00	0	58	104	0	52	18169
2026-01-28 00:32:59.82	8.69	10.10	-40.1	-54.5	3.8	1.49e+00	0	58	104	0	52	18183
2026-01-28 00:33:00.83	8.64	10.19	-40.1	-54.5	3.8	1.49e+00	0	58	104	0	52	18226
2026-01-28 00:33:01.85	8.58	10.27	-40.1	-54.5	3.8	1.49e+00	0	58	104	0	52	18227
2026-01-28 00:33:02.86	8.53	10.36	-40.2	-54.6	3.8	1.49e+00	0	58	104	0	52	18312
2026-01-28 00:33:03.87	8.47	10.44	-40.1	-54.5	3.8	1.49e+00	0	59	104	0	52	18099
2026-01-28 00:33:04.88	8.42	10.53	-41.2	-55.2	3.8	1.49e+00	0	58	104	0	52	19728
2026-01-28 00:33:05.89	8.36	10.61	-40.6	-54.8	3.8	1.49e+00	0	58	104	0	53	17701
2026-01-28 00:33:06.90	8.30	10.70	-40.1	-54.5	3.8	1.49e+00	0	58	104	0	52	18243
2026-01-28 00:33:07.91	8.25	10.78	-40.3	-54.6	3.8	1.49e+00	0	58	104	0	52	18501
2026-01-28 00:33:08.92	8.19	10.87	-40.3	-54.6	3.8	1.49e+00	0	58	104	0	52	18428
2026-01-28 00:33:09.93	8.13	10.96	-40.3	-54.6	3.8	1.49e+00	0	58	104	0	52	18348
2026-01-28 00:33:10.94	8.08	11.04	-40.6	-54.0	3.8	1.49e+00	0	59	104	0	52	17192
2026-01-28 00:33:11.95	8.02	11.13	-40.3	-54.5	3.8	1.49e+00	0	59	104	0	52	18140
2026-01-28 00:33:12.96	7.96	11.22	-42.1	-54.1	4.0	1.47e+00	0	59	104	0	54	15482
2026-01-28 00:33:13.97	7.90	11.30	-42.6	-52.9	4.5	1.17e+00	0	58	0	0	55	12698
2026-01-28 00:33:14.98	7.84	11.39	-41.0	-54.6	3.8	9.57e-01	0	58	104	1048576	54	16346
2026-01-28 00:33:15.99	7.78	11.48	-42.0	-50.6	5.5	1.12e+00	0	59	104	1048576	54	10379
2026-01-28 00:33:17.00	7.72	11.57	-41.9	-49.9	6.0	3.64e-01	0	59	0	2097152	54	9504
2026-01-28 00:33:18.01	7.66	11.66	-41.8	-49.2	6.5	2.78e-01	0	59	0	4194304	54	8856
2026-01-28 00:33:19.02	7.60	11.75	-41.6	-48.4	7.3	1.80e-01	0	59	0	6291456	54	8072
2026-01-28 00:33:20.03	7.54	11.84	-41.4	-47.4	8.3	6.18e-02	0	59	0	8388608	54	7171
2026-01-28 00:33:21.04	7.48	11.92	-41.0	-46.3	9.5	2.40e-02	0	59	0	9437184	54	6297
2026-01-28 00:33:22.05	7.42	12.01	-40.6	-45.2	10.6	8.53e-03	0	59	0	11534336	53	5905
2026-01-28 00:33:23.05	7.36	12.10	-40.4	-44.7	11.1	2.22e-03	0	59	0	13631488	52	5918
2026-01-28 00:33:24.06	7.29	12.19	-40.3	-44.6	11.3	1.06e-03	0	59	0	15728640	52	5815
2026-01-28 00:33:25.07	7.23	12.28	-40.3	-44.4	11.7	6.26e-04	0	59	0	17825792	52	5695
2026-01-28 00:33:26.08	7.17	12.38	-40.2	-44.2	11.9	3.80e-04	0	59	0	18874368	52	5571
2026-01-28 00:33:27.09	7.10	12.47	-40.2	-44.2	11.9	3.82e-04	0	59	0	20971520	52	5567
2026-01-28 00:33:28.10	7.04	12.56	-40.3	-44.2	11.9	4.64e-04	0	59	0	23068672	52	5583
2026-01-28 00:33:29.12	6.97	12.65	-40.2	-44.0	12.2	2.87e-04	0	59	0	25165824	52	5463
2026-01-28 00:33:30.13	6.91	12.74	-40.0	-43.7	12.5	1.85e-04	0	59	0	27262976	52	5249
2026-01-28 00:33:31.14	6.84	12.84	-40.2	-44.0	12.2	2.17e-04	0	59	0	28311552	52	5452
2026-01-28 00:33:32.15	6.78	12.93	-40.3	-44.3	12.0	2.72e-04	0	59	0	30408704	52	5618
2026-01-28 00:33:33.16	6.71	13.02	-40.6	-44.8	11.5	5.69e-04	0	59	0	32505856	52	5938
2026-01-28 00:33:34.17	6.64	13.12	-40.4	-44.3	12.0	3.49e-04	0	59	0	34603008	52	5631
2026-01-28 00:33:35.18	6.58	13.21	-40.4	-44.3	12.2	2.40e-04	0	59	0	36700160	52	5607
2026-01-28 00:33:36.19	6.51	13.30	-40.4	-44.3	12.1	3.68e-04	0	59	0	38797312	52	5632
2026-01-28 00:33:37.20	6.44	13.40	-40.2	-43.8	12.7	1.20e-04	0	59	0	39845888	52	5316
2026-01-28 00:33:38.21	6.37	13.49	-40.2	-43.7	13.0	2.74e-05	0	59	0	41943040	52	5219
2026-01-28 00:33:39.22	6.30	13.59	-40.4	-44.1	12.7	6.10e-05	0	59	0	44040192	52	5484
2026-01-28 00:33:40.23	6.23	13.68	-40.6	-44.3	12.5	1.16e-04	0	59	0	46137344	52	5632
2026-01-28 00:33:41.24	6.16	13.78	-40.6	-44.3	12.5	1.11e-04	0	59	0	48234496	52	5640
2026-01-28 00:33:42.25	6.09	13.87	-40.5	-44.1	12.9	3.58e-05	0	59	0	49283072	52	5478
2026-01-28 00:33:43.26	6.02	13.97	-40.5	-44.1	13.0	3.81e-05	0	59	0	51380224	52	5469
2026-01-28 00:33:44.27	5.95	14.07	-40.5	-44.0	13.1	4.95e-05	0	59	0	53477376	52	5438
2026-01-28 00:33:45.28	5.88	14.16	-40.7	-44.3	12.9	4.57e-05	0	59	0	55574528	52	5596
2026-01-28 00:33:46.29	5.81	14.26	-40.7	-44.3	12.9	5.41e-05	0	59	0	57671680	52	5593
2026-01-28 00:33:47.30	5.73	14.36	-40.5	-43.9	13.3	2.89e-05	0	60	0	58720256	52	5350
2026-01-28 00:33:48.31	5.66	14.46	-40.5	-43.9	13.3	1.22e-05	0	59	0	60817408	52	5354
2026-01-28 00:33:49.32	5.59	14.56	-40.7	-44.3	12.9	3.81e-05	0	59	0	62914560	52	5611
2026-01-28 00:33:50.33	5.51	14.65	-40.6	-44.1	13.2	4.34e-05	0	59	0	65011712	52	5490
2026-01-28 00:33:51.34	5.44	14.75	-40.6	-44.1	13.1	2.59e-05	0	60	0	67108864	52	5504
2026-01-28 00:33:52.35	5.36	14.85	-40.7	-44.2	13.1	5.26e-05	0	59	0	68157440	52	5562
2026-01-28 00:33:53.36	5.28	14.95	-40.8	-44.4	13.0	3.28e-05	0	59	0	70254592	52	5672
2026-01-28 00:33:54.37	5.21	15.05	-40.8	-44.2	13.1	2.89e-05	0	59	0	72351744	52	5580
2026-01-28 00:33:55.38	5.13	15.15	-40.8	-44.2	13.2	1.98e-05	0	59	0	74448896	52	5548
2026-01-28 00:33:56.39	5.05	15.26	-40.7	-44.1	13.3	2.21e-05	0	60	0	76546048	52	5505
2026-01-28 00:33:57.40	4.98	15.36	-40.7	-44.1	13.4	2.44e-05	0	60	0	77594624	52	5488
2026-01-28 00:33:58.41	4.90	15.46	-40.7	-44.1	13.4	1.22e-05	0	60	0	79691776	52	5495
2026-01-28 00:33:59.42	4.82	15.56	-40.9	-44.3	13.2	1.29e-05	0	60	0	81788928	52	5649
2026-01-28 00:34:00.43	4.74	15.66	-40.8	-44.1	13.4	1.44e-05	0	59	0	83886080	52	5525
2026-01-28 00:34:01.44	4.66	15.77	-40.8	-44.2	13.4	9.10e-06	0	60	0	85983232	52	5531
2026-01-28 00:34:02.45	4.58	15.87	-40.8	-44.1	13.5	1.90e-05	0	60	0	87031808	52	5509
2026-01-28 00:34:03.46	4.49	15.97	-40.9	-44.3	13.3	7.60e-06	0	60	0	89128960	52	5594
2026-01-28 00:34:04.47	4.41	16.08	-40.8	-44.1	13.5	9.90e-06	0	60	0	91226112	52	5518
2026-01-28 00:34:05.48	4.33	16.18	-40.9	-44.4	13.2	5.30e-06	0	59	0	93323264	52	5662
2026-01-28 00:34:06.49	4.24	16.28	-41.0	-44.5	13.2	2.67e-05	0	60	0	95420416	52	5728
2026-01-28 00:34:07.50	4.16	16.39	-41.0	-44.4	13.2	1.60e-05	0	60	0	96468992	52	5685
2026-01-28 00:34:08.51	4.08	16.50	-41.1	-44.6	13.0	2.21e-05	0	60	0	98566144	52	5836
2026-01-28 00:34:09.52	3.99	16.60	-41.0	-44.5	13.2	2.28e-05	0	60	0	100663296	52	5738
2026-01-28 00:34:10.53	3.90	16.71	-41.0	-44.5	13.1	3.66e-05	0	60	0	102760448	52	5773
2026-01-28 00:34:11.54	3.82	16.81	-41.0	-44.5	13.2	2.28e-05	0	60	0	104857600	52	5726
2026-01-28 00:34:12.55	3.73	16.92	-41.2	-44.7	13.0	3.73e-05	0	60	0	106954752	53	5580
2026-01-28 00:34:13.56	3.64	17.03	-41.2	-44.7	13.0	3.43e-05	0	60	0	108003328	53	5564
2026-01-28 00:34:14.57	3.55	17.14	-41.1	-44.6	13.1	3.58e-05	0	60	0	110100480	53	5505
2026-01-28 00:34:15.58	3.46	17.24	-41.1	-44.5	13.2	3.05e-05	0	60	0	112197632	53	5464
2026-01-28 00:34:16.59	3.37	17.35	-41.1	-44.6	13.2	2.05e-05	0	60	0	114294784	53	5492
2026-01-28 00:34:17.60	3.28	17.46	-41.1	-44.6	13.2	2.67e-05	0	60	0	116391936	53	5466
2026-01-28 00:34:18.61	3.19	17.57	-41.0	-44.4	13.4	2.13e-05	0	60	0	117440512	53	5361
2026-01-28 00:34:19.62	3.10	17.68	-41.0	-44.3	13.5	1.52e-05	0	60	0	119537664	53	5310
2026-01-28 00:34:20.63	3.01	17.79	-41.0	-44.4	13.4	9.10e-06	0	60	0	121634816	53	5373
2026-01-28 00:34:21.64	2.91	17.90	-41.1	-44.4	13.4	1.29e-05	0	60	0	123731968	53	5397
2026-01-28 00:34:22.65	2.82	18.01	-40.9	-44.2	13.6	1.14e-05	0	60	0	125829120	53	5236
2026-01-28 00:34:23.66	2.73	18.12	-40.9	-44.2	13.5	1.14e-05	0	60	0	126877696	53	5263
2026-01-28 00:34:24.67	2.63	18.24	-41.0	-44.3	13.5	7.60e-06	0	60	0	128974848	53	5284
2026-01-28 00:34:25.68	2.53	18.35	-40.9	-44.2	13.6	8.30e-06	0	60	0	131072000	53	5252
2026-01-28 00:34:26.69	2.44	18.46	-41.0	-44.4	13.5	9.90e-06	0	60	0	133169152	53	5353
2026-01-28 00:34:27.70	2.34	18.58	-41.0	-44.3	13.5	9.90e-06	0	60	0	135266304	53	5305
2026-01-28 00:34:28.71	2.24	18.69	-41.0	-44.3	13.5	1.29e-05	0	60	0	136314880	53	5330
2026-01-28 00:34:29.72	2.14	18.80	-41.0	-44.3	13.5	3.80e-06	0	60	0	138412032	53	5285
2026-01-28 00:34:30.73	2.04	18.92	-41.1	-44.4	13.4	6.10e-06	0	60	0	140509184	53	5396
2026-01-28 00:34:31.74	1.94	19.03	-40.9	-44.1	13.8	1.29e-05	0	60	0	142606336	53	5163
2026-01-28 00:34:32.75	1.84	19.15	-41.2	-44.6	13.2	1.14e-05	0	60	0	144703488	53	5505
2026-01-28 00:34:33.76	1.74	19.26	-41.3	-44.8	13.1	3.05e-05	0	60	0	145752064	53	5644
2026-01-28 00:34:34.77	1.63	19.38	-41.2	-44.6	13.3	1.67e-05	0	60	0	147849216	53	5491
2026-01-28 00:34:35.78	1.53	19.50	-41.2	-44.5	13.4	2.44e-05	0	60	0	149946368	53	5437
2026-01-28 00:34:36.79	1.42	19.61	-41.2	-44.6	13.3	1.75e-05	0	60	0	152043520	53	5493
2026-01-28 00:34:37.80	1.32	19.73	-41.3	-44.8	13.1	2.74e-05	0	60	0	154140672	53	5631
2026-01-28 00:34:38.81	1.21	19.85	-41.3	-44.8	13.1	2.05e-05	0	61	0	155189248	53	5611
2026-01-28 00:34:39.82	1.10	19.97	-41.1	-44.5	13.4	3.96e-05	0	60	0	157286400	53	5408
2026-01-28 00:34:40.83	1.00	20.09	-41.3	-44.9	13.0	3.35e-05	0	60	0	159383552	53	5661
2026-01-28 00:34:41.84	0.89	20.21	-41.4	-44.9	13.0	2.36e-05	0	60	0	161480704	53	5686
2026-01-28 00:34:42.84	0.78	20.33	-41.4	-44.9	13.0	2.05e-05	0	60	0	163577856	53	5697
2026-01-28 00:34:43.85	0.67	20.45	-41.4	-45.0	12.9	2.89e-05	0	60	0	164626432	53	5733
2026-01-28 00:34:44.86	0.55	20.57	-41.4	-44.9	13.0	5.03e-05	0	60	0	166723584	53	5684
2026-01-28 00:34:45.87	0.44	20.69	-41.5	-45.2	12.7	5.03e-05	0	60	0	168820736	53	5896
2026-01-28 00:34:46.88	0.33	20.81	-41.5	-45.1	12.8	5.95e-05	0	60	0	170917888	53	5803
2026-01-28 00:34:47.89	0.21	20.93	-41.3	-44.8	13.2	4.73e-05	0	60	0	173015040	53	5598
2026-01-28 00:34:48.90	0.10	21.05	-41.5	-45.2	12.6	7.17e-05	0	60	0	175112192	53	5895
2026-01-28 00:34:49.91	359.98	21.18	-41.5	-45.1	12.8	7.09e-05	0	60	0	176160768	53	5820
2026-01-28 00:34:50.92	359.86	21.30	-41.5	-45.1	12.8	2.82e-05	0	60	0	178257920	53	5817
2026-01-28 00:34:51.93	359.75	21.43	-41.4	-45.0	12.7	5.64e-05	0	60	0	180355072	53	5775
2026-01-28 00:34:52.94	359.63	21.55	-41.3	-44.8	13.1	4.04e-05	0	60	0	182452224	53	5624
2026-01-28 00:34:53.95	359.51	21.68	-41.4	-44.9	13.1	3.35e-05	0	60	0	184549376	53	5663
2026-01-28 00:34:54.96	359.38	21.80	-41.4	-44.8	13.0	2.67e-05	0	60	0	185597952	53	5640
2026-01-28 00:34:55.96	359.26	21.93	-41.4	-44.9	13.0	3.20e-05	0	60	0	187695104	53	5704
2026-01-28 00:34:56.97	359.14	22.05	-41.4	-44.9	13.0	4.04e-05	0	60	0	189792256	53	5680
2026-01-28 00:34:57.98	359.01	22.18	-41.5	-45.1	12.8	4.57e-05	0	60	0	191889408	53	5844
2026-01-28 00:34:58.99	358.89	22.31	-41.5	-45.0	12.8	4.50e-05	0	60	0	193986560	53	5783
2026-01-28 00:35:00.00	358.76	22.44	-41.4	-45.0	12.9	5.41e-05	0	60	0	195035136	53	5763
2026-01-28 00:35:01.01	358.63	22.56	-41.4	-44.9	13.0	3.81e-05	0	61	0	197132288	53	5694
2026-01-28 00:35:02.02	358.51	22.69	-41.7	-45.4	12.5	9.68e-05	0	60	0	199229440	53	6035
2026-01-28 00:35:03.03	358.38	22.82	-41.7	-45.4	12.5	9.38e-05	0	60	0	201326592	53	6053
2026-01-28 00:35:04.04	358.24	22.95	-41.9	-45.9	12.1	1.05e-04	0	60	0	203423744	54	6018
2026-01-28 00:35:05.05	358.11	23.08	-41.9	-45.8	12.1	2.50e-04	0	60	0	204472320	54	5960
2026-01-28 00:35:06.06	357.98	23.21	-41.9	-45.9	12.1	2.88e-04	0	60	0	206569472	54	6027
2026-01-28 00:35:07.08	357.84	23.35	-41.9	-45.8	12.2	2.68e-04	0	61	0	208666624	54	5964
2026-01-28 00:35:08.09	357.71	23.48	-41.8	-45.7	12.2	2.57e-04	0	61	0	210763776	54	5900
2026-01-28 00:35:09.10	357.57	23.61	-41.8	-45.6	12.4	1.82e-04	0	60	0	212860928	54	5792
2026-01-28 00:35:10.11	357.43	23.74	-41.9	-45.9	12.2	2.23e-04	0	60	0	213909504	54	6008
2026-01-28 00:35:11.12	357.29	23.88	-41.8	-45.6	12.4	2.20e-04	0	60	0	216006656	54	5803
2026-01-28 00:35:12.13	357.15	24.01	-41.9	-45.7	12.3	1.10e-04	0	61	0	218103808	54	5910
2026-01-28 00:35:13.14	357.01	24.15	-41.9	-45.7	12.3	1.88e-04	0	61	0	220200960	54	5910
2026-01-28 00:35:14.15	356.87	24.28	-41.7	-45.5	12.5	1.71e-04	0	60	0	222298112	54	5743
2026-01-28 00:35:15.16	356.72	24.42	-41.8	-45.7	12.3	1.65e-04	0	61	0	223346688	54	5891
2026-01-28 00:35:16.17	356.58	24.55	-42.0	-45.9	12.1	2.41e-04	0	60	0	225443840	54	6044
2026-01-28 00:35:17.18	356.43	24.69	-41.9	-45.9	12.1	3.19e-04	0	61	0	227540992	54	6011
2026-01-28 00:35:18.19	356.28	24.83	-42.0	-46.0	12.0	3.69e-04	0	61	0	229638144	54	6087
2026-01-28 00:35:19.20	356.14	24.96	-42.0	-46.0	12.0	4.30e-04	0	61	0	231735296	54	6126
2026-01-28 00:35:20.21	355.98	25.10	-42.2	-46.4	11.6	5.22e-04	0	61	0	232783872	55	6003
2026-01-28 00:35:21.22	355.83	25.24	-42.1	-46.2	11.8	5.23e-04	0	61	0	234881024	55	5911
2026-01-28 00:35:22.23	355.68	25.38	-42.2	-46.5	11.5	4.47e-04	0	61	0	236978176	55	6076
2026-01-28 00:35:23.24	355.52	25.52	-42.1	-46.1	11.9	5.39e-04	0	61	0	239075328	55	5824
2026-01-28 00:35:24.25	355.37	25.66	-42.1	-46.3	11.8	3.57e-04	0	61	0	241172480	55	5930
2026-01-28 00:35:25.26	355.21	25.80	-41.9	-45.8	12.2	3.06e-04	0	61	0	243269632	55	5629
2026-01-28 00:35:26.27	355.05	25.94	-41.8	-45.4	12.7	6.63e-05	0	60	0	244318208	55	5382
2026-01-28 00:35:27.28	354.89	26.08	-41.6	-45.1	13.0	5.26e-05	0	61	0	246415360	55	5196
2026-01-28 00:35:28.29	354.73	26.22	-41.5	-44.8	13.3	3.43e-05	0	61	0	248512512	54	5328
2026-01-28 00:35:29.30	354.56	26.37	-41.5	-44.8	13.3	2.28e-05	0	61	0	250609664	54	5336
2026-01-28 00:35:30.31	354.40	26.51	-41.4	-44.7	13.5	1.14e-05	0	61	0	252706816	54	5233
2026-01-28 00:35:31.32	354.23	26.65	-41.3	-44.6	13.6	1.06e-05	0	61	0	253755392	54	5169
2026-01-28 00:35:32.33	354.07	26.80	-41.5	-44.9	13.3	1.52e-05	0	61	0	255852544	54	5345
2026-01-28 00:35:33.34	353.90	26.94	-41.5	-45.0	13.2	2.44e-05	0	61	0	257949696	54	5407
2026-01-28 00:35:34.35	353.72	27.09	-41.6	-45.1	13.0	1.67e-05	0	61	0	260046848	54	5519
2026-01-28 00:35:35.36	353.55	27.23	-41.8	-45.3	12.8	4.65e-05	0	61	0	262144000	54	5645
2026-01-28 00:35:36.37	353.38	27.38	-41.7	-45.3	12.9	5.64e-05	0	61	0	263192576	54	5607
2026-01-28 00:35:37.38	353.20	27.52	-41.7	-45.3	12.8	5.41e-05	0	61	0	265289728	54	5625
2026-01-28 00:35:38.39	353.02	27.67	-41.8	-45.4	12.7	7.78e-05	0	61	0	267386880	54	5699
2026-01-28 00:35:39.40	352.84	27.82	-41.7	-45.2	12.9	6.10e-05	0	61	0	269484032	54	5578
2026-01-28 00:35:40.41	352.66	27.97	-41.7	-45.2	13.0	3.12e-05	0	61	0	271581184	54	5568
2026-01-28 00:35:41.42	352.48	28.11	-41.7	-45.3	12.9	7.09e-05	0	61	0	272629760	54	5613
2026-01-28 00:35:42.43	352.30	28.26	-41.6	-45.1	13.1	3.96e-05	0	61	0	274726912	54	5499
2026-01-28 00:35:43.44	352.11	28.41	-41.9	-45.7	12.6	5.64e-05	0	61	0	276824064	54	5880
2026-01-28 00:35:44.45	351.92	28.56	-41.8	-45.5	12.7	7.01e-05	0	61	0	278921216	54	5771
2026-01-28 00:35:45.46	351.73	28.71	-41.9	-45.6	12.5	9.61e-05	0	61	0	281018368	54	5836
2026-01-28 00:35:46.47	351.54	28.86	-41.9	-45.6	12.6	1.24e-04	0	61	0	283115520	54	5803
2026-01-28 00:35:47.48	351.35	29.01	-41.9	-45.7	12.6	1.23e-04	0	61	0	284164096	54	5865
2026-01-28 00:35:48.49	351.15	29.16	-41.9	-45.6	12.6	1.01e-04	0	61	0	286261248	54	5807
2026-01-28 00:35:49.50	350.95	29.32	-41.9	-45.6	12.5	7.70e-05	0	61	0	288358400	54	5832
2026-01-28 00:35:50.51	350.75	29.47	-41.9	-45.5	12.7	1.13e-04	0	61	0	290455552	54	5776
2026-01-28 00:35:51.52	350.55	29.62	-41.8	-45.5	12.7	9.15e-05	0	61	0	291504128	54	5729
2026-01-28 00:35:52.53	350.35	29.77	-42.0	-45.8	12.4	1.01e-04	0	61	0	293601280	54	5937
2026-01-28 00:35:53.54	350.15	29.93	-42.0	-45.8	12.4	1.30e-04	0	61	0	295698432	54	5946
2026-01-28 00:35:54.55	349.94	30.08	-42.0	-45.7	12.5	1.34e-04	0	61	0	297795584	54	5871
2026-01-28 00:35:55.56	349.73	30.24	-42.2	-46.3	11.9	2.22e-04	0	61	0	299892736	55	5956
2026-01-28 00:35:56.57	349.52	30.39	-42.2	-46.1	12.1	2.14e-04	0	61	0	301989888	55	5840
2026-01-28 00:35:57.58	349.30	30.55	-42.2	-46.1	12.0	2.64e-04	0	61	0	303038464	55	5852
2026-01-28 00:35:58.59	349.09	30.70	-42.1	-46.0	12.2	3.07e-04	0	61	0	305135616	55	5744
2026-01-28 00:35:59.60	348.87	30.86	-42.2	-46.1	12.1	2.73e-04	0	61	0	307232768	55	5807
2026-01-28 00:36:00.59	348.66	31.01	-42.2	-46.2	12.0	3.00e-04	0	61	0	309329920	55	5867
2026-01-28 00:36:01.60	348.44	31.17	-42.3	-46.4	11.8	4.49e-04	0	61	0	311427072	55	6057
2026-01-28 00:36:02.61	348.21	31.33	-42.4	-46.5	11.7	6.76e-04	0	61	0	312475648	55	6105
2026-01-28 00:36:03.62	347.99	31.48	-42.5	-46.7	11.5	5.72e-04	0	61	0	314572800	55	6239
2026-01-28 00:36:04.63	347.76	31.64	-42.4	-46.6	11.6	7.34e-04	0	61	0	316669952	55	6156
2026-01-28 00:36:05.64	347.53	31.80	-42.4	-46.5	11.7	5.78e-04	0	61	0	318767104	55	6099
2026-01-28 00:36:06.65	347.29	31.96	-42.3	-46.4	11.8	4.49e-04	0	61	0	320864256	55	6027
2026-01-28 00:36:07.66	347.06	32.12	-42.5	-46.7	11.5	6.22e-04	0	61	0	321912832	55	6212
2026-01-28 00:36:08.68	346.82	32.28	-42.4	-46.6	11.6	7.00e-04	0	61	0	324009984	55	6152
2026-01-28 00:36:09.69	346.58	32.44	-42.5	-46.8	11.4	9.25e-04	0	61	0	326107136	55	6337
2026-01-28 00:36:10.69	346.34	32.59	-42.5	-46.7	11.6	1.07e-03	0	61	0	328204288	55	6203
2026-01-28 00:36:11.71	346.09	32.75	-42.6	-47.0	11.2	8.71e-04	0	61	0	330301440	55	6473
2026-01-28 00:36:12.72	345.85	32.91	-42.6	-46.9	11.3	1.27e-03	0	61	0	331350016	55	6375
2026-01-28 00:36:13.73	345.60	33.08	-42.4	-46.6	11.5	6.74e-04	0	61	0	333447168	55	6167
2026-01-28 00:36:14.74	345.34	33.24	-42.6	-46.9	11.3	1.04e-03	0	61	0	335544320	55	6355
2026-01-28 00:36:15.75	345.09	33.40	-42.3	-46.2	11.9	1.17e-03	0	61	0	337641472	55	5915
2026-01-28 00:36:16.76	344.83	33.56	-42.5	-46.6	11.6	1.08e-03	0	61	0	339738624	55	6184
2026-01-28 00:36:17.77	344.57	33.72	-42.5	-46.8	11.4	9.58e-04	0	61	0	340787200	55	6309
2026-01-28 00:36:18.78	344.31	33.88	-42.3	-46.3	11.9	4.49e-04	0	61	0	342884352	55	5970
2026-01-28 00:36:19.79	344.04	34.04	-42.2	-46.2	12.0	4.68e-04	0	61	0	344981504	55	5891
2026-01-28 00:36:20.80	343.78	34.20	-42.0	-45.8	12.6	1.42e-04	0	61	0	347078656	55	5606
2026-01-28 00:36:21.81	343.51	34.36	-42.3	-46.2	12.1	2.92e-04	0	61	0	349175808	55	5900
2026-01-28 00:36:22.82	343.23	34.53	-42.2	-46.2	12.1	3.82e-04	0	61	0	351272960	55	5859
2026-01-28 00:36:23.83	342.96	34.69	-42.5	-46.7	11.6	8.90e-04	0	61	0	352321536	55	6258
2026-01-28 00:36:24.84	342.68	34.85	-42.9	-47.4	11.0	2.96e-03	0	61	0	354418688	56	6354
2026-01-28 00:36:25.85	342.40	35.01	-43.1	-47.9	10.5	3.80e-03	0	61	0	356515840	56	6772
2026-01-28 00:36:26.86	342.11	35.17	-43.4	-48.9	9.5	4.55e-03	0	61	0	358612992	57	7180
2026-01-28 00:36:27.87	341.82	35.34	-43.4	-48.8	9.5	1.44e-02	0	61	0	360710144	57	7115
2026-01-28 00:36:28.88	341.53	35.50	-43.5	-48.9	9.5	1.39e-02	0	61	0	361758720	57	7198
2026-01-28 00:36:29.89	341.24	35.66	-43.3	-48.5	9.8	1.68e-02	0	61	0	363855872	57	6877
2026-01-28 00:36:30.90	340.95	35.82	-43.2	-48.1	10.3	6.52e-03	0	61	0	365953024	57	6512
2026-01-28 00:36:31.92	340.64	35.99	-43.1	-47.9	10.5	4.48e-03	0	61	0	368050176	57	6382
2026-01-28 00:36:32.92	340.34	36.15	-42.9	-47.5	11.0	2.76e-03	0	61	0	370147328	57	6065
2026-01-28 00:36:33.94	340.04	36.31	-42.7	-47.0	11.5	8.71e-04	0	61	0	371195904	57	5728
2026-01-28 00:36:34.95	339.73	36.47	-42.4	-46.4	12.1	4.44e-04	0	61	0	373293056	56	5680
2026-01-28 00:36:35.96	339.42	36.63	-42.4	-46.4	12.1	2.67e-04	0	61	0	375390208	56	5673
2026-01-28 00:36:36.97	339.10	36.79	-42.5	-46.5	12.1	2.44e-04	0	61	0	377487360	56	5729
2026-01-28 00:36:37.98	338.78	36.95	-42.4	-46.3	12.2	1.61e-04	0	61	0	379584512	56	5631
2026-01-28 00:36:38.99	338.46	37.12	-42.5	-46.6	11.9	2.18e-04	0	61	0	380633088	56	5801
2026-01-28 00:36:40.00	338.14	37.28	-42.5	-46.5	11.9	6.66e-04	0	61	0	382730240	56	5765
2026-01-28 00:36:41.01	337.81	37.44	-42.7	-46.9	11.6	6.89e-04	0	61	0	384827392	56	6019
2026-01-28 00:36:42.02	337.48	37.60	-42.7	-46.9	11.6	9.76e-04	0	61	0	386924544	56	6052
2026-01-28 00:36:43.03	337.15	37.76	-42.7	-47.0	11.5	8.17e-04	0	61	0	389021696	56	6082
2026-01-28 00:36:44.04	336.81	37.92	-42.7	-47.0	11.4	6.24e-04	0	61	0	390070272	56	6110
2026-01-28 00:36:45.05	336.47	38.07	-42.9	-47.4	11.1	9.85e-04	0	61	0	392167424	56	6399
2026-01-28 00:36:46.06	336.13	38.23	-42.9	-47.3	11.1	1.70e-03	0	61	0	394264576	56	6342
2026-01-28 00:36:47.07	335.78	38.39	-43.0	-47.8	10.7	2.82e-03	0	61	0	396361728	56	6648
2026-01-28 00:36:48.08	335.43	38.55	-43.1	-47.9	10.6	2.60e-03	0	61	0	398458880	56	6757
2026-01-28 00:36:49.09	335.07	38.71	-43.3	-48.3	10.1	4.13e-03	0	61	0	399507456	57	6647
2026-01-28 00:36:50.10	334.72	38.86	-43.4	-48.8	9.6	8.10e-03	0	61	0	401604608	57	7103
2026-01-28 00:36:51.11	334.36	39.02	-43.3	-48.4	10.0	9.62e-03	0	61	0	403701760	57	6770
2026-01-28 00:36:52.12	333.99	39.17	-43.1	-47.8	10.6	4.30e-03	0	62	0	405798912	57	6311
2026-01-28 00:36:53.13	333.62	39.33	-42.5	-46.4	12.1	6.48e-04	0	61	0	407896064	57	5396
2026-01-28 00:36:54.14	333.25	39.48	-42.1	-45.5	13.0	7.47e-05	0	61	0	408944640	56	5142
2026-01-28 00:36:55.15	332.88	39.64	-41.9	-45.4	13.0	4.19e-05	0	61	0	411041792	55	5344
2026-01-28 00:36:56.16	332.50	39.79	-42.4	-46.3	12.0	6.79e-05	0	61	0	413138944	55	5976
2026-01-28 00:36:57.18	332.11	39.94	-43.1	-47.8	10.6	1.13e-03	0	61	0	415236096	56	6695
2026-01-28 00:36:58.18	331.73	40.09	-43.5	-49.0	9.2	8.32e-03	0	61	0	417333248	57	7268
2026-01-28 00:36:59.20	331.34	40.24	-43.4	-48.8	9.6	1.63e-02	0	61	0	419430400	57	7067
2026-01-28 00:37:00.21	330.94	40.39	-43.2	-48.1	10.4	6.16e-03	0	61	0	420478976	57	6500
2026-01-28 00:37:01.22	330.55	40.54	-42.7	-46.8	11.7	1.26e-03	0	61	0	422576128	57	5623
2026-01-28 00:37:02.22	330.15	40.69	-42.2	-45.8	12.7	2.66e-04	0	61	0	424673280	56	5335
2026-01-28 00:37:03.23	329.75	40.83	-42.1	-45.7	12.9	4.73e-05	0	61	0	426770432	56	5225
2026-01-28 00:37:04.24	329.34	40.98	-41.8	-45.3	13.1	4.73e-05	0	61	0	428867584	55	5285
2026-01-28 00:37:05.25	328.93	41.12	-42.0	-45.6	12.7	3.35e-05	0	61	0	429916160	55	5476
2026-01-28 00:37:06.26	328.51	41.27	-42.1	-45.9	12.4	9.53e-05	0	61	0	432013312	55	5661
2026-01-28 00:37:07.27	328.09	41.41	-42.1	-45.9	12.4	1.09e-04	0	61	0	434110464	55	5679
2026-01-28 00:37:08.28	327.67	41.55	-42.0	-45.7	12.6	1.65e-04	0	61	0	436207616	55	5587
2026-01-28 00:37:09.29	327.24	41.69	-42.2	-46.0	12.3	2.01e-04	0	61	0	438304768	55	5768
2026-01-28 00:37:10.30	326.81	41.83	-42.2	-46.0	12.3	2.14e-04	0	62	0	439353344	55	5760
2026-01-28 00:37:11.31	326.38	41.96	-42.1	-45.9	12.4	1.88e-04	0	61	0	441450496	55	5703
2026-01-28 00:37:12.32	325.94	42.10	-41.9	-45.4	12.9	7.01e-05	0	61	0	443547648	55	5349
2026-01-28 00:37:13.33	325.50	42.23	-41.5	-44.7	13.6	2.28e-05	0	61	0	445644800	55	4981
2026-01-28 00:37:14.34	325.05	42.37	-40.9	-43.8	14.6	2.20e-06	0	61	0	447741952	53	5015
2026-01-28 00:37:15.35	324.61	42.50	-40.6	-43.3	15.1	0.00e+00	0	62	0	448790528	53	4722
2026-01-28 00:37:16.36	324.15	42.63	-41.1	-44.0	14.3	0.00e+00	0	61	0	450887680	53	5146
2026-01-28 00:37:17.37	323.70	42.75	-41.7	-45.0	13.4	7.60e-06	0	61	0	452984832	54	5425
2026-01-28 00:37:18.37	323.24	42.88	-42.1	-45.9	12.5	2.97e-05	0	62	0	455081984	54	6023
2026-01-28 00:37:19.39	322.77	43.01	-42.2	-46.1	12.3	1.43e-04	0	61	0	457179136	54	6150
2026-01-28 00:37:20.40	322.31	43.13	-42.3	-46.3	12.1	2.08e-04	0	62	0	458227712	55	5990
2026-01-28 00:37:21.41	321.84	43.25	-42.0	-45.6	12.7	1.34e-04	0	61	0	460324864	55	5494
2026-01-28 00:37:22.42	321.36	43.37	-41.4	-44.6	13.8	1.29e-05	0	61	0	462422016	54	5205
2026-01-28 00:37:23.43	320.89	43.49	-41.2	-44.1	14.2	1.50e-06	0	61	0	464519168	54	4911
2026-01-28 00:37:24.44	320.40	43.60	-41.0	-43.9	14.6	2.20e-06	0	61	0	466616320	54	4768
2026-01-28 00:37:25.45	319.92	43.72	-41.1	-44.0	14.3	0.00e+00	0	62	0	467664896	53	5154
2026-01-28 00:37:26.46	319.43	43.83	-40.9	-43.7	14.7	7.00e-07	0	62	0	469762048	53	4951
2026-01-28 00:37:27.47	318.94	43.94	-40.7	-43.4	14.8	0.00e+00	0	62	0	471859200	53	4810
2026-01-28 00:37:28.48	318.44	44.05	-40.4	-42.9	15.5	0.00e+00	0	62	0	473956352	52	4763
2026-01-28 00:37:29.49	317.95	44.15	-40.8	-43.5	14.9	0.00e+00	0	61	0	476053504	52	5133
2026-01-28 00:37:30.50	317.44	44.26	-41.5	-44.8	13.5	7.00e-07	0	61	0	477102080	53	5640
2026-01-28 00:37:31.51	316.94	44.36	-41.9	-45.4	13.0	1.29e-05	0	61	0	479199232	54	5670
2026-01-28 00:37:32.52	316.43	44.46	-42.0	-45.7	12.7	6.10e-05	0	61	0	481296384	54	5880
2026-01-28 00:37:33.53	315.92	44.55	-42.2	-46.0	12.4	1.19e-04	0	61	0	483393536	55	5732
2026-01-28 00:37:34.54	315.41	44.65	-42.4	-46.5	11.9	1.80e-04	0	62	0	485490688	55	6067
2026-01-28 00:37:35.55	314.89	44.74	-42.6	-46.9	11.6	7.23e-04	0	62	0	487587840	55	6349
2026-01-28 00:37:36.56	314.37	44.83	-43.3	-48.5	9.9	4.08e-03	0	61	0	488636416	57	6872
2026-01-28 00:37:37.57	313.84	44.92	-43.4	-48.6	9.7	9.02e-03	0	62	0	490733568	57	6957
2026-01-28 00:37:38.58	313.32	45.00	-43.3	-48.3	10.2	9.40e-03	0	61	0	492830720	57	6662
2026-01-28 00:37:39.59	312.79	45.08	-43.0	-47.5	11.0	3.26e-03	0	61	0	494927872	57	6102
2026-01-28 00:37:40.60	312.26	45.16	-42.1	-45.6	12.9	3.59e-04	0	62	0	497025024	56	5193
2026-01-28 00:37:41.61	311.72	45.24	-41.3	-44.3	14.1	2.20e-06	0	61	0	498073600	54	5012
2026-01-28 00:37:42.62	311.19	45.31	-40.9	-43.7	14.7	0.00e+00	0	62	0	500170752	53	4928
2026-01-28 00:37:43.63	310.65	45.39	-41.3	-44.3	14.1	0.00e+00	0	61	0	502267904	53	5312
2026-01-28 00:37:44.64	310.10	45.45	-41.9	-45.4	12.9	1.14e-05	0	61	0	504365056	54	5679
2026-01-28 00:37:45.65	309.56	45.52	-42.2	-45.9	12.4	1.27e-04	0	62	0	506462208	54	6049
2026-01-28 00:37:46.66	309.01	45.58	-42.0	-45.6	12.7	1.01e-04	0	61	0	507510784	55	5527
2026-01-28 00:37:47.67	308.47	45.64	-41.7	-45.0	13.3	2.28e-05	0	61	0	509607936	55	5147
2026-01-28 00:37:48.68	307.91	45.70	-42.4	-46.3	12.0	1.27e-04	0	62	0	511705088	55	5967
2026-01-28 00:37:49.69	307.36	45.76	-43.0	-47.6	10.8	9.73e-04	0	62	0	513802240	56	6539
2026-01-28 00:37:50.70	306.81	45.81	-43.1	-47.9	10.5	4.05e-03	0	61	0	515899392	57	6404
2026-01-28 00:37:51.71	306.25	45.86	-43.0	-47.6	10.9	1.85e-03	0	61	0	516947968	57	6143
2026-01-28 00:37:52.72	305.69	45.91	-42.4	-46.2	12.4	4.36e-04	0	62	0	519045120	56	5575
2026-01-28 00:37:53.73	305.13	45.95	-42.3	-46.1	12.5	2.09e-04	0	61	0	521142272	56	5477
2026-01-28 00:37:54.74	304.57	45.99	-42.4	-46.2	12.3	2.67e-04	0	62	0	523239424	56	5588
2026-01-28 00:37:55.75	304.01	46.03	-42.4	-46.3	12.3	1.32e-04	0	62	0	525336576	56	5618
2026-01-28 00:37:56.75	303.45	46.06	-42.3	-46.0	12.4	1.24e-04	0	62	0	526385152	56	5448
2026-01-28 00:37:57.77	302.88	46.09	-42.2	-45.8	12.7	9.61e-05	0	62	0	528482304	56	5311
2026-01-28 00:37:58.78	302.31	46.12	-42.2	-45.9	12.7	9.15e-05	0	62	0	530579456	56	5373
2026-01-28 00:37:59.79	301.75	46.15	-42.6	-46.7	11.8	2.04e-04	0	62	0	532676608	56	5869
2026-01-28 00:38:00.79	301.18	46.17	-43.0	-47.7	10.9	5.45e-04	0	62	0	534773760	56	6574
2026-01-28 00:38:01.80	300.61	46.19	-43.2	-48.2	10.3	2.49e-03	0	62	0	535822336	56	7002
2026-01-28 00:38:02.81	300.04	46.20	-43.3	-48.6	9.8	3.49e-03	0	62	0	537919488	57	6887
2026-01-28 00:38:03.82	299.47	46.21	-43.1	-47.9	10.5	5.70e-03	0	61	0	540016640	57	6405
2026-01-28 00:38:04.83	298.90	46.22	-42.4	-46.4	12.2	1.04e-03	0	62	0	542113792	56	5672
2026-01-28 00:38:05.84	298.33	46.23	-42.3	-46.1	12.5	9.00e-05	0	62	0	544210944	56	5507
2026-01-28 00:38:06.85	297.76	46.23	-42.4	-46.2	12.4	6.10e-05	0	61	0	545259520	56	5530
2026-01-28 00:38:07.86	297.19	46.23	-42.3	-46.1	12.4	1.53e-04	0	62	0	547356672	56	5502
2026-01-28 00:38:08.87	296.62	46.23	-42.3	-46.0	12.5	9.68e-05	0	62	0	549453824	56	5422
2026-01-28 00:38:09.88	296.05	46.22	-41.8	-45.3	13.0	6.94e-05	0	62	0	551550976	55	5334
2026-01-28 00:38:10.89	295.48	46.22	-42.2	-46.0	12.4	1.04e-04	0	62	0	553648128	55	5768
2026-01-28 00:38:11.90	294.91	46.20	-42.4	-46.4	11.9	2.86e-04	0	62	0	555745280	55	6046
2026-01-28 00:38:12.91	294.34	46.19	-41.9	-45.5	12.6	2.17e-04	0	62	0	556793856	55	5414
2026-01-28 00:38:13.92	293.77	46.17	-41.3	-44.4	13.9	4.50e-06	0	62	0	558891008	54	5055
2026-01-28 00:38:14.93	293.20	46.15	-40.8	-43.5	14.7	1.50e-06	0	62	0	560988160	53	4870
2026-01-28 00:38:15.94	292.63	46.12	-41.1	-44.1	14.3	7.00e-07	0	62	0	563085312	53	5172
2026-01-28 00:38:16.95	292.07	46.09	-41.5	-44.8	13.5	2.20e-06	0	61	0	565182464	53	5648
2026-01-28 00:38:17.96	291.50	46.06	-41.9	-45.5	12.9	3.28e-05	0	62	0	566231040	54	5764
2026-01-28 00:38:18.97	290.94	46.03	-42.4	-46.4	11.9	1.81e-04	0	62	0	568328192	55	6034
2026-01-28 00:38:19.98	290.37	45.99	-42.4	-46.5	11.7	1.01e-03	0	62	0	570425344	55	6106
2026-01-28 00:38:20.99	289.81	45.95	-42.1	-45.7	12.6	2.19e-04	0	62	0	572522496	55	5560
2026-01-28 00:38:22.00	289.25	45.91	-42.1	-45.8	12.5	1.10e-04	0	62	0	574619648	55	5653
2026-01-28 00:38:23.01	288.69	45.86	-41.9	-45.5	12.9	6.71e-05	0	62	0	575668224	55	5439
2026-01-28 00:38:24.02	288.13	45.82	-41.9	-45.5	12.9	9.38e-05	0	61	0	577765376	55	5408
2026-01-28 00:38:25.03	287.58	45.76	-41.9	-45.5	12.9	3.96e-05	0	62	0	579862528	55	5439
2026-01-28 00:38:26.04	287.03	45.71	-42.0	-45.7	12.6	5.56e-05	0	62	0	581959680	55	5565
2026-01-28 00:38:27.05	286.47	45.65	-42.4	-46.5	11.7	3.39e-04	0	62	0	584056832	55	6106
2026-01-28 00:38:28.06	285.93	45.59	-42.4	-46.5	11.9	5.13e-04	0	62	0	585105408	55	6078
2026-01-28 00:38:29.07	285.38	45.53	-42.6	-46.8	11.6	8.67e-04	0	61	0	587202560	56	5977
2026-01-28 00:38:30.08	284.83	45.46	-42.7	-47.0	11.5	9.11e-04	0	62	0	589299712	56	6117
2026-01-28 00:38:31.09	284.29	45.39	-42.4	-46.3	12.2	4.34e-04	0	62	0	591396864	56	5632
2026-01-28 00:38:32.10	283.75	45.32	-42.0	-45.5	13.0	9.23e-05	0	62	0	593494016	56	5126
2026-01-28 00:38:33.11	283.21	45.25	-41.8	-45.2	13.2	1.60e-05	0	62	0	594542592	55	5265
2026-01-28 00:38:34.12	282.68	45.17	-42.4	-46.4	12.1	9.91e-05	0	62	0	596639744	55	6029
2026-01-28 00:38:35.13	282.14	45.09	-42.2	-46.1	12.2	1.28e-04	0	62	0	598736896	55	5791
2026-01-28 00:38:36.14	281.61	45.01	-42.0	-45.6	12.7	1.74e-04	0	62	0	600834048	55	5527
2026-01-28 00:38:37.15	281.09	44.92	-41.6	-44.8	13.6	8.30e-06	0	62	0	602931200	54	5322
2026-01-28 00:38:38.16	280.56	44.84	-41.4	-44.5	13.9	3.80e-06	0	62	0	603979776	54	5141
2026-01-28 00:38:39.17	280.04	44.75	-41.7	-45.0	13.4	7.60e-06	0	62	0	606076928	54	5453
2026-01-28 00:38:40.18	279.52	44.65	-41.7	-45.1	13.3	6.94e-05	0	62	0	608174080	54	5496
2026-01-28 00:38:41.19	279.01	44.56	-42.1	-45.9	12.3	2.34e-04	0	62	0	610271232	54	6033
2026-01-28 00:38:42.20	278.49	44.46	-41.7	-45.6	12.4	5.01e-03	0	62	0	612368384	54	5841
2026-01-28 00:38:43.21	277.98	44.36	-41.4	-46.0	12.1	1.33e-02	0	62	0	613416960	54	6117
2026-01-28 00:38:44.22	277.48	44.26	-41.4	-46.6	11.5	1.42e-02	0	62	0	615514112	54	6520
2026-01-28 00:38:45.24	276.97	44.16	-41.9	-46.8	11.3	1.41e-02	0	62	0	617611264	54	6668
2026-01-28 00:38:46.25	276.47	44.05	-41.4	-45.5	12.6	1.34e-02	0	62	0	619708416	54	5769
2026-01-28 00:38:47.26	275.97	43.95	-41.5	-45.7	12.4	1.29e-02	0	62	0	621805568	54	5868
2026-01-28 00:38:48.27	275.48	43.84	-41.9	-46.4	11.7	1.29e-02	0	62	0	623902720	54	6357
2026-01-28 00:38:49.27	275.00	43.72	-41.3	-45.9	12.1	1.35e-02	0	62	0	624951296	54	6025
2026-01-28 00:38:50.28	274.51	43.61	-41.1	-44.7	13.3	1.28e-02	0	62	0	627048448	54	5238
2026-01-28 00:38:51.29	274.03	43.50	-41.1	-44.0	14.1	1.98e-05	0	62	0	629145600	53	5152
2026-01-28 00:38:52.30	273.55	43.38	-40.8	-43.6	14.8	0.00e+00	0	62	0	631242752	53	4917
2026-01-28 00:38:53.31	273.07	43.26	-41.2	-44.3	14.1	2.20e-06	0	62	0	633339904	53	5303
2026-01-28 00:38:54.32	272.60	43.14	-41.4	-44.6	13.8	2.20e-06	0	62	0	634388480	53	5468
2026-01-28 00:38:55.33	272.13	43.01	-41.8	-45.4	13.0	1.83e-05	0	62	0	636485632	54	5670
2026-01-28 00:38:56.34	271.67	42.89	-42.0	-45.8	12.5	2.00e-04	0	62	0	638582784	55	5629
2026-01-28 00:38:57.35	271.21	42.76	-41.6	-44.9	13.3	4.88e-05	0	62	0	640679936	55	5092
2026-01-28 00:38:58.36	270.75	42.63	-41.1	-44.0	14.3	1.50e-06	0	62	0	642777088	54	4869
2026-01-28 00:38:59.37	270.30	42.50	-40.8	-43.5	14.8	0.00e+00	0	62	0	643825664	53	4858
2026-01-28 00:39:00.38	269.85	42.37	-41.1	-44.1	14.3	7.00e-07	0	62	0	645922816	53	5171
2026-01-28 00:39:01.39	269.40	42.24	-41.1	-44.1	14.2	7.00e-07	0	62	0	648019968	53	5200
2026-01-28 00:39:02.40	268.96	42.10	-40.8	-43.6	14.8	7.00e-07	0	62	0	650117120	53	4882
2026-01-28 00:39:03.41	268.52	41.97	-40.5	-43.2	15.2	7.00e-07	0	62	0	652214272	53	4684
2026-01-28 00:39:04.42	268.08	41.83	-40.5	-43.1	15.3	0.00e+00	0	62	0	653262848	53	4633
2026-01-28 00:39:05.43	267.65	41.69	-40.4	-42.9	15.5	0.00e+00	0	62	0	655360000	52	4789
2026-01-28 00:39:06.44	267.22	41.55	-40.0	-42.3	16.1	0.00e+00	0	62	0	657457152	51	4744
2026-01-28 00:39:07.45	266.80	41.41	-39.5	-41.6	16.8	0.00e+00	0	62	0	659554304	51	4372
2026-01-28 00:39:08.46	266.38	41.27	-39.3	-41.4	17.0	0.00e+00	0	62	0	661651456	50	4518
2026-01-28 00:39:09.47	265.96	41.13	-39.2	-41.3	17.1	0.00e+00	0	62	0	663748608	50	4455
2026-01-28 00:39:10.48	265.55	40.98	-39.2	-41.2	17.3	0.00e+00	0	61	0	664797184	50	4407
2026-01-28 00:39:11.50	265.14	40.83	-39.4	-41.6	16.9	0.00e+00	0	62	0	666894336	50	4602
2026-01-28 00:39:12.50	264.74	40.69	-39.8	-42.1	16.3	0.00e+00	0	62	0	668991488	50	4897
2026-01-28 00:39:13.51	264.33	40.54	-40.0	-42.4	16.0	7.00e-07	0	62	0	671088640	50	5095
2026-01-28 00:39:14.52	263.94	40.39	-39.6	-41.8	16.6	0.00e+00	0	62	0	673185792	50	4738
2026-01-28 00:39:15.53	263.54	40.24	-39.7	-41.9	16.5	0.00e+00	0	62	0	674234368	50	4814
2026-01-28 00:39:16.54	263.15	40.09	-39.8	-42.2	16.1	6.80e-06	0	62	0	676331520	50	4930
2026-01-28 00:39:17.55	262.76	39.94	-40.1	-42.6	15.6	2.61e-04	0	62	0	678428672	50	5192
2026-01-28 00:39:18.56	262.38	39.79	-40.2	-42.7	15.5	4.19e-04	0	62	0	680525824	51	4948
2026-01-28 00:39:19.57	262.00	39.64	-40.3	-42.7	15.6	0.00e+00	0	62	0	682622976	51	4966
2026-01-28 00:39:20.59	261.62	39.48	-40.9	-43.7	14.6	0.00e+00	0	62	0	683671552	52	5262
2026-01-28 00:39:21.60	261.25	39.33	-41.5	-44.8	13.5	7.00e-07	0	62	0	685768704	53	5656
2026-01-28 00:39:22.61	260.88	39.17	-41.3	-44.5	13.7	9.90e-06	0	62	0	687865856	53	5464
2026-01-28 00:39:23.62	260.51	39.01	-41.0	-44.0	14.3	3.00e-06	0	62	0	689963008	53	5132
2026-01-28 00:39:24.63	260.15	38.86	-40.6	-43.3	15.1	0.00e+00	0	62	0	692060160	53	4708
2026-01-28 00:39:25.64	259.79	38.70	-40.9	-43.7	14.6	0.00e+00	0	62	0	693108736	52	5276
2026-01-28 00:39:26.65	259.43	38.54	-41.1	-44.0	14.2	7.00e-07	0	62	0	695205888	52	5463
2026-01-28 00:39:27.65	259.09	38.39	-40.9	-43.8	14.5	0.00e+00	0	61	0	697303040	52	5334
2026-01-28 00:39:28.67	258.73	38.23	-40.8	-43.6	14.7	7.00e-07	0	62	0	699400192	52	5165
2026-01-28 00:39:29.68	258.39	38.07	-41.1	-44.1	14.1	0.00e+00	0	62	0	701497344	52	5526
2026-01-28 00:39:30.69	258.05	37.91	-41.4	-44.7	13.6	8.30e-06	0	62	0	702545920	53	5530
2026-01-28 00:39:31.70	257.71	37.75	-41.5	-44.8	13.5	1.22e-05	0	62	0	704643072	53	5602
2026-01-28 00:39:32.70	257.38	37.59	-40.9	-43.8	14.5	3.00e-06	0	62	0	706740224	53	5010
2026-01-28 00:39:33.71	257.04	37.43	-40.7	-43.4	14.9	0.00e+00	0	62	0	708837376	53	4779
2026-01-28 00:39:34.72	256.72	37.27	-40.8	-43.6	14.7	7.00e-07	0	62	0	710934528	53	4912
2026-01-28 00:39:35.74	256.39	37.11	-41.2	-44.3	14.0	0.00e+00	0	62	0	711983104	53	5305
2026-01-28 00:39:36.74	256.07	36.95	-40.9	-43.7	14.6	0.00e+00	0	62	0	714080256	53	4961
2026-01-28 00:39:37.76	255.75	36.78	-40.5	-43.1	15.2	0.00e+00	0	62	0	716177408	53	4629
2026-01-28 00:39:38.77	255.43	36.62	-40.5	-43.1	15.2	0.00e+00	0	62	0	718274560	52	4922
2026-01-28 00:39:39.78	255.12	36.46	-40.9	-43.8	14.4	7.00e-07	0	62	0	720371712	52	5337
2026-01-28 00:39:40.79	254.81	36.30	-41.1	-44.2	14.1	7.00e-07	0	62	0	721420288	52	5532
2026-01-28 00:39:41.80	254.50	36.13	-41.2	-44.2	14.0	1.50e-06	0	62	0	723517440	53	5269
2026-01-28 00:39:42.81	254.20	35.97	-41.3	-44.5	13.8	1.50e-06	0	62	0	725614592	53	5425
2026-01-28 00:39:43.82	253.90	35.81	-41.9	-45.4	12.8	1.22e-05	0	62	0	727711744	54	5713
2026-01-28 00:39:44.83	253.60	35.65	-42.3	-46.4	11.9	2.99e-04	0	62	0	729808896	55	6001
2026-01-28 00:39:45.84	253.31	35.48	-42.3	-46.3	11.9	5.53e-04	0	62	0	731906048	55	5954
2026-01-28 00:39:46.85	253.02	35.32	-42.1	-45.9	12.3	2.90e-04	0	62	0	732954624	55	5658
2026-01-28 00:39:47.86	252.73	35.16	-41.5	-44.8	13.4	2.51e-05	0	62	0	735051776	55	5011
2026-01-28 00:39:48.87	252.44	35.00	-41.6	-44.9	13.4	1.29e-05	0	62	0	737148928	55	5074
2026-01-28 00:39:49.88	252.16	34.83	-42.1	-45.8	12.5	2.36e-05	0	62	0	739246080	55	5623
2026-01-28 00:39:50.89	251.88	34.67	-42.2	-46.1	12.2	1.18e-04	0	62	0	741343232	55	5815
2026-01-28 00:39:51.90	251.60	34.51	-42.2	-46.1	12.2	2.57e-04	0	62	0	742391808	55	5796
2026-01-28 00:39:52.91	251.33	34.35	-42.4	-46.6	11.6	3.76e-04	0	62	0	744488960	55	6140
2026-01-28 00:39:53.92	251.05	34.18	-42.9	-47.4	11.0	5.13e-04	0	62	0	746586112	56	6383
2026-01-28 00:39:54.93	250.79	34.02	-43.4	-48.8	9.5	7.86e-03	0	62	0	748683264	57	7071
2026-01-28 00:39:55.94	250.52	33.86	-43.5	-49.2	9.0	2.18e-02	0	62	0	750780416	57	7448
2026-01-28 00:39:56.95	250.26	33.70	-43.4	-49.0	9.3	1.94e-02	0	62	0	751828992	57	7241
2026-01-28 00:39:57.96	250.00	33.54	-42.9	-47.6	10.7	4.16e-03	0	62	0	753926144	57	6175
2026-01-28 00:39:58.97	249.74	33.37	-42.8	-47.4	10.9	1.95e-03	0	62	0	756023296	57	6029
2026-01-28 00:39:59.98	249.48	33.21	-43.1	-47.9	10.3	2.51e-03	0	62	0	758120448	57	6420
2026-01-28 00:40:00.99	249.23	33.05	-43.5	-49.2	9.1	1.53e-02	0	62	0	760217600	57	7393
2026-01-28 00:40:02.00	248.98	32.89	-43.7	-49.8	8.5	4.98e-02	0	62	0	761266176	58	7497
2026-01-28 00:40:03.01	248.73	32.73	-43.7	-49.9	8.4	3.47e-02	0	62	0	763363328	58	7623
2026-01-28 00:40:04.02	248.48	32.57	-43.5	-49.0	9.3	2.97e-02	0	62	0	765460480	58	6830
2026-01-28 00:40:05.03	248.24	32.41	-43.5	-49.0	9.3	1.83e-02	0	62	0	767557632	58	6823
2026-01-28 00:40:06.04	248.00	32.25	-43.3	-48.6	9.7	1.54e-02	0	62	0	769654784	58	6554
2026-01-28 00:40:07.05	247.76	32.09	-43.1	-48.1	10.4	5.77e-03	0	62	0	770703360	58	6155
2026-01-28 00:40:08.06	247.52	31.93	-42.8	-47.3	11.0	4.03e-03	0	62	0	772800512	57	5950
2026-01-28 00:40:09.07	247.29	31.77	-42.7	-47.0	11.4	1.57e-03	0	62	0	774897664	57	5738
2026-01-28 00:40:10.08	247.06	31.61	-42.8	-47.2	11.1	9.47e-04	0	62	0	776994816	57	5889
2026-01-28 00:40:11.09	246.83	31.45	-42.8	-47.2	11.1	1.24e-03	0	62	0	779091968	57	5879
2026-01-28 00:40:12.10	246.60	31.30	-42.8	-47.2	11.1	1.74e-03	0	62	0	780140544	57	5920
2026-01-28 00:40:13.11	246.38	31.14	-42.7	-47.1	11.3	1.41e-03	0	62	0	782237696	57	5804
2026-01-28 00:40:14.12	246.15	30.98	-42.4	-46.4	11.8	9.59e-04	0	62	0	784334848	56	5700
2026-01-28 00:40:15.13	245.93	30.82	-42.2	-46.0	12.4	3.93e-04	0	62	0	786432000	56	5456
2026-01-28 00:40:16.14	245.71	30.67	-42.3	-46.1	12.3	2.34e-04	0	62	0	788529152	56	5507
2026-01-28 00:40:17.15	245.50	30.51	-41.8	-45.4	12.9	5.34e-05	0	62	0	789577728	55	5356
2026-01-28 00:40:18.16	245.28	30.36	-42.1	-46.1	12.2	9.46e-05	0	62	0	791674880	55	5829
2026-01-28 00:40:19.17	245.07	30.20	-42.3	-46.3	11.9	3.29e-04	0	62	0	793772032	55	5992
2026-01-28 00:40:20.18	244.86	30.04	-42.6	-47.0	11.1	1.32e-03	0	62	0	795869184	55	6467
2026-01-28 00:40:21.19	244.65	29.89	-42.2	-46.2	12.0	7.79e-04	0	62	0	797966336	55	5897
2026-01-28 00:40:22.20	244.45	29.74	-42.2	-46.2	12.0	4.01e-04	0	62	0	799014912	55	5857
2026-01-28 00:40:23.21	244.24	29.58	-42.1	-45.9	12.3	1.90e-04	0	62	0	801112064	55	5695
2026-01-28 00:40:24.22	244.04	29.43	-42.1	-46.0	12.2	1.42e-04	0	62	0	803209216	55	5756
2026-01-28 00:40:25.23	243.84	29.28	-41.9	-45.7	12.5	7.93e-05	0	62	0	805306368	55	5533
2026-01-28 00:40:26.24	243.64	29.12	-42.3	-46.4	11.9	1.50e-04	0	62	0	807403520	55	6003
2026-01-28 00:40:27.25	243.45	28.97	-42.3	-46.4	11.8	4.75e-04	0	62	0	809500672	55	6029
2026-01-28 00:40:28.25	243.25	28.82	-42.2	-46.3	11.9	5.10e-04	0	62	0	810549248	55	5942
2026-01-28 00:40:29.27	243.06	28.67	-42.4	-46.6	11.5	5.90e-04	0	62	0	812646400	55	6200
2026-01-28 00:40:30.28	242.87	28.52	-42.4	-46.7	11.5	8.73e-04	0	62	0	814743552	55	6223
2026-01-28 00:40:31.29	242.68	28.37	-42.5	-46.9	11.3	1.00e-03	0	62	0	816840704	55	6350
2026-01-28 00:40:32.29	242.49	28.22	-42.2	-46.3	11.9	3.20e-04	0	62	0	818937856	55	5951
2026-01-28 00:40:33.30	242.31	28.07	-42.2	-46.1	12.0	4.78e-04	0	62	0	819986432	55	5846
2026-01-28 00:40:34.31	242.12	27.92	-42.2	-46.2	12.0	3.07e-04	0	62	0	822083584	55	5891
2026-01-28 00:40:35.32	241.94	27.77	-42.1	-46.0	12.2	3.23e-04	0	62	0	824180736	55	5749
2026-01-28 00:40:36.33	241.76	27.62	-42.0	-45.7	12.5	2.07e-04	0	62	0	826277888	55	5564
2026-01-28 00:40:37.34	241.58	27.48	-42.1	-45.9	12.2	1.38e-04	0	62	0	828375040	55	5713
2026-01-28 00:40:38.35	241.41	27.33	-41.9	-45.6	12.6	1.17e-04	0	62	0	829423616	55	5478
2026-01-28 00:40:39.36	241.23	27.18	-41.8	-45.3	12.8	8.54e-05	0	62	0	831520768	55	5334
2026-01-28 00:40:40.37	241.06	27.04	-41.7	-45.2	13.0	6.86e-05	0	62	0	833617920	55	5235
2026-01-28 00:40:41.38	240.89	26.89	-41.7	-45.3	13.0	4.19e-05	0	62	0	835715072	55	5288
2026-01-28 00:40:42.39	240.71	26.75	-41.5	-44.9	13.3	3.12e-05	0	62	0	837812224	55	5058
2026-01-28 00:40:43.40	240.55	26.60	-41.7	-45.3	13.0	2.59e-05	0	62	0	838860800	54	5596
2026-01-28 00:40:44.41	240.38	26.46	-41.7	-45.2	13.0	4.42e-05	0	62	0	840957952	54	5545
2026-01-28 00:40:45.42	240.21	26.31	-41.6	-45.1	13.1	2.74e-05	0	62	0	843055104	54	5501
2026-01-28 00:40:46.43	240.05	26.17	-41.8	-45.5	12.7	5.72e-05	0	62	0	845152256	54	5758
2026-01-28 00:40:47.44	239.88	26.03	-41.9	-45.6	12.6	1.11e-04	0	62	0	847249408	54	5823
2026-01-28 00:40:48.45	239.72	25.89	-42.1	-46.0	12.2	2.90e-04	0	62	0	848297984	55	5723
2026-01-28 00:40:49.46	239.56	25.74	-42.0	-45.8	12.4	1.33e-04	0	62	0	850395136	55	5643
2026-01-28 00:40:50.47	239.40	25.60	-42.1	-46.0	12.2	1.72e-04	0	62	0	852492288	55	5745
2026-01-28 00:40:51.48	239.25	25.46	-41.6	-45.1	13.0	9.91e-05	0	62	0	854589440	55	5208
2026-01-28 00:40:52.49	239.09	25.32	-41.4	-44.7	13.4	3.28e-05	0	62	0	856686592	54	5260
2026-01-28 00:40:53.50	238.94	25.18	-41.1	-44.2	14.0	3.00e-06	0	62	0	857735168	54	4945
2026-01-28 00:40:54.51	238.78	25.04	-41.1	-44.2	14.0	0.00e+00	0	62	0	859832320	53	5251
2026-01-28 00:40:55.52	238.63	24.91	-41.0	-44.0	14.1	0.00e+00	0	62	0	861929472	53	5153
2026-01-28 00:40:56.53	238.48	24.77	-41.0	-44.0	14.1	0.00e+00	0	62	0	864026624	53	5135
2026-01-28 00:40:57.54	238.33	24.63	-41.4	-44.7	13.5	2.20e-06	0	62	0	866123776	53	5535
2026-01-28 00:40:58.55	238.19	24.49	-41.6	-45.1	13.1	1.60e-05	0	62	0	867172352	53	5804
2026-01-28 00:40:59.55	238.04	24.36	-41.9	-45.6	12.6	8.39e-05	0	62	0	869269504	54	5798
2026-01-28 00:41:00.56	237.90	24.22	-41.9	-45.7	12.4	1.07e-04	0	62	0	871366656	54	5908
2026-01-28 00:41:01.57	237.75	24.09	-42.1	-46.1	12.0	2.02e-04	0	62	0	873463808	54	6184
2026-01-28 00:41:02.58	237.61	23.95	-41.9	-45.7	12.5	1.37e-04	0	62	0	875560960	54	5883
2026-01-28 00:41:03.59	237.47	23.82	-42.1	-46.0	12.1	1.15e-04	0	62	0	877658112	54	6090
2026-01-28 00:41:04.60	237.33	23.68	-42.0	-45.8	12.3	2.15e-04	0	62	0	878706688	54	5991
2026-01-28 00:41:05.61	237.19	23.55	-42.0	-45.8	12.3	1.69e-04	0	62	0	880803840	54	5963
2026-01-28 00:41:06.62	237.05	23.42	-42.1	-46.0	12.1	2.95e-04	0	62	0	882900992	55	5783
2026-01-28 00:41:07.63	236.91	23.28	-42.3	-46.4	11.7	3.77e-04	0	62	0	884998144	55	6030
2026-01-28 00:41:08.64	236.78	23.15	-42.4	-46.8	11.3	9.02e-04	0	62	0	887095296	55	6318
2026-01-28 00:41:09.65	236.64	23.02	-42.6	-47.2	10.9	1.62e-03	0	62	0	888143872	55	6603
2026-01-28 00:41:10.66	236.51	22.89	-42.5	-47.0	11.0	2.82e-03	0	62	0	890241024	55	6472
2026-01-28 00:41:11.67	236.38	22.76	-42.3	-46.5	11.5	1.20e-03	0	62	0	892338176	55	6107
2026-01-28 00:41:12.68	236.25	22.63	-42.2	-46.2	11.9	5.80e-04	0	62	0	894435328	55	5895
2026-01-28 00:41:13.69	236.12	22.50	-41.9	-45.7	12.4	2.95e-04	0	62	0	896532480	55	5571
2026-01-28 00:41:14.70	235.99	22.37	-41.8	-45.5	12.6	9.38e-05	0	62	0	897581056	55	5424
2026-01-28 00:41:15.71	235.86	22.24	-41.6	-45.1	13.0	3.81e-05	0	62	0	899678208	55	5195
2026-01-28 00:41:16.72	235.74	22.11	-41.6	-45.0	13.2	2.59e-05	0	62	0	901775360	55	5125
2026-01-28 00:41:17.73	235.61	21.99	-41.4	-44.8	13.3	1.29e-05	0	62	0	903872512	54	5319
2026-01-28 00:41:18.74	235.49	21.86	-41.4	-44.6	13.5	1.06e-05	0	62	0	905969664	54	5214
2026-01-28 00:41:19.75	235.36	21.73	-41.4	-44.7	13.5	9.90e-06	0	62	0	907018240	54	5221
2026-01-28 00:41:20.76	235.24	21.61	-41.2	-44.3	13.8	7.60e-06	0	62	0	909115392	54	5018
2026-01-28 00:41:21.77	235.12	21.48	-41.1	-44.3	13.8	3.80e-06	0	62	0	911212544	54	5010
2026-01-28 00:41:22.78	235.00	21.35	-41.1	-44.1	14.0	4.50e-06	0	62	0	913309696	54	4920
2026-01-28 00:41:23.79	234.88	21.23	-41.1	-44.3	13.8	1.50e-06	0	62	0	915406848	54	5019
2026-01-28 00:41:24.80	234.76	21.11	-41.2	-44.4	13.8	9.10e-06	0	62	0	916455424	54	5050
2026-01-28 00:41:25.81	234.64	20.98	-41.2	-44.4	13.7	4.50e-06	0	62	0	918552576	54	5086
2026-01-28 00:41:26.82	234.53	20.86	-41.3	-44.7	13.4	9.10e-06	0	62	0	920649728	54	5242
2026-01-28 00:41:27.83	234.41	20.74	-41.4	-44.7	13.4	1.22e-05	0	62	0	922746880	54	5271
2026-01-28 00:41:28.84	234.30	20.61	-41.6	-45.1	13.0	2.89e-05	0	62	0	924844032	54	5486
2026-01-28 00:41:29.85	234.18	20.49	-41.5	-45.0	13.1	2.36e-05	0	62	0	925892608	54	5408
2026-01-28 00:41:30.86	234.07	20.37	-41.6	-45.2	12.9	2.74e-05	0	62	0	927989760	54	5547
2026-01-28 00:41:31.87	233.96	20.25	-41.6	-45.1	12.9	4.57e-05	0	62	0	930086912	54	5504
2026-01-28 00:41:32.88	233.85	20.13	-41.4	-44.8	13.1	3.20e-05	0	62	0	932184064	54	5340
2026-01-28 00:41:33.89	233.74	20.01	-41.5	-44.9	13.2	3.20e-05	0	62	0	934281216	54	5355
2026-01-28 00:41:34.90	233.63	19.89	-41.4	-44.7	13.4	1.67e-05	0	62	0	935329792	54	5255
2026-01-28 00:41:35.91	233.52	19.77	-41.3	-44.5	13.6	1.29e-05	0	62	0	937426944	54	5134
2026-01-28 00:41:36.92	233.41	19.65	-41.2	-44.4	13.6	7.60e-06	0	62	0	939524096	54	5098
2026-01-28 00:41:37.93	233.31	19.53	-41.2	-44.5	13.6	7.60e-06	0	62	0	941621248	54	5101
2026-01-28 00:41:38.94	233.20	19.42	-41.2	-44.5	13.6	8.30e-06	0	62	0	943718400	54	5109
2026-01-28 00:41:39.95	233.10	19.30	-41.4	-44.8	13.2	1.14e-05	0	62	0	945815552	54	5292
2026-01-28 00:41:40.96	232.99	19.18	-41.5	-45.1	13.0	2.82e-05	0	62	0	946864128	54	5485
2026-01-28 00:41:41.97	232.89	19.07	-41.6	-45.3	12.7	4.27e-05	0	62	0	948961280	54	5615
2026-01-28 00:41:42.98	232.79	18.95	-41.8	-45.6	12.4	1.19e-04	0	62	0	951058432	54	5813
2026-01-28 00:41:43.99	232.68	18.84	-41.9	-45.8	12.2	2.05e-04	0	62	0	953155584	54	5963
2026-01-28 00:41:45.00	232.58	18.72	-42.0	-46.0	12.0	3.35e-04	0	62	0	955252736	54	6093
2026-01-28 00:41:46.01	232.48	18.61	-42.0	-46.0	12.0	2.76e-04	0	62	0	956301312	54	6081
2026-01-28 00:41:47.02	232.38	18.49	-42.1	-46.2	11.8	3.44e-04	0	62	0	958398464	54	6215
2026-01-28 00:41:48.03	232.28	18.38	-42.1	-46.1	11.8	4.57e-04	0	62	0	960495616	54	6197
2026-01-28 00:41:49.04	232.19	18.27	-42.1	-46.3	11.8	5.59e-04	0	62	0	962592768	54	6282
2026-01-28 00:41:50.05	232.09	18.15	-42.2	-46.4	11.5	8.03e-04	0	62	0	964689920	55	6050
2026-01-28 00:41:51.06	231.99	18.04	-42.1	-46.3	11.6	6.64e-04	0	62	0	965738496	55	5973
2026-01-28 00:41:52.08	231.90	17.93	-42.2	-46.5	11.5	7.33e-04	0	62	0	967835648	55	6076
2026-01-28 00:41:53.09	231.80	17.82	-42.2	-46.4	11.4	7.90e-04	0	62	0	969932800	55	6042
2026-01-28 00:41:54.10	231.71	17.70	-42.2	-46.4	11.4	9.06e-04	0	62	0	972029952	55	6044
2026-01-28 00:41:55.11	231.61	17.59	-42.1	-46.4	11.6	7.12e-04	0	62	0	974127104	55	5994
2026-01-28 00:41:56.12	231.52	17.48	-42.0	-46.1	11.8	4.71e-04	0	62	0	975175680	55	5855
2026-01-28 00:41:57.13	231.43	17.37	-41.9	-45.8	12.1	3.35e-04	0	62	0	977272832	55	5632
2026-01-28 00:41:58.14	231.34	17.26	-41.7	-45.5	12.5	1.71e-04	0	62	0	979369984	55	5413
2026-01-28 00:41:59.15	231.25	17.16	-41.7	-45.4	12.6	1.24e-04	0	62	0	981467136	55	5361
2026-01-28 00:42:00.16	231.16	17.05	-41.5	-45.0	12.9	8.85e-05	0	62	0	983564288	55	5156
2026-01-28 00:42:01.17	231.07	16.94	-41.4	-44.8	13.2	3.43e-05	0	62	0	985661440	54	5338
2026-01-28 00:42:02.18	230.98	16.83	-41.3	-44.7	13.3	2.74e-05	0	62	0	986710016	54	5265
2026-01-28 00:42:03.19	230.89	16.72	-41.3	-44.7	13.2	2.59e-05	0	62	0	988807168	54	5273
2026-01-28 00:42:04.20	230.80	16.62	-41.3	-44.8	13.2	2.21e-05	0	62	0	990904320	54	5280
2026-01-28 00:42:05.21	230.71	16.51	-41.4	-44.9	13.1	3.05e-05	0	62	0	993001472	54	5344
2026-01-28 00:42:06.22	230.63	16.40	-41.5	-45.0	12.9	3.50e-05	0	62	0	994050048	54	5448
2026-01-28 00:42:07.23	230.54	16.30	-41.5	-45.1	12.9	3.66e-05	0	62	0	996147200	54	5476
2026-01-28 00:42:08.24	230.46	16.19	-41.6	-45.2	12.7	6.56e-05	0	62	0	998244352	54	5588
2026-01-28 00:42:09.25	230.37	16.09	-41.6	-45.4	12.6	9.61e-05	0	62	0	1000341504	54	5658
2026-01-28 00:42:10.26	230.29	15.98	-41.6	-45.2	12.7	8.77e-05	0	62	0	1002438656	54	5583
2026-01-28 00:42:11.27	230.21	15.88	-41.7	-45.5	12.5	1.49e-04	0	62	0	1003487232	54	5725
2026-01-28 00:42:12.28	230.12	15.77	-41.8	-45.6	12.3	1.87e-04	0	62	0	1005584384	54	5830
2026-01-28 00:42:13.29	230.04	15.67	-41.6	-45.4	12.5	1.33e-04	0	62	0	1007681536	54	5684
2026-01-28 00:42:14.30	229.96	15.57	-41.7	-45.6	12.3	1.45e-04	0	62	0	1009778688	54	5815
2026-01-28 00:42:15.31	229.88	15.47	-41.6	-45.4	12.5	1.30e-04	0	62	0	1011875840	54	5695
2026-01-28 00:42:16.32	229.80	15.36	-41.5	-45.2	12.7	7.40e-05	0	62	0	1013972992	54	5535
2026-01-28 00:42:17.33	229.72	15.26	-41.6	-45.3	12.7	9.30e-05	0	62	0	1015021568	54	5597
2026-01-28 00:42:18.34	229.64	15.16	-41.5	-45.2	12.7	8.08e-05	0	62	0	1017118720	54	5567
2026-01-28 00:42:19.35	229.56	15.06	-41.5	-45.2	12.7	5.87e-05	0	62	0	1019215872	54	5532
2026-01-28 00:42:20.36	229.48	14.96	-41.6	-45.4	12.5	1.17e-04	0	62	0	1021313024	54	5657
2026-01-28 00:42:21.37	229.41	14.86	-41.6	-45.4	12.5	1.16e-04	0	62	0	1023410176	54	5680
2026-01-28 00:42:22.38	229.33	14.76	-41.7	-45.5	12.3	1.58e-04	0	62	0	1024458752	54	5783
2026-01-28 00:42:23.39	229.25	14.66	-41.7	-45.5	12.3	1.65e-04	0	62	0	1026555904	54	5778
2026-01-28 00:42:24.40	229.18	14.56	-41.9	-45.9	11.9	3.52e-04	0	62	0	1028653056	54	6058
2026-01-28 00:42:25.41	229.10	14.46	-41.9	-46.0	11.8	4.44e-04	0	62	0	1030750208	54	6102
2026-01-28 00:42:26.42	229.03	14.36	-42.1	-46.4	11.4	4.64e-04	0	62	0	1032847360	54	6395
2026-01-28 00:42:27.43	228.95	14.26	-42.2	-46.7	11.1	1.35e-03	0	62	0	1033895936	54	6586
2026-01-28 00:42:28.44	228.88	14.16	-42.2	-46.8	11.0	1.68e-03	0	62	0	1035993088	55	6298
2026-01-28 00:42:29.45	228.80	14.07	-42.4	-47.1	10.6	2.82e-03	0	62	0	1038090240	55	6565
2026-01-28 00:42:30.46	228.73	13.97	-42.4	-47.2	10.5	3.84e-03	0	62	0	1040187392	55	6599
2026-01-28 00:42:31.47	228.66	13.87	-42.5	-47.4	10.4	3.80e-03	0	62	0	1042284544	55	6770
2026-01-28 00:42:32.48	228.59	13.77	-42.5	-47.5	10.2	4.56e-03	0	62	0	1043333120	55	6802
2026-01-28 00:42:33.49	228.51	13.68	-42.5	-47.4	10.3	4.65e-03	0	62	0	1045430272	55	6798
2026-01-28 00:42:34.51	228.44	13.58	-42.4	-47.3	10.4	5.03e-03	0	62	0	1047527424	55	6698
2026-01-28 00:42:35.52	228.37	13.49	-42.4	-47.4	10.4	4.37e-03	0	62	0	1049624576	55	6731
2026-01-28 00:42:36.53	228.30	13.39	-42.4	-47.1	10.6	3.75e-03	0	62	0	1051721728	55	6546
2026-01-28 00:42:37.54	228.23	13.30	-42.3	-46.9	10.8	2.68e-03	0	62	0	1053818880	55	6416
2026-01-28 00:42:38.55	228.16	13.20	-42.3	-47.0	10.6	2.83e-03	0	62	0	1054867456	55	6491
2026-01-28 00:42:39.56	228.10	13.11	-42.2	-46.8	10.7	3.15e-03	0	62	0	1056964608	55	6345
2026-01-28 00:42:40.57	228.03	13.01	-42.2	-46.8	10.9	1.94e-03	0	62	0	1059061760	55	6330
2026-01-28 00:42:41.58	227.96	12.92	-42.2	-46.8	10.9	2.45e-03	0	62	0	1061158912	55	6330
2026-01-28 00:42:42.59	227.89	12.82	-42.2	-46.7	11.0	2.44e-03	0	62	0	1063256064	55	6221
2026-01-28 00:42:43.60	227.82	12.73	-42.2	-46.7	11.0	1.91e-03	0	62	0	1064304640	55	6253
2026-01-28 00:42:44.61	227.76	12.64	-42.2	-46.8	10.9	1.78e-03	0	62	0	1066401792	55	6296
2026-01-28 00:42:45.62	227.69	12.55	-42.2	-46.8	11.0	1.81e-03	0	62	0	1068498944	55	6277
2026-01-28 00:42:46.63	227.63	12.45	-42.1	-46.6	11.1	1.82e-03	0	62	0	1070596096	55	6194
2026-01-28 00:42:47.64	227.56	12.36	-42.2	-46.7	10.9	1.69e-03	0	62	0	1072693248	55	6263
2026-01-28 00:42:48.65	227.50	12.27	-42.1	-46.6	11.0	1.78e-03	0	62	0	1073741824	55	6189
2026-01-28 00:42:49.66	227.43	12.18	-42.2	-46.8	10.9	1.87e-03	0	62	0	1075838976	55	6288
2026-01-28 00:42:50.67	227.37	12.09	-42.1	-46.7	10.9	2.01e-03	0	62	0	1077936128	55	6249
2026-01-28 00:42:51.68	227.31	12.00	-42.1	-46.6	11.0	1.92e-03	0	62	0	1080033280	55	6188
2026-01-28 00:42:52.68	227.24	11.91	-42.1	-46.6	11.1	1.89e-03	0	62	0	1082130432	55	6154
