passes_logs/2026/01/28/R2.0S_Moscow/R2.0S_Moscow__20260128_220228_NOAA_21_JPSS-2_rec.log

#Pass ID: 20260128_220228_NOAA 21 (JPSS-2)
#Satellite: NOAA 21 (JPSS-2)
#Configuration: NOAA-21
#almurnet v.1.7.20251203
#Start time: 2026-01-28 22:02:29

#Version: 2.2.20231116
#Station: R2.0S_Moscow
#Location: 37.707566 lon 55.798166 lat
#TLE: 1 54234U 22150A   26027.77052245  .00000166  00000+0  99439-4 0  9997
#TLE: 2 54234  98.7510 328.5165 0000872 203.6403 156.4733 14.19540252166628

#Time	Az	El	Level	Level2	SNR	BER	BlckErr	Temp	State	Recorded	gain1	gain2
2026-01-28 22:02:29.30	26.39	2.04	-42.2	-54.5	3.8	1.49e+00	0	49	0	0	56	14457
2026-01-28 22:02:30.31	26.47	2.10	-42.2	-54.5	3.8	1.49e+00	0	50	104	0	56	14472
2026-01-28 22:02:31.32	26.55	2.15	-42.2	-54.5	3.8	1.49e+00	0	50	104	0	56	14437
2026-01-28 22:02:32.33	26.63	2.20	-42.2	-54.5	3.8	1.49e+00	0	50	104	0	56	14432
2026-01-28 22:02:33.34	26.70	2.26	-42.2	-54.5	3.8	1.49e+00	0	50	104	0	56	14440
2026-01-28 22:02:34.35	26.78	2.31	-42.2	-54.5	3.8	1.49e+00	0	50	104	0	56	14481
2026-01-28 22:02:35.36	26.86	2.36	-42.2	-54.5	3.8	1.49e+00	0	50	104	0	56	14473
2026-01-28 22:02:36.37	26.94	2.42	-42.2	-54.5	3.8	1.49e+00	0	50	104	0	56	14440
2026-01-28 22:02:37.38	27.02	2.47	-42.2	-54.5	3.8	1.49e+00	0	50	104	0	56	14462
2026-01-28 22:02:38.39	27.10	2.52	-42.2	-54.5	3.8	1.49e+00	0	50	104	0	56	14498
2026-01-28 22:02:39.40	27.18	2.58	-42.2	-54.5	3.8	1.49e+00	0	50	104	0	56	14489
2026-01-28 22:02:40.41	27.26	2.63	-42.2	-54.5	3.8	1.49e+00	0	50	104	0	56	14441
2026-01-28 22:02:41.42	27.34	2.69	-42.2	-54.5	3.8	1.49e+00	0	50	104	0	56	14479
2026-01-28 22:02:42.43	27.42	2.74	-42.2	-54.5	3.8	1.49e+00	0	50	104	0	56	14422
2026-01-28 22:02:43.44	27.50	2.79	-42.2	-54.5	3.8	1.49e+00	0	50	104	0	56	14444
2026-01-28 22:02:44.46	27.59	2.85	-42.2	-54.5	3.8	1.49e+00	0	51	104	0	56	14416
2026-01-28 22:02:45.47	27.67	2.90	-42.2	-54.5	3.8	1.49e+00	0	51	104	0	56	14421
2026-01-28 22:02:46.48	27.75	2.96	-42.2	-54.5	3.8	1.49e+00	0	51	104	0	56	14431
2026-01-28 22:02:47.49	27.83	3.01	-42.2	-54.5	3.8	1.49e+00	0	51	104	0	56	14489
2026-01-28 22:02:48.50	27.92	3.07	-42.2	-54.5	3.8	1.49e+00	0	51	104	0	56	14448
2026-01-28 22:02:49.51	28.00	3.12	-42.2	-54.5	3.8	1.49e+00	0	51	104	0	56	14443
2026-01-28 22:02:50.52	28.08	3.17	-42.2	-54.5	3.8	1.49e+00	0	51	104	0	56	14479
2026-01-28 22:02:51.53	28.17	3.23	-42.2	-54.5	3.8	1.49e+00	0	51	104	0	56	14440
2026-01-28 22:02:52.54	28.25	3.28	-42.2	-54.5	3.8	1.49e+00	0	51	104	0	56	14465
2026-01-28 22:02:53.55	28.33	3.34	-42.2	-54.5	3.8	1.49e+00	0	51	104	0	56	14466
2026-01-28 22:02:54.56	28.42	3.39	-42.2	-54.5	3.8	1.49e+00	0	51	104	0	56	14430
2026-01-28 22:02:55.57	28.50	3.45	-42.2	-54.5	3.8	1.49e+00	0	51	104	0	56	14446
2026-01-28 22:02:56.59	28.59	3.50	-42.2	-54.5	3.8	1.49e+00	0	51	104	0	56	14479
2026-01-28 22:02:57.60	28.67	3.56	-42.2	-54.5	3.8	1.49e+00	0	51	104	0	56	14450
2026-01-28 22:02:58.61	28.76	3.61	-42.2	-54.5	3.8	1.49e+00	0	51	104	0	56	14468
2026-01-28 22:02:59.62	28.85	3.67	-42.2	-54.5	3.8	1.49e+00	0	52	104	0	56	14412
2026-01-28 22:03:00.63	28.93	3.72	-42.2	-54.5	3.8	1.49e+00	0	51	104	0	56	14417
2026-01-28 22:03:01.64	29.02	3.78	-42.2	-54.5	3.8	1.49e+00	0	52	104	0	56	14470
2026-01-28 22:03:02.65	29.10	3.83	-42.2	-54.5	3.8	1.49e+00	0	52	104	0	56	14456
2026-01-28 22:03:03.66	29.19	3.89	-42.2	-54.5	3.8	1.49e+00	0	52	104	0	56	14449
2026-01-28 22:03:04.67	29.28	3.94	-42.2	-54.5	3.8	1.49e+00	0	52	104	0	56	14431
2026-01-28 22:03:05.68	29.37	4.00	-42.2	-54.5	3.8	1.49e+00	0	52	104	0	56	14423
2026-01-28 22:03:06.69	29.46	4.06	-42.2	-54.5	3.8	1.49e+00	0	52	104	0	56	14415
2026-01-28 22:03:07.70	29.54	4.11	-42.2	-54.5	3.8	1.49e+00	0	52	104	0	56	14419
2026-01-28 22:03:08.71	29.63	4.17	-42.2	-54.5	3.8	1.49e+00	0	52	104	0	56	14408
2026-01-28 22:03:09.72	29.72	4.22	-42.2	-54.5	3.8	1.49e+00	0	52	104	0	56	14467
2026-01-28 22:03:10.73	29.81	4.28	-42.2	-54.5	3.8	1.49e+00	0	52	104	0	56	14433
2026-01-28 22:03:11.74	29.90	4.33	-42.2	-54.5	3.8	1.49e+00	0	52	104	0	56	14400
2026-01-28 22:03:12.75	29.99	4.39	-42.2	-54.5	3.8	1.49e+00	0	52	104	0	56	14456
2026-01-28 22:03:13.76	30.08	4.44	-42.2	-54.5	3.8	1.49e+00	0	52	104	0	56	14464
2026-01-28 22:03:14.77	30.17	4.50	-42.2	-54.5	3.8	1.49e+00	0	52	104	0	56	14447
2026-01-28 22:03:15.78	30.26	4.56	-42.2	-54.5	3.8	1.49e+00	0	52	104	0	56	14396
2026-01-28 22:03:16.79	30.35	4.61	-42.2	-54.5	3.8	1.49e+00	0	52	104	0	56	14425
2026-01-28 22:03:17.81	30.45	4.67	-42.2	-54.5	3.8	1.49e+00	0	53	104	0	56	14445
2026-01-28 22:03:18.82	30.54	4.73	-42.2	-54.5	3.8	1.49e+00	0	53	104	0	56	14462
2026-01-28 22:03:19.83	30.63	4.78	-42.2	-54.5	3.8	1.49e+00	0	53	104	0	56	14458
2026-01-28 22:03:20.84	30.72	4.84	-42.2	-54.5	3.8	1.49e+00	0	53	104	0	56	14412
2026-01-28 22:03:21.85	30.82	4.89	-42.2	-54.5	3.8	1.49e+00	0	53	104	0	56	14472
2026-01-28 22:03:22.86	30.91	4.95	-42.2	-54.5	3.8	1.49e+00	0	53	104	0	56	14500
2026-01-28 22:03:23.87	31.00	5.01	-42.2	-54.5	3.8	1.49e+00	0	53	104	0	56	14431
2026-01-28 22:03:24.88	31.10	5.06	-42.2	-54.5	3.8	1.49e+00	0	53	104	0	56	14429
2026-01-28 22:03:25.89	31.19	5.12	-42.2	-54.5	3.8	1.49e+00	0	53	104	0	56	14456
2026-01-28 22:03:26.90	31.29	5.18	-42.2	-54.5	3.8	1.49e+00	0	53	104	0	56	14440
2026-01-28 22:03:27.91	31.38	5.23	-42.2	-54.5	3.8	1.49e+00	0	53	104	0	56	14431
2026-01-28 22:03:28.92	31.48	5.29	-42.2	-54.5	3.8	1.49e+00	0	53	104	0	56	14389
2026-01-28 22:03:29.93	31.57	5.35	-42.2	-54.5	3.8	1.49e+00	0	53	104	0	56	14445
2026-01-28 22:03:30.94	31.67	5.40	-42.2	-54.5	3.8	1.49e+00	0	53	104	0	56	14398
2026-01-28 22:03:31.95	31.77	5.46	-42.2	-54.5	3.8	1.49e+00	0	53	104	0	56	14453
2026-01-28 22:03:32.96	31.86	5.52	-42.2	-54.5	3.8	1.49e+00	0	53	104	0	56	14451
2026-01-28 22:03:33.97	31.96	5.58	-42.2	-54.5	3.8	1.49e+00	0	53	104	0	56	14444
2026-01-28 22:03:34.98	32.06	5.63	-42.2	-54.5	3.8	1.49e+00	0	53	104	0	56	14435
2026-01-28 22:03:36.00	32.16	5.69	-42.2	-54.5	3.8	1.49e+00	0	53	104	0	56	14424
2026-01-28 22:03:37.01	32.25	5.75	-42.2	-54.5	3.8	1.49e+00	0	54	104	0	56	14437
2026-01-28 22:03:38.02	32.35	5.80	-42.2	-54.5	3.8	1.49e+00	0	54	104	0	56	14415
2026-01-28 22:03:39.03	32.45	5.86	-42.2	-54.5	3.8	1.49e+00	0	53	104	0	56	14447
2026-01-28 22:03:40.04	32.55	5.92	-42.2	-54.5	3.8	1.49e+00	0	54	104	0	56	14436
2026-01-28 22:03:41.05	32.65	5.98	-42.2	-54.5	3.8	1.49e+00	0	54	104	0	56	14391
2026-01-28 22:03:42.06	32.75	6.03	-42.2	-54.5	3.8	1.49e+00	0	54	104	0	56	14474
2026-01-28 22:03:43.07	32.85	6.09	-42.2	-54.5	3.8	1.49e+00	0	54	104	0	56	14391
2026-01-28 22:03:44.08	32.95	6.15	-42.2	-54.5	3.8	1.49e+00	0	54	104	0	56	14440
2026-01-28 22:03:45.09	33.05	6.21	-42.2	-54.5	3.8	1.49e+00	0	54	104	0	56	14404
2026-01-28 22:03:46.10	33.16	6.26	-42.2	-54.5	3.8	1.49e+00	0	54	104	0	56	14416
2026-01-28 22:03:47.11	33.26	6.32	-42.2	-54.5	3.8	1.49e+00	0	54	104	0	56	14447
2026-01-28 22:03:48.12	33.36	6.38	-42.2	-54.5	3.8	1.49e+00	0	54	104	0	56	14458
2026-01-28 22:03:49.13	33.46	6.44	-42.2	-54.5	3.8	1.49e+00	0	54	104	0	56	14400
2026-01-28 22:03:50.14	33.57	6.50	-42.2	-54.4	3.8	1.49e+00	0	54	104	0	56	14251
2026-01-28 22:03:51.15	33.67	6.55	-42.2	-54.4	3.8	1.49e+00	0	54	104	0	56	14249
2026-01-28 22:03:52.16	33.77	6.61	-42.2	-54.4	3.8	1.49e+00	0	54	104	0	56	14229
2026-01-28 22:03:53.17	33.88	6.67	-42.2	-54.3	3.8	1.49e+00	0	54	104	0	56	14197
2026-01-28 22:03:54.18	33.98	6.73	-42.2	-54.4	3.8	1.49e+00	0	54	104	0	56	14255
2026-01-28 22:03:55.19	34.09	6.79	-42.2	-54.4	3.8	1.49e+00	0	54	104	0	56	14341
2026-01-28 22:03:56.20	34.19	6.85	-42.2	-54.5	3.8	1.49e+00	0	54	104	0	56	14405
2026-01-28 22:03:57.21	34.30	6.90	-42.2	-54.4	3.8	1.49e+00	0	54	104	0	56	14352
2026-01-28 22:03:58.22	34.41	6.96	-42.2	-54.4	3.8	1.49e+00	0	54	104	0	56	14359
2026-01-28 22:03:59.23	34.51	7.02	-42.2	-54.3	3.8	1.49e+00	0	54	104	0	56	14206
2026-01-28 22:04:00.24	34.62	7.08	-42.2	-54.3	3.8	1.49e+00	0	54	104	0	56	14201
2026-01-28 22:04:01.25	34.73	7.14	-42.2	-54.3	3.8	1.49e+00	0	54	104	0	56	14079
2026-01-28 22:04:02.26	34.84	7.20	-42.2	-54.3	3.8	1.49e+00	0	54	104	0	56	14067
2026-01-28 22:04:03.28	34.95	7.26	-42.2	-54.4	3.8	1.49e+00	0	55	104	0	56	14345
2026-01-28 22:04:04.29	35.05	7.31	-42.2	-54.3	3.8	1.49e+00	0	55	104	0	56	14149
2026-01-28 22:04:05.29	35.16	7.37	-42.2	-54.4	3.8	1.49e+00	0	54	104	0	56	14337
2026-01-28 22:04:06.31	35.27	7.43	-42.2	-54.5	3.8	1.49e+00	0	55	104	0	56	14374
2026-01-28 22:04:07.32	35.38	7.49	-42.2	-54.5	3.8	1.49e+00	0	55	104	0	56	14405
2026-01-28 22:04:08.33	35.49	7.55	-42.2	-54.5	3.8	1.49e+00	0	55	104	0	56	14386
2026-01-28 22:04:09.33	35.60	7.61	-42.2	-54.3	3.8	1.49e+00	0	55	104	0	56	14172
2026-01-28 22:04:10.35	35.72	7.67	-42.2	-54.4	3.8	1.49e+00	0	55	104	0	56	14228
2026-01-28 22:04:11.36	35.83	7.73	-42.1	-53.4	3.8	1.49e+00	0	55	104	0	56	12803
2026-01-28 22:04:12.37	35.94	7.79	-42.0	-52.5	3.8	1.49e+00	0	55	104	0	56	11544
2026-01-28 22:04:13.38	36.05	7.84	-42.0	-52.6	3.8	1.49e+00	0	55	104	0	56	11599
2026-01-28 22:04:14.39	36.17	7.90	-41.8	-51.5	4.0	1.48e+00	0	55	104	0	55	10855
2026-01-28 22:04:15.40	36.28	7.96	-41.6	-49.9	4.5	1.46e+00	0	55	104	0	55	9031
2026-01-28 22:04:16.41	36.39	8.02	-41.2	-48.2	5.3	6.67e-01	0	55	0	1048576	54	7843
2026-01-28 22:04:17.42	36.51	8.08	-41.6	-47.0	7.3	1.94e-01	0	55	0	4194304	53	7259
2026-01-28 22:04:18.43	36.62	8.14	-43.8	-55.7	3.8	1.46e+00	0	55	104	4194304	58	14772
2026-01-28 22:04:19.44	36.74	8.20	-40.5	-45.9	6.9	1.39e+00	0	55	104	5242880	53	6365
2026-01-28 22:04:20.45	36.86	8.26	-41.0	-45.1	9.3	1.85e-02	0	55	0	7340032	52	6141
2026-01-28 22:04:21.46	36.97	8.32	-40.0	-43.2	11.1	1.69e-01	0	55	0	10485760	51	5224
2026-01-28 22:04:22.47	37.09	8.38	-40.0	-43.6	10.4	1.04e-02	0	55	0	13631488	51	5470
2026-01-28 22:04:23.48	37.21	8.44	-40.2	-43.6	10.6	3.06e-03	0	55	0	16777216	51	5518
2026-01-28 22:04:24.49	37.32	8.50	-40.0	-43.2	11.1	2.15e-03	0	55	0	19922944	51	5273
2026-01-28 22:04:25.50	37.44	8.56	-39.6	-42.6	11.7	7.07e-04	0	55	0	23068672	51	4911
2026-01-28 22:04:26.51	37.56	8.62	-39.7	-42.7	11.7	4.60e-04	0	55	0	26214400	51	4959
2026-01-28 22:04:27.52	37.68	8.68	-40.0	-43.1	11.3	1.45e-03	0	55	0	29360128	51	5213
2026-01-28 22:04:28.52	37.80	8.74	-39.9	-42.9	11.6	9.14e-04	0	55	0	32505856	51	5072
2026-01-28 22:04:29.53	37.92	8.80	-39.9	-42.9	11.7	5.24e-04	0	55	0	35651584	51	5070
2026-01-28 22:04:30.54	38.04	8.86	-39.8	-42.8	11.8	4.29e-04	0	55	0	38797312	51	4986
2026-01-28 22:04:31.55	38.16	8.92	-39.9	-42.8	11.8	5.19e-04	0	55	0	41943040	51	5024
2026-01-28 22:04:32.56	38.28	8.98	-40.0	-43.0	11.7	4.42e-04	0	55	0	45088768	51	5136
2026-01-28 22:04:33.57	38.40	9.04	-39.8	-42.7	11.9	3.49e-04	0	56	0	48234496	51	4976
2026-01-28 22:04:34.58	38.53	9.10	-39.8	-42.7	12.1	3.17e-04	0	56	0	51380224	51	4927
2026-01-28 22:04:35.59	38.65	9.16	-39.9	-42.8	11.9	4.00e-04	0	56	0	54525952	51	5004
2026-01-28 22:04:36.61	38.77	9.22	-39.7	-42.5	12.4	1.67e-04	0	55	0	57671680	51	4822
2026-01-28 22:04:37.62	38.90	9.28	-39.9	-42.8	12.0	3.05e-04	0	55	0	60817408	51	5011
2026-01-28 22:04:38.63	39.02	9.34	-39.8	-42.6	12.3	1.93e-04	0	56	0	63963136	51	4887
2026-01-28 22:04:39.64	39.15	9.40	-39.9	-42.8	12.1	1.65e-04	0	56	0	67108864	51	5019
2026-01-28 22:04:40.65	39.27	9.46	-39.9	-42.7	12.3	2.46e-04	0	56	0	70254592	51	4943
2026-01-28 22:04:41.66	39.40	9.52	-40.1	-42.9	12.1	2.94e-04	0	56	0	73400320	51	5090
2026-01-28 22:04:42.67	39.52	9.58	-39.9	-42.7	12.3	1.78e-04	0	56	0	76546048	51	4949
2026-01-28 22:04:43.68	39.65	9.64	-39.9	-42.6	12.4	1.65e-04	0	56	0	79691776	51	4902
2026-01-28 22:04:44.69	39.78	9.70	-39.9	-42.7	12.4	1.40e-04	0	56	0	82837504	51	4937
2026-01-28 22:04:45.70	39.91	9.76	-39.9	-42.6	12.4	1.06e-04	0	56	0	85983232	51	4914
2026-01-28 22:04:46.71	40.04	9.82	-39.8	-42.5	12.6	1.18e-04	0	56	0	89128960	51	4823
2026-01-28 22:04:47.72	40.16	9.88	-39.8	-42.5	12.6	1.11e-04	0	56	0	92274688	51	4829
2026-01-28 22:04:48.73	40.29	9.94	-39.8	-42.5	12.6	1.10e-04	0	56	0	95420416	51	4844
2026-01-28 22:04:49.74	40.42	10.00	-39.9	-42.6	12.5	1.10e-04	0	56	0	98566144	51	4885
2026-01-28 22:04:50.75	40.55	10.06	-40.0	-42.7	12.4	1.48e-04	0	56	0	101711872	51	4968
2026-01-28 22:04:51.76	40.69	10.12	-39.9	-42.7	12.4	1.62e-04	0	56	0	104857600	51	4934
2026-01-28 22:04:52.77	40.82	10.18	-40.0	-42.8	12.3	1.55e-04	0	56	0	108003328	51	5029
2026-01-28 22:04:53.78	40.95	10.24	-40.0	-42.8	12.3	1.99e-04	0	56	0	111149056	51	5021
2026-01-28 22:04:54.79	41.08	10.30	-40.1	-42.9	12.3	2.17e-04	0	56	0	114294784	51	5063
2026-01-28 22:04:55.80	41.21	10.36	-40.0	-42.8	12.3	1.36e-04	0	56	0	117440512	51	5002
2026-01-28 22:04:56.81	41.35	10.42	-40.0	-42.8	12.2	2.17e-04	0	56	0	120586240	51	5032
2026-01-28 22:04:57.82	41.48	10.48	-40.1	-42.9	12.3	1.80e-04	0	56	0	123731968	51	5053
2026-01-28 22:04:58.83	41.62	10.55	-39.9	-42.6	12.5	1.66e-04	0	56	0	126877696	50	5173
2026-01-28 22:04:59.84	41.75	10.61	-39.9	-42.7	12.5	1.48e-04	0	56	0	130023424	50	5233
2026-01-28 22:05:00.85	41.89	10.67	-39.8	-42.5	12.7	1.31e-04	0	56	0	133169152	50	5131
2026-01-28 22:05:01.86	42.03	10.73	-39.8	-42.4	12.8	5.56e-05	0	56	0	137363456	50	5047
2026-01-28 22:05:02.87	42.16	10.79	-39.8	-42.4	12.9	5.56e-05	0	56	0	140509184	50	5056
2026-01-28 22:05:03.88	42.30	10.85	-39.7	-42.3	12.9	4.65e-05	0	56	0	143654912	50	5025
2026-01-28 22:05:04.89	42.44	10.91	-39.7	-42.3	12.9	4.80e-05	0	56	0	145752064	50	4993
2026-01-28 22:05:05.90	42.58	10.97	-39.7	-42.2	13.0	3.73e-05	0	56	0	149946368	50	4981
2026-01-28 22:05:06.91	42.72	11.03	-39.7	-42.3	13.0	2.89e-05	0	56	0	153092096	50	5008
2026-01-28 22:05:07.92	42.86	11.09	-39.8	-42.4	12.9	4.57e-05	0	56	0	156237824	50	5066
2026-01-28 22:05:08.93	43.00	11.15	-39.8	-42.4	12.8	4.27e-05	0	56	0	159383552	50	5084
2026-01-28 22:05:09.94	43.14	11.21	-39.9	-42.5	12.7	5.34e-05	0	56	0	162529280	50	5142
2026-01-28 22:05:10.95	43.28	11.27	-39.9	-42.5	12.7	6.56e-05	0	56	0	165675008	50	5153
2026-01-28 22:05:11.96	43.42	11.33	-39.8	-42.4	12.9	4.27e-05	0	56	0	168820736	50	5057
2026-01-28 22:05:12.97	43.56	11.39	-39.8	-42.4	12.9	6.86e-05	0	56	0	171966464	50	5093
2026-01-28 22:05:13.98	43.71	11.45	-39.6	-42.1	13.2	2.74e-05	0	56	0	175112192	50	4910
2026-01-28 22:05:14.99	43.85	11.52	-39.7	-42.2	13.1	3.66e-05	0	56	0	178257920	50	4958
2026-01-28 22:05:16.00	43.99	11.58	-39.7	-42.2	13.1	2.74e-05	0	56	0	181403648	50	4933
2026-01-28 22:05:17.01	44.14	11.64	-39.6	-42.1	13.2	2.21e-05	0	56	0	184549376	50	4900
2026-01-28 22:05:18.03	44.28	11.70	-39.7	-42.2	13.2	2.21e-05	0	56	0	187695104	50	4928
2026-01-28 22:05:19.04	44.43	11.76	-39.6	-42.0	13.4	1.75e-05	0	56	0	190840832	50	4847
2026-01-28 22:05:20.05	44.58	11.82	-39.6	-42.0	13.3	1.90e-05	0	56	0	193986560	50	4855
2026-01-28 22:05:21.06	44.72	11.88	-39.6	-42.1	13.3	2.44e-05	0	56	0	197132288	50	4888
2026-01-28 22:05:22.07	44.87	11.94	-39.6	-42.0	13.3	9.90e-06	0	56	0	200278016	50	4863
2026-01-28 22:05:23.08	45.02	12.00	-39.7	-42.1	13.2	1.75e-05	0	56	0	203423744	50	4899
2026-01-28 22:05:24.09	45.17	12.06	-39.6	-42.1	13.3	1.67e-05	0	57	0	206569472	50	4877
2026-01-28 22:05:25.10	45.32	12.12	-39.6	-42.0	13.4	1.37e-05	0	57	0	209715200	50	4846
2026-01-28 22:05:26.11	45.47	12.18	-39.6	-42.1	13.3	1.75e-05	0	56	0	212860928	50	4900
2026-01-28 22:05:27.12	45.62	12.24	-39.6	-42.0	13.4	9.10e-06	0	57	0	216006656	50	4844
2026-01-28 22:05:28.13	45.77	12.30	-39.5	-41.9	13.5	7.60e-06	0	57	0	219152384	50	4807
2026-01-28 22:05:29.14	45.92	12.36	-39.5	-41.9	13.4	1.37e-05	0	57	0	222298112	50	4801
2026-01-28 22:05:30.15	46.08	12.42	-39.5	-41.8	13.6	9.10e-06	0	56	0	225443840	50	4735
2026-01-28 22:05:31.16	46.23	12.48	-39.5	-41.8	13.6	1.22e-05	0	57	0	228589568	50	4739
2026-01-28 22:05:32.17	46.38	12.54	-39.5	-41.8	13.6	1.14e-05	0	57	0	231735296	50	4748
2026-01-28 22:05:33.18	46.54	12.60	-39.5	-41.8	13.6	4.50e-06	0	57	0	234881024	50	4719
2026-01-28 22:05:34.19	46.69	12.67	-39.5	-41.9	13.5	1.44e-05	0	57	0	238026752	50	4775
2026-01-28 22:05:35.20	46.85	12.73	-39.6	-42.0	13.5	6.10e-06	0	57	0	241172480	50	4819
2026-01-28 22:05:36.22	47.01	12.79	-39.6	-42.0	13.4	6.80e-06	0	57	0	244318208	50	4838
2026-01-28 22:05:37.23	47.16	12.85	-39.6	-42.0	13.4	1.52e-05	0	57	0	247463936	50	4844
2026-01-28 22:05:38.24	47.32	12.91	-39.7	-42.1	13.3	1.14e-05	0	57	0	250609664	50	4893
2026-01-28 22:05:39.25	47.48	12.97	-39.6	-42.0	13.4	1.14e-05	0	57	0	253755392	50	4846
2026-01-28 22:05:40.26	47.64	13.03	-39.7	-42.1	13.3	1.29e-05	0	57	0	256901120	50	4884
2026-01-28 22:05:41.27	47.80	13.09	-39.7	-42.1	13.3	2.13e-05	0	57	0	260046848	50	4918
2026-01-28 22:05:42.28	47.96	13.15	-39.7	-42.1	13.4	1.37e-05	0	57	0	263192576	50	4876
2026-01-28 22:05:43.29	48.12	13.21	-39.6	-42.1	13.4	1.37e-05	0	57	0	266338304	50	4880
2026-01-28 22:05:44.30	48.28	13.27	-39.6	-42.0	13.4	9.10e-06	0	57	0	269484032	50	4866
2026-01-28 22:05:45.31	48.44	13.33	-39.6	-41.9	13.5	9.90e-06	0	57	0	272629760	50	4802
2026-01-28 22:05:46.32	48.60	13.38	-39.5	-41.9	13.6	8.30e-06	0	57	0	275775488	50	4775
2026-01-28 22:05:47.33	48.77	13.44	-39.6	-41.9	13.6	9.90e-06	0	57	0	278921216	50	4792
2026-01-28 22:05:48.34	48.93	13.50	-39.5	-41.8	13.7	6.10e-06	0	57	0	282066944	50	4736
2026-01-28 22:05:49.36	49.10	13.56	-39.6	-41.9	13.6	7.60e-06	0	57	0	285212672	50	4789
2026-01-28 22:05:50.37	49.26	13.62	-39.6	-41.9	13.6	2.20e-06	0	57	0	288358400	50	4788
2026-01-28 22:05:51.38	49.43	13.68	-39.6	-41.9	13.6	1.37e-05	0	57	0	291504128	50	4804
2026-01-28 22:05:52.39	49.59	13.74	-39.5	-41.8	13.7	6.10e-06	0	57	0	294649856	50	4708
2026-01-28 22:05:53.40	49.76	13.80	-39.4	-41.7	13.8	6.10e-06	0	57	0	297795584	50	4656
2026-01-28 22:05:54.41	49.93	13.86	-39.4	-41.7	13.9	3.80e-06	0	57	0	300941312	50	4653
2026-01-28 22:05:55.42	50.10	13.92	-39.3	-41.6	13.9	3.00e-06	0	57	0	304087040	50	4625
2026-01-28 22:05:56.43	50.27	13.98	-39.4	-41.6	13.9	5.30e-06	0	57	0	307232768	50	4632
2026-01-28 22:05:57.44	50.43	14.04	-39.3	-41.5	14.0	1.50e-06	0	57	0	310378496	50	4592
2026-01-28 22:05:58.45	50.61	14.10	-39.4	-41.7	13.8	2.20e-06	0	57	0	313524224	50	4683
2026-01-28 22:05:59.46	50.78	14.15	-39.4	-41.7	13.8	3.00e-06	0	57	0	316669952	50	4692
2026-01-28 22:06:00.47	50.95	14.21	-39.5	-41.9	13.6	3.80e-06	0	57	0	319815680	50	4762
2026-01-28 22:06:01.48	51.12	14.27	-39.6	-41.9	13.6	1.06e-05	0	57	0	322961408	50	4789
2026-01-28 22:06:02.50	51.29	14.33	-39.6	-41.9	13.7	3.80e-06	0	57	0	326107136	50	4786
2026-01-28 22:06:03.51	51.47	14.39	-39.5	-41.8	13.8	1.06e-05	0	57	0	329252864	50	4723
2026-01-28 22:06:04.52	51.64	14.45	-39.5	-41.8	13.8	6.80e-06	0	57	0	332398592	50	4726
2026-01-28 22:06:05.53	51.82	14.50	-39.5	-41.8	13.7	7.60e-06	0	57	0	335544320	50	4752
2026-01-28 22:06:06.54	51.99	14.56	-39.5	-41.8	13.7	6.80e-06	0	57	0	338690048	50	4759
2026-01-28 22:06:07.55	52.17	14.62	-39.6	-42.0	13.6	1.44e-05	0	57	0	341835776	50	4836
2026-01-28 22:06:08.56	52.35	14.68	-39.6	-42.0	13.6	6.80e-06	0	57	0	344981504	50	4846
2026-01-28 22:06:09.57	52.52	14.74	-39.5	-41.9	13.7	6.80e-06	0	57	0	348127232	50	4762
2026-01-28 22:06:10.58	52.70	14.79	-39.5	-41.8	13.7	3.80e-06	0	57	0	351272960	50	4752
2026-01-28 22:06:11.60	52.88	14.85	-39.5	-41.8	13.8	4.50e-06	0	57	0	354418688	50	4735
2026-01-28 22:06:12.61	53.06	14.91	-39.5	-41.8	13.8	3.00e-06	0	57	0	357564416	50	4721
2026-01-28 22:06:13.62	53.24	14.97	-39.5	-41.8	13.7	4.50e-06	0	57	0	360710144	50	4744
2026-01-28 22:06:14.63	53.42	15.02	-39.4	-41.7	13.8	3.00e-06	0	57	0	363855872	50	4688
2026-01-28 22:06:15.64	53.61	15.08	-39.4	-41.6	13.9	5.30e-06	0	57	0	367001600	50	4617
2026-01-28 22:06:16.65	53.79	15.14	-39.3	-41.6	14.0	2.20e-06	0	57	0	370147328	50	4608
2026-01-28 22:06:17.66	53.97	15.19	-39.4	-41.6	14.0	1.50e-06	0	57	0	373293056	50	4633
2026-01-28 22:06:18.67	54.16	15.25	-39.4	-41.7	13.9	3.00e-06	0	57	0	376438784	50	4682
2026-01-28 22:06:19.68	54.34	15.31	-39.4	-41.7	13.9	3.80e-06	0	57	0	379584512	50	4694
2026-01-28 22:06:20.69	54.52	15.36	-39.4	-41.7	13.9	6.80e-06	0	57	0	382730240	50	4671
2026-01-28 22:06:21.70	54.71	15.42	-39.5	-41.8	13.8	5.30e-06	0	57	0	385875968	50	4729
2026-01-28 22:06:22.71	54.90	15.47	-39.5	-41.8	13.7	5.30e-06	0	57	0	389021696	50	4759
2026-01-28 22:06:23.72	55.08	15.53	-39.6	-41.9	13.7	3.80e-06	0	57	0	392167424	50	4808
2026-01-28 22:06:24.73	55.27	15.59	-39.4	-41.7	13.8	6.80e-06	0	57	0	395313152	50	4694
2026-01-28 22:06:25.74	55.46	15.64	-39.5	-41.8	13.8	3.80e-06	0	57	0	398458880	50	4735
2026-01-28 22:06:26.75	55.65	15.70	-39.6	-41.9	13.7	6.10e-06	0	57	0	401604608	50	4788
2026-01-28 22:06:27.76	55.84	15.75	-39.5	-41.8	13.9	9.90e-06	0	57	0	405798912	50	4707
2026-01-28 22:06:28.77	56.03	15.81	-39.3	-41.6	14.0	7.00e-07	0	58	0	408944640	50	4607
2026-01-28 22:06:29.78	56.22	15.86	-39.3	-41.5	14.0	7.00e-07	0	57	0	412090368	50	4586
2026-01-28 22:06:30.80	56.42	15.92	-39.4	-41.6	13.9	7.00e-07	0	58	0	414187520	50	4638
2026-01-28 22:06:31.81	56.61	15.97	-39.3	-41.5	14.1	0.00e+00	0	57	0	418381824	50	4558
2026-01-28 22:06:32.82	56.80	16.02	-39.2	-41.4	14.2	2.20e-06	0	57	0	421527552	50	4533
2026-01-28 22:06:33.83	57.00	16.08	-39.3	-41.5	14.1	0.00e+00	0	57	0	424673280	50	4574
2026-01-28 22:06:34.84	57.19	16.13	-39.3	-41.5	14.0	2.20e-06	0	57	0	427819008	50	4597
2026-01-28 22:06:35.85	57.39	16.19	-39.4	-41.6	14.0	1.50e-06	0	57	0	430964736	50	4636
2026-01-28 22:06:36.86	57.58	16.24	-39.4	-41.7	13.9	3.00e-06	0	57	0	434110464	50	4658
2026-01-28 22:06:37.87	57.78	16.29	-39.4	-41.6	14.0	3.00e-06	0	57	0	437256192	50	4643
2026-01-28 22:06:38.88	57.98	16.35	-39.4	-41.6	14.0	1.50e-06	0	57	0	440401920	50	4647
2026-01-28 22:06:39.89	58.17	16.40	-39.4	-41.7	13.9	7.00e-07	0	57	0	443547648	50	4666
2026-01-28 22:06:40.90	58.37	16.45	-39.3	-41.6	14.1	1.50e-06	0	57	0	446693376	50	4600
2026-01-28 22:06:41.91	58.57	16.50	-39.2	-41.4	14.2	7.00e-07	0	57	0	449839104	50	4514
2026-01-28 22:06:42.92	58.77	16.56	-39.2	-41.4	14.2	7.00e-07	0	57	0	452984832	50	4501
2026-01-28 22:06:43.93	58.97	16.61	-39.2	-41.4	14.2	1.50e-06	0	57	0	456130560	50	4531
2026-01-28 22:06:44.94	59.17	16.66	-39.3	-41.4	14.1	2.20e-06	0	57	0	459276288	50	4537
2026-01-28 22:06:45.96	59.38	16.71	-39.1	-41.3	14.3	3.00e-06	0	57	0	462422016	50	4448
2026-01-28 22:06:46.97	59.58	16.76	-39.1	-41.2	14.4	1.50e-06	0	57	0	465567744	50	4406
2026-01-28 22:06:47.97	59.78	16.81	-39.2	-41.3	14.3	3.00e-06	0	58	0	468713472	50	4471
2026-01-28 22:06:48.98	59.99	16.86	-39.2	-41.3	14.3	7.00e-07	0	57	0	471859200	50	4486
2026-01-28 22:06:49.99	60.19	16.91	-39.2	-41.3	14.3	7.00e-07	0	58	0	475004928	50	4492
2026-01-28 22:06:51.00	60.40	16.97	-39.3	-41.5	14.1	2.20e-06	0	57	0	478150656	50	4547
2026-01-28 22:06:52.02	60.61	17.02	-39.2	-41.4	14.2	2.20e-06	0	57	0	481296384	50	4515
2026-01-28 22:06:53.03	60.81	17.07	-39.1	-41.3	14.3	2.20e-06	0	58	0	484442112	50	4467
2026-01-28 22:06:54.04	61.02	17.12	-39.1	-41.2	14.3	0.00e+00	0	58	0	487587840	50	4422
2026-01-28 22:06:55.05	61.23	17.16	-39.2	-41.3	14.3	1.50e-06	0	57	0	490733568	50	4479
2026-01-28 22:06:56.06	61.44	17.21	-39.2	-41.3	14.3	0.00e+00	0	58	0	493879296	50	4479
2026-01-28 22:06:57.07	61.65	17.26	-39.2	-41.4	14.2	7.00e-07	0	57	0	497025024	50	4527
2026-01-28 22:06:58.08	61.86	17.31	-39.2	-41.4	14.2	7.00e-07	0	58	0	500170752	50	4503
2026-01-28 22:06:59.09	62.07	17.36	-39.1	-41.2	14.4	7.00e-07	0	57	0	503316480	50	4394
2026-01-28 22:07:00.10	62.28	17.41	-39.1	-41.2	14.4	1.50e-06	0	58	0	506462208	50	4398
2026-01-28 22:07:01.11	62.49	17.45	-39.1	-41.2	14.4	7.00e-07	0	58	0	509607936	50	4405
2026-01-28 22:07:02.12	62.71	17.50	-39.0	-41.2	14.4	7.00e-07	0	58	0	512753664	50	4398
2026-01-28 22:07:03.13	62.92	17.55	-39.1	-41.2	14.4	1.50e-06	0	57	0	515899392	50	4395
2026-01-28 22:07:04.14	63.13	17.60	-39.0	-41.1	14.5	0.00e+00	0	57	0	519045120	49	4602
2026-01-28 22:07:05.15	63.35	17.64	-38.9	-41.0	14.5	7.00e-07	0	57	0	522190848	49	4581
2026-01-28 22:07:06.17	63.57	17.69	-38.9	-41.0	14.6	0.00e+00	0	58	0	525336576	49	4549
2026-01-28 22:07:07.18	63.78	17.74	-38.9	-41.0	14.6	7.00e-07	0	58	0	528482304	49	4568
2026-01-28 22:07:08.19	64.00	17.78	-39.0	-41.1	14.4	7.00e-07	0	57	0	531628032	49	4649
2026-01-28 22:07:09.20	64.22	17.83	-38.9	-41.0	14.6	2.20e-06	0	58	0	534773760	49	4549
2026-01-28 22:07:10.21	64.43	17.87	-38.7	-40.7	14.8	0.00e+00	0	58	0	537919488	49	4433
2026-01-28 22:07:11.22	64.65	17.92	-38.7	-40.7	14.9	7.00e-07	0	58	0	541065216	49	4404
2026-01-28 22:07:12.23	64.87	17.96	-38.7	-40.7	14.8	0.00e+00	0	58	0	544210944	49	4421
2026-01-28 22:07:13.24	65.09	18.00	-38.7	-40.7	14.8	0.00e+00	0	58	0	547356672	49	4434
2026-01-28 22:07:14.25	65.31	18.05	-38.8	-40.8	14.8	1.50e-06	0	58	0	550502400	49	4455
2026-01-28 22:07:15.26	65.53	18.09	-38.8	-40.9	14.7	7.00e-07	0	58	0	553648128	49	4496
2026-01-28 22:07:16.27	65.76	18.13	-38.8	-40.8	14.8	0.00e+00	0	58	0	556793856	49	4455
2026-01-28 22:07:17.28	65.98	18.18	-38.7	-40.7	14.7	0.00e+00	0	58	0	559939584	49	4441
2026-01-28 22:07:18.29	66.20	18.22	-38.7	-40.7	14.8	0.00e+00	0	58	0	563085312	49	4394
2026-01-28 22:07:19.30	66.43	18.26	-38.8	-40.8	14.7	0.00e+00	0	57	0	566231040	49	4477
2026-01-28 22:07:20.31	66.65	18.30	-38.8	-40.8	14.7	0.00e+00	0	58	0	569376768	49	4478
2026-01-28 22:07:21.32	66.88	18.34	-38.8	-40.8	14.7	7.00e-07	0	58	0	572522496	49	4449
2026-01-28 22:07:22.34	67.10	18.39	-38.8	-40.8	14.7	0.00e+00	0	58	0	575668224	49	4475
2026-01-28 22:07:23.34	67.33	18.43	-38.8	-40.9	14.6	7.00e-07	0	58	0	578813952	49	4521
2026-01-28 22:07:24.36	67.56	18.47	-38.7	-40.7	14.7	0.00e+00	0	58	0	581959680	49	4438
2026-01-28 22:07:25.37	67.78	18.51	-38.7	-40.8	14.7	0.00e+00	0	58	0	585105408	49	4458
2026-01-28 22:07:26.38	68.01	18.55	-38.8	-40.9	14.6	0.00e+00	0	58	0	588251136	49	4507
2026-01-28 22:07:27.39	68.24	18.59	-38.7	-40.7	14.7	0.00e+00	0	58	0	591396864	49	4421
2026-01-28 22:07:28.40	68.47	18.62	-38.6	-40.6	14.7	0.00e+00	0	58	0	594542592	49	4380
2026-01-28 22:07:29.41	68.70	18.66	-38.6	-40.6	14.7	0.00e+00	0	58	0	597688320	49	4376
2026-01-28 22:07:30.42	68.93	18.70	-38.7	-40.8	14.4	7.00e-07	0	58	0	600834048	49	4461
2026-01-28 22:07:31.43	69.16	18.74	-38.7	-40.9	14.2	1.50e-06	0	58	0	603979776	49	4504
2026-01-28 22:07:32.45	69.39	18.78	-38.8	-41.0	14.0	6.80e-06	0	58	0	607125504	49	4586
2026-01-28 22:07:33.46	69.63	18.81	-38.9	-41.1	13.9	3.00e-06	0	58	0	610271232	49	4618
2026-01-28 22:07:34.47	69.86	18.85	-38.8	-41.1	13.8	4.50e-06	0	58	0	613416960	49	4638
2026-01-28 22:07:35.48	70.09	18.88	-38.8	-41.1	13.7	5.30e-06	0	58	0	616562688	49	4622
2026-01-28 22:07:36.49	70.32	18.92	-38.8	-41.1	13.7	3.80e-06	0	58	0	619708416	49	4608
2026-01-28 22:07:37.50	70.56	18.96	-38.8	-41.2	13.5	9.90e-06	0	58	0	622854144	49	4665
2026-01-28 22:07:38.51	70.79	18.99	-38.9	-41.3	13.1	2.89e-05	0	58	0	625999872	49	4740
2026-01-28 22:07:39.52	71.03	19.02	-38.9	-41.4	13.0	3.20e-05	0	58	0	629145600	49	4809
2026-01-28 22:07:40.53	71.26	19.06	-39.0	-41.6	12.7	5.34e-05	0	58	0	632291328	49	4917
2026-01-28 22:07:41.54	71.50	19.09	-39.1	-41.8	12.5	1.32e-04	0	58	0	635437056	49	5000
2026-01-28 22:07:42.55	71.74	19.12	-39.1	-41.9	12.2	2.04e-04	0	58	0	638582784	49	5062
2026-01-28 22:07:43.56	71.97	19.16	-39.2	-42.0	12.0	2.68e-04	0	58	0	641728512	49	5136
2026-01-28 22:07:44.57	72.21	19.19	-39.1	-41.9	12.2	2.84e-04	0	58	0	644874240	49	5078
2026-01-28 22:07:45.59	72.45	19.22	-39.1	-41.8	12.3	1.67e-04	0	58	0	648019968	49	5026
2026-01-28 22:07:46.60	72.69	19.25	-39.1	-41.8	12.4	1.89e-04	0	58	0	651165696	49	5030
2026-01-28 22:07:47.61	72.93	19.28	-39.1	-41.9	12.4	1.55e-04	0	58	0	655360000	49	5048
2026-01-28 22:07:48.62	73.17	19.31	-39.2	-42.0	12.3	1.54e-04	0	58	0	658505728	49	5106
2026-01-28 22:07:49.63	73.41	19.34	-39.3	-42.1	12.3	1.89e-04	0	58	0	660602880	49	5160
2026-01-28 22:07:50.64	73.65	19.37	-39.3	-42.0	12.3	1.75e-04	0	58	0	663748608	49	5143
2026-01-28 22:07:51.65	73.89	19.40	-39.2	-42.0	12.3	1.77e-04	0	58	0	666894336	49	5112
2026-01-28 22:07:52.66	74.13	19.43	-39.1	-41.9	12.3	2.04e-04	0	58	0	671088640	49	5059
2026-01-28 22:07:53.67	74.38	19.46	-39.0	-41.7	12.4	1.68e-04	0	58	0	674234368	49	4981
2026-01-28 22:07:54.68	74.62	19.49	-39.0	-41.8	12.1	2.22e-04	0	58	0	677380096	49	5023
2026-01-28 22:07:55.69	74.86	19.51	-39.0	-41.9	12.0	2.97e-04	0	58	0	680525824	49	5051
2026-01-28 22:07:56.70	75.10	19.54	-39.1	-41.9	12.0	3.13e-04	0	58	0	682622976	49	5085
2026-01-28 22:07:57.71	75.35	19.57	-39.2	-42.0	12.0	3.87e-04	0	58	0	686817280	49	5151
2026-01-28 22:07:58.73	75.59	19.59	-39.2	-42.1	12.0	3.45e-04	0	58	0	689963008	49	5171
2026-01-28 22:07:59.74	75.84	19.62	-39.2	-42.0	12.1	2.92e-04	0	58	0	693108736	49	5136
2026-01-28 22:08:00.75	76.08	19.64	-39.2	-42.0	12.1	2.84e-04	0	58	0	696254464	49	5148
2026-01-28 22:08:01.76	76.33	19.67	-39.3	-42.1	12.1	2.64e-04	0	58	0	699400192	49	5172
2026-01-28 22:08:02.77	76.57	19.69	-39.2	-42.0	12.1	2.34e-04	0	58	0	702545920	49	5152
2026-01-28 22:08:03.77	76.82	19.71	-39.2	-41.9	12.2	2.10e-04	0	58	0	705691648	49	5089
2026-01-28 22:08:04.79	77.07	19.74	-39.1	-41.8	12.4	1.58e-04	0	58	0	708837376	49	5023
2026-01-28 22:08:05.80	77.31	19.76	-39.1	-41.8	12.5	1.14e-04	0	58	0	711983104	49	4986
2026-01-28 22:08:06.81	77.56	19.78	-39.1	-41.8	12.5	9.23e-05	0	58	0	715128832	49	5007
2026-01-28 22:08:07.82	77.81	19.80	-39.2	-41.9	12.5	1.07e-04	0	58	0	718274560	49	5054
2026-01-28 22:08:08.83	78.06	19.82	-39.3	-41.9	12.6	8.39e-05	0	58	0	721420288	49	5070
2026-01-28 22:08:09.84	78.30	19.84	-39.3	-41.9	12.8	6.94e-05	0	58	0	724566016	49	5077
2026-01-28 22:08:10.85	78.55	19.86	-39.4	-41.9	12.8	5.11e-05	0	58	0	727711744	49	5088
2026-01-28 22:08:11.86	78.80	19.88	-39.2	-41.7	12.9	4.42e-05	0	58	0	730857472	49	4975
2026-01-28 22:08:12.87	79.05	19.90	-39.2	-41.8	12.8	4.19e-05	0	58	0	734003200	49	4986
2026-01-28 22:08:13.88	79.30	19.92	-39.3	-41.9	12.7	7.85e-05	0	58	0	737148928	49	5062
2026-01-28 22:08:14.89	79.55	19.93	-39.2	-41.9	12.6	1.23e-04	0	58	0	740294656	49	5045
2026-01-28 22:08:15.91	79.80	19.95	-39.2	-41.8	12.7	7.78e-05	0	58	0	743440384	49	5008
2026-01-28 22:08:16.92	80.05	19.97	-39.3	-41.9	12.8	8.69e-05	0	58	0	746586112	49	5055
2026-01-28 22:08:17.93	80.30	19.98	-39.1	-41.7	13.0	4.19e-05	0	58	0	749731840	49	4935
2026-01-28 22:08:18.94	80.55	20.00	-39.1	-41.6	13.2	3.89e-05	0	58	0	752877568	49	4892
2026-01-28 22:08:19.95	80.80	20.01	-39.1	-41.5	13.4	1.83e-05	0	58	0	756023296	49	4834
2026-01-28 22:08:20.96	81.06	20.03	-39.0	-41.3	13.7	9.10e-06	0	58	0	759169024	49	4730
2026-01-28 22:08:21.97	81.31	20.04	-39.1	-41.4	13.7	3.80e-06	0	58	0	762314752	49	4771
2026-01-28 22:08:22.98	81.56	20.06	-39.1	-41.5	13.5	6.10e-06	0	58	0	765460480	49	4834
2026-01-28 22:08:23.99	81.81	20.07	-39.1	-41.5	13.5	9.90e-06	0	58	0	768606208	49	4822
2026-01-28 22:08:25.00	82.06	20.08	-39.1	-41.5	13.5	9.90e-06	0	58	0	771751936	49	4855
2026-01-28 22:08:26.02	82.32	20.09	-39.1	-41.5	13.6	6.80e-06	0	58	0	774897664	49	4834
2026-01-28 22:08:27.03	82.57	20.10	-39.0	-41.3	13.8	8.30e-06	0	58	0	778043392	49	4737
2026-01-28 22:08:28.04	82.82	20.11	-39.0	-41.3	13.8	1.50e-06	0	58	0	781189120	49	4713
2026-01-28 22:08:29.05	83.08	20.12	-39.0	-41.3	13.8	6.10e-06	0	58	0	784334848	49	4745
2026-01-28 22:08:30.06	83.33	20.13	-39.1	-41.4	13.7	2.20e-06	0	58	0	787480576	49	4792
2026-01-28 22:08:31.07	83.58	20.14	-39.1	-41.4	13.8	3.80e-06	0	58	0	790626304	49	4786
2026-01-28 22:08:32.08	83.84	20.15	-39.0	-41.4	13.6	7.60e-06	0	58	0	793772032	49	4782
2026-01-28 22:08:33.09	84.09	20.16	-39.0	-41.4	13.5	6.80e-06	0	58	0	796917760	49	4775
2026-01-28 22:08:34.10	84.34	20.17	-38.9	-41.3	13.4	1.60e-05	0	58	0	800063488	49	4741
2026-01-28 22:08:35.11	84.60	20.17	-38.8	-41.2	13.3	2.05e-05	0	58	0	803209216	49	4705
2026-01-28 22:08:36.12	84.85	20.18	-38.8	-41.3	13.2	1.60e-05	0	58	0	806354944	49	4720
2026-01-28 22:08:37.13	85.10	20.19	-38.8	-41.4	13.0	4.73e-05	0	58	0	809500672	49	4760
2026-01-28 22:08:38.14	85.36	20.19	-38.9	-41.5	12.8	5.49e-05	0	58	0	812646400	49	4862
2026-01-28 22:08:39.15	85.61	20.20	-39.0	-41.6	12.6	1.38e-04	0	58	0	815792128	49	4883
2026-01-28 22:08:40.16	85.87	20.20	-39.0	-41.6	12.6	8.39e-05	0	58	0	818937856	49	4881
2026-01-28 22:08:41.17	86.12	20.20	-39.0	-41.7	12.5	1.14e-04	0	58	0	822083584	49	4933
2026-01-28 22:08:42.19	86.38	20.21	-39.1	-41.8	12.4	1.56e-04	0	58	0	825229312	49	5021
2026-01-28 22:08:43.20	86.63	20.21	-39.1	-41.9	12.3	1.65e-04	0	58	0	828375040	49	5061
2026-01-28 22:08:44.21	86.89	20.21	-39.2	-42.1	12.0	2.25e-04	0	58	0	831520768	49	5179
2026-01-28 22:08:45.22	87.14	20.21	-39.3	-42.2	11.9	3.55e-04	0	58	0	834666496	49	5247
2026-01-28 22:08:46.23	87.40	20.21	-39.4	-42.3	11.9	3.61e-04	0	58	0	837812224	49	5287
2026-01-28 22:08:47.24	87.65	20.21	-39.4	-42.3	12.0	3.50e-04	0	58	0	840957952	49	5282
2026-01-28 22:08:48.25	87.90	20.21	-39.3	-42.1	12.1	2.77e-04	0	58	0	844103680	49	5206
2026-01-28 22:08:49.26	88.16	20.21	-39.3	-42.1	12.3	2.02e-04	0	58	0	847249408	49	5160
2026-01-28 22:08:50.27	88.41	20.21	-39.2	-42.0	12.2	2.08e-04	0	58	0	850395136	49	5137
2026-01-28 22:08:51.28	88.67	20.21	-39.2	-41.9	12.3	2.04e-04	0	58	0	853540864	49	5079
2026-01-28 22:08:52.29	88.92	20.20	-39.2	-41.9	12.4	1.52e-04	0	58	0	856686592	49	5080
2026-01-28 22:08:53.30	89.18	20.20	-39.2	-41.8	12.5	1.18e-04	0	58	0	859832320	49	5041
2026-01-28 22:08:54.31	89.43	20.20	-39.1	-41.6	13.0	3.58e-05	0	58	0	862978048	49	4904
2026-01-28 22:08:55.33	89.69	20.19	-39.2	-41.6	13.2	2.74e-05	0	58	0	866123776	49	4923
2026-01-28 22:08:56.33	89.94	20.19	-39.1	-41.4	13.5	1.29e-05	0	58	0	869269504	49	4813
2026-01-28 22:08:57.35	90.20	20.18	-39.1	-41.3	13.9	3.80e-06	0	58	0	872415232	49	4745
2026-01-28 22:08:58.35	90.45	20.18	-38.9	-41.0	14.2	7.00e-07	0	58	0	875560960	49	4593
2026-01-28 22:08:59.36	90.70	20.17	-38.8	-40.9	14.5	0.00e+00	0	58	0	878706688	49	4513
2026-01-28 22:09:00.37	90.95	20.16	-38.8	-40.9	14.5	7.00e-07	0	58	0	881852416	49	4509
2026-01-28 22:09:01.39	91.21	20.15	-38.9	-40.9	14.5	0.00e+00	0	58	0	884998144	49	4542
2026-01-28 22:09:02.40	91.46	20.15	-38.8	-40.9	14.6	1.50e-06	0	58	0	888143872	49	4531
2026-01-28 22:09:03.41	91.72	20.14	-38.9	-40.9	14.6	0.00e+00	0	58	0	891289600	49	4541
2026-01-28 22:09:04.42	91.97	20.13	-38.8	-40.8	14.9	0.00e+00	0	58	0	894435328	49	4448
2026-01-28 22:09:05.43	92.22	20.12	-38.7	-40.7	15.0	0.00e+00	0	58	0	897581056	49	4394
2026-01-28 22:09:06.44	92.48	20.11	-38.7	-40.7	14.9	0.00e+00	0	58	0	900726784	49	4404
2026-01-28 22:09:07.45	92.73	20.10	-38.8	-40.8	14.9	0.00e+00	0	58	0	903872512	49	4483
2026-01-28 22:09:08.46	92.98	20.08	-38.8	-40.8	14.9	0.00e+00	0	58	0	907018240	49	4454
2026-01-28 22:09:09.47	93.24	20.07	-38.7	-40.6	15.1	0.00e+00	0	58	0	910163968	49	4387
2026-01-28 22:09:10.47	93.49	20.06	-38.7	-40.6	15.1	7.00e-07	0	58	0	913309696	49	4362
2026-01-28 22:09:11.48	93.74	20.05	-38.6	-40.5	15.1	0.00e+00	0	58	0	916455424	49	4337
2026-01-28 22:09:12.49	93.99	20.03	-38.6	-40.5	15.2	0.00e+00	0	58	0	919601152	49	4308
2026-01-28 22:09:13.50	94.24	20.02	-38.6	-40.6	15.1	0.00e+00	0	58	0	923795456	48	4618
2026-01-28 22:09:14.52	94.49	20.00	-38.5	-40.4	15.3	0.00e+00	0	58	0	926941184	48	4534
2026-01-28 22:09:15.53	94.75	19.99	-38.5	-40.4	15.3	0.00e+00	0	58	0	929038336	48	4516
2026-01-28 22:09:16.54	95.00	19.97	-38.5	-40.4	15.4	0.00e+00	0	58	0	932184064	48	4501
2026-01-28 22:09:17.55	95.25	19.95	-38.5	-40.4	15.4	0.00e+00	0	58	0	935329792	48	4520
2026-01-28 22:09:18.56	95.50	19.94	-38.4	-40.3	15.4	0.00e+00	0	58	0	939524096	48	4481
2026-01-28 22:09:19.57	95.75	19.92	-38.4	-40.3	15.4	0.00e+00	0	58	0	942669824	48	4465
2026-01-28 22:09:20.58	96.00	19.90	-38.4	-40.3	15.4	0.00e+00	0	58	0	945815552	48	4473
2026-01-28 22:09:21.59	96.25	19.88	-38.4	-40.3	15.4	0.00e+00	0	58	0	948961280	48	4467
2026-01-28 22:09:22.60	96.50	19.86	-38.4	-40.3	15.4	0.00e+00	0	58	0	951058432	48	4462
2026-01-28 22:09:23.61	96.75	19.84	-38.4	-40.2	15.5	0.00e+00	0	58	0	955252736	48	4431
2026-01-28 22:09:24.62	96.99	19.82	-38.4	-40.2	15.6	0.00e+00	0	58	0	958398464	48	4422
2026-01-28 22:09:25.63	97.24	19.80	-38.3	-40.2	15.6	0.00e+00	0	58	0	961544192	48	4393
2026-01-28 22:09:26.64	97.49	19.78	-38.3	-40.1	15.7	0.00e+00	0	58	0	964689920	48	4359
2026-01-28 22:09:27.65	97.74	19.76	-38.3	-40.1	15.6	0.00e+00	0	58	0	967835648	48	4389
2026-01-28 22:09:28.66	97.99	19.74	-38.4	-40.2	15.5	0.00e+00	0	58	0	970981376	48	4439
2026-01-28 22:09:29.67	98.23	19.72	-38.4	-40.3	15.5	0.00e+00	0	58	0	974127104	48	4449
2026-01-28 22:09:30.68	98.48	19.69	-38.4	-40.3	15.5	0.00e+00	0	58	0	977272832	48	4447
2026-01-28 22:09:31.69	98.73	19.67	-38.4	-40.2	15.6	0.00e+00	0	58	0	980418560	48	4405
2026-01-28 22:09:32.70	98.97	19.65	-38.4	-40.3	15.5	0.00e+00	0	58	0	983564288	48	4453
2026-01-28 22:09:33.70	99.22	19.62	-38.5	-40.3	15.4	0.00e+00	0	58	0	986710016	48	4487
2026-01-28 22:09:34.71	99.46	19.60	-38.6	-40.5	15.3	0.00e+00	0	58	0	989855744	48	4575
2026-01-28 22:09:35.72	99.71	19.57	-38.5	-40.4	15.3	0.00e+00	0	58	0	993001472	48	4540
2026-01-28 22:09:36.73	99.95	19.54	-38.8	-40.7	15.0	0.00e+00	0	58	0	996147200	48	4691
2026-01-28 22:09:37.74	100.19	19.52	-38.7	-40.7	15.1	0.00e+00	0	58	0	999292928	48	4672
2026-01-28 22:09:38.75	100.44	19.49	-38.7	-40.7	15.1	0.00e+00	0	58	0	1002438656	48	4657
2026-01-28 22:09:39.77	100.68	19.46	-38.7	-40.7	15.1	0.00e+00	0	58	0	1005584384	48	4677
2026-01-28 22:09:40.78	100.93	19.43	-38.6	-40.5	15.3	0.00e+00	0	58	0	1008730112	48	4581
2026-01-28 22:09:41.79	101.17	19.41	-38.6	-40.4	15.3	0.00e+00	0	58	0	1011875840	48	4541
2026-01-28 22:09:42.80	101.41	19.38	-38.3	-40.4	15.4	0.00e+00	0	58	0	1015021568	48	4510
2026-01-28 22:09:43.81	101.65	19.35	-38.5	-40.3	15.4	0.00e+00	0	58	0	1018167296	48	4485
2026-01-28 22:09:44.82	101.89	19.32	-38.3	-40.4	15.4	0.00e+00	0	58	0	1021313024	48	4502
2026-01-28 22:09:45.82	102.13	19.29	-38.6	-40.5	15.2	0.00e+00	0	58	0	1024458752	48	4579
2026-01-28 22:09:46.83	102.37	19.26	-38.5	-40.4	15.4	0.00e+00	0	58	0	1027604480	48	4514
2026-01-28 22:09:47.84	102.61	19.23	-38.4	-40.3	15.5	0.00e+00	0	58	0	1030750208	48	4450
2026-01-28 22:09:48.85	102.85	19.19	-38.5	-40.3	15.4	0.00e+00	0	58	0	1033895936	48	4482
2026-01-28 22:09:49.86	103.09	19.16	-38.5	-40.4	15.3	0.00e+00	0	58	0	1037041664	48	4542
2026-01-28 22:09:50.87	103.33	19.13	-38.5	-40.4	15.3	0.00e+00	0	58	0	1040187392	48	4514
2026-01-28 22:09:51.88	103.56	19.10	-38.5	-40.5	15.3	0.00e+00	0	58	0	1043333120	48	4546
2026-01-28 22:09:52.90	103.80	19.06	-38.4	-40.5	15.3	0.00e+00	0	58	0	1046478848	48	4547
2026-01-28 22:09:53.91	104.04	19.03	-38.4	-40.3	15.4	0.00e+00	0	58	0	1049624576	48	4481
2026-01-28 22:09:54.92	104.28	18.99	-38.4	-40.2	15.5	0.00e+00	0	59	0	1052770304	48	4424
2026-01-28 22:09:55.93	104.51	18.96	-38.4	-40.3	15.5	7.00e-07	0	58	0	1055916032	48	4444
2026-01-28 22:09:56.94	104.75	18.92	-38.4	-40.2	15.5	0.00e+00	0	58	0	1059061760	48	4417
2026-01-28 22:09:57.95	104.98	18.89	-38.4	-40.2	15.5	0.00e+00	0	58	0	1062207488	48	4417
2026-01-28 22:09:58.96	105.21	18.85	-38.4	-40.3	15.4	0.00e+00	0	58	0	1065353216	48	4463
2026-01-28 22:09:59.97	105.45	18.81	-38.5	-40.3	15.4	0.00e+00	0	58	0	1068498944	48	4477
2026-01-28 22:10:00.98	105.68	18.78	-38.4	-40.3	15.4	0.00e+00	0	58	0	1071644672	48	4448
2026-01-28 22:10:01.99	105.91	18.74	-38.5	-40.3	15.4	0.00e+00	0	58	0	1074790400	48	4484
2026-01-28 22:10:03.00	106.15	18.70	-38.5	-40.3	15.4	0.00e+00	0	58	0	1077936128	48	4483
2026-01-28 22:10:04.01	106.38	18.66	-38.5	-40.4	15.3	0.00e+00	0	58	0	1081081856	48	4520
2026-01-28 22:10:05.02	106.61	18.63	-38.6	-40.5	15.2	0.00e+00	0	59	0	1084227584	48	4572
2026-01-28 22:10:06.03	106.84	18.59	-38.6	-40.5	15.2	0.00e+00	0	58	0	1087373312	48	4554
2026-01-28 22:10:07.04	107.07	18.55	-38.5	-40.4	15.3	0.00e+00	0	58	0	1090519040	48	4520
2026-01-28 22:10:08.05	107.30	18.51	-38.5	-40.3	15.3	0.00e+00	0	58	0	1093664768	48	4488
2026-01-28 22:10:09.06	107.52	18.47	-38.5	-40.4	15.3	0.00e+00	0	58	0	1096810496	48	4517
2026-01-28 22:10:10.08	107.75	18.43	-38.5	-40.4	15.3	0.00e+00	0	59	0	1099956224	48	4529
2026-01-28 22:10:11.08	107.98	18.39	-38.6	-40.5	15.2	0.00e+00	0	58	0	1103101952	48	4577
2026-01-28 22:10:12.10	108.21	18.35	-38.6	-40.5	15.2	0.00e+00	0	58	0	1106247680	48	4572
2026-01-28 22:10:13.11	108.43	18.30	-38.6	-40.5	15.2	0.00e+00	0	58	0	1109393408	48	4591
2026-01-28 22:10:14.12	108.66	18.26	-38.6	-40.5	15.2	0.00e+00	0	58	0	1112539136	48	4590
2026-01-28 22:10:15.13	108.88	18.22	-38.7	-40.7	15.0	0.00e+00	0	58	0	1115684864	48	4665
2026-01-28 22:10:16.14	109.11	18.18	-38.8	-40.8	14.9	0.00e+00	0	58	0	1118830592	48	4731
2026-01-28 22:10:17.15	109.33	18.13	-38.8	-40.8	14.9	0.00e+00	0	58	0	1121976320	48	4722
2026-01-28 22:10:18.16	109.55	18.09	-38.8	-40.7	14.9	0.00e+00	0	58	0	1125122048	48	4700
2026-01-28 22:10:19.17	109.78	18.05	-38.7	-40.7	15.0	0.00e+00	0	58	0	1128267776	48	4683
2026-01-28 22:10:20.18	110.00	18.00	-38.8	-40.7	15.0	0.00e+00	0	58	0	1131413504	48	4692
2026-01-28 22:10:21.19	110.22	17.96	-38.8	-40.8	14.9	0.00e+00	0	58	0	1134559232	48	4758
2026-01-28 22:10:22.20	110.44	17.91	-38.8	-40.8	14.9	0.00e+00	0	58	0	1137704960	48	4733
2026-01-28 22:10:23.21	110.66	17.87	-38.9	-40.9	14.8	0.00e+00	0	58	0	1140850688	48	4772
2026-01-28 22:10:24.22	110.88	17.82	-38.9	-40.9	14.7	7.00e-07	0	58	0	1143996416	48	4810
2026-01-28 22:10:25.23	111.10	17.78	-39.0	-41.0	14.7	0.00e+00	0	59	0	1147142144	48	4846
2026-01-28 22:10:26.24	111.32	17.73	-38.9	-41.0	14.7	0.00e+00	0	58	0	1150287872	48	4832
2026-01-28 22:10:27.25	111.53	17.69	-38.9	-41.0	14.7	7.00e-07	0	58	0	1153433600	48	4825
2026-01-28 22:10:28.26	111.75	17.64	-38.9	-40.9	14.7	7.00e-07	0	58	0	1156579328	48	4805
2026-01-28 22:10:29.27	111.97	17.59	-38.9	-41.0	14.7	0.00e+00	0	58	0	1159725056	48	4821
2026-01-28 22:10:30.28	112.18	17.55	-38.9	-40.9	14.7	0.00e+00	0	58	0	1162870784	48	4797
2026-01-28 22:10:31.29	112.40	17.50	-38.9	-41.0	14.7	0.00e+00	0	58	0	1166016512	48	4817
2026-01-28 22:10:32.30	112.61	17.45	-38.7	-40.7	14.9	0.00e+00	0	58	0	1169162240	48	4700
2026-01-28 22:10:33.32	112.83	17.40	-38.7	-40.6	15.0	0.00e+00	0	58	0	1172307968	48	4634
2026-01-28 22:10:34.32	113.04	17.35	-38.6	-40.6	15.0	0.00e+00	0	59	0	1175453696	48	4627
2026-01-28 22:10:35.34	113.25	17.31	-38.6	-40.6	15.0	3.80e-06	0	58	0	1178599424	48	4613
2026-01-28 22:10:36.35	113.46	17.26	-38.6	-40.5	15.1	1.06e-05	0	58	0	1181745152	48	4597
2026-01-28 22:10:37.36	113.67	17.21	-38.7	-40.6	15.0	1.06e-05	0	58	0	1184890880	48	4648
2026-01-28 22:10:38.37	113.88	17.16	-38.7	-40.8	14.8	4.73e-05	0	58	0	1188036608	48	4718
2026-01-28 22:10:39.38	114.09	17.11	-38.7	-40.8	14.8	9.84e-05	0	58	0	1191182336	48	4749
2026-01-28 22:10:40.39	114.30	17.06	-38.8	-41.0	14.6	1.57e-04	0	58	0	1194328064	48	4842
2026-01-28 22:10:41.40	114.51	17.01	-38.8	-41.1	14.5	2.37e-04	0	58	0	1197473792	48	4879
2026-01-28 22:10:42.41	114.72	16.96	-38.7	-41.2	14.3	3.84e-04	0	59	0	1200619520	48	4964
2026-01-28 22:10:43.42	114.92	16.91	-38.9	-41.2	14.3	5.61e-04	0	59	0	1203765248	48	4966
2026-01-28 22:10:44.43	115.13	16.86	-38.9	-41.2	14.4	4.46e-04	0	59	0	1206910976	48	4953
2026-01-28 22:10:45.44	115.33	16.80	-38.8	-41.1	14.5	5.84e-04	0	59	0	1210056704	48	4880
2026-01-28 22:10:46.44	115.54	16.75	-38.6	-40.9	14.6	2.36e-03	0	58	0	1213202432	47	5078
2026-01-28 22:10:47.46	115.74	16.70	-38.5	-40.8	14.7	6.19e-04	0	59	0	1217396736	47	4998
2026-01-28 22:10:48.47	115.95	16.65	-38.5	-40.8	14.6	5.21e-04	0	58	0	1219493888	47	5024
2026-01-28 22:10:49.48	116.15	16.60	-38.6	-40.8	14.6	5.87e-04	0	59	0	1222639616	47	5033
2026-01-28 22:10:50.49	116.35	16.55	-38.2	-40.8	14.7	6.96e-04	0	59	0	1225785344	47	4993
2026-01-28 22:10:51.50	116.55	16.49	-37.9	-40.7	14.7	6.39e-04	0	59	0	1228931072	47	4960
2026-01-28 22:10:52.51	116.75	16.44	-38.5	-40.9	14.6	5.60e-04	0	58	0	1233125376	47	5044
2026-01-28 22:10:53.52	116.95	16.39	-38.5	-40.9	14.5	8.66e-04	0	59	0	1236271104	47	5074
2026-01-28 22:10:54.53	117.15	16.33	-38.7	-41.2	14.4	2.88e-04	0	58	0	1239416832	48	4928
2026-01-28 22:10:55.54	117.35	16.28	-38.8	-41.4	14.1	6.38e-04	0	58	0	1242562560	47	5345
2026-01-28 22:10:56.55	117.55	16.23	-39.0	-41.4	14.1	3.09e-04	0	58	0	1244659712	48	5092
2026-01-28 22:10:57.56	117.74	16.17	-39.1	-41.6	14.0	1.40e-03	0	58	0	1248854016	48	5190
2026-01-28 22:10:58.57	117.94	16.12	-38.6	-41.5	14.1	5.23e-04	0	58	0	1251999744	48	5115
2026-01-28 22:10:59.58	118.14	16.06	-39.0	-41.4	14.2	3.49e-04	0	59	0	1255145472	48	5050
2026-01-28 22:11:00.59	118.33	16.01	-38.9	-41.3	14.3	2.79e-04	0	59	0	1258291200	48	4990
2026-01-28 22:11:01.60	118.53	15.95	-38.9	-41.2	14.3	2.53e-04	0	58	0	1261436928	48	4972
2026-01-28 22:11:02.62	118.72	15.90	-38.9	-41.1	14.4	3.17e-04	0	59	0	1264582656	48	4920
2026-01-28 22:11:03.62	118.91	15.85	-38.8	-41.2	14.4	3.17e-04	0	59	0	1267728384	48	4948
2026-01-28 22:11:04.63	119.11	15.79	-38.8	-41.1	14.4	5.00e-04	0	58	0	1270874112	48	4892
2026-01-28 22:11:05.64	119.30	15.73	-38.8	-41.1	14.4	1.76e-04	0	59	0	1274019840	48	4884
2026-01-28 22:11:06.66	119.49	15.68	-38.7	-41.1	14.4	2.68e-04	0	59	0	1277165568	48	4898
2026-01-28 22:11:07.67	119.68	15.62	-38.7	-41.2	14.3	2.96e-04	0	58	0	1280311296	47	5226
2026-01-28 22:11:08.68	119.87	15.57	-38.8	-41.2	14.2	4.77e-03	0	59	0	1283457024	47	5258
2026-01-28 22:11:09.68	120.06	15.51	-38.9	-41.3	14.2	3.11e-04	0	59	0	1286602752	48	5037
2026-01-28 22:11:10.69	120.25	15.45	-38.7	-41.4	14.1	2.36e-04	0	58	0	1289748480	48	5062
2026-01-28 22:11:11.70	120.43	15.40	-38.8	-41.4	13.9	7.32e-04	0	58	0	1292894208	46	5685
2026-01-28 22:11:12.71	120.62	15.34	-38.8	-41.5	14.0	1.13e-03	0	59	0	1296039936	48	5143
2026-01-28 22:11:13.72	120.81	15.29	-38.3	-41.4	14.0	1.17e-03	0	58	0	1299185664	47	5354
2026-01-28 22:11:14.74	120.99	15.23	-37.5	-41.2	13.6	1.69e-03	0	58	0	1302331392	43	6638
2026-01-28 22:11:15.75	121.18	15.17	-37.7	-41.5	13.8	2.03e-03	0	58	0	1305477120	47	5420
2026-01-28 22:11:16.76	121.36	15.11	-37.3	-41.4	13.7	4.43e-03	0	58	0	1308622848	44	6413
2026-01-28 22:11:17.77	121.55	15.06	-38.0	-41.4	13.9	3.41e-03	0	59	0	1311768576	46	5670
2026-01-28 22:11:18.78	121.73	15.00	-38.1	-41.4	13.8	6.56e-03	0	58	0	1314914304	46	5689
2026-01-28 22:11:19.79	121.91	14.94	-37.9	-41.6	13.6	5.74e-03	0	59	0	1318060032	45	6179
2026-01-28 22:11:20.80	122.09	14.88	-37.6	-41.4	13.7	5.82e-03	0	58	0	1321205760	45	6034
2026-01-28 22:11:21.81	122.27	14.83	-37.8	-41.5	13.7	7.06e-03	0	59	0	1324351488	46	5731
2026-01-28 22:11:22.82	122.45	14.77	-37.6	-41.3	13.8	6.96e-03	0	59	0	1327497216	44	6319
2026-01-28 22:11:23.83	122.63	14.71	-38.9	-41.4	14.1	2.13e-05	0	59	0	1330642944	48	5052
2026-01-28 22:11:24.84	122.81	14.65	-39.1	-41.4	14.0	3.20e-05	0	58	0	1333788672	49	4780
2026-01-28 22:11:25.85	122.99	14.59	-39.1	-41.3	14.1	2.67e-05	0	58	0	1336934400	49	4746
2026-01-28 22:11:26.86	123.16	14.53	-39.0	-41.2	14.2	8.89e-03	0	59	0	1340080128	48	4977
2026-01-28 22:11:27.87	123.34	14.48	-39.1	-41.3	14.1	3.43e-05	0	59	0	1343225856	48	5017
2026-01-28 22:11:28.88	123.52	14.42	-39.1	-41.4	14.1	2.74e-05	0	59	0	1346371584	48	5051
2026-01-28 22:11:29.89	123.69	14.36	-39.1	-41.4	14.1	3.43e-05	0	58	0	1349517312	48	5066
2026-01-28 22:11:30.90	123.87	14.30	-39.0	-41.4	14.0	4.57e-05	0	59	0	1352663040	48	5045
2026-01-28 22:11:31.90	124.04	14.24	-39.1	-41.3	14.1	8.85e-05	0	59	0	1355808768	48	5013
2026-01-28 22:11:32.91	124.21	14.18	-36.1	-41.6	12.7	5.50e-03	0	59	0	1358954496	43	6908
2026-01-28 22:11:33.92	124.39	14.12	-39.1	-41.4	14.1	1.98e-04	0	58	0	1362100224	48	5067
2026-01-28 22:11:34.93	124.56	14.06	-39.1	-41.4	14.1	7.09e-05	0	58	0	1365245952	48	5044
2026-01-28 22:11:35.94	124.73	14.00	-39.0	-41.3	14.2	2.42e-04	0	58	0	1368391680	48	4985
2026-01-28 22:11:36.96	124.90	13.94	-38.4	-41.2	14.2	3.03e-04	0	58	0	1371537408	48	4963
2026-01-28 22:11:37.97	125.07	13.89	-38.7	-41.2	14.1	4.07e-04	0	59	0	1374683136	47	5219
2026-01-28 22:11:38.98	125.24	13.83	-37.3	-41.2	14.0	6.49e-03	0	58	0	1377828864	47	5221
2026-01-28 22:11:39.99	125.41	13.77	-37.1	-41.2	13.8	1.34e-03	0	58	0	1380974592	47	5240
2026-01-28 22:11:41.00	125.58	13.71	-38.6	-41.1	14.0	3.47e-02	0	59	0	1384120320	47	5162
2026-01-28 22:11:42.01	125.74	13.65	-36.3	-40.9	13.7	6.62e-03	0	59	0	1387266048	46	5401
2026-01-28 22:11:43.02	125.91	13.59	-37.5	-40.9	13.6	9.88e-03	0	59	0	1390411776	44	6040
2026-01-28 22:11:44.03	126.08	13.53	-37.2	-40.9	13.8	8.48e-03	0	58	0	1393557504	44	5997
2026-01-28 22:11:45.04	126.24	13.47	-36.7	-40.7	13.3	1.41e-02	0	59	0	1396703232	36	9351
2026-01-28 22:11:46.05	126.41	13.41	-34.6	-40.7	12.7	2.28e-02	0	59	0	1399848960	42	6587
2026-01-28 22:11:47.06	126.57	13.35	-36.6	-40.8	13.2	1.26e-01	2	58	0	1402994688	42	6673
2026-01-28 22:11:48.08	126.74	13.29	-35.8	-40.7	12.0	3.28e-02	10	58	0	1406140416	40	7423
2026-01-28 22:11:49.09	126.90	13.22	-32.7	-40.4	11.3	7.94e-02	5	59	0	1409286144	39	7575
2026-01-28 22:11:50.10	127.06	13.16	-34.1	-40.8	10.2	7.80e-02	6	59	0	1412431872	36	9455
2026-01-28 22:11:51.11	127.22	13.10	-22.3	-37.6	5.5	4.76e-01	10	59	0	1412431872	19	17296
2026-01-28 22:11:52.12	127.38	13.04	-28.8	-40.5	10.6	2.45e-01	8	59	0	1412431872	35	9610
2026-01-28 22:11:53.13	127.54	12.98	-31.5	-40.3	9.6	3.22e-01	17	59	0	1414529024	34	9988
2026-01-28 22:11:54.13	127.70	12.92	-31.5	-40.2	9.0	3.31e-01	20	59	0	1417674752	31	11780
2026-01-28 22:11:55.14	127.86	12.86	-32.3	-41.1	9.8	2.58e-01	16	59	0	1419771904	33	11553
2026-01-28 22:11:56.15	128.02	12.80	-23.1	-39.1	4.4	5.17e-01	0	59	104	1420820480	17	23177
2026-01-28 22:11:57.16	128.18	12.74	-29.6	-40.4	7.9	7.51e-01	6	59	0	1420820480	27	15165
2026-01-28 22:11:58.17	128.33	12.68	-25.8	-39.7	7.7	3.41e-01	12	59	0	1421869056	28	13155
2026-01-28 22:11:59.18	128.49	12.62	-25.8	-39.9	8.0	7.76e-01	16	59	0	1422917632	26	15214
2026-01-28 22:12:00.19	128.64	12.56	-29.8	-40.7	8.5	4.19e-01	23	59	0	1423966208	29	13937
2026-01-28 22:12:01.20	128.80	12.50	-27.6	-41.1	4.7	9.04e-01	0	59	104	1425014784	23	20546
2026-01-28 22:12:02.21	128.95	12.44	-27.1	-40.6	5.0	1.41e+00	0	59	104	1425014784	24	18476
2026-01-28 22:12:03.22	129.11	12.38	-25.6	-39.7	7.6	6.66e-01	8	59	0	1425014784	19	22140
2026-01-28 22:12:04.23	129.26	12.31	-26.3	-40.4	5.0	1.44e+00	0	59	104	1425014784	26	16073
2026-01-28 22:12:05.24	129.41	12.25	-22.6	-40.3	4.6	1.42e+00	0	59	104	1425014784	24	17788
2026-01-28 22:12:06.25	129.57	12.19	-23.5	-39.7	4.3	1.45e+00	0	59	104	1425014784	17	24950
2026-01-28 22:12:07.26	129.72	12.13	-25.9	-41.1	4.5	1.46e+00	0	59	104	1425014784	18	27572
2026-01-28 22:12:08.27	129.87	12.07	-27.2	-47.7	4.3	1.49e+00	0	59	104	1425014784	30	29438
2026-01-28 22:12:09.28	130.02	12.01	-26.1	-44.4	4.4	1.49e+00	0	59	104	1425014784	21	33810
2026-01-28 22:12:10.29	130.17	11.95	-25.5	-42.2	4.6	1.44e+00	0	59	104	1425014784	25	20780
2026-01-28 22:12:11.30	130.32	11.89	-26.4	-40.9	4.7	1.46e+00	0	59	104	1425014784	21	22642
2026-01-28 22:12:12.31	130.47	11.83	-26.5	-40.3	6.4	1.17e+00	0	59	0	1425014784	21	21049
2026-01-28 22:12:13.32	130.61	11.76	-26.0	-40.8	7.4	1.01e+00	4	59	0	1425014784	25	17881
2026-01-28 22:12:14.33	130.76	11.70	-25.0	-40.5	4.9	1.43e+00	0	59	104	1425014784	21	21731
2026-01-28 22:12:15.33	130.91	11.64	-21.9	-39.5	7.2	8.77e-01	0	59	0	1425014784	22	18187
2026-01-28 22:12:16.35	131.05	11.58	-23.9	-39.5	6.0	9.32e-01	0	59	0	1425014784	20	20339
2026-01-28 22:12:17.36	131.20	11.52	-23.8	-39.7	4.6	1.44e+00	0	59	104	1425014784	16	26212
2026-01-28 22:12:18.37	131.34	11.46	-24.2	-40.9	4.3	1.43e+00	0	59	104	1425014784	17	28653
2026-01-28 22:12:19.38	131.49	11.40	-24.4	-39.6	4.7	1.50e+00	0	59	104	1425014784	17	24483
2026-01-28 22:12:20.38	131.63	11.34	-24.2	-39.3	4.4	1.49e+00	0	59	104	1425014784	14	28032
2026-01-28 22:12:21.39	131.77	11.27	-27.9	-44.0	4.7	1.47e+00	0	59	104	1425014784	25	25573
2026-01-28 22:12:22.40	131.92	11.21	-21.3	-40.3	4.7	1.45e+00	0	59	104	1425014784	18	25191
2026-01-28 22:12:23.41	132.06	11.15	-23.5	-40.7	4.5	1.46e+00	0	59	104	1425014784	17	27927
2026-01-28 22:12:24.42	132.20	11.09	-23.3	-38.8	4.7	1.45e+00	0	59	104	1425014784	16	23666
2026-01-28 22:12:25.43	132.34	11.03	-27.0	-42.2	4.7	1.44e+00	0	59	104	1425014784	21	26395
2026-01-28 22:12:26.44	132.48	10.97	-24.9	-40.1	4.7	1.44e+00	0	59	104	1425014784	19	23076
2026-01-28 22:12:27.45	132.62	10.91	-24.7	-42.2	4.8	1.50e+00	0	59	104	1425014784	19	29508
2026-01-28 22:12:28.46	132.76	10.84	-21.9	-40.1	4.2	1.47e+00	0	59	104	1425014784	19	23092
2026-01-28 22:12:29.47	132.90	10.78	-24.3	-42.9	4.5	1.48e+00	0	59	104	1425014784	23	25289
2026-01-28 22:12:30.48	133.04	10.72	-23.6	-41.3	4.5	1.49e+00	0	59	104	1425014784	18	28287
2026-01-28 22:12:31.49	133.17	10.66	-21.5	-41.7	4.1	1.50e+00	0	59	104	1425014784	17	31087
2026-01-28 22:12:32.50	133.31	10.60	-23.0	-42.4	4.3	1.50e+00	0	59	104	1425014784	20	28632
2026-01-28 22:12:33.51	133.45	10.54	-25.0	-43.1	4.1	1.51e+00	0	59	104	1425014784	18	34786
2026-01-28 22:12:34.51	133.58	10.48	-22.9	-44.8	4.5	1.51e+00	0	59	104	1425014784	21	35568
2026-01-28 22:12:35.52	133.72	10.42	-35.9	-53.6	4.0	1.49e+00	0	59	104	1425014784	38	36602
2026-01-28 22:12:36.53	133.85	10.36	-31.3	-52.0	3.9	1.49e+00	0	59	104	1425014784	42	24404
2026-01-28 22:12:37.55	133.99	10.29	-36.6	-53.8	4.0	1.51e+00	0	59	104	1425014784	42	30003
2026-01-28 22:12:38.56	134.12	10.23	-37.1	-53.9	3.8	1.50e+00	0	59	104	1425014784	41	32029
2026-01-28 22:12:39.57	134.25	10.17	-39.1	-53.7	3.8	1.50e+00	0	59	104	1425014784	40	33194
2026-01-28 22:12:40.57	134.38	10.11	-39.6	-54.0	3.9	1.49e+00	0	59	104	1425014784	49	20316
2026-01-28 22:12:41.58	134.52	10.05	-41.2	-54.3	3.8	1.49e+00	0	59	104	1425014784	49	21218
2026-01-28 22:12:42.59	134.65	9.99	-30.0	-49.5	3.9	1.50e+00	0	59	104	1425014784	33	30455
2026-01-28 22:12:43.60	134.78	9.93	-34.4	-51.4	4.4	1.50e+00	0	59	104	1425014784	37	30199
2026-01-28 22:12:44.61	134.91	9.87	-36.0	-53.7	4.0	1.50e+00	0	59	104	1425014784	42	29501
2026-01-28 22:12:45.62	135.04	9.80	-27.7	-46.9	4.1	1.51e+00	0	59	104	1425014784	26	33805
2026-01-28 22:12:46.63	135.17	9.74	-26.3	-48.1	4.1	1.51e+00	0	59	104	1425014784	26	39105
2026-01-28 22:12:47.64	135.30	9.68	-27.1	-49.8	4.2	1.51e+00	0	59	104	1425014784	33	31645
2026-01-28 22:12:48.65	135.43	9.62	-34.9	-52.7	3.9	1.50e+00	0	59	104	1425014784	38	33243
2026-01-28 22:12:49.66	135.55	9.56	-39.4	-53.8	3.8	1.50e+00	0	59	104	1425014784	46	23594
2026-01-28 22:12:50.67	135.68	9.50	-41.8	-54.4	3.9	1.49e+00	0	59	104	1425014784	54	16046
2026-01-28 22:12:51.68	135.81	9.44	-39.9	-54.8	3.6	1.49e+00	0	59	104	1425014784	49	22400
2026-01-28 22:12:52.69	135.93	9.38	-39.6	-54.4	3.9	1.49e+00	0	59	104	1425014784	51	19088
2026-01-28 22:12:53.70	136.06	9.32	-40.6	-54.5	3.8	1.49e+00	0	59	104	1425014784	53	17161
2026-01-28 22:12:54.71	136.18	9.26	-37.0	-53.3	3.8	1.49e+00	0	59	104	1425014784	51	16698
2026-01-28 22:12:55.72	136.31	9.19	-39.8	-54.7	3.9	1.49e+00	0	59	104	1425014784	51	19815
2026-01-28 22:12:56.73	136.43	9.13	-39.5	-54.5	4.0	1.49e+00	0	59	104	1425014784	51	19225
2026-01-28 22:12:57.74	136.56	9.07	-39.5	-54.0	3.7	1.49e+00	0	59	104	1425014784	54	15227
2026-01-28 22:12:58.75	136.68	9.01	-41.5	-53.9	3.8	1.49e+00	0	59	104	1425014784	53	16113
2026-01-28 22:12:59.76	136.80	8.95	-41.9	-54.3	3.9	1.49e+00	0	59	104	1425014784	53	16744
2026-01-28 22:13:00.77	136.93	8.89	-41.1	-54.1	3.8	1.49e+00	0	59	104	1425014784	52	17415
2026-01-28 22:13:01.79	137.05	8.83	-40.7	-54.3	3.9	1.49e+00	0	59	104	1425014784	54	15850
2026-01-28 22:13:02.80	137.17	8.77	-40.0	-54.3	3.7	1.49e+00	0	59	104	1425014784	52	17769
2026-01-28 22:13:03.80	137.29	8.71	-42.4	-54.6	3.7	1.49e+00	0	59	104	1425014784	52	18483
2026-01-28 22:13:04.81	137.41	8.65	-41.8	-54.2	3.9	1.49e+00	0	59	104	1425014784	53	16619
2026-01-28 22:13:05.82	137.53	8.59	-40.7	-54.2	3.8	1.49e+00	0	59	104	1425014784	54	15754
2026-01-28 22:13:06.83	137.65	8.53	-37.3	-54.7	3.8	1.49e+00	0	59	104	1425014784	52	18621
2026-01-28 22:13:07.84	137.77	8.47	-41.7	-54.8	3.8	1.49e+00	0	59	104	1425014784	55	15794
2026-01-28 22:13:08.85	137.89	8.41	-42.1	-54.4	3.8	1.49e+00	0	59	104	1425014784	54	16081
2026-01-28 22:13:09.86	138.00	8.35	-41.5	-54.5	3.8	1.49e+00	0	59	104	1425014784	54	16229
2026-01-28 22:13:10.87	138.12	8.29	-42.2	-54.4	3.9	1.49e+00	0	59	104	1425014784	55	15202
2026-01-28 22:13:11.88	138.24	8.23	-42.1	-54.6	3.9	1.49e+00	0	59	104	1425014784	55	15444
2026-01-28 22:13:12.89	138.36	8.17	-42.6	-54.6	3.8	1.49e+00	0	59	104	1425014784	54	16480
2026-01-28 22:13:13.90	138.47	8.11	-42.4	-54.8	3.8	1.49e+00	0	59	104	1425014784	55	15910
2026-01-28 22:13:14.91	138.59	8.05	-42.2	-54.2	3.9	1.49e+00	0	59	104	1425014784	54	15658
2026-01-28 22:13:15.92	138.70	7.99	-39.7	-53.9	3.8	1.49e+00	0	59	104	1425014784	53	16110
2026-01-28 22:13:16.94	138.82	7.93	-38.7	-54.2	4.3	1.51e+00	0	59	104	1425014784	45	26382
2026-01-28 22:13:17.95	138.93	7.87	-44.7	-57.3	3.8	1.49e+00	0	59	104	1425014784	60	15782
2026-01-28 22:13:18.96	139.05	7.81	-45.0	-57.5	3.8	1.49e+00	0	59	104	1425014784	60	16299
2026-01-28 22:13:19.97	139.16	7.75	-45.2	-57.7	3.8	1.49e+00	0	59	104	1425014784	60	16637
2026-01-28 22:13:20.98	139.27	7.69	-45.3	-57.8	3.8	1.49e+00	0	59	104	1425014784	61	15899
2026-01-28 22:13:21.99	139.38	7.63	-45.4	-58.0	3.8	1.49e+00	0	59	104	1425014784	61	16148
2026-01-28 22:13:23.00	139.50	7.57	-45.4	-58.0	3.8	1.49e+00	0	59	104	1425014784	61	16247
2026-01-28 22:13:24.01	139.61	7.51	-45.5	-58.0	3.8	1.49e+00	0	59	104	1425014784	61	16297
2026-01-28 22:13:25.02	139.72	7.45	-45.5	-58.0	3.8	1.49e+00	0	59	104	1425014784	61	16237
2026-01-28 22:13:26.03	139.83	7.39	-45.4	-58.0	3.8	1.49e+00	0	59	104	1425014784	61	16203
2026-01-28 22:13:27.04	139.94	7.33	-45.3	-57.9	3.8	1.49e+00	0	59	104	1425014784	61	16038
2026-01-28 22:13:28.05	140.05	7.27	-45.2	-57.8	3.8	1.49e+00	0	59	104	1425014784	61	15919
2026-01-28 22:13:29.06	140.16	7.21	-45.2	-57.8	3.8	1.49e+00	0	59	104	1425014784	61	15875
2026-01-28 22:13:30.07	140.27	7.15	-45.1	-57.8	3.8	1.49e+00	0	59	104	1425014784	61	15799
2026-01-28 22:13:31.08	140.38	7.09	-45.1	-57.7	3.8	1.49e+00	0	59	104	1425014784	61	15696
2026-01-28 22:13:32.09	140.48	7.03	-45.0	-57.6	3.8	1.49e+00	0	59	104	1425014784	61	15537
2026-01-28 22:13:33.10	140.59	6.97	-45.0	-57.6	3.8	1.49e+00	0	59	104	1425014784	61	15560
2026-01-28 22:13:34.11	140.70	6.91	-45.0	-57.7	3.8	1.49e+00	0	59	104	1425014784	61	15581
2026-01-28 22:13:35.12	140.81	6.85	-45.0	-57.6	3.8	1.49e+00	0	59	104	1425014784	61	15565
2026-01-28 22:13:36.13	140.91	6.79	-45.0	-57.7	3.8	1.49e+00	0	59	104	1425014784	61	15597
2026-01-28 22:13:37.14	141.02	6.73	-45.0	-57.6	3.8	1.49e+00	0	59	104	1425014784	61	15505
2026-01-28 22:13:38.15	141.12	6.68	-45.0	-57.6	3.8	1.49e+00	0	59	104	1425014784	61	15555
2026-01-28 22:13:39.16	141.23	6.62	-45.0	-57.7	3.8	1.49e+00	0	59	104	1425014784	61	15616
2026-01-28 22:13:40.17	141.33	6.56	-45.0	-57.6	3.8	1.49e+00	0	59	104	1425014784	61	15530
2026-01-28 22:13:41.18	141.44	6.50	-45.0	-57.6	3.8	1.49e+00	0	59	104	1425014784	61	15522
2026-01-28 22:13:42.19	141.54	6.44	-45.0	-57.6	3.8	1.49e+00	0	59	104	1425014784	61	15505
2026-01-28 22:13:43.20	141.65	6.38	-45.0	-57.6	3.8	1.49e+00	0	59	104	1425014784	61	15506
2026-01-28 22:13:44.22	141.75	6.32	-45.0	-57.6	3.8	1.49e+00	0	59	104	1425014784	61	15521
2026-01-28 22:13:45.22	141.85	6.26	-45.0	-57.6	3.8	1.49e+00	0	59	104	1425014784	61	15516
2026-01-28 22:13:46.23	141.95	6.21	-45.0	-57.6	3.8	1.49e+00	0	59	104	1425014784	61	15515
2026-01-28 22:13:47.24	142.06	6.15	-45.0	-57.6	3.8	1.49e+00	0	59	104	1425014784	61	15423
2026-01-28 22:13:48.25	142.16	6.09	-45.0	-57.6	3.8	1.49e+00	0	59	104	1425014784	61	15505
2026-01-28 22:13:49.26	142.26	6.03	-45.0	-57.6	3.8	1.49e+00	0	59	104	1425014784	61	15493
2026-01-28 22:13:50.27	142.36	5.97	-45.0	-57.6	3.8	1.49e+00	0	59	104	1425014784	61	15497
2026-01-28 22:13:51.28	142.46	5.91	-45.0	-57.6	3.8	1.49e+00	0	59	104	1425014784	61	15496
2026-01-28 22:13:52.29	142.56	5.86	-45.0	-57.6	3.8	1.49e+00	0	59	104	1425014784	61	15516
2026-01-28 22:13:53.30	142.66	5.80	-45.0	-57.6	3.8	1.49e+00	0	59	104	1425014784	61	15480
2026-01-28 22:13:54.31	142.76	5.74	-45.0	-57.6	3.8	1.49e+00	0	59	104	1425014784	61	15471
2026-01-28 22:13:55.32	142.86	5.68	-45.0	-57.6	3.8	1.49e+00	0	59	104	1425014784	61	15430
2026-01-28 22:13:56.34	142.96	5.62	-45.0	-57.6	3.8	1.49e+00	0	59	104	1425014784	61	15485
2026-01-28 22:13:57.35	143.06	5.57	-45.0	-57.6	3.8	1.49e+00	0	59	104	1425014784	61	15485
2026-01-28 22:13:58.36	143.15	5.51	-45.0	-57.6	3.8	1.49e+00	0	59	104	1425014784	61	15458
2026-01-28 22:13:59.37	143.25	5.45	-45.0	-57.6	3.8	1.49e+00	0	59	104	1425014784	61	15511
2026-01-28 22:14:00.38	143.35	5.39	-45.0	-57.6	3.8	1.49e+00	0	59	104	1425014784	61	15482
2026-01-28 22:14:01.39	143.44	5.33	-45.0	-57.5	3.8	1.49e+00	0	59	104	1425014784	61	15384
2026-01-28 22:14:02.40	143.54	5.28	-45.0	-57.6	3.8	1.49e+00	0	59	104	1425014784	61	15502
2026-01-28 22:14:03.41	143.64	5.22	-45.0	-57.6	3.8	1.49e+00	0	59	104	1425014784	61	15512
2026-01-28 22:14:04.42	143.73	5.16	-45.0	-57.6	3.8	1.49e+00	0	59	104	1425014784	61	15463
2026-01-28 22:14:05.43	143.83	5.10	-45.0	-57.6	3.8	1.49e+00	0	59	104	1425014784	61	15457
2026-01-28 22:14:06.44	143.92	5.05	-45.0	-57.6	3.8	1.49e+00	0	59	104	1425014784	61	15442
2026-01-28 22:14:07.45	144.02	4.99	-44.9	-57.6	3.8	1.49e+00	0	59	104	1425014784	61	15414
2026-01-28 22:14:08.46	144.11	4.93	-44.9	-57.6	3.8	1.49e+00	0	59	104	1425014784	61	15415
