passes_logs/2026/01/28/R2.0S_Moscow/R2.0S_Moscow__20260128_102139_SUOMI_NPP_rec.log

#Pass ID: 20260128_102139_SUOMI NPP
#Satellite: SUOMI NPP
#Configuration: NPP
#almurnet v.1.7.20251203
#Start time: 2026-01-28 10:21:39

#Version: 2.2.20231116
#Station: R2.0S_Moscow
#Location: 37.707566 lon 55.798166 lat
#TLE: 1 37849U 11061A   26027.86188320  .00000172  00000+0  10275-3 0  9990
#TLE: 2 37849  98.7823 329.8005 0002088  41.4184 318.7150 14.19530883738530

#Time	Az	El	Level	Level2	SNR	BER	BlckErr	Temp	State	Recorded	gain1	gain2
2026-01-28 10:21:39.36	171.17	1.98	-43.3	-58.0	3.8	1.49e+00	0	50	0	0	58	19266
2026-01-28 10:21:40.37	171.19	2.05	-43.3	-58.0	3.8	1.49e+00	0	50	104	0	58	19264
2026-01-28 10:21:41.38	171.21	2.11	-43.3	-58.0	3.8	1.49e+00	0	50	104	0	58	19228
2026-01-28 10:21:42.39	171.23	2.18	-43.3	-58.0	3.8	1.49e+00	0	50	104	0	58	19303
2026-01-28 10:21:43.40	171.25	2.24	-43.3	-58.0	3.8	1.49e+00	0	50	104	0	58	19299
2026-01-28 10:21:44.41	171.27	2.31	-43.3	-58.0	3.8	1.49e+00	0	51	104	0	58	19228
2026-01-28 10:21:45.42	171.28	2.37	-43.3	-58.0	3.8	1.49e+00	0	50	104	0	58	19245
2026-01-28 10:21:46.44	171.30	2.44	-43.3	-58.0	3.8	1.49e+00	0	51	104	0	58	19274
2026-01-28 10:21:47.45	171.32	2.50	-43.3	-58.0	3.8	1.49e+00	0	51	104	0	58	19242
2026-01-28 10:21:48.46	171.34	2.57	-43.3	-58.0	3.8	1.49e+00	0	51	104	0	58	19250
2026-01-28 10:21:49.47	171.36	2.64	-43.3	-58.0	3.8	1.49e+00	0	51	104	0	58	19217
2026-01-28 10:21:50.48	171.38	2.70	-43.3	-58.0	3.8	1.49e+00	0	51	104	0	58	19249
2026-01-28 10:21:51.49	171.40	2.77	-43.3	-58.0	3.8	1.49e+00	0	51	104	0	58	19270
2026-01-28 10:21:52.50	171.42	2.83	-43.3	-58.0	3.8	1.49e+00	0	51	104	0	58	19273
2026-01-28 10:21:53.51	171.44	2.90	-43.3	-58.0	3.8	1.49e+00	0	51	104	0	58	19287
2026-01-28 10:21:54.52	171.46	2.97	-43.3	-58.0	3.8	1.49e+00	0	51	104	0	58	19268
2026-01-28 10:21:55.53	171.48	3.03	-43.3	-58.0	3.8	1.49e+00	0	51	104	0	58	19181
2026-01-28 10:21:56.54	171.50	3.10	-43.3	-58.0	3.8	1.49e+00	0	51	104	0	58	19229
2026-01-28 10:21:57.55	171.52	3.17	-43.3	-58.0	3.8	1.49e+00	0	51	104	0	58	19191
2026-01-28 10:21:58.56	171.54	3.24	-43.3	-58.0	3.8	1.49e+00	0	51	104	0	58	19224
2026-01-28 10:21:59.57	171.56	3.30	-43.3	-58.0	3.8	1.49e+00	0	51	104	0	58	19219
2026-01-28 10:22:00.58	171.58	3.37	-43.3	-58.0	3.8	1.49e+00	0	52	104	0	58	19235
2026-01-28 10:22:01.59	171.60	3.44	-43.3	-58.0	3.8	1.49e+00	0	52	104	0	58	19249
2026-01-28 10:22:02.60	171.63	3.51	-43.3	-58.0	3.8	1.49e+00	0	52	104	0	58	19247
2026-01-28 10:22:03.61	171.65	3.57	-43.3	-58.0	3.8	1.49e+00	0	52	104	0	58	19272
2026-01-28 10:22:04.62	171.67	3.64	-43.3	-58.0	3.8	1.49e+00	0	52	104	0	58	19275
2026-01-28 10:22:05.63	171.69	3.71	-43.3	-58.0	3.8	1.49e+00	0	52	104	0	58	19194
2026-01-28 10:22:06.64	171.71	3.78	-43.3	-58.0	3.8	1.49e+00	0	52	104	0	58	19185
2026-01-28 10:22:07.65	171.73	3.85	-43.3	-57.9	3.8	1.49e+00	0	52	104	0	58	19166
2026-01-28 10:22:08.66	171.75	3.92	-43.3	-58.0	3.8	1.49e+00	0	52	104	0	58	19170
2026-01-28 10:22:09.67	171.77	3.99	-43.3	-57.9	3.8	1.49e+00	0	52	104	0	58	19092
2026-01-28 10:22:10.68	171.79	4.05	-43.3	-57.9	3.8	1.49e+00	0	52	104	0	58	18986
2026-01-28 10:22:11.69	171.81	4.12	-43.3	-57.9	3.8	1.49e+00	0	52	104	0	58	19034
2026-01-28 10:22:12.71	171.84	4.19	-43.3	-57.8	3.8	1.49e+00	0	52	104	0	58	18917
2026-01-28 10:22:13.72	171.86	4.26	-43.3	-57.8	3.8	1.49e+00	0	52	104	0	58	18784
2026-01-28 10:22:14.73	171.88	4.33	-43.3	-57.8	3.8	1.49e+00	0	52	104	0	58	18757
2026-01-28 10:22:15.74	171.90	4.40	-43.3	-57.7	3.8	1.49e+00	0	53	104	0	58	18695
2026-01-28 10:22:16.75	171.92	4.47	-43.3	-57.8	3.8	1.49e+00	0	53	104	0	58	18787
2026-01-28 10:22:17.76	171.95	4.55	-43.3	-57.8	3.8	1.49e+00	0	53	104	0	58	18787
2026-01-28 10:22:18.77	171.97	4.62	-43.3	-57.8	3.8	1.49e+00	0	53	104	0	58	18753
2026-01-28 10:22:19.78	171.99	4.69	-43.3	-57.8	3.8	1.49e+00	0	53	104	0	58	18823
2026-01-28 10:22:20.79	172.01	4.76	-43.3	-57.7	3.8	1.49e+00	0	53	104	0	58	18679
2026-01-28 10:22:21.80	172.03	4.83	-43.2	-57.6	3.8	1.49e+00	0	53	104	0	58	18441
2026-01-28 10:22:22.81	172.06	4.90	-43.2	-57.5	3.8	1.49e+00	0	53	104	0	58	18247
2026-01-28 10:22:23.82	172.08	4.97	-43.2	-57.4	3.8	1.49e+00	0	53	104	0	58	17956
2026-01-28 10:22:24.83	172.10	5.04	-43.2	-57.2	3.8	1.49e+00	0	53	104	0	58	17565
2026-01-28 10:22:25.84	172.12	5.12	-43.2	-57.0	3.8	1.49e+00	0	53	104	0	58	17157
2026-01-28 10:22:26.86	172.15	5.19	-43.2	-56.7	3.8	1.49e+00	0	53	104	0	58	16588
2026-01-28 10:22:27.87	172.17	5.26	-43.2	-56.4	3.8	1.49e+00	0	53	104	0	58	16027
2026-01-28 10:22:28.88	172.19	5.33	-43.2	-56.3	3.8	1.49e+00	0	53	104	0	58	15834
2026-01-28 10:22:29.89	172.22	5.41	-43.2	-56.2	3.8	1.49e+00	0	53	104	0	58	15656
2026-01-28 10:22:30.90	172.24	5.48	-43.2	-56.2	3.8	1.49e+00	0	53	104	0	58	15729
2026-01-28 10:22:31.91	172.26	5.55	-43.2	-56.2	3.8	1.49e+00	0	53	104	0	58	15689
2026-01-28 10:22:32.92	172.29	5.63	-43.2	-56.3	3.8	1.49e+00	0	53	104	0	58	15854
2026-01-28 10:22:33.93	172.31	5.70	-43.2	-56.3	3.8	1.49e+00	0	54	104	0	58	15899
2026-01-28 10:22:34.94	172.33	5.77	-43.2	-56.1	3.8	1.49e+00	0	54	104	0	58	15556
2026-01-28 10:22:35.95	172.36	5.85	-43.2	-56.2	3.8	1.49e+00	0	54	104	0	58	15591
2026-01-28 10:22:36.96	172.38	5.92	-43.2	-56.0	3.8	1.49e+00	0	54	104	0	58	15363
2026-01-28 10:22:37.97	172.41	6.00	-43.2	-55.7	3.9	1.48e+00	0	54	104	0	58	14762
2026-01-28 10:22:38.98	172.43	6.07	-43.1	-55.5	4.0	1.48e+00	0	54	104	0	58	14472
2026-01-28 10:22:39.99	172.45	6.15	-43.1	-55.0	4.0	1.48e+00	0	54	104	0	58	13661
2026-01-28 10:22:41.00	172.48	6.22	-43.1	-54.8	4.1	1.47e+00	0	54	0	0	58	13316
2026-01-28 10:22:42.01	172.50	6.30	-43.0	-54.4	4.2	1.40e+00	0	54	0	0	58	12786
2026-01-28 10:22:43.02	172.53	6.37	-42.9	-53.6	4.4	1.27e+00	0	54	0	1048576	57	12368
2026-01-28 10:22:44.03	172.55	6.45	-42.9	-53.3	4.6	1.05e+00	0	54	0	2097152	57	11823
2026-01-28 10:22:45.04	172.58	6.52	-42.9	-52.5	4.9	7.91e-01	0	54	0	4194304	57	10888
2026-01-28 10:22:46.05	172.60	6.60	-42.8	-52.2	5.1	6.74e-01	0	54	0	6291456	57	10500
2026-01-28 10:22:47.06	172.63	6.68	-42.7	-51.6	5.5	5.67e-01	0	54	0	8388608	57	9747
2026-01-28 10:22:48.07	172.65	6.75	-42.6	-51.0	5.9	3.66e-01	0	54	0	10485760	57	9094
2026-01-28 10:22:49.08	172.68	6.83	-42.5	-50.5	6.3	3.01e-01	0	54	0	11534336	57	8565
2026-01-28 10:22:50.09	172.70	6.91	-42.4	-49.9	6.8	2.07e-01	0	54	0	13631488	56	8483
2026-01-28 10:22:51.10	172.73	6.98	-42.3	-49.3	7.3	1.57e-01	0	54	0	15728640	56	7989
2026-01-28 10:22:52.12	172.75	7.06	-42.2	-48.9	7.7	1.01e-01	0	54	0	17825792	56	7573
2026-01-28 10:22:53.13	172.78	7.14	-42.1	-48.5	8.1	7.27e-02	0	54	0	19922944	56	7280
2026-01-28 10:22:54.14	172.81	7.22	-42.0	-48.1	8.5	5.06e-02	0	54	0	20971520	56	6915
2026-01-28 10:22:55.15	172.83	7.30	-41.8	-47.7	8.8	3.30e-02	0	55	0	23068672	55	6996
2026-01-28 10:22:56.16	172.86	7.37	-41.6	-47.4	9.1	2.71e-02	0	54	0	25165824	55	6740
2026-01-28 10:22:57.17	172.88	7.45	-41.6	-47.1	9.4	2.05e-02	0	54	0	27262976	55	6551
2026-01-28 10:22:58.18	172.91	7.53	-41.4	-46.8	9.7	1.38e-02	0	55	0	29360128	54	6699
2026-01-28 10:22:59.19	172.94	7.61	-41.4	-46.8	9.7	1.39e-02	0	55	0	30408704	54	6667
2026-01-28 10:23:00.20	172.96	7.69	-41.3	-46.7	9.8	1.10e-02	0	55	0	32505856	54	6626
2026-01-28 10:23:01.21	172.99	7.77	-41.4	-46.8	9.7	9.70e-03	0	55	0	34603008	54	6714
2026-01-28 10:23:02.22	173.02	7.85	-41.4	-47.0	9.5	1.28e-02	0	55	0	36700160	54	6841
2026-01-28 10:23:03.23	173.04	7.93	-41.5	-47.2	9.3	1.40e-02	0	55	0	38797312	54	7015
2026-01-28 10:23:04.24	173.07	8.01	-41.6	-47.4	9.0	1.80e-02	0	55	0	40894464	54	7199
2026-01-28 10:23:05.25	173.10	8.09	-41.6	-47.4	9.1	3.37e-02	0	55	0	41943040	54	7180
2026-01-28 10:23:06.26	173.13	8.17	-41.3	-46.0	11.1	2.82e-03	0	55	0	44040192	54	6110
2026-01-28 10:23:07.27	173.15	8.25	-42.5	-53.7	4.0	3.41e-01	0	55	104	45088768	55	13991
2026-01-28 10:23:08.28	173.18	8.33	-41.6	-46.7	10.4	6.66e-03	0	55	0	45088768	54	6597
2026-01-28 10:23:09.29	173.21	8.42	-41.4	-46.2	11.0	4.47e-03	0	55	0	47185920	54	6239
2026-01-28 10:23:10.30	173.24	8.50	-43.0	-55.8	3.9	6.19e-01	0	55	104	48234496	56	16739
2026-01-28 10:23:11.31	173.27	8.58	-41.1	-45.5	11.7	8.57e-04	0	55	0	48234496	54	5761
2026-01-28 10:23:12.32	173.29	8.66	-41.1	-45.5	11.7	6.58e-04	0	55	0	50331648	54	5730
2026-01-28 10:23:13.33	173.32	8.75	-41.0	-45.4	11.8	6.10e-04	0	55	0	52428800	54	5681
2026-01-28 10:23:14.34	173.35	8.83	-41.0	-45.5	11.7	4.22e-04	0	55	0	54525952	53	6074
2026-01-28 10:23:15.35	173.38	8.91	-40.9	-45.5	11.7	6.63e-04	0	55	0	56623104	53	6083
2026-01-28 10:23:16.36	173.41	9.00	-40.8	-45.3	11.8	4.73e-04	0	55	0	57671680	53	5988
2026-01-28 10:23:17.37	173.44	9.08	-40.9	-45.5	11.7	4.03e-04	0	55	0	59768832	53	6098
2026-01-28 10:23:18.38	173.47	9.16	-41.0	-45.3	11.8	4.86e-04	0	55	0	61865984	53	5977
2026-01-28 10:23:19.39	173.50	9.25	-41.0	-45.3	12.0	3.48e-04	0	56	0	63963136	53	5926
2026-01-28 10:23:20.40	173.52	9.33	-41.1	-45.3	11.9	2.56e-04	0	55	0	66060288	53	5969
2026-01-28 10:23:21.41	173.55	9.42	-41.0	-45.1	12.2	2.88e-04	0	56	0	67108864	53	5816
2026-01-28 10:23:22.42	173.58	9.50	-41.1	-45.2	12.1	2.66e-04	0	56	0	69206016	53	5857
2026-01-28 10:23:23.43	173.61	9.59	-41.0	-45.2	12.1	3.49e-04	0	56	0	71303168	53	5858
2026-01-28 10:23:24.44	173.64	9.67	-41.0	-45.2	12.1	2.34e-04	0	56	0	73400320	53	5878
2026-01-28 10:23:25.45	173.67	9.76	-41.0	-45.2	12.0	2.37e-04	0	56	0	75497472	53	5917
2026-01-28 10:23:26.46	173.70	9.85	-40.9	-45.0	12.3	2.65e-04	0	56	0	76546048	53	5736
2026-01-28 10:23:27.47	173.74	9.93	-41.0	-45.0	12.4	1.52e-04	0	56	0	78643200	53	5738
2026-01-28 10:23:28.48	173.77	10.02	-41.0	-45.0	12.4	1.68e-04	0	56	0	80740352	53	5723
2026-01-28 10:23:29.49	173.80	10.11	-41.0	-44.9	12.5	1.22e-04	0	56	0	82837504	53	5671
2026-01-28 10:23:30.50	173.83	10.20	-41.0	-44.8	12.5	1.15e-04	0	56	0	84934656	53	5636
2026-01-28 10:23:31.51	173.86	10.28	-41.0	-44.7	12.7	1.04e-04	0	56	0	85983232	53	5579
2026-01-28 10:23:32.52	173.89	10.37	-41.0	-44.7	12.7	7.09e-05	0	56	0	88080384	53	5583
2026-01-28 10:23:33.53	173.92	10.46	-41.0	-44.8	12.6	7.40e-05	0	56	0	90177536	53	5600
2026-01-28 10:23:34.54	173.95	10.55	-40.9	-44.5	12.9	5.79e-05	0	56	0	92274688	53	5445
2026-01-28 10:23:35.55	173.99	10.64	-40.9	-44.6	12.8	4.34e-05	0	56	0	94371840	53	5496
2026-01-28 10:23:36.56	174.02	10.73	-40.8	-44.5	13.0	3.35e-05	0	56	0	96468992	53	5405
2026-01-28 10:23:37.57	174.05	10.82	-40.8	-44.4	13.0	3.73e-05	0	56	0	97517568	53	5393
2026-01-28 10:23:38.58	174.08	10.91	-40.8	-44.4	13.1	2.82e-05	0	56	0	99614720	53	5344
2026-01-28 10:23:39.59	174.12	11.00	-40.8	-44.3	13.2	2.59e-05	0	56	0	101711872	53	5332
2026-01-28 10:23:40.60	174.15	11.09	-40.8	-44.3	13.2	1.83e-05	0	56	0	103809024	53	5316
2026-01-28 10:23:41.61	174.18	11.18	-40.8	-44.3	13.2	3.05e-05	0	56	0	105906176	53	5314
2026-01-28 10:23:42.62	174.21	11.27	-40.8	-44.2	13.3	2.13e-05	0	56	0	106954752	53	5238
2026-01-28 10:23:43.63	174.25	11.36	-40.8	-44.2	13.4	1.14e-05	0	56	0	109051904	53	5229
2026-01-28 10:23:44.64	174.28	11.46	-40.7	-44.1	13.4	1.75e-05	0	56	0	111149056	53	5168
2026-01-28 10:23:45.65	174.32	11.55	-40.8	-44.1	13.4	1.22e-05	0	56	0	113246208	53	5207
2026-01-28 10:23:46.66	174.35	11.64	-40.7	-44.0	13.6	9.10e-06	0	56	0	115343360	53	5128
2026-01-28 10:23:47.67	174.38	11.73	-40.7	-44.1	13.5	9.10e-06	0	56	0	116391936	53	5163
2026-01-28 10:23:48.68	174.42	11.83	-40.7	-44.0	13.5	5.30e-06	0	56	0	118489088	53	5148
2026-01-28 10:23:49.69	174.45	11.92	-40.6	-43.9	13.7	6.10e-06	0	56	0	120586240	53	5059
2026-01-28 10:23:50.70	174.49	12.02	-40.6	-43.9	13.7	5.30e-06	0	56	0	122683392	53	5054
2026-01-28 10:23:51.71	174.52	12.11	-40.5	-43.8	13.8	5.30e-06	0	56	0	124780544	52	5280
2026-01-28 10:23:52.72	174.56	12.21	-40.5	-43.7	13.9	3.80e-06	0	56	0	125829120	52	5250
2026-01-28 10:23:53.73	174.59	12.30	-40.6	-43.8	13.8	2.20e-06	0	56	0	127926272	52	5280
2026-01-28 10:23:54.74	174.63	12.40	-40.4	-43.5	14.1	2.20e-06	0	56	0	130023424	52	5129
2026-01-28 10:23:55.75	174.66	12.49	-40.5	-43.7	14.0	7.00e-07	0	56	0	132120576	52	5223
2026-01-28 10:23:56.76	174.70	12.59	-40.5	-43.7	14.0	1.50e-06	0	56	0	134217728	52	5229
2026-01-28 10:23:57.77	174.74	12.69	-40.4	-43.5	14.1	1.50e-06	0	56	0	135266304	52	5124
2026-01-28 10:23:58.78	174.77	12.78	-40.5	-43.6	14.0	1.50e-06	0	56	0	137363456	52	5198
2026-01-28 10:23:59.79	174.81	12.88	-40.6	-43.8	13.9	3.80e-06	0	57	0	139460608	52	5281
2026-01-28 10:24:00.80	174.85	12.98	-40.5	-43.6	14.0	0.00e+00	0	57	0	141557760	52	5208
2026-01-28 10:24:01.81	174.88	13.08	-40.6	-43.7	14.0	3.80e-06	0	57	0	143654912	52	5245
2026-01-28 10:24:02.82	174.92	13.18	-40.5	-43.6	14.1	0.00e+00	0	57	0	144703488	52	5191
2026-01-28 10:24:03.83	174.96	13.27	-40.5	-43.7	14.0	2.20e-06	0	57	0	146800640	52	5223
2026-01-28 10:24:04.84	175.00	13.37	-40.6	-43.7	14.0	4.50e-06	0	57	0	148897792	52	5240
2026-01-28 10:24:05.85	175.03	13.47	-40.6	-43.7	14.0	2.20e-06	0	57	0	150994944	52	5246
2026-01-28 10:24:06.86	175.07	13.57	-40.6	-43.7	14.0	2.20e-06	0	57	0	153092096	52	5240
2026-01-28 10:24:07.87	175.11	13.68	-40.4	-43.4	14.3	7.00e-07	0	57	0	154140672	52	5088
2026-01-28 10:24:08.88	175.15	13.78	-40.5	-43.6	14.1	0.00e+00	0	57	0	156237824	52	5163
2026-01-28 10:24:09.89	175.19	13.88	-40.5	-43.5	14.2	7.00e-07	0	56	0	158334976	52	5128
2026-01-28 10:24:10.90	175.23	13.98	-40.5	-43.6	14.1	2.20e-06	0	57	0	160432128	52	5183
2026-01-28 10:24:11.91	175.27	14.08	-40.5	-43.5	14.2	1.50e-06	0	57	0	162529280	52	5142
2026-01-28 10:24:12.92	175.31	14.19	-40.5	-43.7	14.0	3.00e-06	0	57	0	164626432	52	5239
2026-01-28 10:24:13.93	175.35	14.29	-40.5	-43.6	14.2	1.50e-06	0	57	0	165675008	52	5172
2026-01-28 10:24:14.94	175.39	14.39	-40.4	-43.5	14.3	4.50e-06	0	57	0	167772160	52	5102
2026-01-28 10:24:15.95	175.43	14.50	-40.5	-43.7	14.1	1.50e-06	0	56	0	169869312	52	5226
2026-01-28 10:24:16.96	175.47	14.60	-40.5	-43.5	14.2	7.00e-07	0	57	0	171966464	52	5155
2026-01-28 10:24:17.97	175.51	14.71	-40.5	-43.6	14.1	7.00e-07	0	57	0	174063616	52	5186
2026-01-28 10:24:18.98	175.55	14.81	-40.6	-43.7	14.0	1.50e-06	0	57	0	175112192	52	5277
2026-01-28 10:24:19.99	175.59	14.92	-40.6	-43.8	14.0	3.00e-06	0	57	0	177209344	52	5288
2026-01-28 10:24:21.00	175.64	15.02	-40.5	-43.5	14.2	1.50e-06	0	57	0	179306496	52	5153
2026-01-28 10:24:22.01	175.68	15.13	-40.7	-43.8	13.9	7.00e-07	0	57	0	181403648	52	5326
2026-01-28 10:24:23.02	175.72	15.24	-40.7	-43.8	14.0	3.80e-06	0	57	0	183500800	52	5293
2026-01-28 10:24:24.03	175.76	15.34	-40.8	-44.0	13.8	7.00e-07	0	57	0	184549376	52	5409
2026-01-28 10:24:25.05	175.81	15.45	-40.8	-44.0	13.8	1.50e-06	0	57	0	186646528	52	5409
2026-01-28 10:24:26.05	175.85	15.56	-40.8	-44.0	13.8	2.20e-06	0	57	0	188743680	52	5419
2026-01-28 10:24:27.06	175.89	15.67	-40.8	-43.9	13.9	6.80e-06	0	57	0	190840832	52	5393
2026-01-28 10:24:28.07	175.94	15.78	-40.7	-43.9	13.9	7.60e-06	0	57	0	192937984	52	5379
2026-01-28 10:24:29.08	175.98	15.89	-40.8	-44.0	13.8	3.80e-06	0	57	0	193986560	52	5406
2026-01-28 10:24:30.09	176.03	16.00	-40.9	-44.1	13.7	2.20e-06	0	57	0	196083712	52	5500
2026-01-28 10:24:31.10	176.07	16.11	-40.9	-44.2	13.5	6.10e-06	0	57	0	198180864	52	5589
2026-01-28 10:24:32.11	176.12	16.22	-41.0	-44.4	13.5	3.80e-06	0	57	0	200278016	52	5672
2026-01-28 10:24:33.12	176.16	16.34	-41.0	-44.4	13.4	5.30e-06	0	57	0	202375168	52	5668
2026-01-28 10:24:34.13	176.21	16.45	-41.0	-44.3	13.4	6.10e-06	0	57	0	203423744	52	5628
2026-01-28 10:24:35.14	176.25	16.56	-41.0	-44.4	13.4	1.52e-05	0	57	0	205520896	52	5684
2026-01-28 10:24:36.15	176.30	16.67	-41.0	-44.4	13.4	1.60e-05	0	57	0	207618048	52	5692
2026-01-28 10:24:37.17	176.35	16.79	-41.0	-44.4	13.4	1.29e-05	0	57	0	209715200	52	5695
2026-01-28 10:24:38.17	176.39	16.90	-41.1	-44.5	13.3	1.83e-05	0	57	0	211812352	52	5778
2026-01-28 10:24:39.18	176.44	17.02	-41.0	-44.3	13.5	2.05e-05	0	57	0	212860928	52	5652
2026-01-28 10:24:40.19	176.49	17.13	-41.1	-44.4	13.4	1.22e-05	0	57	0	214958080	52	5704
2026-01-28 10:24:41.20	176.54	17.25	-41.2	-44.6	13.2	1.67e-05	0	57	0	217055232	52	5840
2026-01-28 10:24:42.21	176.59	17.37	-41.1	-44.5	13.4	2.13e-05	0	57	0	219152384	52	5746
2026-01-28 10:24:43.22	176.63	17.48	-41.1	-44.5	13.3	1.37e-05	0	57	0	221249536	52	5763
2026-01-28 10:24:44.23	176.68	17.60	-41.1	-44.6	13.2	1.52e-05	0	57	0	222298112	52	5816
2026-01-28 10:24:45.24	176.73	17.72	-41.1	-44.5	13.4	1.98e-05	0	57	0	224395264	52	5729
2026-01-28 10:24:46.25	176.78	17.84	-41.1	-44.5	13.4	1.37e-05	0	57	0	226492416	52	5770
2026-01-28 10:24:47.26	176.83	17.96	-41.2	-44.8	13.2	2.05e-05	0	57	0	228589568	53	5593
2026-01-28 10:24:48.27	176.88	18.08	-41.2	-44.6	13.2	1.83e-05	0	57	0	230686720	53	5511
2026-01-28 10:24:49.28	176.93	18.20	-41.3	-44.8	13.1	2.05e-05	0	57	0	232783872	53	5615
2026-01-28 10:24:50.29	176.99	18.32	-41.3	-44.8	13.0	3.66e-05	0	58	0	233832448	53	5635
2026-01-28 10:24:51.29	177.04	18.44	-41.4	-45.0	12.8	4.11e-05	0	57	0	235929600	53	5765
2026-01-28 10:24:52.30	177.09	18.56	-41.3	-44.8	13.1	3.58e-05	0	57	0	238026752	53	5621
2026-01-28 10:24:53.32	177.14	18.69	-41.3	-44.8	13.1	2.21e-05	0	57	0	240123904	53	5620
2026-01-28 10:24:54.33	177.20	18.81	-41.3	-44.9	13.0	3.89e-05	0	58	0	242221056	53	5703
2026-01-28 10:24:55.34	177.25	18.94	-41.4	-45.0	12.9	3.73e-05	0	57	0	243269632	53	5737
2026-01-28 10:24:56.35	177.30	19.06	-41.3	-44.9	13.0	4.80e-05	0	58	0	245366784	53	5696
2026-01-28 10:24:57.35	177.36	19.18	-41.4	-45.0	12.9	2.89e-05	0	57	0	247463936	53	5743
2026-01-28 10:24:58.36	177.41	19.31	-41.3	-44.9	13.0	3.96e-05	0	58	0	249561088	53	5668
2026-01-28 10:24:59.37	177.47	19.44	-41.2	-44.7	13.1	2.13e-05	0	58	0	251658240	53	5577
2026-01-28 10:25:00.38	177.52	19.56	-41.2	-44.6	13.3	1.90e-05	0	58	0	252706816	53	5498
2026-01-28 10:25:01.40	177.58	19.69	-41.0	-44.4	13.5	1.29e-05	0	58	0	254803968	53	5344
2026-01-28 10:25:02.41	177.63	19.82	-41.1	-44.5	13.4	1.75e-05	0	58	0	256901120	53	5423
2026-01-28 10:25:03.42	177.69	19.95	-41.0	-44.3	13.6	1.29e-05	0	58	0	258998272	53	5283
2026-01-28 10:25:04.43	177.75	20.08	-41.1	-44.4	13.4	1.06e-05	0	58	0	261095424	53	5385
2026-01-28 10:25:05.44	177.81	20.21	-41.0	-44.3	13.6	1.37e-05	0	58	0	262144000	53	5315
2026-01-28 10:25:06.45	177.86	20.34	-41.1	-44.4	13.6	1.67e-05	0	58	0	264241152	53	5357
2026-01-28 10:25:07.46	177.92	20.47	-41.2	-44.6	13.3	1.90e-05	0	58	0	266338304	53	5466
2026-01-28 10:25:08.47	177.98	20.61	-41.3	-44.8	13.1	1.83e-05	0	58	0	268435456	53	5613
2026-01-28 10:25:09.48	178.04	20.74	-41.4	-45.0	13.0	2.51e-05	0	58	0	270532608	53	5736
2026-01-28 10:25:10.49	178.10	20.87	-41.5	-45.1	12.8	4.50e-05	0	58	0	271581184	53	5832
2026-01-28 10:25:11.50	178.16	21.01	-41.5	-45.2	12.7	6.94e-05	0	58	0	273678336	53	5910
2026-01-28 10:25:12.51	178.22	21.14	-41.5	-45.2	12.7	5.18e-05	0	58	0	275775488	53	5923
2026-01-28 10:25:13.52	178.28	21.28	-41.5	-45.3	12.6	6.71e-05	0	58	0	277872640	53	5929
2026-01-28 10:25:14.52	178.35	21.41	-41.6	-45.3	12.6	7.85e-05	0	58	0	279969792	53	5983
2026-01-28 10:25:15.53	178.41	21.55	-41.6	-45.3	12.6	9.76e-05	0	58	0	281018368	53	5964
2026-01-28 10:25:16.54	178.47	21.69	-41.6	-45.3	12.6	8.08e-05	0	58	0	283115520	53	5984
2026-01-28 10:25:17.55	178.54	21.83	-41.6	-45.4	12.6	7.93e-05	0	58	0	285212672	53	6020
2026-01-28 10:25:18.56	178.60	21.97	-41.4	-45.1	12.9	8.31e-05	0	58	0	287309824	53	5820
2026-01-28 10:25:19.57	178.66	22.11	-41.4	-44.9	13.1	5.34e-05	0	58	0	289406976	53	5710
2026-01-28 10:25:20.58	178.73	22.25	-41.4	-45.0	13.0	2.97e-05	0	58	0	290455552	53	5724
2026-01-28 10:25:21.59	178.80	22.39	-41.3	-44.8	13.2	3.89e-05	0	58	0	292552704	53	5612
2026-01-28 10:25:22.60	178.86	22.53	-41.4	-44.9	13.1	1.06e-05	0	58	0	294649856	53	5672
2026-01-28 10:25:23.61	178.93	22.67	-41.3	-44.7	13.3	3.89e-05	0	58	0	296747008	53	5553
2026-01-28 10:25:24.62	179.00	22.82	-41.3	-44.7	13.3	1.22e-05	0	58	0	298844160	53	5569
2026-01-28 10:25:25.63	179.07	22.96	-41.3	-44.8	13.2	1.98e-05	0	58	0	300941312	53	5638
2026-01-28 10:25:26.64	179.13	23.11	-41.2	-44.5	13.5	1.37e-05	0	58	0	301989888	53	5429
2026-01-28 10:25:27.65	179.20	23.25	-41.1	-44.4	13.6	3.80e-06	0	58	0	304087040	53	5379
2026-01-28 10:25:28.66	179.27	23.40	-40.9	-44.1	13.9	8.30e-06	0	58	0	306184192	53	5174
2026-01-28 10:25:29.67	179.34	23.55	-40.9	-44.1	13.9	4.50e-06	0	58	0	308281344	53	5160
2026-01-28 10:25:30.68	179.42	23.70	-40.7	-43.7	14.3	2.20e-06	0	58	0	310378496	53	4973
2026-01-28 10:25:31.69	179.49	23.85	-40.8	-43.8	14.2	7.00e-07	0	58	0	311427072	53	5026
2026-01-28 10:25:32.70	179.56	24.00	-40.8	-43.8	14.2	0.00e+00	0	58	0	313524224	53	5010
2026-01-28 10:25:33.71	179.63	24.15	-40.6	-43.5	14.6	0.00e+00	0	58	0	315621376	52	5111
2026-01-28 10:25:34.72	179.71	24.30	-40.6	-43.5	14.5	0.00e+00	0	58	0	317718528	52	5131
2026-01-28 10:25:35.73	179.78	24.45	-40.7	-43.6	14.4	0.00e+00	0	58	0	319815680	52	5197
2026-01-28 10:25:36.74	179.86	24.61	-40.6	-43.5	14.5	2.20e-06	0	58	0	320864256	52	5155
2026-01-28 10:25:37.75	179.93	24.76	-40.6	-43.6	14.5	0.00e+00	0	58	0	322961408	52	5163
2026-01-28 10:25:38.76	180.01	24.92	-40.6	-43.5	14.5	0.00e+00	0	58	0	325058560	52	5143
2026-01-28 10:25:39.77	180.09	25.07	-40.7	-43.6	14.4	7.00e-07	0	58	0	327155712	52	5212
2026-01-28 10:25:40.78	180.17	25.23	-40.7	-43.6	14.4	7.00e-07	0	58	0	329252864	52	5216
2026-01-28 10:25:41.79	180.25	25.39	-40.7	-43.6	14.4	0.00e+00	0	58	0	330301440	52	5209
2026-01-28 10:25:42.80	180.33	25.55	-40.8	-43.8	14.3	0.00e+00	0	58	0	332398592	52	5302
2026-01-28 10:25:43.81	180.41	25.71	-40.7	-43.6	14.4	7.00e-07	0	58	0	334495744	52	5200
2026-01-28 10:25:44.82	180.49	25.87	-40.9	-43.9	14.1	2.20e-06	0	58	0	336592896	52	5397
2026-01-28 10:25:45.83	180.57	26.03	-40.9	-44.0	14.1	0.00e+00	0	58	0	338690048	52	5422
2026-01-28 10:25:46.84	180.65	26.19	-41.0	-44.1	14.0	0.00e+00	0	58	0	339738624	52	5502
2026-01-28 10:25:47.85	180.74	26.36	-40.9	-44.0	14.1	2.20e-06	0	58	0	341835776	52	5429
2026-01-28 10:25:48.86	180.82	26.52	-40.9	-44.0	14.1	3.00e-06	0	58	0	343932928	52	5445
2026-01-28 10:25:49.87	180.91	26.69	-40.9	-44.1	14.0	3.80e-06	0	58	0	346030080	52	5467
2026-01-28 10:25:50.88	180.99	26.85	-41.0	-44.1	14.0	3.00e-06	0	58	0	348127232	52	5496
2026-01-28 10:25:51.89	181.08	27.02	-40.9	-44.0	14.1	0.00e+00	0	58	0	349175808	52	5446
2026-01-28 10:25:52.90	181.17	27.19	-40.9	-44.0	14.1	3.00e-06	0	58	0	351272960	52	5456
2026-01-28 10:25:53.91	181.26	27.36	-40.9	-44.0	14.1	7.00e-07	0	58	0	353370112	52	5453
2026-01-28 10:25:54.92	181.35	27.53	-40.9	-43.9	14.2	0.00e+00	0	58	0	355467264	52	5384
2026-01-28 10:25:55.93	181.44	27.70	-40.8	-43.9	14.3	7.00e-07	0	58	0	357564416	52	5350
2026-01-28 10:25:56.94	181.53	27.87	-40.8	-43.7	14.4	0.00e+00	0	58	0	358612992	52	5271
2026-01-28 10:25:57.95	181.62	28.04	-40.7	-43.6	14.5	7.00e-07	0	58	0	360710144	52	5197
2026-01-28 10:25:58.96	181.72	28.22	-40.8	-43.7	14.4	1.50e-06	0	58	0	362807296	52	5265
2026-01-28 10:25:59.97	181.81	28.39	-40.8	-43.8	14.3	0.00e+00	0	58	0	364904448	52	5306
2026-01-28 10:26:00.98	181.91	28.57	-40.7	-43.7	14.4	7.00e-07	0	58	0	367001600	52	5258
2026-01-28 10:26:01.99	182.00	28.75	-40.6	-43.4	14.7	0.00e+00	0	58	0	369098752	52	5093
2026-01-28 10:26:03.00	182.10	28.92	-40.4	-43.1	15.1	0.00e+00	0	58	0	370147328	52	4881
2026-01-28 10:26:04.01	182.20	29.10	-40.4	-43.2	15.0	0.00e+00	0	58	0	372244480	52	4963
2026-01-28 10:26:05.02	182.30	29.28	-40.6	-43.4	14.7	0.00e+00	0	58	0	374341632	52	5057
2026-01-28 10:26:06.03	182.40	29.47	-40.6	-43.5	14.6	7.00e-07	0	58	0	376438784	52	5133
2026-01-28 10:26:07.04	182.50	29.65	-40.5	-43.3	15.0	0.00e+00	0	58	0	378535936	52	4984
2026-01-28 10:26:08.05	182.61	29.83	-40.5	-43.3	14.8	0.00e+00	0	58	0	379584512	52	5015
2026-01-28 10:26:09.06	182.71	30.02	-40.9	-43.9	14.3	2.20e-06	0	58	0	381681664	52	5371
2026-01-28 10:26:10.07	182.82	30.20	-41.2	-44.4	13.8	7.00e-07	0	58	0	383778816	52	5704
2026-01-28 10:26:11.08	182.92	30.39	-41.4	-44.8	13.3	1.22e-05	0	58	0	385875968	53	5626
2026-01-28 10:26:12.09	183.03	30.58	-41.6	-45.2	13.0	2.44e-05	0	58	0	387973120	54	5588
2026-01-28 10:26:13.10	183.14	30.77	-41.7	-45.3	12.8	7.32e-05	0	58	0	389021696	54	5612
2026-01-28 10:26:14.11	183.25	30.96	-42.0	-46.0	12.2	1.46e-04	0	58	0	391118848	54	6066
2026-01-28 10:26:15.12	183.36	31.15	-42.0	-45.9	12.3	1.51e-04	0	59	0	393216000	54	6001
2026-01-28 10:26:16.13	183.47	31.34	-42.3	-46.6	11.6	2.86e-04	0	58	0	395313152	55	6152
2026-01-28 10:26:17.14	183.59	31.53	-42.1	-46.2	12.0	2.38e-04	0	58	0	397410304	55	5862
2026-01-28 10:26:18.15	183.70	31.73	-42.1	-46.0	12.0	1.87e-04	0	58	0	398458880	55	5787
2026-01-28 10:26:19.16	183.82	31.93	-42.0	-45.9	12.2	5.07e-04	0	58	0	400556032	55	5671
2026-01-28 10:26:20.17	183.94	32.12	-42.1	-46.2	11.9	3.32e-04	0	59	0	402653184	55	5878
2026-01-28 10:26:21.18	184.06	32.32	-42.4	-46.7	11.5	3.76e-04	0	58	0	404750336	55	6226
2026-01-28 10:26:22.19	184.18	32.52	-42.2	-46.4	11.8	5.38e-04	0	58	0	406847488	55	6019
2026-01-28 10:26:23.20	184.30	32.72	-42.3	-46.6	11.6	5.41e-04	0	58	0	407896064	55	6165
2026-01-28 10:26:24.21	184.43	32.92	-42.2	-46.2	12.0	1.01e-03	0	59	0	409993216	55	5923
2026-01-28 10:26:25.22	184.55	33.13	-42.2	-46.4	11.8	3.42e-04	0	58	0	412090368	55	5997
2026-01-28 10:26:26.23	184.68	33.33	-42.4	-46.9	11.3	3.87e-04	0	59	0	414187520	55	6402
2026-01-28 10:26:27.24	184.81	33.54	-42.3	-46.6	11.7	5.77e-04	0	59	0	416284672	55	6145
2026-01-28 10:26:28.25	184.94	33.74	-42.4	-46.9	11.3	9.28e-04	0	59	0	417333248	55	6368
2026-01-28 10:26:29.26	185.07	33.95	-42.2	-46.4	11.8	8.51e-04	0	58	0	419430400	55	6001
2026-01-28 10:26:30.27	185.20	34.16	-42.3	-46.6	11.4	8.55e-04	0	59	0	421527552	55	6195
2026-01-28 10:26:31.28	185.34	34.37	-42.1	-46.2	12.0	4.27e-04	0	58	0	423624704	55	5858
2026-01-28 10:26:32.29	185.47	34.59	-41.9	-45.6	12.6	9.53e-05	0	59	0	425721856	55	5518
2026-01-28 10:26:33.30	185.61	34.80	-41.9	-45.6	12.6	1.79e-04	0	59	0	426770432	55	5488
2026-01-28 10:26:34.31	185.75	35.01	-42.0	-45.9	12.3	1.22e-04	0	59	0	428867584	55	5659
2026-01-28 10:26:35.32	185.90	35.23	-42.1	-46.0	12.2	2.53e-04	0	59	0	430964736	55	5774
2026-01-28 10:26:36.33	186.04	35.45	-42.2	-46.2	12.0	1.70e-04	0	59	0	433061888	55	5862
2026-01-28 10:26:37.34	186.19	35.66	-42.5	-47.0	11.2	3.20e-04	0	58	0	435159040	55	6452
2026-01-28 10:26:38.35	186.33	35.88	-42.5	-46.8	11.4	8.41e-04	0	58	0	437256192	55	6326
2026-01-28 10:26:39.36	186.48	36.11	-42.3	-46.4	11.7	1.08e-03	0	59	0	438304768	55	6030
2026-01-28 10:26:40.37	186.63	36.33	-42.5	-47.0	11.1	1.09e-03	0	59	0	440401920	55	6440
2026-01-28 10:26:41.38	186.79	36.55	-42.4	-46.8	11.3	1.00e-03	0	59	0	442499072	55	6297
2026-01-28 10:26:42.39	186.94	36.78	-42.4	-46.7	11.4	8.35e-04	0	59	0	444596224	55	6273
2026-01-28 10:26:43.39	187.10	37.00	-42.2	-46.3	11.9	6.83e-04	0	59	0	446693376	55	5973
2026-01-28 10:26:44.40	187.26	37.23	-42.6	-47.2	10.9	1.48e-03	0	59	0	447741952	55	6643
2026-01-28 10:26:45.41	187.42	37.46	-42.5	-46.9	11.3	1.64e-03	0	58	0	449839104	55	6379
2026-01-28 10:26:46.42	187.59	37.69	-43.0	-47.8	10.5	2.53e-03	0	59	0	451936256	56	6718
2026-01-28 10:26:47.43	187.76	37.92	-42.9	-47.6	10.8	3.74e-03	0	59	0	454033408	56	6559
2026-01-28 10:26:48.44	187.92	38.15	-42.6	-46.9	11.5	9.76e-04	0	59	0	456130560	56	6056
2026-01-28 10:26:49.45	188.10	38.39	-42.7	-47.1	11.3	1.30e-03	0	59	0	457179136	56	6168
2026-01-28 10:26:50.46	188.27	38.62	-42.4	-46.4	12.0	8.83e-04	0	59	0	459276288	56	5677
2026-01-28 10:26:51.47	188.45	38.86	-42.5	-46.6	11.7	4.30e-04	0	59	0	461373440	56	5834
2026-01-28 10:26:52.48	188.63	39.10	-42.7	-47.3	11.2	5.90e-04	0	59	0	463470592	56	6307
2026-01-28 10:26:53.49	188.81	39.34	-43.0	-48.0	10.2	2.77e-03	0	59	0	465567744	56	6862
2026-01-28 10:26:54.50	188.99	39.58	-43.1	-48.2	10.1	6.29e-03	0	59	0	466616320	56	7033
2026-01-28 10:26:55.51	189.18	39.82	-43.2	-48.4	9.9	1.04e-02	0	59	0	468713472	57	6727
2026-01-28 10:26:56.52	189.37	40.06	-43.5	-49.4	8.9	1.92e-02	0	59	0	470810624	57	7627
2026-01-28 10:26:57.53	189.56	40.31	-43.4	-49.1	9.2	1.38e-02	0	59	0	472907776	57	7343
2026-01-28 10:26:58.54	189.76	40.56	-43.4	-49.2	9.1	1.93e-02	0	59	0	475004928	57	7379
2026-01-28 10:26:59.55	189.96	40.80	-43.4	-49.0	9.3	1.05e-02	0	59	0	476053504	57	7211
2026-01-28 10:27:00.56	190.16	41.05	-43.3	-48.7	9.5	1.41e-02	0	59	0	478150656	57	7037
2026-01-28 10:27:01.57	190.36	41.30	-43.2	-48.5	9.8	1.41e-02	0	59	0	480247808	57	6876
2026-01-28 10:27:02.58	190.57	41.55	-43.1	-48.1	10.1	1.36e-02	0	59	0	482344960	57	6570
2026-01-28 10:27:03.59	190.78	41.81	-43.4	-48.9	9.6	1.21e-02	0	59	0	484442112	57	7161
2026-01-28 10:27:04.60	190.99	42.06	-43.3	-48.7	9.6	1.88e-02	0	59	0	485490688	57	7003
2026-01-28 10:27:05.61	191.21	42.32	-43.0	-47.9	10.5	6.91e-03	0	59	0	487587840	57	6397
2026-01-28 10:27:06.62	191.43	42.58	-42.9	-47.7	10.6	3.68e-03	0	59	0	489684992	57	6254
2026-01-28 10:27:07.63	191.66	42.83	-42.4	-46.6	11.8	7.62e-04	0	59	0	491782144	56	5806
2026-01-28 10:27:08.63	191.88	43.09	-42.4	-46.4	12.0	2.48e-04	0	59	0	493879296	56	5688
2026-01-28 10:27:09.64	192.11	43.35	-41.7	-45.2	13.1	1.61e-04	0	59	0	494927872	55	5266
2026-01-28 10:27:10.65	192.35	43.61	-41.8	-45.4	12.9	1.08e-04	0	59	0	497025024	55	5352
2026-01-28 10:27:11.66	192.59	43.88	-41.7	-45.1	13.2	1.75e-05	0	59	0	499122176	55	5208
2026-01-28 10:27:12.67	192.83	44.14	-41.7	-45.1	13.1	1.44e-05	0	59	0	501219328	55	5212
2026-01-28 10:27:13.68	193.08	44.41	-41.7	-45.2	13.1	2.21e-05	0	59	0	503316480	55	5272
2026-01-28 10:27:14.69	193.33	44.68	-41.8	-45.4	12.9	5.18e-05	0	59	0	505413632	55	5398
2026-01-28 10:27:15.70	193.59	44.94	-42.0	-45.8	12.5	5.11e-05	0	59	0	506462208	55	5623
2026-01-28 10:27:16.71	193.85	45.21	-42.1	-46.1	12.3	8.23e-05	0	59	0	508559360	55	5798
2026-01-28 10:27:17.72	194.11	45.48	-42.3	-46.5	11.8	5.75e-04	0	59	0	510656512	55	6089
2026-01-28 10:27:18.73	194.38	45.76	-42.3	-46.5	11.7	5.88e-04	0	59	0	512753664	55	6093
2026-01-28 10:27:19.74	194.65	46.03	-42.1	-46.0	12.3	5.29e-04	0	59	0	514850816	55	5765
2026-01-28 10:27:20.75	194.93	46.30	-42.5	-47.2	11.1	9.60e-04	0	59	0	515899392	55	6580
2026-01-28 10:27:21.76	195.21	46.58	-42.5	-46.9	11.3	1.46e-03	0	59	0	517996544	55	6364
2026-01-28 10:27:22.78	195.50	46.86	-42.6	-46.9	11.5	1.49e-03	0	59	0	520093696	56	6010
2026-01-28 10:27:23.78	195.79	47.13	-42.4	-46.5	12.1	3.48e-04	0	59	0	522190848	56	5742
2026-01-28 10:27:24.79	196.09	47.41	-42.3	-46.2	12.5	2.17e-04	0	59	0	524288000	56	5549
2026-01-28 10:27:25.81	196.40	47.69	-42.1	-45.9	12.3	1.40e-04	0	59	0	525336576	55	5708
2026-01-28 10:27:26.82	196.70	47.98	-41.8	-45.5	12.9	8.01e-05	0	59	0	527433728	55	5412
2026-01-28 10:27:27.83	197.02	48.26	-41.6	-45.0	13.4	1.98e-05	0	59	0	529530880	55	5120
2026-01-28 10:27:28.84	197.34	48.54	-41.7	-45.2	13.1	4.65e-05	0	59	0	531628032	54	5535
2026-01-28 10:27:29.85	197.66	48.82	-41.7	-45.2	13.2	2.28e-05	0	59	0	533725184	54	5549
2026-01-28 10:27:30.86	198.00	49.11	-41.8	-45.5	12.8	4.50e-05	0	59	0	534773760	54	5736
2026-01-28 10:27:31.87	198.33	49.39	-41.4	-44.8	13.5	3.66e-05	0	59	0	536870912	54	5331
2026-01-28 10:27:32.88	198.68	49.68	-41.0	-44.1	14.1	3.80e-06	0	59	0	538968064	53	5187
2026-01-28 10:27:33.89	199.03	49.96	-41.0	-43.9	14.5	0.00e+00	0	59	0	541065216	53	5097
2026-01-28 10:27:34.90	199.39	50.25	-40.6	-43.4	14.9	1.50e-06	0	59	0	543162368	53	4772
2026-01-28 10:27:35.91	199.75	50.54	-40.3	-42.9	15.5	0.00e+00	0	59	0	545259520	52	4775
2026-01-28 10:27:36.92	200.12	50.83	-40.0	-42.4	16.0	0.00e+00	0	59	0	546308096	51	4781
2026-01-28 10:27:37.93	200.50	51.11	-40.2	-42.8	15.6	0.00e+00	0	59	0	548405248	51	4996
2026-01-28 10:27:38.94	200.89	51.40	-41.0	-44.0	14.4	0.00e+00	0	59	0	550502400	52	5434
2026-01-28 10:27:39.95	201.28	51.69	-40.9	-43.8	14.5	0.00e+00	0	59	0	552599552	52	5335
2026-01-28 10:27:40.96	201.68	51.98	-40.7	-43.6	14.8	7.00e-07	0	59	0	554696704	52	5168
2026-01-28 10:27:41.97	202.09	52.27	-40.3	-42.9	15.4	0.00e+00	0	59	0	555745280	52	4802
2026-01-28 10:27:42.98	202.50	52.56	-39.6	-41.7	16.6	0.00e+00	0	59	0	557842432	51	4436
2026-01-28 10:27:43.99	202.93	52.86	-39.1	-41.0	17.3	0.00e+00	0	59	0	559939584	50	4339
2026-01-28 10:27:45.00	203.36	53.15	-38.7	-40.6	17.8	0.00e+00	0	59	0	562036736	49	4349
2026-01-28 10:27:46.01	203.80	53.44	-38.6	-40.4	17.9	0.00e+00	0	59	0	563085312	49	4281
2026-01-28 10:27:47.01	204.25	53.72	-38.8	-40.7	17.6	0.00e+00	0	59	0	565182464	48	4689
2026-01-28 10:27:48.03	204.71	54.02	-38.7	-40.6	17.7	0.00e+00	0	59	0	567279616	48	4649
2026-01-28 10:27:49.04	205.18	54.31	-38.9	-40.9	17.5	0.00e+00	0	59	0	569376768	48	4777
2026-01-28 10:27:50.04	205.65	54.60	-39.2	-41.2	17.1	0.00e+00	0	59	0	571473920	49	4681
2026-01-28 10:27:51.05	206.14	54.89	-39.4	-41.6	16.9	0.00e+00	0	59	0	573571072	49	4873
2026-01-28 10:27:52.07	206.64	55.18	-39.5	-41.7	16.8	0.00e+00	0	59	0	574619648	50	4669
2026-01-28 10:27:53.08	207.15	55.47	-39.8	-42.1	16.3	0.00e+00	0	59	0	576716800	50	4889
2026-01-28 10:27:54.08	207.66	55.75	-39.7	-42.0	16.3	0.00e+00	0	59	0	578813952	50	4864
2026-01-28 10:27:55.09	208.19	56.04	-40.0	-42.4	16.1	0.00e+00	0	59	0	580911104	50	5070
2026-01-28 10:27:56.10	208.73	56.32	-39.7	-41.9	16.5	0.00e+00	0	59	0	583008256	50	4790
2026-01-28 10:27:57.11	209.28	56.61	-39.6	-41.8	16.7	0.00e+00	0	59	0	584056832	50	4743
2026-01-28 10:27:58.12	209.85	56.89	-39.7	-41.9	16.5	0.00e+00	0	59	0	586153984	50	4811
2026-01-28 10:27:59.13	210.42	57.18	-39.6	-41.9	16.6	0.00e+00	0	59	0	588251136	50	4771
2026-01-28 10:28:00.14	211.00	57.46	-39.5	-41.7	16.7	0.00e+00	0	59	0	590348288	50	4703
2026-01-28 10:28:01.15	211.60	57.74	-39.6	-41.7	16.6	0.00e+00	0	59	0	592445440	50	4705
2026-01-28 10:28:02.16	212.21	58.02	-39.8	-42.1	16.4	0.00e+00	0	59	0	593494016	50	4879
2026-01-28 10:28:03.17	212.84	58.29	-40.1	-42.6	15.8	0.00e+00	0	59	0	595591168	50	5214
2026-01-28 10:28:04.18	213.47	58.57	-40.6	-43.4	15.0	0.00e+00	0	59	0	597688320	51	5342
2026-01-28 10:28:05.18	214.11	58.84	-40.5	-43.2	15.2	0.00e+00	0	59	0	599785472	52	4954
2026-01-28 10:28:06.19	214.78	59.11	-40.5	-43.2	15.1	7.00e-07	0	59	0	601882624	52	4950
2026-01-28 10:28:07.20	215.45	59.38	-40.5	-43.2	15.1	0.00e+00	0	59	0	602931200	52	4933
2026-01-28 10:28:08.21	216.14	59.64	-40.7	-43.5	14.8	0.00e+00	0	59	0	605028352	52	5122
2026-01-28 10:28:09.22	216.85	59.91	-41.0	-43.9	14.4	0.00e+00	0	59	0	607125504	52	5370
2026-01-28 10:28:10.23	217.56	60.17	-41.0	-44.1	14.2	1.50e-06	0	59	0	609222656	53	5169
2026-01-28 10:28:11.24	218.30	60.42	-41.2	-44.4	13.9	3.00e-06	0	59	0	611319808	53	5396
2026-01-28 10:28:12.25	219.04	60.68	-40.8	-43.6	14.7	7.00e-07	0	59	0	612368384	53	4910
2026-01-28 10:28:13.26	219.81	60.93	-40.7	-43.5	14.8	7.00e-07	0	59	0	614465536	53	4843
2026-01-28 10:28:14.27	220.58	61.18	-40.8	-43.7	14.6	7.00e-07	0	59	0	616562688	53	4959
2026-01-28 10:28:15.28	221.38	61.42	-40.8	-43.7	14.6	0.00e+00	0	59	0	618659840	53	4978
2026-01-28 10:28:16.29	222.19	61.66	-40.4	-43.1	15.2	0.00e+00	0	59	0	620756992	52	4883
2026-01-28 10:28:17.30	223.01	61.89	-40.4	-43.1	15.2	0.00e+00	0	59	0	621805568	52	4898
2026-01-28 10:28:18.31	223.85	62.13	-41.0	-44.0	14.3	0.00e+00	0	59	0	623902720	52	5422
2026-01-28 10:28:19.32	224.70	62.35	-41.4	-44.7	13.7	2.20e-06	0	59	0	625999872	53	5550
2026-01-28 10:28:20.33	225.57	62.57	-41.1	-44.2	14.1	1.50e-06	0	59	0	628097024	53	5264
2026-01-28 10:28:21.34	226.46	62.79	-40.8	-43.6	14.6	0.00e+00	0	59	0	630194176	53	4903
2026-01-28 10:28:22.35	227.37	63.00	-40.3	-42.9	15.4	0.00e+00	0	59	0	631242752	52	4805
2026-01-28 10:28:23.36	228.28	63.21	-40.2	-42.7	15.5	0.00e+00	0	59	0	633339904	52	4687
2026-01-28 10:28:24.37	229.22	63.41	-40.0	-42.4	15.9	0.00e+00	0	59	0	635437056	51	4760
2026-01-28 10:28:25.38	230.17	63.61	-40.1	-42.6	15.7	0.00e+00	0	59	0	637534208	51	4918
2026-01-28 10:28:26.39	231.13	63.79	-39.7	-42.0	16.3	0.00e+00	0	59	0	639631360	51	4577
2026-01-28 10:28:27.40	232.12	63.98	-39.3	-41.5	16.9	0.00e+00	0	59	0	641728512	50	4552
2026-01-28 10:28:28.41	233.11	64.15	-39.4	-41.6	16.8	0.00e+00	0	59	0	642777088	50	4636
2026-01-28 10:28:29.42	234.12	64.32	-40.4	-43.0	15.5	0.00e+00	0	59	0	644874240	51	5130
2026-01-28 10:28:30.43	235.15	64.49	-41.2	-44.3	14.1	1.50e-06	0	59	0	646971392	52	5628
2026-01-28 10:28:31.44	236.19	64.64	-41.4	-44.8	13.6	6.10e-06	0	59	0	649068544	53	5609
2026-01-28 10:28:32.45	237.25	64.79	-41.1	-44.2	14.1	2.20e-06	0	59	0	651165696	53	5226
2026-01-28 10:28:33.46	238.31	64.93	-40.4	-43.2	15.1	0.00e+00	0	59	0	652214272	52	4938
2026-01-28 10:28:34.47	239.40	65.07	-40.0	-42.7	15.7	0.00e+00	0	59	0	654311424	51	4958
2026-01-28 10:28:35.48	240.49	65.19	-40.5	-43.4	15.0	0.00e+00	0	59	0	656408576	51	5394
2026-01-28 10:28:36.50	241.61	65.31	-41.1	-45.0	13.3	1.50e-06	0	59	0	658505728	53	5756
2026-01-28 10:28:37.51	242.72	65.42	-41.4	-45.3	12.9	2.36e-05	0	59	0	660602880	53	5934
2026-01-28 10:28:38.52	243.85	65.52	-40.9	-43.9	14.5	2.20e-06	0	59	0	661651456	52	5356
2026-01-28 10:28:39.53	244.99	65.62	-41.1	-44.6	13.7	7.00e-07	0	59	0	663748608	53	5513
2026-01-28 10:28:40.54	246.14	65.70	-41.7	-45.2	13.0	1.60e-05	0	59	0	665845760	53	5908
2026-01-28 10:28:41.55	247.29	65.78	-41.3	-44.6	13.6	2.44e-05	0	59	0	667942912	53	5496
2026-01-28 10:28:42.56	248.45	65.84	-40.7	-43.5	14.8	5.30e-06	0	59	0	670040064	52	5159
2026-01-28 10:28:43.57	249.62	65.90	-41.1	-44.2	14.1	3.00e-06	0	59	0	671088640	52	5547
2026-01-28 10:28:44.58	250.80	65.95	-41.0	-43.9	14.3	2.20e-06	0	59	0	673185792	53	5092
2026-01-28 10:28:45.59	251.98	65.99	-40.8	-43.8	14.5	1.50e-06	0	59	0	675282944	52	5317
2026-01-28 10:28:46.60	253.16	66.02	-40.8	-43.7	14.6	1.50e-06	0	59	0	677380096	52	5248
2026-01-28 10:28:47.61	254.35	66.04	-40.7	-43.6	14.6	3.80e-06	0	59	0	679477248	52	5182
2026-01-28 10:28:48.62	255.53	66.05	-40.6	-43.5	14.9	7.00e-07	0	59	0	681574400	52	5124
2026-01-28 10:28:49.63	256.72	66.06	-40.4	-43.1	15.3	0.00e+00	0	59	0	682622976	52	4880
2026-01-28 10:28:50.64	257.91	66.05	-40.8	-43.6	14.7	0.00e+00	0	59	0	684720128	52	5207
2026-01-28 10:28:51.64	259.09	66.03	-41.6	-45.1	13.2	4.50e-06	0	59	0	686817280	53	5792
2026-01-28 10:28:52.65	260.27	66.01	-41.4	-44.9	13.4	1.90e-05	0	59	0	688914432	53	5683
2026-01-28 10:28:53.66	261.45	65.98	-40.0	-42.4	15.8	1.50e-06	0	59	0	691011584	51	4811
2026-01-28 10:28:54.68	262.64	65.93	-40.2	-42.7	15.7	0.00e+00	0	59	0	692060160	50	5277
2026-01-28 10:28:55.69	263.81	65.88	-40.8	-43.8	14.5	7.00e-07	0	59	0	694157312	52	5311
2026-01-28 10:28:56.70	264.98	65.82	-40.9	-44.0	14.4	7.00e-07	0	59	0	696254464	52	5425
2026-01-28 10:28:57.71	266.14	65.75	-40.4	-43.1	15.3	0.00e+00	0	59	0	698351616	51	5180
2026-01-28 10:28:58.72	267.29	65.67	-40.4	-43.0	15.4	1.50e-06	0	59	0	700448768	51	5121
2026-01-28 10:28:59.73	268.43	65.58	-40.3	-43.0	15.3	0.00e+00	0	59	0	701497344	51	5145
2026-01-28 10:29:00.74	269.57	65.49	-39.6	-41.9	16.4	7.00e-07	0	59	0	703594496	51	4536
2026-01-28 10:29:01.75	270.69	65.38	-39.1	-41.2	17.2	0.00e+00	0	59	0	705691648	50	4392
2026-01-28 10:29:02.76	271.80	65.27	-39.0	-41.0	17.3	0.00e+00	0	59	0	707788800	49	4580
2026-01-28 10:29:03.76	272.89	65.15	-39.9	-42.2	16.2	0.00e+00	0	59	0	709885952	50	4951
2026-01-28 10:29:04.77	273.98	65.02	-39.8	-42.7	15.7	0.00e+00	0	59	0	710934528	51	4938
2026-01-28 10:29:05.78	275.06	64.88	-40.0	-42.4	15.9	0.00e+00	0	59	0	713031680	51	4776
2026-01-28 10:29:06.79	276.12	64.74	-40.2	-42.8	15.6	0.00e+00	0	59	0	715128832	51	4991
2026-01-28 10:29:07.80	277.17	64.59	-40.4	-43.2	15.2	0.00e+00	0	59	0	717225984	51	5237
2026-01-28 10:29:08.81	278.20	64.43	-40.3	-42.9	15.5	0.00e+00	0	59	0	719323136	52	4793
2026-01-28 10:29:09.82	279.22	64.27	-40.0	-42.4	16.1	0.00e+00	0	59	0	720371712	51	4779
2026-01-28 10:29:10.83	280.23	64.09	-39.7	-42.0	16.4	0.00e+00	0	59	0	722468864	51	4579
2026-01-28 10:29:11.84	281.22	63.92	-39.1	-41.2	17.1	0.00e+00	0	59	0	724566016	50	4406
2026-01-28 10:29:12.85	282.19	63.73	-38.9	-40.9	17.5	0.00e+00	0	59	0	726663168	49	4514
2026-01-28 10:29:13.86	283.15	63.54	-39.7	-41.9	16.5	0.00e+00	0	59	0	728760320	49	5084
2026-01-28 10:29:14.87	284.09	63.34	-40.6	-43.3	15.1	0.00e+00	0	59	0	729808896	51	5292
2026-01-28 10:29:15.88	285.02	63.14	-40.5	-43.3	15.0	0.00e+00	0	59	0	731906048	52	5017
2026-01-28 10:29:16.89	285.93	62.93	-40.3	-42.9	15.4	0.00e+00	0	59	0	734003200	52	4767
2026-01-28 10:29:17.90	286.83	62.72	-40.3	-42.9	15.4	0.00e+00	0	59	0	736100352	52	4773
2026-01-28 10:29:18.91	287.71	62.50	-40.5	-43.1	15.2	0.00e+00	0	59	0	738197504	52	4925
2026-01-28 10:29:19.92	288.57	62.28	-40.1	-42.5	15.9	0.00e+00	0	59	0	739246080	51	4853
2026-01-28 10:29:20.93	289.42	62.05	-39.7	-41.9	16.4	0.00e+00	0	59	0	741343232	51	4543
2026-01-28 10:29:21.94	290.26	61.82	-39.9	-42.3	16.1	0.00e+00	0	59	0	743440384	51	4710
2026-01-28 10:29:22.95	291.07	61.58	-39.6	-41.8	16.5	0.00e+00	0	59	0	745537536	51	4480
2026-01-28 10:29:23.96	291.87	61.34	-38.7	-40.6	17.7	0.00e+00	0	59	0	747634688	49	4376
2026-01-28 10:29:24.96	292.65	61.10	-38.2	-40.0	18.3	0.00e+00	0	59	0	749731840	48	4292
2026-01-28 10:29:25.97	293.42	60.85	-39.1	-41.1	17.3	0.00e+00	0	59	0	750780416	48	4891
2026-01-28 10:29:26.98	294.18	60.60	-39.3	-41.5	16.9	0.00e+00	0	59	0	752877568	49	4815
2026-01-28 10:29:27.99	294.92	60.35	-39.0	-41.0	17.3	0.00e+00	0	59	0	754974720	49	4581
2026-01-28 10:29:29.00	295.65	60.09	-38.9	-40.9	17.5	0.00e+00	0	59	0	757071872	49	4504
2026-01-28 10:29:30.01	296.36	59.83	-38.6	-40.4	17.9	0.00e+00	0	59	0	759169024	49	4290
2026-01-28 10:29:31.02	297.06	59.57	-38.4	-40.2	18.1	0.00e+00	0	60	0	760217600	48	4415
2026-01-28 10:29:32.03	297.74	59.30	-38.3	-40.1	18.2	0.00e+00	0	59	0	762314752	48	4342
2026-01-28 10:29:33.04	298.41	59.03	-38.9	-40.9	17.4	0.00e+00	0	59	0	764411904	48	4801
2026-01-28 10:29:34.05	299.07	58.76	-39.1	-41.2	17.2	0.00e+00	0	59	0	766509056	49	4670
2026-01-28 10:29:35.06	299.71	58.49	-38.7	-40.7	17.7	0.00e+00	0	59	0	767557632	49	4407
2026-01-28 10:29:36.07	300.34	58.22	-38.3	-40.1	18.2	0.00e+00	0	59	0	769654784	48	4354
2026-01-28 10:29:37.08	300.96	57.94	-38.5	-40.5	17.8	0.00e+00	0	60	0	771751936	48	4576
2026-01-28 10:29:38.08	301.56	57.66	-39.1	-41.5	16.8	0.00e+00	0	59	0	773849088	48	5114
2026-01-28 10:29:39.09	302.15	57.38	-39.3	-41.9	16.2	0.00e+00	0	59	0	775946240	49	5091
2026-01-28 10:29:40.10	302.73	57.10	-39.2	-41.5	16.8	0.00e+00	0	59	0	778043392	49	4842
2026-01-28 10:29:41.11	303.30	56.82	-39.1	-41.6	16.4	0.00e+00	0	59	0	779091968	49	4909
2026-01-28 10:29:42.12	303.86	56.54	-38.9	-42.2	15.4	0.00e+00	0	59	0	781189120	49	5261
2026-01-28 10:29:43.13	304.41	56.25	-38.9	-42.6	14.9	0.00e+00	0	59	0	783286272	49	5497
2026-01-28 10:29:44.14	304.94	55.97	-38.9	-41.7	16.2	0.00e+00	0	59	0	785383424	49	4953
2026-01-28 10:29:45.15	305.46	55.68	-39.1	-41.5	16.6	0.00e+00	0	59	0	787480576	49	4856
2026-01-28 10:29:46.16	305.98	55.39	-39.0	-41.6	16.5	0.00e+00	0	59	0	788529152	49	4888
2026-01-28 10:29:47.17	306.48	55.11	-38.6	-41.5	16.3	0.00e+00	0	59	0	790626304	49	4842
2026-01-28 10:29:48.18	306.98	54.82	-38.4	-41.0	16.8	0.00e+00	0	59	0	792723456	48	4846
2026-01-28 10:29:49.19	307.46	54.53	-39.1	-41.9	16.0	0.00e+00	0	59	0	794820608	48	5382
2026-01-28 10:29:50.20	307.93	54.24	-40.3	-43.3	14.9	0.00e+00	0	59	0	796917760	51	5314
2026-01-28 10:29:51.21	308.40	53.95	-40.6	-43.6	14.6	0.00e+00	0	59	0	797966336	52	5208
2026-01-28 10:29:52.22	308.85	53.66	-39.8	-42.2	16.2	0.00e+00	0	59	0	800063488	51	4660
2026-01-28 10:29:53.23	309.30	53.37	-39.5	-41.7	16.6	0.00e+00	0	60	0	802160640	50	4696
2026-01-28 10:29:54.24	309.74	53.08	-39.9	-42.3	16.1	0.00e+00	0	59	0	804257792	50	5004
2026-01-28 10:29:55.25	310.17	52.79	-40.5	-43.2	15.2	0.00e+00	0	60	0	806354944	51	5225
2026-01-28 10:29:56.26	310.59	52.50	-39.8	-42.1	16.2	0.00e+00	0	59	0	807403520	51	4640
2026-01-28 10:29:57.26	311.00	52.22	-39.9	-42.2	16.1	0.00e+00	0	59	0	809500672	51	4676
2026-01-28 10:29:58.27	311.40	51.93	-40.2	-42.7	15.8	0.00e+00	0	60	0	811597824	51	4937
2026-01-28 10:29:59.28	311.80	51.64	-40.6	-43.3	15.1	0.00e+00	0	60	0	813694976	51	5304
2026-01-28 10:30:00.29	312.19	51.35	-40.0	-42.3	16.1	0.00e+00	0	59	0	815792128	51	4737
2026-01-28 10:30:01.30	312.57	51.06	-39.7	-42.0	16.4	0.00e+00	0	59	0	816840704	51	4551
2026-01-28 10:30:02.31	312.95	50.78	-39.9	-42.2	16.2	0.00e+00	0	59	0	818937856	51	4687
2026-01-28 10:30:03.32	313.31	50.49	-40.3	-42.8	15.6	0.00e+00	0	59	0	821035008	51	4997
2026-01-28 10:30:04.33	313.68	50.20	-40.5	-43.2	15.2	0.00e+00	0	59	0	823132160	51	5253
2026-01-28 10:30:05.34	314.03	49.92	-40.8	-43.7	14.6	7.00e-07	0	59	0	825229312	52	5274
2026-01-28 10:30:06.35	314.38	49.63	-40.8	-43.7	14.7	0.00e+00	0	59	0	826277888	52	5255
2026-01-28 10:30:07.36	314.72	49.35	-41.0	-44.0	14.3	1.50e-06	0	59	0	828375040	52	5417
2026-01-28 10:30:08.37	315.06	49.07	-41.1	-44.3	14.0	3.80e-06	0	59	0	830472192	53	5306
2026-01-28 10:30:09.38	315.39	48.78	-40.8	-43.6	14.7	2.20e-06	0	59	0	832569344	53	4909
2026-01-28 10:30:10.38	315.71	48.50	-40.6	-43.4	14.9	0.00e+00	0	59	0	834666496	53	4787
2026-01-28 10:30:11.39	316.02	48.22	-40.6	-43.4	14.9	7.00e-07	0	59	0	835715072	52	5076
2026-01-28 10:30:12.40	316.34	47.94	-40.7	-43.5	14.8	0.00e+00	0	59	0	837812224	52	5117
2026-01-28 10:30:13.41	316.64	47.66	-40.5	-43.2	15.1	0.00e+00	0	59	0	839909376	52	4978
2026-01-28 10:30:14.42	316.94	47.39	-40.6	-43.4	15.0	0.00e+00	0	59	0	842006528	52	5051
2026-01-28 10:30:15.43	317.24	47.11	-41.2	-44.3	14.0	2.20e-06	0	59	0	844103680	53	5326
2026-01-28 10:30:16.44	317.53	46.83	-42.1	-46.0	12.3	1.46e-04	0	59	0	846200832	54	6076
2026-01-28 10:30:17.45	317.82	46.56	-42.9	-47.7	10.7	1.23e-03	0	59	0	847249408	56	6588
2026-01-28 10:30:18.46	318.10	46.29	-43.0	-47.8	10.6	2.62e-03	0	59	0	849346560	56	6653
2026-01-28 10:30:19.47	318.37	46.01	-42.5	-46.6	11.9	9.64e-04	0	59	0	851443712	56	5794
2026-01-28 10:30:20.48	318.65	45.74	-42.0	-45.5	12.9	1.28e-04	0	59	0	853540864	56	5157
2026-01-28 10:30:21.49	318.91	45.47	-41.6	-45.0	13.3	3.96e-05	0	59	0	855638016	55	5157
2026-01-28 10:30:22.50	319.18	45.20	-41.4	-44.6	13.8	2.13e-05	0	60	0	856686592	54	5184
2026-01-28 10:30:23.51	319.43	44.93	-41.7	-45.3	13.1	3.12e-05	0	59	0	858783744	54	5608
2026-01-28 10:30:24.52	319.69	44.67	-41.7	-45.3	13.0	1.44e-05	0	59	0	860880896	54	5608
2026-01-28 10:30:25.53	319.94	44.40	-42.1	-45.9	12.4	1.07e-04	0	59	0	862978048	54	6054
2026-01-28 10:30:26.54	320.18	44.14	-42.4	-46.5	11.7	3.73e-04	0	59	0	865075200	55	6125
2026-01-28 10:30:27.55	320.43	43.87	-42.3	-46.5	11.7	6.69e-04	0	59	0	866123776	55	6072
2026-01-28 10:30:28.57	320.67	43.61	-41.8	-45.3	12.9	1.05e-04	0	60	0	868220928	55	5337
2026-01-28 10:30:29.57	320.90	43.35	-41.3	-44.5	13.8	3.73e-05	0	60	0	870318080	54	5104
2026-01-28 10:30:30.58	321.13	43.09	-41.3	-44.5	13.9	7.00e-07	0	59	0	872415232	54	5120
2026-01-28 10:30:31.59	321.35	42.83	-41.4	-44.7	13.5	3.80e-06	0	60	0	874512384	54	5230
2026-01-28 10:30:32.60	321.58	42.58	-42.0	-45.8	12.5	5.26e-05	0	60	0	875560960	54	5930
2026-01-28 10:30:33.61	321.80	42.32	-42.0	-45.7	12.5	1.17e-04	0	59	0	877658112	54	5921
2026-01-28 10:30:34.62	322.01	42.07	-41.4	-44.7	13.6	9.99e-05	0	60	0	879755264	54	5256
2026-01-28 10:30:35.63	322.23	41.81	-40.2	-42.8	15.5	0.00e+00	0	60	0	881852416	52	4729
2026-01-28 10:30:36.64	322.44	41.56	-39.8	-42.1	16.3	0.00e+00	0	59	0	883949568	51	4606
2026-01-28 10:30:37.65	322.64	41.31	-39.3	-41.4	16.9	0.00e+00	0	59	0	884998144	50	4513
2026-01-28 10:30:38.66	322.85	41.06	-39.3	-41.4	17.0	0.00e+00	0	60	0	887095296	50	4500
2026-01-28 10:30:39.67	323.05	40.82	-40.0	-42.3	16.0	0.00e+00	0	59	0	889192448	50	5013
2026-01-28 10:30:40.68	323.25	40.57	-40.9	-43.8	14.4	0.00e+00	0	59	0	891289600	52	5316
2026-01-28 10:30:41.69	323.44	40.33	-41.9	-45.6	12.7	3.66e-05	0	59	0	893386752	54	5799
2026-01-28 10:30:42.71	323.63	40.08	-42.4	-46.6	11.7	9.68e-04	0	59	0	894435328	55	6195
2026-01-28 10:30:43.72	323.82	39.84	-42.3	-46.5	11.7	4.61e-04	0	59	0	896532480	55	6116
2026-01-28 10:30:44.73	324.01	39.60	-42.1	-46.1	12.2	4.37e-04	0	59	0	898629632	55	5814
2026-01-28 10:30:45.74	324.19	39.36	-41.1	-44.1	14.1	7.60e-06	0	59	0	900726784	54	4919
2026-01-28 10:30:46.75	324.37	39.12	-40.3	-42.9	15.3	0.00e+00	0	60	0	902823936	52	4785
2026-01-28 10:30:47.76	324.55	38.88	-39.5	-41.7	16.7	0.00e+00	0	60	0	904921088	51	4412
2026-01-28 10:30:48.77	324.73	38.65	-39.2	-41.3	16.9	0.00e+00	0	60	0	905969664	50	4477
2026-01-28 10:30:49.78	324.90	38.41	-39.7	-42.0	16.4	0.00e+00	0	59	0	908066816	50	4867
2026-01-28 10:30:50.79	325.07	38.18	-40.7	-43.5	14.8	0.00e+00	0	59	0	910163968	52	5129
2026-01-28 10:30:51.80	325.24	37.95	-41.7	-45.3	12.9	2.13e-05	0	59	0	912261120	53	5980
2026-01-28 10:30:52.81	325.41	37.72	-42.4	-46.7	11.3	3.83e-04	0	59	0	914358272	55	6272
2026-01-28 10:30:53.82	325.57	37.49	-42.8	-47.6	10.8	2.24e-03	0	59	0	915406848	56	6516
2026-01-28 10:30:54.83	325.73	37.26	-42.1	-45.9	12.5	1.90e-04	0	60	0	917504000	56	5363
2026-01-28 10:30:55.84	325.89	37.04	-41.1	-44.2	14.2	4.50e-06	0	59	0	919601152	54	4930
2026-01-28 10:30:56.85	326.05	36.81	-40.4	-43.1	15.1	0.00e+00	0	60	0	921698304	52	4910
2026-01-28 10:30:57.86	326.21	36.59	-40.1	-42.6	15.6	0.00e+00	0	60	0	923795456	52	4638
2026-01-28 10:30:58.87	326.36	36.37	-40.4	-43.1	15.1	0.00e+00	0	59	0	924844032	52	4904
2026-01-28 10:30:59.88	326.51	36.14	-41.0	-44.0	14.3	0.00e+00	0	60	0	926941184	52	5428
2026-01-28 10:31:00.89	326.66	35.93	-41.6	-45.0	13.2	4.50e-06	0	60	0	929038336	53	5762
2026-01-28 10:31:01.90	326.81	35.71	-42.0	-45.8	12.4	7.93e-05	0	59	0	931135488	54	5953
2026-01-28 10:31:02.91	326.95	35.49	-42.3	-46.4	11.7	6.40e-04	0	59	0	933232640	55	6059
2026-01-28 10:31:03.92	327.10	35.27	-42.1	-46.2	12.1	7.94e-04	0	59	0	934281216	55	5864
2026-01-28 10:31:04.93	327.24	35.06	-42.0	-45.9	12.3	1.52e-04	0	59	0	936378368	55	5707
2026-01-28 10:31:05.94	327.38	34.85	-41.8	-45.4	12.8	1.37e-04	0	60	0	938475520	55	5369
2026-01-28 10:31:06.95	327.52	34.64	-41.2	-44.3	13.8	1.52e-05	0	59	0	940572672	54	5023
2026-01-28 10:31:07.96	327.65	34.42	-40.9	-43.9	14.3	1.50e-06	0	60	0	942669824	53	5080
2026-01-28 10:31:08.97	327.79	34.22	-40.7	-43.6	14.6	7.00e-07	0	59	0	943718400	53	4875
2026-01-28 10:31:09.99	327.92	34.01	-40.8	-43.6	14.6	7.00e-07	0	60	0	945815552	53	4911
2026-01-28 10:31:10.99	328.05	33.80	-40.8	-43.6	14.5	0.00e+00	0	60	0	947912704	53	4926
2026-01-28 10:31:12.00	328.18	33.59	-40.9	-43.9	14.3	3.00e-06	0	59	0	950009856	53	5067
2026-01-28 10:31:13.01	328.31	33.39	-41.0	-44.0	14.2	2.20e-06	0	59	0	952107008	53	5138
2026-01-28 10:31:14.02	328.44	33.19	-41.1	-44.1	14.1	7.00e-07	0	59	0	954204160	53	5211
2026-01-28 10:31:15.03	328.56	32.99	-41.3	-44.6	13.6	8.30e-06	0	59	0	955252736	53	5498
2026-01-28 10:31:16.04	328.69	32.78	-41.0	-44.0	14.2	3.80e-06	0	60	0	957349888	53	5138
2026-01-28 10:31:17.05	328.81	32.58	-41.0	-44.1	14.1	7.00e-07	0	60	0	959447040	53	5181
2026-01-28 10:31:18.06	328.93	32.39	-41.0	-44.0	14.1	1.50e-06	0	59	0	961544192	53	5122
2026-01-28 10:31:19.07	329.05	32.19	-40.9	-43.9	14.3	0.00e+00	0	60	0	963641344	53	5059
2026-01-28 10:31:20.08	329.17	31.99	-41.1	-44.2	14.0	2.20e-06	0	59	0	964689920	53	5260
2026-01-28 10:31:21.09	329.28	31.80	-41.0	-44.1	14.1	2.20e-06	0	60	0	966787072	53	5201
2026-01-28 10:31:22.10	329.40	31.60	-41.5	-44.9	13.3	7.60e-06	0	60	0	968884224	53	5679
2026-01-28 10:31:23.11	329.51	31.41	-41.6	-45.2	13.0	1.14e-05	0	59	0	970981376	53	5875
2026-01-28 10:31:24.12	329.63	31.22	-42.0	-45.9	12.2	1.51e-04	0	59	0	973078528	54	6040
2026-01-28 10:31:25.13	329.74	31.03	-42.0	-46.0	12.1	3.50e-04	0	59	0	974127104	54	6106
2026-01-28 10:31:26.14	329.85	30.84	-42.2	-46.4	11.7	3.48e-04	0	59	0	976224256	54	6379
2026-01-28 10:31:27.15	329.96	30.65	-42.4	-46.9	11.2	1.10e-03	0	60	0	978321408	55	6385
2026-01-28 10:31:28.16	330.07	30.47	-42.1	-46.1	12.0	4.55e-04	0	60	0	980418560	55	5809
2026-01-28 10:31:29.17	330.17	30.28	-42.1	-46.2	12.0	1.85e-04	0	59	0	982515712	55	5856
2026-01-28 10:31:30.18	330.28	30.10	-42.0	-45.9	12.1	2.43e-04	0	60	0	983564288	55	5717
2026-01-28 10:31:31.19	330.38	29.91	-41.5	-45.0	13.1	6.33e-05	0	60	0	985661440	55	5137
2026-01-28 10:31:32.20	330.48	29.73	-41.6	-45.2	12.8	5.49e-05	0	60	0	987758592	55	5267
2026-01-28 10:31:33.21	330.59	29.55	-41.5	-45.0	13.1	5.03e-05	0	60	0	989855744	55	5121
2026-01-28 10:31:34.22	330.69	29.37	-41.6	-45.1	13.1	1.29e-05	0	59	0	991952896	54	5467
2026-01-28 10:31:35.23	330.79	29.19	-41.2	-44.5	13.7	6.80e-06	0	60	0	993001472	54	5104
2026-01-28 10:31:36.24	330.89	29.01	-41.4	-44.7	13.4	1.52e-05	0	60	0	995098624	54	5267
2026-01-28 10:31:37.25	330.98	28.83	-41.5	-44.9	13.2	1.60e-05	0	60	0	997195776	54	5373
2026-01-28 10:31:38.26	331.08	28.66	-41.6	-45.1	12.9	1.90e-05	0	60	0	999292928	54	5510
2026-01-28 10:31:39.27	331.18	28.48	-41.7	-45.4	12.7	4.88e-05	0	60	0	1001390080	54	5668
2026-01-28 10:31:40.28	331.27	28.31	-41.5	-44.9	13.2	2.21e-05	0	59	0	1002438656	54	5400
2026-01-28 10:31:41.29	331.37	28.14	-41.7	-45.4	12.7	5.41e-05	0	60	0	1004535808	54	5665
2026-01-28 10:31:42.30	331.46	27.96	-41.4	-44.9	13.2	4.88e-05	0	60	0	1006632960	54	5355
2026-01-28 10:31:43.30	331.55	27.79	-41.3	-44.5	13.5	1.14e-05	0	60	0	1008730112	54	5149
2026-01-28 10:31:44.31	331.64	27.62	-41.3	-44.7	13.4	9.10e-06	0	59	0	1010827264	54	5249
2026-01-28 10:31:45.32	331.73	27.46	-40.9	-44.0	14.1	1.50e-06	0	60	0	1011875840	53	5123
2026-01-28 10:31:46.33	331.82	27.29	-40.9	-43.9	14.2	3.00e-06	0	59	0	1013972992	53	5070
2026-01-28 10:31:47.34	331.91	27.12	-40.8	-43.7	14.3	3.00e-06	0	60	0	1016070144	53	4978
2026-01-28 10:31:48.35	332.00	26.95	-40.7	-43.6	14.4	0.00e+00	0	60	0	1018167296	53	4918
2026-01-28 10:31:49.36	332.08	26.79	-40.6	-43.4	14.7	7.00e-07	0	60	0	1020264448	53	4785
2026-01-28 10:31:50.37	332.17	26.62	-40.5	-43.3	14.8	0.00e+00	0	59	0	1022361600	52	4991
2026-01-28 10:31:51.38	332.25	26.46	-40.5	-43.3	14.8	0.00e+00	0	60	0	1023410176	52	5000
2026-01-28 10:31:52.39	332.34	26.30	-40.5	-43.4	14.7	0.00e+00	0	60	0	1025507328	52	5048
2026-01-28 10:31:53.40	332.42	26.14	-40.6	-43.4	14.7	0.00e+00	0	60	0	1027604480	52	5098
2026-01-28 10:31:54.41	332.50	25.98	-40.5	-43.2	14.9	0.00e+00	0	60	0	1029701632	52	4977
2026-01-28 10:31:55.42	332.58	25.82	-40.6	-43.5	14.4	7.00e-07	0	60	0	1031798784	52	5114
2026-01-28 10:31:56.43	332.66	25.66	-40.7	-43.6	14.5	0.00e+00	0	59	0	1032847360	52	5185
2026-01-28 10:31:57.44	332.74	25.50	-40.7	-43.6	14.5	0.00e+00	0	60	0	1034944512	52	5173
2026-01-28 10:31:58.45	332.82	25.34	-40.7	-43.7	14.4	7.00e-07	0	60	0	1037041664	52	5239
2026-01-28 10:31:59.46	332.90	25.19	-40.7	-43.6	14.4	0.00e+00	0	60	0	1039138816	52	5209
2026-01-28 10:32:00.47	332.98	25.03	-40.6	-43.5	14.6	7.00e-07	0	59	0	1041235968	52	5124
2026-01-28 10:32:01.48	333.06	24.88	-40.6	-43.5	14.5	1.50e-06	0	60	0	1042284544	52	5156
2026-01-28 10:32:02.49	333.13	24.72	-40.7	-43.7	14.4	0.00e+00	0	60	0	1044381696	52	5234
2026-01-28 10:32:03.50	333.21	24.57	-40.8	-43.9	14.2	0.00e+00	0	60	0	1046478848	52	5351
2026-01-28 10:32:04.51	333.28	24.42	-40.9	-44.0	14.0	2.20e-06	0	60	0	1048576000	52	5455
2026-01-28 10:32:05.52	333.36	24.27	-40.9	-44.0	14.0	1.50e-06	0	60	0	1050673152	52	5450
2026-01-28 10:32:06.52	333.43	24.12	-41.1	-44.3	13.7	5.30e-06	0	60	0	1051721728	52	5651
2026-01-28 10:32:07.53	333.50	23.97	-41.1	-44.3	13.8	8.30e-06	0	60	0	1053818880	52	5651
2026-01-28 10:32:08.54	333.58	23.82	-41.0	-44.2	13.9	3.00e-06	0	60	0	1055916032	52	5529
2026-01-28 10:32:09.55	333.65	23.67	-41.0	-44.2	13.8	2.20e-06	0	60	0	1058013184	52	5547
2026-01-28 10:32:10.56	333.72	23.53	-40.7	-43.7	14.3	1.50e-06	0	60	0	1060110336	52	5269
2026-01-28 10:32:11.57	333.79	23.38	-40.4	-43.2	14.8	0.00e+00	0	60	0	1061158912	52	4950
2026-01-28 10:32:12.58	333.86	23.23	-40.1	-42.8	15.2	0.00e+00	0	60	0	1063256064	52	4721
2026-01-28 10:32:13.59	333.93	23.09	-39.9	-42.3	15.8	0.00e+00	0	60	0	1065353216	51	4740
2026-01-28 10:32:14.60	334.00	22.95	-39.6	-41.9	16.2	0.00e+00	0	60	0	1067450368	51	4527
2026-01-28 10:32:15.62	334.07	22.80	-39.5	-41.8	16.2	0.00e+00	0	60	0	1069547520	50	4736
2026-01-28 10:32:16.63	334.13	22.66	-39.2	-41.4	16.6	0.00e+00	0	60	0	1070596096	50	4527
2026-01-28 10:32:17.64	334.20	22.52	-39.0	-41.1	16.9	0.00e+00	0	60	0	1072693248	50	4389
2026-01-28 10:32:18.65	334.27	22.38	-38.9	-41.0	17.0	0.00e+00	0	60	0	1074790400	49	4556
2026-01-28 10:32:19.66	334.33	22.24	-38.8	-40.8	17.1	0.00e+00	0	60	0	1076887552	49	4492
2026-01-28 10:32:20.67	334.40	22.10	-38.9	-41.0	16.9	0.00e+00	0	60	0	1078984704	49	4592
2026-01-28 10:32:21.68	334.46	21.96	-39.1	-41.2	16.7	0.00e+00	0	60	0	1080033280	49	4703
2026-01-28 10:32:22.69	334.53	21.82	-39.3	-41.5	16.5	0.00e+00	0	60	0	1082130432	49	4843
2026-01-28 10:32:23.70	334.59	21.68	-39.4	-41.6	16.3	0.00e+00	0	59	0	1084227584	49	4926
2026-01-28 10:32:24.71	334.65	21.55	-39.5	-41.9	16.1	0.00e+00	0	59	0	1086324736	49	5056
2026-01-28 10:32:25.71	334.72	21.41	-39.6	-42.0	16.0	0.00e+00	0	60	0	1088421888	49	5107
2026-01-28 10:32:26.73	334.78	21.28	-39.7	-42.2	15.8	0.00e+00	0	60	0	1090519040	50	4943
2026-01-28 10:32:27.74	334.84	21.14	-39.8	-42.3	15.7	0.00e+00	0	60	0	1091567616	50	5014
2026-01-28 10:32:28.75	334.90	21.01	-39.8	-42.2	15.7	0.00e+00	0	60	0	1093664768	50	4968
2026-01-28 10:32:29.76	334.96	20.88	-39.8	-42.3	15.7	0.00e+00	0	59	0	1095761920	50	4987
2026-01-28 10:32:30.77	335.02	20.74	-39.8	-42.3	15.7	0.00e+00	0	59	0	1097859072	50	4986
2026-01-28 10:32:31.78	335.08	20.61	-39.7	-42.1	15.8	0.00e+00	0	60	0	1099956224	50	4914
2026-01-28 10:32:32.79	335.14	20.48	-39.5	-41.9	15.9	0.00e+00	0	59	0	1101004800	50	4811
2026-01-28 10:32:33.80	335.20	20.35	-39.4	-41.8	16.1	0.00e+00	0	60	0	1103101952	50	4712
2026-01-28 10:32:34.81	335.26	20.22	-39.5	-41.9	16.0	0.00e+00	0	60	0	1105199104	50	4775
2026-01-28 10:32:35.82	335.32	20.09	-39.4	-41.7	16.1	0.00e+00	0	59	0	1107296256	50	4683
2026-01-28 10:32:36.83	335.37	19.96	-39.4	-41.8	16.0	0.00e+00	0	60	0	1109393408	50	4725
2026-01-28 10:32:37.84	335.43	19.84	-39.4	-41.8	16.0	0.00e+00	0	59	0	1110441984	50	4719
2026-01-28 10:32:38.85	335.49	19.71	-39.4	-41.8	16.0	0.00e+00	0	60	0	1112539136	50	4720
2026-01-28 10:32:39.86	335.54	19.58	-39.5	-41.9	15.9	0.00e+00	0	60	0	1114636288	50	4774
2026-01-28 10:32:40.87	335.60	19.46	-39.6	-42.0	15.8	0.00e+00	0	60	0	1116733440	50	4861
2026-01-28 10:32:41.88	335.65	19.33	-39.6	-42.0	15.7	0.00e+00	0	59	0	1118830592	50	4862
2026-01-28 10:32:42.89	335.71	19.21	-39.6	-42.0	15.8	0.00e+00	0	60	0	1119879168	50	4835
2026-01-28 10:32:43.90	335.76	19.08	-39.8	-42.3	15.5	0.00e+00	0	60	0	1121976320	50	5009
2026-01-28 10:32:44.91	335.82	18.96	-39.7	-42.3	15.5	0.00e+00	0	59	0	1124073472	50	4996
2026-01-28 10:32:45.92	335.87	18.84	-39.8	-42.4	15.5	0.00e+00	0	60	0	1126170624	50	5044
2026-01-28 10:32:46.93	335.92	18.71	-39.9	-42.5	15.3	0.00e+00	0	60	0	1128267776	50	5157
2026-01-28 10:32:47.94	335.98	18.59	-40.0	-42.7	15.1	7.00e-07	0	59	0	1129316352	50	5224
2026-01-28 10:32:48.94	336.03	18.47	-40.1	-42.8	14.9	0.00e+00	0	60	0	1131413504	50	5320
2026-01-28 10:32:49.95	336.08	18.35	-40.2	-43.0	14.7	0.00e+00	0	60	0	1133510656	50	5460
2026-01-28 10:32:50.96	336.13	18.23	-40.2	-43.0	14.7	0.00e+00	0	60	0	1135607808	51	5150
2026-01-28 10:32:51.97	336.18	18.11	-40.3	-43.2	14.5	0.00e+00	0	60	0	1137704960	51	5252
2026-01-28 10:32:52.98	336.23	17.99	-40.3	-43.3	14.4	7.00e-07	0	59	0	1138753536	51	5300
2026-01-28 10:32:53.99	336.28	17.88	-40.5	-43.5	14.2	0.00e+00	0	60	0	1140850688	51	5443
2026-01-28 10:32:55.00	336.33	17.76	-40.5	-43.6	14.0	3.00e-06	0	60	0	1142947840	51	5519
2026-01-28 10:32:56.01	336.38	17.64	-40.6	-43.7	13.9	7.00e-07	0	60	0	1145044992	51	5582
2026-01-28 10:32:57.02	336.43	17.52	-40.6	-43.8	13.8	6.80e-06	0	59	0	1147142144	52	5290
2026-01-28 10:32:58.03	336.48	17.41	-40.6	-43.8	13.8	5.30e-06	0	60	0	1148190720	52	5302
2026-01-28 10:32:59.04	336.53	17.29	-40.6	-43.8	13.8	4.50e-06	0	60	0	1150287872	52	5325
2026-01-28 10:33:00.05	336.58	17.18	-40.6	-43.8	13.7	4.50e-06	0	60	0	1152385024	52	5340
2026-01-28 10:33:01.06	336.63	17.06	-40.5	-43.6	13.9	2.20e-06	0	60	0	1154482176	52	5193
2026-01-28 10:33:02.06	336.67	16.95	-40.6	-43.8	13.7	2.20e-06	0	60	0	1156579328	52	5303
2026-01-28 10:33:03.08	336.72	16.83	-40.6	-43.9	13.7	8.30e-06	0	60	0	1158676480	52	5370
2026-01-28 10:33:04.09	336.77	16.72	-40.5	-43.8	13.7	8.30e-06	0	60	0	1159725056	52	5299
2026-01-28 10:33:05.10	336.82	16.61	-40.6	-43.9	13.6	7.60e-06	0	60	0	1161822208	52	5365
2026-01-28 10:33:06.10	336.86	16.50	-40.4	-43.6	13.8	3.80e-06	0	60	0	1163919360	52	5212
2026-01-28 10:33:07.11	336.91	16.39	-40.3	-43.4	14.0	3.00e-06	0	60	0	1166016512	52	5078
2026-01-28 10:33:08.12	336.95	16.28	-40.2	-43.2	14.2	1.50e-06	0	60	0	1168113664	52	4967
2026-01-28 10:33:09.13	337.00	16.17	-40.0	-43.0	14.3	7.00e-07	0	60	0	1169162240	52	4832
2026-01-28 10:33:10.14	337.05	16.06	-40.0	-42.9	14.5	7.00e-07	0	60	0	1171259392	51	5059
2026-01-28 10:33:11.15	337.09	15.95	-39.7	-42.5	14.8	0.00e+00	0	60	0	1173356544	51	4819
2026-01-28 10:33:12.16	337.14	15.84	-39.7	-42.5	14.8	0.00e+00	0	60	0	1175453696	51	4825
2026-01-28 10:33:13.17	337.18	15.73	-39.6	-42.2	15.0	0.00e+00	0	60	0	1177550848	51	4705
2026-01-28 10:33:14.18	337.22	15.62	-39.6	-42.3	15.0	0.00e+00	0	60	0	1178599424	51	4724
2026-01-28 10:33:15.19	337.27	15.51	-39.7	-42.5	14.7	0.00e+00	0	60	0	1180696576	51	4830
