passes_logs/2026/01/28/R2.0S_Moscow/R2.0S_Moscow__20260128_111839_FENGYUN_3D_rec.log

#Pass ID: 20260128_111839_FENGYUN 3D
#Satellite: FENGYUN 3D
#Configuration: FENGYUN 3D
#almurnet v.1.7.20251203
#Start time: 2026-01-28 11:18:40

#Version: 2.2.20231116
#Station: R2.0S_Moscow
#Location: 37.707566 lon 55.798166 lat
#TLE: 1 43010U 17072A   26027.90082829  .00000305  00000+0  16579-3 0  9998
#TLE: 2 43010  98.9960 359.9183 0002511  88.1058 272.0405 14.19701796425082

#Time	Az	El	Level	Level2	SNR	BER	BlckErr	Temp	State	Recorded	gain1	gain2
2026-01-28 11:18:40.64	140.64	2.06	-35.7	-53.0	3.8	8.46e-01	0	51	0	0	37	36255
2026-01-28 11:18:41.64	140.61	2.13	-38.6	-53.8	3.9	8.46e-01	0	51	104	0	48	21056
2026-01-28 11:18:42.65	140.58	2.19	-35.8	-53.4	3.9	8.46e-01	0	51	104	0	38	35924
2026-01-28 11:18:43.67	140.55	2.26	-32.1	-51.5	3.7	8.46e-01	0	51	104	0	32	40952
2026-01-28 11:18:44.68	140.53	2.32	-36.3	-53.9	4.0	8.47e-01	0	51	104	0	47	22703
2026-01-28 11:18:45.69	140.50	2.39	-31.1	-52.6	3.7	8.44e-01	0	51	104	0	36	36590
2026-01-28 11:18:46.70	140.47	2.45	-27.1	-49.6	4.2	8.46e-01	0	51	104	0	31	34537
2026-01-28 11:18:47.71	140.44	2.51	-31.3	-53.1	3.9	8.46e-01	0	51	104	0	39	32577
2026-01-28 11:18:48.72	140.41	2.58	-38.5	-52.8	3.8	8.46e-01	0	51	104	0	42	26553
2026-01-28 11:18:49.73	140.38	2.64	-33.2	-52.8	3.8	8.46e-01	0	51	104	0	46	21061
2026-01-28 11:18:50.74	140.36	2.71	-38.4	-53.8	4.0	8.47e-01	0	51	104	0	46	23645
2026-01-28 11:18:51.75	140.33	2.78	-35.1	-53.4	4.0	8.46e-01	0	51	104	0	47	21404
2026-01-28 11:18:52.76	140.30	2.84	-34.8	-53.5	3.7	8.47e-01	0	51	104	0	48	20399
2026-01-28 11:18:53.77	140.27	2.91	-39.6	-53.6	3.8	8.46e-01	0	51	104	0	44	26023
2026-01-28 11:18:54.78	140.24	2.97	-32.3	-51.8	4.0	8.45e-01	0	52	104	0	38	29994
2026-01-28 11:18:55.79	140.21	3.04	-35.1	-52.3	4.0	8.46e-01	0	52	104	0	32	44633
2026-01-28 11:18:56.80	140.18	3.10	-30.9	-51.5	3.9	8.46e-01	0	52	104	0	24	64475
2026-01-28 11:18:57.81	140.15	3.17	-38.0	-52.6	3.9	8.45e-01	0	52	104	0	28	58067
2026-01-28 11:18:58.82	140.12	3.24	-39.3	-53.7	4.0	8.46e-01	0	52	104	0	47	22196
2026-01-28 11:18:59.83	140.09	3.30	-31.6	-52.8	4.1	8.45e-01	0	52	104	0	38	33476
2026-01-28 11:19:00.84	140.06	3.37	-38.5	-53.7	3.7	8.46e-01	0	52	104	0	47	22244
2026-01-28 11:19:01.85	140.03	3.44	-38.2	-53.6	3.7	8.45e-01	0	52	104	0	46	23226
2026-01-28 11:19:02.86	140.00	3.50	-37.7	-53.7	3.8	8.46e-01	0	52	104	0	50	18650
2026-01-28 11:19:03.87	139.97	3.57	-40.2	-53.7	3.9	8.46e-01	0	52	104	0	51	17662
2026-01-28 11:19:04.88	139.94	3.64	-38.6	-53.6	3.7	8.46e-01	0	52	104	0	45	24547
2026-01-28 11:19:05.89	139.91	3.71	-30.7	-51.3	3.8	8.45e-01	0	52	104	0	35	33579
2026-01-28 11:19:06.90	139.88	3.77	-26.0	-50.9	3.8	8.45e-01	0	53	104	0	24	59924
2026-01-28 11:19:07.92	139.85	3.84	-31.5	-52.2	3.9	8.46e-01	0	53	104	0	33	41610
2026-01-28 11:19:08.93	139.82	3.91	-30.7	-51.7	3.7	8.46e-01	0	53	104	0	42	23319
2026-01-28 11:19:09.93	139.79	3.98	-34.2	-52.7	3.7	8.46e-01	0	53	104	0	38	32949
2026-01-28 11:19:10.94	139.75	4.05	-34.3	-53.0	4.1	8.46e-01	0	53	104	0	36	38565
2026-01-28 11:19:11.96	139.72	4.12	-31.0	-52.5	4.2	8.46e-01	0	53	104	0	33	43245
2026-01-28 11:19:12.96	139.69	4.18	-37.8	-52.9	3.8	8.46e-01	0	53	104	0	41	28483
2026-01-28 11:19:13.97	139.66	4.25	-27.1	-49.6	4.2	8.45e-01	0	53	104	0	36	26065
2026-01-28 11:19:14.98	139.63	4.32	-33.3	-52.2	4.1	8.45e-01	0	53	104	0	44	22164
2026-01-28 11:19:15.99	139.59	4.39	-37.9	-53.3	3.9	8.44e-01	0	53	104	0	45	23591
2026-01-28 11:19:17.00	139.56	4.46	-37.7	-53.2	3.9	8.46e-01	0	53	104	0	54	14043
2026-01-28 11:19:18.01	139.53	4.53	-39.2	-53.3	3.7	8.47e-01	0	53	104	0	46	22300
2026-01-28 11:19:19.02	139.50	4.60	-40.3	-53.4	3.8	8.45e-01	0	53	104	0	52	16011
2026-01-28 11:19:20.03	139.46	4.67	-40.0	-53.3	3.8	8.45e-01	0	53	104	0	51	16851
2026-01-28 11:19:21.04	139.43	4.74	-34.2	-53.1	3.8	8.47e-01	0	53	104	0	45	23243
2026-01-28 11:19:22.05	139.40	4.81	-41.1	-53.0	3.7	8.46e-01	0	53	104	0	50	17105
2026-01-28 11:19:23.06	139.36	4.88	-42.3	-53.7	3.9	8.45e-01	0	54	104	0	53	15627
2026-01-28 11:19:24.07	139.33	4.95	-38.1	-53.2	3.9	8.45e-01	0	54	104	0	48	19838
2026-01-28 11:19:25.08	139.29	5.02	-32.5	-52.8	4.2	8.45e-01	0	54	104	0	33	44885
2026-01-28 11:19:26.09	139.26	5.09	-40.7	-53.5	3.8	8.46e-01	0	54	104	0	53	15266
2026-01-28 11:19:27.10	139.23	5.16	-30.9	-52.5	4.0	8.46e-01	0	54	104	0	32	45957
2026-01-28 11:19:28.11	139.19	5.23	-41.5	-53.5	3.8	8.46e-01	0	54	104	0	53	15256
2026-01-28 11:19:29.12	139.16	5.30	-41.8	-53.9	3.9	8.45e-01	0	54	104	0	53	15945
2026-01-28 11:19:30.14	139.12	5.38	-34.6	-53.0	3.9	8.46e-01	0	54	104	0	47	20522
2026-01-28 11:19:31.15	139.09	5.45	-39.9	-53.4	3.8	8.45e-01	0	54	104	0	54	14274
2026-01-28 11:19:32.16	139.05	5.52	-38.5	-53.2	3.8	8.45e-01	0	54	104	0	47	20816
2026-01-28 11:19:33.17	139.02	5.59	-41.3	-52.9	3.7	8.46e-01	0	54	104	0	41	28431
2026-01-28 11:19:34.18	138.98	5.67	-40.7	-53.4	3.9	8.46e-01	0	54	104	0	50	17904
2026-01-28 11:19:35.19	138.95	5.74	-37.9	-53.6	3.9	8.47e-01	0	54	104	0	51	17462
2026-01-28 11:19:36.20	138.91	5.81	-40.8	-53.6	3.8	8.45e-01	0	54	104	0	53	15547
2026-01-28 11:19:37.21	138.87	5.88	-40.9	-53.5	3.9	8.46e-01	0	54	104	0	54	14452
2026-01-28 11:19:38.22	138.84	5.96	-39.1	-53.7	3.8	8.47e-01	0	54	104	0	52	16513
2026-01-28 11:19:39.23	138.80	6.03	-40.4	-53.6	3.9	8.45e-01	0	54	104	0	50	18412
2026-01-28 11:19:40.24	138.76	6.10	-32.6	-52.5	3.9	8.44e-01	0	54	104	0	35	38504
2026-01-28 11:19:41.25	138.73	6.18	-34.3	-52.8	3.9	8.46e-01	0	54	104	0	34	42240
2026-01-28 11:19:42.26	138.69	6.25	-41.2	-53.6	3.8	8.46e-01	0	54	104	0	44	26082
2026-01-28 11:19:43.27	138.65	6.33	-41.3	-53.6	3.8	8.46e-01	0	54	104	0	52	16432
2026-01-28 11:19:44.28	138.62	6.40	-41.0	-53.6	3.8	8.45e-01	0	55	104	0	52	16320
2026-01-28 11:19:45.29	138.58	6.47	-41.3	-53.9	3.7	8.47e-01	0	54	104	0	44	26839
2026-01-28 11:19:46.30	138.54	6.55	-35.5	-53.1	3.8	8.45e-01	0	55	104	0	44	24618
2026-01-28 11:19:47.31	138.50	6.62	-35.1	-53.2	3.9	8.45e-01	0	55	104	0	45	23382
2026-01-28 11:19:48.33	138.46	6.70	-33.5	-52.5	4.0	8.45e-01	0	55	104	0	38	32519
2026-01-28 11:19:49.34	138.42	6.78	-42.1	-53.9	3.9	8.45e-01	0	55	104	0	52	17066
2026-01-28 11:19:50.35	138.39	6.85	-37.4	-53.6	3.8	8.46e-01	0	55	104	0	44	25912
2026-01-28 11:19:51.36	138.35	6.93	-38.7	-53.6	4.0	8.47e-01	0	55	104	0	45	24640
2026-01-28 11:19:52.37	138.31	7.00	-38.4	-53.9	3.7	8.47e-01	0	55	104	0	50	19046
2026-01-28 11:19:53.38	138.27	7.08	-39.6	-53.7	3.7	8.46e-01	0	55	104	0	49	19763
2026-01-28 11:19:54.39	138.23	7.16	-38.9	-54.0	4.0	8.46e-01	0	55	104	0	45	25577
2026-01-28 11:19:55.40	138.19	7.23	-39.5	-53.8	3.8	8.46e-01	0	55	104	0	48	21047
2026-01-28 11:19:56.41	138.15	7.31	-40.6	-54.0	3.9	8.46e-01	0	55	104	0	48	21659
2026-01-28 11:19:57.42	138.11	7.39	-35.9	-53.0	3.7	8.46e-01	0	55	104	0	33	45536
2026-01-28 11:19:58.43	138.07	7.46	-36.5	-53.3	3.7	8.46e-01	0	55	104	0	45	23647
2026-01-28 11:19:59.44	138.03	7.54	-40.9	-53.3	3.8	8.47e-01	0	55	104	0	44	25034
2026-01-28 11:20:00.45	137.99	7.62	-31.2	-52.6	3.7	8.46e-01	0	55	104	0	38	32566
2026-01-28 11:20:01.46	137.95	7.70	-30.8	-52.4	4.0	8.46e-01	0	55	104	0	41	26937
2026-01-28 11:20:02.47	137.90	7.77	-34.3	-52.5	3.8	8.46e-01	0	55	104	0	38	32201
2026-01-28 11:20:03.48	137.86	7.85	-25.4	-49.1	4.2	8.47e-01	0	55	104	0	28	38864
2026-01-28 11:20:04.49	137.82	7.93	-37.0	-52.6	3.7	8.47e-01	0	55	104	0	39	31060
2026-01-28 11:20:05.50	137.78	8.01	-33.1	-53.2	3.8	8.47e-01	0	55	104	0	48	19653
2026-01-28 11:20:06.51	137.74	8.09	-37.0	-53.1	4.1	8.45e-01	0	56	104	0	41	29320
2026-01-28 11:20:07.52	137.69	8.17	-27.8	-50.1	3.6	8.46e-01	0	56	104	0	28	43474
2026-01-28 11:20:08.53	137.65	8.25	-36.4	-53.5	3.9	8.46e-01	0	55	104	0	48	20466
2026-01-28 11:20:09.54	137.61	8.33	-40.9	-54.0	3.9	8.46e-01	0	55	104	0	52	17226
2026-01-28 11:20:10.55	137.56	8.41	-40.2	-53.9	3.8	8.46e-01	0	55	104	0	51	18078
2026-01-28 11:20:11.56	137.52	8.49	-28.9	-51.7	3.9	8.47e-01	0	55	104	0	41	24855
2026-01-28 11:20:12.57	137.48	8.57	-42.1	-54.1	3.9	8.47e-01	0	56	104	0	53	16382
2026-01-28 11:20:13.58	137.43	8.65	-38.7	-53.2	3.8	8.45e-01	0	56	104	0	46	22073
2026-01-28 11:20:14.59	137.39	8.73	-38.0	-53.8	3.6	8.46e-01	0	56	104	0	42	29829
2026-01-28 11:20:15.60	137.34	8.81	-33.6	-53.1	3.9	8.45e-01	0	56	104	0	46	21901
2026-01-28 11:20:16.61	137.30	8.89	-31.2	-52.5	3.7	8.46e-01	0	56	104	0	42	25760
2026-01-28 11:20:17.62	137.25	8.97	-39.1	-53.8	3.9	8.45e-01	0	56	104	0	46	23847
2026-01-28 11:20:18.63	137.21	9.06	-31.4	-52.5	3.8	8.46e-01	0	56	104	0	43	24276
2026-01-28 11:20:19.64	137.16	9.14	-33.5	-50.8	4.1	8.47e-01	0	56	104	0	38	26504
2026-01-28 11:20:20.65	137.12	9.22	-36.1	-53.0	4.1	8.46e-01	0	56	104	0	39	32199
2026-01-28 11:20:21.65	137.07	9.30	-37.3	-50.5	3.9	8.43e-01	0	56	104	0	34	32542
2026-01-28 11:20:22.67	137.02	9.39	-36.4	-53.1	4.2	8.45e-01	0	56	104	0	48	19470
2026-01-28 11:20:23.68	136.98	9.47	-38.7	-52.6	3.7	8.46e-01	0	56	104	0	39	30828
2026-01-28 11:20:24.68	136.93	9.55	-39.1	-53.1	3.9	8.46e-01	0	56	104	0	52	15550
2026-01-28 11:20:25.69	136.88	9.64	-38.5	-53.5	3.9	8.45e-01	0	56	104	0	48	20427
2026-01-28 11:20:26.70	136.83	9.72	-32.1	-53.4	3.7	8.45e-01	0	56	104	0	46	22581
2026-01-28 11:20:27.71	136.79	9.81	-38.4	-52.9	4.0	8.46e-01	0	56	104	0	50	16907
2026-01-28 11:20:28.72	136.74	9.89	-41.4	-52.6	3.9	8.45e-01	0	56	104	0	52	14693
2026-01-28 11:20:29.73	136.69	9.98	-38.8	-51.6	3.3	8.46e-01	0	56	104	0	43	21941
2026-01-28 11:20:30.74	136.64	10.06	-38.0	-50.6	4.1	8.44e-01	0	56	104	0	50	13108
2026-01-28 11:20:31.75	136.59	10.15	-40.8	-51.1	4.0	8.43e-01	0	56	104	0	51	13058
2026-01-28 11:20:32.76	136.54	10.23	-39.5	-51.6	4.0	8.24e-01	0	57	0	0	47	17431
2026-01-28 11:20:33.77	136.49	10.32	-38.5	-50.2	4.4	8.36e-01	0	57	104	0	45	16550
2026-01-28 11:20:34.78	136.44	10.40	-29.3	-46.8	4.8	4.89e-01	0	57	0	1048576	35	19865
2026-01-28 11:20:35.79	136.39	10.49	-33.4	-43.3	8.5	3.39e-01	0	56	0	1048576	41	9404
2026-01-28 11:20:36.80	136.34	10.58	-37.0	-42.2	9.5	1.24e-01	0	56	0	6291456	44	7039
2026-01-28 11:20:37.81	136.29	10.66	-28.7	-40.3	9.2	1.38e-01	0	56	0	11534336	25	16879
2026-01-28 11:20:38.82	136.24	10.75	-37.0	-40.5	11.9	6.92e-03	0	57	0	17825792	45	5420
2026-01-28 11:20:39.83	136.19	10.84	-37.0	-40.4	12.7	1.00e-01	0	56	0	23068672	44	5686
2026-01-28 11:20:40.84	136.13	10.93	-28.4	-41.1	11.9	6.84e-03	0	56	0	28311552	40	7723
2026-01-28 11:20:41.85	136.08	11.02	-35.6	-41.4	11.5	6.08e-02	0	56	0	34603008	42	7135
2026-01-28 11:20:42.86	136.03	11.10	-35.9	-39.9	11.3	8.29e-02	0	57	0	39845888	34	9588
2026-01-28 11:20:43.87	135.98	11.19	-32.1	-40.1	12.9	2.25e-02	0	57	0	45088768	42	6195
2026-01-28 11:20:44.88	135.92	11.28	-33.9	-40.8	11.2	3.96e-02	0	56	0	50331648	38	8374
2026-01-28 11:20:45.89	135.87	11.37	-34.5	-40.0	12.8	2.83e-02	0	57	0	56623104	42	6116
2026-01-28 11:20:46.90	135.82	11.46	-26.8	-39.2	8.8	2.00e-01	0	57	0	61865984	25	14751
2026-01-28 11:20:47.91	135.76	11.55	-32.2	-39.6	10.7	1.03e-01	0	57	0	67108864	31	10989
2026-01-28 11:20:48.92	135.71	11.64	-31.1	-40.3	11.1	3.39e-02	0	57	0	72351744	41	6679
2026-01-28 11:20:49.93	135.65	11.73	-29.2	-39.9	10.2	1.37e-01	0	57	0	77594624	36	8521
2026-01-28 11:20:50.94	135.60	11.82	-30.3	-40.0	10.7	1.05e-01	0	57	0	82837504	36	8582
2026-01-28 11:20:51.95	135.54	11.91	-35.8	-40.0	12.8	8.99e-02	0	57	0	88080384	42	6077
2026-01-28 11:20:52.96	135.48	12.01	-36.7	-40.0	12.6	5.67e-02	0	57	0	93323264	42	6085
2026-01-28 11:20:53.97	135.43	12.10	-35.6	-40.4	13.1	4.69e-02	0	57	0	98566144	44	5693
2026-01-28 11:20:54.98	135.37	12.19	-36.4	-39.9	12.6	1.94e-02	0	57	0	104857600	42	6002
2026-01-28 11:20:55.99	135.31	12.28	-31.3	-40.0	12.3	4.84e-02	0	57	0	110100480	41	6451
2026-01-28 11:20:57.00	135.26	12.38	-36.6	-39.9	13.1	2.53e-02	0	57	0	116391936	41	6404
2026-01-28 11:20:58.01	135.20	12.47	-26.9	-38.9	9.2	3.82e-02	0	57	0	121634816	25	14245
2026-01-28 11:20:59.02	135.14	12.56	-29.9	-39.4	9.9	3.34e-02	0	57	0	126877696	27	13567
2026-01-28 11:21:00.03	135.08	12.66	-31.0	-40.1	11.0	7.18e-02	0	57	0	132120576	39	7323
2026-01-28 11:21:01.04	135.02	12.75	-26.0	-39.3	9.2	8.50e-02	0	57	0	137363456	33	9393
2026-01-28 11:21:02.05	134.96	12.84	-35.9	-40.1	12.7	1.85e-02	0	57	0	142606336	42	6155
2026-01-28 11:21:03.06	134.90	12.94	-33.0	-40.3	12.9	7.73e-02	0	57	0	147849216	43	5926
2026-01-28 11:21:04.07	134.84	13.03	-33.9	-40.2	12.3	1.56e-01	0	57	0	153092096	41	6603
2026-01-28 11:21:05.08	134.78	13.13	-33.6	-39.9	13.4	2.93e-02	0	57	0	158334976	42	6061
2026-01-28 11:21:06.09	134.72	13.23	-34.7	-40.0	13.7	9.93e-03	0	57	0	164626432	41	6431
2026-01-28 11:21:07.10	134.66	13.32	-36.8	-40.2	13.4	3.23e-02	0	57	0	169869312	42	6255
2026-01-28 11:21:08.11	134.60	13.42	-31.6	-39.9	12.9	2.09e-02	0	57	0	175112192	36	8482
2026-01-28 11:21:09.12	134.53	13.52	-24.1	-38.6	8.7	1.07e-01	0	57	0	181403648	29	10990
2026-01-28 11:21:10.13	134.47	13.61	-32.5	-40.0	13.3	1.09e-02	0	57	0	186646528	41	6423
2026-01-28 11:21:11.14	134.41	13.71	-33.7	-39.6	13.0	1.24e-01	0	57	0	191889408	39	6885
2026-01-28 11:21:12.15	134.34	13.81	-33.7	-39.1	12.6	1.75e-01	0	57	0	197132288	35	8241
2026-01-28 11:21:13.17	134.28	13.91	-32.8	-39.7	13.2	1.35e-02	0	57	0	202375168	40	6616
2026-01-28 11:21:14.18	134.21	14.01	-28.6	-39.3	12.7	1.56e-01	0	57	0	208666624	32	10007
2026-01-28 11:21:15.19	134.15	14.11	-31.3	-39.4	11.0	6.58e-02	0	57	0	213909504	36	8069
2026-01-28 11:21:16.20	134.08	14.21	-31.5	-39.4	12.1	8.93e-02	0	57	0	219152384	36	8043
2026-01-28 11:21:17.21	134.02	14.31	-28.8	-39.3	13.1	2.54e-02	0	57	0	225443840	41	5970
2026-01-28 11:21:18.22	133.95	14.41	-32.8	-39.4	12.9	2.34e-02	0	57	0	230686720	38	7204
2026-01-28 11:21:19.23	133.88	14.51	-33.4	-39.3	13.6	2.62e-02	0	58	0	236978176	42	5633
2026-01-28 11:21:20.24	133.82	14.61	-36.3	-39.3	14.6	2.40e-03	0	57	0	242221056	43	5332
2026-01-28 11:21:21.25	133.75	14.71	-32.5	-39.0	12.5	1.65e-02	0	57	0	247463936	38	6809
2026-01-28 11:21:22.26	133.68	14.81	-35.4	-39.6	13.7	8.81e-03	0	57	0	253755392	37	7729
2026-01-28 11:21:23.27	133.61	14.91	-31.7	-39.5	13.1	7.25e-03	0	58	0	258998272	37	7682
2026-01-28 11:21:24.28	133.54	15.01	-33.6	-39.4	14.6	1.03e-02	0	57	0	264241152	42	5665
2026-01-28 11:21:25.29	133.47	15.12	-33.9	-39.3	14.2	5.87e-03	0	58	0	270532608	39	6649
2026-01-28 11:21:26.30	133.40	15.22	-35.9	-39.1	15.0	6.83e-03	0	58	0	275775488	43	5169
2026-01-28 11:21:27.31	133.33	15.32	-32.2	-38.5	12.1	1.27e-02	0	58	0	282066944	33	8587
2026-01-28 11:21:28.32	133.26	15.43	-36.9	-39.2	15.1	2.54e-03	0	58	0	287309824	44	4961
2026-01-28 11:21:29.33	133.19	15.53	-33.2	-38.9	14.4	9.65e-04	0	58	0	293601280	41	5669
2026-01-28 11:21:30.34	133.12	15.64	-36.7	-39.0	15.4	4.66e-04	0	57	0	298844160	44	4833
2026-01-28 11:21:31.35	133.04	15.74	-37.1	-39.0	15.5	1.48e-04	0	58	0	305135616	44	4847
2026-01-28 11:21:32.36	132.97	15.85	-36.8	-38.8	15.5	6.17e-05	0	58	0	310378496	44	4742
2026-01-28 11:21:33.37	132.90	15.96	-35.6	-38.8	14.7	2.80e-04	0	58	0	315621376	42	5294
2026-01-28 11:21:34.38	132.82	16.06	-36.9	-38.9	15.6	4.80e-05	0	58	0	321912832	44	4761
2026-01-28 11:21:35.38	132.75	16.17	-36.7	-38.7	15.7	1.21e-03	0	58	0	327155712	43	4948
2026-01-28 11:21:36.39	132.67	16.28	-36.9	-38.7	15.9	8.00e-06	0	58	0	333447168	44	4695
2026-01-28 11:21:37.40	132.59	16.38	-36.7	-38.7	15.7	4.23e-04	0	58	0	338690048	44	4686
2026-01-28 11:21:38.41	132.52	16.49	-36.9	-38.7	15.9	1.10e-06	0	58	0	343932928	44	4677
2026-01-28 11:21:39.42	132.44	16.60	-36.9	-38.8	15.5	6.80e-06	0	58	0	350224384	44	4728
2026-01-28 11:21:40.43	132.36	16.71	-37.0	-38.7	15.9	3.40e-06	0	58	0	355467264	44	4703
2026-01-28 11:21:41.44	132.28	16.82	-36.1	-38.7	15.7	2.20e-06	0	58	0	361758720	44	4680
2026-01-28 11:21:42.45	132.20	16.93	-37.0	-38.8	15.9	1.10e-06	0	58	0	367001600	44	4750
2026-01-28 11:21:43.46	132.13	17.04	-36.6	-38.6	16.1	3.40e-06	0	58	0	372244480	44	4628
2026-01-28 11:21:44.48	132.04	17.15	-36.5	-38.4	16.3	0.00e+00	0	58	0	378535936	44	4514
2026-01-28 11:21:45.49	131.96	17.26	-36.5	-38.1	16.5	0.00e+00	0	58	0	383778816	43	4638
2026-01-28 11:21:46.50	131.88	17.37	-36.3	-38.1	16.3	0.00e+00	0	58	0	390070272	43	4617
2026-01-28 11:21:47.51	131.80	17.49	-36.5	-38.2	16.4	0.00e+00	0	58	0	395313152	43	4653
2026-01-28 11:21:48.52	131.72	17.60	-36.1	-38.2	16.3	0.00e+00	0	58	0	401604608	43	4653
2026-01-28 11:21:49.53	131.63	17.71	-36.4	-38.0	16.5	0.00e+00	0	58	0	406847488	43	4593
2026-01-28 11:21:50.54	131.55	17.82	-36.1	-38.0	16.5	0.00e+00	0	58	0	413138944	43	4577
2026-01-28 11:21:51.55	131.46	17.94	-36.3	-38.0	16.6	0.00e+00	0	58	0	418381824	43	4551
2026-01-28 11:21:52.56	131.38	18.05	-36.3	-37.9	16.7	0.00e+00	0	58	0	423624704	43	4514
2026-01-28 11:21:53.57	131.29	18.17	-36.3	-37.9	16.7	0.00e+00	0	58	0	429916160	43	4511
2026-01-28 11:21:54.58	131.21	18.28	-36.1	-37.9	16.7	0.00e+00	0	58	0	435159040	43	4513
2026-01-28 11:21:55.60	131.12	18.40	-36.4	-38.1	16.5	0.00e+00	0	58	0	441450496	43	4618
2026-01-28 11:21:56.61	131.03	18.52	-36.2	-37.9	16.6	0.00e+00	0	58	0	446693376	43	4543
2026-01-28 11:21:57.61	130.94	18.63	-36.2	-37.9	16.7	0.00e+00	0	58	0	451936256	43	4498
2026-01-28 11:21:58.63	130.85	18.75	-36.1	-37.8	16.8	0.00e+00	0	58	0	458227712	43	4464
2026-01-28 11:21:59.64	130.76	18.87	-36.2	-37.8	16.8	0.00e+00	0	58	0	463470592	43	4458
2026-01-28 11:22:00.65	130.67	18.99	-36.2	-37.9	16.8	0.00e+00	0	58	0	469762048	43	4504
2026-01-28 11:22:01.66	130.58	19.11	-36.1	-37.7	16.9	0.00e+00	0	58	0	475004928	43	4416
2026-01-28 11:22:02.67	130.49	19.23	-36.0	-37.6	16.9	0.00e+00	0	58	0	480247808	43	4380
2026-01-28 11:22:03.68	130.39	19.35	-36.1	-37.6	17.0	0.00e+00	0	58	0	486539264	43	4385
2026-01-28 11:22:04.69	130.30	19.47	-36.0	-37.6	17.0	0.00e+00	0	58	0	491782144	43	4385
2026-01-28 11:22:05.69	130.21	19.59	-35.9	-37.6	17.0	0.00e+00	0	58	0	498073600	43	4353
2026-01-28 11:22:06.71	130.11	19.71	-35.9	-37.4	17.2	0.00e+00	0	58	0	503316480	43	4258
2026-01-28 11:22:07.72	130.01	19.83	-35.8	-37.4	17.3	0.00e+00	0	58	0	509607936	42	4494
2026-01-28 11:22:08.73	129.92	19.95	-35.5	-37.2	17.4	0.00e+00	0	58	0	514850816	42	4438
2026-01-28 11:22:09.74	129.82	20.07	-35.7	-37.2	17.3	0.00e+00	0	58	0	521142272	42	4431
2026-01-28 11:22:10.75	129.72	20.20	-35.5	-37.1	17.5	0.00e+00	0	58	0	526385152	42	4387
2026-01-28 11:22:11.76	129.62	20.32	-35.6	-37.2	17.4	0.00e+00	0	58	0	531628032	42	4393
2026-01-28 11:22:12.77	129.52	20.45	-35.3	-37.2	17.4	0.00e+00	0	58	0	537919488	42	4440
2026-01-28 11:22:13.78	129.42	20.57	-35.5	-37.2	17.4	0.00e+00	0	58	0	543162368	42	4401
2026-01-28 11:22:14.79	129.32	20.70	-35.7	-37.2	17.4	0.00e+00	0	58	0	549453824	42	4423
2026-01-28 11:22:15.80	129.21	20.82	-35.6	-37.3	17.4	0.00e+00	0	58	0	554696704	42	4451
2026-01-28 11:22:16.82	129.11	20.95	-34.7	-37.2	17.3	1.10e-06	0	58	0	559939584	41	4671
2026-01-28 11:22:17.83	129.01	21.08	-35.5	-37.0	17.6	0.00e+00	0	58	0	566231040	41	4590
2026-01-28 11:22:18.84	128.90	21.20	-35.5	-37.1	17.5	1.10e-06	0	58	0	571473920	41	4642
2026-01-28 11:22:19.85	128.79	21.33	-35.5	-37.1	17.4	0.00e+00	0	58	0	577765376	41	4606
2026-01-28 11:22:20.86	128.69	21.46	-35.5	-37.1	17.6	0.00e+00	0	58	0	583008256	41	4603
2026-01-28 11:22:21.87	128.58	21.59	-35.5	-37.0	17.5	9.10e-06	0	58	0	588251136	41	4567
2026-01-28 11:22:22.88	128.47	21.72	-35.3	-37.0	17.7	3.54e-05	0	58	0	594542592	41	4555
2026-01-28 11:22:23.89	128.36	21.85	-35.2	-37.0	17.6	0.00e+00	0	58	0	599785472	41	4586
2026-01-28 11:22:24.90	128.25	21.98	-35.2	-37.0	17.6	1.14e-05	0	58	0	606076928	41	4593
2026-01-28 11:22:25.91	128.14	22.11	-35.1	-36.9	17.7	4.50e-06	0	58	0	611319808	41	4535
2026-01-28 11:22:26.92	128.02	22.24	-35.1	-36.8	17.9	2.20e-06	0	58	0	617611264	41	4470
2026-01-28 11:22:27.93	127.91	22.38	-35.3	-36.8	17.9	0.00e+00	0	58	0	622854144	41	4456
2026-01-28 11:22:28.94	127.79	22.51	-35.4	-36.9	17.8	2.20e-06	0	59	0	629145600	41	4516
2026-01-28 11:22:29.95	127.68	22.64	-35.4	-36.9	17.8	2.51e-05	0	58	0	634388480	41	4517
2026-01-28 11:22:30.96	127.56	22.78	-35.3	-37.0	17.8	5.70e-06	0	59	0	639631360	41	4548
2026-01-28 11:22:31.97	127.44	22.91	-35.3	-36.7	18.0	5.14e-05	0	59	0	645922816	41	4428
2026-01-28 11:22:32.98	127.33	23.05	-35.2	-36.6	18.0	2.51e-05	0	58	0	651165696	40	4631
2026-01-28 11:22:33.99	127.21	23.18	-35.1	-36.5	18.2	6.80e-06	0	58	0	657457152	40	4567
2026-01-28 11:22:35.00	127.08	23.32	-35.1	-36.6	18.1	1.10e-06	0	58	0	662700032	40	4613
2026-01-28 11:22:36.01	126.96	23.46	-35.0	-36.6	18.1	1.10e-06	0	58	0	667942912	40	4633
2026-01-28 11:22:37.02	126.84	23.60	-35.2	-36.6	18.1	0.00e+00	0	59	0	674234368	40	4646
2026-01-28 11:22:38.03	126.71	23.73	-34.9	-36.6	18.1	0.00e+00	0	58	0	679477248	40	4651
2026-01-28 11:22:39.04	126.59	23.87	-35.1	-36.6	18.2	2.05e-05	0	58	0	685768704	40	4607
2026-01-28 11:22:40.05	126.46	24.01	-35.1	-36.5	18.2	1.71e-05	0	59	0	691011584	40	4588
2026-01-28 11:22:41.06	126.33	24.15	-35.2	-36.6	18.1	1.14e-05	0	58	0	696254464	40	4632
2026-01-28 11:22:42.07	126.21	24.29	-35.2	-36.7	18.1	8.00e-06	0	58	0	702545920	40	4655
2026-01-28 11:22:43.09	126.07	24.44	-33.6	-36.7	18.0	4.50e-06	0	58	0	707788800	40	4660
2026-01-28 11:22:44.09	125.94	24.58	-35.1	-36.6	18.1	2.20e-06	0	58	0	714080256	40	4613
2026-01-28 11:22:45.11	125.81	24.72	-33.7	-36.5	18.1	1.10e-06	0	58	0	719323136	40	4565
2026-01-28 11:22:46.12	125.68	24.86	-35.0	-36.5	18.2	0.00e+00	0	58	0	725614592	40	4588
2026-01-28 11:22:47.13	125.54	25.01	-34.4	-36.5	18.2	0.00e+00	0	58	0	730857472	40	4560
2026-01-28 11:22:48.14	125.40	25.15	-34.7	-36.4	18.3	0.00e+00	0	58	0	737148928	40	4516
2026-01-28 11:22:49.15	125.27	25.30	-34.8	-36.2	18.6	0.00e+00	0	58	0	742391808	40	4399
2026-01-28 11:22:50.16	125.13	25.44	-34.4	-36.1	18.5	0.00e+00	0	59	0	747634688	40	4368
2026-01-28 11:22:51.17	124.99	25.59	-34.7	-36.1	18.6	0.00e+00	0	59	0	753926144	40	4363
2026-01-28 11:22:52.18	124.85	25.74	-34.8	-36.1	18.5	0.00e+00	0	58	0	759169024	40	4383
2026-01-28 11:22:53.19	124.70	25.88	-34.8	-36.2	18.6	0.00e+00	0	59	0	765460480	40	4411
2026-01-28 11:22:54.20	124.56	26.03	-34.8	-36.2	18.5	0.00e+00	0	58	0	770703360	40	4416
2026-01-28 11:22:55.21	124.41	26.18	-34.8	-36.2	18.5	0.00e+00	0	59	0	775946240	40	4429
2026-01-28 11:22:56.22	124.27	26.33	-34.8	-36.2	18.6	0.00e+00	0	58	0	782237696	40	4407
2026-01-28 11:22:57.23	124.12	26.48	-34.9	-36.2	18.5	0.00e+00	0	58	0	787480576	40	4439
2026-01-28 11:22:58.24	123.97	26.63	-34.7	-36.1	18.7	0.00e+00	0	58	0	793772032	40	4353
2026-01-28 11:22:59.25	123.82	26.78	-34.7	-36.1	18.7	0.00e+00	0	58	0	799014912	40	4349
2026-01-28 11:23:00.26	123.67	26.93	-34.8	-36.2	18.6	0.00e+00	0	59	0	804257792	40	4394
2026-01-28 11:23:01.27	123.51	27.08	-34.8	-36.2	18.6	0.00e+00	0	59	0	810549248	40	4403
2026-01-28 11:23:02.28	123.36	27.24	-35.0	-36.4	18.4	0.00e+00	0	59	0	815792128	40	4510
2026-01-28 11:23:03.29	123.20	27.39	-34.9	-36.3	18.5	0.00e+00	0	58	0	822083584	40	4481
2026-01-28 11:23:04.30	123.04	27.54	-34.8	-36.2	18.6	0.00e+00	0	59	0	827326464	40	4430
2026-01-28 11:23:05.31	122.88	27.70	-34.8	-36.2	18.6	0.00e+00	0	59	0	833617920	40	4436
2026-01-28 11:23:06.33	122.72	27.86	-34.9	-36.3	18.5	0.00e+00	0	59	0	838860800	40	4474
2026-01-28 11:23:07.34	122.55	28.01	-34.8	-36.2	18.6	0.00e+00	0	59	0	845152256	40	4412
2026-01-28 11:23:08.35	122.39	28.17	-34.8	-36.2	18.6	0.00e+00	0	59	0	850395136	40	4430
2026-01-28 11:23:09.36	122.22	28.33	-34.7	-36.1	18.7	0.00e+00	0	59	0	855638016	40	4360
2026-01-28 11:23:10.37	122.05	28.48	-34.6	-36.0	18.8	0.00e+00	0	59	0	861929472	40	4311
2026-01-28 11:23:11.38	121.88	28.64	-34.7	-36.0	18.8	0.00e+00	0	59	0	867172352	40	4338
2026-01-28 11:23:12.39	121.71	28.80	-34.5	-35.9	18.9	0.00e+00	0	59	0	873463808	40	4261
2026-01-28 11:23:13.40	121.54	28.96	-34.5	-35.8	19.0	0.00e+00	0	59	0	878706688	40	4213
2026-01-28 11:23:14.41	121.36	29.12	-34.4	-35.8	19.0	0.00e+00	0	59	0	883949568	40	4194
2026-01-28 11:23:15.42	121.18	29.28	-34.4	-35.8	19.1	0.00e+00	0	59	0	890241024	40	4197
2026-01-28 11:23:16.43	121.00	29.45	-34.5	-35.9	19.0	0.00e+00	0	59	0	895483904	40	4255
2026-01-28 11:23:17.44	120.82	29.61	-34.5	-35.8	19.0	0.00e+00	0	59	0	901775360	40	4225
2026-01-28 11:23:18.45	120.64	29.77	-34.5	-35.8	19.0	0.00e+00	0	59	0	907018240	40	4226
2026-01-28 11:23:19.46	120.46	29.93	-34.5	-35.8	19.0	0.00e+00	0	59	0	912261120	40	4242
2026-01-28 11:23:20.47	120.27	30.10	-34.5	-35.8	19.1	0.00e+00	0	59	0	918552576	40	4206
2026-01-28 11:23:21.49	120.08	30.26	-34.4	-35.7	19.2	0.00e+00	0	59	0	923795456	40	4163
2026-01-28 11:23:22.49	119.89	30.43	-34.4	-35.7	19.1	0.00e+00	0	59	0	930086912	40	4177
2026-01-28 11:23:23.50	119.70	30.59	-34.5	-35.9	19.0	0.00e+00	0	59	0	935329792	40	4252
2026-01-28 11:23:24.51	119.50	30.76	-34.5	-35.8	19.1	0.00e+00	0	59	0	941621248	40	4210
2026-01-28 11:23:25.52	119.31	30.93	-34.4	-35.7	19.2	0.00e+00	0	59	0	946864128	40	4188
2026-01-28 11:23:26.53	119.11	31.09	-34.4	-35.7	19.2	0.00e+00	0	59	0	953155584	40	4167
2026-01-28 11:23:27.55	118.91	31.26	-34.4	-35.8	19.1	0.00e+00	0	59	0	958398464	40	4197
2026-01-28 11:23:28.56	118.71	31.43	-34.4	-35.7	19.1	0.00e+00	0	59	0	963641344	40	4182
2026-01-28 11:23:29.57	118.50	31.60	-34.4	-35.7	19.2	0.00e+00	0	59	0	969932800	40	4152
2026-01-28 11:23:30.58	118.29	31.77	-34.3	-35.6	19.2	0.00e+00	0	59	0	975175680	40	4143
2026-01-28 11:23:31.59	118.08	31.94	-34.4	-35.6	19.2	0.00e+00	0	59	0	981467136	40	4143
2026-01-28 11:23:32.60	117.87	32.11	-34.4	-35.7	19.2	0.00e+00	0	59	0	986710016	40	4173
2026-01-28 11:23:33.61	117.66	32.28	-34.5	-35.8	19.0	0.00e+00	0	59	0	991952896	40	4237
2026-01-28 11:23:34.62	117.44	32.46	-34.6	-35.9	18.9	0.00e+00	0	59	0	998244352	40	4289
2026-01-28 11:23:35.63	117.23	32.63	-34.6	-36.0	18.9	0.00e+00	0	59	0	1003487232	40	4300
2026-01-28 11:23:36.64	117.00	32.80	-34.7	-36.0	18.9	0.00e+00	0	59	0	1009778688	40	4320
2026-01-28 11:23:37.66	116.78	32.98	-34.6	-36.0	19.0	0.00e+00	0	59	0	1015021568	40	4294
2026-01-28 11:23:38.67	116.55	33.15	-34.5	-35.9	19.1	0.00e+00	0	59	0	1020264448	40	4245
2026-01-28 11:23:39.68	116.33	33.32	-34.3	-35.6	19.3	0.00e+00	0	59	0	1026555904	40	4123
2026-01-28 11:23:40.69	116.10	33.50	-34.3	-35.5	19.3	0.00e+00	0	59	0	1031798784	40	4095
2026-01-28 11:23:41.70	115.86	33.68	-34.3	-35.6	19.3	0.00e+00	0	59	0	1038090240	40	4116
2026-01-28 11:23:42.71	115.63	33.85	-34.4	-35.8	19.1	0.00e+00	0	59	0	1043333120	40	4198
2026-01-28 11:23:43.72	115.39	34.03	-34.5	-35.9	19.0	0.00e+00	0	59	0	1049624576	40	4260
2026-01-28 11:23:44.73	115.15	34.20	-34.4	-35.8	19.0	0.00e+00	0	59	0	1054867456	40	4202
2026-01-28 11:23:45.74	114.91	34.38	-34.3	-35.7	19.2	0.00e+00	0	59	0	1061158912	40	4156
2026-01-28 11:23:46.75	114.66	34.56	-34.4	-35.7	19.2	0.00e+00	0	59	0	1066401792	40	4162
2026-01-28 11:23:47.76	114.41	34.74	-34.4	-35.7	19.1	0.00e+00	0	59	0	1071644672	40	4183
2026-01-28 11:23:48.77	114.16	34.92	-34.3	-35.6	19.2	0.00e+00	0	59	0	1077936128	40	4120
2026-01-28 11:23:49.78	113.91	35.09	-34.1	-35.4	19.4	0.00e+00	0	59	0	1083179008	40	4036
2026-01-28 11:23:50.79	113.65	35.27	-34.2	-35.5	19.4	0.00e+00	0	59	0	1089470464	40	4053
2026-01-28 11:23:51.80	113.39	35.45	-34.2	-35.5	19.3	0.00e+00	0	59	0	1094713344	40	4064
2026-01-28 11:23:52.81	113.13	35.63	-34.2	-35.5	19.3	0.00e+00	0	59	0	1099956224	40	4091
2026-01-28 11:23:53.82	112.86	35.81	-34.3	-35.6	19.3	0.00e+00	0	59	0	1106247680	40	4102
2026-01-28 11:23:54.84	112.59	35.99	-34.4	-35.7	19.2	0.00e+00	0	59	0	1111490560	40	4183
2026-01-28 11:23:55.85	112.32	36.18	-34.4	-35.8	19.2	0.00e+00	0	59	0	1117782016	40	4196
2026-01-28 11:23:56.86	112.04	36.36	-34.5	-35.8	19.1	0.00e+00	0	59	0	1123024896	40	4221
2026-01-28 11:23:57.87	111.76	36.54	-34.6	-35.9	19.0	0.00e+00	0	59	0	1128267776	40	4271
2026-01-28 11:23:58.88	111.48	36.72	-34.5	-35.9	19.1	0.00e+00	0	59	0	1134559232	40	4249
2026-01-28 11:23:59.89	111.20	36.90	-34.4	-35.7	19.2	0.00e+00	0	59	0	1139802112	40	4186
2026-01-28 11:24:00.90	110.91	37.08	-34.3	-35.6	19.3	0.00e+00	0	59	0	1146093568	40	4140
2026-01-28 11:24:01.91	110.62	37.26	-34.3	-35.6	19.3	0.00e+00	0	59	0	1151336448	40	4119
2026-01-28 11:24:02.92	110.33	37.45	-34.3	-35.6	19.3	0.00e+00	0	59	0	1157627904	40	4115
2026-01-28 11:24:03.93	110.03	37.63	-34.3	-35.5	19.3	0.00e+00	0	59	0	1162870784	40	4098
2026-01-28 11:24:04.94	109.73	37.81	-34.3	-35.5	19.4	0.00e+00	0	59	0	1169162240	40	4094
2026-01-28 11:24:05.96	109.42	37.99	-34.3	-35.6	19.3	0.00e+00	0	59	0	1174405120	40	4121
2026-01-28 11:24:06.97	109.12	38.18	-34.3	-35.6	19.3	0.00e+00	0	59	0	1179648000	40	4132
2026-01-28 11:24:07.98	108.80	38.36	-34.4	-35.7	19.2	0.00e+00	0	59	0	1185939456	40	4158
2026-01-28 11:24:08.99	108.49	38.54	-34.2	-35.5	19.4	0.00e+00	0	59	0	1191182336	40	4090
2026-01-28 11:24:10.00	108.17	38.72	-34.3	-35.6	19.4	0.00e+00	0	59	0	1197473792	40	4106
2026-01-28 11:24:11.01	107.85	38.91	-34.3	-35.6	19.3	0.00e+00	0	59	0	1202716672	40	4135
2026-01-28 11:24:12.02	107.53	39.09	-34.4	-35.8	19.2	0.00e+00	0	59	0	1207959552	40	4200
2026-01-28 11:24:13.03	107.20	39.27	-34.5	-35.8	19.2	0.00e+00	0	59	0	1214251008	40	4198
2026-01-28 11:24:14.04	106.86	39.45	-34.5	-35.8	19.2	0.00e+00	0	59	0	1219493888	40	4214
2026-01-28 11:24:15.05	106.53	39.64	-34.6	-35.9	19.1	0.00e+00	0	59	0	1225785344	40	4248
2026-01-28 11:24:16.06	106.19	39.82	-34.4	-35.7	19.2	0.00e+00	0	59	0	1231028224	40	4189
2026-01-28 11:24:17.07	105.84	40.00	-34.4	-35.7	19.3	0.00e+00	0	59	0	1236271104	40	4158
2026-01-28 11:24:18.08	105.49	40.18	-34.4	-35.7	19.2	0.00e+00	0	59	0	1242562560	40	4177
2026-01-28 11:24:19.09	105.14	40.36	-34.4	-35.7	19.3	0.00e+00	0	59	0	1247805440	40	4165
2026-01-28 11:24:20.10	104.79	40.54	-34.4	-35.7	19.3	0.00e+00	0	59	0	1254096896	40	4161
2026-01-28 11:24:21.11	104.43	40.72	-34.5	-35.8	19.2	0.00e+00	0	59	0	1259339776	40	4207
2026-01-28 11:24:22.12	104.06	40.90	-34.4	-35.7	19.3	0.00e+00	0	59	0	1265631232	40	4178
2026-01-28 11:24:23.13	103.70	41.08	-34.5	-35.9	19.1	0.00e+00	0	59	0	1270874112	40	4246
2026-01-28 11:24:24.14	103.32	41.26	-34.5	-35.8	19.2	0.00e+00	0	59	0	1277165568	40	4230
2026-01-28 11:24:25.15	102.95	41.44	-34.5	-35.8	19.2	0.00e+00	0	59	0	1282408448	40	4234
2026-01-28 11:24:26.16	102.57	41.62	-34.5	-35.7	19.3	0.00e+00	0	59	0	1287651328	40	4190
2026-01-28 11:24:27.17	102.18	41.80	-34.4	-35.7	19.3	0.00e+00	0	59	0	1293942784	40	4167
2026-01-28 11:24:28.18	101.79	41.97	-34.4	-35.7	19.3	0.00e+00	0	59	0	1299185664	40	4161
2026-01-28 11:24:29.19	101.40	42.15	-34.3	-35.6	19.4	0.00e+00	0	59	0	1305477120	40	4106
2026-01-28 11:24:30.20	101.00	42.32	-34.4	-35.7	19.4	0.00e+00	0	59	0	1310720000	40	4151
2026-01-28 11:24:31.22	100.60	42.50	-34.3	-35.6	19.3	0.00e+00	0	59	0	1315962880	40	4135
2026-01-28 11:24:32.23	100.19	42.67	-34.3	-35.6	19.4	0.00e+00	0	59	0	1322254336	40	4121
2026-01-28 11:24:33.24	99.78	42.85	-34.2	-35.5	19.5	0.00e+00	0	59	0	1327497216	40	4071
2026-01-28 11:24:34.25	99.36	43.02	-34.4	-35.6	19.4	0.00e+00	0	59	0	1333788672	40	4137
2026-01-28 11:24:35.26	98.94	43.19	-34.5	-35.8	19.2	0.00e+00	0	59	0	1339031552	40	4237
2026-01-28 11:24:36.27	98.52	43.36	-34.5	-35.8	19.2	0.00e+00	0	59	0	1344274432	40	4220
2026-01-28 11:24:37.28	98.09	43.53	-34.4	-35.7	19.3	0.00e+00	0	59	0	1350565888	40	4172
2026-01-28 11:24:38.29	97.66	43.70	-34.5	-35.7	19.3	0.00e+00	0	59	0	1355808768	40	4180
2026-01-28 11:24:39.30	97.22	43.86	-34.5	-35.8	19.3	0.00e+00	0	59	0	1362100224	40	4225
2026-01-28 11:24:40.31	96.78	44.03	-34.5	-35.8	19.3	0.00e+00	0	59	0	1367343104	40	4196
2026-01-28 11:24:41.32	96.33	44.19	-34.5	-35.8	19.3	0.00e+00	0	59	0	1373634560	40	4200
2026-01-28 11:24:42.33	95.88	44.36	-34.6	-35.9	19.2	0.00e+00	0	59	0	1378877440	40	4287
2026-01-28 11:24:43.34	95.42	44.52	-34.3	-35.5	19.5	0.00e+00	0	59	0	1385168896	40	4091
2026-01-28 11:24:44.35	94.96	44.68	-34.1	-35.3	19.8	0.00e+00	0	59	0	1390411776	40	3974
2026-01-28 11:24:45.36	94.50	44.84	-34.1	-35.4	19.7	0.00e+00	0	59	0	1395654656	40	4010
2026-01-28 11:24:46.37	94.03	45.00	-34.2	-35.5	19.6	0.00e+00	0	59	0	1401946112	40	4059
2026-01-28 11:24:47.39	93.55	45.15	-34.2	-35.5	19.6	0.00e+00	0	59	0	1407188992	40	4078
2026-01-28 11:24:48.40	93.07	45.31	-34.3	-35.5	19.5	0.00e+00	0	59	0	1413480448	40	4088
2026-01-28 11:24:49.41	92.58	45.46	-34.3	-35.5	19.6	0.00e+00	0	59	0	1418723328	40	4081
2026-01-28 11:24:50.42	92.09	45.61	-34.4	-35.6	19.4	0.00e+00	0	59	0	1423966208	40	4139
2026-01-28 11:24:51.43	91.60	45.76	-34.7	-36.0	19.1	0.00e+00	0	59	0	1430257664	40	4318
2026-01-28 11:24:52.44	91.10	45.91	-35.0	-36.3	18.8	0.00e+00	0	59	0	1435500544	40	4483
2026-01-28 11:24:53.45	90.60	46.05	-35.0	-36.4	18.7	0.00e+00	0	60	0	1441792000	40	4509
2026-01-28 11:24:54.46	90.09	46.20	-34.7	-36.1	19.1	0.00e+00	0	59	0	1447034880	40	4343
2026-01-28 11:24:55.47	89.58	46.34	-34.6	-35.9	19.3	0.00e+00	0	59	0	1452277760	40	4245
2026-01-28 11:24:56.48	89.06	46.48	-34.8	-36.1	19.1	0.00e+00	0	59	0	1458569216	40	4344
2026-01-28 11:24:57.49	88.54	46.62	-35.2	-36.5	18.6	0.00e+00	0	59	0	1463812096	40	4598
2026-01-28 11:24:58.50	88.01	46.75	-35.2	-36.6	18.5	0.00e+00	0	59	0	1470103552	41	4365
2026-01-28 11:24:59.51	87.48	46.88	-35.1	-36.4	18.7	0.00e+00	0	59	0	1475346432	41	4291
2026-01-28 11:25:00.53	86.94	47.02	-35.2	-36.6	18.5	0.00e+00	0	59	0	1481637888	41	4354
2026-01-28 11:25:01.54	86.40	47.14	-35.3	-36.7	18.5	0.00e+00	0	60	0	1486880768	41	4412
2026-01-28 11:25:02.55	85.86	47.27	-35.2	-36.6	18.5	0.00e+00	0	59	0	1493172224	41	4361
2026-01-28 11:25:03.56	85.31	47.39	-35.2	-36.6	18.5	0.00e+00	0	59	0	1498415104	41	4380
2026-01-28 11:25:04.57	84.76	47.51	-35.3	-36.6	18.5	0.00e+00	0	59	0	1503657984	41	4386
2026-01-28 11:25:05.58	84.20	47.63	-35.2	-36.6	18.5	0.00e+00	0	59	0	1509949440	41	4356
2026-01-28 11:25:06.59	83.64	47.75	-35.3	-36.6	18.5	0.00e+00	0	59	0	1515192320	41	4391
2026-01-28 11:25:07.60	83.07	47.86	-35.2	-36.6	18.5	0.00e+00	0	59	0	1521483776	41	4363
2026-01-28 11:25:08.61	82.50	47.97	-35.3	-36.7	18.5	0.00e+00	0	59	0	1526726656	41	4403
2026-01-28 11:25:09.61	81.93	48.08	-35.4	-36.8	18.4	0.00e+00	0	59	0	1531969536	41	4472
2026-01-28 11:25:10.63	81.35	48.18	-35.4	-36.8	18.4	0.00e+00	0	59	0	1538260992	41	4479
2026-01-28 11:25:11.64	80.77	48.28	-35.4	-36.8	18.4	0.00e+00	0	59	0	1543503872	41	4466
2026-01-28 11:25:12.65	80.19	48.38	-35.4	-36.8	18.4	0.00e+00	0	59	0	1549795328	41	4458
2026-01-28 11:25:13.66	79.60	48.48	-35.4	-36.8	18.4	0.00e+00	0	60	0	1555038208	41	4476
2026-01-28 11:25:14.67	79.00	48.57	-35.2	-36.6	18.6	0.00e+00	0	59	0	1560281088	41	4361
2026-01-28 11:25:15.68	78.41	48.66	-35.1	-36.4	18.7	0.00e+00	0	59	0	1566572544	41	4285
2026-01-28 11:25:16.69	77.81	48.74	-35.1	-36.5	18.7	0.00e+00	0	59	0	1571815424	41	4320
2026-01-28 11:25:17.70	77.21	48.83	-35.1	-36.5	18.7	0.00e+00	0	59	0	1578106880	41	4310
2026-01-28 11:25:18.71	76.60	48.90	-34.9	-36.2	19.0	0.00e+00	0	59	0	1583349760	41	4172
2026-01-28 11:25:19.72	75.99	48.98	-34.9	-36.3	19.0	0.00e+00	0	59	0	1589641216	41	4198
2026-01-28 11:25:20.73	75.38	49.05	-35.0	-36.4	18.9	0.00e+00	0	59	0	1594884096	41	4245
2026-01-28 11:25:21.74	74.77	49.12	-34.8	-36.1	19.1	0.00e+00	0	60	0	1601175552	41	4130
2026-01-28 11:25:22.75	74.15	49.19	-34.6	-35.9	19.3	0.00e+00	0	59	0	1606418432	41	4018
2026-01-28 11:25:23.76	73.53	49.25	-34.8	-36.1	19.1	0.00e+00	0	60	0	1611661312	41	4110
2026-01-28 11:25:24.77	72.91	49.31	-35.0	-36.3	18.9	0.00e+00	0	59	0	1617952768	41	4223
2026-01-28 11:25:25.78	72.28	49.36	-35.2	-36.6	18.6	0.00e+00	0	60	0	1623195648	41	4373
2026-01-28 11:25:26.80	71.65	49.42	-35.2	-36.5	18.6	0.00e+00	0	59	0	1629487104	41	4337
2026-01-28 11:25:27.80	71.03	49.46	-35.2	-36.5	18.7	0.00e+00	0	59	0	1634729984	41	4316
2026-01-28 11:25:28.81	70.40	49.51	-35.3	-36.6	18.6	0.00e+00	0	59	0	1639972864	41	4377
2026-01-28 11:25:29.83	69.76	49.55	-35.4	-36.8	18.4	0.00e+00	0	59	0	1646264320	41	4493
2026-01-28 11:25:30.84	69.13	49.59	-35.1	-36.5	18.7	0.00e+00	0	60	0	1651507200	41	4318
2026-01-28 11:25:31.85	68.49	49.62	-34.9	-36.2	19.0	0.00e+00	0	60	0	1657798656	41	4173
2026-01-28 11:25:32.86	67.85	49.65	-34.9	-36.2	19.0	0.00e+00	0	60	0	1663041536	41	4150
2026-01-28 11:25:33.87	67.22	49.67	-35.1	-36.4	18.9	0.00e+00	0	59	0	1668284416	41	4256
2026-01-28 11:25:34.88	66.58	49.70	-35.0	-36.3	18.9	0.00e+00	0	59	0	1674575872	41	4231
2026-01-28 11:25:35.89	65.94	49.71	-34.8	-36.1	19.2	0.00e+00	0	59	0	1679818752	41	4099
2026-01-28 11:25:36.90	65.30	49.73	-34.7	-36.0	19.2	0.00e+00	0	60	0	1686110208	41	4071
2026-01-28 11:25:37.91	64.66	49.74	-34.9	-36.1	19.0	0.00e+00	0	60	0	1691353088	41	4144
2026-01-28 11:25:38.92	64.01	49.75	-35.1	-36.4	18.8	0.00e+00	0	60	0	1697644544	41	4288
2026-01-28 11:25:39.94	63.37	49.75	-35.2	-36.6	18.6	0.00e+00	0	60	0	1702887424	41	4353
2026-01-28 11:25:40.94	62.73	49.75	-35.2	-36.6	18.6	0.00e+00	0	59	0	1709178880	41	4365
2026-01-28 11:25:41.96	62.08	49.74	-35.2	-36.6	18.6	0.00e+00	0	60	0	1714421760	41	4353
2026-01-28 11:25:42.97	61.44	49.73	-35.0	-36.4	18.9	0.00e+00	0	59	0	1719664640	41	4247
2026-01-28 11:25:43.98	60.80	49.72	-34.9	-36.2	19.0	0.00e+00	0	59	0	1725956096	41	4158
2026-01-28 11:25:44.99	60.16	49.70	-35.1	-36.4	18.8	0.00e+00	0	60	0	1731198976	41	4261
2026-01-28 11:25:46.00	59.52	49.68	-35.2	-36.5	18.7	0.00e+00	0	60	0	1737490432	41	4315
2026-01-28 11:25:47.01	58.89	49.66	-35.3	-36.7	18.5	0.00e+00	0	60	0	1742733312	41	4396
2026-01-28 11:25:48.02	58.25	49.63	-35.2	-36.5	18.7	0.00e+00	0	60	0	1747976192	41	4328
2026-01-28 11:25:49.03	57.61	49.60	-35.0	-36.3	18.9	0.00e+00	0	60	0	1754267648	41	4235
2026-01-28 11:25:50.04	56.98	49.57	-35.0	-36.4	18.8	0.00e+00	0	60	0	1759510528	41	4255
2026-01-28 11:25:51.05	56.35	49.53	-35.2	-36.6	18.6	0.00e+00	0	60	0	1765801984	41	4357
2026-01-28 11:25:52.06	55.72	49.48	-35.3	-36.7	18.5	0.00e+00	0	59	0	1771044864	41	4411
2026-01-28 11:25:53.07	55.09	49.44	-35.4	-36.8	18.4	0.00e+00	0	59	0	1776287744	41	4461
2026-01-28 11:25:54.08	54.46	49.39	-35.3	-36.7	18.5	0.00e+00	0	60	0	1782579200	41	4407
2026-01-28 11:25:55.09	53.84	49.33	-35.3	-36.6	18.6	0.00e+00	0	59	0	1787822080	41	4373
2026-01-28 11:25:56.10	53.21	49.28	-35.1	-36.5	18.8	0.00e+00	0	59	0	1794113536	41	4292
2026-01-28 11:25:57.11	52.59	49.22	-35.2	-36.6	18.7	0.00e+00	0	60	0	1799356416	41	4342
2026-01-28 11:25:58.12	51.97	49.15	-35.1	-36.4	18.8	0.00e+00	0	60	0	1805647872	41	4262
2026-01-28 11:25:59.13	51.36	49.08	-35.2	-36.5	18.7	0.00e+00	0	59	0	1810890752	41	4311
2026-01-28 11:26:00.14	50.75	49.01	-35.1	-36.4	18.8	0.00e+00	0	59	0	1817182208	41	4270
2026-01-28 11:26:01.15	50.14	48.94	-34.8	-36.1	19.0	0.00e+00	0	59	0	1822425088	41	4141
2026-01-28 11:26:02.16	49.53	48.86	-34.9	-36.2	19.0	0.00e+00	0	59	0	1827667968	41	4171
2026-01-28 11:26:03.17	48.93	48.78	-35.1	-36.5	18.6	0.00e+00	0	60	0	1833959424	41	4324
2026-01-28 11:26:04.18	48.33	48.69	-35.2	-36.6	18.6	0.00e+00	0	60	0	1839202304	41	4360
2026-01-28 11:26:05.19	47.73	48.61	-35.3	-36.6	18.5	0.00e+00	0	60	0	1845493760	41	4384
2026-01-28 11:26:06.20	47.14	48.52	-35.4	-36.7	18.4	0.00e+00	0	59	0	1850736640	41	4435
2026-01-28 11:26:07.21	46.55	48.42	-35.2	-36.6	18.5	0.00e+00	0	60	0	1855979520	41	4374
2026-01-28 11:26:08.22	45.96	48.33	-35.1	-36.5	18.7	0.00e+00	0	60	0	1862270976	41	4311
2026-01-28 11:26:09.23	45.38	48.23	-35.0	-36.3	18.9	0.00e+00	0	60	0	1867513856	41	4219
2026-01-28 11:26:10.24	44.80	48.12	-35.0	-36.3	18.9	0.00e+00	0	59	0	1873805312	41	4237
2026-01-28 11:26:11.25	44.23	48.02	-34.9	-36.2	19.0	0.00e+00	0	60	0	1879048192	41	4170
2026-01-28 11:26:12.26	43.66	47.91	-35.0	-36.3	18.9	0.00e+00	0	60	0	1884291072	41	4212
2026-01-28 11:26:13.27	43.09	47.80	-35.1	-36.5	18.7	0.00e+00	0	60	0	1890582528	41	4294
2026-01-28 11:26:14.28	42.53	47.68	-35.2	-36.5	18.6	0.00e+00	0	59	0	1895825408	41	4326
2026-01-28 11:26:15.29	41.97	47.57	-35.2	-36.5	18.6	0.00e+00	0	60	0	1902116864	41	4339
2026-01-28 11:26:16.30	41.42	47.45	-35.1	-36.4	18.7	0.00e+00	0	60	0	1907359744	41	4287
2026-01-28 11:26:17.31	40.87	47.33	-35.0	-36.4	18.8	0.00e+00	0	60	0	1913651200	41	4244
2026-01-28 11:26:18.32	40.33	47.20	-35.0	-36.4	18.7	0.00e+00	0	60	0	1918894080	41	4254
2026-01-28 11:26:19.33	39.79	47.07	-35.1	-36.4	18.7	0.00e+00	0	59	0	1925185536	41	4281
2026-01-28 11:26:20.34	39.25	46.94	-35.1	-36.4	18.7	0.00e+00	0	60	0	1930428416	41	4278
2026-01-28 11:26:21.35	38.72	46.81	-35.1	-36.4	18.8	0.00e+00	0	60	0	1935671296	41	4281
2026-01-28 11:26:22.36	38.19	46.68	-35.0	-36.3	18.8	0.00e+00	0	60	0	1941962752	41	4240
2026-01-28 11:26:23.37	37.67	46.54	-34.7	-36.0	19.1	0.00e+00	0	60	0	1947205632	41	4081
2026-01-28 11:26:24.38	37.15	46.41	-34.6	-35.8	19.3	0.00e+00	0	59	0	1953497088	41	3996
2026-01-28 11:26:25.39	36.64	46.27	-34.5	-35.8	19.3	0.00e+00	0	60	0	1958739968	41	3979
2026-01-28 11:26:26.40	36.13	46.12	-34.6	-35.8	19.3	0.00e+00	0	60	0	1963982848	41	3994
2026-01-28 11:26:27.41	35.62	45.98	-34.5	-35.7	19.4	0.00e+00	0	60	0	1970274304	40	4178
2026-01-28 11:26:28.42	35.12	45.83	-34.3	-35.6	19.6	0.00e+00	0	59	0	1975517184	40	4105
2026-01-28 11:26:29.43	34.63	45.68	-34.3	-35.5	19.6	0.00e+00	0	60	0	1981808640	40	4093
2026-01-28 11:26:30.44	34.14	45.53	-34.3	-35.5	19.6	0.00e+00	0	60	0	1987051520	40	4095
2026-01-28 11:26:31.45	33.65	45.38	-34.4	-35.6	19.4	0.00e+00	0	60	0	1992294400	40	4139
2026-01-28 11:26:32.46	33.17	45.23	-34.3	-35.6	19.5	0.00e+00	0	59	0	1998585856	40	4101
2026-01-28 11:26:33.48	32.69	45.07	-34.3	-35.5	19.5	0.00e+00	0	60	0	2003828736	40	4085
2026-01-28 11:26:34.49	32.22	44.92	-34.4	-35.7	19.3	0.00e+00	0	60	0	2010120192	40	4165
2026-01-28 11:26:35.50	31.75	44.76	-34.4	-35.7	19.3	0.00e+00	0	60	0	2015363072	40	4159
2026-01-28 11:26:36.51	31.29	44.60	-34.3	-35.5	19.5	0.00e+00	0	59	0	2021654528	40	4084
2026-01-28 11:26:37.52	30.84	44.44	-34.3	-35.5	19.5	0.00e+00	0	60	0	2026897408	40	4086
2026-01-28 11:26:38.53	30.38	44.28	-34.4	-35.6	19.4	0.00e+00	0	59	0	2033188864	40	4140
2026-01-28 11:26:39.54	29.93	44.11	-34.3	-35.6	19.4	0.00e+00	0	60	0	2038431744	40	4124
2026-01-28 11:26:40.55	29.49	43.95	-34.2	-35.5	19.5	0.00e+00	0	60	0	2043674624	40	4083
2026-01-28 11:26:41.56	29.05	43.78	-34.1	-35.4	19.6	0.00e+00	0	60	0	2049966080	40	4031
2026-01-28 11:26:42.57	28.62	43.62	-34.2	-35.4	19.6	0.00e+00	0	60	0	2055208960	40	4035
2026-01-28 11:26:43.59	28.18	43.45	-34.1	-35.3	19.8	0.00e+00	0	60	0	2061500416	40	3977
2026-01-28 11:26:44.60	27.76	43.28	-34.1	-35.3	19.8	0.00e+00	0	60	0	2066743296	40	3982
2026-01-28 11:26:45.61	27.34	43.11	-34.1	-35.3	19.8	0.00e+00	0	60	0	2071986176	40	3977
2026-01-28 11:26:46.62	26.92	42.94	-34.1	-35.3	19.7	0.00e+00	0	60	0	2078277632	40	3992
2026-01-28 11:26:47.63	26.51	42.76	-34.3	-35.5	19.5	0.00e+00	0	59	0	2083520512	40	4083
2026-01-28 11:26:48.64	26.10	42.59	-34.4	-35.7	19.4	0.00e+00	0	60	0	2089811968	40	4147
2026-01-28 11:26:49.65	25.70	42.42	-34.5	-35.8	19.3	0.00e+00	0	59	0	2095054848	40	4197
2026-01-28 11:26:50.66	25.30	42.24	-34.4	-35.7	19.3	0.00e+00	0	60	0	2100297728	40	4169
2026-01-28 11:26:51.67	24.91	42.07	-34.3	-35.6	19.4	0.00e+00	0	59	0	2106589184	40	4115
2026-01-28 11:26:52.68	24.52	41.89	-34.3	-35.6	19.4	0.00e+00	0	60	0	2111832064	40	4126
2026-01-28 11:26:53.69	24.13	41.72	-34.5	-35.7	19.6	0.00e+00	0	60	0	2118123520	40	4154
2026-01-28 11:26:54.71	23.75	41.54	-34.6	-35.7	19.6	0.00e+00	0	60	0	2123366400	40	4191
2026-01-28 11:26:55.72	23.37	41.36	-34.5	-35.6	19.7	0.00e+00	0	60	0	2129657856	40	4134
2026-01-28 11:26:56.72	23.00	41.18	-34.5	-35.7	19.6	0.00e+00	0	60	0	2134900736	40	4178
2026-01-28 11:26:57.74	22.63	41.00	-34.7	-35.9	19.5	0.00e+00	0	60	0	2141192192	40	4248
2026-01-28 11:26:58.75	22.27	40.82	-34.6	-35.8	19.6	0.00e+00	0	60	0	2146435072	40	4206
2026-01-28 11:26:59.76	21.91	40.64	-34.5	-35.6	19.7	0.00e+00	0	60	0	2151677952	40	4139
2026-01-28 11:27:00.77	21.55	40.46	-34.4	-35.6	19.7	0.00e+00	0	60	0	2157969408	40	4120
2026-01-28 11:27:01.78	21.20	40.28	-34.5	-35.6	19.6	0.00e+00	0	60	0	2163212288	40	4143
2026-01-28 11:27:02.79	20.85	40.10	-34.5	-35.6	19.7	0.00e+00	0	60	0	2169503744	40	4144
2026-01-28 11:27:03.80	20.50	39.92	-34.4	-35.5	19.8	0.00e+00	0	60	0	2174746624	40	4093
2026-01-28 11:27:04.82	20.16	39.74	-34.3	-35.5	19.8	0.00e+00	0	60	0	2179989504	40	4065
2026-01-28 11:27:05.83	19.82	39.56	-34.4	-35.5	19.7	0.00e+00	0	60	0	2186280960	40	4098
2026-01-28 11:27:06.84	19.49	39.38	-34.3	-35.5	19.8	0.00e+00	0	60	0	2191523840	40	4072
2026-01-28 11:27:07.84	19.16	39.20	-34.4	-35.6	19.7	0.00e+00	0	60	0	2197815296	40	4109
2026-01-28 11:27:08.86	18.83	39.01	-34.3	-35.4	19.9	0.00e+00	0	60	0	2203058176	40	4026
2026-01-28 11:27:09.86	18.51	38.83	-34.2	-35.4	19.9	0.00e+00	0	60	0	2208301056	40	4010
2026-01-28 11:27:10.87	18.20	38.65	-34.3	-35.5	19.8	0.00e+00	0	59	0	2214592512	40	4057
2026-01-28 11:27:11.89	17.88	38.47	-34.2	-35.4	19.9	0.00e+00	0	60	0	2219835392	40	4006
2026-01-28 11:27:12.90	17.57	38.29	-34.3	-35.4	19.8	0.00e+00	0	60	0	2226126848	40	4042
2026-01-28 11:27:13.91	17.26	38.11	-34.3	-35.4	19.9	0.00e+00	0	60	0	2231369728	40	4042
2026-01-28 11:27:14.92	16.95	37.92	-34.3	-35.5	19.8	0.00e+00	0	60	0	2237661184	40	4068
2026-01-28 11:27:15.93	16.65	37.74	-34.4	-35.6	19.7	0.00e+00	0	60	0	2242904064	40	4104
2026-01-28 11:27:16.94	16.35	37.56	-34.4	-35.6	19.7	0.00e+00	0	60	0	2249195520	40	4115
2026-01-28 11:27:17.95	16.06	37.38	-34.4	-35.6	19.7	0.00e+00	0	60	0	2254438400	40	4133
2026-01-28 11:27:18.96	15.77	37.20	-34.4	-35.6	19.6	0.00e+00	0	60	0	2259681280	40	4140
2026-01-28 11:27:19.97	15.48	37.02	-34.4	-35.5	19.7	0.00e+00	0	60	0	2265972736	40	4089
2026-01-28 11:27:20.98	15.20	36.84	-34.2	-35.4	19.9	0.00e+00	0	60	0	2271215616	40	4015
2026-01-28 11:27:21.99	14.92	36.66	-34.2	-35.3	19.9	0.00e+00	0	60	0	2277507072	40	4000
2026-01-28 11:27:23.00	14.64	36.47	-34.3	-35.4	19.9	0.00e+00	0	60	0	2282749952	40	4029
2026-01-28 11:27:24.01	14.36	36.29	-34.3	-35.5	19.8	0.00e+00	0	60	0	2287992832	40	4058
2026-01-28 11:27:25.02	14.09	36.11	-34.1	-35.3	20.0	0.00e+00	0	60	0	2294284288	40	3968
2026-01-28 11:27:26.03	13.82	35.93	-34.1	-35.2	20.0	0.00e+00	0	60	0	2299527168	40	3941
2026-01-28 11:27:27.04	13.56	35.75	-34.1	-35.2	20.0	0.00e+00	0	60	0	2305818624	40	3955
2026-01-28 11:27:28.05	13.29	35.58	-34.1	-35.3	20.0	0.00e+00	0	60	0	2311061504	40	3982
2026-01-28 11:27:29.06	13.03	35.40	-34.2	-35.4	19.9	0.00e+00	0	60	0	2316304384	40	4024
2026-01-28 11:27:30.07	12.77	35.22	-34.2	-35.4	19.8	0.00e+00	0	59	0	2322595840	40	4022
2026-01-28 11:27:31.08	12.52	35.04	-34.1	-35.2	20.0	0.00e+00	0	60	0	2327838720	40	3937
2026-01-28 11:27:32.09	12.27	34.86	-34.0	-35.1	20.2	0.00e+00	0	60	0	2334130176	39	4126
2026-01-28 11:27:33.10	12.02	34.69	-33.9	-35.0	20.2	0.00e+00	0	60	0	2339373056	39	4088
2026-01-28 11:27:34.11	11.77	34.51	-34.0	-35.1	20.1	0.00e+00	0	60	0	2345664512	39	4142
2026-01-28 11:27:35.12	11.53	34.33	-34.1	-35.2	20.1	0.00e+00	0	60	0	2350907392	39	4172
2026-01-28 11:27:36.13	11.29	34.16	-34.1	-35.2	20.1	0.00e+00	0	60	0	2357198848	39	4175
2026-01-28 11:27:37.14	11.05	33.98	-34.0	-35.1	20.1	0.00e+00	0	60	0	2362441728	39	4136
2026-01-28 11:27:38.15	10.81	33.80	-34.1	-35.2	20.0	0.00e+00	0	60	0	2367684608	39	4181
2026-01-28 11:27:39.16	10.58	33.63	-34.2	-35.4	19.9	0.00e+00	0	60	0	2373976064	39	4258
2026-01-28 11:27:40.17	10.35	33.46	-34.3	-35.5	19.8	0.00e+00	0	59	0	2379218944	39	4310
2026-01-28 11:27:41.18	10.12	33.28	-34.5	-35.7	19.6	0.00e+00	0	60	0	2384461824	39	4398
2026-01-28 11:27:42.19	9.90	33.11	-34.4	-35.6	19.6	0.00e+00	0	60	0	2390753280	39	4385
2026-01-28 11:27:43.20	9.67	32.93	-34.3	-35.5	19.7	0.00e+00	0	60	0	2395996160	39	4332
2026-01-28 11:27:44.21	9.45	32.76	-34.3	-35.5	19.8	0.00e+00	0	59	0	2402287616	39	4318
2026-01-28 11:27:45.22	9.23	32.59	-34.3	-35.5	19.8	0.00e+00	0	60	0	2407530496	39	4317
2026-01-28 11:27:46.23	9.02	32.42	-34.4	-35.5	19.7	0.00e+00	0	60	0	2412773376	39	4329
2026-01-28 11:27:47.24	8.80	32.25	-34.4	-35.6	19.6	0.00e+00	0	60	0	2419064832	39	4369
2026-01-28 11:27:48.25	8.59	32.08	-34.6	-35.8	19.5	0.00e+00	0	60	0	2424307712	39	4470
2026-01-28 11:27:49.26	8.38	31.91	-34.7	-35.9	19.3	0.00e+00	0	60	0	2430599168	39	4529
2026-01-28 11:27:50.27	8.18	31.74	-34.7	-36.0	19.3	0.00e+00	0	60	0	2435842048	40	4295
2026-01-28 11:27:51.28	7.97	31.57	-34.8	-36.0	19.2	0.00e+00	0	59	0	2442133504	40	4310
2026-01-28 11:27:52.30	7.77	31.40	-34.7	-35.9	19.3	0.00e+00	0	60	0	2447376384	40	4264
2026-01-28 11:27:53.31	7.57	31.23	-34.7	-35.9	19.2	0.00e+00	0	60	0	2453667840	40	4290
2026-01-28 11:27:54.32	7.37	31.07	-34.7	-35.9	19.3	0.00e+00	0	60	0	2458910720	40	4258
2026-01-28 11:27:55.33	7.17	30.90	-34.7	-35.9	19.3	0.00e+00	0	59	0	2464153600	40	4280
2026-01-28 11:27:56.33	6.98	30.73	-34.7	-35.9	19.2	0.00e+00	0	60	0	2470445056	40	4291
2026-01-28 11:27:57.35	6.78	30.57	-34.7	-35.9	19.3	0.00e+00	0	60	0	2475687936	40	4268
2026-01-28 11:27:58.36	6.59	30.40	-34.7	-35.9	19.3	0.00e+00	0	60	0	2481979392	40	4266
2026-01-28 11:27:59.37	6.41	30.24	-34.6	-35.8	19.3	0.00e+00	0	60	0	2487222272	40	4224
2026-01-28 11:28:00.38	6.22	30.07	-34.6	-35.8	19.4	0.00e+00	0	60	0	2492465152	40	4221
2026-01-28 11:28:01.39	6.03	29.91	-34.6	-35.8	19.3	0.00e+00	0	60	0	2498756608	40	4230
2026-01-28 11:28:02.40	5.85	29.75	-34.7	-35.9	19.3	0.00e+00	0	60	0	2503999488	40	4262
2026-01-28 11:28:03.41	5.67	29.59	-34.7	-36.0	19.2	0.00e+00	0	60	0	2510290944	40	4300
2026-01-28 11:28:04.42	5.49	29.43	-34.7	-35.9	19.2	0.00e+00	0	59	0	2515533824	40	4272
2026-01-28 11:28:05.43	5.32	29.27	-34.7	-35.9	19.2	0.00e+00	0	60	0	2521825280	40	4281
2026-01-28 11:28:06.44	5.14	29.11	-34.8	-36.0	19.2	0.00e+00	0	60	0	2527068160	40	4304
2026-01-28 11:28:07.45	4.97	28.95	-34.8	-36.0	19.1	0.00e+00	0	60	0	2532311040	40	4340
2026-01-28 11:28:08.46	4.79	28.79	-34.8	-36.1	19.1	0.00e+00	0	59	0	2538602496	40	4344
2026-01-28 11:28:09.48	4.62	28.63	-34.9	-36.2	19.0	0.00e+00	0	60	0	2543845376	40	4392
2026-01-28 11:28:10.49	4.45	28.47	-35.0	-36.3	18.9	0.00e+00	0	59	0	2550136832	40	4450
2026-01-28 11:28:11.50	4.29	28.31	-34.9	-36.2	19.0	0.00e+00	0	59	0	2555379712	40	4399
2026-01-28 11:28:12.51	4.12	28.16	-35.0	-36.2	18.9	0.00e+00	0	60	0	2561671168	40	4424
2026-01-28 11:28:13.52	3.96	28.00	-35.0	-36.2	18.9	0.00e+00	0	60	0	2566914048	40	4430
2026-01-28 11:28:14.53	3.80	27.85	-34.9	-36.2	18.9	0.00e+00	0	60	0	2572156928	40	4402
2026-01-28 11:28:15.54	3.64	27.69	-35.0	-36.3	18.8	0.00e+00	0	60	0	2578448384	40	4447
2026-01-28 11:28:16.55	3.48	27.54	-34.9	-36.1	18.9	0.00e+00	0	60	0	2583691264	40	4390
2026-01-28 11:28:17.56	3.32	27.38	-34.9	-36.2	19.0	0.00e+00	0	60	0	2589982720	40	4394
2026-01-28 11:28:18.57	3.17	27.23	-34.9	-36.1	19.0	0.00e+00	0	60	0	2595225600	40	4366
2026-01-28 11:28:19.58	3.01	27.08	-34.9	-36.1	18.9	0.00e+00	0	60	0	2600468480	40	4391
2026-01-28 11:28:20.59	2.86	26.93	-34.9	-36.2	18.9	0.00e+00	0	59	0	2606759936	40	4415
2026-01-28 11:28:21.60	2.71	26.78	-35.0	-36.3	18.8	0.00e+00	0	60	0	2612002816	40	4450
2026-01-28 11:28:22.61	2.56	26.63	-35.0	-36.3	18.7	0.00e+00	0	60	0	2618294272	40	4475
2026-01-28 11:28:23.62	2.41	26.48	-35.0	-36.2	18.8	0.00e+00	0	60	0	2623537152	40	4433
2026-01-28 11:28:24.63	2.26	26.33	-34.9	-36.2	18.9	0.00e+00	0	60	0	2628780032	40	4394
2026-01-28 11:28:25.64	2.12	26.18	-34.9	-36.2	18.9	0.00e+00	0	60	0	2635071488	40	4400
2026-01-28 11:28:26.65	1.97	26.03	-35.0	-36.3	18.8	0.00e+00	0	60	0	2640314368	40	4459
2026-01-28 11:28:27.66	1.83	25.89	-34.9	-36.2	18.9	0.00e+00	0	59	0	2646605824	40	4410
2026-01-28 11:28:28.67	1.69	25.74	-34.9	-36.1	18.9	0.00e+00	0	60	0	2651848704	40	4385
2026-01-28 11:28:29.69	1.55	25.59	-34.9	-36.2	18.9	0.00e+00	0	60	0	2658140160	40	4413
2026-01-28 11:28:30.70	1.41	25.45	-34.9	-36.2	18.9	0.00e+00	0	60	0	2663383040	40	4419
2026-01-28 11:28:31.71	1.27	25.30	-34.9	-36.2	18.9	0.00e+00	0	60	0	2668625920	40	4409
2026-01-28 11:28:32.71	1.14	25.16	-34.9	-36.1	18.9	0.00e+00	0	59	0	2674917376	40	4366
2026-01-28 11:28:33.73	1.00	25.01	-34.9	-36.1	18.9	0.00e+00	0	60	0	2680160256	40	4375
2026-01-28 11:28:34.74	0.87	24.87	-34.9	-36.1	18.9	0.00e+00	0	60	0	2686451712	40	4385
2026-01-28 11:28:35.75	0.74	24.73	-34.9	-36.2	18.8	0.00e+00	0	59	0	2691694592	40	4412
2026-01-28 11:28:36.76	0.60	24.59	-35.0	-36.3	18.7	0.00e+00	0	59	0	2697986048	40	4468
2026-01-28 11:28:37.77	0.47	24.45	-35.1	-36.4	18.6	0.00e+00	0	59	0	2703228928	40	4500
2026-01-28 11:28:38.78	0.35	24.31	-35.1	-36.3	18.7	0.00e+00	0	59	0	2708471808	40	4481
2026-01-28 11:28:39.79	0.22	24.17	-35.1	-36.4	18.6	0.00e+00	0	60	0	2714763264	40	4507
2026-01-28 11:28:40.80	0.09	24.03	-35.1	-36.4	18.6	0.00e+00	0	59	0	2720006144	40	4540
2026-01-28 11:28:41.81	359.97	23.89	-35.0	-36.3	18.7	0.00e+00	0	60	0	2726297600	40	4477
2026-01-28 11:28:42.81	359.84	23.75	-35.1	-36.3	18.6	0.00e+00	0	60	0	2731540480	40	4491
2026-01-28 11:28:43.82	359.72	23.61	-35.0	-36.3	18.7	0.00e+00	0	60	0	2736783360	40	4471
2026-01-28 11:28:44.83	359.60	23.48	-35.0	-36.3	18.7	0.00e+00	0	60	0	2743074816	40	4460
2026-01-28 11:28:45.85	359.48	23.34	-35.1	-36.4	18.6	0.00e+00	0	60	0	2748317696	40	4509
2026-01-28 11:28:46.86	359.36	23.20	-35.0	-36.3	18.7	0.00e+00	0	60	0	2754609152	40	4457
2026-01-28 11:28:47.87	359.24	23.07	-35.0	-36.3	18.7	0.00e+00	0	60	0	2759852032	40	4470
2026-01-28 11:28:48.88	359.12	22.93	-35.2	-36.5	18.5	0.00e+00	0	59	0	2765094912	40	4561
2026-01-28 11:28:49.88	359.00	22.80	-35.2	-36.5	18.4	0.00e+00	0	60	0	2771386368	41	4333
2026-01-28 11:28:50.90	358.89	22.67	-35.2	-36.5	18.4	0.00e+00	0	60	0	2776629248	41	4320
2026-01-28 11:28:51.91	358.77	22.53	-35.3	-36.6	18.3	0.00e+00	0	60	0	2782920704	41	4374
2026-01-28 11:28:52.92	358.66	22.40	-35.4	-36.7	18.2	0.00e+00	0	59	0	2788163584	41	4431
2026-01-28 11:28:53.92	358.55	22.27	-35.4	-36.8	18.1	0.00e+00	0	59	0	2794455040	41	4447
2026-01-28 11:28:54.93	358.44	22.14	-35.5	-36.8	18.0	0.00e+00	0	60	0	2799697920	41	4486
2026-01-28 11:28:55.94	358.33	22.01	-35.6	-36.9	17.9	0.00e+00	0	59	0	2805989376	41	4525
2026-01-28 11:28:56.95	358.22	21.88	-35.5	-36.9	18.0	0.00e+00	0	59	0	2811232256	41	4528
2026-01-28 11:28:57.96	358.11	21.75	-35.5	-36.9	18.0	0.00e+00	0	60	0	2816475136	41	4508
2026-01-28 11:28:58.97	358.00	21.62	-35.4	-36.8	18.0	0.00e+00	0	60	0	2822766592	41	4456
2026-01-28 11:28:59.98	357.89	21.49	-35.4	-36.8	18.0	0.00e+00	0	60	0	2828009472	41	4446
2026-01-28 11:29:00.99	357.79	21.36	-35.4	-36.8	17.9	0.00e+00	0	60	0	2834300928	41	4467
2026-01-28 11:29:02.00	357.68	21.24	-35.5	-36.8	17.8	0.00e+00	0	60	0	2839543808	41	4484
2026-01-28 11:29:03.01	357.58	21.11	-35.4	-36.8	17.8	0.00e+00	0	60	0	2844786688	41	4462
2026-01-28 11:29:04.02	357.48	20.98	-35.4	-36.8	17.7	0.00e+00	0	60	0	2851078144	41	4452
2026-01-28 11:29:05.03	357.37	20.86	-35.4	-36.8	17.6	0.00e+00	0	60	0	2856321024	41	4469
2026-01-28 11:29:06.04	357.27	20.73	-35.4	-36.8	17.6	0.00e+00	0	60	0	2862612480	41	4476
2026-01-28 11:29:07.05	357.17	20.61	-35.5	-36.9	17.4	0.00e+00	0	60	0	2867855360	41	4515
2026-01-28 11:29:08.06	357.07	20.48	-35.5	-36.9	17.2	0.00e+00	0	60	0	2873098240	41	4534
2026-01-28 11:29:09.07	356.97	20.36	-35.4	-36.9	17.2	0.00e+00	0	60	0	2879389696	41	4502
2026-01-28 11:29:10.08	356.87	20.24	-35.3	-36.7	17.2	0.00e+00	0	60	0	2884632576	41	4435
2026-01-28 11:29:11.09	356.78	20.12	-35.3	-36.7	17.1	0.00e+00	0	60	0	2890924032	41	4439
2026-01-28 11:29:12.10	356.68	19.99	-35.5	-37.1	16.6	0.00e+00	0	60	0	2896166912	41	4605
2026-01-28 11:29:13.11	356.58	19.87	-35.9	-37.5	16.0	0.00e+00	0	59	0	2902458368	42	4578
2026-01-28 11:29:14.12	356.49	19.75	-36.3	-38.1	15.3	0.00e+00	0	59	0	2907701248	43	4602
2026-01-28 11:29:15.13	356.39	19.63	-37.1	-39.0	14.3	0.00e+00	0	60	0	2912944128	44	4848
2026-01-28 11:29:16.14	356.30	19.51	-37.7	-40.0	13.1	6.80e-06	0	59	0	2919235584	45	5126
2026-01-28 11:29:17.15	356.21	19.39	-38.3	-41.0	11.9	2.09e-04	0	60	0	2924478464	47	5113
2026-01-28 11:29:18.16	356.12	19.27	-39.0	-42.0	10.6	1.47e-03	0	59	0	2930769920	48	5464
2026-01-28 11:29:19.17	356.03	19.15	-39.5	-43.1	9.3	1.18e-02	0	60	0	2936012800	49	5829
2026-01-28 11:29:20.18	355.93	19.03	-39.8	-44.0	8.2	3.18e-02	0	60	0	2942304256	50	6107
2026-01-28 11:29:21.19	355.84	18.92	-40.0	-44.7	7.4	9.51e-02	0	60	0	2947547136	50	6578
2026-01-28 11:29:22.20	355.76	18.80	-40.2	-45.5	6.5	1.65e-01	0	60	0	2952790016	50	7207
2026-01-28 11:29:23.21	355.67	18.68	-40.4	-46.3	5.7	3.04e-01	0	60	0	2959081472	51	7528
2026-01-28 11:29:24.22	355.58	18.57	-40.6	-47.4	4.9	7.51e-01	0	60	0	2961178624	51	8556
2026-01-28 11:29:25.23	355.49	18.45	-40.7	-48.7	4.3	8.17e-01	0	60	0	2961178624	52	9356
2026-01-28 11:29:26.25	355.41	18.33	-40.8	-50.2	3.8	8.41e-01	0	60	104	2961178624	52	11048
2026-01-28 11:29:27.26	355.32	18.22	-41.0	-52.1	3.8	8.46e-01	0	60	104	2961178624	52	13742
2026-01-28 11:29:28.27	355.24	18.11	-41.6	-51.0	3.8	8.41e-01	0	60	104	2961178624	53	11495
2026-01-28 11:29:29.28	355.15	17.99	-40.9	-51.8	3.8	8.47e-01	0	60	104	2961178624	53	12622
2026-01-28 11:29:30.29	355.07	17.88	-41.7	-49.0	4.7	7.97e-01	0	60	0	2961178624	54	8563
2026-01-28 11:29:31.30	354.98	17.77	-41.7	-49.6	4.4	8.20e-01	0	60	0	2961178624	54	9210
2026-01-28 11:29:32.31	354.90	17.65	-41.7	-50.2	4.2	8.37e-01	0	60	0	2961178624	54	9896
2026-01-28 11:29:33.32	354.82	17.54	-41.6	-50.5	3.9	8.40e-01	0	60	104	2961178624	54	10260
2026-01-28 11:29:34.33	354.74	17.43	-41.5	-50.3	4.1	8.42e-01	0	60	0	2961178624	54	10015
2026-01-28 11:29:35.34	354.66	17.32	-41.5	-50.5	3.9	8.41e-01	0	60	104	2961178624	54	10215
2026-01-28 11:29:36.35	354.58	17.21	-41.4	-50.9	3.9	8.45e-01	0	60	104	2961178624	54	10716
2026-01-28 11:29:37.36	354.50	17.10	-41.3	-51.4	3.8	8.45e-01	0	60	104	2961178624	54	11387
2026-01-28 11:29:38.37	354.42	16.99	-41.1	-51.8	3.8	8.46e-01	0	60	104	2961178624	54	11876
2026-01-28 11:29:39.38	354.34	16.88	-40.7	-52.1	3.8	8.48e-01	0	60	104	2961178624	53	13050
2026-01-28 11:29:40.39	354.27	16.77	-40.5	-52.0	3.8	8.47e-01	0	60	104	2961178624	53	12844
2026-01-28 11:29:41.40	354.19	16.66	-40.5	-52.0	3.8	8.46e-01	0	60	104	2961178624	53	12811
2026-01-28 11:29:42.41	354.11	16.55	-40.7	-52.1	3.8	8.47e-01	0	60	104	2961178624	53	13017
2026-01-28 11:29:43.42	354.04	16.44	-40.5	-52.0	3.8	8.47e-01	0	60	104	2961178624	53	12904
2026-01-28 11:29:44.43	353.96	16.34	-40.5	-52.0	3.8	8.45e-01	0	60	104	2961178624	53	12829
2026-01-28 11:29:45.44	353.89	16.23	-40.5	-52.0	3.8	8.46e-01	0	60	104	2961178624	53	12829
2026-01-28 11:29:46.45	353.81	16.12	-40.5	-52.0	3.8	8.47e-01	0	60	104	2961178624	53	12829
2026-01-28 11:29:47.46	353.74	16.02	-40.5	-52.0	3.8	8.46e-01	0	60	104	2961178624	52	13570
2026-01-28 11:29:48.47	353.67	15.91	-40.5	-51.9	3.8	8.47e-01	0	60	104	2961178624	52	13540
2026-01-28 11:29:49.48	353.60	15.81	-40.5	-52.0	3.8	8.46e-01	0	60	104	2961178624	52	13641
2026-01-28 11:29:50.49	353.52	15.70	-40.4	-51.9	3.8	8.46e-01	0	60	104	2961178624	52	13478
2026-01-28 11:29:51.50	353.45	15.60	-40.5	-52.0	3.8	8.47e-01	0	60	104	2961178624	52	13594
2026-01-28 11:29:52.51	353.38	15.49	-40.5	-52.0	3.8	8.45e-01	0	60	104	2961178624	52	13608
2026-01-28 11:29:53.52	353.31	15.39	-40.5	-51.9	3.8	8.46e-01	0	60	104	2961178624	52	13554
2026-01-28 11:29:54.53	353.24	15.29	-40.5	-52.0	3.8	8.46e-01	0	60	104	2961178624	52	13573
2026-01-28 11:29:55.54	353.17	15.19	-40.5	-52.0	3.8	8.47e-01	0	60	104	2961178624	52	13581
2026-01-28 11:29:56.55	353.10	15.08	-40.6	-52.1	3.8	8.45e-01	0	60	104	2961178624	52	13845
2026-01-28 11:29:57.56	353.04	14.98	-40.5	-52.0	3.8	8.45e-01	0	60	104	2961178624	52	13581
2026-01-28 11:29:58.57	352.97	14.88	-40.6	-52.1	3.8	8.46e-01	0	60	104	2961178624	52	13827
2026-01-28 11:29:59.58	352.90	14.78	-40.5	-52.0	3.8	8.47e-01	0	60	104	2961178624	52	13665
2026-01-28 11:30:00.59	352.83	14.68	-40.7	-52.2	3.8	8.46e-01	0	60	104	2961178624	52	13989
2026-01-28 11:30:01.60	352.77	14.58	-40.6	-52.1	3.8	8.46e-01	0	60	104	2961178624	52	13727
2026-01-28 11:30:02.61	352.70	14.48	-40.8	-52.3	3.8	8.46e-01	0	60	104	2961178624	52	14057
2026-01-28 11:30:03.62	352.64	14.38	-40.6	-52.1	3.8	8.46e-01	0	60	104	2961178624	52	13772
2026-01-28 11:30:04.63	352.57	14.28	-40.7	-52.1	3.8	8.46e-01	0	60	104	2961178624	52	13848
2026-01-28 11:30:05.64	352.51	14.18	-40.7	-52.2	3.8	8.46e-01	0	60	104	2961178624	52	13977
2026-01-28 11:30:06.65	352.44	14.08	-40.7	-52.2	3.8	8.46e-01	0	60	104	2961178624	52	13915
2026-01-28 11:30:07.66	352.38	13.98	-40.7	-52.2	3.8	8.46e-01	0	60	104	2961178624	52	13905
2026-01-28 11:30:08.67	352.32	13.88	-40.6	-52.1	3.8	8.44e-01	0	60	104	2961178624	52	13755
2026-01-28 11:30:09.68	352.25	13.79	-40.8	-52.2	3.8	8.46e-01	0	60	104	2961178624	52	14030
2026-01-28 11:30:10.69	352.19	13.69	-40.6	-52.1	3.8	8.46e-01	0	60	104	2961178624	52	13792
2026-01-28 11:30:11.70	352.13	13.59	-40.8	-52.2	3.8	8.47e-01	0	60	104	2961178624	52	14011
2026-01-28 11:30:12.71	352.07	13.50	-40.6	-52.1	3.8	8.45e-01	0	60	104	2961178624	52	13759
2026-01-28 11:30:13.72	352.01	13.40	-40.6	-52.1	3.8	8.46e-01	0	60	104	2961178624	52	13805
2026-01-28 11:30:14.73	351.95	13.30	-40.5	-52.0	3.8	8.46e-01	0	60	104	2961178624	52	13654
2026-01-28 11:30:15.74	351.89	13.21	-40.7	-52.2	3.8	8.46e-01	0	60	104	2961178624	52	14035
2026-01-28 11:30:16.75	351.83	13.11	-40.6	-52.1	3.8	8.46e-01	0	60	104	2961178624	52	13844
2026-01-28 11:30:17.76	351.77	13.02	-40.6	-52.1	3.8	8.46e-01	0	60	104	2961178624	52	13767
