passes_logs/2026/01/28/R2.0S_Moscow/R2.0S_Moscow__20260128_120407_AQUA_rec.log

#Pass ID: 20260128_120407_AQUA
#Satellite: AQUA
#Configuration: AQUA
#almurnet v.1.7.20251203
#Start time: 2026-01-28 12:04:06

#Version: 2.2.20231116
#Station: R2.0S_Moscow
#Location: 37.707566 lon 55.798166 lat
#TLE: 1 27424U 02022A   26027.63960626  .00001831  00000+0  37607-3 0  9998
#TLE: 2 27424  98.4102 354.2809 0001844  63.7090 108.5242 14.61867354262735

#Time	Az	El	Level	Level2	SNR	BER	BlckErr	Temp	State	Recorded	gain1	gain2
2026-01-28 12:04:06.87	172.96	1.98	-43.8	-62.8	3.8	7.47e-01	0	50	0	0	59	31659
2026-01-28 12:04:07.87	172.98	2.05	-43.8	-62.8	3.8	7.44e-01	0	50	104	0	58	33587
2026-01-28 12:04:08.88	173.00	2.11	-43.8	-62.8	3.8	7.45e-01	0	50	104	0	58	33507
2026-01-28 12:04:09.89	173.02	2.18	-43.8	-62.8	3.8	7.46e-01	0	50	104	0	58	33550
2026-01-28 12:04:10.90	173.05	2.25	-43.8	-62.8	3.8	7.46e-01	0	50	104	0	58	33556
2026-01-28 12:04:11.91	173.07	2.32	-43.8	-62.8	3.8	7.44e-01	0	50	104	0	58	33533
2026-01-28 12:04:12.92	173.09	2.38	-43.8	-62.8	3.8	7.44e-01	0	51	104	0	58	33527
2026-01-28 12:04:13.93	173.12	2.45	-43.8	-62.8	3.8	7.45e-01	0	51	104	0	58	33528
2026-01-28 12:04:14.94	173.14	2.52	-43.8	-62.8	3.8	7.50e-01	0	51	104	0	58	33517
2026-01-28 12:04:15.95	173.17	2.59	-43.8	-62.8	3.8	7.45e-01	0	51	104	0	58	33461
2026-01-28 12:04:16.96	173.19	2.65	-43.8	-62.8	3.8	7.45e-01	0	51	104	0	58	33531
2026-01-28 12:04:17.97	173.21	2.72	-43.8	-62.8	3.8	7.44e-01	0	51	104	0	58	33544
2026-01-28 12:04:18.98	173.24	2.79	-43.8	-62.8	3.8	7.46e-01	0	51	104	0	58	33530
2026-01-28 12:04:19.99	173.26	2.86	-43.8	-62.8	3.8	7.45e-01	0	51	104	0	58	33525
2026-01-28 12:04:21.00	173.29	2.93	-43.8	-62.8	3.8	7.49e-01	0	51	104	0	58	33469
2026-01-28 12:04:22.01	173.31	3.00	-43.8	-62.8	3.8	7.44e-01	0	51	104	0	58	33496
2026-01-28 12:04:23.02	173.34	3.07	-43.8	-62.8	3.8	7.46e-01	0	51	104	0	58	33515
2026-01-28 12:04:24.03	173.36	3.14	-43.8	-62.8	3.8	7.46e-01	0	51	104	0	58	33569
2026-01-28 12:04:25.04	173.39	3.21	-43.8	-62.8	3.8	7.45e-01	0	51	104	0	58	33486
2026-01-28 12:04:26.05	173.41	3.28	-43.8	-62.8	3.8	7.47e-01	0	51	104	0	58	33482
2026-01-28 12:04:27.06	173.44	3.35	-43.8	-62.8	3.8	7.45e-01	0	52	104	0	58	33385
2026-01-28 12:04:28.07	173.46	3.42	-43.8	-62.8	3.8	7.43e-01	0	52	104	0	58	33483
2026-01-28 12:04:29.08	173.49	3.49	-43.8	-62.8	3.8	7.46e-01	0	52	104	0	58	33359
2026-01-28 12:04:30.09	173.51	3.56	-43.8	-62.8	3.8	7.46e-01	0	52	104	0	58	33457
2026-01-28 12:04:31.10	173.54	3.63	-43.8	-62.8	3.8	7.45e-01	0	52	104	0	58	33377
2026-01-28 12:04:32.11	173.56	3.70	-43.8	-62.8	3.8	7.42e-01	0	52	104	0	58	33473
2026-01-28 12:04:33.12	173.59	3.77	-43.8	-62.8	3.8	7.44e-01	0	52	104	0	58	33416
2026-01-28 12:04:34.13	173.61	3.85	-43.8	-62.8	3.8	7.45e-01	0	52	104	0	58	33372
2026-01-28 12:04:35.14	173.64	3.92	-43.8	-62.8	3.8	7.46e-01	0	52	104	0	58	33449
2026-01-28 12:04:36.16	173.67	3.99	-43.8	-62.8	3.8	7.44e-01	0	52	104	0	58	33351
2026-01-28 12:04:37.17	173.69	4.06	-43.8	-62.8	3.8	7.41e-01	0	52	104	0	58	33386
2026-01-28 12:04:38.18	173.72	4.13	-43.8	-62.8	3.8	7.45e-01	0	52	104	0	58	33397
2026-01-28 12:04:39.19	173.75	4.21	-43.8	-62.8	3.8	7.44e-01	0	52	104	0	58	33350
2026-01-28 12:04:40.20	173.77	4.28	-43.8	-62.8	3.8	7.45e-01	0	52	104	0	58	33318
2026-01-28 12:04:41.21	173.80	4.35	-43.8	-62.7	3.8	7.44e-01	0	52	104	0	58	33004
2026-01-28 12:04:42.22	173.83	4.43	-43.7	-62.6	3.8	7.44e-01	0	52	104	0	58	32579
2026-01-28 12:04:43.23	173.85	4.50	-43.8	-62.5	3.8	7.45e-01	0	52	104	0	58	32543
2026-01-28 12:04:44.24	173.88	4.57	-43.8	-62.5	3.8	7.44e-01	0	53	104	0	58	32302
2026-01-28 12:04:45.25	173.91	4.65	-43.8	-62.4	3.8	7.47e-01	0	53	104	0	58	31893
2026-01-28 12:04:46.26	173.94	4.72	-43.8	-62.2	3.8	7.45e-01	0	53	104	0	58	31410
2026-01-28 12:04:47.27	173.96	4.80	-43.8	-62.0	3.8	7.44e-01	0	53	104	0	58	30506
2026-01-28 12:04:48.28	173.99	4.87	-43.8	-61.7	3.8	7.45e-01	0	53	104	0	58	29571
2026-01-28 12:04:49.29	174.02	4.95	-43.8	-61.3	3.8	7.46e-01	0	53	104	0	58	28319
2026-01-28 12:04:50.30	174.05	5.02	-43.8	-60.7	3.9	7.44e-01	0	53	104	0	58	26365
2026-01-28 12:04:51.31	174.08	5.10	-43.8	-60.5	3.9	7.42e-01	0	53	104	0	58	25743
2026-01-28 12:04:52.32	174.10	5.17	-43.7	-59.5	4.1	7.36e-01	0	53	104	0	58	22900
2026-01-28 12:04:53.34	174.13	5.25	-43.7	-59.2	3.9	7.38e-01	0	53	104	0	58	22209
2026-01-28 12:04:54.35	174.16	5.32	-43.7	-58.7	4.3	7.32e-01	0	53	104	0	58	21001
2026-01-28 12:04:55.36	174.19	5.40	-43.7	-58.7	4.2	7.29e-01	0	53	104	0	58	20899
2026-01-28 12:04:56.37	174.22	5.48	-43.7	-58.8	4.3	7.28e-01	0	53	104	0	58	21209
2026-01-28 12:04:57.38	174.25	5.55	-43.7	-59.0	4.3	7.33e-01	0	53	104	0	58	21587
2026-01-28 12:04:58.39	174.28	5.63	-43.7	-59.6	4.1	7.45e-01	0	53	104	0	58	23165
2026-01-28 12:04:59.40	174.31	5.71	-43.7	-59.1	4.3	7.30e-01	0	54	104	0	58	21879
2026-01-28 12:05:00.41	174.34	5.79	-43.7	-59.7	4.1	7.45e-01	0	53	104	0	58	23553
2026-01-28 12:05:01.42	174.37	5.86	-43.7	-59.2	4.2	7.29e-01	0	54	104	0	58	22183
2026-01-28 12:05:02.43	174.40	5.94	-43.7	-59.6	3.8	7.43e-01	0	53	104	0	58	23266
2026-01-28 12:05:03.44	174.43	6.02	-43.7	-58.4	4.5	7.27e-01	0	53	104	0	58	20163
2026-01-28 12:05:04.45	174.46	6.10	-43.7	-58.2	4.0	7.38e-01	0	54	104	0	58	19827
2026-01-28 12:05:05.46	174.49	6.18	-43.6	-57.0	5.1	7.02e-01	12	54	0	0	58	17146
2026-01-28 12:05:06.47	174.52	6.26	-43.6	-55.9	5.8	6.85e-01	90	54	0	524288	58	15124
2026-01-28 12:05:07.48	174.55	6.34	-43.5	-55.0	6.5	6.71e-01	93	54	0	2621440	58	13665
2026-01-28 12:05:08.49	174.58	6.41	-43.4	-53.9	7.5	6.54e-01	92	54	0	4194304	58	11999
2026-01-28 12:05:09.50	174.61	6.49	-43.2	-52.8	8.7	6.38e-01	0	54	0	6291456	58	10540
2026-01-28 12:05:10.51	174.64	6.57	-43.1	-52.0	9.6	6.27e-01	0	54	0	7864320	58	9634
2026-01-28 12:05:11.52	174.67	6.66	-42.9	-50.9	10.6	6.20e-01	0	54	0	9961472	57	9067
2026-01-28 12:05:12.53	174.70	6.74	-42.7	-50.1	11.5	6.15e-01	0	54	0	12058624	57	8209
2026-01-28 12:05:13.54	174.74	6.82	-42.6	-49.4	12.2	6.11e-01	0	54	0	13631488	57	7583
2026-01-28 12:05:14.55	174.77	6.90	-42.3	-48.6	13.0	6.10e-01	0	54	0	15728640	56	7368
2026-01-28 12:05:15.56	174.80	6.98	-42.2	-48.1	13.6	6.07e-01	0	54	0	17301504	56	6949
2026-01-28 12:05:16.57	174.83	7.06	-41.8	-47.3	14.3	6.09e-01	0	54	0	19398656	55	6680
2026-01-28 12:05:17.58	174.86	7.14	-41.6	-46.8	14.9	6.08e-01	0	54	0	21495808	55	6282
2026-01-28 12:05:18.59	174.90	7.23	-41.5	-46.4	15.3	6.07e-01	0	54	0	23068672	54	6349
2026-01-28 12:05:19.60	174.93	7.31	-41.4	-46.1	15.5	6.04e-01	0	54	0	25165824	54	6174
2026-01-28 12:05:20.61	174.96	7.39	-41.3	-46.0	15.7	6.07e-01	0	54	0	26738688	54	6070
2026-01-28 12:05:21.62	175.00	7.48	-41.3	-45.9	15.8	6.08e-01	0	54	0	28835840	54	6030
2026-01-28 12:05:22.63	175.03	7.56	-41.2	-45.8	15.9	6.07e-01	0	55	0	30932992	54	5938
2026-01-28 12:05:23.64	175.06	7.64	-41.3	-45.9	15.8	6.08e-01	0	54	0	32505856	54	6010
2026-01-28 12:05:24.65	175.10	7.73	-41.3	-46.0	15.7	6.07e-01	0	54	0	34603008	54	6127
2026-01-28 12:05:25.66	175.13	7.81	-41.4	-46.2	15.5	6.06e-01	0	55	0	36175872	54	6204
2026-01-28 12:05:26.67	175.16	7.90	-41.6	-46.6	15.1	6.05e-01	0	54	0	38273024	54	6523
2026-01-28 12:05:27.68	175.20	7.98	-41.7	-46.9	14.7	6.07e-01	0	54	0	40370176	54	6784
2026-01-28 12:05:28.69	175.23	8.07	-41.5	-45.6	16.6	6.06e-01	0	55	0	41943040	54	5818
2026-01-28 12:05:29.70	175.27	8.15	-41.9	-46.0	16.7	6.07e-01	0	54	0	44040192	54	6123
2026-01-28 12:05:30.72	175.30	8.24	-43.0	-52.4	10.7	6.34e-01	0	55	0	46137344	56	11323
2026-01-28 12:05:31.73	175.34	8.33	-43.2	-52.8	8.3	6.39e-01	7	55	0	46661632	57	11236
2026-01-28 12:05:32.74	175.37	8.41	-41.3	-44.9	18.1	6.08e-01	0	55	0	48234496	54	5352
2026-01-28 12:05:33.75	175.41	8.50	-41.0	-44.3	18.4	6.07e-01	0	55	0	50331648	54	5021
2026-01-28 12:05:34.76	175.44	8.59	-40.9	-44.2	18.5	6.05e-01	0	55	0	52428800	53	5229
2026-01-28 12:05:35.77	175.48	8.67	-40.9	-44.2	18.5	6.07e-01	0	55	0	54001664	53	5264
2026-01-28 12:05:36.78	175.52	8.76	-41.0	-44.3	18.5	6.05e-01	0	55	0	56098816	53	5320
2026-01-28 12:05:37.79	175.55	8.85	-41.0	-44.4	18.5	6.08e-01	0	55	0	57671680	53	5357
2026-01-28 12:05:38.80	175.59	8.94	-41.0	-44.3	18.5	6.08e-01	0	55	0	59768832	53	5331
2026-01-28 12:05:39.81	175.63	9.03	-41.0	-44.3	18.6	6.08e-01	0	55	0	61865984	53	5316
2026-01-28 12:05:40.82	175.66	9.12	-41.0	-44.3	18.6	6.07e-01	0	55	0	63438848	53	5321
2026-01-28 12:05:41.83	175.70	9.21	-41.1	-44.3	18.6	6.06e-01	0	55	0	65536000	53	5340
2026-01-28 12:05:42.84	175.74	9.30	-41.0	-44.2	18.8	6.06e-01	0	55	0	67633152	53	5239
2026-01-28 12:05:43.85	175.78	9.39	-41.0	-44.2	18.8	6.07e-01	0	55	0	69206016	53	5239
2026-01-28 12:05:44.86	175.81	9.48	-41.0	-44.2	18.8	6.05e-01	0	55	0	71303168	53	5223
2026-01-28 12:05:45.87	175.85	9.57	-41.1	-44.3	18.8	6.07e-01	0	55	0	72876032	53	5291
2026-01-28 12:05:46.88	175.89	9.66	-41.0	-44.2	18.8	6.04e-01	0	55	0	74973184	53	5279
2026-01-28 12:05:47.89	175.93	9.75	-41.1	-44.2	18.9	6.04e-01	0	55	0	77070336	53	5267
2026-01-28 12:05:48.90	175.97	9.85	-41.0	-44.1	19.0	6.06e-01	0	55	0	78643200	53	5177
2026-01-28 12:05:49.91	176.01	9.94	-41.0	-44.1	19.0	6.07e-01	0	55	0	80740352	53	5198
2026-01-28 12:05:50.92	176.05	10.03	-41.0	-44.2	18.9	6.09e-01	0	55	0	82313216	53	5239
2026-01-28 12:05:51.93	176.09	10.13	-41.0	-44.1	19.0	6.07e-01	0	56	0	84410368	53	5216
2026-01-28 12:05:52.95	176.13	10.22	-40.9	-44.0	19.1	6.05e-01	0	55	0	86507520	53	5129
2026-01-28 12:05:53.96	176.17	10.31	-40.9	-44.0	19.2	6.07e-01	0	55	0	88080384	53	5108
2026-01-28 12:05:54.97	176.21	10.41	-40.9	-43.9	19.2	6.04e-01	0	55	0	90177536	53	5094
2026-01-28 12:05:55.98	176.25	10.50	-40.9	-43.9	19.3	6.04e-01	0	55	0	92274688	53	5042
2026-01-28 12:05:56.99	176.29	10.60	-40.8	-43.8	19.4	6.07e-01	0	56	0	93847552	53	5001
2026-01-28 12:05:58.00	176.33	10.70	-40.8	-43.8	19.4	6.06e-01	0	56	0	95944704	53	4989
2026-01-28 12:05:59.01	176.37	10.79	-40.8	-43.8	19.4	6.08e-01	0	56	0	97517568	53	5014
2026-01-28 12:06:00.02	176.41	10.89	-40.9	-43.9	19.4	6.07e-01	0	56	0	99614720	53	5044
2026-01-28 12:06:01.03	176.46	10.99	-40.9	-43.9	19.3	6.05e-01	0	56	0	101711872	53	5048
2026-01-28 12:06:02.04	176.50	11.08	-40.8	-43.8	19.5	6.06e-01	0	56	0	103284736	53	4987
2026-01-28 12:06:03.05	176.54	11.18	-40.8	-43.7	19.5	6.06e-01	0	56	0	105381888	53	4951
2026-01-28 12:06:04.06	176.58	11.28	-40.8	-43.8	19.5	6.04e-01	0	56	0	106954752	53	4991
2026-01-28 12:06:05.07	176.63	11.38	-40.8	-43.6	19.6	6.06e-01	0	56	0	109051904	53	4918
2026-01-28 12:06:06.08	176.67	11.48	-40.7	-43.5	19.8	6.08e-01	0	56	0	111149056	53	4843
2026-01-28 12:06:07.09	176.72	11.58	-40.8	-43.6	19.7	6.07e-01	0	56	0	112721920	53	4917
2026-01-28 12:06:08.10	176.76	11.68	-40.8	-43.6	19.6	6.08e-01	0	56	0	114819072	53	4911
2026-01-28 12:06:09.11	176.80	11.78	-40.7	-43.5	19.8	6.06e-01	0	56	0	116391936	53	4830
2026-01-28 12:06:10.12	176.85	11.88	-40.7	-43.5	19.8	6.06e-01	0	56	0	118489088	53	4863
2026-01-28 12:06:11.13	176.89	11.98	-40.7	-43.5	19.8	6.06e-01	0	56	0	120586240	53	4844
2026-01-28 12:06:12.14	176.94	12.08	-40.7	-43.6	19.7	6.04e-01	0	56	0	122159104	53	4888
2026-01-28 12:06:13.15	176.98	12.18	-40.7	-43.6	19.8	6.06e-01	0	56	0	124256256	53	4873
2026-01-28 12:06:14.16	177.03	12.29	-40.7	-43.6	19.7	6.07e-01	0	56	0	125829120	53	4896
2026-01-28 12:06:15.17	177.08	12.39	-40.7	-43.6	19.7	6.06e-01	0	56	0	127926272	53	4875
2026-01-28 12:06:16.18	177.12	12.49	-40.7	-43.5	19.8	6.06e-01	0	56	0	130023424	53	4842
2026-01-28 12:06:17.19	177.17	12.60	-40.7	-43.5	19.8	6.07e-01	0	56	0	131596288	53	4826
2026-01-28 12:06:18.20	177.22	12.70	-40.6	-43.4	19.9	6.06e-01	0	56	0	133693440	53	4793
2026-01-28 12:06:19.21	177.27	12.81	-40.6	-43.4	19.9	6.05e-01	0	56	0	135790592	53	4789
2026-01-28 12:06:20.22	177.31	12.91	-40.7	-43.5	19.9	6.05e-01	0	56	0	137363456	53	4817
2026-01-28 12:06:21.23	177.36	13.02	-40.6	-43.4	20.0	6.05e-01	0	56	0	139460608	53	4772
2026-01-28 12:06:22.24	177.41	13.13	-40.6	-43.3	20.1	6.08e-01	0	56	0	141033472	53	4747
2026-01-28 12:06:23.25	177.46	13.23	-40.6	-43.3	20.1	6.07e-01	0	56	0	143130624	53	4740
2026-01-28 12:06:24.26	177.51	13.34	-40.6	-43.3	20.1	6.06e-01	0	56	0	145227776	53	4759
2026-01-28 12:06:25.28	177.56	13.45	-40.6	-43.3	20.1	6.04e-01	0	56	0	146800640	53	4744
2026-01-28 12:06:26.29	177.61	13.56	-40.6	-43.3	20.1	6.05e-01	0	56	0	148897792	53	4721
2026-01-28 12:06:27.30	177.66	13.67	-40.6	-43.3	20.1	6.07e-01	0	56	0	150470656	53	4730
2026-01-28 12:06:28.31	177.71	13.78	-40.6	-43.3	20.1	6.06e-01	0	56	0	152567808	53	4712
2026-01-28 12:06:29.32	177.76	13.89	-40.6	-43.2	20.2	6.08e-01	0	56	0	154664960	53	4704
2026-01-28 12:06:30.33	177.81	14.00	-40.5	-43.2	20.3	6.04e-01	0	56	0	156237824	53	4666
2026-01-28 12:06:31.34	177.87	14.11	-40.5	-43.1	20.3	6.04e-01	0	56	0	158334976	52	4920
2026-01-28 12:06:32.35	177.92	14.22	-40.5	-43.1	20.3	6.07e-01	0	56	0	160432128	52	4918
2026-01-28 12:06:33.36	177.97	14.34	-40.5	-43.1	20.4	6.04e-01	0	57	0	162004992	52	4895
2026-01-28 12:06:34.37	178.02	14.45	-40.5	-43.2	20.3	6.04e-01	0	56	0	164102144	52	4937
2026-01-28 12:06:35.38	178.08	14.56	-40.4	-43.1	20.4	6.06e-01	0	56	0	165675008	52	4876
2026-01-28 12:06:36.39	178.13	14.68	-40.5	-43.1	20.4	6.06e-01	0	56	0	167772160	52	4900
2026-01-28 12:06:37.40	178.19	14.79	-40.5	-43.2	20.3	6.07e-01	0	57	0	169869312	52	4928
2026-01-28 12:06:38.41	178.24	14.91	-40.6	-43.2	20.2	6.07e-01	0	56	0	171442176	52	4978
2026-01-28 12:06:39.42	178.30	15.02	-40.6	-43.2	20.3	6.09e-01	0	56	0	173539328	52	4967
2026-01-28 12:06:40.43	178.35	15.14	-40.6	-43.2	20.3	6.06e-01	0	56	0	175636480	52	4976
2026-01-28 12:06:41.44	178.41	15.26	-40.5	-43.1	20.3	6.05e-01	0	57	0	177209344	52	4924
2026-01-28 12:06:42.45	178.47	15.37	-40.5	-43.2	20.3	6.06e-01	0	57	0	179306496	52	4931
2026-01-28 12:06:43.45	178.52	15.49	-40.5	-43.2	20.3	6.08e-01	0	57	0	180879360	52	4935
2026-01-28 12:06:44.46	178.58	15.61	-40.5	-43.1	20.4	6.07e-01	0	57	0	182976512	52	4917
2026-01-28 12:06:45.47	178.64	15.73	-40.5	-43.1	20.4	6.07e-01	0	57	0	185073664	52	4925
2026-01-28 12:06:46.48	178.70	15.85	-40.5	-43.1	20.4	6.06e-01	0	57	0	186646528	52	4902
2026-01-28 12:06:47.49	178.76	15.97	-40.5	-43.1	20.4	6.07e-01	0	57	0	188743680	52	4916
2026-01-28 12:06:48.50	178.81	16.09	-40.5	-43.1	20.5	6.07e-01	0	57	0	190316544	52	4878
2026-01-28 12:06:49.52	178.88	16.22	-40.5	-43.1	20.5	6.06e-01	0	57	0	192413696	52	4890
2026-01-28 12:06:50.52	178.93	16.34	-40.4	-43.0	20.6	6.06e-01	0	57	0	194510848	52	4816
2026-01-28 12:06:51.53	179.00	16.46	-40.4	-42.9	20.6	6.06e-01	0	57	0	196083712	52	4800
2026-01-28 12:06:52.54	179.06	16.59	-40.3	-42.9	20.7	6.07e-01	0	57	0	198180864	52	4784
2026-01-28 12:06:53.55	179.12	16.71	-40.4	-42.9	20.7	6.07e-01	0	57	0	199753728	52	4790
2026-01-28 12:06:54.56	179.18	16.84	-40.5	-43.1	20.5	6.03e-01	0	57	0	201850880	52	4875
2026-01-28 12:06:55.57	179.24	16.96	-40.5	-43.1	20.6	6.07e-01	0	57	0	203948032	52	4872
2026-01-28 12:06:56.58	179.31	17.09	-40.6	-43.2	20.4	6.08e-01	0	57	0	205520896	52	4936
2026-01-28 12:06:57.59	179.37	17.22	-40.5	-43.1	20.5	6.08e-01	0	57	0	207618048	52	4910
2026-01-28 12:06:58.60	179.44	17.34	-40.5	-43.1	20.4	6.07e-01	0	57	0	209190912	52	4926
2026-01-28 12:06:59.61	179.50	17.47	-40.5	-43.1	20.5	6.06e-01	0	57	0	211288064	52	4891
2026-01-28 12:07:00.63	179.57	17.60	-40.5	-43.1	20.5	6.06e-01	0	57	0	213385216	52	4882
2026-01-28 12:07:01.64	179.64	17.74	-40.5	-43.0	20.6	6.08e-01	0	57	0	214958080	52	4853
2026-01-28 12:07:02.64	179.70	17.87	-40.5	-43.0	20.6	6.06e-01	0	57	0	217055232	52	4866
2026-01-28 12:07:03.65	179.77	18.00	-40.5	-43.0	20.6	6.05e-01	0	57	0	218628096	52	4863
2026-01-28 12:07:04.66	179.84	18.13	-40.4	-43.0	20.6	6.06e-01	0	57	0	220725248	52	4841
2026-01-28 12:07:05.67	179.91	18.26	-40.5	-43.1	20.6	6.07e-01	0	57	0	222822400	52	4880
2026-01-28 12:07:06.68	179.97	18.40	-40.5	-43.0	20.6	6.08e-01	0	57	0	224395264	52	4847
2026-01-28 12:07:07.69	180.04	18.53	-40.4	-43.0	20.7	6.04e-01	0	57	0	226492416	52	4835
2026-01-28 12:07:08.70	180.12	18.67	-40.5	-43.0	20.6	6.04e-01	0	57	0	228589568	52	4869
2026-01-28 12:07:09.71	180.19	18.80	-40.4	-43.0	20.6	6.06e-01	0	57	0	230162432	52	4837
2026-01-28 12:07:10.72	180.26	18.94	-40.4	-43.0	20.7	6.06e-01	0	57	0	232259584	52	4815
2026-01-28 12:07:11.73	180.33	19.08	-40.5	-43.0	20.6	6.07e-01	0	57	0	233832448	52	4868
2026-01-28 12:07:12.74	180.40	19.22	-40.5	-43.0	20.6	6.06e-01	0	57	0	235929600	52	4845
2026-01-28 12:07:13.75	180.48	19.36	-40.4	-42.9	20.7	6.06e-01	0	57	0	238026752	52	4805
2026-01-28 12:07:14.76	180.55	19.50	-40.5	-43.1	20.6	6.06e-01	0	57	0	239599616	52	4888
2026-01-28 12:07:15.77	180.63	19.64	-40.5	-43.1	20.6	6.06e-01	0	57	0	241696768	52	4902
2026-01-28 12:07:16.78	180.70	19.78	-40.5	-43.0	20.7	6.04e-01	0	57	0	243793920	52	4858
2026-01-28 12:07:17.79	180.78	19.93	-40.5	-43.1	20.6	6.08e-01	0	57	0	245366784	52	4890
2026-01-28 12:07:18.80	180.86	20.07	-40.4	-42.9	20.8	6.05e-01	0	57	0	247463936	52	4777
2026-01-28 12:07:19.81	180.94	20.22	-40.4	-42.9	20.8	6.07e-01	0	57	0	249036800	52	4766
2026-01-28 12:07:20.82	181.01	20.36	-40.4	-42.9	20.8	6.05e-01	0	57	0	251133952	52	4765
2026-01-28 12:07:21.83	181.09	20.51	-40.4	-42.9	20.8	6.07e-01	0	57	0	253231104	52	4789
2026-01-28 12:07:22.84	181.17	20.65	-40.5	-43.0	20.7	6.06e-01	0	57	0	254803968	52	4863
2026-01-28 12:07:23.85	181.26	20.80	-40.5	-43.1	20.6	6.07e-01	0	57	0	256901120	52	4884
2026-01-28 12:07:24.86	181.34	20.95	-40.6	-43.2	20.5	6.06e-01	0	57	0	258473984	52	4932
2026-01-28 12:07:25.87	181.42	21.10	-40.7	-43.3	20.5	6.08e-01	0	57	0	260571136	52	4985
2026-01-28 12:07:26.88	181.50	21.25	-40.6	-43.2	20.5	6.06e-01	0	57	0	262668288	52	4956
2026-01-28 12:07:27.89	181.59	21.41	-40.7	-43.2	20.5	6.06e-01	0	57	0	264241152	52	4982
2026-01-28 12:07:28.90	181.67	21.56	-40.6	-43.2	20.6	6.06e-01	0	57	0	266338304	52	4944
2026-01-28 12:07:29.91	181.76	21.71	-40.6	-43.2	20.6	6.04e-01	0	57	0	267911168	52	4930
2026-01-28 12:07:30.92	181.85	21.87	-40.6	-43.2	20.5	6.09e-01	0	57	0	270008320	52	4965
2026-01-28 12:07:31.93	181.93	22.02	-40.7	-43.2	20.5	6.05e-01	0	57	0	272105472	52	4974
2026-01-28 12:07:32.94	182.02	22.18	-40.7	-43.2	20.5	6.06e-01	0	57	0	273678336	52	4967
2026-01-28 12:07:33.95	182.11	22.34	-40.7	-43.3	20.5	6.06e-01	0	58	0	275775488	52	4990
2026-01-28 12:07:34.96	182.20	22.50	-40.7	-43.3	20.4	6.08e-01	0	58	0	277348352	52	5024
2026-01-28 12:07:35.97	182.29	22.66	-40.8	-43.4	20.4	6.05e-01	0	57	0	279445504	52	5055
2026-01-28 12:07:36.98	182.39	22.82	-40.8	-43.4	20.4	6.05e-01	0	58	0	281542656	52	5079
2026-01-28 12:07:37.99	182.48	22.98	-40.8	-43.4	20.4	6.08e-01	0	58	0	283115520	52	5066
2026-01-28 12:07:39.00	182.58	23.14	-40.8	-43.4	20.4	6.05e-01	0	57	0	285212672	52	5076
2026-01-28 12:07:40.01	182.67	23.31	-40.7	-43.3	20.5	6.04e-01	0	58	0	286785536	52	5017
2026-01-28 12:07:41.02	182.77	23.47	-40.7	-43.3	20.5	6.05e-01	0	57	0	288882688	52	4994
2026-01-28 12:07:42.04	182.87	23.64	-40.7	-43.3	20.5	6.05e-01	0	58	0	290979840	52	5024
2026-01-28 12:07:43.05	182.96	23.81	-40.8	-43.4	20.4	6.05e-01	0	58	0	292552704	52	5077
2026-01-28 12:07:44.06	183.06	23.98	-40.8	-43.4	20.4	6.05e-01	0	58	0	294649856	52	5083
2026-01-28 12:07:45.07	183.16	24.15	-40.9	-43.5	20.3	6.07e-01	0	58	0	296747008	52	5147
2026-01-28 12:07:46.08	183.27	24.32	-40.8	-43.4	20.5	6.05e-01	0	57	0	298319872	52	5057
2026-01-28 12:07:47.09	183.37	24.49	-40.7	-43.3	20.5	6.08e-01	0	58	0	300417024	52	5019
2026-01-28 12:07:48.10	183.47	24.66	-40.8	-43.4	20.5	6.05e-01	0	58	0	301989888	52	5047
2026-01-28 12:07:49.11	183.58	24.84	-40.7	-43.3	20.5	6.06e-01	0	57	0	304087040	52	5022
2026-01-28 12:07:50.12	183.68	25.01	-40.8	-43.4	20.5	6.08e-01	0	58	0	306184192	52	5043
2026-01-28 12:07:51.13	183.79	25.19	-40.9	-43.5	20.4	6.07e-01	0	58	0	307757056	52	5118
2026-01-28 12:07:52.14	183.90	25.37	-40.9	-43.5	20.3	6.06e-01	0	58	0	309854208	52	5147
2026-01-28 12:07:53.15	184.01	25.54	-40.9	-43.5	20.3	6.06e-01	0	58	0	311951360	52	5127
2026-01-28 12:07:54.16	184.12	25.72	-40.9	-43.5	20.3	6.03e-01	0	58	0	313524224	52	5146
2026-01-28 12:07:55.17	184.24	25.91	-40.8	-43.3	20.5	6.05e-01	0	57	0	315621376	52	5034
2026-01-28 12:07:56.18	184.35	26.09	-40.7	-43.2	20.6	6.05e-01	0	57	0	317194240	52	4975
2026-01-28 12:07:57.18	184.46	26.27	-40.7	-43.2	20.6	6.06e-01	0	58	0	319291392	52	4962
2026-01-28 12:07:58.19	184.58	26.45	-40.7	-43.3	20.6	6.05e-01	0	58	0	321388544	52	4999
2026-01-28 12:07:59.20	184.70	26.64	-40.7	-43.3	20.6	6.05e-01	0	58	0	322961408	52	5009
2026-01-28 12:08:00.21	184.82	26.83	-40.7	-43.2	20.6	6.08e-01	0	58	0	325058560	52	4979
2026-01-28 12:08:01.22	184.94	27.02	-40.7	-43.2	20.7	6.06e-01	0	58	0	326631424	52	4966
2026-01-28 12:08:02.23	185.06	27.21	-40.7	-43.2	20.7	6.08e-01	0	58	0	328728576	52	4954
2026-01-28 12:08:03.24	185.18	27.40	-40.6	-43.1	20.8	6.06e-01	0	58	0	330825728	52	4883
2026-01-28 12:08:04.25	185.31	27.59	-40.6	-43.2	20.7	6.06e-01	0	58	0	332398592	52	4933
2026-01-28 12:08:05.26	185.44	27.78	-40.6	-43.1	20.8	6.06e-01	0	58	0	334495744	52	4903
2026-01-28 12:08:06.27	185.56	27.98	-40.5	-43.0	20.9	6.07e-01	0	58	0	336592896	52	4857
2026-01-28 12:08:07.28	185.69	28.18	-40.6	-43.0	20.8	6.05e-01	0	58	0	338165760	52	4862
2026-01-28 12:08:08.29	185.83	28.37	-40.5	-43.0	20.9	6.07e-01	0	58	0	340262912	52	4829
2026-01-28 12:08:09.30	185.96	28.57	-40.5	-43.0	20.9	6.06e-01	0	58	0	341835776	52	4834
2026-01-28 12:08:10.31	186.09	28.77	-40.5	-43.0	20.9	6.05e-01	0	58	0	343932928	52	4830
2026-01-28 12:08:11.32	186.23	28.98	-40.5	-42.9	21.0	6.07e-01	0	58	0	346030080	52	4785
2026-01-28 12:08:12.33	186.37	29.18	-40.4	-42.8	21.0	6.05e-01	0	58	0	347602944	52	4756
2026-01-28 12:08:13.34	186.51	29.39	-40.4	-42.8	21.1	6.07e-01	0	58	0	349700096	52	4733
2026-01-28 12:08:14.35	186.65	29.59	-40.4	-42.9	21.0	6.04e-01	0	58	0	351272960	52	4765
2026-01-28 12:08:15.36	186.79	29.80	-40.5	-43.0	20.9	6.06e-01	0	58	0	353370112	52	4827
2026-01-28 12:08:16.37	186.94	30.01	-40.4	-42.8	21.1	6.06e-01	0	58	0	355467264	52	4709
2026-01-28 12:08:17.38	187.09	30.22	-40.2	-42.5	21.3	6.06e-01	0	58	0	357040128	52	4590
2026-01-28 12:08:18.39	187.24	30.43	-40.1	-42.4	21.5	6.06e-01	0	58	0	359137280	52	4541
2026-01-28 12:08:19.40	187.39	30.65	-40.3	-42.7	21.2	6.05e-01	0	58	0	360710144	52	4690
2026-01-28 12:08:20.41	187.54	30.86	-40.6	-43.1	20.9	6.07e-01	0	58	0	362807296	52	4887
2026-01-28 12:08:21.42	187.70	31.08	-40.7	-43.2	20.7	6.05e-01	0	58	0	364904448	52	4975
2026-01-28 12:08:22.43	187.85	31.30	-40.7	-43.2	20.8	6.07e-01	0	58	0	366477312	52	4928
2026-01-28 12:08:23.44	188.01	31.52	-40.6	-43.0	20.9	6.06e-01	0	58	0	368574464	52	4859
2026-01-28 12:08:24.45	188.18	31.74	-40.6	-43.0	20.9	6.07e-01	0	58	0	370147328	52	4869
2026-01-28 12:08:25.46	188.34	31.96	-40.7	-43.2	20.8	6.08e-01	0	58	0	372244480	52	4952
2026-01-28 12:08:26.47	188.51	32.18	-40.9	-43.4	20.5	6.05e-01	0	58	0	374341632	52	5090
2026-01-28 12:08:27.48	188.68	32.41	-40.9	-43.5	20.4	6.06e-01	0	58	0	375914496	52	5151
2026-01-28 12:08:28.49	188.85	32.64	-40.7	-43.2	20.8	6.08e-01	0	58	0	378011648	52	4940
2026-01-28 12:08:29.50	189.02	32.87	-40.7	-43.2	20.8	6.05e-01	0	58	0	380108800	52	4965
2026-01-28 12:08:30.51	189.20	33.10	-40.9	-43.5	20.5	6.07e-01	0	58	0	381681664	52	5123
2026-01-28 12:08:31.52	189.38	33.33	-40.9	-43.6	20.4	6.05e-01	0	58	0	383778816	52	5165
2026-01-28 12:08:32.53	189.56	33.56	-41.0	-43.7	20.3	6.08e-01	0	58	0	385351680	52	5235
2026-01-28 12:08:33.54	189.74	33.80	-41.1	-43.8	20.1	6.05e-01	0	58	0	387448832	52	5337
2026-01-28 12:08:34.55	189.93	34.04	-41.2	-44.0	20.1	6.06e-01	0	58	0	389545984	52	5405
2026-01-28 12:08:35.56	190.12	34.27	-41.3	-44.0	19.9	6.04e-01	0	58	0	391118848	53	5129
2026-01-28 12:08:36.57	190.31	34.51	-41.1	-43.8	20.2	6.07e-01	0	58	0	393216000	53	4994
2026-01-28 12:08:37.58	190.50	34.76	-41.2	-43.9	20.1	6.07e-01	0	58	0	394788864	53	5092
2026-01-28 12:08:38.59	190.70	35.00	-41.4	-44.2	19.8	6.06e-01	0	58	0	396886016	53	5235
2026-01-28 12:08:39.59	190.90	35.24	-41.5	-44.3	19.7	6.07e-01	0	58	0	398983168	53	5329
2026-01-28 12:08:40.60	191.11	35.49	-41.7	-44.6	19.4	6.07e-01	0	58	0	400556032	53	5510
2026-01-28 12:08:41.61	191.31	35.74	-41.6	-44.5	19.5	6.09e-01	0	58	0	402653184	53	5448
2026-01-28 12:08:42.62	191.52	35.99	-41.6	-44.5	19.6	6.05e-01	0	58	0	404750336	53	5415
2026-01-28 12:08:43.63	191.74	36.24	-41.6	-44.5	19.6	6.06e-01	0	58	0	406323200	53	5426
2026-01-28 12:08:44.64	191.95	36.49	-42.0	-45.1	19.0	6.07e-01	0	58	0	408420352	54	5486
2026-01-28 12:08:45.65	192.17	36.75	-42.0	-45.2	18.8	6.05e-01	0	58	0	409993216	54	5573
2026-01-28 12:08:46.67	192.40	37.01	-42.0	-45.1	18.9	6.05e-01	0	58	0	412090368	54	5495
2026-01-28 12:08:47.68	192.63	37.27	-42.0	-45.2	18.8	6.05e-01	0	58	0	414187520	54	5578
2026-01-28 12:08:48.69	192.86	37.53	-42.2	-45.6	18.5	6.05e-01	0	58	0	415760384	55	5504
2026-01-28 12:08:49.70	193.09	37.79	-42.3	-45.7	18.3	6.06e-01	0	58	0	417857536	55	5548
2026-01-28 12:08:50.71	193.33	38.05	-42.2	-45.5	18.5	6.06e-01	0	58	0	419430400	55	5430
2026-01-28 12:08:51.72	193.58	38.32	-42.1	-45.4	18.6	6.06e-01	0	58	0	421527552	55	5342
2026-01-28 12:08:52.73	193.82	38.58	-42.1	-45.3	18.6	6.06e-01	0	58	0	423624704	55	5338
2026-01-28 12:08:53.74	194.07	38.85	-42.1	-45.3	18.7	6.06e-01	0	58	0	425197568	55	5316
2026-01-28 12:08:54.75	194.33	39.12	-42.0	-45.2	18.8	6.07e-01	0	58	0	427294720	55	5227
2026-01-28 12:08:55.76	194.59	39.39	-42.0	-45.1	18.9	6.07e-01	0	58	0	428867584	55	5194
2026-01-28 12:08:56.77	194.85	39.67	-42.0	-45.1	18.8	6.05e-01	0	58	0	430964736	55	5212
2026-01-28 12:08:57.78	195.12	39.94	-41.9	-44.9	19.1	6.05e-01	0	58	0	433061888	55	5065
2026-01-28 12:08:58.79	195.39	40.22	-41.7	-44.6	19.3	6.05e-01	0	58	0	434634752	55	4919
2026-01-28 12:08:59.80	195.67	40.50	-41.6	-44.5	19.5	6.06e-01	0	58	0	436731904	55	4853
2026-01-28 12:09:00.81	195.95	40.78	-41.6	-44.5	19.5	6.05e-01	0	58	0	438304768	55	4828
2026-01-28 12:09:01.82	196.24	41.06	-41.3	-44.1	19.8	6.05e-01	0	58	0	440401920	54	4890
2026-01-28 12:09:02.83	196.53	41.34	-41.3	-44.2	19.8	6.06e-01	0	58	0	442499072	54	4938
2026-01-28 12:09:03.84	196.83	41.62	-41.3	-44.0	20.0	6.07e-01	0	58	0	444071936	54	4852
2026-01-28 12:09:04.85	197.13	41.91	-41.1	-43.7	20.4	6.05e-01	0	58	0	446169088	54	4673
2026-01-28 12:09:05.86	197.44	42.20	-41.0	-43.6	20.5	6.07e-01	0	58	0	448266240	53	4873
2026-01-28 12:09:06.87	197.76	42.48	-41.0	-43.6	20.5	6.10e-01	0	58	0	449839104	53	4903
2026-01-28 12:09:07.88	198.08	42.77	-40.8	-43.3	20.8	6.04e-01	0	58	0	451936256	53	4719
2026-01-28 12:09:08.89	198.40	43.07	-40.8	-43.3	20.8	6.06e-01	0	58	0	453509120	53	4717
2026-01-28 12:09:09.90	198.73	43.36	-40.7	-43.2	20.9	6.06e-01	0	58	0	455606272	53	4664
2026-01-28 12:09:10.91	199.07	43.65	-40.8	-43.3	20.8	6.05e-01	0	58	0	457703424	53	4719
2026-01-28 12:09:11.92	199.41	43.95	-40.9	-43.4	20.8	6.05e-01	0	58	0	459276288	53	4766
2026-01-28 12:09:12.93	199.76	44.24	-40.7	-43.2	20.8	6.07e-01	0	58	0	461373440	53	4676
2026-01-28 12:09:13.94	200.12	44.54	-40.8	-43.4	20.7	6.07e-01	0	58	0	462946304	53	4770
2026-01-28 12:09:14.95	200.48	44.84	-40.9	-43.5	20.6	6.04e-01	0	58	0	465043456	53	4822
2026-01-28 12:09:15.96	200.86	45.14	-40.6	-43.1	21.0	6.06e-01	0	58	0	467140608	53	4606
2026-01-28 12:09:16.97	201.23	45.44	-40.5	-42.9	21.2	6.04e-01	0	58	0	468713472	53	4533
2026-01-28 12:09:17.98	201.62	45.74	-40.4	-42.7	21.5	6.08e-01	0	58	0	470810624	52	4659
2026-01-28 12:09:18.99	202.01	46.05	-40.5	-42.9	21.2	6.07e-01	0	58	0	472907776	52	4796
2026-01-28 12:09:20.00	202.41	46.35	-40.4	-42.7	21.4	6.04e-01	0	58	0	474480640	52	4663
2026-01-28 12:09:21.01	202.82	46.66	-40.6	-43.0	21.1	6.09e-01	0	58	0	476577792	52	4861
2026-01-28 12:09:22.01	203.23	46.96	-40.7	-43.1	21.0	6.08e-01	0	58	0	478150656	52	4895
2026-01-28 12:09:23.02	203.65	47.27	-40.8	-43.2	20.9	6.05e-01	0	58	0	480247808	52	4977
2026-01-28 12:09:24.03	204.09	47.57	-40.6	-43.0	21.0	6.03e-01	0	58	0	482344960	52	4855
2026-01-28 12:09:25.05	204.53	47.88	-40.4	-42.8	21.2	6.06e-01	0	58	0	483917824	52	4729
2026-01-28 12:09:26.05	204.98	48.19	-40.3	-42.7	21.4	6.06e-01	0	58	0	486014976	52	4657
2026-01-28 12:09:27.06	205.44	48.50	-40.4	-42.8	21.3	6.07e-01	0	58	0	487587840	52	4733
2026-01-28 12:09:28.07	205.91	48.80	-40.3	-42.6	21.4	6.07e-01	0	58	0	489684992	52	4649
2026-01-28 12:09:29.08	206.38	49.11	-40.5	-42.8	21.3	6.06e-01	0	58	0	491782144	52	4747
2026-01-28 12:09:30.09	206.87	49.42	-40.4	-42.7	21.2	6.07e-01	0	58	0	493355008	52	4678
2026-01-28 12:09:31.10	207.37	49.73	-40.3	-42.7	21.4	6.05e-01	0	58	0	495452160	52	4653
2026-01-28 12:09:32.11	207.88	50.04	-40.6	-43.1	21.0	6.04e-01	0	58	0	497025024	52	4874
2026-01-28 12:09:33.12	208.39	50.35	-40.6	-43.0	21.1	6.05e-01	0	58	0	499122176	52	4827
2026-01-28 12:09:34.13	208.92	50.66	-40.5	-42.9	21.2	6.08e-01	0	58	0	501219328	52	4760
2026-01-28 12:09:35.13	209.46	50.96	-40.5	-42.8	21.3	6.06e-01	0	58	0	502792192	52	4749
2026-01-28 12:09:36.15	210.01	51.27	-40.4	-42.8	21.3	6.04e-01	0	58	0	504889344	52	4718
2026-01-28 12:09:37.16	210.58	51.58	-40.4	-42.8	21.4	6.05e-01	0	59	0	506462208	52	4713
2026-01-28 12:09:38.17	211.15	51.89	-40.6	-43.1	21.0	6.05e-01	0	58	0	508559360	52	4874
2026-01-28 12:09:39.17	211.73	52.19	-40.5	-42.9	21.2	6.09e-01	0	59	0	510656512	52	4800
2026-01-28 12:09:40.18	212.33	52.49	-40.4	-42.8	21.3	6.05e-01	0	58	0	512229376	52	4711
2026-01-28 12:09:41.19	212.94	52.79	-40.4	-42.7	21.5	6.05e-01	0	58	0	514326528	52	4668
2026-01-28 12:09:42.20	213.56	53.10	-40.4	-42.7	21.4	6.06e-01	0	58	0	516423680	52	4670
2026-01-28 12:09:43.21	214.20	53.40	-40.2	-42.5	21.6	6.06e-01	0	58	0	517996544	52	4572
2026-01-28 12:09:44.22	214.85	53.69	-40.1	-42.3	21.8	6.05e-01	0	58	0	520093696	52	4449
2026-01-28 12:09:45.23	215.51	53.99	-40.4	-42.8	21.3	6.04e-01	0	59	0	521666560	52	4740
2026-01-28 12:09:46.24	216.19	54.28	-40.4	-42.7	21.4	6.08e-01	0	58	0	523763712	52	4694
2026-01-28 12:09:47.25	216.88	54.57	-40.6	-43.0	21.2	6.08e-01	0	58	0	525860864	52	4820
2026-01-28 12:09:48.26	217.58	54.86	-40.6	-43.0	21.1	6.05e-01	0	59	0	527433728	52	4844
2026-01-28 12:09:49.27	218.30	55.15	-40.8	-43.2	20.9	6.06e-01	0	59	0	529530880	52	4979
2026-01-28 12:09:50.28	219.04	55.43	-41.0	-43.6	20.5	6.07e-01	0	58	0	531103744	52	5181
2026-01-28 12:09:51.30	219.79	55.72	-40.9	-43.5	20.6	6.06e-01	0	59	0	533200896	52	5115
2026-01-28 12:09:52.31	220.55	55.99	-41.1	-43.7	20.4	6.05e-01	0	58	0	535298048	52	5279
2026-01-28 12:09:53.32	221.33	56.27	-41.3	-44.0	20.1	6.07e-01	0	58	0	536870912	53	5138
2026-01-28 12:09:54.33	222.13	56.54	-41.5	-44.4	19.7	6.08e-01	0	59	0	538968064	53	5372
2026-01-28 12:09:55.34	222.94	56.80	-41.2	-44.0	20.1	6.04e-01	0	59	0	541065216	53	5118
2026-01-28 12:09:56.35	223.76	57.07	-41.7	-44.7	19.4	6.05e-01	0	59	0	542638080	53	5535
2026-01-28 12:09:57.36	224.61	57.32	-41.6	-44.5	19.6	6.07e-01	0	59	0	544735232	53	5457
2026-01-28 12:09:58.37	225.46	57.58	-41.8	-44.8	19.1	6.07e-01	0	59	0	546308096	54	5290
2026-01-28 12:09:59.38	226.34	57.82	-41.7	-44.6	19.4	6.03e-01	0	58	0	548405248	54	5174
2026-01-28 12:10:00.39	227.23	58.07	-41.7	-44.7	19.4	6.06e-01	0	59	0	550502400	54	5247
2026-01-28 12:10:01.40	228.13	58.30	-42.0	-45.1	19.0	6.06e-01	0	59	0	552075264	54	5468
2026-01-28 12:10:02.41	229.05	58.53	-41.9	-45.0	19.2	6.05e-01	0	58	0	554172416	54	5434
2026-01-28 12:10:03.42	229.99	58.76	-41.9	-44.9	19.1	6.06e-01	0	59	0	556269568	54	5390
2026-01-28 12:10:04.43	230.94	58.98	-42.1	-45.4	18.7	6.07e-01	0	58	0	557842432	54	5703
2026-01-28 12:10:05.44	231.91	59.19	-42.2	-45.4	18.7	6.06e-01	0	59	0	559939584	55	5364
2026-01-28 12:10:06.45	232.90	59.40	-42.3	-45.6	18.5	6.07e-01	0	59	0	561512448	55	5517
2026-01-28 12:10:07.46	233.90	59.59	-42.5	-45.9	18.2	6.05e-01	0	58	0	563609600	55	5708
2026-01-28 12:10:08.47	234.91	59.79	-42.5	-45.9	18.2	6.08e-01	0	59	0	565706752	55	5676
2026-01-28 12:10:09.48	235.94	59.97	-42.6	-46.1	18.0	6.06e-01	0	59	0	567279616	55	5827
2026-01-28 12:10:10.49	236.98	60.15	-42.5	-46.1	18.0	6.09e-01	0	59	0	569376768	55	5813
2026-01-28 12:10:11.50	238.04	60.31	-42.4	-45.8	18.2	6.08e-01	0	59	0	570949632	55	5625
2026-01-28 12:10:12.51	239.11	60.47	-42.5	-46.0	18.1	6.07e-01	0	59	0	573046784	55	5772
2026-01-28 12:10:13.52	240.20	60.62	-42.3	-45.7	18.4	6.05e-01	0	59	0	575143936	55	5530
2026-01-28 12:10:14.53	241.30	60.77	-42.4	-45.9	18.1	6.07e-01	0	59	0	576716800	55	5661
2026-01-28 12:10:15.54	242.41	60.90	-42.5	-46.0	18.1	6.05e-01	0	59	0	578813952	55	5743
2026-01-28 12:10:16.55	243.53	61.02	-42.5	-45.9	18.1	6.07e-01	0	59	0	580386816	55	5698
2026-01-28 12:10:17.56	244.66	61.14	-42.3	-45.8	18.4	6.04e-01	0	59	0	582483968	55	5593
2026-01-28 12:10:18.57	245.80	61.25	-42.5	-46.1	18.0	6.06e-01	0	59	0	584581120	55	5807
2026-01-28 12:10:19.58	246.95	61.34	-42.6	-46.2	17.9	6.06e-01	0	59	0	586153984	55	5890
2026-01-28 12:10:20.59	248.11	61.43	-42.5	-45.9	18.2	6.08e-01	0	59	0	588251136	55	5694
2026-01-28 12:10:21.60	249.28	61.50	-42.7	-46.3	17.9	6.07e-01	0	59	0	589824000	56	5617
2026-01-28 12:10:22.61	250.45	61.57	-42.9	-46.6	17.6	6.05e-01	0	59	0	591921152	56	5801
2026-01-28 12:10:23.62	251.63	61.62	-42.7	-46.2	18.0	6.08e-01	0	59	0	594018304	56	5561
2026-01-28 12:10:24.63	252.82	61.67	-42.7	-46.3	17.9	6.04e-01	0	59	0	595591168	56	5622
2026-01-28 12:10:25.64	254.00	61.70	-43.0	-46.8	17.4	6.05e-01	0	59	0	597688320	56	5945
2026-01-28 12:10:26.65	255.19	61.73	-42.5	-45.8	18.3	6.06e-01	0	59	0	599261184	56	5332
2026-01-28 12:10:27.66	256.39	61.74	-42.6	-46.0	18.2	6.07e-01	0	59	0	601358336	56	5443
2026-01-28 12:10:28.67	257.58	61.75	-42.7	-46.3	17.7	6.07e-01	0	59	0	603455488	56	5638
2026-01-28 12:10:29.68	258.77	61.74	-42.5	-45.9	18.3	6.06e-01	0	59	0	605028352	56	5352
2026-01-28 12:10:30.69	259.97	61.72	-42.5	-46.0	18.2	6.05e-01	0	59	0	607125504	56	5412
2026-01-28 12:10:31.70	261.15	61.69	-42.8	-46.3	17.8	6.05e-01	0	59	0	609222656	56	5654
2026-01-28 12:10:32.71	262.34	61.65	-42.5	-45.8	18.3	6.06e-01	0	59	0	610795520	56	5304
2026-01-28 12:10:33.72	263.52	61.60	-42.4	-45.7	18.5	6.07e-01	0	59	0	612892672	56	5269
2026-01-28 12:10:34.73	264.70	61.54	-42.5	-45.8	18.4	6.07e-01	0	59	0	614465536	56	5336
2026-01-28 12:10:35.74	265.87	61.47	-42.7	-46.2	18.0	6.07e-01	0	59	0	616562688	56	5563
2026-01-28 12:10:36.75	267.03	61.39	-42.4	-45.6	18.6	6.06e-01	0	59	0	618659840	56	5197
2026-01-28 12:10:37.76	268.19	61.30	-42.3	-45.6	18.5	6.06e-01	0	59	0	620232704	56	5179
2026-01-28 12:10:38.77	269.33	61.20	-42.5	-45.9	18.3	6.06e-01	0	59	0	622329856	56	5370
2026-01-28 12:10:39.78	270.47	61.09	-42.4	-45.6	18.5	6.06e-01	0	59	0	624427008	56	5201
2026-01-28 12:10:40.79	271.60	60.98	-42.3	-45.6	18.5	6.09e-01	0	59	0	625999872	56	5164
2026-01-28 12:10:41.80	272.71	60.85	-42.1	-45.1	19.0	6.05e-01	0	59	0	628097024	56	4913
2026-01-28 12:10:42.81	273.82	60.71	-42.3	-45.6	18.6	6.05e-01	0	59	0	629669888	56	5179
2026-01-28 12:10:43.82	274.91	60.57	-42.3	-45.5	18.7	6.04e-01	0	59	0	631767040	56	5115
2026-01-28 12:10:44.83	275.99	60.41	-41.8	-44.8	19.3	6.07e-01	0	59	0	633864192	55	5000
2026-01-28 12:10:45.84	277.05	60.25	-42.1	-45.3	18.8	6.07e-01	0	59	0	635437056	55	5320
2026-01-28 12:10:46.85	278.10	60.08	-42.3	-45.5	18.6	6.05e-01	0	59	0	637534208	55	5434
2026-01-28 12:10:47.86	279.14	59.90	-42.2	-45.5	18.5	6.05e-01	0	59	0	639107072	55	5437
2026-01-28 12:10:48.87	280.16	59.71	-41.9	-44.8	19.2	6.04e-01	0	59	0	641204224	55	5022
2026-01-28 12:10:49.88	281.17	59.52	-42.0	-45.1	19.0	6.03e-01	0	59	0	643301376	55	5191
2026-01-28 12:10:50.89	282.16	59.32	-42.1	-45.2	18.9	6.05e-01	0	58	0	644874240	55	5239
2026-01-28 12:10:51.90	283.14	59.11	-42.0	-45.0	19.0	6.07e-01	0	59	0	646971392	55	5152
2026-01-28 12:10:52.91	284.10	58.89	-41.9	-44.9	19.2	6.07e-01	0	59	0	648544256	55	5073
2026-01-28 12:10:53.92	285.05	58.67	-41.9	-45.0	19.1	6.06e-01	0	59	0	650641408	55	5112
2026-01-28 12:10:54.93	285.98	58.45	-42.1	-45.2	18.9	6.07e-01	0	59	0	652738560	55	5275
2026-01-28 12:10:55.94	286.89	58.21	-41.9	-45.0	19.1	6.04e-01	0	59	0	654311424	55	5118
2026-01-28 12:10:56.95	287.79	57.97	-41.7	-44.6	19.5	6.07e-01	0	59	0	656408576	55	4892
2026-01-28 12:10:57.96	288.67	57.73	-41.6	-44.4	19.7	6.04e-01	0	59	0	657981440	55	4771
2026-01-28 12:10:58.97	289.53	57.48	-41.7	-44.7	19.3	6.08e-01	0	59	0	660078592	55	4945
2026-01-28 12:10:59.98	290.38	57.23	-41.5	-44.2	19.8	6.06e-01	0	59	0	662175744	55	4692
2026-01-28 12:11:00.99	291.22	56.97	-41.2	-43.9	20.1	6.05e-01	0	59	0	663748608	54	4787
2026-01-28 12:11:02.00	292.03	56.71	-41.3	-44.0	20.1	6.05e-01	0	59	0	665845760	54	4821
2026-01-28 12:11:03.01	292.84	56.44	-41.3	-44.0	20.0	6.05e-01	0	59	0	667418624	54	4848
2026-01-28 12:11:04.02	293.62	56.17	-41.5	-44.3	19.7	6.08e-01	0	59	0	669515776	54	5008
2026-01-28 12:11:05.03	294.39	55.90	-41.4	-44.2	19.8	6.05e-01	0	59	0	671612928	54	4958
2026-01-28 12:11:06.04	295.15	55.62	-41.2	-43.9	20.1	6.07e-01	0	59	0	673185792	54	4799
2026-01-28 12:11:07.05	295.89	55.34	-41.1	-43.7	20.4	6.05e-01	0	59	0	675282944	54	4678
2026-01-28 12:11:08.06	296.62	55.05	-41.1	-43.7	20.3	6.07e-01	0	59	0	677380096	54	4692
2026-01-28 12:11:09.06	297.32	54.77	-41.2	-43.9	20.1	6.06e-01	0	59	0	678952960	54	4803
2026-01-28 12:11:10.07	298.02	54.48	-41.0	-43.7	20.4	6.07e-01	0	59	0	681050112	54	4656
2026-01-28 12:11:11.08	298.71	54.19	-40.8	-43.2	20.8	6.06e-01	0	59	0	682622976	53	4705
2026-01-28 12:11:12.09	299.38	53.90	-40.8	-43.3	20.8	6.07e-01	0	59	0	684720128	53	4715
2026-01-28 12:11:13.10	300.03	53.60	-40.9	-43.5	20.6	6.06e-01	0	59	0	686817280	53	4841
2026-01-28 12:11:14.11	300.68	53.30	-41.0	-43.6	20.6	6.08e-01	0	59	0	688390144	53	4879
2026-01-28 12:11:15.12	301.31	53.00	-41.2	-43.9	20.2	6.06e-01	0	59	0	690487296	53	5093
2026-01-28 12:11:16.13	301.92	52.70	-40.7	-43.2	20.8	6.06e-01	0	59	0	692584448	53	4658
2026-01-28 12:11:17.14	302.53	52.40	-40.7	-43.1	21.0	6.05e-01	0	59	0	694157312	53	4620
2026-01-28 12:11:18.15	303.12	52.10	-41.0	-43.6	20.5	6.06e-01	0	59	0	696254464	53	4912
2026-01-28 12:11:19.16	303.70	51.79	-41.2	-43.9	20.2	6.05e-01	0	59	0	697827328	53	5076
2026-01-28 12:11:20.17	304.27	51.49	-41.3	-44.0	20.1	6.07e-01	0	59	0	699924480	53	5126
2026-01-28 12:11:21.18	304.83	51.18	-41.4	-44.1	20.0	6.05e-01	0	59	0	702021632	53	5202
2026-01-28 12:11:22.19	305.37	50.88	-41.2	-43.9	20.2	6.06e-01	0	59	0	703594496	53	5050
2026-01-28 12:11:23.20	305.91	50.57	-41.2	-43.8	20.3	6.06e-01	0	59	0	705691648	53	5014
2026-01-28 12:11:24.21	306.43	50.26	-41.5	-44.3	19.8	6.08e-01	0	59	0	707264512	53	5307
2026-01-28 12:11:25.22	306.94	49.96	-41.8	-44.7	19.4	6.07e-01	0	59	0	709361664	54	5272
2026-01-28 12:11:26.23	307.45	49.65	-41.8	-44.8	19.3	6.06e-01	0	59	0	711458816	54	5284
2026-01-28 12:11:27.23	307.93	49.34	-41.6	-44.5	19.6	6.06e-01	0	59	0	713031680	54	5134
2026-01-28 12:11:28.24	308.42	49.04	-41.6	-44.4	19.7	6.06e-01	0	59	0	715128832	54	5070
2026-01-28 12:11:29.26	308.89	48.73	-41.4	-44.2	19.9	6.07e-01	0	59	0	716701696	54	4950
2026-01-28 12:11:30.27	309.36	48.42	-41.4	-44.1	20.0	6.04e-01	0	59	0	718798848	54	4916
2026-01-28 12:11:31.28	309.81	48.11	-41.4	-44.1	20.0	6.07e-01	0	59	0	720896000	54	4910
2026-01-28 12:11:32.29	310.26	47.80	-41.5	-44.3	19.8	6.08e-01	0	59	0	722468864	54	5034
2026-01-28 12:11:33.30	310.70	47.50	-41.4	-44.2	19.9	6.08e-01	0	59	0	724566016	54	4958
2026-01-28 12:11:34.31	311.13	47.19	-41.5	-44.3	19.8	6.10e-01	0	59	0	726138880	54	5033
2026-01-28 12:11:35.32	311.55	46.89	-41.3	-44.1	20.0	6.05e-01	0	59	0	728236032	54	4875
2026-01-28 12:11:36.33	311.96	46.59	-41.1	-43.7	20.4	6.07e-01	0	59	0	730333184	54	4665
2026-01-28 12:11:37.34	312.36	46.28	-41.2	-43.8	20.3	6.07e-01	0	59	0	731906048	54	4759
2026-01-28 12:11:38.35	312.76	45.98	-41.4	-44.1	20.0	6.08e-01	0	59	0	734003200	54	4890
2026-01-28 12:11:39.36	313.15	45.68	-41.3	-43.9	20.1	6.04e-01	0	59	0	735576064	54	4808
2026-01-28 12:11:40.37	313.53	45.38	-41.1	-43.7	20.4	6.05e-01	0	59	0	737673216	54	4652
2026-01-28 12:11:41.38	313.90	45.08	-41.2	-43.8	20.3	6.07e-01	0	59	0	739770368	54	4725
2026-01-28 12:11:42.39	314.27	44.78	-41.2	-43.8	20.3	6.05e-01	0	59	0	741343232	54	4752
2026-01-28 12:11:43.40	314.63	44.48	-41.2	-43.9	20.2	6.08e-01	0	59	0	743440384	54	4796
2026-01-28 12:11:44.41	314.98	44.19	-41.3	-43.9	20.1	6.05e-01	0	59	0	745537536	54	4813
2026-01-28 12:11:45.42	315.33	43.89	-41.2	-43.9	20.2	6.06e-01	0	59	0	747110400	54	4787
2026-01-28 12:11:46.43	315.67	43.60	-41.2	-43.9	20.2	6.03e-01	0	59	0	749207552	54	4782
2026-01-28 12:11:47.44	316.01	43.31	-41.3	-44.0	20.1	6.06e-01	0	59	0	750780416	54	4830
2026-01-28 12:11:48.45	316.34	43.02	-41.3	-44.0	20.1	6.06e-01	0	59	0	752877568	54	4819
2026-01-28 12:11:49.46	316.66	42.73	-41.3	-44.0	20.1	6.06e-01	0	59	0	754974720	54	4825
2026-01-28 12:11:50.47	316.98	42.44	-41.4	-44.1	20.0	6.07e-01	0	59	0	756547584	54	4888
2026-01-28 12:11:51.48	317.29	42.15	-41.4	-44.1	20.0	6.06e-01	0	59	0	758644736	54	4902
2026-01-28 12:11:52.49	317.59	41.87	-41.8	-54.1	3.8	7.44e-01	0	59	104	760217600	54	15548
2026-01-28 12:11:53.50	317.89	41.58	-41.9	-54.2	3.8	7.43e-01	0	59	104	760217600	54	15751
2026-01-28 12:11:54.51	318.19	41.30	-42.1	-54.4	3.9	7.41e-01	0	59	104	760217600	54	15955
2026-01-28 12:11:55.52	318.48	41.02	-43.4	-56.5	3.8	7.43e-01	0	59	104	760217600	57	17185
2026-01-28 12:11:56.53	318.76	40.74	-42.4	-54.8	3.8	7.45e-01	0	59	104	760217600	56	15010
2026-01-28 12:11:57.54	319.04	40.47	-44.2	-58.1	3.9	7.44e-01	0	59	104	760217600	59	18508
2026-01-28 12:11:58.54	319.32	40.19	-42.2	-54.7	3.8	7.43e-01	0	59	104	760217600	56	14809
2026-01-28 12:11:59.55	319.59	39.92	-43.6	-57.0	3.8	7.41e-01	0	59	104	760217600	59	16224
2026-01-28 12:12:00.56	319.85	39.64	-42.3	-54.6	3.8	7.47e-01	0	59	104	760217600	56	14700
2026-01-28 12:12:01.57	320.12	39.37	-42.1	-54.3	3.8	7.44e-01	0	59	104	760217600	56	14168
2026-01-28 12:12:02.58	320.37	39.10	-42.2	-54.3	3.8	7.45e-01	0	59	104	760217600	56	14080
2026-01-28 12:12:03.59	320.63	38.84	-42.3	-54.6	3.8	7.45e-01	0	59	104	760217600	56	14577
2026-01-28 12:12:04.60	320.88	38.57	-42.3	-54.7	3.8	7.45e-01	0	59	104	760217600	56	14783
2026-01-28 12:12:05.61	321.12	38.30	-44.2	-58.0	3.8	7.48e-01	0	59	104	760217600	59	18144
2026-01-28 12:12:06.62	321.36	38.04	-41.9	-54.0	3.8	7.50e-01	0	59	104	760217600	55	14379
2026-01-28 12:12:07.63	321.60	37.78	-42.2	-54.3	4.2	7.32e-01	0	59	104	760217600	56	14123
2026-01-28 12:12:08.64	321.83	37.52	-41.8	-53.9	3.7	7.47e-01	0	59	104	760217600	55	14358
2026-01-28 12:12:09.65	322.06	37.26	-41.7	-53.7	4.2	7.29e-01	0	59	104	760217600	55	14011
2026-01-28 12:12:10.66	322.29	37.01	-42.4	-54.7	3.7	7.50e-01	0	59	104	760217600	55	15741
2026-01-28 12:12:11.67	322.51	36.75	-43.2	-56.4	4.1	7.33e-01	0	59	104	760217600	57	16942
2026-01-28 12:12:12.68	322.73	36.50	-43.4	-56.5	3.8	7.46e-01	0	59	104	760217600	57	17218
2026-01-28 12:12:13.69	322.95	36.25	-43.7	-57.2	3.8	7.44e-01	0	59	104	760217600	59	16611
2026-01-28 12:12:14.70	323.16	36.00	-42.0	-54.2	3.8	7.47e-01	0	59	104	760217600	54	15673
2026-01-28 12:12:15.71	323.37	35.75	-42.1	-54.4	3.9	7.47e-01	0	59	104	760217600	56	14336
2026-01-28 12:12:16.72	323.57	35.50	-41.5	-53.6	3.8	7.44e-01	0	59	104	760217600	55	13754
2026-01-28 12:12:17.73	323.78	35.26	-41.4	-53.4	3.8	7.43e-01	0	59	104	760217600	54	14359
2026-01-28 12:12:18.74	323.98	35.01	-41.5	-53.3	3.8	7.48e-01	0	59	104	760217600	54	14155
2026-01-28 12:12:19.75	324.17	34.77	-42.7	-55.0	3.8	7.44e-01	0	59	104	760217600	55	16308
2026-01-28 12:12:20.76	324.37	34.53	-42.4	-54.7	3.8	7.49e-01	0	59	104	760217600	55	15639
2026-01-28 12:12:21.77	324.56	34.29	-44.3	-58.3	3.8	7.41e-01	0	59	104	760217600	59	18852
2026-01-28 12:12:22.78	324.75	34.05	-41.7	-53.7	3.8	7.43e-01	0	59	104	760217600	54	14858
2026-01-28 12:12:23.79	324.93	33.82	-41.1	-53.0	3.8	7.45e-01	0	59	104	760217600	54	13615
2026-01-28 12:12:24.80	325.12	33.59	-41.1	-52.9	3.8	7.44e-01	0	59	104	760217600	54	13569
2026-01-28 12:12:25.81	325.30	33.35	-41.1	-52.9	3.8	7.44e-01	0	59	104	760217600	54	13475
2026-01-28 12:12:26.82	325.48	33.12	-42.7	-55.4	3.8	7.44e-01	0	59	104	760217600	55	16959
2026-01-28 12:12:27.83	325.65	32.89	-43.5	-56.8	3.8	7.40e-01	0	59	104	760217600	57	17879
2026-01-28 12:12:28.84	325.82	32.67	-43.0	-56.0	3.8	7.47e-01	0	59	104	760217600	56	17129
2026-01-28 12:12:29.85	325.99	32.44	-44.7	-59.7	3.9	7.47e-01	0	59	104	760217600	60	20882
2026-01-28 12:12:30.86	326.16	32.22	-42.3	-54.7	3.8	7.43e-01	0	59	104	760217600	54	16603
2026-01-28 12:12:31.87	326.33	31.99	-41.0	-53.0	3.8	7.45e-01	0	59	104	760217600	54	13584
2026-01-28 12:12:32.88	326.49	31.77	-40.9	-52.8	3.8	7.46e-01	0	59	104	760217600	53	14101
2026-01-28 12:12:33.89	326.65	31.55	-40.9	-52.8	3.8	7.46e-01	0	59	104	760217600	53	14077
2026-01-28 12:12:34.90	326.81	31.33	-41.8	-53.9	3.9	7.45e-01	0	59	104	760217600	54	15178
2026-01-28 12:12:35.91	326.97	31.12	-44.4	-58.6	3.7	7.40e-01	0	59	104	760217600	59	19528
2026-01-28 12:12:36.92	327.12	30.90	-43.2	-56.0	3.8	7.48e-01	0	59	104	760217600	56	17271
2026-01-28 12:12:37.93	327.28	30.69	-44.6	-58.9	3.8	7.44e-01	0	59	104	760217600	59	20280
2026-01-28 12:12:38.93	327.43	30.48	-42.4	-54.7	3.8	7.43e-01	0	59	104	760217600	55	15653
2026-01-28 12:12:39.94	327.58	30.27	-40.7	-52.4	3.9	7.45e-01	0	59	104	760217600	53	13541
2026-01-28 12:12:40.95	327.72	30.06	-40.8	-52.6	3.8	7.47e-01	0	59	104	760217600	53	13767
2026-01-28 12:12:41.96	327.87	29.85	-40.7	-52.6	3.8	7.43e-01	0	59	104	760217600	53	13835
2026-01-28 12:12:42.97	328.01	29.65	-42.0	-54.3	3.8	7.47e-01	0	59	104	760217600	54	15920
2026-01-28 12:12:43.98	328.15	29.44	-42.7	-55.4	3.8	7.44e-01	0	59	104	760217600	55	16939
2026-01-28 12:12:44.99	328.29	29.24	-44.7	-59.3	3.9	7.44e-01	0	59	104	760217600	59	21045
2026-01-28 12:12:46.00	328.43	29.04	-43.5	-56.9	3.8	7.42e-01	0	59	104	760217600	58	17021
2026-01-28 12:12:47.01	328.57	28.83	-44.4	-58.7	3.8	7.45e-01	0	59	104	760217600	59	19775
2026-01-28 12:12:48.01	328.70	28.64	-41.2	-53.2	3.8	7.43e-01	0	59	104	760217600	54	13992
2026-01-28 12:12:49.02	328.83	28.44	-41.1	-53.2	3.8	7.45e-01	0	59	104	760217600	54	13969
2026-01-28 12:12:50.03	328.96	28.24	-41.1	-53.1	3.8	7.44e-01	0	59	104	760217600	54	13841
2026-01-28 12:12:51.04	329.09	28.05	-42.0	-54.4	3.8	7.46e-01	0	59	104	760217600	54	15981
2026-01-28 12:12:52.05	329.22	27.85	-44.8	-60.2	3.7	7.47e-01	0	59	104	760217600	60	22121
2026-01-28 12:12:53.06	329.35	27.66	-43.6	-56.9	3.8	7.47e-01	0	59	104	760217600	57	17986
2026-01-28 12:12:54.07	329.47	27.47	-44.4	-58.8	3.8	7.45e-01	0	59	104	760217600	59	19858
2026-01-28 12:12:55.08	329.60	27.28	-42.9	-55.6	3.9	7.44e-01	0	59	104	760217600	56	16348
2026-01-28 12:12:56.10	329.72	27.09	-41.3	-53.2	3.8	7.43e-01	0	59	104	760217600	54	13919
2026-01-28 12:12:57.10	329.84	26.90	-41.3	-53.3	3.8	7.44e-01	0	59	104	760217600	54	14156
2026-01-28 12:12:58.12	329.96	26.72	-41.4	-53.4	3.8	7.42e-01	0	59	104	760217600	54	14263
2026-01-28 12:12:59.13	330.08	26.53	-42.0	-54.4	3.8	7.46e-01	0	59	104	760217600	55	15165
2026-01-28 12:13:00.14	330.19	26.35	-42.8	-55.6	3.8	7.40e-01	0	59	104	760217600	56	16463
2026-01-28 12:13:01.15	330.31	26.16	-44.2	-58.7	3.9	7.40e-01	0	59	104	760217600	60	18609
2026-01-28 12:13:02.16	330.42	25.98	-43.4	-56.8	3.8	7.39e-01	0	60	104	760217600	58	16698
2026-01-28 12:13:03.16	330.53	25.80	-44.6	-60.0	3.8	7.43e-01	0	59	104	760217600	60	21533
2026-01-28 12:13:04.17	330.64	25.63	-41.5	-53.8	3.8	7.43e-01	0	59	104	760217600	55	14067
2026-01-28 12:13:05.18	330.75	25.45	-41.4	-53.8	3.8	7.40e-01	0	59	104	760217600	54	14909
2026-01-28 12:13:06.19	330.86	25.27	-41.3	-53.6	3.8	7.44e-01	0	59	104	760217600	54	14629
2026-01-28 12:13:07.20	330.97	25.10	-42.1	-54.8	3.9	7.45e-01	0	59	104	760217600	55	15774
2026-01-28 12:13:08.21	331.08	24.92	-44.0	-58.3	3.9	7.45e-01	0	60	104	760217600	59	18737
2026-01-28 12:13:09.22	331.18	24.75	-43.7	-57.5	3.8	7.45e-01	0	59	104	760217600	58	18192
2026-01-28 12:13:10.23	331.29	24.58	-44.0	-58.3	3.8	7.44e-01	0	59	104	760217600	59	18737
2026-01-28 12:13:11.24	331.39	24.41	-42.9	-55.8	3.8	7.44e-01	0	59	104	760217600	56	16844
2026-01-28 12:13:12.25	331.49	24.24	-41.5	-53.7	3.8	7.43e-01	0	59	104	760217600	55	14019
2026-01-28 12:13:13.26	331.59	24.07	-41.5	-53.7	3.8	7.44e-01	0	60	104	760217600	55	13895
2026-01-28 12:13:14.27	331.69	23.90	-41.4	-53.4	3.8	7.47e-01	0	59	104	760217600	54	14371
2026-01-28 12:13:15.28	331.79	23.74	-41.5	-53.6	3.8	7.44e-01	0	59	104	760217600	54	14638
2026-01-28 12:13:16.29	331.89	23.57	-42.3	-54.7	3.8	7.41e-01	0	59	104	760217600	56	14849
2026-01-28 12:13:17.30	331.98	23.41	-43.9	-57.8	3.8	7.45e-01	0	59	104	760217600	59	17822
2026-01-28 12:13:18.31	332.08	23.24	-42.9	-55.7	3.9	7.45e-01	0	59	104	760217600	57	15601
2026-01-28 12:13:19.32	332.17	23.08	-44.0	-58.1	3.9	7.46e-01	0	59	104	760217600	59	18324
2026-01-28 12:13:20.33	332.27	22.92	-41.5	-53.5	3.8	7.44e-01	0	60	104	760217600	54	14483
2026-01-28 12:13:21.34	332.36	22.76	-41.4	-53.4	3.8	7.45e-01	0	59	104	760217600	54	14240
2026-01-28 12:13:22.34	332.45	22.60	-41.2	-53.1	3.8	7.45e-01	0	59	104	760217600	54	13734
2026-01-28 12:13:23.35	332.54	22.45	-41.4	-53.3	3.9	7.44e-01	0	59	104	760217600	54	14145
2026-01-28 12:13:24.36	332.63	22.29	-42.5	-55.3	3.9	7.44e-01	0	59	104	760217600	57	15004
2026-01-28 12:13:25.37	332.72	22.13	-43.4	-56.8	3.8	7.46e-01	0	59	104	760217600	57	17826
2026-01-28 12:13:26.38	332.81	21.98	-42.7	-55.5	3.9	7.47e-01	0	59	104	760217600	57	15338
2026-01-28 12:13:27.39	332.89	21.82	-42.6	-55.4	3.8	7.42e-01	0	60	104	760217600	56	16081
2026-01-28 12:13:28.40	332.98	21.67	-41.8	-54.2	3.8	7.42e-01	0	60	104	760217600	55	14758
2026-01-28 12:13:29.41	333.07	21.52	-41.8	-54.1	3.8	7.45e-01	0	60	104	760217600	55	14690
2026-01-28 12:13:30.42	333.15	21.37	-41.5	-53.7	3.8	7.44e-01	0	59	104	760217600	55	13957
2026-01-28 12:13:31.43	333.24	21.22	-41.5	-53.7	3.8	7.44e-01	0	59	104	760217600	54	14798
2026-01-28 12:13:32.44	333.32	21.07	-41.3	-53.5	3.9	7.50e-01	0	59	104	760217600	54	14440
2026-01-28 12:13:33.45	333.40	20.92	-43.3	-56.8	3.8	7.45e-01	0	59	104	760217600	58	16734
2026-01-28 12:13:34.46	333.48	20.77	-41.7	-54.1	3.8	7.47e-01	0	60	104	760217600	55	14614
2026-01-28 12:13:35.48	333.56	20.62	-42.9	-56.2	3.9	7.43e-01	0	59	104	760217600	58	15655
2026-01-28 12:13:36.48	333.64	20.48	-41.3	-53.5	3.8	7.42e-01	0	59	104	760217600	54	14535
2026-01-28 12:13:37.49	333.72	20.33	-41.1	-53.3	3.8	7.43e-01	0	59	104	760217600	54	14167
2026-01-28 12:13:38.50	333.80	20.19	-41.3	-53.5	3.8	7.44e-01	0	59	104	760217600	54	14415
2026-01-28 12:13:39.51	333.88	20.05	-41.6	-54.0	3.8	7.47e-01	0	59	104	760217600	55	14453
2026-01-28 12:13:40.52	333.95	19.91	-41.2	-53.3	3.8	7.44e-01	0	59	104	760217600	54	14159
2026-01-28 12:13:41.53	334.03	19.76	-43.5	-57.1	3.8	7.47e-01	0	60	104	760217600	58	17320
2026-01-28 12:13:42.54	334.11	19.62	-41.5	-53.8	3.8	7.46e-01	0	59	104	760217600	55	14146
2026-01-28 12:13:43.55	334.18	19.48	-43.3	-56.7	3.8	7.41e-01	0	60	104	760217600	58	16619
2026-01-28 12:13:44.56	334.26	19.34	-42.5	-55.1	3.8	7.42e-01	0	59	104	760217600	56	15578
2026-01-28 12:13:45.57	334.33	19.21	-42.4	-55.0	3.8	7.49e-01	0	60	104	760217600	56	15351
2026-01-28 12:13:46.58	334.40	19.07	-41.3	-53.4	3.8	7.45e-01	0	60	104	760217600	54	14289
2026-01-28 12:13:47.59	334.47	18.93	-42.3	-55.1	3.8	7.42e-01	0	59	104	760217600	55	16386
2026-01-28 12:13:48.60	334.55	18.80	-41.1	-53.2	3.8	7.47e-01	0	59	104	760217600	53	14732
2026-01-28 12:13:49.61	334.62	18.66	-43.3	-56.8	3.8	7.43e-01	0	60	104	760217600	57	17687
2026-01-28 12:13:50.62	334.69	18.53	-41.2	-53.3	3.8	7.47e-01	0	59	104	760217600	54	14170
2026-01-28 12:13:51.63	334.76	18.39	-41.7	-54.1	3.8	7.49e-01	0	59	104	760217600	55	14702
2026-01-28 12:13:52.64	334.83	18.26	-41.3	-53.5	3.8	7.44e-01	0	60	104	760217600	54	14460
2026-01-28 12:13:53.65	334.89	18.13	-41.2	-53.2	3.8	7.45e-01	0	59	104	760217600	54	13935
2026-01-28 12:13:54.66	334.96	18.00	-41.3	-53.3	3.8	7.46e-01	0	60	104	760217600	54	14146
2026-01-28 12:13:55.67	335.03	17.87	-41.8	-54.0	3.8	7.45e-01	0	59	104	760217600	54	15331
2026-01-28 12:13:56.68	335.10	17.74	-42.0	-54.4	3.8	7.46e-01	0	60	104	760217600	54	16061
2026-01-28 12:13:57.69	335.16	17.61	-42.9	-56.0	3.8	7.44e-01	0	59	104	760217600	57	16248
2026-01-28 12:13:58.70	335.23	17.48	-41.3	-53.3	3.8	7.43e-01	0	59	104	760217600	53	15049
2026-01-28 12:13:59.71	335.29	17.35	-41.5	-53.8	3.8	7.45e-01	0	59	104	760217600	55	14055
2026-01-28 12:14:00.72	335.36	17.23	-41.0	-53.0	3.8	7.46e-01	0	60	104	760217600	54	13617
2026-01-28 12:14:01.73	335.42	17.10	-40.9	-52.9	3.8	7.44e-01	0	59	104	760217600	53	14256
2026-01-28 12:14:02.74	335.48	16.98	-41.6	-53.9	3.8	7.45e-01	0	60	104	760217600	53	16051
2026-01-28 12:14:03.75	335.55	16.85	-42.0	-54.6	3.8	7.45e-01	0	60	104	760217600	54	16394
2026-01-28 12:14:04.76	335.61	16.73	-42.1	-54.6	3.8	7.44e-01	0	59	104	760217600	54	16487
2026-01-28 12:14:05.77	335.67	16.60	-43.6	-57.6	3.8	7.46e-01	0	60	104	760217600	57	19520
2026-01-28 12:14:06.78	335.73	16.48	-41.7	-54.1	3.8	7.46e-01	0	59	104	760217600	54	15477
2026-01-28 12:14:07.79	335.79	16.36	-41.4	-53.6	3.8	7.48e-01	0	59	104	760217600	54	14690
2026-01-28 12:14:08.80	335.85	16.24	-41.2	-53.4	3.8	7.48e-01	0	60	104	760217600	54	14276
2026-01-28 12:14:09.81	335.91	16.12	-41.1	-53.3	3.8	7.49e-01	0	59	104	760217600	54	14127
2026-01-28 12:14:10.82	335.97	16.00	-41.3	-53.6	3.8	7.41e-01	0	59	104	760217600	54	14621
2026-01-28 12:14:11.83	336.03	15.88	-42.2	-55.0	3.8	7.49e-01	0	59	104	760217600	54	17256
2026-01-28 12:14:12.84	336.09	15.76	-43.2	-56.7	3.8	7.49e-01	0	60	104	760217600	56	18727
2026-01-28 12:14:13.85	336.15	15.64	-43.4	-57.3	3.8	7.42e-01	0	60	104	760217600	58	17822
2026-01-28 12:14:14.86	336.21	15.52	-42.7	-55.8	3.8	7.44e-01	0	59	104	760217600	55	17806
2026-01-28 12:14:15.87	336.26	15.40	-42.2	-55.0	3.8	7.46e-01	0	60	104	760217600	56	15398
2026-01-28 12:14:16.88	336.32	15.29	-41.8	-54.4	3.8	7.45e-01	0	59	104	760217600	55	15201
2026-01-28 12:14:17.89	336.38	15.17	-41.5	-53.9	3.8	7.46e-01	0	59	104	760217600	54	15129
2026-01-28 12:14:18.90	336.43	15.06	-41.3	-53.7	3.8	7.46e-01	0	59	104	760217600	54	14757
2026-01-28 12:14:19.91	336.49	14.94	-43.8	-58.4	3.8	7.46e-01	0	59	104	760217600	58	20075
2026-01-28 12:14:20.92	336.54	14.83	-43.0	-56.6	3.8	7.44e-01	0	59	104	760217600	56	18451
2026-01-28 12:14:21.94	336.60	14.71	-43.8	-58.4	3.8	7.44e-01	0	59	104	760217600	58	20155
2026-01-28 12:14:22.94	336.65	14.60	-41.8	-54.6	3.8	7.43e-01	0	59	104	760217600	54	16434
2026-01-28 12:14:23.95	336.71	14.49	-41.1	-53.5	3.8	7.46e-01	0	59	104	760217600	54	14476
2026-01-28 12:14:24.97	336.76	14.37	-41.2	-53.5	3.8	7.45e-01	0	60	104	760217600	54	14509
2026-01-28 12:14:25.98	336.81	14.26	-41.2	-53.7	3.8	7.42e-01	0	59	104	760217600	54	14709
2026-01-28 12:14:26.99	336.87	14.15	-42.2	-55.5	3.8	7.42e-01	0	59	104	760217600	54	18292
2026-01-28 12:14:28.00	336.92	14.04	-42.5	-56.2	3.8	7.45e-01	0	60	104	760217600	55	18558
2026-01-28 12:14:29.00	336.97	13.93	-43.9	-58.6	3.8	7.43e-01	0	59	104	760217600	58	20741
2026-01-28 12:14:30.01	337.02	13.82	-43.3	-57.6	3.8	7.46e-01	0	60	104	760217600	58	18403
2026-01-28 12:14:31.02	337.07	13.72	-44.1	-59.1	3.8	7.41e-01	0	59	104	760217600	58	21776
2026-01-28 12:14:32.03	337.12	13.61	-42.1	-55.1	3.8	7.44e-01	0	60	104	760217600	56	15433
2026-01-28 12:14:33.04	337.17	13.50	-41.7	-54.5	3.8	7.46e-01	0	60	104	760217600	55	15359
2026-01-28 12:14:34.05	337.22	13.39	-41.4	-54.1	3.8	7.44e-01	0	60	104	760217600	54	15449
2026-01-28 12:14:35.06	337.27	13.29	-41.1	-53.6	3.8	7.45e-01	0	59	104	760217600	54	14595
2026-01-28 12:14:36.07	337.32	13.18	-44.0	-59.2	3.9	7.45e-01	0	60	104	760217600	58	22176
2026-01-28 12:14:37.08	337.37	13.07	-42.9	-57.4	3.8	7.46e-01	0	60	104	760217600	56	20123
2026-01-28 12:14:38.09	337.42	12.97	-43.9	-59.0	3.8	7.45e-01	0	60	104	760217600	58	21588
2026-01-28 12:14:39.10	337.47	12.86	-42.0	-55.6	3.8	7.44e-01	0	60	104	760217600	54	18347
2026-01-28 12:14:40.11	337.52	12.76	-41.3	-54.2	3.8	7.41e-01	0	59	104	760217600	54	15691
2026-01-28 12:14:41.12	337.57	12.66	-41.3	-54.4	3.8	7.43e-01	0	60	104	760217600	54	15975
2026-01-28 12:14:42.13	337.61	12.55	-41.3	-54.3	3.8	7.47e-01	0	59	104	760217600	54	15763
2026-01-28 12:14:43.14	337.66	12.45	-41.0	-53.8	3.8	7.46e-01	0	60	104	760217600	54	14979
2026-01-28 12:14:44.15	337.71	12.35	-42.0	-55.7	3.9	7.45e-01	0	59	104	760217600	55	17641
2026-01-28 12:14:45.16	337.75	12.25	-43.6	-58.5	3.8	7.46e-01	0	59	104	760217600	58	20358
2026-01-28 12:14:46.17	337.80	12.14	-42.6	-56.8	3.9	7.46e-01	0	59	104	760217600	57	17871
2026-01-28 12:14:47.18	337.84	12.04	-43.7	-58.7	3.8	7.45e-01	0	59	104	760217600	58	21015
2026-01-28 12:14:48.19	337.89	11.94	-41.6	-54.7	3.8	7.47e-01	0	60	104	760217600	55	15608
2026-01-28 12:14:49.20	337.93	11.84	-41.6	-54.5	3.8	7.43e-01	0	59	104	760217600	55	15356
2026-01-28 12:14:50.21	337.98	11.74	-41.5	-54.6	3.8	7.43e-01	0	59	104	760217600	55	15409
2026-01-28 12:14:51.22	338.02	11.64	-40.7	-53.2	3.8	7.43e-01	0	60	104	760217600	53	14879
2026-01-28 12:14:52.23	338.07	11.55	-42.5	-56.4	3.8	7.43e-01	0	60	104	760217600	57	16988
2026-01-28 12:14:53.24	338.11	11.45	-42.4	-57.0	3.8	7.43e-01	0	59	104	760217600	55	20309
2026-01-28 12:14:54.24	338.16	11.35	-42.9	-57.4	3.9	7.49e-01	0	60	104	760217600	57	19084
2026-01-28 12:14:55.25	338.20	11.25	-41.0	-54.2	3.8	7.45e-01	0	60	104	760217600	53	16534
2026-01-28 12:14:56.26	338.24	11.16	-40.5	-53.2	3.8	7.41e-01	0	60	104	760217600	53	14775
2026-01-28 12:14:57.28	338.29	11.06	-40.5	-53.2	3.8	7.45e-01	0	60	104	760217600	53	14740
2026-01-28 12:14:58.28	338.33	10.96	-40.4	-52.9	3.8	7.42e-01	0	59	104	760217600	52	15223
2026-01-28 12:14:59.29	338.37	10.87	-40.4	-52.9	3.8	7.46e-01	0	59	104	760217600	52	15113
2026-01-28 12:15:00.30	338.41	10.77	-40.6	-53.6	3.9	7.44e-01	0	60	104	760217600	52	16356
2026-01-28 12:15:01.31	338.45	10.68	-43.2	-58.6	3.9	7.43e-01	0	60	104	760217600	58	20628
2026-01-28 12:15:02.32	338.50	10.58	-41.3	-54.6	3.8	7.45e-01	0	59	104	760217600	54	16368
2026-01-28 12:15:03.33	338.54	10.49	-43.3	-58.8	3.9	7.43e-01	0	59	104	760217600	58	21148
2026-01-28 12:15:04.34	338.58	10.39	-41.1	-54.0	3.8	7.43e-01	0	60	104	760217600	54	15388
2026-01-28 12:15:05.35	338.62	10.30	-40.9	-53.8	3.8	7.43e-01	0	60	104	760217600	53	15882
2026-01-28 12:15:06.36	338.66	10.21	-41.2	-54.4	3.8	7.42e-01	0	60	104	760217600	53	16945
2026-01-28 12:15:07.37	338.70	10.12	-43.3	-59.0	3.8	7.47e-01	0	60	104	760217600	57	22853
2026-01-28 12:15:08.38	338.74	10.02	-41.8	-55.4	3.9	7.43e-01	0	59	104	760217600	55	16992
2026-01-28 12:15:09.39	338.78	9.93	-42.3	-57.1	3.8	7.42e-01	0	60	104	760217600	55	20597
2026-01-28 12:15:10.40	338.82	9.84	-42.2	-56.3	3.9	7.42e-01	0	59	104	760217600	56	17788
2026-01-28 12:15:11.41	338.86	9.75	-41.2	-55.8	3.8	7.46e-01	0	60	104	760217600	54	18820
2026-01-28 12:15:12.42	338.90	9.66	-41.1	-55.3	3.8	7.44e-01	0	59	104	760217600	54	17710
2026-01-28 12:15:13.43	338.94	9.57	-41.2	-55.6	3.8	7.44e-01	0	59	104	760217600	54	18311
2026-01-28 12:15:14.44	338.97	9.48	-41.3	-55.6	3.8	7.44e-01	0	60	104	760217600	54	18396
2026-01-28 12:15:15.45	339.01	9.39	-41.4	-55.8	3.8	7.45e-01	0	59	104	760217600	54	18887
2026-01-28 12:15:16.46	339.05	9.30	-41.5	-55.9	3.8	7.49e-01	0	60	104	760217600	54	19020
2026-01-28 12:15:17.47	339.09	9.21	-42.9	-58.7	3.8	7.45e-01	0	59	104	760217600	57	22039
2026-01-28 12:15:18.48	339.13	9.12	-42.2	-57.1	3.9	7.47e-01	0	60	104	760217600	56	19477
2026-01-28 12:15:19.50	339.16	9.03	-43.1	-59.1	3.9	7.43e-01	0	60	104	760217600	57	23278
2026-01-28 12:15:20.51	339.20	8.94	-42.6	-57.7	3.8	7.45e-01	0	60	104	760217600	57	19782
2026-01-28 12:15:21.52	339.24	8.86	-42.7	-57.9	3.8	7.50e-01	0	60	104	760217600	57	20294
2026-01-28 12:15:22.53	339.28	8.77	-42.4	-57.7	3.8	7.42e-01	0	59	104	760217600	56	20854
2026-01-28 12:15:23.54	339.31	8.68	-42.6	-58.3	3.8	7.45e-01	0	59	104	760217600	56	22501
2026-01-28 12:15:24.55	339.35	8.59	-42.2	-57.9	3.8	7.47e-01	0	60	104	760217600	56	21430
2026-01-28 12:15:25.56	339.39	8.51	-42.6	-59.8	3.8	7.46e-01	0	59	104	760217600	56	26643
2026-01-28 12:15:26.57	339.42	8.42	-42.0	-58.9	3.8	7.46e-01	0	60	104	760217600	56	24039
2026-01-28 12:15:27.58	339.46	8.34	-41.6	-59.3	3.8	7.45e-01	0	60	104	760217600	55	26560
2026-01-28 12:15:28.59	339.49	8.25	-41.7	-59.3	3.8	7.47e-01	0	60	104	760217600	55	26597
2026-01-28 12:15:29.60	339.53	8.17	-41.7	-59.5	3.8	7.43e-01	0	60	104	760217600	55	27205
2026-01-28 12:15:30.61	339.56	8.08	-41.8	-59.5	3.8	7.45e-01	0	59	104	760217600	55	27093
2026-01-28 12:15:31.62	339.60	8.00	-42.9	-60.7	3.8	7.46e-01	0	59	104	760217600	56	29631
2026-01-28 12:15:32.63	339.63	7.91	-45.0	-63.9	3.8	7.44e-01	0	60	104	760217600	60	33740
2026-01-28 12:15:33.64	339.67	7.83	-45.5	-64.2	3.8	7.46e-01	0	60	104	760217600	61	33250
2026-01-28 12:15:34.65	339.70	7.75	-45.8	-64.5	3.8	7.40e-01	0	59	104	760217600	62	32513
2026-01-28 12:15:35.66	339.74	7.66	-45.9	-64.7	3.8	7.41e-01	0	60	104	760217600	62	32945
2026-01-28 12:15:36.67	339.77	7.58	-46.0	-64.9	3.8	7.45e-01	0	59	104	760217600	62	33774
2026-01-28 12:15:37.68	339.80	7.50	-46.1	-64.9	3.8	7.47e-01	0	60	104	760217600	62	34031
