passes_logs/2026/01/28/R2.0S_Moscow/R2.0S_Moscow__20260128_014155_NOAA_21_JPSS-2_rec.log

#Pass ID: 20260128_014155_NOAA 21 (JPSS-2)
#Satellite: NOAA 21 (JPSS-2)
#Configuration: NOAA-21
#almurnet v.1.7.20251203
#Start time: 2026-01-28 01:42:22

#Version: 2.2.20231116
#Station: R2.0S_Moscow
#Location: 37.707566 lon 55.798166 lat
#TLE: 1 54234U 22150A   26027.41809747  .00000179  00000+0  10565-3 0  9991
#TLE: 2 54234  98.7510 328.1683 0000854 205.0798 155.0336 14.19540145166571

#Time	Az	El	Level	Level2	SNR	BER	BlckErr	Temp	State	Recorded	gain1	gain2
2026-01-28 01:42:22.45	7.09	3.44	-45.1	-57.0	3.8	8.46e-01	0	62	0	0	61	14496
2026-01-28 01:42:23.45	7.00	3.49	-45.6	-58.2	3.8	1.49e+00	0	62	104	0	63	14713
2026-01-28 01:42:24.46	6.92	3.55	-45.6	-58.1	3.8	1.49e+00	0	62	104	0	63	14671
2026-01-28 01:42:25.47	6.83	3.60	-45.5	-58.0	3.8	1.49e+00	0	62	104	0	63	14528
2026-01-28 01:42:26.48	6.74	3.66	-45.5	-58.0	3.8	1.49e+00	0	62	104	0	62	15294
2026-01-28 01:42:27.49	6.66	3.71	-45.4	-57.9	3.8	1.49e+00	0	62	104	0	62	15139
2026-01-28 01:42:28.50	6.57	3.77	-45.2	-57.8	3.8	1.49e+00	0	62	104	0	62	14942
2026-01-28 01:42:29.51	6.48	3.82	-45.1	-57.7	3.8	1.49e+00	0	62	104	0	62	14760
2026-01-28 01:42:30.52	6.39	3.88	-45.0	-57.6	3.8	1.49e+00	0	62	104	0	62	14615
2026-01-28 01:42:31.53	6.30	3.93	-44.6	-57.1	3.8	1.49e+00	0	62	104	0	61	14647
2026-01-28 01:42:32.54	6.22	3.99	-41.1	-53.3	3.8	1.49e+00	0	62	104	0	54	14159
2026-01-28 01:42:33.56	6.13	4.04	-40.2	-52.4	3.8	1.49e+00	0	62	104	0	52	14303
2026-01-28 01:42:34.56	6.04	4.10	-40.1	-52.3	3.8	1.49e+00	0	62	104	0	52	14117
2026-01-28 01:42:35.57	5.95	4.15	-40.1	-52.3	3.8	1.49e+00	0	62	104	0	52	14081
2026-01-28 01:42:36.58	5.86	4.21	-40.1	-52.3	3.8	1.49e+00	0	62	104	0	52	14084
2026-01-28 01:42:37.59	5.77	4.26	-40.1	-52.2	3.8	1.49e+00	0	62	104	0	52	14045
2026-01-28 01:42:38.60	5.68	4.32	-40.0	-52.3	3.8	1.49e+00	0	62	104	0	52	14057
2026-01-28 01:42:39.61	5.58	4.37	-40.0	-52.3	3.8	1.49e+00	0	62	104	0	52	14087
2026-01-28 01:42:40.63	5.49	4.43	-40.0	-52.3	3.8	1.49e+00	0	62	104	0	52	14083
2026-01-28 01:42:41.64	5.40	4.48	-40.0	-52.2	3.8	1.49e+00	0	62	104	0	52	14021
2026-01-28 01:42:42.64	5.31	4.54	-40.0	-52.2	3.8	1.49e+00	0	62	104	0	52	14024
2026-01-28 01:42:43.66	5.21	4.59	-40.0	-52.2	3.8	1.49e+00	0	62	104	0	52	13992
2026-01-28 01:42:44.67	5.12	4.65	-40.0	-52.2	3.8	1.49e+00	0	62	104	0	52	14043
2026-01-28 01:42:45.68	5.03	4.71	-40.0	-52.2	3.8	1.49e+00	0	62	104	0	52	14015
2026-01-28 01:42:46.69	4.93	4.76	-40.0	-52.2	3.8	1.49e+00	0	62	104	0	52	14012
2026-01-28 01:42:47.70	4.84	4.82	-40.0	-52.2	3.8	1.49e+00	0	62	104	0	52	13973
2026-01-28 01:42:48.71	4.74	4.87	-40.0	-52.2	3.8	1.49e+00	0	62	104	0	52	14020
2026-01-28 01:42:49.71	4.65	4.93	-40.0	-52.2	3.8	1.49e+00	0	62	104	0	52	14014
2026-01-28 01:42:50.72	4.56	4.98	-40.0	-52.3	3.8	1.49e+00	0	62	104	0	52	14058
2026-01-28 01:42:51.74	4.46	5.04	-40.0	-52.2	3.8	1.49e+00	0	62	104	0	52	14015
2026-01-28 01:42:52.74	4.36	5.10	-40.0	-52.2	3.8	1.49e+00	0	62	104	0	52	14019
2026-01-28 01:42:53.76	4.27	5.15	-40.0	-52.2	3.8	1.49e+00	0	62	104	0	52	14020
2026-01-28 01:42:54.77	4.17	5.21	-40.0	-52.2	3.8	1.49e+00	0	62	104	0	52	13994
2026-01-28 01:42:55.78	4.07	5.26	-40.0	-52.2	3.8	1.49e+00	0	62	104	0	52	13971
2026-01-28 01:42:56.79	3.97	5.32	-40.0	-52.2	3.8	1.49e+00	0	62	104	0	52	13954
2026-01-28 01:42:57.80	3.88	5.38	-40.0	-52.2	3.8	1.49e+00	0	62	104	0	52	13978
2026-01-28 01:42:58.81	3.78	5.43	-40.0	-52.2	3.8	1.49e+00	0	62	104	0	52	14001
2026-01-28 01:42:59.82	3.68	5.49	-40.0	-52.2	3.8	1.49e+00	0	62	104	0	52	13978
2026-01-28 01:43:00.83	3.58	5.54	-40.0	-52.2	3.8	1.49e+00	0	62	104	0	52	13976
2026-01-28 01:43:01.83	3.48	5.60	-40.0	-52.2	3.8	1.49e+00	0	62	104	0	52	13951
2026-01-28 01:43:02.85	3.38	5.66	-40.0	-52.2	3.8	1.49e+00	0	62	104	0	52	13950
2026-01-28 01:43:03.86	3.28	5.71	-40.0	-52.2	3.8	1.49e+00	0	62	104	0	52	13993
2026-01-28 01:43:04.87	3.18	5.77	-40.0	-52.2	3.8	1.49e+00	0	62	104	0	52	14004
2026-01-28 01:43:05.88	3.08	5.83	-40.0	-52.2	3.8	1.49e+00	0	62	104	0	52	13996
2026-01-28 01:43:06.89	2.97	5.88	-40.0	-52.2	3.8	1.49e+00	0	62	104	0	52	13987
2026-01-28 01:43:07.90	2.87	5.94	-40.0	-52.2	3.8	1.49e+00	0	62	104	0	52	13976
2026-01-28 01:43:08.91	2.77	5.99	-40.0	-52.2	3.8	1.49e+00	0	62	104	0	52	13969
2026-01-28 01:43:09.92	2.67	6.05	-40.0	-52.2	3.8	1.49e+00	0	62	104	0	52	13957
2026-01-28 01:43:10.93	2.56	6.11	-40.1	-52.3	3.8	1.49e+00	0	62	104	0	51	14893
2026-01-28 01:43:11.93	2.46	6.16	-40.0	-52.2	3.8	1.49e+00	0	62	104	0	51	14876
2026-01-28 01:43:12.94	2.36	6.22	-40.0	-52.2	3.8	1.49e+00	0	62	104	0	51	14867
2026-01-28 01:43:13.95	2.25	6.28	-40.0	-52.2	3.8	1.49e+00	0	62	104	0	51	14844
2026-01-28 01:43:14.96	2.15	6.33	-40.0	-52.2	3.8	1.49e+00	0	62	104	0	51	14868
2026-01-28 01:43:15.97	2.04	6.39	-40.0	-52.2	3.8	1.49e+00	0	62	104	0	51	14858
2026-01-28 01:43:16.98	1.94	6.45	-40.0	-52.3	3.8	1.49e+00	0	62	104	0	51	14896
2026-01-28 01:43:17.99	1.83	6.50	-40.0	-52.2	3.8	1.49e+00	0	62	104	0	51	14869
2026-01-28 01:43:19.00	1.72	6.56	-40.0	-52.2	3.8	1.49e+00	0	62	104	0	51	14835
2026-01-28 01:43:20.01	1.62	6.62	-40.0	-52.3	3.8	1.49e+00	0	62	104	0	51	14895
2026-01-28 01:43:21.02	1.51	6.67	-40.0	-52.2	3.8	1.49e+00	0	62	104	0	51	14851
2026-01-28 01:43:22.03	1.40	6.73	-40.0	-52.2	3.8	1.49e+00	0	62	104	0	51	14847
2026-01-28 01:43:23.04	1.29	6.79	-40.0	-52.2	3.8	1.49e+00	0	62	104	0	51	14845
2026-01-28 01:43:24.05	1.18	6.84	-40.0	-52.2	3.8	1.49e+00	0	62	104	0	51	14856
2026-01-28 01:43:25.06	1.07	6.90	-40.0	-52.2	3.8	1.49e+00	0	62	104	0	51	14875
2026-01-28 01:43:26.07	0.96	6.96	-40.0	-52.2	3.8	1.49e+00	0	62	104	0	51	14844
2026-01-28 01:43:27.08	0.85	7.02	-40.0	-52.2	3.8	1.49e+00	0	62	104	0	51	14869
2026-01-28 01:43:28.09	0.74	7.07	-40.0	-52.2	3.8	1.49e+00	0	62	104	0	51	14857
2026-01-28 01:43:29.10	0.63	7.13	-40.0	-52.2	3.8	1.49e+00	0	62	104	0	51	14839
2026-01-28 01:43:30.11	0.52	7.19	-40.0	-52.2	3.8	1.49e+00	0	62	104	0	51	14823
2026-01-28 01:43:31.12	0.41	7.24	-40.0	-52.3	3.8	1.49e+00	0	62	104	0	51	14882
2026-01-28 01:43:32.13	0.30	7.30	-40.0	-52.2	3.8	1.49e+00	0	62	104	0	51	14849
2026-01-28 01:43:33.14	0.18	7.36	-40.0	-52.2	3.8	1.49e+00	0	62	104	0	51	14834
2026-01-28 01:43:34.15	0.07	7.41	-40.0	-52.2	3.8	1.49e+00	0	62	104	0	51	14804
2026-01-28 01:43:35.16	359.96	7.47	-40.0	-52.2	3.8	1.49e+00	0	62	104	0	51	14871
2026-01-28 01:43:36.17	359.84	7.53	-40.0	-52.2	3.8	1.49e+00	0	62	104	0	51	14808
2026-01-28 01:43:37.18	359.73	7.59	-40.0	-52.2	3.8	1.49e+00	0	62	104	0	51	14857
2026-01-28 01:43:38.19	359.61	7.64	-40.0	-52.2	3.8	1.49e+00	0	62	104	0	51	14846
2026-01-28 01:43:39.20	359.50	7.70	-40.0	-52.2	3.8	1.49e+00	0	62	104	0	51	14870
2026-01-28 01:43:40.21	359.38	7.76	-40.0	-52.2	3.8	1.49e+00	0	62	104	0	51	14844
2026-01-28 01:43:41.22	359.26	7.82	-40.0	-52.2	3.8	1.49e+00	0	62	104	0	51	14852
2026-01-28 01:43:42.23	359.15	7.87	-40.0	-52.2	3.8	1.49e+00	0	62	104	0	51	14836
2026-01-28 01:43:43.24	359.03	7.93	-40.0	-52.2	3.8	1.49e+00	0	62	104	0	51	14850
2026-01-28 01:43:44.25	358.91	7.99	-40.0	-52.3	3.8	1.49e+00	0	62	104	0	51	14883
2026-01-28 01:43:45.26	358.79	8.04	-40.0	-52.3	3.8	1.49e+00	0	62	104	0	51	14885
2026-01-28 01:43:46.27	358.67	8.10	-40.1	-52.3	3.8	1.49e+00	0	62	104	0	51	14894
2026-01-28 01:43:47.28	358.55	8.16	-40.1	-52.3	3.8	1.49e+00	0	62	104	0	51	14976
2026-01-28 01:43:48.29	358.43	8.22	-40.2	-52.4	3.8	1.49e+00	0	62	104	0	51	15132
2026-01-28 01:43:49.30	358.31	8.27	-40.2	-52.4	3.8	1.49e+00	0	62	104	0	51	15084
2026-01-28 01:43:50.31	358.19	8.33	-40.0	-52.3	3.8	1.49e+00	0	62	104	0	51	14921
2026-01-28 01:43:51.32	358.07	8.39	-40.2	-52.4	3.8	1.49e+00	0	62	104	0	51	15116
2026-01-28 01:43:52.32	357.95	8.45	-40.1	-52.3	3.8	1.49e+00	0	62	104	0	51	15001
2026-01-28 01:43:53.34	357.83	8.50	-40.1	-52.4	3.8	1.49e+00	0	62	104	0	51	15062
2026-01-28 01:43:54.34	357.70	8.56	-40.0	-52.2	3.8	1.49e+00	0	62	104	0	51	14850
2026-01-28 01:43:55.35	357.58	8.62	-40.1	-52.4	3.8	1.49e+00	0	62	104	0	51	15075
2026-01-28 01:43:56.36	357.46	8.68	-40.1	-52.3	3.8	1.49e+00	0	62	104	0	51	14981
2026-01-28 01:43:57.37	357.33	8.73	-40.1	-52.3	3.8	1.49e+00	0	62	104	0	51	15002
2026-01-28 01:43:58.38	357.21	8.79	-40.1	-52.3	3.8	1.49e+00	0	62	104	0	51	14928
2026-01-28 01:43:59.39	357.08	8.85	-40.1	-52.3	3.8	1.49e+00	0	62	104	0	51	15017
2026-01-28 01:44:00.40	356.96	8.91	-40.1	-52.4	3.8	1.49e+00	0	62	104	0	51	15059
2026-01-28 01:44:01.41	356.83	8.96	-40.1	-52.3	3.8	1.49e+00	0	62	104	0	51	14938
2026-01-28 01:44:02.42	356.70	9.02	-40.1	-52.3	3.8	1.49e+00	0	62	104	0	51	14917
2026-01-28 01:44:03.43	356.58	9.08	-40.1	-52.3	3.8	1.49e+00	0	62	104	0	51	14945
2026-01-28 01:44:04.44	356.45	9.13	-40.1	-52.3	3.8	1.49e+00	0	62	104	0	51	14949
2026-01-28 01:44:05.45	356.32	9.19	-40.1	-52.3	3.8	1.49e+00	0	62	104	0	51	14891
2026-01-28 01:44:06.46	356.19	9.25	-40.1	-52.3	3.8	1.49e+00	0	62	104	0	51	15024
2026-01-28 01:44:07.47	356.06	9.31	-40.1	-52.3	3.8	1.49e+00	0	62	104	0	51	14993
2026-01-28 01:44:08.47	355.93	9.36	-40.1	-52.3	3.8	1.49e+00	0	62	104	0	51	14883
2026-01-28 01:44:09.48	355.80	9.42	-40.1	-52.3	3.8	1.49e+00	0	62	104	0	51	14991
2026-01-28 01:44:10.49	355.67	9.48	-40.1	-52.3	3.8	1.49e+00	0	62	104	0	51	15028
2026-01-28 01:44:11.50	355.54	9.54	-40.2	-52.4	3.8	1.49e+00	0	62	104	0	51	15082
2026-01-28 01:44:12.51	355.41	9.59	-40.2	-52.4	3.8	1.49e+00	0	62	104	0	51	15085
2026-01-28 01:44:13.53	355.27	9.65	-40.2	-52.4	3.8	1.49e+00	0	62	104	0	51	15152
2026-01-28 01:44:14.54	355.14	9.71	-40.2	-52.4	3.8	1.49e+00	0	62	104	0	51	15133
2026-01-28 01:44:15.54	355.01	9.77	-40.3	-52.5	3.8	1.49e+00	0	62	104	0	51	15304
2026-01-28 01:44:16.55	354.87	9.82	-40.3	-52.5	3.8	1.49e+00	0	62	104	0	51	15304
2026-01-28 01:44:17.56	354.74	9.88	-40.3	-52.5	3.8	1.49e+00	0	62	104	0	51	15252
2026-01-28 01:44:18.57	354.60	9.94	-40.3	-52.5	3.8	1.49e+00	0	62	104	0	51	15375
2026-01-28 01:44:19.58	354.46	9.99	-40.3	-52.5	3.8	1.49e+00	0	62	104	0	51	15369
2026-01-28 01:44:20.59	354.33	10.05	-40.4	-52.6	3.8	1.49e+00	0	62	104	0	51	15421
2026-01-28 01:44:21.60	354.19	10.11	-40.3	-52.5	3.8	1.49e+00	0	62	104	0	51	15371
2026-01-28 01:44:22.61	354.05	10.17	-40.4	-52.6	3.8	1.49e+00	0	62	104	0	51	15452
2026-01-28 01:44:23.62	353.92	10.22	-40.4	-52.6	3.8	1.49e+00	0	62	104	0	51	15529
2026-01-28 01:44:24.62	353.78	10.28	-40.4	-52.6	3.8	1.49e+00	0	62	104	0	51	15499
2026-01-28 01:44:25.63	353.64	10.34	-40.4	-52.6	3.8	1.49e+00	0	62	104	0	51	15410
2026-01-28 01:44:26.64	353.50	10.39	-40.5	-52.7	3.8	1.49e+00	0	62	104	0	51	15757
2026-01-28 01:44:27.65	353.36	10.45	-40.4	-52.6	3.8	1.49e+00	0	62	104	0	51	15461
2026-01-28 01:44:28.66	353.22	10.51	-40.5	-52.6	3.8	1.49e+00	0	62	104	0	51	15563
2026-01-28 01:44:29.67	353.08	10.56	-40.5	-52.7	3.8	1.49e+00	0	62	104	0	51	15643
2026-01-28 01:44:30.68	352.93	10.62	-40.7	-52.9	3.8	1.49e+00	0	62	104	0	51	15985
2026-01-28 01:44:31.69	352.79	10.68	-40.4	-52.6	3.8	1.49e+00	0	62	104	0	52	14661
2026-01-28 01:44:32.70	352.65	10.73	-40.6	-52.9	3.8	1.49e+00	0	62	104	0	52	15100
2026-01-28 01:44:33.71	352.50	10.79	-40.5	-52.7	3.8	1.49e+00	0	62	104	0	52	14869
2026-01-28 01:44:34.72	352.36	10.85	-40.6	-52.8	3.8	1.49e+00	0	62	104	0	52	15051
2026-01-28 01:44:35.73	352.21	10.90	-40.6	-52.8	3.8	1.49e+00	0	62	104	0	52	15035
2026-01-28 01:44:36.73	352.07	10.96	-40.9	-53.1	3.8	1.49e+00	0	62	104	0	52	15571
2026-01-28 01:44:37.75	351.92	11.02	-40.5	-52.7	3.8	1.49e+00	0	62	104	0	52	14769
2026-01-28 01:44:38.76	351.78	11.07	-40.8	-53.1	3.8	1.49e+00	0	62	104	0	52	15425
2026-01-28 01:44:39.76	351.63	11.13	-40.8	-53.0	3.8	1.49e+00	0	62	104	0	52	15299
2026-01-28 01:44:40.77	351.48	11.19	-40.7	-52.9	3.8	1.49e+00	0	62	104	0	52	15218
2026-01-28 01:44:41.78	351.33	11.24	-40.6	-52.8	3.8	1.49e+00	0	62	104	0	52	15002
2026-01-28 01:44:42.79	351.18	11.30	-41.0	-53.2	3.8	1.49e+00	0	62	104	0	52	15758
2026-01-28 01:44:43.80	351.04	11.35	-40.7	-53.0	3.8	1.49e+00	0	62	104	0	52	15250
2026-01-28 01:44:44.81	350.89	11.41	-40.8	-53.0	3.8	1.49e+00	0	62	104	0	52	15235
2026-01-28 01:44:45.82	350.73	11.47	-40.8	-53.0	3.8	1.49e+00	0	62	104	0	52	15351
2026-01-28 01:44:46.83	350.58	11.52	-40.9	-53.1	3.8	1.49e+00	0	62	104	0	52	15527
2026-01-28 01:44:47.84	350.43	11.58	-40.9	-53.2	3.8	1.49e+00	0	62	104	0	52	15693
2026-01-28 01:44:48.85	350.28	11.63	-40.8	-53.1	3.8	1.49e+00	0	62	104	0	52	15415
2026-01-28 01:44:49.86	350.13	11.69	-40.8	-53.1	3.8	1.49e+00	0	62	104	0	52	15418
2026-01-28 01:44:50.87	349.97	11.75	-40.9	-53.2	3.8	1.49e+00	0	62	104	0	52	15677
2026-01-28 01:44:51.88	349.82	11.80	-41.0	-53.2	3.8	1.49e+00	0	62	104	0	52	15714
2026-01-28 01:44:52.89	349.66	11.86	-40.8	-53.1	3.8	1.49e+00	0	62	104	0	52	15409
2026-01-28 01:44:53.90	349.51	11.91	-40.9	-53.2	3.8	1.49e+00	0	62	104	0	52	15639
2026-01-28 01:44:54.91	349.35	11.97	-41.2	-53.5	3.8	1.49e+00	0	62	104	0	52	16175
2026-01-28 01:44:55.92	349.19	12.02	-40.8	-53.0	3.8	1.49e+00	0	62	104	0	53	14471
2026-01-28 01:44:56.93	349.04	12.08	-40.8	-53.0	3.8	1.49e+00	0	62	104	0	53	14515
2026-01-28 01:44:57.94	348.88	12.13	-40.9	-53.2	3.8	1.49e+00	0	62	104	0	53	14709
2026-01-28 01:44:58.95	348.72	12.19	-40.8	-53.1	3.8	1.49e+00	0	62	104	0	53	14565
2026-01-28 01:44:59.96	348.56	12.24	-40.9	-53.1	3.8	1.49e+00	0	62	104	0	53	14659
2026-01-28 01:45:00.98	348.40	12.30	-41.0	-53.2	3.8	1.49e+00	0	62	104	0	53	14842
2026-01-28 01:45:01.99	348.24	12.35	-41.2	-53.6	3.8	1.49e+00	0	62	104	0	53	15453
2026-01-28 01:45:02.99	348.08	12.41	-41.1	-53.4	3.8	1.49e+00	0	62	104	0	53	15163
2026-01-28 01:45:04.00	347.92	12.46	-41.4	-53.7	3.8	1.49e+00	0	62	104	0	53	15647
2026-01-28 01:45:05.01	347.76	12.52	-41.4	-53.7	3.8	1.49e+00	0	62	104	0	53	15642
2026-01-28 01:45:06.02	347.59	12.57	-41.2	-53.5	3.8	1.49e+00	0	62	104	0	53	15231
2026-01-28 01:45:07.03	347.43	12.62	-41.3	-53.6	3.8	1.49e+00	0	62	104	0	53	15559
2026-01-28 01:45:08.04	347.27	12.68	-41.3	-53.6	3.8	1.49e+00	0	62	104	0	53	15432
2026-01-28 01:45:09.05	347.10	12.73	-41.5	-53.7	3.8	1.49e+00	0	62	104	0	53	15692
2026-01-28 01:45:10.06	346.94	12.79	-41.2	-53.5	3.8	1.49e+00	0	62	104	0	53	15283
2026-01-28 01:45:11.07	346.77	12.84	-41.1	-53.4	3.8	1.49e+00	0	62	104	0	53	15110
2026-01-28 01:45:12.08	346.60	12.89	-41.4	-53.7	3.8	1.49e+00	0	62	104	0	53	15624
2026-01-28 01:45:13.09	346.44	12.95	-41.4	-53.7	3.8	1.49e+00	0	62	104	0	53	15594
2026-01-28 01:45:14.10	346.27	13.00	-41.0	-53.2	3.8	1.49e+00	0	62	104	0	53	14842
2026-01-28 01:45:15.11	346.10	13.05	-41.0	-53.2	3.8	1.49e+00	0	62	104	0	53	14851
2026-01-28 01:45:16.12	345.93	13.11	-41.3	-53.6	3.8	1.49e+00	0	62	104	0	53	15577
2026-01-28 01:45:17.13	345.76	13.16	-41.0	-53.3	3.8	1.49e+00	0	62	104	0	53	14913
2026-01-28 01:45:18.14	345.59	13.21	-40.8	-53.0	3.8	1.49e+00	0	62	104	0	53	14422
2026-01-28 01:45:19.15	345.42	13.26	-41.1	-53.4	3.8	1.49e+00	0	62	104	0	53	15087
2026-01-28 01:45:20.16	345.25	13.32	-41.0	-53.3	3.8	1.49e+00	0	62	104	0	53	15005
2026-01-28 01:45:21.17	345.08	13.37	-40.8	-53.1	3.8	1.49e+00	0	62	104	0	53	14564
2026-01-28 01:45:22.18	344.90	13.42	-40.8	-53.1	3.8	1.49e+00	0	62	104	0	53	14567
2026-01-28 01:45:23.19	344.73	13.47	-40.9	-53.2	3.8	1.49e+00	0	62	104	0	53	14728
2026-01-28 01:45:24.20	344.56	13.53	-41.0	-53.2	3.8	1.49e+00	0	62	104	0	53	14792
2026-01-28 01:45:25.21	344.38	13.58	-40.9	-53.1	3.8	1.49e+00	0	62	104	0	53	14694
2026-01-28 01:45:26.21	344.21	13.63	-40.8	-52.9	3.8	1.49e+00	0	62	104	0	53	14368
2026-01-28 01:45:27.23	344.03	13.68	-40.8	-53.0	3.8	1.49e+00	0	62	104	0	53	14492
2026-01-28 01:45:28.24	343.85	13.73	-41.0	-53.3	3.8	1.49e+00	0	62	104	0	53	14964
2026-01-28 01:45:29.25	343.68	13.78	-40.8	-53.0	3.8	1.49e+00	0	62	104	0	53	14437
2026-01-28 01:45:30.26	343.50	13.83	-40.8	-53.0	3.8	1.49e+00	0	62	104	0	53	14447
2026-01-28 01:45:31.27	343.32	13.89	-40.8	-53.0	3.8	1.49e+00	0	62	104	0	53	14526
2026-01-28 01:45:32.28	343.14	13.94	-40.8	-53.0	3.8	1.49e+00	0	62	104	0	53	14506
2026-01-28 01:45:33.29	342.96	13.99	-40.8	-53.0	3.8	1.49e+00	0	62	104	0	53	14471
2026-01-28 01:45:34.30	342.78	14.04	-40.8	-53.0	3.8	1.49e+00	0	62	104	0	53	14399
2026-01-28 01:45:35.31	342.60	14.09	-40.6	-52.8	3.8	1.49e+00	0	62	104	0	53	14121
2026-01-28 01:45:36.32	342.42	14.14	-40.8	-53.0	3.8	1.49e+00	0	62	104	0	53	14499
2026-01-28 01:45:37.33	342.24	14.19	-40.6	-52.8	3.8	1.49e+00	0	62	104	0	53	14175
2026-01-28 01:45:38.34	342.06	14.24	-40.5	-52.7	3.8	1.49e+00	0	62	104	0	53	13998
2026-01-28 01:45:39.35	341.87	14.29	-40.6	-52.8	3.8	1.49e+00	0	62	104	0	53	14060
2026-01-28 01:45:40.36	341.69	14.34	-40.6	-52.8	3.8	1.49e+00	0	62	104	0	53	14179
2026-01-28 01:45:41.37	341.50	14.38	-40.5	-52.7	3.8	1.49e+00	0	62	104	0	53	13894
2026-01-28 01:45:42.38	341.32	14.43	-40.7	-52.9	3.8	1.49e+00	0	62	104	0	53	14215
2026-01-28 01:45:43.39	341.13	14.48	-40.6	-52.8	3.8	1.49e+00	0	63	104	0	53	14121
2026-01-28 01:45:44.40	340.95	14.53	-40.5	-52.7	3.8	1.49e+00	0	62	104	0	53	13956
2026-01-28 01:45:45.41	340.76	14.58	-40.6	-52.8	3.8	1.49e+00	0	62	104	0	53	14124
2026-01-28 01:45:46.42	340.57	14.63	-41.0	-53.0	3.8	1.49e+00	0	62	104	0	53	14522
2026-01-28 01:45:47.43	340.38	14.67	-41.0	-52.8	3.8	1.49e+00	0	62	104	0	53	14125
2026-01-28 01:45:48.44	340.20	14.72	-40.6	-52.7	3.8	1.49e+00	0	62	104	0	53	14020
2026-01-28 01:45:49.45	340.01	14.77	-41.1	-52.5	3.8	1.49e+00	0	62	104	0	53	13591
2026-01-28 01:45:50.46	339.82	14.82	-41.5	-52.1	3.8	1.49e+00	0	62	104	0	53	13016
2026-01-28 01:45:51.47	339.62	14.86	-41.3	-49.4	4.5	1.36e+00	3	62	104	0	53	9562
2026-01-28 01:45:52.48	339.43	14.91	-41.1	-47.7	5.6	6.19e-01	0	62	0	1048576	53	7844
2026-01-28 01:45:53.49	339.24	14.96	-40.8	-45.9	7.4	1.83e-01	0	62	0	4194304	53	6370
2026-01-28 01:45:54.50	339.05	15.00	-40.3	-44.3	9.3	3.29e-02	0	62	0	7340032	52	5647
2026-01-28 01:45:55.51	338.86	15.05	-39.8	-43.1	11.0	3.50e-03	0	62	0	10485760	51	5161
2026-01-28 01:45:56.52	338.66	15.09	-39.5	-42.4	11.9	5.23e-04	0	62	0	13631488	51	4767
2026-01-28 01:45:57.53	338.47	15.14	-39.4	-42.2	12.2	2.24e-04	0	62	0	16777216	50	4937
2026-01-28 01:45:58.54	338.27	15.18	-39.4	-42.0	12.5	1.99e-04	0	62	0	19922944	50	4848
2026-01-28 01:45:59.55	338.08	15.23	-39.1	-41.6	12.9	5.34e-05	0	62	0	23068672	50	4638
2026-01-28 01:46:00.56	337.88	15.27	-39.0	-41.4	13.3	2.44e-05	0	62	0	26214400	50	4521
2026-01-28 01:46:01.57	337.68	15.32	-39.2	-41.6	13.3	2.13e-05	0	62	0	29360128	49	4878
2026-01-28 01:46:02.58	337.49	15.36	-39.5	-42.0	13.0	3.35e-05	0	62	0	32505856	49	5142
2026-01-28 01:46:03.59	337.29	15.41	-39.1	-41.4	13.6	1.06e-05	0	62	0	35651584	49	4810
2026-01-28 01:46:04.61	337.09	15.45	-39.1	-41.3	13.9	7.00e-07	0	62	0	38797312	49	4731
2026-01-28 01:46:05.62	336.89	15.49	-39.5	-41.8	13.5	1.06e-05	0	62	0	41943040	49	5035
2026-01-28 01:46:06.63	336.69	15.54	-39.4	-41.8	13.7	6.80e-06	0	62	0	45088768	49	4996
2026-01-28 01:46:07.64	336.49	15.58	-39.5	-41.8	13.7	6.10e-06	0	62	0	48234496	49	5001
2026-01-28 01:46:08.65	336.29	15.62	-39.4	-41.7	13.8	3.00e-06	0	62	0	51380224	49	4943
2026-01-28 01:46:09.66	336.09	15.66	-39.4	-41.7	13.9	5.30e-06	0	62	0	54525952	49	4941
2026-01-28 01:46:10.67	335.88	15.71	-39.4	-41.6	14.0	3.00e-06	0	62	0	57671680	49	4918
2026-01-28 01:46:11.68	335.68	15.75	-39.5	-41.8	13.8	3.00e-06	0	62	0	60817408	49	5029
2026-01-28 01:46:12.69	335.48	15.79	-39.2	-41.3	14.3	1.50e-06	0	62	0	63963136	49	4753
2026-01-28 01:46:13.70	335.28	15.83	-39.3	-41.5	14.2	1.50e-06	0	62	0	67108864	49	4835
2026-01-28 01:46:14.71	335.07	15.87	-39.3	-41.5	14.2	3.00e-06	0	62	0	70254592	49	4845
2026-01-28 01:46:15.72	334.87	15.91	-39.3	-41.5	14.2	3.00e-06	0	62	0	73400320	49	4845
2026-01-28 01:46:16.73	334.66	15.95	-39.2	-41.3	14.4	7.00e-07	0	62	0	76546048	49	4737
2026-01-28 01:46:17.74	334.45	15.99	-39.1	-41.2	14.6	7.00e-07	0	63	0	79691776	49	4653
2026-01-28 01:46:18.75	334.25	16.03	-38.9	-40.9	14.8	7.00e-07	0	62	0	82837504	49	4536
2026-01-28 01:46:19.75	334.04	16.07	-38.9	-41.0	14.8	7.00e-07	0	62	0	85983232	49	4554
2026-01-28 01:46:20.76	333.83	16.11	-38.9	-41.0	14.8	0.00e+00	0	62	0	89128960	49	4547
2026-01-28 01:46:21.77	333.63	16.15	-39.0	-41.0	14.8	7.00e-07	0	62	0	92274688	49	4559
2026-01-28 01:46:22.78	333.42	16.19	-38.9	-40.9	14.9	0.00e+00	0	62	0	95420416	49	4530
2026-01-28 01:46:23.79	333.21	16.22	-39.0	-41.0	14.8	0.00e+00	0	62	0	98566144	49	4556
2026-01-28 01:46:24.80	333.00	16.26	-39.0	-41.0	14.8	0.00e+00	0	62	0	102760448	49	4573
2026-01-28 01:46:25.81	332.79	16.30	-39.0	-41.0	14.8	7.00e-07	0	62	0	105906176	49	4587
2026-01-28 01:46:26.82	332.58	16.34	-38.9	-40.9	14.9	0.00e+00	0	62	0	108003328	49	4544
2026-01-28 01:46:27.83	332.37	16.37	-38.9	-40.9	14.9	0.00e+00	0	62	0	111149056	49	4517
2026-01-28 01:46:28.84	332.15	16.41	-38.8	-40.7	15.1	0.00e+00	0	62	0	114294784	49	4415
2026-01-28 01:46:29.85	331.94	16.44	-38.8	-40.8	15.0	0.00e+00	0	62	0	118489088	49	4456
2026-01-28 01:46:30.86	331.73	16.48	-38.8	-40.7	15.1	0.00e+00	0	62	0	121634816	49	4424
2026-01-28 01:46:31.87	331.51	16.52	-38.9	-40.8	15.0	0.00e+00	0	62	0	124780544	49	4476
2026-01-28 01:46:32.88	331.30	16.55	-38.9	-40.8	14.9	0.00e+00	0	62	0	127926272	49	4477
2026-01-28 01:46:33.89	331.09	16.58	-38.9	-40.9	14.9	0.00e+00	0	62	0	130023424	49	4498
2026-01-28 01:46:34.90	330.87	16.62	-39.0	-41.0	14.7	0.00e+00	0	62	0	133169152	49	4583
2026-01-28 01:46:35.91	330.66	16.65	-39.1	-41.1	14.8	7.00e-07	0	62	0	137363456	49	4614
2026-01-28 01:46:36.92	330.44	16.69	-39.1	-41.1	14.7	0.00e+00	0	62	0	140509184	49	4621
2026-01-28 01:46:37.93	330.22	16.72	-39.1	-41.1	14.6	0.00e+00	0	62	0	143654912	49	4651
2026-01-28 01:46:38.94	330.01	16.75	-39.0	-41.0	14.8	0.00e+00	0	62	0	146800640	49	4592
2026-01-28 01:46:39.95	329.79	16.78	-39.1	-41.1	14.7	0.00e+00	0	62	0	149946368	49	4651
2026-01-28 01:46:40.96	329.57	16.82	-39.1	-41.1	14.7	0.00e+00	0	62	0	153092096	49	4634
2026-01-28 01:46:41.97	329.35	16.85	-39.1	-41.2	14.6	0.00e+00	0	62	0	156237824	49	4660
2026-01-28 01:46:42.98	329.13	16.88	-39.1	-41.1	14.7	0.00e+00	0	62	0	159383552	49	4639
2026-01-28 01:46:43.99	328.91	16.91	-39.0	-41.0	14.8	0.00e+00	0	62	0	162529280	49	4585
2026-01-28 01:46:45.00	328.69	16.94	-39.1	-41.1	14.8	0.00e+00	0	62	0	165675008	49	4631
2026-01-28 01:46:46.01	328.47	16.97	-39.0	-41.1	14.8	0.00e+00	0	62	0	168820736	49	4605
2026-01-28 01:46:47.02	328.25	17.00	-38.9	-40.9	15.0	0.00e+00	0	62	0	171966464	49	4502
2026-01-28 01:46:48.03	328.03	17.03	-38.8	-40.8	15.1	0.00e+00	0	62	0	175112192	49	4446
2026-01-28 01:46:49.04	327.81	17.06	-38.9	-40.9	14.9	0.00e+00	0	62	0	178257920	49	4503
2026-01-28 01:46:50.05	327.59	17.09	-38.9	-40.9	14.9	0.00e+00	0	62	0	181403648	49	4539
2026-01-28 01:46:51.06	327.37	17.11	-39.0	-41.0	14.9	0.00e+00	0	62	0	184549376	49	4557
2026-01-28 01:46:52.07	327.14	17.14	-39.0	-41.0	14.9	7.00e-07	0	62	0	187695104	49	4550
2026-01-28 01:46:53.08	326.92	17.17	-38.9	-40.9	15.0	0.00e+00	0	62	0	190840832	49	4517
2026-01-28 01:46:54.09	326.70	17.20	-38.9	-40.9	14.9	0.00e+00	0	62	0	193986560	49	4523
2026-01-28 01:46:55.10	326.47	17.22	-39.0	-40.9	14.9	0.00e+00	0	62	0	197132288	49	4542
2026-01-28 01:46:56.11	326.25	17.25	-39.0	-41.0	14.9	0.00e+00	0	62	0	200278016	49	4572
2026-01-28 01:46:57.12	326.02	17.27	-39.0	-41.0	14.9	0.00e+00	0	62	0	203423744	49	4554
2026-01-28 01:46:58.13	325.80	17.30	-39.0	-41.0	14.9	7.00e-07	0	62	0	206569472	49	4554
2026-01-28 01:46:59.14	325.57	17.32	-38.9	-40.9	14.9	0.00e+00	0	62	0	209715200	49	4532
2026-01-28 01:47:00.15	325.35	17.35	-39.1	-41.1	14.7	0.00e+00	0	62	0	212860928	49	4627
2026-01-28 01:47:01.16	325.12	17.37	-39.1	-41.1	14.7	0.00e+00	0	62	0	216006656	49	4639
2026-01-28 01:47:02.17	324.89	17.39	-39.1	-41.1	14.8	0.00e+00	0	62	0	219152384	49	4637
2026-01-28 01:47:03.18	324.67	17.42	-39.1	-41.1	14.8	0.00e+00	0	62	0	222298112	49	4622
2026-01-28 01:47:04.19	324.44	17.44	-39.1	-41.1	14.8	0.00e+00	0	62	0	225443840	49	4602
2026-01-28 01:47:05.20	324.21	17.46	-39.1	-41.2	14.7	7.00e-07	0	62	0	228589568	49	4655
2026-01-28 01:47:06.21	323.98	17.48	-39.2	-41.2	14.6	0.00e+00	0	62	0	231735296	49	4702
2026-01-28 01:47:07.22	323.75	17.50	-39.2	-41.2	14.6	0.00e+00	0	62	0	234881024	49	4679
2026-01-28 01:47:08.23	323.53	17.52	-39.2	-41.2	14.6	0.00e+00	0	62	0	238026752	49	4699
2026-01-28 01:47:09.24	323.30	17.54	-39.1	-41.1	14.7	0.00e+00	0	62	0	241172480	49	4647
2026-01-28 01:47:10.25	323.07	17.56	-39.0	-41.0	14.9	0.00e+00	0	62	0	244318208	49	4572
2026-01-28 01:47:11.26	322.84	17.58	-38.9	-40.9	15.0	0.00e+00	0	62	0	247463936	49	4521
2026-01-28 01:47:12.27	322.61	17.60	-39.0	-40.9	15.0	7.00e-07	0	62	0	250609664	49	4537
2026-01-28 01:47:13.28	322.38	17.62	-38.9	-40.9	15.0	0.00e+00	0	62	0	253755392	49	4499
2026-01-28 01:47:14.29	322.15	17.64	-38.9	-40.9	15.0	0.00e+00	0	62	0	256901120	49	4506
2026-01-28 01:47:15.30	321.92	17.66	-38.9	-40.8	15.0	0.00e+00	0	62	0	260046848	49	4491
2026-01-28 01:47:16.31	321.68	17.67	-39.0	-41.0	14.9	0.00e+00	0	62	0	263192576	49	4558
2026-01-28 01:47:17.32	321.45	17.69	-39.0	-41.0	14.9	0.00e+00	0	62	0	266338304	49	4567
2026-01-28 01:47:18.33	321.22	17.71	-39.1	-41.1	14.8	7.00e-07	0	62	0	269484032	49	4607
2026-01-28 01:47:19.34	320.99	17.72	-39.0	-41.0	14.9	0.00e+00	0	62	0	272629760	49	4548
2026-01-28 01:47:20.36	320.76	17.74	-39.0	-41.0	14.8	0.00e+00	0	62	0	275775488	49	4589
2026-01-28 01:47:21.37	320.52	17.75	-39.1	-41.1	14.8	7.00e-07	0	62	0	278921216	49	4626
2026-01-28 01:47:22.38	320.29	17.76	-39.2	-41.2	14.7	7.00e-07	0	62	0	282066944	49	4687
2026-01-28 01:47:23.39	320.06	17.78	-39.1	-41.2	14.7	0.00e+00	0	62	0	285212672	49	4667
2026-01-28 01:47:24.40	319.82	17.79	-39.2	-41.2	14.6	7.00e-07	0	62	0	288358400	49	4700
2026-01-28 01:47:25.41	319.59	17.80	-39.2	-41.2	14.6	0.00e+00	0	62	0	291504128	49	4699
2026-01-28 01:47:26.42	319.36	17.82	-39.1	-41.2	14.7	0.00e+00	0	62	0	294649856	49	4654
2026-01-28 01:47:27.43	319.12	17.83	-39.0	-41.0	14.9	0.00e+00	0	62	0	297795584	49	4568
2026-01-28 01:47:28.44	318.89	17.84	-38.9	-40.8	15.1	0.00e+00	0	62	0	300941312	49	4491
2026-01-28 01:47:29.45	318.66	17.85	-38.9	-40.8	15.1	0.00e+00	0	62	0	304087040	49	4468
2026-01-28 01:47:30.46	318.42	17.86	-38.9	-40.8	15.1	0.00e+00	0	62	0	307232768	49	4486
2026-01-28 01:47:31.47	318.19	17.87	-38.9	-40.9	15.0	7.00e-07	0	62	0	310378496	49	4507
2026-01-28 01:47:32.48	317.95	17.88	-39.0	-41.0	14.9	0.00e+00	0	62	0	313524224	49	4561
2026-01-28 01:47:33.49	317.72	17.89	-39.0	-40.9	15.0	0.00e+00	0	62	0	316669952	49	4528
2026-01-28 01:47:34.50	317.48	17.90	-39.0	-41.0	14.9	0.00e+00	0	62	0	319815680	49	4579
2026-01-28 01:47:35.51	317.25	17.90	-39.0	-41.0	14.9	0.00e+00	0	62	0	322961408	49	4574
2026-01-28 01:47:36.52	317.01	17.91	-39.0	-41.0	14.9	0.00e+00	0	62	0	326107136	49	4568
2026-01-28 01:47:37.53	316.78	17.92	-39.0	-41.0	14.9	7.00e-07	0	62	0	329252864	49	4561
2026-01-28 01:47:38.54	316.54	17.92	-38.9	-40.9	15.0	0.00e+00	0	62	0	332398592	49	4522
2026-01-28 01:47:39.55	316.31	17.93	-38.9	-40.9	15.0	0.00e+00	0	62	0	335544320	49	4507
2026-01-28 01:47:40.56	316.07	17.94	-39.0	-41.1	14.8	0.00e+00	0	62	0	338690048	49	4599
2026-01-28 01:47:41.57	315.84	17.94	-39.1	-41.1	14.8	0.00e+00	0	62	0	341835776	49	4613
2026-01-28 01:47:42.58	315.60	17.95	-39.1	-41.1	14.8	7.00e-07	0	62	0	344981504	49	4626
2026-01-28 01:47:43.59	315.37	17.95	-39.1	-41.1	14.8	0.00e+00	0	62	0	348127232	49	4629
2026-01-28 01:47:44.60	315.13	17.95	-39.2	-41.3	14.7	0.00e+00	0	62	0	351272960	49	4706
2026-01-28 01:47:45.61	314.90	17.96	-39.3	-41.4	14.5	7.00e-07	0	62	0	354418688	49	4767
2026-01-28 01:47:46.62	314.66	17.96	-39.2	-41.3	14.6	0.00e+00	0	62	0	357564416	49	4728
2026-01-28 01:47:47.63	314.42	17.96	-39.2	-41.3	14.6	0.00e+00	0	62	0	360710144	49	4709
2026-01-28 01:47:48.64	314.19	17.96	-39.3	-41.3	14.5	1.50e-06	0	62	0	363855872	49	4753
2026-01-28 01:47:49.65	313.95	17.96	-39.4	-41.5	14.4	0.00e+00	0	62	0	367001600	49	4832
2026-01-28 01:47:50.67	313.71	17.96	-39.4	-41.6	14.4	7.00e-07	0	62	0	370147328	49	4875
2026-01-28 01:47:51.68	313.48	17.96	-39.3	-41.4	14.5	7.00e-07	0	62	0	373293056	49	4811
2026-01-28 01:47:52.68	313.24	17.96	-39.3	-41.4	14.5	1.50e-06	0	62	0	376438784	49	4774
2026-01-28 01:47:53.69	313.01	17.96	-39.2	-41.2	14.6	0.00e+00	0	62	0	379584512	49	4698
2026-01-28 01:47:54.70	312.77	17.96	-39.1	-41.0	14.8	0.00e+00	0	62	0	382730240	49	4589
2026-01-28 01:47:55.71	312.54	17.96	-39.0	-41.0	14.9	0.00e+00	0	63	0	385875968	49	4547
2026-01-28 01:47:56.73	312.30	17.95	-39.0	-41.0	14.9	0.00e+00	0	62	0	389021696	49	4555
2026-01-28 01:47:57.73	312.07	17.95	-38.9	-40.9	15.0	0.00e+00	0	62	0	392167424	49	4511
2026-01-28 01:47:58.74	311.83	17.95	-38.9	-40.9	15.0	0.00e+00	0	62	0	395313152	49	4507
2026-01-28 01:47:59.75	311.59	17.94	-39.0	-41.0	14.9	0.00e+00	0	62	0	398458880	49	4549
2026-01-28 01:48:00.76	311.36	17.94	-39.0	-41.0	14.9	0.00e+00	0	62	0	401604608	49	4578
2026-01-28 01:48:01.77	311.12	17.93	-39.0	-41.0	14.9	0.00e+00	0	62	0	404750336	49	4552
2026-01-28 01:48:02.78	310.89	17.93	-39.0	-41.0	15.0	0.00e+00	0	62	0	407896064	49	4551
2026-01-28 01:48:03.79	310.65	17.92	-38.9	-40.9	15.0	0.00e+00	0	62	0	411041792	49	4505
2026-01-28 01:48:04.80	310.42	17.91	-39.0	-40.9	15.0	7.00e-07	0	62	0	415236096	49	4532
2026-01-28 01:48:05.81	310.18	17.91	-39.0	-40.9	14.9	0.00e+00	0	62	0	418381824	49	4539
2026-01-28 01:48:06.82	309.95	17.90	-38.9	-40.9	15.0	0.00e+00	0	62	0	421527552	49	4513
2026-01-28 01:48:07.83	309.71	17.89	-38.9	-40.8	15.0	0.00e+00	0	62	0	423624704	49	4482
2026-01-28 01:48:08.84	309.48	17.88	-38.9	-40.9	15.0	0.00e+00	0	62	0	426770432	49	4496
2026-01-28 01:48:09.85	309.24	17.87	-38.9	-40.8	15.1	0.00e+00	0	62	0	430964736	49	4470
2026-01-28 01:48:10.86	309.01	17.86	-39.0	-40.9	14.9	7.00e-07	0	62	0	434110464	49	4537
2026-01-28 01:48:11.87	308.77	17.85	-39.0	-40.9	15.0	0.00e+00	0	62	0	437256192	49	4525
2026-01-28 01:48:12.88	308.54	17.84	-38.9	-40.8	15.0	0.00e+00	0	62	0	440401920	49	4474
2026-01-28 01:48:13.89	308.31	17.83	-38.8	-40.8	15.1	0.00e+00	0	62	0	443547648	49	4454
2026-01-28 01:48:14.90	308.07	17.82	-38.8	-40.8	15.1	0.00e+00	0	62	0	446693376	49	4449
2026-01-28 01:48:15.91	307.84	17.81	-38.9	-40.8	15.1	0.00e+00	0	62	0	449839104	49	4484
2026-01-28 01:48:16.92	307.60	17.80	-38.9	-40.8	15.0	0.00e+00	0	62	0	452984832	49	4491
2026-01-28 01:48:17.93	307.37	17.78	-39.0	-41.0	15.0	0.00e+00	0	62	0	456130560	49	4549
2026-01-28 01:48:18.94	307.14	17.77	-39.0	-40.9	15.0	0.00e+00	0	62	0	459276288	49	4531
2026-01-28 01:48:19.95	306.90	17.76	-39.1	-41.1	14.8	0.00e+00	0	62	0	462422016	49	4607
2026-01-28 01:48:20.96	306.67	17.74	-39.2	-41.2	14.7	0.00e+00	0	62	0	465567744	49	4685
2026-01-28 01:48:21.97	306.44	17.73	-39.2	-41.3	14.6	0.00e+00	0	62	0	468713472	49	4707
2026-01-28 01:48:22.98	306.21	17.71	-39.0	-41.0	14.9	0.00e+00	0	62	0	471859200	49	4571
2026-01-28 01:48:23.99	305.98	17.70	-39.0	-41.0	14.9	0.00e+00	0	62	0	475004928	49	4550
2026-01-28 01:48:25.00	305.74	17.68	-39.0	-40.9	14.9	0.00e+00	0	62	0	478150656	49	4526
2026-01-28 01:48:26.01	305.51	17.66	-39.0	-41.0	14.9	0.00e+00	0	62	0	481296384	49	4555
2026-01-28 01:48:27.02	305.28	17.65	-39.0	-41.0	14.9	0.00e+00	0	62	0	484442112	49	4555
2026-01-28 01:48:28.03	305.05	17.63	-39.1	-41.1	14.8	7.00e-07	0	62	0	487587840	49	4602
2026-01-28 01:48:29.04	304.82	17.61	-39.1	-41.1	14.8	0.00e+00	0	62	0	490733568	49	4612
2026-01-28 01:48:30.05	304.59	17.59	-39.1	-41.1	14.7	0.00e+00	0	62	0	493879296	49	4644
2026-01-28 01:48:31.06	304.36	17.57	-39.2	-41.3	14.6	0.00e+00	0	62	0	497025024	49	4717
2026-01-28 01:48:32.07	304.13	17.55	-39.2	-41.2	14.7	0.00e+00	0	62	0	500170752	49	4677
2026-01-28 01:48:33.08	303.90	17.53	-39.2	-41.2	14.6	0.00e+00	0	62	0	503316480	49	4701
2026-01-28 01:48:34.09	303.67	17.51	-39.2	-41.3	14.5	7.00e-07	0	62	0	506462208	49	4742
2026-01-28 01:48:35.10	303.44	17.49	-39.3	-41.4	14.4	7.00e-07	0	62	0	509607936	49	4798
2026-01-28 01:48:36.11	303.21	17.47	-39.4	-41.5	14.3	7.00e-07	0	62	0	512753664	49	4857
2026-01-28 01:48:37.12	302.98	17.45	-39.5	-41.6	14.2	7.00e-07	0	62	0	515899392	49	4906
2026-01-28 01:48:38.13	302.76	17.43	-39.4	-41.5	14.4	2.20e-06	0	62	0	519045120	49	4831
2026-01-28 01:48:39.14	302.53	17.40	-39.2	-41.2	14.6	7.00e-07	0	62	0	522190848	49	4681
2026-01-28 01:48:40.15	302.30	17.38	-39.1	-41.1	14.7	0.00e+00	0	62	0	525336576	49	4634
2026-01-28 01:48:41.16	302.07	17.36	-39.1	-41.1	14.7	0.00e+00	0	62	0	528482304	49	4644
2026-01-28 01:48:42.17	301.85	17.33	-39.0	-41.0	14.8	0.00e+00	0	62	0	531628032	49	4598
2026-01-28 01:48:43.18	301.62	17.31	-39.0	-41.0	14.8	0.00e+00	0	62	0	534773760	49	4591
2026-01-28 01:48:44.19	301.39	17.28	-39.0	-41.0	14.9	0.00e+00	0	62	0	537919488	49	4551
2026-01-28 01:48:45.20	301.17	17.26	-39.0	-41.0	14.9	0.00e+00	0	62	0	541065216	49	4546
2026-01-28 01:48:46.20	300.95	17.23	-38.9	-40.9	14.9	0.00e+00	0	62	0	544210944	49	4519
2026-01-28 01:48:47.22	300.72	17.20	-39.0	-41.0	14.8	0.00e+00	0	62	0	547356672	49	4580
2026-01-28 01:48:48.23	300.50	17.18	-39.1	-41.1	14.7	7.00e-07	0	62	0	550502400	49	4633
2026-01-28 01:48:49.24	300.27	17.15	-39.1	-41.1	14.7	0.00e+00	0	62	0	553648128	49	4645
2026-01-28 01:48:50.25	300.05	17.12	-39.1	-41.2	14.6	0.00e+00	0	62	0	556793856	49	4672
2026-01-28 01:48:51.26	299.82	17.10	-39.1	-41.2	14.6	7.00e-07	0	62	0	559939584	49	4661
2026-01-28 01:48:52.27	299.60	17.07	-39.1	-41.1	14.7	0.00e+00	0	62	0	563085312	49	4625
2026-01-28 01:48:53.28	299.38	17.04	-39.1	-41.1	14.8	7.00e-07	0	62	0	566231040	49	4606
2026-01-28 01:48:54.29	299.16	17.01	-39.0	-41.1	14.8	0.00e+00	0	62	0	569376768	49	4600
2026-01-28 01:48:55.30	298.94	16.98	-39.0	-41.1	14.7	0.00e+00	0	62	0	572522496	49	4609
2026-01-28 01:48:56.31	298.72	16.95	-39.1	-41.1	14.7	7.00e-07	0	62	0	575668224	49	4629
2026-01-28 01:48:57.32	298.49	16.92	-39.0	-41.0	14.8	7.00e-07	0	62	0	578813952	49	4564
2026-01-28 01:48:58.33	298.27	16.89	-39.0	-41.0	14.8	0.00e+00	0	63	0	581959680	49	4586
2026-01-28 01:48:59.34	298.06	16.86	-39.0	-41.0	14.8	0.00e+00	0	62	0	585105408	49	4577
2026-01-28 01:49:00.35	297.84	16.83	-39.1	-41.1	14.7	0.00e+00	0	62	0	588251136	49	4646
2026-01-28 01:49:01.36	297.62	16.80	-39.1	-41.2	14.6	7.00e-07	0	62	0	591396864	49	4665
2026-01-28 01:49:02.37	297.40	16.76	-39.0	-41.0	14.8	0.00e+00	0	62	0	594542592	49	4580
2026-01-28 01:49:03.38	297.18	16.73	-39.1	-41.1	14.7	0.00e+00	0	62	0	597688320	49	4615
2026-01-28 01:49:04.39	296.96	16.70	-39.0	-41.1	14.7	0.00e+00	0	63	0	600834048	49	4616
2026-01-28 01:49:05.40	296.75	16.66	-39.0	-41.1	14.7	0.00e+00	0	62	0	603979776	49	4612
2026-01-28 01:49:06.41	296.53	16.63	-39.1	-41.1	14.7	0.00e+00	0	62	0	607125504	49	4614
2026-01-28 01:49:07.42	296.31	16.60	-39.1	-41.2	14.6	0.00e+00	0	62	0	610271232	49	4666
2026-01-28 01:49:08.43	296.10	16.56	-39.0	-41.0	14.8	1.50e-06	0	63	0	613416960	49	4578
2026-01-28 01:49:09.44	295.88	16.53	-38.9	-40.8	14.9	0.00e+00	0	62	0	616562688	49	4483
2026-01-28 01:49:10.45	295.67	16.49	-38.9	-40.9	14.9	0.00e+00	0	62	0	619708416	49	4503
2026-01-28 01:49:11.46	295.46	16.46	-38.9	-40.9	14.9	0.00e+00	0	62	0	622854144	49	4539
2026-01-28 01:49:12.46	295.24	16.42	-39.0	-41.0	14.8	0.00e+00	0	62	0	625999872	49	4549
2026-01-28 01:49:13.46	295.03	16.39	-39.0	-41.0	14.8	0.00e+00	0	62	0	629145600	49	4566
2026-01-28 01:49:14.47	294.82	16.35	-39.0	-41.0	14.8	0.00e+00	0	62	0	632291328	49	4592
2026-01-28 01:49:15.48	294.61	16.31	-39.1	-41.1	14.7	7.00e-07	0	62	0	635437056	49	4623
2026-01-28 01:49:16.49	294.40	16.27	-39.0	-41.0	14.8	0.00e+00	0	63	0	638582784	49	4555
2026-01-28 01:49:17.50	294.19	16.24	-39.0	-41.0	14.8	7.00e-07	0	62	0	641728512	49	4585
2026-01-28 01:49:18.51	293.98	16.20	-39.1	-41.1	14.7	0.00e+00	0	62	0	644874240	49	4634
2026-01-28 01:49:19.52	293.77	16.16	-39.2	-41.3	14.5	0.00e+00	0	62	0	648019968	49	4718
2026-01-28 01:49:20.53	293.56	16.12	-39.1	-41.2	14.5	7.00e-07	0	62	0	651165696	49	4678
2026-01-28 01:49:21.54	293.35	16.08	-39.2	-41.3	14.4	2.20e-06	0	62	0	654311424	49	4739
2026-01-28 01:49:22.55	293.14	16.04	-39.2	-41.3	14.4	1.50e-06	0	62	0	657457152	49	4723
2026-01-28 01:49:23.56	292.93	16.00	-39.2	-41.3	14.4	7.00e-07	0	62	0	660602880	49	4745
2026-01-28 01:49:24.57	292.73	15.96	-39.2	-41.4	14.4	7.00e-07	0	62	0	663748608	49	4762
2026-01-28 01:49:25.58	292.52	15.92	-39.1	-41.2	14.6	0.00e+00	0	62	0	666894336	49	4657
2026-01-28 01:49:26.59	292.31	15.88	-39.1	-41.1	14.6	0.00e+00	0	62	0	670040064	49	4627
2026-01-28 01:49:27.60	292.11	15.84	-39.1	-41.2	14.6	0.00e+00	0	62	0	673185792	49	4660
2026-01-28 01:49:28.61	291.90	15.80	-39.1	-41.2	14.5	7.00e-07	0	62	0	676331520	49	4699
2026-01-28 01:49:29.62	291.70	15.76	-39.1	-41.2	14.5	0.00e+00	0	62	0	679477248	49	4664
2026-01-28 01:49:30.63	291.50	15.72	-39.1	-41.2	14.5	1.50e-06	0	62	0	682622976	49	4668
2026-01-28 01:49:31.64	291.29	15.68	-39.0	-41.0	14.7	0.00e+00	0	62	0	685768704	49	4567
2026-01-28 01:49:32.65	291.09	15.63	-38.9	-41.0	14.7	7.00e-07	0	62	0	688914432	49	4551
2026-01-28 01:49:33.66	290.89	15.59	-38.8	-40.7	15.0	0.00e+00	0	62	0	692060160	49	4426
2026-01-28 01:49:34.67	290.69	15.55	-38.8	-40.7	14.9	1.50e-06	0	62	0	695205888	49	4440
2026-01-28 01:49:35.68	290.49	15.51	-38.8	-40.8	14.9	7.00e-07	0	62	0	698351616	49	4465
2026-01-28 01:49:36.69	290.29	15.46	-38.8	-40.8	14.9	0.00e+00	0	62	0	701497344	49	4460
2026-01-28 01:49:37.70	290.09	15.42	-38.9	-40.9	14.8	0.00e+00	0	63	0	704643072	49	4509
2026-01-28 01:49:38.71	289.89	15.38	-39.0	-41.0	14.7	0.00e+00	0	62	0	707788800	49	4561
2026-01-28 01:49:39.72	289.69	15.33	-39.1	-41.2	14.5	7.00e-07	0	62	0	710934528	49	4689
2026-01-28 01:49:40.73	289.49	15.29	-39.2	-41.4	14.3	0.00e+00	0	62	0	714080256	49	4771
2026-01-28 01:49:41.75	289.29	15.24	-39.3	-41.4	14.3	1.50e-06	0	62	0	717225984	49	4814
2026-01-28 01:49:42.76	289.10	15.20	-39.2	-41.4	14.3	2.20e-06	0	62	0	720371712	49	4781
2026-01-28 01:49:43.77	288.90	15.15	-39.1	-41.2	14.4	7.00e-07	0	62	0	723517440	49	4692
2026-01-28 01:49:44.78	288.70	15.11	-39.0	-41.1	14.5	0.00e+00	0	62	0	726663168	49	4628
2026-01-28 01:49:45.79	288.51	15.06	-38.8	-40.9	14.7	0.00e+00	0	62	0	729808896	49	4495
2026-01-28 01:49:46.80	288.32	15.01	-38.8	-40.7	14.9	0.00e+00	0	62	0	734003200	49	4424
2026-01-28 01:49:47.81	288.12	14.97	-38.7	-40.7	14.9	0.00e+00	0	62	0	737148928	49	4409
2026-01-28 01:49:48.81	287.93	14.92	-38.7	-40.6	15.0	0.00e+00	0	62	0	739246080	49	4367
2026-01-28 01:49:49.82	287.74	14.88	-38.7	-40.6	15.0	0.00e+00	0	62	0	742391808	49	4390
2026-01-28 01:49:50.83	287.55	14.83	-38.8	-40.8	14.8	2.20e-06	0	62	0	745537536	49	4480
2026-01-28 01:49:51.84	287.36	14.78	-38.9	-41.0	14.6	0.00e+00	0	62	0	749731840	49	4559
2026-01-28 01:49:52.86	287.16	14.73	-39.0	-41.1	14.5	7.00e-07	0	62	0	752877568	49	4626
2026-01-28 01:49:53.87	286.97	14.69	-39.1	-41.2	14.4	7.00e-07	0	62	0	756023296	49	4657
2026-01-28 01:49:54.88	286.78	14.64	-39.0	-41.2	14.4	0.00e+00	0	62	0	759169024	49	4655
2026-01-28 01:49:55.89	286.59	14.59	-39.1	-41.2	14.3	0.00e+00	0	62	0	762314752	49	4698
2026-01-28 01:49:56.90	286.41	14.54	-39.1	-41.3	14.3	2.20e-06	0	63	0	765460480	49	4714
2026-01-28 01:49:57.91	286.22	14.49	-39.1	-41.2	14.3	7.00e-07	0	62	0	768606208	49	4689
2026-01-28 01:49:58.91	286.03	14.44	-39.1	-41.2	14.3	3.00e-06	0	62	0	771751936	49	4667
2026-01-28 01:49:59.92	285.85	14.40	-39.1	-41.2	14.4	0.00e+00	0	62	0	774897664	49	4688
2026-01-28 01:50:00.94	285.66	14.35	-39.2	-41.3	14.2	7.00e-07	0	62	0	778043392	49	4743
2026-01-28 01:50:01.95	285.48	14.30	-39.2	-41.4	14.2	2.20e-06	0	62	0	781189120	49	4764
2026-01-28 01:50:02.96	285.29	14.25	-39.2	-41.4	14.2	7.00e-07	0	62	0	784334848	49	4788
2026-01-28 01:50:03.96	285.11	14.20	-39.2	-41.4	14.1	3.00e-06	0	62	0	787480576	49	4783
2026-01-28 01:50:04.97	284.93	14.15	-39.3	-41.5	14.1	0.00e+00	0	62	0	790626304	49	4818
2026-01-28 01:50:05.98	284.74	14.10	-39.3	-41.5	14.0	2.20e-06	0	62	0	793772032	49	4852
2026-01-28 01:50:07.00	284.56	14.05	-39.3	-41.6	13.9	2.20e-06	0	62	0	796917760	49	4884
2026-01-28 01:50:08.01	284.38	14.00	-39.2	-41.5	14.0	2.20e-06	0	62	0	800063488	49	4817
2026-01-28 01:50:09.02	284.20	13.95	-39.2	-41.5	14.0	3.80e-06	0	62	0	803209216	49	4817
2026-01-28 01:50:10.03	284.02	13.90	-39.2	-41.4	14.0	1.50e-06	0	62	0	806354944	49	4809
2026-01-28 01:50:11.04	283.84	13.84	-39.2	-41.5	14.0	2.20e-06	0	62	0	809500672	49	4831
2026-01-28 01:50:12.05	283.66	13.79	-39.3	-41.5	14.0	2.20e-06	0	62	0	812646400	49	4824
2026-01-28 01:50:13.06	283.48	13.74	-39.2	-41.4	14.1	2.20e-06	0	63	0	815792128	49	4771
2026-01-28 01:50:14.07	283.30	13.69	-39.2	-41.3	14.1	1.50e-06	0	62	0	818937856	49	4759
2026-01-28 01:50:15.08	283.13	13.64	-39.1	-41.2	14.2	0.00e+00	0	62	0	822083584	49	4700
2026-01-28 01:50:16.09	282.95	13.59	-39.1	-41.3	14.2	3.80e-06	0	62	0	825229312	49	4754
2026-01-28 01:50:17.10	282.77	13.54	-39.2	-41.4	14.1	3.80e-06	0	62	0	828375040	49	4762
2026-01-28 01:50:18.11	282.60	13.48	-39.3	-41.5	13.9	1.50e-06	0	62	0	831520768	49	4857
2026-01-28 01:50:19.12	282.42	13.43	-39.3	-41.6	13.9	2.20e-06	0	62	0	834666496	49	4887
2026-01-28 01:50:20.13	282.25	13.38	-39.4	-41.7	13.7	6.80e-06	0	62	0	837812224	49	4982
2026-01-28 01:50:21.14	282.08	13.33	-39.5	-41.8	13.6	4.50e-06	0	62	0	840957952	49	5017
2026-01-28 01:50:22.15	281.90	13.27	-39.5	-41.9	13.6	8.30e-06	0	62	0	844103680	49	5060
2026-01-28 01:50:23.16	281.73	13.22	-39.6	-42.0	13.5	6.10e-06	0	62	0	847249408	49	5125
2026-01-28 01:50:24.17	281.56	13.17	-39.6	-42.0	13.5	1.06e-05	0	62	0	850395136	49	5101
2026-01-28 01:50:25.18	281.39	13.11	-39.6	-41.9	13.6	9.10e-06	0	62	0	853540864	49	5083
2026-01-28 01:50:26.19	281.22	13.06	-39.6	-42.0	13.4	8.30e-06	0	62	0	856686592	49	5136
2026-01-28 01:50:27.20	281.05	13.01	-39.7	-42.0	13.5	1.60e-05	0	62	0	859832320	50	4866
2026-01-28 01:50:28.21	280.88	12.95	-39.7	-42.2	13.4	1.14e-05	0	62	0	862978048	50	4931
2026-01-28 01:50:29.22	280.71	12.90	-39.7	-42.1	13.4	1.29e-05	0	63	0	866123776	50	4917
2026-01-28 01:50:30.23	280.54	12.85	-39.7	-42.1	13.4	7.60e-06	0	62	0	869269504	50	4915
2026-01-28 01:50:31.24	280.38	12.79	-39.6	-42.0	13.5	6.10e-06	0	62	0	872415232	50	4845
2026-01-28 01:50:32.25	280.21	12.74	-39.6	-42.0	13.5	5.30e-06	0	63	0	875560960	50	4826
2026-01-28 01:50:33.26	280.05	12.69	-39.6	-41.9	13.5	1.44e-05	0	63	0	878706688	50	4806
2026-01-28 01:50:34.27	279.88	12.63	-39.5	-41.8	13.7	1.14e-05	0	62	0	881852416	50	4737
2026-01-28 01:50:35.28	279.72	12.58	-39.4	-41.7	13.7	4.50e-06	0	63	0	884998144	50	4696
2026-01-28 01:50:36.29	279.55	12.52	-39.4	-41.7	13.8	2.20e-06	0	62	0	888143872	50	4686
2026-01-28 01:50:37.30	279.39	12.47	-39.5	-41.8	13.6	5.30e-06	0	62	0	891289600	50	4756
2026-01-28 01:50:38.31	279.23	12.41	-39.6	-42.0	13.5	8.30e-06	0	62	0	894435328	50	4828
2026-01-28 01:50:39.32	279.06	12.36	-39.7	-42.1	13.4	1.90e-05	0	62	0	897581056	50	4913
2026-01-28 01:50:40.33	278.90	12.30	-39.8	-42.3	13.2	1.60e-05	0	62	0	900726784	50	4994
2026-01-28 01:50:41.34	278.74	12.25	-39.7	-42.2	13.3	1.90e-05	0	63	0	903872512	50	4936
2026-01-28 01:50:42.35	278.58	12.19	-39.7	-42.1	13.4	1.60e-05	0	62	0	907018240	50	4881
2026-01-28 01:50:43.36	278.42	12.14	-39.5	-41.9	13.5	9.10e-06	0	62	0	910163968	50	4795
2026-01-28 01:50:44.37	278.26	12.08	-39.5	-41.9	13.4	1.29e-05	0	62	0	913309696	50	4800
2026-01-28 01:50:45.38	278.10	12.03	-39.5	-41.9	13.5	1.60e-05	0	62	0	916455424	50	4762
2026-01-28 01:50:46.39	277.94	11.97	-39.4	-41.7	13.7	9.90e-06	0	62	0	919601152	50	4657
2026-01-28 01:50:47.40	277.79	11.92	-39.3	-41.6	13.8	3.00e-06	0	62	0	922746880	50	4613
2026-01-28 01:50:48.41	277.63	11.86	-39.4	-41.7	13.7	5.30e-06	0	63	0	925892608	50	4663
2026-01-28 01:50:49.42	277.47	11.81	-39.4	-41.7	13.7	6.10e-06	0	63	0	929038336	50	4652
2026-01-28 01:50:50.43	277.32	11.75	-39.4	-41.7	13.7	6.80e-06	0	62	0	932184064	50	4665
2026-01-28 01:50:51.44	277.16	11.69	-39.3	-41.6	13.7	6.10e-06	0	62	0	935329792	50	4634
2026-01-28 01:50:52.45	277.01	11.64	-39.3	-41.6	13.7	3.80e-06	0	62	0	938475520	50	4649
2026-01-28 01:50:53.46	276.86	11.58	-39.4	-41.8	13.5	9.90e-06	0	63	0	941621248	50	4728
2026-01-28 01:50:54.46	276.70	11.53	-39.5	-41.8	13.4	1.14e-05	0	62	0	944766976	50	4757
2026-01-28 01:50:55.48	276.55	11.47	-39.5	-41.9	13.4	1.06e-05	0	63	0	947912704	50	4779
2026-01-28 01:50:56.48	276.40	11.41	-39.5	-42.0	13.3	1.98e-05	0	62	0	951058432	50	4825
2026-01-28 01:50:57.49	276.25	11.36	-39.6	-42.1	13.2	2.74e-05	0	62	0	954204160	50	4880
2026-01-28 01:50:58.50	276.10	11.30	-39.6	-42.1	13.1	2.82e-05	0	63	0	957349888	50	4907
2026-01-28 01:50:59.51	275.95	11.24	-39.7	-42.2	13.0	3.50e-05	0	63	0	960495616	50	4944
2026-01-28 01:51:00.52	275.80	11.19	-39.7	-42.3	12.9	5.03e-05	0	63	0	963641344	50	5000
2026-01-28 01:51:01.53	275.65	11.13	-39.7	-42.3	12.8	6.25e-05	0	63	0	966787072	50	5012
2026-01-28 01:51:02.54	275.50	11.08	-39.7	-42.3	12.7	5.56e-05	0	63	0	969932800	50	5027
2026-01-28 01:51:03.55	275.35	11.02	-39.8	-42.5	12.5	9.07e-05	0	63	0	973078528	50	5138
2026-01-28 01:51:04.56	275.20	10.96	-39.9	-42.6	12.4	1.37e-04	0	62	0	976224256	50	5185
2026-01-28 01:51:05.57	275.06	10.91	-39.8	-42.6	12.2	1.99e-04	0	62	0	979369984	50	5213
2026-01-28 01:51:06.59	274.91	10.85	-39.9	-42.7	12.1	2.32e-04	0	63	0	982515712	50	5277
2026-01-28 01:51:07.59	274.77	10.79	-39.8	-42.6	12.2	2.33e-04	0	63	0	985661440	50	5192
2026-01-28 01:51:08.60	274.62	10.73	-39.8	-42.7	12.1	2.45e-04	0	63	0	988807168	50	5239
2026-01-28 01:51:09.61	274.48	10.68	-40.0	-42.9	11.9	3.51e-04	0	62	0	991952896	50	5369
2026-01-28 01:51:10.62	274.33	10.62	-40.0	-43.1	11.6	6.52e-04	0	62	0	995098624	50	5475
2026-01-28 01:51:11.63	274.19	10.56	-40.2	-43.4	11.3	1.12e-03	0	62	0	998244352	50	5671
2026-01-28 01:51:12.64	274.05	10.51	-40.2	-43.4	11.2	1.33e-03	0	62	0	1001390080	51	5391
2026-01-28 01:51:13.65	273.90	10.45	-40.3	-43.5	11.0	1.60e-03	0	63	0	1004535808	51	5451
2026-01-28 01:51:14.66	273.76	10.39	-40.3	-43.6	10.8	2.34e-03	0	62	0	1007681536	51	5526
2026-01-28 01:51:15.67	273.62	10.34	-40.3	-43.7	10.7	2.90e-03	0	63	0	1010827264	51	5586
2026-01-28 01:51:16.68	273.48	10.28	-40.3	-43.8	10.7	2.83e-03	0	62	0	1013972992	51	5603
2026-01-28 01:51:17.69	273.34	10.22	-40.3	-43.8	10.5	3.40e-03	0	62	0	1017118720	51	5614
2026-01-28 01:51:18.70	273.20	10.16	-40.3	-43.8	10.5	3.67e-03	0	63	0	1020264448	51	5637
2026-01-28 01:51:19.70	273.06	10.11	-40.3	-43.8	10.4	4.68e-03	0	62	0	1023410176	51	5638
2026-01-28 01:51:20.71	272.93	10.05	-40.3	-43.9	10.3	5.08e-03	0	62	0	1026555904	51	5690
2026-01-28 01:51:21.72	272.79	9.99	-40.3	-43.9	10.3	5.08e-03	0	62	0	1029701632	51	5705
2026-01-28 01:51:22.73	272.65	9.94	-40.3	-43.9	10.2	6.06e-03	0	63	0	1032847360	51	5713
2026-01-28 01:51:23.74	272.51	9.88	-40.4	-44.1	10.0	7.49e-03	0	62	0	1035993088	51	5816
2026-01-28 01:51:24.75	272.38	9.82	-40.4	-44.2	9.9	8.82e-03	0	63	0	1039138816	51	5857
2026-01-28 01:51:25.76	272.24	9.76	-40.4	-44.1	10.0	8.17e-03	0	62	0	1042284544	51	5845
2026-01-28 01:51:26.77	272.11	9.71	-40.5	-44.2	9.9	8.53e-03	0	62	0	1045430272	51	5876
2026-01-28 01:51:27.78	271.97	9.65	-40.5	-44.4	9.7	1.15e-02	0	63	0	1048576000	51	6021
2026-01-28 01:51:28.79	271.84	9.59	-40.6	-44.4	9.7	1.19e-02	0	63	0	1052770304	51	6031
2026-01-28 01:51:29.80	271.70	9.53	-40.6	-44.5	9.7	1.18e-02	0	62	0	1054867456	51	6089
2026-01-28 01:51:30.81	271.57	9.48	-40.6	-44.5	9.6	1.33e-02	0	63	0	1058013184	51	6074
2026-01-28 01:51:31.82	271.44	9.42	-40.6	-44.5	9.6	1.31e-02	0	63	0	1061158912	51	6074
2026-01-28 01:51:32.83	271.31	9.36	-40.6	-44.4	9.8	1.08e-02	0	63	0	1064304640	51	6017
2026-01-28 01:51:33.84	271.18	9.30	-40.7	-44.5	9.6	1.17e-02	0	63	0	1068498944	51	6124
2026-01-28 01:51:34.85	271.05	9.24	-40.6	-44.5	9.6	1.34e-02	0	62	0	1071644672	51	6080
2026-01-28 01:51:35.86	270.91	9.19	-40.7	-44.8	9.3	1.66e-02	0	62	0	1074790400	51	6277
2026-01-28 01:51:36.87	270.79	9.13	-40.7	-44.9	9.1	2.22e-02	0	63	0	1077936128	51	6364
2026-01-28 01:51:37.88	270.66	9.07	-40.7	-45.0	8.9	2.41e-02	0	62	0	1080033280	52	6066
2026-01-28 01:51:38.89	270.53	9.01	-40.8	-45.3	8.6	3.58e-02	0	63	0	1084227584	52	6316
2026-01-28 01:51:39.90	270.40	8.96	-40.9	-45.5	8.2	4.95e-02	0	63	0	1087373312	52	6494
2026-01-28 01:51:40.91	270.27	8.90	-41.0	-46.0	7.8	7.53e-02	0	63	0	1090519040	52	6810
2026-01-28 01:51:41.92	270.14	8.84	-41.1	-46.2	7.5	9.89e-02	0	62	0	1093664768	52	6969
2026-01-28 01:51:42.93	270.02	8.78	-41.1	-46.5	7.1	1.30e-01	0	63	0	1096810496	52	7228
2026-01-28 01:51:43.94	269.89	8.73	-41.2	-46.8	6.8	1.60e-01	0	63	0	1099956224	52	7487
2026-01-28 01:51:44.95	269.77	8.67	-41.2	-47.0	6.6	2.09e-01	0	63	0	1103101952	52	7642
2026-01-28 01:51:45.96	269.64	8.61	-41.2	-47.2	6.3	2.58e-01	0	63	0	1106247680	53	7451
2026-01-28 01:51:46.97	269.52	8.55	-40.9	-49.7	4.0	1.40e+00	0	63	104	1108344832	53	9939
2026-01-28 01:51:47.98	269.39	8.50	-41.4	-49.0	4.9	7.58e-01	0	63	0	1108344832	53	9136
2026-01-28 01:51:48.99	269.27	8.44	-40.0	-51.8	3.8	1.49e+00	0	63	104	1109393408	52	13281
2026-01-28 01:51:50.00	269.14	8.38	-41.2	-52.8	3.8	1.49e+00	0	63	104	1109393408	52	14889
2026-01-28 01:51:51.01	269.02	8.32	-41.3	-48.2	5.4	6.70e-01	0	63	0	1109393408	53	8337
2026-01-28 01:51:52.02	268.90	8.27	-41.2	-48.5	5.1	6.32e-01	0	63	0	1112539136	53	8629
2026-01-28 01:51:53.03	268.78	8.21	-41.2	-48.6	5.0	6.80e-01	0	63	0	1115684864	53	8711
2026-01-28 01:51:54.04	268.66	8.15	-41.2	-48.8	4.9	7.20e-01	0	63	0	1118830592	53	8881
2026-01-28 01:51:55.05	268.54	8.09	-41.2	-49.7	4.0	8.54e-01	2	63	104	1119879168	53	9906
2026-01-28 01:51:56.06	268.42	8.04	-41.3	-49.9	4.0	1.19e+00	2	63	104	1119879168	53	10153
2026-01-28 01:51:57.07	268.30	7.98	-44.5	-56.7	3.8	1.49e+00	0	63	104	1119879168	59	15719
2026-01-28 01:51:58.08	268.18	7.92	-44.8	-57.3	3.8	1.49e+00	0	63	104	1119879168	60	15865
2026-01-28 01:51:59.09	268.06	7.86	-45.0	-57.5	3.8	1.49e+00	0	63	104	1119879168	60	16284
2026-01-28 01:52:00.10	267.94	7.81	-45.1	-57.6	3.8	1.49e+00	0	63	104	1119879168	60	16474
2026-01-28 01:52:01.11	267.82	7.75	-45.2	-57.7	3.8	1.49e+00	0	63	104	1119879168	60	16654
2026-01-28 01:52:02.12	267.70	7.69	-45.7	-58.3	3.8	1.49e+00	0	63	104	1119879168	61	16778
2026-01-28 01:52:03.13	267.59	7.63	-45.2	-57.8	3.8	1.49e+00	0	63	104	1119879168	61	15917
2026-01-28 01:52:04.14	267.47	7.58	-45.3	-57.9	3.8	1.49e+00	0	62	104	1119879168	61	15954
2026-01-28 01:52:05.15	267.35	7.52	-45.3	-57.9	3.8	1.49e+00	0	63	104	1119879168	61	15983
2026-01-28 01:52:06.16	267.24	7.46	-45.3	-57.8	3.8	1.49e+00	0	63	104	1119879168	61	15916
2026-01-28 01:52:07.17	267.12	7.40	-45.3	-57.8	3.8	1.49e+00	0	63	104	1119879168	61	15930
2026-01-28 01:52:08.18	267.01	7.35	-45.3	-57.8	3.8	1.49e+00	0	63	104	1119879168	61	15881
2026-01-28 01:52:09.19	266.90	7.29	-45.3	-57.8	3.8	1.49e+00	0	63	104	1119879168	61	15908
2026-01-28 01:52:10.20	266.78	7.23	-45.3	-57.8	3.8	1.49e+00	0	63	104	1119879168	61	15887
2026-01-28 01:52:11.21	266.67	7.17	-45.3	-57.8	3.8	1.49e+00	0	63	104	1119879168	61	15883
2026-01-28 01:52:12.22	266.56	7.12	-45.3	-57.9	3.8	1.49e+00	0	63	104	1119879168	61	15968
2026-01-28 01:52:13.23	266.44	7.06	-45.2	-57.7	3.8	1.49e+00	0	63	104	1119879168	61	15760
2026-01-28 01:52:14.24	266.33	7.00	-45.2	-57.7	3.8	1.49e+00	0	63	104	1119879168	61	15688
2026-01-28 01:52:15.25	266.22	6.94	-45.2	-57.7	3.8	1.49e+00	0	63	104	1119879168	61	15696
2026-01-28 01:52:16.26	266.11	6.89	-45.2	-57.7	3.8	1.49e+00	0	63	104	1119879168	61	15756
2026-01-28 01:52:17.27	266.00	6.83	-45.2	-57.7	3.8	1.49e+00	0	63	104	1119879168	61	15739
2026-01-28 01:52:18.28	265.89	6.77	-45.2	-57.8	3.8	1.49e+00	0	63	104	1119879168	61	15773
2026-01-28 01:52:19.29	265.78	6.72	-45.2	-57.7	3.8	1.49e+00	0	63	104	1119879168	61	15665
2026-01-28 01:52:20.30	265.67	6.66	-45.2	-57.7	3.8	1.49e+00	0	63	104	1119879168	61	15720
2026-01-28 01:52:21.31	265.56	6.60	-45.2	-57.7	3.8	1.49e+00	0	63	104	1119879168	61	15681
2026-01-28 01:52:22.33	265.45	6.54	-45.2	-57.7	3.8	1.49e+00	0	63	104	1119879168	61	15695
2026-01-28 01:52:23.33	265.34	6.49	-45.2	-57.7	3.8	1.49e+00	0	63	104	1119879168	61	15724
2026-01-28 01:52:24.35	265.24	6.43	-45.2	-57.7	3.8	1.49e+00	0	63	104	1119879168	61	15729
2026-01-28 01:52:25.36	265.13	6.37	-45.2	-57.7	3.8	1.49e+00	0	63	104	1119879168	61	15694
2026-01-28 01:52:26.37	265.02	6.32	-45.2	-57.7	3.8	1.49e+00	0	63	104	1119879168	61	15697
2026-01-28 01:52:27.38	264.92	6.26	-45.2	-57.7	3.8	1.49e+00	0	63	104	1119879168	61	15709
2026-01-28 01:52:28.39	264.81	6.20	-45.2	-57.7	3.8	1.49e+00	0	63	104	1119879168	61	15694
2026-01-28 01:52:29.40	264.70	6.15	-45.2	-57.7	3.8	1.49e+00	0	63	104	1119879168	61	15677
2026-01-28 01:52:30.41	264.60	6.09	-45.2	-57.7	3.8	1.49e+00	0	63	104	1119879168	61	15691
2026-01-28 01:52:31.42	264.50	6.03	-45.2	-57.7	3.8	1.49e+00	0	63	104	1119879168	61	15647
2026-01-28 01:52:32.43	264.39	5.98	-45.2	-57.7	3.8	1.49e+00	0	63	104	1119879168	61	15697
2026-01-28 01:52:33.44	264.29	5.92	-45.2	-57.7	3.8	1.49e+00	0	63	104	1119879168	61	15649
2026-01-28 01:52:34.45	264.18	5.86	-45.2	-57.7	3.8	1.49e+00	0	63	104	1119879168	61	15663
2026-01-28 01:52:35.47	264.08	5.81	-45.2	-57.7	3.8	1.49e+00	0	63	104	1119879168	61	15698
2026-01-28 01:52:36.48	263.98	5.75	-45.2	-57.7	3.8	1.49e+00	0	63	104	1119879168	61	15697
2026-01-28 01:52:37.49	263.88	5.69	-45.2	-57.7	3.8	1.49e+00	0	63	104	1119879168	61	15730
2026-01-28 01:52:38.50	263.77	5.64	-45.2	-57.7	3.8	1.49e+00	0	63	104	1119879168	61	15693
2026-01-28 01:52:39.51	263.67	5.58	-45.1	-57.7	3.8	1.49e+00	0	63	104	1119879168	61	15684
2026-01-28 01:52:40.52	263.57	5.52	-45.2	-57.7	3.8	1.49e+00	0	63	104	1119879168	61	15681
2026-01-28 01:52:41.53	263.47	5.47	-45.2	-57.7	3.8	1.49e+00	0	63	104	1119879168	61	15607
2026-01-28 01:52:42.54	263.37	5.41	-45.2	-57.7	3.8	1.49e+00	0	63	104	1119879168	61	15598
2026-01-28 01:52:43.55	263.27	5.35	-45.2	-57.7	3.8	1.49e+00	0	63	104	1119879168	61	15671
2026-01-28 01:52:44.56	263.17	5.30	-45.2	-57.7	3.8	1.49e+00	0	63	104	1119879168	61	15649
2026-01-28 01:52:45.58	263.07	5.24	-45.2	-57.7	3.8	1.49e+00	0	63	104	1119879168	61	15670
2026-01-28 01:52:46.59	262.97	5.19	-45.2	-57.7	3.8	1.49e+00	0	63	104	1119879168	61	15651
2026-01-28 01:52:47.60	262.88	5.13	-45.2	-57.7	3.8	1.49e+00	0	63	104	1119879168	61	15681
2026-01-28 01:52:48.60	262.78	5.07	-45.2	-57.7	3.8	1.49e+00	0	63	104	1119879168	61	15736
2026-01-28 01:52:49.62	262.68	5.02	-45.2	-57.7	3.8	1.49e+00	0	63	104	1119879168	61	15687
2026-01-28 01:52:50.62	262.58	4.96	-45.2	-57.7	3.8	1.49e+00	0	63	104	1119879168	61	15693
2026-01-28 01:52:51.64	262.49	4.91	-45.2	-57.7	3.8	1.49e+00	0	63	104	1119879168	61	15682
2026-01-28 01:52:52.65	262.39	4.85	-45.2	-57.7	3.8	1.49e+00	0	63	104	1119879168	61	15634
2026-01-28 01:52:53.66	262.30	4.79	-45.2	-57.7	3.8	1.49e+00	0	63	104	1119879168	61	15685
2026-01-28 01:52:54.67	262.20	4.74	-45.2	-57.7	3.8	1.49e+00	0	63	104	1119879168	61	15695
2026-01-28 01:52:55.68	262.10	4.68	-45.2	-57.7	3.8	1.49e+00	0	63	104	1119879168	61	15635
2026-01-28 01:52:56.69	262.01	4.63	-45.1	-57.7	3.8	1.49e+00	0	63	104	1119879168	61	15587
2026-01-28 01:52:57.70	261.92	4.57	-45.2	-57.7	3.8	1.49e+00	0	63	104	1119879168	61	15611
2026-01-28 01:52:58.71	261.82	4.52	-45.2	-57.7	3.8	1.49e+00	0	63	104	1119879168	61	15685
2026-01-28 01:52:59.72	261.73	4.46	-45.1	-57.7	3.8	1.49e+00	0	63	104	1119879168	61	15636
2026-01-28 01:53:00.73	261.63	4.40	-45.2	-57.7	3.8	1.49e+00	0	63	104	1119879168	61	15625
2026-01-28 01:53:01.74	261.54	4.35	-45.1	-57.7	3.8	1.49e+00	0	63	104	1119879168	61	15619
2026-01-28 01:53:02.75	261.45	4.29	-45.1	-57.7	3.8	1.49e+00	0	63	104	1119879168	61	15619
2026-01-28 01:53:03.76	261.36	4.24	-45.1	-57.7	3.8	1.49e+00	0	63	104	1119879168	61	15596
2026-01-28 01:53:04.77	261.26	4.18	-45.1	-57.7	3.8	1.49e+00	0	63	104	1119879168	61	15632
2026-01-28 01:53:05.78	261.17	4.13	-45.1	-57.7	3.8	1.49e+00	0	63	104	1119879168	61	15618
2026-01-28 01:53:06.79	261.08	4.07	-45.1	-57.7	3.8	1.49e+00	0	63	104	1119879168	61	15623
2026-01-28 01:53:07.80	260.99	4.02	-45.1	-57.7	3.8	1.49e+00	0	63	104	1119879168	61	15645
2026-01-28 01:53:08.81	260.90	3.96	-45.1	-57.6	3.8	1.49e+00	0	63	104	1119879168	61	15580
2026-01-28 01:53:09.82	260.81	3.91	-45.1	-57.7	3.8	1.49e+00	0	63	104	1119879168	61	15624
2026-01-28 01:53:10.83	260.72	3.85	-45.1	-57.7	3.8	1.49e+00	0	63	104	1119879168	61	15600
2026-01-28 01:53:11.84	260.63	3.80	-45.1	-57.7	3.8	1.49e+00	0	63	104	1119879168	61	15647
2026-01-28 01:53:12.85	260.54	3.74	-45.1	-57.6	3.8	1.49e+00	0	63	104	1119879168	61	15567
2026-01-28 01:53:13.86	260.45	3.69	-45.1	-57.7	3.8	1.49e+00	0	63	104	1119879168	61	15605
2026-01-28 01:53:14.87	260.37	3.63	-45.1	-57.7	3.8	1.49e+00	0	63	104	1119879168	61	15584
2026-01-28 01:53:15.88	260.28	3.58	-45.1	-57.7	3.8	1.49e+00	0	63	104	1119879168	61	15627
2026-01-28 01:53:16.89	260.19	3.52	-45.1	-57.7	3.8	1.49e+00	0	63	104	1119879168	61	15606
2026-01-28 01:53:17.90	260.10	3.47	-45.1	-57.7	3.8	1.49e+00	0	63	104	1119879168	61	15589
2026-01-28 01:53:18.91	260.02	3.41	-45.1	-57.7	3.8	1.49e+00	0	63	104	1119879168	61	15589
2026-01-28 01:53:19.92	259.93	3.36	-45.1	-57.7	3.8	1.49e+00	0	63	104	1119879168	61	15582
2026-01-28 01:53:20.93	259.84	3.30	-45.1	-57.7	3.8	1.49e+00	0	63	104	1119879168	61	15616
2026-01-28 01:53:21.94	259.76	3.25	-45.1	-57.6	3.8	1.49e+00	0	63	104	1119879168	61	15578
2026-01-28 01:53:22.95	259.67	3.19	-45.1	-57.6	3.8	1.49e+00	0	63	104	1119879168	61	15576
2026-01-28 01:53:23.96	259.59	3.14	-45.1	-57.7	3.8	1.49e+00	0	63	104	1119879168	61	15581
2026-01-28 01:53:24.97	259.50	3.08	-45.1	-57.7	3.8	1.49e+00	0	63	104	1119879168	61	15628
2026-01-28 01:53:25.98	259.42	3.03	-45.1	-57.7	3.8	1.49e+00	0	63	104	1119879168	61	15621
2026-01-28 01:53:26.99	259.33	2.98	-45.1	-57.6	3.8	1.49e+00	0	63	104	1119879168	61	15579
2026-01-28 01:53:28.00	259.25	2.92	-45.1	-57.6	3.8	1.49e+00	0	63	104	1119879168	61	15577
2026-01-28 01:53:29.02	259.16	2.87	-45.1	-57.7	3.8	1.49e+00	0	63	104	1119879168	61	15645
2026-01-28 01:53:30.03	259.08	2.81	-45.1	-57.7	3.8	1.49e+00	0	63	104	1119879168	61	15584
2026-01-28 01:53:31.04	259.00	2.76	-45.1	-57.6	3.8	1.49e+00	0	63	104	1119879168	61	15576
2026-01-28 01:53:32.04	258.91	2.71	-45.1	-57.6	3.8	1.49e+00	0	63	104	1119879168	61	15551
2026-01-28 01:53:33.06	258.83	2.65	-45.1	-57.7	3.8	1.49e+00	0	63	104	1119879168	61	15585
2026-01-28 01:53:34.07	258.75	2.60	-45.1	-57.7	3.8	1.49e+00	0	63	104	1119879168	61	15598
2026-01-28 01:53:35.08	258.67	2.54	-45.1	-57.6	3.8	1.49e+00	0	63	104	1119879168	61	15541
2026-01-28 01:53:36.09	258.59	2.49	-45.1	-57.7	3.8	1.49e+00	0	63	104	1119879168	61	15621
2026-01-28 01:53:37.10	258.50	2.44	-45.1	-57.6	3.8	1.49e+00	0	63	104	1119879168	61	15532
2026-01-28 01:53:38.11	258.42	2.38	-45.1	-57.7	3.8	1.49e+00	0	63	104	1119879168	61	15612
2026-01-28 01:53:39.12	258.34	2.33	-45.1	-57.6	3.8	1.49e+00	0	63	104	1119879168	61	15502
2026-01-28 01:53:40.13	258.26	2.27	-45.1	-57.7	3.8	1.49e+00	0	63	104	1119879168	61	15632
2026-01-28 01:53:41.13	258.18	2.22	-45.1	-57.6	3.8	1.49e+00	0	63	104	1119879168	61	15569
2026-01-28 01:53:42.14	258.10	2.17	-45.1	-57.7	3.8	1.49e+00	0	63	104	1119879168	61	15581
2026-01-28 01:53:43.15	258.02	2.11	-45.1	-57.7	3.8	1.49e+00	0	63	104	1119879168	61	15583
2026-01-28 01:53:44.16	257.94	2.06	-45.1	-57.7	3.8	1.49e+00	0	63	104	1119879168	61	15590
2026-01-28 01:53:45.17	257.87	2.01	-45.1	-57.6	3.8	1.49e+00	0	63	104	1119879168	61	15572

#Closed at: 2026-01-28 01:53:46
#Recorded file [1119 MB]: D:/lorett/data/31039_260128_044222.dat