passes_logs/2026/01/28/R2.0S_Moscow/R2.0S_Moscow__20260128_104226_NOAA_20_JPSS-1_rec.log

#Pass ID: 20260128_104226_NOAA 20 (JPSS-1)
#Satellite: NOAA 20 (JPSS-1)
#Configuration: NOAA 20
#almurnet v.1.7.20251203
#Start time: 2026-01-28 10:42:28

#Version: 2.2.20231116
#Station: R2.0S_Moscow
#Location: 37.707566 lon 55.798166 lat
#TLE: 1 43013U 17073A   26027.80586608  .00000156  00000+0  94940-4 0  9998
#TLE: 2 43013  98.7647 328.6108 0000947  21.3465 338.7750 14.19541216424550

#Time	Az	El	Level	Level2	SNR	BER	BlckErr	Temp	State	Recorded	gain1	gain2
2026-01-28 10:42:28.36	183.78	2.12	-44.1	-58.7	3.8	1.49e+00	0	53	0	0	59	19773
2026-01-28 10:42:29.36	183.81	2.18	-44.1	-58.7	3.8	1.49e+00	0	53	104	0	59	19782
2026-01-28 10:42:30.37	183.85	2.24	-44.1	-58.7	3.8	1.49e+00	0	53	104	0	59	19752
2026-01-28 10:42:31.38	183.89	2.31	-44.1	-58.7	3.8	1.49e+00	0	54	104	0	59	19720
2026-01-28 10:42:32.39	183.93	2.37	-44.1	-58.7	3.8	1.49e+00	0	54	104	0	59	19729
2026-01-28 10:42:33.40	183.97	2.43	-44.1	-58.7	3.8	1.49e+00	0	54	104	0	59	19745
2026-01-28 10:42:34.41	184.01	2.50	-44.0	-58.7	3.8	1.49e+00	0	54	104	0	59	19765
2026-01-28 10:42:35.42	184.05	2.56	-44.1	-58.7	3.8	1.49e+00	0	54	104	0	59	19727
2026-01-28 10:42:36.43	184.09	2.62	-44.0	-58.7	3.8	1.49e+00	0	54	104	0	59	19732
2026-01-28 10:42:37.44	184.13	2.69	-44.1	-58.7	3.8	1.49e+00	0	54	104	0	59	19713
2026-01-28 10:42:38.45	184.17	2.75	-44.0	-58.7	3.8	1.49e+00	0	54	104	0	59	19731
2026-01-28 10:42:39.46	184.21	2.82	-44.0	-58.7	3.8	1.49e+00	0	54	104	0	59	19771
2026-01-28 10:42:40.47	184.25	2.88	-44.1	-58.7	3.8	1.49e+00	0	54	104	0	59	19713
2026-01-28 10:42:41.47	184.29	2.94	-44.0	-58.7	3.8	1.49e+00	0	54	104	0	59	19772
2026-01-28 10:42:42.48	184.33	3.01	-44.0	-58.7	3.8	1.49e+00	0	54	104	0	59	19717
2026-01-28 10:42:43.49	184.37	3.07	-44.0	-58.7	3.8	1.49e+00	0	54	104	0	59	19739
2026-01-28 10:42:44.50	184.41	3.14	-44.0	-58.7	3.8	1.49e+00	0	54	104	0	59	19707
2026-01-28 10:42:45.51	184.45	3.20	-44.0	-58.7	3.8	1.49e+00	0	54	104	0	59	19717
2026-01-28 10:42:46.52	184.49	3.27	-44.0	-58.7	3.8	1.49e+00	0	54	104	0	59	19692
2026-01-28 10:42:47.53	184.53	3.33	-44.0	-58.7	3.8	1.49e+00	0	55	104	0	59	19679
2026-01-28 10:42:48.54	184.57	3.40	-44.0	-58.7	3.8	1.49e+00	0	54	104	0	59	19701
2026-01-28 10:42:49.55	184.62	3.46	-44.0	-58.7	3.8	1.49e+00	0	55	104	0	59	19726
2026-01-28 10:42:50.56	184.66	3.53	-44.0	-58.7	3.8	1.49e+00	0	55	104	0	59	19805
2026-01-28 10:42:51.57	184.70	3.60	-44.1	-58.7	3.8	1.49e+00	0	55	104	0	59	19766
2026-01-28 10:42:52.58	184.74	3.66	-44.0	-58.7	3.8	1.49e+00	0	55	104	0	59	19675
2026-01-28 10:42:53.59	184.79	3.73	-44.0	-58.7	3.8	1.49e+00	0	55	104	0	59	19689
2026-01-28 10:42:54.60	184.83	3.80	-44.0	-58.7	3.8	1.49e+00	0	55	104	0	59	19737
2026-01-28 10:42:55.61	184.87	3.86	-44.0	-58.7	3.8	1.49e+00	0	55	104	0	59	19644
2026-01-28 10:42:56.62	184.91	3.93	-44.0	-58.7	3.8	1.49e+00	0	55	104	0	59	19716
2026-01-28 10:42:57.63	184.96	4.00	-44.0	-58.7	3.8	1.49e+00	0	55	104	0	59	19769
2026-01-28 10:42:58.64	185.00	4.06	-44.0	-58.7	3.8	1.49e+00	0	55	104	0	59	19705
2026-01-28 10:42:59.65	185.04	4.13	-44.0	-58.7	3.8	1.49e+00	0	55	104	0	59	19719
2026-01-28 10:43:00.66	185.09	4.20	-44.0	-58.7	3.8	1.49e+00	0	55	104	0	59	19720
2026-01-28 10:43:01.67	185.13	4.26	-44.0	-58.7	3.8	1.49e+00	0	55	104	0	59	19640
2026-01-28 10:43:02.68	185.18	4.33	-44.0	-58.6	3.8	1.49e+00	0	55	104	0	59	19584
2026-01-28 10:43:03.69	185.22	4.40	-44.0	-58.7	3.8	1.49e+00	0	55	104	0	59	19626
2026-01-28 10:43:04.70	185.26	4.47	-44.0	-58.6	3.8	1.49e+00	0	55	104	0	59	19476
2026-01-28 10:43:05.71	185.31	4.54	-44.0	-58.6	3.8	1.49e+00	0	55	104	0	59	19487
2026-01-28 10:43:06.72	185.35	4.60	-44.0	-58.5	3.8	1.49e+00	0	55	104	0	59	19257
2026-01-28 10:43:07.73	185.40	4.67	-44.0	-58.4	3.8	1.49e+00	0	55	104	0	59	19069
2026-01-28 10:43:08.74	185.44	4.74	-44.0	-58.3	3.8	1.49e+00	0	56	104	0	59	18938
2026-01-28 10:43:09.75	185.49	4.81	-44.0	-58.3	3.8	1.49e+00	0	55	104	0	59	18919
2026-01-28 10:43:10.76	185.54	4.88	-44.0	-58.3	3.8	1.49e+00	0	55	104	0	59	18796
2026-01-28 10:43:11.77	185.58	4.95	-44.0	-58.3	3.8	1.49e+00	0	56	104	0	59	18783
2026-01-28 10:43:12.78	185.63	5.02	-44.0	-58.2	3.8	1.49e+00	0	56	104	0	59	18728
2026-01-28 10:43:13.79	185.67	5.09	-44.0	-58.1	3.8	1.49e+00	0	56	104	0	59	18482
2026-01-28 10:43:14.80	185.72	5.15	-44.0	-58.0	3.8	1.49e+00	0	56	104	0	59	18189
2026-01-28 10:43:15.81	185.77	5.22	-44.0	-57.9	3.8	1.49e+00	0	56	104	0	59	18042
2026-01-28 10:43:16.82	185.81	5.29	-44.0	-57.8	3.8	1.49e+00	0	56	104	0	59	17704
2026-01-28 10:43:17.83	185.86	5.36	-44.0	-57.6	3.8	1.49e+00	0	56	104	0	59	17339
2026-01-28 10:43:18.84	185.91	5.43	-44.0	-57.4	3.8	1.49e+00	0	56	104	0	59	17072
2026-01-28 10:43:19.86	185.96	5.51	-44.0	-57.2	3.8	1.49e+00	0	56	104	0	59	16662
2026-01-28 10:43:20.87	186.00	5.58	-43.9	-57.0	3.8	1.49e+00	0	56	104	0	59	16185
2026-01-28 10:43:21.88	186.05	5.65	-43.9	-56.6	3.8	1.49e+00	0	56	104	0	59	15530
2026-01-28 10:43:22.89	186.10	5.72	-43.9	-56.5	3.8	1.48e+00	0	56	104	0	59	15263
2026-01-28 10:43:23.90	186.15	5.79	-43.9	-56.3	3.8	1.48e+00	0	56	104	0	59	14880
2026-01-28 10:43:24.91	186.20	5.86	-43.9	-56.0	3.9	1.47e+00	0	56	104	0	59	14411
2026-01-28 10:43:25.92	186.25	5.93	-43.8	-55.7	3.9	1.45e+00	0	56	104	0	59	13963
2026-01-28 10:43:26.93	186.30	6.00	-43.8	-55.3	4.2	1.42e+00	0	56	0	0	59	13266
2026-01-28 10:43:27.94	186.34	6.08	-43.8	-55.0	4.2	1.38e+00	0	56	0	0	59	12891
2026-01-28 10:43:28.95	186.39	6.15	-43.8	-54.7	4.3	1.32e+00	66	57	0	0	59	12384
2026-01-28 10:43:29.96	186.44	6.22	-43.7	-54.4	4.4	1.22e+00	47	56	0	2097152	59	11977
2026-01-28 10:43:30.97	186.49	6.29	-43.7	-54.0	4.6	9.73e-01	0	56	0	3145728	59	11443
2026-01-28 10:43:31.98	186.54	6.36	-43.7	-53.6	4.7	8.81e-01	0	56	0	5242880	59	11000
2026-01-28 10:43:32.98	186.59	6.44	-43.6	-53.4	4.9	8.03e-01	0	57	0	7340032	59	10695
2026-01-28 10:43:33.99	186.64	6.51	-43.5	-52.7	5.2	6.98e-01	0	57	0	9437184	59	9934
2026-01-28 10:43:35.01	186.70	6.58	-43.5	-52.4	5.4	5.33e-01	0	57	0	11534336	59	9592
2026-01-28 10:43:36.02	186.75	6.66	-43.4	-51.9	5.8	4.48e-01	0	57	0	12582912	58	9544
2026-01-28 10:43:37.03	186.80	6.73	-43.3	-51.4	6.2	3.42e-01	0	57	0	14680064	58	8971
2026-01-28 10:43:38.04	186.85	6.80	-43.2	-50.9	6.5	2.32e-01	0	57	0	16777216	58	8540
2026-01-28 10:43:39.05	186.90	6.88	-43.1	-50.3	7.1	1.80e-01	0	57	0	18874368	58	7920
2026-01-28 10:43:40.06	186.95	6.95	-43.0	-49.8	7.6	1.17e-01	0	57	0	20971520	58	7510
2026-01-28 10:43:41.07	187.01	7.03	-42.9	-49.3	8.0	7.54e-02	0	57	0	22020096	57	7531
2026-01-28 10:43:42.08	187.06	7.10	-42.7	-48.7	8.7	4.53e-02	0	57	0	24117248	57	6997
2026-01-28 10:43:43.09	187.11	7.17	-42.5	-48.2	9.2	2.84e-02	0	57	0	26214400	57	6604
2026-01-28 10:43:44.10	187.17	7.25	-42.4	-47.9	9.6	1.52e-02	0	57	0	28311552	56	6732
2026-01-28 10:43:45.11	187.22	7.32	-42.3	-47.4	10.1	9.08e-03	0	57	0	30408704	56	6373
2026-01-28 10:43:46.13	187.27	7.40	-42.1	-47.0	10.4	5.67e-03	0	57	0	31457280	56	6131
2026-01-28 10:43:47.14	187.33	7.48	-42.0	-46.8	10.6	4.34e-03	0	57	0	33554432	56	5978
2026-01-28 10:43:48.15	187.38	7.55	-42.0	-46.8	10.7	2.80e-03	0	57	0	35651584	56	5930
2026-01-28 10:43:49.16	187.44	7.63	-41.8	-46.4	10.9	2.40e-03	0	57	0	37748736	55	6020
2026-01-28 10:43:50.17	187.49	7.70	-41.8	-46.4	10.9	2.17e-03	0	57	0	39845888	55	5998
2026-01-28 10:43:51.18	187.55	7.78	-41.8	-46.6	10.7	2.76e-03	0	57	0	41943040	55	6151
2026-01-28 10:43:52.19	187.60	7.86	-41.9	-46.8	10.5	3.33e-03	0	57	0	42991616	55	6287
2026-01-28 10:43:53.20	187.66	7.93	-42.1	-47.1	10.1	4.64e-03	0	57	0	45088768	55	6554
2026-01-28 10:43:54.21	187.71	8.01	-42.2	-47.6	9.6	1.06e-02	0	57	0	47185920	55	6936
2026-01-28 10:43:55.22	187.77	8.09	-42.4	-47.9	9.3	2.04e-02	0	57	0	49283072	55	7189
2026-01-28 10:43:56.24	187.83	8.17	-42.3	-47.3	10.0	6.55e-03	0	57	0	51380224	55	6699
2026-01-28 10:43:57.25	187.88	8.24	-43.8	-55.6	3.9	1.30e+00	0	57	104	52428800	58	14640
2026-01-28 10:43:58.26	187.94	8.32	-42.9	-49.0	8.5	2.85e-02	0	57	0	53477376	56	7646
2026-01-28 10:43:59.27	188.00	8.40	-42.3	-47.2	10.6	9.69e-03	0	57	0	55574528	56	6212
2026-01-28 10:44:00.28	188.06	8.48	-43.9	-55.7	3.9	1.47e+00	0	57	104	56623104	58	14786
2026-01-28 10:44:01.29	188.11	8.56	-42.1	-46.9	10.7	5.04e-03	0	57	0	56623104	56	5997
2026-01-28 10:44:02.30	188.17	8.63	-42.2	-46.9	10.7	2.68e-03	0	57	0	58720256	56	6017
2026-01-28 10:44:03.31	188.23	8.71	-42.1	-46.7	10.9	2.27e-03	0	57	0	60817408	56	5885
2026-01-28 10:44:04.32	188.29	8.79	-41.8	-46.2	11.3	1.47e-03	0	57	0	62914560	55	5895
2026-01-28 10:44:05.33	188.35	8.87	-41.7	-46.0	11.4	9.98e-04	0	57	0	63963136	55	5782
2026-01-28 10:44:06.34	188.41	8.95	-41.7	-46.1	11.4	1.06e-03	0	57	0	66060288	55	5811
2026-01-28 10:44:07.35	188.47	9.03	-41.7	-46.1	11.3	1.04e-03	0	57	0	68157440	55	5849
2026-01-28 10:44:08.36	188.53	9.11	-41.7	-46.0	11.5	9.38e-04	0	58	0	70254592	55	5757
2026-01-28 10:44:09.37	188.59	9.19	-41.7	-46.0	11.5	7.66e-04	0	57	0	72351744	55	5724
2026-01-28 10:44:10.38	188.65	9.27	-41.7	-46.0	11.5	8.89e-04	0	57	0	73400320	55	5744
2026-01-28 10:44:11.39	188.71	9.35	-41.7	-46.0	11.6	7.73e-04	0	57	0	75497472	55	5771
2026-01-28 10:44:12.40	188.77	9.43	-41.7	-46.0	11.6	7.74e-04	0	57	0	77594624	55	5753
2026-01-28 10:44:13.41	188.83	9.51	-41.7	-45.9	11.7	6.28e-04	0	57	0	79691776	55	5682
2026-01-28 10:44:14.42	188.89	9.60	-41.7	-45.8	11.8	4.37e-04	0	57	0	81788928	55	5644
2026-01-28 10:44:15.43	188.96	9.68	-41.7	-45.8	11.8	4.96e-04	0	58	0	83886080	55	5645
2026-01-28 10:44:16.44	189.02	9.76	-41.8	-46.0	11.7	6.14e-04	0	58	0	84934656	55	5752
2026-01-28 10:44:17.45	189.08	9.84	-41.8	-46.0	11.6	5.73e-04	0	57	0	87031808	55	5738
2026-01-28 10:44:18.46	189.15	9.92	-41.6	-45.7	11.9	5.58e-04	0	58	0	89128960	55	5591
2026-01-28 10:44:19.48	189.21	10.01	-41.6	-45.6	12.0	3.29e-04	0	58	0	91226112	55	5497
2026-01-28 10:44:20.49	189.27	10.09	-41.6	-45.6	12.0	3.05e-04	0	58	0	93323264	55	5500
2026-01-28 10:44:21.50	189.34	10.17	-41.6	-45.7	11.9	2.78e-04	0	58	0	94371840	55	5540
2026-01-28 10:44:22.51	189.40	10.26	-41.6	-45.6	12.1	3.24e-04	0	58	0	96468992	55	5474
2026-01-28 10:44:23.52	189.47	10.34	-41.5	-45.4	12.3	2.21e-04	0	58	0	98566144	55	5360
2026-01-28 10:44:24.53	189.53	10.42	-41.5	-45.4	12.2	1.69e-04	0	58	0	100663296	54	5699
2026-01-28 10:44:25.54	189.60	10.51	-41.4	-45.3	12.4	1.79e-04	0	58	0	102760448	54	5628
2026-01-28 10:44:26.55	189.67	10.59	-41.4	-45.2	12.4	1.33e-04	0	58	0	103809024	54	5566
2026-01-28 10:44:27.56	189.73	10.68	-41.3	-45.1	12.5	1.36e-04	0	58	0	105906176	54	5497
2026-01-28 10:44:28.57	189.80	10.76	-41.3	-45.1	12.5	9.30e-05	0	58	0	108003328	54	5528
2026-01-28 10:44:29.58	189.87	10.85	-41.3	-45.0	12.6	9.30e-05	0	58	0	110100480	54	5443
2026-01-28 10:44:30.59	189.93	10.93	-41.2	-45.0	12.6	8.69e-05	0	58	0	112197632	54	5428
2026-01-28 10:44:31.60	190.00	11.02	-41.2	-44.8	12.8	8.77e-05	0	58	0	113246208	54	5335
2026-01-28 10:44:32.61	190.07	11.11	-41.2	-44.8	12.8	6.25e-05	0	58	0	115343360	54	5312
2026-01-28 10:44:33.62	190.14	11.19	-41.2	-44.8	12.8	5.18e-05	0	58	0	117440512	54	5338
2026-01-28 10:44:34.63	190.21	11.28	-41.1	-44.8	12.9	5.03e-05	0	58	0	119537664	54	5283
2026-01-28 10:44:35.64	190.28	11.36	-41.2	-44.8	12.8	4.50e-05	0	58	0	121634816	54	5327
2026-01-28 10:44:36.65	190.35	11.45	-41.1	-44.7	12.9	4.34e-05	0	58	0	122683392	54	5277
2026-01-28 10:44:37.66	190.42	11.54	-41.0	-44.5	13.2	3.05e-05	0	58	0	124780544	54	5138
2026-01-28 10:44:38.67	190.49	11.63	-41.0	-44.4	13.2	1.67e-05	0	58	0	126877696	53	5379
2026-01-28 10:44:39.68	190.56	11.71	-40.9	-44.4	13.3	1.83e-05	0	58	0	128974848	53	5341
2026-01-28 10:44:40.69	190.63	11.80	-40.9	-44.3	13.3	1.90e-05	0	58	0	131072000	53	5312
2026-01-28 10:44:41.70	190.70	11.89	-40.9	-44.2	13.4	1.98e-05	0	58	0	132120576	53	5253
2026-01-28 10:44:42.71	190.77	11.98	-40.9	-44.2	13.4	1.29e-05	0	58	0	134217728	53	5267
2026-01-28 10:44:43.72	190.85	12.07	-40.9	-44.2	13.4	1.60e-05	0	58	0	136314880	53	5252
2026-01-28 10:44:44.73	190.92	12.16	-40.8	-44.2	13.5	1.90e-05	0	58	0	138412032	53	5238
2026-01-28 10:44:45.74	190.99	12.25	-40.9	-44.2	13.4	1.06e-05	0	58	0	140509184	53	5274
2026-01-28 10:44:46.75	191.07	12.34	-40.8	-44.2	13.4	1.29e-05	0	58	0	141557760	53	5258
2026-01-28 10:44:47.76	191.14	12.43	-40.8	-44.2	13.5	1.14e-05	0	58	0	143654912	53	5235
2026-01-28 10:44:48.77	191.22	12.52	-40.9	-44.2	13.4	9.10e-06	0	58	0	145752064	53	5262
2026-01-28 10:44:49.78	191.29	12.61	-40.8	-44.1	13.5	1.06e-05	0	58	0	147849216	53	5203
2026-01-28 10:44:50.79	191.37	12.70	-40.8	-44.1	13.5	9.10e-06	0	58	0	149946368	53	5216
2026-01-28 10:44:51.80	191.44	12.79	-40.8	-44.2	13.5	8.30e-06	0	58	0	152043520	53	5220
2026-01-28 10:44:52.81	191.52	12.88	-40.8	-44.1	13.5	1.14e-05	0	58	0	153092096	53	5192
2026-01-28 10:44:53.82	191.60	12.98	-40.8	-44.2	13.5	9.10e-06	0	58	0	155189248	53	5221
2026-01-28 10:44:54.83	191.68	13.07	-40.8	-44.1	13.5	1.22e-05	0	58	0	157286400	53	5183
2026-01-28 10:44:55.84	191.75	13.16	-40.8	-44.2	13.4	1.29e-05	0	58	0	159383552	53	5238
2026-01-28 10:44:56.85	191.83	13.25	-40.7	-44.1	13.5	1.06e-05	0	58	0	161480704	53	5189
2026-01-28 10:44:57.86	191.91	13.35	-40.7	-44.1	13.4	1.37e-05	0	58	0	162529280	53	5179
2026-01-28 10:44:58.87	191.99	13.44	-40.7	-44.1	13.4	2.21e-05	0	58	0	164626432	53	5184
2026-01-28 10:44:59.89	192.07	13.53	-40.6	-44.0	13.3	1.29e-05	0	58	0	166723584	53	5129
2026-01-28 10:45:00.89	192.15	13.63	-40.5	-43.9	13.2	2.05e-05	0	58	0	168820736	52	5376
2026-01-28 10:45:01.90	192.23	13.72	-40.4	-44.0	12.9	4.42e-05	0	58	0	170917888	52	5412
2026-01-28 10:45:02.91	192.31	13.82	-40.3	-44.1	12.4	9.00e-05	0	58	0	171966464	52	5477
2026-01-28 10:45:03.93	192.40	13.91	-40.1	-43.9	12.3	1.62e-04	0	58	0	174063616	52	5396
2026-01-28 10:45:04.93	192.48	14.01	-40.0	-44.0	12.0	2.87e-04	0	59	0	176160768	51	5745
2026-01-28 10:45:05.94	192.56	14.10	-40.0	-43.9	12.0	3.78e-04	0	58	0	178257920	51	5701
2026-01-28 10:45:06.95	192.65	14.20	-39.9	-43.9	11.9	3.45e-04	0	58	0	180355072	51	5713
2026-01-28 10:45:07.97	192.73	14.30	-39.9	-43.9	11.8	4.44e-04	0	59	0	181403648	51	5662
2026-01-28 10:45:08.98	192.81	14.39	-39.8	-43.8	11.8	4.32e-04	0	58	0	183500800	51	5646
2026-01-28 10:45:09.99	192.90	14.49	-39.8	-43.8	11.7	4.81e-04	0	58	0	185597952	51	5650
2026-01-28 10:45:11.00	192.99	14.59	-39.7	-43.9	11.4	6.37e-04	0	58	0	187695104	51	5695
2026-01-28 10:45:12.01	193.07	14.69	-39.6	-43.9	11.1	1.41e-03	0	59	0	189792256	51	5694
2026-01-28 10:45:13.02	193.16	14.78	-39.4	-43.9	10.7	2.49e-03	0	59	0	191889408	50	6032
2026-01-28 10:45:14.03	193.25	14.88	-39.1	-43.8	10.6	3.03e-03	0	59	0	192937984	50	5924
2026-01-28 10:45:15.04	193.33	14.98	-39.0	-43.8	10.4	4.34e-03	0	58	0	195035136	50	5935
2026-01-28 10:45:16.04	193.42	15.08	-38.9	-43.6	10.5	4.21e-03	0	59	0	197132288	49	6178
2026-01-28 10:45:17.05	193.51	15.18	-38.7	-43.5	10.3	4.07e-03	0	58	0	199229440	49	6131
2026-01-28 10:45:18.06	193.60	15.28	-38.5	-43.5	10.2	6.24e-03	0	59	0	201326592	49	6104
2026-01-28 10:45:19.07	193.69	15.38	-38.5	-43.6	10.1	6.44e-03	0	59	0	202375168	49	6155
2026-01-28 10:45:20.08	193.78	15.48	-38.4	-43.5	10.2	6.66e-03	0	59	0	204472320	48	6445
2026-01-28 10:45:21.09	193.87	15.58	-38.4	-43.5	10.1	6.57e-03	0	59	0	206569472	48	6441
2026-01-28 10:45:22.10	193.96	15.68	-38.4	-43.4	10.2	6.89e-03	0	59	0	208666624	48	6409
2026-01-28 10:45:23.11	194.06	15.78	-38.4	-43.3	10.4	5.22e-03	0	59	0	210763776	48	6337
2026-01-28 10:45:24.12	194.15	15.88	-38.6	-43.3	10.8	2.90e-03	0	59	0	211812352	48	6301
2026-01-28 10:45:25.13	194.24	15.99	-38.7	-43.3	11.0	2.30e-03	0	59	0	213909504	48	6319
2026-01-28 10:45:26.14	194.34	16.09	-38.8	-43.3	11.0	1.78e-03	0	59	0	216006656	48	6327
2026-01-28 10:45:27.15	194.43	16.19	-38.8	-43.3	11.1	1.63e-03	0	59	0	218103808	48	6314
2026-01-28 10:45:28.16	194.53	16.30	-39.0	-43.3	11.5	1.11e-03	0	59	0	220200960	48	6322
2026-01-28 10:45:29.17	194.62	16.40	-39.3	-43.3	11.9	5.45e-04	0	59	0	221249536	49	5964
2026-01-28 10:45:30.18	194.72	16.50	-39.5	-43.3	12.3	2.69e-04	0	59	0	223346688	49	5975
2026-01-28 10:45:31.19	194.82	16.61	-39.5	-43.5	12.2	1.98e-04	0	59	0	225443840	49	6073
2026-01-28 10:45:32.20	194.91	16.71	-39.6	-43.5	12.3	2.17e-04	0	59	0	227540992	49	6076
2026-01-28 10:45:33.21	195.01	16.82	-39.8	-43.5	12.7	1.05e-04	0	59	0	229638144	50	5762
2026-01-28 10:45:34.22	195.11	16.92	-39.8	-43.6	12.7	6.79e-05	0	59	0	230686720	50	5827
2026-01-28 10:45:35.23	195.21	17.03	-39.8	-43.5	12.8	7.09e-05	0	59	0	232783872	50	5764
2026-01-28 10:45:36.24	195.31	17.14	-39.9	-43.5	13.0	6.33e-05	0	59	0	234881024	50	5776
2026-01-28 10:45:37.24	195.41	17.24	-40.1	-43.6	13.2	2.67e-05	0	59	0	236978176	50	5823
2026-01-28 10:45:38.25	195.52	17.35	-40.2	-43.7	13.2	1.67e-05	0	59	0	239075328	50	5898
2026-01-28 10:45:39.26	195.62	17.46	-40.1	-43.6	13.3	2.74e-05	0	59	0	240123904	50	5853
2026-01-28 10:45:40.27	195.72	17.56	-40.3	-43.8	13.3	1.60e-05	0	59	0	242221056	51	5624
2026-01-28 10:45:41.28	195.83	17.67	-40.3	-43.9	13.3	2.74e-05	0	59	0	244318208	51	5667
2026-01-28 10:45:42.29	195.93	17.78	-40.4	-43.9	13.4	1.75e-05	0	59	0	246415360	51	5674
2026-01-28 10:45:43.30	196.04	17.89	-40.5	-43.9	13.7	1.14e-05	0	59	0	248512512	51	5657
2026-01-28 10:45:44.31	196.14	18.00	-40.6	-43.9	13.7	8.30e-06	0	59	0	249561088	51	5707
2026-01-28 10:45:45.32	196.25	18.11	-40.7	-43.9	13.8	3.80e-06	0	59	0	251658240	52	5377
2026-01-28 10:45:46.33	196.36	18.22	-40.8	-44.0	13.9	1.50e-06	0	59	0	253755392	52	5420
2026-01-28 10:45:47.34	196.47	18.33	-40.8	-44.1	13.9	5.30e-06	0	59	0	255852544	52	5479
2026-01-28 10:45:48.35	196.58	18.44	-40.9	-44.1	13.8	2.20e-06	0	59	0	257949696	52	5511
2026-01-28 10:45:49.36	196.69	18.55	-41.0	-44.3	13.7	3.80e-06	0	59	0	260046848	52	5615
2026-01-28 10:45:50.37	196.80	18.66	-41.0	-44.3	13.7	6.10e-06	0	59	0	261095424	52	5605
2026-01-28 10:45:51.38	196.91	18.78	-41.1	-44.4	13.6	9.90e-06	0	59	0	263192576	52	5694
2026-01-28 10:45:52.39	197.02	18.89	-41.0	-44.3	13.7	3.00e-06	0	59	0	265289728	52	5622
2026-01-28 10:45:53.40	197.14	19.00	-41.0	-44.2	13.7	4.50e-06	0	59	0	267386880	52	5587
2026-01-28 10:45:54.41	197.25	19.12	-41.1	-44.4	13.7	6.80e-06	0	59	0	269484032	52	5664
2026-01-28 10:45:55.42	197.37	19.23	-41.1	-44.3	13.6	9.10e-06	0	59	0	270532608	52	5643
2026-01-28 10:45:56.43	197.48	19.34	-41.0	-44.3	13.7	5.30e-06	0	59	0	272629760	52	5596
2026-01-28 10:45:57.44	197.60	19.46	-41.0	-44.2	13.8	3.80e-06	0	59	0	274726912	52	5549
2026-01-28 10:45:58.45	197.72	19.57	-41.0	-44.2	13.9	2.20e-06	0	59	0	276824064	52	5530
2026-01-28 10:45:59.46	197.84	19.69	-41.1	-44.3	13.8	3.80e-06	0	59	0	278921216	52	5608
2026-01-28 10:46:00.47	197.95	19.80	-41.1	-44.3	13.8	3.00e-06	0	59	0	279969792	52	5608
2026-01-28 10:46:01.48	198.08	19.92	-41.0	-44.1	13.9	0.00e+00	0	59	0	282066944	52	5508
2026-01-28 10:46:02.49	198.20	20.04	-41.0	-44.1	13.9	2.20e-06	0	59	0	284164096	52	5505
2026-01-28 10:46:03.50	198.32	20.15	-41.0	-44.2	13.9	3.80e-06	0	59	0	286261248	52	5583
2026-01-28 10:46:04.51	198.44	20.27	-41.1	-44.3	13.8	5.30e-06	0	59	0	288358400	52	5616
2026-01-28 10:46:05.52	198.56	20.39	-41.1	-44.4	13.7	4.50e-06	0	59	0	289406976	52	5681
2026-01-28 10:46:06.53	198.69	20.51	-41.1	-44.4	13.7	8.30e-06	0	59	0	291504128	52	5659
2026-01-28 10:46:07.54	198.82	20.63	-41.1	-44.4	13.7	5.30e-06	0	59	0	293601280	52	5684
2026-01-28 10:46:08.55	198.94	20.75	-41.1	-44.4	13.7	6.10e-06	0	59	0	295698432	52	5671
2026-01-28 10:46:09.56	199.07	20.87	-41.1	-44.3	13.8	4.50e-06	0	59	0	297795584	52	5642
2026-01-28 10:46:10.57	199.20	20.99	-41.1	-44.4	13.8	2.20e-06	0	59	0	298844160	52	5671
2026-01-28 10:46:11.59	199.33	21.11	-41.1	-44.3	13.8	6.10e-06	0	59	0	300941312	52	5625
2026-01-28 10:46:12.60	199.46	21.23	-41.0	-44.2	14.0	3.80e-06	0	59	0	303038464	52	5536
2026-01-28 10:46:13.61	199.59	21.35	-41.0	-44.1	14.0	1.50e-06	0	59	0	305135616	52	5510
2026-01-28 10:46:14.62	199.72	21.47	-40.9	-44.0	14.2	0.00e+00	0	59	0	307232768	52	5434
2026-01-28 10:46:15.63	199.86	21.60	-41.0	-44.1	14.2	1.50e-06	0	59	0	308281344	52	5466
2026-01-28 10:46:16.63	199.99	21.72	-40.9	-43.9	14.3	1.50e-06	0	59	0	310378496	52	5385
2026-01-28 10:46:17.65	200.13	21.84	-40.9	-44.0	14.2	1.50e-06	0	59	0	312475648	52	5408
2026-01-28 10:46:18.65	200.26	21.96	-40.9	-43.9	14.3	2.20e-06	0	59	0	314572800	52	5395
2026-01-28 10:46:19.66	200.40	22.09	-40.9	-44.0	14.2	1.50e-06	0	59	0	316669952	52	5426
2026-01-28 10:46:20.68	200.54	22.21	-40.9	-44.0	14.2	7.00e-07	0	59	0	317718528	52	5442
2026-01-28 10:46:21.68	200.68	22.34	-40.9	-44.0	14.2	3.80e-06	0	59	0	319815680	52	5432
2026-01-28 10:46:22.69	200.82	22.46	-40.9	-44.0	14.2	2.20e-06	0	59	0	321912832	52	5444
2026-01-28 10:46:23.70	200.96	22.59	-41.0	-44.0	14.2	1.50e-06	0	59	0	324009984	52	5453
2026-01-28 10:46:24.71	201.11	22.72	-41.0	-44.1	14.1	2.20e-06	0	59	0	326107136	52	5493
2026-01-28 10:46:25.72	201.25	22.84	-40.9	-44.0	14.3	1.50e-06	0	59	0	328204288	52	5418
2026-01-28 10:46:26.73	201.40	22.97	-41.0	-44.0	14.2	7.00e-07	0	59	0	329252864	52	5452
2026-01-28 10:46:27.74	201.54	23.10	-41.0	-44.1	14.1	1.50e-06	0	59	0	331350016	52	5526
2026-01-28 10:46:28.75	201.69	23.23	-41.1	-44.2	14.1	5.30e-06	0	59	0	333447168	52	5547
2026-01-28 10:46:29.76	201.84	23.35	-41.1	-44.3	14.0	1.50e-06	0	59	0	335544320	52	5594
2026-01-28 10:46:30.77	201.99	23.48	-41.1	-44.3	13.9	3.00e-06	0	59	0	337641472	52	5646
2026-01-28 10:46:31.78	202.14	23.61	-41.1	-44.3	13.9	3.80e-06	0	59	0	338690048	52	5627
2026-01-28 10:46:32.79	202.29	23.74	-41.1	-44.3	14.0	3.80e-06	0	59	0	340787200	52	5599
2026-01-28 10:46:33.80	202.45	23.87	-41.1	-44.3	14.0	3.00e-06	0	59	0	342884352	52	5620
2026-01-28 10:46:34.81	202.60	24.00	-41.2	-44.3	13.9	7.00e-07	0	60	0	344981504	52	5647
2026-01-28 10:46:35.82	202.76	24.14	-41.0	-44.0	14.2	7.00e-07	0	59	0	347078656	52	5437
2026-01-28 10:46:36.83	202.92	24.27	-40.9	-43.9	14.3	1.50e-06	0	59	0	348127232	52	5384
2026-01-28 10:46:37.84	203.08	24.40	-40.9	-43.9	14.3	7.00e-07	0	59	0	350224384	52	5384
2026-01-28 10:46:38.85	203.24	24.53	-40.9	-43.8	14.4	1.50e-06	0	59	0	352321536	52	5333
2026-01-28 10:46:39.86	203.40	24.67	-40.9	-43.9	14.4	1.50e-06	0	59	0	354418688	52	5357
2026-01-28 10:46:40.87	203.56	24.80	-41.0	-44.0	14.3	7.00e-07	0	60	0	356515840	52	5417
2026-01-28 10:46:41.88	203.72	24.93	-41.0	-44.0	14.3	0.00e+00	0	59	0	357564416	52	5440
2026-01-28 10:46:42.89	203.89	25.07	-41.0	-44.0	14.2	0.00e+00	0	59	0	359661568	52	5453
2026-01-28 10:46:43.90	204.06	25.20	-41.0	-44.1	14.2	7.00e-07	0	59	0	361758720	52	5500
2026-01-28 10:46:44.91	204.23	25.34	-41.1	-44.3	14.0	5.30e-06	0	59	0	363855872	52	5604
2026-01-28 10:46:45.92	204.40	25.47	-41.1	-44.2	14.0	5.30e-06	0	59	0	365953024	52	5580
2026-01-28 10:46:46.93	204.57	25.61	-41.1	-44.2	14.0	1.50e-06	0	59	0	367001600	52	5586
2026-01-28 10:46:47.94	204.74	25.75	-41.1	-44.2	14.1	3.00e-06	0	59	0	369098752	52	5555
2026-01-28 10:46:48.95	204.91	25.88	-41.1	-44.2	14.1	4.50e-06	0	59	0	371195904	52	5580
2026-01-28 10:46:49.96	205.09	26.02	-41.1	-44.2	14.1	7.00e-07	0	59	0	373293056	52	5535
2026-01-28 10:46:50.97	205.27	26.16	-41.1	-44.3	14.0	4.50e-06	0	59	0	375390208	52	5595
2026-01-28 10:46:51.98	205.45	26.30	-41.1	-44.2	14.1	2.20e-06	0	59	0	376438784	52	5592
2026-01-28 10:46:52.99	205.63	26.43	-41.2	-44.4	13.9	3.00e-06	0	60	0	378535936	53	5343
2026-01-28 10:46:54.00	205.81	26.57	-41.3	-44.5	13.9	4.50e-06	0	59	0	380633088	53	5403
2026-01-28 10:46:55.01	205.99	26.71	-41.3	-44.5	13.8	5.30e-06	0	59	0	382730240	53	5459
2026-01-28 10:46:56.02	206.18	26.85	-41.3	-44.6	13.7	4.50e-06	0	59	0	384827392	53	5495
2026-01-28 10:46:57.03	206.36	26.99	-41.4	-44.7	13.6	4.50e-06	0	59	0	385875968	53	5577
2026-01-28 10:46:58.03	206.55	27.13	-41.5	-44.9	13.4	9.90e-06	0	59	0	387973120	53	5673
2026-01-28 10:46:59.04	206.74	27.27	-41.6	-45.0	13.3	1.52e-05	0	59	0	390070272	53	5765
2026-01-28 10:47:00.06	206.93	27.42	-41.7	-45.2	13.1	2.82e-05	0	59	0	392167424	53	5915
2026-01-28 10:47:01.06	207.12	27.56	-41.7	-45.3	13.0	3.58e-05	0	59	0	394264576	54	5634
2026-01-28 10:47:02.07	207.32	27.70	-41.8	-45.5	12.9	4.80e-05	0	60	0	396361728	54	5728
2026-01-28 10:47:03.08	207.51	27.84	-41.7	-45.3	13.0	5.26e-05	0	59	0	397410304	54	5612
2026-01-28 10:47:04.09	207.71	27.99	-41.8	-45.4	13.0	4.80e-05	0	60	0	399507456	54	5679
2026-01-28 10:47:05.10	207.91	28.13	-41.8	-45.3	13.0	3.12e-05	0	60	0	401604608	54	5647
2026-01-28 10:47:06.11	208.11	28.27	-41.8	-45.4	12.9	5.03e-05	0	59	0	403701760	54	5721
2026-01-28 10:47:07.12	208.32	28.42	-41.9	-45.6	12.8	5.34e-05	0	59	0	405798912	54	5803
2026-01-28 10:47:08.13	208.52	28.56	-41.9	-45.7	12.7	7.40e-05	0	59	0	406847488	54	5866
2026-01-28 10:47:09.14	208.73	28.71	-42.0	-45.7	12.6	9.46e-05	0	60	0	408944640	54	5909
2026-01-28 10:47:10.15	208.94	28.85	-42.1	-45.9	12.4	1.04e-04	0	59	0	411041792	54	6013
2026-01-28 10:47:11.16	209.15	29.00	-42.0	-45.9	12.4	1.23e-04	0	59	0	413138944	54	6008
2026-01-28 10:47:12.17	209.36	29.14	-42.1	-46.1	12.2	1.77e-04	0	60	0	415236096	54	6154
2026-01-28 10:47:13.18	209.58	29.29	-42.3	-46.4	11.9	2.70e-04	0	59	0	416284672	55	6038
2026-01-28 10:47:14.19	209.79	29.44	-42.4	-46.6	11.7	3.97e-04	0	59	0	418381824	55	6168
2026-01-28 10:47:15.20	210.01	29.58	-42.4	-46.7	11.6	6.17e-04	0	59	0	420478976	55	6245
2026-01-28 10:47:16.20	210.23	29.73	-42.5	-46.8	11.4	9.25e-04	0	59	0	422576128	55	6340
2026-01-28 10:47:17.21	210.45	29.88	-42.4	-46.6	11.7	8.22e-04	0	60	0	424673280	55	6145
2026-01-28 10:47:18.23	210.68	30.03	-42.3	-46.5	11.9	4.50e-04	0	59	0	425721856	55	6065
2026-01-28 10:47:19.24	210.90	30.17	-42.3	-46.3	12.0	3.89e-04	0	60	0	427819008	55	5977
2026-01-28 10:47:20.25	211.13	30.32	-42.2	-46.2	12.2	2.54e-04	0	60	0	429916160	55	5858
2026-01-28 10:47:21.26	211.36	30.47	-42.0	-45.7	12.6	1.19e-04	0	59	0	432013312	55	5577
2026-01-28 10:47:22.27	211.59	30.62	-41.9	-45.6	12.7	7.40e-05	0	60	0	434110464	55	5487
2026-01-28 10:47:23.28	211.83	30.77	-42.0	-45.7	12.6	7.55e-05	0	59	0	435159040	55	5569
2026-01-28 10:47:24.29	212.07	30.92	-42.0	-45.8	12.6	9.61e-05	0	60	0	437256192	55	5604
2026-01-28 10:47:25.30	212.30	31.07	-42.0	-45.7	12.6	1.14e-04	0	60	0	439353344	55	5579
2026-01-28 10:47:26.31	212.55	31.22	-42.0	-45.9	12.5	1.10e-04	0	60	0	441450496	55	5679
2026-01-28 10:47:27.32	212.79	31.37	-42.0	-45.7	12.6	1.27e-04	0	60	0	443547648	55	5570
2026-01-28 10:47:28.33	213.03	31.52	-42.0	-45.7	12.6	1.01e-04	0	60	0	444596224	55	5585
2026-01-28 10:47:29.34	213.28	31.67	-41.8	-45.4	13.0	4.80e-05	0	60	0	446693376	55	5349
2026-01-28 10:47:30.35	213.53	31.82	-41.8	-45.4	13.0	3.28e-05	0	60	0	448790528	55	5372
2026-01-28 10:47:31.36	213.78	31.97	-41.8	-45.4	12.9	4.11e-05	0	59	0	450887680	55	5380
2026-01-28 10:47:32.37	214.04	32.12	-41.9	-45.5	12.9	4.88e-05	0	60	0	452984832	55	5435
2026-01-28 10:47:33.38	214.30	32.27	-41.9	-45.6	12.8	6.02e-05	0	60	0	454033408	55	5484
2026-01-28 10:47:34.39	214.55	32.43	-41.9	-45.5	12.8	4.95e-05	0	59	0	456130560	55	5430
2026-01-28 10:47:35.40	214.82	32.58	-41.8	-45.4	13.0	4.11e-05	0	60	0	458227712	55	5345
2026-01-28 10:47:36.41	215.08	32.73	-41.8	-45.4	13.0	3.96e-05	0	59	0	460324864	55	5368
2026-01-28 10:47:37.42	215.35	32.88	-41.8	-45.3	13.1	2.89e-05	0	60	0	462422016	55	5307
2026-01-28 10:47:38.43	215.62	33.03	-41.8	-45.3	13.1	3.73e-05	0	59	0	464519168	55	5292
2026-01-28 10:47:39.44	215.89	33.18	-41.7	-45.3	13.1	4.27e-05	0	60	0	465567744	55	5286
2026-01-28 10:47:40.45	216.16	33.34	-41.7	-45.1	13.3	2.13e-05	0	60	0	467664896	55	5214
2026-01-28 10:47:41.46	216.44	33.49	-41.7	-45.2	13.2	2.89e-05	0	59	0	469762048	55	5244
2026-01-28 10:47:42.47	216.72	33.64	-41.7	-45.2	13.2	2.13e-05	0	60	0	471859200	55	5252
2026-01-28 10:47:43.48	217.00	33.79	-41.7	-45.2	13.2	3.28e-05	0	60	0	473956352	55	5261
2026-01-28 10:47:44.49	217.28	33.94	-41.8	-45.4	13.0	2.59e-05	0	60	0	475004928	55	5361
2026-01-28 10:47:45.50	217.57	34.10	-41.9	-45.5	12.9	4.50e-05	0	59	0	477102080	55	5422
2026-01-28 10:47:46.51	217.86	34.25	-41.8	-45.4	13.0	3.81e-05	0	60	0	479199232	55	5354
2026-01-28 10:47:47.52	218.15	34.40	-41.9	-45.5	12.9	4.42e-05	0	60	0	481296384	55	5417
2026-01-28 10:47:48.53	218.45	34.55	-41.9	-45.5	12.9	5.64e-05	0	59	0	483393536	55	5429
2026-01-28 10:47:49.54	218.74	34.70	-41.9	-45.6	12.7	7.40e-05	0	59	0	484442112	55	5511
2026-01-28 10:47:50.55	219.04	34.85	-42.0	-45.7	12.7	7.32e-05	0	59	0	486539264	55	5555
2026-01-28 10:47:51.56	219.35	35.01	-41.9	-45.5	12.9	6.48e-05	0	60	0	488636416	55	5424
2026-01-28 10:47:52.57	219.65	35.16	-41.9	-45.4	12.9	4.27e-05	0	60	0	490733568	55	5401
2026-01-28 10:47:53.58	219.96	35.31	-41.7	-45.2	13.2	2.13e-05	0	60	0	492830720	55	5237
2026-01-28 10:47:54.59	220.27	35.46	-41.5	-44.8	13.6	1.60e-05	0	60	0	493879296	55	5000
2026-01-28 10:47:55.60	220.59	35.61	-41.2	-44.2	14.2	4.50e-06	0	59	0	495976448	54	4963
2026-01-28 10:47:56.61	220.90	35.76	-41.0	-44.0	14.4	0.00e+00	0	60	0	498073600	54	4847
2026-01-28 10:47:57.62	221.22	35.91	-41.0	-43.9	14.5	7.00e-07	0	60	0	500170752	53	5071
2026-01-28 10:47:58.63	221.55	36.06	-41.1	-44.1	14.4	0.00e+00	0	60	0	502267904	53	5192
2026-01-28 10:47:59.64	221.87	36.21	-41.1	-44.1	14.3	0.00e+00	0	60	0	503316480	53	5193
2026-01-28 10:48:00.65	222.20	36.36	-41.2	-44.3	14.1	7.00e-07	0	60	0	505413632	53	5324
2026-01-28 10:48:01.66	222.53	36.51	-41.4	-44.6	13.8	6.10e-06	0	60	0	507510784	53	5513
2026-01-28 10:48:02.67	222.87	36.66	-41.5	-44.8	13.6	4.50e-06	0	60	0	509607936	53	5638
2026-01-28 10:48:03.68	223.20	36.81	-41.4	-44.7	13.7	1.06e-05	0	60	0	511705088	53	5565
2026-01-28 10:48:04.69	223.55	36.95	-41.3	-44.4	14.0	6.80e-06	0	60	0	512753664	53	5388
2026-01-28 10:48:05.70	223.89	37.10	-41.1	-44.2	14.3	1.50e-06	0	59	0	514850816	53	5226
2026-01-28 10:48:06.71	224.24	37.25	-41.0	-44.0	14.5	2.20e-06	0	60	0	516947968	53	5110
2026-01-28 10:48:07.72	224.59	37.39	-41.0	-44.0	14.4	7.00e-07	0	59	0	519045120	53	5106
2026-01-28 10:48:08.73	224.94	37.54	-41.2	-44.3	14.1	3.00e-06	0	60	0	521142272	53	5338
2026-01-28 10:48:09.74	225.29	37.68	-41.5	-44.8	13.5	2.20e-06	0	60	0	522190848	53	5651
2026-01-28 10:48:10.75	225.65	37.83	-41.8	-45.3	13.1	1.83e-05	0	60	0	524288000	54	5618
2026-01-28 10:48:11.76	226.02	37.97	-42.0	-45.8	12.6	4.65e-05	0	60	0	526385152	54	5940
2026-01-28 10:48:12.77	226.38	38.11	-42.1	-45.9	12.5	1.20e-04	0	60	0	528482304	54	5998
2026-01-28 10:48:13.78	226.75	38.26	-42.1	-45.8	12.5	1.31e-04	0	59	0	530579456	54	5983
2026-01-28 10:48:14.79	227.12	38.40	-42.0	-45.7	12.6	1.16e-04	0	60	0	532676608	54	5899
2026-01-28 10:48:15.80	227.50	38.54	-42.0	-45.8	12.6	1.08e-04	0	60	0	533725184	54	5925
2026-01-28 10:48:16.81	227.88	38.68	-42.0	-45.8	12.6	9.91e-05	0	60	0	535822336	54	5925
2026-01-28 10:48:17.82	228.26	38.82	-42.2	-46.1	12.4	1.53e-04	0	60	0	537919488	54	6135
2026-01-28 10:48:18.83	228.64	38.96	-42.3	-46.2	12.1	1.89e-04	0	60	0	540016640	55	5915
2026-01-28 10:48:19.84	229.03	39.10	-42.3	-46.4	12.0	3.84e-04	0	59	0	542113792	55	6032
2026-01-28 10:48:20.85	229.42	39.23	-42.4	-46.6	11.7	5.99e-04	0	60	0	543162368	55	6192
2026-01-28 10:48:21.86	229.82	39.37	-42.5	-46.7	11.6	6.53e-04	0	60	0	545259520	55	6217
2026-01-28 10:48:22.87	230.21	39.50	-42.3	-46.3	12.0	3.66e-04	0	60	0	547356672	55	5957
2026-01-28 10:48:23.88	230.61	39.64	-42.2	-46.0	12.3	2.86e-04	0	60	0	549453824	55	5787
2026-01-28 10:48:24.89	231.02	39.77	-42.0	-45.7	12.7	1.01e-04	0	60	0	551550976	55	5582
2026-01-28 10:48:25.90	231.43	39.90	-41.9	-45.5	12.9	5.41e-05	0	60	0	552599552	55	5445
2026-01-28 10:48:26.91	231.84	40.03	-41.8	-45.3	13.1	2.97e-05	0	60	0	554696704	55	5300
2026-01-28 10:48:27.92	232.25	40.16	-41.8	-45.3	13.1	3.35e-05	0	60	0	556793856	55	5297
2026-01-28 10:48:28.93	232.67	40.29	-41.9	-45.6	12.8	3.35e-05	0	60	0	558891008	55	5511
2026-01-28 10:48:29.95	233.09	40.42	-41.9	-45.6	12.8	6.56e-05	0	60	0	560988160	55	5494
2026-01-28 10:48:30.96	233.52	40.54	-41.9	-45.6	12.8	5.95e-05	0	60	0	562036736	55	5506
2026-01-28 10:48:31.96	233.94	40.67	-41.9	-45.5	12.9	7.62e-05	0	60	0	564133888	55	5455
2026-01-28 10:48:32.97	234.37	40.79	-41.8	-45.4	13.0	4.65e-05	0	60	0	566231040	55	5358
2026-01-28 10:48:33.98	234.80	40.91	-41.7	-45.1	13.3	2.13e-05	0	60	0	568328192	55	5205
2026-01-28 10:48:34.99	235.24	41.03	-41.8	-45.3	13.1	1.75e-05	0	60	0	570425344	55	5313
2026-01-28 10:48:36.00	235.68	41.15	-42.0	-45.8	12.6	6.56e-05	0	60	0	571473920	55	5604
2026-01-28 10:48:37.01	236.12	41.27	-42.4	-46.6	11.7	3.10e-04	0	60	0	573571072	55	6193
2026-01-28 10:48:38.02	236.57	41.38	-42.6	-47.0	11.3	6.97e-04	0	60	0	575668224	55	6449
2026-01-28 10:48:39.03	237.02	41.50	-42.6	-47.0	11.4	9.67e-04	0	60	0	577765376	55	6429
2026-01-28 10:48:40.04	237.47	41.61	-42.5	-46.7	11.6	8.19e-04	0	60	0	579862528	55	6253
2026-01-28 10:48:41.05	237.92	41.72	-42.3	-46.4	11.9	5.90e-04	0	60	0	580911104	55	5993
2026-01-28 10:48:42.06	238.38	41.83	-42.2	-46.2	12.2	2.66e-04	0	60	0	583008256	55	5875
2026-01-28 10:48:43.07	238.84	41.94	-42.4	-46.4	11.9	2.93e-04	0	60	0	585105408	55	6031
2026-01-28 10:48:44.08	239.31	42.04	-42.7	-47.2	11.2	6.18e-04	0	60	0	587202560	55	6585
2026-01-28 10:48:45.09	239.78	42.15	-43.2	-48.3	10.2	2.46e-03	0	60	0	589299712	56	7072
2026-01-28 10:48:46.10	240.25	42.25	-43.3	-48.5	10.0	9.03e-03	0	60	0	590348288	57	6839
2026-01-28 10:48:47.11	240.72	42.35	-43.1	-48.1	10.4	6.53e-03	0	60	0	592445440	57	6506
2026-01-28 10:48:48.12	241.20	42.45	-42.8	-47.3	11.1	3.40e-03	0	60	0	594542592	57	5986
2026-01-28 10:48:49.13	241.68	42.55	-42.8	-47.3	11.2	1.10e-03	0	60	0	596639744	57	5937
2026-01-28 10:48:50.14	242.16	42.64	-42.6	-46.9	11.6	7.80e-04	0	60	0	598736896	57	5690
2026-01-28 10:48:51.15	242.64	42.73	-42.7	-47.1	11.4	7.64e-04	0	60	0	600834048	57	5799
2026-01-28 10:48:52.16	243.13	42.82	-42.9	-47.5	10.9	1.36e-03	0	60	0	601882624	57	6100
2026-01-28 10:48:53.17	243.62	42.91	-43.1	-47.9	10.6	2.78e-03	0	60	0	603979776	57	6388
2026-01-28 10:48:54.18	244.11	43.00	-43.1	-47.8	10.6	3.78e-03	0	60	0	606076928	57	6344
2026-01-28 10:48:55.19	244.61	43.08	-42.8	-47.3	11.2	1.85e-03	0	60	0	608174080	57	5925
2026-01-28 10:48:56.20	245.11	43.17	-42.6	-46.8	11.7	7.47e-04	0	60	0	610271232	57	5644
2026-01-28 10:48:57.20	245.60	43.25	-42.4	-46.5	12.1	4.17e-04	0	60	0	611319808	56	5734
2026-01-28 10:48:58.21	246.11	43.32	-42.6	-46.9	11.6	4.73e-04	0	60	0	613416960	56	6015
2026-01-28 10:48:59.22	246.61	43.40	-43.0	-47.7	10.9	1.44e-03	0	60	0	615514112	56	6584
2026-01-28 10:49:00.23	247.12	43.47	-43.0	-47.9	10.6	2.34e-03	0	60	0	617611264	56	6725
2026-01-28 10:49:01.25	247.63	43.54	-42.7	-47.1	11.4	2.31e-03	0	60	0	619708416	56	6185
2026-01-28 10:49:02.26	248.14	43.61	-42.3	-46.1	12.4	2.82e-04	0	60	0	620756992	56	5492
2026-01-28 10:49:03.27	248.66	43.68	-41.8	-45.2	13.2	8.46e-05	0	60	0	622854144	55	5277
2026-01-28 10:49:04.27	249.17	43.74	-41.5	-44.7	13.7	7.60e-06	0	60	0	624951296	55	4966
2026-01-28 10:49:05.28	249.69	43.80	-41.5	-44.8	13.6	3.80e-06	0	60	0	627048448	54	5325
2026-01-28 10:49:06.29	250.21	43.86	-41.9	-45.5	13.0	1.75e-05	0	60	0	629145600	54	5733
2026-01-28 10:49:07.31	250.74	43.92	-42.2	-46.2	12.2	9.84e-05	0	60	0	630194176	55	5873
2026-01-28 10:49:08.31	251.25	43.97	-42.4	-46.5	11.9	4.78e-04	0	60	0	632291328	55	6113
2026-01-28 10:49:09.32	251.78	44.02	-42.1	-46.0	12.4	2.22e-04	0	60	0	634388480	55	5744
2026-01-28 10:49:10.33	252.31	44.07	-42.1	-45.9	12.5	1.35e-04	0	60	0	636485632	55	5700
2026-01-28 10:49:11.34	252.83	44.12	-42.2	-46.0	12.4	1.57e-04	0	60	0	638582784	55	5774
2026-01-28 10:49:12.35	253.36	44.16	-42.2	-46.2	12.2	2.11e-04	0	60	0	639631360	55	5867
2026-01-28 10:49:13.35	253.89	44.20	-42.3	-46.2	12.2	3.01e-04	0	60	0	641728512	55	5907
2026-01-28 10:49:14.36	254.42	44.24	-42.4	-46.5	11.9	3.62e-04	0	60	0	643825664	55	6131
2026-01-28 10:49:15.37	254.96	44.27	-42.6	-46.9	11.4	7.73e-04	0	60	0	645922816	55	6393
2026-01-28 10:49:16.38	255.49	44.31	-42.9	-47.4	11.1	1.09e-03	0	60	0	648019968	56	6369
2026-01-28 10:49:17.39	256.03	44.34	-42.7	-47.0	11.6	1.36e-03	0	60	0	649068544	56	6087
2026-01-28 10:49:18.40	256.56	44.37	-42.5	-46.7	11.9	5.07e-04	0	60	0	651165696	56	5862
2026-01-28 10:49:19.41	257.10	44.39	-42.3	-46.2	12.3	2.34e-04	0	60	0	653262848	56	5579
2026-01-28 10:49:20.42	257.64	44.41	-42.3	-46.0	12.5	1.58e-04	0	60	0	655360000	56	5462
2026-01-28 10:49:21.43	258.18	44.43	-42.2	-45.9	12.6	8.62e-05	0	60	0	657457152	56	5366
2026-01-28 10:49:22.44	258.72	44.45	-42.2	-45.9	12.7	8.16e-05	0	60	0	658505728	56	5378
2026-01-28 10:49:23.45	259.26	44.46	-42.2	-46.0	12.6	9.38e-05	0	60	0	660602880	56	5417
2026-01-28 10:49:24.46	259.80	44.47	-42.3	-46.1	12.5	1.11e-04	0	60	0	662700032	56	5500
2026-01-28 10:49:25.47	260.34	44.48	-42.4	-46.3	12.2	2.12e-04	0	60	0	664797184	56	5598
2026-01-28 10:49:26.48	260.88	44.49	-42.2	-45.9	12.6	1.24e-04	0	60	0	666894336	56	5378
2026-01-28 10:49:27.49	261.42	44.49	-42.1	-45.8	12.8	5.49e-05	0	60	0	668991488	56	5306
2026-01-28 10:49:28.50	261.97	44.49	-42.1	-45.7	12.9	5.03e-05	0	60	0	670040064	56	5267
2026-01-28 10:49:29.51	262.51	44.49	-41.8	-45.4	13.0	3.35e-05	0	60	0	672137216	55	5368
2026-01-28 10:49:30.52	263.05	44.48	-41.8	-45.4	13.1	3.66e-05	0	60	0	674234368	55	5348
2026-01-28 10:49:31.53	263.59	44.47	-41.8	-45.4	13.0	3.50e-05	0	60	0	676331520	55	5364
2026-01-28 10:49:32.54	264.13	44.46	-41.7	-45.1	13.4	1.90e-05	0	60	0	678428672	55	5184
2026-01-28 10:49:33.55	264.67	44.45	-41.6	-45.0	13.4	2.13e-05	0	60	0	679477248	55	5127
2026-01-28 10:49:34.56	265.21	44.43	-41.5	-44.8	13.6	1.22e-05	0	60	0	681574400	55	5026
2026-01-28 10:49:35.57	265.75	44.41	-41.6	-45.0	13.5	6.10e-06	0	60	0	683671552	55	5109
2026-01-28 10:49:36.58	266.29	44.39	-41.7	-45.2	13.3	1.98e-05	0	60	0	685768704	55	5228
2026-01-28 10:49:37.59	266.82	44.36	-41.6	-45.0	13.4	2.74e-05	0	60	0	687865856	55	5133
2026-01-28 10:49:38.60	267.36	44.34	-41.3	-44.3	14.1	5.30e-06	0	60	0	688914432	54	5039
2026-01-28 10:49:39.61	267.90	44.30	-41.0	-43.8	14.6	1.50e-06	0	60	0	691011584	53	5040
2026-01-28 10:49:40.62	268.43	44.27	-41.1	-44.1	14.3	7.00e-07	0	60	0	693108736	53	5212
2026-01-28 10:49:41.63	268.96	44.24	-41.5	-44.7	13.7	7.00e-07	0	60	0	695205888	53	5591
2026-01-28 10:49:42.64	269.50	44.20	-42.0	-45.7	12.7	2.13e-05	0	60	0	697303040	54	5860
2026-01-28 10:49:43.65	270.03	44.16	-42.1	-45.9	12.6	9.00e-05	0	60	0	698351616	54	6013
2026-01-28 10:49:44.66	270.56	44.11	-41.9	-45.4	12.9	5.95e-05	0	60	0	700448768	54	5709
2026-01-28 10:49:45.67	271.08	44.07	-41.7	-45.0	13.4	2.36e-05	0	60	0	702545920	54	5447
2026-01-28 10:49:46.68	271.61	44.02	-41.5	-44.7	13.8	8.30e-06	0	60	0	704643072	54	5226
2026-01-28 10:49:47.69	272.13	43.97	-41.5	-44.7	13.8	5.30e-06	0	60	0	706740224	54	5234
2026-01-28 10:49:48.70	272.66	43.91	-41.6	-44.9	13.6	8.30e-06	0	60	0	708837376	54	5370
2026-01-28 10:49:49.71	273.18	43.86	-41.6	-44.9	13.6	9.10e-06	0	60	0	709885952	54	5369
2026-01-28 10:49:50.72	273.70	43.80	-41.6	-45.0	13.5	1.06e-05	0	60	0	711983104	54	5410
2026-01-28 10:49:51.73	274.21	43.74	-41.7	-45.2	13.2	1.37e-05	0	60	0	714080256	54	5539
2026-01-28 10:49:52.74	274.73	43.67	-41.9	-45.4	13.0	2.59e-05	0	60	0	716177408	54	5719
2026-01-28 10:49:53.75	275.24	43.61	-42.2	-46.1	12.3	9.84e-05	0	60	0	718274560	54	6166
2026-01-28 10:49:54.76	275.75	43.54	-42.4	-46.5	11.9	2.72e-04	0	60	0	719323136	55	6113
2026-01-28 10:49:55.77	276.26	43.47	-42.4	-46.4	11.9	6.60e-04	0	60	0	721420288	55	6049
2026-01-28 10:49:56.78	276.77	43.39	-42.2	-46.1	12.3	1.92e-04	0	60	0	723517440	55	5789
2026-01-28 10:49:57.79	277.27	43.32	-42.1	-45.9	12.5	1.48e-04	0	60	0	725614592	55	5721
2026-01-28 10:49:58.80	277.77	43.24	-42.3	-46.3	12.1	1.68e-04	0	60	0	727711744	55	5944
2026-01-28 10:49:59.81	278.27	43.16	-42.5	-46.8	11.5	7.31e-04	0	60	0	728760320	55	6332
2026-01-28 10:50:00.82	278.77	43.08	-42.3	-46.2	12.2	4.64e-04	0	60	0	730857472	55	5916
2026-01-28 10:50:01.83	279.26	42.99	-41.7	-45.2	13.2	7.70e-05	0	60	0	732954624	55	5245
2026-01-28 10:50:02.84	279.76	42.91	-41.6	-44.9	13.5	1.44e-05	0	60	0	735051776	55	5046
2026-01-28 10:50:03.86	280.25	42.82	-41.7	-45.2	13.2	1.75e-05	0	60	0	737148928	55	5249
2026-01-28 10:50:04.87	280.74	42.73	-42.1	-45.9	12.4	6.94e-05	0	60	0	738197504	55	5719
2026-01-28 10:50:05.88	281.22	42.63	-42.2	-46.1	12.2	1.98e-04	0	60	0	740294656	55	5833
2026-01-28 10:50:06.89	281.70	42.54	-41.8	-45.3	13.1	6.86e-05	0	60	0	742391808	55	5323
2026-01-28 10:50:07.90	282.18	42.44	-41.6	-44.9	13.5	1.29e-05	0	60	0	744488960	55	5085
2026-01-28 10:50:08.91	282.65	42.34	-41.6	-44.9	13.5	9.90e-06	0	60	0	746586112	55	5082
2026-01-28 10:50:09.92	283.12	42.24	-41.8	-45.3	13.1	2.59e-05	0	60	0	747634688	55	5292
2026-01-28 10:50:10.93	283.59	42.14	-42.0	-45.8	12.6	6.63e-05	0	60	0	749731840	55	5613
2026-01-28 10:50:11.94	284.06	42.04	-42.1	-45.9	12.5	1.47e-04	0	60	0	751828992	55	5706
2026-01-28 10:50:12.95	284.52	41.93	-41.7	-45.2	13.3	4.88e-05	0	60	0	753926144	55	5219
2026-01-28 10:50:13.96	284.98	41.82	-41.2	-44.2	14.2	3.00e-06	0	60	0	756023296	54	4930
2026-01-28 10:50:14.97	285.44	41.72	-41.1	-44.1	14.4	0.00e+00	0	60	0	757071872	54	4877
2026-01-28 10:50:15.98	285.89	41.60	-41.4	-44.7	13.8	2.20e-06	0	60	0	759169024	54	5231
2026-01-28 10:50:16.99	286.35	41.49	-41.6	-45.0	13.4	1.22e-05	0	60	0	761266176	54	5446
2026-01-28 10:50:18.00	286.79	41.38	-41.2	-44.3	14.1	6.10e-06	0	60	0	763363328	54	5019
2026-01-28 10:50:19.01	287.24	41.26	-40.8	-43.6	14.9	1.50e-06	0	60	0	765460480	53	4891
2026-01-28 10:50:20.02	287.68	41.15	-40.7	-43.5	14.9	0.00e+00	0	60	0	766509056	53	4825
2026-01-28 10:50:21.03	288.12	41.03	-40.9	-43.8	14.6	0.00e+00	0	60	0	768606208	53	5020
2026-01-28 10:50:22.04	288.55	40.91	-41.5	-44.8	13.6	2.20e-06	0	60	0	770703360	53	5619
2026-01-28 10:50:23.05	288.98	40.79	-41.8	-45.3	13.1	2.13e-05	0	60	0	772800512	54	5638
2026-01-28 10:50:24.06	289.41	40.66	-41.5	-44.8	13.6	1.44e-05	0	60	0	774897664	54	5317
2026-01-28 10:50:25.07	289.84	40.54	-41.2	-44.2	14.3	2.20e-06	0	60	0	776994816	54	4933
2026-01-28 10:50:26.08	290.26	40.41	-41.1	-44.1	14.3	1.50e-06	0	60	0	778043392	54	4919
2026-01-28 10:50:27.09	290.68	40.29	-41.1	-44.0	14.4	2.20e-06	0	60	0	780140544	54	4868
2026-01-28 10:50:28.10	291.09	40.16	-41.6	-44.9	13.6	3.80e-06	0	60	0	782237696	54	5344
2026-01-28 10:50:29.12	291.51	40.03	-41.4	-44.7	13.8	6.80e-06	0	60	0	784334848	54	5223
2026-01-28 10:50:30.13	291.92	39.90	-41.2	-44.3	14.2	1.50e-06	0	60	0	786432000	54	4986
2026-01-28 10:50:31.14	292.33	39.77	-40.9	-43.7	14.7	2.20e-06	0	60	0	787480576	53	4956
2026-01-28 10:50:32.15	292.73	39.64	-40.6	-43.3	15.1	0.00e+00	0	60	0	789577728	53	4735
2026-01-28 10:50:33.15	293.12	39.50	-40.9	-43.7	14.7	7.00e-07	0	60	0	791674880	53	4979
2026-01-28 10:50:34.16	293.52	39.37	-41.3	-44.5	13.9	0.00e+00	0	60	0	793772032	53	5419
2026-01-28 10:50:35.17	293.91	39.24	-41.4	-44.7	13.7	3.00e-06	0	60	0	795869184	53	5541
2026-01-28 10:50:36.18	294.30	39.10	-41.4	-44.6	13.7	5.30e-06	0	60	0	796917760	53	5514
2026-01-28 10:50:37.19	294.69	38.96	-41.4	-44.6	13.8	4.50e-06	0	60	0	799014912	53	5487
2026-01-28 10:50:38.20	295.07	38.82	-41.4	-44.6	13.8	6.10e-06	0	60	0	801112064	53	5469
2026-01-28 10:50:39.21	295.45	38.69	-41.6	-44.9	13.4	9.10e-06	0	60	0	803209216	53	5701
2026-01-28 10:50:40.22	295.83	38.55	-41.8	-45.3	13.1	2.97e-05	0	60	0	805306368	54	5602
2026-01-28 10:50:41.23	296.20	38.41	-41.5	-44.7	13.7	1.75e-05	0	60	0	806354944	54	5272
2026-01-28 10:50:42.24	296.57	38.26	-41.4	-44.5	13.9	4.50e-06	0	60	0	808452096	54	5159
2026-01-28 10:50:43.25	296.94	38.12	-41.4	-44.5	13.9	1.50e-06	0	60	0	810549248	54	5135
2026-01-28 10:50:44.26	297.30	37.98	-41.3	-44.4	14.0	3.00e-06	0	60	0	812646400	54	5068
2026-01-28 10:50:45.27	297.66	37.84	-41.4	-44.6	13.8	3.80e-06	0	60	0	814743552	54	5179
2026-01-28 10:50:46.28	298.02	37.69	-41.3	-44.5	13.9	7.60e-06	0	60	0	815792128	54	5144
2026-01-28 10:50:47.29	298.38	37.55	-41.0	-43.9	14.4	2.20e-06	0	60	0	817889280	54	4814
2026-01-28 10:50:48.30	298.73	37.40	-41.0	-44.0	14.4	2.20e-06	0	60	0	819986432	53	5106
2026-01-28 10:50:49.31	299.08	37.26	-40.9	-43.8	14.6	0.00e+00	0	60	0	822083584	53	5040
2026-01-28 10:50:50.32	299.42	37.11	-41.1	-44.2	14.2	7.00e-07	0	60	0	824180736	53	5233
2026-01-28 10:50:51.33	299.77	36.97	-41.3	-44.5	13.9	4.50e-06	0	60	0	825229312	53	5441
2026-01-28 10:50:52.34	300.10	36.82	-41.5	-44.7	13.6	6.80e-06	0	60	0	827326464	53	5587
2026-01-28 10:50:53.35	300.44	36.67	-41.3	-44.5	13.9	5.30e-06	0	60	0	829423616	53	5431
2026-01-28 10:50:54.36	300.77	36.53	-41.2	-44.3	14.1	2.20e-06	0	60	0	831520768	53	5295
2026-01-28 10:50:55.37	301.10	36.38	-41.0	-43.9	14.5	7.00e-07	0	60	0	833617920	53	5080
2026-01-28 10:50:56.38	301.43	36.23	-40.9	-43.8	14.5	0.00e+00	0	60	0	834666496	53	5040
2026-01-28 10:50:57.39	301.76	36.08	-40.8	-43.7	14.7	0.00e+00	0	60	0	836763648	53	4937
2026-01-28 10:50:58.40	302.08	35.93	-40.7	-43.5	14.9	0.00e+00	0	60	0	838860800	53	4828
2026-01-28 10:50:59.41	302.40	35.78	-40.5	-43.1	15.3	0.00e+00	0	60	0	840957952	52	4883
2026-01-28 10:51:00.42	302.71	35.63	-40.4	-43.0	15.4	0.00e+00	0	60	0	843055104	52	4851
2026-01-28 10:51:01.43	303.03	35.48	-40.5	-43.2	15.2	0.00e+00	0	60	0	844103680	52	4939
2026-01-28 10:51:02.43	303.33	35.33	-40.8	-43.7	14.7	0.00e+00	0	60	0	846200832	52	5236
2026-01-28 10:51:03.44	303.64	35.18	-41.4	-44.7	13.7	3.80e-06	0	60	0	848297984	53	5546
2026-01-28 10:51:04.45	303.95	35.03	-41.7	-45.2	13.2	1.52e-05	0	60	0	850395136	53	5886
2026-01-28 10:51:05.46	304.25	34.88	-41.4	-44.6	13.7	9.90e-06	0	60	0	852492288	53	5494
2026-01-28 10:51:06.47	304.55	34.73	-40.9	-43.8	14.6	1.50e-06	0	60	0	854589440	53	4998
2026-01-28 10:51:07.48	304.84	34.58	-40.9	-43.7	14.6	0.00e+00	0	60	0	855638016	53	4977
2026-01-28 10:51:08.49	305.14	34.43	-41.1	-44.2	14.2	7.00e-07	0	60	0	857735168	53	5244
2026-01-28 10:51:09.50	305.43	34.28	-41.8	-45.3	13.0	1.22e-05	0	60	0	859832320	54	5648
2026-01-28 10:51:10.51	305.72	34.13	-42.4	-46.7	11.6	1.72e-04	0	60	0	861929472	55	6225
2026-01-28 10:51:11.52	306.00	33.98	-42.5	-46.8	11.4	1.04e-03	0	60	0	864026624	55	6331
2026-01-28 10:51:12.53	306.28	33.83	-42.2	-46.2	12.0	6.23e-04	0	60	0	865075200	55	5902
2026-01-28 10:51:13.54	306.56	33.68	-41.8	-45.3	13.0	1.29e-04	0	60	0	867172352	55	5322
2026-01-28 10:51:14.55	306.84	33.53	-41.5	-44.8	13.6	6.80e-06	0	60	0	869269504	55	4987
2026-01-28 10:51:15.56	307.12	33.37	-41.3	-44.4	13.9	8.30e-06	0	60	0	871366656	54	5091
2026-01-28 10:51:16.57	307.39	33.22	-41.5	-44.8	13.6	4.50e-06	0	60	0	873463808	54	5319
2026-01-28 10:51:17.58	307.66	33.07	-42.0	-45.8	12.6	7.93e-05	0	60	0	874512384	54	5928
2026-01-28 10:51:18.59	307.93	32.92	-42.4	-46.7	11.6	4.30e-04	0	60	0	876609536	55	6237
2026-01-28 10:51:19.60	308.20	32.77	-42.5	-46.8	11.4	1.06e-03	0	60	0	878706688	55	6329
2026-01-28 10:51:20.61	308.46	32.62	-41.9	-45.5	12.7	4.69e-04	0	60	0	880803840	55	5461
2026-01-28 10:51:21.62	308.72	32.47	-41.3	-44.4	13.9	8.30e-06	0	60	0	882900992	54	5075
2026-01-28 10:51:22.63	308.98	32.32	-41.0	-43.9	14.5	0.00e+00	0	60	0	883949568	53	5052
2026-01-28 10:51:23.64	309.23	32.17	-41.0	-44.0	14.4	7.00e-07	0	60	0	886046720	53	5145
2026-01-28 10:51:24.65	309.49	32.02	-41.6	-45.1	13.2	6.80e-06	0	60	0	888143872	53	5820
2026-01-28 10:51:25.66	309.74	31.87	-42.5	-46.9	11.4	2.17e-04	0	60	0	890241024	55	6380
2026-01-28 10:51:26.67	309.99	31.72	-43.2	-48.3	10.0	3.63e-03	0	60	0	892338176	56	7105
2026-01-28 10:51:27.68	310.24	31.57	-42.9	-47.7	10.6	5.31e-03	0	60	0	893386752	57	6274
2026-01-28 10:51:28.69	310.48	31.42	-42.3	-46.4	12.1	8.70e-04	0	60	0	895483904	56	5660
2026-01-28 10:51:29.70	310.72	31.27	-41.5	-44.8	13.5	7.09e-05	0	60	0	897581056	54	5281
2026-01-28 10:51:30.71	310.96	31.12	-41.1	-44.1	14.3	2.20e-06	0	60	0	899678208	54	4880
2026-01-28 10:51:31.72	311.20	30.97	-40.9	-43.8	14.6	7.00e-07	0	60	0	901775360	53	4991
2026-01-28 10:51:32.73	311.44	30.83	-41.2	-44.2	14.1	0.00e+00	0	60	0	902823936	53	5274
2026-01-28 10:51:33.74	311.67	30.68	-41.7	-45.2	13.1	5.30e-06	0	60	0	904921088	53	5884
2026-01-28 10:51:34.75	311.90	30.53	-42.2	-46.3	11.9	1.96e-04	0	60	0	907018240	55	5981
2026-01-28 10:51:35.76	312.13	30.38	-42.6	-47.1	11.2	1.02e-03	0	60	0	909115392	55	6496
2026-01-28 10:51:36.77	312.36	30.23	-42.5	-46.8	11.4	1.59e-03	0	60	0	911212544	55	6305
2026-01-28 10:51:37.78	312.59	30.09	-41.8	-45.5	12.7	1.62e-04	0	60	0	912261120	55	5418
2026-01-28 10:51:38.79	312.81	29.94	-41.2	-44.3	14.0	1.22e-05	0	60	0	914358272	54	4996
2026-01-28 10:51:39.80	313.03	29.79	-40.7	-43.5	14.8	7.00e-07	0	60	0	916455424	53	4851
2026-01-28 10:51:40.81	313.25	29.65	-40.6	-43.4	14.9	0.00e+00	0	60	0	918552576	53	4784
2026-01-28 10:51:41.82	313.47	29.50	-40.7	-43.5	14.8	0.00e+00	0	60	0	920649728	53	4870
2026-01-28 10:51:42.83	313.68	29.36	-41.2	-44.4	13.9	1.50e-06	0	60	0	922746880	53	5381
2026-01-28 10:51:43.84	313.90	29.21	-41.8	-45.5	12.8	4.57e-05	0	60	0	923795456	54	5746
2026-01-28 10:51:44.85	314.11	29.07	-42.2	-46.2	12.0	2.55e-04	0	60	0	925892608	54	6248
2026-01-28 10:51:45.86	314.32	28.92	-42.0	-45.7	12.5	2.85e-04	0	60	0	927989760	55	5590
2026-01-28 10:51:46.87	314.53	28.78	-41.3	-44.5	13.8	6.10e-06	0	60	0	930086912	54	5106
2026-01-28 10:51:47.88	314.73	28.63	-40.6	-43.4	14.9	0.00e+00	0	60	0	932184064	53	4789
2026-01-28 10:51:48.89	314.94	28.49	-40.2	-42.7	15.6	0.00e+00	0	60	0	933232640	52	4686
2026-01-28 10:51:49.91	315.14	28.35	-40.2	-42.7	15.6	0.00e+00	0	60	0	935329792	52	4676
2026-01-28 10:51:50.92	315.35	28.20	-40.2	-42.7	15.6	0.00e+00	0	60	0	937426944	52	4673
2026-01-28 10:51:51.93	315.54	28.06	-40.4	-43.1	15.2	0.00e+00	0	60	0	939524096	52	4880
2026-01-28 10:51:52.93	315.74	27.92	-40.8	-43.7	14.5	0.00e+00	0	60	0	941621248	52	5276
2026-01-28 10:51:53.94	315.94	27.78	-41.3	-44.6	13.6	3.80e-06	0	60	0	942669824	53	5505
2026-01-28 10:51:54.95	316.13	27.64	-41.7	-45.3	12.9	2.74e-05	0	60	0	944766976	53	5966
2026-01-28 10:51:55.96	316.32	27.50	-41.7	-45.2	13.0	5.95e-05	0	60	0	946864128	54	5576
2026-01-28 10:51:56.97	316.51	27.35	-41.5	-44.9	13.4	2.13e-05	0	60	0	948961280	54	5348
2026-01-28 10:51:57.98	316.70	27.21	-41.1	-44.3	14.0	3.00e-06	0	60	0	951058432	54	4985
2026-01-28 10:51:58.99	316.89	27.08	-40.9	-43.9	14.3	1.50e-06	0	60	0	952107008	53	5090
2026-01-28 10:52:00.00	317.08	26.94	-40.8	-43.7	14.5	0.00e+00	0	60	0	954204160	53	4957
2026-01-28 10:52:01.01	317.26	26.80	-40.6	-43.4	14.9	0.00e+00	0	60	0	956301312	53	4773
2026-01-28 10:52:02.02	317.45	26.66	-40.7	-43.5	14.7	0.00e+00	0	60	0	958398464	53	4867
2026-01-28 10:52:03.03	317.63	26.52	-41.0	-44.0	14.2	7.00e-07	0	60	0	960495616	53	5148
2026-01-28 10:52:04.04	317.81	26.38	-41.2	-44.3	13.9	1.50e-06	0	60	0	961544192	53	5326
2026-01-28 10:52:05.05	317.98	26.25	-41.4	-44.7	13.5	9.90e-06	0	60	0	963641344	53	5560
2026-01-28 10:52:06.06	318.16	26.11	-41.3	-44.6	13.6	7.60e-06	0	60	0	965738496	53	5505
2026-01-28 10:52:07.07	318.34	25.97	-41.2	-44.3	13.9	3.00e-06	0	60	0	967835648	53	5339
2026-01-28 10:52:08.08	318.51	25.84	-41.0	-44.0	14.2	2.20e-06	0	60	0	969932800	53	5128
2026-01-28 10:52:09.09	318.68	25.70	-40.8	-43.7	14.5	0.00e+00	0	60	0	970981376	53	4978
2026-01-28 10:52:10.10	318.85	25.57	-40.5	-43.3	14.9	0.00e+00	0	60	0	973078528	53	4737
2026-01-28 10:52:11.11	319.02	25.43	-40.4	-43.2	15.1	7.00e-07	0	60	0	975175680	52	4929
2026-01-28 10:52:12.12	319.19	25.30	-40.5	-43.3	14.9	0.00e+00	0	60	0	977272832	52	5010
2026-01-28 10:52:13.13	319.36	25.16	-40.6	-43.4	14.9	0.00e+00	0	60	0	979369984	52	5048
2026-01-28 10:52:14.14	319.52	25.03	-40.7	-43.6	14.6	0.00e+00	0	60	0	980418560	52	5211
2026-01-28 10:52:15.15	319.69	24.90	-40.7	-43.6	14.6	0.00e+00	0	60	0	982515712	52	5215
2026-01-28 10:52:16.16	319.85	24.76	-40.9	-43.9	14.3	7.00e-07	0	60	0	984612864	52	5353
2026-01-28 10:52:17.17	320.01	24.63	-41.1	-44.2	14.0	1.50e-06	0	60	0	986710016	52	5577
2026-01-28 10:52:18.18	320.17	24.50	-41.0	-44.0	14.2	3.00e-06	0	60	0	988807168	52	5442
2026-01-28 10:52:19.19	320.33	24.37	-41.0	-44.1	14.1	7.00e-07	0	60	0	990904320	52	5512
2026-01-28 10:52:20.20	320.49	24.24	-41.1	-44.2	13.9	1.50e-06	0	60	0	991952896	52	5568
2026-01-28 10:52:21.21	320.65	24.11	-41.1	-44.2	13.9	5.30e-06	0	60	0	994050048	52	5588
2026-01-28 10:52:22.21	320.80	23.98	-41.0	-44.1	14.1	1.50e-06	0	60	0	996147200	52	5490
2026-01-28 10:52:23.22	320.95	23.85	-40.9	-43.9	14.3	7.00e-07	0	60	0	998244352	52	5350
2026-01-28 10:52:24.24	321.11	23.72	-40.7	-43.7	14.5	7.00e-07	0	60	0	1000341504	52	5233
2026-01-28 10:52:25.25	321.26	23.59	-40.7	-43.6	14.6	0.00e+00	0	60	0	1001390080	52	5206
2026-01-28 10:52:26.26	321.41	23.46	-40.6	-43.5	14.7	7.00e-07	0	60	0	1003487232	52	5121
2026-01-28 10:52:27.27	321.56	23.33	-40.5	-43.4	14.8	0.00e+00	0	60	0	1005584384	52	5044
2026-01-28 10:52:28.28	321.71	23.21	-40.5	-43.3	14.8	7.00e-07	0	60	0	1007681536	52	5023
2026-01-28 10:52:29.29	321.85	23.08	-40.5	-43.4	14.8	0.00e+00	0	60	0	1009778688	52	5052
2026-01-28 10:52:30.30	322.00	22.95	-40.6	-43.5	14.7	0.00e+00	0	60	0	1010827264	52	5123
2026-01-28 10:52:31.31	322.14	22.83	-40.7	-43.6	14.6	0.00e+00	0	60	0	1012924416	52	5165
2026-01-28 10:52:32.32	322.29	22.70	-40.7	-43.6	14.6	0.00e+00	0	60	0	1015021568	52	5162
2026-01-28 10:52:33.33	322.43	22.58	-40.8	-43.7	14.5	0.00e+00	0	60	0	1017118720	52	5250
2026-01-28 10:52:34.34	322.57	22.45	-40.9	-43.9	14.2	7.00e-07	0	60	0	1019215872	52	5353
2026-01-28 10:52:35.35	322.71	22.33	-40.8	-43.8	14.3	0.00e+00	0	60	0	1020264448	52	5339
2026-01-28 10:52:36.36	322.85	22.21	-40.9	-44.0	14.1	0.00e+00	0	60	0	1022361600	52	5443
2026-01-28 10:52:37.37	322.99	22.08	-41.0	-44.2	14.0	2.20e-06	0	60	0	1024458752	52	5543
2026-01-28 10:52:38.38	323.12	21.96	-41.0	-44.2	13.9	3.80e-06	0	60	0	1026555904	52	5543
2026-01-28 10:52:39.39	323.26	21.84	-41.1	-44.3	13.8	3.80e-06	0	60	0	1028653056	52	5637
2026-01-28 10:52:40.40	323.39	21.72	-41.1	-44.3	13.9	4.50e-06	0	60	0	1030750208	52	5597
2026-01-28 10:52:41.41	323.53	21.59	-41.0	-44.2	13.9	5.30e-06	0	60	0	1031798784	52	5567
2026-01-28 10:52:42.42	323.66	21.47	-41.1	-44.3	13.8	2.20e-06	0	60	0	1033895936	52	5636
2026-01-28 10:52:43.43	323.79	21.35	-41.0	-44.2	13.9	4.50e-06	0	60	0	1035993088	52	5573
2026-01-28 10:52:44.44	323.92	21.23	-41.1	-44.3	13.8	7.00e-07	0	60	0	1038090240	52	5618
2026-01-28 10:52:45.45	324.05	21.11	-41.1	-44.4	13.6	6.10e-06	0	60	0	1040187392	52	5693
2026-01-28 10:52:46.46	324.18	20.99	-41.1	-44.4	13.7	3.80e-06	0	60	0	1041235968	52	5666
2026-01-28 10:52:47.47	324.31	20.87	-41.2	-44.6	13.5	9.10e-06	0	60	0	1043333120	52	5801
2026-01-28 10:52:48.48	324.43	20.75	-41.2	-44.6	13.4	7.60e-06	0	60	0	1045430272	53	5504
2026-01-28 10:52:49.49	324.56	20.64	-41.3	-44.7	13.4	1.22e-05	0	60	0	1047527424	53	5561
2026-01-28 10:52:50.50	324.68	20.52	-41.4	-44.9	13.2	1.98e-05	0	60	0	1049624576	53	5698
2026-01-28 10:52:51.51	324.81	20.40	-41.4	-44.8	13.2	2.89e-05	0	60	0	1050673152	53	5652
2026-01-28 10:52:52.52	324.93	20.28	-41.4	-45.0	13.0	2.51e-05	0	60	0	1052770304	53	5747
2026-01-28 10:52:53.53	325.05	20.17	-41.5	-45.0	13.0	4.42e-05	0	60	0	1054867456	53	5784
2026-01-28 10:52:54.54	325.18	20.05	-41.5	-45.0	13.0	3.89e-05	0	60	0	1056964608	53	5748
2026-01-28 10:52:55.55	325.30	19.94	-41.4	-45.0	13.0	3.66e-05	0	60	0	1059061760	53	5732
2026-01-28 10:52:56.56	325.42	19.82	-41.3	-44.8	13.2	2.67e-05	0	60	0	1060110336	53	5630
2026-01-28 10:52:57.57	325.53	19.71	-41.3	-44.8	13.2	1.29e-05	0	60	0	1062207488	53	5604
2026-01-28 10:52:58.58	325.65	19.59	-41.2	-44.6	13.4	1.98e-05	0	60	0	1064304640	53	5500
2026-01-28 10:52:59.59	325.77	19.48	-41.0	-44.3	13.8	9.10e-06	0	60	0	1066401792	53	5293
2026-01-28 10:53:00.60	325.88	19.37	-41.0	-44.2	13.8	3.00e-06	0	60	0	1068498944	53	5235
2026-01-28 10:53:01.61	326.00	19.25	-41.0	-44.2	13.8	5.30e-06	0	60	0	1069547520	53	5225
2026-01-28 10:53:02.62	326.11	19.14	-41.0	-44.2	13.8	5.30e-06	0	60	0	1071644672	53	5222
2026-01-28 10:53:03.63	326.23	19.03	-40.9	-44.0	14.0	3.00e-06	0	60	0	1073741824	53	5145
2026-01-28 10:53:04.64	326.34	18.92	-40.9	-44.1	13.9	3.00e-06	0	60	0	1075838976	53	5163
2026-01-28 10:53:05.65	326.45	18.80	-40.9	-44.0	14.0	4.50e-06	0	60	0	1077936128	53	5137
2026-01-28 10:53:06.66	326.56	18.69	-40.9	-44.1	13.9	2.20e-06	0	60	0	1078984704	53	5165
2026-01-28 10:53:07.67	326.68	18.58	-41.0	-44.2	13.8	3.00e-06	0	60	0	1081081856	53	5245
2026-01-28 10:53:08.67	326.78	18.47	-40.9	-44.1	13.9	8.30e-06	0	60	0	1083179008	53	5198
2026-01-28 10:53:09.69	326.89	18.36	-41.1	-44.4	13.6	3.80e-06	0	60	0	1085276160	53	5365
2026-01-28 10:53:10.69	327.00	18.25	-41.1	-44.5	13.5	4.50e-06	0	60	0	1087373312	53	5409
2026-01-28 10:53:11.71	327.11	18.14	-41.1	-44.5	13.5	1.14e-05	0	60	0	1088421888	53	5407
2026-01-28 10:53:12.71	327.22	18.04	-41.2	-44.6	13.4	1.52e-05	0	60	0	1090519040	53	5485
2026-01-28 10:53:13.72	327.32	17.93	-41.2	-44.6	13.4	1.52e-05	0	60	0	1092616192	53	5465
2026-01-28 10:53:14.73	327.43	17.82	-41.1	-44.5	13.4	8.30e-06	0	60	0	1094713344	53	5444
2026-01-28 10:53:15.74	327.53	17.71	-41.1	-44.5	13.5	1.98e-05	0	60	0	1096810496	53	5411
2026-01-28 10:53:16.75	327.64	17.61	-41.1	-44.4	13.5	1.14e-05	0	60	0	1098907648	53	5402
2026-01-28 10:53:17.76	327.74	17.50	-41.1	-44.5	13.5	1.14e-05	0	60	0	1099956224	53	5413
2026-01-28 10:53:18.77	327.84	17.39	-41.0	-44.3	13.6	9.90e-06	0	60	0	1102053376	53	5332
2026-01-28 10:53:19.78	327.94	17.29	-41.0	-44.3	13.7	3.80e-06	0	60	0	1104150528	53	5284
2026-01-28 10:53:20.79	328.04	17.18	-41.0	-44.3	13.6	6.80e-06	0	60	0	1106247680	53	5323
2026-01-28 10:53:21.80	328.15	17.08	-41.0	-44.4	13.6	4.50e-06	0	60	0	1108344832	53	5342
2026-01-28 10:53:22.81	328.25	16.97	-41.1	-44.4	13.5	1.44e-05	0	60	0	1109393408	53	5368
2026-01-28 10:53:23.82	328.34	16.87	-41.1	-44.5	13.4	1.44e-05	0	60	0	1111490560	53	5423
2026-01-28 10:53:24.83	328.44	16.76	-41.2	-44.6	13.2	2.05e-05	0	60	0	1113587712	53	5521
2026-01-28 10:53:25.84	328.54	16.66	-41.3	-44.8	13.1	1.44e-05	0	60	0	1115684864	53	5633
2026-01-28 10:53:26.85	328.64	16.55	-41.3	-44.9	12.9	4.27e-05	0	60	0	1117782016	53	5718
2026-01-28 10:53:27.86	328.73	16.45	-41.4	-45.1	12.8	6.86e-05	0	60	0	1118830592	53	5814
2026-01-28 10:53:28.87	328.83	16.35	-41.5	-45.2	12.6	9.99e-05	0	60	0	1120927744	53	5906
2026-01-28 10:53:29.88	328.93	16.25	-41.5	-45.3	12.5	1.01e-04	0	60	0	1123024896	53	5980
2026-01-28 10:53:30.89	329.02	16.14	-41.6	-45.4	12.4	1.56e-04	0	60	0	1125122048	53	6044
2026-01-28 10:53:31.89	329.11	16.04	-41.6	-45.5	12.3	1.77e-04	0	60	0	1127219200	53	6120
2026-01-28 10:53:32.90	329.21	15.94	-41.6	-45.5	12.3	1.63e-04	0	60	0	1128267776	53	6092
2026-01-28 10:53:33.92	329.30	15.84	-41.7	-45.6	12.2	2.15e-04	0	60	0	1130364928	53	6164
2026-01-28 10:53:34.93	329.39	15.74	-41.5	-45.4	12.4	1.61e-04	0	60	0	1132462080	53	6015
2026-01-28 10:53:35.94	329.49	15.64	-41.5	-45.2	12.6	1.32e-04	0	60	0	1134559232	53	5920
2026-01-28 10:53:36.95	329.58	15.54	-41.4	-45.2	12.6	1.03e-04	0	60	0	1136656384	53	5880
2026-01-28 10:53:37.96	329.67	15.44	-41.4	-45.1	12.6	8.46e-05	0	60	0	1137704960	53	5849
2026-01-28 10:53:38.97	329.76	15.34	-41.3	-45.0	12.8	7.01e-05	0	60	0	1139802112	53	5752
2026-01-28 10:53:39.98	329.85	15.24	-41.3	-44.9	12.8	5.79e-05	0	60	0	1141899264	53	5722
2026-01-28 10:53:40.99	329.94	15.14	-41.3	-44.8	12.9	3.81e-05	0	60	0	1143996416	53	5652
2026-01-28 10:53:42.00	330.02	15.05	-41.3	-44.9	12.8	4.42e-05	0	60	0	1146093568	53	5711
2026-01-28 10:53:43.01	330.11	14.95	-41.3	-44.9	12.9	4.19e-05	0	60	0	1147142144	53	5668
2026-01-28 10:53:44.02	330.20	14.85	-41.2	-44.7	13.0	4.57e-05	0	60	0	1149239296	53	5585
2026-01-28 10:53:45.03	330.29	14.75	-41.2	-44.7	13.1	3.43e-05	0	60	0	1151336448	53	5539
2026-01-28 10:53:46.04	330.37	14.66	-41.1	-44.6	13.2	2.74e-05	0	60	0	1153433600	53	5491
2026-01-28 10:53:47.05	330.46	14.56	-41.2	-44.7	13.1	2.28e-05	0	60	0	1155530752	53	5535
2026-01-28 10:53:48.06	330.54	14.46	-41.1	-44.6	13.1	3.50e-05	0	60	0	1156579328	53	5506
2026-01-28 10:53:49.07	330.63	14.37	-41.1	-44.6	13.1	2.36e-05	0	60	0	1158676480	53	5509
2026-01-28 10:53:50.08	330.71	14.27	-41.2	-44.8	12.9	4.34e-05	0	60	0	1160773632	53	5610
2026-01-28 10:53:51.09	330.79	14.18	-41.2	-44.8	13.0	3.96e-05	0	60	0	1162870784	53	5595
2026-01-28 10:53:52.10	330.88	14.08	-41.1	-44.7	13.0	3.73e-05	0	60	0	1164967936	53	5558
2026-01-28 10:53:53.11	330.96	13.99	-41.2	-44.7	12.9	4.50e-05	0	60	0	1167065088	53	5592
2026-01-28 10:53:54.12	331.04	13.89	-41.2	-44.7	13.0	4.27e-05	0	60	0	1168113664	53	5580
2026-01-28 10:53:55.13	331.12	13.80	-41.2	-44.8	12.9	5.11e-05	0	60	0	1170210816	53	5635
2026-01-28 10:53:56.14	331.20	13.71	-41.2	-44.8	12.9	5.18e-05	0	60	0	1172307968	53	5652
2026-01-28 10:53:57.15	331.29	13.61	-41.3	-45.0	12.7	5.49e-05	0	60	0	1174405120	53	5751
2026-01-28 10:53:58.16	331.37	13.52	-41.3	-45.0	12.6	8.08e-05	0	60	0	1176502272	53	5780
2026-01-28 10:53:59.17	331.44	13.43	-41.3	-45.0	12.6	8.31e-05	0	60	0	1177550848	53	5782
2026-01-28 10:54:00.18	331.52	13.34	-41.4	-45.1	12.5	1.20e-04	0	60	0	1179648000	53	5846
2026-01-28 10:54:01.19	331.60	13.24	-41.4	-45.2	12.4	1.30e-04	0	60	0	1181745152	53	5908
2026-01-28 10:54:02.20	331.68	13.15	-41.4	-45.2	12.4	1.56e-04	0	60	0	1183842304	53	5894
2026-01-28 10:54:03.21	331.76	13.06	-41.4	-45.3	12.3	1.78e-04	0	60	0	1185939456	53	5950
