passes_logs/2026/01/28/R2.0S_Moscow/R2.0S_Moscow__20260128_235346_AQUA_rec.log

#Pass ID: 20260128_235346_AQUA
#Satellite: AQUA
#Configuration: AQUA
#almurnet v.1.7.20251203
#Start time: 2026-01-28 23:57:04

#Version: 2.2.20231116
#Station: R2.0S_Moscow
#Location: 37.707566 lon 55.798166 lat
#TLE: 1 27424U 02022A   26027.88561574  .00001798  00000+0  36942-3 0  9997
#TLE: 2 27424  98.4102 354.5311 0001840  63.5604 322.5877 14.61868111262779

#Time	Az	El	Level	Level2	SNR	BER	BlckErr	Temp	State	Recorded	gain1	gain2
2026-01-28 23:57:04.15	53.96	13.96	-44.9	-57.5	3.8	1.49e+00	0	59	0	0	60	16250
2026-01-28 23:57:05.15	54.16	14.02	-46.5	-65.4	3.8	7.44e-01	0	59	104	0	63	34034
2026-01-28 23:57:06.16	54.36	14.09	-46.6	-65.4	3.8	7.44e-01	0	59	104	0	63	34049
2026-01-28 23:57:07.17	54.57	14.15	-46.6	-65.5	3.8	7.44e-01	0	59	104	0	64	32357
2026-01-28 23:57:08.18	54.77	14.21	-46.5	-65.4	3.8	7.47e-01	0	59	104	0	64	31902
2026-01-28 23:57:09.19	54.98	14.27	-46.6	-65.4	3.8	7.49e-01	0	59	104	0	64	32062
2026-01-28 23:57:10.21	55.18	14.33	-46.5	-65.4	3.8	7.47e-01	0	59	104	0	64	31908
2026-01-28 23:57:11.21	55.39	14.39	-46.3	-65.1	3.8	7.47e-01	0	59	104	0	64	30907
2026-01-28 23:57:12.23	55.60	14.45	-46.1	-65.0	3.8	7.47e-01	0	59	104	0	64	30398
2026-01-28 23:57:13.24	55.81	14.51	-45.9	-64.8	3.8	7.45e-01	0	59	104	0	63	31447
2026-01-28 23:57:14.25	56.02	14.57	-45.7	-64.6	3.8	7.47e-01	0	59	104	0	63	30782
2026-01-28 23:57:15.26	56.23	14.63	-45.3	-64.1	3.8	7.45e-01	0	59	104	0	62	30838
2026-01-28 23:57:16.27	56.44	14.69	-45.3	-63.9	3.8	7.44e-01	0	59	104	0	62	30234
2026-01-28 23:57:17.28	56.65	14.74	-45.3	-64.0	3.8	7.47e-01	0	59	104	0	62	30568
2026-01-28 23:57:18.29	56.86	14.80	-45.3	-64.0	3.8	7.46e-01	0	59	104	0	62	30580
2026-01-28 23:57:19.30	57.08	14.86	-45.3	-64.1	3.8	7.43e-01	0	59	104	0	62	30879
2026-01-28 23:57:20.31	57.29	14.92	-45.3	-64.1	3.8	7.46e-01	0	59	104	0	62	30902
2026-01-28 23:57:21.32	57.51	14.98	-45.3	-64.1	3.8	7.45e-01	0	59	104	0	62	30759
2026-01-28 23:57:22.33	57.72	15.04	-45.3	-64.0	3.8	7.44e-01	0	59	104	0	62	30714
2026-01-28 23:57:23.34	57.94	15.10	-45.3	-64.0	3.8	7.45e-01	0	59	104	0	62	30689
2026-01-28 23:57:24.35	58.16	15.15	-45.2	-63.9	3.8	7.48e-01	0	59	104	0	62	30281
2026-01-28 23:57:25.36	58.38	15.21	-45.2	-63.8	3.8	7.44e-01	0	59	104	0	62	29957
2026-01-28 23:57:26.37	58.60	15.27	-45.2	-63.8	3.8	7.45e-01	0	59	104	0	62	29940
2026-01-28 23:57:27.38	58.82	15.32	-45.2	-63.5	3.8	7.48e-01	0	59	104	0	62	28997
2026-01-28 23:57:28.39	59.04	15.38	-45.2	-63.7	3.8	7.43e-01	0	59	104	0	62	29463
2026-01-28 23:57:29.40	59.26	15.44	-45.2	-63.4	3.8	7.45e-01	0	59	104	0	62	28601
2026-01-28 23:57:30.41	59.48	15.49	-45.2	-63.2	3.8	7.45e-01	0	59	104	0	62	27749
2026-01-28 23:57:31.42	59.71	15.55	-45.2	-63.3	3.8	7.49e-01	0	59	104	0	62	28095
2026-01-28 23:57:32.43	59.93	15.61	-45.2	-63.4	3.8	7.43e-01	0	59	104	0	62	28573
2026-01-28 23:57:33.44	60.16	15.66	-45.2	-63.5	3.8	7.47e-01	0	59	104	0	62	28875
2026-01-28 23:57:34.45	60.39	15.72	-45.2	-63.8	3.8	7.45e-01	0	59	104	0	62	30031
2026-01-28 23:57:35.46	60.61	15.77	-45.2	-63.8	3.8	7.44e-01	0	59	104	0	62	29835
2026-01-28 23:57:36.47	60.84	15.83	-45.2	-63.7	3.8	7.44e-01	0	59	104	0	62	29366
2026-01-28 23:57:37.49	61.08	15.88	-45.2	-63.4	3.8	7.45e-01	0	59	104	0	62	28450
2026-01-28 23:57:38.50	61.31	15.93	-45.2	-62.8	3.8	7.45e-01	0	59	104	0	62	26638
2026-01-28 23:57:39.51	61.54	15.99	-45.2	-61.6	3.9	7.42e-01	0	59	104	0	62	23274
2026-01-28 23:57:40.52	61.77	16.04	-45.1	-60.8	3.9	7.42e-01	0	59	104	0	62	21233
2026-01-28 23:57:41.53	62.00	16.10	-45.1	-60.0	4.0	7.42e-01	0	59	104	0	62	19197
2026-01-28 23:57:42.54	62.24	16.15	-45.1	-59.5	3.9	7.38e-01	0	59	104	0	62	18275
2026-01-28 23:57:43.55	62.47	16.20	-45.0	-58.8	4.9	7.14e-01	0	59	104	0	62	16840
2026-01-28 23:57:44.56	62.71	16.25	-45.0	-58.3	5.1	7.11e-01	0	59	0	0	62	15910
2026-01-28 23:57:45.57	62.94	16.31	-45.0	-58.0	5.3	7.01e-01	0	59	0	0	62	15263
2026-01-28 23:57:46.58	63.18	16.36	-44.9	-56.3	6.5	6.71e-01	90	59	0	1048576	61	13395
2026-01-28 23:57:47.59	63.42	16.41	-44.6	-54.3	8.4	6.38e-01	15	59	0	3145728	61	10591
2026-01-28 23:57:48.60	63.66	16.46	-44.4	-52.6	10.2	6.20e-01	0	59	0	4718592	60	9217
2026-01-28 23:57:49.61	63.90	16.51	-44.2	-51.7	11.2	6.10e-01	0	59	0	6815744	60	8323
2026-01-28 23:57:50.62	64.14	16.56	-44.3	-52.3	10.6	6.14e-01	0	59	0	8912896	60	8870
2026-01-28 23:57:51.63	64.38	16.61	-44.7	-54.6	8.3	6.45e-01	54	59	0	10485760	60	11642
2026-01-28 23:57:52.64	64.62	16.66	-45.1	-61.0	3.9	7.44e-01	0	59	104	11534336	60	24378
2026-01-28 23:57:53.65	64.87	16.71	-45.0	-59.1	4.5	7.20e-01	0	59	104	11534336	60	19588
2026-01-28 23:57:54.66	65.11	16.76	-44.1	-51.5	11.2	6.11e-01	0	59	0	12582912	60	8137
2026-01-28 23:57:55.67	65.36	16.81	-43.2	-47.9	15.4	6.04e-01	0	59	0	14680064	58	6029
2026-01-28 23:57:56.68	65.60	16.86	-42.1	-45.8	17.5	6.06e-01	0	59	0	16252928	56	5318
2026-01-28 23:57:57.69	65.85	16.90	-41.4	-44.7	18.6	6.04e-01	0	59	0	18350080	54	5224
2026-01-28 23:57:58.70	66.10	16.95	-41.6	-45.0	18.5	6.04e-01	0	59	0	20447232	54	5415
2026-01-28 23:57:59.72	66.35	17.00	-43.2	-48.7	15.0	6.04e-01	0	59	0	22020096	57	6989
2026-01-28 23:58:00.72	66.59	17.04	-41.8	-45.1	18.6	6.05e-01	0	59	0	24117248	54	5510
2026-01-28 23:58:01.73	66.84	17.09	-44.0	-50.3	12.6	6.07e-01	0	59	0	25690112	58	7918
2026-01-28 23:58:02.74	67.09	17.14	-41.3	-44.5	19.0	6.03e-01	0	59	0	27787264	54	5103
2026-01-28 23:58:03.75	67.35	17.18	-41.3	-44.5	18.8	6.03e-01	0	59	0	29884416	54	5103
2026-01-28 23:58:04.76	67.60	17.23	-41.2	-44.3	18.9	6.05e-01	0	59	0	31457280	54	5029
2026-01-28 23:58:05.77	67.85	17.27	-41.2	-44.4	18.8	6.02e-01	0	59	0	33554432	54	5076
2026-01-28 23:58:06.78	68.10	17.32	-41.3	-44.6	18.6	6.04e-01	0	59	0	35651584	54	5182
2026-01-28 23:58:07.80	68.36	17.36	-41.2	-44.5	18.6	6.06e-01	0	59	0	37224448	54	5109
2026-01-28 23:58:08.81	68.62	17.40	-41.1	-44.3	18.5	6.04e-01	0	59	0	39321600	54	5039
2026-01-28 23:58:09.82	68.87	17.45	-41.1	-44.6	18.2	6.06e-01	0	59	0	40894464	54	5176
2026-01-28 23:58:10.83	69.13	17.49	-41.1	-44.7	17.9	6.07e-01	0	59	0	42991616	54	5225
2026-01-28 23:58:11.84	69.39	17.53	-41.1	-44.8	17.6	6.04e-01	0	59	0	45088768	54	5318
2026-01-28 23:58:12.85	69.65	17.57	-41.2	-45.1	17.1	6.06e-01	0	59	0	46661632	54	5496
2026-01-28 23:58:13.86	69.91	17.61	-41.2	-45.4	16.5	6.06e-01	0	59	0	48758784	54	5707
2026-01-28 23:58:14.87	70.17	17.65	-41.3	-45.8	15.9	6.02e-01	0	59	0	50855936	54	5955
2026-01-28 23:58:15.88	70.43	17.69	-41.3	-46.1	15.3	6.04e-01	0	59	0	52428800	54	6172
2026-01-28 23:58:16.89	70.69	17.73	-41.2	-46.3	14.8	6.03e-01	0	59	0	54525952	54	6301
2026-01-28 23:58:17.90	70.95	17.77	-41.2	-46.6	14.3	6.06e-01	0	59	0	56098816	54	6513
2026-01-28 23:58:18.91	71.21	17.81	-41.2	-46.9	13.8	6.04e-01	0	59	0	58195968	54	6795
2026-01-28 23:58:19.92	71.48	17.85	-41.3	-47.2	13.5	6.06e-01	0	59	0	60293120	54	6978
2026-01-28 23:58:20.93	71.74	17.89	-41.3	-47.4	13.2	6.05e-01	0	59	0	61865984	54	7184
2026-01-28 23:58:21.94	72.01	17.92	-41.3	-47.4	13.3	6.06e-01	0	59	0	63963136	54	7138
2026-01-28 23:58:22.95	72.27	17.96	-41.4	-47.2	13.6	6.05e-01	0	59	0	65536000	54	7036
2026-01-28 23:58:23.96	72.54	18.00	-41.4	-47.4	13.5	6.06e-01	0	59	0	67633152	54	7124
2026-01-28 23:58:24.97	72.80	18.03	-41.5	-47.5	13.3	6.06e-01	0	59	0	69730304	54	7253
2026-01-28 23:58:25.98	73.07	18.07	-41.4	-47.4	13.5	6.03e-01	0	59	0	71303168	54	7141
2026-01-28 23:58:26.99	73.34	18.10	-41.5	-47.5	13.3	6.05e-01	0	59	0	73400320	54	7208
2026-01-28 23:58:27.99	73.61	18.14	-41.5	-47.5	13.3	6.08e-01	0	59	0	74973184	54	7267
2026-01-28 23:58:29.00	73.88	18.17	-41.5	-47.5	13.3	6.04e-01	0	59	0	77070336	54	7287
2026-01-28 23:58:30.02	74.15	18.20	-41.6	-47.6	13.3	6.06e-01	0	59	0	79167488	54	7351
2026-01-28 23:58:31.03	74.42	18.24	-41.6	-47.5	13.5	6.05e-01	0	59	0	80740352	54	7258
2026-01-28 23:58:32.04	74.69	18.27	-41.6	-47.6	13.4	6.05e-01	0	59	0	82837504	54	7304
2026-01-28 23:58:33.04	74.96	18.30	-41.6	-47.4	13.6	6.03e-01	0	59	0	84410368	54	7168
2026-01-28 23:58:34.05	75.23	18.33	-41.5	-47.2	13.8	6.03e-01	0	59	0	86507520	54	6996
2026-01-28 23:58:35.06	75.51	18.36	-41.4	-46.9	14.3	6.06e-01	0	59	0	88604672	54	6726
2026-01-28 23:58:36.07	75.78	18.39	-41.4	-46.7	14.3	6.03e-01	0	59	0	90177536	54	6641
2026-01-28 23:58:37.08	76.05	18.42	-41.4	-46.7	14.4	6.05e-01	0	59	0	92274688	54	6596
2026-01-28 23:58:38.09	76.33	18.45	-41.4	-46.7	14.4	6.05e-01	0	59	0	93847552	54	6646
2026-01-28 23:58:39.10	76.60	18.48	-41.4	-46.8	14.4	6.04e-01	0	59	0	95944704	54	6660
2026-01-28 23:58:40.11	76.88	18.50	-41.4	-46.6	14.6	6.05e-01	0	59	0	98041856	54	6528
2026-01-28 23:58:41.12	77.16	18.53	-41.4	-46.6	14.7	6.05e-01	0	59	0	99614720	54	6498
2026-01-28 23:58:42.13	77.43	18.56	-41.4	-46.5	14.9	6.06e-01	0	59	0	101711872	54	6465
2026-01-28 23:58:43.14	77.71	18.58	-41.4	-46.2	15.3	6.05e-01	0	59	0	103809024	54	6268
2026-01-28 23:58:44.15	77.99	18.61	-41.4	-46.0	15.7	6.04e-01	0	59	0	105381888	54	6106
2026-01-28 23:58:45.16	78.27	18.63	-41.4	-46.1	15.6	6.04e-01	0	59	0	107479040	54	6177
2026-01-28 23:58:46.17	78.54	18.65	-41.5	-46.4	15.2	6.01e-01	0	59	0	109051904	54	6368
2026-01-28 23:58:47.18	78.82	18.68	-41.5	-46.4	15.2	6.02e-01	0	59	0	111149056	54	6386
2026-01-28 23:58:48.19	79.10	18.70	-41.5	-46.5	14.9	6.04e-01	0	59	0	113246208	54	6486
2026-01-28 23:58:49.20	79.38	18.72	-41.6	-47.0	14.4	6.03e-01	0	59	0	114819072	54	6824
2026-01-28 23:58:50.21	79.66	18.74	-41.6	-47.2	14.1	6.05e-01	0	59	0	116916224	54	6967
2026-01-28 23:58:51.22	79.94	18.76	-41.5	-47.0	14.2	6.05e-01	0	59	0	119013376	54	6818
2026-01-28 23:58:52.23	80.23	18.78	-41.5	-46.7	14.6	6.04e-01	0	59	0	120586240	54	6643
2026-01-28 23:58:53.24	80.51	18.80	-41.6	-46.7	14.8	6.05e-01	0	59	0	122683392	54	6620
2026-01-28 23:58:54.26	80.79	18.82	-41.6	-46.4	15.4	6.03e-01	0	59	0	124256256	54	6360
2026-01-28 23:58:55.27	81.08	18.84	-41.7	-46.3	15.7	6.05e-01	0	59	0	126353408	54	6316
2026-01-28 23:58:56.28	81.36	18.86	-41.7	-46.1	16.1	6.05e-01	0	59	0	128450560	54	6171
2026-01-28 23:58:57.29	81.64	18.87	-41.6	-45.8	16.5	6.03e-01	0	59	0	130023424	54	5968
2026-01-28 23:58:58.30	81.92	18.89	-41.6	-45.6	16.9	6.04e-01	0	59	0	132120576	54	5811
2026-01-28 23:58:59.31	82.21	18.91	-41.6	-45.6	17.1	6.05e-01	0	59	0	133693440	54	5796
2026-01-28 23:59:00.32	82.49	18.92	-41.6	-45.4	17.3	6.06e-01	0	59	0	135790592	54	5691
2026-01-28 23:59:01.33	82.78	18.94	-41.5	-45.1	17.7	6.06e-01	0	59	0	137887744	54	5512
2026-01-28 23:59:02.34	83.06	18.95	-41.4	-44.9	18.0	6.04e-01	0	59	0	139460608	54	5356
2026-01-28 23:59:03.35	83.35	18.96	-41.3	-44.8	18.2	6.07e-01	0	59	0	141557760	54	5284
2026-01-28 23:59:04.35	83.63	18.97	-41.3	-44.8	18.2	6.04e-01	0	59	0	143654912	54	5295
2026-01-28 23:59:05.36	83.91	18.99	-41.4	-44.9	17.9	6.02e-01	0	59	0	145227776	54	5385
2026-01-28 23:59:06.38	84.20	19.00	-41.3	-45.0	17.6	6.02e-01	0	59	0	147324928	54	5413
2026-01-28 23:59:07.38	84.49	19.01	-41.1	-45.0	17.3	6.04e-01	0	59	0	148897792	54	5407
2026-01-28 23:59:08.39	84.77	19.02	-41.1	-45.1	16.9	6.04e-01	0	59	0	150994944	54	5507
2026-01-28 23:59:09.40	85.06	19.03	-41.2	-45.5	16.4	6.04e-01	0	59	0	153092096	54	5739
2026-01-28 23:59:10.41	85.34	19.03	-41.2	-45.7	16.0	6.03e-01	0	59	0	154664960	54	5883
2026-01-28 23:59:11.42	85.63	19.04	-41.4	-46.1	15.5	6.02e-01	0	59	0	156762112	54	6200
2026-01-28 23:59:12.43	85.92	19.05	-41.5	-46.3	15.4	6.04e-01	0	59	0	158334976	54	6291
2026-01-28 23:59:13.44	86.20	19.05	-41.4	-46.2	15.2	6.04e-01	0	59	0	160432128	54	6274
2026-01-28 23:59:14.45	86.49	19.06	-41.4	-46.5	14.7	6.03e-01	0	59	0	162004992	54	6463
2026-01-28 23:59:15.46	86.78	19.06	-41.4	-46.8	14.2	6.06e-01	0	59	0	164102144	54	6659
2026-01-28 23:59:16.47	87.07	19.07	-41.4	-46.9	14.0	6.05e-01	0	59	0	166199296	54	6761
2026-01-28 23:59:17.48	87.35	19.07	-41.4	-46.9	14.0	6.05e-01	0	59	0	167772160	54	6793
2026-01-28 23:59:18.49	87.64	19.08	-41.5	-46.9	14.3	6.03e-01	0	59	0	169869312	54	6759
2026-01-28 23:59:19.49	87.93	19.08	-41.6	-46.6	14.9	6.03e-01	0	59	0	171966464	54	6553
2026-01-28 23:59:20.50	88.21	19.08	-41.7	-46.5	15.5	6.05e-01	0	59	0	173539328	54	6423
2026-01-28 23:59:21.51	88.50	19.08	-41.8	-46.4	15.8	6.04e-01	0	59	0	175636480	54	6367
2026-01-28 23:59:22.52	88.79	19.08	-41.9	-46.4	16.0	6.04e-01	0	59	0	177209344	54	6369
2026-01-28 23:59:23.53	89.08	19.08	-41.9	-46.0	16.6	6.05e-01	0	59	0	179306496	54	6125
2026-01-28 23:59:24.54	89.36	19.08	-41.8	-45.7	17.1	6.05e-01	0	59	0	181403648	54	5897
2026-01-28 23:59:25.55	89.65	19.08	-41.8	-45.6	17.4	6.05e-01	0	59	0	182976512	54	5842
2026-01-28 23:59:26.56	89.94	19.07	-41.7	-45.3	17.8	6.04e-01	0	59	0	185073664	54	5643
2026-01-28 23:59:27.57	90.23	19.07	-41.6	-44.9	18.3	6.02e-01	0	59	0	187170816	54	5399
2026-01-28 23:59:28.58	90.51	19.07	-41.4	-44.7	18.6	6.04e-01	0	59	0	188743680	54	5236
2026-01-28 23:59:29.59	90.80	19.06	-41.4	-44.5	18.8	6.04e-01	0	59	0	190840832	54	5158
2026-01-28 23:59:30.60	91.09	19.06	-41.3	-44.4	18.9	6.04e-01	0	59	0	192413696	54	5099
2026-01-28 23:59:31.61	91.37	19.05	-41.3	-44.3	19.1	6.04e-01	0	59	0	194510848	54	5021
2026-01-28 23:59:32.62	91.66	19.04	-41.3	-44.3	19.2	6.03e-01	0	59	0	196608000	54	5024
2026-01-28 23:59:33.63	91.95	19.04	-41.2	-44.5	19.0	6.02e-01	0	59	0	198180864	54	5134
2026-01-28 23:59:34.64	92.24	19.03	-41.3	-44.3	19.2	6.06e-01	0	59	0	200278016	53	5334
2026-01-28 23:59:35.64	92.52	19.02	-41.2	-44.2	19.3	6.04e-01	0	59	0	201850880	53	5255
2026-01-28 23:59:36.65	92.81	19.01	-41.2	-44.2	19.3	6.04e-01	0	59	0	203948032	53	5267
2026-01-28 23:59:37.67	93.09	19.00	-41.3	-44.3	19.3	6.03e-01	0	59	0	206045184	53	5280
2026-01-28 23:59:38.67	93.38	18.99	-41.2	-44.2	19.4	6.07e-01	0	59	0	207618048	53	5265
2026-01-28 23:59:39.68	93.66	18.98	-41.3	-44.3	19.3	6.03e-01	0	59	0	209715200	53	5309
2026-01-28 23:59:40.69	93.95	18.97	-41.4	-44.4	19.3	6.03e-01	0	59	0	211288064	53	5353
2026-01-28 23:59:41.71	94.24	18.95	-41.2	-44.2	19.4	6.03e-01	0	59	0	213385216	53	5249
2026-01-28 23:59:42.71	94.52	18.94	-41.1	-44.0	19.6	6.03e-01	0	59	0	215482368	53	5143
2026-01-28 23:59:43.73	94.81	18.93	-41.2	-44.2	19.4	6.05e-01	0	59	0	217055232	53	5234
2026-01-28 23:59:44.74	95.09	18.91	-41.4	-44.4	19.2	6.03e-01	0	59	0	219152384	53	5378
2026-01-28 23:59:45.74	95.37	18.90	-41.3	-44.3	19.3	6.03e-01	0	59	0	220725248	53	5337
2026-01-28 23:59:46.75	95.66	18.88	-41.4	-44.4	19.2	6.03e-01	0	59	0	222822400	53	5372
2026-01-28 23:59:47.76	95.94	18.86	-41.3	-44.3	19.3	6.03e-01	0	59	0	224919552	53	5317
2026-01-28 23:59:48.77	96.22	18.85	-41.3	-44.4	19.3	6.06e-01	0	59	0	226492416	53	5345
2026-01-28 23:59:49.78	96.51	18.83	-41.4	-44.4	19.2	6.04e-01	0	59	0	228589568	53	5381
2026-01-28 23:59:50.79	96.79	18.81	-41.3	-44.2	19.4	6.03e-01	0	59	0	230162432	53	5252
2026-01-28 23:59:51.80	97.07	18.79	-41.2	-44.1	19.4	6.07e-01	0	59	0	232259584	53	5212
2026-01-28 23:59:52.81	97.35	18.77	-41.2	-44.1	19.5	6.01e-01	0	59	0	234356736	53	5190
2026-01-28 23:59:53.82	97.64	18.75	-41.3	-44.2	19.4	6.02e-01	0	59	0	235929600	53	5270
2026-01-28 23:59:54.83	97.92	18.73	-41.3	-44.2	19.4	6.05e-01	0	59	0	238026752	53	5255
2026-01-28 23:59:55.84	98.20	18.71	-41.2	-44.1	19.5	6.06e-01	0	59	0	240123904	53	5172
2026-01-28 23:59:56.85	98.48	18.69	-41.2	-44.2	19.5	6.06e-01	0	59	0	241696768	53	5230
2026-01-28 23:59:57.86	98.76	18.66	-41.3	-44.3	19.4	6.06e-01	0	59	0	243793920	53	5286
2026-01-28 23:59:58.87	99.04	18.64	-41.3	-44.2	19.4	6.02e-01	0	59	0	245366784	53	5262
2026-01-28 23:59:59.88	99.32	18.62	-41.2	-44.2	19.4	6.05e-01	0	59	0	247463936	53	5237
2026-01-29 00:00:00.89	99.60	18.59	-41.2	-44.2	19.4	6.02e-01	0	59	0	249561088	53	5235
2026-01-29 00:00:01.90	99.87	18.57	-41.2	-44.1	19.5	6.03e-01	0	59	0	251133952	53	5181
2026-01-29 00:00:02.91	100.15	18.54	-41.2	-44.2	19.4	6.03e-01	0	59	0	253231104	53	5245
2026-01-29 00:00:03.92	100.43	18.51	-41.3	-44.2	19.4	6.03e-01	0	59	0	255328256	53	5261
2026-01-29 00:00:04.92	100.70	18.49	-41.2	-44.1	19.5	6.05e-01	0	59	0	256901120	53	5204
2026-01-29 00:00:05.93	100.98	18.46	-41.2	-44.1	19.6	6.04e-01	0	59	0	258998272	53	5163
2026-01-29 00:00:06.94	101.26	18.43	-41.1	-44.0	19.6	6.03e-01	0	59	0	260571136	53	5134
2026-01-29 00:00:07.95	101.53	18.40	-41.2	-44.1	19.5	6.03e-01	0	59	0	262668288	53	5201
2026-01-29 00:00:08.96	101.80	18.37	-41.2	-44.2	19.5	6.05e-01	0	59	0	264765440	53	5220
2026-01-29 00:00:09.97	102.08	18.34	-41.2	-44.2	19.4	6.04e-01	0	59	0	266338304	53	5230
2026-01-29 00:00:10.98	102.35	18.31	-41.2	-44.1	19.5	6.05e-01	0	59	0	268435456	53	5201
2026-01-29 00:00:11.99	102.63	18.28	-41.2	-44.2	19.5	6.02e-01	0	59	0	270008320	53	5221
2026-01-29 00:00:13.00	102.90	18.25	-41.2	-44.2	19.4	6.01e-01	0	59	0	272105472	53	5237
2026-01-29 00:00:14.01	103.17	18.22	-41.2	-44.1	19.5	6.06e-01	0	59	0	274202624	53	5192
2026-01-29 00:00:15.02	103.44	18.18	-41.1	-44.0	19.6	6.02e-01	0	59	0	275775488	52	5427
2026-01-29 00:00:16.03	103.71	18.15	-41.1	-44.0	19.6	6.05e-01	0	59	0	277872640	52	5447
2026-01-29 00:00:17.04	103.98	18.12	-41.2	-44.1	19.5	6.02e-01	0	59	0	279445504	52	5513
2026-01-29 00:00:18.05	104.25	18.08	-41.2	-44.1	19.5	6.06e-01	0	59	0	281542656	52	5504
2026-01-29 00:00:19.06	104.52	18.05	-41.2	-44.1	19.6	6.04e-01	0	59	0	283639808	52	5472
2026-01-29 00:00:20.07	104.79	18.01	-41.2	-44.1	19.5	6.02e-01	0	59	0	285212672	52	5523
2026-01-29 00:00:21.08	105.05	17.97	-41.2	-44.1	19.5	6.04e-01	0	59	0	287309824	53	5199
2026-01-29 00:00:22.09	105.32	17.94	-41.1	-44.0	19.6	6.04e-01	0	59	0	288882688	53	5148
2026-01-29 00:00:23.10	105.59	17.90	-41.1	-44.0	19.6	6.05e-01	0	59	0	290979840	53	5132
2026-01-29 00:00:24.11	105.85	17.86	-41.2	-44.0	19.6	6.04e-01	0	59	0	293076992	53	5158
2026-01-29 00:00:25.12	106.12	17.82	-41.2	-44.1	19.5	6.04e-01	0	59	0	294649856	53	5201
2026-01-29 00:00:26.13	106.38	17.79	-41.1	-44.0	19.6	6.05e-01	0	59	0	296747008	53	5150
2026-01-29 00:00:27.14	106.64	17.75	-41.1	-44.0	19.6	6.03e-01	0	59	0	298319872	53	5136
2026-01-29 00:00:28.15	106.91	17.71	-41.1	-44.0	19.6	6.05e-01	0	59	0	300417024	53	5128
2026-01-29 00:00:29.16	107.17	17.67	-41.1	-43.9	19.6	6.03e-01	0	59	0	302514176	53	5089
2026-01-29 00:00:30.17	107.43	17.63	-41.1	-43.9	19.7	6.04e-01	0	59	0	304087040	53	5089
2026-01-29 00:00:31.18	107.69	17.59	-41.1	-44.1	19.6	6.04e-01	0	59	0	306184192	53	5161
2026-01-29 00:00:32.19	107.95	17.54	-41.2	-44.2	19.4	6.05e-01	0	59	0	308281344	53	5248
2026-01-29 00:00:33.20	108.21	17.50	-41.2	-44.1	19.4	6.03e-01	0	59	0	309854208	53	5212
2026-01-29 00:00:34.21	108.47	17.46	-41.2	-44.1	19.5	6.04e-01	0	59	0	311951360	53	5164
2026-01-29 00:00:35.22	108.73	17.42	-41.1	-43.9	19.7	6.03e-01	0	59	0	313524224	53	5088
2026-01-29 00:00:36.23	108.98	17.37	-41.2	-44.1	19.5	6.05e-01	0	59	0	315621376	53	5197
2026-01-29 00:00:37.24	109.24	17.33	-41.2	-44.2	19.4	6.04e-01	0	59	0	317718528	53	5258
2026-01-29 00:00:38.25	109.49	17.28	-41.3	-44.3	19.3	6.03e-01	0	59	0	319291392	53	5304
2026-01-29 00:00:39.26	109.75	17.24	-41.3	-44.2	19.3	6.03e-01	0	59	0	321388544	53	5275
2026-01-29 00:00:40.27	110.00	17.19	-41.3	-44.2	19.3	6.07e-01	0	59	0	323485696	53	5267
2026-01-29 00:00:41.28	110.25	17.15	-41.2	-44.2	19.3	6.02e-01	0	59	0	325058560	53	5262
2026-01-29 00:00:42.29	110.51	17.10	-41.3	-44.4	19.2	6.03e-01	0	59	0	327155712	53	5344
2026-01-29 00:00:43.30	110.76	17.06	-41.2	-44.2	19.3	6.05e-01	0	59	0	328728576	53	5232
2026-01-29 00:00:44.31	111.01	17.01	-41.0	-43.9	19.6	6.04e-01	0	59	0	330825728	53	5077
2026-01-29 00:00:45.32	111.26	16.96	-41.1	-43.9	19.6	6.05e-01	0	59	0	332922880	53	5083
2026-01-29 00:00:46.33	111.51	16.92	-41.1	-44.1	19.4	6.03e-01	0	59	0	334495744	53	5177
2026-01-29 00:00:47.34	111.75	16.87	-41.2	-44.2	19.4	6.03e-01	0	59	0	336592896	53	5227
2026-01-29 00:00:48.35	112.00	16.82	-41.2	-44.2	19.3	6.04e-01	0	59	0	338165760	53	5254
2026-01-29 00:00:49.36	112.25	16.77	-41.2	-44.1	19.4	6.06e-01	0	59	0	340262912	53	5203
2026-01-29 00:00:50.37	112.49	16.72	-41.1	-44.1	19.4	6.03e-01	0	59	0	342360064	53	5177
2026-01-29 00:00:51.38	112.74	16.67	-41.1	-44.0	19.5	6.04e-01	0	59	0	343932928	53	5143
2026-01-29 00:00:52.39	112.98	16.62	-41.1	-44.0	19.6	6.03e-01	0	59	0	346030080	53	5139
2026-01-29 00:00:53.39	113.22	16.57	-41.1	-44.1	19.5	6.07e-01	0	59	0	347602944	53	5161
2026-01-29 00:00:54.40	113.47	16.52	-41.1	-44.0	19.5	6.04e-01	0	59	0	349700096	53	5124
2026-01-29 00:00:55.42	113.71	16.47	-41.1	-44.0	19.5	6.02e-01	0	59	0	351797248	53	5145
2026-01-29 00:00:56.43	113.95	16.42	-41.1	-44.0	19.6	6.06e-01	0	59	0	353370112	53	5101
2026-01-29 00:00:57.43	114.19	16.37	-41.1	-44.1	19.5	6.05e-01	0	59	0	355467264	53	5161
2026-01-29 00:00:58.44	114.43	16.32	-41.2	-44.1	19.4	6.03e-01	0	59	0	357040128	53	5203
2026-01-29 00:00:59.45	114.66	16.26	-41.2	-44.2	19.3	6.04e-01	0	59	0	359137280	53	5279
2026-01-29 00:01:00.46	114.90	16.21	-41.2	-44.2	19.3	6.06e-01	0	59	0	361234432	53	5236
2026-01-29 00:01:01.47	115.14	16.16	-41.1	-44.0	19.5	6.04e-01	0	59	0	362807296	53	5107
2026-01-29 00:01:02.49	115.37	16.10	-41.0	-43.9	19.6	6.04e-01	0	59	0	364904448	53	5042
2026-01-29 00:01:03.50	115.61	16.05	-41.0	-43.9	19.5	6.03e-01	0	59	0	366477312	53	5094
2026-01-29 00:01:04.51	115.84	16.00	-41.0	-43.9	19.5	6.03e-01	0	59	0	368574464	53	5076
2026-01-29 00:01:05.51	116.07	15.94	-41.0	-43.9	19.5	6.03e-01	0	59	0	370671616	53	5090
2026-01-29 00:01:06.52	116.31	15.89	-41.1	-44.0	19.4	6.02e-01	0	59	0	372244480	53	5150
2026-01-29 00:01:07.53	116.54	15.83	-41.1	-44.1	19.3	6.02e-01	0	59	0	374341632	53	5200
2026-01-29 00:01:08.54	116.77	15.78	-41.1	-44.0	19.4	6.04e-01	0	59	0	376438784	53	5151
2026-01-29 00:01:09.55	117.00	15.72	-41.0	-43.9	19.4	6.03e-01	0	59	0	378011648	53	5083
2026-01-29 00:01:10.56	117.22	15.67	-41.1	-44.0	19.3	6.04e-01	0	59	0	380108800	53	5149
2026-01-29 00:01:11.57	117.45	15.61	-41.1	-44.1	19.3	6.01e-01	0	59	0	381681664	53	5194
2026-01-29 00:01:12.58	117.68	15.56	-41.2	-44.2	19.2	6.04e-01	0	59	0	383778816	53	5272
2026-01-29 00:01:13.59	117.90	15.50	-41.1	-44.1	19.3	6.01e-01	0	59	0	385875968	53	5208
2026-01-29 00:01:14.60	118.13	15.44	-40.9	-44.1	19.3	6.04e-01	0	59	0	387448832	53	5185
2026-01-29 00:01:15.61	118.35	15.39	-41.1	-44.0	19.3	6.03e-01	0	59	0	389545984	53	5156
2026-01-29 00:01:16.62	118.58	15.33	-40.4	-43.8	19.5	6.03e-01	0	59	0	391643136	52	5338
2026-01-29 00:01:17.63	118.80	15.27	-41.0	-43.9	19.5	6.05e-01	0	59	0	393216000	52	5373
2026-01-29 00:01:18.64	119.02	15.21	-41.0	-44.0	19.4	6.04e-01	0	59	0	395313152	52	5430
2026-01-29 00:01:19.65	119.24	15.16	-40.9	-43.9	19.3	6.03e-01	0	59	0	396886016	52	5402
2026-01-29 00:01:20.66	119.46	15.10	-41.0	-44.0	19.2	6.03e-01	0	59	0	398983168	52	5419
2026-01-29 00:01:21.67	119.68	15.04	-41.0	-44.1	19.1	6.03e-01	0	59	0	401080320	52	5466
2026-01-29 00:01:22.68	119.90	14.98	-41.0	-44.0	19.1	6.04e-01	0	59	0	402653184	52	5453
2026-01-29 00:01:23.69	120.11	14.92	-40.8	-44.0	18.8	6.03e-01	0	59	0	404750336	52	5438
2026-01-29 00:01:24.70	120.33	14.86	-40.9	-44.0	18.8	6.04e-01	0	59	0	406323200	52	5438
2026-01-29 00:01:25.71	120.54	14.81	-38.6	-44.0	16.7	6.03e-01	0	59	0	408420352	51	5733
2026-01-29 00:01:26.72	120.76	14.75	-40.8	-43.9	18.0	6.02e-01	0	59	0	410517504	52	5393
2026-01-29 00:01:27.73	120.97	14.69	-40.5	-44.0	18.0	6.06e-01	0	59	0	412090368	52	5444
2026-01-29 00:01:28.74	121.18	14.63	-40.3	-44.1	15.6	6.08e-01	6	59	0	414187520	51	5802
2026-01-29 00:01:29.75	121.40	14.57	-40.4	-44.1	17.8	6.04e-01	0	59	0	415760384	52	5482
2026-01-29 00:01:30.76	121.61	14.51	-40.5	-44.2	14.2	6.08e-01	16	59	0	417857536	50	6257
2026-01-29 00:01:31.77	121.82	14.45	-37.1	-43.4	11.7	6.23e-01	37	59	0	418381824	46	7143
2026-01-29 00:01:32.78	122.03	14.39	-38.6	-44.2	13.6	6.05e-01	1	59	0	419954688	51	5863
2026-01-29 00:01:33.79	122.23	14.33	-34.9	-43.1	12.6	6.13e-01	17	59	0	422051840	46	6953
2026-01-29 00:01:34.80	122.44	14.27	-40.3	-43.9	16.6	6.04e-01	0	59	0	423624704	51	5703
2026-01-29 00:01:35.81	122.65	14.20	-40.7	-44.0	16.7	6.06e-01	0	59	0	425721856	51	5767
2026-01-29 00:01:36.82	122.85	14.14	-40.6	-43.9	17.3	6.03e-01	0	59	0	427819008	52	5392
2026-01-29 00:01:37.83	123.06	14.08	-40.7	-44.1	16.1	6.05e-01	2	59	0	429391872	52	5524
2026-01-29 00:01:38.84	123.26	14.02	-40.5	-44.1	16.6	6.05e-01	1	59	0	431489024	51	5822
2026-01-29 00:01:39.85	123.46	13.96	-39.8	-44.0	17.0	6.04e-01	0	59	0	433061888	52	5415
2026-01-29 00:01:40.86	123.66	13.90	-40.5	-44.0	17.4	6.04e-01	0	59	0	435159040	52	5431
2026-01-29 00:01:41.87	123.87	13.84	-40.7	-44.0	16.7	6.04e-01	1	59	0	437256192	51	5747
2026-01-29 00:01:42.88	124.07	13.77	-40.5	-44.2	16.1	6.07e-01	2	59	0	438829056	50	6204
2026-01-29 00:01:43.89	124.27	13.71	-41.0	-44.0	17.6	6.06e-01	0	59	0	440926208	51	5774
2026-01-29 00:01:44.90	124.46	13.65	-38.7	-44.2	17.2	6.05e-01	2	59	0	443023360	51	5895
2026-01-29 00:01:45.91	124.66	13.59	-38.6	-44.1	16.6	6.06e-01	7	59	0	444596224	51	5818
2026-01-29 00:01:46.92	124.86	13.53	-30.5	-42.4	6.0	6.87e-01	0	59	0	446693376	36	11327
2026-01-29 00:01:47.93	125.05	13.46	-40.2	-44.1	16.6	6.05e-01	2	59	0	448266240	50	6160
2026-01-29 00:01:48.94	125.25	13.40	-38.3	-44.2	16.1	6.06e-01	7	59	0	450363392	50	6206
2026-01-29 00:01:49.95	125.44	13.34	-39.2	-44.3	14.2	6.09e-01	12	59	0	451936256	49	6694
2026-01-29 00:01:50.96	125.64	13.27	-40.2	-43.8	14.8	6.08e-01	12	59	0	454033408	47	7108
2026-01-29 00:01:51.97	125.83	13.21	-36.0	-44.0	13.2	6.14e-01	37	59	0	455606272	42	9615
2026-01-29 00:01:52.98	126.02	13.15	-35.6	-43.4	12.9	6.14e-01	40	59	0	457703424	42	9010
2026-01-29 00:01:53.99	126.21	13.09	-30.6	-43.9	11.4	6.14e-01	51	59	0	459800576	41	10141
2026-01-29 00:01:55.00	126.40	13.02	-36.0	-44.0	12.1	6.16e-01	51	59	0	461373440	38	12215
2026-01-29 00:01:56.01	126.59	12.96	-28.9	-42.7	11.6	6.20e-01	89	59	0	463470592	33	14035
2026-01-29 00:01:57.02	126.78	12.90	-33.6	-43.2	11.4	6.20e-01	91	59	0	465043456	36	12509
2026-01-29 00:01:58.03	126.96	12.83	-31.7	-42.9	10.5	6.26e-01	92	59	0	467140608	33	14255
2026-01-29 00:01:59.04	127.15	12.77	-29.2	-42.0	9.6	6.35e-01	92	59	0	467140608	27	18219
2026-01-29 00:02:00.05	127.34	12.70	-28.3	-42.5	8.5	6.43e-01	92	59	0	469237760	26	20462
2026-01-29 00:02:01.06	127.52	12.64	-27.7	-42.3	8.7	6.33e-01	91	59	0	471334912	25	21152
2026-01-29 00:02:02.07	127.71	12.58	-28.9	-42.5	8.9	6.43e-01	92	59	0	472907776	28	18279
2026-01-29 00:02:03.08	127.89	12.51	-25.7	-41.6	8.5	6.41e-01	91	59	0	474480640	22	23221
2026-01-29 00:02:04.09	128.07	12.45	-27.6	-42.5	4.8	7.14e-01	0	59	104	474480640	25	21608
2026-01-29 00:02:05.10	128.25	12.39	-23.4	-42.3	5.3	7.23e-01	0	59	104	474480640	20	28137
2026-01-29 00:02:06.11	128.43	12.32	-20.7	-42.3	5.3	7.25e-01	0	59	104	474480640	18	31646
2026-01-29 00:02:07.12	128.61	12.26	-26.3	-43.4	4.7	7.20e-01	0	59	104	474480640	20	31822
2026-01-29 00:02:08.13	128.79	12.19	-18.3	-43.1	3.8	7.55e-01	0	59	104	474480640	10	55096
2026-01-29 00:02:09.14	128.97	12.13	-23.7	-43.3	4.6	7.43e-01	0	59	104	474480640	15	42219
2026-01-29 00:02:10.16	129.15	12.06	-28.0	-45.8	4.0	7.51e-01	0	59	104	474480640	15	55930
2026-01-29 00:02:11.17	129.33	12.00	-21.1	-41.8	5.2	7.32e-01	0	59	104	474480640	15	35455
2026-01-29 00:02:12.18	129.50	11.94	-21.5	-36.6	4.1	7.62e-01	0	59	104	474480640	5	34552
2026-01-29 00:02:13.19	129.68	11.87	-18.9	-38.9	3.9	7.39e-01	0	59	104	474480640	7	40061
2026-01-29 00:02:14.20	129.85	11.81	-19.6	-42.1	3.9	7.53e-01	0	59	104	474480640	13	41374
2026-01-29 00:02:15.21	130.02	11.74	-17.9	-41.8	4.1	7.46e-01	0	59	104	474480640	10	47501
2026-01-29 00:02:16.22	130.20	11.68	-20.4	-43.0	4.8	7.34e-01	0	59	104	474480640	15	40839
2026-01-29 00:02:17.23	130.37	11.61	-21.4	-40.6	4.8	7.39e-01	0	59	104	474480640	11	39040
2026-01-29 00:02:18.24	130.54	11.55	-26.4	-46.8	4.7	7.30e-01	0	59	104	474480640	23	39859
2026-01-29 00:02:19.25	130.71	11.48	-18.0	-39.7	4.7	7.41e-01	0	59	104	474480640	10	36956
2026-01-29 00:02:20.26	130.88	11.42	-26.1	-40.6	4.8	7.32e-01	0	59	104	474480640	12	36544
2026-01-29 00:02:21.27	131.05	11.35	-23.1	-42.1	5.0	7.36e-01	0	59	104	474480640	17	32564
2026-01-29 00:02:22.28	131.22	11.29	-22.3	-44.9	4.7	7.28e-01	0	59	104	474480640	18	42738
2026-01-29 00:02:23.29	131.38	11.23	-25.8	-42.6	4.9	7.32e-01	0	59	104	474480640	16	36915
2026-01-29 00:02:24.30	131.55	11.16	-20.4	-44.3	4.8	7.34e-01	0	59	104	474480640	18	39632
2026-01-29 00:02:25.31	131.71	11.10	-19.8	-41.8	4.5	7.39e-01	0	59	104	474480640	14	37780
2026-01-29 00:02:26.32	131.88	11.03	-20.5	-40.7	4.0	7.48e-01	0	59	104	474480640	13	35113
2026-01-29 00:02:27.33	132.04	10.97	-17.0	-39.8	4.3	7.43e-01	0	59	104	474480640	12	33624
2026-01-29 00:02:28.35	132.21	10.90	-22.4	-42.5	4.4	7.42e-01	0	59	104	474480640	13	43147
2026-01-29 00:02:29.36	132.37	10.84	-23.7	-40.6	4.2	7.36e-01	0	59	104	474480640	10	41409
2026-01-29 00:02:30.37	132.53	10.77	-21.1	-43.9	4.9	7.43e-01	0	59	104	474480640	19	35828
2026-01-29 00:02:31.38	132.69	10.71	-21.9	-42.5	4.5	7.50e-01	0	59	104	474480640	14	40902
2026-01-29 00:02:32.39	132.85	10.64	-24.1	-47.7	4.4	7.49e-01	0	59	104	474480640	20	52662
2026-01-29 00:02:33.40	133.01	10.58	-25.3	-48.2	4.1	7.51e-01	0	59	104	474480640	20	55495
2026-01-29 00:02:34.41	133.17	10.51	-16.3	-41.3	5.0	7.50e-01	0	59	104	474480640	15	33345
2026-01-29 00:02:35.42	133.33	10.45	-22.7	-46.1	4.1	7.57e-01	0	59	104	474480640	17	52092
2026-01-29 00:02:36.43	133.49	10.38	-21.2	-46.2	3.6	7.59e-01	0	59	104	474480640	14	62378
2026-01-29 00:02:37.44	133.64	10.32	-22.1	-47.1	4.0	7.50e-01	0	59	104	474480640	22	43622
2026-01-29 00:02:38.45	133.80	10.25	-27.1	-49.4	3.8	7.56e-01	0	59	104	474480640	23	53762
2026-01-29 00:02:39.46	133.95	10.19	-29.7	-50.0	4.1	7.44e-01	0	59	104	474480640	24	54307
2026-01-29 00:02:40.47	134.11	10.12	-22.3	-41.1	3.7	7.80e-01	0	59	104	474480640	17	29226
2026-01-29 00:02:41.48	134.26	10.06	-25.4	-47.7	4.3	7.52e-01	0	59	104	474480640	21	49624
2026-01-29 00:02:42.49	134.42	10.00	-28.3	-46.9	4.2	7.61e-01	0	59	104	474480640	22	42620
2026-01-29 00:02:43.50	134.57	9.93	-26.5	-48.7	4.0	7.44e-01	0	59	104	474480640	23	49302
2026-01-29 00:02:44.51	134.72	9.87	-24.5	-50.8	4.0	7.52e-01	0	59	104	474480640	27	49924
2026-01-29 00:02:45.52	134.87	9.80	-22.0	-48.7	3.4	7.73e-01	0	59	104	474480640	25	44407
2026-01-29 00:02:46.53	135.02	9.74	-26.4	-51.9	3.9	7.53e-01	0	59	104	474480640	29	50784
2026-01-29 00:02:47.54	135.17	9.67	-37.7	-59.2	4.3	7.49e-01	0	59	104	474480640	48	39248
2026-01-29 00:02:48.55	135.32	9.61	-40.2	-58.7	4.0	7.53e-01	0	59	104	474480640	48	36949
2026-01-29 00:02:49.57	135.47	9.54	-29.5	-54.6	4.2	7.49e-01	0	59	104	474480640	36	46298
2026-01-29 00:02:50.57	135.61	9.48	-35.6	-57.1	4.3	7.60e-01	0	59	104	474480640	41	46270
2026-01-29 00:02:51.58	135.76	9.42	-32.3	-56.1	4.2	7.55e-01	0	59	104	474480640	41	41269
2026-01-29 00:02:52.60	135.91	9.35	-37.3	-58.5	4.0	7.47e-01	0	59	104	474480640	46	40842
2026-01-29 00:02:53.61	136.05	9.29	-41.0	-61.6	3.9	7.46e-01	0	59	104	474480640	55	34813
2026-01-29 00:02:54.62	136.20	9.22	-41.4	-61.5	3.9	7.49e-01	0	59	104	474480640	55	34210
2026-01-29 00:02:55.63	136.34	9.16	-40.9	-61.8	3.8	7.45e-01	0	59	104	474480640	56	33642
2026-01-29 00:02:56.64	136.49	9.09	-42.3	-61.9	3.8	7.45e-01	0	59	104	474480640	56	33992
2026-01-29 00:02:57.65	136.63	9.03	-41.7	-61.7	4.0	7.54e-01	0	59	104	474480640	53	39380
2026-01-29 00:02:58.66	136.77	8.96	-42.1	-61.3	3.9	7.46e-01	0	59	104	474480640	54	35600
2026-01-29 00:02:59.67	136.91	8.90	-43.1	-62.2	3.9	7.45e-01	0	59	104	474480640	56	35259
2026-01-29 00:03:00.68	137.05	8.84	-43.4	-62.4	3.9	7.51e-01	0	59	104	474480640	57	33840
2026-01-29 00:03:01.69	137.19	8.77	-35.1	-55.2	4.2	7.55e-01	0	59	104	474480640	49	23378
2026-01-29 00:03:02.70	137.33	8.71	-43.1	-61.7	3.9	7.44e-01	0	59	104	474480640	55	35085
2026-01-29 00:03:03.71	137.47	8.64	-42.2	-62.1	3.7	7.42e-01	0	59	104	474480640	56	34589
2026-01-29 00:03:04.72	137.61	8.58	-43.2	-62.0	3.9	7.47e-01	0	59	104	474480640	56	34356
2026-01-29 00:03:05.72	137.75	8.52	-41.2	-62.3	4.1	7.56e-01	0	59	104	474480640	56	35321
2026-01-29 00:03:06.73	137.88	8.45	-41.0	-61.7	3.8	7.42e-01	0	59	104	474480640	55	35194
2026-01-29 00:03:07.74	138.02	8.39	-42.5	-61.4	3.9	7.45e-01	0	59	104	474480640	55	34061
2026-01-29 00:03:08.75	138.15	8.33	-40.6	-61.6	3.8	7.49e-01	0	59	104	474480640	55	34849
2026-01-29 00:03:09.76	138.29	8.26	-41.3	-61.8	3.8	7.47e-01	0	59	104	474480640	56	33526
2026-01-29 00:03:10.77	138.42	8.20	-40.3	-61.0	3.8	7.44e-01	0	59	104	474480640	55	32427
2026-01-29 00:03:11.78	138.56	8.14	-43.8	-61.4	3.8	7.44e-01	0	59	104	474480640	58	28425
2026-01-29 00:03:12.79	138.69	8.07	-43.2	-60.9	3.8	7.46e-01	0	59	104	474480640	57	28638
2026-01-29 00:03:13.80	138.82	8.01	-42.0	-62.0	3.8	7.48e-01	0	59	104	474480640	56	34284
2026-01-29 00:03:14.81	138.96	7.94	-33.4	-54.3	4.3	7.54e-01	0	59	104	474480640	34	50393
2026-01-29 00:03:15.82	139.09	7.88	-45.4	-64.3	3.8	7.46e-01	0	59	104	474480640	61	33633
2026-01-29 00:03:16.83	139.22	7.82	-45.9	-64.8	3.8	7.44e-01	0	59	104	474480640	62	33333
2026-01-29 00:03:17.84	139.35	7.76	-46.2	-65.0	3.8	7.46e-01	0	59	104	474480640	62	34315
2026-01-29 00:03:18.85	139.48	7.69	-46.3	-65.2	3.8	7.42e-01	0	59	104	474480640	63	33192
2026-01-29 00:03:19.86	139.61	7.63	-46.5	-65.3	3.8	7.43e-01	0	59	104	474480640	63	33519
2026-01-29 00:03:20.87	139.74	7.57	-46.6	-65.4	3.8	7.45e-01	0	59	104	474480640	63	33952
2026-01-29 00:03:21.88	139.86	7.50	-46.6	-65.5	3.8	7.47e-01	0	59	104	474480640	63	34224
2026-01-29 00:03:22.89	139.99	7.44	-46.6	-65.5	3.8	7.44e-01	0	59	104	474480640	63	34219
2026-01-29 00:03:23.90	140.12	7.38	-46.6	-65.4	3.8	7.48e-01	0	59	104	474480640	63	34055
2026-01-29 00:03:24.91	140.24	7.31	-46.5	-65.3	3.8	7.44e-01	0	59	104	474480640	63	33680
2026-01-29 00:03:25.92	140.37	7.25	-46.4	-65.3	3.8	7.43e-01	0	59	104	474480640	63	33443
2026-01-29 00:03:26.93	140.49	7.19	-46.3	-65.2	3.8	7.43e-01	0	59	104	474480640	63	33112
2026-01-29 00:03:27.94	140.62	7.13	-46.3	-65.2	3.8	7.45e-01	0	59	104	474480640	63	32955
2026-01-29 00:03:28.95	140.74	7.06	-46.2	-65.1	3.8	7.44e-01	0	59	104	474480640	63	32812
2026-01-29 00:03:29.96	140.86	7.00	-46.1	-65.0	3.8	7.48e-01	0	59	104	474480640	63	32422
2026-01-29 00:03:30.97	140.99	6.94	-46.1	-65.0	3.8	7.47e-01	0	59	104	474480640	63	32518
2026-01-29 00:03:31.98	141.11	6.88	-46.1	-65.0	3.8	7.48e-01	0	59	104	474480640	63	32525
2026-01-29 00:03:33.00	141.23	6.81	-46.1	-65.0	3.8	7.46e-01	0	59	104	474480640	63	32517
2026-01-29 00:03:34.01	141.35	6.75	-46.1	-65.0	3.8	7.45e-01	0	59	104	474480640	63	32477
2026-01-29 00:03:35.02	141.47	6.69	-46.1	-65.0	3.8	7.47e-01	0	59	104	474480640	63	32432
2026-01-29 00:03:36.03	141.59	6.63	-46.1	-65.0	3.8	7.45e-01	0	59	104	474480640	63	32469
2026-01-29 00:03:37.04	141.71	6.56	-46.1	-65.0	3.8	7.44e-01	0	59	104	474480640	63	32466
2026-01-29 00:03:38.05	141.83	6.50	-46.1	-65.0	3.8	7.46e-01	0	59	104	474480640	63	32504
2026-01-29 00:03:39.06	141.95	6.44	-46.1	-65.0	3.8	7.44e-01	0	59	104	474480640	63	32417
2026-01-29 00:03:40.07	142.07	6.38	-46.1	-65.0	3.8	7.42e-01	0	59	104	474480640	63	32389
2026-01-29 00:03:41.08	142.19	6.32	-46.1	-65.0	3.8	7.45e-01	0	59	104	474480640	63	32389
2026-01-29 00:03:42.09	142.30	6.26	-46.1	-65.0	3.8	7.44e-01	0	59	104	474480640	63	32440
2026-01-29 00:03:43.10	142.42	6.19	-46.1	-65.0	3.8	7.47e-01	0	59	104	474480640	63	32392
2026-01-29 00:03:44.11	142.53	6.13	-46.1	-65.0	3.8	7.46e-01	0	59	104	474480640	63	32525
2026-01-29 00:03:45.12	142.65	6.07	-46.1	-65.0	3.8	7.46e-01	0	59	104	474480640	63	32339
2026-01-29 00:03:46.13	142.76	6.01	-46.1	-65.0	3.8	7.43e-01	0	59	104	474480640	63	32240
2026-01-29 00:03:47.14	142.88	5.95	-46.0	-65.0	3.8	7.46e-01	0	59	104	474480640	63	32216
2026-01-29 00:03:48.15	142.99	5.89	-46.0	-64.9	3.8	7.47e-01	0	59	104	474480640	63	32085
2026-01-29 00:03:49.16	143.11	5.83	-46.0	-64.9	3.8	7.46e-01	0	59	104	474480640	63	32062
2026-01-29 00:03:50.17	143.22	5.76	-46.0	-64.9	3.8	7.45e-01	0	59	104	474480640	63	32015
2026-01-29 00:03:51.18	143.33	5.70	-46.0	-64.9	3.8	7.46e-01	0	59	104	474480640	63	32052
2026-01-29 00:03:52.19	143.44	5.64	-46.0	-64.9	3.8	7.45e-01	0	59	104	474480640	63	32027
2026-01-29 00:03:53.20	143.55	5.58	-46.0	-64.9	3.8	7.45e-01	0	59	104	474480640	63	32051
2026-01-29 00:03:54.21	143.66	5.52	-46.0	-64.9	3.8	7.45e-01	0	59	104	474480640	63	32047
2026-01-29 00:03:55.23	143.78	5.46	-46.0	-64.9	3.8	7.46e-01	0	59	104	474480640	63	32054
2026-01-29 00:03:56.23	143.88	5.40	-46.0	-64.9	3.8	7.45e-01	0	59	104	474480640	63	32006
2026-01-29 00:03:57.24	143.99	5.34	-46.0	-64.9	3.8	7.46e-01	0	59	104	474480640	63	32036
2026-01-29 00:03:58.26	144.10	5.28	-46.0	-64.9	3.8	7.47e-01	0	59	104	474480640	63	32002
2026-01-29 00:03:59.27	144.21	5.22	-46.0	-64.9	3.8	7.47e-01	0	59	104	474480640	63	31997
2026-01-29 00:04:00.28	144.32	5.16	-46.0	-64.9	3.8	7.44e-01	0	59	104	474480640	63	32123
2026-01-29 00:04:01.29	144.43	5.10	-46.0	-64.9	3.8	7.43e-01	0	59	104	474480640	63	32075
2026-01-29 00:04:02.30	144.53	5.04	-46.0	-64.9	3.8	7.48e-01	0	59	104	474480640	63	32125
2026-01-29 00:04:03.31	144.64	4.98	-46.0	-64.9	3.8	7.47e-01	0	59	104	474480640	63	32015
2026-01-29 00:04:04.32	144.75	4.92	-46.0	-64.9	3.8	7.47e-01	0	59	104	474480640	63	32098
2026-01-29 00:04:05.33	144.85	4.86	-46.0	-64.9	3.8	7.41e-01	0	59	104	474480640	63	32023
2026-01-29 00:04:06.34	144.96	4.80	-46.0	-64.9	3.8	7.45e-01	0	59	104	474480640	63	32015
2026-01-29 00:04:07.35	145.06	4.74	-46.0	-64.9	3.8	7.44e-01	0	59	104	474480640	63	32011
2026-01-29 00:04:08.36	145.17	4.68	-46.0	-64.9	3.8	7.44e-01	0	59	104	474480640	63	32026
2026-01-29 00:04:09.37	145.27	4.62	-46.0	-64.9	3.8	7.46e-01	0	59	104	474480640	63	32064
2026-01-29 00:04:10.38	145.37	4.56	-46.0	-64.9	3.8	7.46e-01	0	59	104	474480640	63	31969
2026-01-29 00:04:11.39	145.48	4.50	-46.0	-64.9	3.8	7.43e-01	0	59	104	474480640	63	31940
2026-01-29 00:04:12.40	145.58	4.44	-46.0	-64.9	3.8	7.42e-01	0	59	104	474480640	63	32001
2026-01-29 00:04:13.41	145.68	4.38	-46.0	-64.9	3.8	7.43e-01	0	59	104	474480640	63	31882
2026-01-29 00:04:14.42	145.78	4.32	-46.0	-64.9	3.8	7.44e-01	0	59	104	474480640	63	31881
2026-01-29 00:04:15.43	145.88	4.26	-46.0	-64.9	3.8	7.46e-01	0	59	104	474480640	63	31939
2026-01-29 00:04:16.44	145.98	4.20	-46.0	-64.9	3.8	7.44e-01	0	59	104	474480640	63	32026
2026-01-29 00:04:17.45	146.08	4.14	-46.0	-64.9	3.8	7.42e-01	0	59	104	474480640	63	31826
2026-01-29 00:04:18.47	146.19	4.08	-46.0	-64.9	3.8	7.44e-01	0	59	104	474480640	63	31840
2026-01-29 00:04:19.48	146.28	4.02	-46.0	-64.8	3.8	7.43e-01	0	59	104	474480640	63	31751
2026-01-29 00:04:20.49	146.38	3.96	-46.0	-64.9	3.8	7.48e-01	0	59	104	474480640	63	31841
2026-01-29 00:04:21.50	146.48	3.91	-46.0	-64.9	3.8	7.48e-01	0	59	104	474480640	63	31828
2026-01-29 00:04:22.51	146.58	3.85	-46.0	-64.9	3.8	7.47e-01	0	59	104	474480640	63	31832
2026-01-29 00:04:23.52	146.68	3.79	-46.0	-64.8	3.8	7.43e-01	0	59	104	474480640	63	31790
2026-01-29 00:04:24.53	146.78	3.73	-46.0	-64.8	3.8	7.44e-01	0	59	104	474480640	63	31807
2026-01-29 00:04:25.54	146.87	3.67	-46.0	-64.8	3.8	7.47e-01	0	59	104	474480640	63	31793
2026-01-29 00:04:26.55	146.97	3.61	-46.0	-64.9	3.8	7.45e-01	0	59	104	474480640	63	31891
2026-01-29 00:04:27.56	147.06	3.56	-46.0	-64.9	3.8	7.46e-01	0	59	104	474480640	63	31839
2026-01-29 00:04:28.57	147.16	3.50	-46.0	-64.8	3.8	7.45e-01	0	59	104	474480640	63	31797
2026-01-29 00:04:29.58	147.26	3.44	-46.0	-64.8	3.8	7.44e-01	0	59	104	474480640	63	31802
2026-01-29 00:04:30.59	147.35	3.38	-46.0	-64.9	3.8	7.48e-01	0	59	104	474480640	63	31835
2026-01-29 00:04:31.60	147.45	3.32	-46.0	-64.9	3.8	7.47e-01	0	59	104	474480640	63	31813
2026-01-29 00:04:32.62	147.54	3.26	-46.0	-64.8	3.8	7.45e-01	0	59	104	474480640	63	31803
2026-01-29 00:04:33.63	147.63	3.21	-46.0	-64.9	3.8	7.41e-01	0	59	104	474480640	63	31886
2026-01-29 00:04:34.64	147.73	3.15	-46.0	-64.9	3.8	7.43e-01	0	59	104	474480640	63	31842
2026-01-29 00:04:35.65	147.82	3.09	-46.0	-64.9	3.8	7.44e-01	0	59	104	474480640	63	31835
2026-01-29 00:04:36.66	147.91	3.03	-46.0	-64.9	3.8	7.44e-01	0	59	104	474480640	63	31876
2026-01-29 00:04:37.67	148.00	2.98	-46.0	-64.9	3.8	7.48e-01	0	59	104	474480640	63	31860
2026-01-29 00:04:38.68	148.10	2.92	-46.0	-64.9	3.8	7.48e-01	0	59	104	474480640	63	31834
2026-01-29 00:04:39.69	148.19	2.86	-46.0	-64.8	3.8	7.47e-01	0	59	104	474480640	63	31798
2026-01-29 00:04:40.70	148.28	2.80	-46.0	-64.8	3.8	7.41e-01	0	59	104	474480640	63	31749
2026-01-29 00:04:41.71	148.37	2.75	-45.9	-64.8	3.8	7.46e-01	0	59	104	474480640	63	31776
2026-01-29 00:04:42.72	148.46	2.69	-45.9	-64.8	3.8	7.45e-01	0	59	104	474480640	63	31717
2026-01-29 00:04:43.73	148.55	2.63	-46.0	-64.8	3.8	7.44e-01	0	59	104	474480640	63	31784
2026-01-29 00:04:44.74	148.64	2.58	-46.0	-64.8	3.8	7.46e-01	0	59	104	474480640	63	31802
2026-01-29 00:04:45.75	148.73	2.52	-45.9	-64.8	3.8	7.45e-01	0	59	104	474480640	63	31751
2026-01-29 00:04:46.76	148.82	2.46	-46.0	-64.8	3.8	7.42e-01	0	59	104	474480640	63	31743
2026-01-29 00:04:47.77	148.91	2.40	-45.9	-64.8	3.8	7.45e-01	0	59	104	474480640	63	31768
2026-01-29 00:04:48.78	148.99	2.35	-46.0	-64.8	3.8	7.47e-01	0	59	104	474480640	63	31802
2026-01-29 00:04:49.79	149.08	2.29	-46.0	-64.8	3.8	7.49e-01	0	59	104	474480640	63	31780
2026-01-29 00:04:50.80	149.17	2.23	-45.9	-64.8	3.8	7.45e-01	0	59	104	474480640	63	31772
2026-01-29 00:04:51.81	149.26	2.18	-45.9	-64.8	3.8	7.46e-01	0	59	104	474480640	63	31783
2026-01-29 00:04:52.82	149.34	2.12	-46.0	-64.8	3.8	7.47e-01	0	59	104	474480640	63	31753
2026-01-29 00:04:53.83	149.43	2.07	-46.0	-64.9	3.8	7.45e-01	0	59	104	474480640	63	31828
2026-01-29 00:04:54.84	149.52	2.01	-45.9	-64.9	3.8	7.45e-01	0	60	104	474480640	63	31822
2026-01-29 00:04:55.85	149.60	1.95	-45.9	-64.8	3.8	7.42e-01	0	59	104	474480640	63	31765
2026-01-29 00:04:56.86	149.69	1.90	-45.9	-64.8	3.8	7.40e-01	0	59	104	474480640	63	31689

#Closed at: 2026-01-29 00:04:57
#Recorded file [474 MB]: D:/lorett/data/31039_260129_025703.dat