passes_logs/2026/01/28/R2.0S_Moscow/R2.0S_Moscow__20260128_090220_NOAA_20_JPSS-1_rec.log

#Pass ID: 20260128_090220_NOAA 20 (JPSS-1)
#Satellite: NOAA 20 (JPSS-1)
#Configuration: NOAA 20
#almurnet v.1.7.20251203
#Start time: 2026-01-28 09:02:21

#Version: 2.2.20231116
#Station: R2.0S_Moscow
#Location: 37.707566 lon 55.798166 lat
#TLE: 1 43013U 17073A   26027.80586608  .00000156  00000+0  94940-4 0  9998
#TLE: 2 43013  98.7647 328.6108 0000947  21.3465 338.7750 14.19541216424550

#Time	Az	El	Level	Level2	SNR	BER	BlckErr	Temp	State	Recorded	gain1	gain2
2026-01-28 09:02:21.10	134.77	2.07	-16.8	-36.2	3.6	1.51e+00	0	52	0	0	5	33297
2026-01-28 09:02:22.10	134.74	2.13	-21.5	-41.3	3.4	1.51e+00	0	52	104	0	8	49973
2026-01-28 09:02:23.11	134.70	2.19	-21.6	-41.6	3.8	1.51e+00	0	52	104	0	10	46054
2026-01-28 09:02:24.12	134.66	2.26	-18.0	-40.4	3.7	1.51e+00	0	52	104	0	8	45148
2026-01-28 09:02:25.14	134.63	2.32	-16.7	-37.3	3.9	1.50e+00	0	52	104	0	7	33574
2026-01-28 09:02:26.15	134.59	2.39	-18.9	-37.6	4.0	1.51e+00	0	53	104	0	7	34680
2026-01-28 09:02:27.16	134.55	2.45	-17.4	-36.1	3.6	1.51e+00	0	53	104	0	5	32749
2026-01-28 09:02:28.17	134.51	2.51	-18.7	-38.7	3.5	1.51e+00	0	53	104	0	8	37167
2026-01-28 09:02:29.18	134.48	2.58	-18.8	-40.9	3.6	1.51e+00	0	53	104	0	9	45338
2026-01-28 09:02:30.19	134.44	2.64	-19.5	-39.3	3.5	1.51e+00	0	53	104	0	4	50095
2026-01-28 09:02:31.20	134.40	2.70	-18.6	-37.5	4.2	1.50e+00	0	53	104	0	7	34442
2026-01-28 09:02:32.21	134.36	2.77	-20.9	-41.7	3.8	1.50e+00	0	53	104	0	10	46865
2026-01-28 09:02:33.22	134.32	2.83	-15.3	-38.3	3.4	1.51e+00	0	53	104	0	4	44447
2026-01-28 09:02:34.23	134.28	2.90	-14.0	-35.0	4.1	1.50e+00	0	53	104	0	3	32481
2026-01-28 09:02:35.24	134.24	2.96	-17.8	-36.6	4.0	1.50e+00	0	53	104	0	5	34523
2026-01-28 09:02:36.25	134.21	3.03	-21.1	-41.6	3.7	1.50e+00	0	53	104	0	10	45996
2026-01-28 09:02:37.26	134.17	3.09	-22.5	-40.5	3.8	1.50e+00	0	53	104	0	10	40694
2026-01-28 09:02:38.27	134.13	3.16	-16.7	-38.0	3.9	1.50e+00	0	53	104	0	9	32287
2026-01-28 09:02:39.28	134.09	3.22	-20.2	-41.7	3.6	1.50e+00	0	53	104	0	10	46556
2026-01-28 09:02:40.29	134.05	3.29	-14.6	-37.9	3.7	1.50e+00	0	53	104	0	7	36010
2026-01-28 09:02:41.30	134.01	3.35	-16.0	-34.2	4.1	1.50e+00	0	54	104	0	6	24944
2026-01-28 09:02:42.31	133.97	3.42	-18.5	-41.3	3.4	1.50e+00	0	54	104	0	8	50153
2026-01-28 09:02:43.32	133.93	3.48	-16.0	-33.4	3.8	1.51e+00	0	54	104	0	1	30059
2026-01-28 09:02:44.33	133.89	3.55	-17.2	-36.0	3.8	1.50e+00	0	54	104	0	5	32379
2026-01-28 09:02:45.34	133.85	3.62	-16.2	-36.6	3.9	1.50e+00	0	54	104	0	3	38989
2026-01-28 09:02:46.35	133.81	3.68	-17.6	-37.8	3.7	1.50e+00	0	54	104	0	5	39595
2026-01-28 09:02:47.36	133.76	3.75	-20.7	-41.6	3.5	1.50e+00	0	54	104	0	9	49174
2026-01-28 09:02:48.37	133.72	3.82	-14.9	-37.4	3.9	1.50e+00	0	54	104	0	5	38196
2026-01-28 09:02:49.38	133.68	3.88	-19.8	-41.3	3.5	1.50e+00	0	54	104	0	8	50236
2026-01-28 09:02:50.39	133.64	3.95	-13.8	-35.3	3.9	1.50e+00	0	54	104	0	0	39715
2026-01-28 09:02:51.41	133.60	4.02	-15.8	-34.4	4.0	1.51e+00	0	54	104	0	1	33761
2026-01-28 09:02:52.42	133.55	4.08	-18.4	-36.9	3.9	1.50e+00	0	54	104	0	2	42739
2026-01-28 09:02:53.43	133.51	4.15	-18.8	-36.7	3.9	1.51e+00	0	54	104	0	6	33142
2026-01-28 09:02:54.44	133.47	4.22	-14.2	-32.7	3.9	1.50e+00	0	54	104	0	4	23421
2026-01-28 09:02:55.45	133.43	4.29	-14.5	-33.9	3.8	1.51e+00	0	54	104	0	4	26816
2026-01-28 09:02:56.46	133.38	4.35	-18.9	-39.7	4.2	1.50e+00	0	54	104	0	10	37163
2026-01-28 09:02:57.47	133.34	4.42	-19.3	-38.4	3.8	1.50e+00	0	55	104	0	6	40456
2026-01-28 09:02:58.48	133.30	4.49	-15.5	-33.8	3.9	1.50e+00	0	55	104	0	3	28193
2026-01-28 09:02:59.49	133.25	4.56	-19.4	-41.8	3.4	1.50e+00	0	54	104	0	9	50331
2026-01-28 09:03:00.50	133.21	4.63	-17.5	-37.8	4.1	1.50e+00	0	55	104	0	7	35671
2026-01-28 09:03:01.51	133.17	4.69	-20.3	-42.8	3.5	1.50e+00	0	55	104	0	10	53184
2026-01-28 09:03:02.52	133.12	4.76	-16.5	-37.8	3.4	1.50e+00	0	55	104	0	5	39868
2026-01-28 09:03:03.53	133.08	4.83	-19.9	-42.0	3.6	1.50e+00	0	55	104	0	11	45583
2026-01-28 09:03:04.54	133.03	4.90	-19.1	-37.7	3.9	1.50e+00	0	55	104	0	8	33108
2026-01-28 09:03:05.55	132.99	4.97	-18.9	-39.8	3.8	1.50e+00	0	55	104	0	10	37546
2026-01-28 09:03:06.56	132.94	5.04	-22.4	-39.1	3.8	1.51e+00	0	55	104	0	7	41451
2026-01-28 09:03:07.57	132.90	5.11	-20.6	-40.5	3.9	1.50e+00	0	55	104	0	7	48161
2026-01-28 09:03:08.58	132.85	5.18	-16.7	-34.7	3.7	1.50e+00	0	55	104	0	2	32977
2026-01-28 09:03:09.59	132.81	5.25	-13.3	-35.1	3.6	1.50e+00	0	55	104	0	6	27425
2026-01-28 09:03:10.60	132.76	5.32	-14.1	-35.9	3.6	1.50e+00	0	55	104	0	3	35810
2026-01-28 09:03:11.61	132.71	5.39	-13.6	-35.5	3.6	1.50e+00	0	55	104	0	0	40620
2026-01-28 09:03:12.62	132.67	5.46	-14.8	-34.5	3.5	1.51e+00	0	55	104	0	0	36488
2026-01-28 09:03:13.63	132.62	5.53	-13.8	-33.7	3.7	1.50e+00	0	55	104	0	0	33191
2026-01-28 09:03:14.64	132.57	5.60	-14.7	-32.6	3.6	1.51e+00	0	55	104	0	0	29242
2026-01-28 09:03:15.65	132.53	5.67	-17.9	-37.2	3.6	1.51e+00	0	55	104	0	2	44273
2026-01-28 09:03:16.66	132.48	5.74	-17.8	-36.2	4.0	1.50e+00	0	56	104	0	2	39245
2026-01-28 09:03:17.67	132.43	5.81	-15.5	-36.0	4.0	1.51e+00	0	56	104	0	0	43123
2026-01-28 09:03:18.69	132.38	5.89	-14.9	-35.3	3.6	1.50e+00	0	55	104	0	1	37438
2026-01-28 09:03:19.70	132.33	5.96	-19.5	-38.4	3.5	1.51e+00	0	55	104	0	7	38021
2026-01-28 09:03:20.71	132.29	6.03	-20.5	-40.8	3.6	1.51e+00	0	55	104	0	11	39836
2026-01-28 09:03:21.72	132.24	6.10	-19.9	-38.3	3.9	1.50e+00	0	56	104	0	7	37589
2026-01-28 09:03:22.73	132.19	6.17	-19.6	-40.3	3.8	1.51e+00	0	55	104	0	9	42040
2026-01-28 09:03:23.74	132.14	6.24	-19.1	-38.8	3.7	1.51e+00	0	56	104	0	2	53393
2026-01-28 09:03:24.75	132.09	6.32	-14.0	-35.4	3.7	1.51e+00	0	56	104	0	0	40069
2026-01-28 09:03:25.76	132.04	6.39	-18.7	-38.5	3.9	1.50e+00	0	56	104	0	12	28908
2026-01-28 09:03:26.77	131.99	6.46	-18.5	-39.5	3.7	1.50e+00	0	56	104	0	8	40545
2026-01-28 09:03:27.78	131.94	6.54	-20.8	-40.1	3.6	1.50e+00	0	56	104	0	9	41105
2026-01-28 09:03:28.79	131.89	6.61	-16.4	-37.2	3.7	1.50e+00	0	56	104	0	3	41602
2026-01-28 09:03:29.79	131.84	6.68	-18.1	-37.4	3.7	1.50e+00	0	56	104	0	3	42465
2026-01-28 09:03:30.81	131.79	6.76	-14.1	-32.5	3.8	1.50e+00	0	56	104	0	0	28756
2026-01-28 09:03:31.81	131.74	6.83	-15.9	-35.6	3.8	1.51e+00	0	56	104	0	4	32564
2026-01-28 09:03:32.82	131.69	6.90	-15.6	-36.0	3.6	1.51e+00	0	56	104	0	6	30403
2026-01-28 09:03:33.83	131.63	6.98	-17.0	-35.0	3.6	1.51e+00	0	56	104	0	5	28809
2026-01-28 09:03:34.84	131.58	7.05	-15.1	-36.5	3.6	1.51e+00	0	56	104	0	5	34299
2026-01-28 09:03:35.85	131.53	7.13	-16.9	-35.4	3.8	1.51e+00	0	56	104	0	4	32025
2026-01-28 09:03:36.86	131.48	7.20	-17.4	-37.0	3.9	1.51e+00	0	56	104	0	6	34372
2026-01-28 09:03:37.87	131.42	7.27	-13.6	-31.6	3.9	1.51e+00	0	56	104	0	0	26156
2026-01-28 09:03:38.88	131.37	7.35	-17.4	-37.0	3.7	1.51e+00	0	56	104	0	6	34413
2026-01-28 09:03:39.90	131.32	7.43	-19.0	-38.1	3.5	1.50e+00	0	56	104	0	8	34846
2026-01-28 09:03:40.91	131.26	7.50	-20.0	-41.9	3.7	1.51e+00	0	56	104	0	10	47831
2026-01-28 09:03:41.92	131.21	7.58	-17.7	-36.2	3.8	1.51e+00	0	57	104	0	4	34943
2026-01-28 09:03:42.93	131.15	7.65	-19.2	-36.2	3.7	1.51e+00	0	56	104	0	1	41796
2026-01-28 09:03:43.93	131.10	7.73	-17.5	-37.1	3.9	1.50e+00	0	56	104	0	7	32683
2026-01-28 09:03:44.95	131.04	7.81	-19.6	-39.8	3.5	1.51e+00	0	56	104	0	8	41964
2026-01-28 09:03:45.96	130.99	7.88	-14.8	-32.7	3.7	1.51e+00	0	56	104	0	1	27864
2026-01-28 09:03:46.97	130.93	7.96	-17.4	-33.8	3.9	1.51e+00	0	57	104	0	1	31743
2026-01-28 09:03:47.98	130.88	8.04	-12.9	-32.0	4.0	1.51e+00	0	57	104	0	0	27206
2026-01-28 09:03:48.99	130.82	8.11	-17.4	-37.0	3.8	1.51e+00	0	57	104	0	6	34114
2026-01-28 09:03:50.00	130.76	8.19	-14.0	-35.4	4.1	1.51e+00	0	57	104	0	1	38136
2026-01-28 09:03:51.01	130.71	8.27	-17.3	-34.3	3.8	1.50e+00	0	57	104	0	1	33667
2026-01-28 09:03:52.02	130.65	8.35	-17.5	-38.5	3.8	1.50e+00	0	57	104	0	7	38501
2026-01-28 09:03:53.03	130.59	8.42	-19.2	-34.8	3.4	1.51e+00	0	57	104	0	2	33634
2026-01-28 09:03:54.04	130.53	8.50	-15.8	-33.8	3.7	1.50e+00	0	57	104	0	3	28071
2026-01-28 09:03:55.05	130.48	8.58	-18.0	-36.6	3.9	1.51e+00	0	57	104	0	5	34538
2026-01-28 09:03:56.06	130.42	8.66	-16.5	-39.0	3.9	1.51e+00	0	57	104	0	7	40603
2026-01-28 09:03:57.07	130.36	8.74	-16.5	-35.9	3.9	1.50e+00	0	57	104	0	3	36049
2026-01-28 09:03:58.07	130.30	8.82	-15.9	-36.0	4.0	1.50e+00	0	57	104	0	8	27293
2026-01-28 09:03:59.08	130.24	8.89	-21.2	-39.2	3.6	1.51e+00	0	57	104	0	8	39566
2026-01-28 09:04:00.09	130.18	8.97	-18.8	-38.7	3.7	1.51e+00	0	57	104	0	8	37037
2026-01-28 09:04:01.10	130.12	9.05	-15.2	-41.0	3.6	1.50e+00	0	57	104	0	12	38273
2026-01-28 09:04:02.11	130.06	9.13	-20.5	-42.0	3.7	1.51e+00	0	57	104	0	10	48540
2026-01-28 09:04:03.12	130.00	9.21	-18.7	-40.3	3.7	1.51e+00	0	57	104	0	9	42324
2026-01-28 09:04:04.13	129.94	9.29	-20.4	-39.1	4.2	1.50e+00	0	57	104	0	7	41039
2026-01-28 09:04:05.14	129.88	9.37	-18.9	-38.5	4.1	1.50e+00	0	57	104	0	7	38434
2026-01-28 09:04:06.15	129.81	9.46	-17.3	-37.8	4.0	1.51e+00	0	57	104	0	7	35335
2026-01-28 09:04:07.16	129.75	9.54	-18.5	-38.3	3.6	1.50e+00	0	57	104	0	6	39669
2026-01-28 09:04:08.17	129.69	9.62	-18.7	-40.0	3.7	1.50e+00	0	57	104	0	12	34173
2026-01-28 09:04:09.18	129.63	9.70	-20.0	-40.2	3.9	1.50e+00	0	57	104	0	8	44256
2026-01-28 09:04:10.19	129.56	9.78	-21.0	-41.6	3.8	1.50e+00	0	57	104	0	12	41264
2026-01-28 09:04:11.20	129.50	9.86	-14.5	-34.0	3.8	1.50e+00	0	57	104	0	7	22947
2026-01-28 09:04:12.21	129.44	9.95	-15.1	-32.9	3.4	1.51e+00	0	57	104	0	2	27006
2026-01-28 09:04:13.22	129.37	10.03	-18.9	-40.7	3.7	1.50e+00	0	57	104	0	12	37159
2026-01-28 09:04:14.23	129.31	10.11	-19.1	-40.4	3.8	1.50e+00	0	57	104	0	11	37903
2026-01-28 09:04:15.24	129.24	10.19	-20.2	-38.8	3.7	1.50e+00	0	57	104	0	9	35534
2026-01-28 09:04:16.25	129.18	10.28	-20.9	-40.5	3.3	1.50e+00	0	58	104	0	10	40754
2026-01-28 09:04:17.26	129.11	10.36	-18.4	-38.7	3.7	1.50e+00	0	58	104	0	8	37001
2026-01-28 09:04:18.27	129.04	10.44	-19.8	-38.3	3.7	1.50e+00	0	57	104	0	8	35448
2026-01-28 09:04:19.28	128.98	10.53	-17.8	-35.6	3.7	1.50e+00	0	57	104	0	7	27683
2026-01-28 09:04:20.29	128.91	10.61	-15.1	-35.0	3.8	1.50e+00	0	58	104	0	2	34351
2026-01-28 09:04:21.30	128.84	10.70	-18.5	-38.7	4.0	1.50e+00	0	58	104	0	10	33258
2026-01-28 09:04:22.31	128.77	10.78	-15.7	-34.9	3.9	1.50e+00	0	58	104	0	1	35929
2026-01-28 09:04:23.32	128.71	10.87	-19.0	-39.3	3.6	1.51e+00	0	58	104	0	7	42204
2026-01-28 09:04:24.33	128.64	10.95	-18.8	-37.7	3.7	1.51e+00	0	58	0	0	9	31324
2026-01-28 09:04:25.34	128.57	11.04	-17.4	-35.8	3.7	1.50e+00	0	58	104	0	6	29953
2026-01-28 09:04:26.35	128.50	11.12	-14.9	-33.4	3.9	1.50e+00	0	58	104	0	5	24117
2026-01-28 09:04:27.36	128.43	11.21	-16.4	-36.8	3.8	1.50e+00	0	58	104	0	5	35571
2026-01-28 09:04:28.37	128.36	11.29	-18.9	-37.0	3.8	1.50e+00	0	58	104	0	9	28988
2026-01-28 09:04:29.38	128.29	11.38	-20.4	-34.5	3.8	1.50e+00	0	58	104	0	1	34298
2026-01-28 09:04:30.39	128.21	11.47	-20.9	-40.1	3.7	1.50e+00	0	58	104	0	11	36555
2026-01-28 09:04:31.40	128.14	11.55	-23.9	-42.7	3.9	1.48e+00	0	58	104	0	15	39551
2026-01-28 09:04:32.41	128.07	11.64	-18.3	-40.3	4.8	1.50e+00	0	58	104	0	20	22337
2026-01-28 09:04:33.42	128.00	11.73	-22.3	-40.5	4.2	1.48e+00	0	58	104	0	14	32545
2026-01-28 09:04:34.43	127.92	11.82	-23.1	-42.2	4.4	1.49e+00	0	58	104	0	15	37299
2026-01-28 09:04:35.44	127.85	11.91	-23.5	-39.6	4.2	1.47e+00	0	58	104	0	10	36879
2026-01-28 09:04:36.45	127.78	11.99	-19.4	-40.1	4.1	1.46e+00	0	58	104	0	12	34526
2026-01-28 09:04:37.46	127.70	12.08	-18.6	-39.6	4.0	1.48e+00	0	58	104	0	10	36739
2026-01-28 09:04:38.48	127.63	12.17	-25.0	-43.5	4.8	1.48e+00	0	58	104	0	16	40622
2026-01-28 09:04:39.49	127.55	12.26	-19.8	-40.1	4.3	1.48e+00	0	58	104	0	13	32914
2026-01-28 09:04:40.50	127.48	12.35	-22.7	-47.2	4.0	1.50e+00	0	58	104	0	20	49516
2026-01-28 09:04:41.51	127.40	12.44	-26.0	-43.8	5.1	1.47e+00	0	58	104	0	21	31466
2026-01-28 09:04:42.52	127.32	12.53	-20.7	-41.0	4.1	1.50e+00	0	58	104	0	12	38553
2026-01-28 09:04:43.53	127.25	12.62	-21.9	-43.9	4.0	1.50e+00	0	58	104	0	15	44963
2026-01-28 09:04:44.54	127.17	12.71	-23.4	-43.1	4.3	1.50e+00	0	58	104	0	16	38753
2026-01-28 09:04:45.55	127.09	12.80	-21.4	-45.4	4.7	1.49e+00	0	58	104	0	21	37830
2026-01-28 09:04:46.55	127.01	12.89	-21.0	-40.9	4.2	1.49e+00	0	58	104	0	13	35844
2026-01-28 09:04:47.56	126.93	12.98	-32.8	-46.2	4.8	1.46e+00	0	58	104	0	22	39317
2026-01-28 09:04:48.57	126.85	13.08	-23.0	-44.7	4.6	1.47e+00	0	58	104	0	21	35251
2026-01-28 09:04:49.58	126.77	13.17	-21.9	-40.7	4.6	1.16e+00	0	58	0	0	15	31300
2026-01-28 09:04:50.59	126.69	13.26	-28.1	-46.3	4.0	1.50e+00	0	58	104	0	16	56467
2026-01-28 09:04:51.60	126.61	13.35	-24.7	-45.1	4.1	1.50e+00	0	59	104	0	17	46452
2026-01-28 09:04:52.61	126.53	13.45	-18.9	-40.7	3.7	1.50e+00	0	58	104	0	9	44054
2026-01-28 09:04:53.62	126.44	13.54	-16.9	-39.2	3.8	1.50e+00	0	58	104	0	8	39240
2026-01-28 09:04:54.63	126.36	13.63	-19.6	-39.1	3.9	1.50e+00	0	58	104	0	8	38785
2026-01-28 09:04:55.64	126.28	13.73	-23.3	-42.6	5.2	1.48e+00	4	58	104	0	20	29091
2026-01-28 09:04:56.65	126.19	13.82	-34.9	-49.8	4.7	8.57e-01	8	58	0	0	28	42348
2026-01-28 09:04:57.66	126.11	13.91	-30.0	-46.0	4.7	1.48e+00	0	59	104	0	25	32542
2026-01-28 09:04:58.67	126.02	14.01	-21.0	-41.7	4.0	1.49e+00	0	58	104	0	14	37290
2026-01-28 09:04:59.68	125.94	14.10	-22.9	-45.9	4.8	1.49e+00	0	58	104	0	24	33739
2026-01-28 09:05:00.69	125.85	14.20	-34.3	-47.6	4.7	1.47e+00	0	59	104	0	21	48848
2026-01-28 09:05:01.70	125.77	14.29	-23.6	-45.0	4.4	1.45e+00	0	58	104	0	23	32458
2026-01-28 09:05:02.71	125.68	14.39	-25.1	-44.8	5.5	1.31e+00	21	59	0	0	31	19914
2026-01-28 09:05:03.72	125.59	14.49	-28.9	-49.8	4.2	4.83e-01	22	59	0	1048576	26	47302
2026-01-28 09:05:04.73	125.50	14.58	-31.3	-47.7	6.7	1.17e+00	4	58	104	1048576	39	17646
2026-01-28 09:05:05.74	125.41	14.68	-30.3	-45.4	6.1	1.97e-01	25	59	0	2097152	29	24024
2026-01-28 09:05:06.76	125.32	14.78	-36.6	-44.4	9.0	1.37e+00	0	58	0	2097152	28	22600
2026-01-28 09:05:07.77	125.23	14.88	-35.3	-44.7	10.3	7.19e-02	0	59	0	4194304	38	13251
2026-01-28 09:05:08.78	125.14	14.97	-33.3	-44.7	10.6	7.30e-02	0	59	0	5242880	43	9846
2026-01-28 09:05:09.79	125.05	15.07	-39.0	-45.4	11.3	5.07e-02	0	59	0	7340032	48	8011
2026-01-28 09:05:10.80	124.96	15.17	-33.4	-45.1	10.8	2.43e-02	0	58	0	9437184	38	13876
2026-01-28 09:05:11.81	124.86	15.27	-32.7	-45.3	9.8	4.29e-02	0	59	0	11534336	41	11900
2026-01-28 09:05:12.82	124.77	15.37	-33.0	-45.6	10.0	2.22e-02	0	59	0	13631488	37	15575
2026-01-28 09:05:13.83	124.68	15.47	-41.0	-45.6	11.7	1.59e-02	0	59	0	14680064	49	7744
2026-01-28 09:05:14.84	124.58	15.57	-34.9	-44.8	11.3	1.40e-02	0	59	0	16777216	46	8410
2026-01-28 09:05:15.85	124.49	15.67	-37.8	-44.7	12.4	1.38e-02	0	59	0	18874368	46	8312
2026-01-28 09:05:16.86	124.39	15.77	-36.0	-44.1	12.1	1.01e-02	0	59	0	20971520	42	9822
2026-01-28 09:05:17.87	124.29	15.87	-37.7	-44.3	12.9	4.99e-03	0	59	0	23068672	49	6675
2026-01-28 09:05:18.88	124.19	15.97	-39.3	-44.5	12.9	4.27e-03	0	59	0	24117248	50	6469
2026-01-28 09:05:19.89	124.10	16.07	-35.8	-44.5	11.0	7.26e-03	0	59	0	26214400	42	10240
2026-01-28 09:05:20.91	124.00	16.17	-37.1	-45.1	11.2	1.08e-02	0	59	0	28311552	45	9222
2026-01-28 09:05:21.92	123.90	16.28	-39.0	-45.0	11.9	5.26e-03	0	59	0	30408704	46	8650
2026-01-28 09:05:22.93	123.80	16.38	-38.0	-45.1	12.2	2.43e-03	0	59	0	32505856	48	7774
2026-01-28 09:05:23.94	123.70	16.48	-33.4	-44.9	12.1	4.99e-03	0	59	0	33554432	41	11296
2026-01-28 09:05:24.95	123.59	16.58	-34.0	-44.6	11.8	1.56e-03	0	59	0	35651584	40	11594
2026-01-28 09:05:25.96	123.49	16.69	-36.8	-44.7	12.0	7.34e-04	0	59	0	37748736	43	9893
2026-01-28 09:05:26.97	123.39	16.79	-41.0	-44.8	12.8	1.04e-03	0	59	0	39845888	52	5955
2026-01-28 09:05:27.98	123.29	16.89	-40.8	-44.8	12.8	2.30e-04	0	59	0	41943040	52	5943
2026-01-28 09:05:28.99	123.18	17.00	-39.9	-44.9	12.7	2.03e-04	0	59	0	42991616	51	6377
2026-01-28 09:05:30.00	123.08	17.10	-40.0	-44.8	12.9	6.28e-04	0	59	0	45088768	50	6669
2026-01-28 09:05:31.01	122.97	17.21	-38.8	-44.7	12.9	5.27e-04	0	59	0	47185920	52	5897
2026-01-28 09:05:32.01	122.86	17.31	-39.7	-44.4	13.0	9.23e-05	0	59	0	49283072	50	6357
2026-01-28 09:05:33.03	122.76	17.42	-40.8	-44.6	13.1	5.18e-05	0	59	0	51380224	52	5798
2026-01-28 09:05:34.03	122.65	17.53	-40.3	-44.2	13.1	5.87e-05	0	59	0	52428800	51	5908
2026-01-28 09:05:35.05	122.54	17.63	-38.5	-44.7	12.7	4.27e-05	0	59	0	54525952	44	9315
2026-01-28 09:05:36.06	122.43	17.74	-41.1	-44.6	13.1	3.66e-05	0	59	0	56623104	52	5842
2026-01-28 09:05:37.07	122.32	17.85	-40.6	-44.6	13.1	3.58e-05	0	59	0	58720256	52	5838
2026-01-28 09:05:38.07	122.21	17.95	-40.8	-44.6	13.2	2.13e-05	0	59	0	60817408	52	5832
2026-01-28 09:05:39.08	122.10	18.06	-39.7	-44.6	13.3	3.12e-05	0	59	0	62914560	50	6520
2026-01-28 09:05:40.10	121.98	18.17	-40.5	-44.5	13.3	2.21e-05	0	59	0	63963136	52	5741
2026-01-28 09:05:41.11	121.87	18.28	-41.0	-44.6	13.3	1.83e-05	0	59	0	66060288	52	5789
2026-01-28 09:05:42.12	121.75	18.39	-40.6	-44.6	13.1	2.28e-05	0	59	0	68157440	52	5823
2026-01-28 09:05:43.12	121.64	18.50	-41.1	-44.7	13.1	3.43e-05	0	59	0	70254592	52	5888
2026-01-28 09:05:44.13	121.52	18.61	-40.9	-44.7	13.0	3.66e-05	0	59	0	72351744	52	5923
2026-01-28 09:05:45.14	121.40	18.72	-41.2	-44.7	13.1	4.50e-05	0	59	0	73400320	52	5863
2026-01-28 09:05:46.16	121.28	18.83	-41.1	-44.7	13.1	4.11e-05	0	59	0	75497472	52	5860
2026-01-28 09:05:47.16	121.17	18.94	-41.2	-44.7	13.1	3.20e-05	0	59	0	77594624	52	5897
2026-01-28 09:05:48.17	121.05	19.05	-40.9	-44.6	13.2	1.44e-05	0	59	0	79691776	52	5795
2026-01-28 09:05:49.18	120.93	19.16	-38.0	-44.6	13.3	3.50e-05	0	59	0	81788928	52	5795
2026-01-28 09:05:50.20	120.80	19.28	-41.0	-44.6	13.0	1.01e-04	0	59	0	82837504	52	5825
2026-01-28 09:05:51.21	120.68	19.39	-41.0	-44.5	13.4	5.64e-05	0	59	0	84934656	52	5736
2026-01-28 09:05:52.22	120.56	19.50	-41.1	-44.5	13.2	2.89e-05	0	59	0	87031808	52	5770
2026-01-28 09:05:53.23	120.43	19.61	-40.7	-44.6	13.3	2.59e-05	0	59	0	89128960	52	5791
2026-01-28 09:05:54.24	120.31	19.73	-41.1	-44.7	13.2	2.59e-05	0	59	0	91226112	52	5866
2026-01-28 09:05:55.25	120.18	19.84	-41.2	-44.7	13.2	1.75e-05	0	59	0	92274688	52	5867
2026-01-28 09:05:56.26	120.05	19.95	-41.3	-44.9	12.9	3.89e-05	0	59	0	94371840	50	6742
2026-01-28 09:05:57.27	119.92	20.07	-41.2	-44.7	13.2	2.82e-05	0	59	0	96468992	53	5562
2026-01-28 09:05:58.28	119.80	20.18	-41.2	-44.7	13.2	2.28e-05	0	59	0	98566144	53	5546
2026-01-28 09:05:59.29	119.67	20.30	-41.2	-44.6	13.3	2.36e-05	0	59	0	100663296	52	5817
2026-01-28 09:06:00.30	119.53	20.42	-41.1	-44.4	13.5	1.37e-05	0	59	0	101711872	52	5667
2026-01-28 09:06:01.31	119.40	20.53	-41.0	-44.3	13.6	6.80e-06	0	59	0	103809024	52	5652
2026-01-28 09:06:02.32	119.27	20.65	-41.1	-44.5	13.4	1.44e-05	0	59	0	105906176	52	5769
2026-01-28 09:06:03.33	119.13	20.77	-41.2	-44.7	13.2	1.90e-05	0	59	0	108003328	53	5563
2026-01-28 09:06:04.34	119.00	20.88	-41.3	-44.8	13.1	2.59e-05	0	59	0	110100480	53	5628
2026-01-28 09:06:05.35	118.86	21.00	-41.3	-44.8	13.1	3.20e-05	0	59	0	111149056	53	5636
2026-01-28 09:06:06.36	118.72	21.12	-41.3	-44.8	13.1	3.58e-05	0	59	0	113246208	53	5625
2026-01-28 09:06:07.37	118.59	21.24	-41.3	-44.9	13.1	3.35e-05	0	59	0	115343360	53	5665
2026-01-28 09:06:08.38	118.45	21.35	-41.3	-44.9	13.1	4.27e-05	0	59	0	117440512	53	5684
2026-01-28 09:06:09.39	118.31	21.47	-41.4	-44.9	13.0	4.04e-05	0	59	0	119537664	53	5707
2026-01-28 09:06:10.40	118.16	21.59	-41.4	-45.0	13.0	4.04e-05	0	59	0	120586240	53	5743
2026-01-28 09:06:11.41	118.02	21.71	-41.4	-45.0	13.0	4.80e-05	0	59	0	122683392	53	5752
2026-01-28 09:06:12.42	117.88	21.83	-41.3	-44.9	13.0	2.97e-05	0	59	0	124780544	53	5717
2026-01-28 09:06:13.43	117.73	21.95	-41.4	-44.9	13.1	3.28e-05	0	59	0	126877696	53	5694
2026-01-28 09:06:14.44	117.59	22.08	-41.4	-45.1	12.9	2.36e-05	0	59	0	128974848	53	5796
2026-01-28 09:06:15.45	117.44	22.20	-41.3	-45.2	12.7	6.71e-05	0	59	0	131072000	53	5917
2026-01-28 09:06:16.45	117.29	22.32	-41.5	-45.2	12.8	8.69e-05	0	59	0	132120576	53	5908
2026-01-28 09:06:17.47	117.14	22.44	-41.5	-45.2	12.8	6.63e-05	0	59	0	134217728	53	5865
2026-01-28 09:06:18.48	116.99	22.56	-41.3	-45.0	13.0	4.73e-05	0	59	0	136314880	53	5781
2026-01-28 09:06:19.49	116.84	22.69	-41.4	-45.0	13.0	3.28e-05	0	59	0	138412032	53	5724
2026-01-28 09:06:20.50	116.68	22.81	-41.4	-45.0	13.0	4.04e-05	0	59	0	140509184	53	5729
2026-01-28 09:06:21.51	116.53	22.93	-41.4	-45.1	12.9	4.73e-05	0	59	0	141557760	53	5839
2026-01-28 09:06:22.52	116.37	23.06	-41.4	-45.2	12.8	6.02e-05	0	59	0	143654912	53	5879
2026-01-28 09:06:23.53	116.21	23.18	-41.4	-45.0	12.9	5.41e-05	0	59	0	145752064	52	6083
2026-01-28 09:06:24.54	116.06	23.31	-39.6	-45.0	13.1	3.96e-05	0	59	0	147849216	51	6436
2026-01-28 09:06:25.55	115.90	23.43	-41.4	-45.0	13.0	3.66e-05	0	60	0	149946368	53	5774
2026-01-28 09:06:26.56	115.73	23.56	-40.1	-45.0	13.0	3.58e-05	0	59	0	150994944	53	5785
2026-01-28 09:06:27.57	115.57	23.68	-41.6	-45.2	12.9	5.72e-05	0	59	0	153092096	53	5885
2026-01-28 09:06:28.58	115.41	23.81	-41.6	-45.2	12.8	5.49e-05	0	59	0	155189248	53	5906
2026-01-28 09:06:29.59	115.24	23.93	-41.5	-45.0	13.0	3.58e-05	0	60	0	157286400	53	5788
2026-01-28 09:06:30.60	115.08	24.06	-41.1	-45.0	13.0	3.43e-05	0	59	0	159383552	53	5762
2026-01-28 09:06:31.61	114.91	24.19	-41.5	-45.0	13.0	2.89e-05	0	59	0	160432128	53	5783
2026-01-28 09:06:32.62	114.74	24.32	-41.5	-45.0	13.1	2.89e-05	0	60	0	162529280	53	5787
2026-01-28 09:06:33.63	114.57	24.44	-41.5	-45.0	13.0	4.57e-05	0	59	0	164626432	53	5773
2026-01-28 09:06:34.64	114.40	24.57	-41.5	-45.0	13.1	3.12e-05	0	60	0	166723584	53	5772
2026-01-28 09:06:35.65	114.22	24.70	-41.4	-44.9	13.2	2.97e-05	0	59	0	168820736	53	5687
2026-01-28 09:06:36.66	114.05	24.83	-41.4	-44.8	13.3	2.51e-05	0	59	0	170917888	53	5622
2026-01-28 09:06:37.67	113.87	24.96	-41.3	-44.7	13.4	1.67e-05	0	59	0	171966464	53	5560
2026-01-28 09:06:38.68	113.69	25.09	-41.4	-44.9	13.2	1.67e-05	0	60	0	174063616	53	5667
2026-01-28 09:06:39.69	113.52	25.22	-41.5	-45.1	13.0	1.22e-05	0	59	0	176160768	53	5805
2026-01-28 09:06:40.70	113.33	25.35	-41.6	-45.1	13.0	3.35e-05	0	60	0	178257920	53	5840
2026-01-28 09:06:41.70	113.15	25.48	-41.6	-45.1	13.0	4.50e-05	0	59	0	180355072	53	5827
2026-01-28 09:06:42.71	112.97	25.61	-41.6	-45.2	12.9	4.65e-05	0	59	0	181403648	53	5885
2026-01-28 09:06:43.72	112.78	25.74	-41.7	-45.3	12.8	4.50e-05	0	59	0	183500800	53	5970
2026-01-28 09:06:44.73	112.60	25.87	-41.7	-45.4	12.7	7.85e-05	0	60	0	185597952	54	5680
2026-01-28 09:06:45.74	112.41	26.00	-41.7	-45.4	12.7	7.85e-05	0	59	0	187695104	54	5661
2026-01-28 09:06:46.75	112.22	26.13	-41.8	-45.5	12.7	1.12e-04	0	60	0	189792256	54	5737
2026-01-28 09:06:47.76	112.03	26.27	-41.8	-45.5	12.6	9.68e-05	0	60	0	190840832	54	5755
2026-01-28 09:06:48.77	111.83	26.40	-41.7	-45.5	12.6	6.48e-05	0	60	0	192937984	54	5731
2026-01-28 09:06:49.78	111.64	26.53	-41.8	-45.5	12.6	9.38e-05	0	60	0	195035136	54	5777
2026-01-28 09:06:50.80	111.44	26.67	-41.9	-45.7	12.4	1.15e-04	0	59	0	197132288	54	5909
2026-01-28 09:06:51.81	111.24	26.80	-42.0	-45.9	12.2	1.69e-04	0	60	0	199229440	54	6030
2026-01-28 09:06:52.82	111.04	26.93	-42.1	-46.2	11.9	3.00e-04	0	59	0	200278016	54	6208
2026-01-28 09:06:53.83	110.84	27.07	-42.1	-46.1	12.0	3.72e-04	0	59	0	202375168	54	6139
2026-01-28 09:06:54.84	110.64	27.20	-42.1	-46.2	11.9	3.13e-04	0	59	0	204472320	54	6231
2026-01-28 09:06:55.85	110.43	27.34	-42.3	-46.5	11.6	5.05e-04	0	60	0	206569472	55	6089
2026-01-28 09:06:56.86	110.23	27.47	-42.3	-46.6	11.5	6.67e-04	0	59	0	208666624	55	6138
2026-01-28 09:06:57.87	110.02	27.61	-42.4	-46.7	11.4	9.67e-04	0	59	0	209715200	55	6247
2026-01-28 09:06:58.88	109.81	27.74	-42.5	-47.0	11.2	1.10e-03	0	60	0	211812352	55	6424
2026-01-28 09:06:59.89	109.59	27.88	-42.6	-47.1	10.9	1.38e-03	0	60	0	213909504	55	6548
2026-01-28 09:07:00.90	109.38	28.01	-42.7	-47.4	10.6	3.09e-03	0	60	0	216006656	55	6763
2026-01-28 09:07:01.91	109.16	28.15	-42.9	-47.8	10.5	3.80e-03	0	60	0	218103808	56	6649
2026-01-28 09:07:02.92	108.95	28.29	-42.9	-47.7	10.5	4.49e-03	0	60	0	219152384	56	6620
2026-01-28 09:07:03.93	108.73	28.42	-42.8	-47.6	10.7	3.41e-03	0	60	0	221249536	56	6496
2026-01-28 09:07:04.94	108.51	28.56	-42.8	-47.4	10.8	2.71e-03	0	60	0	223346688	56	6401
2026-01-28 09:07:05.95	108.28	28.70	-42.8	-47.4	10.8	2.38e-03	0	60	0	225443840	56	6403
2026-01-28 09:07:06.96	108.06	28.83	-42.8	-47.5	10.7	3.18e-03	0	60	0	227540992	56	6462
2026-01-28 09:07:07.97	107.83	28.97	-42.9	-47.8	10.4	4.35e-03	0	60	0	228589568	56	6714
2026-01-28 09:07:08.98	107.60	29.11	-42.9	-47.7	10.5	4.16e-03	0	60	0	230686720	56	6624
2026-01-28 09:07:09.98	107.37	29.24	-42.9	-47.7	10.6	3.76e-03	0	60	0	232783872	56	6583
2026-01-28 09:07:10.99	107.14	29.38	-42.8	-47.5	10.8	2.59e-03	0	60	0	234881024	56	6451
2026-01-28 09:07:12.01	106.90	29.52	-42.9	-47.7	10.6	3.36e-03	0	60	0	236978176	56	6616
2026-01-28 09:07:13.02	106.66	29.66	-43.0	-47.8	10.4	4.24e-03	0	60	0	239075328	56	6702
2026-01-28 09:07:14.03	106.42	29.80	-42.9	-47.8	10.5	3.97e-03	0	60	0	240123904	56	6657
2026-01-28 09:07:15.04	106.18	29.93	-42.9	-47.7	10.6	3.69e-03	0	60	0	242221056	56	6580
2026-01-28 09:07:16.05	105.94	30.07	-42.9	-47.7	10.6	3.20e-03	0	60	0	244318208	56	6594
2026-01-28 09:07:17.05	105.70	30.21	-42.9	-47.7	10.6	3.41e-03	0	60	0	246415360	56	6583
2026-01-28 09:07:18.06	105.45	30.35	-42.8	-47.5	10.8	3.21e-03	0	60	0	248512512	56	6482
2026-01-28 09:07:19.08	105.20	30.49	-42.9	-47.6	10.6	2.82e-03	0	60	0	249561088	56	6568
2026-01-28 09:07:20.09	104.94	30.62	-43.0	-47.9	10.4	3.83e-03	0	60	0	251658240	56	6740
2026-01-28 09:07:21.09	104.69	30.76	-43.1	-48.1	10.1	5.30e-03	0	60	0	253755392	56	6959
2026-01-28 09:07:22.10	104.44	30.90	-43.2	-48.5	9.7	9.28e-03	0	60	0	255852544	56	7241
2026-01-28 09:07:23.11	104.18	31.04	-43.4	-49.0	9.2	1.64e-02	0	60	0	257949696	57	7249
2026-01-28 09:07:24.12	103.92	31.18	-43.4	-49.1	9.1	1.95e-02	0	60	0	258998272	57	7293
2026-01-28 09:07:25.13	103.65	31.31	-43.4	-49.1	9.1	2.22e-02	0	60	0	261095424	57	7368
2026-01-28 09:07:26.14	103.39	31.45	-43.3	-48.9	9.2	2.03e-02	0	60	0	263192576	57	7178
2026-01-28 09:07:27.15	103.12	31.59	-43.3	-48.8	9.4	1.57e-02	0	60	0	265289728	57	7075
2026-01-28 09:07:28.16	102.85	31.73	-43.2	-48.4	9.8	1.16e-02	0	60	0	267386880	57	6761
2026-01-28 09:07:29.17	102.58	31.87	-43.1	-48.1	10.1	8.29e-03	0	60	0	268435456	57	6566
2026-01-28 09:07:30.18	102.30	32.01	-43.0	-48.0	10.3	5.41e-03	0	60	0	270532608	57	6432
2026-01-28 09:07:31.19	102.03	32.14	-43.0	-47.8	10.4	5.31e-03	0	60	0	272629760	57	6327
2026-01-28 09:07:32.20	101.75	32.28	-42.8	-47.4	10.8	3.42e-03	0	60	0	274726912	57	6052
2026-01-28 09:07:33.21	101.47	32.42	-42.7	-47.2	11.1	2.00e-03	0	60	0	276824064	57	5904
2026-01-28 09:07:34.22	101.18	32.56	-42.7	-47.2	11.1	1.56e-03	0	60	0	277872640	57	5913
2026-01-28 09:07:35.23	100.90	32.69	-42.7	-47.2	11.2	1.34e-03	0	60	0	279969792	57	5869
2026-01-28 09:07:36.24	100.61	32.83	-42.7	-47.1	11.2	1.39e-03	0	60	0	282066944	57	5851
2026-01-28 09:07:37.25	100.32	32.97	-42.7	-47.1	11.2	1.27e-03	0	60	0	284164096	57	5828
2026-01-28 09:07:38.26	100.02	33.10	-42.7	-47.2	11.1	1.41e-03	0	60	0	286261248	57	5898
2026-01-28 09:07:39.27	99.73	33.24	-42.8	-47.3	11.0	1.59e-03	0	60	0	287309824	57	5955
2026-01-28 09:07:40.28	99.43	33.38	-42.7	-47.1	11.2	1.39e-03	0	60	0	289406976	57	5845
2026-01-28 09:07:41.29	99.13	33.51	-42.7	-47.2	11.2	1.26e-03	0	60	0	291504128	57	5871
2026-01-28 09:07:42.29	98.82	33.65	-42.8	-47.3	11.0	1.67e-03	0	60	0	293601280	57	5986
2026-01-28 09:07:43.31	98.51	33.78	-42.9	-47.7	10.6	2.86e-03	0	60	0	295698432	57	6243
2026-01-28 09:07:44.32	98.21	33.92	-42.9	-47.6	10.8	3.54e-03	0	59	0	296747008	57	6151
2026-01-28 09:07:45.33	97.89	34.05	-42.8	-47.4	11.0	2.66e-03	0	60	0	298844160	57	6017
2026-01-28 09:07:46.33	97.58	34.19	-42.7	-47.1	11.2	1.32e-03	0	60	0	300941312	57	5799
2026-01-28 09:07:47.34	97.27	34.32	-42.7	-47.0	11.4	9.16e-04	0	60	0	303038464	57	5733
2026-01-28 09:07:48.35	96.95	34.45	-42.8	-47.4	11.0	1.32e-03	0	60	0	305135616	57	6002
2026-01-28 09:07:49.36	96.62	34.59	-43.0	-47.8	10.5	3.83e-03	0	60	0	307232768	57	6312
2026-01-28 09:07:50.37	96.30	34.72	-43.0	-47.9	10.4	4.30e-03	0	60	0	308281344	57	6413
2026-01-28 09:07:51.38	95.97	34.85	-43.0	-47.9	10.4	4.36e-03	0	60	0	310378496	57	6371
2026-01-28 09:07:52.39	95.64	34.98	-43.0	-47.9	10.4	4.10e-03	0	60	0	312475648	57	6409
2026-01-28 09:07:53.40	95.31	35.11	-42.9	-47.7	10.7	3.42e-03	0	60	0	314572800	57	6212
2026-01-28 09:07:54.41	94.98	35.24	-43.0	-47.7	10.6	2.86e-03	0	60	0	316669952	57	6251
2026-01-28 09:07:55.42	94.64	35.37	-43.2	-48.2	10.1	5.33e-03	0	60	0	317718528	57	6608
2026-01-28 09:07:56.43	94.30	35.50	-43.3	-48.6	9.7	9.79e-03	0	60	0	319815680	57	6920
2026-01-28 09:07:57.44	93.95	35.63	-43.3	-48.6	9.6	1.23e-02	0	60	0	321912832	57	6959
2026-01-28 09:07:58.45	93.61	35.76	-43.4	-48.8	9.6	1.25e-02	0	60	0	324009984	57	7061
2026-01-28 09:07:59.46	93.26	35.88	-43.4	-49.0	9.2	1.81e-02	0	60	0	326107136	57	7275
2026-01-28 09:08:00.47	92.91	36.01	-43.4	-48.9	9.5	1.85e-02	0	60	0	327155712	57	7155
2026-01-28 09:08:01.48	92.55	36.13	-43.3	-48.7	9.6	1.63e-02	0	60	0	329252864	57	6997
2026-01-28 09:08:02.49	92.20	36.26	-43.3	-48.4	9.9	9.53e-03	0	60	0	331350016	57	6781
2026-01-28 09:08:03.50	91.84	36.38	-43.1	-48.0	10.3	5.08e-03	0	60	0	333447168	57	6457
2026-01-28 09:08:04.51	91.47	36.51	-43.0	-47.7	10.7	3.91e-03	0	60	0	335544320	57	6245
2026-01-28 09:08:05.52	91.11	36.63	-43.0	-47.7	10.7	2.97e-03	0	60	0	336592896	57	6248
2026-01-28 09:08:06.53	90.74	36.75	-42.9	-47.6	10.7	2.80e-03	0	60	0	338690048	57	6181
2026-01-28 09:08:07.54	90.37	36.87	-42.9	-47.4	11.0	2.50e-03	0	60	0	340787200	57	6038
2026-01-28 09:08:08.55	90.00	36.99	-42.8	-47.3	11.1	1.67e-03	0	60	0	342884352	57	5938
2026-01-28 09:08:09.56	89.62	37.11	-42.8	-47.2	11.3	1.11e-03	0	60	0	344981504	57	5861
2026-01-28 09:08:10.57	89.24	37.23	-42.7	-47.1	11.3	1.13e-03	0	60	0	346030080	57	5844
2026-01-28 09:08:11.58	88.86	37.34	-43.0	-47.7	10.7	2.06e-03	0	60	0	348127232	57	6221
2026-01-28 09:08:12.59	88.47	37.46	-43.0	-47.7	10.7	2.94e-03	0	60	0	350224384	57	6239
2026-01-28 09:08:13.60	88.09	37.57	-42.9	-47.4	11.0	2.37e-03	0	60	0	352321536	57	6026
2026-01-28 09:08:14.61	87.70	37.68	-42.8	-47.4	11.1	1.68e-03	0	60	0	354418688	57	5996
2026-01-28 09:08:15.62	87.31	37.80	-42.7	-47.1	11.4	1.16e-03	0	60	0	355467264	57	5802
2026-01-28 09:08:16.63	86.91	37.91	-42.5	-46.7	11.7	6.65e-04	0	60	0	357564416	57	5555
2026-01-28 09:08:17.64	86.51	38.02	-42.4	-46.4	12.1	4.98e-04	0	60	0	359661568	56	5674
2026-01-28 09:08:18.65	86.11	38.13	-42.3	-46.1	12.4	1.65e-04	0	60	0	361758720	56	5475
2026-01-28 09:08:19.66	85.71	38.23	-42.1	-45.7	12.8	5.64e-05	0	60	0	363855872	56	5252
2026-01-28 09:08:20.67	85.30	38.34	-42.1	-45.7	12.8	5.87e-05	0	60	0	364904448	56	5251
2026-01-28 09:08:21.68	84.89	38.44	-42.0	-45.6	12.9	5.11e-05	0	60	0	367001600	56	5211
2026-01-28 09:08:22.69	84.48	38.55	-41.8	-45.3	13.0	3.89e-05	0	60	0	369098752	55	5308
2026-01-28 09:08:23.70	84.07	38.65	-41.8	-45.3	13.1	3.12e-05	0	60	0	371195904	55	5280
2026-01-28 09:08:24.71	83.65	38.75	-41.9	-45.5	12.8	4.42e-05	0	60	0	373293056	55	5461
2026-01-28 09:08:25.72	83.23	38.85	-41.8	-45.4	13.0	5.03e-05	0	60	0	375390208	55	5353
2026-01-28 09:08:26.73	82.81	38.94	-41.8	-45.2	13.1	2.05e-05	0	60	0	376438784	55	5272
2026-01-28 09:08:27.74	82.39	39.04	-41.7	-45.1	13.3	2.67e-05	0	60	0	378535936	55	5181
2026-01-28 09:08:28.74	81.97	39.13	-41.7	-45.1	13.3	1.29e-05	0	60	0	380633088	55	5191
2026-01-28 09:08:29.75	81.54	39.23	-41.5	-44.8	13.6	2.13e-05	0	60	0	382730240	55	5013
2026-01-28 09:08:30.76	81.11	39.32	-41.5	-44.7	13.7	6.10e-06	0	60	0	384827392	54	5249
2026-01-28 09:08:31.77	80.67	39.41	-41.5	-44.7	13.7	1.06e-05	0	60	0	385875968	54	5257
2026-01-28 09:08:32.78	80.24	39.50	-41.4	-44.6	13.8	3.80e-06	0	60	0	387973120	54	5172
2026-01-28 09:08:33.79	79.80	39.58	-41.4	-44.5	14.0	6.80e-06	0	60	0	390070272	54	5112
2026-01-28 09:08:34.80	79.36	39.67	-41.2	-44.2	14.2	3.00e-06	0	60	0	392167424	54	4978
2026-01-28 09:08:35.81	78.91	39.75	-41.3	-44.3	14.2	2.20e-06	0	60	0	394264576	54	5007
2026-01-28 09:08:36.82	78.47	39.83	-41.1	-44.1	14.4	7.00e-07	0	60	0	395313152	54	4878
2026-01-28 09:08:37.83	78.02	39.91	-41.1	-44.0	14.4	0.00e+00	0	60	0	397410304	54	4855
2026-01-28 09:08:38.84	77.57	39.99	-41.2	-44.2	14.2	0.00e+00	0	60	0	399507456	54	4974
2026-01-28 09:08:39.85	77.12	40.06	-41.3	-44.4	14.0	0.00e+00	0	60	0	401604608	54	5067
2026-01-28 09:08:40.86	76.67	40.14	-41.3	-44.3	14.1	7.00e-07	0	60	0	403701760	54	5027
2026-01-28 09:08:41.87	76.21	40.21	-41.2	-44.3	14.2	1.50e-06	0	60	0	404750336	54	5001
2026-01-28 09:08:42.88	75.75	40.28	-41.2	-44.2	14.2	7.00e-07	0	60	0	406847488	54	4983
2026-01-28 09:08:43.89	75.29	40.35	-41.2	-44.3	14.1	3.00e-06	0	60	0	408944640	54	5013
2026-01-28 09:08:44.90	74.83	40.41	-41.2	-44.2	14.2	2.20e-06	0	60	0	411041792	54	4947
2026-01-28 09:08:45.91	74.37	40.48	-41.1	-44.1	14.4	2.20e-06	0	60	0	413138944	54	4884
2026-01-28 09:08:46.92	73.90	40.54	-41.0	-43.9	14.6	0.00e+00	0	60	0	414187520	54	4803
2026-01-28 09:08:47.93	73.43	40.60	-40.9	-43.8	14.7	7.00e-07	0	60	0	416284672	53	4990
2026-01-28 09:08:48.94	72.97	40.66	-41.0	-43.8	14.6	7.00e-07	0	60	0	418381824	53	5040
2026-01-28 09:08:49.95	72.50	40.71	-41.0	-43.9	14.5	0.00e+00	0	60	0	420478976	53	5081
2026-01-28 09:08:50.96	72.02	40.77	-41.1	-44.0	14.4	1.50e-06	0	60	0	422576128	53	5142
2026-01-28 09:08:51.97	71.55	40.82	-41.0	-43.9	14.5	7.00e-07	0	60	0	423624704	53	5095
2026-01-28 09:08:52.98	71.07	40.87	-41.1	-44.1	14.3	0.00e+00	0	60	0	425721856	53	5203
2026-01-28 09:08:53.99	70.60	40.91	-41.1	-44.1	14.4	7.00e-07	0	60	0	427819008	53	5168
2026-01-28 09:08:54.99	70.13	40.96	-41.1	-44.0	14.4	1.50e-06	0	60	0	429916160	53	5153
2026-01-28 09:08:56.00	69.65	41.00	-41.1	-44.1	14.4	1.50e-06	0	60	0	432013312	53	5169
2026-01-28 09:08:57.01	69.17	41.04	-41.1	-44.1	14.4	7.00e-07	0	60	0	433061888	53	5185
2026-01-28 09:08:58.02	68.68	41.08	-41.1	-44.1	14.3	7.00e-07	0	60	0	435159040	53	5199
2026-01-28 09:08:59.03	68.20	41.12	-41.3	-44.3	14.1	7.00e-07	0	60	0	437256192	53	5328
2026-01-28 09:09:00.04	67.72	41.15	-41.2	-44.2	14.3	0.00e+00	0	60	0	439353344	53	5277
2026-01-28 09:09:01.05	67.23	41.18	-41.3	-44.3	14.1	2.20e-06	0	60	0	441450496	53	5327
2026-01-28 09:09:02.06	66.75	41.21	-41.2	-44.2	14.2	7.00e-07	0	60	0	443547648	53	5276
2026-01-28 09:09:03.07	66.26	41.24	-41.3	-44.4	14.1	3.80e-06	0	60	0	444596224	53	5347
2026-01-28 09:09:04.08	65.77	41.26	-41.2	-44.3	14.2	2.20e-06	0	60	0	446693376	53	5284
2026-01-28 09:09:05.09	65.29	41.29	-41.4	-44.5	14.0	0.00e+00	0	60	0	448790528	53	5429
2026-01-28 09:09:06.10	64.80	41.31	-41.6	-45.0	13.5	7.60e-06	0	60	0	450887680	53	5729
2026-01-28 09:09:07.11	64.31	41.32	-41.8	-45.2	13.3	1.75e-05	0	60	0	452984832	54	5560
2026-01-28 09:09:08.12	63.82	41.34	-41.9	-45.4	13.0	3.96e-05	0	60	0	454033408	54	5719
2026-01-28 09:09:09.13	63.33	41.35	-41.9	-45.4	12.9	3.96e-05	0	60	0	456130560	54	5700
2026-01-28 09:09:10.14	62.84	41.36	-42.0	-45.6	12.9	3.96e-05	0	60	0	458227712	54	5800
2026-01-28 09:09:11.15	62.35	41.37	-42.1	-45.7	12.7	7.40e-05	0	60	0	460324864	54	5912
2026-01-28 09:09:12.16	61.86	41.38	-42.2	-46.1	12.3	1.01e-04	0	60	0	462422016	55	5819
2026-01-28 09:09:13.17	61.37	41.38	-42.3	-46.3	12.1	1.61e-04	0	60	0	463470592	55	5953
2026-01-28 09:09:14.18	60.88	41.38	-42.3	-46.3	12.1	2.84e-04	0	60	0	465567744	55	5937
2026-01-28 09:09:15.19	60.39	41.38	-42.3	-46.2	12.1	2.32e-04	0	60	0	467664896	55	5919
2026-01-28 09:09:16.20	59.90	41.38	-42.4	-46.4	12.0	2.46e-04	0	60	0	469762048	55	6013
2026-01-28 09:09:17.21	59.41	41.37	-42.6	-46.8	11.7	4.84e-04	0	60	0	471859200	55	6290
2026-01-28 09:09:18.22	58.91	41.36	-42.9	-47.3	11.1	9.56e-04	0	60	0	472907776	56	6342
2026-01-28 09:09:19.23	58.42	41.35	-42.9	-47.5	11.1	1.74e-03	0	60	0	475004928	56	6436
2026-01-28 09:09:20.24	57.94	41.34	-42.8	-47.1	11.4	1.01e-03	0	60	0	477102080	56	6195
2026-01-28 09:09:21.25	57.45	41.32	-42.7	-46.9	11.6	7.59e-04	0	60	0	479199232	56	6027
2026-01-28 09:09:22.26	56.96	41.30	-42.7	-46.9	11.7	5.26e-04	0	60	0	481296384	56	6047
2026-01-28 09:09:23.27	56.47	41.28	-42.9	-47.5	11.1	1.33e-03	0	60	0	482344960	56	6434
2026-01-28 09:09:24.28	55.98	41.26	-43.3	-48.3	10.2	4.30e-03	0	60	0	484442112	57	6647
2026-01-28 09:09:25.29	55.50	41.24	-43.4	-48.7	9.7	8.12e-03	0	60	0	486539264	57	7017
2026-01-28 09:09:26.30	55.01	41.21	-43.6	-49.3	9.3	1.21e-02	0	60	0	488636416	57	7472
2026-01-28 09:09:27.30	54.53	41.18	-43.6	-49.3	9.1	2.24e-02	0	60	0	490733568	57	7468
2026-01-28 09:09:28.31	54.05	41.15	-43.6	-49.2	9.2	1.97e-02	0	60	0	491782144	57	7428
2026-01-28 09:09:29.32	53.56	41.11	-43.4	-48.7	9.6	1.77e-02	0	60	0	493879296	57	7021
2026-01-28 09:09:30.33	53.08	41.08	-43.4	-48.7	9.7	1.07e-02	0	60	0	495976448	57	7030
2026-01-28 09:09:31.34	52.60	41.04	-43.5	-49.0	9.5	1.26e-02	0	60	0	498073600	57	7251
2026-01-28 09:09:32.35	52.12	41.00	-43.6	-49.2	9.2	2.18e-02	0	60	0	500170752	57	7431
2026-01-28 09:09:33.36	51.64	40.95	-43.6	-49.2	9.2	2.24e-02	0	60	0	501219328	57	7422
2026-01-28 09:09:34.37	51.16	40.91	-43.6	-49.2	9.1	2.17e-02	0	60	0	503316480	57	7391
2026-01-28 09:09:35.38	50.69	40.86	-43.5	-48.9	9.6	1.67e-02	0	60	0	505413632	57	7131
2026-01-28 09:09:36.39	50.21	40.81	-43.4	-48.5	9.9	1.05e-02	0	60	0	507510784	57	6877
2026-01-28 09:09:37.40	49.74	40.76	-43.3	-48.3	10.1	6.80e-03	0	60	0	509607936	57	6719
2026-01-28 09:09:38.41	49.27	40.71	-43.1	-48.0	10.4	5.53e-03	0	60	0	511705088	57	6462
2026-01-28 09:09:39.41	48.81	40.65	-43.0	-47.6	10.8	3.57e-03	0	60	0	512753664	57	6199
2026-01-28 09:09:40.42	48.34	40.59	-42.8	-47.2	11.4	1.45e-03	0	60	0	514850816	57	5860
2026-01-28 09:09:41.43	47.87	40.53	-42.6	-46.6	11.9	6.42e-04	0	60	0	516947968	57	5517
2026-01-28 09:09:42.44	47.41	40.47	-42.4	-46.3	12.2	2.78e-04	0	60	0	519045120	56	5645
2026-01-28 09:09:43.45	46.94	40.41	-42.2	-45.8	12.8	7.62e-05	0	60	0	521142272	56	5311
2026-01-28 09:09:44.46	46.48	40.34	-42.2	-45.9	12.7	5.11e-05	0	60	0	522190848	56	5358
2026-01-28 09:09:45.47	46.02	40.27	-42.2	-46.0	12.6	8.62e-05	0	60	0	524288000	56	5412
2026-01-28 09:09:46.48	45.57	40.20	-41.8	-45.2	13.2	3.50e-05	0	60	0	526385152	55	5258
2026-01-28 09:09:47.49	45.11	40.13	-41.4	-44.6	13.8	6.10e-06	0	60	0	528482304	54	5200
2026-01-28 09:09:48.50	44.66	40.06	-41.1	-44.0	14.4	3.80e-06	0	60	0	530579456	54	4868
2026-01-28 09:09:49.51	44.21	39.98	-41.1	-44.0	14.5	7.00e-07	0	60	0	531628032	54	4828
2026-01-28 09:09:50.52	43.76	39.90	-40.9	-43.7	14.8	7.00e-07	0	60	0	533725184	53	4934
2026-01-28 09:09:51.53	43.31	39.82	-40.8	-43.5	14.9	0.00e+00	0	60	0	535822336	53	4868
2026-01-28 09:09:52.54	42.87	39.74	-40.8	-43.6	14.8	0.00e+00	0	60	0	537919488	53	4887
2026-01-28 09:09:53.55	42.43	39.66	-40.8	-43.6	14.8	0.00e+00	0	60	0	540016640	53	4919
2026-01-28 09:09:54.56	41.99	39.57	-40.7	-43.5	14.9	0.00e+00	0	60	0	541065216	53	4843
2026-01-28 09:09:55.57	41.55	39.49	-40.6	-43.3	15.1	0.00e+00	0	60	0	543162368	53	4722
2026-01-28 09:09:56.58	41.12	39.40	-40.4	-43.0	15.4	0.00e+00	0	60	0	545259520	52	4855
2026-01-28 09:09:57.59	40.68	39.31	-40.4	-42.9	15.6	0.00e+00	0	60	0	547356672	52	4772
2026-01-28 09:09:58.60	40.25	39.22	-40.3	-42.9	15.5	0.00e+00	0	60	0	549453824	52	4762
2026-01-28 09:09:59.61	39.83	39.13	-40.2	-42.7	15.7	0.00e+00	0	60	0	550502400	52	4677
2026-01-28 09:10:00.63	39.40	39.03	-40.3	-42.8	15.6	0.00e+00	0	60	0	552599552	52	4723
2026-01-28 09:10:01.64	38.98	38.94	-40.4	-43.0	15.5	0.00e+00	0	60	0	554696704	52	4819
2026-01-28 09:10:02.65	38.56	38.84	-40.4	-42.9	15.5	0.00e+00	0	60	0	556793856	52	4787
2026-01-28 09:10:03.66	38.14	38.74	-40.4	-42.9	15.5	0.00e+00	0	60	0	558891008	52	4811
2026-01-28 09:10:04.67	37.72	38.64	-40.3	-42.8	15.5	0.00e+00	0	60	0	559939584	52	4749
2026-01-28 09:10:05.68	37.31	38.54	-40.2	-42.6	15.8	0.00e+00	0	60	0	562036736	52	4638
2026-01-28 09:10:06.69	36.90	38.43	-40.2	-42.6	15.8	0.00e+00	0	60	0	564133888	52	4650
2026-01-28 09:10:07.70	36.49	38.33	-40.2	-42.6	15.8	0.00e+00	0	60	0	566231040	52	4643
2026-01-28 09:10:08.71	36.09	38.22	-40.3	-42.8	15.6	0.00e+00	0	60	0	568328192	52	4751
2026-01-28 09:10:09.72	35.69	38.12	-40.4	-42.9	15.4	0.00e+00	0	60	0	569376768	52	4811
2026-01-28 09:10:10.73	35.29	38.01	-40.5	-43.1	15.4	0.00e+00	0	60	0	571473920	52	4889
2026-01-28 09:10:11.74	34.89	37.90	-40.6	-43.2	15.1	0.00e+00	0	60	0	573571072	52	4980
2026-01-28 09:10:12.75	34.50	37.79	-40.7	-43.4	15.0	0.00e+00	0	60	0	575668224	52	5068
2026-01-28 09:10:13.76	34.11	37.68	-40.7	-43.4	15.1	0.00e+00	0	60	0	577765376	52	5046
2026-01-28 09:10:14.77	33.72	37.56	-40.6	-43.4	15.0	0.00e+00	0	60	0	579862528	52	5055
2026-01-28 09:10:15.78	33.33	37.45	-40.6	-43.3	15.1	0.00e+00	0	60	0	580911104	52	4997
2026-01-28 09:10:16.79	32.95	37.33	-40.7	-43.5	14.9	0.00e+00	0	60	0	583008256	52	5102
2026-01-28 09:10:17.80	32.57	37.22	-40.7	-43.5	14.9	0.00e+00	0	60	0	585105408	52	5139
2026-01-28 09:10:18.81	32.19	37.10	-40.7	-43.4	15.0	0.00e+00	0	60	0	587202560	52	5082
2026-01-28 09:10:19.82	31.82	36.98	-40.7	-43.4	15.0	0.00e+00	0	60	0	589299712	52	5081
2026-01-28 09:10:20.83	31.45	36.86	-40.7	-43.5	14.9	0.00e+00	0	60	0	590348288	52	5129
2026-01-28 09:10:21.84	31.08	36.74	-40.7	-43.4	15.0	7.00e-07	0	60	0	592445440	52	5093
2026-01-28 09:10:22.85	30.71	36.62	-40.8	-43.7	14.7	0.00e+00	0	60	0	594542592	52	5238
2026-01-28 09:10:23.86	30.35	36.50	-40.9	-43.8	14.6	0.00e+00	0	60	0	596639744	52	5290
2026-01-28 09:10:24.87	29.99	36.38	-41.0	-43.9	14.4	1.50e-06	0	60	0	598736896	52	5396
2026-01-28 09:10:25.88	29.63	36.25	-41.0	-44.0	14.4	0.00e+00	0	60	0	599785472	52	5408
2026-01-28 09:10:26.89	29.27	36.13	-40.9	-43.9	14.6	0.00e+00	0	60	0	601882624	52	5348
2026-01-28 09:10:27.90	28.92	36.01	-41.0	-43.9	14.4	0.00e+00	0	60	0	603979776	52	5392
2026-01-28 09:10:28.91	28.57	35.88	-41.1	-44.1	14.2	2.20e-06	0	60	0	606076928	52	5527
2026-01-28 09:10:29.92	28.22	35.75	-41.2	-44.3	14.1	2.20e-06	0	60	0	608174080	53	5293
2026-01-28 09:10:30.93	27.88	35.63	-41.3	-44.4	14.0	5.30e-06	0	60	0	609222656	53	5386
2026-01-28 09:10:31.93	27.54	35.50	-41.3	-44.4	13.9	2.20e-06	0	60	0	611319808	53	5378
2026-01-28 09:10:32.94	27.20	35.37	-41.3	-44.4	14.0	3.00e-06	0	60	0	613416960	53	5382
2026-01-28 09:10:33.95	26.86	35.24	-41.4	-44.7	13.6	2.20e-06	0	60	0	615514112	53	5547
2026-01-28 09:10:34.96	26.53	35.11	-41.7	-45.1	13.3	2.51e-05	0	60	0	617611264	53	5833
2026-01-28 09:10:35.98	26.20	34.98	-41.9	-45.5	12.8	2.97e-05	0	60	0	618659840	54	5732
2026-01-28 09:10:36.98	25.87	34.85	-42.0	-45.7	12.6	7.01e-05	0	60	0	620756992	54	5872
2026-01-28 09:10:38.00	25.54	34.72	-41.9	-45.5	12.8	8.92e-05	0	60	0	622854144	54	5784
2026-01-28 09:10:39.01	25.22	34.59	-41.8	-45.4	12.9	5.56e-05	0	60	0	624951296	54	5710
2026-01-28 09:10:40.02	24.90	34.45	-41.8	-45.4	12.9	5.03e-05	0	60	0	627048448	54	5702
2026-01-28 09:10:41.03	24.58	34.32	-41.8	-45.4	12.9	5.41e-05	0	60	0	628097024	54	5703
2026-01-28 09:10:42.04	24.27	34.19	-42.0	-45.7	12.6	7.78e-05	0	60	0	630194176	54	5916
2026-01-28 09:10:43.05	23.95	34.06	-42.1	-46.0	12.3	1.36e-04	0	60	0	632291328	54	6106
2026-01-28 09:10:44.06	23.64	33.92	-42.3	-46.3	12.0	2.43e-04	0	60	0	634388480	55	5947
2026-01-28 09:10:45.07	23.34	33.79	-42.4	-46.5	11.7	4.87e-04	0	60	0	636485632	55	6103
2026-01-28 09:10:46.08	23.03	33.65	-42.2	-46.2	12.1	4.49e-04	0	60	0	637534208	55	5902
2026-01-28 09:10:47.09	22.73	33.52	-42.3	-46.3	11.9	3.93e-04	0	60	0	639631360	55	5945
2026-01-28 09:10:48.10	22.43	33.38	-42.4	-46.6	11.7	4.78e-04	0	60	0	641728512	55	6140
2026-01-28 09:10:49.11	22.13	33.25	-42.5	-46.9	11.4	6.81e-04	0	60	0	643825664	55	6372
2026-01-28 09:10:50.12	21.84	33.11	-42.6	-47.1	11.1	1.23e-03	0	60	0	645922816	55	6562
2026-01-28 09:10:51.13	21.54	32.97	-42.7	-47.2	11.0	1.96e-03	0	60	0	648019968	55	6640
2026-01-28 09:10:52.14	21.25	32.84	-42.9	-47.5	10.9	2.18e-03	0	60	0	649068544	56	6447
2026-01-28 09:10:53.15	20.97	32.70	-42.9	-47.5	10.9	2.23e-03	0	60	0	651165696	56	6433
2026-01-28 09:10:54.15	20.68	32.57	-42.8	-47.4	11.0	2.25e-03	0	60	0	653262848	56	6359
2026-01-28 09:10:55.16	20.40	32.43	-42.8	-47.3	11.0	1.66e-03	0	60	0	655360000	56	6341
2026-01-28 09:10:56.17	20.12	32.29	-42.9	-47.6	10.7	1.85e-03	0	60	0	657457152	56	6529
2026-01-28 09:10:57.18	19.84	32.16	-43.0	-47.9	10.5	3.09e-03	0	60	0	658505728	56	6736
2026-01-28 09:10:58.19	19.57	32.02	-43.1	-48.2	10.2	5.61e-03	0	60	0	660602880	56	6975
2026-01-28 09:10:59.20	19.30	31.88	-43.0	-47.9	10.5	5.21e-03	0	60	0	662700032	56	6758
2026-01-28 09:11:00.21	19.02	31.74	-42.9	-47.7	10.7	4.80e-03	0	60	0	664797184	56	6590
2026-01-28 09:11:01.22	18.76	31.61	-42.9	-47.6	10.8	3.09e-03	0	60	0	666894336	56	6522
2026-01-28 09:11:02.23	18.49	31.47	-42.9	-47.6	10.7	2.98e-03	0	60	0	667942912	56	6550
2026-01-28 09:11:03.24	18.23	31.33	-42.9	-47.6	10.7	2.84e-03	0	60	0	670040064	56	6561
2026-01-28 09:11:04.25	17.96	31.19	-42.9	-47.6	10.7	2.88e-03	0	60	0	672137216	56	6530
2026-01-28 09:11:05.26	17.71	31.06	-42.9	-47.7	10.7	2.63e-03	0	60	0	674234368	56	6571
2026-01-28 09:11:06.27	17.45	30.92	-42.9	-47.6	10.8	3.05e-03	0	60	0	676331520	56	6532
2026-01-28 09:11:07.28	17.19	30.78	-42.8	-47.4	10.9	2.13e-03	0	60	0	677380096	56	6394
2026-01-28 09:11:08.29	16.94	30.64	-42.8	-47.3	11.0	2.15e-03	0	60	0	679477248	56	6342
2026-01-28 09:11:09.30	16.69	30.50	-42.7	-47.2	11.1	1.69e-03	0	60	0	681574400	56	6259
2026-01-28 09:11:10.31	16.44	30.37	-42.7	-47.2	11.1	1.57e-03	0	60	0	683671552	56	6214
2026-01-28 09:11:11.32	16.20	30.23	-42.7	-47.1	11.3	1.18e-03	0	60	0	685768704	56	6144
2026-01-28 09:11:12.33	15.95	30.09	-42.6	-46.9	11.4	9.45e-04	0	60	0	686817280	56	6040
2026-01-28 09:11:13.34	15.71	29.95	-42.5	-46.7	11.6	7.36e-04	0	60	0	688914432	56	5918
2026-01-28 09:11:14.35	15.47	29.82	-42.5	-46.7	11.7	7.09e-04	0	60	0	691011584	56	5863
2026-01-28 09:11:15.36	15.23	29.68	-42.4	-46.4	12.0	4.87e-04	0	60	0	693108736	56	5710
2026-01-28 09:11:16.37	15.00	29.54	-42.4	-46.6	11.8	4.75e-04	0	60	0	695205888	56	5808
2026-01-28 09:11:17.38	14.76	29.41	-42.3	-46.4	11.9	4.25e-04	0	60	0	696254464	56	5673
2026-01-28 09:11:18.38	14.53	29.27	-42.3	-46.2	12.1	2.39e-04	0	60	0	698351616	56	5574
2026-01-28 09:11:19.40	14.30	29.13	-42.1	-45.9	12.4	1.94e-04	0	60	0	700448768	56	5386
2026-01-28 09:11:20.41	14.07	29.00	-42.1	-46.0	12.4	1.56e-04	0	60	0	702545920	56	5404
2026-01-28 09:11:21.42	13.85	28.86	-42.1	-45.8	12.5	1.21e-04	0	60	0	704643072	56	5328
2026-01-28 09:11:22.43	13.62	28.72	-42.1	-45.9	12.5	1.16e-04	0	60	0	705691648	56	5374
2026-01-28 09:11:23.44	13.40	28.59	-42.2	-46.0	12.3	1.65e-04	0	60	0	707788800	56	5430
2026-01-28 09:11:24.45	13.18	28.45	-42.2	-46.1	12.3	1.75e-04	0	60	0	709885952	56	5516
2026-01-28 09:11:25.46	12.96	28.32	-42.2	-46.1	12.3	1.97e-04	0	60	0	711983104	56	5467
2026-01-28 09:11:26.46	12.75	28.18	-42.1	-45.9	12.4	1.18e-04	0	60	0	714080256	56	5385
2026-01-28 09:11:27.47	12.53	28.05	-42.1	-45.9	12.4	1.23e-04	0	60	0	716177408	56	5368
2026-01-28 09:11:28.48	12.32	27.91	-42.1	-45.9	12.4	1.43e-04	0	60	0	717225984	56	5355
2026-01-28 09:11:29.49	12.11	27.78	-42.1	-45.9	12.5	1.33e-04	0	60	0	719323136	56	5342
2026-01-28 09:11:30.50	11.90	27.64	-42.1	-45.8	12.5	1.18e-04	0	60	0	721420288	56	5331
2026-01-28 09:11:31.51	11.69	27.51	-42.0	-45.8	12.6	1.38e-04	0	60	0	723517440	56	5282
2026-01-28 09:11:32.52	11.49	27.37	-41.8	-45.5	12.7	5.64e-05	0	60	0	725614592	55	5434
2026-01-28 09:11:33.53	11.28	27.24	-41.7	-45.3	12.8	6.86e-05	0	60	0	726663168	55	5327
2026-01-28 09:11:34.54	11.08	27.11	-41.8	-45.4	12.8	5.41e-05	0	60	0	728760320	55	5378
2026-01-28 09:11:35.55	10.88	26.97	-41.9	-45.6	12.6	9.07e-05	0	60	0	730857472	55	5478
2026-01-28 09:11:36.56	10.68	26.84	-41.9	-45.6	12.6	1.02e-04	0	60	0	732954624	55	5511
2026-01-28 09:11:37.57	10.48	26.71	-41.9	-45.7	12.5	1.29e-04	0	60	0	735051776	55	5540
2026-01-28 09:11:38.58	10.29	26.57	-41.9	-45.8	12.4	1.23e-04	0	60	0	736100352	55	5604
2026-01-28 09:11:39.59	10.10	26.44	-41.9	-45.7	12.4	1.45e-04	0	60	0	738197504	55	5566
2026-01-28 09:11:40.60	9.90	26.31	-41.8	-45.5	12.6	8.01e-05	0	60	0	740294656	55	5444
2026-01-28 09:11:41.61	9.71	26.18	-41.8	-45.6	12.5	8.54e-05	0	60	0	742391808	55	5496
2026-01-28 09:11:42.63	9.52	26.04	-41.7	-45.3	12.8	1.06e-04	0	60	0	744488960	55	5339
2026-01-28 09:11:43.64	9.34	25.91	-41.8	-45.4	12.7	7.01e-05	0	60	0	745537536	55	5393
2026-01-28 09:11:44.65	9.15	25.78	-41.8	-45.5	12.6	7.62e-05	0	60	0	747634688	55	5431
2026-01-28 09:11:45.66	8.97	25.65	-41.8	-45.6	12.5	9.46e-05	0	60	0	749731840	55	5473
2026-01-28 09:11:46.66	8.78	25.52	-41.9	-45.8	12.4	1.44e-04	0	60	0	751828992	55	5602
2026-01-28 09:11:47.67	8.60	25.39	-42.0	-45.9	12.2	1.71e-04	0	60	0	753926144	55	5707
2026-01-28 09:11:48.68	8.42	25.26	-42.0	-46.0	12.1	2.51e-04	0	60	0	754974720	55	5748
2026-01-28 09:11:49.69	8.25	25.14	-42.0	-46.0	12.1	2.76e-04	0	60	0	757071872	55	5725
2026-01-28 09:11:50.70	8.07	25.01	-42.0	-46.1	12.0	2.91e-04	0	60	0	759169024	55	5810
2026-01-28 09:11:51.71	7.89	24.88	-42.0	-46.0	12.1	2.67e-04	0	60	0	761266176	55	5738
2026-01-28 09:11:52.72	7.72	24.75	-42.1	-46.1	11.9	3.34e-04	0	60	0	763363328	55	5853
2026-01-28 09:11:53.73	7.55	24.62	-42.0	-46.0	12.1	3.07e-04	0	60	0	764411904	55	5746
2026-01-28 09:11:54.74	7.38	24.49	-42.0	-45.9	12.1	2.87e-04	0	60	0	766509056	55	5717
2026-01-28 09:11:55.75	7.21	24.37	-41.9	-45.8	12.3	2.33e-04	0	60	0	768606208	55	5630
2026-01-28 09:11:56.76	7.04	24.24	-41.9	-45.9	12.2	2.30e-04	0	60	0	770703360	55	5661
2026-01-28 09:11:57.77	6.87	24.11	-41.8	-45.7	12.4	2.08e-04	0	60	0	772800512	55	5561
2026-01-28 09:11:58.78	6.71	23.99	-41.9	-45.9	12.2	1.88e-04	0	60	0	773849088	55	5666
2026-01-28 09:11:59.79	6.54	23.86	-41.8	-45.9	12.1	2.33e-04	0	60	0	775946240	55	5673
2026-01-28 09:12:00.80	6.38	23.74	-41.8	-45.8	12.3	1.99e-04	0	60	0	778043392	55	5610
2026-01-28 09:12:01.81	6.22	23.61	-41.7	-45.7	12.3	1.87e-04	0	60	0	780140544	55	5538
2026-01-28 09:12:02.82	6.06	23.49	-41.7	-45.7	12.4	1.66e-04	0	60	0	782237696	55	5551
2026-01-28 09:12:03.83	5.90	23.36	-41.6	-45.5	12.6	1.33e-04	0	60	0	784334848	55	5405
2026-01-28 09:12:04.84	5.74	23.24	-41.6	-45.4	12.6	9.91e-05	0	60	0	785383424	55	5390
2026-01-28 09:12:05.85	5.59	23.11	-41.5	-45.4	12.7	7.70e-05	0	60	0	787480576	55	5363
2026-01-28 09:12:06.86	5.43	22.99	-41.5	-45.3	12.7	6.48e-05	0	60	0	789577728	55	5327
2026-01-28 09:12:07.87	5.28	22.87	-41.6	-45.5	12.6	8.39e-05	0	60	0	791674880	55	5421
2026-01-28 09:12:08.88	5.13	22.75	-41.7	-45.7	12.4	1.43e-04	0	60	0	793772032	55	5537
2026-01-28 09:12:09.89	4.98	22.62	-41.8	-45.9	12.1	2.55e-04	0	60	0	794820608	55	5721
2026-01-28 09:12:10.90	4.83	22.50	-41.9	-46.1	11.9	3.20e-04	0	60	0	796917760	55	5800
2026-01-28 09:12:11.91	4.68	22.38	-42.0	-46.2	11.8	4.71e-04	0	60	0	799014912	55	5885
2026-01-28 09:12:12.92	4.53	22.26	-42.0	-46.3	11.7	5.99e-04	0	60	0	801112064	55	5957
2026-01-28 09:12:13.93	4.38	22.14	-42.0	-46.2	11.7	6.03e-04	0	60	0	803209216	55	5919
2026-01-28 09:12:14.94	4.24	22.02	-42.0	-46.3	11.7	6.05e-04	0	60	0	804257792	55	5927
2026-01-28 09:12:15.95	4.09	21.90	-42.0	-46.2	11.7	5.85e-04	0	60	0	806354944	55	5901
2026-01-28 09:12:16.96	3.95	21.78	-42.0	-46.2	11.8	5.68e-04	0	60	0	808452096	55	5858
2026-01-28 09:12:17.97	3.81	21.66	-42.0	-46.2	11.8	5.12e-04	0	60	0	810549248	55	5862
2026-01-28 09:12:18.98	3.67	21.54	-42.0	-46.1	11.8	4.62e-04	0	60	0	812646400	55	5828
2026-01-28 09:12:19.99	3.53	21.42	-41.9	-45.9	12.0	4.00e-04	0	60	0	813694976	55	5722
2026-01-28 09:12:21.00	3.39	21.30	-41.9	-45.9	12.0	3.91e-04	0	60	0	815792128	55	5717
2026-01-28 09:12:22.01	3.25	21.19	-41.9	-45.9	12.0	3.19e-04	0	60	0	817889280	55	5684
2026-01-28 09:12:23.02	3.12	21.07	-41.8	-45.8	12.1	2.59e-04	0	60	0	819986432	55	5640
2026-01-28 09:12:24.03	2.98	20.95	-41.8	-45.8	12.1	2.53e-04	0	60	0	822083584	55	5630
2026-01-28 09:12:25.04	2.85	20.83	-41.8	-45.8	12.1	2.47e-04	0	60	0	823132160	55	5626
2026-01-28 09:12:26.05	2.71	20.72	-41.8	-45.7	12.3	2.24e-04	0	60	0	825229312	55	5551
2026-01-28 09:12:27.06	2.58	20.60	-41.8	-45.7	12.3	1.88e-04	0	60	0	827326464	55	5548
2026-01-28 09:12:28.07	2.45	20.49	-41.8	-45.7	12.2	2.12e-04	0	60	0	829423616	55	5585
2026-01-28 09:12:29.08	2.32	20.37	-41.8	-45.8	12.1	2.53e-04	0	60	0	831520768	55	5606
2026-01-28 09:12:30.09	2.19	20.26	-41.8	-45.8	12.1	2.84e-04	0	60	0	832569344	55	5634
2026-01-28 09:12:31.10	2.06	20.14	-41.8	-45.8	12.1	3.09e-04	0	60	0	834666496	55	5619
2026-01-28 09:12:32.11	1.93	20.03	-41.8	-45.8	12.0	2.99e-04	0	60	0	836763648	55	5655
2026-01-28 09:12:33.12	1.81	19.92	-41.8	-45.7	12.2	2.56e-04	0	60	0	838860800	55	5562
2026-01-28 09:12:34.13	1.68	19.80	-41.8	-45.8	12.0	2.82e-04	0	60	0	840957952	55	5634
2026-01-28 09:12:35.14	1.56	19.69	-41.8	-45.9	12.0	2.44e-04	0	60	0	842006528	55	5669
2026-01-28 09:12:36.15	1.43	19.58	-41.8	-45.9	12.0	3.74e-04	0	60	0	844103680	55	5665
2026-01-28 09:12:37.16	1.31	19.46	-41.8	-45.7	12.1	3.25e-04	0	60	0	846200832	55	5587
2026-01-28 09:12:38.17	1.19	19.35	-41.7	-45.6	12.2	2.17e-04	0	60	0	848297984	55	5500
2026-01-28 09:12:39.18	1.07	19.24	-41.7	-45.6	12.3	1.94e-04	0	60	0	850395136	55	5468
2026-01-28 09:12:40.19	0.95	19.13	-41.7	-45.5	12.3	1.82e-04	0	60	0	852492288	55	5455
2026-01-28 09:12:41.20	0.83	19.02	-41.6	-45.5	12.3	1.86e-04	0	60	0	853540864	55	5428
2026-01-28 09:12:42.21	0.71	18.91	-41.6	-45.5	12.4	1.79e-04	0	60	0	855638016	55	5403
2026-01-28 09:12:43.22	0.60	18.80	-41.6	-45.4	12.4	1.59e-04	0	60	0	857735168	55	5387
2026-01-28 09:12:44.22	0.48	18.69	-41.5	-45.4	12.4	1.73e-04	0	60	0	859832320	55	5352
2026-01-28 09:12:45.23	0.37	18.58	-41.6	-45.4	12.3	1.81e-04	0	60	0	861929472	55	5402
2026-01-28 09:12:46.24	0.25	18.47	-41.6	-45.5	12.3	1.84e-04	0	60	0	862978048	55	5423
2026-01-28 09:12:47.25	0.14	18.36	-41.6	-45.6	12.2	2.27e-04	0	60	0	865075200	55	5465
2026-01-28 09:12:48.26	0.02	18.26	-41.7	-45.7	12.0	3.17e-04	0	60	0	867172352	55	5555
2026-01-28 09:12:49.27	359.91	18.15	-41.7	-45.8	11.9	3.31e-04	0	60	0	869269504	55	5593
2026-01-28 09:12:50.28	359.80	18.04	-41.8	-46.0	11.7	4.71e-04	0	60	0	871366656	55	5737
2026-01-28 09:12:51.29	359.69	17.93	-41.8	-46.0	11.6	6.27e-04	0	60	0	872415232	55	5753
2026-01-28 09:12:52.30	359.58	17.83	-41.8	-46.1	11.5	7.19e-04	0	60	0	874512384	55	5821
2026-01-28 09:12:53.31	359.47	17.72	-41.8	-46.2	11.4	9.31e-04	0	60	0	876609536	55	5871
2026-01-28 09:12:54.32	359.36	17.61	-41.8	-46.1	11.5	9.22e-04	0	60	0	878706688	55	5838
2026-01-28 09:12:55.33	359.26	17.51	-41.8	-46.1	11.5	9.15e-04	0	60	0	880803840	55	5810
2026-01-28 09:12:56.34	359.15	17.40	-41.7	-46.0	11.5	7.81e-04	0	60	0	881852416	55	5767
2026-01-28 09:12:57.35	359.04	17.30	-41.7	-46.0	11.5	7.76e-04	0	60	0	883949568	55	5759
2026-01-28 09:12:58.36	358.94	17.19	-41.7	-46.0	11.3	1.16e-03	0	60	0	886046720	55	5787
2026-01-28 09:12:59.37	358.83	17.09	-41.6	-45.9	11.3	1.07e-03	0	60	0	888143872	55	5680
2026-01-28 09:13:00.38	358.73	16.98	-41.6	-45.9	11.1	1.33e-03	0	60	0	890241024	55	5662
2026-01-28 09:13:01.39	358.63	16.88	-41.5	-46.0	10.5	2.67e-03	0	60	0	891289600	55	5747
2026-01-28 09:13:02.40	358.53	16.78	-41.5	-46.1	10.0	5.74e-03	0	60	0	893386752	55	5794
2026-01-28 09:13:03.41	358.43	16.67	-41.3	-46.0	9.3	1.10e-02	0	60	0	895483904	54	6081
2026-01-28 09:13:04.42	358.32	16.57	-41.1	-45.7	9.2	1.80e-02	0	60	0	897581056	54	5886
2026-01-28 09:13:05.43	358.22	16.47	-41.0	-45.6	9.0	2.03e-02	0	60	0	899678208	54	5820
2026-01-28 09:13:06.44	358.13	16.37	-41.1	-45.7	9.3	2.29e-02	0	60	0	900726784	54	5880
2026-01-28 09:13:07.45	358.03	16.27	-41.3	-46.0	9.6	1.06e-02	0	60	0	902823936	54	6128
2026-01-28 09:13:08.46	357.93	16.16	-41.1	-46.0	8.4	2.38e-02	0	60	0	904921088	54	6127
2026-01-28 09:13:09.47	357.83	16.06	-40.8	-45.9	7.5	9.08e-02	0	60	0	907018240	53	6362
2026-01-28 09:13:10.48	357.74	15.96	-40.6	-45.6	7.8	6.50e-02	0	60	0	909115392	53	6166
2026-01-28 09:13:11.49	357.64	15.86	-40.0	-45.3	6.3	1.85e-01	0	60	0	910163968	51	6701
2026-01-28 09:13:12.50	357.54	15.76	-39.9	-45.4	6.1	2.85e-01	0	60	0	912261120	51	6740
2026-01-28 09:13:13.51	357.45	15.66	-40.2	-45.6	6.5	2.20e-01	0	60	0	914358272	51	6949
2026-01-28 09:13:14.52	357.36	15.56	-40.4	-46.0	6.5	2.07e-01	0	60	0	916455424	51	7270
2026-01-28 09:13:15.53	357.26	15.46	-40.8	-46.3	7.4	1.54e-01	0	60	0	918552576	52	7106
2026-01-28 09:13:16.53	357.17	15.37	-41.0	-46.7	7.6	7.18e-02	0	60	0	920649728	52	7420
2026-01-28 09:13:17.55	357.08	15.27	-41.2	-46.8	8.1	2.22e-01	0	60	0	921698304	53	7046
2026-01-28 09:13:18.55	356.99	15.17	-40.6	-48.0	4.9	1.01e+00	0	60	0	923795456	53	8158
2026-01-28 09:13:19.56	356.90	15.07	-41.0	-46.2	9.0	8.46e-01	0	60	0	925892608	52	6961
2026-01-28 09:13:20.57	356.81	14.98	-41.2	-46.7	8.4	4.50e-01	0	60	0	927989760	54	6627
2026-01-28 09:13:21.58	356.72	14.88	-40.6	-45.6	9.3	2.51e-02	0	60	0	930086912	53	6198
2026-01-28 09:13:22.59	356.63	14.78	-40.4	-45.7	7.9	4.19e-02	0	60	0	931135488	52	6644
2026-01-28 09:13:23.60	356.54	14.69	-40.6	-46.1	8.3	4.54e-02	0	60	0	933232640	52	6924
2026-01-28 09:13:24.61	356.45	14.59	-40.6	-46.3	8.1	7.62e-02	0	60	0	935329792	52	7099
2026-01-28 09:13:25.62	356.37	14.49	-40.7	-47.0	7.0	7.00e-02	0	60	0	937426944	52	7683
2026-01-28 09:13:26.63	356.28	14.40	-41.0	-47.8	7.0	1.59e-01	0	60	0	939524096	52	8391
2026-01-28 09:13:27.64	356.19	14.30	-41.0	-48.5	6.1	2.87e-01	0	60	0	940572672	52	9166
2026-01-28 09:13:28.65	356.11	14.21	-41.0	-49.0	5.6	3.40e-01	0	60	0	942669824	52	9694
2026-01-28 09:13:29.66	356.02	14.11	-41.1	-49.7	5.4	4.73e-01	0	60	0	944766976	52	10481
2026-01-28 09:13:30.67	355.94	14.02	-41.0	-51.3	4.5	7.60e-01	12	60	0	946864128	52	12605
2026-01-28 09:13:31.68	355.86	13.93	-40.9	-53.2	3.8	1.31e+00	0	60	104	947912704	52	15647
2026-01-28 09:13:32.69	355.77	13.83	-41.5	-53.0	3.9	1.49e+00	0	60	104	947912704	53	14540
2026-01-28 09:13:33.70	355.69	13.74	-40.7	-54.4	3.8	1.49e+00	0	60	104	947912704	53	17051
2026-01-28 09:13:34.70	355.61	13.65	-41.4	-52.9	3.9	1.49e+00	0	60	104	947912704	53	14285
2026-01-28 09:13:35.71	355.53	13.55	-41.7	-53.8	3.8	1.48e+00	0	60	104	947912704	54	14937
2026-01-28 09:13:36.72	355.45	13.46	-41.5	-54.1	3.8	1.48e+00	0	60	104	947912704	54	15530
2026-01-28 09:13:37.74	355.37	13.37	-41.4	-54.3	3.8	1.49e+00	0	60	104	947912704	54	15818
2026-01-28 09:13:38.74	355.29	13.28	-41.3	-54.4	3.8	1.49e+00	0	60	104	947912704	54	15952
2026-01-28 09:13:39.75	355.21	13.18	-41.3	-54.8	3.8	1.49e+00	0	60	104	947912704	54	16816
2026-01-28 09:13:40.76	355.13	13.09	-40.4	-54.7	3.8	1.49e+00	0	60	104	947912704	52	18710
2026-01-28 09:13:41.77	355.05	13.00	-40.5	-54.9	3.8	1.49e+00	0	60	104	947912704	52	19050
2026-01-28 09:13:42.78	354.97	12.91	-40.6	-54.7	3.8	1.49e+00	0	60	104	947912704	52	18683
2026-01-28 09:13:43.79	354.90	12.82	-40.4	-54.8	3.8	1.49e+00	0	60	104	947912704	52	18794
2026-01-28 09:13:44.80	354.82	12.73	-40.6	-54.9	3.8	1.49e+00	0	60	104	947912704	52	18975
2026-01-28 09:13:45.81	354.74	12.64	-40.5	-54.8	3.8	1.49e+00	0	60	104	947912704	52	18935
2026-01-28 09:13:46.83	354.67	12.55	-40.5	-54.8	3.8	1.49e+00	0	60	104	947912704	52	18832
2026-01-28 09:13:47.84	354.59	12.46	-40.3	-54.7	3.8	1.49e+00	0	60	104	947912704	52	18641
2026-01-28 09:13:48.85	354.52	12.37	-40.4	-54.8	3.8	1.49e+00	0	60	104	947912704	52	18898
2026-01-28 09:13:49.86	354.44	12.28	-40.4	-54.7	3.8	1.49e+00	0	60	104	947912704	52	18717
2026-01-28 09:13:50.87	354.37	12.19	-40.3	-54.7	3.8	1.49e+00	0	61	104	947912704	52	18585
2026-01-28 09:13:51.88	354.29	12.11	-40.2	-54.6	3.8	1.49e+00	0	60	104	947912704	52	18375
2026-01-28 09:13:52.89	354.22	12.02	-40.4	-54.8	3.8	1.49e+00	0	60	104	947912704	52	18846
2026-01-28 09:13:53.90	354.15	11.93	-40.4	-54.8	3.8	1.49e+00	0	60	104	947912704	52	18759
2026-01-28 09:13:54.91	354.08	11.84	-40.2	-54.6	3.8	1.49e+00	0	60	104	947912704	52	18331
2026-01-28 09:13:55.92	354.00	11.76	-40.1	-54.5	3.8	1.49e+00	0	60	104	947912704	52	18296
2026-01-28 09:13:56.93	353.93	11.67	-40.4	-54.8	3.8	1.49e+00	0	60	104	947912704	52	18763
2026-01-28 09:13:57.94	353.86	11.58	-40.3	-54.8	3.8	1.49e+00	0	60	104	947912704	52	18758
2026-01-28 09:13:58.95	353.79	11.50	-40.1	-54.5	3.8	1.49e+00	0	60	104	947912704	52	18120
2026-01-28 09:13:59.96	353.72	11.41	-40.1	-54.5	3.8	1.49e+00	0	60	104	947912704	52	18277
2026-01-28 09:14:00.97	353.65	11.32	-40.3	-54.7	3.8	1.49e+00	0	60	104	947912704	52	18673
2026-01-28 09:14:01.98	353.58	11.24	-40.4	-54.8	3.8	1.49e+00	0	60	104	947912704	52	18884
2026-01-28 09:14:02.99	353.51	11.15	-40.1	-54.4	3.8	1.49e+00	0	60	104	947912704	52	18077
2026-01-28 09:14:04.00	353.45	11.07	-40.2	-54.6	3.8	1.49e+00	0	60	104	947912704	52	18360
2026-01-28 09:14:05.01	353.38	10.98	-40.2	-54.6	3.8	1.49e+00	0	60	104	947912704	52	18400
2026-01-28 09:14:06.02	353.31	10.90	-40.5	-54.9	3.8	1.49e+00	0	60	104	947912704	52	19151
2026-01-28 09:14:07.03	353.24	10.81	-40.1	-54.5	3.8	1.49e+00	0	60	104	947912704	52	18126
2026-01-28 09:14:08.04	353.18	10.73	-40.3	-54.7	3.8	1.49e+00	0	60	104	947912704	52	18700
2026-01-28 09:14:09.05	353.11	10.65	-40.1	-54.5	3.8	1.49e+00	0	60	104	947912704	52	18290
