passes_logs/2026/01/28/R2.0S_Moscow/R2.0S_Moscow__20260128_125908_FENGYUN_3D_rec.log

#Pass ID: 20260128_125908_FENGYUN 3D
#Satellite: FENGYUN 3D
#Configuration: FENGYUN 3D
#almurnet v.1.7.20251203
#Start time: 2026-01-28 12:59:09

#Version: 2.2.20231116
#Station: R2.0S_Moscow
#Location: 37.707566 lon 55.798166 lat
#TLE: 1 43010U 17072A   26027.90082829  .00000305  00000+0  16579-3 0  9998
#TLE: 2 43010  98.9960 359.9183 0002511  88.1058 272.0405 14.19701796425082

#Time	Az	El	Level	Level2	SNR	BER	BlckErr	Temp	State	Recorded	gain1	gain2
2026-01-28 12:59:09.44	189.98	2.03	-44.1	-55.8	3.8	8.45e-01	0	50	0	0	59	14058
2026-01-28 12:59:10.44	190.02	2.09	-44.0	-55.8	3.8	8.46e-01	0	50	104	0	59	14056
2026-01-28 12:59:11.45	190.07	2.15	-44.0	-55.8	3.8	8.45e-01	0	50	104	0	59	14055
2026-01-28 12:59:12.46	190.12	2.21	-44.0	-55.8	3.8	8.46e-01	0	50	104	0	59	14050
2026-01-28 12:59:13.48	190.17	2.28	-44.0	-55.8	3.8	8.47e-01	0	50	104	0	59	14095
2026-01-28 12:59:14.49	190.22	2.34	-44.0	-55.8	3.8	8.46e-01	0	50	104	0	59	14049
2026-01-28 12:59:15.50	190.27	2.40	-44.0	-55.8	3.8	8.47e-01	0	50	104	0	59	14087
2026-01-28 12:59:16.51	190.32	2.46	-44.0	-55.8	3.8	8.46e-01	0	50	104	0	59	14054
2026-01-28 12:59:17.52	190.37	2.52	-44.0	-55.8	3.8	8.45e-01	0	51	104	0	59	14067
2026-01-28 12:59:18.53	190.42	2.59	-44.0	-55.8	3.8	8.46e-01	0	51	104	0	59	14083
2026-01-28 12:59:19.54	190.47	2.65	-44.0	-55.7	3.8	8.46e-01	0	51	104	0	59	14031
2026-01-28 12:59:20.55	190.52	2.71	-44.0	-55.7	3.8	8.46e-01	0	51	104	0	59	14042
2026-01-28 12:59:21.56	190.57	2.77	-44.0	-55.8	3.8	8.45e-01	0	51	104	0	59	14070
2026-01-28 12:59:22.57	190.62	2.84	-44.0	-55.7	3.8	8.46e-01	0	51	104	0	59	14021
2026-01-28 12:59:23.58	190.67	2.90	-44.0	-55.8	3.8	8.46e-01	0	51	104	0	59	14066
2026-01-28 12:59:24.59	190.72	2.96	-44.0	-55.7	3.8	8.46e-01	0	51	104	0	59	14037
2026-01-28 12:59:25.61	190.77	3.02	-44.0	-55.8	3.8	8.46e-01	0	51	104	0	59	14054
2026-01-28 12:59:26.62	190.83	3.09	-44.0	-55.7	3.8	8.46e-01	0	51	104	0	59	14029
2026-01-28 12:59:27.62	190.88	3.15	-44.0	-55.7	3.8	8.47e-01	0	51	104	0	59	13996
2026-01-28 12:59:28.63	190.93	3.21	-44.0	-55.7	3.8	8.45e-01	0	51	104	0	59	14015
2026-01-28 12:59:29.65	190.98	3.28	-44.0	-55.7	3.8	8.46e-01	0	52	104	0	59	14005
2026-01-28 12:59:30.66	191.03	3.34	-44.0	-55.7	3.8	8.46e-01	0	51	104	0	59	14010
2026-01-28 12:59:31.67	191.09	3.41	-44.0	-55.7	3.8	8.46e-01	0	52	104	0	59	14016
2026-01-28 12:59:32.68	191.14	3.47	-44.0	-55.7	3.8	8.45e-01	0	52	104	0	59	14004
2026-01-28 12:59:33.68	191.19	3.53	-44.0	-55.7	3.8	8.47e-01	0	52	104	0	59	14020
2026-01-28 12:59:34.69	191.24	3.60	-44.0	-55.7	3.8	8.45e-01	0	52	104	0	59	13991
2026-01-28 12:59:35.70	191.30	3.66	-44.0	-55.7	3.8	8.47e-01	0	52	104	0	59	14032
2026-01-28 12:59:36.72	191.35	3.73	-44.0	-55.7	3.8	8.46e-01	0	52	104	0	59	13961
2026-01-28 12:59:37.73	191.41	3.79	-44.0	-55.7	3.8	8.46e-01	0	52	104	0	59	13972
2026-01-28 12:59:38.74	191.46	3.86	-44.0	-55.7	3.8	8.47e-01	0	52	104	0	59	14021
2026-01-28 12:59:39.75	191.51	3.92	-44.0	-55.7	3.8	8.46e-01	0	52	104	0	59	13969
2026-01-28 12:59:40.76	191.57	3.98	-44.0	-55.7	3.8	8.45e-01	0	52	104	0	59	13970
2026-01-28 12:59:41.77	191.62	4.05	-44.0	-55.7	3.8	8.46e-01	0	52	104	0	59	13941
2026-01-28 12:59:42.78	191.68	4.11	-44.0	-55.7	3.8	8.46e-01	0	52	104	0	59	13975
2026-01-28 12:59:43.79	191.73	4.18	-44.0	-55.7	3.8	8.46e-01	0	52	104	0	59	13943
2026-01-28 12:59:44.80	191.79	4.25	-44.0	-55.7	3.8	8.45e-01	0	52	104	0	59	13966
2026-01-28 12:59:45.81	191.85	4.31	-44.0	-55.6	3.8	8.47e-01	0	53	104	0	59	13848
2026-01-28 12:59:46.82	191.90	4.38	-44.0	-55.6	3.8	8.46e-01	0	53	104	0	59	13763
2026-01-28 12:59:47.83	191.96	4.44	-44.0	-55.6	3.8	8.46e-01	0	53	104	0	59	13814
2026-01-28 12:59:48.84	192.01	4.51	-44.0	-55.6	3.8	8.45e-01	0	53	104	0	59	13795
2026-01-28 12:59:49.85	192.07	4.58	-44.0	-55.5	3.8	8.46e-01	0	53	104	0	59	13686
2026-01-28 12:59:50.86	192.13	4.64	-44.0	-55.4	3.8	8.45e-01	0	53	104	0	59	13549
2026-01-28 12:59:51.87	192.19	4.71	-43.9	-55.4	3.8	8.46e-01	0	53	104	0	59	13471
2026-01-28 12:59:52.88	192.24	4.77	-44.0	-55.3	3.8	8.45e-01	0	53	104	0	59	13395
2026-01-28 12:59:53.89	192.30	4.84	-44.0	-55.4	3.8	8.47e-01	0	53	104	0	59	13508
2026-01-28 12:59:54.90	192.36	4.91	-44.0	-55.4	3.8	8.47e-01	0	53	104	0	59	13501
2026-01-28 12:59:55.91	192.42	4.98	-44.0	-55.4	3.8	8.46e-01	0	53	104	0	59	13506
2026-01-28 12:59:56.92	192.48	5.04	-44.0	-55.4	3.8	8.46e-01	0	53	104	0	59	13560
2026-01-28 12:59:57.93	192.53	5.11	-44.0	-55.3	3.8	8.46e-01	0	53	104	0	59	13361
2026-01-28 12:59:58.95	192.59	5.18	-43.9	-55.2	3.8	8.47e-01	0	53	104	0	59	13173
2026-01-28 12:59:59.96	192.65	5.25	-43.9	-55.0	3.8	8.46e-01	0	53	104	0	59	12869
2026-01-28 13:00:00.97	192.71	5.31	-43.9	-54.8	3.8	8.46e-01	0	53	104	0	59	12649
2026-01-28 13:00:01.98	192.77	5.38	-43.9	-54.8	3.8	8.45e-01	0	53	104	0	59	12555
2026-01-28 13:00:02.99	192.83	5.45	-43.9	-54.6	3.8	8.45e-01	0	53	104	0	59	12262
2026-01-28 13:00:04.00	192.89	5.52	-43.8	-54.3	3.8	8.45e-01	0	53	104	0	59	11917
2026-01-28 13:00:05.01	192.95	5.59	-43.8	-54.0	3.8	8.46e-01	0	53	104	0	59	11498
2026-01-28 13:00:06.02	193.01	5.65	-43.8	-53.6	3.9	8.45e-01	0	53	104	0	59	10953
2026-01-28 13:00:07.03	193.07	5.72	-43.7	-53.4	3.8	8.44e-01	0	54	104	0	59	10666
2026-01-28 13:00:08.04	193.14	5.79	-43.7	-53.0	3.9	8.43e-01	0	54	104	0	59	10279
2026-01-28 13:00:09.05	193.20	5.86	-43.6	-52.6	4.1	8.41e-01	0	54	0	0	59	9748
2026-01-28 13:00:10.06	193.26	5.93	-43.6	-52.2	4.2	8.39e-01	0	54	0	0	59	9370
2026-01-28 13:00:11.07	193.32	6.00	-43.5	-51.7	4.3	8.34e-01	0	54	0	0	59	8862
2026-01-28 13:00:12.08	193.38	6.07	-43.4	-51.3	4.5	8.28e-01	0	54	0	0	58	8928
2026-01-28 13:00:13.09	193.45	6.14	-43.3	-50.7	4.7	8.11e-01	0	54	0	0	58	8364
2026-01-28 13:00:14.10	193.51	6.21	-43.2	-50.3	4.9	7.90e-01	0	54	0	0	58	7964
2026-01-28 13:00:15.11	193.57	6.28	-43.0	-49.8	5.2	7.52e-01	0	54	0	0	58	7479
2026-01-28 13:00:16.13	193.64	6.35	-42.9	-49.2	5.6	7.08e-01	0	54	0	0	57	7406
2026-01-28 13:00:17.14	193.70	6.42	-42.8	-48.7	5.9	4.10e-01	0	54	0	4194304	57	7010
2026-01-28 13:00:18.15	193.77	6.49	-42.6	-48.2	6.3	3.22e-01	0	54	0	10485760	57	6634
2026-01-28 13:00:19.16	193.83	6.56	-42.4	-47.7	6.7	2.37e-01	0	54	0	15728640	56	6631
2026-01-28 13:00:20.17	193.90	6.63	-42.2	-47.2	7.2	1.77e-01	0	54	0	20971520	56	6246
2026-01-28 13:00:21.18	193.96	6.70	-42.0	-46.7	7.7	1.12e-01	0	54	0	27262976	56	5874
2026-01-28 13:00:22.19	194.03	6.77	-41.7	-46.0	8.2	7.57e-02	0	54	0	32505856	55	5785
2026-01-28 13:00:23.20	194.09	6.84	-41.4	-45.5	8.8	4.24e-02	0	54	0	38797312	54	5724
2026-01-28 13:00:24.21	194.16	6.92	-41.1	-44.8	9.4	2.38e-02	0	54	0	44040192	54	5312
2026-01-28 13:00:25.22	194.22	6.99	-40.8	-44.4	9.9	1.59e-02	0	55	0	49283072	53	5347
2026-01-28 13:00:26.23	194.29	7.06	-40.5	-43.7	10.6	5.39e-03	0	55	0	55574528	52	5246
2026-01-28 13:00:27.24	194.36	7.13	-40.1	-43.1	11.2	2.73e-03	0	54	0	60817408	52	4918
2026-01-28 13:00:28.25	194.43	7.20	-39.8	-42.6	11.8	1.08e-03	0	54	0	67108864	51	4917
2026-01-28 13:00:29.26	194.49	7.28	-39.5	-42.1	12.3	4.82e-04	0	54	0	72351744	51	4649
2026-01-28 13:00:30.28	194.56	7.35	-39.2	-41.7	12.8	1.29e-04	0	55	0	78643200	50	4667
2026-01-28 13:00:31.29	194.63	7.42	-38.9	-41.2	13.3	4.11e-05	0	55	0	83886080	49	4671
2026-01-28 13:00:32.30	194.70	7.49	-38.8	-41.1	13.4	1.83e-05	0	55	0	90177536	49	4607
2026-01-28 13:00:33.31	194.77	7.57	-38.5	-40.7	13.8	8.00e-06	0	55	0	95420416	48	4655
2026-01-28 13:00:34.32	194.84	7.64	-38.4	-40.6	13.9	8.00e-06	0	55	0	100663296	48	4614
2026-01-28 13:00:35.33	194.91	7.71	-38.4	-40.6	13.8	5.70e-06	0	55	0	106954752	48	4630
2026-01-28 13:00:36.35	194.98	7.79	-38.4	-40.6	13.8	9.10e-06	0	55	0	112197632	48	4649
2026-01-28 13:00:37.36	195.05	7.86	-38.6	-40.8	13.7	9.10e-06	0	55	0	118489088	48	4738
2026-01-28 13:00:38.37	195.12	7.94	-38.8	-41.2	13.3	1.83e-05	0	55	0	123731968	48	4941
2026-01-28 13:00:39.38	195.19	8.01	-39.1	-41.6	12.9	6.98e-05	0	55	0	128974848	48	5173
2026-01-28 13:00:40.39	195.26	8.08	-39.1	-41.5	13.0	2.32e-04	0	55	0	135266304	49	4863
2026-01-28 13:00:41.40	195.33	8.16	-38.3	-40.4	14.1	2.17e-05	0	55	0	140509184	48	4532
2026-01-28 13:00:42.41	195.40	8.23	-38.6	-40.8	13.8	1.25e-05	0	55	0	146800640	48	4718
2026-01-28 13:00:43.42	195.48	8.31	-43.6	-52.7	3.9	8.46e-01	0	55	104	148897792	58	10530
2026-01-28 13:00:44.43	195.55	8.38	-39.9	-42.7	11.6	1.81e-01	0	55	0	150994944	51	4932
2026-01-28 13:00:45.44	195.62	8.46	-39.3	-41.7	13.0	3.87e-04	0	55	0	157286400	50	4654
2026-01-28 13:00:46.45	195.70	8.53	-38.4	-40.5	14.1	6.80e-06	0	55	0	162529280	48	4596
2026-01-28 13:00:47.46	195.77	8.61	-38.2	-40.3	14.3	1.10e-06	0	55	0	168820736	48	4460
2026-01-28 13:00:48.47	195.84	8.68	-38.1	-40.2	14.5	0.00e+00	0	55	0	174063616	48	4399
2026-01-28 13:00:49.48	195.92	8.76	-38.1	-40.2	14.5	0.00e+00	0	55	0	179306496	48	4401
2026-01-28 13:00:50.49	195.99	8.84	-38.1	-40.2	14.5	1.10e-06	0	55	0	185597952	48	4405
2026-01-28 13:00:51.50	196.07	8.91	-38.1	-40.1	14.5	2.20e-06	0	55	0	190840832	48	4388
2026-01-28 13:00:52.51	196.14	8.99	-38.1	-40.1	14.5	0.00e+00	0	55	0	197132288	48	4376
2026-01-28 13:00:53.52	196.22	9.07	-38.2	-40.3	14.4	0.00e+00	0	55	0	202375168	48	4452
2026-01-28 13:00:54.53	196.30	9.14	-38.1	-40.1	14.6	0.00e+00	0	55	0	208666624	48	4365
2026-01-28 13:00:55.54	196.37	9.22	-37.9	-39.9	14.7	0.00e+00	0	56	0	213909504	47	4521
2026-01-28 13:00:56.55	196.45	9.30	-38.0	-40.0	14.6	0.00e+00	0	55	0	220200960	47	4573
2026-01-28 13:00:57.56	196.53	9.38	-37.9	-40.0	14.6	1.10e-06	0	56	0	225443840	47	4548
2026-01-28 13:00:58.57	196.61	9.45	-37.9	-39.9	14.7	1.10e-06	0	56	0	230686720	47	4520
2026-01-28 13:00:59.59	196.69	9.53	-37.9	-39.9	14.6	1.10e-06	0	56	0	236978176	47	4544
2026-01-28 13:01:00.60	196.76	9.61	-37.9	-40.0	14.6	1.10e-06	0	56	0	242221056	47	4549
2026-01-28 13:01:01.61	196.84	9.69	-37.9	-40.0	14.6	0.00e+00	0	56	0	248512512	47	4556
2026-01-28 13:01:02.61	196.92	9.77	-37.9	-39.9	14.7	1.10e-06	0	56	0	253755392	47	4529
2026-01-28 13:01:03.63	197.00	9.84	-38.0	-40.0	14.6	0.00e+00	0	56	0	258998272	47	4573
2026-01-28 13:01:04.64	197.08	9.92	-37.9	-39.9	14.7	0.00e+00	0	56	0	265289728	47	4531
2026-01-28 13:01:05.65	197.16	10.00	-37.8	-39.8	14.8	0.00e+00	0	56	0	270532608	47	4486
2026-01-28 13:01:06.66	197.25	10.08	-38.0	-40.0	14.6	0.00e+00	0	56	0	276824064	47	4568
2026-01-28 13:01:07.67	197.33	10.16	-38.0	-40.0	14.6	0.00e+00	0	56	0	282066944	47	4558
2026-01-28 13:01:08.68	197.41	10.24	-38.0	-40.1	14.6	0.00e+00	0	56	0	287309824	47	4602
2026-01-28 13:01:09.69	197.49	10.32	-38.0	-40.0	14.6	0.00e+00	0	56	0	293601280	47	4562
2026-01-28 13:01:10.70	197.57	10.40	-38.0	-40.0	14.6	0.00e+00	0	56	0	298844160	47	4574
2026-01-28 13:01:11.71	197.66	10.48	-38.1	-40.1	14.5	1.10e-06	0	56	0	305135616	47	4634
2026-01-28 13:01:12.72	197.74	10.56	-37.9	-39.9	14.7	1.10e-06	0	56	0	310378496	47	4545
2026-01-28 13:01:13.73	197.83	10.64	-37.9	-39.9	14.8	1.10e-06	0	56	0	316669952	47	4496
2026-01-28 13:01:14.74	197.91	10.72	-37.9	-39.8	14.8	0.00e+00	0	56	0	321912832	47	4474
2026-01-28 13:01:15.75	198.00	10.81	-37.8	-39.8	14.9	0.00e+00	0	56	0	328204288	47	4471
2026-01-28 13:01:16.77	198.08	10.89	-37.8	-39.7	15.0	0.00e+00	0	56	0	333447168	47	4414
2026-01-28 13:01:17.78	198.17	10.97	-37.7	-39.6	15.1	0.00e+00	0	56	0	338690048	47	4358
2026-01-28 13:01:18.79	198.26	11.05	-37.7	-39.6	15.1	0.00e+00	0	56	0	344981504	47	4356
2026-01-28 13:01:19.80	198.34	11.13	-37.7	-39.6	15.1	0.00e+00	0	56	0	350224384	47	4347
2026-01-28 13:01:20.81	198.43	11.22	-37.6	-39.4	15.3	0.00e+00	0	56	0	356515840	47	4284
2026-01-28 13:01:21.82	198.52	11.30	-37.5	-39.3	15.4	0.00e+00	0	56	0	361758720	46	4485
2026-01-28 13:01:22.83	198.61	11.38	-37.5	-39.3	15.4	0.00e+00	0	56	0	367001600	46	4471
2026-01-28 13:01:23.84	198.70	11.46	-37.4	-39.3	15.4	0.00e+00	0	56	0	373293056	46	4454
2026-01-28 13:01:24.85	198.79	11.55	-37.4	-39.2	15.5	0.00e+00	0	56	0	378535936	46	4433
2026-01-28 13:01:25.86	198.88	11.63	-37.4	-39.2	15.5	0.00e+00	0	56	0	384827392	46	4408
2026-01-28 13:01:26.87	198.97	11.71	-37.3	-39.1	15.6	0.00e+00	0	56	0	390070272	46	4358
2026-01-28 13:01:27.88	199.06	11.80	-37.3	-39.1	15.7	0.00e+00	0	56	0	395313152	46	4356
2026-01-28 13:01:28.89	199.15	11.88	-37.3	-39.0	15.7	0.00e+00	0	56	0	401604608	46	4339
2026-01-28 13:01:29.90	199.24	11.97	-37.3	-39.1	15.7	0.00e+00	0	56	0	406847488	46	4341
2026-01-28 13:01:30.91	199.33	12.05	-37.3	-39.0	15.7	0.00e+00	0	57	0	413138944	46	4334
2026-01-28 13:01:31.92	199.43	12.14	-37.3	-39.1	15.7	0.00e+00	0	56	0	418381824	46	4345
2026-01-28 13:01:32.93	199.52	12.22	-37.3	-39.1	15.7	0.00e+00	0	56	0	424673280	46	4345
2026-01-28 13:01:33.94	199.61	12.31	-37.3	-39.1	15.6	0.00e+00	0	56	0	429916160	46	4375
2026-01-28 13:01:34.95	199.71	12.39	-37.4	-39.2	15.5	0.00e+00	0	57	0	436207616	46	4432
2026-01-28 13:01:35.96	199.80	12.48	-37.4	-39.2	15.6	0.00e+00	0	57	0	441450496	46	4400
2026-01-28 13:01:36.97	199.90	12.56	-37.4	-39.3	15.5	0.00e+00	0	57	0	446693376	46	4457
2026-01-28 13:01:37.98	199.99	12.65	-37.4	-39.2	15.5	0.00e+00	0	57	0	452984832	46	4414
2026-01-28 13:01:38.99	200.09	12.73	-37.4	-39.2	15.6	1.10e-06	0	57	0	458227712	46	4396
2026-01-28 13:01:40.00	200.19	12.82	-37.3	-39.1	15.6	0.00e+00	0	57	0	464519168	46	4380
2026-01-28 13:01:41.01	200.29	12.91	-37.3	-39.1	15.7	0.00e+00	0	57	0	469762048	46	4379
2026-01-28 13:01:42.03	200.39	13.00	-37.4	-39.2	15.6	0.00e+00	0	57	0	475004928	46	4401
2026-01-28 13:01:43.04	200.48	13.08	-37.4	-39.2	15.6	0.00e+00	0	57	0	481296384	46	4411
2026-01-28 13:01:44.05	200.58	13.17	-37.2	-39.0	15.8	0.00e+00	0	57	0	486539264	46	4325
2026-01-28 13:01:45.06	200.68	13.26	-37.3	-39.0	15.8	0.00e+00	0	57	0	492830720	46	4328
2026-01-28 13:01:46.07	200.78	13.35	-37.1	-38.8	15.9	0.00e+00	0	57	0	498073600	46	4241
2026-01-28 13:01:47.08	200.89	13.43	-37.1	-38.8	16.0	0.00e+00	0	57	0	503316480	46	4207
2026-01-28 13:01:48.09	200.99	13.52	-37.0	-38.7	16.1	0.00e+00	0	57	0	509607936	46	4185
2026-01-28 13:01:49.10	201.09	13.61	-37.1	-38.8	16.0	0.00e+00	0	57	0	514850816	46	4210
2026-01-28 13:01:50.11	201.19	13.70	-37.1	-38.9	15.9	0.00e+00	0	57	0	521142272	46	4261
2026-01-28 13:01:51.12	201.30	13.79	-37.2	-38.9	15.9	0.00e+00	0	57	0	526385152	46	4273
2026-01-28 13:01:52.13	201.40	13.88	-37.1	-38.8	15.9	0.00e+00	0	57	0	532676608	46	4239
2026-01-28 13:01:53.14	201.51	13.97	-37.1	-38.9	15.9	0.00e+00	0	57	0	537919488	46	4253
2026-01-28 13:01:54.15	201.61	14.06	-37.2	-38.9	15.9	0.00e+00	0	57	0	544210944	46	4281
2026-01-28 13:01:55.16	201.72	14.15	-37.2	-38.9	15.9	0.00e+00	0	57	0	549453824	46	4274
2026-01-28 13:01:56.17	201.82	14.24	-37.0	-38.8	16.0	0.00e+00	0	57	0	554696704	46	4196
2026-01-28 13:01:57.18	201.93	14.33	-37.0	-38.7	16.1	0.00e+00	0	57	0	560988160	45	4406
2026-01-28 13:01:58.19	202.04	14.42	-37.0	-38.8	16.0	0.00e+00	0	57	0	566231040	45	4458
2026-01-28 13:01:59.20	202.15	14.51	-37.0	-38.7	16.1	0.00e+00	0	57	0	572522496	45	4434
2026-01-28 13:02:00.22	202.26	14.61	-36.9	-38.6	16.2	0.00e+00	0	57	0	577765376	45	4356
2026-01-28 13:02:01.22	202.37	14.70	-36.8	-38.5	16.3	0.00e+00	0	57	0	583008256	45	4331
2026-01-28 13:02:02.23	202.48	14.79	-36.8	-38.5	16.3	0.00e+00	0	57	0	589299712	45	4311
2026-01-28 13:02:03.24	202.59	14.88	-36.9	-38.6	16.3	0.00e+00	0	57	0	594542592	45	4343
2026-01-28 13:02:04.26	202.70	14.97	-36.8	-38.5	16.3	0.00e+00	0	57	0	600834048	45	4330
2026-01-28 13:02:05.27	202.81	15.07	-36.8	-38.5	16.3	0.00e+00	0	57	0	606076928	45	4325
2026-01-28 13:02:06.28	202.93	15.16	-36.8	-38.5	16.3	0.00e+00	0	57	0	611319808	45	4329
2026-01-28 13:02:07.29	203.04	15.25	-36.8	-38.5	16.3	0.00e+00	0	57	0	617611264	45	4328
2026-01-28 13:02:08.30	203.15	15.35	-36.8	-38.5	16.3	0.00e+00	0	57	0	622854144	45	4327
2026-01-28 13:02:09.31	203.27	15.44	-36.9	-38.5	16.3	0.00e+00	0	57	0	629145600	45	4340
2026-01-28 13:02:10.32	203.39	15.53	-36.7	-38.3	16.5	0.00e+00	0	57	0	634388480	45	4242
2026-01-28 13:02:11.33	203.50	15.63	-36.6	-38.2	16.6	0.00e+00	0	57	0	640679936	45	4181
2026-01-28 13:02:12.35	203.62	15.72	-36.6	-38.2	16.6	0.00e+00	0	57	0	645922816	45	4171
2026-01-28 13:02:13.36	203.74	15.82	-36.6	-38.2	16.6	0.00e+00	0	57	0	652214272	45	4193
2026-01-28 13:02:14.37	203.86	15.91	-36.4	-38.0	16.8	0.00e+00	0	57	0	657457152	44	4326
2026-01-28 13:02:15.37	203.98	16.01	-36.3	-37.9	17.0	0.00e+00	0	57	0	662700032	44	4260
2026-01-28 13:02:16.38	204.10	16.10	-36.4	-37.9	17.0	0.00e+00	0	57	0	668991488	44	4283
2026-01-28 13:02:17.39	204.22	16.20	-36.4	-38.0	16.9	0.00e+00	0	57	0	674234368	44	4304
2026-01-28 13:02:18.40	204.34	16.30	-36.4	-38.0	16.9	0.00e+00	0	57	0	680525824	44	4305
2026-01-28 13:02:19.41	204.46	16.39	-36.4	-37.9	17.0	0.00e+00	0	57	0	685768704	44	4287
2026-01-28 13:02:20.42	204.59	16.49	-36.4	-37.9	16.9	0.00e+00	0	57	0	691011584	44	4290
2026-01-28 13:02:21.43	204.71	16.59	-36.4	-38.0	16.9	0.00e+00	0	57	0	697303040	44	4333
2026-01-28 13:02:22.44	204.83	16.68	-36.5	-38.1	16.8	0.00e+00	0	57	0	702545920	44	4352
2026-01-28 13:02:23.46	204.96	16.78	-36.5	-38.1	16.7	0.00e+00	0	58	0	708837376	44	4385
2026-01-28 13:02:24.47	205.09	16.88	-36.5	-38.2	16.8	0.00e+00	0	57	0	714080256	44	4398
2026-01-28 13:02:25.48	205.22	16.98	-36.5	-38.1	16.8	0.00e+00	0	57	0	719323136	44	4384
2026-01-28 13:02:26.48	205.34	17.07	-36.5	-38.1	16.8	0.00e+00	0	58	0	725614592	44	4364
2026-01-28 13:02:27.50	205.47	17.17	-36.5	-38.1	16.8	0.00e+00	0	57	0	730857472	44	4371
2026-01-28 13:02:28.51	205.60	17.27	-36.5	-38.1	16.8	0.00e+00	0	58	0	737148928	44	4376
2026-01-28 13:02:29.52	205.73	17.37	-36.5	-38.1	16.7	0.00e+00	0	58	0	742391808	44	4377
2026-01-28 13:02:30.53	205.86	17.47	-36.4	-38.0	16.8	0.00e+00	0	58	0	748683264	44	4336
2026-01-28 13:02:31.54	206.00	17.57	-36.3	-37.9	17.0	0.00e+00	0	58	0	753926144	44	4270
2026-01-28 13:02:32.55	206.13	17.67	-36.3	-37.8	17.1	0.00e+00	0	58	0	760217600	44	4239
2026-01-28 13:02:33.56	206.26	17.77	-36.3	-37.8	17.0	0.00e+00	0	57	0	765460480	44	4241
2026-01-28 13:02:34.57	206.40	17.87	-36.3	-37.8	17.0	0.00e+00	0	58	0	770703360	44	4234
2026-01-28 13:02:35.58	206.53	17.97	-36.2	-37.8	17.1	0.00e+00	0	58	0	776994816	44	4204
2026-01-28 13:02:36.59	206.67	18.07	-36.2	-37.7	17.1	0.00e+00	0	57	0	782237696	44	4184
2026-01-28 13:02:37.60	206.81	18.17	-36.2	-37.8	17.1	0.00e+00	0	58	0	788529152	44	4221
2026-01-28 13:02:38.61	206.95	18.27	-36.3	-37.8	17.1	0.00e+00	0	58	0	793772032	44	4240
2026-01-28 13:02:39.62	207.08	18.37	-36.3	-37.8	17.0	0.00e+00	0	58	0	799014912	44	4240
2026-01-28 13:02:40.63	207.22	18.48	-36.2	-37.8	17.1	0.00e+00	0	58	0	805306368	44	4204
2026-01-28 13:02:41.64	207.37	18.58	-36.1	-37.7	17.2	0.00e+00	0	58	0	810549248	44	4150
2026-01-28 13:02:42.65	207.51	18.68	-36.0	-37.6	17.3	0.00e+00	0	58	0	816840704	44	4100
2026-01-28 13:02:43.66	207.65	18.78	-36.1	-37.6	17.3	0.00e+00	0	58	0	822083584	44	4127
2026-01-28 13:02:44.67	207.79	18.89	-36.1	-37.6	17.3	0.00e+00	0	58	0	827326464	44	4121
2026-01-28 13:02:45.68	207.94	18.99	-36.0	-37.5	17.3	0.00e+00	0	58	0	833617920	44	4095
2026-01-28 13:02:46.69	208.08	19.09	-36.0	-37.5	17.4	0.00e+00	0	58	0	838860800	44	4079
2026-01-28 13:02:47.70	208.23	19.20	-35.8	-37.3	17.5	0.00e+00	0	58	0	845152256	43	4197
2026-01-28 13:02:48.71	208.38	19.30	-35.6	-37.1	17.6	0.00e+00	0	58	0	850395136	43	4128
2026-01-28 13:02:49.72	208.53	19.40	-35.6	-37.0	17.7	0.00e+00	0	58	0	856686592	43	4088
2026-01-28 13:02:50.73	208.68	19.51	-35.6	-37.1	17.7	0.00e+00	0	58	0	861929472	43	4102
2026-01-28 13:02:51.74	208.83	19.61	-35.6	-37.0	17.7	0.00e+00	0	58	0	868220928	43	4091
2026-01-28 13:02:52.75	208.98	19.72	-35.5	-37.0	17.7	0.00e+00	0	58	0	873463808	43	4087
2026-01-28 13:02:53.76	209.13	19.82	-35.5	-37.0	17.8	0.00e+00	0	58	0	878706688	43	4055
2026-01-28 13:02:54.78	209.29	19.93	-35.6	-37.0	17.7	0.00e+00	0	58	0	884998144	43	4095
2026-01-28 13:02:55.79	209.44	20.03	-35.6	-37.0	17.7	0.00e+00	0	58	0	890241024	43	4086
2026-01-28 13:02:56.80	209.60	20.14	-35.5	-36.9	17.8	0.00e+00	0	58	0	896532480	42	4287
2026-01-28 13:02:57.81	209.75	20.25	-35.5	-36.9	17.8	0.00e+00	0	58	0	901775360	42	4289
2026-01-28 13:02:58.82	209.91	20.35	-35.5	-36.9	17.8	0.00e+00	0	58	0	907018240	42	4284
2026-01-28 13:02:59.83	210.07	20.46	-35.4	-36.9	17.9	0.00e+00	0	58	0	913309696	42	4260
2026-01-28 13:03:00.84	210.23	20.56	-35.4	-36.8	17.9	0.00e+00	0	58	0	918552576	42	4241
2026-01-28 13:03:01.85	210.39	20.67	-35.4	-36.8	17.9	0.00e+00	0	58	0	924844032	42	4227
2026-01-28 13:03:02.86	210.55	20.78	-35.4	-36.9	17.9	0.00e+00	0	58	0	930086912	42	4245
2026-01-28 13:03:03.87	210.72	20.89	-35.4	-36.9	17.9	0.00e+00	0	58	0	935329792	42	4250
2026-01-28 13:03:04.88	210.88	20.99	-35.5	-36.9	17.8	0.00e+00	0	58	0	941621248	42	4271
2026-01-28 13:03:05.89	211.05	21.10	-35.5	-37.0	17.8	0.00e+00	0	58	0	946864128	42	4293
2026-01-28 13:03:06.90	211.21	21.21	-35.5	-36.9	17.8	0.00e+00	0	58	0	953155584	42	4286
2026-01-28 13:03:07.91	211.38	21.32	-35.6	-37.0	17.7	0.00e+00	0	58	0	958398464	42	4335
2026-01-28 13:03:08.92	211.55	21.43	-35.5	-37.0	17.8	0.00e+00	0	58	0	964689920	42	4310
2026-01-28 13:03:09.93	211.72	21.54	-35.5	-37.0	17.8	0.00e+00	0	58	0	969932800	42	4306
2026-01-28 13:03:10.94	211.89	21.64	-35.5	-37.0	17.7	0.00e+00	0	58	0	976224256	42	4330
2026-01-28 13:03:11.95	212.06	21.75	-35.5	-37.0	17.8	0.00e+00	0	58	0	981467136	42	4318
2026-01-28 13:03:12.96	212.24	21.86	-35.6	-37.0	17.7	0.00e+00	0	58	0	986710016	42	4340
2026-01-28 13:03:13.97	212.41	21.97	-35.4	-36.9	17.9	0.00e+00	0	58	0	993001472	42	4248
2026-01-28 13:03:14.98	212.59	22.08	-35.4	-36.8	18.0	0.00e+00	0	58	0	998244352	42	4206
2026-01-28 13:03:15.99	212.77	22.19	-35.4	-36.8	18.0	0.00e+00	0	58	0	1003487232	42	4229
2026-01-28 13:03:17.00	212.94	22.30	-35.2	-36.6	18.2	0.00e+00	0	58	0	1009778688	42	4126
2026-01-28 13:03:18.01	213.12	22.41	-35.0	-36.4	18.4	0.00e+00	0	58	0	1015021568	42	4017
2026-01-28 13:03:19.02	213.31	22.52	-34.9	-36.3	18.5	0.00e+00	0	58	0	1021313024	41	4225
2026-01-28 13:03:20.03	213.49	22.64	-34.9	-36.3	18.5	0.00e+00	0	58	0	1026555904	41	4217
2026-01-28 13:03:21.04	213.67	22.75	-34.9	-36.2	18.5	0.00e+00	0	58	0	1032847360	41	4189
2026-01-28 13:03:22.05	213.86	22.86	-34.9	-36.2	18.5	0.00e+00	0	58	0	1038090240	41	4183
2026-01-28 13:03:23.06	214.04	22.97	-34.7	-36.0	18.7	0.00e+00	0	58	0	1043333120	41	4094
2026-01-28 13:03:24.07	214.23	23.08	-34.7	-36.1	18.7	0.00e+00	0	58	0	1049624576	41	4100
2026-01-28 13:03:25.08	214.42	23.19	-34.7	-36.1	18.7	0.00e+00	0	58	0	1054867456	41	4113
2026-01-28 13:03:26.09	214.61	23.30	-34.9	-36.3	18.5	0.00e+00	0	58	0	1061158912	41	4202
2026-01-28 13:03:27.10	214.80	23.42	-34.9	-36.3	18.5	0.00e+00	0	58	0	1066401792	41	4228
2026-01-28 13:03:28.12	214.99	23.53	-34.9	-36.3	18.5	0.00e+00	0	58	0	1072693248	41	4216
2026-01-28 13:03:29.13	215.19	23.64	-34.9	-36.3	18.5	0.00e+00	0	58	0	1077936128	41	4222
2026-01-28 13:03:30.14	215.38	23.75	-34.9	-36.3	18.5	0.00e+00	0	58	0	1083179008	41	4224
2026-01-28 13:03:31.15	215.58	23.87	-34.9	-36.3	18.5	0.00e+00	0	58	0	1089470464	41	4224
2026-01-28 13:03:32.16	215.78	23.98	-34.9	-36.3	18.5	0.00e+00	0	58	0	1094713344	41	4210
2026-01-28 13:03:33.17	215.98	24.09	-34.9	-36.3	18.5	0.00e+00	0	58	0	1101004800	41	4198
2026-01-28 13:03:34.18	216.18	24.21	-35.0	-36.4	18.4	0.00e+00	0	58	0	1106247680	41	4258
2026-01-28 13:03:35.19	216.38	24.32	-35.0	-36.4	18.4	0.00e+00	0	58	0	1111490560	41	4254
2026-01-28 13:03:36.20	216.58	24.43	-34.9	-36.3	18.5	0.00e+00	0	58	0	1117782016	41	4236
2026-01-28 13:03:37.21	216.79	24.55	-34.9	-36.3	18.5	0.00e+00	0	58	0	1123024896	41	4228
2026-01-28 13:03:38.22	217.00	24.66	-35.1	-36.5	18.4	0.00e+00	0	58	0	1129316352	41	4297
2026-01-28 13:03:39.23	217.20	24.77	-35.0	-36.4	18.4	0.00e+00	0	58	0	1134559232	41	4248
2026-01-28 13:03:40.24	217.41	24.89	-34.9	-36.3	18.5	0.00e+00	0	58	0	1139802112	41	4208
2026-01-28 13:03:41.25	217.63	25.00	-34.9	-36.3	18.5	0.00e+00	0	58	0	1146093568	41	4203
2026-01-28 13:03:42.26	217.84	25.11	-34.8	-36.2	18.6	0.00e+00	0	58	0	1151336448	41	4174
2026-01-28 13:03:43.27	218.05	25.23	-34.8	-36.2	18.6	0.00e+00	0	58	0	1157627904	41	4166
2026-01-28 13:03:44.28	218.27	25.34	-34.8	-36.2	18.6	0.00e+00	0	58	0	1162870784	41	4152
2026-01-28 13:03:45.29	218.49	25.46	-34.9	-36.2	18.6	0.00e+00	0	58	0	1169162240	41	4193
2026-01-28 13:03:46.30	218.70	25.57	-34.8	-36.1	18.7	0.00e+00	0	58	0	1174405120	41	4139
2026-01-28 13:03:47.31	218.92	25.69	-34.6	-35.9	18.9	0.00e+00	0	58	0	1180696576	41	4040
2026-01-28 13:03:48.32	219.15	25.80	-34.5	-35.8	19.0	0.00e+00	0	58	0	1185939456	41	3979
2026-01-28 13:03:49.33	219.37	25.91	-34.5	-35.8	18.9	0.00e+00	0	58	0	1191182336	40	4238
2026-01-28 13:03:50.34	219.59	26.03	-34.6	-35.9	18.9	0.00e+00	0	58	0	1197473792	40	4275
2026-01-28 13:03:51.35	219.82	26.14	-34.6	-35.9	18.9	0.00e+00	0	58	0	1202716672	40	4276
2026-01-28 13:03:52.36	220.05	26.26	-34.6	-35.9	18.9	0.00e+00	0	58	0	1209008128	40	4291
2026-01-28 13:03:53.37	220.28	26.37	-34.6	-35.9	18.9	0.00e+00	0	58	0	1214251008	40	4289
2026-01-28 13:03:54.38	220.51	26.49	-34.6	-35.9	18.9	0.00e+00	0	58	0	1219493888	40	4259
2026-01-28 13:03:55.39	220.74	26.60	-34.5	-35.8	19.0	0.00e+00	0	58	0	1225785344	40	4212
2026-01-28 13:03:56.40	220.98	26.72	-34.5	-35.8	19.0	0.00e+00	0	58	0	1231028224	40	4222
2026-01-28 13:03:57.41	221.21	26.83	-34.5	-35.8	19.0	0.00e+00	0	58	0	1237319680	40	4221
2026-01-28 13:03:58.42	221.45	26.94	-34.5	-35.8	19.0	0.00e+00	0	58	0	1242562560	40	4206
2026-01-28 13:03:59.43	221.69	27.06	-34.5	-35.8	18.9	0.00e+00	0	58	0	1247805440	40	4237
2026-01-28 13:04:00.45	221.94	27.17	-34.6	-36.0	18.9	0.00e+00	0	58	0	1254096896	40	4294
2026-01-28 13:04:01.46	222.18	27.29	-34.5	-35.8	19.0	0.00e+00	0	58	0	1259339776	40	4216
2026-01-28 13:04:02.47	222.42	27.40	-34.4	-35.7	19.0	0.00e+00	0	58	0	1265631232	40	4175
2026-01-28 13:04:03.48	222.67	27.52	-34.3	-35.6	19.2	0.00e+00	0	59	0	1270874112	40	4124
2026-01-28 13:04:04.49	222.92	27.63	-34.3	-35.7	19.1	0.00e+00	0	58	0	1277165568	40	4150
2026-01-28 13:04:05.50	223.17	27.74	-34.4	-35.7	19.1	0.00e+00	0	58	0	1282408448	40	4156
2026-01-28 13:04:06.51	223.42	27.86	-34.4	-35.8	19.0	0.00e+00	0	58	0	1288699904	40	4213
2026-01-28 13:04:07.52	223.67	27.97	-34.5	-35.8	18.9	0.00e+00	0	58	0	1293942784	40	4239
2026-01-28 13:04:08.53	223.93	28.09	-34.4	-35.8	19.0	0.00e+00	0	58	0	1299185664	40	4195
2026-01-28 13:04:09.54	224.19	28.20	-34.4	-35.7	19.1	0.00e+00	0	58	0	1305477120	40	4161
2026-01-28 13:04:10.55	224.44	28.31	-34.4	-35.7	19.0	0.00e+00	0	58	0	1310720000	40	4192
2026-01-28 13:04:11.56	224.71	28.43	-34.3	-35.7	19.1	0.00e+00	0	59	0	1317011456	40	4147
2026-01-28 13:04:12.57	224.97	28.54	-34.3	-35.6	19.2	0.00e+00	0	58	0	1322254336	40	4142
2026-01-28 13:04:13.58	225.23	28.65	-34.3	-35.6	19.2	0.00e+00	0	58	0	1327497216	40	4141
2026-01-28 13:04:14.59	225.50	28.76	-34.3	-35.6	19.2	0.00e+00	0	58	0	1333788672	40	4134
2026-01-28 13:04:15.60	225.77	28.88	-34.4	-35.7	19.1	0.00e+00	0	58	0	1339031552	40	4158
2026-01-28 13:04:16.61	226.04	28.99	-34.4	-35.7	19.1	0.00e+00	0	58	0	1345323008	40	4181
2026-01-28 13:04:17.62	226.31	29.10	-34.4	-35.7	19.1	0.00e+00	0	58	0	1350565888	40	4171
2026-01-28 13:04:18.63	226.58	29.21	-34.4	-35.7	19.2	0.00e+00	0	58	0	1355808768	40	4153
2026-01-28 13:04:19.64	226.86	29.32	-34.1	-35.4	19.5	0.00e+00	0	59	0	1362100224	40	4015
2026-01-28 13:04:20.65	227.13	29.43	-34.0	-35.2	19.6	0.00e+00	0	58	0	1367343104	40	3938
2026-01-28 13:04:21.66	227.41	29.54	-34.0	-35.2	19.6	0.00e+00	0	58	0	1373634560	40	3953
2026-01-28 13:04:22.68	227.70	29.66	-34.2	-35.4	19.4	0.00e+00	0	58	0	1378877440	40	4051
2026-01-28 13:04:23.69	227.98	29.77	-34.3	-35.6	19.3	0.00e+00	0	58	0	1385168896	40	4124
2026-01-28 13:04:24.70	228.26	29.88	-34.3	-35.6	19.3	0.00e+00	0	58	0	1390411776	40	4100
2026-01-28 13:04:25.71	228.55	29.99	-34.2	-35.5	19.3	0.00e+00	0	58	0	1396703232	40	4072
2026-01-28 13:04:26.72	228.84	30.09	-34.3	-35.5	19.3	0.00e+00	0	59	0	1401946112	40	4096
2026-01-28 13:04:27.73	229.13	30.20	-34.2	-35.5	19.4	0.00e+00	0	59	0	1407188992	40	4063
2026-01-28 13:04:28.74	229.42	30.31	-34.3	-35.6	19.2	0.00e+00	0	58	0	1413480448	40	4127
2026-01-28 13:04:29.75	229.72	30.42	-34.3	-35.5	19.3	0.00e+00	0	59	0	1418723328	40	4097
2026-01-28 13:04:30.76	230.01	30.53	-34.2	-35.5	19.3	0.00e+00	0	58	0	1425014784	40	4061
2026-01-28 13:04:31.77	230.31	30.63	-34.2	-35.4	19.3	0.00e+00	0	58	0	1430257664	40	4048
2026-01-28 13:04:32.78	230.61	30.74	-34.1	-35.4	19.4	0.00e+00	0	59	0	1435500544	40	4027
2026-01-28 13:04:33.79	230.91	30.85	-34.1	-35.3	19.5	0.00e+00	0	59	0	1441792000	40	4000
2026-01-28 13:04:34.80	231.22	30.95	-34.0	-35.3	19.5	0.00e+00	0	59	0	1447034880	40	3970
2026-01-28 13:04:35.81	231.52	31.06	-34.0	-35.3	19.5	0.00e+00	0	59	0	1453326336	40	3986
2026-01-28 13:04:36.82	231.83	31.16	-34.2	-35.5	19.3	0.00e+00	0	59	0	1458569216	40	4063
2026-01-28 13:04:37.83	232.14	31.27	-34.2	-35.5	19.3	0.00e+00	0	58	0	1463812096	40	4094
2026-01-28 13:04:38.84	232.45	31.37	-34.3	-35.6	19.2	0.00e+00	0	59	0	1470103552	40	4123
2026-01-28 13:04:39.85	232.77	31.47	-34.3	-35.6	19.1	0.00e+00	0	59	0	1475346432	40	4141
2026-01-28 13:04:40.87	233.09	31.58	-34.3	-35.6	19.2	0.00e+00	0	59	0	1481637888	40	4112
2026-01-28 13:04:41.88	233.40	31.68	-34.2	-35.5	19.3	0.00e+00	0	59	0	1486880768	40	4096
2026-01-28 13:04:42.88	233.72	31.78	-34.1	-35.4	19.4	0.00e+00	0	58	0	1493172224	40	4023
2026-01-28 13:04:43.89	234.04	31.88	-34.1	-35.3	19.5	0.00e+00	0	59	0	1498415104	40	3994
2026-01-28 13:04:44.90	234.37	31.98	-34.0	-35.3	19.5	0.00e+00	0	59	0	1504706560	40	3973
2026-01-28 13:04:45.91	234.69	32.08	-34.1	-35.4	19.4	0.00e+00	0	59	0	1509949440	40	4034
2026-01-28 13:04:46.92	235.02	32.18	-34.2	-35.5	19.3	0.00e+00	0	59	0	1515192320	40	4072
2026-01-28 13:04:47.93	235.35	32.28	-34.2	-35.5	19.3	0.00e+00	0	59	0	1521483776	40	4083
2026-01-28 13:04:48.94	235.68	32.37	-34.2	-35.5	19.3	0.00e+00	0	59	0	1526726656	40	4074
2026-01-28 13:04:49.95	236.01	32.47	-34.2	-35.5	19.3	0.00e+00	0	59	0	1533018112	40	4079
2026-01-28 13:04:50.96	236.35	32.57	-34.2	-35.5	19.3	0.00e+00	0	59	0	1538260992	40	4068
2026-01-28 13:04:51.97	236.69	32.66	-34.3	-35.6	19.2	0.00e+00	0	59	0	1543503872	40	4134
2026-01-28 13:04:52.98	237.02	32.76	-34.3	-35.6	19.2	0.00e+00	0	59	0	1549795328	40	4142
2026-01-28 13:04:53.99	237.37	32.85	-34.2	-35.5	19.3	0.00e+00	0	59	0	1555038208	40	4082
2026-01-28 13:04:55.00	237.71	32.94	-34.1	-35.4	19.4	0.00e+00	0	59	0	1561329664	40	4034
2026-01-28 13:04:56.01	238.05	33.03	-34.1	-35.3	19.5	0.00e+00	0	59	0	1566572544	40	3999
2026-01-28 13:04:57.03	238.40	33.13	-34.1	-35.3	19.5	0.00e+00	0	59	0	1571815424	39	4233
2026-01-28 13:04:58.03	238.75	33.21	-34.2	-35.5	19.3	0.00e+00	0	59	0	1578106880	39	4318
2026-01-28 13:04:59.04	239.10	33.30	-34.3	-35.6	19.3	0.00e+00	0	59	0	1583349760	39	4346
2026-01-28 13:05:00.06	239.46	33.39	-34.3	-35.6	19.2	0.00e+00	0	59	0	1589641216	39	4388
2026-01-28 13:05:01.07	239.81	33.48	-34.2	-35.5	19.3	0.00e+00	0	59	0	1594884096	39	4338
2026-01-28 13:05:02.07	240.16	33.57	-34.0	-35.3	19.5	0.00e+00	0	59	0	1601175552	39	4210
2026-01-28 13:05:03.08	240.52	33.65	-33.9	-35.1	19.7	0.00e+00	0	59	0	1606418432	39	4129
2026-01-28 13:05:04.10	240.89	33.74	-33.9	-35.2	19.6	0.00e+00	0	59	0	1612709888	39	4168
2026-01-28 13:05:05.11	241.25	33.82	-34.1	-35.4	19.4	0.00e+00	0	59	0	1617952768	39	4270
2026-01-28 13:05:06.12	241.61	33.90	-34.3	-35.6	19.2	0.00e+00	0	59	0	1623195648	39	4352
2026-01-28 13:05:07.13	241.98	33.98	-34.3	-35.7	19.2	0.00e+00	0	59	0	1629487104	39	4396
2026-01-28 13:05:08.14	242.34	34.06	-34.1	-35.4	19.4	0.00e+00	0	59	0	1634729984	39	4254
2026-01-28 13:05:09.15	242.71	34.14	-34.0	-35.3	19.5	0.00e+00	0	59	0	1641021440	39	4209
2026-01-28 13:05:10.16	243.08	34.22	-34.0	-35.3	19.6	0.00e+00	0	59	0	1646264320	39	4195
2026-01-28 13:05:11.17	243.46	34.30	-34.1	-35.4	19.5	0.00e+00	0	59	0	1651507200	39	4247
2026-01-28 13:05:12.18	243.83	34.37	-34.2	-35.5	19.4	0.00e+00	0	59	0	1657798656	39	4296
2026-01-28 13:05:13.20	244.21	34.45	-34.0	-35.3	19.6	0.00e+00	0	59	0	1663041536	39	4209
2026-01-28 13:05:14.21	244.59	34.52	-34.2	-35.4	19.4	0.00e+00	0	59	0	1669332992	39	4287
2026-01-28 13:05:15.22	244.97	34.59	-34.3	-35.6	19.3	0.00e+00	0	59	0	1674575872	39	4378
2026-01-28 13:05:16.23	245.35	34.66	-34.2	-35.5	19.3	0.00e+00	0	59	0	1679818752	39	4338
2026-01-28 13:05:17.24	245.73	34.73	-34.1	-35.4	19.5	0.00e+00	0	59	0	1686110208	39	4248
2026-01-28 13:05:18.25	246.11	34.80	-34.1	-35.3	19.5	0.00e+00	0	59	0	1691353088	39	4234
2026-01-28 13:05:19.26	246.50	34.87	-34.0	-35.3	19.6	0.00e+00	0	59	0	1697644544	39	4216
2026-01-28 13:05:20.27	246.89	34.94	-33.9	-35.2	19.6	0.00e+00	0	59	0	1702887424	39	4175
2026-01-28 13:05:21.28	247.28	35.00	-33.9	-35.2	19.7	0.00e+00	0	59	0	1709178880	39	4162
2026-01-28 13:05:22.29	247.67	35.06	-34.0	-35.3	19.6	0.00e+00	0	59	0	1714421760	39	4194
2026-01-28 13:05:23.30	248.06	35.12	-33.9	-35.1	19.8	0.00e+00	0	59	0	1720713216	39	4123
2026-01-28 13:05:24.31	248.45	35.19	-33.7	-35.0	19.9	0.00e+00	0	59	0	1725956096	39	4054
2026-01-28 13:05:25.32	248.85	35.24	-33.7	-34.9	19.9	0.00e+00	0	59	0	1731198976	39	4042
2026-01-28 13:05:26.33	249.24	35.30	-33.7	-34.9	19.9	0.00e+00	0	59	0	1737490432	39	4020
2026-01-28 13:05:27.34	249.64	35.36	-33.8	-35.0	19.8	0.00e+00	0	59	0	1742733312	39	4065
2026-01-28 13:05:28.35	250.04	35.41	-33.9	-35.1	19.7	0.00e+00	0	59	0	1749024768	39	4127
2026-01-28 13:05:29.36	250.44	35.47	-34.0	-35.2	19.6	0.00e+00	0	59	0	1754267648	39	4192
2026-01-28 13:05:30.37	250.84	35.52	-33.9	-35.2	19.6	0.00e+00	0	59	0	1759510528	39	4170
2026-01-28 13:05:31.38	251.24	35.57	-33.9	-35.2	19.7	0.00e+00	0	59	0	1765801984	39	4157
2026-01-28 13:05:32.39	251.64	35.62	-33.9	-35.2	19.7	0.00e+00	0	59	0	1771044864	39	4168
2026-01-28 13:05:33.40	252.05	35.67	-33.9	-35.2	19.6	0.00e+00	0	59	0	1777336320	39	4168
2026-01-28 13:05:34.41	252.46	35.71	-33.9	-35.2	19.7	0.00e+00	0	59	0	1782579200	39	4174
2026-01-28 13:05:35.42	252.86	35.76	-34.0	-35.2	19.6	0.00e+00	0	59	0	1787822080	39	4188
2026-01-28 13:05:36.44	253.27	35.80	-34.0	-35.2	19.6	0.00e+00	0	59	0	1794113536	39	4181
2026-01-28 13:05:37.45	253.68	35.84	-34.2	-35.5	19.4	0.00e+00	0	59	0	1799356416	39	4310
2026-01-28 13:05:38.46	254.09	35.88	-34.3	-35.6	19.3	0.00e+00	0	59	0	1805647872	39	4347
2026-01-28 13:05:39.47	254.51	35.92	-34.0	-35.3	19.5	0.00e+00	0	59	0	1810890752	39	4223
2026-01-28 13:05:40.48	254.92	35.96	-33.9	-35.1	19.7	0.00e+00	0	59	0	1817182208	39	4138
2026-01-28 13:05:41.49	255.33	35.99	-33.8	-35.0	19.8	0.00e+00	0	59	0	1822425088	39	4092
2026-01-28 13:05:42.50	255.74	36.03	-33.8	-35.0	19.9	0.00e+00	0	59	0	1828716544	39	4075
2026-01-28 13:05:43.51	256.16	36.06	-33.8	-35.0	19.8	0.00e+00	0	59	0	1833959424	39	4095
2026-01-28 13:05:44.52	256.57	36.09	-33.8	-35.1	19.8	0.00e+00	0	59	0	1839202304	39	4105
2026-01-28 13:05:45.53	256.99	36.12	-33.9	-35.2	19.7	0.00e+00	0	59	0	1845493760	39	4151
2026-01-28 13:05:46.54	257.41	36.14	-33.9	-35.1	19.7	0.00e+00	0	59	0	1850736640	39	4143
2026-01-28 13:05:47.55	257.82	36.17	-33.8	-35.1	19.7	0.00e+00	0	59	0	1857028096	39	4116
2026-01-28 13:05:48.56	258.24	36.19	-33.8	-35.1	19.8	0.00e+00	0	59	0	1862270976	39	4107
2026-01-28 13:05:49.57	258.66	36.21	-33.8	-35.1	19.8	0.00e+00	0	59	0	1867513856	39	4102
2026-01-28 13:05:50.58	259.08	36.23	-33.7	-35.0	19.8	0.00e+00	0	59	0	1873805312	39	4074
2026-01-28 13:05:51.59	259.50	36.25	-33.8	-35.0	19.8	0.00e+00	0	59	0	1879048192	39	4092
2026-01-28 13:05:52.60	259.92	36.27	-33.9	-35.2	19.7	0.00e+00	0	59	0	1885339648	39	4161
2026-01-28 13:05:53.61	260.34	36.29	-33.8	-35.1	19.7	0.00e+00	0	59	0	1890582528	39	4124
2026-01-28 13:05:54.62	260.76	36.30	-33.7	-35.0	19.8	0.00e+00	0	59	0	1895825408	39	4070
2026-01-28 13:05:55.63	261.18	36.31	-33.9	-35.0	20.2	0.00e+00	0	59	0	1902116864	39	4078
2026-01-28 13:05:56.64	261.60	36.32	-34.0	-35.2	20.1	0.00e+00	0	59	0	1907359744	39	4149
2026-01-28 13:05:57.65	262.03	36.33	-34.1	-35.3	20.0	0.00e+00	0	59	0	1913651200	39	4211
2026-01-28 13:05:58.66	262.45	36.34	-34.1	-35.3	19.9	0.00e+00	0	59	0	1918894080	39	4227
2026-01-28 13:05:59.67	262.87	36.34	-34.1	-35.3	20.0	0.00e+00	0	59	0	1925185536	39	4200
2026-01-28 13:06:00.68	263.29	36.35	-34.1	-35.3	20.0	0.00e+00	0	59	0	1930428416	39	4203
2026-01-28 13:06:01.69	263.71	36.35	-34.2	-35.4	19.8	0.00e+00	0	59	0	1935671296	39	4263
2026-01-28 13:06:02.70	264.14	36.35	-34.1	-35.3	19.9	0.00e+00	0	59	0	1941962752	39	4223
2026-01-28 13:06:03.70	264.55	36.35	-34.0	-35.2	20.1	0.00e+00	0	59	0	1947205632	39	4159
2026-01-28 13:06:04.71	264.98	36.34	-34.0	-35.2	20.1	0.00e+00	0	59	0	1953497088	39	4155
2026-01-28 13:06:05.73	265.40	36.34	-34.1	-35.2	20.0	0.00e+00	0	59	0	1958739968	39	4192
2026-01-28 13:06:06.74	265.82	36.33	-34.1	-35.2	20.0	0.00e+00	0	59	0	1963982848	39	4178
2026-01-28 13:06:07.75	266.25	36.32	-34.0	-35.2	20.1	0.00e+00	0	59	0	1970274304	39	4153
2026-01-28 13:06:08.76	266.67	36.31	-34.1	-35.3	20.0	0.00e+00	0	59	0	1975517184	39	4208
2026-01-28 13:06:09.77	267.09	36.30	-34.1	-35.2	20.0	0.00e+00	0	59	0	1981808640	39	4193
2026-01-28 13:06:10.78	267.51	36.29	-34.1	-35.2	20.1	0.00e+00	0	59	0	1987051520	39	4167
2026-01-28 13:06:11.79	267.93	36.27	-34.1	-35.2	20.0	0.00e+00	0	59	0	1992294400	39	4174
2026-01-28 13:06:12.80	268.35	36.25	-34.1	-35.3	20.0	0.00e+00	0	59	0	1998585856	39	4202
2026-01-28 13:06:13.81	268.77	36.23	-34.1	-35.3	19.9	0.00e+00	0	59	0	2003828736	39	4214
2026-01-28 13:06:14.82	269.19	36.21	-34.2	-35.4	19.9	0.00e+00	0	59	0	2010120192	39	4249
2026-01-28 13:06:15.83	269.60	36.19	-34.2	-35.3	19.9	0.00e+00	0	59	0	2015363072	39	4236
2026-01-28 13:06:16.84	270.02	36.17	-34.1	-35.2	20.0	0.00e+00	0	59	0	2021654528	39	4182
2026-01-28 13:06:17.85	270.44	36.14	-34.1	-35.2	20.0	0.00e+00	0	59	0	2026897408	39	4181
2026-01-28 13:06:18.86	270.86	36.12	-34.1	-35.3	20.0	0.00e+00	0	59	0	2033188864	39	4202
2026-01-28 13:06:19.87	271.27	36.09	-34.2	-35.3	19.9	0.00e+00	0	59	0	2038431744	39	4233
2026-01-28 13:06:20.88	271.69	36.06	-34.2	-35.3	19.9	0.00e+00	0	59	0	2043674624	39	4226
2026-01-28 13:06:21.89	272.10	36.02	-34.2	-35.3	19.9	0.00e+00	0	59	0	2049966080	39	4229
2026-01-28 13:06:22.91	272.52	35.99	-34.2	-35.3	19.9	0.00e+00	0	59	0	2055208960	39	4240
2026-01-28 13:06:23.92	272.93	35.96	-34.2	-35.3	19.9	0.00e+00	0	59	0	2061500416	39	4234
2026-01-28 13:06:24.93	273.34	35.92	-34.1	-35.2	20.0	0.00e+00	0	59	0	2066743296	39	4179
2026-01-28 13:06:25.94	273.75	35.88	-33.9	-35.1	20.1	0.00e+00	0	59	0	2071986176	39	4115
2026-01-28 13:06:26.95	274.16	35.84	-34.0	-35.1	20.1	0.00e+00	0	59	0	2078277632	39	4121
2026-01-28 13:06:27.96	274.57	35.80	-34.1	-35.3	20.0	0.00e+00	0	59	0	2083520512	39	4209
2026-01-28 13:06:28.97	274.98	35.76	-34.1	-35.2	20.0	0.00e+00	0	59	0	2089811968	39	4192
2026-01-28 13:06:29.98	275.38	35.71	-34.1	-35.3	20.0	0.00e+00	0	59	0	2095054848	39	4205
2026-01-28 13:06:30.99	275.79	35.67	-34.0	-35.1	20.1	0.00e+00	0	59	0	2100297728	39	4137
2026-01-28 13:06:32.00	276.19	35.62	-33.9	-35.0	20.2	0.00e+00	0	59	0	2106589184	39	4070
2026-01-28 13:06:33.00	276.59	35.57	-34.0	-35.1	20.2	0.00e+00	0	59	0	2111832064	39	4111
2026-01-28 13:06:34.01	277.00	35.52	-34.0	-35.2	20.1	0.00e+00	0	59	0	2118123520	39	4149
2026-01-28 13:06:35.02	277.40	35.47	-34.1	-35.2	20.0	0.00e+00	0	59	0	2123366400	39	4186
2026-01-28 13:06:36.03	277.79	35.41	-34.0	-35.2	20.1	0.00e+00	0	59	0	2129657856	39	4158
2026-01-28 13:06:37.05	278.20	35.36	-34.0	-35.1	20.1	0.00e+00	0	59	0	2134900736	39	4138
2026-01-28 13:06:38.06	278.59	35.30	-34.0	-35.1	20.1	0.00e+00	0	59	0	2141192192	39	4145
2026-01-28 13:06:39.07	278.99	35.25	-34.0	-35.2	20.1	0.00e+00	0	59	0	2146435072	39	4153
2026-01-28 13:06:40.08	279.38	35.19	-34.2	-35.4	19.8	0.00e+00	0	59	0	2151677952	39	4255
2026-01-28 13:06:41.09	279.77	35.13	-34.4	-35.5	19.7	0.00e+00	0	59	0	2157969408	39	4338
2026-01-28 13:06:42.10	280.17	35.06	-34.5	-35.7	19.5	0.00e+00	0	59	0	2163212288	39	4429
2026-01-28 13:06:43.11	280.55	35.00	-34.5	-35.7	19.6	0.00e+00	0	59	0	2169503744	39	4400
2026-01-28 13:06:44.12	280.94	34.94	-34.3	-35.5	19.7	0.00e+00	0	59	0	2174746624	39	4308
2026-01-28 13:06:45.13	281.33	34.87	-34.1	-35.2	20.0	0.00e+00	0	59	0	2179989504	39	4183
2026-01-28 13:06:46.15	281.72	34.80	-34.1	-35.2	20.0	0.00e+00	0	59	0	2186280960	39	4184
2026-01-28 13:06:47.15	282.10	34.74	-34.1	-35.2	20.0	0.00e+00	0	59	0	2191523840	39	4189
2026-01-28 13:06:48.17	282.48	34.67	-34.1	-35.3	20.0	0.00e+00	0	59	0	2197815296	39	4195
2026-01-28 13:06:49.18	282.86	34.60	-34.1	-35.3	20.0	0.00e+00	0	59	0	2203058176	39	4211
2026-01-28 13:06:50.19	283.24	34.52	-34.1	-35.3	19.9	0.00e+00	0	59	0	2208301056	39	4219
2026-01-28 13:06:51.19	283.61	34.45	-34.2	-35.3	19.9	0.00e+00	0	59	0	2214592512	39	4234
2026-01-28 13:06:52.20	283.99	34.38	-34.2	-35.4	19.8	0.00e+00	0	59	0	2219835392	39	4270
2026-01-28 13:06:53.21	284.36	34.30	-34.3	-35.4	19.8	0.00e+00	0	59	0	2226126848	39	4278
2026-01-28 13:06:54.22	284.73	34.22	-34.2	-35.4	19.9	0.00e+00	0	59	0	2231369728	39	4246
2026-01-28 13:06:55.23	285.10	34.15	-34.2	-35.3	19.9	0.00e+00	0	59	0	2237661184	39	4223
2026-01-28 13:06:56.24	285.47	34.07	-34.2	-35.4	19.8	0.00e+00	0	59	0	2242904064	39	4268
2026-01-28 13:06:57.25	285.84	33.99	-34.3	-35.5	19.7	0.00e+00	0	59	0	2249195520	39	4327
2026-01-28 13:06:58.26	286.20	33.91	-34.3	-35.5	19.7	0.00e+00	0	59	0	2254438400	39	4318
2026-01-28 13:06:59.27	286.56	33.83	-34.3	-35.4	19.8	0.00e+00	0	59	0	2259681280	39	4277
2026-01-28 13:07:00.29	286.93	33.74	-34.3	-35.4	19.8	0.00e+00	0	59	0	2265972736	39	4281
2026-01-28 13:07:01.30	287.29	33.66	-34.3	-35.5	19.7	0.00e+00	0	59	0	2271215616	39	4320
2026-01-28 13:07:02.31	287.65	33.57	-34.5	-35.7	19.6	0.00e+00	0	59	0	2277507072	39	4416
2026-01-28 13:07:03.32	288.00	33.49	-34.5	-35.7	19.5	0.00e+00	0	59	0	2282749952	39	4426
2026-01-28 13:07:04.33	288.35	33.40	-34.4	-35.6	19.6	0.00e+00	0	59	0	2287992832	39	4365
2026-01-28 13:07:05.34	288.71	33.31	-34.5	-35.6	19.6	0.00e+00	0	59	0	2294284288	39	4387
2026-01-28 13:07:06.35	289.06	33.22	-34.4	-35.6	19.6	0.00e+00	0	59	0	2299527168	39	4370
2026-01-28 13:07:07.35	289.40	33.14	-34.5	-35.7	19.6	0.00e+00	0	59	0	2305818624	39	4392
2026-01-28 13:07:08.36	289.75	33.04	-34.4	-35.6	19.6	0.00e+00	0	59	0	2311061504	39	4375
2026-01-28 13:07:09.37	290.09	32.95	-34.4	-35.6	19.6	0.00e+00	0	59	0	2316304384	39	4376
2026-01-28 13:07:10.38	290.43	32.86	-34.5	-35.7	19.6	0.00e+00	0	59	0	2322595840	39	4401
2026-01-28 13:07:11.40	290.78	32.77	-34.4	-35.6	19.6	0.00e+00	0	59	0	2327838720	39	4362
2026-01-28 13:07:12.41	291.11	32.67	-34.5	-35.7	19.6	0.00e+00	0	59	0	2334130176	39	4400
2026-01-28 13:07:13.42	291.45	32.58	-34.6	-35.8	19.5	0.00e+00	0	59	0	2339373056	39	4449
2026-01-28 13:07:14.43	291.78	32.48	-34.6	-35.8	19.4	0.00e+00	0	59	0	2345664512	39	4465
2026-01-28 13:07:15.44	292.12	32.39	-34.6	-35.8	19.4	0.00e+00	0	59	0	2350907392	39	4490
2026-01-28 13:07:16.45	292.45	32.29	-34.6	-35.8	19.4	0.00e+00	0	59	0	2357198848	39	4469
2026-01-28 13:07:17.46	292.78	32.19	-34.6	-35.8	19.5	0.00e+00	0	59	0	2362441728	39	4453
2026-01-28 13:07:18.47	293.10	32.10	-34.7	-35.9	19.4	0.00e+00	0	59	0	2367684608	39	4504
2026-01-28 13:07:19.48	293.43	32.00	-34.6	-35.8	19.4	0.00e+00	0	59	0	2373976064	39	4482
2026-01-28 13:07:20.49	293.75	31.90	-34.6	-35.8	19.4	0.00e+00	0	59	0	2379218944	39	4464
2026-01-28 13:07:21.50	294.07	31.80	-34.6	-35.8	19.4	0.00e+00	0	59	0	2385510400	39	4472
2026-01-28 13:07:22.51	294.39	31.70	-34.6	-35.8	19.4	0.00e+00	0	59	0	2390753280	39	4493
2026-01-28 13:07:23.52	294.71	31.59	-34.6	-35.8	19.4	0.00e+00	0	59	0	2395996160	39	4474
2026-01-28 13:07:24.54	295.02	31.49	-34.6	-35.9	19.4	0.00e+00	0	59	0	2402287616	39	4500
2026-01-28 13:07:25.55	295.34	31.39	-34.7	-35.9	19.3	0.00e+00	0	59	0	2407530496	39	4530
2026-01-28 13:07:26.56	295.65	31.29	-34.6	-35.9	19.3	0.00e+00	0	59	0	2413821952	40	4252
2026-01-28 13:07:27.57	295.96	31.18	-34.5	-35.7	19.4	0.00e+00	0	59	0	2419064832	40	4167
2026-01-28 13:07:28.58	296.26	31.08	-34.5	-35.7	19.5	0.00e+00	0	59	0	2424307712	40	4161
2026-01-28 13:07:29.59	296.57	30.97	-34.5	-35.7	19.4	0.00e+00	0	59	0	2430599168	40	4183
2026-01-28 13:07:30.60	296.87	30.87	-34.5	-35.7	19.4	0.00e+00	0	59	0	2435842048	40	4168
2026-01-28 13:07:31.61	297.17	30.76	-34.5	-35.7	19.5	0.00e+00	0	59	0	2442133504	40	4165
2026-01-28 13:07:32.62	297.47	30.66	-34.5	-35.6	19.5	0.00e+00	0	59	0	2447376384	40	4145
2026-01-28 13:07:33.63	297.77	30.55	-34.3	-35.5	19.6	0.00e+00	0	59	0	2453667840	40	4071
2026-01-28 13:07:34.64	298.06	30.44	-34.3	-35.5	19.6	0.00e+00	0	59	0	2458910720	40	4079
2026-01-28 13:07:35.65	298.36	30.34	-34.4	-35.6	19.5	0.00e+00	0	59	0	2465202176	40	4129
2026-01-28 13:07:36.66	298.65	30.23	-34.5	-35.7	19.4	0.00e+00	0	59	0	2470445056	40	4190
2026-01-28 13:07:37.67	298.94	30.12	-34.7	-35.9	19.2	0.00e+00	0	59	0	2475687936	40	4268
2026-01-28 13:07:38.68	299.23	30.01	-34.7	-35.9	19.2	0.00e+00	0	59	0	2481979392	40	4285
2026-01-28 13:07:39.69	299.51	29.90	-34.6	-35.8	19.3	0.00e+00	0	59	0	2487222272	40	4213
2026-01-28 13:07:40.70	299.80	29.79	-34.5	-35.7	19.4	0.00e+00	0	59	0	2493513728	40	4151
2026-01-28 13:07:41.71	300.08	29.68	-34.4	-35.6	19.5	0.00e+00	0	59	0	2498756608	40	4131
2026-01-28 13:07:42.72	300.36	29.57	-34.5	-35.7	19.5	0.00e+00	0	59	0	2503999488	40	4146
2026-01-28 13:07:43.73	300.64	29.46	-34.4	-35.6	19.5	0.00e+00	0	59	0	2510290944	40	4138
2026-01-28 13:07:44.74	300.91	29.35	-34.5	-35.7	19.4	0.00e+00	0	59	0	2515533824	40	4165
2026-01-28 13:07:45.76	301.19	29.24	-34.6	-35.8	19.3	0.00e+00	0	59	0	2521825280	40	4211
2026-01-28 13:07:46.77	301.46	29.13	-34.6	-35.9	19.3	0.00e+00	0	59	0	2527068160	40	4243
2026-01-28 13:07:47.78	301.73	29.02	-34.6	-35.8	19.3	0.00e+00	0	59	0	2532311040	40	4235
2026-01-28 13:07:48.79	302.00	28.91	-34.6	-35.8	19.3	0.00e+00	0	59	0	2538602496	40	4232
2026-01-28 13:07:49.80	302.27	28.80	-34.6	-35.8	19.3	0.00e+00	0	59	0	2543845376	40	4230
2026-01-28 13:07:50.81	302.53	28.69	-34.6	-35.8	19.3	0.00e+00	0	59	0	2550136832	40	4224
2026-01-28 13:07:51.82	302.80	28.57	-34.6	-35.9	19.2	0.00e+00	0	59	0	2555379712	40	4249
2026-01-28 13:07:52.83	303.06	28.46	-34.7	-36.0	19.1	0.00e+00	0	59	0	2561671168	40	4295
2026-01-28 13:07:53.83	303.32	28.35	-34.7	-35.9	19.2	0.00e+00	0	59	0	2566914048	40	4275
2026-01-28 13:07:54.84	303.57	28.24	-34.7	-36.0	19.1	0.00e+00	0	59	0	2573205504	40	4297
2026-01-28 13:07:55.85	303.83	28.13	-34.7	-35.9	19.1	0.00e+00	0	59	0	2578448384	40	4289
2026-01-28 13:07:56.86	304.09	28.01	-34.8	-36.0	19.1	0.00e+00	0	59	0	2583691264	40	4321
2026-01-28 13:07:57.87	304.34	27.90	-34.9	-36.1	19.0	0.00e+00	0	59	0	2589982720	40	4383
2026-01-28 13:07:58.88	304.59	27.79	-34.8	-36.1	19.0	0.00e+00	0	59	0	2595225600	40	4363
2026-01-28 13:07:59.89	304.84	27.67	-34.8	-36.1	19.0	0.00e+00	0	59	0	2601517056	40	4343
2026-01-28 13:08:00.90	305.09	27.56	-34.8	-36.0	19.1	0.00e+00	0	59	0	2606759936	40	4324
2026-01-28 13:08:01.91	305.33	27.45	-34.8	-36.0	19.1	0.00e+00	0	59	0	2612002816	40	4333
2026-01-28 13:08:02.92	305.58	27.33	-34.8	-36.0	19.1	0.00e+00	0	59	0	2618294272	40	4314
2026-01-28 13:08:03.93	305.82	27.22	-34.6	-35.8	19.2	0.00e+00	0	59	0	2623537152	40	4242
2026-01-28 13:08:04.95	306.06	27.11	-34.7	-36.0	19.1	0.00e+00	0	59	0	2629828608	40	4304
2026-01-28 13:08:05.96	306.30	26.99	-34.9	-36.1	18.9	0.00e+00	0	59	0	2635071488	40	4382
2026-01-28 13:08:06.97	306.54	26.88	-34.9	-36.2	18.9	0.00e+00	0	59	0	2640314368	40	4408
2026-01-28 13:08:07.98	306.77	26.77	-35.0	-36.3	18.8	0.00e+00	0	59	0	2646605824	40	4442
2026-01-28 13:08:08.99	307.01	26.65	-35.1	-36.4	18.7	0.00e+00	0	59	0	2651848704	40	4502
2026-01-28 13:08:10.00	307.24	26.54	-35.0	-36.3	18.8	0.00e+00	0	59	0	2658140160	40	4445
2026-01-28 13:08:11.01	307.47	26.42	-34.9	-36.2	18.8	0.00e+00	0	59	0	2663383040	40	4421
2026-01-28 13:08:12.02	307.70	26.31	-35.0	-36.3	18.8	0.00e+00	0	59	0	2669674496	40	4446
2026-01-28 13:08:13.03	307.93	26.20	-35.1	-36.3	18.7	0.00e+00	0	59	0	2674917376	40	4484
2026-01-28 13:08:14.04	308.15	26.08	-35.0	-36.3	18.8	0.00e+00	0	59	0	2680160256	40	4464
2026-01-28 13:08:15.05	308.38	25.97	-35.0	-36.3	18.8	0.00e+00	0	59	0	2686451712	40	4451
2026-01-28 13:08:16.06	308.60	25.86	-35.1	-36.3	18.7	0.00e+00	0	59	0	2691694592	40	4487
2026-01-28 13:08:17.06	308.82	25.74	-35.0	-36.2	18.8	0.00e+00	0	59	0	2697986048	40	4441
2026-01-28 13:08:18.07	309.04	25.63	-35.0	-36.3	18.8	0.00e+00	0	59	0	2703228928	40	4442
2026-01-28 13:08:19.09	309.26	25.52	-34.8	-36.1	19.0	0.00e+00	0	59	0	2708471808	40	4364
2026-01-28 13:08:20.10	309.48	25.40	-34.7	-36.0	19.0	0.00e+00	0	59	0	2714763264	40	4319
2026-01-28 13:08:21.11	309.69	25.29	-34.8	-36.0	19.0	0.00e+00	0	59	0	2720006144	40	4316
2026-01-28 13:08:22.12	309.90	25.18	-34.8	-36.0	19.0	0.00e+00	0	59	0	2726297600	40	4325
2026-01-28 13:08:23.13	310.12	25.06	-34.8	-36.1	18.9	0.00e+00	0	59	0	2731540480	40	4358
2026-01-28 13:08:24.14	310.33	24.95	-34.9	-36.1	18.9	0.00e+00	0	59	0	2737831936	40	4378
2026-01-28 13:08:25.15	310.54	24.84	-34.7	-36.0	19.0	0.00e+00	0	59	0	2743074816	40	4308
2026-01-28 13:08:26.16	310.74	24.72	-34.7	-36.0	19.0	0.00e+00	0	59	0	2748317696	40	4309
2026-01-28 13:08:27.17	310.95	24.61	-34.8	-36.0	19.0	0.00e+00	0	59	0	2754609152	40	4326
2026-01-28 13:08:28.18	311.16	24.50	-34.8	-36.1	19.0	0.00e+00	0	59	0	2759852032	40	4341
2026-01-28 13:08:29.20	311.36	24.38	-34.8	-36.1	18.9	0.00e+00	0	59	0	2766143488	40	4358
2026-01-28 13:08:30.21	311.56	24.27	-34.9	-36.2	18.8	0.00e+00	0	59	0	2771386368	40	4407
2026-01-28 13:08:31.22	311.76	24.16	-35.0	-36.3	18.8	0.00e+00	0	59	0	2777677824	40	4446
2026-01-28 13:08:32.23	311.96	24.05	-35.1	-36.4	18.6	0.00e+00	0	59	0	2782920704	40	4498
2026-01-28 13:08:33.24	312.16	23.94	-35.1	-36.4	18.6	0.00e+00	0	59	0	2788163584	40	4541
2026-01-28 13:08:34.25	312.36	23.82	-35.2	-36.5	18.5	0.00e+00	0	59	0	2794455040	40	4548
2026-01-28 13:08:35.26	312.55	23.71	-35.1	-36.4	18.6	0.00e+00	0	59	0	2799697920	40	4518
2026-01-28 13:08:36.27	312.74	23.60	-35.1	-36.4	18.6	0.00e+00	0	59	0	2805989376	40	4526
2026-01-28 13:08:37.28	312.94	23.49	-35.2	-36.5	18.5	0.00e+00	0	59	0	2811232256	40	4563
2026-01-28 13:08:38.29	313.13	23.38	-35.2	-36.5	18.4	0.00e+00	0	59	0	2816475136	41	4330
2026-01-28 13:08:39.30	313.32	23.27	-35.3	-36.5	18.4	0.00e+00	0	59	0	2822766592	41	4339
2026-01-28 13:08:40.31	313.51	23.16	-35.3	-36.6	18.4	0.00e+00	0	59	0	2828009472	41	4378
2026-01-28 13:08:41.32	313.69	23.05	-35.4	-36.7	18.3	0.00e+00	0	59	0	2834300928	41	4427
2026-01-28 13:08:42.33	313.88	22.94	-35.4	-36.7	18.3	0.00e+00	0	59	0	2839543808	41	4430
2026-01-28 13:08:43.34	314.06	22.82	-35.4	-36.7	18.3	0.00e+00	0	59	0	2844786688	41	4418
2026-01-28 13:08:44.35	314.25	22.71	-35.4	-36.8	18.2	0.00e+00	0	59	0	2851078144	41	4446
2026-01-28 13:08:45.36	314.43	22.60	-35.5	-36.8	18.2	0.00e+00	0	59	0	2856321024	41	4473
2026-01-28 13:08:46.36	314.61	22.50	-35.5	-36.8	18.2	0.00e+00	0	59	0	2862612480	41	4466
2026-01-28 13:08:47.37	314.79	22.39	-35.5	-36.8	18.2	0.00e+00	0	59	0	2867855360	41	4466
2026-01-28 13:08:48.38	314.97	22.28	-35.5	-36.9	18.1	0.00e+00	0	59	0	2874146816	41	4502
2026-01-28 13:08:49.39	315.14	22.17	-35.4	-36.8	18.2	0.00e+00	0	59	0	2879389696	41	4442
2026-01-28 13:08:50.40	315.32	22.06	-35.4	-36.7	18.2	0.00e+00	0	59	0	2885681152	41	4427
2026-01-28 13:08:51.41	315.49	21.95	-35.4	-36.7	18.3	0.00e+00	0	59	0	2890924032	41	4420
2026-01-28 13:08:52.42	315.67	21.84	-35.4	-36.8	18.2	0.00e+00	0	59	0	2896166912	41	4443
2026-01-28 13:08:53.44	315.84	21.73	-35.4	-36.7	18.3	0.00e+00	0	59	0	2902458368	41	4399
2026-01-28 13:08:54.44	316.01	21.62	-35.3	-36.6	18.4	0.00e+00	0	59	0	2907701248	41	4363
2026-01-28 13:08:55.45	316.18	21.52	-35.3	-36.6	18.3	0.00e+00	0	59	0	2913992704	41	4391
2026-01-28 13:08:56.46	316.35	21.41	-35.4	-36.7	18.2	0.00e+00	0	59	0	2919235584	41	4414
2026-01-28 13:08:57.48	316.52	21.30	-35.4	-36.7	18.2	0.00e+00	0	59	0	2924478464	41	4433
2026-01-28 13:08:58.49	316.68	21.19	-35.5	-36.9	18.0	0.00e+00	0	59	0	2930769920	41	4509
2026-01-28 13:08:59.50	316.85	21.09	-35.6	-37.0	18.0	0.00e+00	0	59	0	2936012800	41	4559
2026-01-28 13:09:00.51	317.01	20.98	-35.6	-37.0	17.9	0.00e+00	0	59	0	2942304256	41	4583
2026-01-28 13:09:01.52	317.18	20.87	-35.7	-37.1	17.9	0.00e+00	0	59	0	2947547136	41	4606
2026-01-28 13:09:02.53	317.34	20.77	-35.8	-37.2	17.8	0.00e+00	0	59	0	2952790016	42	4405
2026-01-28 13:09:03.54	317.50	20.66	-35.8	-37.2	17.7	0.00e+00	0	59	0	2959081472	42	4426
2026-01-28 13:09:04.55	317.66	20.55	-35.8	-37.2	17.8	0.00e+00	0	59	0	2964324352	42	4395
2026-01-28 13:09:05.55	317.82	20.45	-35.8	-37.2	17.7	0.00e+00	0	59	0	2970615808	42	4431
2026-01-28 13:09:06.56	317.97	20.34	-35.9	-37.3	17.6	0.00e+00	0	59	0	2975858688	42	4459
2026-01-28 13:09:07.58	318.13	20.24	-35.9	-37.3	17.7	0.00e+00	0	59	0	2982150144	42	4448
2026-01-28 13:09:08.58	318.29	20.13	-35.8	-37.2	17.8	0.00e+00	0	59	0	2987393024	42	4402
2026-01-28 13:09:09.59	318.44	20.03	-35.8	-37.1	17.8	0.00e+00	0	59	0	2993684480	42	4389
2026-01-28 13:09:10.61	318.60	19.92	-35.7	-37.1	17.8	0.00e+00	0	59	0	2998927360	42	4368
2026-01-28 13:09:11.62	318.75	19.82	-35.8	-37.1	17.8	0.00e+00	0	60	0	3004170240	42	4383
2026-01-28 13:09:12.63	318.90	19.71	-35.8	-37.2	17.7	0.00e+00	0	59	0	3010461696	42	4405
2026-01-28 13:09:13.63	319.05	19.61	-35.9	-37.3	17.6	0.00e+00	0	59	0	3015704576	42	4447
2026-01-28 13:09:14.64	319.20	19.51	-36.0	-37.4	17.5	0.00e+00	0	59	0	3021996032	42	4507
2026-01-28 13:09:15.65	319.35	19.40	-36.0	-37.5	17.4	0.00e+00	0	59	0	3027238912	42	4556
2026-01-28 13:09:16.66	319.50	19.30	-36.1	-37.5	17.4	0.00e+00	0	59	0	3032481792	42	4572
2026-01-28 13:09:17.67	319.64	19.20	-36.2	-37.6	17.3	0.00e+00	0	59	0	3038773248	42	4641
2026-01-28 13:09:18.68	319.79	19.10	-36.2	-37.7	17.2	0.00e+00	0	59	0	3044016128	43	4423
2026-01-28 13:09:19.70	319.93	18.99	-36.3	-37.8	17.1	0.00e+00	0	59	0	3050307584	43	4483
2026-01-28 13:09:20.71	320.08	18.89	-36.4	-37.9	17.0	0.00e+00	0	59	0	3055550464	43	4515
2026-01-28 13:09:21.72	320.22	18.79	-36.4	-37.9	17.0	0.00e+00	0	59	0	3060793344	43	4511
2026-01-28 13:09:22.73	320.36	18.69	-36.3	-37.8	17.1	0.00e+00	0	59	0	3067084800	43	4481
2026-01-28 13:09:23.74	320.50	18.59	-36.3	-37.8	17.1	0.00e+00	0	59	0	3072327680	43	4468
2026-01-28 13:09:24.75	320.64	18.49	-36.4	-37.9	17.0	0.00e+00	0	59	0	3078619136	43	4499
2026-01-28 13:09:25.76	320.78	18.38	-36.4	-37.9	17.0	0.00e+00	0	59	0	3083862016	43	4518
2026-01-28 13:09:26.77	320.92	18.28	-36.4	-37.9	16.9	0.00e+00	0	59	0	3090153472	43	4544
2026-01-28 13:09:27.78	321.06	18.18	-36.4	-37.9	16.9	0.00e+00	0	59	0	3095396352	43	4527
2026-01-28 13:09:28.80	321.20	18.08	-36.4	-38.0	16.9	0.00e+00	0	59	0	3101687808	43	4552
2026-01-28 13:09:29.80	321.33	17.98	-36.6	-38.1	16.7	0.00e+00	0	59	0	3106930688	43	4631
2026-01-28 13:09:30.82	321.47	17.88	-36.6	-38.1	16.7	0.00e+00	0	59	0	3112173568	43	4649
2026-01-28 13:09:31.82	321.60	17.79	-36.5	-38.1	16.8	0.00e+00	0	59	0	3118465024	43	4602
2026-01-28 13:09:32.83	321.73	17.69	-36.6	-38.2	16.7	0.00e+00	0	59	0	3123707904	43	4653
2026-01-28 13:09:33.84	321.87	17.59	-36.6	-38.1	16.7	0.00e+00	0	59	0	3129999360	43	4632
2026-01-28 13:09:34.85	322.00	17.49	-36.6	-38.2	16.7	0.00e+00	0	59	0	3135242240	43	4677
2026-01-28 13:09:35.86	322.13	17.39	-36.5	-38.1	16.7	0.00e+00	0	59	0	3140485120	43	4614
2026-01-28 13:09:36.87	322.26	17.29	-36.5	-38.0	16.8	0.00e+00	0	59	0	3146776576	43	4587
2026-01-28 13:09:37.88	322.39	17.20	-36.5	-38.0	16.8	0.00e+00	0	59	0	3152019456	43	4589
2026-01-28 13:09:38.89	322.52	17.10	-36.5	-38.0	16.8	0.00e+00	0	59	0	3158310912	43	4567
2026-01-28 13:09:39.90	322.64	17.00	-36.5	-38.0	16.8	0.00e+00	0	59	0	3163553792	43	4579
2026-01-28 13:09:40.91	322.77	16.90	-36.5	-38.0	16.8	0.00e+00	0	59	0	3168796672	43	4583
2026-01-28 13:09:41.93	322.90	16.81	-36.5	-38.0	16.8	0.00e+00	0	59	0	3175088128	43	4561
2026-01-28 13:09:42.94	323.02	16.71	-36.4	-37.9	16.9	0.00e+00	0	59	0	3180331008	43	4527
2026-01-28 13:09:43.95	323.15	16.61	-36.4	-37.9	16.9	0.00e+00	0	59	0	3186622464	43	4500
2026-01-28 13:09:44.96	323.27	16.52	-36.4	-38.0	16.8	0.00e+00	0	59	0	3191865344	43	4547
2026-01-28 13:09:45.97	323.39	16.42	-36.4	-37.9	16.8	0.00e+00	0	59	0	3198156800	43	4537
2026-01-28 13:09:46.98	323.52	16.33	-36.4	-37.9	16.8	0.00e+00	0	59	0	3203399680	43	4539
2026-01-28 13:09:47.99	323.64	16.23	-36.4	-38.0	16.8	0.00e+00	0	59	0	3208642560	43	4551
2026-01-28 13:09:49.00	323.76	16.14	-36.5	-38.0	16.7	0.00e+00	0	59	0	3214934016	43	4586
2026-01-28 13:09:50.01	323.88	16.04	-36.5	-38.0	16.7	0.00e+00	0	59	0	3220176896	43	4593
2026-01-28 13:09:51.01	323.99	15.95	-36.6	-38.1	16.6	0.00e+00	0	59	0	3226468352	43	4646
2026-01-28 13:09:52.02	324.11	15.85	-36.6	-38.1	16.6	0.00e+00	0	59	0	3231711232	43	4636
2026-01-28 13:09:53.03	324.23	15.76	-36.6	-38.2	16.6	0.00e+00	0	59	0	3236954112	43	4657
2026-01-28 13:09:54.04	324.35	15.67	-36.9	-38.4	16.5	0.00e+00	0	59	0	3243245568	44	4544
2026-01-28 13:09:55.05	324.46	15.57	-36.8	-38.3	16.6	0.00e+00	0	59	0	3248488448	44	4472
2026-01-28 13:09:56.06	324.58	15.48	-36.8	-38.3	16.6	0.00e+00	0	59	0	3254779904	44	4489
2026-01-28 13:09:57.07	324.69	15.39	-36.8	-38.4	16.6	0.00e+00	0	59	0	3260022784	44	4494
2026-01-28 13:09:58.08	324.81	15.29	-36.8	-38.4	16.5	0.00e+00	0	59	0	3265265664	44	4532
2026-01-28 13:09:59.09	324.92	15.20	-36.9	-38.5	16.4	0.00e+00	0	59	0	3271557120	44	4557
2026-01-28 13:10:00.10	325.04	15.11	-36.9	-38.5	16.4	0.00e+00	0	59	0	3276800000	44	4577
2026-01-28 13:10:01.11	325.15	15.02	-36.9	-38.5	16.4	0.00e+00	0	59	0	3283091456	44	4583
2026-01-28 13:10:02.12	325.26	14.93	-36.9	-38.5	16.4	0.00e+00	0	59	0	3288334336	44	4597
2026-01-28 13:10:03.13	325.37	14.84	-37.0	-38.6	16.2	0.00e+00	0	59	0	3294625792	44	4644
2026-01-28 13:10:04.14	325.48	14.74	-37.0	-38.7	16.2	0.00e+00	0	59	0	3299868672	44	4663
2026-01-28 13:10:05.15	325.59	14.65	-37.1	-38.8	16.1	0.00e+00	0	60	0	3306160128	44	4711
2026-01-28 13:10:06.16	325.70	14.56	-37.2	-38.8	16.0	0.00e+00	0	59	0	3311403008	44	4758
2026-01-28 13:10:07.17	325.81	14.47	-37.1	-38.8	16.1	0.00e+00	0	59	0	3316645888	44	4724
2026-01-28 13:10:08.18	325.91	14.38	-37.1	-38.8	16.1	0.00e+00	0	59	0	3322937344	44	4731
2026-01-28 13:10:09.19	326.02	14.29	-37.2	-38.8	16.0	0.00e+00	0	59	0	3328180224	44	4759
2026-01-28 13:10:10.20	326.13	14.20	-37.2	-38.8	16.1	0.00e+00	0	59	0	3334471680	44	4748
2026-01-28 13:10:11.22	326.24	14.11	-37.1	-38.8	16.1	0.00e+00	0	59	0	3339714560	44	4726
2026-01-28 13:10:12.23	326.34	14.02	-37.2	-38.8	16.0	0.00e+00	0	59	0	3344957440	44	4744
2026-01-28 13:10:13.24	326.45	13.93	-37.1	-38.8	16.0	0.00e+00	0	59	0	3351248896	44	4729
2026-01-28 13:10:14.25	326.55	13.85	-37.2	-38.8	16.0	0.00e+00	0	59	0	3356491776	44	4739
2026-01-28 13:10:15.26	326.65	13.76	-37.2	-38.9	16.0	0.00e+00	0	59	0	3362783232	44	4766
2026-01-28 13:10:16.27	326.76	13.67	-37.2	-38.8	16.0	0.00e+00	0	59	0	3368026112	44	4742
2026-01-28 13:10:17.28	326.86	13.58	-37.2	-38.9	15.9	0.00e+00	0	59	0	3373268992	44	4779
2026-01-28 13:10:18.29	326.96	13.49	-37.2	-38.9	15.9	0.00e+00	0	59	0	3379560448	44	4781
2026-01-28 13:10:19.30	327.06	13.41	-37.3	-39.0	15.9	0.00e+00	0	60	0	3384803328	45	4548
2026-01-28 13:10:20.31	327.16	13.32	-37.3	-39.0	15.8	0.00e+00	0	59	0	3391094784	45	4560
2026-01-28 13:10:21.32	327.26	13.23	-37.4	-39.1	15.7	0.00e+00	0	59	0	3396337664	45	4638
2026-01-28 13:10:22.33	327.36	13.15	-37.5	-39.2	15.6	0.00e+00	0	60	0	3402629120	45	4681
2026-01-28 13:10:23.34	327.46	13.06	-37.5	-39.3	15.5	0.00e+00	0	59	0	3407872000	45	4707
2026-01-28 13:10:24.35	327.56	12.97	-37.5	-39.2	15.5	0.00e+00	0	59	0	3414163456	45	4703
2026-01-28 13:10:25.36	327.66	12.89	-37.5	-39.3	15.5	0.00e+00	0	60	0	3419406336	45	4712
2026-01-28 13:10:26.38	327.75	12.80	-37.5	-39.3	15.4	0.00e+00	0	59	0	3424649216	45	4748
2026-01-28 13:10:27.39	327.85	12.71	-37.6	-39.4	15.4	0.00e+00	0	59	0	3430940672	45	4780
2026-01-28 13:10:28.40	327.95	12.63	-37.6	-39.4	15.4	0.00e+00	0	59	0	3436183552	45	4786
2026-01-28 13:10:29.41	328.04	12.54	-37.6	-39.3	15.4	0.00e+00	0	60	0	3442475008	45	4758
2026-01-28 13:10:30.42	328.14	12.46	-37.7	-39.5	15.2	0.00e+00	0	59	0	3447717888	45	4855
2026-01-28 13:10:31.43	328.23	12.37	-37.7	-39.5	15.3	0.00e+00	0	60	0	3452960768	45	4838
2026-01-28 13:10:32.44	328.33	12.29	-37.7	-39.5	15.2	1.10e-06	0	59	0	3459252224	45	4864
2026-01-28 13:10:33.45	328.42	12.21	-37.7	-39.6	15.2	0.00e+00	0	59	0	3464495104	46	4613
2026-01-28 13:10:34.46	328.51	12.12	-37.7	-39.6	15.2	1.10e-06	0	59	0	3470786560	46	4621
2026-01-28 13:10:35.48	328.61	12.04	-37.7	-39.5	15.2	1.10e-06	0	59	0	3476029440	46	4586
2026-01-28 13:10:36.49	328.70	11.95	-37.8	-39.6	15.1	0.00e+00	0	59	0	3481272320	46	4622
2026-01-28 13:10:37.50	328.79	11.87	-37.8	-39.7	15.0	0.00e+00	0	59	0	3487563776	46	4676
2026-01-28 13:10:38.51	328.88	11.79	-37.9	-39.7	15.0	0.00e+00	0	59	0	3492806656	46	4693
2026-01-28 13:10:39.52	328.97	11.71	-37.8	-39.7	15.0	0.00e+00	0	59	0	3499098112	46	4678
2026-01-28 13:10:40.53	329.06	11.62	-37.8	-39.7	15.0	0.00e+00	0	59	0	3504340992	46	4677
