passes_logs/2026/01/28/R2.0S_Moscow/R2.0S_Moscow__20260128_225229_NOAA_20_JPSS-1_rec.log

#Pass ID: 20260128_225229_NOAA 20 (JPSS-1)
#Satellite: NOAA 20 (JPSS-1)
#Configuration: NOAA 20
#almurnet v.1.7.20251203
#Start time: 2026-01-28 22:52:29

#Version: 2.2.20231116
#Station: R2.0S_Moscow
#Location: 37.707566 lon 55.798166 lat
#TLE: 1 43013U 17073A   26027.80586608  .00000156  00000+0  94940-4 0  9998
#TLE: 2 43013  98.7647 328.6108 0000947  21.3465 338.7750 14.19541216424550

#Time	Az	El	Level	Level2	SNR	BER	BlckErr	Temp	State	Recorded	gain1	gain2
2026-01-28 22:52:29.97	20.30	2.03	-42.2	-56.6	3.8	1.49e+00	0	50	0	0	56	18485
2026-01-28 22:52:30.97	20.34	2.10	-42.0	-56.5	3.8	1.49e+00	0	50	104	0	55	19208
2026-01-28 22:52:31.98	20.38	2.16	-42.0	-56.5	3.8	1.49e+00	0	50	104	0	55	19208
2026-01-28 22:52:32.99	20.42	2.22	-42.0	-56.5	3.8	1.49e+00	0	50	104	0	55	19204
2026-01-28 22:52:34.01	20.46	2.28	-42.0	-56.5	3.8	1.49e+00	0	50	104	0	55	19181
2026-01-28 22:52:35.02	20.50	2.34	-42.0	-56.5	3.8	1.49e+00	0	50	104	0	55	19183
2026-01-28 22:52:36.03	20.54	2.41	-42.0	-56.5	3.8	1.49e+00	0	50	104	0	55	19177
2026-01-28 22:52:37.04	20.58	2.47	-42.0	-56.5	3.8	1.49e+00	0	51	104	0	55	19213
2026-01-28 22:52:38.05	20.63	2.53	-42.0	-56.5	3.8	1.49e+00	0	50	104	0	55	19263
2026-01-28 22:52:39.06	20.67	2.59	-42.0	-56.5	3.8	1.49e+00	0	51	104	0	55	19198
2026-01-28 22:52:40.07	20.71	2.66	-42.0	-56.4	3.8	1.49e+00	0	51	104	0	55	19126
2026-01-28 22:52:41.08	20.75	2.72	-42.0	-56.5	3.8	1.49e+00	0	51	104	0	55	19247
2026-01-28 22:52:42.10	20.79	2.78	-42.0	-56.5	3.8	1.49e+00	0	51	104	0	55	19168
2026-01-28 22:52:43.11	20.83	2.85	-42.0	-56.5	3.8	1.49e+00	0	51	104	0	55	19178
2026-01-28 22:52:44.12	20.88	2.91	-42.0	-56.4	3.8	1.49e+00	0	51	104	0	55	19129
2026-01-28 22:52:45.13	20.92	2.97	-42.0	-56.5	3.8	1.49e+00	0	51	104	0	55	19184
2026-01-28 22:52:46.14	20.96	3.04	-42.0	-56.4	3.8	1.49e+00	0	51	104	0	55	19156
2026-01-28 22:52:47.15	21.00	3.10	-42.0	-56.5	3.8	1.49e+00	0	51	104	0	55	19195
2026-01-28 22:52:48.16	21.05	3.17	-42.0	-56.4	3.8	1.49e+00	0	51	104	0	55	19163
2026-01-28 22:52:49.17	21.09	3.23	-42.0	-56.4	3.8	1.49e+00	0	51	104	0	55	19138
2026-01-28 22:52:50.18	21.13	3.29	-42.0	-56.4	3.8	1.49e+00	0	52	104	0	55	19157
2026-01-28 22:52:51.19	21.18	3.36	-42.0	-56.5	3.8	1.49e+00	0	51	104	0	55	19179
2026-01-28 22:52:52.20	21.22	3.42	-42.0	-56.5	3.8	1.49e+00	0	51	104	0	55	19182
2026-01-28 22:52:53.21	21.26	3.49	-42.0	-56.4	3.8	1.49e+00	0	51	104	0	55	19167
2026-01-28 22:52:54.22	21.31	3.55	-42.0	-56.5	3.8	1.49e+00	0	51	104	0	55	19281
2026-01-28 22:52:55.23	21.35	3.62	-42.0	-56.4	3.8	1.49e+00	0	52	104	0	55	19149
2026-01-28 22:52:56.24	21.40	3.68	-42.0	-56.4	3.8	1.49e+00	0	52	104	0	55	19135
2026-01-28 22:52:57.25	21.44	3.75	-42.0	-56.4	3.8	1.49e+00	0	52	104	0	55	19131
2026-01-28 22:52:58.26	21.48	3.81	-42.0	-56.5	3.8	1.49e+00	0	52	104	0	55	19200
2026-01-28 22:52:59.27	21.53	3.88	-42.0	-56.4	3.8	1.49e+00	0	52	104	0	55	19164
2026-01-28 22:53:00.28	21.57	3.94	-42.0	-56.5	3.8	1.49e+00	0	52	104	0	55	19175
2026-01-28 22:53:01.29	21.62	4.01	-42.0	-56.4	3.8	1.49e+00	0	52	104	0	55	19139
2026-01-28 22:53:02.30	21.67	4.07	-42.0	-56.5	3.8	1.49e+00	0	52	104	0	55	19196
2026-01-28 22:53:03.31	21.71	4.14	-42.0	-56.4	3.8	1.49e+00	0	52	104	0	55	19113
2026-01-28 22:53:04.32	21.76	4.21	-42.0	-56.4	3.8	1.49e+00	0	52	104	0	55	19119
2026-01-28 22:53:05.34	21.80	4.27	-42.0	-56.4	3.8	1.49e+00	0	52	104	0	55	19091
2026-01-28 22:53:06.35	21.85	4.34	-42.0	-56.4	3.8	1.49e+00	0	52	104	0	55	19089
2026-01-28 22:53:07.36	21.89	4.41	-42.0	-56.4	3.8	1.49e+00	0	53	104	0	55	19108
2026-01-28 22:53:08.36	21.94	4.47	-42.0	-56.4	3.8	1.49e+00	0	53	104	0	55	19053
2026-01-28 22:53:09.37	21.99	4.54	-42.0	-56.4	3.8	1.49e+00	0	53	104	0	55	19092
2026-01-28 22:53:10.38	22.03	4.61	-42.0	-56.4	3.8	1.49e+00	0	53	104	0	55	19058
2026-01-28 22:53:11.40	22.08	4.68	-42.0	-56.4	3.8	1.49e+00	0	52	104	0	55	19099
2026-01-28 22:53:12.41	22.13	4.74	-42.0	-56.4	3.8	1.49e+00	0	52	104	0	55	19087
2026-01-28 22:53:13.42	22.18	4.81	-42.0	-56.4	3.8	1.49e+00	0	52	104	0	55	19071
2026-01-28 22:53:14.43	22.22	4.88	-42.0	-56.4	3.8	1.49e+00	0	53	104	0	55	19111
2026-01-28 22:53:15.44	22.27	4.95	-42.0	-56.5	3.8	1.49e+00	0	53	104	0	55	19174
2026-01-28 22:53:16.45	22.32	5.01	-42.0	-56.4	3.8	1.49e+00	0	53	104	0	55	19058
2026-01-28 22:53:17.46	22.37	5.08	-42.0	-56.4	3.8	1.49e+00	0	53	104	0	55	19100
2026-01-28 22:53:18.47	22.42	5.15	-42.0	-56.4	3.8	1.49e+00	0	53	104	0	55	19129
2026-01-28 22:53:19.48	22.46	5.22	-42.0	-56.4	3.8	1.49e+00	0	53	104	0	55	19079
2026-01-28 22:53:20.49	22.51	5.29	-42.0	-56.4	3.8	1.49e+00	0	53	104	0	55	19016
2026-01-28 22:53:21.50	22.56	5.36	-42.0	-56.4	3.8	1.49e+00	0	53	104	0	55	19053
2026-01-28 22:53:22.51	22.61	5.43	-42.0	-56.4	3.8	1.49e+00	0	53	104	0	55	19153
2026-01-28 22:53:23.52	22.66	5.50	-42.0	-56.4	3.8	1.49e+00	0	53	104	0	55	19071
2026-01-28 22:53:24.53	22.71	5.56	-42.0	-56.4	3.8	1.49e+00	0	53	104	0	55	19101
2026-01-28 22:53:25.54	22.76	5.63	-42.0	-56.4	3.8	1.49e+00	0	53	104	0	55	19119
2026-01-28 22:53:26.55	22.81	5.70	-42.0	-56.4	3.8	1.49e+00	0	53	104	0	55	19069
2026-01-28 22:53:27.56	22.86	5.77	-42.0	-56.4	3.8	1.49e+00	0	53	104	0	55	19050
2026-01-28 22:53:28.57	22.91	5.84	-42.0	-56.4	3.8	1.49e+00	0	54	104	0	55	19084
2026-01-28 22:53:29.59	22.96	5.91	-42.0	-56.4	3.8	1.49e+00	0	54	104	0	55	19081
2026-01-28 22:53:30.60	23.01	5.99	-42.0	-56.4	3.8	1.49e+00	0	53	104	0	55	19011
2026-01-28 22:53:31.61	23.07	6.06	-42.0	-56.4	3.8	1.49e+00	0	54	104	0	55	19076
2026-01-28 22:53:32.62	23.12	6.13	-42.0	-56.4	3.8	1.49e+00	0	53	104	0	55	19079
2026-01-28 22:53:33.63	23.17	6.20	-42.0	-56.4	3.8	1.49e+00	0	54	104	0	55	19135
2026-01-28 22:53:34.64	23.22	6.27	-42.0	-56.4	3.8	1.49e+00	0	54	104	0	55	19146
2026-01-28 22:53:35.65	23.27	6.34	-42.0	-56.4	3.8	1.49e+00	0	54	104	0	55	19092
2026-01-28 22:53:36.66	23.32	6.41	-42.0	-56.4	3.8	1.49e+00	0	54	104	0	55	19111
2026-01-28 22:53:37.67	23.38	6.48	-42.0	-56.4	3.8	1.49e+00	0	54	104	0	55	19075
2026-01-28 22:53:38.68	23.43	6.55	-42.0	-56.4	3.8	1.49e+00	0	54	104	0	55	19082
2026-01-28 22:53:39.69	23.48	6.63	-42.0	-56.4	3.8	1.49e+00	0	54	104	0	55	19072
2026-01-28 22:53:40.70	23.54	6.70	-42.0	-56.4	3.8	1.49e+00	0	54	104	0	55	19101
2026-01-28 22:53:41.71	23.59	6.77	-42.0	-56.4	3.8	1.49e+00	0	54	104	0	55	19048
2026-01-28 22:53:42.72	23.64	6.84	-42.0	-56.4	3.8	1.49e+00	0	54	104	0	55	19056
2026-01-28 22:53:43.74	23.70	6.92	-42.0	-56.4	3.8	1.49e+00	0	54	104	0	55	18990
2026-01-28 22:53:44.75	23.75	6.99	-42.0	-56.4	3.8	1.49e+00	0	54	104	0	55	19038
2026-01-28 22:53:45.76	23.81	7.06	-42.0	-56.4	3.8	1.49e+00	0	54	104	0	55	19011
2026-01-28 22:53:46.77	23.86	7.14	-42.0	-56.3	3.8	1.49e+00	0	54	104	0	55	18909
2026-01-28 22:53:47.78	23.92	7.21	-42.0	-56.2	3.8	1.49e+00	0	54	104	0	55	18721
2026-01-28 22:53:48.79	23.97	7.28	-42.0	-56.2	3.8	1.49e+00	0	55	104	0	55	18575
2026-01-28 22:53:49.80	24.03	7.36	-41.9	-56.1	3.8	1.49e+00	0	54	104	0	55	18318
2026-01-28 22:53:50.81	24.08	7.43	-41.9	-55.8	3.8	1.49e+00	0	54	104	0	55	17740
2026-01-28 22:53:51.82	24.14	7.51	-41.9	-55.3	3.8	1.49e+00	0	54	104	0	55	16827
2026-01-28 22:53:52.83	24.20	7.58	-41.9	-54.9	3.8	1.49e+00	0	55	104	0	55	16057
2026-01-28 22:53:53.84	24.25	7.66	-41.8	-54.2	3.9	1.49e+00	0	54	104	0	55	14856
2026-01-28 22:53:54.85	24.31	7.73	-41.8	-53.3	3.9	1.48e+00	0	55	104	0	55	13283
2026-01-28 22:53:55.86	24.37	7.81	-41.7	-52.3	4.3	1.36e+00	32	55	0	0	55	11930
2026-01-28 22:53:56.87	24.42	7.88	-41.6	-51.2	4.8	9.65e-01	0	54	0	1048576	55	10439
2026-01-28 22:53:57.88	24.48	7.96	-41.4	-49.8	5.7	6.44e-01	0	55	0	3145728	54	9435
2026-01-28 22:53:58.89	24.54	8.03	-41.1	-48.5	6.7	2.62e-01	0	55	0	5242880	54	8132
2026-01-28 22:53:59.90	24.60	8.11	-41.7	-49.1	6.7	1.47e-01	0	55	0	7340032	54	8742
2026-01-28 22:54:00.91	24.66	8.18	-41.4	-51.6	4.5	2.93e-01	0	55	0	9437184	54	11561
2026-01-28 22:54:01.92	24.71	8.26	-41.3	-46.6	9.8	5.99e-02	0	55	0	10485760	53	6881
2026-01-28 22:54:02.93	24.77	8.34	-42.9	-51.3	5.8	5.89e-02	0	55	0	12582912	56	10038
2026-01-28 22:54:03.94	24.83	8.41	-41.4	-49.1	6.4	6.04e-02	0	55	0	14680064	54	8719
2026-01-28 22:54:04.95	24.89	8.49	-41.6	-47.2	9.1	4.08e-02	0	55	0	16777216	54	7025
2026-01-28 22:54:05.96	24.95	8.57	-41.6	-47.2	9.1	2.26e-02	0	55	0	18874368	54	7001
2026-01-28 22:54:06.97	25.01	8.65	-41.5	-47.0	9.4	1.86e-02	0	55	0	19922944	54	6821
2026-01-28 22:54:07.98	25.07	8.72	-41.5	-46.8	9.6	1.24e-02	0	55	0	22020096	54	6670
2026-01-28 22:54:08.99	25.13	8.80	-41.4	-46.6	9.9	1.06e-02	0	55	0	24117248	54	6539
2026-01-28 22:54:10.00	25.20	8.88	-41.6	-46.9	9.6	9.92e-03	0	55	0	26214400	54	6746
2026-01-28 22:54:11.01	25.26	8.96	-41.7	-47.0	9.5	1.46e-02	0	55	0	28311552	54	6858
2026-01-28 22:54:12.02	25.32	9.04	-41.6	-47.0	9.6	1.28e-02	0	55	0	30408704	54	6828
2026-01-28 22:54:13.03	25.38	9.11	-41.6	-46.9	9.6	1.04e-02	0	55	0	31457280	54	6792
2026-01-28 22:54:14.04	25.44	9.19	-41.7	-47.0	9.7	1.20e-02	0	55	0	33554432	54	6809
2026-01-28 22:54:15.05	25.51	9.27	-41.7	-46.9	9.8	1.02e-02	0	55	0	35651584	54	6736
2026-01-28 22:54:16.07	25.57	9.35	-41.7	-47.0	9.7	1.10e-02	0	55	0	37748736	54	6867
2026-01-28 22:54:17.08	25.63	9.43	-41.6	-46.6	10.2	1.02e-02	0	55	0	39845888	54	6555
2026-01-28 22:54:18.09	25.70	9.51	-41.7	-46.8	10.0	6.25e-03	0	55	0	40894464	54	6694
2026-01-28 22:54:19.10	25.76	9.59	-41.8	-46.8	10.1	6.59e-03	0	55	0	42991616	54	6695
2026-01-28 22:54:20.10	25.82	9.67	-41.7	-46.5	10.5	4.55e-03	0	56	0	45088768	54	6463
2026-01-28 22:54:21.11	25.89	9.75	-41.7	-46.6	10.4	4.32e-03	0	55	0	47185920	54	6532
2026-01-28 22:54:22.12	25.95	9.83	-41.6	-46.4	10.6	3.85e-03	0	56	0	49283072	54	6401
2026-01-28 22:54:23.13	26.02	9.91	-41.8	-46.6	10.3	3.81e-03	0	55	0	50331648	54	6568
2026-01-28 22:54:24.14	26.08	9.99	-41.7	-46.4	10.6	3.93e-03	0	56	0	52428800	54	6390
2026-01-28 22:54:25.15	26.15	10.08	-41.8	-46.6	10.4	4.54e-03	0	55	0	54525952	54	6560
2026-01-28 22:54:26.16	26.22	10.16	-41.8	-46.6	10.5	4.52e-03	0	55	0	56623104	54	6530
2026-01-28 22:54:27.17	26.28	10.24	-41.9	-46.9	10.2	4.98e-03	0	55	0	58720256	54	6756
2026-01-28 22:54:28.18	26.35	10.32	-41.8	-46.6	10.6	4.28e-03	0	55	0	59768832	54	6495
2026-01-28 22:54:29.20	26.42	10.40	-41.8	-46.5	10.6	3.40e-03	0	55	0	61865984	54	6491
2026-01-28 22:54:30.20	26.49	10.49	-41.7	-46.3	11.0	2.32e-03	0	56	0	63963136	54	6310
2026-01-28 22:54:31.21	26.55	10.57	-41.8	-46.4	10.9	2.31e-03	0	56	0	66060288	54	6359
2026-01-28 22:54:32.23	26.62	10.65	-41.7	-46.2	11.1	1.95e-03	0	56	0	68157440	54	6224
2026-01-28 22:54:33.23	26.69	10.74	-41.7	-46.1	11.3	1.20e-03	0	56	0	69206016	54	6148
2026-01-28 22:54:34.24	26.76	10.82	-41.6	-46.0	11.4	1.13e-03	0	56	0	71303168	54	6080
2026-01-28 22:54:35.25	26.83	10.90	-41.7	-46.0	11.4	1.10e-03	0	56	0	73400320	54	6117
2026-01-28 22:54:36.27	26.90	10.99	-41.7	-46.0	11.5	8.99e-04	0	56	0	75497472	54	6067
2026-01-28 22:54:37.28	26.97	11.07	-41.7	-46.1	11.4	9.45e-04	0	56	0	77594624	54	6141
2026-01-28 22:54:38.29	27.04	11.16	-41.6	-45.7	11.7	6.84e-04	0	56	0	79691776	54	5910
2026-01-28 22:54:39.30	27.11	11.24	-41.6	-45.7	11.7	5.38e-04	0	56	0	80740352	54	5920
2026-01-28 22:54:40.31	27.18	11.33	-41.6	-45.7	11.8	4.68e-04	0	56	0	82837504	54	5860
2026-01-28 22:54:41.32	27.25	11.41	-41.5	-45.5	11.9	3.64e-04	0	56	0	84934656	54	5784
2026-01-28 22:54:42.33	27.33	11.50	-41.5	-45.6	11.9	3.39e-04	0	56	0	87031808	54	5797
2026-01-28 22:54:43.34	27.40	11.58	-41.4	-45.5	12.0	3.66e-04	0	56	0	89128960	54	5732
2026-01-28 22:54:44.35	27.47	11.67	-41.5	-45.4	12.1	3.14e-04	0	56	0	90177536	54	5709
2026-01-28 22:54:45.36	27.55	11.76	-41.5	-45.5	12.0	2.98e-04	0	56	0	92274688	54	5750
2026-01-28 22:54:46.37	27.62	11.84	-41.5	-45.6	11.9	4.00e-04	0	56	0	94371840	54	5798
2026-01-28 22:54:47.38	27.69	11.93	-41.4	-45.3	12.1	2.97e-04	0	56	0	96468992	54	5656
2026-01-28 22:54:48.39	27.77	12.02	-41.4	-45.3	12.2	2.35e-04	0	56	0	98566144	54	5628
2026-01-28 22:54:49.40	27.84	12.11	-41.4	-45.2	12.3	2.18e-04	0	56	0	99614720	54	5588
2026-01-28 22:54:50.41	27.92	12.19	-41.3	-45.1	12.5	1.15e-04	0	56	0	101711872	54	5480
2026-01-28 22:54:51.42	28.00	12.28	-41.3	-45.2	12.4	1.33e-04	0	56	0	103809024	54	5536
2026-01-28 22:54:52.43	28.07	12.37	-41.3	-45.1	12.5	1.12e-04	0	56	0	105906176	54	5488
2026-01-28 22:54:53.44	28.15	12.46	-41.3	-45.1	12.5	1.31e-04	0	56	0	108003328	54	5528
2026-01-28 22:54:54.45	28.23	12.55	-41.4	-45.2	12.5	1.33e-04	0	56	0	109051904	54	5538
2026-01-28 22:54:55.46	28.30	12.64	-41.4	-45.2	12.4	1.40e-04	0	56	0	111149056	54	5546
2026-01-28 22:54:56.47	28.38	12.73	-41.4	-45.2	12.4	1.45e-04	0	56	0	113246208	54	5578
2026-01-28 22:54:57.48	28.46	12.82	-41.4	-45.2	12.4	1.51e-04	0	56	0	115343360	54	5580
2026-01-28 22:54:58.49	28.54	12.91	-41.4	-45.3	12.3	1.07e-04	0	56	0	117440512	54	5601
2026-01-28 22:54:59.49	28.62	13.00	-41.4	-45.2	12.4	1.21e-04	0	56	0	118489088	54	5560
2026-01-28 22:55:00.50	28.70	13.09	-41.4	-45.2	12.4	1.33e-04	0	56	0	120586240	54	5568
2026-01-28 22:55:01.51	28.78	13.18	-41.4	-45.2	12.4	1.41e-04	0	56	0	122683392	54	5580
2026-01-28 22:55:02.52	28.86	13.27	-41.4	-45.2	12.4	1.36e-04	0	56	0	124780544	54	5566
2026-01-28 22:55:03.53	28.94	13.36	-41.4	-45.2	12.5	1.23e-04	0	56	0	126877696	54	5537
2026-01-28 22:55:04.54	29.02	13.45	-41.4	-45.2	12.4	1.46e-04	0	56	0	127926272	54	5572
2026-01-28 22:55:05.55	29.10	13.55	-41.4	-45.2	12.5	1.74e-04	0	56	0	130023424	54	5575
2026-01-28 22:55:06.57	29.19	13.64	-41.4	-45.1	12.5	1.11e-04	0	57	0	132120576	54	5528
2026-01-28 22:55:07.58	29.27	13.73	-41.4	-45.1	12.6	8.54e-05	0	57	0	134217728	54	5491
2026-01-28 22:55:08.59	29.35	13.82	-41.3	-45.0	12.6	9.23e-05	0	56	0	136314880	54	5461
2026-01-28 22:55:09.60	29.44	13.92	-41.4	-45.1	12.7	7.47e-05	0	56	0	137363456	54	5469
2026-01-28 22:55:10.61	29.52	14.01	-41.3	-45.0	12.8	7.01e-05	0	56	0	139460608	54	5422
2026-01-28 22:55:11.62	29.61	14.11	-41.4	-45.1	12.6	7.09e-05	0	57	0	141557760	54	5468
2026-01-28 22:55:12.63	29.69	14.20	-41.4	-45.0	12.7	7.55e-05	0	56	0	143654912	54	5461
2026-01-28 22:55:13.64	29.78	14.29	-41.3	-45.0	12.8	7.40e-05	0	56	0	145752064	54	5411
2026-01-28 22:55:14.65	29.87	14.39	-41.4	-45.1	12.7	8.85e-05	0	56	0	147849216	54	5468
2026-01-28 22:55:15.65	29.95	14.48	-41.4	-45.1	12.7	6.86e-05	0	57	0	148897792	54	5470
2026-01-28 22:55:16.66	30.04	14.58	-41.4	-45.1	12.7	8.39e-05	0	57	0	150994944	54	5474
2026-01-28 22:55:17.67	30.13	14.68	-41.4	-45.1	12.7	6.48e-05	0	57	0	153092096	54	5476
2026-01-28 22:55:18.68	30.22	14.77	-41.4	-45.1	12.7	6.94e-05	0	57	0	155189248	54	5480
2026-01-28 22:55:19.69	30.31	14.87	-41.4	-45.0	12.8	6.33e-05	0	57	0	157286400	54	5431
2026-01-28 22:55:20.70	30.40	14.97	-41.4	-45.1	12.7	6.86e-05	0	57	0	158334976	54	5489
2026-01-28 22:55:21.71	30.49	15.06	-41.4	-45.0	12.8	6.40e-05	0	57	0	160432128	54	5409
2026-01-28 22:55:22.72	30.58	15.16	-41.3	-44.9	13.0	4.19e-05	0	57	0	162529280	54	5341
2026-01-28 22:55:23.74	30.67	15.26	-41.4	-44.9	12.9	4.80e-05	0	57	0	164626432	54	5385
2026-01-28 22:55:24.75	30.77	15.36	-41.3	-44.8	13.0	3.28e-05	0	57	0	166723584	54	5307
2026-01-28 22:55:25.76	30.86	15.46	-41.2	-44.7	13.1	3.28e-05	0	57	0	167772160	54	5242
2026-01-28 22:55:26.77	30.95	15.55	-41.2	-44.7	13.1	3.28e-05	0	57	0	169869312	54	5229
2026-01-28 22:55:27.78	31.05	15.65	-41.2	-44.7	13.1	3.28e-05	0	57	0	171966464	54	5247
2026-01-28 22:55:28.79	31.14	15.75	-41.2	-44.7	13.1	2.67e-05	0	57	0	174063616	54	5256
2026-01-28 22:55:29.79	31.24	15.85	-41.2	-44.6	13.2	2.67e-05	0	57	0	176160768	54	5191
2026-01-28 22:55:30.80	31.33	15.95	-41.1	-44.5	13.3	1.52e-05	0	57	0	177209344	54	5127
2026-01-28 22:55:31.81	31.43	16.05	-41.1	-44.5	13.4	1.29e-05	0	57	0	179306496	54	5107
2026-01-28 22:55:32.82	31.53	16.15	-41.1	-44.5	13.4	1.06e-05	0	57	0	181403648	54	5130
2026-01-28 22:55:33.83	31.62	16.25	-41.1	-44.5	13.4	1.29e-05	0	57	0	183500800	54	5123
2026-01-28 22:55:34.84	31.72	16.36	-41.2	-44.5	13.3	1.37e-05	0	57	0	185597952	54	5147
2026-01-28 22:55:35.85	31.82	16.46	-41.2	-44.6	13.3	2.21e-05	0	57	0	186646528	54	5178
2026-01-28 22:55:36.86	31.92	16.56	-41.2	-44.6	13.3	1.75e-05	0	57	0	188743680	54	5218
2026-01-28 22:55:37.87	32.02	16.66	-41.2	-44.6	13.3	2.05e-05	0	57	0	190840832	54	5187
2026-01-28 22:55:38.88	32.12	16.77	-41.3	-44.8	13.2	1.90e-05	0	57	0	192937984	54	5282
2026-01-28 22:55:39.89	32.22	16.87	-41.3	-44.7	13.1	3.43e-05	0	57	0	195035136	54	5276
2026-01-28 22:55:40.90	32.33	16.97	-41.3	-44.8	13.1	3.28e-05	0	57	0	196083712	54	5319
2026-01-28 22:55:41.91	32.43	17.08	-41.4	-45.0	12.9	4.19e-05	0	57	0	198180864	54	5408
2026-01-28 22:55:42.92	32.53	17.18	-41.4	-44.9	13.0	3.81e-05	0	57	0	200278016	54	5369
2026-01-28 22:55:43.93	32.64	17.29	-41.5	-45.1	12.8	4.95e-05	0	57	0	202375168	54	5475
2026-01-28 22:55:44.94	32.74	17.39	-41.4	-45.1	12.8	5.03e-05	0	57	0	204472320	54	5470
2026-01-28 22:55:45.95	32.85	17.50	-41.4	-45.0	12.9	4.80e-05	0	57	0	205520896	54	5412
2026-01-28 22:55:46.96	32.95	17.60	-41.4	-45.0	12.9	4.80e-05	0	57	0	207618048	54	5459
2026-01-28 22:55:47.97	33.06	17.71	-41.5	-45.1	12.8	6.25e-05	0	57	0	209715200	54	5500
2026-01-28 22:55:48.98	33.17	17.82	-41.4	-45.1	12.9	5.26e-05	0	57	0	211812352	54	5465
2026-01-28 22:55:49.99	33.28	17.92	-41.5	-45.1	12.8	5.49e-05	0	57	0	213909504	54	5513
2026-01-28 22:55:51.00	33.39	18.03	-41.5	-45.2	12.7	5.64e-05	0	57	0	216006656	54	5544
2026-01-28 22:55:52.01	33.50	18.14	-41.6	-45.3	12.7	8.16e-05	0	57	0	217055232	54	5594
2026-01-28 22:55:53.02	33.61	18.25	-41.5	-45.1	12.9	8.01e-05	0	57	0	219152384	54	5471
2026-01-28 22:55:54.03	33.72	18.35	-41.6	-45.3	12.6	8.39e-05	0	57	0	221249536	54	5623
2026-01-28 22:55:55.04	33.83	18.46	-41.5	-45.2	12.7	7.85e-05	0	57	0	223346688	54	5575
2026-01-28 22:55:56.05	33.95	18.57	-41.6	-45.2	12.7	6.17e-05	0	57	0	225443840	54	5585
2026-01-28 22:55:57.06	34.06	18.68	-41.6	-45.3	12.7	8.16e-05	0	57	0	226492416	54	5609
2026-01-28 22:55:58.07	34.17	18.79	-41.6	-45.3	12.7	9.91e-05	0	57	0	228589568	54	5604
2026-01-28 22:55:59.08	34.29	18.90	-41.6	-45.4	12.6	1.16e-04	0	57	0	230686720	54	5658
2026-01-28 22:56:00.09	34.41	19.01	-41.6	-45.4	12.6	8.01e-05	0	57	0	232783872	54	5660
2026-01-28 22:56:01.10	34.52	19.12	-41.6	-45.3	12.7	8.46e-05	0	57	0	234881024	54	5598
2026-01-28 22:56:02.11	34.64	19.24	-41.6	-45.2	12.8	8.01e-05	0	57	0	235929600	54	5590
2026-01-28 22:56:03.12	34.76	19.35	-41.6	-45.2	12.8	7.01e-05	0	57	0	238026752	54	5563
2026-01-28 22:56:04.13	34.88	19.46	-41.6	-45.3	12.7	6.25e-05	0	57	0	240123904	54	5614
2026-01-28 22:56:05.14	35.00	19.57	-41.6	-45.2	12.8	5.34e-05	0	57	0	242221056	54	5569
2026-01-28 22:56:06.15	35.12	19.69	-41.6	-45.3	12.8	6.63e-05	0	57	0	244318208	54	5603
2026-01-28 22:56:07.16	35.24	19.80	-41.6	-45.2	12.9	4.88e-05	0	57	0	245366784	54	5541
2026-01-28 22:56:08.17	35.37	19.91	-41.5	-45.1	12.9	5.41e-05	0	57	0	247463936	54	5520
2026-01-28 22:56:09.18	35.49	20.03	-41.6	-45.2	12.8	4.95e-05	0	57	0	249561088	54	5588
2026-01-28 22:56:10.19	35.62	20.14	-41.6	-45.3	12.8	6.63e-05	0	58	0	251658240	54	5602
2026-01-28 22:56:11.20	35.74	20.26	-41.7	-45.4	12.6	8.62e-05	0	57	0	253755392	54	5693
2026-01-28 22:56:12.21	35.87	20.37	-41.7	-45.3	12.7	7.01e-05	0	57	0	254803968	54	5623
2026-01-28 22:56:13.22	36.00	20.49	-41.7	-45.5	12.6	1.13e-04	0	57	0	256901120	54	5750
2026-01-28 22:56:14.23	36.13	20.61	-41.7	-45.4	12.6	9.91e-05	0	57	0	258998272	54	5708
2026-01-28 22:56:15.24	36.26	20.72	-41.7	-45.5	12.6	7.85e-05	0	57	0	261095424	54	5728
2026-01-28 22:56:16.25	36.39	20.84	-41.7	-45.4	12.6	1.07e-04	0	57	0	263192576	54	5692
2026-01-28 22:56:17.26	36.52	20.96	-41.7	-45.3	12.8	6.40e-05	0	58	0	264241152	54	5628
2026-01-28 22:56:18.27	36.65	21.08	-41.7	-45.3	12.7	8.54e-05	0	57	0	266338304	54	5635
2026-01-28 22:56:19.27	36.78	21.19	-41.7	-45.4	12.7	8.08e-05	0	57	0	268435456	54	5669
2026-01-28 22:56:20.28	36.92	21.31	-41.7	-45.4	12.7	6.48e-05	0	57	0	270532608	54	5666
2026-01-28 22:56:21.29	37.05	21.43	-41.7	-45.4	12.7	7.01e-05	0	58	0	272629760	54	5679
2026-01-28 22:56:22.30	37.19	21.55	-41.7	-45.4	12.6	8.85e-05	0	57	0	273678336	54	5716
2026-01-28 22:56:23.31	37.33	21.67	-41.8	-45.5	12.6	8.77e-05	0	57	0	275775488	54	5742
2026-01-28 22:56:24.32	37.46	21.79	-41.8	-45.5	12.5	1.20e-04	0	58	0	277872640	54	5772
2026-01-28 22:56:25.33	37.60	21.91	-41.8	-45.5	12.5	9.00e-05	0	57	0	279969792	54	5788
2026-01-28 22:56:26.34	37.74	22.03	-41.8	-45.6	12.5	1.10e-04	0	58	0	282066944	54	5834
2026-01-28 22:56:27.35	37.89	22.15	-41.8	-45.6	12.4	1.23e-04	0	57	0	284164096	54	5854
2026-01-28 22:56:28.36	38.03	22.28	-41.9	-45.7	12.3	1.38e-04	0	58	0	285212672	54	5923
2026-01-28 22:56:29.38	38.17	22.40	-41.8	-45.6	12.4	1.61e-04	0	57	0	287309824	54	5844
2026-01-28 22:56:30.39	38.32	22.52	-41.9	-45.7	12.4	1.52e-04	0	57	0	289406976	54	5900
2026-01-28 22:56:31.40	38.47	22.65	-41.8	-45.6	12.5	1.04e-04	0	58	0	291504128	54	5793
2026-01-28 22:56:32.41	38.61	22.77	-41.8	-45.6	12.4	1.39e-04	0	57	0	293601280	54	5822
2026-01-28 22:56:33.42	38.76	22.89	-41.8	-45.6	12.5	1.34e-04	0	58	0	294649856	54	5813
2026-01-28 22:56:34.43	38.91	23.02	-41.7	-45.4	12.7	1.09e-04	0	58	0	296747008	54	5684
2026-01-28 22:56:35.44	39.06	23.14	-41.7	-45.4	12.7	7.78e-05	0	58	0	298844160	54	5696
2026-01-28 22:56:36.45	39.21	23.27	-41.7	-45.3	12.8	8.69e-05	0	58	0	300941312	54	5618
2026-01-28 22:56:37.46	39.37	23.39	-41.7	-45.3	12.7	7.40e-05	0	58	0	303038464	54	5654
2026-01-28 22:56:38.47	39.52	23.52	-41.7	-45.3	12.8	5.72e-05	0	58	0	304087040	54	5616
2026-01-28 22:56:39.48	39.68	23.65	-41.7	-45.3	12.9	5.03e-05	0	58	0	306184192	54	5616
2026-01-28 22:56:40.49	39.83	23.77	-41.7	-45.3	12.8	5.26e-05	0	58	0	308281344	54	5640
2026-01-28 22:56:41.50	39.99	23.90	-41.6	-45.2	13.0	2.59e-05	0	58	0	310378496	54	5537
2026-01-28 22:56:42.51	40.15	24.03	-41.7	-45.2	12.9	5.11e-05	0	58	0	312475648	54	5566
2026-01-28 22:56:43.52	40.31	24.16	-41.7	-45.3	12.9	4.27e-05	0	58	0	313524224	54	5594
2026-01-28 22:56:44.53	40.47	24.29	-41.7	-45.2	12.9	3.96e-05	0	58	0	315621376	54	5583
2026-01-28 22:56:45.54	40.64	24.42	-41.7	-45.3	12.9	4.88e-05	0	58	0	317718528	54	5622
2026-01-28 22:56:46.55	40.80	24.55	-41.7	-45.3	12.9	4.65e-05	0	58	0	319815680	54	5604
2026-01-28 22:56:47.56	40.97	24.68	-41.7	-45.4	12.8	5.49e-05	0	58	0	321912832	54	5660
2026-01-28 22:56:48.57	41.13	24.81	-41.8	-45.4	12.8	6.02e-05	0	58	0	322961408	54	5699
2026-01-28 22:56:49.58	41.30	24.94	-41.8	-45.5	12.7	7.55e-05	0	58	0	325058560	54	5741
2026-01-28 22:56:50.59	41.47	25.07	-41.8	-45.4	12.7	6.94e-05	0	58	0	327155712	54	5713
2026-01-28 22:56:51.60	41.64	25.20	-41.8	-45.4	12.8	6.10e-05	0	58	0	329252864	54	5690
2026-01-28 22:56:52.61	41.81	25.33	-41.7	-45.3	12.9	6.10e-05	0	58	0	331350016	54	5643
2026-01-28 22:56:53.62	41.99	25.46	-41.8	-45.4	12.8	6.25e-05	0	58	0	332398592	54	5715
2026-01-28 22:56:54.62	42.16	25.59	-41.7	-45.3	12.9	5.79e-05	0	58	0	334495744	54	5649
2026-01-28 22:56:55.63	42.34	25.73	-41.7	-45.4	12.8	5.03e-05	0	58	0	336592896	54	5666
2026-01-28 22:56:56.64	42.52	25.86	-41.8	-45.5	12.7	7.32e-05	0	58	0	338690048	54	5736
2026-01-28 22:56:57.65	42.70	25.99	-41.9	-45.6	12.6	7.78e-05	0	58	0	340787200	54	5795
2026-01-28 22:56:58.66	42.88	26.13	-41.9	-45.7	12.5	1.18e-04	0	58	0	341835776	54	5872
2026-01-28 22:56:59.67	43.06	26.26	-42.0	-45.7	12.5	1.06e-04	0	58	0	343932928	54	5913
2026-01-28 22:57:00.68	43.25	26.40	-41.9	-45.7	12.5	1.23e-04	0	58	0	346030080	54	5866
2026-01-28 22:57:01.69	43.43	26.53	-41.9	-45.7	12.6	1.20e-04	0	58	0	348127232	54	5859
2026-01-28 22:57:02.70	43.62	26.67	-42.0	-45.8	12.4	1.04e-04	0	58	0	350224384	54	5960
2026-01-28 22:57:03.72	43.81	26.81	-42.0	-45.8	12.4	1.66e-04	0	58	0	352321536	54	5969
2026-01-28 22:57:04.73	44.00	26.94	-42.0	-45.8	12.4	1.27e-04	0	58	0	353370112	54	5941
2026-01-28 22:57:05.73	44.19	27.08	-42.0	-45.8	12.4	1.50e-04	0	58	0	355467264	54	5991
2026-01-28 22:57:06.74	44.38	27.22	-42.0	-45.7	12.5	1.60e-04	0	58	0	357564416	54	5908
2026-01-28 22:57:07.76	44.58	27.35	-41.9	-45.6	12.7	1.15e-04	0	58	0	359661568	54	5794
2026-01-28 22:57:08.77	44.78	27.49	-41.9	-45.6	12.7	7.70e-05	0	58	0	361758720	54	5807
2026-01-28 22:57:09.78	44.98	27.63	-41.9	-45.6	12.6	7.01e-05	0	58	0	362807296	54	5811
2026-01-28 22:57:10.79	45.18	27.77	-41.9	-45.7	12.5	7.09e-05	0	58	0	364904448	54	5880
2026-01-28 22:57:11.80	45.38	27.91	-42.0	-45.8	12.4	1.11e-04	0	58	0	367001600	54	5952
2026-01-28 22:57:12.81	45.58	28.05	-42.0	-45.9	12.3	1.68e-04	0	58	0	369098752	54	6028
2026-01-28 22:57:13.82	45.79	28.19	-42.1	-45.9	12.3	1.49e-04	0	58	0	371195904	54	6045
2026-01-28 22:57:14.83	46.00	28.33	-42.1	-46.0	12.2	2.04e-04	0	58	0	372244480	54	6099
2026-01-28 22:57:15.84	46.21	28.47	-42.1	-46.0	12.1	2.30e-04	0	58	0	374341632	54	6126
2026-01-28 22:57:16.85	46.42	28.61	-42.1	-46.0	12.2	2.34e-04	0	58	0	376438784	54	6097
2026-01-28 22:57:17.86	46.63	28.75	-42.1	-46.1	12.1	2.09e-04	0	58	0	378535936	54	6134
2026-01-28 22:57:18.87	46.84	28.89	-42.0	-45.9	12.3	2.20e-04	0	58	0	380633088	54	6024
2026-01-28 22:57:19.88	47.06	29.03	-42.1	-46.0	12.2	2.01e-04	0	58	0	381681664	54	6088
2026-01-28 22:57:20.89	47.28	29.17	-42.1	-45.9	12.3	2.09e-04	0	58	0	383778816	54	6009
2026-01-28 22:57:21.90	47.50	29.31	-42.1	-45.9	12.3	1.27e-04	0	58	0	385875968	54	6037
2026-01-28 22:57:22.91	47.72	29.46	-42.2	-46.2	12.1	2.24e-04	0	58	0	387973120	54	6204
2026-01-28 22:57:23.92	47.94	29.60	-42.2	-46.2	12.0	2.65e-04	0	58	0	390070272	54	6256
2026-01-28 22:57:24.93	48.17	29.74	-42.3	-46.3	12.0	2.89e-04	0	58	0	392167424	55	5958
2026-01-28 22:57:25.94	48.40	29.88	-42.3	-46.4	11.9	4.03e-04	0	58	0	393216000	55	6001
2026-01-28 22:57:26.94	48.63	30.03	-42.1	-46.1	12.2	3.36e-04	0	58	0	395313152	55	5803
2026-01-28 22:57:27.96	48.86	30.17	-42.2	-46.1	12.1	2.17e-04	0	58	0	397410304	55	5840
2026-01-28 22:57:28.97	49.09	30.31	-42.2	-46.2	12.0	2.78e-04	0	58	0	399507456	55	5882
2026-01-28 22:57:29.98	49.33	30.46	-42.3	-46.3	11.9	3.17e-04	0	58	0	401604608	55	5968
2026-01-28 22:57:30.98	49.57	30.60	-42.4	-46.6	11.6	4.98e-04	0	58	0	402653184	55	6166
2026-01-28 22:57:31.99	49.81	30.74	-42.5	-46.9	11.3	1.09e-03	0	58	0	404750336	55	6379
2026-01-28 22:57:33.00	50.05	30.89	-42.6	-47.0	11.1	1.29e-03	0	58	0	406847488	55	6482
2026-01-28 22:57:34.02	50.30	31.04	-42.6	-47.1	11.1	1.56e-03	0	58	0	408944640	55	6499
2026-01-28 22:57:35.03	50.54	31.18	-42.6	-47.0	11.2	1.58e-03	0	58	0	411041792	55	6467
2026-01-28 22:57:36.04	50.79	31.32	-42.5	-46.9	11.2	1.38e-03	0	58	0	412090368	55	6391
2026-01-28 22:57:37.05	51.04	31.47	-42.5	-46.8	11.4	1.15e-03	0	58	0	414187520	55	6311
2026-01-28 22:57:38.06	51.30	31.61	-42.5	-46.8	11.3	1.03e-03	0	58	0	416284672	55	6345
2026-01-28 22:57:39.07	51.55	31.76	-42.4	-46.7	11.4	1.06e-03	0	58	0	418381824	55	6254
2026-01-28 22:57:40.08	51.81	31.91	-42.6	-47.0	11.2	9.99e-04	0	58	0	420478976	55	6458
2026-01-28 22:57:41.09	52.07	32.05	-42.7	-47.3	10.9	1.78e-03	0	58	0	421527552	55	6692
2026-01-28 22:57:42.10	52.33	32.20	-42.9	-47.7	10.7	2.62e-03	0	58	0	423624704	56	6596
2026-01-28 22:57:43.11	52.60	32.34	-43.0	-48.0	10.4	4.40e-03	0	58	0	425721856	56	6804
2026-01-28 22:57:44.12	52.86	32.49	-43.0	-47.8	10.6	3.97e-03	0	58	0	427819008	56	6656
2026-01-28 22:57:45.13	53.13	32.63	-42.9	-47.6	10.8	2.83e-03	0	58	0	429916160	56	6504
2026-01-28 22:57:46.14	53.40	32.78	-42.8	-47.4	11.0	1.98e-03	0	58	0	430964736	56	6349
2026-01-28 22:57:47.15	53.68	32.92	-42.8	-47.2	11.2	1.67e-03	0	58	0	433061888	56	6264
2026-01-28 22:57:48.16	53.95	33.07	-42.8	-47.3	11.1	1.37e-03	0	58	0	435159040	56	6301
2026-01-28 22:57:49.17	54.23	33.22	-42.9	-47.5	10.9	1.99e-03	0	58	0	437256192	56	6452
2026-01-28 22:57:50.18	54.52	33.36	-43.0	-47.7	10.7	2.43e-03	0	58	0	439353344	56	6592
2026-01-28 22:57:51.19	54.80	33.51	-43.1	-48.1	10.3	4.18e-03	0	58	0	440401920	56	6918
2026-01-28 22:57:52.20	55.09	33.65	-43.1	-48.0	10.3	5.36e-03	0	58	0	442499072	56	6868
2026-01-28 22:57:53.21	55.37	33.80	-43.1	-48.1	10.3	4.63e-03	0	58	0	444596224	56	6898
2026-01-28 22:57:54.22	55.67	33.94	-43.1	-47.9	10.5	4.72e-03	0	58	0	446693376	56	6787
2026-01-28 22:57:55.23	55.96	34.09	-42.9	-47.4	11.0	2.50e-03	0	58	0	448790528	56	6403
2026-01-28 22:57:56.24	56.26	34.23	-42.8	-47.3	11.1	1.76e-03	0	58	0	449839104	56	6311
2026-01-28 22:57:57.25	56.56	34.38	-42.7	-47.0	11.4	1.38e-03	0	58	0	451936256	56	6131
2026-01-28 22:57:58.26	56.86	34.52	-42.6	-46.8	11.7	7.80e-04	0	58	0	454033408	56	5924
2026-01-28 22:57:59.27	57.16	34.67	-42.6	-46.7	11.7	5.18e-04	0	58	0	456130560	56	5890
2026-01-28 22:58:00.28	57.47	34.81	-42.6	-46.7	11.7	5.38e-04	0	58	0	458227712	56	5872
2026-01-28 22:58:01.29	57.78	34.96	-42.6	-46.7	11.7	5.48e-04	0	58	0	460324864	56	5901
2026-01-28 22:58:02.30	58.09	35.10	-42.7	-47.0	11.5	6.28e-04	0	58	0	461373440	56	6065
2026-01-28 22:58:03.31	58.41	35.24	-42.8	-47.4	11.0	1.22e-03	0	58	0	463470592	56	6349
2026-01-28 22:58:04.32	58.73	35.39	-43.1	-48.0	10.4	4.37e-03	0	58	0	465567744	56	6855
2026-01-28 22:58:05.34	59.05	35.53	-43.2	-48.2	10.1	6.15e-03	0	58	0	467664896	56	7022
2026-01-28 22:58:06.35	59.38	35.67	-43.2	-48.2	10.1	7.57e-03	0	58	0	469762048	57	6638
2026-01-28 22:58:07.36	59.70	35.81	-43.1	-48.0	10.3	6.45e-03	0	58	0	470810624	57	6486
2026-01-28 22:58:08.37	60.03	35.96	-43.0	-47.7	10.7	3.63e-03	0	58	0	472907776	57	6208
2026-01-28 22:58:09.38	60.36	36.10	-42.8	-47.2	11.2	1.80e-03	0	58	0	475004928	57	5868
2026-01-28 22:58:10.39	60.70	36.24	-42.6	-46.8	11.6	8.02e-04	0	58	0	477102080	57	5650
2026-01-28 22:58:11.40	61.04	36.38	-42.6	-46.9	11.6	7.10e-04	0	59	0	479199232	57	5658
2026-01-28 22:58:12.41	61.38	36.52	-42.8	-47.3	11.2	1.08e-03	0	58	0	480247808	57	5931
2026-01-28 22:58:13.42	61.72	36.66	-43.0	-47.7	10.6	1.83e-03	0	58	0	482344960	57	6267
2026-01-28 22:58:14.43	62.07	36.80	-43.2	-48.3	10.1	5.98e-03	0	58	0	484442112	57	6667
2026-01-28 22:58:15.44	62.42	36.93	-43.3	-48.5	9.9	8.61e-03	0	58	0	486539264	57	6863
2026-01-28 22:58:16.45	62.77	37.07	-43.4	-48.6	9.8	1.05e-02	0	59	0	488636416	57	6934
2026-01-28 22:58:17.46	63.13	37.21	-43.1	-48.0	10.4	5.87e-03	0	59	0	489684992	57	6479
2026-01-28 22:58:18.47	63.49	37.35	-42.9	-47.4	11.0	2.67e-03	0	58	0	491782144	57	6055
2026-01-28 22:58:19.48	63.85	37.48	-42.7	-47.0	11.4	1.35e-03	0	58	0	493879296	57	5772
2026-01-28 22:58:20.49	64.21	37.62	-42.7	-47.0	11.4	9.39e-04	0	58	0	495976448	57	5757
2026-01-28 22:58:21.50	64.58	37.75	-42.7	-47.0	11.5	1.09e-03	0	58	0	498073600	57	5723
2026-01-28 22:58:22.51	64.95	37.88	-42.8	-47.2	11.2	9.04e-04	0	58	0	499122176	57	5921
2026-01-28 22:58:23.52	65.32	38.02	-42.9	-47.6	10.9	1.39e-03	0	58	0	501219328	57	6134
2026-01-28 22:58:24.53	65.70	38.15	-43.1	-47.9	10.6	3.07e-03	0	58	0	503316480	57	6372
2026-01-28 22:58:25.54	66.08	38.28	-43.2	-48.1	10.3	4.50e-03	0	58	0	505413632	57	6548
2026-01-28 22:58:26.55	66.46	38.41	-43.1	-47.9	10.4	5.16e-03	0	58	0	507510784	57	6419
2026-01-28 22:58:27.56	66.85	38.54	-43.0	-47.6	10.8	3.07e-03	0	59	0	508559360	57	6170
2026-01-28 22:58:28.57	67.24	38.67	-42.9	-47.4	11.0	2.26e-03	0	58	0	510656512	57	6046
2026-01-28 22:58:29.58	67.63	38.79	-42.8	-47.2	11.3	1.53e-03	0	59	0	512753664	57	5896
2026-01-28 22:58:30.59	68.02	38.92	-42.8	-47.1	11.4	1.19e-03	0	58	0	514850816	57	5831
2026-01-28 22:58:31.60	68.42	39.05	-42.7	-47.0	11.6	6.64e-04	0	58	0	516947968	57	5728
2026-01-28 22:58:32.61	68.82	39.17	-42.8	-47.3	11.3	8.93e-04	0	58	0	517996544	57	5928
2026-01-28 22:58:33.62	69.22	39.29	-43.1	-47.9	10.5	2.89e-03	0	59	0	520093696	57	6419
2026-01-28 22:58:34.63	69.63	39.42	-43.3	-48.5	10.0	6.07e-03	0	59	0	522190848	57	6808
2026-01-28 22:58:35.64	70.04	39.54	-43.5	-49.0	9.5	1.18e-02	0	58	0	524288000	57	7229
2026-01-28 22:58:36.65	70.45	39.66	-43.6	-49.3	9.0	2.14e-02	0	58	0	526385152	57	7517
2026-01-28 22:58:37.66	70.87	39.77	-43.6	-49.1	9.3	1.98e-02	0	58	0	528482304	57	7353
2026-01-28 22:58:38.67	71.29	39.89	-43.5	-48.9	9.5	1.73e-02	0	58	0	529530880	57	7180
2026-01-28 22:58:39.68	71.71	40.01	-43.3	-48.5	9.9	1.25e-02	0	58	0	531628032	57	6814
2026-01-28 22:58:40.69	72.13	40.12	-43.2	-48.2	10.2	7.44e-03	0	58	0	533725184	57	6634
2026-01-28 22:58:41.70	72.56	40.23	-43.2	-48.2	10.2	6.00e-03	0	58	0	535822336	57	6620
2026-01-28 22:58:42.71	72.99	40.35	-43.1	-47.8	10.7	5.02e-03	0	58	0	537919488	57	6318
2026-01-28 22:58:43.72	73.43	40.46	-42.8	-47.2	11.3	1.36e-03	0	59	0	538968064	57	5878
2026-01-28 22:58:44.73	73.86	40.56	-42.9	-47.3	11.2	1.15e-03	0	59	0	541065216	57	5958
2026-01-28 22:58:45.74	74.30	40.67	-42.8	-47.2	11.3	1.04e-03	0	58	0	543162368	57	5904
2026-01-28 22:58:46.75	74.74	40.78	-42.9	-47.4	11.2	1.38e-03	0	59	0	545259520	57	6008
2026-01-28 22:58:47.75	75.19	40.88	-42.8	-47.2	11.3	1.38e-03	0	58	0	547356672	57	5883
2026-01-28 22:58:48.76	75.63	40.98	-42.8	-47.1	11.4	1.17e-03	0	59	0	548405248	57	5798
2026-01-28 22:58:49.77	76.08	41.08	-42.6	-46.8	11.7	6.32e-04	0	59	0	550502400	57	5616
2026-01-28 22:58:50.78	76.54	41.18	-42.6	-46.7	11.9	4.07e-04	0	59	0	552599552	57	5535
2026-01-28 22:58:51.79	76.99	41.28	-42.5	-46.6	11.9	3.54e-04	0	58	0	554696704	57	5485
2026-01-28 22:58:52.80	77.45	41.38	-42.6	-46.6	11.9	4.13e-04	0	58	0	556793856	57	5515
2026-01-28 22:58:53.81	77.92	41.47	-42.5	-46.5	12.1	4.06e-04	0	59	0	557842432	57	5404
2026-01-28 22:58:54.82	78.38	41.56	-42.6	-46.6	11.9	3.18e-04	0	58	0	559939584	56	5847
2026-01-28 22:58:55.83	78.85	41.65	-42.6	-46.7	11.8	3.17e-04	0	58	0	562036736	56	5896
2026-01-28 22:58:56.84	79.32	41.74	-43.0	-47.4	11.4	1.48e-03	0	58	0	564133888	57	6057
2026-01-28 22:58:57.85	79.79	41.83	-43.1	-47.9	10.6	2.19e-03	0	58	0	566231040	57	6370
2026-01-28 22:58:58.86	80.26	41.91	-43.3	-48.3	10.2	3.75e-03	0	58	0	567279616	57	6700
2026-01-28 22:58:59.87	80.74	41.99	-43.2	-48.2	10.3	6.28e-03	0	58	0	569376768	57	6578
2026-01-28 22:59:00.88	81.22	42.08	-43.3	-48.3	10.2	5.84e-03	0	58	0	571473920	57	6657
2026-01-28 22:59:01.89	81.70	42.15	-42.9	-47.5	11.1	3.47e-03	0	58	0	573571072	57	6072
2026-01-28 22:59:02.90	82.19	42.23	-42.7	-46.9	11.6	9.12e-04	0	58	0	575668224	57	5696
2026-01-28 22:59:03.90	82.67	42.30	-42.6	-46.7	11.8	4.62e-04	0	59	0	576716800	57	5573
2026-01-28 22:59:04.92	83.16	42.38	-42.6	-46.7	11.8	4.35e-04	0	59	0	578813952	57	5591
2026-01-28 22:59:05.93	83.65	42.45	-42.7	-47.0	11.5	7.00e-04	0	58	0	580911104	57	5729
2026-01-28 22:59:06.94	84.14	42.51	-42.8	-47.1	11.4	7.78e-04	0	58	0	583008256	57	5816
2026-01-28 22:59:07.94	84.63	42.58	-42.6	-46.6	12.0	6.33e-04	0	58	0	585105408	57	5471
2026-01-28 22:59:08.96	85.14	42.64	-42.4	-46.2	12.4	2.79e-04	0	59	0	586153984	56	5565
2026-01-28 22:59:09.97	85.64	42.71	-42.0	-45.5	13.1	4.50e-05	0	59	0	588251136	56	5141
2026-01-28 22:59:10.98	86.14	42.76	-41.8	-45.2	13.3	1.37e-05	0	58	0	590348288	55	5275
2026-01-28 22:59:11.99	86.64	42.82	-42.0	-45.5	13.0	2.59e-05	0	59	0	592445440	55	5433
2026-01-28 22:59:13.00	87.14	42.87	-42.2	-45.9	12.5	9.38e-05	0	58	0	594542592	55	5715
2026-01-28 22:59:14.01	87.65	42.93	-42.3	-46.2	12.2	1.92e-04	0	59	0	596639744	55	5897
2026-01-28 22:59:15.02	88.16	42.98	-42.2	-46.1	12.4	2.19e-04	0	58	0	597688320	55	5791
2026-01-28 22:59:16.03	88.66	43.02	-42.1	-45.8	12.6	1.34e-04	0	59	0	599785472	55	5641
2026-01-28 22:59:17.03	89.17	43.07	-42.1	-45.8	12.6	9.00e-05	0	59	0	601882624	55	5643
2026-01-28 22:59:18.05	89.69	43.11	-42.3	-46.2	12.2	1.33e-04	0	59	0	603979776	55	5919
2026-01-28 22:59:19.05	90.20	43.15	-42.5	-46.5	11.9	3.50e-04	0	58	0	606076928	55	6127
2026-01-28 22:59:20.07	90.72	43.19	-42.4	-46.4	12.0	3.35e-04	0	59	0	607125504	55	6032
2026-01-28 22:59:21.08	91.23	43.22	-42.4	-46.3	12.1	2.41e-04	0	58	0	609222656	55	5976
2026-01-28 22:59:22.09	91.75	43.25	-42.0	-45.6	12.9	6.56e-05	0	58	0	611319808	55	5469
2026-01-28 22:59:23.10	92.26	43.28	-41.9	-45.3	13.2	3.28e-05	0	58	0	613416960	55	5320
2026-01-28 22:59:24.11	92.78	43.31	-42.0	-45.6	13.0	3.05e-05	0	59	0	615514112	55	5466
2026-01-28 22:59:25.12	93.30	43.34	-42.1	-45.8	12.7	5.87e-05	0	59	0	616562688	55	5603
2026-01-28 22:59:26.13	93.82	43.36	-42.4	-46.4	12.0	2.12e-04	0	59	0	618659840	55	6061
2026-01-28 22:59:27.14	94.34	43.38	-42.4	-46.4	12.0	3.55e-04	0	59	0	620756992	55	6014
2026-01-28 22:59:28.15	94.87	43.39	-42.0	-45.6	12.8	1.67e-04	0	58	0	622854144	55	5513
2026-01-28 22:59:29.16	95.39	43.41	-41.7	-45.0	13.4	2.13e-05	0	59	0	624951296	55	5125
2026-01-28 22:59:30.17	95.91	43.42	-41.6	-44.8	13.6	6.10e-06	0	59	0	625999872	55	5038
2026-01-28 22:59:31.18	96.43	43.43	-41.7	-45.0	13.5	8.30e-06	0	58	0	628097024	55	5124
2026-01-28 22:59:32.19	96.96	43.44	-41.8	-45.1	13.3	1.52e-05	0	58	0	630194176	55	5214
2026-01-28 22:59:33.20	97.48	43.44	-41.6	-44.9	13.5	1.67e-05	0	59	0	632291328	55	5082
2026-01-28 22:59:34.21	98.00	43.44	-41.4	-44.5	13.9	9.10e-06	0	59	0	634388480	54	5134
2026-01-28 22:59:35.22	98.53	43.44	-41.5	-44.7	13.9	7.00e-07	0	58	0	636485632	54	5224
2026-01-28 22:59:36.23	99.05	43.44	-41.5	-44.7	13.8	2.20e-06	0	59	0	637534208	54	5253
2026-01-28 22:59:37.24	99.57	43.43	-41.5	-44.7	13.8	6.10e-06	0	58	0	639631360	54	5241
2026-01-28 22:59:38.25	100.10	43.42	-41.4	-44.5	14.0	3.80e-06	0	59	0	641728512	54	5144
2026-01-28 22:59:39.26	100.62	43.41	-41.3	-44.4	14.1	1.50e-06	0	59	0	643825664	54	5072
2026-01-28 22:59:40.27	101.14	43.40	-41.6	-44.8	13.8	1.50e-06	0	59	0	645922816	54	5286
2026-01-28 22:59:41.28	101.66	43.38	-42.0	-45.5	13.0	1.14e-05	0	58	0	646971392	54	5749
2026-01-28 22:59:42.29	102.18	43.36	-42.3	-46.2	12.3	1.30e-04	0	59	0	649068544	55	5868
2026-01-28 22:59:43.30	102.70	43.34	-42.3	-46.1	12.3	2.26e-04	0	59	0	651165696	55	5816
2026-01-28 22:59:44.31	103.22	43.31	-42.0	-45.7	12.7	1.01e-04	0	59	0	653262848	55	5544
2026-01-28 22:59:45.32	103.74	43.29	-41.8	-45.2	13.3	2.28e-05	0	59	0	655360000	55	5228
2026-01-28 22:59:46.33	104.26	43.26	-41.9	-45.4	13.1	1.83e-05	0	59	0	656408576	55	5363
2026-01-28 22:59:47.34	104.78	43.22	-42.0	-45.7	12.8	3.81e-05	0	59	0	658505728	55	5535
2026-01-28 22:59:48.35	105.29	43.19	-42.5	-46.6	11.9	3.11e-04	0	59	0	660602880	55	6172
2026-01-28 22:59:49.36	105.81	43.15	-42.4	-46.5	11.9	4.80e-04	0	59	0	662700032	55	6091
2026-01-28 22:59:50.37	106.32	43.11	-42.3	-46.2	12.2	2.35e-04	0	59	0	664797184	55	5898
2026-01-28 22:59:51.38	106.84	43.07	-42.0	-45.6	12.8	8.31e-05	0	58	0	665845760	55	5523
2026-01-28 22:59:52.39	107.35	43.03	-42.2	-45.9	12.5	7.55e-05	0	59	0	667942912	55	5722
2026-01-28 22:59:53.40	107.86	42.98	-42.4	-46.3	12.1	1.79e-04	0	59	0	670040064	55	5978
2026-01-28 22:59:54.41	108.36	42.93	-42.3	-46.2	12.2	3.07e-04	0	58	0	672137216	55	5891
2026-01-28 22:59:55.42	108.87	42.88	-42.0	-45.6	12.9	9.15e-05	0	59	0	674234368	55	5480
2026-01-28 22:59:56.43	109.38	42.82	-41.8	-45.2	13.2	2.28e-05	0	59	0	675282944	55	5247
2026-01-28 22:59:57.43	109.87	42.77	-42.1	-45.8	12.7	2.74e-05	0	59	0	677380096	55	5608
2026-01-28 22:59:58.44	110.38	42.71	-42.5	-46.5	11.9	2.57e-04	0	59	0	679477248	55	6094
2026-01-28 22:59:59.45	110.88	42.65	-42.4	-46.5	12.0	4.78e-04	0	59	0	681574400	55	6075
2026-01-28 23:00:00.46	111.37	42.58	-42.1	-45.9	12.6	1.62e-04	0	59	0	683671552	55	5664
2026-01-28 23:00:01.47	111.87	42.52	-42.0	-45.6	12.8	4.73e-05	0	58	0	684720128	55	5523
2026-01-28 23:00:02.48	112.36	42.45	-42.3	-46.1	12.4	9.61e-05	0	59	0	686817280	55	5824
2026-01-28 23:00:03.49	112.85	42.38	-42.5	-46.5	11.9	3.04e-04	0	58	0	688914432	55	6101
2026-01-28 23:00:04.50	113.34	42.31	-42.4	-46.4	12.1	3.42e-04	0	59	0	691011584	55	6013
2026-01-28 23:00:05.51	113.83	42.23	-42.2	-45.9	12.5	1.34e-04	0	59	0	693108736	55	5705
2026-01-28 23:00:06.52	114.32	42.16	-41.9	-45.4	13.0	6.63e-05	0	58	0	694157312	55	5373
2026-01-28 23:00:07.53	114.80	42.08	-41.8	-45.3	13.2	1.60e-05	0	59	0	696254464	55	5299
2026-01-28 23:00:08.54	115.28	42.00	-42.1	-45.8	12.6	5.26e-05	0	59	0	698351616	55	5635
2026-01-28 23:00:09.55	115.76	41.91	-42.4	-46.4	12.0	2.03e-04	0	59	0	700448768	55	6045
2026-01-28 23:00:10.56	116.23	41.83	-42.4	-46.3	12.1	4.47e-04	0	58	0	702545920	55	5990
2026-01-28 23:00:11.57	116.71	41.74	-41.8	-45.2	13.3	4.95e-05	0	59	0	704643072	55	5257
2026-01-28 23:00:12.58	117.18	41.66	-41.6	-44.8	13.7	5.30e-06	0	59	0	705691648	55	5007
2026-01-28 23:00:13.59	117.65	41.56	-41.6	-44.8	13.7	4.50e-06	0	59	0	707788800	55	5007
2026-01-28 23:00:14.61	118.12	41.47	-41.9	-45.4	13.0	1.67e-05	0	59	0	709885952	55	5399
2026-01-28 23:00:15.62	118.58	41.38	-41.8	-45.3	13.2	4.73e-05	0	59	0	711983104	55	5282
2026-01-28 23:00:16.63	119.04	41.28	-41.2	-44.1	14.4	6.80e-06	0	59	0	714080256	54	4903
2026-01-28 23:00:17.64	119.50	41.18	-41.0	-43.8	14.8	1.50e-06	0	59	0	715128832	53	4994
2026-01-28 23:00:18.65	119.95	41.08	-40.9	-43.8	14.8	0.00e+00	0	58	0	717225984	53	4991
2026-01-28 23:00:19.66	120.40	40.98	-41.6	-44.8	13.7	7.00e-07	0	59	0	719323136	53	5638
2026-01-28 23:00:20.67	120.85	40.88	-42.1	-45.7	12.8	3.96e-05	0	59	0	721420288	54	5879
2026-01-28 23:00:21.68	121.30	40.78	-41.9	-45.4	13.1	4.73e-05	0	59	0	723517440	54	5679
2026-01-28 23:00:22.69	121.74	40.67	-41.5	-44.7	13.8	1.29e-05	0	59	0	724566016	54	5259
2026-01-28 23:00:23.70	122.18	40.56	-41.3	-44.3	14.2	1.50e-06	0	59	0	726663168	54	5008
2026-01-28 23:00:24.71	122.62	40.45	-41.4	-44.4	14.1	1.50e-06	0	59	0	728760320	54	5085
2026-01-28 23:00:25.72	123.06	40.34	-41.8	-45.1	13.4	3.80e-06	0	59	0	730857472	54	5498
2026-01-28 23:00:26.73	123.49	40.23	-41.5	-44.7	13.7	1.44e-05	0	59	0	732954624	54	5279
2026-01-28 23:00:27.74	123.92	40.12	-40.9	-43.6	14.9	7.00e-07	0	59	0	734003200	53	4901
2026-01-28 23:00:28.75	124.34	40.00	-40.5	-43.0	15.5	0.00e+00	0	59	0	736100352	53	4588
2026-01-28 23:00:29.76	124.77	39.89	-40.4	-42.9	15.6	0.00e+00	0	59	0	738197504	52	4807
2026-01-28 23:00:30.77	125.19	39.77	-40.8	-43.5	15.1	0.00e+00	0	59	0	740294656	52	5117
2026-01-28 23:00:31.78	125.60	39.65	-41.1	-44.0	14.5	0.00e+00	0	59	0	742391808	52	5433
2026-01-28 23:00:32.79	126.02	39.53	-41.2	-44.1	14.4	7.00e-07	0	59	0	743440384	52	5523
2026-01-28 23:00:33.79	126.42	39.41	-41.0	-43.8	14.7	0.00e+00	0	58	0	745537536	52	5337
2026-01-28 23:00:34.80	126.83	39.29	-40.9	-43.7	14.8	0.00e+00	0	59	0	747634688	52	5261
2026-01-28 23:00:35.81	127.24	39.16	-41.1	-43.9	14.6	0.00e+00	0	59	0	749731840	52	5396
2026-01-28 23:00:36.82	127.64	39.04	-41.3	-44.4	14.1	0.00e+00	0	59	0	751828992	53	5379
2026-01-28 23:00:37.83	128.04	38.91	-41.5	-44.6	13.9	4.50e-06	0	58	0	752877568	53	5528
2026-01-28 23:00:38.84	128.43	38.79	-41.1	-44.0	14.5	7.00e-07	0	59	0	754974720	53	5121
2026-01-28 23:00:39.85	128.83	38.66	-40.8	-43.6	14.9	0.00e+00	0	59	0	757071872	53	4883
2026-01-28 23:00:40.86	129.22	38.53	-40.8	-43.6	14.9	0.00e+00	0	59	0	759169024	53	4879
2026-01-28 23:00:41.87	129.60	38.40	-41.1	-44.1	14.4	0.00e+00	0	59	0	761266176	53	5161
2026-01-28 23:00:42.88	129.99	38.27	-41.3	-44.3	14.2	2.20e-06	0	59	0	762314752	53	5303
2026-01-28 23:00:43.89	130.37	38.14	-41.1	-44.0	14.5	7.00e-07	0	59	0	764411904	53	5141
2026-01-28 23:00:44.90	130.74	38.00	-41.1	-44.0	14.5	0.00e+00	0	59	0	766509056	53	5128
2026-01-28 23:00:45.91	131.12	37.87	-41.2	-44.1	14.4	1.50e-06	0	59	0	768606208	53	5200
2026-01-28 23:00:46.92	131.49	37.74	-41.3	-44.3	14.2	7.00e-07	0	59	0	770703360	53	5331
2026-01-28 23:00:47.93	131.86	37.60	-41.4	-44.6	13.9	1.50e-06	0	59	0	772800512	53	5489
2026-01-28 23:00:48.94	132.22	37.47	-41.5	-44.7	13.8	4.50e-06	0	59	0	773849088	53	5557
2026-01-28 23:00:49.95	132.59	37.33	-41.5	-44.7	13.7	4.50e-06	0	59	0	775946240	53	5580
2026-01-28 23:00:50.96	132.95	37.19	-41.5	-44.6	13.9	2.20e-06	0	59	0	778043392	53	5515
2026-01-28 23:00:51.97	133.30	37.06	-41.4	-44.5	14.0	3.00e-06	0	59	0	780140544	53	5435
2026-01-28 23:00:52.98	133.66	36.92	-41.1	-44.1	14.5	7.00e-07	0	59	0	782237696	53	5160
2026-01-28 23:00:53.99	134.01	36.78	-40.9	-43.7	14.8	0.00e+00	0	59	0	783286272	53	4978
2026-01-28 23:00:55.00	134.36	36.64	-40.6	-43.1	15.4	0.00e+00	0	59	0	785383424	53	4645
2026-01-28 23:00:56.01	134.70	36.50	-40.3	-42.8	15.7	0.00e+00	0	59	0	787480576	52	4725
2026-01-28 23:00:57.02	135.04	36.36	-40.4	-43.0	15.6	0.00e+00	0	59	0	789577728	52	4823
2026-01-28 23:00:58.03	135.38	36.22	-41.0	-43.9	14.6	0.00e+00	0	59	0	791674880	52	5375
2026-01-28 23:00:59.05	135.72	36.07	-41.6	-44.8	13.7	0.00e+00	0	59	0	792723456	53	5613
2026-01-28 23:01:00.05	136.05	35.93	-41.5	-44.7	13.8	8.30e-06	0	59	0	794820608	53	5568
2026-01-28 23:01:01.06	136.38	35.79	-41.3	-44.2	14.2	1.50e-06	0	59	0	796917760	53	5272
2026-01-28 23:01:02.07	136.71	35.65	-41.0	-43.8	14.7	0.00e+00	0	58	0	799014912	53	5015
2026-01-28 23:01:03.08	137.03	35.50	-41.2	-44.2	14.3	7.00e-07	0	59	0	801112064	53	5238
2026-01-28 23:01:04.09	137.36	35.36	-41.7	-45.1	13.4	3.80e-06	0	59	0	802160640	53	5794
2026-01-28 23:01:05.10	137.68	35.22	-42.2	-45.9	12.5	4.65e-05	0	59	0	804257792	54	6028
2026-01-28 23:01:06.12	138.00	35.07	-42.1	-45.8	12.7	1.29e-04	0	59	0	806354944	55	5622
2026-01-28 23:01:07.13	138.31	34.93	-41.6	-44.9	13.6	3.35e-05	0	59	0	808452096	55	5054
2026-01-28 23:01:08.14	138.62	34.78	-41.3	-44.3	14.2	3.00e-06	0	59	0	810549248	54	5018
2026-01-28 23:01:09.15	138.93	34.64	-41.1	-44.1	14.4	7.00e-07	0	59	0	811597824	54	4885
2026-01-28 23:01:10.16	139.23	34.49	-41.5	-44.7	13.8	1.50e-06	0	59	0	813694976	54	5259
2026-01-28 23:01:11.17	139.54	34.35	-42.1	-45.7	12.7	2.28e-05	0	59	0	815792128	54	5922
2026-01-28 23:01:12.18	139.84	34.20	-42.5	-46.7	11.7	4.23e-04	0	59	0	817889280	55	6242
2026-01-28 23:01:13.19	140.14	34.05	-42.3	-46.2	12.2	4.90e-04	0	59	0	819986432	55	5890
2026-01-28 23:01:14.20	140.43	33.91	-41.4	-44.6	13.9	4.88e-05	0	59	0	821035008	54	5184
2026-01-28 23:01:15.21	140.72	33.76	-40.6	-43.2	15.2	7.00e-07	0	59	0	823132160	53	4682
2026-01-28 23:01:16.22	141.01	33.62	-40.3	-42.8	15.7	0.00e+00	0	59	0	825229312	52	4726
2026-01-28 23:01:17.23	141.30	33.47	-40.8	-43.5	15.0	0.00e+00	0	59	0	827326464	52	5133
2026-01-28 23:01:18.24	141.59	33.32	-41.7	-45.0	13.5	7.00e-07	0	59	0	829423616	53	5764
2026-01-28 23:01:19.25	141.87	33.18	-42.6	-46.9	11.5	3.45e-04	0	59	0	830472192	55	6354
2026-01-28 23:01:20.26	142.15	33.03	-43.0	-47.7	10.8	2.84e-03	0	59	0	832569344	56	6579
2026-01-28 23:01:21.27	142.42	32.88	-42.4	-46.3	12.2	1.02e-03	0	59	0	834666496	56	5643
2026-01-28 23:01:22.28	142.70	32.74	-41.6	-44.8	13.6	2.21e-05	0	59	0	836763648	55	5031
2026-01-28 23:01:23.29	142.97	32.59	-41.4	-44.4	14.0	3.00e-06	0	59	0	838860800	54	5080
2026-01-28 23:01:24.30	143.24	32.44	-41.6	-44.8	13.7	3.00e-06	0	59	0	840957952	54	5294
2026-01-28 23:01:25.31	143.51	32.30	-42.1	-45.7	12.7	1.14e-05	0	59	0	842006528	54	5891
2026-01-28 23:01:26.32	143.78	32.15	-43.0	-47.7	10.9	8.80e-04	0	59	0	844103680	56	6571
2026-01-28 23:01:27.33	144.04	32.00	-43.4	-48.8	9.6	8.04e-03	0	59	0	846200832	57	7102
2026-01-28 23:01:28.34	144.30	31.86	-43.1	-47.9	10.5	1.01e-02	0	59	0	848297984	57	6408
2026-01-28 23:01:29.35	144.56	31.71	-42.3	-46.2	12.3	5.45e-04	0	59	0	850395136	56	5549
2026-01-28 23:01:30.36	144.81	31.56	-41.4	-44.6	13.9	2.44e-05	0	59	0	851443712	54	5163
2026-01-28 23:01:31.37	145.07	31.42	-41.0	-43.8	14.6	0.00e+00	0	59	0	853540864	54	4732
2026-01-28 23:01:32.38	145.32	31.27	-41.0	-43.8	14.6	7.00e-07	0	59	0	855638016	53	5029
2026-01-28 23:01:33.39	145.57	31.13	-41.4	-44.5	13.9	1.50e-06	0	59	0	857735168	53	5445
2026-01-28 23:01:34.39	145.81	30.98	-42.1	-45.8	12.6	1.37e-05	0	59	0	859832320	54	5952
2026-01-28 23:01:35.40	146.06	30.84	-42.7	-47.1	11.2	9.16e-04	0	59	0	860880896	55	6569
2026-01-28 23:01:36.41	146.30	30.69	-43.0	-47.6	10.9	2.64e-03	0	59	0	862978048	56	6547
2026-01-28 23:01:37.42	146.54	30.55	-42.7	-46.8	11.6	1.48e-03	0	59	0	865075200	56	5976
2026-01-28 23:01:38.43	146.78	30.40	-42.2	-45.8	12.7	9.84e-05	0	59	0	867172352	56	5323
2026-01-28 23:01:39.44	147.02	30.26	-41.8	-45.2	13.2	2.05e-05	0	59	0	869269504	55	5266
2026-01-28 23:01:40.45	147.25	30.11	-41.5	-44.8	13.6	9.10e-06	0	59	0	870318080	55	5005
2026-01-28 23:01:41.46	147.49	29.97	-41.6	-44.9	13.4	9.90e-06	0	59	0	872415232	55	5098
2026-01-28 23:01:42.47	147.72	29.82	-42.1	-45.9	12.5	5.87e-05	0	59	0	874512384	55	5667
2026-01-28 23:01:43.48	147.94	29.68	-42.9	-47.4	11.0	5.65e-04	0	59	0	876609536	56	6420
2026-01-28 23:01:44.49	148.17	29.54	-43.4	-48.7	9.7	4.16e-03	0	59	0	878706688	57	7006
2026-01-28 23:01:45.50	148.40	29.39	-43.4	-48.8	9.6	1.41e-02	0	59	0	879755264	57	7099
2026-01-28 23:01:46.51	148.62	29.25	-43.1	-48.0	10.4	8.77e-03	0	59	0	881852416	57	6488
2026-01-28 23:01:47.52	148.84	29.11	-42.7	-47.0	11.4	2.42e-03	0	59	0	883949568	57	5761
2026-01-28 23:01:48.53	149.06	28.96	-42.6	-46.7	11.8	5.45e-04	0	59	0	886046720	57	5539
2026-01-28 23:01:49.54	149.27	28.82	-42.4	-46.3	12.2	3.73e-04	0	59	0	888143872	56	5636
2026-01-28 23:01:50.55	149.49	28.68	-42.4	-46.2	12.3	2.12e-04	0	59	0	889192448	56	5563
2026-01-28 23:01:51.56	149.70	28.54	-42.2	-45.9	12.6	1.01e-04	0	59	0	891289600	56	5357
2026-01-28 23:01:52.57	149.91	28.40	-42.5	-46.5	12.0	1.24e-04	0	59	0	893386752	56	5779
2026-01-28 23:01:53.58	150.12	28.26	-42.9	-47.4	11.1	8.12e-04	0	59	0	895483904	56	6374
2026-01-28 23:01:54.59	150.33	28.12	-43.0	-47.7	10.7	2.83e-03	0	59	0	897581056	56	6619
2026-01-28 23:01:55.60	150.54	27.98	-42.9	-47.6	10.9	2.51e-03	0	59	0	898629632	56	6516
2026-01-28 23:01:56.61	150.74	27.84	-42.6	-46.7	11.8	1.14e-03	0	59	0	900726784	56	5919
2026-01-28 23:01:57.62	150.94	27.70	-42.1	-45.8	12.7	1.07e-04	0	59	0	902823936	56	5324
2026-01-28 23:01:58.63	151.14	27.56	-41.6	-44.9	13.4	2.44e-05	0	59	0	904921088	55	5088
2026-01-28 23:01:59.64	151.34	27.42	-41.4	-44.5	13.9	7.60e-06	0	59	0	907018240	54	5127
2026-01-28 23:02:00.65	151.54	27.28	-41.3	-44.4	14.0	2.20e-06	0	59	0	909115392	54	5073
2026-01-28 23:02:01.66	151.74	27.14	-41.3	-44.4	14.0	2.20e-06	0	59	0	910163968	54	5059
2026-01-28 23:02:02.67	151.93	27.00	-41.4	-44.7	13.7	6.10e-06	0	59	0	912261120	54	5227
2026-01-28 23:02:03.68	152.12	26.86	-41.5	-44.8	13.6	5.30e-06	0	59	0	914358272	54	5301
2026-01-28 23:02:04.69	152.31	26.73	-41.7	-45.1	13.2	1.29e-05	0	59	0	916455424	54	5506
2026-01-28 23:02:05.70	152.50	26.59	-41.8	-45.3	13.1	2.97e-05	0	59	0	918552576	54	5597
2026-01-28 23:02:06.71	152.69	26.45	-41.7	-45.2	13.2	2.36e-05	0	59	0	919601152	54	5535
2026-01-28 23:02:07.72	152.88	26.32	-41.7	-45.1	13.3	1.90e-05	0	59	0	921698304	54	5486
2026-01-28 23:02:08.73	153.06	26.18	-41.4	-44.7	13.7	1.29e-05	0	59	0	923795456	54	5223
2026-01-28 23:02:09.74	153.24	26.05	-41.4	-44.6	13.8	5.30e-06	0	59	0	925892608	54	5161
2026-01-28 23:02:10.75	153.43	25.91	-41.4	-44.6	13.8	1.22e-05	0	59	0	927989760	54	5172
2026-01-28 23:02:11.77	153.61	25.77	-41.1	-44.2	14.1	1.50e-06	0	59	0	929038336	54	4940
2026-01-28 23:02:12.78	153.79	25.64	-41.1	-44.2	14.2	7.00e-07	0	59	0	931135488	54	4950
2026-01-28 23:02:13.79	153.96	25.51	-41.2	-44.4	14.0	3.80e-06	0	59	0	933232640	54	5044
2026-01-28 23:02:14.80	154.14	25.37	-41.3	-44.5	13.8	3.80e-06	0	59	0	935329792	54	5154
2026-01-28 23:02:15.81	154.31	25.24	-41.4	-44.7	13.7	3.00e-06	0	59	0	937426944	54	5229
2026-01-28 23:02:16.82	154.48	25.11	-41.5	-44.8	13.5	9.90e-06	0	59	0	938475520	54	5327
2026-01-28 23:02:17.83	154.66	24.97	-41.5	-44.9	13.4	1.44e-05	0	59	0	940572672	54	5361
2026-01-28 23:02:18.84	154.83	24.84	-41.5	-44.7	13.6	7.60e-06	0	59	0	942669824	54	5256
2026-01-28 23:02:19.85	154.99	24.71	-41.4	-44.6	13.7	5.30e-06	0	59	0	944766976	54	5181
2026-01-28 23:02:20.86	155.16	24.58	-41.3	-44.5	13.8	6.10e-06	0	59	0	946864128	54	5138
2026-01-28 23:02:21.87	155.33	24.45	-41.4	-44.6	13.8	5.30e-06	0	59	0	947912704	54	5170
2026-01-28 23:02:22.88	155.49	24.32	-41.3	-44.5	13.8	4.50e-06	0	59	0	950009856	54	5152
2026-01-28 23:02:23.89	155.65	24.19	-41.2	-44.3	14.0	3.80e-06	0	59	0	952107008	54	5011
2026-01-28 23:02:24.90	155.82	24.06	-41.2	-44.3	14.1	3.00e-06	0	59	0	954204160	54	4990
2026-01-28 23:02:25.91	155.98	23.93	-41.2	-44.3	14.1	1.50e-06	0	59	0	956301312	54	5010
2026-01-28 23:02:26.92	156.14	23.80	-41.2	-44.3	14.0	6.80e-06	0	59	0	958398464	54	5033
2026-01-28 23:02:27.93	156.29	23.67	-41.3	-44.4	13.9	1.50e-06	0	59	0	959447040	54	5079
2026-01-28 23:02:28.94	156.45	23.54	-41.2	-44.3	14.0	7.00e-07	0	59	0	961544192	54	5023
2026-01-28 23:02:29.95	156.61	23.42	-41.2	-44.3	14.0	3.00e-06	0	59	0	963641344	54	5012
2026-01-28 23:02:30.96	156.76	23.29	-41.2	-44.4	13.9	3.00e-06	0	59	0	965738496	54	5055
2026-01-28 23:02:31.97	156.91	23.16	-41.3	-44.5	13.8	5.30e-06	0	59	0	967835648	54	5144
2026-01-28 23:02:32.98	157.07	23.04	-41.5	-44.8	13.4	6.80e-06	0	59	0	968884224	54	5331
2026-01-28 23:02:33.99	157.22	22.91	-41.6	-45.0	13.2	1.90e-05	0	59	0	970981376	54	5455
2026-01-28 23:02:35.00	157.37	22.79	-41.7	-45.3	13.0	3.73e-05	0	59	0	973078528	54	5619
2026-01-28 23:02:36.01	157.51	22.66	-41.9	-45.6	12.6	6.56e-05	0	59	0	975175680	54	5826
2026-01-28 23:02:37.02	157.66	22.54	-41.8	-45.4	12.9	6.40e-05	0	59	0	977272832	54	5683
2026-01-28 23:02:38.03	157.81	22.41	-41.8	-45.5	12.8	4.73e-05	0	59	0	978321408	54	5745
2026-01-28 23:02:39.04	157.95	22.29	-41.7	-45.2	13.0	4.42e-05	0	59	0	980418560	54	5591
2026-01-28 23:02:40.05	158.10	22.17	-41.6	-45.0	13.2	2.21e-05	0	59	0	982515712	54	5449
2026-01-28 23:02:41.07	158.24	22.04	-41.5	-44.8	13.4	1.83e-05	0	59	0	984612864	54	5322
2026-01-28 23:02:42.07	158.38	21.92	-41.4	-44.6	13.6	1.22e-05	0	59	0	986710016	54	5194
2026-01-28 23:02:43.09	158.52	21.80	-41.4	-44.7	13.6	1.29e-05	0	59	0	987758592	54	5233
2026-01-28 23:02:44.10	158.66	21.68	-41.4	-44.7	13.6	4.50e-06	0	59	0	989855744	54	5241
2026-01-28 23:02:45.11	158.80	21.55	-41.4	-44.7	13.5	9.90e-06	0	59	0	991952896	54	5279
2026-01-28 23:02:46.11	158.94	21.43	-41.5	-44.9	13.3	7.60e-06	0	59	0	994050048	54	5390
2026-01-28 23:02:47.13	159.07	21.31	-41.5	-44.9	13.3	1.83e-05	0	59	0	996147200	54	5402
2026-01-28 23:02:48.14	159.21	21.19	-41.5	-45.0	13.2	2.28e-05	0	59	0	997195776	54	5426
2026-01-28 23:02:49.14	159.34	21.08	-41.6	-45.1	13.1	2.13e-05	0	59	0	999292928	54	5515
2026-01-28 23:02:50.15	159.48	20.96	-41.6	-45.1	13.1	2.44e-05	0	59	0	1001390080	54	5470
2026-01-28 23:02:51.16	159.61	20.84	-41.6	-45.0	13.2	2.67e-05	0	59	0	1003487232	54	5436
2026-01-28 23:02:52.17	159.74	20.72	-41.5	-44.9	13.3	2.97e-05	0	59	0	1005584384	54	5398
2026-01-28 23:02:53.18	159.87	20.60	-41.5	-44.8	13.4	1.90e-05	0	59	0	1006632960	54	5329
2026-01-28 23:02:54.19	160.00	20.48	-41.5	-44.9	13.3	1.14e-05	0	59	0	1008730112	54	5364
2026-01-28 23:02:55.20	160.13	20.37	-41.4	-44.8	13.4	1.90e-05	0	59	0	1010827264	54	5319
2026-01-28 23:02:56.21	160.26	20.25	-41.4	-44.8	13.4	1.44e-05	0	59	0	1012924416	54	5313
2026-01-28 23:02:57.22	160.38	20.13	-41.5	-44.9	13.3	1.52e-05	0	59	0	1015021568	54	5370
2026-01-28 23:02:58.23	160.51	20.02	-41.5	-44.9	13.3	1.83e-05	0	59	0	1017118720	54	5347
2026-01-28 23:02:59.24	160.63	19.90	-41.5	-44.9	13.3	1.75e-05	0	59	0	1018167296	54	5355
2026-01-28 23:03:00.25	160.76	19.79	-41.5	-45.0	13.2	2.51e-05	0	59	0	1020264448	54	5430
2026-01-28 23:03:01.26	160.88	19.67	-41.6	-45.1	13.1	2.59e-05	0	59	0	1022361600	54	5467
2026-01-28 23:03:02.27	161.00	19.56	-41.6	-45.1	13.0	3.28e-05	0	59	0	1024458752	54	5505
2026-01-28 23:03:03.28	161.12	19.44	-41.6	-45.2	13.0	3.12e-05	0	59	0	1026555904	54	5536
2026-01-28 23:03:04.29	161.24	19.33	-41.6	-45.1	13.0	3.20e-05	0	59	0	1027604480	54	5497
2026-01-28 23:03:05.30	161.36	19.22	-41.6	-45.2	13.0	4.34e-05	0	59	0	1029701632	54	5548
2026-01-28 23:03:06.31	161.48	19.10	-41.7	-45.2	12.9	4.73e-05	0	59	0	1031798784	54	5585
2026-01-28 23:03:07.32	161.60	18.99	-41.6	-45.2	12.9	5.79e-05	0	59	0	1033895936	54	5571
2026-01-28 23:03:08.33	161.72	18.88	-41.7	-45.3	12.8	4.50e-05	0	59	0	1035993088	54	5640
2026-01-28 23:03:09.34	161.83	18.77	-41.8	-45.5	12.7	7.17e-05	0	59	0	1037041664	54	5731
2026-01-28 23:03:10.35	161.95	18.66	-41.7	-45.5	12.6	7.93e-05	0	59	0	1039138816	54	5731
2026-01-28 23:03:11.36	162.06	18.55	-41.8	-45.6	12.5	1.07e-04	0	59	0	1041235968	54	5810
2026-01-28 23:03:12.37	162.17	18.44	-41.8	-45.6	12.5	1.30e-04	0	59	0	1043333120	54	5828
2026-01-28 23:03:13.38	162.29	18.33	-41.8	-45.6	12.5	1.40e-04	0	59	0	1045430272	54	5826
2026-01-28 23:03:14.39	162.40	18.22	-41.9	-45.7	12.3	1.38e-04	0	59	0	1046478848	54	5920
2026-01-28 23:03:15.39	162.51	18.11	-41.9	-45.7	12.3	1.85e-04	0	59	0	1048576000	54	5897
2026-01-28 23:03:16.40	162.62	18.00	-41.9	-45.7	12.4	1.49e-04	0	59	0	1050673152	54	5885
2026-01-28 23:03:17.41	162.73	17.89	-41.8	-45.7	12.4	1.71e-04	0	59	0	1052770304	54	5867
2026-01-28 23:03:18.42	162.84	17.78	-41.8	-45.5	12.6	1.11e-04	0	59	0	1054867456	54	5771
2026-01-28 23:03:19.43	162.95	17.68	-41.8	-45.6	12.4	1.07e-04	0	59	0	1055916032	54	5828
2026-01-28 23:03:20.44	163.06	17.57	-41.7	-45.5	12.6	1.30e-04	0	59	0	1058013184	54	5745
2026-01-28 23:03:21.45	163.16	17.46	-41.7	-45.5	12.6	1.09e-04	0	59	0	1060110336	54	5744
2026-01-28 23:03:22.46	163.27	17.36	-41.7	-45.4	12.6	9.07e-05	0	59	0	1062207488	54	5720
2026-01-28 23:03:23.47	163.37	17.25	-41.7	-45.4	12.6	7.55e-05	0	59	0	1064304640	54	5691
2026-01-28 23:03:24.48	163.48	17.14	-41.7	-45.4	12.6	7.85e-05	0	59	0	1065353216	54	5677
2026-01-28 23:03:25.49	163.58	17.04	-41.6	-45.3	12.7	7.78e-05	0	59	0	1067450368	54	5656
2026-01-28 23:03:26.50	163.69	16.93	-41.7	-45.4	12.7	7.70e-05	0	59	0	1069547520	54	5664
2026-01-28 23:03:27.51	163.79	16.83	-41.6	-45.4	12.7	7.24e-05	0	59	0	1071644672	54	5665
2026-01-28 23:03:28.52	163.89	16.72	-41.6	-45.2	12.8	7.01e-05	0	59	0	1073741824	54	5585
2026-01-28 23:03:29.53	163.99	16.62	-41.7	-45.4	12.6	7.85e-05	0	59	0	1074790400	54	5701
2026-01-28 23:03:30.54	164.09	16.52	-41.7	-45.4	12.6	9.46e-05	0	59	0	1076887552	54	5698
2026-01-28 23:03:31.55	164.19	16.41	-41.6	-45.3	12.7	1.11e-04	0	59	0	1078984704	54	5642
2026-01-28 23:03:32.56	164.29	16.31	-41.6	-45.3	12.7	6.40e-05	0	59	0	1081081856	54	5606
2026-01-28 23:03:33.57	164.39	16.21	-41.6	-45.3	12.6	8.77e-05	0	59	0	1083179008	54	5654
2026-01-28 23:03:34.58	164.49	16.11	-41.6	-45.3	12.7	9.76e-05	0	59	0	1085276160	54	5619
2026-01-28 23:03:35.59	164.58	16.00	-41.6	-45.3	12.6	7.62e-05	0	59	0	1086324736	54	5641
2026-01-28 23:03:36.60	164.68	15.90	-41.6	-45.3	12.7	8.16e-05	0	59	0	1088421888	54	5643
2026-01-28 23:03:37.61	164.78	15.80	-41.6	-45.3	12.7	9.38e-05	0	59	0	1090519040	54	5624
2026-01-28 23:03:38.62	164.87	15.70	-41.5	-45.1	12.8	7.70e-05	0	59	0	1092616192	54	5521
2026-01-28 23:03:39.63	164.97	15.60	-41.5	-45.2	12.8	4.73e-05	0	59	0	1094713344	54	5541
2026-01-28 23:03:40.64	165.06	15.50	-41.6	-45.2	12.7	5.95e-05	0	59	0	1095761920	54	5585
2026-01-28 23:03:41.65	165.15	15.40	-41.6	-45.3	12.7	7.85e-05	0	59	0	1097859072	54	5599
2026-01-28 23:03:42.66	165.25	15.30	-41.6	-45.3	12.7	6.94e-05	0	59	0	1099956224	54	5612
2026-01-28 23:03:43.67	165.34	15.20	-41.7	-45.4	12.5	8.39e-05	0	59	0	1102053376	54	5704
2026-01-28 23:03:44.68	165.43	15.10	-41.7	-45.5	12.4	1.23e-04	0	59	0	1104150528	54	5768
2026-01-28 23:03:45.70	165.52	15.00	-41.7	-45.6	12.4	1.33e-04	0	59	0	1105199104	54	5791
2026-01-28 23:03:46.70	165.61	14.91	-41.8	-45.7	12.3	1.43e-04	0	59	0	1107296256	54	5875
2026-01-28 23:03:47.71	165.70	14.81	-41.8	-45.7	12.2	1.85e-04	0	59	0	1109393408	54	5873
2026-01-28 23:03:48.72	165.79	14.71	-41.8	-45.9	12.1	2.56e-04	0	59	0	1111490560	54	5998
2026-01-28 23:03:49.73	165.88	14.61	-41.8	-45.8	12.1	2.84e-04	0	59	0	1113587712	54	5967
2026-01-28 23:03:50.74	165.97	14.52	-41.9	-46.0	11.9	3.08e-04	0	59	0	1114636288	54	6098
2026-01-28 23:03:51.75	166.06	14.42	-41.9	-46.1	11.8	4.53e-04	0	59	0	1116733440	54	6144
2026-01-28 23:03:52.76	166.15	14.32	-41.9	-46.0	11.9	4.43e-04	0	59	0	1118830592	54	6098
2026-01-28 23:03:53.77	166.23	14.23	-41.9	-46.1	11.8	5.23e-04	0	59	0	1120927744	54	6168
2026-01-28 23:03:54.78	166.32	14.13	-41.9	-46.1	11.7	5.42e-04	0	59	0	1123024896	54	6158
2026-01-28 23:03:55.79	166.40	14.04	-41.9	-46.1	11.7	5.93e-04	0	59	0	1124073472	54	6198
2026-01-28 23:03:56.80	166.49	13.94	-41.8	-45.9	12.0	5.22e-04	0	59	0	1126170624	54	6007
2026-01-28 23:03:57.81	166.57	13.85	-41.8	-45.8	12.0	3.29e-04	0	59	0	1128267776	54	5944
2026-01-28 23:03:58.82	166.66	13.75	-41.8	-45.8	12.0	3.05e-04	0	59	0	1130364928	54	5980
2026-01-28 23:03:59.82	166.74	13.66	-41.7	-45.7	12.1	2.70e-04	0	59	0	1132462080	54	5893
2026-01-28 23:04:00.83	166.82	13.57	-41.7	-45.6	12.2	1.95e-04	0	59	0	1133510656	54	5821
2026-01-28 23:04:01.84	166.91	13.47	-41.6	-45.4	12.4	1.65e-04	0	59	0	1135607808	54	5708
2026-01-28 23:04:02.85	166.99	13.38	-41.5	-45.2	12.6	1.04e-04	0	59	0	1137704960	54	5554
2026-01-28 23:04:03.86	167.07	13.29	-41.4	-45.1	12.7	7.47e-05	0	59	0	1139802112	54	5511
2026-01-28 23:04:04.87	167.15	13.20	-41.4	-45.0	12.8	5.03e-05	0	59	0	1141899264	54	5447
2026-01-28 23:04:05.88	167.23	13.10	-41.4	-45.0	12.8	5.03e-05	0	59	0	1142947840	54	5455
2026-01-28 23:04:06.89	167.31	13.01	-41.4	-45.0	12.8	7.32e-05	0	59	0	1145044992	54	5450
2026-01-28 23:04:07.90	167.39	12.92	-41.3	-44.9	12.9	5.26e-05	0	59	0	1147142144	54	5348
2026-01-28 23:04:08.91	167.47	12.83	-41.3	-44.9	12.9	5.49e-05	0	59	0	1149239296	54	5357
2026-01-28 23:04:09.92	167.55	12.74	-41.3	-44.9	12.9	5.34e-05	0	59	0	1151336448	54	5389
2026-01-28 23:04:10.93	167.63	12.65	-41.4	-45.0	12.8	6.10e-05	0	59	0	1153433600	54	5430
2026-01-28 23:04:11.94	167.71	12.56	-41.4	-45.0	12.8	6.25e-05	0	59	0	1154482176	54	5448
