passes_logs/2026/01/28/R2.0S_Moscow/R2.0S_Moscow__20260128_023034_AQUA_rec.log

#Pass ID: 20260128_023034_AQUA
#Satellite: AQUA
#Configuration: AQUA
#almurnet v.1.7.20251203
#Start time: 2026-01-28 02:30:33

#Version: 2.2.20231116
#Station: R2.0S_Moscow
#Location: 37.707566 lon 55.798166 lat
#TLE: 1 27424U 02022A   26027.49103455  .00001862  00000+0  38220-3 0  9997
#TLE: 2 27424  98.4102 354.1298 0001846  63.8060  46.9979 14.61867034262711

#Time	Az	El	Level	Level2	SNR	BER	BlckErr	Temp	State	Recorded	gain1	gain2
2026-01-28 02:30:33.76	9.25	1.98	-40.9	-59.8	3.8	7.44e-01	0	52	0	0	53	31674
2026-01-28 02:30:34.76	9.19	2.04	-40.9	-59.8	3.8	7.48e-01	0	53	104	0	52	33435
2026-01-28 02:30:35.77	9.14	2.10	-40.9	-59.8	3.8	7.47e-01	0	53	104	0	52	33496
2026-01-28 02:30:36.78	9.08	2.16	-40.9	-59.8	3.8	7.45e-01	0	53	104	0	52	33442
2026-01-28 02:30:37.79	9.03	2.22	-40.9	-59.8	3.8	7.45e-01	0	53	104	0	52	33475
2026-01-28 02:30:38.80	8.97	2.29	-40.9	-59.8	3.8	7.43e-01	0	53	104	0	52	33488
2026-01-28 02:30:39.81	8.91	2.35	-40.9	-59.8	3.8	7.43e-01	0	53	104	0	52	33500
2026-01-28 02:30:40.82	8.86	2.41	-40.8	-59.8	3.8	7.47e-01	0	53	104	0	52	33464
2026-01-28 02:30:41.83	8.80	2.48	-40.9	-59.8	3.8	7.45e-01	0	53	104	0	52	33422
2026-01-28 02:30:42.84	8.74	2.54	-40.8	-59.8	3.8	7.45e-01	0	53	104	0	52	33406
2026-01-28 02:30:43.85	8.69	2.60	-40.8	-59.8	3.8	7.46e-01	0	53	104	0	52	33488
2026-01-28 02:30:44.86	8.63	2.67	-40.8	-59.8	3.8	7.45e-01	0	53	104	0	52	33411
2026-01-28 02:30:45.87	8.57	2.73	-40.8	-59.8	3.8	7.44e-01	0	54	104	0	52	33494
2026-01-28 02:30:46.88	8.51	2.80	-40.8	-59.8	3.8	7.42e-01	0	54	104	0	52	33471
2026-01-28 02:30:47.89	8.45	2.86	-40.8	-59.8	3.8	7.42e-01	0	54	104	0	52	33393
2026-01-28 02:30:48.90	8.39	2.92	-40.8	-59.8	3.8	7.44e-01	0	54	104	0	52	33432
2026-01-28 02:30:49.91	8.33	2.99	-40.8	-59.8	3.8	7.47e-01	0	54	104	0	52	33450
2026-01-28 02:30:50.92	8.27	3.05	-40.8	-59.8	3.8	7.49e-01	0	54	104	0	52	33444
2026-01-28 02:30:51.93	8.21	3.12	-40.8	-59.8	3.8	7.44e-01	0	54	104	0	52	33401
2026-01-28 02:30:52.94	8.15	3.18	-40.8	-59.8	3.8	7.46e-01	0	54	104	0	52	33436
2026-01-28 02:30:53.95	8.09	3.25	-40.8	-59.8	3.8	7.46e-01	0	54	104	0	52	33448
2026-01-28 02:30:54.96	8.03	3.31	-40.8	-59.8	3.8	7.45e-01	0	54	104	0	52	33372
2026-01-28 02:30:55.97	7.97	3.38	-40.8	-59.8	3.8	7.46e-01	0	54	104	0	52	33390
2026-01-28 02:30:56.98	7.91	3.44	-40.8	-59.8	3.8	7.43e-01	0	54	104	0	52	33368
2026-01-28 02:30:57.99	7.85	3.51	-40.8	-59.8	3.8	7.46e-01	0	54	104	0	52	33387
2026-01-28 02:30:59.00	7.79	3.57	-40.8	-59.8	3.8	7.44e-01	0	54	104	0	52	33370
2026-01-28 02:31:00.01	7.72	3.64	-40.8	-59.8	3.8	7.47e-01	0	54	104	0	52	33341
2026-01-28 02:31:01.02	7.66	3.70	-40.8	-59.8	3.8	7.46e-01	0	54	104	0	52	33392
2026-01-28 02:31:02.03	7.60	3.77	-40.8	-59.7	3.8	7.44e-01	0	55	104	0	52	33308
2026-01-28 02:31:03.04	7.53	3.84	-40.8	-59.8	3.8	7.45e-01	0	54	104	0	52	33337
2026-01-28 02:31:04.05	7.47	3.90	-40.8	-59.8	3.8	7.44e-01	0	55	104	0	52	33396
2026-01-28 02:31:05.07	7.40	3.97	-40.8	-59.8	3.8	7.46e-01	0	54	104	0	52	33441
2026-01-28 02:31:06.08	7.34	4.04	-40.8	-59.8	3.8	7.47e-01	0	55	104	0	52	33323
2026-01-28 02:31:07.09	7.28	4.10	-40.8	-59.8	3.8	7.46e-01	0	55	104	0	52	33344
2026-01-28 02:31:08.10	7.21	4.17	-40.8	-59.8	3.8	7.44e-01	0	55	104	0	52	33391
2026-01-28 02:31:09.11	7.14	4.24	-40.8	-59.8	3.8	7.44e-01	0	55	104	0	52	33329
2026-01-28 02:31:10.12	7.08	4.30	-40.8	-59.8	3.8	7.47e-01	0	55	104	0	52	33357
2026-01-28 02:31:11.13	7.01	4.37	-40.8	-59.8	3.8	7.48e-01	0	55	104	0	52	33402
2026-01-28 02:31:12.14	6.95	4.44	-40.8	-59.8	3.8	7.46e-01	0	55	104	0	52	33368
2026-01-28 02:31:13.15	6.88	4.51	-40.8	-59.8	3.8	7.47e-01	0	55	104	0	52	33397
2026-01-28 02:31:14.16	6.81	4.57	-40.8	-59.8	3.8	7.46e-01	0	55	104	0	52	33362
2026-01-28 02:31:15.17	6.74	4.64	-40.8	-59.8	3.8	7.46e-01	0	55	104	0	52	33324
2026-01-28 02:31:16.18	6.68	4.71	-40.8	-59.8	3.8	7.43e-01	0	55	104	0	52	33344
2026-01-28 02:31:17.19	6.61	4.78	-40.8	-59.8	3.8	7.45e-01	0	56	104	0	52	33343
2026-01-28 02:31:18.20	6.54	4.85	-40.8	-59.8	3.8	7.46e-01	0	55	104	0	52	33366
2026-01-28 02:31:19.21	6.47	4.92	-40.8	-59.8	3.8	7.49e-01	0	56	104	0	52	33331
2026-01-28 02:31:20.22	6.40	4.98	-40.8	-59.8	3.8	7.46e-01	0	56	104	0	52	33333
2026-01-28 02:31:21.23	6.33	5.05	-40.8	-59.8	3.8	7.46e-01	0	55	104	0	52	33411
2026-01-28 02:31:22.24	6.26	5.12	-40.8	-59.8	3.8	7.44e-01	0	56	104	0	52	33342
2026-01-28 02:31:23.25	6.19	5.19	-40.8	-59.7	3.8	7.47e-01	0	56	104	0	52	33290
2026-01-28 02:31:24.26	6.12	5.26	-40.8	-59.8	3.8	7.48e-01	0	56	104	0	52	33320
2026-01-28 02:31:25.27	6.05	5.33	-40.8	-59.7	3.8	7.45e-01	0	56	104	0	52	33282
2026-01-28 02:31:26.28	5.97	5.40	-40.8	-59.7	3.8	7.46e-01	0	56	104	0	52	33238
2026-01-28 02:31:27.29	5.90	5.47	-40.8	-59.7	3.8	7.48e-01	0	56	104	0	52	33309
2026-01-28 02:31:28.30	5.83	5.54	-40.8	-59.7	3.8	7.45e-01	0	56	104	0	52	33283
2026-01-28 02:31:29.31	5.76	5.61	-40.8	-59.7	3.8	7.43e-01	0	56	104	0	52	33267
2026-01-28 02:31:30.33	5.68	5.68	-40.8	-59.7	3.8	7.46e-01	0	56	104	0	52	33267
2026-01-28 02:31:31.34	5.61	5.75	-40.8	-59.7	3.8	7.43e-01	0	56	104	0	52	33285
2026-01-28 02:31:32.35	5.53	5.82	-40.8	-59.7	3.8	7.46e-01	0	56	104	0	52	33266
2026-01-28 02:31:33.36	5.46	5.89	-40.8	-59.7	3.8	7.44e-01	0	56	104	0	52	33295
2026-01-28 02:31:34.37	5.38	5.96	-40.8	-59.7	3.8	7.46e-01	0	56	104	0	52	33220
2026-01-28 02:31:35.38	5.31	6.04	-40.8	-59.7	3.8	7.44e-01	0	56	104	0	52	33300
2026-01-28 02:31:36.39	5.23	6.11	-40.8	-59.7	3.8	7.46e-01	0	56	104	0	52	33281
2026-01-28 02:31:37.40	5.15	6.18	-40.8	-59.7	3.8	7.41e-01	0	56	104	0	52	33307
2026-01-28 02:31:38.41	5.08	6.25	-40.8	-59.8	3.8	7.44e-01	0	56	104	0	52	33327
2026-01-28 02:31:39.42	5.00	6.32	-40.8	-59.7	3.8	7.44e-01	0	56	104	0	52	33285
2026-01-28 02:31:40.43	4.92	6.39	-40.8	-59.7	3.8	7.44e-01	0	57	104	0	52	33210
2026-01-28 02:31:41.44	4.84	6.47	-40.8	-59.8	3.8	7.48e-01	0	57	104	0	52	33341
2026-01-28 02:31:42.45	4.77	6.54	-40.8	-59.7	3.8	7.44e-01	0	57	104	0	52	33284
2026-01-28 02:31:43.46	4.69	6.61	-40.8	-59.7	3.8	7.49e-01	0	57	104	0	52	33261
2026-01-28 02:31:44.47	4.61	6.68	-40.8	-59.7	3.8	7.47e-01	0	57	104	0	52	33256
2026-01-28 02:31:45.48	4.53	6.76	-40.8	-59.7	3.8	7.46e-01	0	56	104	0	52	33236
2026-01-28 02:31:46.49	4.45	6.83	-40.8	-59.7	3.8	7.47e-01	0	57	104	0	52	33292
2026-01-28 02:31:47.50	4.37	6.90	-40.8	-59.7	3.8	7.45e-01	0	57	104	0	52	33233
2026-01-28 02:31:48.51	4.28	6.98	-40.8	-59.7	3.8	7.45e-01	0	57	104	0	52	33218
2026-01-28 02:31:49.52	4.20	7.05	-40.8	-59.7	3.8	7.49e-01	0	57	104	0	52	33275
2026-01-28 02:31:50.53	4.12	7.12	-40.8	-59.7	3.8	7.47e-01	0	57	104	0	52	33272
2026-01-28 02:31:51.54	4.04	7.20	-40.8	-59.7	3.8	7.45e-01	0	57	104	0	52	33308
2026-01-28 02:31:52.55	3.95	7.27	-40.8	-59.8	3.8	7.46e-01	0	57	104	0	52	33313
2026-01-28 02:31:53.56	3.87	7.35	-40.8	-59.7	3.8	7.46e-01	0	57	104	0	52	33273
2026-01-28 02:31:54.57	3.79	7.42	-40.8	-59.7	3.8	7.45e-01	0	57	104	0	52	33257
2026-01-28 02:31:55.58	3.70	7.50	-40.8	-59.7	3.8	7.45e-01	0	57	104	0	52	33283
2026-01-28 02:31:56.59	3.62	7.57	-40.8	-59.7	3.8	7.44e-01	0	57	104	0	52	33282
2026-01-28 02:31:57.60	3.53	7.65	-40.8	-59.7	3.8	7.46e-01	0	57	104	0	52	33230
2026-01-28 02:31:58.61	3.44	7.72	-40.8	-59.7	3.8	7.45e-01	0	57	104	0	52	33258
2026-01-28 02:31:59.62	3.36	7.80	-40.8	-59.8	3.8	7.49e-01	0	57	104	0	52	33339
2026-01-28 02:32:00.63	3.27	7.87	-40.8	-59.8	3.8	7.44e-01	0	57	104	0	52	33317
2026-01-28 02:32:01.64	3.18	7.95	-40.8	-59.7	3.8	7.48e-01	0	57	104	0	52	33258
2026-01-28 02:32:02.65	3.09	8.02	-40.8	-59.7	3.8	7.46e-01	0	57	104	0	52	33260
2026-01-28 02:32:03.66	3.01	8.10	-40.8	-59.7	3.8	7.49e-01	0	57	104	0	52	33293
2026-01-28 02:32:04.67	2.92	8.18	-40.9	-59.9	3.8	7.42e-01	0	57	104	0	52	33752
2026-01-28 02:32:05.68	2.83	8.25	-40.9	-59.9	3.8	7.45e-01	0	57	104	0	52	33696
2026-01-28 02:32:06.69	2.74	8.33	-41.0	-60.0	3.8	7.45e-01	0	57	104	0	52	34263
2026-01-28 02:32:07.70	2.64	8.41	-40.9	-59.9	3.8	7.45e-01	0	58	104	0	52	33729
2026-01-28 02:32:08.71	2.55	8.49	-41.0	-59.9	3.8	7.43e-01	0	58	104	0	52	33950
2026-01-28 02:32:09.72	2.46	8.56	-41.0	-59.9	3.8	7.45e-01	0	58	104	0	52	33956
2026-01-28 02:32:10.73	2.37	8.64	-41.1	-60.0	3.8	7.45e-01	0	58	104	0	52	34396
2026-01-28 02:32:11.74	2.28	8.72	-40.9	-59.8	3.8	7.46e-01	0	58	104	0	52	33694
2026-01-28 02:32:12.74	2.18	8.80	-41.0	-59.9	3.8	7.43e-01	0	58	104	0	52	33917
2026-01-28 02:32:13.75	2.09	8.87	-41.0	-60.0	3.8	7.45e-01	0	58	104	0	52	34126
2026-01-28 02:32:14.77	1.99	8.95	-41.0	-60.0	3.8	7.49e-01	0	58	104	0	52	34203
2026-01-28 02:32:15.77	1.90	9.03	-41.0	-59.9	3.8	7.45e-01	0	58	104	0	52	33839
2026-01-28 02:32:16.78	1.80	9.11	-41.0	-60.0	3.8	7.43e-01	0	58	104	0	52	34118
2026-01-28 02:32:17.79	1.71	9.19	-41.0	-59.9	3.8	7.47e-01	0	58	104	0	52	33965
2026-01-28 02:32:18.80	1.61	9.27	-41.0	-59.9	3.8	7.43e-01	0	58	104	0	52	34037
2026-01-28 02:32:19.81	1.51	9.35	-41.0	-59.9	3.8	7.48e-01	0	58	104	0	52	34057
2026-01-28 02:32:20.82	1.41	9.43	-41.0	-60.0	3.8	7.46e-01	0	58	104	0	52	34112
2026-01-28 02:32:21.83	1.31	9.51	-40.9	-59.9	3.8	7.44e-01	0	58	104	0	52	33809
2026-01-28 02:32:22.84	1.21	9.59	-41.0	-59.9	3.8	7.44e-01	0	58	104	0	52	34073
2026-01-28 02:32:23.85	1.11	9.67	-41.0	-59.9	3.8	7.45e-01	0	58	104	0	52	33978
2026-01-28 02:32:24.86	1.01	9.75	-41.0	-59.9	3.8	7.41e-01	0	58	104	0	52	34077
2026-01-28 02:32:25.87	0.91	9.83	-40.9	-59.9	3.8	7.47e-01	0	58	104	0	52	33767
2026-01-28 02:32:26.88	0.81	9.91	-41.1	-60.0	3.8	7.44e-01	0	58	104	0	52	34305
2026-01-28 02:32:27.89	0.71	9.99	-41.0	-59.9	3.8	7.45e-01	0	58	104	0	52	33872
2026-01-28 02:32:28.90	0.60	10.07	-41.1	-60.0	3.8	7.44e-01	0	58	104	0	52	34266
2026-01-28 02:32:29.90	0.50	10.15	-40.9	-59.9	3.8	7.47e-01	0	58	104	0	52	33858
2026-01-28 02:32:30.92	0.39	10.24	-41.1	-60.0	3.8	7.44e-01	0	58	104	0	52	34346
2026-01-28 02:32:31.93	0.29	10.32	-41.0	-59.9	3.8	7.48e-01	0	58	104	0	52	33911
2026-01-28 02:32:32.94	0.18	10.40	-41.2	-60.1	3.8	7.43e-01	0	58	104	0	52	34609
2026-01-28 02:32:33.95	0.07	10.48	-40.9	-59.9	3.8	7.46e-01	0	58	104	0	52	33829
2026-01-28 02:32:34.96	359.97	10.57	-41.1	-60.0	3.8	7.45e-01	0	58	104	0	52	34353
2026-01-28 02:32:35.97	359.86	10.65	-41.0	-59.9	3.8	7.46e-01	0	58	104	0	52	34009
2026-01-28 02:32:36.98	359.75	10.73	-41.3	-60.2	3.8	7.44e-01	0	59	104	0	53	33143
2026-01-28 02:32:37.99	359.64	10.81	-40.9	-59.8	3.8	7.47e-01	0	58	104	0	53	31804
2026-01-28 02:32:39.00	359.53	10.90	-41.2	-60.1	3.8	7.46e-01	0	59	104	0	53	32793
2026-01-28 02:32:40.01	359.42	10.98	-41.1	-60.0	3.8	7.45e-01	0	59	104	0	53	32303
2026-01-28 02:32:41.01	359.31	11.07	-41.4	-60.2	3.8	7.46e-01	0	58	104	0	53	33228
2026-01-28 02:32:42.03	359.20	11.15	-40.9	-59.8	3.8	7.45e-01	0	59	104	0	53	31697
2026-01-28 02:32:43.04	359.08	11.23	-41.3	-60.1	3.8	7.48e-01	0	59	104	0	53	32814
2026-01-28 02:32:44.05	358.97	11.32	-41.1	-60.0	3.8	7.44e-01	0	59	104	0	53	32217
2026-01-28 02:32:45.06	358.86	11.40	-41.6	-60.2	3.8	7.48e-01	0	59	104	0	53	32944
2026-01-28 02:32:46.07	358.74	11.49	-41.0	-59.9	3.8	7.46e-01	0	59	104	0	53	31878
2026-01-28 02:32:47.08	358.62	11.57	-41.6	-59.9	3.8	7.44e-01	0	59	104	0	53	31890
2026-01-28 02:32:48.09	358.51	11.66	-41.1	-59.9	3.8	7.44e-01	0	59	104	0	53	32167
2026-01-28 02:32:49.10	358.39	11.75	-42.0	-60.5	3.8	7.45e-01	0	59	104	0	54	32206
2026-01-28 02:32:50.11	358.27	11.83	-41.1	-59.8	3.8	7.49e-01	0	58	104	0	54	29949
2026-01-28 02:32:51.12	358.15	11.92	-41.3	-59.9	3.8	7.43e-01	0	59	104	0	54	30267
2026-01-28 02:32:52.12	358.03	12.00	-41.0	-59.8	3.8	7.46e-01	0	59	104	0	54	29970
2026-01-28 02:32:53.13	357.91	12.09	-41.2	-59.8	3.8	7.44e-01	0	59	104	0	54	29734
2026-01-28 02:32:54.14	357.79	12.18	-41.2	-59.1	3.8	7.46e-01	0	59	104	0	54	27394
2026-01-28 02:32:55.15	357.67	12.26	-41.2	-57.4	3.9	7.43e-01	0	59	104	0	54	22601
2026-01-28 02:32:56.16	357.55	12.35	-41.5	-54.9	5.0	7.07e-01	0	59	0	0	54	16946
2026-01-28 02:32:57.17	357.42	12.44	-41.1	-52.7	6.2	6.75e-01	0	59	0	524288	54	13122
2026-01-28 02:32:58.18	357.30	12.53	-43.2	-54.6	6.0	6.71e-01	37	59	0	2097152	57	13764
2026-01-28 02:32:59.19	357.17	12.61	-41.7	-47.3	13.4	6.04e-01	0	59	0	4194304	55	6718
2026-01-28 02:33:00.20	357.05	12.70	-41.7	-51.4	8.4	6.40e-01	37	59	0	5767168	54	11400
2026-01-28 02:33:01.21	356.92	12.79	-40.1	-43.9	17.2	6.00e-01	0	59	0	7864320	52	5400
2026-01-28 02:33:02.22	356.79	12.88	-40.0	-43.7	17.5	6.01e-01	0	59	0	9961472	52	5228
2026-01-28 02:33:03.23	356.66	12.97	-40.1	-43.8	17.4	6.01e-01	0	59	0	11534336	51	5621
2026-01-28 02:33:04.24	356.53	13.06	-40.3	-44.1	17.1	6.00e-01	0	59	0	13631488	51	5839
2026-01-28 02:33:05.25	356.40	13.15	-40.7	-45.0	16.1	5.99e-01	0	59	0	15204352	51	6456
2026-01-28 02:33:06.26	356.27	13.24	-40.7	-45.3	15.7	6.02e-01	0	59	0	17301504	52	6319
2026-01-28 02:33:07.27	356.14	13.33	-41.1	-46.5	14.4	6.04e-01	0	59	0	19398656	52	7236
2026-01-28 02:33:08.28	356.01	13.42	-41.5	-47.9	12.8	6.03e-01	0	59	0	20971520	53	8069
2026-01-28 02:33:09.29	355.87	13.51	-41.7	-49.0	11.5	6.10e-01	0	59	0	23068672	53	9151
2026-01-28 02:33:10.30	355.74	13.60	-41.9	-51.0	9.3	6.26e-01	0	59	0	24641536	54	10828
2026-01-28 02:33:11.31	355.60	13.69	-41.9	-51.9	8.2	6.41e-01	57	59	0	26738688	54	12041
2026-01-28 02:33:12.32	355.47	13.78	-42.0	-54.7	5.6	6.95e-01	15	59	0	28311552	54	16626
2026-01-28 02:33:13.34	355.33	13.87	-41.9	-55.4	5.1	7.09e-01	0	59	0	28835840	54	18034
2026-01-28 02:33:14.34	355.19	13.96	-41.9	-57.8	4.2	7.38e-01	0	59	104	28835840	54	23757
2026-01-28 02:33:15.36	355.05	14.05	-41.8	-58.9	3.9	7.45e-01	0	59	104	28835840	54	27003
2026-01-28 02:33:16.37	354.91	14.14	-41.8	-59.7	3.8	7.47e-01	0	59	104	28835840	54	29583
2026-01-28 02:33:17.38	354.77	14.24	-41.8	-60.2	3.8	7.44e-01	0	59	104	28835840	54	31300
2026-01-28 02:33:18.39	354.62	14.33	-41.7	-60.5	3.8	7.45e-01	0	59	104	28835840	54	32408
2026-01-28 02:33:19.40	354.48	14.42	-41.6	-60.5	3.8	7.48e-01	0	60	104	28835840	54	32364
2026-01-28 02:33:20.41	354.34	14.51	-41.9	-60.5	3.8	7.47e-01	0	60	104	28835840	54	32454
2026-01-28 02:33:21.42	354.19	14.60	-41.6	-60.5	3.8	7.44e-01	0	60	104	28835840	54	32520
2026-01-28 02:33:22.43	354.04	14.70	-41.6	-60.5	3.8	7.45e-01	0	59	104	28835840	54	32352
2026-01-28 02:33:23.44	353.90	14.79	-41.6	-60.5	3.8	7.45e-01	0	60	104	28835840	54	32383
2026-01-28 02:33:24.45	353.75	14.88	-41.7	-60.6	3.8	7.47e-01	0	60	104	28835840	54	32643
2026-01-28 02:33:25.46	353.60	14.98	-41.6	-60.5	3.8	7.48e-01	0	60	104	28835840	54	32309
2026-01-28 02:33:26.47	353.45	15.07	-41.7	-60.6	3.8	7.46e-01	0	60	104	28835840	54	32740
2026-01-28 02:33:27.48	353.30	15.17	-41.7	-60.6	3.8	7.40e-01	0	60	104	28835840	54	32838
2026-01-28 02:33:28.49	353.15	15.26	-41.6	-60.5	3.8	7.46e-01	0	60	104	28835840	54	32370
2026-01-28 02:33:29.50	352.99	15.35	-41.8	-60.7	3.8	7.43e-01	0	60	104	28835840	54	33039
2026-01-28 02:33:30.51	352.84	15.45	-41.9	-60.9	3.8	7.46e-01	0	60	104	28835840	54	33696
2026-01-28 02:33:31.52	352.68	15.54	-42.0	-60.9	3.8	7.43e-01	0	60	104	28835840	54	33847
2026-01-28 02:33:32.53	352.52	15.64	-41.8	-60.7	3.8	7.48e-01	0	60	104	28835840	54	33141
2026-01-28 02:33:33.54	352.37	15.73	-42.0	-60.9	3.8	7.46e-01	0	60	104	28835840	54	33770
2026-01-28 02:33:34.55	352.21	15.83	-41.8	-60.8	3.8	7.45e-01	0	60	104	28835840	54	33362
2026-01-28 02:33:35.56	352.05	15.93	-41.9	-60.9	3.8	7.43e-01	0	60	104	28835840	54	33735
2026-01-28 02:33:36.57	351.89	16.02	-41.9	-60.8	3.8	7.48e-01	0	60	104	28835840	54	33477
2026-01-28 02:33:37.58	351.72	16.12	-41.8	-60.7	3.8	7.42e-01	0	60	104	28835840	54	33143
2026-01-28 02:33:38.59	351.56	16.21	-41.9	-60.9	3.8	7.45e-01	0	60	104	28835840	54	33718
2026-01-28 02:33:39.60	351.40	16.31	-41.8	-60.7	3.8	7.44e-01	0	60	104	28835840	54	33298
2026-01-28 02:33:40.61	351.23	16.41	-41.8	-60.7	3.8	7.43e-01	0	60	104	28835840	54	33284
2026-01-28 02:33:41.62	351.06	16.50	-41.9	-60.9	3.8	7.46e-01	0	60	104	28835840	54	33697
2026-01-28 02:33:42.63	350.90	16.60	-41.9	-60.8	3.8	7.42e-01	0	60	104	28835840	54	33566
2026-01-28 02:33:43.64	350.73	16.70	-42.0	-61.0	3.8	7.44e-01	0	60	104	28835840	54	34105
2026-01-28 02:33:44.65	350.56	16.80	-42.1	-61.0	3.8	7.45e-01	0	60	104	28835840	54	34260
2026-01-28 02:33:45.66	350.38	16.89	-41.9	-60.8	3.8	7.45e-01	0	60	104	28835840	54	33608
2026-01-28 02:33:46.67	350.21	16.99	-42.1	-61.0	3.8	7.46e-01	0	60	104	28835840	54	34391
2026-01-28 02:33:47.68	350.04	17.09	-42.1	-61.1	3.8	7.46e-01	0	60	104	28835840	54	34527
2026-01-28 02:33:48.69	349.86	17.19	-42.0	-61.0	3.8	7.42e-01	0	60	104	28835840	54	34215
2026-01-28 02:33:49.70	349.69	17.28	-42.2	-61.1	3.8	7.48e-01	0	60	104	28835840	54	34487
2026-01-28 02:33:50.71	349.51	17.38	-42.4	-61.3	3.8	7.44e-01	0	60	104	28835840	55	33459
2026-01-28 02:33:51.72	349.33	17.48	-42.1	-61.0	3.8	7.48e-01	0	60	104	28835840	55	32322
2026-01-28 02:33:52.73	349.15	17.58	-41.9	-60.8	3.8	7.45e-01	0	60	104	28835840	55	31464
2026-01-28 02:33:53.74	348.97	17.68	-42.5	-61.4	3.8	7.45e-01	0	60	104	28835840	55	33949
2026-01-28 02:33:54.75	348.78	17.78	-42.0	-61.0	3.8	7.46e-01	0	60	104	28835840	55	32235
2026-01-28 02:33:55.76	348.60	17.88	-42.0	-60.9	3.8	7.44e-01	0	60	104	28835840	55	31824
2026-01-28 02:33:56.77	348.41	17.98	-41.9	-60.8	3.8	7.47e-01	0	60	104	28835840	55	31675
2026-01-28 02:33:57.77	348.23	18.08	-41.9	-60.8	3.8	7.45e-01	0	60	104	28835840	55	31595
2026-01-28 02:33:58.79	348.04	18.18	-41.9	-60.8	3.8	7.44e-01	0	60	104	28835840	55	31453
2026-01-28 02:33:59.80	347.85	18.28	-42.0	-60.9	3.8	7.47e-01	0	60	104	28835840	55	31857
2026-01-28 02:34:00.81	347.66	18.38	-42.0	-60.9	3.8	7.45e-01	0	60	104	28835840	55	32019
2026-01-28 02:34:01.82	347.47	18.48	-42.3	-61.2	3.8	7.46e-01	0	60	104	28835840	55	32970
2026-01-28 02:34:02.82	347.28	18.57	-41.9	-60.8	3.8	7.46e-01	0	60	104	28835840	55	31531
2026-01-28 02:34:03.84	347.08	18.68	-42.0	-60.9	3.8	7.43e-01	0	60	104	28835840	55	31893
2026-01-28 02:34:04.85	346.88	18.78	-41.9	-60.8	3.8	7.46e-01	0	60	104	28835840	55	31670
2026-01-28 02:34:05.86	346.68	18.88	-41.9	-60.8	3.8	7.49e-01	0	60	104	28835840	55	31780
2026-01-28 02:34:06.87	346.49	18.98	-41.9	-60.8	3.8	7.44e-01	0	60	104	28835840	55	31473
2026-01-28 02:34:07.88	346.29	19.08	-41.9	-60.8	3.8	7.45e-01	0	60	104	28835840	55	31729
2026-01-28 02:34:08.89	346.08	19.18	-41.9	-60.7	3.8	7.43e-01	0	60	104	28835840	55	31239
2026-01-28 02:34:09.90	345.88	19.28	-41.8	-60.6	3.8	7.43e-01	0	60	104	28835840	55	30882
2026-01-28 02:34:10.91	345.68	19.38	-42.0	-60.5	3.8	7.44e-01	0	60	104	28835840	55	30614
2026-01-28 02:34:11.92	345.47	19.48	-41.9	-60.4	3.8	7.47e-01	0	61	104	28835840	55	30303
2026-01-28 02:34:12.93	345.26	19.58	-42.1	-59.9	3.8	7.46e-01	0	60	104	28835840	55	28519
2026-01-28 02:34:13.94	345.05	19.68	-41.8	-60.5	3.8	7.43e-01	0	60	104	28835840	55	30706
2026-01-28 02:34:14.95	344.84	19.79	-42.9	-59.7	3.8	7.44e-01	0	60	104	28835840	56	26438
2026-01-28 02:34:15.96	344.63	19.89	-42.3	-60.8	3.8	7.45e-01	0	61	104	28835840	56	29794
2026-01-28 02:34:16.97	344.42	19.99	-43.3	-58.9	3.9	7.42e-01	0	60	104	28835840	57	22712
2026-01-28 02:34:17.98	344.20	20.09	-43.5	-57.0	4.9	7.08e-01	0	61	0	28835840	57	18287
2026-01-28 02:34:18.99	343.98	20.19	-43.7	-56.9	5.2	7.05e-01	0	60	0	28835840	58	16969
2026-01-28 02:34:20.00	343.76	20.29	-43.8	-56.1	5.7	6.92e-01	55	61	0	28835840	58	15562
2026-01-28 02:34:21.01	343.54	20.39	-43.8	-55.2	6.5	6.70e-01	92	60	0	30408704	58	13908
2026-01-28 02:34:22.02	343.32	20.50	-43.8	-54.9	6.8	6.66e-01	92	61	0	31981568	58	13486
2026-01-28 02:34:23.03	343.10	20.60	-43.8	-53.8	7.9	6.44e-01	89	60	0	34078720	58	11900
2026-01-28 02:34:24.04	342.88	20.70	-43.6	-52.6	9.2	6.28e-01	0	61	0	36175872	58	10323
2026-01-28 02:34:25.05	342.65	20.80	-42.2	-60.3	3.9	7.42e-01	0	61	104	37224448	56	28193
2026-01-28 02:34:26.06	342.42	20.90	-44.1	-54.9	6.9	6.67e-01	92	61	0	37224448	58	13467
2026-01-28 02:34:27.07	342.19	21.00	-42.8	-52.1	8.7	6.36e-01	2	60	0	38797312	57	10391
2026-01-28 02:34:28.08	341.96	21.10	-42.2	-47.5	14.3	6.03e-01	0	61	0	40894464	56	6439
2026-01-28 02:34:29.09	341.73	21.21	-41.9	-46.6	15.2	6.01e-01	0	61	0	42467328	55	6186
2026-01-28 02:34:30.10	341.49	21.31	-41.6	-46.0	16.0	6.04e-01	0	61	0	44564480	55	5732
2026-01-28 02:34:31.11	341.26	21.41	-41.5	-45.6	16.6	6.04e-01	0	61	0	46661632	55	5466
2026-01-28 02:34:32.13	341.02	21.51	-41.0	-44.6	17.6	6.02e-01	0	61	0	48234496	54	5200
2026-01-28 02:34:33.14	340.78	21.61	-40.7	-44.0	18.2	6.03e-01	0	61	0	50331648	53	5144
2026-01-28 02:34:34.15	340.54	21.71	-40.6	-43.7	18.6	6.04e-01	0	61	0	51904512	53	4968
2026-01-28 02:34:35.15	340.30	21.81	-40.6	-43.7	18.8	6.03e-01	0	61	0	54001664	52	5222
2026-01-28 02:34:36.16	340.05	21.91	-40.9	-44.1	18.6	6.02e-01	0	61	0	56098816	52	5515
2026-01-28 02:34:37.17	339.81	22.02	-40.9	-44.0	18.9	6.02e-01	0	61	0	57671680	52	5440
2026-01-28 02:34:38.18	339.56	22.12	-41.1	-44.2	18.9	6.04e-01	0	61	0	59768832	52	5557
2026-01-28 02:34:39.19	339.31	22.22	-41.0	-44.0	19.2	6.03e-01	0	61	0	61865984	52	5438
2026-01-28 02:34:40.20	339.06	22.32	-41.0	-43.8	19.5	6.03e-01	0	61	0	63438848	52	5325
2026-01-28 02:34:41.22	338.81	22.42	-41.1	-43.9	19.6	6.03e-01	0	61	0	65536000	52	5400
2026-01-28 02:34:42.22	338.55	22.52	-41.0	-43.7	19.8	6.02e-01	0	61	0	67108864	52	5267
2026-01-28 02:34:43.23	338.30	22.62	-40.8	-43.5	20.1	6.01e-01	0	61	0	69206016	52	5140
2026-01-28 02:34:44.24	338.04	22.72	-40.8	-43.4	20.2	6.03e-01	0	61	0	71303168	52	5096
2026-01-28 02:34:45.25	337.78	22.82	-40.8	-43.5	20.3	6.06e-01	0	61	0	72876032	52	5102
2026-01-28 02:34:46.26	337.52	22.92	-40.9	-43.6	20.2	6.02e-01	0	61	0	74973184	52	5184
2026-01-28 02:34:47.27	337.25	23.02	-41.0	-43.7	20.1	6.03e-01	0	61	0	76546048	52	5230
2026-01-28 02:34:48.28	336.99	23.12	-41.0	-43.7	20.0	6.03e-01	0	61	0	78643200	52	5269
2026-01-28 02:34:49.29	336.72	23.22	-41.0	-43.7	20.1	6.03e-01	0	61	0	80740352	52	5249
2026-01-28 02:34:50.30	336.45	23.31	-41.0	-43.7	20.1	6.04e-01	0	61	0	82313216	52	5232
2026-01-28 02:34:51.31	336.18	23.41	-41.1	-43.7	20.1	6.03e-01	0	61	0	84410368	52	5277
2026-01-28 02:34:52.32	335.91	23.51	-41.0	-43.7	20.1	6.01e-01	0	60	0	86507520	52	5253
2026-01-28 02:34:53.33	335.64	23.61	-41.0	-43.7	20.2	6.01e-01	0	61	0	88080384	52	5251
2026-01-28 02:34:54.34	335.36	23.71	-41.1	-43.7	20.1	6.01e-01	0	61	0	90177536	52	5268
2026-01-28 02:34:55.35	335.08	23.80	-41.1	-43.8	20.1	6.05e-01	0	61	0	91750400	52	5290
2026-01-28 02:34:56.36	334.80	23.90	-41.1	-43.8	20.1	6.02e-01	0	61	0	93847552	52	5299
2026-01-28 02:34:57.37	334.52	24.00	-41.1	-43.8	20.0	6.05e-01	0	61	0	95944704	52	5335
2026-01-28 02:34:58.37	334.24	24.09	-41.1	-43.7	20.2	6.02e-01	0	61	0	97517568	52	5247
2026-01-28 02:34:59.39	333.95	24.19	-41.0	-43.6	20.2	6.02e-01	0	61	0	99614720	52	5211
2026-01-28 02:35:00.40	333.67	24.28	-41.0	-43.6	20.3	6.01e-01	0	61	0	101187584	52	5180
2026-01-28 02:35:01.40	333.38	24.38	-41.0	-43.7	20.2	6.02e-01	0	61	0	103284736	52	5223
2026-01-28 02:35:02.41	333.09	24.47	-41.0	-43.6	20.3	6.02e-01	0	61	0	105381888	52	5191
2026-01-28 02:35:03.43	332.79	24.57	-41.0	-43.6	20.2	6.02e-01	0	61	0	106954752	52	5206
2026-01-28 02:35:04.44	332.50	24.66	-41.0	-43.6	20.2	6.03e-01	0	61	0	109051904	52	5200
2026-01-28 02:35:05.45	332.20	24.76	-41.1	-43.7	20.1	6.03e-01	0	61	0	110624768	52	5244
2026-01-28 02:35:06.46	331.91	24.85	-41.1	-43.8	20.0	6.01e-01	0	61	0	112721920	52	5285
2026-01-28 02:35:07.46	331.61	24.94	-41.0	-43.7	20.0	6.03e-01	0	61	0	114819072	52	5221
2026-01-28 02:35:08.47	331.31	25.03	-41.0	-43.6	20.1	6.04e-01	0	61	0	116391936	52	5199
2026-01-28 02:35:09.48	331.00	25.13	-41.1	-43.7	20.0	6.04e-01	0	61	0	118489088	52	5264
2026-01-28 02:35:10.49	330.70	25.22	-41.0	-43.6	20.2	6.04e-01	0	61	0	120061952	52	5184
2026-01-28 02:35:11.50	330.39	25.31	-40.9	-43.5	20.4	6.01e-01	0	61	0	122159104	52	5107
2026-01-28 02:35:12.51	330.08	25.40	-41.0	-43.6	20.3	6.01e-01	0	61	0	124256256	52	5161
2026-01-28 02:35:13.52	329.77	25.49	-40.9	-43.5	20.4	6.04e-01	0	61	0	125829120	52	5121
2026-01-28 02:35:14.53	329.46	25.58	-40.9	-43.4	20.5	6.03e-01	0	61	0	127926272	52	5092
2026-01-28 02:35:15.54	329.14	25.66	-40.9	-43.4	20.5	6.02e-01	0	61	0	129499136	52	5100
2026-01-28 02:35:16.55	328.83	25.75	-41.0	-43.6	20.3	6.05e-01	0	61	0	131596288	52	5203
2026-01-28 02:35:17.56	328.51	25.84	-41.1	-43.7	20.2	6.03e-01	0	61	0	133693440	52	5255
2026-01-28 02:35:18.57	328.19	25.93	-41.0	-43.6	20.3	6.02e-01	0	61	0	135266304	52	5178
2026-01-28 02:35:19.58	327.86	26.01	-40.9	-43.5	20.4	6.03e-01	0	61	0	137363456	52	5138
2026-01-28 02:35:20.59	327.54	26.10	-41.0	-43.6	20.4	6.01e-01	0	61	0	139460608	52	5161
2026-01-28 02:35:21.60	327.21	26.18	-41.0	-43.6	20.3	6.03e-01	0	61	0	141033472	52	5183
2026-01-28 02:35:22.61	326.89	26.27	-41.0	-43.5	20.4	6.03e-01	0	61	0	143130624	52	5147
2026-01-28 02:35:23.62	326.56	26.35	-40.9	-43.4	20.5	6.01e-01	0	61	0	144703488	52	5083
2026-01-28 02:35:24.63	326.23	26.43	-40.9	-43.5	20.4	6.03e-01	0	61	0	146800640	52	5133
2026-01-28 02:35:25.64	325.89	26.51	-40.9	-43.5	20.4	6.03e-01	0	61	0	148897792	52	5121
2026-01-28 02:35:26.65	325.56	26.59	-40.8	-43.3	20.6	6.02e-01	0	61	0	150470656	52	5012
2026-01-28 02:35:27.66	325.22	26.67	-40.9	-43.4	20.5	6.01e-01	0	61	0	152567808	52	5078
2026-01-28 02:35:28.67	324.88	26.75	-40.8	-43.4	20.5	6.01e-01	0	61	0	154664960	52	5059
2026-01-28 02:35:29.68	324.54	26.83	-40.8	-43.3	20.6	6.03e-01	0	61	0	156237824	52	5018
2026-01-28 02:35:30.69	324.20	26.91	-40.8	-43.3	20.6	6.02e-01	0	61	0	158334976	52	4987
2026-01-28 02:35:31.70	323.86	26.99	-40.8	-43.3	20.6	6.05e-01	0	61	0	159907840	52	4988
2026-01-28 02:35:32.71	323.51	27.06	-40.8	-43.4	20.5	6.02e-01	0	61	0	162004992	52	5064
2026-01-28 02:35:33.72	323.17	27.14	-40.9	-43.4	20.5	6.04e-01	0	61	0	164102144	52	5062
2026-01-28 02:35:34.73	322.82	27.21	-40.9	-43.5	20.4	6.03e-01	0	61	0	165675008	52	5115
2026-01-28 02:35:35.74	322.47	27.28	-40.8	-43.3	20.6	6.04e-01	0	61	0	167772160	52	5020
2026-01-28 02:35:36.75	322.11	27.36	-40.7	-43.2	20.7	6.01e-01	0	61	0	169345024	52	4966
2026-01-28 02:35:37.77	321.76	27.43	-40.8	-43.2	20.7	6.01e-01	0	61	0	171442176	52	4969
2026-01-28 02:35:38.78	321.40	27.50	-40.8	-43.3	20.6	6.02e-01	0	61	0	173539328	52	5002
2026-01-28 02:35:39.79	321.04	27.57	-40.8	-43.3	20.6	6.03e-01	0	61	0	175112192	52	5011
2026-01-28 02:35:40.80	320.68	27.63	-40.7	-43.2	20.7	6.02e-01	0	61	0	177209344	52	4936
2026-01-28 02:35:41.81	320.32	27.70	-40.7	-43.2	20.7	6.04e-01	0	61	0	178782208	52	4961
2026-01-28 02:35:42.82	319.96	27.77	-40.7	-43.2	20.7	6.03e-01	0	61	0	180879360	52	4954
2026-01-28 02:35:43.83	319.60	27.83	-40.6	-43.1	20.8	6.04e-01	0	61	0	182976512	52	4880
2026-01-28 02:35:44.84	319.23	27.90	-40.8	-43.3	20.5	6.00e-01	0	61	0	184549376	52	5029
2026-01-28 02:35:45.85	318.87	27.96	-40.7	-43.2	20.6	6.04e-01	0	61	0	186646528	52	4957
2026-01-28 02:35:46.85	318.50	28.02	-40.8	-43.2	20.5	6.01e-01	0	61	0	188219392	52	4982
2026-01-28 02:35:47.86	318.13	28.08	-40.7	-43.1	20.7	6.03e-01	0	61	0	190316544	52	4920
2026-01-28 02:35:48.87	317.76	28.14	-40.7	-43.2	20.6	6.03e-01	0	61	0	192413696	52	4961
2026-01-28 02:35:49.88	317.39	28.20	-40.7	-43.2	20.7	6.05e-01	0	61	0	193986560	52	4943
2026-01-28 02:35:50.89	317.02	28.26	-40.7	-43.2	20.6	6.03e-01	0	61	0	196083712	52	4956
2026-01-28 02:35:51.90	316.64	28.31	-40.7	-43.2	20.7	6.01e-01	0	61	0	197656576	52	4956
2026-01-28 02:35:52.91	316.26	28.37	-40.7	-43.2	20.7	6.02e-01	0	61	0	199753728	52	4939
2026-01-28 02:35:53.92	315.89	28.42	-40.7	-43.2	20.6	6.04e-01	0	61	0	201850880	52	4963
2026-01-28 02:35:54.93	315.51	28.47	-40.8	-43.3	20.6	6.04e-01	0	61	0	203423744	52	4988
2026-01-28 02:35:55.94	315.13	28.52	-40.8	-43.3	20.6	6.02e-01	0	61	0	205520896	52	4995
2026-01-28 02:35:56.95	314.74	28.57	-40.6	-43.0	20.9	6.01e-01	0	61	0	207618048	52	4850
2026-01-28 02:35:57.96	314.36	28.62	-40.7	-43.2	20.7	6.03e-01	0	61	0	209190912	52	4943
2026-01-28 02:35:58.97	313.98	28.67	-40.6	-43.1	20.8	6.01e-01	0	61	0	211288064	52	4886
2026-01-28 02:35:59.98	313.59	28.72	-40.6	-43.0	20.9	6.02e-01	0	61	0	212860928	52	4852
2026-01-28 02:36:00.97	313.21	28.76	-40.7	-43.2	20.7	6.03e-01	0	61	0	214958080	52	4947
2026-01-28 02:36:01.98	312.82	28.80	-40.6	-43.0	20.9	6.03e-01	0	61	0	217055232	52	4836
2026-01-28 02:36:02.98	312.44	28.84	-40.6	-42.9	20.9	6.02e-01	0	61	0	218628096	52	4814
2026-01-28 02:36:03.99	312.05	28.88	-40.7	-43.2	20.7	6.02e-01	0	61	0	220725248	52	4950
2026-01-28 02:36:05.01	311.66	28.92	-40.5	-42.9	20.9	6.05e-01	0	61	0	222298112	52	4799
2026-01-28 02:36:06.02	311.26	28.96	-40.5	-42.8	21.0	6.04e-01	0	61	0	224395264	52	4739
2026-01-28 02:36:07.03	310.87	29.00	-40.7	-43.2	20.7	6.01e-01	0	61	0	226492416	52	4957
2026-01-28 02:36:08.04	310.48	29.03	-40.7	-43.2	20.6	6.02e-01	0	61	0	228065280	52	4964
2026-01-28 02:36:09.05	310.08	29.07	-40.6	-43.0	20.9	6.03e-01	0	61	0	230162432	52	4821
2026-01-28 02:36:10.06	309.69	29.10	-40.7	-43.1	20.8	6.03e-01	0	61	0	231735296	52	4897
2026-01-28 02:36:11.07	309.29	29.13	-40.7	-43.2	20.7	6.02e-01	0	61	0	233832448	52	4934
2026-01-28 02:36:12.08	308.89	29.16	-40.6	-43.1	20.9	6.03e-01	0	61	0	235929600	52	4883
2026-01-28 02:36:13.09	308.50	29.19	-40.6	-43.1	20.9	6.05e-01	0	61	0	237502464	52	4873
2026-01-28 02:36:14.10	308.10	29.21	-40.7	-43.2	20.7	6.04e-01	0	61	0	239599616	52	4971
2026-01-28 02:36:15.11	307.70	29.24	-40.7	-43.1	20.8	6.03e-01	0	61	0	241172480	52	4922
2026-01-28 02:36:16.12	307.30	29.26	-40.6	-43.0	21.0	6.04e-01	0	61	0	243269632	52	4826
2026-01-28 02:36:17.13	306.90	29.28	-40.6	-43.0	20.9	6.03e-01	0	61	0	245366784	52	4835
2026-01-28 02:36:18.14	306.50	29.30	-40.7	-43.2	20.7	6.03e-01	0	61	0	246939648	52	4971
2026-01-28 02:36:19.15	306.10	29.32	-41.0	-43.6	20.3	6.00e-01	0	61	0	249036800	52	5211
2026-01-28 02:36:20.15	305.70	29.34	-40.7	-43.2	20.8	6.03e-01	0	61	0	251133952	52	4935
2026-01-28 02:36:21.16	305.30	29.35	-40.7	-43.1	20.7	6.02e-01	0	61	0	252706816	52	4883
2026-01-28 02:36:22.17	304.89	29.37	-41.2	-43.8	20.1	6.02e-01	0	61	0	254803968	53	5014
2026-01-28 02:36:23.19	304.49	29.38	-41.1	-43.7	20.2	6.04e-01	0	61	0	256376832	53	4979
2026-01-28 02:36:24.20	304.08	29.39	-40.8	-43.2	20.7	6.06e-01	0	61	0	258473984	53	4681
2026-01-28 02:36:25.21	303.68	29.40	-40.9	-43.5	20.2	6.05e-01	0	61	0	260571136	53	4835
2026-01-28 02:36:26.22	303.28	29.41	-41.4	-44.2	19.6	6.02e-01	0	61	0	262144000	53	5268
2026-01-28 02:36:27.23	302.87	29.42	-40.9	-43.4	20.5	6.03e-01	0	61	0	264241152	52	5064
2026-01-28 02:36:28.23	302.47	29.42	-40.4	-42.7	21.1	6.05e-01	0	61	0	265814016	52	4680
2026-01-28 02:36:29.24	302.07	29.42	-41.2	-43.8	19.9	6.06e-01	0	61	0	267911168	53	5033
2026-01-28 02:36:30.25	301.66	29.43	-41.5	-44.3	19.6	6.02e-01	0	61	0	270008320	53	5329
2026-01-28 02:36:31.26	301.26	29.43	-40.8	-43.3	20.7	6.02e-01	0	61	0	271581184	53	4711
2026-01-28 02:36:32.28	300.85	29.42	-40.6	-42.9	20.9	6.06e-01	0	61	0	273678336	53	4537
2026-01-28 02:36:33.29	300.45	29.42	-41.4	-44.2	19.6	6.04e-01	0	61	0	275775488	53	5247
2026-01-28 02:36:34.30	300.04	29.42	-41.5	-44.4	19.6	6.04e-01	0	61	0	277348352	53	5371
2026-01-28 02:36:35.31	299.64	29.41	-40.6	-43.0	21.0	6.05e-01	0	61	0	279445504	53	4557
2026-01-28 02:36:36.32	299.23	29.40	-40.8	-43.3	20.6	6.04e-01	0	61	0	281018368	53	4708
2026-01-28 02:36:37.33	298.83	29.40	-41.4	-44.1	19.7	6.05e-01	0	61	0	283115520	53	5216
2026-01-28 02:36:38.34	298.43	29.38	-40.9	-43.4	20.5	6.01e-01	0	61	0	285212672	53	4793
2026-01-28 02:36:39.34	298.03	29.37	-40.8	-43.3	20.6	6.01e-01	0	61	0	286785536	53	4710
2026-01-28 02:36:40.35	297.62	29.36	-41.3	-44.1	19.9	6.01e-01	0	61	0	288882688	53	5191
2026-01-28 02:36:41.36	297.22	29.34	-40.7	-43.1	20.9	6.04e-01	0	61	0	290979840	52	4881
2026-01-28 02:36:42.37	296.82	29.33	-40.2	-42.4	21.4	6.04e-01	0	61	0	292552704	52	4501
2026-01-28 02:36:43.38	296.42	29.31	-41.3	-44.0	19.5	6.03e-01	0	61	0	294649856	54	4825
2026-01-28 02:36:44.39	296.02	29.29	-41.4	-44.2	19.8	6.04e-01	0	61	0	296222720	53	5241
2026-01-28 02:36:45.40	295.61	29.27	-41.0	-43.6	20.4	6.04e-01	0	61	0	298319872	53	4884
2026-01-28 02:36:46.41	295.21	29.25	-41.3	-44.0	20.0	6.06e-01	0	61	0	300417024	53	5124
2026-01-28 02:36:47.42	294.81	29.22	-40.9	-43.5	20.6	6.05e-01	0	61	0	301989888	53	4834
2026-01-28 02:36:48.43	294.42	29.20	-40.7	-43.1	20.8	6.02e-01	0	61	0	304087040	53	4617
2026-01-28 02:36:49.44	294.02	29.17	-40.8	-43.3	20.6	6.03e-01	0	61	0	305659904	53	4725
2026-01-28 02:36:50.45	293.62	29.14	-40.8	-43.3	20.6	6.02e-01	0	61	0	307757056	53	4745
2026-01-28 02:36:51.46	293.22	29.11	-41.4	-44.2	19.7	6.02e-01	0	61	0	309329920	53	5252
2026-01-28 02:36:52.47	292.83	29.08	-41.3	-44.1	19.9	6.04e-01	0	61	0	311427072	53	5166
2026-01-28 02:36:53.48	292.43	29.05	-40.7	-43.1	20.8	6.02e-01	0	61	0	313524224	53	4634
2026-01-28 02:36:54.49	292.04	29.01	-41.0	-43.6	20.3	6.03e-01	0	61	0	315097088	53	4875
2026-01-28 02:36:55.49	291.65	28.98	-41.0	-43.6	20.4	6.02e-01	0	61	0	317194240	53	4895
2026-01-28 02:36:56.50	291.25	28.94	-41.2	-43.9	20.1	6.03e-01	0	61	0	319291392	53	5049
2026-01-28 02:36:57.51	290.86	28.90	-41.3	-44.1	19.9	6.00e-01	0	61	0	320864256	53	5168
2026-01-28 02:36:58.52	290.47	28.86	-40.9	-43.5	20.4	6.05e-01	0	61	0	322961408	53	4841
2026-01-28 02:36:59.54	290.08	28.82	-41.1	-43.7	20.2	6.03e-01	0	61	0	324534272	53	4982
2026-01-28 02:37:00.54	289.69	28.78	-40.7	-43.1	20.8	6.06e-01	0	61	0	326631424	53	4650
2026-01-28 02:37:01.56	289.30	28.73	-41.0	-43.6	20.2	6.05e-01	0	61	0	328728576	53	4884
2026-01-28 02:37:02.57	288.92	28.69	-41.4	-44.2	19.8	5.99e-01	0	61	0	330301440	53	5268
2026-01-28 02:37:03.58	288.53	28.64	-40.8	-43.2	20.7	6.04e-01	0	61	0	332398592	53	4688
2026-01-28 02:37:04.59	288.15	28.59	-41.4	-44.2	19.6	6.05e-01	0	61	0	333971456	53	5269
2026-01-28 02:37:05.59	287.77	28.54	-41.2	-43.8	20.1	6.03e-01	0	61	0	336068608	53	5028
2026-01-28 02:37:06.60	287.38	28.49	-40.9	-43.3	20.5	6.04e-01	0	61	0	338165760	53	4752
2026-01-28 02:37:07.62	287.00	28.44	-41.6	-44.5	19.5	6.04e-01	0	61	0	339738624	53	5415
2026-01-28 02:37:08.63	286.62	28.39	-41.2	-43.9	20.1	6.01e-01	0	61	0	341835776	53	5045
2026-01-28 02:37:09.64	286.24	28.33	-40.9	-43.4	20.4	6.04e-01	0	61	0	343932928	53	4763
2026-01-28 02:37:10.64	285.87	28.28	-41.8	-44.9	19.1	6.04e-01	0	61	0	345505792	54	5342
2026-01-28 02:37:11.66	285.49	28.22	-40.6	-42.9	21.0	6.04e-01	0	61	0	347602944	53	4533
2026-01-28 02:37:12.66	285.12	28.16	-41.3	-44.0	19.7	6.05e-01	0	61	0	349175808	53	5150
2026-01-28 02:37:13.67	284.75	28.10	-41.2	-43.9	20.1	6.04e-01	0	61	0	351272960	53	5069
2026-01-28 02:37:14.68	284.38	28.04	-40.8	-43.3	20.5	6.04e-01	0	61	0	353370112	53	4711
2026-01-28 02:37:15.69	284.01	27.98	-41.8	-44.9	19.1	6.04e-01	0	61	0	354942976	54	5356
2026-01-28 02:37:16.71	283.64	27.92	-40.7	-43.0	20.8	6.03e-01	0	61	0	357040128	53	4597
2026-01-28 02:37:17.72	283.27	27.85	-41.9	-45.0	18.9	6.04e-01	0	61	0	359137280	54	5409
2026-01-28 02:37:18.73	282.91	27.79	-40.9	-43.5	20.5	6.02e-01	0	61	0	360710144	53	4817
2026-01-28 02:37:19.74	282.54	27.72	-41.8	-44.8	19.0	6.03e-01	0	61	0	362807296	54	5293
2026-01-28 02:37:20.75	282.18	27.66	-41.6	-44.5	19.4	6.04e-01	0	62	0	364380160	54	5120
2026-01-28 02:37:21.76	281.82	27.59	-41.4	-44.1	19.6	6.01e-01	0	61	0	366477312	54	4924
2026-01-28 02:37:22.77	281.46	27.52	-41.7	-44.7	19.2	6.01e-01	0	61	0	368574464	54	5256
2026-01-28 02:37:23.78	281.10	27.45	-40.7	-43.1	20.7	6.05e-01	0	61	0	370147328	53	4649
2026-01-28 02:37:24.79	280.75	27.38	-41.9	-45.1	18.8	6.03e-01	0	61	0	372244480	54	5484
2026-01-28 02:37:25.80	280.39	27.31	-41.1	-43.7	20.2	6.03e-01	0	61	0	373817344	54	4669
2026-01-28 02:37:26.81	280.04	27.23	-42.0	-45.2	18.7	6.02e-01	0	62	0	375914496	54	5583
2026-01-28 02:37:27.82	279.69	27.16	-41.1	-43.7	20.1	6.02e-01	0	61	0	378011648	54	4678
2026-01-28 02:37:28.83	279.34	27.09	-41.4	-44.2	19.6	6.02e-01	0	61	0	379584512	54	4982
2026-01-28 02:37:29.84	279.00	27.01	-41.1	-43.7	20.2	6.05e-01	0	61	0	381681664	54	4676
2026-01-28 02:37:30.85	278.65	26.93	-41.6	-44.5	19.3	6.06e-01	0	62	0	383254528	54	5125
2026-01-28 02:37:31.86	278.31	26.86	-40.9	-43.4	20.4	6.03e-01	0	61	0	385351680	53	4813
2026-01-28 02:37:32.87	277.96	26.78	-41.6	-44.6	19.3	6.02e-01	0	61	0	387448832	53	5518
2026-01-28 02:37:33.88	277.62	26.70	-41.2	-43.8	20.0	6.04e-01	0	62	0	389021696	53	5038
2026-01-28 02:37:34.89	277.29	26.62	-41.1	-43.8	20.1	6.03e-01	0	61	0	391118848	53	4991
2026-01-28 02:37:35.90	276.95	26.54	-41.5	-44.3	19.6	6.03e-01	0	61	0	392691712	53	5298
2026-01-28 02:37:36.91	276.61	26.46	-41.4	-44.2	19.7	6.03e-01	0	61	0	394788864	53	5253
2026-01-28 02:37:37.92	276.28	26.37	-41.3	-44.1	19.8	6.03e-01	0	61	0	396886016	53	5182
2026-01-28 02:37:38.93	275.95	26.29	-41.7	-44.7	19.2	6.03e-01	0	62	0	398458880	53	5574
2026-01-28 02:37:39.94	275.62	26.21	-41.3	-44.0	19.8	6.05e-01	0	61	0	400556032	54	4822
2026-01-28 02:37:40.95	275.29	26.12	-41.2	-43.9	19.9	6.04e-01	0	61	0	402128896	54	4796
2026-01-28 02:37:41.97	274.96	26.04	-41.7	-44.6	19.2	6.03e-01	0	62	0	404226048	54	5213
2026-01-28 02:37:42.98	274.64	25.95	-41.3	-44.0	19.8	6.04e-01	0	61	0	406323200	54	4864
2026-01-28 02:37:43.99	274.32	25.86	-41.7	-44.6	19.3	6.02e-01	0	62	0	407896064	54	5191
2026-01-28 02:37:45.00	274.00	25.78	-41.8	-44.9	19.0	6.02e-01	0	62	0	409993216	54	5352
2026-01-28 02:37:46.01	273.68	25.69	-41.5	-44.4	19.4	6.03e-01	0	61	0	412090368	54	5071
2026-01-28 02:37:47.02	273.36	25.60	-41.8	-44.9	19.0	6.02e-01	0	61	0	413663232	54	5386
2026-01-28 02:37:48.03	273.05	25.51	-41.7	-44.7	19.2	6.04e-01	0	61	0	415760384	54	5236
2026-01-28 02:37:49.04	272.74	25.42	-41.8	-44.8	19.1	6.03e-01	0	61	0	417333248	54	5286
2026-01-28 02:37:50.05	272.42	25.33	-42.0	-45.2	18.7	6.03e-01	0	61	0	419430400	54	5559
2026-01-28 02:37:51.06	272.11	25.24	-41.8	-44.9	18.9	6.04e-01	0	61	0	421527552	54	5368
2026-01-28 02:37:52.07	271.81	25.15	-41.6	-44.5	19.3	6.02e-01	0	61	0	423100416	54	5144
2026-01-28 02:37:53.08	271.50	25.06	-41.4	-44.1	19.7	6.03e-01	0	61	0	425197568	54	4918
2026-01-28 02:37:54.09	271.20	24.96	-41.6	-44.5	19.3	6.03e-01	0	61	0	427294720	54	5153
2026-01-28 02:37:55.10	270.90	24.87	-41.3	-44.1	19.7	6.06e-01	0	62	0	428867584	54	4902
2026-01-28 02:37:56.11	270.60	24.78	-41.4	-44.2	19.7	6.01e-01	0	61	0	430964736	54	4948
2026-01-28 02:37:57.12	270.30	24.68	-41.7	-44.6	19.2	6.03e-01	0	61	0	432537600	54	5210
2026-01-28 02:37:58.13	270.00	24.59	-41.6	-44.5	19.3	6.04e-01	0	62	0	434634752	54	5120
2026-01-28 02:37:59.14	269.71	24.49	-41.2	-43.8	19.9	6.05e-01	0	61	0	436731904	54	4757
2026-01-28 02:38:00.15	269.42	24.40	-41.3	-44.0	19.8	6.03e-01	0	62	0	438304768	54	4859
2026-01-28 02:38:01.15	269.13	24.30	-41.6	-44.5	19.4	6.02e-01	0	61	0	440401920	54	5109
2026-01-28 02:38:02.16	268.84	24.21	-41.3	-44.0	19.7	6.04e-01	0	61	0	441974784	54	4851
2026-01-28 02:38:03.17	268.55	24.11	-41.2	-44.0	19.8	6.03e-01	0	62	0	444071936	54	4817
2026-01-28 02:38:04.18	268.27	24.02	-41.6	-44.5	19.3	6.05e-01	0	62	0	446169088	54	5118
2026-01-28 02:38:05.19	267.98	23.92	-41.8	-44.9	18.9	6.03e-01	0	62	0	447741952	54	5384
2026-01-28 02:38:06.20	267.70	23.82	-41.4	-44.2	19.5	6.03e-01	0	61	0	449839104	54	4962
2026-01-28 02:38:07.21	267.42	23.72	-41.1	-43.8	20.0	6.02e-01	0	61	0	451936256	54	4730
2026-01-28 02:38:08.22	267.14	23.63	-41.4	-44.2	19.6	6.04e-01	0	62	0	453509120	54	4967
2026-01-28 02:38:09.23	266.87	23.53	-41.6	-44.5	19.3	6.03e-01	0	62	0	455606272	54	5143
2026-01-28 02:38:10.24	266.59	23.43	-41.5	-44.4	19.4	6.06e-01	0	61	0	457179136	54	5050
2026-01-28 02:38:11.25	266.32	23.33	-41.4	-44.2	19.6	6.02e-01	0	62	0	459276288	54	4964
2026-01-28 02:38:12.26	266.05	23.23	-41.4	-44.2	19.5	6.04e-01	0	61	0	461373440	54	4972
2026-01-28 02:38:13.27	265.78	23.13	-41.5	-44.5	19.3	6.02e-01	0	62	0	462946304	54	5112
2026-01-28 02:38:14.28	265.52	23.03	-41.6	-44.6	19.2	6.04e-01	0	62	0	465043456	54	5190
2026-01-28 02:38:15.29	265.25	22.93	-41.6	-44.5	19.3	6.05e-01	0	62	0	466616320	54	5124
2026-01-28 02:38:16.30	264.99	22.83	-41.6	-44.6	19.2	6.02e-01	0	62	0	468713472	54	5182
2026-01-28 02:38:17.31	264.73	22.73	-41.6	-44.5	19.4	6.03e-01	0	62	0	470810624	54	5114
2026-01-28 02:38:18.32	264.47	22.63	-41.6	-44.5	19.4	6.05e-01	0	62	0	472383488	54	5111
2026-01-28 02:38:19.33	264.21	22.53	-41.4	-44.2	19.6	6.01e-01	0	62	0	474480640	54	4948
2026-01-28 02:38:20.34	263.95	22.43	-41.5	-44.4	19.4	6.05e-01	0	61	0	476053504	54	5062
2026-01-28 02:38:21.35	263.70	22.33	-41.5	-44.4	19.4	6.00e-01	0	61	0	478150656	54	5082
2026-01-28 02:38:22.36	263.44	22.23	-41.5	-44.3	19.4	6.02e-01	0	62	0	480247808	54	5030
2026-01-28 02:38:23.37	263.19	22.13	-41.4	-44.2	19.6	6.04e-01	0	61	0	481820672	54	4972
2026-01-28 02:38:24.38	262.94	22.03	-41.5	-44.4	19.4	6.04e-01	0	62	0	483917824	54	5053
2026-01-28 02:38:25.39	262.69	21.93	-41.5	-44.3	19.5	6.02e-01	0	61	0	485490688	54	5029
2026-01-28 02:38:26.40	262.45	21.82	-41.5	-44.4	19.4	6.03e-01	0	62	0	487587840	54	5064
2026-01-28 02:38:27.40	262.21	21.72	-41.5	-44.4	19.4	6.04e-01	0	62	0	489684992	54	5044
2026-01-28 02:38:28.41	261.96	21.62	-41.5	-44.4	19.4	6.02e-01	0	62	0	491257856	54	5049
2026-01-28 02:38:29.42	261.72	21.52	-41.4	-44.3	19.5	6.04e-01	0	62	0	493355008	54	5005
2026-01-28 02:38:30.43	261.48	21.42	-41.4	-44.3	19.5	6.04e-01	0	61	0	495452160	54	5007
2026-01-28 02:38:31.44	261.25	21.32	-41.5	-44.4	19.4	6.04e-01	0	62	0	497025024	54	5068
2026-01-28 02:38:32.45	261.01	21.22	-41.5	-44.4	19.4	6.05e-01	0	61	0	499122176	54	5047
2026-01-28 02:38:33.46	260.78	21.11	-41.4	-44.3	19.5	6.01e-01	0	61	0	500695040	54	4998
2026-01-28 02:38:34.47	260.54	21.01	-41.4	-44.2	19.5	6.03e-01	0	62	0	502792192	54	4965
2026-01-28 02:38:35.48	260.31	20.91	-41.4	-44.2	19.6	6.00e-01	0	62	0	504889344	54	4937
2026-01-28 02:38:36.49	260.08	20.81	-41.4	-44.3	19.4	6.03e-01	0	62	0	506462208	54	5033
2026-01-28 02:38:37.51	259.85	20.70	-41.3	-44.1	19.6	6.01e-01	0	61	0	508559360	54	4921
2026-01-28 02:38:38.52	259.63	20.60	-41.2	-44.0	19.7	6.04e-01	0	61	0	510132224	54	4837
2026-01-28 02:38:39.52	259.40	20.50	-41.2	-43.9	19.8	6.06e-01	0	62	0	512229376	54	4786
2026-01-28 02:38:40.54	259.18	20.40	-41.2	-44.0	19.7	6.03e-01	0	62	0	514326528	54	4858
2026-01-28 02:38:41.54	258.96	20.30	-41.3	-44.1	19.7	6.01e-01	0	61	0	515899392	54	4877
2026-01-28 02:38:42.56	258.74	20.19	-41.3	-44.1	19.5	6.03e-01	0	61	0	517996544	54	4925
2026-01-28 02:38:43.56	258.52	20.09	-41.2	-43.9	19.8	6.04e-01	0	62	0	520093696	54	4794
2026-01-28 02:38:44.58	258.30	19.99	-41.2	-44.0	19.8	6.03e-01	0	62	0	521666560	54	4834
2026-01-28 02:38:45.58	258.09	19.89	-41.2	-44.0	19.8	6.02e-01	0	62	0	523763712	54	4819
2026-01-28 02:38:46.59	257.87	19.79	-41.2	-44.0	19.8	6.02e-01	0	62	0	525336576	54	4829
2026-01-28 02:38:47.60	257.66	19.69	-41.3	-44.1	19.7	6.02e-01	0	61	0	527433728	54	4893
2026-01-28 02:38:48.61	257.45	19.58	-41.1	-43.8	19.9	6.03e-01	0	62	0	529530880	54	4748
2026-01-28 02:38:49.62	257.24	19.48	-41.1	-43.9	19.9	6.03e-01	0	61	0	531103744	54	4781
2026-01-28 02:38:50.63	257.03	19.38	-41.2	-44.0	19.7	6.03e-01	0	62	0	533200896	54	4856
2026-01-28 02:38:51.64	256.83	19.28	-41.3	-44.1	19.6	6.04e-01	0	62	0	534773760	54	4905
2026-01-28 02:38:52.65	256.62	19.18	-41.3	-44.2	19.6	6.04e-01	0	61	0	536870912	54	4931
2026-01-28 02:38:53.66	256.42	19.08	-41.2	-44.0	19.7	6.02e-01	0	62	0	538968064	54	4826
2026-01-28 02:38:54.67	256.22	18.98	-41.1	-43.8	19.8	6.03e-01	0	61	0	540540928	54	4749
2026-01-28 02:38:55.68	256.01	18.87	-41.0	-43.7	20.0	6.04e-01	0	61	0	542638080	54	4694
2026-01-28 02:38:56.70	255.81	18.77	-41.1	-43.8	19.9	6.02e-01	0	61	0	544210944	54	4757
2026-01-28 02:38:57.70	255.62	18.67	-41.3	-44.1	19.7	6.03e-01	0	62	0	546308096	54	4881
2026-01-28 02:38:58.71	255.42	18.57	-41.3	-44.2	19.6	6.01e-01	0	61	0	548405248	54	4934
2026-01-28 02:38:59.72	255.23	18.47	-41.3	-44.2	19.5	6.03e-01	0	62	0	549978112	54	4928
2026-01-28 02:39:00.74	255.03	18.37	-41.3	-44.1	19.6	6.04e-01	0	62	0	552075264	54	4884
2026-01-28 02:39:01.75	254.84	18.27	-41.2	-44.0	19.7	6.02e-01	0	61	0	553648128	54	4849
2026-01-28 02:39:02.76	254.65	18.17	-41.2	-44.0	19.7	6.03e-01	0	62	0	555745280	54	4827
2026-01-28 02:39:03.76	254.46	18.07	-41.2	-44.0	19.7	6.04e-01	0	61	0	557842432	54	4849
2026-01-28 02:39:04.77	254.27	17.97	-41.3	-44.1	19.6	5.97e-01	0	62	0	559415296	54	4899
2026-01-28 02:39:05.78	254.08	17.87	-41.3	-44.1	19.6	6.02e-01	0	62	0	561512448	54	4883
2026-01-28 02:39:06.79	253.90	17.77	-41.2	-44.0	19.7	6.02e-01	0	62	0	563609600	54	4815
2026-01-28 02:39:07.80	253.71	17.67	-41.2	-44.1	19.6	6.04e-01	0	62	0	565182464	54	4880
2026-01-28 02:39:08.82	253.53	17.57	-41.2	-44.0	19.7	6.05e-01	0	61	0	567279616	54	4869
2026-01-28 02:39:09.82	253.35	17.47	-41.3	-44.2	19.5	6.02e-01	0	62	0	568852480	54	4946
2026-01-28 02:39:10.83	253.17	17.37	-41.3	-44.1	19.6	6.04e-01	0	62	0	570949632	54	4901
2026-01-28 02:39:11.85	252.99	17.27	-41.2	-44.0	19.7	6.03e-01	0	62	0	573046784	54	4835
2026-01-28 02:39:12.86	252.81	17.17	-41.2	-44.0	19.7	6.03e-01	0	61	0	574619648	54	4843
2026-01-28 02:39:13.87	252.63	17.08	-41.2	-44.1	19.7	6.01e-01	0	61	0	576716800	54	4872
2026-01-28 02:39:14.87	252.46	16.98	-41.2	-44.0	19.7	6.04e-01	0	62	0	578289664	54	4817
2026-01-28 02:39:15.89	252.28	16.88	-41.2	-44.1	19.6	6.03e-01	0	62	0	580386816	54	4882
2026-01-28 02:39:16.90	252.11	16.78	-41.3	-44.2	19.5	6.03e-01	0	62	0	582483968	54	4932
2026-01-28 02:39:17.91	251.94	16.68	-41.2	-44.0	19.7	6.01e-01	0	62	0	584056832	54	4832
2026-01-28 02:39:18.92	251.76	16.59	-41.1	-43.9	19.8	6.04e-01	0	62	0	586153984	54	4761
2026-01-28 02:39:19.93	251.60	16.49	-41.1	-43.8	19.8	6.06e-01	0	61	0	588251136	54	4733
2026-01-28 02:39:20.94	251.43	16.39	-41.1	-43.9	19.8	6.05e-01	0	62	0	589824000	54	4768
2026-01-28 02:39:21.95	251.26	16.29	-41.1	-43.9	19.7	6.04e-01	0	61	0	591921152	54	4782
2026-01-28 02:39:22.95	251.10	16.20	-41.2	-44.0	19.7	6.03e-01	0	61	0	593494016	54	4815
2026-01-28 02:39:23.96	250.93	16.10	-41.2	-44.1	19.5	6.03e-01	0	62	0	595591168	54	4887
2026-01-28 02:39:24.97	250.77	16.00	-41.3	-44.1	19.5	6.04e-01	0	62	0	597688320	54	4898
2026-01-28 02:39:25.98	250.60	15.91	-41.2	-44.0	19.6	6.02e-01	0	61	0	599261184	54	4859
2026-01-28 02:39:26.99	250.44	15.81	-41.2	-44.1	19.6	6.02e-01	0	62	0	601358336	54	4876
2026-01-28 02:39:28.00	250.28	15.72	-41.3	-44.2	19.4	6.03e-01	0	62	0	602931200	54	4945
2026-01-28 02:39:29.02	250.12	15.62	-41.3	-44.2	19.4	6.01e-01	0	62	0	605028352	54	4974
2026-01-28 02:39:30.03	249.96	15.52	-41.4	-44.4	19.2	6.04e-01	0	62	0	607125504	54	5044
2026-01-28 02:39:31.04	249.81	15.43	-41.3	-44.3	19.3	6.02e-01	0	61	0	608698368	54	5000
2026-01-28 02:39:32.05	249.65	15.33	-41.3	-44.2	19.3	6.02e-01	0	61	0	610795520	54	4975
2026-01-28 02:39:33.06	249.49	15.24	-41.2	-44.1	19.5	6.02e-01	0	61	0	612368384	54	4896
2026-01-28 02:39:34.07	249.34	15.14	-41.2	-44.1	19.5	6.03e-01	0	61	0	614465536	54	4896
2026-01-28 02:39:35.08	249.19	15.05	-41.1	-43.9	19.6	6.04e-01	0	61	0	616562688	54	4804
2026-01-28 02:39:36.09	249.04	14.95	-41.1	-44.0	19.6	6.02e-01	0	62	0	618135552	54	4825
2026-01-28 02:39:37.10	248.89	14.86	-41.2	-44.1	19.5	6.05e-01	0	62	0	620232704	54	4885
2026-01-28 02:39:38.11	248.74	14.77	-41.2	-44.1	19.5	6.02e-01	0	61	0	621805568	54	4884
2026-01-28 02:39:39.12	248.59	14.67	-41.2	-44.1	19.5	6.04e-01	0	62	0	623902720	54	4891
2026-01-28 02:39:40.13	248.44	14.58	-41.2	-44.0	19.5	6.02e-01	0	62	0	625999872	54	4863
2026-01-28 02:39:41.14	248.29	14.49	-41.2	-44.1	19.5	6.04e-01	0	62	0	627572736	54	4901
2026-01-28 02:39:42.15	248.15	14.39	-41.2	-44.1	19.5	6.02e-01	0	62	0	629669888	54	4909
2026-01-28 02:39:43.16	248.00	14.30	-41.2	-44.1	19.5	6.03e-01	0	61	0	631767040	54	4892
2026-01-28 02:39:44.17	247.86	14.21	-41.1	-44.0	19.6	6.03e-01	0	62	0	633339904	54	4824
2026-01-28 02:39:45.18	247.71	14.12	-41.1	-44.0	19.6	6.02e-01	0	62	0	635437056	54	4826
2026-01-28 02:39:46.19	247.57	14.02	-41.2	-44.1	19.5	6.03e-01	0	62	0	637009920	54	4879
2026-01-28 02:39:47.20	247.43	13.93	-41.2	-44.1	19.4	6.03e-01	0	62	0	639107072	54	4922
2026-01-28 02:39:48.21	247.29	13.84	-41.3	-44.2	19.4	6.04e-01	0	62	0	641204224	54	4933
2026-01-28 02:39:49.22	247.15	13.75	-41.3	-44.3	19.3	6.04e-01	0	62	0	642777088	54	5000
2026-01-28 02:39:50.23	247.01	13.66	-41.3	-44.3	19.2	6.03e-01	0	62	0	644874240	54	5030
2026-01-28 02:39:51.24	246.88	13.57	-41.4	-44.4	19.2	6.05e-01	0	62	0	646447104	54	5055
2026-01-28 02:39:52.25	246.74	13.47	-41.3	-44.3	19.2	6.02e-01	0	61	0	648544256	54	5007
2026-01-28 02:39:53.26	246.61	13.38	-41.3	-44.3	19.2	6.02e-01	0	62	0	650641408	54	5017
2026-01-28 02:39:54.27	246.47	13.29	-41.4	-44.3	19.2	6.03e-01	0	62	0	652214272	54	5026
2026-01-28 02:39:55.28	246.34	13.20	-41.3	-44.3	19.2	6.02e-01	0	61	0	654311424	54	5003
2026-01-28 02:39:56.29	246.21	13.11	-41.2	-44.0	19.5	6.03e-01	0	62	0	656408576	54	4868
2026-01-28 02:39:57.30	246.07	13.02	-41.2	-44.0	19.5	6.00e-01	0	61	0	657981440	54	4859
2026-01-28 02:39:58.31	245.94	12.93	-41.2	-44.1	19.5	6.04e-01	0	61	0	660078592	54	4881
2026-01-28 02:39:59.32	245.81	12.85	-41.2	-44.2	19.3	6.04e-01	0	62	0	661651456	54	4937
2026-01-28 02:40:00.33	245.68	12.76	-41.3	-44.3	19.2	6.02e-01	0	62	0	663748608	54	5005
2026-01-28 02:40:01.34	245.55	12.67	-41.3	-44.3	19.2	6.01e-01	0	62	0	665845760	54	5007
2026-01-28 02:40:02.35	245.43	12.58	-41.4	-44.4	19.2	6.04e-01	0	62	0	667418624	54	5052
2026-01-28 02:40:03.36	245.30	12.49	-41.4	-44.4	19.1	6.03e-01	0	61	0	669515776	54	5075
2026-01-28 02:40:04.38	245.17	12.40	-41.4	-44.4	19.1	6.05e-01	0	62	0	671088640	54	5082
2026-01-28 02:40:05.39	245.05	12.31	-41.3	-44.3	19.2	6.03e-01	0	62	0	673185792	54	5040
2026-01-28 02:40:06.40	244.92	12.23	-41.4	-44.4	19.1	6.02e-01	0	62	0	675282944	54	5053
2026-01-28 02:40:07.41	244.80	12.14	-41.4	-44.4	19.1	6.02e-01	0	62	0	676855808	54	5063
2026-01-28 02:40:08.42	244.68	12.05	-41.3	-44.3	19.2	6.03e-01	0	62	0	678952960	54	5022
2026-01-28 02:40:09.43	244.56	11.96	-41.3	-44.3	19.2	6.02e-01	0	62	0	681050112	54	5012
2026-01-28 02:40:10.44	244.44	11.88	-41.4	-44.5	19.0	6.04e-01	0	62	0	682622976	54	5102
2026-01-28 02:40:11.44	244.32	11.79	-41.4	-44.4	19.0	6.06e-01	0	62	0	684720128	54	5082
2026-01-28 02:40:12.45	244.20	11.71	-41.4	-44.5	19.0	6.04e-01	0	62	0	686292992	54	5117
2026-01-28 02:40:13.46	244.08	11.62	-41.4	-44.5	19.0	6.02e-01	0	62	0	688390144	54	5115
2026-01-28 02:40:14.47	243.96	11.53	-41.4	-44.5	18.9	6.05e-01	0	62	0	690487296	54	5140
2026-01-28 02:40:15.48	243.84	11.45	-41.4	-44.5	18.9	6.03e-01	0	62	0	692060160	54	5145
2026-01-28 02:40:16.49	243.73	11.36	-41.4	-44.5	18.9	6.02e-01	0	62	0	694157312	54	5153
2026-01-28 02:40:17.50	243.61	11.28	-41.4	-44.5	18.9	6.00e-01	0	62	0	695730176	54	5150
2026-01-28 02:40:18.51	243.50	11.19	-41.5	-44.6	18.8	6.02e-01	0	61	0	697827328	54	5194
2026-01-28 02:40:19.52	243.38	11.11	-41.5	-44.6	18.8	6.01e-01	0	62	0	699924480	54	5190
2026-01-28 02:40:20.53	243.27	11.02	-41.5	-44.6	18.8	6.04e-01	0	62	0	701497344	54	5177
2026-01-28 02:40:21.54	243.15	10.94	-41.5	-44.7	18.7	6.00e-01	0	62	0	703594496	54	5225
2026-01-28 02:40:22.55	243.04	10.85	-41.5	-44.6	18.8	6.05e-01	0	62	0	705167360	54	5213
2026-01-28 02:40:23.56	242.93	10.77	-41.5	-44.6	18.8	6.01e-01	0	62	0	707264512	54	5195
2026-01-28 02:40:24.57	242.82	10.69	-41.4	-44.6	18.8	6.03e-01	0	62	0	709361664	54	5171
2026-01-28 02:40:25.58	242.71	10.60	-41.5	-44.7	18.7	6.03e-01	0	62	0	710934528	54	5236
2026-01-28 02:40:26.59	242.60	10.52	-41.5	-44.7	18.6	6.03e-01	0	62	0	713031680	54	5261
2026-01-28 02:40:27.60	242.49	10.44	-41.5	-44.8	18.6	6.05e-01	0	62	0	714604544	54	5284
2026-01-28 02:40:28.61	242.38	10.35	-41.5	-44.7	18.6	6.04e-01	0	62	0	716701696	54	5271
2026-01-28 02:40:29.62	242.28	10.27	-41.5	-44.7	18.7	6.03e-01	0	62	0	718798848	54	5239
2026-01-28 02:40:30.63	242.17	10.19	-41.6	-44.8	18.5	6.02e-01	0	62	0	720371712	54	5316
2026-01-28 02:40:31.64	242.06	10.11	-41.5	-44.7	18.6	6.01e-01	0	62	0	722468864	54	5269
2026-01-28 02:40:32.65	241.96	10.02	-41.5	-44.7	18.6	6.01e-01	0	62	0	724566016	54	5258
2026-01-28 02:40:33.67	241.85	9.94	-41.6	-44.8	18.5	6.03e-01	0	62	0	726138880	54	5299
2026-01-28 02:40:34.67	241.75	9.86	-41.6	-44.9	18.4	6.03e-01	0	62	0	728236032	54	5357
2026-01-28 02:40:35.68	241.65	9.78	-41.7	-45.0	18.4	6.03e-01	0	61	0	729808896	54	5404
2026-01-28 02:40:36.70	241.54	9.70	-41.7	-45.1	18.2	6.05e-01	0	62	0	731906048	54	5492
2026-01-28 02:40:37.71	241.44	9.62	-41.8	-45.2	18.1	6.05e-01	0	62	0	734003200	54	5563
2026-01-28 02:40:38.71	241.34	9.54	-41.7	-45.1	18.2	6.02e-01	0	62	0	735576064	54	5482
2026-01-28 02:40:39.72	241.24	9.46	-41.8	-45.2	18.1	6.04e-01	0	62	0	737673216	54	5541
2026-01-28 02:40:40.73	241.14	9.38	-41.7	-45.1	18.2	6.01e-01	0	62	0	739246080	54	5479
2026-01-28 02:40:41.74	241.04	9.30	-41.7	-45.0	18.3	6.02e-01	0	62	0	741343232	54	5423
2026-01-28 02:40:42.75	240.94	9.22	-41.6	-45.0	18.3	6.04e-01	0	62	0	743440384	54	5403
2026-01-28 02:40:43.76	240.84	9.14	-41.6	-44.9	18.4	6.03e-01	0	62	0	745013248	54	5357
2026-01-28 02:40:44.77	240.74	9.06	-41.6	-45.0	18.3	6.02e-01	0	62	0	747110400	54	5406
2026-01-28 02:40:45.78	240.65	8.98	-41.6	-44.9	18.4	6.01e-01	0	62	0	749207552	54	5353
2026-01-28 02:40:46.79	240.55	8.90	-41.6	-44.9	18.4	6.01e-01	0	62	0	750780416	54	5341
2026-01-28 02:40:47.80	240.45	8.82	-41.7	-45.1	18.2	6.04e-01	0	62	0	752877568	54	5475
2026-01-28 02:40:48.81	240.36	8.74	-41.7	-45.0	18.1	6.02e-01	0	62	0	754450432	54	5464
2026-01-28 02:40:49.82	240.26	8.66	-41.7	-45.1	18.2	6.01e-01	0	62	0	756547584	54	5468
2026-01-28 02:40:50.83	240.17	8.58	-41.7	-45.1	18.1	6.01e-01	0	62	0	758644736	54	5508
2026-01-28 02:40:51.84	240.07	8.51	-41.8	-45.3	17.9	6.05e-01	0	62	0	760217600	54	5653
2026-01-28 02:40:52.85	239.98	8.43	-41.9	-45.6	17.6	6.00e-01	0	62	0	762314752	54	5794
2026-01-28 02:40:53.86	239.89	8.35	-41.9	-45.5	17.6	6.03e-01	0	62	0	763887616	54	5781
2026-01-28 02:40:54.87	239.80	8.27	-41.8	-45.4	17.8	6.01e-01	0	62	0	765984768	54	5705
2026-01-28 02:40:55.87	239.71	8.20	-41.9	-45.5	17.7	6.01e-01	0	62	0	768081920	54	5728
2026-01-28 02:40:56.88	239.61	8.12	-41.8	-45.4	17.7	6.02e-01	0	62	0	769654784	54	5705
2026-01-28 02:40:57.89	239.52	8.04	-41.8	-45.4	17.7	6.02e-01	0	62	0	771751936	54	5681
2026-01-28 02:40:58.90	239.43	7.97	-45.3	-62.0	4.3	7.48e-01	0	62	104	773324800	61	25774
2026-01-28 02:40:59.91	239.34	7.89	-45.8	-64.1	3.8	7.44e-01	0	62	104	773324800	62	30927
2026-01-28 02:41:00.93	239.25	7.81	-46.0	-64.7	3.8	7.44e-01	0	62	104	773324800	62	33123
2026-01-28 02:41:01.94	239.17	7.74	-46.1	-64.8	3.8	7.42e-01	0	62	104	773324800	62	33608
2026-01-28 02:41:02.95	239.08	7.66	-46.2	-64.9	3.8	7.45e-01	0	62	104	773324800	62	33813
2026-01-28 02:41:03.96	238.99	7.59	-46.2	-64.9	3.8	7.45e-01	0	62	104	773324800	62	34023
2026-01-28 02:41:04.97	238.90	7.51	-46.3	-65.0	3.8	7.44e-01	0	62	104	773324800	63	32336
2026-01-28 02:41:05.98	238.82	7.44	-46.3	-65.0	3.8	7.44e-01	0	62	104	773324800	63	32503
2026-01-28 02:41:06.99	238.73	7.36	-46.4	-65.1	3.8	7.43e-01	0	62	104	773324800	63	32574
2026-01-28 02:41:08.00	238.65	7.29	-46.4	-65.1	3.8	7.46e-01	0	62	104	773324800	63	32683
2026-01-28 02:41:09.01	238.56	7.21	-46.3	-65.0	3.8	7.43e-01	0	62	104	773324800	63	32364
2026-01-28 02:41:10.02	238.48	7.14	-46.3	-65.0	3.8	7.46e-01	0	62	104	773324800	63	32276
2026-01-28 02:41:11.03	238.39	7.06	-46.3	-64.9	3.8	7.45e-01	0	62	104	773324800	63	32152
2026-01-28 02:41:12.04	238.31	6.99	-46.3	-65.0	3.8	7.47e-01	0	62	104	773324800	63	32182
2026-01-28 02:41:13.05	238.23	6.91	-46.3	-65.0	3.8	7.47e-01	0	62	104	773324800	63	32271
2026-01-28 02:41:14.06	238.14	6.84	-46.3	-65.0	3.8	7.46e-01	0	62	104	773324800	63	32278
2026-01-28 02:41:15.07	238.06	6.77	-46.3	-64.9	3.8	7.45e-01	0	62	104	773324800	63	32176
2026-01-28 02:41:16.08	237.98	6.69	-46.2	-64.9	3.8	7.41e-01	0	62	104	773324800	63	31940
2026-01-28 02:41:17.10	237.90	6.62	-46.2	-64.9	3.8	7.43e-01	0	62	104	773324800	63	31962
2026-01-28 02:41:18.10	237.82	6.55	-46.2	-64.9	3.8	7.49e-01	0	62	104	773324800	63	32017
2026-01-28 02:41:19.11	237.74	6.47	-46.2	-64.9	3.8	7.42e-01	0	62	104	773324800	63	31859
2026-01-28 02:41:20.12	237.66	6.40	-46.2	-64.9	3.8	7.46e-01	0	62	104	773324800	63	31920
2026-01-28 02:41:21.14	237.58	6.33	-46.2	-64.9	3.8	7.42e-01	0	62	104	773324800	63	31956
2026-01-28 02:41:22.15	237.50	6.26	-46.2	-64.9	3.8	7.47e-01	0	62	104	773324800	63	31985
2026-01-28 02:41:23.15	237.42	6.18	-46.2	-64.9	3.8	7.44e-01	0	62	104	773324800	63	31950
2026-01-28 02:41:24.17	237.34	6.11	-46.2	-64.9	3.8	7.47e-01	0	62	104	773324800	63	31907
2026-01-28 02:41:25.18	237.26	6.04	-46.2	-64.9	3.8	7.45e-01	0	62	104	773324800	63	31961
2026-01-28 02:41:26.19	237.19	5.97	-46.2	-64.9	3.8	7.50e-01	0	62	104	773324800	63	31927
2026-01-28 02:41:27.20	237.11	5.90	-46.2	-64.9	3.8	7.45e-01	0	62	104	773324800	63	31943
2026-01-28 02:41:28.21	237.03	5.83	-46.2	-64.9	3.8	7.46e-01	0	62	104	773324800	63	31899
2026-01-28 02:41:29.22	236.96	5.75	-46.2	-64.9	3.8	7.44e-01	0	62	104	773324800	63	31970
2026-01-28 02:41:30.23	236.88	5.68	-46.2	-64.9	3.8	7.44e-01	0	62	104	773324800	63	31963
2026-01-28 02:41:31.24	236.81	5.61	-46.2	-64.9	3.8	7.47e-01	0	62	104	773324800	63	31882
2026-01-28 02:41:32.25	236.73	5.54	-46.2	-64.9	3.8	7.44e-01	0	62	104	773324800	63	31904
2026-01-28 02:41:33.26	236.66	5.47	-46.2	-64.9	3.8	7.45e-01	0	62	104	773324800	63	31919
2026-01-28 02:41:34.27	236.58	5.40	-46.2	-64.9	3.8	7.46e-01	0	62	104	773324800	63	31930
2026-01-28 02:41:35.28	236.51	5.33	-46.2	-64.9	3.8	7.45e-01	0	62	104	773324800	63	31939
2026-01-28 02:41:36.29	236.44	5.26	-46.2	-64.9	3.8	7.43e-01	0	62	104	773324800	63	31960
2026-01-28 02:41:37.30	236.36	5.19	-46.2	-64.9	3.8	7.44e-01	0	62	104	773324800	63	31822
2026-01-28 02:41:38.31	236.29	5.12	-46.2	-64.9	3.8	7.45e-01	0	62	104	773324800	63	31934
2026-01-28 02:41:39.32	236.22	5.05	-46.2	-64.9	3.8	7.44e-01	0	62	104	773324800	63	31869
2026-01-28 02:41:40.33	236.15	4.98	-46.2	-64.9	3.8	7.46e-01	0	62	104	773324800	63	31815
2026-01-28 02:41:41.34	236.08	4.91	-46.2	-64.8	3.8	7.45e-01	0	62	104	773324800	63	31782
2026-01-28 02:41:42.35	236.01	4.84	-46.2	-64.9	3.8	7.48e-01	0	62	104	773324800	63	31823
2026-01-28 02:41:43.36	235.94	4.78	-46.2	-64.9	3.8	7.44e-01	0	62	104	773324800	63	31845
2026-01-28 02:41:44.37	235.86	4.71	-46.2	-64.9	3.8	7.46e-01	0	62	104	773324800	63	31842
2026-01-28 02:41:45.38	235.80	4.64	-46.2	-64.9	3.8	7.44e-01	0	62	104	773324800	63	31928
2026-01-28 02:41:46.39	235.73	4.57	-46.2	-64.9	3.8	7.43e-01	0	62	104	773324800	63	31847
2026-01-28 02:41:47.40	235.66	4.50	-46.2	-64.9	3.8	7.45e-01	0	62	104	773324800	63	31827
2026-01-28 02:41:48.41	235.59	4.43	-46.2	-64.8	3.8	7.43e-01	0	62	104	773324800	63	31761
2026-01-28 02:41:49.42	235.52	4.37	-46.2	-64.8	3.8	7.47e-01	0	62	104	773324800	63	31794
2026-01-28 02:41:50.43	235.45	4.30	-46.2	-64.9	3.8	7.49e-01	0	62	104	773324800	63	31845
2026-01-28 02:41:51.44	235.38	4.23	-46.2	-64.9	3.8	7.45e-01	0	62	104	773324800	63	31817
2026-01-28 02:41:52.46	235.32	4.16	-46.2	-64.9	3.8	7.45e-01	0	62	104	773324800	63	31893
2026-01-28 02:41:53.47	235.25	4.10	-46.2	-64.8	3.8	7.46e-01	0	62	104	773324800	63	31764
2026-01-28 02:41:54.48	235.18	4.03	-46.1	-64.9	3.8	7.44e-01	0	62	104	773324800	63	31835
2026-01-28 02:41:55.49	235.12	3.96	-46.2	-64.9	3.8	7.45e-01	0	62	104	773324800	63	31854
2026-01-28 02:41:56.50	235.05	3.89	-46.2	-64.8	3.8	7.47e-01	0	62	104	773324800	63	31778
2026-01-28 02:41:57.51	234.99	3.83	-46.2	-64.9	3.8	7.46e-01	0	62	104	773324800	63	31829
2026-01-28 02:41:58.52	234.92	3.76	-46.2	-64.8	3.8	7.49e-01	0	62	104	773324800	63	31806
2026-01-28 02:41:59.53	234.86	3.70	-46.2	-64.8	3.8	7.45e-01	0	62	104	773324800	63	31774
2026-01-28 02:42:00.54	234.79	3.63	-46.2	-64.9	3.8	7.45e-01	0	62	104	773324800	63	31830
2026-01-28 02:42:01.55	234.73	3.56	-46.2	-64.8	3.8	7.43e-01	0	62	104	773324800	63	31792
2026-01-28 02:42:02.56	234.66	3.50	-46.2	-64.9	3.8	7.46e-01	0	62	104	773324800	63	31822
2026-01-28 02:42:03.57	234.60	3.43	-46.2	-64.8	3.8	7.46e-01	0	62	104	773324800	63	31718
2026-01-28 02:42:04.58	234.54	3.37	-46.2	-64.9	3.8	7.46e-01	0	62	104	773324800	63	31832
2026-01-28 02:42:05.59	234.47	3.30	-46.2	-64.8	3.8	7.44e-01	0	62	104	773324800	63	31806
2026-01-28 02:42:06.60	234.41	3.23	-46.2	-64.9	3.8	7.48e-01	0	62	104	773324800	63	31822
2026-01-28 02:42:07.61	234.35	3.17	-46.2	-64.8	3.8	7.43e-01	0	62	104	773324800	63	31757
2026-01-28 02:42:08.62	234.29	3.10	-46.2	-64.8	3.8	7.45e-01	0	62	104	773324800	63	31715
2026-01-28 02:42:09.63	234.23	3.04	-46.2	-64.8	3.8	7.43e-01	0	62	104	773324800	63	31780
2026-01-28 02:42:10.64	234.16	2.97	-46.2	-64.9	3.8	7.46e-01	0	62	104	773324800	63	31832
2026-01-28 02:42:11.65	234.10	2.91	-46.2	-64.8	3.8	7.46e-01	0	62	104	773324800	63	31787
2026-01-28 02:42:12.66	234.04	2.85	-46.2	-64.8	3.8	7.43e-01	0	62	104	773324800	63	31756
2026-01-28 02:42:13.67	233.98	2.78	-46.2	-64.8	3.8	7.45e-01	0	62	104	773324800	63	31772
2026-01-28 02:42:14.68	233.92	2.72	-46.1	-64.8	3.8	7.46e-01	0	62	104	773324800	63	31809
2026-01-28 02:42:15.70	233.86	2.65	-46.2	-64.8	3.8	7.44e-01	0	62	104	773324800	63	31689
2026-01-28 02:42:16.71	233.80	2.59	-46.1	-64.8	3.8	7.43e-01	0	62	104	773324800	63	31787
