passes_logs/2026/01/28/R2.0S_Moscow/R2.0S_Moscow__20260128_000117_NOAA_21_JPSS-2_rec.log

#Pass ID: 20260128_000117_NOAA 21 (JPSS-2)
#Satellite: NOAA 21 (JPSS-2)
#Configuration: NOAA-21
#almurnet v.1.7.20251203
#Start time: 2026-01-28 00:01:19

#Version: 2.2.20231116
#Station: R2.0S_Moscow
#Location: 37.707566 lon 55.798166 lat
#TLE: 1 54234U 22150A   26027.41809747  .00000179  00000+0  10565-3 0  9991
#TLE: 2 54234  98.7510 328.1683 0000854 205.0798 155.0336 14.19540145166571

#Time	Az	El	Level	Level2	SNR	BER	BlckErr	Temp	State	Recorded	gain1	gain2
2026-01-28 00:01:19.28	14.65	2.09	-43.3	-55.7	3.8	1.49e+00	0	52	0	0	58	14759
2026-01-28 00:01:20.28	14.64	2.16	-43.3	-55.7	3.8	1.49e+00	0	53	104	0	58	14776
2026-01-28 00:01:21.29	14.62	2.22	-43.3	-55.7	3.8	1.49e+00	0	53	104	0	58	14792
2026-01-28 00:01:22.30	14.61	2.28	-43.3	-55.7	3.8	1.49e+00	0	53	104	0	58	14759
2026-01-28 00:01:23.31	14.60	2.35	-43.3	-55.7	3.8	1.49e+00	0	53	104	0	58	14744
2026-01-28 00:01:24.32	14.59	2.41	-43.3	-55.7	3.8	1.49e+00	0	53	104	0	58	14727
2026-01-28 00:01:25.33	14.58	2.48	-43.3	-55.7	3.8	1.49e+00	0	53	104	0	58	14778
2026-01-28 00:01:26.34	14.56	2.55	-43.3	-55.7	3.8	1.49e+00	0	53	104	0	58	14750
2026-01-28 00:01:27.35	14.55	2.61	-43.3	-55.7	3.8	1.49e+00	0	53	104	0	58	14751
2026-01-28 00:01:28.36	14.54	2.68	-43.3	-55.7	3.8	1.49e+00	0	53	104	0	58	14747
2026-01-28 00:01:29.37	14.53	2.74	-43.3	-55.7	3.8	1.49e+00	0	53	104	0	58	14770
2026-01-28 00:01:30.38	14.52	2.81	-43.3	-55.7	3.8	1.49e+00	0	54	104	0	58	14795
2026-01-28 00:01:31.39	14.50	2.87	-43.3	-55.7	3.8	1.49e+00	0	54	104	0	58	14742
2026-01-28 00:01:32.40	14.49	2.94	-43.3	-55.7	3.8	1.49e+00	0	54	104	0	58	14742
2026-01-28 00:01:33.41	14.48	3.01	-43.3	-55.7	3.8	1.49e+00	0	54	104	0	58	14749
2026-01-28 00:01:34.42	14.46	3.07	-43.3	-55.6	3.8	1.49e+00	0	54	104	0	58	14701
2026-01-28 00:01:35.43	14.45	3.14	-43.3	-55.7	3.8	1.49e+00	0	54	104	0	58	14731
2026-01-28 00:01:36.45	14.44	3.21	-43.3	-55.7	3.8	1.49e+00	0	54	104	0	58	14734
2026-01-28 00:01:37.46	14.43	3.27	-43.3	-55.7	3.8	1.49e+00	0	54	104	0	58	14737
2026-01-28 00:01:38.47	14.41	3.34	-43.3	-55.7	3.8	1.49e+00	0	54	104	0	58	14725
2026-01-28 00:01:39.48	14.40	3.41	-43.3	-55.6	3.8	1.49e+00	0	54	104	0	58	14701
2026-01-28 00:01:40.49	14.39	3.48	-43.3	-55.7	3.8	1.49e+00	0	54	104	0	58	14749
2026-01-28 00:01:41.50	14.37	3.54	-43.3	-55.6	3.8	1.49e+00	0	54	104	0	58	14687
2026-01-28 00:01:42.51	14.36	3.61	-43.3	-55.6	3.8	1.49e+00	0	54	104	0	58	14699
2026-01-28 00:01:43.52	14.35	3.68	-43.3	-55.6	3.8	1.49e+00	0	54	104	0	58	14681
2026-01-28 00:01:44.53	14.33	3.75	-43.3	-55.6	3.8	1.49e+00	0	54	104	0	58	14595
2026-01-28 00:01:45.54	14.32	3.82	-43.3	-55.5	3.8	1.49e+00	0	55	104	0	58	14533
2026-01-28 00:01:46.55	14.31	3.88	-43.3	-55.5	3.8	1.49e+00	0	54	104	0	58	14535
2026-01-28 00:01:47.56	14.29	3.95	-43.3	-55.5	3.8	1.49e+00	0	55	104	0	58	14514
2026-01-28 00:01:48.57	14.28	4.02	-43.3	-55.5	3.8	1.49e+00	0	55	104	0	58	14474
2026-01-28 00:01:49.58	14.26	4.09	-43.3	-55.5	3.8	1.49e+00	0	55	104	0	58	14441
2026-01-28 00:01:50.59	14.25	4.16	-43.3	-55.5	3.8	1.49e+00	0	55	104	0	58	14426
2026-01-28 00:01:51.60	14.24	4.23	-43.3	-55.4	3.8	1.49e+00	0	55	104	0	58	14311
2026-01-28 00:01:52.61	14.22	4.30	-43.2	-55.4	3.8	1.49e+00	0	55	104	0	58	14218
2026-01-28 00:01:53.62	14.21	4.37	-43.2	-55.3	3.8	1.49e+00	0	55	104	0	58	14168
2026-01-28 00:01:54.63	14.19	4.44	-43.2	-55.2	3.8	1.49e+00	0	55	104	0	58	14014
2026-01-28 00:01:55.64	14.18	4.51	-43.2	-55.2	3.8	1.49e+00	0	55	104	0	58	13966
2026-01-28 00:01:56.65	14.17	4.58	-43.2	-55.1	3.8	1.49e+00	0	55	104	0	58	13805
2026-01-28 00:01:57.66	14.15	4.65	-43.2	-54.9	3.8	1.49e+00	0	55	104	0	58	13549
2026-01-28 00:01:58.67	14.14	4.72	-43.2	-54.9	3.8	1.49e+00	0	55	104	0	58	13555
2026-01-28 00:01:59.68	14.12	4.79	-43.2	-54.6	3.8	1.49e+00	0	55	104	0	58	13087
2026-01-28 00:02:00.69	14.11	4.86	-43.2	-54.5	3.8	1.49e+00	0	55	104	0	58	12878
2026-01-28 00:02:01.70	14.09	4.93	-43.2	-54.4	3.8	1.49e+00	0	55	104	0	58	12782
2026-01-28 00:02:02.71	14.08	5.00	-43.1	-54.2	3.8	1.49e+00	0	55	104	0	58	12428
2026-01-28 00:02:03.72	14.06	5.08	-43.1	-53.8	3.8	1.49e+00	0	55	104	0	58	11897
2026-01-28 00:02:04.73	14.05	5.15	-43.1	-53.7	3.8	1.49e+00	0	56	104	0	58	11780
2026-01-28 00:02:05.74	14.03	5.22	-43.0	-53.3	3.9	1.48e+00	0	55	104	0	58	11212
2026-01-28 00:02:06.75	14.01	5.29	-43.0	-53.0	4.0	1.48e+00	0	56	104	0	58	10835
2026-01-28 00:02:07.76	14.00	5.36	-42.9	-52.4	4.1	1.47e+00	0	56	104	0	57	10714
2026-01-28 00:02:08.77	13.98	5.44	-42.9	-52.4	4.1	1.47e+00	0	56	104	0	57	10740
2026-01-28 00:02:09.78	13.97	5.51	-42.9	-52.5	4.1	1.47e+00	0	56	104	0	57	10843
2026-01-28 00:02:10.79	13.95	5.58	-42.9	-52.9	3.9	1.46e+00	0	56	104	0	57	11293
2026-01-28 00:02:11.80	13.94	5.65	-42.9	-52.2	4.2	1.47e+00	0	56	104	0	57	10476
2026-01-28 00:02:12.81	13.92	5.73	-42.8	-52.3	3.9	1.46e+00	0	56	104	0	57	10628
2026-01-28 00:02:13.82	13.90	5.80	-42.9	-51.9	4.2	1.45e+00	0	56	104	0	57	10127
2026-01-28 00:02:14.83	13.89	5.87	-42.9	-52.6	3.9	1.46e+00	0	56	104	0	57	10975
2026-01-28 00:02:15.84	13.87	5.95	-42.9	-52.5	4.1	1.47e+00	0	56	104	0	57	10897
2026-01-28 00:02:16.85	13.85	6.02	-43.0	-53.5	3.9	1.47e+00	0	56	104	0	57	12104
2026-01-28 00:02:17.86	13.84	6.10	-43.1	-54.1	3.8	1.49e+00	0	56	104	0	57	12988
2026-01-28 00:02:18.87	13.82	6.17	-43.1	-54.5	3.8	1.49e+00	0	56	104	0	57	13660
2026-01-28 00:02:19.88	13.80	6.25	-43.2	-54.9	3.8	1.49e+00	0	56	104	0	57	14373
2026-01-28 00:02:20.89	13.79	6.32	-43.2	-55.4	3.8	1.49e+00	0	56	104	0	57	15119
2026-01-28 00:02:21.90	13.77	6.40	-43.2	-55.5	3.8	1.49e+00	0	56	104	0	57	15348
2026-01-28 00:02:22.91	13.75	6.47	-43.2	-55.3	3.8	1.49e+00	0	57	104	0	57	15050
2026-01-28 00:02:23.92	13.74	6.55	-43.2	-54.7	3.8	1.49e+00	0	56	104	0	57	13957
2026-01-28 00:02:24.93	13.72	6.62	-43.0	-53.4	3.9	1.49e+00	0	57	104	0	57	11967
2026-01-28 00:02:25.94	13.70	6.70	-42.9	-51.9	4.2	1.46e+00	0	57	104	0	57	10173
2026-01-28 00:02:26.95	13.68	6.78	-42.6	-50.4	4.8	1.07e+00	2	57	104	0	57	8554
2026-01-28 00:02:27.96	13.67	6.85	-42.4	-49.2	5.5	5.85e-01	0	57	0	2097152	56	7858
2026-01-28 00:02:28.97	13.65	6.93	-42.0	-48.0	6.5	3.02e-01	0	57	0	5242880	56	6835
2026-01-28 00:02:29.98	13.63	7.01	-41.6	-47.0	7.2	1.61e-01	0	57	0	8388608	55	6453
2026-01-28 00:02:30.99	13.61	7.08	-41.3	-46.1	8.1	6.91e-02	0	57	0	11534336	54	6132
2026-01-28 00:02:32.00	13.59	7.16	-41.0	-45.5	8.7	3.85e-02	0	57	0	14680064	54	5734
2026-01-28 00:02:33.01	13.58	7.24	-40.7	-44.7	9.4	1.69e-02	0	57	0	17825792	53	5552
2026-01-28 00:02:34.03	13.56	7.32	-40.4	-44.1	10.0	8.40e-03	0	57	0	20971520	52	5528
2026-01-28 00:02:35.04	13.54	7.39	-40.3	-43.9	10.4	5.17e-03	0	57	0	24117248	52	5352
2026-01-28 00:02:36.05	13.52	7.47	-40.2	-43.7	10.5	4.18e-03	0	57	0	27262976	52	5279
2026-01-28 00:02:37.06	13.50	7.55	-40.0	-43.4	10.9	2.49e-03	0	57	0	30408704	52	5047
2026-01-28 00:02:38.07	13.48	7.63	-40.0	-43.4	10.8	2.47e-03	0	57	0	33554432	52	5079
2026-01-28 00:02:39.08	13.46	7.71	-40.0	-43.4	10.9	2.52e-03	0	57	0	36700160	52	5045
2026-01-28 00:02:40.09	13.44	7.79	-40.2	-43.7	10.6	3.00e-03	0	57	0	39845888	51	5572
2026-01-28 00:02:41.10	13.42	7.87	-40.3	-43.9	10.4	3.55e-03	0	57	0	42991616	51	5665
2026-01-28 00:02:42.11	13.41	7.95	-40.4	-44.1	10.2	5.50e-03	0	57	0	46137344	51	5811
2026-01-28 00:02:43.12	13.39	8.03	-40.7	-44.6	9.7	8.42e-03	0	57	0	49283072	51	6152
2026-01-28 00:02:44.13	13.37	8.11	-41.0	-45.2	9.1	2.35e-02	0	57	0	52428800	52	6207
2026-01-28 00:02:45.14	13.35	8.19	-41.2	-45.5	8.8	4.64e-02	0	57	0	55574528	53	6114
2026-01-28 00:02:46.15	13.33	8.27	-42.3	-51.5	4.0	1.43e+00	0	57	104	57671680	55	10894
2026-01-28 00:02:47.16	13.31	8.35	-42.4	-48.7	5.9	3.36e-01	0	57	0	59768832	55	7879
2026-01-28 00:02:48.17	13.29	8.43	-40.7	-45.0	8.9	1.38e-02	0	57	0	62914560	52	6084
2026-01-28 00:02:49.18	13.27	8.51	-40.2	-43.7	10.4	5.92e-03	0	57	0	66060288	52	5255
2026-01-28 00:02:50.19	13.25	8.59	-40.1	-43.5	10.7	2.96e-03	0	58	0	69206016	52	5141
2026-01-28 00:02:51.20	13.22	8.68	-39.9	-43.1	11.2	1.46e-03	0	58	0	72351744	51	5173
2026-01-28 00:02:52.21	13.20	8.76	-39.7	-42.8	11.6	9.47e-04	0	58	0	75497472	51	4993
2026-01-28 00:02:53.22	13.18	8.84	-39.7	-42.6	11.7	6.56e-04	0	57	0	78643200	51	4918
2026-01-28 00:02:54.23	13.16	8.92	-39.8	-42.9	11.4	7.39e-04	0	58	0	81788928	51	5065
2026-01-28 00:02:55.24	13.14	9.01	-39.7	-42.6	11.7	5.81e-04	0	58	0	84934656	51	4918
2026-01-28 00:02:56.25	13.12	9.09	-39.8	-42.8	11.5	7.88e-04	0	58	0	88080384	51	5041
2026-01-28 00:02:57.26	13.10	9.18	-39.7	-42.8	11.5	6.48e-04	0	58	0	91226112	51	4996
2026-01-28 00:02:58.27	13.08	9.26	-39.6	-42.6	11.7	6.76e-04	0	58	0	94371840	51	4921
2026-01-28 00:02:59.28	13.05	9.34	-39.7	-42.7	11.6	6.16e-04	0	58	0	97517568	51	4975
2026-01-28 00:03:00.30	13.03	9.43	-39.7	-42.6	11.7	6.74e-04	0	58	0	100663296	51	4911
2026-01-28 00:03:01.31	13.01	9.51	-39.6	-42.6	11.7	7.29e-04	0	58	0	103809024	51	4907
2026-01-28 00:03:02.32	12.99	9.60	-39.7	-42.7	11.6	6.55e-04	0	58	0	106954752	51	4974
2026-01-28 00:03:03.33	12.97	9.68	-39.7	-42.7	11.6	5.61e-04	0	58	0	110100480	51	4967
2026-01-28 00:03:04.34	12.94	9.77	-39.6	-42.5	11.9	3.87e-04	0	58	0	113246208	51	4831
2026-01-28 00:03:05.35	12.92	9.86	-39.6	-42.4	11.9	4.31e-04	0	58	0	116391936	51	4811
2026-01-28 00:03:06.36	12.90	9.94	-39.5	-42.4	12.0	3.01e-04	0	58	0	119537664	50	5044
2026-01-28 00:03:07.37	12.87	10.03	-39.4	-42.1	12.3	2.33e-04	0	58	0	122683392	50	4918
2026-01-28 00:03:08.38	12.85	10.12	-39.5	-42.3	12.1	2.88e-04	0	58	0	125829120	50	5027
2026-01-28 00:03:09.39	12.83	10.20	-39.4	-42.3	12.0	2.82e-04	0	58	0	128974848	50	5004
2026-01-28 00:03:10.40	12.80	10.29	-39.6	-42.5	11.8	4.09e-04	0	58	0	132120576	50	5143
2026-01-28 00:03:11.41	12.78	10.38	-39.6	-42.5	11.8	4.81e-04	0	58	0	135266304	50	5123
2026-01-28 00:03:12.42	12.76	10.47	-39.6	-42.6	11.8	6.37e-04	0	58	0	138412032	50	5164
2026-01-28 00:03:13.43	12.73	10.55	-39.7	-42.7	11.6	7.07e-04	0	58	0	141557760	50	5265
2026-01-28 00:03:14.45	12.71	10.64	-39.6	-42.5	12.0	4.03e-04	0	58	0	144703488	50	5109
2026-01-28 00:03:15.46	12.68	10.73	-39.7	-42.5	11.9	3.97e-04	0	58	0	147849216	50	5153
2026-01-28 00:03:16.47	12.66	10.82	-39.8	-42.7	11.7	5.00e-04	0	58	0	150994944	50	5276
2026-01-28 00:03:17.48	12.63	10.91	-39.8	-42.8	11.7	5.66e-04	0	58	0	154140672	50	5282
2026-01-28 00:03:18.49	12.61	11.00	-39.6	-42.5	12.1	3.49e-04	0	59	0	157286400	50	5119
2026-01-28 00:03:19.49	12.59	11.09	-39.7	-42.6	11.9	3.73e-04	0	58	0	160432128	50	5203
2026-01-28 00:03:20.51	12.56	11.18	-39.7	-42.5	12.1	3.15e-04	0	59	0	163577856	50	5116
2026-01-28 00:03:21.52	12.53	11.27	-39.6	-42.5	12.2	2.57e-04	0	58	0	166723584	50	5103
2026-01-28 00:03:22.53	12.51	11.36	-39.7	-42.5	12.1	2.01e-04	0	58	0	169869312	50	5135
2026-01-28 00:03:23.54	12.48	11.46	-39.8	-42.6	12.0	3.41e-04	0	59	0	173015040	50	5209
2026-01-28 00:03:24.55	12.46	11.55	-39.8	-42.7	11.9	2.11e-04	0	58	0	176160768	50	5250
2026-01-28 00:03:25.56	12.43	11.64	-39.7	-42.6	12.1	2.97e-04	0	59	0	179306496	50	5188
2026-01-28 00:03:26.57	12.40	11.73	-39.7	-42.5	12.1	2.26e-04	0	59	0	182452224	50	5157
2026-01-28 00:03:27.58	12.38	11.83	-39.6	-42.4	12.3	1.51e-04	0	58	0	185597952	50	5069
2026-01-28 00:03:28.59	12.35	11.92	-39.6	-42.3	12.5	1.14e-04	0	59	0	188743680	50	5013
2026-01-28 00:03:29.60	12.32	12.01	-39.6	-42.4	12.3	1.62e-04	0	59	0	191889408	50	5061
2026-01-28 00:03:30.61	12.30	12.11	-39.4	-42.0	12.8	8.77e-05	0	59	0	195035136	50	4835
2026-01-28 00:03:31.62	12.27	12.20	-39.5	-42.1	12.8	6.25e-05	0	59	0	198180864	50	4888
2026-01-28 00:03:32.63	12.24	12.30	-39.3	-41.7	13.2	2.51e-05	0	59	0	201326592	50	4703
2026-01-28 00:03:33.64	12.21	12.39	-39.3	-41.8	13.1	2.67e-05	0	59	0	204472320	50	4735
2026-01-28 00:03:34.65	12.19	12.49	-39.3	-41.8	13.1	2.59e-05	0	59	0	207618048	50	4733
2026-01-28 00:03:35.67	12.16	12.58	-39.4	-41.8	13.2	2.28e-05	0	59	0	210763776	50	4751
2026-01-28 00:03:36.68	12.13	12.68	-39.5	-41.9	13.1	2.05e-05	0	59	0	213909504	50	4811
2026-01-28 00:03:37.69	12.10	12.78	-39.6	-42.1	12.9	4.73e-05	0	59	0	217055232	50	4914
2026-01-28 00:03:38.70	12.07	12.87	-39.5	-42.1	13.0	3.89e-05	0	59	0	220200960	50	4879
2026-01-28 00:03:39.71	12.04	12.97	-39.5	-42.0	13.1	3.50e-05	0	59	0	223346688	50	4847
2026-01-28 00:03:40.72	12.01	13.07	-39.2	-41.5	13.6	8.30e-06	0	59	0	226492416	50	4587
2026-01-28 00:03:41.73	11.98	13.17	-39.3	-41.6	13.6	5.30e-06	0	59	0	229638144	50	4614
2026-01-28 00:03:42.74	11.95	13.27	-39.2	-41.5	13.7	6.80e-06	0	59	0	232783872	50	4595
2026-01-28 00:03:43.75	11.92	13.36	-39.4	-41.7	13.5	6.80e-06	0	59	0	235929600	50	4697
2026-01-28 00:03:44.76	11.89	13.46	-39.3	-41.7	13.5	4.50e-06	0	59	0	239075328	50	4662
2026-01-28 00:03:45.77	11.86	13.56	-39.3	-41.7	13.6	5.30e-06	0	59	0	242221056	50	4668
2026-01-28 00:03:46.78	11.83	13.66	-39.3	-41.6	13.6	9.90e-06	0	59	0	245366784	50	4651
2026-01-28 00:03:47.79	11.80	13.76	-39.3	-41.7	13.5	4.50e-06	0	59	0	248512512	50	4681
2026-01-28 00:03:48.80	11.77	13.87	-39.4	-41.7	13.6	1.06e-05	0	59	0	251658240	50	4685
2026-01-28 00:03:49.81	11.74	13.97	-39.3	-41.6	13.7	4.50e-06	0	59	0	254803968	50	4640
2026-01-28 00:03:50.82	11.71	14.07	-39.4	-41.7	13.6	6.80e-06	0	59	0	257949696	50	4670
2026-01-28 00:03:51.83	11.68	14.17	-39.4	-41.7	13.6	8.30e-06	0	59	0	261095424	50	4687
2026-01-28 00:03:52.84	11.65	14.27	-39.5	-41.9	13.4	1.14e-05	0	59	0	264241152	50	4805
2026-01-28 00:03:53.85	11.61	14.38	-39.4	-41.8	13.6	7.60e-06	0	59	0	267386880	50	4714
2026-01-28 00:03:54.86	11.58	14.48	-39.4	-41.8	13.6	6.10e-06	0	59	0	270532608	50	4714
2026-01-28 00:03:55.87	11.55	14.58	-39.5	-41.9	13.5	1.06e-05	0	59	0	273678336	50	4760
2026-01-28 00:03:56.88	11.51	14.69	-39.4	-41.7	13.7	6.10e-06	0	59	0	276824064	50	4698
2026-01-28 00:03:57.89	11.48	14.79	-39.5	-41.8	13.6	1.50e-06	0	59	0	279969792	50	4721
2026-01-28 00:03:58.90	11.45	14.90	-39.4	-41.7	13.8	5.30e-06	0	59	0	283115520	50	4691
2026-01-28 00:03:59.91	11.41	15.00	-39.4	-41.7	13.8	3.00e-06	0	59	0	286261248	50	4696
2026-01-28 00:04:00.93	11.38	15.11	-39.5	-41.9	13.6	3.80e-06	0	59	0	289406976	50	4777
2026-01-28 00:04:01.93	11.35	15.22	-39.5	-41.8	13.7	5.30e-06	0	59	0	292552704	50	4742
2026-01-28 00:04:02.94	11.31	15.32	-39.5	-41.8	13.8	3.00e-06	0	59	0	295698432	50	4739
2026-01-28 00:04:03.96	11.28	15.43	-39.5	-41.8	13.8	6.80e-06	0	59	0	298844160	50	4734
2026-01-28 00:04:04.97	11.24	15.54	-39.4	-41.7	13.9	6.80e-06	0	59	0	301989888	50	4666
2026-01-28 00:04:05.98	11.20	15.65	-39.4	-41.7	13.9	7.00e-07	0	59	0	305135616	50	4687
2026-01-28 00:04:06.99	11.17	15.76	-39.3	-41.5	14.1	3.80e-06	0	60	0	309329920	50	4593
2026-01-28 00:04:08.00	11.13	15.87	-39.4	-41.7	13.9	5.30e-06	0	59	0	312475648	50	4671
2026-01-28 00:04:09.01	11.10	15.98	-39.5	-41.7	13.9	4.50e-06	0	59	0	314572800	50	4701
2026-01-28 00:04:10.02	11.06	16.09	-39.4	-41.6	14.0	1.50e-06	0	59	0	317718528	50	4636
2026-01-28 00:04:11.03	11.02	16.20	-39.4	-41.6	14.0	2.20e-06	0	60	0	320864256	50	4610
2026-01-28 00:04:12.04	10.99	16.31	-39.4	-41.6	14.1	7.00e-07	0	59	0	325058560	50	4616
2026-01-28 00:04:13.05	10.95	16.42	-39.3	-41.5	14.1	2.20e-06	0	59	0	328204288	50	4580
2026-01-28 00:04:14.06	10.91	16.53	-39.3	-41.4	14.2	3.00e-06	0	60	0	331350016	50	4532
2026-01-28 00:04:15.07	10.87	16.65	-39.4	-41.6	14.1	3.80e-06	0	59	0	334495744	50	4608
2026-01-28 00:04:16.08	10.83	16.76	-39.4	-41.7	14.1	2.20e-06	0	60	0	337641472	50	4660
2026-01-28 00:04:17.09	10.79	16.87	-39.4	-41.6	14.1	1.50e-06	0	59	0	340787200	50	4606
2026-01-28 00:04:18.10	10.75	16.99	-39.3	-41.5	14.3	0.00e+00	0	60	0	343932928	50	4552
2026-01-28 00:04:19.11	10.72	17.10	-39.3	-41.5	14.2	0.00e+00	0	60	0	347078656	50	4562
2026-01-28 00:04:20.12	10.68	17.22	-39.4	-41.6	14.1	7.00e-07	0	60	0	350224384	50	4621
2026-01-28 00:04:21.13	10.64	17.33	-39.4	-41.5	14.2	0.00e+00	0	60	0	353370112	50	4597
2026-01-28 00:04:22.14	10.59	17.45	-39.4	-41.5	14.2	2.20e-06	0	60	0	356515840	50	4584
2026-01-28 00:04:23.15	10.55	17.57	-39.3	-41.5	14.3	0.00e+00	0	60	0	359661568	50	4548
2026-01-28 00:04:24.16	10.51	17.68	-39.4	-41.5	14.3	1.50e-06	0	60	0	362807296	50	4568
2026-01-28 00:04:25.17	10.47	17.80	-39.4	-41.5	14.2	2.20e-06	0	60	0	365953024	50	4591
2026-01-28 00:04:26.18	10.43	17.92	-39.4	-41.6	14.2	1.50e-06	0	60	0	369098752	50	4609
2026-01-28 00:04:27.19	10.39	18.04	-39.5	-41.7	14.1	7.00e-07	0	60	0	372244480	50	4671
2026-01-28 00:04:28.20	10.34	18.16	-39.5	-41.8	14.0	5.30e-06	0	60	0	375390208	50	4720
2026-01-28 00:04:29.21	10.30	18.28	-39.5	-41.7	14.1	4.50e-06	0	60	0	378535936	50	4666
2026-01-28 00:04:30.22	10.26	18.40	-39.4	-41.5	14.3	1.50e-06	0	60	0	381681664	50	4580
2026-01-28 00:04:31.23	10.21	18.52	-39.4	-41.6	14.2	0.00e+00	0	60	0	384827392	50	4628
2026-01-28 00:04:32.24	10.17	18.64	-39.4	-41.6	14.2	7.00e-07	0	60	0	387973120	50	4632
2026-01-28 00:04:33.25	10.12	18.77	-39.4	-41.6	14.2	3.00e-06	0	60	0	391118848	50	4630
2026-01-28 00:04:34.26	10.08	18.89	-39.4	-41.6	14.2	0.00e+00	0	60	0	394264576	50	4620
2026-01-28 00:04:35.27	10.03	19.01	-39.4	-41.5	14.3	0.00e+00	0	60	0	397410304	50	4595
2026-01-28 00:04:36.28	9.99	19.14	-39.3	-41.5	14.4	0.00e+00	0	60	0	400556032	50	4547
2026-01-28 00:04:37.29	9.94	19.26	-39.3	-41.4	14.5	7.00e-07	0	60	0	403701760	50	4494
2026-01-28 00:04:38.30	9.90	19.39	-39.3	-41.3	14.5	7.00e-07	0	60	0	406847488	50	4489
2026-01-28 00:04:39.31	9.85	19.52	-39.3	-41.4	14.5	0.00e+00	0	60	0	409993216	50	4502
2026-01-28 00:04:40.32	9.80	19.64	-39.3	-41.4	14.5	0.00e+00	0	60	0	413138944	50	4513
2026-01-28 00:04:41.34	9.75	19.77	-39.2	-41.3	14.6	0.00e+00	0	60	0	416284672	50	4451
2026-01-28 00:04:42.35	9.71	19.90	-39.2	-41.3	14.5	0.00e+00	0	60	0	419430400	50	4480
2026-01-28 00:04:43.36	9.66	20.03	-39.2	-41.2	14.6	7.00e-07	0	60	0	422576128	50	4437
2026-01-28 00:04:44.37	9.61	20.16	-39.2	-41.2	14.6	0.00e+00	0	60	0	425721856	50	4417
2026-01-28 00:04:45.38	9.56	20.29	-39.1	-41.2	14.7	7.00e-07	0	60	0	428867584	50	4400
2026-01-28 00:04:46.39	9.51	20.42	-39.2	-41.2	14.6	7.00e-07	0	60	0	432013312	50	4416
2026-01-28 00:04:47.40	9.46	20.55	-39.2	-41.2	14.6	0.00e+00	0	60	0	435159040	50	4429
2026-01-28 00:04:48.41	9.41	20.68	-39.1	-41.1	14.7	0.00e+00	0	60	0	438304768	50	4375
2026-01-28 00:04:49.42	9.35	20.82	-39.0	-41.0	14.8	0.00e+00	0	60	0	441450496	50	4335
2026-01-28 00:04:50.44	9.30	20.95	-38.9	-40.9	15.0	0.00e+00	0	60	0	444596224	49	4512
2026-01-28 00:04:51.45	9.25	21.09	-38.9	-40.9	15.0	0.00e+00	0	60	0	447741952	49	4494
2026-01-28 00:04:52.46	9.20	21.22	-38.8	-40.8	15.1	0.00e+00	0	60	0	450887680	49	4458
2026-01-28 00:04:53.47	9.14	21.36	-38.8	-40.8	15.1	7.00e-07	0	60	0	454033408	49	4453
2026-01-28 00:04:54.48	9.09	21.49	-38.7	-40.6	15.3	0.00e+00	0	60	0	457179136	49	4377
2026-01-28 00:04:55.49	9.03	21.63	-38.6	-40.5	15.4	0.00e+00	0	60	0	460324864	49	4303
2026-01-28 00:04:56.50	8.98	21.77	-38.6	-40.4	15.4	0.00e+00	0	60	0	463470592	49	4272
2026-01-28 00:04:57.51	8.92	21.91	-38.5	-40.3	15.6	0.00e+00	0	60	0	466616320	49	4216
2026-01-28 00:04:58.52	8.87	22.04	-38.5	-40.4	15.5	0.00e+00	0	60	0	469762048	48	4495
2026-01-28 00:04:59.53	8.81	22.18	-38.5	-40.4	15.5	0.00e+00	0	60	0	472907776	48	4504
2026-01-28 00:05:00.54	8.75	22.32	-38.4	-40.2	15.7	0.00e+00	0	60	0	476053504	48	4399
2026-01-28 00:05:01.55	8.70	22.47	-38.3	-40.1	15.8	0.00e+00	0	60	0	479199232	48	4358
2026-01-28 00:05:02.56	8.64	22.61	-38.3	-40.1	15.8	0.00e+00	0	60	0	482344960	48	4369
2026-01-28 00:05:03.57	8.58	22.75	-38.4	-40.2	15.7	0.00e+00	0	60	0	485490688	48	4410
2026-01-28 00:05:04.58	8.52	22.89	-38.3	-40.1	15.9	0.00e+00	0	60	0	488636416	48	4342
2026-01-28 00:05:05.59	8.46	23.04	-38.2	-40.0	16.0	0.00e+00	0	60	0	491782144	48	4300
2026-01-28 00:05:06.61	8.40	23.19	-38.2	-39.9	16.0	0.00e+00	0	60	0	494927872	48	4254
2026-01-28 00:05:07.62	8.34	23.33	-38.2	-39.9	16.0	0.00e+00	0	60	0	498073600	48	4290
2026-01-28 00:05:08.63	8.28	23.48	-38.2	-40.0	16.0	0.00e+00	0	60	0	501219328	48	4293
2026-01-28 00:05:09.64	8.21	23.63	-38.1	-39.7	16.2	0.00e+00	0	60	0	504365056	48	4189
2026-01-28 00:05:10.65	8.15	23.77	-38.0	-39.7	16.3	0.00e+00	0	60	0	507510784	48	4162
2026-01-28 00:05:11.66	8.09	23.92	-38.1	-39.8	16.2	0.00e+00	0	60	0	510656512	48	4205
2026-01-28 00:05:12.67	8.02	24.07	-38.0	-39.7	16.3	0.00e+00	0	60	0	513802240	48	4160
2026-01-28 00:05:13.68	7.96	24.23	-37.9	-39.6	16.3	0.00e+00	0	61	0	516947968	47	4362
2026-01-28 00:05:14.69	7.89	24.38	-37.9	-39.6	16.2	0.00e+00	0	60	0	520093696	47	4375
2026-01-28 00:05:15.70	7.83	24.53	-38.0	-39.8	16.1	0.00e+00	0	60	0	523239424	47	4445
2026-01-28 00:05:16.71	7.76	24.68	-38.0	-39.8	16.1	0.00e+00	0	60	0	526385152	47	4443
2026-01-28 00:05:17.72	7.69	24.84	-38.1	-39.8	16.1	0.00e+00	0	61	0	529530880	47	4471
2026-01-28 00:05:18.73	7.62	24.99	-38.1	-39.8	16.0	0.00e+00	0	60	0	532676608	47	4486
2026-01-28 00:05:19.74	7.55	25.15	-38.2	-39.9	15.9	0.00e+00	0	60	0	535822336	47	4545
2026-01-28 00:05:20.75	7.48	25.31	-38.2	-40.0	15.9	0.00e+00	0	60	0	538968064	47	4576
2026-01-28 00:05:21.76	7.41	25.46	-38.3	-40.1	15.8	0.00e+00	0	60	0	542113792	47	4644
2026-01-28 00:05:22.77	7.34	25.62	-38.4	-40.2	15.6	0.00e+00	0	60	0	545259520	47	4705
2026-01-28 00:05:23.78	7.27	25.78	-38.5	-40.3	15.6	7.00e-07	0	60	0	548405248	47	4745
2026-01-28 00:05:24.79	7.20	25.94	-38.5	-40.3	15.5	0.00e+00	0	60	0	551550976	47	4744
2026-01-28 00:05:25.80	7.12	26.10	-38.6	-40.5	15.4	0.00e+00	0	60	0	554696704	47	4835
2026-01-28 00:05:26.81	7.05	26.27	-38.7	-40.6	15.3	0.00e+00	0	60	0	557842432	47	4872
2026-01-28 00:05:27.82	6.97	26.43	-38.7	-40.6	15.3	0.00e+00	0	60	0	560988160	47	4897
2026-01-28 00:05:28.83	6.90	26.59	-38.8	-40.7	15.3	0.00e+00	0	60	0	564133888	48	4697
2026-01-28 00:05:29.84	6.82	26.76	-38.9	-40.8	15.2	0.00e+00	0	60	0	567279616	48	4756
2026-01-28 00:05:30.85	6.74	26.92	-39.0	-40.9	15.1	0.00e+00	0	60	0	570425344	48	4774
2026-01-28 00:05:31.86	6.67	27.09	-39.0	-40.9	15.1	0.00e+00	0	60	0	573571072	48	4786
2026-01-28 00:05:32.88	6.58	27.26	-39.0	-41.0	15.0	0.00e+00	0	61	0	576716800	48	4832
2026-01-28 00:05:33.89	6.50	27.43	-39.0	-40.9	15.1	0.00e+00	0	60	0	580911104	48	4804
2026-01-28 00:05:34.90	6.42	27.60	-39.0	-40.9	15.1	0.00e+00	0	60	0	584056832	48	4799
2026-01-28 00:05:35.90	6.34	27.77	-39.0	-40.9	15.0	0.00e+00	0	60	0	586153984	48	4810
2026-01-28 00:05:36.92	6.26	27.94	-39.0	-40.9	15.1	0.00e+00	0	61	0	589299712	48	4798
2026-01-28 00:05:37.93	6.17	28.12	-39.0	-41.0	15.0	0.00e+00	0	60	0	592445440	48	4837
2026-01-28 00:05:38.94	6.09	28.29	-39.1	-41.1	14.9	0.00e+00	0	61	0	596639744	48	4879
2026-01-28 00:05:39.94	6.00	28.46	-39.2	-41.2	14.8	7.00e-07	0	61	0	599785472	48	4961
2026-01-28 00:05:40.95	5.92	28.64	-39.2	-41.2	14.8	7.00e-07	0	60	0	602931200	49	4670
2026-01-28 00:05:41.96	5.83	28.82	-39.2	-41.2	14.7	7.00e-07	0	61	0	606076928	49	4701
2026-01-28 00:05:42.97	5.74	28.99	-39.3	-41.3	14.7	0.00e+00	0	61	0	608174080	49	4744
2026-01-28 00:05:43.98	5.65	29.17	-39.3	-41.3	14.7	0.00e+00	0	61	0	611319808	49	4758
2026-01-28 00:05:44.99	5.56	29.35	-39.3	-41.4	14.6	1.50e-06	0	60	0	615514112	49	4785
2026-01-28 00:05:46.00	5.47	29.54	-39.3	-41.3	14.7	0.00e+00	0	60	0	618659840	49	4736
2026-01-28 00:05:47.01	5.37	29.72	-39.3	-41.3	14.6	0.00e+00	0	60	0	621805568	49	4752
2026-01-28 00:05:48.02	5.28	29.90	-39.2	-41.3	14.7	7.00e-07	0	61	0	624951296	49	4711
2026-01-28 00:05:49.04	5.18	30.09	-39.1	-41.1	14.9	0.00e+00	0	61	0	628097024	49	4623
2026-01-28 00:05:50.05	5.09	30.27	-39.2	-41.2	14.9	7.00e-07	0	61	0	631242752	49	4660
2026-01-28 00:05:51.06	4.99	30.46	-39.0	-41.0	15.0	0.00e+00	0	61	0	634388480	49	4560
2026-01-28 00:05:52.07	4.89	30.65	-39.0	-40.9	15.1	0.00e+00	0	61	0	637534208	49	4527
2026-01-28 00:05:53.08	4.79	30.84	-39.0	-41.0	15.1	0.00e+00	0	61	0	640679936	49	4558
2026-01-28 00:05:54.09	4.69	31.03	-39.2	-41.1	14.9	7.00e-07	0	61	0	643825664	49	4640
2026-01-28 00:05:55.10	4.59	31.22	-39.2	-41.2	14.9	0.00e+00	0	61	0	646971392	49	4660
2026-01-28 00:05:56.11	4.48	31.41	-39.1	-41.0	15.0	0.00e+00	0	61	0	650117120	49	4593
2026-01-28 00:05:57.12	4.38	31.61	-39.1	-41.1	15.0	0.00e+00	0	61	0	653262848	49	4627
2026-01-28 00:05:58.14	4.27	31.80	-39.2	-41.1	14.9	0.00e+00	0	61	0	656408576	49	4649
2026-01-28 00:05:59.15	4.16	32.00	-39.2	-41.2	14.9	0.00e+00	0	61	0	659554304	49	4663
2026-01-28 00:06:00.16	4.05	32.20	-39.2	-41.2	14.9	7.00e-07	0	61	0	662700032	49	4654
2026-01-28 00:06:01.17	3.94	32.39	-39.3	-41.3	14.8	0.00e+00	0	61	0	665845760	49	4712
2026-01-28 00:06:02.18	3.83	32.59	-39.3	-41.3	14.8	7.00e-07	0	61	0	668991488	49	4712
2026-01-28 00:06:03.19	3.72	32.80	-39.4	-41.4	14.6	0.00e+00	0	61	0	672137216	49	4810
2026-01-28 00:06:04.20	3.60	33.00	-39.5	-41.6	14.5	7.00e-07	0	61	0	675282944	49	4875
2026-01-28 00:06:05.21	3.49	33.20	-39.5	-41.6	14.4	7.00e-07	0	61	0	678428672	49	4910
2026-01-28 00:06:06.22	3.37	33.41	-39.6	-41.7	14.4	7.00e-07	0	61	0	681574400	49	4932
2026-01-28 00:06:07.23	3.25	33.61	-39.6	-41.6	14.4	7.00e-07	0	61	0	684720128	49	4926
2026-01-28 00:06:08.24	3.13	33.82	-39.6	-41.7	14.4	0.00e+00	0	61	0	687865856	49	4937
2026-01-28 00:06:09.25	3.01	34.03	-39.6	-41.7	14.4	0.00e+00	0	61	0	691011584	49	4955
2026-01-28 00:06:10.26	2.88	34.24	-39.6	-41.7	14.4	0.00e+00	0	61	0	694157312	49	4960
2026-01-28 00:06:11.27	2.76	34.45	-39.7	-41.9	14.2	7.00e-07	0	61	0	697303040	50	4786
2026-01-28 00:06:12.28	2.63	34.66	-39.8	-42.0	14.1	7.00e-07	0	61	0	700448768	50	4838
2026-01-28 00:06:13.30	2.50	34.88	-39.9	-42.1	14.0	7.00e-07	0	61	0	703594496	50	4885
2026-01-28 00:06:14.31	2.37	35.09	-40.0	-42.2	13.9	2.20e-06	0	61	0	706740224	50	4970
2026-01-28 00:06:15.32	2.23	35.31	-40.1	-42.4	13.7	3.80e-06	0	61	0	709885952	50	5055
2026-01-28 00:06:16.33	2.10	35.52	-40.2	-42.6	13.6	9.10e-06	0	61	0	713031680	50	5171
2026-01-28 00:06:17.34	1.96	35.74	-40.3	-42.7	13.4	1.29e-05	0	61	0	716177408	51	4973
2026-01-28 00:06:18.34	1.83	35.96	-40.5	-42.9	13.2	2.13e-05	0	61	0	719323136	51	5094
2026-01-28 00:06:19.35	1.69	36.18	-40.6	-43.2	12.9	3.58e-05	0	61	0	722468864	51	5248
2026-01-28 00:06:20.36	1.54	36.40	-40.7	-43.2	12.9	5.41e-05	0	61	0	725614592	51	5279
2026-01-28 00:06:21.38	1.40	36.63	-40.7	-43.4	12.7	8.46e-05	0	61	0	728760320	52	5069
2026-01-28 00:06:22.39	1.25	36.85	-40.7	-43.3	12.7	1.03e-04	0	61	0	731906048	52	5040
2026-01-28 00:06:23.40	1.10	37.08	-40.8	-43.5	12.6	1.11e-04	0	61	0	735051776	52	5108
2026-01-28 00:06:24.41	0.95	37.31	-40.8	-43.5	12.6	8.92e-05	0	61	0	738197504	52	5104
2026-01-28 00:06:25.42	0.80	37.54	-40.6	-43.2	12.8	7.93e-05	0	61	0	741343232	52	4977
2026-01-28 00:06:26.43	0.65	37.77	-40.6	-43.3	12.8	5.34e-05	0	61	0	744488960	52	4984
2026-01-28 00:06:27.44	0.49	38.00	-40.6	-43.1	12.9	4.73e-05	0	61	0	747634688	52	4904
2026-01-28 00:06:28.45	0.33	38.24	-40.5	-43.0	13.0	2.97e-05	0	61	0	750780416	52	4850
2026-01-28 00:06:29.46	0.17	38.47	-40.5	-43.0	13.0	3.43e-05	0	61	0	753926144	52	4847
2026-01-28 00:06:30.47	0.00	38.71	-40.5	-43.1	13.0	4.19e-05	0	61	0	757071872	52	4872
2026-01-28 00:06:31.48	359.84	38.94	-40.5	-43.1	12.9	4.04e-05	0	61	0	760217600	52	4894
2026-01-28 00:06:32.49	359.67	39.18	-40.5	-43.1	13.0	3.66e-05	0	61	0	763363328	52	4872
2026-01-28 00:06:33.51	359.49	39.43	-40.4	-42.9	13.2	2.13e-05	0	61	0	766509056	52	4767
2026-01-28 00:06:34.52	359.32	39.67	-40.5	-43.0	13.1	2.82e-05	0	61	0	769654784	52	4824
2026-01-28 00:06:35.53	359.14	39.91	-40.3	-42.6	13.5	1.06e-05	0	61	0	772800512	52	4646
2026-01-28 00:06:36.53	358.96	40.15	-40.1	-42.4	13.7	8.30e-06	0	61	0	775946240	52	4528
2026-01-28 00:06:37.55	358.78	40.40	-39.9	-42.1	14.1	3.00e-06	0	61	0	779091968	51	4615
2026-01-28 00:06:38.56	358.59	40.65	-39.9	-42.0	14.2	3.80e-06	0	61	0	782237696	51	4586
2026-01-28 00:06:39.57	358.41	40.90	-40.0	-42.2	14.0	3.80e-06	0	61	0	785383424	51	4669
2026-01-28 00:06:40.58	358.21	41.15	-40.1	-42.3	13.8	3.80e-06	0	61	0	788529152	51	4745
2026-01-28 00:06:41.59	358.02	41.40	-40.3	-42.6	13.6	3.00e-06	0	61	0	791674880	51	4886
2026-01-28 00:06:42.60	357.82	41.65	-40.6	-43.0	13.1	2.59e-05	0	61	0	794820608	51	5137
2026-01-28 00:06:43.61	357.62	41.90	-40.6	-43.1	12.9	4.80e-05	0	61	0	797966336	52	4917
2026-01-28 00:06:44.62	357.42	42.16	-40.6	-43.2	12.9	5.79e-05	0	61	0	801112064	52	4975
2026-01-28 00:06:45.63	357.21	42.42	-40.7	-43.3	12.8	6.17e-05	0	61	0	804257792	52	5003
2026-01-28 00:06:46.64	357.00	42.67	-40.7	-43.3	12.9	5.64e-05	0	61	0	807403520	52	4991
2026-01-28 00:06:47.65	356.79	42.93	-40.7	-43.3	12.8	4.65e-05	0	61	0	810549248	52	4991
2026-01-28 00:06:48.66	356.57	43.19	-40.7	-43.2	12.9	4.11e-05	0	61	0	813694976	52	4961
2026-01-28 00:06:49.67	356.35	43.46	-40.5	-43.0	13.1	2.28e-05	0	61	0	816840704	52	4843
2026-01-28 00:06:50.68	356.12	43.72	-40.7	-43.2	13.0	3.50e-05	0	61	0	819986432	52	4951
2026-01-28 00:06:51.69	355.89	43.98	-40.7	-43.2	12.9	4.65e-05	0	61	0	823132160	52	4974
2026-01-28 00:06:52.70	355.66	44.25	-40.7	-43.3	12.8	6.79e-05	0	61	0	826277888	52	4997
2026-01-28 00:06:53.71	355.42	44.52	-40.9	-43.6	12.5	9.07e-05	0	61	0	829423616	52	5180
2026-01-28 00:06:54.73	355.18	44.79	-41.1	-43.8	12.3	1.41e-04	0	61	0	832569344	52	5316
2026-01-28 00:06:55.74	354.93	45.06	-41.2	-44.0	12.1	2.08e-04	0	61	0	835715072	52	5439
2026-01-28 00:06:56.75	354.68	45.33	-41.2	-44.1	12.1	2.78e-04	0	61	0	838860800	53	5172
2026-01-28 00:06:57.76	354.43	45.60	-41.2	-44.1	12.0	3.43e-04	0	61	0	842006528	53	5200
2026-01-28 00:06:58.77	354.17	45.87	-41.1	-43.9	12.2	2.74e-04	0	61	0	845152256	53	5093
2026-01-28 00:06:59.78	353.91	46.15	-40.9	-43.6	12.6	9.84e-05	0	61	0	848297984	53	4873
2026-01-28 00:07:00.79	353.64	46.42	-40.7	-43.3	12.9	4.73e-05	0	61	0	852492288	53	4717
2026-01-28 00:07:01.80	353.37	46.70	-40.7	-43.2	12.9	5.34e-05	0	61	0	854589440	53	4704
2026-01-28 00:07:02.81	353.09	46.98	-40.7	-43.3	12.8	6.48e-05	0	61	0	857735168	53	4738
2026-01-28 00:07:03.82	352.81	47.26	-40.8	-43.3	12.8	6.17e-05	0	61	0	860880896	53	4757
2026-01-28 00:07:04.83	352.52	47.54	-40.8	-43.4	12.7	5.18e-05	0	61	0	865075200	53	4791
2026-01-28 00:07:05.84	352.23	47.82	-40.7	-43.2	12.9	5.34e-05	0	61	0	868220928	53	4701
2026-01-28 00:07:06.85	351.93	48.10	-40.6	-43.1	13.0	3.96e-05	0	61	0	871366656	53	4634
2026-01-28 00:07:07.86	351.63	48.39	-40.4	-42.9	13.3	2.13e-05	0	61	0	874512384	52	4764
2026-01-28 00:07:08.88	351.32	48.67	-40.4	-42.8	13.3	1.83e-05	0	61	0	877658112	52	4731
2026-01-28 00:07:09.89	351.00	48.96	-40.4	-42.7	13.4	1.29e-05	0	61	0	880803840	52	4688
2026-01-28 00:07:10.89	350.68	49.24	-40.6	-43.1	13.1	2.67e-05	0	61	0	883949568	52	4893
2026-01-28 00:07:11.91	350.35	49.53	-40.7	-43.2	13.0	2.89e-05	0	61	0	887095296	52	4964
2026-01-28 00:07:12.92	350.02	49.82	-40.8	-43.3	12.9	5.95e-05	0	61	0	890241024	52	5014
2026-01-28 00:07:13.93	349.68	50.11	-40.6	-43.1	13.1	3.20e-05	0	61	0	893386752	52	4918
2026-01-28 00:07:14.93	349.34	50.39	-40.6	-43.2	13.0	3.12e-05	0	61	0	896532480	52	4927
2026-01-28 00:07:15.94	348.98	50.68	-40.5	-43.0	13.2	2.74e-05	0	61	0	899678208	52	4831
2026-01-28 00:07:16.95	348.62	50.98	-40.3	-42.7	13.5	1.14e-05	0	61	0	902823936	52	4676
2026-01-28 00:07:17.96	348.25	51.27	-40.2	-42.5	13.7	5.30e-06	0	61	0	905969664	52	4570
2026-01-28 00:07:18.97	347.88	51.56	-40.1	-42.4	13.8	7.60e-06	0	61	0	909115392	52	4515
2026-01-28 00:07:19.98	347.50	51.85	-40.0	-42.2	14.0	2.20e-06	0	61	0	912261120	51	4700
2026-01-28 00:07:21.00	347.10	52.15	-39.9	-42.0	14.2	0.00e+00	0	61	0	915406848	51	4595
2026-01-28 00:07:22.01	346.70	52.44	-40.1	-42.2	14.1	3.00e-06	0	61	0	918552576	51	4704
2026-01-28 00:07:23.02	346.30	52.73	-40.2	-42.4	13.9	0.00e+00	0	61	0	921698304	51	4785
2026-01-28 00:07:24.03	345.88	53.03	-40.4	-42.7	13.6	6.80e-06	0	61	0	924844032	51	4971
2026-01-28 00:07:25.04	345.46	53.32	-40.4	-42.8	13.5	1.60e-05	0	61	0	927989760	51	4991
2026-01-28 00:07:26.05	345.03	53.61	-40.2	-42.5	13.8	1.22e-05	0	61	0	931135488	51	4832
2026-01-28 00:07:27.06	344.59	53.91	-40.1	-42.4	13.9	5.30e-06	0	61	0	934281216	51	4765
2026-01-28 00:07:28.07	344.14	54.20	-39.8	-41.9	14.4	1.50e-06	0	62	0	937426944	51	4514
2026-01-28 00:07:29.08	343.68	54.49	-39.7	-41.7	14.5	0.00e+00	0	61	0	940572672	51	4432
2026-01-28 00:07:30.09	343.21	54.79	-39.5	-41.5	14.8	0.00e+00	0	61	0	943718400	51	4323
2026-01-28 00:07:31.10	342.73	55.08	-39.3	-41.2	15.0	0.00e+00	0	61	0	946864128	50	4433
2026-01-28 00:07:32.11	342.25	55.37	-39.1	-41.0	15.3	0.00e+00	0	61	0	950009856	50	4313
2026-01-28 00:07:33.12	341.75	55.67	-39.2	-41.1	15.2	0.00e+00	0	61	0	953155584	50	4360
2026-01-28 00:07:34.13	341.24	55.96	-39.0	-40.9	15.5	0.00e+00	0	62	0	956301312	50	4244
2026-01-28 00:07:35.15	340.71	56.25	-39.0	-40.8	15.5	0.00e+00	0	61	0	959447040	49	4463
2026-01-28 00:07:36.16	340.18	56.54	-39.0	-40.9	15.3	0.00e+00	0	61	0	962592768	49	4501
2026-01-28 00:07:37.17	339.64	56.83	-39.1	-41.0	15.2	7.00e-07	0	62	0	965738496	49	4568
2026-01-28 00:07:38.18	339.09	57.12	-39.1	-40.9	15.3	0.00e+00	0	61	0	968884224	49	4541
2026-01-28 00:07:39.19	338.52	57.40	-38.9	-40.7	15.5	0.00e+00	0	61	0	972029952	49	4431
2026-01-28 00:07:40.20	337.94	57.69	-38.9	-40.7	15.6	0.00e+00	0	61	0	975175680	49	4393
2026-01-28 00:07:41.21	337.35	57.97	-38.9	-40.7	15.5	0.00e+00	0	61	0	978321408	49	4433
2026-01-28 00:07:42.22	336.75	58.26	-39.0	-40.8	15.4	0.00e+00	0	61	0	981467136	49	4491
2026-01-28 00:07:43.23	336.13	58.54	-39.2	-41.1	15.1	0.00e+00	0	61	0	984612864	49	4629
2026-01-28 00:07:44.24	335.50	58.82	-39.3	-41.3	15.1	0.00e+00	0	61	0	987758592	49	4707
2026-01-28 00:07:45.25	334.86	59.09	-38.9	-40.7	15.5	0.00e+00	0	62	0	990904320	49	4403
2026-01-28 00:07:46.26	334.20	59.37	-38.6	-40.3	15.9	0.00e+00	0	61	0	994050048	49	4235
2026-01-28 00:07:47.27	333.53	59.64	-38.5	-40.2	16.0	0.00e+00	0	61	0	997195776	49	4186
2026-01-28 00:07:48.28	332.85	59.91	-38.5	-40.2	16.0	0.00e+00	0	62	0	1000341504	49	4192
2026-01-28 00:07:49.29	332.15	60.18	-38.7	-40.5	15.8	0.00e+00	0	62	0	1003487232	49	4299
2026-01-28 00:07:50.30	331.43	60.44	-38.6	-40.3	15.9	0.00e+00	0	61	0	1006632960	49	4234
2026-01-28 00:07:51.31	330.71	60.70	-38.3	-39.9	16.3	0.00e+00	0	61	0	1009778688	48	4280
2026-01-28 00:07:52.32	329.96	60.96	-38.0	-39.6	16.6	0.00e+00	0	61	0	1012924416	48	4136
2026-01-28 00:07:53.33	329.20	61.22	-37.8	-39.4	16.7	0.00e+00	0	61	0	1016070144	47	4253
2026-01-28 00:07:54.34	328.43	61.47	-38.0	-39.6	16.6	0.00e+00	0	61	0	1019215872	47	4381
2026-01-28 00:07:55.35	327.63	61.72	-38.1	-39.7	16.4	0.00e+00	0	62	0	1022361600	47	4427
2026-01-28 00:07:56.36	326.83	61.96	-37.9	-39.5	16.7	0.00e+00	0	61	0	1025507328	47	4305
2026-01-28 00:07:57.37	326.00	62.20	-37.7	-39.3	16.8	0.00e+00	0	62	0	1028653056	47	4211
2026-01-28 00:07:58.38	325.16	62.44	-38.0	-39.6	16.5	0.00e+00	0	61	0	1031798784	47	4377
2026-01-28 00:07:59.39	324.31	62.67	-38.0	-39.6	16.5	0.00e+00	0	62	0	1034944512	47	4389
2026-01-28 00:08:00.40	323.44	62.90	-38.1	-39.7	16.4	0.00e+00	0	61	0	1038090240	47	4426
2026-01-28 00:08:01.41	322.55	63.12	-37.9	-39.6	16.6	0.00e+00	0	61	0	1041235968	47	4345
2026-01-28 00:08:02.42	321.64	63.33	-38.0	-39.7	16.5	0.00e+00	0	61	0	1044381696	47	4413
2026-01-28 00:08:03.43	320.72	63.54	-38.3	-40.0	16.1	0.00e+00	0	61	0	1047527424	47	4572
2026-01-28 00:08:04.44	319.78	63.75	-38.3	-40.0	16.1	0.00e+00	0	62	0	1050673152	47	4586
2026-01-28 00:08:05.45	318.82	63.95	-38.3	-40.0	16.2	0.00e+00	0	62	0	1053818880	47	4569
2026-01-28 00:08:06.46	317.85	64.14	-38.0	-39.7	16.4	0.00e+00	0	61	0	1056964608	47	4410
2026-01-28 00:08:07.47	316.86	64.33	-37.9	-39.5	16.6	0.00e+00	0	61	0	1060110336	47	4313
2026-01-28 00:08:08.48	315.86	64.51	-37.9	-39.5	16.7	0.00e+00	0	61	0	1063256064	47	4302
2026-01-28 00:08:09.49	314.84	64.68	-38.0	-39.6	16.5	0.00e+00	0	62	0	1066401792	47	4368
2026-01-28 00:08:10.50	313.80	64.85	-38.2	-39.9	16.2	0.00e+00	0	61	0	1069547520	47	4519
2026-01-28 00:08:11.51	312.75	65.01	-38.4	-40.2	16.0	0.00e+00	0	61	0	1072693248	47	4659
2026-01-28 00:08:12.52	311.69	65.16	-38.1	-39.8	16.3	0.00e+00	0	61	0	1075838976	47	4469
2026-01-28 00:08:13.54	310.60	65.31	-37.9	-39.5	16.5	0.00e+00	0	62	0	1078984704	47	4334
2026-01-28 00:08:14.55	309.50	65.44	-38.0	-39.7	16.4	0.00e+00	0	62	0	1082130432	47	4420
2026-01-28 00:08:15.56	308.40	65.57	-37.9	-39.5	16.5	0.00e+00	0	62	0	1085276160	47	4319
2026-01-28 00:08:16.57	307.28	65.69	-37.8	-39.4	16.7	0.00e+00	0	62	0	1088421888	47	4256
2026-01-28 00:08:17.58	306.15	65.81	-37.6	-39.1	17.0	0.00e+00	0	62	0	1091567616	47	4118
2026-01-28 00:08:18.59	305.00	65.91	-37.6	-39.1	17.0	0.00e+00	0	62	0	1094713344	46	4354
2026-01-28 00:08:19.60	303.85	66.01	-37.6	-39.1	17.0	0.00e+00	0	61	0	1097859072	46	4387
2026-01-28 00:08:20.61	302.69	66.09	-37.3	-38.7	17.3	0.00e+00	0	61	0	1101004800	46	4186
2026-01-28 00:08:21.62	301.52	66.17	-37.1	-38.6	17.5	0.00e+00	0	61	0	1104150528	46	4111
2026-01-28 00:08:22.63	300.34	66.24	-37.5	-39.0	17.1	0.00e+00	0	62	0	1107296256	46	4314
2026-01-28 00:08:23.64	299.15	66.30	-37.7	-39.2	16.8	0.00e+00	0	61	0	1110441984	46	4434
2026-01-28 00:08:24.65	297.96	66.35	-37.7	-39.2	16.9	0.00e+00	0	62	0	1113587712	46	4438
2026-01-28 00:08:25.66	296.76	66.39	-37.9	-39.5	16.6	0.00e+00	0	62	0	1116733440	46	4570
2026-01-28 00:08:26.67	295.56	66.42	-37.9	-39.5	16.6	0.00e+00	0	62	0	1119879168	46	4555
2026-01-28 00:08:27.68	294.35	66.44	-37.6	-39.2	16.9	0.00e+00	0	61	0	1123024896	46	4400
2026-01-28 00:08:28.69	293.14	66.45	-37.5	-39.0	17.1	0.00e+00	0	61	0	1126170624	46	4308
2026-01-28 00:08:29.70	291.94	66.45	-37.8	-39.4	16.7	0.00e+00	0	61	0	1129316352	46	4530
2026-01-28 00:08:30.71	290.73	66.45	-38.0	-39.7	16.4	0.00e+00	0	62	0	1132462080	46	4658
2026-01-28 00:08:31.72	289.52	66.43	-37.8	-39.4	16.6	0.00e+00	0	62	0	1135607808	46	4511
2026-01-28 00:08:32.73	288.32	66.40	-37.6	-39.1	16.9	0.00e+00	0	62	0	1139802112	46	4374
2026-01-28 00:08:33.74	287.12	66.37	-37.6	-39.1	16.9	0.00e+00	0	61	0	1142947840	46	4364
2026-01-28 00:08:34.75	285.92	66.32	-37.9	-39.6	16.4	0.00e+00	0	62	0	1146093568	46	4616
2026-01-28 00:08:35.77	284.72	66.27	-38.4	-40.2	15.8	0.00e+00	0	62	0	1148190720	47	4687
2026-01-28 00:08:36.78	283.53	66.20	-38.5	-40.3	15.8	0.00e+00	0	62	0	1151336448	47	4723
2026-01-28 00:08:37.79	282.36	66.13	-38.4	-40.2	15.9	0.00e+00	0	62	0	1155530752	47	4686
2026-01-28 00:08:38.80	281.19	66.05	-38.1	-39.8	16.3	0.00e+00	0	61	0	1158676480	47	4463
2026-01-28 00:08:39.81	280.03	65.96	-37.7	-39.2	16.8	0.00e+00	0	61	0	1161822208	47	4192
2026-01-28 00:08:40.82	278.88	65.86	-37.8	-39.4	16.7	0.00e+00	0	61	0	1164967936	47	4275
2026-01-28 00:08:41.83	277.74	65.75	-38.0	-39.7	16.4	0.00e+00	0	62	0	1168113664	47	4408
2026-01-28 00:08:42.84	276.62	65.63	-38.0	-39.6	16.4	0.00e+00	0	62	0	1171259392	47	4366
2026-01-28 00:08:43.85	275.50	65.51	-37.8	-39.5	16.6	0.00e+00	0	61	0	1174405120	47	4294
2026-01-28 00:08:44.86	274.40	65.38	-37.7	-39.3	16.8	0.00e+00	0	62	0	1177550848	47	4228
2026-01-28 00:08:45.87	273.31	65.23	-37.7	-39.3	16.8	0.00e+00	0	62	0	1180696576	47	4202
2026-01-28 00:08:46.88	272.24	65.09	-37.9	-39.6	16.4	0.00e+00	0	62	0	1183842304	47	4344
2026-01-28 00:08:47.89	271.18	64.93	-38.0	-39.7	16.4	0.00e+00	0	62	0	1186988032	47	4418
2026-01-28 00:08:48.90	270.14	64.77	-38.2	-39.9	16.1	0.00e+00	0	61	0	1190133760	47	4543
2026-01-28 00:08:49.91	269.11	64.60	-38.2	-39.9	16.2	0.00e+00	0	62	0	1193279488	47	4504
2026-01-28 00:08:50.92	268.10	64.42	-38.1	-39.8	16.3	0.00e+00	0	62	0	1196425216	47	4477
2026-01-28 00:08:51.93	267.10	64.23	-38.2	-39.9	16.2	0.00e+00	0	62	0	1199570944	47	4522
2026-01-28 00:08:52.94	266.12	64.04	-38.3	-40.0	16.1	0.00e+00	0	62	0	1202716672	47	4571
2026-01-28 00:08:53.95	265.15	63.85	-38.1	-39.7	16.4	0.00e+00	0	62	0	1205862400	47	4436
2026-01-28 00:08:54.97	264.19	63.64	-37.9	-39.6	16.5	0.00e+00	0	62	0	1209008128	47	4349
2026-01-28 00:08:55.98	263.26	63.43	-37.8	-39.4	16.7	0.00e+00	0	62	0	1212153856	47	4262
2026-01-28 00:08:56.98	262.36	63.22	-37.7	-39.2	16.8	0.00e+00	0	62	0	1215299584	47	4180
2026-01-28 00:08:58.00	261.45	63.00	-37.6	-39.2	16.9	0.00e+00	0	62	0	1218445312	47	4154
2026-01-28 00:08:59.01	260.57	62.78	-37.8	-39.4	16.6	0.00e+00	0	62	0	1221591040	47	4278
2026-01-28 00:09:00.02	259.70	62.55	-38.4	-40.1	15.9	0.00e+00	0	62	0	1224736768	47	4651
2026-01-28 00:09:01.03	258.85	62.31	-38.5	-40.3	15.8	0.00e+00	0	62	0	1227882496	47	4745
2026-01-28 00:09:02.04	258.02	62.07	-38.5	-40.3	15.8	0.00e+00	0	62	0	1231028224	47	4742
2026-01-28 00:09:03.05	257.20	61.83	-38.6	-40.4	15.6	0.00e+00	0	62	0	1234173952	47	4812
2026-01-28 00:09:04.06	256.40	61.58	-38.8	-40.6	15.7	0.00e+00	0	62	0	1237319680	48	4611
2026-01-28 00:09:05.07	255.62	61.33	-38.5	-40.2	16.0	0.00e+00	0	61	0	1240465408	48	4426
2026-01-28 00:09:06.08	254.85	61.08	-38.3	-39.9	16.3	0.00e+00	0	61	0	1243611136	48	4285
2026-01-28 00:09:07.09	254.10	60.82	-38.0	-39.6	16.7	0.00e+00	0	62	0	1246756864	48	4112
2026-01-28 00:09:08.10	253.36	60.56	-38.0	-39.6	16.5	0.00e+00	0	62	0	1249902592	47	4378
2026-01-28 00:09:09.11	252.64	60.30	-38.2	-39.9	16.2	0.00e+00	0	62	0	1253048320	47	4523
2026-01-28 00:09:10.13	251.92	60.03	-38.2	-39.9	16.2	0.00e+00	0	62	0	1256194048	47	4534
2026-01-28 00:09:11.14	251.23	59.76	-38.2	-39.9	16.2	0.00e+00	0	62	0	1259339776	47	4532
2026-01-28 00:09:12.15	250.55	59.49	-37.9	-39.5	16.7	0.00e+00	0	62	0	1262485504	47	4298
2026-01-28 00:09:13.16	249.89	59.21	-38.0	-39.6	16.4	0.00e+00	0	62	0	1265631232	47	4386
2026-01-28 00:09:14.17	249.24	58.93	-38.5	-40.3	15.8	0.00e+00	0	62	0	1268776960	47	4727
2026-01-28 00:09:15.18	248.60	58.66	-38.8	-40.7	15.5	0.00e+00	0	62	0	1271922688	48	4660
2026-01-28 00:09:16.19	247.98	58.37	-38.9	-40.7	15.4	0.00e+00	0	62	0	1275068416	48	4686
2026-01-28 00:09:17.20	247.37	58.09	-38.9	-40.8	15.3	0.00e+00	0	62	0	1278214144	48	4713
2026-01-28 00:09:18.21	246.77	57.81	-38.5	-40.3	15.8	0.00e+00	0	62	0	1281359872	48	4457
2026-01-28 00:09:19.22	246.18	57.52	-38.4	-40.1	16.0	0.00e+00	0	62	0	1284505600	48	4378
2026-01-28 00:09:20.23	245.61	57.23	-38.7	-40.5	15.6	0.00e+00	0	62	0	1287651328	48	4585
2026-01-28 00:09:21.24	245.05	56.95	-39.3	-41.3	14.8	0.00e+00	0	62	0	1290797056	49	4746
2026-01-28 00:09:22.25	244.50	56.66	-39.5	-41.6	14.7	7.00e-07	0	62	0	1293942784	49	4889
2026-01-28 00:09:23.27	243.96	56.36	-39.3	-41.3	14.9	0.00e+00	0	62	0	1297088512	49	4754
2026-01-28 00:09:24.28	243.43	56.07	-38.9	-40.7	15.4	7.00e-07	0	62	0	1300234240	49	4427
2026-01-28 00:09:25.29	242.92	55.78	-39.0	-40.8	15.3	0.00e+00	0	62	0	1303379968	49	4477
2026-01-28 00:09:26.30	242.41	55.49	-38.8	-40.6	15.6	0.00e+00	0	62	0	1306525696	49	4379
2026-01-28 00:09:27.31	241.92	55.19	-38.5	-40.3	15.9	0.00e+00	0	62	0	1309671424	49	4194
2026-01-28 00:09:28.32	241.43	54.90	-38.3	-39.9	16.3	0.00e+00	0	62	0	1312817152	48	4287
2026-01-28 00:09:29.33	240.96	54.61	-38.7	-40.5	15.7	0.00e+00	0	62	0	1315962880	48	4557
2026-01-28 00:09:30.34	240.49	54.31	-40.0	-42.2	14.1	0.00e+00	0	62	0	1319108608	50	4941
2026-01-28 00:09:31.35	240.04	54.02	-40.5	-43.0	13.3	1.37e-05	0	62	0	1322254336	51	5104
2026-01-28 00:09:32.36	239.59	53.72	-40.2	-42.4	13.7	8.30e-06	0	62	0	1325400064	51	4800
2026-01-28 00:09:33.37	239.16	53.43	-39.5	-41.5	14.5	2.20e-06	0	62	0	1328545792	51	4327
2026-01-28 00:09:34.38	238.73	53.13	-39.2	-41.1	14.9	0.00e+00	0	62	0	1331691520	50	4378
2026-01-28 00:09:35.39	238.31	52.84	-39.2	-41.1	14.9	0.00e+00	0	62	0	1334837248	50	4377
2026-01-28 00:09:36.40	237.90	52.54	-39.6	-41.7	14.4	0.00e+00	0	62	0	1337982976	50	4667
2026-01-28 00:09:37.42	237.49	52.24	-40.1	-42.3	13.9	7.00e-07	0	62	0	1341128704	50	5003
2026-01-28 00:09:38.43	237.10	51.95	-40.0	-42.1	14.0	4.50e-06	0	62	0	1344274432	50	4925
2026-01-28 00:09:39.44	236.71	51.66	-39.8	-41.9	14.2	1.50e-06	0	62	0	1347420160	50	4812
2026-01-28 00:09:40.45	236.33	51.36	-40.4	-42.8	13.3	3.80e-06	0	62	0	1350565888	51	5029
2026-01-28 00:09:41.46	235.96	51.07	-40.6	-43.1	13.1	3.96e-05	0	62	0	1353711616	51	5212
2026-01-28 00:09:42.47	235.60	50.78	-40.3	-42.6	13.5	1.06e-05	0	62	0	1356857344	51	4882
2026-01-28 00:09:43.48	235.24	50.49	-39.9	-42.0	14.0	1.50e-06	0	62	0	1360003072	51	4586
2026-01-28 00:09:44.49	234.89	50.20	-39.6	-41.7	14.5	7.00e-07	0	62	0	1363148800	51	4407
2026-01-28 00:09:45.50	234.54	49.91	-39.7	-41.8	14.4	7.00e-07	0	62	0	1366294528	51	4474
2026-01-28 00:09:46.51	234.21	49.62	-40.2	-42.6	13.7	5.30e-06	0	62	0	1369440256	51	4872
2026-01-28 00:09:47.53	233.87	49.33	-40.4	-42.8	13.4	1.75e-05	0	62	0	1372585984	51	5023
2026-01-28 00:09:48.54	233.55	49.04	-40.5	-43.0	13.2	1.98e-05	0	62	0	1375731712	51	5122
2026-01-28 00:09:49.55	233.23	48.75	-40.7	-43.4	12.8	5.72e-05	0	62	0	1378877440	52	5042
2026-01-28 00:09:50.56	232.92	48.47	-41.1	-43.9	12.2	1.88e-04	0	62	0	1382023168	52	5351
2026-01-28 00:09:51.57	232.61	48.18	-41.4	-44.4	11.7	4.73e-04	0	62	0	1385168896	53	5351
2026-01-28 00:09:52.58	232.31	47.90	-41.4	-44.5	11.5	8.77e-04	0	62	0	1388314624	53	5440
2026-01-28 00:09:53.59	232.01	47.61	-41.2	-44.1	11.9	5.20e-04	0	62	0	1391460352	53	5200
2026-01-28 00:09:54.60	231.72	47.33	-41.0	-43.7	12.3	2.88e-04	0	62	0	1394606080	53	4962
2026-01-28 00:09:55.61	231.44	47.05	-40.7	-43.3	12.7	9.53e-05	0	62	0	1397751808	53	4739
2026-01-28 00:09:56.62	231.16	46.77	-40.3	-42.7	13.3	2.13e-05	0	62	0	1400897536	52	4691
2026-01-28 00:09:57.63	230.88	46.49	-40.1	-42.4	13.7	7.60e-06	0	62	0	1405091840	52	4541
2026-01-28 00:09:58.64	230.61	46.22	-40.5	-43.0	13.1	2.21e-05	0	62	0	1408237568	52	4858
2026-01-28 00:09:59.65	230.35	45.94	-41.0	-43.9	12.3	1.11e-04	0	62	0	1411383296	52	5347
2026-01-28 00:10:00.66	230.08	45.66	-41.3	-44.3	11.8	4.33e-04	0	62	0	1414529024	53	5287
2026-01-28 00:10:01.67	229.83	45.39	-41.0	-43.8	12.2	3.27e-04	0	62	0	1416626176	53	5012
2026-01-28 00:10:02.68	229.58	45.12	-40.7	-43.3	12.7	8.31e-05	0	62	0	1420820480	53	4727
2026-01-28 00:10:03.69	229.33	44.85	-40.5	-43.0	13.1	3.12e-05	0	62	0	1423966208	53	4564
2026-01-28 00:10:04.70	229.08	44.58	-40.3	-42.7	13.4	1.75e-05	0	62	0	1427111936	52	4681
2026-01-28 00:10:05.72	228.84	44.30	-40.3	-42.7	13.5	1.14e-05	0	62	0	1430257664	52	4680
2026-01-28 00:10:06.72	228.61	44.04	-40.3	-42.6	13.4	1.44e-05	0	62	0	1433403392	52	4647
2026-01-28 00:10:07.74	228.38	43.77	-40.4	-42.8	13.3	2.44e-05	0	62	0	1436549120	52	4708
2026-01-28 00:10:08.74	228.15	43.51	-40.2	-42.6	13.5	1.83e-05	0	62	0	1439694848	52	4622
2026-01-28 00:10:09.76	227.93	43.24	-40.0	-42.2	13.9	3.80e-06	0	62	0	1442840576	52	4422
2026-01-28 00:10:10.77	227.71	42.98	-40.0	-42.2	14.0	1.50e-06	0	62	0	1445986304	51	4666
2026-01-28 00:10:11.78	227.49	42.72	-40.4	-42.8	13.4	1.14e-05	0	62	0	1449132032	51	5019
2026-01-28 00:10:12.79	227.28	42.46	-40.9	-43.7	12.4	1.02e-04	0	62	0	1452277760	52	5244
2026-01-28 00:10:13.80	227.07	42.20	-41.4	-44.4	11.6	4.16e-04	0	62	0	1455423488	53	5393
2026-01-28 00:10:14.81	226.86	41.94	-41.6	-44.8	11.2	1.22e-03	0	62	0	1458569216	53	5640
2026-01-28 00:10:15.82	226.66	41.69	-41.6	-44.9	11.1	1.47e-03	0	62	0	1461714944	53	5662
2026-01-28 00:10:16.83	226.46	41.43	-41.3	-44.3	11.6	8.64e-04	0	62	0	1464860672	53	5339
2026-01-28 00:10:17.84	226.26	41.18	-40.7	-43.3	12.7	1.23e-04	0	62	0	1468006400	53	4756
2026-01-28 00:10:18.85	226.07	40.93	-40.4	-42.8	13.3	1.44e-05	0	62	0	1471152128	52	4716
2026-01-28 00:10:19.86	225.88	40.68	-40.4	-42.8	13.2	1.22e-05	0	62	0	1474297856	52	4753
2026-01-28 00:10:20.87	225.69	40.43	-40.6	-43.1	13.0	4.57e-05	0	62	0	1477443584	52	4895
2026-01-28 00:10:21.88	225.51	40.18	-40.3	-42.8	13.3	1.67e-05	0	62	0	1480589312	52	4721
2026-01-28 00:10:22.89	225.32	39.94	-40.3	-42.8	13.3	1.52e-05	0	62	0	1483735040	52	4717
2026-01-28 00:10:23.90	225.15	39.69	-40.2	-42.6	13.5	6.10e-06	0	62	0	1486880768	52	4634
2026-01-28 00:10:24.91	224.97	39.45	-40.2	-42.5	13.6	9.90e-06	0	62	0	1490026496	52	4581
2026-01-28 00:10:25.92	224.80	39.21	-40.2	-42.6	13.5	7.60e-06	0	62	0	1493172224	52	4609
2026-01-28 00:10:26.93	224.62	38.97	-40.2	-42.6	13.5	1.44e-05	0	62	0	1496317952	52	4635
2026-01-28 00:10:27.94	224.46	38.73	-40.5	-42.9	13.2	1.67e-05	0	62	0	1499463680	52	4803
2026-01-28 00:10:28.96	224.29	38.49	-40.6	-43.1	13.0	3.28e-05	0	62	0	1502609408	52	4900
2026-01-28 00:10:29.97	224.13	38.25	-40.8	-43.5	12.6	8.46e-05	0	62	0	1505755136	52	5105
2026-01-28 00:10:30.98	223.96	38.01	-40.7	-43.4	12.7	7.55e-05	0	62	0	1508900864	52	5063
2026-01-28 00:10:31.99	223.81	37.78	-40.6	-43.2	12.9	5.72e-05	0	62	0	1512046592	52	4975
2026-01-28 00:10:33.00	223.65	37.55	-40.5	-43.0	13.1	2.89e-05	0	62	0	1515192320	52	4857
2026-01-28 00:10:34.01	223.49	37.32	-40.4	-42.9	13.2	2.82e-05	0	62	0	1518338048	52	4788
2026-01-28 00:10:35.02	223.34	37.09	-40.3	-42.7	13.4	2.97e-05	0	62	0	1521483776	52	4663
2026-01-28 00:10:36.03	223.19	36.86	-40.0	-42.3	13.8	1.22e-05	0	62	0	1524629504	51	4718
2026-01-28 00:10:37.04	223.04	36.63	-39.9	-42.0	14.1	3.00e-06	0	62	0	1527775232	51	4585
2026-01-28 00:10:38.05	222.90	36.41	-39.9	-42.0	14.0	2.20e-06	0	62	0	1530920960	51	4596
2026-01-28 00:10:39.06	222.76	36.18	-40.0	-42.3	13.8	5.30e-06	0	62	0	1534066688	51	4720
2026-01-28 00:10:40.07	222.61	35.96	-40.4	-42.8	13.4	6.80e-06	0	62	0	1537212416	51	5003
2026-01-28 00:10:41.08	222.47	35.74	-40.6	-43.1	13.0	2.67e-05	0	62	0	1540358144	51	5197
2026-01-28 00:10:42.09	222.34	35.52	-40.6	-43.2	13.0	2.59e-05	0	62	0	1543503872	51	5235
2026-01-28 00:10:43.10	222.20	35.30	-40.5	-42.9	13.2	1.75e-05	0	62	0	1546649600	51	5097
2026-01-28 00:10:44.11	222.07	35.08	-40.4	-42.8	13.3	1.52e-05	0	62	0	1549795328	51	5007
2026-01-28 00:10:45.12	221.93	34.87	-40.4	-42.8	13.4	1.29e-05	0	62	0	1552941056	51	4997
2026-01-28 00:10:46.14	221.80	34.65	-40.3	-42.7	13.4	2.13e-05	0	62	0	1556086784	51	4944
2026-01-28 00:10:47.15	221.67	34.44	-40.3	-42.7	13.4	1.29e-05	0	62	0	1559232512	51	4976
2026-01-28 00:10:48.16	221.55	34.22	-40.4	-42.8	13.3	2.05e-05	0	62	0	1562378240	51	5004
2026-01-28 00:10:49.17	221.42	34.01	-40.3	-42.7	13.4	1.98e-05	0	62	0	1565523968	51	4964
2026-01-28 00:10:50.18	221.30	33.80	-40.2	-42.5	13.6	8.30e-06	0	62	0	1568669696	51	4837
2026-01-28 00:10:51.19	221.17	33.59	-40.0	-42.3	13.8	2.20e-06	0	62	0	1571815424	51	4742
2026-01-28 00:10:52.20	221.05	33.39	-39.9	-42.1	14.0	7.00e-07	0	62	0	1574961152	51	4634
2026-01-28 00:10:53.21	220.93	33.18	-39.7	-41.8	14.4	0.00e+00	0	62	0	1578106880	51	4469
2026-01-28 00:10:54.22	220.82	32.98	-39.5	-41.6	14.6	7.00e-07	0	62	0	1581252608	51	4350
2026-01-28 00:10:55.23	220.70	32.77	-39.4	-41.5	14.7	0.00e+00	0	62	0	1584398336	50	4548
2026-01-28 00:10:56.24	220.59	32.57	-39.3	-41.2	15.0	7.00e-07	0	62	0	1587544064	50	4418
2026-01-28 00:10:57.25	220.47	32.37	-39.2	-41.1	15.1	0.00e+00	0	62	0	1590689792	50	4352
2026-01-28 00:10:58.26	220.36	32.17	-39.2	-41.1	15.1	0.00e+00	0	62	0	1593835520	50	4381
2026-01-28 00:10:59.27	220.25	31.97	-39.1	-41.0	15.2	0.00e+00	0	62	0	1596981248	50	4316
2026-01-28 00:11:00.28	220.14	31.77	-39.2	-41.2	15.0	0.00e+00	0	62	0	1600126976	50	4395
2026-01-28 00:11:01.29	220.03	31.58	-39.4	-41.4	14.8	0.00e+00	0	62	0	1603272704	50	4504
2026-01-28 00:11:02.30	219.93	31.38	-39.6	-41.7	14.5	0.00e+00	0	62	0	1606418432	50	4658
2026-01-28 00:11:03.31	219.82	31.19	-39.6	-41.7	14.5	7.00e-07	0	62	0	1609564160	50	4695
2026-01-28 00:11:04.33	219.72	30.99	-39.6	-41.7	14.5	7.00e-07	0	62	0	1612709888	50	4693
2026-01-28 00:11:05.34	219.62	30.80	-39.5	-41.6	14.6	7.00e-07	0	62	0	1615855616	50	4608
2026-01-28 00:11:06.35	219.52	30.61	-39.6	-41.7	14.5	7.00e-07	0	62	0	1619001344	50	4658
2026-01-28 00:11:07.36	219.42	30.42	-39.4	-41.4	14.8	0.00e+00	0	62	0	1622147072	50	4537
2026-01-28 00:11:08.37	219.32	30.23	-39.2	-41.2	15.0	7.00e-07	0	62	0	1625292800	50	4427
2026-01-28 00:11:09.38	219.22	30.05	-39.2	-41.2	15.0	0.00e+00	0	62	0	1628438528	50	4424
2026-01-28 00:11:10.39	219.12	29.86	-39.2	-41.2	15.0	0.00e+00	0	62	0	1631584256	50	4402
2026-01-28 00:11:11.40	219.03	29.68	-38.9	-40.8	15.2	0.00e+00	0	62	0	1634729984	49	4462
2026-01-28 00:11:12.41	218.93	29.49	-38.9	-40.7	15.3	0.00e+00	0	62	0	1637875712	49	4437
2026-01-28 00:11:13.42	218.84	29.31	-38.9	-40.8	15.2	0.00e+00	0	62	0	1641021440	49	4467
2026-01-28 00:11:14.43	218.75	29.13	-38.9	-40.8	15.1	0.00e+00	0	62	0	1644167168	49	4493
2026-01-28 00:11:15.45	218.66	28.95	-39.0	-40.9	15.0	0.00e+00	0	62	0	1647312896	49	4540
2026-01-28 00:11:16.46	218.57	28.77	-39.1	-41.0	15.0	0.00e+00	0	62	0	1650458624	49	4580
2026-01-28 00:11:17.47	218.48	28.59	-39.0	-41.0	15.1	0.00e+00	0	62	0	1653604352	49	4546
2026-01-28 00:11:18.48	218.39	28.41	-38.9	-40.8	15.3	0.00e+00	0	62	0	1656750080	49	4454
2026-01-28 00:11:19.49	218.30	28.24	-38.8	-40.6	15.4	0.00e+00	0	62	0	1659895808	49	4391
2026-01-28 00:11:20.50	218.22	28.06	-38.9	-40.8	15.3	0.00e+00	0	62	0	1663041536	49	4446
2026-01-28 00:11:21.51	218.13	27.89	-38.8	-40.7	15.4	0.00e+00	0	62	0	1666187264	49	4404
2026-01-28 00:11:22.52	218.05	27.71	-38.7	-40.5	15.5	0.00e+00	0	62	0	1669332992	49	4339
2026-01-28 00:11:23.53	217.96	27.54	-38.7	-40.6	15.5	0.00e+00	0	62	0	1673527296	49	4356
2026-01-28 00:11:24.54	217.88	27.37	-38.8	-40.7	15.4	0.00e+00	0	62	0	1676673024	49	4394
2026-01-28 00:11:25.55	217.80	27.20	-38.8	-40.6	15.5	0.00e+00	0	62	0	1679818752	49	4376
2026-01-28 00:11:26.56	217.72	27.03	-38.7	-40.6	15.6	0.00e+00	0	62	0	1682964480	49	4347
2026-01-28 00:11:27.57	217.64	26.86	-38.8	-40.7	15.5	0.00e+00	0	62	0	1685061632	49	4392
2026-01-28 00:11:28.58	217.56	26.70	-38.8	-40.7	15.4	0.00e+00	0	62	0	1689255936	49	4403
2026-01-28 00:11:29.60	217.48	26.53	-38.9	-40.8	15.3	0.00e+00	0	62	0	1692401664	49	4473
2026-01-28 00:11:30.61	217.41	26.36	-39.0	-40.9	15.2	0.00e+00	0	62	0	1695547392	49	4513
2026-01-28 00:11:31.62	217.33	26.20	-39.0	-40.9	15.2	0.00e+00	0	62	0	1698693120	49	4541
2026-01-28 00:11:32.63	217.25	26.03	-38.9	-40.8	15.3	0.00e+00	0	62	0	1701838848	49	4462
2026-01-28 00:11:33.64	217.18	25.87	-38.9	-40.8	15.4	0.00e+00	0	62	0	1704984576	49	4444
2026-01-28 00:11:34.65	217.11	25.71	-38.8	-40.6	15.5	0.00e+00	0	62	0	1708130304	49	4376
2026-01-28 00:11:35.66	217.03	25.55	-38.7	-40.5	15.6	0.00e+00	0	62	0	1711276032	49	4327
2026-01-28 00:11:36.67	216.96	25.39	-38.7	-40.5	15.6	0.00e+00	0	62	0	1714421760	49	4318
2026-01-28 00:11:37.68	216.89	25.23	-38.5	-40.3	15.7	0.00e+00	0	62	0	1717567488	49	4239
2026-01-28 00:11:38.69	216.82	25.07	-38.4	-40.1	15.9	0.00e+00	0	62	0	1720713216	48	4383
2026-01-28 00:11:39.70	216.75	24.92	-38.3	-40.0	16.0	0.00e+00	0	62	0	1723858944	48	4337
2026-01-28 00:11:40.71	216.68	24.76	-38.3	-40.1	16.0	0.00e+00	0	62	0	1727004672	48	4342
2026-01-28 00:11:41.72	216.61	24.61	-38.3	-40.1	16.0	0.00e+00	0	62	0	1730150400	48	4356
2026-01-28 00:11:42.73	216.54	24.45	-38.4	-40.1	15.9	0.00e+00	0	62	0	1733296128	48	4362
2026-01-28 00:11:43.74	216.47	24.30	-38.4	-40.2	15.9	0.00e+00	0	62	0	1736441856	48	4394
2026-01-28 00:11:44.76	216.41	24.14	-38.4	-40.1	15.9	0.00e+00	0	62	0	1739587584	48	4366
2026-01-28 00:11:45.76	216.34	23.99	-38.4	-40.2	15.9	0.00e+00	0	62	0	1742733312	48	4407
2026-01-28 00:11:46.77	216.28	23.84	-38.5	-40.3	15.8	0.00e+00	0	62	0	1745879040	48	4451
2026-01-28 00:11:47.78	216.21	23.69	-38.6	-40.4	15.6	0.00e+00	0	62	0	1749024768	48	4532
2026-01-28 00:11:48.80	216.15	23.54	-38.6	-40.4	15.6	0.00e+00	0	62	0	1752170496	48	4537
2026-01-28 00:11:49.81	216.08	23.39	-38.6	-40.5	15.5	0.00e+00	0	62	0	1755316224	48	4563
2026-01-28 00:11:50.82	216.02	23.25	-38.6	-40.4	15.5	0.00e+00	0	62	0	1758461952	48	4544
2026-01-28 00:11:51.83	215.96	23.10	-38.6	-40.4	15.6	0.00e+00	0	62	0	1761607680	48	4544
2026-01-28 00:11:52.84	215.90	22.95	-38.6	-40.5	15.5	0.00e+00	0	62	0	1764753408	48	4555
2026-01-28 00:11:53.85	215.84	22.81	-38.7	-40.6	15.4	0.00e+00	0	62	0	1767899136	48	4621
2026-01-28 00:11:54.86	215.78	22.66	-38.7	-40.6	15.4	0.00e+00	0	62	0	1771044864	48	4600
2026-01-28 00:11:55.87	215.72	22.52	-38.7	-40.6	15.5	0.00e+00	0	62	0	1774190592	48	4601
2026-01-28 00:11:56.88	215.66	22.38	-38.8	-40.7	15.4	0.00e+00	0	62	0	1777336320	48	4652
2026-01-28 00:11:57.89	215.60	22.23	-38.8	-40.7	15.3	7.00e-07	0	62	0	1780482048	48	4654
2026-01-28 00:11:58.90	215.54	22.09	-38.9	-40.8	15.2	0.00e+00	0	62	0	1783627776	48	4737
2026-01-28 00:11:59.91	215.48	21.95	-38.9	-40.8	15.2	0.00e+00	0	62	0	1786773504	48	4716
2026-01-28 00:12:00.92	215.43	21.81	-38.8	-40.8	15.2	0.00e+00	0	62	0	1789919232	48	4706
2026-01-28 00:12:01.93	215.37	21.67	-38.8	-40.7	15.3	0.00e+00	0	62	0	1793064960	48	4703
2026-01-28 00:12:02.94	215.31	21.53	-38.8	-40.7	15.3	0.00e+00	0	62	0	1796210688	48	4664
2026-01-28 00:12:03.95	215.26	21.40	-38.7	-40.5	15.4	0.00e+00	0	62	0	1799356416	48	4593
2026-01-28 00:12:04.96	215.20	21.26	-38.7	-40.5	15.5	0.00e+00	0	62	0	1802502144	48	4593
2026-01-28 00:12:05.97	215.15	21.12	-38.7	-40.6	15.4	0.00e+00	0	62	0	1805647872	48	4609
2026-01-28 00:12:06.99	215.10	20.99	-38.6	-40.4	15.5	0.00e+00	0	62	0	1808793600	48	4539
2026-01-28 00:12:08.00	215.04	20.85	-38.6	-40.5	15.5	0.00e+00	0	62	0	1811939328	48	4571
2026-01-28 00:12:09.01	214.99	20.72	-38.7	-40.6	15.4	0.00e+00	0	62	0	1815085056	48	4604
2026-01-28 00:12:10.02	214.94	20.58	-38.6	-40.5	15.5	0.00e+00	0	62	0	1818230784	48	4561
2026-01-28 00:12:11.03	214.88	20.45	-38.7	-40.6	15.4	0.00e+00	0	62	0	1821376512	48	4613
2026-01-28 00:12:12.04	214.83	20.32	-38.7	-40.6	15.4	0.00e+00	0	62	0	1824522240	48	4635
2026-01-28 00:12:13.05	214.78	20.19	-38.7	-40.6	15.4	0.00e+00	0	62	0	1827667968	48	4616
2026-01-28 00:12:14.06	214.73	20.06	-38.7	-40.6	15.4	0.00e+00	0	62	0	1830813696	48	4599
2026-01-28 00:12:15.07	214.68	19.93	-38.7	-40.6	15.4	0.00e+00	0	62	0	1833959424	48	4616
2026-01-28 00:12:16.08	214.63	19.80	-38.8	-40.7	15.3	0.00e+00	0	62	0	1837105152	48	4652
2026-01-28 00:12:17.09	214.58	19.67	-38.8	-40.7	15.3	0.00e+00	0	62	0	1840250880	48	4674
2026-01-28 00:12:18.10	214.53	19.54	-38.8	-40.7	15.2	0.00e+00	0	62	0	1843396608	48	4680
2026-01-28 00:12:19.11	214.49	19.41	-38.8	-40.7	15.2	7.00e-07	0	62	0	1846542336	48	4698
2026-01-28 00:12:20.12	214.44	19.28	-38.9	-40.8	15.1	7.00e-07	0	62	0	1849688064	48	4740
2026-01-28 00:12:21.13	214.39	19.16	-38.9	-40.8	15.1	0.00e+00	0	62	0	1852833792	48	4748
2026-01-28 00:12:22.14	214.34	19.03	-38.9	-40.9	15.1	0.00e+00	0	62	0	1855979520	48	4765
2026-01-28 00:12:23.15	214.30	18.91	-39.0	-40.9	15.0	0.00e+00	0	62	0	1859125248	48	4809
2026-01-28 00:12:24.16	214.25	18.78	-39.0	-41.0	15.0	0.00e+00	0	62	0	1862270976	48	4817
2026-01-28 00:12:25.18	214.20	18.66	-39.1	-41.0	14.9	0.00e+00	0	62	0	1865416704	48	4868
2026-01-28 00:12:26.19	214.16	18.53	-39.1	-41.1	14.8	0.00e+00	0	62	0	1868562432	48	4894
2026-01-28 00:12:27.20	214.11	18.41	-39.1	-41.2	14.8	7.00e-07	0	62	0	1871708160	48	4929
2026-01-28 00:12:28.21	214.07	18.29	-39.1	-41.0	14.9	0.00e+00	0	62	0	1874853888	48	4867
2026-01-28 00:12:29.22	214.02	18.17	-39.1	-41.1	14.8	0.00e+00	0	62	0	1877999616	48	4922
2026-01-28 00:12:30.23	213.98	18.05	-39.1	-41.1	14.8	0.00e+00	0	62	0	1881145344	48	4924
2026-01-28 00:12:31.24	213.94	17.93	-39.1	-41.1	14.8	7.00e-07	0	62	0	1884291072	48	4896
2026-01-28 00:12:32.25	213.89	17.81	-39.1	-41.2	14.7	7.00e-07	0	62	0	1887436800	48	4931
2026-01-28 00:12:33.26	213.85	17.69	-39.2	-41.2	14.6	0.00e+00	0	62	0	1890582528	48	4977
2026-01-28 00:12:34.27	213.81	17.57	-39.2	-41.3	14.6	7.00e-07	0	62	0	1893728256	48	4986
2026-01-28 00:12:35.28	213.77	17.45	-39.3	-41.3	14.5	0.00e+00	0	62	0	1896873984	49	4750
2026-01-28 00:12:36.29	213.72	17.33	-39.2	-41.2	14.6	0.00e+00	0	62	0	1900019712	49	4702
2026-01-28 00:12:37.30	213.68	17.22	-39.2	-41.3	14.5	7.00e-07	0	62	0	1903165440	49	4735
2026-01-28 00:12:38.31	213.64	17.10	-39.3	-41.3	14.5	1.50e-06	0	62	0	1906311168	49	4757
2026-01-28 00:12:39.32	213.60	16.98	-39.3	-41.4	14.5	1.50e-06	0	62	0	1909456896	49	4778
2026-01-28 00:12:40.33	213.56	16.87	-39.3	-41.5	14.4	2.20e-06	0	62	0	1912602624	49	4831
2026-01-28 00:12:41.34	213.52	16.75	-39.5	-41.6	14.2	0.00e+00	0	62	0	1915748352	49	4910
2026-01-28 00:12:42.35	213.48	16.64	-39.4	-41.6	14.2	3.00e-06	0	62	0	1918894080	49	4901
2026-01-28 00:12:43.37	213.44	16.52	-39.5	-41.7	14.2	0.00e+00	0	62	0	1922039808	49	4933
2026-01-28 00:12:44.38	213.40	16.41	-39.4	-41.6	14.2	2.20e-06	0	62	0	1925185536	49	4886
2026-01-28 00:12:45.39	213.36	16.30	-39.4	-41.6	14.2	0.00e+00	0	62	0	1928331264	49	4900
2026-01-28 00:12:46.40	213.32	16.18	-39.5	-41.7	14.1	7.00e-07	0	62	0	1931476992	49	4936
2026-01-28 00:12:47.41	213.29	16.07	-39.5	-41.7	14.1	3.00e-06	0	62	0	1934622720	49	4959
2026-01-28 00:12:48.42	213.25	15.96	-39.5	-41.7	14.1	2.20e-06	0	62	0	1937768448	49	4959
2026-01-28 00:12:49.43	213.21	15.85	-39.5	-41.7	14.1	3.00e-06	0	62	0	1940914176	49	4964
2026-01-28 00:12:50.44	213.17	15.74	-39.5	-41.7	14.1	2.20e-06	0	62	0	1945108480	49	4967
2026-01-28 00:12:51.45	213.14	15.63	-39.5	-41.7	14.1	2.20e-06	0	62	0	1948254208	49	4949
2026-01-28 00:12:52.46	213.10	15.52	-39.5	-41.8	14.0	2.20e-06	0	62	0	1950351360	49	4989
2026-01-28 00:12:53.47	213.06	15.41	-39.5	-41.7	14.1	1.50e-06	0	62	0	1953497088	49	4956
2026-01-28 00:12:54.48	213.03	15.30	-39.5	-41.7	14.1	4.50e-06	0	62	0	1956642816	49	4948
2026-01-28 00:12:55.49	212.99	15.20	-39.5	-41.7	14.1	5.30e-06	0	62	0	1960837120	49	4942
2026-01-28 00:12:56.50	212.95	15.09	-39.5	-41.6	14.2	0.00e+00	0	62	0	1963982848	49	4915
2026-01-28 00:12:57.51	212.92	14.98	-39.4	-41.6	14.1	3.80e-06	0	62	0	1967128576	49	4913
