passes_logs/2026/01/28/R2.0S_Moscow/R2.0S_Moscow__20260128_144109_FENGYUN_3E_rec.log

#Pass ID: 20260128_144109_FENGYUN 3E
#Satellite: FENGYUN 3E
#Configuration: FENGYUN 3E
#almurnet v.1.7.20251203
#Start time: 2026-01-28 14:41:09

#Version: 2.2.20231116
#Station: R2.0S_Moscow
#Location: 37.707566 lon 55.798166 lat
#TLE: 1 49008U 21062A   26027.83084825  .00000170  00000+0  10081-3 0  9997
#TLE: 2 49008  98.7501  32.8098 0002509 114.2687 245.8752 14.19888158236667

#Time	Az	El	Level	Level2	SNR	BER	BlckErr	Temp	State	Recorded	gain1	gain2
2026-01-28 14:41:09.24	174.75	2.01	-43.7	-54.6	3.8	8.46e-01	0	50	0	0	58	12320
2026-01-28 14:41:10.24	174.77	2.07	-43.7	-54.6	3.8	8.46e-01	0	50	104	0	58	12316
2026-01-28 14:41:11.25	174.80	2.13	-43.7	-54.6	3.8	8.46e-01	0	50	104	0	58	12275
2026-01-28 14:41:12.26	174.82	2.20	-43.7	-54.6	3.8	8.46e-01	0	50	104	0	58	12305
2026-01-28 14:41:13.28	174.85	2.26	-43.7	-54.5	3.8	8.45e-01	0	50	104	0	58	12223
2026-01-28 14:41:14.29	174.87	2.33	-43.7	-54.6	3.8	8.46e-01	0	50	104	0	58	12266
2026-01-28 14:41:15.30	174.90	2.39	-43.7	-54.6	3.8	8.46e-01	0	50	104	0	58	12330
2026-01-28 14:41:16.31	174.92	2.46	-43.7	-54.6	3.8	8.46e-01	0	50	104	0	58	12284
2026-01-28 14:41:17.32	174.95	2.52	-43.7	-54.6	3.8	8.46e-01	0	51	104	0	58	12294
2026-01-28 14:41:18.33	174.97	2.59	-43.7	-54.6	3.8	8.47e-01	0	50	104	0	58	12290
2026-01-28 14:41:19.34	175.00	2.65	-43.7	-54.6	3.8	8.45e-01	0	51	104	0	58	12285
2026-01-28 14:41:20.35	175.02	2.72	-43.7	-54.6	3.8	8.46e-01	0	51	104	0	58	12258
2026-01-28 14:41:21.36	175.05	2.78	-43.7	-54.6	3.8	8.45e-01	0	51	104	0	58	12287
2026-01-28 14:41:22.37	175.07	2.85	-43.7	-54.6	3.8	8.45e-01	0	51	104	0	58	12252
2026-01-28 14:41:23.38	175.10	2.92	-43.7	-54.6	3.8	8.47e-01	0	51	104	0	58	12280
2026-01-28 14:41:24.39	175.13	2.98	-43.7	-54.6	3.8	8.47e-01	0	51	104	0	58	12297
2026-01-28 14:41:25.40	175.15	3.05	-43.7	-54.6	3.8	8.46e-01	0	51	104	0	58	12284
2026-01-28 14:41:26.41	175.18	3.12	-43.7	-54.6	3.8	8.47e-01	0	51	104	0	58	12270
2026-01-28 14:41:27.42	175.20	3.18	-43.7	-54.6	3.8	8.46e-01	0	51	104	0	58	12263
2026-01-28 14:41:28.43	175.23	3.25	-43.7	-54.6	3.8	8.45e-01	0	51	104	0	58	12260
2026-01-28 14:41:29.44	175.26	3.32	-43.7	-54.6	3.8	8.47e-01	0	51	104	0	58	12266
2026-01-28 14:41:30.45	175.28	3.38	-43.7	-54.6	3.8	8.46e-01	0	51	104	0	58	12265
2026-01-28 14:41:31.46	175.31	3.45	-43.7	-54.6	3.8	8.46e-01	0	51	104	0	58	12257
2026-01-28 14:41:32.47	175.34	3.52	-43.7	-54.6	3.8	8.46e-01	0	52	104	0	58	12321
2026-01-28 14:41:33.48	175.36	3.59	-43.7	-54.6	3.8	8.46e-01	0	52	104	0	58	12246
2026-01-28 14:41:34.49	175.39	3.65	-43.7	-54.6	3.8	8.46e-01	0	52	104	0	58	12273
2026-01-28 14:41:35.50	175.42	3.72	-43.7	-54.6	3.8	8.46e-01	0	52	104	0	58	12257
2026-01-28 14:41:36.51	175.44	3.79	-43.7	-54.6	3.8	8.46e-01	0	52	104	0	58	12259
2026-01-28 14:41:37.52	175.47	3.86	-43.7	-54.5	3.8	8.46e-01	0	52	104	0	58	12229
2026-01-28 14:41:38.53	175.50	3.93	-43.7	-54.6	3.8	8.46e-01	0	52	104	0	58	12250
2026-01-28 14:41:39.54	175.53	3.99	-43.7	-54.5	3.8	8.46e-01	0	52	104	0	58	12223
2026-01-28 14:41:40.55	175.55	4.06	-43.7	-54.6	3.8	8.46e-01	0	52	104	0	58	12304
2026-01-28 14:41:41.56	175.58	4.13	-43.7	-54.6	3.8	8.47e-01	0	52	104	0	58	12250
2026-01-28 14:41:42.57	175.61	4.20	-43.7	-54.6	3.8	8.47e-01	0	52	104	0	58	12263
2026-01-28 14:41:43.58	175.64	4.27	-43.7	-54.6	3.8	8.46e-01	0	52	104	0	58	12271
2026-01-28 14:41:44.60	175.67	4.34	-43.7	-54.6	3.8	8.46e-01	0	52	104	0	58	12235
2026-01-28 14:41:45.61	175.69	4.41	-43.7	-54.5	3.8	8.46e-01	0	53	104	0	58	12221
2026-01-28 14:41:46.62	175.72	4.48	-43.7	-54.5	3.8	8.46e-01	0	53	104	0	58	12173
2026-01-28 14:41:47.63	175.75	4.55	-43.7	-54.5	3.8	8.46e-01	0	53	104	0	58	12181
2026-01-28 14:41:48.63	175.78	4.62	-43.7	-54.5	3.8	8.46e-01	0	53	104	0	58	12165
2026-01-28 14:41:49.64	175.81	4.69	-43.7	-54.5	3.8	8.46e-01	0	53	104	0	58	12167
2026-01-28 14:41:50.65	175.84	4.76	-43.7	-54.5	3.8	8.46e-01	0	53	104	0	58	12139
2026-01-28 14:41:51.67	175.87	4.83	-43.7	-54.4	3.8	8.45e-01	0	53	104	0	58	12035
2026-01-28 14:41:52.67	175.89	4.90	-43.6	-54.3	3.8	8.46e-01	0	53	104	0	58	11834
2026-01-28 14:41:53.69	175.92	4.97	-43.6	-54.1	3.8	8.45e-01	0	53	104	0	58	11560
2026-01-28 14:41:54.69	175.95	5.04	-43.6	-53.9	3.8	8.46e-01	0	53	104	0	58	11385
2026-01-28 14:41:55.71	175.98	5.12	-43.6	-53.8	3.8	8.46e-01	0	53	104	0	58	11243
2026-01-28 14:41:56.71	176.01	5.19	-43.6	-53.9	3.8	8.46e-01	0	53	104	0	58	11298
2026-01-28 14:41:57.73	176.04	5.26	-43.6	-53.9	3.8	8.46e-01	0	53	104	0	58	11349
2026-01-28 14:41:58.74	176.07	5.33	-43.6	-53.9	3.8	8.46e-01	0	53	104	0	58	11367
2026-01-28 14:41:59.75	176.10	5.40	-43.6	-53.7	3.8	8.47e-01	0	53	104	0	58	11123
2026-01-28 14:42:00.76	176.13	5.48	-43.6	-53.8	3.8	8.46e-01	0	53	104	0	58	11175
2026-01-28 14:42:01.77	176.16	5.55	-43.5	-53.6	3.8	8.46e-01	0	54	104	0	58	10982
2026-01-28 14:42:02.78	176.19	5.62	-43.5	-53.4	3.8	8.46e-01	0	54	104	0	58	10692
2026-01-28 14:42:03.79	176.22	5.69	-43.4	-53.0	3.8	8.45e-01	0	53	104	0	57	10858
2026-01-28 14:42:04.80	176.25	5.77	-43.3	-52.3	3.8	8.46e-01	0	54	104	0	57	9973
2026-01-28 14:42:05.81	176.28	5.84	-43.2	-51.5	4.1	8.40e-01	0	54	0	0	57	9128
2026-01-28 14:42:06.82	176.32	5.91	-43.1	-51.3	4.1	8.41e-01	0	54	0	0	57	8883
2026-01-28 14:42:07.83	176.35	5.99	-43.1	-50.9	4.2	8.38e-01	0	54	0	0	57	8515
2026-01-28 14:42:08.84	176.38	6.06	-43.0	-50.5	4.3	8.33e-01	0	54	0	0	57	8161
2026-01-28 14:42:09.85	176.41	6.14	-42.8	-49.7	4.6	8.13e-01	0	54	0	0	56	7887
2026-01-28 14:42:10.86	176.44	6.21	-42.7	-49.3	4.8	7.97e-01	0	54	0	0	56	7543
2026-01-28 14:42:11.87	176.47	6.29	-42.6	-49.0	5.0	7.77e-01	0	54	0	0	56	7221
2026-01-28 14:42:12.88	176.50	6.36	-42.2	-47.9	5.5	7.15e-01	0	54	0	0	55	6800
2026-01-28 14:42:13.89	176.54	6.44	-42.0	-47.4	6.0	4.20e-01	0	54	0	4194304	54	6732
2026-01-28 14:42:14.91	176.57	6.51	-41.7	-46.7	6.5	2.49e-01	0	54	0	11534336	54	6247
2026-01-28 14:42:15.91	176.60	6.59	-41.4	-45.9	7.2	1.57e-01	0	54	0	18874368	53	6004
2026-01-28 14:42:16.93	176.63	6.66	-41.1	-45.3	7.8	8.38e-02	0	54	0	26214400	53	5633
2026-01-28 14:42:17.94	176.67	6.74	-40.9	-45.0	8.0	6.96e-02	0	54	0	33554432	52	5772
2026-01-28 14:42:18.95	176.70	6.81	-40.6	-44.5	8.6	3.84e-02	0	55	0	40894464	52	5412
2026-01-28 14:42:19.96	176.73	6.89	-40.4	-43.9	9.2	2.02e-02	0	54	0	48234496	51	5393
2026-01-28 14:42:20.97	176.77	6.97	-40.1	-43.4	9.8	1.04e-02	0	54	0	55574528	51	5076
2026-01-28 14:42:21.98	176.80	7.04	-39.7	-42.8	10.4	5.69e-03	0	54	0	62914560	50	5026
2026-01-28 14:42:22.99	176.83	7.12	-39.4	-42.4	10.8	2.58e-03	0	54	0	70254592	49	5076
2026-01-28 14:42:24.00	176.87	7.20	-39.1	-41.9	11.3	1.20e-03	0	54	0	77594624	49	4800
2026-01-28 14:42:25.02	176.90	7.28	-39.0	-41.8	11.4	8.01e-04	0	55	0	84934656	48	5004
2026-01-28 14:42:26.02	176.93	7.35	-38.6	-41.3	12.0	3.41e-04	0	55	0	92274688	48	4716
2026-01-28 14:42:27.04	176.97	7.43	-38.6	-41.2	12.1	3.00e-04	0	55	0	99614720	48	4670
2026-01-28 14:42:28.05	177.00	7.51	-38.1	-40.7	12.4	1.50e-04	0	55	0	106954752	47	4669
2026-01-28 14:42:29.06	177.04	7.59	-38.3	-40.9	12.2	1.79e-04	0	55	0	114294784	47	4769
2026-01-28 14:42:30.07	177.07	7.67	-38.1	-40.7	12.4	1.22e-04	0	55	0	120586240	47	4677
2026-01-28 14:42:31.08	177.11	7.75	-38.3	-40.9	12.2	1.62e-04	0	55	0	127926272	47	4796
2026-01-28 14:42:32.09	177.14	7.82	-38.2	-40.7	12.3	1.40e-04	0	55	0	135266304	47	4704
2026-01-28 14:42:33.10	177.18	7.90	-38.3	-41.0	12.1	2.15e-04	0	55	0	143654912	47	4838
2026-01-28 14:42:34.11	177.21	7.98	-38.5	-41.2	11.9	2.68e-04	0	55	0	149946368	47	4929
2026-01-28 14:42:35.12	177.25	8.06	-38.7	-41.5	11.6	5.58e-04	0	55	0	157286400	47	5102
2026-01-28 14:42:36.13	177.28	8.14	-38.1	-40.5	12.8	5.72e-05	0	55	0	164626432	47	4597
2026-01-28 14:42:37.14	177.32	8.22	-38.3	-40.8	13.0	3.89e-05	0	55	0	171966464	46	4987
2026-01-28 14:42:38.16	177.35	8.31	-42.8	-53.2	3.8	8.41e-01	0	55	104	176160768	55	12483
2026-01-28 14:42:39.17	177.39	8.39	-40.7	-44.3	9.2	5.39e-02	0	55	0	178257920	52	5287
2026-01-28 14:42:40.18	177.43	8.47	-39.4	-42.0	12.0	3.13e-04	0	55	0	184549376	48	5131
2026-01-28 14:42:41.19	177.46	8.55	-37.9	-40.2	13.5	1.37e-05	0	55	0	191889408	46	4666
2026-01-28 14:42:42.20	177.50	8.63	-37.9	-40.2	13.5	8.00e-06	0	55	0	200278016	46	4667
2026-01-28 14:42:43.21	177.54	8.71	-37.9	-40.2	13.5	1.14e-05	0	55	0	206569472	46	4688
2026-01-28 14:42:44.22	177.57	8.79	-37.8	-40.1	13.6	8.00e-06	0	55	0	213909504	46	4638
2026-01-28 14:42:45.22	177.61	8.88	-37.7	-40.0	13.7	4.50e-06	0	55	0	221249536	46	4578
2026-01-28 14:42:46.24	177.65	8.96	-37.8	-40.1	13.7	4.50e-06	0	55	0	228589568	46	4606
2026-01-28 14:42:47.25	177.69	9.04	-37.7	-40.0	13.8	1.71e-05	0	56	0	235929600	46	4555
2026-01-28 14:42:48.26	177.72	9.12	-37.8	-40.1	13.8	8.00e-06	0	56	0	243269632	46	4602
2026-01-28 14:42:49.27	177.76	9.21	-37.7	-40.0	13.8	3.40e-06	0	56	0	250609664	46	4570
2026-01-28 14:42:50.28	177.80	9.29	-37.8	-40.0	13.8	4.50e-06	0	55	0	257949696	46	4583
2026-01-28 14:42:51.29	177.84	9.38	-37.7	-40.0	13.9	8.00e-06	0	56	0	265289728	46	4565
2026-01-28 14:42:52.30	177.88	9.46	-37.8	-40.1	13.8	1.02e-05	0	56	0	272629760	46	4615
2026-01-28 14:42:53.31	177.92	9.54	-37.7	-39.9	14.0	4.50e-06	0	56	0	279969792	46	4533
2026-01-28 14:42:54.32	177.96	9.63	-37.8	-40.0	13.9	1.10e-06	0	56	0	287309824	46	4584
2026-01-28 14:42:55.33	177.99	9.71	-37.8	-40.0	13.9	3.40e-06	0	56	0	294649856	46	4568
2026-01-28 14:42:56.34	178.03	9.80	-37.8	-40.1	13.8	1.10e-06	0	56	0	301989888	46	4645
2026-01-28 14:42:57.35	178.07	9.89	-37.9	-40.2	13.8	9.10e-06	0	56	0	309329920	46	4672
2026-01-28 14:42:58.36	178.11	9.97	-37.7	-40.0	14.0	2.20e-06	0	56	0	316669952	46	4561
2026-01-28 14:42:59.37	178.15	10.06	-37.7	-40.0	14.0	0.00e+00	0	56	0	324009984	46	4547
2026-01-28 14:43:00.38	178.19	10.14	-37.8	-40.1	13.9	3.40e-06	0	56	0	330301440	46	4646
2026-01-28 14:43:01.39	178.24	10.23	-37.8	-40.0	13.9	9.10e-06	0	56	0	337641472	46	4598
2026-01-28 14:43:02.40	178.28	10.32	-37.8	-40.1	13.9	1.10e-06	0	56	0	346030080	46	4613
2026-01-28 14:43:03.41	178.32	10.41	-37.7	-40.0	14.0	5.70e-06	0	56	0	352321536	46	4558
2026-01-28 14:43:04.42	178.36	10.49	-37.8	-40.1	13.9	4.50e-06	0	56	0	359661568	46	4610
2026-01-28 14:43:05.43	178.40	10.58	-37.7	-40.0	14.0	2.20e-06	0	56	0	367001600	46	4559
2026-01-28 14:43:06.44	178.44	10.67	-37.7	-39.9	14.1	2.20e-06	0	56	0	374341632	46	4543
2026-01-28 14:43:07.45	178.48	10.76	-37.6	-39.9	14.2	4.50e-06	0	56	0	381681664	45	4764
2026-01-28 14:43:08.46	178.53	10.85	-37.7	-40.0	14.1	2.20e-06	0	56	0	389021696	45	4818
2026-01-28 14:43:09.47	178.57	10.94	-37.6	-39.9	14.1	3.40e-06	0	56	0	396361728	45	4784
2026-01-28 14:43:10.48	178.61	11.03	-37.6	-39.9	14.1	0.00e+00	0	56	0	403701760	45	4796
2026-01-28 14:43:11.49	178.65	11.12	-37.6	-39.9	14.1	1.10e-06	0	56	0	411041792	45	4786
2026-01-28 14:43:12.50	178.70	11.21	-37.6	-39.8	14.2	0.00e+00	0	56	0	418381824	45	4743
2026-01-28 14:43:13.51	178.74	11.30	-37.7	-40.0	14.1	2.20e-06	0	56	0	425721856	45	4833
2026-01-28 14:43:14.52	178.79	11.39	-37.7	-40.0	14.1	1.10e-06	0	56	0	433061888	45	4847
2026-01-28 14:43:15.53	178.83	11.48	-37.5	-39.7	14.4	0.00e+00	0	56	0	440401920	45	4668
2026-01-28 14:43:16.54	178.87	11.57	-37.5	-39.7	14.3	0.00e+00	0	56	0	447741952	45	4689
2026-01-28 14:43:17.55	178.92	11.66	-37.4	-39.6	14.5	3.40e-06	0	56	0	455081984	45	4627
2026-01-28 14:43:18.56	178.96	11.75	-37.4	-39.6	14.4	1.10e-06	0	56	0	462422016	45	4638
2026-01-28 14:43:19.57	179.01	11.85	-37.4	-39.6	14.5	0.00e+00	0	57	0	469762048	45	4627
2026-01-28 14:43:20.58	179.05	11.94	-37.4	-39.6	14.6	2.20e-06	0	56	0	477102080	45	4599
2026-01-28 14:43:21.59	179.10	12.03	-37.4	-39.6	14.5	0.00e+00	0	57	0	484442112	45	4637
2026-01-28 14:43:22.61	179.14	12.13	-37.3	-39.5	14.6	0.00e+00	0	57	0	491782144	45	4582
2026-01-28 14:43:23.62	179.19	12.22	-37.2	-39.4	14.7	0.00e+00	0	56	0	499122176	45	4518
2026-01-28 14:43:24.63	179.24	12.31	-37.3	-39.4	14.7	0.00e+00	0	57	0	505413632	45	4537
2026-01-28 14:43:25.64	179.28	12.41	-37.3	-39.5	14.6	0.00e+00	0	57	0	512753664	45	4565
2026-01-28 14:43:26.65	179.33	12.50	-37.4	-39.6	14.5	1.10e-06	0	57	0	521142272	45	4601
2026-01-28 14:43:27.66	179.38	12.60	-37.1	-39.2	14.9	0.00e+00	0	57	0	527433728	45	4440
2026-01-28 14:43:28.67	179.43	12.70	-37.3	-39.4	14.7	0.00e+00	0	57	0	534773760	45	4525
2026-01-28 14:43:29.68	179.47	12.79	-37.2	-39.3	14.8	0.00e+00	0	57	0	542113792	45	4478
2026-01-28 14:43:30.70	179.52	12.89	-37.0	-39.1	15.0	0.00e+00	0	57	0	549453824	45	4390
2026-01-28 14:43:31.71	179.57	12.99	-37.1	-39.2	14.9	0.00e+00	0	57	0	556793856	45	4415
2026-01-28 14:43:32.72	179.62	13.08	-37.0	-39.2	15.0	0.00e+00	0	57	0	564133888	44	4657
2026-01-28 14:43:33.73	179.67	13.18	-36.9	-39.0	15.1	0.00e+00	0	57	0	571473920	44	4581
2026-01-28 14:43:34.74	179.72	13.28	-37.0	-39.1	15.1	0.00e+00	0	57	0	578813952	44	4610
2026-01-28 14:43:35.74	179.77	13.37	-37.0	-39.2	15.0	1.10e-06	0	57	0	586153984	44	4654
2026-01-28 14:43:36.76	179.82	13.47	-36.9	-39.0	15.1	0.00e+00	0	57	0	593494016	44	4580
2026-01-28 14:43:37.77	179.87	13.57	-36.9	-38.9	15.2	0.00e+00	0	57	0	600834048	44	4545
2026-01-28 14:43:38.77	179.92	13.67	-36.8	-38.9	15.2	0.00e+00	0	57	0	608174080	44	4533
2026-01-28 14:43:39.78	179.97	13.77	-36.8	-38.8	15.3	0.00e+00	0	57	0	615514112	44	4491
2026-01-28 14:43:40.79	180.02	13.87	-36.7	-38.8	15.4	0.00e+00	0	57	0	622854144	44	4463
2026-01-28 14:43:41.80	180.07	13.97	-36.7	-38.7	15.5	0.00e+00	0	57	0	630194176	44	4424
2026-01-28 14:43:42.81	180.12	14.07	-36.6	-38.6	15.5	0.00e+00	0	57	0	637534208	44	4390
2026-01-28 14:43:43.82	180.17	14.17	-36.6	-38.6	15.6	0.00e+00	0	57	0	644874240	44	4345
2026-01-28 14:43:44.83	180.23	14.28	-36.6	-38.6	15.5	0.00e+00	0	57	0	651165696	44	4386
2026-01-28 14:43:45.84	180.28	14.38	-36.5	-38.6	15.6	0.00e+00	0	57	0	658505728	44	4341
2026-01-28 14:43:46.85	180.33	14.48	-36.5	-38.5	15.7	0.00e+00	0	57	0	666894336	44	4327
2026-01-28 14:43:47.86	180.39	14.58	-36.4	-38.4	15.6	0.00e+00	0	57	0	673185792	43	4502
2026-01-28 14:43:48.87	180.44	14.69	-36.5	-38.5	15.6	0.00e+00	0	57	0	680525824	43	4569
2026-01-28 14:43:49.88	180.49	14.79	-36.2	-38.2	15.8	0.00e+00	0	57	0	687865856	43	4417
2026-01-28 14:43:50.89	180.55	14.90	-36.3	-38.3	15.8	0.00e+00	0	57	0	695205888	43	4454
2026-01-28 14:43:51.90	180.60	15.00	-36.3	-38.3	15.8	0.00e+00	0	57	0	702545920	43	4461
2026-01-28 14:43:52.91	180.66	15.10	-36.4	-38.4	15.7	0.00e+00	0	57	0	709885952	43	4509
2026-01-28 14:43:53.92	180.72	15.21	-36.4	-38.5	15.6	0.00e+00	0	57	0	717225984	43	4553
2026-01-28 14:43:54.93	180.77	15.32	-36.4	-38.4	15.7	0.00e+00	0	57	0	724566016	43	4522
2026-01-28 14:43:55.95	180.83	15.42	-36.3	-38.4	15.7	0.00e+00	0	57	0	731906048	43	4503
2026-01-28 14:43:56.96	180.89	15.53	-36.2	-38.2	15.8	0.00e+00	0	57	0	739246080	43	4426
2026-01-28 14:43:57.96	180.94	15.64	-36.2	-38.2	15.8	0.00e+00	0	57	0	746586112	43	4429
2026-01-28 14:43:58.98	181.00	15.75	-36.1	-38.0	16.1	0.00e+00	0	57	0	753926144	43	4316
2026-01-28 14:43:59.99	181.06	15.85	-36.2	-38.2	15.9	0.00e+00	0	58	0	761266176	43	4418
2026-01-28 14:44:01.00	181.12	15.96	-36.2	-38.2	15.9	0.00e+00	0	57	0	768606208	43	4421
2026-01-28 14:44:02.00	181.17	16.07	-36.1	-38.1	15.9	0.00e+00	0	57	0	775946240	43	4356
2026-01-28 14:44:03.01	181.23	16.18	-36.2	-38.2	15.9	0.00e+00	0	57	0	783286272	43	4403
2026-01-28 14:44:04.02	181.29	16.29	-36.2	-38.3	15.7	0.00e+00	0	57	0	790626304	43	4456
2026-01-28 14:44:05.03	181.35	16.40	-36.2	-38.2	15.9	0.00e+00	0	57	0	797966336	42	4683
2026-01-28 14:44:06.04	181.41	16.51	-36.0	-38.0	16.0	0.00e+00	0	57	0	805306368	42	4582
2026-01-28 14:44:07.05	181.47	16.62	-36.0	-38.0	16.1	0.00e+00	0	57	0	812646400	42	4556
2026-01-28 14:44:08.06	181.54	16.74	-35.9	-37.9	16.1	0.00e+00	0	57	0	819986432	42	4518
2026-01-28 14:44:09.08	181.60	16.85	-35.9	-37.9	16.1	0.00e+00	0	57	0	826277888	42	4505
2026-01-28 14:44:10.08	181.66	16.96	-35.9	-37.9	16.1	0.00e+00	0	57	0	833617920	42	4519
2026-01-28 14:44:11.09	181.72	17.07	-35.9	-37.9	16.1	0.00e+00	0	58	0	842006528	42	4506
2026-01-28 14:44:12.10	181.79	17.19	-36.0	-37.9	16.1	0.00e+00	0	58	0	848297984	42	4538
2026-01-28 14:44:13.11	181.85	17.30	-36.0	-38.0	16.1	0.00e+00	0	58	0	855638016	42	4548
2026-01-28 14:44:14.12	181.91	17.42	-35.8	-37.8	16.3	0.00e+00	0	58	0	862978048	42	4448
2026-01-28 14:44:15.13	181.98	17.53	-35.7	-37.7	16.4	0.00e+00	0	58	0	870318080	42	4408
2026-01-28 14:44:16.14	182.04	17.65	-35.7	-37.7	16.3	0.00e+00	0	58	0	877658112	42	4405
2026-01-28 14:44:17.15	182.11	17.77	-35.8	-37.8	16.3	0.00e+00	0	58	0	884998144	42	4457
2026-01-28 14:44:18.16	182.17	17.88	-35.8	-37.7	16.3	0.00e+00	0	58	0	892338176	42	4436
2026-01-28 14:44:19.17	182.24	18.00	-35.8	-37.7	16.4	0.00e+00	0	58	0	899678208	42	4423
2026-01-28 14:44:20.18	182.31	18.12	-35.7	-37.6	16.5	0.00e+00	0	58	0	907018240	42	4356
2026-01-28 14:44:21.19	182.37	18.24	-35.7	-37.7	16.4	0.00e+00	0	58	0	914358272	42	4412
2026-01-28 14:44:22.20	182.44	18.36	-35.9	-37.8	16.3	0.00e+00	0	58	0	921698304	42	4471
2026-01-28 14:44:23.21	182.51	18.48	-35.8	-37.7	16.4	0.00e+00	0	58	0	929038336	42	4409
2026-01-28 14:44:24.22	182.58	18.60	-35.8	-37.7	16.4	0.00e+00	0	58	0	936378368	42	4439
2026-01-28 14:44:25.23	182.65	18.72	-35.9	-37.8	16.2	0.00e+00	0	58	0	943718400	42	4488
2026-01-28 14:44:26.24	182.72	18.84	-35.8	-37.7	16.4	0.00e+00	0	58	0	950009856	42	4418
2026-01-28 14:44:27.25	182.79	18.96	-35.6	-37.5	16.6	0.00e+00	0	58	0	958398464	42	4329
2026-01-28 14:44:28.26	182.86	19.08	-35.5	-37.4	16.7	0.00e+00	0	58	0	965738496	42	4258
2026-01-28 14:44:29.27	182.93	19.21	-35.4	-37.3	16.8	0.00e+00	0	58	0	972029952	41	4465
2026-01-28 14:44:30.28	183.00	19.33	-35.4	-37.2	16.8	0.00e+00	0	58	0	979369984	41	4423
2026-01-28 14:44:31.28	183.08	19.45	-35.4	-37.3	16.8	0.00e+00	0	58	0	986710016	41	4471
2026-01-28 14:44:32.29	183.15	19.58	-35.4	-37.3	16.8	0.00e+00	0	58	0	994050048	41	4464
2026-01-28 14:44:33.30	183.22	19.70	-35.5	-37.3	16.7	0.00e+00	0	58	0	1001390080	41	4493
2026-01-28 14:44:34.31	183.30	19.83	-35.5	-37.4	16.7	0.00e+00	0	58	0	1008730112	41	4511
2026-01-28 14:44:35.32	183.37	19.95	-35.5	-37.4	16.7	0.00e+00	0	58	0	1016070144	41	4527
2026-01-28 14:44:36.33	183.45	20.08	-35.4	-37.3	16.8	0.00e+00	0	58	0	1023410176	41	4468
2026-01-28 14:44:37.34	183.52	20.21	-35.5	-37.3	16.7	0.00e+00	0	58	0	1030750208	41	4493
2026-01-28 14:44:38.35	183.60	20.34	-35.5	-37.4	16.7	1.10e-06	0	58	0	1038090240	41	4512
2026-01-28 14:44:39.36	183.68	20.47	-35.5	-37.4	16.7	0.00e+00	0	58	0	1045430272	41	4516
2026-01-28 14:44:40.37	183.76	20.60	-35.5	-37.4	16.7	0.00e+00	0	58	0	1052770304	41	4536
2026-01-28 14:44:41.38	183.83	20.73	-35.5	-37.3	16.8	0.00e+00	0	58	0	1060110336	41	4477
2026-01-28 14:44:42.39	183.91	20.86	-35.5	-37.4	16.8	0.00e+00	0	58	0	1067450368	41	4498
2026-01-28 14:44:43.40	183.99	20.99	-35.5	-37.4	16.8	0.00e+00	0	58	0	1074790400	41	4514
2026-01-28 14:44:44.41	184.07	21.12	-35.6	-37.4	16.7	0.00e+00	0	58	0	1082130432	41	4540
2026-01-28 14:44:45.42	184.16	21.25	-35.6	-37.4	16.7	0.00e+00	0	58	0	1089470464	41	4541
2026-01-28 14:44:46.43	184.24	21.39	-35.5	-37.4	16.8	0.00e+00	0	58	0	1096810496	41	4495
2026-01-28 14:44:47.44	184.32	21.52	-35.6	-37.5	16.6	0.00e+00	0	58	0	1103101952	41	4586
2026-01-28 14:44:48.45	184.40	21.66	-35.6	-37.5	16.7	0.00e+00	0	58	0	1111490560	41	4571
2026-01-28 14:44:49.46	184.49	21.79	-35.6	-37.4	16.8	0.00e+00	0	58	0	1118830592	41	4531
2026-01-28 14:44:50.47	184.57	21.93	-35.6	-37.4	16.8	0.00e+00	0	58	0	1125122048	41	4523
2026-01-28 14:44:51.48	184.66	22.06	-35.4	-37.2	17.0	0.00e+00	0	58	0	1132462080	41	4408
2026-01-28 14:44:52.49	184.74	22.20	-35.5	-37.3	16.9	0.00e+00	0	58	0	1140850688	41	4483
2026-01-28 14:44:53.51	184.83	22.34	-35.4	-37.2	17.0	0.00e+00	0	58	0	1147142144	41	4421
2026-01-28 14:44:54.52	184.92	22.48	-35.4	-37.2	17.0	0.00e+00	0	58	0	1154482176	41	4436
2026-01-28 14:44:55.53	185.01	22.62	-35.5	-37.3	16.9	0.00e+00	0	58	0	1161822208	41	4462
2026-01-28 14:44:56.54	185.10	22.76	-35.3	-37.1	17.1	0.00e+00	0	58	0	1169162240	41	4368
2026-01-28 14:44:57.55	185.19	22.90	-35.4	-37.1	17.1	0.00e+00	0	58	0	1176502272	41	4380
2026-01-28 14:44:58.56	185.28	23.04	-35.5	-37.3	16.9	0.00e+00	0	58	0	1183842304	41	4456
2026-01-28 14:44:59.57	185.37	23.18	-35.4	-37.2	17.0	0.00e+00	0	58	0	1191182336	41	4413
2026-01-28 14:45:00.58	185.46	23.33	-35.4	-37.2	17.0	0.00e+00	0	58	0	1198522368	41	4404
2026-01-28 14:45:01.59	185.55	23.47	-35.3	-37.1	17.1	0.00e+00	0	58	0	1205862400	41	4347
2026-01-28 14:45:02.60	185.65	23.62	-35.4	-37.2	17.0	0.00e+00	0	58	0	1213202432	41	4394
2026-01-28 14:45:03.61	185.74	23.76	-35.3	-37.1	17.1	0.00e+00	0	58	0	1220542464	41	4363
2026-01-28 14:45:04.62	185.84	23.91	-35.3	-37.1	17.1	0.00e+00	0	58	0	1227882496	41	4368
2026-01-28 14:45:05.63	185.93	24.05	-35.2	-37.0	17.2	0.00e+00	0	58	0	1235222528	41	4300
2026-01-28 14:45:06.63	186.03	24.20	-35.1	-36.9	17.3	0.00e+00	0	58	0	1242562560	41	4258
2026-01-28 14:45:07.64	186.13	24.35	-35.1	-36.8	17.4	0.00e+00	0	58	0	1249902592	40	4462
2026-01-28 14:45:08.65	186.23	24.50	-35.0	-36.7	17.5	0.00e+00	0	58	0	1257242624	40	4415
2026-01-28 14:45:09.66	186.33	24.65	-34.9	-36.7	17.5	0.00e+00	0	58	0	1264582656	40	4396
2026-01-28 14:45:10.67	186.43	24.80	-34.9	-36.7	17.5	0.00e+00	0	58	0	1270874112	40	4412
2026-01-28 14:45:11.68	186.53	24.95	-34.9	-36.6	17.5	0.00e+00	0	58	0	1278214144	40	4381
2026-01-28 14:45:12.69	186.63	25.10	-34.8	-36.5	17.7	0.00e+00	0	58	0	1286602752	40	4311
2026-01-28 14:45:13.71	186.74	25.25	-34.8	-36.5	17.6	0.00e+00	0	58	0	1292894208	40	4328
2026-01-28 14:45:14.72	186.84	25.41	-34.8	-36.5	17.6	0.00e+00	0	58	0	1300234240	40	4315
2026-01-28 14:45:15.73	186.95	25.56	-34.7	-36.4	17.7	0.00e+00	0	58	0	1307574272	40	4273
2026-01-28 14:45:16.74	187.06	25.72	-34.7	-36.5	17.7	0.00e+00	0	58	0	1314914304	40	4310
2026-01-28 14:45:17.75	187.16	25.87	-34.5	-36.2	18.1	0.00e+00	0	59	0	1322254336	39	4400
2026-01-28 14:45:18.75	187.27	26.03	-34.8	-36.5	17.7	0.00e+00	0	58	0	1329594368	39	4585
2026-01-28 14:45:19.76	187.38	26.19	-34.7	-36.5	17.8	0.00e+00	0	58	0	1336934400	39	4566
2026-01-28 14:45:20.77	187.49	26.35	-34.7	-36.5	17.7	0.00e+00	0	58	0	1344274432	39	4571
2026-01-28 14:45:21.78	187.61	26.50	-34.8	-36.6	17.7	0.00e+00	0	58	0	1351614464	39	4607
2026-01-28 14:45:22.79	187.72	26.66	-34.9	-36.7	17.5	0.00e+00	0	58	0	1358954496	39	4688
2026-01-28 14:45:23.80	187.83	26.83	-34.7	-36.5	17.8	0.00e+00	0	58	0	1366294528	39	4573
2026-01-28 14:45:24.81	187.95	26.99	-34.7	-36.5	17.8	0.00e+00	0	58	0	1373634560	39	4567
2026-01-28 14:45:25.82	188.06	27.15	-34.7	-36.5	17.7	0.00e+00	0	58	0	1380974592	39	4587
2026-01-28 14:45:26.83	188.18	27.31	-34.7	-36.5	17.8	0.00e+00	0	58	0	1388314624	39	4557
2026-01-28 14:45:27.84	188.30	27.48	-34.7	-36.5	17.8	0.00e+00	0	58	0	1395654656	39	4562
2026-01-28 14:45:28.85	188.42	27.64	-34.7	-36.5	17.8	0.00e+00	0	58	0	1402994688	39	4547
2026-01-28 14:45:29.86	188.54	27.81	-34.7	-36.5	17.8	0.00e+00	0	59	0	1410334720	39	4554
2026-01-28 14:45:30.87	188.66	27.98	-34.6	-36.3	18.0	0.00e+00	0	58	0	1417674752	39	4493
2026-01-28 14:45:31.88	188.79	28.14	-34.6	-36.4	18.0	0.00e+00	0	58	0	1423966208	39	4500
2026-01-28 14:45:32.89	188.91	28.31	-34.6	-36.2	18.1	0.00e+00	0	59	0	1431306240	39	4430
2026-01-28 14:45:33.90	189.04	28.48	-34.5	-36.2	18.1	0.00e+00	0	58	0	1439694848	39	4405
2026-01-28 14:45:34.91	189.17	28.65	-34.4	-36.0	18.3	0.00e+00	0	58	0	1445986304	39	4338
2026-01-28 14:45:35.92	189.30	28.82	-34.4	-36.0	18.3	0.00e+00	0	58	0	1453326336	39	4299
2026-01-28 14:45:36.93	189.43	29.00	-34.3	-35.9	18.4	0.00e+00	0	58	0	1460666368	39	4290
2026-01-28 14:45:37.94	189.56	29.17	-34.3	-35.9	18.4	0.00e+00	0	59	0	1468006400	39	4274
2026-01-28 14:45:38.95	189.69	29.34	-34.3	-35.8	18.5	0.00e+00	0	58	0	1475346432	39	4234
2026-01-28 14:45:39.95	189.82	29.52	-34.5	-36.1	18.3	0.00e+00	0	59	0	1482686464	39	4363
2026-01-28 14:45:40.96	189.96	29.69	-34.4	-36.0	18.4	0.00e+00	0	58	0	1490026496	39	4307
2026-01-28 14:45:41.97	190.10	29.87	-34.5	-36.1	18.3	0.00e+00	0	58	0	1497366528	39	4368
2026-01-28 14:45:42.99	190.24	30.05	-34.6	-36.2	18.2	0.00e+00	0	59	0	1504706560	39	4426
2026-01-28 14:45:44.00	190.38	30.23	-34.9	-36.7	17.7	0.00e+00	0	58	0	1512046592	39	4687
2026-01-28 14:45:45.01	190.52	30.41	-34.7	-36.4	18.0	0.00e+00	0	58	0	1519386624	39	4541
2026-01-28 14:45:46.02	190.66	30.59	-34.8	-36.6	17.8	0.00e+00	0	59	0	1526726656	39	4630
2026-01-28 14:45:47.03	190.81	30.77	-34.9	-36.6	17.8	0.00e+00	0	58	0	1534066688	39	4636
2026-01-28 14:45:48.04	190.95	30.95	-34.9	-36.6	17.8	0.00e+00	0	58	0	1541406720	39	4640
2026-01-28 14:45:49.05	191.10	31.14	-34.6	-36.3	18.1	0.00e+00	0	58	0	1548746752	39	4467
2026-01-28 14:45:50.06	191.25	31.32	-34.7	-36.5	17.9	0.00e+00	0	59	0	1556086784	39	4577
2026-01-28 14:45:51.06	191.40	31.51	-34.7	-36.4	18.0	0.00e+00	0	59	0	1563426816	39	4539
2026-01-28 14:45:52.07	191.56	31.69	-34.7	-36.5	17.9	0.00e+00	0	59	0	1570766848	39	4551
2026-01-28 14:45:53.08	191.71	31.88	-34.6	-36.3	18.0	0.00e+00	0	59	0	1577058304	39	4490
2026-01-28 14:45:54.09	191.87	32.07	-34.5	-36.3	18.1	0.00e+00	0	59	0	1584398336	39	4448
2026-01-28 14:45:55.10	192.03	32.26	-34.4	-36.2	18.2	0.00e+00	0	59	0	1592786944	39	4413
2026-01-28 14:45:56.11	192.19	32.45	-34.4	-36.1	18.3	0.00e+00	0	59	0	1599078400	39	4363
2026-01-28 14:45:57.12	192.35	32.64	-34.4	-36.1	18.3	0.00e+00	0	59	0	1606418432	39	4368
2026-01-28 14:45:58.13	192.51	32.83	-34.4	-36.1	18.2	0.00e+00	0	59	0	1613758464	39	4390
2026-01-28 14:45:59.14	192.68	33.02	-34.4	-36.2	18.2	0.00e+00	0	59	0	1621098496	39	4416
2026-01-28 14:46:00.15	192.85	33.22	-34.5	-36.3	18.1	0.00e+00	0	59	0	1628438528	39	4461
2026-01-28 14:46:01.16	193.02	33.41	-34.3	-36.1	18.2	0.00e+00	0	59	0	1635778560	39	4361
2026-01-28 14:46:02.17	193.19	33.61	-34.3	-36.0	18.3	0.00e+00	0	59	0	1643118592	39	4335
2026-01-28 14:46:03.18	193.36	33.81	-34.3	-36.0	18.4	0.00e+00	0	59	0	1650458624	39	4295
2026-01-28 14:46:04.19	193.54	34.00	-34.3	-36.0	18.3	0.00e+00	0	59	0	1657798656	39	4320
2026-01-28 14:46:05.20	193.71	34.20	-34.3	-36.0	18.3	0.00e+00	0	59	0	1665138688	39	4338
2026-01-28 14:46:06.21	193.89	34.40	-34.3	-36.0	18.3	0.00e+00	0	59	0	1672478720	39	4326
2026-01-28 14:46:07.22	194.08	34.60	-34.4	-36.1	18.3	0.00e+00	0	59	0	1679818752	39	4372
2026-01-28 14:46:08.23	194.26	34.81	-34.5	-36.2	18.3	0.00e+00	0	59	0	1687158784	39	4396
2026-01-28 14:46:09.24	194.45	35.01	-34.5	-36.2	18.1	0.00e+00	0	59	0	1694498816	39	4433
2026-01-28 14:46:10.25	194.64	35.21	-34.7	-36.4	18.0	0.00e+00	0	59	0	1701838848	39	4534
2026-01-28 14:46:11.26	194.83	35.42	-34.8	-36.6	17.8	0.00e+00	0	59	0	1709178880	39	4635
2026-01-28 14:46:12.27	195.02	35.62	-34.8	-36.6	17.8	0.00e+00	0	59	0	1716518912	39	4624
2026-01-28 14:46:13.28	195.22	35.83	-34.9	-36.6	17.7	0.00e+00	0	59	0	1722810368	39	4644
2026-01-28 14:46:14.29	195.42	36.04	-34.7	-36.5	17.8	0.00e+00	0	59	0	1730150400	39	4577
2026-01-28 14:46:15.30	195.62	36.25	-34.9	-36.7	17.7	0.00e+00	0	59	0	1738539008	39	4653
2026-01-28 14:46:16.31	195.82	36.46	-34.6	-36.3	18.0	0.00e+00	0	59	0	1744830464	39	4473
2026-01-28 14:46:17.32	196.03	36.67	-34.6	-36.3	18.0	0.00e+00	0	59	0	1752170496	39	4455
2026-01-28 14:46:18.33	196.24	36.88	-34.6	-36.3	18.0	0.00e+00	0	59	0	1759510528	39	4470
2026-01-28 14:46:19.34	196.45	37.09	-34.7	-36.4	17.9	0.00e+00	0	59	0	1766850560	39	4541
2026-01-28 14:46:20.35	196.66	37.31	-34.8	-36.6	17.8	0.00e+00	0	59	0	1774190592	39	4616
2026-01-28 14:46:21.36	196.88	37.52	-34.8	-36.5	17.9	0.00e+00	0	59	0	1781530624	39	4594
2026-01-28 14:46:22.38	197.10	37.74	-34.9	-36.8	17.7	0.00e+00	0	59	0	1788870656	39	4714
2026-01-28 14:46:23.38	197.32	37.95	-35.0	-36.8	17.6	0.00e+00	0	59	0	1796210688	39	4755
2026-01-28 14:46:24.39	197.55	38.17	-35.0	-36.8	17.7	0.00e+00	0	59	0	1803550720	39	4739
2026-01-28 14:46:25.41	197.78	38.39	-35.0	-36.7	17.7	0.00e+00	0	59	0	1810890752	39	4696
2026-01-28 14:46:26.42	198.01	38.61	-34.7	-36.4	18.0	0.00e+00	0	59	0	1818230784	40	4281
2026-01-28 14:46:27.42	198.24	38.83	-34.8	-36.5	17.9	0.00e+00	0	59	0	1825570816	40	4316
2026-01-28 14:46:28.44	198.48	39.05	-34.8	-36.5	17.9	0.00e+00	0	59	0	1832910848	40	4333
2026-01-28 14:46:29.45	198.73	39.27	-34.9	-36.7	17.8	0.00e+00	0	59	0	1840250880	40	4392
2026-01-28 14:46:30.46	198.97	39.50	-35.0	-36.8	17.7	0.00e+00	0	59	0	1847590912	40	4462
2026-01-28 14:46:31.47	199.22	39.72	-34.9	-36.7	17.8	0.00e+00	0	59	0	1854930944	40	4404
2026-01-28 14:46:32.48	199.47	39.94	-35.2	-37.1	17.4	0.00e+00	0	59	0	1862270976	40	4632
2026-01-28 14:46:33.49	199.72	40.17	-35.2	-37.0	17.4	0.00e+00	0	59	0	1869611008	40	4585
2026-01-28 14:46:34.50	199.98	40.40	-35.0	-36.8	17.6	0.00e+00	0	59	0	1876951040	40	4464
2026-01-28 14:46:35.52	200.25	40.63	-34.8	-36.5	17.9	0.00e+00	0	59	0	1884291072	40	4326
2026-01-28 14:46:36.52	200.51	40.85	-34.4	-36.0	18.4	0.00e+00	0	59	0	1891631104	39	4323
2026-01-28 14:46:37.54	200.78	41.08	-34.6	-36.3	18.3	0.00e+00	0	59	0	1897922560	39	4445
2026-01-28 14:46:38.55	201.05	41.31	-34.7	-36.4	18.1	0.00e+00	0	59	0	1906311168	39	4514
2026-01-28 14:46:39.56	201.33	41.54	-34.9	-36.6	17.9	0.00e+00	0	59	0	1913651200	39	4636
2026-01-28 14:46:40.57	201.61	41.77	-35.1	-36.9	17.7	0.00e+00	0	59	0	1919942656	39	4771
2026-01-28 14:46:41.58	201.90	42.00	-35.0	-36.8	17.8	0.00e+00	0	59	0	1927282688	40	4457
2026-01-28 14:46:42.59	202.18	42.23	-35.1	-36.9	17.6	0.00e+00	0	59	0	1934622720	40	4545
2026-01-28 14:46:43.60	202.48	42.47	-35.1	-36.9	17.7	0.00e+00	0	59	0	1941962752	40	4499
2026-01-28 14:46:44.61	202.77	42.70	-35.0	-36.7	17.8	0.00e+00	0	59	0	1949302784	40	4424
2026-01-28 14:46:45.62	203.08	42.93	-35.0	-36.8	17.8	0.00e+00	0	59	0	1956642816	40	4456
2026-01-28 14:46:46.63	203.38	43.17	-35.0	-36.8	17.8	0.00e+00	0	59	0	1963982848	40	4458
2026-01-28 14:46:47.64	203.69	43.40	-35.3	-37.1	17.4	0.00e+00	0	59	0	1971322880	40	4634
2026-01-28 14:46:48.65	204.01	43.64	-35.1	-36.9	17.6	0.00e+00	0	59	0	1978662912	40	4494
2026-01-28 14:46:49.66	204.33	43.88	-35.1	-36.9	17.6	0.00e+00	0	59	0	1986002944	40	4529
2026-01-28 14:46:50.67	204.65	44.11	-35.1	-36.9	17.5	0.00e+00	0	59	0	1993342976	40	4538
2026-01-28 14:46:51.68	204.98	44.35	-35.1	-36.9	17.6	0.00e+00	0	59	0	2000683008	40	4505
2026-01-28 14:46:52.70	205.31	44.59	-34.9	-36.6	17.8	0.00e+00	0	59	0	2008023040	40	4391
2026-01-28 14:46:53.71	205.65	44.83	-35.1	-36.8	17.7	0.00e+00	0	59	0	2015363072	40	4455
2026-01-28 14:46:54.72	206.00	45.07	-35.2	-36.9	17.7	0.00e+00	0	59	0	2022703104	40	4505
2026-01-28 14:46:55.73	206.35	45.30	-35.1	-36.8	17.8	0.00e+00	0	59	0	2030043136	40	4461
2026-01-28 14:46:56.74	206.70	45.54	-35.3	-36.9	17.7	0.00e+00	0	59	0	2037383168	40	4531
2026-01-28 14:46:57.74	207.06	45.78	-35.0	-36.5	17.9	0.00e+00	0	59	0	2044723200	40	4315
2026-01-28 14:46:58.75	207.42	46.02	-35.4	-37.0	17.6	0.00e+00	0	59	0	2052063232	40	4590
2026-01-28 14:46:59.76	207.79	46.26	-35.8	-37.0	17.9	0.00e+00	0	59	0	2059403264	41	4325
2026-01-28 14:47:00.77	208.17	46.50	-35.9	-37.1	17.8	0.00e+00	0	59	0	2065694720	41	4385
2026-01-28 14:47:01.78	208.55	46.74	-36.2	-37.4	17.5	0.00e+00	0	59	0	2073034752	41	4545
2026-01-28 14:47:02.79	208.93	46.98	-36.3	-37.6	17.4	0.00e+00	0	59	0	2081423360	42	4369
2026-01-28 14:47:03.80	209.33	47.21	-36.6	-37.9	17.0	0.00e+00	0	59	0	2087714816	42	4544
2026-01-28 14:47:04.82	209.73	47.46	-36.6	-38.0	17.0	0.00e+00	0	59	0	2095054848	43	4307
2026-01-28 14:47:05.83	210.14	47.69	-36.6	-37.9	17.0	0.00e+00	0	59	0	2102394880	43	4279
2026-01-28 14:47:06.84	210.55	47.93	-36.4	-37.7	17.3	0.00e+00	0	59	0	2109734912	43	4155
2026-01-28 14:47:07.85	210.96	48.17	-36.4	-37.7	17.3	0.00e+00	0	59	0	2117074944	42	4398
2026-01-28 14:47:08.86	211.39	48.41	-36.2	-37.4	17.5	0.00e+00	0	59	0	2124414976	42	4275
2026-01-28 14:47:09.87	211.82	48.65	-36.2	-37.5	17.5	0.00e+00	0	59	0	2131755008	42	4304
2026-01-28 14:47:10.88	212.26	48.89	-36.2	-37.4	17.5	0.00e+00	0	59	0	2139095040	42	4281
2026-01-28 14:47:11.89	212.70	49.12	-36.1	-37.3	17.6	0.00e+00	0	59	0	2146435072	42	4238
2026-01-28 14:47:12.90	213.15	49.36	-36.4	-37.7	17.3	0.00e+00	0	59	0	2153775104	42	4402
2026-01-28 14:47:13.90	213.61	49.59	-36.5	-37.8	17.1	0.00e+00	0	59	0	2161115136	42	4491
2026-01-28 14:47:14.92	214.07	49.83	-36.6	-38.0	17.1	0.00e+00	0	59	0	2168455168	43	4300
2026-01-28 14:47:15.93	214.55	50.06	-36.6	-37.9	17.0	0.00e+00	0	59	0	2175795200	43	4289
2026-01-28 14:47:16.94	215.03	50.30	-36.6	-37.9	17.1	0.00e+00	0	59	0	2183135232	43	4257
2026-01-28 14:47:17.95	215.51	50.53	-36.7	-38.0	17.0	0.00e+00	0	59	0	2190475264	43	4308
2026-01-28 14:47:18.96	216.01	50.76	-36.4	-37.7	17.3	0.00e+00	0	59	0	2197815296	43	4176
2026-01-28 14:47:19.97	216.51	50.99	-36.7	-38.0	16.9	0.00e+00	0	59	0	2205155328	43	4327
2026-01-28 14:47:20.98	217.02	51.22	-36.7	-38.0	17.0	0.00e+00	0	59	0	2212495360	43	4301
2026-01-28 14:47:21.99	217.53	51.45	-36.6	-38.0	17.0	1.10e-06	0	59	0	2218786816	43	4297
2026-01-28 14:47:23.00	218.06	51.67	-36.5	-37.8	17.1	0.00e+00	0	59	0	2227175424	43	4217
2026-01-28 14:47:24.01	218.59	51.90	-36.7	-38.0	16.9	0.00e+00	0	59	0	2234515456	43	4333
2026-01-28 14:47:25.02	219.13	52.12	-36.5	-37.9	17.1	0.00e+00	0	59	0	2240806912	43	4270
2026-01-28 14:47:26.03	219.68	52.35	-36.6	-37.9	17.0	0.00e+00	0	59	0	2248146944	43	4277
2026-01-28 14:47:27.04	220.24	52.57	-36.5	-37.8	17.2	0.00e+00	0	59	0	2255486976	43	4207
2026-01-28 14:47:28.05	220.80	52.78	-36.6	-37.9	17.0	0.00e+00	0	59	0	2262827008	43	4283
2026-01-28 14:47:29.06	221.38	53.00	-36.5	-37.9	17.1	0.00e+00	0	59	0	2270167040	43	4243
2026-01-28 14:47:30.07	221.96	53.22	-36.5	-37.8	17.2	0.00e+00	0	59	0	2277507072	43	4206
2026-01-28 14:47:31.08	222.55	53.43	-36.6	-37.9	17.1	0.00e+00	0	59	0	2284847104	43	4273
2026-01-28 14:47:32.09	223.15	53.64	-36.6	-37.9	17.1	0.00e+00	0	59	0	2292187136	43	4275
2026-01-28 14:47:33.10	223.76	53.85	-36.7	-38.0	17.0	0.00e+00	0	59	0	2299527168	43	4327
2026-01-28 14:47:34.11	224.38	54.05	-36.6	-37.9	17.1	0.00e+00	0	59	0	2306867200	43	4271
2026-01-28 14:47:35.13	225.01	54.26	-36.6	-37.9	17.0	0.00e+00	0	59	0	2314207232	43	4286
2026-01-28 14:47:36.14	225.64	54.46	-36.5	-37.8	17.2	0.00e+00	0	59	0	2321547264	43	4203
2026-01-28 14:47:37.15	226.28	54.65	-36.2	-37.4	17.6	2.20e-06	0	59	0	2328887296	43	4033
2026-01-28 14:47:38.16	226.94	54.85	-36.2	-37.5	17.5	0.00e+00	0	59	0	2336227328	42	4297
2026-01-28 14:47:39.17	227.60	55.04	-36.3	-37.6	17.4	0.00e+00	0	59	0	2343567360	42	4361
2026-01-28 14:47:40.18	228.27	55.23	-36.3	-37.6	17.3	0.00e+00	0	59	0	2350907392	42	4375
2026-01-28 14:47:41.19	228.94	55.42	-36.3	-37.6	17.3	0.00e+00	0	59	0	2358247424	42	4387
2026-01-28 14:47:42.20	229.63	55.60	-36.5	-37.9	17.1	0.00e+00	0	59	0	2365587456	42	4518
2026-01-28 14:47:43.21	230.33	55.78	-36.8	-38.1	16.8	0.00e+00	0	59	0	2372927488	43	4388
2026-01-28 14:47:44.22	231.03	55.95	-36.9	-38.3	16.7	0.00e+00	0	59	0	2380267520	43	4476
2026-01-28 14:47:45.23	231.75	56.12	-37.2	-38.6	16.5	0.00e+00	0	59	0	2386558976	44	4367
2026-01-28 14:47:46.24	232.47	56.29	-37.0	-38.6	16.4	0.00e+00	0	59	0	2393899008	44	4375
2026-01-28 14:47:47.25	233.20	56.45	-36.8	-38.4	16.6	0.00e+00	0	59	0	2402287616	44	4281
2026-01-28 14:47:48.25	233.93	56.61	-37.2	-38.7	16.5	0.00e+00	0	59	0	2408579072	44	4395
2026-01-28 14:47:49.27	234.69	56.77	-37.1	-38.5	16.6	0.00e+00	0	59	0	2415919104	44	4313
2026-01-28 14:47:50.28	235.44	56.92	-37.2	-38.6	16.5	0.00e+00	0	59	0	2423259136	44	4357
2026-01-28 14:47:51.29	236.21	57.07	-36.9	-38.2	16.9	0.00e+00	0	59	0	2430599168	44	4174
2026-01-28 14:47:52.30	236.98	57.21	-36.6	-37.9	17.3	0.00e+00	0	59	0	2437939200	44	4019
2026-01-28 14:47:53.31	237.76	57.35	-36.2	-37.5	17.4	0.00e+00	0	59	0	2445279232	43	4084
2026-01-28 14:47:54.32	238.55	57.48	-36.2	-37.6	17.3	0.00e+00	0	59	0	2452619264	43	4141
2026-01-28 14:47:55.33	239.34	57.61	-36.6	-37.9	17.1	0.00e+00	0	59	0	2459959296	43	4257
2026-01-28 14:47:56.34	240.15	57.73	-36.9	-38.3	16.7	3.40e-06	0	59	0	2467299328	43	4480
2026-01-28 14:47:57.35	240.96	57.85	-37.3	-38.7	16.4	0.00e+00	0	59	0	2474639360	44	4435
2026-01-28 14:47:58.36	241.77	57.97	-37.2	-38.6	16.5	0.00e+00	0	59	0	2481979392	44	4390
2026-01-28 14:47:59.37	242.60	58.07	-36.8	-38.1	17.0	0.00e+00	0	59	0	2489319424	44	4144
2026-01-28 14:48:00.38	243.43	58.18	-36.7	-38.0	17.2	0.00e+00	0	59	0	2496659456	44	4064
2026-01-28 14:48:01.39	244.27	58.27	-36.6	-37.9	17.1	0.00e+00	0	59	0	2503999488	43	4275
2026-01-28 14:48:02.40	245.11	58.37	-36.6	-38.0	17.0	0.00e+00	0	59	0	2511339520	43	4306
2026-01-28 14:48:03.41	245.96	58.45	-36.6	-37.9	17.1	0.00e+00	0	59	0	2518679552	43	4248
2026-01-28 14:48:04.42	246.81	58.53	-36.5	-37.8	17.1	0.00e+00	0	59	0	2526019584	43	4221
2026-01-28 14:48:05.43	247.67	58.61	-36.4	-37.6	17.3	0.00e+00	0	59	0	2533359616	43	4143
2026-01-28 14:48:06.44	248.53	58.68	-36.6	-37.9	17.0	0.00e+00	0	59	0	2539651072	43	4273
2026-01-28 14:48:07.45	249.40	58.74	-36.8	-38.2	16.7	0.00e+00	0	59	0	2548039680	43	4396
2026-01-28 14:48:08.46	250.27	58.80	-37.0	-38.3	16.7	0.00e+00	0	59	0	2555379712	43	4484
2026-01-28 14:48:09.47	251.14	58.85	-37.1	-38.5	16.5	0.00e+00	0	59	0	2561671168	43	4572
2026-01-28 14:48:10.48	252.02	58.89	-37.0	-38.4	16.6	0.00e+00	0	59	0	2569011200	43	4504
2026-01-28 14:48:11.49	252.90	58.93	-36.7	-38.0	17.0	0.00e+00	0	59	0	2576351232	43	4319
2026-01-28 14:48:12.50	253.78	58.96	-36.6	-37.9	17.1	0.00e+00	0	59	0	2583691264	43	4259
2026-01-28 14:48:13.51	254.67	58.99	-36.5	-37.7	17.3	0.00e+00	0	59	0	2591031296	43	4186
2026-01-28 14:48:14.52	255.55	59.01	-36.5	-37.8	17.1	0.00e+00	0	59	0	2598371328	43	4225
2026-01-28 14:48:15.53	256.44	59.02	-36.4	-37.7	17.3	0.00e+00	0	59	0	2605711360	43	4149
2026-01-28 14:48:16.54	257.33	59.03	-36.3	-37.6	17.3	0.00e+00	0	59	0	2613051392	43	4131
2026-01-28 14:48:17.55	258.22	59.03	-36.4	-37.7	17.3	0.00e+00	0	59	0	2620391424	43	4186
2026-01-28 14:48:18.56	259.11	59.03	-36.4	-37.8	17.3	0.00e+00	0	59	0	2627731456	43	4194
2026-01-28 14:48:19.57	259.99	59.02	-36.4	-37.8	17.3	0.00e+00	0	59	0	2635071488	43	4194
2026-01-28 14:48:20.58	260.88	59.00	-36.4	-37.7	17.3	0.00e+00	0	59	0	2642411520	43	4183
2026-01-28 14:48:21.59	261.77	58.98	-36.4	-37.7	17.3	0.00e+00	0	59	0	2649751552	43	4163
2026-01-28 14:48:22.60	262.65	58.95	-36.5	-37.8	17.2	0.00e+00	0	59	0	2657091584	43	4218
2026-01-28 14:48:23.61	263.53	58.91	-36.6	-38.0	17.0	0.00e+00	0	59	0	2664431616	43	4295
2026-01-28 14:48:24.62	264.41	58.87	-36.6	-38.0	17.0	0.00e+00	0	59	0	2671771648	43	4294
2026-01-28 14:48:25.63	265.29	58.82	-36.7	-38.1	16.9	0.00e+00	0	59	0	2679111680	43	4358
2026-01-28 14:48:26.64	266.16	58.77	-36.8	-38.2	16.9	0.00e+00	0	59	0	2685403136	43	4401
2026-01-28 14:48:27.65	267.03	58.71	-36.5	-37.8	17.2	0.00e+00	0	59	0	2693791744	43	4229
2026-01-28 14:48:28.66	267.89	58.64	-36.3	-37.6	17.4	0.00e+00	0	59	0	2701131776	43	4105
2026-01-28 14:48:29.67	268.75	58.57	-36.5	-37.8	17.2	0.00e+00	0	60	0	2707423232	43	4210
2026-01-28 14:48:30.69	269.62	58.49	-36.7	-38.0	17.0	0.00e+00	0	59	0	2714763264	43	4307
2026-01-28 14:48:31.69	270.46	58.41	-36.8	-38.2	16.8	0.00e+00	0	59	0	2723151872	43	4392
2026-01-28 14:48:32.70	271.30	58.32	-36.6	-37.9	17.0	0.00e+00	0	59	0	2729443328	43	4275
2026-01-28 14:48:33.71	272.14	58.23	-36.5	-37.8	17.2	0.00e+00	0	59	0	2736783360	43	4216
2026-01-28 14:48:34.72	272.97	58.13	-36.5	-37.8	17.2	0.00e+00	0	59	0	2744123392	43	4208
2026-01-28 14:48:35.74	273.81	58.02	-36.4	-37.6	17.4	0.00e+00	0	59	0	2751463424	43	4138
2026-01-28 14:48:36.75	274.63	57.91	-36.4	-37.7	17.4	0.00e+00	0	59	0	2758803456	43	4149
2026-01-28 14:48:37.76	275.44	57.80	-36.3	-37.6	17.4	0.00e+00	0	59	0	2766143488	43	4122
2026-01-28 14:48:38.77	276.25	57.68	-36.3	-37.5	17.5	0.00e+00	0	59	0	2773483520	43	4091
2026-01-28 14:48:39.78	277.05	57.55	-36.3	-37.6	17.4	0.00e+00	0	59	0	2780823552	43	4130
2026-01-28 14:48:40.79	277.84	57.42	-36.4	-37.7	17.4	0.00e+00	0	59	0	2788163584	43	4154
2026-01-28 14:48:41.80	278.62	57.29	-36.4	-37.7	17.3	0.00e+00	0	60	0	2795503616	43	4175
2026-01-28 14:48:42.81	279.40	57.15	-36.7	-38.0	16.8	0.00e+00	0	59	0	2802843648	43	4334
2026-01-28 14:48:43.82	280.16	57.00	-37.2	-38.6	16.4	0.00e+00	0	59	0	2810183680	43	4614
2026-01-28 14:48:44.83	280.92	56.85	-37.3	-38.8	16.4	0.00e+00	0	59	0	2817523712	44	4442
2026-01-28 14:48:45.84	281.68	56.70	-37.2	-38.6	16.6	0.00e+00	0	60	0	2824863744	44	4388
2026-01-28 14:48:46.85	282.42	56.54	-37.0	-38.4	16.8	0.00e+00	0	60	0	2832203776	44	4257
2026-01-28 14:48:47.86	283.15	56.38	-36.8	-38.2	17.0	0.00e+00	0	59	0	2839543808	44	4155
2026-01-28 14:48:48.87	283.88	56.21	-36.8	-38.1	17.1	0.00e+00	0	59	0	2846883840	44	4126
2026-01-28 14:48:49.89	284.60	56.04	-36.7	-38.0	17.2	0.00e+00	0	59	0	2854223872	44	4069
2026-01-28 14:48:50.90	285.31	55.87	-36.8	-38.1	17.1	0.00e+00	0	59	0	2861563904	44	4127
2026-01-28 14:48:51.91	286.01	55.69	-36.9	-38.2	16.9	0.00e+00	0	59	0	2868903936	44	4188
2026-01-28 14:48:52.92	286.70	55.51	-37.1	-38.5	16.7	0.00e+00	0	59	0	2876243968	44	4299
2026-01-28 14:48:53.93	287.38	55.33	-36.9	-38.2	17.0	0.00e+00	0	59	0	2882535424	44	4169
2026-01-28 14:48:54.94	288.06	55.14	-36.8	-38.1	17.0	0.00e+00	0	59	0	2889875456	44	4141
2026-01-28 14:48:55.95	288.72	54.95	-36.8	-38.1	17.0	0.00e+00	0	59	0	2898264064	44	4145
2026-01-28 14:48:56.96	289.38	54.76	-36.8	-38.1	17.1	0.00e+00	0	59	0	2904555520	44	4130
2026-01-28 14:48:57.97	290.02	54.57	-37.0	-38.4	16.9	0.00e+00	0	60	0	2911895552	44	4245
2026-01-28 14:48:58.98	290.66	54.37	-37.0	-38.4	16.8	0.00e+00	0	59	0	2919235584	44	4263
2026-01-28 14:48:59.99	291.29	54.17	-36.9	-38.2	17.0	0.00e+00	0	59	0	2926575616	44	4158
2026-01-28 14:49:00.99	291.90	53.97	-36.7	-38.0	17.2	0.00e+00	0	59	0	2933915648	44	4090
2026-01-28 14:49:02.00	292.51	53.76	-36.8	-38.1	17.1	0.00e+00	0	59	0	2941255680	44	4117
2026-01-28 14:49:03.01	293.12	53.55	-36.8	-38.0	17.1	0.00e+00	0	60	0	2948595712	44	4093
2026-01-28 14:49:04.02	293.71	53.34	-36.8	-38.1	17.1	0.00e+00	0	59	0	2955935744	44	4101
2026-01-28 14:49:05.03	294.30	53.13	-37.0	-38.3	16.9	0.00e+00	0	59	0	2963275776	44	4222
2026-01-28 14:49:06.04	294.87	52.91	-37.3	-38.7	16.5	0.00e+00	0	59	0	2970615808	44	4396
2026-01-28 14:49:07.05	295.44	52.70	-37.4	-38.8	16.4	0.00e+00	0	59	0	2977955840	44	4473
2026-01-28 14:49:08.06	296.00	52.48	-37.0	-38.4	16.8	0.00e+00	0	60	0	2985295872	44	4263
2026-01-28 14:49:09.07	296.56	52.26	-36.9	-38.2	17.0	0.00e+00	0	59	0	2992635904	44	4167
2026-01-28 14:49:10.08	297.10	52.03	-37.0	-38.3	16.9	0.00e+00	0	59	0	2999975936	44	4216
2026-01-28 14:49:11.09	297.64	51.81	-37.2	-38.6	16.5	0.00e+00	0	59	0	3007315968	44	4386
2026-01-28 14:49:12.11	298.17	51.58	-37.2	-38.6	16.5	0.00e+00	0	60	0	3014656000	44	4375
2026-01-28 14:49:13.12	298.69	51.36	-37.2	-38.6	16.6	0.00e+00	0	60	0	3021996032	44	4342
2026-01-28 14:49:14.12	299.20	51.13	-37.0	-38.4	16.8	0.00e+00	0	59	0	3028287488	44	4247
2026-01-28 14:49:15.13	299.70	50.90	-36.8	-38.1	17.1	0.00e+00	0	60	0	3035627520	44	4116
2026-01-28 14:49:16.14	300.20	50.67	-36.8	-38.2	17.0	0.00e+00	0	60	0	3042967552	44	4152
2026-01-28 14:49:17.15	300.69	50.44	-36.8	-38.1	17.0	0.00e+00	0	59	0	3050307584	44	4144
2026-01-28 14:49:18.16	301.17	50.21	-36.7	-38.0	17.1	0.00e+00	0	59	0	3057647616	44	4092
2026-01-28 14:49:19.17	301.65	49.98	-36.7	-38.0	17.2	0.00e+00	0	59	0	3064987648	44	4060
2026-01-28 14:49:20.18	302.11	49.74	-36.6	-37.9	17.3	0.00e+00	0	59	0	3072327680	44	4021
2026-01-28 14:49:21.20	302.58	49.51	-36.5	-37.8	17.4	0.00e+00	0	59	0	3079667712	44	3988
2026-01-28 14:49:22.21	303.03	49.27	-36.4	-37.6	17.4	0.00e+00	0	59	0	3087007744	43	4138
2026-01-28 14:49:23.22	303.48	49.04	-36.2	-37.5	17.5	0.00e+00	0	60	0	3094347776	43	4053
2026-01-28 14:49:24.23	303.92	48.80	-36.2	-37.5	17.5	0.00e+00	0	59	0	3101687808	43	4063
2026-01-28 14:49:25.24	304.35	48.56	-36.3	-37.5	17.5	0.00e+00	0	59	0	3109027840	43	4093
2026-01-28 14:49:26.25	304.78	48.33	-36.5	-37.8	17.3	0.00e+00	0	59	0	3116367872	43	4197
2026-01-28 14:49:27.26	305.20	48.09	-36.6	-37.9	17.1	0.00e+00	0	59	0	3123707904	43	4273
2026-01-28 14:49:28.27	305.62	47.85	-36.5	-37.8	17.2	0.00e+00	0	59	0	3131047936	43	4220
2026-01-28 14:49:29.28	306.02	47.61	-36.4	-37.7	17.4	0.00e+00	0	59	0	3138387968	43	4146
2026-01-28 14:49:30.29	306.42	47.38	-36.1	-37.3	17.7	0.00e+00	0	59	0	3145728000	43	3973
2026-01-28 14:49:31.30	306.82	47.14	-36.0	-37.2	17.8	0.00e+00	0	59	0	3153068032	42	4169
2026-01-28 14:49:32.31	307.21	46.90	-36.0	-37.3	17.7	0.00e+00	0	59	0	3160408064	42	4208
2026-01-28 14:49:33.32	307.59	46.66	-35.9	-37.1	17.8	0.00e+00	0	59	0	3167748096	42	4129
2026-01-28 14:49:34.33	307.97	46.42	-35.8	-37.0	18.0	0.00e+00	0	59	0	3175088128	42	4094
2026-01-28 14:49:35.34	308.34	46.18	-35.7	-36.9	18.1	0.00e+00	0	59	0	3181379584	42	4022
2026-01-28 14:49:36.35	308.71	45.95	-35.7	-36.9	18.2	0.00e+00	0	59	0	3189768192	42	4006
2026-01-28 14:49:37.36	309.07	45.71	-35.8	-37.0	18.1	0.00e+00	0	59	0	3197108224	42	4057
2026-01-28 14:49:38.37	309.43	45.47	-35.8	-37.0	18.0	0.00e+00	0	59	0	3203399680	42	4076
2026-01-28 14:49:39.38	309.78	45.23	-35.8	-37.1	18.0	0.00e+00	0	59	0	3210739712	42	4103
2026-01-28 14:49:40.39	310.13	45.00	-35.9	-37.2	17.5	0.00e+00	0	60	0	3219128320	42	4146
2026-01-28 14:49:41.40	310.47	44.76	-35.7	-36.9	18.1	0.00e+00	0	59	0	3225419776	42	4038
2026-01-28 14:49:42.41	310.80	44.52	-35.6	-36.8	18.2	0.00e+00	0	59	0	3232759808	42	3961
2026-01-28 14:49:43.42	311.13	44.29	-35.4	-36.6	18.4	0.00e+00	0	59	0	3240099840	41	4104
2026-01-28 14:49:44.43	311.46	44.05	-35.4	-36.5	18.5	0.00e+00	0	60	0	3247439872	41	4082
2026-01-28 14:49:45.44	311.78	43.82	-35.3	-36.4	18.6	0.00e+00	0	59	0	3254779904	41	4026
2026-01-28 14:49:46.45	312.10	43.58	-35.1	-36.2	18.7	0.00e+00	0	59	0	3262119936	41	3943
2026-01-28 14:49:47.46	312.41	43.35	-35.2	-36.3	18.6	0.00e+00	0	59	0	3269459968	41	3989
2026-01-28 14:49:48.47	312.72	43.11	-35.4	-36.5	18.5	0.00e+00	0	59	0	3276800000	41	4096
2026-01-28 14:49:49.48	313.02	42.88	-35.5	-36.7	18.3	0.00e+00	0	59	0	3284140032	41	4153
2026-01-28 14:49:50.49	313.32	42.65	-35.7	-36.9	18.1	0.00e+00	0	59	0	3291480064	41	4251
2026-01-28 14:49:51.50	313.61	42.41	-35.8	-37.0	18.0	0.00e+00	0	59	0	3298820096	41	4295
2026-01-28 14:49:52.51	313.91	42.18	-35.7	-36.9	18.0	0.00e+00	0	60	0	3306160128	41	4273
2026-01-28 14:49:53.52	314.19	41.95	-35.7	-36.9	18.1	0.00e+00	0	59	0	3313500160	41	4249
2026-01-28 14:49:54.53	314.47	41.72	-35.5	-36.7	18.2	0.00e+00	0	60	0	3320840192	41	4184
2026-01-28 14:49:55.54	314.75	41.49	-35.5	-36.7	18.3	0.00e+00	0	59	0	3327131648	41	4159
2026-01-28 14:49:56.55	315.03	41.27	-35.4	-36.5	18.4	0.00e+00	0	59	0	3335520256	41	4095
2026-01-28 14:49:57.56	315.30	41.04	-35.3	-36.5	18.5	0.00e+00	0	60	0	3342860288	41	4072
2026-01-28 14:49:58.57	315.57	40.81	-35.4	-36.6	18.4	0.00e+00	0	59	0	3349151744	41	4100
2026-01-28 14:49:59.58	315.83	40.58	-35.4	-36.6	18.4	0.00e+00	0	60	0	3356491776	41	4104
2026-01-28 14:50:00.58	316.09	40.36	-35.3	-36.5	18.5	0.00e+00	0	59	0	3363831808	41	4069
2026-01-28 14:50:01.59	316.34	40.14	-35.4	-36.5	18.4	0.00e+00	0	60	0	3371171840	41	4089
2026-01-28 14:50:02.60	316.60	39.91	-35.3	-36.5	18.5	0.00e+00	0	60	0	3378511872	41	4076
2026-01-28 14:50:03.62	316.85	39.69	-35.3	-36.5	18.5	0.00e+00	0	60	0	3385851904	41	4067
2026-01-28 14:50:04.62	317.09	39.47	-35.4	-36.5	18.4	0.00e+00	0	60	0	3393191936	41	4096
2026-01-28 14:50:05.64	317.34	39.24	-35.4	-36.6	18.4	0.00e+00	0	60	0	3400531968	41	4126
2026-01-28 14:50:06.65	317.58	39.02	-35.5	-36.6	18.3	0.00e+00	0	60	0	3407872000	41	4137
2026-01-28 14:50:07.65	317.81	38.81	-35.5	-36.7	18.2	0.00e+00	0	59	0	3415212032	41	4171
2026-01-28 14:50:08.67	318.05	38.58	-35.6	-36.7	18.2	0.00e+00	0	60	0	3422552064	41	4189
2026-01-28 14:50:09.68	318.28	38.37	-35.4	-36.6	18.2	0.00e+00	0	60	0	3429892096	41	4100
2026-01-28 14:50:10.69	318.50	38.15	-35.4	-36.6	18.4	0.00e+00	0	59	0	3437232128	41	4101
2026-01-28 14:50:11.70	318.73	37.93	-35.4	-36.6	18.3	0.00e+00	0	60	0	3444572160	41	4126
2026-01-28 14:50:12.71	318.95	37.72	-35.3	-36.4	18.2	0.00e+00	0	60	0	3451912192	41	4041
2026-01-28 14:50:13.72	319.17	37.50	-35.3	-36.4	18.5	0.00e+00	0	60	0	3459252224	41	4051
2026-01-28 14:50:14.73	319.39	37.29	-35.2	-36.3	18.6	0.00e+00	0	60	0	3466592256	41	3979
2026-01-28 14:50:15.74	319.60	37.08	-35.1	-36.2	18.7	0.00e+00	0	59	0	3473932288	41	3946
2026-01-28 14:50:16.75	319.81	36.87	-35.1	-36.2	18.7	0.00e+00	0	59	0	3481272320	41	3946
2026-01-28 14:50:17.76	320.02	36.66	-35.0	-36.1	18.8	0.00e+00	0	59	0	3488612352	41	3903
2026-01-28 14:50:18.77	320.22	36.45	-35.0	-36.1	18.8	0.00e+00	0	60	0	3495952384	41	3904
2026-01-28 14:50:19.78	320.42	36.24	-35.0	-36.1	18.9	0.00e+00	0	59	0	3502243840	40	4107
2026-01-28 14:50:20.79	320.62	36.03	-34.9	-36.0	18.9	0.00e+00	0	59	0	3510632448	40	4079
2026-01-28 14:50:21.81	320.82	35.82	-35.0	-36.1	18.8	0.00e+00	0	60	0	3517972480	40	4113
2026-01-28 14:50:22.82	321.02	35.62	-35.0	-36.1	18.8	0.00e+00	0	60	0	3524263936	40	4114
2026-01-28 14:50:23.83	321.21	35.41	-35.1	-36.2	18.7	0.00e+00	0	59	0	3531603968	40	4172
2026-01-28 14:50:24.84	321.40	35.21	-35.2	-36.3	18.6	0.00e+00	0	60	0	3538944000	40	4220
2026-01-28 14:50:25.85	321.59	35.01	-35.3	-36.4	18.5	0.00e+00	0	60	0	3546284032	40	4288
2026-01-28 14:50:26.86	321.78	34.81	-35.3	-36.5	18.4	0.00e+00	0	60	0	3553624064	40	4321
2026-01-28 14:50:27.87	321.96	34.60	-35.4	-36.6	18.3	0.00e+00	0	60	0	3560964096	40	4365
2026-01-28 14:50:28.88	322.14	34.41	-35.4	-36.6	18.4	0.00e+00	0	60	0	3568304128	40	4341
2026-01-28 14:50:29.89	322.32	34.21	-35.4	-36.6	18.3	0.00e+00	0	60	0	3575644160	40	4348
2026-01-28 14:50:30.90	322.50	34.01	-35.5	-36.7	18.1	0.00e+00	0	59	0	3582984192	40	4405
2026-01-28 14:50:31.91	322.67	33.81	-35.3	-36.4	18.5	0.00e+00	0	59	0	3590324224	40	4280
2026-01-28 14:50:32.92	322.85	33.62	-34.9	-36.1	18.8	0.00e+00	0	60	0	3597664256	40	4107
2026-01-28 14:50:33.93	323.02	33.42	-34.8	-35.9	18.8	0.00e+00	0	59	0	3605004288	40	4045
2026-01-28 14:50:34.95	323.19	33.23	-34.8	-35.9	19.0	0.00e+00	0	60	0	3612344320	40	4023
2026-01-28 14:50:35.95	323.35	33.03	-34.8	-36.0	19.0	0.00e+00	0	60	0	3619684352	40	4053
2026-01-28 14:50:36.96	323.52	32.84	-34.8	-35.9	19.0	0.00e+00	0	59	0	3627024384	40	4030
2026-01-28 14:50:37.98	323.68	32.65	-34.8	-35.9	19.0	0.00e+00	0	60	0	3634364416	40	4045
2026-01-28 14:50:38.98	323.84	32.46	-34.9	-36.0	18.8	0.00e+00	0	59	0	3641704448	40	4090
2026-01-28 14:50:40.00	324.00	32.27	-35.1	-36.2	18.7	0.00e+00	0	59	0	3649044480	40	4165
2026-01-28 14:50:41.01	324.16	32.08	-35.1	-36.3	18.6	0.00e+00	0	59	0	3656384512	40	4196
2026-01-28 14:50:42.02	324.32	31.90	-35.2	-36.3	18.6	0.00e+00	0	60	0	3663724544	40	4224
2026-01-28 14:50:43.02	324.47	31.71	-35.2	-36.4	18.5	0.00e+00	0	60	0	3670016000	40	4251
2026-01-28 14:50:44.03	324.62	31.53	-35.2	-36.4	18.5	0.00e+00	0	60	0	3677356032	40	4251
2026-01-28 14:50:45.04	324.77	31.34	-35.2	-36.3	18.5	0.00e+00	0	59	0	3685744640	40	4241
2026-01-28 14:50:46.05	324.92	31.16	-35.2	-36.3	18.5	0.00e+00	0	59	0	3692036096	40	4231
2026-01-28 14:50:47.06	325.07	30.98	-35.2	-36.4	18.5	0.00e+00	0	59	0	3699376128	40	4244
2026-01-28 14:50:48.07	325.22	30.80	-35.1	-36.3	18.6	0.00e+00	0	59	0	3706716160	40	4208
2026-01-28 14:50:49.08	325.36	30.62	-35.2	-36.3	18.5	0.00e+00	0	59	0	3714056192	40	4230
2026-01-28 14:50:50.09	325.50	30.44	-35.2	-36.3	18.5	0.00e+00	0	59	0	3721396224	40	4238
2026-01-28 14:50:51.11	325.65	30.26	-35.2	-36.3	18.5	0.00e+00	0	60	0	3728736256	40	4227
2026-01-28 14:50:52.12	325.79	30.08	-35.2	-36.3	18.5	0.00e+00	0	59	0	3736076288	40	4235
2026-01-28 14:50:53.13	325.93	29.90	-35.1	-36.3	18.6	0.00e+00	0	60	0	3743416320	40	4196
2026-01-28 14:50:54.14	326.06	29.73	-35.2	-36.4	18.5	0.00e+00	0	59	0	3750756352	40	4243
2026-01-28 14:50:55.15	326.20	29.55	-35.2	-36.3	18.5	0.00e+00	0	59	0	3758096384	40	4239
2026-01-28 14:50:56.16	326.33	29.38	-35.3	-36.4	18.4	0.00e+00	0	60	0	3765436416	40	4283
2026-01-28 14:50:57.17	326.46	29.20	-35.3	-36.4	18.4	0.00e+00	0	60	0	3772776448	40	4287
2026-01-28 14:50:58.18	326.60	29.03	-35.4	-36.5	18.3	0.00e+00	0	59	0	3780116480	40	4330
2026-01-28 14:50:59.19	326.73	28.86	-35.3	-36.5	18.3	0.00e+00	0	59	0	3787456512	40	4322
2026-01-28 14:51:00.20	326.85	28.69	-35.3	-36.5	18.3	0.00e+00	0	59	0	3794796544	40	4312
2026-01-28 14:51:01.22	326.98	28.52	-35.4	-36.6	18.3	0.00e+00	0	60	0	3802136576	40	4352
2026-01-28 14:51:02.23	327.11	28.35	-35.4	-36.5	18.3	0.00e+00	0	60	0	3809476608	40	4335
2026-01-28 14:51:03.24	327.23	28.18	-35.4	-36.6	18.3	0.00e+00	0	59	0	3816816640	40	4348
2026-01-28 14:51:04.25	327.36	28.02	-35.4	-36.6	18.3	0.00e+00	0	60	0	3824156672	40	4347
2026-01-28 14:51:05.26	327.48	27.85	-35.5	-36.7	18.2	0.00e+00	0	60	0	3831496704	40	4400
2026-01-28 14:51:06.27	327.60	27.69	-35.4	-36.6	18.2	0.00e+00	0	59	0	3838836736	40	4368
2026-01-28 14:51:07.28	327.72	27.52	-35.4	-36.6	18.2	0.00e+00	0	60	0	3845128192	40	4380
2026-01-28 14:51:08.29	327.84	27.36	-35.4	-36.6	18.2	0.00e+00	0	59	0	3853516800	40	4372
2026-01-28 14:51:09.30	327.96	27.20	-35.4	-36.6	18.2	0.00e+00	0	60	0	3860856832	40	4383
2026-01-28 14:51:10.31	328.07	27.04	-35.4	-36.6	18.2	0.00e+00	0	60	0	3867148288	40	4359
2026-01-28 14:51:11.32	328.19	26.87	-35.3	-36.5	18.3	0.00e+00	0	59	0	3874488320	40	4308
2026-01-28 14:51:12.33	328.30	26.71	-35.3	-36.4	18.4	0.00e+00	0	60	0	3882876928	40	4270
2026-01-28 14:51:13.34	328.41	26.56	-35.3	-36.4	18.3	0.00e+00	0	59	0	3889168384	40	4291
2026-01-28 14:51:14.36	328.53	26.40	-35.3	-36.4	18.3	0.00e+00	0	60	0	3896508416	40	4291
2026-01-28 14:51:15.37	328.64	26.24	-35.3	-36.4	18.4	0.00e+00	0	59	0	3903848448	40	4270
2026-01-28 14:51:16.38	328.75	26.08	-35.3	-36.4	18.3	0.00e+00	0	59	0	3911188480	40	4286
2026-01-28 14:51:17.39	328.86	25.93	-35.3	-36.5	18.3	0.00e+00	0	59	0	3918528512	40	4296
2026-01-28 14:51:18.40	328.97	25.77	-35.3	-36.5	18.3	0.00e+00	0	60	0	3925868544	40	4315
2026-01-28 14:51:19.41	329.07	25.62	-35.4	-36.5	18.2	0.00e+00	0	59	0	3933208576	40	4336
2026-01-28 14:51:20.42	329.18	25.46	-35.3	-36.5	18.3	0.00e+00	0	60	0	3940548608	40	4312
2026-01-28 14:51:21.42	329.28	25.31	-35.4	-36.6	18.2	0.00e+00	0	59	0	3947888640	40	4352
2026-01-28 14:51:22.44	329.39	25.16	-35.5	-36.7	18.1	0.00e+00	0	60	0	3955228672	40	4406
2026-01-28 14:51:23.45	329.49	25.01	-35.5	-36.7	18.1	0.00e+00	0	59	0	3962568704	40	4406
2026-01-28 14:51:24.46	329.59	24.86	-35.5	-36.8	18.0	0.00e+00	0	60	0	3969908736	40	4446
2026-01-28 14:51:25.47	329.69	24.71	-35.6	-36.9	17.9	0.00e+00	0	59	0	3977248768	40	4500
2026-01-28 14:51:26.48	329.79	24.56	-35.5	-36.7	18.0	0.00e+00	0	60	0	3984588800	40	4425
2026-01-28 14:51:27.49	329.89	24.41	-35.6	-36.8	18.0	0.00e+00	0	59	0	3991928832	40	4446
2026-01-28 14:51:28.50	329.99	24.26	-35.5	-36.7	18.0	0.00e+00	0	60	0	3999268864	40	4428
2026-01-28 14:51:29.51	330.09	24.12	-35.5	-36.7	18.1	0.00e+00	0	60	0	4006608896	40	4410
2026-01-28 14:51:30.52	330.18	23.97	-35.5	-36.7	18.0	0.00e+00	0	60	0	4012900352	40	4440
2026-01-28 14:51:31.53	330.28	23.83	-35.6	-36.9	17.9	0.00e+00	0	59	0	4020240384	40	4504
2026-01-28 14:51:32.54	330.37	23.68	-35.6	-36.8	18.0	0.00e+00	0	60	0	4028628992	40	4453
2026-01-28 14:51:33.55	330.47	23.54	-35.6	-36.8	17.9	0.00e+00	0	60	0	4034920448	40	4457
2026-01-28 14:51:34.56	330.56	23.40	-35.6	-36.8	17.9	0.00e+00	0	60	0	4042260480	40	4482
2026-01-28 14:51:35.57	330.65	23.25	-35.6	-36.9	17.9	0.00e+00	0	60	0	4049600512	40	4502
2026-01-28 14:51:36.58	330.75	23.11	-35.6	-36.8	17.9	0.00e+00	0	60	0	4056940544	40	4461
2026-01-28 14:51:37.59	330.84	22.97	-35.6	-36.8	17.9	0.00e+00	0	60	0	4064280576	40	4476
2026-01-28 14:51:38.60	330.93	22.83	-35.6	-36.8	17.9	0.00e+00	0	60	0	4071620608	40	4482
2026-01-28 14:51:39.61	331.02	22.69	-35.6	-36.8	17.9	0.00e+00	0	60	0	4078960640	40	4446
2026-01-28 14:51:40.61	331.10	22.56	-35.6	-36.8	17.8	0.00e+00	0	60	0	4086300672	40	4483
2026-01-28 14:51:41.62	331.19	22.42	-35.6	-36.8	17.9	0.00e+00	0	59	0	4093640704	40	4481
2026-01-28 14:51:42.63	331.28	22.28	-35.6	-36.8	17.9	0.00e+00	0	59	0	4100980736	40	4459
2026-01-28 14:51:43.64	331.36	22.14	-35.6	-36.8	17.8	0.00e+00	0	60	0	4108320768	40	4479
2026-01-28 14:51:44.65	331.45	22.01	-35.6	-36.8	17.8	0.00e+00	0	59	0	4115660800	40	4492
2026-01-28 14:51:45.66	331.54	21.87	-35.7	-36.9	17.8	0.00e+00	0	60	0	4123000832	40	4508
2026-01-28 14:51:46.67	331.62	21.74	-35.7	-37.0	17.7	0.00e+00	0	60	0	4130340864	41	4301
2026-01-28 14:51:47.68	331.70	21.61	-35.8	-37.0	17.6	0.00e+00	0	60	0	4137680896	41	4339
2026-01-28 14:51:48.69	331.79	21.47	-35.8	-37.1	17.5	0.00e+00	0	60	0	4145020928	41	4362
2026-01-28 14:51:49.71	331.87	21.34	-35.9	-37.2	17.4	0.00e+00	0	60	0	4152360960	41	4429
2026-01-28 14:51:50.72	331.95	21.21	-36.0	-37.3	17.4	0.00e+00	0	60	0	4159700992	41	4447
2026-01-28 14:51:51.73	332.03	21.08	-35.9	-37.2	17.4	0.00e+00	0	60	0	4165992448	41	4431
2026-01-28 14:51:52.74	332.11	20.94	-36.0	-37.3	17.3	0.00e+00	0	60	0	4174381056	41	4470
2026-01-28 14:51:53.75	332.19	20.81	-36.0	-37.3	17.3	0.00e+00	0	60	0	4181721088	41	4486
2026-01-28 14:51:54.76	332.27	20.68	-36.1	-37.3	17.2	0.00e+00	0	60	0	4188012544	41	4490
2026-01-28 14:51:55.77	332.35	20.56	-36.1	-37.4	17.2	0.00e+00	0	60	0	4195352576	41	4537
2026-01-28 14:51:56.78	332.43	20.43	-36.1	-37.4	17.2	0.00e+00	0	60	0	4203741184	41	4531
2026-01-28 14:51:57.79	332.50	20.30	-36.2	-37.5	17.1	0.00e+00	0	60	0	4210032640	41	4575
2026-01-28 14:51:58.80	332.58	20.17	-36.3	-37.6	17.0	0.00e+00	0	59	0	4217372672	42	4371
2026-01-28 14:51:59.82	332.66	20.05	-36.3	-37.6	17.0	0.00e+00	0	60	0	4224712704	42	4367
2026-01-28 14:52:00.83	332.73	19.92	-36.3	-37.6	17.0	0.00e+00	0	60	0	4232052736	42	4356
2026-01-28 14:52:01.84	332.81	19.79	-36.3	-37.6	17.0	0.00e+00	0	60	0	4239392768	42	4364
2026-01-28 14:52:02.85	332.88	19.67	-36.3	-37.6	16.9	0.00e+00	0	60	0	4246732800	42	4391
2026-01-28 14:52:03.86	332.95	19.55	-36.3	-37.6	17.0	0.00e+00	0	60	0	4254072832	42	4375
2026-01-28 14:52:04.87	333.03	19.42	-36.3	-37.7	16.9	0.00e+00	0	59	0	4261412864	42	4403
2026-01-28 14:52:05.88	333.10	19.30	-36.4	-37.7	16.8	0.00e+00	0	60	0	4268752896	42	4439
2026-01-28 14:52:06.89	333.17	19.18	-36.3	-37.7	16.9	0.00e+00	0	60	0	4276092928	42	4408
2026-01-28 14:52:07.90	333.24	19.06	-36.3	-37.7	16.9	0.00e+00	0	60	0	4283432960	42	4398
2026-01-28 14:52:08.91	333.31	18.93	-36.4	-37.8	16.8	0.00e+00	0	60	0	4290772992	42	4451
2026-01-28 14:52:09.92	333.38	18.81	-36.4	-37.7	16.8	0.00e+00	0	60	0	4298113024	42	4421
2026-01-28 14:52:10.93	333.45	18.69	-36.4	-37.8	16.8	0.00e+00	0	60	0	4305453056	42	4448
2026-01-28 14:52:11.94	333.52	18.57	-36.4	-37.7	16.8	0.00e+00	0	60	0	4312793088	42	4431
2026-01-28 14:52:12.95	333.59	18.46	-36.4	-37.7	16.8	0.00e+00	0	60	0	4320133120	42	4435
2026-01-28 14:52:13.96	333.66	18.34	-36.4	-37.7	16.8	0.00e+00	0	59	0	4327473152	42	4432
2026-01-28 14:52:14.97	333.73	18.22	-36.4	-37.8	16.7	0.00e+00	0	59	0	4333764608	42	4443
2026-01-28 14:52:15.98	333.80	18.10	-36.4	-37.8	16.7	0.00e+00	0	60	0	4341104640	42	4461
2026-01-28 14:52:16.99	333.86	17.99	-36.4	-37.8	16.6	0.00e+00	0	60	0	4349493248	42	4469
2026-01-28 14:52:18.00	333.93	17.87	-36.5	-37.8	16.6	0.00e+00	0	60	0	4355784704	42	4489
2026-01-28 14:52:19.01	333.99	17.75	-36.4	-37.8	16.6	0.00e+00	0	60	0	4363124736	42	4467
2026-01-28 14:52:20.02	334.06	17.64	-36.5	-37.9	16.5	0.00e+00	0	60	0	4370464768	42	4510
2026-01-28 14:52:21.03	334.12	17.52	-36.5	-37.8	16.6	0.00e+00	0	60	0	4377804800	42	4492
2026-01-28 14:52:22.04	334.19	17.41	-36.4	-37.8	16.6	0.00e+00	0	60	0	4385144832	42	4464
2026-01-28 14:52:23.05	334.25	17.30	-36.4	-37.8	16.6	0.00e+00	0	60	0	4392484864	42	4473
2026-01-28 14:52:24.06	334.32	17.18	-36.6	-38.0	16.5	0.00e+00	0	60	0	4399824896	42	4548
2026-01-28 14:52:25.07	334.38	17.07	-36.6	-37.9	16.5	0.00e+00	0	60	0	4407164928	42	4544
2026-01-28 14:52:26.08	334.44	16.96	-36.5	-37.9	16.4	0.00e+00	0	60	0	4414504960	42	4531
2026-01-28 14:52:27.09	334.50	16.84	-36.6	-38.0	16.4	0.00e+00	0	60	0	4421844992	42	4554
2026-01-28 14:52:28.10	334.57	16.73	-36.6	-38.0	16.4	0.00e+00	0	60	0	4429185024	42	4573
2026-01-28 14:52:29.11	334.63	16.62	-36.7	-38.1	16.2	0.00e+00	0	59	0	4436525056	43	4381
2026-01-28 14:52:30.12	334.69	16.51	-36.7	-38.1	16.2	0.00e+00	0	60	0	4443865088	43	4367
2026-01-28 14:52:31.13	334.75	16.40	-36.7	-38.1	16.2	0.00e+00	0	59	0	4451205120	43	4382
2026-01-28 14:52:32.14	334.81	16.29	-36.7	-38.1	16.2	0.00e+00	0	60	0	4458545152	43	4388
2026-01-28 14:52:33.15	334.87	16.18	-36.8	-38.2	16.1	0.00e+00	0	60	0	4465885184	43	4415
2026-01-28 14:52:34.16	334.93	16.08	-36.8	-38.3	16.0	0.00e+00	0	59	0	4473225216	43	4469
2026-01-28 14:52:35.18	334.99	15.97	-36.9	-38.3	16.0	0.00e+00	0	60	0	4480565248	43	4492
2026-01-28 14:52:36.19	335.05	15.86	-36.9	-38.3	16.0	0.00e+00	0	60	0	4487905280	43	4477
2026-01-28 14:52:37.20	335.11	15.75	-36.9	-38.3	16.0	0.00e+00	0	60	0	4495245312	43	4485
2026-01-28 14:52:38.21	335.16	15.65	-36.9	-38.4	15.9	0.00e+00	0	60	0	4502585344	43	4499
2026-01-28 14:52:39.22	335.22	15.54	-36.9	-38.4	15.9	0.00e+00	0	60	0	4508876800	43	4498
2026-01-28 14:52:40.23	335.28	15.43	-37.0	-38.5	15.8	0.00e+00	0	60	0	4516216832	43	4561
