passes_logs/2026/01/28/R2.0S_Moscow/R2.0S_Moscow__20260128_030818_FENGYUN_3D_rec.log

#Pass ID: 20260128_030818_FENGYUN 3D
#Satellite: FENGYUN 3D
#Configuration: FENGYUN 3D
#almurnet v.1.7.20251203
#Start time: 2026-01-28 03:08:19

#Version: 2.2.20231116
#Station: R2.0S_Moscow
#Location: 37.707566 lon 55.798166 lat
#TLE: 1 43010U 17072A   26027.47796828  .00000374  00000+0  19850-3 0  9992
#TLE: 2 43010  98.9960 359.4888 0002523  87.5419 272.6045 14.19701595425023

#Time	Az	El	Level	Level2	SNR	BER	BlckErr	Temp	State	Recorded	gain1	gain2
2026-01-28 03:08:19.33	11.60	2.06	-39.9	-51.4	3.8	8.46e-01	0	53	0	0	51	13455
2026-01-28 03:08:20.33	11.54	2.11	-39.9	-51.4	3.8	8.46e-01	0	53	104	0	51	13441
2026-01-28 03:08:21.34	11.49	2.17	-39.9	-51.4	3.8	8.45e-01	0	53	104	0	51	13429
2026-01-28 03:08:22.35	11.44	2.23	-39.9	-51.4	3.8	8.46e-01	0	53	104	0	51	13457
2026-01-28 03:08:23.36	11.38	2.29	-39.9	-51.3	3.8	8.46e-01	0	53	104	0	51	13405
2026-01-28 03:08:24.37	11.33	2.35	-39.9	-51.4	3.8	8.46e-01	0	53	104	0	51	13434
2026-01-28 03:08:25.38	11.27	2.41	-39.9	-51.4	3.8	8.47e-01	0	53	104	0	51	13463
2026-01-28 03:08:26.39	11.22	2.47	-39.9	-51.3	3.8	8.46e-01	0	53	104	0	51	13407
2026-01-28 03:08:27.40	11.16	2.53	-39.9	-51.4	3.8	8.46e-01	0	53	104	0	51	13435
2026-01-28 03:08:28.41	11.11	2.60	-39.9	-51.4	3.8	8.47e-01	0	53	104	0	51	13422
2026-01-28 03:08:29.42	11.05	2.66	-39.9	-51.4	3.8	8.46e-01	0	53	104	0	51	13428
2026-01-28 03:08:30.44	11.00	2.72	-39.9	-51.4	3.8	8.45e-01	0	54	104	0	51	13442
2026-01-28 03:08:31.45	10.94	2.78	-39.9	-51.4	3.8	8.45e-01	0	54	104	0	51	13442
2026-01-28 03:08:32.46	10.88	2.84	-39.9	-51.4	3.8	8.46e-01	0	54	104	0	51	13442
2026-01-28 03:08:33.47	10.83	2.90	-39.9	-51.4	3.8	8.47e-01	0	54	104	0	51	13432
2026-01-28 03:08:34.48	10.77	2.96	-39.9	-51.3	3.8	8.46e-01	0	54	104	0	51	13409
2026-01-28 03:08:35.49	10.71	3.02	-39.9	-51.4	3.8	8.46e-01	0	54	104	0	51	13420
2026-01-28 03:08:36.50	10.66	3.08	-39.9	-51.4	3.8	8.46e-01	0	54	104	0	51	13453
2026-01-28 03:08:37.51	10.60	3.14	-39.9	-51.4	3.8	8.46e-01	0	54	104	0	51	13441
2026-01-28 03:08:38.52	10.54	3.21	-39.9	-51.4	3.8	8.46e-01	0	54	104	0	51	13424
2026-01-28 03:08:39.53	10.48	3.27	-39.9	-51.4	3.8	8.46e-01	0	54	104	0	51	13440
2026-01-28 03:08:40.54	10.42	3.33	-39.9	-51.3	3.8	8.46e-01	0	54	104	0	51	13394
2026-01-28 03:08:41.55	10.37	3.39	-39.9	-51.3	3.8	8.46e-01	0	54	104	0	51	13413
2026-01-28 03:08:42.56	10.31	3.45	-39.9	-51.4	3.8	8.47e-01	0	54	104	0	51	13439
2026-01-28 03:08:43.57	10.25	3.52	-39.9	-51.4	3.8	8.46e-01	0	54	104	0	51	13420
2026-01-28 03:08:44.58	10.19	3.58	-39.9	-51.4	3.8	8.47e-01	0	54	104	0	51	13430
2026-01-28 03:08:45.59	10.13	3.64	-39.9	-51.3	3.8	8.47e-01	0	55	104	0	51	13402
2026-01-28 03:08:46.60	10.07	3.70	-39.9	-51.3	3.8	8.46e-01	0	55	104	0	51	13406
2026-01-28 03:08:47.61	10.01	3.76	-39.9	-51.4	3.8	8.46e-01	0	55	104	0	51	13418
2026-01-28 03:08:48.62	9.95	3.83	-39.9	-51.4	3.8	8.46e-01	0	55	104	0	51	13431
2026-01-28 03:08:49.63	9.89	3.89	-39.9	-51.4	3.8	8.45e-01	0	55	104	0	51	13415
2026-01-28 03:08:50.65	9.83	3.95	-39.9	-51.4	3.8	8.46e-01	0	55	104	0	51	13438
2026-01-28 03:08:51.65	9.77	4.02	-39.9	-51.3	3.8	8.48e-01	0	55	104	0	51	13377
2026-01-28 03:08:52.67	9.70	4.08	-39.9	-51.3	3.8	8.46e-01	0	55	104	0	51	13411
2026-01-28 03:08:53.67	9.64	4.14	-39.9	-51.3	3.8	8.48e-01	0	55	104	0	51	13379
2026-01-28 03:08:54.69	9.58	4.21	-39.9	-51.4	3.8	8.46e-01	0	55	104	0	51	13446
2026-01-28 03:08:55.69	9.52	4.27	-39.9	-51.4	3.8	8.46e-01	0	56	104	0	51	13417
2026-01-28 03:08:56.70	9.46	4.33	-39.9	-51.3	3.8	8.45e-01	0	55	104	0	51	13397
2026-01-28 03:08:57.71	9.39	4.40	-39.9	-51.3	3.8	8.47e-01	0	56	104	0	51	13400
2026-01-28 03:08:58.72	9.33	4.46	-39.9	-51.4	3.8	8.46e-01	0	56	104	0	51	13429
2026-01-28 03:08:59.73	9.27	4.52	-39.9	-51.4	3.8	8.47e-01	0	55	104	0	51	13420
2026-01-28 03:09:00.74	9.20	4.59	-39.9	-51.3	3.8	8.47e-01	0	56	104	0	51	13407
2026-01-28 03:09:01.75	9.14	4.65	-39.9	-51.3	3.8	8.46e-01	0	56	104	0	51	13381
2026-01-28 03:09:02.76	9.07	4.72	-39.9	-51.3	3.8	8.47e-01	0	56	104	0	51	13409
2026-01-28 03:09:03.77	9.01	4.78	-39.9	-51.3	3.8	8.46e-01	0	56	104	0	51	13409
2026-01-28 03:09:04.78	8.94	4.84	-39.9	-51.4	3.8	8.46e-01	0	56	104	0	51	13415
2026-01-28 03:09:05.79	8.88	4.91	-39.9	-51.3	3.8	8.46e-01	0	56	104	0	51	13390
2026-01-28 03:09:06.80	8.81	4.97	-39.9	-51.3	3.8	8.46e-01	0	56	104	0	51	13373
2026-01-28 03:09:07.81	8.75	5.04	-39.9	-51.3	3.8	8.46e-01	0	56	104	0	51	13411
2026-01-28 03:09:08.82	8.68	5.10	-39.9	-51.3	3.8	8.46e-01	0	56	104	0	51	13413
2026-01-28 03:09:09.84	8.61	5.17	-39.9	-51.3	3.8	8.46e-01	0	56	104	0	51	13382
2026-01-28 03:09:10.85	8.55	5.23	-39.9	-51.4	3.8	8.47e-01	0	56	104	0	51	13415
2026-01-28 03:09:11.85	8.48	5.30	-39.9	-51.4	3.8	8.45e-01	0	56	104	0	51	13417
2026-01-28 03:09:12.86	8.41	5.36	-39.9	-51.3	3.8	8.46e-01	0	56	104	0	51	13397
2026-01-28 03:09:13.88	8.34	5.43	-39.9	-51.3	3.8	8.45e-01	0	56	104	0	51	13355
2026-01-28 03:09:14.89	8.28	5.50	-39.9	-51.3	3.8	8.46e-01	0	56	104	0	51	13390
2026-01-28 03:09:15.90	8.21	5.56	-39.9	-51.3	3.8	8.45e-01	0	56	104	0	51	13387
2026-01-28 03:09:16.91	8.14	5.63	-39.9	-51.3	3.8	8.47e-01	0	56	104	0	51	13362
2026-01-28 03:09:17.92	8.07	5.69	-39.9	-51.4	3.8	8.46e-01	0	57	104	0	51	13438
2026-01-28 03:09:18.93	8.00	5.76	-39.9	-51.3	3.8	8.47e-01	0	56	104	0	51	13399
2026-01-28 03:09:19.94	7.93	5.83	-39.9	-51.3	3.8	8.46e-01	0	56	104	0	51	13400
2026-01-28 03:09:20.95	7.86	5.89	-39.9	-51.3	3.8	8.45e-01	0	56	104	0	51	13384
2026-01-28 03:09:21.96	7.79	5.96	-39.9	-51.3	3.8	8.46e-01	0	57	104	0	51	13354
2026-01-28 03:09:22.97	7.72	6.03	-39.9	-51.3	3.8	8.45e-01	0	57	104	0	51	13393
2026-01-28 03:09:23.98	7.65	6.09	-39.9	-51.4	3.8	8.46e-01	0	57	104	0	51	13426
2026-01-28 03:09:24.99	7.58	6.16	-39.9	-51.3	3.8	8.46e-01	0	57	104	0	51	13389
2026-01-28 03:09:26.00	7.50	6.23	-39.9	-51.3	3.8	8.45e-01	0	57	104	0	51	13413
2026-01-28 03:09:27.01	7.43	6.29	-39.9	-51.3	3.8	8.47e-01	0	57	104	0	51	13361
2026-01-28 03:09:28.02	7.36	6.36	-39.9	-51.3	3.8	8.45e-01	0	57	104	0	51	13382
2026-01-28 03:09:29.03	7.29	6.43	-39.9	-51.3	3.8	8.47e-01	0	57	104	0	51	13385
2026-01-28 03:09:30.04	7.21	6.50	-39.9	-51.3	3.8	8.46e-01	0	57	104	0	51	13406
2026-01-28 03:09:31.04	7.14	6.56	-39.9	-51.3	3.8	8.46e-01	0	57	104	0	51	13393
2026-01-28 03:09:32.06	7.06	6.63	-39.9	-51.3	3.8	8.46e-01	0	57	104	0	51	13371
2026-01-28 03:09:33.06	6.99	6.70	-39.9	-51.3	3.8	8.47e-01	0	57	104	0	51	13346
2026-01-28 03:09:34.07	6.92	6.77	-39.9	-51.3	3.8	8.47e-01	0	57	104	0	51	13405
2026-01-28 03:09:35.08	6.84	6.84	-39.9	-51.3	3.8	8.46e-01	0	57	104	0	51	13409
2026-01-28 03:09:36.09	6.77	6.91	-39.9	-51.3	3.8	8.46e-01	0	57	104	0	51	13409
2026-01-28 03:09:37.10	6.69	6.97	-39.9	-51.4	3.8	8.46e-01	0	57	104	0	51	13416
2026-01-28 03:09:38.11	6.61	7.04	-39.9	-51.3	3.8	8.47e-01	0	57	104	0	51	13365
2026-01-28 03:09:39.12	6.54	7.11	-39.9	-51.3	3.8	8.46e-01	0	57	104	0	51	13392
2026-01-28 03:09:40.13	6.46	7.18	-39.9	-51.3	3.8	8.46e-01	0	57	104	0	51	13382
2026-01-28 03:09:41.15	6.38	7.25	-39.9	-51.3	3.8	8.46e-01	0	57	104	0	51	13368
2026-01-28 03:09:42.16	6.30	7.32	-39.9	-51.3	3.8	8.45e-01	0	57	104	0	51	13381
2026-01-28 03:09:43.17	6.23	7.39	-39.9	-51.3	3.8	8.47e-01	0	58	104	0	51	13374
2026-01-28 03:09:44.18	6.15	7.46	-39.9	-51.3	3.8	8.48e-01	0	58	104	0	51	13335
2026-01-28 03:09:45.19	6.07	7.53	-39.9	-51.3	3.8	8.46e-01	0	58	104	0	51	13342
2026-01-28 03:09:46.20	5.99	7.60	-39.9	-51.3	3.8	8.46e-01	0	58	104	0	51	13341
2026-01-28 03:09:47.21	5.91	7.67	-39.9	-51.3	3.8	8.45e-01	0	58	104	0	51	13357
2026-01-28 03:09:48.22	5.83	7.74	-39.9	-51.3	3.8	8.47e-01	0	58	104	0	51	13357
2026-01-28 03:09:49.23	5.75	7.81	-39.9	-51.3	3.8	8.45e-01	0	58	104	0	51	13352
2026-01-28 03:09:50.24	5.67	7.88	-39.9	-51.3	3.8	8.46e-01	0	58	104	0	51	13365
2026-01-28 03:09:51.25	5.59	7.95	-39.9	-51.3	3.8	8.46e-01	0	58	104	0	51	13332
2026-01-28 03:09:52.26	5.50	8.02	-39.9	-51.3	3.8	8.47e-01	0	58	104	0	51	13393
2026-01-28 03:09:53.27	5.42	8.09	-39.9	-51.4	3.8	8.45e-01	0	58	104	0	51	13480
2026-01-28 03:09:54.28	5.34	8.16	-40.0	-51.4	3.8	8.47e-01	0	58	104	0	51	13517
2026-01-28 03:09:55.29	5.26	8.23	-40.0	-51.4	3.8	8.46e-01	0	58	104	0	51	13531
2026-01-28 03:09:56.30	5.17	8.30	-40.0	-51.5	3.8	8.46e-01	0	58	104	0	51	13581
2026-01-28 03:09:57.31	5.09	8.37	-40.0	-51.4	3.8	8.46e-01	0	58	104	0	51	13537
2026-01-28 03:09:58.32	5.00	8.44	-40.0	-51.5	3.8	8.46e-01	0	58	104	0	51	13571
2026-01-28 03:09:59.33	4.92	8.52	-40.0	-51.4	3.8	8.46e-01	0	58	104	0	51	13522
2026-01-28 03:10:00.34	4.83	8.59	-40.0	-51.4	3.8	8.48e-01	0	58	104	0	51	13515
2026-01-28 03:10:01.35	4.75	8.66	-40.0	-51.4	3.8	8.47e-01	0	58	104	0	51	13550
2026-01-28 03:10:02.36	4.66	8.73	-40.0	-51.5	3.8	8.46e-01	0	58	104	0	51	13607
2026-01-28 03:10:03.37	4.58	8.80	-40.0	-51.4	3.8	8.46e-01	0	58	104	0	51	13549
2026-01-28 03:10:04.38	4.49	8.88	-40.0	-51.5	3.8	8.46e-01	0	58	104	0	51	13603
2026-01-28 03:10:05.39	4.40	8.95	-40.0	-51.5	3.8	8.46e-01	0	58	104	0	51	13631
2026-01-28 03:10:06.40	4.31	9.02	-40.1	-51.5	3.8	8.47e-01	0	58	104	0	51	13703
2026-01-28 03:10:07.41	4.22	9.09	-40.0	-51.4	3.8	8.46e-01	0	58	104	0	51	13562
2026-01-28 03:10:08.42	4.14	9.17	-40.1	-51.5	3.8	8.46e-01	0	58	104	0	51	13656
2026-01-28 03:10:09.44	4.05	9.24	-40.0	-51.5	3.8	8.45e-01	0	58	104	0	51	13575
2026-01-28 03:10:10.45	3.96	9.31	-40.1	-51.6	3.8	8.46e-01	0	58	104	0	51	13741
2026-01-28 03:10:11.46	3.87	9.39	-40.0	-51.5	3.8	8.47e-01	0	58	104	0	51	13598
2026-01-28 03:10:12.47	3.78	9.46	-40.1	-51.6	3.8	8.46e-01	0	59	104	0	51	13744
2026-01-28 03:10:13.48	3.68	9.53	-40.0	-51.5	3.8	8.44e-01	0	59	104	0	51	13611
2026-01-28 03:10:14.49	3.59	9.61	-40.1	-51.5	3.8	8.45e-01	0	58	104	0	51	13725
2026-01-28 03:10:15.50	3.50	9.68	-40.1	-51.6	3.8	8.46e-01	0	59	104	0	51	13767
2026-01-28 03:10:16.51	3.41	9.76	-40.1	-51.6	3.8	8.46e-01	0	59	104	0	51	13758
2026-01-28 03:10:17.52	3.31	9.83	-40.0	-51.5	3.8	8.47e-01	0	58	104	0	51	13610
2026-01-28 03:10:18.53	3.22	9.90	-40.1	-51.5	3.8	8.45e-01	0	59	104	0	51	13700
2026-01-28 03:10:19.54	3.13	9.98	-40.2	-51.6	3.8	8.46e-01	0	59	104	0	51	13797
2026-01-28 03:10:20.55	3.03	10.05	-40.1	-51.5	3.8	8.46e-01	0	59	104	0	51	13701
2026-01-28 03:10:21.56	2.94	10.13	-40.1	-51.5	3.8	8.46e-01	0	59	104	0	51	13661
2026-01-28 03:10:22.57	2.84	10.20	-40.1	-51.5	3.8	8.46e-01	0	59	104	0	51	13723
2026-01-28 03:10:23.58	2.74	10.28	-40.2	-51.6	3.8	8.47e-01	0	59	104	0	51	13880
2026-01-28 03:10:24.59	2.65	10.35	-40.1	-51.5	3.8	8.45e-01	0	59	104	0	51	13623
2026-01-28 03:10:25.60	2.55	10.43	-40.1	-51.5	3.8	8.45e-01	0	59	104	0	51	13708
2026-01-28 03:10:26.61	2.45	10.50	-40.1	-51.5	3.8	8.46e-01	0	59	104	0	51	13723
2026-01-28 03:10:27.62	2.36	10.58	-40.3	-51.7	3.8	8.46e-01	0	59	104	0	51	13956
2026-01-28 03:10:28.63	2.26	10.66	-40.1	-51.5	3.8	8.47e-01	0	59	104	0	51	13656
2026-01-28 03:10:29.64	2.16	10.73	-40.1	-51.6	3.8	8.46e-01	0	59	104	0	51	13768
2026-01-28 03:10:30.65	2.06	10.81	-40.1	-51.6	3.8	8.44e-01	0	59	104	0	51	13748
2026-01-28 03:10:31.67	1.96	10.88	-40.3	-51.8	3.8	8.45e-01	0	59	104	0	51	14117
2026-01-28 03:10:32.68	1.85	10.96	-40.1	-51.5	3.8	8.46e-01	0	59	104	0	51	13664
2026-01-28 03:10:33.69	1.75	11.04	-40.2	-51.6	3.8	8.46e-01	0	59	104	0	51	13867
2026-01-28 03:10:34.70	1.65	11.11	-40.2	-51.6	3.8	8.46e-01	0	59	104	0	51	13766
2026-01-28 03:10:35.71	1.55	11.19	-40.5	-51.9	3.8	8.46e-01	0	59	104	0	51	14292
2026-01-28 03:10:36.72	1.45	11.27	-40.1	-51.5	3.8	8.46e-01	0	59	104	0	51	13673
2026-01-28 03:10:37.72	1.34	11.34	-40.0	-51.4	3.8	8.47e-01	0	59	104	0	51	13542
2026-01-28 03:10:38.73	1.24	11.42	-40.0	-51.4	3.8	8.46e-01	0	59	104	0	51	13524
2026-01-28 03:10:39.75	1.13	11.50	-40.0	-51.4	3.8	8.45e-01	0	59	104	0	51	13527
2026-01-28 03:10:40.76	1.03	11.58	-40.0	-51.4	3.8	8.47e-01	0	59	104	0	51	13529
2026-01-28 03:10:41.77	0.92	11.66	-40.1	-51.5	3.8	8.46e-01	0	59	104	0	51	13649
2026-01-28 03:10:42.78	0.81	11.73	-40.6	-52.0	3.8	8.46e-01	0	59	104	0	51	14455
2026-01-28 03:10:43.79	0.71	11.81	-40.4	-51.7	3.8	8.46e-01	0	59	104	0	52	13201
2026-01-28 03:10:44.80	0.60	11.89	-40.1	-51.5	3.8	8.46e-01	0	59	104	0	52	12916
2026-01-28 03:10:45.81	0.49	11.97	-40.2	-51.6	3.8	8.47e-01	0	60	104	0	52	13017
2026-01-28 03:10:46.82	0.38	12.05	-40.2	-51.5	3.8	8.45e-01	0	59	104	0	52	12917
2026-01-28 03:10:47.83	0.27	12.13	-40.2	-51.5	3.8	8.45e-01	0	59	104	0	52	12886
2026-01-28 03:10:48.84	0.16	12.20	-40.3	-51.7	3.8	8.47e-01	0	59	104	0	52	13178
2026-01-28 03:10:49.85	0.05	12.28	-40.2	-51.5	3.8	8.45e-01	0	59	104	0	52	12929
2026-01-28 03:10:50.86	359.94	12.36	-41.2	-51.8	3.8	8.46e-01	0	60	104	0	52	13267
2026-01-28 03:10:51.87	359.83	12.44	-41.1	-51.4	3.8	8.45e-01	0	59	104	0	53	12015
2026-01-28 03:10:52.88	359.72	12.52	-40.5	-51.7	3.8	8.46e-01	0	59	104	0	53	12392
2026-01-28 03:10:53.89	359.60	12.60	-41.8	-51.3	3.8	8.44e-01	0	60	104	0	54	11238
2026-01-28 03:10:54.90	359.49	12.68	-40.3	-51.6	3.8	8.44e-01	0	60	104	0	52	13089
2026-01-28 03:10:55.91	359.37	12.76	-41.7	-50.2	3.9	8.45e-01	0	60	104	0	53	10420
2026-01-28 03:10:56.92	359.26	12.84	-40.9	-51.6	3.8	8.38e-01	0	59	104	0	53	12366
2026-01-28 03:10:57.93	359.14	12.92	-41.0	-47.2	5.5	8.17e-01	0	59	104	0	53	7443
2026-01-28 03:10:58.94	359.03	13.00	-40.9	-46.5	6.1	3.82e-01	0	60	0	4194304	53	6872
2026-01-28 03:10:59.95	358.91	13.08	-40.9	-46.4	6.2	3.39e-01	0	60	0	10485760	53	6760
2026-01-28 03:11:00.96	358.79	13.16	-40.6	-45.4	7.1	2.23e-01	0	60	0	15728640	53	6026
2026-01-28 03:11:01.97	358.67	13.24	-40.3	-44.7	7.9	9.54e-02	0	60	0	20971520	52	5889
2026-01-28 03:11:02.98	358.55	13.32	-40.1	-44.1	8.6	6.18e-02	0	60	0	27262976	52	5477
2026-01-28 03:11:03.99	358.43	13.40	-39.8	-43.3	9.5	2.15e-02	0	60	0	32505856	51	5329
2026-01-28 03:11:05.00	358.31	13.48	-39.5	-42.7	10.2	1.05e-02	0	60	0	38797312	51	4974
2026-01-28 03:11:06.01	358.19	13.57	-39.1	-42.0	11.0	2.88e-03	0	60	0	44040192	50	4851
2026-01-28 03:11:07.02	358.07	13.65	-39.1	-42.0	11.0	2.33e-03	0	60	0	49283072	50	4869
2026-01-28 03:11:08.03	357.95	13.73	-38.7	-41.4	11.8	9.92e-04	0	60	0	55574528	49	4779
2026-01-28 03:11:09.04	357.83	13.81	-38.8	-41.5	11.7	7.66e-04	0	60	0	60817408	49	4853
2026-01-28 03:11:10.05	357.70	13.89	-39.2	-42.0	11.3	1.24e-03	0	60	0	67108864	49	5135
2026-01-28 03:11:11.06	357.58	13.97	-38.9	-41.6	11.7	1.29e-03	0	60	0	72351744	49	4917
2026-01-28 03:11:12.08	357.45	14.06	-38.4	-40.8	12.7	2.07e-04	0	60	0	77594624	48	4706
2026-01-28 03:11:13.09	357.32	14.14	-38.2	-40.5	12.9	4.92e-05	0	60	0	83886080	48	4588
2026-01-28 03:11:14.10	357.20	14.22	-38.2	-40.5	13.0	8.23e-05	0	60	0	89128960	48	4564
2026-01-28 03:11:15.11	357.07	14.30	-38.3	-40.7	12.8	9.95e-05	0	60	0	95420416	48	4662
2026-01-28 03:11:16.12	356.94	14.39	-38.1	-40.3	13.2	7.89e-05	0	60	0	100663296	48	4487
2026-01-28 03:11:17.13	356.81	14.47	-37.5	-39.6	13.9	1.02e-05	0	60	0	106954752	47	4341
2026-01-28 03:11:18.14	356.68	14.55	-37.6	-39.7	13.7	4.50e-06	0	60	0	112197632	46	4680
2026-01-28 03:11:19.15	356.55	14.64	-37.5	-39.6	13.8	4.50e-06	0	60	0	118489088	46	4626
2026-01-28 03:11:20.16	356.42	14.72	-37.9	-40.3	13.0	1.83e-05	0	60	0	123731968	46	4998
2026-01-28 03:11:21.17	356.29	14.80	-38.5	-41.1	12.0	3.49e-04	0	60	0	128974848	47	5183
2026-01-28 03:11:22.18	356.16	14.89	-39.0	-42.0	11.0	1.37e-03	0	60	0	135266304	48	5438
2026-01-28 03:11:23.19	356.02	14.97	-39.6	-43.2	9.5	1.46e-02	0	60	0	140509184	49	5889
2026-01-28 03:11:24.20	355.89	15.05	-40.1	-44.5	7.9	5.14e-02	0	60	0	146800640	50	6474
2026-01-28 03:11:25.21	355.75	15.14	-40.6	-46.0	6.4	1.90e-01	0	60	0	152043520	51	7257
2026-01-28 03:11:26.22	355.62	15.22	-40.7	-47.1	5.4	5.59e-01	0	60	0	156237824	52	7741
2026-01-28 03:11:27.23	355.48	15.31	-40.8	-48.5	4.5	8.14e-01	0	60	0	157286400	52	9093
2026-01-28 03:11:28.24	355.34	15.39	-40.9	-49.8	4.0	8.40e-01	0	60	0	157286400	52	10642
2026-01-28 03:11:29.25	355.21	15.47	-40.9	-50.5	3.9	8.43e-01	0	60	104	157286400	52	11538
2026-01-28 03:11:30.26	355.07	15.56	-40.9	-51.4	3.8	8.46e-01	0	60	104	157286400	52	12726
2026-01-28 03:11:31.27	354.93	15.64	-40.9	-51.6	3.8	8.46e-01	0	60	104	157286400	52	13047
2026-01-28 03:11:32.28	354.79	15.73	-40.8	-52.1	3.8	8.46e-01	0	60	104	157286400	52	13774
2026-01-28 03:11:33.29	354.64	15.81	-40.6	-52.0	3.8	8.45e-01	0	60	104	157286400	52	13615
2026-01-28 03:11:34.30	354.50	15.90	-40.7	-52.1	3.8	8.46e-01	0	60	104	157286400	52	13824
2026-01-28 03:11:35.31	354.36	15.98	-41.0	-52.3	3.8	8.46e-01	0	60	104	157286400	52	14117
2026-01-28 03:11:36.32	354.21	16.07	-40.7	-52.1	3.8	8.46e-01	0	60	104	157286400	52	13857
2026-01-28 03:11:37.33	354.07	16.15	-40.6	-52.1	3.8	8.47e-01	0	60	104	157286400	52	13739
2026-01-28 03:11:38.34	353.92	16.24	-40.6	-52.0	3.8	8.47e-01	0	60	104	157286400	52	13726
2026-01-28 03:11:39.35	353.78	16.32	-40.7	-52.2	3.8	8.45e-01	0	60	104	157286400	52	14020
2026-01-28 03:11:40.36	353.63	16.41	-40.6	-52.0	3.8	8.47e-01	0	60	104	157286400	52	13622
2026-01-28 03:11:41.37	353.48	16.50	-40.7	-52.2	3.8	8.46e-01	0	60	104	157286400	52	13983
2026-01-28 03:11:42.38	353.33	16.58	-40.7	-52.2	3.8	8.47e-01	0	60	104	157286400	52	13932
2026-01-28 03:11:43.39	353.18	16.67	-40.6	-52.0	3.8	8.46e-01	0	60	104	157286400	52	13685
2026-01-28 03:11:44.40	353.03	16.75	-40.7	-52.1	3.8	8.46e-01	0	60	104	157286400	52	13857
2026-01-28 03:11:45.41	352.88	16.84	-40.8	-52.3	3.8	8.46e-01	0	60	104	157286400	52	14127
2026-01-28 03:11:46.42	352.73	16.93	-40.9	-52.4	3.8	8.45e-01	0	60	104	157286400	52	14291
2026-01-28 03:11:47.43	352.57	17.01	-40.7	-52.2	3.8	8.46e-01	0	60	104	157286400	52	13894
2026-01-28 03:11:48.44	352.42	17.10	-40.9	-52.4	3.8	8.47e-01	0	60	104	157286400	52	14257
2026-01-28 03:11:49.45	352.26	17.19	-40.7	-52.2	3.8	8.45e-01	0	60	104	157286400	52	13931
2026-01-28 03:11:50.46	352.11	17.27	-40.8	-52.3	3.8	8.46e-01	0	60	104	157286400	52	14099
2026-01-28 03:11:51.47	351.95	17.36	-40.9	-52.4	3.8	8.46e-01	0	60	104	157286400	52	14240
2026-01-28 03:11:52.48	351.79	17.45	-40.7	-52.2	3.8	8.46e-01	0	60	104	157286400	52	13994
2026-01-28 03:11:53.49	351.63	17.53	-40.9	-52.4	3.8	8.45e-01	0	60	104	157286400	52	14331
2026-01-28 03:11:54.50	351.47	17.62	-40.8	-52.2	3.8	8.47e-01	0	60	104	157286400	52	14022
2026-01-28 03:11:55.51	351.31	17.71	-40.7	-52.2	3.8	8.46e-01	0	61	104	157286400	52	13993
2026-01-28 03:11:56.52	351.15	17.79	-40.8	-52.3	3.8	8.46e-01	0	60	104	157286400	52	14058
2026-01-28 03:11:57.53	350.99	17.88	-41.1	-52.6	3.8	8.46e-01	0	61	104	157286400	52	14642
2026-01-28 03:11:58.54	350.82	17.97	-40.9	-52.3	3.8	8.46e-01	0	61	104	157286400	52	14184
2026-01-28 03:11:59.55	350.66	18.05	-40.7	-52.1	3.8	8.46e-01	0	60	104	157286400	52	13845
2026-01-28 03:12:00.55	350.50	18.14	-40.8	-52.3	3.8	8.46e-01	0	60	104	157286400	52	14105
2026-01-28 03:12:01.56	350.33	18.23	-40.9	-52.3	3.8	8.45e-01	0	61	104	157286400	52	14169
2026-01-28 03:12:02.57	350.16	18.32	-40.8	-52.2	3.8	8.47e-01	0	61	104	157286400	52	13984
2026-01-28 03:12:03.58	349.99	18.40	-40.7	-52.2	3.8	8.44e-01	0	61	104	157286400	52	13896
2026-01-28 03:12:04.59	349.82	18.49	-40.8	-52.3	3.8	8.46e-01	0	61	104	157286400	52	14081
2026-01-28 03:12:05.60	349.65	18.58	-40.9	-52.3	3.8	8.46e-01	0	61	104	157286400	52	14177
2026-01-28 03:12:06.61	349.48	18.67	-40.8	-52.3	3.8	8.45e-01	0	61	104	157286400	52	14074
2026-01-28 03:12:07.62	349.31	18.75	-40.8	-52.3	3.8	8.47e-01	0	61	104	157286400	52	14063
2026-01-28 03:12:08.63	349.13	18.84	-40.9	-52.3	3.8	8.47e-01	0	61	104	157286400	52	14144
2026-01-28 03:12:09.64	348.96	18.93	-40.9	-52.4	3.8	8.46e-01	0	61	104	157286400	52	14243
2026-01-28 03:12:10.65	348.78	19.02	-40.9	-52.3	3.8	8.46e-01	0	61	104	157286400	52	14144
2026-01-28 03:12:11.66	348.61	19.10	-40.9	-52.3	3.8	8.47e-01	0	61	104	157286400	52	14106
2026-01-28 03:12:12.67	348.43	19.19	-40.9	-52.4	3.8	8.45e-01	0	61	104	157286400	52	14248
2026-01-28 03:12:13.68	348.25	19.28	-41.0	-52.4	3.8	8.46e-01	0	60	104	157286400	52	14326
2026-01-28 03:12:14.69	348.07	19.37	-41.0	-52.4	3.8	8.47e-01	0	60	104	157286400	52	14270
2026-01-28 03:12:15.70	347.89	19.46	-40.9	-52.1	3.8	8.46e-01	0	61	104	157286400	52	13804
2026-01-28 03:12:16.71	347.71	19.54	-41.0	-52.5	3.8	8.46e-01	0	61	104	157286400	52	14408
2026-01-28 03:12:17.72	347.53	19.63	-40.9	-52.4	3.8	8.46e-01	0	61	104	157286400	52	14256
2026-01-28 03:12:18.73	347.34	19.72	-40.9	-52.4	3.8	8.45e-01	0	61	104	157286400	52	14303
2026-01-28 03:12:19.74	347.16	19.81	-41.0	-52.3	3.8	8.47e-01	0	61	104	157286400	52	14062
2026-01-28 03:12:20.75	346.97	19.90	-40.9	-52.2	3.8	8.46e-01	0	61	104	157286400	53	13176
2026-01-28 03:12:21.76	346.78	19.98	-40.9	-52.2	3.8	8.46e-01	0	61	104	157286400	53	13259
2026-01-28 03:12:22.77	346.59	20.07	-40.9	-52.2	3.8	8.45e-01	0	61	104	157286400	53	13153
2026-01-28 03:12:23.78	346.40	20.16	-41.3	-51.9	3.8	8.46e-01	0	61	104	157286400	53	12766
2026-01-28 03:12:24.79	346.21	20.25	-40.9	-52.3	3.8	8.46e-01	0	61	104	157286400	53	13301
2026-01-28 03:12:25.80	346.02	20.33	-41.1	-51.8	3.8	8.46e-01	0	61	104	157286400	53	12642
2026-01-28 03:12:26.81	345.83	20.42	-40.9	-51.8	3.8	8.46e-01	0	61	104	157286400	53	12655
2026-01-28 03:12:27.82	345.63	20.51	-40.8	-49.9	3.9	8.45e-01	0	61	104	157286400	53	10064
2026-01-28 03:12:28.83	345.44	20.60	-40.6	-48.2	4.4	8.30e-01	0	61	0	157286400	53	8342
2026-01-28 03:12:29.84	345.24	20.69	-40.6	-47.6	4.8	8.05e-01	0	61	0	157286400	53	7774
2026-01-28 03:12:30.85	345.05	20.77	-40.5	-47.2	5.0	7.79e-01	0	61	0	157286400	53	7423
2026-01-28 03:12:31.86	344.85	20.86	-40.3	-46.3	5.7	7.21e-01	0	61	0	157286400	52	7111
2026-01-28 03:12:32.88	344.64	20.95	-40.1	-45.2	6.6	2.73e-01	0	61	0	162529280	52	6248
2026-01-28 03:12:33.89	344.44	21.04	-40.0	-44.0	8.5	6.23e-02	0	61	0	168820736	51	5760
2026-01-28 03:12:34.89	344.24	21.12	-39.9	-44.6	7.3	6.26e-02	0	61	0	174063616	50	6529
2026-01-28 03:12:35.90	344.04	21.21	-40.9	-45.4	7.7	4.94e-03	0	61	0	179306496	52	6374
2026-01-28 03:12:36.91	343.84	21.30	-41.4	-45.7	7.9	4.59e-02	0	61	0	185597952	53	6265
2026-01-28 03:12:37.92	343.63	21.38	-40.4	-46.1	5.8	6.85e-03	0	61	0	190840832	51	7371
2026-01-28 03:12:38.93	343.42	21.47	-37.0	-39.0	14.4	3.89e-05	0	61	0	196083712	46	4297
2026-01-28 03:12:39.94	343.22	21.56	-36.6	-38.4	15.0	0.00e+00	0	61	0	201326592	45	4291
2026-01-28 03:12:40.95	343.01	21.65	-36.3	-38.1	15.5	0.00e+00	0	61	0	207618048	44	4341
2026-01-28 03:12:41.96	342.80	21.73	-36.2	-37.8	15.7	0.00e+00	0	61	0	212860928	44	4242
2026-01-28 03:12:42.97	342.58	21.82	-35.6	-37.2	16.2	0.00e+00	0	61	0	218103808	43	4175
2026-01-28 03:12:43.98	342.37	21.90	-35.4	-36.9	16.6	0.00e+00	0	61	0	224395264	42	4271
2026-01-28 03:12:44.99	342.16	21.99	-35.4	-36.9	16.7	0.00e+00	0	61	0	229638144	42	4243
2026-01-28 03:12:46.00	341.94	22.08	-35.4	-36.8	16.9	0.00e+00	0	61	0	235929600	42	4233
2026-01-28 03:12:47.01	341.73	22.16	-35.4	-36.9	16.9	0.00e+00	0	61	0	241172480	42	4275
2026-01-28 03:12:48.02	341.51	22.25	-35.4	-36.9	17.0	0.00e+00	0	61	0	246415360	42	4254
2026-01-28 03:12:49.03	341.29	22.33	-35.2	-36.6	17.5	0.00e+00	0	61	0	252706816	42	4118
2026-01-28 03:12:50.04	341.07	22.42	-35.2	-36.5	17.7	0.00e+00	0	61	0	257949696	42	4096
2026-01-28 03:12:51.05	340.85	22.51	-35.2	-36.6	17.8	0.00e+00	0	61	0	264241152	42	4126
2026-01-28 03:12:52.06	340.63	22.59	-35.3	-36.7	17.7	0.00e+00	0	61	0	269484032	42	4181
2026-01-28 03:12:53.08	340.40	22.68	-35.5	-36.9	17.8	0.00e+00	0	61	0	275775488	42	4243
2026-01-28 03:12:54.09	340.17	22.76	-35.5	-36.9	17.7	0.00e+00	0	61	0	281018368	42	4285
2026-01-28 03:12:55.10	339.95	22.85	-35.4	-36.8	18.0	0.00e+00	0	61	0	287309824	42	4207
2026-01-28 03:12:56.11	339.72	22.93	-35.3	-36.7	18.1	0.00e+00	0	61	0	292552704	42	4154
2026-01-28 03:12:57.12	339.49	23.01	-35.4	-36.7	18.1	0.00e+00	0	61	0	297795584	42	4186
2026-01-28 03:12:58.13	339.26	23.10	-35.3	-36.6	18.3	0.00e+00	0	61	0	304087040	42	4116
2026-01-28 03:12:59.14	339.03	23.18	-35.1	-36.3	18.6	0.00e+00	0	61	0	309329920	42	4003
2026-01-28 03:13:00.15	338.80	23.27	-35.1	-36.4	18.6	0.00e+00	0	61	0	315621376	42	4013
2026-01-28 03:13:01.16	338.56	23.35	-35.1	-36.4	18.6	0.00e+00	0	61	0	320864256	42	4022
2026-01-28 03:13:02.17	338.33	23.43	-35.2	-36.5	18.5	0.00e+00	0	61	0	326107136	42	4065
2026-01-28 03:13:03.18	338.09	23.51	-35.2	-36.5	18.5	0.00e+00	0	61	0	332398592	42	4090
2026-01-28 03:13:04.19	337.86	23.60	-35.2	-36.5	18.5	0.00e+00	0	61	0	337641472	42	4083
2026-01-28 03:13:05.20	337.62	23.68	-35.2	-36.5	18.5	0.00e+00	0	61	0	343932928	42	4085
2026-01-28 03:13:06.21	337.38	23.76	-35.3	-36.6	18.5	0.00e+00	0	61	0	349175808	42	4100
2026-01-28 03:13:07.22	337.13	23.84	-35.2	-36.5	18.5	0.00e+00	0	61	0	354418688	42	4087
2026-01-28 03:13:08.23	336.89	23.92	-35.1	-36.4	18.6	0.00e+00	0	61	0	360710144	42	4037
2026-01-28 03:13:09.24	336.65	24.01	-35.2	-36.5	18.6	0.00e+00	0	61	0	365953024	42	4053
2026-01-28 03:13:10.25	336.40	24.09	-35.1	-36.4	18.7	0.00e+00	0	61	0	372244480	42	4013
2026-01-28 03:13:11.26	336.16	24.17	-35.1	-36.4	18.7	0.00e+00	0	61	0	377487360	42	4010
2026-01-28 03:13:12.27	335.91	24.25	-35.1	-36.4	18.7	0.00e+00	0	61	0	383778816	42	4029
2026-01-28 03:13:13.29	335.66	24.33	-35.2	-36.5	18.6	0.00e+00	0	61	0	389021696	42	4059
2026-01-28 03:13:14.30	335.41	24.41	-35.1	-36.4	18.7	0.00e+00	0	61	0	395313152	42	4025
2026-01-28 03:13:15.31	335.16	24.49	-35.2	-36.5	18.7	0.00e+00	0	61	0	400556032	42	4061
2026-01-28 03:13:16.32	334.90	24.56	-35.3	-36.6	18.5	0.00e+00	0	61	0	405798912	42	4117
2026-01-28 03:13:17.33	334.65	24.64	-35.4	-36.7	18.4	0.00e+00	0	61	0	412090368	42	4171
2026-01-28 03:13:18.34	334.39	24.72	-35.4	-36.7	18.4	0.00e+00	0	61	0	417333248	42	4175
2026-01-28 03:13:19.35	334.14	24.80	-35.4	-36.7	18.4	0.00e+00	0	61	0	423624704	42	4180
2026-01-28 03:13:20.36	333.88	24.87	-35.3	-36.6	18.5	0.00e+00	0	61	0	428867584	42	4136
2026-01-28 03:13:21.37	333.62	24.95	-35.3	-36.6	18.5	0.00e+00	0	61	0	434110464	42	4110
2026-01-28 03:13:22.38	333.36	25.03	-35.1	-36.3	18.8	0.00e+00	0	61	0	440401920	42	4000
2026-01-28 03:13:23.39	333.10	25.10	-35.1	-36.3	18.8	0.00e+00	0	61	0	445644800	42	3991
2026-01-28 03:13:24.40	332.83	25.18	-35.1	-36.4	18.8	0.00e+00	0	61	0	451936256	42	4006
2026-01-28 03:13:25.41	332.57	25.25	-35.2	-36.5	18.7	0.00e+00	0	61	0	457179136	42	4052
2026-01-28 03:13:26.42	332.30	25.33	-35.1	-36.4	18.8	0.00e+00	0	61	0	462422016	42	4025
2026-01-28 03:13:27.43	332.04	25.40	-35.1	-36.4	18.8	0.00e+00	0	61	0	468713472	42	4006
2026-01-28 03:13:28.44	331.77	25.48	-35.2	-36.5	18.7	0.00e+00	0	61	0	473956352	42	4060
2026-01-28 03:13:29.45	331.50	25.55	-35.1	-36.4	18.8	0.00e+00	0	61	0	480247808	42	4030
2026-01-28 03:13:30.46	331.23	25.62	-35.1	-36.3	18.8	0.00e+00	0	61	0	485490688	42	3997
2026-01-28 03:13:31.48	330.95	25.69	-35.1	-36.3	18.8	0.00e+00	0	61	0	491782144	42	3988
2026-01-28 03:13:32.49	330.68	25.77	-35.1	-36.3	18.9	0.00e+00	0	61	0	497025024	42	3993
2026-01-28 03:13:33.50	330.40	25.84	-35.1	-36.4	18.8	0.00e+00	0	61	0	503316480	42	4012
2026-01-28 03:13:34.51	330.13	25.91	-34.9	-36.2	19.0	0.00e+00	0	61	0	508559360	41	4164
2026-01-28 03:13:35.52	329.85	25.98	-35.0	-36.3	18.9	0.00e+00	0	61	0	513802240	41	4195
2026-01-28 03:13:36.53	329.57	26.05	-35.0	-36.2	18.9	0.00e+00	0	61	0	520093696	41	4179
2026-01-28 03:13:37.54	329.29	26.11	-35.0	-36.2	18.9	0.00e+00	0	61	0	525336576	41	4168
2026-01-28 03:13:38.55	329.01	26.18	-35.0	-36.2	18.9	0.00e+00	0	61	0	531628032	41	4192
2026-01-28 03:13:39.56	328.73	26.25	-35.1	-36.4	18.8	0.00e+00	0	61	0	536870912	41	4255
2026-01-28 03:13:40.57	328.45	26.32	-35.1	-36.3	18.8	0.00e+00	0	61	0	542113792	41	4226
2026-01-28 03:13:41.58	328.16	26.38	-35.0	-36.3	18.9	0.00e+00	0	61	0	548405248	41	4210
2026-01-28 03:13:42.59	327.88	26.45	-35.0	-36.2	18.9	0.00e+00	0	61	0	553648128	41	4184
2026-01-28 03:13:43.60	327.59	26.51	-34.9	-36.1	19.1	0.00e+00	0	61	0	559939584	41	4119
2026-01-28 03:13:44.61	327.30	26.58	-34.8	-36.1	19.1	0.00e+00	0	62	0	565182464	41	4105
2026-01-28 03:13:45.62	327.01	26.64	-34.8	-36.0	19.1	0.00e+00	0	61	0	570425344	41	4084
2026-01-28 03:13:46.63	326.72	26.71	-34.9	-36.1	19.1	0.00e+00	0	61	0	576716800	41	4125
2026-01-28 03:13:47.64	326.43	26.77	-35.0	-36.2	19.0	0.00e+00	0	61	0	581959680	41	4169
2026-01-28 03:13:48.65	326.14	26.83	-35.1	-36.3	18.8	0.00e+00	0	61	0	588251136	41	4235
2026-01-28 03:13:49.66	325.85	26.89	-35.2	-36.4	18.7	0.00e+00	0	61	0	593494016	41	4291
2026-01-28 03:13:50.67	325.55	26.95	-35.1	-36.4	18.8	0.00e+00	0	61	0	599785472	41	4245
2026-01-28 03:13:51.68	325.26	27.01	-34.9	-36.1	19.0	0.00e+00	0	61	0	605028352	41	4128
2026-01-28 03:13:52.69	324.96	27.07	-34.8	-36.1	19.1	0.00e+00	0	61	0	611319808	41	4103
2026-01-28 03:13:53.70	324.66	27.13	-34.8	-36.0	19.1	0.00e+00	0	61	0	616562688	41	4096
2026-01-28 03:13:54.71	324.36	27.19	-34.8	-36.1	19.1	0.00e+00	0	61	0	621805568	41	4105
2026-01-28 03:13:55.72	324.06	27.24	-34.9	-36.1	19.1	0.00e+00	0	61	0	628097024	41	4123
2026-01-28 03:13:56.73	323.76	27.30	-34.9	-36.2	19.0	0.00e+00	0	61	0	633339904	41	4154
2026-01-28 03:13:57.75	323.45	27.36	-34.9	-36.2	19.0	0.00e+00	0	61	0	639631360	41	4160
2026-01-28 03:13:58.76	323.15	27.41	-34.8	-36.0	19.1	0.00e+00	0	61	0	644874240	41	4098
2026-01-28 03:13:59.77	322.84	27.46	-34.8	-36.0	19.2	0.00e+00	0	61	0	650117120	41	4081
2026-01-28 03:14:00.78	322.54	27.52	-34.7	-35.9	19.2	0.00e+00	0	61	0	656408576	41	4033
2026-01-28 03:14:01.79	322.23	27.57	-34.7	-35.9	19.3	0.00e+00	0	61	0	661651456	41	4035
2026-01-28 03:14:02.80	321.92	27.62	-34.8	-36.0	19.2	0.00e+00	0	61	0	667942912	41	4067
2026-01-28 03:14:03.81	321.62	27.67	-34.8	-36.0	19.2	0.00e+00	0	61	0	673185792	41	4070
2026-01-28 03:14:04.82	321.31	27.72	-34.7	-35.9	19.3	0.00e+00	0	61	0	678428672	41	4038
2026-01-28 03:14:05.83	320.99	27.77	-34.6	-35.8	19.3	0.00e+00	0	61	0	684720128	41	3998
2026-01-28 03:14:06.84	320.68	27.82	-34.6	-35.8	19.4	0.00e+00	0	61	0	689963008	41	3984
2026-01-28 03:14:07.85	320.37	27.86	-34.6	-35.8	19.4	0.00e+00	0	61	0	696254464	41	3992
2026-01-28 03:14:08.86	320.06	27.91	-34.6	-35.9	19.3	0.00e+00	0	61	0	701497344	41	4007
2026-01-28 03:14:09.88	319.74	27.96	-34.5	-35.7	19.4	0.00e+00	0	61	0	707788800	41	3949
2026-01-28 03:14:10.89	319.42	28.00	-34.6	-35.8	19.4	0.00e+00	0	61	0	713031680	41	3974
2026-01-28 03:14:11.90	319.11	28.04	-34.6	-35.8	19.4	0.00e+00	0	61	0	719323136	41	3990
2026-01-28 03:14:12.91	318.79	28.09	-34.6	-35.9	19.3	0.00e+00	0	61	0	724566016	41	4006
2026-01-28 03:14:13.92	318.47	28.13	-34.6	-35.8	19.4	0.00e+00	0	61	0	729808896	41	3991
2026-01-28 03:14:14.93	318.15	28.17	-34.6	-35.8	19.3	0.00e+00	0	61	0	736100352	41	3992
2026-01-28 03:14:15.94	317.83	28.21	-34.6	-35.8	19.4	0.00e+00	0	61	0	741343232	41	3963
2026-01-28 03:14:16.95	317.51	28.25	-34.4	-35.6	19.5	0.00e+00	0	61	0	747634688	40	4142
2026-01-28 03:14:17.96	317.19	28.29	-34.3	-35.5	19.6	0.00e+00	0	61	0	752877568	40	4073
2026-01-28 03:14:18.97	316.87	28.32	-34.3	-35.5	19.7	0.00e+00	0	61	0	758120448	40	4065
2026-01-28 03:14:19.98	316.55	28.36	-34.4	-35.6	19.5	0.00e+00	0	61	0	764411904	40	4136
2026-01-28 03:14:21.00	316.22	28.40	-34.5	-35.7	19.5	0.00e+00	0	61	0	769654784	40	4166
2026-01-28 03:14:22.01	315.90	28.43	-34.6	-35.8	19.3	0.00e+00	0	61	0	775946240	40	4240
2026-01-28 03:14:23.02	315.57	28.46	-34.6	-35.8	19.4	0.00e+00	0	62	0	781189120	40	4197
2026-01-28 03:14:24.03	315.25	28.50	-34.5	-35.6	19.5	0.00e+00	0	61	0	786432000	40	4144
2026-01-28 03:14:25.04	314.92	28.53	-34.4	-35.6	19.6	0.00e+00	0	62	0	792723456	40	4110
2026-01-28 03:14:26.05	314.59	28.56	-34.5	-35.7	19.5	0.00e+00	0	61	0	797966336	40	4152
2026-01-28 03:14:27.06	314.27	28.59	-34.5	-35.7	19.5	0.00e+00	0	61	0	804257792	40	4154
2026-01-28 03:14:28.07	313.94	28.61	-34.4	-35.6	19.6	0.00e+00	0	61	0	809500672	40	4127
2026-01-28 03:14:29.08	313.61	28.64	-34.3	-35.5	19.7	0.00e+00	0	61	0	815792128	40	4062
2026-01-28 03:14:30.09	313.28	28.67	-34.2	-35.4	19.8	0.00e+00	0	61	0	821035008	40	4022
2026-01-28 03:14:31.10	312.95	28.69	-34.3	-35.5	19.7	0.00e+00	0	61	0	827326464	40	4059
2026-01-28 03:14:32.11	312.62	28.72	-34.3	-35.5	19.7	0.00e+00	0	62	0	832569344	40	4072
2026-01-28 03:14:33.12	312.29	28.74	-34.4	-35.6	19.6	0.00e+00	0	61	0	837812224	40	4116
2026-01-28 03:14:34.14	311.96	28.76	-34.4	-35.6	19.6	0.00e+00	0	61	0	844103680	40	4122
2026-01-28 03:14:35.15	311.62	28.78	-34.4	-35.6	19.5	0.00e+00	0	61	0	849346560	40	4139
2026-01-28 03:14:36.16	311.29	28.80	-34.4	-35.6	19.6	0.00e+00	0	61	0	855638016	40	4106
2026-01-28 03:14:37.17	310.96	28.82	-34.1	-35.3	19.9	0.00e+00	0	61	0	860880896	40	3973
2026-01-28 03:14:38.18	310.63	28.84	-34.0	-35.1	20.0	0.00e+00	0	61	0	866123776	40	3901
2026-01-28 03:14:39.19	310.29	28.86	-34.0	-35.2	20.0	0.00e+00	0	61	0	872415232	40	3927
2026-01-28 03:14:40.20	309.96	28.87	-34.1	-35.3	19.9	0.00e+00	0	61	0	877658112	40	3961
2026-01-28 03:14:41.21	309.63	28.89	-34.1	-35.3	19.9	0.00e+00	0	61	0	883949568	40	3981
2026-01-28 03:14:42.22	309.29	28.90	-34.2	-35.3	19.8	0.00e+00	0	62	0	889192448	40	3988
2026-01-28 03:14:43.23	308.96	28.91	-34.0	-35.2	20.0	0.00e+00	0	62	0	895483904	40	3931
2026-01-28 03:14:44.24	308.62	28.92	-34.0	-35.2	20.0	0.00e+00	0	61	0	900726784	39	4155
2026-01-28 03:14:45.25	308.29	28.93	-34.1	-35.3	20.0	0.00e+00	0	61	0	905969664	39	4204
2026-01-28 03:14:46.26	307.95	28.94	-34.2	-35.4	19.9	0.00e+00	0	61	0	912261120	39	4248
2026-01-28 03:14:47.27	307.62	28.95	-34.3	-35.4	19.8	0.00e+00	0	61	0	917504000	39	4291
2026-01-28 03:14:48.28	307.28	28.96	-34.4	-35.6	19.6	0.00e+00	0	61	0	923795456	39	4378
2026-01-28 03:14:49.30	306.94	28.96	-34.5	-35.6	19.6	0.00e+00	0	62	0	929038336	39	4390
2026-01-28 03:14:50.31	306.61	28.97	-34.4	-35.6	19.6	0.00e+00	0	61	0	935329792	39	4384
2026-01-28 03:14:51.32	306.27	28.97	-34.4	-35.6	19.6	0.00e+00	0	61	0	940572672	39	4368
2026-01-28 03:14:52.33	305.93	28.97	-34.3	-35.5	19.7	0.00e+00	0	61	0	945815552	39	4329
2026-01-28 03:14:53.34	305.60	28.97	-34.4	-35.5	19.7	0.00e+00	0	61	0	952107008	39	4337
2026-01-28 03:14:54.35	305.26	28.98	-34.4	-35.6	19.7	0.00e+00	0	61	0	957349888	39	4356
2026-01-28 03:14:55.36	304.93	28.97	-34.5	-35.6	19.6	0.00e+00	0	62	0	963641344	39	4390
2026-01-28 03:14:56.37	304.59	28.97	-34.4	-35.5	19.7	0.00e+00	0	61	0	968884224	39	4338
2026-01-28 03:14:57.38	304.25	28.97	-34.2	-35.3	19.9	0.00e+00	0	61	0	975175680	39	4223
2026-01-28 03:14:58.39	303.92	28.97	-34.0	-35.2	20.0	0.00e+00	0	61	0	980418560	39	4167
2026-01-28 03:14:59.40	303.58	28.96	-34.1	-35.3	19.9	0.00e+00	0	61	0	985661440	39	4211
2026-01-28 03:15:00.41	303.25	28.95	-34.2	-35.3	19.9	0.00e+00	0	61	0	991952896	39	4225
2026-01-28 03:15:01.42	302.91	28.95	-34.1	-35.3	19.9	0.00e+00	0	61	0	997195776	39	4220
2026-01-28 03:15:02.44	302.57	28.94	-34.2	-35.4	19.9	0.00e+00	0	61	0	1003487232	39	4249
2026-01-28 03:15:03.45	302.24	28.93	-34.3	-35.5	19.7	0.00e+00	0	61	0	1008730112	39	4303
2026-01-28 03:15:04.45	301.91	28.92	-34.3	-35.5	19.7	0.00e+00	0	61	0	1013972992	39	4329
2026-01-28 03:15:05.47	301.57	28.91	-34.3	-35.5	19.7	0.00e+00	0	61	0	1020264448	39	4304
2026-01-28 03:15:06.48	301.23	28.89	-34.3	-35.5	19.7	0.00e+00	0	61	0	1025507328	39	4310
2026-01-28 03:15:07.49	300.90	28.88	-34.3	-35.5	19.7	0.00e+00	0	61	0	1031798784	39	4308
2026-01-28 03:15:08.50	300.57	28.86	-34.2	-35.4	19.8	0.00e+00	0	62	0	1037041664	39	4275
2026-01-28 03:15:09.51	300.23	28.85	-34.2	-35.4	19.8	0.00e+00	0	61	0	1043333120	39	4263
2026-01-28 03:15:10.52	299.90	28.83	-34.2	-35.4	19.8	0.00e+00	0	61	0	1048576000	39	4262
2026-01-28 03:15:11.53	299.57	28.81	-34.3	-35.5	19.8	0.00e+00	0	62	0	1054867456	39	4295
2026-01-28 03:15:12.54	299.23	28.79	-34.3	-35.4	19.8	0.00e+00	0	62	0	1060110336	39	4268
2026-01-28 03:15:13.55	298.90	28.77	-34.2	-35.3	19.9	0.00e+00	0	61	0	1065353216	39	4237
2026-01-28 03:15:14.56	298.57	28.75	-34.2	-35.4	19.9	0.00e+00	0	62	0	1071644672	39	4255
2026-01-28 03:15:15.57	298.24	28.73	-34.3	-35.4	19.8	0.00e+00	0	61	0	1076887552	39	4285
2026-01-28 03:15:16.58	297.91	28.71	-34.3	-35.5	19.7	0.00e+00	0	61	0	1083179008	39	4322
2026-01-28 03:15:17.59	297.58	28.68	-34.3	-35.5	19.8	0.00e+00	0	61	0	1088421888	39	4304
2026-01-28 03:15:18.60	297.25	28.66	-34.3	-35.4	19.8	0.00e+00	0	61	0	1093664768	39	4280
2026-01-28 03:15:19.61	296.92	28.63	-34.3	-35.5	19.8	0.00e+00	0	62	0	1099956224	39	4303
2026-01-28 03:15:20.62	296.59	28.60	-34.4	-35.6	19.6	0.00e+00	0	62	0	1105199104	39	4371
2026-01-28 03:15:21.63	296.26	28.57	-34.4	-35.6	19.6	0.00e+00	0	61	0	1111490560	39	4365
2026-01-28 03:15:22.64	295.93	28.54	-34.4	-35.5	19.7	0.00e+00	0	61	0	1116733440	39	4339
2026-01-28 03:15:23.65	295.61	28.51	-34.4	-35.5	19.7	0.00e+00	0	62	0	1121976320	39	4331
2026-01-28 03:15:24.66	295.28	28.48	-34.3	-35.4	19.8	0.00e+00	0	62	0	1128267776	39	4286
2026-01-28 03:15:25.67	294.95	28.45	-34.1	-35.3	19.9	0.00e+00	0	61	0	1133510656	39	4220
2026-01-28 03:15:26.68	294.63	28.42	-34.1	-35.3	19.9	0.00e+00	0	61	0	1139802112	39	4213
2026-01-28 03:15:27.69	294.30	28.38	-34.2	-35.3	19.9	0.00e+00	0	61	0	1145044992	39	4226
2026-01-28 03:15:28.70	293.98	28.34	-34.2	-35.4	19.9	0.00e+00	0	61	0	1151336448	39	4245
2026-01-28 03:15:29.71	293.66	28.31	-34.1	-35.3	19.9	0.00e+00	0	61	0	1156579328	39	4202
2026-01-28 03:15:30.72	293.34	28.27	-34.2	-35.4	19.8	0.00e+00	0	61	0	1161822208	39	4262
2026-01-28 03:15:31.73	293.01	28.23	-34.3	-35.4	19.8	0.00e+00	0	62	0	1168113664	39	4278
2026-01-28 03:15:32.74	292.69	28.19	-34.2	-35.4	19.8	0.00e+00	0	62	0	1173356544	39	4252
2026-01-28 03:15:33.75	292.37	28.15	-34.2	-35.3	19.9	0.00e+00	0	62	0	1179648000	39	4234
2026-01-28 03:15:34.76	292.06	28.11	-34.2	-35.4	19.8	0.00e+00	0	62	0	1184890880	39	4270
2026-01-28 03:15:35.77	291.74	28.07	-34.4	-35.5	19.7	0.00e+00	0	62	0	1190133760	39	4329
2026-01-28 03:15:36.78	291.42	28.03	-34.4	-35.6	19.7	0.00e+00	0	62	0	1196425216	39	4363
2026-01-28 03:15:37.79	291.10	27.98	-34.5	-35.7	19.6	0.00e+00	0	61	0	1201668096	39	4399
2026-01-28 03:15:38.80	290.79	27.94	-34.5	-35.6	19.6	0.00e+00	0	61	0	1207959552	39	4378
2026-01-28 03:15:39.81	290.47	27.89	-34.5	-35.6	19.6	0.00e+00	0	61	0	1213202432	39	4388
2026-01-28 03:15:40.82	290.16	27.84	-34.6	-35.8	19.5	0.00e+00	0	61	0	1218445312	39	4456
2026-01-28 03:15:41.83	289.85	27.80	-34.6	-35.8	19.4	0.00e+00	0	61	0	1224736768	39	4475
2026-01-28 03:15:42.84	289.53	27.75	-34.3	-35.5	19.7	0.00e+00	0	61	0	1229979648	39	4324
2026-01-28 03:15:43.85	289.22	27.70	-34.2	-35.4	19.8	0.00e+00	0	62	0	1236271104	39	4257
2026-01-28 03:15:44.86	288.91	27.65	-34.1	-35.3	20.0	0.00e+00	0	61	0	1241513984	39	4199
2026-01-28 03:15:45.87	288.60	27.60	-34.1	-35.3	19.9	0.00e+00	0	62	0	1247805440	39	4208
2026-01-28 03:15:46.88	288.30	27.55	-34.2	-35.4	19.9	0.00e+00	0	62	0	1253048320	39	4249
2026-01-28 03:15:47.89	287.99	27.49	-34.3	-35.4	19.8	0.00e+00	0	61	0	1259339776	39	4289
2026-01-28 03:15:48.90	287.68	27.44	-34.4	-35.6	19.7	0.00e+00	0	62	0	1264582656	39	4344
2026-01-28 03:15:49.91	287.38	27.39	-34.4	-35.6	19.7	0.00e+00	0	62	0	1269825536	39	4354
2026-01-28 03:15:50.92	287.07	27.33	-34.5	-35.6	19.6	0.00e+00	0	62	0	1276116992	39	4383
2026-01-28 03:15:51.93	286.77	27.28	-34.4	-35.6	19.6	0.00e+00	0	62	0	1281359872	39	4376
2026-01-28 03:15:52.94	286.47	27.22	-34.5	-35.6	19.6	0.00e+00	0	62	0	1287651328	39	4388
2026-01-28 03:15:53.95	286.17	27.16	-34.6	-35.8	19.5	0.00e+00	0	61	0	1292894208	39	4450
2026-01-28 03:15:54.96	285.87	27.10	-34.6	-35.8	19.4	0.00e+00	0	62	0	1298137088	39	4492
2026-01-28 03:15:55.97	285.57	27.04	-34.6	-35.8	19.4	0.00e+00	0	61	0	1304428544	39	4464
2026-01-28 03:15:56.98	285.27	26.99	-34.5	-35.7	19.5	0.00e+00	0	62	0	1309671424	39	4436
2026-01-28 03:15:57.99	284.98	26.93	-34.6	-35.7	19.5	0.00e+00	0	62	0	1315962880	39	4440
2026-01-28 03:15:59.00	284.68	26.86	-34.5	-35.7	19.5	0.00e+00	0	62	0	1321205760	39	4428
2026-01-28 03:16:00.01	284.39	26.80	-34.5	-35.7	19.5	0.00e+00	0	61	0	1326448640	39	4433
2026-01-28 03:16:01.02	284.09	26.74	-34.4	-35.6	19.6	0.00e+00	0	62	0	1332740096	39	4367
2026-01-28 03:16:02.04	283.80	26.68	-34.4	-35.6	19.6	0.00e+00	0	62	0	1337982976	39	4350
2026-01-28 03:16:03.05	283.51	26.61	-34.4	-35.6	19.6	0.00e+00	0	62	0	1344274432	39	4369
2026-01-28 03:16:04.06	283.22	26.55	-34.4	-35.6	19.6	0.00e+00	0	62	0	1349517312	39	4361
2026-01-28 03:16:05.07	282.93	26.48	-34.4	-35.6	19.6	0.00e+00	0	62	0	1355808768	39	4376
2026-01-28 03:16:06.08	282.64	26.42	-34.4	-35.6	19.6	0.00e+00	0	61	0	1361051648	39	4356
2026-01-28 03:16:07.09	282.36	26.35	-34.5	-35.7	19.5	0.00e+00	0	62	0	1367343104	39	4393
2026-01-28 03:16:08.10	282.07	26.29	-34.5	-35.7	19.6	0.00e+00	0	62	0	1372585984	39	4397
2026-01-28 03:16:09.11	281.79	26.22	-34.5	-35.7	19.5	0.00e+00	0	62	0	1377828864	39	4413
2026-01-28 03:16:10.12	281.51	26.15	-34.5	-35.7	19.5	0.00e+00	0	62	0	1384120320	39	4397
2026-01-28 03:16:11.13	281.23	26.08	-34.5	-35.7	19.5	0.00e+00	0	62	0	1389363200	39	4434
2026-01-28 03:16:12.14	280.95	26.01	-34.5	-35.6	19.5	0.00e+00	0	62	0	1395654656	39	4383
2026-01-28 03:16:13.15	280.67	25.94	-34.4	-35.6	19.6	0.00e+00	0	62	0	1400897536	39	4378
2026-01-28 03:16:14.16	280.39	25.87	-34.4	-35.6	19.6	0.00e+00	0	62	0	1406140416	39	4376
2026-01-28 03:16:15.17	280.11	25.80	-34.4	-35.6	19.6	0.00e+00	0	62	0	1412431872	39	4377
2026-01-28 03:16:16.18	279.84	25.73	-34.5	-35.7	19.5	0.00e+00	0	62	0	1417674752	39	4414
2026-01-28 03:16:17.20	279.56	25.66	-34.6	-35.8	19.4	0.00e+00	0	62	0	1423966208	39	4455
2026-01-28 03:16:18.20	279.29	25.59	-34.7	-35.9	19.3	0.00e+00	0	62	0	1429209088	39	4505
2026-01-28 03:16:19.22	279.02	25.51	-34.7	-35.9	19.2	0.00e+00	0	62	0	1434451968	40	4260
2026-01-28 03:16:20.23	278.75	25.44	-34.7	-35.9	19.2	0.00e+00	0	62	0	1440743424	40	4290
2026-01-28 03:16:21.24	278.48	25.36	-34.7	-35.9	19.2	0.00e+00	0	62	0	1445986304	40	4266
2026-01-28 03:16:22.25	278.21	25.29	-34.7	-36.0	19.2	0.00e+00	0	62	0	1452277760	40	4295
2026-01-28 03:16:23.26	277.95	25.21	-34.8	-36.1	19.1	0.00e+00	0	62	0	1457520640	40	4350
2026-01-28 03:16:24.27	277.68	25.14	-34.9	-36.2	18.9	0.00e+00	0	62	0	1463812096	40	4392
2026-01-28 03:16:25.28	277.42	25.06	-34.7	-35.9	19.1	0.00e+00	0	62	0	1469054976	40	4291
2026-01-28 03:16:26.29	277.16	24.99	-34.6	-35.8	19.3	0.00e+00	0	62	0	1475346432	40	4228
2026-01-28 03:16:27.30	276.90	24.91	-34.6	-35.8	19.3	0.00e+00	0	62	0	1480589312	40	4227
2026-01-28 03:16:28.31	276.64	24.83	-34.7	-35.9	19.2	0.00e+00	0	61	0	1485832192	40	4271
2026-01-28 03:16:29.32	276.38	24.76	-34.8	-36.0	19.1	0.00e+00	0	62	0	1492123648	40	4309
2026-01-28 03:16:30.33	276.12	24.68	-34.7	-35.9	19.2	0.00e+00	0	62	0	1497366528	40	4273
2026-01-28 03:16:31.34	275.86	24.60	-34.6	-35.8	19.3	0.00e+00	0	62	0	1503657984	40	4241
2026-01-28 03:16:32.35	275.61	24.52	-34.6	-35.9	19.2	0.00e+00	0	62	0	1508900864	40	4247
2026-01-28 03:16:33.36	275.36	24.44	-34.8	-36.0	19.1	0.00e+00	0	62	0	1514143744	40	4304
2026-01-28 03:16:34.37	275.10	24.36	-34.8	-36.1	19.0	0.00e+00	0	62	0	1520435200	40	4354
2026-01-28 03:16:35.38	274.85	24.28	-34.8	-36.1	19.1	0.00e+00	0	61	0	1525678080	40	4342
2026-01-28 03:16:36.40	274.60	24.20	-34.7	-35.9	19.2	0.00e+00	0	62	0	1531969536	40	4263
2026-01-28 03:16:37.41	274.35	24.12	-34.6	-35.8	19.3	0.00e+00	0	62	0	1537212416	40	4201
2026-01-28 03:16:38.42	274.11	24.04	-34.6	-35.8	19.3	0.00e+00	0	62	0	1542455296	40	4230
2026-01-28 03:16:39.43	273.86	23.96	-34.6	-35.8	19.3	0.00e+00	0	62	0	1548746752	40	4229
2026-01-28 03:16:40.44	273.62	23.88	-34.5	-35.7	19.4	0.00e+00	0	62	0	1553989632	40	4162
2026-01-28 03:16:41.45	273.37	23.80	-34.4	-35.6	19.5	0.00e+00	0	62	0	1560281088	40	4128
2026-01-28 03:16:42.46	273.13	23.71	-34.5	-35.7	19.4	0.00e+00	0	62	0	1565523968	40	4159
2026-01-28 03:16:43.47	272.89	23.63	-34.6	-35.8	19.3	0.00e+00	0	62	0	1571815424	40	4212
2026-01-28 03:16:44.48	272.65	23.55	-34.7	-35.9	19.2	0.00e+00	0	62	0	1577058304	40	4280
2026-01-28 03:16:45.49	272.41	23.47	-34.8	-36.0	19.1	0.00e+00	0	62	0	1583349760	40	4328
2026-01-28 03:16:46.50	272.18	23.38	-34.8	-36.1	19.0	0.00e+00	0	62	0	1588592640	40	4343
2026-01-28 03:16:47.51	271.94	23.30	-34.7	-35.9	19.1	0.00e+00	0	62	0	1593835520	40	4291
2026-01-28 03:16:48.52	271.71	23.22	-34.6	-35.8	19.3	0.00e+00	0	62	0	1600126976	40	4215
2026-01-28 03:16:49.53	271.47	23.13	-34.6	-35.8	19.3	0.00e+00	0	62	0	1605369856	40	4205
2026-01-28 03:16:50.55	271.24	23.05	-34.7	-35.9	19.1	0.00e+00	0	62	0	1611661312	40	4278
2026-01-28 03:16:51.56	271.01	22.96	-34.8	-36.0	19.0	0.00e+00	0	61	0	1616904192	40	4332
2026-01-28 03:16:52.57	270.78	22.88	-34.9	-36.1	18.9	0.00e+00	0	62	0	1622147072	40	4390
2026-01-28 03:16:53.58	270.55	22.79	-34.9	-36.1	18.9	0.00e+00	0	62	0	1628438528	40	4386
2026-01-28 03:16:54.59	270.33	22.71	-34.8	-36.0	19.0	0.00e+00	0	62	0	1633681408	40	4335
2026-01-28 03:16:55.60	270.10	22.62	-34.9	-36.1	19.0	0.00e+00	0	62	0	1639972864	40	4379
2026-01-28 03:16:56.61	269.88	22.54	-34.9	-36.2	18.9	0.00e+00	0	62	0	1645215744	40	4421
2026-01-28 03:16:57.62	269.65	22.45	-35.1	-36.4	18.7	0.00e+00	0	62	0	1650458624	40	4511
2026-01-28 03:16:58.63	269.43	22.37	-35.1	-36.3	18.7	0.00e+00	0	62	0	1656750080	40	4483
2026-01-28 03:16:59.64	269.21	22.28	-35.0	-36.3	18.8	0.00e+00	0	62	0	1661992960	40	4447
2026-01-28 03:17:00.65	268.99	22.19	-35.0	-36.2	18.8	0.00e+00	0	62	0	1668284416	40	4429
2026-01-28 03:17:01.66	268.77	22.11	-35.0	-36.2	18.8	0.00e+00	0	62	0	1673527296	40	4425
2026-01-28 03:17:02.67	268.56	22.02	-35.0	-36.3	18.8	0.00e+00	0	62	0	1679818752	40	4450
2026-01-28 03:17:03.68	268.34	21.94	-35.1	-36.4	18.7	0.00e+00	0	62	0	1685061632	40	4513
2026-01-28 03:17:04.70	268.12	21.85	-35.3	-36.6	18.5	0.00e+00	0	62	0	1691353088	41	4353
2026-01-28 03:17:05.71	267.91	21.76	-35.3	-36.7	18.4	0.00e+00	0	62	0	1696595968	41	4400
2026-01-28 03:17:06.72	267.70	21.67	-35.3	-36.6	18.4	0.00e+00	0	62	0	1701838848	41	4380
2026-01-28 03:17:07.73	267.49	21.59	-35.3	-36.7	18.4	0.00e+00	0	62	0	1708130304	41	4396
2026-01-28 03:17:08.74	267.28	21.50	-35.3	-36.6	18.4	0.00e+00	0	62	0	1713373184	41	4380
2026-01-28 03:17:09.75	267.07	21.41	-35.3	-36.6	18.4	0.00e+00	0	62	0	1719664640	41	4375
2026-01-28 03:17:10.76	266.86	21.33	-35.3	-36.7	18.4	0.00e+00	0	62	0	1724907520	41	4393
2026-01-28 03:17:11.77	266.66	21.24	-35.4	-36.7	18.4	0.00e+00	0	62	0	1730150400	41	4401
2026-01-28 03:17:12.78	266.45	21.15	-35.4	-36.8	18.3	0.00e+00	0	62	0	1736441856	41	4442
2026-01-28 03:17:13.79	266.25	21.06	-35.4	-36.7	18.3	0.00e+00	0	62	0	1741684736	41	4432
2026-01-28 03:17:14.80	266.04	20.97	-35.4	-36.7	18.3	0.00e+00	0	62	0	1747976192	41	4422
2026-01-28 03:17:15.81	265.84	20.89	-35.4	-36.7	18.3	0.00e+00	0	62	0	1753219072	41	4439
2026-01-28 03:17:16.82	265.64	20.80	-35.4	-36.7	18.3	0.00e+00	0	62	0	1758461952	41	4419
2026-01-28 03:17:17.84	265.44	20.71	-35.4	-36.7	18.3	0.00e+00	0	62	0	1764753408	41	4437
2026-01-28 03:17:18.85	265.24	20.62	-35.4	-36.7	18.3	0.00e+00	0	62	0	1769996288	41	4430
2026-01-28 03:17:19.86	265.05	20.53	-35.4	-36.7	18.3	0.00e+00	0	62	0	1776287744	41	4427
2026-01-28 03:17:20.87	264.85	20.45	-35.4	-36.7	18.3	0.00e+00	0	62	0	1781530624	41	4421
2026-01-28 03:17:21.88	264.66	20.36	-35.3	-36.6	18.4	0.00e+00	0	62	0	1787822080	41	4388
2026-01-28 03:17:22.89	264.46	20.27	-35.5	-36.8	18.2	0.00e+00	0	62	0	1793064960	41	4451
2026-01-28 03:17:23.90	264.27	20.18	-35.5	-36.8	18.2	0.00e+00	0	62	0	1799356416	41	4476
2026-01-28 03:17:24.91	264.08	20.09	-35.5	-36.8	18.2	0.00e+00	0	62	0	1804599296	41	4474
2026-01-28 03:17:25.92	263.89	20.01	-35.5	-36.8	18.2	0.00e+00	0	62	0	1809842176	41	4458
2026-01-28 03:17:26.93	263.70	19.92	-35.5	-36.9	18.2	0.00e+00	0	62	0	1816133632	41	4494
2026-01-28 03:17:27.93	263.51	19.83	-35.5	-36.8	18.2	0.00e+00	0	62	0	1821376512	41	4488
2026-01-28 03:17:28.94	263.33	19.74	-35.6	-37.0	18.1	0.00e+00	0	62	0	1827667968	41	4549
2026-01-28 03:17:29.96	263.14	19.65	-35.6	-37.0	18.1	0.00e+00	0	62	0	1832910848	41	4547
2026-01-28 03:17:30.96	262.96	19.57	-35.6	-37.0	18.0	0.00e+00	0	62	0	1838153728	41	4578
2026-01-28 03:17:31.97	262.77	19.48	-35.7	-37.1	18.0	0.00e+00	0	62	0	1844445184	41	4600
2026-01-28 03:17:32.99	262.59	19.39	-35.6	-36.9	18.1	0.00e+00	0	62	0	1849688064	41	4531
2026-01-28 03:17:34.00	262.41	19.30	-35.5	-36.8	18.2	0.00e+00	0	62	0	1855979520	41	4464
2026-01-28 03:17:35.01	262.23	19.21	-35.4	-36.7	18.3	0.00e+00	0	62	0	1861222400	41	4412
2026-01-28 03:17:36.02	262.05	19.12	-35.3	-36.6	18.4	0.00e+00	0	62	0	1866465280	41	4374
2026-01-28 03:17:37.03	261.87	19.04	-35.3	-36.6	18.4	0.00e+00	0	62	0	1872756736	41	4357
2026-01-28 03:17:38.04	261.69	18.95	-35.4	-36.7	18.3	0.00e+00	0	62	0	1877999616	41	4411
2026-01-28 03:17:39.05	261.52	18.86	-35.4	-36.8	18.2	0.00e+00	0	62	0	1884291072	41	4450
2026-01-28 03:17:40.06	261.34	18.77	-35.5	-36.9	18.1	0.00e+00	0	62	0	1889533952	41	4498
2026-01-28 03:17:41.07	261.17	18.68	-35.6	-36.9	18.1	0.00e+00	0	62	0	1895825408	41	4537
2026-01-28 03:17:42.08	260.99	18.59	-35.6	-37.0	18.0	0.00e+00	0	62	0	1901068288	41	4572
2026-01-28 03:17:43.09	260.82	18.51	-35.7	-37.1	17.9	0.00e+00	0	62	0	1907359744	41	4602
2026-01-28 03:17:44.10	260.65	18.42	-35.7	-37.1	17.9	0.00e+00	0	62	0	1912602624	41	4613
2026-01-28 03:17:45.11	260.48	18.33	-35.9	-37.2	17.8	0.00e+00	0	62	0	1917845504	42	4438
2026-01-28 03:17:46.12	260.31	18.24	-35.9	-37.2	17.7	0.00e+00	0	62	0	1924136960	42	4431
2026-01-28 03:17:47.13	260.14	18.16	-35.8	-37.2	17.8	0.00e+00	0	62	0	1929379840	42	4423
2026-01-28 03:17:48.14	259.97	18.07	-35.8	-37.2	17.8	0.00e+00	0	62	0	1935671296	42	4427
2026-01-28 03:17:49.16	259.81	17.98	-35.9	-37.3	17.7	0.00e+00	0	62	0	1940914176	42	4458
2026-01-28 03:17:50.17	259.64	17.89	-35.9	-37.3	17.7	0.00e+00	0	62	0	1946157056	42	4476
2026-01-28 03:17:51.18	259.48	17.80	-36.0	-37.4	17.6	0.00e+00	0	62	0	1952448512	42	4505
2026-01-28 03:17:52.19	259.31	17.72	-36.1	-37.5	17.5	0.00e+00	0	62	0	1957691392	42	4564
2026-01-28 03:17:53.20	259.15	17.63	-36.1	-37.6	17.4	0.00e+00	0	62	0	1963982848	42	4617
2026-01-28 03:17:54.21	258.99	17.54	-36.2	-37.6	17.4	0.00e+00	0	62	0	1969225728	42	4631
2026-01-28 03:17:55.22	258.83	17.45	-36.2	-37.6	17.3	0.00e+00	0	62	0	1974468608	42	4639
2026-01-28 03:17:56.23	258.67	17.37	-36.2	-37.7	17.3	0.00e+00	0	62	0	1980760064	42	4654
2026-01-28 03:17:57.24	258.51	17.28	-36.2	-37.7	17.3	0.00e+00	0	62	0	1986002944	43	4409
2026-01-28 03:17:58.25	258.35	17.19	-36.2	-37.7	17.3	0.00e+00	0	62	0	1992294400	43	4392
2026-01-28 03:17:59.26	258.20	17.11	-36.2	-37.6	17.3	0.00e+00	0	62	0	1997537280	43	4380
2026-01-28 03:18:00.28	258.04	17.02	-36.2	-37.6	17.3	0.00e+00	0	62	0	2003828736	43	4377
2026-01-28 03:18:01.29	257.88	16.93	-36.2	-37.6	17.3	0.00e+00	0	62	0	2009071616	43	4361
2026-01-28 03:18:02.30	257.73	16.85	-36.1	-37.5	17.4	0.00e+00	0	62	0	2015363072	43	4340
2026-01-28 03:18:03.31	257.58	16.76	-36.1	-37.6	17.4	0.00e+00	0	62	0	2020605952	43	4343
2026-01-28 03:18:04.32	257.42	16.67	-36.2	-37.7	17.3	0.00e+00	0	62	0	2025848832	43	4409
2026-01-28 03:18:05.33	257.27	16.59	-36.2	-37.7	17.2	0.00e+00	0	62	0	2032140288	43	4410
2026-01-28 03:18:06.34	257.12	16.50	-36.3	-37.8	17.2	0.00e+00	0	62	0	2037383168	43	4450
2026-01-28 03:18:07.35	256.97	16.41	-36.3	-37.8	17.2	0.00e+00	0	62	0	2043674624	43	4466
2026-01-28 03:18:08.36	256.82	16.33	-36.3	-37.8	17.2	0.00e+00	0	62	0	2048917504	43	4461
2026-01-28 03:18:09.37	256.68	16.24	-36.4	-37.8	17.1	0.00e+00	0	62	0	2054160384	43	4483
2026-01-28 03:18:10.38	256.53	16.16	-36.2	-37.7	17.2	0.00e+00	0	62	0	2060451840	43	4421
2026-01-28 03:18:11.39	256.38	16.07	-36.3	-37.8	17.1	0.00e+00	0	62	0	2065694720	43	4471
2026-01-28 03:18:12.41	256.24	15.98	-36.5	-38.0	17.0	0.00e+00	0	62	0	2071986176	43	4560
2026-01-28 03:18:13.42	256.09	15.90	-36.4	-37.9	17.0	0.00e+00	0	62	0	2077229056	43	4507
2026-01-28 03:18:14.43	255.95	15.81	-36.5	-38.0	17.0	0.00e+00	0	62	0	2082471936	43	4549
2026-01-28 03:18:15.44	255.80	15.73	-36.5	-38.0	16.9	0.00e+00	0	62	0	2088763392	43	4584
2026-01-28 03:18:16.45	255.66	15.64	-36.6	-38.1	16.8	0.00e+00	0	62	0	2094006272	43	4617
2026-01-28 03:18:17.46	255.52	15.56	-36.5	-38.1	16.9	0.00e+00	0	62	0	2100297728	43	4599
2026-01-28 03:18:18.47	255.38	15.47	-36.5	-38.0	16.9	0.00e+00	0	62	0	2105540608	43	4588
2026-01-28 03:18:19.48	255.24	15.39	-36.5	-38.0	16.8	0.00e+00	0	62	0	2111832064	43	4594
2026-01-28 03:18:20.49	255.10	15.30	-36.6	-38.1	16.8	0.00e+00	0	62	0	2117074944	43	4607
2026-01-28 03:18:21.50	254.96	15.22	-36.6	-38.2	16.7	0.00e+00	0	62	0	2123366400	43	4665
2026-01-28 03:18:22.52	254.83	15.13	-36.6	-38.1	16.8	0.00e+00	0	62	0	2128609280	43	4637
2026-01-28 03:18:23.53	254.69	15.05	-36.6	-38.1	16.7	0.00e+00	0	62	0	2133852160	43	4645
2026-01-28 03:18:24.54	254.55	14.97	-36.6	-38.1	16.7	0.00e+00	0	62	0	2140143616	43	4644
2026-01-28 03:18:25.55	254.42	14.88	-36.6	-38.1	16.7	0.00e+00	0	62	0	2145386496	43	4637
2026-01-28 03:18:26.56	254.28	14.80	-36.6	-38.2	16.7	0.00e+00	0	62	0	2151677952	43	4664
2026-01-28 03:18:27.57	254.15	14.71	-36.9	-38.5	16.6	0.00e+00	0	62	0	2156920832	44	4551
2026-01-28 03:18:28.58	254.02	14.63	-36.9	-38.4	16.6	0.00e+00	0	62	0	2162163712	44	4536
2026-01-28 03:18:29.59	253.89	14.55	-37.0	-38.5	16.5	0.00e+00	0	62	0	2168455168	44	4592
2026-01-28 03:18:30.60	253.76	14.46	-37.1	-38.7	16.3	0.00e+00	0	62	0	2173698048	44	4670
2026-01-28 03:18:31.61	253.63	14.38	-37.1	-38.7	16.3	0.00e+00	0	62	0	2179989504	44	4674
2026-01-28 03:18:32.62	253.50	14.30	-37.1	-38.7	16.3	0.00e+00	0	62	0	2185232384	44	4680
2026-01-28 03:18:33.63	253.37	14.21	-37.1	-38.7	16.3	0.00e+00	0	62	0	2191523840	44	4689
2026-01-28 03:18:34.65	253.24	14.13	-37.1	-38.8	16.3	0.00e+00	0	62	0	2196766720	44	4712
2026-01-28 03:18:35.66	253.11	14.05	-37.2	-38.8	16.2	0.00e+00	0	62	0	2202009600	44	4720
2026-01-28 03:18:36.67	252.98	13.97	-37.1	-38.7	16.3	0.00e+00	0	62	0	2208301056	44	4685
2026-01-28 03:18:37.68	252.86	13.88	-37.1	-38.7	16.3	0.00e+00	0	62	0	2213543936	44	4691
2026-01-28 03:18:38.69	252.73	13.80	-37.1	-38.7	16.3	0.00e+00	0	62	0	2219835392	44	4673
2026-01-28 03:18:39.70	252.61	13.72	-37.1	-38.7	16.3	0.00e+00	0	62	0	2225078272	44	4697
2026-01-28 03:18:40.71	252.48	13.64	-37.1	-38.7	16.3	0.00e+00	0	62	0	2231369728	44	4683
2026-01-28 03:18:41.72	252.36	13.56	-37.1	-38.7	16.3	0.00e+00	0	62	0	2236612608	44	4691
2026-01-28 03:18:42.73	252.24	13.47	-37.1	-38.7	16.3	0.00e+00	0	62	0	2241855488	44	4674
2026-01-28 03:18:43.74	252.12	13.39	-37.2	-38.8	16.2	0.00e+00	0	62	0	2248146944	44	4715
2026-01-28 03:18:44.75	251.99	13.31	-37.1	-38.8	16.2	0.00e+00	0	62	0	2253389824	44	4708
2026-01-28 03:18:45.76	251.87	13.23	-37.2	-38.8	16.2	0.00e+00	0	62	0	2259681280	44	4742
2026-01-28 03:18:46.77	251.75	13.15	-37.2	-38.8	16.2	0.00e+00	0	62	0	2264924160	45	4464
2026-01-28 03:18:47.78	251.64	13.07	-37.1	-38.7	16.2	0.00e+00	0	62	0	2271215616	45	4431
2026-01-28 03:18:48.79	251.52	12.99	-37.1	-38.7	16.3	0.00e+00	0	62	0	2276458496	45	4408
2026-01-28 03:18:49.80	251.40	12.91	-37.2	-38.8	16.2	0.00e+00	0	62	0	2281701376	45	4458
2026-01-28 03:18:50.81	251.28	12.83	-37.1	-38.7	16.3	0.00e+00	0	62	0	2287992832	45	4409
2026-01-28 03:18:51.83	251.16	12.74	-37.2	-38.8	16.1	0.00e+00	0	62	0	2293235712	45	4463
2026-01-28 03:18:52.84	251.05	12.66	-37.2	-38.8	16.1	0.00e+00	0	62	0	2299527168	45	4461
2026-01-28 03:18:53.85	250.93	12.58	-37.2	-38.8	16.1	0.00e+00	0	62	0	2304770048	45	4489
2026-01-28 03:18:54.86	250.82	12.50	-37.3	-38.9	16.0	0.00e+00	0	62	0	2310012928	45	4522
2026-01-28 03:18:55.87	250.70	12.42	-37.3	-39.0	16.0	0.00e+00	0	62	0	2316304384	45	4560
2026-01-28 03:18:56.88	250.59	12.34	-37.4	-39.1	15.8	0.00e+00	0	62	0	2321547264	45	4618
2026-01-28 03:18:57.89	250.48	12.27	-37.5	-39.2	15.8	0.00e+00	0	62	0	2327838720	45	4668
2026-01-28 03:18:58.90	250.37	12.19	-37.5	-39.3	15.6	0.00e+00	0	62	0	2333081600	45	4718
2026-01-28 03:18:59.91	250.26	12.11	-37.5	-39.3	15.7	0.00e+00	0	62	0	2338324480	45	4709
2026-01-28 03:19:00.92	250.14	12.03	-37.5	-39.2	15.7	0.00e+00	0	62	0	2344615936	45	4693
2026-01-28 03:19:01.93	250.03	11.95	-37.5	-39.2	15.7	0.00e+00	0	62	0	2349858816	45	4692
2026-01-28 03:19:02.94	249.92	11.87	-37.5	-39.2	15.7	0.00e+00	0	62	0	2356150272	45	4696
2026-01-28 03:19:03.96	249.81	11.79	-37.6	-39.3	15.6	0.00e+00	0	62	0	2361393152	45	4729
2026-01-28 03:19:04.97	249.71	11.71	-37.6	-39.4	15.5	0.00e+00	0	62	0	2367684608	45	4781
2026-01-28 03:19:05.98	249.60	11.63	-37.6	-39.4	15.5	0.00e+00	0	62	0	2372927488	45	4779
2026-01-28 03:19:06.99	249.49	11.56	-37.7	-39.5	15.3	0.00e+00	0	62	0	2379218944	46	4582
2026-01-28 03:19:08.00	249.38	11.48	-37.8	-39.6	15.3	0.00e+00	0	62	0	2384461824	46	4609
2026-01-28 03:19:09.01	249.28	11.40	-37.7	-39.5	15.4	0.00e+00	0	62	0	2389704704	46	4574
2026-01-28 03:19:10.02	249.17	11.32	-37.7	-39.5	15.4	0.00e+00	0	62	0	2395996160	46	4574
2026-01-28 03:19:11.03	249.07	11.25	-37.8	-39.6	15.3	0.00e+00	0	62	0	2401239040	46	4617
2026-01-28 03:19:12.04	248.96	11.17	-37.8	-39.6	15.3	0.00e+00	0	62	0	2407530496	46	4614
2026-01-28 03:19:13.04	248.86	11.09	-37.8	-39.6	15.3	0.00e+00	0	62	0	2412773376	46	4613
2026-01-28 03:19:14.05	248.76	11.01	-37.7	-39.5	15.4	0.00e+00	0	62	0	2418016256	46	4561
2026-01-28 03:19:15.06	248.65	10.94	-37.8	-39.6	15.3	0.00e+00	0	62	0	2424307712	46	4613
2026-01-28 03:19:16.08	248.55	10.86	-37.8	-39.6	15.3	0.00e+00	0	62	0	2429550592	46	4609
2026-01-28 03:19:17.09	248.45	10.78	-37.7	-39.5	15.3	0.00e+00	0	62	0	2435842048	46	4571
2026-01-28 03:19:18.10	248.35	10.71	-37.7	-39.5	15.3	0.00e+00	0	62	0	2441084928	46	4577
2026-01-28 03:19:19.11	248.25	10.63	-37.8	-39.6	15.2	0.00e+00	0	62	0	2446327808	46	4634
2026-01-28 03:19:20.12	248.15	10.56	-37.8	-39.6	15.2	0.00e+00	0	62	0	2452619264	46	4641
2026-01-28 03:19:21.13	248.05	10.48	-37.8	-39.7	15.1	0.00e+00	0	62	0	2457862144	46	4667
2026-01-28 03:19:22.14	247.95	10.40	-37.9	-39.7	15.1	0.00e+00	0	62	0	2464153600	46	4696
2026-01-28 03:19:23.15	247.85	10.33	-37.9	-39.8	15.0	1.10e-06	0	62	0	2469396480	46	4721
2026-01-28 03:19:24.16	247.75	10.25	-38.0	-39.9	14.9	0.00e+00	0	62	0	2475687936	46	4795
2026-01-28 03:19:25.17	247.66	10.18	-38.0	-39.9	14.9	0.00e+00	0	62	0	2480930816	46	4780
2026-01-28 03:19:26.18	247.56	10.10	-38.0	-39.9	14.9	0.00e+00	0	62	0	2487222272	46	4782
2026-01-28 03:19:27.19	247.46	10.03	-38.1	-40.0	14.8	0.00e+00	0	62	0	2492465152	46	4836
2026-01-28 03:19:28.20	247.37	9.95	-38.1	-40.0	14.7	1.10e-06	0	62	0	2497708032	46	4870
2026-01-28 03:19:29.21	247.27	9.88	-38.1	-40.0	14.8	0.00e+00	0	62	0	2503999488	46	4824
2026-01-28 03:19:30.22	247.18	9.80	-38.1	-40.1	14.7	1.10e-06	0	62	0	2509242368	46	4876
2026-01-28 03:19:31.23	247.08	9.73	-38.1	-40.0	14.8	2.20e-06	0	62	0	2515533824	46	4847
2026-01-28 03:19:32.24	246.99	9.65	-38.1	-40.0	14.7	0.00e+00	0	62	0	2520776704	46	4859
2026-01-28 03:19:33.25	246.89	9.58	-38.1	-40.0	14.7	0.00e+00	0	62	0	2526019584	46	4857
2026-01-28 03:19:34.26	246.80	9.50	-38.1	-40.0	14.7	0.00e+00	0	62	0	2532311040	46	4849
2026-01-28 03:19:35.27	246.71	9.43	-38.2	-40.1	14.6	1.10e-06	0	62	0	2537553920	46	4908
2026-01-28 03:19:36.28	246.62	9.36	-38.1	-40.1	14.7	0.00e+00	0	62	0	2543845376	46	4886
2026-01-28 03:19:37.29	246.53	9.28	-38.1	-40.1	14.6	0.00e+00	0	62	0	2549088256	46	4891
2026-01-28 03:19:38.30	246.43	9.21	-38.2	-40.1	14.6	1.10e-06	0	62	0	2554331136	46	4910
2026-01-28 03:19:39.31	246.34	9.14	-38.2	-40.1	14.6	0.00e+00	0	62	0	2560622592	47	4628
2026-01-28 03:19:40.32	246.25	9.06	-38.1	-40.1	14.6	1.10e-06	0	62	0	2565865472	47	4600
2026-01-28 03:19:41.33	246.16	8.99	-38.2	-40.1	14.6	0.00e+00	0	62	0	2572156928	47	4642
2026-01-28 03:19:42.34	246.07	8.92	-38.2	-40.2	14.5	1.10e-06	0	62	0	2577399808	47	4673
2026-01-28 03:19:43.35	245.99	8.85	-38.3	-40.3	14.4	0.00e+00	0	62	0	2583691264	47	4727
2026-01-28 03:19:44.37	245.90	8.77	-38.3	-40.2	14.4	1.10e-06	0	62	0	2588934144	47	4698
2026-01-28 03:19:45.38	245.81	8.70	-38.3	-40.3	14.4	3.40e-06	0	62	0	2595225600	47	4721
2026-01-28 03:19:46.39	245.72	8.63	-38.4	-40.4	14.3	0.00e+00	0	62	0	2600468480	47	4769
2026-01-28 03:19:47.40	245.63	8.56	-38.3	-40.3	14.4	0.00e+00	0	62	0	2605711360	47	4728
2026-01-28 03:19:48.41	245.55	8.48	-38.3	-40.3	14.3	2.20e-06	0	62	0	2612002816	47	4748
2026-01-28 03:19:49.42	245.46	8.41	-38.3	-40.4	14.3	0.00e+00	0	62	0	2617245696	47	4769
2026-01-28 03:19:50.43	245.38	8.34	-38.4	-40.5	14.2	2.20e-06	0	62	0	2623537152	47	4824
2026-01-28 03:19:51.44	245.29	8.27	-38.3	-40.4	14.3	4.50e-06	0	62	0	2628780032	47	4766
2026-01-28 03:19:52.45	245.21	8.20	-38.4	-40.4	14.2	5.70e-06	0	62	0	2634022912	47	4810
2026-01-28 03:19:53.46	245.12	8.13	-38.4	-40.5	14.2	1.10e-06	0	62	0	2640314368	47	4821
2026-01-28 03:19:54.47	245.04	8.05	-38.3	-40.4	14.2	0.00e+00	0	62	0	2645557248	47	4771
2026-01-28 03:19:55.48	244.95	7.98	-40.2	-42.9	12.1	2.20e-06	0	62	0	2651848704	50	5383
2026-01-28 03:19:56.49	244.87	7.91	-44.7	-56.2	3.8	8.46e-01	0	62	104	2652897280	59	14745
2026-01-28 03:19:57.50	244.79	7.84	-44.8	-56.7	3.8	8.46e-01	0	62	104	2652897280	60	14809
2026-01-28 03:19:58.51	244.71	7.77	-45.0	-56.9	3.8	8.45e-01	0	62	104	2652897280	60	15074
2026-01-28 03:19:59.53	244.62	7.70	-45.1	-56.9	3.8	8.45e-01	0	62	104	2652897280	60	15222
2026-01-28 03:20:00.53	244.54	7.63	-45.1	-57.1	3.8	8.46e-01	0	62	104	2652897280	60	15427
