passes_logs/2026/01/28/R2.0S_Moscow/R2.0S_Moscow__20260128_163612_FENGYUN_3G_rec.log

#Pass ID: 20260128_163612_FENGYUN 3G
#Satellite: FENGYUN 3G
#Configuration: FENGYUN 3G
#almurnet v.1.7.20251203
#Start time: 2026-01-28 16:36:13

#Version: 2.2.20231116
#Station: R2.0S_Moscow
#Location: 37.707566 lon 55.798166 lat
#TLE: 1 56232U 23055A   26027.33093889  .00044881  00000+0  67100-3 0  9994
#TLE: 2 56232  49.9947 352.2708 0004101  93.7831 266.3606 15.54500775158110

#Time	Az	El	Level	Level2	SNR	BER	BlckErr	Temp	State	Recorded	gain1	gain2
2026-01-28 16:36:13.67	231.29	2.06	-44.1	-62.6	3.8	8.45e-01	0	49	0	0	60	29041
2026-01-28 16:36:14.67	231.22	2.12	-44.1	-62.6	3.8	8.44e-01	0	49	104	0	60	29079
2026-01-28 16:36:15.68	231.14	2.18	-44.1	-62.6	3.8	8.46e-01	0	49	104	0	60	29036
2026-01-28 16:36:16.69	231.06	2.25	-44.1	-62.6	3.8	8.46e-01	0	49	104	0	60	29114
2026-01-28 16:36:17.70	230.98	2.31	-44.1	-62.5	3.8	8.46e-01	0	50	104	0	60	29009
2026-01-28 16:36:18.71	230.89	2.38	-44.1	-62.6	3.8	8.47e-01	0	50	104	0	60	29021
2026-01-28 16:36:19.73	230.81	2.45	-44.1	-62.5	3.8	8.46e-01	0	50	104	0	60	28973
2026-01-28 16:36:20.74	230.73	2.51	-44.1	-62.5	3.8	8.46e-01	0	50	104	0	60	28979
2026-01-28 16:36:21.75	230.65	2.58	-44.1	-62.5	3.8	8.46e-01	0	50	104	0	60	28985
2026-01-28 16:36:22.76	230.56	2.64	-44.1	-62.6	3.8	8.46e-01	0	50	104	0	60	29047
2026-01-28 16:36:23.77	230.48	2.71	-44.1	-62.6	3.8	8.46e-01	0	50	104	0	60	29049
2026-01-28 16:36:24.78	230.40	2.78	-44.2	-62.5	3.7	8.46e-01	0	50	104	0	59	30700
2026-01-28 16:36:25.79	230.31	2.84	-44.2	-62.6	3.8	8.46e-01	0	50	104	0	59	30744
2026-01-28 16:36:26.80	230.23	2.91	-44.2	-62.5	3.8	8.46e-01	0	50	104	0	59	30700
2026-01-28 16:36:27.81	230.14	2.98	-44.1	-62.5	3.8	8.45e-01	0	50	104	0	59	30720
2026-01-28 16:36:28.82	230.05	3.04	-44.1	-62.5	3.8	8.47e-01	0	50	104	0	59	30707
2026-01-28 16:36:29.83	229.97	3.11	-44.2	-62.5	3.8	8.47e-01	0	51	104	0	59	30700
2026-01-28 16:36:30.84	229.88	3.18	-44.2	-62.6	3.8	8.47e-01	0	50	104	0	59	30746
2026-01-28 16:36:31.85	229.79	3.24	-44.2	-62.6	3.8	8.45e-01	0	51	104	0	59	30751
2026-01-28 16:36:32.86	229.70	3.31	-44.1	-62.5	3.8	8.45e-01	0	50	104	0	59	30730
2026-01-28 16:36:33.87	229.61	3.38	-44.2	-62.5	3.8	8.45e-01	0	51	104	0	59	30670
2026-01-28 16:36:34.88	229.52	3.45	-44.2	-62.6	3.8	8.45e-01	0	51	104	0	59	30755
2026-01-28 16:36:35.89	229.43	3.52	-44.2	-62.5	3.8	8.47e-01	0	51	104	0	59	30692
2026-01-28 16:36:36.90	229.34	3.59	-44.1	-62.6	3.8	8.47e-01	0	51	104	0	59	30737
2026-01-28 16:36:37.91	229.25	3.66	-44.1	-62.5	3.8	8.47e-01	0	51	104	0	59	30722
2026-01-28 16:36:38.92	229.16	3.72	-44.2	-62.6	3.8	8.47e-01	0	51	104	0	59	30757
2026-01-28 16:36:39.93	229.06	3.79	-44.2	-62.6	3.8	8.47e-01	0	51	104	0	59	30764
2026-01-28 16:36:40.94	228.97	3.86	-44.1	-62.5	3.8	8.47e-01	0	51	104	0	59	30695
2026-01-28 16:36:41.95	228.87	3.93	-44.1	-62.5	3.8	8.46e-01	0	51	104	0	59	30730
2026-01-28 16:36:42.96	228.78	4.00	-44.1	-62.5	3.8	8.45e-01	0	51	104	0	59	30649
2026-01-28 16:36:43.97	228.68	4.07	-44.1	-62.5	3.8	8.45e-01	0	51	104	0	59	30704
2026-01-28 16:36:44.98	228.59	4.14	-44.2	-62.6	3.8	8.46e-01	0	51	104	0	59	30762
2026-01-28 16:36:45.99	228.49	4.21	-44.2	-62.5	3.8	8.47e-01	0	51	104	0	59	30708
2026-01-28 16:36:47.00	228.39	4.29	-44.1	-62.6	3.8	8.47e-01	0	52	104	0	59	30746
2026-01-28 16:36:48.01	228.29	4.36	-44.1	-62.6	3.8	8.45e-01	0	52	104	0	59	30744
2026-01-28 16:36:49.02	228.19	4.43	-44.1	-62.5	3.8	8.45e-01	0	52	104	0	59	30709
2026-01-28 16:36:50.03	228.09	4.50	-44.2	-62.5	3.8	8.45e-01	0	52	104	0	59	30653
2026-01-28 16:36:51.04	227.99	4.57	-44.1	-62.5	3.8	8.46e-01	0	52	104	0	59	30606
2026-01-28 16:36:52.05	227.89	4.64	-44.1	-62.5	3.8	8.46e-01	0	52	104	0	59	30688
2026-01-28 16:36:53.06	227.79	4.72	-44.1	-62.6	3.8	8.46e-01	0	52	104	0	59	30787
2026-01-28 16:36:54.07	227.69	4.79	-44.1	-62.5	3.8	8.46e-01	0	52	104	0	59	30716
2026-01-28 16:36:55.08	227.58	4.86	-44.1	-62.5	3.8	8.46e-01	0	52	104	0	59	30557
2026-01-28 16:36:56.09	227.48	4.93	-44.1	-62.5	3.8	8.46e-01	0	52	104	0	59	30723
2026-01-28 16:36:57.10	227.37	5.01	-44.1	-62.5	3.8	8.46e-01	0	52	104	0	59	30617
2026-01-28 16:36:58.11	227.27	5.08	-44.1	-62.6	3.8	8.46e-01	0	52	104	0	59	30749
2026-01-28 16:36:59.12	227.16	5.15	-44.2	-62.5	3.8	8.47e-01	0	52	104	0	59	30690
2026-01-28 16:37:00.12	227.05	5.23	-44.2	-62.6	3.8	8.47e-01	0	52	104	0	59	30761
2026-01-28 16:37:01.11	226.95	5.30	-44.1	-62.5	3.8	8.45e-01	0	52	104	0	59	30715
2026-01-28 16:37:02.12	226.84	5.37	-44.1	-62.5	3.8	8.46e-01	0	52	104	0	59	30701
2026-01-28 16:37:03.13	226.73	5.45	-44.2	-62.5	3.8	8.46e-01	0	52	104	0	59	30653
2026-01-28 16:37:04.14	226.62	5.52	-44.1	-62.5	3.8	8.47e-01	0	52	104	0	59	30650
2026-01-28 16:37:05.15	226.50	5.60	-44.1	-62.5	3.8	8.46e-01	0	52	104	0	59	30652
2026-01-28 16:37:06.16	226.39	5.67	-44.1	-62.5	3.8	8.46e-01	0	53	104	0	59	30687
2026-01-28 16:37:07.17	226.28	5.75	-44.1	-62.5	3.8	8.46e-01	0	52	104	0	59	30699
2026-01-28 16:37:08.18	226.17	5.83	-44.1	-62.5	3.8	8.46e-01	0	53	104	0	59	30678
2026-01-28 16:37:09.19	226.05	5.90	-44.1	-62.5	3.8	8.46e-01	0	53	104	0	59	30724
2026-01-28 16:37:10.20	225.93	5.98	-44.1	-62.5	3.8	8.46e-01	0	53	104	0	59	30673
2026-01-28 16:37:11.20	225.82	6.05	-44.1	-62.5	3.8	8.46e-01	0	53	104	0	59	30726
2026-01-28 16:37:12.21	225.70	6.13	-44.1	-62.5	3.8	8.46e-01	0	53	104	0	59	30715
2026-01-28 16:37:13.23	225.58	6.21	-44.1	-62.5	3.8	8.46e-01	0	53	104	0	59	30681
2026-01-28 16:37:14.23	225.46	6.29	-44.1	-62.5	3.8	8.46e-01	0	53	104	0	59	30596
2026-01-28 16:37:15.24	225.34	6.36	-44.1	-62.5	3.8	8.46e-01	0	53	104	0	59	30719
2026-01-28 16:37:16.26	225.22	6.44	-44.1	-62.5	3.8	8.46e-01	0	53	104	0	59	30658
2026-01-28 16:37:17.26	225.10	6.52	-44.1	-62.5	3.8	8.46e-01	0	53	104	0	59	30633
2026-01-28 16:37:18.28	224.98	6.60	-44.1	-62.5	3.8	8.45e-01	0	53	104	0	59	30649
2026-01-28 16:37:19.28	224.85	6.68	-44.1	-62.6	3.8	8.46e-01	0	53	104	0	59	30745
2026-01-28 16:37:20.30	224.73	6.76	-44.2	-62.5	3.8	8.46e-01	0	53	104	0	59	30661
2026-01-28 16:37:21.31	224.60	6.84	-44.1	-62.5	3.8	8.47e-01	0	53	104	0	59	30668
2026-01-28 16:37:22.32	224.47	6.92	-44.1	-62.5	3.8	8.47e-01	0	53	104	0	59	30657
2026-01-28 16:37:23.33	224.35	7.00	-44.1	-62.6	3.8	8.47e-01	0	53	104	0	59	30754
2026-01-28 16:37:24.34	224.22	7.08	-44.1	-62.5	3.8	8.47e-01	0	53	104	0	59	30653
2026-01-28 16:37:25.35	224.09	7.16	-44.2	-62.5	3.8	8.46e-01	0	53	104	0	59	30633
2026-01-28 16:37:26.36	223.96	7.24	-44.1	-62.6	3.8	8.46e-01	0	53	104	0	59	30742
2026-01-28 16:37:27.37	223.82	7.32	-44.1	-62.5	3.8	8.45e-01	0	53	104	0	59	30729
2026-01-28 16:37:28.38	223.69	7.40	-44.1	-62.5	3.8	8.47e-01	0	54	104	0	59	30649
2026-01-28 16:37:29.39	223.56	7.48	-44.1	-62.5	3.8	8.47e-01	0	54	104	0	59	30634
2026-01-28 16:37:30.40	223.42	7.56	-44.1	-62.5	3.8	8.47e-01	0	53	104	0	59	30683
2026-01-28 16:37:31.41	223.29	7.65	-44.1	-62.5	3.8	8.46e-01	0	54	104	0	59	30635
2026-01-28 16:37:32.42	223.15	7.73	-44.1	-62.5	3.8	8.46e-01	0	54	104	0	59	30647
2026-01-28 16:37:33.43	223.01	7.81	-44.1	-62.5	3.8	8.46e-01	0	54	104	0	59	30534
2026-01-28 16:37:34.44	222.87	7.90	-44.1	-62.5	3.8	8.46e-01	0	54	104	0	59	30684
2026-01-28 16:37:35.45	222.73	7.98	-44.1	-62.5	3.8	8.45e-01	0	54	104	0	59	30614
2026-01-28 16:37:36.46	222.59	8.06	-44.2	-62.6	3.8	8.45e-01	0	54	104	0	59	30969
2026-01-28 16:37:37.47	222.45	8.15	-44.3	-62.7	3.8	8.45e-01	0	54	104	0	59	31295
2026-01-28 16:37:38.48	222.30	8.23	-44.2	-62.6	3.8	8.46e-01	0	54	104	0	59	30911
2026-01-28 16:37:39.49	222.16	8.31	-44.1	-62.5	3.8	8.46e-01	0	54	104	0	59	30523
2026-01-28 16:37:40.50	222.01	8.40	-44.2	-62.6	3.8	8.47e-01	0	54	104	0	59	30840
2026-01-28 16:37:41.51	221.86	8.48	-44.2	-62.6	3.8	8.45e-01	0	54	104	0	59	30869
2026-01-28 16:37:42.52	221.71	8.57	-44.2	-62.6	3.8	8.45e-01	0	54	104	0	59	31079
2026-01-28 16:37:43.53	221.56	8.66	-44.1	-62.5	3.8	8.47e-01	0	54	104	0	59	30724
2026-01-28 16:37:44.54	221.41	8.74	-44.2	-62.6	3.8	8.47e-01	0	54	104	0	59	30875
2026-01-28 16:37:45.55	221.26	8.83	-44.2	-62.6	3.8	8.47e-01	0	54	104	0	59	30951
2026-01-28 16:37:46.56	221.11	8.92	-44.2	-62.6	3.8	8.47e-01	0	54	104	0	59	31047
2026-01-28 16:37:47.57	220.95	9.00	-44.2	-62.6	3.8	8.46e-01	0	54	104	0	59	30865
2026-01-28 16:37:48.58	220.79	9.09	-44.2	-62.6	3.8	8.47e-01	0	54	104	0	59	31003
2026-01-28 16:37:49.59	220.64	9.18	-44.3	-62.7	3.8	8.47e-01	0	54	104	0	59	31107
2026-01-28 16:37:50.60	220.48	9.26	-44.2	-62.6	3.8	8.46e-01	0	54	104	0	59	30949
2026-01-28 16:37:51.60	220.32	9.35	-44.2	-62.6	3.8	8.45e-01	0	54	104	0	59	30995
2026-01-28 16:37:52.62	220.16	9.44	-44.2	-62.6	3.8	8.45e-01	0	54	104	0	59	30926
2026-01-28 16:37:53.63	219.99	9.53	-44.3	-62.7	3.8	8.46e-01	0	55	104	0	59	31159
2026-01-28 16:37:54.64	219.83	9.62	-44.3	-62.7	3.8	8.48e-01	0	55	104	0	59	31172
2026-01-28 16:37:55.65	219.66	9.71	-44.3	-62.7	3.8	8.48e-01	0	54	104	0	59	31141
2026-01-28 16:37:56.66	219.50	9.80	-44.3	-62.6	3.8	8.46e-01	0	54	104	0	59	31082
2026-01-28 16:37:57.67	219.33	9.89	-44.3	-62.7	3.8	8.47e-01	0	55	104	0	59	31246
2026-01-28 16:37:58.68	219.16	9.98	-44.3	-62.7	3.8	8.45e-01	0	54	104	0	59	31106
2026-01-28 16:37:59.69	218.99	10.07	-44.3	-62.7	3.8	8.45e-01	0	55	104	0	59	31169
2026-01-28 16:38:00.70	218.81	10.16	-44.3	-62.7	3.8	8.46e-01	0	55	104	0	59	31098
2026-01-28 16:38:01.70	218.64	10.25	-44.4	-62.7	3.8	8.46e-01	0	55	104	0	59	31443
2026-01-28 16:38:02.71	218.47	10.34	-44.3	-62.7	3.8	8.46e-01	0	54	104	0	59	31253
2026-01-28 16:38:03.72	218.29	10.43	-44.3	-62.7	3.8	8.46e-01	0	55	104	0	59	31277
2026-01-28 16:38:04.73	218.11	10.53	-44.3	-62.7	3.8	8.46e-01	0	55	104	0	59	31237
2026-01-28 16:38:05.74	217.93	10.62	-44.4	-62.7	3.8	8.46e-01	0	55	104	0	59	31438
2026-01-28 16:38:06.75	217.75	10.71	-44.3	-62.7	3.8	8.47e-01	0	55	104	0	59	31271
2026-01-28 16:38:07.76	217.56	10.81	-44.3	-62.7	3.8	8.46e-01	0	55	104	0	59	31397
2026-01-28 16:38:08.77	217.38	10.90	-44.3	-62.7	3.8	8.46e-01	0	55	104	0	59	31263
2026-01-28 16:38:09.78	217.19	10.99	-44.4	-62.8	3.8	8.46e-01	0	55	104	0	59	31522
2026-01-28 16:38:10.79	217.01	11.09	-44.3	-62.7	3.8	8.45e-01	0	55	104	0	59	31343
2026-01-28 16:38:11.80	216.82	11.18	-44.4	-62.7	3.8	8.46e-01	0	55	104	0	59	31412
2026-01-28 16:38:12.81	216.62	11.28	-44.3	-62.7	3.8	8.46e-01	0	55	104	0	59	31367
2026-01-28 16:38:13.83	216.43	11.37	-44.4	-62.8	3.8	8.46e-01	0	55	104	0	59	31694
2026-01-28 16:38:14.84	216.23	11.47	-44.3	-62.7	3.8	8.46e-01	0	55	104	0	59	31346
2026-01-28 16:38:15.85	216.04	11.56	-44.4	-62.8	3.8	8.46e-01	0	55	104	0	59	31575
2026-01-28 16:38:16.86	215.84	11.66	-44.4	-62.7	3.8	8.45e-01	0	55	104	0	59	31434
2026-01-28 16:38:17.86	215.64	11.75	-44.5	-62.8	3.8	8.46e-01	0	55	104	0	59	31771
2026-01-28 16:38:18.88	215.44	11.85	-44.4	-62.7	3.8	8.46e-01	0	55	104	0	59	31384
2026-01-28 16:38:19.89	215.23	11.95	-44.4	-62.8	3.8	8.47e-01	0	55	104	0	59	31654
2026-01-28 16:38:20.90	215.03	12.05	-44.4	-62.8	3.8	8.47e-01	0	55	104	0	59	31519
2026-01-28 16:38:21.90	214.82	12.14	-44.5	-62.9	3.8	8.47e-01	0	55	104	0	59	31878
2026-01-28 16:38:22.91	214.61	12.24	-44.4	-62.8	3.8	8.47e-01	0	55	104	0	59	31474
2026-01-28 16:38:23.93	214.40	12.34	-44.4	-62.8	3.8	8.46e-01	0	55	104	0	59	31710
2026-01-28 16:38:24.94	214.19	12.44	-44.4	-62.8	3.8	8.46e-01	0	55	104	0	59	31597
2026-01-28 16:38:25.94	213.98	12.53	-44.5	-62.9	3.8	8.46e-01	0	55	104	0	59	31884
2026-01-28 16:38:26.96	213.76	12.63	-44.4	-62.8	3.8	8.45e-01	0	55	104	0	59	31559
2026-01-28 16:38:27.96	213.54	12.73	-44.5	-62.8	3.8	8.45e-01	0	55	104	0	59	31807
2026-01-28 16:38:28.97	213.32	12.83	-44.4	-62.8	3.8	8.45e-01	0	55	104	0	59	31636
2026-01-28 16:38:29.98	213.10	12.93	-44.5	-62.9	3.8	8.47e-01	0	55	104	0	59	32037
2026-01-28 16:38:30.99	212.87	13.03	-44.4	-62.8	3.8	8.46e-01	0	55	104	0	59	31582
2026-01-28 16:38:32.00	212.65	13.13	-44.5	-62.9	3.8	8.46e-01	0	55	104	0	59	31848
2026-01-28 16:38:33.01	212.42	13.23	-44.4	-62.8	3.8	8.48e-01	0	55	104	0	59	31754
2026-01-28 16:38:34.02	212.19	13.33	-44.4	-62.9	3.8	8.47e-01	0	55	104	0	59	32175
2026-01-28 16:38:35.03	211.96	13.43	-44.4	-62.8	3.8	8.46e-01	0	55	104	0	59	31725
2026-01-28 16:38:36.04	211.72	13.53	-44.5	-62.9	3.8	8.46e-01	0	55	104	0	59	31961
2026-01-28 16:38:37.05	211.49	13.63	-44.5	-62.9	3.8	8.46e-01	0	55	104	0	59	31826
2026-01-28 16:38:38.06	211.25	13.74	-44.6	-63.0	3.8	8.45e-01	0	56	104	0	59	32269
2026-01-28 16:38:39.07	211.01	13.84	-44.5	-62.8	3.8	8.45e-01	0	56	104	0	59	31758
2026-01-28 16:38:40.08	210.76	13.94	-44.5	-62.9	3.8	8.47e-01	0	56	104	0	59	32057
2026-01-28 16:38:41.09	210.52	14.04	-44.5	-62.9	3.8	8.46e-01	0	56	104	0	59	32030
2026-01-28 16:38:42.10	210.27	14.14	-44.6	-63.0	3.8	8.46e-01	0	56	104	0	59	32323
2026-01-28 16:38:43.11	210.02	14.25	-44.5	-62.9	3.8	8.47e-01	0	56	104	0	59	31964
2026-01-28 16:38:44.12	209.77	14.35	-44.6	-63.0	3.8	8.47e-01	0	56	104	0	59	32245
2026-01-28 16:38:45.13	209.52	14.45	-44.5	-62.9	3.8	8.47e-01	0	56	104	0	59	32088
2026-01-28 16:38:46.14	209.26	14.56	-44.6	-63.0	3.8	8.46e-01	0	56	104	0	59	32467
2026-01-28 16:38:47.15	209.00	14.66	-44.5	-62.9	3.8	8.46e-01	0	56	104	0	59	32091
2026-01-28 16:38:48.16	208.74	14.76	-44.6	-63.0	3.8	8.46e-01	0	56	104	0	59	32365
2026-01-28 16:38:49.17	208.48	14.87	-44.6	-63.0	3.8	8.46e-01	0	56	104	0	59	32180
2026-01-28 16:38:50.18	208.21	14.97	-44.7	-63.0	3.8	8.46e-01	0	56	104	0	59	32449
2026-01-28 16:38:51.19	207.94	15.07	-44.5	-62.9	3.8	8.45e-01	0	56	104	0	59	32111
2026-01-28 16:38:52.20	207.67	15.18	-44.6	-63.0	3.8	8.45e-01	0	56	104	0	59	32394
2026-01-28 16:38:53.21	207.40	15.28	-44.6	-63.0	3.8	8.47e-01	0	56	104	0	59	32342
2026-01-28 16:38:54.22	207.12	15.39	-44.7	-63.0	3.8	8.46e-01	0	56	104	0	59	32534
2026-01-28 16:38:55.22	206.85	15.49	-44.6	-63.0	3.8	8.46e-01	0	56	104	0	59	32282
2026-01-28 16:38:56.23	206.57	15.59	-44.7	-63.0	3.8	8.47e-01	0	56	104	0	59	32509
2026-01-28 16:38:57.24	206.29	15.70	-44.6	-63.0	3.8	8.46e-01	0	56	104	0	59	32383
2026-01-28 16:38:58.25	206.00	15.80	-44.7	-63.1	3.8	8.46e-01	0	56	104	0	59	32608
2026-01-28 16:38:59.26	205.71	15.91	-44.6	-63.0	3.8	8.47e-01	0	56	104	0	59	32389
2026-01-28 16:39:00.27	205.42	16.01	-44.7	-63.1	3.8	8.46e-01	0	56	104	0	59	32583
2026-01-28 16:39:01.27	205.13	16.12	-44.6	-63.0	3.8	8.45e-01	0	56	104	0	59	32483
2026-01-28 16:39:02.28	204.84	16.22	-44.7	-63.1	3.8	8.45e-01	0	56	104	0	59	32713
2026-01-28 16:39:03.29	204.54	16.33	-44.6	-63.0	3.8	8.46e-01	0	56	104	0	59	32336
2026-01-28 16:39:04.30	204.24	16.43	-44.7	-63.1	3.8	8.46e-01	0	56	104	0	59	32630
2026-01-28 16:39:05.31	203.93	16.54	-44.7	-63.0	3.8	8.46e-01	0	56	104	0	59	32484
2026-01-28 16:39:06.32	203.63	16.64	-44.7	-63.1	3.8	8.47e-01	0	56	104	0	59	32581
2026-01-28 16:39:07.33	203.32	16.75	-44.6	-63.0	3.8	8.46e-01	0	56	104	0	59	32442
2026-01-28 16:39:08.34	203.01	16.85	-44.6	-63.1	3.8	8.46e-01	0	56	104	0	60	30798
2026-01-28 16:39:09.35	202.69	16.95	-44.6	-63.1	3.8	8.46e-01	0	56	104	0	60	30902
2026-01-28 16:39:10.36	202.38	17.06	-44.6	-63.1	3.8	8.46e-01	0	56	104	0	60	30943
2026-01-28 16:39:11.37	202.06	17.16	-44.6	-63.1	3.8	8.46e-01	0	56	104	0	60	30842
2026-01-28 16:39:12.38	201.73	17.27	-44.6	-63.1	3.8	8.45e-01	0	56	104	0	60	30860
2026-01-28 16:39:13.39	201.41	17.37	-44.6	-63.1	3.8	8.46e-01	0	56	104	0	60	30905
2026-01-28 16:39:14.40	201.08	17.48	-44.6	-63.1	3.8	8.47e-01	0	56	104	0	60	30856
2026-01-28 16:39:15.41	200.75	17.58	-44.6	-63.1	3.8	8.47e-01	0	56	104	0	60	30845
2026-01-28 16:39:16.42	200.41	17.68	-44.6	-63.1	3.8	8.45e-01	0	56	104	0	60	30831
2026-01-28 16:39:17.43	200.08	17.79	-44.6	-63.1	3.8	8.45e-01	0	56	104	0	60	30900
2026-01-28 16:39:18.44	199.74	17.89	-44.6	-63.1	3.8	8.45e-01	0	56	104	0	60	30876
2026-01-28 16:39:19.45	199.40	17.99	-44.6	-63.1	3.8	8.45e-01	0	56	104	0	60	30811
2026-01-28 16:39:20.46	199.05	18.09	-44.6	-63.1	3.8	8.45e-01	0	56	104	0	60	30875
2026-01-28 16:39:21.47	198.70	18.20	-44.6	-63.1	3.8	8.45e-01	0	57	104	0	60	30827
2026-01-28 16:39:22.48	198.35	18.30	-44.6	-63.1	3.8	8.46e-01	0	57	104	0	60	30860
2026-01-28 16:39:23.50	197.99	18.40	-44.6	-63.0	3.8	8.46e-01	0	56	104	0	60	30730
2026-01-28 16:39:24.51	197.64	18.50	-44.6	-63.1	3.8	8.46e-01	0	57	104	0	60	30883
2026-01-28 16:39:25.52	197.28	18.60	-44.6	-63.1	3.8	8.46e-01	0	57	104	0	60	30805
2026-01-28 16:39:26.53	196.91	18.70	-44.6	-63.1	3.8	8.47e-01	0	56	104	0	60	30857
2026-01-28 16:39:27.54	196.55	18.80	-44.6	-63.1	3.8	8.47e-01	0	56	104	0	60	30889
2026-01-28 16:39:28.55	196.18	18.90	-44.6	-63.1	3.8	8.47e-01	0	56	104	0	60	30788
2026-01-28 16:39:29.56	195.81	19.00	-44.6	-63.1	3.8	8.46e-01	0	56	104	0	60	30900
2026-01-28 16:39:30.57	195.43	19.10	-44.6	-63.1	3.8	8.46e-01	0	57	104	0	60	30902
2026-01-28 16:39:31.58	195.06	19.20	-44.6	-63.1	3.8	8.46e-01	0	57	104	0	60	30888
2026-01-28 16:39:32.59	194.68	19.30	-44.6	-63.1	3.8	8.46e-01	0	57	104	0	60	30817
2026-01-28 16:39:33.60	194.29	19.39	-44.7	-63.1	3.8	8.46e-01	0	57	104	0	60	30949
2026-01-28 16:39:34.61	193.91	19.49	-44.7	-63.1	3.8	8.46e-01	0	57	104	0	60	30849
2026-01-28 16:39:35.62	193.52	19.58	-44.6	-63.1	3.8	8.46e-01	0	57	104	0	60	30927
2026-01-28 16:39:36.63	193.12	19.68	-44.6	-63.1	3.8	8.47e-01	0	56	104	0	60	30956
2026-01-28 16:39:37.64	192.73	19.77	-44.7	-63.1	3.8	8.46e-01	0	57	104	0	60	31062
2026-01-28 16:39:38.65	192.33	19.87	-44.7	-63.1	3.8	8.46e-01	0	56	104	0	60	30940
2026-01-28 16:39:39.66	191.93	19.96	-44.6	-63.1	3.8	8.46e-01	0	57	104	0	60	30931
2026-01-28 16:39:40.67	191.52	20.05	-44.7	-63.1	3.8	8.45e-01	0	57	104	0	60	31034
2026-01-28 16:39:41.68	191.12	20.14	-44.7	-63.1	3.8	8.45e-01	0	57	104	0	60	31007
2026-01-28 16:39:42.70	190.70	20.23	-44.7	-63.1	3.8	8.45e-01	0	57	104	0	60	30998
2026-01-28 16:39:43.71	190.29	20.32	-44.7	-63.1	3.8	8.46e-01	0	57	104	0	60	31060
2026-01-28 16:39:44.72	189.87	20.41	-44.7	-63.1	3.8	8.46e-01	0	57	104	0	60	31079
2026-01-28 16:39:45.72	189.46	20.50	-44.7	-63.1	3.8	8.46e-01	0	57	104	0	60	31014
2026-01-28 16:39:46.73	189.04	20.59	-44.7	-63.1	3.8	8.46e-01	0	57	104	0	60	31064
2026-01-28 16:39:47.74	188.61	20.67	-44.7	-63.1	3.8	8.46e-01	0	57	104	0	60	31015
2026-01-28 16:39:48.75	188.19	20.76	-44.7	-63.1	3.8	8.46e-01	0	57	104	0	60	31017
2026-01-28 16:39:49.76	187.76	20.84	-44.7	-63.2	3.8	8.47e-01	0	57	104	0	60	31118
2026-01-28 16:39:50.77	187.32	20.92	-44.7	-63.1	3.8	8.46e-01	0	57	104	0	60	30969
2026-01-28 16:39:51.78	186.89	21.00	-44.7	-63.2	3.8	8.46e-01	0	57	104	0	60	31105
2026-01-28 16:39:52.79	186.45	21.08	-44.7	-63.1	3.8	8.45e-01	0	57	104	0	60	31037
2026-01-28 16:39:53.80	186.01	21.16	-44.7	-63.2	3.8	8.46e-01	0	57	104	0	60	31237
2026-01-28 16:39:54.81	185.56	21.24	-44.7	-63.2	3.8	8.46e-01	0	57	104	0	60	31099
2026-01-28 16:39:55.82	185.12	21.32	-44.7	-63.2	3.8	8.47e-01	0	57	104	0	60	31153
2026-01-28 16:39:56.83	184.67	21.39	-44.7	-63.1	3.8	8.47e-01	0	57	104	0	60	31076
2026-01-28 16:39:57.84	184.22	21.47	-44.7	-63.2	3.8	8.47e-01	0	57	104	0	60	31319
2026-01-28 16:39:58.85	183.76	21.54	-44.7	-63.2	3.8	8.46e-01	0	57	104	0	60	31207
2026-01-28 16:39:59.85	183.31	21.61	-44.7	-63.2	3.8	8.47e-01	0	57	104	0	60	31131
2026-01-28 16:40:00.86	182.85	21.68	-44.7	-63.2	3.8	8.47e-01	0	57	104	0	60	31208
2026-01-28 16:40:01.87	182.39	21.75	-44.7	-63.2	3.8	8.46e-01	0	57	104	0	60	31262
2026-01-28 16:40:02.88	181.92	21.81	-44.7	-63.2	3.8	8.45e-01	0	57	104	0	60	31113
2026-01-28 16:40:03.90	181.45	21.88	-44.7	-63.2	3.8	8.46e-01	0	57	104	0	60	31209
2026-01-28 16:40:04.91	180.98	21.94	-44.7	-63.2	3.8	8.46e-01	0	57	104	0	60	31294
2026-01-28 16:40:05.92	180.51	22.01	-44.8	-63.2	3.8	8.46e-01	0	57	104	0	60	31373
2026-01-28 16:40:06.92	180.04	22.07	-44.7	-63.2	3.8	8.46e-01	0	57	104	0	60	31222
2026-01-28 16:40:07.93	179.57	22.13	-44.7	-63.2	3.8	8.46e-01	0	57	104	0	60	31324
2026-01-28 16:40:08.94	179.09	22.18	-44.7	-63.2	3.8	8.47e-01	0	57	104	0	60	31231
2026-01-28 16:40:09.95	178.61	22.24	-44.8	-63.2	3.8	8.46e-01	0	57	104	0	60	31373
2026-01-28 16:40:10.96	178.13	22.30	-44.7	-63.2	3.8	8.46e-01	0	57	104	0	60	31252
2026-01-28 16:40:11.97	177.64	22.35	-44.8	-63.3	3.8	8.47e-01	0	57	104	0	60	31597
2026-01-28 16:40:12.98	177.16	22.40	-44.8	-63.3	3.8	8.46e-01	0	57	104	0	60	31489
2026-01-28 16:40:14.00	176.67	22.45	-44.8	-63.3	3.8	8.46e-01	0	57	104	0	60	31732
2026-01-28 16:40:15.00	176.18	22.50	-44.8	-63.3	3.8	8.46e-01	0	57	104	0	60	31462
2026-01-28 16:40:16.01	175.69	22.54	-44.8	-63.3	3.8	8.46e-01	0	57	104	0	60	31650
2026-01-28 16:40:17.02	175.20	22.58	-44.8	-63.3	3.8	8.46e-01	0	57	104	0	60	31482
2026-01-28 16:40:18.03	174.70	22.63	-44.9	-63.3	3.8	8.46e-01	0	57	104	0	60	31774
2026-01-28 16:40:19.04	174.21	22.67	-45.2	-63.7	3.8	8.46e-01	0	57	104	0	61	31315
2026-01-28 16:40:20.06	173.71	22.70	-45.0	-63.4	3.8	8.46e-01	0	57	104	0	61	30354
2026-01-28 16:40:21.06	173.21	22.74	-44.9	-63.4	3.8	8.46e-01	0	57	104	0	61	30197
2026-01-28 16:40:22.08	172.71	22.77	-44.9	-63.4	3.8	8.47e-01	0	57	104	0	61	30260
2026-01-28 16:40:23.09	172.21	22.81	-44.8	-63.3	3.8	8.47e-01	0	57	104	0	61	29919
2026-01-28 16:40:24.10	171.70	22.84	-44.9	-63.4	3.8	8.47e-01	0	57	104	0	61	30149
2026-01-28 16:40:25.11	171.20	22.87	-44.9	-63.4	3.8	8.47e-01	0	57	104	0	61	30099
2026-01-28 16:40:26.12	170.69	22.89	-44.9	-63.4	3.8	8.45e-01	0	57	104	0	61	30153
2026-01-28 16:40:27.13	170.19	22.92	-44.9	-63.3	3.8	8.47e-01	0	57	104	0	61	29967
2026-01-28 16:40:28.14	169.68	22.94	-44.9	-63.4	3.8	8.47e-01	0	57	104	0	61	30306
2026-01-28 16:40:29.15	169.18	22.96	-44.9	-63.4	3.8	8.46e-01	0	57	104	0	61	30055
2026-01-28 16:40:30.16	168.67	22.98	-44.9	-63.4	3.8	8.45e-01	0	57	104	0	61	30184
2026-01-28 16:40:31.16	168.16	22.99	-44.9	-63.4	3.8	8.45e-01	0	57	104	0	61	30116
2026-01-28 16:40:32.18	167.65	23.01	-45.0	-63.5	3.8	8.46e-01	0	57	104	0	61	30559
2026-01-28 16:40:33.19	167.14	23.02	-45.0	-63.5	3.8	8.46e-01	0	57	104	0	61	30406
2026-01-28 16:40:34.20	166.63	23.03	-45.0	-63.5	3.8	8.46e-01	0	57	104	0	61	30587
2026-01-28 16:40:35.20	166.12	23.03	-45.0	-63.5	3.8	8.46e-01	0	57	104	0	61	30544
2026-01-28 16:40:36.21	165.61	23.04	-45.1	-63.5	3.8	8.46e-01	0	57	104	0	61	30674
2026-01-28 16:40:37.22	165.10	23.04	-45.0	-63.5	3.8	8.46e-01	0	57	104	0	61	30499
2026-01-28 16:40:38.23	164.59	23.04	-45.1	-63.5	3.8	8.46e-01	0	57	104	0	61	30531
2026-01-28 16:40:39.24	164.08	23.04	-45.0	-63.5	3.8	8.46e-01	0	57	104	0	61	30506
2026-01-28 16:40:40.25	163.57	23.04	-45.1	-63.5	3.8	8.47e-01	0	57	104	0	61	30617
2026-01-28 16:40:41.26	163.06	23.04	-45.0	-63.5	3.8	8.47e-01	0	57	104	0	61	30534
2026-01-28 16:40:42.27	162.55	23.03	-45.1	-63.5	3.8	8.46e-01	0	57	104	0	61	30667
2026-01-28 16:40:43.28	162.04	23.02	-45.1	-63.5	3.8	8.47e-01	0	57	104	0	61	30642
2026-01-28 16:40:44.29	161.53	23.01	-45.1	-63.5	3.8	8.47e-01	0	57	104	0	61	30682
2026-01-28 16:40:45.30	161.02	22.99	-45.0	-63.5	3.8	8.46e-01	0	58	104	0	61	30545
2026-01-28 16:40:46.31	160.51	22.98	-45.1	-63.5	3.8	8.46e-01	0	57	104	0	61	30659
2026-01-28 16:40:47.32	160.00	22.96	-45.1	-63.5	3.8	8.46e-01	0	57	104	0	61	30690
2026-01-28 16:40:48.33	159.50	22.94	-45.1	-63.5	3.8	8.46e-01	0	58	104	0	61	30691
2026-01-28 16:40:49.34	158.99	22.92	-45.0	-63.5	3.8	8.46e-01	0	58	104	0	61	30649
2026-01-28 16:40:50.35	158.48	22.90	-45.1	-63.6	3.8	8.46e-01	0	57	104	0	61	30843
2026-01-28 16:40:51.36	157.98	22.87	-45.1	-63.5	3.8	8.46e-01	0	57	104	0	61	30689
2026-01-28 16:40:52.37	157.48	22.84	-45.1	-63.5	3.8	8.46e-01	0	57	104	0	61	30706
2026-01-28 16:40:53.38	156.97	22.81	-45.1	-63.5	3.8	8.45e-01	0	57	104	0	61	30614
2026-01-28 16:40:54.39	156.47	22.78	-45.1	-63.6	3.8	8.45e-01	0	57	104	0	61	30777
2026-01-28 16:40:55.40	155.97	22.75	-45.1	-63.5	3.8	8.46e-01	0	57	104	0	61	30718
2026-01-28 16:40:56.41	155.47	22.71	-45.1	-63.5	3.8	8.48e-01	0	57	104	0	61	30639
2026-01-28 16:40:57.42	154.98	22.67	-45.1	-63.5	3.8	8.48e-01	0	57	104	0	61	30612
2026-01-28 16:40:58.43	154.48	22.63	-45.1	-63.5	3.8	8.46e-01	0	57	104	0	61	30729
2026-01-28 16:40:59.44	153.99	22.59	-45.1	-63.5	3.8	8.45e-01	0	58	104	0	61	30688
2026-01-28 16:41:00.45	153.49	22.55	-45.1	-63.5	3.8	8.45e-01	0	57	104	0	61	30649
2026-01-28 16:41:01.46	153.00	22.50	-45.1	-63.5	3.8	8.46e-01	0	58	104	0	61	30569
2026-01-28 16:41:02.47	152.51	22.46	-45.1	-63.6	3.8	8.47e-01	0	57	104	0	61	30744
2026-01-28 16:41:03.47	152.03	22.41	-45.1	-63.5	3.8	8.47e-01	0	58	104	0	61	30647
2026-01-28 16:41:04.49	151.54	22.36	-45.1	-63.5	3.8	8.46e-01	0	57	104	0	61	30560
2026-01-28 16:41:05.50	151.06	22.30	-45.1	-63.5	3.8	8.45e-01	0	57	104	0	61	30674
2026-01-28 16:41:06.51	150.57	22.25	-45.1	-63.6	3.8	8.46e-01	0	57	104	0	61	30742
2026-01-28 16:41:07.52	150.09	22.19	-45.1	-63.5	3.8	8.46e-01	0	57	104	0	61	30467
2026-01-28 16:41:08.53	149.62	22.14	-45.1	-63.5	3.8	8.46e-01	0	57	104	0	61	30534
2026-01-28 16:41:09.54	149.14	22.08	-45.0	-63.5	3.8	8.45e-01	0	58	104	0	61	30530
2026-01-28 16:41:10.55	148.67	22.02	-45.1	-63.5	3.8	8.45e-01	0	58	104	0	61	30593
2026-01-28 16:41:11.55	148.20	21.96	-45.0	-63.5	3.8	8.46e-01	0	58	104	0	61	30482
2026-01-28 16:41:12.56	147.73	21.89	-45.0	-63.5	3.8	8.45e-01	0	58	104	0	61	30503
2026-01-28 16:41:13.58	147.26	21.83	-45.0	-63.5	3.8	8.45e-01	0	58	104	0	61	30405
2026-01-28 16:41:14.59	146.80	21.76	-45.0	-63.5	3.8	8.47e-01	0	58	104	0	61	30504
2026-01-28 16:41:15.60	146.33	21.69	-45.0	-63.4	3.8	8.47e-01	0	58	104	0	61	30301
2026-01-28 16:41:16.61	145.87	21.62	-45.0	-63.5	3.8	8.47e-01	0	58	104	0	61	30380
2026-01-28 16:41:17.62	145.42	21.55	-45.0	-63.4	3.8	8.45e-01	0	57	104	0	61	30345
2026-01-28 16:41:18.63	144.96	21.48	-45.0	-63.5	3.8	8.45e-01	0	58	104	0	61	30384
2026-01-28 16:41:19.64	144.51	21.41	-45.0	-63.4	3.8	8.47e-01	0	58	104	0	61	30203
2026-01-28 16:41:20.65	144.06	21.33	-45.0	-63.4	3.8	8.47e-01	0	58	104	0	61	30138
2026-01-28 16:41:21.66	143.62	21.25	-44.9	-63.4	3.8	8.47e-01	0	57	104	0	61	30189
2026-01-28 16:41:22.67	143.17	21.18	-45.0	-63.4	3.8	8.46e-01	0	58	104	0	61	30232
2026-01-28 16:41:23.68	142.73	21.10	-44.9	-63.3	3.8	8.46e-01	0	57	104	0	61	29953
2026-01-28 16:41:24.69	142.29	21.02	-44.9	-63.4	3.8	8.47e-01	0	58	104	0	61	30042
2026-01-28 16:41:25.70	141.86	20.94	-44.9	-63.3	3.8	8.46e-01	0	57	104	0	60	31574
2026-01-28 16:41:26.71	141.42	20.85	-44.9	-63.4	3.8	8.46e-01	0	57	104	0	60	31968
2026-01-28 16:41:27.72	140.99	20.77	-44.9	-63.3	3.8	8.47e-01	0	57	104	0	60	31705
2026-01-28 16:41:28.73	140.57	20.69	-44.8	-63.3	3.8	8.46e-01	0	58	104	0	60	31678
2026-01-28 16:41:29.74	140.14	20.60	-44.9	-63.3	3.8	8.46e-01	0	57	104	0	60	31754
2026-01-28 16:41:30.75	139.72	20.51	-43.7	-62.9	3.5	8.46e-01	0	58	104	0	58	33917
2026-01-28 16:41:31.76	139.30	20.43	-44.9	-63.5	3.8	8.46e-01	0	58	104	0	60	32234
2026-01-28 16:41:32.77	138.88	20.34	-44.8	-63.3	3.8	8.46e-01	0	58	104	0	60	31595
2026-01-28 16:41:33.78	138.47	20.25	-44.2	-62.5	3.9	8.46e-01	0	58	104	0	57	34282
2026-01-28 16:41:34.79	138.06	20.16	-44.8	-62.9	3.8	8.47e-01	0	57	104	0	59	32042
2026-01-28 16:41:35.80	137.65	20.07	-44.8	-63.0	3.8	8.46e-01	0	58	104	0	59	32300
2026-01-28 16:41:36.81	137.25	19.98	-44.7	-63.4	3.9	8.46e-01	0	58	104	0	60	32097
2026-01-28 16:41:37.82	136.85	19.88	-44.8	-63.3	3.8	8.45e-01	0	58	104	0	60	31642
2026-01-28 16:41:38.83	136.45	19.79	-44.5	-63.4	3.8	8.46e-01	0	58	104	0	60	31924
2026-01-28 16:41:39.84	136.05	19.70	-44.8	-63.3	3.8	8.46e-01	0	58	104	0	60	31809
2026-01-28 16:41:40.85	135.66	19.60	-44.8	-63.4	3.8	8.46e-01	0	58	104	0	60	31849
2026-01-28 16:41:41.86	135.27	19.51	-44.8	-63.3	3.8	8.46e-01	0	58	104	0	60	31645
2026-01-28 16:41:42.87	134.89	19.41	-44.6	-63.2	3.8	8.46e-01	0	58	104	0	60	31326
2026-01-28 16:41:43.88	134.50	19.32	-44.8	-62.8	3.7	8.46e-01	0	57	104	0	59	31665
2026-01-28 16:41:44.89	134.12	19.22	-44.9	-62.9	3.8	8.47e-01	0	58	104	0	59	31816
2026-01-28 16:41:45.90	133.74	19.12	-44.7	-63.3	3.8	8.46e-01	0	58	104	0	60	31675
2026-01-28 16:41:46.91	133.37	19.02	-44.8	-63.2	3.8	8.46e-01	0	58	104	0	60	31406
2026-01-28 16:41:47.92	133.00	18.92	-45.3	-63.4	3.8	8.46e-01	0	58	104	0	60	32048
2026-01-28 16:41:48.93	132.63	18.82	-44.7	-63.2	3.8	8.46e-01	0	58	104	0	60	31243
2026-01-28 16:41:49.94	132.26	18.72	-44.8	-63.2	3.8	8.46e-01	0	58	104	0	60	31181
2026-01-28 16:41:50.95	131.90	18.62	-44.8	-62.9	3.8	8.46e-01	0	58	104	0	59	32012
2026-01-28 16:41:51.96	131.54	18.52	-44.8	-63.2	3.8	8.46e-01	0	58	104	0	60	31387
2026-01-28 16:41:52.97	131.18	18.42	-44.7	-63.2	3.8	8.46e-01	0	58	104	0	60	31130
2026-01-28 16:41:53.99	130.83	18.32	-44.7	-63.2	3.8	8.45e-01	0	58	104	0	60	31135
2026-01-28 16:41:55.00	130.48	18.22	-44.6	-63.2	3.8	8.46e-01	0	58	104	0	60	31115
2026-01-28 16:41:56.00	130.13	18.12	-44.7	-63.2	3.8	8.47e-01	0	58	104	0	60	31261
2026-01-28 16:41:57.01	129.79	18.02	-44.6	-63.2	3.7	8.47e-01	0	57	104	0	60	31280
2026-01-28 16:41:58.02	129.44	17.91	-43.5	-62.8	3.8	8.45e-01	0	58	104	0	59	31682
2026-01-28 16:41:59.04	129.10	17.81	-44.7	-63.1	3.8	8.46e-01	0	57	104	0	60	31064
2026-01-28 16:42:00.05	128.76	17.71	-44.7	-63.1	3.8	8.46e-01	0	57	104	0	60	31057
2026-01-28 16:42:01.05	128.43	17.60	-44.6	-62.5	3.9	8.47e-01	0	58	104	0	56	36387
2026-01-28 16:42:02.07	128.10	17.50	-44.1	-63.2	3.8	8.47e-01	0	58	104	0	57	36990
2026-01-28 16:42:03.08	127.77	17.40	-43.1	-63.0	3.7	8.47e-01	0	58	104	0	59	32406
2026-01-28 16:42:04.09	127.44	17.29	-44.1	-61.9	3.9	8.47e-01	0	58	104	0	55	35976
2026-01-28 16:42:05.09	127.13	17.19	-38.7	-61.5	4.0	8.46e-01	0	58	104	0	50	45829
2026-01-28 16:42:06.10	126.81	17.08	-43.0	-61.3	3.6	8.46e-01	0	58	104	0	53	37747
2026-01-28 16:42:07.11	126.49	16.98	-44.4	-63.1	3.8	8.45e-01	0	58	104	0	58	34624
2026-01-28 16:42:08.12	126.17	16.88	-43.5	-62.7	3.8	8.46e-01	0	58	104	0	58	33084
2026-01-28 16:42:09.13	125.86	16.77	-43.9	-62.4	4.0	8.47e-01	0	58	104	0	55	37860
2026-01-28 16:42:10.14	125.55	16.67	-40.2	-62.8	3.8	8.47e-01	0	58	104	0	54	42230
2026-01-28 16:42:11.15	125.25	16.56	-41.4	-62.3	3.9	8.46e-01	0	58	104	0	54	39641
2026-01-28 16:42:12.16	124.94	16.46	-44.4	-63.0	3.9	8.45e-01	0	58	104	0	57	36171
2026-01-28 16:42:13.17	124.64	16.35	-37.4	-62.1	3.8	8.45e-01	0	58	104	0	52	43894
2026-01-28 16:42:14.18	124.34	16.25	-44.3	-63.3	3.6	8.46e-01	0	58	104	0	59	33541
2026-01-28 16:42:15.19	124.05	16.14	-41.8	-62.2	3.7	8.45e-01	0	58	104	0	53	41929
2026-01-28 16:42:16.20	123.76	16.04	-42.8	-63.0	3.9	8.45e-01	0	58	104	0	55	40890
2026-01-28 16:42:17.21	123.47	15.93	-28.7	-54.1	3.6	8.46e-01	0	58	104	0	29	65535
2026-01-28 16:42:18.22	123.18	15.83	-40.7	-61.5	3.6	8.24e-01	0	58	104	0	48	51133
2026-01-28 16:42:19.23	122.89	15.73	-41.5	-63.1	3.7	8.24e-01	0	58	104	0	52	48874
2026-01-28 16:42:20.24	122.61	15.62	-40.1	-61.9	3.9	8.44e-01	0	58	104	0	48	53895
2026-01-28 16:42:21.26	122.33	15.52	-39.4	-62.0	3.9	8.45e-01	0	58	104	0	48	54331
2026-01-28 16:42:22.27	122.05	15.41	-40.4	-61.4	3.8	8.46e-01	0	58	104	0	46	56758
2026-01-28 16:42:23.28	121.77	15.31	-42.7	-62.8	3.5	8.46e-01	0	58	104	0	55	39914
2026-01-28 16:42:24.29	121.50	15.20	-37.4	-62.0	3.6	8.46e-01	0	58	104	0	45	64455
2026-01-28 16:42:25.30	121.23	15.10	-43.1	-63.2	4.1	8.46e-01	0	58	104	0	55	41860
2026-01-28 16:42:26.31	120.96	15.00	-40.9	-62.4	3.7	8.46e-01	0	58	104	0	55	37887
2026-01-28 16:42:27.32	120.70	14.89	-42.1	-62.6	3.8	8.46e-01	0	58	104	0	55	38828
2026-01-28 16:42:28.33	120.43	14.79	-43.7	-62.2	3.9	8.45e-01	0	58	104	0	55	37047
2026-01-28 16:42:29.34	120.17	14.68	-43.2	-63.2	3.8	8.45e-01	0	58	104	0	58	34947
2026-01-28 16:42:30.35	119.91	14.58	-43.5	-62.8	3.6	8.45e-01	0	58	104	0	56	37701
2026-01-28 16:42:31.36	119.66	14.48	-37.8	-62.2	3.8	8.44e-01	0	58	104	0	52	44247
2026-01-28 16:42:32.37	119.40	14.38	-33.1	-59.1	3.1	8.44e-01	0	58	104	0	39	65535
2026-01-28 16:42:33.38	119.15	14.27	-31.5	-61.3	3.8	8.43e-01	0	58	104	0	51	42003
2026-01-28 16:42:34.39	118.90	14.17	-41.3	-62.0	3.5	8.45e-01	0	58	104	0	48	54341
2026-01-28 16:42:35.40	118.66	14.07	-40.8	-60.8	4.0	8.43e-01	0	58	104	0	47	50375
2026-01-28 16:42:36.41	118.41	13.97	-41.4	-62.1	3.8	8.43e-01	0	58	104	0	53	41397
2026-01-28 16:42:37.42	118.17	13.86	-40.2	-62.0	3.7	8.46e-01	0	58	104	0	51	45798
2026-01-28 16:42:38.43	117.93	13.76	-40.3	-62.8	3.6	8.45e-01	0	58	104	0	51	50051
2026-01-28 16:42:39.44	117.69	13.66	-43.7	-62.5	3.7	8.45e-01	0	58	104	0	57	34413
2026-01-28 16:42:40.45	117.45	13.56	-36.1	-60.1	3.8	8.46e-01	0	58	104	0	41	65535
2026-01-28 16:42:41.46	117.22	13.46	-38.7	-61.5	3.8	8.43e-01	0	58	104	0	47	54049
2026-01-28 16:42:42.47	116.98	13.36	-31.7	-54.6	3.7	8.43e-01	0	58	104	0	30	65534
2026-01-28 16:42:43.48	116.75	13.26	-35.8	-59.1	3.2	8.34e-01	0	58	104	0	39	65535
2026-01-28 16:42:44.49	116.53	13.16	-33.1	-56.6	4.2	8.32e-01	0	58	104	0	34	65535
2026-01-28 16:42:45.50	116.30	13.06	-32.5	-56.1	3.7	8.32e-01	0	58	104	0	33	65535
2026-01-28 16:42:46.51	116.08	12.96	-34.8	-59.1	3.2	8.33e-01	0	58	104	0	39	65535
2026-01-28 16:42:47.52	115.85	12.86	-29.7	-57.1	3.4	8.39e-01	0	58	104	0	35	65535
2026-01-28 16:42:48.52	115.64	12.76	-33.2	-55.6	4.0	8.34e-01	0	58	104	0	32	65535
2026-01-28 16:42:49.53	115.42	12.66	-15.3	-48.0	-2.6	8.34e-01	0	58	104	0	17	64660
2026-01-28 16:42:50.54	115.20	12.56	-28.3	-57.6	3.6	7.99e-01	0	58	104	0	36	65535
2026-01-28 16:42:51.55	114.99	12.46	-28.8	-54.1	3.6	7.94e-01	0	58	104	0	29	65524
2026-01-28 16:42:52.56	114.77	12.37	-32.3	-56.1	3.6	7.94e-01	0	58	104	0	33	65535
2026-01-28 16:42:53.57	114.56	12.27	-33.3	-57.6	3.5	8.28e-01	0	58	104	0	36	65535
2026-01-28 16:42:54.58	114.35	12.17	-28.8	-53.6	4.3	8.33e-01	0	58	104	0	28	65535
2026-01-28 16:42:55.59	114.15	12.07	-38.6	-61.4	4.1	8.33e-01	0	58	104	0	45	60237
2026-01-28 16:42:56.60	113.94	11.98	-36.8	-62.0	3.4	8.31e-01	0	58	104	0	45	64344
2026-01-28 16:42:57.61	113.74	11.88	-37.0	-60.8	3.9	8.44e-01	0	58	104	0	43	62749
2026-01-28 16:42:58.62	113.54	11.78	-35.8	-61.2	3.5	8.43e-01	0	58	104	0	44	62700
2026-01-28 16:42:59.63	113.34	11.69	-37.6	-61.4	4.0	8.43e-01	0	58	104	0	44	63814
2026-01-28 16:43:00.64	113.14	11.59	-27.1	-57.1	3.8	8.45e-01	0	58	104	0	36	61411
2026-01-28 16:43:01.66	112.94	11.50	-29.4	-54.1	3.5	8.43e-01	0	58	104	0	29	65535
2026-01-28 16:43:02.67	112.75	11.40	-22.7	-49.6	2.1	8.43e-01	0	58	104	0	20	65535
2026-01-28 16:43:03.68	112.55	11.31	-36.1	-60.6	3.4	8.05e-01	0	58	104	0	42	65534
2026-01-28 16:43:04.69	112.36	11.21	-23.8	-50.6	3.9	8.31e-01	0	58	104	0	22	65535
2026-01-28 16:43:05.70	112.17	11.12	-24.6	-53.6	3.7	8.31e-01	0	58	104	0	28	65535
2026-01-28 16:43:06.71	111.98	11.02	-20.4	-49.6	3.4	8.08e-01	0	58	104	0	20	65034
2026-01-28 16:43:07.72	111.80	10.93	-26.9	-51.6	3.5	8.09e-01	0	58	104	0	24	65535
2026-01-28 16:43:08.73	111.61	10.84	-31.4	-56.1	3.7	8.09e-01	0	58	104	0	33	65535
2026-01-28 16:43:09.74	111.43	10.74	-33.3	-57.6	3.5	8.23e-01	0	58	104	0	36	65535
2026-01-28 16:43:10.75	111.25	10.65	-35.7	-59.6	3.3	8.31e-01	0	58	104	0	40	65535
2026-01-28 16:43:11.76	111.07	10.56	-38.1	-60.6	3.3	8.26e-01	0	58	104	0	42	65534
2026-01-28 16:43:12.77	110.89	10.47	-31.9	-52.6	3.5	8.26e-01	0	58	104	0	26	65535
2026-01-28 16:43:13.78	110.71	10.37	-33.0	-56.1	3.8	8.15e-01	0	58	104	0	33	65535
2026-01-28 16:43:14.79	110.54	10.28	-35.6	-59.1	3.5	8.31e-01	0	58	104	0	39	65535
2026-01-28 16:43:15.80	110.36	10.19	-32.4	-55.6	4.4	8.31e-01	0	58	104	0	32	65535
2026-01-28 16:43:16.81	110.19	10.10	-31.0	-55.6	3.5	8.17e-01	0	58	104	0	32	65535
2026-01-28 16:43:17.82	110.02	10.01	-29.0	-55.1	3.0	7.88e-01	0	58	104	0	31	65535
2026-01-28 16:43:18.83	109.85	9.92	-21.4	-42.6	0.2	7.88e-01	0	58	104	0	6	65535
2026-01-28 16:43:19.84	109.68	9.83	-29.2	-56.6	1.7	7.79e-01	0	58	104	0	34	65363
2026-01-28 16:43:20.85	109.51	9.74	-30.7	-55.1	4.0	7.76e-01	0	58	104	0	31	65535
2026-01-28 16:43:21.86	109.35	9.65	-30.2	-57.1	3.3	7.76e-01	0	58	104	0	35	65535
2026-01-28 16:43:22.87	109.18	9.56	-31.7	-57.6	3.6	8.21e-01	0	58	104	0	36	65535
2026-01-28 16:43:23.88	109.02	9.47	-36.8	-61.4	3.8	8.28e-01	0	58	104	0	44	63670
2026-01-28 16:43:24.89	108.86	9.38	-37.9	-61.4	3.9	8.44e-01	0	58	104	0	46	56865
2026-01-28 16:43:25.90	108.70	9.30	-34.5	-62.1	3.7	8.44e-01	0	58	104	0	49	51978
2026-01-28 16:43:26.91	108.54	9.21	-41.2	-61.5	4.0	8.46e-01	0	58	104	0	51	43151
2026-01-28 16:43:27.92	108.38	9.12	-41.9	-61.4	3.8	8.45e-01	0	58	104	0	54	35853
2026-01-28 16:43:28.93	108.23	9.03	-37.6	-60.4	4.1	8.45e-01	0	58	104	0	50	40265
2026-01-28 16:43:29.94	108.07	8.95	-39.9	-60.7	3.7	8.46e-01	0	58	104	0	50	41501
2026-01-28 16:43:30.95	107.92	8.86	-42.0	-61.7	4.3	8.46e-01	0	58	104	0	54	37042
2026-01-28 16:43:31.95	107.77	8.77	-34.9	-59.2	3.5	8.46e-01	0	58	104	0	45	46874
2026-01-28 16:43:32.96	107.62	8.69	-40.6	-60.8	3.9	8.45e-01	0	58	104	0	51	40046
2026-01-28 16:43:33.97	107.47	8.60	-41.4	-59.8	3.8	8.46e-01	0	58	104	0	52	33611
2026-01-28 16:43:34.98	107.32	8.52	-43.3	-61.9	3.9	8.46e-01	0	58	104	0	57	32078
2026-01-28 16:43:35.99	107.17	8.43	-41.0	-59.6	4.2	8.47e-01	0	58	104	0	52	32784
2026-01-28 16:43:37.00	107.03	8.35	-40.6	-60.4	3.8	8.47e-01	0	58	104	0	53	33700
2026-01-28 16:43:38.01	106.88	8.26	-41.6	-60.5	3.8	8.46e-01	0	58	104	0	53	34256
2026-01-28 16:43:39.02	106.74	8.18	-40.4	-60.0	3.8	8.46e-01	0	58	104	0	52	34358
2026-01-28 16:43:40.03	106.59	8.09	-41.0	-59.7	3.7	8.45e-01	0	58	104	0	51	35038
2026-01-28 16:43:41.04	106.45	8.01	-39.1	-57.0	3.5	8.46e-01	0	58	104	0	43	40549
2026-01-28 16:43:42.05	106.31	7.93	-36.5	-57.6	4.3	8.46e-01	0	58	104	0	42	46375
2026-01-28 16:43:43.06	106.17	7.84	-43.8	-63.1	4.2	8.41e-01	0	58	104	0	58	34789
2026-01-28 16:43:44.07	106.03	7.76	-44.7	-63.2	3.8	8.43e-01	0	58	104	0	60	31278
2026-01-28 16:43:45.08	105.90	7.68	-44.9	-63.4	3.8	8.43e-01	0	58	104	0	60	31913
2026-01-28 16:43:46.09	105.76	7.60	-45.2	-63.6	3.8	8.45e-01	0	58	104	0	60	32805
2026-01-28 16:43:47.10	105.63	7.52	-45.3	-63.8	3.8	8.45e-01	0	58	104	0	61	31476
2026-01-28 16:43:48.11	105.49	7.43	-45.5	-63.9	3.8	8.45e-01	0	58	104	0	61	32031
2026-01-28 16:43:49.12	105.36	7.35	-45.6	-64.0	3.8	8.46e-01	0	58	104	0	61	32419
2026-01-28 16:43:50.13	105.23	7.27	-45.8	-64.3	3.8	8.46e-01	0	58	104	0	62	31672
2026-01-28 16:43:51.14	105.10	7.19	-45.7	-64.1	3.8	8.46e-01	0	58	104	0	62	30948
2026-01-28 16:43:52.16	104.97	7.11	-45.7	-64.1	3.8	8.46e-01	0	58	104	0	62	30800
2026-01-28 16:43:53.17	104.84	7.03	-45.6	-64.0	3.8	8.46e-01	0	58	104	0	62	30515
2026-01-28 16:43:54.17	104.71	6.95	-45.5	-63.9	3.8	8.46e-01	0	58	104	0	62	30180
2026-01-28 16:43:55.19	104.58	6.87	-45.4	-63.9	3.8	8.46e-01	0	58	104	0	62	30032
2026-01-28 16:43:56.20	104.46	6.79	-45.4	-63.8	3.8	8.45e-01	0	58	104	0	62	29917
2026-01-28 16:43:57.21	104.33	6.71	-45.4	-63.8	3.8	8.46e-01	0	58	104	0	62	29790
2026-01-28 16:43:58.22	104.21	6.63	-45.3	-63.7	3.8	8.46e-01	0	58	104	0	62	29508
2026-01-28 16:43:59.23	104.09	6.55	-45.2	-63.6	3.8	8.45e-01	0	58	104	0	61	30864
2026-01-28 16:44:00.24	103.96	6.48	-45.2	-63.6	3.8	8.47e-01	0	58	104	0	61	31077
2026-01-28 16:44:01.25	103.84	6.40	-45.2	-63.6	3.8	8.47e-01	0	58	104	0	61	30980
2026-01-28 16:44:02.26	103.72	6.32	-45.2	-63.6	3.8	8.47e-01	0	58	104	0	60	32833
2026-01-28 16:44:03.27	103.60	6.24	-45.2	-63.6	3.8	8.46e-01	0	58	104	0	60	32830
2026-01-28 16:44:04.28	103.49	6.17	-45.2	-63.6	3.8	8.46e-01	0	58	104	0	60	32887
2026-01-28 16:44:05.29	103.37	6.09	-45.2	-63.6	3.8	8.46e-01	0	58	104	0	60	32877
2026-01-28 16:44:06.30	103.25	6.01	-45.2	-63.6	3.8	8.46e-01	0	58	104	0	60	32797
2026-01-28 16:44:07.31	103.14	5.94	-45.2	-63.6	3.8	8.46e-01	0	58	104	0	60	32758
2026-01-28 16:44:08.31	103.02	5.86	-45.2	-63.6	3.8	8.46e-01	0	58	104	0	60	32821
2026-01-28 16:44:09.32	102.91	5.78	-45.2	-63.6	3.8	8.45e-01	0	58	104	0	60	32772
2026-01-28 16:44:10.34	102.79	5.71	-45.2	-63.6	3.8	8.46e-01	0	58	104	0	60	32690
2026-01-28 16:44:11.35	102.68	5.63	-45.2	-63.6	3.8	8.46e-01	0	58	104	0	60	32651
2026-01-28 16:44:12.36	102.57	5.56	-45.2	-63.6	3.8	8.45e-01	0	58	104	0	60	32739
2026-01-28 16:44:13.37	102.46	5.48	-45.2	-63.6	3.8	8.46e-01	0	58	104	0	60	32628
2026-01-28 16:44:14.38	102.35	5.41	-45.2	-63.6	3.8	8.45e-01	0	58	104	0	60	32712
2026-01-28 16:44:15.39	102.24	5.33	-45.1	-63.6	3.8	8.45e-01	0	58	104	0	60	32674
2026-01-28 16:44:16.40	102.13	5.26	-45.1	-63.6	3.8	8.46e-01	0	58	104	0	60	32654
2026-01-28 16:44:17.41	102.03	5.19	-45.0	-63.6	3.8	8.46e-01	0	58	104	0	60	32650
2026-01-28 16:44:18.42	101.92	5.11	-45.2	-63.7	3.9	8.46e-01	0	58	104	0	60	32996
2026-01-28 16:44:19.43	101.81	5.04	-45.2	-63.6	3.8	8.46e-01	0	58	104	0	60	32749
2026-01-28 16:44:20.44	101.71	4.97	-45.2	-63.6	3.8	8.47e-01	0	58	104	0	60	32861
2026-01-28 16:44:21.45	101.60	4.89	-45.2	-63.6	3.8	8.47e-01	0	58	104	0	60	32676
2026-01-28 16:44:22.46	101.50	4.82	-45.1	-63.6	3.8	8.46e-01	0	58	104	0	60	32643
2026-01-28 16:44:23.47	101.40	4.75	-45.2	-63.6	3.8	8.46e-01	0	58	104	0	60	32687
2026-01-28 16:44:24.48	101.30	4.68	-45.1	-63.6	3.8	8.46e-01	0	58	104	0	60	32720
2026-01-28 16:44:25.49	101.19	4.60	-45.2	-63.6	3.8	8.47e-01	0	58	104	0	60	32777
2026-01-28 16:44:26.50	101.09	4.53	-45.2	-63.6	3.8	8.46e-01	0	58	104	0	60	32722
2026-01-28 16:44:27.51	100.99	4.46	-45.2	-63.6	3.8	8.46e-01	0	58	104	0	60	32735
2026-01-28 16:44:28.52	100.90	4.39	-45.2	-63.6	3.8	8.46e-01	0	58	104	0	60	32627
2026-01-28 16:44:29.53	100.80	4.32	-45.2	-63.6	3.8	8.46e-01	0	58	104	0	60	32635
2026-01-28 16:44:30.54	100.70	4.25	-45.2	-63.6	3.8	8.45e-01	0	58	104	0	60	32706
2026-01-28 16:44:31.55	100.60	4.18	-45.2	-63.6	3.8	8.45e-01	0	58	104	0	60	32755
2026-01-28 16:44:32.57	100.50	4.10	-45.2	-63.6	3.8	8.45e-01	0	58	104	0	60	32622
2026-01-28 16:44:33.58	100.41	4.03	-45.2	-63.6	3.8	8.46e-01	0	58	104	0	60	32701
2026-01-28 16:44:34.59	100.31	3.96	-45.2	-63.6	3.8	8.46e-01	0	58	104	0	60	32709
2026-01-28 16:44:35.60	100.22	3.89	-45.1	-63.6	3.8	8.47e-01	0	58	104	0	60	32758
2026-01-28 16:44:36.61	100.13	3.83	-44.5	-63.6	3.8	8.47e-01	0	58	104	0	60	32774
2026-01-28 16:44:37.62	100.03	3.76	-45.2	-63.6	3.8	8.47e-01	0	58	104	0	60	32679
2026-01-28 16:44:38.63	99.94	3.69	-45.2	-63.6	3.8	8.48e-01	0	58	104	0	60	32700
2026-01-28 16:44:39.64	99.85	3.62	-45.2	-63.6	3.8	8.47e-01	0	58	104	0	60	32753
2026-01-28 16:44:40.65	99.76	3.55	-45.2	-63.6	3.8	8.46e-01	0	58	104	0	60	32710
2026-01-28 16:44:41.66	99.67	3.48	-45.1	-63.6	3.8	8.46e-01	0	58	104	0	60	32685
2026-01-28 16:44:42.67	99.58	3.41	-45.1	-63.6	3.8	8.46e-01	0	58	104	0	60	32690
2026-01-28 16:44:43.68	99.49	3.34	-45.2	-63.6	3.8	8.46e-01	0	58	104	0	60	32675
2026-01-28 16:44:44.69	99.40	3.28	-45.2	-63.6	3.8	8.46e-01	0	58	104	0	60	32568
2026-01-28 16:44:45.70	99.31	3.21	-45.1	-63.6	3.8	8.47e-01	0	58	104	0	60	32624
2026-01-28 16:44:46.72	99.22	3.14	-44.6	-63.6	3.8	8.46e-01	0	58	104	0	60	32620
2026-01-28 16:44:47.73	99.14	3.07	-45.1	-63.6	3.8	8.46e-01	0	58	104	0	60	32603
2026-01-28 16:44:48.74	99.05	3.01	-45.1	-63.6	3.8	8.46e-01	0	58	104	0	60	32667
2026-01-28 16:44:49.75	98.96	2.94	-45.1	-63.6	3.8	8.46e-01	0	58	104	0	60	32726
2026-01-28 16:44:50.76	98.88	2.87	-45.1	-63.6	3.8	8.46e-01	0	58	104	0	60	32739
2026-01-28 16:44:51.77	98.79	2.81	-45.1	-63.6	3.8	8.46e-01	0	58	104	0	60	32554
2026-01-28 16:44:52.78	98.71	2.74	-45.1	-63.6	3.8	8.45e-01	0	58	104	0	60	32741
2026-01-28 16:44:53.79	98.63	2.67	-45.0	-63.6	3.8	8.46e-01	0	58	104	0	60	32629
2026-01-28 16:44:54.80	98.54	2.61	-45.1	-63.6	3.8	8.46e-01	0	58	104	0	60	32617
2026-01-28 16:44:55.81	98.46	2.54	-45.1	-63.6	3.8	8.46e-01	0	58	104	0	60	32662
2026-01-28 16:44:56.82	98.38	2.48	-45.1	-63.6	3.8	8.47e-01	0	58	104	0	60	32695
2026-01-28 16:44:57.83	98.30	2.41	-45.1	-63.6	3.8	8.47e-01	0	58	104	0	60	32726
2026-01-28 16:44:58.84	98.22	2.35	-45.1	-63.6	3.8	8.48e-01	0	58	104	0	60	32560
2026-01-28 16:44:59.85	98.14	2.28	-45.1	-63.6	3.8	8.45e-01	0	58	104	0	60	32590
2026-01-28 16:45:00.86	98.06	2.22	-45.1	-63.6	3.8	8.45e-01	0	58	104	0	60	32641
2026-01-28 16:45:01.87	97.98	2.15	-45.1	-63.6	3.8	8.45e-01	0	58	104	0	60	32635
2026-01-28 16:45:02.88	97.90	2.09	-45.1	-63.6	3.8	8.46e-01	0	58	104	0	60	32650
2026-01-28 16:45:03.89	97.82	2.02	-45.1	-63.6	3.8	8.47e-01	0	58	104	0	60	32582
2026-01-28 16:45:04.90	97.75	1.96	-45.1	-63.6	3.8	8.47e-01	0	58	104	0	60	32553
2026-01-28 16:45:05.91	97.67	1.90	-45.1	-63.6	3.8	8.47e-01	0	58	104	0	60	32587

#Closed at: 2026-01-28 16:45:06
#Recorded file [0 MB]: D:/lorett/data/31039_260128_193613.dat