passes_logs/2026/01/28/R2.0S_Moscow/R2.0S_Moscow__20260128_234228_NOAA_21_JPSS-2_rec.log

#Pass ID: 20260128_234228_NOAA 21 (JPSS-2)
#Satellite: NOAA 21 (JPSS-2)
#Configuration: NOAA-21
#almurnet v.1.7.20251203
#Start time: 2026-01-28 23:42:28

#Version: 2.2.20231116
#Station: R2.0S_Moscow
#Location: 37.707566 lon 55.798166 lat
#TLE: 1 54234U 22150A   26027.77052245  .00000166  00000+0  99439-4 0  9997
#TLE: 2 54234  98.7510 328.5165 0000872 203.6403 156.4733 14.19540252166628

#Time	Az	El	Level	Level2	SNR	BER	BlckErr	Temp	State	Recorded	gain1	gain2
2026-01-28 23:42:28.01	15.97	1.98	-42.5	-54.9	3.8	1.49e+00	0	49	0	0	57	14269
2026-01-28 23:42:29.01	15.98	2.04	-42.5	-54.9	3.8	1.49e+00	0	49	104	0	56	15168
2026-01-28 23:42:30.02	15.98	2.11	-42.5	-54.9	3.8	1.49e+00	0	49	104	0	56	15122
2026-01-28 23:42:31.03	15.98	2.17	-42.5	-54.9	3.8	1.49e+00	0	49	104	0	56	15155
2026-01-28 23:42:32.04	15.98	2.24	-42.5	-54.9	3.8	1.49e+00	0	49	104	0	56	15137
2026-01-28 23:42:33.05	15.99	2.30	-42.5	-54.9	3.8	1.49e+00	0	50	104	0	56	15151
2026-01-28 23:42:34.06	15.99	2.37	-42.5	-54.9	3.8	1.49e+00	0	50	104	0	56	15104
2026-01-28 23:42:35.08	15.99	2.43	-42.5	-54.9	3.8	1.49e+00	0	50	104	0	56	15152
2026-01-28 23:42:36.09	15.99	2.50	-42.5	-54.9	3.8	1.49e+00	0	50	104	0	56	15147
2026-01-28 23:42:37.10	15.99	2.56	-42.5	-54.9	3.8	1.49e+00	0	50	104	0	56	15086
2026-01-28 23:42:38.11	16.00	2.63	-42.5	-54.9	3.8	1.49e+00	0	50	104	0	56	15123
2026-01-28 23:42:39.12	16.00	2.69	-42.5	-54.9	3.8	1.49e+00	0	50	104	0	56	15126
2026-01-28 23:42:40.13	16.00	2.76	-42.5	-54.9	3.8	1.49e+00	0	50	104	0	56	15089
2026-01-28 23:42:41.14	16.00	2.83	-42.5	-54.9	3.8	1.49e+00	0	50	104	0	56	15121
2026-01-28 23:42:42.15	16.01	2.89	-42.5	-54.9	3.8	1.49e+00	0	50	104	0	56	15096
2026-01-28 23:42:43.16	16.01	2.96	-42.5	-54.9	3.8	1.49e+00	0	51	104	0	56	15122
2026-01-28 23:42:44.17	16.01	3.03	-42.5	-54.9	3.8	1.49e+00	0	50	104	0	56	15081
2026-01-28 23:42:45.18	16.01	3.09	-42.5	-54.9	3.8	1.49e+00	0	51	104	0	56	15118
2026-01-28 23:42:46.19	16.01	3.16	-42.5	-54.9	3.8	1.49e+00	0	51	104	0	56	15094
2026-01-28 23:42:47.20	16.02	3.23	-42.5	-54.9	3.8	1.49e+00	0	51	104	0	56	15114
2026-01-28 23:42:48.21	16.02	3.29	-42.5	-54.9	3.8	1.49e+00	0	51	104	0	56	15092
2026-01-28 23:42:49.22	16.02	3.36	-42.5	-54.9	3.8	1.49e+00	0	51	104	0	56	15134
2026-01-28 23:42:50.23	16.02	3.43	-42.5	-54.9	3.8	1.49e+00	0	51	104	0	56	15125
2026-01-28 23:42:51.24	16.02	3.50	-42.5	-54.9	3.8	1.49e+00	0	51	104	0	56	15124
2026-01-28 23:42:52.25	16.03	3.57	-42.5	-54.9	3.8	1.49e+00	0	51	104	0	56	15092
2026-01-28 23:42:53.26	16.03	3.63	-42.5	-54.9	3.8	1.49e+00	0	51	104	0	56	15083
2026-01-28 23:42:54.28	16.03	3.70	-42.5	-54.9	3.8	1.49e+00	0	51	104	0	56	15104
2026-01-28 23:42:55.28	16.03	3.77	-42.5	-54.9	3.8	1.49e+00	0	51	104	0	56	15157
2026-01-28 23:42:56.30	16.03	3.84	-42.5	-54.9	3.8	1.49e+00	0	51	104	0	56	15052
2026-01-28 23:42:57.31	16.04	3.91	-42.5	-54.9	3.8	1.49e+00	0	51	104	0	56	15103
2026-01-28 23:42:58.32	16.04	3.98	-42.5	-54.9	3.8	1.49e+00	0	51	104	0	56	15121
2026-01-28 23:42:59.33	16.04	4.05	-42.5	-54.9	3.8	1.49e+00	0	52	104	0	56	15064
2026-01-28 23:43:00.34	16.04	4.12	-42.5	-54.9	3.8	1.49e+00	0	51	104	0	56	15096
2026-01-28 23:43:01.35	16.04	4.19	-42.5	-54.9	3.8	1.49e+00	0	51	104	0	56	15088
2026-01-28 23:43:02.36	16.05	4.25	-42.5	-54.9	3.8	1.49e+00	0	52	104	0	56	15071
2026-01-28 23:43:03.37	16.05	4.32	-42.5	-54.9	3.8	1.49e+00	0	52	104	0	56	15059
2026-01-28 23:43:04.38	16.05	4.39	-42.5	-54.9	3.8	1.49e+00	0	52	104	0	56	15093
2026-01-28 23:43:05.39	16.05	4.47	-42.5	-54.8	3.8	1.49e+00	0	52	104	0	56	15035
2026-01-28 23:43:06.40	16.05	4.54	-42.5	-54.9	3.8	1.49e+00	0	52	104	0	56	15097
2026-01-28 23:43:07.41	16.05	4.61	-42.5	-54.8	3.8	1.49e+00	0	52	104	0	56	14996
2026-01-28 23:43:08.42	16.06	4.68	-42.5	-54.9	3.8	1.49e+00	0	52	104	0	56	15088
2026-01-28 23:43:09.43	16.06	4.75	-42.5	-54.9	3.8	1.49e+00	0	52	104	0	56	15101
2026-01-28 23:43:10.44	16.06	4.82	-42.5	-54.9	3.8	1.49e+00	0	52	104	0	56	15072
2026-01-28 23:43:11.45	16.06	4.89	-42.5	-54.9	3.8	1.49e+00	0	52	104	0	56	15096
2026-01-28 23:43:12.46	16.06	4.96	-42.5	-54.9	3.8	1.49e+00	0	52	104	0	56	15067
2026-01-28 23:43:13.47	16.07	5.03	-42.5	-54.9	3.8	1.49e+00	0	52	104	0	56	15094
2026-01-28 23:43:14.48	16.07	5.11	-42.5	-54.9	3.8	1.49e+00	0	52	104	0	56	15065
2026-01-28 23:43:15.49	16.07	5.18	-42.5	-54.8	3.8	1.49e+00	0	52	104	0	56	15044
2026-01-28 23:43:16.50	16.07	5.25	-42.5	-54.8	3.8	1.49e+00	0	53	104	0	56	15025
2026-01-28 23:43:17.51	16.07	5.32	-42.5	-54.8	3.8	1.49e+00	0	52	104	0	56	14988
2026-01-28 23:43:18.52	16.07	5.40	-42.5	-54.8	3.8	1.49e+00	0	53	104	0	56	14972
2026-01-28 23:43:19.53	16.08	5.47	-42.5	-54.8	3.8	1.49e+00	0	53	104	0	56	14993
2026-01-28 23:43:20.54	16.08	5.54	-42.5	-54.8	3.8	1.49e+00	0	53	104	0	56	15014
2026-01-28 23:43:21.55	16.08	5.61	-42.5	-54.8	3.8	1.49e+00	0	53	104	0	56	15028
2026-01-28 23:43:22.56	16.08	5.69	-42.5	-54.8	3.8	1.49e+00	0	53	104	0	56	15019
2026-01-28 23:43:23.57	16.08	5.76	-42.5	-54.9	3.8	1.49e+00	0	53	104	0	56	15088
2026-01-28 23:43:24.59	16.08	5.84	-42.5	-54.8	3.8	1.49e+00	0	53	104	0	56	15042
2026-01-28 23:43:25.60	16.09	5.91	-42.5	-54.8	3.8	1.49e+00	0	53	104	0	56	15050
2026-01-28 23:43:26.61	16.09	5.99	-42.5	-54.9	3.8	1.49e+00	0	53	104	0	56	15068
2026-01-28 23:43:27.62	16.09	6.06	-42.5	-54.9	3.8	1.49e+00	0	53	104	0	56	15079
2026-01-28 23:43:28.63	16.09	6.14	-42.5	-54.9	3.8	1.49e+00	0	53	104	0	56	15086
2026-01-28 23:43:29.64	16.09	6.21	-42.5	-54.9	3.8	1.49e+00	0	53	104	0	56	15102
2026-01-28 23:43:30.65	16.09	6.29	-42.5	-54.9	3.8	1.49e+00	0	53	104	0	56	15072
2026-01-28 23:43:31.66	16.09	6.36	-42.5	-54.7	3.8	1.49e+00	0	53	104	0	56	14825
2026-01-28 23:43:32.67	16.10	6.44	-42.4	-54.6	3.8	1.49e+00	0	53	104	0	56	14619
2026-01-28 23:43:33.68	16.10	6.51	-42.4	-54.5	3.8	1.49e+00	0	53	104	0	56	14423
2026-01-28 23:43:34.69	16.10	6.59	-42.4	-54.4	3.8	1.49e+00	0	53	104	0	56	14252
2026-01-28 23:43:35.70	16.10	6.66	-42.4	-54.3	3.8	1.49e+00	0	53	104	0	56	14056
2026-01-28 23:43:36.71	16.10	6.74	-42.4	-54.0	3.8	1.49e+00	0	53	104	0	56	13683
2026-01-28 23:43:37.72	16.10	6.82	-42.4	-53.7	3.8	1.49e+00	0	54	104	0	56	13190
2026-01-28 23:43:38.73	16.10	6.90	-42.3	-53.2	3.8	1.49e+00	0	53	104	0	56	12501
2026-01-28 23:43:39.74	16.11	6.97	-42.2	-52.1	4.0	1.48e+00	0	54	104	0	56	11024
2026-01-28 23:43:40.75	16.11	7.05	-42.1	-51.8	3.9	1.45e+00	0	54	104	0	56	10644
2026-01-28 23:43:41.76	16.11	7.13	-41.8	-50.1	4.5	1.31e+00	3	54	104	0	55	9235
2026-01-28 23:43:42.77	16.11	7.21	-41.6	-48.9	5.1	1.16e+00	0	54	104	0	55	8036
2026-01-28 23:43:43.78	16.11	7.28	-41.3	-47.8	5.9	4.33e-01	0	54	0	2097152	54	7468
2026-01-28 23:43:44.79	16.11	7.36	-40.9	-46.4	7.0	2.11e-01	0	54	0	5242880	53	6747
2026-01-28 23:43:45.80	16.11	7.44	-40.5	-45.3	8.1	7.89e-02	0	54	0	8388608	53	5972
2026-01-28 23:43:46.81	16.12	7.52	-40.0	-44.2	9.2	2.85e-02	0	54	0	11534336	52	5549
2026-01-28 23:43:47.82	16.12	7.60	-39.7	-43.4	10.1	7.87e-03	0	54	0	14680064	51	5359
2026-01-28 23:43:48.83	16.12	7.68	-39.4	-42.8	10.8	2.62e-03	0	54	0	17825792	50	5287
2026-01-28 23:43:49.84	16.12	7.76	-39.2	-42.4	11.2	1.67e-03	0	54	0	20971520	50	5086
2026-01-28 23:43:50.85	16.12	7.84	-39.3	-42.6	11.0	1.88e-03	0	54	0	24117248	50	5166
2026-01-28 23:43:51.87	16.12	7.92	-39.7	-43.3	10.2	4.11e-03	0	54	0	27262976	50	5644
2026-01-28 23:43:52.88	16.12	8.00	-40.2	-44.4	9.1	1.42e-02	0	54	0	30408704	50	6381
2026-01-28 23:43:53.89	16.12	8.08	-41.3	-46.6	7.3	7.23e-02	0	54	0	33554432	53	6929
2026-01-28 23:43:54.90	16.13	8.16	-41.1	-45.2	9.3	1.81e-02	0	54	0	36700160	53	5887
2026-01-28 23:43:55.91	16.13	8.24	-41.4	-50.4	4.0	3.53e-02	2	54	104	39845888	53	10731
2026-01-28 23:43:56.92	16.13	8.32	-41.7	-47.6	6.6	2.65e-01	0	54	0	40894464	53	7744
2026-01-28 23:43:57.93	16.13	8.41	-40.4	-43.9	10.7	1.33e-03	0	54	0	44040192	51	5698
2026-01-28 23:43:58.94	16.13	8.49	-40.0	-43.2	11.4	1.32e-03	0	54	0	47185920	51	5223
2026-01-28 23:43:59.95	16.13	8.57	-40.0	-43.1	11.5	8.60e-04	0	54	0	50331648	51	5184
2026-01-28 23:44:00.96	16.13	8.65	-39.8	-42.8	11.7	5.80e-04	0	54	0	53477376	51	4994
2026-01-28 23:44:01.97	16.13	8.74	-39.9	-42.9	11.7	6.56e-04	0	54	0	56623104	51	5076
2026-01-28 23:44:02.98	16.13	8.82	-40.0	-43.0	11.7	5.74e-04	0	55	0	59768832	51	5112
2026-01-28 23:44:03.99	16.13	8.90	-39.9	-42.8	11.8	5.64e-04	0	54	0	62914560	51	5037
2026-01-28 23:44:05.00	16.14	8.99	-39.9	-42.8	11.9	3.26e-04	0	55	0	66060288	51	5013
2026-01-28 23:44:06.01	16.14	9.07	-39.7	-42.6	12.2	2.36e-04	0	55	0	69206016	51	4875
2026-01-28 23:44:07.02	16.14	9.15	-39.8	-42.7	12.2	2.33e-04	0	55	0	72351744	51	4934
2026-01-28 23:44:08.03	16.14	9.24	-39.8	-42.6	12.3	1.81e-04	0	55	0	75497472	51	4878
2026-01-28 23:44:09.04	16.14	9.32	-39.7	-42.4	12.4	1.30e-04	0	55	0	78643200	51	4802
2026-01-28 23:44:10.05	16.14	9.41	-39.8	-42.5	12.4	2.01e-04	0	55	0	81788928	51	4847
2026-01-28 23:44:11.06	16.14	9.49	-39.7	-42.4	12.5	1.04e-04	0	55	0	84934656	51	4814
2026-01-28 23:44:12.07	16.14	9.58	-39.7	-42.5	12.5	1.09e-04	0	55	0	88080384	51	4824
2026-01-28 23:44:13.08	16.14	9.67	-39.7	-42.3	12.7	9.84e-05	0	55	0	91226112	51	4737
2026-01-28 23:44:14.09	16.14	9.75	-39.8	-42.5	12.5	9.76e-05	0	55	0	94371840	51	4854
2026-01-28 23:44:15.10	16.14	9.84	-39.7	-42.3	12.8	7.40e-05	0	55	0	97517568	51	4710
2026-01-28 23:44:16.11	16.14	9.93	-39.8	-42.5	12.5	9.46e-05	0	55	0	100663296	51	4825
2026-01-28 23:44:17.12	16.15	10.01	-39.7	-42.3	12.8	6.71e-05	0	55	0	103809024	51	4725
2026-01-28 23:44:18.13	16.15	10.10	-39.8	-42.5	12.6	1.06e-04	0	55	0	106954752	51	4853
2026-01-28 23:44:19.14	16.15	10.19	-39.8	-42.5	12.6	7.55e-05	0	55	0	110100480	51	4837
2026-01-28 23:44:20.15	16.15	10.28	-39.6	-42.2	12.9	6.40e-05	0	55	0	113246208	51	4689
2026-01-28 23:44:21.16	16.15	10.37	-39.8	-42.4	12.7	1.04e-04	0	55	0	116391936	51	4784
2026-01-28 23:44:22.17	16.15	10.45	-39.8	-42.4	12.7	5.34e-05	0	55	0	119537664	51	4772
2026-01-28 23:44:23.18	16.15	10.54	-39.6	-42.1	13.0	5.03e-05	0	55	0	122683392	51	4633
2026-01-28 23:44:24.19	16.15	10.63	-39.7	-42.2	12.9	4.50e-05	0	55	0	125829120	51	4703
2026-01-28 23:44:25.20	16.15	10.72	-39.8	-42.4	12.8	4.50e-05	0	55	0	128974848	51	4797
2026-01-28 23:44:26.21	16.15	10.81	-39.8	-42.4	12.9	5.11e-05	0	55	0	132120576	51	4769
2026-01-28 23:44:27.22	16.15	10.90	-39.8	-42.4	12.8	4.34e-05	0	55	0	135266304	51	4770
2026-01-28 23:44:28.23	16.15	10.99	-39.7	-42.3	12.9	4.80e-05	0	55	0	138412032	51	4711
2026-01-28 23:44:29.24	16.15	11.09	-39.7	-42.2	13.0	4.95e-05	0	55	0	141557760	51	4680
2026-01-28 23:44:30.26	16.15	11.18	-39.7	-42.3	13.0	3.05e-05	0	55	0	144703488	51	4716
2026-01-28 23:44:31.27	16.15	11.27	-39.7	-42.2	13.1	2.28e-05	0	55	0	147849216	51	4652
2026-01-28 23:44:32.28	16.15	11.36	-39.7	-42.1	13.2	2.28e-05	0	55	0	150994944	51	4646
2026-01-28 23:44:33.29	16.15	11.45	-39.7	-42.2	13.1	3.12e-05	0	55	0	154140672	51	4671
2026-01-28 23:44:34.30	16.15	11.55	-39.6	-42.1	13.2	3.35e-05	0	55	0	157286400	51	4610
2026-01-28 23:44:35.31	16.15	11.64	-39.6	-42.0	13.3	1.52e-05	0	55	0	160432128	51	4575
2026-01-28 23:44:36.32	16.15	11.73	-39.5	-41.9	13.4	1.60e-05	0	56	0	163577856	51	4541
2026-01-28 23:44:37.33	16.15	11.83	-39.5	-41.9	13.4	1.83e-05	0	56	0	166723584	51	4530
2026-01-28 23:44:38.34	16.15	11.92	-39.5	-41.9	13.4	1.44e-05	0	55	0	169869312	50	4811
2026-01-28 23:44:39.35	16.15	12.02	-39.4	-41.8	13.5	1.14e-05	0	55	0	173015040	50	4739
2026-01-28 23:44:40.36	16.16	12.11	-39.5	-41.8	13.5	1.22e-05	0	56	0	176160768	50	4759
2026-01-28 23:44:41.37	16.16	12.21	-39.5	-41.9	13.5	6.80e-06	0	56	0	179306496	50	4763
2026-01-28 23:44:42.38	16.16	12.30	-39.6	-42.0	13.4	1.60e-05	0	56	0	182452224	50	4838
2026-01-28 23:44:43.39	16.16	12.40	-39.5	-41.9	13.5	9.10e-06	0	56	0	185597952	50	4766
2026-01-28 23:44:44.41	16.16	12.50	-39.6	-42.0	13.4	1.83e-05	0	56	0	188743680	50	4833
2026-01-28 23:44:45.42	16.16	12.59	-39.6	-42.0	13.4	2.28e-05	0	56	0	192937984	50	4851
2026-01-28 23:44:46.43	16.16	12.69	-39.6	-42.0	13.4	8.30e-06	0	56	0	195035136	50	4840
2026-01-28 23:44:47.44	16.16	12.79	-39.5	-41.9	13.5	1.22e-05	0	56	0	198180864	50	4772
2026-01-28 23:44:48.45	16.16	12.89	-39.4	-41.8	13.6	6.80e-06	0	56	0	201326592	50	4724
2026-01-28 23:44:49.46	16.16	12.98	-39.5	-41.9	13.5	8.30e-06	0	56	0	205520896	50	4807
2026-01-28 23:44:50.47	16.16	13.08	-39.4	-41.8	13.6	9.10e-06	0	56	0	208666624	50	4733
2026-01-28 23:44:51.48	16.16	13.18	-39.5	-41.8	13.6	1.44e-05	0	56	0	211812352	50	4750
2026-01-28 23:44:52.49	16.15	13.28	-39.5	-41.9	13.5	6.80e-06	0	56	0	214958080	50	4777
2026-01-28 23:44:53.50	16.15	13.38	-39.5	-41.9	13.6	1.14e-05	0	56	0	217055232	50	4764
2026-01-28 23:44:54.51	16.15	13.48	-39.5	-41.8	13.6	9.90e-06	0	56	0	221249536	50	4732
2026-01-28 23:44:55.52	16.15	13.58	-39.5	-41.8	13.6	1.06e-05	0	56	0	224395264	50	4743
2026-01-28 23:44:56.53	16.15	13.69	-39.5	-41.8	13.6	9.90e-06	0	56	0	227540992	50	4749
2026-01-28 23:44:57.54	16.15	13.79	-39.6	-42.0	13.5	1.14e-05	0	56	0	230686720	50	4817
2026-01-28 23:44:58.56	16.15	13.89	-39.5	-41.8	13.7	9.90e-06	0	56	0	233832448	50	4733
2026-01-28 23:44:59.57	16.15	13.99	-39.5	-41.8	13.7	4.50e-06	0	56	0	236978176	50	4729
2026-01-28 23:45:00.58	16.15	14.10	-39.5	-41.9	13.7	5.30e-06	0	56	0	240123904	50	4769
2026-01-28 23:45:01.59	16.15	14.20	-39.6	-41.9	13.7	4.50e-06	0	56	0	243269632	50	4777
2026-01-28 23:45:02.60	16.15	14.30	-39.5	-41.7	13.8	6.10e-06	0	56	0	246415360	50	4701
2026-01-28 23:45:03.61	16.15	14.41	-39.5	-41.8	13.8	3.80e-06	0	56	0	249561088	50	4740
2026-01-28 23:45:04.62	16.15	14.51	-39.5	-41.8	13.8	7.00e-07	0	56	0	252706816	50	4720
2026-01-28 23:45:05.63	16.15	14.62	-39.4	-41.7	13.9	3.00e-06	0	56	0	255852544	50	4680
2026-01-28 23:45:06.64	16.15	14.72	-39.4	-41.7	13.9	5.30e-06	0	56	0	258998272	50	4681
2026-01-28 23:45:07.65	16.15	14.83	-39.4	-41.6	14.0	3.00e-06	0	56	0	262144000	50	4617
2026-01-28 23:45:08.66	16.15	14.94	-39.4	-41.6	14.0	3.80e-06	0	56	0	265289728	50	4631
2026-01-28 23:45:09.67	16.15	15.04	-39.4	-41.6	14.0	5.30e-06	0	56	0	268435456	50	4633
2026-01-28 23:45:10.68	16.15	15.15	-39.4	-41.6	14.0	7.00e-07	0	56	0	271581184	50	4610
2026-01-28 23:45:11.69	16.15	15.26	-39.4	-41.6	14.0	5.30e-06	0	56	0	274726912	50	4649
2026-01-28 23:45:12.70	16.14	15.37	-39.4	-41.6	14.0	7.00e-07	0	56	0	277872640	50	4643
2026-01-28 23:45:13.72	16.14	15.48	-39.5	-41.7	13.9	1.50e-06	0	56	0	281018368	50	4698
2026-01-28 23:45:14.73	16.14	15.59	-39.4	-41.6	14.0	2.20e-06	0	56	0	284164096	50	4649
2026-01-28 23:45:15.74	16.14	15.70	-39.4	-41.7	13.9	3.00e-06	0	56	0	287309824	50	4658
2026-01-28 23:45:16.75	16.14	15.81	-39.5	-41.7	13.9	2.20e-06	0	56	0	290455552	50	4688
2026-01-28 23:45:17.76	16.14	15.92	-39.4	-41.7	13.9	3.80e-06	0	56	0	293601280	50	4686
2026-01-28 23:45:18.77	16.14	16.03	-39.5	-41.8	13.8	4.50e-06	0	56	0	296747008	50	4709
2026-01-28 23:45:19.78	16.14	16.14	-39.5	-41.7	13.9	3.80e-06	0	56	0	299892736	50	4689
2026-01-28 23:45:20.79	16.14	16.26	-39.5	-41.7	13.9	5.30e-06	0	56	0	303038464	50	4689
2026-01-28 23:45:21.80	16.14	16.37	-39.5	-41.8	13.9	4.50e-06	0	56	0	306184192	50	4722
2026-01-28 23:45:22.82	16.13	16.48	-39.5	-41.8	13.8	2.20e-06	0	57	0	309329920	50	4719
2026-01-28 23:45:23.83	16.13	16.60	-39.5	-41.7	13.9	4.50e-06	0	56	0	312475648	50	4689
2026-01-28 23:45:24.84	16.13	16.71	-39.5	-41.7	13.9	2.20e-06	0	57	0	315621376	50	4689
2026-01-28 23:45:25.85	16.13	16.83	-39.5	-41.7	13.9	7.60e-06	0	56	0	318767104	50	4699
2026-01-28 23:45:26.86	16.13	16.94	-39.5	-41.7	13.9	1.50e-06	0	56	0	321912832	50	4704
2026-01-28 23:45:27.87	16.13	17.06	-39.5	-41.7	14.0	3.00e-06	0	56	0	325058560	50	4703
2026-01-28 23:45:28.88	16.13	17.18	-39.5	-41.7	14.0	1.50e-06	0	57	0	328204288	50	4698
2026-01-28 23:45:29.89	16.13	17.30	-39.6	-41.8	13.9	3.00e-06	0	57	0	331350016	50	4742
2026-01-28 23:45:30.90	16.12	17.41	-39.6	-41.8	14.0	3.00e-06	0	57	0	334495744	50	4731
2026-01-28 23:45:31.91	16.12	17.53	-39.5	-41.7	14.1	2.20e-06	0	57	0	337641472	50	4673
2026-01-28 23:45:32.92	16.12	17.65	-39.4	-41.6	14.2	0.00e+00	0	57	0	340787200	50	4635
2026-01-28 23:45:33.93	16.12	17.77	-39.4	-41.6	14.2	1.50e-06	0	57	0	343932928	50	4635
2026-01-28 23:45:34.94	16.12	17.89	-39.4	-41.6	14.1	7.00e-07	0	57	0	347078656	50	4638
2026-01-28 23:45:35.95	16.12	18.01	-39.5	-41.7	14.1	1.50e-06	0	57	0	350224384	50	4681
2026-01-28 23:45:36.96	16.11	18.13	-39.5	-41.7	14.1	0.00e+00	0	57	0	353370112	50	4666
2026-01-28 23:45:37.97	16.11	18.26	-39.5	-41.7	14.1	1.50e-06	0	57	0	356515840	50	4673
2026-01-28 23:45:38.98	16.11	18.38	-39.5	-41.7	14.1	1.50e-06	0	57	0	359661568	50	4678
2026-01-28 23:45:40.00	16.11	18.50	-39.5	-41.6	14.2	2.20e-06	0	57	0	362807296	50	4640
2026-01-28 23:45:41.01	16.11	18.63	-39.4	-41.6	14.2	1.50e-06	0	57	0	365953024	50	4633
2026-01-28 23:45:42.02	16.10	18.75	-39.5	-41.6	14.2	7.00e-07	0	57	0	369098752	50	4641
2026-01-28 23:45:43.03	16.10	18.88	-39.4	-41.6	14.2	1.50e-06	0	57	0	372244480	50	4618
2026-01-28 23:45:44.04	16.10	19.00	-39.5	-41.6	14.2	1.50e-06	0	57	0	375390208	50	4641
2026-01-28 23:45:45.04	16.10	19.13	-39.5	-41.6	14.2	7.00e-07	0	57	0	378535936	50	4634
2026-01-28 23:45:46.05	16.09	19.26	-39.4	-41.6	14.2	7.00e-07	0	57	0	381681664	50	4629
2026-01-28 23:45:47.06	16.09	19.39	-39.4	-41.6	14.3	7.00e-07	0	57	0	384827392	50	4609
2026-01-28 23:45:48.07	16.09	19.51	-39.4	-41.5	14.4	1.50e-06	0	57	0	387973120	50	4589
2026-01-28 23:45:49.08	16.09	19.64	-39.4	-41.5	14.3	7.00e-07	0	57	0	391118848	50	4598
2026-01-28 23:45:50.09	16.09	19.77	-39.3	-41.4	14.4	1.50e-06	0	57	0	394264576	50	4536
2026-01-28 23:45:51.10	16.08	19.90	-39.3	-41.3	14.5	0.00e+00	0	57	0	397410304	50	4491
2026-01-28 23:45:52.12	16.08	20.04	-39.2	-41.3	14.6	7.00e-07	0	57	0	400556032	50	4473
2026-01-28 23:45:53.12	16.08	20.17	-39.2	-41.3	14.6	0.00e+00	0	57	0	403701760	50	4469
2026-01-28 23:45:54.14	16.07	20.30	-39.2	-41.2	14.6	0.00e+00	0	57	0	406847488	50	4441
2026-01-28 23:45:55.15	16.07	20.44	-39.2	-41.2	14.7	0.00e+00	0	57	0	409993216	50	4427
2026-01-28 23:45:56.16	16.07	20.57	-39.1	-41.1	14.8	0.00e+00	0	57	0	413138944	50	4367
2026-01-28 23:45:57.17	16.07	20.70	-39.0	-41.0	14.9	0.00e+00	0	57	0	416284672	50	4320
2026-01-28 23:45:58.18	16.06	20.84	-39.0	-41.0	14.9	0.00e+00	0	57	0	419430400	50	4316
2026-01-28 23:45:59.19	16.06	20.98	-38.9	-40.9	15.0	7.00e-07	0	57	0	422576128	49	4511
2026-01-28 23:46:00.20	16.06	21.11	-38.8	-40.8	15.2	0.00e+00	0	57	0	425721856	49	4451
2026-01-28 23:46:01.21	16.05	21.25	-38.8	-40.7	15.2	0.00e+00	0	57	0	428867584	49	4416
2026-01-28 23:46:02.22	16.05	21.39	-38.8	-40.7	15.2	0.00e+00	0	57	0	432013312	49	4421
2026-01-28 23:46:03.23	16.05	21.53	-38.9	-40.8	15.1	0.00e+00	0	57	0	435159040	49	4466
2026-01-28 23:46:04.24	16.04	21.67	-38.8	-40.6	15.3	0.00e+00	0	57	0	438304768	49	4391
2026-01-28 23:46:05.25	16.04	21.81	-38.6	-40.4	15.5	0.00e+00	0	57	0	441450496	49	4280
2026-01-28 23:46:06.26	16.04	21.95	-38.5	-40.3	15.6	0.00e+00	0	57	0	444596224	49	4216
2026-01-28 23:46:07.27	16.03	22.10	-38.5	-40.3	15.7	0.00e+00	0	57	0	447741952	48	4461
2026-01-28 23:46:08.28	16.03	22.24	-38.5	-40.3	15.6	0.00e+00	0	57	0	450887680	48	4466
2026-01-28 23:46:09.29	16.03	22.38	-38.6	-40.4	15.5	0.00e+00	0	57	0	454033408	48	4513
2026-01-28 23:46:10.30	16.02	22.53	-38.4	-40.2	15.8	0.00e+00	0	57	0	457179136	48	4411
2026-01-28 23:46:11.31	16.02	22.67	-38.4	-40.1	15.8	0.00e+00	0	57	0	461373440	48	4390
2026-01-28 23:46:12.32	16.02	22.82	-38.3	-40.1	15.9	0.00e+00	0	57	0	463470592	48	4344
2026-01-28 23:46:13.33	16.01	22.97	-38.3	-40.0	15.9	0.00e+00	0	57	0	466616320	48	4319
2026-01-28 23:46:14.34	16.01	23.12	-38.2	-39.9	16.1	0.00e+00	0	57	0	469762048	48	4249
2026-01-28 23:46:15.35	16.00	23.27	-38.2	-39.9	16.1	0.00e+00	0	57	0	472907776	48	4271
2026-01-28 23:46:16.36	16.00	23.42	-38.2	-40.0	16.0	0.00e+00	0	57	0	477102080	48	4292
2026-01-28 23:46:17.37	16.00	23.57	-38.3	-40.0	15.9	0.00e+00	0	57	0	480247808	48	4338
2026-01-28 23:46:18.38	15.99	23.72	-38.3	-40.0	16.0	0.00e+00	0	57	0	483393536	48	4318
2026-01-28 23:46:19.39	15.99	23.87	-38.4	-40.1	15.8	0.00e+00	0	57	0	486539264	48	4382
2026-01-28 23:46:20.40	15.98	24.03	-38.2	-40.0	16.0	0.00e+00	0	57	0	488636416	48	4301
2026-01-28 23:46:21.41	15.98	24.18	-38.3	-40.0	16.0	0.00e+00	0	57	0	492830720	48	4309
2026-01-28 23:46:22.42	15.97	24.34	-38.3	-40.1	15.9	0.00e+00	0	57	0	495976448	48	4358
2026-01-28 23:46:23.43	15.97	24.49	-38.4	-40.1	15.9	0.00e+00	0	57	0	499122176	48	4371
2026-01-28 23:46:24.44	15.96	24.65	-38.3	-40.0	15.9	0.00e+00	0	57	0	502267904	48	4330
2026-01-28 23:46:25.45	15.96	24.81	-38.4	-40.2	15.8	0.00e+00	0	57	0	505413632	48	4397
2026-01-28 23:46:26.46	15.95	24.97	-38.4	-40.1	15.8	0.00e+00	0	57	0	508559360	48	4384
2026-01-28 23:46:27.47	15.95	25.13	-38.4	-40.2	15.8	0.00e+00	0	57	0	511705088	48	4419
2026-01-28 23:46:28.48	15.94	25.29	-38.4	-40.1	15.8	0.00e+00	0	57	0	514850816	48	4384
2026-01-28 23:46:29.49	15.94	25.45	-38.5	-40.3	15.8	0.00e+00	0	57	0	517996544	48	4444
2026-01-28 23:46:30.50	15.93	25.61	-38.5	-40.3	15.7	0.00e+00	0	57	0	521142272	48	4453
2026-01-28 23:46:31.51	15.93	25.78	-38.5	-40.3	15.7	0.00e+00	0	57	0	524288000	48	4474
2026-01-28 23:46:32.52	15.92	25.94	-38.6	-40.5	15.6	0.00e+00	0	57	0	527433728	48	4554
2026-01-28 23:46:33.53	15.92	26.11	-38.7	-40.6	15.5	0.00e+00	0	57	0	530579456	48	4611
2026-01-28 23:46:34.54	15.91	26.28	-38.7	-40.6	15.4	0.00e+00	0	57	0	533725184	48	4614
2026-01-28 23:46:35.54	15.90	26.44	-38.9	-40.8	15.2	0.00e+00	0	57	0	536870912	48	4743
2026-01-28 23:46:36.55	15.90	26.61	-38.9	-40.8	15.3	0.00e+00	0	57	0	540016640	48	4710
2026-01-28 23:46:37.56	15.89	26.78	-39.0	-41.0	15.1	0.00e+00	0	57	0	543162368	48	4816
2026-01-28 23:46:38.57	15.89	26.96	-39.1	-41.0	15.0	0.00e+00	0	58	0	546308096	48	4844
2026-01-28 23:46:39.58	15.88	27.13	-39.1	-41.1	14.9	0.00e+00	0	58	0	549453824	48	4913
2026-01-28 23:46:40.59	15.87	27.30	-39.2	-41.2	14.8	7.00e-07	0	57	0	552599552	49	4705
2026-01-28 23:46:41.60	15.87	27.48	-39.4	-41.4	14.6	0.00e+00	0	57	0	555745280	49	4811
2026-01-28 23:46:42.61	15.86	27.65	-39.4	-41.5	14.5	7.00e-07	0	57	0	558891008	49	4858
2026-01-28 23:46:43.62	15.85	27.83	-39.6	-41.7	14.3	0.00e+00	0	58	0	562036736	49	4953
2026-01-28 23:46:44.64	15.85	28.01	-39.5	-41.6	14.5	7.00e-07	0	57	0	565182464	49	4895
2026-01-28 23:46:45.65	15.84	28.19	-39.6	-41.7	14.4	7.00e-07	0	57	0	568328192	49	4963
2026-01-28 23:46:46.66	15.83	28.37	-39.6	-41.7	14.4	0.00e+00	0	57	0	571473920	49	4941
2026-01-28 23:46:47.67	15.82	28.55	-39.6	-41.7	14.3	7.00e-07	0	57	0	574619648	49	4965
2026-01-28 23:46:48.68	15.82	28.74	-39.6	-41.7	14.4	7.00e-07	0	57	0	577765376	49	4959
2026-01-28 23:46:49.69	15.81	28.92	-39.7	-41.9	14.2	1.50e-06	0	58	0	580911104	49	5043
2026-01-28 23:46:50.70	15.80	29.11	-39.6	-41.7	14.3	1.50e-06	0	57	0	584056832	49	4973
2026-01-28 23:46:51.71	15.79	29.29	-39.7	-41.9	14.2	7.00e-07	0	57	0	587202560	50	4786
2026-01-28 23:46:52.72	15.79	29.48	-39.5	-41.6	14.5	7.00e-07	0	57	0	590348288	50	4649
2026-01-28 23:46:53.73	15.78	29.67	-39.5	-41.6	14.5	0.00e+00	0	57	0	593494016	50	4619
2026-01-28 23:46:54.74	15.77	29.86	-39.4	-41.5	14.6	0.00e+00	0	57	0	596639744	50	4559
2026-01-28 23:46:55.75	15.76	30.05	-39.3	-41.4	14.8	0.00e+00	0	58	0	599785472	50	4500
2026-01-28 23:46:56.76	15.75	30.25	-39.2	-41.2	14.9	0.00e+00	0	58	0	602931200	50	4423
2026-01-28 23:46:57.77	15.74	30.44	-39.2	-41.2	14.9	0.00e+00	0	58	0	606076928	50	4429
2026-01-28 23:46:58.78	15.74	30.64	-39.1	-41.0	15.1	0.00e+00	0	58	0	609222656	50	4315
2026-01-28 23:46:59.79	15.73	30.83	-39.0	-40.9	15.2	0.00e+00	0	58	0	612368384	50	4290
2026-01-28 23:47:00.80	15.72	31.03	-38.8	-40.6	15.5	0.00e+00	0	58	0	615514112	49	4377
2026-01-28 23:47:01.81	15.71	31.23	-38.7	-40.6	15.5	0.00e+00	0	58	0	618659840	49	4352
2026-01-28 23:47:02.82	15.70	31.43	-38.7	-40.5	15.6	0.00e+00	0	58	0	621805568	49	4307
2026-01-28 23:47:03.83	15.69	31.63	-38.6	-40.4	15.7	0.00e+00	0	58	0	624951296	49	4284
2026-01-28 23:47:04.84	15.68	31.84	-38.7	-40.4	15.7	0.00e+00	0	58	0	628097024	49	4290
2026-01-28 23:47:05.85	15.67	32.04	-38.7	-40.6	15.6	0.00e+00	0	57	0	631242752	49	4346
2026-01-28 23:47:06.86	15.66	32.25	-38.8	-40.7	15.5	0.00e+00	0	57	0	634388480	49	4404
2026-01-28 23:47:07.87	15.65	32.46	-38.9	-40.8	15.3	0.00e+00	0	58	0	637534208	49	4485
2026-01-28 23:47:08.88	15.64	32.67	-39.0	-40.9	15.3	0.00e+00	0	58	0	640679936	49	4495
2026-01-28 23:47:09.89	15.63	32.88	-39.1	-41.1	15.0	0.00e+00	0	58	0	643825664	49	4618
2026-01-28 23:47:10.90	15.62	33.09	-39.3	-41.3	14.8	0.00e+00	0	58	0	646971392	49	4737
2026-01-28 23:47:11.91	15.61	33.31	-39.4	-41.4	14.7	0.00e+00	0	58	0	650117120	49	4790
2026-01-28 23:47:12.92	15.60	33.52	-39.5	-41.6	14.5	0.00e+00	0	58	0	653262848	49	4879
2026-01-28 23:47:13.94	15.58	33.74	-39.7	-41.8	14.3	7.00e-07	0	58	0	656408576	49	5030
2026-01-28 23:47:14.95	15.57	33.96	-39.8	-42.0	14.1	1.50e-06	0	58	0	659554304	50	4845
2026-01-28 23:47:15.96	15.56	34.18	-40.0	-42.2	13.9	4.50e-06	0	58	0	662700032	50	4979
2026-01-28 23:47:16.97	15.55	34.40	-40.0	-42.2	14.0	2.20e-06	0	58	0	665845760	50	4955
2026-01-28 23:47:17.98	15.54	34.63	-40.1	-42.5	13.7	2.20e-06	0	58	0	668991488	50	5111
2026-01-28 23:47:18.99	15.52	34.85	-40.3	-42.7	13.4	6.80e-06	0	58	0	672137216	51	4968
2026-01-28 23:47:20.00	15.51	35.08	-40.4	-42.9	13.2	1.37e-05	0	58	0	675282944	51	5072
2026-01-28 23:47:21.01	15.50	35.31	-40.6	-43.1	13.0	2.97e-05	0	58	0	678428672	51	5208
2026-01-28 23:47:22.02	15.48	35.54	-40.7	-43.3	12.8	6.02e-05	0	58	0	681574400	52	5030
2026-01-28 23:47:23.03	15.47	35.77	-40.8	-43.6	12.5	1.11e-04	0	58	0	684720128	52	5199
2026-01-28 23:47:24.04	15.46	36.00	-40.9	-43.6	12.5	1.30e-04	0	58	0	687865856	52	5197
2026-01-28 23:47:25.05	15.44	36.24	-40.8	-43.4	12.6	9.38e-05	0	58	0	691011584	52	5098
2026-01-28 23:47:26.06	15.43	36.48	-40.8	-43.5	12.5	1.14e-04	0	58	0	694157312	52	5132
2026-01-28 23:47:27.07	15.41	36.72	-40.7	-43.4	12.7	1.14e-04	0	58	0	697303040	52	5052
2026-01-28 23:47:28.08	15.40	36.96	-40.7	-43.3	12.7	7.47e-05	0	58	0	700448768	52	5025
2026-01-28 23:47:29.09	15.38	37.20	-40.6	-43.2	12.9	5.79e-05	0	58	0	703594496	52	4946
2026-01-28 23:47:30.10	15.37	37.44	-40.5	-43.0	13.1	3.81e-05	0	58	0	706740224	52	4867
2026-01-28 23:47:31.11	15.35	37.69	-40.5	-43.0	13.1	1.98e-05	0	58	0	709885952	52	4827
2026-01-28 23:47:32.12	15.34	37.94	-40.3	-42.7	13.4	2.05e-05	0	58	0	713031680	52	4680
2026-01-28 23:47:33.13	15.32	38.19	-40.3	-42.6	13.5	1.14e-05	0	58	0	716177408	52	4637
2026-01-28 23:47:34.14	15.31	38.44	-40.3	-42.7	13.4	1.75e-05	0	58	0	719323136	52	4659
2026-01-28 23:47:35.15	15.29	38.69	-40.3	-42.6	13.5	1.60e-05	0	58	0	722468864	52	4647
2026-01-28 23:47:36.16	15.27	38.95	-40.2	-42.6	13.5	1.06e-05	0	58	0	725614592	52	4618
2026-01-28 23:47:37.17	15.25	39.20	-40.2	-42.6	13.5	9.10e-06	0	58	0	728760320	52	4617
2026-01-28 23:47:38.18	15.24	39.46	-40.2	-42.5	13.6	1.52e-05	0	58	0	731906048	52	4594
2026-01-28 23:47:39.19	15.22	39.72	-40.1	-42.4	13.7	5.30e-06	0	58	0	735051776	52	4534
2026-01-28 23:47:40.20	15.20	39.99	-40.1	-42.5	13.6	9.10e-06	0	58	0	738197504	52	4561
2026-01-28 23:47:41.21	15.18	40.25	-40.1	-42.4	13.7	5.30e-06	0	58	0	741343232	52	4517
2026-01-28 23:47:42.23	15.16	40.52	-40.1	-42.4	13.7	3.80e-06	0	58	0	744488960	52	4513
2026-01-28 23:47:43.24	15.14	40.79	-40.2	-42.5	13.6	4.50e-06	0	58	0	747634688	52	4581
2026-01-28 23:47:44.25	15.12	41.06	-40.2	-42.6	13.6	6.80e-06	0	58	0	750780416	52	4599
2026-01-28 23:47:45.26	15.10	41.33	-40.2	-42.6	13.6	9.10e-06	0	58	0	753926144	52	4621
2026-01-28 23:47:46.27	15.08	41.61	-40.4	-42.8	13.3	1.37e-05	0	58	0	757071872	52	4737
2026-01-28 23:47:47.28	15.06	41.89	-40.6	-43.1	13.0	3.43e-05	0	58	0	760217600	52	4896
2026-01-28 23:47:48.29	15.04	42.17	-40.7	-43.4	12.7	7.47e-05	0	58	0	763363328	52	5053
2026-01-28 23:47:49.30	15.02	42.45	-40.8	-43.4	12.7	6.79e-05	0	58	0	766509056	52	5075
2026-01-28 23:47:50.31	14.99	42.73	-40.9	-43.6	12.5	1.05e-04	0	58	0	770703360	52	5192
2026-01-28 23:47:51.32	14.97	43.02	-41.0	-43.7	12.4	1.24e-04	0	58	0	773849088	52	5249
2026-01-28 23:47:52.33	14.95	43.31	-40.9	-43.6	12.5	9.53e-05	0	58	0	776994816	52	5180
2026-01-28 23:47:53.34	14.92	43.60	-40.9	-43.5	12.6	8.85e-05	0	58	0	780140544	52	5153
2026-01-28 23:47:54.36	14.90	43.89	-41.0	-43.7	12.4	1.33e-04	0	58	0	782237696	52	5265
2026-01-28 23:47:55.37	14.87	44.19	-41.2	-44.0	12.1	2.27e-04	0	58	0	786432000	52	5456
2026-01-28 23:47:56.38	14.85	44.48	-41.3	-44.2	11.9	3.93e-04	0	58	0	789577728	53	5264
2026-01-28 23:47:57.39	14.82	44.78	-41.3	-44.3	11.8	3.32e-04	0	58	0	792723456	53	5311
2026-01-28 23:47:58.40	14.79	45.08	-41.3	-44.3	11.8	4.39e-04	0	58	0	795869184	53	5291
2026-01-28 23:47:59.41	14.77	45.39	-41.4	-44.4	11.7	5.39e-04	0	58	0	799014912	53	5362
2026-01-28 23:48:00.42	14.74	45.69	-41.3	-44.3	11.8	4.14e-04	0	58	0	802160640	53	5316
2026-01-28 23:48:01.43	14.71	46.00	-41.2	-44.1	12.0	3.02e-04	0	58	0	805306368	53	5214
2026-01-28 23:48:02.44	14.68	46.31	-41.2	-44.1	12.1	3.36e-04	0	58	0	808452096	53	5165
2026-01-28 23:48:03.45	14.65	46.63	-41.2	-44.0	12.1	3.10e-04	0	58	0	811597824	53	5134
2026-01-28 23:48:04.46	14.62	46.94	-40.9	-43.6	12.5	1.59e-04	0	58	0	814743552	53	4884
2026-01-28 23:48:05.47	14.59	47.26	-40.9	-43.5	12.6	8.39e-05	0	58	0	817889280	53	4868
2026-01-28 23:48:06.48	14.56	47.58	-40.8	-43.5	12.7	8.62e-05	0	58	0	821035008	53	4821
2026-01-28 23:48:07.50	14.52	47.91	-40.7	-43.3	12.9	6.40e-05	0	58	0	824180736	53	4724
2026-01-28 23:48:08.51	14.49	48.23	-40.6	-43.1	13.0	3.43e-05	0	58	0	827326464	53	4629
2026-01-28 23:48:09.52	14.46	48.56	-40.5	-42.9	13.2	2.67e-05	0	58	0	830472192	53	4530
2026-01-28 23:48:10.53	14.42	48.89	-40.3	-42.8	13.4	1.14e-05	0	58	0	833617920	52	4715
2026-01-28 23:48:11.54	14.38	49.22	-40.2	-42.6	13.6	4.50e-06	0	58	0	836763648	52	4615
2026-01-28 23:48:12.55	14.35	49.56	-40.0	-42.3	13.9	4.50e-06	0	58	0	839909376	52	4463
2026-01-28 23:48:13.56	14.31	49.89	-40.0	-42.2	14.1	1.50e-06	0	58	0	843055104	51	4655
2026-01-28 23:48:14.57	14.27	50.24	-40.0	-42.2	14.0	3.00e-06	0	58	0	846200832	51	4693
2026-01-28 23:48:15.58	14.23	50.58	-40.3	-42.6	13.7	6.80e-06	0	58	0	849346560	51	4897
2026-01-28 23:48:16.59	14.19	50.92	-40.5	-42.9	13.4	1.22e-05	0	58	0	852492288	51	5082
2026-01-28 23:48:17.60	14.15	51.27	-40.6	-43.1	13.1	2.44e-05	0	58	0	855638016	51	5201
2026-01-28 23:48:18.61	14.11	51.62	-40.6	-43.1	13.2	3.20e-05	0	58	0	858783744	51	5194
2026-01-28 23:48:19.62	14.06	51.97	-40.4	-42.8	13.5	2.05e-05	0	58	0	861929472	51	5040
2026-01-28 23:48:20.63	14.02	52.33	-40.3	-42.6	13.6	9.10e-06	0	58	0	865075200	51	4918
2026-01-28 23:48:21.64	13.97	52.69	-40.0	-42.2	14.1	7.00e-07	0	58	0	868220928	51	4663
2026-01-28 23:48:22.66	13.92	53.05	-39.7	-41.7	14.6	7.00e-07	0	58	0	871366656	51	4410
2026-01-28 23:48:23.67	13.87	53.42	-39.6	-41.6	14.7	7.00e-07	0	58	0	874512384	51	4365
2026-01-28 23:48:24.68	13.82	53.78	-39.6	-41.6	14.6	0.00e+00	0	58	0	877658112	51	4391
2026-01-28 23:48:25.69	13.77	54.15	-39.7	-41.8	14.5	0.00e+00	0	58	0	880803840	51	4469
2026-01-28 23:48:26.70	13.72	54.52	-39.8	-42.0	14.3	7.00e-07	0	58	0	883949568	51	4564
2026-01-28 23:48:27.71	13.67	54.90	-39.6	-41.7	14.7	0.00e+00	0	58	0	887095296	51	4398
2026-01-28 23:48:28.72	13.61	55.27	-39.5	-41.6	14.8	0.00e+00	0	58	0	890241024	51	4356
2026-01-28 23:48:29.73	13.55	55.65	-39.4	-41.4	14.9	0.00e+00	0	58	0	893386752	50	4510
2026-01-28 23:48:30.74	13.49	56.03	-39.1	-41.0	15.3	0.00e+00	0	58	0	896532480	50	4312
2026-01-28 23:48:31.75	13.43	56.42	-39.1	-41.0	15.3	0.00e+00	0	58	0	899678208	50	4317
2026-01-28 23:48:32.76	13.37	56.81	-39.2	-41.1	15.2	0.00e+00	0	58	0	902823936	50	4378
2026-01-28 23:48:33.77	13.31	57.20	-39.2	-41.1	15.2	0.00e+00	0	58	0	905969664	50	4348
2026-01-28 23:48:34.78	13.24	57.59	-39.1	-41.0	15.3	0.00e+00	0	58	0	909115392	50	4339
2026-01-28 23:48:35.79	13.17	57.98	-39.2	-41.1	15.2	0.00e+00	0	58	0	912261120	50	4343
2026-01-28 23:48:36.80	13.10	58.38	-39.2	-41.2	15.1	0.00e+00	0	58	0	915406848	50	4405
2026-01-28 23:48:37.81	13.03	58.78	-38.9	-40.8	15.5	0.00e+00	0	58	0	918552576	49	4458
2026-01-28 23:48:38.82	12.95	59.19	-38.9	-40.7	15.6	0.00e+00	0	58	0	921698304	49	4409
2026-01-28 23:48:39.83	12.87	59.59	-38.7	-40.4	15.8	0.00e+00	0	58	0	924844032	49	4280
2026-01-28 23:48:40.84	12.79	60.00	-38.5	-40.2	16.1	0.00e+00	0	58	0	927989760	48	4426
2026-01-28 23:48:41.85	12.71	60.41	-38.5	-40.2	16.1	0.00e+00	0	58	0	931135488	48	4417
2026-01-28 23:48:42.87	12.62	60.83	-38.6	-40.3	16.0	0.00e+00	0	58	0	934281216	48	4473
2026-01-28 23:48:43.88	12.53	61.25	-38.7	-40.5	15.8	0.00e+00	0	58	0	937426944	48	4566
2026-01-28 23:48:44.89	12.44	61.67	-38.6	-40.4	15.9	0.00e+00	0	58	0	940572672	48	4505
2026-01-28 23:48:45.90	12.34	62.09	-38.5	-40.3	16.0	0.00e+00	0	58	0	943718400	48	4444
2026-01-28 23:48:46.91	12.24	62.51	-38.4	-40.0	16.2	0.00e+00	0	58	0	946864128	48	4339
2026-01-28 23:48:47.92	12.14	62.94	-38.0	-39.6	16.6	0.00e+00	0	58	0	950009856	48	4141
2026-01-28 23:48:48.93	12.03	63.37	-38.0	-39.6	16.5	0.00e+00	0	58	0	953155584	47	4378
2026-01-28 23:48:49.94	11.92	63.80	-38.1	-39.8	16.4	0.00e+00	0	58	0	956301312	47	4446
2026-01-28 23:48:50.95	11.81	64.23	-38.1	-39.8	16.4	0.00e+00	0	58	0	959447040	47	4460
2026-01-28 23:48:51.96	11.69	64.67	-38.0	-39.6	16.6	0.00e+00	0	58	0	962592768	47	4365
2026-01-28 23:48:52.97	11.56	65.11	-37.8	-39.4	16.8	0.00e+00	0	58	0	965738496	47	4261
2026-01-28 23:48:53.98	11.43	65.55	-37.5	-39.1	17.1	0.00e+00	0	58	0	968884224	47	4105
2026-01-28 23:48:54.99	11.30	66.00	-37.6	-39.1	17.1	0.00e+00	0	58	0	972029952	46	4365
2026-01-28 23:48:56.00	11.16	66.44	-37.6	-39.1	17.0	0.00e+00	0	58	0	975175680	46	4378
2026-01-28 23:48:57.01	11.01	66.89	-37.7	-39.3	16.9	0.00e+00	0	58	0	978321408	46	4464
2026-01-28 23:48:58.02	10.86	67.34	-38.1	-39.7	16.5	0.00e+00	0	58	0	981467136	46	4697
2026-01-28 23:48:59.03	10.70	67.80	-37.8	-39.4	16.7	0.00e+00	0	58	0	984612864	46	4533
2026-01-28 23:49:00.04	10.53	68.25	-37.6	-39.1	17.0	0.00e+00	0	58	0	987758592	46	4363
2026-01-28 23:49:01.05	10.35	68.71	-37.4	-38.9	17.2	0.00e+00	0	58	0	990904320	46	4281
2026-01-28 23:49:02.06	10.17	69.17	-37.4	-38.9	17.1	0.00e+00	0	58	0	994050048	46	4283
2026-01-28 23:49:03.07	9.97	69.63	-37.7	-39.2	16.9	0.00e+00	0	58	0	997195776	46	4440
2026-01-28 23:49:04.08	9.77	70.09	-37.8	-39.4	16.8	0.00e+00	0	58	0	1000341504	46	4496
2026-01-28 23:49:05.09	9.55	70.56	-37.6	-39.2	17.0	0.00e+00	0	58	0	1003487232	46	4396
2026-01-28 23:49:06.10	9.33	71.03	-37.5	-39.0	17.1	0.00e+00	0	58	0	1006632960	46	4329
2026-01-28 23:49:07.11	9.09	71.50	-37.6	-39.2	16.9	0.00e+00	0	58	0	1009778688	46	4402
2026-01-28 23:49:08.12	8.84	71.97	-37.5	-39.0	17.1	0.00e+00	0	58	0	1012924416	46	4340
2026-01-28 23:49:09.13	8.57	72.44	-37.3	-38.8	17.3	0.00e+00	0	58	0	1016070144	46	4231
2026-01-28 23:49:10.14	8.29	72.92	-37.2	-38.7	17.4	0.00e+00	0	58	0	1019215872	46	4146
2026-01-28 23:49:11.15	7.99	73.39	-37.4	-38.9	17.1	0.00e+00	0	58	0	1022361600	46	4288
2026-01-28 23:49:12.16	7.67	73.87	-37.7	-39.3	16.8	0.00e+00	0	58	0	1025507328	46	4449
2026-01-28 23:49:13.17	7.33	74.35	-37.6	-39.2	16.9	0.00e+00	0	58	0	1028653056	46	4425
2026-01-28 23:49:14.18	6.97	74.83	-37.4	-38.9	17.2	0.00e+00	0	58	0	1031798784	46	4262
2026-01-28 23:49:15.19	6.58	75.32	-37.4	-39.0	17.1	0.00e+00	0	58	0	1034944512	46	4296
2026-01-28 23:49:16.20	6.17	75.80	-37.6	-39.2	16.9	0.00e+00	0	58	0	1038090240	46	4418
2026-01-28 23:49:17.21	5.72	76.28	-37.7	-39.3	16.8	0.00e+00	0	58	0	1042284544	46	4468
2026-01-28 23:49:18.22	5.24	76.77	-37.7	-39.3	16.8	0.00e+00	0	58	0	1045430272	46	4476
2026-01-28 23:49:19.23	4.73	77.25	-37.7	-39.3	16.7	0.00e+00	0	58	0	1048576000	46	4482
2026-01-28 23:49:20.24	4.17	77.74	-37.7	-39.3	16.6	0.00e+00	0	58	0	1050673152	46	4486
2026-01-28 23:49:21.25	3.56	78.22	-37.8	-39.4	16.6	0.00e+00	0	58	0	1053818880	46	4524
2026-01-28 23:49:22.26	2.90	78.71	-37.9	-39.5	16.5	0.00e+00	0	58	0	1058013184	46	4580
2026-01-28 23:49:23.27	2.18	79.20	-37.8	-39.4	16.7	0.00e+00	0	58	0	1061158912	46	4504
2026-01-28 23:49:24.28	1.39	79.68	-37.9	-39.5	16.5	0.00e+00	0	58	0	1064304640	46	4595
2026-01-28 23:49:25.29	0.51	80.17	-38.1	-39.9	16.2	0.00e+00	0	58	0	1067450368	46	4765
2026-01-28 23:49:26.30	359.55	80.65	-38.0	-39.7	16.4	0.00e+00	0	58	0	1070596096	47	4400
2026-01-28 23:49:27.32	358.47	81.14	-37.8	-39.4	16.7	0.00e+00	0	58	0	1073741824	47	4256
2026-01-28 23:49:28.33	357.27	81.61	-38.0	-39.7	16.3	0.00e+00	0	58	0	1076887552	47	4436
2026-01-28 23:49:29.33	355.94	82.09	-38.2	-39.9	16.2	0.00e+00	0	58	0	1080033280	47	4536
2026-01-28 23:49:30.35	354.41	82.56	-38.1	-39.8	16.3	0.00e+00	0	58	0	1083179008	47	4485
2026-01-28 23:49:31.36	352.69	83.03	-37.9	-39.6	16.5	0.00e+00	0	58	0	1086324736	47	4355
2026-01-28 23:49:32.37	350.72	83.49	-38.1	-39.9	16.2	0.00e+00	0	58	0	1089470464	47	4502
2026-01-28 23:49:33.38	348.45	83.94	-38.5	-40.3	15.8	0.00e+00	0	58	0	1092616192	47	4732
2026-01-28 23:49:34.38	345.84	84.38	-38.6	-40.5	15.7	0.00e+00	0	58	0	1095761920	47	4825
2026-01-28 23:49:35.39	342.76	84.81	-38.9	-40.9	15.2	0.00e+00	0	58	0	1098907648	48	4795
2026-01-28 23:49:36.40	339.13	85.22	-38.8	-40.7	15.4	0.00e+00	0	58	0	1102053376	48	4675
2026-01-28 23:49:37.41	334.84	85.61	-38.5	-40.2	15.9	0.00e+00	0	58	0	1105199104	48	4437
2026-01-28 23:49:38.42	329.75	85.97	-38.4	-40.2	16.0	0.00e+00	0	58	0	1108344832	48	4414
2026-01-28 23:49:39.43	323.71	86.29	-38.5	-40.2	15.9	0.00e+00	0	58	0	1111490560	48	4435
2026-01-28 23:49:40.44	316.62	86.57	-38.1	-39.8	16.4	0.00e+00	0	58	0	1114636288	48	4202
2026-01-28 23:49:41.45	308.43	86.78	-37.8	-39.4	16.6	0.00e+00	0	58	0	1117782016	47	4284
2026-01-28 23:49:42.46	299.30	86.92	-37.7	-39.3	16.7	0.00e+00	0	58	0	1120927744	47	4227
2026-01-28 23:49:43.47	289.58	86.98	-37.8	-39.5	16.6	0.00e+00	0	58	0	1124073472	47	4309
2026-01-28 23:49:44.48	279.78	86.94	-37.9	-39.5	16.5	0.00e+00	0	58	0	1127219200	47	4330
2026-01-28 23:49:45.49	270.46	86.82	-38.1	-39.8	16.2	0.00e+00	0	58	0	1130364928	47	4486
2026-01-28 23:49:46.50	262.02	86.63	-38.2	-40.0	16.1	0.00e+00	0	58	0	1133510656	47	4569
2026-01-28 23:49:47.51	254.65	86.37	-38.3	-40.1	16.0	0.00e+00	0	58	0	1136656384	47	4607
2026-01-28 23:49:48.52	248.35	86.05	-38.0	-39.7	16.3	0.00e+00	0	58	0	1139802112	47	4430
2026-01-28 23:49:49.54	242.99	85.70	-37.8	-39.4	16.6	0.00e+00	0	58	0	1142947840	47	4286
2026-01-28 23:49:50.55	238.52	85.31	-37.6	-39.2	16.8	0.00e+00	0	58	0	1146093568	47	4153
2026-01-28 23:49:51.56	234.75	84.91	-37.8	-39.4	16.6	0.00e+00	0	58	0	1149239296	47	4284
2026-01-28 23:49:52.57	231.55	84.48	-37.7	-39.3	16.7	0.00e+00	0	58	0	1152385024	47	4228
2026-01-28 23:49:53.57	228.84	84.05	-37.5	-39.0	17.0	0.00e+00	0	58	0	1155530752	46	4320
2026-01-28 23:49:54.59	226.46	83.59	-37.4	-39.0	17.0	0.00e+00	0	58	0	1158676480	46	4301
2026-01-28 23:49:55.60	224.43	83.13	-38.0	-39.7	16.3	0.00e+00	0	58	0	1161822208	46	4652
2026-01-28 23:49:56.61	222.65	82.67	-38.0	-39.7	16.3	0.00e+00	0	58	0	1164967936	46	4681
2026-01-28 23:49:57.62	221.09	82.20	-38.2	-39.9	16.2	0.00e+00	0	58	0	1168113664	46	4790
2026-01-28 23:49:58.63	219.71	81.72	-38.1	-39.8	16.2	0.00e+00	0	58	0	1171259392	47	4471
2026-01-28 23:49:59.64	218.48	81.24	-38.2	-39.9	16.1	0.00e+00	0	58	0	1174405120	47	4539
2026-01-28 23:50:00.65	217.38	80.76	-37.8	-39.5	16.6	0.00e+00	0	58	0	1177550848	47	4302
2026-01-28 23:50:01.66	216.39	80.28	-37.6	-39.2	16.8	0.00e+00	0	59	0	1180696576	47	4151
2026-01-28 23:50:02.67	215.50	79.79	-37.6	-39.2	16.9	0.00e+00	0	58	0	1183842304	47	4150
2026-01-28 23:50:03.68	214.69	79.31	-37.6	-39.2	16.9	0.00e+00	0	58	0	1186988032	47	4158
2026-01-28 23:50:04.69	213.95	78.82	-37.7	-39.3	16.8	0.00e+00	0	58	0	1190133760	47	4201
2026-01-28 23:50:05.70	213.28	78.33	-38.2	-39.9	16.2	0.00e+00	0	58	0	1193279488	47	4502
2026-01-28 23:50:06.71	212.66	77.85	-38.2	-39.9	16.2	0.00e+00	0	58	0	1196425216	47	4524
2026-01-28 23:50:07.72	212.09	77.36	-37.8	-39.4	16.6	0.00e+00	0	58	0	1199570944	47	4279
2026-01-28 23:50:08.73	211.56	76.87	-37.8	-39.4	16.7	0.00e+00	0	58	0	1202716672	47	4256
2026-01-28 23:50:09.74	211.08	76.39	-38.0	-39.6	16.5	0.00e+00	0	59	0	1205862400	47	4385
2026-01-28 23:50:10.75	210.62	75.90	-38.4	-40.2	15.8	0.00e+00	0	58	0	1209008128	47	4694
2026-01-28 23:50:11.76	210.20	75.42	-38.6	-40.4	15.6	0.00e+00	0	58	0	1212153856	47	4797
2026-01-28 23:50:12.77	209.81	74.94	-38.5	-40.3	15.8	0.00e+00	0	59	0	1215299584	47	4720
2026-01-28 23:50:13.78	209.44	74.45	-38.0	-39.7	16.4	0.00e+00	0	59	0	1218445312	47	4428
2026-01-28 23:50:14.80	209.09	73.97	-38.1	-39.8	16.3	0.00e+00	0	58	0	1221591040	47	4472
2026-01-28 23:50:15.80	208.77	73.49	-38.5	-40.4	15.7	0.00e+00	0	58	0	1224736768	47	4763
2026-01-28 23:50:16.81	208.47	73.02	-39.4	-41.4	14.8	0.00e+00	0	58	0	1227882496	49	4803
2026-01-28 23:50:17.82	208.18	72.54	-39.2	-41.2	15.0	0.00e+00	0	59	0	1231028224	49	4674
2026-01-28 23:50:18.83	207.91	72.06	-38.7	-40.5	15.7	0.00e+00	0	58	0	1234173952	49	4331
2026-01-28 23:50:19.84	207.66	71.59	-37.7	-39.4	16.8	0.00e+00	0	58	0	1237319680	47	4253
2026-01-28 23:50:20.85	207.41	71.12	-36.9	-38.3	17.7	0.00e+00	0	58	0	1240465408	45	4229
2026-01-28 23:50:21.87	207.18	70.65	-37.0	-38.4	17.6	0.00e+00	0	58	0	1243611136	45	4269
2026-01-28 23:50:22.88	206.97	70.18	-37.3	-38.8	17.1	0.00e+00	0	58	0	1246756864	45	4462
2026-01-28 23:50:23.89	206.76	69.71	-37.5	-39.1	17.0	0.00e+00	0	58	0	1249902592	45	4607
2026-01-28 23:50:24.90	206.56	69.25	-37.9	-39.5	16.5	0.00e+00	0	58	0	1253048320	46	4575
2026-01-28 23:50:25.91	206.38	68.79	-37.7	-39.3	16.6	0.00e+00	0	58	0	1256194048	46	4450
2026-01-28 23:50:26.91	206.20	68.33	-37.3	-38.8	17.0	0.00e+00	0	58	0	1259339776	46	4238
2026-01-28 23:50:27.92	206.03	67.88	-37.1	-38.5	17.5	0.00e+00	0	58	0	1262485504	46	4092
2026-01-28 23:50:28.94	205.86	67.42	-36.8	-38.1	17.8	0.00e+00	0	58	0	1265631232	45	4144
2026-01-28 23:50:29.95	205.71	66.96	-36.9	-38.3	17.5	0.00e+00	0	58	0	1268776960	45	4235
2026-01-28 23:50:30.95	205.56	66.52	-37.7	-39.2	16.7	0.00e+00	0	58	0	1271922688	45	4687
2026-01-28 23:50:31.96	205.42	66.07	-38.5	-40.3	15.9	0.00e+00	0	58	0	1275068416	47	4728
2026-01-28 23:50:32.97	205.28	65.62	-38.3	-40.1	16.0	0.00e+00	0	58	0	1278214144	47	4609
2026-01-28 23:50:33.98	205.15	65.18	-37.6	-39.2	16.8	0.00e+00	0	58	0	1281359872	47	4149
2026-01-28 23:50:34.99	205.02	64.74	-37.4	-38.9	17.1	0.00e+00	0	59	0	1284505600	46	4251
2026-01-28 23:50:36.00	204.90	64.30	-37.4	-38.9	17.1	0.00e+00	0	58	0	1287651328	46	4273
2026-01-28 23:50:37.01	204.79	63.86	-37.5	-39.0	17.0	0.00e+00	0	58	0	1290797056	46	4323
2026-01-28 23:50:38.02	204.67	63.43	-37.9	-39.5	16.5	0.00e+00	0	58	0	1293942784	46	4578
2026-01-28 23:50:39.03	204.57	63.00	-39.0	-40.9	15.2	0.00e+00	0	58	0	1297088512	48	4787
2026-01-28 23:50:40.04	204.46	62.57	-39.7	-41.8	14.4	0.00e+00	0	58	0	1300234240	49	5026
2026-01-28 23:50:41.05	204.36	62.14	-39.4	-41.4	14.7	0.00e+00	0	59	0	1303379968	49	4803
2026-01-28 23:50:42.06	204.27	61.72	-38.8	-40.7	15.4	0.00e+00	0	58	0	1306525696	49	4399
2026-01-28 23:50:43.07	204.17	61.30	-38.3	-39.9	16.2	0.00e+00	0	58	0	1309671424	48	4280
2026-01-28 23:50:44.08	204.08	60.88	-38.0	-39.6	16.6	0.00e+00	0	58	0	1312817152	48	4130
2026-01-28 23:50:45.09	203.99	60.47	-37.6	-39.1	17.0	0.00e+00	0	58	0	1315962880	47	4129
2026-01-28 23:50:46.11	203.91	60.05	-37.8	-39.4	16.7	0.00e+00	0	58	0	1319108608	47	4272
2026-01-28 23:50:47.11	203.83	59.64	-38.2	-39.9	16.2	0.00e+00	0	58	0	1322254336	47	4518
2026-01-28 23:50:48.11	203.75	59.24	-38.6	-40.4	15.7	0.00e+00	0	58	0	1325400064	47	4794
2026-01-28 23:50:49.13	203.67	58.83	-39.3	-41.3	15.0	0.00e+00	0	58	0	1328545792	49	4712
2026-01-28 23:50:50.14	203.60	58.43	-39.5	-41.6	14.7	0.00e+00	0	59	0	1331691520	49	4915
2026-01-28 23:50:51.15	203.53	58.03	-39.1	-41.0	15.1	0.00e+00	0	59	0	1335885824	49	4567
2026-01-28 23:50:52.16	203.46	57.63	-38.4	-40.2	15.9	0.00e+00	0	58	0	1339031552	48	4398
2026-01-28 23:50:53.17	203.39	57.23	-38.4	-40.1	16.1	0.00e+00	0	58	0	1342177280	48	4370
2026-01-28 23:50:54.18	203.33	56.84	-38.6	-40.4	15.8	0.00e+00	0	59	0	1344274432	48	4522
2026-01-28 23:50:55.19	203.26	56.45	-39.4	-41.5	14.8	0.00e+00	0	59	0	1347420160	49	4818
2026-01-28 23:50:56.20	203.20	56.07	-39.8	-41.9	14.4	1.50e-06	0	59	0	1351614464	50	4807
2026-01-28 23:50:57.21	203.14	55.68	-39.9	-42.2	14.1	2.20e-06	0	59	0	1354760192	50	4945
2026-01-28 23:50:58.22	203.08	55.30	-40.3	-42.6	13.7	6.10e-06	0	58	0	1357905920	51	4901
2026-01-28 23:50:59.23	203.03	54.92	-40.8	-43.5	12.7	3.43e-05	0	59	0	1361051648	52	5136
2026-01-28 23:51:00.24	202.97	54.55	-41.0	-43.8	12.4	1.86e-04	0	58	0	1364197376	52	5307
2026-01-28 23:51:01.25	202.92	54.17	-40.7	-43.4	12.8	1.02e-04	0	58	0	1367343104	52	5097
2026-01-28 23:51:02.26	202.87	53.80	-40.0	-42.3	13.8	1.29e-05	0	59	0	1370488832	52	4490
2026-01-28 23:51:03.27	202.81	53.43	-39.2	-41.1	15.2	1.50e-06	0	59	0	1373634560	50	4371
2026-01-28 23:51:04.28	202.77	53.07	-38.8	-40.6	15.6	0.00e+00	0	58	0	1376780288	49	4356
2026-01-28 23:51:05.29	202.72	52.71	-39.1	-41.0	15.2	0.00e+00	0	58	0	1379926016	49	4598
2026-01-28 23:51:06.30	202.67	52.35	-39.6	-41.6	14.6	0.00e+00	0	58	0	1383071744	49	4925
2026-01-28 23:51:07.31	202.62	51.99	-39.9	-42.0	14.2	7.00e-07	0	59	0	1386217472	50	4862
2026-01-28 23:51:08.32	202.58	51.63	-40.4	-42.7	13.5	6.80e-06	0	58	0	1389363200	51	4983
2026-01-28 23:51:09.33	202.54	51.28	-40.9	-43.7	12.4	1.05e-04	0	58	0	1392508928	52	5231
2026-01-28 23:51:10.34	202.50	50.93	-41.1	-43.9	12.1	2.44e-04	0	59	0	1395654656	52	5378
2026-01-28 23:51:11.35	202.45	50.58	-41.1	-44.0	12.1	2.75e-04	0	58	0	1398800384	52	5449
2026-01-28 23:51:12.36	202.41	50.24	-41.1	-44.0	12.1	2.82e-04	0	59	0	1401946112	52	5422
2026-01-28 23:51:13.37	202.37	49.90	-41.0	-43.8	12.3	1.60e-04	0	58	0	1405091840	52	5311
2026-01-28 23:51:14.38	202.34	49.56	-41.0	-43.9	12.3	1.64e-04	0	59	0	1408237568	52	5364
2026-01-28 23:51:15.39	202.30	49.22	-40.9	-43.7	12.4	1.75e-04	0	58	0	1411383296	52	5244
2026-01-28 23:51:16.41	202.26	48.88	-40.6	-43.2	12.9	6.17e-05	0	59	0	1414529024	52	4967
2026-01-28 23:51:17.42	202.23	48.55	-40.3	-42.7	13.4	1.06e-05	0	59	0	1417674752	52	4662
2026-01-28 23:51:18.43	202.19	48.22	-40.2	-42.6	13.6	3.80e-06	0	59	0	1420820480	52	4599
2026-01-28 23:51:19.44	202.16	47.89	-40.3	-42.7	13.5	5.30e-06	0	58	0	1423966208	52	4653
2026-01-28 23:51:20.45	202.12	47.57	-40.7	-43.3	12.9	3.12e-05	0	59	0	1427111936	52	4984
2026-01-28 23:51:21.46	202.09	47.25	-41.1	-43.9	12.1	1.50e-04	0	58	0	1430257664	52	5399
2026-01-28 23:51:22.47	202.06	46.93	-41.3	-44.3	11.7	4.99e-04	0	59	0	1433403392	53	5325
2026-01-28 23:51:23.48	202.03	46.61	-41.4	-44.5	11.6	6.63e-04	0	58	0	1436549120	53	5407
2026-01-28 23:51:24.49	202.00	46.30	-41.4	-44.5	11.6	6.13e-04	0	59	0	1439694848	53	5447
2026-01-28 23:51:25.50	201.97	45.98	-41.3	-44.4	11.8	5.11e-04	0	58	0	1442840576	53	5344
2026-01-28 23:51:26.51	201.94	45.67	-41.4	-44.4	11.7	5.26e-04	0	58	0	1445986304	53	5361
2026-01-28 23:51:27.52	201.91	45.36	-41.4	-44.4	11.7	6.13e-04	0	58	0	1449132032	53	5378
2026-01-28 23:51:28.54	201.88	45.06	-41.5	-44.6	11.5	7.08e-04	0	58	0	1452277760	53	5495
2026-01-28 23:51:29.54	201.86	44.76	-41.7	-45.0	11.1	1.42e-03	0	59	0	1455423488	53	5755
2026-01-28 23:51:30.56	201.83	44.45	-41.9	-45.4	10.7	2.57e-03	0	58	0	1458569216	54	5658
2026-01-28 23:51:31.57	201.80	44.15	-41.6	-44.8	11.3	1.45e-03	0	58	0	1461714944	54	5304
2026-01-28 23:51:32.58	201.78	43.86	-41.3	-44.2	11.9	4.68e-04	0	58	0	1464860672	54	4978
2026-01-28 23:51:33.59	201.75	43.56	-40.9	-43.6	12.5	1.93e-04	0	58	0	1468006400	53	4887
2026-01-28 23:51:34.60	201.73	43.27	-40.5	-43.0	13.1	5.49e-05	0	59	0	1471152128	53	4582
2026-01-28 23:51:35.61	201.70	42.98	-40.2	-42.6	13.5	1.06e-05	0	59	0	1474297856	52	4630
2026-01-28 23:51:36.62	201.68	42.69	-40.1	-42.3	13.8	6.80e-06	0	59	0	1477443584	52	4493
2026-01-28 23:51:37.63	201.66	42.41	-40.0	-42.2	14.0	4.50e-06	0	58	0	1480589312	51	4703
2026-01-28 23:51:38.64	201.64	42.13	-40.0	-42.3	14.0	3.80e-06	0	59	0	1483735040	51	4710
2026-01-28 23:51:39.65	201.61	41.84	-40.3	-42.6	13.6	3.00e-06	0	59	0	1486880768	51	4914
2026-01-28 23:51:40.67	201.59	41.56	-40.7	-43.3	12.9	2.59e-05	0	59	0	1490026496	52	4994
2026-01-28 23:51:41.68	201.57	41.29	-41.2	-44.2	12.0	1.85e-04	0	59	0	1493172224	52	5531
2026-01-28 23:51:42.69	201.55	41.01	-41.6	-44.9	11.2	9.51e-04	0	59	0	1496317952	53	5658
2026-01-28 23:51:43.70	201.53	40.74	-41.7	-45.1	10.9	1.92e-03	0	59	0	1499463680	53	5826
2026-01-28 23:51:44.71	201.51	40.47	-41.6	-44.9	11.2	1.64e-03	0	59	0	1502609408	53	5718
2026-01-28 23:51:45.72	201.49	40.20	-41.4	-44.5	11.6	9.95e-04	0	59	0	1505755136	53	5418
2026-01-28 23:51:46.73	201.47	39.93	-41.1	-44.0	12.0	3.88e-04	0	59	0	1508900864	53	5120
2026-01-28 23:51:47.73	201.45	39.67	-40.7	-43.4	12.6	1.43e-04	0	59	0	1512046592	53	4768
2026-01-28 23:51:48.74	201.43	39.41	-40.6	-43.2	12.8	6.63e-05	0	59	0	1515192320	53	4687
2026-01-28 23:51:49.75	201.41	39.15	-40.6	-43.2	12.9	5.41e-05	0	59	0	1518338048	53	4660
2026-01-28 23:51:50.76	201.40	38.89	-40.6	-43.3	12.8	4.65e-05	0	59	0	1521483776	53	4722
2026-01-28 23:51:51.77	201.38	38.63	-40.7	-43.3	12.8	5.34e-05	0	59	0	1524629504	53	4756
2026-01-28 23:51:52.79	201.36	38.38	-40.6	-43.3	12.8	6.10e-05	0	59	0	1527775232	53	4716
2026-01-28 23:51:53.80	201.34	38.12	-40.5	-43.1	13.0	3.96e-05	0	59	0	1530920960	53	4619
2026-01-28 23:51:54.81	201.33	37.87	-40.4	-43.0	13.2	3.12e-05	0	59	0	1534066688	52	4820
2026-01-28 23:51:55.82	201.31	37.62	-40.4	-42.9	13.2	2.82e-05	0	59	0	1537212416	52	4775
2026-01-28 23:51:56.83	201.29	37.37	-40.4	-42.8	13.3	1.67e-05	0	59	0	1540358144	52	4748
2026-01-28 23:51:57.84	201.28	37.13	-40.2	-42.6	13.5	1.83e-05	0	59	0	1543503872	52	4642
2026-01-28 23:51:58.85	201.26	36.89	-40.2	-42.6	13.5	1.22e-05	0	59	0	1546649600	52	4599
2026-01-28 23:51:59.87	201.25	36.64	-40.1	-42.5	13.6	3.80e-06	0	59	0	1549795328	52	4567
2026-01-28 23:52:00.87	201.23	36.40	-40.0	-42.4	13.8	6.80e-06	0	59	0	1552941056	51	4763
2026-01-28 23:52:01.89	201.22	36.16	-39.9	-42.2	14.0	1.50e-06	0	59	0	1556086784	51	4653
2026-01-28 23:52:02.90	201.20	35.93	-39.9	-42.1	14.0	1.50e-06	0	59	0	1559232512	51	4636
2026-01-28 23:52:03.91	201.19	35.69	-39.9	-42.1	14.1	2.20e-06	0	59	0	1562378240	51	4631
2026-01-28 23:52:04.91	201.18	35.46	-39.8	-42.0	14.2	2.20e-06	0	59	0	1565523968	51	4563
2026-01-28 23:52:05.92	201.16	35.23	-39.9	-42.1	14.0	3.00e-06	0	59	0	1568669696	51	4638
2026-01-28 23:52:06.93	201.15	35.00	-39.9	-42.1	14.1	3.80e-06	0	59	0	1571815424	51	4612
2026-01-28 23:52:07.94	201.13	34.77	-39.7	-41.8	14.3	1.50e-06	0	59	0	1574961152	51	4489
2026-01-28 23:52:08.95	201.12	34.54	-39.6	-41.7	14.4	0.00e+00	0	59	0	1578106880	51	4393
2026-01-28 23:52:09.96	201.11	34.32	-39.5	-41.5	14.6	0.00e+00	0	59	0	1581252608	50	4591
2026-01-28 23:52:10.98	201.10	34.09	-39.4	-41.4	14.7	0.00e+00	0	59	0	1584398336	50	4541
2026-01-28 23:52:11.99	201.08	33.87	-39.3	-41.3	14.8	0.00e+00	0	59	0	1587544064	50	4479
2026-01-28 23:52:13.00	201.07	33.65	-39.2	-41.2	15.0	0.00e+00	0	59	0	1590689792	50	4399
2026-01-28 23:52:14.01	201.06	33.43	-39.2	-41.1	15.0	0.00e+00	0	59	0	1593835520	50	4386
2026-01-28 23:52:15.02	201.05	33.22	-39.2	-41.1	15.0	0.00e+00	0	59	0	1596981248	50	4385
2026-01-28 23:52:16.03	201.04	33.00	-39.1	-41.0	15.1	7.00e-07	0	59	0	1600126976	50	4319
2026-01-28 23:52:17.04	201.03	32.79	-39.1	-41.0	15.1	0.00e+00	0	59	0	1603272704	50	4338
2026-01-28 23:52:18.05	201.01	32.58	-39.1	-41.1	15.0	7.00e-07	0	59	0	1607467008	50	4368
2026-01-28 23:52:19.06	201.00	32.36	-39.1	-41.1	15.0	0.00e+00	0	59	0	1609564160	50	4355
2026-01-28 23:52:20.07	200.99	32.16	-39.2	-41.1	15.0	0.00e+00	0	59	0	1612709888	50	4373
2026-01-28 23:52:21.08	200.98	31.95	-39.2	-41.2	14.9	0.00e+00	0	59	0	1615855616	50	4401
2026-01-28 23:52:22.09	200.97	31.74	-39.2	-41.2	14.9	0.00e+00	0	59	0	1619001344	50	4429
2026-01-28 23:52:23.10	200.96	31.54	-39.2	-41.2	15.0	0.00e+00	0	59	0	1623195648	50	4397
2026-01-28 23:52:24.11	200.95	31.33	-39.2	-41.2	14.9	0.00e+00	0	59	0	1626341376	50	4419
2026-01-28 23:52:25.12	200.94	31.13	-39.4	-41.4	14.7	0.00e+00	0	59	0	1629487104	50	4541
2026-01-28 23:52:26.13	200.93	30.93	-39.4	-41.5	14.6	1.50e-06	0	59	0	1632632832	50	4580
2026-01-28 23:52:27.14	200.92	30.73	-39.6	-41.7	14.4	3.00e-06	0	59	0	1634729984	50	4696
2026-01-28 23:52:28.15	200.91	30.53	-39.6	-41.8	14.3	7.00e-07	0	59	0	1638924288	50	4726
2026-01-28 23:52:29.16	200.90	30.33	-39.7	-41.9	14.3	1.50e-06	0	59	0	1642070016	50	4766
2026-01-28 23:52:30.17	200.89	30.14	-39.6	-41.8	14.4	1.50e-06	0	58	0	1645215744	50	4728
2026-01-28 23:52:31.18	200.88	29.94	-39.7	-41.9	14.3	7.00e-07	0	59	0	1648361472	50	4764
2026-01-28 23:52:32.19	200.88	29.75	-39.6	-41.8	14.4	0.00e+00	0	59	0	1651507200	50	4714
2026-01-28 23:52:33.20	200.87	29.56	-39.6	-41.7	14.4	7.00e-07	0	59	0	1654652928	50	4703
2026-01-28 23:52:34.21	200.86	29.37	-39.5	-41.6	14.5	1.50e-06	0	59	0	1657798656	50	4630
2026-01-28 23:52:35.22	200.85	29.18	-39.4	-41.5	14.6	0.00e+00	0	59	0	1660944384	50	4586
2026-01-28 23:52:36.23	200.84	28.99	-39.4	-41.5	14.7	0.00e+00	0	59	0	1664090112	50	4549
2026-01-28 23:52:37.24	200.83	28.81	-39.3	-41.3	14.8	0.00e+00	0	58	0	1667235840	50	4486
2026-01-28 23:52:38.25	200.82	28.62	-39.2	-41.2	14.8	7.00e-07	0	59	0	1670381568	50	4437
2026-01-28 23:52:39.26	200.82	28.44	-39.2	-41.2	14.9	7.00e-07	0	59	0	1673527296	50	4413
2026-01-28 23:52:40.27	200.81	28.25	-39.2	-41.3	14.8	0.00e+00	0	59	0	1676673024	50	4456
2026-01-28 23:52:41.29	200.80	28.07	-39.3	-41.3	14.7	0.00e+00	0	59	0	1679818752	50	4486
2026-01-28 23:52:42.30	200.79	27.89	-39.2	-41.2	14.9	0.00e+00	0	59	0	1682964480	50	4412
2026-01-28 23:52:43.31	200.79	27.71	-39.1	-41.1	15.0	0.00e+00	0	59	0	1686110208	50	4341
2026-01-28 23:52:44.32	200.78	27.53	-39.0	-41.0	15.1	0.00e+00	0	59	0	1689255936	50	4316
2026-01-28 23:52:45.33	200.77	27.36	-39.0	-41.0	15.1	0.00e+00	0	59	0	1692401664	50	4318
2026-01-28 23:52:46.34	200.76	27.18	-38.9	-40.8	15.2	0.00e+00	0	59	0	1695547392	49	4470
2026-01-28 23:52:47.35	200.76	27.01	-38.8	-40.8	15.3	0.00e+00	0	59	0	1698693120	49	4442
2026-01-28 23:52:48.36	200.75	26.83	-38.8	-40.7	15.3	0.00e+00	0	59	0	1701838848	49	4425
2026-01-28 23:52:49.37	200.74	26.66	-38.9	-40.8	15.2	0.00e+00	0	59	0	1704984576	49	4484
2026-01-28 23:52:50.39	200.74	26.49	-38.8	-40.7	15.3	0.00e+00	0	59	0	1708130304	49	4400
2026-01-28 23:52:51.40	200.73	26.32	-38.8	-40.6	15.4	0.00e+00	0	59	0	1711276032	49	4388
2026-01-28 23:52:52.41	200.72	26.15	-38.6	-40.5	15.6	0.00e+00	0	59	0	1714421760	49	4293
2026-01-28 23:52:53.42	200.72	25.98	-38.5	-40.3	15.7	0.00e+00	0	59	0	1717567488	49	4201
2026-01-28 23:52:54.43	200.71	25.81	-38.5	-40.4	15.7	0.00e+00	0	59	0	1720713216	48	4494
2026-01-28 23:52:55.43	200.70	25.65	-38.5	-40.3	15.7	0.00e+00	0	59	0	1723858944	48	4483
2026-01-28 23:52:56.44	200.70	25.48	-38.5	-40.3	15.7	0.00e+00	0	59	0	1727004672	48	4464
2026-01-28 23:52:57.46	200.69	25.32	-38.5	-40.3	15.7	0.00e+00	0	59	0	1730150400	48	4481
2026-01-28 23:52:58.47	200.69	25.15	-38.5	-40.3	15.7	0.00e+00	0	59	0	1733296128	48	4467
2026-01-28 23:52:59.48	200.68	24.99	-38.5	-40.3	15.8	0.00e+00	0	59	0	1736441856	48	4444
2026-01-28 23:53:00.49	200.68	24.83	-38.4	-40.2	15.8	0.00e+00	0	59	0	1739587584	48	4417
2026-01-28 23:53:01.50	200.67	24.67	-38.5	-40.3	15.8	0.00e+00	0	59	0	1742733312	48	4444
2026-01-28 23:53:02.51	200.66	24.51	-38.4	-40.2	15.9	0.00e+00	0	59	0	1745879040	48	4393
2026-01-28 23:53:03.52	200.66	24.35	-38.5	-40.3	15.7	0.00e+00	0	59	0	1749024768	48	4453
2026-01-28 23:53:04.53	200.65	24.20	-38.4	-40.2	15.8	0.00e+00	0	59	0	1752170496	48	4407
2026-01-28 23:53:05.54	200.65	24.04	-38.3	-40.1	15.9	0.00e+00	0	59	0	1755316224	48	4351
2026-01-28 23:53:06.55	200.64	23.88	-38.3	-40.0	15.9	0.00e+00	0	59	0	1758461952	48	4338
2026-01-28 23:53:07.56	200.64	23.73	-38.3	-40.1	15.9	0.00e+00	0	59	0	1761607680	48	4365
2026-01-28 23:53:08.57	200.63	23.58	-38.3	-40.1	15.9	0.00e+00	0	59	0	1764753408	48	4357
2026-01-28 23:53:09.58	200.63	23.42	-38.4	-40.2	15.8	0.00e+00	0	59	0	1767899136	48	4395
2026-01-28 23:53:10.59	200.62	23.27	-38.4	-40.2	15.7	0.00e+00	0	58	0	1771044864	48	4421
2026-01-28 23:53:11.60	200.62	23.12	-38.4	-40.2	15.8	0.00e+00	0	59	0	1774190592	48	4406
2026-01-28 23:53:12.61	200.61	22.97	-38.4	-40.2	15.8	0.00e+00	0	59	0	1777336320	48	4416
2026-01-28 23:53:13.62	200.61	22.82	-38.4	-40.2	15.8	0.00e+00	0	59	0	1780482048	48	4399
2026-01-28 23:53:14.63	200.60	22.67	-38.4	-40.1	15.8	0.00e+00	0	59	0	1783627776	48	4388
2026-01-28 23:53:15.64	200.60	22.53	-38.4	-40.2	15.8	0.00e+00	0	59	0	1786773504	48	4398
2026-01-28 23:53:16.65	200.59	22.38	-38.3	-40.1	15.9	0.00e+00	0	59	0	1789919232	48	4351
2026-01-28 23:53:17.66	200.59	22.24	-38.3	-40.1	15.9	0.00e+00	0	59	0	1793064960	48	4361
2026-01-28 23:53:18.67	200.59	22.09	-38.4	-40.1	15.8	0.00e+00	0	59	0	1796210688	48	4380
2026-01-28 23:53:19.68	200.58	21.95	-38.3	-40.1	15.8	0.00e+00	0	59	0	1799356416	48	4368
2026-01-28 23:53:20.69	200.58	21.80	-38.3	-40.1	15.9	0.00e+00	0	59	0	1802502144	48	4352
2026-01-28 23:53:21.70	200.57	21.66	-38.4	-40.1	15.8	0.00e+00	0	59	0	1805647872	48	4390
2026-01-28 23:53:22.71	200.57	21.52	-38.3	-40.1	15.8	0.00e+00	0	59	0	1808793600	48	4363
2026-01-28 23:53:23.72	200.56	21.38	-38.3	-40.1	15.9	0.00e+00	0	59	0	1811939328	48	4354
2026-01-28 23:53:24.73	200.56	21.24	-38.4	-40.2	15.7	0.00e+00	0	59	0	1815085056	48	4437
2026-01-28 23:53:25.74	200.56	21.10	-38.4	-40.2	15.7	0.00e+00	0	59	0	1818230784	48	4422
2026-01-28 23:53:26.75	200.55	20.96	-38.3	-40.1	15.8	0.00e+00	0	59	0	1821376512	48	4376
2026-01-28 23:53:27.76	200.55	20.82	-38.3	-40.1	15.8	0.00e+00	0	59	0	1824522240	48	4367
2026-01-28 23:53:28.77	200.55	20.69	-38.4	-40.2	15.8	0.00e+00	0	59	0	1827667968	48	4404
2026-01-28 23:53:29.78	200.54	20.55	-38.4	-40.2	15.7	0.00e+00	0	59	0	1830813696	48	4402
2026-01-28 23:53:30.80	200.54	20.41	-38.4	-40.3	15.7	0.00e+00	0	59	0	1833959424	48	4445
2026-01-28 23:53:31.81	200.53	20.28	-38.5	-40.3	15.6	0.00e+00	0	59	0	1837105152	48	4468
2026-01-28 23:53:32.82	200.53	20.14	-38.6	-40.4	15.5	0.00e+00	0	58	0	1840250880	48	4525
2026-01-28 23:53:33.83	200.53	20.01	-38.7	-40.5	15.4	0.00e+00	0	59	0	1843396608	48	4583
2026-01-28 23:53:34.84	200.52	19.88	-38.7	-40.5	15.4	0.00e+00	0	59	0	1846542336	48	4592
2026-01-28 23:53:35.85	200.52	19.75	-38.8	-40.7	15.2	0.00e+00	0	59	0	1849688064	48	4662
2026-01-28 23:53:36.86	200.52	19.61	-38.7	-40.7	15.2	0.00e+00	0	59	0	1852833792	48	4655
2026-01-28 23:53:37.87	200.51	19.48	-38.8	-40.7	15.2	0.00e+00	0	59	0	1855979520	48	4679
2026-01-28 23:53:38.88	200.51	19.35	-38.8	-40.7	15.1	0.00e+00	0	59	0	1859125248	48	4689
2026-01-28 23:53:39.89	200.51	19.23	-38.9	-40.8	15.1	0.00e+00	0	59	0	1862270976	48	4738
2026-01-28 23:53:40.90	200.51	19.10	-38.9	-40.8	15.0	0.00e+00	0	59	0	1865416704	48	4751
2026-01-28 23:53:41.91	200.50	18.97	-38.8	-40.8	15.1	0.00e+00	0	59	0	1868562432	48	4720
2026-01-28 23:53:42.92	200.50	18.84	-38.9	-40.9	15.0	0.00e+00	0	59	0	1871708160	48	4779
2026-01-28 23:53:43.93	200.50	18.72	-39.0	-41.0	14.9	0.00e+00	0	59	0	1874853888	48	4821
2026-01-28 23:53:44.94	200.49	18.59	-38.9	-40.9	14.9	0.00e+00	0	59	0	1877999616	48	4792
2026-01-28 23:53:45.95	200.49	18.46	-39.0	-41.0	14.9	7.00e-07	0	59	0	1881145344	48	4843
2026-01-28 23:53:46.97	200.49	18.34	-39.0	-41.1	14.8	0.00e+00	0	59	0	1884291072	48	4891
2026-01-28 23:53:47.98	200.49	18.21	-39.1	-41.2	14.7	0.00e+00	0	59	0	1887436800	48	4949
2026-01-28 23:53:48.99	200.48	18.09	-39.2	-41.3	14.6	0.00e+00	0	59	0	1890582528	48	4991
2026-01-28 23:53:50.00	200.48	17.97	-39.1	-41.2	14.6	0.00e+00	0	59	0	1894776832	48	4946
2026-01-28 23:53:51.01	200.48	17.85	-39.2	-41.3	14.5	2.20e-06	0	59	0	1897922560	48	5017
2026-01-28 23:53:52.02	200.48	17.72	-39.2	-41.4	14.5	0.00e+00	0	59	0	1901068288	49	4760
2026-01-28 23:53:53.03	200.47	17.60	-39.2	-41.3	14.5	1.50e-06	0	59	0	1903165440	49	4744
2026-01-28 23:53:54.04	200.47	17.48	-39.3	-41.4	14.4	7.00e-07	0	59	0	1906311168	49	4770
2026-01-28 23:53:55.05	200.47	17.36	-39.3	-41.4	14.4	0.00e+00	0	59	0	1910505472	49	4810
2026-01-28 23:53:56.06	200.47	17.24	-39.3	-41.4	14.4	7.00e-07	0	59	0	1913651200	49	4808
2026-01-28 23:53:57.07	200.46	17.13	-39.3	-41.5	14.4	0.00e+00	0	59	0	1916796928	49	4817
2026-01-28 23:53:58.08	200.46	17.01	-39.4	-41.5	14.3	2.20e-06	0	59	0	1919942656	49	4862
2026-01-28 23:53:59.09	200.46	16.89	-39.4	-41.5	14.3	1.50e-06	0	59	0	1923088384	49	4842
2026-01-28 23:54:00.10	200.46	16.77	-39.3	-41.5	14.3	1.50e-06	0	59	0	1926234112	49	4816
2026-01-28 23:54:01.12	200.45	16.66	-39.3	-41.4	14.4	7.00e-07	0	59	0	1929379840	49	4786
2026-01-28 23:54:02.13	200.45	16.54	-39.3	-41.5	14.3	2.20e-06	0	59	0	1932525568	49	4828
2026-01-28 23:54:03.14	200.45	16.43	-39.3	-41.4	14.3	7.00e-07	0	59	0	1935671296	49	4812
2026-01-28 23:54:04.15	200.45	16.31	-39.4	-41.5	14.2	2.20e-06	0	59	0	1938817024	49	4865
2026-01-28 23:54:05.16	200.45	16.20	-39.4	-41.5	14.2	7.00e-07	0	59	0	1941962752	49	4866
2026-01-28 23:54:06.17	200.44	16.08	-39.4	-41.6	14.1	0.00e+00	0	59	0	1945108480	49	4919
