passes_logs/2026/01/28/R2.0S_Moscow/R2.0S_Moscow__20260128_113341_NOAA_21_JPSS-2_rec.log

#Pass ID: 20260128_113341_NOAA 21 (JPSS-2)
#Satellite: NOAA 21 (JPSS-2)
#Configuration: NOAA-21
#almurnet v.1.7.20251203
#Start time: 2026-01-28 11:33:41

#Version: 2.2.20231116
#Station: R2.0S_Moscow
#Location: 37.707566 lon 55.798166 lat
#TLE: 1 54234U 22150A   26027.55906748  .00000170  00000+0  10132-3 0  9996
#TLE: 2 54234  98.7510 328.3076 0000860 204.4692 155.6443 14.19540154166599

#Time	Az	El	Level	Level2	SNR	BER	BlckErr	Temp	State	Recorded	gain1	gain2
2026-01-28 11:33:41.69	210.64	2.04	-44.1	-56.5	3.8	1.49e+00	0	58	0	0	59	15400
2026-01-28 11:33:42.69	210.72	2.09	-44.1	-56.6	3.8	1.49e+00	0	58	104	0	59	15409
2026-01-28 11:33:43.70	210.80	2.14	-44.1	-56.6	3.8	1.49e+00	0	58	104	0	59	15444
2026-01-28 11:33:44.72	210.88	2.20	-44.1	-56.6	3.8	1.49e+00	0	58	104	0	59	15437
2026-01-28 11:33:45.73	210.95	2.25	-44.1	-56.6	3.8	1.49e+00	0	58	104	0	59	15402
2026-01-28 11:33:46.74	211.03	2.31	-44.1	-56.5	3.8	1.49e+00	0	58	104	0	59	15399
2026-01-28 11:33:47.75	211.11	2.36	-44.1	-56.6	3.8	1.49e+00	0	58	104	0	59	15404
2026-01-28 11:33:48.76	211.19	2.42	-44.1	-56.6	3.8	1.49e+00	0	58	104	0	59	15440
2026-01-28 11:33:49.77	211.27	2.47	-44.1	-56.6	3.8	1.49e+00	0	58	104	0	59	15414
2026-01-28 11:33:50.78	211.35	2.53	-44.1	-56.5	3.8	1.49e+00	0	58	104	0	59	15393
2026-01-28 11:33:51.78	211.42	2.58	-44.1	-56.5	3.8	1.49e+00	0	58	104	0	59	15392
2026-01-28 11:33:52.80	211.50	2.64	-44.1	-56.5	3.8	1.49e+00	0	58	104	0	59	15386
2026-01-28 11:33:53.81	211.58	2.69	-44.1	-56.5	3.8	1.49e+00	0	59	104	0	59	15358
2026-01-28 11:33:54.82	211.66	2.75	-44.1	-56.5	3.8	1.49e+00	0	59	104	0	59	15390
2026-01-28 11:33:55.83	211.74	2.80	-44.1	-56.6	3.8	1.49e+00	0	59	104	0	59	15435
2026-01-28 11:33:56.84	211.82	2.86	-44.1	-56.6	3.8	1.49e+00	0	59	104	0	59	15420
2026-01-28 11:33:57.85	211.91	2.91	-44.1	-56.5	3.8	1.49e+00	0	59	104	0	59	15349
2026-01-28 11:33:58.86	211.99	2.97	-44.1	-56.6	3.8	1.49e+00	0	58	104	0	59	15413
2026-01-28 11:33:59.87	212.07	3.02	-44.1	-56.5	3.8	1.49e+00	0	59	104	0	59	15377
2026-01-28 11:34:00.88	212.15	3.08	-44.1	-56.6	3.8	1.49e+00	0	59	104	0	59	15402
2026-01-28 11:34:01.89	212.23	3.13	-44.1	-56.5	3.8	1.49e+00	0	59	104	0	59	15396
2026-01-28 11:34:02.90	212.31	3.19	-44.1	-56.5	3.8	1.49e+00	0	59	104	0	59	15379
2026-01-28 11:34:03.91	212.40	3.25	-44.1	-56.6	3.8	1.49e+00	0	59	104	0	59	15403
2026-01-28 11:34:04.92	212.48	3.30	-44.1	-56.5	3.8	1.49e+00	0	58	104	0	59	15364
2026-01-28 11:34:05.93	212.56	3.36	-44.1	-56.5	3.8	1.49e+00	0	59	104	0	59	15378
2026-01-28 11:34:06.94	212.65	3.41	-44.1	-56.6	3.8	1.49e+00	0	58	104	0	59	15433
2026-01-28 11:34:07.95	212.73	3.47	-44.1	-56.6	3.8	1.49e+00	0	59	104	0	59	15429
2026-01-28 11:34:08.96	212.82	3.53	-44.1	-56.5	3.8	1.49e+00	0	59	104	0	59	15349
2026-01-28 11:34:09.97	212.90	3.58	-44.1	-56.6	3.8	1.49e+00	0	59	104	0	59	15402
2026-01-28 11:34:10.98	212.99	3.64	-44.1	-56.5	3.8	1.49e+00	0	59	104	0	59	15386
2026-01-28 11:34:11.99	213.07	3.69	-44.1	-56.6	3.8	1.49e+00	0	59	104	0	59	15410
2026-01-28 11:34:13.00	213.16	3.75	-44.1	-56.5	3.8	1.49e+00	0	59	104	0	59	15345
2026-01-28 11:34:14.00	213.24	3.81	-44.1	-56.5	3.8	1.49e+00	0	59	104	0	59	15359
2026-01-28 11:34:15.01	213.33	3.86	-44.1	-56.5	3.8	1.49e+00	0	59	104	0	59	15389
2026-01-28 11:34:16.03	213.41	3.92	-44.1	-56.6	3.8	1.49e+00	0	59	104	0	59	15422
2026-01-28 11:34:17.04	213.50	3.98	-44.1	-56.5	3.8	1.49e+00	0	59	104	0	59	15360
2026-01-28 11:34:18.05	213.59	4.03	-44.1	-56.6	3.8	1.49e+00	0	59	104	0	59	15404
2026-01-28 11:34:19.06	213.68	4.09	-44.1	-56.5	3.8	1.49e+00	0	59	104	0	59	15364
2026-01-28 11:34:20.07	213.76	4.15	-44.1	-56.5	3.8	1.49e+00	0	59	104	0	59	15384
2026-01-28 11:34:21.08	213.85	4.20	-44.1	-56.5	3.8	1.49e+00	0	59	104	0	59	15325
2026-01-28 11:34:22.09	213.94	4.26	-44.1	-56.5	3.8	1.49e+00	0	59	104	0	59	15343
2026-01-28 11:34:23.10	214.03	4.32	-44.1	-56.5	3.8	1.49e+00	0	59	104	0	59	15351
2026-01-28 11:34:24.11	214.12	4.37	-44.1	-56.5	3.8	1.49e+00	0	59	104	0	59	15382
2026-01-28 11:34:25.12	214.21	4.43	-44.1	-56.5	3.8	1.49e+00	0	59	104	0	59	15339
2026-01-28 11:34:26.13	214.30	4.49	-44.1	-56.5	3.8	1.49e+00	0	59	104	0	59	15298
2026-01-28 11:34:27.14	214.39	4.54	-44.1	-56.5	3.8	1.49e+00	0	59	104	0	59	15306
2026-01-28 11:34:28.15	214.48	4.60	-44.1	-56.5	3.8	1.49e+00	0	59	104	0	59	15321
2026-01-28 11:34:29.16	214.57	4.66	-44.1	-56.5	3.8	1.49e+00	0	59	104	0	59	15319
2026-01-28 11:34:30.17	214.66	4.72	-44.1	-56.5	3.8	1.49e+00	0	59	104	0	59	15392
2026-01-28 11:34:31.18	214.75	4.77	-44.1	-56.5	3.8	1.49e+00	0	59	104	0	59	15334
2026-01-28 11:34:32.19	214.84	4.83	-44.1	-56.5	3.8	1.49e+00	0	59	104	0	59	15365
2026-01-28 11:34:33.20	214.93	4.89	-44.1	-56.5	3.8	1.49e+00	0	59	104	0	59	15371
2026-01-28 11:34:34.21	215.03	4.95	-44.1	-56.5	3.8	1.49e+00	0	59	104	0	59	15290
2026-01-28 11:34:35.23	215.12	5.01	-44.1	-56.5	3.8	1.49e+00	0	59	104	0	59	15285
2026-01-28 11:34:36.23	215.21	5.06	-44.1	-56.5	3.8	1.49e+00	0	59	104	0	59	15285
2026-01-28 11:34:37.25	215.31	5.12	-44.1	-56.5	3.8	1.49e+00	0	59	104	0	59	15229
2026-01-28 11:34:38.26	215.40	5.18	-44.1	-56.5	3.8	1.49e+00	0	59	104	0	59	15277
2026-01-28 11:34:39.27	215.50	5.24	-44.1	-56.5	3.8	1.49e+00	0	59	104	0	59	15309
2026-01-28 11:34:40.28	215.59	5.29	-44.1	-56.5	3.8	1.49e+00	0	59	104	0	59	15266
2026-01-28 11:34:41.29	215.68	5.35	-44.1	-56.5	3.8	1.49e+00	0	59	104	0	59	15322
2026-01-28 11:34:42.30	215.78	5.41	-44.1	-56.5	3.8	1.49e+00	0	59	104	0	59	15335
2026-01-28 11:34:43.31	215.88	5.47	-44.1	-56.5	3.8	1.49e+00	0	59	104	0	59	15307
2026-01-28 11:34:44.32	215.97	5.53	-44.1	-56.5	3.8	1.49e+00	0	59	104	0	59	15347
2026-01-28 11:34:45.33	216.07	5.59	-44.1	-56.5	3.8	1.49e+00	0	59	104	0	59	15309
2026-01-28 11:34:46.34	216.17	5.64	-44.1	-56.5	3.8	1.49e+00	0	59	104	0	59	15301
2026-01-28 11:34:47.35	216.26	5.70	-44.1	-56.5	3.8	1.49e+00	0	59	104	0	59	15244
2026-01-28 11:34:48.36	216.36	5.76	-44.1	-56.4	3.8	1.49e+00	0	59	104	0	59	15169
2026-01-28 11:34:49.37	216.46	5.82	-44.1	-56.4	3.8	1.49e+00	0	59	104	0	59	15107
2026-01-28 11:34:50.39	216.56	5.88	-44.1	-56.3	3.8	1.49e+00	0	59	104	0	59	14995
2026-01-28 11:34:51.39	216.65	5.94	-44.1	-56.3	3.8	1.49e+00	0	59	104	0	59	14933
2026-01-28 11:34:52.41	216.76	6.00	-44.1	-56.2	3.8	1.49e+00	0	59	104	0	59	14821
2026-01-28 11:34:53.42	216.85	6.06	-43.7	-56.2	3.8	1.49e+00	0	59	104	0	59	14825
2026-01-28 11:34:54.43	216.95	6.11	-43.8	-56.2	3.8	1.49e+00	0	59	104	0	58	15581
2026-01-28 11:34:55.44	217.05	6.17	-44.0	-56.1	3.8	1.49e+00	0	59	104	0	58	15439
2026-01-28 11:34:56.45	217.16	6.23	-44.0	-55.9	3.8	1.49e+00	0	59	104	0	58	15208
2026-01-28 11:34:57.46	217.26	6.29	-44.0	-55.8	3.8	1.49e+00	0	59	104	0	58	14962
2026-01-28 11:34:58.47	217.36	6.35	-44.0	-55.7	3.8	1.49e+00	0	59	104	0	58	14745
2026-01-28 11:34:59.48	217.46	6.41	-44.0	-55.4	3.8	1.49e+00	0	59	104	0	58	14366
2026-01-28 11:35:00.49	217.56	6.47	-44.0	-55.2	3.8	1.49e+00	0	59	104	0	58	14021
2026-01-28 11:35:01.50	217.66	6.53	-43.9	-55.1	3.8	1.49e+00	0	60	104	0	58	13750
2026-01-28 11:35:02.51	217.77	6.59	-43.9	-54.8	3.8	1.49e+00	0	59	104	0	58	13284
2026-01-28 11:35:03.52	217.87	6.65	-43.8	-54.1	4.0	1.49e+00	0	60	104	0	58	12287
2026-01-28 11:35:04.53	217.97	6.71	-43.8	-54.0	3.9	1.48e+00	0	59	104	0	58	12178
2026-01-28 11:35:05.54	218.08	6.77	-43.8	-53.1	4.2	1.47e+00	0	60	104	0	58	11022
2026-01-28 11:35:06.55	218.18	6.83	-43.7	-52.9	4.2	1.45e+00	0	59	104	0	58	10688
2026-01-28 11:35:07.56	218.29	6.88	-43.6	-52.4	4.4	1.45e+00	0	60	104	0	58	10095
2026-01-28 11:35:08.57	218.39	6.94	-43.6	-51.9	4.5	1.30e+00	2	60	104	0	58	9600
2026-01-28 11:35:09.58	218.50	7.00	-43.3	-51.4	4.8	8.89e-01	0	59	104	0	58	9000
2026-01-28 11:35:10.59	218.61	7.06	-43.4	-50.9	5.0	7.66e-01	0	59	0	0	58	8559
2026-01-28 11:35:11.60	218.71	7.12	-43.1	-50.3	5.4	5.62e-01	0	59	0	3145728	57	8374
2026-01-28 11:35:12.61	218.82	7.18	-43.1	-49.7	5.8	4.20e-01	0	59	0	6291456	57	7846
2026-01-28 11:35:13.62	218.93	7.24	-42.9	-49.0	6.3	2.97e-01	0	59	0	9437184	57	7259
2026-01-28 11:35:14.63	219.04	7.30	-42.7	-48.3	6.9	1.90e-01	0	59	0	12582912	57	6689
2026-01-28 11:35:15.64	219.14	7.36	-42.4	-47.5	7.6	9.85e-02	0	60	0	15728640	56	6483
2026-01-28 11:35:16.65	219.25	7.42	-42.1	-46.8	8.4	5.10e-02	0	59	0	19922944	56	5945
2026-01-28 11:35:17.66	219.36	7.48	-41.7	-46.0	9.1	2.90e-02	0	60	0	23068672	55	5736
2026-01-28 11:35:18.67	219.47	7.54	-41.4	-45.2	9.8	1.32e-02	0	59	0	26214400	54	5589
2026-01-28 11:35:19.68	219.58	7.61	-41.2	-44.9	10.2	6.79e-03	0	60	0	28311552	54	5367
2026-01-28 11:35:20.69	219.69	7.67	-40.9	-44.4	10.7	3.61e-03	0	60	0	31457280	53	5360
2026-01-28 11:35:21.71	219.81	7.73	-40.7	-44.0	11.1	1.69e-03	0	60	0	35651584	53	5152
2026-01-28 11:35:22.72	219.92	7.79	-40.6	-43.8	11.3	1.16e-03	0	59	0	38797312	53	5007
2026-01-28 11:35:23.73	220.03	7.85	-40.7	-43.9	11.2	1.38e-03	0	59	0	41943040	53	5080
2026-01-28 11:35:24.73	220.14	7.91	-40.9	-44.3	10.8	1.82e-03	0	60	0	45088768	53	5311
2026-01-28 11:35:25.75	220.25	7.97	-41.1	-44.7	10.4	3.29e-03	0	59	0	48234496	53	5538
2026-01-28 11:35:26.76	220.37	8.03	-41.5	-45.4	9.6	8.34e-03	0	59	0	51380224	53	6049
2026-01-28 11:35:27.77	220.48	8.09	-42.1	-46.5	9.0	5.79e-04	0	60	0	54525952	54	6422
2026-01-28 11:35:28.78	220.60	8.15	-43.5	-51.4	5.2	1.85e-02	0	59	0	57671680	57	9577
2026-01-28 11:35:29.79	220.71	8.21	-40.8	-43.9	11.3	1.71e-01	0	59	104	57671680	53	5074
2026-01-28 11:35:30.80	220.83	8.27	-40.9	-44.1	11.2	1.05e-03	0	59	0	60817408	53	5199
2026-01-28 11:35:31.81	220.94	8.33	-43.1	-49.4	6.3	6.51e-04	0	60	0	63963136	56	8026
2026-01-28 11:35:32.82	221.06	8.39	-40.5	-43.5	11.8	6.53e-02	0	60	0	63963136	53	4820
2026-01-28 11:35:33.83	221.17	8.46	-40.4	-43.3	12.0	3.98e-04	0	60	0	67108864	52	4992
2026-01-28 11:35:34.84	221.29	8.52	-40.2	-42.9	12.3	1.64e-04	0	59	0	70254592	52	4813
2026-01-28 11:35:35.85	221.41	8.58	-40.0	-42.7	12.6	9.68e-05	0	60	0	73400320	52	4671
2026-01-28 11:35:36.86	221.53	8.64	-40.0	-42.7	12.7	8.39e-05	0	60	0	76546048	51	4935
2026-01-28 11:35:37.87	221.65	8.70	-40.0	-42.7	12.7	5.95e-05	0	60	0	79691776	51	4956
2026-01-28 11:35:38.88	221.76	8.76	-40.1	-42.8	12.6	7.55e-05	0	60	0	82837504	51	5008
2026-01-28 11:35:39.89	221.88	8.82	-40.0	-42.7	12.6	8.92e-05	0	60	0	85983232	51	4958
2026-01-28 11:35:40.90	222.00	8.88	-39.9	-42.5	12.8	7.17e-05	0	60	0	90177536	51	4864
2026-01-28 11:35:41.91	222.12	8.95	-40.0	-42.6	12.8	4.57e-05	0	60	0	92274688	51	4913
2026-01-28 11:35:42.92	222.24	9.01	-40.0	-42.6	12.8	4.34e-05	0	60	0	95420416	51	4894
2026-01-28 11:35:43.93	222.37	9.07	-40.0	-42.6	12.8	5.95e-05	0	60	0	98566144	51	4925
2026-01-28 11:35:44.94	222.49	9.13	-39.9	-42.5	13.0	4.57e-05	0	60	0	101711872	51	4824
2026-01-28 11:35:45.95	222.61	9.19	-39.9	-42.4	13.0	3.58e-05	0	60	0	105906176	51	4811
2026-01-28 11:35:46.96	222.73	9.25	-39.8	-42.3	13.2	2.13e-05	0	60	0	109051904	51	4728
2026-01-28 11:35:47.97	222.86	9.32	-39.9	-42.4	13.1	2.51e-05	0	60	0	112197632	51	4773
2026-01-28 11:35:48.98	222.98	9.38	-39.8	-42.3	13.2	1.60e-05	0	60	0	115343360	51	4714
2026-01-28 11:35:49.99	223.11	9.44	-39.8	-42.3	13.2	1.90e-05	0	60	0	117440512	51	4749
2026-01-28 11:35:51.00	223.23	9.50	-39.9	-42.4	13.1	2.51e-05	0	60	0	121634816	51	4807
2026-01-28 11:35:52.01	223.36	9.56	-39.8	-42.3	13.2	1.98e-05	0	59	0	124780544	51	4752
2026-01-28 11:35:53.02	223.48	9.62	-39.9	-42.4	13.1	3.43e-05	0	60	0	127926272	51	4807
2026-01-28 11:35:54.03	223.61	9.69	-39.7	-42.2	13.4	1.67e-05	0	60	0	131072000	51	4668
2026-01-28 11:35:55.04	223.74	9.75	-39.8	-42.3	13.2	3.20e-05	0	60	0	134217728	51	4732
2026-01-28 11:35:56.05	223.86	9.81	-39.7	-42.1	13.4	1.52e-05	0	60	0	137363456	51	4649
2026-01-28 11:35:57.05	223.99	9.87	-39.7	-42.1	13.4	2.05e-05	0	60	0	140509184	51	4646
2026-01-28 11:35:58.06	224.12	9.93	-39.7	-42.2	13.4	1.52e-05	0	60	0	143654912	51	4658
2026-01-28 11:35:59.08	224.25	10.00	-39.8	-42.2	13.3	1.67e-05	0	60	0	146800640	51	4694
2026-01-28 11:36:00.08	224.38	10.06	-39.6	-42.0	13.5	6.10e-06	0	60	0	149946368	51	4587
2026-01-28 11:36:01.09	224.51	10.12	-39.6	-42.0	13.6	1.14e-05	0	60	0	153092096	51	4581
2026-01-28 11:36:02.10	224.64	10.18	-39.7	-42.1	13.5	1.44e-05	0	60	0	156237824	51	4601
2026-01-28 11:36:03.11	224.77	10.24	-39.7	-42.1	13.5	1.14e-05	0	60	0	159383552	51	4615
2026-01-28 11:36:04.12	224.90	10.31	-39.5	-41.9	13.7	5.30e-06	0	60	0	162529280	51	4494
2026-01-28 11:36:05.13	225.03	10.37	-39.6	-42.0	13.6	1.06e-05	0	60	0	165675008	51	4552
2026-01-28 11:36:06.14	225.17	10.43	-39.6	-41.9	13.7	3.80e-06	0	60	0	168820736	51	4527
2026-01-28 11:36:07.15	225.30	10.49	-39.5	-41.9	13.7	1.29e-05	0	60	0	171966464	51	4500
2026-01-28 11:36:08.16	225.43	10.55	-39.5	-41.8	13.9	7.60e-06	0	60	0	175112192	51	4442
2026-01-28 11:36:09.18	225.57	10.62	-39.5	-41.8	13.8	1.50e-06	0	60	0	178257920	50	4723
2026-01-28 11:36:10.18	225.70	10.68	-39.5	-41.7	13.9	3.00e-06	0	60	0	181403648	50	4703
2026-01-28 11:36:11.20	225.84	10.74	-39.5	-41.7	13.9	4.50e-06	0	60	0	184549376	50	4705
2026-01-28 11:36:12.21	225.98	10.80	-39.4	-41.6	14.0	2.20e-06	0	60	0	187695104	50	4641
2026-01-28 11:36:13.22	226.11	10.87	-39.4	-41.6	14.0	5.30e-06	0	60	0	190840832	50	4616
2026-01-28 11:36:14.23	226.25	10.93	-39.4	-41.7	14.0	3.80e-06	0	60	0	193986560	50	4656
2026-01-28 11:36:15.24	226.39	10.99	-39.2	-41.4	14.2	1.50e-06	0	60	0	197132288	50	4528
2026-01-28 11:36:16.25	226.53	11.05	-39.2	-41.4	14.3	0.00e+00	0	60	0	200278016	50	4503
2026-01-28 11:36:17.25	226.66	11.11	-39.2	-41.4	14.2	2.20e-06	0	60	0	203423744	50	4511
2026-01-28 11:36:18.26	226.80	11.18	-39.2	-41.3	14.3	7.00e-07	0	60	0	206569472	50	4481
2026-01-28 11:36:19.27	226.94	11.24	-39.1	-41.2	14.5	0.00e+00	0	60	0	209715200	50	4413
2026-01-28 11:36:20.28	227.08	11.30	-39.1	-41.3	14.4	0.00e+00	0	60	0	212860928	50	4445
2026-01-28 11:36:21.29	227.23	11.36	-39.1	-41.2	14.5	0.00e+00	0	60	0	216006656	50	4413
2026-01-28 11:36:22.30	227.37	11.43	-39.1	-41.2	14.5	0.00e+00	0	60	0	219152384	50	4428
2026-01-28 11:36:23.31	227.51	11.49	-39.1	-41.2	14.5	0.00e+00	0	60	0	222298112	50	4420
2026-01-28 11:36:24.32	227.65	11.55	-39.1	-41.2	14.5	7.00e-07	0	60	0	225443840	50	4410
2026-01-28 11:36:25.33	227.80	11.61	-39.1	-41.3	14.4	1.50e-06	0	60	0	228589568	50	4448
2026-01-28 11:36:26.34	227.94	11.68	-39.1	-41.2	14.5	7.00e-07	0	60	0	231735296	50	4439
2026-01-28 11:36:27.35	228.09	11.74	-39.1	-41.3	14.5	0.00e+00	0	60	0	234881024	50	4449
2026-01-28 11:36:28.36	228.23	11.80	-39.2	-41.3	14.4	7.00e-07	0	60	0	238026752	50	4456
2026-01-28 11:36:29.37	228.38	11.86	-39.2	-41.3	14.4	0.00e+00	0	60	0	241172480	50	4484
2026-01-28 11:36:30.38	228.52	11.93	-39.2	-41.3	14.3	7.00e-07	0	60	0	244318208	50	4478
2026-01-28 11:36:31.39	228.67	11.99	-39.2	-41.3	14.4	1.50e-06	0	60	0	247463936	50	4485
2026-01-28 11:36:32.40	228.82	12.05	-39.1	-41.2	14.4	0.00e+00	0	60	0	250609664	50	4441
2026-01-28 11:36:33.41	228.97	12.11	-39.1	-41.3	14.4	1.50e-06	0	60	0	253755392	50	4449
2026-01-28 11:36:34.42	229.12	12.17	-39.2	-41.4	14.3	7.00e-07	0	60	0	256901120	50	4510
2026-01-28 11:36:35.43	229.27	12.24	-39.2	-41.4	14.4	7.00e-07	0	60	0	260046848	50	4503
2026-01-28 11:36:36.44	229.42	12.30	-39.3	-41.4	14.3	7.00e-07	0	60	0	263192576	50	4543
2026-01-28 11:36:37.45	229.57	12.36	-39.4	-41.6	14.2	7.00e-07	0	60	0	266338304	50	4607
2026-01-28 11:36:38.46	229.72	12.42	-39.3	-41.5	14.2	0.00e+00	0	60	0	269484032	50	4570
2026-01-28 11:36:39.47	229.87	12.49	-39.3	-41.5	14.3	1.50e-06	0	60	0	272629760	50	4565
2026-01-28 11:36:40.48	230.02	12.55	-39.3	-41.5	14.3	3.00e-06	0	60	0	275775488	50	4568
2026-01-28 11:36:41.49	230.18	12.61	-39.4	-41.6	14.2	0.00e+00	0	60	0	278921216	50	4609
2026-01-28 11:36:42.50	230.33	12.67	-39.4	-41.6	14.2	2.20e-06	0	60	0	282066944	50	4608
2026-01-28 11:36:43.51	230.49	12.73	-39.3	-41.4	14.3	0.00e+00	0	60	0	285212672	50	4528
2026-01-28 11:36:44.51	230.64	12.80	-39.2	-41.3	14.4	7.00e-07	0	60	0	288358400	50	4491
2026-01-28 11:36:45.52	230.80	12.86	-39.2	-41.4	14.4	7.00e-07	0	60	0	291504128	50	4494
2026-01-28 11:36:46.53	230.95	12.92	-39.2	-41.3	14.4	7.00e-07	0	60	0	294649856	50	4492
2026-01-28 11:36:47.54	231.11	12.98	-39.2	-41.3	14.5	2.20e-06	0	60	0	297795584	50	4466
2026-01-28 11:36:48.55	231.27	13.04	-39.2	-41.3	14.5	7.00e-07	0	60	0	300941312	50	4459
2026-01-28 11:36:49.56	231.43	13.11	-39.1	-41.2	14.6	7.00e-07	0	60	0	304087040	50	4419
2026-01-28 11:36:50.57	231.58	13.17	-39.1	-41.2	14.5	7.00e-07	0	60	0	307232768	50	4440
2026-01-28 11:36:51.58	231.74	13.23	-39.1	-41.2	14.6	0.00e+00	0	60	0	310378496	50	4394
2026-01-28 11:36:52.59	231.90	13.29	-39.0	-41.1	14.7	7.00e-07	0	60	0	313524224	50	4344
2026-01-28 11:36:53.60	232.07	13.35	-39.0	-41.0	14.7	0.00e+00	0	60	0	316669952	50	4337
2026-01-28 11:36:54.61	232.23	13.41	-39.0	-41.1	14.7	7.00e-07	0	60	0	319815680	50	4352
2026-01-28 11:36:55.62	232.39	13.48	-39.1	-41.1	14.6	0.00e+00	0	60	0	322961408	50	4386
2026-01-28 11:36:56.63	232.55	13.54	-39.0	-41.0	14.7	0.00e+00	0	60	0	326107136	50	4329
2026-01-28 11:36:57.64	232.72	13.60	-39.1	-41.2	14.6	0.00e+00	0	60	0	329252864	50	4396
2026-01-28 11:36:58.65	232.88	13.66	-39.1	-41.1	14.7	0.00e+00	0	60	0	332398592	50	4381
2026-01-28 11:36:59.66	233.05	13.72	-39.0	-41.0	14.7	0.00e+00	0	60	0	335544320	50	4334
2026-01-28 11:37:00.65	233.21	13.78	-39.0	-41.0	14.8	0.00e+00	0	60	0	338690048	50	4327
2026-01-28 11:37:01.66	233.37	13.84	-39.0	-41.1	14.7	0.00e+00	0	60	0	341835776	50	4358
2026-01-28 11:37:02.67	233.54	13.90	-39.0	-41.1	14.8	0.00e+00	0	60	0	344981504	50	4359
2026-01-28 11:37:03.68	233.71	13.97	-39.1	-41.1	14.7	0.00e+00	0	60	0	348127232	50	4388
2026-01-28 11:37:04.69	233.88	14.03	-39.1	-41.1	14.7	0.00e+00	0	60	0	351272960	50	4371
2026-01-28 11:37:05.70	234.05	14.09	-39.1	-41.1	14.7	0.00e+00	0	60	0	354418688	50	4376
2026-01-28 11:37:06.71	234.22	14.15	-39.1	-41.2	14.6	0.00e+00	0	60	0	357564416	50	4399
2026-01-28 11:37:07.72	234.39	14.21	-39.0	-41.1	14.7	7.00e-07	0	60	0	360710144	50	4362
2026-01-28 11:37:08.73	234.56	14.27	-39.0	-41.0	14.8	7.00e-07	0	60	0	363855872	50	4317
2026-01-28 11:37:09.74	234.73	14.33	-39.0	-41.0	14.8	0.00e+00	0	60	0	367001600	49	4582
2026-01-28 11:37:10.75	234.90	14.39	-38.9	-40.9	14.9	1.50e-06	0	60	0	370147328	49	4534
2026-01-28 11:37:11.76	235.07	14.45	-38.9	-40.9	14.9	0.00e+00	0	60	0	373293056	49	4531
2026-01-28 11:37:12.77	235.25	14.51	-38.9	-40.9	14.9	0.00e+00	0	60	0	376438784	49	4530
2026-01-28 11:37:13.78	235.42	14.57	-39.0	-41.1	14.8	7.00e-07	0	60	0	379584512	49	4599
2026-01-28 11:37:14.79	235.60	14.63	-38.9	-41.0	14.8	0.00e+00	0	60	0	382730240	49	4550
2026-01-28 11:37:15.80	235.77	14.69	-39.0	-41.1	14.7	0.00e+00	0	60	0	385875968	49	4615
2026-01-28 11:37:16.81	235.95	14.75	-39.0	-41.0	14.7	0.00e+00	0	60	0	389021696	49	4591
2026-01-28 11:37:17.82	236.13	14.81	-39.0	-41.1	14.7	0.00e+00	0	60	0	392167424	49	4613
2026-01-28 11:37:18.83	236.31	14.87	-39.1	-41.2	14.6	2.20e-06	0	60	0	395313152	49	4686
2026-01-28 11:37:19.84	236.48	14.93	-39.1	-41.2	14.6	0.00e+00	0	60	0	398458880	49	4688
2026-01-28 11:37:20.85	236.66	14.99	-39.1	-41.2	14.7	1.50e-06	0	60	0	401604608	49	4665
2026-01-28 11:37:21.86	236.84	15.05	-39.1	-41.2	14.6	0.00e+00	0	60	0	404750336	49	4694
2026-01-28 11:37:22.88	237.03	15.11	-39.1	-41.2	14.7	0.00e+00	0	60	0	407896064	49	4652
2026-01-28 11:37:23.89	237.21	15.17	-39.2	-41.2	14.6	0.00e+00	0	60	0	411041792	49	4695
2026-01-28 11:37:24.89	237.39	15.23	-39.1	-41.2	14.6	0.00e+00	0	60	0	414187520	49	4652
2026-01-28 11:37:25.90	237.57	15.29	-39.1	-41.2	14.7	0.00e+00	0	60	0	417333248	49	4657
2026-01-28 11:37:26.92	237.75	15.35	-39.0	-41.1	14.8	7.00e-07	0	60	0	420478976	49	4605
2026-01-28 11:37:27.93	237.94	15.40	-39.1	-41.1	14.7	0.00e+00	0	60	0	423624704	49	4645
2026-01-28 11:37:28.94	238.12	15.46	-39.1	-41.1	14.7	0.00e+00	0	60	0	426770432	49	4647
2026-01-28 11:37:29.95	238.31	15.52	-39.1	-41.1	14.7	0.00e+00	0	60	0	430964736	49	4646
2026-01-28 11:37:30.96	238.50	15.58	-39.2	-41.2	14.6	0.00e+00	0	60	0	433061888	49	4698
2026-01-28 11:37:31.97	238.68	15.64	-39.1	-41.2	14.6	0.00e+00	0	60	0	436207616	49	4683
2026-01-28 11:37:32.98	238.87	15.70	-39.2	-41.2	14.6	0.00e+00	0	60	0	439353344	49	4699
2026-01-28 11:37:33.99	239.06	15.75	-39.1	-41.2	14.7	0.00e+00	0	60	0	442499072	49	4656
2026-01-28 11:37:35.00	239.25	15.81	-39.1	-41.2	14.7	1.50e-06	0	60	0	446693376	49	4669
2026-01-28 11:37:36.01	239.44	15.87	-39.2	-41.2	14.6	0.00e+00	0	60	0	449839104	49	4694
2026-01-28 11:37:37.02	239.63	15.93	-39.2	-41.3	14.6	7.00e-07	0	60	0	452984832	49	4732
2026-01-28 11:37:38.03	239.82	15.98	-39.3	-41.4	14.5	2.20e-06	0	60	0	456130560	49	4793
2026-01-28 11:37:39.04	240.01	16.04	-39.3	-41.4	14.4	0.00e+00	0	60	0	458227712	49	4791
2026-01-28 11:37:40.05	240.20	16.10	-39.3	-41.4	14.5	0.00e+00	0	60	0	462422016	49	4787
2026-01-28 11:37:41.06	240.40	16.15	-39.3	-41.4	14.5	0.00e+00	0	60	0	465567744	49	4781
2026-01-28 11:37:42.07	240.59	16.21	-39.2	-41.3	14.6	0.00e+00	0	60	0	468713472	49	4731
2026-01-28 11:37:43.08	240.79	16.27	-39.2	-41.3	14.6	0.00e+00	0	60	0	471859200	49	4715
2026-01-28 11:37:44.09	240.98	16.32	-39.2	-41.2	14.6	0.00e+00	0	60	0	475004928	49	4696
2026-01-28 11:37:45.10	241.18	16.38	-39.1	-41.1	14.7	0.00e+00	0	60	0	478150656	49	4648
2026-01-28 11:37:46.10	241.37	16.43	-39.1	-41.2	14.7	7.00e-07	0	60	0	481296384	49	4663
2026-01-28 11:37:47.12	241.57	16.49	-39.0	-41.1	14.8	0.00e+00	0	60	0	484442112	49	4599
2026-01-28 11:37:48.13	241.77	16.54	-39.0	-41.0	14.9	0.00e+00	0	60	0	487587840	49	4574
2026-01-28 11:37:49.13	241.97	16.60	-39.0	-41.0	14.9	0.00e+00	0	60	0	490733568	49	4557
2026-01-28 11:37:50.14	242.17	16.65	-39.1	-41.1	14.8	0.00e+00	0	60	0	493879296	49	4619
2026-01-28 11:37:51.15	242.37	16.71	-39.0	-41.0	14.8	7.00e-07	0	60	0	497025024	49	4578
2026-01-28 11:37:52.16	242.57	16.76	-39.0	-41.0	14.9	1.50e-06	0	60	0	500170752	49	4546
2026-01-28 11:37:53.17	242.77	16.82	-39.0	-41.0	14.9	0.00e+00	0	60	0	503316480	49	4558
2026-01-28 11:37:54.18	242.97	16.87	-39.0	-41.0	14.8	0.00e+00	0	60	0	506462208	49	4578
2026-01-28 11:37:55.19	243.18	16.92	-39.1	-41.1	14.8	7.00e-07	0	60	0	509607936	49	4624
2026-01-28 11:37:56.21	243.38	16.98	-39.1	-41.1	14.7	0.00e+00	0	60	0	512753664	49	4644
2026-01-28 11:37:57.22	243.59	17.03	-39.2	-41.3	14.6	0.00e+00	0	60	0	515899392	49	4710
2026-01-28 11:37:58.22	243.79	17.08	-39.2	-41.3	14.6	7.00e-07	0	60	0	519045120	49	4736
2026-01-28 11:37:59.23	244.00	17.14	-39.2	-41.3	14.6	0.00e+00	0	60	0	522190848	49	4726
2026-01-28 11:38:00.24	244.20	17.19	-39.2	-41.3	14.6	2.20e-06	0	60	0	525336576	49	4728
2026-01-28 11:38:01.25	244.41	17.24	-39.2	-41.2	14.6	0.00e+00	0	60	0	528482304	49	4698
2026-01-28 11:38:02.26	244.62	17.29	-39.1	-41.2	14.7	0.00e+00	0	60	0	531628032	49	4657
2026-01-28 11:38:03.27	244.83	17.35	-39.0	-41.0	14.9	7.00e-07	0	60	0	534773760	49	4584
2026-01-28 11:38:04.28	245.04	17.40	-38.9	-40.9	15.0	0.00e+00	0	60	0	537919488	49	4505
2026-01-28 11:38:05.29	245.25	17.45	-38.8	-40.8	15.1	0.00e+00	0	60	0	541065216	49	4455
2026-01-28 11:38:06.30	245.46	17.50	-38.9	-40.8	15.0	0.00e+00	0	60	0	544210944	49	4481
2026-01-28 11:38:07.31	245.67	17.55	-38.9	-40.8	15.1	0.00e+00	0	60	0	547356672	49	4484
2026-01-28 11:38:08.32	245.88	17.60	-38.8	-40.8	15.1	0.00e+00	0	60	0	550502400	49	4456
2026-01-28 11:38:09.33	246.09	17.65	-38.9	-40.8	15.0	0.00e+00	0	60	0	553648128	49	4480
2026-01-28 11:38:10.34	246.31	17.70	-38.9	-40.9	15.1	0.00e+00	0	60	0	556793856	49	4505
2026-01-28 11:38:11.35	246.52	17.75	-38.8	-40.8	15.1	7.00e-07	0	60	0	559939584	49	4466
2026-01-28 11:38:12.36	246.74	17.80	-38.9	-40.9	15.0	0.00e+00	0	60	0	563085312	49	4520
2026-01-28 11:38:13.38	246.96	17.85	-38.9	-40.9	15.0	7.00e-07	0	60	0	566231040	49	4522
2026-01-28 11:38:14.39	247.17	17.90	-39.0	-41.0	15.0	0.00e+00	0	60	0	569376768	49	4553
2026-01-28 11:38:15.40	247.39	17.95	-38.9	-40.8	15.1	0.00e+00	0	60	0	572522496	49	4491
2026-01-28 11:38:16.41	247.61	18.00	-38.9	-40.8	15.1	0.00e+00	0	60	0	575668224	49	4482
2026-01-28 11:38:17.42	247.83	18.04	-38.8	-40.7	15.2	0.00e+00	0	60	0	578813952	49	4416
2026-01-28 11:38:18.43	248.04	18.09	-38.7	-40.6	15.3	0.00e+00	0	60	0	581959680	49	4355
2026-01-28 11:38:19.44	248.26	18.14	-38.7	-40.6	15.3	0.00e+00	0	60	0	585105408	49	4371
2026-01-28 11:38:20.45	248.48	18.18	-38.8	-40.7	15.2	0.00e+00	0	60	0	588251136	49	4406
2026-01-28 11:38:21.46	248.71	18.23	-38.7	-40.7	15.2	0.00e+00	0	60	0	591396864	49	4397
2026-01-28 11:38:22.47	248.93	18.28	-38.9	-40.8	15.1	0.00e+00	0	60	0	594542592	49	4469
2026-01-28 11:38:23.48	249.15	18.32	-38.9	-40.9	15.1	0.00e+00	0	60	0	597688320	49	4501
2026-01-28 11:38:24.49	249.37	18.37	-38.8	-40.8	15.1	0.00e+00	0	60	0	600834048	49	4445
2026-01-28 11:38:25.49	249.59	18.41	-38.7	-40.6	15.4	0.00e+00	0	60	0	603979776	49	4352
2026-01-28 11:38:26.50	249.82	18.46	-38.6	-40.5	15.4	0.00e+00	0	60	0	607125504	49	4325
2026-01-28 11:38:27.52	250.05	18.50	-38.6	-40.5	15.5	0.00e+00	0	60	0	610271232	49	4303
2026-01-28 11:38:28.52	250.27	18.55	-38.6	-40.5	15.4	0.00e+00	0	60	0	613416960	49	4317
2026-01-28 11:38:29.54	250.50	18.59	-38.6	-40.5	15.4	0.00e+00	0	60	0	616562688	49	4315
2026-01-28 11:38:30.55	250.72	18.64	-38.7	-40.5	15.4	7.00e-07	0	61	0	619708416	49	4330
2026-01-28 11:38:31.56	250.95	18.68	-38.7	-40.6	15.3	0.00e+00	0	60	0	622854144	49	4362
2026-01-28 11:38:32.56	251.18	18.72	-38.7	-40.6	15.2	0.00e+00	0	60	0	625999872	49	4391
2026-01-28 11:38:33.57	251.41	18.76	-38.7	-40.6	15.4	0.00e+00	0	61	0	629145600	49	4341
2026-01-28 11:38:34.58	251.64	18.81	-38.6	-40.5	15.4	0.00e+00	0	60	0	632291328	49	4320
2026-01-28 11:38:35.59	251.87	18.85	-38.6	-40.5	15.4	0.00e+00	0	60	0	635437056	49	4325
2026-01-28 11:38:36.60	252.10	18.89	-38.6	-40.5	15.4	0.00e+00	0	60	0	638582784	49	4315
2026-01-28 11:38:37.61	252.33	18.93	-38.5	-40.3	15.6	0.00e+00	0	61	0	641728512	49	4221
2026-01-28 11:38:38.62	252.56	18.97	-38.5	-40.3	15.6	0.00e+00	0	61	0	644874240	48	4475
2026-01-28 11:38:39.63	252.79	19.01	-38.5	-40.3	15.7	0.00e+00	0	60	0	648019968	48	4472
2026-01-28 11:38:40.64	253.03	19.05	-38.5	-40.4	15.6	0.00e+00	0	60	0	651165696	48	4506
2026-01-28 11:38:41.65	253.26	19.09	-38.5	-40.3	15.7	0.00e+00	0	60	0	654311424	48	4460
2026-01-28 11:38:42.66	253.49	19.13	-38.5	-40.3	15.6	0.00e+00	0	60	0	657457152	48	4491
2026-01-28 11:38:43.67	253.73	19.17	-38.5	-40.3	15.6	0.00e+00	0	60	0	660602880	48	4473
2026-01-28 11:38:44.68	253.96	19.21	-38.6	-40.5	15.5	0.00e+00	0	60	0	663748608	48	4553
2026-01-28 11:38:45.69	254.20	19.24	-38.4	-40.3	15.6	0.00e+00	0	60	0	666894336	48	4445
2026-01-28 11:38:46.70	254.44	19.28	-38.4	-40.1	15.8	0.00e+00	0	60	0	670040064	48	4386
2026-01-28 11:38:47.71	254.67	19.32	-38.4	-40.2	15.7	0.00e+00	0	60	0	673185792	48	4422
2026-01-28 11:38:48.72	254.91	19.35	-38.4	-40.2	15.7	0.00e+00	0	60	0	676331520	48	4438
2026-01-28 11:38:49.73	255.15	19.39	-38.4	-40.2	15.8	0.00e+00	0	61	0	679477248	48	4400
2026-01-28 11:38:50.74	255.39	19.42	-38.4	-40.2	15.7	0.00e+00	0	60	0	682622976	48	4417
2026-01-28 11:38:51.75	255.63	19.46	-38.5	-40.3	15.6	0.00e+00	0	60	0	685768704	48	4466
2026-01-28 11:38:52.76	255.87	19.49	-38.5	-40.3	15.6	0.00e+00	0	60	0	688914432	48	4473
2026-01-28 11:38:53.77	256.11	19.53	-38.5	-40.3	15.7	0.00e+00	0	60	0	692060160	48	4462
2026-01-28 11:38:54.78	256.35	19.56	-38.4	-40.2	15.7	0.00e+00	0	60	0	695205888	48	4435
2026-01-28 11:38:55.79	256.59	19.60	-38.3	-40.1	15.8	0.00e+00	0	61	0	698351616	48	4384
2026-01-28 11:38:56.80	256.83	19.63	-38.3	-40.2	15.8	0.00e+00	0	60	0	701497344	48	4392
2026-01-28 11:38:57.81	257.07	19.66	-38.3	-40.1	15.9	0.00e+00	0	60	0	704643072	48	4342
2026-01-28 11:38:58.82	257.31	19.69	-38.2	-40.0	16.0	0.00e+00	0	60	0	707788800	48	4300
2026-01-28 11:38:59.83	257.56	19.72	-38.2	-40.0	15.9	0.00e+00	0	60	0	710934528	48	4302
2026-01-28 11:39:00.84	257.80	19.76	-38.3	-40.1	15.9	0.00e+00	0	60	0	714080256	48	4344
2026-01-28 11:39:01.85	258.05	19.79	-38.2	-40.0	15.9	0.00e+00	0	60	0	717225984	48	4321
2026-01-28 11:39:02.86	258.29	19.82	-38.2	-40.0	16.0	0.00e+00	0	60	0	720371712	48	4314
2026-01-28 11:39:03.87	258.53	19.85	-38.2	-40.0	16.0	0.00e+00	0	60	0	723517440	48	4295
2026-01-28 11:39:04.88	258.78	19.87	-38.2	-39.9	16.0	0.00e+00	0	61	0	726663168	48	4279
2026-01-28 11:39:05.89	259.03	19.90	-38.3	-40.0	15.9	0.00e+00	0	60	0	729808896	48	4327
2026-01-28 11:39:06.90	259.27	19.93	-38.2	-39.9	16.0	0.00e+00	0	60	0	732954624	48	4289
2026-01-28 11:39:07.91	259.52	19.96	-38.2	-40.0	15.9	0.00e+00	0	60	0	736100352	48	4301
2026-01-28 11:39:08.92	259.77	19.99	-38.2	-40.0	16.0	0.00e+00	0	60	0	739246080	48	4310
2026-01-28 11:39:09.93	260.01	20.01	-38.3	-40.0	15.9	0.00e+00	0	60	0	742391808	48	4325
2026-01-28 11:39:10.95	260.27	20.04	-38.3	-40.1	15.9	0.00e+00	0	61	0	746586112	48	4350
2026-01-28 11:39:11.96	260.51	20.06	-38.4	-40.2	15.7	0.00e+00	0	60	0	748683264	48	4405
2026-01-28 11:39:12.97	260.76	20.09	-38.4	-40.2	15.7	0.00e+00	0	60	0	751828992	48	4437
2026-01-28 11:39:13.98	261.01	20.11	-38.3	-40.1	15.8	0.00e+00	0	60	0	754974720	48	4368
2026-01-28 11:39:14.99	261.26	20.14	-38.3	-40.1	15.9	0.00e+00	0	60	0	758120448	48	4348
2026-01-28 11:39:16.00	261.51	20.16	-38.3	-40.1	15.8	0.00e+00	0	60	0	762314752	48	4383
2026-01-28 11:39:17.01	261.76	20.18	-38.4	-40.2	15.7	0.00e+00	0	60	0	765460480	48	4428
2026-01-28 11:39:18.02	262.01	20.21	-38.3	-40.1	15.9	0.00e+00	0	61	0	768606208	48	4351
2026-01-28 11:39:19.03	262.26	20.23	-38.3	-40.0	15.9	0.00e+00	0	60	0	771751936	48	4334
2026-01-28 11:39:20.03	262.51	20.25	-38.4	-40.2	15.7	0.00e+00	0	61	0	773849088	48	4410
2026-01-28 11:39:21.04	262.77	20.27	-38.3	-40.1	15.9	0.00e+00	0	60	0	776994816	48	4350
2026-01-28 11:39:22.05	263.02	20.29	-38.2	-40.0	15.9	0.00e+00	0	60	0	781189120	48	4313
2026-01-28 11:39:23.06	263.27	20.31	-38.2	-40.0	16.0	0.00e+00	0	60	0	784334848	48	4305
2026-01-28 11:39:24.07	263.52	20.33	-38.2	-40.0	16.0	0.00e+00	0	60	0	787480576	48	4301
2026-01-28 11:39:25.08	263.78	20.35	-38.2	-40.0	16.0	0.00e+00	0	61	0	790626304	48	4301
2026-01-28 11:39:26.09	264.03	20.37	-38.3	-40.1	15.9	0.00e+00	0	60	0	793772032	48	4356
2026-01-28 11:39:27.10	264.28	20.39	-38.4	-40.1	15.8	0.00e+00	0	60	0	796917760	48	4388
2026-01-28 11:39:28.11	264.54	20.40	-38.4	-40.2	15.7	0.00e+00	0	60	0	800063488	48	4433
2026-01-28 11:39:29.12	264.79	20.42	-38.5	-40.3	15.6	0.00e+00	0	60	0	803209216	48	4491
2026-01-28 11:39:30.13	265.05	20.44	-38.5	-40.3	15.6	0.00e+00	0	60	0	806354944	48	4483
2026-01-28 11:39:31.14	265.30	20.45	-38.5	-40.3	15.6	0.00e+00	0	60	0	809500672	48	4481
2026-01-28 11:39:32.15	265.55	20.47	-38.5	-40.3	15.6	0.00e+00	0	60	0	812646400	48	4476
2026-01-28 11:39:33.16	265.81	20.48	-38.4	-40.2	15.8	0.00e+00	0	60	0	815792128	48	4403
2026-01-28 11:39:34.17	266.07	20.49	-38.2	-40.0	16.0	0.00e+00	0	61	0	818937856	48	4302
2026-01-28 11:39:35.18	266.32	20.51	-38.2	-39.9	16.0	0.00e+00	0	61	0	822083584	48	4291
2026-01-28 11:39:36.19	266.58	20.52	-38.3	-40.1	15.9	0.00e+00	0	60	0	825229312	48	4344
2026-01-28 11:39:37.20	266.83	20.53	-38.3	-40.1	15.9	0.00e+00	0	61	0	828375040	48	4355
2026-01-28 11:39:38.20	267.09	20.54	-38.4	-40.1	15.8	0.00e+00	0	60	0	831520768	48	4389
2026-01-28 11:39:39.21	267.34	20.55	-38.3	-40.1	15.8	0.00e+00	0	60	0	834666496	48	4387
2026-01-28 11:39:40.22	267.60	20.56	-38.3	-40.1	15.8	0.00e+00	0	61	0	837812224	48	4364
2026-01-28 11:39:41.23	267.86	20.57	-38.5	-40.3	15.7	0.00e+00	0	61	0	840957952	48	4465
2026-01-28 11:39:42.24	268.11	20.58	-38.5	-40.3	15.7	0.00e+00	0	60	0	844103680	48	4463
2026-01-28 11:39:43.25	268.37	20.59	-38.4	-40.2	15.7	0.00e+00	0	60	0	847249408	48	4430
2026-01-28 11:39:44.26	268.63	20.60	-38.4	-40.3	15.7	0.00e+00	0	61	0	850395136	48	4444
2026-01-28 11:39:45.27	268.88	20.61	-38.4	-40.2	15.7	0.00e+00	0	60	0	853540864	48	4415
2026-01-28 11:39:46.28	269.14	20.62	-38.4	-40.2	15.7	0.00e+00	0	61	0	856686592	48	4437
2026-01-28 11:39:47.29	269.40	20.62	-38.4	-40.2	15.7	0.00e+00	0	60	0	859832320	48	4409
2026-01-28 11:39:48.30	269.66	20.63	-38.4	-40.2	15.7	0.00e+00	0	61	0	862978048	48	4437
2026-01-28 11:39:49.31	269.91	20.63	-38.4	-40.2	15.7	0.00e+00	0	61	0	866123776	48	4428
2026-01-28 11:39:50.32	270.17	20.64	-38.4	-40.3	15.7	0.00e+00	0	61	0	869269504	48	4453
2026-01-28 11:39:51.33	270.43	20.64	-38.4	-40.2	15.7	0.00e+00	0	60	0	872415232	48	4411
2026-01-28 11:39:52.34	270.69	20.65	-38.3	-40.1	15.8	0.00e+00	0	61	0	875560960	48	4370
2026-01-28 11:39:53.35	270.95	20.65	-38.3	-40.1	15.8	0.00e+00	0	60	0	878706688	48	4369
2026-01-28 11:39:54.36	271.20	20.65	-38.3	-40.1	15.8	0.00e+00	0	60	0	881852416	48	4373
2026-01-28 11:39:55.37	271.46	20.65	-38.4	-40.2	15.8	0.00e+00	0	60	0	884998144	48	4393
2026-01-28 11:39:56.38	271.72	20.65	-38.3	-40.1	15.8	0.00e+00	0	61	0	888143872	48	4353
2026-01-28 11:39:57.39	271.98	20.65	-38.4	-40.1	15.7	0.00e+00	0	61	0	891289600	48	4389
2026-01-28 11:39:58.40	272.23	20.65	-38.3	-40.1	15.8	0.00e+00	0	60	0	894435328	48	4374
2026-01-28 11:39:59.41	272.49	20.65	-38.4	-40.2	15.8	0.00e+00	0	60	0	897581056	48	4401
2026-01-28 11:40:00.42	272.75	20.65	-38.4	-40.2	15.8	0.00e+00	0	61	0	900726784	48	4400
2026-01-28 11:40:01.43	273.01	20.65	-38.3	-40.1	15.8	0.00e+00	0	61	0	903872512	48	4374
2026-01-28 11:40:02.44	273.27	20.65	-38.3	-40.1	15.8	0.00e+00	0	61	0	907018240	48	4370
2026-01-28 11:40:03.45	273.52	20.65	-38.3	-40.1	15.8	0.00e+00	0	61	0	910163968	48	4379
2026-01-28 11:40:04.46	273.78	20.64	-38.3	-40.1	15.8	0.00e+00	0	60	0	913309696	48	4371
2026-01-28 11:40:05.47	274.04	20.64	-38.3	-40.1	15.9	0.00e+00	0	61	0	916455424	48	4359
2026-01-28 11:40:06.48	274.30	20.64	-38.4	-40.2	15.8	0.00e+00	0	60	0	919601152	48	4395
2026-01-28 11:40:07.49	274.55	20.63	-38.4	-40.2	15.7	0.00e+00	0	61	0	922746880	48	4399
2026-01-28 11:40:08.50	274.81	20.62	-38.4	-40.2	15.7	0.00e+00	0	60	0	925892608	48	4433
2026-01-28 11:40:09.51	275.07	20.62	-38.4	-40.2	15.7	0.00e+00	0	61	0	929038336	48	4431
2026-01-28 11:40:10.52	275.33	20.61	-38.4	-40.2	15.7	0.00e+00	0	60	0	932184064	48	4436
2026-01-28 11:40:11.53	275.58	20.60	-38.4	-40.2	15.7	0.00e+00	0	60	0	935329792	48	4435
2026-01-28 11:40:12.54	275.84	20.60	-38.4	-40.3	15.6	0.00e+00	0	61	0	938475520	48	4450
2026-01-28 11:40:13.55	276.10	20.59	-38.5	-40.4	15.5	0.00e+00	0	61	0	941621248	48	4511
2026-01-28 11:40:14.56	276.35	20.58	-38.6	-40.5	15.5	0.00e+00	0	61	0	944766976	48	4550
2026-01-28 11:40:15.57	276.61	20.57	-38.5	-40.3	15.6	0.00e+00	0	61	0	947912704	48	4489
2026-01-28 11:40:16.58	276.87	20.56	-38.4	-40.2	15.7	0.00e+00	0	61	0	951058432	48	4440
2026-01-28 11:40:17.59	277.12	20.55	-38.4	-40.2	15.7	0.00e+00	0	60	0	954204160	48	4393
2026-01-28 11:40:18.60	277.38	20.54	-38.2	-40.0	15.9	0.00e+00	0	61	0	957349888	48	4313
2026-01-28 11:40:19.61	277.64	20.52	-38.3	-40.1	15.8	0.00e+00	0	61	0	960495616	48	4361
2026-01-28 11:40:20.62	277.89	20.51	-38.4	-40.2	15.7	0.00e+00	0	61	0	963641344	48	4415
2026-01-28 11:40:21.63	278.15	20.50	-38.5	-40.3	15.6	0.00e+00	0	60	0	966787072	48	4465
2026-01-28 11:40:22.64	278.40	20.49	-38.5	-40.3	15.6	0.00e+00	0	60	0	969932800	48	4489
2026-01-28 11:40:23.65	278.66	20.47	-38.5	-40.3	15.6	0.00e+00	0	61	0	973078528	48	4457
2026-01-28 11:40:24.66	278.91	20.46	-38.3	-40.1	15.8	0.00e+00	0	61	0	976224256	48	4382
2026-01-28 11:40:25.67	279.17	20.44	-38.2	-40.0	15.9	0.00e+00	0	61	0	979369984	48	4296
2026-01-28 11:40:26.67	279.42	20.43	-38.1	-39.9	16.0	0.00e+00	0	60	0	982515712	48	4255
2026-01-28 11:40:27.69	279.67	20.41	-38.2	-39.9	16.0	0.00e+00	0	60	0	985661440	48	4280
2026-01-28 11:40:28.70	279.93	20.39	-38.3	-40.1	15.8	0.00e+00	0	60	0	988807168	48	4371
2026-01-28 11:40:29.71	280.18	20.37	-38.3	-40.1	15.8	0.00e+00	0	60	0	991952896	48	4342
2026-01-28 11:40:30.72	280.43	20.36	-38.4	-40.2	15.8	0.00e+00	0	61	0	995098624	48	4393
2026-01-28 11:40:31.73	280.69	20.34	-38.3	-40.1	15.8	0.00e+00	0	60	0	998244352	48	4370
2026-01-28 11:40:32.74	280.94	20.32	-38.4	-40.2	15.8	0.00e+00	0	60	0	1001390080	48	4396
2026-01-28 11:40:33.75	281.19	20.30	-38.4	-40.2	15.7	0.00e+00	0	61	0	1004535808	48	4394
2026-01-28 11:40:34.76	281.44	20.28	-38.4	-40.2	15.7	0.00e+00	0	61	0	1007681536	48	4431
2026-01-28 11:40:35.77	281.69	20.26	-38.4	-40.3	15.6	0.00e+00	0	60	0	1010827264	48	4451
2026-01-28 11:40:36.78	281.95	20.24	-38.5	-40.3	15.6	0.00e+00	0	61	0	1013972992	48	4492
2026-01-28 11:40:37.79	282.20	20.22	-38.5	-40.3	15.6	0.00e+00	0	60	0	1017118720	48	4472
2026-01-28 11:40:38.80	282.45	20.19	-38.4	-40.2	15.7	0.00e+00	0	61	0	1020264448	48	4417
2026-01-28 11:40:39.81	282.70	20.17	-38.3	-40.1	15.9	0.00e+00	0	61	0	1023410176	48	4350
2026-01-28 11:40:40.82	282.95	20.15	-38.2	-39.9	16.0	0.00e+00	0	61	0	1026555904	48	4271
2026-01-28 11:40:41.83	283.20	20.12	-38.2	-39.9	15.9	0.00e+00	0	61	0	1029701632	48	4289
2026-01-28 11:40:42.84	283.44	20.10	-38.2	-40.0	15.9	0.00e+00	0	60	0	1032847360	48	4293
2026-01-28 11:40:43.85	283.69	20.07	-38.3	-40.1	15.8	0.00e+00	0	60	0	1035993088	48	4365
2026-01-28 11:40:44.86	283.94	20.05	-38.3	-40.1	15.8	0.00e+00	0	61	0	1039138816	48	4388
2026-01-28 11:40:45.87	284.19	20.02	-38.3	-40.1	15.9	0.00e+00	0	61	0	1042284544	48	4347
2026-01-28 11:40:46.88	284.44	20.00	-38.3	-40.1	15.8	0.00e+00	0	61	0	1045430272	48	4364
2026-01-28 11:40:47.89	284.68	19.97	-38.3	-40.1	15.8	0.00e+00	0	61	0	1048576000	48	4385
2026-01-28 11:40:48.90	284.93	19.94	-38.3	-40.1	15.8	0.00e+00	0	60	0	1051721728	48	4342
2026-01-28 11:40:49.91	285.18	19.92	-38.3	-40.1	15.8	0.00e+00	0	60	0	1054867456	48	4345
2026-01-28 11:40:50.92	285.42	19.89	-38.4	-40.2	15.7	0.00e+00	0	61	0	1058013184	48	4417
2026-01-28 11:40:51.93	285.67	19.86	-38.4	-40.3	15.7	0.00e+00	0	61	0	1061158912	48	4452
2026-01-28 11:40:52.94	285.91	19.83	-38.3	-40.1	15.8	0.00e+00	0	60	0	1064304640	48	4353
2026-01-28 11:40:53.95	286.15	19.80	-38.2	-40.0	15.9	0.00e+00	0	60	0	1067450368	48	4300
2026-01-28 11:40:54.96	286.40	19.77	-38.2	-39.9	16.0	0.00e+00	0	61	0	1070596096	48	4276
2026-01-28 11:40:55.97	286.64	19.74	-38.2	-40.0	15.9	0.00e+00	0	60	0	1073741824	48	4300
2026-01-28 11:40:56.98	286.88	19.71	-38.3	-40.1	15.8	0.00e+00	0	60	0	1076887552	48	4344
2026-01-28 11:40:57.99	287.13	19.68	-38.4	-40.2	15.7	0.00e+00	0	60	0	1080033280	48	4420
2026-01-28 11:40:59.00	287.37	19.64	-38.4	-40.1	15.7	0.00e+00	0	61	0	1084227584	48	4391
2026-01-28 11:41:00.01	287.61	19.61	-38.3	-40.1	15.8	0.00e+00	0	60	0	1087373312	48	4342
2026-01-28 11:41:01.02	287.85	19.58	-38.2	-39.9	15.9	0.00e+00	0	61	0	1089470464	48	4289
2026-01-28 11:41:02.03	288.09	19.55	-38.2	-39.9	15.9	0.00e+00	0	60	0	1092616192	48	4285
2026-01-28 11:41:03.04	288.33	19.51	-38.3	-40.1	15.8	0.00e+00	0	61	0	1095761920	48	4342
2026-01-28 11:41:04.05	288.57	19.48	-38.4	-40.2	15.7	0.00e+00	0	60	0	1099956224	48	4405
2026-01-28 11:41:05.05	288.81	19.44	-38.4	-40.2	15.6	0.00e+00	0	60	0	1103101952	48	4419
2026-01-28 11:41:06.07	289.05	19.41	-38.4	-40.2	15.6	0.00e+00	0	60	0	1106247680	48	4438
2026-01-28 11:41:07.08	289.28	19.37	-38.5	-40.4	15.5	0.00e+00	0	61	0	1109393408	48	4497
2026-01-28 11:41:08.08	289.52	19.34	-38.4	-40.3	15.6	0.00e+00	0	61	0	1112539136	48	4446
2026-01-28 11:41:09.09	289.75	19.30	-38.5	-40.3	15.6	0.00e+00	0	60	0	1114636288	48	4468
2026-01-28 11:41:10.10	289.99	19.26	-38.5	-40.4	15.5	0.00e+00	0	60	0	1118830592	48	4500
2026-01-28 11:41:11.11	290.23	19.23	-38.4	-40.3	15.6	0.00e+00	0	60	0	1121976320	48	4461
2026-01-28 11:41:12.12	290.46	19.19	-38.5	-40.3	15.5	0.00e+00	0	61	0	1125122048	48	4484
2026-01-28 11:41:13.13	290.69	19.15	-38.4	-40.2	15.6	0.00e+00	0	61	0	1128267776	48	4434
2026-01-28 11:41:14.14	290.93	19.11	-38.4	-40.2	15.7	0.00e+00	0	60	0	1131413504	48	4399
2026-01-28 11:41:15.15	291.16	19.07	-38.4	-40.2	15.6	0.00e+00	0	60	0	1134559232	48	4438
2026-01-28 11:41:16.16	291.39	19.03	-38.4	-40.3	15.6	7.00e-07	0	61	0	1137704960	48	4456
2026-01-28 11:41:17.17	291.63	18.99	-38.3	-40.1	15.8	0.00e+00	0	61	0	1140850688	48	4363
2026-01-28 11:41:18.18	291.86	18.95	-38.2	-40.0	15.9	0.00e+00	0	61	0	1143996416	48	4315
2026-01-28 11:41:19.19	292.09	18.91	-38.2	-40.0	15.8	0.00e+00	0	61	0	1147142144	48	4321
2026-01-28 11:41:20.20	292.32	18.87	-38.3	-40.1	15.8	0.00e+00	0	61	0	1150287872	48	4352
2026-01-28 11:41:21.21	292.55	18.83	-38.3	-40.1	15.8	0.00e+00	0	61	0	1153433600	48	4343
2026-01-28 11:41:22.22	292.78	18.79	-38.2	-40.0	15.8	0.00e+00	0	61	0	1156579328	48	4326
2026-01-28 11:41:23.23	293.00	18.75	-38.2	-40.0	15.8	0.00e+00	0	60	0	1159725056	48	4301
2026-01-28 11:41:24.25	293.23	18.70	-38.2	-39.9	15.9	0.00e+00	0	60	0	1162870784	48	4279
2026-01-28 11:41:25.26	293.46	18.66	-38.2	-39.9	15.9	0.00e+00	0	61	0	1166016512	48	4276
2026-01-28 11:41:26.27	293.69	18.62	-38.2	-40.0	15.8	0.00e+00	0	61	0	1169162240	48	4319
2026-01-28 11:41:27.28	293.91	18.57	-38.3	-40.1	15.8	0.00e+00	0	61	0	1172307968	48	4354
2026-01-28 11:41:28.29	294.14	18.53	-38.2	-40.0	15.8	0.00e+00	0	61	0	1175453696	48	4318
2026-01-28 11:41:29.30	294.36	18.49	-38.2	-40.0	15.8	0.00e+00	0	60	0	1178599424	48	4309
2026-01-28 11:41:30.31	294.59	18.44	-38.2	-40.0	15.8	0.00e+00	0	61	0	1181745152	48	4295
2026-01-28 11:41:31.32	294.81	18.40	-38.2	-40.0	15.8	0.00e+00	0	61	0	1184890880	48	4324
2026-01-28 11:41:32.33	295.03	18.35	-38.3	-40.1	15.7	0.00e+00	0	61	0	1188036608	48	4351
2026-01-28 11:41:33.34	295.25	18.31	-38.4	-40.2	15.6	0.00e+00	0	61	0	1191182336	48	4418
2026-01-28 11:41:34.35	295.47	18.26	-38.4	-40.3	15.5	0.00e+00	0	61	0	1194328064	48	4442
2026-01-28 11:41:35.36	295.69	18.21	-38.3	-40.1	15.6	0.00e+00	0	61	0	1197473792	48	4389
2026-01-28 11:41:36.37	295.91	18.17	-38.4	-40.2	15.6	0.00e+00	0	61	0	1200619520	48	4433
2026-01-28 11:41:37.38	296.13	18.12	-38.4	-40.2	15.6	0.00e+00	0	61	0	1203765248	48	4419
2026-01-28 11:41:38.39	296.35	18.07	-38.4	-40.2	15.6	0.00e+00	0	61	0	1206910976	48	4409
2026-01-28 11:41:39.40	296.57	18.03	-38.3	-40.1	15.6	0.00e+00	0	61	0	1210056704	48	4388
2026-01-28 11:41:40.41	296.79	17.98	-38.3	-40.2	15.6	0.00e+00	0	61	0	1213202432	48	4406
2026-01-28 11:41:41.43	297.00	17.93	-38.5	-40.3	15.5	7.00e-07	0	61	0	1216348160	48	4478
2026-01-28 11:41:42.44	297.22	17.88	-38.5	-40.3	15.5	0.00e+00	0	60	0	1219493888	48	4482
2026-01-28 11:41:43.45	297.44	17.83	-38.4	-40.3	15.5	0.00e+00	0	60	0	1222639616	48	4464
2026-01-28 11:41:44.46	297.65	17.78	-38.5	-40.4	15.4	0.00e+00	0	61	0	1225785344	48	4501
2026-01-28 11:41:45.47	297.86	17.74	-38.5	-40.4	15.4	0.00e+00	0	61	0	1228931072	48	4527
2026-01-28 11:41:46.48	298.08	17.69	-38.7	-40.6	15.1	0.00e+00	0	61	0	1232076800	48	4651
2026-01-28 11:41:47.49	298.29	17.64	-38.7	-40.6	15.2	0.00e+00	0	61	0	1235222528	48	4623
2026-01-28 11:41:48.50	298.50	17.59	-38.7	-40.7	15.2	0.00e+00	0	61	0	1238368256	48	4658
2026-01-28 11:41:49.51	298.71	17.54	-38.6	-40.5	15.3	0.00e+00	0	60	0	1241513984	48	4588
2026-01-28 11:41:50.52	298.92	17.49	-38.7	-40.6	15.2	0.00e+00	0	61	0	1244659712	48	4635
2026-01-28 11:41:51.53	299.13	17.43	-38.7	-40.7	15.1	1.50e-06	0	61	0	1247805440	48	4665
2026-01-28 11:41:52.54	299.34	17.38	-38.7	-40.6	15.2	0.00e+00	0	61	0	1250951168	48	4620
2026-01-28 11:41:53.55	299.55	17.33	-38.6	-40.6	15.2	7.00e-07	0	60	0	1254096896	48	4599
2026-01-28 11:41:54.56	299.76	17.28	-38.7	-40.7	15.1	7.00e-07	0	61	0	1257242624	48	4658
2026-01-28 11:41:55.57	299.96	17.23	-38.8	-40.7	15.1	0.00e+00	0	60	0	1260388352	48	4696
2026-01-28 11:41:56.58	300.17	17.18	-38.8	-40.7	15.0	0.00e+00	0	61	0	1263534080	48	4704
2026-01-28 11:41:57.59	300.37	17.12	-38.8	-40.7	15.1	0.00e+00	0	61	0	1266679808	48	4688
2026-01-28 11:41:58.60	300.58	17.07	-38.8	-40.8	15.0	0.00e+00	0	61	0	1269825536	48	4707
2026-01-28 11:41:59.61	300.78	17.02	-38.8	-40.8	14.9	7.00e-07	0	61	0	1272971264	48	4756
2026-01-28 11:42:00.62	300.99	16.97	-38.9	-41.0	14.8	0.00e+00	0	61	0	1276116992	48	4821
2026-01-28 11:42:01.63	301.19	16.91	-38.9	-41.0	14.8	0.00e+00	0	60	0	1279262720	48	4822
2026-01-28 11:42:02.64	301.39	16.86	-38.9	-41.0	14.8	0.00e+00	0	61	0	1282408448	48	4818
2026-01-28 11:42:03.65	301.59	16.81	-38.8	-40.8	14.9	0.00e+00	0	61	0	1285554176	48	4724
2026-01-28 11:42:04.66	301.79	16.75	-38.7	-40.7	15.1	1.50e-06	0	60	0	1288699904	48	4682
2026-01-28 11:42:05.67	301.99	16.70	-38.6	-40.5	15.2	0.00e+00	0	61	0	1291845632	48	4597
2026-01-28 11:42:06.68	302.19	16.64	-38.6	-40.5	15.3	0.00e+00	0	61	0	1294991360	48	4575
2026-01-28 11:42:07.69	302.39	16.59	-38.6	-40.5	15.3	0.00e+00	0	61	0	1298137088	48	4566
2026-01-28 11:42:08.70	302.59	16.53	-38.5	-40.4	15.3	0.00e+00	0	60	0	1301282816	48	4533
2026-01-28 11:42:09.71	302.79	16.48	-38.6	-40.5	15.2	0.00e+00	0	61	0	1304428544	48	4582
2026-01-28 11:42:10.72	302.98	16.42	-38.7	-40.6	15.1	0.00e+00	0	60	0	1307574272	48	4624
2026-01-28 11:42:11.73	303.18	16.37	-38.7	-40.7	15.1	0.00e+00	0	61	0	1310720000	48	4686
2026-01-28 11:42:12.74	303.37	16.31	-38.9	-40.9	14.9	7.00e-07	0	61	0	1313865728	48	4761
2026-01-28 11:42:13.75	303.57	16.26	-38.9	-40.9	14.8	1.50e-06	0	60	0	1317011456	48	4811
2026-01-28 11:42:14.77	303.76	16.20	-39.0	-41.0	14.7	0.00e+00	0	60	0	1320157184	48	4865
2026-01-28 11:42:15.78	303.95	16.15	-38.9	-40.9	14.8	0.00e+00	0	60	0	1323302912	48	4791
2026-01-28 11:42:16.79	304.15	16.09	-38.9	-40.9	14.8	7.00e-07	0	61	0	1326448640	48	4800
2026-01-28 11:42:17.80	304.34	16.03	-38.9	-40.9	14.9	0.00e+00	0	60	0	1329594368	48	4775
2026-01-28 11:42:18.81	304.53	15.98	-38.8	-40.8	14.9	0.00e+00	0	60	0	1332740096	48	4748
2026-01-28 11:42:19.81	304.72	15.92	-38.8	-40.8	14.9	0.00e+00	0	60	0	1335885824	48	4757
2026-01-28 11:42:20.82	304.91	15.86	-38.8	-40.8	14.9	0.00e+00	0	60	0	1339031552	48	4734
2026-01-28 11:42:21.84	305.10	15.81	-38.8	-40.8	14.9	0.00e+00	0	60	0	1342177280	48	4718
2026-01-28 11:42:22.85	305.28	15.75	-38.8	-40.7	15.0	0.00e+00	0	60	0	1345323008	48	4697
2026-01-28 11:42:23.85	305.47	15.69	-38.6	-40.5	15.2	0.00e+00	0	60	0	1348468736	48	4587
2026-01-28 11:42:24.86	305.66	15.63	-38.6	-40.6	15.2	0.00e+00	0	60	0	1351614464	48	4603
2026-01-28 11:42:25.87	305.84	15.58	-38.7	-40.7	15.1	0.00e+00	0	60	0	1354760192	48	4653
2026-01-28 11:42:26.89	306.03	15.52	-38.7	-40.6	15.2	0.00e+00	0	60	0	1357905920	48	4624
2026-01-28 11:42:27.90	306.21	15.46	-38.8	-40.8	14.9	0.00e+00	0	60	0	1361051648	48	4733
2026-01-28 11:42:28.91	306.40	15.40	-38.9	-41.0	14.8	0.00e+00	0	61	0	1364197376	48	4817
2026-01-28 11:42:29.92	306.58	15.34	-39.0	-41.1	14.7	0.00e+00	0	61	0	1367343104	48	4874
2026-01-28 11:42:30.93	306.76	15.29	-39.1	-41.2	14.6	7.00e-07	0	61	0	1370488832	48	4930
2026-01-28 11:42:31.93	306.94	15.23	-39.2	-41.3	14.4	7.00e-07	0	61	0	1373634560	48	5002
2026-01-28 11:42:32.94	307.12	15.17	-39.1	-41.1	14.6	7.00e-07	0	61	0	1377828864	48	4921
2026-01-28 11:42:33.95	307.30	15.11	-39.1	-41.1	14.6	0.00e+00	0	60	0	1379926016	48	4913
2026-01-28 11:42:34.97	307.48	15.05	-39.1	-41.2	14.6	7.00e-07	0	60	0	1383071744	48	4931
2026-01-28 11:42:35.97	307.66	14.99	-39.1	-41.1	14.5	7.00e-07	0	60	0	1386217472	48	4926
2026-01-28 11:42:36.98	307.84	14.93	-39.1	-41.1	14.6	0.00e+00	0	61	0	1389363200	48	4925
2026-01-28 11:42:37.99	308.02	14.88	-39.0	-41.1	14.6	1.50e-06	0	60	0	1392508928	48	4906
2026-01-28 11:42:39.00	308.19	14.82	-39.1	-41.1	14.6	7.00e-07	0	60	0	1396703232	48	4920
2026-01-28 11:42:40.02	308.37	14.76	-39.0	-41.1	14.6	0.00e+00	0	60	0	1399848960	48	4912
2026-01-28 11:42:41.03	308.55	14.70	-38.9	-41.0	14.7	7.00e-07	0	61	0	1402994688	48	4825
2026-01-28 11:42:42.04	308.72	14.64	-38.9	-41.0	14.7	0.00e+00	0	61	0	1405091840	48	4834
2026-01-28 11:42:43.05	308.89	14.58	-39.0	-41.1	14.6	0.00e+00	0	61	0	1409286144	48	4908
2026-01-28 11:42:44.06	309.07	14.52	-39.0	-41.0	14.7	7.00e-07	0	60	0	1412431872	48	4862
2026-01-28 11:42:45.07	309.24	14.46	-39.1	-41.2	14.5	1.50e-06	0	60	0	1415577600	48	4934
2026-01-28 11:42:46.08	309.41	14.40	-39.1	-41.2	14.5	0.00e+00	0	60	0	1418723328	48	4934
2026-01-28 11:42:47.09	309.58	14.34	-39.1	-41.2	14.5	0.00e+00	0	60	0	1421869056	48	4946
2026-01-28 11:42:48.10	309.75	14.28	-39.2	-41.3	14.4	2.20e-06	0	60	0	1425014784	48	5037
2026-01-28 11:42:49.11	309.92	14.22	-39.2	-41.3	14.4	7.00e-07	0	60	0	1428160512	48	5020
2026-01-28 11:42:50.12	310.09	14.16	-39.2	-41.3	14.4	0.00e+00	0	60	0	1431306240	48	5014
2026-01-28 11:42:51.13	310.26	14.10	-39.2	-41.3	14.4	7.00e-07	0	60	0	1434451968	48	5026
2026-01-28 11:42:52.14	310.43	14.04	-39.1	-41.2	14.5	1.50e-06	0	60	0	1437597696	48	4974
2026-01-28 11:42:53.15	310.60	13.98	-39.1	-41.2	14.5	0.00e+00	0	61	0	1440743424	48	4970
2026-01-28 11:42:54.16	310.76	13.92	-39.1	-41.3	14.4	0.00e+00	0	60	0	1443889152	48	4987
2026-01-28 11:42:55.17	310.93	13.86	-39.0	-41.1	14.6	1.50e-06	0	60	0	1447034880	48	4913
2026-01-28 11:42:56.18	311.10	13.80	-39.0	-41.1	14.6	0.00e+00	0	60	0	1450180608	48	4916
2026-01-28 11:42:57.19	311.26	13.73	-39.0	-41.1	14.6	0.00e+00	0	61	0	1453326336	48	4872
2026-01-28 11:42:58.20	311.42	13.67	-39.0	-41.0	14.6	0.00e+00	0	60	0	1456472064	48	4857
2026-01-28 11:42:59.21	311.59	13.61	-38.9	-41.0	14.7	7.00e-07	0	60	0	1459617792	48	4835
2026-01-28 11:43:00.22	311.75	13.55	-38.9	-40.9	14.7	0.00e+00	0	60	0	1462763520	48	4812
2026-01-28 11:43:01.23	311.91	13.49	-38.9	-40.9	14.7	0.00e+00	0	61	0	1465909248	48	4796
2026-01-28 11:43:02.24	312.07	13.43	-38.8	-40.8	14.9	7.00e-07	0	60	0	1469054976	48	4722
2026-01-28 11:43:03.25	312.23	13.37	-38.8	-40.8	14.9	0.00e+00	0	60	0	1472200704	48	4723
2026-01-28 11:43:04.26	312.39	13.31	-38.8	-40.8	14.8	7.00e-07	0	60	0	1475346432	48	4749
2026-01-28 11:43:05.27	312.55	13.25	-38.8	-40.8	14.8	0.00e+00	0	60	0	1478492160	48	4759
2026-01-28 11:43:06.28	312.71	13.19	-38.9	-41.0	14.7	0.00e+00	0	60	0	1481637888	48	4817
2026-01-28 11:43:07.29	312.87	13.12	-38.9	-41.0	14.7	0.00e+00	0	60	0	1484783616	48	4816
2026-01-28 11:43:08.30	313.03	13.06	-39.0	-41.1	14.6	0.00e+00	0	60	0	1487929344	48	4883
2026-01-28 11:43:09.31	313.18	13.00	-39.0	-41.2	14.5	7.00e-07	0	60	0	1491075072	48	4932
2026-01-28 11:43:10.32	313.34	12.94	-39.0	-41.1	14.5	0.00e+00	0	60	0	1494220800	48	4871
2026-01-28 11:43:11.33	313.50	12.88	-38.9	-41.0	14.6	0.00e+00	0	60	0	1497366528	48	4844
2026-01-28 11:43:12.34	313.65	12.82	-39.0	-41.0	14.6	0.00e+00	0	61	0	1500512256	48	4867
2026-01-28 11:43:13.35	313.81	12.76	-38.9	-41.0	14.6	0.00e+00	0	60	0	1503657984	48	4857
2026-01-28 11:43:14.36	313.96	12.69	-39.0	-41.1	14.5	7.00e-07	0	60	0	1506803712	48	4895
2026-01-28 11:43:15.37	314.11	12.63	-39.0	-41.1	14.5	0.00e+00	0	60	0	1509949440	48	4894
2026-01-28 11:43:16.38	314.27	12.57	-39.0	-41.1	14.5	7.00e-07	0	61	0	1513095168	48	4883
2026-01-28 11:43:17.39	314.42	12.51	-39.0	-41.0	14.6	7.00e-07	0	61	0	1516240896	48	4869
2026-01-28 11:43:18.40	314.57	12.45	-39.0	-41.1	14.5	0.00e+00	0	61	0	1519386624	48	4875
2026-01-28 11:43:19.42	314.72	12.39	-38.9	-41.0	14.6	0.00e+00	0	61	0	1522532352	48	4840
2026-01-28 11:43:20.42	314.87	12.33	-38.9	-40.9	14.7	0.00e+00	0	61	0	1525678080	48	4802
2026-01-28 11:43:21.43	315.02	12.26	-38.9	-40.9	14.6	0.00e+00	0	60	0	1528823808	48	4811
2026-01-28 11:43:22.44	315.17	12.20	-39.0	-41.1	14.5	0.00e+00	0	61	0	1531969536	48	4894
2026-01-28 11:43:23.45	315.32	12.14	-39.0	-41.0	14.5	0.00e+00	0	60	0	1535115264	48	4870
2026-01-28 11:43:24.46	315.46	12.08	-39.0	-41.1	14.5	1.50e-06	0	60	0	1538260992	48	4911
2026-01-28 11:43:25.47	315.61	12.02	-38.9	-41.0	14.6	7.00e-07	0	60	0	1541406720	48	4853
2026-01-28 11:43:26.49	315.76	11.95	-39.0	-41.1	14.5	0.00e+00	0	61	0	1544552448	48	4894
2026-01-28 11:43:27.50	315.90	11.89	-39.0	-41.0	14.5	7.00e-07	0	61	0	1547698176	48	4868
2026-01-28 11:43:28.51	316.05	11.83	-39.0	-41.1	14.5	0.00e+00	0	61	0	1550843904	48	4898
2026-01-28 11:43:29.52	316.19	11.77	-39.0	-41.1	14.4	1.50e-06	0	60	0	1553989632	48	4900
2026-01-28 11:43:30.53	316.34	11.71	-39.1	-41.2	14.4	7.00e-07	0	60	0	1557135360	48	4955
2026-01-28 11:43:31.54	316.48	11.65	-39.0	-41.2	14.4	0.00e+00	0	60	0	1560281088	48	4944
2026-01-28 11:43:32.55	316.62	11.58	-39.1	-41.3	14.3	7.00e-07	0	60	0	1563426816	48	5016
2026-01-28 11:43:33.56	316.77	11.52	-39.1	-41.2	14.3	7.00e-07	0	60	0	1566572544	48	4958
2026-01-28 11:43:34.57	316.91	11.46	-39.2	-41.4	14.1	1.50e-06	0	60	0	1569718272	48	5066
2026-01-28 11:43:35.58	317.05	11.40	-39.1	-41.3	14.2	7.00e-07	0	60	0	1572864000	48	5012
2026-01-28 11:43:36.59	317.19	11.34	-39.2	-41.4	14.2	3.80e-06	0	60	0	1576009728	48	5051
2026-01-28 11:43:37.60	317.33	11.28	-39.2	-41.4	14.1	7.00e-07	0	60	0	1579155456	49	4809
2026-01-28 11:43:38.61	317.47	11.21	-39.2	-41.4	14.1	1.50e-06	0	60	0	1582301184	49	4813
2026-01-28 11:43:39.62	317.61	11.15	-39.2	-41.5	14.1	1.50e-06	0	61	0	1585446912	49	4817
2026-01-28 11:43:40.63	317.75	11.09	-39.2	-41.5	14.0	7.00e-07	0	60	0	1588592640	49	4835
2026-01-28 11:43:41.64	317.88	11.03	-39.3	-41.6	13.9	1.50e-06	0	61	0	1591738368	49	4887
2026-01-28 11:43:42.65	318.02	10.97	-39.4	-41.6	13.9	2.20e-06	0	60	0	1594884096	49	4925
2026-01-28 11:43:43.66	318.16	10.91	-39.4	-41.8	13.7	9.90e-06	0	61	0	1598029824	49	4994
2026-01-28 11:43:44.67	318.29	10.84	-39.5	-41.8	13.7	6.80e-06	0	60	0	1601175552	49	5009
2026-01-28 11:43:45.68	318.43	10.78	-39.5	-41.9	13.5	1.44e-05	0	60	0	1604321280	49	5090
2026-01-28 11:43:46.69	318.57	10.72	-39.6	-42.0	13.5	6.10e-06	0	60	0	1607467008	49	5117
2026-01-28 11:43:47.71	318.70	10.66	-39.6	-42.0	13.4	1.29e-05	0	61	0	1610612736	49	5134
2026-01-28 11:43:48.72	318.84	10.60	-39.7	-42.1	13.3	1.67e-05	0	60	0	1613758464	49	5200
2026-01-28 11:43:49.73	318.97	10.54	-39.7	-42.2	13.3	1.90e-05	0	60	0	1616904192	49	5229
2026-01-28 11:43:50.74	319.10	10.47	-39.8	-42.3	13.2	2.51e-05	0	60	0	1620049920	50	4984
2026-01-28 11:43:51.75	319.23	10.41	-39.8	-42.3	13.1	2.28e-05	0	60	0	1623195648	50	5013
2026-01-28 11:43:52.76	319.37	10.35	-39.9	-42.4	13.0	3.28e-05	0	60	0	1626341376	50	5086
2026-01-28 11:43:53.77	319.50	10.29	-39.9	-42.4	13.0	3.96e-05	0	61	0	1629487104	50	5082
2026-01-28 11:43:54.78	319.63	10.23	-39.8	-42.4	13.1	3.28e-05	0	61	0	1632632832	50	5054
2026-01-28 11:43:55.79	319.76	10.17	-39.8	-42.4	13.1	2.89e-05	0	60	0	1635778560	50	5042
2026-01-28 11:43:56.80	319.89	10.11	-39.6	-42.1	13.4	1.90e-05	0	61	0	1638924288	50	4875
2026-01-28 11:43:57.81	320.02	10.04	-39.6	-42.1	13.4	1.14e-05	0	60	0	1642070016	50	4875
2026-01-28 11:43:58.82	320.14	9.98	-39.6	-42.0	13.4	1.44e-05	0	60	0	1645215744	50	4845
2026-01-28 11:43:59.83	320.27	9.92	-39.7	-42.1	13.4	1.52e-05	0	60	0	1648361472	50	4891
2026-01-28 11:44:00.84	320.40	9.86	-39.6	-41.9	13.5	9.10e-06	0	60	0	1651507200	50	4809
2026-01-28 11:44:01.85	320.53	9.80	-39.5	-41.9	13.5	1.14e-05	0	61	0	1654652928	50	4809
2026-01-28 11:44:02.86	320.65	9.74	-39.6	-42.0	13.5	1.14e-05	0	60	0	1657798656	50	4831
2026-01-28 11:44:03.87	320.78	9.68	-39.6	-42.1	13.3	1.60e-05	0	60	0	1660944384	50	4895
2026-01-28 11:44:04.88	320.91	9.62	-39.6	-42.0	13.4	1.29e-05	0	61	0	1664090112	50	4835
2026-01-28 11:44:05.89	321.03	9.55	-39.6	-42.0	13.4	1.06e-05	0	60	0	1667235840	50	4860
2026-01-28 11:44:06.90	321.15	9.49	-39.7	-42.1	13.3	1.83e-05	0	60	0	1671430144	50	4912
2026-01-28 11:44:07.91	321.28	9.43	-39.7	-42.1	13.3	1.22e-05	0	60	0	1673527296	50	4914
2026-01-28 11:44:08.92	321.40	9.37	-39.7	-42.2	13.2	2.21e-05	0	61	0	1676673024	50	4942
2026-01-28 11:44:09.93	321.53	9.31	-39.7	-42.2	13.2	2.89e-05	0	61	0	1679818752	50	4967
2026-01-28 11:44:10.94	321.65	9.25	-39.8	-42.3	13.1	2.74e-05	0	60	0	1682964480	50	5020
2026-01-28 11:44:11.95	321.77	9.19	-39.8	-42.4	13.0	3.96e-05	0	60	0	1687158784	50	5048
2026-01-28 11:44:12.97	321.89	9.13	-39.9	-42.5	12.9	3.43e-05	0	60	0	1690304512	50	5105
2026-01-28 11:44:13.98	322.01	9.07	-39.9	-42.6	12.8	5.87e-05	0	60	0	1693450240	50	5164
2026-01-28 11:44:14.99	322.13	9.01	-39.9	-42.5	12.9	4.50e-05	0	61	0	1695547392	50	5111
2026-01-28 11:44:16.00	322.25	8.94	-39.9	-42.6	12.8	4.95e-05	0	60	0	1699741696	50	5173
2026-01-28 11:44:17.01	322.37	8.88	-39.9	-42.6	12.8	6.79e-05	0	60	0	1702887424	50	5177
2026-01-28 11:44:18.02	322.49	8.82	-40.0	-42.6	12.8	4.73e-05	0	61	0	1706033152	50	5189
2026-01-28 11:44:19.03	322.61	8.76	-40.0	-42.7	12.7	8.92e-05	0	60	0	1709178880	50	5236
2026-01-28 11:44:20.04	322.73	8.70	-39.9	-42.5	12.9	6.25e-05	0	60	0	1712324608	50	5111
2026-01-28 11:44:21.05	322.85	8.64	-39.9	-42.5	12.8	6.86e-05	0	60	0	1715470336	50	5152
2026-01-28 11:44:22.06	322.96	8.58	-39.8	-42.4	12.9	5.34e-05	0	60	0	1718616064	50	5086
2026-01-28 11:44:23.07	323.08	8.52	-39.9	-42.4	12.9	5.03e-05	0	60	0	1721761792	50	5090
2026-01-28 11:44:24.08	323.20	8.46	-39.9	-42.5	12.8	5.49e-05	0	60	0	1724907520	50	5104
2026-01-28 11:44:25.09	323.31	8.40	-39.9	-42.5	12.8	6.71e-05	0	60	0	1728053248	50	5134
2026-01-28 11:44:26.10	323.43	8.34	-39.9	-42.5	12.7	7.01e-05	0	60	0	1731198976	50	5135
2026-01-28 11:44:27.11	323.54	8.28	-39.9	-42.6	12.6	7.55e-05	0	60	0	1734344704	50	5190
2026-01-28 11:44:28.12	323.66	8.22	-39.9	-42.5	12.7	6.63e-05	0	60	0	1737490432	50	5138
2026-01-28 11:44:29.14	323.77	8.16	-40.0	-42.7	12.6	9.53e-05	0	60	0	1740636160	50	5235
2026-01-28 11:44:30.15	323.89	8.10	-40.0	-42.7	12.6	6.94e-05	0	60	0	1743781888	50	5232
2026-01-28 11:44:31.16	324.00	8.04	-40.0	-42.7	12.6	1.20e-04	0	60	0	1746927616	50	5225
2026-01-28 11:44:32.17	324.11	7.98	-44.4	-56.7	3.8	1.49e+00	0	60	104	1747976192	59	15703
2026-01-28 11:44:33.18	324.22	7.92	-44.7	-57.0	3.8	1.49e+00	0	61	104	1747976192	59	16285
2026-01-28 11:44:34.19	324.34	7.86	-44.8	-57.4	3.8	1.49e+00	0	60	104	1747976192	60	16003
2026-01-28 11:44:35.20	324.45	7.80	-44.9	-57.5	3.8	1.49e+00	0	60	104	1747976192	60	16240
2026-01-28 11:44:36.21	324.56	7.74	-45.1	-57.7	3.8	1.49e+00	0	61	104	1747976192	60	16525
2026-01-28 11:44:37.22	324.67	7.68	-45.1	-57.8	3.8	1.49e+00	0	61	104	1747976192	60	16713
2026-01-28 11:44:38.23	324.78	7.62	-45.2	-57.8	3.8	1.49e+00	0	60	104	1747976192	60	16821
2026-01-28 11:44:39.24	324.89	7.56	-45.2	-57.9	3.8	1.49e+00	0	61	104	1747976192	61	15968
2026-01-28 11:44:40.25	325.00	7.50	-44.8	-57.7	3.8	1.49e+00	0	60	104	1747976192	60	16515
2026-01-28 11:44:41.26	325.11	7.44	-45.2	-57.8	3.8	1.49e+00	0	61	104	1747976192	60	16872
2026-01-28 11:44:42.27	325.22	7.38	-45.1	-57.8	3.8	1.49e+00	0	60	104	1747976192	60	16809
2026-01-28 11:44:43.28	325.32	7.32	-45.1	-57.8	3.8	1.49e+00	0	60	104	1747976192	60	16741
2026-01-28 11:44:44.29	325.43	7.26	-45.2	-57.8	3.8	1.49e+00	0	60	104	1747976192	60	16756
2026-01-28 11:44:45.30	325.54	7.20	-45.2	-57.8	3.8	1.49e+00	0	60	104	1747976192	60	16738
2026-01-28 11:44:46.31	325.64	7.14	-45.1	-57.8	3.8	1.49e+00	0	61	104	1747976192	60	16704
2026-01-28 11:44:47.32	325.75	7.09	-45.1	-57.7	3.8	1.49e+00	0	60	104	1747976192	60	16630
2026-01-28 11:44:48.33	325.86	7.03	-45.1	-57.7	3.8	1.49e+00	0	60	104	1747976192	60	16632
2026-01-28 11:44:49.34	325.96	6.97	-45.1	-57.7	3.8	1.49e+00	0	60	104	1747976192	60	16669
2026-01-28 11:44:50.35	326.07	6.91	-45.1	-57.7	3.8	1.49e+00	0	60	104	1747976192	60	16675
2026-01-28 11:44:51.36	326.17	6.85	-45.0	-57.7	3.8	1.49e+00	0	61	104	1747976192	60	16662
2026-01-28 11:44:52.37	326.28	6.79	-45.0	-57.7	3.8	1.49e+00	0	61	104	1747976192	60	16601
2026-01-28 11:44:53.38	326.38	6.73	-45.0	-57.7	3.8	1.49e+00	0	60	104	1747976192	60	16602
2026-01-28 11:44:54.40	326.48	6.67	-45.1	-57.7	3.8	1.49e+00	0	61	104	1747976192	60	16639
2026-01-28 11:44:55.40	326.59	6.61	-45.0	-57.7	3.8	1.49e+00	0	61	104	1747976192	60	16661
2026-01-28 11:44:56.41	326.69	6.56	-45.1	-57.7	3.8	1.49e+00	0	60	104	1747976192	60	16573
2026-01-28 11:44:57.42	326.79	6.50	-44.4	-57.7	3.8	1.49e+00	0	60	104	1747976192	60	16682
2026-01-28 11:44:58.43	326.89	6.44	-45.1	-57.8	3.8	1.49e+00	0	61	104	1747976192	60	16695
2026-01-28 11:44:59.45	327.00	6.38	-45.0	-57.7	3.8	1.49e+00	0	61	104	1747976192	60	16608
2026-01-28 11:45:00.46	327.10	6.32	-45.1	-57.7	3.8	1.49e+00	0	61	104	1747976192	60	16587
2026-01-28 11:45:01.47	327.20	6.26	-45.1	-57.7	3.8	1.49e+00	0	61	104	1747976192	60	16656
2026-01-28 11:45:02.48	327.30	6.20	-45.1	-57.7	3.8	1.49e+00	0	60	104	1747976192	60	16622
2026-01-28 11:45:03.49	327.40	6.15	-45.1	-57.7	3.8	1.49e+00	0	61	104	1747976192	60	16581
2026-01-28 11:45:04.50	327.50	6.09	-45.1	-57.7	3.8	1.49e+00	0	60	104	1747976192	60	16601
2026-01-28 11:45:05.51	327.60	6.03	-45.0	-57.7	3.8	1.49e+00	0	61	104	1747976192	60	16604
2026-01-28 11:45:06.52	327.69	5.97	-45.1	-57.7	3.8	1.49e+00	0	61	104	1747976192	60	16641
2026-01-28 11:45:07.53	327.79	5.91	-44.8	-57.7	3.8	1.49e+00	0	61	104	1747976192	60	16553
2026-01-28 11:45:08.54	327.89	5.86	-45.1	-57.7	3.8	1.49e+00	0	61	104	1747976192	60	16639
2026-01-28 11:45:09.55	327.99	5.80	-45.1	-57.7	3.8	1.49e+00	0	60	104	1747976192	60	16598
2026-01-28 11:45:10.56	328.09	5.74	-45.1	-57.6	3.8	1.49e+00	0	61	104	1747976192	60	16493
2026-01-28 11:45:11.57	328.18	5.68	-45.1	-57.7	3.8	1.49e+00	0	60	104	1747976192	60	16599
2026-01-28 11:45:12.59	328.28	5.62	-45.1	-57.7	3.8	1.49e+00	0	60	104	1747976192	60	16651
2026-01-28 11:45:13.59	328.38	5.57	-45.1	-57.7	3.8	1.49e+00	0	60	104	1747976192	60	16622
2026-01-28 11:45:14.61	328.47	5.51	-45.0	-57.7	3.8	1.49e+00	0	61	104	1747976192	60	16596
2026-01-28 11:45:15.62	328.57	5.45	-45.1	-57.7	3.8	1.49e+00	0	60	104	1747976192	60	16596
2026-01-28 11:45:16.63	328.66	5.39	-45.0	-57.7	3.8	1.49e+00	0	61	104	1747976192	60	16551
