passes_logs/2026/01/28/R2.0S_Moscow/R2.0S_Moscow__20260128_081314_NOAA_21_JPSS-2_rec.log

#Pass ID: 20260128_081314_NOAA 21 (JPSS-2)
#Satellite: NOAA 21 (JPSS-2)
#Configuration: NOAA-21
#almurnet v.1.7.20251203
#Start time: 2026-01-28 08:13:16

#Version: 2.2.20231116
#Station: R2.0S_Moscow
#Location: 37.707566 lon 55.798166 lat
#TLE: 1 54234U 22150A   26027.55906748  .00000170  00000+0  10132-3 0  9996
#TLE: 2 54234  98.7510 328.3076 0000860 204.4692 155.6443 14.19540154166599

#Time	Az	El	Level	Level2	SNR	BER	BlckErr	Temp	State	Recorded	gain1	gain2
2026-01-28 08:13:16.16	110.54	2.12	-16.9	-43.6	3.4	1.51e+00	0	51	0	0	8	65440
2026-01-28 08:13:17.17	110.47	2.18	-33.4	-49.9	4.1	1.50e+00	0	51	104	0	27	45154
2026-01-28 08:13:18.18	110.40	2.23	-27.7	-47.8	3.9	1.50e+00	0	51	104	0	20	52833
2026-01-28 08:13:19.19	110.33	2.29	-22.2	-48.3	3.8	1.51e+00	0	51	104	0	22	49902
2026-01-28 08:13:20.20	110.26	2.35	-31.0	-50.5	4.1	1.50e+00	0	51	104	0	30	40748
2026-01-28 08:13:21.21	110.19	2.40	-22.2	-46.0	3.8	1.50e+00	0	51	104	0	22	38343
2026-01-28 08:13:22.22	110.12	2.46	-22.7	-44.9	3.8	1.51e+00	0	51	104	0	17	45357
2026-01-28 08:13:23.23	110.05	2.52	-26.9	-47.5	3.9	1.50e+00	0	51	104	0	22	45488
2026-01-28 08:13:24.24	109.98	2.58	-21.5	-43.5	3.9	1.51e+00	0	52	104	0	15	43274
2026-01-28 08:13:25.24	109.91	2.63	-22.1	-44.2	3.6	1.51e+00	0	52	104	0	13	52767
2026-01-28 08:13:26.25	109.84	2.69	-25.3	-46.2	3.8	1.51e+00	0	52	104	0	19	46521
2026-01-28 08:13:27.26	109.77	2.75	-32.8	-47.6	3.9	1.51e+00	0	52	104	0	16	65535
2026-01-28 08:13:28.27	109.69	2.80	-30.6	-47.3	4.0	1.51e+00	0	52	104	0	21	47316
2026-01-28 08:13:29.29	109.62	2.86	-26.0	-50.4	3.4	1.50e+00	0	52	104	0	30	40213
2026-01-28 08:13:30.30	109.55	2.92	-20.5	-44.4	3.9	1.50e+00	0	52	104	0	15	47772
2026-01-28 08:13:31.31	109.47	2.98	-26.1	-47.4	3.8	1.51e+00	0	52	104	0	18	56727
2026-01-28 08:13:32.32	109.40	3.03	-19.2	-46.3	3.9	1.50e+00	0	52	104	0	21	42078
2026-01-28 08:13:33.33	109.33	3.09	-24.1	-44.5	3.7	1.52e+00	0	52	104	0	11	61302
2026-01-28 08:13:34.34	109.25	3.15	-15.5	-43.1	3.4	1.52e+00	0	52	104	0	7	65535
2026-01-28 08:13:35.35	109.18	3.21	-26.4	-50.0	3.7	1.50e+00	0	52	104	0	32	34460
2026-01-28 08:13:36.36	109.10	3.27	-22.9	-45.4	3.9	1.51e+00	0	52	104	0	18	45384
2026-01-28 08:13:37.37	109.03	3.32	-28.9	-48.0	4.2	1.50e+00	0	52	104	0	27	36423
2026-01-28 08:13:38.38	108.95	3.38	-28.6	-49.7	4.3	1.50e+00	0	53	104	0	33	31093
2026-01-28 08:13:39.39	108.88	3.44	-24.5	-46.9	3.6	1.50e+00	0	53	104	0	21	45004
2026-01-28 08:13:40.41	108.80	3.50	-23.9	-45.3	3.8	1.51e+00	0	53	104	0	18	44926
2026-01-28 08:13:41.42	108.72	3.56	-29.2	-46.2	4.3	1.51e+00	0	53	104	0	20	44011
2026-01-28 08:13:42.43	108.65	3.62	-33.2	-47.9	3.6	1.50e+00	0	53	104	0	25	40339
2026-01-28 08:13:43.44	108.57	3.67	-27.0	-47.7	3.9	1.50e+00	0	53	104	0	27	35073
2026-01-28 08:13:44.45	108.49	3.73	-25.1	-46.3	3.7	1.50e+00	0	53	104	0	20	44877
2026-01-28 08:13:45.46	108.42	3.79	-25.1	-45.6	4.1	1.50e+00	0	53	104	0	20	40996
2026-01-28 08:13:46.47	108.34	3.85	-21.9	-45.4	4.0	1.51e+00	0	53	104	0	16	50890
2026-01-28 08:13:47.48	108.26	3.91	-26.7	-46.3	3.9	1.50e+00	0	53	104	0	23	37689
2026-01-28 08:13:48.49	108.18	3.97	-24.3	-44.9	3.8	1.50e+00	0	53	104	0	20	38034
2026-01-28 08:13:49.50	108.10	4.03	-18.0	-43.1	3.8	1.50e+00	0	53	104	0	18	34614
2026-01-28 08:13:50.51	108.02	4.09	-23.9	-45.8	3.9	1.51e+00	0	53	104	0	21	40016
2026-01-28 08:13:51.52	107.94	4.15	-22.6	-45.3	3.8	1.50e+00	0	54	104	0	17	47419
2026-01-28 08:13:52.53	107.86	4.21	-30.1	-48.2	4.1	1.51e+00	0	54	104	0	24	43931
2026-01-28 08:13:53.54	107.78	4.26	-24.5	-46.5	3.9	1.50e+00	0	54	104	0	23	38384
2026-01-28 08:13:54.55	107.70	4.32	-24.9	-50.5	4.1	1.51e+00	0	53	104	0	28	45653
2026-01-28 08:13:55.56	107.62	4.38	-20.9	-42.1	4.3	1.50e+00	0	54	104	0	32	13765
2026-01-28 08:13:56.57	107.54	4.44	-22.6	-44.7	3.9	1.51e+00	0	54	104	0	15	49539
2026-01-28 08:13:57.58	107.46	4.50	-22.7	-45.3	4.1	1.50e+00	0	54	104	0	16	49920
2026-01-28 08:13:58.59	107.38	4.56	-32.5	-50.7	4.2	1.50e+00	0	54	104	0	37	27980
2026-01-28 08:13:59.60	107.30	4.62	-32.2	-51.5	3.7	1.50e+00	0	54	104	0	36	32490
2026-01-28 08:14:00.62	107.21	4.68	-35.4	-52.0	4.1	1.50e+00	0	54	104	0	40	27082
2026-01-28 08:14:01.63	107.13	4.74	-27.2	-49.3	4.3	1.50e+00	0	54	104	0	34	28168
2026-01-28 08:14:02.64	107.05	4.80	-32.6	-51.3	4.0	1.50e+00	0	54	104	0	31	42077
2026-01-28 08:14:03.65	106.96	4.86	-24.0	-46.3	3.6	1.50e+00	0	54	104	0	20	44819
2026-01-28 08:14:04.66	106.88	4.92	-33.6	-51.1	3.6	1.50e+00	0	54	104	0	25	57922
2026-01-28 08:14:05.67	106.79	4.98	-20.3	-42.3	4.0	1.51e+00	0	55	104	0	15	37614
2026-01-28 08:14:06.68	106.71	5.04	-25.3	-47.1	3.9	1.51e+00	0	54	104	0	21	46204
2026-01-28 08:14:07.69	106.62	5.10	-20.2	-40.7	4.5	1.50e+00	0	55	104	0	29	14034
2026-01-28 08:14:08.70	106.54	5.16	-29.0	-49.8	4.0	1.51e+00	0	54	104	0	31	35332
2026-01-28 08:14:09.71	106.45	5.23	-20.6	-45.5	3.8	1.50e+00	0	54	104	0	24	32492
2026-01-28 08:14:10.71	106.37	5.29	-31.0	-49.7	4.1	1.50e+00	0	54	104	0	31	34917
2026-01-28 08:14:11.73	106.28	5.35	-23.0	-44.9	3.7	1.50e+00	0	55	104	0	17	44947
2026-01-28 08:14:12.74	106.19	5.41	-30.5	-48.8	4.0	1.50e+00	0	55	104	0	31	31567
2026-01-28 08:14:13.75	106.11	5.47	-24.9	-48.0	3.9	1.50e+00	0	55	104	0	29	32242
2026-01-28 08:14:14.76	106.02	5.53	-26.3	-46.6	4.0	1.50e+00	0	55	104	0	30	26069
2026-01-28 08:14:15.77	105.93	5.59	-33.4	-50.7	3.9	1.50e+00	0	55	104	0	34	32958
2026-01-28 08:14:16.78	105.84	5.65	-20.8	-44.2	4.2	1.51e+00	0	55	104	0	19	37007
2026-01-28 08:14:17.79	105.75	5.71	-28.6	-49.9	3.7	1.50e+00	0	55	104	0	29	40102
2026-01-28 08:14:18.80	105.66	5.77	-20.4	-43.9	4.0	1.50e+00	0	55	104	0	21	31957
2026-01-28 08:14:19.81	105.57	5.84	-24.0	-48.5	3.2	1.50e+00	0	55	104	0	24	45795
2026-01-28 08:14:20.82	105.49	5.90	-33.2	-50.1	4.1	1.50e+00	0	55	104	0	32	34575
2026-01-28 08:14:21.83	105.39	5.96	-31.1	-51.1	3.8	1.50e+00	0	55	104	0	31	41204
2026-01-28 08:14:22.84	105.30	6.02	-24.2	-45.3	3.9	1.50e+00	0	55	104	0	19	42260
2026-01-28 08:14:23.85	105.21	6.08	-25.0	-45.9	3.9	1.50e+00	0	55	104	0	24	34011
2026-01-28 08:14:24.86	105.12	6.14	-25.9	-45.5	4.1	1.51e+00	0	55	104	0	25	30681
2026-01-28 08:14:25.87	105.03	6.21	-32.6	-50.7	4.1	1.50e+00	0	55	104	0	38	26168
2026-01-28 08:14:26.88	104.94	6.27	-20.8	-43.8	3.6	1.50e+00	0	55	104	0	10	59730
2026-01-28 08:14:27.89	104.84	6.33	-29.2	-49.0	4.1	1.50e+00	0	55	104	0	28	38510
2026-01-28 08:14:28.90	104.75	6.39	-31.6	-50.8	4.1	1.50e+00	0	55	104	0	34	33607
2026-01-28 08:14:29.91	104.66	6.45	-27.0	-47.2	4.1	1.50e+00	0	55	104	0	32	24717
2026-01-28 08:14:30.92	104.56	6.52	-19.0	-44.8	3.9	1.51e+00	0	55	104	0	13	56363
2026-01-28 08:14:31.93	104.47	6.58	-20.6	-42.4	3.7	1.50e+00	0	56	104	0	9	53588
2026-01-28 08:14:32.94	104.38	6.64	-26.6	-48.3	4.0	1.50e+00	0	55	104	0	27	37477
2026-01-28 08:14:33.96	104.28	6.70	-33.7	-49.2	3.9	1.50e+00	0	55	104	0	29	37262
2026-01-28 08:14:34.97	104.18	6.77	-25.8	-47.7	4.0	1.50e+00	0	55	104	0	30	29665
2026-01-28 08:14:35.98	104.09	6.83	-32.6	-47.2	3.9	1.50e+00	0	56	104	0	29	29626
2026-01-28 08:14:36.99	103.99	6.89	-22.3	-49.1	4.0	1.51e+00	0	56	104	0	30	34785
2026-01-28 08:14:38.00	103.89	6.95	-33.7	-51.8	4.2	1.50e+00	0	56	104	0	37	31472
2026-01-28 08:14:39.01	103.80	7.02	-23.1	-45.5	4.0	1.50e+00	0	56	104	0	21	38487
2026-01-28 08:14:40.02	103.70	7.08	-34.5	-50.8	4.4	1.50e+00	0	56	104	0	38	26729
2026-01-28 08:14:41.03	103.60	7.14	-26.9	-47.1	3.6	1.50e+00	0	56	104	0	23	40995
2026-01-28 08:14:42.04	103.50	7.21	-28.9	-49.7	4.2	1.50e+00	0	56	104	0	31	35079
2026-01-28 08:14:43.05	103.40	7.27	-23.6	-43.6	3.9	1.51e+00	0	56	104	0	17	39046
2026-01-28 08:14:44.06	103.30	7.33	-25.5	-46.9	3.9	1.50e+00	0	56	104	0	27	31973
2026-01-28 08:14:45.07	103.20	7.40	-27.8	-51.3	4.1	1.50e+00	0	56	104	0	31	41959
2026-01-28 08:14:46.08	103.10	7.46	-23.4	-46.2	4.0	1.50e+00	0	56	104	0	26	31138
2026-01-28 08:14:47.09	103.00	7.52	-25.1	-46.2	3.9	1.50e+00	0	56	104	0	21	41458
2026-01-28 08:14:48.10	102.90	7.59	-31.2	-48.4	3.9	1.50e+00	0	56	104	0	31	30169
2026-01-28 08:14:49.12	102.80	7.65	-25.1	-44.2	4.1	1.49e+00	0	56	104	0	30	19658
2026-01-28 08:14:50.13	102.70	7.71	-19.7	-43.7	3.7	1.47e+00	0	56	104	0	15	44320
2026-01-28 08:14:51.14	102.59	7.78	-26.5	-43.7	4.2	1.47e+00	0	56	104	0	24	26244
2026-01-28 08:14:52.15	102.49	7.84	-24.4	-41.1	5.3	1.44e+00	9	56	104	0	23	20603
2026-01-28 08:14:53.16	102.39	7.91	-24.3	-41.6	4.0	1.19e+00	0	56	104	0	18	29115
2026-01-28 08:14:54.17	102.28	7.97	-31.5	-41.5	5.6	1.16e+00	12	56	0	0	24	20365
2026-01-28 08:14:55.18	102.18	8.03	-23.5	-42.4	5.1	1.31e+00	5	56	104	0	23	24022
2026-01-28 08:14:56.19	102.07	8.10	-34.8	-47.0	4.1	1.27e+00	0	56	104	0	35	20481
2026-01-28 08:14:57.20	101.97	8.16	-31.3	-45.2	4.2	1.47e+00	0	56	104	0	31	20791
2026-01-28 08:14:58.21	101.86	8.23	-23.6	-43.6	3.9	1.28e+00	0	56	104	0	19	34825
2026-01-28 08:14:59.22	101.76	8.29	-30.0	-47.0	3.8	1.49e+00	0	56	104	0	33	23003
2026-01-28 08:15:00.23	101.65	8.35	-32.7	-44.1	5.9	1.46e+00	0	56	104	0	33	16341
2026-01-28 08:15:01.24	101.54	8.42	-22.2	-41.3	3.8	1.28e+00	0	57	104	0	14	35618
2026-01-28 08:15:02.25	101.44	8.48	-28.9	-46.6	4.0	1.50e+00	0	57	104	0	31	24618
2026-01-28 08:15:03.26	101.33	8.55	-16.3	-40.6	3.7	1.48e+00	0	57	104	0	13	34507
2026-01-28 08:15:04.27	101.22	8.61	-22.7	-43.6	3.9	1.52e+00	0	57	104	0	15	43595
2026-01-28 08:15:05.28	101.11	8.68	-25.2	-42.6	3.9	1.50e+00	0	57	104	0	6	65535
2026-01-28 08:15:06.29	101.00	8.74	-32.7	-50.5	4.2	1.51e+00	0	57	104	0	31	38415
2026-01-28 08:15:07.30	100.89	8.81	-19.6	-42.7	4.2	1.49e+00	0	57	104	0	23	24778
2026-01-28 08:15:08.31	100.78	8.87	-27.3	-48.2	3.9	1.50e+00	0	57	104	0	26	39363
2026-01-28 08:15:09.32	100.67	8.94	-31.0	-46.8	4.5	1.48e+00	0	57	104	0	29	28245
2026-01-28 08:15:10.33	100.56	9.00	-27.4	-46.2	4.3	1.48e+00	0	57	104	0	28	27993
2026-01-28 08:15:11.34	100.44	9.07	-18.6	-41.6	3.9	1.49e+00	0	57	104	0	12	41035
2026-01-28 08:15:12.35	100.33	9.13	-25.2	-44.8	4.2	1.49e+00	0	57	104	0	25	28066
2026-01-28 08:15:13.36	100.22	9.20	-23.6	-42.9	4.2	1.46e+00	0	57	104	0	20	30173
2026-01-28 08:15:14.37	100.10	9.26	-19.6	-43.3	3.8	1.51e+00	0	57	104	0	9	59517
2026-01-28 08:15:15.38	99.99	9.33	-22.5	-45.6	4.6	1.48e+00	0	57	104	0	21	39011
2026-01-28 08:15:16.39	99.87	9.39	-31.5	-46.2	4.1	1.50e+00	0	57	104	0	27	29385
2026-01-28 08:15:17.40	99.76	9.46	-23.0	-43.9	4.2	1.50e+00	0	57	104	0	15	45114
2026-01-28 08:15:18.41	99.64	9.52	-19.9	-42.7	3.8	1.50e+00	0	57	104	0	11	49762
2026-01-28 08:15:19.42	99.53	9.59	-24.2	-43.8	4.0	1.51e+00	0	57	104	0	10	59290
2026-01-28 08:15:20.43	99.41	9.66	-20.8	-44.3	4.0	1.50e+00	0	57	104	0	17	42023
2026-01-28 08:15:21.44	99.29	9.72	-25.4	-40.9	4.2	1.38e+00	0	57	104	0	20	23889
2026-01-28 08:15:22.45	99.17	9.79	-24.2	-44.2	4.3	1.49e+00	0	57	104	0	29	20996
2026-01-28 08:15:23.46	99.06	9.85	-21.6	-42.8	4.3	1.50e+00	0	57	104	0	22	26619
2026-01-28 08:15:24.47	98.94	9.92	-21.0	-40.7	4.9	1.48e+00	0	57	104	0	13	35077
2026-01-28 08:15:25.48	98.82	9.99	-23.9	-41.1	4.3	1.23e+00	0	57	104	0	17	29340
2026-01-28 08:15:26.49	98.70	10.05	-28.9	-41.6	4.4	1.48e+00	0	57	104	0	11	43764
2026-01-28 08:15:27.50	98.58	10.12	-21.5	-40.3	4.9	1.47e+00	0	57	104	0	12	35383
2026-01-28 08:15:28.51	98.45	10.18	-19.1	-42.2	4.3	1.47e+00	0	57	104	0	15	37097
2026-01-28 08:15:29.52	98.33	10.25	-22.0	-40.2	4.3	1.50e+00	0	57	104	0	12	35025
2026-01-28 08:15:30.53	98.21	10.32	-21.2	-42.7	4.3	1.42e+00	0	57	104	0	14	41765
2026-01-28 08:15:31.54	98.09	10.38	-23.4	-40.5	4.1	1.48e+00	0	57	104	0	13	34275
2026-01-28 08:15:32.54	97.96	10.45	-30.3	-42.9	4.4	1.46e+00	0	57	104	0	24	24036
2026-01-28 08:15:33.55	97.84	10.51	-20.7	-40.2	4.1	1.04e+00	0	57	104	0	13	32997
2026-01-28 08:15:34.56	97.72	10.58	-22.4	-40.2	4.2	1.17e+00	0	58	104	0	15	29449
2026-01-28 08:15:35.57	97.59	10.65	-22.6	-39.8	5.9	4.56e-01	10	58	0	1048576	20	21139
2026-01-28 08:15:36.58	97.46	10.71	-25.3	-40.7	5.9	9.77e-01	3	58	104	1048576	20	23499
2026-01-28 08:15:37.59	97.34	10.78	-32.9	-41.4	8.6	3.18e-01	2	57	0	1048576	31	13431
2026-01-28 08:15:38.60	97.21	10.85	-33.5	-41.5	9.0	2.16e-01	0	58	0	4194304	35	10791
2026-01-28 08:15:39.61	97.08	10.91	-24.7	-40.3	5.9	1.33e-01	12	58	0	6291456	23	18898
2026-01-28 08:15:40.62	96.96	10.98	-27.6	-41.5	8.0	2.18e-01	2	58	0	9437184	34	11431
2026-01-28 08:15:41.63	96.83	11.05	-34.6	-41.9	9.8	1.20e-01	0	58	0	12582912	33	12694
2026-01-28 08:15:42.64	96.70	11.11	-35.9	-41.6	10.2	1.18e-01	0	58	0	15728640	40	8186
2026-01-28 08:15:43.65	96.57	11.18	-36.5	-41.8	9.9	4.39e-02	1	58	0	18874368	39	8883
2026-01-28 08:15:44.66	96.44	11.25	-30.9	-42.0	10.0	4.56e-02	0	58	0	20971520	38	9637
2026-01-28 08:15:45.67	96.31	11.31	-32.7	-41.3	9.6	3.03e-01	0	58	0	25165824	32	12588
2026-01-28 08:15:46.68	96.17	11.38	-31.7	-41.9	8.7	1.26e-01	0	58	0	28311552	36	10662
2026-01-28 08:15:47.69	96.04	11.45	-35.0	-41.9	8.3	3.57e-02	0	58	0	31457280	42	7585
2026-01-28 08:15:48.70	95.91	11.51	-35.7	-41.9	11.3	2.29e-02	0	58	0	34603008	44	6791
2026-01-28 08:15:49.72	95.77	11.58	-38.7	-41.9	11.8	1.51e-02	0	58	0	37748736	47	5698
2026-01-28 08:15:50.73	95.64	11.65	-30.4	-41.0	9.5	1.04e-02	0	58	0	40894464	34	10819
2026-01-28 08:15:51.73	95.50	11.72	-38.6	-41.9	12.2	4.34e-02	0	58	0	44040192	47	5700
2026-01-28 08:15:52.74	95.37	11.78	-39.3	-42.0	12.4	8.53e-04	0	58	0	47185920	48	5409
2026-01-28 08:15:53.76	95.23	11.85	-38.5	-41.8	12.3	7.19e-04	0	58	0	50331648	47	5636
2026-01-28 08:15:54.77	95.09	11.92	-37.5	-41.8	11.7	7.58e-04	0	58	0	53477376	44	6691
2026-01-28 08:15:55.78	94.96	11.99	-37.7	-41.5	12.5	1.15e-03	0	58	0	56623104	47	5459
2026-01-28 08:15:56.79	94.82	12.05	-38.8	-41.6	12.9	9.00e-05	0	58	0	59768832	48	5196
2026-01-28 08:15:57.80	94.68	12.12	-38.9	-41.5	13.0	5.34e-05	0	58	0	62914560	48	5119
2026-01-28 08:15:58.81	94.54	12.19	-38.6	-41.7	12.7	6.86e-05	0	58	0	66060288	48	5273
2026-01-28 08:15:59.82	94.40	12.25	-39.1	-41.6	12.9	6.71e-05	0	58	0	69206016	48	5214
2026-01-28 08:16:00.83	94.26	12.32	-38.9	-41.3	13.3	2.51e-05	0	58	0	72351744	48	5021
2026-01-28 08:16:01.84	94.12	12.39	-38.8	-41.3	13.4	2.13e-05	0	58	0	75497472	48	5007
2026-01-28 08:16:02.85	93.98	12.46	-38.7	-41.3	13.4	1.60e-05	0	58	0	78643200	48	5033
2026-01-28 08:16:03.86	93.83	12.52	-38.9	-41.3	13.5	9.90e-06	0	58	0	81788928	48	5012
2026-01-28 08:16:04.87	93.69	12.59	-39.0	-41.3	13.4	6.80e-06	0	58	0	84934656	48	5035
2026-01-28 08:16:05.88	93.55	12.66	-39.1	-41.6	13.2	1.98e-05	0	58	0	88080384	48	5194
2026-01-28 08:16:06.89	93.40	12.73	-39.1	-41.5	13.3	1.29e-05	0	58	0	91226112	48	5145
2026-01-28 08:16:07.90	93.26	12.79	-39.1	-41.5	13.4	1.44e-05	0	58	0	94371840	48	5120
2026-01-28 08:16:08.91	93.11	12.86	-39.2	-41.7	13.1	3.20e-05	0	58	0	97517568	49	4941
2026-01-28 08:16:09.92	92.96	12.93	-39.3	-41.8	13.0	1.75e-05	0	58	0	100663296	49	5019
2026-01-28 08:16:10.93	92.82	12.99	-39.1	-41.6	13.2	1.67e-05	0	58	0	103809024	49	4907
2026-01-28 08:16:11.94	92.67	13.06	-39.2	-41.8	12.9	6.10e-05	0	58	0	106954752	49	4995
2026-01-28 08:16:12.95	92.52	13.13	-38.9	-41.4	13.2	2.21e-05	0	58	0	110100480	49	4789
2026-01-28 08:16:13.97	92.37	13.20	-39.1	-41.7	12.8	7.17e-05	0	58	0	113246208	49	4977
2026-01-28 08:16:14.98	92.22	13.26	-39.0	-41.6	13.0	2.89e-05	0	58	0	116391936	49	4906
2026-01-28 08:16:15.99	92.07	13.33	-39.2	-41.9	12.6	6.40e-05	0	58	0	119537664	49	5048
2026-01-28 08:16:16.99	91.92	13.40	-39.1	-41.7	12.9	5.26e-05	0	58	0	122683392	49	4951
2026-01-28 08:16:18.00	91.77	13.47	-39.0	-41.6	13.0	4.50e-05	0	58	0	125829120	49	4899
2026-01-28 08:16:19.01	91.61	13.53	-39.2	-41.8	12.8	6.48e-05	0	58	0	128974848	49	4985
2026-01-28 08:16:20.02	91.46	13.60	-39.1	-41.8	12.8	7.62e-05	0	58	0	132120576	49	4991
2026-01-28 08:16:21.03	91.31	13.67	-39.0	-41.6	13.0	5.34e-05	0	58	0	135266304	49	4897
2026-01-28 08:16:22.04	91.15	13.73	-38.8	-41.2	13.4	2.21e-05	0	58	0	138412032	49	4675
2026-01-28 08:16:23.05	91.00	13.80	-38.6	-41.0	13.5	6.80e-06	0	58	0	141557760	49	4589
2026-01-28 08:16:24.07	90.84	13.87	-38.7	-41.0	13.5	1.06e-05	0	58	0	144703488	49	4594
2026-01-28 08:16:25.08	90.68	13.94	-38.7	-41.1	13.5	1.60e-05	0	58	0	147849216	49	4606
2026-01-28 08:16:26.08	90.52	14.00	-38.7	-41.1	13.4	1.83e-05	0	58	0	150994944	49	4650
2026-01-28 08:16:27.10	90.36	14.07	-38.8	-41.2	13.3	1.90e-05	0	58	0	154140672	49	4692
2026-01-28 08:16:28.11	90.21	14.14	-38.6	-41.0	13.4	1.22e-05	0	58	0	157286400	49	4583
2026-01-28 08:16:29.12	90.05	14.21	-38.4	-40.9	13.5	1.29e-05	0	59	0	160432128	48	4761
2026-01-28 08:16:30.13	89.88	14.27	-38.4	-40.7	13.6	5.30e-06	0	58	0	163577856	48	4698
2026-01-28 08:16:31.14	89.72	14.34	-38.5	-40.9	13.3	1.44e-05	0	58	0	166723584	48	4807
2026-01-28 08:16:32.15	89.56	14.41	-38.7	-41.2	13.0	2.51e-05	0	58	0	169869312	48	4950
2026-01-28 08:16:33.16	89.40	14.47	-38.8	-41.4	12.8	5.18e-05	0	59	0	173015040	48	5081
2026-01-28 08:16:34.17	89.23	14.54	-39.1	-41.9	12.2	1.46e-04	0	58	0	176160768	48	5388
2026-01-28 08:16:35.18	89.07	14.61	-39.3	-42.3	11.9	4.20e-04	0	59	0	179306496	49	5285
2026-01-28 08:16:36.19	88.90	14.67	-39.3	-42.2	12.0	3.62e-04	0	58	0	182452224	49	5246
2026-01-28 08:16:37.20	88.74	14.74	-39.3	-42.3	11.9	4.71e-04	0	58	0	185597952	49	5282
2026-01-28 08:16:38.21	88.57	14.81	-39.3	-42.3	11.7	5.40e-04	0	58	0	188743680	49	5326
2026-01-28 08:16:39.22	88.40	14.87	-39.4	-42.4	11.6	7.48e-04	0	58	0	191889408	49	5376
2026-01-28 08:16:40.24	88.23	14.94	-39.4	-42.5	11.5	6.64e-04	0	58	0	195035136	49	5419
2026-01-28 08:16:41.25	88.07	15.01	-39.5	-42.8	11.1	1.51e-03	0	59	0	198180864	49	5595
2026-01-28 08:16:42.26	87.90	15.07	-39.6	-43.0	10.7	3.00e-03	0	59	0	201326592	49	5768
2026-01-28 08:16:43.27	87.73	15.14	-39.6	-43.1	10.5	3.86e-03	0	58	0	204472320	49	5828
2026-01-28 08:16:44.28	87.55	15.20	-39.5	-43.0	10.4	4.36e-03	0	58	0	207618048	49	5756
2026-01-28 08:16:45.29	87.38	15.27	-39.4	-43.0	10.3	5.39e-03	0	58	0	210763776	49	5764
2026-01-28 08:16:46.30	87.21	15.34	-39.4	-43.2	10.0	7.91e-03	0	59	0	213909504	49	5861
2026-01-28 08:16:47.31	87.04	15.40	-39.6	-43.5	9.5	1.37e-02	0	59	0	217055232	49	6088
2026-01-28 08:16:48.32	86.86	15.47	-39.7	-43.8	9.2	2.02e-02	0	59	0	220200960	49	6343
2026-01-28 08:16:49.33	86.69	15.53	-39.8	-44.0	9.0	2.36e-02	0	59	0	223346688	50	6079
2026-01-28 08:16:50.34	86.51	15.60	-39.8	-44.1	8.9	2.64e-02	0	59	0	226492416	50	6147
2026-01-28 08:16:51.35	86.33	15.66	-39.9	-44.1	9.0	2.43e-02	0	59	0	229638144	50	6151
2026-01-28 08:16:52.36	86.16	15.73	-40.0	-44.3	8.8	3.28e-02	0	59	0	232783872	50	6289
2026-01-28 08:16:53.37	85.98	15.80	-40.1	-44.5	8.6	3.66e-02	0	59	0	235929600	50	6441
2026-01-28 08:16:54.38	85.80	15.86	-40.1	-44.5	8.5	4.15e-02	0	59	0	239075328	50	6454
2026-01-28 08:16:55.38	85.62	15.93	-40.0	-44.4	8.6	3.54e-02	0	59	0	242221056	50	6354
2026-01-28 08:16:56.39	85.44	15.99	-39.9	-44.2	8.8	3.27e-02	0	59	0	245366784	50	6216
2026-01-28 08:16:57.40	85.26	16.06	-39.9	-44.2	8.7	3.58e-02	0	59	0	248512512	50	6273
2026-01-28 08:16:58.41	85.08	16.12	-39.8	-43.9	9.2	2.45e-02	0	59	0	251658240	50	6003
2026-01-28 08:16:59.42	84.89	16.18	-39.8	-43.6	9.6	1.35e-02	0	59	0	254803968	50	5836
2026-01-28 08:17:00.44	84.71	16.25	-39.8	-43.4	10.2	6.87e-03	0	59	0	257949696	50	5682
2026-01-28 08:17:01.45	84.52	16.31	-39.8	-43.3	10.4	4.44e-03	0	59	0	261095424	50	5647
2026-01-28 08:17:02.46	84.34	16.38	-39.9	-43.3	10.6	3.87e-03	0	59	0	264241152	50	5629
2026-01-28 08:17:03.47	84.15	16.44	-39.8	-43.0	11.2	1.99e-03	0	59	0	267386880	50	5416
2026-01-28 08:17:04.48	83.97	16.51	-39.8	-42.9	11.5	9.79e-04	0	59	0	270532608	50	5342
2026-01-28 08:17:05.49	83.78	16.57	-39.9	-42.9	11.6	7.16e-04	0	59	0	273678336	50	5394
2026-01-28 08:17:06.50	83.59	16.63	-39.9	-42.9	11.6	6.71e-04	0	59	0	276824064	50	5397
2026-01-28 08:17:07.50	83.40	16.70	-39.7	-42.7	11.9	4.00e-04	0	59	0	279969792	50	5232
2026-01-28 08:17:08.52	83.21	16.76	-39.8	-42.9	11.7	5.85e-04	0	59	0	284164096	50	5349
2026-01-28 08:17:09.53	83.02	16.82	-39.8	-42.9	11.6	7.54e-04	0	59	0	287309824	50	5379
2026-01-28 08:17:10.54	82.83	16.89	-39.7	-42.8	11.6	6.16e-04	0	59	0	289406976	50	5297
2026-01-28 08:17:11.55	82.63	16.95	-39.7	-42.6	11.8	5.52e-04	0	59	0	292552704	50	5191
2026-01-28 08:17:12.56	82.44	17.01	-39.5	-42.4	12.0	3.48e-04	0	59	0	295698432	50	5088
2026-01-28 08:17:13.57	82.25	17.07	-39.5	-42.3	12.1	2.49e-04	0	59	0	299892736	50	5032
2026-01-28 08:17:14.58	82.05	17.14	-39.5	-42.4	12.1	2.93e-04	0	59	0	303038464	50	5060
2026-01-28 08:17:15.59	81.86	17.20	-39.6	-42.5	12.0	2.78e-04	0	59	0	306184192	50	5131
2026-01-28 08:17:16.60	81.66	17.26	-39.7	-42.6	12.0	3.20e-04	0	59	0	309329920	50	5161
2026-01-28 08:17:17.61	81.46	17.32	-39.8	-42.8	11.7	5.09e-04	0	59	0	312475648	50	5283
2026-01-28 08:17:18.62	81.26	17.38	-39.6	-42.6	11.7	5.30e-04	0	59	0	315621376	50	5164
2026-01-28 08:17:19.63	81.06	17.45	-39.6	-42.7	11.4	9.24e-04	0	59	0	318767104	50	5235
2026-01-28 08:17:20.64	80.86	17.51	-39.6	-42.9	10.9	1.92e-03	0	59	0	321912832	50	5364
2026-01-28 08:17:21.65	80.66	17.57	-39.6	-43.2	10.3	4.89e-03	0	59	0	325058560	50	5546
2026-01-28 08:17:22.66	80.46	17.63	-39.6	-43.5	9.7	9.85e-03	0	59	0	328204288	50	5727
2026-01-28 08:17:23.67	80.26	17.69	-39.7	-43.8	9.1	2.20e-02	0	59	0	331350016	50	5966
2026-01-28 08:17:24.68	80.06	17.75	-39.7	-44.0	8.8	2.96e-02	0	59	0	334495744	50	6099
2026-01-28 08:17:25.69	79.85	17.81	-39.8	-44.3	8.4	4.31e-02	0	59	0	337641472	50	6319
2026-01-28 08:17:26.70	79.65	17.87	-39.9	-44.5	8.2	5.63e-02	0	59	0	340787200	50	6454
2026-01-28 08:17:27.71	79.44	17.93	-39.9	-44.6	8.1	5.87e-02	0	59	0	343932928	50	6497
2026-01-28 08:17:28.72	79.24	17.99	-39.8	-44.4	8.4	4.93e-02	0	59	0	347078656	50	6348
2026-01-28 08:17:29.73	79.03	18.05	-39.8	-44.2	8.6	3.96e-02	0	59	0	350224384	50	6230
2026-01-28 08:17:30.75	78.82	18.11	-39.8	-44.1	8.8	3.49e-02	0	59	0	353370112	50	6155
2026-01-28 08:17:31.76	78.61	18.17	-39.7	-43.8	9.2	2.79e-02	0	59	0	356515840	50	5949
2026-01-28 08:17:32.77	78.40	18.22	-39.6	-43.4	9.8	1.26e-02	0	59	0	359661568	50	5722
2026-01-28 08:17:33.78	78.19	18.28	-39.5	-43.0	10.4	4.98e-03	0	59	0	362807296	50	5419
2026-01-28 08:17:34.79	77.98	18.34	-39.4	-42.7	10.8	2.63e-03	0	59	0	365953024	50	5259
2026-01-28 08:17:35.80	77.77	18.40	-39.4	-42.6	11.2	1.55e-03	0	59	0	369098752	50	5165
2026-01-28 08:17:36.81	77.55	18.45	-39.3	-42.4	11.3	1.33e-03	0	59	0	372244480	50	5077
2026-01-28 08:17:37.82	77.34	18.51	-39.2	-42.3	11.3	1.03e-03	0	59	0	375390208	50	5016
2026-01-28 08:17:38.83	77.13	18.57	-39.2	-42.3	11.3	1.04e-03	0	59	0	378535936	50	5026
2026-01-28 08:17:39.84	76.91	18.62	-39.3	-42.4	11.2	1.40e-03	0	59	0	381681664	50	5099
2026-01-28 08:17:40.85	76.69	18.68	-39.2	-42.4	11.2	1.37e-03	0	59	0	384827392	50	5067
2026-01-28 08:17:41.87	76.47	18.74	-39.2	-42.4	11.1	1.51e-03	0	59	0	387973120	50	5068
2026-01-28 08:17:42.88	76.26	18.79	-39.2	-42.4	11.1	1.50e-03	0	59	0	391118848	50	5052
2026-01-28 08:17:43.89	76.04	18.85	-39.2	-42.5	11.0	1.71e-03	0	59	0	394264576	50	5108
2026-01-28 08:17:44.90	75.82	18.90	-39.2	-42.5	11.1	2.05e-03	0	59	0	397410304	50	5107
2026-01-28 08:17:45.91	75.60	18.96	-39.2	-42.4	11.1	1.76e-03	0	59	0	400556032	50	5083
2026-01-28 08:17:46.92	75.38	19.01	-39.3	-42.6	10.9	2.06e-03	0	59	0	403701760	50	5167
2026-01-28 08:17:47.93	75.16	19.07	-39.3	-42.6	10.8	2.32e-03	0	59	0	406847488	50	5217
2026-01-28 08:17:48.94	74.93	19.12	-39.2	-42.4	11.1	1.66e-03	0	59	0	409993216	50	5079
2026-01-28 08:17:49.95	74.71	19.17	-39.2	-42.3	11.4	9.39e-04	0	59	0	413138944	50	4991
2026-01-28 08:17:50.96	74.49	19.23	-39.3	-42.3	11.6	7.94e-04	0	59	0	416284672	50	5025
2026-01-28 08:17:51.97	74.26	19.28	-39.3	-42.2	11.8	5.58e-04	0	60	0	419430400	50	4944
2026-01-28 08:17:52.98	74.04	19.33	-39.2	-42.1	12.0	3.14e-04	0	59	0	422576128	50	4876
2026-01-28 08:17:53.99	73.81	19.38	-39.4	-42.3	12.0	3.11e-04	0	59	0	425721856	50	4992
2026-01-28 08:17:55.00	73.58	19.43	-39.4	-42.1	12.2	2.43e-04	0	60	0	428867584	50	4922
2026-01-28 08:17:56.01	73.36	19.49	-39.2	-41.9	12.5	1.04e-04	0	59	0	432013312	50	4777
2026-01-28 08:17:57.02	73.13	19.54	-39.1	-41.8	12.6	9.23e-05	0	59	0	435159040	50	4712
2026-01-28 08:17:58.03	72.90	19.59	-39.1	-41.7	12.6	9.68e-05	0	59	0	438304768	50	4702
2026-01-28 08:17:59.04	72.67	19.64	-39.1	-41.7	12.6	1.01e-04	0	59	0	441450496	50	4681
2026-01-28 08:18:00.05	72.44	19.69	-38.9	-41.5	12.8	6.48e-05	0	59	0	444596224	49	4836
2026-01-28 08:18:01.06	72.20	19.74	-39.0	-41.6	12.8	6.33e-05	0	59	0	447741952	49	4878
2026-01-28 08:18:02.07	71.97	19.78	-38.9	-41.4	13.0	5.41e-05	0	59	0	450887680	49	4799
2026-01-28 08:18:03.08	71.74	19.83	-38.9	-41.4	13.3	1.90e-05	0	59	0	454033408	49	4762
2026-01-28 08:18:04.09	71.50	19.88	-38.9	-41.2	13.5	1.37e-05	0	59	0	457179136	49	4676
2026-01-28 08:18:05.10	71.27	19.93	-38.9	-41.2	13.6	1.06e-05	0	59	0	460324864	49	4694
2026-01-28 08:18:06.12	71.03	19.98	-38.9	-41.2	13.7	8.30e-06	0	59	0	463470592	49	4690
2026-01-28 08:18:07.13	70.80	20.02	-38.7	-40.8	14.3	1.50e-06	0	59	0	466616320	49	4488
2026-01-28 08:18:08.14	70.56	20.07	-38.6	-40.7	14.6	1.50e-06	0	59	0	469762048	49	4405
2026-01-28 08:18:09.15	70.32	20.12	-38.5	-40.6	14.8	7.00e-07	0	60	0	472907776	49	4355
2026-01-28 08:18:10.16	70.08	20.16	-38.5	-40.5	14.9	0.00e+00	0	59	0	476053504	49	4304
2026-01-28 08:18:11.17	69.85	20.21	-38.5	-40.5	15.0	0.00e+00	0	59	0	479199232	48	4570
2026-01-28 08:18:12.18	69.61	20.25	-38.5	-40.5	15.0	0.00e+00	0	59	0	482344960	48	4570
2026-01-28 08:18:13.19	69.37	20.30	-38.5	-40.4	15.1	0.00e+00	0	59	0	485490688	48	4529
2026-01-28 08:18:14.20	69.12	20.34	-38.4	-40.3	15.3	0.00e+00	0	60	0	488636416	48	4466
2026-01-28 08:18:15.21	68.88	20.38	-38.4	-40.3	15.3	0.00e+00	0	59	0	491782144	48	4453
2026-01-28 08:18:16.22	68.64	20.43	-38.4	-40.2	15.4	0.00e+00	0	59	0	494927872	48	4441
2026-01-28 08:18:17.23	68.40	20.47	-38.3	-40.2	15.4	0.00e+00	0	59	0	498073600	48	4421
2026-01-28 08:18:18.24	68.15	20.51	-38.4	-40.3	15.4	0.00e+00	0	59	0	501219328	48	4447
2026-01-28 08:18:19.25	67.91	20.55	-38.3	-40.2	15.5	0.00e+00	0	59	0	504365056	48	4407
2026-01-28 08:18:20.27	67.66	20.59	-38.3	-40.2	15.5	0.00e+00	0	59	0	507510784	48	4400
2026-01-28 08:18:21.28	67.42	20.63	-38.3	-40.1	15.6	0.00e+00	0	60	0	510656512	48	4370
2026-01-28 08:18:22.29	67.17	20.67	-38.3	-40.2	15.6	0.00e+00	0	59	0	513802240	48	4394
2026-01-28 08:18:23.30	66.92	20.71	-38.2	-40.0	15.7	0.00e+00	0	59	0	516947968	48	4330
2026-01-28 08:18:24.31	66.67	20.75	-38.2	-40.0	15.8	0.00e+00	0	59	0	520093696	48	4306
2026-01-28 08:18:25.32	66.43	20.79	-38.2	-40.0	15.7	0.00e+00	0	59	0	523239424	48	4325
2026-01-28 08:18:26.33	66.18	20.83	-38.4	-40.2	15.5	0.00e+00	0	60	0	526385152	48	4433
2026-01-28 08:18:27.34	65.93	20.86	-38.4	-40.3	15.5	0.00e+00	0	60	0	529530880	48	4445
2026-01-28 08:18:28.35	65.68	20.90	-38.4	-40.2	15.6	0.00e+00	0	60	0	532676608	48	4412
2026-01-28 08:18:29.36	65.43	20.94	-38.4	-40.2	15.6	0.00e+00	0	59	0	535822336	48	4420
2026-01-28 08:18:30.37	65.18	20.97	-38.4	-40.2	15.5	0.00e+00	0	60	0	538968064	48	4438
2026-01-28 08:18:31.38	64.92	21.01	-38.4	-40.3	15.5	0.00e+00	0	59	0	542113792	48	4452
2026-01-28 08:18:32.39	64.67	21.04	-38.5	-40.3	15.5	0.00e+00	0	59	0	545259520	48	4476
2026-01-28 08:18:33.40	64.42	21.08	-38.4	-40.2	15.6	0.00e+00	0	60	0	548405248	48	4424
2026-01-28 08:18:34.41	64.17	21.11	-38.4	-40.3	15.5	0.00e+00	0	59	0	551550976	48	4463
2026-01-28 08:18:35.42	63.91	21.15	-38.6	-40.5	15.4	0.00e+00	0	59	0	555745280	48	4549
2026-01-28 08:18:36.43	63.66	21.18	-38.7	-40.6	15.2	0.00e+00	0	60	0	557842432	48	4615
2026-01-28 08:18:37.45	63.40	21.21	-38.6	-40.6	15.3	0.00e+00	0	59	0	560988160	48	4604
2026-01-28 08:18:38.46	63.14	21.24	-38.6	-40.5	15.3	0.00e+00	0	59	0	564133888	48	4581
2026-01-28 08:18:39.47	62.89	21.27	-38.6	-40.5	15.3	0.00e+00	0	60	0	568328192	48	4565
2026-01-28 08:18:40.48	62.63	21.30	-38.6	-40.6	15.3	0.00e+00	0	59	0	571473920	48	4603
2026-01-28 08:18:41.49	62.37	21.33	-38.5	-40.4	15.4	0.00e+00	0	60	0	574619648	48	4519
2026-01-28 08:18:42.50	62.12	21.36	-38.5	-40.4	15.4	0.00e+00	0	60	0	577765376	48	4527
2026-01-28 08:18:43.51	61.86	21.39	-38.5	-40.3	15.5	0.00e+00	0	59	0	580911104	48	4481
2026-01-28 08:18:44.52	61.60	21.42	-38.4	-40.3	15.5	0.00e+00	0	60	0	584056832	48	4460
2026-01-28 08:18:45.53	61.34	21.45	-38.4	-40.3	15.5	0.00e+00	0	59	0	587202560	48	4451
2026-01-28 08:18:46.55	61.08	21.47	-38.4	-40.2	15.6	0.00e+00	0	60	0	590348288	48	4410
2026-01-28 08:18:47.56	60.82	21.50	-38.4	-40.3	15.6	0.00e+00	0	59	0	593494016	48	4442
2026-01-28 08:18:48.57	60.56	21.52	-38.3	-40.1	15.7	0.00e+00	0	60	0	596639744	48	4373
2026-01-28 08:18:49.58	60.30	21.55	-38.4	-40.2	15.6	0.00e+00	0	60	0	599785472	48	4430
2026-01-28 08:18:50.59	60.04	21.57	-38.4	-40.3	15.5	0.00e+00	0	59	0	602931200	48	4448
2026-01-28 08:18:51.60	59.77	21.60	-38.4	-40.2	15.6	0.00e+00	0	60	0	606076928	48	4421
2026-01-28 08:18:52.61	59.51	21.62	-38.4	-40.3	15.5	0.00e+00	0	59	0	609222656	48	4460
2026-01-28 08:18:53.62	59.25	21.64	-38.4	-40.2	15.6	0.00e+00	0	60	0	612368384	48	4413
2026-01-28 08:18:54.63	58.99	21.67	-38.4	-40.2	15.6	0.00e+00	0	60	0	615514112	48	4410
2026-01-28 08:18:55.64	58.72	21.69	-38.3	-40.1	15.7	0.00e+00	0	60	0	618659840	48	4373
2026-01-28 08:18:56.65	58.46	21.71	-38.3	-40.1	15.7	0.00e+00	0	59	0	621805568	48	4355
2026-01-28 08:18:57.66	58.20	21.73	-38.3	-40.2	15.7	0.00e+00	0	60	0	624951296	48	4392
2026-01-28 08:18:58.67	57.93	21.75	-38.4	-40.3	15.6	0.00e+00	0	59	0	628097024	48	4444
2026-01-28 08:18:59.68	57.67	21.77	-38.5	-40.4	15.5	0.00e+00	0	60	0	631242752	48	4497
2026-01-28 08:19:00.68	57.40	21.78	-38.5	-40.4	15.4	0.00e+00	0	59	0	634388480	48	4522
2026-01-28 08:19:01.69	57.14	21.80	-38.6	-40.4	15.4	0.00e+00	0	60	0	637534208	48	4541
2026-01-28 08:19:02.70	56.87	21.82	-38.6	-40.4	15.4	0.00e+00	0	60	0	640679936	48	4534
2026-01-28 08:19:03.71	56.61	21.83	-38.5	-40.4	15.4	0.00e+00	0	59	0	643825664	48	4524
2026-01-28 08:19:04.72	56.34	21.85	-38.7	-40.6	15.3	0.00e+00	0	60	0	646971392	48	4605
2026-01-28 08:19:05.73	56.08	21.86	-38.6	-40.5	15.4	0.00e+00	0	59	0	650117120	48	4547
2026-01-28 08:19:06.74	55.81	21.88	-38.4	-40.2	15.6	0.00e+00	0	59	0	653262848	48	4425
2026-01-28 08:19:07.75	55.54	21.89	-38.3	-40.1	15.8	0.00e+00	0	59	0	656408576	48	4345
2026-01-28 08:19:08.76	55.28	21.91	-38.3	-40.0	15.8	0.00e+00	0	59	0	659554304	48	4324
2026-01-28 08:19:09.78	55.01	21.92	-38.3	-40.1	15.8	0.00e+00	0	60	0	662700032	48	4355
2026-01-28 08:19:10.79	54.74	21.93	-38.3	-40.1	15.7	0.00e+00	0	60	0	665845760	48	4383
2026-01-28 08:19:11.80	54.47	21.94	-38.4	-40.2	15.6	0.00e+00	0	60	0	668991488	48	4421
2026-01-28 08:19:12.80	54.21	21.95	-38.5	-40.3	15.5	0.00e+00	0	60	0	672137216	48	4475
2026-01-28 08:19:13.81	53.94	21.96	-38.5	-40.4	15.5	0.00e+00	0	59	0	675282944	48	4509
2026-01-28 08:19:14.82	53.67	21.97	-38.6	-40.4	15.4	0.00e+00	0	59	0	678428672	48	4542
2026-01-28 08:19:15.83	53.40	21.98	-38.6	-40.5	15.3	0.00e+00	0	60	0	681574400	48	4580
2026-01-28 08:19:16.84	53.13	21.99	-38.6	-40.5	15.3	0.00e+00	0	60	0	684720128	48	4570
2026-01-28 08:19:17.85	52.87	21.99	-38.5	-40.3	15.5	0.00e+00	0	60	0	687865856	48	4488
2026-01-28 08:19:18.86	52.60	22.00	-38.4	-40.3	15.6	0.00e+00	0	60	0	691011584	48	4452
2026-01-28 08:19:19.87	52.33	22.00	-38.5	-40.4	15.5	0.00e+00	0	60	0	694157312	48	4520
2026-01-28 08:19:20.88	52.06	22.01	-38.4	-40.3	15.6	0.00e+00	0	60	0	697303040	48	4460
2026-01-28 08:19:21.89	51.79	22.01	-38.5	-40.4	15.5	0.00e+00	0	60	0	700448768	48	4516
2026-01-28 08:19:22.90	51.52	22.02	-38.5	-40.3	15.6	0.00e+00	0	60	0	703594496	48	4464
2026-01-28 08:19:23.91	51.25	22.02	-38.4	-40.3	15.6	0.00e+00	0	60	0	706740224	48	4446
2026-01-28 08:19:24.93	50.98	22.02	-38.4	-40.2	15.7	0.00e+00	0	60	0	709885952	48	4407
2026-01-28 08:19:25.93	50.71	22.02	-38.6	-40.4	15.5	0.00e+00	0	60	0	713031680	48	4531
2026-01-28 08:19:26.95	50.44	22.03	-38.6	-40.4	15.5	0.00e+00	0	60	0	716177408	48	4520
2026-01-28 08:19:27.96	50.17	22.03	-38.6	-40.4	15.4	0.00e+00	0	60	0	719323136	48	4540
2026-01-28 08:19:28.97	49.90	22.03	-38.6	-40.4	15.5	0.00e+00	0	60	0	722468864	48	4536
2026-01-28 08:19:29.98	49.64	22.02	-38.6	-40.5	15.4	0.00e+00	0	60	0	725614592	48	4558
2026-01-28 08:19:30.99	49.37	22.02	-38.5	-40.4	15.5	0.00e+00	0	60	0	728760320	48	4500
2026-01-28 08:19:32.00	49.10	22.02	-38.5	-40.3	15.6	0.00e+00	0	60	0	731906048	48	4481
2026-01-28 08:19:33.01	48.83	22.02	-38.5	-40.4	15.5	0.00e+00	0	60	0	735051776	48	4498
2026-01-28 08:19:34.02	48.56	22.01	-38.6	-40.5	15.4	0.00e+00	0	60	0	738197504	48	4569
2026-01-28 08:19:35.03	48.29	22.01	-38.7	-40.7	15.3	0.00e+00	0	60	0	741343232	48	4652
2026-01-28 08:19:36.04	48.02	22.00	-38.8	-40.8	15.2	0.00e+00	0	60	0	744488960	48	4719
2026-01-28 08:19:37.05	47.75	22.00	-38.9	-40.8	15.1	0.00e+00	0	60	0	747634688	48	4750
2026-01-28 08:19:38.06	47.49	21.99	-38.8	-40.7	15.2	0.00e+00	0	60	0	750780416	48	4684
2026-01-28 08:19:39.07	47.22	21.98	-38.7	-40.6	15.3	0.00e+00	0	60	0	753926144	48	4627
2026-01-28 08:19:40.08	46.95	21.98	-38.7	-40.5	15.4	0.00e+00	0	60	0	757071872	48	4595
2026-01-28 08:19:41.09	46.68	21.97	-38.6	-40.5	15.4	0.00e+00	0	60	0	760217600	48	4571
2026-01-28 08:19:42.10	46.41	21.96	-38.7	-40.6	15.3	0.00e+00	0	60	0	763363328	48	4608
2026-01-28 08:19:43.11	46.15	21.95	-38.7	-40.6	15.3	0.00e+00	0	60	0	766509056	48	4630
2026-01-28 08:19:44.12	45.88	21.94	-38.6	-40.5	15.4	0.00e+00	0	60	0	769654784	48	4571
2026-01-28 08:19:45.13	45.61	21.93	-38.5	-40.3	15.6	0.00e+00	0	60	0	772800512	48	4478
2026-01-28 08:19:46.15	45.34	21.92	-38.4	-40.2	15.8	0.00e+00	0	60	0	775946240	48	4402
2026-01-28 08:19:47.16	45.07	21.90	-38.3	-40.1	15.8	0.00e+00	0	60	0	779091968	48	4364
2026-01-28 08:19:48.17	44.81	21.89	-38.4	-40.2	15.7	0.00e+00	0	60	0	782237696	48	4419
2026-01-28 08:19:49.18	44.54	21.88	-38.4	-40.3	15.7	0.00e+00	0	60	0	785383424	48	4444
2026-01-28 08:19:50.19	44.27	21.86	-38.5	-40.4	15.6	0.00e+00	0	60	0	788529152	48	4502
2026-01-28 08:19:51.20	44.01	21.85	-38.5	-40.3	15.6	0.00e+00	0	60	0	791674880	48	4457
2026-01-28 08:19:52.21	43.74	21.83	-38.5	-40.4	15.6	0.00e+00	0	60	0	794820608	48	4503
2026-01-28 08:19:53.22	43.48	21.82	-38.7	-40.6	15.4	0.00e+00	0	60	0	797966336	48	4603
2026-01-28 08:19:54.23	43.21	21.80	-38.6	-40.4	15.5	0.00e+00	0	60	0	801112064	48	4544
2026-01-28 08:19:55.24	42.95	21.78	-38.6	-40.4	15.5	0.00e+00	0	60	0	804257792	48	4526
2026-01-28 08:19:56.25	42.68	21.76	-38.5	-40.3	15.6	0.00e+00	0	60	0	807403520	48	4491
2026-01-28 08:19:57.26	42.42	21.74	-38.5	-40.3	15.7	0.00e+00	0	60	0	810549248	48	4449
2026-01-28 08:19:58.27	42.16	21.72	-38.4	-40.2	15.7	0.00e+00	0	60	0	813694976	48	4427
2026-01-28 08:19:59.28	41.89	21.70	-38.4	-40.2	15.7	0.00e+00	0	60	0	816840704	48	4420
2026-01-28 08:20:00.29	41.63	21.68	-38.4	-40.2	15.7	0.00e+00	0	60	0	819986432	48	4427
2026-01-28 08:20:01.30	41.37	21.66	-38.4	-40.2	15.7	0.00e+00	0	60	0	823132160	48	4411
2026-01-28 08:20:02.31	41.10	21.64	-38.3	-40.1	15.8	0.00e+00	0	60	0	826277888	48	4365
2026-01-28 08:20:03.32	40.84	21.62	-38.3	-40.1	15.8	0.00e+00	0	60	0	829423616	48	4368
2026-01-28 08:20:04.34	40.58	21.59	-38.3	-40.0	15.9	0.00e+00	0	60	0	832569344	48	4330
2026-01-28 08:20:05.35	40.32	21.57	-38.3	-40.0	15.9	0.00e+00	0	60	0	835715072	48	4326
2026-01-28 08:20:06.35	40.06	21.55	-38.4	-40.2	15.8	0.00e+00	0	60	0	839909376	48	4399
2026-01-28 08:20:07.36	39.80	21.52	-38.4	-40.2	15.7	0.00e+00	0	60	0	843055104	48	4433
2026-01-28 08:20:08.37	39.54	21.50	-38.5	-40.2	15.7	0.00e+00	0	60	0	846200832	48	4440
2026-01-28 08:20:09.39	39.28	21.47	-38.6	-40.4	15.5	0.00e+00	0	60	0	849346560	48	4530
2026-01-28 08:20:10.40	39.02	21.44	-38.6	-40.5	15.4	0.00e+00	0	60	0	851443712	48	4567
2026-01-28 08:20:11.41	38.76	21.41	-38.6	-40.5	15.4	0.00e+00	0	60	0	855638016	48	4556
2026-01-28 08:20:12.42	38.50	21.39	-38.7	-40.6	15.3	0.00e+00	0	60	0	858783744	48	4622
2026-01-28 08:20:13.43	38.24	21.36	-38.7	-40.6	15.4	0.00e+00	0	60	0	861929472	48	4615
2026-01-28 08:20:14.44	37.99	21.33	-38.7	-40.5	15.4	0.00e+00	0	60	0	865075200	48	4590
2026-01-28 08:20:15.45	37.73	21.30	-38.6	-40.4	15.5	0.00e+00	0	60	0	868220928	48	4543
2026-01-28 08:20:16.46	37.47	21.27	-38.6	-40.5	15.4	0.00e+00	0	60	0	871366656	48	4575
2026-01-28 08:20:17.47	37.22	21.24	-38.7	-40.5	15.4	0.00e+00	0	60	0	874512384	48	4596
2026-01-28 08:20:18.48	36.96	21.21	-38.7	-40.6	15.3	0.00e+00	0	60	0	877658112	48	4603
2026-01-28 08:20:19.49	36.71	21.17	-38.7	-40.6	15.3	0.00e+00	0	60	0	880803840	48	4611
2026-01-28 08:20:20.50	36.45	21.14	-38.7	-40.5	15.4	0.00e+00	0	60	0	883949568	48	4596
2026-01-28 08:20:21.51	36.20	21.11	-38.6	-40.5	15.4	0.00e+00	0	60	0	887095296	48	4581
2026-01-28 08:20:22.52	35.95	21.07	-38.5	-40.3	15.6	0.00e+00	0	60	0	890241024	48	4483
2026-01-28 08:20:23.53	35.69	21.04	-38.5	-40.3	15.6	0.00e+00	0	60	0	893386752	48	4480
2026-01-28 08:20:24.54	35.44	21.01	-38.5	-40.4	15.5	0.00e+00	0	60	0	896532480	48	4507
2026-01-28 08:20:25.55	35.19	20.97	-38.6	-40.4	15.5	0.00e+00	0	60	0	899678208	48	4529
2026-01-28 08:20:26.56	34.94	20.93	-38.6	-40.4	15.5	0.00e+00	0	60	0	902823936	48	4520
2026-01-28 08:20:27.57	34.69	20.90	-38.5	-40.4	15.5	0.00e+00	0	60	0	905969664	48	4509
2026-01-28 08:20:28.58	34.44	20.86	-38.6	-40.4	15.5	0.00e+00	0	60	0	909115392	48	4514
2026-01-28 08:20:29.60	34.19	20.82	-38.6	-40.5	15.4	0.00e+00	0	60	0	912261120	48	4571
2026-01-28 08:20:30.61	33.94	20.79	-38.7	-40.6	15.4	0.00e+00	0	60	0	915406848	48	4603
2026-01-28 08:20:31.62	33.69	20.75	-38.7	-40.6	15.3	0.00e+00	0	60	0	918552576	48	4648
2026-01-28 08:20:32.63	33.45	20.71	-38.8	-40.7	15.2	0.00e+00	0	60	0	921698304	48	4690
2026-01-28 08:20:33.64	33.20	20.67	-38.9	-40.8	15.1	0.00e+00	0	60	0	924844032	48	4722
2026-01-28 08:20:34.65	32.96	20.63	-38.8	-40.8	15.2	0.00e+00	0	60	0	927989760	48	4706
2026-01-28 08:20:35.66	32.71	20.59	-38.8	-40.7	15.3	0.00e+00	0	60	0	931135488	48	4665
2026-01-28 08:20:36.67	32.47	20.55	-38.8	-40.8	15.1	0.00e+00	0	60	0	934281216	48	4718
2026-01-28 08:20:37.68	32.22	20.51	-38.7	-40.6	15.3	0.00e+00	0	60	0	937426944	48	4640
2026-01-28 08:20:38.69	31.98	20.46	-38.7	-40.6	15.3	0.00e+00	0	60	0	940572672	48	4641
2026-01-28 08:20:39.70	31.74	20.42	-38.7	-40.6	15.3	0.00e+00	0	60	0	943718400	48	4618
2026-01-28 08:20:40.72	31.49	20.38	-38.7	-40.5	15.3	0.00e+00	0	60	0	946864128	48	4596
2026-01-28 08:20:41.73	31.25	20.34	-38.7	-40.6	15.3	0.00e+00	0	60	0	950009856	48	4612
2026-01-28 08:20:42.74	31.01	20.29	-38.6	-40.5	15.4	0.00e+00	0	60	0	953155584	48	4556
2026-01-28 08:20:43.75	30.77	20.25	-38.6	-40.4	15.5	0.00e+00	0	60	0	956301312	48	4534
2026-01-28 08:20:44.76	30.53	20.20	-38.5	-40.3	15.6	0.00e+00	0	60	0	959447040	48	4469
2026-01-28 08:20:45.77	30.30	20.16	-38.5	-40.3	15.6	0.00e+00	0	60	0	962592768	48	4465
2026-01-28 08:20:46.78	30.06	20.11	-38.4	-40.3	15.6	0.00e+00	0	60	0	965738496	48	4456
2026-01-28 08:20:47.79	29.82	20.07	-38.6	-40.4	15.5	0.00e+00	0	60	0	968884224	48	4514
2026-01-28 08:20:48.80	29.59	20.02	-38.6	-40.5	15.4	7.00e-07	0	60	0	972029952	48	4564
2026-01-28 08:20:49.81	29.35	19.97	-38.7	-40.6	15.3	0.00e+00	0	60	0	975175680	48	4633
2026-01-28 08:20:50.82	29.12	19.93	-38.8	-40.8	15.1	0.00e+00	0	60	0	978321408	48	4709
2026-01-28 08:20:51.83	28.88	19.88	-38.9	-40.9	15.0	0.00e+00	0	60	0	981467136	48	4780
2026-01-28 08:20:52.84	28.65	19.83	-39.0	-41.0	14.9	1.50e-06	0	60	0	984612864	48	4821
2026-01-28 08:20:53.85	28.42	19.78	-39.0	-41.0	14.9	7.00e-07	0	60	0	987758592	48	4838
2026-01-28 08:20:54.86	28.19	19.73	-39.1	-41.1	14.8	0.00e+00	0	60	0	990904320	48	4903
2026-01-28 08:20:55.87	27.95	19.68	-39.0	-41.0	14.9	0.00e+00	0	60	0	994050048	48	4857
2026-01-28 08:20:56.88	27.72	19.63	-39.0	-41.0	14.9	7.00e-07	0	60	0	997195776	48	4834
2026-01-28 08:20:57.89	27.50	19.58	-38.9	-40.9	15.0	0.00e+00	0	60	0	1000341504	48	4765
2026-01-28 08:20:58.90	27.27	19.53	-38.9	-40.9	15.0	0.00e+00	0	60	0	1003487232	48	4796
2026-01-28 08:20:59.91	27.04	19.48	-38.9	-40.9	15.0	0.00e+00	0	60	0	1006632960	48	4782
2026-01-28 08:21:00.92	26.81	19.43	-38.9	-40.9	15.0	7.00e-07	0	60	0	1009778688	48	4766
2026-01-28 08:21:01.93	26.59	19.38	-38.9	-40.9	14.9	0.00e+00	0	60	0	1012924416	48	4811
2026-01-28 08:21:02.94	26.36	19.33	-38.9	-40.9	15.0	0.00e+00	0	60	0	1016070144	48	4766
2026-01-28 08:21:03.95	26.14	19.28	-38.9	-40.9	14.9	0.00e+00	0	60	0	1019215872	48	4797
2026-01-28 08:21:04.96	25.91	19.22	-39.1	-41.1	14.7	7.00e-07	0	60	0	1022361600	48	4915
2026-01-28 08:21:05.97	25.69	19.17	-39.1	-41.2	14.7	7.00e-07	0	60	0	1025507328	48	4955
2026-01-28 08:21:06.98	25.47	19.12	-39.1	-41.2	14.6	0.00e+00	0	60	0	1028653056	48	4932
2026-01-28 08:21:07.99	25.25	19.06	-39.1	-41.2	14.6	0.00e+00	0	60	0	1031798784	48	4932
2026-01-28 08:21:09.00	25.02	19.01	-39.0	-41.0	14.9	0.00e+00	0	60	0	1034944512	48	4821
2026-01-28 08:21:10.02	24.80	18.96	-38.9	-40.8	15.0	0.00e+00	0	60	0	1038090240	48	4753
2026-01-28 08:21:11.02	24.59	18.90	-38.7	-40.7	15.1	0.00e+00	0	60	0	1041235968	48	4661
2026-01-28 08:21:12.04	24.36	18.85	-38.8	-40.8	15.0	0.00e+00	0	60	0	1044381696	48	4713
2026-01-28 08:21:13.05	24.15	18.79	-38.8	-40.8	15.0	0.00e+00	0	60	0	1047527424	48	4738
2026-01-28 08:21:14.06	23.93	18.74	-38.8	-40.8	15.0	0.00e+00	0	60	0	1050673152	48	4742
2026-01-28 08:21:15.07	23.71	18.68	-38.8	-40.8	15.0	0.00e+00	0	60	0	1053818880	48	4724
2026-01-28 08:21:16.08	23.50	18.62	-38.9	-40.8	14.9	0.00e+00	0	60	0	1056964608	48	4758
2026-01-28 08:21:17.09	23.29	18.57	-38.9	-40.9	14.9	0.00e+00	0	60	0	1060110336	48	4783
2026-01-28 08:21:18.10	23.07	18.51	-38.9	-40.9	14.9	0.00e+00	0	60	0	1063256064	48	4809
2026-01-28 08:21:19.11	22.86	18.45	-38.8	-40.7	15.1	7.00e-07	0	60	0	1066401792	48	4683
2026-01-28 08:21:20.12	22.65	18.40	-38.7	-40.6	15.2	0.00e+00	0	60	0	1069547520	48	4601
2026-01-28 08:21:21.13	22.44	18.34	-38.7	-40.7	15.2	0.00e+00	0	60	0	1072693248	48	4655
2026-01-28 08:21:22.14	22.23	18.28	-38.6	-40.5	15.2	0.00e+00	0	60	0	1075838976	48	4584
2026-01-28 08:21:23.15	22.02	18.22	-38.8	-40.7	15.1	0.00e+00	0	60	0	1078984704	48	4670
2026-01-28 08:21:24.16	21.81	18.17	-38.9	-40.9	14.9	0.00e+00	0	60	0	1082130432	48	4784
2026-01-28 08:21:25.17	21.60	18.11	-39.0	-41.1	14.7	0.00e+00	0	60	0	1085276160	48	4878
2026-01-28 08:21:26.18	21.39	18.05	-39.0	-41.1	14.7	0.00e+00	0	60	0	1088421888	48	4872
2026-01-28 08:21:27.19	21.19	17.99	-38.9	-40.9	14.8	0.00e+00	0	60	0	1091567616	48	4812
2026-01-28 08:21:28.20	20.98	17.93	-38.9	-40.9	14.9	0.00e+00	0	60	0	1094713344	48	4802
2026-01-28 08:21:29.21	20.78	17.87	-38.8	-40.7	15.1	0.00e+00	0	60	0	1097859072	48	4679
2026-01-28 08:21:30.22	20.57	17.81	-38.8	-40.7	15.1	1.50e-06	0	60	0	1101004800	48	4673
2026-01-28 08:21:31.23	20.37	17.75	-38.7	-40.6	15.1	0.00e+00	0	60	0	1104150528	48	4651
2026-01-28 08:21:32.24	20.17	17.69	-38.7	-40.7	15.1	0.00e+00	0	60	0	1107296256	48	4669
2026-01-28 08:21:33.25	19.97	17.63	-38.6	-40.6	15.2	0.00e+00	0	60	0	1110441984	48	4606
2026-01-28 08:21:34.26	19.77	17.57	-38.6	-40.5	15.3	0.00e+00	0	60	0	1114636288	48	4569
2026-01-28 08:21:35.27	19.57	17.51	-38.6	-40.6	15.2	0.00e+00	0	60	0	1117782016	48	4614
2026-01-28 08:21:36.28	19.37	17.45	-38.7	-40.7	15.1	0.00e+00	0	60	0	1119879168	48	4665
2026-01-28 08:21:37.29	19.17	17.39	-38.8	-40.8	15.0	0.00e+00	0	60	0	1123024896	48	4730
2026-01-28 08:21:38.30	18.97	17.33	-38.8	-40.8	15.0	0.00e+00	0	60	0	1127219200	48	4711
2026-01-28 08:21:39.31	18.78	17.27	-38.8	-40.8	14.9	0.00e+00	0	60	0	1130364928	48	4750
2026-01-28 08:21:40.32	18.58	17.20	-38.8	-40.8	14.9	0.00e+00	0	60	0	1133510656	48	4756
2026-01-28 08:21:41.33	18.39	17.14	-38.8	-40.8	14.9	0.00e+00	0	60	0	1136656384	48	4735
2026-01-28 08:21:42.34	18.19	17.08	-38.9	-40.9	14.9	0.00e+00	0	60	0	1139802112	48	4780
2026-01-28 08:21:43.36	18.00	17.02	-39.0	-41.0	14.7	1.50e-06	0	60	0	1142947840	48	4851
2026-01-28 08:21:44.37	17.80	16.95	-39.0	-41.0	14.7	0.00e+00	0	60	0	1146093568	48	4860
2026-01-28 08:21:45.38	17.61	16.89	-39.1	-41.2	14.5	0.00e+00	0	60	0	1149239296	48	4964
2026-01-28 08:21:46.39	17.42	16.83	-39.2	-41.4	14.3	7.00e-07	0	60	0	1152385024	48	5052
2026-01-28 08:21:47.40	17.23	16.77	-39.3	-41.5	14.3	1.50e-06	0	60	0	1155530752	49	4821
2026-01-28 08:21:48.41	17.04	16.70	-39.2	-41.3	14.4	7.00e-07	0	60	0	1158676480	49	4747
2026-01-28 08:21:49.42	16.85	16.64	-39.1	-41.3	14.4	7.00e-07	0	60	0	1161822208	49	4715
2026-01-28 08:21:50.43	16.67	16.58	-39.1	-41.2	14.4	0.00e+00	0	60	0	1164967936	49	4701
2026-01-28 08:21:51.44	16.48	16.51	-39.2	-41.4	14.3	0.00e+00	0	60	0	1168113664	49	4765
2026-01-28 08:21:52.45	16.29	16.45	-39.0	-41.1	14.6	7.00e-07	0	60	0	1171259392	49	4633
2026-01-28 08:21:53.46	16.11	16.38	-39.1	-41.2	14.5	0.00e+00	0	60	0	1174405120	49	4668
2026-01-28 08:21:54.47	15.93	16.32	-39.0	-41.0	14.7	0.00e+00	0	60	0	1177550848	49	4577
2026-01-28 08:21:55.48	15.74	16.26	-39.0	-41.0	14.6	7.00e-07	0	60	0	1180696576	49	4591
2026-01-28 08:21:56.49	15.56	16.19	-39.1	-41.2	14.5	0.00e+00	0	60	0	1183842304	49	4666
2026-01-28 08:21:57.50	15.38	16.13	-39.1	-41.2	14.4	7.00e-07	0	60	0	1186988032	49	4703
2026-01-28 08:21:58.51	15.20	16.06	-39.1	-41.3	14.3	7.00e-07	0	60	0	1190133760	49	4724
2026-01-28 08:21:59.52	15.02	16.00	-39.2	-41.4	14.2	7.00e-07	0	60	0	1193279488	49	4783
2026-01-28 08:22:00.53	14.84	15.93	-39.2	-41.4	14.2	1.50e-06	0	60	0	1196425216	49	4796
2026-01-28 08:22:01.54	14.66	15.87	-39.2	-41.4	14.2	7.00e-07	0	60	0	1199570944	49	4785
2026-01-28 08:22:02.55	14.48	15.80	-39.1	-41.2	14.4	7.00e-07	0	60	0	1202716672	49	4688
2026-01-28 08:22:03.55	14.30	15.74	-39.0	-41.1	14.5	1.50e-06	0	60	0	1205862400	49	4644
2026-01-28 08:22:04.56	14.13	15.67	-39.0	-41.1	14.5	7.00e-07	0	60	0	1209008128	49	4616
2026-01-28 08:22:05.57	13.95	15.61	-39.1	-41.2	14.4	1.50e-06	0	60	0	1212153856	49	4674
2026-01-28 08:22:06.58	13.78	15.54	-39.1	-41.2	14.4	0.00e+00	0	60	0	1215299584	49	4676
2026-01-28 08:22:07.59	13.60	15.48	-39.1	-41.2	14.4	0.00e+00	0	60	0	1218445312	49	4704
2026-01-28 08:22:08.60	13.43	15.41	-39.1	-41.3	14.3	7.00e-07	0	60	0	1221591040	49	4714
2026-01-28 08:22:09.61	13.26	15.35	-39.2	-41.4	14.2	2.20e-06	0	60	0	1224736768	49	4781
2026-01-28 08:22:10.62	13.09	15.28	-39.3	-41.5	14.1	1.50e-06	0	60	0	1227882496	49	4842
2026-01-28 08:22:11.64	12.91	15.21	-39.4	-41.6	14.0	2.20e-06	0	60	0	1231028224	49	4905
2026-01-28 08:22:12.65	12.74	15.15	-39.4	-41.6	14.0	2.20e-06	0	60	0	1234173952	49	4914
2026-01-28 08:22:13.66	12.57	15.08	-39.4	-41.6	13.9	2.20e-06	0	60	0	1237319680	49	4922
2026-01-28 08:22:14.67	12.41	15.02	-39.5	-41.8	13.8	3.00e-06	0	60	0	1240465408	49	5002
2026-01-28 08:22:15.68	12.24	14.95	-39.4	-41.7	13.8	8.30e-06	0	60	0	1243611136	49	4960
2026-01-28 08:22:16.69	12.07	14.88	-39.5	-41.8	13.7	6.80e-06	0	60	0	1246756864	49	5002
2026-01-28 08:22:17.70	11.90	14.82	-39.4	-41.7	13.8	6.80e-06	0	60	0	1249902592	49	4937
2026-01-28 08:22:18.71	11.74	14.75	-39.2	-41.5	14.0	4.50e-06	0	60	0	1253048320	49	4830
2026-01-28 08:22:19.72	11.57	14.69	-39.2	-41.4	14.1	2.20e-06	0	60	0	1256194048	49	4805
2026-01-28 08:22:20.73	11.41	14.62	-39.1	-41.3	14.1	1.50e-06	0	60	0	1259339776	49	4750
2026-01-28 08:22:21.74	11.25	14.55	-39.1	-41.3	14.1	3.80e-06	0	60	0	1262485504	49	4742
2026-01-28 08:22:22.75	11.08	14.49	-39.1	-41.3	14.2	2.20e-06	0	60	0	1265631232	49	4715
2026-01-28 08:22:23.76	10.92	14.42	-39.1	-41.3	14.1	2.20e-06	0	60	0	1268776960	49	4735
2026-01-28 08:22:24.77	10.76	14.35	-39.1	-41.4	14.1	0.00e+00	0	60	0	1271922688	49	4767
2026-01-28 08:22:25.78	10.60	14.29	-39.2	-41.4	14.0	2.20e-06	0	60	0	1275068416	49	4794
2026-01-28 08:22:26.79	10.44	14.22	-39.1	-41.3	14.1	3.00e-06	0	60	0	1278214144	49	4747
2026-01-28 08:22:27.80	10.28	14.15	-39.1	-41.3	14.1	3.00e-06	0	60	0	1281359872	49	4742
2026-01-28 08:22:28.81	10.12	14.09	-39.0	-41.2	14.1	1.50e-06	0	60	0	1284505600	49	4702
2026-01-28 08:22:29.82	9.97	14.02	-39.1	-41.3	14.1	1.50e-06	0	60	0	1287651328	49	4710
2026-01-28 08:22:30.83	9.81	13.95	-39.1	-41.3	14.1	3.80e-06	0	60	0	1290797056	49	4721
2026-01-28 08:22:31.84	9.65	13.89	-39.0	-41.2	14.1	7.00e-07	0	60	0	1293942784	49	4675
2026-01-28 08:22:32.85	9.50	13.82	-38.9	-41.0	14.2	2.20e-06	0	60	0	1297088512	49	4588
2026-01-28 08:22:33.86	9.34	13.75	-38.9	-41.1	14.1	1.50e-06	0	60	0	1300234240	49	4616
2026-01-28 08:22:34.87	9.19	13.68	-39.1	-41.4	13.8	1.50e-06	0	60	0	1303379968	49	4764
2026-01-28 08:22:35.88	9.04	13.62	-39.3	-41.7	13.5	8.30e-06	0	60	0	1306525696	49	4932
2026-01-28 08:22:36.89	8.88	13.55	-39.2	-41.5	13.6	1.37e-05	0	60	0	1309671424	49	4870
2026-01-28 08:22:37.90	8.73	13.48	-39.0	-41.3	13.7	5.30e-06	0	60	0	1312817152	49	4745
2026-01-28 08:22:38.91	8.58	13.42	-38.8	-41.1	13.8	8.30e-06	0	60	0	1315962880	49	4604
2026-01-28 08:22:39.92	8.43	13.35	-38.8	-41.1	13.7	5.30e-06	0	60	0	1319108608	49	4626
2026-01-28 08:22:40.93	8.28	13.28	-38.7	-41.1	13.6	1.06e-05	0	60	0	1322254336	49	4617
2026-01-28 08:22:41.94	8.13	13.22	-38.9	-41.3	13.3	1.83e-05	0	60	0	1325400064	49	4720
2026-01-28 08:22:42.95	7.98	13.15	-39.1	-41.7	12.8	3.66e-05	0	60	0	1328545792	49	4939
2026-01-28 08:22:43.96	7.84	13.08	-39.2	-41.9	12.6	8.01e-05	0	60	0	1331691520	49	5066
2026-01-28 08:22:44.97	7.69	13.01	-39.3	-42.0	12.4	1.49e-04	0	60	0	1334837248	49	5137
2026-01-28 08:22:45.98	7.54	12.95	-39.2	-42.0	12.2	2.12e-04	0	60	0	1337982976	49	5142
2026-01-28 08:22:46.99	7.40	12.88	-39.2	-42.0	12.3	1.84e-04	0	60	0	1341128704	49	5110
2026-01-28 08:22:48.00	7.25	12.81	-39.2	-42.1	12.1	2.67e-04	0	60	0	1344274432	49	5191
2026-01-28 08:22:49.01	7.11	12.75	-39.2	-42.2	11.9	3.71e-04	0	60	0	1347420160	49	5219
2026-01-28 08:22:50.02	6.96	12.68	-39.1	-41.9	12.1	3.88e-04	0	60	0	1350565888	49	5084
2026-01-28 08:22:51.03	6.82	12.61	-39.1	-42.1	11.9	2.76e-04	0	60	0	1353711616	49	5163
2026-01-28 08:22:52.04	6.68	12.54	-39.1	-42.1	11.8	5.86e-04	0	60	0	1356857344	49	5164
2026-01-28 08:22:53.05	6.54	12.48	-39.0	-42.0	11.8	4.22e-04	0	60	0	1360003072	49	5122
2026-01-28 08:22:54.06	6.40	12.41	-39.4	-42.6	11.0	1.50e-03	0	60	0	1363148800	49	5504
2026-01-28 08:22:55.08	6.26	12.34	-39.1	-42.3	11.0	2.03e-03	0	60	0	1366294528	49	5333
2026-01-28 08:22:56.09	6.12	12.28	-39.2	-42.6	10.6	2.90e-03	0	60	0	1369440256	49	5508
2026-01-28 08:22:57.10	5.98	12.21	-39.7	-43.8	9.2	1.28e-02	0	60	0	1372585984	50	5958
2026-01-28 08:22:58.11	5.84	12.14	-39.8	-44.2	8.5	3.49e-02	0	60	0	1375731712	50	6270
2026-01-28 08:22:59.12	5.70	12.07	-39.8	-44.3	8.4	3.90e-02	0	60	0	1378877440	50	6305
2026-01-28 08:23:00.13	5.56	12.01	-40.1	-45.4	7.2	1.04e-01	0	60	0	1382023168	50	7166
2026-01-28 08:23:01.14	5.43	11.94	-40.5	-47.0	5.7	3.46e-01	0	60	0	1385168896	51	8092
2026-01-28 08:23:02.15	5.29	11.87	-40.6	-47.9	5.0	6.56e-01	0	60	0	1388314624	51	8997
2026-01-28 08:23:03.16	5.16	11.81	-40.5	-48.4	4.7	1.18e+00	0	60	104	1390411776	51	9558
2026-01-28 08:23:04.16	5.02	11.74	-40.6	-49.6	3.9	1.39e+00	0	60	104	1390411776	51	10916
2026-01-28 08:23:05.18	4.89	11.67	-40.6	-50.0	4.1	1.46e+00	0	60	104	1390411776	51	11498
2026-01-28 08:23:06.19	4.76	11.61	-40.4	-51.9	3.8	1.49e+00	0	60	104	1390411776	51	14353
2026-01-28 08:23:07.20	4.62	11.54	-41.2	-52.7	3.8	1.49e+00	0	61	104	1390411776	52	14726
2026-01-28 08:23:08.20	4.49	11.47	-41.4	-53.0	3.8	1.49e+00	0	61	104	1390411776	53	14518
2026-01-28 08:23:09.21	4.36	11.41	-40.2	-52.4	3.8	1.49e+00	0	60	104	1390411776	52	14212
2026-01-28 08:23:10.22	4.23	11.34	-40.2	-52.3	3.8	1.49e+00	0	60	104	1390411776	52	14123
2026-01-28 08:23:11.23	4.10	11.27	-40.1	-52.3	3.8	1.49e+00	0	60	104	1390411776	52	14053
2026-01-28 08:23:12.24	3.97	11.21	-40.1	-52.2	3.8	1.49e+00	0	60	104	1390411776	52	14023
2026-01-28 08:23:13.25	3.84	11.14	-40.0	-52.2	3.8	1.49e+00	0	60	104	1390411776	52	13908
2026-01-28 08:23:14.26	3.71	11.07	-40.1	-52.3	3.8	1.49e+00	0	60	104	1390411776	52	14067
2026-01-28 08:23:15.27	3.59	11.01	-40.5	-52.7	3.8	1.49e+00	0	60	104	1390411776	52	14751
2026-01-28 08:23:16.28	3.46	10.94	-40.0	-52.2	3.8	1.49e+00	0	60	104	1390411776	52	13975
2026-01-28 08:23:17.29	3.33	10.87	-40.1	-52.3	3.8	1.49e+00	0	61	104	1390411776	52	14112
2026-01-28 08:23:18.30	3.21	10.81	-40.0	-52.2	3.8	1.49e+00	0	60	104	1390411776	52	13970
2026-01-28 08:23:19.31	3.08	10.74	-40.0	-52.2	3.8	1.49e+00	0	60	104	1390411776	52	13936
2026-01-28 08:23:20.32	2.96	10.68	-40.0	-52.2	3.8	1.49e+00	0	60	104	1390411776	52	13899
2026-01-28 08:23:21.33	2.83	10.61	-40.0	-52.2	3.8	1.49e+00	0	60	104	1390411776	51	14756
2026-01-28 08:23:22.34	2.71	10.54	-40.1	-52.2	3.8	1.49e+00	0	61	104	1390411776	51	14830
2026-01-28 08:23:23.35	2.58	10.48	-40.3	-52.4	3.8	1.49e+00	0	60	104	1390411776	51	15197
2026-01-28 08:23:24.36	2.46	10.41	-40.1	-52.3	3.8	1.49e+00	0	60	104	1390411776	51	14885
2026-01-28 08:23:25.37	2.34	10.35	-40.2	-52.4	3.8	1.49e+00	0	60	104	1390411776	51	15097
2026-01-28 08:23:26.38	2.22	10.28	-40.2	-52.3	3.8	1.49e+00	0	60	104	1390411776	51	15008
2026-01-28 08:23:27.39	2.10	10.21	-40.1	-52.2	3.8	1.49e+00	0	60	104	1390411776	51	14867
2026-01-28 08:23:28.39	1.98	10.15	-40.0	-52.2	3.8	1.49e+00	0	60	104	1390411776	51	14807
2026-01-28 08:23:29.40	1.86	10.08	-40.1	-52.3	3.8	1.49e+00	0	60	104	1390411776	51	14942
2026-01-28 08:23:30.41	1.74	10.02	-40.1	-52.3	3.8	1.49e+00	0	60	104	1390411776	51	14887
2026-01-28 08:23:31.42	1.62	9.95	-40.1	-52.3	3.8	1.49e+00	0	61	104	1390411776	51	14885
2026-01-28 08:23:32.43	1.50	9.89	-40.0	-52.2	3.8	1.49e+00	0	61	104	1390411776	51	14765
2026-01-28 08:23:33.44	1.39	9.82	-40.1	-52.3	3.8	1.49e+00	0	60	104	1390411776	51	14885
2026-01-28 08:23:34.45	1.27	9.75	-40.1	-52.3	3.8	1.49e+00	0	60	104	1390411776	51	14916
2026-01-28 08:23:35.46	1.15	9.69	-40.0	-52.2	3.8	1.49e+00	0	61	104	1390411776	51	14832
2026-01-28 08:23:36.47	1.04	9.62	-40.0	-52.2	3.8	1.49e+00	0	60	104	1390411776	51	14786
2026-01-28 08:23:37.48	0.92	9.56	-40.1	-52.2	3.8	1.49e+00	0	61	104	1390411776	51	14833
2026-01-28 08:23:38.49	0.81	9.49	-40.0	-52.2	3.8	1.49e+00	0	60	104	1390411776	51	14823
2026-01-28 08:23:39.50	0.69	9.43	-40.0	-52.2	3.8	1.49e+00	0	60	104	1390411776	51	14825
2026-01-28 08:23:40.51	0.58	9.36	-40.0	-52.2	3.8	1.49e+00	0	60	104	1390411776	51	14757
2026-01-28 08:23:41.52	0.47	9.30	-40.1	-52.2	3.8	1.49e+00	0	60	104	1390411776	51	14839
2026-01-28 08:23:42.53	0.35	9.23	-40.0	-52.2	3.8	1.49e+00	0	60	104	1390411776	51	14790
2026-01-28 08:23:43.53	0.24	9.17	-40.1	-52.3	3.8	1.49e+00	0	61	104	1390411776	51	14889
2026-01-28 08:23:44.54	0.13	9.10	-40.0	-52.2	3.8	1.49e+00	0	61	104	1390411776	51	14832
2026-01-28 08:23:45.55	0.02	9.04	-40.0	-52.2	3.8	1.49e+00	0	61	104	1390411776	51	14855
2026-01-28 08:23:46.56	359.91	8.97	-40.1	-52.3	3.8	1.49e+00	0	61	104	1390411776	51	14894
2026-01-28 08:23:47.57	359.80	8.91	-40.0	-52.3	3.8	1.49e+00	0	61	104	1390411776	51	14887
2026-01-28 08:23:48.58	359.69	8.84	-40.0	-52.2	3.8	1.49e+00	0	61	104	1390411776	51	14795
2026-01-28 08:23:49.59	359.58	8.78	-40.0	-52.2	3.8	1.49e+00	0	61	104	1390411776	51	14821
2026-01-28 08:23:50.60	359.47	8.71	-40.1	-52.3	3.8	1.49e+00	0	61	104	1390411776	51	14924
2026-01-28 08:23:51.61	359.36	8.65	-40.0	-52.2	3.8	1.49e+00	0	61	104	1390411776	51	14814
2026-01-28 08:23:52.62	359.25	8.58	-40.0	-52.2	3.8	1.49e+00	0	61	104	1390411776	51	14825
2026-01-28 08:23:53.63	359.15	8.52	-40.0	-52.2	3.8	1.49e+00	0	60	104	1390411776	51	14765
2026-01-28 08:23:54.64	359.04	8.46	-40.0	-52.2	3.8	1.49e+00	0	61	104	1390411776	51	14850
2026-01-28 08:23:55.65	358.93	8.39	-39.9	-52.1	3.8	1.49e+00	0	61	104	1390411776	51	14699
2026-01-28 08:23:56.66	358.83	8.33	-40.0	-52.2	3.8	1.49e+00	0	61	104	1390411776	51	14769
2026-01-28 08:23:57.67	358.72	8.26	-40.0	-52.2	3.8	1.49e+00	0	61	104	1390411776	51	14714
2026-01-28 08:23:58.68	358.62	8.20	-40.0	-52.2	3.8	1.49e+00	0	60	104	1390411776	51	14733
2026-01-28 08:23:59.69	358.51	8.14	-39.9	-52.1	3.8	1.49e+00	0	61	104	1390411776	51	14575
2026-01-28 08:24:00.70	358.41	8.07	-39.9	-52.1	3.8	1.49e+00	0	61	104	1390411776	51	14642
2026-01-28 08:24:01.71	358.31	8.01	-40.0	-52.2	3.8	1.49e+00	0	61	104	1390411776	51	14818
2026-01-28 08:24:02.72	358.20	7.94	-43.4	-55.8	3.8	1.49e+00	0	60	104	1390411776	57	15764
2026-01-28 08:24:03.73	358.10	7.88	-44.8	-57.4	3.8	1.49e+00	0	61	104	1390411776	60	16010
2026-01-28 08:24:04.74	358.00	7.82	-45.0	-57.6	3.8	1.49e+00	0	60	104	1390411776	60	16414
2026-01-28 08:24:05.75	357.90	7.75	-45.2	-57.8	3.8	1.49e+00	0	60	104	1390411776	60	16718
2026-01-28 08:24:06.76	357.80	7.69	-45.3	-57.9	3.8	1.49e+00	0	61	104	1390411776	61	15975
2026-01-28 08:24:07.77	357.70	7.63	-45.4	-58.0	3.8	1.49e+00	0	61	104	1390411776	61	16270
2026-01-28 08:24:08.78	357.60	7.56	-44.7	-57.9	3.8	1.49e+00	0	61	104	1390411776	60	16953
2026-01-28 08:24:09.80	357.50	7.50	-44.9	-58.0	3.8	1.49e+00	0	61	104	1390411776	61	16276
2026-01-28 08:24:10.81	357.40	7.44	-45.4	-58.0	3.8	1.49e+00	0	61	104	1390411776	61	16259
2026-01-28 08:24:11.82	357.30	7.37	-44.1	-58.0	3.8	1.49e+00	0	61	104	1390411776	61	16249
2026-01-28 08:24:12.83	357.20	7.31	-44.4	-57.9	3.8	1.49e+00	0	61	104	1390411776	61	16096
2026-01-28 08:24:13.84	357.10	7.25	-45.3	-57.9	3.8	1.49e+00	0	61	104	1390411776	61	16084
2026-01-28 08:24:14.85	357.00	7.18	-45.3	-57.9	3.8	1.49e+00	0	61	104	1390411776	61	15991
2026-01-28 08:24:15.86	356.91	7.12	-45.3	-57.9	3.8	1.49e+00	0	61	104	1390411776	61	15978
2026-01-28 08:24:16.87	356.81	7.06	-45.2	-57.8	3.8	1.49e+00	0	61	104	1390411776	61	15894
2026-01-28 08:24:17.88	356.71	7.00	-45.2	-57.8	3.8	1.49e+00	0	61	104	1390411776	61	15846
2026-01-28 08:24:18.89	356.62	6.93	-45.2	-57.8	3.8	1.49e+00	0	60	104	1390411776	61	15832
2026-01-28 08:24:19.90	356.52	6.87	-45.2	-57.8	3.8	1.49e+00	0	61	104	1390411776	61	15782
2026-01-28 08:24:20.91	356.43	6.81	-45.2	-57.8	3.8	1.49e+00	0	60	104	1390411776	61	15833
2026-01-28 08:24:21.92	356.33	6.75	-45.1	-57.7	3.8	1.49e+00	0	61	104	1390411776	61	15744
2026-01-28 08:24:22.93	356.24	6.68	-45.2	-57.8	3.8	1.49e+00	0	61	104	1390411776	61	15783
2026-01-28 08:24:23.94	356.15	6.62	-45.2	-57.8	3.8	1.49e+00	0	61	104	1390411776	61	15821
2026-01-28 08:24:24.95	356.05	6.56	-45.2	-57.8	3.8	1.49e+00	0	61	104	1390411776	61	15788
2026-01-28 08:24:25.96	355.96	6.50	-45.1	-57.8	3.8	1.49e+00	0	60	104	1390411776	61	15788
2026-01-28 08:24:26.97	355.87	6.44	-45.2	-57.8	3.8	1.49e+00	0	61	104	1390411776	61	15779
2026-01-28 08:24:27.98	355.78	6.37	-45.2	-57.8	3.8	1.49e+00	0	60	104	1390411776	61	15792
2026-01-28 08:24:28.99	355.68	6.31	-45.2	-57.8	3.8	1.49e+00	0	60	104	1390411776	61	15779
2026-01-28 08:24:30.00	355.59	6.25	-45.2	-57.7	3.8	1.49e+00	0	61	104	1390411776	61	15746
2026-01-28 08:24:31.01	355.50	6.19	-45.1	-57.8	3.8	1.49e+00	0	61	104	1390411776	61	15770
2026-01-28 08:24:32.03	355.41	6.13	-45.2	-57.8	3.8	1.49e+00	0	61	104	1390411776	61	15798
2026-01-28 08:24:33.04	355.32	6.06	-45.0	-57.7	3.8	1.49e+00	0	60	104	1390411776	60	16683
2026-01-28 08:24:34.04	355.23	6.00	-45.1	-57.7	3.8	1.49e+00	0	60	104	1390411776	60	16672
2026-01-28 08:24:35.05	355.14	5.94	-44.8	-57.8	3.8	1.49e+00	0	61	104	1390411776	60	16743
2026-01-28 08:24:36.06	355.05	5.88	-44.6	-57.8	3.8	1.49e+00	0	61	104	1390411776	60	16724
2026-01-28 08:24:37.07	354.97	5.82	-45.1	-57.8	3.8	1.49e+00	0	61	104	1390411776	60	16760
2026-01-28 08:24:38.08	354.88	5.76	-45.2	-57.8	3.8	1.49e+00	0	61	104	1390411776	60	16736
2026-01-28 08:24:39.09	354.79	5.70	-45.1	-57.7	3.8	1.49e+00	0	61	104	1390411776	60	16649
2026-01-28 08:24:40.10	354.70	5.64	-45.1	-57.8	3.8	1.49e+00	0	61	104	1390411776	60	16717
2026-01-28 08:24:41.11	354.62	5.58	-44.8	-57.8	3.8	1.49e+00	0	61	104	1390411776	60	16754
2026-01-28 08:24:42.13	354.53	5.51	-44.9	-57.8	3.8	1.49e+00	0	61	104	1390411776	60	16709
2026-01-28 08:24:43.14	354.44	5.45	-45.1	-57.7	3.8	1.49e+00	0	60	104	1390411776	60	16643
2026-01-28 08:24:44.15	354.36	5.39	-44.9	-57.7	3.8	1.49e+00	0	61	104	1390411776	60	16693
2026-01-28 08:24:45.16	354.27	5.33	-45.1	-57.8	3.8	1.49e+00	0	61	104	1390411776	60	16721
2026-01-28 08:24:46.17	354.19	5.27	-45.1	-57.7	3.8	1.49e+00	0	61	104	1390411776	60	16692
2026-01-28 08:24:47.18	354.10	5.21	-45.1	-57.8	3.8	1.49e+00	0	61	104	1390411776	60	16728
2026-01-28 08:24:48.19	354.02	5.15	-45.1	-57.8	3.8	1.49e+00	0	61	104	1390411776	60	16703
2026-01-28 08:24:49.20	353.93	5.09	-45.1	-57.7	3.8	1.49e+00	0	61	104	1390411776	60	16655
2026-01-28 08:24:50.21	353.85	5.03	-45.1	-57.8	3.8	1.49e+00	0	61	104	1390411776	60	16707
2026-01-28 08:24:51.22	353.77	4.97	-45.1	-57.7	3.8	1.49e+00	0	61	104	1390411776	60	16649
2026-01-28 08:24:52.23	353.68	4.91	-45.1	-57.7	3.8	1.49e+00	0	61	104	1390411776	60	16683
2026-01-28 08:24:53.24	353.60	4.85	-45.1	-57.7	3.8	1.49e+00	0	61	104	1390411776	60	16630
2026-01-28 08:24:54.25	353.52	4.79	-44.2	-57.7	3.8	1.49e+00	0	61	104	1390411776	60	16646
2026-01-28 08:24:55.26	353.44	4.73	-45.1	-57.7	3.8	1.49e+00	0	61	104	1390411776	60	16654
2026-01-28 08:24:56.27	353.36	4.67	-44.6	-57.7	3.8	1.49e+00	0	61	104	1390411776	60	16656
2026-01-28 08:24:57.28	353.28	4.61	-44.7	-57.7	3.8	1.49e+00	0	61	104	1390411776	60	16633
2026-01-28 08:24:58.29	353.19	4.55	-45.1	-57.7	3.8	1.49e+00	0	61	104	1390411776	60	16641
2026-01-28 08:24:59.30	353.11	4.49	-45.1	-57.7	3.8	1.49e+00	0	61	104	1390411776	60	16614
2026-01-28 08:25:00.31	353.03	4.43	-45.1	-57.7	3.8	1.49e+00	0	61	104	1390411776	60	16553
