passes_logs/2026/01/28/R2.0S_Moscow/R2.0S_Moscow__20260128_223203_SUOMI_NPP_rec.log

#Pass ID: 20260128_223203_SUOMI NPP
#Satellite: SUOMI NPP
#Configuration: NPP
#almurnet v.1.7.20251203
#Start time: 2026-01-28 22:32:04

#Version: 2.2.20231116
#Station: R2.0S_Moscow
#Location: 37.707566 lon 55.798166 lat
#TLE: 1 37849U 11061A   26027.86188320  .00000172  00000+0  10275-3 0  9990
#TLE: 2 37849  98.7823 329.8005 0002088  41.4184 318.7150 14.19530883738530

#Time	Az	El	Level	Level2	SNR	BER	BlckErr	Temp	State	Recorded	gain1	gain2
2026-01-28 22:32:04.46	23.11	2.05	-42.9	-57.5	3.8	1.49e+00	0	49	0	0	57	19230
2026-01-28 22:32:05.47	23.17	2.11	-42.9	-57.5	3.8	1.49e+00	0	49	104	0	57	19248
2026-01-28 22:32:06.48	23.23	2.16	-42.9	-57.5	3.8	1.49e+00	0	49	104	0	57	19256
2026-01-28 22:32:07.49	23.29	2.22	-42.9	-57.5	3.8	1.49e+00	0	49	104	0	57	19202
2026-01-28 22:32:08.50	23.35	2.28	-42.9	-57.5	3.8	1.49e+00	0	50	104	0	57	19181
2026-01-28 22:32:09.51	23.41	2.34	-42.9	-57.5	3.8	1.49e+00	0	49	104	0	57	19172
2026-01-28 22:32:10.52	23.47	2.40	-42.9	-57.5	3.8	1.49e+00	0	50	104	0	57	19172
2026-01-28 22:32:11.53	23.53	2.46	-42.9	-57.5	3.8	1.49e+00	0	49	104	0	57	19184
2026-01-28 22:32:12.54	23.59	2.52	-42.9	-57.5	3.8	1.49e+00	0	50	104	0	57	19194
2026-01-28 22:32:13.55	23.65	2.58	-42.9	-57.5	3.8	1.49e+00	0	50	104	0	57	19204
2026-01-28 22:32:14.56	23.72	2.63	-42.9	-57.5	3.8	1.49e+00	0	50	104	0	57	19192
2026-01-28 22:32:15.57	23.78	2.69	-42.9	-57.5	3.8	1.49e+00	0	50	104	0	57	19209
2026-01-28 22:32:16.58	23.84	2.75	-42.9	-57.5	3.8	1.49e+00	0	50	104	0	57	19192
2026-01-28 22:32:17.59	23.90	2.81	-42.9	-57.5	3.8	1.49e+00	0	50	104	0	57	19209
2026-01-28 22:32:18.60	23.96	2.87	-42.9	-57.5	3.8	1.49e+00	0	50	104	0	57	19190
2026-01-28 22:32:19.61	24.03	2.93	-42.9	-57.5	3.8	1.49e+00	0	50	104	0	57	19196
2026-01-28 22:32:20.62	24.09	2.99	-42.9	-57.5	3.8	1.49e+00	0	50	104	0	57	19169
2026-01-28 22:32:21.63	24.15	3.05	-42.9	-57.5	3.8	1.49e+00	0	50	104	0	57	19181
2026-01-28 22:32:22.64	24.21	3.11	-42.9	-57.4	3.8	1.49e+00	0	50	104	0	57	19153
2026-01-28 22:32:23.65	24.28	3.17	-42.9	-57.5	3.8	1.49e+00	0	51	104	0	57	19179
2026-01-28 22:32:24.66	24.34	3.23	-42.9	-57.4	3.8	1.49e+00	0	50	104	0	57	19159
2026-01-28 22:32:25.67	24.40	3.29	-42.9	-57.5	3.8	1.49e+00	0	51	104	0	57	19205
2026-01-28 22:32:26.68	24.47	3.35	-42.9	-57.5	3.8	1.49e+00	0	51	104	0	57	19250
2026-01-28 22:32:27.69	24.53	3.41	-42.9	-57.5	3.8	1.49e+00	0	51	104	0	57	19201
2026-01-28 22:32:28.70	24.60	3.47	-42.9	-57.5	3.8	1.49e+00	0	51	104	0	57	19239
2026-01-28 22:32:29.71	24.66	3.53	-42.9	-57.5	3.8	1.49e+00	0	51	104	0	57	19213
2026-01-28 22:32:30.72	24.73	3.60	-42.9	-57.4	3.8	1.49e+00	0	51	104	0	57	19149
2026-01-28 22:32:31.73	24.79	3.66	-42.9	-57.5	3.8	1.49e+00	0	51	104	0	57	19254
2026-01-28 22:32:32.75	24.86	3.72	-42.9	-57.5	3.8	1.49e+00	0	51	104	0	57	19188
2026-01-28 22:32:33.76	24.93	3.78	-42.9	-57.4	3.8	1.49e+00	0	51	104	0	57	19114
2026-01-28 22:32:34.77	24.99	3.84	-42.9	-57.5	3.8	1.49e+00	0	51	104	0	57	19183
2026-01-28 22:32:35.78	25.06	3.90	-42.9	-57.4	3.8	1.49e+00	0	51	104	0	57	19154
2026-01-28 22:32:36.79	25.12	3.96	-42.9	-57.4	3.8	1.49e+00	0	51	104	0	57	19164
2026-01-28 22:32:37.80	25.19	4.02	-42.9	-57.4	3.8	1.49e+00	0	51	104	0	57	19160
2026-01-28 22:32:38.81	25.26	4.09	-42.9	-57.5	3.8	1.49e+00	0	51	104	0	57	19188
2026-01-28 22:32:39.82	25.33	4.15	-42.9	-57.4	3.8	1.49e+00	0	51	104	0	57	19165
2026-01-28 22:32:40.83	25.39	4.21	-42.9	-57.4	3.8	1.49e+00	0	52	104	0	57	19149
2026-01-28 22:32:41.84	25.46	4.27	-42.9	-57.5	3.8	1.49e+00	0	52	104	0	57	19181
2026-01-28 22:32:42.85	25.53	4.33	-42.9	-57.4	3.8	1.49e+00	0	52	104	0	57	19137
2026-01-28 22:32:43.86	25.60	4.40	-42.9	-57.5	3.8	1.49e+00	0	52	104	0	57	19181
2026-01-28 22:32:44.87	25.67	4.46	-42.9	-57.5	3.8	1.49e+00	0	52	104	0	57	19203
2026-01-28 22:32:45.88	25.74	4.52	-42.9	-57.5	3.8	1.49e+00	0	52	104	0	57	19196
2026-01-28 22:32:46.89	25.81	4.58	-42.9	-57.5	3.8	1.49e+00	0	52	104	0	57	19185
2026-01-28 22:32:47.90	25.88	4.65	-42.9	-57.5	3.8	1.49e+00	0	52	104	0	57	19175
2026-01-28 22:32:48.91	25.95	4.71	-42.9	-57.4	3.8	1.49e+00	0	52	104	0	57	19150
2026-01-28 22:32:49.92	26.02	4.77	-42.9	-57.5	3.8	1.49e+00	0	52	104	0	57	19214
2026-01-28 22:32:50.93	26.09	4.84	-42.9	-57.5	3.8	1.49e+00	0	52	104	0	57	19180
2026-01-28 22:32:51.94	26.16	4.90	-42.9	-57.5	3.8	1.49e+00	0	52	104	0	57	19211
2026-01-28 22:32:52.95	26.23	4.96	-42.9	-57.5	3.8	1.49e+00	0	52	104	0	57	19222
2026-01-28 22:32:53.96	26.30	5.03	-42.9	-57.4	3.8	1.49e+00	0	52	104	0	57	19159
2026-01-28 22:32:54.97	26.37	5.09	-42.9	-57.5	3.8	1.49e+00	0	52	104	0	57	19219
2026-01-28 22:32:55.98	26.44	5.15	-42.9	-57.5	3.8	1.49e+00	0	52	104	0	57	19176
2026-01-28 22:32:56.99	26.51	5.22	-42.9	-57.5	3.8	1.49e+00	0	53	104	0	57	19209
2026-01-28 22:32:58.00	26.59	5.28	-42.9	-57.4	3.8	1.49e+00	0	53	104	0	57	19167
2026-01-28 22:32:59.01	26.66	5.34	-42.9	-57.4	3.8	1.49e+00	0	52	104	0	57	19124
2026-01-28 22:33:00.02	26.73	5.41	-42.9	-57.5	3.8	1.49e+00	0	53	104	0	57	19196
2026-01-28 22:33:01.03	26.81	5.47	-42.9	-57.4	3.8	1.49e+00	0	53	104	0	57	19127
2026-01-28 22:33:02.04	26.88	5.54	-42.9	-57.5	3.8	1.49e+00	0	52	104	0	57	19234
2026-01-28 22:33:03.05	26.95	5.60	-42.9	-57.4	3.8	1.49e+00	0	53	104	0	57	19165
2026-01-28 22:33:04.06	27.03	5.67	-42.9	-57.4	3.8	1.49e+00	0	53	104	0	57	19157
2026-01-28 22:33:05.07	27.10	5.73	-42.9	-57.5	3.8	1.49e+00	0	53	104	0	57	19192
2026-01-28 22:33:06.08	27.18	5.80	-42.9	-57.4	3.8	1.49e+00	0	53	104	0	57	19147
2026-01-28 22:33:07.09	27.25	5.86	-42.9	-57.4	3.8	1.49e+00	0	53	104	0	57	19033
2026-01-28 22:33:08.10	27.33	5.93	-42.9	-57.4	3.8	1.49e+00	0	53	104	0	57	19071
2026-01-28 22:33:09.11	27.40	5.99	-42.9	-57.4	3.8	1.49e+00	0	53	104	0	57	19005
2026-01-28 22:33:10.12	27.48	6.06	-42.9	-57.4	3.8	1.49e+00	0	53	104	0	57	18954
2026-01-28 22:33:11.13	27.56	6.12	-42.9	-57.4	3.8	1.49e+00	0	53	104	0	57	19024
2026-01-28 22:33:12.14	27.63	6.19	-42.9	-57.4	3.8	1.49e+00	0	53	104	0	57	18984
2026-01-28 22:33:13.16	27.71	6.25	-42.9	-57.4	3.8	1.49e+00	0	53	104	0	57	19040
2026-01-28 22:33:14.17	27.79	6.32	-42.9	-57.4	3.8	1.49e+00	0	53	104	0	57	19071
2026-01-28 22:33:15.18	27.87	6.39	-42.9	-57.3	3.8	1.49e+00	0	53	104	0	57	18753
2026-01-28 22:33:16.19	27.94	6.45	-42.9	-57.0	3.8	1.49e+00	0	54	104	0	57	18148
2026-01-28 22:33:17.20	28.02	6.52	-42.9	-56.5	3.8	1.49e+00	0	54	104	0	57	17167
2026-01-28 22:33:18.21	28.10	6.59	-42.8	-56.2	3.8	1.49e+00	0	54	104	0	57	16572
2026-01-28 22:33:19.22	28.18	6.65	-42.8	-56.1	3.8	1.49e+00	0	54	104	0	57	16472
2026-01-28 22:33:20.23	28.26	6.72	-42.8	-55.9	3.8	1.49e+00	0	53	104	0	57	16034
2026-01-28 22:33:21.24	28.34	6.79	-42.8	-55.7	3.8	1.49e+00	0	54	104	0	57	15584
2026-01-28 22:33:22.25	28.42	6.85	-42.8	-56.2	3.8	1.49e+00	0	53	104	0	57	16561
2026-01-28 22:33:23.26	28.50	6.92	-42.8	-55.7	3.8	1.49e+00	0	54	104	0	57	15717
2026-01-28 22:33:24.27	28.58	6.99	-42.8	-55.7	3.8	1.49e+00	0	54	104	0	57	15611
2026-01-28 22:33:25.28	28.66	7.05	-42.8	-56.4	3.8	1.49e+00	0	54	104	0	57	17036
2026-01-28 22:33:26.29	28.74	7.12	-42.9	-57.2	3.8	1.49e+00	0	54	104	0	57	18591
2026-01-28 22:33:27.30	28.83	7.19	-42.9	-57.2	3.8	1.49e+00	0	54	104	0	57	18562
2026-01-28 22:33:28.31	28.91	7.26	-42.9	-56.8	3.8	1.49e+00	0	54	104	0	57	17786
2026-01-28 22:33:29.32	28.99	7.32	-42.8	-56.3	3.8	1.49e+00	0	54	104	0	57	16812
2026-01-28 22:33:30.33	29.07	7.39	-42.7	-54.9	3.8	1.49e+00	0	54	104	0	57	14219
2026-01-28 22:33:31.34	29.16	7.46	-42.6	-52.7	4.6	1.32e+00	0	54	0	0	57	11056
2026-01-28 22:33:32.35	29.24	7.53	-42.2	-50.5	5.9	6.51e-01	0	54	0	2097152	56	9076
2026-01-28 22:33:33.36	29.33	7.60	-41.8	-48.9	7.1	1.80e-01	0	54	0	4194304	55	8032
2026-01-28 22:33:34.37	29.41	7.67	-41.5	-47.8	8.1	7.83e-02	0	54	0	6291456	55	7065
2026-01-28 22:33:35.38	29.50	7.73	-41.4	-47.5	8.4	4.75e-02	0	54	0	7340032	54	7283
2026-01-28 22:33:36.39	29.58	7.80	-41.4	-47.3	8.6	4.21e-02	0	54	0	9437184	54	7085
2026-01-28 22:33:37.40	29.67	7.87	-41.3	-47.1	8.8	3.46e-02	0	54	0	11534336	54	6929
2026-01-28 22:33:38.41	29.75	7.94	-41.1	-46.4	9.6	1.86e-02	0	54	0	13631488	54	6392
2026-01-28 22:33:39.42	29.84	8.01	-41.0	-46.1	9.9	9.91e-03	0	54	0	15728640	54	6164
2026-01-28 22:33:40.43	29.93	8.08	-41.1	-45.8	10.6	1.07e-02	0	54	0	17825792	54	5943
2026-01-28 22:33:41.44	30.01	8.15	-41.6	-46.8	9.2	1.14e+00	0	54	104	17825792	55	6339
2026-01-28 22:33:42.45	30.10	8.22	-41.7	-49.0	6.5	4.62e-01	0	54	0	18874368	54	8637
2026-01-28 22:33:43.46	30.19	8.29	-42.0	-47.7	9.1	1.06e-02	0	54	0	20971520	54	7432
2026-01-28 22:33:44.47	30.28	8.36	-41.2	-45.8	10.8	2.16e-01	0	54	0	23068672	54	5962
2026-01-28 22:33:45.48	30.37	8.43	-41.4	-46.5	9.8	2.36e-02	0	54	0	24117248	54	6485
2026-01-28 22:33:46.49	30.45	8.50	-41.0	-45.5	11.1	1.69e-03	0	55	0	26214400	53	6097
2026-01-28 22:33:47.50	30.54	8.57	-41.0	-45.4	11.2	1.76e-03	0	54	0	28311552	53	6035
2026-01-28 22:33:48.51	30.63	8.64	-41.0	-45.4	11.3	1.53e-03	0	55	0	30408704	53	5994
2026-01-28 22:33:49.52	30.72	8.71	-41.1	-45.6	11.1	1.26e-03	0	55	0	32505856	53	6181
2026-01-28 22:33:50.53	30.82	8.78	-41.1	-45.5	11.2	1.34e-03	0	55	0	33554432	53	6121
2026-01-28 22:33:51.54	30.91	8.85	-41.2	-45.6	11.2	1.26e-03	0	55	0	35651584	53	6184
2026-01-28 22:33:52.55	31.00	8.92	-41.3	-45.8	11.0	1.59e-03	0	55	0	37748736	53	6311
2026-01-28 22:33:53.56	31.09	8.99	-41.3	-45.8	11.1	1.24e-03	0	55	0	39845888	53	6298
2026-01-28 22:33:54.57	31.18	9.06	-41.2	-45.6	11.3	1.21e-03	0	55	0	41943040	53	6183
2026-01-28 22:33:55.58	31.28	9.14	-41.3	-45.7	11.2	1.51e-03	0	55	0	44040192	53	6213
2026-01-28 22:33:56.59	31.37	9.21	-41.2	-45.5	11.4	9.71e-04	0	55	0	45088768	53	6128
2026-01-28 22:33:57.61	31.46	9.28	-41.2	-45.6	11.4	1.08e-03	0	55	0	47185920	53	6133
2026-01-28 22:33:58.62	31.56	9.35	-41.3	-45.6	11.3	1.18e-03	0	55	0	49283072	53	6196
2026-01-28 22:33:59.63	31.65	9.42	-41.2	-45.4	11.6	7.06e-04	0	55	0	51380224	53	6059
2026-01-28 22:34:00.64	31.75	9.50	-41.2	-45.3	11.6	6.95e-04	0	55	0	53477376	53	5977
2026-01-28 22:34:01.65	31.84	9.57	-41.1	-45.2	11.8	5.58e-04	0	55	0	54525952	53	5918
2026-01-28 22:34:02.66	31.94	9.64	-41.0	-44.9	12.1	4.22e-04	0	55	0	56623104	53	5695
2026-01-28 22:34:03.67	32.04	9.71	-41.1	-45.1	12.0	2.42e-04	0	55	0	58720256	53	5798
2026-01-28 22:34:04.68	32.13	9.79	-41.0	-44.8	12.3	3.37e-04	0	55	0	60817408	53	5614
2026-01-28 22:34:05.69	32.23	9.86	-41.0	-44.8	12.4	1.68e-04	0	55	0	62914560	53	5603
2026-01-28 22:34:06.70	32.33	9.93	-40.9	-44.7	12.4	1.69e-04	0	55	0	63963136	53	5555
2026-01-28 22:34:07.71	32.43	10.00	-41.0	-44.7	12.4	1.47e-04	0	55	0	66060288	53	5575
2026-01-28 22:34:08.72	32.53	10.08	-41.0	-44.7	12.5	1.22e-04	0	55	0	68157440	53	5574
2026-01-28 22:34:09.73	32.63	10.15	-41.0	-44.8	12.4	1.11e-04	0	55	0	70254592	53	5610
2026-01-28 22:34:10.74	32.72	10.23	-41.1	-44.9	12.4	1.20e-04	0	55	0	72351744	53	5657
2026-01-28 22:34:11.74	32.82	10.30	-41.0	-44.8	12.4	1.37e-04	0	55	0	73400320	53	5626
2026-01-28 22:34:12.75	32.92	10.37	-41.1	-44.9	12.4	1.62e-04	0	55	0	75497472	53	5686
2026-01-28 22:34:13.76	33.03	10.45	-41.2	-45.2	12.1	2.05e-04	0	55	0	77594624	53	5870
2026-01-28 22:34:14.77	33.13	10.52	-41.3	-45.2	12.1	2.39e-04	0	55	0	79691776	53	5907
2026-01-28 22:34:15.78	33.23	10.59	-41.4	-45.4	11.9	2.87e-04	0	55	0	81788928	53	6059
2026-01-28 22:34:16.79	33.33	10.67	-41.5	-45.6	11.8	6.01e-04	0	55	0	82837504	53	6154
2026-01-28 22:34:17.80	33.44	10.74	-41.4	-45.6	11.8	4.70e-04	0	55	0	84934656	53	6149
2026-01-28 22:34:18.81	33.54	10.82	-41.5	-45.6	11.7	4.62e-04	0	55	0	87031808	53	6189
2026-01-28 22:34:19.82	33.64	10.89	-41.5	-45.6	11.8	7.70e-04	0	56	0	89128960	53	6172
2026-01-28 22:34:20.83	33.75	10.97	-41.4	-45.5	11.8	5.00e-04	0	56	0	91226112	53	6115
2026-01-28 22:34:21.84	33.85	11.04	-41.4	-45.6	11.7	7.30e-04	0	56	0	92274688	53	6160
2026-01-28 22:34:22.85	33.96	11.12	-41.5	-45.7	11.7	5.14e-04	0	56	0	94371840	53	6248
2026-01-28 22:34:23.86	34.07	11.19	-41.5	-45.6	11.8	5.53e-04	0	55	0	96468992	53	6165
2026-01-28 22:34:24.87	34.17	11.27	-41.5	-45.7	11.7	6.90e-04	0	56	0	98566144	53	6215
2026-01-28 22:34:25.88	34.28	11.35	-41.5	-45.6	11.8	3.87e-04	0	56	0	100663296	53	6136
2026-01-28 22:34:26.89	34.39	11.42	-41.4	-45.4	11.9	4.45e-04	0	56	0	101711872	53	6047
2026-01-28 22:34:27.90	34.50	11.50	-41.5	-45.6	11.8	4.01e-04	0	56	0	103809024	53	6151
2026-01-28 22:34:28.91	34.61	11.57	-41.5	-45.7	11.7	5.17e-04	0	56	0	105906176	53	6235
2026-01-28 22:34:29.92	34.71	11.65	-41.5	-45.7	11.7	4.46e-04	0	56	0	108003328	53	6212
2026-01-28 22:34:30.93	34.82	11.73	-41.5	-45.6	11.9	4.81e-04	0	56	0	110100480	53	6153
2026-01-28 22:34:31.94	34.94	11.80	-41.4	-45.4	12.0	3.74e-04	0	56	0	112197632	53	6034
2026-01-28 22:34:32.95	35.05	11.88	-41.4	-45.4	12.0	2.87e-04	0	56	0	113246208	53	6026
2026-01-28 22:34:33.96	35.16	11.96	-41.4	-45.4	12.1	3.51e-04	0	56	0	115343360	53	6013
2026-01-28 22:34:34.97	35.27	12.04	-41.3	-45.3	12.2	2.27e-04	0	56	0	117440512	53	5943
2026-01-28 22:34:35.98	35.38	12.11	-41.3	-45.1	12.4	2.00e-04	0	56	0	119537664	53	5829
2026-01-28 22:34:36.99	35.50	12.19	-41.3	-45.2	12.3	1.66e-04	0	56	0	121634816	53	5869
2026-01-28 22:34:38.00	35.61	12.27	-41.4	-45.3	12.2	2.15e-04	0	56	0	122683392	53	5943
2026-01-28 22:34:39.01	35.73	12.35	-41.3	-45.1	12.4	1.17e-04	0	56	0	124780544	53	5841
2026-01-28 22:34:40.02	35.84	12.42	-41.3	-45.2	12.3	1.44e-04	0	56	0	126877696	53	5881
2026-01-28 22:34:41.03	35.96	12.50	-41.3	-45.1	12.4	1.17e-04	0	56	0	128974848	53	5807
2026-01-28 22:34:42.04	36.07	12.58	-41.2	-44.9	12.7	1.17e-04	0	56	0	131072000	53	5674
2026-01-28 22:34:43.05	36.19	12.66	-41.3	-45.0	12.5	8.31e-05	0	56	0	132120576	53	5763
2026-01-28 22:34:44.06	36.31	12.74	-41.2	-45.0	12.6	1.07e-04	0	56	0	134217728	53	5744
2026-01-28 22:34:45.07	36.43	12.82	-41.1	-44.7	12.8	9.38e-05	0	56	0	136314880	53	5582
2026-01-28 22:34:46.08	36.54	12.89	-41.2	-44.9	12.7	8.16e-05	0	56	0	138412032	53	5667
2026-01-28 22:34:47.10	36.66	12.97	-41.2	-44.9	12.6	7.93e-05	0	56	0	140509184	53	5714
2026-01-28 22:34:48.10	36.78	13.05	-41.2	-44.9	12.7	7.62e-05	0	56	0	141557760	53	5675
2026-01-28 22:34:49.12	36.91	13.13	-41.2	-44.9	12.7	6.10e-05	0	56	0	143654912	53	5683
2026-01-28 22:34:50.13	37.03	13.21	-41.2	-44.9	12.7	8.23e-05	0	56	0	145752064	53	5670
2026-01-28 22:34:51.14	37.15	13.29	-41.1	-44.7	12.9	3.81e-05	0	56	0	147849216	53	5560
2026-01-28 22:34:52.15	37.27	13.37	-41.1	-44.6	13.0	5.49e-05	0	56	0	149946368	53	5504
2026-01-28 22:34:53.16	37.39	13.45	-41.1	-44.6	13.0	2.36e-05	0	56	0	152043520	53	5501
2026-01-28 22:34:54.17	37.52	13.53	-41.1	-44.6	13.1	2.44e-05	0	56	0	153092096	53	5467
2026-01-28 22:34:55.18	37.64	13.61	-41.1	-44.6	13.1	1.60e-05	0	56	0	155189248	53	5499
2026-01-28 22:34:56.19	37.77	13.69	-41.1	-44.6	13.1	2.89e-05	0	57	0	157286400	53	5468
2026-01-28 22:34:57.20	37.89	13.77	-41.0	-44.5	13.1	3.35e-05	0	56	0	159383552	53	5425
2026-01-28 22:34:58.21	38.02	13.85	-41.1	-44.7	13.0	2.05e-05	0	56	0	161480704	53	5553
2026-01-28 22:34:59.22	38.15	13.93	-41.1	-44.7	13.0	2.59e-05	0	56	0	162529280	53	5558
2026-01-28 22:35:00.23	38.27	14.01	-41.2	-44.8	12.8	4.73e-05	0	57	0	164626432	53	5646
2026-01-28 22:35:01.24	38.40	14.09	-41.3	-44.9	12.8	5.18e-05	0	56	0	166723584	53	5685
2026-01-28 22:35:02.25	38.53	14.18	-41.3	-44.9	12.7	8.23e-05	0	56	0	168820736	53	5699
2026-01-28 22:35:03.26	38.66	14.26	-41.4	-45.1	12.6	1.19e-04	0	56	0	170917888	53	5819
2026-01-28 22:35:04.27	38.79	14.34	-41.4	-45.3	12.4	1.27e-04	0	57	0	171966464	53	5931
2026-01-28 22:35:05.28	38.92	14.42	-41.4	-45.2	12.5	1.20e-04	0	57	0	174063616	53	5868
2026-01-28 22:35:06.29	39.05	14.50	-41.5	-45.3	12.3	1.61e-04	0	56	0	176160768	53	5958
2026-01-28 22:35:07.30	39.19	14.58	-41.5	-45.3	12.3	1.79e-04	0	56	0	178257920	53	5964
2026-01-28 22:35:08.31	39.32	14.67	-41.5	-45.3	12.4	1.51e-04	0	57	0	180355072	53	5972
2026-01-28 22:35:09.32	39.45	14.75	-41.4	-45.2	12.5	1.85e-04	0	57	0	181403648	53	5874
2026-01-28 22:35:10.33	39.59	14.83	-41.5	-45.3	12.3	1.55e-04	0	56	0	183500800	53	5978
2026-01-28 22:35:11.34	39.72	14.91	-41.5	-45.3	12.4	1.45e-04	0	56	0	185597952	53	5930
2026-01-28 22:35:12.35	39.86	14.99	-41.5	-45.2	12.4	1.81e-04	0	57	0	187695104	53	5919
2026-01-28 22:35:13.36	40.00	15.08	-41.5	-45.3	12.3	1.58e-04	0	57	0	189792256	53	5984
2026-01-28 22:35:14.37	40.13	15.16	-41.5	-45.3	12.4	1.72e-04	0	57	0	190840832	53	5966
2026-01-28 22:35:15.38	40.27	15.24	-41.5	-45.2	12.5	1.48e-04	0	57	0	192937984	53	5907
2026-01-28 22:35:16.39	40.41	15.33	-41.3	-45.0	12.8	7.47e-05	0	57	0	195035136	53	5762
2026-01-28 22:35:17.40	40.55	15.41	-41.3	-44.9	12.8	8.23e-05	0	57	0	197132288	53	5707
2026-01-28 22:35:18.41	40.69	15.49	-41.3	-44.9	12.8	4.73e-05	0	57	0	199229440	53	5673
2026-01-28 22:35:19.42	40.83	15.58	-41.1	-44.6	13.1	2.59e-05	0	57	0	200278016	53	5513
2026-01-28 22:35:20.43	40.98	15.66	-41.1	-44.6	13.2	2.97e-05	0	57	0	202375168	53	5476
2026-01-28 22:35:21.44	41.12	15.74	-41.1	-44.5	13.2	3.20e-05	0	57	0	204472320	53	5454
2026-01-28 22:35:22.45	41.26	15.83	-41.0	-44.3	13.4	1.75e-05	0	57	0	206569472	53	5326
2026-01-28 22:35:23.46	41.41	15.91	-41.0	-44.4	13.4	1.52e-05	0	57	0	208666624	53	5358
2026-01-28 22:35:24.47	41.55	15.99	-41.0	-44.2	13.5	1.22e-05	0	57	0	209715200	53	5278
2026-01-28 22:35:25.49	41.70	16.08	-40.9	-44.2	13.6	1.06e-05	0	57	0	211812352	53	5232
2026-01-28 22:35:26.49	41.84	16.16	-40.9	-44.2	13.6	9.90e-06	0	57	0	213909504	53	5273
2026-01-28 22:35:27.51	41.99	16.25	-40.8	-44.0	13.8	5.30e-06	0	57	0	216006656	53	5123
2026-01-28 22:35:28.52	42.14	16.33	-40.7	-43.8	14.0	5.30e-06	0	57	0	218103808	53	5026
2026-01-28 22:35:29.53	42.29	16.42	-40.7	-43.9	13.9	7.00e-07	0	57	0	220200960	53	5054
2026-01-28 22:35:30.54	42.44	16.50	-40.7	-43.8	14.0	3.00e-06	0	57	0	221249536	53	4998
2026-01-28 22:35:31.55	42.59	16.59	-40.6	-43.6	14.2	2.20e-06	0	57	0	223346688	53	4902
2026-01-28 22:35:32.56	42.74	16.67	-40.7	-43.8	14.0	3.00e-06	0	57	0	225443840	53	5006
2026-01-28 22:35:33.57	42.90	16.76	-40.6	-43.6	14.2	4.50e-06	0	57	0	227540992	53	4876
2026-01-28 22:35:34.58	43.05	16.84	-40.6	-43.6	14.3	3.00e-06	0	57	0	229638144	53	4879
2026-01-28 22:35:35.59	43.20	16.93	-40.6	-43.6	14.2	1.50e-06	0	57	0	230686720	53	4890
2026-01-28 22:35:36.60	43.36	17.01	-40.7	-43.7	14.1	7.00e-07	0	57	0	232783872	53	4978
2026-01-28 22:35:37.61	43.51	17.10	-40.6	-43.7	14.2	2.20e-06	0	57	0	234881024	53	4929
2026-01-28 22:35:38.62	43.67	17.18	-40.7	-43.8	14.0	1.50e-06	0	57	0	236978176	53	5029
2026-01-28 22:35:39.63	43.83	17.27	-40.8	-43.9	14.0	6.10e-06	0	57	0	239075328	53	5063
2026-01-28 22:35:40.64	43.99	17.36	-40.9	-44.0	13.8	7.00e-07	0	57	0	240123904	53	5138
2026-01-28 22:35:41.65	44.15	17.44	-40.9	-44.2	13.6	6.80e-06	0	57	0	242221056	53	5251
2026-01-28 22:35:42.66	44.31	17.53	-40.9	-44.1	13.7	3.80e-06	0	57	0	244318208	53	5213
2026-01-28 22:35:43.67	44.47	17.61	-41.0	-44.3	13.5	6.80e-06	0	57	0	246415360	53	5327
2026-01-28 22:35:44.68	44.63	17.70	-41.0	-44.2	13.7	6.10e-06	0	57	0	248512512	53	5244
2026-01-28 22:35:45.69	44.79	17.79	-41.0	-44.2	13.7	8.30e-06	0	57	0	249561088	53	5236
2026-01-28 22:35:46.70	44.96	17.87	-40.9	-44.1	13.8	9.10e-06	0	57	0	251658240	53	5214
2026-01-28 22:35:47.71	45.12	17.96	-40.9	-44.0	13.8	2.20e-06	0	57	0	253755392	53	5142
2026-01-28 22:35:48.72	45.29	18.05	-40.9	-44.0	13.9	3.00e-06	0	57	0	255852544	53	5123
2026-01-28 22:35:49.73	45.45	18.13	-40.8	-43.9	14.1	5.30e-06	0	57	0	257949696	53	5049
2026-01-28 22:35:50.74	45.62	18.22	-40.8	-43.8	14.1	2.20e-06	0	57	0	258998272	53	5035
2026-01-28 22:35:51.75	45.79	18.31	-40.7	-43.7	14.2	1.50e-06	0	57	0	261095424	53	4929
2026-01-28 22:35:52.76	45.96	18.39	-40.7	-43.7	14.2	2.20e-06	0	57	0	263192576	53	4959
2026-01-28 22:35:53.77	46.13	18.48	-40.6	-43.6	14.4	0.00e+00	0	57	0	265289728	53	4885
2026-01-28 22:35:54.77	46.30	18.57	-40.5	-43.4	14.5	7.00e-07	0	57	0	267386880	53	4791
2026-01-28 22:35:55.78	46.47	18.65	-40.6	-43.5	14.4	2.20e-06	0	57	0	268435456	53	4849
2026-01-28 22:35:56.79	46.65	18.74	-40.4	-43.3	14.6	7.00e-07	0	57	0	270532608	52	5009
2026-01-28 22:35:57.80	46.82	18.83	-40.4	-43.3	14.7	0.00e+00	0	57	0	272629760	52	4984
2026-01-28 22:35:58.81	46.99	18.91	-40.4	-43.3	14.6	0.00e+00	0	57	0	274726912	52	4999
2026-01-28 22:35:59.82	47.17	19.00	-40.4	-43.3	14.6	0.00e+00	0	57	0	276824064	52	4986
2026-01-28 22:36:00.83	47.35	19.09	-40.3	-43.1	14.8	0.00e+00	0	57	0	277872640	52	4902
2026-01-28 22:36:01.84	47.53	19.18	-40.4	-43.2	14.7	0.00e+00	0	57	0	279969792	52	4982
2026-01-28 22:36:02.85	47.71	19.26	-40.4	-43.3	14.6	1.50e-06	0	57	0	282066944	52	5016
2026-01-28 22:36:03.86	47.89	19.35	-40.5	-43.4	14.5	0.00e+00	0	58	0	284164096	52	5070
2026-01-28 22:36:04.88	48.07	19.44	-40.6	-43.6	14.3	7.00e-07	0	57	0	286261248	52	5178
2026-01-28 22:36:05.89	48.25	19.53	-40.7	-43.7	14.3	0.00e+00	0	57	0	288358400	52	5230
2026-01-28 22:36:06.90	48.43	19.61	-40.6	-43.5	14.4	1.50e-06	0	57	0	289406976	52	5154
2026-01-28 22:36:07.91	48.62	19.70	-40.6	-43.5	14.5	0.00e+00	0	57	0	291504128	52	5116
2026-01-28 22:36:08.92	48.80	19.79	-40.4	-43.3	14.7	1.50e-06	0	57	0	293601280	52	4997
2026-01-28 22:36:09.92	48.99	19.87	-40.5	-43.3	14.7	0.00e+00	0	57	0	295698432	52	5005
2026-01-28 22:36:10.93	49.17	19.96	-40.4	-43.2	14.8	7.00e-07	0	57	0	297795584	52	4942
2026-01-28 22:36:11.94	49.36	20.05	-40.3	-43.0	15.0	0.00e+00	0	58	0	298844160	52	4848
2026-01-28 22:36:12.95	49.55	20.14	-40.3	-43.1	14.8	7.00e-07	0	57	0	300941312	52	4894
2026-01-28 22:36:13.96	49.74	20.22	-40.4	-43.3	14.7	0.00e+00	0	57	0	303038464	52	5012
2026-01-28 22:36:14.97	49.93	20.31	-40.5	-43.3	14.7	1.50e-06	0	57	0	305135616	52	5009
2026-01-28 22:36:15.98	50.13	20.40	-40.5	-43.4	14.6	0.00e+00	0	57	0	307232768	52	5051
2026-01-28 22:36:16.99	50.32	20.49	-40.5	-43.4	14.6	0.00e+00	0	57	0	308281344	52	5080
2026-01-28 22:36:18.00	50.52	20.58	-40.4	-43.3	14.7	0.00e+00	0	58	0	310378496	52	4985
2026-01-28 22:36:19.01	50.71	20.66	-40.3	-43.1	14.9	7.00e-07	0	57	0	312475648	52	4893
2026-01-28 22:36:20.02	50.91	20.75	-40.3	-43.1	14.9	0.00e+00	0	58	0	314572800	52	4895
2026-01-28 22:36:21.03	51.11	20.84	-40.3	-43.1	14.9	7.00e-07	0	57	0	316669952	52	4906
2026-01-28 22:36:22.04	51.31	20.93	-40.5	-43.3	14.6	7.00e-07	0	57	0	317718528	52	5014
2026-01-28 22:36:23.05	51.51	21.01	-40.6	-43.5	14.5	7.00e-07	0	57	0	319815680	52	5114
2026-01-28 22:36:24.06	51.71	21.10	-40.7	-43.6	14.3	0.00e+00	0	57	0	321912832	52	5199
2026-01-28 22:36:25.07	51.91	21.19	-40.7	-43.7	14.3	7.00e-07	0	57	0	324009984	52	5219
2026-01-28 22:36:26.08	52.11	21.27	-40.8	-43.9	14.1	7.00e-07	0	58	0	326107136	52	5342
2026-01-28 22:36:27.09	52.32	21.36	-40.7	-43.6	14.3	0.00e+00	0	57	0	327155712	52	5208
2026-01-28 22:36:28.10	52.52	21.45	-40.6	-43.6	14.4	0.00e+00	0	58	0	329252864	52	5191
2026-01-28 22:36:29.11	52.73	21.54	-40.5	-43.4	14.5	0.00e+00	0	57	0	331350016	52	5081
2026-01-28 22:36:30.12	52.94	21.62	-40.5	-43.4	14.5	1.50e-06	0	58	0	333447168	52	5069
2026-01-28 22:36:31.13	53.15	21.71	-40.6	-43.6	14.4	1.50e-06	0	57	0	335544320	52	5165
2026-01-28 22:36:32.14	53.36	21.80	-40.6	-43.5	14.4	0.00e+00	0	57	0	336592896	52	5154
2026-01-28 22:36:33.15	53.57	21.88	-40.7	-43.7	14.2	0.00e+00	0	58	0	338690048	52	5266
2026-01-28 22:36:34.16	53.78	21.97	-40.7	-43.6	14.3	0.00e+00	0	57	0	340787200	52	5210
2026-01-28 22:36:35.17	54.00	22.06	-40.6	-43.6	14.4	0.00e+00	0	58	0	342884352	52	5191
2026-01-28 22:36:36.18	54.21	22.14	-40.6	-43.5	14.5	0.00e+00	0	57	0	344981504	52	5110
2026-01-28 22:36:37.20	54.43	22.23	-40.6	-43.5	14.5	7.00e-07	0	58	0	346030080	52	5104
2026-01-28 22:36:38.20	54.65	22.32	-40.6	-43.6	14.4	7.00e-07	0	57	0	348127232	52	5160
2026-01-28 22:36:39.21	54.86	22.40	-40.7	-43.6	14.3	0.00e+00	0	57	0	350224384	52	5191
2026-01-28 22:36:40.22	55.08	22.49	-40.6	-43.6	14.3	1.50e-06	0	58	0	352321536	52	5175
2026-01-28 22:36:41.23	55.30	22.57	-40.7	-43.7	14.2	7.00e-07	0	58	0	354418688	52	5279
2026-01-28 22:36:42.24	55.53	22.66	-40.8	-43.9	14.1	7.00e-07	0	57	0	356515840	52	5342
2026-01-28 22:36:43.25	55.75	22.74	-40.7	-43.6	14.4	0.00e+00	0	58	0	357564416	52	5185
2026-01-28 22:36:44.26	55.98	22.83	-40.7	-43.7	14.3	7.00e-07	0	58	0	359661568	52	5251
2026-01-28 22:36:45.27	56.20	22.91	-40.8	-43.8	14.2	2.20e-06	0	58	0	361758720	52	5293
2026-01-28 22:36:46.28	56.43	23.00	-40.7	-43.6	14.4	7.00e-07	0	58	0	363855872	52	5193
2026-01-28 22:36:47.29	56.66	23.08	-40.8	-43.8	14.2	7.00e-07	0	58	0	365953024	52	5309
2026-01-28 22:36:48.30	56.89	23.17	-41.0	-44.1	13.9	0.00e+00	0	58	0	367001600	52	5478
2026-01-28 22:36:49.31	57.12	23.25	-40.7	-43.6	14.4	0.00e+00	0	58	0	369098752	52	5182
2026-01-28 22:36:50.32	57.35	23.34	-40.6	-43.6	14.5	0.00e+00	0	58	0	371195904	52	5161
2026-01-28 22:36:51.33	57.58	23.42	-40.6	-43.4	14.6	0.00e+00	0	58	0	373293056	52	5083
2026-01-28 22:36:52.34	57.82	23.51	-40.6	-43.5	14.6	1.50e-06	0	58	0	375390208	52	5127
2026-01-28 22:36:53.35	58.05	23.59	-40.7	-43.6	14.4	1.50e-06	0	58	0	376438784	52	5207
2026-01-28 22:36:54.36	58.29	23.67	-40.6	-43.5	14.5	2.20e-06	0	58	0	378535936	52	5142
2026-01-28 22:36:55.37	58.53	23.76	-40.7	-43.7	14.4	7.00e-07	0	58	0	380633088	52	5222
2026-01-28 22:36:56.38	58.77	23.84	-40.8	-43.8	14.3	0.00e+00	0	58	0	382730240	52	5286
2026-01-28 22:36:57.39	59.01	23.92	-40.9	-44.0	14.0	0.00e+00	0	58	0	384827392	52	5428
2026-01-28 22:36:58.40	59.25	24.00	-41.1	-44.2	13.8	4.50e-06	0	58	0	385875968	52	5579
2026-01-28 22:36:59.41	59.49	24.09	-41.1	-44.3	13.7	1.06e-05	0	58	0	387973120	52	5632
2026-01-28 22:37:00.39	59.73	24.17	-41.0	-44.1	13.9	6.10e-06	0	58	0	390070272	52	5489
2026-01-28 22:37:01.39	59.97	24.25	-41.0	-44.1	13.9	7.60e-06	0	58	0	392167424	52	5498
2026-01-28 22:37:02.40	60.22	24.33	-41.0	-44.1	14.0	3.80e-06	0	58	0	394264576	52	5478
2026-01-28 22:37:03.41	60.47	24.41	-40.7	-43.7	14.4	0.00e+00	0	58	0	395313152	52	5219
2026-01-28 22:37:04.42	60.72	24.49	-40.7	-43.6	14.5	0.00e+00	0	58	0	397410304	52	5201
2026-01-28 22:37:05.44	60.97	24.57	-40.7	-43.6	14.5	1.50e-06	0	58	0	399507456	52	5165
2026-01-28 22:37:06.44	61.22	24.65	-40.7	-43.5	14.6	0.00e+00	0	58	0	401604608	52	5159
2026-01-28 22:37:07.45	61.47	24.73	-40.6	-43.4	14.6	0.00e+00	0	58	0	403701760	52	5097
2026-01-28 22:37:08.46	61.73	24.81	-40.5	-43.3	14.8	0.00e+00	0	58	0	404750336	52	4994
2026-01-28 22:37:09.47	61.98	24.89	-40.6	-43.4	14.7	0.00e+00	0	58	0	406847488	52	5052
2026-01-28 22:37:10.48	62.24	24.97	-40.7	-43.6	14.5	7.00e-07	0	58	0	408944640	52	5179
2026-01-28 22:37:11.49	62.50	25.05	-40.7	-43.7	14.4	0.00e+00	0	58	0	411041792	52	5244
2026-01-28 22:37:12.50	62.76	25.13	-41.1	-44.3	13.9	1.50e-06	0	58	0	413138944	52	5597
2026-01-28 22:37:13.51	63.02	25.20	-41.1	-44.4	13.7	6.80e-06	0	58	0	414187520	52	5669
2026-01-28 22:37:14.52	63.28	25.28	-41.1	-44.3	13.8	3.80e-06	0	58	0	416284672	52	5600
2026-01-28 22:37:15.53	63.54	25.36	-41.0	-44.1	13.9	3.80e-06	0	58	0	418381824	52	5516
2026-01-28 22:37:16.54	63.81	25.43	-40.8	-43.7	14.3	1.50e-06	0	58	0	420478976	52	5273
2026-01-28 22:37:17.55	64.07	25.51	-40.6	-43.4	14.6	0.00e+00	0	58	0	422576128	52	5075
2026-01-28 22:37:18.56	64.34	25.59	-40.7	-43.6	14.5	7.00e-07	0	58	0	423624704	52	5167
2026-01-28 22:37:19.57	64.61	25.66	-40.8	-43.8	14.3	0.00e+00	0	58	0	425721856	52	5314
2026-01-28 22:37:20.58	64.88	25.74	-41.2	-44.5	13.5	3.80e-06	0	58	0	427819008	52	5779
2026-01-28 22:37:21.59	65.15	25.81	-41.4	-44.9	13.2	2.28e-05	0	58	0	429916160	53	5696
2026-01-28 22:37:22.60	65.42	25.88	-41.6	-45.2	12.9	2.67e-05	0	58	0	432013312	53	5874
2026-01-28 22:37:23.61	65.69	25.96	-41.6	-45.2	12.8	5.26e-05	0	58	0	434110464	53	5872
2026-01-28 22:37:24.62	65.97	26.03	-41.3	-44.6	13.5	2.05e-05	0	58	0	435159040	53	5485
2026-01-28 22:37:25.63	66.24	26.10	-41.1	-44.4	13.7	5.30e-06	0	58	0	437256192	53	5358
2026-01-28 22:37:26.64	66.52	26.17	-41.0	-44.2	13.9	6.10e-06	0	58	0	439353344	53	5219
2026-01-28 22:37:27.65	66.80	26.25	-40.9	-44.0	14.1	4.50e-06	0	58	0	441450496	53	5122
2026-01-28 22:37:28.66	67.08	26.32	-41.1	-44.3	13.7	3.80e-06	0	58	0	443547648	53	5299
2026-01-28 22:37:29.67	67.36	26.39	-41.3	-44.6	13.4	1.44e-05	0	58	0	444596224	53	5513
2026-01-28 22:37:30.68	67.64	26.46	-41.5	-45.1	12.9	2.05e-05	0	58	0	446693376	53	5849
2026-01-28 22:37:31.69	67.92	26.53	-41.6	-45.2	12.8	5.49e-05	0	58	0	448790528	53	5893
2026-01-28 22:37:32.70	68.21	26.60	-41.6	-45.2	12.7	6.48e-05	0	58	0	450887680	53	5909
2026-01-28 22:37:33.71	68.49	26.66	-41.8	-45.6	12.5	8.01e-05	0	58	0	452984832	54	5810
2026-01-28 22:37:34.71	68.78	26.73	-41.7	-45.4	12.6	1.09e-04	0	58	0	454033408	54	5688
2026-01-28 22:37:35.72	69.07	26.80	-41.7	-45.4	12.6	8.23e-05	0	58	0	456130560	54	5674
2026-01-28 22:37:36.74	69.36	26.86	-41.5	-45.0	13.0	4.19e-05	0	58	0	458227712	54	5455
2026-01-28 22:37:37.75	69.65	26.93	-41.4	-44.8	13.2	1.98e-05	0	58	0	460324864	54	5304
2026-01-28 22:37:38.76	69.94	27.00	-41.2	-44.5	13.4	1.90e-05	0	58	0	462422016	54	5155
2026-01-28 22:37:39.77	70.23	27.06	-41.2	-44.4	13.5	8.30e-06	0	58	0	463470592	54	5095
2026-01-28 22:37:40.78	70.53	27.12	-41.0	-44.1	13.8	5.30e-06	0	58	0	465567744	54	4916
2026-01-28 22:37:41.79	70.82	27.19	-41.2	-44.5	13.5	3.80e-06	0	58	0	467664896	54	5131
2026-01-28 22:37:42.80	71.12	27.25	-41.2	-44.5	13.5	1.22e-05	0	58	0	469762048	54	5131
2026-01-28 22:37:43.81	71.41	27.31	-41.4	-44.9	13.1	2.05e-05	0	58	0	471859200	54	5393
2026-01-28 22:37:44.82	71.71	27.37	-41.6	-45.1	12.9	4.80e-05	0	58	0	472907776	54	5519
2026-01-28 22:37:45.83	72.01	27.43	-41.5	-45.1	12.9	6.25e-05	0	58	0	475004928	54	5488
2026-01-28 22:37:46.84	72.31	27.49	-41.6	-45.2	12.8	4.57e-05	0	58	0	477102080	54	5540
2026-01-28 22:37:47.85	72.62	27.55	-41.5	-44.9	13.1	4.80e-05	0	58	0	479199232	54	5376
2026-01-28 22:37:48.86	72.92	27.61	-41.2	-44.5	13.6	1.52e-05	0	58	0	481296384	54	5149
2026-01-28 22:37:49.87	73.22	27.67	-41.2	-44.5	13.6	8.30e-06	0	58	0	482344960	54	5109
2026-01-28 22:37:50.88	73.53	27.73	-41.4	-44.8	13.3	1.60e-05	0	58	0	484442112	54	5281
2026-01-28 22:37:51.89	73.83	27.78	-41.7	-45.4	12.7	2.97e-05	0	58	0	486539264	54	5673
2026-01-28 22:37:52.90	74.14	27.84	-42.1	-46.3	11.7	3.84e-04	0	58	0	488636416	54	6285
2026-01-28 22:37:53.91	74.45	27.89	-42.4	-46.7	11.2	1.03e-03	0	58	0	490733568	55	6274
2026-01-28 22:37:54.92	74.76	27.95	-42.5	-47.0	11.0	1.86e-03	0	58	0	492830720	55	6448
2026-01-28 22:37:55.93	75.07	28.00	-42.4	-46.8	11.3	1.49e-03	0	58	0	493879296	55	6281
2026-01-28 22:37:56.94	75.38	28.05	-42.3	-46.6	11.4	9.75e-04	0	58	0	495976448	55	6177
2026-01-28 22:37:57.95	75.69	28.10	-42.3	-46.6	11.4	1.20e-03	0	58	0	498073600	55	6168
2026-01-28 22:37:58.96	76.01	28.16	-42.4	-46.9	11.0	2.00e-03	0	58	0	500170752	55	6412
2026-01-28 22:37:59.97	76.32	28.21	-42.9	-48.0	10.2	3.84e-03	0	58	0	502267904	56	6822
2026-01-28 22:38:00.98	76.64	28.25	-43.0	-48.2	9.9	7.50e-03	0	58	0	503316480	56	6996
2026-01-28 22:38:01.99	76.95	28.30	-42.9	-47.9	10.3	6.44e-03	0	58	0	505413632	56	6777
2026-01-28 22:38:03.00	77.27	28.35	-42.8	-47.6	10.4	4.08e-03	0	58	0	507510784	56	6567
2026-01-28 22:38:04.01	77.59	28.40	-42.8	-47.5	10.6	5.12e-03	0	58	0	509607936	56	6465
2026-01-28 22:38:05.02	77.91	28.44	-42.9	-47.8	10.3	4.43e-03	0	58	0	511705088	56	6709
2026-01-28 22:38:06.02	78.22	28.49	-43.2	-48.5	9.7	1.12e-02	0	58	0	512753664	56	7266
2026-01-28 22:38:07.03	78.54	28.53	-43.2	-48.5	9.5	1.24e-02	0	58	0	514850816	57	6872
2026-01-28 22:38:08.04	78.87	28.57	-43.0	-48.0	10.2	8.47e-03	0	58	0	516947968	57	6440
2026-01-28 22:38:09.05	79.19	28.62	-42.6	-47.1	11.2	1.90e-03	0	58	0	519045120	57	5805
2026-01-28 22:38:10.06	79.51	28.66	-42.3	-46.3	12.0	7.80e-04	0	58	0	521142272	56	5598
2026-01-28 22:38:11.07	79.84	28.70	-42.2	-46.1	12.1	3.21e-04	0	58	0	522190848	56	5503
2026-01-28 22:38:12.08	80.16	28.74	-42.4	-46.5	11.7	5.66e-04	0	58	0	524288000	56	5769
2026-01-28 22:38:13.09	80.49	28.78	-42.6	-47.1	11.1	1.06e-03	0	58	0	526385152	56	6171
2026-01-28 22:38:14.10	80.81	28.81	-42.7	-47.3	10.9	1.59e-03	0	58	0	528482304	56	6301
2026-01-28 22:38:15.11	81.14	28.85	-42.4	-46.6	11.7	1.00e-03	0	58	0	530579456	56	5790
2026-01-28 22:38:16.12	81.47	28.89	-42.1	-46.0	12.3	4.09e-04	0	58	0	531628032	56	5414
2026-01-28 22:38:17.13	81.80	28.92	-41.8	-45.5	12.6	1.40e-04	0	58	0	533725184	55	5420
2026-01-28 22:38:18.14	82.13	28.96	-41.9	-45.6	12.4	9.00e-05	0	58	0	535822336	55	5522
2026-01-28 22:38:19.15	82.46	28.99	-42.1	-46.1	12.0	2.60e-04	0	58	0	537919488	55	5794
2026-01-28 22:38:20.15	82.79	29.02	-42.2	-46.4	11.7	3.00e-04	0	58	0	540016640	55	6006
2026-01-28 22:38:21.16	83.12	29.05	-41.9	-45.8	12.3	4.89e-04	0	58	0	541065216	55	5614
2026-01-28 22:38:22.17	83.45	29.08	-41.8	-45.4	12.7	9.68e-05	0	58	0	543162368	55	5378
2026-01-28 22:38:23.18	83.78	29.11	-41.4	-44.8	13.4	3.43e-05	0	58	0	545259520	54	5303
2026-01-28 22:38:24.19	84.11	29.14	-41.5	-44.9	13.3	2.05e-05	0	58	0	547356672	54	5359
2026-01-28 22:38:25.20	84.45	29.16	-41.7	-45.3	12.9	4.73e-05	0	58	0	549453824	54	5605
2026-01-28 22:38:26.21	84.78	29.19	-41.7	-45.3	12.8	2.36e-05	0	58	0	550502400	54	5639
2026-01-28 22:38:27.22	85.12	29.21	-41.6	-45.1	13.1	4.27e-05	0	58	0	552599552	54	5477
2026-01-28 22:38:28.23	85.45	29.24	-41.4	-44.7	13.5	1.37e-05	0	58	0	554696704	54	5235
2026-01-28 22:38:29.24	85.79	29.26	-41.2	-44.3	13.8	3.00e-06	0	58	0	556793856	54	5019
2026-01-28 22:38:30.25	86.13	29.28	-41.1	-44.2	14.0	6.80e-06	0	58	0	558891008	54	4954
2026-01-28 22:38:31.26	86.46	29.30	-41.2	-44.3	13.8	3.00e-06	0	58	0	560988160	54	5036
2026-01-28 22:38:32.27	86.80	29.32	-41.3	-44.5	13.6	3.00e-06	0	58	0	562036736	54	5147
2026-01-28 22:38:33.28	87.14	29.34	-41.5	-44.9	13.3	6.80e-06	0	58	0	564133888	54	5364
2026-01-28 22:38:34.29	87.48	29.36	-41.5	-45.0	13.2	1.90e-05	0	58	0	566231040	54	5420
2026-01-28 22:38:35.30	87.81	29.38	-41.6	-45.2	13.0	2.44e-05	0	58	0	568328192	54	5532
2026-01-28 22:38:36.31	88.15	29.39	-41.4	-44.8	13.3	2.82e-05	0	58	0	570425344	54	5298
2026-01-28 22:38:37.32	88.49	29.41	-41.5	-45.0	13.2	2.51e-05	0	58	0	571473920	54	5403
2026-01-28 22:38:38.33	88.83	29.42	-41.7	-45.2	13.0	2.13e-05	0	58	0	573571072	54	5551
2026-01-28 22:38:39.34	89.17	29.43	-41.7	-45.3	12.9	4.04e-05	0	58	0	575668224	54	5628
2026-01-28 22:38:40.35	89.51	29.44	-41.8	-45.4	12.8	4.73e-05	0	58	0	577765376	54	5667
2026-01-28 22:38:41.36	89.85	29.45	-41.7	-45.3	12.8	5.87e-05	0	58	0	579862528	54	5644
2026-01-28 22:38:42.37	90.19	29.46	-41.6	-45.0	13.2	2.67e-05	0	58	0	580911104	54	5447
2026-01-28 22:38:43.38	90.53	29.47	-41.3	-44.6	13.6	1.67e-05	0	58	0	583008256	54	5160
2026-01-28 22:38:44.39	90.87	29.48	-41.3	-44.5	13.7	6.10e-06	0	58	0	585105408	54	5135
2026-01-28 22:38:45.40	91.21	29.48	-41.5	-44.9	13.3	1.44e-05	0	58	0	587202560	54	5387
2026-01-28 22:38:46.41	91.55	29.49	-42.0	-45.8	12.4	6.10e-05	0	58	0	589299712	54	5936
2026-01-28 22:38:47.42	91.90	29.49	-42.2	-46.3	11.8	3.88e-04	0	58	0	590348288	55	5954
2026-01-28 22:38:48.43	92.24	29.49	-42.3	-46.4	11.7	6.06e-04	0	58	0	592445440	55	6047
2026-01-28 22:38:49.44	92.58	29.49	-42.2	-46.2	12.0	6.38e-04	0	58	0	594542592	55	5871
2026-01-28 22:38:50.45	92.92	29.49	-42.1	-46.1	12.0	4.86e-04	0	58	0	596639744	55	5836
2026-01-28 22:38:51.46	93.26	29.49	-42.2	-46.3	11.8	3.35e-04	0	58	0	598736896	55	5935
2026-01-28 22:38:52.47	93.60	29.49	-42.1	-46.1	11.9	3.35e-04	0	58	0	599785472	55	5833
2026-01-28 22:38:53.48	93.94	29.49	-42.1	-46.1	12.1	3.70e-04	0	58	0	601882624	55	5823
2026-01-28 22:38:54.49	94.28	29.48	-41.9	-45.6	12.5	1.62e-04	0	58	0	603979776	55	5518
2026-01-28 22:38:55.50	94.62	29.48	-41.7	-45.2	13.1	6.48e-05	0	58	0	606076928	55	5222
2026-01-28 22:38:56.51	94.96	29.47	-41.5	-44.9	13.2	3.35e-05	0	58	0	608174080	55	5086
2026-01-28 22:38:57.52	95.31	29.47	-41.7	-45.3	12.9	5.03e-05	0	58	0	609222656	55	5286
2026-01-28 22:38:58.53	95.65	29.46	-42.0	-45.9	12.3	1.04e-04	0	58	0	611319808	55	5674
2026-01-28 22:38:59.54	95.99	29.45	-42.4	-46.6	11.5	3.58e-04	0	58	0	613416960	55	6160
2026-01-28 22:39:00.55	96.33	29.44	-42.6	-47.1	11.0	1.72e-03	0	58	0	615514112	55	6544
2026-01-28 22:39:01.55	96.66	29.43	-42.6	-47.2	10.9	2.00e-03	0	58	0	617611264	55	6599
2026-01-28 22:39:02.56	97.00	29.41	-42.5	-46.9	11.2	1.55e-03	0	58	0	618659840	55	6350
2026-01-28 22:39:03.57	97.34	29.40	-42.3	-46.4	11.6	1.06e-03	0	58	0	620756992	55	6049
2026-01-28 22:39:04.58	97.68	29.38	-42.4	-46.7	11.4	7.11e-04	0	58	0	622854144	55	6263
2026-01-28 22:39:05.59	98.02	29.37	-42.4	-46.7	11.4	9.43e-04	0	58	0	624951296	55	6265
2026-01-28 22:39:06.60	98.36	29.35	-42.5	-46.9	11.3	1.04e-03	0	58	0	627048448	55	6350
2026-01-28 22:39:07.61	98.70	29.33	-42.4	-46.6	11.6	1.14e-03	0	58	0	629145600	55	6133
2026-01-28 22:39:08.62	99.04	29.31	-42.2	-46.3	11.9	4.92e-04	0	58	0	630194176	55	5952
2026-01-28 22:39:09.63	99.37	29.29	-42.4	-46.7	11.5	5.12e-04	0	59	0	632291328	55	6218
2026-01-28 22:39:10.63	99.71	29.27	-42.6	-47.2	10.9	1.50e-03	0	58	0	634388480	55	6608
2026-01-28 22:39:11.64	100.04	29.25	-43.1	-48.2	10.0	3.92e-03	0	58	0	636485632	56	7027
2026-01-28 22:39:12.65	100.38	29.23	-43.1	-48.2	10.0	7.89e-03	0	58	0	637534208	57	6603
2026-01-28 22:39:13.66	100.71	29.20	-43.0	-48.0	10.1	7.73e-03	0	58	0	639631360	57	6442
2026-01-28 22:39:14.67	101.05	29.18	-43.0	-48.0	10.3	4.81e-03	0	58	0	641728512	57	6436
2026-01-28 22:39:15.68	101.38	29.15	-43.0	-47.9	10.3	2.98e-03	0	58	0	643825664	57	6407
2026-01-28 22:39:16.69	101.72	29.12	-43.1	-48.1	10.1	6.50e-03	0	59	0	645922816	57	6544
2026-01-28 22:39:17.70	102.05	29.10	-43.2	-48.5	9.8	9.44e-03	0	59	0	646971392	57	6814
2026-01-28 22:39:18.71	102.38	29.07	-43.3	-48.6	9.5	1.15e-02	0	59	0	649068544	57	6950
2026-01-28 22:39:19.72	102.72	29.04	-43.2	-48.4	9.8	1.01e-02	0	58	0	651165696	57	6796
2026-01-28 22:39:20.73	103.05	29.01	-42.9	-47.5	10.7	4.91e-03	0	58	0	653262848	57	6127
2026-01-28 22:39:21.74	103.38	28.97	-42.8	-47.3	11.0	1.59e-03	0	58	0	655360000	57	5953
2026-01-28 22:39:22.75	103.71	28.94	-42.8	-47.5	10.8	1.32e-03	0	58	0	657457152	57	6069
2026-01-28 22:39:23.76	104.04	28.91	-43.2	-48.4	9.9	5.42e-03	0	58	0	658505728	57	6755
2026-01-28 22:39:24.77	104.37	28.87	-43.7	-49.9	8.3	2.17e-02	0	58	0	660602880	57	8008
2026-01-28 22:39:25.78	104.70	28.83	-43.7	-50.0	8.2	5.61e-02	0	58	0	662700032	58	7668
2026-01-28 22:39:26.79	105.02	28.80	-43.5	-49.2	8.9	3.28e-02	0	58	0	664797184	58	7015
2026-01-28 22:39:27.80	105.35	28.76	-43.2	-48.3	9.9	1.22e-02	0	59	0	666894336	58	6303
2026-01-28 22:39:28.81	105.68	28.72	-42.9	-47.5	10.7	3.88e-03	0	58	0	667942912	57	6097
2026-01-28 22:39:29.82	106.00	28.68	-42.7	-47.2	11.1	1.75e-03	0	59	0	670040064	57	5889
2026-01-28 22:39:30.83	106.33	28.64	-42.6	-47.0	11.2	1.61e-03	0	58	0	672137216	57	5764
2026-01-28 22:39:31.83	106.65	28.60	-42.6	-46.9	11.5	7.72e-04	0	58	0	674234368	56	5994
2026-01-28 22:39:32.84	106.97	28.55	-42.4	-46.6	11.7	8.86e-04	0	58	0	676331520	56	5817
2026-01-28 22:39:33.85	107.29	28.51	-42.4	-46.5	11.8	3.86e-04	0	58	0	677380096	56	5735
2026-01-28 22:39:34.86	107.61	28.47	-42.3	-46.2	12.1	3.27e-04	0	58	0	679477248	56	5572
2026-01-28 22:39:35.87	107.93	28.42	-42.2	-46.0	12.2	1.68e-04	0	58	0	681574400	56	5464
2026-01-28 22:39:36.88	108.25	28.37	-42.3	-46.3	12.1	2.43e-04	0	58	0	683671552	56	5604
2026-01-28 22:39:37.89	108.57	28.33	-42.5	-46.7	11.7	3.20e-04	0	59	0	685768704	56	5869
2026-01-28 22:39:38.90	108.89	28.28	-42.5	-46.8	11.5	5.77e-04	0	59	0	686817280	56	5977
2026-01-28 22:39:39.91	109.21	28.23	-42.5	-46.8	11.4	1.05e-03	0	58	0	688914432	56	5987
2026-01-28 22:39:40.92	109.52	28.18	-42.4	-46.5	11.7	5.66e-04	0	58	0	691011584	56	5769
2026-01-28 22:39:41.93	109.84	28.13	-42.3	-46.2	12.0	5.14e-04	0	59	0	693108736	56	5580
2026-01-28 22:39:42.94	110.15	28.08	-42.2	-46.1	12.2	1.84e-04	0	59	0	695205888	56	5467
2026-01-28 22:39:43.95	110.46	28.03	-42.1	-45.9	12.3	1.84e-04	0	59	0	696254464	56	5388
2026-01-28 22:39:44.96	110.77	27.97	-42.2	-46.2	12.1	1.33e-04	0	59	0	698351616	56	5533
2026-01-28 22:39:45.97	111.09	27.92	-42.3	-46.4	11.9	4.08e-04	0	59	0	700448768	56	5688
2026-01-28 22:39:46.98	111.40	27.86	-42.2	-46.2	12.2	3.39e-04	0	59	0	702545920	56	5539
2026-01-28 22:39:47.99	111.70	27.81	-42.1	-45.8	12.5	1.88e-04	0	58	0	704643072	56	5330
2026-01-28 22:39:49.00	112.01	27.75	-41.9	-45.7	12.5	1.11e-04	0	58	0	705691648	55	5554
2026-01-28 22:39:50.01	112.32	27.70	-42.1	-46.0	12.1	1.90e-04	0	59	0	707788800	55	5762
2026-01-28 22:39:51.02	112.62	27.64	-42.3	-46.5	11.6	3.85e-04	0	59	0	709885952	55	6095
2026-01-28 22:39:52.03	112.93	27.58	-42.4	-46.7	11.3	9.27e-04	0	59	0	711983104	55	6271
2026-01-28 22:39:53.04	113.23	27.52	-42.6	-47.1	11.0	1.49e-03	0	59	0	714080256	55	6525
2026-01-28 22:39:54.05	113.53	27.46	-42.4	-46.7	11.4	1.17e-03	0	59	0	715128832	55	6254
2026-01-28 22:39:55.06	113.83	27.40	-42.3	-46.5	11.6	9.06e-04	0	59	0	717225984	55	6131
2026-01-28 22:39:56.06	114.13	27.34	-42.3	-46.5	11.5	5.67e-04	0	58	0	719323136	55	6087
2026-01-28 22:39:57.08	114.43	27.28	-42.5	-46.9	11.1	8.47e-04	0	59	0	721420288	55	6386
2026-01-28 22:39:58.08	114.73	27.22	-43.0	-48.0	10.3	2.78e-03	0	58	0	723517440	56	6846
2026-01-28 22:39:59.10	115.03	27.15	-43.3	-48.8	9.4	1.44e-02	0	59	0	725614592	57	7069
2026-01-28 22:40:00.10	115.32	27.09	-43.4	-49.0	9.1	1.86e-02	0	58	0	726663168	57	7284
2026-01-28 22:40:01.12	115.62	27.02	-43.2	-48.6	9.6	1.66e-02	0	59	0	728760320	57	6884
2026-01-28 22:40:02.12	115.91	26.96	-43.0	-47.9	10.4	4.76e-03	0	58	0	730857472	57	6360
2026-01-28 22:40:03.13	116.20	26.89	-42.6	-46.9	11.3	1.22e-03	0	58	0	732954624	57	5715
2026-01-28 22:40:04.15	116.49	26.83	-42.4	-46.6	11.6	7.43e-04	0	58	0	735051776	56	5833
2026-01-28 22:40:05.16	116.78	26.76	-42.8	-47.4	10.8	1.39e-03	0	58	0	736100352	56	6384
2026-01-28 22:40:06.17	117.07	26.69	-42.9	-47.7	10.5	3.24e-03	0	59	0	738197504	56	6640
2026-01-28 22:40:07.18	117.36	26.62	-42.9	-47.8	10.4	4.77e-03	0	59	0	740294656	56	6686
2026-01-28 22:40:08.19	117.64	26.55	-42.7	-47.2	11.0	3.97e-03	0	59	0	742391808	56	6251
2026-01-28 22:40:09.20	117.93	26.48	-42.7	-47.1	11.2	1.14e-03	0	59	0	744488960	56	6164
2026-01-28 22:40:10.21	118.21	26.41	-42.5	-46.7	11.4	7.63e-04	0	59	0	745537536	56	5913
2026-01-28 22:40:11.22	118.49	26.34	-42.4	-46.5	11.7	7.99e-04	0	58	0	747634688	56	5781
2026-01-28 22:40:12.23	118.77	26.27	-42.6	-47.0	11.3	1.02e-03	0	59	0	749731840	56	6096
2026-01-28 22:40:13.24	119.05	26.20	-42.6	-46.9	11.4	9.70e-04	0	59	0	751828992	56	6027
2026-01-28 22:40:14.25	119.33	26.13	-42.6	-47.0	11.3	9.22e-04	0	59	0	753926144	56	6064
2026-01-28 22:40:15.26	119.61	26.06	-42.5	-46.7	11.6	7.38e-04	0	59	0	754974720	56	5879
2026-01-28 22:40:16.27	119.89	25.98	-42.3	-46.3	12.0	2.96e-04	0	58	0	757071872	56	5611
2026-01-28 22:40:17.28	120.16	25.91	-42.2	-46.2	12.1	3.96e-04	0	59	0	759169024	56	5555
2026-01-28 22:40:18.29	120.43	25.84	-42.4	-46.4	11.8	5.80e-04	0	59	0	761266176	56	5722
2026-01-28 22:40:19.30	120.71	25.76	-42.5	-46.7	11.5	5.39e-04	0	59	0	763363328	56	5901
2026-01-28 22:40:20.31	120.98	25.69	-42.4	-46.6	11.6	7.76e-04	0	58	0	765460480	56	5851
2026-01-28 22:40:21.33	121.25	25.61	-42.3	-46.5	11.8	5.23e-04	0	59	0	766509056	56	5727
2026-01-28 22:40:22.34	121.52	25.53	-42.4	-46.5	11.7	6.46e-04	0	58	0	768606208	56	5769
2026-01-28 22:40:23.35	121.79	25.46	-42.2	-46.1	12.1	3.39e-04	0	59	0	770703360	56	5518
2026-01-28 22:40:24.36	122.05	25.38	-42.1	-45.9	12.4	3.02e-04	0	59	0	772800512	56	5346
2026-01-28 22:40:25.37	122.32	25.30	-42.2	-46.1	12.2	1.56e-04	0	59	0	774897664	56	5471
2026-01-28 22:40:26.37	122.58	25.23	-42.3	-46.3	12.0	3.36e-04	0	59	0	775946240	56	5613
2026-01-28 22:40:27.38	122.84	25.15	-42.4	-46.6	11.6	4.55e-04	0	59	0	778043392	56	5848
2026-01-28 22:40:28.39	123.10	25.07	-42.2	-46.2	12.0	4.43e-04	0	59	0	780140544	56	5529
2026-01-28 22:40:29.40	123.36	24.99	-41.8	-45.4	12.7	1.65e-04	0	59	0	782237696	55	5381
2026-01-28 22:40:30.41	123.62	24.91	-41.5	-44.9	13.2	3.66e-05	0	59	0	784334848	54	5354
2026-01-28 22:40:31.43	123.88	24.83	-41.4	-44.7	13.4	2.05e-05	0	59	0	785383424	54	5261
2026-01-28 22:40:32.44	124.14	24.75	-41.2	-44.4	13.7	9.90e-06	0	59	0	787480576	54	5078
2026-01-28 22:40:33.45	124.39	24.67	-41.6	-45.1	13.1	1.37e-05	0	58	0	789577728	54	5472
2026-01-28 22:40:34.46	124.64	24.59	-41.6	-45.1	12.9	6.40e-05	0	59	0	791674880	54	5520
2026-01-28 22:40:35.47	124.90	24.51	-41.4	-44.9	13.2	4.04e-05	0	59	0	793772032	53	5666
2026-01-28 22:40:36.48	125.15	24.43	-41.4	-44.8	13.2	3.43e-05	0	59	0	794820608	53	5637
2026-01-28 22:40:37.49	125.40	24.35	-41.2	-44.4	13.7	1.06e-05	0	58	0	796917760	53	5368
2026-01-28 22:40:38.50	125.64	24.27	-41.1	-44.2	13.9	7.00e-07	0	59	0	799014912	52	5565
2026-01-28 22:40:39.51	125.89	24.18	-41.3	-44.5	13.6	9.90e-06	0	58	0	801112064	53	5458
2026-01-28 22:40:40.52	126.14	24.10	-41.5	-44.9	13.1	1.37e-05	0	58	0	803209216	53	5696
2026-01-28 22:40:41.53	126.38	24.02	-41.7	-45.4	12.7	8.01e-05	0	59	0	804257792	54	5695
2026-01-28 22:40:42.54	126.62	23.94	-41.9	-45.7	12.3	1.72e-04	0	59	0	806354944	54	5876
2026-01-28 22:40:43.55	126.87	23.85	-41.8	-45.5	12.6	1.52e-04	0	58	0	808452096	54	5772
2026-01-28 22:40:44.56	127.11	23.77	-41.4	-44.8	13.3	1.60e-05	0	59	0	810549248	54	5312
2026-01-28 22:40:45.57	127.35	23.68	-41.2	-44.4	13.7	5.30e-06	0	59	0	812646400	53	5353
2026-01-28 22:40:46.58	127.59	23.60	-40.8	-44.1	14.0	3.00e-06	0	59	0	813694976	52	5504
2026-01-28 22:40:47.60	127.82	23.52	-41.3	-44.5	13.6	4.50e-06	0	59	0	815792128	53	5457
2026-01-28 22:40:48.60	128.06	23.43	-41.9	-45.7	12.4	7.47e-05	0	59	0	817889280	54	5875
2026-01-28 22:40:49.61	128.29	23.35	-42.0	-45.9	12.1	2.02e-04	0	59	0	819986432	54	6057
2026-01-28 22:40:50.62	128.53	23.26	-42.1	-46.1	11.9	3.91e-04	0	59	0	822083584	54	6192
2026-01-28 22:40:51.63	128.76	23.18	-41.9	-45.7	12.3	3.42e-04	0	58	0	823132160	54	5860
2026-01-28 22:40:52.64	128.99	23.09	-41.3	-44.7	13.4	4.57e-05	0	59	0	825229312	53	5542
2026-01-28 22:40:53.65	129.22	23.01	-40.8	-43.9	14.1	1.52e-05	0	59	0	827326464	52	5356
2026-01-28 22:40:54.66	129.45	22.92	-40.7	-43.6	14.4	0.00e+00	0	58	0	829423616	52	5193
2026-01-28 22:40:55.67	129.67	22.84	-40.8	-43.8	14.3	7.00e-07	0	59	0	831520768	52	5282
2026-01-28 22:40:56.68	129.90	22.75	-40.5	-43.8	14.2	2.20e-06	0	59	0	833617920	51	5631
2026-01-28 22:40:57.69	130.12	22.66	-40.7	-43.6	14.5	1.50e-06	0	59	0	834666496	52	5175
2026-01-28 22:40:58.70	130.35	22.58	-40.5	-43.3	14.8	9.10e-06	0	59	0	836763648	51	5283
2026-01-28 22:40:59.71	130.57	22.49	-40.3	-43.0	15.2	0.00e+00	0	59	0	838860800	51	5103
2026-01-28 22:41:00.72	130.79	22.40	-40.4	-43.0	15.1	0.00e+00	0	58	0	840957952	51	5157
2026-01-28 22:41:01.73	131.01	22.32	-40.5	-43.2	14.9	1.29e-05	0	59	0	843055104	51	5253
2026-01-28 22:41:02.74	131.23	22.23	-40.9	-43.9	14.1	7.00e-07	0	58	0	844103680	52	5371
2026-01-28 22:41:03.75	131.45	22.14	-41.5	-45.1	12.9	2.44e-05	0	58	0	846200832	53	5825
2026-01-28 22:41:04.76	131.66	22.06	-42.1	-46.3	11.7	4.12e-04	0	58	0	848297984	54	6314
2026-01-28 22:41:05.76	131.88	21.97	-42.5	-47.3	10.3	2.61e-03	0	59	0	850395136	52	7953
2026-01-28 22:41:06.77	132.09	21.88	-42.4	-47.0	10.8	3.03e-03	0	59	0	852492288	55	6493
2026-01-28 22:41:07.78	132.30	21.80	-42.2	-46.4	11.5	9.40e-04	0	59	0	853540864	55	6022
2026-01-28 22:41:08.79	132.52	21.71	-41.8	-45.5	12.4	3.43e-04	0	59	0	855638016	54	5781
2026-01-28 22:41:09.80	132.73	21.62	-41.5	-45.1	13.0	7.01e-05	0	59	0	857735168	54	5482
2026-01-28 22:41:10.81	132.94	21.53	-41.3	-44.8	13.1	4.27e-05	0	59	0	859832320	53	5650
2026-01-28 22:41:11.82	133.14	21.45	-41.3	-44.7	13.2	2.59e-05	0	59	0	861929472	53	5561
2026-01-28 22:41:12.83	133.35	21.36	-41.4	-44.8	13.2	2.36e-05	0	59	0	862978048	53	5647
2026-01-28 22:41:13.84	133.56	21.27	-41.3	-45.0	13.0	6.17e-05	0	59	0	865075200	53	5738
2026-01-28 22:41:14.86	133.76	21.18	-41.3	-44.8	13.2	4.27e-05	0	59	0	867172352	53	5601
2026-01-28 22:41:15.87	133.97	21.09	-41.1	-44.3	13.6	9.10e-06	0	59	0	869269504	52	5636
2026-01-28 22:41:16.88	134.17	21.01	-40.7	-43.7	14.3	1.29e-05	0	59	0	871366656	52	5253
2026-01-28 22:41:17.88	134.37	20.92	-40.5	-43.3	14.7	7.00e-07	0	59	0	872415232	52	5023
2026-01-28 22:41:18.89	134.57	20.83	-40.3	-43.0	14.9	0.00e+00	0	59	0	874512384	52	4856
2026-01-28 22:41:19.90	134.77	20.74	-40.4	-43.2	14.8	0.00e+00	0	59	0	876609536	52	4932
2026-01-28 22:41:20.91	134.97	20.65	-40.7	-43.5	14.5	1.21e-04	0	59	0	878706688	51	5440
2026-01-28 22:41:21.92	135.16	20.57	-40.8	-43.9	14.1	1.50e-06	0	59	0	880803840	52	5380
2026-01-28 22:41:22.93	135.36	20.48	-41.0	-44.2	13.7	1.50e-06	0	59	0	881852416	52	5586
2026-01-28 22:41:23.94	135.55	20.39	-41.0	-44.2	13.7	4.50e-06	0	59	0	883949568	52	5551
2026-01-28 22:41:24.95	135.75	20.30	-41.0	-44.2	13.8	9.10e-06	0	59	0	886046720	52	5538
2026-01-28 22:41:25.96	135.94	20.21	-40.8	-43.9	14.1	3.80e-06	0	59	0	888143872	52	5352
2026-01-28 22:41:26.97	136.13	20.12	-40.8	-43.8	14.1	7.00e-07	0	59	0	890241024	52	5321
2026-01-28 22:41:27.98	136.32	20.04	-40.9	-44.1	13.9	2.20e-06	0	59	0	891289600	52	5482
2026-01-28 22:41:28.99	136.51	19.95	-41.1	-44.4	13.5	3.00e-06	0	59	0	893386752	52	5697
2026-01-28 22:41:30.00	136.70	19.86	-41.3	-44.8	13.1	1.90e-05	0	59	0	895483904	53	5607
2026-01-28 22:41:31.01	136.89	19.77	-41.4	-45.0	12.9	3.96e-05	0	59	0	897581056	53	5751
2026-01-28 22:41:32.02	137.07	19.68	-41.4	-44.9	13.1	6.25e-05	0	59	0	899678208	53	5664
2026-01-28 22:41:33.03	137.26	19.59	-41.2	-44.6	13.4	1.14e-05	0	59	0	900726784	53	5468
2026-01-28 22:41:34.03	137.44	19.51	-41.0	-44.1	13.8	6.80e-06	0	59	0	902823936	52	5518
2026-01-28 22:41:35.04	137.62	19.42	-40.7	-43.6	14.3	3.00e-06	0	58	0	904921088	52	5207
2026-01-28 22:41:36.05	137.81	19.33	-40.4	-43.2	14.7	0.00e+00	0	59	0	907018240	52	4983
2026-01-28 22:41:37.06	137.99	19.24	-40.3	-43.0	14.9	0.00e+00	0	59	0	909115392	52	4837
2026-01-28 22:41:38.07	138.17	19.16	-40.3	-43.0	15.0	0.00e+00	0	59	0	911212544	51	5141
2026-01-28 22:41:39.08	138.35	19.07	-40.4	-43.2	14.8	0.00e+00	0	59	0	912261120	51	5254
2026-01-28 22:41:40.09	138.52	18.98	-40.5	-43.3	14.7	7.00e-07	0	59	0	914358272	51	5304
2026-01-28 22:41:41.10	138.70	18.89	-40.6	-43.5	14.5	7.00e-07	0	59	0	916455424	51	5419
2026-01-28 22:41:42.11	138.88	18.80	-40.5	-43.6	14.3	0.00e+00	0	59	0	918552576	51	5498
2026-01-28 22:41:43.12	139.05	18.72	-40.6	-43.5	14.4	0.00e+00	0	59	0	920649728	52	5138
2026-01-28 22:41:44.13	139.23	18.63	-40.5	-43.4	14.5	1.50e-06	0	59	0	921698304	52	5073
2026-01-28 22:41:45.14	139.40	18.54	-40.5	-43.4	14.6	3.00e-06	0	59	0	923795456	51	5363
2026-01-28 22:41:46.15	139.57	18.45	-40.5	-43.3	14.6	0.00e+00	0	59	0	925892608	51	5340
2026-01-28 22:41:47.16	139.74	18.36	-40.5	-43.3	14.7	0.00e+00	0	59	0	927989760	51	5310
2026-01-28 22:41:48.17	139.91	18.28	-40.5	-43.3	14.7	3.43e-05	0	59	0	930086912	51	5305
2026-01-28 22:41:49.17	140.08	18.19	-40.6	-43.6	14.4	2.20e-06	0	59	0	931135488	51	5479
2026-01-28 22:41:50.18	140.25	18.10	-40.6	-43.5	14.4	0.00e+00	0	59	0	933232640	51	5457
2026-01-28 22:41:51.19	140.42	18.02	-40.7	-43.6	14.3	2.20e-06	0	59	0	935329792	51	5503
2026-01-28 22:41:52.20	140.58	17.93	-40.6	-43.6	14.3	7.00e-07	0	59	0	937426944	52	5176
2026-01-28 22:41:53.21	140.75	17.84	-40.6	-43.6	14.3	7.00e-07	0	58	0	939524096	52	5171
2026-01-28 22:41:54.22	140.91	17.75	-40.6	-43.7	14.2	1.50e-06	0	59	0	940572672	52	5229
2026-01-28 22:41:55.23	141.08	17.67	-40.6	-43.5	14.3	1.50e-06	0	59	0	942669824	52	5140
2026-01-28 22:41:56.24	141.24	17.58	-40.5	-43.5	14.4	7.00e-07	0	59	0	944766976	52	5108
2026-01-28 22:41:57.25	141.40	17.49	-40.6	-43.6	14.3	7.00e-07	0	58	0	946864128	52	5172
2026-01-28 22:41:58.26	141.56	17.41	-40.5	-43.3	14.6	1.50e-06	0	59	0	948961280	51	5337
2026-01-28 22:41:59.27	141.72	17.32	-40.4	-43.3	14.6	0.00e+00	0	59	0	950009856	51	5298
2026-01-28 22:42:00.28	141.88	17.23	-40.4	-43.2	14.7	1.50e-06	0	58	0	952107008	51	5246
2026-01-28 22:42:01.29	142.04	17.15	-40.4	-43.2	14.7	7.00e-07	0	59	0	954204160	51	5249
2026-01-28 22:42:02.30	142.20	17.06	-40.4	-43.2	14.7	0.00e+00	0	58	0	956301312	51	5229
2026-01-28 22:42:03.31	142.35	16.97	-40.4	-43.4	14.6	0.00e+00	0	59	0	958398464	51	5342
2026-01-28 22:42:04.32	142.51	16.89	-40.5	-43.4	14.5	7.00e-07	0	59	0	959447040	51	5396
2026-01-28 22:42:05.33	142.66	16.80	-40.6	-43.6	14.3	1.50e-06	0	58	0	961544192	51	5480
2026-01-28 22:42:06.34	142.82	16.72	-40.6	-43.6	14.3	7.00e-07	0	59	0	963641344	51	5471
2026-01-28 22:42:07.35	142.97	16.63	-40.6	-43.6	14.2	1.50e-06	0	58	0	965738496	51	5524
2026-01-28 22:42:08.36	143.12	16.54	-40.6	-43.7	14.1	1.50e-06	0	59	0	967835648	52	5229
2026-01-28 22:42:09.37	143.27	16.46	-40.6	-43.5	14.2	7.00e-07	0	58	0	968884224	52	5146
2026-01-28 22:42:10.38	143.42	16.37	-40.4	-43.3	14.5	1.50e-06	0	59	0	970981376	52	5016
2026-01-28 22:42:11.39	143.57	16.29	-40.5	-43.3	14.5	0.00e+00	0	59	0	973078528	51	5322
2026-01-28 22:42:12.40	143.72	16.20	-40.4	-43.2	14.6	3.00e-06	0	58	0	975175680	51	5261
2026-01-28 22:42:13.41	143.87	16.12	-40.4	-43.3	14.5	0.00e+00	0	58	0	977272832	51	5332
2026-01-28 22:42:14.42	144.02	16.03	-40.5	-43.5	14.4	0.00e+00	0	59	0	979369984	51	5421
2026-01-28 22:42:15.43	144.16	15.95	-40.7	-43.7	14.2	7.00e-07	0	59	0	980418560	51	5549
2026-01-28 22:42:16.44	144.31	15.86	-40.8	-44.0	13.8	3.80e-06	0	59	0	982515712	52	5416
2026-01-28 22:42:17.46	144.46	15.78	-40.9	-44.2	13.6	5.30e-06	0	58	0	984612864	52	5578
2026-01-28 22:42:18.47	144.60	15.69	-41.2	-44.7	13.1	9.10e-06	0	59	0	986710016	52	5921
2026-01-28 22:42:19.48	144.74	15.61	-41.4	-45.1	12.6	6.86e-05	0	58	0	988807168	53	5827
2026-01-28 22:42:20.48	144.89	15.52	-41.4	-45.2	12.5	7.47e-05	0	59	0	989855744	53	5861
2026-01-28 22:42:21.49	145.03	15.44	-41.5	-45.4	12.3	1.09e-04	0	58	0	991952896	53	6018
2026-01-28 22:42:22.50	145.17	15.36	-41.5	-45.2	12.4	2.05e-04	0	58	0	994050048	53	5917
2026-01-28 22:42:23.51	145.31	15.27	-41.2	-44.7	12.9	1.05e-04	0	59	0	996147200	53	5584
2026-01-28 22:42:24.52	145.45	15.19	-41.3	-44.8	12.9	6.40e-05	0	59	0	998244352	53	5648
2026-01-28 22:42:25.53	145.59	15.11	-41.0	-44.4	13.3	2.74e-05	0	59	0	999292928	53	5393
2026-01-28 22:42:26.54	145.72	15.02	-41.0	-44.4	13.3	1.75e-05	0	59	0	1001390080	53	5394
2026-01-28 22:42:27.55	145.86	14.94	-41.1	-44.6	13.1	4.57e-05	0	59	0	1003487232	52	5806
2026-01-28 22:42:28.56	146.00	14.86	-40.9	-44.2	13.5	9.90e-06	0	59	0	1005584384	52	5583
2026-01-28 22:42:29.57	146.13	14.77	-41.1	-44.6	13.1	1.44e-05	0	59	0	1007681536	52	5811
2026-01-28 22:42:30.58	146.27	14.69	-41.0	-44.5	13.2	2.89e-05	0	59	0	1008730112	52	5725
2026-01-28 22:42:31.59	146.40	14.61	-41.1	-44.5	13.1	2.82e-05	0	58	0	1010827264	52	5769
2026-01-28 22:42:32.60	146.54	14.52	-41.4	-45.1	12.5	8.08e-05	0	58	0	1012924416	53	5854
2026-01-28 22:42:33.61	146.67	14.44	-41.4	-45.1	12.6	1.14e-04	0	59	0	1015021568	53	5814
2026-01-28 22:42:34.62	146.80	14.36	-41.6	-45.6	12.1	2.41e-04	0	59	0	1017118720	53	6152
2026-01-28 22:42:35.63	146.93	14.28	-41.7	-45.7	11.9	4.81e-04	0	59	0	1018167296	53	6264
2026-01-28 22:42:36.64	147.06	14.19	-41.7	-45.8	11.8	4.71e-04	0	59	0	1020264448	53	6290
2026-01-28 22:42:37.65	147.19	14.11	-42.0	-46.4	11.2	6.82e-04	0	59	0	1022361600	54	6361
2026-01-28 22:42:38.66	147.32	14.03	-41.9	-46.1	11.6	7.60e-04	0	59	0	1024458752	54	6164
2026-01-28 22:42:39.67	147.45	13.95	-41.8	-45.9	11.7	6.40e-04	0	59	0	1026555904	54	6022
2026-01-28 22:42:40.68	147.58	13.87	-41.9	-46.1	11.5	7.79e-04	0	59	0	1027604480	54	6184
2026-01-28 22:42:41.69	147.71	13.79	-41.8	-45.9	11.7	5.17e-04	0	59	0	1029701632	54	6042
2026-01-28 22:42:42.70	147.83	13.70	-41.9	-46.2	11.5	5.61e-04	0	59	0	1031798784	54	6208
2026-01-28 22:42:43.71	147.96	13.62	-41.8	-46.0	11.6	1.18e-03	0	59	0	1033895936	54	6065
2026-01-28 22:42:44.72	148.08	13.54	-41.7	-45.7	11.9	4.39e-04	0	59	0	1035993088	54	5896
2026-01-28 22:42:45.73	148.21	13.46	-41.8	-46.0	11.6	5.39e-04	0	59	0	1037041664	54	6073
2026-01-28 22:42:46.74	148.33	13.38	-41.6	-45.7	11.9	5.32e-04	0	59	0	1039138816	54	5864
2026-01-28 22:42:47.75	148.46	13.30	-41.6	-45.6	12.0	3.25e-04	0	59	0	1041235968	54	5832
2026-01-28 22:42:48.76	148.58	13.22	-41.6	-45.7	11.9	4.36e-04	0	59	0	1043333120	54	5865
2026-01-28 22:42:49.77	148.70	13.14	-41.6	-45.5	12.0	2.68e-04	0	58	0	1045430272	54	5779
2026-01-28 22:42:50.78	148.82	13.06	-41.7	-45.8	11.8	3.56e-04	0	59	0	1047527424	54	5928
2026-01-28 22:42:51.79	148.94	12.98	-41.5	-45.3	12.2	3.84e-04	0	59	0	1048576000	54	5648
2026-01-28 22:42:52.81	149.06	12.90	-41.4	-45.2	12.4	1.84e-04	0	59	0	1050673152	54	5552
2026-01-28 22:42:53.82	149.18	12.82	-41.4	-45.2	12.4	1.73e-04	0	59	0	1052770304	54	5556
2026-01-28 22:42:54.83	149.30	12.74	-41.1	-44.7	12.9	7.40e-05	0	59	0	1054867456	54	5219
2026-01-28 22:42:55.84	149.42	12.66	-41.1	-44.7	12.9	3.12e-05	0	59	0	1056964608	54	5235
2026-01-28 22:42:56.85	149.54	12.58	-41.1	-44.6	12.9	4.95e-05	0	59	0	1058013184	54	5218
2026-01-28 22:42:57.86	149.65	12.50	-40.9	-44.3	13.2	1.75e-05	0	59	0	1060110336	53	5319
2026-01-28 22:42:58.87	149.77	12.42	-41.0	-44.6	13.0	2.82e-05	0	59	0	1062207488	53	5474
2026-01-28 22:42:59.88	149.89	12.34	-40.9	-44.2	13.4	2.89e-05	0	59	0	1064304640	53	5238
2026-01-28 22:43:00.89	150.00	12.27	-40.8	-44.0	13.5	6.80e-06	0	59	0	1066401792	53	5153
2026-01-28 22:43:01.90	150.12	12.19	-40.9	-44.3	13.2	1.98e-05	0	59	0	1067450368	53	5336
2026-01-28 22:43:02.91	150.23	12.11	-40.9	-44.2	13.3	1.83e-05	0	59	0	1069547520	53	5261
2026-01-28 22:43:03.92	150.34	12.03	-41.0	-44.5	13.0	3.96e-05	0	59	0	1071644672	53	5452
2026-01-28 22:43:04.93	150.46	11.95	-41.2	-44.8	12.7	7.55e-05	0	59	0	1073741824	53	5623
2026-01-28 22:43:05.94	150.57	11.87	-41.2	-45.0	12.5	5.49e-05	0	59	0	1075838976	53	5732
2026-01-28 22:43:06.95	150.68	11.80	-41.4	-45.3	12.2	8.16e-05	0	59	0	1076887552	53	5971
2026-01-28 22:43:07.96	150.79	11.72	-41.4	-45.4	12.1	2.41e-04	0	59	0	1078984704	53	5994
2026-01-28 22:43:08.97	150.90	11.64	-41.6	-45.7	11.8	2.59e-04	0	59	0	1081081856	53	6247
2026-01-28 22:43:09.98	151.01	11.56	-41.8	-46.1	11.4	5.88e-04	0	59	0	1083179008	54	6149
2026-01-28 22:43:10.99	151.12	11.49	-41.6	-45.8	11.7	5.77e-04	0	58	0	1085276160	54	5950
2026-01-28 22:43:12.00	151.23	11.41	-41.7	-46.0	11.4	8.21e-04	0	59	0	1086324736	54	6123
2026-01-28 22:43:13.01	151.34	11.33	-41.7	-46.0	11.4	1.56e-03	0	59	0	1088421888	54	6094
2026-01-28 22:43:14.02	151.45	11.26	-41.6	-45.8	11.6	7.12e-04	0	59	0	1090519040	54	5971
2026-01-28 22:43:15.03	151.55	11.18	-41.7	-46.1	11.4	8.67e-04	0	59	0	1092616192	54	6144
2026-01-28 22:43:16.04	151.66	11.10	-41.6	-45.7	11.7	7.32e-04	0	59	0	1094713344	54	5886
2026-01-28 22:43:17.05	151.77	11.03	-41.5	-45.7	11.7	4.36e-04	0	59	0	1095761920	54	5896
2026-01-28 22:43:18.06	151.87	10.95	-41.6	-45.7	11.7	5.81e-04	0	59	0	1097859072	54	5885
2026-01-28 22:43:19.07	151.98	10.88	-41.5	-45.6	11.8	3.79e-04	0	59	0	1099956224	54	5798
2026-01-28 22:43:20.08	152.08	10.80	-41.6	-45.8	11.6	5.31e-04	0	59	0	1102053376	54	5980
2026-01-28 22:43:21.09	152.19	10.73	-41.5	-45.7	11.7	6.29e-04	0	59	0	1104150528	54	5876
2026-01-28 22:43:22.10	152.29	10.65	-41.6	-45.8	11.6	6.37e-04	0	59	0	1105199104	54	5926
2026-01-28 22:43:23.11	152.39	10.57	-41.7	-46.0	11.3	1.02e-03	0	59	0	1107296256	54	6113
2026-01-28 22:43:24.12	152.50	10.50	-41.6	-45.9	11.4	9.35e-04	0	59	0	1109393408	54	6053
2026-01-28 22:43:25.13	152.60	10.42	-41.7	-46.0	11.3	7.37e-04	0	59	0	1111490560	54	6091
2026-01-28 22:43:26.14	152.70	10.35	-41.6	-46.2	11.1	1.37e-03	0	59	0	1113587712	54	6248
2026-01-28 22:43:27.15	152.80	10.27	-41.7	-46.0	11.2	1.50e-03	0	59	0	1115684864	54	6128
2026-01-28 22:43:28.16	152.90	10.20	-41.8	-46.5	10.8	1.78e-03	0	59	0	1116733440	54	6464
2026-01-28 22:43:29.17	153.00	10.13	-41.8	-46.4	10.8	2.32e-03	0	59	0	1118830592	54	6385
2026-01-28 22:43:30.18	153.10	10.05	-41.7	-46.3	11.0	1.75e-03	0	59	0	1120927744	54	6276
2026-01-28 22:43:31.19	153.20	9.98	-41.8	-46.5	10.7	2.51e-03	0	59	0	1123024896	54	6485
2026-01-28 22:43:32.20	153.30	9.90	-41.7	-46.3	10.9	2.41e-03	0	59	0	1125122048	54	6313
2026-01-28 22:43:33.21	153.40	9.83	-41.8	-46.4	10.9	2.18e-03	0	59	0	1126170624	54	6371
2026-01-28 22:43:34.22	153.49	9.76	-41.6	-46.1	11.2	2.05e-03	0	59	0	1128267776	54	6157
2026-01-28 22:43:35.23	153.59	9.68	-41.5	-45.8	11.4	1.07e-03	0	59	0	1130364928	54	5979
2026-01-28 22:43:36.24	153.69	9.61	-41.6	-46.0	11.2	1.14e-03	0	59	0	1132462080	54	6126
2026-01-28 22:43:37.25	153.78	9.54	-41.4	-45.7	11.6	9.74e-04	0	59	0	1134559232	54	5865
2026-01-28 22:43:38.26	153.88	9.46	-41.4	-45.6	11.7	6.06e-04	0	59	0	1135607808	54	5794
2026-01-28 22:43:39.27	153.98	9.39	-41.4	-45.5	11.7	5.48e-04	0	59	0	1137704960	54	5774
2026-01-28 22:43:40.28	154.07	9.32	-41.3	-45.3	11.9	4.02e-04	0	59	0	1139802112	54	5620
2026-01-28 22:43:41.29	154.16	9.24	-41.3	-45.3	11.9	3.41e-04	0	59	0	1141899264	54	5625
2026-01-28 22:43:42.30	154.26	9.17	-41.2	-45.2	12.0	4.31e-04	0	59	0	1143996416	54	5561
2026-01-28 22:43:43.32	154.35	9.10	-41.1	-44.9	12.3	3.09e-04	0	59	0	1145044992	54	5377
2026-01-28 22:43:44.33	154.45	9.03	-41.2	-45.3	11.8	3.61e-04	0	59	0	1147142144	54	5627
2026-01-28 22:43:45.34	154.54	8.95	-41.1	-45.0	12.2	3.00e-04	0	59	0	1149239296	54	5412
2026-01-28 22:43:46.35	154.63	8.88	-41.2	-45.2	12.0	2.78e-04	0	59	0	1151336448	54	5565
2026-01-28 22:43:47.36	154.72	8.81	-41.1	-45.1	12.0	2.94e-04	0	59	0	1153433600	54	5522
