passes_logs/2026/01/28/R2.0S_Moscow/R2.0S_Moscow__20260128_095150_NOAA_21_JPSS-2_rec.log

#Pass ID: 20260128_095150_NOAA 21 (JPSS-2)
#Satellite: NOAA 21 (JPSS-2)
#Configuration: NOAA-21
#almurnet v.1.7.20251203
#Start time: 2026-01-28 09:51:51

#Version: 2.2.20231116
#Station: R2.0S_Moscow
#Location: 37.707566 lon 55.798166 lat
#TLE: 1 54234U 22150A   26027.55906748  .00000170  00000+0  10132-3 0  9996
#TLE: 2 54234  98.7510 328.3076 0000860 204.4692 155.6443 14.19540154166599

#Time	Az	El	Level	Level2	SNR	BER	BlckErr	Temp	State	Recorded	gain1	gain2
2026-01-28 09:51:51.00	158.94	2.02	-44.1	-56.5	3.8	1.49e+00	0	50	0	0	59	15265
2026-01-28 09:51:52.01	158.94	2.08	-44.0	-56.6	3.8	1.49e+00	0	50	104	0	60	14613
2026-01-28 09:51:53.02	158.94	2.15	-44.0	-56.6	3.8	1.49e+00	0	50	104	0	60	14577
2026-01-28 09:51:54.03	158.94	2.22	-44.1	-56.5	3.8	1.49e+00	0	50	104	0	59	15261
2026-01-28 09:51:55.04	158.94	2.28	-44.1	-56.5	3.8	1.49e+00	0	50	104	0	59	15267
2026-01-28 09:51:56.05	158.93	2.35	-44.1	-56.5	3.8	1.49e+00	0	51	104	0	59	15302
2026-01-28 09:51:57.06	158.93	2.41	-44.1	-56.5	3.8	1.49e+00	0	51	104	0	59	15250
2026-01-28 09:51:58.07	158.93	2.48	-44.1	-56.5	3.8	1.49e+00	0	51	104	0	59	15226
2026-01-28 09:51:59.08	158.93	2.54	-44.1	-56.5	3.8	1.49e+00	0	51	104	0	59	15236
2026-01-28 09:52:00.09	158.93	2.61	-44.1	-56.4	3.8	1.49e+00	0	51	104	0	59	15206
2026-01-28 09:52:01.10	158.93	2.68	-44.1	-56.4	3.8	1.49e+00	0	51	104	0	59	15215
2026-01-28 09:52:02.11	158.93	2.74	-44.1	-56.4	3.8	1.49e+00	0	51	104	0	59	15183
2026-01-28 09:52:03.12	158.93	2.81	-44.1	-56.4	3.8	1.49e+00	0	51	104	0	59	15197
2026-01-28 09:52:04.13	158.93	2.88	-44.1	-56.5	3.8	1.49e+00	0	51	104	0	59	15251
2026-01-28 09:52:05.14	158.93	2.94	-44.1	-56.5	3.8	1.49e+00	0	51	104	0	59	15231
2026-01-28 09:52:06.15	158.93	3.01	-44.1	-56.5	3.8	1.49e+00	0	51	104	0	59	15248
2026-01-28 09:52:07.16	158.93	3.08	-44.1	-56.5	3.8	1.49e+00	0	51	104	0	59	15247
2026-01-28 09:52:08.17	158.93	3.15	-44.1	-56.5	3.8	1.49e+00	0	52	104	0	59	15249
2026-01-28 09:52:09.19	158.93	3.22	-44.1	-56.4	3.8	1.49e+00	0	51	104	0	59	15196
2026-01-28 09:52:10.20	158.93	3.28	-44.1	-56.4	3.8	1.49e+00	0	51	104	0	59	15212
2026-01-28 09:52:11.21	158.93	3.35	-44.1	-56.4	3.8	1.49e+00	0	52	104	0	59	15211
2026-01-28 09:52:12.22	158.93	3.42	-44.1	-56.4	3.8	1.49e+00	0	52	104	0	59	15212
2026-01-28 09:52:13.23	158.93	3.49	-44.1	-56.4	3.8	1.49e+00	0	52	104	0	59	15178
2026-01-28 09:52:14.24	158.93	3.56	-44.0	-56.4	3.8	1.49e+00	0	52	104	0	59	15217
2026-01-28 09:52:15.25	158.93	3.63	-44.1	-56.4	3.8	1.49e+00	0	52	104	0	59	15225
2026-01-28 09:52:16.26	158.93	3.69	-44.0	-56.5	3.8	1.49e+00	0	52	104	0	59	15267
2026-01-28 09:52:17.27	158.93	3.76	-44.0	-56.4	3.8	1.49e+00	0	52	104	0	59	15180
2026-01-28 09:52:18.28	158.93	3.83	-44.0	-56.5	3.8	1.49e+00	0	52	104	0	59	15247
2026-01-28 09:52:19.29	158.93	3.90	-44.0	-56.4	3.8	1.49e+00	0	52	104	0	59	15196
2026-01-28 09:52:20.30	158.93	3.97	-44.0	-56.4	3.8	1.49e+00	0	52	104	0	59	15214
2026-01-28 09:52:21.31	158.93	4.04	-44.1	-56.4	3.8	1.49e+00	0	52	104	0	59	15196
2026-01-28 09:52:22.32	158.93	4.11	-44.1	-56.4	3.8	1.49e+00	0	52	104	0	59	15185
2026-01-28 09:52:23.33	158.92	4.18	-44.1	-56.4	3.8	1.49e+00	0	53	104	0	59	15207
2026-01-28 09:52:24.34	158.92	4.25	-44.0	-56.4	3.8	1.49e+00	0	52	104	0	59	15156
2026-01-28 09:52:25.36	158.92	4.32	-44.0	-56.4	3.8	1.49e+00	0	53	104	0	59	15174
2026-01-28 09:52:26.37	158.92	4.40	-44.0	-56.4	3.8	1.49e+00	0	53	104	0	59	15177
2026-01-28 09:52:27.38	158.92	4.47	-44.0	-56.4	3.8	1.49e+00	0	53	104	0	59	15182
2026-01-28 09:52:28.39	158.92	4.54	-44.0	-56.4	3.8	1.49e+00	0	53	104	0	59	15078
2026-01-28 09:52:29.40	158.92	4.61	-44.0	-56.3	3.8	1.49e+00	0	53	104	0	59	15047
2026-01-28 09:52:30.41	158.92	4.68	-44.0	-56.4	3.8	1.49e+00	0	53	104	0	59	15059
2026-01-28 09:52:31.42	158.92	4.75	-44.0	-56.3	3.8	1.49e+00	0	53	104	0	59	15001
2026-01-28 09:52:32.43	158.92	4.82	-44.0	-56.3	3.8	1.49e+00	0	53	104	0	59	14967
2026-01-28 09:52:33.44	158.92	4.90	-44.0	-56.3	3.8	1.49e+00	0	53	104	0	59	14889
2026-01-28 09:52:34.45	158.92	4.97	-44.0	-56.1	3.8	1.49e+00	0	53	104	0	59	14570
2026-01-28 09:52:35.46	158.92	5.04	-44.0	-56.0	3.8	1.49e+00	0	53	104	0	59	14405
2026-01-28 09:52:36.47	158.92	5.11	-44.0	-55.9	3.8	1.49e+00	0	53	104	0	59	14241
2026-01-28 09:52:37.48	158.91	5.19	-43.9	-55.6	3.8	1.49e+00	0	53	104	0	59	13828
2026-01-28 09:52:38.49	158.91	5.26	-43.9	-55.3	3.8	1.49e+00	0	53	104	0	59	13374
2026-01-28 09:52:39.50	158.91	5.33	-43.9	-55.1	3.8	1.49e+00	0	53	104	0	59	13080
2026-01-28 09:52:40.52	158.91	5.41	-43.9	-55.1	3.8	1.49e+00	0	53	104	0	59	12980
2026-01-28 09:52:41.53	158.91	5.48	-43.9	-55.0	3.8	1.49e+00	0	53	104	0	59	12902
2026-01-28 09:52:42.54	158.91	5.55	-43.9	-54.9	3.8	1.49e+00	0	54	104	0	59	12807
2026-01-28 09:52:43.55	158.91	5.63	-43.9	-54.8	3.8	1.49e+00	0	54	104	0	59	12593
2026-01-28 09:52:44.56	158.91	5.70	-43.8	-54.4	3.8	1.49e+00	0	54	104	0	59	12065
2026-01-28 09:52:45.57	158.91	5.78	-43.8	-53.9	4.0	1.49e+00	0	54	104	0	59	11402
2026-01-28 09:52:46.58	158.91	5.85	-43.8	-54.1	3.9	1.48e+00	0	54	104	0	59	11550
2026-01-28 09:52:47.59	158.91	5.93	-43.8	-53.8	4.0	1.48e+00	0	54	104	0	59	11191
2026-01-28 09:52:48.60	158.91	6.00	-43.7	-53.7	3.9	1.47e+00	0	54	104	0	59	11128
2026-01-28 09:52:49.61	158.90	6.08	-43.7	-53.0	4.1	1.47e+00	0	54	104	0	59	10272
2026-01-28 09:52:50.62	158.90	6.15	-43.6	-52.8	4.2	1.46e+00	0	54	104	0	59	9968
2026-01-28 09:52:51.63	158.90	6.23	-43.7	-52.8	4.2	1.46e+00	0	54	104	0	59	9994
2026-01-28 09:52:52.64	158.90	6.31	-43.6	-52.6	4.3	1.44e+00	0	54	104	0	59	9767
2026-01-28 09:52:53.65	158.90	6.38	-43.6	-52.2	4.4	1.45e+00	0	54	104	0	59	9385
2026-01-28 09:52:54.66	158.90	6.46	-43.6	-52.2	4.4	1.42e+00	0	54	104	0	59	9359
2026-01-28 09:52:55.67	158.90	6.54	-43.6	-52.7	3.9	1.41e+00	0	54	104	0	59	9938
2026-01-28 09:52:56.69	158.90	6.61	-43.6	-52.2	4.4	1.44e+00	0	54	104	0	59	9349
2026-01-28 09:52:57.70	158.90	6.69	-43.6	-52.8	3.9	1.41e+00	0	54	104	0	59	10008
2026-01-28 09:52:58.71	158.89	6.77	-43.6	-52.1	4.4	1.39e+00	0	54	104	0	59	9223
2026-01-28 09:52:59.72	158.89	6.85	-43.5	-52.5	4.0	1.39e+00	0	54	104	0	59	9642
2026-01-28 09:53:00.73	158.89	6.92	-43.5	-51.5	4.7	1.09e+00	0	55	104	0	58	9164
2026-01-28 09:53:01.74	158.89	7.00	-43.4	-51.5	4.0	9.23e-01	0	55	104	0	58	9152
2026-01-28 09:53:02.75	158.89	7.08	-43.3	-50.8	5.0	7.06e-01	0	54	0	1048576	58	8450
2026-01-28 09:53:03.76	158.89	7.16	-43.2	-50.2	5.4	5.63e-01	0	55	0	4194304	58	7845
2026-01-28 09:53:04.77	158.89	7.24	-43.1	-49.7	5.8	4.20e-01	0	54	0	7340032	58	7376
2026-01-28 09:53:05.78	158.89	7.32	-42.9	-49.0	6.3	2.82e-01	0	54	0	10485760	57	7207
2026-01-28 09:53:06.79	158.88	7.40	-42.6	-48.1	7.0	1.77e-01	0	55	0	13631488	57	6545
2026-01-28 09:53:07.80	158.88	7.48	-42.4	-47.6	7.5	1.17e-01	0	55	0	16777216	56	6531
2026-01-28 09:53:08.81	158.88	7.56	-42.2	-46.9	8.2	6.47e-02	0	55	0	19922944	56	6006
2026-01-28 09:53:09.82	158.88	7.64	-41.8	-46.1	8.8	3.84e-02	0	55	0	23068672	55	5848
2026-01-28 09:53:10.83	158.88	7.72	-41.5	-45.6	9.3	2.16e-02	0	55	0	26214400	55	5514
2026-01-28 09:53:11.84	158.88	7.80	-41.5	-45.6	9.4	1.67e-02	0	55	0	29360128	54	5790
2026-01-28 09:53:12.85	158.88	7.88	-41.2	-45.0	10.0	7.93e-03	0	55	0	32505856	54	5439
2026-01-28 09:53:13.86	158.87	7.96	-41.1	-44.7	10.3	7.12e-03	0	55	0	35651584	54	5277
2026-01-28 09:53:14.87	158.87	8.04	-41.0	-44.6	10.4	6.05e-03	0	55	0	38797312	54	5208
2026-01-28 09:53:15.88	158.87	8.12	-44.1	-55.1	3.8	6.60e-01	0	55	104	40894464	58	13807
2026-01-28 09:53:16.89	158.87	8.20	-44.0	-55.2	3.8	1.49e+00	0	55	104	40894464	58	13993
2026-01-28 09:53:17.90	158.87	8.29	-40.0	-42.7	12.5	6.67e-04	0	55	0	41943040	52	4699
2026-01-28 09:53:18.91	158.87	8.37	-42.4	-47.3	7.8	3.83e-02	0	55	0	45088768	55	6698
2026-01-28 09:53:19.92	158.87	8.45	-42.2	-47.3	7.7	3.76e-04	0	55	0	48234496	55	6666
2026-01-28 09:53:20.93	158.86	8.54	-40.3	-43.2	12.0	6.82e-03	0	55	0	51380224	52	4951
2026-01-28 09:53:21.94	158.86	8.62	-40.1	-42.9	12.3	1.94e-04	0	55	0	54525952	52	4760
2026-01-28 09:53:22.95	158.86	8.70	-40.1	-43.0	12.1	2.10e-04	0	55	0	57671680	52	4830
2026-01-28 09:53:23.96	158.86	8.79	-40.1	-42.9	12.2	2.27e-04	0	55	0	60817408	52	4812
2026-01-28 09:53:24.97	158.86	8.87	-40.1	-42.9	12.2	1.75e-04	0	55	0	63963136	52	4794
2026-01-28 09:53:25.98	158.86	8.95	-40.0	-42.7	12.5	1.20e-04	0	55	0	67108864	52	4697
2026-01-28 09:53:26.99	158.85	9.04	-40.1	-42.9	12.2	1.91e-04	0	55	0	70254592	52	4793
2026-01-28 09:53:28.00	158.85	9.12	-40.0	-42.7	12.5	1.14e-04	0	56	0	73400320	51	4963
2026-01-28 09:53:29.01	158.85	9.21	-40.1	-42.8	12.4	1.26e-04	0	55	0	76546048	51	5019
2026-01-28 09:53:30.02	158.85	9.30	-39.9	-42.5	12.7	6.33e-05	0	55	0	79691776	51	4865
2026-01-28 09:53:31.03	158.85	9.38	-39.8	-42.4	12.9	5.03e-05	0	55	0	82837504	51	4786
2026-01-28 09:53:32.03	158.84	9.47	-39.8	-42.4	12.9	4.80e-05	0	56	0	85983232	51	4807
2026-01-28 09:53:33.04	158.84	9.55	-39.9	-42.5	12.8	5.95e-05	0	56	0	89128960	51	4850
2026-01-28 09:53:34.06	158.84	9.64	-39.9	-42.5	12.8	5.72e-05	0	56	0	92274688	51	4865
2026-01-28 09:53:35.07	158.84	9.73	-39.8	-42.3	13.0	5.41e-05	0	56	0	95420416	51	4749
2026-01-28 09:53:36.08	158.84	9.82	-39.7	-42.2	13.2	2.44e-05	0	56	0	98566144	51	4700
2026-01-28 09:53:37.09	158.83	9.90	-39.7	-42.1	13.3	2.13e-05	0	56	0	101711872	51	4641
2026-01-28 09:53:38.10	158.83	9.99	-39.6	-42.0	13.4	1.37e-05	0	56	0	104857600	51	4595
2026-01-28 09:53:39.10	158.83	10.08	-39.6	-42.0	13.5	1.67e-05	0	56	0	108003328	51	4560
2026-01-28 09:53:40.12	158.83	10.17	-39.6	-42.0	13.4	8.30e-06	0	56	0	111149056	51	4590
2026-01-28 09:53:41.13	158.83	10.26	-39.6	-42.0	13.5	1.29e-05	0	56	0	114294784	51	4550
2026-01-28 09:53:42.14	158.82	10.35	-39.6	-41.9	13.6	1.29e-05	0	56	0	117440512	51	4525
2026-01-28 09:53:43.15	158.82	10.44	-39.5	-41.9	13.6	9.10e-06	0	56	0	120586240	50	4782
2026-01-28 09:53:44.16	158.82	10.53	-39.5	-41.9	13.6	1.06e-05	0	56	0	123731968	50	4793
2026-01-28 09:53:45.17	158.82	10.62	-39.5	-41.8	13.7	5.30e-06	0	56	0	126877696	50	4743
2026-01-28 09:53:46.18	158.81	10.71	-39.5	-41.9	13.7	6.10e-06	0	56	0	130023424	50	4779
2026-01-28 09:53:47.19	158.81	10.80	-39.4	-41.7	13.9	6.10e-06	0	56	0	133169152	50	4677
2026-01-28 09:53:48.20	158.81	10.89	-39.4	-41.7	13.8	3.80e-06	0	56	0	136314880	50	4680
2026-01-28 09:53:49.21	158.81	10.98	-39.5	-41.8	13.8	5.30e-06	0	56	0	139460608	50	4719
2026-01-28 09:53:50.22	158.80	11.07	-39.4	-41.7	13.9	3.00e-06	0	56	0	142606336	50	4652
2026-01-28 09:53:51.23	158.80	11.17	-39.5	-41.7	13.8	5.30e-06	0	56	0	145752064	50	4702
2026-01-28 09:53:52.24	158.80	11.26	-39.4	-41.7	13.9	1.50e-06	0	56	0	148897792	50	4661
2026-01-28 09:53:53.26	158.80	11.35	-39.4	-41.6	14.0	2.20e-06	0	56	0	152043520	50	4624
2026-01-28 09:53:54.26	158.79	11.44	-39.3	-41.6	14.0	3.00e-06	0	56	0	155189248	50	4617
2026-01-28 09:53:55.28	158.79	11.54	-39.3	-41.5	14.1	3.00e-06	0	56	0	158334976	50	4585
2026-01-28 09:53:56.29	158.79	11.63	-39.2	-41.4	14.2	1.50e-06	0	56	0	161480704	50	4542
2026-01-28 09:53:57.30	158.79	11.73	-39.2	-41.4	14.2	1.50e-06	0	56	0	164626432	50	4527
2026-01-28 09:53:58.31	158.78	11.82	-39.2	-41.4	14.3	7.00e-07	0	56	0	167772160	50	4515
2026-01-28 09:53:59.32	158.78	11.92	-39.2	-41.4	14.3	0.00e+00	0	56	0	170917888	50	4520
2026-01-28 09:54:00.33	158.78	12.01	-39.3	-41.5	14.2	7.00e-07	0	56	0	174063616	50	4570
2026-01-28 09:54:01.34	158.78	12.11	-39.3	-41.4	14.2	1.50e-06	0	56	0	177209344	50	4540
2026-01-28 09:54:02.35	158.77	12.21	-39.4	-41.6	14.1	1.50e-06	0	56	0	180355072	50	4606
2026-01-28 09:54:03.36	158.77	12.30	-39.3	-41.5	14.2	7.00e-07	0	57	0	183500800	50	4563
2026-01-28 09:54:04.37	158.77	12.40	-39.3	-41.5	14.2	7.00e-07	0	56	0	186646528	50	4554
2026-01-28 09:54:05.38	158.76	12.50	-39.3	-41.5	14.2	2.20e-06	0	56	0	189792256	50	4587
2026-01-28 09:54:06.39	158.76	12.60	-39.3	-41.4	14.3	3.00e-06	0	57	0	192937984	50	4520
2026-01-28 09:54:07.40	158.76	12.69	-39.2	-41.4	14.4	7.00e-07	0	57	0	196083712	50	4501
2026-01-28 09:54:08.41	158.75	12.79	-39.1	-41.2	14.5	0.00e+00	0	57	0	199229440	50	4429
2026-01-28 09:54:09.42	158.75	12.89	-39.1	-41.2	14.6	0.00e+00	0	57	0	202375168	50	4435
2026-01-28 09:54:10.43	158.75	12.99	-39.1	-41.2	14.6	0.00e+00	0	56	0	205520896	50	4403
2026-01-28 09:54:11.44	158.74	13.09	-39.1	-41.1	14.6	7.00e-07	0	57	0	208666624	50	4391
2026-01-28 09:54:12.45	158.74	13.19	-39.0	-41.1	14.7	7.00e-07	0	56	0	211812352	50	4349
2026-01-28 09:54:13.46	158.74	13.29	-39.1	-41.1	14.6	0.00e+00	0	56	0	214958080	50	4387
2026-01-28 09:54:14.47	158.74	13.39	-39.1	-41.1	14.6	0.00e+00	0	57	0	218103808	50	4387
2026-01-28 09:54:15.48	158.73	13.49	-39.1	-41.1	14.6	0.00e+00	0	57	0	221249536	50	4386
2026-01-28 09:54:16.49	158.73	13.60	-39.0	-41.1	14.7	0.00e+00	0	57	0	224395264	50	4370
2026-01-28 09:54:17.50	158.72	13.70	-39.0	-41.1	14.7	0.00e+00	0	57	0	227540992	50	4346
2026-01-28 09:54:18.51	158.72	13.80	-39.0	-41.1	14.7	0.00e+00	0	57	0	230686720	50	4348
2026-01-28 09:54:19.52	158.72	13.91	-39.1	-41.2	14.6	0.00e+00	0	57	0	233832448	50	4424
2026-01-28 09:54:20.54	158.71	14.01	-39.1	-41.2	14.7	0.00e+00	0	57	0	236978176	50	4393
2026-01-28 09:54:21.55	158.71	14.11	-39.1	-41.1	14.7	0.00e+00	0	57	0	240123904	50	4365
2026-01-28 09:54:22.56	158.71	14.22	-39.0	-41.1	14.8	0.00e+00	0	57	0	243269632	50	4347
2026-01-28 09:54:23.57	158.70	14.32	-39.1	-41.1	14.7	0.00e+00	0	57	0	246415360	50	4374
2026-01-28 09:54:24.58	158.70	14.43	-39.1	-41.1	14.7	0.00e+00	0	57	0	249561088	50	4391
2026-01-28 09:54:25.59	158.70	14.54	-39.1	-41.1	14.7	7.00e-07	0	57	0	252706816	50	4370
2026-01-28 09:54:26.60	158.69	14.64	-39.0	-41.0	14.9	0.00e+00	0	57	0	255852544	50	4319
2026-01-28 09:54:27.61	158.69	14.75	-39.0	-41.0	14.8	0.00e+00	0	57	0	260046848	50	4319
2026-01-28 09:54:28.62	158.68	14.86	-38.9	-40.9	14.9	7.00e-07	0	57	0	263192576	49	4526
2026-01-28 09:54:29.63	158.68	14.96	-38.9	-40.9	14.9	0.00e+00	0	57	0	266338304	49	4532
2026-01-28 09:54:30.64	158.68	15.07	-39.0	-41.0	14.9	0.00e+00	0	57	0	268435456	49	4550
2026-01-28 09:54:31.65	158.67	15.18	-38.9	-40.9	14.9	7.00e-07	0	57	0	271581184	49	4532
2026-01-28 09:54:32.66	158.67	15.29	-39.0	-41.0	14.9	0.00e+00	0	57	0	275775488	49	4558
2026-01-28 09:54:33.67	158.66	15.40	-39.0	-41.0	14.9	0.00e+00	0	57	0	278921216	49	4552
2026-01-28 09:54:34.68	158.66	15.51	-38.9	-40.9	15.0	0.00e+00	0	57	0	282066944	49	4507
2026-01-28 09:54:35.70	158.65	15.62	-39.0	-41.0	14.9	7.00e-07	0	57	0	285212672	49	4549
2026-01-28 09:54:36.71	158.65	15.73	-39.0	-40.9	15.0	0.00e+00	0	57	0	288358400	49	4535
2026-01-28 09:54:37.72	158.65	15.85	-39.0	-41.0	14.9	0.00e+00	0	57	0	291504128	49	4559
2026-01-28 09:54:38.73	158.64	15.96	-39.0	-41.0	14.9	0.00e+00	0	57	0	294649856	49	4573
2026-01-28 09:54:39.74	158.64	16.07	-39.0	-41.0	14.9	0.00e+00	0	57	0	297795584	49	4591
2026-01-28 09:54:40.75	158.63	16.19	-39.1	-41.1	14.9	0.00e+00	0	57	0	300941312	49	4604
2026-01-28 09:54:41.76	158.63	16.30	-39.0	-40.9	15.0	0.00e+00	0	57	0	304087040	49	4542
2026-01-28 09:54:42.77	158.62	16.41	-39.0	-40.9	15.0	0.00e+00	0	57	0	307232768	49	4529
2026-01-28 09:54:43.77	158.62	16.53	-39.1	-41.1	14.9	0.00e+00	0	57	0	310378496	49	4606
2026-01-28 09:54:44.78	158.61	16.64	-39.0	-41.0	14.9	0.00e+00	0	57	0	313524224	49	4567
2026-01-28 09:54:45.80	158.61	16.76	-39.0	-41.0	15.0	0.00e+00	0	57	0	316669952	49	4568
2026-01-28 09:54:46.81	158.60	16.88	-39.1	-41.1	14.9	0.00e+00	0	57	0	319815680	49	4619
2026-01-28 09:54:47.81	158.60	16.99	-39.1	-41.2	14.8	7.00e-07	0	57	0	322961408	49	4657
2026-01-28 09:54:48.82	158.59	17.11	-39.1	-41.1	14.8	0.00e+00	0	57	0	326107136	49	4633
2026-01-28 09:54:49.83	158.59	17.23	-39.1	-41.1	14.8	0.00e+00	0	57	0	329252864	49	4622
2026-01-28 09:54:50.84	158.58	17.35	-39.1	-41.1	14.8	7.00e-07	0	57	0	332398592	49	4642
2026-01-28 09:54:51.86	158.58	17.47	-39.1	-41.2	14.8	0.00e+00	0	57	0	335544320	49	4661
2026-01-28 09:54:52.87	158.57	17.59	-39.1	-41.2	14.8	0.00e+00	0	57	0	338690048	49	4664
2026-01-28 09:54:53.88	158.57	17.71	-39.1	-41.1	14.8	1.50e-06	0	57	0	341835776	49	4636
2026-01-28 09:54:54.89	158.56	17.83	-39.2	-41.2	14.7	0.00e+00	0	57	0	344981504	49	4701
2026-01-28 09:54:55.90	158.56	17.95	-39.2	-41.2	14.8	0.00e+00	0	57	0	348127232	49	4675
2026-01-28 09:54:56.91	158.55	18.08	-39.1	-41.1	14.8	7.00e-07	0	57	0	351272960	49	4643
2026-01-28 09:54:57.92	158.54	18.20	-39.2	-41.2	14.7	0.00e+00	0	57	0	354418688	49	4700
2026-01-28 09:54:58.93	158.54	18.32	-39.2	-41.2	14.7	0.00e+00	0	57	0	357564416	49	4694
2026-01-28 09:54:59.94	158.53	18.45	-39.3	-41.3	14.7	7.00e-07	0	57	0	360710144	49	4739
2026-01-28 09:55:00.95	158.53	18.57	-39.2	-41.2	14.7	0.00e+00	0	57	0	363855872	49	4700
2026-01-28 09:55:01.96	158.52	18.70	-39.2	-41.2	14.8	0.00e+00	0	57	0	367001600	49	4681
2026-01-28 09:55:02.97	158.52	18.82	-39.2	-41.3	14.7	0.00e+00	0	57	0	370147328	49	4718
2026-01-28 09:55:03.98	158.51	18.95	-39.3	-41.3	14.7	1.50e-06	0	57	0	373293056	49	4742
2026-01-28 09:55:04.99	158.50	19.08	-39.2	-41.3	14.7	0.00e+00	0	58	0	376438784	49	4709
2026-01-28 09:55:06.01	158.50	19.21	-39.3	-41.3	14.7	7.00e-07	0	57	0	379584512	49	4740
2026-01-28 09:55:07.02	158.49	19.34	-39.2	-41.2	14.8	0.00e+00	0	57	0	382730240	49	4683
2026-01-28 09:55:08.03	158.48	19.47	-39.2	-41.2	14.8	7.00e-07	0	58	0	385875968	49	4672
2026-01-28 09:55:09.04	158.48	19.60	-39.2	-41.2	14.8	0.00e+00	0	58	0	389021696	49	4682
2026-01-28 09:55:10.05	158.47	19.73	-39.2	-41.2	14.8	0.00e+00	0	58	0	392167424	49	4682
2026-01-28 09:55:11.06	158.46	19.86	-39.2	-41.1	14.9	0.00e+00	0	57	0	395313152	49	4644
2026-01-28 09:55:12.07	158.46	19.99	-39.1	-41.0	15.0	0.00e+00	0	58	0	398458880	49	4595
2026-01-28 09:55:13.08	158.45	20.13	-39.1	-41.0	15.1	0.00e+00	0	58	0	401604608	49	4582
2026-01-28 09:55:14.09	158.44	20.26	-39.1	-41.0	15.0	1.50e-06	0	58	0	404750336	49	4587
2026-01-28 09:55:15.10	158.44	20.39	-39.0	-41.0	15.1	0.00e+00	0	57	0	407896064	49	4549
2026-01-28 09:55:16.11	158.43	20.53	-39.0	-40.9	15.1	0.00e+00	0	58	0	411041792	49	4535
2026-01-28 09:55:17.12	158.42	20.66	-39.0	-41.0	15.1	0.00e+00	0	58	0	414187520	49	4547
2026-01-28 09:55:18.13	158.42	20.80	-38.9	-40.8	15.3	0.00e+00	0	58	0	417333248	49	4473
2026-01-28 09:55:19.14	158.41	20.94	-38.8	-40.7	15.3	0.00e+00	0	58	0	420478976	49	4437
2026-01-28 09:55:20.15	158.40	21.08	-38.8	-40.7	15.4	0.00e+00	0	58	0	423624704	49	4401
2026-01-28 09:55:21.16	158.39	21.22	-38.8	-40.7	15.4	0.00e+00	0	58	0	426770432	49	4420
2026-01-28 09:55:22.17	158.39	21.36	-38.7	-40.6	15.5	0.00e+00	0	58	0	429916160	49	4368
2026-01-28 09:55:23.18	158.38	21.50	-38.7	-40.5	15.6	0.00e+00	0	58	0	433061888	49	4339
2026-01-28 09:55:24.19	158.37	21.64	-38.6	-40.4	15.7	0.00e+00	0	58	0	436207616	49	4283
2026-01-28 09:55:25.20	158.36	21.78	-38.6	-40.3	15.7	0.00e+00	0	58	0	439353344	49	4242
2026-01-28 09:55:26.21	158.35	21.92	-38.5	-40.3	15.8	0.00e+00	0	58	0	442499072	49	4216
2026-01-28 09:55:27.22	158.35	22.07	-38.5	-40.2	15.9	0.00e+00	0	58	0	445644800	48	4429
2026-01-28 09:55:28.24	158.34	22.21	-38.4	-40.1	16.0	0.00e+00	0	58	0	448790528	48	4375
2026-01-28 09:55:29.25	158.33	22.36	-38.3	-40.0	16.1	0.00e+00	0	58	0	451936256	48	4293
2026-01-28 09:55:30.26	158.32	22.50	-38.1	-39.8	16.3	0.00e+00	0	58	0	455081984	48	4230
2026-01-28 09:55:31.27	158.31	22.65	-38.2	-39.9	16.2	0.00e+00	0	58	0	458227712	48	4249
2026-01-28 09:55:32.28	158.30	22.80	-38.1	-39.7	16.4	0.00e+00	0	58	0	461373440	48	4190
2026-01-28 09:55:33.29	158.30	22.95	-38.1	-39.7	16.4	0.00e+00	0	58	0	464519168	48	4170
2026-01-28 09:55:34.30	158.29	23.10	-38.1	-39.7	16.4	0.00e+00	0	58	0	467664896	48	4192
2026-01-28 09:55:35.31	158.28	23.25	-38.0	-39.7	16.5	0.00e+00	0	58	0	470810624	48	4151
2026-01-28 09:55:36.32	158.27	23.40	-37.9	-39.5	16.5	0.00e+00	0	58	0	473956352	47	4323
2026-01-28 09:55:37.33	158.26	23.55	-37.8	-39.5	16.6	0.00e+00	0	58	0	477102080	47	4306
2026-01-28 09:55:38.34	158.25	23.70	-37.8	-39.4	16.6	0.00e+00	0	58	0	480247808	47	4284
2026-01-28 09:55:39.35	158.24	23.86	-37.8	-39.4	16.6	0.00e+00	0	58	0	483393536	47	4275
2026-01-28 09:55:40.37	158.23	24.01	-37.7	-39.3	16.7	0.00e+00	0	58	0	486539264	47	4236
2026-01-28 09:55:41.38	158.22	24.17	-37.7	-39.3	16.7	0.00e+00	0	58	0	489684992	47	4220
2026-01-28 09:55:42.39	158.21	24.33	-37.6	-39.2	16.8	0.00e+00	0	58	0	492830720	47	4173
2026-01-28 09:55:43.40	158.20	24.48	-37.6	-39.2	16.8	0.00e+00	0	58	0	495976448	47	4181
2026-01-28 09:55:44.41	158.19	24.64	-37.7	-39.3	16.8	0.00e+00	0	58	0	499122176	47	4211
2026-01-28 09:55:45.42	158.18	24.80	-37.7	-39.3	16.7	0.00e+00	0	58	0	502267904	47	4236
2026-01-28 09:55:46.43	158.17	24.96	-37.7	-39.3	16.8	0.00e+00	0	58	0	505413632	47	4208
2026-01-28 09:55:47.44	158.16	25.13	-37.8	-39.4	16.7	0.00e+00	0	58	0	508559360	47	4276
2026-01-28 09:55:48.45	158.15	25.29	-37.8	-39.4	16.7	0.00e+00	0	58	0	511705088	47	4276
2026-01-28 09:55:49.46	158.14	25.45	-37.8	-39.4	16.7	0.00e+00	0	58	0	514850816	47	4277
2026-01-28 09:55:50.47	158.13	25.62	-37.9	-39.5	16.6	0.00e+00	0	58	0	517996544	47	4324
2026-01-28 09:55:51.48	158.12	25.78	-37.9	-39.5	16.6	0.00e+00	0	58	0	521142272	47	4332
2026-01-28 09:55:52.49	158.11	25.95	-38.0	-39.6	16.5	0.00e+00	0	58	0	524288000	47	4361
2026-01-28 09:55:53.50	158.10	26.12	-38.0	-39.7	16.4	0.00e+00	0	58	0	527433728	47	4414
2026-01-28 09:55:54.51	158.08	26.29	-38.0	-39.7	16.4	0.00e+00	0	58	0	531628032	47	4409
2026-01-28 09:55:55.52	158.07	26.46	-38.2	-39.9	16.2	0.00e+00	0	58	0	534773760	47	4507
2026-01-28 09:55:56.53	158.06	26.63	-38.3	-40.0	16.2	0.00e+00	0	58	0	536870912	47	4557
2026-01-28 09:55:57.54	158.05	26.80	-38.3	-40.1	16.0	0.00e+00	0	58	0	540016640	47	4614
2026-01-28 09:55:58.55	158.04	26.97	-38.5	-40.2	15.9	0.00e+00	0	58	0	544210944	47	4693
2026-01-28 09:55:59.57	158.02	27.15	-38.5	-40.3	15.8	0.00e+00	0	58	0	547356672	47	4713
2026-01-28 09:56:00.58	158.01	27.32	-38.6	-40.3	15.8	0.00e+00	0	58	0	550502400	47	4757
2026-01-28 09:56:01.59	158.00	27.50	-38.7	-40.5	15.7	0.00e+00	0	58	0	553648128	47	4823
2026-01-28 09:56:02.60	157.99	27.68	-38.8	-40.6	15.6	0.00e+00	0	58	0	556793856	48	4648
2026-01-28 09:56:03.61	157.97	27.86	-38.8	-40.7	15.6	0.00e+00	0	58	0	559939584	48	4662
2026-01-28 09:56:04.62	157.96	28.04	-38.9	-40.7	15.5	0.00e+00	0	58	0	563085312	48	4692
2026-01-28 09:56:05.63	157.95	28.22	-38.9	-40.8	15.4	0.00e+00	0	58	0	566231040	48	4733
2026-01-28 09:56:06.64	157.93	28.40	-39.0	-40.8	15.4	0.00e+00	0	58	0	569376768	48	4751
2026-01-28 09:56:07.65	157.92	28.58	-39.0	-40.9	15.4	0.00e+00	0	58	0	572522496	48	4773
2026-01-28 09:56:08.66	157.91	28.77	-39.0	-40.9	15.3	0.00e+00	0	58	0	575668224	48	4772
2026-01-28 09:56:09.66	157.89	28.95	-39.0	-40.9	15.3	0.00e+00	0	58	0	578813952	48	4789
2026-01-28 09:56:10.67	157.88	29.14	-39.0	-40.9	15.3	0.00e+00	0	58	0	581959680	48	4801
2026-01-28 09:56:11.68	157.86	29.33	-39.1	-40.9	15.3	0.00e+00	0	58	0	585105408	48	4812
2026-01-28 09:56:12.69	157.85	29.52	-39.0	-40.9	15.4	0.00e+00	0	58	0	588251136	48	4770
2026-01-28 09:56:13.70	157.83	29.71	-38.9	-40.8	15.5	0.00e+00	0	58	0	591396864	48	4711
2026-01-28 09:56:14.71	157.82	29.90	-39.0	-40.8	15.4	0.00e+00	0	58	0	594542592	48	4752
2026-01-28 09:56:15.72	157.80	30.09	-38.9	-40.8	15.5	0.00e+00	0	58	0	597688320	48	4726
2026-01-28 09:56:16.73	157.79	30.29	-38.9	-40.8	15.5	0.00e+00	0	58	0	600834048	48	4744
2026-01-28 09:56:17.74	157.77	30.48	-39.0	-40.8	15.4	0.00e+00	0	58	0	603979776	48	4752
2026-01-28 09:56:18.75	157.76	30.68	-38.8	-40.7	15.6	0.00e+00	0	58	0	607125504	48	4657
2026-01-28 09:56:19.76	157.74	30.88	-38.8	-40.6	15.7	0.00e+00	0	58	0	610271232	48	4628
2026-01-28 09:56:20.77	157.72	31.08	-38.8	-40.6	15.7	0.00e+00	0	58	0	613416960	48	4623
2026-01-28 09:56:21.78	157.71	31.28	-38.7	-40.5	15.7	0.00e+00	0	58	0	616562688	48	4595
2026-01-28 09:56:22.79	157.69	31.48	-38.7	-40.5	15.8	0.00e+00	0	58	0	619708416	48	4583
2026-01-28 09:56:23.80	157.67	31.69	-38.7	-40.5	15.8	0.00e+00	0	58	0	622854144	48	4583
2026-01-28 09:56:24.81	157.66	31.90	-38.8	-40.7	15.7	0.00e+00	0	58	0	625999872	48	4655
2026-01-28 09:56:25.82	157.64	32.10	-39.0	-40.8	15.5	0.00e+00	0	58	0	629145600	48	4751
2026-01-28 09:56:26.83	157.62	32.31	-39.0	-41.0	15.4	0.00e+00	0	59	0	632291328	48	4819
2026-01-28 09:56:27.84	157.60	32.52	-39.1	-41.0	15.3	0.00e+00	0	59	0	635437056	48	4865
2026-01-28 09:56:28.85	157.58	32.73	-39.2	-41.2	15.1	0.00e+00	0	58	0	638582784	49	4694
2026-01-28 09:56:29.86	157.56	32.95	-39.2	-41.2	15.1	0.00e+00	0	58	0	641728512	49	4675
2026-01-28 09:56:30.87	157.54	33.16	-39.3	-41.3	15.0	0.00e+00	0	59	0	644874240	49	4715
2026-01-28 09:56:31.88	157.53	33.38	-39.4	-41.4	15.0	0.00e+00	0	58	0	648019968	49	4766
2026-01-28 09:56:32.89	157.51	33.59	-39.4	-41.4	14.9	0.00e+00	0	58	0	651165696	49	4810
2026-01-28 09:56:33.91	157.49	33.82	-39.4	-41.4	14.9	0.00e+00	0	58	0	654311424	49	4789
2026-01-28 09:56:34.92	157.47	34.04	-39.5	-41.6	14.8	0.00e+00	0	58	0	657457152	49	4872
2026-01-28 09:56:35.93	157.44	34.26	-39.5	-41.5	14.8	0.00e+00	0	58	0	660602880	49	4862
2026-01-28 09:56:36.94	157.42	34.48	-39.6	-41.6	14.7	0.00e+00	0	58	0	663748608	49	4900
2026-01-28 09:56:37.95	157.40	34.71	-39.7	-41.7	14.6	1.50e-06	0	58	0	666894336	49	4973
2026-01-28 09:56:38.96	157.38	34.94	-39.8	-41.9	14.5	0.00e+00	0	59	0	670040064	50	4763
2026-01-28 09:56:39.97	157.36	35.16	-39.9	-42.0	14.3	1.50e-06	0	58	0	673185792	50	4848
2026-01-28 09:56:40.98	157.34	35.40	-40.0	-42.2	14.2	3.00e-06	0	58	0	676331520	50	4930
2026-01-28 09:56:41.99	157.31	35.63	-40.2	-42.4	13.9	1.50e-06	0	58	0	679477248	50	5088
2026-01-28 09:56:43.00	157.29	35.86	-40.3	-42.6	13.7	8.30e-06	0	58	0	682622976	51	4895
2026-01-28 09:56:44.01	157.27	36.10	-40.3	-42.6	13.7	6.10e-06	0	59	0	685768704	51	4899
2026-01-28 09:56:45.02	157.24	36.33	-40.4	-42.8	13.6	9.90e-06	0	59	0	688914432	51	4989
2026-01-28 09:56:46.03	157.22	36.57	-40.3	-42.6	13.7	7.60e-06	0	58	0	692060160	51	4916
2026-01-28 09:56:47.04	157.19	36.81	-40.3	-42.7	13.7	2.20e-06	0	59	0	695205888	51	4930
2026-01-28 09:56:48.05	157.17	37.06	-40.3	-42.6	13.7	3.00e-06	0	59	0	698351616	51	4893
2026-01-28 09:56:49.06	157.14	37.30	-40.3	-42.7	13.7	9.10e-06	0	59	0	701497344	51	4929
2026-01-28 09:56:50.06	157.12	37.55	-40.4	-42.9	13.5	7.60e-06	0	59	0	704643072	51	5049
2026-01-28 09:56:51.07	157.09	37.79	-40.5	-42.9	13.4	1.67e-05	0	59	0	707788800	51	5085
2026-01-28 09:56:52.08	157.07	38.04	-40.4	-42.8	13.6	1.14e-05	0	59	0	710934528	51	4993
2026-01-28 09:56:53.09	157.04	38.30	-40.5	-42.9	13.5	1.06e-05	0	59	0	714080256	51	5052
2026-01-28 09:56:54.11	157.01	38.55	-40.3	-42.6	13.8	7.60e-06	0	58	0	717225984	51	4895
2026-01-28 09:56:55.12	156.98	38.81	-40.2	-42.5	13.9	5.30e-06	0	59	0	720371712	51	4849
2026-01-28 09:56:56.13	156.95	39.06	-40.2	-42.5	13.8	2.20e-06	0	59	0	723517440	51	4855
2026-01-28 09:56:57.13	156.92	39.32	-40.2	-42.4	13.9	2.20e-06	0	59	0	726663168	51	4793
2026-01-28 09:56:58.14	156.89	39.58	-40.2	-42.5	13.8	3.80e-06	0	59	0	729808896	51	4846
2026-01-28 09:56:59.16	156.86	39.85	-40.3	-42.6	13.7	1.50e-06	0	59	0	732954624	51	4903
2026-01-28 09:57:00.17	156.83	40.11	-40.3	-42.5	13.8	7.60e-06	0	58	0	736100352	51	4868
2026-01-28 09:57:01.17	156.80	40.38	-40.3	-42.6	13.7	5.30e-06	0	58	0	739246080	51	4914
2026-01-28 09:57:02.18	156.77	40.65	-40.2	-42.5	13.8	3.80e-06	0	59	0	742391808	51	4841
2026-01-28 09:57:03.19	156.74	40.92	-40.3	-42.6	13.8	2.20e-06	0	59	0	745537536	51	4884
2026-01-28 09:57:04.20	156.70	41.19	-40.3	-42.6	13.8	3.80e-06	0	59	0	748683264	51	4899
2026-01-28 09:57:05.21	156.67	41.47	-40.4	-42.7	13.6	5.30e-06	0	59	0	751828992	51	4972
2026-01-28 09:57:06.22	156.64	41.74	-40.5	-42.9	13.5	9.90e-06	0	59	0	754974720	51	5084
2026-01-28 09:57:07.23	156.60	42.02	-40.7	-43.2	13.1	2.36e-05	0	58	0	758120448	52	4952
2026-01-28 09:57:08.25	156.56	42.31	-40.8	-43.4	12.9	3.81e-05	0	59	0	761266176	52	5044
2026-01-28 09:57:09.25	156.53	42.59	-40.8	-43.3	13.0	2.97e-05	0	59	0	764411904	52	5036
2026-01-28 09:57:10.26	156.49	42.88	-40.6	-43.1	13.2	1.98e-05	0	59	0	767557632	52	4908
2026-01-28 09:57:11.28	156.45	43.17	-40.5	-42.9	13.4	1.67e-05	0	59	0	770703360	52	4775
2026-01-28 09:57:12.29	156.41	43.46	-40.4	-42.8	13.5	8.30e-06	0	59	0	773849088	52	4722
2026-01-28 09:57:13.30	156.38	43.75	-40.3	-42.7	13.6	9.10e-06	0	59	0	776994816	52	4664
2026-01-28 09:57:14.31	156.33	44.04	-40.3	-42.6	13.7	4.50e-06	0	59	0	780140544	52	4609
2026-01-28 09:57:15.32	156.29	44.34	-40.5	-42.9	13.4	9.90e-06	0	59	0	783286272	52	4792
2026-01-28 09:57:16.33	156.25	44.64	-40.6	-43.1	13.2	1.83e-05	0	59	0	786432000	52	4871
2026-01-28 09:57:17.34	156.21	44.94	-40.8	-43.4	12.9	4.11e-05	0	59	0	789577728	52	5050
2026-01-28 09:57:18.35	156.17	45.25	-41.0	-43.8	12.5	9.00e-05	0	59	0	792723456	52	5288
2026-01-28 09:57:19.36	156.12	45.55	-41.2	-44.0	12.3	1.75e-04	0	59	0	795869184	52	5407
2026-01-28 09:57:20.37	156.08	45.86	-41.2	-44.1	12.2	2.14e-04	0	59	0	799014912	53	5175
2026-01-28 09:57:21.38	156.03	46.17	-41.2	-44.0	12.2	2.11e-04	0	58	0	802160640	53	5129
2026-01-28 09:57:22.39	155.98	46.48	-41.1	-43.8	12.4	1.75e-04	0	59	0	805306368	53	5033
2026-01-28 09:57:23.40	155.93	46.80	-41.0	-43.7	12.6	1.15e-04	0	59	0	808452096	53	4941
2026-01-28 09:57:24.41	155.88	47.12	-40.8	-43.3	13.0	5.72e-05	0	59	0	811597824	53	4758
2026-01-28 09:57:25.42	155.83	47.44	-40.8	-43.3	13.0	3.73e-05	0	59	0	814743552	53	4745
2026-01-28 09:57:26.44	155.78	47.76	-40.7	-43.2	13.1	4.50e-05	0	59	0	817889280	53	4697
2026-01-28 09:57:27.45	155.73	48.09	-40.6	-43.1	13.2	1.60e-05	0	59	0	821035008	53	4639
2026-01-28 09:57:28.46	155.68	48.42	-40.6	-43.1	13.1	2.97e-05	0	59	0	825229312	53	4651
2026-01-28 09:57:29.47	155.62	48.75	-40.5	-43.0	13.3	2.21e-05	0	59	0	828375040	53	4567
2026-01-28 09:57:30.48	155.56	49.08	-40.5	-42.9	13.4	1.22e-05	0	59	0	830472192	52	4780
2026-01-28 09:57:31.49	155.51	49.41	-40.5	-43.0	13.3	1.22e-05	0	59	0	833617920	52	4824
2026-01-28 09:57:32.50	155.45	49.75	-40.4	-42.8	13.5	1.06e-05	0	59	0	836763648	52	4759
2026-01-28 09:57:33.51	155.39	50.09	-40.4	-42.8	13.6	7.60e-06	0	59	0	840957952	52	4713
2026-01-28 09:57:34.52	155.32	50.43	-40.4	-42.8	13.5	1.52e-05	0	59	0	844103680	52	4751
2026-01-28 09:57:35.53	155.26	50.78	-40.4	-42.8	13.5	1.90e-05	0	59	0	847249408	52	4741
2026-01-28 09:57:36.54	155.20	51.12	-40.4	-42.8	13.5	1.37e-05	0	59	0	850395136	52	4750
2026-01-28 09:57:37.55	155.13	51.47	-40.4	-42.8	13.5	1.29e-05	0	59	0	853540864	52	4746
2026-01-28 09:57:38.57	155.06	51.83	-40.2	-42.5	13.8	8.30e-06	0	59	0	856686592	52	4591
2026-01-28 09:57:39.58	154.99	52.18	-40.0	-42.2	14.1	2.20e-06	0	59	0	859832320	52	4423
2026-01-28 09:57:40.59	154.92	52.54	-39.7	-41.8	14.5	7.00e-07	0	59	0	862978048	51	4471
2026-01-28 09:57:41.60	154.85	52.90	-39.7	-41.7	14.7	0.00e+00	0	59	0	866123776	51	4433
2026-01-28 09:57:42.61	154.77	53.26	-39.6	-41.7	14.7	0.00e+00	0	59	0	869269504	51	4393
2026-01-28 09:57:43.62	154.69	53.63	-39.5	-41.5	14.9	0.00e+00	0	59	0	872415232	51	4311
2026-01-28 09:57:44.63	154.61	54.00	-39.3	-41.2	15.2	0.00e+00	0	59	0	875560960	50	4425
2026-01-28 09:57:45.64	154.53	54.37	-39.2	-41.1	15.3	0.00e+00	0	59	0	878706688	50	4345
2026-01-28 09:57:46.65	154.45	54.74	-39.0	-40.8	15.5	7.00e-07	0	59	0	881852416	50	4228
2026-01-28 09:57:47.66	154.36	55.12	-38.8	-40.6	15.7	0.00e+00	0	59	0	884998144	49	4381
2026-01-28 09:57:48.68	154.27	55.50	-38.8	-40.6	15.8	0.00e+00	0	59	0	888143872	49	4365
2026-01-28 09:57:49.69	154.18	55.88	-38.9	-40.7	15.7	0.00e+00	0	59	0	891289600	49	4400
2026-01-28 09:57:50.70	154.09	56.26	-38.9	-40.7	15.8	0.00e+00	0	59	0	894435328	49	4398
2026-01-28 09:57:51.71	153.99	56.65	-38.6	-40.4	16.0	0.00e+00	0	59	0	897581056	49	4247
2026-01-28 09:57:52.72	153.89	57.04	-38.6	-40.3	16.1	0.00e+00	0	59	0	900726784	49	4222
2026-01-28 09:57:53.73	153.79	57.43	-38.6	-40.3	16.1	0.00e+00	0	59	0	903872512	48	4470
2026-01-28 09:57:54.73	153.68	57.82	-38.5	-40.3	16.1	0.00e+00	0	59	0	907018240	48	4454
2026-01-28 09:57:55.75	153.57	58.22	-38.4	-40.0	16.3	0.00e+00	0	59	0	910163968	48	4315
2026-01-28 09:57:56.76	153.46	58.62	-38.1	-39.7	16.6	0.00e+00	0	59	0	913309696	48	4180
2026-01-28 09:57:57.77	153.35	59.02	-37.8	-39.4	16.8	0.00e+00	0	59	0	916455424	47	4277
2026-01-28 09:57:58.78	153.23	59.42	-37.8	-39.4	16.8	0.00e+00	0	59	0	919601152	47	4272
2026-01-28 09:57:59.79	153.10	59.83	-38.0	-39.6	16.6	0.00e+00	0	59	0	922746880	47	4386
2026-01-28 09:58:00.80	152.98	60.24	-38.1	-39.8	16.5	0.00e+00	0	59	0	925892608	47	4450
2026-01-28 09:58:01.81	152.85	60.65	-38.1	-39.7	16.5	0.00e+00	0	59	0	929038336	47	4435
2026-01-28 09:58:02.82	152.71	61.06	-38.0	-39.6	16.6	0.00e+00	0	59	0	932184064	47	4359
2026-01-28 09:58:03.83	152.57	61.48	-38.0	-39.6	16.6	0.00e+00	0	59	0	935329792	47	4386
2026-01-28 09:58:04.84	152.42	61.90	-37.7	-39.3	17.0	0.00e+00	0	59	0	938475520	47	4207
2026-01-28 09:58:05.85	152.27	62.32	-37.7	-39.3	16.9	0.00e+00	0	59	0	941621248	47	4218
2026-01-28 09:58:06.86	152.12	62.74	-37.8	-39.4	16.9	0.00e+00	0	59	0	944766976	47	4260
2026-01-28 09:58:07.87	151.96	63.17	-37.8	-39.4	16.9	0.00e+00	0	59	0	947912704	47	4251
2026-01-28 09:58:08.88	151.79	63.60	-37.6	-39.2	17.1	0.00e+00	0	59	0	951058432	47	4170
2026-01-28 09:58:09.89	151.61	64.03	-37.6	-39.1	17.1	0.00e+00	0	59	0	954204160	47	4140
2026-01-28 09:58:10.90	151.43	64.46	-37.7	-39.3	16.9	0.00e+00	0	59	0	957349888	47	4224
2026-01-28 09:58:11.91	151.25	64.90	-37.6	-39.1	17.1	0.00e+00	0	59	0	960495616	47	4128
2026-01-28 09:58:12.92	151.05	65.34	-37.4	-38.9	17.3	0.00e+00	0	59	0	963641344	46	4277
2026-01-28 09:58:13.93	150.85	65.78	-37.3	-38.7	17.5	0.00e+00	0	59	0	966787072	46	4175
2026-01-28 09:58:14.94	150.63	66.22	-37.1	-38.5	17.7	0.00e+00	0	59	0	969932800	46	4077
2026-01-28 09:58:15.95	150.41	66.66	-37.1	-38.5	17.7	0.00e+00	0	59	0	973078528	46	4079
2026-01-28 09:58:16.97	150.18	67.11	-37.1	-38.5	17.7	0.00e+00	0	59	0	976224256	46	4064
2026-01-28 09:58:17.98	149.94	67.56	-37.2	-38.6	17.5	0.00e+00	0	59	0	979369984	46	4144
2026-01-28 09:58:18.99	149.69	68.01	-37.2	-38.6	17.6	0.00e+00	0	59	0	982515712	46	4125
2026-01-28 09:58:20.00	149.42	68.46	-37.3	-38.7	17.5	0.00e+00	0	59	0	985661440	46	4184
2026-01-28 09:58:21.01	149.15	68.92	-37.4	-39.0	17.2	0.00e+00	0	59	0	988807168	46	4298
2026-01-28 09:58:22.02	148.86	69.37	-37.6	-39.2	17.0	0.00e+00	0	59	0	991952896	46	4410
2026-01-28 09:58:23.03	148.55	69.83	-37.8	-39.4	16.8	0.00e+00	0	59	0	995098624	46	4499
2026-01-28 09:58:24.04	148.24	70.29	-37.8	-39.5	16.7	0.00e+00	0	59	0	998244352	46	4547
2026-01-28 09:58:25.05	147.90	70.75	-37.9	-39.6	16.6	0.00e+00	0	59	0	1001390080	46	4622
2026-01-28 09:58:26.06	147.55	71.21	-37.9	-39.5	16.6	0.00e+00	0	59	0	1004535808	46	4577
2026-01-28 09:58:27.07	147.18	71.68	-37.8	-39.5	16.7	0.00e+00	0	59	0	1007681536	46	4561
2026-01-28 09:58:28.08	146.78	72.14	-37.6	-39.2	17.0	0.00e+00	0	59	0	1010827264	46	4421
2026-01-28 09:58:29.09	146.37	72.61	-37.7	-39.3	16.9	0.00e+00	0	59	0	1013972992	46	4452
2026-01-28 09:58:30.10	145.93	73.07	-37.8	-39.5	16.6	0.00e+00	0	59	0	1017118720	46	4563
2026-01-28 09:58:31.11	145.46	73.54	-37.9	-39.6	16.6	0.00e+00	0	59	0	1020264448	46	4606
2026-01-28 09:58:32.12	144.97	74.01	-38.0	-39.6	16.5	0.00e+00	0	59	0	1023410176	46	4638
2026-01-28 09:58:33.13	144.44	74.48	-37.7	-39.3	16.8	0.00e+00	0	59	0	1026555904	46	4475
2026-01-28 09:58:34.14	143.88	74.95	-37.8	-39.4	16.7	0.00e+00	0	59	0	1029701632	46	4528
2026-01-28 09:58:35.15	143.28	75.42	-37.8	-39.5	16.7	0.00e+00	0	59	0	1032847360	46	4557
2026-01-28 09:58:36.16	142.64	75.89	-38.0	-39.8	16.4	0.00e+00	0	59	0	1035993088	46	4707
2026-01-28 09:58:37.17	141.96	76.35	-37.9	-39.5	16.6	0.00e+00	0	59	0	1039138816	46	4593
2026-01-28 09:58:38.17	141.23	76.82	-37.7	-39.3	16.8	0.00e+00	0	59	0	1042284544	46	4480
2026-01-28 09:58:39.18	140.44	77.29	-37.9	-39.5	16.6	0.00e+00	0	59	0	1045430272	46	4597
2026-01-28 09:58:40.19	139.59	77.75	-38.0	-39.7	16.5	0.00e+00	0	59	0	1048576000	46	4672
2026-01-28 09:58:41.20	138.66	78.22	-38.0	-39.7	16.4	0.00e+00	0	59	0	1051721728	46	4689
2026-01-28 09:58:42.21	137.66	78.68	-37.8	-39.4	16.8	0.00e+00	0	59	0	1054867456	46	4506
2026-01-28 09:58:43.22	136.57	79.14	-37.8	-39.4	16.7	0.00e+00	0	59	0	1058013184	46	4508
2026-01-28 09:58:44.23	135.39	79.60	-37.8	-39.3	16.8	0.00e+00	0	59	0	1061158912	46	4492
2026-01-28 09:58:45.24	134.09	80.05	-37.6	-39.1	17.0	0.00e+00	0	59	0	1064304640	46	4380
2026-01-28 09:58:46.25	132.66	80.50	-37.5	-39.0	17.1	0.00e+00	0	59	0	1067450368	46	4300
2026-01-28 09:58:47.26	131.10	80.95	-37.4	-38.8	17.2	0.00e+00	0	59	0	1070596096	46	4241
2026-01-28 09:58:48.27	129.37	81.38	-37.7	-39.3	16.8	0.00e+00	0	59	0	1073741824	46	4473
2026-01-28 09:58:49.28	127.45	81.81	-37.9	-39.6	16.6	0.00e+00	0	59	0	1076887552	46	4603
2026-01-28 09:58:50.29	125.32	82.23	-38.1	-39.8	16.3	0.00e+00	0	59	0	1080033280	46	4716
2026-01-28 09:58:51.30	122.95	82.64	-38.0	-39.7	16.3	0.00e+00	0	59	0	1083179008	46	4676
2026-01-28 09:58:52.31	120.30	83.04	-38.2	-39.9	16.1	0.00e+00	0	59	0	1086324736	46	4797
2026-01-28 09:58:53.32	117.34	83.42	-38.3	-40.0	16.1	0.00e+00	0	59	0	1089470464	47	4574
2026-01-28 09:58:54.33	114.02	83.78	-38.3	-40.1	16.0	0.00e+00	0	59	0	1092616192	47	4627
2026-01-28 09:58:55.34	110.30	84.12	-38.4	-40.2	16.0	0.00e+00	0	59	0	1095761920	47	4679
2026-01-28 09:58:56.35	106.15	84.43	-38.3	-40.0	16.1	0.00e+00	0	59	0	1098907648	47	4598
2026-01-28 09:58:57.36	101.53	84.70	-38.2	-39.9	16.2	0.00e+00	0	59	0	1102053376	47	4509
2026-01-28 09:58:58.38	96.39	84.95	-38.0	-39.6	16.5	0.00e+00	0	59	0	1105199104	47	4370
2026-01-28 09:58:59.38	90.88	85.14	-37.9	-39.5	16.6	0.00e+00	0	59	0	1108344832	47	4307
2026-01-28 09:59:00.40	84.86	85.29	-38.0	-39.7	16.4	0.00e+00	0	59	0	1111490560	47	4420
2026-01-28 09:59:01.41	78.58	85.38	-38.1	-39.8	16.3	0.00e+00	0	59	0	1115684864	47	4488
2026-01-28 09:59:02.42	72.12	85.42	-37.9	-39.5	16.6	0.00e+00	0	59	0	1118830592	47	4324
2026-01-28 09:59:03.43	65.64	85.40	-37.7	-39.3	16.8	0.00e+00	0	59	0	1120927744	47	4227
2026-01-28 09:59:04.44	59.31	85.32	-37.8	-39.4	16.7	0.00e+00	0	59	0	1124073472	47	4277
2026-01-28 09:59:05.45	53.26	85.18	-38.0	-39.6	16.5	0.00e+00	0	59	0	1127219200	47	4381
2026-01-28 09:59:06.46	47.60	84.99	-37.6	-39.2	16.9	0.00e+00	0	59	0	1131413504	47	4157
2026-01-28 09:59:07.47	42.39	84.76	-37.8	-39.4	16.7	0.00e+00	0	59	0	1134559232	47	4265
2026-01-28 09:59:08.48	37.66	84.50	-37.8	-39.4	16.7	0.00e+00	0	59	0	1137704960	47	4264
2026-01-28 09:59:09.49	33.40	84.19	-37.7	-39.3	16.8	0.00e+00	0	59	0	1140850688	47	4242
2026-01-28 09:59:10.50	29.59	83.86	-37.8	-39.4	16.6	0.00e+00	0	59	0	1143996416	47	4283
2026-01-28 09:59:11.51	26.18	83.51	-38.0	-39.7	16.3	0.00e+00	0	59	0	1147142144	47	4430
2026-01-28 09:59:12.52	23.13	83.13	-38.1	-39.9	16.2	0.00e+00	0	59	0	1150287872	47	4498
2026-01-28 09:59:13.53	20.41	82.74	-38.4	-40.2	15.9	0.00e+00	0	59	0	1153433600	47	4656
2026-01-28 09:59:14.54	17.98	82.33	-37.9	-39.5	16.6	0.00e+00	0	59	0	1156579328	47	4304
2026-01-28 09:59:15.55	15.80	81.92	-37.7	-39.3	16.8	0.00e+00	0	59	0	1159725056	47	4212
2026-01-28 09:59:16.56	13.83	81.49	-37.8	-39.4	16.7	0.00e+00	0	59	0	1162870784	47	4280
2026-01-28 09:59:17.57	12.06	81.05	-37.7	-39.3	16.8	0.00e+00	0	59	0	1166016512	47	4211
2026-01-28 09:59:18.58	10.46	80.61	-37.6	-39.2	16.9	0.00e+00	0	59	0	1169162240	47	4154
2026-01-28 09:59:19.59	9.00	80.16	-37.5	-39.0	17.1	0.00e+00	0	59	0	1172307968	46	4333
2026-01-28 09:59:20.60	7.67	79.71	-37.5	-39.0	17.1	0.00e+00	0	59	0	1175453696	46	4339
2026-01-28 09:59:21.62	6.45	79.25	-37.6	-39.1	17.0	0.00e+00	0	59	0	1178599424	46	4383
2026-01-28 09:59:22.63	5.34	78.79	-37.8	-39.4	16.7	0.00e+00	0	59	0	1181745152	46	4514
2026-01-28 09:59:23.64	4.32	78.33	-38.0	-39.7	16.3	0.00e+00	0	59	0	1184890880	46	4683
2026-01-28 09:59:24.65	3.38	77.87	-38.1	-39.8	16.4	0.00e+00	0	59	0	1188036608	47	4474
2026-01-28 09:59:25.66	2.51	77.40	-37.4	-38.9	17.3	0.00e+00	0	59	0	1191182336	46	4255
2026-01-28 09:59:26.67	1.71	76.93	-37.0	-38.5	17.6	0.00e+00	0	59	0	1194328064	46	4055
2026-01-28 09:59:27.68	0.96	76.47	-37.5	-39.0	17.1	0.00e+00	0	59	0	1197473792	46	4312
2026-01-28 09:59:28.69	0.26	76.00	-38.1	-39.8	16.4	0.00e+00	0	60	0	1200619520	46	4707
2026-01-28 09:59:29.70	359.62	75.53	-38.5	-40.3	15.9	0.00e+00	0	59	0	1203765248	47	4719
2026-01-28 09:59:30.71	359.01	75.06	-37.9	-39.6	16.5	0.00e+00	0	59	0	1206910976	47	4350
2026-01-28 09:59:31.72	358.44	74.59	-37.2	-38.6	17.4	0.00e+00	0	60	0	1210056704	46	4144
2026-01-28 09:59:32.73	357.91	74.12	-37.0	-38.4	17.6	0.00e+00	0	59	0	1213202432	46	4040
2026-01-28 09:59:33.74	357.41	73.66	-37.3	-38.9	17.3	0.00e+00	0	59	0	1216348160	45	4495
2026-01-28 09:59:34.75	356.94	73.19	-38.1	-39.8	16.4	0.00e+00	0	59	0	1219493888	46	4725
2026-01-28 09:59:35.76	356.49	72.72	-38.5	-40.3	15.8	0.00e+00	0	59	0	1222639616	47	4732
2026-01-28 09:59:36.78	356.07	72.25	-38.5	-40.2	15.9	0.00e+00	0	59	0	1225785344	47	4699
2026-01-28 09:59:37.79	355.67	71.79	-38.0	-39.7	16.5	0.00e+00	0	59	0	1228931072	47	4411
2026-01-28 09:59:38.80	355.29	71.33	-37.3	-38.8	17.4	0.00e+00	0	59	0	1232076800	46	4200
2026-01-28 09:59:39.81	354.94	70.87	-37.1	-38.5	17.6	0.00e+00	0	59	0	1235222528	46	4069
2026-01-28 09:59:40.82	354.60	70.41	-37.3	-38.7	17.3	0.00e+00	0	60	0	1238368256	46	4184
2026-01-28 09:59:41.83	354.28	69.95	-37.3	-38.8	17.3	0.00e+00	0	59	0	1241513984	46	4213
2026-01-28 09:59:42.84	353.97	69.49	-37.7	-39.2	17.0	0.00e+00	0	59	0	1244659712	46	4418
2026-01-28 09:59:43.85	353.68	69.04	-37.9	-39.6	16.5	0.00e+00	0	59	0	1247805440	46	4609
2026-01-28 09:59:44.86	353.40	68.58	-37.6	-39.1	16.8	0.00e+00	0	59	0	1250951168	46	4389
2026-01-28 09:59:45.87	353.13	68.13	-37.1	-38.6	17.4	0.00e+00	0	59	0	1254096896	46	4118
2026-01-28 09:59:46.88	352.88	67.68	-36.8	-38.3	17.8	0.00e+00	0	59	0	1257242624	45	4215
2026-01-28 09:59:47.89	352.64	67.23	-37.0	-38.4	17.6	0.00e+00	0	59	0	1260388352	45	4284
2026-01-28 09:59:48.90	352.40	66.79	-37.2	-38.7	17.3	0.00e+00	0	59	0	1263534080	45	4405
2026-01-28 09:59:49.91	352.18	66.34	-37.9	-39.5	16.7	0.00e+00	0	59	0	1266679808	46	4557
2026-01-28 09:59:50.92	351.97	65.90	-38.6	-40.4	15.8	0.00e+00	0	59	0	1269825536	47	4783
2026-01-28 09:59:51.93	351.76	65.46	-38.0	-39.7	16.5	0.00e+00	0	59	0	1272971264	47	4412
2026-01-28 09:59:52.94	351.56	65.03	-37.1	-38.6	17.5	0.00e+00	0	59	0	1276116992	46	4100
2026-01-28 09:59:53.95	351.37	64.59	-36.7	-38.1	17.7	0.00e+00	0	59	0	1279262720	45	4130
2026-01-28 09:59:54.96	351.19	64.16	-37.0	-38.4	17.6	0.00e+00	0	59	0	1282408448	45	4264
2026-01-28 09:59:55.98	351.02	63.72	-37.3	-38.8	17.3	0.00e+00	0	59	0	1285554176	45	4461
2026-01-28 09:59:56.99	350.85	63.30	-37.9	-39.6	16.6	0.00e+00	0	59	0	1288699904	46	4609
2026-01-28 09:59:58.00	350.68	62.87	-39.0	-41.0	15.4	0.00e+00	0	59	0	1291845632	48	4819
2026-01-28 09:59:59.01	350.53	62.45	-39.2	-41.2	15.1	0.00e+00	0	59	0	1294991360	49	4682
2026-01-28 10:00:00.02	350.38	62.03	-39.0	-40.8	15.4	0.00e+00	0	59	0	1298137088	49	4483
2026-01-28 10:00:01.03	350.23	61.61	-38.5	-40.2	15.9	0.00e+00	0	59	0	1301282816	49	4193
2026-01-28 10:00:02.04	350.09	61.19	-38.4	-40.0	16.1	0.00e+00	0	59	0	1304428544	48	4339
2026-01-28 10:00:03.05	349.95	60.78	-38.2	-39.8	16.5	0.00e+00	0	59	0	1307574272	48	4222
2026-01-28 10:00:04.06	349.82	60.37	-38.1	-39.8	16.5	0.00e+00	0	59	0	1310720000	48	4198
2026-01-28 10:00:05.07	349.69	59.96	-38.1	-39.8	16.4	0.00e+00	0	59	0	1313865728	47	4448
2026-01-28 10:00:06.08	349.57	59.56	-38.9	-40.8	15.6	0.00e+00	0	59	0	1317011456	48	4716
2026-01-28 10:00:07.09	349.45	59.15	-39.7	-41.8	14.5	2.20e-06	0	59	0	1320157184	49	5029
2026-01-28 10:00:08.10	349.33	58.75	-40.1	-42.4	14.0	0.00e+00	0	59	0	1323302912	50	5064
2026-01-28 10:00:09.11	349.22	58.35	-39.8	-42.0	14.3	7.00e-07	0	59	0	1326448640	50	4828
2026-01-28 10:00:10.12	349.11	57.96	-39.2	-41.1	15.0	0.00e+00	0	59	0	1329594368	50	4371
2026-01-28 10:00:11.13	349.00	57.56	-39.1	-40.9	15.3	0.00e+00	0	59	0	1332740096	50	4268
2026-01-28 10:00:12.14	348.90	57.17	-38.8	-40.6	15.7	0.00e+00	0	59	0	1335885824	49	4347
2026-01-28 10:00:13.15	348.80	56.79	-39.0	-40.8	15.5	0.00e+00	0	59	0	1339031552	49	4478
2026-01-28 10:00:14.16	348.70	56.40	-39.7	-41.7	14.6	0.00e+00	0	59	0	1342177280	49	4972
2026-01-28 10:00:15.17	348.61	56.02	-40.4	-42.7	13.6	7.60e-06	0	59	0	1345323008	51	4958
2026-01-28 10:00:16.18	348.52	55.64	-40.5	-42.9	13.4	1.37e-05	0	59	0	1348468736	51	5082
2026-01-28 10:00:17.19	348.43	55.26	-40.7	-43.2	13.0	1.44e-05	0	59	0	1351614464	51	5279
2026-01-28 10:00:18.20	348.34	54.89	-40.5	-43.0	13.2	2.28e-05	0	59	0	1354760192	52	4839
2026-01-28 10:00:19.21	348.26	54.51	-40.5	-43.0	13.1	3.05e-05	0	59	0	1357905920	52	4817
2026-01-28 10:00:20.22	348.18	54.14	-40.5	-43.0	13.0	4.50e-05	0	59	0	1361051648	52	4815
2026-01-28 10:00:21.23	348.10	53.78	-40.1	-42.4	13.6	8.30e-06	0	59	0	1364197376	52	4540
2026-01-28 10:00:22.24	348.02	53.41	-39.3	-41.2	15.0	0.00e+00	0	59	0	1367343104	50	4433
2026-01-28 10:00:23.25	347.94	53.05	-38.7	-40.4	15.8	7.00e-07	0	59	0	1370488832	49	4286
2026-01-28 10:00:24.26	347.87	52.69	-38.9	-40.7	15.6	0.00e+00	0	60	0	1373634560	49	4405
2026-01-28 10:00:25.27	347.80	52.33	-39.4	-41.4	14.9	0.00e+00	0	59	0	1376780288	49	4795
2026-01-28 10:00:26.28	347.73	51.98	-40.0	-42.2	14.0	7.00e-07	0	59	0	1379926016	50	4972
2026-01-28 10:00:27.29	347.66	51.63	-40.3	-42.6	13.7	6.80e-06	0	59	0	1383071744	51	4875
2026-01-28 10:00:28.30	347.59	51.28	-40.4	-42.7	13.6	5.30e-06	0	59	0	1386217472	51	4970
2026-01-28 10:00:29.31	347.53	50.93	-40.5	-42.9	13.5	1.14e-05	0	59	0	1390411776	51	5050
2026-01-28 10:00:30.32	347.47	50.59	-40.7	-43.3	12.9	2.28e-05	0	59	0	1392508928	52	5031
2026-01-28 10:00:31.34	347.40	50.24	-40.8	-43.4	12.9	4.04e-05	0	59	0	1395654656	52	5062
2026-01-28 10:00:32.34	347.34	49.91	-40.7	-43.3	12.8	5.56e-05	0	59	0	1398800384	52	5033
2026-01-28 10:00:33.35	347.28	49.57	-40.7	-43.3	12.8	6.48e-05	0	59	0	1401946112	52	5025
2026-01-28 10:00:34.36	347.23	49.24	-40.5	-43.0	13.0	3.89e-05	0	59	0	1406140416	52	4863
2026-01-28 10:00:35.37	347.17	48.90	-40.4	-42.9	13.3	2.44e-05	0	59	0	1409286144	52	4776
2026-01-28 10:00:36.38	347.11	48.57	-40.5	-42.9	13.3	3.20e-05	0	59	0	1412431872	52	4804
2026-01-28 10:00:37.39	347.06	48.25	-40.6	-43.1	13.1	2.51e-05	0	59	0	1414529024	52	4890
2026-01-28 10:00:38.40	347.01	47.92	-40.7	-43.4	12.8	3.66e-05	0	59	0	1417674752	52	5047
2026-01-28 10:00:39.41	346.96	47.60	-41.1	-44.0	12.1	1.84e-04	0	59	0	1421869056	52	5462
2026-01-28 10:00:40.42	346.91	47.28	-41.2	-44.1	12.1	3.01e-04	0	59	0	1425014784	52	5503
2026-01-28 10:00:41.43	346.86	46.96	-41.1	-44.0	12.2	2.43e-04	0	59	0	1428160512	52	5419
2026-01-28 10:00:42.44	346.81	46.65	-41.1	-44.0	12.2	2.33e-04	0	59	0	1431306240	52	5418
2026-01-28 10:00:43.45	346.76	46.34	-41.0	-43.7	12.4	2.35e-04	0	59	0	1434451968	52	5275
2026-01-28 10:00:44.46	346.71	46.03	-40.8	-43.5	12.7	9.00e-05	0	59	0	1437597696	52	5111
2026-01-28 10:00:45.47	346.67	45.72	-40.8	-43.5	12.7	7.24e-05	0	59	0	1440743424	52	5104
2026-01-28 10:00:46.48	346.62	45.41	-41.1	-43.9	12.2	1.73e-04	0	59	0	1443889152	52	5370
2026-01-28 10:00:47.49	346.58	45.11	-41.1	-43.9	12.2	2.14e-04	0	59	0	1447034880	52	5387
2026-01-28 10:00:48.50	346.54	44.81	-41.0	-43.9	12.2	2.36e-04	0	59	0	1450180608	52	5343
2026-01-28 10:00:49.51	346.50	44.51	-41.0	-43.7	12.3	1.57e-04	0	59	0	1453326336	52	5279
2026-01-28 10:00:50.52	346.46	44.21	-40.9	-43.6	12.4	1.33e-04	0	59	0	1456472064	52	5180
2026-01-28 10:00:51.53	346.42	43.92	-40.7	-43.3	12.8	9.99e-05	0	59	0	1459617792	52	4996
2026-01-28 10:00:52.54	346.38	43.63	-40.6	-43.1	13.0	4.80e-05	0	59	0	1462763520	52	4903
2026-01-28 10:00:53.55	346.34	43.34	-40.5	-43.1	13.0	2.59e-05	0	59	0	1465909248	52	4887
2026-01-28 10:00:54.56	346.30	43.05	-40.6	-43.2	13.0	4.73e-05	0	59	0	1469054976	52	4931
2026-01-28 10:00:55.57	346.26	42.76	-40.8	-43.4	12.8	5.87e-05	0	59	0	1472200704	52	5064
2026-01-28 10:00:56.58	346.23	42.48	-40.9	-43.6	12.5	7.70e-05	0	59	0	1475346432	52	5187
2026-01-28 10:00:57.59	346.19	42.20	-41.0	-43.8	12.3	1.67e-04	0	59	0	1478492160	52	5284
2026-01-28 10:00:58.60	346.16	41.92	-40.9	-43.6	12.4	1.37e-04	0	59	0	1481637888	52	5215
2026-01-28 10:00:59.61	346.12	41.64	-40.9	-43.7	12.4	1.34e-04	0	59	0	1484783616	52	5244
2026-01-28 10:01:00.62	346.09	41.37	-40.9	-43.7	12.5	1.28e-04	0	59	0	1487929344	52	5243
2026-01-28 10:01:01.63	346.06	41.10	-41.0	-43.8	12.4	1.36e-04	0	59	0	1491075072	52	5290
2026-01-28 10:01:02.64	346.02	40.82	-40.8	-43.4	12.7	8.46e-05	0	59	0	1494220800	52	5100
2026-01-28 10:01:03.65	345.99	40.56	-40.6	-43.1	13.1	3.73e-05	0	59	0	1497366528	52	4904
2026-01-28 10:01:04.66	345.96	40.29	-40.5	-43.0	13.3	1.75e-05	0	59	0	1500512256	52	4822
2026-01-28 10:01:05.67	345.93	40.02	-40.6	-43.1	13.1	2.44e-05	0	59	0	1503657984	52	4890
2026-01-28 10:01:06.68	345.90	39.76	-40.7	-43.3	12.9	5.26e-05	0	59	0	1506803712	52	4996
2026-01-28 10:01:07.69	345.87	39.50	-40.8	-43.5	12.7	6.63e-05	0	59	0	1509949440	52	5130
2026-01-28 10:01:08.70	345.84	39.24	-41.0	-43.8	12.4	1.46e-04	0	59	0	1513095168	52	5302
2026-01-28 10:01:09.71	345.81	38.98	-41.0	-43.8	12.4	1.55e-04	0	59	0	1516240896	52	5295
2026-01-28 10:01:10.72	345.79	38.73	-40.7	-43.3	12.8	7.78e-05	0	59	0	1519386624	52	5036
2026-01-28 10:01:11.73	345.76	38.48	-40.6	-43.1	13.0	4.95e-05	0	59	0	1522532352	52	4906
2026-01-28 10:01:12.75	345.73	38.22	-40.4	-42.8	13.3	2.21e-05	0	59	0	1525678080	52	4756
2026-01-28 10:01:13.75	345.71	37.97	-40.2	-42.5	13.6	6.10e-06	0	59	0	1528823808	52	4575
2026-01-28 10:01:14.76	345.68	37.73	-40.0	-42.2	14.1	5.30e-06	0	59	0	1531969536	51	4671
2026-01-28 10:01:15.77	345.65	37.48	-39.9	-42.0	14.2	7.00e-07	0	59	0	1535115264	51	4597
2026-01-28 10:01:16.79	345.63	37.23	-39.5	-41.5	14.7	0.00e+00	0	59	0	1538260992	51	4330
2026-01-28 10:01:17.79	345.60	36.99	-39.4	-41.4	14.8	0.00e+00	0	59	0	1541406720	50	4518
2026-01-28 10:01:18.81	345.58	36.75	-39.6	-41.7	14.5	0.00e+00	0	59	0	1544552448	50	4671
2026-01-28 10:01:19.81	345.56	36.52	-39.8	-42.0	14.2	7.00e-07	0	59	0	1547698176	50	4854
2026-01-28 10:01:20.82	345.53	36.28	-40.2	-42.5	13.7	3.80e-06	0	59	0	1550843904	50	5130
2026-01-28 10:01:21.83	345.51	36.04	-40.5	-42.9	13.3	1.37e-05	0	59	0	1553989632	51	5083
2026-01-28 10:01:22.84	345.49	35.81	-40.5	-43.0	13.2	1.90e-05	0	59	0	1557135360	51	5132
2026-01-28 10:01:23.86	345.46	35.58	-40.6	-43.1	13.1	2.89e-05	0	59	0	1560281088	51	5179
2026-01-28 10:01:24.87	345.44	35.35	-40.5	-43.0	13.2	3.28e-05	0	59	0	1563426816	51	5113
2026-01-28 10:01:25.88	345.42	35.12	-40.3	-42.7	13.5	1.52e-05	0	59	0	1566572544	51	4955
2026-01-28 10:01:26.89	345.40	34.89	-40.2	-42.5	13.7	3.80e-06	0	59	0	1569718272	51	4838
2026-01-28 10:01:27.90	345.38	34.66	-40.1	-42.3	13.9	3.80e-06	0	59	0	1572864000	51	4742
2026-01-28 10:01:28.91	345.36	34.44	-40.0	-42.2	14.0	2.20e-06	0	59	0	1576009728	51	4683
2026-01-28 10:01:29.92	345.34	34.22	-39.8	-41.9	14.2	1.50e-06	0	59	0	1579155456	51	4535
2026-01-28 10:01:30.93	345.32	34.00	-39.6	-41.7	14.4	0.00e+00	0	59	0	1582301184	51	4435
2026-01-28 10:01:31.94	345.30	33.78	-39.5	-41.5	14.6	0.00e+00	0	59	0	1585446912	50	4569
2026-01-28 10:01:32.95	345.28	33.56	-39.4	-41.3	14.8	7.00e-07	0	59	0	1588592640	50	4491
2026-01-28 10:01:33.96	345.26	33.35	-39.3	-41.3	14.8	0.00e+00	0	59	0	1591738368	50	4478
2026-01-28 10:01:34.97	345.24	33.13	-39.2	-41.2	15.0	0.00e+00	0	59	0	1594884096	50	4407
2026-01-28 10:01:35.98	345.22	32.92	-39.2	-41.1	15.0	0.00e+00	0	59	0	1598029824	50	4376
2026-01-28 10:01:36.99	345.20	32.71	-39.1	-41.1	15.1	0.00e+00	0	59	0	1601175552	50	4346
2026-01-28 10:01:38.00	345.19	32.50	-39.1	-41.1	15.1	0.00e+00	0	59	0	1604321280	50	4347
2026-01-28 10:01:39.01	345.17	32.29	-39.2	-41.2	15.0	0.00e+00	0	59	0	1607467008	50	4413
2026-01-28 10:01:40.02	345.15	32.08	-39.1	-41.1	15.0	0.00e+00	0	59	0	1610612736	50	4355
2026-01-28 10:01:41.03	345.13	31.88	-39.1	-41.1	15.1	0.00e+00	0	59	0	1613758464	50	4352
2026-01-28 10:01:42.04	345.12	31.67	-39.2	-41.2	14.9	0.00e+00	0	59	0	1616904192	50	4431
2026-01-28 10:01:43.05	345.10	31.47	-39.2	-41.2	14.9	0.00e+00	0	59	0	1620049920	50	4414
2026-01-28 10:01:44.06	345.08	31.27	-39.2	-41.2	15.0	7.00e-07	0	59	0	1623195648	50	4392
2026-01-28 10:01:45.07	345.07	31.07	-39.1	-41.1	15.0	7.00e-07	0	60	0	1626341376	50	4368
2026-01-28 10:01:46.08	345.05	30.87	-39.2	-41.2	14.9	0.00e+00	0	59	0	1629487104	50	4404
2026-01-28 10:01:47.09	345.04	30.67	-39.2	-41.2	14.9	0.00e+00	0	60	0	1632632832	50	4424
2026-01-28 10:01:48.10	345.02	30.48	-39.1	-41.1	15.0	0.00e+00	0	60	0	1635778560	50	4359
2026-01-28 10:01:49.11	345.01	30.28	-39.1	-41.1	15.0	0.00e+00	0	59	0	1638924288	50	4376
2026-01-28 10:01:50.12	344.99	30.09	-39.2	-41.1	14.9	0.00e+00	0	60	0	1642070016	50	4379
2026-01-28 10:01:51.13	344.98	29.90	-39.2	-41.3	14.8	0.00e+00	0	59	0	1645215744	50	4451
2026-01-28 10:01:52.13	344.96	29.71	-39.2	-41.3	14.8	7.00e-07	0	59	0	1648361472	50	4465
2026-01-28 10:01:53.15	344.95	29.52	-39.4	-41.6	14.4	0.00e+00	0	59	0	1651507200	50	4606
2026-01-28 10:01:54.16	344.93	29.33	-39.5	-41.6	14.4	3.00e-06	0	59	0	1654652928	50	4624
2026-01-28 10:01:55.17	344.92	29.14	-39.5	-41.6	14.3	0.00e+00	0	59	0	1657798656	50	4651
2026-01-28 10:01:56.18	344.91	28.96	-39.5	-41.6	14.4	7.00e-07	0	60	0	1660944384	50	4640
2026-01-28 10:01:57.19	344.89	28.77	-39.4	-41.6	14.4	0.00e+00	0	59	0	1664090112	50	4607
2026-01-28 10:01:58.20	344.88	28.59	-39.3	-41.5	14.5	7.00e-07	0	59	0	1667235840	50	4551
2026-01-28 10:01:59.21	344.87	28.41	-39.3	-41.4	14.5	0.00e+00	0	59	0	1670381568	50	4534
2026-01-28 10:02:00.22	344.85	28.23	-39.3	-41.3	14.6	0.00e+00	0	59	0	1673527296	50	4491
2026-01-28 10:02:01.23	344.84	28.05	-39.2	-41.3	14.6	0.00e+00	0	59	0	1676673024	50	4472
2026-01-28 10:02:02.24	344.83	27.87	-39.3	-41.5	14.4	7.00e-07	0	60	0	1679818752	50	4557
2026-01-28 10:02:03.25	344.82	27.69	-39.2	-41.4	14.6	0.00e+00	0	59	0	1682964480	50	4507
2026-01-28 10:02:04.26	344.81	27.52	-39.1	-41.2	14.7	0.00e+00	0	60	0	1686110208	50	4438
2026-01-28 10:02:05.27	344.79	27.34	-39.1	-41.2	14.7	0.00e+00	0	60	0	1689255936	50	4402
2026-01-28 10:02:06.28	344.78	27.17	-39.0	-41.1	14.8	0.00e+00	0	60	0	1692401664	50	4374
2026-01-28 10:02:07.30	344.77	26.99	-39.0	-41.0	14.9	0.00e+00	0	59	0	1695547392	49	4589
2026-01-28 10:02:08.31	344.76	26.82	-39.0	-41.0	14.8	0.00e+00	0	59	0	1699741696	49	4594
2026-01-28 10:02:09.32	344.75	26.65	-38.9	-40.9	15.0	0.00e+00	0	59	0	1702887424	49	4526
2026-01-28 10:02:10.33	344.74	26.48	-38.9	-40.9	15.0	0.00e+00	0	60	0	1704984576	49	4526
2026-01-28 10:02:11.34	344.73	26.31	-38.9	-40.9	15.0	0.00e+00	0	59	0	1708130304	49	4494
2026-01-28 10:02:12.35	344.71	26.14	-38.6	-40.5	15.3	0.00e+00	0	60	0	1711276032	49	4331
2026-01-28 10:02:13.36	344.70	25.98	-38.5	-40.4	15.5	0.00e+00	0	59	0	1715470336	48	4502
2026-01-28 10:02:14.37	344.69	25.81	-38.3	-40.2	15.7	0.00e+00	0	59	0	1718616064	48	4411
2026-01-28 10:02:15.38	344.68	25.65	-38.4	-40.2	15.6	0.00e+00	0	59	0	1721761792	48	4419
2026-01-28 10:02:16.39	344.67	25.48	-38.3	-40.1	15.7	0.00e+00	0	60	0	1724907520	48	4373
2026-01-28 10:02:17.40	344.66	25.32	-38.0	-39.8	16.0	0.00e+00	0	59	0	1728053248	48	4223
2026-01-28 10:02:18.41	344.65	25.16	-38.0	-39.8	16.0	0.00e+00	0	60	0	1731198976	48	4204
2026-01-28 10:02:19.42	344.64	25.00	-38.0	-39.9	15.9	0.00e+00	0	59	0	1734344704	48	4250
2026-01-28 10:02:20.43	344.63	24.84	-37.8	-39.7	16.0	0.00e+00	0	60	0	1737490432	47	4393
2026-01-28 10:02:21.44	344.62	24.68	-37.8	-39.6	16.1	0.00e+00	0	59	0	1740636160	47	4378
2026-01-28 10:02:22.45	344.62	24.52	-37.9	-39.7	16.0	0.00e+00	0	60	0	1743781888	47	4395
2026-01-28 10:02:23.46	344.61	24.37	-37.9	-39.7	16.0	0.00e+00	0	60	0	1746927616	47	4403
2026-01-28 10:02:24.47	344.60	24.21	-38.0	-39.8	15.8	0.00e+00	0	59	0	1750073344	47	4468
2026-01-28 10:02:25.48	344.59	24.06	-38.0	-39.9	15.8	0.00e+00	0	60	0	1753219072	47	4498
2026-01-28 10:02:26.49	344.58	23.90	-38.1	-40.0	15.6	0.00e+00	0	59	0	1756364800	47	4560
2026-01-28 10:02:27.50	344.57	23.75	-38.1	-40.0	15.6	0.00e+00	0	60	0	1759510528	47	4563
2026-01-28 10:02:28.51	344.56	23.60	-38.3	-40.2	15.4	0.00e+00	0	59	0	1762656256	47	4660
2026-01-28 10:02:29.52	344.55	23.45	-38.5	-40.5	15.0	0.00e+00	0	59	0	1765801984	47	4842
2026-01-28 10:02:30.53	344.55	23.30	-38.3	-40.3	15.0	0.00e+00	0	59	0	1768947712	47	4743
2026-01-28 10:02:31.54	344.54	23.15	-38.2	-40.2	14.9	0.00e+00	0	59	0	1772093440	47	4683
2026-01-28 10:02:32.55	344.53	23.00	-38.5	-40.6	14.4	7.00e-07	0	59	0	1775239168	47	4913
2026-01-28 10:02:33.56	344.52	22.85	-38.8	-41.0	13.9	2.20e-06	0	59	0	1778384896	48	4867
2026-01-28 10:02:34.57	344.51	22.71	-38.5	-40.6	14.3	7.00e-07	0	59	0	1781530624	48	4624
2026-01-28 10:02:35.58	344.51	22.56	-38.1	-40.1	14.7	0.00e+00	0	59	0	1784676352	48	4365
2026-01-28 10:02:36.59	344.50	22.41	-38.1	-40.2	14.6	0.00e+00	0	60	0	1787822080	48	4410
2026-01-28 10:02:37.60	344.49	22.27	-38.2	-40.3	14.4	7.00e-07	0	59	0	1790967808	48	4457
2026-01-28 10:02:38.61	344.48	22.13	-38.1	-40.2	14.3	7.00e-07	0	59	0	1794113536	48	4396
2026-01-28 10:02:39.62	344.48	21.98	-37.9	-40.0	14.2	7.00e-07	0	59	0	1797259264	47	4596
2026-01-28 10:02:40.63	344.47	21.84	-37.9	-40.1	14.0	3.00e-06	0	60	0	1800404992	47	4613
2026-01-28 10:02:41.64	344.46	21.70	-38.0	-40.4	13.6	2.20e-06	0	59	0	1803550720	47	4776
2026-01-28 10:02:42.65	344.45	21.56	-38.5	-41.1	12.6	4.65e-05	0	59	0	1806696448	47	5200
2026-01-28 10:02:43.65	344.45	21.42	-39.2	-42.3	11.2	6.45e-04	0	60	0	1809842176	48	5652
2026-01-28 10:02:44.66	344.44	21.28	-39.8	-43.6	9.7	6.97e-03	0	60	0	1812987904	50	5832
2026-01-28 10:02:45.67	344.43	21.15	-40.2	-45.0	8.0	5.62e-02	0	59	0	1816133632	51	6429
2026-01-28 10:02:46.68	344.43	21.01	-40.6	-46.6	6.3	1.72e-01	0	59	0	1819279360	51	7732
2026-01-28 10:02:47.69	344.42	20.87	-40.8	-48.0	5.1	4.81e-01	0	60	0	1822425088	52	8595
2026-01-28 10:02:48.70	344.41	20.74	-40.9	-49.4	4.4	1.41e+00	0	60	104	1823473664	52	10072
2026-01-28 10:02:49.71	344.41	20.60	-40.9	-50.6	4.0	1.47e+00	0	60	104	1823473664	52	11644
2026-01-28 10:02:50.72	344.40	20.47	-40.9	-52.5	3.8	1.49e+00	0	59	104	1823473664	52	14377
2026-01-28 10:02:51.73	344.40	20.33	-41.0	-52.7	3.8	1.49e+00	0	59	104	1823473664	52	14839
2026-01-28 10:02:52.74	344.39	20.20	-40.9	-52.5	3.8	1.49e+00	0	60	104	1823473664	52	14521
2026-01-28 10:02:53.75	344.38	20.07	-40.7	-52.8	3.8	1.49e+00	0	60	104	1823473664	52	14942
2026-01-28 10:02:54.76	344.38	19.94	-41.1	-52.4	3.8	1.49e+00	0	60	104	1823473664	52	14328
2026-01-28 10:02:55.77	344.37	19.81	-40.9	-52.9	3.8	1.49e+00	0	60	104	1823473664	53	14308
2026-01-28 10:02:56.78	344.37	19.68	-40.8	-52.9	3.8	1.49e+00	0	60	104	1823473664	53	14236
2026-01-28 10:02:57.80	344.36	19.54	-40.6	-52.7	3.8	1.49e+00	0	60	104	1823473664	53	13974
2026-01-28 10:02:58.81	344.35	19.42	-40.9	-52.8	3.8	1.49e+00	0	60	104	1823473664	53	14181
2026-01-28 10:02:59.81	344.35	19.29	-40.8	-52.9	3.8	1.49e+00	0	60	104	1823473664	53	14238
2026-01-28 10:03:00.82	344.34	19.16	-40.7	-52.8	3.8	1.49e+00	0	60	104	1823473664	53	14153
2026-01-28 10:03:01.83	344.34	19.03	-40.7	-52.8	3.8	1.49e+00	0	60	104	1823473664	53	14208
2026-01-28 10:03:02.84	344.33	18.91	-40.8	-52.9	3.8	1.49e+00	0	60	104	1823473664	53	14260
2026-01-28 10:03:03.85	344.33	18.78	-40.6	-52.8	3.8	1.49e+00	0	60	104	1823473664	53	14064
2026-01-28 10:03:04.86	344.32	18.66	-40.6	-52.8	3.8	1.49e+00	0	60	104	1823473664	53	14099
2026-01-28 10:03:05.87	344.32	18.53	-40.9	-53.1	3.8	1.49e+00	0	60	104	1823473664	53	14648
2026-01-28 10:03:06.88	344.31	18.41	-40.6	-52.7	3.8	1.49e+00	0	60	104	1823473664	53	14016
2026-01-28 10:03:07.89	344.31	18.29	-40.6	-52.7	3.8	1.49e+00	0	60	104	1823473664	53	14013
2026-01-28 10:03:08.90	344.30	18.17	-40.8	-53.0	3.8	1.49e+00	0	60	104	1823473664	53	14376
2026-01-28 10:03:09.91	344.30	18.04	-40.9	-53.1	3.8	1.49e+00	0	60	104	1823473664	53	14647
2026-01-28 10:03:10.92	344.29	17.92	-40.5	-52.7	3.8	1.49e+00	0	60	104	1823473664	53	13972
2026-01-28 10:03:11.93	344.29	17.80	-40.6	-52.8	3.8	1.49e+00	0	60	104	1823473664	53	14168
2026-01-28 10:03:12.94	344.28	17.68	-40.9	-53.2	3.8	1.49e+00	0	60	104	1823473664	53	14744
2026-01-28 10:03:13.95	344.28	17.56	-40.8	-53.0	3.8	1.49e+00	0	60	104	1823473664	53	14418
2026-01-28 10:03:14.96	344.28	17.44	-40.6	-52.8	3.8	1.49e+00	0	60	104	1823473664	53	14068
2026-01-28 10:03:15.97	344.27	17.33	-40.7	-52.9	3.8	1.49e+00	0	60	104	1823473664	53	14255
2026-01-28 10:03:16.98	344.27	17.21	-41.0	-53.2	3.8	1.49e+00	0	60	104	1823473664	53	14811
2026-01-28 10:03:17.99	344.26	17.09	-40.7	-52.9	3.8	1.49e+00	0	60	104	1823473664	53	14371
2026-01-28 10:03:19.00	344.26	16.97	-40.7	-52.9	3.8	1.49e+00	0	60	104	1823473664	53	14353
2026-01-28 10:03:20.01	344.25	16.86	-40.7	-52.9	3.8	1.49e+00	0	60	104	1823473664	53	14215
2026-01-28 10:03:21.02	344.25	16.74	-40.8	-53.1	3.8	1.49e+00	0	60	104	1823473664	53	14645
2026-01-28 10:03:22.03	344.25	16.63	-40.9	-53.1	3.8	1.49e+00	0	60	104	1823473664	53	14657
2026-01-28 10:03:23.04	344.24	16.51	-40.9	-53.1	3.8	1.49e+00	0	60	104	1823473664	53	14660
2026-01-28 10:03:24.04	344.24	16.40	-40.6	-52.8	3.8	1.49e+00	0	60	104	1823473664	53	14209
