passes_logs/2026/01/28/R2.0S_Moscow/R2.0S_Moscow__20260128_181207_FENGYUN_3G_rec.log

#Pass ID: 20260128_181207_FENGYUN 3G
#Satellite: FENGYUN 3G
#Configuration: FENGYUN 3G
#almurnet v.1.7.20251203
#Start time: 2026-01-28 18:12:09

#Version: 2.2.20231116
#Station: R2.0S_Moscow
#Location: 37.707566 lon 55.798166 lat
#TLE: 1 56232U 23055A   26027.33093889  .00044881  00000+0  67100-3 0  9994
#TLE: 2 56232  49.9947 352.2708 0004101  93.7831 266.3606 15.54500775158110

#Time	Az	El	Level	Level2	SNR	BER	BlckErr	Temp	State	Recorded	gain1	gain2
2026-01-28 18:12:09.29	255.04	2.10	-44.1	-62.5	3.8	8.45e-01	0	49	0	0	60	28965
2026-01-28 18:12:10.29	254.98	2.17	-44.0	-62.5	3.8	8.45e-01	0	49	104	0	60	28901
2026-01-28 18:12:11.31	254.92	2.23	-44.0	-62.5	3.8	8.47e-01	0	49	104	0	60	28869
2026-01-28 18:12:12.32	254.85	2.30	-44.0	-62.5	3.8	8.46e-01	0	49	104	0	60	28903
2026-01-28 18:12:13.33	254.79	2.37	-44.1	-62.5	3.8	8.46e-01	0	50	104	0	60	28860
2026-01-28 18:12:14.34	254.72	2.44	-44.0	-62.5	3.8	8.46e-01	0	50	104	0	60	28915
2026-01-28 18:12:15.35	254.66	2.50	-44.0	-62.5	3.8	8.46e-01	0	50	104	0	60	28898
2026-01-28 18:12:16.36	254.59	2.57	-44.1	-62.5	3.8	8.46e-01	0	50	104	0	60	28865
2026-01-28 18:12:17.37	254.52	2.64	-44.0	-62.5	3.8	8.45e-01	0	50	104	0	60	28844
2026-01-28 18:12:18.38	254.46	2.71	-44.0	-62.5	3.8	8.47e-01	0	50	104	0	60	28868
2026-01-28 18:12:19.39	254.39	2.77	-44.0	-62.5	3.8	8.47e-01	0	50	104	0	60	28828
2026-01-28 18:12:20.40	254.32	2.84	-44.0	-62.5	3.8	8.47e-01	0	50	104	0	60	28801
2026-01-28 18:12:21.41	254.25	2.91	-44.0	-62.5	3.8	8.45e-01	0	50	104	0	60	28924
2026-01-28 18:12:22.42	254.18	2.98	-44.0	-62.5	3.8	8.45e-01	0	50	104	0	60	28841
2026-01-28 18:12:23.43	254.11	3.05	-44.0	-62.5	3.8	8.46e-01	0	51	104	0	60	28895
2026-01-28 18:12:24.44	254.04	3.12	-44.0	-62.5	3.8	8.45e-01	0	50	104	0	60	28890
2026-01-28 18:12:25.45	253.97	3.19	-44.0	-62.5	3.8	8.47e-01	0	51	104	0	60	28863
2026-01-28 18:12:26.46	253.90	3.26	-44.0	-62.5	3.8	8.47e-01	0	51	104	0	60	28864
2026-01-28 18:12:27.47	253.83	3.33	-44.0	-62.5	3.8	8.46e-01	0	50	104	0	60	28921
2026-01-28 18:12:28.48	253.76	3.40	-44.0	-62.5	3.8	8.46e-01	0	51	104	0	60	28896
2026-01-28 18:12:29.49	253.69	3.47	-44.0	-62.5	3.8	8.46e-01	0	51	104	0	60	28892
2026-01-28 18:12:30.50	253.61	3.54	-44.0	-62.5	3.8	8.46e-01	0	51	104	0	60	28919
2026-01-28 18:12:31.51	253.54	3.61	-44.0	-62.5	3.8	8.46e-01	0	51	104	0	60	28861
2026-01-28 18:12:32.52	253.47	3.68	-44.0	-62.5	3.8	8.46e-01	0	51	104	0	60	28929
2026-01-28 18:12:33.53	253.39	3.76	-44.0	-62.5	3.8	8.47e-01	0	51	104	0	60	28970
2026-01-28 18:12:34.54	253.32	3.83	-44.0	-62.5	3.8	8.46e-01	0	51	104	0	60	28882
2026-01-28 18:12:35.55	253.24	3.90	-44.0	-62.5	3.8	8.47e-01	0	51	104	0	60	28790
2026-01-28 18:12:36.56	253.17	3.97	-44.0	-62.5	3.8	8.47e-01	0	51	104	0	60	28827
2026-01-28 18:12:37.57	253.09	4.05	-44.0	-62.5	3.8	8.46e-01	0	51	104	0	60	28942
2026-01-28 18:12:38.58	253.01	4.12	-44.0	-62.5	3.8	8.45e-01	0	51	104	0	60	28873
2026-01-28 18:12:39.59	252.93	4.19	-44.0	-62.5	3.8	8.45e-01	0	51	104	0	60	28839
2026-01-28 18:12:40.60	252.85	4.26	-44.0	-62.5	3.8	8.46e-01	0	51	104	0	60	28792
2026-01-28 18:12:41.61	252.78	4.34	-44.0	-62.5	3.8	8.46e-01	0	52	104	0	60	28851
2026-01-28 18:12:42.63	252.70	4.41	-44.1	-62.5	3.8	8.46e-01	0	52	104	0	60	28812
2026-01-28 18:12:43.64	252.61	4.49	-44.0	-62.5	3.8	8.46e-01	0	51	104	0	60	28857
2026-01-28 18:12:44.64	252.53	4.56	-44.0	-62.5	3.8	8.46e-01	0	52	104	0	60	28870
2026-01-28 18:12:45.66	252.45	4.64	-44.0	-62.5	3.8	8.46e-01	0	52	104	0	60	28861
2026-01-28 18:12:46.67	252.37	4.71	-44.0	-62.5	3.8	8.45e-01	0	52	104	0	60	28869
2026-01-28 18:12:47.68	252.29	4.79	-44.0	-62.5	3.8	8.45e-01	0	52	104	0	60	28860
2026-01-28 18:12:48.69	252.20	4.86	-44.0	-62.5	3.8	8.46e-01	0	52	104	0	60	28806
2026-01-28 18:12:49.70	252.12	4.94	-44.0	-62.5	3.8	8.46e-01	0	52	104	0	60	28827
2026-01-28 18:12:50.71	252.04	5.02	-44.1	-62.5	3.8	8.45e-01	0	52	104	0	60	28880
2026-01-28 18:12:51.72	251.95	5.09	-44.1	-62.5	3.8	8.46e-01	0	52	104	0	60	28861
2026-01-28 18:12:52.73	251.86	5.17	-44.0	-62.5	3.8	8.46e-01	0	52	104	0	60	28896
2026-01-28 18:12:53.74	251.78	5.25	-44.0	-62.5	3.8	8.46e-01	0	52	104	0	60	28849
2026-01-28 18:12:54.75	251.69	5.32	-44.0	-62.5	3.8	8.47e-01	0	52	104	0	60	28898
2026-01-28 18:12:55.76	251.60	5.40	-44.0	-62.5	3.8	8.47e-01	0	52	104	0	60	28861
2026-01-28 18:12:56.77	251.51	5.48	-44.0	-62.5	3.8	8.46e-01	0	52	104	0	60	28941
2026-01-28 18:12:57.78	251.42	5.56	-44.0	-62.5	3.8	8.46e-01	0	52	104	0	60	28858
2026-01-28 18:12:58.79	251.33	5.64	-44.0	-62.5	3.8	8.46e-01	0	53	104	0	60	28898
2026-01-28 18:12:59.80	251.24	5.71	-44.0	-62.5	3.8	8.45e-01	0	52	104	0	60	28860
2026-01-28 18:13:00.81	251.15	5.79	-44.0	-62.5	3.8	8.46e-01	0	53	104	0	60	28872
2026-01-28 18:13:01.82	251.06	5.87	-44.0	-62.5	3.8	8.46e-01	0	52	104	0	60	28853
2026-01-28 18:13:02.83	250.97	5.95	-44.0	-62.5	3.8	8.46e-01	0	53	104	0	60	28826
2026-01-28 18:13:03.84	250.87	6.03	-44.0	-62.5	3.8	8.47e-01	0	53	104	0	60	28907
2026-01-28 18:13:04.85	250.78	6.11	-44.0	-62.5	3.8	8.46e-01	0	53	104	0	60	28859
2026-01-28 18:13:05.86	250.68	6.20	-44.1	-62.5	3.8	8.46e-01	0	53	104	0	60	28885
2026-01-28 18:13:06.87	250.59	6.28	-44.0	-62.5	3.8	8.46e-01	0	53	104	0	60	28847
2026-01-28 18:13:07.88	250.49	6.36	-44.0	-62.5	3.8	8.46e-01	0	53	104	0	60	28924
2026-01-28 18:13:08.89	250.39	6.44	-44.0	-62.5	3.8	8.46e-01	0	53	104	0	60	28923
2026-01-28 18:13:09.90	250.30	6.52	-44.0	-62.5	3.8	8.46e-01	0	53	104	0	60	28904
2026-01-28 18:13:10.91	250.20	6.60	-44.0	-62.5	3.8	8.45e-01	0	53	104	0	60	28857
2026-01-28 18:13:11.92	250.10	6.69	-44.1	-62.5	3.8	8.45e-01	0	53	104	0	60	28887
2026-01-28 18:13:12.93	250.00	6.77	-44.0	-62.5	3.8	8.47e-01	0	53	104	0	60	28850
2026-01-28 18:13:13.94	249.89	6.85	-44.1	-62.5	3.8	8.46e-01	0	53	104	0	60	28909
2026-01-28 18:13:14.95	249.79	6.94	-44.0	-62.5	3.8	8.46e-01	0	53	104	0	60	28895
2026-01-28 18:13:15.97	249.69	7.02	-44.0	-62.5	3.8	8.46e-01	0	53	104	0	60	28773
2026-01-28 18:13:16.98	249.58	7.11	-44.0	-62.5	3.8	8.46e-01	0	53	104	0	60	28920
2026-01-28 18:13:17.99	249.48	7.19	-44.0	-62.5	3.8	8.46e-01	0	53	104	0	60	28849
2026-01-28 18:13:19.00	249.37	7.28	-44.1	-62.5	3.8	8.46e-01	0	53	104	0	60	28811
2026-01-28 18:13:20.01	249.27	7.36	-44.0	-62.5	3.8	8.46e-01	0	53	104	0	60	28866
2026-01-28 18:13:21.02	249.16	7.45	-44.0	-62.5	3.8	8.47e-01	0	53	104	0	60	28847
2026-01-28 18:13:22.03	249.05	7.54	-44.0	-62.5	3.8	8.47e-01	0	53	104	0	60	28884
2026-01-28 18:13:23.04	248.94	7.62	-44.0	-62.5	3.8	8.45e-01	0	54	104	0	60	28899
2026-01-28 18:13:24.05	248.83	7.71	-44.0	-62.5	3.8	8.46e-01	0	54	104	0	60	28887
2026-01-28 18:13:25.06	248.72	7.80	-44.0	-62.5	3.8	8.47e-01	0	54	104	0	60	28844
2026-01-28 18:13:26.07	248.61	7.89	-44.0	-62.5	3.8	8.47e-01	0	54	104	0	60	28886
2026-01-28 18:13:27.08	248.49	7.97	-44.0	-62.5	3.8	8.46e-01	0	54	104	0	60	28873
2026-01-28 18:13:28.09	248.38	8.06	-44.0	-62.5	3.8	8.45e-01	0	54	104	0	60	28871
2026-01-28 18:13:29.10	248.26	8.15	-44.1	-62.6	3.8	8.45e-01	0	54	104	0	60	29055
2026-01-28 18:13:30.11	248.15	8.24	-44.1	-62.6	3.8	8.46e-01	0	54	104	0	60	29123
2026-01-28 18:13:31.12	248.03	8.33	-44.0	-62.5	3.8	8.45e-01	0	54	104	0	60	28895
2026-01-28 18:13:32.13	247.91	8.42	-44.2	-62.6	3.8	8.45e-01	0	54	104	0	60	29306
2026-01-28 18:13:33.14	247.79	8.51	-44.0	-62.5	3.8	8.46e-01	0	54	104	0	60	28855
2026-01-28 18:13:34.15	247.67	8.60	-44.2	-62.6	3.8	8.47e-01	0	54	104	0	60	29270
2026-01-28 18:13:35.16	247.55	8.70	-44.1	-62.5	3.8	8.47e-01	0	54	104	0	60	28882
2026-01-28 18:13:36.17	247.43	8.79	-44.2	-62.6	3.8	8.46e-01	0	54	104	0	60	29294
2026-01-28 18:13:37.18	247.31	8.88	-44.1	-62.5	3.8	8.45e-01	0	54	104	0	60	28973
2026-01-28 18:13:38.19	247.18	8.97	-44.2	-62.6	3.8	8.45e-01	0	54	104	0	60	29307
2026-01-28 18:13:39.20	247.06	9.07	-44.1	-62.5	3.8	8.46e-01	0	54	104	0	60	28983
2026-01-28 18:13:40.21	246.93	9.16	-44.2	-62.7	3.8	8.47e-01	0	54	104	0	60	29414
2026-01-28 18:13:41.22	246.80	9.25	-44.1	-62.5	3.8	8.46e-01	0	54	104	0	60	29006
2026-01-28 18:13:42.23	246.67	9.35	-44.2	-62.6	3.8	8.46e-01	0	54	104	0	60	29263
2026-01-28 18:13:43.24	246.54	9.44	-44.1	-62.6	3.8	8.46e-01	0	54	104	0	60	29019
2026-01-28 18:13:44.25	246.41	9.54	-44.2	-62.6	3.8	8.45e-01	0	54	104	0	60	29326
2026-01-28 18:13:45.26	246.28	9.63	-44.1	-62.6	3.8	8.45e-01	0	54	104	0	60	29082
2026-01-28 18:13:46.27	246.14	9.73	-44.2	-62.7	3.8	8.46e-01	0	54	104	0	60	29386
2026-01-28 18:13:47.28	246.01	9.83	-44.1	-62.6	3.8	8.46e-01	0	55	104	0	60	29148
2026-01-28 18:13:48.30	245.87	9.93	-44.2	-62.7	3.8	8.46e-01	0	54	104	0	60	29434
2026-01-28 18:13:49.31	245.73	10.02	-44.2	-62.6	3.8	8.46e-01	0	54	104	0	60	29151
2026-01-28 18:13:50.32	245.59	10.12	-44.2	-62.7	3.8	8.47e-01	0	55	104	0	60	29433
2026-01-28 18:13:51.33	245.45	10.22	-44.1	-62.6	3.8	8.46e-01	0	54	104	0	60	29256
2026-01-28 18:13:52.34	245.31	10.32	-44.3	-62.7	3.8	8.46e-01	0	54	104	0	60	29486
2026-01-28 18:13:53.35	245.17	10.42	-44.2	-62.7	3.8	8.45e-01	0	54	104	0	60	29374
2026-01-28 18:13:54.36	245.03	10.52	-44.2	-62.7	3.8	8.47e-01	0	55	104	0	60	29457
2026-01-28 18:13:55.37	244.88	10.62	-44.2	-62.6	3.8	8.47e-01	0	55	104	0	60	29306
2026-01-28 18:13:56.38	244.73	10.72	-44.3	-62.8	3.8	8.46e-01	0	55	104	0	60	29710
2026-01-28 18:13:57.39	244.58	10.82	-44.2	-62.7	3.8	8.47e-01	0	55	104	0	60	29398
2026-01-28 18:13:58.40	244.44	10.92	-44.2	-62.7	3.8	8.47e-01	0	55	104	0	60	29608
2026-01-28 18:13:59.41	244.28	11.03	-44.2	-62.7	3.8	8.47e-01	0	55	104	0	60	29383
2026-01-28 18:14:00.42	244.13	11.13	-44.3	-62.8	3.8	8.46e-01	0	55	104	0	60	29773
2026-01-28 18:14:01.43	243.98	11.23	-44.2	-62.7	3.8	8.46e-01	0	55	104	0	60	29459
2026-01-28 18:14:02.44	243.82	11.34	-44.3	-62.7	3.8	8.46e-01	0	55	104	0	60	29661
2026-01-28 18:14:03.45	243.67	11.44	-44.2	-62.7	3.8	8.46e-01	0	55	104	0	60	29557
2026-01-28 18:14:04.45	243.51	11.55	-44.3	-62.8	3.8	8.46e-01	0	55	104	0	60	29899
2026-01-28 18:14:05.46	243.35	11.65	-44.3	-62.7	3.8	8.46e-01	0	55	104	0	60	29633
2026-01-28 18:14:06.48	243.19	11.76	-44.3	-62.8	3.8	8.47e-01	0	55	104	0	60	29732
2026-01-28 18:14:07.49	243.02	11.86	-44.3	-62.8	3.8	8.45e-01	0	55	104	0	60	29902
2026-01-28 18:14:08.49	242.86	11.97	-44.4	-62.8	3.8	8.45e-01	0	55	104	0	60	29994
2026-01-28 18:14:09.50	242.69	12.08	-44.3	-62.8	3.8	8.46e-01	0	55	104	0	60	29693
2026-01-28 18:14:10.51	242.53	12.19	-44.3	-62.8	3.8	8.46e-01	0	55	104	0	60	29862
2026-01-28 18:14:11.52	242.36	12.29	-44.4	-62.8	3.8	8.46e-01	0	55	104	0	60	29840
2026-01-28 18:14:12.53	242.18	12.40	-44.4	-62.9	3.8	8.47e-01	0	55	104	0	60	30095
2026-01-28 18:14:13.54	242.01	12.51	-44.4	-62.8	3.8	8.46e-01	0	55	104	0	60	29964
2026-01-28 18:14:14.56	241.83	12.62	-44.4	-62.8	3.8	8.46e-01	0	55	104	0	60	29923
2026-01-28 18:14:15.57	241.66	12.73	-44.4	-62.8	3.8	8.46e-01	0	55	104	0	60	30026
2026-01-28 18:14:16.58	241.48	12.85	-44.4	-62.9	3.8	8.47e-01	0	55	104	0	60	30161
2026-01-28 18:14:17.59	241.30	12.96	-44.4	-62.8	3.8	8.46e-01	0	55	104	0	60	30004
2026-01-28 18:14:18.60	241.12	13.07	-44.4	-62.8	3.8	8.46e-01	0	55	104	0	60	30017
2026-01-28 18:14:19.61	240.93	13.18	-44.4	-62.9	3.8	8.47e-01	0	55	104	0	60	30146
2026-01-28 18:14:20.62	240.75	13.30	-44.4	-62.9	3.8	8.46e-01	0	55	104	0	60	30216
2026-01-28 18:14:21.63	240.56	13.41	-44.4	-62.9	3.8	8.46e-01	0	55	104	0	60	30076
2026-01-28 18:14:22.64	240.37	13.52	-44.4	-62.9	3.8	8.47e-01	0	55	104	0	60	30118
2026-01-28 18:14:23.65	240.18	13.64	-44.4	-62.9	3.8	8.46e-01	0	55	104	0	60	30178
2026-01-28 18:14:24.66	239.99	13.75	-44.5	-62.9	3.8	8.46e-01	0	55	104	0	60	30354
2026-01-28 18:14:25.67	239.79	13.87	-44.4	-62.9	3.8	8.45e-01	0	56	104	0	60	30228
2026-01-28 18:14:26.68	239.60	13.99	-44.4	-62.9	3.8	8.47e-01	0	56	104	0	60	30297
2026-01-28 18:14:27.69	239.40	14.10	-44.5	-62.9	3.8	8.45e-01	0	55	104	0	60	30259
2026-01-28 18:14:28.70	239.20	14.22	-44.5	-63.0	3.8	8.45e-01	0	55	104	0	60	30429
2026-01-28 18:14:29.71	238.99	14.34	-44.5	-62.9	3.8	8.46e-01	0	56	104	0	60	30323
2026-01-28 18:14:30.72	238.79	14.46	-44.5	-62.9	3.8	8.47e-01	0	56	104	0	60	30352
2026-01-28 18:14:31.73	238.58	14.58	-44.5	-62.9	3.8	8.47e-01	0	56	104	0	60	30370
2026-01-28 18:14:32.74	238.37	14.70	-44.5	-63.0	3.8	8.46e-01	0	55	104	0	60	30581
2026-01-28 18:14:33.75	238.16	14.82	-44.5	-63.0	3.8	8.45e-01	0	55	104	0	60	30384
2026-01-28 18:14:34.76	237.94	14.94	-44.5	-63.0	3.8	8.45e-01	0	56	104	0	60	30407
2026-01-28 18:14:35.77	237.73	15.06	-44.5	-63.0	3.8	8.47e-01	0	56	104	0	60	30569
2026-01-28 18:14:36.78	237.51	15.18	-44.5	-63.0	3.8	8.46e-01	0	56	104	0	60	30623
2026-01-28 18:14:37.79	237.29	15.30	-44.5	-63.0	3.8	8.46e-01	0	56	104	0	60	30517
2026-01-28 18:14:38.80	237.06	15.43	-44.5	-63.0	3.8	8.47e-01	0	56	104	0	60	30488
2026-01-28 18:14:39.81	236.84	15.55	-44.5	-63.0	3.8	8.46e-01	0	56	104	0	60	30636
2026-01-28 18:14:40.82	236.61	15.68	-44.6	-63.0	3.8	8.47e-01	0	56	104	0	60	30655
2026-01-28 18:14:41.83	236.38	15.80	-44.6	-63.0	3.8	8.47e-01	0	56	104	0	60	30601
2026-01-28 18:14:42.84	236.15	15.93	-44.5	-63.0	3.8	8.46e-01	0	56	104	0	60	30533
2026-01-28 18:14:43.85	235.91	16.05	-44.6	-63.0	3.8	8.46e-01	0	56	104	0	60	30665
2026-01-28 18:14:44.86	235.67	16.18	-44.6	-63.1	3.8	8.46e-01	0	56	104	0	60	30765
2026-01-28 18:14:45.87	235.43	16.31	-44.6	-63.0	3.8	8.46e-01	0	56	104	0	60	30691
2026-01-28 18:14:46.88	235.19	16.43	-44.6	-63.0	3.8	8.46e-01	0	56	104	0	60	30696
2026-01-28 18:14:47.89	234.94	16.56	-44.6	-63.1	3.8	8.46e-01	0	56	104	0	60	30949
2026-01-28 18:14:48.90	234.69	16.69	-44.6	-63.1	3.8	8.46e-01	0	56	104	0	60	30836
2026-01-28 18:14:49.91	234.44	16.82	-44.6	-63.1	3.8	8.46e-01	0	56	104	0	60	30796
2026-01-28 18:14:50.92	234.19	16.95	-44.6	-63.1	3.8	8.46e-01	0	56	104	0	60	30770
2026-01-28 18:14:51.93	233.93	17.08	-44.6	-63.1	3.8	8.47e-01	0	56	104	0	60	30953
2026-01-28 18:14:52.94	233.67	17.21	-44.6	-63.1	3.8	8.47e-01	0	56	104	0	60	30930
2026-01-28 18:14:53.95	233.41	17.34	-44.6	-63.1	3.8	8.46e-01	0	56	104	0	60	30926
2026-01-28 18:14:54.96	233.14	17.47	-44.6	-63.1	3.8	8.46e-01	0	56	104	0	60	30788
2026-01-28 18:14:55.97	232.88	17.60	-44.6	-63.1	3.8	8.45e-01	0	56	104	0	60	31046
2026-01-28 18:14:56.98	232.60	17.73	-44.6	-63.1	3.8	8.46e-01	0	56	104	0	60	30919
2026-01-28 18:14:57.99	232.33	17.87	-44.7	-63.1	3.8	8.46e-01	0	56	104	0	60	31035
2026-01-28 18:14:59.00	232.05	18.00	-44.6	-63.1	3.8	8.45e-01	0	56	104	0	60	30946
2026-01-28 18:15:00.01	231.77	18.13	-44.7	-63.2	3.8	8.45e-01	0	56	104	0	60	31098
2026-01-28 18:15:01.02	231.49	18.27	-44.6	-63.1	3.8	8.45e-01	0	56	104	0	60	30968
2026-01-28 18:15:02.03	231.20	18.40	-44.7	-63.1	3.8	8.46e-01	0	56	104	0	60	31021
2026-01-28 18:15:03.04	230.91	18.54	-44.6	-63.1	3.8	8.45e-01	0	56	104	0	60	30966
2026-01-28 18:15:04.05	230.62	18.67	-44.7	-63.2	3.8	8.45e-01	0	56	104	0	60	31116
2026-01-28 18:15:05.06	230.32	18.81	-44.7	-63.1	3.8	8.45e-01	0	56	104	0	60	30996
2026-01-28 18:15:06.07	230.03	18.95	-44.7	-63.2	3.8	8.46e-01	0	56	104	0	60	31093
2026-01-28 18:15:07.08	229.72	19.08	-44.7	-63.1	3.8	8.47e-01	0	56	104	0	60	31084
2026-01-28 18:15:08.09	229.42	19.22	-44.7	-63.2	3.8	8.47e-01	0	56	104	0	60	31197
2026-01-28 18:15:09.10	229.11	19.36	-44.7	-63.2	3.8	8.46e-01	0	56	104	0	60	31197
2026-01-28 18:15:10.11	228.79	19.49	-44.7	-63.2	3.8	8.45e-01	0	56	104	0	60	31111
2026-01-28 18:15:11.13	228.48	19.63	-44.7	-63.1	3.8	8.45e-01	0	56	104	0	60	31080
2026-01-28 18:15:12.14	228.16	19.77	-44.7	-63.2	3.8	8.46e-01	0	56	104	0	60	31297
2026-01-28 18:15:13.15	227.83	19.91	-44.7	-63.2	3.8	8.46e-01	0	56	104	0	60	31126
2026-01-28 18:15:14.16	227.51	20.05	-44.7	-63.2	3.8	8.46e-01	0	57	104	0	60	31358
2026-01-28 18:15:15.17	227.17	20.19	-44.7	-63.2	3.8	8.46e-01	0	56	104	0	60	31287
2026-01-28 18:15:16.18	226.84	20.33	-44.7	-63.2	3.8	8.46e-01	0	56	104	0	60	31271
2026-01-28 18:15:17.19	226.50	20.46	-44.7	-63.2	3.8	8.46e-01	0	56	104	0	60	31301
2026-01-28 18:15:18.20	226.16	20.60	-44.7	-63.2	3.8	8.46e-01	0	57	104	0	60	31256
2026-01-28 18:15:19.21	225.82	20.74	-44.7	-63.2	3.8	8.46e-01	0	56	104	0	60	31317
2026-01-28 18:15:20.22	225.47	20.88	-44.8	-63.2	3.8	8.46e-01	0	56	104	0	60	31324
2026-01-28 18:15:21.23	225.11	21.02	-44.7	-63.2	3.8	8.46e-01	0	56	104	0	60	31274
2026-01-28 18:15:22.24	224.76	21.16	-44.8	-63.2	3.8	8.47e-01	0	57	104	0	60	31288
2026-01-28 18:15:23.25	224.40	21.30	-44.8	-63.2	3.8	8.47e-01	0	57	104	0	60	31358
2026-01-28 18:15:24.26	224.03	21.44	-44.8	-63.2	3.8	8.47e-01	0	56	104	0	60	31438
2026-01-28 18:15:25.27	223.66	21.58	-44.7	-63.2	3.8	8.46e-01	0	56	104	0	60	31312
2026-01-28 18:15:26.28	223.29	21.72	-44.8	-63.3	3.8	8.46e-01	0	57	104	0	60	31483
2026-01-28 18:15:27.29	222.91	21.86	-44.8	-63.2	3.8	8.46e-01	0	56	104	0	60	31360
2026-01-28 18:15:28.30	222.53	22.00	-44.8	-63.3	3.8	8.47e-01	0	57	104	0	60	31458
2026-01-28 18:15:29.31	222.15	22.14	-44.7	-63.2	3.8	8.46e-01	0	56	104	0	60	31440
2026-01-28 18:15:30.32	221.76	22.28	-44.7	-63.2	3.8	8.46e-01	0	56	104	0	60	31441
2026-01-28 18:15:31.33	221.37	22.42	-44.6	-63.2	3.8	8.45e-01	0	57	104	0	60	31418
2026-01-28 18:15:32.34	220.97	22.56	-44.8	-63.3	3.8	8.47e-01	0	57	104	0	60	31651
2026-01-28 18:15:33.35	220.57	22.70	-44.8	-63.3	3.8	8.46e-01	0	57	104	0	60	31552
2026-01-28 18:15:34.36	220.16	22.84	-44.7	-63.3	3.8	8.46e-01	0	57	104	0	60	31484
2026-01-28 18:15:35.36	219.75	22.97	-44.8	-63.3	3.8	8.46e-01	0	57	104	0	60	31525
2026-01-28 18:15:36.38	219.34	23.11	-44.8	-63.3	3.8	8.46e-01	0	57	104	0	60	31575
2026-01-28 18:15:37.38	218.92	23.25	-44.8	-63.3	3.8	8.46e-01	0	56	104	0	60	31469
2026-01-28 18:15:38.39	218.50	23.38	-44.8	-63.3	3.8	8.46e-01	0	57	104	0	60	31521
2026-01-28 18:15:39.40	218.07	23.52	-44.8	-63.3	3.8	8.46e-01	0	57	104	0	60	31612
2026-01-28 18:15:40.41	217.64	23.66	-44.9	-63.3	3.8	8.46e-01	0	57	104	0	60	31662
2026-01-28 18:15:41.42	217.20	23.79	-44.8	-63.3	3.8	8.47e-01	0	57	104	0	60	31549
2026-01-28 18:15:42.43	216.76	23.92	-44.8	-63.3	3.8	8.47e-01	0	57	104	0	60	31575
2026-01-28 18:15:43.44	216.32	24.06	-44.8	-63.3	3.8	8.46e-01	0	57	104	0	60	31568
2026-01-28 18:15:44.45	215.87	24.19	-44.8	-63.3	3.8	8.46e-01	0	57	104	0	60	31689
2026-01-28 18:15:45.46	215.41	24.32	-44.8	-63.3	3.8	8.46e-01	0	57	104	0	60	31596
2026-01-28 18:15:46.47	214.95	24.46	-44.8	-63.3	3.8	8.46e-01	0	57	104	0	60	31634
2026-01-28 18:15:47.48	214.49	24.59	-44.8	-63.3	3.8	8.46e-01	0	57	104	0	60	31612
2026-01-28 18:15:48.49	214.02	24.72	-44.8	-63.3	3.8	8.46e-01	0	57	104	0	60	31705
2026-01-28 18:15:49.50	213.55	24.84	-44.8	-63.3	3.8	8.47e-01	0	57	104	0	60	31634
2026-01-28 18:15:50.51	213.07	24.97	-44.8	-63.3	3.8	8.47e-01	0	57	104	0	60	31672
2026-01-28 18:15:51.53	212.59	25.10	-44.8	-63.3	3.8	8.47e-01	0	57	104	0	60	31622
2026-01-28 18:15:52.53	212.11	25.22	-44.9	-63.3	3.8	8.46e-01	0	57	104	0	60	31658
2026-01-28 18:15:53.54	211.62	25.35	-44.9	-63.3	3.8	8.46e-01	0	57	104	0	60	31712
2026-01-28 18:15:54.55	211.12	25.47	-44.8	-63.3	3.8	8.46e-01	0	57	104	0	60	31754
2026-01-28 18:15:55.56	210.63	25.59	-44.9	-63.3	3.8	8.47e-01	0	57	104	0	60	31723
2026-01-28 18:15:56.58	210.12	25.71	-44.9	-63.3	3.8	8.46e-01	0	57	104	0	60	31728
2026-01-28 18:15:57.58	209.61	25.83	-44.9	-63.3	3.8	8.46e-01	0	57	104	0	60	31668
2026-01-28 18:15:58.59	209.10	25.95	-44.8	-63.3	3.8	8.46e-01	0	57	104	0	60	31624
2026-01-28 18:15:59.60	208.59	26.06	-44.9	-63.3	3.8	8.46e-01	0	57	104	0	60	31692
2026-01-28 18:16:00.62	208.06	26.18	-44.9	-63.3	3.8	8.46e-01	0	57	104	0	60	31768
2026-01-28 18:16:01.63	207.54	26.29	-44.9	-63.3	3.8	8.46e-01	0	57	104	0	60	31652
2026-01-28 18:16:02.64	207.01	26.40	-44.8	-63.3	3.8	8.47e-01	0	57	104	0	60	31638
2026-01-28 18:16:03.65	206.47	26.51	-44.9	-63.3	3.8	8.47e-01	0	57	104	0	60	31698
2026-01-28 18:16:04.66	205.94	26.61	-44.9	-63.3	3.8	8.46e-01	0	57	104	0	60	31643
2026-01-28 18:16:05.67	205.39	26.72	-44.9	-63.3	3.8	8.48e-01	0	57	104	0	60	31664
2026-01-28 18:16:06.68	204.85	26.82	-44.8	-63.3	3.8	8.48e-01	0	57	104	0	60	31648
2026-01-28 18:16:07.69	204.30	26.92	-44.8	-63.3	3.8	8.47e-01	0	57	104	0	60	31670
2026-01-28 18:16:08.70	203.74	27.02	-44.9	-63.3	3.8	8.47e-01	0	57	104	0	60	31744
2026-01-28 18:16:09.71	203.19	27.12	-44.8	-63.3	3.8	8.46e-01	0	57	104	0	60	31689
2026-01-28 18:16:10.72	202.63	27.21	-44.8	-63.3	3.8	8.46e-01	0	57	104	0	60	31730
2026-01-28 18:16:11.72	202.07	27.30	-44.9	-63.3	3.8	8.46e-01	0	57	104	0	60	31716
2026-01-28 18:16:12.73	201.50	27.39	-44.8	-63.3	3.8	8.46e-01	0	57	104	0	60	31651
2026-01-28 18:16:13.74	200.93	27.48	-44.9	-63.3	3.8	8.46e-01	0	57	104	0	60	31774
2026-01-28 18:16:14.75	200.35	27.56	-44.8	-63.3	3.8	8.44e-01	0	57	104	0	60	31671
2026-01-28 18:16:15.76	199.77	27.65	-44.9	-63.3	3.8	8.46e-01	0	57	104	0	60	31749
2026-01-28 18:16:16.77	199.19	27.73	-44.8	-63.3	3.8	8.46e-01	0	57	104	0	60	31778
2026-01-28 18:16:17.78	198.60	27.80	-44.9	-63.3	3.8	8.46e-01	0	57	104	0	60	31728
2026-01-28 18:16:18.79	198.01	27.88	-44.8	-63.3	3.8	8.45e-01	0	57	104	0	60	31704
2026-01-28 18:16:19.80	197.42	27.95	-44.9	-63.3	3.8	8.45e-01	0	57	104	0	60	31636
2026-01-28 18:16:20.81	196.82	28.02	-44.9	-63.3	3.8	8.46e-01	0	57	104	0	60	31754
2026-01-28 18:16:21.82	196.23	28.08	-44.9	-63.3	3.8	8.46e-01	0	57	104	0	60	31749
2026-01-28 18:16:22.83	195.63	28.14	-44.8	-63.3	3.8	8.45e-01	0	57	104	0	60	31662
2026-01-28 18:16:23.84	195.02	28.20	-44.9	-63.3	3.8	8.45e-01	0	57	104	0	60	31787
2026-01-28 18:16:24.85	194.42	28.26	-44.9	-63.3	3.8	8.46e-01	0	57	104	0	60	31764
2026-01-28 18:16:25.86	193.81	28.31	-44.9	-63.3	3.8	8.46e-01	0	57	104	0	60	31712
2026-01-28 18:16:26.87	193.20	28.36	-44.9	-63.3	3.8	8.46e-01	0	57	104	0	60	31772
2026-01-28 18:16:27.88	192.59	28.41	-44.9	-63.4	3.8	8.46e-01	0	57	104	0	60	31813
2026-01-28 18:16:28.89	191.97	28.46	-44.9	-63.3	3.8	8.46e-01	0	57	104	0	60	31796
2026-01-28 18:16:29.90	191.36	28.50	-44.9	-63.4	3.8	8.46e-01	0	57	104	0	60	31811
2026-01-28 18:16:30.91	190.74	28.54	-44.9	-63.3	3.8	8.46e-01	0	57	104	0	60	31758
2026-01-28 18:16:31.92	190.12	28.57	-44.9	-63.3	3.8	8.46e-01	0	57	104	0	60	31762
2026-01-28 18:16:32.93	189.50	28.60	-44.9	-63.3	3.8	8.46e-01	0	57	104	0	60	31796
2026-01-28 18:16:33.94	188.87	28.63	-44.9	-63.3	3.8	8.45e-01	0	57	104	0	60	31783
2026-01-28 18:16:34.95	188.25	28.65	-44.9	-63.4	3.8	8.46e-01	0	57	104	0	60	31852
2026-01-28 18:16:35.96	187.63	28.68	-44.9	-63.4	3.8	8.46e-01	0	57	104	0	60	31837
2026-01-28 18:16:36.97	187.00	28.69	-44.9	-63.3	3.8	8.46e-01	0	57	104	0	60	31697
2026-01-28 18:16:37.98	186.37	28.71	-44.9	-63.3	3.8	8.46e-01	0	57	104	0	60	31791
2026-01-28 18:16:38.99	185.75	28.72	-44.9	-63.3	3.8	8.45e-01	0	57	104	0	60	31697
2026-01-28 18:16:40.00	185.12	28.73	-44.9	-63.4	3.8	8.45e-01	0	57	104	0	60	31880
2026-01-28 18:16:41.01	184.49	28.73	-44.9	-63.3	3.8	8.45e-01	0	57	104	0	60	31781
2026-01-28 18:16:42.02	183.87	28.73	-44.9	-63.4	3.8	8.46e-01	0	57	104	0	60	31840
2026-01-28 18:16:43.03	183.24	28.73	-44.9	-63.3	3.8	8.46e-01	0	57	104	0	60	31790
2026-01-28 18:16:44.04	182.61	28.72	-44.9	-63.4	3.8	8.46e-01	0	57	104	0	60	31866
2026-01-28 18:16:45.05	181.98	28.71	-44.9	-63.3	3.8	8.47e-01	0	57	104	0	60	31725
2026-01-28 18:16:46.06	181.36	28.70	-44.9	-63.4	3.8	8.47e-01	0	57	104	0	60	31965
2026-01-28 18:16:47.07	180.73	28.68	-44.9	-63.4	3.8	8.47e-01	0	57	104	0	60	31891
2026-01-28 18:16:48.08	180.11	28.66	-44.9	-63.4	3.8	8.46e-01	0	57	104	0	60	32001
2026-01-28 18:16:49.09	179.48	28.64	-44.9	-63.4	3.8	8.45e-01	0	57	104	0	60	31848
2026-01-28 18:16:50.10	178.86	28.61	-44.9	-63.4	3.8	8.45e-01	0	58	104	0	60	31968
2026-01-28 18:16:51.11	178.24	28.58	-44.9	-63.4	3.8	8.46e-01	0	57	104	0	60	31922
2026-01-28 18:16:52.12	177.62	28.55	-44.9	-63.4	3.8	8.46e-01	0	58	104	0	60	32084
2026-01-28 18:16:53.13	177.00	28.52	-44.9	-63.4	3.8	8.46e-01	0	57	104	0	60	31963
2026-01-28 18:16:54.14	176.38	28.48	-45.4	-63.9	3.8	8.46e-01	0	57	104	0	61	32013
2026-01-28 18:16:55.15	175.77	28.43	-45.1	-63.6	3.8	8.47e-01	0	58	104	0	61	30753
2026-01-28 18:16:56.16	175.15	28.39	-45.1	-63.5	3.8	8.47e-01	0	57	104	0	61	30719
2026-01-28 18:16:57.17	174.54	28.34	-45.0	-63.5	3.8	8.45e-01	0	57	104	0	61	30513
2026-01-28 18:16:58.18	173.93	28.29	-45.1	-63.5	3.8	8.45e-01	0	57	104	0	61	30671
2026-01-28 18:16:59.19	173.32	28.23	-45.0	-63.5	3.8	8.45e-01	0	57	104	0	61	30553
2026-01-28 18:17:00.20	172.72	28.17	-45.0	-63.5	3.8	8.45e-01	0	57	104	0	61	30489
2026-01-28 18:17:01.21	172.12	28.11	-45.0	-63.4	3.8	8.47e-01	0	58	104	0	61	30287
2026-01-28 18:17:02.22	171.52	28.05	-45.0	-63.5	3.8	8.47e-01	0	57	104	0	61	30580
2026-01-28 18:17:03.23	170.92	27.98	-45.0	-63.5	3.8	8.47e-01	0	58	104	0	61	30464
2026-01-28 18:17:04.24	170.33	27.91	-45.0	-63.5	3.8	8.46e-01	0	57	104	0	61	30523
2026-01-28 18:17:05.25	169.74	27.84	-45.0	-63.5	3.8	8.46e-01	0	58	104	0	61	30520
2026-01-28 18:17:06.26	169.15	27.76	-45.1	-63.5	3.8	8.46e-01	0	58	104	0	61	30704
2026-01-28 18:17:07.27	168.57	27.68	-45.0	-63.5	3.8	8.45e-01	0	58	104	0	61	30630
2026-01-28 18:17:08.28	167.98	27.60	-45.1	-63.6	3.8	8.47e-01	0	58	104	0	61	30745
2026-01-28 18:17:09.29	167.41	27.52	-45.1	-63.5	3.8	8.47e-01	0	58	104	0	61	30705
2026-01-28 18:17:10.30	166.83	27.43	-45.2	-63.6	3.8	8.45e-01	0	58	104	0	61	31043
2026-01-28 18:17:11.31	166.26	27.34	-45.2	-63.6	3.8	8.46e-01	0	57	104	0	61	31011
2026-01-28 18:17:12.32	165.69	27.25	-45.2	-63.6	3.8	8.46e-01	0	57	104	0	61	30928
2026-01-28 18:17:13.33	165.13	27.16	-45.2	-63.6	3.8	8.46e-01	0	58	104	0	61	30981
2026-01-28 18:17:14.34	164.57	27.06	-45.1	-63.6	3.8	8.47e-01	0	57	104	0	61	30918
2026-01-28 18:17:15.35	164.02	26.97	-45.1	-63.6	3.8	8.47e-01	0	58	104	0	61	30939
2026-01-28 18:17:16.36	163.46	26.87	-45.2	-63.6	3.8	8.47e-01	0	58	104	0	61	31037
2026-01-28 18:17:17.37	162.92	26.76	-45.2	-63.6	3.8	8.45e-01	0	58	104	0	61	31043
2026-01-28 18:17:18.38	162.37	26.66	-45.2	-63.6	3.8	8.46e-01	0	58	104	0	61	31031
2026-01-28 18:17:19.39	161.83	26.56	-45.1	-63.6	3.8	8.46e-01	0	58	104	0	61	30986
2026-01-28 18:17:20.40	161.30	26.45	-45.2	-63.6	3.8	8.47e-01	0	58	104	0	61	30991
2026-01-28 18:17:21.41	160.77	26.34	-45.2	-63.6	3.8	8.46e-01	0	58	104	0	61	31064
2026-01-28 18:17:22.42	160.24	26.23	-45.2	-63.6	3.8	8.46e-01	0	58	104	0	61	31051
2026-01-28 18:17:23.43	159.72	26.11	-45.1	-63.6	3.8	8.47e-01	0	57	104	0	61	30912
2026-01-28 18:17:24.44	159.20	26.00	-45.2	-63.6	3.8	8.46e-01	0	57	104	0	61	31019
2026-01-28 18:17:25.45	158.68	25.88	-45.2	-63.7	3.8	8.46e-01	0	58	104	0	61	31128
2026-01-28 18:17:26.46	158.17	25.76	-45.2	-63.6	3.8	8.46e-01	0	58	104	0	61	31056
2026-01-28 18:17:27.47	157.67	25.64	-45.1	-63.6	3.8	8.47e-01	0	58	104	0	61	30856
2026-01-28 18:17:28.48	157.17	25.52	-45.2	-63.6	3.8	8.47e-01	0	58	104	0	61	31066
2026-01-28 18:17:29.49	156.67	25.40	-45.2	-63.7	3.8	8.47e-01	0	58	104	0	61	31163
2026-01-28 18:17:30.50	156.18	25.28	-45.2	-63.7	3.8	8.46e-01	0	58	104	0	61	31097
2026-01-28 18:17:31.51	155.69	25.15	-45.2	-63.6	3.8	8.45e-01	0	58	104	0	61	30992
2026-01-28 18:17:32.52	155.21	25.03	-45.2	-63.7	3.8	8.45e-01	0	58	104	0	61	31099
2026-01-28 18:17:33.53	154.73	24.90	-45.2	-63.7	3.8	8.46e-01	0	58	104	0	61	31155
2026-01-28 18:17:34.54	154.26	24.77	-45.2	-63.6	3.8	8.46e-01	0	58	104	0	61	31026
2026-01-28 18:17:35.55	153.79	24.64	-45.2	-63.6	3.8	8.46e-01	0	58	104	0	61	30913
2026-01-28 18:17:36.56	153.32	24.51	-45.2	-63.6	3.8	8.46e-01	0	58	104	0	61	31003
2026-01-28 18:17:37.57	152.86	24.38	-45.2	-63.6	3.8	8.45e-01	0	58	104	0	61	31019
2026-01-28 18:17:38.58	152.40	24.25	-45.2	-63.6	3.8	8.47e-01	0	58	104	0	61	30934
2026-01-28 18:17:39.59	151.95	24.12	-45.1	-63.6	3.8	8.47e-01	0	58	104	0	61	30831
2026-01-28 18:17:40.60	151.50	23.98	-45.1	-63.6	3.8	8.46e-01	0	58	104	0	61	30915
2026-01-28 18:17:41.62	151.06	23.85	-45.2	-63.6	3.8	8.46e-01	0	58	104	0	61	30895
2026-01-28 18:17:42.63	150.62	23.71	-45.2	-63.6	3.8	8.46e-01	0	58	104	0	61	30909
2026-01-28 18:17:43.64	150.18	23.58	-45.1	-63.6	3.8	8.46e-01	0	58	104	0	61	30835
2026-01-28 18:17:44.65	149.75	23.44	-45.2	-63.6	3.8	8.47e-01	0	58	104	0	61	30855
2026-01-28 18:17:45.66	149.33	23.31	-45.1	-63.6	3.8	8.47e-01	0	58	104	0	61	30829
2026-01-28 18:17:46.67	148.91	23.17	-45.1	-63.6	3.8	8.47e-01	0	58	104	0	61	30844
2026-01-28 18:17:47.67	148.49	23.03	-45.1	-63.6	3.8	8.45e-01	0	58	104	0	61	30829
2026-01-28 18:17:48.69	148.08	22.89	-45.1	-63.6	3.8	8.45e-01	0	58	104	0	61	30760
2026-01-28 18:17:49.69	147.67	22.76	-45.1	-63.5	3.8	8.46e-01	0	58	104	0	61	30655
2026-01-28 18:17:50.70	147.27	22.62	-45.1	-63.5	3.8	8.46e-01	0	58	104	0	61	30625
2026-01-28 18:17:51.71	146.87	22.48	-45.1	-63.5	3.8	8.46e-01	0	58	104	0	61	30632
2026-01-28 18:17:52.72	146.48	22.34	-45.1	-63.5	3.8	8.46e-01	0	58	104	0	61	30632
2026-01-28 18:17:53.73	146.08	22.20	-45.0	-63.5	3.8	8.48e-01	0	58	104	0	61	30586
2026-01-28 18:17:54.74	145.70	22.06	-45.1	-63.5	3.8	8.47e-01	0	58	104	0	61	30536
2026-01-28 18:17:55.75	145.31	21.92	-45.0	-63.5	3.8	8.47e-01	0	58	104	0	61	30495
2026-01-28 18:17:56.76	144.94	21.78	-45.0	-63.5	3.8	8.46e-01	0	58	104	0	61	30478
2026-01-28 18:17:57.77	144.56	21.64	-45.0	-63.4	3.8	8.46e-01	0	58	104	0	61	30292
2026-01-28 18:17:58.78	144.19	21.50	-45.0	-63.4	3.8	8.46e-01	0	58	104	0	61	30327
2026-01-28 18:17:59.79	143.82	21.36	-45.0	-63.4	3.8	8.47e-01	0	58	104	0	61	30374
2026-01-28 18:18:00.80	143.46	21.22	-45.0	-63.4	3.8	8.46e-01	0	58	104	0	61	30230
2026-01-28 18:18:01.81	143.10	21.08	-44.9	-63.4	3.8	8.47e-01	0	58	104	0	61	30129
2026-01-28 18:18:02.82	142.75	20.94	-45.0	-63.4	3.8	8.47e-01	0	58	104	0	61	30209
2026-01-28 18:18:03.83	142.40	20.80	-45.0	-63.4	3.8	8.46e-01	0	58	104	0	61	30203
2026-01-28 18:18:04.84	142.05	20.66	-44.8	-63.4	3.8	8.46e-01	0	58	104	0	61	30054
2026-01-28 18:18:05.85	141.71	20.52	-44.9	-63.3	3.8	8.46e-01	0	58	104	0	61	29894
2026-01-28 18:18:06.86	141.37	20.38	-44.9	-63.3	3.8	8.45e-01	0	58	104	0	61	30006
2026-01-28 18:18:07.87	141.03	20.24	-44.9	-63.3	3.8	8.46e-01	0	58	104	0	61	29998
2026-01-28 18:18:08.88	140.70	20.10	-44.9	-63.3	3.8	8.46e-01	0	58	104	0	60	31684
2026-01-28 18:18:09.89	140.37	19.97	-44.9	-63.3	3.9	8.47e-01	0	58	104	0	60	31637
2026-01-28 18:18:10.90	140.04	19.83	-44.7	-63.3	3.8	8.47e-01	0	58	104	0	60	31690
2026-01-28 18:18:11.91	139.72	19.69	-44.9	-63.3	3.8	8.47e-01	0	58	104	0	60	31522
2026-01-28 18:18:12.92	139.40	19.55	-44.8	-63.3	3.8	8.48e-01	0	58	104	0	60	31504
2026-01-28 18:18:13.93	139.09	19.41	-44.8	-63.3	3.8	8.46e-01	0	58	104	0	60	31547
2026-01-28 18:18:14.94	138.78	19.28	-43.0	-63.3	4.0	8.46e-01	0	58	104	0	58	35523
2026-01-28 18:18:15.95	138.47	19.14	-44.9	-63.3	3.8	8.46e-01	0	58	104	0	60	31641
2026-01-28 18:18:16.96	138.17	19.00	-44.8	-63.3	3.8	8.45e-01	0	58	104	0	60	31603
2026-01-28 18:18:17.97	137.87	18.87	-44.7	-63.2	3.8	8.46e-01	0	58	104	0	60	31344
2026-01-28 18:18:18.98	137.57	18.73	-44.6	-63.3	3.9	8.46e-01	0	58	104	0	60	31571
2026-01-28 18:18:19.99	137.27	18.59	-44.1	-62.7	3.8	8.45e-01	0	58	104	0	59	31413
2026-01-28 18:18:21.00	136.98	18.46	-44.8	-63.6	3.8	8.46e-01	0	58	104	0	58	36528
2026-01-28 18:18:22.01	136.69	18.32	-44.8	-62.7	3.8	8.46e-01	0	58	104	0	59	31373
2026-01-28 18:18:23.02	136.41	18.19	-44.7	-63.2	3.8	8.46e-01	0	58	104	0	60	31299
2026-01-28 18:18:24.03	136.13	18.05	-44.8	-63.3	3.9	8.46e-01	0	58	104	0	60	31570
2026-01-28 18:18:25.04	135.85	17.92	-42.8	-62.7	3.8	8.46e-01	0	58	104	0	57	34987
2026-01-28 18:18:26.05	135.57	17.79	-44.8	-62.6	3.8	8.46e-01	0	58	104	0	58	32800
2026-01-28 18:18:27.05	135.30	17.66	-42.8	-62.6	4.1	8.45e-01	0	58	104	0	57	34493
2026-01-28 18:18:28.06	135.03	17.52	-44.6	-63.6	3.7	8.48e-01	0	58	104	0	60	32863
2026-01-28 18:18:29.07	134.77	17.39	-44.7	-63.1	3.8	8.48e-01	0	58	104	0	60	31012
2026-01-28 18:18:30.08	134.50	17.26	-43.3	-63.3	3.8	8.47e-01	0	58	104	0	59	33588
2026-01-28 18:18:31.09	134.24	17.13	-44.6	-63.1	3.8	8.46e-01	0	58	104	0	60	31052
2026-01-28 18:18:32.10	133.98	17.00	-44.7	-63.2	3.7	8.46e-01	0	58	104	0	60	31131
2026-01-28 18:18:33.11	133.73	16.87	-44.6	-63.0	3.8	8.45e-01	0	58	104	0	59	32479
2026-01-28 18:18:34.12	133.47	16.74	-44.6	-63.0	3.8	8.46e-01	0	58	104	0	59	32505
2026-01-28 18:18:35.13	133.22	16.61	-44.6	-63.0	4.1	8.46e-01	0	58	104	0	59	32399
2026-01-28 18:18:36.14	132.98	16.48	-44.6	-63.0	3.8	8.45e-01	0	58	104	0	59	32365
2026-01-28 18:18:37.15	132.73	16.36	-44.6	-63.0	3.8	8.46e-01	0	58	104	0	59	32407
2026-01-28 18:18:38.16	132.49	16.23	-44.7	-63.0	3.8	8.46e-01	0	58	104	0	59	32528
2026-01-28 18:18:39.17	132.25	16.10	-44.3	-63.7	3.9	8.47e-01	0	58	104	0	59	34945
2026-01-28 18:18:40.18	132.01	15.98	-44.2	-63.0	3.7	8.47e-01	0	58	104	0	58	34477
2026-01-28 18:18:41.19	131.78	15.85	-44.6	-63.0	3.8	8.46e-01	0	58	104	0	59	32288
2026-01-28 18:18:42.20	131.55	15.73	-44.6	-63.0	3.8	8.46e-01	0	58	104	0	59	32219
2026-01-28 18:18:43.21	131.32	15.60	-43.8	-63.0	3.8	8.47e-01	0	58	104	0	59	32211
2026-01-28 18:18:44.22	131.09	15.48	-44.4	-62.5	3.8	8.46e-01	0	58	104	0	58	32321
2026-01-28 18:18:45.23	130.87	15.35	-44.3	-63.0	3.9	8.46e-01	0	58	104	0	59	32244
2026-01-28 18:18:46.24	130.64	15.23	-44.4	-62.6	3.8	8.46e-01	0	58	104	0	56	36832
2026-01-28 18:18:47.25	130.42	15.11	-41.6	-62.5	4.2	8.45e-01	0	58	104	0	52	45803
2026-01-28 18:18:48.26	130.21	14.99	-36.4	-62.9	3.5	8.45e-01	0	58	104	0	49	56760
2026-01-28 18:18:49.27	129.99	14.86	-33.7	-52.2	3.7	8.44e-01	0	58	104	0	26	62680
2026-01-28 18:18:50.28	129.78	14.74	-30.0	-49.5	4.0	8.28e-01	0	58	104	0	24	51486
2026-01-28 18:18:51.29	129.57	14.62	-32.4	-55.1	3.9	8.28e-01	0	58	104	0	31	65535
2026-01-28 18:18:52.29	129.36	14.51	-27.0	-54.9	4.0	8.15e-01	0	58	104	0	31	64124
2026-01-28 18:18:53.30	129.15	14.39	-30.0	-53.0	3.9	8.22e-01	0	58	104	0	27	64805
2026-01-28 18:18:54.31	128.95	14.27	-24.0	-53.9	3.8	8.17e-01	0	58	104	0	30	60507
2026-01-28 18:18:55.32	128.75	14.15	-40.7	-60.1	3.9	8.17e-01	0	58	104	0	47	46031
2026-01-28 18:18:56.33	128.55	14.03	-29.5	-52.1	3.8	8.36e-01	0	58	104	0	25	65535
2026-01-28 18:18:57.34	128.35	13.92	-32.3	-57.6	4.0	8.27e-01	0	58	104	0	36	65150
2026-01-28 18:18:58.35	128.15	13.80	-26.9	-49.1	3.9	8.27e-01	0	58	104	0	19	65381
2026-01-28 18:18:59.36	127.96	13.68	-30.8	-53.6	4.0	8.29e-01	0	58	104	0	28	65535
2026-01-28 18:19:00.37	127.76	13.57	-29.2	-52.4	4.1	8.11e-01	0	58	104	0	28	57121
2026-01-28 18:19:01.38	127.57	13.45	-28.5	-53.1	3.5	8.11e-01	0	58	104	0	27	65374
2026-01-28 18:19:02.39	127.39	13.34	-31.1	-55.6	3.9	8.14e-01	0	58	104	0	32	65535
2026-01-28 18:19:03.40	127.20	13.23	-33.1	-60.9	4.2	8.30e-01	0	58	104	0	46	53658
2026-01-28 18:19:04.41	127.01	13.11	-39.0	-60.6	3.9	8.30e-01	0	58	104	0	44	58266
2026-01-28 18:19:05.42	126.83	13.00	-31.5	-53.1	4.0	8.40e-01	0	58	104	0	27	65535
2026-01-28 18:19:06.43	126.65	12.89	-24.2	-50.8	3.8	8.20e-01	0	58	104	0	23	62833
2026-01-28 18:19:07.44	126.47	12.78	-31.9	-56.1	4.2	8.18e-01	0	58	104	0	33	65257
2026-01-28 18:19:08.45	126.29	12.67	-32.1	-52.8	4.1	8.18e-01	0	58	104	0	28	59277
2026-01-28 18:19:09.46	126.12	12.55	-34.2	-57.0	3.7	8.23e-01	0	58	104	0	35	64589
2026-01-28 18:19:10.47	125.95	12.44	-34.6	-59.9	4.4	8.33e-01	0	58	104	0	42	60389
2026-01-28 18:19:11.48	125.77	12.34	-37.7	-60.1	3.9	8.33e-01	0	58	104	0	41	65299
2026-01-28 18:19:12.49	125.60	12.23	-37.8	-58.8	4.0	8.37e-01	0	58	104	0	42	53213
2026-01-28 18:19:13.50	125.43	12.12	-31.3	-52.6	3.7	8.34e-01	0	58	104	0	26	65535
2026-01-28 18:19:14.51	125.27	12.01	-22.9	-47.5	3.8	8.34e-01	0	58	104	0	20	51083
2026-01-28 18:19:15.52	125.10	11.90	-26.6	-49.8	3.5	8.19e-01	0	58	104	0	21	63340
2026-01-28 18:19:16.53	124.94	11.80	-26.7	-56.2	4.0	8.19e-01	0	58	104	0	34	62415
2026-01-28 18:19:17.54	124.77	11.69	-27.7	-52.8	4.0	8.19e-01	0	58	104	0	27	63254
2026-01-28 18:19:18.55	124.61	11.58	-33.2	-52.7	3.8	8.28e-01	0	58	104	0	32	46835
2026-01-28 18:19:19.56	124.45	11.48	-33.1	-60.8	4.2	8.26e-01	0	58	104	0	46	52886
2026-01-28 18:19:20.57	124.30	11.37	-35.2	-57.6	4.1	8.43e-01	0	58	104	0	36	65535
2026-01-28 18:19:21.58	124.14	11.27	-22.8	-51.8	3.8	8.43e-01	0	58	104	0	25	62960
2026-01-28 18:19:22.59	123.99	11.17	-30.1	-50.6	3.5	8.22e-01	0	58	104	0	22	65518
2026-01-28 18:19:23.60	123.83	11.06	-35.4	-53.6	3.8	8.29e-01	0	58	104	0	28	65535
2026-01-28 18:19:24.61	123.68	10.96	-36.2	-58.7	4.2	8.29e-01	0	58	104	0	39	62391
2026-01-28 18:19:25.62	123.53	10.86	-31.5	-57.6	4.0	8.29e-01	0	58	104	0	36	65535
2026-01-28 18:19:26.63	123.38	10.76	-35.0	-56.6	4.1	8.41e-01	0	58	104	0	34	65535
2026-01-28 18:19:27.64	123.23	10.66	-32.5	-61.4	3.8	8.41e-01	0	58	104	0	45	60382
2026-01-28 18:19:28.65	123.09	10.55	-37.7	-61.2	3.5	8.44e-01	0	58	104	0	44	62598
2026-01-28 18:19:29.66	122.94	10.45	-36.7	-59.6	3.4	8.43e-01	0	58	104	0	40	65519
2026-01-28 18:19:30.67	122.80	10.35	-34.1	-57.6	3.1	8.35e-01	0	58	104	0	36	64976
2026-01-28 18:19:31.68	122.66	10.26	-32.1	-56.6	3.6	8.35e-01	0	58	104	0	34	65535
2026-01-28 18:19:32.69	122.52	10.16	-29.1	-56.6	3.6	8.37e-01	0	58	104	0	34	65531
2026-01-28 18:19:33.70	122.38	10.06	-34.2	-59.1	3.4	8.40e-01	0	58	104	0	39	65535
2026-01-28 18:19:34.71	122.24	9.96	-35.7	-59.5	3.4	8.40e-01	0	58	104	0	40	64705
2026-01-28 18:19:35.72	122.10	9.86	-37.9	-62.1	3.6	8.43e-01	0	58	104	0	46	61390
2026-01-28 18:19:36.73	121.96	9.77	-38.9	-61.4	4.0	8.44e-01	0	58	104	0	48	50486
2026-01-28 18:19:37.74	121.83	9.67	-38.8	-61.1	3.7	8.44e-01	0	58	104	0	46	55186
2026-01-28 18:19:38.75	121.70	9.57	-34.3	-58.1	3.5	8.44e-01	0	58	104	0	37	65456
2026-01-28 18:19:39.76	121.56	9.48	-30.6	-56.1	3.9	8.35e-01	0	58	104	0	33	65535
2026-01-28 18:19:40.77	121.43	9.38	-18.5	-44.6	3.8	8.35e-01	0	58	104	0	10	65535
2026-01-28 18:19:41.78	121.30	9.29	-22.6	-48.1	3.8	8.00e-01	0	58	104	0	17	65535
2026-01-28 18:19:42.79	121.18	9.19	-37.0	-60.6	3.2	7.24e-01	0	58	104	0	42	65387
2026-01-28 18:19:43.80	121.05	9.10	-29.5	-54.6	3.9	8.39e-01	0	58	104	0	30	65535
2026-01-28 18:19:44.81	120.92	9.00	-24.4	-48.6	3.0	8.39e-01	0	58	104	0	18	65535
2026-01-28 18:19:45.82	120.80	8.91	-24.0	-46.6	3.8	7.71e-01	0	58	104	0	14	65535
2026-01-28 18:19:46.83	120.67	8.82	-22.3	-47.1	3.4	7.41e-01	0	58	104	0	15	65535
2026-01-28 18:19:47.84	120.55	8.73	-20.9	-44.6	2.8	7.41e-01	0	58	104	0	10	65535
2026-01-28 18:19:48.85	120.43	8.64	-19.2	-44.6	2.6	7.03e-01	0	58	104	0	10	65535
2026-01-28 18:19:49.86	120.31	8.54	-19.7	-43.1	3.4	6.97e-01	0	58	104	0	7	65535
2026-01-28 18:19:50.87	120.19	8.45	-21.9	-51.1	3.7	6.97e-01	0	58	104	0	23	65535
2026-01-28 18:19:51.88	120.07	8.36	-17.8	-43.6	2.3	7.19e-01	0	58	104	0	8	65535
2026-01-28 18:19:52.89	119.95	8.27	-18.2	-42.6	2.3	7.19e-01	0	58	104	0	6	65535
2026-01-28 18:19:53.90	119.83	8.18	-15.8	-42.1	1.7	7.19e-01	0	58	104	0	5	65535
2026-01-28 18:19:54.91	119.72	8.09	-18.1	-43.1	1.5	7.02e-01	0	58	104	0	7	65535
2026-01-28 18:19:55.92	119.60	8.00	-22.4	-46.1	4.3	7.02e-01	0	58	104	0	13	65535
2026-01-28 18:19:56.93	119.49	7.91	-44.3	-63.4	4.3	8.02e-01	0	58	104	0	59	33767
2026-01-28 18:19:57.94	119.38	7.83	-44.7	-63.1	3.8	8.02e-01	0	58	104	0	60	31058
2026-01-28 18:19:58.95	119.26	7.74	-45.0	-63.4	3.8	8.45e-01	0	58	104	0	60	32066
2026-01-28 18:19:59.96	119.15	7.65	-45.2	-63.6	3.8	8.47e-01	0	58	104	0	60	32800
2026-01-28 18:20:00.98	119.04	7.56	-45.3	-63.8	3.8	8.47e-01	0	58	104	0	61	31457
2026-01-28 18:20:01.99	118.93	7.48	-45.5	-63.9	3.8	8.46e-01	0	58	104	0	61	32088
2026-01-28 18:20:03.00	118.82	7.39	-45.6	-64.1	3.8	8.46e-01	0	58	104	0	61	32632
2026-01-28 18:20:04.01	118.72	7.30	-45.7	-64.1	3.8	8.46e-01	0	58	104	0	62	31053
2026-01-28 18:20:05.02	118.61	7.22	-45.8	-64.2	3.8	8.46e-01	0	58	104	0	62	31186
2026-01-28 18:20:06.03	118.51	7.13	-45.7	-64.1	3.8	8.45e-01	0	58	104	0	62	30801
2026-01-28 18:20:07.04	118.40	7.05	-45.6	-64.0	3.8	8.45e-01	0	58	104	0	62	30479
2026-01-28 18:20:08.05	118.30	6.96	-45.5	-63.9	3.8	8.46e-01	0	58	104	0	62	30266
2026-01-28 18:20:09.06	118.19	6.88	-45.4	-63.8	3.8	8.46e-01	0	58	104	0	62	30021
2026-01-28 18:20:10.07	118.09	6.80	-45.4	-63.8	3.8	8.47e-01	0	58	104	0	62	29845
2026-01-28 18:20:11.08	117.99	6.71	-45.4	-63.8	3.8	8.47e-01	0	58	104	0	62	29750
2026-01-28 18:20:12.09	117.89	6.63	-45.3	-63.7	3.8	8.46e-01	0	58	104	0	62	29437
2026-01-28 18:20:13.10	117.79	6.55	-45.2	-63.6	3.8	8.46e-01	0	58	104	0	62	29296
2026-01-28 18:20:14.11	117.69	6.46	-45.2	-63.7	3.8	8.46e-01	0	58	104	0	62	29365
2026-01-28 18:20:15.12	117.59	6.38	-45.2	-63.6	3.8	8.46e-01	0	58	104	0	62	29271
2026-01-28 18:20:16.13	117.50	6.30	-45.2	-63.7	3.8	8.45e-01	0	58	104	0	62	29381
2026-01-28 18:20:17.14	117.40	6.22	-45.2	-63.6	3.8	8.45e-01	0	58	104	0	62	29301
2026-01-28 18:20:18.15	117.31	6.14	-45.2	-63.6	3.8	8.46e-01	0	58	104	0	62	29220
2026-01-28 18:20:19.16	117.21	6.06	-45.2	-63.6	3.8	8.46e-01	0	58	104	0	62	29344
2026-01-28 18:20:20.18	117.12	5.98	-45.2	-63.6	3.8	8.46e-01	0	58	104	0	62	29253
2026-01-28 18:20:21.19	117.02	5.90	-45.2	-63.6	3.8	8.46e-01	0	58	104	0	62	29163
2026-01-28 18:20:22.20	116.93	5.82	-45.2	-63.6	3.8	8.46e-01	0	58	104	0	61	30932
2026-01-28 18:20:23.21	116.84	5.74	-45.2	-63.6	3.8	8.46e-01	0	58	104	0	61	30752
2026-01-28 18:20:24.22	116.75	5.66	-45.2	-63.6	3.8	8.46e-01	0	58	104	0	61	30883
2026-01-28 18:20:25.23	116.66	5.58	-45.2	-63.6	3.8	8.48e-01	0	58	104	0	61	30809
2026-01-28 18:20:26.24	116.57	5.50	-45.1	-63.6	3.8	8.47e-01	0	58	104	0	61	30777
2026-01-28 18:20:27.25	116.48	5.42	-45.1	-63.6	3.8	8.47e-01	0	58	104	0	61	30766
2026-01-28 18:20:28.26	116.39	5.34	-45.2	-63.6	3.8	8.46e-01	0	58	104	0	61	30860
2026-01-28 18:20:29.27	116.30	5.27	-45.1	-63.6	3.8	8.45e-01	0	58	104	0	61	30835
2026-01-28 18:20:30.28	116.21	5.19	-45.1	-63.6	3.8	8.45e-01	0	58	104	0	61	30801
2026-01-28 18:20:31.29	116.13	5.11	-45.1	-63.6	3.8	8.46e-01	0	58	104	0	61	30782
2026-01-28 18:20:32.30	116.04	5.04	-45.1	-63.6	3.8	8.47e-01	0	58	104	0	61	30745
2026-01-28 18:20:33.31	115.96	4.96	-45.1	-63.6	3.8	8.45e-01	0	58	104	0	61	30838
2026-01-28 18:20:34.32	115.87	4.88	-45.1	-63.6	3.8	8.45e-01	0	58	104	0	61	30819
2026-01-28 18:20:35.33	115.79	4.81	-45.1	-63.6	3.8	8.46e-01	0	58	104	0	61	30824
2026-01-28 18:20:36.34	115.71	4.73	-45.1	-63.6	3.8	8.47e-01	0	58	104	0	61	30744
2026-01-28 18:20:37.35	115.62	4.66	-45.1	-63.6	3.8	8.47e-01	0	58	104	0	61	30805
2026-01-28 18:20:38.36	115.54	4.58	-45.1	-63.6	3.8	8.45e-01	0	58	104	0	61	30757
2026-01-28 18:20:39.37	115.46	4.51	-45.1	-63.6	3.8	8.45e-01	0	58	104	0	61	30812
2026-01-28 18:20:40.38	115.38	4.43	-45.1	-63.6	3.8	8.45e-01	0	58	104	0	61	30840
2026-01-28 18:20:41.39	115.30	4.36	-45.1	-63.6	3.8	8.45e-01	0	58	104	0	61	30857
2026-01-28 18:20:42.40	115.22	4.28	-45.1	-63.6	3.8	8.47e-01	0	58	104	0	61	30815
2026-01-28 18:20:43.40	115.14	4.21	-45.1	-63.6	3.8	8.47e-01	0	58	104	0	61	30753
2026-01-28 18:20:44.41	115.06	4.14	-45.1	-63.5	3.8	8.45e-01	0	58	104	0	60	32536
2026-01-28 18:20:45.42	114.99	4.07	-45.1	-63.6	3.8	8.46e-01	0	58	104	0	60	32636
2026-01-28 18:20:46.43	114.91	3.99	-45.1	-63.6	3.8	8.46e-01	0	58	104	0	60	32617
2026-01-28 18:20:47.44	114.83	3.92	-45.1	-63.6	3.8	8.46e-01	0	58	104	0	60	32572
2026-01-28 18:20:48.45	114.76	3.85	-45.1	-63.6	3.8	8.47e-01	0	58	104	0	60	32588
2026-01-28 18:20:49.46	114.68	3.78	-45.1	-63.6	3.8	8.47e-01	0	58	104	0	60	32628
2026-01-28 18:20:50.47	114.61	3.70	-45.1	-63.5	3.8	8.47e-01	0	58	104	0	60	32435
2026-01-28 18:20:51.48	114.53	3.63	-45.1	-63.5	3.8	8.46e-01	0	58	104	0	60	32548
2026-01-28 18:20:52.49	114.46	3.56	-45.1	-63.6	3.8	8.46e-01	0	58	104	0	60	32581
2026-01-28 18:20:53.50	114.38	3.49	-45.1	-63.5	3.8	8.46e-01	0	58	104	0	60	32513
2026-01-28 18:20:54.51	114.31	3.42	-45.1	-63.6	3.8	8.45e-01	0	58	104	0	60	32606
2026-01-28 18:20:55.53	114.24	3.35	-45.1	-63.5	3.8	8.46e-01	0	58	104	0	60	32484
2026-01-28 18:20:56.54	114.17	3.28	-45.1	-63.5	3.8	8.46e-01	0	58	104	0	60	32550
2026-01-28 18:20:57.55	114.10	3.21	-45.1	-63.6	3.8	8.46e-01	0	58	104	0	60	32668
2026-01-28 18:20:58.56	114.02	3.14	-45.1	-63.6	3.8	8.46e-01	0	58	104	0	60	32575
2026-01-28 18:20:59.57	113.95	3.07	-45.1	-63.5	3.8	8.45e-01	0	58	104	0	60	32484
2026-01-28 18:21:00.58	113.88	3.00	-45.1	-63.6	3.8	8.45e-01	0	58	104	0	60	32584
2026-01-28 18:21:01.59	113.81	2.93	-45.1	-63.5	3.8	8.46e-01	0	58	104	0	60	32451
2026-01-28 18:21:02.60	113.75	2.86	-45.1	-63.5	3.8	8.47e-01	0	58	104	0	60	32350
2026-01-28 18:21:03.61	113.68	2.79	-45.1	-63.5	3.8	8.47e-01	0	58	104	0	60	32399
2026-01-28 18:21:04.62	113.61	2.72	-45.1	-63.5	3.8	8.46e-01	0	58	104	0	60	32432
2026-01-28 18:21:05.63	113.54	2.65	-45.1	-63.5	3.8	8.45e-01	0	58	104	0	60	32300
2026-01-28 18:21:06.64	113.48	2.59	-45.1	-63.5	3.8	8.45e-01	0	58	104	0	60	32251
2026-01-28 18:21:07.65	113.41	2.52	-45.1	-63.5	3.8	8.46e-01	0	58	104	0	60	32230
2026-01-28 18:21:08.66	113.34	2.45	-45.1	-63.5	3.8	8.46e-01	0	58	104	0	60	32358
2026-01-28 18:21:09.67	113.28	2.38	-45.1	-63.5	3.8	8.46e-01	0	58	104	0	60	32317
2026-01-28 18:21:10.68	113.21	2.32	-45.1	-63.5	3.8	8.47e-01	0	58	104	0	60	32284
2026-01-28 18:21:11.69	113.15	2.25	-45.1	-63.5	3.8	8.47e-01	0	58	104	0	60	32245
2026-01-28 18:21:12.70	113.08	2.18	-45.1	-63.5	3.8	8.46e-01	0	58	104	0	60	32329
2026-01-28 18:21:13.71	113.02	2.12	-45.1	-63.5	3.8	8.46e-01	0	58	104	0	60	32480
2026-01-28 18:21:14.73	112.96	2.05	-45.1	-63.5	3.8	8.46e-01	0	58	104	0	60	32374
2026-01-28 18:21:15.74	112.89	1.98	-45.1	-63.5	3.8	8.45e-01	0	58	104	0	60	32428
2026-01-28 18:21:16.75	112.83	1.92	-45.1	-63.5	3.8	8.45e-01	0	58	104	0	60	32478

#Closed at: 2026-01-28 18:21:17
#Recorded file [0 MB]: D:/lorett/data/31039_260128_211209.dat