passes_logs/2026/01/28/R2.0S_Moscow/R2.0S_Moscow__20260128_084219_SUOMI_NPP_rec.log

#Pass ID: 20260128_084219_SUOMI NPP
#Satellite: SUOMI NPP
#Configuration: NPP
#almurnet v.1.7.20251203
#Start time: 2026-01-28 08:42:21

#Version: 2.2.20231116
#Station: R2.0S_Moscow
#Location: 37.707566 lon 55.798166 lat
#TLE: 1 37849U 11061A   26027.86188320  .00000172  00000+0  10275-3 0  9990
#TLE: 2 37849  98.7823 329.8005 0002088  41.4184 318.7150 14.19530883738530

#Time	Az	El	Level	Level2	SNR	BER	BlckErr	Temp	State	Recorded	gain1	gain2
2026-01-28 08:42:21.00	122.69	2.11	-13.3	-40.5	3.6	1.51e+00	0	51	0	0	4	57313
2026-01-28 08:42:22.00	122.64	2.17	-19.2	-42.1	3.6	1.51e+00	0	51	104	0	5	65328
2026-01-28 08:42:23.01	122.58	2.23	-13.1	-40.1	3.6	1.52e+00	0	51	104	0	2	61361
2026-01-28 08:42:24.02	122.53	2.29	-19.1	-41.6	3.4	1.51e+00	0	51	104	0	4	65535
2026-01-28 08:42:25.03	122.47	2.35	-19.8	-42.1	3.7	1.52e+00	0	51	104	0	5	65531
2026-01-28 08:42:26.04	122.42	2.41	-19.3	-41.6	3.5	1.52e+00	0	51	104	0	4	65535
2026-01-28 08:42:27.05	122.37	2.47	-12.4	-39.6	3.4	1.53e+00	0	51	104	0	0	65260
2026-01-28 08:42:28.06	122.31	2.53	-10.2	-38.1	4.1	1.51e+00	0	51	104	0	0	54872
2026-01-28 08:42:29.07	122.26	2.60	-19.0	-42.6	3.7	1.52e+00	0	51	104	0	6	65535
2026-01-28 08:42:30.08	122.20	2.66	-13.3	-39.6	3.3	1.53e+00	0	51	104	0	0	65535
2026-01-28 08:42:31.09	122.14	2.72	-9.5	-38.5	3.7	1.52e+00	0	52	104	0	0	57327
2026-01-28 08:42:32.10	122.09	2.78	-14.2	-43.6	3.9	1.52e+00	0	52	104	0	9	61490
2026-01-28 08:42:33.12	122.03	2.84	-15.0	-40.5	3.7	1.53e+00	0	52	104	0	4	57452
2026-01-28 08:42:34.13	121.98	2.90	-19.5	-41.6	3.5	1.52e+00	0	52	104	0	4	65535
2026-01-28 08:42:35.13	121.92	2.96	-15.9	-43.1	3.7	1.52e+00	0	52	104	0	7	65535
2026-01-28 08:42:36.14	121.86	3.03	-20.8	-44.1	3.6	1.53e+00	0	52	104	0	9	65535
2026-01-28 08:42:37.16	121.80	3.09	-19.4	-42.5	5.1	1.53e+00	0	52	104	0	6	64924
2026-01-28 08:42:38.17	121.75	3.15	-8.9	-40.4	4.7	1.53e+00	0	52	104	0	4	57163
2026-01-28 08:42:39.18	121.69	3.21	-19.4	-42.1	3.5	1.52e+00	0	52	104	0	5	65535
2026-01-28 08:42:40.19	121.63	3.27	-10.2	-38.9	3.7	1.52e+00	0	52	104	0	0	60199
2026-01-28 08:42:41.20	121.57	3.34	-17.4	-41.9	3.9	1.51e+00	0	52	104	0	5	63924
2026-01-28 08:42:42.21	121.51	3.40	-15.7	-40.8	3.4	1.51e+00	0	52	104	0	3	63409
2026-01-28 08:42:43.22	121.46	3.46	-18.5	-40.6	3.5	1.52e+00	0	52	104	0	2	65148
2026-01-28 08:42:44.23	121.40	3.52	-18.2	-41.6	3.7	1.52e+00	0	52	104	0	4	65301
2026-01-28 08:42:45.24	121.34	3.59	-15.9	-42.1	3.7	1.52e+00	0	52	104	0	5	65535
2026-01-28 08:42:46.25	121.28	3.65	-16.2	-41.2	3.7	1.52e+00	0	53	104	0	4	62213
2026-01-28 08:42:47.26	121.22	3.71	-19.0	-42.1	4.1	1.52e+00	0	53	104	0	5	65509
2026-01-28 08:42:48.27	121.16	3.78	-19.6	-42.1	3.5	1.51e+00	0	53	104	0	5	65394
2026-01-28 08:42:49.28	121.10	3.84	-15.1	-39.6	3.8	1.52e+00	0	53	104	0	0	65535
2026-01-28 08:42:50.30	121.04	3.90	-14.0	-38.8	3.6	1.52e+00	0	53	104	0	0	59461
2026-01-28 08:42:51.30	120.98	3.97	-17.0	-39.0	4.1	1.51e+00	0	53	104	0	1	57531
2026-01-28 08:42:52.32	120.92	4.03	-13.9	-40.1	3.5	1.52e+00	0	53	104	0	2	61531
2026-01-28 08:42:53.33	120.85	4.10	-17.1	-42.1	3.8	1.52e+00	0	53	104	0	5	65535
2026-01-28 08:42:54.34	120.79	4.16	-14.3	-39.6	3.6	1.51e+00	0	53	104	0	0	65532
2026-01-28 08:42:55.35	120.73	4.22	-10.6	-41.0	3.5	1.52e+00	0	53	104	0	5	57881
2026-01-28 08:42:56.36	120.67	4.29	-15.5	-41.6	3.6	1.52e+00	0	53	104	0	4	65535
2026-01-28 08:42:57.37	120.61	4.35	-16.9	-42.1	3.8	1.52e+00	0	53	104	0	5	65535
2026-01-28 08:42:58.38	120.54	4.42	-16.4	-39.3	3.7	1.52e+00	0	53	104	0	3	52978
2026-01-28 08:42:59.39	120.48	4.48	-17.6	-40.1	3.4	1.51e+00	0	53	104	0	1	65535
2026-01-28 08:43:00.40	120.42	4.54	-10.6	-41.7	4.1	1.52e+00	0	54	104	0	6	58672
2026-01-28 08:43:01.41	120.35	4.61	-14.3	-39.5	3.3	1.52e+00	0	54	104	0	0	64729
2026-01-28 08:43:02.42	120.29	4.67	-10.5	-40.6	3.5	1.51e+00	0	53	104	0	2	64982
2026-01-28 08:43:03.43	120.22	4.74	-18.5	-40.6	4.7	1.51e+00	0	54	104	0	2	65535
2026-01-28 08:43:04.44	120.16	4.80	-12.0	-40.3	3.4	1.51e+00	0	54	104	0	2	63224
2026-01-28 08:43:05.46	120.09	4.87	-17.2	-41.6	3.5	1.52e+00	0	54	104	0	4	65529
2026-01-28 08:43:06.47	120.03	4.94	-18.0	-40.1	3.5	1.52e+00	0	54	104	0	1	65535
2026-01-28 08:43:07.47	119.96	5.00	-15.2	-42.7	3.9	1.51e+00	0	54	104	0	7	62636
2026-01-28 08:43:08.49	119.90	5.07	-11.5	-39.6	3.5	1.51e+00	0	54	104	0	0	65172
2026-01-28 08:43:09.50	119.83	5.13	-16.4	-40.5	3.8	1.52e+00	0	54	104	0	2	64604
2026-01-28 08:43:10.51	119.77	5.20	-18.7	-42.6	5.7	1.50e+00	0	54	104	0	6	65534
2026-01-28 08:43:11.52	119.70	5.26	-9.2	-38.5	3.7	1.51e+00	0	54	104	0	0	57638
2026-01-28 08:43:12.53	119.63	5.33	-13.2	-40.5	3.6	1.50e+00	0	54	104	0	2	64676
2026-01-28 08:43:13.54	119.56	5.40	-17.8	-42.6	3.8	1.51e+00	0	54	104	0	6	65535
2026-01-28 08:43:14.55	119.50	5.46	-22.8	-43.1	3.7	1.51e+00	0	54	104	0	7	65520
2026-01-28 08:43:15.56	119.43	5.53	-13.5	-42.6	3.8	1.51e+00	0	54	104	0	7	61882
2026-01-28 08:43:16.57	119.36	5.60	-21.5	-43.1	3.8	1.51e+00	0	54	104	0	7	65535
2026-01-28 08:43:17.58	119.29	5.66	-19.1	-42.6	3.8	1.51e+00	0	54	104	0	6	65529
2026-01-28 08:43:18.59	119.22	5.73	-12.2	-40.8	4.0	1.52e+00	0	54	104	0	6	53152
2026-01-28 08:43:19.60	119.15	5.80	-12.0	-42.1	3.5	1.51e+00	0	55	104	0	6	61515
2026-01-28 08:43:20.61	119.08	5.86	-11.0	-39.9	-2.8	1.52e+00	0	54	104	0	5	50441
2026-01-28 08:43:21.62	119.01	5.93	-16.4	-42.8	3.8	1.51e+00	0	55	104	0	7	62977
2026-01-28 08:43:22.63	118.94	6.00	-21.5	-44.6	3.9	1.51e+00	0	55	104	0	11	61413
2026-01-28 08:43:23.64	118.87	6.07	-18.7	-42.1	3.7	1.51e+00	0	54	104	0	5	65519
2026-01-28 08:43:24.65	118.80	6.13	-11.6	-40.4	3.6	1.51e+00	0	55	104	0	3	59948
2026-01-28 08:43:25.66	118.73	6.20	-18.9	-43.6	3.9	1.51e+00	0	55	104	0	8	65535
2026-01-28 08:43:26.67	118.66	6.27	-21.9	-43.1	4.6	1.51e+00	0	55	104	0	7	65535
2026-01-28 08:43:27.68	118.59	6.34	-11.3	-38.6	3.4	1.51e+00	0	55	104	0	0	58001
2026-01-28 08:43:28.69	118.51	6.41	-21.0	-43.1	3.6	1.51e+00	0	55	0	0	7	65522
2026-01-28 08:43:29.71	118.44	6.48	-18.8	-42.4	3.9	1.51e+00	0	55	104	0	7	60307
2026-01-28 08:43:30.72	118.37	6.54	-14.9	-41.4	3.7	1.51e+00	0	55	104	0	6	56744
2026-01-28 08:43:31.73	118.30	6.61	-7.5	-38.7	3.4	1.52e+00	0	55	104	0	0	58820
2026-01-28 08:43:32.74	118.22	6.68	-19.0	-41.2	3.7	1.51e+00	0	55	104	0	5	58622
2026-01-28 08:43:33.75	118.15	6.75	-12.7	-40.7	3.6	1.51e+00	0	55	104	0	3	62254
2026-01-28 08:43:34.76	118.07	6.82	-19.5	-42.6	3.6	1.52e+00	0	55	104	0	6	65535
2026-01-28 08:43:35.77	118.00	6.89	-16.2	-40.1	4.0	1.52e+00	0	55	104	0	1	65535
2026-01-28 08:43:36.78	117.92	6.96	-17.3	-40.6	3.5	1.52e+00	0	55	104	0	2	65535
2026-01-28 08:43:37.79	117.85	7.03	-20.8	-41.1	3.5	1.52e+00	0	55	104	0	3	65533
2026-01-28 08:43:38.80	117.77	7.10	-20.0	-40.1	3.6	1.52e+00	0	55	104	0	1	65535
2026-01-28 08:43:39.81	117.69	7.17	-15.3	-39.7	3.8	1.52e+00	0	55	104	0	1	62470
2026-01-28 08:43:40.82	117.62	7.24	-9.1	-39.3	3.6	1.51e+00	0	55	104	0	1	59417
2026-01-28 08:43:41.83	117.54	7.31	-18.6	-42.1	3.7	1.51e+00	0	55	104	0	5	65166
2026-01-28 08:43:42.84	117.46	7.38	-19.5	-42.0	3.9	1.52e+00	0	55	104	0	6	60905
2026-01-28 08:43:43.85	117.39	7.45	-15.7	-39.5	3.7	1.51e+00	0	55	104	0	0	64451
2026-01-28 08:43:44.86	117.31	7.52	-9.5	-40.1	4.1	1.51e+00	0	56	104	0	2	61429
2026-01-28 08:43:45.87	117.23	7.59	-19.8	-41.9	4.4	1.50e+00	0	55	104	0	5	63632
2026-01-28 08:43:46.88	117.15	7.66	-16.6	-42.5	4.5	1.49e+00	0	55	104	0	8	57230
2026-01-28 08:43:47.90	117.07	7.73	-18.7	-42.1	4.3	1.46e+00	0	56	104	0	5	65374
2026-01-28 08:43:48.91	116.99	7.80	-17.8	-40.2	4.7	1.46e+00	0	56	104	0	5	52617
2026-01-28 08:43:49.92	116.91	7.87	-14.7	-41.8	4.0	1.48e+00	0	55	104	0	6	59749
2026-01-28 08:43:50.93	116.83	7.94	-10.9	-37.6	4.1	1.48e+00	0	56	104	0	1	48812
2026-01-28 08:43:51.94	116.75	8.02	-19.1	-42.1	4.2	1.50e+00	0	56	104	0	5	65535
2026-01-28 08:43:52.95	116.67	8.09	-19.4	-44.1	3.9	1.51e+00	0	56	104	0	9	65500
2026-01-28 08:43:53.96	116.58	8.16	-17.4	-41.6	4.5	1.52e+00	0	56	104	0	4	65521
2026-01-28 08:43:54.97	116.50	8.23	-20.1	-43.1	3.8	1.48e+00	0	56	0	0	7	65535
2026-01-28 08:43:55.98	116.42	8.30	-14.4	-44.0	3.6	1.53e+00	0	56	104	0	9	64597
2026-01-28 08:43:56.99	116.34	8.38	-20.1	-42.9	4.6	1.47e+00	0	56	104	0	8	59993
2026-01-28 08:43:58.00	116.25	8.45	-19.4	-42.0	4.4	1.48e+00	0	56	104	0	6	61190
2026-01-28 08:43:59.01	116.17	8.52	-16.5	-43.1	4.4	1.44e+00	0	56	104	0	10	55236
2026-01-28 08:44:00.02	116.08	8.59	-19.6	-42.1	4.6	1.46e+00	0	56	104	0	5	65535
2026-01-28 08:44:01.03	116.00	8.67	-18.6	-44.5	4.6	1.48e+00	0	56	104	0	10	64732
2026-01-28 08:44:02.04	115.91	8.74	-20.2	-44.4	4.4	1.48e+00	0	56	104	0	10	63853
2026-01-28 08:44:03.05	115.83	8.81	-16.4	-42.1	3.6	1.51e+00	0	56	104	0	5	65535
2026-01-28 08:44:04.06	115.74	8.89	-18.1	-43.1	4.2	1.51e+00	0	56	104	0	7	65440
2026-01-28 08:44:05.07	115.66	8.96	-15.9	-41.6	3.7	1.49e+00	0	56	104	0	4	65535
2026-01-28 08:44:06.08	115.57	9.03	-13.9	-39.9	3.8	1.50e+00	0	56	104	0	1	63972
2026-01-28 08:44:07.09	115.48	9.11	-18.3	-41.6	3.9	1.50e+00	0	56	104	0	4	65520
2026-01-28 08:44:08.10	115.39	9.18	-19.2	-41.6	4.1	1.50e+00	0	56	104	0	4	65529
2026-01-28 08:44:09.11	115.31	9.25	-15.2	-41.4	4.3	1.50e+00	0	56	104	0	7	53872
2026-01-28 08:44:10.12	115.22	9.33	-16.6	-42.5	3.6	1.51e+00	0	56	104	0	6	64386
2026-01-28 08:44:11.13	115.13	9.40	-24.0	-46.6	4.4	1.48e+00	0	56	104	0	14	65318
2026-01-28 08:44:12.14	115.04	9.48	-22.8	-46.7	3.6	1.50e+00	0	56	104	0	15	62227
2026-01-28 08:44:13.15	114.95	9.55	-19.1	-43.1	3.6	1.51e+00	0	56	104	0	7	65509
2026-01-28 08:44:14.16	114.86	9.63	-18.1	-42.1	3.8	1.52e+00	0	56	104	0	5	65535
2026-01-28 08:44:15.17	114.77	9.70	-14.5	-42.5	3.7	1.51e+00	0	56	104	0	6	64273
2026-01-28 08:44:16.18	114.67	9.78	-20.5	-41.1	3.7	1.52e+00	0	56	104	0	3	65535
2026-01-28 08:44:17.19	114.58	9.85	-16.0	-42.1	3.7	1.51e+00	0	56	104	0	5	65021
2026-01-28 08:44:18.20	114.49	9.93	-18.3	-45.6	3.8	1.52e+00	0	56	104	0	13	61608
2026-01-28 08:44:19.21	114.40	10.00	-19.7	-48.9	4.0	1.50e+00	0	57	104	0	23	50968
2026-01-28 08:44:20.22	114.30	10.08	-26.8	-50.5	4.1	1.50e+00	0	57	104	0	22	64858
2026-01-28 08:44:21.23	114.21	10.16	-20.1	-45.1	4.0	1.52e+00	0	57	104	0	11	65535
2026-01-28 08:44:22.24	114.11	10.23	-16.3	-43.4	3.7	1.52e+00	0	56	104	0	8	63806
2026-01-28 08:44:23.25	114.02	10.31	-19.1	-44.1	3.7	1.52e+00	0	57	104	0	9	65084
2026-01-28 08:44:24.26	113.92	10.38	-20.9	-45.6	3.8	1.52e+00	0	57	104	0	12	65535
2026-01-28 08:44:25.27	113.83	10.46	-18.7	-39.9	3.7	1.51e+00	0	57	104	0	4	53516
2026-01-28 08:44:26.28	113.73	10.54	-24.4	-47.7	4.2	1.49e+00	0	57	104	0	21	49430
2026-01-28 08:44:27.29	113.63	10.61	-31.7	-56.0	3.8	1.31e+00	0	57	104	0	34	61185
2026-01-28 08:44:28.30	113.53	10.69	-28.7	-47.9	5.9	1.43e+00	0	57	0	0	30	30089
2026-01-28 08:44:29.31	113.44	10.77	-26.5	-49.7	4.2	1.44e+00	0	57	104	1048576	23	55394
2026-01-28 08:44:30.32	113.34	10.85	-30.6	-48.5	5.7	1.11e+00	0	57	0	1048576	31	30601
2026-01-28 08:44:31.33	113.24	10.92	-25.7	-47.9	6.1	6.73e-01	0	57	0	3145728	31	28628
2026-01-28 08:44:32.33	113.14	11.00	-30.0	-47.1	6.3	5.66e-01	0	57	0	4194304	29	29091
2026-01-28 08:44:33.35	113.04	11.08	-29.8	-46.6	7.3	3.23e-01	0	57	0	6291456	32	23212
2026-01-28 08:44:34.36	112.94	11.16	-31.3	-45.2	8.0	2.31e-01	0	57	0	8388608	31	20883
2026-01-28 08:44:35.37	112.83	11.24	-31.9	-45.6	7.7	1.68e-01	0	57	0	10485760	31	21785
2026-01-28 08:44:36.38	112.73	11.31	-31.7	-45.7	6.5	2.22e-01	0	57	0	11534336	30	23437
2026-01-28 08:44:37.39	112.63	11.39	-33.6	-46.8	8.5	1.57e-01	0	57	0	13631488	36	18901
2026-01-28 08:44:38.40	112.53	11.47	-26.1	-46.5	7.8	1.90e-01	0	57	0	15728640	31	24395
2026-01-28 08:44:39.41	112.42	11.55	-34.0	-48.0	7.7	1.83e-01	0	57	0	17825792	39	18232
2026-01-28 08:44:40.42	112.32	11.63	-33.9	-47.6	8.3	1.67e-01	0	57	0	19922944	37	19501
2026-01-28 08:44:41.43	112.21	11.71	-30.9	-46.6	8.9	1.27e-01	0	57	0	20971520	38	16412
2026-01-28 08:44:42.44	112.11	11.79	-34.9	-45.9	9.5	8.02e-02	0	57	0	23068672	40	13551
2026-01-28 08:44:43.45	112.00	11.87	-35.5	-45.6	10.5	5.41e-02	0	57	0	25165824	41	12357
2026-01-28 08:44:44.46	111.90	11.95	-34.7	-45.6	10.3	8.04e-02	0	57	0	27262976	41	12309
2026-01-28 08:44:45.47	111.79	12.03	-37.2	-46.4	10.0	3.96e-02	0	57	0	29360128	45	10734
2026-01-28 08:44:46.48	111.68	12.11	-37.3	-46.8	9.9	4.31e-02	0	57	0	31457280	46	10629
2026-01-28 08:44:47.49	111.57	12.19	-39.2	-47.3	9.7	3.44e-02	0	57	0	32505856	48	10053
2026-01-28 08:44:48.50	111.46	12.27	-39.2	-47.0	10.0	2.65e-02	0	57	0	34603008	49	9128
2026-01-28 08:44:49.51	111.35	12.35	-39.8	-46.5	10.7	2.17e-02	0	57	0	36700160	50	8100
2026-01-28 08:44:50.52	111.24	12.43	-38.3	-45.9	11.3	6.96e-03	0	57	0	38797312	50	7559
2026-01-28 08:44:51.53	111.13	12.51	-40.6	-46.3	11.0	4.11e-03	0	57	0	40894464	51	7461
2026-01-28 08:44:52.54	111.02	12.59	-38.3	-45.7	11.2	3.42e-03	0	57	0	41943040	49	7852
2026-01-28 08:44:53.55	110.91	12.67	-40.7	-45.9	11.3	1.34e-03	0	57	0	44040192	52	6792
2026-01-28 08:44:54.57	110.79	12.75	-38.6	-46.1	11.2	1.65e-03	0	57	0	46137344	50	7727
2026-01-28 08:44:55.57	110.68	12.83	-41.1	-45.9	11.4	9.05e-04	0	58	0	48234496	51	7196
2026-01-28 08:44:56.58	110.57	12.92	-38.9	-45.3	11.7	1.03e-03	0	58	0	50331648	50	7095
2026-01-28 08:44:57.59	110.45	13.00	-41.0	-45.2	12.1	6.73e-04	0	58	0	51380224	52	6265
2026-01-28 08:44:58.60	110.34	13.08	-40.8	-45.1	12.2	2.59e-04	0	58	0	53477376	52	6160
2026-01-28 08:44:59.61	110.22	13.16	-41.1	-45.1	12.3	7.99e-04	0	58	0	55574528	52	6151
2026-01-28 08:45:00.63	110.10	13.24	-38.8	-45.2	12.2	2.72e-04	0	58	0	57671680	51	6608
2026-01-28 08:45:01.64	109.99	13.33	-41.0	-45.4	11.8	6.19e-04	0	58	0	59768832	52	6396
2026-01-28 08:45:02.65	109.87	13.41	-39.2	-46.0	11.3	5.57e-03	0	57	0	60817408	50	7689
2026-01-28 08:45:03.66	109.75	13.49	-40.5	-45.6	11.8	1.21e-03	0	58	0	62914560	52	6502
2026-01-28 08:45:04.67	109.63	13.57	-40.2	-45.8	11.5	1.65e-03	0	58	0	65011712	50	7518
2026-01-28 08:45:05.68	109.51	13.66	-41.3	-45.6	11.8	1.02e-03	0	58	0	67108864	52	6535
2026-01-28 08:45:06.69	109.39	13.74	-41.1	-45.6	11.8	7.96e-04	0	58	0	69206016	52	6503
2026-01-28 08:45:07.70	109.27	13.82	-40.7	-45.5	11.8	1.04e-03	0	58	0	70254592	52	6472
2026-01-28 08:45:08.71	109.15	13.91	-41.2	-45.9	11.5	2.55e-03	0	58	0	72351744	51	7122
2026-01-28 08:45:09.72	109.02	13.99	-41.4	-46.2	9.8	1.57e-03	0	58	0	74448896	48	8827
2026-01-28 08:45:10.73	108.90	14.08	-41.5	-46.0	11.3	1.51e-03	0	58	0	76546048	53	6479
2026-01-28 08:45:11.74	108.78	14.16	-41.4	-45.8	11.6	1.85e-03	0	58	0	78643200	53	6293
2026-01-28 08:45:12.75	108.65	14.24	-40.4	-46.2	11.2	1.40e-03	0	58	0	79691776	53	6607
2026-01-28 08:45:13.76	108.52	14.33	-41.4	-46.2	11.3	1.64e-03	0	58	0	81788928	53	6574
2026-01-28 08:45:14.77	108.40	14.41	-41.8	-46.4	11.1	1.12e-03	0	58	0	83886080	54	6373
2026-01-28 08:45:15.78	108.27	14.50	-41.8	-46.6	10.8	1.92e-03	0	58	0	85983232	54	6562
2026-01-28 08:45:16.79	108.14	14.58	-41.8	-46.4	11.0	2.62e-03	0	58	0	88080384	54	6394
2026-01-28 08:45:17.80	108.01	14.67	-41.2	-46.3	11.1	1.59e-03	0	58	0	89128960	54	6312
2026-01-28 08:45:18.81	107.89	14.75	-41.5	-45.9	11.6	1.08e-03	0	58	0	91226112	53	6366
2026-01-28 08:45:19.81	107.76	14.84	-41.3	-45.3	12.2	6.94e-04	0	58	0	93323264	53	5967
2026-01-28 08:45:20.83	107.62	14.92	-41.6	-45.8	11.7	4.23e-04	0	58	0	95420416	53	6307
2026-01-28 08:45:21.83	107.49	15.01	-41.6	-45.9	11.5	7.25e-04	0	58	0	97517568	53	6412
2026-01-28 08:45:22.84	107.36	15.09	-41.6	-45.8	11.7	4.38e-04	0	58	0	99614720	53	6318
2026-01-28 08:45:23.85	107.23	15.18	-41.6	-45.9	11.6	6.89e-04	0	58	0	100663296	53	6380
2026-01-28 08:45:24.86	107.09	15.26	-41.5	-45.5	12.0	5.06e-04	0	58	0	102760448	53	6080
2026-01-28 08:45:25.87	106.96	15.35	-41.3	-45.1	12.4	2.07e-04	0	58	0	104857600	53	5832
2026-01-28 08:45:26.88	106.82	15.44	-41.4	-45.3	12.3	1.58e-04	0	58	0	106954752	53	5955
2026-01-28 08:45:27.89	106.69	15.52	-41.2	-44.9	12.7	9.61e-05	0	58	0	109051904	53	5688
2026-01-28 08:45:28.90	106.55	15.61	-41.3	-45.2	12.4	1.09e-04	0	58	0	110100480	53	5860
2026-01-28 08:45:29.91	106.41	15.70	-41.4	-45.3	12.3	1.72e-04	0	58	0	112197632	53	5937
2026-01-28 08:45:30.92	106.27	15.78	-41.3	-45.1	12.5	1.72e-04	0	58	0	114294784	53	5813
2026-01-28 08:45:31.93	106.13	15.87	-41.4	-45.1	12.4	1.63e-04	0	58	0	116391936	53	5850
2026-01-28 08:45:32.94	105.99	15.96	-40.9	-44.3	13.3	9.68e-05	0	58	0	118489088	53	5288
2026-01-28 08:45:33.95	105.85	16.04	-40.9	-44.3	13.4	1.98e-05	0	58	0	119537664	53	5285
2026-01-28 08:45:34.96	105.71	16.13	-41.0	-44.3	13.3	1.22e-05	0	58	0	121634816	53	5339
2026-01-28 08:45:35.98	105.57	16.22	-41.0	-44.4	13.2	2.36e-05	0	58	0	123731968	52	5720
2026-01-28 08:45:36.99	105.42	16.31	-41.2	-44.8	12.9	4.19e-05	0	58	0	125829120	52	5949
2026-01-28 08:45:38.00	105.28	16.39	-41.1	-44.7	13.0	4.42e-05	0	58	0	127926272	52	5890
2026-01-28 08:45:39.01	105.13	16.48	-40.9	-44.4	13.3	1.75e-05	0	58	0	128974848	52	5693
2026-01-28 08:45:40.02	104.99	16.57	-40.7	-44.2	13.5	1.37e-05	0	58	0	131072000	52	5536
2026-01-28 08:45:41.03	104.84	16.66	-40.7	-43.9	13.8	1.52e-05	0	58	0	133169152	52	5360
2026-01-28 08:45:42.04	104.69	16.75	-40.9	-44.4	13.3	1.44e-05	0	58	0	135266304	52	5667
2026-01-28 08:45:43.04	104.54	16.83	-41.2	-44.9	12.8	4.19e-05	0	58	0	137363456	52	6006
2026-01-28 08:45:44.05	104.39	16.92	-40.4	-44.9	12.8	5.34e-05	0	58	0	139460608	52	5997
2026-01-28 08:45:45.06	104.24	17.01	-40.4	-44.8	12.9	6.71e-05	0	58	0	140509184	52	5929
2026-01-28 08:45:46.07	104.09	17.10	-40.5	-44.5	13.1	5.49e-05	0	58	0	142606336	52	5759
2026-01-28 08:45:47.08	103.94	17.19	-40.9	-44.2	13.5	1.60e-05	0	58	0	144703488	52	5570
2026-01-28 08:45:48.09	103.78	17.28	-40.8	-44.3	13.4	1.44e-05	0	58	0	146800640	52	5615
2026-01-28 08:45:49.10	103.63	17.37	-40.9	-44.3	13.4	2.67e-05	0	58	0	148897792	52	5651
2026-01-28 08:45:50.11	103.48	17.46	-41.1	-44.7	13.0	4.50e-05	0	58	0	149946368	52	5896
2026-01-28 08:45:51.12	103.32	17.54	-41.2	-44.8	12.9	6.79e-05	0	58	0	152043520	52	5981
2026-01-28 08:45:52.13	103.16	17.63	-40.9	-44.8	12.9	2.67e-05	0	58	0	154140672	52	5926
2026-01-28 08:45:53.14	103.00	17.72	-41.0	-44.6	13.1	3.05e-05	0	59	0	156237824	52	5803
2026-01-28 08:45:54.15	102.84	17.81	-40.6	-44.6	13.1	2.28e-05	0	58	0	157286400	52	5826
2026-01-28 08:45:55.16	102.68	17.90	-41.0	-44.6	13.1	3.50e-05	0	58	0	159383552	52	5797
2026-01-28 08:45:56.17	102.52	17.99	-41.1	-44.7	13.0	4.11e-05	0	59	0	161480704	52	5880
2026-01-28 08:45:57.18	102.36	18.08	-41.0	-45.0	12.8	8.46e-05	0	58	0	163577856	52	6080
2026-01-28 08:45:58.19	102.20	18.17	-41.3	-45.0	12.7	1.26e-04	0	58	0	165675008	53	5780
2026-01-28 08:45:59.20	102.03	18.26	-41.1	-44.8	13.1	5.64e-05	0	58	0	167772160	52	5944
2026-01-28 08:46:00.21	101.87	18.35	-41.0	-44.3	13.4	1.75e-05	0	59	0	168820736	52	5648
2026-01-28 08:46:01.22	101.70	18.44	-40.9	-44.1	13.7	6.80e-06	0	59	0	170917888	52	5486
2026-01-28 08:46:02.23	101.54	18.53	-40.8	-44.2	13.5	1.06e-05	0	59	0	173015040	52	5534
2026-01-28 08:46:03.24	101.37	18.62	-41.0	-44.4	13.3	9.90e-06	0	59	0	175112192	52	5712
2026-01-28 08:46:04.25	101.20	18.71	-41.3	-44.9	12.8	4.27e-05	0	59	0	177209344	53	5683
2026-01-28 08:46:05.26	101.03	18.80	-41.2	-44.8	12.9	4.65e-05	0	59	0	178257920	53	5622
2026-01-28 08:46:06.27	100.86	18.89	-41.0	-44.4	13.3	1.06e-05	0	59	0	180355072	53	5362
2026-01-28 08:46:07.28	100.69	18.98	-41.0	-44.3	13.4	7.60e-06	0	58	0	182452224	53	5310
2026-01-28 08:46:08.29	100.51	19.08	-41.2	-44.7	13.0	1.29e-05	0	59	0	184549376	53	5574
2026-01-28 08:46:09.30	100.34	19.17	-41.5	-45.3	12.5	7.85e-05	0	59	0	186646528	53	5938
2026-01-28 08:46:10.31	100.17	19.26	-41.4	-45.3	12.4	1.76e-04	0	59	0	187695104	53	5951
2026-01-28 08:46:11.32	99.99	19.35	-41.4	-45.2	12.5	1.85e-04	0	59	0	189792256	53	5889
2026-01-28 08:46:12.33	99.81	19.44	-41.4	-45.0	12.7	9.46e-05	0	59	0	191889408	53	5771
2026-01-28 08:46:13.34	99.63	19.53	-41.3	-44.8	12.9	4.80e-05	0	59	0	193986560	53	5651
2026-01-28 08:46:14.35	99.45	19.62	-41.4	-45.1	12.6	3.20e-05	0	59	0	196083712	53	5852
2026-01-28 08:46:15.36	99.27	19.71	-41.8	-45.9	11.9	2.90e-04	0	59	0	197132288	54	6026
2026-01-28 08:46:16.37	99.09	19.80	-41.8	-46.0	11.8	7.35e-04	0	59	0	199229440	54	6072
2026-01-28 08:46:17.38	98.91	19.89	-41.7	-45.8	11.9	5.18e-04	0	59	0	201326592	54	5961
2026-01-28 08:46:18.39	98.73	19.98	-41.4	-45.2	12.6	2.74e-04	0	59	0	203423744	54	5551
2026-01-28 08:46:19.40	98.54	20.08	-41.3	-44.8	12.9	6.10e-05	0	59	0	205520896	54	5328
2026-01-28 08:46:20.41	98.36	20.17	-41.4	-45.0	12.8	4.04e-05	0	59	0	207618048	54	5417
2026-01-28 08:46:21.42	98.17	20.26	-40.9	-45.2	12.6	5.41e-05	0	59	0	208666624	53	5856
2026-01-28 08:46:22.43	97.98	20.35	-41.5	-45.5	12.3	1.52e-04	0	59	0	210763776	53	6090
2026-01-28 08:46:23.44	97.79	20.44	-41.6	-45.5	12.2	1.88e-04	0	59	0	212860928	53	6122
2026-01-28 08:46:24.45	97.60	20.53	-41.5	-45.3	12.4	2.55e-04	0	59	0	214958080	53	5966
2026-01-28 08:46:25.46	97.41	20.62	-41.5	-45.3	12.4	1.75e-04	0	59	0	217055232	53	5952
2026-01-28 08:46:26.47	97.22	20.71	-41.6	-45.4	12.3	1.37e-04	0	59	0	218103808	53	6059
2026-01-28 08:46:27.48	97.02	20.80	-41.7	-45.7	12.1	2.82e-04	0	59	0	220200960	54	5899
2026-01-28 08:46:28.49	96.83	20.90	-41.6	-45.7	12.1	3.49e-04	0	59	0	222298112	54	5871
2026-01-28 08:46:29.50	96.63	20.99	-41.8	-45.8	11.9	3.36e-04	0	59	0	224395264	54	5987
2026-01-28 08:46:30.51	96.43	21.08	-41.6	-45.6	12.2	4.42e-04	0	59	0	226492416	54	5796
2026-01-28 08:46:31.52	96.24	21.17	-41.5	-45.3	12.6	1.30e-04	0	59	0	227540992	54	5607
2026-01-28 08:46:32.53	96.04	21.26	-41.3	-45.2	12.6	1.11e-04	0	59	0	229638144	54	5532
2026-01-28 08:46:33.54	95.83	21.35	-41.3	-44.8	13.0	5.26e-05	0	59	0	231735296	54	5317
2026-01-28 08:46:34.55	95.63	21.44	-41.2	-44.6	13.2	3.66e-05	0	59	0	233832448	54	5182
2026-01-28 08:46:35.56	95.43	21.53	-41.0	-44.4	13.4	1.83e-05	0	59	0	235929600	54	5053
2026-01-28 08:46:36.57	95.23	21.62	-41.1	-44.5	13.3	1.29e-05	0	59	0	236978176	54	5101
2026-01-28 08:46:37.58	95.02	21.71	-41.3	-44.9	12.9	3.12e-05	0	59	0	239075328	54	5382
2026-01-28 08:46:38.59	94.81	21.80	-41.1	-44.7	13.1	2.74e-05	0	59	0	241172480	54	5247
2026-01-28 08:46:39.60	94.60	21.89	-41.2	-44.7	13.2	2.67e-05	0	59	0	243269632	54	5264
2026-01-28 08:46:40.61	94.40	21.98	-41.2	-44.8	13.0	2.36e-05	0	59	0	245366784	54	5298
2026-01-28 08:46:41.62	94.18	22.07	-41.5	-45.2	12.6	4.27e-05	0	59	0	246415360	54	5563
2026-01-28 08:46:42.63	93.97	22.17	-41.4	-45.2	12.6	1.62e-04	0	59	0	248512512	54	5532
2026-01-28 08:46:43.64	93.76	22.26	-41.5	-45.2	12.5	9.53e-05	0	59	0	250609664	54	5585
2026-01-28 08:46:44.65	93.55	22.35	-41.3	-44.9	12.8	6.56e-05	0	59	0	252706816	54	5385
2026-01-28 08:46:45.66	93.33	22.44	-41.0	-44.3	13.4	1.90e-05	0	59	0	254803968	54	5018
2026-01-28 08:46:46.67	93.11	22.53	-41.0	-44.3	13.4	2.59e-05	0	59	0	255852544	53	5324
2026-01-28 08:46:47.68	92.89	22.61	-41.0	-44.4	13.4	9.90e-06	0	59	0	257949696	53	5356
2026-01-28 08:46:48.69	92.68	22.70	-40.8	-44.1	13.6	6.10e-06	0	59	0	260046848	53	5196
2026-01-28 08:46:49.69	92.46	22.79	-40.7	-43.9	13.8	6.80e-06	0	59	0	262144000	53	5066
2026-01-28 08:46:50.70	92.24	22.88	-40.3	-43.2	14.6	2.20e-06	0	59	0	264241152	52	4927
2026-01-28 08:46:51.71	92.01	22.97	-40.2	-42.9	14.8	0.00e+00	0	59	0	265289728	52	4795
2026-01-28 08:46:52.72	91.79	23.06	-40.2	-42.9	14.8	0.00e+00	0	59	0	267386880	52	4808
2026-01-28 08:46:53.73	91.56	23.15	-40.3	-43.2	14.5	0.00e+00	0	59	0	269484032	52	4943
2026-01-28 08:46:54.74	91.33	23.24	-40.4	-43.3	14.4	7.00e-07	0	59	0	271581184	52	5039
2026-01-28 08:46:55.75	91.11	23.33	-40.4	-43.3	14.5	0.00e+00	0	59	0	273678336	52	5015
2026-01-28 08:46:56.76	90.88	23.41	-40.6	-43.6	14.2	7.00e-07	0	59	0	275775488	52	5180
2026-01-28 08:46:57.77	90.65	23.50	-40.5	-43.4	14.4	4.50e-06	0	59	0	276824064	52	5095
2026-01-28 08:46:58.78	90.41	23.59	-40.7	-43.8	14.0	3.80e-06	0	59	0	278921216	52	5321
2026-01-28 08:46:59.79	90.18	23.68	-40.8	-43.9	13.9	3.00e-06	0	59	0	281018368	52	5368
2026-01-28 08:47:00.80	89.95	23.76	-40.8	-44.0	13.9	4.50e-06	0	59	0	283115520	52	5437
2026-01-28 08:47:01.81	89.71	23.85	-40.9	-44.1	13.8	6.80e-06	0	59	0	285212672	52	5481
2026-01-28 08:47:02.82	89.47	23.94	-40.8	-43.9	14.0	6.10e-06	0	59	0	286261248	52	5369
2026-01-28 08:47:03.83	89.23	24.03	-40.7	-43.9	14.0	2.20e-06	0	59	0	288358400	52	5341
2026-01-28 08:47:04.84	88.99	24.11	-40.7	-43.7	14.1	3.00e-06	0	59	0	290455552	52	5278
2026-01-28 08:47:05.85	88.75	24.20	-40.6	-43.6	14.3	0.00e+00	0	59	0	292552704	52	5170
2026-01-28 08:47:06.86	88.51	24.28	-40.4	-43.2	14.7	7.00e-07	0	59	0	294649856	52	4980
2026-01-28 08:47:07.87	88.26	24.37	-40.4	-43.3	14.6	0.00e+00	0	59	0	295698432	52	5004
2026-01-28 08:47:08.88	88.02	24.45	-40.3	-43.1	14.8	7.00e-07	0	59	0	297795584	52	4905
2026-01-28 08:47:09.89	87.77	24.54	-40.6	-43.5	14.4	7.00e-07	0	59	0	299892736	52	5127
2026-01-28 08:47:10.90	87.52	24.62	-40.6	-43.6	14.3	0.00e+00	0	59	0	301989888	52	5182
2026-01-28 08:47:11.91	87.27	24.71	-40.5	-43.5	14.5	7.00e-07	0	59	0	304087040	52	5101
2026-01-28 08:47:12.92	87.02	24.79	-40.7	-43.7	14.2	0.00e+00	0	59	0	305135616	52	5256
2026-01-28 08:47:13.93	86.77	24.88	-40.7	-43.7	14.2	7.00e-07	0	59	0	307232768	52	5248
2026-01-28 08:47:14.94	86.52	24.96	-40.5	-43.5	14.4	1.50e-06	0	59	0	309329920	52	5108
2026-01-28 08:47:15.95	86.26	25.04	-40.4	-43.2	14.7	0.00e+00	0	59	0	311427072	52	4954
2026-01-28 08:47:16.96	86.01	25.12	-40.5	-43.4	14.5	0.00e+00	0	59	0	313524224	52	5060
2026-01-28 08:47:17.97	85.75	25.21	-40.5	-43.4	14.5	0.00e+00	0	59	0	314572800	52	5084
2026-01-28 08:47:18.98	85.49	25.29	-40.6	-43.6	14.3	7.00e-07	0	59	0	316669952	52	5200
2026-01-28 08:47:19.99	85.23	25.37	-40.4	-43.3	14.6	0.00e+00	0	59	0	318767104	52	4985
2026-01-28 08:47:21.01	84.97	25.45	-40.3	-43.0	14.9	0.00e+00	0	59	0	320864256	52	4830
2026-01-28 08:47:22.02	84.70	25.53	-40.3	-43.1	14.8	0.00e+00	0	60	0	322961408	52	4882
2026-01-28 08:47:23.03	84.44	25.61	-40.4	-43.3	14.5	0.00e+00	0	59	0	324009984	52	5024
2026-01-28 08:47:24.04	84.17	25.69	-40.6	-43.7	14.2	7.00e-07	0	59	0	326107136	52	5222
2026-01-28 08:47:25.05	83.91	25.77	-40.7	-43.8	14.0	7.00e-07	0	59	0	328204288	52	5332
2026-01-28 08:47:26.06	83.64	25.85	-40.8	-44.1	13.7	1.50e-06	0	59	0	330301440	52	5485
2026-01-28 08:47:27.06	83.37	25.93	-41.0	-44.3	13.5	8.30e-06	0	59	0	332398592	52	5653
2026-01-28 08:47:28.07	83.10	26.01	-41.1	-44.5	13.3	1.60e-05	0	59	0	333447168	52	5762
2026-01-28 08:47:29.09	82.83	26.09	-41.1	-44.6	13.2	2.13e-05	0	59	0	335544320	52	5844
2026-01-28 08:47:30.10	82.55	26.16	-40.9	-44.2	13.7	5.30e-06	0	59	0	337641472	52	5541
2026-01-28 08:47:31.11	82.28	26.24	-40.8	-44.1	13.7	3.00e-06	0	59	0	339738624	52	5504
2026-01-28 08:47:32.12	82.00	26.31	-40.8	-44.0	13.9	6.10e-06	0	59	0	341835776	52	5405
2026-01-28 08:47:33.13	81.72	26.39	-40.9	-44.1	13.7	5.30e-06	0	59	0	343932928	52	5520
2026-01-28 08:47:34.13	81.45	26.46	-40.7	-43.8	14.1	4.50e-06	0	59	0	344981504	52	5290
2026-01-28 08:47:35.15	81.16	26.54	-40.7	-43.8	14.1	3.00e-06	0	59	0	347078656	52	5310
2026-01-28 08:47:36.16	80.88	26.61	-40.8	-44.1	13.8	7.00e-07	0	60	0	349175808	52	5522
2026-01-28 08:47:37.17	80.60	26.69	-40.8	-44.1	13.8	3.80e-06	0	59	0	351272960	52	5493
2026-01-28 08:47:38.18	80.32	26.76	-40.9	-44.3	13.6	1.06e-05	0	59	0	353370112	52	5600
2026-01-28 08:47:39.19	80.03	26.83	-41.0	-44.4	13.5	9.90e-06	0	59	0	354418688	52	5716
2026-01-28 08:47:40.20	79.74	26.90	-41.0	-44.4	13.4	1.60e-05	0	59	0	356515840	52	5714
2026-01-28 08:47:41.21	79.46	26.97	-40.8	-44.1	13.9	8.30e-06	0	60	0	358612992	52	5480
2026-01-28 08:47:42.22	79.17	27.04	-40.8	-44.0	13.9	1.50e-06	0	59	0	360710144	52	5437
2026-01-28 08:47:43.23	78.88	27.11	-40.8	-44.0	14.0	2.20e-06	0	60	0	362807296	52	5436
2026-01-28 08:47:44.24	78.58	27.18	-40.9	-44.2	13.7	5.30e-06	0	59	0	363855872	52	5567
2026-01-28 08:47:45.25	78.29	27.25	-41.0	-44.3	13.6	6.10e-06	0	59	0	365953024	52	5637
2026-01-28 08:47:46.26	78.00	27.32	-41.1	-44.6	13.3	9.90e-06	0	60	0	368050176	52	5831
2026-01-28 08:47:47.27	77.70	27.39	-41.1	-44.5	13.4	7.60e-06	0	60	0	370147328	52	5736
2026-01-28 08:47:48.28	77.40	27.45	-41.2	-44.8	13.1	9.90e-06	0	60	0	372244480	53	5636
2026-01-28 08:47:49.29	77.11	27.52	-41.3	-45.0	13.0	3.50e-05	0	60	0	373293056	53	5769
2026-01-28 08:47:50.30	76.81	27.58	-41.2	-44.7	13.2	5.26e-05	0	59	0	375390208	53	5588
2026-01-28 08:47:51.31	76.51	27.65	-40.9	-44.2	13.7	1.83e-05	0	60	0	377487360	53	5264
2026-01-28 08:47:52.32	76.20	27.71	-40.9	-44.1	13.8	3.00e-06	0	59	0	379584512	53	5214
2026-01-28 08:47:53.33	75.90	27.77	-40.9	-44.1	13.9	3.80e-06	0	59	0	381681664	53	5188
2026-01-28 08:47:54.34	75.60	27.83	-41.0	-44.2	13.7	3.80e-06	0	60	0	382730240	53	5278
2026-01-28 08:47:55.35	75.29	27.90	-40.8	-44.0	14.0	2.20e-06	0	60	0	384827392	53	5128
2026-01-28 08:47:56.36	74.98	27.96	-40.7	-43.7	14.3	7.00e-07	0	59	0	386924544	53	4971
2026-01-28 08:47:57.37	74.68	28.02	-40.6	-43.6	14.4	7.00e-07	0	60	0	389021696	53	4908
2026-01-28 08:47:58.38	74.37	28.07	-40.6	-43.6	14.4	7.00e-07	0	60	0	391118848	53	4881
2026-01-28 08:47:59.39	74.06	28.13	-40.7	-43.8	14.1	7.00e-07	0	60	0	392167424	53	5038
2026-01-28 08:48:00.40	73.75	28.19	-40.7	-43.8	14.1	7.00e-07	0	59	0	394264576	53	5033
2026-01-28 08:48:01.41	73.44	28.25	-40.9	-44.2	13.8	2.20e-06	0	60	0	396361728	53	5231
2026-01-28 08:48:02.42	73.12	28.30	-40.9	-44.2	13.8	7.60e-06	0	60	0	398458880	53	5237
2026-01-28 08:48:03.43	72.81	28.36	-41.0	-44.4	13.6	1.14e-05	0	59	0	400556032	53	5343
2026-01-28 08:48:04.44	72.49	28.41	-41.0	-44.3	13.6	1.22e-05	0	60	0	401604608	53	5335
2026-01-28 08:48:05.45	72.18	28.46	-40.9	-44.2	13.8	3.80e-06	0	59	0	403701760	53	5219
2026-01-28 08:48:06.46	71.86	28.52	-40.7	-43.8	14.2	7.00e-07	0	60	0	405798912	53	5040
2026-01-28 08:48:07.47	71.54	28.57	-40.9	-44.0	13.9	0.00e+00	0	60	0	407896064	53	5155
2026-01-28 08:48:08.48	71.22	28.62	-40.9	-44.1	14.0	5.30e-06	0	60	0	409993216	53	5165
2026-01-28 08:48:09.50	70.90	28.67	-40.8	-43.9	14.1	7.00e-07	0	60	0	412090368	53	5057
2026-01-28 08:48:10.51	70.58	28.72	-40.6	-43.6	14.4	3.80e-06	0	60	0	413138944	53	4918
2026-01-28 08:48:11.52	70.25	28.76	-41.0	-44.4	13.7	2.20e-06	0	60	0	415236096	53	5343
2026-01-28 08:48:12.53	69.93	28.81	-41.3	-44.8	13.3	6.80e-06	0	60	0	417333248	53	5598
2026-01-28 08:48:13.54	69.61	28.86	-41.3	-44.9	13.1	2.36e-05	0	60	0	419430400	53	5703
2026-01-28 08:48:14.54	69.28	28.90	-41.5	-45.2	12.8	3.66e-05	0	60	0	421527552	53	5867
2026-01-28 08:48:15.55	68.96	28.94	-41.9	-46.0	11.9	2.05e-04	0	60	0	422576128	54	6075
2026-01-28 08:48:16.56	68.63	28.99	-41.9	-46.2	11.8	6.77e-04	0	60	0	424673280	54	6230
2026-01-28 08:48:17.57	68.30	29.03	-42.1	-46.4	11.5	9.38e-04	0	60	0	426770432	54	6417
2026-01-28 08:48:18.58	67.97	29.07	-42.1	-46.5	11.5	5.68e-04	0	60	0	428867584	54	6469
2026-01-28 08:48:19.59	67.65	29.11	-42.0	-46.2	11.8	4.49e-04	0	60	0	430964736	54	6229
2026-01-28 08:48:20.60	67.32	29.15	-42.1	-46.4	11.6	4.90e-04	0	60	0	432013312	54	6366
2026-01-28 08:48:21.61	66.98	29.19	-42.1	-46.5	11.5	7.00e-04	0	60	0	434110464	54	6430
2026-01-28 08:48:22.62	66.65	29.22	-42.1	-46.6	11.4	9.99e-04	0	60	0	436207616	54	6520
2026-01-28 08:48:23.63	66.32	29.26	-42.1	-46.6	11.4	1.13e-03	0	60	0	438304768	54	6534
2026-01-28 08:48:24.64	65.99	29.29	-42.0	-46.3	11.8	5.95e-04	0	60	0	440401920	54	6277
2026-01-28 08:48:25.65	65.65	29.33	-41.9	-46.0	12.0	2.95e-04	0	60	0	441450496	54	6081
2026-01-28 08:48:26.66	65.32	29.36	-41.7	-45.7	12.3	1.82e-04	0	60	0	443547648	54	5905
2026-01-28 08:48:27.67	64.98	29.39	-41.5	-45.2	12.8	9.76e-05	0	60	0	445644800	54	5590
2026-01-28 08:48:28.68	64.65	29.42	-41.5	-45.1	13.0	4.65e-05	0	60	0	447741952	54	5495
2026-01-28 08:48:29.68	64.31	29.45	-41.6	-45.3	12.7	5.18e-05	0	60	0	449839104	54	5639
2026-01-28 08:48:30.69	63.98	29.48	-41.8	-45.8	12.3	1.18e-04	0	60	0	450887680	54	5956
2026-01-28 08:48:31.70	63.64	29.51	-41.9	-46.2	11.9	4.23e-04	0	60	0	452984832	54	6239
2026-01-28 08:48:32.72	63.30	29.53	-42.1	-46.6	11.4	9.10e-04	0	60	0	455081984	54	6527
2026-01-28 08:48:33.72	62.96	29.56	-42.1	-46.5	11.5	1.05e-03	0	60	0	457179136	54	6478
2026-01-28 08:48:34.73	62.62	29.58	-41.9	-46.1	12.0	3.77e-04	0	60	0	459276288	54	6138
2026-01-28 08:48:35.74	62.28	29.60	-41.7	-45.6	12.3	1.48e-04	0	60	0	460324864	54	5847
2026-01-28 08:48:36.76	61.94	29.63	-41.6	-45.4	12.5	1.37e-04	0	60	0	462422016	54	5719
2026-01-28 08:48:37.76	61.60	29.65	-41.9	-46.2	11.8	4.59e-04	0	60	0	464519168	54	6232
2026-01-28 08:48:38.77	61.26	29.67	-42.1	-46.7	11.3	1.02e-03	0	60	0	466616320	54	6631
2026-01-28 08:48:39.79	60.91	29.69	-42.4	-47.4	10.6	2.20e-03	0	60	0	468713472	55	6729
2026-01-28 08:48:40.80	60.57	29.70	-42.2	-46.9	11.0	3.50e-03	0	60	0	469762048	55	6411
2026-01-28 08:48:41.81	60.23	29.72	-42.0	-46.4	11.6	9.96e-04	0	60	0	471859200	55	6024
2026-01-28 08:48:42.82	59.89	29.73	-41.8	-45.8	12.2	5.60e-04	0	60	0	473956352	55	5625
2026-01-28 08:48:43.83	59.54	29.75	-41.5	-45.2	12.9	1.33e-04	0	60	0	476053504	55	5234
2026-01-28 08:48:44.84	59.20	29.76	-41.1	-44.4	13.7	1.52e-05	0	60	0	478150656	54	5079
2026-01-28 08:48:45.85	58.86	29.77	-40.9	-44.1	14.0	3.80e-06	0	60	0	480247808	53	5186
2026-01-28 08:48:46.86	58.51	29.78	-40.9	-44.2	13.9	3.00e-06	0	60	0	481296384	53	5234
2026-01-28 08:48:47.87	58.17	29.79	-41.3	-44.9	13.1	1.44e-05	0	60	0	483393536	53	5722
2026-01-28 08:48:48.88	57.83	29.80	-41.7	-45.7	12.4	7.40e-05	0	60	0	485490688	53	6209
2026-01-28 08:48:49.89	57.48	29.81	-41.8	-45.8	12.2	1.91e-04	0	60	0	487587840	54	5981
2026-01-28 08:48:50.90	57.14	29.81	-41.9	-46.0	12.1	2.41e-04	0	60	0	489684992	54	6072
2026-01-28 08:48:51.91	56.79	29.82	-41.8	-45.8	12.3	2.04e-04	0	60	0	490733568	54	5949
2026-01-28 08:48:52.92	56.45	29.82	-42.0	-46.2	12.0	2.09e-04	0	60	0	492830720	54	6218
2026-01-28 08:48:53.93	56.10	29.82	-42.1	-46.3	11.8	3.19e-04	0	60	0	494927872	54	6308
2026-01-28 08:48:54.94	55.76	29.82	-42.0	-46.0	12.1	4.30e-04	0	60	0	497025024	54	6118
2026-01-28 08:48:55.95	55.42	29.82	-41.9	-45.8	12.3	2.23e-04	0	60	0	499122176	54	5963
2026-01-28 08:48:56.96	55.07	29.82	-41.5	-45.0	13.1	5.56e-05	0	60	0	500170752	54	5462
2026-01-28 08:48:57.97	54.73	29.82	-41.4	-44.8	13.3	1.44e-05	0	60	0	502267904	54	5324
2026-01-28 08:48:58.98	54.38	29.82	-41.4	-45.0	13.2	1.37e-05	0	60	0	504365056	54	5416
2026-01-28 08:48:59.99	54.04	29.81	-41.7	-45.5	12.6	5.11e-05	0	60	0	506462208	54	5775
2026-01-28 08:49:01.00	53.69	29.81	-42.0	-46.1	12.0	2.17e-04	0	60	0	508559360	54	6165
2026-01-28 08:49:02.01	53.35	29.80	-41.9	-46.0	12.1	2.12e-04	0	60	0	509607936	54	6105
2026-01-28 08:49:03.02	53.00	29.79	-41.8	-45.8	12.3	1.69e-04	0	60	0	511705088	54	5924
2026-01-28 08:49:04.03	52.66	29.78	-41.7	-45.5	12.6	5.26e-05	0	60	0	513802240	54	5750
2026-01-28 08:49:05.04	52.32	29.77	-41.6	-45.2	12.9	4.27e-05	0	60	0	515899392	54	5561
2026-01-28 08:49:06.05	51.97	29.76	-41.3	-44.7	13.4	2.44e-05	0	60	0	517996544	54	5278
2026-01-28 08:49:07.06	51.63	29.75	-41.4	-44.8	13.3	7.60e-06	0	60	0	520093696	54	5323
2026-01-28 08:49:08.07	51.29	29.73	-41.4	-44.9	13.2	1.75e-05	0	60	0	521142272	54	5392
2026-01-28 08:49:09.08	50.95	29.72	-41.8	-45.8	12.2	6.56e-05	0	60	0	523239424	54	5984
2026-01-28 08:49:10.09	50.60	29.70	-41.9	-45.9	12.2	8.54e-05	0	60	0	525336576	54	6002
2026-01-28 08:49:11.10	50.26	29.69	-41.8	-45.8	12.4	1.30e-04	0	60	0	527433728	54	5932
2026-01-28 08:49:12.11	49.92	29.67	-41.5	-45.2	12.9	3.81e-05	0	60	0	529530880	54	5567
2026-01-28 08:49:13.11	49.58	29.65	-41.4	-44.9	13.2	3.28e-05	0	60	0	530579456	54	5393
2026-01-28 08:49:14.12	49.24	29.63	-41.3	-44.7	13.4	1.52e-05	0	60	0	532676608	54	5271
2026-01-28 08:49:15.13	48.90	29.61	-41.2	-44.5	13.6	1.52e-05	0	60	0	534773760	54	5146
2026-01-28 08:49:16.14	48.56	29.58	-41.2	-44.6	13.6	5.30e-06	0	60	0	536870912	54	5177
2026-01-28 08:49:17.15	48.22	29.56	-41.4	-44.9	13.2	1.44e-05	0	60	0	538968064	54	5372
2026-01-28 08:49:18.16	47.89	29.53	-41.1	-44.5	13.6	8.30e-06	0	60	0	540016640	54	5115
2026-01-28 08:49:19.17	47.55	29.51	-41.1	-44.4	13.7	9.90e-06	0	60	0	542113792	54	5056
2026-01-28 08:49:20.18	47.21	29.48	-40.8	-43.9	14.2	0.00e+00	0	60	0	544210944	53	5072
2026-01-28 08:49:21.19	46.87	29.45	-40.8	-43.9	14.3	0.00e+00	0	60	0	546308096	53	5047
2026-01-28 08:49:22.20	46.54	29.42	-40.8	-43.8	14.3	1.50e-06	0	60	0	548405248	53	5020
2026-01-28 08:49:23.21	46.20	29.39	-40.8	-43.9	14.2	0.00e+00	0	60	0	549453824	53	5085
2026-01-28 08:49:24.22	45.87	29.36	-41.0	-44.2	13.8	3.80e-06	0	60	0	551550976	53	5270
2026-01-28 08:49:25.23	45.53	29.33	-41.0	-44.3	13.8	6.10e-06	0	60	0	553648128	53	5281
2026-01-28 08:49:26.24	45.20	29.30	-41.0	-44.2	13.9	6.10e-06	0	60	0	555745280	53	5270
2026-01-28 08:49:27.25	44.87	29.26	-41.2	-44.6	13.5	6.10e-06	0	60	0	557842432	53	5486
2026-01-28 08:49:28.26	44.53	29.23	-41.3	-44.8	13.3	1.14e-05	0	60	0	558891008	53	5609
2026-01-28 08:49:29.27	44.20	29.19	-41.6	-45.3	12.8	2.21e-05	0	60	0	560988160	53	5973
2026-01-28 08:49:30.28	43.87	29.15	-41.6	-45.3	12.9	7.85e-05	0	60	0	563085312	53	5969
2026-01-28 08:49:31.29	43.54	29.11	-41.5	-45.2	12.9	4.95e-05	0	60	0	565182464	53	5875
2026-01-28 08:49:32.30	43.21	29.07	-41.5	-45.0	13.1	3.81e-05	0	60	0	567279616	53	5765
2026-01-28 08:49:33.31	42.89	29.03	-41.1	-44.3	13.8	8.30e-06	0	60	0	568328192	53	5319
2026-01-28 08:49:34.32	42.56	28.99	-40.9	-44.1	14.1	3.00e-06	0	60	0	570425344	53	5163
2026-01-28 08:49:35.33	42.23	28.95	-41.1	-44.3	13.8	1.50e-06	0	60	0	572522496	53	5300
2026-01-28 08:49:36.34	41.91	28.90	-41.3	-44.7	13.4	1.14e-05	0	60	0	574619648	53	5589
2026-01-28 08:49:37.35	41.58	28.86	-41.6	-45.3	12.8	1.98e-05	0	60	0	576716800	53	5956
2026-01-28 08:49:38.36	41.26	28.81	-41.8	-45.6	12.6	1.13e-04	0	60	0	577765376	54	5795
2026-01-28 08:49:39.37	40.94	28.77	-41.6	-45.3	12.8	7.01e-05	0	60	0	579862528	54	5616
2026-01-28 08:49:40.38	40.61	28.72	-41.6	-45.1	13.1	4.04e-05	0	60	0	581959680	54	5507
2026-01-28 08:49:41.39	40.29	28.67	-41.4	-44.9	13.2	2.21e-05	0	60	0	584056832	54	5368
2026-01-28 08:49:42.40	39.97	28.62	-41.6	-45.1	13.0	2.89e-05	0	60	0	586153984	54	5525
2026-01-28 08:49:43.41	39.65	28.57	-41.6	-45.3	12.8	5.11e-05	0	60	0	588251136	54	5648
2026-01-28 08:49:44.42	39.34	28.52	-41.7	-45.5	12.7	1.27e-04	0	60	0	589299712	54	5748
2026-01-28 08:49:45.43	39.02	28.47	-41.8	-45.7	12.4	7.47e-05	0	60	0	591396864	54	5888
2026-01-28 08:49:46.44	38.70	28.42	-42.0	-46.0	12.1	3.01e-04	0	60	0	593494016	54	6075
2026-01-28 08:49:47.45	38.39	28.36	-41.8	-45.7	12.4	1.72e-04	0	59	0	595591168	54	5900
2026-01-28 08:49:48.46	38.08	28.31	-41.7	-45.4	12.8	8.77e-05	0	60	0	597688320	54	5667
2026-01-28 08:49:49.47	37.76	28.25	-41.6	-45.2	12.9	4.11e-05	0	60	0	598736896	54	5586
2026-01-28 08:49:50.48	37.45	28.20	-41.7	-45.5	12.6	6.02e-05	0	60	0	600834048	54	5767
2026-01-28 08:49:51.49	37.14	28.14	-42.1	-46.4	11.5	2.78e-04	0	60	0	602931200	54	6391
2026-01-28 08:49:52.50	36.83	28.08	-42.4	-47.0	11.0	1.46e-03	0	60	0	605028352	55	6452
2026-01-28 08:49:53.51	36.53	28.02	-42.5	-47.2	10.8	2.30e-03	0	60	0	607125504	55	6617
2026-01-28 08:49:54.52	36.22	27.96	-42.5	-47.3	10.8	2.40e-03	0	60	0	608174080	55	6670
2026-01-28 08:49:55.53	35.91	27.90	-42.4	-47.1	11.0	2.49e-03	0	60	0	610271232	55	6497
2026-01-28 08:49:56.54	35.61	27.84	-42.6	-47.6	10.3	3.57e-03	0	60	0	612368384	55	6958
2026-01-28 08:49:57.55	35.31	27.78	-42.9	-48.1	10.1	7.32e-03	0	60	0	614465536	56	6894
2026-01-28 08:49:58.56	35.00	27.72	-42.8	-48.0	10.1	4.45e-03	0	60	0	616562688	56	6855
2026-01-28 08:49:59.57	34.70	27.66	-42.8	-47.9	10.3	6.01e-03	0	60	0	617611264	56	6772
2026-01-28 08:50:00.58	34.40	27.59	-42.8	-47.9	10.3	4.25e-03	0	60	0	619708416	56	6735
2026-01-28 08:50:01.59	34.10	27.53	-42.7	-47.8	10.3	6.16e-03	0	60	0	621805568	56	6712
2026-01-28 08:50:02.60	33.81	27.46	-42.5	-47.4	10.7	3.56e-03	0	60	0	623902720	56	6364
2026-01-28 08:50:03.61	33.51	27.40	-42.2	-46.5	11.6	1.04e-03	0	60	0	625999872	56	5770
2026-01-28 08:50:04.62	33.22	27.33	-41.8	-45.8	12.2	2.42e-04	0	60	0	627048448	55	5619
2026-01-28 08:50:05.63	32.92	27.26	-41.5	-45.3	12.8	1.19e-04	0	60	0	629145600	55	5304
2026-01-28 08:50:06.64	32.63	27.19	-41.3	-44.8	13.2	2.97e-05	0	60	0	631242752	54	5320
2026-01-28 08:50:07.65	32.34	27.12	-41.0	-44.3	13.8	4.50e-06	0	60	0	633339904	53	5292
2026-01-28 08:50:08.66	32.05	27.06	-40.6	-43.6	14.5	2.20e-06	0	60	0	635437056	53	4922
2026-01-28 08:50:09.67	31.76	26.99	-40.5	-43.4	14.7	0.00e+00	0	60	0	636485632	53	4787
2026-01-28 08:50:10.68	31.47	26.91	-40.4	-43.3	14.8	0.00e+00	0	60	0	638582784	52	5026
2026-01-28 08:50:11.69	31.19	26.84	-40.8	-43.9	14.2	0.00e+00	0	60	0	640679936	52	5370
2026-01-28 08:50:12.70	30.90	26.77	-40.9	-44.1	14.0	7.00e-07	0	60	0	642777088	52	5465
2026-01-28 08:50:13.71	30.62	26.70	-40.7	-43.8	14.3	7.00e-07	0	60	0	644874240	52	5299
2026-01-28 08:50:14.72	30.34	26.63	-40.6	-43.5	14.5	0.00e+00	0	60	0	645922816	52	5157
2026-01-28 08:50:15.73	30.06	26.55	-40.9	-44.1	13.9	7.00e-07	0	60	0	648019968	52	5522
2026-01-28 08:50:16.74	29.78	26.48	-41.1	-44.4	13.7	6.10e-06	0	60	0	650117120	52	5695
2026-01-28 08:50:17.75	29.50	26.40	-41.5	-45.2	12.9	1.52e-05	0	60	0	652214272	53	5865
2026-01-28 08:50:18.76	29.22	26.33	-41.4	-45.1	13.0	7.24e-05	0	60	0	654311424	53	5794
2026-01-28 08:50:19.77	28.95	26.25	-41.4	-45.1	13.0	3.89e-05	0	60	0	656408576	53	5806
2026-01-28 08:50:20.78	28.67	26.18	-41.3	-44.8	13.2	2.82e-05	0	60	0	657457152	53	5624
2026-01-28 08:50:21.79	28.40	26.10	-41.4	-45.0	13.0	2.67e-05	0	60	0	659554304	53	5768
2026-01-28 08:50:22.80	28.13	26.02	-41.7	-45.6	12.5	7.01e-05	0	60	0	661651456	53	6171
2026-01-28 08:50:23.81	27.86	25.95	-42.0	-46.3	11.8	2.98e-04	0	60	0	663748608	54	6317
2026-01-28 08:50:24.82	27.59	25.87	-42.0	-46.2	11.8	5.29e-04	0	60	0	665845760	54	6265
2026-01-28 08:50:25.83	27.32	25.79	-42.2	-46.6	11.5	6.97e-04	0	60	0	666894336	54	6552
2026-01-28 08:50:26.84	27.06	25.71	-42.1	-46.6	11.5	1.11e-03	0	60	0	668991488	55	6136
2026-01-28 08:50:27.85	26.79	25.63	-41.9	-46.0	12.0	5.86e-04	0	60	0	671088640	55	5764
2026-01-28 08:50:28.86	26.53	25.55	-41.6	-45.3	12.7	1.74e-04	0	60	0	673185792	55	5291
2026-01-28 08:50:29.87	26.27	25.47	-41.2	-44.6	13.5	1.98e-05	0	60	0	675282944	54	5180
2026-01-28 08:50:30.88	26.01	25.39	-41.0	-44.2	13.9	2.20e-06	0	60	0	676331520	53	5230
2026-01-28 08:50:31.89	25.75	25.31	-40.6	-43.5	14.6	7.00e-07	0	60	0	678428672	53	4843
2026-01-28 08:50:32.90	25.49	25.23	-40.6	-43.5	14.6	0.00e+00	0	60	0	680525824	53	4851
2026-01-28 08:50:33.91	25.23	25.15	-40.6	-43.6	14.5	0.00e+00	0	60	0	682622976	53	4916
2026-01-28 08:50:34.92	24.98	25.06	-40.7	-43.7	14.3	3.80e-06	0	60	0	684720128	53	4973
2026-01-28 08:50:35.93	24.73	24.98	-40.5	-43.4	14.7	7.00e-07	0	60	0	685768704	53	4770
2026-01-28 08:50:36.94	24.47	24.90	-40.4	-43.2	14.8	7.00e-07	0	60	0	687865856	52	4972
2026-01-28 08:50:37.95	24.22	24.81	-40.3	-43.0	15.1	0.00e+00	0	60	0	689963008	52	4843
2026-01-28 08:50:38.96	23.97	24.73	-40.2	-43.0	15.1	0.00e+00	0	60	0	692060160	52	4845
2026-01-28 08:50:39.97	23.72	24.65	-40.1	-42.8	15.2	0.00e+00	0	60	0	694157312	52	4741
2026-01-28 08:50:40.98	23.48	24.56	-40.3	-43.1	14.9	0.00e+00	0	60	0	695205888	52	4880
2026-01-28 08:50:41.99	23.23	24.48	-40.2	-42.9	15.1	0.00e+00	0	60	0	697303040	52	4804
2026-01-28 08:50:43.00	22.99	24.39	-40.1	-42.8	15.2	0.00e+00	0	60	0	699400192	52	4755
2026-01-28 08:50:44.01	22.74	24.31	-40.1	-42.7	15.3	0.00e+00	0	60	0	701497344	51	4982
2026-01-28 08:50:45.02	22.50	24.22	-40.1	-42.7	15.4	0.00e+00	0	60	0	703594496	51	4975
2026-01-28 08:50:46.03	22.26	24.14	-40.0	-42.6	15.5	0.00e+00	0	60	0	704643072	51	4904
2026-01-28 08:50:47.04	22.02	24.05	-40.0	-42.6	15.6	0.00e+00	0	60	0	706740224	51	4873
2026-01-28 08:50:48.05	21.78	23.96	-40.3	-43.0	15.1	0.00e+00	0	60	0	708837376	51	5127
2026-01-28 08:50:49.06	21.55	23.88	-40.4	-43.2	14.9	0.00e+00	0	60	0	710934528	51	5267
2026-01-28 08:50:50.07	21.31	23.79	-40.6	-43.6	14.6	0.00e+00	0	60	0	713031680	51	5496
2026-01-28 08:50:51.08	21.08	23.70	-40.7	-43.8	14.2	1.50e-06	0	60	0	714080256	52	5337
2026-01-28 08:50:52.09	20.85	23.62	-40.7	-43.9	14.2	7.00e-07	0	60	0	716177408	52	5345
2026-01-28 08:50:53.10	20.61	23.53	-40.7	-43.8	14.2	7.00e-07	0	60	0	718274560	52	5306
2026-01-28 08:50:54.11	20.38	23.44	-40.7	-43.8	14.3	0.00e+00	0	60	0	720371712	52	5287
2026-01-28 08:50:55.12	20.16	23.36	-40.6	-43.7	14.3	2.20e-06	0	60	0	722468864	52	5229
2026-01-28 08:50:56.13	19.93	23.27	-40.6	-43.7	14.3	1.50e-06	0	60	0	724566016	52	5255
2026-01-28 08:50:57.14	19.70	23.18	-40.5	-43.4	14.6	0.00e+00	0	60	0	725614592	52	5077
2026-01-28 08:50:58.15	19.48	23.09	-40.5	-43.5	14.7	7.00e-07	0	60	0	727711744	52	5130
2026-01-28 08:50:59.16	19.25	23.00	-40.4	-43.3	14.7	0.00e+00	0	60	0	729808896	52	5001
2026-01-28 08:51:00.17	19.03	22.91	-40.3	-43.1	14.9	0.00e+00	0	60	0	731906048	52	4922
2026-01-28 08:51:01.18	18.81	22.82	-40.2	-42.9	15.1	0.00e+00	0	60	0	734003200	52	4795
2026-01-28 08:51:02.19	18.59	22.74	-40.0	-42.7	15.5	0.00e+00	0	60	0	735051776	51	4927
2026-01-28 08:51:03.20	18.37	22.65	-39.7	-42.3	15.8	0.00e+00	0	60	0	737148928	51	4732
2026-01-28 08:51:04.21	18.16	22.56	-39.6	-42.0	16.0	0.00e+00	0	60	0	739246080	51	4597
2026-01-28 08:51:05.22	17.94	22.47	-39.4	-41.9	16.2	0.00e+00	0	60	0	741343232	50	4786
2026-01-28 08:51:06.24	17.72	22.38	-39.4	-41.9	16.2	0.00e+00	0	60	0	743440384	50	4765
2026-01-28 08:51:07.25	17.51	22.29	-39.4	-42.0	16.1	0.00e+00	0	60	0	744488960	50	4815
2026-01-28 08:51:08.26	17.30	22.20	-39.6	-42.4	15.7	0.00e+00	0	60	0	746586112	50	5047
2026-01-28 08:51:09.27	17.09	22.11	-39.7	-42.7	15.3	0.00e+00	0	60	0	748683264	50	5269
2026-01-28 08:51:10.28	16.88	22.02	-39.8	-42.9	15.2	0.00e+00	0	60	0	750780416	50	5367
2026-01-28 08:51:11.29	16.67	21.93	-39.9	-43.1	14.9	0.00e+00	0	60	0	752877568	50	5521
2026-01-28 08:51:12.30	16.46	21.84	-40.1	-43.3	14.8	0.00e+00	0	60	0	753926144	50	5603
2026-01-28 08:51:13.31	16.26	21.75	-40.2	-43.3	14.7	0.00e+00	0	60	0	756023296	50	5630
2026-01-28 08:51:14.32	16.05	21.66	-40.1	-42.9	15.1	0.00e+00	0	60	0	758120448	50	5376
2026-01-28 08:51:15.33	15.85	21.57	-40.1	-43.0	15.0	0.00e+00	0	60	0	760217600	50	5460
2026-01-28 08:51:16.34	15.65	21.48	-39.9	-43.1	15.0	0.00e+00	0	60	0	762314752	50	5474
2026-01-28 08:51:17.35	15.45	21.39	-39.8	-43.1	15.0	0.00e+00	0	60	0	764411904	50	5488
2026-01-28 08:51:18.36	15.25	21.30	-39.8	-43.2	14.9	0.00e+00	0	60	0	765460480	50	5543
2026-01-28 08:51:19.37	15.05	21.21	-40.0	-43.2	14.8	0.00e+00	0	60	0	767557632	50	5536
2026-01-28 08:51:20.38	14.85	21.12	-40.3	-43.2	14.8	0.00e+00	0	60	0	769654784	51	5258
2026-01-28 08:51:21.39	14.65	21.03	-40.1	-42.9	15.1	0.00e+00	0	60	0	771751936	51	5085
2026-01-28 08:51:22.40	14.46	20.93	-40.0	-43.1	14.9	0.00e+00	0	60	0	773849088	51	5184
2026-01-28 08:51:23.41	14.26	20.84	-39.8	-43.2	14.8	0.00e+00	0	60	0	774897664	51	5230
2026-01-28 08:51:24.42	14.07	20.75	-39.8	-43.3	14.7	0.00e+00	0	60	0	776994816	51	5332
2026-01-28 08:51:25.43	13.88	20.66	-39.5	-42.9	15.1	7.00e-07	0	60	0	779091968	51	5079
2026-01-28 08:51:26.44	13.69	20.57	-39.5	-42.8	15.2	0.00e+00	0	60	0	781189120	51	5009
2026-01-28 08:51:27.45	13.50	20.48	-39.6	-42.8	15.2	0.00e+00	0	60	0	783286272	51	5015
2026-01-28 08:51:28.46	13.31	20.39	-39.4	-42.3	15.7	0.00e+00	0	60	0	784334848	50	5026
2026-01-28 08:51:29.47	13.13	20.30	-39.6	-42.3	15.6	0.00e+00	0	60	0	786432000	50	5036
2026-01-28 08:51:30.48	12.94	20.21	-39.5	-42.2	15.8	0.00e+00	0	60	0	788529152	50	4941
2026-01-28 08:51:31.49	12.75	20.12	-39.7	-42.4	15.6	0.00e+00	0	60	0	790626304	50	5091
2026-01-28 08:51:32.50	12.57	20.03	-40.0	-42.8	15.2	0.00e+00	0	60	0	792723456	50	5340
2026-01-28 08:51:33.51	12.39	19.94	-40.3	-43.4	14.6	0.00e+00	0	60	0	793772032	51	5344
2026-01-28 08:51:34.52	12.21	19.85	-40.4	-43.5	14.5	0.00e+00	0	60	0	795869184	51	5430
2026-01-28 08:51:35.53	12.03	19.76	-40.7	-43.9	14.2	0.00e+00	0	60	0	797966336	51	5714
2026-01-28 08:51:36.54	11.85	19.67	-40.7	-43.9	14.0	3.00e-06	0	60	0	800063488	52	5359
2026-01-28 08:51:37.55	11.67	19.58	-40.7	-43.8	14.1	2.20e-06	0	60	0	802160640	52	5299
2026-01-28 08:51:38.56	11.49	19.48	-40.7	-43.7	14.1	1.50e-06	0	60	0	803209216	52	5276
2026-01-28 08:51:39.57	11.31	19.39	-40.5	-43.4	14.5	7.00e-07	0	60	0	805306368	52	5073
2026-01-28 08:51:40.58	11.14	19.30	-40.2	-43.0	14.9	0.00e+00	0	60	0	807403520	52	4844
2026-01-28 08:51:41.59	10.97	19.21	-40.1	-42.8	15.2	0.00e+00	0	60	0	809500672	51	4990
2026-01-28 08:51:42.60	10.79	19.12	-40.0	-42.6	15.3	0.00e+00	0	60	0	811597824	51	4903
2026-01-28 08:51:43.61	10.62	19.03	-40.0	-42.6	15.4	0.00e+00	0	60	0	812646400	51	4886
2026-01-28 08:51:44.62	10.45	18.94	-40.1	-42.8	15.2	0.00e+00	0	60	0	814743552	51	4984
2026-01-28 08:51:45.63	10.28	18.85	-40.1	-42.8	15.2	0.00e+00	0	60	0	816840704	51	4987
2026-01-28 08:51:46.64	10.11	18.76	-40.4	-43.3	14.7	0.00e+00	0	60	0	818937856	51	5305
2026-01-28 08:51:47.65	9.94	18.67	-40.5	-43.5	14.5	0.00e+00	0	60	0	821035008	51	5415
2026-01-28 08:51:48.66	9.78	18.58	-40.7	-43.8	14.2	0.00e+00	0	60	0	822083584	51	5612
2026-01-28 08:51:49.67	9.61	18.49	-41.0	-44.2	13.6	6.10e-06	0	60	0	824180736	52	5591
2026-01-28 08:51:50.68	9.45	18.40	-41.2	-44.7	13.2	1.29e-05	0	60	0	826277888	52	5867
2026-01-28 08:51:51.69	9.28	18.31	-41.2	-44.7	13.1	3.50e-05	0	60	0	828375040	53	5586
2026-01-28 08:51:52.70	9.12	18.22	-41.4	-45.1	12.8	3.81e-05	0	60	0	830472192	53	5796
2026-01-28 08:51:53.70	8.96	18.14	-41.4	-45.2	12.7	7.40e-05	0	60	0	832569344	53	5883
2026-01-28 08:51:54.71	8.80	18.05	-41.1	-44.6	13.3	6.10e-05	0	60	0	833617920	53	5474
2026-01-28 08:51:55.72	8.64	17.96	-41.1	-44.6	13.3	2.36e-05	0	60	0	835715072	53	5484
2026-01-28 08:51:56.73	8.48	17.87	-41.0	-44.4	13.5	1.52e-05	0	60	0	837812224	53	5360
2026-01-28 08:51:57.74	8.32	17.78	-40.8	-44.1	13.7	2.20e-06	0	60	0	839909376	53	5172
2026-01-28 08:51:58.75	8.16	17.69	-40.8	-44.1	13.7	6.10e-06	0	60	0	842006528	53	5193
2026-01-28 08:51:59.76	8.01	17.60	-40.9	-44.2	13.6	6.80e-06	0	60	0	843055104	53	5238
2026-01-28 08:52:00.77	7.85	17.51	-40.9	-44.3	13.5	1.90e-05	0	60	0	845152256	53	5284
2026-01-28 08:52:01.78	7.70	17.42	-41.0	-44.5	13.3	1.44e-05	0	60	0	847249408	53	5417
2026-01-28 08:52:02.79	7.54	17.33	-41.3	-45.0	12.7	4.88e-05	0	60	0	849346560	53	5774
2026-01-28 08:52:03.80	7.39	17.25	-41.3	-45.0	12.7	5.11e-05	0	60	0	851443712	53	5746
2026-01-28 08:52:04.81	7.24	17.16	-41.4	-45.2	12.6	8.16e-05	0	60	0	852492288	53	5874
2026-01-28 08:52:05.82	7.09	17.07	-41.3	-45.1	12.6	8.01e-05	0	60	0	854589440	53	5820
2026-01-28 08:52:06.83	6.94	16.98	-41.3	-45.0	12.8	8.54e-05	0	60	0	856686592	53	5764
2026-01-28 08:52:07.84	6.79	16.89	-41.0	-44.6	13.2	4.19e-05	0	60	0	858783744	53	5469
2026-01-28 08:52:08.85	6.64	16.81	-40.9	-44.3	13.5	1.52e-05	0	60	0	860880896	53	5286
2026-01-28 08:52:09.86	6.50	16.72	-40.8	-44.2	13.5	1.29e-05	0	60	0	861929472	53	5242
2026-01-28 08:52:10.87	6.35	16.63	-40.5	-43.7	14.0	1.50e-06	0	60	0	864026624	53	4964
2026-01-28 08:52:11.88	6.20	16.54	-40.3	-43.4	14.3	7.00e-07	0	60	0	866123776	52	5075
2026-01-28 08:52:12.89	6.06	16.46	-40.3	-43.3	14.4	7.00e-07	0	60	0	868220928	52	5019
2026-01-28 08:52:13.90	5.92	16.37	-40.3	-43.2	14.5	2.20e-06	0	60	0	870318080	52	4978
2026-01-28 08:52:14.91	5.77	16.28	-40.2	-43.2	14.5	7.00e-07	0	60	0	871366656	52	4938
2026-01-28 08:52:15.92	5.63	16.19	-40.4	-43.5	14.1	3.80e-06	0	60	0	873463808	52	5157
2026-01-28 08:52:16.93	5.49	16.11	-40.3	-43.4	14.2	1.50e-06	0	60	0	875560960	52	5048
2026-01-28 08:52:17.94	5.35	16.02	-40.4	-43.5	14.0	7.00e-07	0	60	0	877658112	52	5148
2026-01-28 08:52:18.95	5.21	15.93	-40.4	-43.6	14.0	5.30e-06	0	60	0	879755264	52	5197
2026-01-28 08:52:19.96	5.07	15.85	-40.6	-43.8	13.7	7.00e-07	0	60	0	880803840	52	5333
2026-01-28 08:52:20.97	4.93	15.76	-40.7	-44.1	13.4	1.37e-05	0	60	0	882900992	52	5465
2026-01-28 08:52:21.98	4.80	15.67	-40.7	-44.0	13.5	9.10e-06	0	60	0	884998144	52	5451
2026-01-28 08:52:22.99	4.66	15.59	-40.6	-44.0	13.5	1.83e-05	0	60	0	887095296	52	5445
2026-01-28 08:52:24.00	4.53	15.50	-40.6	-43.9	13.5	1.44e-05	0	60	0	889192448	52	5392
2026-01-28 08:52:25.01	4.39	15.42	-40.5	-43.8	13.6	6.10e-06	0	60	0	890241024	52	5309
2026-01-28 08:52:26.02	4.26	15.33	-40.5	-43.9	13.5	9.90e-06	0	60	0	892338176	52	5347
2026-01-28 08:52:27.03	4.12	15.25	-40.6	-44.0	13.3	1.14e-05	0	60	0	894435328	52	5448
2026-01-28 08:52:28.04	3.99	15.16	-40.4	-43.7	13.6	2.67e-05	0	60	0	896532480	52	5258
2026-01-28 08:52:29.05	3.86	15.07	-40.2	-43.4	13.8	2.20e-06	0	60	0	898629632	52	5067
2026-01-28 08:52:30.06	3.73	14.99	-40.4	-43.9	13.3	1.52e-05	0	60	0	899678208	52	5387
2026-01-28 08:52:31.07	3.60	14.90	-40.7	-44.6	12.4	4.34e-05	0	60	0	901775360	52	5823
2026-01-28 08:52:32.08	3.47	14.82	-41.0	-45.2	11.7	4.28e-04	0	60	0	903872512	52	6238
2026-01-28 08:52:33.09	3.34	14.74	-40.8	-44.9	11.8	3.65e-04	0	60	0	905969664	52	6052
2026-01-28 08:52:34.10	3.22	14.65	-40.9	-45.4	11.2	6.08e-04	0	60	0	908066816	52	6384
2026-01-28 08:52:35.11	3.09	14.57	-41.2	-46.2	10.3	2.90e-03	0	60	0	910163968	52	6987
2026-01-28 08:52:36.12	2.96	14.48	-41.3	-46.6	9.8	6.96e-03	0	60	0	911212544	53	6941
2026-01-28 08:52:37.13	2.84	14.40	-41.3	-46.4	9.9	1.06e-02	0	60	0	913309696	53	6781
2026-01-28 08:52:38.14	2.71	14.31	-41.1	-46.2	10.1	7.11e-03	0	60	0	915406848	53	6591
2026-01-28 08:52:39.15	2.59	14.23	-40.9	-45.5	10.9	4.03e-03	0	60	0	917504000	53	6077
2026-01-28 08:52:40.17	2.46	14.15	-40.5	-44.5	11.9	1.16e-03	0	60	0	919601152	52	5783
2026-01-28 08:52:41.17	2.34	14.06	-40.2	-44.1	12.3	2.57e-04	0	60	0	920649728	52	5478
2026-01-28 08:52:42.19	2.22	13.98	-39.8	-43.3	13.0	6.48e-05	0	60	0	922746880	51	5322
2026-01-28 08:52:43.20	2.10	13.90	-39.8	-43.4	13.0	2.36e-05	0	60	0	924844032	51	5359
2026-01-28 08:52:44.21	1.98	13.81	-39.9	-43.5	12.7	4.27e-05	0	60	0	926941184	51	5454
2026-01-28 08:52:45.22	1.86	13.73	-40.2	-44.3	11.9	1.99e-04	0	60	0	929038336	51	5928
2026-01-28 08:52:46.23	1.74	13.65	-40.4	-44.9	11.1	8.90e-04	0	60	0	930086912	51	6382
2026-01-28 08:52:47.24	1.62	13.56	-40.7	-45.7	10.1	2.60e-03	0	60	0	932184064	52	6573
2026-01-28 08:52:48.25	1.50	13.48	-41.0	-46.9	8.8	2.12e-02	0	60	0	934281216	52	7546
2026-01-28 08:52:49.26	1.39	13.40	-41.1	-47.8	7.7	5.98e-02	0	60	0	936378368	52	8375
2026-01-28 08:52:50.27	1.27	13.32	-41.3	-49.2	6.2	1.52e-01	0	60	0	938475520	53	9328
2026-01-28 08:52:51.28	1.15	13.24	-41.5	-50.4	5.3	4.56e-01	0	60	0	939524096	53	10685
2026-01-28 08:52:52.29	1.04	13.15	-41.4	-51.5	4.6	7.95e-01	0	60	0	941621248	53	12215
2026-01-28 08:52:53.30	0.92	13.07	-41.4	-52.6	4.2	1.25e+00	0	60	0	942669824	53	13865
2026-01-28 08:52:54.31	0.81	12.99	-41.3	-53.1	4.0	1.44e+00	0	60	0	942669824	53	14691
2026-01-28 08:52:55.32	0.70	12.91	-41.2	-53.6	3.8	1.49e+00	0	60	104	942669824	53	15464
2026-01-28 08:52:56.33	0.59	12.83	-41.5	-53.5	4.0	1.48e+00	0	60	0	942669824	54	14485
2026-01-28 08:52:57.34	0.47	12.75	-40.4	-54.5	3.8	1.49e+00	0	60	104	942669824	52	18305
2026-01-28 08:52:58.35	0.36	12.67	-40.7	-54.3	3.8	1.49e+00	0	60	104	942669824	52	17816
2026-01-28 08:52:59.36	0.25	12.59	-41.6	-54.9	3.8	1.49e+00	0	60	104	942669824	54	17064
2026-01-28 08:53:00.37	0.14	12.51	-41.2	-54.9	3.8	1.49e+00	0	60	104	942669824	54	16942
2026-01-28 08:53:01.38	0.03	12.43	-41.1	-55.2	3.8	1.49e+00	0	60	104	942669824	54	17555
2026-01-28 08:53:02.39	359.92	12.35	-40.9	-54.9	3.8	1.49e+00	0	60	104	942669824	53	17969
2026-01-28 08:53:03.40	359.82	12.27	-40.7	-54.8	3.8	1.49e+00	0	60	104	942669824	53	17688
2026-01-28 08:53:04.41	359.71	12.19	-40.4	-54.7	3.8	1.49e+00	0	60	104	942669824	52	18526
2026-01-28 08:53:05.42	359.60	12.11	-40.3	-54.6	3.8	1.49e+00	0	60	104	942669824	52	18398
2026-01-28 08:53:06.44	359.49	12.03	-40.5	-54.7	3.8	1.49e+00	0	60	104	942669824	52	18700
2026-01-28 08:53:07.45	359.39	11.95	-40.0	-54.4	3.8	1.49e+00	0	60	104	942669824	52	18035
2026-01-28 08:53:08.46	359.28	11.87	-40.0	-54.4	3.8	1.49e+00	0	60	104	942669824	52	17910
2026-01-28 08:53:09.47	359.18	11.79	-40.1	-54.4	3.8	1.49e+00	0	60	104	942669824	51	19097
2026-01-28 08:53:10.48	359.08	11.71	-40.0	-54.4	3.8	1.49e+00	0	60	104	942669824	51	19049
2026-01-28 08:53:11.49	358.97	11.63	-40.0	-54.4	3.8	1.49e+00	0	60	104	942669824	51	18954
2026-01-28 08:53:12.50	358.87	11.55	-40.2	-54.5	3.8	1.49e+00	0	60	104	942669824	51	19348
2026-01-28 08:53:13.51	358.77	11.47	-40.1	-54.5	3.8	1.49e+00	0	60	104	942669824	52	18127
2026-01-28 08:53:14.52	358.67	11.40	-40.0	-54.3	3.8	1.49e+00	0	60	104	942669824	51	18929
2026-01-28 08:53:15.53	358.56	11.32	-40.0	-54.4	3.8	1.49e+00	0	60	104	942669824	51	19032
2026-01-28 08:53:16.54	358.46	11.24	-39.9	-54.3	3.8	1.49e+00	0	60	104	942669824	51	18785
2026-01-28 08:53:17.55	358.36	11.16	-39.9	-54.3	3.8	1.49e+00	0	60	104	942669824	51	18751
2026-01-28 08:53:18.56	358.26	11.09	-39.9	-54.3	3.8	1.49e+00	0	60	104	942669824	51	18735
2026-01-28 08:53:19.57	358.17	11.01	-39.9	-54.2	3.8	1.49e+00	0	60	104	942669824	51	18728
2026-01-28 08:53:20.58	358.07	10.93	-40.1	-54.5	3.8	1.49e+00	0	60	104	942669824	51	19185
2026-01-28 08:53:21.59	357.97	10.85	-40.0	-54.4	3.8	1.49e+00	0	60	104	942669824	51	19046
2026-01-28 08:53:22.59	357.87	10.78	-39.9	-54.3	3.8	1.49e+00	0	60	104	942669824	51	18867
2026-01-28 08:53:23.60	357.78	10.70	-39.9	-54.3	3.8	1.49e+00	0	60	104	942669824	51	18808
2026-01-28 08:53:24.61	357.68	10.62	-39.9	-54.2	3.8	1.49e+00	0	60	104	942669824	51	18660
2026-01-28 08:53:25.62	357.58	10.55	-39.9	-54.2	3.8	1.49e+00	0	60	104	942669824	51	18701
2026-01-28 08:53:26.63	357.49	10.47	-39.9	-54.3	3.8	1.49e+00	0	60	104	942669824	51	18750
2026-01-28 08:53:27.64	357.39	10.39	-39.8	-54.2	3.8	1.49e+00	0	60	104	942669824	51	18690
2026-01-28 08:53:28.65	357.30	10.32	-40.1	-54.4	3.8	1.49e+00	0	60	104	942669824	51	19081
2026-01-28 08:53:29.66	357.21	10.24	-39.9	-54.3	3.8	1.49e+00	0	60	104	942669824	51	18807
2026-01-28 08:53:30.67	357.11	10.17	-40.0	-54.4	3.8	1.49e+00	0	60	104	942669824	51	18963
2026-01-28 08:53:31.68	357.02	10.09	-40.1	-54.5	3.8	1.49e+00	0	60	104	942669824	51	19195
2026-01-28 08:53:32.69	356.93	10.02	-39.9	-54.3	3.8	1.49e+00	0	60	104	942669824	51	18862
2026-01-28 08:53:33.70	356.84	9.94	-39.9	-54.2	3.8	1.49e+00	0	60	104	942669824	51	18728
2026-01-28 08:53:34.71	356.75	9.87	-39.9	-54.3	3.8	1.49e+00	0	60	104	942669824	51	18816
2026-01-28 08:53:35.72	356.66	9.79	-40.0	-54.4	3.8	1.49e+00	0	60	104	942669824	51	18968
2026-01-28 08:53:36.73	356.56	9.72	-39.9	-54.3	3.8	1.49e+00	0	60	104	942669824	51	18798
2026-01-28 08:53:37.74	356.48	9.64	-39.9	-54.3	3.8	1.49e+00	0	60	104	942669824	51	18737
2026-01-28 08:53:38.75	356.39	9.57	-39.9	-54.2	3.8	1.49e+00	0	60	104	942669824	51	18707
2026-01-28 08:53:39.76	356.30	9.49	-40.0	-54.4	3.8	1.49e+00	0	60	104	942669824	51	18970
2026-01-28 08:53:40.77	356.21	9.42	-39.9	-54.3	3.8	1.49e+00	0	60	104	942669824	51	18819
2026-01-28 08:53:41.78	356.12	9.35	-40.0	-54.4	3.8	1.49e+00	0	60	104	942669824	51	18956
2026-01-28 08:53:42.79	356.03	9.27	-39.9	-54.3	3.8	1.49e+00	0	60	104	942669824	51	18759
2026-01-28 08:53:43.80	355.95	9.20	-40.0	-54.4	3.8	1.49e+00	0	60	104	942669824	51	19048
2026-01-28 08:53:44.81	355.86	9.12	-40.0	-54.4	3.8	1.49e+00	0	60	104	942669824	51	18988
2026-01-28 08:53:45.81	355.78	9.05	-40.1	-54.5	3.8	1.49e+00	0	60	104	942669824	51	19204
2026-01-28 08:53:46.82	355.69	8.98	-39.9	-54.2	3.8	1.49e+00	0	60	104	942669824	51	18674
2026-01-28 08:53:47.83	355.60	8.91	-40.0	-54.4	3.8	1.49e+00	0	60	104	942669824	51	19014
2026-01-28 08:53:48.84	355.52	8.83	-40.0	-54.4	3.8	1.49e+00	0	60	104	942669824	51	19125
2026-01-28 08:53:49.85	355.44	8.76	-40.1	-54.6	3.8	1.49e+00	0	60	104	942669824	51	19393
2026-01-28 08:53:50.86	355.35	8.69	-39.9	-54.3	3.8	1.49e+00	0	60	104	942669824	51	18802
2026-01-28 08:53:51.87	355.27	8.61	-40.0	-54.4	3.8	1.49e+00	0	60	104	942669824	51	19079
2026-01-28 08:53:52.88	355.19	8.54	-40.1	-54.5	3.8	1.49e+00	0	60	104	942669824	51	19254
2026-01-28 08:53:53.89	355.10	8.47	-40.2	-54.6	3.8	1.49e+00	0	60	104	942669824	51	19467
2026-01-28 08:53:54.90	355.02	8.40	-40.0	-54.3	3.8	1.49e+00	0	60	104	942669824	51	18946
2026-01-28 08:53:55.91	354.94	8.33	-40.0	-54.4	3.8	1.49e+00	0	60	104	942669824	51	19050
2026-01-28 08:53:56.92	354.86	8.25	-40.1	-54.5	3.8	1.49e+00	0	60	104	942669824	51	19217
2026-01-28 08:53:57.93	354.78	8.18	-40.1	-54.6	3.8	1.49e+00	0	61	104	942669824	51	19412
2026-01-28 08:53:58.94	354.70	8.11	-40.0	-54.4	3.8	1.49e+00	0	60	104	942669824	51	19127
2026-01-28 08:53:59.94	354.62	8.04	-40.1	-54.5	3.8	1.49e+00	0	60	104	942669824	51	19195
2026-01-28 08:54:00.96	354.54	7.97	-40.4	-54.8	3.8	1.49e+00	0	60	104	942669824	51	19904
2026-01-28 08:54:01.97	354.46	7.90	-42.1	-56.6	3.8	1.49e+00	0	60	104	942669824	54	20629
2026-01-28 08:54:02.98	354.38	7.83	-44.3	-58.8	3.8	1.49e+00	0	61	104	942669824	59	20002
2026-01-28 08:54:03.99	354.30	7.76	-44.9	-59.7	3.8	1.49e+00	0	60	104	942669824	60	20877
2026-01-28 08:54:05.00	354.22	7.69	-45.1	-60.0	3.8	1.49e+00	0	60	104	942669824	60	21559
2026-01-28 08:54:06.01	354.15	7.62	-45.2	-60.1	3.8	1.49e+00	0	60	104	942669824	61	20673
2026-01-28 08:54:07.02	354.07	7.55	-45.2	-60.1	3.8	1.49e+00	0	60	104	942669824	61	20558
2026-01-28 08:54:08.03	353.99	7.48	-45.2	-60.1	3.8	1.49e+00	0	60	104	942669824	61	20619
