passes_logs/2026/01/28/R2.0S_Moscow/R2.0S_Moscow__20260128_012750_FENGYUN_3D_rec.log

#Pass ID: 20260128_012750_FENGYUN 3D
#Satellite: FENGYUN 3D
#Configuration: FENGYUN 3D
#almurnet v.1.7.20251203
#Start time: 2026-01-28 01:27:50

#Version: 2.2.20231116
#Station: R2.0S_Moscow
#Location: 37.707566 lon 55.798166 lat
#TLE: 1 43010U 17072A   26027.47796828  .00000374  00000+0  19850-3 0  9992
#TLE: 2 43010  98.9960 359.4888 0002523  87.5419 272.6045 14.19701595425023

#Time	Az	El	Level	Level2	SNR	BER	BlckErr	Temp	State	Recorded	gain1	gain2
2026-01-28 01:27:50.79	18.07	2.01	-42.1	-53.6	3.8	8.45e-01	0	52	0	0	56	13064
2026-01-28 01:27:51.81	18.09	2.08	-41.9	-53.5	3.8	8.46e-01	0	52	104	0	55	13596
2026-01-28 01:27:52.82	18.11	2.14	-41.9	-53.5	3.8	8.46e-01	0	53	104	0	55	13571
2026-01-28 01:27:53.83	18.13	2.21	-41.9	-53.5	3.8	8.46e-01	0	53	104	0	55	13572
2026-01-28 01:27:54.84	18.14	2.27	-41.9	-53.5	3.8	8.47e-01	0	53	104	0	55	13571
2026-01-28 01:27:55.85	18.16	2.33	-41.9	-53.4	3.8	8.47e-01	0	53	104	0	55	13507
2026-01-28 01:27:56.86	18.18	2.40	-41.9	-53.4	3.8	8.45e-01	0	53	104	0	55	13516
2026-01-28 01:27:57.87	18.20	2.46	-41.9	-53.4	3.8	8.47e-01	0	53	104	0	55	13520
2026-01-28 01:27:58.88	18.22	2.53	-41.9	-53.5	3.8	8.47e-01	0	53	104	0	55	13574
2026-01-28 01:27:59.89	18.24	2.59	-41.9	-53.4	3.8	8.47e-01	0	53	104	0	55	13540
2026-01-28 01:28:00.90	18.26	2.66	-41.9	-53.4	3.8	8.46e-01	0	53	104	0	55	13510
2026-01-28 01:28:01.91	18.27	2.72	-41.9	-53.4	3.8	8.46e-01	0	53	104	0	55	13527
2026-01-28 01:28:02.92	18.29	2.79	-42.0	-53.5	3.8	8.47e-01	0	54	104	0	55	13572
2026-01-28 01:28:03.93	18.31	2.86	-41.9	-53.4	3.8	8.47e-01	0	54	104	0	55	13538
2026-01-28 01:28:04.94	18.33	2.92	-41.9	-53.4	3.8	8.46e-01	0	54	104	0	55	13539
2026-01-28 01:28:05.95	18.35	2.99	-41.9	-53.4	3.8	8.46e-01	0	54	104	0	55	13533
2026-01-28 01:28:06.96	18.37	3.05	-41.9	-53.4	3.8	8.47e-01	0	54	104	0	55	13509
2026-01-28 01:28:07.97	18.39	3.12	-41.9	-53.4	3.8	8.45e-01	0	54	104	0	55	13550
2026-01-28 01:28:08.98	18.41	3.19	-41.9	-53.4	3.8	8.47e-01	0	54	104	0	55	13519
2026-01-28 01:28:09.99	18.43	3.25	-41.9	-53.4	3.8	8.45e-01	0	54	104	0	55	13520
2026-01-28 01:28:11.00	18.45	3.32	-41.9	-53.4	3.8	8.46e-01	0	54	104	0	55	13525
2026-01-28 01:28:12.01	18.47	3.39	-41.9	-53.4	3.8	8.45e-01	0	54	104	0	55	13522
2026-01-28 01:28:13.02	18.49	3.45	-41.9	-53.4	3.8	8.46e-01	0	54	104	0	55	13536
2026-01-28 01:28:14.03	18.51	3.52	-41.9	-53.4	3.8	8.45e-01	0	54	104	0	55	13528
2026-01-28 01:28:15.04	18.52	3.59	-41.9	-53.4	3.8	8.46e-01	0	54	104	0	55	13505
2026-01-28 01:28:16.05	18.54	3.66	-41.9	-53.4	3.8	8.45e-01	0	54	104	0	55	13501
2026-01-28 01:28:17.06	18.56	3.72	-41.9	-53.4	3.8	8.47e-01	0	54	104	0	55	13482
2026-01-28 01:28:18.07	18.58	3.79	-41.9	-53.4	3.8	8.45e-01	0	55	104	0	55	13489
2026-01-28 01:28:19.08	18.60	3.86	-41.9	-53.4	3.8	8.45e-01	0	55	104	0	55	13564
2026-01-28 01:28:20.09	18.62	3.93	-41.9	-53.4	3.8	8.46e-01	0	55	104	0	55	13514
2026-01-28 01:28:21.10	18.64	4.00	-41.9	-53.4	3.8	8.46e-01	0	55	104	0	55	13503
2026-01-28 01:28:22.11	18.66	4.07	-41.9	-53.4	3.8	8.45e-01	0	55	104	0	55	13508
2026-01-28 01:28:23.13	18.68	4.14	-41.9	-53.4	3.8	8.47e-01	0	55	104	0	55	13553
2026-01-28 01:28:24.13	18.70	4.20	-41.9	-53.4	3.8	8.46e-01	0	55	104	0	55	13530
2026-01-28 01:28:25.14	18.73	4.27	-41.9	-53.4	3.8	8.45e-01	0	55	104	0	55	13506
2026-01-28 01:28:26.15	18.75	4.34	-41.9	-53.4	3.8	8.46e-01	0	55	104	0	55	13547
2026-01-28 01:28:27.16	18.77	4.41	-41.9	-53.4	3.8	8.46e-01	0	55	104	0	55	13504
2026-01-28 01:28:28.17	18.79	4.48	-41.9	-53.4	3.8	8.45e-01	0	55	104	0	55	13509
2026-01-28 01:28:29.18	18.81	4.55	-41.9	-53.4	3.8	8.47e-01	0	55	104	0	55	13503
2026-01-28 01:28:30.19	18.83	4.62	-41.9	-53.4	3.8	8.46e-01	0	55	104	0	55	13523
2026-01-28 01:28:31.20	18.85	4.69	-41.9	-53.4	3.8	8.46e-01	0	55	104	0	55	13484
2026-01-28 01:28:32.22	18.87	4.76	-41.9	-53.4	3.8	8.46e-01	0	55	104	0	55	13542
2026-01-28 01:28:33.23	18.89	4.83	-41.9	-53.4	3.8	8.46e-01	0	56	104	0	55	13489
2026-01-28 01:28:34.24	18.91	4.91	-41.9	-53.4	3.8	8.46e-01	0	56	104	0	55	13479
2026-01-28 01:28:35.24	18.93	4.98	-41.9	-53.4	3.8	8.47e-01	0	56	104	0	55	13498
2026-01-28 01:28:36.26	18.95	5.05	-41.9	-53.4	3.8	8.48e-01	0	56	104	0	55	13503
2026-01-28 01:28:37.27	18.98	5.12	-41.9	-53.4	3.8	8.48e-01	0	56	104	0	55	13554
2026-01-28 01:28:38.28	19.00	5.19	-41.9	-53.4	3.8	8.46e-01	0	56	104	0	55	13513
2026-01-28 01:28:39.29	19.02	5.26	-41.9	-53.4	3.8	8.46e-01	0	56	104	0	55	13498
2026-01-28 01:28:40.30	19.04	5.33	-41.9	-53.4	3.8	8.45e-01	0	56	104	0	55	13521
2026-01-28 01:28:41.31	19.06	5.41	-41.9	-53.4	3.8	8.46e-01	0	56	104	0	55	13504
2026-01-28 01:28:42.32	19.08	5.48	-41.9	-53.4	3.8	8.45e-01	0	56	104	0	55	13523
2026-01-28 01:28:43.33	19.11	5.55	-41.9	-53.4	3.8	8.47e-01	0	56	104	0	55	13523
2026-01-28 01:28:44.34	19.13	5.62	-41.9	-53.4	3.8	8.45e-01	0	56	104	0	55	13559
2026-01-28 01:28:45.35	19.15	5.70	-41.9	-53.4	3.8	8.47e-01	0	56	104	0	55	13568
2026-01-28 01:28:46.36	19.17	5.77	-41.9	-53.4	3.8	8.46e-01	0	56	104	0	55	13527
2026-01-28 01:28:47.37	19.19	5.84	-41.9	-53.4	3.8	8.46e-01	0	56	104	0	55	13530
2026-01-28 01:28:48.38	19.22	5.92	-41.9	-53.4	3.8	8.46e-01	0	57	104	0	55	13497
2026-01-28 01:28:49.39	19.24	5.99	-41.9	-53.4	3.8	8.45e-01	0	56	104	0	55	13520
2026-01-28 01:28:50.40	19.26	6.06	-41.9	-53.4	3.8	8.47e-01	0	56	104	0	55	13440
2026-01-28 01:28:51.41	19.28	6.14	-41.9	-53.4	3.8	8.45e-01	0	57	104	0	55	13467
2026-01-28 01:28:52.42	19.31	6.21	-41.9	-53.4	3.8	8.46e-01	0	56	104	0	55	13458
2026-01-28 01:28:53.43	19.33	6.29	-41.9	-53.4	3.8	8.46e-01	0	57	104	0	55	13489
2026-01-28 01:28:54.44	19.35	6.36	-41.9	-53.4	3.8	8.46e-01	0	56	104	0	55	13471
2026-01-28 01:28:55.45	19.37	6.44	-41.9	-53.4	3.8	8.46e-01	0	57	104	0	55	13442
2026-01-28 01:28:56.46	19.40	6.51	-41.9	-53.4	3.8	8.46e-01	0	57	104	0	55	13443
2026-01-28 01:28:57.47	19.42	6.59	-41.9	-53.4	3.8	8.45e-01	0	56	104	0	55	13427
2026-01-28 01:28:58.48	19.44	6.66	-41.9	-53.4	3.8	8.47e-01	0	57	104	0	55	13435
2026-01-28 01:28:59.49	19.47	6.74	-41.9	-53.4	3.8	8.46e-01	0	57	104	0	55	13435
2026-01-28 01:29:00.50	19.49	6.82	-41.9	-53.4	3.8	8.47e-01	0	57	104	0	55	13451
2026-01-28 01:29:01.52	19.51	6.89	-41.9	-53.4	3.8	8.47e-01	0	57	104	0	55	13442
2026-01-28 01:29:02.53	19.54	6.97	-41.9	-53.3	3.8	8.45e-01	0	57	104	0	55	13361
2026-01-28 01:29:03.54	19.56	7.05	-41.9	-53.3	3.8	8.48e-01	0	57	104	0	55	13308
2026-01-28 01:29:04.55	19.58	7.12	-41.9	-53.2	3.8	8.46e-01	0	57	104	0	55	13187
2026-01-28 01:29:05.56	19.61	7.20	-41.9	-53.1	3.8	8.46e-01	0	57	104	0	55	13080
2026-01-28 01:29:06.57	19.63	7.28	-41.9	-53.0	3.8	8.46e-01	0	57	104	0	55	12956
2026-01-28 01:29:07.58	19.66	7.36	-41.9	-52.8	3.8	8.46e-01	0	57	104	0	55	12614
2026-01-28 01:29:08.59	19.68	7.43	-41.8	-52.6	3.8	8.47e-01	0	57	104	0	55	12296
2026-01-28 01:29:09.60	19.70	7.51	-41.8	-52.3	3.8	8.46e-01	0	57	104	0	55	11835
2026-01-28 01:29:10.61	19.73	7.59	-41.8	-51.9	3.8	8.47e-01	0	57	104	0	55	11400
2026-01-28 01:29:11.62	19.75	7.67	-41.7	-51.6	3.8	8.46e-01	0	57	104	0	55	11021
2026-01-28 01:29:12.63	19.78	7.75	-41.7	-51.1	3.9	8.45e-01	0	57	104	0	55	10406
2026-01-28 01:29:13.64	19.80	7.83	-41.6	-50.7	3.9	8.43e-01	0	57	104	0	55	9858
2026-01-28 01:29:14.65	19.83	7.91	-41.5	-50.0	4.1	8.40e-01	0	57	0	0	55	9151
2026-01-28 01:29:15.66	19.85	7.99	-41.4	-49.6	4.2	8.35e-01	0	57	0	0	54	9260
2026-01-28 01:29:16.67	19.88	8.07	-41.9	-50.5	4.1	8.29e-01	0	57	0	0	54	10251
2026-01-28 01:29:17.68	19.90	8.15	-41.9	-52.7	3.8	8.46e-01	0	58	104	0	54	13160
2026-01-28 01:29:18.69	19.93	8.23	-40.4	-44.7	8.0	8.10e-01	0	57	104	0	52	5882
2026-01-28 01:29:19.70	19.95	8.31	-41.7	-46.4	7.4	4.85e-02	0	58	0	5242880	53	6777
2026-01-28 01:29:20.71	19.98	8.39	-39.9	-43.8	8.8	2.39e-02	0	57	0	9437184	51	5630
2026-01-28 01:29:21.72	20.00	8.47	-38.9	-41.8	11.0	2.18e-02	0	58	0	15728640	49	4994
2026-01-28 01:29:22.73	20.03	8.55	-38.0	-40.2	13.2	8.69e-05	0	58	0	20971520	48	4438
2026-01-28 01:29:23.74	20.06	8.63	-37.7	-39.8	13.8	8.00e-06	0	58	0	27262976	47	4472
2026-01-28 01:29:24.76	20.08	8.72	-37.6	-39.6	13.9	1.10e-06	0	58	0	32505856	47	4381
2026-01-28 01:29:25.76	20.11	8.80	-37.9	-40.1	13.5	5.70e-06	0	58	0	37748736	47	4620
2026-01-28 01:29:26.78	20.14	8.88	-38.2	-40.4	13.2	4.00e-05	0	58	0	44040192	47	4807
2026-01-28 01:29:27.79	20.16	8.96	-38.4	-40.8	12.9	4.92e-05	0	58	0	49283072	47	5011
2026-01-28 01:29:28.80	20.19	9.05	-38.3	-40.6	13.2	4.34e-05	0	58	0	55574528	47	4894
2026-01-28 01:29:29.81	20.21	9.13	-38.4	-40.7	13.2	4.00e-05	0	58	0	60817408	47	4932
2026-01-28 01:29:30.82	20.24	9.21	-38.3	-40.5	13.4	2.05e-05	0	58	0	67108864	47	4842
2026-01-28 01:29:31.83	20.27	9.30	-38.4	-40.6	13.2	3.66e-05	0	58	0	72351744	47	4925
2026-01-28 01:29:32.84	20.30	9.38	-38.4	-40.6	13.3	3.43e-05	0	58	0	77594624	47	4897
2026-01-28 01:29:33.85	20.32	9.47	-38.2	-40.3	13.6	1.25e-05	0	58	0	83886080	47	4741
2026-01-28 01:29:34.86	20.35	9.55	-38.2	-40.3	13.7	5.70e-06	0	58	0	89128960	47	4738
2026-01-28 01:29:35.87	20.38	9.64	-38.2	-40.4	13.7	6.80e-06	0	58	0	95420416	47	4774
2026-01-28 01:29:36.88	20.40	9.72	-38.2	-40.4	13.7	1.48e-05	0	58	0	100663296	47	4771
2026-01-28 01:29:37.90	20.43	9.81	-38.3	-40.4	13.7	6.80e-06	0	58	0	106954752	47	4789
2026-01-28 01:29:38.91	20.46	9.89	-38.3	-40.4	13.8	6.80e-06	0	58	0	112197632	47	4791
2026-01-28 01:29:39.92	20.49	9.98	-38.5	-40.7	13.5	2.28e-05	0	58	0	117440512	47	4967
2026-01-28 01:29:40.93	20.52	10.07	-38.3	-40.4	13.9	8.00e-06	0	58	0	123731968	47	4787
2026-01-28 01:29:41.94	20.54	10.15	-38.5	-40.6	13.7	1.10e-06	0	58	0	128974848	47	4922
2026-01-28 01:29:42.95	20.57	10.24	-38.5	-40.6	13.8	1.37e-05	0	58	0	135266304	47	4895
2026-01-28 01:29:43.96	20.60	10.33	-38.4	-40.4	14.0	5.70e-06	0	58	0	140509184	47	4814
2026-01-28 01:29:44.97	20.63	10.42	-38.5	-40.5	14.0	8.00e-06	0	58	0	145752064	47	4866
2026-01-28 01:29:45.98	20.66	10.50	-38.4	-40.5	14.0	8.00e-06	0	59	0	152043520	47	4839
2026-01-28 01:29:46.99	20.69	10.59	-38.2	-40.2	14.4	1.10e-06	0	59	0	157286400	47	4661
2026-01-28 01:29:48.00	20.72	10.68	-38.1	-40.1	14.4	1.10e-06	0	59	0	163577856	47	4633
2026-01-28 01:29:49.01	20.75	10.77	-38.1	-40.0	14.5	0.00e+00	0	59	0	168820736	47	4591
2026-01-28 01:29:50.02	20.78	10.86	-38.1	-40.1	14.6	0.00e+00	0	59	0	175112192	47	4606
2026-01-28 01:29:51.04	20.81	10.95	-38.2	-40.2	14.4	2.20e-06	0	59	0	180355072	47	4685
2026-01-28 01:29:52.05	20.84	11.04	-38.3	-40.4	14.2	6.80e-06	0	59	0	186646528	47	4761
2026-01-28 01:29:53.06	20.87	11.13	-38.2	-40.2	14.5	1.10e-06	0	59	0	191889408	47	4656
2026-01-28 01:29:54.07	20.90	11.22	-38.2	-40.1	14.5	2.20e-06	0	58	0	197132288	47	4626
2026-01-28 01:29:55.08	20.93	11.31	-38.2	-40.2	14.5	0.00e+00	0	59	0	203423744	47	4659
2026-01-28 01:29:56.09	20.96	11.40	-38.1	-40.0	14.7	0.00e+00	0	58	0	208666624	47	4574
2026-01-28 01:29:57.10	20.99	11.49	-37.9	-39.8	14.9	0.00e+00	0	59	0	214958080	47	4478
2026-01-28 01:29:58.11	21.02	11.59	-37.9	-39.8	14.9	0.00e+00	0	59	0	220200960	47	4471
2026-01-28 01:29:59.12	21.05	11.68	-37.9	-39.8	14.9	0.00e+00	0	59	0	225443840	47	4479
2026-01-28 01:30:00.13	21.08	11.77	-37.9	-39.7	15.0	0.00e+00	0	59	0	231735296	47	4424
2026-01-28 01:30:01.15	21.11	11.87	-37.9	-39.7	15.1	1.10e-06	0	59	0	236978176	47	4418
2026-01-28 01:30:02.16	21.14	11.96	-37.9	-39.8	15.0	0.00e+00	0	59	0	243269632	47	4446
2026-01-28 01:30:03.17	21.17	12.05	-37.9	-39.7	15.1	0.00e+00	0	59	0	248512512	47	4403
2026-01-28 01:30:04.18	21.20	12.15	-37.9	-39.7	15.1	1.10e-06	0	59	0	253755392	47	4415
2026-01-28 01:30:05.19	21.24	12.24	-38.0	-39.8	15.0	0.00e+00	0	59	0	260046848	47	4480
2026-01-28 01:30:06.20	21.27	12.34	-37.9	-39.8	15.0	0.00e+00	0	59	0	265289728	47	4447
2026-01-28 01:30:07.21	21.30	12.43	-37.9	-39.7	15.1	1.10e-06	0	59	0	271581184	47	4406
2026-01-28 01:30:08.22	21.33	12.53	-37.8	-39.6	15.2	0.00e+00	0	59	0	276824064	47	4378
2026-01-28 01:30:09.23	21.37	12.62	-37.9	-39.7	15.0	0.00e+00	0	59	0	283115520	47	4438
2026-01-28 01:30:10.24	21.40	12.72	-37.8	-39.6	15.3	0.00e+00	0	59	0	288358400	47	4355
2026-01-28 01:30:11.25	21.43	12.81	-37.9	-39.7	15.2	0.00e+00	0	59	0	294649856	47	4406
2026-01-28 01:30:12.26	21.46	12.91	-37.9	-39.7	15.2	0.00e+00	0	59	0	299892736	47	4415
2026-01-28 01:30:13.27	21.50	13.01	-37.8	-39.6	15.3	0.00e+00	0	59	0	305135616	47	4357
2026-01-28 01:30:14.28	21.53	13.11	-38.0	-39.8	15.0	0.00e+00	0	59	0	311427072	47	4475
2026-01-28 01:30:15.29	21.57	13.21	-37.9	-39.7	15.2	0.00e+00	0	59	0	316669952	47	4408
2026-01-28 01:30:16.30	21.60	13.30	-37.8	-39.6	15.3	0.00e+00	0	59	0	322961408	47	4382
2026-01-28 01:30:17.31	21.63	13.40	-37.8	-39.6	15.3	0.00e+00	0	59	0	328204288	47	4375
2026-01-28 01:30:18.32	21.67	13.50	-37.8	-39.6	15.4	0.00e+00	0	59	0	333447168	47	4354
2026-01-28 01:30:19.33	21.70	13.60	-37.8	-39.6	15.3	0.00e+00	0	59	0	339738624	47	4381
2026-01-28 01:30:20.34	21.74	13.70	-37.8	-39.6	15.3	1.10e-06	0	59	0	344981504	47	4391
2026-01-28 01:30:21.35	21.77	13.80	-37.8	-39.5	15.4	0.00e+00	0	59	0	351272960	47	4336
2026-01-28 01:30:22.36	21.81	13.90	-37.7	-39.5	15.4	0.00e+00	0	59	0	356515840	47	4324
2026-01-28 01:30:23.37	21.84	14.00	-37.8	-39.6	15.4	0.00e+00	0	60	0	361758720	47	4362
2026-01-28 01:30:24.38	21.88	14.11	-37.7	-39.5	15.5	0.00e+00	0	59	0	368050176	47	4307
2026-01-28 01:30:25.39	21.91	14.21	-37.7	-39.5	15.5	0.00e+00	0	59	0	373293056	47	4299
2026-01-28 01:30:26.41	21.95	14.31	-37.7	-39.5	15.5	0.00e+00	0	59	0	379584512	47	4305
2026-01-28 01:30:27.42	21.99	14.42	-37.7	-39.5	15.5	0.00e+00	0	60	0	384827392	47	4319
2026-01-28 01:30:28.43	22.02	14.52	-37.7	-39.5	15.4	0.00e+00	0	60	0	391118848	47	4316
2026-01-28 01:30:29.44	22.06	14.62	-37.6	-39.3	15.6	0.00e+00	0	60	0	396361728	47	4228
2026-01-28 01:30:30.45	22.10	14.73	-37.5	-39.2	15.8	0.00e+00	0	60	0	402653184	47	4175
2026-01-28 01:30:31.46	22.13	14.83	-37.5	-39.2	15.7	0.00e+00	0	59	0	407896064	47	4188
2026-01-28 01:30:32.47	22.17	14.94	-37.5	-39.2	15.7	0.00e+00	0	59	0	413138944	47	4182
2026-01-28 01:30:33.48	22.21	15.04	-37.5	-39.2	15.8	0.00e+00	0	60	0	419430400	47	4165
2026-01-28 01:30:34.49	22.25	15.15	-37.4	-39.1	15.9	0.00e+00	0	60	0	424673280	46	4384
2026-01-28 01:30:35.50	22.28	15.26	-37.3	-39.0	16.0	0.00e+00	0	60	0	430964736	46	4305
2026-01-28 01:30:36.51	22.32	15.36	-37.4	-39.0	16.0	0.00e+00	0	60	0	436207616	46	4327
2026-01-28 01:30:37.52	22.36	15.47	-37.4	-39.0	16.0	0.00e+00	0	60	0	441450496	46	4337
2026-01-28 01:30:38.53	22.40	15.58	-37.3	-38.9	16.1	0.00e+00	0	60	0	447741952	46	4267
2026-01-28 01:30:39.53	22.44	15.69	-37.2	-38.8	16.2	0.00e+00	0	60	0	452984832	46	4220
2026-01-28 01:30:40.54	22.48	15.80	-37.1	-38.7	16.4	0.00e+00	0	60	0	459276288	46	4163
2026-01-28 01:30:41.55	22.52	15.90	-37.2	-38.8	16.2	0.00e+00	0	60	0	464519168	46	4236
2026-01-28 01:30:42.56	22.56	16.01	-37.2	-38.8	16.2	0.00e+00	0	59	0	469762048	46	4232
2026-01-28 01:30:43.57	22.60	16.13	-37.2	-38.8	16.3	0.00e+00	0	60	0	476053504	46	4206
2026-01-28 01:30:44.58	22.64	16.24	-37.1	-38.7	16.4	0.00e+00	0	60	0	481296384	46	4172
2026-01-28 01:30:45.59	22.68	16.35	-37.1	-38.7	16.4	0.00e+00	0	60	0	487587840	46	4164
2026-01-28 01:30:46.60	22.72	16.46	-37.2	-38.8	16.4	0.00e+00	0	60	0	492830720	46	4206
2026-01-28 01:30:47.61	22.76	16.57	-37.0	-38.6	16.5	0.00e+00	0	60	0	499122176	46	4127
2026-01-28 01:30:48.62	22.80	16.68	-36.9	-38.4	16.7	0.00e+00	0	60	0	504365056	45	4284
2026-01-28 01:30:49.63	22.84	16.80	-36.8	-38.4	16.7	0.00e+00	0	60	0	509607936	45	4254
2026-01-28 01:30:50.64	22.89	16.91	-36.9	-38.5	16.7	0.00e+00	0	60	0	515899392	45	4299
2026-01-28 01:30:51.65	22.93	17.03	-36.8	-38.4	16.8	0.00e+00	0	60	0	521142272	45	4246
2026-01-28 01:30:52.66	22.97	17.14	-36.9	-38.4	16.7	0.00e+00	0	60	0	527433728	45	4262
2026-01-28 01:30:53.67	23.01	17.26	-36.9	-38.5	16.7	0.00e+00	0	60	0	532676608	45	4302
2026-01-28 01:30:54.68	23.06	17.37	-36.8	-38.4	16.8	0.00e+00	0	60	0	537919488	45	4245
2026-01-28 01:30:55.70	23.10	17.49	-36.8	-38.3	16.8	0.00e+00	0	60	0	544210944	45	4216
2026-01-28 01:30:56.71	23.15	17.61	-36.7	-38.2	17.0	0.00e+00	0	60	0	549453824	45	4160
2026-01-28 01:30:57.72	23.19	17.73	-36.7	-38.3	16.9	0.00e+00	0	60	0	555745280	45	4194
2026-01-28 01:30:58.73	23.23	17.84	-36.7	-38.2	17.0	0.00e+00	0	60	0	560988160	45	4157
2026-01-28 01:30:59.74	23.28	17.96	-36.6	-38.1	17.0	0.00e+00	0	60	0	566231040	45	4124
2026-01-28 01:31:00.75	23.32	18.08	-36.6	-38.0	17.1	0.00e+00	0	60	0	572522496	45	4085
2026-01-28 01:31:01.76	23.37	18.20	-36.6	-38.1	17.1	0.00e+00	0	60	0	577765376	45	4112
2026-01-28 01:31:02.77	23.42	18.32	-36.6	-38.1	17.1	0.00e+00	0	60	0	584056832	45	4111
2026-01-28 01:31:03.78	23.46	18.45	-36.6	-38.1	17.1	0.00e+00	0	60	0	589299712	45	4113
2026-01-28 01:31:04.79	23.51	18.57	-36.6	-38.0	17.2	0.00e+00	0	60	0	595591168	45	4082
2026-01-28 01:31:05.80	23.55	18.69	-36.6	-38.0	17.2	0.00e+00	0	60	0	600834048	45	4085
2026-01-28 01:31:06.81	23.60	18.81	-36.5	-38.0	17.2	0.00e+00	0	60	0	607125504	45	4066
2026-01-28 01:31:07.82	23.65	18.94	-36.5	-38.0	17.2	0.00e+00	0	60	0	612368384	45	4067
2026-01-28 01:31:08.83	23.70	19.06	-36.5	-38.0	17.2	0.00e+00	0	60	0	617611264	45	4074
2026-01-28 01:31:09.84	23.74	19.18	-36.6	-38.1	17.1	0.00e+00	0	60	0	623902720	45	4123
2026-01-28 01:31:10.85	23.79	19.31	-36.5	-37.9	17.3	0.00e+00	0	60	0	629145600	45	4049
2026-01-28 01:31:11.86	23.84	19.44	-36.4	-37.8	17.5	0.00e+00	0	60	0	635437056	44	4216
2026-01-28 01:31:12.87	23.89	19.56	-36.3	-37.8	17.5	0.00e+00	0	60	0	640679936	44	4199
2026-01-28 01:31:13.88	23.94	19.69	-36.2	-37.6	17.6	0.00e+00	0	60	0	645922816	44	4141
2026-01-28 01:31:14.89	23.99	19.82	-36.2	-37.7	17.6	0.00e+00	0	60	0	652214272	44	4148
2026-01-28 01:31:15.90	24.04	19.95	-36.1	-37.5	17.7	0.00e+00	0	60	0	657457152	44	4091
2026-01-28 01:31:16.92	24.09	20.08	-36.2	-37.6	17.7	0.00e+00	0	60	0	663748608	44	4105
2026-01-28 01:31:17.92	24.14	20.21	-36.2	-37.5	17.7	0.00e+00	0	60	0	668991488	44	4097
2026-01-28 01:31:18.94	24.20	20.34	-36.1	-37.5	17.8	0.00e+00	0	60	0	674234368	44	4066
2026-01-28 01:31:19.95	24.25	20.47	-36.2	-37.5	17.7	0.00e+00	0	60	0	680525824	44	4097
2026-01-28 01:31:20.96	24.30	20.60	-36.1	-37.5	17.8	0.00e+00	0	61	0	685768704	44	4074
2026-01-28 01:31:21.97	24.35	20.73	-36.1	-37.5	17.8	0.00e+00	0	60	0	692060160	44	4087
2026-01-28 01:31:22.98	24.41	20.87	-36.1	-37.5	17.8	0.00e+00	0	60	0	697303040	44	4064
2026-01-28 01:31:23.99	24.46	21.00	-36.0	-37.4	17.9	0.00e+00	0	61	0	703594496	44	4035
2026-01-28 01:31:24.99	24.51	21.13	-36.0	-37.3	18.0	0.00e+00	0	60	0	708837376	44	4000
2026-01-28 01:31:26.01	24.57	21.27	-35.9	-37.3	17.9	0.00e+00	0	60	0	715128832	43	4194
2026-01-28 01:31:27.01	24.62	21.40	-35.9	-37.2	17.9	0.00e+00	0	60	0	720371712	43	4178
2026-01-28 01:31:28.02	24.68	21.54	-35.8	-37.2	18.0	0.00e+00	0	60	0	725614592	43	4164
2026-01-28 01:31:29.03	24.73	21.68	-35.7	-37.0	18.1	0.00e+00	0	60	0	731906048	43	4079
2026-01-28 01:31:30.04	24.79	21.82	-35.6	-36.9	18.2	0.00e+00	0	60	0	737148928	43	4033
2026-01-28 01:31:31.05	24.85	21.96	-35.7	-37.1	18.1	0.00e+00	0	60	0	743440384	43	4106
2026-01-28 01:31:32.06	24.90	22.10	-35.7	-37.0	18.1	0.00e+00	0	60	0	748683264	43	4083
2026-01-28 01:31:33.07	24.96	22.24	-35.7	-37.0	18.1	0.00e+00	0	60	0	753926144	43	4093
2026-01-28 01:31:34.08	25.02	22.38	-35.7	-37.1	18.1	0.00e+00	0	60	0	760217600	43	4106
2026-01-28 01:31:35.09	25.08	22.52	-35.7	-37.1	18.1	0.00e+00	0	60	0	765460480	43	4115
2026-01-28 01:31:36.10	25.14	22.66	-35.6	-36.9	18.3	0.00e+00	0	60	0	771751936	43	4043
2026-01-28 01:31:37.11	25.20	22.81	-35.5	-36.8	18.4	0.00e+00	0	60	0	776994816	43	3983
2026-01-28 01:31:38.12	25.26	22.95	-35.5	-36.8	18.4	0.00e+00	0	60	0	782237696	42	4199
2026-01-28 01:31:39.13	25.32	23.10	-35.4	-36.7	18.5	0.00e+00	0	60	0	788529152	42	4153
2026-01-28 01:31:40.14	25.38	23.24	-35.4	-36.7	18.5	0.00e+00	0	60	0	793772032	42	4167
2026-01-28 01:31:41.15	25.44	23.39	-35.5	-36.8	18.4	0.00e+00	0	61	0	800063488	42	4202
2026-01-28 01:31:42.16	25.50	23.54	-35.5	-36.8	18.4	0.00e+00	0	61	0	805306368	42	4219
2026-01-28 01:31:43.17	25.57	23.68	-35.5	-36.8	18.4	0.00e+00	0	60	0	811597824	42	4232
2026-01-28 01:31:44.18	25.63	23.83	-35.4	-36.7	18.5	0.00e+00	0	61	0	816840704	42	4155
2026-01-28 01:31:45.19	25.69	23.98	-35.4	-36.6	18.6	0.00e+00	0	61	0	822083584	42	4142
2026-01-28 01:31:46.20	25.76	24.13	-35.4	-36.7	18.5	0.00e+00	0	61	0	828375040	42	4154
2026-01-28 01:31:47.21	25.82	24.29	-35.4	-36.7	18.6	0.00e+00	0	61	0	833617920	42	4150
2026-01-28 01:31:48.22	25.89	24.44	-35.3	-36.6	18.6	0.00e+00	0	61	0	839909376	42	4129
2026-01-28 01:31:49.23	25.96	24.59	-35.3	-36.6	18.6	0.00e+00	0	61	0	845152256	42	4137
2026-01-28 01:31:50.24	26.02	24.75	-35.3	-36.6	18.6	0.00e+00	0	61	0	850395136	42	4119
2026-01-28 01:31:51.25	26.09	24.90	-35.3	-36.5	18.7	0.00e+00	0	61	0	856686592	42	4093
2026-01-28 01:31:52.26	26.16	25.06	-35.2	-36.5	18.7	0.00e+00	0	60	0	861929472	42	4074
2026-01-28 01:31:53.27	26.23	25.21	-35.2	-36.4	18.8	0.00e+00	0	60	0	868220928	42	4042
2026-01-28 01:31:54.28	26.30	25.37	-35.1	-36.3	18.9	0.00e+00	0	61	0	873463808	42	3991
2026-01-28 01:31:55.29	26.37	25.53	-35.2	-36.4	18.8	0.00e+00	0	61	0	878706688	42	4035
2026-01-28 01:31:56.30	26.44	25.69	-35.2	-36.5	18.8	0.00e+00	0	61	0	884998144	42	4056
2026-01-28 01:31:57.31	26.51	25.85	-35.2	-36.5	18.8	0.00e+00	0	61	0	890241024	42	4070
2026-01-28 01:31:58.32	26.58	26.01	-35.3	-36.5	18.7	0.00e+00	0	61	0	896532480	42	4087
2026-01-28 01:31:59.33	26.66	26.17	-35.1	-36.4	18.9	0.00e+00	0	61	0	901775360	42	4014
2026-01-28 01:32:00.34	26.73	26.34	-35.1	-36.3	19.0	0.00e+00	0	61	0	908066816	42	3984
2026-01-28 01:32:01.35	26.80	26.50	-35.0	-36.3	19.0	0.00e+00	0	61	0	913309696	42	3968
2026-01-28 01:32:02.36	26.88	26.67	-35.0	-36.2	19.1	0.00e+00	0	61	0	919601152	41	4162
2026-01-28 01:32:03.37	26.96	26.83	-35.0	-36.2	19.0	0.00e+00	0	61	0	924844032	41	4181
2026-01-28 01:32:04.38	27.03	27.00	-35.0	-36.3	19.0	0.00e+00	0	61	0	930086912	41	4200
2026-01-28 01:32:05.39	27.11	27.17	-35.1	-36.4	18.9	0.00e+00	0	61	0	936378368	41	4259
2026-01-28 01:32:06.41	27.19	27.34	-35.1	-36.3	18.9	0.00e+00	0	61	0	941621248	41	4228
2026-01-28 01:32:07.41	27.27	27.51	-35.1	-36.4	18.9	0.00e+00	0	61	0	947912704	41	4257
2026-01-28 01:32:08.42	27.35	27.68	-35.2	-36.4	18.9	0.00e+00	0	61	0	953155584	41	4280
2026-01-28 01:32:09.43	27.43	27.85	-35.1	-36.4	18.9	0.00e+00	0	61	0	958398464	41	4267
2026-01-28 01:32:10.44	27.51	28.02	-35.2	-36.4	18.9	0.00e+00	0	61	0	964689920	41	4275
2026-01-28 01:32:11.45	27.59	28.20	-35.1	-36.4	18.9	0.00e+00	0	61	0	969932800	41	4268
2026-01-28 01:32:12.46	27.67	28.37	-34.9	-36.2	19.1	0.00e+00	0	61	0	976224256	41	4150
2026-01-28 01:32:13.48	27.76	28.55	-34.9	-36.2	19.1	0.00e+00	0	61	0	981467136	41	4154
2026-01-28 01:32:14.49	27.84	28.73	-35.0	-36.2	19.0	0.00e+00	0	61	0	986710016	41	4183
2026-01-28 01:32:15.50	27.93	28.91	-34.9	-36.1	19.2	0.00e+00	0	61	0	993001472	41	4131
2026-01-28 01:32:16.51	28.02	29.09	-35.0	-36.2	19.0	0.00e+00	0	61	0	998244352	41	4190
2026-01-28 01:32:17.52	28.10	29.27	-35.0	-36.3	19.0	0.00e+00	0	61	0	1004535808	41	4205
2026-01-28 01:32:18.53	28.19	29.45	-35.1	-36.4	18.9	0.00e+00	0	61	0	1009778688	41	4265
2026-01-28 01:32:19.54	28.28	29.63	-35.2	-36.4	18.8	0.00e+00	0	61	0	1016070144	41	4289
2026-01-28 01:32:20.55	28.37	29.82	-35.2	-36.4	18.9	0.00e+00	0	61	0	1021313024	41	4273
2026-01-28 01:32:21.56	28.46	30.00	-35.2	-36.5	18.8	0.00e+00	0	61	0	1027604480	41	4297
2026-01-28 01:32:22.57	28.56	30.19	-35.2	-36.4	18.9	0.00e+00	0	61	0	1032847360	41	4284
2026-01-28 01:32:23.58	28.65	30.38	-35.2	-36.5	18.8	0.00e+00	0	61	0	1038090240	41	4297
2026-01-28 01:32:24.59	28.75	30.57	-35.0	-36.3	19.0	0.00e+00	0	61	0	1044381696	41	4204
2026-01-28 01:32:25.60	28.84	30.76	-35.0	-36.2	19.1	0.00e+00	0	61	0	1049624576	41	4173
2026-01-28 01:32:26.61	28.94	30.95	-35.0	-36.2	19.1	0.00e+00	0	61	0	1055916032	41	4167
2026-01-28 01:32:27.63	29.04	31.14	-35.0	-36.2	19.1	0.00e+00	0	61	0	1061158912	41	4162
2026-01-28 01:32:28.64	29.14	31.33	-34.9	-36.1	19.2	0.00e+00	0	61	0	1066401792	41	4132
2026-01-28 01:32:29.65	29.24	31.53	-34.7	-35.9	19.4	0.00e+00	0	61	0	1072693248	41	4022
2026-01-28 01:32:30.66	29.34	31.73	-34.6	-35.8	19.5	0.00e+00	0	61	0	1077936128	41	3991
2026-01-28 01:32:31.67	29.44	31.92	-34.7	-35.9	19.4	0.00e+00	0	61	0	1084227584	41	4040
2026-01-28 01:32:32.68	29.54	32.12	-34.9	-36.1	19.2	0.00e+00	0	61	0	1089470464	41	4119
2026-01-28 01:32:33.69	29.65	32.32	-35.0	-36.2	19.1	0.00e+00	0	61	0	1094713344	41	4187
2026-01-28 01:32:34.70	29.76	32.52	-35.1	-36.3	19.0	0.00e+00	0	61	0	1101004800	41	4234
2026-01-28 01:32:35.71	29.86	32.72	-35.0	-36.2	19.1	0.00e+00	0	61	0	1106247680	41	4173
2026-01-28 01:32:36.72	29.97	32.93	-34.9	-36.1	19.2	0.00e+00	0	61	0	1112539136	41	4139
2026-01-28 01:32:37.72	30.08	33.13	-34.9	-36.1	19.2	0.00e+00	0	61	0	1117782016	41	4138
2026-01-28 01:32:38.73	30.19	33.33	-34.8	-36.0	19.3	0.00e+00	0	61	0	1124073472	41	4069
2026-01-28 01:32:39.75	30.31	33.54	-34.8	-36.0	19.3	0.00e+00	0	61	0	1129316352	41	4079
2026-01-28 01:32:40.75	30.42	33.75	-34.8	-36.0	19.3	0.00e+00	0	61	0	1135607808	41	4070
2026-01-28 01:32:41.77	30.54	33.96	-34.6	-35.8	19.6	0.00e+00	0	61	0	1140850688	41	3967
2026-01-28 01:32:42.78	30.65	34.17	-34.5	-35.7	19.7	0.00e+00	0	61	0	1146093568	41	3925
2026-01-28 01:32:43.79	30.77	34.39	-34.6	-35.7	19.6	0.00e+00	0	61	0	1152385024	40	4189
2026-01-28 01:32:44.79	30.89	34.60	-34.5	-35.7	19.7	0.00e+00	0	61	0	1157627904	40	4152
2026-01-28 01:32:45.81	31.01	34.81	-34.6	-35.7	19.6	0.00e+00	0	61	0	1163919360	40	4187
2026-01-28 01:32:46.82	31.14	35.03	-34.5	-35.7	19.7	0.00e+00	0	61	0	1169162240	40	4161
2026-01-28 01:32:47.83	31.26	35.25	-34.6	-35.7	19.6	0.00e+00	0	61	0	1174405120	40	4193
2026-01-28 01:32:48.84	31.39	35.47	-34.6	-35.7	19.6	0.00e+00	0	61	0	1180696576	40	4187
2026-01-28 01:32:49.85	31.52	35.69	-34.6	-35.8	19.5	0.00e+00	0	61	0	1185939456	40	4232
2026-01-28 01:32:50.86	31.65	35.91	-34.7	-35.8	19.5	0.00e+00	0	61	0	1192230912	40	4240
2026-01-28 01:32:51.87	31.78	36.13	-34.6	-35.8	19.6	0.00e+00	0	61	0	1197473792	40	4204
2026-01-28 01:32:52.88	31.91	36.36	-34.5	-35.6	19.7	0.00e+00	0	61	0	1202716672	40	4129
2026-01-28 01:32:53.89	32.05	36.58	-34.4	-35.6	19.7	0.00e+00	0	61	0	1209008128	40	4126
2026-01-28 01:32:54.90	32.18	36.81	-34.4	-35.6	19.8	0.00e+00	0	61	0	1214251008	40	4110
2026-01-28 01:32:55.92	32.32	37.04	-34.3	-35.5	19.9	0.00e+00	0	61	0	1220542464	40	4066
2026-01-28 01:32:56.93	32.46	37.27	-34.3	-35.5	19.9	0.00e+00	0	61	0	1225785344	40	4074
2026-01-28 01:32:57.94	32.61	37.51	-34.4	-35.6	19.8	0.00e+00	0	61	0	1232076800	40	4119
2026-01-28 01:32:58.95	32.75	37.74	-34.4	-35.6	19.8	0.00e+00	0	61	0	1237319680	40	4124
2026-01-28 01:32:59.96	32.90	37.97	-34.3	-35.5	19.9	0.00e+00	0	61	0	1243611136	40	4068
2026-01-28 01:33:00.97	33.05	38.21	-34.3	-35.4	19.9	0.00e+00	0	61	0	1248854016	40	4051
2026-01-28 01:33:01.98	33.20	38.45	-34.3	-35.4	20.0	0.00e+00	0	61	0	1254096896	40	4035
2026-01-28 01:33:02.99	33.35	38.69	-34.3	-35.4	19.9	0.00e+00	0	61	0	1260388352	40	4048
2026-01-28 01:33:04.00	33.51	38.93	-34.3	-35.6	19.4	0.00e+00	0	61	0	1265631232	40	4106
2026-01-28 01:33:05.01	33.66	39.17	-34.5	-35.8	19.2	0.00e+00	0	61	0	1271922688	40	4225
2026-01-28 01:33:06.02	33.82	39.41	-34.8	-36.1	18.9	0.00e+00	0	61	0	1277165568	40	4370
2026-01-28 01:33:07.03	33.99	39.66	-34.9	-36.2	18.8	0.00e+00	0	61	0	1282408448	40	4441
2026-01-28 01:33:08.04	34.15	39.91	-34.7	-36.1	18.9	0.00e+00	0	61	0	1288699904	40	4359
2026-01-28 01:33:09.05	34.32	40.15	-34.6	-35.9	19.1	0.00e+00	0	61	0	1293942784	40	4273
2026-01-28 01:33:10.07	34.49	40.41	-34.8	-36.0	19.0	0.00e+00	0	61	0	1300234240	40	4339
2026-01-28 01:33:11.08	34.66	40.66	-34.8	-36.2	18.9	0.00e+00	0	61	0	1305477120	40	4399
2026-01-28 01:33:12.09	34.84	40.91	-34.8	-36.1	19.0	0.00e+00	0	61	0	1310720000	40	4365
2026-01-28 01:33:13.09	35.01	41.16	-34.7	-36.0	19.1	0.00e+00	0	62	0	1317011456	40	4310
2026-01-28 01:33:14.10	35.19	41.42	-34.8	-36.2	18.9	0.00e+00	0	61	0	1322254336	40	4399
2026-01-28 01:33:15.12	35.38	41.68	-34.9	-36.2	18.9	0.00e+00	0	61	0	1328545792	40	4412
2026-01-28 01:33:16.13	35.56	41.94	-34.9	-36.3	18.9	0.00e+00	0	61	0	1333788672	40	4449
2026-01-28 01:33:17.14	35.75	42.20	-34.9	-36.2	18.9	0.00e+00	0	61	0	1340080128	40	4412
2026-01-28 01:33:18.15	35.94	42.46	-35.0	-36.3	18.8	0.00e+00	0	61	0	1345323008	40	4473
2026-01-28 01:33:19.16	36.14	42.72	-34.9	-36.3	18.8	0.00e+00	0	61	0	1350565888	40	4457
2026-01-28 01:33:20.17	36.34	42.99	-34.9	-36.2	18.9	0.00e+00	0	61	0	1356857344	40	4425
2026-01-28 01:33:21.18	36.54	43.25	-34.8	-36.1	19.0	0.00e+00	0	61	0	1362100224	40	4360
2026-01-28 01:33:22.19	36.74	43.52	-34.7	-36.0	19.1	0.00e+00	0	61	0	1368391680	40	4323
2026-01-28 01:33:23.20	36.95	43.79	-34.7	-36.0	19.1	0.00e+00	0	61	0	1373634560	40	4317
2026-01-28 01:33:24.21	37.16	44.06	-34.8	-36.2	18.9	0.00e+00	0	61	0	1379926016	40	4392
2026-01-28 01:33:25.22	37.38	44.33	-35.0	-36.4	18.7	0.00e+00	0	61	0	1385168896	40	4495
2026-01-28 01:33:26.23	37.60	44.60	-35.2	-36.6	18.5	0.00e+00	0	61	0	1390411776	40	4620
2026-01-28 01:33:27.24	37.82	44.88	-35.4	-36.9	18.3	0.00e+00	0	61	0	1396703232	41	4497
2026-01-28 01:33:28.25	38.05	45.16	-35.5	-37.0	18.1	0.00e+00	0	61	0	1401946112	41	4554
2026-01-28 01:33:29.26	38.28	45.43	-35.5	-36.9	18.2	0.00e+00	0	62	0	1408237568	41	4526
2026-01-28 01:33:30.28	38.51	45.72	-35.5	-36.9	18.3	0.00e+00	0	62	0	1413480448	41	4516
2026-01-28 01:33:31.29	38.75	46.00	-35.4	-36.8	18.4	0.00e+00	0	61	0	1418723328	41	4446
2026-01-28 01:33:32.30	39.00	46.28	-35.4	-36.7	18.5	0.00e+00	0	61	0	1425014784	41	4434
2026-01-28 01:33:33.31	39.24	46.56	-35.3	-36.6	18.6	0.00e+00	0	61	0	1430257664	41	4368
2026-01-28 01:33:34.32	39.49	46.85	-35.2	-36.6	18.7	0.00e+00	0	62	0	1436549120	41	4347
2026-01-28 01:33:35.33	39.75	47.14	-35.1	-36.5	18.8	0.00e+00	0	62	0	1441792000	41	4298
2026-01-28 01:33:36.34	40.01	47.42	-34.8	-36.1	19.1	0.00e+00	0	61	0	1447034880	41	4126
2026-01-28 01:33:37.35	40.28	47.71	-34.9	-36.1	19.1	0.00e+00	0	61	0	1453326336	41	4140
2026-01-28 01:33:38.36	40.55	48.00	-34.9	-36.2	19.0	0.00e+00	0	62	0	1458569216	41	4187
2026-01-28 01:33:39.37	40.82	48.29	-35.1	-36.4	18.9	0.00e+00	0	61	0	1464860672	41	4256
2026-01-28 01:33:40.38	41.10	48.59	-35.0	-36.3	18.9	0.00e+00	0	61	0	1470103552	41	4224
2026-01-28 01:33:41.39	41.39	48.88	-35.0	-36.3	18.9	0.00e+00	0	62	0	1476395008	41	4208
2026-01-28 01:33:42.40	41.68	49.18	-35.1	-36.5	18.8	0.00e+00	0	61	0	1481637888	41	4298
2026-01-28 01:33:43.41	41.98	49.47	-35.3	-36.7	18.6	0.00e+00	0	61	0	1487929344	41	4398
2026-01-28 01:33:44.42	42.28	49.77	-35.2	-36.6	18.6	0.00e+00	0	61	0	1493172224	41	4361
2026-01-28 01:33:45.43	42.59	50.07	-35.1	-36.5	18.7	0.00e+00	0	61	0	1498415104	41	4301
2026-01-28 01:33:46.44	42.91	50.37	-35.1	-36.4	18.8	0.00e+00	0	61	0	1504706560	41	4262
2026-01-28 01:33:47.46	43.23	50.68	-35.2	-36.5	18.7	0.00e+00	0	61	0	1509949440	41	4335
2026-01-28 01:33:48.46	43.56	50.98	-35.5	-36.9	18.4	0.00e+00	0	61	0	1516240896	41	4519
2026-01-28 01:33:49.48	43.89	51.28	-35.7	-37.1	18.2	0.00e+00	0	61	0	1521483776	41	4611
2026-01-28 01:33:50.49	44.24	51.59	-35.4	-36.8	18.5	0.00e+00	0	61	0	1526726656	41	4467
2026-01-28 01:33:51.50	44.58	51.89	-35.5	-36.9	18.4	0.00e+00	0	61	0	1533018112	41	4506
2026-01-28 01:33:52.51	44.94	52.20	-35.7	-37.1	18.2	0.00e+00	0	62	0	1538260992	41	4621
2026-01-28 01:33:53.52	45.30	52.50	-35.9	-37.3	18.0	0.00e+00	0	62	0	1544552448	42	4468
2026-01-28 01:33:54.53	45.67	52.81	-35.9	-37.3	18.1	0.00e+00	0	61	0	1549795328	42	4457
2026-01-28 01:33:55.54	46.05	53.12	-36.0	-37.4	17.9	0.00e+00	0	61	0	1555038208	42	4525
2026-01-28 01:33:56.55	46.44	53.43	-35.9	-37.4	18.0	0.00e+00	0	61	0	1561329664	42	4507
2026-01-28 01:33:57.56	46.83	53.74	-35.9	-37.3	18.0	0.00e+00	0	61	0	1566572544	42	4472
2026-01-28 01:33:58.57	47.23	54.05	-36.0	-37.4	17.9	0.00e+00	0	62	0	1572864000	42	4521
2026-01-28 01:33:59.58	47.64	54.36	-36.0	-37.5	17.8	0.00e+00	0	61	0	1578106880	42	4563
2026-01-28 01:34:00.59	48.06	54.67	-36.0	-37.4	17.9	0.00e+00	0	61	0	1584398336	42	4528
2026-01-28 01:34:01.60	48.49	54.98	-35.8	-37.3	18.0	0.00e+00	0	62	0	1589641216	42	4451
2026-01-28 01:34:02.61	48.93	55.29	-35.7	-37.1	18.2	0.00e+00	0	61	0	1595932672	42	4352
2026-01-28 01:34:03.62	49.38	55.60	-35.7	-37.1	18.2	0.00e+00	0	61	0	1601175552	42	4345
2026-01-28 01:34:04.63	49.84	55.92	-35.9	-37.4	17.9	0.00e+00	0	61	0	1606418432	42	4495
2026-01-28 01:34:05.64	50.31	56.23	-35.8	-37.2	18.0	0.00e+00	0	61	0	1612709888	42	4429
2026-01-28 01:34:06.66	50.79	56.54	-35.7	-37.1	18.2	0.00e+00	0	62	0	1617952768	42	4377
2026-01-28 01:34:07.67	51.28	56.85	-35.7	-37.1	18.2	0.00e+00	0	61	0	1624244224	42	4357
2026-01-28 01:34:08.68	51.79	57.16	-35.8	-37.2	18.1	0.00e+00	0	61	0	1629487104	42	4416
2026-01-28 01:34:09.68	52.29	57.47	-35.9	-37.4	17.9	0.00e+00	0	62	0	1634729984	42	4514
2026-01-28 01:34:10.69	52.82	57.78	-35.8	-37.3	18.0	0.00e+00	0	62	0	1641021440	42	4449
2026-01-28 01:34:11.71	53.36	58.09	-35.7	-37.1	18.1	0.00e+00	0	61	0	1646264320	42	4375
2026-01-28 01:34:12.72	53.91	58.40	-35.6	-37.0	18.3	0.00e+00	0	61	0	1652555776	42	4323
2026-01-28 01:34:13.73	54.47	58.71	-35.7	-37.0	18.2	0.00e+00	0	61	0	1657798656	42	4339
2026-01-28 01:34:14.74	55.05	59.02	-35.6	-37.0	18.3	0.00e+00	0	61	0	1663041536	42	4330
2026-01-28 01:34:15.75	55.64	59.32	-35.4	-36.8	18.5	0.00e+00	0	62	0	1669332992	42	4216
2026-01-28 01:34:16.76	56.24	59.63	-35.5	-36.9	18.4	0.00e+00	0	61	0	1674575872	42	4271
2026-01-28 01:34:17.77	56.86	59.93	-35.5	-36.8	18.5	0.00e+00	0	62	0	1680867328	42	4234
2026-01-28 01:34:18.78	57.49	60.23	-35.3	-36.7	18.6	0.00e+00	0	62	0	1686110208	42	4147
2026-01-28 01:34:19.79	58.14	60.53	-35.1	-36.4	18.9	0.00e+00	0	61	0	1692401664	42	4050
2026-01-28 01:34:20.80	58.80	60.83	-34.8	-36.1	19.1	0.00e+00	0	61	0	1697644544	41	4117
2026-01-28 01:34:21.82	59.48	61.13	-34.7	-35.9	19.3	0.00e+00	0	61	0	1703936000	41	4037
2026-01-28 01:34:22.82	60.17	61.42	-34.8	-36.2	19.0	0.00e+00	0	62	0	1709178880	41	4151
2026-01-28 01:34:23.84	60.89	61.72	-34.4	-35.7	19.5	0.00e+00	0	61	0	1714421760	40	4154
2026-01-28 01:34:24.85	61.61	62.01	-34.2	-35.5	19.7	0.00e+00	0	62	0	1720713216	40	4054
2026-01-28 01:34:25.86	62.36	62.29	-34.3	-35.5	19.6	0.00e+00	0	62	0	1725956096	40	4071
2026-01-28 01:34:26.87	63.12	62.58	-34.6	-35.9	19.3	0.00e+00	0	62	0	1732247552	40	4259
2026-01-28 01:34:27.88	63.90	62.86	-34.8	-36.1	19.1	0.00e+00	0	62	0	1737490432	40	4354
2026-01-28 01:34:28.89	64.70	63.13	-34.7	-36.0	19.2	0.00e+00	0	61	0	1742733312	40	4304
2026-01-28 01:34:29.90	65.51	63.41	-34.5	-35.8	19.4	0.00e+00	0	62	0	1749024768	40	4204
2026-01-28 01:34:30.90	66.34	63.67	-34.5	-35.8	19.4	0.00e+00	0	62	0	1754267648	40	4219
2026-01-28 01:34:31.91	67.20	63.94	-34.6	-35.9	19.4	0.00e+00	0	61	0	1760559104	40	4245
2026-01-28 01:34:32.92	68.07	64.20	-34.7	-36.0	19.1	0.00e+00	0	62	0	1765801984	40	4339
2026-01-28 01:34:33.93	68.96	64.46	-34.8	-36.1	19.1	0.00e+00	0	62	0	1771044864	40	4376
2026-01-28 01:34:34.94	69.88	64.71	-34.7	-36.0	19.2	0.00e+00	0	62	0	1777336320	40	4323
2026-01-28 01:34:35.95	70.81	64.96	-34.3	-35.6	19.6	0.00e+00	0	62	0	1782579200	40	4106
2026-01-28 01:34:36.96	71.77	65.20	-34.2	-35.5	19.7	0.00e+00	0	62	0	1788870656	40	4052
2026-01-28 01:34:37.97	72.74	65.43	-34.3	-35.6	19.6	0.00e+00	0	62	0	1794113536	40	4107
2026-01-28 01:34:38.98	73.74	65.66	-34.4	-35.6	19.5	0.00e+00	0	61	0	1800404992	40	4142
2026-01-28 01:34:40.00	74.77	65.89	-34.1	-35.3	19.8	0.00e+00	0	62	0	1805647872	40	3990
2026-01-28 01:34:41.01	75.80	66.11	-34.2	-35.4	19.7	0.00e+00	0	61	0	1811939328	40	4024
2026-01-28 01:34:42.02	76.86	66.32	-34.4	-35.7	19.4	0.00e+00	0	62	0	1817182208	40	4172
2026-01-28 01:34:43.03	77.94	66.52	-34.4	-35.6	19.5	0.00e+00	0	62	0	1822425088	40	4144
2026-01-28 01:34:44.04	79.04	66.72	-34.5	-35.7	19.4	0.00e+00	0	61	0	1828716544	40	4185
2026-01-28 01:34:45.05	80.16	66.91	-34.5	-35.7	19.3	0.00e+00	0	62	0	1833959424	40	4192
2026-01-28 01:34:46.06	81.30	67.09	-34.1	-35.3	19.8	0.00e+00	0	61	0	1840250880	40	3962
2026-01-28 01:34:47.07	82.46	67.27	-34.0	-35.2	19.8	0.00e+00	0	61	0	1845493760	40	3952
2026-01-28 01:34:48.08	83.64	67.43	-34.1	-35.3	19.7	0.00e+00	0	62	0	1850736640	40	3996
2026-01-28 01:34:49.10	84.85	67.59	-34.1	-35.3	19.7	0.00e+00	0	62	0	1857028096	40	3994
2026-01-28 01:34:50.11	86.06	67.74	-34.3	-35.6	19.6	0.00e+00	0	62	0	1862270976	40	4109
2026-01-28 01:34:51.12	87.29	67.88	-34.6	-35.9	19.3	0.00e+00	0	61	0	1868562432	40	4250
2026-01-28 01:34:52.12	88.53	68.01	-34.3	-35.6	19.6	0.00e+00	0	62	0	1873805312	40	4113
2026-01-28 01:34:53.13	89.79	68.13	-34.1	-35.4	19.8	0.00e+00	0	62	0	1879048192	40	4005
2026-01-28 01:34:54.14	91.07	68.24	-33.9	-35.1	20.1	0.00e+00	0	61	0	1885339648	39	4110
2026-01-28 01:34:55.15	92.36	68.34	-34.2	-35.4	19.8	0.00e+00	0	62	0	1890582528	39	4272
2026-01-28 01:34:56.17	93.68	68.43	-34.2	-35.5	19.7	0.00e+00	0	62	0	1896873984	39	4306
2026-01-28 01:34:57.18	94.99	68.51	-34.1	-35.3	19.8	0.00e+00	0	62	0	1902116864	39	4222
2026-01-28 01:34:58.19	96.32	68.58	-34.1	-35.3	19.8	0.00e+00	0	62	0	1908408320	39	4229
2026-01-28 01:34:59.20	97.65	68.64	-34.2	-35.4	19.7	0.00e+00	0	61	0	1913651200	39	4280
2026-01-28 01:35:00.21	99.00	68.69	-34.1	-35.3	19.8	0.00e+00	0	62	0	1919942656	39	4216
2026-01-28 01:35:01.22	100.34	68.73	-34.1	-35.3	19.8	0.00e+00	0	62	0	1925185536	39	4229
2026-01-28 01:35:02.23	101.70	68.76	-34.0	-35.2	19.9	0.00e+00	0	62	0	1930428416	39	4170
2026-01-28 01:35:03.24	103.05	68.77	-34.0	-35.2	19.8	0.00e+00	0	62	0	1936719872	39	4192
2026-01-28 01:35:04.25	104.41	68.78	-34.3	-35.5	19.6	0.00e+00	0	62	0	1941962752	39	4323
2026-01-28 01:35:05.26	105.76	68.77	-34.2	-35.5	19.7	0.00e+00	0	62	0	1948254208	39	4293
2026-01-28 01:35:06.27	107.12	68.76	-34.0	-35.2	19.9	0.00e+00	0	62	0	1953497088	39	4164
2026-01-28 01:35:07.28	108.47	68.73	-34.0	-35.2	19.9	0.00e+00	0	62	0	1958739968	39	4185
2026-01-28 01:35:08.29	109.82	68.69	-33.9	-35.2	20.0	0.00e+00	0	62	0	1965031424	39	4152
2026-01-28 01:35:09.30	111.16	68.64	-33.9	-35.1	20.0	0.00e+00	0	62	0	1970274304	39	4130
2026-01-28 01:35:10.31	112.50	68.58	-34.0	-35.3	19.8	0.00e+00	0	62	0	1976565760	39	4197
2026-01-28 01:35:11.33	113.84	68.51	-34.1	-35.3	19.8	0.00e+00	0	62	0	1981808640	39	4240
2026-01-28 01:35:12.34	115.15	68.43	-34.0	-35.2	20.0	0.00e+00	0	62	0	1987051520	39	4155
2026-01-28 01:35:13.35	116.46	68.34	-34.0	-35.2	19.9	0.00e+00	0	62	0	1993342976	39	4175
2026-01-28 01:35:14.36	117.75	68.24	-33.9	-35.1	20.0	0.00e+00	0	62	0	1998585856	39	4124
2026-01-28 01:35:15.37	119.03	68.13	-33.9	-35.1	19.9	0.00e+00	0	62	0	2004877312	39	4132
2026-01-28 01:35:16.38	120.29	68.01	-34.2	-35.5	19.6	0.00e+00	0	62	0	2010120192	39	4314
2026-01-28 01:35:17.39	121.54	67.88	-34.4	-35.8	19.3	0.00e+00	0	62	0	2016411648	39	4445
2026-01-28 01:35:18.40	122.78	67.74	-34.2	-35.4	19.7	0.00e+00	0	61	0	2021654528	39	4284
2026-01-28 01:35:19.41	123.99	67.59	-33.9	-35.1	19.9	0.00e+00	0	62	0	2027945984	39	4138
2026-01-28 01:35:20.42	125.19	67.43	-34.1	-35.3	19.8	0.00e+00	0	62	0	2033188864	39	4212
2026-01-28 01:35:21.43	126.37	67.27	-34.0	-35.3	19.9	0.00e+00	0	62	0	2038431744	39	4198
2026-01-28 01:35:22.44	127.53	67.09	-34.1	-35.3	19.8	0.00e+00	0	62	0	2044723200	39	4235
2026-01-28 01:35:23.45	128.67	66.91	-34.2	-35.4	19.7	0.00e+00	0	62	0	2049966080	39	4276
2026-01-28 01:35:24.46	129.79	66.72	-34.1	-35.3	19.9	0.00e+00	0	62	0	2056257536	39	4229
2026-01-28 01:35:25.47	130.89	66.52	-34.1	-35.4	19.8	0.00e+00	0	62	0	2061500416	39	4244
2026-01-28 01:35:26.48	131.97	66.32	-34.2	-35.4	19.7	0.00e+00	0	62	0	2066743296	39	4281
2026-01-28 01:35:27.50	133.04	66.11	-34.2	-35.4	19.7	0.00e+00	0	62	0	2073034752	39	4277
2026-01-28 01:35:28.51	134.08	65.89	-34.2	-35.5	19.6	0.00e+00	0	62	0	2078277632	39	4306
2026-01-28 01:35:29.52	135.10	65.66	-34.4	-35.7	19.5	0.00e+00	0	62	0	2084569088	39	4401
2026-01-28 01:35:30.53	136.10	65.43	-34.4	-35.7	19.5	0.00e+00	0	62	0	2089811968	39	4417
2026-01-28 01:35:31.54	137.07	65.20	-34.3	-35.6	19.5	0.00e+00	0	62	0	2095054848	39	4372
2026-01-28 01:35:32.55	138.03	64.95	-34.5	-35.7	19.5	0.00e+00	0	62	0	2101346304	39	4426
2026-01-28 01:35:33.56	138.97	64.71	-34.4	-35.7	19.5	0.00e+00	0	62	0	2106589184	39	4429
2026-01-28 01:35:34.57	139.88	64.45	-34.4	-35.7	19.5	0.00e+00	0	62	0	2112880640	39	4411
2026-01-28 01:35:35.58	140.78	64.20	-34.3	-35.5	19.6	0.00e+00	0	62	0	2118123520	39	4339
2026-01-28 01:35:36.59	141.65	63.94	-34.3	-35.5	19.7	0.00e+00	0	62	0	2124414976	39	4331
2026-01-28 01:35:37.60	142.51	63.67	-34.4	-35.7	19.6	0.00e+00	0	62	0	2129657856	39	4397
2026-01-28 01:35:38.61	143.35	63.40	-34.4	-35.7	19.5	0.00e+00	0	62	0	2135949312	39	4397
2026-01-28 01:35:39.62	144.16	63.13	-34.3	-35.5	19.7	0.00e+00	0	62	0	2141192192	39	4309
2026-01-28 01:35:40.62	144.96	62.85	-34.4	-35.7	19.6	0.00e+00	0	62	0	2146435072	39	4408
2026-01-28 01:35:41.64	145.74	62.57	-34.5	-35.8	19.5	0.00e+00	0	62	0	2152726528	39	4471
2026-01-28 01:35:42.65	146.51	62.28	-34.6	-35.9	19.4	0.00e+00	0	62	0	2157969408	39	4501
2026-01-28 01:35:43.66	147.25	62.00	-34.7	-36.0	19.2	0.00e+00	0	62	0	2164260864	40	4310
2026-01-28 01:35:44.67	147.98	61.71	-34.6	-35.9	19.2	0.00e+00	0	62	0	2169503744	40	4286
2026-01-28 01:35:45.68	148.69	61.41	-34.5	-35.8	19.4	0.00e+00	0	62	0	2174746624	40	4206
2026-01-28 01:35:46.69	149.39	61.12	-34.6	-35.8	19.3	0.00e+00	0	62	0	2181038080	40	4241
2026-01-28 01:35:47.70	150.07	60.82	-34.6	-35.9	19.2	0.00e+00	0	62	0	2186280960	40	4281
2026-01-28 01:35:48.71	150.73	60.52	-34.6	-35.9	19.2	0.00e+00	0	62	0	2192572416	40	4291
2026-01-28 01:35:49.72	151.38	60.22	-34.8	-36.1	19.1	0.00e+00	0	62	0	2197815296	40	4350
2026-01-28 01:35:50.74	152.01	59.92	-34.8	-36.1	19.1	0.00e+00	0	62	0	2203058176	40	4380
2026-01-28 01:35:51.75	152.63	59.61	-35.1	-36.4	18.8	0.00e+00	0	62	0	2209349632	40	4516
2026-01-28 01:35:52.75	153.23	59.31	-35.1	-36.5	18.8	0.00e+00	0	62	0	2214592512	40	4551
2026-01-28 01:35:53.76	153.82	59.00	-35.0	-36.3	18.9	0.00e+00	0	62	0	2220883968	40	4459
2026-01-28 01:35:54.77	154.40	58.69	-35.0	-36.2	19.0	0.00e+00	0	62	0	2226126848	40	4439
2026-01-28 01:35:55.78	154.96	58.39	-35.0	-36.2	19.0	0.00e+00	0	62	0	2232418304	40	4440
2026-01-28 01:35:56.79	155.51	58.08	-35.2	-36.5	18.7	0.00e+00	0	62	0	2237661184	40	4585
2026-01-28 01:35:57.80	156.05	57.77	-35.3	-36.7	18.6	0.00e+00	0	62	0	2243952640	41	4415
2026-01-28 01:35:58.81	156.57	57.45	-35.4	-36.8	18.5	0.00e+00	0	62	0	2249195520	41	4452
2026-01-28 01:35:59.82	157.09	57.14	-35.4	-36.8	18.5	0.00e+00	0	62	0	2254438400	41	4453
2026-01-28 01:36:00.80	157.57	56.84	-35.4	-36.7	18.5	0.00e+00	0	62	0	2260729856	41	4441
2026-01-28 01:36:01.82	158.07	56.52	-35.4	-36.8	18.4	0.00e+00	0	62	0	2265972736	41	4463
2026-01-28 01:36:02.83	158.55	56.21	-35.5	-36.9	18.3	0.00e+00	0	62	0	2271215616	41	4516
2026-01-28 01:36:03.84	159.02	55.90	-35.6	-37.0	18.3	0.00e+00	0	62	0	2277507072	41	4552
2026-01-28 01:36:04.85	159.48	55.59	-35.5	-36.9	18.3	0.00e+00	0	62	0	2282749952	41	4532
2026-01-28 01:36:05.86	159.93	55.27	-35.7	-37.1	18.2	0.00e+00	0	62	0	2289041408	41	4628
2026-01-28 01:36:06.86	160.37	54.96	-35.7	-37.1	18.1	0.00e+00	0	62	0	2294284288	41	4647
2026-01-28 01:36:07.87	160.80	54.65	-35.7	-37.1	18.2	0.00e+00	0	62	0	2299527168	42	4355
2026-01-28 01:36:08.88	161.22	54.34	-35.6	-37.0	18.3	0.00e+00	0	62	0	2305818624	42	4320
2026-01-28 01:36:09.89	161.63	54.03	-35.6	-36.9	18.4	0.00e+00	0	62	0	2311061504	42	4276
2026-01-28 01:36:10.90	162.03	53.72	-35.5	-36.9	18.3	0.00e+00	0	62	0	2317352960	42	4274
2026-01-28 01:36:11.91	162.43	53.41	-35.7	-37.2	18.1	0.00e+00	0	62	0	2322595840	42	4397
2026-01-28 01:36:12.92	162.81	53.10	-35.7	-37.1	18.1	0.00e+00	0	62	0	2328887296	42	4389
2026-01-28 01:36:13.93	163.19	52.79	-35.5	-37.0	18.3	0.00e+00	0	62	0	2334130176	42	4302
2026-01-28 01:36:14.95	163.57	52.47	-35.4	-36.8	18.4	0.00e+00	0	62	0	2340421632	42	4220
2026-01-28 01:36:15.96	163.93	52.17	-35.4	-36.7	18.5	0.00e+00	0	62	0	2345664512	42	4178
2026-01-28 01:36:16.97	164.29	51.86	-35.4	-36.7	18.5	0.00e+00	0	62	0	2350907392	42	4181
2026-01-28 01:36:17.98	164.64	51.55	-35.6	-36.9	18.3	0.00e+00	0	62	0	2357198848	42	4284
2026-01-28 01:36:18.99	164.98	51.25	-35.5	-36.9	18.4	0.00e+00	0	62	0	2362441728	42	4245
2026-01-28 01:36:20.00	165.31	50.94	-35.4	-36.8	18.5	0.00e+00	0	62	0	2368733184	42	4199
2026-01-28 01:36:21.01	165.64	50.64	-35.4	-36.8	18.5	0.00e+00	0	62	0	2373976064	42	4203
2026-01-28 01:36:22.02	165.96	50.34	-35.4	-36.8	18.5	0.00e+00	0	62	0	2379218944	42	4203
2026-01-28 01:36:23.03	166.28	50.04	-35.3	-36.6	18.6	0.00e+00	0	62	0	2385510400	42	4135
2026-01-28 01:36:24.04	166.59	49.73	-35.2	-36.5	18.8	0.00e+00	0	62	0	2390753280	42	4092
2026-01-28 01:36:25.05	166.89	49.44	-35.0	-36.3	18.9	0.00e+00	0	62	0	2397044736	42	3998
2026-01-28 01:36:26.06	167.19	49.14	-35.0	-36.3	19.0	0.00e+00	0	62	0	2402287616	42	3991
2026-01-28 01:36:27.07	167.48	48.84	-35.0	-36.3	19.0	0.00e+00	0	62	0	2407530496	42	3964
2026-01-28 01:36:28.08	167.77	48.55	-34.9	-36.2	19.1	0.00e+00	0	62	0	2413821952	41	4156
2026-01-28 01:36:29.09	168.05	48.25	-35.1	-36.5	18.8	0.00e+00	0	62	0	2419064832	41	4293
2026-01-28 01:36:30.10	168.33	47.96	-35.3	-36.6	18.6	0.00e+00	0	62	0	2425356288	41	4389
2026-01-28 01:36:31.10	168.59	47.67	-35.0	-36.4	18.8	0.00e+00	0	62	0	2430599168	41	4252
2026-01-28 01:36:32.11	168.86	47.38	-34.9	-36.2	18.9	0.00e+00	0	62	0	2436890624	41	4186
2026-01-28 01:36:33.12	169.12	47.09	-35.0	-36.3	18.9	0.00e+00	0	62	0	2442133504	41	4205
2026-01-28 01:36:34.13	169.38	46.80	-35.0	-36.3	18.9	0.00e+00	0	62	0	2447376384	41	4224
2026-01-28 01:36:35.14	169.63	46.52	-35.0	-36.3	18.8	0.00e+00	0	62	0	2453667840	41	4242
2026-01-28 01:36:36.15	169.88	46.23	-35.1	-36.5	18.7	0.00e+00	0	62	0	2458910720	41	4299
2026-01-28 01:36:37.16	170.12	45.95	-35.2	-36.5	18.6	0.00e+00	0	62	0	2465202176	41	4338
2026-01-28 01:36:38.17	170.36	45.67	-35.0	-36.3	18.8	0.00e+00	0	62	0	2470445056	41	4229
2026-01-28 01:36:39.18	170.59	45.38	-34.8	-36.1	19.0	0.00e+00	0	62	0	2475687936	41	4135
2026-01-28 01:36:40.19	170.82	45.11	-34.7	-36.0	19.1	0.00e+00	0	62	0	2481979392	41	4075
2026-01-28 01:36:41.20	171.05	44.83	-34.7	-36.0	19.1	0.00e+00	0	62	0	2487222272	41	4084
2026-01-28 01:36:42.21	171.27	44.55	-34.8	-36.1	19.0	0.00e+00	0	62	0	2493513728	41	4143
2026-01-28 01:36:43.22	171.49	44.28	-34.8	-36.1	19.1	0.00e+00	0	62	0	2498756608	41	4113
2026-01-28 01:36:44.23	171.71	44.00	-34.7	-36.0	19.1	0.00e+00	0	62	0	2503999488	41	4082
2026-01-28 01:36:45.24	171.92	43.73	-34.7	-36.0	19.2	0.00e+00	0	62	0	2510290944	41	4056
2026-01-28 01:36:46.25	172.13	43.46	-34.6	-35.9	19.3	0.00e+00	0	62	0	2515533824	41	4007
2026-01-28 01:36:47.26	172.33	43.19	-34.4	-35.7	19.4	0.00e+00	0	62	0	2521825280	40	4167
2026-01-28 01:36:48.27	172.54	42.92	-34.3	-35.6	19.5	0.00e+00	0	62	0	2527068160	40	4102
2026-01-28 01:36:49.29	172.74	42.66	-34.4	-35.7	19.4	0.00e+00	0	62	0	2533359616	40	4167
2026-01-28 01:36:50.30	172.93	42.39	-34.4	-35.6	19.4	0.00e+00	0	62	0	2538602496	40	4145
2026-01-28 01:36:51.31	173.12	42.13	-34.3	-35.6	19.4	0.00e+00	0	62	0	2544893952	40	4132
2026-01-28 01:36:52.32	173.31	41.87	-34.4	-35.6	19.4	0.00e+00	0	62	0	2550136832	40	4141
2026-01-28 01:36:53.33	173.50	41.61	-34.4	-35.6	19.4	0.00e+00	0	62	0	2555379712	40	4145
2026-01-28 01:36:54.34	173.68	41.35	-34.4	-35.7	19.4	0.00e+00	0	62	0	2561671168	40	4176
2026-01-28 01:36:55.35	173.86	41.09	-34.4	-35.7	19.3	0.00e+00	0	62	0	2566914048	40	4171
2026-01-28 01:36:56.36	174.04	40.84	-34.3	-35.6	19.4	0.00e+00	0	62	0	2573205504	40	4122
2026-01-28 01:36:57.37	174.21	40.58	-34.3	-35.5	19.5	0.00e+00	0	62	0	2578448384	40	4084
2026-01-28 01:36:58.38	174.39	40.33	-34.3	-35.6	19.5	0.00e+00	0	62	0	2583691264	40	4113
2026-01-28 01:36:59.39	174.56	40.08	-34.4	-35.7	19.3	0.00e+00	0	62	0	2589982720	40	4169
2026-01-28 01:37:00.40	174.72	39.83	-34.5	-35.8	19.3	0.00e+00	0	62	0	2595225600	40	4201
2026-01-28 01:37:01.41	174.89	39.58	-34.4	-35.7	19.3	0.00e+00	0	62	0	2601517056	40	4163
2026-01-28 01:37:02.42	175.05	39.34	-34.4	-35.7	19.3	0.00e+00	0	62	0	2606759936	40	4190
2026-01-28 01:37:03.43	175.21	39.09	-34.4	-35.7	19.3	0.00e+00	0	62	0	2612002816	40	4164
2026-01-28 01:37:04.44	175.37	38.85	-34.4	-35.7	19.3	0.00e+00	0	62	0	2618294272	40	4180
2026-01-28 01:37:05.45	175.52	38.61	-34.2	-35.5	19.5	0.00e+00	0	62	0	2623537152	40	4077
2026-01-28 01:37:06.46	175.67	38.37	-34.2	-35.5	19.5	0.00e+00	0	62	0	2629828608	40	4064
2026-01-28 01:37:07.47	175.83	38.13	-34.3	-35.5	19.5	0.00e+00	0	62	0	2635071488	40	4092
2026-01-28 01:37:08.48	175.97	37.89	-34.4	-35.7	19.4	0.00e+00	0	62	0	2641362944	40	4149
2026-01-28 01:37:09.49	176.12	37.65	-34.5	-35.8	19.2	0.00e+00	0	62	0	2646605824	40	4226
2026-01-28 01:37:10.50	176.27	37.42	-34.4	-35.8	19.3	0.00e+00	0	62	0	2652897280	40	4199
2026-01-28 01:37:11.51	176.41	37.19	-34.4	-35.8	19.2	0.00e+00	0	62	0	2658140160	40	4196
2026-01-28 01:37:12.52	176.55	36.96	-34.4	-35.7	19.3	0.00e+00	0	62	0	2663383040	40	4161
2026-01-28 01:37:13.53	176.69	36.73	-34.4	-35.7	19.2	0.00e+00	0	62	0	2669674496	40	4190
2026-01-28 01:37:14.55	176.83	36.50	-34.4	-35.7	19.3	0.00e+00	0	62	0	2674917376	40	4164
2026-01-28 01:37:15.56	176.96	36.27	-34.2	-35.5	19.4	0.00e+00	0	62	0	2681208832	40	4088
2026-01-28 01:37:16.57	177.09	36.04	-34.2	-35.5	19.4	0.00e+00	0	62	0	2686451712	40	4068
2026-01-28 01:37:17.58	177.22	35.82	-34.3	-35.5	19.4	0.00e+00	0	62	0	2691694592	40	4086
2026-01-28 01:37:18.59	177.35	35.59	-34.2	-35.5	19.4	0.00e+00	0	62	0	2697986048	40	4085
2026-01-28 01:37:19.60	177.48	35.37	-34.2	-35.5	19.4	0.00e+00	0	62	0	2703228928	40	4054
2026-01-28 01:37:20.61	177.61	35.15	-34.3	-35.6	19.3	0.00e+00	0	62	0	2709520384	40	4105
2026-01-28 01:37:21.62	177.73	34.93	-34.4	-35.7	19.2	0.00e+00	0	62	0	2714763264	40	4158
2026-01-28 01:37:22.63	177.86	34.72	-34.3	-35.7	19.3	0.00e+00	0	62	0	2720006144	40	4152
2026-01-28 01:37:23.64	177.98	34.50	-34.5	-35.8	19.2	0.00e+00	0	62	0	2726297600	40	4224
2026-01-28 01:37:24.65	178.10	34.29	-34.5	-35.8	19.1	0.00e+00	0	62	0	2731540480	40	4221
2026-01-28 01:37:25.66	178.22	34.07	-34.5	-35.8	19.1	0.00e+00	0	62	0	2737831936	40	4220
2026-01-28 01:37:26.68	178.33	33.86	-34.5	-35.9	19.1	0.00e+00	0	62	0	2743074816	40	4244
2026-01-28 01:37:27.69	178.45	33.65	-34.5	-35.8	19.1	0.00e+00	0	62	0	2749366272	40	4212
2026-01-28 01:37:28.70	178.56	33.44	-34.5	-35.9	19.1	0.00e+00	0	62	0	2754609152	40	4245
2026-01-28 01:37:29.71	178.68	33.23	-34.6	-35.9	19.0	0.00e+00	0	62	0	2760900608	40	4280
2026-01-28 01:37:30.72	178.79	33.02	-34.6	-35.9	19.0	0.00e+00	0	62	0	2766143488	40	4261
2026-01-28 01:37:31.73	178.90	32.82	-34.6	-36.0	18.9	0.00e+00	0	62	0	2771386368	40	4301
2026-01-28 01:37:32.74	179.01	32.61	-34.7	-36.0	18.9	0.00e+00	0	62	0	2777677824	40	4326
2026-01-28 01:37:33.75	179.11	32.41	-34.8	-36.1	18.8	0.00e+00	0	62	0	2782920704	40	4382
2026-01-28 01:37:34.76	179.22	32.21	-34.7	-36.0	18.9	0.00e+00	0	62	0	2789212160	40	4333
2026-01-28 01:37:35.78	179.32	32.01	-34.8	-36.2	18.7	0.00e+00	0	62	0	2794455040	40	4395
2026-01-28 01:37:36.79	179.43	31.81	-34.9	-36.3	18.6	0.00e+00	0	62	0	2799697920	40	4460
2026-01-28 01:37:37.80	179.53	31.61	-34.9	-36.3	18.6	0.00e+00	0	62	0	2805989376	40	4457
2026-01-28 01:37:38.81	179.63	31.41	-34.9	-36.3	18.6	0.00e+00	0	62	0	2811232256	40	4485
2026-01-28 01:37:39.82	179.73	31.22	-34.8	-36.3	18.6	0.00e+00	0	62	0	2817523712	40	4448
2026-01-28 01:37:40.83	179.83	31.02	-34.9	-36.3	18.6	0.00e+00	0	62	0	2822766592	40	4464
2026-01-28 01:37:41.84	179.93	30.83	-34.9	-36.3	18.6	0.00e+00	0	62	0	2828009472	40	4481
2026-01-28 01:37:42.85	180.02	30.64	-34.9	-36.3	18.6	0.00e+00	0	62	0	2834300928	40	4486
2026-01-28 01:37:43.86	180.12	30.45	-34.9	-36.2	18.6	0.00e+00	0	62	0	2839543808	40	4441
2026-01-28 01:37:44.87	180.21	30.26	-34.8	-36.1	18.7	0.00e+00	0	62	0	2845835264	40	4390
2026-01-28 01:37:45.88	180.31	30.07	-34.8	-36.1	18.8	0.00e+00	0	62	0	2851078144	40	4369
2026-01-28 01:37:46.89	180.40	29.88	-34.7	-36.1	18.8	0.00e+00	0	62	0	2857369600	40	4343
2026-01-28 01:37:47.90	180.49	29.70	-34.6	-35.9	18.9	0.00e+00	0	62	0	2862612480	40	4289
2026-01-28 01:37:48.91	180.58	29.51	-34.5	-35.9	19.0	0.00e+00	0	62	0	2868903936	40	4248
2026-01-28 01:37:49.92	180.67	29.33	-34.6	-35.9	18.9	0.00e+00	0	62	0	2874146816	40	4286
2026-01-28 01:37:50.93	180.76	29.15	-34.6	-35.9	19.0	0.00e+00	0	62	0	2879389696	40	4281
2026-01-28 01:37:51.94	180.84	28.96	-34.6	-35.9	18.9	0.00e+00	0	62	0	2885681152	40	4288
2026-01-28 01:37:52.95	180.93	28.78	-34.6	-35.9	18.9	0.00e+00	0	62	0	2890924032	40	4276
2026-01-28 01:37:53.96	181.02	28.60	-34.5	-35.9	19.0	0.00e+00	0	62	0	2897215488	40	4256
2026-01-28 01:37:54.97	181.10	28.43	-34.6	-36.0	18.9	0.00e+00	0	62	0	2902458368	40	4298
2026-01-28 01:37:55.98	181.18	28.25	-34.6	-35.9	19.0	0.00e+00	0	62	0	2907701248	40	4268
2026-01-28 01:37:56.99	181.27	28.07	-34.6	-35.9	18.9	0.00e+00	0	62	0	2913992704	40	4282
2026-01-28 01:37:58.00	181.35	27.90	-34.7	-36.0	18.8	0.00e+00	0	62	0	2919235584	40	4322
2026-01-28 01:37:59.01	181.43	27.72	-34.6	-36.0	18.8	0.00e+00	0	62	0	2925527040	40	4319
2026-01-28 01:38:00.02	181.51	27.55	-34.6	-35.9	18.9	0.00e+00	0	62	0	2930769920	40	4289
2026-01-28 01:38:01.03	181.59	27.38	-34.6	-35.9	18.9	0.00e+00	0	62	0	2936012800	40	4269
2026-01-28 01:38:02.04	181.67	27.21	-34.6	-35.9	18.9	0.00e+00	0	62	0	2942304256	40	4291
2026-01-28 01:38:03.05	181.75	27.04	-34.5	-35.9	18.9	0.00e+00	0	62	0	2947547136	40	4262
2026-01-28 01:38:04.06	181.82	26.87	-34.6	-36.0	18.8	0.00e+00	0	62	0	2953838592	40	4317
2026-01-28 01:38:05.07	181.90	26.70	-34.6	-36.0	18.8	0.00e+00	0	62	0	2959081472	40	4319
2026-01-28 01:38:06.08	181.97	26.53	-34.7	-36.1	18.8	0.00e+00	0	62	0	2965372928	40	4349
2026-01-28 01:38:07.09	182.05	26.37	-34.8	-36.1	18.7	0.00e+00	0	62	0	2970615808	40	4387
2026-01-28 01:38:08.10	182.12	26.20	-34.8	-36.2	18.7	0.00e+00	0	62	0	2976907264	40	4393
2026-01-28 01:38:09.11	182.20	26.04	-34.8	-36.2	18.7	0.00e+00	0	62	0	2982150144	40	4408
2026-01-28 01:38:10.12	182.27	25.88	-34.8	-36.2	18.6	0.00e+00	0	62	0	2987393024	40	4438
2026-01-28 01:38:11.13	182.34	25.71	-34.9	-36.3	18.5	0.00e+00	0	62	0	2993684480	40	4483
2026-01-28 01:38:12.14	182.41	25.55	-35.0	-36.4	18.4	0.00e+00	0	62	0	2998927360	40	4541
2026-01-28 01:38:13.15	182.48	25.39	-35.0	-36.4	18.4	0.00e+00	0	62	0	3005218816	40	4543
2026-01-28 01:38:14.16	182.55	25.23	-35.1	-36.5	18.3	0.00e+00	0	62	0	3010461696	40	4590
2026-01-28 01:38:15.17	182.62	25.07	-35.1	-36.6	18.3	0.00e+00	0	62	0	3015704576	40	4612
2026-01-28 01:38:16.19	182.69	24.92	-35.1	-36.5	18.3	0.00e+00	0	62	0	3021996032	40	4587
2026-01-28 01:38:17.20	182.76	24.76	-35.2	-36.6	18.2	0.00e+00	0	62	0	3027238912	40	4631
2026-01-28 01:38:18.21	182.82	24.60	-35.2	-36.6	18.2	0.00e+00	0	62	0	3033530368	41	4377
2026-01-28 01:38:19.22	182.89	24.45	-35.2	-36.6	18.2	0.00e+00	0	62	0	3038773248	41	4361
2026-01-28 01:38:20.22	182.96	24.30	-35.2	-36.7	18.1	0.00e+00	0	62	0	3044016128	41	4399
2026-01-28 01:38:21.24	183.02	24.14	-35.3	-36.7	18.1	0.00e+00	0	62	0	3050307584	41	4424
2026-01-28 01:38:22.25	183.09	23.99	-35.2	-36.7	18.2	0.00e+00	0	62	0	3055550464	41	4403
2026-01-28 01:38:23.26	183.15	23.84	-35.2	-36.6	18.2	0.00e+00	0	62	0	3061841920	41	4370
2026-01-28 01:38:24.26	183.21	23.69	-35.2	-36.6	18.2	0.00e+00	0	62	0	3067084800	41	4358
2026-01-28 01:38:25.27	183.28	23.54	-35.2	-36.6	18.2	0.00e+00	0	62	0	3073376256	41	4384
2026-01-28 01:38:26.28	183.34	23.39	-35.2	-36.6	18.2	0.00e+00	0	62	0	3078619136	41	4347
2026-01-28 01:38:27.29	183.40	23.24	-35.1	-36.6	18.2	0.00e+00	0	62	0	3083862016	41	4341
2026-01-28 01:38:28.30	183.46	23.10	-35.1	-36.5	18.3	0.00e+00	0	62	0	3090153472	41	4331
2026-01-28 01:38:29.31	183.52	22.95	-35.2	-36.6	18.2	0.00e+00	0	62	0	3095396352	41	4362
2026-01-28 01:38:30.32	183.58	22.80	-35.2	-36.6	18.2	0.00e+00	0	62	0	3101687808	41	4370
2026-01-28 01:38:31.33	183.64	22.66	-35.1	-36.6	18.2	0.00e+00	0	62	0	3106930688	41	4343
2026-01-28 01:38:32.34	183.70	22.51	-35.2	-36.6	18.2	0.00e+00	0	62	0	3112173568	41	4354
2026-01-28 01:38:33.35	183.76	22.37	-35.2	-36.6	18.2	0.00e+00	0	62	0	3118465024	41	4380
2026-01-28 01:38:34.36	183.82	22.23	-35.2	-36.7	18.1	0.00e+00	0	62	0	3123707904	41	4395
2026-01-28 01:38:35.38	183.88	22.09	-35.2	-36.6	18.2	0.00e+00	0	62	0	3129999360	41	4365
2026-01-28 01:38:36.38	183.93	21.95	-35.2	-36.7	18.1	0.00e+00	0	62	0	3135242240	41	4400
2026-01-28 01:38:37.39	183.99	21.81	-35.3	-36.7	18.1	0.00e+00	0	62	0	3141533696	41	4433
2026-01-28 01:38:38.41	184.05	21.66	-35.3	-36.7	18.1	0.00e+00	0	62	0	3146776576	41	4425
2026-01-28 01:38:39.41	184.10	21.53	-35.3	-36.7	18.1	0.00e+00	0	62	0	3152019456	41	4435
2026-01-28 01:38:40.42	184.16	21.39	-35.4	-36.8	18.0	0.00e+00	0	62	0	3158310912	41	4467
2026-01-28 01:38:41.43	184.21	21.25	-35.4	-36.9	17.9	0.00e+00	0	62	0	3163553792	41	4505
2026-01-28 01:38:42.44	184.27	21.12	-35.5	-37.0	17.8	0.00e+00	0	62	0	3169845248	41	4555
2026-01-28 01:38:43.45	184.32	20.98	-35.5	-36.9	17.9	0.00e+00	0	62	0	3175088128	41	4537
2026-01-28 01:38:44.47	184.37	20.84	-35.5	-36.9	17.9	0.00e+00	0	62	0	3181379584	41	4536
2026-01-28 01:38:45.48	184.43	20.71	-35.5	-37.0	17.8	0.00e+00	0	62	0	3186622464	41	4550
2026-01-28 01:38:46.49	184.48	20.57	-35.6	-37.0	17.8	0.00e+00	0	62	0	3191865344	41	4593
2026-01-28 01:38:47.50	184.53	20.44	-35.5	-37.0	17.8	0.00e+00	0	62	0	3198156800	41	4586
2026-01-28 01:38:48.50	184.58	20.31	-35.6	-37.1	17.7	0.00e+00	0	62	0	3203399680	41	4602
2026-01-28 01:38:49.52	184.63	20.18	-35.6	-37.1	17.7	0.00e+00	0	62	0	3209691136	41	4630
2026-01-28 01:38:50.53	184.69	20.05	-35.7	-37.2	17.6	0.00e+00	0	62	0	3214934016	41	4659
2026-01-28 01:38:51.54	184.74	19.92	-35.6	-37.1	17.7	0.00e+00	0	62	0	3220176896	41	4636
2026-01-28 01:38:52.55	184.79	19.79	-35.7	-37.2	17.6	0.00e+00	0	62	0	3226468352	41	4692
2026-01-28 01:38:53.56	184.84	19.66	-35.8	-37.3	17.5	0.00e+00	0	62	0	3231711232	42	4462
2026-01-28 01:38:54.57	184.89	19.53	-35.8	-37.4	17.5	0.00e+00	0	62	0	3238002688	42	4498
2026-01-28 01:38:55.58	184.93	19.40	-35.8	-37.3	17.5	0.00e+00	0	62	0	3243245568	42	4472
2026-01-28 01:38:56.59	184.98	19.27	-35.8	-37.3	17.5	0.00e+00	0	62	0	3248488448	42	4476
2026-01-28 01:38:57.60	185.03	19.15	-35.9	-37.5	17.4	0.00e+00	0	62	0	3254779904	42	4550
2026-01-28 01:38:58.61	185.08	19.02	-35.9	-37.5	17.4	0.00e+00	0	62	0	3260022784	42	4546
2026-01-28 01:38:59.62	185.13	18.90	-35.9	-37.4	17.4	0.00e+00	0	62	0	3266314240	42	4522
2026-01-28 01:39:00.63	185.17	18.77	-36.0	-37.5	17.3	0.00e+00	0	62	0	3271557120	42	4593
2026-01-28 01:39:01.64	185.22	18.65	-36.0	-37.5	17.3	0.00e+00	0	62	0	3277848576	42	4579
2026-01-28 01:39:02.65	185.27	18.53	-36.0	-37.6	17.2	0.00e+00	0	62	0	3283091456	42	4615
2026-01-28 01:39:03.66	185.31	18.40	-36.0	-37.5	17.3	0.00e+00	0	62	0	3289382912	42	4577
2026-01-28 01:39:04.67	185.36	18.28	-36.0	-37.5	17.3	0.00e+00	0	62	0	3294625792	42	4571
2026-01-28 01:39:05.68	185.40	18.16	-36.1	-37.6	17.2	0.00e+00	0	62	0	3299868672	42	4629
2026-01-28 01:39:06.69	185.45	18.04	-36.0	-37.6	17.2	0.00e+00	0	62	0	3306160128	42	4612
2026-01-28 01:39:07.71	185.49	17.92	-36.0	-37.6	17.2	0.00e+00	0	62	0	3311403008	42	4605
2026-01-28 01:39:08.71	185.54	17.80	-36.1	-37.7	17.1	0.00e+00	0	62	0	3317694464	42	4661
2026-01-28 01:39:09.72	185.58	17.68	-36.2	-37.7	17.1	0.00e+00	0	62	0	3322937344	42	4685
2026-01-28 01:39:10.73	185.62	17.56	-36.1	-37.6	17.2	0.00e+00	0	62	0	3328180224	42	4642
2026-01-28 01:39:11.74	185.67	17.44	-36.1	-37.6	17.1	0.00e+00	0	62	0	3334471680	42	4645
2026-01-28 01:39:12.75	185.71	17.32	-36.2	-37.7	17.0	0.00e+00	0	62	0	3339714560	42	4697
2026-01-28 01:39:13.76	185.75	17.21	-36.2	-37.8	17.0	0.00e+00	0	62	0	3346006016	42	4709
2026-01-28 01:39:14.77	185.80	17.09	-36.2	-37.8	17.0	0.00e+00	0	62	0	3351248896	43	4470
2026-01-28 01:39:15.79	185.84	16.97	-36.3	-37.8	16.9	0.00e+00	0	62	0	3356491776	43	4487
2026-01-28 01:39:16.79	185.88	16.86	-36.3	-37.8	16.9	0.00e+00	0	62	0	3362783232	43	4483
2026-01-28 01:39:17.81	185.92	16.74	-36.3	-37.9	16.9	0.00e+00	0	62	0	3368026112	43	4503
2026-01-28 01:39:18.82	185.96	16.63	-36.3	-37.9	16.8	0.00e+00	0	62	0	3374317568	43	4533
2026-01-28 01:39:19.83	186.00	16.51	-36.4	-37.9	16.8	0.00e+00	0	62	0	3379560448	43	4533
2026-01-28 01:39:20.84	186.05	16.40	-36.4	-37.9	16.8	0.00e+00	0	62	0	3385851904	43	4539
2026-01-28 01:39:21.85	186.09	16.29	-36.4	-38.0	16.7	0.00e+00	0	62	0	3391094784	43	4591
2026-01-28 01:39:22.86	186.13	16.18	-36.4	-38.0	16.7	0.00e+00	0	62	0	3397386240	43	4567
2026-01-28 01:39:23.87	186.17	16.06	-36.5	-38.1	16.7	0.00e+00	0	62	0	3402629120	43	4643
2026-01-28 01:39:24.88	186.21	15.95	-36.6	-38.2	16.6	0.00e+00	0	62	0	3407872000	43	4661
2026-01-28 01:39:25.89	186.24	15.84	-36.6	-38.2	16.6	0.00e+00	0	62	0	3414163456	43	4671
2026-01-28 01:39:26.90	186.28	15.73	-36.6	-38.3	16.5	0.00e+00	0	62	0	3419406336	43	4710
2026-01-28 01:39:27.91	186.32	15.62	-36.8	-38.5	16.4	0.00e+00	0	62	0	3425697792	44	4564
2026-01-28 01:39:28.92	186.36	15.51	-36.9	-38.6	16.4	0.00e+00	0	62	0	3430940672	44	4605
