passes_logs/2026/01/28/R2.0S_Moscow/R2.0S_Moscow__20260128_005143_NOAA_20_JPSS-1_rec.log

#Pass ID: 20260128_005143_NOAA 20 (JPSS-1)
#Satellite: NOAA 20 (JPSS-1)
#Configuration: NOAA 20
#almurnet v.1.7.20251203
#Start time: 2026-01-28 00:51:44

#Version: 2.2.20231116
#Station: R2.0S_Moscow
#Location: 37.707566 lon 55.798166 lat
#TLE: 1 43013U 17073A   26027.45344144  .00000161  00000+0  97205-4 0  9999
#TLE: 2 43013  98.7647 328.2621 0000962  21.7793 338.3424 14.19541101424503

#Time	Az	El	Level	Level2	SNR	BER	BlckErr	Temp	State	Recorded	gain1	gain2
2026-01-28 00:51:44.56	11.65	2.08	-40.0	-54.4	3.8	1.49e+00	0	53	0	0	51	19011
2026-01-28 00:51:45.57	11.61	2.14	-39.9	-54.3	3.8	1.49e+00	0	54	104	0	51	18920
2026-01-28 00:51:46.58	11.56	2.20	-40.0	-54.4	3.8	1.49e+00	0	54	104	0	51	18998
2026-01-28 00:51:47.59	11.51	2.26	-39.9	-54.4	3.8	1.49e+00	0	54	104	0	51	19004
2026-01-28 00:51:48.60	11.47	2.32	-39.9	-54.4	3.8	1.49e+00	0	54	104	0	51	18949
2026-01-28 00:51:49.61	11.42	2.39	-39.9	-54.4	3.8	1.49e+00	0	54	104	0	51	18968
2026-01-28 00:51:50.62	11.37	2.45	-39.9	-54.4	3.8	1.49e+00	0	54	104	0	51	18954
2026-01-28 00:51:51.64	11.32	2.51	-39.9	-54.3	3.8	1.49e+00	0	54	104	0	51	18934
2026-01-28 00:51:52.65	11.27	2.57	-39.9	-54.3	3.8	1.49e+00	0	54	104	0	51	18936
2026-01-28 00:51:53.66	11.22	2.63	-39.9	-54.4	3.8	1.49e+00	0	54	104	0	51	19000
2026-01-28 00:51:54.67	11.18	2.69	-39.9	-54.3	3.8	1.49e+00	0	54	104	0	51	18912
2026-01-28 00:51:55.68	11.13	2.76	-39.9	-54.3	3.8	1.49e+00	0	54	104	0	51	18940
2026-01-28 00:51:56.69	11.08	2.82	-39.9	-54.3	3.8	1.49e+00	0	54	104	0	51	18911
2026-01-28 00:51:57.70	11.03	2.88	-39.9	-54.3	3.8	1.49e+00	0	54	104	0	51	18919
2026-01-28 00:51:58.71	10.98	2.94	-39.9	-54.4	3.8	1.49e+00	0	54	104	0	51	18965
2026-01-28 00:51:59.72	10.93	3.01	-39.9	-54.4	3.8	1.49e+00	0	55	104	0	51	18957
2026-01-28 00:52:00.73	10.88	3.07	-39.9	-54.3	3.8	1.49e+00	0	55	104	0	51	18893
2026-01-28 00:52:01.75	10.83	3.13	-39.9	-54.4	3.8	1.49e+00	0	55	104	0	51	18956
2026-01-28 00:52:02.75	10.78	3.19	-39.9	-54.4	3.8	1.49e+00	0	55	104	0	51	18972
2026-01-28 00:52:03.76	10.73	3.26	-39.9	-54.3	3.8	1.49e+00	0	55	104	0	51	18909
2026-01-28 00:52:04.77	10.68	3.32	-39.9	-54.3	3.8	1.49e+00	0	55	104	0	51	18947
2026-01-28 00:52:05.79	10.63	3.38	-39.9	-54.3	3.8	1.49e+00	0	55	104	0	51	18941
2026-01-28 00:52:06.80	10.57	3.45	-39.9	-54.3	3.8	1.49e+00	0	55	104	0	51	18919
2026-01-28 00:52:07.81	10.52	3.51	-39.9	-54.4	3.8	1.49e+00	0	55	104	0	51	18987
2026-01-28 00:52:08.82	10.47	3.57	-39.9	-54.3	3.8	1.49e+00	0	55	104	0	51	18929
2026-01-28 00:52:09.83	10.42	3.64	-39.9	-54.3	3.8	1.49e+00	0	55	104	0	51	18924
2026-01-28 00:52:10.84	10.37	3.70	-39.9	-54.4	3.8	1.49e+00	0	55	104	0	51	18958
2026-01-28 00:52:11.85	10.31	3.76	-39.9	-54.3	3.8	1.49e+00	0	56	104	0	51	18863
2026-01-28 00:52:12.86	10.26	3.83	-39.9	-54.3	3.8	1.49e+00	0	55	104	0	51	18927
2026-01-28 00:52:13.87	10.21	3.89	-39.9	-54.3	3.8	1.49e+00	0	56	104	0	51	18877
2026-01-28 00:52:14.88	10.15	3.96	-39.9	-54.3	3.8	1.49e+00	0	56	104	0	51	18895
2026-01-28 00:52:15.89	10.10	4.02	-39.9	-54.3	3.8	1.49e+00	0	56	104	0	51	18877
2026-01-28 00:52:16.90	10.05	4.09	-39.9	-54.3	3.8	1.49e+00	0	56	104	0	51	18921
2026-01-28 00:52:17.91	9.99	4.15	-39.9	-54.3	3.8	1.49e+00	0	56	104	0	51	18925
2026-01-28 00:52:18.92	9.94	4.22	-39.9	-54.3	3.8	1.49e+00	0	56	104	0	51	18919
2026-01-28 00:52:19.93	9.88	4.28	-39.9	-54.4	3.8	1.49e+00	0	56	104	0	51	18958
2026-01-28 00:52:20.94	9.83	4.35	-39.9	-54.4	3.8	1.49e+00	0	56	104	0	51	18973
2026-01-28 00:52:21.95	9.77	4.41	-39.9	-54.3	3.8	1.49e+00	0	56	104	0	51	18942
2026-01-28 00:52:22.96	9.72	4.48	-39.9	-54.3	3.8	1.49e+00	0	56	104	0	51	18902
2026-01-28 00:52:23.97	9.66	4.54	-39.9	-54.3	3.8	1.49e+00	0	56	104	0	51	18890
2026-01-28 00:52:24.98	9.61	4.61	-39.9	-54.3	3.8	1.49e+00	0	56	104	0	51	18896
2026-01-28 00:52:25.99	9.55	4.67	-39.9	-54.3	3.8	1.49e+00	0	56	104	0	51	18894
2026-01-28 00:52:27.00	9.49	4.74	-39.9	-54.3	3.8	1.49e+00	0	56	104	0	51	18905
2026-01-28 00:52:28.01	9.44	4.80	-39.9	-54.3	3.8	1.49e+00	0	56	104	0	51	18894
2026-01-28 00:52:29.03	9.38	4.87	-39.9	-54.3	3.8	1.49e+00	0	56	104	0	51	18885
2026-01-28 00:52:30.04	9.32	4.94	-39.9	-54.3	3.8	1.49e+00	0	56	104	0	51	18888
2026-01-28 00:52:31.04	9.27	5.00	-39.9	-54.3	3.8	1.49e+00	0	56	104	0	51	18811
2026-01-28 00:52:32.06	9.21	5.07	-39.9	-54.3	3.8	1.49e+00	0	56	104	0	51	18921
2026-01-28 00:52:33.07	9.15	5.14	-39.9	-54.3	3.8	1.49e+00	0	57	104	0	51	18884
2026-01-28 00:52:34.08	9.09	5.20	-39.9	-54.3	3.8	1.49e+00	0	56	104	0	51	18892
2026-01-28 00:52:35.09	9.03	5.27	-39.9	-54.3	3.8	1.49e+00	0	57	104	0	51	18886
2026-01-28 00:52:36.10	8.97	5.34	-39.9	-54.3	3.8	1.49e+00	0	57	104	0	51	18832
2026-01-28 00:52:37.11	8.91	5.41	-39.9	-54.3	3.8	1.49e+00	0	57	104	0	51	18892
2026-01-28 00:52:38.12	8.85	5.47	-39.9	-54.3	3.8	1.49e+00	0	57	104	0	51	18856
2026-01-28 00:52:39.13	8.79	5.54	-39.9	-54.3	3.8	1.49e+00	0	57	104	0	51	18846
2026-01-28 00:52:40.14	8.73	5.61	-39.9	-54.3	3.8	1.49e+00	0	57	104	0	51	18871
2026-01-28 00:52:41.15	8.67	5.68	-39.9	-54.3	3.8	1.49e+00	0	57	104	0	51	18876
2026-01-28 00:52:42.16	8.61	5.74	-39.9	-54.3	3.8	1.49e+00	0	57	104	0	51	18853
2026-01-28 00:52:43.17	8.55	5.81	-39.9	-54.3	3.8	1.49e+00	0	57	104	0	51	18886
2026-01-28 00:52:44.18	8.49	5.88	-39.9	-54.3	3.8	1.49e+00	0	57	104	0	51	18874
2026-01-28 00:52:45.19	8.43	5.95	-39.9	-54.3	3.8	1.49e+00	0	57	104	0	51	18839
2026-01-28 00:52:46.20	8.37	6.02	-39.9	-54.3	3.8	1.49e+00	0	57	104	0	51	18882
2026-01-28 00:52:47.21	8.30	6.09	-39.9	-54.3	3.8	1.49e+00	0	57	104	0	51	18846
2026-01-28 00:52:48.22	8.24	6.15	-39.9	-54.3	3.8	1.49e+00	0	57	104	0	51	18869
2026-01-28 00:52:49.23	8.18	6.22	-39.9	-54.3	3.8	1.49e+00	0	57	104	0	51	18817
2026-01-28 00:52:50.24	8.11	6.29	-39.9	-54.3	3.8	1.49e+00	0	57	104	0	51	18850
2026-01-28 00:52:51.25	8.05	6.36	-39.9	-54.3	3.8	1.49e+00	0	57	104	0	51	18839
2026-01-28 00:52:52.26	7.99	6.43	-39.9	-54.3	3.8	1.49e+00	0	57	104	0	51	18894
2026-01-28 00:52:53.27	7.92	6.50	-39.9	-54.3	3.8	1.49e+00	0	57	104	0	51	18846
2026-01-28 00:52:54.28	7.86	6.57	-39.9	-54.3	3.8	1.49e+00	0	57	104	0	51	18876
2026-01-28 00:52:55.29	7.79	6.64	-39.9	-54.3	3.8	1.49e+00	0	58	104	0	51	18857
2026-01-28 00:52:56.31	7.73	6.71	-39.9	-54.3	3.8	1.49e+00	0	57	104	0	51	18882
2026-01-28 00:52:57.32	7.66	6.78	-39.9	-54.3	3.8	1.49e+00	0	58	104	0	51	18861
2026-01-28 00:52:58.33	7.60	6.85	-39.9	-54.3	3.8	1.49e+00	0	58	104	0	51	18822
2026-01-28 00:52:59.34	7.53	6.92	-39.9	-54.3	3.8	1.49e+00	0	58	104	0	51	18833
2026-01-28 00:53:00.35	7.46	6.99	-39.9	-54.3	3.8	1.49e+00	0	58	104	0	51	18878
2026-01-28 00:53:01.36	7.40	7.06	-39.9	-54.3	3.8	1.49e+00	0	58	104	0	51	18852
2026-01-28 00:53:02.37	7.33	7.13	-39.9	-54.3	3.8	1.49e+00	0	58	104	0	51	18844
2026-01-28 00:53:03.38	7.26	7.20	-39.9	-54.3	3.8	1.49e+00	0	58	104	0	51	18853
2026-01-28 00:53:04.39	7.19	7.28	-39.9	-54.3	3.8	1.49e+00	0	58	104	0	51	18825
2026-01-28 00:53:05.40	7.12	7.35	-39.9	-54.3	3.8	1.49e+00	0	58	104	0	51	18842
2026-01-28 00:53:06.41	7.06	7.42	-39.9	-54.3	3.8	1.49e+00	0	58	104	0	51	18812
2026-01-28 00:53:07.42	6.99	7.49	-39.9	-54.3	3.8	1.49e+00	0	58	104	0	51	18837
2026-01-28 00:53:08.43	6.92	7.56	-39.9	-54.3	3.8	1.49e+00	0	58	104	0	51	18872
2026-01-28 00:53:09.44	6.85	7.63	-39.9	-54.3	3.8	1.49e+00	0	58	104	0	51	18830
2026-01-28 00:53:10.45	6.78	7.71	-39.9	-54.3	3.8	1.49e+00	0	58	104	0	51	18830
2026-01-28 00:53:11.46	6.71	7.78	-39.9	-54.3	3.8	1.49e+00	0	58	104	0	51	18874
2026-01-28 00:53:12.48	6.64	7.85	-39.9	-54.3	3.8	1.49e+00	0	58	104	0	51	18864
2026-01-28 00:53:13.49	6.56	7.92	-39.9	-54.3	3.8	1.49e+00	0	58	104	0	51	18860
2026-01-28 00:53:14.50	6.49	8.00	-39.9	-54.3	3.8	1.49e+00	0	58	104	0	51	18824
2026-01-28 00:53:15.51	6.42	8.07	-40.0	-54.4	3.8	1.49e+00	0	58	104	0	51	19055
2026-01-28 00:53:16.52	6.35	8.14	-40.0	-54.4	3.8	1.49e+00	0	58	104	0	51	19082
2026-01-28 00:53:17.53	6.27	8.22	-40.0	-54.4	3.8	1.49e+00	0	58	104	0	51	19103
2026-01-28 00:53:18.54	6.20	8.29	-40.0	-54.5	3.8	1.49e+00	0	58	104	0	51	19174
2026-01-28 00:53:19.55	6.13	8.36	-40.0	-54.4	3.8	1.49e+00	0	58	104	0	51	19068
2026-01-28 00:53:20.56	6.05	8.44	-40.0	-54.5	3.8	1.49e+00	0	59	104	0	51	19178
2026-01-28 00:53:21.57	5.98	8.51	-40.0	-54.4	3.8	1.49e+00	0	59	104	0	51	19103
2026-01-28 00:53:22.58	5.91	8.59	-40.0	-54.5	3.8	1.49e+00	0	59	104	0	51	19173
2026-01-28 00:53:23.58	5.83	8.66	-40.0	-54.4	3.8	1.49e+00	0	58	104	0	51	19097
2026-01-28 00:53:24.60	5.75	8.74	-40.0	-54.4	3.8	1.49e+00	0	59	104	0	51	19116
2026-01-28 00:53:25.60	5.68	8.81	-40.0	-54.4	3.8	1.49e+00	0	59	104	0	51	19077
2026-01-28 00:53:26.62	5.60	8.89	-40.1	-54.5	3.8	1.49e+00	0	59	104	0	51	19209
2026-01-28 00:53:27.63	5.53	8.96	-40.0	-54.4	3.8	1.49e+00	0	59	104	0	51	19086
2026-01-28 00:53:28.64	5.45	9.04	-40.0	-54.4	3.8	1.49e+00	0	59	104	0	51	19154
2026-01-28 00:53:29.65	5.37	9.11	-40.0	-54.4	3.8	1.49e+00	0	59	104	0	51	19124
2026-01-28 00:53:30.66	5.29	9.19	-40.2	-54.6	3.8	1.49e+00	0	59	104	0	51	19478
2026-01-28 00:53:31.66	5.21	9.26	-40.0	-54.4	3.8	1.49e+00	0	59	104	0	51	19049
2026-01-28 00:53:32.67	5.14	9.34	-40.1	-54.5	3.8	1.49e+00	0	59	104	0	51	19291
2026-01-28 00:53:33.69	5.06	9.41	-40.0	-54.4	3.8	1.49e+00	0	59	104	0	51	19123
2026-01-28 00:53:34.70	4.98	9.49	-40.3	-54.7	3.8	1.49e+00	0	59	104	0	51	19624
2026-01-28 00:53:35.71	4.90	9.57	-40.0	-54.4	3.8	1.49e+00	0	59	104	0	51	19060
2026-01-28 00:53:36.72	4.82	9.64	-40.2	-54.6	3.8	1.49e+00	0	59	104	0	51	19498
2026-01-28 00:53:37.73	4.73	9.72	-40.0	-54.5	3.8	1.49e+00	0	59	104	0	51	19209
2026-01-28 00:53:38.74	4.65	9.80	-40.3	-54.7	3.8	1.49e+00	0	59	104	0	51	19818
2026-01-28 00:53:39.75	4.57	9.87	-40.0	-54.4	3.8	1.49e+00	0	59	104	0	51	19087
2026-01-28 00:53:40.76	4.49	9.95	-40.2	-54.7	3.8	1.49e+00	0	59	104	0	51	19623
2026-01-28 00:53:41.77	4.41	10.03	-40.1	-54.5	3.8	1.49e+00	0	59	104	0	51	19258
2026-01-28 00:53:42.78	4.32	10.11	-40.4	-54.8	3.8	1.49e+00	0	59	104	0	51	20019
2026-01-28 00:53:43.79	4.24	10.19	-40.1	-54.5	3.8	1.49e+00	0	59	104	0	51	19337
2026-01-28 00:53:44.80	4.15	10.26	-40.3	-54.7	3.8	1.49e+00	0	59	104	0	51	19628
2026-01-28 00:53:45.81	4.07	10.34	-40.1	-54.6	3.8	1.49e+00	0	59	104	0	51	19395
2026-01-28 00:53:46.82	3.98	10.42	-40.5	-54.9	3.8	1.49e+00	0	59	104	0	51	20230
2026-01-28 00:53:47.83	3.90	10.50	-40.1	-54.5	3.8	1.49e+00	0	59	104	0	51	19362
2026-01-28 00:53:48.84	3.81	10.58	-40.4	-54.8	3.8	1.49e+00	0	59	104	0	51	19873
2026-01-28 00:53:49.85	3.73	10.66	-40.2	-54.6	3.8	1.49e+00	0	59	104	0	51	19533
2026-01-28 00:53:50.86	3.64	10.74	-40.7	-55.1	3.8	1.49e+00	0	59	104	0	51	20648
2026-01-28 00:53:51.87	3.55	10.82	-40.0	-54.5	3.8	1.49e+00	0	59	104	0	52	18118
2026-01-28 00:53:52.88	3.46	10.90	-40.0	-54.5	3.8	1.49e+00	0	59	104	0	51	19214
2026-01-28 00:53:53.89	3.37	10.98	-40.0	-54.5	3.8	1.49e+00	0	59	104	0	51	19179
2026-01-28 00:53:54.90	3.28	11.06	-40.0	-54.5	3.8	1.49e+00	0	59	104	0	51	19175
2026-01-28 00:53:55.90	3.20	11.13	-40.0	-54.5	3.8	1.49e+00	0	59	104	0	51	19175
2026-01-28 00:53:56.91	3.11	11.21	-40.0	-54.4	3.8	1.49e+00	0	60	104	0	51	19163
2026-01-28 00:53:57.92	3.01	11.30	-40.7	-55.1	3.8	1.49e+00	0	59	104	0	52	19608
2026-01-28 00:53:58.93	2.92	11.38	-40.3	-54.7	3.8	1.49e+00	0	59	104	0	52	18609
2026-01-28 00:53:59.94	2.83	11.46	-40.1	-54.5	3.8	1.49e+00	0	59	104	0	52	18221
2026-01-28 00:54:00.95	2.74	11.54	-40.2	-54.6	3.8	1.49e+00	0	60	104	0	52	18368
2026-01-28 00:54:01.96	2.65	11.62	-40.1	-54.5	3.8	1.49e+00	0	59	104	0	52	18294
2026-01-28 00:54:02.97	2.55	11.70	-40.2	-54.6	3.8	1.49e+00	0	60	104	0	52	18407
2026-01-28 00:54:03.98	2.46	11.78	-40.4	-54.9	3.8	1.49e+00	0	59	104	0	52	18988
2026-01-28 00:54:04.99	2.36	11.86	-40.1	-54.5	3.8	1.49e+00	0	60	104	0	52	18279
2026-01-28 00:54:06.00	2.27	11.95	-41.1	-55.5	3.8	1.49e+00	0	59	104	0	52	20405
2026-01-28 00:54:07.01	2.17	12.03	-40.4	-54.8	3.8	1.49e+00	0	59	104	0	52	18819
2026-01-28 00:54:08.02	2.08	12.11	-40.1	-54.6	3.8	1.49e+00	0	60	104	0	52	18317
2026-01-28 00:54:09.03	1.98	12.19	-40.3	-54.7	3.8	1.49e+00	0	60	104	0	52	18583
2026-01-28 00:54:10.04	1.88	12.28	-40.3	-54.7	3.8	1.49e+00	0	60	104	0	52	18552
2026-01-28 00:54:11.05	1.79	12.36	-40.2	-54.6	3.8	1.49e+00	0	60	104	0	52	18335
2026-01-28 00:54:12.06	1.69	12.44	-40.4	-54.8	3.8	1.49e+00	0	60	104	0	52	18763
2026-01-28 00:54:13.07	1.59	12.53	-40.3	-54.6	3.8	1.49e+00	0	60	104	0	52	18465
2026-01-28 00:54:14.08	1.49	12.61	-42.1	-55.7	3.8	1.49e+00	0	59	104	0	54	18573
2026-01-28 00:54:15.09	1.39	12.69	-40.6	-54.9	3.8	1.49e+00	0	60	104	0	53	17964
2026-01-28 00:54:16.10	1.29	12.78	-40.3	-54.6	3.8	1.49e+00	0	60	104	0	52	18391
2026-01-28 00:54:17.11	1.19	12.86	-40.5	-54.7	3.8	1.49e+00	0	60	104	0	52	18719
2026-01-28 00:54:18.12	1.09	12.95	-40.4	-54.7	3.8	1.49e+00	0	60	104	0	52	18583
2026-01-28 00:54:19.13	0.98	13.03	-40.5	-54.6	3.8	1.49e+00	0	60	104	0	52	18513
2026-01-28 00:54:20.14	0.88	13.12	-40.6	-54.2	3.8	1.49e+00	0	60	104	0	52	17516
2026-01-28 00:54:21.15	0.78	13.20	-40.6	-53.9	3.8	1.49e+00	0	60	104	0	52	16981
2026-01-28 00:54:22.16	0.67	13.29	-42.9	-54.2	3.9	8.28e-01	0	60	104	0	56	13963
2026-01-28 00:54:23.17	0.57	13.37	-42.8	-51.8	5.2	8.42e-01	0	60	0	0	56	10654
2026-01-28 00:54:24.18	0.46	13.46	-41.9	-53.4	4.1	1.35e+00	0	60	0	2097152	55	13485
2026-01-28 00:54:25.19	0.35	13.55	-41.8	-48.2	7.8	1.45e-01	0	60	0	3145728	55	7426
2026-01-28 00:54:26.20	0.25	13.63	-41.7	-48.0	8.1	7.41e-02	0	60	0	5242880	55	7216
2026-01-28 00:54:27.21	0.14	13.72	-41.4	-47.0	9.0	2.70e-02	0	60	0	7340032	54	6834
2026-01-28 00:54:28.22	0.03	13.80	-41.2	-46.2	9.8	1.28e-02	0	60	0	9437184	54	6274
2026-01-28 00:54:29.23	359.92	13.89	-40.9	-45.5	10.6	5.31e-03	0	60	0	10485760	53	6090
2026-01-28 00:54:30.24	359.81	13.98	-40.6	-45.0	11.3	2.05e-03	0	60	0	12582912	53	5737
2026-01-28 00:54:31.25	359.70	14.07	-40.6	-44.9	11.3	1.11e-03	0	60	0	14680064	53	5704
2026-01-28 00:54:32.26	359.59	14.15	-40.8	-45.1	11.2	1.27e-03	0	60	0	16777216	53	5842
2026-01-28 00:54:33.27	359.48	14.24	-40.8	-45.3	11.0	1.65e-03	0	60	0	18874368	53	5942
2026-01-28 00:54:34.28	359.37	14.33	-40.9	-45.4	11.0	1.80e-03	0	60	0	19922944	53	5996
2026-01-28 00:54:35.29	359.26	14.42	-41.0	-45.6	10.7	2.27e-03	0	60	0	22020096	53	6186
2026-01-28 00:54:36.30	359.14	14.50	-41.0	-45.6	10.8	2.78e-03	0	60	0	24117248	53	6143
2026-01-28 00:54:37.31	359.03	14.59	-41.0	-45.5	11.0	1.95e-03	0	60	0	26214400	53	6074
2026-01-28 00:54:38.32	358.91	14.68	-41.0	-45.4	11.2	1.68e-03	0	60	0	28311552	53	6018
2026-01-28 00:54:39.33	358.80	14.77	-41.0	-45.2	11.4	1.16e-03	0	60	0	29360128	53	5921
2026-01-28 00:54:40.34	358.68	14.86	-40.9	-45.1	11.6	6.87e-04	0	60	0	31457280	53	5839
2026-01-28 00:54:41.35	358.56	14.95	-41.0	-45.2	11.7	5.35e-04	0	60	0	33554432	53	5878
2026-01-28 00:54:42.36	358.45	15.04	-41.1	-45.3	11.6	7.39e-04	0	60	0	35651584	53	5930
2026-01-28 00:54:43.37	358.33	15.13	-41.1	-45.2	11.8	6.35e-04	0	60	0	37748736	53	5859
2026-01-28 00:54:44.38	358.21	15.22	-41.0	-45.0	11.9	3.86e-04	0	60	0	38797312	53	5764
2026-01-28 00:54:45.39	358.09	15.31	-41.2	-45.5	11.5	6.19e-04	0	60	0	40894464	53	6063
2026-01-28 00:54:46.40	357.97	15.40	-41.3	-45.7	11.2	1.20e-03	0	60	0	42991616	53	6205
2026-01-28 00:54:47.41	357.85	15.49	-41.2	-45.7	11.1	1.52e-03	0	60	0	45088768	53	6212
2026-01-28 00:54:48.42	357.72	15.58	-41.1	-45.5	11.3	1.53e-03	0	60	0	47185920	53	6100
2026-01-28 00:54:49.43	357.60	15.67	-41.1	-45.3	11.4	1.01e-03	0	60	0	48234496	53	5988
2026-01-28 00:54:50.44	357.48	15.76	-41.1	-45.5	11.1	1.16e-03	0	61	0	50331648	53	6128
2026-01-28 00:54:51.45	357.35	15.85	-41.1	-45.6	11.0	1.79e-03	0	60	0	52428800	53	6196
2026-01-28 00:54:52.46	357.23	15.94	-41.1	-45.7	10.9	2.07e-03	0	60	0	54525952	53	6214
2026-01-28 00:54:53.47	357.10	16.03	-41.0	-45.5	11.1	1.92e-03	0	61	0	56623104	53	6080
2026-01-28 00:54:54.48	356.97	16.13	-40.8	-45.1	11.4	1.15e-03	0	60	0	58720256	53	5813
2026-01-28 00:54:55.49	356.84	16.22	-40.7	-45.1	11.3	1.00e-03	0	60	0	59768832	53	5813
2026-01-28 00:54:56.50	356.72	16.31	-40.8	-45.3	11.0	1.50e-03	0	60	0	61865984	53	5969
2026-01-28 00:54:57.52	356.59	16.40	-40.8	-45.6	10.5	3.11e-03	0	60	0	63963136	53	6188
2026-01-28 00:54:58.52	356.46	16.50	-41.0	-46.4	9.4	7.46e-03	0	60	0	66060288	53	6771
2026-01-28 00:54:59.53	356.33	16.59	-41.1	-47.2	8.3	2.57e-02	0	60	0	68157440	53	7450
2026-01-28 00:55:00.54	356.19	16.68	-41.2	-48.3	7.1	1.08e-01	0	61	0	69206016	53	8430
2026-01-28 00:55:01.55	356.06	16.77	-41.3	-49.6	5.8	2.60e-01	0	60	0	71303168	53	9816
2026-01-28 00:55:02.57	355.93	16.87	-41.3	-50.9	4.8	5.17e-01	0	61	0	73400320	53	11400
2026-01-28 00:55:03.58	355.79	16.96	-41.2	-52.2	4.3	1.20e+00	0	61	0	74448896	53	13191
2026-01-28 00:55:04.59	355.66	17.06	-41.1	-53.3	4.0	1.46e+00	0	60	104	74448896	53	14926
2026-01-28 00:55:05.60	355.52	17.15	-41.1	-54.1	3.8	1.48e+00	0	60	104	74448896	53	16431
2026-01-28 00:55:06.61	355.38	17.24	-41.0	-55.1	3.8	1.49e+00	0	61	104	74448896	53	18325
2026-01-28 00:55:07.62	355.24	17.34	-40.9	-55.4	3.8	1.49e+00	0	61	104	74448896	53	18983
2026-01-28 00:55:08.63	355.11	17.43	-41.3	-54.8	3.8	1.49e+00	0	61	104	74448896	53	17791
2026-01-28 00:55:09.64	354.97	17.53	-41.8	-55.0	3.8	1.49e+00	0	61	104	74448896	54	17221
2026-01-28 00:55:10.65	354.83	17.62	-41.0	-55.4	3.8	1.49e+00	0	61	104	74448896	54	18001
2026-01-28 00:55:11.66	354.68	17.72	-40.9	-55.3	3.8	1.49e+00	0	61	104	74448896	53	18797
2026-01-28 00:55:12.67	354.54	17.81	-41.0	-55.3	3.8	1.49e+00	0	61	104	74448896	53	18940
2026-01-28 00:55:13.68	354.40	17.91	-40.9	-55.4	3.8	1.49e+00	0	61	104	74448896	53	19041
2026-01-28 00:55:14.69	354.25	18.00	-40.7	-55.2	3.8	1.49e+00	0	61	104	74448896	53	18575
2026-01-28 00:55:15.70	354.11	18.10	-40.9	-55.3	3.8	1.49e+00	0	61	104	74448896	53	18919
2026-01-28 00:55:16.71	353.96	18.20	-40.8	-55.1	3.8	1.49e+00	0	61	104	74448896	53	18512
2026-01-28 00:55:17.72	353.81	18.29	-41.1	-55.4	3.8	1.49e+00	0	61	104	74448896	53	19155
2026-01-28 00:55:18.72	353.67	18.39	-40.7	-55.1	3.8	1.49e+00	0	61	104	74448896	53	18434
2026-01-28 00:55:19.73	353.52	18.48	-40.7	-55.1	3.8	1.49e+00	0	61	104	74448896	53	18403
2026-01-28 00:55:20.74	353.37	18.58	-40.8	-55.2	3.8	1.49e+00	0	61	104	74448896	53	18633
2026-01-28 00:55:21.75	353.22	18.68	-41.0	-55.4	3.8	1.49e+00	0	61	104	74448896	53	19012
2026-01-28 00:55:22.76	353.07	18.78	-40.7	-55.1	3.8	1.49e+00	0	61	104	74448896	53	18469
2026-01-28 00:55:23.77	352.91	18.87	-40.8	-55.3	3.8	1.49e+00	0	61	104	74448896	53	18733
2026-01-28 00:55:24.78	352.76	18.97	-40.8	-55.2	3.8	1.49e+00	0	61	104	74448896	53	18606
2026-01-28 00:55:25.79	352.60	19.07	-41.0	-55.4	3.8	1.49e+00	0	61	104	74448896	53	19074
2026-01-28 00:55:26.80	352.45	19.17	-40.7	-55.1	3.8	1.49e+00	0	61	104	74448896	53	18442
2026-01-28 00:55:27.81	352.29	19.26	-40.9	-55.3	3.8	1.49e+00	0	61	104	74448896	53	18914
2026-01-28 00:55:28.82	352.13	19.36	-40.8	-55.2	3.8	1.49e+00	0	61	104	74448896	53	18685
2026-01-28 00:55:29.83	351.97	19.46	-41.1	-55.4	3.8	1.49e+00	0	61	104	74448896	53	19112
2026-01-28 00:55:30.84	351.81	19.56	-40.8	-55.1	3.8	1.49e+00	0	61	104	74448896	53	18490
2026-01-28 00:55:31.85	351.65	19.66	-41.0	-55.4	3.8	1.49e+00	0	61	104	74448896	53	18993
2026-01-28 00:55:32.86	351.49	19.76	-40.9	-55.3	3.8	1.49e+00	0	61	104	74448896	53	18824
2026-01-28 00:55:33.87	351.33	19.85	-41.5	-55.4	3.8	1.49e+00	0	61	104	74448896	53	19163
2026-01-28 00:55:34.88	351.16	19.95	-40.8	-55.2	3.8	1.49e+00	0	61	104	74448896	53	18655
2026-01-28 00:55:35.89	351.00	20.05	-41.2	-55.4	3.8	1.49e+00	0	61	104	74448896	53	19020
2026-01-28 00:55:36.90	350.83	20.15	-41.0	-55.3	3.8	1.49e+00	0	61	104	74448896	53	18893
2026-01-28 00:55:37.91	350.66	20.25	-42.1	-54.9	3.8	1.49e+00	0	61	104	74448896	54	16904
2026-01-28 00:55:38.93	350.49	20.35	-40.9	-55.2	3.8	1.49e+00	0	61	104	74448896	53	18711
2026-01-28 00:55:39.93	350.32	20.45	-41.4	-54.0	3.8	1.49e+00	0	61	104	74448896	53	16197
2026-01-28 00:55:40.94	350.15	20.55	-41.6	-53.6	3.8	1.48e+00	0	61	104	74448896	53	15577
2026-01-28 00:55:41.96	349.98	20.65	-41.7	-53.2	4.1	1.47e+00	0	61	0	74448896	53	14869
2026-01-28 00:55:42.97	349.80	20.75	-41.9	-52.7	4.3	1.39e+00	0	61	0	74448896	54	13246
2026-01-28 00:55:43.98	349.63	20.85	-42.0	-52.2	4.5	1.29e+00	10	61	0	75497472	54	12483
2026-01-28 00:55:44.99	349.45	20.95	-42.0	-51.5	4.9	9.59e-01	0	61	0	77594624	54	11421
2026-01-28 00:55:46.00	349.28	21.05	-42.1	-50.9	5.3	5.76e-01	0	61	0	78643200	54	10727
2026-01-28 00:55:47.01	349.10	21.15	-42.1	-50.1	5.9	4.44e-01	0	61	0	80740352	54	9821
2026-01-28 00:55:48.02	348.92	21.25	-42.5	-52.7	4.5	4.00e-01	4	61	0	82837504	55	12424
2026-01-28 00:55:49.03	348.74	21.35	-41.6	-52.2	4.4	4.98e-01	89	61	0	84934656	55	11792
2026-01-28 00:55:50.04	348.56	21.45	-43.0	-52.0	5.2	3.22e-01	0	61	0	87031808	56	10789
2026-01-28 00:55:51.05	348.38	21.56	-41.1	-51.3	4.5	7.96e-02	10	61	0	88080384	54	11179
2026-01-28 00:55:52.06	348.19	21.66	-40.8	-45.9	9.7	4.24e-02	0	61	0	90177536	53	6397
2026-01-28 00:55:53.07	348.01	21.76	-40.7	-45.4	10.5	5.95e-03	0	61	0	92274688	53	6002
2026-01-28 00:55:54.08	347.82	21.86	-40.6	-45.0	11.1	2.37e-03	0	61	0	94371840	53	5766
2026-01-28 00:55:55.09	347.63	21.96	-40.7	-45.1	11.2	1.20e-03	0	61	0	96468992	53	5801
2026-01-28 00:55:56.10	347.44	22.06	-40.7	-44.9	11.4	1.11e-03	0	61	0	97517568	53	5687
2026-01-28 00:55:57.11	347.25	22.16	-40.7	-44.8	11.6	8.96e-04	0	61	0	99614720	53	5636
2026-01-28 00:55:58.12	347.06	22.26	-40.8	-44.9	11.5	8.12e-04	0	61	0	101711872	53	5698
2026-01-28 00:55:59.13	346.87	22.37	-40.9	-45.0	11.7	7.23e-04	0	61	0	103809024	53	5729
2026-01-28 00:56:00.14	346.67	22.47	-40.9	-45.0	11.7	6.33e-04	0	61	0	105906176	53	5750
2026-01-28 00:56:01.15	346.48	22.57	-41.1	-45.2	11.6	6.74e-04	0	61	0	106954752	53	5913
2026-01-28 00:56:02.16	346.28	22.67	-41.2	-45.2	11.7	5.88e-04	0	61	0	109051904	53	5917
2026-01-28 00:56:03.17	346.08	22.77	-41.2	-45.4	11.6	4.91e-04	0	61	0	111149056	53	6006
2026-01-28 00:56:04.18	345.88	22.87	-41.5	-45.9	11.3	9.18e-04	0	61	0	113246208	53	6348
2026-01-28 00:56:05.19	345.68	22.98	-41.7	-46.2	11.0	1.87e-03	0	61	0	115343360	53	6608
2026-01-28 00:56:06.20	345.48	23.08	-41.7	-46.1	11.1	1.92e-03	0	61	0	116391936	54	6186
2026-01-28 00:56:07.21	345.28	23.18	-41.6	-45.7	11.7	1.10e-03	0	61	0	118489088	54	5898
2026-01-28 00:56:08.22	345.07	23.28	-41.6	-45.6	11.9	4.47e-04	0	61	0	120586240	54	5854
2026-01-28 00:56:09.23	344.87	23.38	-41.8	-46.0	11.6	6.81e-04	0	61	0	122683392	54	6104
2026-01-28 00:56:10.24	344.66	23.48	-42.0	-46.3	11.3	8.88e-04	0	61	0	124780544	54	6327
2026-01-28 00:56:11.25	344.45	23.59	-41.9	-46.1	11.5	9.33e-04	0	61	0	125829120	54	6164
2026-01-28 00:56:12.26	344.24	23.69	-41.8	-45.9	11.8	5.33e-04	0	61	0	127926272	54	6056
2026-01-28 00:56:13.27	344.03	23.79	-41.9	-46.0	11.7	4.81e-04	0	61	0	130023424	54	6115
2026-01-28 00:56:14.28	343.82	23.89	-41.9	-46.1	11.7	6.10e-04	0	61	0	132120576	54	6132
2026-01-28 00:56:15.29	343.60	23.99	-41.9	-45.9	11.9	4.22e-04	0	61	0	134217728	54	6051
2026-01-28 00:56:16.30	343.39	24.09	-42.0	-46.0	11.8	4.13e-04	0	61	0	136314880	54	6125
2026-01-28 00:56:17.31	343.17	24.20	-41.9	-45.9	11.9	3.15e-04	0	61	0	137363456	54	6042
2026-01-28 00:56:18.32	342.95	24.30	-41.8	-45.8	12.1	3.07e-04	0	61	0	139460608	54	5943
2026-01-28 00:56:19.33	342.73	24.40	-41.8	-45.8	12.2	2.49e-04	0	61	0	141557760	54	5940
2026-01-28 00:56:20.34	342.51	24.50	-41.8	-45.7	12.2	2.22e-04	0	61	0	143654912	54	5913
2026-01-28 00:56:21.35	342.29	24.60	-41.9	-45.8	12.2	2.33e-04	0	61	0	145752064	54	5939
2026-01-28 00:56:22.36	342.06	24.70	-41.9	-45.8	12.2	2.23e-04	0	61	0	146800640	54	5961
2026-01-28 00:56:23.37	341.84	24.80	-41.9	-45.8	12.1	2.51e-04	0	61	0	148897792	54	5992
2026-01-28 00:56:24.38	341.61	24.90	-41.9	-45.8	12.2	1.98e-04	0	61	0	150994944	54	5927
2026-01-28 00:56:25.39	341.38	25.00	-41.9	-45.8	12.2	2.02e-04	0	61	0	153092096	54	5978
2026-01-28 00:56:26.40	341.15	25.11	-41.9	-45.8	12.3	2.17e-04	0	61	0	155189248	54	5924
2026-01-28 00:56:27.41	340.92	25.21	-41.8	-45.4	12.6	1.17e-04	0	61	0	156237824	54	5717
2026-01-28 00:56:28.42	340.68	25.31	-41.7	-45.4	12.7	9.00e-05	0	61	0	158334976	54	5690
2026-01-28 00:56:29.43	340.45	25.41	-41.6	-45.2	12.9	5.64e-05	0	61	0	160432128	54	5568
2026-01-28 00:56:30.43	340.22	25.51	-41.7	-45.2	12.9	4.50e-05	0	61	0	162529280	54	5581
2026-01-28 00:56:31.44	339.98	25.61	-41.6	-45.0	13.1	2.36e-05	0	61	0	164626432	54	5441
2026-01-28 00:56:32.45	339.74	25.71	-41.7	-45.2	13.0	2.36e-05	0	61	0	165675008	54	5564
2026-01-28 00:56:33.46	339.50	25.81	-41.7	-45.2	13.0	4.04e-05	0	61	0	167772160	54	5555
2026-01-28 00:56:34.47	339.26	25.91	-41.6	-45.1	13.0	3.43e-05	0	61	0	169869312	54	5514
2026-01-28 00:56:35.48	339.01	26.00	-41.7	-45.3	12.9	4.57e-05	0	62	0	171966464	54	5612
2026-01-28 00:56:36.49	338.77	26.10	-41.7	-45.2	13.0	4.27e-05	0	61	0	174063616	54	5565
2026-01-28 00:56:37.50	338.52	26.20	-41.6	-45.1	13.1	2.89e-05	0	61	0	175112192	54	5498
2026-01-28 00:56:38.51	338.27	26.30	-41.7	-45.1	13.1	4.04e-05	0	61	0	177209344	54	5528
2026-01-28 00:56:39.52	338.02	26.40	-41.6	-45.1	13.1	3.05e-05	0	61	0	179306496	54	5504
2026-01-28 00:56:40.53	337.77	26.50	-41.7	-45.1	13.1	3.50e-05	0	61	0	181403648	54	5516
2026-01-28 00:56:41.54	337.51	26.60	-41.6	-45.0	13.2	1.75e-05	0	61	0	183500800	54	5432
2026-01-28 00:56:42.56	337.26	26.69	-41.5	-44.9	13.3	2.13e-05	0	61	0	185597952	54	5392
2026-01-28 00:56:43.57	337.00	26.79	-41.4	-44.7	13.6	1.22e-05	0	61	0	186646528	54	5235
2026-01-28 00:56:44.58	336.74	26.89	-41.5	-44.9	13.4	1.14e-05	0	61	0	188743680	54	5352
2026-01-28 00:56:45.59	336.48	26.99	-41.7	-45.1	13.1	1.67e-05	0	62	0	190840832	54	5512
2026-01-28 00:56:46.60	336.22	27.08	-41.7	-45.3	13.0	4.11e-05	0	61	0	192937984	54	5597
2026-01-28 00:56:47.60	335.96	27.18	-41.7	-45.2	13.0	4.42e-05	0	62	0	195035136	54	5581
2026-01-28 00:56:48.61	335.70	27.27	-41.7	-45.3	13.0	3.81e-05	0	61	0	196083712	54	5593
2026-01-28 00:56:49.62	335.43	27.37	-41.7	-45.2	13.1	2.74e-05	0	62	0	198180864	54	5542
2026-01-28 00:56:50.63	335.16	27.46	-41.7	-45.2	13.1	3.20e-05	0	62	0	200278016	54	5532
2026-01-28 00:56:51.64	334.89	27.56	-41.7	-45.2	13.1	1.83e-05	0	62	0	202375168	54	5529
2026-01-28 00:56:52.65	334.62	27.65	-41.8	-45.4	12.8	3.12e-05	0	61	0	204472320	54	5709
2026-01-28 00:56:53.66	334.35	27.75	-41.9	-45.5	12.8	6.48e-05	0	62	0	205520896	54	5756
2026-01-28 00:56:54.68	334.07	27.84	-42.0	-45.8	12.5	9.15e-05	0	62	0	207618048	54	5948
2026-01-28 00:56:55.69	333.80	27.93	-42.1	-45.9	12.4	1.25e-04	0	62	0	209715200	54	5998
2026-01-28 00:56:56.70	333.52	28.03	-42.1	-46.0	12.3	1.69e-04	0	62	0	211812352	54	6075
2026-01-28 00:56:57.71	333.24	28.12	-42.2	-46.1	12.2	2.37e-04	0	62	0	213909504	54	6145
2026-01-28 00:56:58.71	332.96	28.21	-42.3	-46.3	12.0	2.82e-04	0	62	0	214958080	55	5924
2026-01-28 00:56:59.72	332.68	28.30	-42.4	-46.5	11.7	5.56e-04	0	61	0	217055232	55	6121
2026-01-28 00:57:00.73	332.40	28.39	-42.4	-46.7	11.6	7.58e-04	0	62	0	219152384	55	6211
2026-01-28 00:57:01.74	332.11	28.48	-42.6	-47.1	11.2	1.01e-03	0	61	0	221249536	55	6500
2026-01-28 00:57:02.75	331.82	28.57	-42.6	-46.9	11.3	1.15e-03	0	62	0	223346688	55	6409
2026-01-28 00:57:03.76	331.53	28.66	-42.7	-47.2	11.0	1.64e-03	0	61	0	224395264	55	6607
2026-01-28 00:57:04.77	331.24	28.75	-42.8	-47.4	11.0	2.11e-03	0	61	0	226492416	56	6388
2026-01-28 00:57:05.78	330.95	28.84	-42.9	-47.6	10.7	2.15e-03	0	61	0	228589568	56	6533
2026-01-28 00:57:06.79	330.66	28.93	-42.9	-47.6	10.8	3.10e-03	0	62	0	230686720	56	6568
2026-01-28 00:57:07.80	330.36	29.01	-42.9	-47.6	10.7	2.63e-03	0	62	0	232783872	56	6553
2026-01-28 00:57:08.81	330.07	29.10	-43.0	-47.8	10.5	3.06e-03	0	61	0	233832448	56	6702
2026-01-28 00:57:09.82	329.77	29.19	-43.0	-47.8	10.5	3.48e-03	0	62	0	235929600	56	6718
2026-01-28 00:57:10.83	329.47	29.27	-43.0	-47.9	10.5	3.73e-03	0	62	0	238026752	56	6727
2026-01-28 00:57:11.84	329.17	29.36	-43.0	-47.9	10.5	3.69e-03	0	62	0	240123904	56	6733
2026-01-28 00:57:12.85	328.86	29.44	-43.0	-47.8	10.6	3.40e-03	0	62	0	242221056	56	6679
2026-01-28 00:57:13.86	328.56	29.52	-43.1	-47.9	10.4	3.78e-03	0	61	0	243269632	56	6782
2026-01-28 00:57:14.87	328.25	29.61	-43.3	-48.5	9.9	5.32e-03	0	62	0	245366784	57	6828
2026-01-28 00:57:15.88	327.94	29.69	-43.3	-48.6	9.7	1.21e-02	0	61	0	247463936	57	6943
2026-01-28 00:57:16.89	327.63	29.77	-43.4	-48.8	9.5	1.39e-02	0	62	0	249561088	57	7099
2026-01-28 00:57:17.90	327.32	29.85	-43.4	-48.8	9.5	1.67e-02	0	62	0	251658240	57	7071
2026-01-28 00:57:18.91	327.01	29.93	-43.3	-48.6	9.8	1.08e-02	0	61	0	253755392	57	6881
2026-01-28 00:57:19.92	326.69	30.01	-43.3	-48.4	9.9	8.88e-03	0	61	0	254803968	57	6760
2026-01-28 00:57:20.93	326.38	30.09	-43.2	-48.3	10.1	8.61e-03	0	62	0	256901120	57	6649
2026-01-28 00:57:21.94	326.06	30.16	-43.1	-48.0	10.2	6.46e-03	0	62	0	258998272	57	6491
2026-01-28 00:57:22.95	325.74	30.24	-42.9	-47.5	10.9	4.30e-03	0	62	0	261095424	57	6082
2026-01-28 00:57:23.96	325.42	30.32	-42.9	-47.5	10.9	2.41e-03	0	62	0	263192576	57	6068
2026-01-28 00:57:24.97	325.10	30.39	-42.9	-47.5	10.8	2.07e-03	0	62	0	264241152	57	6106
2026-01-28 00:57:25.98	324.77	30.47	-42.9	-47.6	10.7	2.40e-03	0	62	0	266338304	57	6159
2026-01-28 00:57:26.99	324.45	30.54	-43.0	-47.7	10.7	2.85e-03	0	62	0	268435456	57	6233
2026-01-28 00:57:28.00	324.12	30.61	-43.0	-47.7	10.6	2.66e-03	0	62	0	270532608	57	6264
2026-01-28 00:57:29.01	323.79	30.68	-42.9	-47.5	10.8	3.05e-03	0	62	0	272629760	57	6126
2026-01-28 00:57:30.02	323.46	30.76	-42.9	-47.4	11.0	2.01e-03	0	62	0	273678336	57	6033
2026-01-28 00:57:31.03	323.13	30.83	-42.9	-47.6	10.8	1.76e-03	0	62	0	275775488	57	6159
2026-01-28 00:57:32.04	322.80	30.89	-42.8	-47.3	11.0	1.51e-03	0	62	0	277872640	57	5988
2026-01-28 00:57:33.05	322.47	30.96	-42.7	-47.1	11.3	1.32e-03	0	62	0	279969792	57	5819
2026-01-28 00:57:34.06	322.13	31.03	-42.7	-47.0	11.4	1.07e-03	0	62	0	282066944	57	5752
2026-01-28 00:57:35.07	321.79	31.10	-42.7	-46.9	11.5	1.03e-03	0	62	0	283115520	57	5688
2026-01-28 00:57:36.08	321.46	31.16	-42.7	-46.9	11.6	8.16e-04	0	62	0	285212672	57	5684
2026-01-28 00:57:37.09	321.12	31.23	-42.6	-46.8	11.6	7.45e-04	0	62	0	287309824	57	5634
2026-01-28 00:57:38.10	320.78	31.29	-42.6	-46.9	11.6	6.58e-04	0	62	0	289406976	57	5663
2026-01-28 00:57:39.11	320.43	31.35	-42.7	-47.0	11.4	7.42e-04	0	62	0	291504128	57	5781
2026-01-28 00:57:40.12	320.09	31.41	-42.6	-46.8	11.6	1.01e-03	0	62	0	292552704	57	5631
2026-01-28 00:57:41.13	319.74	31.47	-42.6	-46.8	11.6	6.92e-04	0	62	0	294649856	57	5634
2026-01-28 00:57:42.14	319.40	31.53	-42.6	-46.7	11.8	5.93e-04	0	62	0	296747008	57	5546
2026-01-28 00:57:43.15	319.05	31.59	-42.4	-46.4	12.0	3.52e-04	0	62	0	298844160	56	5674
2026-01-28 00:57:44.16	318.70	31.65	-42.5	-46.5	11.9	2.91e-04	0	62	0	300941312	56	5751
2026-01-28 00:57:45.17	318.35	31.70	-42.6	-46.6	11.8	4.07e-04	0	62	0	301989888	56	5850
2026-01-28 00:57:46.18	318.00	31.76	-42.7	-47.0	11.5	7.77e-04	0	62	0	304087040	56	6090
2026-01-28 00:57:47.19	317.65	31.81	-42.8	-47.3	11.1	1.35e-03	0	62	0	306184192	56	6275
2026-01-28 00:57:48.20	317.30	31.86	-42.9	-47.4	11.0	1.56e-03	0	62	0	308281344	56	6358
2026-01-28 00:57:49.21	316.94	31.92	-42.8	-47.3	11.2	1.65e-03	0	62	0	310378496	56	6296
2026-01-28 00:57:50.22	316.59	31.97	-42.7	-47.0	11.4	1.55e-03	0	62	0	311427072	56	6120
2026-01-28 00:57:51.23	316.23	32.01	-42.7	-46.9	11.5	9.30e-04	0	62	0	313524224	56	6033
2026-01-28 00:57:52.24	315.87	32.06	-42.7	-46.9	11.5	9.21e-04	0	62	0	315621376	56	6031
2026-01-28 00:57:53.26	315.51	32.11	-42.7	-47.0	11.5	9.72e-04	0	62	0	317718528	56	6062
2026-01-28 00:57:54.26	315.15	32.15	-42.7	-47.0	11.5	8.82e-04	0	62	0	319815680	56	6066
2026-01-28 00:57:55.28	314.79	32.20	-42.5	-46.6	11.8	6.16e-04	0	62	0	321912832	56	5802
2026-01-28 00:57:56.29	314.42	32.24	-42.6	-46.8	11.7	6.77e-04	0	62	0	322961408	56	5951
2026-01-28 00:57:57.30	314.06	32.28	-42.5	-46.7	11.8	4.69e-04	0	62	0	325058560	56	5861
2026-01-28 00:57:58.31	313.70	32.32	-42.6	-46.7	11.8	3.99e-04	0	62	0	327155712	56	5866
2026-01-28 00:57:59.32	313.33	32.36	-42.6	-46.7	11.7	4.97e-04	0	62	0	329252864	56	5903
2026-01-28 00:58:00.33	312.97	32.40	-42.6	-46.7	11.8	5.45e-04	0	62	0	331350016	56	5910
2026-01-28 00:58:01.34	312.60	32.44	-42.6	-46.7	11.8	5.24e-04	0	62	0	332398592	56	5880
2026-01-28 00:58:02.35	312.23	32.47	-42.5	-46.5	12.0	4.13e-04	0	62	0	334495744	56	5748
2026-01-28 00:58:03.36	311.86	32.51	-42.3	-46.2	12.3	2.67e-04	0	62	0	336592896	56	5575
2026-01-28 00:58:04.37	311.50	32.54	-42.1	-45.7	12.7	9.53e-05	0	62	0	338690048	56	5278
2026-01-28 00:58:05.38	311.13	32.57	-42.0	-45.5	13.0	4.19e-05	0	62	0	340787200	56	5109
2026-01-28 00:58:06.39	310.76	32.60	-41.7	-45.2	13.2	3.58e-05	0	62	0	341835776	55	5233
2026-01-28 00:58:07.40	310.38	32.63	-41.6	-45.0	13.4	2.82e-05	0	62	0	343932928	55	5119
2026-01-28 00:58:08.41	310.01	32.66	-41.7	-45.0	13.3	1.29e-05	0	62	0	346030080	55	5145
2026-01-28 00:58:09.42	309.64	32.69	-41.7	-45.1	13.2	1.67e-05	0	62	0	348127232	55	5182
2026-01-28 00:58:10.43	309.27	32.71	-41.7	-45.2	13.1	1.60e-05	0	62	0	350224384	55	5251
2026-01-28 00:58:11.44	308.89	32.73	-41.9	-45.6	12.7	6.63e-05	0	62	0	351272960	55	5493
2026-01-28 00:58:12.45	308.52	32.76	-42.1	-45.9	12.4	8.62e-05	0	62	0	353370112	55	5686
2026-01-28 00:58:13.46	308.14	32.78	-42.2	-46.1	12.2	1.59e-04	0	62	0	355467264	55	5818
2026-01-28 00:58:14.47	307.77	32.80	-42.2	-46.1	12.2	1.85e-04	0	62	0	357564416	55	5809
2026-01-28 00:58:15.48	307.39	32.81	-42.2	-46.1	12.2	2.03e-04	0	62	0	359661568	55	5803
2026-01-28 00:58:16.49	307.02	32.83	-42.2	-46.1	12.2	2.49e-04	0	62	0	360710144	55	5824
2026-01-28 00:58:17.50	306.64	32.85	-42.3	-46.2	12.1	3.02e-04	0	62	0	362807296	55	5902
2026-01-28 00:58:18.51	306.26	32.86	-42.3	-46.3	12.0	2.86e-04	0	62	0	364904448	55	5964
2026-01-28 00:58:19.52	305.89	32.87	-42.3	-46.3	12.0	3.17e-04	0	62	0	367001600	55	5955
2026-01-28 00:58:20.53	305.51	32.88	-42.3	-46.4	11.9	3.76e-04	0	62	0	369098752	55	5996
2026-01-28 00:58:21.54	305.13	32.89	-42.4	-46.6	11.7	5.03e-04	0	62	0	370147328	55	6139
2026-01-28 00:58:22.55	304.75	32.90	-42.5	-46.7	11.6	5.69e-04	0	62	0	372244480	55	6248
2026-01-28 00:58:23.56	304.38	32.91	-42.5	-46.8	11.4	9.26e-04	0	62	0	374341632	55	6335
2026-01-28 00:58:24.57	304.00	32.91	-42.5	-46.8	11.4	9.63e-04	0	62	0	376438784	55	6338
2026-01-28 00:58:25.58	303.62	32.92	-42.5	-46.8	11.4	9.38e-04	0	62	0	378535936	55	6343
2026-01-28 00:58:26.59	303.24	32.92	-42.5	-46.8	11.4	1.05e-03	0	62	0	379584512	55	6335
2026-01-28 00:58:27.60	302.86	32.92	-42.5	-46.8	11.5	8.44e-04	0	62	0	381681664	55	6337
2026-01-28 00:58:28.61	302.48	32.92	-42.5	-46.8	11.5	8.32e-04	0	62	0	383778816	55	6298
2026-01-28 00:58:29.62	302.11	32.92	-42.5	-46.8	11.5	8.09e-04	0	62	0	385875968	55	6295
2026-01-28 00:58:30.63	301.73	32.92	-42.5	-46.8	11.5	9.23e-04	0	62	0	387973120	55	6333
2026-01-28 00:58:31.64	301.35	32.91	-42.5	-46.7	11.5	9.25e-04	0	62	0	390070272	55	6252
2026-01-28 00:58:32.64	300.98	32.91	-42.4	-46.7	11.5	7.40e-04	0	62	0	391118848	55	6210
2026-01-28 00:58:33.65	300.60	32.90	-42.4	-46.5	11.8	4.97e-04	0	62	0	393216000	55	6071
2026-01-28 00:58:34.66	300.22	32.89	-42.4	-46.4	11.9	4.07e-04	0	62	0	395313152	55	6027
2026-01-28 00:58:35.67	299.84	32.88	-42.2	-46.1	12.1	2.66e-04	0	62	0	397410304	55	5853
2026-01-28 00:58:36.69	299.46	32.87	-42.2	-46.0	12.3	2.05e-04	0	62	0	399507456	55	5744
2026-01-28 00:58:37.70	299.08	32.86	-42.2	-46.0	12.3	1.64e-04	0	62	0	400556032	55	5766
2026-01-28 00:58:38.71	298.71	32.84	-42.2	-46.1	12.3	2.20e-04	0	62	0	402653184	55	5792
2026-01-28 00:58:39.72	298.33	32.83	-42.3	-46.3	12.0	2.39e-04	0	62	0	404750336	55	5940
2026-01-28 00:58:40.73	297.95	32.81	-42.4	-46.5	11.7	5.26e-04	0	62	0	406847488	55	6131
2026-01-28 00:58:41.74	297.58	32.79	-42.5	-46.8	11.4	7.57e-04	0	62	0	408944640	55	6346
2026-01-28 00:58:42.75	297.20	32.77	-42.9	-47.4	11.0	1.43e-03	0	62	0	409993216	56	6395
2026-01-28 00:58:43.76	296.83	32.75	-42.8	-47.3	11.0	1.99e-03	0	62	0	412090368	56	6347
2026-01-28 00:58:44.76	296.46	32.73	-42.9	-47.5	10.9	2.19e-03	0	62	0	414187520	56	6454
2026-01-28 00:58:45.77	296.08	32.70	-42.8	-47.3	11.1	2.16e-03	0	62	0	416284672	56	6282
2026-01-28 00:58:46.78	295.71	32.68	-42.7	-47.1	11.3	1.17e-03	0	62	0	418381824	56	6171
2026-01-28 00:58:47.80	295.33	32.65	-42.6	-46.7	11.7	6.52e-04	0	62	0	419430400	56	5897
2026-01-28 00:58:48.80	294.97	32.62	-42.5	-46.6	11.8	6.34e-04	0	62	0	421527552	56	5822
2026-01-28 00:58:49.81	294.59	32.59	-42.5	-46.7	11.8	5.07e-04	0	62	0	423624704	56	5867
2026-01-28 00:58:50.82	294.22	32.56	-42.5	-46.6	11.8	5.47e-04	0	62	0	425721856	56	5835
2026-01-28 00:58:51.83	293.85	32.53	-42.6	-46.7	11.8	4.97e-04	0	62	0	427819008	56	5903
2026-01-28 00:58:52.84	293.49	32.50	-42.7	-47.0	11.5	6.64e-04	0	62	0	428867584	56	6074
2026-01-28 00:58:53.85	293.12	32.46	-42.8	-47.2	11.3	9.94e-04	0	62	0	430964736	56	6225
2026-01-28 00:58:54.86	292.75	32.43	-42.9	-47.4	11.1	1.74e-03	0	62	0	433061888	56	6355
2026-01-28 00:58:55.87	292.38	32.39	-42.9	-47.4	11.0	1.69e-03	0	62	0	435159040	56	6379
2026-01-28 00:58:56.88	292.02	32.35	-42.8	-47.2	11.2	1.93e-03	0	62	0	437256192	56	6222
2026-01-28 00:58:57.89	291.65	32.31	-42.7	-47.1	11.3	1.30e-03	0	62	0	438304768	56	6149
2026-01-28 00:58:58.90	291.29	32.27	-42.7	-46.9	11.5	9.93e-04	0	62	0	440401920	56	6038
2026-01-28 00:58:59.91	290.92	32.23	-42.6	-46.8	11.6	6.40e-04	0	62	0	442499072	56	5958
2026-01-28 00:59:00.92	290.56	32.18	-42.5	-46.6	11.8	5.07e-04	0	62	0	444596224	56	5841
2026-01-28 00:59:01.93	290.20	32.14	-42.5	-46.6	11.9	3.72e-04	0	62	0	446693376	56	5827
2026-01-28 00:59:02.94	289.84	32.09	-42.5	-46.6	11.9	4.03e-04	0	62	0	447741952	56	5797
2026-01-28 00:59:03.95	289.48	32.05	-42.6	-46.8	11.7	5.24e-04	0	62	0	449839104	56	5925
2026-01-28 00:59:04.96	289.12	32.00	-42.7	-47.1	11.4	8.44e-04	0	62	0	451936256	56	6136
2026-01-28 00:59:05.96	288.77	31.95	-42.7	-47.1	11.3	1.08e-03	0	62	0	454033408	56	6160
2026-01-28 00:59:06.97	288.41	31.90	-42.9	-47.4	10.9	1.35e-03	0	62	0	456130560	56	6396
2026-01-28 00:59:07.98	288.06	31.85	-43.0	-47.7	10.7	2.55e-03	0	62	0	458227712	56	6592
2026-01-28 00:59:08.99	287.70	31.79	-42.9	-47.5	10.9	2.46e-03	0	62	0	459276288	56	6465
2026-01-28 00:59:10.00	287.35	31.74	-42.8	-47.3	11.1	1.44e-03	0	62	0	461373440	56	6286
2026-01-28 00:59:11.01	287.00	31.68	-42.7	-46.9	11.4	1.14e-03	0	62	0	463470592	56	6058
2026-01-28 00:59:12.02	286.65	31.63	-42.7	-47.1	11.3	1.04e-03	0	62	0	465567744	56	6135
2026-01-28 00:59:13.03	286.30	31.57	-42.8	-47.3	11.1	1.37e-03	0	62	0	467664896	56	6313
2026-01-28 00:59:14.04	285.95	31.51	-42.9	-47.4	11.0	1.73e-03	0	62	0	468713472	56	6388
2026-01-28 00:59:15.05	285.61	31.45	-42.9	-47.6	10.8	2.17e-03	0	62	0	470810624	56	6506
2026-01-28 00:59:16.06	285.26	31.39	-42.9	-47.4	11.0	2.26e-03	0	62	0	472907776	56	6403
2026-01-28 00:59:17.07	284.92	31.33	-42.8	-47.3	11.1	1.75e-03	0	62	0	475004928	56	6310
2026-01-28 00:59:18.08	284.57	31.27	-42.8	-47.2	11.2	1.46e-03	0	62	0	477102080	56	6229
2026-01-28 00:59:19.09	284.23	31.20	-42.7	-46.9	11.4	9.13e-04	0	62	0	478150656	56	6043
2026-01-28 00:59:20.10	283.89	31.14	-42.6	-46.8	11.6	8.16e-04	0	62	0	480247808	56	5971
2026-01-28 00:59:21.11	283.55	31.07	-42.6	-46.9	11.6	7.43e-04	0	62	0	482344960	56	5994
2026-01-28 00:59:22.12	283.22	31.01	-42.7	-47.0	11.4	9.13e-04	0	62	0	484442112	56	6101
2026-01-28 00:59:23.13	282.88	30.94	-42.8	-47.4	11.0	1.31e-03	0	62	0	486539264	56	6364
2026-01-28 00:59:24.13	282.55	30.87	-43.0	-47.7	10.7	2.64e-03	0	62	0	487587840	56	6571
2026-01-28 00:59:25.14	282.22	30.80	-43.0	-47.7	10.7	3.61e-03	0	62	0	489684992	56	6620
2026-01-28 00:59:26.15	281.89	30.73	-43.0	-47.8	10.5	3.87e-03	0	62	0	491782144	56	6652
2026-01-28 00:59:27.16	281.56	30.66	-43.0	-47.7	10.7	2.97e-03	0	62	0	493879296	56	6618
2026-01-28 00:59:28.17	281.23	30.59	-42.8	-47.4	11.0	2.67e-03	0	62	0	495976448	56	6348
2026-01-28 00:59:29.18	280.90	30.51	-42.7	-47.1	11.2	1.66e-03	0	62	0	497025024	56	6164
2026-01-28 00:59:30.19	280.57	30.44	-42.7	-47.1	11.3	1.20e-03	0	62	0	499122176	56	6182
2026-01-28 00:59:31.20	280.25	30.37	-42.7	-47.1	11.2	1.20e-03	0	62	0	501219328	56	6180
2026-01-28 00:59:32.21	279.93	30.29	-42.9	-47.5	10.9	2.17e-03	0	62	0	503316480	56	6474
2026-01-28 00:59:33.22	279.61	30.21	-42.9	-47.7	10.7	3.06e-03	0	62	0	505413632	56	6577
2026-01-28 00:59:34.23	279.29	30.14	-42.9	-47.7	10.7	3.28e-03	0	62	0	506462208	56	6573
2026-01-28 00:59:35.24	278.97	30.06	-42.9	-47.5	10.8	2.52e-03	0	62	0	508559360	56	6493
2026-01-28 00:59:36.25	278.65	29.98	-42.9	-47.6	10.8	2.30e-03	0	62	0	510656512	56	6531
2026-01-28 00:59:37.26	278.34	29.90	-42.8	-47.4	11.0	2.11e-03	0	62	0	512753664	56	6348
2026-01-28 00:59:38.27	278.02	29.82	-42.8	-47.2	11.1	1.55e-03	0	62	0	514850816	56	6263
2026-01-28 00:59:39.28	277.71	29.74	-42.7	-47.2	11.2	1.39e-03	0	62	0	515899392	56	6210
2026-01-28 00:59:40.29	277.40	29.66	-42.7	-47.1	11.3	1.24e-03	0	62	0	517996544	56	6150
2026-01-28 00:59:41.30	277.09	29.57	-42.6	-47.0	11.4	1.23e-03	0	62	0	520093696	56	6063
2026-01-28 00:59:42.31	276.79	29.49	-42.6	-46.9	11.5	7.97e-04	0	62	0	522190848	56	6003
2026-01-28 00:59:43.32	276.48	29.41	-42.5	-46.7	11.7	5.87e-04	0	62	0	524288000	56	5898
2026-01-28 00:59:44.33	276.18	29.32	-42.6	-46.9	11.5	5.80e-04	0	62	0	526385152	56	6022
2026-01-28 00:59:45.34	275.87	29.24	-42.6	-46.8	11.6	6.67e-04	0	62	0	527433728	56	5952
2026-01-28 00:59:46.35	275.57	29.15	-42.6	-46.9	11.4	8.25e-04	0	62	0	529530880	56	6038
2026-01-28 00:59:47.36	275.27	29.07	-42.6	-46.9	11.5	9.97e-04	0	62	0	531628032	56	6039
2026-01-28 00:59:48.37	274.98	28.98	-42.6	-46.8	11.5	8.18e-04	0	62	0	533725184	56	5948
2026-01-28 00:59:49.38	274.68	28.89	-42.5	-46.6	11.7	7.09e-04	0	62	0	535822336	56	5844
2026-01-28 00:59:50.39	274.39	28.80	-42.4	-46.5	11.8	4.17e-04	0	62	0	536870912	56	5768
2026-01-28 00:59:51.40	274.09	28.71	-42.3	-46.2	12.1	3.18e-04	0	62	0	538968064	56	5589
2026-01-28 00:59:52.41	273.80	28.63	-42.4	-46.4	12.0	2.33e-04	0	62	0	541065216	56	5670
2026-01-28 00:59:53.42	273.51	28.54	-42.3	-46.3	12.1	2.73e-04	0	62	0	543162368	56	5613
2026-01-28 00:59:54.43	273.23	28.44	-42.4	-46.4	12.0	2.45e-04	0	62	0	545259520	56	5665
2026-01-28 00:59:55.44	272.94	28.35	-42.5	-46.7	11.7	5.09e-04	0	62	0	546308096	56	5881
2026-01-28 00:59:56.45	272.65	28.26	-42.6	-46.8	11.5	7.67e-04	0	62	0	548405248	56	5966
2026-01-28 00:59:57.46	272.37	28.17	-42.6	-46.9	11.4	9.89e-04	0	62	0	550502400	56	6048
2026-01-28 00:59:58.47	272.09	28.08	-42.5	-46.8	11.6	7.19e-04	0	62	0	552599552	56	5927
2026-01-28 00:59:59.48	271.81	27.99	-42.5	-46.6	11.7	5.83e-04	0	62	0	554696704	56	5828
2026-01-28 01:00:00.49	271.53	27.89	-42.4	-46.5	11.9	4.61e-04	0	62	0	555745280	56	5760
2026-01-28 01:00:01.50	271.26	27.80	-42.2	-46.2	12.2	2.74e-04	0	62	0	557842432	56	5540
2026-01-28 01:00:02.51	270.98	27.71	-42.3	-46.3	12.1	2.58e-04	0	62	0	559939584	56	5598
2026-01-28 01:00:03.52	270.71	27.61	-42.3	-46.2	12.2	3.04e-04	0	62	0	562036736	56	5539
2026-01-28 01:00:04.53	270.44	27.52	-42.1	-45.9	12.4	1.52e-04	0	62	0	564133888	56	5384
2026-01-28 01:00:05.54	270.17	27.42	-42.1	-45.8	12.6	1.37e-04	0	62	0	565182464	56	5308
2026-01-28 01:00:06.55	269.90	27.33	-42.1	-45.9	12.4	1.17e-04	0	62	0	567279616	56	5379
2026-01-28 01:00:07.56	269.63	27.23	-42.1	-45.9	12.5	1.18e-04	0	62	0	569376768	56	5363
2026-01-28 01:00:08.57	269.37	27.13	-42.1	-45.8	12.6	1.20e-04	0	62	0	571473920	56	5299
2026-01-28 01:00:09.58	269.10	27.04	-42.1	-45.8	12.6	1.11e-04	0	62	0	573571072	56	5328
2026-01-28 01:00:10.59	268.84	26.94	-42.0	-45.7	12.6	1.09e-04	0	62	0	574619648	56	5248
2026-01-28 01:00:11.60	268.58	26.84	-41.8	-45.4	12.8	8.01e-05	0	62	0	576716800	55	5360
2026-01-28 01:00:12.61	268.32	26.75	-41.8	-45.4	12.8	5.56e-05	0	62	0	578813952	55	5366
2026-01-28 01:00:13.62	268.07	26.65	-41.8	-45.4	12.8	5.56e-05	0	62	0	580911104	55	5344
2026-01-28 01:00:14.63	267.81	26.55	-41.8	-45.4	12.7	6.94e-05	0	62	0	583008256	55	5398
2026-01-28 01:00:15.64	267.56	26.45	-41.9	-45.6	12.7	6.33e-05	0	62	0	584056832	55	5470
2026-01-28 01:00:16.65	267.30	26.35	-41.7	-45.3	12.9	7.32e-05	0	62	0	586153984	55	5322
2026-01-28 01:00:17.66	267.05	26.25	-41.7	-45.2	13.0	3.50e-05	0	62	0	588251136	55	5251
2026-01-28 01:00:18.67	266.80	26.15	-41.6	-45.0	13.2	3.05e-05	0	62	0	590348288	55	5145
2026-01-28 01:00:19.68	266.56	26.05	-41.5	-44.9	13.3	2.05e-05	0	62	0	592445440	55	5056
2026-01-28 01:00:20.68	266.31	25.96	-41.4	-44.8	13.5	1.14e-05	0	62	0	594542592	54	5282
2026-01-28 01:00:21.69	266.07	25.86	-41.2	-44.3	13.9	9.10e-06	0	62	0	595591168	54	5028
2026-01-28 01:00:22.70	265.82	25.76	-41.1	-44.2	14.1	2.20e-06	0	62	0	597688320	54	4932
2026-01-28 01:00:23.71	265.58	25.66	-41.0	-44.0	14.2	1.50e-06	0	62	0	599785472	54	4864
2026-01-28 01:00:24.72	265.34	25.56	-40.9	-43.9	14.4	7.00e-07	0	62	0	601882624	53	5059
2026-01-28 01:00:25.73	265.10	25.46	-40.9	-43.8	14.4	0.00e+00	0	62	0	603979776	53	5023
2026-01-28 01:00:26.74	264.87	25.35	-40.9	-43.8	14.4	0.00e+00	0	62	0	605028352	53	5003
2026-01-28 01:00:27.75	264.63	25.25	-40.7	-43.6	14.6	7.00e-07	0	62	0	607125504	53	4887
2026-01-28 01:00:28.76	264.40	25.15	-40.6	-43.3	14.9	7.00e-07	0	62	0	609222656	53	4731
2026-01-28 01:00:29.77	264.17	25.05	-40.5	-43.2	15.0	0.00e+00	0	62	0	611319808	53	4680
2026-01-28 01:00:30.78	263.94	24.95	-40.4	-43.1	15.1	0.00e+00	0	62	0	613416960	52	4913
2026-01-28 01:00:31.79	263.71	24.85	-40.3	-43.0	15.3	0.00e+00	0	62	0	614465536	52	4829
2026-01-28 01:00:32.80	263.48	24.75	-40.3	-42.9	15.3	0.00e+00	0	62	0	616562688	52	4811
2026-01-28 01:00:33.81	263.25	24.65	-40.3	-42.9	15.3	0.00e+00	0	62	0	618659840	52	4808
2026-01-28 01:00:34.82	263.03	24.54	-40.3	-42.9	15.3	0.00e+00	0	62	0	620756992	52	4796
2026-01-28 01:00:35.83	262.80	24.44	-40.2	-42.8	15.4	0.00e+00	0	62	0	622854144	52	4741
2026-01-28 01:00:36.84	262.58	24.34	-40.2	-42.8	15.4	1.50e-06	0	62	0	623902720	52	4753
2026-01-28 01:00:37.85	262.36	24.24	-40.3	-42.9	15.3	0.00e+00	0	62	0	625999872	52	4793
2026-01-28 01:00:38.86	262.14	24.14	-40.3	-42.9	15.3	0.00e+00	0	62	0	628097024	52	4777
2026-01-28 01:00:39.87	261.92	24.04	-40.3	-42.9	15.3	0.00e+00	0	62	0	630194176	52	4806
2026-01-28 01:00:40.88	261.71	23.93	-40.2	-42.7	15.5	0.00e+00	0	62	0	632291328	52	4686
2026-01-28 01:00:41.89	261.49	23.83	-40.0	-42.5	15.7	0.00e+00	0	62	0	633339904	52	4593
2026-01-28 01:00:42.90	261.28	23.73	-40.0	-42.5	15.8	0.00e+00	0	62	0	635437056	51	4834
2026-01-28 01:00:43.91	261.07	23.63	-40.1	-42.6	15.7	0.00e+00	0	62	0	637534208	51	4886
2026-01-28 01:00:44.92	260.85	23.53	-40.1	-42.6	15.7	0.00e+00	0	62	0	639631360	51	4886
2026-01-28 01:00:45.93	260.65	23.42	-40.0	-42.4	15.8	0.00e+00	0	62	0	641728512	51	4803
2026-01-28 01:00:46.94	260.44	23.32	-39.9	-42.3	16.0	0.00e+00	0	62	0	642777088	51	4728
2026-01-28 01:00:47.95	260.23	23.22	-39.9	-42.2	16.0	0.00e+00	0	62	0	644874240	51	4682
2026-01-28 01:00:48.96	260.03	23.12	-39.9	-42.3	16.0	0.00e+00	0	62	0	646971392	51	4721
2026-01-28 01:00:49.97	259.82	23.01	-39.9	-42.3	16.0	0.00e+00	0	62	0	649068544	51	4744
2026-01-28 01:00:50.98	259.62	22.91	-39.9	-42.2	16.0	0.00e+00	0	62	0	651165696	51	4695
2026-01-28 01:00:51.99	259.42	22.81	-39.9	-42.3	16.0	0.00e+00	0	62	0	652214272	51	4725
2026-01-28 01:00:53.00	259.22	22.71	-39.9	-42.3	16.0	0.00e+00	0	62	0	654311424	51	4739
2026-01-28 01:00:54.01	259.02	22.61	-39.9	-42.3	16.0	0.00e+00	0	62	0	656408576	51	4743
2026-01-28 01:00:55.02	258.82	22.50	-39.9	-42.4	15.9	0.00e+00	0	62	0	658505728	51	4762
2026-01-28 01:00:56.03	258.63	22.40	-39.9	-42.3	16.0	0.00e+00	0	62	0	660602880	51	4732
2026-01-28 01:00:57.04	258.43	22.30	-39.9	-42.4	15.9	0.00e+00	0	62	0	662700032	51	4763
2026-01-28 01:00:58.05	258.24	22.20	-40.0	-42.4	15.8	0.00e+00	0	62	0	663748608	51	4798
2026-01-28 01:00:59.06	258.05	22.10	-40.0	-42.5	15.7	0.00e+00	0	62	0	665845760	51	4861
2026-01-28 01:01:00.07	257.85	21.99	-40.1	-42.6	15.6	0.00e+00	0	62	0	667942912	51	4917
2026-01-28 01:01:01.08	257.66	21.89	-40.2	-42.7	15.5	0.00e+00	0	62	0	670040064	51	4982
2026-01-28 01:01:02.09	257.48	21.79	-40.3	-42.9	15.3	0.00e+00	0	62	0	672137216	51	5073
2026-01-28 01:01:03.09	257.29	21.69	-40.3	-43.0	15.2	0.00e+00	0	62	0	673185792	51	5121
2026-01-28 01:01:04.11	257.10	21.59	-40.4	-43.0	15.2	0.00e+00	0	62	0	675282944	51	5136
2026-01-28 01:01:05.12	256.92	21.49	-40.3	-42.9	15.3	0.00e+00	0	62	0	677380096	51	5061
2026-01-28 01:01:06.12	256.74	21.39	-40.3	-42.9	15.4	0.00e+00	0	62	0	679477248	51	5045
2026-01-28 01:01:07.13	256.55	21.28	-40.3	-42.9	15.4	0.00e+00	0	62	0	681574400	51	5054
2026-01-28 01:01:08.14	256.37	21.18	-40.2	-42.8	15.4	0.00e+00	0	62	0	682622976	51	5032
2026-01-28 01:01:09.15	256.19	21.08	-40.2	-42.8	15.5	0.00e+00	0	62	0	684720128	51	5000
2026-01-28 01:01:10.16	256.01	20.98	-40.3	-42.9	15.4	0.00e+00	0	62	0	686817280	51	5045
2026-01-28 01:01:11.17	255.84	20.88	-40.4	-43.0	15.2	0.00e+00	0	62	0	688914432	51	5147
2026-01-28 01:01:12.18	255.66	20.78	-40.5	-43.2	15.0	0.00e+00	0	62	0	691011584	51	5256
2026-01-28 01:01:13.20	255.48	20.68	-40.6	-43.4	14.8	0.00e+00	0	62	0	692060160	51	5358
2026-01-28 01:01:14.21	255.31	20.58	-40.6	-43.4	14.8	0.00e+00	0	62	0	694157312	51	5371
2026-01-28 01:01:15.22	255.14	20.48	-40.7	-43.5	14.7	0.00e+00	0	62	0	696254464	51	5436
2026-01-28 01:01:16.23	254.96	20.38	-40.7	-43.6	14.7	0.00e+00	0	62	0	698351616	51	5469
2026-01-28 01:01:17.24	254.79	20.28	-40.7	-43.5	14.7	0.00e+00	0	62	0	700448768	51	5456
2026-01-28 01:01:18.25	254.62	20.18	-40.7	-43.5	14.8	0.00e+00	0	62	0	701497344	51	5417
2026-01-28 01:01:19.26	254.46	20.08	-40.7	-43.5	14.7	7.00e-07	0	62	0	703594496	51	5419
2026-01-28 01:01:20.27	254.29	19.98	-40.6	-43.5	14.8	0.00e+00	0	62	0	705691648	51	5407
2026-01-28 01:01:21.28	254.12	19.88	-40.7	-43.6	14.6	0.00e+00	0	62	0	707788800	52	5163
2026-01-28 01:01:22.29	253.96	19.78	-40.7	-43.6	14.5	2.20e-06	0	62	0	709885952	52	5178
2026-01-28 01:01:23.30	253.79	19.68	-40.7	-43.7	14.5	7.00e-07	0	62	0	710934528	52	5236
2026-01-28 01:01:24.31	253.63	19.58	-40.8	-43.8	14.3	0.00e+00	0	62	0	713031680	52	5306
2026-01-28 01:01:25.32	253.47	19.48	-40.8	-43.8	14.3	1.50e-06	0	62	0	715128832	52	5317
2026-01-28 01:01:26.33	253.31	19.38	-40.9	-43.9	14.2	2.20e-06	0	62	0	717225984	52	5359
2026-01-28 01:01:27.34	253.15	19.28	-40.8	-43.8	14.3	7.00e-07	0	62	0	719323136	52	5333
2026-01-28 01:01:28.35	252.99	19.19	-40.9	-43.9	14.2	1.50e-06	0	62	0	720371712	52	5368
2026-01-28 01:01:29.36	252.83	19.09	-40.8	-43.8	14.3	0.00e+00	0	62	0	722468864	52	5297
2026-01-28 01:01:30.37	252.67	18.99	-40.9	-43.9	14.2	1.50e-06	0	62	0	724566016	52	5373
2026-01-28 01:01:31.38	252.52	18.89	-40.7	-43.7	14.4	7.00e-07	0	62	0	726663168	52	5236
2026-01-28 01:01:32.39	252.36	18.79	-40.8	-43.8	14.3	7.00e-07	0	62	0	728760320	52	5281
2026-01-28 01:01:33.40	252.21	18.70	-40.9	-43.9	14.2	7.00e-07	0	62	0	730857472	52	5371
2026-01-28 01:01:34.41	252.06	18.60	-40.9	-44.0	14.1	1.50e-06	0	62	0	731906048	52	5427
2026-01-28 01:01:35.42	251.91	18.50	-41.0	-44.1	14.0	3.00e-06	0	62	0	734003200	52	5481
2026-01-28 01:01:36.43	251.76	18.40	-41.0	-44.2	13.9	2.20e-06	0	62	0	736100352	52	5545
2026-01-28 01:01:37.45	251.60	18.31	-41.1	-44.2	13.8	6.80e-06	0	62	0	738197504	52	5592
2026-01-28 01:01:38.46	251.46	18.21	-41.1	-44.3	13.8	4.50e-06	0	62	0	740294656	52	5596
2026-01-28 01:01:39.47	251.31	18.11	-41.1	-44.3	13.7	7.60e-06	0	62	0	741343232	52	5656
2026-01-28 01:01:40.48	251.16	18.02	-41.0	-44.2	13.9	3.00e-06	0	62	0	743440384	52	5532
2026-01-28 01:01:41.49	251.01	17.92	-41.0	-44.1	14.0	1.50e-06	0	62	0	745537536	52	5479
2026-01-28 01:01:42.50	250.87	17.82	-40.9	-44.0	14.0	6.10e-06	0	62	0	747634688	52	5449
2026-01-28 01:01:43.51	250.73	17.73	-40.9	-44.0	14.1	1.50e-06	0	62	0	749731840	52	5424
2026-01-28 01:01:44.52	250.58	17.63	-40.9	-44.0	14.0	7.00e-07	0	62	0	750780416	52	5453
2026-01-28 01:01:45.53	250.44	17.54	-41.0	-44.1	13.9	4.50e-06	0	62	0	752877568	52	5523
2026-01-28 01:01:46.54	250.30	17.44	-41.1	-44.3	13.7	3.00e-06	0	62	0	754974720	52	5620
2026-01-28 01:01:47.55	250.16	17.35	-41.2	-44.5	13.6	4.50e-06	0	62	0	757071872	52	5730
2026-01-28 01:01:48.56	250.02	17.25	-41.3	-44.7	13.3	2.51e-05	0	62	0	759169024	53	5543
2026-01-28 01:01:49.57	249.88	17.16	-41.3	-44.8	13.2	1.60e-05	0	62	0	760217600	53	5610
2026-01-28 01:01:50.58	249.74	17.06	-41.4	-44.9	13.1	2.89e-05	0	62	0	762314752	53	5677
2026-01-28 01:01:51.59	249.60	16.97	-41.4	-44.8	13.2	2.13e-05	0	62	0	764411904	53	5633
2026-01-28 01:01:52.60	249.47	16.87	-41.4	-44.8	13.1	3.12e-05	0	62	0	766509056	53	5652
2026-01-28 01:01:53.61	249.33	16.78	-41.3	-44.7	13.3	2.89e-05	0	62	0	768606208	53	5542
2026-01-28 01:01:54.62	249.20	16.69	-41.2	-44.6	13.4	1.06e-05	0	62	0	769654784	53	5473
2026-01-28 01:01:55.63	249.07	16.59	-41.2	-44.5	13.4	1.44e-05	0	62	0	771751936	53	5464
2026-01-28 01:01:56.64	248.93	16.50	-41.2	-44.5	13.4	1.37e-05	0	62	0	773849088	53	5460
2026-01-28 01:01:57.66	248.80	16.41	-41.2	-44.6	13.4	1.06e-05	0	62	0	775946240	53	5492
2026-01-28 01:01:58.67	248.67	16.31	-41.3	-44.6	13.4	1.29e-05	0	62	0	778043392	53	5506
2026-01-28 01:01:59.68	248.54	16.22	-41.3	-44.7	13.2	1.83e-05	0	62	0	780140544	53	5592
2026-01-28 01:02:00.68	248.41	16.13	-41.4	-45.0	13.0	3.20e-05	0	62	0	781189120	53	5729
2026-01-28 01:02:01.70	248.28	16.04	-41.5	-45.1	12.9	3.50e-05	0	62	0	783286272	53	5802
2026-01-28 01:02:02.71	248.15	15.94	-41.5	-45.2	12.8	5.79e-05	0	62	0	785383424	53	5859
2026-01-28 01:02:03.72	248.03	15.85	-41.6	-45.2	12.7	6.94e-05	0	62	0	787480576	53	5903
2026-01-28 01:02:04.73	247.90	15.76	-41.6	-45.3	12.7	7.70e-05	0	62	0	789577728	53	5960
2026-01-28 01:02:05.74	247.77	15.67	-41.6	-45.3	12.6	8.54e-05	0	62	0	790626304	53	5947
2026-01-28 01:02:06.75	247.65	15.58	-41.6	-45.4	12.6	9.53e-05	0	62	0	792723456	53	6013
2026-01-28 01:02:07.76	247.53	15.49	-41.6	-45.3	12.6	8.69e-05	0	62	0	794820608	53	5958
2026-01-28 01:02:08.77	247.40	15.39	-41.5	-45.2	12.7	7.47e-05	0	62	0	796917760	53	5910
2026-01-28 01:02:09.78	247.28	15.30	-41.5	-45.1	12.8	5.34e-05	0	62	0	799014912	53	5823
2026-01-28 01:02:10.79	247.16	15.21	-41.5	-45.1	12.8	6.48e-05	0	62	0	800063488	53	5850
2026-01-28 01:02:11.80	247.04	15.12	-41.4	-45.0	12.9	5.18e-05	0	62	0	802160640	53	5779
2026-01-28 01:02:12.81	246.92	15.03	-41.4	-45.0	12.9	3.66e-05	0	62	0	804257792	53	5783
2026-01-28 01:02:13.82	246.80	14.94	-41.5	-45.1	12.9	5.26e-05	0	62	0	806354944	53	5790
2026-01-28 01:02:14.83	246.68	14.85	-41.5	-45.2	12.8	7.40e-05	0	62	0	808452096	53	5863
2026-01-28 01:02:15.84	246.56	14.76	-41.6	-45.3	12.6	8.16e-05	0	62	0	809500672	53	5984
2026-01-28 01:02:16.85	246.45	14.67	-41.7	-45.5	12.4	1.28e-04	0	62	0	811597824	53	6090
2026-01-28 01:02:17.86	246.33	14.59	-41.8	-45.7	12.3	1.75e-04	0	62	0	813694976	54	5857
2026-01-28 01:02:18.87	246.21	14.50	-41.7	-45.6	12.2	2.18e-04	0	62	0	815792128	54	5828
2026-01-28 01:02:19.88	246.10	14.41	-41.8	-45.7	12.2	2.03e-04	0	62	0	817889280	54	5873
2026-01-28 01:02:20.89	245.98	14.32	-41.8	-45.7	12.2	2.39e-04	0	62	0	818937856	54	5877
2026-01-28 01:02:21.90	245.87	14.23	-41.7	-45.6	12.3	2.09e-04	0	62	0	821035008	54	5807
2026-01-28 01:02:22.91	245.76	14.14	-41.6	-45.4	12.4	1.73e-04	0	62	0	823132160	54	5716
2026-01-28 01:02:23.92	245.64	14.06	-41.6	-45.3	12.6	1.06e-04	0	62	0	825229312	54	5625
2026-01-28 01:02:24.93	245.53	13.97	-41.6	-45.3	12.5	8.69e-05	0	62	0	827326464	54	5644
2026-01-28 01:02:25.94	245.42	13.88	-41.6	-45.3	12.6	1.04e-04	0	62	0	828375040	54	5649
2026-01-28 01:02:26.95	245.31	13.79	-41.5	-45.2	12.7	1.01e-04	0	62	0	830472192	54	5566
2026-01-28 01:02:27.96	245.20	13.71	-41.4	-45.0	12.8	5.72e-05	0	62	0	832569344	54	5436
2026-01-28 01:02:28.97	245.09	13.62	-41.5	-45.1	12.8	5.26e-05	0	62	0	834666496	54	5488
2026-01-28 01:02:29.98	244.98	13.53	-41.5	-45.2	12.7	6.63e-05	0	62	0	836763648	54	5575
2026-01-28 01:02:30.99	244.88	13.45	-41.6	-45.4	12.5	1.06e-04	0	62	0	837812224	54	5679
2026-01-28 01:02:32.00	244.77	13.36	-41.6	-45.5	12.4	1.36e-04	0	62	0	839909376	54	5752
2026-01-28 01:02:33.01	244.66	13.27	-41.7	-45.7	12.2	1.79e-04	0	62	0	842006528	54	5872
2026-01-28 01:02:34.02	244.56	13.19	-41.8	-45.8	12.0	3.00e-04	0	62	0	844103680	54	5947
2026-01-28 01:02:35.03	244.45	13.10	-41.8	-45.9	12.0	3.22e-04	0	62	0	846200832	54	5999
2026-01-28 01:02:36.03	244.35	13.02	-41.8	-45.8	12.0	3.69e-04	0	62	0	848297984	54	5983
2026-01-28 01:02:37.04	244.25	12.93	-41.9	-46.0	11.8	5.27e-04	0	62	0	849346560	54	6113
2026-01-28 01:02:38.05	244.14	12.85	-41.9	-46.0	11.8	5.52e-04	0	62	0	851443712	54	6129
2026-01-28 01:02:39.07	244.04	12.76	-41.9	-46.1	11.7	5.36e-04	0	62	0	853540864	54	6150
2026-01-28 01:02:40.07	243.94	12.68	-41.8	-45.9	11.8	4.05e-04	0	62	0	855638016	54	6050
2026-01-28 01:02:41.09	243.83	12.59	-41.8	-45.8	11.9	3.71e-04	0	62	0	857735168	54	5991
2026-01-28 01:02:42.09	243.73	12.51	-41.7	-45.8	12.0	3.95e-04	0	62	0	858783744	54	5931
2026-01-28 01:02:43.10	243.63	12.43	-41.7	-45.7	12.1	2.81e-04	0	62	0	860880896	54	5857
2026-01-28 01:02:44.11	243.53	12.34	-41.7	-45.7	12.1	2.22e-04	0	62	0	862978048	54	5882
2026-01-28 01:02:45.12	243.44	12.26	-41.7	-45.7	12.1	2.55e-04	0	62	0	865075200	54	5872
2026-01-28 01:02:46.13	243.34	12.18	-41.7	-45.7	12.1	2.84e-04	0	62	0	867172352	54	5901
2026-01-28 01:02:47.14	243.24	12.09	-41.7	-45.7	12.1	3.19e-04	0	62	0	868220928	54	5886
2026-01-28 01:02:48.15	243.14	12.01	-41.8	-45.9	11.9	3.07e-04	0	62	0	870318080	54	5998
2026-01-28 01:02:49.16	243.04	11.93	-41.8	-45.9	11.8	4.55e-04	0	62	0	872415232	54	6048
2026-01-28 01:02:50.17	242.95	11.84	-41.8	-46.0	11.8	4.94e-04	0	62	0	874512384	54	6075
2026-01-28 01:02:51.18	242.85	11.76	-41.9	-46.2	11.5	6.31e-04	0	62	0	876609536	54	6225
2026-01-28 01:02:52.19	242.76	11.68	-41.9	-46.2	11.5	7.80e-04	0	62	0	877658112	54	6205
2026-01-28 01:02:53.20	242.66	11.60	-42.0	-46.3	11.4	1.02e-03	0	62	0	879755264	54	6324
2026-01-28 01:02:54.21	242.57	11.52	-42.0	-46.3	11.4	1.03e-03	0	62	0	881852416	54	6292
2026-01-28 01:02:55.22	242.47	11.43	-42.0	-46.4	11.3	1.20e-03	0	62	0	883949568	54	6354
2026-01-28 01:02:56.23	242.38	11.35	-42.0	-46.4	11.2	1.35e-03	0	62	0	886046720	54	6393
2026-01-28 01:02:57.24	242.29	11.27	-42.0	-46.4	11.3	1.15e-03	0	62	0	887095296	54	6357
2026-01-28 01:02:58.25	242.20	11.19	-42.0	-46.4	11.3	1.18e-03	0	62	0	889192448	54	6371
2026-01-28 01:02:59.26	242.10	11.11	-42.0	-46.4	11.3	1.20e-03	0	62	0	891289600	54	6356
2026-01-28 01:03:00.27	242.01	11.03	-41.9	-46.3	11.3	1.16e-03	0	62	0	893386752	54	6345
2026-01-28 01:03:01.27	241.92	10.95	-41.9	-46.3	11.4	1.17e-03	0	62	0	895483904	54	6295
2026-01-28 01:03:02.28	241.83	10.87	-41.9	-46.3	11.3	1.21e-03	0	62	0	896532480	54	6306
2026-01-28 01:03:03.30	241.74	10.79	-41.9	-46.3	11.3	1.13e-03	0	62	0	898629632	54	6328
2026-01-28 01:03:04.31	241.65	10.71	-41.9	-46.2	11.4	1.10e-03	0	62	0	900726784	54	6264
2026-01-28 01:03:05.32	241.57	10.63	-41.9	-46.2	11.4	9.83e-04	0	62	0	902823936	54	6238
2026-01-28 01:03:06.32	241.48	10.55	-41.8	-46.1	11.5	7.88e-04	0	62	0	904921088	54	6177
2026-01-28 01:03:07.34	241.39	10.47	-41.9	-46.2	11.4	9.65e-04	0	62	0	905969664	54	6230
2026-01-28 01:03:08.34	241.30	10.39	-41.8	-46.2	11.4	1.17e-03	0	62	0	908066816	54	6239
2026-01-28 01:03:09.36	241.22	10.31	-41.9	-46.3	11.3	1.03e-03	0	62	0	910163968	54	6313
2026-01-28 01:03:10.36	241.13	10.24	-41.9	-46.4	11.2	1.19e-03	0	62	0	912261120	54	6394
2026-01-28 01:03:11.38	241.04	10.16	-41.9	-46.3	11.2	1.30e-03	0	62	0	914358272	54	6314
2026-01-28 01:03:12.38	240.96	10.08	-41.9	-46.4	11.2	1.32e-03	0	62	0	916455424	54	6355
2026-01-28 01:03:13.39	240.88	10.00	-41.9	-46.4	11.2	1.35e-03	0	62	0	917504000	54	6358
2026-01-28 01:03:14.40	240.79	9.92	-41.9	-46.4	11.1	1.45e-03	0	62	0	919601152	54	6415
2026-01-28 01:03:15.41	240.71	9.84	-41.9	-46.4	11.1	1.70e-03	0	62	0	921698304	54	6366
2026-01-28 01:03:16.43	240.62	9.77	-42.0	-46.5	11.1	1.67e-03	0	62	0	923795456	54	6438
2026-01-28 01:03:17.43	240.54	9.69	-41.9	-46.5	11.0	1.95e-03	0	62	0	925892608	54	6483
2026-01-28 01:03:18.44	240.46	9.61	-42.0	-46.5	11.0	1.95e-03	0	62	0	926941184	54	6454
2026-01-28 01:03:19.46	240.38	9.53	-42.0	-46.5	11.0	2.09e-03	0	62	0	929038336	54	6448
2026-01-28 01:03:20.46	240.30	9.46	-41.9	-46.4	11.1	1.67e-03	0	62	0	931135488	54	6358
2026-01-28 01:03:21.47	240.21	9.38	-41.9	-46.5	11.0	1.74e-03	0	62	0	933232640	54	6447
2026-01-28 01:03:22.49	240.13	9.30	-41.9	-46.5	11.0	1.81e-03	0	62	0	935329792	54	6443
2026-01-28 01:03:23.50	240.05	9.23	-42.0	-46.6	10.8	2.32e-03	0	62	0	936378368	54	6550
2026-01-28 01:03:24.51	239.97	9.15	-42.0	-46.5	10.9	2.08e-03	0	62	0	938475520	54	6492
2026-01-28 01:03:25.52	239.89	9.08	-42.0	-46.7	10.8	2.50e-03	0	62	0	940572672	54	6581
2026-01-28 01:03:26.53	239.81	9.00	-42.0	-46.8	10.6	2.91e-03	0	62	0	942669824	54	6678
2026-01-28 01:03:27.54	239.74	8.93	-42.0	-46.7	10.7	3.41e-03	0	62	0	944766976	54	6610
2026-01-28 01:03:28.55	239.66	8.85	-42.1	-47.0	10.5	3.34e-03	0	62	0	945815552	54	6832
2026-01-28 01:03:29.56	239.58	8.77	-42.1	-47.0	10.4	4.84e-03	0	62	0	947912704	54	6848
2026-01-28 01:03:30.57	239.50	8.70	-42.2	-47.1	10.3	5.00e-03	0	62	0	950009856	54	6929
