passes_logs/2026/01/07/T1/T1__20260107_045219_FENGYUN_3E_rec.log

#Pass ID: 20260107_045219_FENGYUN 3E
#Satellite: FENGYUN 3E
#Configuration: FENGYUN 3E
#almurnet v.1.7.20251203
#Start time: 2026-01-07 04:52:19

#Version: 2.0.20230620
#Station: T1
#Location: 37.570604 lon 55.790049 lat
#TLE: 1 49008U 21062A   26006.26767912  .00000427  00000+0  22170-3 0  9993
#TLE: 2 49008  98.7475  11.4982 0001602 156.1158 204.0093 14.19885456233607

#Time	Az	El	Level	Level2	SNR	BER	BlckErr	Temp	State	Recorded	gain1	gain2
2026-01-07 04:52:19.50	10.81	4.99	-49.7	-61.1	3.8	8.47e-01	0	41	0	0	68	14452
2026-01-07 04:52:20.50	10.77	5.06	-48.0	-60.7	3.8	8.46e-01	0	41	104	0	65	16388
2026-01-07 04:52:21.50	10.72	5.13	-48.0	-60.7	3.8	8.46e-01	0	41	104	0	65	16362
2026-01-07 04:52:22.51	10.68	5.19	-48.1	-60.7	3.8	8.47e-01	0	41	104	0	65	16347
2026-01-07 04:52:23.51	10.64	5.26	-48.1	-60.7	3.8	8.47e-01	0	41	104	0	65	16358
2026-01-07 04:52:24.51	10.59	5.33	-48.1	-60.7	3.8	8.48e-01	0	41	104	0	65	16461
2026-01-07 04:52:25.52	10.55	5.40	-48.1	-60.7	3.8	8.48e-01	0	41	104	0	65	16318
2026-01-07 04:52:26.52	10.50	5.47	-48.0	-60.7	3.8	8.48e-01	0	41	104	0	65	16339
2026-01-07 04:52:27.53	10.46	5.54	-48.0	-60.7	3.8	8.47e-01	0	41	104	0	65	16349
2026-01-07 04:52:28.53	10.41	5.61	-48.1	-60.6	3.8	8.47e-01	0	41	104	0	65	16313
2026-01-07 04:52:29.54	10.36	5.68	-48.0	-60.6	3.8	8.47e-01	0	41	104	0	65	16168
2026-01-07 04:52:30.54	10.32	5.75	-48.0	-60.5	3.8	8.47e-01	0	41	104	0	65	16113
2026-01-07 04:52:31.55	10.27	5.82	-48.0	-60.6	3.8	8.48e-01	0	41	104	0	65	16252
2026-01-07 04:52:32.55	10.23	5.89	-48.0	-60.6	3.8	8.47e-01	0	42	104	0	65	16133
2026-01-07 04:52:33.55	10.18	5.96	-48.0	-60.5	3.8	8.47e-01	0	42	104	0	65	16118
2026-01-07 04:52:34.56	10.13	6.03	-48.0	-60.6	3.8	8.46e-01	0	42	104	0	65	16153
2026-01-07 04:52:35.56	10.08	6.10	-48.0	-60.6	3.8	8.46e-01	0	42	104	0	65	16226
2026-01-07 04:52:36.57	10.04	6.17	-47.9	-60.6	3.8	8.47e-01	0	42	104	0	65	16140
2026-01-07 04:52:37.57	9.99	6.25	-48.0	-60.7	3.8	8.47e-01	0	42	104	0	65	16346
2026-01-07 04:52:38.58	9.94	6.32	-48.0	-60.6	3.8	8.48e-01	0	42	104	0	65	16261
2026-01-07 04:52:39.58	9.89	6.39	-48.0	-60.6	3.8	8.48e-01	0	42	104	0	65	16297
2026-01-07 04:52:40.58	9.85	6.46	-48.0	-60.5	3.8	8.46e-01	0	42	104	0	65	16089
2026-01-07 04:52:41.59	9.80	6.53	-48.0	-60.5	3.8	8.47e-01	0	42	104	0	65	16076
2026-01-07 04:52:42.59	9.75	6.60	-47.9	-60.4	3.8	8.48e-01	0	42	104	0	65	15847
2026-01-07 04:52:43.60	9.70	6.68	-48.0	-60.1	3.8	8.46e-01	0	42	104	0	65	15349
2026-01-07 04:52:44.60	9.65	6.75	-48.0	-59.8	3.8	8.47e-01	0	42	104	0	65	14768
2026-01-07 04:52:45.60	9.60	6.82	-47.9	-59.3	3.8	8.47e-01	0	42	104	0	65	13903
2026-01-07 04:52:46.61	9.55	6.90	-47.9	-58.5	3.8	8.46e-01	0	42	104	0	65	12767
2026-01-07 04:52:47.61	9.50	6.97	-47.8	-58.1	3.8	8.44e-01	0	42	104	0	65	12148
2026-01-07 04:52:48.62	9.45	7.04	-47.7	-57.1	4.2	8.42e-01	0	42	0	0	65	10857
2026-01-07 04:52:49.62	9.40	7.12	-47.6	-56.9	4.3	8.36e-01	0	42	0	0	65	10608
2026-01-07 04:52:50.62	9.35	7.19	-47.6	-56.6	4.4	8.33e-01	0	42	0	0	65	10193
2026-01-07 04:52:51.63	9.29	7.26	-47.6	-56.6	4.4	8.28e-01	0	42	0	0	65	10180
2026-01-07 04:52:52.64	9.24	7.34	-47.6	-56.6	4.4	8.29e-01	0	42	0	0	65	10264
2026-01-07 04:52:53.64	9.19	7.41	-47.7	-56.9	4.2	8.32e-01	0	42	0	0	65	10650
2026-01-07 04:52:54.64	9.14	7.49	-47.7	-57.6	4.1	8.40e-01	0	42	0	0	65	11502
2026-01-07 04:52:55.65	9.09	7.56	-47.8	-58.3	3.8	8.43e-01	0	42	104	0	65	12501
2026-01-07 04:52:56.65	9.03	7.63	-47.9	-59.1	3.8	8.46e-01	0	43	104	0	65	13705
2026-01-07 04:52:57.65	8.98	7.71	-48.0	-59.9	3.8	8.47e-01	0	42	104	0	65	14882
2026-01-07 04:52:58.66	8.93	7.79	-47.9	-59.9	3.8	8.47e-01	0	43	104	0	65	14987
2026-01-07 04:52:59.66	8.87	7.86	-48.0	-59.3	3.8	8.46e-01	0	43	104	0	65	13902
2026-01-07 04:53:00.67	8.82	7.94	-47.7	-57.7	4.0	8.44e-01	0	43	104	0	65	11565
2026-01-07 04:53:01.67	8.76	8.01	-47.6	-56.3	4.5	8.30e-01	0	43	0	0	65	9860
2026-01-07 04:53:02.67	8.71	8.09	-47.3	-54.5	5.4	7.50e-01	0	43	0	0	65	8036
2026-01-07 04:53:03.68	8.65	8.16	-46.9	-53.2	6.3	3.19e-01	0	43	0	5242880	64	7344
2026-01-07 04:53:04.68	8.60	8.24	-46.6	-51.9	7.6	1.11e-01	0	43	0	11534336	63	6659
2026-01-07 04:53:05.69	8.54	8.32	-46.0	-50.3	9.1	3.77e-02	0	43	0	18874368	62	5916
2026-01-07 04:53:06.69	8.49	8.39	-45.4	-49.0	10.5	8.23e-03	0	43	0	26214400	61	5390
2026-01-07 04:53:07.70	8.43	8.47	-45.0	-48.2	11.4	2.02e-03	0	43	0	33554432	60	5214
2026-01-07 04:53:08.70	8.38	8.55	-44.4	-47.1	12.5	1.66e-04	0	43	0	40894464	59	4820
2026-01-07 04:53:09.70	8.32	8.63	-44.2	-46.8	12.8	4.69e-05	0	43	0	48234496	58	4967
2026-01-07 04:53:10.71	8.26	8.70	-44.1	-46.6	13.0	5.37e-05	0	43	0	55574528	58	4831
2026-01-07 04:53:11.71	8.20	8.78	-44.0	-46.5	13.0	3.43e-05	0	43	0	62914560	58	4803
2026-01-07 04:53:12.72	8.15	8.86	-44.2	-46.9	12.7	5.95e-05	0	43	0	70254592	58	5004
2026-01-07 04:53:13.72	8.09	8.94	-44.2	-46.9	12.7	7.78e-05	0	43	0	77594624	58	5000
2026-01-07 04:53:14.72	8.03	9.02	-44.8	-47.9	11.6	4.81e-04	0	43	0	84934656	59	5329
2026-01-07 04:53:15.73	7.97	9.09	-46.6	-52.4	7.2	4.29e-02	0	43	0	92274688	62	7494
2026-01-07 04:53:16.73	7.91	9.17	-44.8	-47.7	11.9	2.88e-02	0	43	0	98566144	60	4921
2026-01-07 04:53:17.86	7.84	9.26	-46.7	-52.1	7.5	1.11e-02	0	43	0	106954752	62	7250
2026-01-07 04:53:18.75	7.79	9.33	-46.9	-53.1	6.6	1.48e-01	0	43	0	113246208	63	7710
2026-01-07 04:53:20.07	7.71	9.44	-40.4	-41.7	17.9	0.00e+00	0	43	0	122683392	51	4112
2026-01-07 04:53:20.78	7.67	9.49	-40.5	-41.8	17.8	0.00e+00	0	43	0	127926272	51	4159
2026-01-07 04:53:22.08	7.59	9.60	-40.1	-41.4	18.1	0.00e+00	0	43	0	137363456	51	3990
2026-01-07 04:53:22.79	7.55	9.65	-40.2	-41.5	18.1	0.00e+00	0	43	0	142606336	51	4017
2026-01-07 04:53:24.08	7.47	9.76	-40.1	-41.4	18.2	0.00e+00	0	43	0	152043520	50	4210
2026-01-07 04:53:24.80	7.42	9.82	-40.4	-41.7	17.9	0.00e+00	0	43	0	157286400	50	4344
2026-01-07 04:53:26.09	7.34	9.92	-40.2	-41.4	18.2	0.00e+00	0	43	0	165675008	50	4229
2026-01-07 04:53:27.01	7.29	9.99	-40.0	-41.2	18.3	0.00e+00	0	43	0	173015040	50	4126
2026-01-07 04:53:28.01	7.22	10.08	-39.9	-41.2	18.4	0.00e+00	0	43	0	180355072	50	4102
2026-01-07 04:53:29.02	7.16	10.16	-39.8	-41.0	18.6	0.00e+00	0	43	0	187695104	50	4013
2026-01-07 04:53:30.02	7.09	10.24	-39.8	-41.0	18.6	0.00e+00	0	43	0	195035136	50	4040
2026-01-07 04:53:31.02	7.03	10.32	-39.7	-40.9	18.6	0.00e+00	0	43	0	202375168	50	3994
2026-01-07 04:53:32.03	6.97	10.40	-39.7	-40.9	18.7	0.00e+00	0	43	0	208666624	50	3973
2026-01-07 04:53:33.03	6.90	10.49	-39.6	-40.8	18.7	0.00e+00	0	43	0	216006656	49	4188
2026-01-07 04:53:34.03	6.84	10.57	-39.6	-40.8	18.7	0.00e+00	0	43	0	223346688	49	4172
2026-01-07 04:53:35.03	6.77	10.65	-39.4	-40.5	19.0	0.00e+00	0	43	0	230686720	49	4051
2026-01-07 04:53:36.04	6.70	10.74	-39.3	-40.4	19.1	0.00e+00	0	43	0	238026752	49	4002
2026-01-07 04:53:37.04	6.64	10.82	-39.1	-40.3	19.3	0.00e+00	0	43	0	245366784	49	3917
2026-01-07 04:53:38.04	6.57	10.90	-39.2	-40.4	19.2	0.00e+00	0	43	0	252706816	48	4205
2026-01-07 04:53:39.04	6.50	10.99	-39.2	-40.3	19.3	0.00e+00	0	43	0	260046848	48	4187
2026-01-07 04:53:40.05	6.43	11.07	-39.3	-40.5	19.1	0.00e+00	0	43	0	267386880	48	4249
2026-01-07 04:53:41.05	6.37	11.16	-39.1	-40.3	19.3	0.00e+00	0	43	0	273678336	48	4166
2026-01-07 04:53:42.05	6.30	11.24	-39.1	-40.3	19.3	0.00e+00	0	43	0	282066944	48	4170
2026-01-07 04:53:43.05	6.23	11.32	-39.2	-40.3	19.2	0.00e+00	0	43	0	289406976	48	4183
2026-01-07 04:53:44.06	6.16	11.41	-39.2	-40.3	19.3	0.00e+00	0	43	0	295698432	48	4177
2026-01-07 04:53:45.06	6.09	11.50	-39.0	-40.2	19.4	0.00e+00	0	43	0	303038464	48	4108
2026-01-07 04:53:46.06	6.02	11.58	-39.1	-40.3	19.3	0.00e+00	0	43	0	310378496	48	4164
2026-01-07 04:53:47.07	5.95	11.67	-39.1	-40.2	19.4	0.00e+00	0	43	0	317718528	48	4136
2026-01-07 04:53:48.17	5.87	11.76	-39.2	-40.4	19.2	0.00e+00	0	43	0	326107136	48	4219
2026-01-07 04:53:49.06	5.81	11.84	-39.1	-40.3	19.3	0.00e+00	0	43	0	332398592	48	4184
2026-01-07 04:53:50.12	5.73	11.93	-39.1	-40.3	19.3	0.00e+00	0	43	0	339738624	48	4160
2026-01-07 04:53:51.00	5.67	12.01	-39.0	-40.2	19.4	0.00e+00	0	43	0	346030080	48	4131
2026-01-07 04:53:52.14	5.58	12.11	-39.0	-40.1	19.5	0.00e+00	0	43	0	354418688	48	4078
2026-01-07 04:53:53.00	5.52	12.18	-39.0	-40.1	19.4	0.00e+00	0	43	0	360710144	48	4097
2026-01-07 04:53:54.15	5.43	12.28	-39.0	-40.1	19.5	0.00e+00	0	43	0	369098752	48	4088
2026-01-07 04:53:55.01	5.37	12.36	-38.9	-40.1	19.5	0.00e+00	0	43	0	375390208	48	4084
2026-01-07 04:53:56.15	5.29	12.46	-39.0	-40.1	19.5	0.00e+00	0	43	0	383778816	48	4085
2026-01-07 04:53:57.35	5.20	12.56	-38.8	-39.9	19.7	0.00e+00	0	43	0	392167424	48	4000
2026-01-07 04:53:58.21	5.13	12.64	-38.8	-40.0	19.6	0.00e+00	0	43	0	398458880	48	4025
2026-01-07 04:53:59.35	5.04	12.74	-38.9	-40.0	19.6	0.00e+00	0	43	0	406847488	48	4033
2026-01-07 04:54:00.21	4.98	12.82	-38.7	-39.9	19.8	0.00e+00	0	43	0	413138944	48	3966
2026-01-07 04:54:01.36	4.89	12.92	-38.6	-39.7	19.9	0.00e+00	0	44	0	421527552	48	3912
2026-01-07 04:54:02.22	4.82	13.00	-38.6	-39.7	20.0	0.00e+00	0	43	0	426770432	48	3871
2026-01-07 04:54:03.37	4.73	13.10	-38.6	-39.7	19.6	0.00e+00	0	43	0	435159040	47	4144
2026-01-07 04:54:04.22	4.67	13.18	-38.5	-39.6	19.8	0.00e+00	0	43	0	441450496	47	4079
2026-01-07 04:54:05.43	4.57	13.29	-38.4	-39.5	19.8	0.00e+00	0	43	0	449839104	47	4051
2026-01-07 04:54:06.29	4.50	13.37	-38.4	-39.5	19.8	0.00e+00	0	43	0	456130560	47	4034
2026-01-07 04:54:07.44	4.41	13.47	-38.4	-39.5	19.8	0.00e+00	0	43	0	464519168	47	4018
2026-01-07 04:54:08.30	4.34	13.55	-38.3	-39.3	20.0	0.00e+00	0	43	0	470810624	47	3954
2026-01-07 04:54:09.44	4.25	13.66	-38.3	-39.4	20.0	0.00e+00	0	43	0	479199232	47	3976
2026-01-07 04:54:10.32	4.17	13.74	-38.2	-39.2	20.1	0.00e+00	0	43	0	485490688	47	3891
2026-01-07 04:54:11.64	4.07	13.86	-38.2	-39.2	20.2	0.00e+00	0	44	0	494927872	47	3899
2026-01-07 04:54:12.36	4.01	13.93	-38.3	-39.4	20.0	0.00e+00	0	43	0	500170752	47	3979
2026-01-07 04:54:13.65	3.90	14.05	-38.2	-39.3	20.2	0.00e+00	0	43	0	509607936	47	3924
2026-01-07 04:54:14.36	3.84	14.11	-38.4	-39.5	19.9	0.00e+00	0	43	0	514850816	46	4278
2026-01-07 04:54:15.66	3.73	14.23	-38.3	-39.4	20.0	0.00e+00	0	43	0	524288000	46	4215
2026-01-07 04:54:16.37	3.67	14.30	-38.2	-39.2	20.1	0.00e+00	0	44	0	529530880	46	4136
2026-01-07 04:54:17.66	3.56	14.42	-38.3	-39.4	20.0	0.00e+00	0	43	0	538968064	46	4222
2026-01-07 04:54:18.49	3.49	14.50	-38.4	-39.5	19.9	0.00e+00	0	43	0	544210944	46	4257
2026-01-07 04:54:19.64	3.39	14.61	-38.2	-39.3	20.2	0.00e+00	0	44	0	552599552	46	4159
2026-01-07 04:54:20.70	3.29	14.71	-38.2	-39.3	20.2	0.00e+00	0	44	0	560988160	46	4153
2026-01-07 04:54:21.72	3.20	14.81	-38.1	-39.1	20.3	0.00e+00	0	43	0	568328192	46	4092
2026-01-07 04:54:22.73	3.11	14.91	-38.1	-39.2	20.3	0.00e+00	0	44	0	574619648	46	4110
2026-01-07 04:54:23.73	3.02	15.00	-38.2	-39.2	20.2	0.00e+00	0	43	0	581959680	46	4143
2026-01-07 04:54:24.73	2.93	15.10	-38.7	-39.8	19.7	0.00e+00	0	43	0	589299712	46	4415
2026-01-07 04:54:25.73	2.84	15.20	-38.2	-39.3	20.2	0.00e+00	0	44	0	596639744	46	4163
2026-01-07 04:54:26.74	2.75	15.29	-38.2	-39.2	20.2	0.00e+00	0	44	0	603979776	46	4133
2026-01-07 04:54:27.74	2.66	15.39	-38.4	-39.4	20.1	0.00e+00	0	44	0	611319808	46	4228
2026-01-07 04:54:28.74	2.57	15.49	-38.3	-39.4	20.1	0.00e+00	0	44	0	618659840	46	4206
2026-01-07 04:54:29.74	2.47	15.59	-38.2	-39.2	20.3	0.00e+00	0	44	0	625999872	46	4118
2026-01-07 04:54:30.74	2.38	15.68	-38.4	-39.5	20.0	0.00e+00	0	44	0	633339904	46	4259
2026-01-07 04:54:31.74	2.29	15.78	-38.4	-39.5	20.0	0.00e+00	0	43	0	639631360	46	4261
2026-01-07 04:54:32.84	2.18	15.89	-38.5	-39.6	20.0	0.00e+00	0	44	0	648019968	46	4292
2026-01-07 04:54:33.74	2.09	15.98	-38.4	-39.4	20.1	0.00e+00	0	43	0	654311424	46	4231
2026-01-07 04:54:34.74	2.00	16.08	-38.2	-39.3	20.2	0.00e+00	0	43	0	661651456	46	4161
2026-01-07 04:54:35.95	1.88	16.20	-38.2	-39.3	20.2	0.00e+00	0	44	0	671088640	46	4146
2026-01-07 04:54:36.84	1.79	16.29	-37.9	-38.9	20.6	0.00e+00	0	44	0	677380096	46	3960
2026-01-07 04:54:37.98	1.68	16.41	-37.8	-38.8	20.6	0.00e+00	0	44	0	684720128	46	3924
2026-01-07 04:54:38.84	1.60	16.49	-37.9	-38.9	20.6	0.00e+00	0	43	0	691011584	46	3964
2026-01-07 04:54:39.99	1.48	16.61	-37.9	-38.9	20.6	0.00e+00	0	44	0	699400192	46	3970
2026-01-07 04:54:40.85	1.39	16.70	-37.7	-38.7	20.7	0.00e+00	0	43	0	705691648	46	3897
2026-01-07 04:54:42.00	1.28	16.81	-37.8	-38.8	20.7	0.00e+00	0	44	0	714080256	46	3914
2026-01-07 04:54:42.86	1.19	16.90	-37.7	-38.7	20.8	0.00e+00	0	43	0	720371712	46	3878
2026-01-07 04:54:44.00	1.07	17.02	-37.5	-38.5	20.9	0.00e+00	0	44	0	728760320	45	4033
2026-01-07 04:54:44.86	0.98	17.11	-37.6	-38.6	20.9	0.00e+00	0	44	0	735051776	45	4074
2026-01-07 04:54:46.00	0.87	17.23	-37.6	-38.6	20.9	0.00e+00	0	44	0	743440384	45	4073
2026-01-07 04:54:46.86	0.78	17.31	-37.6	-38.6	20.9	0.00e+00	0	44	0	749731840	45	4067
2026-01-07 04:54:48.01	0.65	17.43	-37.5	-38.5	20.9	0.00e+00	0	44	0	758120448	45	4037
2026-01-07 04:54:48.87	0.56	17.52	-37.4	-38.4	21.0	0.00e+00	0	44	0	764411904	45	3977
2026-01-07 04:54:50.02	0.44	17.64	-37.4	-38.4	21.1	0.00e+00	0	44	0	771751936	45	3962
2026-01-07 04:54:50.88	0.35	17.73	-37.5	-38.6	20.9	0.00e+00	0	44	0	778043392	45	4052
2026-01-07 04:54:52.03	0.22	17.86	-37.3	-38.4	21.1	0.00e+00	0	44	0	786432000	45	3969
2026-01-07 04:54:52.89	0.13	17.95	-37.2	-38.2	21.2	0.00e+00	0	44	0	792723456	45	3912
2026-01-07 04:54:54.03	0.00	18.07	-37.3	-38.3	21.1	0.00e+00	0	44	0	801112064	45	3936
2026-01-07 04:54:54.90	359.90	18.16	-37.3	-38.3	21.1	0.00e+00	0	44	0	807403520	45	3925
2026-01-07 04:54:56.04	359.78	18.28	-37.1	-38.1	21.3	0.00e+00	0	43	0	815792128	45	3849
2026-01-07 04:54:56.90	359.68	18.37	-37.3	-38.2	21.2	0.00e+00	0	44	0	822083584	44	4144
2026-01-07 04:54:58.05	359.55	18.50	-37.2	-38.2	21.3	0.00e+00	0	44	0	830472192	44	4107
2026-01-07 04:54:58.91	359.45	18.59	-37.2	-38.2	21.2	0.00e+00	0	44	0	836763648	44	4135
2026-01-07 04:55:00.06	359.32	18.71	-37.2	-38.1	21.3	0.00e+00	0	44	0	845152256	44	4081
2026-01-07 04:55:00.92	359.22	18.81	-37.1	-38.0	21.4	0.00e+00	0	44	0	850395136	44	4051
2026-01-07 04:55:02.06	359.08	18.93	-37.1	-38.1	21.4	0.00e+00	0	44	0	858783744	44	4053
2026-01-07 04:55:02.92	358.98	19.03	-37.0	-38.0	21.5	0.00e+00	0	43	0	865075200	44	4013
2026-01-07 04:55:04.06	358.85	19.15	-36.9	-37.8	21.6	0.00e+00	0	44	0	873463808	44	3935
2026-01-07 04:55:04.92	358.74	19.25	-36.9	-37.7	21.7	0.00e+00	0	44	0	879755264	44	3911
2026-01-07 04:55:06.07	358.61	19.37	-37.0	-37.9	21.5	0.00e+00	0	44	0	888143872	44	3965
2026-01-07 04:55:07.15	358.47	19.49	-36.8	-37.7	21.6	0.00e+00	0	44	0	895483904	43	4104
2026-01-07 04:55:08.21	358.34	19.61	-36.7	-37.7	21.6	0.00e+00	0	44	0	903872512	43	4100
2026-01-07 04:55:09.26	358.22	19.73	-36.7	-37.6	21.6	0.00e+00	0	44	0	911212544	43	4080
2026-01-07 04:55:10.13	358.11	19.82	-36.7	-37.6	21.7	0.00e+00	0	44	0	917504000	43	4080
2026-01-07 04:55:11.28	357.96	19.95	-36.7	-37.7	21.6	0.00e+00	0	44	0	925892608	43	4102
2026-01-07 04:55:12.14	357.85	20.05	-36.8	-37.7	21.5	0.00e+00	0	44	0	932184064	43	4145
2026-01-07 04:55:13.29	357.71	20.18	-36.9	-37.8	21.5	0.00e+00	0	44	0	939524096	43	4173
2026-01-07 04:55:14.15	357.60	20.28	-36.9	-37.9	21.4	0.00e+00	0	44	0	945815552	43	4197
2026-01-07 04:55:15.29	357.45	20.41	-36.9	-37.9	21.4	0.00e+00	0	44	0	954204160	43	4214
2026-01-07 04:55:16.15	357.34	20.50	-36.8	-37.7	21.6	0.00e+00	0	44	0	960495616	43	4127
2026-01-07 04:55:17.30	357.19	20.64	-36.9	-37.8	21.5	0.00e+00	0	44	0	968884224	43	4170
2026-01-07 04:55:18.15	357.08	20.73	-37.0	-37.9	21.4	0.00e+00	0	44	0	975175680	43	4240
2026-01-07 04:55:19.32	356.92	20.87	-36.9	-37.8	21.5	0.00e+00	0	44	0	983564288	43	4191
2026-01-07 04:55:20.18	356.80	20.97	-36.7	-37.6	21.7	0.00e+00	0	44	0	989855744	43	4097
2026-01-07 04:55:21.32	356.65	21.10	-36.6	-37.5	21.8	0.00e+00	0	44	0	998244352	43	4021
2026-01-07 04:55:22.18	356.53	21.20	-36.3	-37.1	22.1	0.00e+00	0	44	0	1004535808	43	3861
2026-01-07 04:55:23.33	356.37	21.33	-36.5	-37.4	21.9	0.00e+00	0	44	0	1012924416	43	3960
2026-01-07 04:55:24.19	356.26	21.43	-36.4	-37.2	22.1	0.00e+00	0	44	0	1019215872	43	3906
2026-01-07 04:55:25.51	356.07	21.59	-36.3	-37.1	22.1	0.00e+00	0	44	0	1028653056	43	3867
2026-01-07 04:55:26.23	355.97	21.67	-36.3	-37.2	22.1	0.00e+00	0	44	0	1033895936	43	3878
2026-01-07 04:55:27.52	355.79	21.83	-36.3	-37.2	22.0	0.00e+00	0	44	0	1043333120	43	3894
2026-01-07 04:55:28.23	355.68	21.91	-36.1	-37.0	22.3	0.00e+00	0	44	0	1047527424	42	4032
2026-01-07 04:55:29.53	355.50	22.06	-36.2	-37.1	22.2	0.00e+00	0	44	0	1056964608	42	4054
2026-01-07 04:55:30.24	355.39	22.15	-36.2	-37.1	22.2	0.00e+00	0	43	0	1062207488	42	4065
2026-01-07 04:55:31.53	355.21	22.30	-36.3	-37.2	22.1	0.00e+00	0	44	0	1071644672	42	4111
2026-01-07 04:55:32.24	355.10	22.39	-36.4	-37.3	22.0	0.00e+00	0	44	0	1076887552	42	4166
2026-01-07 04:55:33.53	354.91	22.54	-36.3	-37.2	22.1	0.00e+00	0	44	0	1086324736	42	4133
2026-01-07 04:55:34.25	354.80	22.63	-36.4	-37.3	22.0	0.00e+00	0	44	0	1091567616	42	4177
2026-01-07 04:55:35.54	354.61	22.78	-36.5	-37.4	21.9	0.00e+00	0	44	0	1101004800	42	4227
2026-01-07 04:55:36.26	354.50	22.87	-36.5	-37.4	21.9	0.00e+00	0	44	0	1106247680	42	4232
2026-01-07 04:55:37.55	354.30	23.03	-36.6	-37.5	21.8	0.00e+00	0	44	0	1114636288	42	4276
2026-01-07 04:55:38.26	354.19	23.12	-36.5	-37.4	21.9	0.00e+00	0	44	0	1120927744	43	3971
2026-01-07 04:55:39.55	353.99	23.27	-36.6	-37.5	21.9	0.00e+00	0	44	0	1130364928	43	4012
2026-01-07 04:55:40.27	353.87	23.36	-36.5	-37.4	21.9	0.00e+00	0	44	0	1134559232	43	3996
2026-01-07 04:55:41.73	353.64	23.54	-36.5	-37.5	21.9	0.00e+00	0	44	0	1145044992	43	4006
2026-01-07 04:55:42.45	353.53	23.63	-36.4	-37.3	22.1	0.00e+00	0	44	0	1151336448	43	3922
2026-01-07 04:55:43.74	353.32	23.79	-36.4	-37.3	22.0	0.00e+00	0	44	0	1159725056	43	3943
2026-01-07 04:55:44.46	353.20	23.88	-36.3	-37.2	22.1	0.00e+00	0	44	0	1164967936	43	3895
2026-01-07 04:55:45.75	352.99	24.04	-36.4	-37.4	22.0	0.00e+00	0	44	0	1174405120	43	3967
2026-01-07 04:55:46.46	352.87	24.13	-36.3	-37.2	22.1	0.00e+00	0	44	0	1179648000	43	3913
2026-01-07 04:55:47.75	352.66	24.29	-36.1	-37.0	22.3	0.00e+00	0	44	0	1189085184	42	4026
2026-01-07 04:55:48.47	352.54	24.38	-36.0	-36.9	22.4	0.00e+00	0	44	0	1194328064	42	3974
2026-01-07 04:55:49.76	352.32	24.54	-36.1	-37.0	22.3	0.00e+00	0	44	0	1203765248	42	4016
2026-01-07 04:55:50.48	352.19	24.63	-36.1	-36.9	22.3	0.00e+00	0	44	0	1209008128	42	4003
2026-01-07 04:55:51.77	351.97	24.80	-36.1	-37.0	22.3	0.00e+00	0	43	0	1218445312	42	4005
2026-01-07 04:55:52.56	351.84	24.90	-36.1	-37.0	22.3	0.00e+00	0	44	0	1223688192	42	4028
2026-01-07 04:55:53.71	351.63	25.04	-36.4	-37.3	22.0	0.00e+00	0	44	0	1232076800	42	4158
2026-01-07 04:55:54.76	351.45	25.18	-36.1	-36.9	22.4	0.00e+00	0	44	0	1239416832	42	3989
2026-01-07 04:55:55.62	351.29	25.29	-36.2	-37.1	22.2	0.00e+00	0	44	0	1245708288	42	4074
2026-01-07 04:55:56.77	351.09	25.43	-36.1	-36.9	22.4	0.00e+00	0	44	0	1254096896	42	4003
2026-01-07 04:55:57.63	350.93	25.54	-36.1	-36.9	22.3	0.00e+00	0	43	0	1260388352	42	4002
2026-01-07 04:55:58.77	350.72	25.69	-35.9	-36.7	22.6	0.00e+00	0	44	0	1268776960	42	3892
2026-01-07 04:55:59.63	350.57	25.80	-36.3	-37.2	22.2	0.00e+00	0	43	0	1275068416	42	4105
2026-01-07 04:56:00.78	350.35	25.95	-36.4	-37.3	22.1	0.00e+00	0	44	0	1283457024	42	4146
2026-01-07 04:56:01.64	350.19	26.06	-36.4	-37.2	22.1	0.00e+00	0	44	0	1288699904	42	4143
2026-01-07 04:56:02.78	349.98	26.21	-36.4	-37.3	22.1	0.00e+00	0	44	0	1297088512	42	4162
2026-01-07 04:56:03.64	349.81	26.32	-36.4	-37.3	22.1	0.00e+00	0	44	0	1303379968	42	4154
2026-01-07 04:56:04.79	349.59	26.47	-36.3	-37.2	22.1	0.00e+00	0	44	0	1311768576	42	4118
2026-01-07 04:56:05.65	349.43	26.58	-36.3	-37.2	22.1	0.00e+00	0	44	0	1318060032	42	4116
2026-01-07 04:56:06.80	349.20	26.73	-36.4	-37.3	22.1	0.00e+00	0	44	0	1326448640	42	4155
2026-01-07 04:56:07.66	349.03	26.85	-36.2	-37.1	22.2	0.00e+00	0	44	0	1332740096	42	4068
2026-01-07 04:56:08.80	348.81	27.00	-36.0	-36.9	22.4	0.00e+00	0	44	0	1341128704	42	3979
2026-01-07 04:56:09.66	348.63	27.11	-36.0	-36.9	22.4	0.00e+00	0	44	0	1347420160	42	3981
2026-01-07 04:56:10.81	348.40	27.26	-36.2	-37.0	22.3	0.00e+00	0	44	0	1355808768	42	4047
2026-01-07 04:56:11.67	348.23	27.37	-36.1	-36.9	22.4	0.00e+00	0	44	0	1362100224	42	4001
2026-01-07 04:56:12.82	347.99	27.53	-35.9	-36.8	22.5	0.00e+00	0	44	0	1369440256	42	3916
2026-01-07 04:56:13.68	347.81	27.64	-36.0	-36.9	22.4	0.00e+00	0	44	0	1375731712	42	3973
2026-01-07 04:56:14.89	347.56	27.80	-36.1	-36.9	22.4	0.00e+00	0	44	0	1385168896	42	3999
2026-01-07 04:56:15.74	347.38	27.91	-36.1	-37.0	22.3	0.00e+00	0	44	0	1390411776	42	4041
2026-01-07 04:56:16.89	347.14	28.07	-36.1	-37.0	22.3	0.00e+00	0	44	0	1398800384	42	4042
2026-01-07 04:56:17.75	346.95	28.18	-36.1	-37.0	22.3	0.00e+00	0	44	0	1406140416	42	4037
2026-01-07 04:56:18.90	346.70	28.34	-36.1	-37.0	22.3	0.00e+00	0	44	0	1413480448	42	4040
2026-01-07 04:56:19.81	346.50	28.46	-36.1	-36.9	22.4	0.00e+00	0	44	0	1420820480	42	4002
2026-01-07 04:56:21.00	346.24	28.62	-36.0	-36.8	22.5	0.00e+00	0	44	0	1429209088	42	3947
2026-01-07 04:56:21.86	346.05	28.73	-36.0	-36.9	22.4	0.00e+00	0	44	0	1435500544	42	3980
2026-01-07 04:56:23.01	345.79	28.89	-36.1	-36.9	22.4	0.00e+00	0	44	0	1443889152	42	3997
2026-01-07 04:56:23.87	345.60	29.00	-35.9	-36.8	22.5	0.00e+00	0	44	0	1450180608	42	3940
2026-01-07 04:56:25.02	345.34	29.16	-36.0	-36.8	22.4	0.00e+00	0	44	0	1457520640	41	4187
2026-01-07 04:56:25.87	345.14	29.27	-36.1	-36.9	22.4	0.00e+00	0	44	0	1463812096	41	4233
2026-01-07 04:56:27.02	344.88	29.43	-35.9	-36.7	22.6	0.00e+00	0	44	0	1472200704	41	4138
2026-01-07 04:56:27.88	344.68	29.54	-36.0	-36.8	22.5	0.00e+00	0	44	0	1478492160	41	4184
2026-01-07 04:56:29.02	344.41	29.70	-35.9	-36.8	22.5	0.00e+00	0	44	0	1486880768	41	4167
2026-01-07 04:56:29.88	344.20	29.81	-35.8	-36.6	22.7	0.00e+00	0	44	0	1493172224	41	4088
2026-01-07 04:56:31.11	343.91	29.98	-35.7	-36.5	22.7	0.00e+00	0	44	0	1501560832	41	4043
2026-01-07 04:56:31.97	343.70	30.10	-35.6	-36.4	22.8	0.00e+00	0	44	0	1507852288	41	3995
2026-01-07 04:56:33.12	343.42	30.25	-35.5	-36.4	22.9	0.00e+00	0	44	0	1516240896	41	3979
2026-01-07 04:56:33.98	343.21	30.37	-35.6	-36.4	22.8	0.00e+00	0	44	0	1522532352	41	3993
2026-01-07 04:56:35.12	342.92	30.52	-35.4	-36.3	23.0	0.00e+00	0	44	0	1530920960	41	3935
2026-01-07 04:56:36.03	342.70	30.65	-35.7	-36.6	22.7	0.00e+00	0	44	0	1537212416	41	4082
2026-01-07 04:56:37.03	342.44	30.78	-35.7	-36.6	22.7	0.00e+00	0	44	0	1544552448	41	4053
2026-01-07 04:56:38.03	342.19	30.92	-35.7	-36.6	22.7	0.00e+00	0	44	0	1551892480	41	4067
2026-01-07 04:56:39.03	341.93	31.05	-35.7	-36.6	22.7	0.00e+00	0	44	0	1559232512	41	4059
2026-01-07 04:56:40.03	341.67	31.19	-35.5	-36.4	22.8	0.00e+00	0	44	0	1566572544	41	3975
2026-01-07 04:56:41.04	341.41	31.33	-35.6	-36.5	22.8	0.00e+00	0	44	0	1573912576	41	4020
2026-01-07 04:56:42.04	341.15	31.46	-35.7	-36.6	22.7	0.00e+00	0	44	0	1580204032	41	4066
2026-01-07 04:56:43.04	340.88	31.60	-35.8	-36.7	22.6	0.00e+00	0	44	0	1587544064	41	4118
2026-01-07 04:56:44.04	340.61	31.73	-35.9	-36.7	22.6	0.00e+00	0	44	0	1594884096	41	4144
2026-01-07 04:56:45.04	340.34	31.87	-35.9	-36.8	22.6	0.00e+00	0	44	0	1602224128	41	4148
2026-01-07 04:56:46.04	340.07	32.00	-35.8	-36.7	22.6	0.00e+00	0	44	0	1609564160	41	4136
2026-01-07 04:56:47.05	339.79	32.14	-36.0	-36.9	22.4	0.00e+00	0	44	0	1616904192	41	4226
2026-01-07 04:56:48.05	339.52	32.28	-35.9	-36.7	22.6	0.00e+00	0	44	0	1624244224	41	4133
2026-01-07 04:56:49.05	339.24	32.41	-35.9	-36.7	22.6	0.00e+00	0	44	0	1631584256	41	4145
2026-01-07 04:56:50.05	338.96	32.54	-35.9	-36.7	22.6	0.00e+00	0	44	0	1638924288	41	4131
2026-01-07 04:56:51.06	338.67	32.68	-36.0	-36.9	22.4	0.00e+00	0	44	0	1646264320	41	4220
2026-01-07 04:56:52.06	338.38	32.81	-35.8	-36.7	22.6	0.00e+00	0	44	0	1653604352	41	4109
2026-01-07 04:56:53.06	338.09	32.95	-35.8	-36.7	22.6	0.00e+00	0	44	0	1660944384	41	4118
2026-01-07 04:56:54.06	337.80	33.08	-36.0	-36.8	22.5	0.00e+00	0	44	0	1667235840	41	4190
2026-01-07 04:56:55.06	337.51	33.22	-35.8	-36.7	22.6	0.00e+00	0	44	0	1674575872	41	4108
2026-01-07 04:56:56.07	337.21	33.35	-36.1	-37.0	22.4	0.00e+00	0	44	0	1681915904	41	4262
2026-01-07 04:56:57.07	336.91	33.48	-35.8	-36.7	22.6	0.00e+00	0	44	0	1689255936	41	4128
2026-01-07 04:56:58.07	336.61	33.62	-35.7	-36.6	22.7	0.00e+00	0	44	0	1696595968	41	4064
2026-01-07 04:56:59.08	336.30	33.75	-35.4	-36.3	23.0	0.00e+00	0	44	0	1703936000	41	3934
2026-01-07 04:57:00.09	335.99	33.88	-35.3	-36.1	23.1	0.00e+00	0	44	0	1711276032	41	3867
2026-01-07 04:57:01.10	335.68	34.01	-35.1	-35.9	23.3	0.00e+00	0	44	0	1718616064	40	3994
2026-01-07 04:57:02.16	335.35	34.15	-35.0	-35.9	23.4	0.00e+00	0	44	0	1725956096	40	3973
2026-01-07 04:57:03.06	335.07	34.27	-35.2	-36.0	23.2	0.00e+00	0	44	0	1732247552	40	4031
2026-01-07 04:57:04.20	334.71	34.42	-35.2	-36.1	23.1	0.00e+00	0	44	0	1740636160	40	4068
2026-01-07 04:57:05.06	334.43	34.53	-35.2	-36.1	23.2	0.00e+00	0	44	0	1746927616	40	4063
2026-01-07 04:57:06.42	334.00	34.71	-35.4	-36.2	23.1	0.00e+00	0	44	0	1756364800	40	4142
2026-01-07 04:57:07.13	333.77	34.80	-35.5	-36.4	22.9	0.00e+00	0	44	0	1761607680	41	3977
2026-01-07 04:57:08.42	333.34	34.96	-35.7	-36.5	22.8	0.00e+00	0	44	0	1771044864	41	4035
2026-01-07 04:57:09.14	333.11	35.06	-35.6	-36.5	22.8	0.00e+00	0	44	0	1776287744	41	4029
2026-01-07 04:57:10.75	332.57	35.26	-35.7	-36.5	22.8	0.00e+00	0	44	0	1787822080	41	4035
2026-01-07 04:57:11.32	332.38	35.33	-35.6	-36.5	22.9	0.00e+00	0	44	0	1792016384	41	4006
2026-01-07 04:57:12.91	331.84	35.53	-35.7	-36.5	22.8	0.00e+00	0	44	0	1803550720	41	4026
2026-01-07 04:57:13.49	331.64	35.60	-35.6	-36.4	22.9	0.00e+00	0	44	0	1807745024	41	3991
2026-01-07 04:57:15.08	331.10	35.80	-35.7	-36.6	22.7	0.00e+00	0	44	0	1819279360	41	4073
2026-01-07 04:57:15.65	330.90	35.87	-35.7	-36.6	22.7	0.00e+00	0	44	0	1823473664	41	4066
2026-01-07 04:57:17.23	330.34	36.07	-36.0	-36.9	22.5	0.00e+00	0	44	0	1835008000	41	4229
2026-01-07 04:57:17.84	330.13	36.14	-36.0	-36.9	22.5	0.00e+00	0	44	0	1839202304	41	4219
2026-01-07 04:57:19.42	329.57	36.33	-36.0	-36.9	22.5	0.00e+00	0	44	0	1850736640	41	4200
2026-01-07 04:57:20.04	329.35	36.40	-35.9	-36.8	22.5	0.00e+00	0	44	0	1854930944	41	4177
2026-01-07 04:57:21.61	328.78	36.59	-35.9	-36.8	22.6	0.00e+00	0	44	0	1866465280	41	4168
2026-01-07 04:57:22.20	328.56	36.66	-36.0	-36.8	22.5	0.00e+00	0	44	0	1870659584	41	4184
2026-01-07 04:57:24.07	327.87	36.88	-35.9	-36.8	22.5	0.00e+00	0	44	0	1884291072	41	4178
2026-01-07 04:57:24.64	327.66	36.95	-36.0	-36.8	22.5	0.00e+00	0	44	0	1888485376	41	4183
2026-01-07 04:57:26.24	327.06	37.13	-35.8	-36.7	22.7	0.00e+00	0	44	0	1900019712	41	4119
2026-01-07 04:57:26.82	326.85	37.20	-35.7	-36.6	22.7	0.00e+00	0	44	0	1904214016	41	4062
2026-01-07 04:57:28.41	326.24	37.37	-35.9	-36.7	22.6	0.00e+00	0	44	0	1915748352	41	4135
2026-01-07 04:57:29.00	326.02	37.44	-35.6	-36.5	22.8	0.00e+00	0	44	0	1919942656	41	4016
2026-01-07 04:57:30.57	325.41	37.61	-35.4	-36.2	23.1	0.00e+00	0	44	0	1931476992	41	3902
2026-01-07 04:57:31.16	325.18	37.68	-35.4	-36.2	23.1	0.00e+00	0	44	0	1935671296	41	3898
2026-01-07 04:57:32.73	324.57	37.85	-35.8	-36.7	22.7	0.00e+00	0	44	0	1947205632	41	4121
2026-01-07 04:57:33.34	324.33	37.91	-35.8	-36.7	22.6	0.00e+00	0	44	0	1951399936	41	4133
2026-01-07 04:57:34.92	323.70	38.08	-36.3	-37.2	22.2	0.00e+00	0	44	0	1962934272	41	4357
2026-01-07 04:57:35.59	323.43	38.15	-36.3	-37.2	22.2	0.00e+00	0	44	0	1967128576	42	4123
2026-01-07 04:57:37.02	322.86	38.29	-36.3	-37.2	22.2	0.00e+00	0	44	0	1977614336	42	4124
2026-01-07 04:57:37.74	322.57	38.37	-36.3	-37.2	22.3	0.00e+00	0	44	0	1982857216	42	4123
2026-01-07 04:57:39.03	322.04	38.49	-36.1	-36.9	22.5	0.00e+00	0	44	0	1992294400	42	3990
2026-01-07 04:57:39.74	321.75	38.56	-36.1	-37.0	22.4	0.00e+00	0	44	0	1997537280	42	4011
2026-01-07 04:57:41.03	321.22	38.69	-36.1	-36.9	22.5	0.00e+00	0	44	0	2006974464	42	3988
2026-01-07 04:57:41.75	320.92	38.76	-35.8	-36.7	22.7	0.00e+00	0	44	0	2011168768	42	3883
2026-01-07 04:57:43.07	320.37	38.88	-35.9	-36.7	22.6	0.00e+00	0	44	0	2021654528	42	3906
2026-01-07 04:57:43.78	320.07	38.95	-35.8	-36.6	22.7	0.00e+00	0	44	0	2026897408	42	3863
2026-01-07 04:57:45.14	319.49	39.07	-35.8	-36.6	22.7	0.00e+00	0	44	0	2036334592	42	3864
2026-01-07 04:57:45.86	319.19	39.14	-35.9	-36.7	22.7	0.00e+00	0	44	0	2041577472	42	3900
2026-01-07 04:57:47.21	318.61	39.25	-36.0	-36.8	22.6	0.00e+00	0	44	0	2051014656	42	3950
2026-01-07 04:57:47.92	318.31	39.31	-36.0	-36.8	22.5	0.00e+00	0	44	0	2056257536	42	3944
2026-01-07 04:57:49.29	317.71	39.43	-36.2	-37.0	22.4	0.00e+00	0	44	0	2065694720	42	4050
2026-01-07 04:57:50.01	317.40	39.49	-36.2	-37.1	22.3	0.00e+00	0	44	0	2071986176	42	4081
2026-01-07 04:57:51.30	316.84	39.59	-36.4	-37.3	22.2	0.00e+00	0	44	0	2080374784	42	4159
2026-01-07 04:57:52.01	316.53	39.65	-36.3	-37.2	22.2	0.00e+00	0	44	0	2085617664	42	4104
2026-01-07 04:57:53.31	315.95	39.75	-36.3	-37.2	22.2	0.00e+00	0	44	0	2095054848	42	4109
2026-01-07 04:57:54.02	315.64	39.80	-36.2	-37.0	22.3	0.00e+00	0	44	0	2100297728	42	4049
2026-01-07 04:57:55.31	315.06	39.90	-36.0	-36.9	22.5	0.00e+00	0	44	0	2109734912	42	3961
2026-01-07 04:57:56.02	314.75	39.95	-35.9	-36.7	22.6	0.00e+00	0	44	0	2114977792	42	3895
2026-01-07 04:57:57.31	314.17	40.04	-35.7	-36.6	22.8	0.00e+00	0	44	0	2124414976	42	3838
2026-01-07 04:57:58.03	313.84	40.09	-35.6	-36.5	22.8	0.00e+00	0	44	0	2129657856	42	3799
2026-01-07 04:57:59.32	313.26	40.17	-35.7	-36.5	22.8	0.00e+00	0	44	0	2139095040	42	3823
2026-01-07 04:58:00.03	312.93	40.22	-35.7	-36.5	22.8	0.00e+00	0	44	0	2143289344	42	3812
2026-01-07 04:58:01.33	312.34	40.30	-35.8	-36.6	22.8	0.00e+00	0	44	0	2152726528	41	4079
2026-01-07 04:58:02.04	312.01	40.34	-35.8	-36.7	22.6	0.00e+00	0	44	0	2157969408	41	4116
2026-01-07 04:58:03.33	311.42	40.42	-36.0	-36.8	22.5	0.00e+00	0	44	0	2167406592	41	4175
2026-01-07 04:58:04.05	311.09	40.46	-36.0	-36.9	22.5	0.00e+00	0	44	0	2172649472	41	4199
2026-01-07 04:58:05.34	310.49	40.53	-36.3	-37.1	22.3	0.00e+00	0	44	0	2182086656	42	4095
2026-01-07 04:58:06.05	310.16	40.57	-36.3	-37.1	22.3	0.00e+00	0	44	0	2187329536	42	4087
2026-01-07 04:58:07.34	309.56	40.63	-36.3	-37.1	22.2	0.00e+00	0	44	0	2196766720	42	4097
2026-01-07 04:58:08.06	309.22	40.67	-36.1	-37.0	22.4	0.00e+00	0	44	0	2202009600	42	4022
2026-01-07 04:58:09.35	308.61	40.73	-36.1	-37.0	22.4	0.00e+00	0	44	0	2210398208	42	4023
2026-01-07 04:58:10.07	308.28	40.76	-36.1	-37.0	22.4	0.00e+00	0	44	0	2216689664	42	4023
2026-01-07 04:58:11.36	307.67	40.81	-35.9	-36.8	22.6	0.00e+00	0	44	0	2226126848	42	3921
2026-01-07 04:58:12.07	307.33	40.84	-35.8	-36.7	22.7	0.00e+00	0	44	0	2230321152	42	3889
2026-01-07 04:58:13.36	306.72	40.89	-35.7	-36.6	22.8	0.00e+00	0	44	0	2239758336	42	3839
2026-01-07 04:58:14.08	306.38	40.91	-35.8	-36.7	22.7	0.00e+00	0	44	0	2245001216	42	3869
2026-01-07 04:58:15.70	305.60	40.97	-35.8	-36.6	22.7	0.00e+00	0	44	0	2257584128	42	3864
2026-01-07 04:58:16.27	305.33	40.98	-35.7	-36.5	22.8	0.00e+00	0	44	0	2260729856	42	3823
2026-01-07 04:58:17.85	304.58	41.03	-35.7	-36.6	22.8	0.00e+00	0	44	0	2272264192	42	3830
2026-01-07 04:58:18.44	304.29	41.04	-35.7	-36.5	22.8	0.00e+00	0	44	0	2276458496	42	3820
2026-01-07 04:58:20.01	303.54	41.08	-35.6	-36.4	22.9	0.00e+00	0	44	0	2287992832	41	3983
2026-01-07 04:58:20.59	303.26	41.09	-35.6	-36.5	22.8	0.00e+00	0	44	0	2292187136	41	4018
2026-01-07 04:58:22.17	302.50	41.12	-35.7	-36.6	22.8	0.00e+00	0	44	0	2303721472	41	4062
2026-01-07 04:58:22.87	302.16	41.13	-35.8	-36.6	22.7	0.00e+00	0	44	0	2308964352	41	4075
2026-01-07 04:58:24.17	301.53	41.15	-35.8	-36.7	22.6	0.00e+00	0	44	0	2318401536	41	4105
2026-01-07 04:58:25.08	301.09	41.16	-35.7	-36.6	22.7	0.00e+00	0	44	0	2324692992	41	4072
2026-01-07 04:58:26.08	300.61	41.16	-35.9	-36.7	22.6	0.00e+00	0	44	0	2332033024	41	4130
2026-01-07 04:58:27.47	299.94	41.17	-35.9	-36.8	22.5	0.00e+00	0	44	0	2341470208	41	4173
2026-01-07 04:58:28.19	299.59	41.17	-35.9	-36.8	22.5	0.00e+00	0	44	0	2346713088	41	4157
2026-01-07 04:58:29.48	298.97	41.18	-35.7	-36.6	22.7	0.00e+00	0	44	0	2356150272	41	4062
2026-01-07 04:58:30.19	298.62	41.17	-35.6	-36.4	22.9	0.00e+00	0	44	0	2361393152	41	3994
2026-01-07 04:58:31.48	298.00	41.17	-35.4	-36.2	23.0	0.00e+00	0	44	0	2370830336	41	3911
2026-01-07 04:58:32.20	297.65	41.16	-35.4	-36.3	23.0	0.00e+00	0	44	0	2376073216	41	3926
2026-01-07 04:58:33.49	297.03	41.15	-35.5	-36.3	22.9	0.00e+00	0	44	0	2385510400	41	3958
2026-01-07 04:58:34.20	296.68	41.15	-35.6	-36.4	22.9	0.00e+00	0	44	0	2390753280	41	3982
2026-01-07 04:58:35.56	296.03	41.13	-35.7	-36.5	22.8	0.00e+00	0	44	0	2400190464	41	4029
2026-01-07 04:58:36.27	295.68	41.12	-35.6	-36.4	22.9	0.00e+00	0	44	0	2405433344	41	3988
2026-01-07 04:58:37.68	295.00	41.09	-35.5	-36.3	22.9	0.00e+00	0	44	0	2415919104	41	3958
2026-01-07 04:58:38.67	294.53	41.07	-35.5	-36.3	23.0	0.00e+00	0	44	0	2423259136	41	3949
2026-01-07 04:58:39.97	293.90	41.04	-35.5	-36.4	22.9	0.00e+00	0	44	0	2431647744	41	3975
2026-01-07 04:58:40.71	293.55	41.02	-35.6	-36.4	22.9	0.00e+00	0	44	0	2437939200	41	3983
2026-01-07 04:58:42.01	292.93	40.99	-35.7	-36.6	22.8	0.00e+00	0	44	0	2447376384	41	4066
2026-01-07 04:58:42.72	292.59	40.97	-35.7	-36.6	22.7	0.00e+00	0	44	0	2451570688	41	4069
2026-01-07 04:58:44.01	291.97	40.92	-35.9	-36.8	22.6	0.00e+00	0	44	0	2461007872	41	4159
2026-01-07 04:58:44.72	291.63	40.90	-35.9	-36.7	22.6	0.00e+00	0	44	0	2466250752	41	4141
2026-01-07 04:58:46.01	291.02	40.85	-35.7	-36.6	22.8	0.00e+00	0	44	0	2475687936	41	4057
2026-01-07 04:58:46.73	290.68	40.82	-35.7	-36.6	22.8	0.00e+00	0	44	0	2480930816	41	4052
2026-01-07 04:58:48.02	290.07	40.77	-35.7	-36.5	22.8	0.00e+00	0	44	0	2490368000	41	4048
2026-01-07 04:58:48.73	289.73	40.74	-35.5	-36.3	23.0	0.00e+00	0	44	0	2495610880	41	3950
2026-01-07 04:58:50.02	289.13	40.68	-35.7	-36.5	22.8	0.00e+00	0	44	0	2505048064	41	4025
2026-01-07 04:58:50.74	288.79	40.65	-35.5	-36.4	22.9	0.00e+00	0	44	0	2509242368	41	3961
2026-01-07 04:58:52.19	288.11	40.57	-35.7	-36.5	22.8	0.00e+00	0	44	0	2519728128	41	4029
2026-01-07 04:58:53.18	287.65	40.52	-35.6	-36.4	22.9	0.00e+00	0	44	0	2527068160	41	3990
2026-01-07 04:58:54.18	287.19	40.47	-35.5	-36.4	22.9	0.00e+00	0	44	0	2534408192	41	3968
2026-01-07 04:58:55.18	286.72	40.41	-35.5	-36.4	22.9	0.00e+00	0	44	0	2541748224	41	3959
2026-01-07 04:58:56.18	286.26	40.35	-35.4	-36.2	23.1	0.00e+00	0	44	0	2549088256	41	3888
2026-01-07 04:58:57.19	285.80	40.29	-35.4	-36.2	23.0	0.00e+00	0	44	0	2556428288	41	3902
2026-01-07 04:58:58.19	285.34	40.23	-35.4	-36.2	23.0	0.00e+00	0	44	0	2563768320	41	3894
2026-01-07 04:58:59.21	284.88	40.16	-35.4	-36.3	23.0	0.00e+00	0	44	0	2571108352	41	3922
2026-01-07 04:59:00.21	284.42	40.10	-35.4	-36.2	23.0	0.00e+00	0	44	0	2578448384	41	3906
2026-01-07 04:59:01.29	283.93	40.02	-35.4	-36.3	22.9	0.00e+00	0	44	0	2585788416	41	3939
2026-01-07 04:59:02.15	283.55	39.96	-35.3	-36.1	23.1	0.00e+00	0	44	0	2592079872	41	3853
2026-01-07 04:59:03.30	283.03	39.88	-35.2	-36.1	23.2	0.00e+00	0	44	0	2600468480	41	3834
2026-01-07 04:59:04.16	282.65	39.82	-35.2	-36.1	23.2	0.00e+00	0	44	0	2606759936	41	3830
2026-01-07 04:59:05.30	282.14	39.73	-35.3	-36.1	23.2	0.00e+00	0	44	0	2615148544	41	3852
2026-01-07 04:59:06.16	281.76	39.66	-35.4	-36.2	23.1	0.00e+00	0	44	0	2621440000	41	3894
2026-01-07 04:59:07.31	281.26	39.57	-35.5	-36.3	23.0	0.00e+00	0	44	0	2629828608	41	3938
2026-01-07 04:59:08.17	280.88	39.50	-35.6	-36.5	22.8	0.00e+00	0	44	0	2636120064	41	4027
2026-01-07 04:59:09.31	280.38	39.41	-35.8	-36.7	22.6	0.00e+00	0	44	0	2644508672	41	4119
2026-01-07 04:59:10.17	280.01	39.34	-35.9	-36.8	22.5	0.00e+00	0	44	0	2649751552	41	4150
2026-01-07 04:59:11.33	279.51	39.24	-35.7	-36.6	22.8	0.00e+00	0	44	0	2658140160	41	4060
2026-01-07 04:59:12.19	279.14	39.16	-35.7	-36.5	22.8	0.00e+00	0	44	0	2664431616	41	4044
2026-01-07 04:59:13.40	278.63	39.05	-35.7	-36.6	22.8	0.00e+00	0	44	0	2673868800	41	4056
2026-01-07 04:59:14.26	278.26	38.97	-35.6	-36.5	22.9	0.00e+00	0	44	0	2680160256	41	4009
2026-01-07 04:59:15.41	277.78	38.87	-35.5	-36.4	22.9	0.00e+00	0	44	0	2688548864	41	3969
2026-01-07 04:59:16.27	277.42	38.79	-35.5	-36.3	23.0	0.00e+00	0	44	0	2693791744	41	3957
2026-01-07 04:59:17.41	276.94	38.68	-35.7	-36.5	22.8	0.00e+00	0	44	0	2702180352	41	4051
2026-01-07 04:59:18.27	276.59	38.60	-35.7	-36.6	22.8	0.00e+00	0	44	0	2708471808	41	4060
2026-01-07 04:59:19.61	276.03	38.46	-35.7	-36.5	22.8	0.00e+00	0	44	0	2717908992	41	4044
2026-01-07 04:59:20.32	275.74	38.39	-35.7	-36.6	22.8	0.00e+00	0	44	0	2723151872	41	4067
2026-01-07 04:59:21.61	275.22	38.26	-35.7	-36.6	22.8	0.00e+00	0	44	0	2732589056	41	4071
2026-01-07 04:59:22.33	274.93	38.19	-35.8	-36.6	22.7	0.00e+00	0	44	0	2737831936	41	4094
2026-01-07 04:59:23.62	274.41	38.05	-35.7	-36.6	22.7	0.00e+00	0	44	0	2747269120	41	4071
2026-01-07 04:59:24.33	274.13	37.98	-35.8	-36.6	22.7	0.00e+00	0	44	0	2752512000	41	4094
2026-01-07 04:59:25.62	273.62	37.84	-35.8	-36.6	22.7	0.00e+00	0	44	0	2761949184	41	4082
2026-01-07 04:59:26.48	273.28	37.75	-35.7	-36.6	22.8	0.00e+00	0	44	0	2768240640	41	4061
2026-01-07 04:59:27.63	272.83	37.62	-35.6	-36.4	22.9	0.00e+00	0	44	0	2776629248	41	3986
2026-01-07 04:59:28.49	272.50	37.53	-35.6	-36.4	22.9	0.00e+00	0	44	0	2781872128	41	3981
2026-01-07 04:59:29.64	272.05	37.40	-35.7	-36.6	22.7	0.00e+00	0	44	0	2790260736	41	4052
2026-01-07 04:59:30.50	271.73	37.31	-35.7	-36.5	22.7	0.00e+00	0	44	0	2796552192	41	4051
2026-01-07 04:59:31.64	271.29	37.18	-35.6	-36.5	22.9	0.00e+00	0	44	0	2804940800	41	4013
2026-01-07 04:59:32.50	270.97	37.08	-35.7	-36.5	22.7	0.00e+00	0	44	0	2811232256	41	4051
2026-01-07 04:59:33.65	270.54	36.95	-35.8	-36.6	22.7	0.00e+00	0	44	0	2819620864	41	4078
2026-01-07 04:59:34.51	270.22	36.85	-35.7	-36.5	22.8	0.00e+00	0	44	0	2825912320	41	4027
2026-01-07 04:59:35.65	269.80	36.71	-35.8	-36.6	22.7	0.00e+00	0	44	0	2834300928	41	4097
2026-01-07 04:59:36.51	269.48	36.61	-35.7	-36.5	22.8	0.00e+00	0	44	0	2840592384	41	4042
2026-01-07 04:59:37.66	269.06	36.47	-35.7	-36.5	22.8	0.00e+00	0	44	0	2848980992	41	4038
2026-01-07 04:59:38.52	268.75	36.37	-35.6	-36.5	22.8	0.00e+00	0	44	0	2855272448	41	4025
2026-01-07 04:59:39.67	268.34	36.23	-35.6	-36.5	22.8	0.00e+00	0	44	0	2862612480	41	4005
2026-01-07 04:59:40.53	268.03	36.13	-35.7	-36.5	22.8	0.00e+00	0	44	0	2868903936	41	4033
2026-01-07 04:59:41.67	267.63	35.99	-35.6	-36.5	22.8	0.00e+00	0	44	0	2877292544	41	4005
2026-01-07 04:59:42.71	267.26	35.86	-35.5	-36.3	22.9	0.00e+00	0	44	0	2884632576	41	3957
2026-01-07 04:59:43.89	266.85	35.71	-35.5	-36.4	22.9	0.00e+00	0	44	0	2893021184	41	3968
2026-01-07 04:59:44.74	266.56	35.61	-35.6	-36.5	22.8	0.00e+00	0	44	0	2899312640	41	4007
2026-01-07 04:59:45.89	266.17	35.46	-35.7	-36.5	22.8	0.00e+00	0	44	0	2907701248	41	4038
2026-01-07 04:59:46.75	265.88	35.35	-35.6	-36.5	22.8	0.00e+00	0	44	0	2913992704	41	4016
2026-01-07 04:59:47.90	265.49	35.21	-35.6	-36.4	22.8	0.00e+00	0	44	0	2922381312	41	4000
2026-01-07 04:59:48.75	265.20	35.10	-35.4	-36.3	22.2	0.00e+00	0	44	0	2928672768	41	3931
2026-01-07 04:59:49.90	264.82	34.95	-35.4	-36.2	23.0	0.00e+00	0	44	0	2937061376	41	3910
2026-01-07 04:59:50.76	264.54	34.84	-35.4	-36.3	23.0	0.00e+00	0	44	0	2943352832	41	3926
2026-01-07 04:59:51.91	264.16	34.69	-35.3	-36.1	23.1	0.00e+00	0	44	0	2951741440	41	3861
2026-01-07 04:59:52.77	263.89	34.58	-35.4	-36.2	23.0	0.00e+00	0	44	0	2958032896	41	3909
2026-01-07 04:59:53.92	263.52	34.43	-35.3	-36.2	23.0	0.00e+00	0	44	0	2966421504	41	3876
2026-01-07 04:59:54.77	263.25	34.32	-35.3	-36.2	23.1	0.00e+00	0	44	0	2971664384	41	3872
2026-01-07 04:59:55.95	262.87	34.17	-35.4	-36.3	23.0	0.00e+00	0	44	0	2981101568	41	3924
2026-01-07 04:59:56.81	262.60	34.05	-35.6	-36.4	22.9	0.00e+00	0	44	0	2987393024	41	3991
2026-01-07 04:59:57.96	262.25	33.90	-35.6	-36.5	22.8	0.00e+00	0	44	0	2994733056	41	4005
2026-01-07 04:59:58.82	261.98	33.79	-35.7	-36.6	22.6	0.00e+00	0	44	0	3001024512	41	4059
2026-01-07 05:00:00.13	261.58	33.61	-35.6	-36.5	22.8	0.00e+00	0	44	0	3010461696	41	4009
2026-01-07 05:00:00.84	261.36	33.52	-35.5	-36.4	22.9	0.00e+00	0	44	0	3015704576	41	3975
2026-01-07 05:00:02.13	260.98	33.35	-35.3	-36.2	23.0	0.00e+00	0	44	0	3025141760	41	3882
2026-01-07 05:00:02.84	260.77	33.25	-35.2	-36.1	23.1	0.00e+00	0	44	0	3030384640	41	3833
2026-01-07 05:00:04.13	260.38	33.08	-35.2	-36.0	23.1	0.00e+00	0	44	0	3039821824	41	3821
2026-01-07 05:00:04.90	260.16	32.98	-35.2	-36.0	23.2	0.00e+00	0	44	0	3045064704	41	3801
2026-01-07 05:00:06.19	259.78	32.80	-35.3	-36.1	23.1	0.00e+00	0	44	0	3054501888	41	3855
2026-01-07 05:00:06.97	259.56	32.70	-35.2	-36.0	23.1	0.00e+00	0	44	0	3059744768	41	3824
2026-01-07 05:00:08.26	259.19	32.52	-35.3	-36.2	23.0	0.00e+00	0	44	0	3069181952	41	3894
2026-01-07 05:00:08.97	258.99	32.43	-35.4	-36.3	22.9	0.00e+00	0	44	0	3074424832	41	3927
2026-01-07 05:00:10.26	258.63	32.25	-35.4	-36.3	23.0	0.00e+00	0	44	0	3083862016	41	3926
2026-01-07 05:00:10.98	258.43	32.16	-35.5	-36.4	22.9	0.00e+00	0	44	0	3089104896	41	3965
2026-01-07 05:00:12.27	258.07	31.98	-35.3	-36.2	23.0	0.00e+00	0	44	0	3098542080	41	3873
2026-01-07 05:00:12.98	257.87	31.88	-35.3	-36.2	23.0	0.00e+00	0	44	0	3103784960	41	3873
2026-01-07 05:00:14.27	257.52	31.71	-35.4	-36.2	23.0	0.00e+00	0	44	0	3113222144	41	3910
2026-01-07 05:00:14.99	257.33	31.61	-35.6	-36.4	22.8	0.00e+00	0	44	0	3117416448	41	4001
2026-01-07 05:00:16.28	256.99	31.44	-35.6	-36.5	22.8	0.00e+00	0	44	0	3126853632	41	4008
2026-01-07 05:00:16.99	256.80	31.34	-35.6	-36.5	22.7	0.00e+00	0	44	0	3132096512	41	4035
2026-01-07 05:00:18.29	256.46	31.16	-35.7	-36.6	22.7	0.00e+00	0	44	0	3141533696	41	4065
2026-01-07 05:00:19.00	256.27	31.06	-35.6	-36.5	22.7	0.00e+00	0	44	0	3146776576	41	4026
2026-01-07 05:00:20.29	255.94	30.89	-35.4	-36.3	22.9	0.00e+00	0	44	0	3156213760	41	3936
2026-01-07 05:00:21.07	255.74	30.78	-35.5	-36.4	22.8	0.00e+00	0	44	0	3161456640	41	3984
2026-01-07 05:00:22.67	255.33	30.56	-35.5	-36.4	22.8	0.00e+00	0	44	0	3172990976	41	3966
2026-01-07 05:00:23.54	255.11	30.45	-35.6	-36.4	22.8	0.00e+00	0	44	0	3179282432	41	3993
2026-01-07 05:00:24.68	254.83	30.29	-35.6	-36.5	22.7	0.00e+00	0	44	0	3187671040	41	4029
2026-01-07 05:00:25.54	254.62	30.17	-35.7	-36.6	22.6	0.00e+00	0	44	0	3193962496	41	4062
2026-01-07 05:00:26.69	254.34	30.02	-35.6	-36.4	22.8	0.00e+00	0	44	0	3202351104	41	3987
2026-01-07 05:00:27.54	254.13	29.90	-35.6	-36.5	22.7	0.00e+00	0	44	0	3208642560	41	4013
2026-01-07 05:00:28.69	253.86	29.75	-35.9	-36.8	22.5	0.00e+00	0	44	0	3217031168	41	4148
2026-01-07 05:00:29.55	253.65	29.63	-35.8	-36.7	22.5	0.00e+00	0	44	0	3223322624	41	4119
2026-01-07 05:00:30.69	253.38	29.47	-35.9	-36.8	22.4	0.00e+00	0	44	0	3231711232	41	4173
2026-01-07 05:00:31.62	253.16	29.35	-36.0	-36.9	22.4	0.00e+00	0	44	0	3238002688	41	4224
2026-01-07 05:00:32.78	252.89	29.19	-35.9	-36.7	22.5	0.00e+00	0	44	0	3246391296	41	4137
2026-01-07 05:00:33.64	252.70	29.07	-35.8	-36.7	22.5	0.00e+00	0	44	0	3252682752	41	4114
2026-01-07 05:00:34.99	252.39	28.89	-35.6	-36.5	22.8	0.00e+00	0	44	0	3262119936	41	4008
2026-01-07 05:00:35.71	252.23	28.79	-35.5	-36.3	22.8	0.00e+00	0	44	0	3267362816	41	3941
2026-01-07 05:00:37.00	251.94	28.62	-35.7	-36.5	22.7	0.00e+00	0	44	0	3276800000	41	4038
2026-01-07 05:00:37.71	251.78	28.52	-35.7	-36.5	22.7	0.00e+00	0	44	0	3282042880	41	4035
2026-01-07 05:00:39.27	251.43	28.31	-35.9	-36.8	22.5	0.00e+00	0	44	0	3293577216	41	4150
2026-01-07 05:00:40.25	251.22	28.18	-35.9	-36.8	22.5	0.00e+00	0	44	0	3300917248	41	4163
2026-01-07 05:00:41.26	251.00	28.05	-36.0	-36.9	22.4	0.00e+00	0	44	0	3308257280	41	4200
2026-01-07 05:00:42.26	250.79	27.91	-35.9	-36.8	22.4	0.00e+00	0	44	0	3314548736	41	4164
2026-01-07 05:00:43.26	250.58	27.78	-36.0	-36.8	22.4	0.00e+00	0	44	0	3321888768	41	4180
2026-01-07 05:00:44.27	250.36	27.64	-35.8	-36.7	22.6	0.00e+00	0	44	0	3329228800	41	4110
2026-01-07 05:00:45.27	250.16	27.51	-35.9	-36.7	22.5	0.00e+00	0	44	0	3336568832	41	4129
2026-01-07 05:00:46.27	249.95	27.38	-35.8	-36.6	22.6	0.00e+00	0	44	0	3343908864	41	4082
2026-01-07 05:00:47.35	249.73	27.23	-35.8	-36.6	22.6	0.00e+00	0	44	0	3352297472	41	4088
2026-01-07 05:00:48.25	249.54	27.11	-35.8	-36.7	22.5	0.00e+00	0	44	0	3357540352	41	4112
2026-01-07 05:00:49.34	249.32	26.97	-35.9	-36.7	22.5	0.00e+00	0	44	0	3365928960	41	4140
2026-01-07 05:00:50.31	249.13	26.84	-36.0	-36.8	22.4	0.00e+00	0	44	0	3373268992	41	4190
2026-01-07 05:00:51.49	248.90	26.69	-36.0	-36.8	22.4	0.00e+00	0	44	0	3381657600	41	4184
2026-01-07 05:00:52.35	248.73	26.57	-36.0	-36.9	22.4	0.00e+00	0	44	0	3387949056	41	4216
2026-01-07 05:00:53.72	248.46	26.39	-35.9	-36.8	22.5	0.00e+00	0	44	0	3397386240	41	4148
2026-01-07 05:00:54.43	248.32	26.30	-35.8	-36.7	22.6	0.00e+00	0	44	0	3402629120	41	4121
2026-01-07 05:00:55.72	248.08	26.13	-35.8	-36.7	22.5	0.00e+00	0	44	0	3412066304	41	4109
2026-01-07 05:00:56.44	247.94	26.04	-35.8	-36.7	22.5	0.00e+00	0	44	0	3417309184	41	4101
2026-01-07 05:00:57.72	247.70	25.87	-35.8	-36.7	22.6	0.00e+00	0	44	0	3426746368	41	4105
2026-01-07 05:00:58.44	247.56	25.78	-35.8	-36.7	22.5	0.00e+00	0	44	0	3431989248	41	4109
2026-01-07 05:00:59.73	247.32	25.61	-35.9	-36.7	22.5	0.00e+00	0	44	0	3441426432	41	4125
2026-01-07 05:01:00.44	247.19	25.52	-35.9	-36.8	22.4	0.00e+00	0	44	0	3445620736	41	4168
2026-01-07 05:01:01.73	246.96	25.35	-36.1	-37.0	22.2	0.00e+00	0	44	0	3455057920	41	4273
2026-01-07 05:01:02.45	246.83	25.26	-36.1	-36.9	22.3	0.00e+00	0	44	0	3460300800	41	4232
2026-01-07 05:01:03.75	246.60	25.09	-36.0	-36.8	22.4	0.00e+00	0	44	0	3469737984	41	4191
2026-01-07 05:01:04.47	246.47	25.00	-35.8	-36.7	22.5	0.00e+00	0	44	0	3474980864	41	4145
2026-01-07 05:01:05.76	246.24	24.84	-35.8	-36.6	22.6	0.00e+00	0	44	0	3484418048	41	4098
2026-01-07 05:01:06.48	246.11	24.74	-35.7	-36.6	22.7	0.00e+00	0	44	0	3489660928	41	4061
2026-01-07 05:01:07.77	245.89	24.58	-35.6	-36.5	22.7	0.00e+00	0	44	0	3499098112	41	4022
2026-01-07 05:01:08.48	245.77	24.49	-35.7	-36.5	22.7	0.00e+00	0	44	0	3504340992	41	4042
2026-01-07 05:01:09.77	245.55	24.33	-35.9	-36.7	22.5	0.00e+00	0	44	0	3513778176	41	4129
2026-01-07 05:01:10.49	245.43	24.24	-36.0	-36.8	22.4	0.00e+00	0	44	0	3519021056	41	4181
2026-01-07 05:01:11.78	245.21	24.07	-36.1	-36.9	22.3	0.00e+00	0	44	0	3527409664	41	4230
2026-01-07 05:01:12.50	245.09	23.98	-36.2	-37.0	22.2	0.00e+00	0	44	0	3532652544	41	4280
2026-01-07 05:01:13.79	244.88	23.82	-36.4	-37.2	22.1	0.00e+00	0	44	0	3542089728	42	4139
2026-01-07 05:01:14.51	244.76	23.73	-36.3	-37.2	22.1	0.00e+00	0	44	0	3547332608	42	4111
2026-01-07 05:01:15.80	244.55	23.57	-36.2	-37.1	22.2	0.00e+00	0	44	0	3556769792	42	4067
2026-01-07 05:01:16.70	244.40	23.46	-36.2	-37.1	22.2	0.00e+00	0	44	0	3564109824	42	4060
2026-01-07 05:01:17.71	244.24	23.33	-36.3	-37.1	22.1	0.00e+00	0	44	0	3570401280	42	4097
2026-01-07 05:01:18.71	244.08	23.21	-36.1	-36.9	22.4	0.00e+00	0	44	0	3577741312	42	3988
2026-01-07 05:01:19.71	243.93	23.09	-35.9	-36.8	22.5	0.00e+00	0	44	0	3585081344	42	3934
2026-01-07 05:01:20.71	243.77	22.97	-36.1	-37.0	22.3	0.00e+00	0	44	0	3592421376	42	4012
2026-01-07 05:01:21.72	243.62	22.84	-36.0	-36.8	22.4	0.00e+00	0	44	0	3599761408	42	3941
2026-01-07 05:01:22.71	243.46	22.72	-36.0	-36.8	22.4	0.00e+00	0	44	0	3607101440	42	3957
2026-01-07 05:01:23.77	243.30	22.59	-35.9	-36.8	22.4	0.00e+00	0	44	0	3614441472	42	3930
2026-01-07 05:01:24.70	243.16	22.48	-35.9	-36.8	22.5	0.00e+00	0	44	0	3621781504	42	3928
2026-01-07 05:01:25.70	243.01	22.36	-36.0	-36.8	22.4	0.00e+00	0	44	0	3629121536	42	3956
2026-01-07 05:01:26.71	242.86	22.24	-36.0	-36.9	22.4	0.00e+00	0	44	0	3635412992	42	3961
2026-01-07 05:01:27.71	242.71	22.12	-35.9	-36.8	22.4	0.00e+00	0	44	0	3642753024	41	4150
2026-01-07 05:01:28.97	242.53	21.97	-36.1	-37.0	22.3	0.00e+00	0	44	0	3652190208	41	4253
2026-01-07 05:01:29.75	242.42	21.87	-36.1	-37.0	22.3	0.00e+00	0	44	0	3657433088	41	4263
2026-01-07 05:01:31.03	242.23	21.72	-36.3	-37.1	22.1	0.00e+00	0	44	0	3666870272	41	4330
2026-01-07 05:01:31.75	242.13	21.64	-36.3	-37.2	22.1	0.00e+00	0	44	0	3672113152	42	4102
2026-01-07 05:01:33.04	241.94	21.48	-36.3	-37.2	22.1	0.00e+00	0	44	0	3681550336	42	4102
2026-01-07 05:01:33.76	241.84	21.40	-36.3	-37.2	22.1	0.00e+00	0	44	0	3686793216	42	4119
2026-01-07 05:01:35.04	241.66	21.25	-36.3	-37.2	22.1	0.00e+00	0	44	0	3696230400	42	4132
2026-01-07 05:01:35.76	241.56	21.16	-36.2	-37.0	22.2	0.00e+00	0	44	0	3701473280	42	4048
2026-01-07 05:01:37.05	241.39	21.01	-36.2	-37.1	22.2	0.00e+00	0	44	0	3709861888	42	4074
2026-01-07 05:01:37.76	241.29	20.93	-36.1	-37.0	22.3	0.00e+00	0	44	0	3715104768	42	4029
2026-01-07 05:01:39.05	241.12	20.78	-36.1	-37.0	22.2	0.00e+00	0	44	0	3724541952	42	4020
2026-01-07 05:01:39.77	241.02	20.70	-36.0	-36.8	22.4	0.00e+00	0	44	0	3729784832	42	3949
2026-01-07 05:01:41.05	240.85	20.55	-36.2	-37.0	22.2	0.00e+00	0	44	0	3739222016	42	4050
2026-01-07 05:01:41.77	240.75	20.47	-36.4	-37.3	22.0	0.00e+00	0	44	0	3744464896	42	4161
2026-01-07 05:01:43.17	240.57	20.31	-36.6	-37.5	21.8	0.00e+00	0	44	0	3754950656	42	4282
2026-01-07 05:01:44.14	240.44	20.20	-36.7	-37.6	21.7	0.00e+00	0	44	0	3761242112	42	4299
2026-01-07 05:01:45.48	240.27	20.04	-36.9	-37.9	21.4	0.00e+00	0	44	0	3770679296	43	4199
2026-01-07 05:01:46.22	240.18	19.96	-37.0	-37.9	21.4	0.00e+00	0	44	0	3776970752	43	4231
2026-01-07 05:01:47.51	240.01	19.81	-37.0	-38.0	21.4	0.00e+00	0	44	0	3786407936	43	4246
2026-01-07 05:01:48.23	239.92	19.73	-37.1	-38.1	21.2	0.00e+00	0	44	0	3790602240	43	4304
2026-01-07 05:01:49.51	239.76	19.59	-37.1	-38.0	21.3	0.00e+00	0	44	0	3800039424	43	4263
2026-01-07 05:01:50.23	239.67	19.51	-37.0	-37.9	21.4	0.00e+00	0	44	0	3805282304	43	4236
2026-01-07 05:01:51.52	239.51	19.37	-37.1	-38.0	21.3	0.00e+00	0	44	0	3814719488	43	4256
2026-01-07 05:01:52.23	239.43	19.29	-37.1	-38.0	21.3	0.00e+00	0	44	0	3819962368	43	4261
2026-01-07 05:01:53.54	239.27	19.14	-37.2	-38.1	21.2	0.00e+00	0	44	0	3829399552	43	4323
2026-01-07 05:01:54.26	239.18	19.06	-37.1	-38.1	21.3	0.00e+00	0	44	0	3834642432	43	4293
2026-01-07 05:01:55.64	239.01	18.91	-37.2	-38.2	21.2	0.00e+00	0	44	0	3844079616	43	4350
2026-01-07 05:01:56.36	238.93	18.83	-37.4	-38.4	21.1	0.00e+00	0	44	0	3850371072	44	4194
2026-01-07 05:01:57.65	238.78	18.69	-37.5	-38.4	21.1	0.00e+00	0	44	0	3858759680	44	4228
2026-01-07 05:01:58.36	238.69	18.61	-37.5	-38.5	21.0	0.00e+00	0	44	0	3864002560	44	4246
2026-01-07 05:01:59.78	238.53	18.46	-37.6	-38.5	21.0	0.00e+00	0	44	0	3874488320	44	4281
2026-01-07 05:02:00.49	238.45	18.38	-37.5	-38.4	21.0	0.00e+00	0	44	0	3879731200	44	4234
2026-01-07 05:02:01.85	238.29	18.23	-37.5	-38.4	21.1	0.00e+00	0	44	0	3889168384	44	4219
2026-01-07 05:02:02.56	238.21	18.16	-37.5	-38.4	21.1	0.00e+00	0	44	0	3894411264	44	4215
2026-01-07 05:02:03.85	238.07	18.02	-37.4	-38.3	21.1	0.00e+00	0	44	0	3903848448	44	4190
2026-01-07 05:02:04.57	237.99	17.94	-37.4	-38.4	21.1	0.00e+00	0	44	0	3909091328	44	4199
2026-01-07 05:02:05.86	237.84	17.81	-37.4	-38.3	21.2	0.00e+00	0	44	0	3918528512	44	4162
2026-01-07 05:02:06.58	237.76	17.73	-37.3	-38.2	21.2	0.00e+00	0	44	0	3923771392	44	4127
2026-01-07 05:02:07.86	237.62	17.59	-37.4	-38.3	21.1	0.00e+00	0	44	0	3933208576	44	4185
2026-01-07 05:02:08.58	237.54	17.52	-37.4	-38.4	21.1	0.00e+00	0	44	0	3938451456	44	4201
2026-01-07 05:02:09.87	237.41	17.38	-37.4	-38.3	21.1	0.00e+00	0	44	0	3946840064	44	4171
2026-01-07 05:02:10.58	237.33	17.31	-37.4	-38.3	21.1	0.00e+00	0	44	0	3952082944	44	4185
2026-01-07 05:02:11.87	237.19	17.17	-37.3	-38.4	21.1	0.00e+00	0	44	0	3961520128	44	4203
2026-01-07 05:02:12.60	237.11	17.10	-37.5	-38.4	21.1	0.00e+00	0	44	0	3966763008	44	4220
2026-01-07 05:02:14.19	236.95	16.93	-37.5	-38.4	21.0	0.00e+00	0	44	0	3978297344	44	4230
2026-01-07 05:02:15.05	236.86	16.84	-37.6	-38.5	20.8	0.00e+00	0	44	0	3984588800	44	4284
2026-01-07 05:02:16.19	236.74	16.73	-37.6	-38.6	20.9	0.00e+00	0	44	0	3992977408	44	4307
2026-01-07 05:02:17.05	236.65	16.64	-37.6	-38.6	20.8	0.00e+00	0	44	0	3999268864	44	4307
2026-01-07 05:02:18.19	236.54	16.52	-37.7	-38.7	20.8	0.00e+00	0	44	0	4007657472	44	4349
2026-01-07 05:02:19.05	236.45	16.44	-37.7	-38.7	20.8	0.00e+00	0	44	0	4013948928	44	4361
2026-01-07 05:02:20.20	236.33	16.32	-37.8	-38.7	20.7	0.00e+00	0	44	0	4021288960	45	4139
2026-01-07 05:02:21.06	236.25	16.23	-37.9	-38.9	20.6	0.00e+00	0	44	0	4028628992	45	4207
2026-01-07 05:02:22.20	236.14	16.12	-37.8	-38.8	20.7	0.00e+00	0	44	0	4035969024	45	4162
2026-01-07 05:02:23.06	236.05	16.03	-37.9	-38.9	20.5	0.00e+00	0	44	0	4042260480	45	4233
2026-01-07 05:02:24.21	235.94	15.92	-38.0	-39.0	20.4	0.00e+00	0	44	0	4050649088	45	4260
2026-01-07 05:02:25.07	235.86	15.83	-38.0	-39.0	20.5	0.00e+00	0	44	0	4056940544	45	4247
2026-01-07 05:02:26.60	235.71	15.68	-38.1	-39.1	20.4	0.00e+00	0	44	0	4067426304	45	4300
2026-01-07 05:02:27.31	235.64	15.61	-38.1	-39.1	20.3	0.00e+00	0	44	0	4073717760	45	4335
2026-01-07 05:02:28.60	235.52	15.48	-38.2	-39.2	20.3	0.00e+00	0	44	0	4083154944	45	4371
2026-01-07 05:02:29.31	235.45	15.41	-38.1	-39.1	20.3	0.00e+00	0	44	0	4087349248	45	4331
2026-01-07 05:02:30.61	235.33	15.28	-38.3	-39.3	20.2	0.00e+00	0	44	0	4096786432	46	4171
2026-01-07 05:02:31.32	235.26	15.21	-38.3	-39.3	20.2	0.00e+00	0	44	0	4102029312	46	4178
2026-01-07 05:02:32.61	235.15	15.09	-38.3	-39.3	20.1	0.00e+00	0	44	0	4111466496	46	4187
2026-01-07 05:02:33.33	235.08	15.02	-38.2	-39.2	20.3	0.00e+00	0	44	0	4116709376	46	4127
2026-01-07 05:02:34.62	234.96	14.89	-38.3	-39.3	20.2	0.00e+00	0	44	0	4126146560	46	4155
2026-01-07 05:02:35.51	234.88	14.81	-38.3	-39.3	20.2	0.00e+00	0	44	0	4132438016	46	4160
2026-01-07 05:02:36.65	234.78	14.70	-38.3	-39.2	20.2	0.00e+00	0	44	0	4140826624	46	4143
2026-01-07 05:02:37.72	234.68	14.59	-38.3	-39.2	20.2	0.00e+00	0	44	0	4148166656	46	4138
2026-01-07 05:02:38.75	234.59	14.49	-38.4	-39.4	20.1	0.00e+00	0	44	0	4155506688	46	4198
2026-01-07 05:02:39.75	234.51	14.40	-38.4	-39.4	20.0	0.00e+00	0	44	0	4162846720	46	4233
2026-01-07 05:02:40.96	234.40	14.28	-38.3	-39.3	20.2	0.00e+00	0	44	0	4172283904	46	4157
2026-01-07 05:02:41.87	234.32	14.20	-38.4	-39.4	20.1	0.00e+00	0	44	0	4178575360	46	4198
2026-01-07 05:02:42.88	234.23	14.10	-38.5	-39.5	20.0	0.00e+00	0	44	0	4185915392	46	4245
2026-01-07 05:02:43.88	234.15	14.01	-38.5	-39.5	19.9	0.00e+00	0	44	0	4193255424	46	4290
2026-01-07 05:02:44.88	234.06	13.92	-38.5	-39.5	20.0	0.00e+00	0	44	0	4199546880	46	4269
2026-01-07 05:02:45.89	233.98	13.82	-38.8	-39.8	19.7	0.00e+00	0	44	0	4206886912	47	4160
2026-01-07 05:02:46.89	233.89	13.73	-38.8	-39.8	19.6	0.00e+00	0	44	0	4214226944	47	4180
2026-01-07 05:02:47.89	233.81	13.64	-38.8	-39.8	19.7	0.00e+00	0	44	0	4221566976	46	4423
2026-01-07 05:02:48.90	233.73	13.54	-39.0	-40.1	19.4	0.00e+00	0	44	0	4228907008	47	4295
2026-01-07 05:02:49.90	233.64	13.45	-38.8	-39.9	19.6	0.00e+00	0	44	0	4236247040	47	4215
2026-01-07 05:02:50.98	233.56	13.35	-39.1	-40.2	19.3	0.00e+00	0	44	0	4243587072	47	4361
2026-01-07 05:02:51.87	233.48	13.27	-39.1	-40.2	19.3	0.00e+00	0	44	0	4250927104	47	4356
2026-01-07 05:02:53.01	233.39	13.16	-39.2	-40.3	19.2	0.00e+00	0	44	0	4259315712	47	4392
2026-01-07 05:02:53.87	233.32	13.09	-39.2	-40.3	19.2	0.00e+00	0	44	0	4264558592	47	4403
2026-01-07 05:02:55.02	233.23	12.98	-39.1	-40.2	19.2	0.00e+00	0	44	0	4272947200	47	4369
2026-01-07 05:02:55.88	233.16	12.90	-39.4	-40.5	19.2	0.00e+00	0	44	0	4279238656	48	4279
2026-01-07 05:02:57.02	233.07	12.80	-39.6	-40.7	19.1	0.00e+00	0	44	0	4287627264	48	4343
2026-01-07 05:02:57.88	233.01	12.72	-39.5	-40.6	19.2	0.00e+00	0	44	0	4293918720	48	4318
2026-01-07 05:02:59.03	232.92	12.62	-39.4	-40.4	19.3	0.00e+00	0	44	0	4302307328	48	4234
2026-01-07 05:02:59.89	232.85	12.54	-39.2	-40.3	19.4	0.00e+00	0	44	0	4308598784	48	4150
2026-01-07 05:03:01.03	232.76	12.44	-39.2	-40.2	19.5	0.00e+00	0	44	0	4316987392	48	4137
2026-01-07 05:03:01.89	232.70	12.37	-39.2	-40.2	19.4	0.00e+00	0	44	0	4322230272	48	4139
2026-01-07 05:03:03.04	232.61	12.26	-39.1	-40.2	19.5	0.00e+00	0	44	0	4330618880	48	4103
2026-01-07 05:03:03.90	232.55	12.19	-39.2	-40.2	19.5	0.00e+00	0	44	0	4337958912	48	4116
2026-01-07 05:03:05.14	232.45	12.08	-38.9	-39.9	19.5	0.00e+00	0	44	0	4346347520	47	4217
2026-01-07 05:03:06.00	232.39	12.00	-39.0	-40.0	19.4	0.00e+00	0	44	0	4352638976	47	4261
2026-01-07 05:03:07.15	232.30	11.90	-38.8	-39.9	19.5	0.00e+00	0	44	0	4361027584	47	4202
2026-01-07 05:03:08.00	232.24	11.83	-38.8	-39.9	19.5	0.00e+00	0	44	0	4367319040	47	4206
2026-01-07 05:03:09.15	232.16	11.73	-38.7	-39.7	19.7	0.00e+00	0	44	0	4374659072	47	4115
2026-01-07 05:03:10.02	232.09	11.65	-38.8	-39.8	19.6	0.00e+00	0	44	0	4381999104	47	4166
2026-01-07 05:03:11.17	232.01	11.55	-38.9	-39.9	19.5	0.00e+00	0	44	0	4389339136	47	4213
2026-01-07 05:03:12.12	231.94	11.47	-38.8	-39.9	19.5	0.00e+00	0	44	0	4396679168	47	4205
2026-01-07 05:03:13.30	231.86	11.37	-38.8	-39.8	19.5	0.00e+00	0	44	0	4405067776	47	4183
2026-01-07 05:03:14.16	231.80	11.30	-38.9	-39.9	19.4	0.00e+00	0	44	0	4411359232	47	4233
2026-01-07 05:03:15.51	231.70	11.18	-38.9	-39.9	19.4	0.00e+00	0	44	0	4420796416	47	4238
2026-01-07 05:03:16.23	231.65	11.12	-38.9	-39.9	19.4	0.00e+00	0	44	0	4426039296	47	4225
2026-01-07 05:03:17.52	231.56	11.01	-39.1	-40.1	19.2	0.00e+00	0	44	0	4435476480	47	4317
2026-01-07 05:03:18.23	231.51	10.95	-39.0	-40.1	19.2	0.00e+00	0	44	0	4440719360	47	4312
2026-01-07 05:03:19.79	231.41	10.82	-39.2	-40.2	19.1	0.00e+00	0	44	0	4452253696	47	4383
2026-01-07 05:03:20.50	231.36	10.76	-39.2	-40.3	19.0	0.00e+00	0	44	0	4457496576	47	4408
2026-01-07 05:03:21.79	231.27	10.65	-39.4	-40.5	19.1	0.00e+00	0	44	0	4465885184	48	4254
2026-01-07 05:03:22.51	231.22	10.59	-39.5	-40.5	19.0	0.00e+00	0	44	0	4472176640	48	4290
2026-01-07 05:03:23.80	231.14	10.49	-39.5	-40.6	19.0	0.00e+00	0	44	0	4480565248	48	4298
2026-01-07 05:03:24.51	231.09	10.43	-39.5	-40.5	19.0	0.00e+00	0	44	0	4485808128	48	4283
2026-01-07 05:03:25.80	231.00	10.32	-39.4	-40.5	19.0	0.00e+00	0	44	0	4495245312	48	4270
2026-01-07 05:03:26.52	230.96	10.26	-39.6	-40.7	18.9	0.00e+00	0	44	0	4500488192	48	4349
2026-01-07 05:03:27.81	230.87	10.15	-39.5	-40.5	19.0	0.00e+00	0	44	0	4509925376	48	4287
2026-01-07 05:03:28.53	230.83	10.09	-39.4	-40.5	19.1	0.00e+00	0	44	0	4515168256	48	4272
2026-01-07 05:03:29.82	230.74	9.99	-39.7	-40.8	18.8	0.00e+00	0	44	0	4524605440	48	4416
2026-01-07 05:03:30.53	230.70	9.93	-39.7	-40.8	18.7	0.00e+00	0	44	0	4529848320	48	4433
2026-01-07 05:03:31.82	230.62	9.83	-39.7	-40.8	18.7	0.00e+00	0	44	0	4539285504	48	4421
2026-01-07 05:03:32.55	230.57	9.77	-39.6	-40.7	18.8	0.00e+00	0	44	0	4544528384	49	4133
2026-01-07 05:03:33.84	230.49	9.66	-39.7	-40.8	18.7	0.00e+00	0	44	0	4552916992	48	4431
2026-01-07 05:03:34.56	230.44	9.60	-39.7	-40.8	18.7	0.00e+00	0	44	0	4559208448	49	4182
2026-01-07 05:03:35.85	230.36	9.50	-39.8	-40.9	18.7	0.00e+00	0	44	0	4567597056	49	4196
2026-01-07 05:03:36.56	230.32	9.44	-40.0	-41.1	18.4	0.00e+00	0	44	0	4572839936	49	4333
2026-01-07 05:03:37.85	230.24	9.34	-39.9	-41.0	18.5	0.00e+00	0	44	0	4582277120	49	4258
2026-01-07 05:03:38.57	230.19	9.28	-40.0	-41.1	18.4	0.00e+00	0	44	0	4587520000	49	4338
2026-01-07 05:03:39.86	230.12	9.18	-40.1	-41.3	18.2	0.00e+00	0	44	0	4596957184	49	4402
2026-01-07 05:03:40.58	230.07	9.12	-40.1	-41.2	18.3	0.00e+00	0	44	0	4602200064	49	4367
2026-01-07 05:03:41.87	229.99	9.02	-40.3	-41.4	18.1	0.00e+00	0	44	0	4611637248	49	4471
2026-01-07 05:03:42.59	229.95	8.97	-41.3	-42.6	17.1	0.00e+00	0	44	0	4616880128	51	4563
2026-01-07 05:03:43.88	229.87	8.86	-50.1	-61.0	3.8	8.46e-01	0	44	104	4617928704	69	13511
2026-01-07 05:03:44.59	229.83	8.81	-50.0	-61.2	3.8	8.46e-01	0	44	104	4617928704	70	13029
2026-01-07 05:03:45.89	229.76	8.71	-50.2	-61.4	3.8	8.47e-01	0	44	104	4617928704	70	13329
2026-01-07 05:03:46.60	229.71	8.65	-49.6	-61.4	3.8	8.47e-01	0	44	104	4617928704	69	14177
2026-01-07 05:03:47.89	229.64	8.55	-50.7	-61.5	3.8	8.47e-01	0	44	104	4617928704	70	13458
2026-01-07 05:03:48.61	229.60	8.49	-50.6	-61.5	3.8	8.47e-01	0	44	104	4617928704	70	13480
2026-01-07 05:03:49.90	229.52	8.40	-50.8	-61.5	3.8	8.47e-01	0	44	104	4617928704	71	12799
2026-01-07 05:03:50.62	229.48	8.34	-50.6	-61.5	3.8	8.46e-01	0	44	104	4617928704	71	12805
2026-01-07 05:03:51.91	229.41	8.24	-50.7	-61.6	3.8	8.47e-01	0	44	104	4617928704	71	12812
2026-01-07 05:03:52.63	229.37	8.19	-50.7	-61.6	3.8	8.46e-01	0	44	104	4617928704	70	13625
2026-01-07 05:03:53.92	229.29	8.09	-50.4	-61.6	3.8	8.47e-01	0	44	104	4617928704	70	13632
2026-01-07 05:03:54.64	229.25	8.03	-50.7	-61.6	3.8	8.46e-01	0	44	104	4617928704	71	12826
2026-01-07 05:03:55.93	229.18	7.93	-50.7	-61.6	3.8	8.45e-01	0	44	104	4617928704	70	13603
2026-01-07 05:03:56.65	229.14	7.88	-50.6	-61.6	3.8	8.47e-01	0	44	104	4617928704	70	13708
2026-01-07 05:03:57.94	229.07	7.78	-50.6	-61.6	3.8	8.47e-01	0	44	104	4617928704	70	13597
