passes_logs/2026/01/07/T1/T1__20260107_002508_SUOMI_NPP_rec.log

#Pass ID: 20260107_002508_SUOMI NPP
#Satellite: SUOMI NPP
#Configuration: NPP
#almurnet v.1.7.20251203
#Start time: 2026-01-07 00:25:08

#Version: 2.0.20230620
#Station: T1
#Location: 37.570604 lon 55.790049 lat
#TLE: 1 37849U 11061A   26005.94084933  .00000134  00000+0  84554-4 0  9990
#TLE: 2 37849  98.7803 308.0679 0002567  79.1029 281.0436 14.19522657735426

#Time	Az	El	Level	Level2	SNR	BER	BlckErr	Temp	State	Recorded	gain1	gain2
2026-01-07 00:25:08.68	12.30	5.02	-48.5	-64.7	3.8	1.49e+00	0	40	0	0	69	22072
2026-01-07 00:25:09.68	12.27	5.09	-47.2	-64.3	3.8	1.49e+00	0	41	104	0	65	26741
2026-01-07 00:25:10.69	12.24	5.16	-47.1	-64.3	3.8	1.49e+00	0	41	104	0	65	26734
2026-01-07 00:25:11.69	12.21	5.23	-47.1	-64.3	3.8	1.49e+00	0	41	104	0	65	26643
2026-01-07 00:25:12.69	12.18	5.30	-47.2	-64.3	3.8	1.49e+00	0	41	104	0	65	26543
2026-01-07 00:25:13.70	12.15	5.37	-47.1	-64.3	3.8	1.49e+00	0	41	104	0	65	26540
2026-01-07 00:25:14.70	12.11	5.44	-47.1	-64.3	3.8	1.49e+00	0	41	104	0	65	26501
2026-01-07 00:25:15.70	12.08	5.51	-47.1	-64.3	3.8	1.49e+00	0	41	104	0	65	26520
2026-01-07 00:25:16.71	12.05	5.58	-47.1	-64.3	3.8	1.49e+00	0	41	104	0	65	26599
2026-01-07 00:25:17.71	12.02	5.66	-47.1	-64.3	3.8	1.49e+00	0	41	104	0	65	26619
2026-01-07 00:25:18.72	11.99	5.73	-47.1	-64.3	3.8	1.49e+00	0	41	104	0	65	26600
2026-01-07 00:25:19.72	11.95	5.80	-47.1	-64.3	3.8	1.49e+00	0	41	104	0	65	26620
2026-01-07 00:25:20.73	11.92	5.87	-47.1	-64.3	3.8	1.49e+00	0	41	104	0	65	26646
2026-01-07 00:25:21.73	11.89	5.94	-47.1	-64.3	3.8	1.49e+00	0	41	104	0	65	26662
2026-01-07 00:25:22.73	11.85	6.02	-47.0	-64.3	3.8	1.49e+00	0	41	104	0	65	26590
2026-01-07 00:25:23.74	11.82	6.09	-47.1	-64.3	3.8	1.49e+00	0	41	104	0	65	26696
2026-01-07 00:25:24.74	11.79	6.16	-47.1	-64.3	3.8	1.49e+00	0	41	104	0	65	26667
2026-01-07 00:25:25.74	11.75	6.23	-47.1	-64.3	3.8	1.49e+00	0	41	104	0	65	26624
2026-01-07 00:25:26.75	11.72	6.31	-47.1	-64.2	3.8	1.49e+00	0	41	104	0	65	26441
2026-01-07 00:25:27.75	11.68	6.38	-47.1	-64.2	3.8	1.49e+00	0	41	104	0	65	26212
2026-01-07 00:25:28.76	11.65	6.46	-47.1	-64.0	3.8	1.49e+00	0	41	104	0	65	25856
2026-01-07 00:25:29.76	11.62	6.53	-47.1	-63.8	3.8	1.49e+00	0	41	104	0	65	25144
2026-01-07 00:25:30.76	11.58	6.60	-47.1	-63.6	3.8	1.49e+00	0	41	104	0	65	24460
2026-01-07 00:25:31.77	11.55	6.68	-47.1	-63.3	3.8	1.49e+00	0	41	104	0	65	23674
2026-01-07 00:25:32.77	11.51	6.75	-47.0	-62.9	3.8	1.49e+00	0	42	104	0	65	22708
2026-01-07 00:25:33.78	11.47	6.83	-47.1	-62.7	3.8	1.49e+00	0	42	104	0	65	22179
2026-01-07 00:25:34.78	11.44	6.90	-47.1	-62.4	3.8	1.49e+00	0	42	104	0	65	21399
2026-01-07 00:25:35.79	11.40	6.98	-47.0	-62.2	3.8	1.49e+00	0	42	104	0	65	20998
2026-01-07 00:25:36.79	11.37	7.05	-47.0	-62.1	3.9	1.49e+00	0	41	104	0	65	20744
2026-01-07 00:25:37.79	11.33	7.13	-47.0	-62.2	3.9	1.49e+00	0	42	104	0	65	20823
2026-01-07 00:25:38.80	11.29	7.20	-47.0	-62.5	3.8	1.49e+00	0	41	104	0	65	21691
2026-01-07 00:25:39.80	11.26	7.28	-47.0	-62.8	3.8	1.49e+00	0	42	104	0	65	22337
2026-01-07 00:25:40.80	11.22	7.35	-47.1	-63.1	3.8	1.49e+00	0	42	104	0	65	23106
2026-01-07 00:25:41.81	11.18	7.43	-47.1	-63.3	3.8	1.49e+00	0	42	104	0	65	23783
2026-01-07 00:25:42.81	11.15	7.51	-47.0	-63.6	3.8	1.49e+00	0	42	104	0	65	24647
2026-01-07 00:25:43.82	11.11	7.58	-47.1	-63.6	3.8	1.49e+00	0	42	104	0	65	24449
2026-01-07 00:25:44.82	11.07	7.66	-47.0	-63.2	3.8	1.49e+00	0	42	104	0	65	23442
2026-01-07 00:25:45.83	11.03	7.74	-47.0	-62.5	3.8	1.49e+00	0	42	104	0	65	21643
2026-01-07 00:25:46.83	11.00	7.82	-46.9	-61.6	3.8	1.48e+00	0	42	104	0	65	19614
2026-01-07 00:25:47.84	10.96	7.89	-46.9	-60.4	4.3	1.41e+00	0	42	0	0	65	16894
2026-01-07 00:25:48.84	10.92	7.97	-46.8	-59.2	4.7	1.12e+00	0	42	0	1048576	65	14855
2026-01-07 00:25:49.84	10.88	8.05	-46.8	-58.3	5.2	6.85e-01	0	42	0	3145728	65	13328
2026-01-07 00:25:50.85	10.84	8.13	-46.7	-57.3	5.9	4.22e-01	0	42	0	5242880	65	11927
2026-01-07 00:25:51.85	10.80	8.21	-46.5	-56.1	6.9	2.55e-01	0	42	0	7340032	65	10340
2026-01-07 00:25:52.86	10.76	8.29	-46.4	-55.4	7.6	1.11e-01	0	42	0	8388608	64	10065
2026-01-07 00:25:53.86	10.72	8.36	-46.3	-54.8	8.2	6.54e-02	0	42	0	10485760	64	9416
2026-01-07 00:25:54.86	10.68	8.44	-46.1	-53.9	9.0	3.35e-02	0	42	0	12582912	64	8524
2026-01-07 00:25:55.87	10.64	8.52	-46.0	-53.5	9.5	1.76e-02	0	42	0	14680064	63	8602
2026-01-07 00:25:56.87	10.60	8.60	-46.0	-53.2	9.8	1.05e-02	0	42	0	15728640	63	8354
2026-01-07 00:25:57.88	10.56	8.68	-45.9	-52.9	10.2	6.91e-03	0	42	0	17825792	63	8041
2026-01-07 00:25:58.88	10.52	8.76	-45.9	-53.0	10.1	5.72e-03	0	42	0	19922944	63	8100
2026-01-07 00:25:59.89	10.48	8.84	-46.0	-53.2	9.9	6.52e-03	0	42	0	22020096	63	8339
2026-01-07 00:26:00.89	10.44	8.92	-45.9	-53.3	9.8	1.05e-02	0	42	0	24117248	63	8374
2026-01-07 00:26:01.90	10.39	9.01	-46.0	-53.3	9.8	7.91e-03	0	42	0	26214400	63	8425
2026-01-07 00:26:02.90	10.35	9.09	-46.4	-55.0	8.2	4.43e-02	0	42	0	27262976	63	10291
2026-01-07 00:26:03.90	10.31	9.17	-47.1	-60.4	4.3	5.97e-01	0	42	0	29360128	64	17951
2026-01-07 00:26:04.91	10.27	9.25	-43.9	-48.5	14.5	4.21e-01	0	42	0	30408704	59	6117
2026-01-07 00:26:05.94	10.22	9.33	-43.4	-47.6	15.5	0.00e+00	0	42	0	32505856	58	5812
2026-01-07 00:26:06.94	10.18	9.41	-46.0	-54.6	8.5	7.90e-04	0	42	0	34603008	62	10408
2026-01-07 00:26:07.94	10.14	9.50	-43.3	-47.2	15.8	1.52e-03	0	42	0	36700160	58	5592
2026-01-07 00:26:08.94	10.09	9.58	-43.4	-47.6	15.6	0.00e+00	0	42	0	38797312	58	5825
2026-01-07 00:26:09.94	10.05	9.66	-43.2	-47.3	15.9	0.00e+00	0	42	0	39845888	58	5598
2026-01-07 00:26:10.95	10.01	9.75	-43.4	-47.4	15.7	0.00e+00	0	42	0	41943040	58	5710
2026-01-07 00:26:11.95	9.96	9.83	-43.1	-47.1	16.0	0.00e+00	0	42	0	44040192	58	5493
2026-01-07 00:26:12.95	9.92	9.91	-42.8	-46.7	16.4	0.00e+00	0	42	0	46137344	57	5548
2026-01-07 00:26:13.96	9.87	10.00	-42.7	-46.5	16.6	0.00e+00	0	42	0	47185920	57	5446
2026-01-07 00:26:14.96	9.83	10.08	-42.3	-46.0	17.1	0.00e+00	0	42	0	49283072	56	5413
2026-01-07 00:26:15.96	9.78	10.16	-42.3	-46.0	17.0	0.00e+00	0	42	0	51380224	56	5447
2026-01-07 00:26:16.96	9.74	10.25	-42.5	-46.3	16.8	0.00e+00	0	43	0	53477376	56	5617
2026-01-07 00:26:17.97	9.69	10.33	-42.1	-45.7	17.3	0.00e+00	0	42	0	55574528	56	5246
2026-01-07 00:26:18.97	9.64	10.42	-42.3	-45.9	17.2	0.00e+00	0	42	0	56623104	56	5393
2026-01-07 00:26:19.97	9.60	10.51	-42.3	-45.9	17.1	0.00e+00	0	42	0	58720256	56	5385
2026-01-07 00:26:20.99	9.55	10.59	-42.1	-45.6	17.5	0.00e+00	0	43	0	60817408	56	5199
2026-01-07 00:26:21.99	9.50	10.68	-42.2	-45.8	17.3	0.00e+00	0	42	0	62914560	56	5289
2026-01-07 00:26:23.00	9.45	10.77	-42.1	-45.6	17.5	0.00e+00	0	42	0	65011712	56	5188
2026-01-07 00:26:24.00	9.41	10.85	-42.1	-45.5	17.5	0.00e+00	0	42	0	66060288	56	5150
2026-01-07 00:26:25.00	9.36	10.94	-41.8	-45.3	17.6	0.00e+00	0	43	0	68157440	55	5294
2026-01-07 00:26:26.01	9.31	11.03	-42.0	-45.5	17.5	0.00e+00	0	42	0	70254592	55	5411
2026-01-07 00:26:27.01	9.26	11.11	-42.0	-45.4	17.5	0.00e+00	0	42	0	72351744	55	5391
2026-01-07 00:26:28.01	9.21	11.20	-42.0	-45.3	17.6	0.00e+00	0	43	0	74448896	55	5330
2026-01-07 00:26:29.02	9.16	11.29	-42.0	-45.4	17.6	0.00e+00	0	42	0	75497472	55	5347
2026-01-07 00:26:30.02	9.11	11.38	-42.1	-45.6	17.4	0.00e+00	0	42	0	77594624	55	5474
2026-01-07 00:26:31.02	9.06	11.47	-42.0	-45.3	17.6	0.00e+00	0	43	0	79691776	55	5329
2026-01-07 00:26:32.03	9.01	11.56	-42.1	-45.5	17.5	0.00e+00	0	43	0	81788928	55	5427
2026-01-07 00:26:33.03	8.96	11.65	-42.0	-45.3	17.7	0.00e+00	0	42	0	83886080	55	5287
2026-01-07 00:26:34.03	8.91	11.73	-41.9	-45.1	17.9	0.00e+00	0	42	0	84934656	55	5171
2026-01-07 00:26:35.03	8.86	11.82	-41.9	-45.1	17.9	0.00e+00	0	43	0	87031808	55	5214
2026-01-07 00:26:36.04	8.81	11.91	-42.0	-45.2	17.7	0.00e+00	0	43	0	89128960	55	5273
2026-01-07 00:26:37.04	8.75	12.01	-41.9	-45.1	17.9	0.00e+00	0	43	0	91226112	55	5170
2026-01-07 00:26:38.04	8.70	12.10	-41.9	-45.1	17.9	0.00e+00	0	43	0	93323264	55	5165
2026-01-07 00:26:39.04	8.65	12.19	-41.9	-45.0	17.9	0.00e+00	0	43	0	94371840	55	5157
2026-01-07 00:26:40.04	8.60	12.28	-41.9	-44.9	18.0	0.00e+00	0	43	0	96468992	55	5095
2026-01-07 00:26:41.04	8.54	12.37	-41.8	-44.9	18.1	0.00e+00	0	42	0	98566144	55	5050
2026-01-07 00:26:42.05	8.49	12.46	-41.8	-44.9	18.1	0.00e+00	0	43	0	100663296	55	5050
2026-01-07 00:26:43.05	8.43	12.55	-42.0	-45.1	17.9	0.00e+00	0	43	0	102760448	55	5195
2026-01-07 00:26:44.05	8.38	12.65	-42.1	-45.1	17.9	0.00e+00	0	42	0	103809024	55	5178
2026-01-07 00:26:45.05	8.33	12.74	-42.0	-45.1	18.0	0.00e+00	0	43	0	105906176	55	5177
2026-01-07 00:26:46.06	8.27	12.83	-41.9	-45.0	18.0	0.00e+00	0	42	0	108003328	55	5109
2026-01-07 00:26:47.06	8.21	12.93	-41.9	-45.0	18.1	0.00e+00	0	42	0	110100480	55	5114
2026-01-07 00:26:48.07	8.16	13.02	-41.8	-44.7	18.3	0.00e+00	0	43	0	111149056	55	4977
2026-01-07 00:26:49.07	8.10	13.12	-41.7	-44.6	18.4	0.00e+00	0	43	0	113246208	55	4916
2026-01-07 00:26:50.15	8.04	13.22	-41.8	-44.7	18.3	0.00e+00	0	43	0	115343360	55	4930
2026-01-07 00:26:51.05	7.99	13.30	-41.7	-44.6	18.4	0.00e+00	0	43	0	117440512	55	4905
2026-01-07 00:26:52.11	7.93	13.40	-41.8	-44.7	18.3	0.00e+00	0	43	0	119537664	55	4963
2026-01-07 00:26:53.11	7.87	13.50	-41.6	-44.5	18.5	0.00e+00	0	43	0	120586240	55	4822
2026-01-07 00:26:54.29	7.80	13.61	-41.8	-44.7	18.4	0.00e+00	0	43	0	123731968	55	4933
2026-01-07 00:26:55.15	7.75	13.70	-41.9	-44.9	18.1	0.00e+00	0	43	0	124780544	55	5070
2026-01-07 00:26:56.50	7.67	13.83	-41.8	-44.7	18.3	0.00e+00	0	43	0	127926272	55	4951
2026-01-07 00:26:57.21	7.63	13.89	-41.9	-44.8	18.2	0.00e+00	0	43	0	128974848	55	5020
2026-01-07 00:26:58.50	7.55	14.02	-41.8	-44.6	18.4	0.00e+00	0	43	0	131072000	55	4913
2026-01-07 00:26:59.22	7.51	14.09	-41.9	-44.8	18.3	0.00e+00	0	43	0	132120576	55	4992
2026-01-07 00:27:00.77	7.41	14.24	-42.0	-44.9	18.1	0.00e+00	0	43	0	135266304	55	5089
2026-01-07 00:27:01.48	7.37	14.31	-42.0	-44.9	18.2	0.00e+00	0	43	0	136314880	55	5083
2026-01-07 00:27:02.82	7.29	14.45	-42.1	-45.1	18.0	0.00e+00	0	43	0	139460608	55	5165
2026-01-07 00:27:03.54	7.24	14.52	-42.1	-45.0	18.1	0.00e+00	0	43	0	140509184	55	5138
2026-01-07 00:27:04.83	7.16	14.65	-42.2	-45.1	17.9	0.00e+00	0	43	0	142606336	55	5195
2026-01-07 00:27:05.55	7.11	14.72	-42.0	-44.8	18.3	0.00e+00	0	43	0	144703488	55	4998
2026-01-07 00:27:06.83	7.03	14.85	-42.1	-44.8	18.2	0.00e+00	0	43	0	146800640	55	5033
2026-01-07 00:27:07.55	6.99	14.92	-42.4	-45.2	17.8	0.00e+00	0	43	0	147849216	55	5276
2026-01-07 00:27:08.84	6.90	15.05	-42.0	-44.7	18.4	0.00e+00	0	43	0	150994944	55	4944
2026-01-07 00:27:09.55	6.86	15.12	-42.4	-45.2	17.8	0.00e+00	0	43	0	152043520	55	5267
2026-01-07 00:27:10.85	6.77	15.25	-42.1	-44.8	18.3	0.00e+00	0	43	0	154140672	55	5021
2026-01-07 00:27:11.66	6.72	15.34	-42.0	-44.7	18.3	0.00e+00	0	43	0	156237824	55	4964
2026-01-07 00:27:13.12	6.62	15.49	-42.0	-44.7	18.3	0.00e+00	0	43	0	158334976	55	4967
2026-01-07 00:27:13.84	6.57	15.56	-42.1	-44.8	18.3	0.00e+00	0	43	0	160432128	55	5003
2026-01-07 00:27:15.13	6.49	15.69	-42.1	-44.9	18.2	0.00e+00	0	43	0	162529280	55	5059
2026-01-07 00:27:15.84	6.44	15.77	-42.1	-44.8	18.3	0.00e+00	0	43	0	163577856	55	5015
2026-01-07 00:27:17.14	6.35	15.90	-42.0	-44.6	18.5	0.00e+00	0	43	0	165675008	55	4886
2026-01-07 00:27:17.85	6.30	15.98	-42.0	-44.7	18.4	0.00e+00	0	43	0	167772160	55	4938
2026-01-07 00:27:19.14	6.21	16.11	-42.0	-44.6	18.4	0.00e+00	0	43	0	169869312	55	4923
2026-01-07 00:27:19.85	6.16	16.19	-41.9	-44.5	18.6	0.00e+00	0	43	0	170917888	55	4845
2026-01-07 00:27:21.14	6.07	16.33	-41.9	-44.5	18.5	0.00e+00	0	43	0	174063616	55	4860
2026-01-07 00:27:21.86	6.02	16.40	-41.9	-44.5	18.5	0.00e+00	0	43	0	175112192	55	4851
2026-01-07 00:27:23.15	5.92	16.54	-41.9	-44.4	18.7	0.00e+00	0	43	0	177209344	55	4803
2026-01-07 00:27:23.87	5.87	16.62	-41.9	-44.5	18.6	0.00e+00	0	43	0	178257920	55	4828
2026-01-07 00:27:25.17	5.78	16.76	-41.9	-44.5	18.6	0.00e+00	0	43	0	181403648	55	4828
2026-01-07 00:27:25.89	5.72	16.84	-42.0	-44.5	18.6	0.00e+00	0	43	0	182452224	55	4858
2026-01-07 00:27:27.21	5.63	16.98	-41.9	-44.4	18.7	0.00e+00	0	43	0	184549376	55	4798
2026-01-07 00:27:27.92	5.57	17.06	-41.8	-44.3	18.8	0.00e+00	0	43	0	186646528	55	4728
2026-01-07 00:27:29.26	5.47	17.20	-41.9	-44.5	18.6	0.00e+00	0	43	0	188743680	55	4821
2026-01-07 00:27:29.98	5.42	17.28	-42.0	-44.5	18.6	0.00e+00	0	43	0	189792256	55	4841
2026-01-07 00:27:31.27	5.32	17.43	-41.9	-44.5	18.7	0.00e+00	0	43	0	192937984	55	4825
2026-01-07 00:27:31.99	5.26	17.51	-42.0	-44.5	18.6	0.00e+00	0	43	0	193986560	55	4857
2026-01-07 00:27:33.28	5.16	17.65	-42.1	-44.6	18.5	0.00e+00	0	43	0	196083712	55	4914
2026-01-07 00:27:33.99	5.11	17.73	-42.2	-44.8	18.4	0.00e+00	0	43	0	198180864	55	5000
2026-01-07 00:27:35.28	5.01	17.87	-42.2	-44.9	18.3	0.00e+00	0	43	0	200278016	55	5051
2026-01-07 00:27:36.00	4.95	17.95	-42.4	-45.1	18.1	0.00e+00	0	43	0	201326592	55	5178
2026-01-07 00:27:37.29	4.85	18.10	-42.4	-45.1	18.1	0.00e+00	0	43	0	203423744	55	5161
2026-01-07 00:27:38.04	4.79	18.19	-42.4	-45.0	18.2	0.00e+00	0	43	0	205520896	55	5121
2026-01-07 00:27:39.32	4.68	18.33	-42.4	-45.1	18.1	0.00e+00	0	43	0	207618048	55	5167
2026-01-07 00:27:40.13	4.62	18.42	-42.4	-45.1	18.1	0.00e+00	0	43	0	209715200	55	5162
2026-01-07 00:27:41.60	4.50	18.59	-42.4	-45.0	18.1	0.00e+00	0	43	0	211812352	55	5149
2026-01-07 00:27:42.31	4.44	18.68	-42.6	-45.2	17.9	0.00e+00	0	43	0	212860928	55	5255
2026-01-07 00:27:43.86	4.31	18.86	-42.5	-45.2	18.0	0.00e+00	0	43	0	216006656	55	5262
2026-01-07 00:27:44.57	4.25	18.94	-42.2	-44.8	18.4	0.00e+00	0	43	0	217055232	55	5019
2026-01-07 00:27:45.85	4.14	19.09	-42.3	-44.9	18.2	0.00e+00	0	43	0	220200960	55	5070
2026-01-07 00:27:46.57	4.07	19.17	-42.3	-44.9	18.2	0.00e+00	0	43	0	221249536	55	5096
2026-01-07 00:27:47.86	3.96	19.33	-42.3	-44.9	18.3	0.00e+00	0	43	0	223346688	55	5048
2026-01-07 00:27:48.58	3.90	19.41	-42.1	-44.7	18.4	0.00e+00	0	43	0	225443840	55	4972
2026-01-07 00:27:49.87	3.78	19.57	-42.3	-44.9	18.2	0.00e+00	0	43	0	227540992	55	5076
2026-01-07 00:27:50.59	3.72	19.65	-42.3	-44.9	18.3	0.00e+00	0	43	0	228589568	55	5075
2026-01-07 00:27:51.88	3.60	19.81	-42.5	-45.2	18.0	0.00e+00	0	43	0	231735296	55	5227
2026-01-07 00:27:52.59	3.54	19.89	-42.3	-45.0	18.2	0.00e+00	0	43	0	232783872	55	5105
2026-01-07 00:27:53.89	3.42	20.05	-42.4	-45.0	18.2	0.00e+00	0	43	0	234881024	55	5133
2026-01-07 00:27:54.60	3.36	20.14	-42.5	-45.2	17.9	0.00e+00	0	43	0	235929600	55	5250
2026-01-07 00:27:55.89	3.24	20.29	-42.5	-45.1	18.0	0.00e+00	0	43	0	239075328	55	5212
2026-01-07 00:27:56.61	3.17	20.38	-42.9	-45.7	17.7	0.00e+00	0	43	0	240123904	56	5245
2026-01-07 00:27:57.90	3.05	20.54	-43.0	-45.8	17.6	0.00e+00	0	43	0	242221056	57	4998
2026-01-07 00:27:58.61	2.98	20.63	-43.1	-45.9	17.5	0.00e+00	0	43	0	244318208	57	5072
2026-01-07 00:28:00.05	2.84	20.81	-43.5	-46.3	17.1	0.00e+00	0	43	0	246415360	57	5329
2026-01-07 00:28:00.76	2.77	20.90	-43.5	-46.4	17.0	0.00e+00	0	43	0	247463936	57	5343
2026-01-07 00:28:02.05	2.65	21.06	-43.3	-46.1	17.3	0.00e+00	0	43	0	250609664	57	5161
2026-01-07 00:28:02.76	2.58	21.15	-43.5	-46.4	17.1	0.00e+00	0	43	0	251658240	57	5367
2026-01-07 00:28:04.18	2.43	21.33	-43.5	-46.4	17.1	0.00e+00	0	43	0	254803968	57	5363
2026-01-07 00:28:04.90	2.36	21.42	-43.6	-46.4	17.0	0.00e+00	0	43	0	255852544	58	5097
2026-01-07 00:28:06.25	2.23	21.59	-43.8	-46.8	16.7	0.00e+00	0	43	0	257949696	58	5333
2026-01-07 00:28:06.97	2.15	21.69	-43.7	-46.6	16.9	0.00e+00	0	43	0	260046848	58	5196
2026-01-07 00:28:08.26	2.02	21.85	-43.5	-46.3	17.1	0.00e+00	0	43	0	262144000	58	5019
2026-01-07 00:28:08.98	1.94	21.94	-43.6	-46.4	17.0	0.00e+00	0	43	0	263192576	58	5100
2026-01-07 00:28:10.27	1.81	22.11	-43.6	-46.5	17.0	0.00e+00	0	43	0	265289728	58	5156
2026-01-07 00:28:10.98	1.73	22.21	-43.8	-46.7	16.7	0.00e+00	0	43	0	267386880	58	5278
2026-01-07 00:28:12.27	1.60	22.37	-43.6	-46.6	16.9	0.00e+00	0	43	0	269484032	58	5183
2026-01-07 00:28:12.99	1.52	22.47	-43.7	-46.8	16.8	0.00e+00	0	43	0	270532608	58	5287
2026-01-07 00:28:14.28	1.38	22.64	-43.4	-46.4	17.1	0.00e+00	0	43	0	273678336	58	5061
2026-01-07 00:28:14.99	1.30	22.73	-43.6	-46.5	17.0	0.00e+00	0	43	0	274726912	58	5144
2026-01-07 00:28:16.28	1.16	22.91	-43.5	-46.4	17.1	0.00e+00	0	43	0	276824064	58	5087
2026-01-07 00:28:17.00	1.08	23.00	-43.6	-46.5	17.0	0.00e+00	0	43	0	278921216	58	5139
2026-01-07 00:28:18.29	0.93	23.18	-43.7	-46.7	16.8	0.00e+00	0	43	0	281018368	58	5241
2026-01-07 00:28:19.01	0.85	23.27	-43.6	-46.5	17.0	0.00e+00	0	43	0	282066944	58	5125
2026-01-07 00:28:20.29	0.70	23.45	-43.7	-46.6	16.9	0.00e+00	0	43	0	284164096	58	5167
2026-01-07 00:28:21.01	0.62	23.55	-44.0	-47.0	16.6	0.00e+00	0	43	0	286261248	58	5426
2026-01-07 00:28:22.30	0.47	23.72	-44.0	-47.0	16.6	0.00e+00	0	43	0	288358400	58	5405
2026-01-07 00:28:23.02	0.39	23.82	-44.0	-46.9	16.6	0.00e+00	0	43	0	289406976	58	5385
2026-01-07 00:28:24.31	0.23	24.00	-44.4	-47.5	16.1	0.00e+00	0	43	0	292552704	59	5446
2026-01-07 00:28:25.02	0.15	24.10	-44.4	-47.6	16.0	0.00e+00	0	43	0	293601280	59	5490
2026-01-07 00:28:26.31	359.99	24.28	-44.3	-47.4	16.2	0.00e+00	0	43	0	295698432	59	5352
2026-01-07 00:28:27.09	359.90	24.39	-44.1	-47.1	16.5	0.00e+00	0	43	0	297795584	59	5196
2026-01-07 00:28:28.38	359.74	24.57	-44.3	-47.3	16.3	0.00e+00	0	43	0	299892736	59	5303
2026-01-07 00:28:29.16	359.64	24.68	-44.2	-47.2	16.3	0.00e+00	0	43	0	300941312	59	5267
2026-01-07 00:28:30.66	359.45	24.89	-43.7	-46.5	17.1	0.00e+00	0	43	0	304087040	59	4840
2026-01-07 00:28:31.38	359.36	24.99	-43.7	-46.6	17.0	0.00e+00	0	43	0	305135616	59	4872
2026-01-07 00:28:32.85	359.17	25.21	-43.4	-46.1	17.4	0.00e+00	0	43	0	308281344	58	4908
2026-01-07 00:28:33.56	359.08	25.31	-43.4	-46.2	17.3	0.00e+00	0	43	0	309329920	58	4961
2026-01-07 00:28:34.85	358.91	25.49	-43.4	-46.2	17.3	0.00e+00	0	43	0	311427072	58	4960
2026-01-07 00:28:35.57	358.82	25.60	-43.6	-46.5	17.0	0.00e+00	0	43	0	313524224	58	5155
2026-01-07 00:28:36.86	358.64	25.79	-43.8	-46.8	16.9	0.00e+00	0	43	0	315621376	58	5311
2026-01-07 00:28:37.58	358.55	25.89	-43.6	-46.5	17.0	0.00e+00	0	43	0	316669952	58	5125
2026-01-07 00:28:38.87	358.37	26.08	-43.9	-47.0	16.6	0.00e+00	0	43	0	319815680	58	5404
2026-01-07 00:28:39.58	358.27	26.19	-44.1	-47.1	16.4	0.00e+00	0	43	0	320864256	59	5206
2026-01-07 00:28:40.87	358.09	26.38	-44.3	-47.4	16.2	0.00e+00	0	43	0	322961408	59	5378
2026-01-07 00:28:41.59	357.99	26.49	-44.2	-47.3	16.2	0.00e+00	0	43	0	325058560	59	5327
2026-01-07 00:28:42.87	357.81	26.68	-44.3	-47.4	16.2	0.00e+00	0	43	0	327155712	59	5344
2026-01-07 00:28:43.59	357.71	26.79	-44.3	-47.4	16.2	0.00e+00	0	43	0	328204288	59	5361
2026-01-07 00:28:44.88	357.52	26.98	-44.2	-47.2	16.4	0.00e+00	0	43	0	330301440	59	5224
2026-01-07 00:28:45.60	357.42	27.09	-44.0	-47.0	16.6	0.00e+00	0	43	0	332398592	59	5104
2026-01-07 00:28:46.89	357.23	27.29	-43.6	-46.4	17.1	0.00e+00	0	43	0	334495744	59	4814
2026-01-07 00:28:47.60	357.12	27.39	-43.6	-46.4	17.2	0.00e+00	0	43	0	335544320	58	5094
2026-01-07 00:28:48.89	356.93	27.59	-43.2	-45.9	17.6	0.00e+00	0	43	0	338690048	58	4812
2026-01-07 00:28:49.61	356.82	27.70	-43.4	-46.1	17.5	0.00e+00	0	43	0	339738624	58	4892
2026-01-07 00:28:51.11	356.59	27.94	-43.3	-46.0	17.6	0.00e+00	0	43	0	341835776	58	4820
2026-01-07 00:28:51.82	356.48	28.05	-43.4	-46.1	17.5	0.00e+00	0	43	0	343932928	58	4872
2026-01-07 00:28:53.19	356.27	28.26	-43.9	-46.7	16.8	0.00e+00	0	43	0	346030080	58	5264
2026-01-07 00:28:54.16	356.12	28.41	-43.7	-46.4	17.2	0.00e+00	0	43	0	348127232	58	5072
2026-01-07 00:28:55.48	355.90	28.62	-43.9	-46.7	16.9	0.00e+00	0	43	0	350224384	58	5222
2026-01-07 00:28:56.21	355.79	28.74	-43.8	-46.6	17.1	0.00e+00	0	43	0	352321536	58	5183
2026-01-07 00:28:57.50	355.58	28.94	-43.8	-46.6	17.0	0.00e+00	0	43	0	354418688	58	5187
2026-01-07 00:28:58.22	355.46	29.06	-43.8	-46.6	17.1	0.00e+00	0	43	0	355467264	58	5169
2026-01-07 00:28:59.50	355.24	29.26	-43.9	-46.7	16.9	0.00e+00	0	43	0	358612992	59	4955
2026-01-07 00:29:00.22	355.12	29.38	-43.9	-46.8	16.9	0.00e+00	0	43	0	359661568	59	4997
2026-01-07 00:29:01.51	354.90	29.59	-43.9	-46.8	16.8	0.00e+00	0	43	0	361758720	59	5030
2026-01-07 00:29:02.23	354.78	29.70	-43.9	-46.9	16.7	0.00e+00	0	43	0	362807296	59	5050
2026-01-07 00:29:03.52	354.56	29.91	-44.0	-46.9	16.6	0.00e+00	0	43	0	365953024	59	5097
2026-01-07 00:29:04.23	354.43	30.03	-44.2	-47.2	16.5	0.00e+00	0	43	0	367001600	59	5272
2026-01-07 00:29:05.52	354.20	30.24	-44.3	-47.4	16.2	0.00e+00	0	43	0	369098752	59	5401
2026-01-07 00:29:06.24	354.07	30.36	-44.4	-47.5	16.3	0.00e+00	0	43	0	371195904	59	5453
2026-01-07 00:29:07.53	353.84	30.57	-44.7	-48.0	15.7	0.00e+00	0	43	0	373293056	60	5435
2026-01-07 00:29:08.25	353.71	30.69	-44.8	-48.1	15.5	0.00e+00	0	43	0	374341632	60	5522
2026-01-07 00:29:09.54	353.47	30.91	-44.5	-47.7	16.0	0.00e+00	0	43	0	376438784	60	5256
2026-01-07 00:29:10.25	353.34	31.03	-44.7	-47.9	15.8	0.00e+00	0	43	0	378535936	60	5351
2026-01-07 00:29:11.54	353.09	31.24	-44.7	-47.8	15.9	0.00e+00	0	43	0	380633088	60	5334
2026-01-07 00:29:12.26	352.96	31.36	-44.9	-48.3	15.5	0.00e+00	0	43	0	381681664	61	5285
2026-01-07 00:29:13.54	352.71	31.58	-45.2	-48.6	15.1	0.00e+00	0	43	0	384827392	61	5523
2026-01-07 00:29:14.26	352.57	31.70	-45.2	-48.6	15.3	0.00e+00	0	43	0	385875968	61	5513
2026-01-07 00:29:15.55	352.32	31.92	-45.5	-49.1	14.6	0.00e+00	0	43	0	387973120	62	5510
2026-01-07 00:29:16.27	352.17	32.04	-45.8	-49.7	14.1	7.00e-07	0	44	0	389021696	62	5872
2026-01-07 00:29:17.55	351.92	32.26	-45.4	-49.1	14.7	3.80e-06	0	43	0	392167424	62	5493
2026-01-07 00:29:18.27	351.77	32.39	-45.5	-49.3	14.5	0.00e+00	0	43	0	393216000	62	5615
2026-01-07 00:29:19.69	351.48	32.63	-45.3	-48.9	14.9	0.00e+00	0	43	0	396361728	62	5384
2026-01-07 00:29:20.66	351.27	32.80	-45.0	-48.5	15.2	0.00e+00	0	43	0	397410304	61	5450
2026-01-07 00:29:21.98	351.00	33.03	-45.2	-48.9	14.8	0.00e+00	0	43	0	400556032	61	5713
2026-01-07 00:29:22.70	350.84	33.16	-45.5	-49.4	14.3	4.50e-06	0	43	0	401604608	61	6035
2026-01-07 00:29:23.99	350.56	33.38	-45.4	-49.4	14.4	0.00e+00	0	43	0	403701760	61	6022
2026-01-07 00:29:24.70	350.41	33.51	-45.5	-49.7	14.1	7.00e-07	0	43	0	405798912	61	6237
2026-01-07 00:29:25.99	350.13	33.74	-45.4	-49.6	14.2	1.50e-06	0	43	0	407896064	62	5816
2026-01-07 00:29:26.71	349.96	33.86	-45.3	-49.3	14.5	3.00e-06	0	43	0	408944640	62	5610
2026-01-07 00:29:27.99	349.68	34.09	-45.2	-49.1	14.6	1.50e-06	0	43	0	411041792	62	5514
2026-01-07 00:29:28.71	349.51	34.22	-45.0	-48.7	15.0	0.00e+00	0	43	0	413138944	61	5554
2026-01-07 00:29:30.03	349.21	34.45	-44.9	-48.5	15.2	0.00e+00	0	43	0	415236096	61	5427
2026-01-07 00:29:30.75	349.04	34.58	-44.8	-48.3	15.4	0.00e+00	0	43	0	416284672	61	5291
2026-01-07 00:29:32.04	348.74	34.81	-44.8	-48.2	15.6	0.00e+00	0	43	0	419430400	61	5253
2026-01-07 00:29:32.76	348.56	34.94	-44.7	-48.1	15.6	0.00e+00	0	43	0	420478976	61	5213
2026-01-07 00:29:34.17	348.22	35.20	-44.9	-48.6	15.2	0.00e+00	0	43	0	422576128	61	5467
2026-01-07 00:29:34.89	348.05	35.33	-44.6	-48.1	15.6	0.00e+00	0	43	0	424673280	61	5172
2026-01-07 00:29:36.24	347.71	35.57	-44.8	-48.3	15.5	0.00e+00	0	43	0	426770432	61	5311
2026-01-07 00:29:36.95	347.54	35.70	-44.5	-47.8	15.9	0.00e+00	0	43	0	427819008	61	5020
2026-01-07 00:29:38.24	347.21	35.93	-44.7	-48.0	15.8	0.00e+00	0	43	0	430964736	60	5457
2026-01-07 00:29:38.96	347.03	36.07	-44.6	-47.9	15.8	0.00e+00	0	43	0	432013312	60	5382
2026-01-07 00:29:40.24	346.70	36.30	-44.8	-48.2	15.5	0.00e+00	0	43	0	434110464	60	5578
2026-01-07 00:29:40.96	346.51	36.43	-44.7	-48.1	15.5	0.00e+00	0	43	0	436207616	60	5513
2026-01-07 00:29:42.25	346.17	36.67	-44.7	-48.1	15.6	0.00e+00	0	43	0	438304768	60	5497
2026-01-07 00:29:42.96	345.98	36.80	-44.6	-48.0	15.7	0.00e+00	0	43	0	439353344	60	5463
2026-01-07 00:29:44.26	345.62	37.04	-44.5	-47.8	15.9	0.00e+00	0	43	0	442499072	60	5336
2026-01-07 00:29:45.02	345.42	37.18	-44.7	-48.4	15.3	0.00e+00	0	43	0	443547648	60	5666
2026-01-07 00:29:46.31	345.06	37.42	-45.1	-49.2	14.6	0.00e+00	0	43	0	445644800	60	6238
2026-01-07 00:29:47.12	344.83	37.57	-44.9	-48.8	15.0	0.00e+00	0	43	0	447741952	60	5979
2026-01-07 00:29:48.61	344.41	37.84	-45.3	-49.4	14.4	1.50e-06	0	43	0	449839104	61	6004
2026-01-07 00:29:49.32	344.20	37.97	-45.0	-48.7	15.2	0.00e+00	0	43	0	451936256	61	5576
2026-01-07 00:29:50.62	343.82	38.21	-45.1	-48.7	15.0	7.00e-07	0	43	0	454033408	61	5585
2026-01-07 00:29:51.33	343.62	38.35	-44.9	-48.2	15.5	0.00e+00	0	43	0	455081984	61	5267
2026-01-07 00:29:52.62	343.23	38.59	-45.1	-48.6	15.1	0.00e+00	0	43	0	457179136	61	5475
2026-01-07 00:29:53.34	343.01	38.72	-45.2	-48.9	14.9	0.00e+00	0	44	0	459276288	61	5662
2026-01-07 00:29:54.62	342.62	38.96	-45.6	-49.5	14.4	0.00e+00	0	43	0	461373440	62	5744
2026-01-07 00:29:55.34	342.40	39.09	-45.6	-49.5	14.3	3.00e-06	0	43	0	462422016	62	5762
2026-01-07 00:29:56.63	342.00	39.33	-45.1	-48.7	15.1	0.00e+00	0	43	0	465567744	62	5239
2026-01-07 00:29:57.35	341.77	39.47	-45.0	-48.6	15.2	0.00e+00	0	43	0	466616320	61	5470
2026-01-07 00:29:58.63	341.36	39.71	-44.8	-48.2	15.5	0.00e+00	0	43	0	468713472	61	5269
2026-01-07 00:29:59.35	341.13	39.84	-44.6	-48.0	15.8	0.00e+00	0	43	0	470810624	61	5107
2026-01-07 00:30:00.67	340.70	40.09	-44.6	-48.0	15.9	0.00e+00	0	43	0	472907776	60	5406
2026-01-07 00:30:01.67	340.37	40.27	-44.7	-48.1	15.7	0.00e+00	0	43	0	475004928	60	5507
2026-01-07 00:30:03.00	339.92	40.52	-44.2	-47.5	16.2	0.00e+00	0	43	0	477102080	60	5144
2026-01-07 00:30:03.71	339.68	40.65	-44.4	-47.8	16.0	0.00e+00	0	43	0	478150656	60	5290
2026-01-07 00:30:05.00	339.23	40.89	-44.8	-48.4	15.4	0.00e+00	0	43	0	481296384	60	5673
2026-01-07 00:30:05.72	338.98	41.02	-45.0	-48.7	15.1	0.00e+00	0	43	0	482344960	60	5900
2026-01-07 00:30:07.00	338.53	41.26	-45.6	-49.8	14.0	7.00e-07	0	43	0	484442112	61	6317
2026-01-07 00:30:07.72	338.28	41.39	-45.9	-50.3	13.5	5.30e-06	0	43	0	485490688	62	6308
2026-01-07 00:30:09.01	337.81	41.63	-45.0	-48.8	14.9	1.50e-06	0	44	0	488636416	62	5335
2026-01-07 00:30:09.73	337.55	41.76	-44.8	-48.6	15.2	7.00e-07	0	43	0	489684992	61	5472
2026-01-07 00:30:11.02	337.07	42.00	-44.2	-47.4	16.3	0.00e+00	0	43	0	491782144	60	5094
2026-01-07 00:30:11.73	336.81	42.13	-43.9	-46.9	16.8	0.00e+00	0	43	0	493879296	59	5057
2026-01-07 00:30:13.02	336.32	42.37	-44.1	-47.2	16.4	0.00e+00	0	43	0	495976448	59	5275
2026-01-07 00:30:13.74	336.05	42.50	-44.3	-47.6	16.2	0.00e+00	0	43	0	497025024	59	5471
2026-01-07 00:30:15.02	335.55	42.73	-44.8	-48.5	15.3	0.00e+00	0	43	0	500170752	60	5735
2026-01-07 00:30:15.74	335.27	42.86	-45.4	-49.4	14.5	0.00e+00	0	43	0	501219328	61	6051
2026-01-07 00:30:17.03	334.76	43.09	-46.1	-50.9	13.0	1.06e-05	0	43	0	503316480	62	6743
2026-01-07 00:30:17.75	334.48	43.22	-46.3	-51.1	12.7	8.85e-05	0	43	0	504365056	63	6558
2026-01-07 00:30:19.04	333.96	43.45	-46.2	-51.0	12.9	5.72e-05	0	43	0	507510784	63	6427
2026-01-07 00:30:19.76	333.66	43.58	-46.2	-50.7	13.1	4.27e-05	0	43	0	508559360	63	6213
2026-01-07 00:30:21.05	333.13	43.81	-46.2	-50.5	13.3	3.89e-05	0	43	0	510656512	63	6103
2026-01-07 00:30:21.76	332.83	43.94	-46.2	-50.6	13.2	1.67e-05	0	43	0	512753664	63	6152
2026-01-07 00:30:23.05	332.29	44.16	-46.1	-50.3	13.3	9.90e-06	0	43	0	514850816	63	5989
2026-01-07 00:30:23.77	331.98	44.29	-46.1	-50.4	13.4	1.22e-05	0	43	0	515899392	63	6016
2026-01-07 00:30:25.06	331.42	44.51	-45.6	-49.6	14.2	4.50e-06	0	43	0	517996544	63	5479
2026-01-07 00:30:25.78	331.11	44.64	-45.7	-49.7	14.1	0.00e+00	0	43	0	520093696	62	5908
2026-01-07 00:30:27.06	330.54	44.86	-45.9	-50.2	13.6	1.67e-05	0	43	0	522190848	62	6269
2026-01-07 00:30:27.78	330.22	44.98	-46.2	-50.8	13.0	6.10e-06	0	43	0	523239424	63	6316
2026-01-07 00:30:29.07	329.64	45.20	-45.6	-49.7	14.1	1.52e-05	0	43	0	526385152	63	5590
2026-01-07 00:30:29.96	329.23	45.35	-44.8	-48.3	15.3	7.00e-07	0	43	0	527433728	61	5339
2026-01-07 00:30:31.03	328.74	45.52	-44.2	-47.2	16.5	0.00e+00	0	43	0	529530880	60	4967
2026-01-07 00:30:31.89	328.34	45.67	-43.7	-46.6	17.1	0.00e+00	0	43	0	531628032	59	4874
2026-01-07 00:30:33.03	327.80	45.85	-43.3	-46.0	17.7	0.00e+00	0	43	0	533725184	58	4815
2026-01-07 00:30:33.89	327.39	45.99	-43.4	-46.2	17.5	0.00e+00	0	43	0	534773760	58	4934
2026-01-07 00:30:35.09	326.82	46.18	-44.3	-47.4	16.4	0.00e+00	0	43	0	536870912	59	5359
2026-01-07 00:30:35.95	326.40	46.32	-44.8	-48.2	15.5	0.00e+00	0	43	0	538968064	60	5587
2026-01-07 00:30:37.09	325.84	46.50	-44.5	-47.8	16.0	0.00e+00	0	43	0	541065216	60	5311
2026-01-07 00:30:37.95	325.41	46.63	-44.1	-47.3	16.5	0.00e+00	0	43	0	543162368	60	5008
2026-01-07 00:30:39.10	324.84	46.81	-43.0	-45.6	18.0	0.00e+00	0	43	0	545259520	57	4917
2026-01-07 00:30:39.99	324.38	46.94	-42.4	-44.9	18.6	0.00e+00	0	43	0	546308096	56	4803
2026-01-07 00:30:41.13	323.80	47.11	-42.4	-45.0	18.6	0.00e+00	0	43	0	548405248	56	4834
2026-01-07 00:30:42.10	323.30	47.26	-43.2	-46.0	17.9	0.00e+00	0	43	0	550502400	56	5426
2026-01-07 00:30:43.28	322.69	47.43	-43.7	-46.6	17.1	0.00e+00	0	43	0	552599552	58	5217
2026-01-07 00:30:44.14	322.23	47.55	-44.1	-47.1	16.6	0.00e+00	0	43	0	554696704	58	5487
2026-01-07 00:30:45.49	321.52	47.74	-44.2	-47.3	16.5	0.00e+00	0	43	0	556793856	59	5299
2026-01-07 00:30:46.21	321.13	47.84	-44.2	-47.3	16.5	0.00e+00	0	43	0	557842432	59	5281
2026-01-07 00:30:47.74	320.30	48.05	-44.1	-47.2	16.5	0.00e+00	0	43	0	560988160	59	5226
2026-01-07 00:30:48.46	319.91	48.14	-44.6	-48.1	15.7	0.00e+00	0	43	0	562036736	59	5810
2026-01-07 00:30:49.75	319.19	48.31	-45.9	-50.6	13.2	1.06e-05	0	43	0	565182464	62	6497
2026-01-07 00:30:50.46	318.80	48.40	-45.9	-50.6	13.2	2.74e-05	0	43	0	566231040	62	6501
2026-01-07 00:30:51.75	318.07	48.56	-44.9	-48.6	15.1	0.00e+00	0	43	0	568328192	61	5478
2026-01-07 00:30:52.47	317.67	48.65	-44.5	-47.9	15.8	0.00e+00	0	43	0	569376768	60	5352
2026-01-07 00:30:53.76	316.93	48.81	-43.6	-46.5	17.1	0.00e+00	0	43	0	572522496	59	4856
2026-01-07 00:30:54.48	316.52	48.89	-43.5	-46.5	17.2	0.00e+00	0	44	0	573571072	58	5105
2026-01-07 00:30:55.76	315.78	49.04	-43.5	-46.3	17.3	0.00e+00	0	43	0	575668224	58	5039
2026-01-07 00:30:56.48	315.36	49.12	-43.6	-46.5	17.1	0.00e+00	0	43	0	577765376	58	5144
2026-01-07 00:30:57.77	314.60	49.26	-44.4	-47.8	15.8	0.00e+00	0	43	0	579862528	59	5627
2026-01-07 00:30:58.49	314.17	49.33	-45.2	-49.4	14.4	0.00e+00	0	43	0	580911104	60	6366
2026-01-07 00:30:59.78	313.40	49.47	-46.3	-51.7	12.0	2.44e-04	0	43	0	584056832	63	7017
2026-01-07 00:31:00.50	312.97	49.54	-46.5	-52.1	11.7	2.58e-04	0	43	0	585105408	63	7347
2026-01-07 00:31:01.78	312.20	49.66	-45.4	-49.6	14.1	3.20e-05	0	43	0	587202560	62	5847
2026-01-07 00:31:02.50	311.76	49.73	-45.1	-49.2	14.5	8.30e-06	0	43	0	588251136	62	5539
2026-01-07 00:31:03.79	310.97	49.84	-44.6	-48.4	15.2	0.00e+00	0	43	0	591396864	61	5376
2026-01-07 00:31:04.51	310.53	49.91	-44.5	-48.1	15.5	0.00e+00	0	44	0	592445440	61	5215
2026-01-07 00:31:05.86	309.69	50.02	-43.9	-47.1	16.5	0.00e+00	0	43	0	594542592	59	5188
2026-01-07 00:31:06.58	309.24	50.07	-43.9	-47.1	16.5	0.00e+00	0	43	0	596639744	59	5202
2026-01-07 00:31:07.87	308.44	50.17	-44.4	-47.9	15.8	0.00e+00	0	43	0	598736896	59	5689
2026-01-07 00:31:08.59	307.98	50.22	-45.0	-49.0	14.7	0.00e+00	0	43	0	599785472	60	6123
2026-01-07 00:31:09.88	307.17	50.31	-45.7	-50.6	13.2	2.13e-05	0	43	0	602931200	62	6502
2026-01-07 00:31:10.59	306.72	50.36	-45.5	-50.1	13.7	1.29e-05	0	43	0	603979776	62	6137
2026-01-07 00:31:11.88	305.90	50.44	-44.8	-48.7	14.9	3.00e-06	0	43	0	606076928	61	5537
2026-01-07 00:31:12.60	305.44	50.48	-44.5	-48.3	15.3	0.00e+00	0	43	0	608174080	61	5313
2026-01-07 00:31:13.89	304.61	50.55	-44.2	-47.6	16.0	0.00e+00	0	43	0	610271232	59	5499
2026-01-07 00:31:14.61	304.14	50.58	-43.8	-47.0	16.6	0.00e+00	0	43	0	611319808	59	5125
2026-01-07 00:31:15.90	303.31	50.64	-43.2	-46.1	17.5	0.00e+00	0	43	0	613416960	58	4915
2026-01-07 00:31:16.61	302.85	50.67	-42.5	-45.1	18.3	0.00e+00	0	43	0	615514112	57	4637
2026-01-07 00:31:17.90	302.01	50.72	-42.4	-45.1	18.4	0.00e+00	0	43	0	617611264	56	4882
2026-01-07 00:31:18.62	301.54	50.75	-42.2	-44.7	18.7	0.00e+00	0	43	0	618659840	56	4690
2026-01-07 00:31:19.91	300.70	50.79	-41.9	-44.4	18.9	0.00e+00	0	43	0	621805568	54	5067
2026-01-07 00:31:20.62	300.24	50.81	-42.0	-44.7	18.6	0.00e+00	0	43	0	622854144	54	5225
2026-01-07 00:31:21.91	299.39	50.84	-41.4	-43.8	19.3	0.00e+00	0	43	0	624951296	54	4736
2026-01-07 00:31:22.63	298.92	50.85	-41.1	-43.4	19.7	0.00e+00	0	43	0	625999872	54	4523
2026-01-07 00:31:24.08	297.97	50.87	-40.9	-43.3	19.8	0.00e+00	0	43	0	629145600	52	5002
2026-01-07 00:31:24.80	297.49	50.88	-41.4	-44.0	19.2	0.00e+00	0	43	0	630194176	53	5107
2026-01-07 00:31:26.13	296.62	50.89	-42.1	-44.8	18.5	0.00e+00	0	43	0	633339904	54	5305
2026-01-07 00:31:26.85	296.14	50.89	-42.0	-44.7	18.7	0.00e+00	0	43	0	634388480	54	5219
2026-01-07 00:31:28.17	295.27	50.89	-41.8	-44.4	18.8	0.00e+00	0	43	0	636485632	54	5087
2026-01-07 00:31:28.88	294.81	50.88	-42.4	-45.2	18.1	0.00e+00	0	43	0	638582784	55	5228
2026-01-07 00:31:30.17	293.96	50.87	-43.5	-46.7	16.8	0.00e+00	0	43	0	640679936	57	5578
2026-01-07 00:31:30.89	293.48	50.86	-43.2	-46.2	17.3	0.00e+00	0	43	0	641728512	57	5269
2026-01-07 00:31:32.26	292.58	50.83	-43.1	-46.0	17.5	0.00e+00	0	43	0	644874240	57	5103
2026-01-07 00:31:32.98	292.11	50.82	-42.6	-45.3	18.2	0.00e+00	0	43	0	645922816	57	4720
2026-01-07 00:31:34.26	291.27	50.78	-42.9	-45.7	17.8	0.00e+00	0	43	0	648019968	57	4977
2026-01-07 00:31:34.99	290.80	50.76	-42.9	-45.8	17.9	0.00e+00	0	43	0	650117120	57	5000
2026-01-07 00:31:36.28	289.96	50.72	-42.5	-45.2	18.4	0.00e+00	0	43	0	652214272	56	4927
2026-01-07 00:31:37.00	289.49	50.69	-42.2	-44.7	18.7	0.00e+00	0	43	0	653262848	56	4686
2026-01-07 00:31:38.29	288.65	50.64	-41.8	-44.2	19.1	0.00e+00	0	43	0	655360000	55	4685
2026-01-07 00:31:39.01	288.18	50.60	-42.0	-44.5	18.7	0.00e+00	0	43	0	657457152	55	4868
2026-01-07 00:31:40.30	287.35	50.54	-42.6	-45.3	18.0	0.00e+00	0	43	0	659554304	55	5297
2026-01-07 00:31:41.01	286.90	50.50	-42.2	-44.7	18.5	0.00e+00	0	43	0	660602880	55	4980
2026-01-07 00:31:42.30	286.07	50.43	-42.0	-44.6	18.7	0.00e+00	0	43	0	663748608	55	4875
2026-01-07 00:31:43.02	285.61	50.39	-42.0	-44.6	18.7	0.00e+00	0	43	0	664797184	55	4874
2026-01-07 00:31:44.31	284.79	50.30	-42.2	-44.7	18.5	0.00e+00	0	43	0	666894336	55	4975
2026-01-07 00:31:45.02	284.34	50.25	-42.6	-45.3	18.1	0.00e+00	0	43	0	667942912	55	5309
2026-01-07 00:31:46.31	283.53	50.16	-42.7	-45.4	18.1	0.00e+00	0	43	0	671088640	56	5087
2026-01-07 00:31:47.03	283.08	50.11	-42.9	-45.7	17.8	0.00e+00	0	43	0	672137216	56	5238
2026-01-07 00:31:48.32	282.27	50.01	-42.2	-44.8	18.6	0.00e+00	0	43	0	674234368	56	4750
2026-01-07 00:31:49.03	281.83	49.95	-42.7	-45.6	18.0	0.00e+00	0	43	0	676331520	56	5165
2026-01-07 00:31:50.32	281.04	49.84	-42.8	-45.7	17.8	0.00e+00	0	43	0	678428672	56	5262
2026-01-07 00:31:51.04	280.60	49.77	-43.1	-46.0	17.5	0.00e+00	0	44	0	679477248	56	5442
2026-01-07 00:31:52.33	279.81	49.65	-43.4	-46.5	17.0	0.00e+00	0	43	0	681574400	57	5423
2026-01-07 00:31:53.04	279.38	49.59	-43.6	-46.7	16.9	0.00e+00	0	43	0	683671552	58	5263
2026-01-07 00:31:54.33	278.61	49.46	-43.5	-46.5	17.2	0.00e+00	0	44	0	685768704	58	5130
2026-01-07 00:31:55.05	278.17	49.39	-43.5	-46.5	17.2	0.00e+00	0	44	0	686817280	58	5105
2026-01-07 00:31:56.34	277.41	49.25	-43.9	-47.0	16.8	0.00e+00	0	43	0	689963008	58	5406
2026-01-07 00:31:57.18	276.91	49.16	-43.7	-46.8	17.0	0.00e+00	0	44	0	691011584	58	5290
2026-01-07 00:31:58.64	276.06	49.00	-43.6	-46.5	17.2	0.00e+00	0	43	0	694157312	58	5157
2026-01-07 00:31:59.36	275.64	48.91	-43.9	-47.0	16.7	0.00e+00	0	44	0	695205888	58	5424
2026-01-07 00:32:00.65	274.90	48.76	-45.3	-49.3	14.5	0.00e+00	0	44	0	697303040	61	5956
2026-01-07 00:32:01.36	274.49	48.68	-45.4	-49.4	14.5	7.00e-07	0	43	0	699400192	61	6050
2026-01-07 00:32:02.65	273.76	48.52	-44.7	-48.1	15.5	0.00e+00	0	43	0	701497344	60	5522
2026-01-07 00:32:03.37	273.36	48.43	-44.5	-47.8	16.0	0.00e+00	0	44	0	702545920	60	5310
2026-01-07 00:32:04.66	272.64	48.26	-44.0	-47.0	16.6	0.00e+00	0	43	0	705691648	59	5158
2026-01-07 00:32:05.38	272.24	48.17	-44.8	-48.4	15.4	0.00e+00	0	43	0	706740224	60	5657
2026-01-07 00:32:06.68	271.53	47.99	-45.4	-49.5	14.4	7.00e-07	0	43	0	708837376	61	6082
2026-01-07 00:32:07.39	271.14	47.90	-45.3	-49.2	14.6	1.50e-06	0	43	0	709885952	61	5921
2026-01-07 00:32:08.68	270.45	47.72	-44.5	-48.1	15.7	0.00e+00	0	43	0	713031680	60	5470
2026-01-07 00:32:09.59	269.96	47.59	-44.2	-47.5	16.2	0.00e+00	0	43	0	714080256	60	5159
2026-01-07 00:32:10.91	269.27	47.40	-44.6	-48.1	15.6	0.00e+00	0	43	0	717225984	60	5526
2026-01-07 00:32:11.66	268.88	47.29	-44.5	-47.8	16.0	0.00e+00	0	43	0	718274560	60	5312
2026-01-07 00:32:13.27	268.04	47.06	-44.1	-47.3	16.4	0.00e+00	0	43	0	721420288	60	5005
2026-01-07 00:32:13.84	267.75	46.97	-44.2	-47.4	16.3	0.00e+00	0	43	0	722468864	60	5084
2026-01-07 00:32:15.48	266.92	46.72	-44.5	-48.1	15.5	0.00e+00	0	44	0	725614592	60	5474
2026-01-07 00:32:16.06	266.63	46.63	-44.6	-48.2	15.3	0.00e+00	0	43	0	726663168	60	5570
2026-01-07 00:32:17.63	265.85	46.39	-44.1	-47.3	16.4	0.00e+00	0	43	0	729808896	60	5018
2026-01-07 00:32:18.21	265.57	46.29	-43.9	-46.9	16.9	0.00e+00	0	43	0	730857472	59	5079
2026-01-07 00:32:19.80	264.80	46.04	-43.8	-46.8	16.9	0.00e+00	0	44	0	734003200	59	5011
2026-01-07 00:32:20.37	264.53	45.95	-43.7	-46.7	17.0	0.00e+00	0	43	0	735051776	59	4927
2026-01-07 00:32:21.95	263.78	45.69	-43.7	-46.6	17.0	0.00e+00	0	43	0	738197504	59	4924
2026-01-07 00:32:22.58	263.48	45.59	-43.7	-46.6	17.0	0.00e+00	0	43	0	739246080	59	4911
2026-01-07 00:32:24.03	262.81	45.35	-44.0	-47.1	16.6	0.00e+00	0	43	0	741343232	59	5210
2026-01-07 00:32:24.75	262.48	45.22	-44.5	-47.8	15.9	0.00e+00	0	43	0	743440384	59	5641
2026-01-07 00:32:26.28	261.79	44.97	-45.0	-48.2	15.5	0.00e+00	0	43	0	745537536	61	5248
2026-01-07 00:32:26.99	261.47	44.84	-44.8	-47.9	16.0	0.00e+00	0	43	0	747634688	61	5053
2026-01-07 00:32:28.28	260.90	44.62	-44.1	-46.9	16.9	0.00e+00	0	43	0	749731840	60	4771
2026-01-07 00:32:29.00	260.58	44.50	-44.4	-47.2	16.6	0.00e+00	0	43	0	750780416	59	5251
2026-01-07 00:32:30.29	260.02	44.27	-45.4	-48.8	15.1	0.00e+00	0	43	0	752877568	61	5623
2026-01-07 00:32:31.01	259.72	44.15	-46.1	-50.0	14.0	0.00e+00	0	43	0	754974720	62	6080
2026-01-07 00:32:32.30	259.17	43.92	-45.5	-48.8	15.1	0.00e+00	0	43	0	757071872	62	5335
2026-01-07 00:32:33.01	258.87	43.79	-45.2	-48.4	15.5	7.00e-07	0	43	0	758120448	62	5058
2026-01-07 00:32:34.30	258.34	43.56	-44.6	-47.6	16.3	0.00e+00	0	43	0	761266176	61	4916
2026-01-07 00:32:35.08	258.02	43.42	-44.7	-47.7	16.2	0.00e+00	0	43	0	762314752	60	5274
2026-01-07 00:32:36.69	257.37	43.14	-44.3	-47.2	16.6	0.00e+00	0	43	0	765460480	60	4957
2026-01-07 00:32:37.27	257.14	43.03	-44.0	-46.7	17.1	0.00e+00	0	43	0	766509056	59	4936
2026-01-07 00:32:39.04	256.44	42.71	-43.3	-45.7	17.9	0.00e+00	0	43	0	769654784	58	4701
2026-01-07 00:32:39.61	256.22	42.61	-43.4	-45.9	17.9	0.00e+00	0	43	0	770703360	58	4811
2026-01-07 00:32:41.22	255.60	42.31	-44.0	-46.7	17.1	0.00e+00	0	43	0	773849088	58	5229
2026-01-07 00:32:41.79	255.38	42.21	-43.6	-46.2	17.6	0.00e+00	0	43	0	774897664	58	4950
2026-01-07 00:32:43.37	254.79	41.92	-43.9	-46.6	17.2	0.00e+00	0	43	0	778043392	58	5190
2026-01-07 00:32:43.99	254.56	41.80	-43.8	-46.4	17.4	0.00e+00	0	43	0	779091968	58	5087
2026-01-07 00:32:45.56	253.99	41.51	-44.0	-46.6	17.2	0.00e+00	0	43	0	782237696	58	5199
2026-01-07 00:32:46.18	253.77	41.40	-44.1	-46.8	17.0	0.00e+00	0	43	0	783286272	58	5314
2026-01-07 00:32:47.75	253.21	41.11	-45.0	-48.0	15.8	0.00e+00	0	43	0	786432000	61	5151
2026-01-07 00:32:48.37	252.99	40.99	-45.4	-48.7	15.2	0.00e+00	0	43	0	787480576	61	5563
2026-01-07 00:32:49.94	252.45	40.70	-46.3	-50.4	13.5	9.90e-06	0	44	0	790626304	63	5999
2026-01-07 00:32:50.53	252.24	40.59	-46.3	-50.3	13.5	1.06e-05	0	43	0	791674880	63	5958
2026-01-07 00:32:52.11	251.71	40.29	-45.4	-48.7	15.2	7.00e-07	0	43	0	793772032	62	5255
2026-01-07 00:32:53.06	251.39	40.12	-45.0	-48.1	15.7	0.00e+00	0	44	0	795869184	62	4921
2026-01-07 00:32:54.07	251.06	39.93	-45.1	-48.2	15.7	0.00e+00	0	43	0	797966336	61	5226
2026-01-07 00:32:55.53	250.58	39.65	-44.6	-47.5	16.4	0.00e+00	0	43	0	801112064	60	5104
2026-01-07 00:32:56.25	250.35	39.52	-44.1	-46.8	17.0	0.00e+00	0	43	0	802160640	60	4725
2026-01-07 00:32:57.54	249.94	39.28	-44.8	-47.9	16.0	0.00e+00	0	43	0	804257792	60	5357
2026-01-07 00:32:58.26	249.72	39.14	-44.7	-47.6	16.1	0.00e+00	0	43	0	805306368	60	5204
2026-01-07 00:32:59.55	249.32	38.90	-45.4	-48.8	15.1	0.00e+00	0	44	0	808452096	61	5617
2026-01-07 00:33:00.26	249.10	38.77	-45.4	-48.7	15.2	0.00e+00	0	43	0	809500672	61	5543
2026-01-07 00:33:01.55	248.71	38.53	-45.5	-48.8	15.0	0.00e+00	0	44	0	811597824	61	5636
2026-01-07 00:33:02.27	248.49	38.39	-44.9	-47.9	16.0	0.00e+00	0	43	0	813694976	61	5081
2026-01-07 00:33:03.56	248.11	38.15	-44.6	-47.6	16.1	0.00e+00	0	43	0	815792128	60	5161
2026-01-07 00:33:04.28	247.90	38.02	-44.4	-47.3	16.5	0.00e+00	0	43	0	816840704	60	5005
2026-01-07 00:33:05.57	247.53	37.78	-44.5	-47.5	16.4	0.00e+00	0	43	0	818937856	60	5129
2026-01-07 00:33:06.28	247.32	37.65	-44.9	-48.0	15.8	0.00e+00	0	44	0	821035008	60	5461
2026-01-07 00:33:07.78	246.90	37.37	-46.0	-49.8	14.0	7.00e-07	0	43	0	823132160	63	5608
2026-01-07 00:33:08.50	246.70	37.24	-46.1	-49.9	13.9	7.00e-07	0	43	0	825229312	63	5719
2026-01-07 00:33:09.85	246.33	36.99	-45.8	-49.5	14.5	7.00e-07	0	44	0	827326464	63	5423
2026-01-07 00:33:10.57	246.13	36.85	-45.7	-49.3	14.6	1.50e-06	0	44	0	828375040	63	5295
2026-01-07 00:33:11.85	245.79	36.62	-46.3	-50.2	13.8	1.50e-06	0	44	0	831520768	63	5857
2026-01-07 00:33:12.57	245.60	36.48	-46.7	-50.9	12.9	1.14e-05	0	43	0	832569344	64	6058
2026-01-07 00:33:13.86	245.26	36.25	-47.5	-52.8	11.0	1.28e-03	0	43	0	834666496	65	7041
2026-01-07 00:33:14.58	245.07	36.11	-47.6	-53.1	10.5	4.14e-03	0	43	0	836763648	66	6948
2026-01-07 00:33:15.87	244.74	35.88	-46.4	-50.4	13.3	1.13e-04	0	43	0	838860800	64	5705
2026-01-07 00:33:16.59	244.56	35.75	-45.7	-49.2	14.6	5.30e-06	0	44	0	839909376	63	5265
2026-01-07 00:33:17.87	244.23	35.51	-45.2	-48.5	15.4	0.00e+00	0	43	0	842006528	62	5110
2026-01-07 00:33:18.59	244.05	35.38	-44.8	-47.9	16.0	0.00e+00	0	43	0	844103680	61	5050
2026-01-07 00:33:19.88	243.74	35.15	-44.7	-47.6	16.2	0.00e+00	0	43	0	846200832	60	5211
2026-01-07 00:33:20.72	243.53	35.00	-44.5	-47.4	16.3	0.00e+00	0	43	0	848297984	60	5091
2026-01-07 00:33:21.87	243.26	34.79	-44.6	-47.5	16.4	0.00e+00	0	43	0	850395136	60	5114
2026-01-07 00:33:22.73	243.05	34.63	-44.5	-47.3	16.5	0.00e+00	0	44	0	851443712	60	5003
2026-01-07 00:33:23.88	242.78	34.43	-44.7	-47.6	16.1	0.00e+00	0	43	0	853540864	60	5215
2026-01-07 00:33:24.74	242.58	34.27	-44.7	-47.7	16.2	0.00e+00	0	43	0	855638016	60	5236
2026-01-07 00:33:25.88	242.32	34.07	-44.3	-47.0	16.8	0.00e+00	0	43	0	857735168	60	4849
2026-01-07 00:33:26.74	242.13	33.92	-44.3	-47.1	16.9	0.00e+00	0	44	0	858783744	60	4882
2026-01-07 00:33:27.90	241.86	33.71	-44.1	-46.8	16.9	0.00e+00	0	43	0	860880896	59	4989
2026-01-07 00:33:28.76	241.67	33.56	-44.7	-47.6	16.2	0.00e+00	0	43	0	862978048	60	5178
2026-01-07 00:33:29.97	241.41	33.34	-45.5	-48.8	15.0	0.00e+00	0	43	0	865075200	61	5625
2026-01-07 00:33:30.83	241.22	33.19	-46.0	-49.6	14.3	7.00e-07	0	43	0	867172352	62	5835
2026-01-07 00:33:32.04	240.96	32.98	-45.7	-49.2	14.6	0.00e+00	0	43	0	869269504	62	5541
2026-01-07 00:33:32.90	240.78	32.83	-45.6	-49.1	14.9	0.00e+00	0	44	0	870318080	62	5488
2026-01-07 00:33:34.11	240.52	32.62	-45.3	-48.6	15.2	0.00e+00	0	43	0	873463808	62	5212
2026-01-07 00:33:34.97	240.35	32.47	-45.0	-48.2	15.6	0.00e+00	0	43	0	874512384	62	4963
2026-01-07 00:33:36.11	240.11	32.27	-44.7	-47.8	16.0	0.00e+00	0	43	0	876609536	61	5028
2026-01-07 00:33:36.97	239.94	32.12	-45.1	-48.4	15.4	0.00e+00	0	43	0	878706688	61	5377
2026-01-07 00:33:38.12	239.71	31.93	-44.8	-47.9	15.9	0.00e+00	0	43	0	880803840	61	5048
2026-01-07 00:33:39.03	239.52	31.77	-44.5	-47.5	16.3	0.00e+00	0	43	0	881852416	61	4820
2026-01-07 00:33:40.03	239.33	31.60	-44.4	-47.3	16.5	0.00e+00	0	44	0	883949568	60	5030
2026-01-07 00:33:41.03	239.13	31.43	-45.0	-48.2	15.6	0.00e+00	0	43	0	886046720	60	5544
2026-01-07 00:33:42.04	238.94	31.26	-45.5	-48.9	14.9	0.00e+00	0	44	0	888143872	61	5678
2026-01-07 00:33:43.04	238.75	31.09	-46.3	-50.3	13.5	7.00e-07	0	43	0	890241024	63	5956
2026-01-07 00:33:44.04	238.56	30.92	-46.7	-51.2	12.6	2.74e-05	0	43	0	891289600	64	6216
2026-01-07 00:33:45.04	238.37	30.75	-46.7	-51.1	12.5	9.91e-05	0	43	0	893386752	64	6158
2026-01-07 00:33:46.05	238.19	30.58	-46.6	-50.9	12.8	7.70e-05	0	43	0	895483904	64	6057
2026-01-07 00:33:47.04	238.00	30.42	-46.2	-50.0	13.7	9.90e-06	0	43	0	897581056	63	5776
2026-01-07 00:33:48.05	237.82	30.25	-45.3	-48.6	15.2	0.00e+00	0	43	0	898629632	62	5192
2026-01-07 00:33:49.05	237.64	30.09	-44.8	-47.8	15.9	0.00e+00	0	43	0	900726784	61	5027
2026-01-07 00:33:50.05	237.47	29.92	-44.3	-47.2	16.5	0.00e+00	0	43	0	902823936	60	4971
2026-01-07 00:33:51.06	237.29	29.76	-43.8	-46.5	17.1	0.00e+00	0	43	0	904921088	59	4839
2026-01-07 00:33:52.06	237.11	29.59	-44.1	-46.9	16.9	0.00e+00	0	43	0	907018240	59	5052
2026-01-07 00:33:53.06	236.94	29.43	-43.8	-46.5	17.2	0.00e+00	0	43	0	908066816	59	4844
2026-01-07 00:33:54.07	236.77	29.27	-44.0	-46.7	16.9	0.00e+00	0	44	0	910163968	59	4981
2026-01-07 00:33:55.07	236.60	29.11	-44.5	-47.5	16.2	0.00e+00	0	43	0	912261120	60	5141
2026-01-07 00:33:56.07	236.44	28.94	-45.3	-48.8	15.0	0.00e+00	0	43	0	914358272	61	5620
2026-01-07 00:33:57.08	236.27	28.78	-45.7	-49.4	14.3	7.00e-07	0	43	0	916455424	62	5712
2026-01-07 00:33:58.08	236.11	28.62	-45.8	-49.4	14.4	0.00e+00	0	43	0	917504000	62	5712
2026-01-07 00:33:59.08	235.94	28.47	-45.5	-48.9	14.9	7.00e-07	0	43	0	919601152	62	5397
2026-01-07 00:34:00.09	235.78	28.31	-44.7	-47.7	16.1	0.00e+00	0	44	0	921698304	61	4976
2026-01-07 00:34:01.09	235.62	28.15	-44.2	-47.0	16.7	0.00e+00	0	43	0	923795456	60	4863
2026-01-07 00:34:02.09	235.47	27.99	-44.0	-46.7	17.0	0.00e+00	0	43	0	925892608	59	4973
2026-01-07 00:34:03.09	235.31	27.84	-43.9	-46.6	17.0	0.00e+00	0	43	0	926941184	59	4925
2026-01-07 00:34:04.10	235.16	27.68	-43.9	-46.6	17.1	0.00e+00	0	43	0	929038336	59	4873
2026-01-07 00:34:05.19	234.99	27.51	-44.2	-47.0	16.7	0.00e+00	0	44	0	931135488	59	5114
2026-01-07 00:34:06.05	234.86	27.38	-43.8	-46.5	17.2	0.00e+00	0	44	0	933232640	59	4848
2026-01-07 00:34:07.20	234.69	27.20	-44.1	-46.9	16.7	0.00e+00	0	43	0	935329792	59	5071
2026-01-07 00:34:08.05	234.56	27.07	-44.3	-47.1	16.6	0.00e+00	0	43	0	936378368	59	5167
2026-01-07 00:34:09.20	234.39	26.89	-44.2	-47.0	16.6	0.00e+00	0	44	0	938475520	59	5142
2026-01-07 00:34:10.06	234.27	26.76	-44.0	-46.8	16.9	0.00e+00	0	43	0	940572672	59	4991
2026-01-07 00:34:11.21	234.10	26.59	-43.8	-46.4	17.2	0.00e+00	0	43	0	942669824	59	4797
2026-01-07 00:34:12.07	233.98	26.46	-43.5	-46.0	17.6	0.00e+00	0	44	0	943718400	58	4841
2026-01-07 00:34:13.22	233.82	26.29	-43.2	-45.7	17.9	0.00e+00	0	44	0	945815552	58	4663
2026-01-07 00:34:14.07	233.70	26.16	-43.3	-45.9	17.7	0.00e+00	0	44	0	947912704	58	4773
2026-01-07 00:34:15.22	233.54	25.99	-43.5	-46.1	17.5	0.00e+00	0	43	0	950009856	58	4877
2026-01-07 00:34:16.08	233.42	25.87	-44.1	-46.9	16.8	0.00e+00	0	43	0	952107008	58	5351
2026-01-07 00:34:17.23	233.27	25.70	-44.4	-47.3	16.4	0.00e+00	0	44	0	954204160	59	5329
2026-01-07 00:34:18.09	233.15	25.57	-44.9	-48.0	15.7	0.00e+00	0	44	0	955252736	60	5454
2026-01-07 00:34:19.23	233.00	25.40	-45.0	-48.3	15.5	0.00e+00	0	43	0	957349888	60	5593
2026-01-07 00:34:20.09	232.89	25.28	-45.0	-48.3	15.4	0.00e+00	0	44	0	959447040	61	5290
2026-01-07 00:34:21.41	232.72	25.09	-44.9	-48.1	15.7	0.00e+00	0	44	0	961544192	61	5185
2026-01-07 00:34:22.13	232.62	24.98	-44.8	-47.9	15.8	0.00e+00	0	44	0	962592768	61	5073
2026-01-07 00:34:23.42	232.46	24.80	-44.6	-47.6	16.0	0.00e+00	0	43	0	965738496	61	4923
2026-01-07 00:34:24.13	232.37	24.70	-44.3	-47.2	16.5	0.00e+00	0	43	0	966787072	60	4953
2026-01-07 00:34:25.70	232.17	24.48	-44.3	-47.2	16.5	0.00e+00	0	43	0	969932800	60	4939
2026-01-07 00:34:26.68	232.05	24.34	-44.3	-47.2	16.5	0.00e+00	0	43	0	970981376	60	4941
2026-01-07 00:34:28.00	231.89	24.15	-44.1	-47.0	16.7	0.00e+00	0	43	0	974127104	60	4824
2026-01-07 00:34:28.72	231.80	24.05	-44.2	-47.1	16.6	0.00e+00	0	43	0	975175680	60	4874
2026-01-07 00:34:30.01	231.64	23.87	-43.9	-46.6	17.0	0.00e+00	0	43	0	977272832	59	4916
2026-01-07 00:34:30.72	231.56	23.77	-43.8	-46.5	17.1	0.00e+00	0	43	0	979369984	59	4849
2026-01-07 00:34:32.01	231.41	23.59	-43.7	-46.4	17.2	0.00e+00	0	43	0	981467136	59	4783
2026-01-07 00:34:32.73	231.32	23.50	-43.7	-46.4	17.2	0.00e+00	0	43	0	982515712	59	4787
2026-01-07 00:34:34.02	231.17	23.32	-43.8	-46.6	17.0	0.00e+00	0	43	0	985661440	59	4889
2026-01-07 00:34:34.74	231.09	23.22	-44.1	-46.9	16.7	0.00e+00	0	43	0	986710016	59	5084
2026-01-07 00:34:36.03	230.94	23.05	-44.3	-47.2	16.4	0.00e+00	0	43	0	988807168	59	5263
2026-01-07 00:34:36.74	230.86	22.95	-44.4	-47.3	16.4	0.00e+00	0	44	0	990904320	59	5307
2026-01-07 00:34:38.18	230.70	22.76	-44.3	-47.2	16.5	0.00e+00	0	43	0	993001472	59	5224
2026-01-07 00:34:38.89	230.62	22.66	-44.2	-47.2	16.5	0.00e+00	0	43	0	994050048	59	5219
2026-01-07 00:34:40.25	230.47	22.48	-44.0	-46.7	16.9	0.00e+00	0	43	0	997195776	59	4965
2026-01-07 00:34:40.97	230.39	22.38	-43.8	-46.5	17.1	0.00e+00	0	44	0	998244352	59	4846
2026-01-07 00:34:42.26	230.25	22.21	-43.7	-46.4	17.2	0.00e+00	0	43	0	1000341504	59	4773
2026-01-07 00:34:42.97	230.18	22.12	-43.8	-46.5	17.1	0.00e+00	0	43	0	1002438656	59	4853
2026-01-07 00:34:44.26	230.04	21.95	-44.0	-46.7	16.9	0.00e+00	0	44	0	1004535808	59	4976
2026-01-07 00:34:44.97	229.96	21.86	-44.1	-46.9	16.8	0.00e+00	0	44	0	1005584384	59	5056
2026-01-07 00:34:46.26	229.83	21.69	-44.6	-47.6	16.1	0.00e+00	0	43	0	1008730112	59	5472
2026-01-07 00:34:46.98	229.75	21.60	-44.8	-47.9	15.8	0.00e+00	0	44	0	1009778688	60	5399
2026-01-07 00:34:48.27	229.62	21.43	-45.3	-48.7	15.1	0.00e+00	0	43	0	1011875840	61	5531
2026-01-07 00:34:49.08	229.54	21.33	-45.4	-48.8	14.9	7.00e-07	0	43	0	1013972992	61	5643
2026-01-07 00:34:50.54	229.39	21.14	-45.3	-48.7	14.9	7.00e-07	0	43	0	1016070144	61	5568
2026-01-07 00:34:51.26	229.32	21.05	-45.2	-48.5	15.2	0.00e+00	0	44	0	1017118720	61	5463
2026-01-07 00:34:52.74	229.17	20.86	-45.0	-48.2	15.4	0.00e+00	0	44	0	1020264448	61	5260
2026-01-07 00:34:53.46	229.10	20.77	-44.7	-47.8	15.8	0.00e+00	0	43	0	1021313024	61	5027
2026-01-07 00:34:54.79	228.97	20.61	-44.6	-47.7	16.0	0.00e+00	0	43	0	1024458752	61	4932
2026-01-07 00:34:55.51	228.90	20.52	-44.5	-47.4	16.2	0.00e+00	0	43	0	1025507328	60	5080
2026-01-07 00:34:56.80	228.78	20.36	-44.6	-47.6	15.9	0.00e+00	0	44	0	1027604480	60	5213
2026-01-07 00:34:57.52	228.71	20.27	-44.5	-47.4	16.2	0.00e+00	0	44	0	1029701632	60	5090
2026-01-07 00:34:58.81	228.59	20.11	-44.5	-47.5	16.1	0.00e+00	0	44	0	1031798784	60	5156
2026-01-07 00:34:59.52	228.52	20.02	-44.7	-47.8	15.8	0.00e+00	0	44	0	1032847360	60	5325
2026-01-07 00:35:00.81	228.40	19.87	-44.6	-47.6	16.1	0.00e+00	0	44	0	1035993088	60	5198
2026-01-07 00:35:01.53	228.34	19.78	-44.6	-47.6	16.0	0.00e+00	0	44	0	1037041664	60	5212
2026-01-07 00:35:02.82	228.22	19.62	-44.5	-47.6	16.1	0.00e+00	0	44	0	1039138816	60	5182
2026-01-07 00:35:03.54	228.16	19.54	-44.5	-47.5	16.0	0.00e+00	0	43	0	1040187392	60	5129
2026-01-07 00:35:04.83	228.04	19.38	-44.5	-47.5	16.1	0.00e+00	0	44	0	1043333120	60	5158
2026-01-07 00:35:05.54	227.98	19.30	-44.6	-47.6	16.0	0.00e+00	0	44	0	1044381696	60	5208
2026-01-07 00:35:06.83	227.86	19.14	-44.5	-47.6	16.1	0.00e+00	0	43	0	1046478848	60	5165
2026-01-07 00:35:07.55	227.80	19.06	-44.5	-47.5	16.1	0.00e+00	0	44	0	1048576000	60	5118
2026-01-07 00:35:08.84	227.69	18.91	-44.6	-47.7	16.0	0.00e+00	0	43	0	1050673152	60	5258
2026-01-07 00:35:09.56	227.63	18.82	-44.6	-47.7	15.9	0.00e+00	0	43	0	1051721728	60	5219
2026-01-07 00:35:10.85	227.52	18.67	-44.6	-47.7	16.0	0.00e+00	0	44	0	1054867456	60	5226
2026-01-07 00:35:11.56	227.46	18.59	-44.5	-47.6	15.9	0.00e+00	0	44	0	1055916032	60	5197
2026-01-07 00:35:12.85	227.35	18.44	-44.6	-47.7	15.9	0.00e+00	0	43	0	1058013184	60	5229
2026-01-07 00:35:13.57	227.29	18.35	-44.5	-47.6	16.0	0.00e+00	0	43	0	1059061760	60	5177
2026-01-07 00:35:14.86	227.18	18.21	-44.3	-47.2	16.4	0.00e+00	0	44	0	1062207488	60	4968
2026-01-07 00:35:15.57	227.12	18.13	-44.2	-47.1	16.4	0.00e+00	0	43	0	1063256064	60	4924
2026-01-07 00:35:16.86	227.02	17.98	-44.2	-47.1	16.5	0.00e+00	0	44	0	1065353216	60	4905
2026-01-07 00:35:17.68	226.95	17.88	-44.3	-47.3	16.2	0.00e+00	0	44	0	1067450368	60	5025
2026-01-07 00:35:19.14	226.83	17.72	-44.2	-47.1	16.4	0.00e+00	0	44	0	1069547520	60	4906
2026-01-07 00:35:19.86	226.78	17.64	-44.6	-47.7	15.9	0.00e+00	0	43	0	1071644672	60	5247
2026-01-07 00:35:21.14	226.68	17.50	-44.5	-47.6	16.0	0.00e+00	0	44	0	1073741824	60	5171
2026-01-07 00:35:21.86	226.62	17.41	-44.5	-47.6	16.0	0.00e+00	0	44	0	1074790400	60	5161
2026-01-07 00:35:23.15	226.52	17.27	-44.6	-47.7	15.9	0.00e+00	0	43	0	1077936128	60	5228
2026-01-07 00:35:23.87	226.46	17.19	-44.7	-47.9	15.7	0.00e+00	0	44	0	1078984704	60	5349
2026-01-07 00:35:25.16	226.37	17.05	-44.7	-47.9	15.7	0.00e+00	0	44	0	1081081856	60	5352
2026-01-07 00:35:25.88	226.31	16.97	-44.6	-47.6	15.9	0.00e+00	0	44	0	1082130432	60	5204
2026-01-07 00:35:27.16	226.21	16.83	-44.8	-48.0	15.6	0.00e+00	0	44	0	1085276160	60	5434
2026-01-07 00:35:27.88	226.16	16.75	-44.5	-47.6	15.9	0.00e+00	0	44	0	1086324736	60	5169
2026-01-07 00:35:29.18	226.06	16.61	-44.5	-47.6	15.9	0.00e+00	0	43	0	1088421888	60	5181
2026-01-07 00:35:30.19	225.99	16.50	-44.4	-47.4	16.1	0.00e+00	0	43	0	1090519040	60	5045
2026-01-07 00:35:31.51	225.89	16.36	-44.2	-47.2	16.3	0.00e+00	0	44	0	1092616192	60	4934
2026-01-07 00:35:32.22	225.84	16.28	-44.2	-47.0	16.4	0.00e+00	0	43	0	1094713344	60	4864
2026-01-07 00:35:33.86	225.72	16.11	-43.8	-46.6	16.8	0.00e+00	0	44	0	1097859072	59	4898
2026-01-07 00:35:34.44	225.68	16.05	-43.7	-46.5	17.0	0.00e+00	0	44	0	1098907648	59	4817
2026-01-07 00:35:36.01	225.57	15.88	-43.6	-46.3	17.1	0.00e+00	0	44	0	1101004800	59	4727
2026-01-07 00:35:36.59	225.53	15.82	-43.6	-46.3	17.1	0.00e+00	0	43	0	1103101952	59	4710
2026-01-07 00:35:38.17	225.42	15.65	-43.5	-46.2	17.2	0.00e+00	0	43	0	1105199104	59	4668
2026-01-07 00:35:38.95	225.37	15.57	-43.7	-46.5	16.9	0.00e+00	0	43	0	1107296256	59	4826
2026-01-07 00:35:40.24	225.28	15.44	-43.7	-46.4	17.0	0.00e+00	0	43	0	1109393408	59	4772
2026-01-07 00:35:40.95	225.23	15.37	-43.8	-46.6	16.8	0.00e+00	0	43	0	1110441984	59	4905
2026-01-07 00:35:42.24	225.14	15.23	-43.8	-46.6	16.8	0.00e+00	0	43	0	1113587712	59	4901
2026-01-07 00:35:42.96	225.10	15.16	-43.9	-46.7	16.7	0.00e+00	0	44	0	1114636288	59	4947
2026-01-07 00:35:44.27	225.01	15.02	-44.1	-47.0	16.4	0.00e+00	0	44	0	1116733440	59	5123
2026-01-07 00:35:44.98	224.96	14.95	-44.1	-47.0	16.5	0.00e+00	0	44	0	1117782016	59	5108
2026-01-07 00:35:46.27	224.88	14.82	-44.3	-47.2	16.2	0.00e+00	0	43	0	1120927744	59	5269
2026-01-07 00:35:46.99	224.83	14.75	-44.4	-47.3	16.1	0.00e+00	0	43	0	1121976320	59	5324
2026-01-07 00:35:48.28	224.75	14.62	-44.5	-47.5	15.9	0.00e+00	0	43	0	1124073472	59	5428
2026-01-07 00:35:49.00	224.70	14.55	-44.5	-47.5	15.9	0.00e+00	0	43	0	1126170624	59	5453
2026-01-07 00:35:50.29	224.62	14.42	-44.6	-47.6	15.8	0.00e+00	0	43	0	1128267776	60	5207
2026-01-07 00:35:51.00	224.57	14.35	-44.6	-47.6	15.8	0.00e+00	0	43	0	1129316352	60	5218
2026-01-07 00:35:52.29	224.49	14.22	-44.7	-47.8	15.7	0.00e+00	0	44	0	1132462080	60	5305
2026-01-07 00:35:53.01	224.45	14.15	-44.5	-47.5	15.9	0.00e+00	0	44	0	1133510656	60	5156
2026-01-07 00:35:54.29	224.37	14.02	-44.3	-47.3	16.1	0.00e+00	0	43	0	1135607808	60	5013
2026-01-07 00:35:55.01	224.32	13.95	-44.5	-47.6	15.9	0.00e+00	0	44	0	1136656384	60	5167
2026-01-07 00:35:56.30	224.24	13.82	-44.6	-47.7	15.8	0.00e+00	0	44	0	1139802112	60	5219
2026-01-07 00:35:57.02	224.20	13.75	-44.3	-47.3	16.1	0.00e+00	0	43	0	1140850688	60	5016
2026-01-07 00:35:58.31	224.12	13.63	-44.5	-47.6	15.8	0.00e+00	0	43	0	1142947840	60	5196
2026-01-07 00:35:59.03	224.08	13.56	-44.6	-47.6	15.9	0.00e+00	0	43	0	1145044992	60	5202
2026-01-07 00:36:00.31	224.00	13.44	-44.4	-47.5	15.9	0.00e+00	0	43	0	1147142144	60	5109
2026-01-07 00:36:01.02	223.96	13.37	-44.6	-47.7	15.7	0.00e+00	0	43	0	1148190720	60	5257
2026-01-07 00:36:02.32	223.89	13.24	-44.6	-47.7	15.7	0.00e+00	0	43	0	1151336448	60	5259
2026-01-07 00:36:03.03	223.84	13.18	-44.6	-47.7	15.7	0.00e+00	0	43	0	1152385024	60	5266
2026-01-07 00:36:04.32	223.77	13.05	-44.9	-48.2	15.2	0.00e+00	0	43	0	1154482176	60	5578
2026-01-07 00:36:05.04	223.73	12.98	-44.9	-48.2	15.2	0.00e+00	0	43	0	1155530752	60	5560
2026-01-07 00:36:06.33	223.65	12.86	-45.1	-48.4	15.0	0.00e+00	0	43	0	1158676480	60	5715
2026-01-07 00:36:07.04	223.61	12.80	-44.9	-48.2	15.2	0.00e+00	0	43	0	1159725056	60	5575
2026-01-07 00:36:08.34	223.54	12.67	-45.1	-48.4	14.9	0.00e+00	0	43	0	1161822208	61	5395
2026-01-07 00:36:09.20	223.49	12.59	-45.1	-48.5	14.9	0.00e+00	0	43	0	1163919360	61	5446
2026-01-07 00:36:10.65	223.41	12.46	-45.2	-48.7	14.7	0.00e+00	0	44	0	1166016512	61	5556
2026-01-07 00:36:11.36	223.37	12.39	-45.1	-48.6	14.8	7.00e-07	0	44	0	1168113664	61	5486
2026-01-07 00:36:12.65	223.30	12.28	-45.1	-48.4	14.9	0.00e+00	0	43	0	1170210816	61	5400
2026-01-07 00:36:13.36	223.26	12.21	-45.2	-48.8	14.6	0.00e+00	0	43	0	1171259392	61	5593
2026-01-07 00:36:14.66	223.19	12.09	-45.1	-48.6	14.8	0.00e+00	0	44	0	1174405120	61	5470
2026-01-07 00:36:15.37	223.16	12.03	-45.2	-48.8	14.6	0.00e+00	0	44	0	1175453696	61	5594
2026-01-07 00:36:16.66	223.09	11.91	-45.2	-48.7	14.6	0.00e+00	0	44	0	1177550848	61	5575
2026-01-07 00:36:17.38	223.05	11.84	-45.2	-48.7	14.7	0.00e+00	0	43	0	1178599424	61	5536
2026-01-07 00:36:18.67	222.98	11.73	-45.1	-48.5	14.8	7.00e-07	0	43	0	1181745152	61	5460
2026-01-07 00:36:19.55	222.93	11.65	-45.2	-48.8	14.5	0.00e+00	0	43	0	1182793728	61	5630
2026-01-07 00:36:20.69	222.87	11.55	-45.2	-48.8	14.5	0.00e+00	0	43	0	1184890880	61	5651
2026-01-07 00:36:21.55	222.83	11.47	-45.2	-48.7	14.6	0.00e+00	0	44	0	1186988032	61	5574
2026-01-07 00:36:22.70	222.77	11.37	-45.2	-48.8	14.5	0.00e+00	0	44	0	1189085184	61	5614
2026-01-07 00:36:23.56	222.73	11.29	-45.1	-48.5	14.9	0.00e+00	0	44	0	1191182336	61	5462
2026-01-07 00:36:24.70	222.67	11.19	-45.1	-48.7	14.7	0.00e+00	0	43	0	1193279488	61	5530
2026-01-07 00:36:25.56	222.63	11.11	-45.2	-48.8	14.6	7.00e-07	0	43	0	1194328064	61	5599
2026-01-07 00:36:26.71	222.57	11.01	-44.9	-48.4	14.9	0.00e+00	0	44	0	1196425216	61	5365
2026-01-07 00:36:27.57	222.53	10.94	-45.0	-48.4	14.9	0.00e+00	0	44	0	1198522368	61	5381
2026-01-07 00:36:28.72	222.47	10.84	-44.8	-48.3	15.0	0.00e+00	0	44	0	1200619520	61	5281
2026-01-07 00:36:29.58	222.43	10.76	-44.7	-48.1	15.2	0.00e+00	0	43	0	1201668096	61	5176
2026-01-07 00:36:30.73	222.37	10.66	-44.8	-48.2	15.1	0.00e+00	0	43	0	1203765248	61	5239
2026-01-07 00:36:31.59	222.33	10.59	-44.5	-47.7	15.5	7.00e-07	0	44	0	1205862400	61	4963
2026-01-07 00:36:32.73	222.27	10.49	-44.7	-48.0	15.3	0.00e+00	0	44	0	1207959552	61	5101
2026-01-07 00:36:33.59	222.23	10.42	-44.8	-48.2	15.1	0.00e+00	0	44	0	1209008128	61	5224
2026-01-07 00:36:34.74	222.18	10.32	-44.5	-47.7	15.5	7.00e-07	0	43	0	1212153856	60	5253
2026-01-07 00:36:35.60	222.14	10.24	-44.6	-47.8	15.4	0.00e+00	0	43	0	1213202432	60	5332
2026-01-07 00:36:36.74	222.08	10.15	-44.8	-48.1	15.2	0.00e+00	0	43	0	1215299584	60	5469
2026-01-07 00:36:37.60	222.04	10.07	-44.6	-47.8	15.4	0.00e+00	0	44	0	1217396736	60	5302
2026-01-07 00:36:38.80	221.99	9.97	-44.7	-48.1	15.1	0.00e+00	0	43	0	1219493888	60	5465
2026-01-07 00:36:39.66	221.95	9.90	-44.6	-47.9	15.3	0.00e+00	0	44	0	1220542464	60	5361
2026-01-07 00:36:40.80	221.90	9.80	-44.8	-48.2	15.0	0.00e+00	0	44	0	1222639616	60	5572
2026-01-07 00:36:41.66	221.86	9.73	-44.8	-48.3	14.8	0.00e+00	0	44	0	1224736768	60	5604
2026-01-07 00:36:42.80	221.80	9.64	-44.8	-48.4	14.8	0.00e+00	0	44	0	1226833920	60	5672
2026-01-07 00:36:43.66	221.77	9.57	-44.8	-48.3	14.8	7.00e-07	0	43	0	1227882496	60	5642
2026-01-07 00:36:45.03	221.70	9.45	-45.0	-48.7	14.5	0.00e+00	0	43	0	1231028224	60	5868
2026-01-07 00:36:45.75	221.67	9.39	-44.9	-48.6	14.5	7.00e-07	0	43	0	1232076800	60	5822
2026-01-07 00:36:47.26	221.61	9.27	-45.0	-48.8	14.3	2.20e-06	0	44	0	1235222528	60	5948
2026-01-07 00:36:48.27	221.56	9.19	-45.0	-49.0	14.1	7.00e-07	0	43	0	1237319680	60	6109
2026-01-07 00:36:49.59	221.50	9.08	-45.1	-49.1	14.0	1.50e-06	0	43	0	1239416832	60	6161
2026-01-07 00:36:50.31	221.47	9.02	-45.0	-49.2	13.9	2.20e-06	0	44	0	1240465408	60	6249
2026-01-07 00:36:51.60	221.42	8.91	-49.4	-64.6	3.8	1.49e+00	0	44	104	1241513984	69	21905
2026-01-07 00:36:52.31	221.39	8.86	-49.5	-64.8	3.8	1.49e+00	0	44	104	1241513984	69	22489
2026-01-07 00:36:53.61	221.33	8.75	-49.7	-65.0	3.8	1.49e+00	0	43	104	1241513984	70	21532
2026-01-07 00:36:54.32	221.30	8.69	-49.7	-65.1	3.8	1.49e+00	0	43	104	1241513984	70	21813
