passes_logs/2026/01/07/T1/T1__20260107_233641_NOAA_21_JPSS-2_rec.log

#Pass ID: 20260107_233641_NOAA 21 (JPSS-2)
#Satellite: NOAA 21 (JPSS-2)
#Configuration: NOAA 21
#almurnet v.1.7.20251203
#Start time: 2026-01-07 23:36:41

#Version: 2.0.20230620
#Station: T1
#Location: 37.570604 lon 55.790049 lat
#TLE: 1 54234U 22150A   26005.56767909  .00000152  00000+0  92756-4 0  9990
#TLE: 2 54234  98.7490 306.5820 0001036 340.2747  19.8389 14.19532370163472

#Time	Az	El	Level	Level2	SNR	BER	BlckErr	Temp	State	Recorded	gain1	gain2
2026-01-07 23:36:41.56	16.82	5.03	-52.2	-65.6	3.8	1.49e+00	0	41	0	0	75	17350
2026-01-07 23:36:42.56	16.83	5.10	-52.2	-65.6	3.8	1.49e+00	0	41	104	0	75	17421
2026-01-07 23:36:43.56	16.84	5.17	-52.2	-65.6	3.8	1.49e+00	0	41	104	0	75	17462
2026-01-07 23:36:44.57	16.84	5.24	-52.2	-65.7	3.8	1.49e+00	0	41	104	0	75	17489
2026-01-07 23:36:45.57	16.85	5.31	-52.2	-65.6	3.8	1.49e+00	0	41	104	0	75	17321
2026-01-07 23:36:46.57	16.86	5.39	-52.2	-65.6	3.8	1.49e+00	0	41	104	0	75	17372
2026-01-07 23:36:47.58	16.87	5.46	-52.2	-65.5	3.8	1.49e+00	0	41	104	0	75	17238
2026-01-07 23:36:48.58	16.88	5.53	-52.2	-65.5	3.8	1.49e+00	0	41	104	0	75	17134
2026-01-07 23:36:49.59	16.88	5.60	-52.2	-65.4	3.8	1.49e+00	0	41	104	0	75	17080
2026-01-07 23:36:50.59	16.89	5.68	-52.2	-65.3	3.8	1.49e+00	0	41	104	0	75	16834
2026-01-07 23:36:51.59	16.90	5.75	-52.2	-65.3	3.8	1.49e+00	0	41	104	0	75	16886
2026-01-07 23:36:52.60	16.91	5.82	-52.2	-65.3	3.8	1.49e+00	0	41	104	0	75	16745
2026-01-07 23:36:53.60	16.92	5.90	-52.2	-65.2	3.8	1.49e+00	0	41	104	0	75	16582
2026-01-07 23:36:54.61	16.93	5.97	-52.2	-65.2	3.8	1.49e+00	0	41	104	0	75	16589
2026-01-07 23:36:55.61	16.93	6.05	-52.2	-65.2	3.8	1.49e+00	0	41	104	0	75	16617
2026-01-07 23:36:56.62	16.94	6.12	-52.2	-65.2	3.8	1.49e+00	0	41	104	0	75	16644
2026-01-07 23:36:57.62	16.95	6.19	-52.2	-65.3	3.8	1.49e+00	0	41	104	0	75	16758
2026-01-07 23:36:58.62	16.96	6.27	-52.2	-65.3	3.8	1.49e+00	0	42	104	0	75	16773
2026-01-07 23:36:59.63	16.97	6.34	-52.2	-65.4	3.8	1.49e+00	0	41	104	0	75	16987
2026-01-07 23:37:00.61	16.97	6.42	-52.2	-65.4	3.8	1.49e+00	0	42	104	0	75	16914
2026-01-07 23:37:01.61	16.98	6.49	-52.2	-65.4	3.8	1.49e+00	0	42	104	0	75	17082
2026-01-07 23:37:02.61	16.99	6.57	-52.2	-65.4	3.8	1.49e+00	0	41	104	0	75	17076
2026-01-07 23:37:03.62	17.00	6.64	-52.2	-65.4	3.8	1.49e+00	0	42	104	0	75	16898
2026-01-07 23:37:04.62	17.01	6.72	-52.2	-65.2	3.8	1.49e+00	0	42	104	0	75	16666
2026-01-07 23:37:05.63	17.02	6.80	-52.2	-65.1	3.8	1.49e+00	0	42	104	0	75	16345
2026-01-07 23:37:06.63	17.02	6.87	-52.2	-64.9	3.8	1.49e+00	0	42	104	0	75	15961
2026-01-07 23:37:07.63	17.03	6.95	-52.1	-64.6	3.8	1.49e+00	0	42	104	0	75	15478
2026-01-07 23:37:08.64	17.04	7.03	-52.1	-64.3	3.8	1.49e+00	0	42	104	0	75	14955
2026-01-07 23:37:09.64	17.05	7.10	-52.1	-64.0	3.8	1.49e+00	0	42	104	0	75	14466
2026-01-07 23:37:10.65	17.06	7.18	-52.0	-63.7	3.8	1.49e+00	0	42	104	0	75	13965
2026-01-07 23:37:11.65	17.07	7.26	-52.0	-63.5	3.8	1.48e+00	0	42	104	0	75	13583
2026-01-07 23:37:12.65	17.08	7.34	-52.0	-62.8	4.0	1.48e+00	0	42	104	0	75	12547
2026-01-07 23:37:13.66	17.08	7.41	-51.9	-62.5	4.1	1.48e+00	0	42	104	0	75	12214
2026-01-07 23:37:14.66	17.09	7.49	-51.9	-62.2	4.1	1.47e+00	0	42	104	0	75	11818
2026-01-07 23:37:15.67	17.10	7.57	-51.9	-62.1	4.2	1.47e+00	0	42	104	0	75	11577
2026-01-07 23:37:16.67	17.11	7.65	-51.9	-61.9	4.2	1.47e+00	0	42	104	0	75	11375
2026-01-07 23:37:17.68	17.12	7.73	-51.8	-61.7	4.1	1.46e+00	0	42	104	0	75	11103
2026-01-07 23:37:18.68	17.13	7.81	-51.8	-62.1	3.9	1.45e+00	0	42	104	0	75	11635
2026-01-07 23:37:19.68	17.14	7.89	-51.8	-61.9	3.9	1.45e+00	0	42	104	0	75	11360
2026-01-07 23:37:20.69	17.14	7.97	-51.7	-61.1	4.5	1.35e+00	0	42	104	0	75	10393
2026-01-07 23:37:21.69	17.15	8.05	-51.7	-61.0	4.5	1.26e+00	0	42	104	0	75	10248
2026-01-07 23:37:22.70	17.16	8.13	-51.7	-60.7	4.7	1.18e+00	0	42	104	0	75	9913
2026-01-07 23:37:23.70	17.17	8.21	-51.6	-61.1	4.0	1.04e+00	0	42	104	0	75	10381
2026-01-07 23:37:24.70	17.18	8.29	-51.6	-60.2	4.9	1.40e+00	0	42	104	0	75	9306
2026-01-07 23:37:25.71	17.19	8.37	-51.5	-59.8	5.2	6.38e-01	0	42	0	0	75	8887
2026-01-07 23:37:26.71	17.20	8.45	-51.4	-59.3	5.4	5.40e-01	0	42	0	0	74	8941
2026-01-07 23:37:27.72	17.21	8.53	-51.3	-58.7	5.8	4.05e-01	0	42	0	0	74	8363
2026-01-07 23:37:28.72	17.22	8.61	-51.2	-58.3	6.1	3.12e-01	0	42	0	0	74	7963
2026-01-07 23:37:29.73	17.22	8.70	-51.0	-57.8	6.6	2.42e-01	0	42	0	0	74	7463
2026-01-07 23:37:30.73	17.23	8.78	-50.9	-57.2	7.1	1.64e-01	0	42	0	0	73	7434
2026-01-07 23:37:31.74	17.24	8.86	-50.7	-56.8	7.5	1.17e-01	0	42	0	0	73	7083
2026-01-07 23:37:32.74	17.25	8.95	-50.6	-56.3	7.9	8.32e-02	0	42	0	0	73	6719
2026-01-07 23:37:33.74	17.26	9.03	-50.5	-56.1	8.2	6.04e-02	0	42	0	0	73	6531
2026-01-07 23:37:34.75	17.27	9.11	-50.9	-57.2	7.1	1.14e-01	0	42	0	0	72	7890
2026-01-07 23:37:35.75	17.28	9.20	-51.5	-58.7	5.9	1.95e-01	0	42	0	0	73	8827
2026-01-07 23:37:36.75	17.29	9.28	-50.5	-56.3	8.0	1.14e-01	0	42	0	0	72	7062
2026-01-07 23:37:37.76	17.30	9.36	-51.9	-62.7	3.9	6.76e-01	0	42	104	0	74	13246
2026-01-07 23:37:38.76	17.31	9.45	-47.6	-50.6	13.5	1.25e-01	0	43	0	0	67	4920
2026-01-07 23:37:39.76	17.32	9.53	-46.7	-49.4	14.9	0.00e+00	0	43	0	0	65	4778
2026-01-07 23:37:40.77	17.32	9.62	-46.2	-48.7	15.6	0.00e+00	0	42	0	0	64	4668
2026-01-07 23:37:41.77	17.33	9.70	-45.3	-47.6	16.7	0.00e+00	0	43	0	0	62	4621
2026-01-07 23:37:42.78	17.34	9.79	-44.9	-47.1	17.2	0.00e+00	0	43	0	0	61	4611
2026-01-07 23:37:43.86	17.35	9.88	-44.8	-47.0	17.3	0.00e+00	0	42	0	0	61	4582
2026-01-07 23:37:44.75	17.36	9.96	-44.9	-47.1	17.2	0.00e+00	0	43	0	0	61	4611
2026-01-07 23:37:46.09	17.37	10.08	-44.8	-46.9	17.3	0.00e+00	0	43	0	0	61	4541
2026-01-07 23:37:46.80	17.38	10.14	-44.7	-46.8	17.4	0.00e+00	0	43	0	0	61	4493
2026-01-07 23:37:48.09	17.39	10.25	-44.6	-46.7	17.5	0.00e+00	0	43	0	0	61	4428
2026-01-07 23:37:48.81	17.40	10.31	-44.6	-46.7	17.6	0.00e+00	0	43	0	0	61	4404
2026-01-07 23:37:50.10	17.41	10.43	-44.6	-46.7	17.6	0.00e+00	0	43	0	0	61	4396
2026-01-07 23:37:50.85	17.42	10.49	-44.5	-46.6	17.6	0.00e+00	0	43	0	0	61	4369
2026-01-07 23:37:52.14	17.43	10.61	-44.5	-46.6	17.7	0.00e+00	0	43	0	0	61	4349
2026-01-07 23:37:52.89	17.44	10.67	-44.5	-46.6	17.6	0.00e+00	0	43	0	0	60	4637
2026-01-07 23:37:54.47	17.45	10.81	-44.5	-46.5	17.7	0.00e+00	0	43	0	0	60	4597
2026-01-07 23:37:55.07	17.46	10.87	-44.4	-46.5	17.8	0.00e+00	0	42	0	0	60	4551
2026-01-07 23:37:56.65	17.48	11.01	-44.5	-46.5	17.8	0.00e+00	0	43	0	0	60	4575
2026-01-07 23:37:57.25	17.48	11.06	-44.5	-46.5	17.8	0.00e+00	0	43	0	0	60	4574
2026-01-07 23:37:58.94	17.50	11.21	-44.4	-46.4	17.9	0.00e+00	0	43	0	0	60	4536
2026-01-07 23:37:59.51	17.50	11.27	-44.5	-46.5	17.8	0.00e+00	0	43	0	0	60	4587
2026-01-07 23:38:01.09	17.52	11.41	-44.4	-46.4	17.9	0.00e+00	0	43	0	0	60	4531
2026-01-07 23:38:01.69	17.52	11.47	-44.4	-46.4	17.9	0.00e+00	0	43	0	0	60	4512
2026-01-07 23:38:03.27	17.54	11.61	-44.3	-46.2	18.0	0.00e+00	0	43	0	0	60	4436
2026-01-07 23:38:03.86	17.55	11.66	-44.3	-46.3	18.0	0.00e+00	0	43	0	0	60	4447
2026-01-07 23:38:05.43	17.56	11.81	-44.3	-46.2	18.0	0.00e+00	0	43	0	0	60	4437
2026-01-07 23:38:06.05	17.57	11.87	-44.3	-46.3	18.0	0.00e+00	0	43	0	0	60	4448
2026-01-07 23:38:07.63	17.58	12.02	-44.2	-46.1	18.2	0.00e+00	0	43	0	0	60	4362
2026-01-07 23:38:08.21	17.59	12.07	-44.2	-46.1	18.2	0.00e+00	0	43	0	0	60	4365
2026-01-07 23:38:09.79	17.61	12.22	-44.2	-46.1	18.1	0.00e+00	0	43	0	0	60	4380
2026-01-07 23:38:10.37	17.61	12.27	-44.1	-46.0	18.2	0.00e+00	0	43	0	0	60	4323
2026-01-07 23:38:11.96	17.63	12.43	-44.2	-46.1	18.2	0.00e+00	0	43	0	0	60	4352
2026-01-07 23:38:12.53	17.63	12.48	-44.1	-46.0	18.3	0.00e+00	0	43	0	0	60	4309
2026-01-07 23:38:14.17	17.65	12.64	-44.1	-46.0	18.3	0.00e+00	0	43	0	0	60	4298
2026-01-07 23:38:14.74	17.66	12.69	-44.0	-45.9	18.3	0.00e+00	0	43	0	0	60	4276
2026-01-07 23:38:16.35	17.67	12.85	-43.9	-45.8	18.4	0.00e+00	0	43	0	0	59	4448
2026-01-07 23:38:16.92	17.68	12.90	-43.9	-45.8	18.4	0.00e+00	0	43	0	0	59	4468
2026-01-07 23:38:18.50	17.70	13.06	-44.0	-45.8	18.3	0.00e+00	0	43	0	0	59	4486
2026-01-07 23:38:19.09	17.70	13.11	-43.9	-45.7	18.4	0.00e+00	0	43	0	0	59	4426
2026-01-07 23:38:20.67	17.72	13.27	-43.9	-45.7	18.4	0.00e+00	0	43	0	0	59	4441
2026-01-07 23:38:21.40	17.73	13.34	-43.9	-45.7	18.5	0.00e+00	0	43	0	0	59	4413
2026-01-07 23:38:22.69	17.74	13.47	-43.8	-45.6	18.6	0.00e+00	0	43	0	0	59	4352
2026-01-07 23:38:23.56	17.75	13.56	-43.8	-45.6	18.6	0.00e+00	0	43	0	0	59	4367
2026-01-07 23:38:24.71	17.76	13.67	-43.8	-45.7	18.5	0.00e+00	0	43	0	0	59	4407
2026-01-07 23:38:25.76	17.77	13.78	-43.8	-45.7	18.5	0.00e+00	0	43	0	0	59	4396
2026-01-07 23:38:26.83	17.79	13.89	-43.8	-45.6	18.5	0.00e+00	0	43	0	0	59	4383
2026-01-07 23:38:27.85	17.80	13.99	-43.8	-45.6	18.5	0.00e+00	0	43	0	0	59	4384
2026-01-07 23:38:28.85	17.81	14.09	-43.7	-45.6	18.6	0.00e+00	0	43	0	0	59	4345
2026-01-07 23:38:29.85	17.82	14.19	-43.7	-45.5	18.7	0.00e+00	0	43	0	0	59	4324
2026-01-07 23:38:30.86	17.83	14.30	-43.8	-45.6	18.6	0.00e+00	0	43	0	0	59	4355
2026-01-07 23:38:31.86	17.84	14.40	-43.7	-45.5	18.7	0.00e+00	0	43	0	0	59	4303
2026-01-07 23:38:32.86	17.85	14.50	-43.7	-45.5	18.7	0.00e+00	0	43	0	0	59	4297
2026-01-07 23:38:34.19	17.87	14.64	-43.7	-45.5	18.7	0.00e+00	0	43	0	0	59	4302
2026-01-07 23:38:34.92	17.88	14.72	-43.6	-45.5	18.7	0.00e+00	0	43	0	0	59	4295
2026-01-07 23:38:36.21	17.89	14.85	-43.7	-45.5	18.7	0.00e+00	0	43	0	0	59	4315
2026-01-07 23:38:36.96	17.90	14.93	-43.6	-45.5	18.7	0.00e+00	0	43	0	0	59	4298
2026-01-07 23:38:38.25	17.91	15.07	-43.7	-45.5	18.7	0.00e+00	0	43	0	0	59	4312
2026-01-07 23:38:39.00	17.92	15.15	-43.7	-45.5	18.7	0.00e+00	0	43	0	0	59	4317
2026-01-07 23:38:40.29	17.94	15.29	-43.7	-45.5	18.7	0.00e+00	0	43	0	0	59	4305
2026-01-07 23:38:41.05	17.95	15.37	-43.7	-45.5	18.7	0.00e+00	0	43	0	0	59	4327
2026-01-07 23:38:42.35	17.96	15.51	-43.8	-45.6	18.6	0.00e+00	0	43	0	0	59	4355
2026-01-07 23:38:43.09	17.97	15.59	-43.7	-45.6	18.7	0.00e+00	0	43	0	0	59	4349
2026-01-07 23:38:44.39	17.98	15.73	-43.7	-45.6	18.7	0.00e+00	0	43	0	0	59	4342
2026-01-07 23:38:45.10	17.99	15.81	-43.7	-45.5	18.7	0.00e+00	0	43	0	0	59	4327
2026-01-07 23:38:46.74	18.01	15.99	-43.7	-45.5	18.7	0.00e+00	0	43	0	0	59	4336
2026-01-07 23:38:47.32	18.02	16.05	-43.7	-45.5	18.7	0.00e+00	0	43	0	0	59	4324
2026-01-07 23:38:48.91	18.04	16.23	-43.8	-45.7	18.6	0.00e+00	0	43	0	0	59	4392
2026-01-07 23:38:49.48	18.05	16.29	-43.8	-45.6	18.6	0.00e+00	0	43	0	0	59	4389
2026-01-07 23:38:51.06	18.06	16.47	-43.8	-45.6	18.7	0.00e+00	0	43	0	0	59	4370
2026-01-07 23:38:51.76	18.07	16.55	-43.9	-45.7	18.6	0.00e+00	0	43	0	0	59	4421
2026-01-07 23:38:53.08	18.09	16.70	-43.8	-45.6	18.6	0.00e+00	0	43	0	0	59	4376
2026-01-07 23:38:53.96	18.10	16.80	-43.8	-45.7	18.6	0.00e+00	0	43	0	0	59	4407
2026-01-07 23:38:55.11	18.11	16.93	-43.8	-45.7	18.6	0.00e+00	0	43	0	0	59	4401
2026-01-07 23:38:55.97	18.13	17.03	-43.8	-45.7	18.6	0.00e+00	0	43	0	0	59	4428
2026-01-07 23:38:57.12	18.14	17.16	-43.9	-45.8	18.5	0.00e+00	0	43	0	0	59	4454
2026-01-07 23:38:58.25	18.15	17.30	-43.8	-45.7	18.6	0.00e+00	0	43	0	0	59	4417
2026-01-07 23:38:59.11	18.16	17.40	-43.8	-45.7	18.6	0.00e+00	0	43	0	0	59	4422
2026-01-07 23:39:00.26	18.18	17.53	-43.9	-45.8	18.5	0.00e+00	0	43	0	0	59	4461
2026-01-07 23:39:01.11	18.19	17.63	-43.9	-45.8	18.5	0.00e+00	0	43	0	0	59	4474
2026-01-07 23:39:02.69	18.21	17.82	-43.9	-45.8	18.5	0.00e+00	0	43	0	0	59	4482
2026-01-07 23:39:03.28	18.22	17.89	-43.9	-45.8	18.5	0.00e+00	0	43	0	0	59	4479
2026-01-07 23:39:05.15	18.24	18.11	-43.9	-45.8	18.5	0.00e+00	0	43	0	0	59	4480
2026-01-07 23:39:05.73	18.25	18.18	-43.9	-45.9	18.4	0.00e+00	0	43	0	0	59	4500
2026-01-07 23:39:07.32	18.27	18.38	-43.8	-45.6	18.6	0.00e+00	0	43	0	0	59	4384
2026-01-07 23:39:07.90	18.28	18.45	-43.8	-45.7	18.6	0.00e+00	0	43	0	0	59	4409
2026-01-07 23:39:09.47	18.30	18.64	-43.8	-45.7	18.6	0.00e+00	0	43	0	0	59	4402
2026-01-07 23:39:10.06	18.31	18.71	-43.8	-45.7	18.5	0.00e+00	0	43	0	0	59	4431
2026-01-07 23:39:11.64	18.33	18.91	-43.8	-45.7	18.5	0.00e+00	0	43	0	0	59	4427
2026-01-07 23:39:12.23	18.34	18.98	-43.8	-45.6	18.6	0.00e+00	0	43	0	0	59	4383
2026-01-07 23:39:13.93	18.36	19.19	-43.7	-45.6	18.7	0.00e+00	0	43	0	0	59	4365
2026-01-07 23:39:14.50	18.37	19.27	-43.7	-45.6	18.6	0.00e+00	0	43	0	0	59	4362
2026-01-07 23:39:16.08	18.39	19.47	-43.7	-45.6	18.7	0.00e+00	0	43	0	0	59	4362
2026-01-07 23:39:16.67	18.40	19.54	-43.7	-45.5	18.7	0.00e+00	0	43	0	0	59	4331
2026-01-07 23:39:18.25	18.42	19.74	-43.5	-45.4	18.8	0.00e+00	0	43	0	0	59	4250
2026-01-07 23:39:18.85	18.43	19.82	-43.5	-45.4	18.8	0.00e+00	0	43	0	0	59	4254
2026-01-07 23:39:20.42	18.45	20.02	-43.7	-45.6	18.7	0.00e+00	0	43	0	0	59	4344
2026-01-07 23:39:21.04	18.46	20.10	-43.6	-45.4	18.8	0.00e+00	0	43	0	0	59	4261
2026-01-07 23:39:22.75	18.49	20.33	-43.4	-45.2	19.0	0.00e+00	0	43	0	0	58	4425
2026-01-07 23:39:23.32	18.49	20.40	-43.4	-45.2	19.0	0.00e+00	0	43	0	0	58	4408
2026-01-07 23:39:24.95	18.52	20.62	-43.4	-45.2	19.0	0.00e+00	0	43	0	0	58	4429
2026-01-07 23:39:25.53	18.53	20.70	-43.4	-45.3	18.9	0.00e+00	0	43	0	0	58	4447
2026-01-07 23:39:27.15	18.55	20.92	-43.3	-45.1	19.1	0.00e+00	0	43	0	0	58	4353
2026-01-07 23:39:27.72	18.56	20.99	-43.2	-45.0	19.2	0.00e+00	0	43	0	0	58	4330
2026-01-07 23:39:29.31	18.58	21.21	-43.2	-44.9	19.3	0.00e+00	0	43	0	0	58	4284
2026-01-07 23:39:29.89	18.59	21.29	-43.1	-44.9	19.3	0.00e+00	0	43	0	0	58	4253
2026-01-07 23:39:31.46	18.62	21.50	-43.0	-44.7	19.5	0.00e+00	0	43	0	0	58	4184
2026-01-07 23:39:32.07	18.63	21.59	-43.0	-44.8	19.4	0.00e+00	0	43	0	0	58	4214
2026-01-07 23:39:33.64	18.65	21.81	-42.9	-44.7	19.5	0.00e+00	0	43	0	0	57	4412
2026-01-07 23:39:34.23	18.66	21.89	-42.9	-44.7	19.5	0.00e+00	0	43	0	0	57	4415
2026-01-07 23:39:35.81	18.68	22.11	-42.8	-44.5	19.6	0.00e+00	0	43	0	0	57	4329
2026-01-07 23:39:36.41	18.69	22.20	-42.7	-44.5	19.7	0.00e+00	0	43	0	0	57	4294
2026-01-07 23:39:37.99	18.72	22.42	-42.8	-44.6	19.6	0.00e+00	0	43	0	0	57	4356
2026-01-07 23:39:38.58	18.73	22.51	-42.8	-44.5	19.6	0.00e+00	0	43	0	0	57	4304
2026-01-07 23:39:40.31	18.76	22.76	-42.8	-44.5	19.6	0.00e+00	0	43	0	0	57	4311
2026-01-07 23:39:40.89	18.77	22.84	-42.7	-44.4	19.7	0.00e+00	0	43	0	0	57	4265
2026-01-07 23:39:42.46	18.79	23.07	-42.7	-44.4	19.7	0.00e+00	0	43	0	0	57	4289
2026-01-07 23:39:43.06	18.80	23.16	-42.6	-44.3	19.8	0.00e+00	0	43	0	0	57	4201
2026-01-07 23:39:44.98	18.83	23.44	-42.4	-44.2	19.9	0.00e+00	0	43	0	0	56	4397
2026-01-07 23:39:45.55	18.84	23.53	-42.6	-44.3	19.9	0.00e+00	0	43	0	0	56	4462
2026-01-07 23:39:47.13	18.87	23.76	-42.5	-44.2	19.9	0.00e+00	0	43	0	0	56	4420
2026-01-07 23:39:48.13	18.89	23.91	-42.4	-44.1	20.1	0.00e+00	0	43	0	0	56	4350
2026-01-07 23:39:49.13	18.90	24.07	-42.4	-44.1	20.0	0.00e+00	0	43	0	0	56	4361
2026-01-07 23:39:50.14	18.92	24.22	-42.4	-44.1	20.0	0.00e+00	0	43	0	0	56	4383
2026-01-07 23:39:51.14	18.94	24.38	-42.5	-44.2	19.9	0.00e+00	0	43	0	0	56	4434
2026-01-07 23:39:52.18	18.96	24.54	-42.4	-44.1	20.0	0.00e+00	0	43	0	0	56	4386
2026-01-07 23:39:53.17	18.98	24.69	-42.5	-44.2	20.0	0.00e+00	0	43	0	0	56	4402
2026-01-07 23:39:54.24	19.00	24.86	-42.6	-44.3	19.9	0.00e+00	0	43	0	0	56	4459
2026-01-07 23:39:55.14	19.01	25.00	-42.6	-44.3	19.9	0.00e+00	0	43	0	0	56	4483
2026-01-07 23:39:56.17	19.03	25.16	-42.7	-44.4	19.8	0.00e+00	0	43	0	0	56	4513
2026-01-07 23:39:57.33	19.05	25.35	-42.9	-44.6	19.6	0.00e+00	0	43	0	0	56	4645
2026-01-07 23:39:58.19	19.07	25.49	-42.9	-44.6	19.6	0.00e+00	0	43	0	0	56	4640
2026-01-07 23:39:59.61	19.09	25.72	-43.1	-44.9	19.4	0.00e+00	0	43	0	0	57	4516
2026-01-07 23:40:00.32	19.11	25.83	-43.1	-44.9	19.4	0.00e+00	0	43	0	0	57	4495
2026-01-07 23:40:01.61	19.13	26.04	-43.2	-45.0	19.3	0.00e+00	0	43	0	0	57	4557
2026-01-07 23:40:02.33	19.15	26.16	-43.2	-45.0	19.3	0.00e+00	0	43	0	0	57	4557
2026-01-07 23:40:03.62	19.17	26.38	-43.3	-45.1	19.2	0.00e+00	0	43	0	0	57	4638
2026-01-07 23:40:04.34	19.19	26.50	-43.4	-45.2	19.1	0.00e+00	0	43	0	0	57	4690
2026-01-07 23:40:05.62	19.21	26.71	-43.5	-45.3	19.0	0.00e+00	0	43	0	0	57	4735
2026-01-07 23:40:06.40	19.23	26.84	-43.6	-45.4	18.9	0.00e+00	0	43	0	0	57	4787
2026-01-07 23:40:07.69	19.25	27.06	-43.6	-45.5	18.8	0.00e+00	0	43	0	0	57	4848
2026-01-07 23:40:08.47	19.27	27.20	-43.7	-45.6	18.8	0.00e+00	0	43	0	0	58	4621
2026-01-07 23:40:09.76	19.29	27.42	-43.8	-45.7	18.7	0.00e+00	0	43	0	0	58	4687
2026-01-07 23:40:10.47	19.31	27.54	-43.9	-45.8	18.5	0.00e+00	0	43	0	0	58	4715
2026-01-07 23:40:11.77	19.34	27.77	-43.8	-45.7	18.7	0.00e+00	0	43	0	0	58	4671
2026-01-07 23:40:12.61	19.35	27.92	-44.0	-45.9	18.5	0.00e+00	0	43	0	0	58	4767
2026-01-07 23:40:14.11	19.39	28.18	-44.0	-45.8	18.5	0.00e+00	0	43	0	0	58	4759
2026-01-07 23:40:14.82	19.40	28.31	-43.9	-45.8	18.5	0.00e+00	0	43	0	0	58	4732
2026-01-07 23:40:16.11	19.43	28.54	-43.9	-45.8	18.5	0.00e+00	0	43	0	0	58	4718
2026-01-07 23:40:16.83	19.45	28.67	-43.9	-45.8	18.5	0.00e+00	0	43	0	0	58	4728
2026-01-07 23:40:18.12	19.47	28.90	-43.9	-45.7	18.6	0.00e+00	0	43	0	0	58	4683
2026-01-07 23:40:18.83	19.49	29.03	-43.9	-45.7	18.6	0.00e+00	0	43	0	0	58	4680
2026-01-07 23:40:20.12	19.52	29.27	-43.7	-45.5	18.8	0.00e+00	0	44	0	0	58	4577
2026-01-07 23:40:20.92	19.54	29.42	-43.7	-45.5	18.7	0.00e+00	0	43	0	0	58	4580
2026-01-07 23:40:22.07	19.56	29.63	-43.6	-45.4	18.9	0.00e+00	0	43	0	0	58	4529
2026-01-07 23:40:23.13	19.59	29.83	-43.6	-45.4	18.9	0.00e+00	0	43	0	0	58	4506
2026-01-07 23:40:23.99	19.61	30.00	-43.5	-45.3	19.0	0.00e+00	0	43	0	0	58	4462
2026-01-07 23:40:25.14	19.63	30.22	-43.4	-45.2	19.1	0.00e+00	0	43	0	0	58	4418
2026-01-07 23:40:26.00	19.66	30.38	-43.3	-45.0	19.2	0.00e+00	0	43	0	0	58	4328
2026-01-07 23:40:27.14	19.68	30.60	-43.2	-45.0	19.3	0.00e+00	0	44	0	0	58	4317
2026-01-07 23:40:28.01	19.70	30.77	-43.2	-45.0	19.3	0.00e+00	0	44	0	0	58	4313
2026-01-07 23:40:29.15	19.73	30.99	-43.1	-44.8	19.4	0.00e+00	0	43	0	0	58	4238
2026-01-07 23:40:30.01	19.75	31.16	-43.1	-44.8	19.5	0.00e+00	0	43	0	0	58	4216
2026-01-07 23:40:31.29	19.79	31.42	-42.9	-44.6	19.6	0.00e+00	0	43	0	0	57	4384
2026-01-07 23:40:32.00	19.80	31.56	-43.0	-44.7	19.6	0.00e+00	0	43	0	0	57	4398
2026-01-07 23:40:33.30	19.84	31.82	-42.9	-44.7	19.6	0.00e+00	0	43	0	0	57	4393
2026-01-07 23:40:34.01	19.86	31.96	-43.0	-44.7	19.6	0.00e+00	0	43	0	0	57	4411
2026-01-07 23:40:35.30	19.89	32.23	-43.1	-44.8	19.5	0.00e+00	0	43	0	0	57	4450
2026-01-07 23:40:36.07	19.91	32.38	-43.0	-44.7	19.6	0.00e+00	0	43	0	0	57	4426
2026-01-07 23:40:37.67	19.95	32.72	-43.2	-45.0	19.3	0.00e+00	0	43	0	0	57	4563
2026-01-07 23:40:38.25	19.97	32.84	-43.3	-45.1	19.2	0.00e+00	0	43	0	0	57	4622
2026-01-07 23:40:40.04	20.02	33.21	-43.6	-45.4	19.0	0.00e+00	0	43	0	0	57	4761
2026-01-07 23:40:40.61	20.03	33.33	-43.6	-45.4	19.0	0.00e+00	0	43	0	0	57	4763
2026-01-07 23:40:42.19	20.08	33.67	-43.7	-45.5	19.0	0.00e+00	0	43	0	0	57	4819
2026-01-07 23:40:42.79	20.09	33.80	-43.8	-45.6	18.9	0.00e+00	0	43	0	0	58	4608
2026-01-07 23:40:44.36	20.14	34.14	-43.8	-45.6	18.9	0.00e+00	0	43	0	0	58	4605
2026-01-07 23:40:44.94	20.16	34.27	-44.0	-45.8	18.7	0.00e+00	0	43	0	0	58	4737
2026-01-07 23:40:46.51	20.20	34.61	-44.1	-46.0	18.6	0.00e+00	0	44	0	0	58	4823
2026-01-07 23:40:47.12	20.22	34.75	-44.2	-46.0	18.5	0.00e+00	0	44	0	0	58	4870
2026-01-07 23:40:48.69	20.27	35.10	-44.4	-46.3	18.2	0.00e+00	0	44	0	0	59	4721
2026-01-07 23:40:49.38	20.29	35.26	-44.3	-46.3	18.3	0.00e+00	0	44	0	0	59	4718
2026-01-07 23:40:50.81	20.34	35.58	-44.6	-46.6	18.0	0.00e+00	0	43	0	0	59	4887
2026-01-07 23:40:51.53	20.36	35.75	-44.5	-46.5	18.0	0.00e+00	0	44	0	0	59	4850
2026-01-07 23:40:52.82	20.40	36.04	-44.9	-47.0	17.6	0.00e+00	0	44	0	0	60	4839
2026-01-07 23:40:53.53	20.42	36.21	-44.9	-47.0	17.6	0.00e+00	0	44	0	0	60	4840
2026-01-07 23:40:54.82	20.47	36.51	-45.2	-47.2	17.4	0.00e+00	0	43	0	0	61	4698
2026-01-07 23:40:55.53	20.49	36.68	-45.1	-47.1	17.5	0.00e+00	0	43	0	0	61	4644
2026-01-07 23:40:56.82	20.53	36.98	-45.3	-47.3	17.3	0.00e+00	0	43	0	0	61	4736
2026-01-07 23:40:57.54	20.56	37.16	-45.3	-47.3	17.3	0.00e+00	0	44	0	0	61	4751
2026-01-07 23:40:58.83	20.60	37.47	-45.3	-47.3	17.3	0.00e+00	0	43	0	0	61	4749
2026-01-07 23:40:59.55	20.63	37.64	-45.1	-47.1	17.5	0.00e+00	0	43	0	0	61	4636
2026-01-07 23:41:00.84	20.67	37.96	-45.3	-47.4	17.3	0.00e+00	0	43	0	0	61	4784
2026-01-07 23:41:01.55	20.70	38.13	-45.2	-47.3	17.4	0.00e+00	0	44	0	0	61	4732
2026-01-07 23:41:02.84	20.75	38.45	-45.0	-47.0	17.6	0.00e+00	0	43	0	0	61	4592
2026-01-07 23:41:03.56	20.77	38.63	-45.0	-47.1	17.6	0.00e+00	0	43	0	0	61	4612
2026-01-07 23:41:04.85	20.82	38.96	-44.9	-46.9	17.8	0.00e+00	0	44	0	0	61	4506
2026-01-07 23:41:05.56	20.85	39.14	-44.8	-46.9	17.8	0.00e+00	0	44	0	0	61	4495
2026-01-07 23:41:06.86	20.90	39.47	-44.9	-46.9	17.8	0.00e+00	0	43	0	0	61	4515
2026-01-07 23:41:07.70	20.93	39.68	-44.8	-46.7	17.9	0.00e+00	0	43	0	0	61	4441
2026-01-07 23:41:08.85	20.98	39.98	-45.0	-47.0	17.7	0.00e+00	0	43	0	0	61	4568
2026-01-07 23:41:09.71	21.01	40.21	-44.9	-46.9	17.7	0.00e+00	0	43	0	0	61	4543
2026-01-07 23:41:10.85	21.06	40.51	-45.1	-47.1	17.6	0.00e+00	0	43	0	0	61	4624
2026-01-07 23:41:11.71	21.09	40.74	-45.2	-47.3	17.4	0.00e+00	0	43	0	0	61	4723
2026-01-07 23:41:12.86	21.14	41.04	-45.1	-47.1	17.6	0.00e+00	0	43	0	0	61	4643
2026-01-07 23:41:13.71	21.18	41.27	-45.3	-47.3	17.4	0.00e+00	0	44	0	0	61	4748
2026-01-07 23:41:14.86	21.23	41.58	-45.4	-47.5	17.2	0.00e+00	0	44	0	0	61	4824
2026-01-07 23:41:15.72	21.27	41.82	-45.3	-47.3	17.3	0.00e+00	0	44	0	0	61	4734
2026-01-07 23:41:16.87	21.32	42.13	-45.6	-47.7	17.0	0.00e+00	0	43	0	0	61	4957
2026-01-07 23:41:17.73	21.36	42.37	-45.9	-48.0	16.8	0.00e+00	0	43	0	0	62	4835
2026-01-07 23:41:19.00	21.42	42.73	-46.2	-48.4	16.3	0.00e+00	0	43	0	0	63	4788
2026-01-07 23:41:19.73	21.45	42.93	-46.3	-48.5	16.2	0.00e+00	0	44	0	0	63	4844
2026-01-07 23:41:21.02	21.51	43.30	-46.4	-48.7	16.1	0.00e+00	0	43	0	0	63	4943
2026-01-07 23:41:21.74	21.55	43.51	-46.6	-48.9	15.9	0.00e+00	0	43	0	0	63	5043
2026-01-07 23:41:23.03	21.61	43.88	-46.5	-48.8	15.9	0.00e+00	0	44	0	0	63	5015
2026-01-07 23:41:23.74	21.65	44.08	-46.4	-48.6	16.0	0.00e+00	0	43	0	0	63	4896
2026-01-07 23:41:25.03	21.71	44.46	-46.4	-48.6	16.1	0.00e+00	0	43	0	0	63	4910
2026-01-07 23:41:25.75	21.75	44.67	-46.5	-48.7	16.0	0.00e+00	0	44	0	0	63	4977
2026-01-07 23:41:27.03	21.82	45.05	-46.5	-48.9	15.9	0.00e+00	0	44	0	0	63	5061
2026-01-07 23:41:27.75	21.86	45.27	-46.6	-49.0	15.8	0.00e+00	0	43	0	0	63	5129
2026-01-07 23:41:29.04	21.93	45.66	-46.5	-48.9	15.8	0.00e+00	0	43	0	0	64	4809
2026-01-07 23:41:29.76	21.97	45.87	-46.5	-49.0	15.7	0.00e+00	0	44	0	0	64	4848
2026-01-07 23:41:31.05	22.04	46.27	-46.7	-49.2	15.5	0.00e+00	0	43	0	0	64	4938
2026-01-07 23:41:31.76	22.08	46.49	-46.7	-49.2	15.4	7.00e-07	0	43	0	0	64	4960
2026-01-07 23:41:33.05	22.16	46.89	-46.8	-49.3	15.3	0.00e+00	0	43	0	0	64	5030
2026-01-07 23:41:33.77	22.20	47.11	-46.8	-49.3	15.3	0.00e+00	0	43	0	0	64	5016
2026-01-07 23:41:35.06	22.28	47.52	-46.7	-49.1	15.5	0.00e+00	0	43	0	0	64	4890
2026-01-07 23:41:35.77	22.33	47.74	-46.3	-48.6	16.0	0.00e+00	0	44	0	0	64	4615
2026-01-07 23:41:37.07	22.41	48.16	-45.9	-48.1	16.5	0.00e+00	0	43	0	0	63	4641
2026-01-07 23:41:37.78	22.46	48.39	-45.7	-47.9	16.7	0.00e+00	0	44	0	0	63	4512
2026-01-07 23:41:39.07	22.54	48.81	-45.5	-47.6	17.0	0.00e+00	0	44	0	0	63	4385
2026-01-07 23:41:39.79	22.59	49.04	-45.5	-47.6	17.0	0.00e+00	0	43	0	0	62	4646
2026-01-07 23:41:41.07	22.68	49.46	-45.4	-47.5	17.2	0.00e+00	0	44	0	0	62	4559
2026-01-07 23:41:41.97	22.74	49.76	-45.4	-47.4	17.3	0.00e+00	0	43	0	0	62	4535
2026-01-07 23:41:42.99	22.82	50.10	-45.4	-47.5	17.3	0.00e+00	0	44	0	0	62	4560
2026-01-07 23:41:43.99	22.89	50.44	-45.3	-47.4	17.3	0.00e+00	0	44	0	0	62	4520
2026-01-07 23:41:44.99	22.96	50.78	-45.2	-47.2	17.5	0.00e+00	0	43	0	0	62	4422
2026-01-07 23:41:46.00	23.04	51.12	-45.0	-47.0	17.7	0.00e+00	0	44	0	0	62	4310
2026-01-07 23:41:47.00	23.12	51.47	-44.9	-46.9	17.7	0.00e+00	0	44	0	0	61	4517
2026-01-07 23:41:48.00	23.20	51.81	-44.9	-46.9	17.7	0.00e+00	0	44	0	0	61	4521
2026-01-07 23:41:49.01	23.28	52.16	-44.5	-46.5	18.1	0.00e+00	0	43	0	0	61	4294
2026-01-07 23:41:50.00	23.37	52.51	-44.1	-46.0	18.5	0.00e+00	0	44	0	0	60	4309
2026-01-07 23:41:51.01	23.45	52.87	-43.9	-45.8	18.6	0.00e+00	0	44	0	0	59	4459
2026-01-07 23:41:52.01	23.54	53.23	-43.9	-45.8	18.6	0.00e+00	0	44	0	0	59	4444
2026-01-07 23:41:53.01	23.63	53.58	-44.0	-45.8	18.5	0.00e+00	0	44	0	0	59	4490
2026-01-07 23:41:54.02	23.72	53.95	-43.9	-45.8	18.6	0.00e+00	0	44	0	0	59	4452
2026-01-07 23:41:55.02	23.82	54.31	-43.8	-45.6	18.8	0.00e+00	0	43	0	0	59	4363
2026-01-07 23:41:56.02	23.91	54.68	-43.6	-45.3	19.0	0.00e+00	0	44	0	0	59	4223
2026-01-07 23:41:57.02	24.01	55.05	-43.1	-44.9	19.4	0.00e+00	0	43	0	0	58	4250
2026-01-07 23:41:58.03	24.12	55.42	-43.1	-44.9	19.5	0.00e+00	0	43	0	0	58	4249
2026-01-07 23:41:59.03	24.22	55.80	-43.1	-44.9	19.5	0.00e+00	0	43	0	0	58	4249
2026-01-07 23:42:00.03	24.33	56.17	-43.1	-44.8	19.5	0.00e+00	0	44	0	0	58	4215
2026-01-07 23:42:01.03	24.44	56.55	-43.1	-44.8	19.5	0.00e+00	0	44	0	0	58	4234
2026-01-07 23:42:02.04	24.55	56.94	-43.3	-45.0	19.3	0.00e+00	0	44	0	0	58	4325
2026-01-07 23:42:03.04	24.67	57.32	-43.4	-45.2	19.2	0.00e+00	0	43	0	0	58	4405
2026-01-07 23:42:04.04	24.79	57.71	-43.4	-45.1	19.3	0.00e+00	0	44	0	0	58	4376
2026-01-07 23:42:05.04	24.91	58.10	-43.5	-45.2	19.2	0.00e+00	0	44	0	0	58	4436
2026-01-07 23:42:06.05	25.04	58.49	-43.5	-45.2	19.2	0.00e+00	0	43	0	0	58	4434
2026-01-07 23:42:07.05	25.17	58.89	-43.1	-44.9	19.4	0.00e+00	0	43	0	0	58	4247
2026-01-07 23:42:08.05	25.30	59.28	-42.8	-44.5	19.7	0.00e+00	0	44	0	0	57	4316
2026-01-07 23:42:09.05	25.44	59.68	-42.5	-44.1	20.1	0.00e+00	0	44	0	0	57	4135
2026-01-07 23:42:10.06	25.58	60.09	-42.5	-44.2	20.1	0.00e+00	0	43	0	0	56	4393
2026-01-07 23:42:11.06	25.73	60.49	-42.4	-44.0	20.3	0.00e+00	0	44	0	0	56	4317
2026-01-07 23:42:12.38	25.93	61.03	-42.3	-44.0	20.3	0.00e+00	0	44	0	0	56	4316
2026-01-07 23:42:13.10	26.04	61.32	-42.3	-44.0	20.3	0.00e+00	0	44	0	0	56	4318
2026-01-07 23:42:14.73	26.31	61.99	-42.1	-43.7	20.5	0.00e+00	0	44	0	0	56	4174
2026-01-07 23:42:15.31	26.40	62.23	-42.0	-43.6	20.6	0.00e+00	0	43	0	0	56	4109
2026-01-07 23:42:16.90	26.68	62.90	-41.7	-43.3	20.7	0.00e+00	0	44	0	0	55	4208
2026-01-07 23:42:17.47	26.79	63.14	-41.9	-43.5	20.5	0.00e+00	0	44	0	0	55	4328
2026-01-07 23:42:19.07	27.09	63.81	-42.1	-43.7	20.3	0.00e+00	0	44	0	0	55	4415
2026-01-07 23:42:19.74	27.22	64.10	-42.0	-43.6	20.5	0.00e+00	0	43	0	0	55	4372
2026-01-07 23:42:21.17	27.51	64.71	-41.9	-43.5	20.6	0.00e+00	0	44	0	0	55	4328
2026-01-07 23:42:21.97	27.68	65.05	-41.8	-43.4	20.6	0.00e+00	0	44	0	0	55	4251
2026-01-07 23:42:23.12	27.94	65.54	-41.9	-43.5	20.6	0.00e+00	0	44	0	0	55	4294
2026-01-07 23:42:23.98	28.13	65.92	-41.7	-43.4	20.7	0.00e+00	0	44	0	0	55	4244
2026-01-07 23:42:25.13	28.41	66.42	-41.5	-43.1	20.9	0.00e+00	0	43	0	0	54	4346
2026-01-07 23:42:26.25	28.69	66.91	-41.6	-43.1	20.9	0.00e+00	0	44	0	0	54	4384
2026-01-07 23:42:27.11	28.91	67.29	-41.8	-43.4	20.5	0.00e+00	0	44	0	0	54	4509
2026-01-07 23:42:28.61	29.32	67.95	-42.2	-43.9	20.2	0.00e+00	0	43	0	0	55	4496
2026-01-07 23:42:29.33	29.53	68.27	-41.9	-43.6	20.4	0.00e+00	0	43	0	0	55	4347
2026-01-07 23:42:30.62	29.91	68.84	-41.8	-43.4	20.4	0.00e+00	0	43	0	0	55	4284
2026-01-07 23:42:31.34	30.14	69.16	-41.7	-43.3	20.5	0.00e+00	0	44	0	0	55	4209
2026-01-07 23:42:32.63	30.56	69.74	-41.5	-43.0	20.7	0.00e+00	0	44	0	0	54	4337
2026-01-07 23:42:33.34	30.81	70.06	-41.3	-42.9	20.8	0.00e+00	0	43	0	0	54	4248
2026-01-07 23:42:34.63	31.27	70.64	-41.1	-42.7	21.0	0.00e+00	0	44	0	0	54	4149
2026-01-07 23:42:35.35	31.54	70.97	-41.3	-42.9	20.9	0.00e+00	0	44	0	0	54	4264
2026-01-07 23:42:36.64	32.06	71.56	-41.4	-43.0	20.9	0.00e+00	0	44	0	0	54	4311
2026-01-07 23:42:37.36	32.36	71.88	-41.5	-43.1	20.8	0.00e+00	0	44	0	0	54	4363
2026-01-07 23:42:38.65	32.93	72.47	-41.3	-42.9	21.1	0.00e+00	0	44	0	0	54	4245
2026-01-07 23:42:39.36	33.26	72.80	-41.4	-42.9	21.0	0.00e+00	0	44	0	0	54	4267
2026-01-07 23:42:40.65	33.90	73.39	-41.4	-43.0	21.0	0.00e+00	0	44	0	0	54	4303
2026-01-07 23:42:41.59	34.40	73.82	-41.4	-43.0	20.9	0.00e+00	0	43	0	0	54	4299
2026-01-07 23:42:42.59	34.95	74.28	-41.5	-43.1	20.9	0.00e+00	0	44	0	0	54	4342
2026-01-07 23:42:43.95	35.77	74.90	-41.1	-42.6	21.3	0.00e+00	0	44	0	0	54	4137
2026-01-07 23:42:44.70	36.25	75.25	-40.9	-42.4	21.5	0.00e+00	0	44	0	0	53	4269
2026-01-07 23:42:45.98	37.13	75.83	-41.8	-43.4	20.6	0.00e+00	0	44	0	0	54	4533
2026-01-07 23:42:46.76	37.70	76.19	-42.4	-44.1	20.1	0.00e+00	0	44	0	0	55	4611
2026-01-07 23:42:48.05	38.71	76.78	-42.3	-43.9	20.3	0.00e+00	0	43	0	0	55	4526
2026-01-07 23:42:48.77	39.32	77.11	-42.1	-43.7	20.5	0.00e+00	0	44	0	0	55	4409
2026-01-07 23:42:50.05	40.48	77.69	-42.3	-44.0	20.1	0.00e+00	0	43	0	0	55	4575
2026-01-07 23:42:50.77	41.18	78.02	-42.6	-44.4	19.8	0.00e+00	0	44	0	0	55	4760
2026-01-07 23:42:52.06	42.55	78.60	-42.9	-44.6	19.9	0.00e+00	0	44	0	0	56	4610
2026-01-07 23:42:52.78	43.37	78.92	-42.7	-44.3	20.0	0.00e+00	0	43	0	0	56	4493
2026-01-07 23:42:54.07	44.98	79.49	-42.3	-43.9	20.3	0.00e+00	0	44	0	0	56	4286
2026-01-07 23:42:54.78	45.94	79.81	-42.2	-43.9	20.3	0.00e+00	0	44	0	0	56	4264
2026-01-07 23:42:56.09	47.88	80.38	-42.1	-43.7	20.6	0.00e+00	0	44	0	0	56	4169
2026-01-07 23:42:56.81	49.05	80.68	-42.2	-43.8	20.5	0.00e+00	0	43	0	0	56	4221
2026-01-07 23:42:58.15	51.44	81.25	-41.9	-43.5	20.6	0.00e+00	0	43	0	0	55	4310
2026-01-07 23:42:58.86	52.84	81.54	-42.1	-43.8	20.3	0.00e+00	0	43	0	0	55	4446
2026-01-07 23:43:00.15	55.65	82.06	-42.0	-43.6	20.5	0.00e+00	0	43	0	0	55	4373
2026-01-07 23:43:00.87	57.38	82.34	-41.8	-43.4	20.6	0.00e+00	0	44	0	0	55	4254
2026-01-07 23:43:02.15	60.78	82.82	-42.0	-43.6	20.1	0.00e+00	0	44	0	0	55	4373
2026-01-07 23:43:02.87	62.90	83.08	-42.2	-43.9	19.9	0.00e+00	0	43	0	0	55	4521
2026-01-07 23:43:04.16	67.12	83.52	-42.4	-44.1	20.0	0.00e+00	0	44	0	0	55	4630
2026-01-07 23:43:04.88	69.73	83.75	-42.3	-43.9	20.1	0.00e+00	0	43	0	0	55	4543
2026-01-07 23:43:06.17	74.88	84.12	-42.3	-44.0	20.1	0.00e+00	0	43	0	0	55	4553
2026-01-07 23:43:06.89	78.04	84.31	-42.4	-44.1	19.9	0.00e+00	0	43	0	0	55	4602
2026-01-07 23:43:08.18	84.21	84.60	-43.1	-44.8	19.6	0.00e+00	0	44	0	0	57	4479
2026-01-07 23:43:08.90	87.93	84.73	-43.1	-44.8	19.6	0.00e+00	0	44	0	0	57	4476
2026-01-07 23:43:10.18	94.94	84.90	-43.1	-44.9	19.5	0.00e+00	0	44	0	0	57	4528
2026-01-07 23:43:10.90	99.06	84.97	-43.6	-45.4	19.0	0.00e+00	0	43	0	0	57	4810
2026-01-07 23:43:12.19	106.63	85.01	-42.7	-44.4	20.0	0.00e+00	0	44	0	0	57	4250
2026-01-07 23:43:12.91	110.88	85.00	-42.6	-44.3	20.0	0.00e+00	0	44	0	0	57	4214
2026-01-07 23:43:14.19	118.30	84.91	-42.6	-44.3	20.0	0.00e+00	0	44	0	0	56	4465
2026-01-07 23:43:14.91	122.32	84.83	-42.8	-44.5	19.9	0.00e+00	0	43	0	0	56	4585
2026-01-07 23:43:16.20	129.14	84.62	-42.5	-44.1	20.2	0.00e+00	0	43	0	0	56	4381
2026-01-07 23:43:16.91	132.65	84.47	-42.6	-44.3	20.1	0.00e+00	0	44	0	0	56	4465
2026-01-07 23:43:18.20	138.51	84.15	-42.2	-43.9	20.5	0.00e+00	0	43	0	0	56	4256
2026-01-07 23:43:18.92	141.50	83.95	-41.6	-43.2	20.8	0.00e+00	0	44	0	0	55	4175
2026-01-07 23:43:20.21	146.36	83.56	-42.3	-43.9	20.3	0.00e+00	0	43	0	0	55	4516
2026-01-07 23:43:20.93	148.81	83.32	-42.3	-44.0	20.2	0.00e+00	0	43	0	0	55	4572
2026-01-07 23:43:22.22	152.77	82.86	-42.3	-44.0	20.2	0.00e+00	0	44	0	0	55	4546
2026-01-07 23:43:23.07	155.11	82.55	-42.2	-43.8	20.2	0.00e+00	0	44	0	0	55	4493
2026-01-07 23:43:24.21	157.95	82.11	-42.3	-44.0	20.2	0.00e+00	0	44	0	0	55	4583
2026-01-07 23:43:25.07	159.88	81.76	-42.2	-43.8	20.3	0.00e+00	0	44	0	0	55	4479
2026-01-07 23:43:26.59	162.92	81.14	-42.5	-44.1	20.1	0.00e+00	0	44	0	0	55	4649
2026-01-07 23:43:27.30	164.19	80.84	-43.0	-44.8	19.7	0.00e+00	0	44	0	0	56	4706
2026-01-07 23:43:28.85	166.70	80.17	-42.6	-44.3	20.1	0.00e+00	0	44	0	0	56	4481
2026-01-07 23:43:29.56	167.74	79.86	-42.5	-44.2	20.2	0.00e+00	0	44	0	0	56	4403
2026-01-07 23:43:30.85	169.47	79.30	-42.5	-44.2	20.2	0.00e+00	0	44	0	0	56	4421
2026-01-07 23:43:31.56	170.34	78.98	-42.4	-44.1	20.2	0.00e+00	0	43	0	0	56	4343
2026-01-07 23:43:32.85	171.80	78.40	-42.5	-44.2	20.2	0.00e+00	0	44	0	0	56	4396
2026-01-07 23:43:33.57	172.55	78.08	-42.7	-44.3	20.0	0.00e+00	0	43	0	0	56	4484
2026-01-07 23:43:35.05	173.97	77.40	-42.5	-44.2	20.1	0.00e+00	0	44	0	0	56	4397
2026-01-07 23:43:35.76	174.60	77.08	-42.1	-43.7	20.5	0.00e+00	0	44	0	0	56	4157
2026-01-07 23:43:37.15	175.74	76.44	-41.9	-43.5	20.1	0.00e+00	0	43	0	0	55	4327
2026-01-07 23:43:37.87	176.29	76.11	-42.4	-44.0	20.0	0.00e+00	0	43	0	0	55	4584
2026-01-07 23:43:39.16	177.21	75.52	-42.5	-44.2	20.1	0.00e+00	0	43	0	0	55	4655
2026-01-07 23:43:40.22	177.91	75.03	-42.3	-43.9	20.1	0.00e+00	0	43	0	0	55	4530
2026-01-07 23:43:41.08	178.45	74.64	-42.0	-43.6	20.3	0.00e+00	0	44	0	0	55	4380
2026-01-07 23:43:42.22	179.11	74.11	-41.4	-43.0	21.0	0.00e+00	0	44	0	0	54	4316
2026-01-07 23:43:43.09	179.59	73.71	-41.6	-43.2	20.9	0.00e+00	0	43	0	0	54	4397
2026-01-07 23:43:44.23	180.18	73.19	-42.4	-44.1	20.1	0.00e+00	0	44	0	0	55	4620
2026-01-07 23:43:45.09	180.60	72.80	-42.5	-44.2	20.1	0.00e+00	0	44	0	0	55	4669
2026-01-07 23:43:46.23	181.13	72.27	-42.5	-44.2	20.1	0.00e+00	0	43	0	0	55	4652
2026-01-07 23:43:47.10	181.51	71.88	-42.4	-44.1	20.0	0.00e+00	0	43	0	0	55	4640
2026-01-07 23:43:48.43	182.06	71.27	-41.8	-43.4	20.4	0.00e+00	0	43	0	0	55	4269
2026-01-07 23:43:49.15	182.34	70.94	-41.6	-43.2	20.7	0.00e+00	0	44	0	0	55	4170
2026-01-07 23:43:50.66	182.90	70.26	-41.8	-43.5	20.7	0.00e+00	0	44	0	0	55	4293
2026-01-07 23:43:51.38	183.16	69.93	-42.4	-44.0	20.3	0.00e+00	0	44	0	0	55	4586
2026-01-07 23:43:52.75	183.61	69.32	-43.8	-45.6	18.9	0.00e+00	0	43	0	0	58	4622
2026-01-07 23:43:53.46	183.84	69.00	-43.8	-45.6	18.8	0.00e+00	0	44	0	0	58	4651
2026-01-07 23:43:54.75	184.23	68.42	-43.4	-45.1	19.3	0.00e+00	0	44	0	0	58	4387
2026-01-07 23:43:55.47	184.44	68.10	-43.0	-44.7	19.6	0.00e+00	0	44	0	0	58	4179
2026-01-07 23:43:56.76	184.80	67.53	-42.2	-43.8	20.5	0.00e+00	0	44	0	0	56	4218
2026-01-07 23:43:57.47	184.99	67.21	-42.1	-43.7	20.6	0.00e+00	0	43	0	0	56	4187
2026-01-07 23:43:58.76	185.32	66.65	-43.6	-45.4	19.2	0.00e+00	0	44	0	0	57	4771
2026-01-07 23:43:59.48	185.50	66.33	-44.0	-45.8	18.8	0.00e+00	0	44	0	0	58	4737
2026-01-07 23:44:00.77	185.81	65.77	-43.3	-45.0	19.4	0.00e+00	0	44	0	0	58	4333
2026-01-07 23:44:01.49	185.97	65.46	-42.8	-44.4	19.8	0.00e+00	0	44	0	0	57	4288
2026-01-07 23:44:02.78	186.25	64.90	-42.2	-43.8	20.4	0.00e+00	0	44	0	0	56	4211
2026-01-07 23:44:03.50	186.40	64.59	-42.1	-43.7	20.6	0.00e+00	0	44	0	0	56	4160
2026-01-07 23:44:04.79	186.67	64.04	-41.7	-43.3	20.8	0.00e+00	0	43	0	0	55	4202
2026-01-07 23:44:05.51	186.81	63.73	-42.0	-43.7	20.5	0.00e+00	0	44	0	0	55	4396
2026-01-07 23:44:06.80	187.05	63.19	-43.2	-44.9	19.6	0.00e+00	0	43	0	0	57	4509
2026-01-07 23:44:07.52	187.18	62.88	-44.0	-45.8	18.8	0.00e+00	0	44	0	0	58	4747
2026-01-07 23:44:08.81	187.41	62.34	-44.2	-46.1	18.4	0.00e+00	0	44	0	0	59	4607
2026-01-07 23:44:09.52	187.53	62.05	-43.8	-45.7	18.6	0.00e+00	0	43	0	0	59	4395
2026-01-07 23:44:10.82	187.74	61.51	-42.7	-44.3	19.7	0.00e+00	0	43	0	0	57	4238
2026-01-07 23:44:11.53	187.86	61.22	-42.2	-43.8	20.3	0.00e+00	0	43	0	0	56	4231
2026-01-07 23:44:12.82	188.06	60.69	-42.8	-44.4	19.9	0.00e+00	0	44	0	0	56	4544
2026-01-07 23:44:13.54	188.16	60.40	-43.2	-44.9	19.4	0.00e+00	0	44	0	0	57	4540
2026-01-07 23:44:14.83	188.35	59.88	-44.2	-46.1	18.5	0.00e+00	0	44	0	0	58	4875
2026-01-07 23:44:15.55	188.45	59.59	-44.0	-45.9	18.7	0.00e+00	0	44	0	0	59	4495
2026-01-07 23:44:16.84	188.63	59.07	-43.5	-45.3	19.3	0.00e+00	0	44	0	0	58	4468
2026-01-07 23:44:17.56	188.72	58.78	-43.8	-45.6	18.9	0.00e+00	0	44	0	0	58	4602
2026-01-07 23:44:18.85	188.89	58.28	-43.7	-45.6	18.9	0.00e+00	0	44	0	0	58	4600
2026-01-07 23:44:19.57	188.98	57.99	-43.4	-45.1	19.3	0.00e+00	0	44	0	0	58	4382
2026-01-07 23:44:20.86	189.14	57.49	-42.7	-44.4	19.9	0.00e+00	0	44	0	0	57	4251
2026-01-07 23:44:21.57	189.22	57.22	-42.9	-44.6	19.8	0.00e+00	0	43	0	0	57	4346
2026-01-07 23:44:22.86	189.37	56.72	-43.8	-45.5	19.0	0.00e+00	0	44	0	0	58	4591
2026-01-07 23:44:23.58	189.45	56.45	-43.9	-45.6	18.9	0.00e+00	0	44	0	0	58	4644
2026-01-07 23:44:24.87	189.59	55.96	-44.7	-46.5	18.2	0.00e+00	0	43	0	0	59	4865
2026-01-07 23:44:25.59	189.67	55.68	-44.9	-46.8	17.9	0.00e+00	0	44	0	0	60	4752
2026-01-07 23:44:26.88	189.80	55.20	-44.9	-46.8	17.9	0.00e+00	0	44	0	0	60	4727
2026-01-07 23:44:27.59	189.87	54.94	-44.9	-46.9	17.7	0.00e+00	0	43	0	0	60	4777
2026-01-07 23:44:28.89	190.00	54.46	-44.7	-46.6	18.0	0.00e+00	0	43	0	0	60	4608
2026-01-07 23:44:29.60	190.07	54.20	-44.5	-46.4	18.1	0.00e+00	0	44	0	0	60	4535
2026-01-07 23:44:30.89	190.19	53.73	-44.3	-46.2	18.3	0.00e+00	0	43	0	0	60	4408
2026-01-07 23:44:31.61	190.25	53.47	-44.0	-45.8	18.7	0.00e+00	0	44	0	0	60	4233
2026-01-07 23:44:32.90	190.37	53.00	-44.0	-45.8	18.7	0.00e+00	0	44	0	0	59	4469
2026-01-07 23:44:33.62	190.43	52.75	-44.2	-46.1	18.5	0.00e+00	0	44	0	0	59	4604
2026-01-07 23:44:34.91	190.54	52.29	-44.7	-46.7	18.1	0.00e+00	0	44	0	0	60	4656
2026-01-07 23:44:35.62	190.60	52.04	-45.3	-47.4	17.4	0.00e+00	0	44	0	0	61	4763
2026-01-07 23:44:36.92	190.71	51.59	-45.9	-48.1	16.7	0.00e+00	0	44	0	0	62	4910
2026-01-07 23:44:37.63	190.76	51.34	-46.1	-48.3	16.5	0.00e+00	0	43	0	0	62	4991
2026-01-07 23:44:38.92	190.86	50.90	-45.8	-47.9	16.9	0.00e+00	0	43	0	0	62	4772
2026-01-07 23:44:39.64	190.92	50.65	-45.6	-47.6	17.0	0.00e+00	0	44	0	0	62	4643
2026-01-07 23:44:40.93	191.01	50.21	-45.4	-47.4	17.3	0.00e+00	0	44	0	0	62	4533
2026-01-07 23:44:41.65	191.07	49.97	-45.4	-47.4	17.3	0.00e+00	0	44	0	0	62	4528
2026-01-07 23:44:42.94	191.16	49.54	-45.7	-47.8	16.9	0.00e+00	0	43	0	0	62	4713
2026-01-07 23:44:43.66	191.21	49.30	-45.9	-48.0	16.6	0.00e+00	0	44	0	0	62	4860
2026-01-07 23:44:44.95	191.30	48.87	-45.9	-48.0	16.7	0.00e+00	0	43	0	0	62	4854
2026-01-07 23:44:45.66	191.34	48.64	-45.6	-47.7	17.1	0.00e+00	0	44	0	0	62	4658
2026-01-07 23:44:46.95	191.43	48.22	-45.7	-47.7	17.0	0.00e+00	0	44	0	0	62	4695
2026-01-07 23:44:47.67	191.47	47.99	-46.0	-48.1	16.7	0.00e+00	0	43	0	0	62	4883
2026-01-07 23:44:48.96	191.56	47.58	-45.9	-48.0	16.8	0.00e+00	0	43	0	0	62	4867
2026-01-07 23:44:49.68	191.60	47.35	-46.0	-48.1	16.7	0.00e+00	0	43	0	0	62	4924
2026-01-07 23:44:50.97	191.68	46.94	-46.2	-48.4	16.3	0.00e+00	0	43	0	0	63	4804
2026-01-07 23:44:51.69	191.72	46.72	-46.2	-48.5	16.1	0.00e+00	0	43	0	0	63	4821
2026-01-07 23:44:52.98	191.80	46.31	-46.4	-48.7	15.6	0.00e+00	0	44	0	0	63	4981
2026-01-07 23:44:53.70	191.84	46.09	-46.5	-48.9	15.7	0.00e+00	0	44	0	0	63	5045
2026-01-07 23:44:54.99	191.91	45.70	-46.2	-48.5	16.3	0.00e+00	0	44	0	0	63	4821
2026-01-07 23:44:55.71	191.95	45.48	-46.2	-48.3	16.4	7.00e-07	0	43	0	0	63	4753
2026-01-07 23:44:57.00	192.02	45.09	-46.6	-48.8	16.0	0.00e+00	0	44	0	0	63	5039
2026-01-07 23:44:57.71	192.06	44.88	-46.6	-49.0	15.8	0.00e+00	0	43	0	0	64	4830
2026-01-07 23:44:59.00	192.13	44.49	-46.9	-49.2	15.5	0.00e+00	0	44	0	0	64	4981
2026-01-07 23:44:59.72	192.16	44.28	-47.1	-49.6	15.2	0.00e+00	0	44	0	0	64	5170
2026-01-07 23:45:01.01	192.23	43.90	-47.0	-49.5	15.2	0.00e+00	0	44	0	0	64	5102
2026-01-07 23:45:01.73	192.26	43.69	-46.8	-49.2	15.4	0.00e+00	0	44	0	0	64	4972
2026-01-07 23:45:03.02	192.33	43.32	-46.4	-48.7	15.9	0.00e+00	0	44	0	0	64	4657
2026-01-07 23:45:03.74	192.36	43.12	-46.3	-48.6	16.0	0.00e+00	0	44	0	0	64	4620
2026-01-07 23:45:05.03	192.42	42.75	-45.9	-48.1	16.7	0.00e+00	0	44	0	0	63	4610
2026-01-07 23:45:05.74	192.46	42.55	-45.8	-47.8	17.0	0.00e+00	0	44	0	0	63	4487
2026-01-07 23:45:07.03	192.52	42.19	-45.8	-47.9	17.0	0.00e+00	0	44	0	0	63	4519
2026-01-07 23:45:07.75	192.55	41.99	-46.0	-48.2	16.7	0.00e+00	0	44	0	0	63	4674
2026-01-07 23:45:09.04	192.61	41.63	-46.6	-48.9	16.0	0.00e+00	0	44	0	0	63	5089
2026-01-07 23:45:09.76	192.64	41.44	-46.7	-49.1	15.7	0.00e+00	0	44	0	0	64	4913
2026-01-07 23:45:11.05	192.69	41.08	-46.9	-49.4	15.4	0.00e+00	0	44	0	0	64	5048
2026-01-07 23:45:11.77	192.72	40.89	-47.1	-49.6	15.1	0.00e+00	0	44	0	0	64	5186
2026-01-07 23:45:13.06	192.78	40.55	-47.4	-50.0	14.8	0.00e+00	0	43	0	0	65	5119
2026-01-07 23:45:13.78	192.81	40.35	-47.2	-49.7	15.1	0.00e+00	0	43	0	0	65	4966
2026-01-07 23:45:15.07	192.86	40.01	-46.4	-48.7	16.1	0.00e+00	0	43	0	0	64	4661
2026-01-07 23:45:15.78	192.89	39.83	-46.2	-48.4	16.4	0.00e+00	0	43	0	0	64	4503
2026-01-07 23:45:17.08	192.94	39.49	-45.9	-48.0	16.8	0.00e+00	0	44	0	0	63	4571
2026-01-07 23:45:17.79	192.97	39.31	-45.5	-47.6	17.2	0.00e+00	0	44	0	0	63	4351
2026-01-07 23:45:19.09	193.02	38.97	-45.1	-47.0	17.7	0.00e+00	0	44	0	0	62	4339
2026-01-07 23:45:19.80	193.04	38.79	-45.2	-47.1	17.6	0.00e+00	0	44	0	0	62	4388
2026-01-07 23:45:21.09	193.09	38.47	-45.5	-47.5	17.1	0.00e+00	0	44	0	0	62	4587
2026-01-07 23:45:21.81	193.12	38.29	-45.7	-47.8	16.9	0.00e+00	0	43	0	0	62	4734
2026-01-07 23:45:23.10	193.16	37.97	-45.5	-47.5	17.3	0.00e+00	0	44	0	0	62	4590
2026-01-07 23:45:23.82	193.19	37.79	-45.1	-47.1	17.6	0.00e+00	0	44	0	0	62	4365
2026-01-07 23:45:25.11	193.23	37.47	-44.8	-46.7	18.0	0.00e+00	0	44	0	0	61	4404
2026-01-07 23:45:25.83	193.26	37.30	-44.7	-46.6	18.1	0.00e+00	0	44	0	0	61	4367
2026-01-07 23:45:27.11	193.30	36.99	-44.6	-46.5	18.2	0.00e+00	0	43	0	0	61	4305
2026-01-07 23:45:27.83	193.33	36.82	-44.7	-46.6	18.1	0.00e+00	0	44	0	0	61	4353
2026-01-07 23:45:29.13	193.37	36.51	-44.9	-46.9	17.8	0.00e+00	0	44	0	0	61	4495
2026-01-07 23:45:29.84	193.39	36.34	-45.1	-47.1	17.5	0.00e+00	0	44	0	0	61	4645
2026-01-07 23:45:31.13	193.43	36.04	-45.4	-47.5	17.2	0.00e+00	0	44	0	0	61	4838
2026-01-07 23:45:31.85	193.46	35.87	-45.5	-47.6	17.1	0.00e+00	0	44	0	0	61	4890
2026-01-07 23:45:33.14	193.50	35.57	-46.0	-48.1	16.5	0.00e+00	0	43	0	0	62	4923
2026-01-07 23:45:33.86	193.52	35.41	-46.1	-48.3	16.4	0.00e+00	0	44	0	0	62	4999
2026-01-07 23:45:35.15	193.56	35.11	-46.1	-48.3	16.3	0.00e+00	0	44	0	0	62	5015
2026-01-07 23:45:35.87	193.58	34.95	-46.0	-48.2	16.3	0.00e+00	0	44	0	0	62	4973
2026-01-07 23:45:37.16	193.62	34.66	-46.0	-48.2	16.3	0.00e+00	0	44	0	0	62	4931
2026-01-07 23:45:37.88	193.64	34.50	-45.9	-48.1	16.4	0.00e+00	0	44	0	0	62	4881
2026-01-07 23:45:39.17	193.68	34.21	-45.7	-47.9	16.6	0.00e+00	0	43	0	0	62	4767
2026-01-07 23:45:39.88	193.70	34.06	-45.7	-47.8	16.8	0.00e+00	0	44	0	0	62	4734
2026-01-07 23:45:41.18	193.74	33.77	-45.3	-47.3	17.3	0.00e+00	0	44	0	0	62	4461
2026-01-07 23:45:41.89	193.76	33.62	-45.0	-47.0	17.7	0.00e+00	0	44	0	0	62	4310
2026-01-07 23:45:43.18	193.79	33.34	-44.6	-46.6	18.0	0.00e+00	0	44	0	0	61	4349
2026-01-07 23:45:43.90	193.81	33.19	-44.6	-46.5	18.1	0.00e+00	0	44	0	0	61	4325
2026-01-07 23:45:45.19	193.85	32.92	-44.5	-46.4	18.2	0.00e+00	0	44	0	0	60	4514
2026-01-07 23:45:45.91	193.87	32.76	-44.4	-46.3	18.3	0.00e+00	0	43	0	0	60	4474
2026-01-07 23:45:47.20	193.90	32.49	-44.4	-46.3	18.4	0.00e+00	0	43	0	0	60	4454
2026-01-07 23:45:47.92	193.92	32.34	-44.4	-46.3	18.4	0.00e+00	0	44	0	0	60	4484
2026-01-07 23:45:49.21	193.96	32.08	-44.1	-45.9	18.7	0.00e+00	0	43	0	0	60	4286
2026-01-07 23:45:49.93	193.97	31.93	-44.0	-45.9	18.7	0.00e+00	0	44	0	0	60	4255
2026-01-07 23:45:51.22	194.01	31.67	-43.9	-45.7	18.8	0.00e+00	0	44	0	0	59	4415
2026-01-07 23:45:51.94	194.02	31.52	-43.9	-45.7	18.8	0.00e+00	0	43	0	0	59	4414
2026-01-07 23:45:53.23	194.06	31.26	-44.0	-45.8	18.7	0.00e+00	0	44	0	0	59	4465
2026-01-07 23:45:53.94	194.07	31.12	-44.2	-46.0	18.5	0.00e+00	0	44	0	0	59	4572
2026-01-07 23:45:55.24	194.11	30.86	-44.4	-46.2	18.3	0.00e+00	0	44	0	0	59	4703
2026-01-07 23:45:55.95	194.12	30.72	-44.4	-46.3	18.2	0.00e+00	0	44	0	0	59	4723
2026-01-07 23:45:57.24	194.15	30.47	-44.6	-46.5	18.0	0.00e+00	0	43	0	0	59	4854
2026-01-07 23:45:57.96	194.17	30.33	-44.7	-46.6	18.0	0.00e+00	0	44	0	0	60	4648
2026-01-07 23:45:59.25	194.20	30.08	-44.8	-46.8	17.8	0.00e+00	0	43	0	0	60	4728
2026-01-07 23:45:59.97	194.22	29.95	-44.8	-46.8	17.8	0.00e+00	0	44	0	0	60	4728
2026-01-07 23:46:01.26	194.25	29.70	-44.9	-46.9	17.8	0.00e+00	0	44	0	0	60	4779
2026-01-07 23:46:01.98	194.26	29.56	-44.8	-46.8	17.9	0.00e+00	0	44	0	0	60	4715
2026-01-07 23:46:03.27	194.29	29.32	-44.7	-46.6	17.9	0.00e+00	0	43	0	0	60	4649
2026-01-07 23:46:03.99	194.31	29.19	-44.7	-46.6	18.0	0.00e+00	0	44	0	0	60	4623
2026-01-07 23:46:05.28	194.34	28.95	-44.7	-46.6	17.9	0.00e+00	0	44	0	0	60	4647
2026-01-07 23:46:06.00	194.35	28.82	-44.7	-46.6	17.9	0.00e+00	0	44	0	0	60	4620
2026-01-07 23:46:07.29	194.38	28.58	-44.5	-46.4	18.1	0.00e+00	0	44	0	0	60	4545
2026-01-07 23:46:08.01	194.40	28.45	-44.4	-46.3	18.2	0.00e+00	0	43	0	0	60	4486
2026-01-07 23:46:09.30	194.42	28.22	-44.2	-46.1	18.4	0.00e+00	0	44	0	0	60	4355
2026-01-07 23:46:10.01	194.44	28.09	-44.2	-46.0	18.5	0.00e+00	0	44	0	0	60	4329
2026-01-07 23:46:11.30	194.47	27.86	-44.0	-45.9	18.6	0.00e+00	0	44	0	0	60	4251
2026-01-07 23:46:12.02	194.48	27.73	-43.9	-45.8	18.6	0.00e+00	0	44	0	0	59	4474
2026-01-07 23:46:13.31	194.51	27.51	-43.9	-45.8	18.5	0.00e+00	0	44	0	0	59	4477
2026-01-07 23:46:14.04	194.52	27.38	-43.9	-45.8	18.5	0.00e+00	0	43	0	0	59	4475
2026-01-07 23:46:15.33	194.55	27.16	-43.9	-45.8	18.6	0.00e+00	0	44	0	0	59	4459
2026-01-07 23:46:16.05	194.56	27.03	-43.8	-45.7	18.7	0.00e+00	0	44	0	0	59	4427
2026-01-07 23:46:17.34	194.59	26.81	-43.8	-45.6	18.8	0.00e+00	0	43	0	0	59	4375
2026-01-07 23:46:18.06	194.60	26.69	-43.7	-45.6	18.8	0.00e+00	0	44	0	0	59	4347
2026-01-07 23:46:19.35	194.63	26.47	-43.6	-45.5	18.9	0.00e+00	0	43	0	0	59	4295
2026-01-07 23:46:20.07	194.64	26.35	-43.6	-45.4	19.0	0.00e+00	0	44	0	0	59	4258
2026-01-07 23:46:21.36	194.66	26.13	-43.5	-45.4	19.0	0.00e+00	0	44	0	0	59	4246
2026-01-07 23:46:22.07	194.68	26.01	-43.6	-45.4	19.0	0.00e+00	0	44	0	0	59	4249
2026-01-07 23:46:23.37	194.70	25.80	-43.7	-45.5	18.9	0.00e+00	0	44	0	0	59	4294
2026-01-07 23:46:24.08	194.71	25.68	-43.7	-45.5	18.9	0.00e+00	0	44	0	0	59	4303
2026-01-07 23:46:25.37	194.74	25.47	-43.6	-45.4	18.9	0.00e+00	0	44	0	0	59	4269
2026-01-07 23:46:26.09	194.75	25.36	-43.6	-45.4	18.9	0.00e+00	0	44	0	0	59	4282
2026-01-07 23:46:27.38	194.77	25.15	-43.7	-45.5	18.9	0.00e+00	0	44	0	0	59	4318
2026-01-07 23:46:28.10	194.79	25.03	-43.6	-45.4	19.0	0.00e+00	0	44	0	0	59	4272
2026-01-07 23:46:29.39	194.81	24.83	-43.6	-45.4	19.0	0.00e+00	0	44	0	0	59	4244
2026-01-07 23:46:30.11	194.82	24.71	-43.6	-45.4	18.9	0.00e+00	0	43	0	0	59	4272
2026-01-07 23:46:31.40	194.85	24.51	-43.6	-45.4	19.0	0.00e+00	0	44	0	0	59	4253
2026-01-07 23:46:32.11	194.86	24.40	-43.6	-45.4	18.9	0.00e+00	0	44	0	0	59	4285
2026-01-07 23:46:33.40	194.88	24.20	-43.7	-45.5	18.9	0.00e+00	0	44	0	0	59	4331
2026-01-07 23:46:34.12	194.89	24.09	-43.7	-45.6	18.8	0.00e+00	0	43	0	0	59	4347
2026-01-07 23:46:35.42	194.91	23.89	-43.9	-45.7	18.8	0.00e+00	0	44	0	0	59	4397
2026-01-07 23:46:36.13	194.93	23.78	-43.9	-45.7	18.7	0.00e+00	0	44	0	0	59	4420
2026-01-07 23:46:37.42	194.95	23.58	-44.1	-45.9	18.5	0.00e+00	0	44	0	0	59	4524
2026-01-07 23:46:38.14	194.96	23.48	-44.1	-45.9	18.5	0.00e+00	0	44	0	0	59	4531
2026-01-07 23:46:39.43	194.98	23.28	-44.2	-46.1	18.4	0.00e+00	0	43	0	0	59	4621
2026-01-07 23:46:40.15	194.99	23.18	-44.3	-46.1	18.3	0.00e+00	0	43	0	0	59	4648
2026-01-07 23:46:41.44	195.01	22.98	-44.4	-46.3	18.3	0.00e+00	0	44	0	0	59	4709
2026-01-07 23:46:42.15	195.02	22.88	-44.4	-46.3	18.2	0.00e+00	0	44	0	0	59	4728
2026-01-07 23:46:43.45	195.04	22.69	-44.4	-46.3	18.2	0.00e+00	0	44	0	0	59	4719
2026-01-07 23:46:44.16	195.06	22.59	-44.4	-46.3	18.2	0.00e+00	0	44	0	0	59	4739
2026-01-07 23:46:45.45	195.08	22.40	-44.5	-46.4	18.1	0.00e+00	0	44	0	0	59	4778
2026-01-07 23:46:46.17	195.09	22.29	-44.5	-46.4	18.1	0.00e+00	0	44	0	0	59	4803
2026-01-07 23:46:47.46	195.11	22.11	-44.6	-46.5	18.0	0.00e+00	0	44	0	0	59	4826
2026-01-07 23:46:48.18	195.12	22.01	-44.5	-46.4	18.0	0.00e+00	0	44	0	0	59	4813
2026-01-07 23:46:49.47	195.14	21.82	-44.5	-46.4	18.1	0.00e+00	0	43	0	0	59	4808
2026-01-07 23:46:50.19	195.15	21.72	-44.5	-46.4	18.1	0.00e+00	0	43	0	0	59	4782
2026-01-07 23:46:51.48	195.17	21.54	-44.5	-46.4	18.0	0.00e+00	0	44	0	0	59	4814
2026-01-07 23:46:52.20	195.18	21.44	-44.5	-46.4	18.0	0.00e+00	0	44	0	0	59	4807
2026-01-07 23:46:53.49	195.20	21.26	-44.5	-46.5	18.0	0.00e+00	0	43	0	0	59	4827
2026-01-07 23:46:54.21	195.21	21.16	-44.6	-46.5	17.9	0.00e+00	0	43	0	0	59	4869
2026-01-07 23:46:55.49	195.23	20.99	-44.6	-46.6	17.8	0.00e+00	0	44	0	0	59	4897
2026-01-07 23:46:56.21	195.24	20.89	-44.7	-46.6	17.9	0.00e+00	0	44	0	0	60	4647
2026-01-07 23:46:57.50	195.25	20.72	-44.8	-46.7	17.8	0.00e+00	0	43	0	0	60	4700
2026-01-07 23:46:58.22	195.26	20.62	-44.8	-46.7	17.8	0.00e+00	0	44	0	0	60	4701
2026-01-07 23:46:59.51	195.28	20.45	-44.9	-46.9	17.6	0.00e+00	0	44	0	0	60	4774
2026-01-07 23:47:00.23	195.29	20.35	-44.8	-46.8	17.7	0.00e+00	0	44	0	0	60	4718
2026-01-07 23:47:01.52	195.31	20.18	-44.8	-46.8	17.7	0.00e+00	0	44	0	0	60	4739
2026-01-07 23:47:02.24	195.32	20.08	-44.8	-46.8	17.7	0.00e+00	0	44	0	0	60	4757
2026-01-07 23:47:03.53	195.34	19.91	-44.9	-46.9	17.6	0.00e+00	0	44	0	0	60	4791
2026-01-07 23:47:04.25	195.35	19.82	-44.9	-46.9	17.5	0.00e+00	0	44	0	0	60	4813
2026-01-07 23:47:05.54	195.37	19.65	-45.0	-47.0	17.4	0.00e+00	0	44	0	0	60	4855
2026-01-07 23:47:06.25	195.38	19.56	-45.1	-47.1	17.4	0.00e+00	0	43	0	0	60	4902
2026-01-07 23:47:07.55	195.39	19.39	-45.2	-47.2	17.3	0.00e+00	0	44	0	0	60	4979
2026-01-07 23:47:08.26	195.40	19.30	-45.1	-47.2	17.3	0.00e+00	0	44	0	0	61	4679
2026-01-07 23:47:09.55	195.42	19.14	-45.2	-47.3	17.2	0.00e+00	0	44	0	0	61	4737
2026-01-07 23:47:10.27	195.43	19.05	-45.2	-47.2	17.2	0.00e+00	0	44	0	0	61	4691
2026-01-07 23:47:11.57	195.45	18.88	-45.2	-47.3	17.2	0.00e+00	0	44	0	0	61	4727
2026-01-07 23:47:12.28	195.45	18.79	-45.2	-47.3	17.1	0.00e+00	0	43	0	0	61	4725
2026-01-07 23:47:13.57	195.47	18.63	-45.3	-47.4	17.1	0.00e+00	0	44	0	0	61	4768
2026-01-07 23:47:14.29	195.48	18.54	-45.3	-47.4	17.0	0.00e+00	0	43	0	0	61	4797
2026-01-07 23:47:15.58	195.50	18.39	-45.5	-47.6	16.8	0.00e+00	0	43	0	0	61	4913
2026-01-07 23:47:16.30	195.51	18.30	-45.5	-47.6	16.8	0.00e+00	0	44	0	0	61	4899
2026-01-07 23:47:17.59	195.52	18.14	-45.6	-47.8	16.7	0.00e+00	0	43	0	0	61	5012
2026-01-07 23:47:18.31	195.53	18.05	-45.7	-47.9	16.5	0.00e+00	0	43	0	0	62	4794
2026-01-07 23:47:19.60	195.55	17.90	-45.8	-48.0	16.4	0.00e+00	0	44	0	0	62	4856
2026-01-07 23:47:20.31	195.56	17.81	-45.8	-48.1	16.4	0.00e+00	0	43	0	0	62	4896
2026-01-07 23:47:21.60	195.57	17.66	-45.8	-48.1	16.4	0.00e+00	0	44	0	0	62	4892
2026-01-07 23:47:22.32	195.58	17.57	-45.9	-48.1	16.4	0.00e+00	0	43	0	0	62	4901
2026-01-07 23:47:23.61	195.60	17.42	-46.0	-48.3	16.2	0.00e+00	0	43	0	0	62	4994
2026-01-07 23:47:24.33	195.60	17.33	-46.0	-48.3	16.2	0.00e+00	0	43	0	0	62	5002
2026-01-07 23:47:25.62	195.62	17.18	-46.0	-48.3	16.2	0.00e+00	0	43	0	0	62	5034
2026-01-07 23:47:26.34	195.63	17.10	-46.1	-48.4	16.1	0.00e+00	0	44	0	0	62	5092
2026-01-07 23:47:27.63	195.64	16.95	-46.1	-48.5	16.0	0.00e+00	0	44	0	0	62	5129
2026-01-07 23:47:28.35	195.65	16.86	-46.1	-48.5	16.1	0.00e+00	0	44	0	0	63	4816
2026-01-07 23:47:29.64	195.67	16.71	-46.3	-48.7	15.9	0.00e+00	0	44	0	0	63	4962
2026-01-07 23:47:30.36	195.68	16.63	-46.3	-48.7	15.9	0.00e+00	0	44	0	0	63	4937
2026-01-07 23:47:31.65	195.69	16.48	-46.4	-48.8	15.8	0.00e+00	0	44	0	0	63	5026
2026-01-07 23:47:32.37	195.70	16.40	-46.4	-48.8	15.8	0.00e+00	0	44	0	0	63	5008
2026-01-07 23:47:33.66	195.71	16.26	-46.4	-48.8	15.8	0.00e+00	0	43	0	0	63	5011
2026-01-07 23:47:34.38	195.72	16.17	-46.4	-48.8	15.8	0.00e+00	0	44	0	0	63	4993
2026-01-07 23:47:35.67	195.74	16.03	-46.3	-48.7	15.8	0.00e+00	0	44	0	0	63	4960
2026-01-07 23:47:36.38	195.74	15.95	-46.3	-48.7	15.9	0.00e+00	0	44	0	0	63	4951
2026-01-07 23:47:37.68	195.76	15.81	-46.3	-48.7	15.9	0.00e+00	0	43	0	0	63	4955
2026-01-07 23:47:38.40	195.77	15.73	-46.3	-48.6	15.9	0.00e+00	0	44	0	0	63	4922
2026-01-07 23:47:39.69	195.78	15.59	-46.3	-48.7	15.9	0.00e+00	0	44	0	0	63	4952
2026-01-07 23:47:40.40	195.79	15.51	-46.4	-48.8	15.8	0.00e+00	0	44	0	0	63	4993
2026-01-07 23:47:41.70	195.80	15.37	-46.4	-48.9	15.7	0.00e+00	0	44	0	0	63	5050
2026-01-07 23:47:42.41	195.81	15.29	-46.5	-48.9	15.6	0.00e+00	0	44	0	0	63	5088
2026-01-07 23:47:43.70	195.82	15.15	-46.6	-49.0	15.5	0.00e+00	0	44	0	0	63	5132
2026-01-07 23:47:44.42	195.83	15.07	-46.6	-49.1	15.5	0.00e+00	0	44	0	0	63	5187
2026-01-07 23:47:45.71	195.85	14.93	-46.7	-49.1	15.3	0.00e+00	0	43	0	0	64	4919
2026-01-07 23:47:46.43	195.85	14.86	-46.7	-49.2	15.3	0.00e+00	0	44	0	0	64	4962
2026-01-07 23:47:47.72	195.87	14.72	-46.7	-49.2	15.3	0.00e+00	0	44	0	0	64	4927
2026-01-07 23:47:48.44	195.87	14.64	-46.7	-49.3	15.2	0.00e+00	0	43	0	0	64	4996
2026-01-07 23:47:49.73	195.89	14.51	-46.7	-49.3	15.2	0.00e+00	0	43	0	0	64	4993
2026-01-07 23:47:50.45	195.90	14.43	-46.7	-49.2	15.3	0.00e+00	0	43	0	0	64	4946
2026-01-07 23:47:51.74	195.91	14.30	-46.7	-49.2	15.3	0.00e+00	0	44	0	0	64	4934
2026-01-07 23:47:52.46	195.92	14.22	-46.7	-49.2	15.3	0.00e+00	0	44	0	0	64	4936
2026-01-07 23:47:53.75	195.93	14.09	-46.7	-49.2	15.2	0.00e+00	0	44	0	0	64	4962
2026-01-07 23:47:54.47	195.94	14.02	-46.7	-49.2	15.2	0.00e+00	0	43	0	0	64	4961
2026-01-07 23:47:55.76	195.95	13.88	-46.7	-49.2	15.2	0.00e+00	0	44	0	0	64	4977
2026-01-07 23:47:56.48	195.96	13.81	-46.7	-49.3	15.2	0.00e+00	0	44	0	0	64	4995
2026-01-07 23:47:57.77	195.97	13.68	-46.8	-49.4	15.0	0.00e+00	0	44	0	0	64	5085
2026-01-07 23:47:58.48	195.98	13.61	-46.8	-49.4	15.0	0.00e+00	0	43	0	0	64	5100
2026-01-07 23:47:59.78	195.99	13.48	-46.9	-49.6	14.9	0.00e+00	0	44	0	0	64	5160
2026-01-07 23:48:00.49	196.00	13.40	-47.0	-49.6	14.9	0.00e+00	0	44	0	0	64	5188
2026-01-07 23:48:01.78	196.01	13.27	-47.1	-49.7	14.7	0.00e+00	0	44	0	0	64	5279
2026-01-07 23:48:02.50	196.02	13.20	-47.1	-49.8	14.7	0.00e+00	0	44	0	0	64	5282
2026-01-07 23:48:03.79	196.03	13.07	-47.1	-49.8	14.7	0.00e+00	0	43	0	0	64	5280
2026-01-07 23:48:04.51	196.04	13.00	-47.1	-49.8	14.6	1.50e-06	0	44	0	0	64	5318
2026-01-07 23:48:05.80	196.05	12.88	-47.1	-49.9	14.6	0.00e+00	0	44	0	0	65	5055
2026-01-07 23:48:06.52	196.06	12.81	-47.2	-50.0	14.5	0.00e+00	0	44	0	0	65	5109
2026-01-07 23:48:07.81	196.07	12.68	-47.2	-49.9	14.5	0.00e+00	0	44	0	0	65	5087
2026-01-07 23:48:08.53	196.08	12.61	-47.2	-50.0	14.4	1.50e-06	0	44	0	0	65	5125
2026-01-07 23:48:09.82	196.09	12.49	-47.2	-49.9	14.5	1.50e-06	0	44	0	0	65	5100
2026-01-07 23:48:10.54	196.09	12.42	-47.2	-50.0	14.4	0.00e+00	0	43	0	0	65	5111
2026-01-07 23:48:11.83	196.11	12.29	-47.2	-50.0	14.5	7.00e-07	0	44	0	0	65	5105
2026-01-07 23:48:12.54	196.11	12.22	-47.3	-50.1	14.3	0.00e+00	0	44	0	0	65	5173
2026-01-07 23:48:13.83	196.13	12.10	-47.3	-50.1	14.3	7.00e-07	0	44	0	0	65	5167
2026-01-07 23:48:14.55	196.13	12.03	-47.4	-50.2	14.2	2.20e-06	0	44	0	0	65	5245
2026-01-07 23:48:15.84	196.14	11.91	-47.5	-50.3	14.1	7.00e-07	0	44	0	0	65	5327
2026-01-07 23:48:16.56	196.15	11.84	-47.5	-50.3	14.1	2.20e-06	0	44	0	0	65	5319
2026-01-07 23:48:17.85	196.16	11.72	-47.6	-50.5	13.9	0.00e+00	0	44	0	0	65	5433
2026-01-07 23:48:18.57	196.17	11.65	-47.6	-50.6	13.8	5.30e-06	0	43	0	0	65	5478
2026-01-07 23:48:19.86	196.18	11.53	-47.7	-50.7	13.7	6.80e-06	0	44	0	0	66	5255
2026-01-07 23:48:20.58	196.19	11.47	-47.7	-50.8	13.6	9.90e-06	0	44	0	0	66	5298
2026-01-07 23:48:21.87	196.20	11.35	-47.8	-50.9	13.4	1.29e-05	0	44	0	0	66	5386
2026-01-07 23:48:22.58	196.20	11.28	-47.9	-51.0	13.4	1.29e-05	0	44	0	0	66	5447
2026-01-07 23:48:23.88	196.22	11.16	-47.9	-51.1	13.3	2.13e-05	0	44	0	0	66	5482
2026-01-07 23:48:24.59	196.22	11.10	-47.9	-51.1	13.2	2.28e-05	0	44	0	0	66	5512
2026-01-07 23:48:25.89	196.23	10.98	-48.0	-51.3	13.0	3.50e-05	0	44	0	0	66	5612
2026-01-07 23:48:26.60	196.24	10.92	-48.1	-51.5	12.9	3.35e-05	0	43	0	0	66	5728
2026-01-07 23:48:27.89	196.25	10.80	-48.1	-51.4	12.9	4.73e-05	0	43	0	0	66	5714
2026-01-07 23:48:28.61	196.26	10.73	-48.0	-51.4	13.0	3.96e-05	0	43	0	0	66	5673
2026-01-07 23:48:29.91	196.27	10.62	-48.0	-51.4	12.9	5.95e-05	0	44	0	0	66	5706
2026-01-07 23:48:30.62	196.28	10.55	-48.1	-51.6	12.8	6.17e-05	0	44	0	0	66	5797
2026-01-07 23:48:31.91	196.29	10.44	-48.1	-51.6	12.7	6.79e-05	0	44	0	0	66	5804
2026-01-07 23:48:32.63	196.29	10.38	-48.1	-51.6	12.7	6.25e-05	0	44	0	0	66	5814
2026-01-07 23:48:33.92	196.30	10.26	-48.2	-51.7	12.6	7.32e-05	0	44	0	0	67	5550
2026-01-07 23:48:34.64	196.31	10.20	-48.2	-51.7	12.6	9.61e-05	0	44	0	0	67	5561
2026-01-07 23:48:35.93	196.32	10.09	-48.3	-51.8	12.5	1.23e-04	0	44	0	0	67	5627
2026-01-07 23:48:36.65	196.33	10.02	-48.3	-51.9	12.4	1.17e-04	0	44	0	0	67	5666
2026-01-07 23:48:37.94	196.34	9.91	-48.3	-51.9	12.4	1.79e-04	0	44	0	0	67	5699
2026-01-07 23:48:38.66	196.34	9.85	-48.4	-52.0	12.3	1.89e-04	0	44	0	0	67	5773
2026-01-07 23:48:39.95	196.35	9.74	-48.6	-52.3	11.9	2.68e-04	0	43	0	0	67	5967
2026-01-07 23:48:40.66	196.36	9.67	-48.6	-52.4	11.9	3.65e-04	0	44	0	0	67	5998
2026-01-07 23:48:41.96	196.37	9.56	-48.7	-52.5	11.7	4.58e-04	0	44	0	0	67	6106
2026-01-07 23:48:42.67	196.38	9.50	-48.9	-52.8	11.6	6.60e-04	0	43	0	0	68	5933
2026-01-07 23:48:43.96	196.39	9.39	-48.9	-52.9	11.5	7.99e-04	0	44	0	0	68	6039
2026-01-07 23:48:44.68	196.39	9.33	-49.0	-53.0	11.3	9.15e-04	0	44	0	0	68	6122
2026-01-07 23:48:45.97	196.40	9.22	-49.1	-53.2	11.2	1.35e-03	0	43	0	0	68	6212
2026-01-07 23:48:46.69	196.41	9.16	-49.1	-53.3	11.0	1.68e-03	0	44	0	0	68	6310
2026-01-07 23:48:47.98	196.42	9.05	-49.2	-53.4	11.0	2.06e-03	0	44	0	0	69	6009
2026-01-07 23:48:48.70	196.43	8.99	-50.0	-55.0	9.5	3.12e-03	0	44	0	0	70	6867
2026-01-07 23:48:49.99	196.44	8.88	-52.3	-65.6	3.8	1.49e+00	0	44	104	0	75	17308
2026-01-07 23:48:50.71	196.44	8.82	-52.8	-65.9	3.8	1.49e+00	0	44	104	0	76	16999
2026-01-07 23:48:52.00	196.45	8.72	-53.0	-66.0	3.8	1.49e+00	0	44	104	0	76	17212
2026-01-07 23:48:52.72	196.46	8.66	-53.1	-66.1	3.8	1.49e+00	0	44	104	0	76	17282
2026-01-07 23:48:54.01	196.47	8.55	-52.9	-66.1	3.8	1.49e+00	0	43	104	0	76	17444
2026-01-07 23:48:54.73	196.47	8.49	-53.0	-66.1	3.8	1.49e+00	0	44	104	0	76	17429
2026-01-07 23:48:56.02	196.48	8.39	-53.0	-66.1	3.8	1.49e+00	0	44	104	0	77	16487
2026-01-07 23:48:56.74	196.49	8.33	-53.2	-66.2	3.8	1.49e+00	0	44	104	0	77	16565
2026-01-07 23:48:58.03	196.50	8.22	-53.1	-66.2	3.8	1.49e+00	0	44	104	0	77	16591
2026-01-07 23:48:58.75	196.50	8.16	-53.3	-66.2	3.8	1.49e+00	0	44	104	0	77	16683
2026-01-07 23:49:00.04	196.51	8.06	-53.0	-66.2	3.8	1.49e+00	0	44	104	0	77	16647
2026-01-07 23:49:00.75	196.52	8.00	-53.3	-66.2	3.8	1.49e+00	0	44	104	0	77	16612
2026-01-07 23:49:02.05	196.53	7.90	-53.2	-66.2	3.8	1.49e+00	0	44	104	0	77	16629
2026-01-07 23:49:02.77	196.54	7.84	-53.2	-66.2	3.8	1.49e+00	0	44	104	0	77	16651
2026-01-07 23:49:04.06	196.55	7.74	-53.1	-66.2	3.8	1.49e+00	0	44	104	0	77	16575
2026-01-07 23:49:04.77	196.55	7.68	-53.2	-66.2	3.8	1.49e+00	0	44	104	0	77	16623
2026-01-07 23:49:06.06	196.56	7.58	-53.3	-66.2	3.8	1.49e+00	0	44	104	0	77	16571
2026-01-07 23:49:06.78	196.57	7.52	-53.3	-66.2	3.8	1.49e+00	0	44	104	0	77	16639
2026-01-07 23:49:08.07	196.58	7.42	-53.1	-66.2	3.8	1.49e+00	0	43	104	0	77	16590
2026-01-07 23:49:08.79	196.58	7.36	-53.2	-66.2	3.8	1.49e+00	0	44	104	0	77	16590
2026-01-07 23:49:10.08	196.59	7.26	-53.2	-66.2	3.8	1.49e+00	0	44	104	0	77	16557
2026-01-07 23:49:10.80	196.60	7.20	-53.1	-66.2	3.8	1.49e+00	0	44	104	0	77	16558
2026-01-07 23:49:12.09	196.61	7.10	-52.9	-66.1	3.8	1.49e+00	0	44	104	0	77	16482
2026-01-07 23:49:12.81	196.61	7.05	-52.7	-66.2	3.8	1.49e+00	0	44	104	0	77	16553
2026-01-07 23:49:14.10	196.62	6.95	-52.7	-66.1	3.8	1.49e+00	0	44	104	0	77	16499
2026-01-07 23:49:14.82	196.63	6.89	-52.7	-66.1	3.8	1.49e+00	0	44	104	0	77	16501
2026-01-07 23:49:16.11	196.63	6.79	-52.7	-66.1	3.8	1.49e+00	0	44	104	0	77	16455
2026-01-07 23:49:16.82	196.64	6.74	-52.7	-66.1	3.8	1.49e+00	0	44	104	0	77	16471
2026-01-07 23:49:18.12	196.65	6.64	-52.7	-66.2	3.8	1.49e+00	0	44	104	0	77	16510
2026-01-07 23:49:18.83	196.65	6.58	-52.7	-66.1	3.8	1.49e+00	0	44	104	0	77	16446
2026-01-07 23:49:20.12	196.66	6.49	-52.7	-66.1	3.8	1.49e+00	0	44	104	0	77	16491
2026-01-07 23:49:20.84	196.67	6.43	-52.7	-66.1	3.8	1.49e+00	0	44	104	0	77	16427
2026-01-07 23:49:22.13	196.68	6.33	-52.7	-66.1	3.8	1.49e+00	0	44	104	0	77	16464
2026-01-07 23:49:22.85	196.68	6.28	-52.7	-66.1	3.8	1.49e+00	0	44	104	0	77	16445
2026-01-07 23:49:24.14	196.69	6.18	-52.7	-66.1	3.8	1.49e+00	0	44	104	0	77	16486
2026-01-07 23:49:24.86	196.70	6.13	-52.7	-66.2	3.8	1.49e+00	0	44	104	0	77	16520
2026-01-07 23:49:26.15	196.71	6.03	-52.7	-66.1	3.8	1.49e+00	0	44	104	0	77	16472
2026-01-07 23:49:26.87	196.71	5.98	-52.7	-66.1	3.8	1.49e+00	0	44	104	0	77	16422
2026-01-07 23:49:28.16	196.72	5.88	-52.7	-66.1	3.8	1.49e+00	0	44	104	0	77	16427
2026-01-07 23:49:28.88	196.73	5.83	-52.7	-66.1	3.8	1.49e+00	0	44	104	0	77	16443
2026-01-07 23:49:30.17	196.73	5.73	-52.7	-66.2	3.8	1.49e+00	0	44	104	0	77	16534
2026-01-07 23:49:30.89	196.74	5.68	-52.7	-66.1	3.8	1.49e+00	0	44	104	0	77	16487
2026-01-07 23:49:32.18	196.75	5.59	-52.7	-66.1	3.8	1.49e+00	0	44	104	0	77	16500
2026-01-07 23:49:32.90	196.75	5.53	-52.7	-66.1	3.8	1.49e+00	0	44	104	0	77	16457
2026-01-07 23:49:34.19	196.76	5.44	-52.7	-66.1	3.8	1.49e+00	0	44	104	0	77	16473
2026-01-07 23:49:34.91	196.77	5.39	-52.7	-66.1	3.8	1.49e+00	0	44	104	0	77	16468
