passes_logs/2026/01/07/T1/T1__20260107_224648_NOAA_20_JPSS-1_rec.log

#Pass ID: 20260107_224648_NOAA 20 (JPSS-1)
#Satellite: NOAA 20 (JPSS-1)
#Configuration: NOAA 20
#almurnet v.1.7.20251203
#Start time: 2026-01-07 22:46:51

#Version: 2.0.20230620
#Station: T1
#Location: 37.570604 lon 55.790049 lat
#TLE: 1 43013U 17073A   26006.30790171  .00000126  00000+0  80695-4 0  9991
#TLE: 2 43013  98.7629 307.3394 0001808  51.8724 308.2615 14.19533762421505

#Time	Az	El	Level	Level2	SNR	BER	BlckErr	Temp	State	Recorded	gain1	gain2
2026-01-07 22:46:51.33	23.43	5.17	-52.2	-67.6	3.8	1.49e+00	0	40	104	0	75	21990
2026-01-07 22:46:52.33	23.48	5.24	-52.2	-67.6	3.8	1.49e+00	0	40	104	0	75	21969
2026-01-07 22:46:53.34	23.54	5.31	-52.2	-67.6	3.8	1.49e+00	0	40	104	0	75	21973
2026-01-07 22:46:54.34	23.60	5.38	-52.2	-67.6	3.8	1.49e+00	0	40	104	0	75	21903
2026-01-07 22:46:55.33	23.65	5.44	-52.2	-67.6	3.8	1.49e+00	0	41	104	0	75	21774
2026-01-07 22:46:56.33	23.71	5.51	-52.2	-67.6	3.8	1.49e+00	0	40	104	0	75	21797
2026-01-07 22:46:57.34	23.76	5.58	-52.2	-67.5	3.8	1.49e+00	0	40	104	0	75	21602
2026-01-07 22:46:58.34	23.82	5.65	-52.2	-67.5	3.8	1.49e+00	0	40	104	0	75	21546
2026-01-07 22:46:59.35	23.87	5.71	-52.2	-67.5	3.8	1.49e+00	0	41	104	0	75	21522
2026-01-07 22:47:00.35	23.93	5.78	-52.2	-67.5	3.8	1.49e+00	0	41	104	0	75	21574
2026-01-07 22:47:01.35	23.99	5.85	-52.2	-67.4	3.8	1.49e+00	0	41	104	0	75	21499
2026-01-07 22:47:02.36	24.04	5.92	-52.2	-67.5	3.8	1.49e+00	0	40	104	0	75	21587
2026-01-07 22:47:03.36	24.10	5.99	-52.2	-67.5	3.8	1.49e+00	0	41	104	0	75	21627
2026-01-07 22:47:04.37	24.16	6.06	-52.2	-67.5	3.8	1.49e+00	0	41	104	0	75	21650
2026-01-07 22:47:05.37	24.22	6.13	-52.2	-67.6	3.8	1.49e+00	0	41	104	0	75	21771
2026-01-07 22:47:06.38	24.28	6.20	-52.2	-67.6	3.8	1.49e+00	0	41	104	0	75	21851
2026-01-07 22:47:07.38	24.33	6.27	-52.2	-67.6	3.8	1.49e+00	0	41	104	0	75	21966
2026-01-07 22:47:08.39	24.39	6.34	-52.2	-67.6	3.8	1.49e+00	0	41	104	0	75	21877
2026-01-07 22:47:09.39	24.45	6.41	-52.2	-67.6	3.8	1.49e+00	0	41	104	0	75	21877
2026-01-07 22:47:10.39	24.51	6.48	-52.2	-67.6	3.8	1.49e+00	0	41	104	0	75	21956
2026-01-07 22:47:11.39	24.57	6.55	-52.2	-67.6	3.8	1.49e+00	0	41	104	0	75	21802
2026-01-07 22:47:12.39	24.63	6.62	-52.2	-67.6	3.8	1.49e+00	0	41	104	0	75	21791
2026-01-07 22:47:13.40	24.69	6.69	-52.2	-67.6	3.8	1.49e+00	0	41	104	0	75	21767
2026-01-07 22:47:14.40	24.75	6.76	-52.2	-67.5	3.8	1.49e+00	0	41	104	0	75	21595
2026-01-07 22:47:15.41	24.81	6.83	-52.2	-67.4	3.8	1.49e+00	0	41	104	0	75	21446
2026-01-07 22:47:16.41	24.87	6.90	-52.2	-67.4	3.8	1.49e+00	0	41	104	0	75	21366
2026-01-07 22:47:17.42	24.93	6.97	-52.2	-67.3	3.8	1.49e+00	0	41	104	0	75	21226
2026-01-07 22:47:18.42	24.99	7.04	-52.2	-67.4	3.8	1.49e+00	0	41	104	0	75	21264
2026-01-07 22:47:19.42	25.05	7.11	-52.2	-67.4	3.8	1.49e+00	0	41	104	0	75	21380
2026-01-07 22:47:20.43	25.12	7.19	-52.2	-67.5	3.8	1.49e+00	0	41	104	0	75	21566
2026-01-07 22:47:21.43	25.18	7.26	-52.2	-67.5	3.8	1.49e+00	0	41	104	0	75	21635
2026-01-07 22:47:22.43	25.24	7.33	-52.2	-67.6	3.8	1.49e+00	0	41	104	0	75	21952
2026-01-07 22:47:23.44	25.30	7.40	-52.2	-67.6	3.8	1.49e+00	0	41	104	0	75	21917
2026-01-07 22:47:24.44	25.36	7.47	-52.2	-67.6	3.8	1.49e+00	0	41	104	0	75	21791
2026-01-07 22:47:25.45	25.43	7.55	-52.2	-67.5	3.8	1.49e+00	0	41	104	0	75	21587
2026-01-07 22:47:26.45	25.49	7.62	-52.2	-67.4	3.8	1.49e+00	0	41	104	0	75	21274
2026-01-07 22:47:27.46	25.56	7.69	-52.2	-67.1	3.8	1.49e+00	0	42	104	0	75	20747
2026-01-07 22:47:28.46	25.62	7.77	-52.1	-67.1	3.8	1.49e+00	0	41	104	0	75	20559
2026-01-07 22:47:29.46	25.68	7.84	-52.2	-67.1	3.8	1.49e+00	0	41	104	0	75	20553
2026-01-07 22:47:30.47	25.75	7.91	-52.2	-67.1	3.8	1.49e+00	0	41	104	0	75	20678
2026-01-07 22:47:31.47	25.81	7.99	-52.2	-67.1	3.8	1.49e+00	0	42	104	0	75	20755
2026-01-07 22:47:32.48	25.88	8.06	-52.2	-67.3	3.8	1.49e+00	0	42	104	0	75	21073
2026-01-07 22:47:33.48	25.95	8.13	-52.2	-67.3	3.8	1.49e+00	0	42	104	0	75	21152
2026-01-07 22:47:34.48	26.01	8.21	-52.1	-67.2	3.8	1.49e+00	0	42	104	0	75	20991
2026-01-07 22:47:35.49	26.08	8.28	-52.1	-67.1	3.8	1.49e+00	0	42	104	0	75	20772
2026-01-07 22:47:36.49	26.14	8.36	-52.2	-67.0	3.8	1.49e+00	0	42	104	0	75	20332
2026-01-07 22:47:37.50	26.21	8.43	-52.1	-66.8	3.8	1.49e+00	0	42	104	0	75	19848
2026-01-07 22:47:38.50	26.28	8.51	-52.1	-66.5	3.8	1.49e+00	0	42	104	0	75	19346
2026-01-07 22:47:39.51	26.35	8.58	-52.1	-66.3	3.8	1.49e+00	0	42	104	0	75	18846
2026-01-07 22:47:40.51	26.41	8.66	-52.1	-66.2	3.8	1.49e+00	0	42	104	0	75	18544
2026-01-07 22:47:41.52	26.48	8.73	-52.1	-65.9	3.8	1.49e+00	0	42	104	0	75	17937
2026-01-07 22:47:42.52	26.55	8.81	-52.1	-65.1	4.0	1.49e+00	0	42	104	0	75	16429
2026-01-07 22:47:43.52	26.62	8.89	-52.0	-64.1	4.2	1.48e+00	0	42	0	0	75	14619
2026-01-07 22:47:44.53	26.69	8.96	-51.8	-62.7	4.7	1.09e+00	0	42	0	1048576	75	12424
2026-01-07 22:47:45.53	26.76	9.04	-51.7	-61.3	5.4	6.86e-01	0	42	0	3145728	75	10628
2026-01-07 22:47:46.54	26.83	9.12	-51.7	-61.1	5.6	3.99e-01	0	42	0	4194304	75	10331
2026-01-07 22:47:47.54	26.90	9.19	-52.2	-64.4	4.1	6.53e-01	0	42	0	6291456	75	15126
2026-01-07 22:47:48.54	26.97	9.27	-51.6	-60.5	5.7	1.49e+00	0	42	104	6291456	75	9672
2026-01-07 22:47:49.54	27.04	9.35	-51.9	-62.6	4.9	4.22e-02	0	42	0	7340032	74	13077
2026-01-07 22:47:50.55	27.11	9.42	-50.6	-56.8	8.9	1.26e+00	0	42	104	7340032	73	7061
2026-01-07 22:47:51.55	27.18	9.50	-48.8	-52.7	13.8	3.80e-06	0	42	0	8388608	69	5557
2026-01-07 22:47:52.81	27.27	9.60	-48.5	-52.2	14.3	0.00e+00	0	42	0	10485760	69	5275
2026-01-07 22:47:53.61	27.33	9.66	-48.7	-52.6	14.0	1.50e-06	0	42	0	12582912	69	5476
2026-01-07 22:47:54.75	27.41	9.75	-48.5	-52.1	14.4	7.00e-07	0	42	0	14680064	69	5170
2026-01-07 22:47:55.80	27.49	9.83	-48.2	-51.7	14.8	0.00e+00	0	42	0	16777216	68	5223
2026-01-07 22:47:56.69	27.55	9.90	-48.1	-51.5	15.0	0.00e+00	0	42	0	17825792	68	5137
2026-01-07 22:47:57.83	27.64	9.99	-47.7	-50.9	15.5	0.00e+00	0	42	0	19922944	67	5054
2026-01-07 22:47:58.69	27.70	10.06	-47.5	-50.6	15.7	0.00e+00	0	42	0	22020096	67	4898
2026-01-07 22:47:59.84	27.79	10.15	-47.5	-50.6	15.7	0.00e+00	0	42	0	24117248	66	5195
2026-01-07 22:48:00.70	27.85	10.22	-47.6	-50.7	15.6	0.00e+00	0	42	0	25165824	66	5263
2026-01-07 22:48:01.85	27.94	10.31	-47.3	-50.3	16.0	0.00e+00	0	42	0	28311552	66	5031
2026-01-07 22:48:02.71	28.00	10.38	-47.2	-50.2	16.2	0.00e+00	0	42	0	29360128	66	4975
2026-01-07 22:48:03.86	28.09	10.47	-47.2	-50.2	16.2	0.00e+00	0	42	0	31457280	66	4977
2026-01-07 22:48:04.71	28.16	10.54	-47.2	-50.2	16.1	0.00e+00	0	42	0	33554432	66	4975
2026-01-07 22:48:05.97	28.25	10.64	-47.2	-50.3	16.1	0.00e+00	0	42	0	35651584	66	4984
2026-01-07 22:48:06.72	28.31	10.70	-47.3	-50.3	16.1	0.00e+00	0	42	0	36700160	66	5014
2026-01-07 22:48:08.01	28.41	10.80	-47.3	-50.3	16.0	0.00e+00	0	42	0	39845888	66	5022
2026-01-07 22:48:08.72	28.47	10.86	-47.2	-50.2	16.1	0.00e+00	0	42	0	40894464	66	4975
2026-01-07 22:48:10.01	28.57	10.97	-47.1	-50.1	16.3	0.00e+00	0	42	0	42991616	66	4891
2026-01-07 22:48:10.72	28.62	11.03	-47.1	-50.1	16.2	0.00e+00	0	42	0	44040192	66	4910
2026-01-07 22:48:12.01	28.72	11.13	-47.2	-50.2	16.2	0.00e+00	0	42	0	47185920	66	4958
2026-01-07 22:48:12.73	28.78	11.19	-47.2	-50.3	16.1	0.00e+00	0	42	0	48234496	66	5011
2026-01-07 22:48:14.02	28.88	11.30	-47.1	-50.2	16.2	0.00e+00	0	42	0	50331648	66	4939
2026-01-07 22:48:14.74	28.94	11.35	-47.0	-50.0	16.4	0.00e+00	0	42	0	52428800	66	4852
2026-01-07 22:48:16.03	29.05	11.46	-47.0	-50.0	16.3	0.00e+00	0	42	0	54525952	65	5140
2026-01-07 22:48:16.74	29.10	11.52	-47.0	-50.0	16.3	0.00e+00	0	42	0	55574528	65	5141
2026-01-07 22:48:18.03	29.21	11.63	-46.9	-49.9	16.4	0.00e+00	0	42	0	57671680	65	5099
2026-01-07 22:48:18.75	29.27	11.69	-46.9	-49.9	16.5	0.00e+00	0	42	0	59768832	65	5070
2026-01-07 22:48:20.04	29.38	11.80	-46.9	-49.9	16.4	0.00e+00	0	42	0	61865984	65	5097
2026-01-07 22:48:20.75	29.44	11.86	-46.9	-49.9	16.5	0.00e+00	0	42	0	62914560	65	5062
2026-01-07 22:48:22.04	29.54	11.96	-47.0	-49.9	16.5	0.00e+00	0	42	0	66060288	65	5086
2026-01-07 22:48:23.17	29.64	12.06	-47.1	-50.0	16.4	0.00e+00	0	42	0	68157440	65	5139
2026-01-07 22:48:24.03	29.71	12.13	-47.0	-49.9	16.5	0.00e+00	0	42	0	69206016	65	5091
2026-01-07 22:48:25.18	29.81	12.23	-46.8	-49.6	16.8	0.00e+00	0	42	0	71303168	65	4884
2026-01-07 22:48:26.04	29.88	12.30	-46.8	-49.5	16.9	0.00e+00	0	42	0	73400320	65	4857
2026-01-07 22:48:27.19	29.98	12.40	-46.7	-49.5	16.9	0.00e+00	0	42	0	75497472	65	4830
2026-01-07 22:48:28.05	30.05	12.47	-46.7	-49.5	16.9	0.00e+00	0	42	0	76546048	65	4842
2026-01-07 22:48:29.19	30.15	12.57	-46.6	-49.3	17.1	0.00e+00	0	42	0	78643200	65	4732
2026-01-07 22:48:30.05	30.23	12.65	-46.6	-49.3	17.1	0.00e+00	0	42	0	80740352	65	4730
2026-01-07 22:48:31.37	30.34	12.76	-46.6	-49.3	17.1	0.00e+00	0	42	0	82837504	65	4756
2026-01-07 22:48:32.09	30.41	12.82	-46.6	-49.4	17.0	0.00e+00	0	42	0	84934656	65	4769
2026-01-07 22:48:33.62	30.54	12.96	-46.5	-49.2	17.1	0.00e+00	0	42	0	87031808	65	4695
2026-01-07 22:48:34.33	30.61	13.02	-46.4	-49.2	17.2	0.00e+00	0	42	0	89128960	64	4936
2026-01-07 22:48:35.62	30.72	13.13	-46.4	-49.1	17.3	0.00e+00	0	42	0	91226112	64	4872
2026-01-07 22:48:36.34	30.79	13.19	-46.4	-49.0	17.4	0.00e+00	0	42	0	92274688	64	4858
2026-01-07 22:48:37.74	30.92	13.32	-46.3	-49.0	17.5	0.00e+00	0	42	0	95420416	64	4818
2026-01-07 22:48:38.45	30.98	13.38	-46.3	-48.9	17.5	0.00e+00	0	42	0	96468992	64	4803
2026-01-07 22:48:39.75	31.10	13.49	-46.3	-48.9	17.5	0.00e+00	0	42	0	98566144	64	4769
2026-01-07 22:48:40.46	31.17	13.56	-46.2	-48.8	17.6	0.00e+00	0	42	0	100663296	64	4748
2026-01-07 22:48:41.75	31.29	13.67	-46.2	-48.7	17.7	0.00e+00	0	42	0	102760448	64	4680
2026-01-07 22:48:42.47	31.36	13.74	-46.1	-48.7	17.7	0.00e+00	0	42	0	103809024	64	4661
2026-01-07 22:48:44.03	31.50	13.88	-46.1	-48.6	17.8	0.00e+00	0	43	0	106954752	64	4619
2026-01-07 22:48:44.74	31.57	13.94	-46.0	-48.6	17.8	0.00e+00	0	42	0	108003328	64	4620
2026-01-07 22:48:46.03	31.69	14.06	-46.2	-48.8	17.7	0.00e+00	0	42	0	111149056	64	4712
2026-01-07 22:48:46.74	31.76	14.12	-46.0	-48.6	17.8	0.00e+00	0	42	0	112197632	64	4647
2026-01-07 22:48:48.16	31.90	14.25	-46.0	-48.6	17.8	0.00e+00	0	43	0	114294784	64	4648
2026-01-07 22:48:48.88	31.97	14.32	-46.0	-48.7	17.8	0.00e+00	0	42	0	116391936	64	4652
2026-01-07 22:48:50.17	32.09	14.43	-46.0	-48.7	17.7	0.00e+00	0	42	0	118489088	64	4665
2026-01-07 22:48:50.88	32.16	14.50	-46.1	-48.7	17.7	0.00e+00	0	42	0	119537664	64	4689
2026-01-07 22:48:52.17	32.29	14.62	-46.1	-48.8	17.6	0.00e+00	0	43	0	121634816	64	4722
2026-01-07 22:48:52.89	32.36	14.68	-46.2	-48.9	17.6	0.00e+00	0	43	0	123731968	64	4773
2026-01-07 22:48:54.18	32.49	14.80	-46.2	-48.8	17.6	0.00e+00	0	42	0	125829120	64	4726
2026-01-07 22:48:54.90	32.57	14.87	-46.2	-48.8	17.6	0.00e+00	0	43	0	126877696	64	4755
2026-01-07 22:48:56.19	32.70	14.99	-46.3	-48.9	17.5	0.00e+00	0	43	0	130023424	64	4802
2026-01-07 22:48:56.90	32.77	15.05	-46.3	-48.9	17.5	0.00e+00	0	42	0	131072000	64	4810
2026-01-07 22:48:58.19	32.90	15.18	-46.3	-49.0	17.5	0.00e+00	0	42	0	133169152	64	4827
2026-01-07 22:48:58.94	32.98	15.25	-46.3	-49.0	17.5	0.00e+00	0	42	0	135266304	64	4821
2026-01-07 22:49:00.23	33.11	15.37	-46.4	-49.0	17.4	0.00e+00	0	42	0	137363456	64	4858
2026-01-07 22:49:00.94	33.19	15.43	-46.4	-49.1	17.3	0.00e+00	0	42	0	138412032	64	4893
2026-01-07 22:49:02.23	33.32	15.56	-46.5	-49.1	17.4	0.00e+00	0	43	0	141557760	64	4900
2026-01-07 22:49:02.95	33.40	15.62	-46.5	-49.1	17.3	0.00e+00	0	42	0	142606336	64	4915
2026-01-07 22:49:04.24	33.54	15.75	-46.5	-49.2	17.3	0.00e+00	0	42	0	144703488	64	4952
2026-01-07 22:49:05.18	33.64	15.84	-46.5	-49.2	17.3	0.00e+00	0	43	0	146800640	64	4928
2026-01-07 22:49:06.18	33.75	15.93	-46.5	-49.1	17.3	0.00e+00	0	43	0	148897792	64	4922
2026-01-07 22:49:07.18	33.85	16.03	-46.5	-49.1	17.4	0.00e+00	0	43	0	149946368	64	4900
2026-01-07 22:49:08.18	33.96	16.12	-46.5	-49.1	17.4	0.00e+00	0	43	0	152043520	64	4915
2026-01-07 22:49:09.19	34.07	16.22	-46.5	-49.1	17.4	0.00e+00	0	43	0	154140672	64	4912
2026-01-07 22:49:10.19	34.18	16.32	-46.4	-49.0	17.4	0.00e+00	0	43	0	156237824	64	4851
2026-01-07 22:49:11.19	34.30	16.42	-46.4	-49.0	17.4	0.00e+00	0	43	0	158334976	64	4869
2026-01-07 22:49:12.20	34.41	16.51	-46.4	-49.1	17.4	0.00e+00	0	43	0	159383552	64	4879
2026-01-07 22:49:13.23	34.52	16.62	-46.4	-49.1	17.4	0.00e+00	0	43	0	161480704	64	4901
2026-01-07 22:49:14.26	34.64	16.72	-46.4	-49.1	17.4	0.00e+00	0	43	0	163577856	64	4908
2026-01-07 22:49:15.26	34.76	16.82	-46.4	-49.1	17.4	0.00e+00	0	43	0	165675008	64	4923
2026-01-07 22:49:16.27	34.87	16.91	-46.4	-49.2	17.3	0.00e+00	0	43	0	167772160	64	4942
2026-01-07 22:49:17.27	34.99	17.01	-46.5	-49.2	17.3	0.00e+00	0	43	0	168820736	64	4947
2026-01-07 22:49:18.27	35.10	17.11	-46.5	-49.2	17.3	0.00e+00	0	43	0	170917888	64	4963
2026-01-07 22:49:19.27	35.22	17.21	-46.5	-49.2	17.3	0.00e+00	0	43	0	173015040	64	4951
2026-01-07 22:49:20.28	35.34	17.31	-46.5	-49.2	17.3	0.00e+00	0	43	0	175112192	64	4974
2026-01-07 22:49:21.28	35.46	17.41	-46.6	-49.3	17.2	0.00e+00	0	43	0	177209344	64	5004
2026-01-07 22:49:22.28	35.58	17.51	-46.6	-49.3	17.2	0.00e+00	0	43	0	178257920	64	4999
2026-01-07 22:49:23.28	35.70	17.62	-46.7	-49.3	17.2	0.00e+00	0	43	0	180355072	64	5037
2026-01-07 22:49:24.29	35.82	17.72	-46.7	-49.4	17.2	0.00e+00	0	43	0	182452224	64	5060
2026-01-07 22:49:25.29	35.94	17.82	-46.8	-49.5	17.1	0.00e+00	0	43	0	184549376	64	5126
2026-01-07 22:49:26.30	36.06	17.92	-47.0	-49.8	16.8	0.00e+00	0	43	0	186646528	64	5289
2026-01-07 22:49:27.30	36.19	18.02	-47.0	-49.8	16.8	0.00e+00	0	43	0	187695104	64	5289
2026-01-07 22:49:28.30	36.31	18.13	-47.1	-49.9	16.6	0.00e+00	0	43	0	189792256	64	5382
2026-01-07 22:49:29.35	36.44	18.23	-47.1	-49.9	16.6	0.00e+00	0	43	0	191889408	64	5377
2026-01-07 22:49:30.21	36.55	18.32	-47.1	-49.9	16.6	0.00e+00	0	43	0	192937984	64	5402
2026-01-07 22:49:31.60	36.73	18.47	-47.1	-50.0	16.6	0.00e+00	0	43	0	196083712	65	5132
2026-01-07 22:49:32.31	36.82	18.54	-47.2	-50.0	16.5	0.00e+00	0	43	0	197132288	65	5151
2026-01-07 22:49:33.80	37.01	18.69	-47.2	-50.0	16.6	0.00e+00	0	43	0	200278016	65	5145
2026-01-07 22:49:34.51	37.10	18.77	-47.3	-50.2	16.4	0.00e+00	0	43	0	201326592	65	5227
2026-01-07 22:49:35.80	37.27	18.90	-47.3	-50.1	16.4	0.00e+00	0	43	0	204472320	65	5217
2026-01-07 22:49:36.52	37.36	18.98	-47.3	-50.1	16.4	0.00e+00	0	43	0	205520896	65	5210
2026-01-07 22:49:38.02	37.56	19.14	-47.3	-50.2	16.4	0.00e+00	0	43	0	207618048	65	5264
2026-01-07 22:49:38.74	37.66	19.21	-47.3	-50.2	16.4	0.00e+00	0	43	0	209715200	65	5274
2026-01-07 22:49:40.03	37.83	19.35	-47.3	-50.3	16.3	0.00e+00	0	43	0	211812352	65	5291
2026-01-07 22:49:40.75	37.92	19.42	-47.3	-50.3	16.3	0.00e+00	0	43	0	212860928	65	5299
2026-01-07 22:49:42.04	38.10	19.56	-47.2	-50.2	16.3	0.00e+00	0	43	0	216006656	65	5265
2026-01-07 22:49:42.75	38.20	19.64	-47.2	-50.2	16.4	0.00e+00	0	43	0	217055232	65	5260
2026-01-07 22:49:44.04	38.37	19.78	-47.2	-50.1	16.5	0.00e+00	0	43	0	219152384	65	5178
2026-01-07 22:49:44.76	38.47	19.85	-47.1	-50.0	16.6	0.00e+00	0	43	0	221249536	65	5117
2026-01-07 22:49:46.05	38.65	19.99	-47.1	-49.9	16.7	0.00e+00	0	43	0	223346688	65	5088
2026-01-07 22:49:46.77	38.75	20.07	-47.1	-49.9	16.7	0.00e+00	0	43	0	224395264	65	5066
2026-01-07 22:49:48.06	38.94	20.21	-47.1	-50.0	16.6	0.00e+00	0	43	0	226492416	65	5101
2026-01-07 22:49:48.89	39.06	20.30	-47.2	-50.1	16.5	0.00e+00	0	43	0	228589568	65	5175
2026-01-07 22:49:50.03	39.22	20.42	-47.2	-50.0	16.6	0.00e+00	0	43	0	230686720	65	5128
2026-01-07 22:49:50.89	39.34	20.52	-47.3	-50.1	16.5	0.00e+00	0	43	0	232783872	65	5191
2026-01-07 22:49:52.04	39.51	20.64	-47.2	-50.1	16.5	0.00e+00	0	43	0	234881024	65	5183
2026-01-07 22:49:52.89	39.63	20.74	-47.2	-50.1	16.5	0.00e+00	0	43	0	235929600	65	5176
2026-01-07 22:49:54.04	39.80	20.86	-47.2	-50.1	16.5	0.00e+00	0	43	0	238026752	65	5183
2026-01-07 22:49:54.90	39.93	20.96	-47.3	-50.2	16.5	0.00e+00	0	43	0	240123904	65	5233
2026-01-07 22:49:56.04	40.10	21.08	-47.3	-50.1	16.5	0.00e+00	0	43	0	242221056	65	5212
2026-01-07 22:49:56.90	40.23	21.18	-47.3	-50.2	16.5	0.00e+00	0	43	0	243269632	65	5221
2026-01-07 22:49:58.05	40.41	21.31	-47.3	-50.2	16.4	0.00e+00	0	43	0	245366784	65	5265
2026-01-07 22:49:58.91	40.54	21.40	-47.3	-50.2	16.4	0.00e+00	0	43	0	247463936	65	5265
2026-01-07 22:50:00.23	40.74	21.55	-47.3	-50.2	16.5	0.00e+00	0	43	0	249561088	65	5241
2026-01-07 22:50:00.95	40.85	21.63	-47.3	-50.2	16.5	0.00e+00	0	43	0	250609664	65	5234
2026-01-07 22:50:02.23	41.05	21.78	-47.4	-50.2	16.4	0.00e+00	0	43	0	253755392	65	5266
2026-01-07 22:50:02.95	41.16	21.86	-47.4	-50.2	16.4	0.00e+00	0	43	0	254803968	65	5273
2026-01-07 22:50:04.24	41.37	22.00	-47.3	-50.1	16.5	0.00e+00	0	43	0	256901120	65	5197
2026-01-07 22:50:04.96	41.48	22.09	-47.3	-50.1	16.5	0.00e+00	0	43	0	258998272	65	5200
2026-01-07 22:50:06.25	41.69	22.23	-47.3	-50.1	16.6	0.00e+00	0	43	0	261095424	65	5174
2026-01-07 22:50:07.08	41.82	22.33	-47.2	-50.0	16.7	0.00e+00	0	43	0	262144000	65	5106
2026-01-07 22:50:08.22	42.01	22.46	-47.3	-50.1	16.6	0.00e+00	0	43	0	264241152	65	5174
2026-01-07 22:50:09.08	42.15	22.56	-47.2	-50.0	16.6	0.00e+00	0	43	0	266338304	65	5142
2026-01-07 22:50:10.23	42.34	22.69	-47.2	-50.0	16.6	0.00e+00	0	43	0	268435456	65	5117
2026-01-07 22:50:11.09	42.48	22.79	-47.1	-49.9	16.8	0.00e+00	0	43	0	270532608	65	5042
2026-01-07 22:50:12.23	42.67	22.92	-47.1	-49.8	16.8	0.00e+00	0	43	0	272629760	65	5007
2026-01-07 22:50:13.10	42.82	23.02	-47.1	-49.8	16.8	0.00e+00	0	43	0	273678336	65	5009
2026-01-07 22:50:14.30	43.02	23.16	-47.0	-49.7	16.9	0.00e+00	0	43	0	275775488	65	4974
2026-01-07 22:50:15.16	43.17	23.26	-47.1	-49.8	16.8	0.00e+00	0	43	0	277872640	65	5018
2026-01-07 22:50:16.38	43.38	23.40	-47.0	-49.8	16.8	0.00e+00	0	43	0	279969792	65	5018
2026-01-07 22:50:17.24	43.53	23.50	-47.0	-49.8	16.8	0.00e+00	0	43	0	282066944	65	5002
2026-01-07 22:50:18.38	43.73	23.63	-47.0	-49.8	16.8	0.00e+00	0	43	0	284164096	65	5005
2026-01-07 22:50:19.24	43.88	23.74	-46.9	-49.6	17.0	0.00e+00	0	43	0	285212672	65	4901
2026-01-07 22:50:20.52	44.11	23.89	-46.8	-49.4	17.2	0.00e+00	0	43	0	287309824	65	4795
2026-01-07 22:50:21.23	44.24	23.97	-46.7	-49.3	17.3	0.00e+00	0	43	0	289406976	65	4742
2026-01-07 22:50:22.53	44.47	24.12	-46.7	-49.3	17.3	0.00e+00	0	43	0	291504128	65	4749
2026-01-07 22:50:23.24	44.60	24.21	-46.6	-49.1	17.5	0.00e+00	0	43	0	292552704	65	4647
2026-01-07 22:50:24.53	44.84	24.36	-46.5	-49.1	17.5	0.00e+00	0	43	0	295698432	65	4626
2026-01-07 22:50:25.25	44.97	24.45	-46.5	-49.0	17.6	0.00e+00	0	43	0	296747008	64	4865
2026-01-07 22:50:26.54	45.21	24.60	-46.4	-48.9	17.6	0.00e+00	0	43	0	298844160	64	4813
2026-01-07 22:50:27.26	45.35	24.69	-46.3	-48.8	17.8	0.00e+00	0	43	0	300941312	64	4741
2026-01-07 22:50:28.55	45.59	24.84	-46.3	-48.8	17.8	0.00e+00	0	43	0	303038464	64	4709
2026-01-07 22:50:29.26	45.72	24.92	-46.2	-48.7	17.9	0.00e+00	0	43	0	304087040	64	4656
2026-01-07 22:50:30.55	45.97	25.08	-46.3	-48.8	17.8	0.00e+00	0	43	0	306184192	64	4730
2026-01-07 22:50:31.27	46.11	25.17	-46.1	-48.5	18.0	0.00e+00	0	43	0	308281344	64	4597
2026-01-07 22:50:32.55	46.36	25.32	-46.0	-48.5	18.1	0.00e+00	0	43	0	310378496	64	4561
2026-01-07 22:50:33.27	46.50	25.41	-46.1	-48.5	18.1	0.00e+00	0	43	0	311427072	63	4868
2026-01-07 22:50:34.64	46.77	25.57	-46.1	-48.5	18.1	0.00e+00	0	43	0	314572800	63	4855
2026-01-07 22:50:35.36	46.91	25.66	-46.1	-48.5	18.1	0.00e+00	0	43	0	315621376	63	4864
2026-01-07 22:50:36.65	47.17	25.82	-46.2	-48.8	18.0	0.00e+00	0	43	0	317718528	63	4989
2026-01-07 22:50:37.70	47.39	25.94	-46.2	-48.7	18.0	0.00e+00	0	43	0	319815680	63	4951
2026-01-07 22:50:38.62	47.57	26.06	-46.1	-48.6	18.1	0.00e+00	0	43	0	321912832	63	4912
2026-01-07 22:50:39.62	47.78	26.18	-46.2	-48.7	18.0	0.00e+00	0	43	0	324009984	63	4948
2026-01-07 22:50:40.63	47.99	26.30	-46.2	-48.7	18.0	0.00e+00	0	43	0	325058560	63	4969
2026-01-07 22:50:41.63	48.20	26.42	-46.3	-48.8	18.0	0.00e+00	0	43	0	327155712	63	4991
2026-01-07 22:50:42.63	48.41	26.55	-46.3	-48.8	17.9	0.00e+00	0	43	0	329252864	63	5006
2026-01-07 22:50:43.64	48.62	26.67	-46.3	-48.8	17.9	0.00e+00	0	43	0	331350016	63	5005
2026-01-07 22:50:44.64	48.83	26.79	-46.4	-48.9	17.8	0.00e+00	0	43	0	333447168	63	5080
2026-01-07 22:50:45.64	49.05	26.91	-46.4	-48.9	17.8	0.00e+00	0	43	0	334495744	63	5071
2026-01-07 22:50:46.65	49.27	27.04	-46.5	-49.0	17.7	0.00e+00	0	43	0	336592896	63	5151
2026-01-07 22:50:47.65	49.48	27.16	-46.6	-49.1	17.6	0.00e+00	0	43	0	338690048	63	5211
2026-01-07 22:50:48.65	49.70	27.29	-46.7	-49.3	17.5	0.00e+00	0	43	0	340787200	63	5288
2026-01-07 22:50:49.66	49.93	27.41	-46.7	-49.4	17.3	0.00e+00	0	43	0	342884352	64	5047
2026-01-07 22:50:50.66	50.15	27.53	-46.9	-49.6	17.2	0.00e+00	0	43	0	343932928	64	5167
2026-01-07 22:50:51.66	50.37	27.66	-46.9	-49.6	17.1	0.00e+00	0	43	0	346030080	64	5198
2026-01-07 22:50:52.67	50.60	27.78	-46.9	-49.6	17.1	0.00e+00	0	43	0	348127232	64	5207
2026-01-07 22:50:53.67	50.83	27.91	-46.8	-49.5	17.2	0.00e+00	0	43	0	350224384	64	5117
2026-01-07 22:50:54.68	51.06	28.03	-46.8	-49.4	17.3	0.00e+00	0	43	0	352321536	64	5082
2026-01-07 22:50:55.68	51.30	28.15	-46.7	-49.3	17.4	0.00e+00	0	43	0	353370112	64	5018
2026-01-07 22:50:56.68	51.53	28.28	-46.7	-49.4	17.2	0.00e+00	0	43	0	355467264	64	5074
2026-01-07 22:50:57.68	51.76	28.40	-46.8	-49.5	17.2	0.00e+00	0	43	0	357564416	64	5131
2026-01-07 22:50:58.73	52.01	28.53	-47.0	-49.7	17.0	0.00e+00	0	43	0	359661568	64	5277
2026-01-07 22:50:59.66	52.23	28.65	-47.1	-49.9	16.8	0.00e+00	0	43	0	360710144	64	5379
2026-01-07 22:51:00.66	52.48	28.77	-47.3	-50.2	16.5	0.00e+00	0	43	0	362807296	65	5242
2026-01-07 22:51:01.67	52.72	28.90	-47.4	-50.4	16.3	0.00e+00	0	43	0	364904448	65	5351
2026-01-07 22:51:02.67	52.96	29.02	-47.6	-50.5	16.2	0.00e+00	0	43	0	367001600	65	5452
2026-01-07 22:51:03.94	53.28	29.18	-47.7	-50.7	16.1	0.00e+00	0	43	0	369098752	66	5233
2026-01-07 22:51:04.66	53.46	29.27	-47.8	-50.8	16.0	0.00e+00	0	43	0	370147328	66	5286
2026-01-07 22:51:05.94	53.78	29.43	-48.0	-51.0	15.7	0.00e+00	0	43	0	373293056	66	5461
2026-01-07 22:51:06.66	53.96	29.52	-48.0	-51.1	15.7	0.00e+00	0	43	0	374341632	66	5524
2026-01-07 22:51:07.95	54.29	29.68	-48.1	-51.3	15.5	0.00e+00	0	43	0	376438784	66	5604
2026-01-07 22:51:08.67	54.47	29.77	-48.2	-51.4	15.3	0.00e+00	0	43	0	378535936	67	5396
2026-01-07 22:51:09.96	54.80	29.93	-48.2	-51.5	15.3	0.00e+00	0	43	0	380633088	67	5418
2026-01-07 22:51:10.67	54.99	30.01	-48.2	-51.4	15.3	0.00e+00	0	43	0	381681664	67	5385
2026-01-07 22:51:11.96	55.33	30.17	-48.1	-51.2	15.6	0.00e+00	0	43	0	383778816	67	5227
2026-01-07 22:51:12.68	55.52	30.26	-48.1	-51.2	15.6	0.00e+00	0	43	0	385875968	67	5235
2026-01-07 22:51:13.96	55.86	30.42	-48.1	-51.2	15.6	0.00e+00	0	43	0	387973120	67	5252
2026-01-07 22:51:14.68	56.05	30.51	-48.2	-51.4	15.5	0.00e+00	0	43	0	389021696	67	5372
2026-01-07 22:51:15.97	56.40	30.67	-48.6	-51.9	14.9	0.00e+00	0	43	0	392167424	67	5683
2026-01-07 22:51:16.69	56.59	30.76	-49.0	-52.5	14.4	7.00e-07	0	43	0	393216000	68	5779
2026-01-07 22:51:17.97	56.94	30.91	-49.4	-53.2	13.8	7.00e-07	0	43	0	395313152	69	5906
2026-01-07 22:51:18.69	57.14	31.00	-49.5	-53.4	13.5	8.30e-06	0	43	0	397410304	69	6051
2026-01-07 22:51:19.98	57.50	31.16	-49.8	-53.9	13.1	3.20e-05	0	43	0	399507456	70	5993
2026-01-07 22:51:20.84	57.74	31.26	-49.8	-53.9	13.1	4.11e-05	0	43	0	400556032	70	6040
2026-01-07 22:51:21.99	58.07	31.41	-50.0	-54.2	12.8	5.72e-05	0	43	0	402653184	70	6224
2026-01-07 22:51:23.02	58.36	31.53	-50.2	-54.6	12.3	9.76e-05	0	43	0	404750336	70	6523
2026-01-07 22:51:24.02	58.65	31.65	-50.2	-54.7	12.2	2.12e-04	0	43	0	406847488	71	6247
2026-01-07 22:51:25.02	58.94	31.77	-50.2	-54.7	12.3	1.91e-04	0	43	0	408944640	71	6214
2026-01-07 22:51:26.02	59.23	31.89	-50.1	-54.4	12.5	1.15e-04	0	43	0	411041792	71	6041
2026-01-07 22:51:27.03	59.52	32.02	-50.1	-54.4	12.5	9.00e-05	0	43	0	412090368	71	6014
2026-01-07 22:51:28.03	59.82	32.14	-49.7	-53.8	13.2	3.43e-05	0	43	0	414187520	71	5596
2026-01-07 22:51:29.03	60.12	32.26	-49.6	-53.6	13.4	2.51e-05	0	43	0	416284672	71	5481
2026-01-07 22:51:30.04	60.42	32.38	-49.8	-53.9	13.1	2.36e-05	0	43	0	418381824	71	5679
2026-01-07 22:51:31.04	60.72	32.50	-50.1	-54.4	12.5	5.72e-05	0	43	0	420478976	71	6037
2026-01-07 22:51:32.44	61.15	32.66	-50.4	-55.0	12.0	2.61e-04	0	43	0	422576128	71	6434
2026-01-07 22:51:33.19	61.38	32.75	-50.5	-55.3	11.7	4.60e-04	0	43	0	423624704	71	6676
2026-01-07 22:51:34.48	61.78	32.90	-50.4	-54.9	12.0	4.20e-04	0	43	0	426770432	71	6409
2026-01-07 22:51:35.26	62.02	32.99	-50.2	-54.6	12.3	2.91e-04	0	43	0	427819008	71	6152
2026-01-07 22:51:36.55	62.43	33.15	-49.9	-54.0	13.0	4.27e-05	0	43	0	429916160	71	5723
2026-01-07 22:51:37.27	62.65	33.23	-49.8	-53.8	13.2	3.58e-05	0	43	0	432013312	71	5607
2026-01-07 22:51:38.55	63.06	33.38	-49.7	-53.7	13.3	1.37e-05	0	43	0	434110464	71	5546
2026-01-07 22:51:39.27	63.29	33.46	-49.7	-53.6	13.3	1.60e-05	0	43	0	435159040	71	5517
2026-01-07 22:51:40.56	63.71	33.61	-49.6	-53.4	13.6	1.14e-05	0	43	0	438304768	71	5389
2026-01-07 22:51:41.28	63.94	33.69	-49.6	-53.4	13.5	4.50e-06	0	43	0	439353344	71	5388
2026-01-07 22:51:42.57	64.36	33.84	-49.6	-53.4	13.6	6.80e-06	0	43	0	441450496	71	5387
2026-01-07 22:51:43.57	64.69	33.95	-49.5	-53.4	13.6	8.30e-06	0	43	0	443547648	71	5346
2026-01-07 22:51:44.57	65.03	34.06	-49.5	-53.3	13.6	9.90e-06	0	43	0	445644800	70	5613
2026-01-07 22:51:45.57	65.36	34.17	-49.4	-53.2	13.8	4.50e-06	0	43	0	447741952	70	5557
2026-01-07 22:51:46.58	65.70	34.29	-49.4	-53.0	13.9	7.00e-07	0	43	0	448790528	70	5454
2026-01-07 22:51:47.58	66.04	34.40	-49.3	-53.0	13.9	4.50e-06	0	43	0	450887680	70	5445
2026-01-07 22:51:48.58	66.38	34.51	-49.4	-53.0	13.9	1.50e-06	0	43	0	452984832	70	5461
2026-01-07 22:51:49.59	66.73	34.62	-49.3	-53.0	14.0	2.20e-06	0	43	0	455081984	70	5427
2026-01-07 22:51:50.59	67.07	34.72	-49.2	-52.8	14.2	0.00e+00	0	43	0	457179136	70	5330
2026-01-07 22:51:51.59	67.42	34.83	-48.8	-52.2	14.7	7.00e-07	0	43	0	458227712	69	5253
2026-01-07 22:51:52.59	67.77	34.94	-48.5	-51.8	15.2	0.00e+00	0	43	0	460324864	69	4997
2026-01-07 22:51:53.59	68.13	35.04	-48.4	-51.6	15.4	0.00e+00	0	43	0	462422016	68	5174
2026-01-07 22:51:54.60	68.48	35.15	-48.5	-51.7	15.3	0.00e+00	0	43	0	464519168	68	5257
2026-01-07 22:51:55.60	68.84	35.25	-48.7	-52.0	15.0	7.00e-07	0	43	0	465567744	68	5411
2026-01-07 22:51:56.60	69.20	35.36	-48.8	-52.2	14.8	0.00e+00	0	43	0	467664896	68	5531
2026-01-07 22:51:57.60	69.56	35.46	-48.8	-52.1	14.8	0.00e+00	0	43	0	469762048	68	5523
2026-01-07 22:51:58.61	69.93	35.56	-48.4	-51.6	15.3	7.00e-07	0	43	0	471859200	68	5202
2026-01-07 22:51:59.61	70.30	35.66	-48.1	-51.2	15.8	0.00e+00	0	43	0	473956352	68	4928
2026-01-07 22:52:00.61	70.66	35.76	-47.8	-50.8	16.0	0.00e+00	0	43	0	475004928	67	5022
2026-01-07 22:52:01.62	71.04	35.86	-47.6	-50.5	16.3	0.00e+00	0	43	0	477102080	67	4865
2026-01-07 22:52:02.62	71.41	35.96	-47.5	-50.4	16.4	0.00e+00	0	43	0	479199232	67	4763
2026-01-07 22:52:03.64	71.79	36.06	-47.4	-50.3	16.5	0.00e+00	0	43	0	481296384	66	5013
2026-01-07 22:52:04.64	72.17	36.15	-47.7	-50.6	16.3	0.00e+00	0	43	0	483393536	66	5164
2026-01-07 22:52:05.64	72.55	36.24	-47.6	-50.5	16.3	0.00e+00	0	43	0	484442112	66	5106
2026-01-07 22:52:06.73	72.97	36.35	-47.6	-50.4	16.4	0.00e+00	0	43	0	486539264	66	5082
2026-01-07 22:52:07.60	73.30	36.43	-47.3	-50.2	16.6	0.00e+00	0	43	0	488636416	66	4929
2026-01-07 22:52:08.93	73.82	36.55	-47.1	-49.8	17.0	0.00e+00	0	43	0	490733568	66	4725
2026-01-07 22:52:09.64	74.09	36.61	-47.1	-49.8	17.0	0.00e+00	0	43	0	492830720	66	4711
2026-01-07 22:52:10.93	74.60	36.72	-47.0	-49.7	17.1	0.00e+00	0	43	0	494927872	65	4961
2026-01-07 22:52:11.65	74.88	36.79	-47.1	-49.8	16.9	0.00e+00	0	43	0	495976448	65	5013
2026-01-07 22:52:12.94	75.39	36.90	-47.4	-50.3	16.4	0.00e+00	0	43	0	499122176	65	5326
2026-01-07 22:52:13.66	75.67	36.96	-47.6	-50.6	16.2	0.00e+00	0	43	0	500170752	65	5514
2026-01-07 22:52:15.30	76.33	37.09	-47.8	-50.8	16.0	0.00e+00	0	43	0	503316480	66	5318
2026-01-07 22:52:16.13	76.66	37.16	-47.8	-50.8	16.0	0.00e+00	0	43	0	504365056	66	5338
2026-01-07 22:52:17.27	77.12	37.25	-47.7	-50.8	16.0	0.00e+00	0	43	0	506462208	66	5294
2026-01-07 22:52:18.13	77.47	37.32	-47.8	-50.8	16.0	0.00e+00	0	43	0	508559360	66	5329
2026-01-07 22:52:19.30	77.95	37.41	-47.8	-50.8	16.0	0.00e+00	0	43	0	510656512	66	5335
2026-01-07 22:52:20.16	78.30	37.47	-47.8	-50.8	16.0	0.00e+00	0	43	0	511705088	66	5312
2026-01-07 22:52:21.30	78.77	37.56	-47.8	-50.9	15.9	0.00e+00	0	43	0	513802240	66	5349
2026-01-07 22:52:22.16	79.12	37.62	-47.8	-50.9	16.0	0.00e+00	0	43	0	515899392	66	5377
2026-01-07 22:52:23.31	79.60	37.70	-47.7	-50.7	16.1	0.00e+00	0	43	0	517996544	66	5277
2026-01-07 22:52:24.17	79.96	37.76	-47.6	-50.6	16.3	0.00e+00	0	43	0	520093696	66	5170
2026-01-07 22:52:25.52	80.52	37.85	-47.6	-50.5	16.3	0.00e+00	0	43	0	522190848	66	5110
2026-01-07 22:52:26.23	80.82	37.90	-47.7	-50.6	16.2	0.00e+00	0	43	0	523239424	66	5204
2026-01-07 22:52:27.75	81.46	38.00	-48.0	-51.2	15.6	0.00e+00	0	43	0	526385152	66	5569
2026-01-07 22:52:28.47	81.77	38.04	-48.3	-51.7	15.2	0.00e+00	0	43	0	527433728	67	5561
2026-01-07 22:52:29.75	82.31	38.12	-48.6	-52.2	14.7	0.00e+00	0	43	0	530579456	67	5881
2026-01-07 22:52:30.47	82.62	38.16	-48.6	-52.2	14.7	0.00e+00	0	43	0	531628032	67	5860
2026-01-07 22:52:31.76	83.17	38.24	-48.4	-51.9	14.9	7.00e-07	0	43	0	533725184	67	5686
2026-01-07 22:52:32.47	83.48	38.28	-48.2	-51.6	15.1	0.00e+00	0	43	0	534773760	67	5526
2026-01-07 22:52:33.76	84.04	38.35	-48.0	-51.3	15.5	0.00e+00	0	43	0	537919488	67	5292
2026-01-07 22:52:34.48	84.35	38.39	-47.9	-51.1	15.7	0.00e+00	0	43	0	538968064	67	5184
2026-01-07 22:52:35.77	84.91	38.45	-47.9	-51.1	15.7	0.00e+00	0	43	0	541065216	67	5162
2026-01-07 22:52:36.54	85.24	38.49	-48.1	-51.4	15.4	0.00e+00	0	43	0	543162368	67	5358
2026-01-07 22:52:37.83	85.81	38.55	-48.4	-51.9	15.0	7.00e-07	0	43	0	545259520	67	5691
2026-01-07 22:52:38.57	86.13	38.58	-48.4	-52.0	14.8	0.00e+00	0	43	0	546308096	67	5747
2026-01-07 22:52:40.17	86.84	38.65	-48.4	-52.0	14.9	0.00e+00	0	43	0	549453824	67	5742
2026-01-07 22:52:41.00	87.20	38.69	-48.4	-51.9	14.9	0.00e+00	0	43	0	551550976	67	5682
2026-01-07 22:52:42.14	87.71	38.73	-48.4	-51.9	15.0	0.00e+00	0	43	0	553648128	67	5702
2026-01-07 22:52:43.34	88.24	38.78	-48.6	-52.3	14.6	0.00e+00	0	43	0	555745280	67	5934
2026-01-07 22:52:44.20	88.62	38.81	-48.6	-52.3	14.6	7.00e-07	0	43	0	556793856	67	5936
2026-01-07 22:52:45.34	89.13	38.85	-48.9	-52.6	14.4	7.00e-07	0	43	0	558891008	68	5853
2026-01-07 22:52:46.20	89.51	38.87	-49.2	-52.9	14.1	1.50e-06	0	43	0	560988160	68	6043
2026-01-07 22:52:47.35	90.03	38.91	-49.2	-52.9	14.0	2.20e-06	0	43	0	563085312	69	5711
2026-01-07 22:52:48.21	90.41	38.93	-49.3	-53.0	14.0	3.00e-06	0	43	0	565182464	69	5766
2026-01-07 22:52:49.36	90.93	38.96	-49.2	-52.9	14.0	1.50e-06	0	43	0	567279616	69	5709
2026-01-07 22:52:50.22	91.32	38.98	-49.3	-53.1	13.9	4.50e-06	0	43	0	568328192	69	5834
2026-01-07 22:52:51.39	91.84	39.01	-49.4	-53.3	13.7	4.50e-06	0	43	0	570425344	69	5977
2026-01-07 22:52:52.25	92.23	39.02	-49.5	-53.5	13.6	1.06e-05	0	43	0	572522496	69	6070
2026-01-07 22:52:53.40	92.75	39.05	-49.7	-53.9	13.1	7.60e-06	0	43	0	574619648	70	6008
2026-01-07 22:52:54.26	93.14	39.06	-49.5	-53.5	13.6	1.90e-05	0	43	0	575668224	70	5723
2026-01-07 22:52:55.41	93.66	39.08	-49.4	-53.2	13.8	9.10e-06	0	43	0	577765376	70	5568
2026-01-07 22:52:56.27	94.05	39.09	-49.4	-53.2	13.8	5.30e-06	0	43	0	579862528	70	5579
2026-01-07 22:52:57.62	94.66	39.10	-49.2	-53.0	14.0	3.80e-06	0	43	0	581959680	70	5439
2026-01-07 22:52:58.34	94.99	39.10	-49.1	-52.9	14.2	3.00e-06	0	43	0	584056832	70	5341
2026-01-07 22:52:59.62	95.57	39.11	-49.0	-52.6	14.4	7.00e-07	0	43	0	586153984	69	5487
2026-01-07 22:53:00.33	95.89	39.12	-49.1	-52.8	14.2	1.50e-06	0	43	0	587202560	69	5612
2026-01-07 22:53:01.63	96.48	39.12	-48.9	-52.4	14.7	0.00e+00	0	43	0	590348288	69	5353
2026-01-07 22:53:02.34	96.80	39.12	-48.8	-52.3	14.8	0.00e+00	0	43	0	591396864	69	5289
2026-01-07 22:53:03.63	97.39	39.12	-48.4	-51.6	15.4	0.00e+00	0	43	0	593494016	68	5165
2026-01-07 22:53:04.35	97.71	39.11	-48.2	-51.3	15.6	0.00e+00	0	43	0	594542592	68	5031
2026-01-07 22:53:05.64	98.30	39.10	-48.0	-51.0	15.9	0.00e+00	0	43	0	597688320	68	4850
2026-01-07 22:53:06.36	98.63	39.10	-48.1	-51.1	15.9	0.00e+00	0	43	0	598736896	68	4908
2026-01-07 22:53:07.65	99.21	39.09	-47.9	-50.9	15.9	0.00e+00	0	43	0	600834048	67	5072
2026-01-07 22:53:08.36	99.53	39.08	-48.1	-51.2	15.7	0.00e+00	0	43	0	602931200	67	5227
2026-01-07 22:53:09.65	100.11	39.06	-48.3	-51.5	15.3	0.00e+00	0	43	0	605028352	67	5445
2026-01-07 22:53:10.36	100.44	39.05	-48.4	-51.7	15.1	0.00e+00	0	43	0	606076928	67	5540
2026-01-07 22:53:11.93	101.14	39.02	-48.9	-52.3	14.7	7.00e-07	0	43	0	609222656	68	5627
2026-01-07 22:53:12.64	101.47	39.01	-48.8	-52.2	14.8	0.00e+00	0	43	0	610271232	68	5539
2026-01-07 22:53:14.01	102.08	38.98	-48.8	-52.3	14.7	0.00e+00	0	43	0	613416960	68	5639
2026-01-07 22:53:14.72	102.40	38.96	-48.9	-52.5	14.5	0.00e+00	0	43	0	614465536	68	5771
2026-01-07 22:53:16.04	102.99	38.92	-49.3	-53.2	13.7	2.20e-06	0	43	0	616562688	69	5910
2026-01-07 22:53:16.76	103.32	38.90	-49.5	-53.6	13.4	1.60e-05	0	43	0	618659840	69	6191
2026-01-07 22:53:18.05	103.89	38.86	-49.7	-53.9	13.1	3.73e-05	0	43	0	620756992	70	6005
2026-01-07 22:53:18.77	104.22	38.84	-49.8	-54.1	12.9	3.28e-05	0	43	0	621805568	70	6139
2026-01-07 22:53:20.06	104.79	38.80	-49.7	-53.9	13.1	2.67e-05	0	43	0	624951296	70	6013
2026-01-07 22:53:20.77	105.11	38.77	-49.8	-54.0	12.9	4.34e-05	0	43	0	625999872	70	6130
2026-01-07 22:53:22.07	105.68	38.72	-49.8	-53.9	13.2	2.67e-05	0	43	0	628097024	70	6006
2026-01-07 22:53:23.17	106.17	38.68	-49.5	-53.3	13.7	7.60e-06	0	43	0	630194176	70	5615
2026-01-07 22:53:24.34	106.69	38.63	-49.2	-52.8	14.2	7.00e-07	0	43	0	632291328	70	5310
2026-01-07 22:53:25.20	107.07	38.59	-48.8	-52.2	14.8	2.20e-06	0	43	0	634388480	69	5269
2026-01-07 22:53:26.70	107.72	38.52	-49.4	-53.2	13.7	7.00e-07	0	43	0	636485632	69	5899
2026-01-07 22:53:27.42	108.04	38.49	-49.6	-53.5	13.5	1.06e-05	0	43	0	638582784	69	6102
2026-01-07 22:53:28.71	108.60	38.42	-48.9	-52.4	14.5	2.20e-06	0	43	0	640679936	69	5373
2026-01-07 22:53:29.43	108.92	38.39	-48.5	-51.8	15.2	0.00e+00	0	43	0	641728512	69	5000
2026-01-07 22:53:30.71	109.47	38.32	-48.0	-51.0	15.9	0.00e+00	0	43	0	644874240	68	4866
2026-01-07 22:53:31.43	109.78	38.28	-48.1	-51.1	15.8	0.00e+00	0	43	0	645922816	68	4916
2026-01-07 22:53:32.72	110.34	38.21	-48.4	-51.6	15.3	0.00e+00	0	43	0	648019968	68	5201
2026-01-07 22:53:33.58	110.71	38.16	-48.5	-51.7	15.3	0.00e+00	0	43	0	650117120	68	5225
2026-01-07 22:53:34.73	111.20	38.09	-47.6	-50.5	16.3	0.00e+00	0	43	0	652214272	67	4850
2026-01-07 22:53:35.79	111.65	38.02	-47.2	-49.9	16.8	0.00e+00	0	43	0	654311424	66	4792
2026-01-07 22:53:36.82	112.09	37.96	-47.1	-49.9	16.9	0.00e+00	0	43	0	655360000	66	4768
2026-01-07 22:53:37.83	112.51	37.89	-47.4	-50.2	16.6	0.00e+00	0	43	0	657457152	66	4957
2026-01-07 22:53:38.83	112.93	37.82	-47.8	-50.8	16.0	0.00e+00	0	43	0	659554304	66	5316
2026-01-07 22:53:39.84	113.36	37.75	-48.0	-51.0	15.8	0.00e+00	0	43	0	661651456	66	5443
2026-01-07 22:53:40.84	113.77	37.68	-47.4	-50.2	16.5	0.00e+00	0	43	0	663748608	66	4982
2026-01-07 22:53:41.84	114.19	37.61	-46.9	-49.6	17.2	0.00e+00	0	43	0	664797184	65	4876
2026-01-07 22:53:42.85	114.61	37.54	-46.7	-49.4	17.3	0.00e+00	0	43	0	666894336	65	4778
2026-01-07 22:53:43.85	115.02	37.46	-47.0	-49.8	17.0	0.00e+00	0	43	0	668991488	65	5003
2026-01-07 22:53:44.85	115.43	37.39	-46.9	-49.7	17.0	0.00e+00	0	43	0	671088640	65	4947
2026-01-07 22:53:45.86	115.84	37.31	-46.3	-48.8	17.9	0.00e+00	0	43	0	673185792	64	4717
2026-01-07 22:53:46.86	116.25	37.23	-45.6	-47.9	18.8	0.00e+00	0	43	0	674234368	63	4532
2026-01-07 22:53:47.86	116.65	37.15	-45.5	-47.7	18.9	0.00e+00	0	43	0	676331520	63	4434
2026-01-07 22:53:48.94	117.08	37.06	-45.7	-48.0	18.8	0.00e+00	0	43	0	678428672	62	4851
2026-01-07 22:53:49.80	117.43	36.99	-46.3	-48.8	18.0	0.00e+00	0	43	0	680525824	63	4993
2026-01-07 22:53:50.95	117.89	36.89	-46.7	-49.4	17.4	0.00e+00	0	43	0	682622976	64	5060
2026-01-07 22:53:51.81	118.23	36.82	-46.7	-49.4	17.4	0.00e+00	0	43	0	683671552	64	5049
2026-01-07 22:53:52.96	118.68	36.72	-46.1	-48.6	18.1	0.00e+00	0	43	0	685768704	64	4615
2026-01-07 22:53:53.82	119.02	36.65	-45.9	-48.3	18.4	0.00e+00	0	43	0	687865856	63	4724
2026-01-07 22:53:54.97	119.47	36.54	-45.8	-48.1	18.6	0.00e+00	0	43	0	689963008	63	4637
2026-01-07 22:53:55.83	119.80	36.47	-46.0	-48.3	18.4	0.00e+00	0	43	0	692060160	63	4754
2026-01-07 22:53:56.97	120.24	36.36	-46.1	-48.5	18.2	0.00e+00	0	43	0	693108736	63	4828
2026-01-07 22:53:57.83	120.57	36.28	-45.8	-48.1	18.6	0.00e+00	0	43	0	695205888	63	4623
2026-01-07 22:53:58.98	121.01	36.17	-45.4	-47.6	19.0	0.00e+00	0	43	0	697303040	62	4647
2026-01-07 22:53:59.84	121.33	36.09	-45.3	-47.5	19.1	0.00e+00	0	43	0	699400192	62	4597
2026-01-07 22:54:00.99	121.77	35.98	-45.8	-48.2	18.6	0.00e+00	0	43	0	701497344	62	4939
2026-01-07 22:54:01.85	122.09	35.90	-46.3	-48.7	18.0	0.00e+00	0	43	0	702545920	63	4973
2026-01-07 22:54:02.99	122.51	35.78	-46.3	-48.8	17.9	0.00e+00	0	43	0	704643072	63	5027
2026-01-07 22:54:03.85	122.83	35.70	-46.1	-48.5	18.3	0.00e+00	0	43	0	706740224	63	4825
2026-01-07 22:54:05.13	123.30	35.57	-45.7	-48.0	18.7	0.00e+00	0	43	0	708837376	63	4582
2026-01-07 22:54:05.86	123.57	35.50	-45.6	-48.0	18.7	0.00e+00	0	43	0	709885952	63	4579
2026-01-07 22:54:07.15	124.04	35.36	-46.4	-48.9	17.9	0.00e+00	0	43	0	713031680	63	5064
2026-01-07 22:54:07.86	124.30	35.29	-46.8	-49.5	17.3	0.00e+00	0	43	0	714080256	64	5131
2026-01-07 22:54:09.15	124.76	35.16	-47.3	-50.1	16.7	0.00e+00	0	43	0	716177408	65	5176
2026-01-07 22:54:09.87	125.02	35.08	-47.1	-49.9	16.9	0.00e+00	0	43	0	718274560	65	5054
2026-01-07 22:54:11.16	125.47	34.94	-46.6	-49.2	17.5	0.00e+00	0	43	0	720371712	65	4683
2026-01-07 22:54:11.98	125.76	34.86	-46.6	-49.2	17.5	0.00e+00	0	43	0	721420288	65	4693
2026-01-07 22:54:13.13	126.16	34.73	-46.9	-49.7	17.1	0.00e+00	0	43	0	723517440	65	4928
2026-01-07 22:54:13.99	126.46	34.64	-47.4	-50.2	16.5	0.00e+00	0	43	0	725614592	65	5270
2026-01-07 22:54:15.14	126.86	34.51	-47.1	-49.9	16.9	0.00e+00	0	43	0	727711744	65	5044
2026-01-07 22:54:16.00	127.16	34.42	-46.6	-49.2	17.5	0.00e+00	0	43	0	729808896	65	4674
2026-01-07 22:54:17.15	127.55	34.29	-46.3	-48.8	17.9	0.00e+00	0	43	0	731906048	64	4730
2026-01-07 22:54:18.01	127.84	34.20	-46.3	-48.8	17.9	0.00e+00	0	43	0	732954624	64	4738
2026-01-07 22:54:19.15	128.22	34.07	-47.1	-49.8	17.0	0.00e+00	0	43	0	735051776	64	5295
2026-01-07 22:54:20.01	128.51	33.97	-47.5	-50.4	16.4	0.00e+00	0	43	0	737148928	65	5383
2026-01-07 22:54:21.32	128.94	33.82	-47.7	-50.7	16.1	0.00e+00	0	43	0	739246080	66	5244
2026-01-07 22:54:22.03	129.18	33.74	-47.5	-50.4	16.4	0.00e+00	0	43	0	740294656	66	5072
2026-01-07 22:54:23.32	129.60	33.59	-47.3	-50.1	16.6	0.00e+00	0	43	0	743440384	66	4910
2026-01-07 22:54:24.04	129.83	33.51	-47.3	-50.1	16.6	0.00e+00	0	43	0	744488960	66	4901
2026-01-07 22:54:25.33	130.25	33.36	-48.0	-51.1	15.7	0.00e+00	0	43	0	746586112	66	5505
2026-01-07 22:54:26.05	130.48	33.28	-48.4	-51.7	15.1	0.00e+00	0	43	0	748683264	67	5560
2026-01-07 22:54:27.74	131.01	33.08	-48.6	-52.0	14.9	0.00e+00	0	43	0	751828992	68	5418
2026-01-07 22:54:28.31	131.19	33.01	-48.3	-51.4	15.5	0.00e+00	0	43	0	752877568	68	5072
2026-01-07 22:54:29.90	131.69	32.83	-47.6	-50.6	16.2	0.00e+00	0	43	0	754974720	67	4871
2026-01-07 22:54:30.49	131.87	32.76	-47.6	-50.5	16.3	0.00e+00	0	43	0	756023296	67	4844
2026-01-07 22:54:32.07	132.36	32.57	-48.8	-52.5	14.5	0.00e+00	0	43	0	759169024	68	5737
2026-01-07 22:54:32.76	132.57	32.49	-49.1	-53.0	14.0	7.00e-07	0	43	0	760217600	68	6072
2026-01-07 22:54:34.19	133.00	32.31	-48.4	-51.8	15.1	0.00e+00	0	43	0	763363328	68	5329
2026-01-07 22:54:34.97	133.24	32.22	-47.5	-50.4	16.3	0.00e+00	0	43	0	764411904	66	5095
2026-01-07 22:54:36.13	133.58	32.08	-47.0	-49.7	17.0	0.00e+00	0	43	0	767557632	65	4966
2026-01-07 22:54:37.22	133.90	31.95	-47.1	-50.0	16.7	0.00e+00	0	43	0	768606208	65	5127
2026-01-07 22:54:38.25	134.21	31.82	-48.0	-51.2	15.6	0.00e+00	0	43	0	770703360	66	5546
2026-01-07 22:54:39.25	134.50	31.70	-49.0	-52.6	14.4	7.00e-07	0	43	0	772800512	68	5792
2026-01-07 22:54:40.46	134.85	31.55	-49.2	-52.8	14.1	1.50e-06	0	43	0	774897664	69	5648
2026-01-07 22:54:41.35	135.10	31.44	-48.7	-52.1	14.8	4.50e-06	0	43	0	776994816	69	5163
2026-01-07 22:54:42.49	135.43	31.31	-48.0	-51.0	15.9	0.00e+00	0	43	0	779091968	68	4839
2026-01-07 22:54:43.35	135.67	31.20	-47.8	-50.7	16.0	0.00e+00	0	43	0	780140544	67	4966
2026-01-07 22:54:44.50	135.99	31.06	-48.0	-51.1	15.7	0.00e+00	0	43	0	783286272	67	5196
2026-01-07 22:54:45.36	136.23	30.95	-48.4	-51.6	15.2	0.00e+00	0	43	0	784334848	67	5498
2026-01-07 22:54:46.50	136.55	30.81	-49.1	-52.7	14.3	0.00e+00	0	43	0	786432000	68	5868
2026-01-07 22:54:47.36	136.78	30.70	-49.1	-52.7	14.2	3.00e-06	0	43	0	788529152	69	5574
2026-01-07 22:54:48.51	137.10	30.56	-48.0	-51.0	15.8	0.00e+00	0	43	0	790626304	68	4846
2026-01-07 22:54:49.37	137.33	30.46	-46.9	-49.5	17.1	0.00e+00	0	43	0	791674880	65	4862
2026-01-07 22:54:50.52	137.64	30.31	-46.3	-48.8	17.9	0.00e+00	0	43	0	793772032	64	4723
2026-01-07 22:54:51.38	137.86	30.21	-46.2	-48.7	18.0	0.00e+00	0	43	0	795869184	64	4665
2026-01-07 22:54:52.52	138.17	30.06	-47.0	-49.7	17.0	0.00e+00	0	43	0	797966336	64	5239
2026-01-07 22:54:53.38	138.39	29.96	-47.7	-50.7	16.0	0.00e+00	0	43	0	799014912	66	5257
2026-01-07 22:54:54.52	138.69	29.82	-47.9	-51.0	15.7	0.00e+00	0	43	0	801112064	66	5440
2026-01-07 22:54:55.38	138.91	29.71	-47.5	-50.4	16.4	0.00e+00	0	43	0	803209216	66	5050
2026-01-07 22:54:56.53	139.20	29.56	-46.7	-49.3	17.4	0.00e+00	0	43	0	805306368	65	4727
2026-01-07 22:54:57.39	139.42	29.46	-46.4	-48.9	17.7	0.00e+00	0	43	0	807403520	64	4805
2026-01-07 22:54:58.53	139.71	29.31	-46.3	-48.7	17.9	0.00e+00	0	43	0	809500672	64	4705
2026-01-07 22:54:59.39	139.92	29.21	-46.8	-49.4	17.3	0.00e+00	0	43	0	810549248	64	5080
2026-01-07 22:55:00.54	140.21	29.06	-47.5	-50.4	16.3	0.00e+00	0	43	0	812646400	65	5353
2026-01-07 22:55:01.40	140.42	28.96	-47.9	-50.9	15.9	0.00e+00	0	43	0	814743552	66	5370
2026-01-07 22:55:02.55	140.70	28.81	-47.9	-50.9	15.8	0.00e+00	0	43	0	816840704	66	5379
2026-01-07 22:55:03.41	140.91	28.71	-47.5	-50.4	16.2	0.00e+00	0	43	0	817889280	66	5090
2026-01-07 22:55:04.55	141.19	28.56	-47.0	-49.7	16.9	0.00e+00	0	43	0	819986432	66	4692
2026-01-07 22:55:05.41	141.39	28.46	-46.3	-48.9	17.8	0.00e+00	0	43	0	822083584	64	4769
2026-01-07 22:55:06.56	141.66	28.31	-46.0	-48.4	18.3	0.00e+00	0	43	0	824180736	63	4799
2026-01-07 22:55:07.69	141.93	28.17	-45.9	-48.3	18.4	0.00e+00	0	43	0	826277888	63	4743
2026-01-07 22:55:08.73	142.17	28.04	-46.4	-48.9	17.8	0.00e+00	0	43	0	828375040	63	5064
2026-01-07 22:55:09.90	142.44	27.89	-47.0	-49.8	16.9	0.00e+00	0	43	0	830472192	64	5293
2026-01-07 22:55:10.76	142.64	27.79	-46.8	-49.5	17.2	0.00e+00	0	43	0	831520768	64	5135
2026-01-07 22:55:12.11	142.95	27.62	-45.9	-48.3	18.3	0.00e+00	0	43	0	834666496	63	4737
2026-01-07 22:55:12.83	143.11	27.53	-45.4	-47.7	18.9	0.00e+00	0	43	0	835715072	62	4697
2026-01-07 22:55:14.12	143.40	27.37	-45.0	-47.2	19.4	0.00e+00	0	43	0	837812224	62	4416
2026-01-07 22:55:14.84	143.56	27.28	-45.1	-47.3	19.3	0.00e+00	0	43	0	839909376	62	4455
2026-01-07 22:55:16.12	143.84	27.12	-45.0	-47.2	19.4	0.00e+00	0	43	0	842006528	61	4684
2026-01-07 22:55:16.84	144.00	27.03	-45.6	-47.9	18.8	0.00e+00	0	43	0	843055104	61	5072
2026-01-07 22:55:18.13	144.28	26.87	-46.6	-49.2	17.5	0.00e+00	0	43	0	846200832	63	5266
2026-01-07 22:55:18.84	144.43	26.78	-46.8	-49.6	17.1	0.00e+00	0	43	0	847249408	64	5194
2026-01-07 22:55:20.14	144.71	26.62	-46.9	-49.7	17.0	0.00e+00	0	43	0	849346560	64	5238
2026-01-07 22:55:20.85	144.86	26.54	-46.6	-49.2	17.4	0.00e+00	0	43	0	851443712	64	4980
2026-01-07 22:55:22.14	145.13	26.38	-45.8	-48.2	18.4	0.00e+00	0	43	0	853540864	63	4680
2026-01-07 22:55:23.08	145.33	26.26	-45.3	-47.7	18.9	0.00e+00	0	43	0	855638016	62	4652
2026-01-07 22:55:24.08	145.54	26.14	-45.2	-47.5	19.1	0.00e+00	0	43	0	856686592	62	4582
2026-01-07 22:55:25.44	145.82	25.97	-45.1	-47.4	19.2	0.00e+00	0	43	0	859832320	62	4528
2026-01-07 22:55:26.19	145.97	25.88	-45.5	-47.8	18.8	0.00e+00	0	43	0	860880896	62	4751
2026-01-07 22:55:27.47	146.23	25.72	-46.1	-48.6	18.1	0.00e+00	0	43	0	862978048	62	5192
2026-01-07 22:55:28.25	146.39	25.63	-46.3	-48.8	17.9	0.00e+00	0	43	0	865075200	63	5035
2026-01-07 22:55:29.54	146.64	25.47	-46.0	-48.5	18.2	0.00e+00	0	43	0	867172352	63	4853
2026-01-07 22:55:30.26	146.79	25.38	-45.7	-48.1	18.5	0.00e+00	0	43	0	868220928	63	4611
2026-01-07 22:55:31.55	147.04	25.23	-45.1	-47.4	19.2	0.00e+00	0	43	0	871366656	62	4512
2026-01-07 22:55:32.26	147.18	25.14	-44.9	-47.1	19.4	0.00e+00	0	43	0	872415232	61	4630
2026-01-07 22:55:33.55	147.43	24.98	-44.7	-46.9	19.7	0.00e+00	0	43	0	874512384	61	4499
2026-01-07 22:55:34.44	147.60	24.88	-44.6	-46.8	19.7	0.00e+00	0	43	0	876609536	61	4450
2026-01-07 22:55:35.59	147.82	24.74	-44.7	-46.9	19.6	0.00e+00	0	43	0	878706688	61	4543
2026-01-07 22:55:36.45	147.98	24.63	-45.0	-47.3	19.3	0.00e+00	0	43	0	879755264	61	4727
2026-01-07 22:55:37.59	148.19	24.50	-45.4	-47.8	18.9	0.00e+00	0	43	0	881852416	61	4992
2026-01-07 22:55:38.45	148.35	24.39	-45.4	-47.8	18.8	0.00e+00	0	43	0	883949568	61	5024
2026-01-07 22:55:39.60	148.57	24.26	-45.4	-47.9	18.7	0.00e+00	0	43	0	886046720	61	5061
2026-01-07 22:55:40.46	148.72	24.15	-45.3	-47.7	18.9	0.00e+00	0	43	0	888143872	61	4934
2026-01-07 22:55:41.64	148.94	24.01	-45.2	-47.6	18.9	0.00e+00	0	43	0	890241024	61	4905
2026-01-07 22:55:42.91	149.17	23.86	-45.1	-47.4	19.2	0.00e+00	0	43	0	892338176	61	4781
2026-01-07 22:55:43.62	149.30	23.78	-45.1	-47.4	19.1	0.00e+00	0	43	0	893386752	61	4808
2026-01-07 22:55:44.92	149.53	23.62	-45.3	-47.6	19.0	0.00e+00	0	43	0	896532480	61	4912
2026-01-07 22:55:45.63	149.65	23.54	-45.5	-47.8	18.8	0.00e+00	0	43	0	897581056	61	5028
2026-01-07 22:55:46.92	149.88	23.39	-45.7	-48.1	18.5	0.00e+00	0	43	0	899678208	62	4895
2026-01-07 22:55:47.64	150.00	23.30	-45.8	-48.2	18.4	0.00e+00	0	43	0	900726784	62	4949
2026-01-07 22:55:49.07	150.25	23.14	-45.9	-48.3	18.4	0.00e+00	0	43	0	903872512	62	5006
2026-01-07 22:55:49.78	150.37	23.05	-45.7	-48.1	18.5	0.00e+00	0	43	0	904921088	62	4910
2026-01-07 22:55:51.16	150.61	22.89	-45.7	-48.0	18.6	0.00e+00	0	43	0	908066816	62	4855
2026-01-07 22:55:51.87	150.72	22.81	-45.7	-48.1	18.5	0.00e+00	0	43	0	909115392	62	4878
2026-01-07 22:55:53.16	150.94	22.66	-45.8	-48.3	18.4	0.00e+00	0	43	0	911212544	62	4987
2026-01-07 22:55:53.88	151.06	22.58	-45.8	-48.2	18.4	0.00e+00	0	43	0	913309696	62	4973
2026-01-07 22:55:55.17	151.27	22.43	-45.9	-48.4	18.2	0.00e+00	0	43	0	915406848	62	5092
2026-01-07 22:55:55.88	151.39	22.35	-46.0	-48.5	18.2	0.00e+00	0	43	0	916455424	62	5116
2026-01-07 22:55:57.18	151.60	22.20	-46.2	-48.7	18.0	0.00e+00	0	43	0	918552576	62	5237
2026-01-07 22:55:57.89	151.72	22.11	-46.1	-48.6	18.0	0.00e+00	0	43	0	920649728	62	5204
2026-01-07 22:55:59.18	151.92	21.97	-46.0	-48.5	18.1	0.00e+00	0	43	0	922746880	62	5145
2026-01-07 22:55:59.90	152.04	21.88	-46.0	-48.5	18.1	0.00e+00	0	43	0	923795456	62	5141
2026-01-07 22:56:01.19	152.24	21.74	-46.0	-48.5	18.2	0.00e+00	0	43	0	926941184	62	5108
2026-01-07 22:56:01.90	152.35	21.66	-45.9	-48.3	18.3	0.00e+00	0	43	0	927989760	62	5035
2026-01-07 22:56:03.19	152.55	21.51	-45.9	-48.3	18.3	0.00e+00	0	43	0	930086912	62	5012
2026-01-07 22:56:03.91	152.66	21.43	-45.9	-48.4	18.3	0.00e+00	0	43	0	931135488	62	5052
2026-01-07 22:56:05.20	152.86	21.28	-46.3	-48.8	17.8	0.00e+00	0	43	0	934281216	63	5030
2026-01-07 22:56:05.91	152.97	21.20	-46.5	-49.0	17.6	0.00e+00	0	43	0	935329792	63	5157
2026-01-07 22:56:07.20	153.17	21.06	-46.6	-49.3	17.3	0.00e+00	0	43	0	937426944	64	4998
2026-01-07 22:56:07.92	153.27	20.98	-46.8	-49.5	17.1	0.00e+00	0	43	0	939524096	64	5158
2026-01-07 22:56:09.21	153.47	20.84	-46.9	-49.7	16.9	0.00e+00	0	43	0	941621248	64	5252
2026-01-07 22:56:09.93	153.57	20.76	-47.0	-49.8	16.9	0.00e+00	0	43	0	942669824	64	5285
2026-01-07 22:56:11.22	153.76	20.61	-46.9	-49.7	16.9	0.00e+00	0	43	0	945815552	64	5245
2026-01-07 22:56:12.27	153.92	20.50	-46.8	-49.5	17.1	0.00e+00	0	43	0	946864128	64	5144
2026-01-07 22:56:13.14	154.04	20.40	-46.7	-49.3	17.2	0.00e+00	0	43	0	948961280	64	5036
2026-01-07 22:56:14.29	154.21	20.27	-46.5	-49.1	17.4	0.00e+00	0	43	0	951058432	64	4918
2026-01-07 22:56:15.15	154.33	20.18	-46.5	-49.1	17.5	0.00e+00	0	43	0	953155584	64	4897
2026-01-07 22:56:16.29	154.49	20.06	-46.5	-49.1	17.4	0.00e+00	0	43	0	955252736	64	4909
2026-01-07 22:56:17.15	154.61	19.96	-46.5	-49.1	17.5	0.00e+00	0	43	0	956301312	64	4883
2026-01-07 22:56:18.30	154.78	19.84	-46.4	-49.1	17.5	0.00e+00	0	43	0	958398464	64	4872
2026-01-07 22:56:19.16	154.89	19.74	-46.6	-49.3	17.2	0.00e+00	0	43	0	960495616	64	5022
2026-01-07 22:56:20.51	155.08	19.60	-46.6	-49.2	17.3	0.00e+00	0	43	0	962592768	64	4981
2026-01-07 22:56:21.23	155.18	19.52	-46.7	-49.5	17.1	0.00e+00	0	43	0	964689920	64	5111
2026-01-07 22:56:22.52	155.36	19.38	-46.7	-49.4	17.1	0.00e+00	0	43	0	966787072	64	5100
2026-01-07 22:56:23.24	155.45	19.31	-46.7	-49.5	17.0	0.00e+00	0	43	0	967835648	64	5137
2026-01-07 22:56:24.53	155.63	19.17	-46.8	-49.7	17.0	0.00e+00	0	43	0	969932800	64	5226
2026-01-07 22:56:25.25	155.72	19.09	-46.8	-49.6	17.0	0.00e+00	0	43	0	972029952	64	5179
2026-01-07 22:56:26.54	155.89	18.95	-46.8	-49.5	17.1	0.00e+00	0	43	0	974127104	64	5140
2026-01-07 22:56:27.26	155.99	18.88	-46.8	-49.5	17.1	0.00e+00	0	43	0	975175680	64	5132
2026-01-07 22:56:28.54	156.15	18.74	-46.6	-49.3	17.3	0.00e+00	0	43	0	978321408	64	5030
2026-01-07 22:56:29.26	156.25	18.67	-46.6	-49.3	17.2	0.00e+00	0	43	0	979369984	64	5032
2026-01-07 22:56:30.55	156.41	18.53	-46.4	-49.0	17.5	0.00e+00	0	43	0	981467136	64	4834
2026-01-07 22:56:31.27	156.51	18.46	-46.3	-48.9	17.7	0.00e+00	0	43	0	982515712	64	4767
2026-01-07 22:56:32.56	156.67	18.32	-46.4	-49.0	17.5	0.00e+00	0	43	0	985661440	64	4856
2026-01-07 22:56:33.27	156.76	18.25	-46.4	-49.0	17.5	0.00e+00	0	43	0	986710016	64	4867
2026-01-07 22:56:34.66	156.94	18.10	-46.3	-48.9	17.6	0.00e+00	0	43	0	988807168	64	4795
2026-01-07 22:56:35.37	157.02	18.03	-46.4	-49.1	17.4	0.00e+00	0	43	0	990904320	64	4892
2026-01-07 22:56:36.67	157.18	17.90	-46.4	-49.1	17.4	0.00e+00	0	43	0	993001472	64	4893
2026-01-07 22:56:37.38	157.27	17.82	-46.6	-49.3	17.2	0.00e+00	0	43	0	994050048	64	4997
2026-01-07 22:56:38.78	157.44	17.68	-46.8	-49.6	16.9	0.00e+00	0	43	0	997195776	64	5190
2026-01-07 22:56:39.50	157.53	17.61	-46.7	-49.5	17.0	0.00e+00	0	43	0	998244352	64	5126
2026-01-07 22:56:40.79	157.69	17.48	-46.7	-49.5	17.0	0.00e+00	0	43	0	1000341504	64	5119
2026-01-07 22:56:41.50	157.77	17.40	-46.7	-49.4	17.1	0.00e+00	0	43	0	1002438656	64	5083
2026-01-07 22:56:42.79	157.92	17.27	-46.6	-49.3	17.2	0.00e+00	0	43	0	1004535808	64	5031
2026-01-07 22:56:43.51	158.01	17.20	-46.6	-49.3	17.1	0.00e+00	0	43	0	1005584384	64	5030
2026-01-07 22:56:44.80	158.16	17.07	-46.7	-49.4	17.1	0.00e+00	0	43	0	1008730112	64	5097
2026-01-07 22:56:45.52	158.24	17.00	-46.6	-49.3	17.2	0.00e+00	0	43	0	1009778688	64	5004
2026-01-07 22:56:46.81	158.39	16.87	-46.4	-49.1	17.4	0.00e+00	0	43	0	1011875840	64	4893
2026-01-07 22:56:47.53	158.48	16.80	-46.4	-49.1	17.4	2.00e-04	0	43	0	1012924416	64	4878
2026-01-07 22:56:48.82	158.62	16.67	-46.5	-49.2	17.3	0.00e+00	0	43	0	1016070144	64	4970
2026-01-07 22:56:49.53	158.71	16.60	-46.5	-49.2	17.3	0.00e+00	0	43	0	1017118720	64	4981
2026-01-07 22:56:50.82	158.85	16.47	-46.6	-49.4	17.1	0.00e+00	0	43	0	1019215872	64	5086
2026-01-07 22:56:51.54	158.93	16.40	-46.7	-49.6	17.0	0.00e+00	0	43	0	1021313024	64	5169
2026-01-07 22:56:52.83	159.08	16.27	-47.0	-49.8	16.7	0.00e+00	0	43	0	1023410176	64	5318
2026-01-07 22:56:53.75	159.18	16.18	-47.1	-49.9	16.6	0.00e+00	0	43	0	1025507328	64	5393
2026-01-07 22:56:54.76	159.29	16.09	-47.2	-50.1	16.5	0.00e+00	0	43	0	1026555904	65	5173
2026-01-07 22:56:55.76	159.40	15.99	-47.3	-50.3	16.3	0.00e+00	0	43	0	1028653056	65	5300
2026-01-07 22:56:56.77	159.51	15.89	-47.3	-50.3	16.3	0.00e+00	0	43	0	1030750208	65	5297
2026-01-07 22:56:57.77	159.62	15.79	-47.3	-50.3	16.3	0.00e+00	0	43	0	1032847360	65	5281
2026-01-07 22:56:58.77	159.72	15.70	-47.2	-50.2	16.3	0.00e+00	0	43	0	1034944512	65	5250
2026-01-07 22:56:59.78	159.83	15.60	-47.3	-50.2	16.3	0.00e+00	0	43	0	1035993088	65	5274
2026-01-07 22:57:00.78	159.94	15.51	-47.1	-49.9	16.6	0.00e+00	0	43	0	1038090240	65	5100
2026-01-07 22:57:01.82	160.05	15.41	-47.0	-49.9	16.6	0.00e+00	0	43	0	1040187392	65	5047
2026-01-07 22:57:02.84	160.15	15.31	-46.9	-49.7	16.8	0.00e+00	0	43	0	1042284544	65	4954
2026-01-07 22:57:03.88	160.26	15.21	-46.9	-49.7	16.8	0.00e+00	0	43	0	1044381696	65	4974
2026-01-07 22:57:04.88	160.37	15.12	-46.8	-49.6	16.8	0.00e+00	0	43	0	1046478848	65	4920
2026-01-07 22:57:05.95	160.48	15.01	-46.8	-49.7	16.8	0.00e+00	0	43	0	1047527424	65	4954
2026-01-07 22:57:06.83	160.57	14.93	-46.7	-49.5	16.9	0.00e+00	0	43	0	1049624576	65	4870
2026-01-07 22:57:07.98	160.68	14.82	-46.8	-49.7	16.8	0.00e+00	0	43	0	1051721728	65	4934
2026-01-07 22:57:08.84	160.77	14.74	-46.8	-49.7	16.8	0.00e+00	0	43	0	1053818880	65	4928
2026-01-07 22:57:09.98	160.88	14.64	-46.7	-49.5	17.0	0.00e+00	0	43	0	1055916032	65	4818
2026-01-07 22:57:10.84	160.97	14.56	-46.6	-49.3	17.1	0.00e+00	0	43	0	1056964608	65	4759
2026-01-07 22:57:11.99	161.08	14.45	-46.6	-49.3	17.1	0.00e+00	0	43	0	1059061760	65	4755
2026-01-07 22:57:13.10	161.19	14.35	-46.7	-49.4	17.0	0.00e+00	0	43	0	1061158912	65	4809
2026-01-07 22:57:14.13	161.29	14.25	-46.7	-49.5	17.0	0.00e+00	0	43	0	1063256064	65	4824
2026-01-07 22:57:15.13	161.39	14.16	-46.7	-49.4	17.0	0.00e+00	0	43	0	1065353216	65	4808
2026-01-07 22:57:16.14	161.49	14.07	-46.6	-49.4	17.0	0.00e+00	0	43	0	1067450368	65	4814
2026-01-07 22:57:17.13	161.58	13.98	-46.8	-49.6	16.8	0.00e+00	0	43	0	1068498944	65	4918
2026-01-07 22:57:18.14	161.68	13.89	-46.8	-49.7	16.7	0.00e+00	0	43	0	1070596096	65	4960
2026-01-07 22:57:19.14	161.77	13.80	-46.8	-49.7	16.8	0.00e+00	0	43	0	1072693248	65	4958
2026-01-07 22:57:20.14	161.87	13.71	-46.9	-49.8	16.7	0.00e+00	0	43	0	1074790400	65	5000
2026-01-07 22:57:21.56	162.00	13.58	-46.9	-49.8	16.6	0.00e+00	0	43	0	1076887552	65	4995
2026-01-07 22:57:22.28	162.07	13.51	-46.9	-49.8	16.7	0.00e+00	0	43	0	1078984704	65	5001
2026-01-07 22:57:23.57	162.19	13.40	-47.1	-50.0	16.4	0.00e+00	0	43	0	1081081856	65	5124
2026-01-07 22:57:24.28	162.25	13.33	-47.1	-50.0	16.4	0.00e+00	0	43	0	1082130432	65	5144
2026-01-07 22:57:25.57	162.37	13.22	-47.2	-50.1	16.3	0.00e+00	0	43	0	1084227584	65	5208
2026-01-07 22:57:26.29	162.44	13.16	-47.2	-50.2	16.2	0.00e+00	0	43	0	1086324736	65	5233
2026-01-07 22:57:27.58	162.55	13.04	-47.3	-50.2	16.2	9.07e-05	0	43	0	1088421888	65	5266
2026-01-07 22:57:28.55	162.64	12.96	-47.3	-50.3	16.1	0.00e+00	0	43	0	1090519040	65	5306
2026-01-07 22:57:29.56	162.73	12.87	-47.3	-50.3	16.2	0.00e+00	0	43	0	1092616192	65	5283
2026-01-07 22:57:30.56	162.82	12.78	-47.3	-50.4	16.1	0.00e+00	0	43	0	1093664768	65	5344
2026-01-07 22:57:31.56	162.91	12.69	-47.3	-50.3	16.1	0.00e+00	0	43	0	1095761920	65	5331
2026-01-07 22:57:32.56	163.00	12.60	-47.3	-50.3	16.1	0.00e+00	0	43	0	1097859072	65	5326
2026-01-07 22:57:33.57	163.08	12.52	-47.4	-50.5	15.9	0.00e+00	0	43	0	1099956224	65	5405
2026-01-07 22:57:34.57	163.17	12.43	-47.4	-50.4	16.0	0.00e+00	0	43	0	1102053376	65	5377
2026-01-07 22:57:35.57	163.26	12.34	-47.3	-50.4	16.0	0.00e+00	0	43	0	1103101952	65	5366
2026-01-07 22:57:36.58	163.34	12.26	-47.4	-50.5	15.9	3.12e-05	0	43	0	1105199104	65	5441
2026-01-07 22:57:37.58	163.43	12.17	-47.4	-50.5	15.9	0.00e+00	0	43	0	1107296256	65	5455
2026-01-07 22:57:38.58	163.51	12.09	-47.4	-50.6	15.8	0.00e+00	0	43	0	1109393408	65	5503
2026-01-07 22:57:39.58	163.60	12.00	-47.5	-50.7	15.7	9.10e-06	0	43	0	1111490560	65	5572
2026-01-07 22:57:40.78	163.70	11.90	-47.5	-50.7	15.7	0.00e+00	0	43	0	1113587712	65	5581
2026-01-07 22:57:41.64	163.77	11.82	-47.6	-50.9	15.5	0.00e+00	0	43	0	1114636288	65	5693
2026-01-07 22:57:42.99	163.88	11.71	-47.6	-50.9	15.5	0.00e+00	0	43	0	1117782016	65	5701
2026-01-07 22:57:43.71	163.94	11.65	-47.6	-51.0	15.4	0.00e+00	0	43	0	1118830592	65	5770
2026-01-07 22:57:45.00	164.05	11.54	-47.7	-51.1	15.3	0.00e+00	0	43	0	1120927744	66	5511
2026-01-07 22:57:45.71	164.11	11.48	-47.7	-51.1	15.3	0.00e+00	0	43	0	1123024896	66	5504
2026-01-07 22:57:47.00	164.21	11.37	-47.7	-51.1	15.3	0.00e+00	0	43	0	1125122048	66	5523
2026-01-07 22:57:47.72	164.27	11.31	-47.8	-51.2	15.2	0.00e+00	0	43	0	1126170624	66	5570
2026-01-07 22:57:49.01	164.37	11.21	-47.8	-51.3	15.1	0.00e+00	0	43	0	1128267776	66	5607
2026-01-07 22:57:49.73	164.43	11.15	-47.8	-51.2	15.2	0.00e+00	0	43	0	1130364928	66	5534
2026-01-07 22:57:51.02	164.53	11.04	-47.8	-51.2	15.3	0.00e+00	0	43	0	1132462080	66	5531
2026-01-07 22:57:51.73	164.59	10.98	-47.8	-51.1	15.2	7.00e-07	0	43	0	1133510656	66	5512
2026-01-07 22:57:53.02	164.69	10.87	-47.8	-51.1	15.2	0.00e+00	0	43	0	1136656384	66	5512
2026-01-07 22:57:53.74	164.75	10.82	-47.6	-51.0	15.4	0.00e+00	0	43	0	1137704960	66	5408
2026-01-07 22:57:55.03	164.85	10.71	-47.5	-50.9	15.5	0.00e+00	0	43	0	1139802112	66	5354
2026-01-07 22:57:55.75	164.90	10.65	-47.5	-50.9	15.5	0.00e+00	0	43	0	1140850688	66	5363
2026-01-07 22:57:57.04	165.00	10.55	-47.4	-50.7	15.6	0.00e+00	0	43	0	1143996416	66	5276
2026-01-07 22:57:57.76	165.06	10.49	-47.4	-50.7	15.7	0.00e+00	0	43	0	1145044992	66	5245
2026-01-07 22:57:59.05	165.15	10.38	-47.2	-50.5	15.7	0.00e+00	0	43	0	1147142144	66	5152
2026-01-07 22:57:59.76	165.21	10.33	-47.2	-50.6	15.7	1.34e-02	0	43	0	1149239296	66	5176
2026-01-07 22:58:01.06	165.31	10.22	-47.2	-50.5	15.8	0.00e+00	0	43	0	1151336448	66	5156
2026-01-07 22:58:01.77	165.36	10.16	-47.1	-50.5	15.9	0.00e+00	0	43	0	1152385024	66	5105
2026-01-07 22:58:03.06	165.46	10.06	-47.1	-50.5	15.8	0.00e+00	0	43	0	1155530752	66	5142
2026-01-07 22:58:03.78	165.51	10.00	-47.1	-50.5	15.8	0.00e+00	0	43	0	1156579328	66	5144
2026-01-07 22:58:05.07	165.60	9.90	-47.0	-50.5	15.9	0.00e+00	0	43	0	1158676480	66	5104
2026-01-07 22:58:05.78	165.66	9.84	-47.0	-50.6	15.7	0.00e+00	0	43	0	1159725056	66	5180
2026-01-07 22:58:07.07	165.75	9.74	-47.0	-50.6	15.7	0.00e+00	0	43	0	1162870784	66	5203
2026-01-07 22:58:07.79	165.80	9.69	-47.0	-50.6	15.7	1.04e-02	0	43	0	1163919360	66	5204
2026-01-07 22:58:09.08	165.90	9.58	-47.1	-50.8	15.5	0.00e+00	0	43	0	1166016512	66	5290
2026-01-07 22:58:09.99	165.96	9.51	-47.1	-50.9	15.4	0.00e+00	0	43	0	1168113664	66	5350
2026-01-07 22:58:10.99	166.03	9.43	-47.2	-50.9	15.3	2.17e-02	0	43	0	1170210816	66	5400
2026-01-07 22:58:12.00	166.10	9.36	-47.2	-51.1	15.2	0.00e+00	0	43	0	1172307968	66	5481
2026-01-07 22:58:13.00	166.17	9.28	-47.3	-51.2	15.1	0.00e+00	0	43	0	1173356544	66	5568
2026-01-07 22:58:14.00	166.24	9.20	-47.4	-51.4	14.9	8.75e-03	0	43	0	1175453696	66	5687
2026-01-07 22:58:15.01	166.32	9.12	-47.5	-51.6	14.7	0.00e+00	0	43	0	1177550848	66	5802
2026-01-07 22:58:16.01	166.38	9.04	-47.5	-51.7	14.6	0.00e+00	0	43	0	1179648000	66	5869
2026-01-07 22:58:17.02	166.45	8.97	-51.1	-67.2	3.7	1.03e-01	0	43	104	1180696576	72	24895
2026-01-07 22:58:18.02	166.52	8.89	-52.3	-67.3	3.8	1.49e+00	0	43	104	1180696576	75	21236
2026-01-07 22:58:19.03	166.59	8.81	-52.5	-67.9	3.8	1.49e+00	0	43	104	1180696576	76	21263
2026-01-07 22:58:20.03	166.66	8.74	-52.8	-68.0	3.8	1.49e+00	0	43	104	1180696576	76	21749
2026-01-07 22:58:21.03	166.73	8.66	-52.8	-68.1	3.8	1.49e+00	0	43	104	1180696576	76	21898
2026-01-07 22:58:22.04	166.80	8.58	-53.0	-68.1	3.8	1.49e+00	0	43	104	1180696576	76	21961
2026-01-07 22:58:23.04	166.86	8.51	-53.1	-68.2	3.8	1.49e+00	0	43	104	1180696576	76	22093
2026-01-07 22:58:24.05	166.93	8.43	-53.0	-68.2	3.8	1.49e+00	0	43	104	1180696576	76	22219
2026-01-07 22:58:25.05	167.00	8.36	-53.1	-68.2	3.8	1.49e+00	0	43	104	1180696576	76	22238
2026-01-07 22:58:26.05	167.06	8.28	-53.1	-68.3	3.8	1.49e+00	0	43	104	1180696576	76	22334
2026-01-07 22:58:27.06	167.13	8.20	-53.1	-68.3	3.8	1.49e+00	0	43	104	1180696576	76	22318
2026-01-07 22:58:28.06	167.20	8.13	-53.2	-68.3	3.8	1.49e+00	0	43	104	1180696576	77	21085
2026-01-07 22:58:29.07	167.26	8.05	-53.2	-68.3	3.8	1.49e+00	0	43	104	1180696576	77	21094
2026-01-07 22:58:30.07	167.33	7.98	-53.2	-68.3	3.8	1.49e+00	0	43	104	1180696576	77	21159
2026-01-07 22:58:31.07	167.39	7.90	-53.2	-68.3	3.8	1.49e+00	0	43	104	1180696576	77	21136
2026-01-07 22:58:32.08	167.46	7.83	-53.2	-68.3	3.8	1.49e+00	0	43	104	1180696576	77	21186
2026-01-07 22:58:33.08	167.52	7.76	-53.2	-68.3	3.8	1.49e+00	0	43	104	1180696576	77	21101
2026-01-07 22:58:34.09	167.59	7.68	-53.1	-68.3	3.8	1.49e+00	0	43	104	1180696576	77	21038
2026-01-07 22:58:35.09	167.65	7.61	-52.9	-68.3	3.8	1.49e+00	0	43	104	1180696576	77	21121
