passes_logs/2026/01/07/T1/T1__20260107_162618_FENGYUN_3E_rec.log

#Pass ID: 20260107_162618_FENGYUN 3E
#Satellite: FENGYUN 3E
#Configuration: FENGYUN 3E
#almurnet v.1.7.20251203
#Start time: 2026-01-07 16:26:20

#Version: 2.0.20230620
#Station: T1
#Location: 37.570604 lon 55.790049 lat
#TLE: 1 49008U 21062A   26006.26767912  .00000427  00000+0  22170-3 0  9993
#TLE: 2 49008  98.7475  11.4982 0001602 156.1158 204.0093 14.19885456233607

#Time	Az	El	Level	Level2	SNR	BER	BlckErr	Temp	State	Recorded	gain1	gain2
2026-01-07 16:26:20.03	238.28	5.05	-52.6	-63.9	3.8	8.46e-01	0	41	0	0	75	13307
2026-01-07 16:26:21.03	238.40	5.09	-52.6	-63.9	3.8	8.47e-01	0	42	104	0	76	12596
2026-01-07 16:26:22.03	238.52	5.14	-52.6	-63.9	3.8	8.46e-01	0	41	104	0	76	12636
2026-01-07 16:26:23.04	238.65	5.18	-52.6	-63.9	3.8	8.48e-01	0	41	104	0	76	12586
2026-01-07 16:26:24.04	238.77	5.22	-52.6	-63.9	3.8	8.47e-01	0	41	104	0	76	12659
2026-01-07 16:26:25.05	238.89	5.27	-52.6	-63.9	3.8	8.47e-01	0	41	104	0	76	12629
2026-01-07 16:26:26.05	239.02	5.31	-52.6	-63.9	3.8	8.46e-01	0	42	104	0	76	12605
2026-01-07 16:26:27.05	239.14	5.35	-52.6	-63.9	3.8	8.48e-01	0	42	104	0	76	12618
2026-01-07 16:26:28.06	239.27	5.40	-52.6	-63.9	3.8	8.47e-01	0	42	104	0	76	12583
2026-01-07 16:26:29.06	239.39	5.44	-52.6	-63.9	3.8	8.45e-01	0	42	104	0	76	12525
2026-01-07 16:26:30.07	239.52	5.48	-52.6	-63.8	3.8	8.47e-01	0	42	104	0	75	13243
2026-01-07 16:26:31.07	239.64	5.53	-52.6	-63.8	3.8	8.47e-01	0	42	104	0	75	13227
2026-01-07 16:26:32.08	239.77	5.57	-52.6	-63.8	3.8	8.47e-01	0	42	104	0	75	13251
2026-01-07 16:26:33.08	239.90	5.61	-52.6	-63.9	3.8	8.48e-01	0	42	104	0	75	13285
2026-01-07 16:26:34.08	240.02	5.65	-52.6	-63.9	3.8	8.48e-01	0	42	104	0	75	13295
2026-01-07 16:26:35.09	240.15	5.70	-52.6	-63.9	3.8	8.47e-01	0	42	104	0	75	13283
2026-01-07 16:26:36.09	240.28	5.74	-52.6	-63.8	3.8	8.46e-01	0	42	104	0	75	13216
2026-01-07 16:26:37.09	240.41	5.78	-52.6	-63.8	3.8	8.46e-01	0	42	104	0	75	13207
2026-01-07 16:26:38.10	240.53	5.82	-52.6	-63.8	3.8	8.48e-01	0	42	104	0	75	13190
2026-01-07 16:26:39.10	240.66	5.87	-52.6	-63.8	3.8	8.47e-01	0	42	104	0	75	13165
2026-01-07 16:26:40.11	240.79	5.91	-52.6	-63.8	3.8	8.47e-01	0	42	104	0	75	13236
2026-01-07 16:26:41.11	240.92	5.95	-52.6	-63.8	3.8	8.47e-01	0	42	104	0	75	13241
2026-01-07 16:26:42.11	241.05	5.99	-52.6	-63.8	3.8	8.46e-01	0	42	104	0	75	13200
2026-01-07 16:26:43.12	241.18	6.04	-52.6	-63.9	3.8	8.47e-01	0	42	104	0	75	13265
2026-01-07 16:26:44.12	241.31	6.08	-52.6	-63.9	3.8	8.47e-01	0	42	104	0	75	13268
2026-01-07 16:26:45.13	241.44	6.12	-52.6	-63.8	3.8	8.47e-01	0	42	104	0	75	13241
2026-01-07 16:26:46.13	241.57	6.16	-52.6	-63.8	3.8	8.48e-01	0	42	104	0	75	13179
2026-01-07 16:26:47.14	241.71	6.21	-52.6	-63.8	3.8	8.48e-01	0	42	104	0	75	13233
2026-01-07 16:26:48.14	241.84	6.25	-52.5	-63.7	3.8	8.46e-01	0	42	104	0	75	13102
2026-01-07 16:26:49.14	241.97	6.29	-52.6	-63.7	3.8	8.47e-01	0	42	104	0	75	13092
2026-01-07 16:26:50.15	242.10	6.33	-52.6	-63.7	3.8	8.48e-01	0	42	104	0	75	13100
2026-01-07 16:26:51.15	242.24	6.37	-52.6	-63.7	3.8	8.47e-01	0	42	104	0	75	13036
2026-01-07 16:26:52.16	242.37	6.42	-52.6	-63.8	3.8	8.47e-01	0	42	104	0	75	13119
2026-01-07 16:26:53.16	242.50	6.46	-52.6	-63.8	3.8	8.47e-01	0	42	104	0	75	13156
2026-01-07 16:26:54.17	242.64	6.50	-52.6	-63.8	3.8	8.47e-01	0	43	104	0	75	13153
2026-01-07 16:26:55.17	242.77	6.54	-52.6	-63.8	3.8	8.46e-01	0	43	104	0	75	13219
2026-01-07 16:26:56.18	242.91	6.58	-52.6	-63.8	3.8	8.48e-01	0	43	104	0	75	13245
2026-01-07 16:26:57.18	243.04	6.62	-52.6	-63.8	3.8	8.47e-01	0	43	104	0	75	13181
2026-01-07 16:26:58.18	243.18	6.67	-52.6	-63.9	3.8	8.47e-01	0	42	104	0	75	13268
2026-01-07 16:26:59.19	243.32	6.71	-52.6	-63.8	3.8	8.45e-01	0	42	104	0	75	13206
2026-01-07 16:27:00.19	243.45	6.75	-52.6	-63.8	3.8	8.47e-01	0	43	104	0	75	13195
2026-01-07 16:27:01.20	243.59	6.79	-52.6	-63.8	3.8	8.46e-01	0	43	104	0	75	13260
2026-01-07 16:27:02.20	243.73	6.83	-52.6	-63.8	3.8	8.46e-01	0	43	104	0	75	13155
2026-01-07 16:27:03.21	243.87	6.87	-52.6	-63.8	3.8	8.47e-01	0	43	104	0	75	13192
2026-01-07 16:27:04.21	244.00	6.91	-52.6	-63.7	3.8	8.48e-01	0	43	104	0	75	13108
2026-01-07 16:27:05.22	244.14	6.95	-52.6	-63.7	3.8	8.47e-01	0	43	104	0	75	13044
2026-01-07 16:27:06.22	244.28	6.99	-52.6	-63.7	3.8	8.48e-01	0	43	104	0	75	12998
2026-01-07 16:27:07.22	244.42	7.04	-52.6	-63.6	3.8	8.46e-01	0	43	104	0	75	12864
2026-01-07 16:27:08.23	244.56	7.08	-52.6	-63.7	3.8	8.46e-01	0	43	104	0	75	12994
2026-01-07 16:27:09.23	244.70	7.12	-52.6	-63.6	3.8	8.47e-01	0	43	104	0	75	12831
2026-01-07 16:27:10.24	244.84	7.16	-52.5	-63.6	3.8	8.47e-01	0	43	104	0	75	12891
2026-01-07 16:27:11.24	244.98	7.20	-52.6	-63.6	3.8	8.47e-01	0	43	104	0	75	12816
2026-01-07 16:27:12.25	245.12	7.24	-52.5	-63.5	3.8	8.47e-01	0	43	104	0	75	12759
2026-01-07 16:27:13.25	245.26	7.28	-52.5	-63.5	3.8	8.46e-01	0	43	104	0	75	12810
2026-01-07 16:27:14.26	245.41	7.32	-52.5	-63.6	3.8	8.47e-01	0	43	104	0	75	12904
2026-01-07 16:27:15.26	245.55	7.36	-52.5	-63.7	3.8	8.47e-01	0	43	104	0	75	12996
2026-01-07 16:27:16.27	245.69	7.40	-52.5	-63.7	3.8	8.46e-01	0	43	104	0	75	12977
2026-01-07 16:27:17.27	245.83	7.44	-52.5	-63.7	3.8	8.47e-01	0	43	104	0	75	13102
2026-01-07 16:27:18.27	245.98	7.48	-52.5	-63.7	3.8	8.48e-01	0	43	104	0	75	13048
2026-01-07 16:27:19.28	246.12	7.52	-52.5	-63.7	3.8	8.47e-01	0	43	104	0	75	13056
2026-01-07 16:27:20.28	246.26	7.56	-52.6	-63.7	3.8	8.47e-01	0	43	104	0	75	13099
2026-01-07 16:27:21.29	246.41	7.60	-52.5	-63.8	3.8	8.46e-01	0	43	104	0	75	13177
2026-01-07 16:27:22.29	246.55	7.64	-52.6	-63.8	3.8	8.47e-01	0	43	104	0	75	13207
2026-01-07 16:27:23.30	246.70	7.68	-52.6	-63.8	3.8	8.47e-01	0	43	104	0	75	13223
2026-01-07 16:27:24.30	246.84	7.72	-52.6	-63.7	3.8	8.47e-01	0	43	104	0	75	13087
2026-01-07 16:27:25.31	246.99	7.76	-52.6	-63.7	3.8	8.47e-01	0	43	104	0	75	13066
2026-01-07 16:27:26.31	247.14	7.79	-52.6	-63.8	3.8	8.48e-01	0	43	104	0	75	13199
2026-01-07 16:27:27.31	247.28	7.83	-52.6	-63.8	3.8	8.48e-01	0	43	104	0	75	13239
2026-01-07 16:27:28.32	247.43	7.87	-52.6	-63.8	3.8	8.46e-01	0	43	104	0	75	13186
2026-01-07 16:27:29.32	247.58	7.91	-52.5	-63.7	3.8	8.46e-01	0	43	104	0	75	13080
2026-01-07 16:27:30.32	247.73	7.95	-52.5	-63.5	3.8	8.48e-01	0	43	104	0	75	12806
2026-01-07 16:27:31.33	247.87	7.99	-52.5	-63.5	3.8	8.47e-01	0	43	104	0	75	12717
2026-01-07 16:27:32.34	248.02	8.03	-52.6	-63.6	3.8	8.46e-01	0	43	104	0	75	12821
2026-01-07 16:27:33.34	248.17	8.06	-52.6	-63.8	3.8	8.47e-01	0	43	104	0	75	13113
2026-01-07 16:27:34.34	248.32	8.10	-52.6	-63.8	3.8	8.46e-01	0	43	104	0	75	13137
2026-01-07 16:27:35.35	248.47	8.14	-52.6	-63.7	3.8	8.47e-01	0	43	104	0	75	13091
2026-01-07 16:27:36.35	248.62	8.18	-52.6	-63.6	3.8	8.46e-01	0	43	104	0	75	12932
2026-01-07 16:27:37.35	248.77	8.22	-52.5	-63.5	3.8	8.46e-01	0	43	104	0	75	12746
2026-01-07 16:27:38.36	248.92	8.25	-52.5	-63.5	3.8	8.47e-01	0	43	104	0	75	12794
2026-01-07 16:27:39.36	249.07	8.29	-52.6	-63.7	3.8	8.45e-01	0	43	104	0	75	12970
2026-01-07 16:27:40.37	249.23	8.33	-52.5	-63.8	3.8	8.47e-01	0	43	104	0	75	13165
2026-01-07 16:27:41.37	249.38	8.37	-52.5	-63.5	3.8	8.47e-01	0	43	104	0	75	12784
2026-01-07 16:27:42.38	249.53	8.41	-52.4	-62.5	3.8	8.46e-01	0	43	104	0	75	11376
2026-01-07 16:27:43.38	249.68	8.44	-52.2	-61.1	4.0	8.46e-01	0	43	0	0	75	9611
2026-01-07 16:27:44.39	249.84	8.48	-52.1	-60.3	4.2	8.39e-01	0	43	0	0	75	8797
2026-01-07 16:27:45.39	249.99	8.52	-52.2	-60.6	4.1	8.39e-01	0	43	0	0	75	9148
2026-01-07 16:27:46.39	250.14	8.55	-52.4	-62.2	3.8	8.47e-01	0	43	104	0	75	10991
2026-01-07 16:27:47.40	250.30	8.59	-52.4	-61.9	3.8	8.47e-01	0	43	104	0	75	10582
2026-01-07 16:27:48.40	250.45	8.63	-51.3	-57.0	5.9	7.87e-01	0	43	0	0	73	6735
2026-01-07 16:27:49.41	250.61	8.66	-49.5	-52.7	9.9	2.10e-02	0	43	0	7340032	69	5208
2026-01-07 16:27:50.41	250.76	8.70	-47.5	-49.7	13.0	1.52e-04	0	43	0	14680064	65	4610
2026-01-07 16:27:51.41	250.92	8.74	-46.1	-47.8	15.0	1.10e-06	0	43	0	20971520	63	4169
2026-01-07 16:27:52.42	251.08	8.77	-45.1	-46.6	16.1	0.00e+00	0	43	0	28311552	61	4073
2026-01-07 16:27:53.42	251.23	8.81	-44.8	-46.2	16.5	0.00e+00	0	43	0	35651584	60	4139
2026-01-07 16:27:54.43	251.39	8.84	-45.0	-46.4	16.3	0.00e+00	0	43	0	42991616	60	4226
2026-01-07 16:27:55.43	251.55	8.88	-45.8	-47.4	15.4	0.00e+00	0	43	0	50331648	60	4731
2026-01-07 16:27:56.44	251.70	8.91	-46.9	-48.8	14.0	0.00e+00	0	43	0	57671680	63	4675
2026-01-07 16:27:57.44	251.86	8.95	-48.1	-50.5	12.1	5.95e-05	0	43	0	65011712	65	5065
2026-01-07 16:27:58.45	252.02	8.99	-49.5	-52.7	10.0	4.65e-03	0	43	0	72351744	68	5477
2026-01-07 16:27:59.45	252.18	9.02	-50.3	-54.2	8.4	3.96e-02	0	43	0	79691776	69	6181
2026-01-07 16:28:00.56	252.36	9.06	-49.0	-51.7	10.9	1.90e-02	0	43	0	87031808	68	4922
2026-01-07 16:28:01.42	252.49	9.09	-49.0	-51.9	10.8	2.66e-04	0	43	0	93323264	67	5309
2026-01-07 16:28:02.57	252.68	9.13	-51.7	-58.1	5.2	7.20e-01	0	43	0	99614720	72	8128
2026-01-07 16:28:03.43	252.81	9.16	-51.7	-58.0	5.1	8.29e-01	0	43	0	99614720	73	7618
2026-01-07 16:28:04.58	253.00	9.20	-51.5	-57.5	5.5	7.53e-01	0	43	0	100663296	73	7140
2026-01-07 16:28:05.44	253.13	9.23	-51.9	-59.7	4.4	8.31e-01	0	43	0	100663296	73	9185
2026-01-07 16:28:06.58	253.32	9.27	-51.8	-58.8	4.7	8.08e-01	0	44	0	100663296	73	8364
2026-01-07 16:28:07.71	253.50	9.30	-51.8	-58.7	4.8	8.06e-01	0	43	0	100663296	73	8271
2026-01-07 16:28:08.76	253.67	9.34	-51.7	-57.8	5.3	7.65e-01	0	43	0	101711872	73	7450
2026-01-07 16:28:09.83	253.84	9.38	-51.5	-57.4	5.6	6.94e-01	0	43	0	103809024	73	7111
2026-01-07 16:28:10.82	254.00	9.41	-48.0	-50.3	12.3	2.73e-02	0	44	0	109051904	66	4661
2026-01-07 16:28:11.98	254.19	9.45	-51.6	-57.8	5.3	1.65e-01	0	43	0	116391936	72	7815
2026-01-07 16:28:12.84	254.33	9.47	-49.2	-52.0	10.7	6.02e-03	0	43	0	121634816	69	4814
2026-01-07 16:28:13.99	254.52	9.51	-49.2	-52.0	10.8	2.36e-03	0	44	0	130023424	68	5050
2026-01-07 16:28:14.85	254.66	9.54	-49.0	-51.7	11.1	2.66e-03	0	43	0	136314880	68	4926
2026-01-07 16:28:15.99	254.85	9.58	-47.8	-50.1	12.6	2.08e-04	0	43	0	144703488	66	4569
2026-01-07 16:28:16.85	254.99	9.61	-47.5	-49.8	12.9	5.14e-05	0	43	0	150994944	65	4655
2026-01-07 16:28:17.99	255.18	9.64	-46.7	-48.7	14.1	5.70e-06	0	43	0	159383552	64	4347
2026-01-07 16:28:18.85	255.32	9.67	-46.4	-48.3	14.5	2.20e-06	0	43	0	165675008	63	4414
2026-01-07 16:28:20.00	255.51	9.71	-46.0	-47.7	15.1	0.00e+00	0	43	0	174063616	62	4360
2026-01-07 16:28:20.86	255.65	9.73	-46.0	-47.8	15.1	0.00e+00	0	43	0	180355072	62	4396
2026-01-07 16:28:22.01	255.84	9.77	-46.0	-47.7	15.1	0.00e+00	0	43	0	187695104	62	4355
2026-01-07 16:28:22.87	255.99	9.80	-46.0	-47.7	15.1	1.10e-06	0	43	0	193986560	62	4371
2026-01-07 16:28:24.13	256.20	9.84	-45.5	-47.1	15.7	0.00e+00	0	43	0	203423744	61	4303
2026-01-07 16:28:24.89	256.32	9.86	-44.9	-46.3	16.6	0.00e+00	0	43	0	208666624	60	4150
2026-01-07 16:28:26.18	256.54	9.90	-45.0	-46.5	16.4	0.00e+00	0	43	0	218103808	60	4249
2026-01-07 16:28:26.89	256.66	9.92	-45.3	-46.8	16.1	0.00e+00	0	43	0	223346688	60	4417
2026-01-07 16:28:28.18	256.88	9.96	-44.4	-45.7	17.0	0.00e+00	0	43	0	232783872	59	4136
2026-01-07 16:28:28.90	257.00	9.98	-43.9	-45.2	17.5	0.00e+00	0	44	0	238026752	58	4104
2026-01-07 16:28:30.19	257.21	10.02	-44.0	-45.2	17.4	0.00e+00	0	43	0	247463936	58	4144
2026-01-07 16:28:31.00	257.35	10.04	-43.8	-45.0	17.6	0.00e+00	0	43	0	252706816	58	4039
2026-01-07 16:28:32.15	257.55	10.08	-43.3	-44.5	18.2	0.00e+00	0	43	0	261095424	57	4005
2026-01-07 16:28:33.20	257.73	10.11	-43.0	-44.1	18.6	0.00e+00	0	43	0	269484032	56	4053
2026-01-07 16:28:34.07	257.87	10.14	-42.8	-43.9	18.7	0.00e+00	0	43	0	274726912	56	3972
2026-01-07 16:28:35.60	258.13	10.18	-42.6	-43.7	18.9	0.00e+00	0	43	0	286261248	56	3881
2026-01-07 16:28:36.32	258.26	10.20	-42.4	-43.4	19.0	0.00e+00	0	43	0	291504128	55	4003
2026-01-07 16:28:37.61	258.48	10.24	-42.4	-43.5	19.0	0.00e+00	0	43	0	300941312	55	4024
2026-01-07 16:28:38.33	258.60	10.26	-42.3	-43.4	19.0	0.00e+00	0	44	0	306184192	55	3998
2026-01-07 16:28:39.62	258.82	10.29	-42.2	-43.3	19.2	0.00e+00	0	43	0	315621376	55	3917
2026-01-07 16:28:40.33	258.95	10.31	-42.3	-43.4	19.1	0.00e+00	0	44	0	320864256	55	3972
2026-01-07 16:28:41.62	259.17	10.35	-42.3	-43.4	19.1	0.00e+00	0	43	0	329252864	55	3976
2026-01-07 16:28:42.47	259.32	10.37	-42.3	-43.4	19.0	0.00e+00	0	43	0	335544320	55	3985
2026-01-07 16:28:43.61	259.51	10.41	-42.4	-43.5	19.0	0.00e+00	0	43	0	343932928	55	4028
2026-01-07 16:28:44.47	259.66	10.43	-42.4	-43.5	19.0	0.00e+00	0	44	0	350224384	55	4037
2026-01-07 16:28:45.62	259.86	10.46	-42.4	-43.5	18.9	0.00e+00	0	43	0	358612992	55	4044
2026-01-07 16:28:46.48	260.01	10.48	-42.5	-43.6	18.8	0.00e+00	0	43	0	364904448	55	4079
2026-01-07 16:28:47.63	260.21	10.51	-42.6	-43.7	18.8	0.00e+00	0	44	0	373293056	55	4099
2026-01-07 16:28:48.49	260.36	10.54	-42.5	-43.6	18.9	0.00e+00	0	43	0	379584512	55	4070
2026-01-07 16:28:49.64	260.57	10.57	-42.4	-43.5	18.9	0.00e+00	0	44	0	387973120	55	4032
2026-01-07 16:28:50.50	260.72	10.59	-42.4	-43.5	19.0	0.00e+00	0	43	0	394264576	55	4026
2026-01-07 16:28:51.64	260.92	10.62	-42.5	-43.5	18.9	0.00e+00	0	43	0	402653184	55	4049
2026-01-07 16:28:52.50	261.07	10.64	-42.3	-43.4	19.1	0.00e+00	0	43	0	407896064	55	3975
2026-01-07 16:28:53.65	261.27	10.67	-42.3	-43.3	19.2	0.00e+00	0	43	0	416284672	55	3935
2026-01-07 16:28:54.51	261.42	10.69	-42.3	-43.3	19.1	0.00e+00	0	44	0	422576128	55	3948
2026-01-07 16:28:55.65	261.62	10.72	-42.4	-43.4	19.0	0.00e+00	0	43	0	430964736	55	4004
2026-01-07 16:28:56.51	261.78	10.74	-42.5	-43.5	19.0	0.00e+00	0	43	0	437256192	55	4036
2026-01-07 16:28:57.66	261.98	10.77	-42.5	-43.6	18.9	0.00e+00	0	43	0	445644800	55	4059
2026-01-07 16:28:58.52	262.13	10.79	-42.4	-43.5	19.0	0.00e+00	0	43	0	451936256	55	4008
2026-01-07 16:28:59.66	262.34	10.82	-42.6	-43.7	18.8	0.00e+00	0	43	0	460324864	55	4133
2026-01-07 16:29:00.75	262.53	10.84	-42.7	-43.8	18.7	0.00e+00	0	43	0	467664896	55	4158
2026-01-07 16:29:01.61	262.68	10.86	-42.6	-43.7	18.8	0.00e+00	0	43	0	473956352	55	4111
2026-01-07 16:29:02.76	262.89	10.89	-42.5	-43.6	18.9	0.00e+00	0	43	0	482344960	55	4054
2026-01-07 16:29:03.61	263.04	10.91	-42.5	-43.6	18.9	0.00e+00	0	43	0	488636416	55	4072
2026-01-07 16:29:04.76	263.25	10.94	-42.5	-43.6	18.8	0.00e+00	0	43	0	497025024	55	4096
2026-01-07 16:29:05.62	263.40	10.96	-42.6	-43.7	18.8	0.00e+00	0	43	0	503316480	55	4125
2026-01-07 16:29:06.77	263.61	10.98	-42.5	-43.6	18.9	0.00e+00	0	43	0	510656512	55	4070
2026-01-07 16:29:07.63	263.77	11.00	-42.4	-43.5	19.0	0.00e+00	0	43	0	516947968	55	4028
2026-01-07 16:29:08.78	263.97	11.03	-42.4	-43.5	19.0	0.00e+00	0	43	0	525336576	55	4045
2026-01-07 16:29:09.63	264.13	11.04	-42.5	-43.6	18.9	0.00e+00	0	43	0	531628032	55	4076
2026-01-07 16:29:10.78	264.34	11.07	-42.5	-43.6	18.9	0.00e+00	0	43	0	540016640	55	4061
2026-01-07 16:29:11.64	264.49	11.09	-42.5	-43.6	18.9	0.00e+00	0	43	0	546308096	55	4059
2026-01-07 16:29:12.79	264.70	11.11	-42.4	-43.5	19.0	0.00e+00	0	43	0	554696704	55	4038
2026-01-07 16:29:13.65	264.86	11.13	-42.4	-43.5	19.0	0.00e+00	0	43	0	560988160	55	4019
2026-01-07 16:29:14.80	265.07	11.15	-42.3	-43.4	19.1	0.00e+00	0	43	0	569376768	55	3960
2026-01-07 16:29:15.66	265.22	11.17	-42.3	-43.4	19.1	0.00e+00	0	43	0	575668224	55	3967
2026-01-07 16:29:16.80	265.43	11.19	-42.1	-43.2	19.3	0.00e+00	0	43	0	584056832	55	3874
2026-01-07 16:29:17.67	265.59	11.21	-42.1	-43.2	19.3	0.00e+00	0	43	0	590348288	55	3869
2026-01-07 16:29:18.81	265.80	11.23	-42.1	-43.1	19.4	0.00e+00	0	43	0	597688320	54	4067
2026-01-07 16:29:19.67	265.96	11.25	-42.0	-43.0	19.4	0.00e+00	0	43	0	603979776	54	4036
2026-01-07 16:29:20.81	266.16	11.27	-42.1	-43.1	19.4	0.00e+00	0	43	0	612368384	54	4070
2026-01-07 16:29:21.67	266.32	11.29	-42.1	-43.1	19.4	0.00e+00	0	43	0	618659840	54	4059
2026-01-07 16:29:22.82	266.53	11.31	-42.2	-43.2	19.3	0.00e+00	0	43	0	627048448	54	4132
2026-01-07 16:29:23.68	266.69	11.32	-42.2	-43.2	19.3	0.00e+00	0	43	0	633339904	54	4135
2026-01-07 16:29:24.89	266.92	11.35	-42.3	-43.3	19.1	0.00e+00	0	43	0	641728512	54	4177
2026-01-07 16:29:25.75	267.07	11.36	-42.3	-43.3	19.2	0.00e+00	0	43	0	648019968	54	4165
2026-01-07 16:29:26.90	267.29	11.38	-42.2	-43.2	19.2	0.00e+00	0	43	0	656408576	54	4145
2026-01-07 16:29:27.76	267.45	11.40	-42.2	-43.3	19.2	0.00e+00	0	43	0	662700032	54	4149
2026-01-07 16:29:28.90	267.66	11.42	-42.2	-43.2	19.2	0.00e+00	0	43	0	671088640	54	4136
2026-01-07 16:29:29.78	267.82	11.43	-42.1	-43.1	19.3	0.00e+00	0	43	0	677380096	54	4076
2026-01-07 16:29:31.12	268.07	11.45	-42.1	-43.1	19.3	0.00e+00	0	43	0	686817280	54	4078
2026-01-07 16:29:31.84	268.20	11.47	-42.1	-43.2	19.3	0.00e+00	0	43	0	692060160	54	4101
2026-01-07 16:29:33.13	268.44	11.49	-42.0	-43.0	19.4	0.00e+00	0	43	0	701497344	54	4046
2026-01-07 16:29:33.84	268.58	11.50	-41.8	-42.8	19.6	0.00e+00	0	43	0	706740224	54	3932
2026-01-07 16:29:35.13	268.82	11.52	-41.9	-42.9	19.5	0.00e+00	0	43	0	716177408	54	3976
2026-01-07 16:29:35.90	268.96	11.53	-42.0	-43.0	19.5	0.00e+00	0	43	0	721420288	54	4022
2026-01-07 16:29:37.19	269.20	11.55	-41.9	-42.9	19.6	0.00e+00	0	43	0	730857472	54	3974
2026-01-07 16:29:37.90	269.33	11.56	-41.9	-42.9	19.5	0.00e+00	0	43	0	736100352	54	3984
2026-01-07 16:29:39.20	269.58	11.58	-41.9	-42.9	19.5	0.00e+00	0	43	0	745537536	54	3988
2026-01-07 16:29:39.91	269.71	11.59	-41.9	-42.9	19.6	0.00e+00	0	43	0	750780416	54	3979
2026-01-07 16:29:41.20	269.95	11.61	-42.0	-43.0	19.5	0.00e+00	0	44	0	760217600	54	4025
2026-01-07 16:29:41.92	270.09	11.61	-41.9	-42.9	19.5	0.00e+00	0	43	0	764411904	54	4000
2026-01-07 16:29:43.21	270.33	11.63	-41.9	-42.9	19.5	0.00e+00	0	43	0	773849088	54	3994
2026-01-07 16:29:43.92	270.46	11.64	-42.0	-43.0	19.5	0.00e+00	0	43	0	779091968	54	4014
2026-01-07 16:29:45.21	270.71	11.66	-42.0	-43.0	19.5	0.00e+00	0	43	0	788529152	54	4021
2026-01-07 16:29:45.92	270.84	11.67	-41.9	-42.9	19.5	0.00e+00	0	43	0	793772032	54	3984
2026-01-07 16:29:47.21	271.08	11.68	-42.1	-43.1	19.4	0.00e+00	0	43	0	803209216	54	4061
2026-01-07 16:29:47.93	271.22	11.69	-42.1	-43.1	19.4	0.00e+00	0	43	0	808452096	54	4075
2026-01-07 16:29:49.22	271.46	11.71	-42.1	-43.1	19.3	0.00e+00	0	43	0	817889280	54	4097
2026-01-07 16:29:49.93	271.60	11.71	-42.1	-43.1	19.4	0.00e+00	0	43	0	823132160	54	4084
2026-01-07 16:29:51.22	271.84	11.73	-42.0	-43.0	19.4	0.00e+00	0	43	0	832569344	54	4046
2026-01-07 16:29:51.94	271.98	11.74	-42.0	-43.0	19.4	0.00e+00	0	43	0	837812224	54	4048
2026-01-07 16:29:53.23	272.22	11.75	-42.0	-43.0	19.5	0.00e+00	0	43	0	846200832	54	4016
2026-01-07 16:29:53.95	272.36	11.76	-42.0	-43.1	19.4	0.00e+00	0	43	0	851443712	54	4060
2026-01-07 16:29:55.24	272.60	11.77	-42.0	-43.0	19.5	0.00e+00	0	43	0	860880896	54	4028
2026-01-07 16:29:56.08	272.76	11.78	-42.0	-43.1	19.4	0.00e+00	0	43	0	867172352	54	4063
2026-01-07 16:29:57.55	273.04	11.79	-42.1	-43.2	19.3	0.00e+00	0	43	0	877658112	54	4114
2026-01-07 16:29:58.26	273.17	11.80	-42.1	-43.1	19.4	0.00e+00	0	43	0	882900992	54	4094
2026-01-07 16:29:59.55	273.42	11.81	-42.1	-43.2	19.3	0.00e+00	0	43	0	892338176	54	4111
2026-01-07 16:30:00.27	273.56	11.82	-42.1	-43.2	19.3	0.00e+00	0	44	0	897581056	54	4112
2026-01-07 16:30:01.83	273.85	11.83	-42.1	-43.1	19.4	0.00e+00	0	43	0	908066816	54	4092
2026-01-07 16:30:02.54	273.99	11.83	-42.1	-43.1	19.4	0.00e+00	0	43	0	914358272	54	4090
2026-01-07 16:30:03.83	274.23	11.84	-42.1	-43.1	19.4	0.00e+00	0	43	0	922746880	54	4057
2026-01-07 16:30:04.54	274.37	11.85	-42.1	-43.1	19.4	0.00e+00	0	43	0	927989760	54	4063
2026-01-07 16:30:05.83	274.62	11.86	-42.2	-43.2	19.3	0.00e+00	0	43	0	937426944	54	4112
2026-01-07 16:30:06.55	274.75	11.86	-42.1	-43.1	19.4	0.00e+00	0	43	0	942669824	54	4083
2026-01-07 16:30:07.84	275.00	11.87	-41.9	-43.0	19.5	0.00e+00	0	43	0	952107008	54	4015
2026-01-07 16:30:08.55	275.13	11.88	-42.1	-43.1	19.4	0.00e+00	0	43	0	957349888	54	4079
2026-01-07 16:30:09.84	275.38	11.88	-42.1	-43.2	19.4	0.00e+00	0	43	0	966787072	54	4102
2026-01-07 16:30:10.59	275.52	11.89	-42.1	-43.2	19.3	0.00e+00	0	43	0	972029952	54	4106
2026-01-07 16:30:11.88	275.77	11.90	-42.2	-43.2	19.3	0.00e+00	0	43	0	981467136	54	4133
2026-01-07 16:30:12.66	275.92	11.90	-42.2	-43.3	19.2	0.00e+00	0	43	0	986710016	54	4153
2026-01-07 16:30:14.27	276.23	11.91	-42.2	-43.3	19.2	0.00e+00	0	43	0	998244352	54	4159
2026-01-07 16:30:14.84	276.34	11.91	-42.2	-43.3	19.2	0.00e+00	0	43	0	1002438656	54	4166
2026-01-07 16:30:16.43	276.64	11.92	-42.2	-43.3	19.2	0.00e+00	0	43	0	1013972992	54	4158
2026-01-07 16:30:17.01	276.75	11.92	-42.2	-43.3	19.3	0.00e+00	0	43	0	1018167296	54	4156
2026-01-07 16:30:18.73	277.08	11.92	-42.1	-43.2	19.3	0.00e+00	0	43	0	1030750208	54	4111
2026-01-07 16:30:19.31	277.19	11.93	-42.1	-43.1	19.4	0.00e+00	0	43	0	1034944512	54	4077
2026-01-07 16:30:20.88	277.49	11.93	-42.1	-43.1	19.3	0.00e+00	0	43	0	1046478848	54	4084
2026-01-07 16:30:21.49	277.61	11.93	-42.0	-43.0	19.4	0.00e+00	0	43	0	1050673152	54	4043
2026-01-07 16:30:23.06	277.91	11.94	-42.1	-43.2	19.3	0.00e+00	0	43	0	1062207488	54	4115
2026-01-07 16:30:23.64	278.02	11.94	-42.1	-43.1	19.4	0.00e+00	0	43	0	1066401792	54	4091
2026-01-07 16:30:25.23	278.33	11.94	-42.0	-43.1	19.4	0.00e+00	0	43	0	1077936128	54	4062
2026-01-07 16:30:25.80	278.44	11.94	-42.1	-43.1	19.4	0.00e+00	0	43	0	1082130432	54	4085
2026-01-07 16:30:27.46	278.75	11.94	-42.1	-43.1	19.4	0.00e+00	0	43	0	1093664768	54	4089
2026-01-07 16:30:28.03	278.86	11.94	-42.1	-43.1	19.4	0.00e+00	0	43	0	1097859072	54	4084
2026-01-07 16:30:29.61	279.17	11.94	-42.0	-43.0	19.5	0.00e+00	0	43	0	1109393408	54	4029
2026-01-07 16:30:30.62	279.36	11.94	-42.0	-43.1	19.4	0.00e+00	0	43	0	1116733440	54	4052
2026-01-07 16:30:31.63	279.55	11.94	-42.2	-43.2	19.3	0.00e+00	0	43	0	1124073472	54	4130
2026-01-07 16:30:32.63	279.75	11.94	-42.1	-43.1	19.4	0.00e+00	0	43	0	1131413504	54	4084
2026-01-07 16:30:33.63	279.94	11.94	-42.0	-43.0	19.4	0.00e+00	0	43	0	1138753536	54	4048
2026-01-07 16:30:34.64	280.13	11.94	-42.1	-43.1	19.4	0.00e+00	0	43	0	1146093568	54	4069
2026-01-07 16:30:35.64	280.32	11.94	-42.0	-43.0	19.4	0.00e+00	0	43	0	1153433600	54	4041
2026-01-07 16:30:36.64	280.51	11.94	-42.1	-43.1	19.3	0.00e+00	0	43	0	1159725056	54	4085
2026-01-07 16:30:37.65	280.71	11.93	-42.1	-43.1	19.4	0.00e+00	0	43	0	1167065088	54	4090
2026-01-07 16:30:38.65	280.90	11.93	-42.1	-43.1	19.3	0.00e+00	0	43	0	1174405120	54	4094
2026-01-07 16:30:39.65	281.09	11.93	-42.0	-43.1	19.4	0.00e+00	0	43	0	1181745152	54	4052
2026-01-07 16:30:40.65	281.28	11.93	-42.2	-43.2	19.3	0.00e+00	0	43	0	1189085184	54	4121
2026-01-07 16:30:41.66	281.48	11.92	-42.1	-43.2	19.3	0.00e+00	0	43	0	1196425216	54	4106
2026-01-07 16:30:42.66	281.67	11.92	-42.0	-43.1	19.4	0.00e+00	0	43	0	1203765248	54	4053
2026-01-07 16:30:43.98	281.92	11.91	-42.1	-43.1	19.4	0.00e+00	0	43	0	1213202432	54	4067
2026-01-07 16:30:44.70	282.06	11.91	-42.0	-43.1	19.5	0.00e+00	0	43	0	1218445312	54	4052
2026-01-07 16:30:45.98	282.30	11.90	-42.1	-43.1	19.4	0.00e+00	0	43	0	1227882496	54	4065
2026-01-07 16:30:46.70	282.44	11.90	-42.0	-43.0	19.5	0.00e+00	0	43	0	1233125376	54	4044
2026-01-07 16:30:47.99	282.69	11.89	-42.1	-43.1	19.4	0.00e+00	0	43	0	1242562560	54	4075
2026-01-07 16:30:48.89	282.86	11.89	-42.0	-43.0	19.5	0.00e+00	0	43	0	1248854016	54	4027
2026-01-07 16:30:49.90	283.05	11.88	-42.1	-43.1	19.4	0.00e+00	0	43	0	1256194048	54	4064
2026-01-07 16:30:50.90	283.24	11.88	-42.0	-43.0	19.5	0.00e+00	0	43	0	1262485504	54	4031
2026-01-07 16:30:51.90	283.43	11.87	-42.1	-43.1	19.4	0.00e+00	0	43	0	1269825536	54	4077
2026-01-07 16:30:52.91	283.62	11.87	-42.2	-43.3	19.3	0.00e+00	0	43	0	1277165568	54	4146
2026-01-07 16:30:53.91	283.82	11.86	-42.2	-43.2	19.3	0.00e+00	0	43	0	1284505600	54	4126
2026-01-07 16:30:54.92	284.01	11.85	-42.2	-43.2	19.3	0.00e+00	0	43	0	1291845632	54	4139
2026-01-07 16:30:55.92	284.20	11.84	-42.3	-43.3	19.1	0.00e+00	0	43	0	1299185664	54	4193
2026-01-07 16:30:56.92	284.39	11.84	-42.3	-43.3	19.2	0.00e+00	0	43	0	1306525696	54	4191
2026-01-07 16:30:57.94	284.58	11.83	-42.3	-43.3	19.1	0.00e+00	0	43	0	1313865728	54	4187
2026-01-07 16:30:58.96	284.78	11.82	-42.3	-43.3	19.2	0.00e+00	0	43	0	1321205760	54	4172
2026-01-07 16:30:59.98	284.97	11.81	-42.3	-43.4	19.1	0.00e+00	0	43	0	1328545792	54	4208
2026-01-07 16:31:01.00	285.16	11.80	-42.3	-43.3	19.2	0.00e+00	0	43	0	1335885824	54	4169
2026-01-07 16:31:02.01	285.36	11.79	-42.3	-43.3	19.2	0.00e+00	0	43	0	1343225856	54	4166
2026-01-07 16:31:03.01	285.54	11.78	-42.2	-43.2	19.2	0.00e+00	0	43	0	1350565888	54	4123
2026-01-07 16:31:04.01	285.73	11.77	-42.3	-43.3	19.2	0.00e+00	0	43	0	1357905920	54	4181
2026-01-07 16:31:05.01	285.92	11.77	-42.3	-43.3	19.2	0.00e+00	0	43	0	1365245952	54	4166
2026-01-07 16:31:06.02	286.11	11.75	-42.3	-43.3	19.2	0.00e+00	0	43	0	1371537408	54	4178
2026-01-07 16:31:07.02	286.30	11.74	-42.3	-43.3	19.2	0.00e+00	0	43	0	1378877440	54	4175
2026-01-07 16:31:08.03	286.49	11.73	-42.3	-43.4	19.1	0.00e+00	0	43	0	1386217472	54	4208
2026-01-07 16:31:09.03	286.68	11.72	-42.3	-43.3	19.2	0.00e+00	0	43	0	1393557504	54	4192
2026-01-07 16:31:10.03	286.87	11.71	-42.4	-43.4	19.1	0.00e+00	0	43	0	1400897536	54	4212
2026-01-07 16:31:11.04	287.06	11.70	-42.4	-43.4	19.1	0.00e+00	0	43	0	1408237568	54	4224
2026-01-07 16:31:12.04	287.25	11.69	-42.2	-43.2	19.3	0.00e+00	0	43	0	1415577600	54	4140
2026-01-07 16:31:13.04	287.44	11.68	-42.3	-43.3	19.2	0.00e+00	0	43	0	1422917632	54	4158
2026-01-07 16:31:14.04	287.63	11.66	-42.2	-43.2	19.2	0.00e+00	0	43	0	1430257664	54	4136
2026-01-07 16:31:15.05	287.82	11.65	-42.1	-43.1	19.4	0.00e+00	0	43	0	1437597696	54	4093
2026-01-07 16:31:16.05	288.00	11.64	-42.2	-43.2	19.3	0.00e+00	0	43	0	1444937728	54	4124
2026-01-07 16:31:17.06	288.19	11.62	-42.2	-43.2	19.3	0.00e+00	0	43	0	1452277760	54	4135
2026-01-07 16:31:18.06	288.38	11.61	-42.2	-43.3	19.2	0.00e+00	0	43	0	1458569216	54	4159
2026-01-07 16:31:19.06	288.57	11.60	-42.2	-43.3	19.2	0.00e+00	0	43	0	1465909248	54	4150
2026-01-07 16:31:20.06	288.76	11.58	-42.2	-43.3	19.2	0.00e+00	0	43	0	1473249280	54	4155
2026-01-07 16:31:21.26	288.98	11.57	-42.3	-43.4	19.1	0.00e+00	0	43	0	1481637888	54	4206
2026-01-07 16:31:22.15	289.15	11.55	-42.4	-43.4	19.0	0.00e+00	0	43	0	1488977920	54	4233
2026-01-07 16:31:23.29	289.36	11.54	-42.4	-43.5	18.9	0.00e+00	0	43	0	1497366528	54	4256
2026-01-07 16:31:24.15	289.52	11.52	-42.4	-43.4	18.7	0.00e+00	0	43	0	1502609408	54	4241
2026-01-07 16:31:25.30	289.73	11.51	-42.4	-43.5	19.0	0.00e+00	0	43	0	1510998016	54	4244
2026-01-07 16:31:26.15	289.89	11.49	-42.3	-43.4	19.1	0.00e+00	0	43	0	1517289472	54	4207
2026-01-07 16:31:27.60	290.16	11.47	-42.3	-43.4	19.1	0.00e+00	0	43	0	1527775232	54	4204
2026-01-07 16:31:28.32	290.29	11.46	-42.3	-43.3	19.1	0.00e+00	0	43	0	1533018112	54	4185
2026-01-07 16:31:29.61	290.53	11.44	-42.3	-43.3	19.1	0.00e+00	0	43	0	1542455296	54	4175
2026-01-07 16:31:30.32	290.66	11.43	-42.4	-43.5	19.0	0.00e+00	0	43	0	1547698176	54	4258
2026-01-07 16:31:31.61	290.90	11.40	-42.4	-43.5	19.0	0.00e+00	0	43	0	1557135360	54	4266
2026-01-07 16:31:32.33	291.04	11.39	-42.5	-43.5	18.9	0.00e+00	0	43	0	1561329664	54	4285
2026-01-07 16:31:33.62	291.27	11.37	-42.6	-43.7	18.8	0.00e+00	0	43	0	1570766848	54	4342
2026-01-07 16:31:34.33	291.40	11.36	-42.6	-43.7	18.8	0.00e+00	0	43	0	1577058304	54	4365
2026-01-07 16:31:35.62	291.64	11.33	-42.7	-43.8	18.7	0.00e+00	0	43	0	1585446912	55	4157
2026-01-07 16:31:36.48	291.80	11.32	-42.7	-43.8	18.7	0.00e+00	0	43	0	1591738368	55	4165
2026-01-07 16:31:37.63	292.01	11.30	-42.8	-43.9	18.6	0.00e+00	0	43	0	1600126976	55	4228
2026-01-07 16:31:38.49	292.17	11.28	-42.9	-44.0	18.5	0.00e+00	0	43	0	1606418432	55	4243
2026-01-07 16:31:39.64	292.38	11.26	-42.9	-44.1	18.5	0.00e+00	0	43	0	1614807040	55	4292
2026-01-07 16:31:40.50	292.54	11.24	-42.9	-44.0	18.5	0.00e+00	0	43	0	1621098496	55	4256
2026-01-07 16:31:41.64	292.75	11.22	-42.8	-43.9	18.6	0.00e+00	0	43	0	1629487104	55	4198
2026-01-07 16:31:42.50	292.90	11.20	-42.7	-43.8	18.7	0.00e+00	0	43	0	1635778560	55	4147
2026-01-07 16:31:43.65	293.11	11.18	-42.7	-43.8	18.7	0.00e+00	0	43	0	1644167168	55	4183
2026-01-07 16:31:44.51	293.27	11.16	-42.7	-43.8	18.6	0.00e+00	0	43	0	1649410048	55	4173
2026-01-07 16:31:45.66	293.48	11.14	-42.6	-43.7	18.8	0.00e+00	0	43	0	1657798656	55	4120
2026-01-07 16:31:46.52	293.63	11.12	-42.8	-43.8	18.7	0.00e+00	0	43	0	1664090112	55	4188
2026-01-07 16:31:47.66	293.84	11.10	-42.8	-43.8	18.6	0.00e+00	0	43	0	1672478720	55	4183
2026-01-07 16:31:48.59	294.01	11.08	-42.8	-43.9	18.6	0.00e+00	0	43	0	1679818752	55	4199
2026-01-07 16:31:49.76	294.22	11.05	-42.8	-43.8	18.6	0.00e+00	0	43	0	1688207360	55	4189
2026-01-07 16:31:50.62	294.37	11.04	-42.7	-43.8	18.6	0.00e+00	0	43	0	1693450240	55	4175
2026-01-07 16:31:51.77	294.58	11.01	-42.7	-43.8	18.7	0.00e+00	0	43	0	1701838848	55	4182
2026-01-07 16:31:52.63	294.74	10.99	-42.8	-43.9	18.6	0.00e+00	0	43	0	1708130304	55	4227
2026-01-07 16:31:53.77	294.94	10.97	-43.0	-44.1	18.4	0.00e+00	0	43	0	1716518912	55	4298
2026-01-07 16:31:54.63	295.09	10.95	-42.9	-44.0	18.5	0.00e+00	0	43	0	1722810368	55	4276
2026-01-07 16:31:55.77	295.30	10.92	-43.0	-44.1	18.3	0.00e+00	0	43	0	1731198976	55	4335
2026-01-07 16:31:56.63	295.45	10.90	-43.0	-44.1	18.4	0.00e+00	0	43	0	1737490432	55	4307
2026-01-07 16:31:57.78	295.66	10.87	-43.0	-44.1	18.4	0.00e+00	0	43	0	1745879040	55	4304
2026-01-07 16:31:58.64	295.81	10.85	-42.9	-44.0	18.4	0.00e+00	0	43	0	1752170496	55	4276
2026-01-07 16:31:59.78	296.01	10.83	-43.1	-44.2	18.3	0.00e+00	0	43	0	1760559104	55	4347
2026-01-07 16:32:00.64	296.17	10.81	-43.0	-44.1	18.4	0.00e+00	0	43	0	1766850560	55	4307
2026-01-07 16:32:01.79	296.37	10.78	-43.1	-44.2	18.3	0.00e+00	0	43	0	1775239168	55	4353
2026-01-07 16:32:02.65	296.52	10.76	-43.1	-44.2	18.3	0.00e+00	0	43	0	1780482048	55	4354
2026-01-07 16:32:04.02	296.76	10.73	-42.9	-44.0	18.5	0.00e+00	0	43	0	1790967808	55	4266
2026-01-07 16:32:04.73	296.89	10.71	-42.9	-44.0	18.4	0.00e+00	0	43	0	1796210688	55	4286
2026-01-07 16:32:06.02	297.12	10.68	-43.0	-44.1	18.3	0.00e+00	0	43	0	1804599296	55	4310
2026-01-07 16:32:06.73	297.24	10.66	-43.0	-44.1	18.2	0.00e+00	0	43	0	1810890752	55	4340
2026-01-07 16:32:08.02	297.47	10.62	-43.1	-44.2	18.3	0.00e+00	0	43	0	1819279360	55	4362
2026-01-07 16:32:08.74	297.59	10.61	-43.2	-44.3	18.1	0.00e+00	0	43	0	1824522240	55	4420
2026-01-07 16:32:10.03	297.82	10.57	-43.2	-44.3	18.1	0.00e+00	0	43	0	1833959424	55	4437
2026-01-07 16:32:10.87	297.97	10.55	-43.5	-44.6	18.0	0.00e+00	0	43	0	1840250880	56	4334
2026-01-07 16:32:12.02	298.17	10.52	-43.5	-44.7	17.9	0.00e+00	0	43	0	1848639488	56	4366
2026-01-07 16:32:12.88	298.32	10.50	-43.6	-44.8	17.8	0.00e+00	0	43	0	1854930944	56	4398
2026-01-07 16:32:14.03	298.52	10.47	-43.6	-44.8	17.8	0.00e+00	0	43	0	1863319552	56	4410
2026-01-07 16:32:14.89	298.66	10.44	-43.6	-44.8	17.8	0.00e+00	0	43	0	1869611008	56	4419
2026-01-07 16:32:16.03	298.86	10.41	-43.6	-44.8	17.8	0.00e+00	0	43	0	1877999616	56	4420
2026-01-07 16:32:16.89	299.01	10.39	-43.6	-44.8	17.8	0.00e+00	0	43	0	1884291072	56	4411
2026-01-07 16:32:18.04	299.21	10.36	-43.5	-44.7	18.0	0.00e+00	0	43	0	1891631104	56	4355
2026-01-07 16:32:18.90	299.36	10.34	-43.4	-44.6	18.0	0.00e+00	0	43	0	1897922560	56	4313
2026-01-07 16:32:20.04	299.55	10.30	-43.5	-44.6	18.0	0.00e+00	0	43	0	1906311168	56	4337
2026-01-07 16:32:20.91	299.70	10.28	-43.4	-44.5	18.1	0.00e+00	0	43	0	1912602624	56	4285
2026-01-07 16:32:22.05	299.90	10.25	-43.4	-44.6	18.0	0.00e+00	0	43	0	1920991232	56	4292
2026-01-07 16:32:22.91	300.04	10.22	-43.3	-44.5	18.1	0.00e+00	0	43	0	1927282688	56	4256
2026-01-07 16:32:24.06	300.24	10.19	-43.4	-44.5	18.1	0.00e+00	0	43	0	1935671296	56	4263
2026-01-07 16:32:24.92	300.39	10.16	-43.4	-44.5	18.1	0.00e+00	0	43	0	1941962752	56	4257
2026-01-07 16:32:26.06	300.58	10.13	-43.3	-44.4	18.2	0.00e+00	0	43	0	1950351360	56	4238
2026-01-07 16:32:27.16	300.77	10.10	-43.4	-44.5	18.0	0.00e+00	0	43	0	1957691392	56	4258
2026-01-07 16:32:28.21	300.94	10.07	-43.5	-44.6	18.0	0.00e+00	0	43	0	1965031424	56	4313
2026-01-07 16:32:29.28	301.12	10.04	-43.4	-44.6	18.0	0.00e+00	0	43	0	1973420032	56	4304
2026-01-07 16:32:30.30	301.30	10.01	-43.4	-44.5	18.1	0.00e+00	0	43	0	1980760064	56	4269
2026-01-07 16:32:31.30	301.46	9.98	-43.5	-44.6	18.0	0.00e+00	0	43	0	1988100096	56	4316
2026-01-07 16:32:32.30	301.63	9.95	-43.4	-44.6	18.0	0.00e+00	0	43	0	1995440128	56	4300
2026-01-07 16:32:33.30	301.80	9.92	-43.6	-44.7	17.9	0.00e+00	0	43	0	2001731584	56	4378
2026-01-07 16:32:34.31	301.97	9.89	-43.6	-44.7	17.9	0.00e+00	0	43	0	2009071616	56	4387
2026-01-07 16:32:35.31	302.13	9.86	-43.6	-44.8	17.8	0.00e+00	0	43	0	2016411648	56	4412
2026-01-07 16:32:36.32	302.30	9.82	-43.7	-44.9	17.7	0.00e+00	0	43	0	2023751680	56	4447
2026-01-07 16:32:37.32	302.47	9.79	-43.6	-44.8	17.7	0.00e+00	0	43	0	2031091712	56	4432
2026-01-07 16:32:38.32	302.63	9.76	-43.6	-44.8	17.8	0.00e+00	0	43	0	2038431744	56	4425
2026-01-07 16:32:39.32	302.80	9.73	-43.6	-44.8	17.8	0.00e+00	0	43	0	2045771776	56	4415
2026-01-07 16:32:40.33	302.97	9.70	-43.6	-44.8	17.8	0.00e+00	0	43	0	2053111808	56	4410
2026-01-07 16:32:41.36	303.13	9.67	-43.8	-45.0	17.6	0.00e+00	0	43	0	2060451840	57	4243
2026-01-07 16:32:42.40	303.31	9.63	-43.7	-44.9	17.7	0.00e+00	0	43	0	2067791872	57	4213
2026-01-07 16:32:43.29	303.45	9.61	-43.7	-44.9	17.7	0.00e+00	0	43	0	2074083328	57	4195
2026-01-07 16:32:44.43	303.64	9.57	-43.8	-44.9	17.6	0.00e+00	0	43	0	2082471936	57	4236
2026-01-07 16:32:45.30	303.78	9.54	-43.8	-45.0	17.6	0.00e+00	0	43	0	2088763392	57	4250
2026-01-07 16:32:46.71	304.01	9.49	-43.8	-44.9	17.6	0.00e+00	0	43	0	2099249152	57	4242
2026-01-07 16:32:47.43	304.13	9.47	-43.8	-45.0	17.6	0.00e+00	0	43	0	2103443456	57	4256
2026-01-07 16:32:48.72	304.34	9.43	-43.7	-44.9	17.6	0.00e+00	0	43	0	2112880640	57	4226
2026-01-07 16:32:49.44	304.45	9.40	-43.7	-44.9	17.7	0.00e+00	0	43	0	2119172096	57	4218
2026-01-07 16:32:50.72	304.66	9.36	-43.7	-44.8	17.7	0.00e+00	0	43	0	2127560704	57	4191
2026-01-07 16:32:51.44	304.77	9.34	-43.8	-44.9	17.6	0.00e+00	0	43	0	2132803584	57	4237
2026-01-07 16:32:52.73	304.98	9.30	-43.7	-44.8	17.7	0.00e+00	0	43	0	2142240768	57	4182
2026-01-07 16:32:53.44	305.09	9.27	-43.7	-44.8	17.7	0.00e+00	0	43	0	2147483648	57	4192
2026-01-07 16:32:54.74	305.30	9.23	-43.7	-44.9	17.7	0.00e+00	0	43	0	2156920832	57	4208
2026-01-07 16:32:55.45	305.42	9.20	-43.7	-44.8	17.7	0.00e+00	0	43	0	2162163712	57	4191
2026-01-07 16:32:56.74	305.62	9.16	-43.6	-44.8	17.7	0.00e+00	0	43	0	2171600896	57	4187
2026-01-07 16:32:57.70	305.77	9.13	-43.7	-44.9	17.7	0.00e+00	0	43	0	2177892352	57	4205
2026-01-07 16:32:58.70	305.93	9.09	-43.7	-44.9	17.6	0.00e+00	0	43	0	2185232384	57	4239
2026-01-07 16:32:59.70	306.09	9.06	-43.9	-45.2	17.4	0.00e+00	0	43	0	2192572416	57	4353
2026-01-07 16:33:00.70	306.25	9.02	-43.8	-45.1	17.5	0.00e+00	0	43	0	2199912448	57	4294
2026-01-07 16:33:01.71	306.41	8.99	-48.7	-51.4	11.5	0.00e+00	0	43	0	2207252480	66	5323
2026-01-07 16:33:02.71	306.56	8.95	-53.0	-63.9	3.8	8.46e-01	0	43	104	2208301056	75	13381
2026-01-07 16:33:03.72	306.72	8.92	-53.4	-64.2	3.8	8.47e-01	0	43	104	2208301056	76	13038
2026-01-07 16:33:04.72	306.88	8.88	-53.4	-64.3	3.8	8.47e-01	0	43	104	2208301056	76	13149
2026-01-07 16:33:05.73	307.04	8.85	-53.5	-64.4	3.8	8.48e-01	0	43	104	2208301056	76	13394
2026-01-07 16:33:06.73	307.19	8.81	-53.3	-64.5	3.8	8.46e-01	0	43	104	2208301056	76	13436
2026-01-07 16:33:07.73	307.35	8.78	-53.4	-64.5	3.8	8.47e-01	0	43	104	2208301056	76	13522
2026-01-07 16:33:08.74	307.50	8.74	-53.6	-64.5	3.8	8.47e-01	0	43	104	2208301056	76	13540
2026-01-07 16:33:09.74	307.66	8.71	-53.5	-64.6	3.8	8.47e-01	0	43	104	2208301056	76	13628
2026-01-07 16:33:10.75	307.81	8.67	-53.6	-64.6	3.8	8.48e-01	0	43	104	2208301056	77	12870
2026-01-07 16:33:11.75	307.97	8.63	-53.6	-64.6	3.8	8.47e-01	0	43	104	2208301056	77	12903
2026-01-07 16:33:12.75	308.12	8.60	-53.5	-64.6	3.8	8.47e-01	0	43	104	2208301056	77	12920
2026-01-07 16:33:13.76	308.27	8.56	-53.8	-64.6	3.8	8.48e-01	0	43	104	2208301056	77	12899
2026-01-07 16:33:14.76	308.43	8.52	-53.7	-64.6	3.8	8.48e-01	0	43	104	2208301056	77	12908
2026-01-07 16:33:15.77	308.58	8.49	-53.8	-64.6	3.8	8.47e-01	0	43	104	2208301056	77	12882
2026-01-07 16:33:16.77	308.73	8.45	-53.7	-64.7	3.8	8.46e-01	0	43	104	2208301056	77	12973
2026-01-07 16:33:17.77	308.88	8.41	-53.7	-64.6	3.8	8.46e-01	0	43	104	2208301056	77	12930
2026-01-07 16:33:18.78	309.03	8.38	-53.6	-64.6	3.8	8.46e-01	0	43	104	2208301056	77	12820
2026-01-07 16:33:19.78	309.19	8.34	-53.6	-64.6	3.8	8.48e-01	0	43	104	2208301056	77	12912
2026-01-07 16:33:20.79	309.34	8.30	-53.6	-64.6	3.8	8.46e-01	0	43	104	2208301056	77	12855
2026-01-07 16:33:21.79	309.49	8.26	-53.5	-64.5	3.8	8.48e-01	0	43	104	2208301056	77	12787
2026-01-07 16:33:22.79	309.64	8.23	-53.4	-64.5	3.8	8.47e-01	0	43	104	2208301056	77	12738
2026-01-07 16:33:23.80	309.79	8.19	-53.4	-64.5	3.8	8.46e-01	0	43	104	2208301056	77	12765
2026-01-07 16:33:24.81	309.94	8.15	-53.4	-64.5	3.8	8.48e-01	0	43	104	2208301056	77	12718
2026-01-07 16:33:25.81	310.09	8.11	-53.4	-64.5	3.8	8.47e-01	0	43	104	2208301056	77	12718
2026-01-07 16:33:26.81	310.23	8.08	-53.4	-64.5	3.8	8.46e-01	0	43	104	2208301056	77	12800
2026-01-07 16:33:27.82	310.38	8.04	-53.4	-64.4	3.8	8.47e-01	0	43	104	2208301056	77	12655
2026-01-07 16:33:28.82	310.53	8.00	-53.4	-64.5	3.8	8.47e-01	0	43	104	2208301056	77	12757
2026-01-07 16:33:29.83	310.68	7.96	-53.4	-64.5	3.8	8.47e-01	0	43	104	2208301056	77	12734
2026-01-07 16:33:30.83	310.83	7.92	-53.4	-64.5	3.8	8.46e-01	0	43	104	2208301056	77	12749
2026-01-07 16:33:31.84	310.97	7.88	-53.4	-64.5	3.8	8.46e-01	0	43	104	2208301056	77	12722
2026-01-07 16:33:32.84	311.12	7.85	-53.4	-64.4	3.8	8.46e-01	0	43	104	2208301056	77	12641
2026-01-07 16:33:33.84	311.26	7.81	-53.4	-64.4	3.8	8.46e-01	0	43	104	2208301056	77	12657
2026-01-07 16:33:34.85	311.41	7.77	-53.4	-64.5	3.8	8.46e-01	0	43	104	2208301056	77	12765
2026-01-07 16:33:35.85	311.55	7.73	-53.4	-64.5	3.8	8.46e-01	0	43	104	2208301056	77	12734
2026-01-07 16:33:36.86	311.70	7.69	-53.4	-64.5	3.8	8.46e-01	0	43	104	2208301056	77	12739
2026-01-07 16:33:37.86	311.84	7.65	-53.4	-64.5	3.8	8.47e-01	0	43	104	2208301056	77	12684
2026-01-07 16:33:38.87	311.99	7.61	-53.4	-64.5	3.8	8.47e-01	0	43	104	2208301056	77	12788
2026-01-07 16:33:39.87	312.13	7.57	-53.4	-64.5	3.8	8.46e-01	0	43	104	2208301056	77	12674
2026-01-07 16:33:40.87	312.28	7.54	-53.4	-64.5	3.8	8.46e-01	0	43	104	2208301056	77	12684
2026-01-07 16:33:41.88	312.42	7.50	-53.4	-64.5	3.8	8.46e-01	0	43	104	2208301056	77	12738
2026-01-07 16:33:42.89	312.56	7.46	-53.4	-64.5	3.8	8.47e-01	0	43	104	2208301056	77	12668
2026-01-07 16:33:43.89	312.70	7.42	-53.4	-64.5	3.8	8.47e-01	0	43	104	2208301056	77	12728
2026-01-07 16:33:44.89	312.85	7.38	-53.4	-64.4	3.8	8.46e-01	0	43	104	2208301056	77	12638
2026-01-07 16:33:45.90	312.99	7.34	-53.4	-64.4	3.8	8.47e-01	0	43	104	2208301056	77	12651
2026-01-07 16:33:46.90	313.13	7.30	-53.4	-64.4	3.8	8.47e-01	0	43	104	2208301056	77	12632
2026-01-07 16:33:47.91	313.27	7.26	-53.4	-64.4	3.8	8.46e-01	0	43	104	2208301056	77	12628
2026-01-07 16:33:48.91	313.41	7.22	-53.4	-64.5	3.8	8.47e-01	0	43	104	2208301056	77	12718
2026-01-07 16:33:49.91	313.55	7.18	-53.3	-64.4	3.8	8.46e-01	0	43	104	2208301056	77	12604
2026-01-07 16:33:50.92	313.69	7.14	-53.4	-64.4	3.8	8.47e-01	0	43	104	2208301056	77	12617
2026-01-07 16:33:51.92	313.83	7.10	-53.4	-64.5	3.8	8.47e-01	0	43	104	2208301056	77	12697
2026-01-07 16:33:52.93	313.97	7.06	-53.3	-64.4	3.8	8.47e-01	0	43	104	2208301056	77	12654
2026-01-07 16:33:53.93	314.11	7.02	-53.3	-64.4	3.8	8.47e-01	0	43	104	2208301056	77	12621
2026-01-07 16:33:54.94	314.24	6.98	-53.3	-64.5	3.8	8.48e-01	0	43	104	2208301056	77	12721
2026-01-07 16:33:55.94	314.38	6.94	-53.3	-64.4	3.8	8.47e-01	0	43	104	2208301056	77	12648
2026-01-07 16:33:56.95	314.52	6.89	-53.4	-64.4	3.8	8.47e-01	0	43	104	2208301056	77	12664
2026-01-07 16:33:57.95	314.66	6.85	-53.3	-64.4	3.8	8.47e-01	0	43	104	2208301056	77	12616
2026-01-07 16:33:58.95	314.79	6.81	-53.3	-64.4	3.8	8.47e-01	0	43	104	2208301056	77	12616
2026-01-07 16:33:59.96	314.93	6.77	-53.3	-64.5	3.8	8.45e-01	0	43	104	2208301056	77	12673
2026-01-07 16:34:00.96	315.07	6.73	-53.4	-64.5	3.8	8.47e-01	0	43	104	2208301056	77	12665
2026-01-07 16:34:01.97	315.20	6.69	-53.3	-64.4	3.8	8.46e-01	0	43	104	2208301056	77	12592
2026-01-07 16:34:02.97	315.34	6.65	-53.3	-64.4	3.8	8.46e-01	0	43	104	2208301056	77	12626
2026-01-07 16:34:03.98	315.47	6.61	-53.3	-64.5	3.8	8.47e-01	0	43	104	2208301056	77	12709
2026-01-07 16:34:04.98	315.61	6.57	-53.4	-64.4	3.8	8.47e-01	0	43	104	2208301056	77	12646
2026-01-07 16:34:05.98	315.74	6.53	-53.3	-64.4	3.8	8.47e-01	0	43	104	2208301056	77	12551
2026-01-07 16:34:06.99	315.87	6.49	-53.3	-64.4	3.8	8.45e-01	0	43	104	2208301056	77	12651
2026-01-07 16:34:07.99	316.01	6.44	-53.3	-64.4	3.8	8.46e-01	0	43	104	2208301056	77	12639
2026-01-07 16:34:09.00	316.14	6.40	-53.3	-64.5	3.8	8.47e-01	0	43	104	2208301056	77	12674
2026-01-07 16:34:10.00	316.27	6.36	-53.3	-64.4	3.8	8.46e-01	0	43	104	2208301056	77	12641
2026-01-07 16:34:11.00	316.40	6.32	-53.4	-64.4	3.8	8.47e-01	0	43	104	2208301056	77	12621
2026-01-07 16:34:12.01	316.54	6.28	-53.3	-64.4	3.8	8.46e-01	0	43	104	2208301056	77	12581
2026-01-07 16:34:13.01	316.67	6.24	-53.3	-64.4	3.8	8.46e-01	0	43	104	2208301056	77	12652
2026-01-07 16:34:14.02	316.80	6.20	-53.3	-64.4	3.8	8.46e-01	0	43	104	2208301056	77	12588
2026-01-07 16:34:15.02	316.93	6.15	-53.3	-64.4	3.8	8.47e-01	0	43	104	2208301056	77	12636
2026-01-07 16:34:16.03	317.06	6.11	-53.3	-64.4	3.8	8.47e-01	0	43	104	2208301056	77	12639
2026-01-07 16:34:17.03	317.19	6.07	-53.3	-64.5	3.8	8.48e-01	0	43	104	2208301056	77	12687
2026-01-07 16:34:18.03	317.32	6.03	-53.3	-64.4	3.8	8.47e-01	0	43	104	2208301056	77	12580
2026-01-07 16:34:19.04	317.45	5.99	-53.3	-64.4	3.8	8.47e-01	0	43	104	2208301056	77	12643
2026-01-07 16:34:20.04	317.58	5.94	-53.3	-64.5	3.8	8.47e-01	0	43	104	2208301056	77	12668
2026-01-07 16:34:21.05	317.71	5.90	-53.3	-64.4	3.8	8.48e-01	0	43	104	2208301056	77	12636
2026-01-07 16:34:22.05	317.84	5.86	-53.3	-64.4	3.8	8.47e-01	0	43	104	2208301056	77	12647
2026-01-07 16:34:23.05	317.96	5.82	-53.3	-64.4	3.8	8.46e-01	0	43	104	2208301056	77	12629
2026-01-07 16:34:24.06	318.09	5.78	-53.3	-64.4	3.8	8.47e-01	0	43	104	2208301056	77	12639
2026-01-07 16:34:25.07	318.22	5.73	-53.3	-64.4	3.8	8.47e-01	0	43	104	2208301056	77	12553
2026-01-07 16:34:26.07	318.35	5.69	-53.3	-64.4	3.8	8.47e-01	0	43	104	2208301056	77	12522
2026-01-07 16:34:27.07	318.47	5.65	-53.3	-64.4	3.8	8.46e-01	0	43	104	2208301056	77	12560
2026-01-07 16:34:28.08	318.60	5.61	-53.3	-64.4	3.8	8.47e-01	0	43	104	2208301056	77	12557
2026-01-07 16:34:29.08	318.72	5.56	-53.3	-64.4	3.8	8.46e-01	0	43	104	2208301056	77	12609
2026-01-07 16:34:30.09	318.85	5.52	-53.3	-64.4	3.8	8.46e-01	0	43	104	2208301056	77	12658
2026-01-07 16:34:31.09	318.97	5.48	-53.3	-64.4	3.8	8.47e-01	0	43	104	2208301056	77	12635
2026-01-07 16:34:32.09	319.10	5.44	-53.3	-64.4	3.8	8.47e-01	0	43	104	2208301056	77	12625
2026-01-07 16:34:33.10	319.22	5.39	-53.3	-64.4	3.8	8.45e-01	0	43	104	2208301056	77	12561
2026-01-07 16:34:34.11	319.35	5.35	-53.3	-64.4	3.8	8.47e-01	0	43	104	2208301056	77	12610
2026-01-07 16:34:35.11	319.47	5.31	-53.3	-64.4	3.8	8.47e-01	0	43	104	2208301056	77	12563
2026-01-07 16:34:36.11	319.59	5.27	-53.3	-64.4	3.8	8.46e-01	0	43	104	2208301056	77	12594
2026-01-07 16:34:37.12	319.72	5.22	-53.3	-64.4	3.8	8.48e-01	0	43	104	2208301056	77	12613
2026-01-07 16:34:38.12	319.84	5.18	-53.3	-64.4	3.8	8.46e-01	0	43	104	2208301056	77	12575
2026-01-07 16:34:39.13	319.96	5.14	-53.3	-64.4	3.8	8.46e-01	0	43	104	2208301056	77	12595
2026-01-07 16:34:40.13	320.08	5.09	-53.3	-64.4	3.8	8.47e-01	0	43	104	2208301056	77	12594
2026-01-07 16:34:41.13	320.21	5.05	-53.3	-64.4	3.8	8.47e-01	0	43	104	2208301056	77	12578
2026-01-07 16:34:42.14	320.33	5.01	-53.3	-64.4	3.8	8.47e-01	0	43	104	2208301056	77	12564
2026-01-07 16:34:43.14	320.45	4.97	-53.3	-64.4	3.8	8.47e-01	0	43	104	2208301056	77	12598

#Closed at: 2026-01-07 16:34:44
#Recorded file [2208 MB]: D:/Data/31040_260107_192620.dat