passes_logs/2026/01/07/T1/T1__20260107_211909_KHAYYAM_rec.log

#Pass ID: 20260107_211909_KHAYYAM
#Satellite: KHAYYAM
#Configuration: KHAYYAM_480M
#almurnet v.1.7.20251203
#Start time: 2026-01-07 21:19:09

#Version: 2.0.20230620
#Station: T1
#Location: 37.570604 lon 55.790049 lat
#TLE: 1 53370U 22096A   26005.63766736  .00008095  00000+0  32978-3 0  9997
#TLE: 2 53370  97.3565 272.8146 0001238  87.7645 272.3734 15.24731212189819

#Time	Az	El	Level	Level2	SNR	BER	BlckErr	Temp	State	Recorded	gain1	gain2
2026-01-07 21:19:09.34	14.11	5.01	-51.2	-56.1	3.4	0.00e+00	0	41	0	0	74	24704
2026-01-07 21:19:10.34	14.12	5.09	-51.5	-56.6	3.7	0.00e+00	0	42	104	0	73	27762
2026-01-07 21:19:11.34	14.12	5.17	-51.6	-56.6	3.7	0.00e+00	0	42	104	0	73	27761
2026-01-07 21:19:12.35	14.12	5.26	-51.5	-56.6	3.7	0.00e+00	0	42	104	0	73	27819
2026-01-07 21:19:13.35	14.13	5.34	-51.5	-56.6	3.7	0.00e+00	0	42	104	0	73	27826
2026-01-07 21:19:14.36	14.13	5.42	-51.5	-56.6	3.7	0.00e+00	0	42	104	0	73	27723
2026-01-07 21:19:15.36	14.13	5.50	-51.5	-56.6	3.7	0.00e+00	0	42	104	0	73	27690
2026-01-07 21:19:16.36	14.14	5.59	-51.5	-56.6	3.7	0.00e+00	0	43	104	0	73	27728
2026-01-07 21:19:17.37	14.14	5.67	-51.5	-56.6	3.7	0.00e+00	0	42	104	0	73	27790
2026-01-07 21:19:18.37	14.15	5.75	-51.5	-56.7	3.7	0.00e+00	0	43	104	0	73	27865
2026-01-07 21:19:19.38	14.15	5.84	-51.5	-56.6	3.7	0.00e+00	0	43	104	0	73	27769
2026-01-07 21:19:20.38	14.15	5.92	-51.5	-56.7	3.7	0.00e+00	0	43	104	0	73	27869
2026-01-07 21:19:21.39	14.16	6.01	-51.5	-56.7	3.7	0.00e+00	0	43	104	0	73	27885
2026-01-07 21:19:22.39	14.16	6.09	-51.5	-56.7	3.7	0.00e+00	0	43	104	0	73	27885
2026-01-07 21:19:23.40	14.16	6.18	-51.6	-56.6	3.7	0.00e+00	0	43	104	0	73	27789
2026-01-07 21:19:24.40	14.17	6.27	-51.5	-56.6	3.7	0.00e+00	0	43	104	0	73	27810
2026-01-07 21:19:25.40	14.17	6.35	-51.6	-56.7	3.7	0.00e+00	0	43	104	0	73	27845
2026-01-07 21:19:26.41	14.17	6.44	-51.6	-56.6	3.7	0.00e+00	0	43	104	0	73	27816
2026-01-07 21:19:27.41	14.18	6.53	-51.5	-56.6	3.7	0.00e+00	0	44	104	0	73	27797
2026-01-07 21:19:28.41	14.18	6.62	-51.5	-56.6	3.7	0.00e+00	0	43	104	0	73	27801
2026-01-07 21:19:29.42	14.18	6.70	-51.6	-56.7	3.7	0.00e+00	0	43	104	0	73	27856
2026-01-07 21:19:30.42	14.19	6.79	-51.6	-56.6	3.7	0.00e+00	0	43	104	0	73	27821
2026-01-07 21:19:31.43	14.19	6.88	-51.6	-56.7	3.7	0.00e+00	0	43	104	0	73	27872
2026-01-07 21:19:32.43	14.20	6.97	-51.6	-56.7	3.7	0.00e+00	0	44	104	0	73	27857
2026-01-07 21:19:33.44	14.20	7.06	-51.6	-56.7	3.7	0.00e+00	0	44	104	0	73	27890
2026-01-07 21:19:34.44	14.20	7.15	-51.6	-56.7	3.7	0.00e+00	0	44	104	0	73	27842
2026-01-07 21:19:35.44	14.21	7.24	-51.6	-56.7	3.7	0.00e+00	0	44	104	0	73	27868
2026-01-07 21:19:36.45	14.21	7.33	-51.6	-56.7	3.7	0.00e+00	0	44	104	0	73	27884
2026-01-07 21:19:37.45	14.21	7.43	-51.6	-56.7	3.7	0.00e+00	0	44	104	0	73	27971
2026-01-07 21:19:38.45	14.22	7.52	-51.6	-56.7	3.7	0.00e+00	0	44	104	0	73	27860
2026-01-07 21:19:39.46	14.22	7.61	-51.6	-56.6	3.7	0.00e+00	0	44	104	0	73	27833
2026-01-07 21:19:40.46	14.22	7.70	-51.6	-56.7	3.7	0.00e+00	0	44	104	0	73	27879
2026-01-07 21:19:41.47	14.23	7.80	-51.6	-56.7	3.7	0.00e+00	0	44	104	0	73	27910
2026-01-07 21:19:42.47	14.23	7.89	-51.6	-56.6	3.7	0.00e+00	0	44	104	0	73	27825
2026-01-07 21:19:43.47	14.23	7.99	-51.6	-56.7	3.7	0.00e+00	0	44	104	0	73	27885
2026-01-07 21:19:44.48	14.24	8.08	-51.6	-56.7	3.7	0.00e+00	0	44	104	0	73	27959
2026-01-07 21:19:45.48	14.24	8.18	-51.6	-56.7	3.7	0.00e+00	0	44	104	0	73	27903
2026-01-07 21:19:46.49	14.24	8.27	-51.6	-56.7	3.7	0.00e+00	0	44	104	0	73	27834
2026-01-07 21:19:47.49	14.25	8.37	-51.6	-56.7	3.7	0.00e+00	0	45	104	0	73	27885
2026-01-07 21:19:48.50	14.25	8.47	-51.6	-56.7	3.7	0.00e+00	0	45	104	0	73	27905
2026-01-07 21:19:49.50	14.25	8.56	-51.6	-56.7	3.7	0.00e+00	0	44	104	0	73	27992
2026-01-07 21:19:50.51	14.26	8.66	-51.6	-56.7	3.7	0.00e+00	0	45	104	0	73	27880
2026-01-07 21:19:51.51	14.26	8.76	-51.6	-56.6	3.7	0.00e+00	0	45	104	0	73	27792
2026-01-07 21:19:52.51	14.27	8.86	-51.6	-56.6	3.7	0.00e+00	0	45	104	0	73	27793
2026-01-07 21:19:53.52	14.27	8.96	-51.6	-56.6	3.7	0.00e+00	0	44	104	0	73	27807
2026-01-07 21:19:54.52	14.27	9.06	-51.5	-56.6	3.7	0.00e+00	0	45	104	0	73	27539
2026-01-07 21:19:55.53	14.28	9.16	-51.3	-56.5	3.7	0.00e+00	0	45	104	0	73	27432
2026-01-07 21:19:56.53	14.28	9.26	-51.5	-56.5	3.7	0.00e+00	0	45	104	0	73	27496
2026-01-07 21:19:57.53	14.28	9.36	-51.4	-56.5	3.7	0.00e+00	0	45	104	0	73	27315
2026-01-07 21:19:58.54	14.29	9.47	-50.9	-55.6	3.7	0.00e+00	0	45	104	0	73	24545
2026-01-07 21:19:59.54	14.29	9.57	-51.1	-55.8	3.7	0.00e+00	0	45	104	0	73	25186
2026-01-07 21:20:00.54	14.29	9.67	-50.8	-55.7	3.7	0.00e+00	0	45	104	0	73	24918
2026-01-07 21:20:01.54	14.30	9.78	-50.8	-55.9	3.7	0.00e+00	0	45	104	0	73	25477
2026-01-07 21:20:02.55	14.30	9.88	-50.8	-55.8	3.7	0.00e+00	0	45	104	0	73	25162
2026-01-07 21:20:03.55	14.30	9.99	-50.7	-55.5	3.7	0.00e+00	0	45	104	0	73	24307
2026-01-07 21:20:04.55	14.31	10.09	-50.8	-55.3	3.7	0.00e+00	0	45	104	0	73	23810
2026-01-07 21:20:05.56	14.31	10.20	-51.0	-55.7	3.7	0.00e+00	0	45	104	0	73	25042
2026-01-07 21:20:06.56	14.31	10.31	-50.8	-55.8	3.7	0.00e+00	0	45	104	0	73	25362
2026-01-07 21:20:07.56	14.32	10.41	-50.6	-55.5	3.7	0.00e+00	0	45	104	0	73	24353
2026-01-07 21:20:08.57	14.32	10.52	-50.7	-55.5	3.7	0.00e+00	0	45	104	0	73	24321
2026-01-07 21:20:09.57	14.32	10.63	-50.9	-55.4	3.7	0.00e+00	0	45	104	0	73	23966
2026-01-07 21:20:10.58	14.33	10.74	-51.2	-55.7	3.7	0.00e+00	0	45	104	0	73	24887
2026-01-07 21:20:11.58	14.33	10.85	-51.2	-55.8	3.7	0.00e+00	0	46	104	0	73	25214
2026-01-07 21:20:12.84	14.33	10.99	-51.2	-55.8	3.7	0.00e+00	0	46	104	0	73	25203
2026-01-07 21:20:13.65	14.34	11.08	-51.1	-55.8	3.7	0.00e+00	0	45	104	0	73	25133
2026-01-07 21:20:15.05	14.34	11.24	-51.5	-56.5	3.7	0.00e+00	0	46	104	0	73	27464
2026-01-07 21:20:15.77	14.34	11.32	-51.0	-56.7	3.7	0.00e+00	0	45	104	0	73	28009
2026-01-07 21:20:17.06	14.35	11.47	-50.6	-56.2	3.7	0.00e+00	0	45	104	0	73	26440
2026-01-07 21:20:17.77	14.35	11.55	-50.9	-56.4	3.7	0.00e+00	0	45	104	0	73	27147
2026-01-07 21:20:19.06	14.35	11.69	-50.6	-56.2	3.7	0.00e+00	0	46	104	0	73	26542
2026-01-07 21:20:19.81	14.36	11.78	-50.6	-56.1	3.7	0.00e+00	0	46	104	0	73	26216
2026-01-07 21:20:21.10	14.36	11.93	-50.5	-56.2	3.7	0.00e+00	0	46	104	0	73	26345
2026-01-07 21:20:21.90	14.36	12.03	-50.5	-56.2	3.7	0.00e+00	0	46	104	0	72	28075
2026-01-07 21:20:23.05	14.37	12.16	-50.5	-56.4	3.7	0.00e+00	0	45	104	0	72	28483
2026-01-07 21:20:23.91	14.37	12.26	-50.7	-56.5	3.7	0.00e+00	0	46	104	0	72	29001
2026-01-07 21:20:25.06	14.37	12.40	-50.1	-55.7	3.7	0.00e+00	0	46	104	0	72	26509
2026-01-07 21:20:26.19	14.38	12.54	-50.5	-56.0	3.7	0.00e+00	0	46	104	0	72	27201
2026-01-07 21:20:27.05	14.38	12.64	-50.5	-56.2	3.7	0.00e+00	0	46	104	0	72	28047
2026-01-07 21:20:28.19	14.38	12.78	-50.2	-55.8	3.7	0.00e+00	0	46	104	0	72	26626
2026-01-07 21:20:29.34	14.39	12.92	-50.3	-55.8	3.7	0.00e+00	0	46	104	0	72	26662
2026-01-07 21:20:30.20	14.39	13.03	-50.4	-55.8	3.7	0.00e+00	0	46	104	0	72	26870
2026-01-07 21:20:31.35	14.39	13.17	-50.4	-55.8	3.7	0.00e+00	0	46	104	0	72	26723
2026-01-07 21:20:32.21	14.40	13.28	-50.5	-55.8	3.7	0.00e+00	0	46	104	0	72	26726
2026-01-07 21:20:33.35	14.40	13.42	-50.4	-56.0	3.7	0.00e+00	0	46	104	0	72	27206
2026-01-07 21:20:34.21	14.40	13.53	-50.6	-56.2	3.7	0.00e+00	0	46	104	0	72	27942
2026-01-07 21:20:35.36	14.41	13.68	-50.7	-56.3	3.7	0.00e+00	0	46	104	0	72	28429
2026-01-07 21:20:36.22	14.41	13.79	-50.5	-55.9	3.7	0.00e+00	0	46	104	0	72	26921
2026-01-07 21:20:37.37	14.41	13.94	-50.8	-56.5	3.7	0.00e+00	0	46	104	0	72	28934
2026-01-07 21:20:38.23	14.42	14.05	-50.4	-56.2	3.7	0.00e+00	0	46	104	0	72	27882
2026-01-07 21:20:39.38	14.42	14.21	-50.8	-56.1	3.7	0.00e+00	0	46	104	0	72	27770
2026-01-07 21:20:40.23	14.42	14.32	-50.6	-56.4	3.7	0.00e+00	0	46	104	0	72	28527
2026-01-07 21:20:41.38	14.43	14.47	-50.8	-56.1	3.7	0.00e+00	0	46	104	0	72	27735
2026-01-07 21:20:42.24	14.43	14.59	-51.0	-56.2	3.7	0.00e+00	0	46	104	0	72	27896
2026-01-07 21:20:43.39	14.43	14.75	-51.2	-56.4	3.7	0.00e+00	0	46	104	0	73	26979
2026-01-07 21:20:44.25	14.44	14.86	-51.5	-56.5	3.7	0.00e+00	0	46	104	0	73	27366
2026-01-07 21:20:45.39	14.44	15.02	-51.9	-56.7	3.7	0.00e+00	0	46	104	0	75	24999
2026-01-07 21:20:46.25	14.44	15.14	-51.3	-56.4	3.7	0.00e+00	0	46	104	0	74	25462
2026-01-07 21:20:47.40	14.44	15.30	-51.5	-57.0	3.7	0.00e+00	0	46	104	0	74	27508
2026-01-07 21:20:48.26	14.45	15.42	-51.8	-57.3	3.7	0.00e+00	0	46	104	0	74	28346
2026-01-07 21:20:49.41	14.45	15.59	-51.0	-56.3	3.7	0.00e+00	0	46	104	0	74	25377
2026-01-07 21:20:50.27	14.45	15.71	-51.2	-56.5	3.7	0.00e+00	0	46	104	0	74	25802
2026-01-07 21:20:51.41	14.46	15.87	-51.1	-56.4	3.7	0.00e+00	0	46	104	0	74	25531
2026-01-07 21:20:52.27	14.46	16.00	-51.1	-56.4	3.7	0.00e+00	0	46	104	0	74	25430
2026-01-07 21:20:53.42	14.46	16.17	-51.2	-56.5	3.7	0.00e+00	0	46	104	0	74	25718
2026-01-07 21:20:54.28	14.47	16.29	-51.4	-56.7	3.7	0.00e+00	0	46	104	0	74	26435
2026-01-07 21:20:55.42	14.47	16.46	-52.0	-57.1	3.7	0.00e+00	0	46	104	0	74	27594
2026-01-07 21:20:56.30	14.47	16.60	-53.0	-57.8	3.7	0.00e+00	0	46	104	0	76	26752
2026-01-07 21:20:57.62	14.48	16.80	-52.0	-57.0	3.7	0.00e+00	0	46	104	0	76	24372
2026-01-07 21:20:58.34	14.48	16.91	-51.7	-56.5	3.7	0.00e+00	0	46	104	0	75	24509
2026-01-07 21:20:59.63	14.48	17.11	-51.8	-56.8	3.7	0.00e+00	0	46	104	0	75	25224
2026-01-07 21:21:00.35	14.48	17.22	-51.8	-56.8	3.7	0.00e+00	0	46	104	0	75	25376
2026-01-07 21:21:01.63	14.49	17.42	-52.0	-57.2	3.7	0.00e+00	0	47	104	0	75	26398
2026-01-07 21:21:02.35	14.49	17.53	-51.9	-57.3	3.7	0.00e+00	0	46	104	0	75	26588
2026-01-07 21:21:03.64	14.49	17.74	-52.9	-57.9	3.7	0.00e+00	0	46	104	0	76	27159
2026-01-07 21:21:04.36	14.50	17.85	-53.6	-58.4	3.7	0.00e+00	0	46	104	0	77	26994
2026-01-07 21:21:05.65	14.50	18.06	-54.1	-58.6	3.7	0.00e+00	0	46	104	0	78	26248
2026-01-07 21:21:06.37	14.50	18.18	-54.0	-58.6	3.7	0.00e+00	0	46	104	0	78	26136
2026-01-07 21:21:07.66	14.50	18.39	-53.8	-58.4	3.7	0.00e+00	0	46	104	0	78	25463
2026-01-07 21:21:08.38	14.51	18.51	-53.9	-58.4	3.7	0.00e+00	0	46	104	0	78	25572
2026-01-07 21:21:09.67	14.51	18.73	-54.0	-58.2	3.7	0.00e+00	0	46	104	0	78	25038
2026-01-07 21:21:10.38	14.51	18.85	-53.9	-58.1	3.7	0.00e+00	0	47	104	0	78	24600
2026-01-07 21:21:11.79	14.52	19.09	-53.8	-58.0	3.7	0.00e+00	0	46	104	0	78	24400
2026-01-07 21:21:12.50	14.52	19.21	-53.9	-58.1	3.7	0.00e+00	0	46	104	0	78	24690
2026-01-07 21:21:13.79	14.52	19.44	-53.9	-57.9	3.7	0.00e+00	0	46	104	0	79	22868
2026-01-07 21:21:14.51	14.52	19.56	-53.7	-57.7	3.7	0.00e+00	0	46	104	0	79	22256
2026-01-07 21:21:15.80	14.53	19.79	-54.1	-58.3	3.7	0.00e+00	0	46	104	0	78	25245
2026-01-07 21:21:16.51	14.53	19.92	-54.0	-58.2	3.7	0.00e+00	0	46	104	0	78	24973
2026-01-07 21:21:17.80	14.53	20.15	-53.2	-57.7	3.7	0.00e+00	0	46	104	0	78	23544
2026-01-07 21:21:18.52	14.53	20.28	-53.1	-57.6	3.7	0.00e+00	0	46	104	0	78	23406
2026-01-07 21:21:19.81	14.54	20.52	-53.1	-57.6	3.7	0.00e+00	0	47	104	0	78	23358
2026-01-07 21:21:20.53	14.54	20.65	-53.1	-57.7	3.7	0.00e+00	0	47	104	0	78	23449
2026-01-07 21:21:21.82	14.54	20.90	-53.3	-58.1	3.7	0.00e+00	0	47	104	0	78	24751
2026-01-07 21:21:22.54	14.55	21.03	-53.7	-58.4	3.7	0.00e+00	0	46	104	0	78	25639
2026-01-07 21:21:23.83	14.55	21.28	-53.4	-57.9	3.7	0.00e+00	0	47	104	0	78	24130
2026-01-07 21:21:24.55	14.55	21.42	-53.5	-58.3	3.7	0.00e+00	0	46	104	0	78	25098
2026-01-07 21:21:25.84	14.55	21.67	-53.3	-58.0	3.7	0.00e+00	0	46	104	0	78	24292
2026-01-07 21:21:26.70	14.56	21.84	-53.4	-57.9	3.7	0.00e+00	0	47	104	0	78	23971
2026-01-07 21:21:28.17	14.56	22.13	-53.2	-57.6	3.7	0.00e+00	0	47	104	0	78	23232
2026-01-07 21:21:28.88	14.56	22.27	-53.3	-57.8	3.7	0.00e+00	0	47	104	0	78	23926
2026-01-07 21:21:30.17	14.56	22.53	-53.0	-57.3	3.7	0.00e+00	0	46	104	0	78	22567
2026-01-07 21:21:30.89	14.57	22.68	-53.3	-57.7	3.7	0.00e+00	0	46	104	0	78	23429
2026-01-07 21:21:32.18	14.57	22.95	-53.0	-57.0	3.7	0.00e+00	0	47	104	0	78	21752
2026-01-07 21:21:33.00	14.57	23.12	-53.2	-57.5	3.7	0.00e+00	0	47	104	0	78	23134
2026-01-07 21:21:34.14	14.57	23.36	-52.8	-56.9	3.7	0.00e+00	0	47	104	0	77	22715
2026-01-07 21:21:35.00	14.58	23.55	-52.7	-56.5	3.7	0.00e+00	0	46	104	0	77	21705
2026-01-07 21:21:36.15	14.58	23.80	-52.9	-57.0	3.7	0.00e+00	0	47	104	0	77	22892
2026-01-07 21:21:37.01	14.58	23.98	-52.8	-56.6	3.7	0.00e+00	0	47	104	0	77	21955
2026-01-07 21:21:38.16	14.58	24.24	-52.7	-56.5	3.7	0.00e+00	0	47	104	0	77	21661
2026-01-07 21:21:39.02	14.59	24.43	-52.7	-56.7	3.7	0.00e+00	0	47	104	0	77	22222
2026-01-07 21:21:40.23	14.59	24.70	-53.0	-57.3	3.7	0.00e+00	0	47	104	0	77	23727
2026-01-07 21:21:41.09	14.59	24.90	-52.9	-57.3	3.7	0.00e+00	0	47	104	0	77	23710
2026-01-07 21:21:42.30	14.59	25.18	-52.6	-56.4	3.7	0.00e+00	0	47	104	0	77	21555
2026-01-07 21:21:43.16	14.60	25.38	-52.6	-56.4	3.7	0.00e+00	0	47	104	0	77	21479
2026-01-07 21:21:44.30	14.60	25.65	-52.9	-56.7	3.7	0.00e+00	0	47	104	0	77	22177
2026-01-07 21:21:45.16	14.60	25.85	-53.9	-58.4	3.7	0.00e+00	0	47	104	0	78	25448
2026-01-07 21:21:46.31	14.60	26.13	-52.9	-56.7	3.7	0.00e+00	0	47	104	0	77	22251
2026-01-07 21:21:47.17	14.60	26.34	-53.6	-57.9	3.7	0.00e+00	0	47	104	0	77	25658
2026-01-07 21:21:48.31	14.61	26.62	-53.9	-58.4	3.7	0.00e+00	0	47	104	0	78	25584
2026-01-07 21:21:49.22	14.61	26.84	-53.9	-58.5	3.6	0.00e+00	0	47	104	0	78	25821
2026-01-07 21:21:50.41	14.61	27.14	-53.7	-58.1	3.7	0.00e+00	0	47	104	0	78	24695
2026-01-07 21:21:51.28	14.61	27.37	-53.7	-58.0	3.7	0.00e+00	0	47	104	0	78	24492
2026-01-07 21:21:52.60	14.62	27.71	-53.9	-58.5	3.7	0.00e+00	0	47	104	0	78	25810
2026-01-07 21:21:53.32	14.62	27.90	-53.9	-58.6	3.7	0.00e+00	0	47	104	0	78	26137
2026-01-07 21:21:54.61	14.62	28.24	-53.9	-58.4	3.7	0.00e+00	0	47	104	0	78	25666
2026-01-07 21:21:55.32	14.62	28.43	-53.8	-58.5	3.7	0.00e+00	0	47	104	0	78	25957
2026-01-07 21:21:56.61	14.62	28.78	-54.0	-58.6	3.7	0.00e+00	0	47	104	0	78	26109
2026-01-07 21:21:57.33	14.62	28.97	-54.0	-58.5	3.7	0.00e+00	0	47	104	0	78	25932
2026-01-07 21:21:58.62	14.63	29.33	-53.9	-58.5	3.7	0.00e+00	0	47	104	0	78	25920
2026-01-07 21:21:59.34	14.63	29.53	-53.8	-58.5	3.7	0.00e+00	0	47	104	0	78	25788
2026-01-07 21:22:00.63	14.63	29.90	-53.6	-58.4	3.7	0.00e+00	0	47	104	0	78	25453
2026-01-07 21:22:01.34	14.63	30.10	-53.3	-58.0	3.6	0.00e+00	0	47	104	0	78	24404
2026-01-07 21:22:02.63	14.63	30.48	-53.6	-58.1	3.7	0.00e+00	0	47	104	0	78	24632
2026-01-07 21:22:03.35	14.63	30.69	-53.6	-58.1	3.7	0.00e+00	0	47	104	0	78	24748
2026-01-07 21:22:04.64	14.64	31.07	-53.8	-58.3	3.7	0.00e+00	0	47	104	0	78	25369
2026-01-07 21:22:05.69	14.64	31.39	-53.9	-58.3	3.7	0.00e+00	0	47	104	0	78	25337
2026-01-07 21:22:06.60	14.64	31.67	-54.0	-58.3	3.7	0.00e+00	0	47	104	0	78	25297
2026-01-07 21:22:07.62	14.64	31.99	-54.1	-58.4	3.7	0.00e+00	0	47	104	0	78	25525
2026-01-07 21:22:08.62	14.64	32.30	-54.3	-58.7	3.7	0.00e+00	0	47	104	0	79	24977
2026-01-07 21:22:09.62	14.64	32.62	-54.3	-58.6	3.7	0.00e+00	0	47	104	0	79	24754
2026-01-07 21:22:10.62	14.64	32.94	-54.1	-58.4	3.7	0.00e+00	0	47	104	0	79	24137
2026-01-07 21:22:11.69	14.64	33.29	-54.1	-58.7	3.7	0.00e+00	0	47	104	0	79	25052
2026-01-07 21:22:12.55	14.65	33.57	-54.0	-58.6	3.7	0.00e+00	0	47	104	0	79	24709
2026-01-07 21:22:13.69	14.65	33.95	-54.1	-58.8	3.7	0.00e+00	0	47	104	0	79	25169
2026-01-07 21:22:14.65	14.65	34.28	-54.0	-58.7	3.7	0.00e+00	0	47	104	0	79	25007
2026-01-07 21:22:15.66	14.65	34.62	-54.0	-58.7	3.7	0.00e+00	0	47	104	0	79	24970
2026-01-07 21:22:16.66	14.65	34.97	-54.1	-58.8	3.7	0.00e+00	0	47	104	0	79	25203
2026-01-07 21:22:17.66	14.65	35.32	-54.3	-58.9	3.7	0.00e+00	0	47	104	0	79	25393
2026-01-07 21:22:18.66	14.65	35.68	-54.1	-58.7	3.7	0.00e+00	0	47	104	0	79	25050
2026-01-07 21:22:19.67	14.65	36.04	-53.9	-58.5	3.7	0.00e+00	0	47	104	0	79	24307
2026-01-07 21:22:20.67	14.65	36.41	-54.1	-58.8	3.6	0.00e+00	0	47	104	0	79	25183
2026-01-07 21:22:21.67	14.65	36.78	-54.0	-58.7	3.7	0.00e+00	0	47	104	0	79	25046
2026-01-07 21:22:22.68	14.65	37.16	-53.8	-58.3	3.7	0.00e+00	0	47	104	0	79	23884
2026-01-07 21:22:23.68	14.65	37.54	-53.5	-57.9	3.7	0.00e+00	0	47	104	0	79	22835
2026-01-07 21:22:24.68	14.65	37.93	-53.3	-57.7	3.7	0.00e+00	0	47	104	0	78	23454
2026-01-07 21:22:25.69	14.65	38.32	-53.1	-57.6	3.7	0.00e+00	0	47	104	0	78	23217
2026-01-07 21:22:26.77	14.65	38.75	-52.8	-58.0	3.7	0.00e+00	0	47	104	0	77	25856
2026-01-07 21:22:27.63	14.65	39.10	-53.1	-58.3	3.7	0.00e+00	0	47	104	0	77	26678
2026-01-07 21:22:28.78	14.65	39.57	-53.8	-58.6	3.7	0.00e+00	0	47	104	0	78	26180
2026-01-07 21:22:29.64	14.65	39.92	-53.5	-58.7	3.7	0.00e+00	0	47	104	0	78	26293
2026-01-07 21:22:30.79	14.65	40.40	-54.1	-58.9	3.7	0.00e+00	0	47	104	0	78	27020
2026-01-07 21:22:31.65	14.65	40.77	-54.0	-58.6	3.7	0.00e+00	0	47	104	0	79	24742
2026-01-07 21:22:32.79	14.65	41.26	-54.0	-58.5	3.7	0.00e+00	0	47	104	0	79	24508
2026-01-07 21:22:33.65	14.65	41.63	-54.2	-58.8	3.7	0.00e+00	0	47	104	0	79	25292
2026-01-07 21:22:34.80	14.65	42.14	-54.1	-58.8	3.7	0.00e+00	0	47	104	0	79	25118
2026-01-07 21:22:35.66	14.65	42.53	-54.0	-58.5	3.7	0.00e+00	0	47	104	0	79	24297
2026-01-07 21:22:36.81	14.65	43.05	-54.3	-58.9	3.7	0.00e+00	0	47	104	0	79	25564
2026-01-07 21:22:37.67	14.65	43.45	-54.4	-58.9	3.7	0.00e+00	0	47	104	0	79	25404
2026-01-07 21:22:38.82	14.65	43.99	-54.5	-58.9	3.7	0.00e+00	0	47	104	0	79	25443
2026-01-07 21:22:39.68	14.65	44.39	-54.4	-58.9	3.7	0.00e+00	0	47	104	0	79	25444
2026-01-07 21:22:40.87	14.64	44.97	-54.4	-58.9	3.7	0.00e+00	0	47	104	0	79	25441
2026-01-07 21:22:41.73	14.64	45.39	-54.6	-59.0	3.7	0.00e+00	0	47	104	0	79	25698
2026-01-07 21:22:42.91	14.64	45.97	-54.6	-58.9	3.7	0.00e+00	0	47	104	0	79	25618
2026-01-07 21:22:43.77	14.64	46.40	-54.5	-59.0	3.7	0.00e+00	0	47	104	0	79	25783
2026-01-07 21:22:44.99	14.63	47.02	-54.6	-59.1	3.7	0.00e+00	0	47	104	0	79	26139
2026-01-07 21:22:45.85	14.63	47.47	-53.8	-58.6	3.7	0.00e+00	0	47	104	0	79	24542
2026-01-07 21:22:47.00	14.63	48.07	-54.0	-58.7	3.7	0.00e+00	0	47	104	0	79	24978
2026-01-07 21:22:47.86	14.63	48.52	-54.2	-58.9	3.7	0.00e+00	0	47	104	0	79	25512
2026-01-07 21:22:49.14	14.62	49.21	-54.3	-58.9	3.7	0.00e+00	0	47	104	0	79	25561
2026-01-07 21:22:50.28	14.62	49.84	-54.5	-59.0	3.7	0.00e+00	0	47	104	0	79	25775
2026-01-07 21:22:51.14	14.62	50.31	-54.5	-58.9	3.7	0.00e+00	0	47	104	0	79	25473
2026-01-07 21:22:52.29	14.61	50.96	-54.6	-59.2	3.7	0.00e+00	0	47	104	0	79	26297
2026-01-07 21:22:53.15	14.61	51.45	-54.6	-59.1	3.7	0.00e+00	0	47	104	0	79	26066
2026-01-07 21:22:54.30	14.60	52.12	-53.9	-58.6	3.7	0.00e+00	0	47	104	0	79	24632
2026-01-07 21:22:55.15	14.60	52.61	-54.1	-58.7	3.7	0.00e+00	0	47	104	0	79	25025
2026-01-07 21:22:56.30	14.59	53.30	-54.0	-58.4	3.7	0.00e+00	0	47	104	0	79	24204
2026-01-07 21:22:57.16	14.59	53.81	-54.2	-58.8	3.7	0.00e+00	0	47	104	0	79	25172
2026-01-07 21:22:58.31	14.58	54.51	-53.8	-58.7	3.7	0.00e+00	0	47	104	0	79	25014
2026-01-07 21:22:59.17	14.57	55.04	-54.0	-58.8	3.7	0.00e+00	0	47	104	0	79	25186
2026-01-07 21:23:00.31	14.56	55.76	-54.0	-58.8	3.7	0.00e+00	0	47	104	0	79	25204
2026-01-07 21:23:01.17	14.56	56.30	-54.3	-58.9	3.7	0.00e+00	0	47	104	0	79	25621
2026-01-07 21:23:02.32	14.55	57.04	-54.2	-58.9	3.7	0.00e+00	0	47	104	0	79	25472
2026-01-07 21:23:03.18	14.54	57.60	-54.3	-58.9	3.7	0.00e+00	0	47	104	0	79	25561
2026-01-07 21:23:04.33	14.53	58.36	-54.7	-59.1	3.7	0.00e+00	0	47	104	0	79	25982
2026-01-07 21:23:05.18	14.52	58.92	-54.6	-59.2	3.7	0.00e+00	0	47	104	0	80	24836
2026-01-07 21:23:06.33	14.51	59.70	-54.2	-58.9	3.7	0.00e+00	0	47	104	0	80	24038
2026-01-07 21:23:07.19	14.50	60.28	-54.2	-58.9	3.7	0.00e+00	0	47	104	0	80	24075
2026-01-07 21:23:08.35	14.48	61.09	-54.6	-59.1	3.7	0.00e+00	0	47	104	0	80	24618
2026-01-07 21:23:09.21	14.47	61.69	-54.7	-59.1	3.7	0.00e+00	0	47	104	0	80	24668
2026-01-07 21:23:10.42	14.45	62.54	-54.4	-59.0	3.7	0.00e+00	0	47	104	0	80	24357
2026-01-07 21:23:11.28	14.44	63.16	-54.5	-59.0	3.7	0.00e+00	0	47	104	0	80	24373
2026-01-07 21:23:12.43	14.42	63.99	-54.4	-59.0	3.7	0.00e+00	0	47	104	0	80	24499
2026-01-07 21:23:13.29	14.40	64.62	-54.5	-59.1	3.7	0.00e+00	0	47	104	0	80	24542
2026-01-07 21:23:14.55	14.38	65.55	-54.7	-59.1	3.7	0.00e+00	0	47	104	0	80	24735
2026-01-07 21:23:15.26	14.36	66.08	-54.7	-59.1	3.7	0.00e+00	0	47	104	0	80	24703
2026-01-07 21:23:16.78	14.33	67.23	-54.5	-59.1	3.7	0.00e+00	0	47	104	0	80	24546
2026-01-07 21:23:17.50	14.31	67.78	-54.6	-59.1	3.7	0.00e+00	0	47	104	0	80	24529
2026-01-07 21:23:18.78	14.27	68.77	-54.6	-59.0	3.7	0.00e+00	0	47	104	0	80	24463
2026-01-07 21:23:19.50	14.25	69.33	-54.7	-59.1	3.7	0.00e+00	0	47	104	0	80	24634
2026-01-07 21:23:20.79	14.21	70.34	-54.8	-59.2	3.7	0.00e+00	0	47	104	0	80	25093
2026-01-07 21:23:21.51	14.18	70.92	-54.5	-59.0	3.7	0.00e+00	0	47	104	0	80	24416
2026-01-07 21:23:23.04	14.12	72.14	-54.5	-59.0	3.7	0.00e+00	0	47	104	0	80	24400
2026-01-07 21:23:23.76	14.09	72.72	-54.8	-59.3	3.7	0.00e+00	0	47	104	0	80	25243
2026-01-07 21:23:25.14	14.01	73.85	-54.5	-59.2	3.7	0.00e+00	0	47	104	0	80	24909
2026-01-07 21:23:25.86	13.97	74.44	-54.6	-59.1	3.7	0.00e+00	0	47	104	0	80	24803
2026-01-07 21:23:27.15	13.89	75.50	-54.5	-59.1	3.7	0.00e+00	0	47	104	0	80	24758
2026-01-07 21:23:27.86	13.83	76.10	-54.4	-59.0	3.7	0.00e+00	0	47	104	0	80	24363
2026-01-07 21:23:29.15	13.72	77.18	-54.2	-58.9	3.7	0.00e+00	0	47	104	0	80	24151
2026-01-07 21:23:29.87	13.65	77.78	-54.5	-59.1	3.7	0.00e+00	0	47	104	0	80	24587
2026-01-07 21:23:31.16	13.51	78.88	-54.5	-59.1	3.7	0.00e+00	0	47	104	0	80	24554
2026-01-07 21:23:31.87	13.41	79.48	-54.1	-58.8	3.7	0.00e+00	0	47	104	0	80	23733
2026-01-07 21:23:33.16	13.21	80.59	-54.3	-58.9	3.7	0.00e+00	0	47	104	0	80	24203
2026-01-07 21:23:33.88	13.07	81.21	-54.5	-58.9	3.7	0.00e+00	0	47	104	0	80	24130
2026-01-07 21:23:35.17	12.77	82.32	-54.5	-58.9	3.7	0.00e+00	0	47	104	0	80	24033
2026-01-07 21:23:35.91	12.55	82.96	-54.1	-58.6	3.7	0.00e+00	0	47	104	0	80	23384
2026-01-07 21:23:37.20	12.05	84.08	-54.2	-58.9	3.7	0.00e+00	0	47	104	0	80	24065
2026-01-07 21:23:37.97	11.65	84.75	-54.3	-58.6	3.7	0.00e+00	0	47	104	0	80	23407
2026-01-07 21:23:39.25	10.70	85.87	-54.3	-58.6	3.7	0.00e+00	0	47	104	0	80	23318
2026-01-07 21:23:39.97	9.89	86.50	-54.1	-58.3	3.7	0.00e+00	0	47	104	0	80	22574
2026-01-07 21:23:41.25	7.40	87.62	-54.2	-58.4	3.7	0.00e+00	0	47	104	0	79	24090
2026-01-07 21:23:41.97	4.59	88.24	-54.0	-58.4	3.7	0.00e+00	0	47	104	0	79	23984
2026-01-07 21:23:43.26	346.53	89.33	-53.9	-58.3	3.7	0.00e+00	0	47	104	0	79	23876
2026-01-07 21:23:43.98	277.62	89.67	-53.7	-58.4	3.7	0.00e+00	0	47	104	0	79	24221
2026-01-07 21:23:45.27	210.53	88.78	-53.8	-58.7	3.7	0.00e+00	0	47	104	0	79	24887
2026-01-07 21:23:45.98	205.36	88.17	-54.0	-58.8	3.7	0.00e+00	0	47	104	0	79	25380
2026-01-07 21:23:47.37	201.30	86.96	-54.2	-58.9	3.7	0.00e+00	0	47	104	0	79	25587
2026-01-07 21:23:48.34	199.97	86.11	-53.7	-58.5	3.7	0.00e+00	0	47	104	0	79	24515
2026-01-07 21:23:49.35	199.09	85.23	-53.7	-58.4	3.7	0.00e+00	0	47	104	0	79	24180
2026-01-07 21:23:50.35	198.49	84.35	-54.4	-58.7	3.7	0.00e+00	0	47	104	0	79	24983
2026-01-07 21:23:51.35	198.05	83.48	-54.0	-58.7	3.7	0.00e+00	0	47	104	0	79	24992
2026-01-07 21:23:52.36	197.72	82.60	-54.0	-58.7	3.7	0.00e+00	0	47	104	0	79	24904
2026-01-07 21:23:53.36	197.46	81.74	-54.6	-58.7	3.7	0.00e+00	0	47	104	0	79	24829
2026-01-07 21:23:54.36	197.25	80.88	-54.6	-58.9	3.7	0.00e+00	0	47	104	0	79	25491
2026-01-07 21:23:55.37	197.07	80.01	-54.4	-58.7	3.7	0.00e+00	0	47	104	0	79	25061
2026-01-07 21:23:56.40	196.93	79.13	-54.5	-58.8	3.7	0.00e+00	0	47	104	0	79	25191
2026-01-07 21:23:57.45	196.80	78.23	-54.6	-58.9	3.7	0.00e+00	0	47	104	0	79	25631
2026-01-07 21:23:58.40	196.70	77.43	-54.7	-59.1	3.7	0.00e+00	0	47	104	0	79	26038
2026-01-07 21:23:59.40	196.61	76.59	-54.5	-58.9	3.7	0.00e+00	0	47	104	0	79	25574
2026-01-07 21:24:00.56	196.52	75.62	-54.0	-58.7	3.7	0.00e+00	0	47	104	0	79	25023
2026-01-07 21:24:01.42	196.46	74.91	-54.1	-58.8	3.7	0.00e+00	0	47	104	0	79	25201
2026-01-07 21:24:02.57	196.39	73.96	-54.6	-59.1	3.7	0.00e+00	0	47	104	0	79	26215
2026-01-07 21:24:03.43	196.34	73.25	-54.6	-59.1	3.7	0.00e+00	0	47	104	0	79	26173
2026-01-07 21:24:04.58	196.29	72.32	-54.7	-59.1	3.7	0.00e+00	0	47	104	0	80	24666
2026-01-07 21:24:05.44	196.25	71.62	-54.7	-59.2	3.7	0.00e+00	0	47	104	0	80	24887
2026-01-07 21:24:06.58	196.20	70.71	-54.9	-59.4	3.7	0.00e+00	0	47	104	0	80	25396
2026-01-07 21:24:07.45	196.17	70.02	-54.8	-59.3	3.7	0.00e+00	0	47	104	0	80	25241
2026-01-07 21:24:08.59	196.13	69.13	-54.8	-59.2	3.7	0.00e+00	0	47	104	0	80	25076
2026-01-07 21:24:09.66	196.10	68.30	-54.7	-59.2	3.7	0.00e+00	0	47	104	0	80	24887
2026-01-07 21:24:10.52	196.08	67.63	-54.3	-59.0	3.7	0.00e+00	0	47	104	0	80	24487
2026-01-07 21:24:11.67	196.05	66.75	-54.2	-59.0	3.7	0.00e+00	0	47	104	0	80	24281
2026-01-07 21:24:12.53	196.03	66.10	-54.4	-59.1	3.7	0.00e+00	0	47	104	0	80	24547
2026-01-07 21:24:13.68	196.01	65.24	-54.6	-59.1	3.7	0.00e+00	0	47	104	0	80	24573
2026-01-07 21:24:14.54	195.99	64.61	-54.5	-59.1	3.7	0.00e+00	0	47	104	0	80	24665
2026-01-07 21:24:15.68	195.97	63.77	-54.2	-59.0	3.7	0.00e+00	0	47	104	0	80	24395
2026-01-07 21:24:16.55	195.95	63.14	-54.3	-59.0	3.7	0.00e+00	0	47	104	0	80	24423
2026-01-07 21:24:17.69	195.94	62.32	-54.6	-59.0	3.7	0.00e+00	0	47	104	0	80	24486
2026-01-07 21:24:18.55	195.92	61.71	-54.8	-59.2	3.7	0.00e+00	0	47	104	0	80	24937
2026-01-07 21:24:19.70	195.91	60.91	-54.7	-59.1	3.7	0.00e+00	0	47	104	0	80	24785
2026-01-07 21:24:20.55	195.90	60.32	-54.4	-59.0	3.7	0.00e+00	0	47	104	0	80	24359
2026-01-07 21:24:21.70	195.88	59.53	-54.4	-59.0	3.7	0.00e+00	0	47	104	0	80	24505
2026-01-07 21:24:22.56	195.87	58.95	-54.2	-58.8	3.7	0.00e+00	0	47	104	0	80	23758
2026-01-07 21:24:23.90	195.86	58.06	-54.4	-58.9	3.7	0.00e+00	0	47	104	0	80	24052
2026-01-07 21:24:24.62	195.85	57.58	-54.8	-59.2	3.7	0.00e+00	0	47	104	0	80	24917
2026-01-07 21:24:25.91	195.84	56.74	-54.7	-59.0	3.7	0.00e+00	0	47	104	0	80	24494
2026-01-07 21:24:26.62	195.84	56.29	-54.5	-58.8	3.7	0.00e+00	0	47	104	0	80	23734
2026-01-07 21:24:27.92	195.82	55.46	-54.5	-58.7	3.7	0.00e+00	0	47	104	0	80	23472
2026-01-07 21:24:28.63	195.82	55.02	-54.5	-58.6	3.7	0.00e+00	0	47	104	0	80	23290
2026-01-07 21:24:29.92	195.81	54.22	-54.7	-59.0	3.7	0.00e+00	0	47	104	0	80	24358
2026-01-07 21:24:30.64	195.81	53.78	-54.5	-59.0	3.7	0.00e+00	0	47	104	0	80	24342
2026-01-07 21:24:31.93	195.80	53.01	-54.4	-58.9	3.7	0.00e+00	0	47	104	0	80	24101
2026-01-07 21:24:32.65	195.79	52.58	-53.9	-58.8	3.7	0.00e+00	0	47	104	0	79	25220
2026-01-07 21:24:33.94	195.79	51.82	-54.0	-58.8	3.7	0.00e+00	0	47	104	0	79	25278
2026-01-07 21:24:34.66	195.78	51.40	-55.2	-59.2	3.7	0.00e+00	0	47	104	0	80	24886
2026-01-07 21:24:35.94	195.78	50.67	-54.6	-59.1	3.7	0.00e+00	0	47	104	0	80	24594
2026-01-07 21:24:36.66	195.77	50.27	-54.5	-58.8	3.7	0.00e+00	0	47	104	0	80	23838
2026-01-07 21:24:37.95	195.77	49.55	-54.3	-59.0	3.7	0.00e+00	0	47	104	0	80	24435
2026-01-07 21:24:38.67	195.77	49.16	-54.6	-59.1	3.7	0.00e+00	0	47	104	0	80	24603
2026-01-07 21:24:39.96	195.76	48.46	-54.6	-59.2	3.7	0.00e+00	0	47	104	0	80	24849
2026-01-07 21:24:40.67	195.76	48.08	-54.6	-59.0	3.7	0.00e+00	0	47	104	0	80	24479
2026-01-07 21:24:42.30	195.76	47.23	-54.3	-58.8	3.7	0.00e+00	0	47	104	0	80	23691
2026-01-07 21:24:42.87	195.75	46.93	-54.2	-58.7	3.7	0.00e+00	0	47	104	0	80	23452
2026-01-07 21:24:44.47	195.75	46.12	-54.1	-58.6	3.7	0.00e+00	0	47	104	0	80	23238
2026-01-07 21:24:45.05	195.75	45.83	-54.3	-58.8	3.7	0.00e+00	0	47	104	0	80	23763
2026-01-07 21:24:46.74	195.74	44.99	-54.6	-59.0	3.7	0.00e+00	0	47	104	0	80	24340
2026-01-07 21:24:47.32	195.74	44.71	-54.6	-59.0	3.7	0.00e+00	0	47	104	0	80	24311
2026-01-07 21:24:48.89	195.74	43.96	-54.4	-58.8	3.7	0.00e+00	0	47	104	0	80	23772
2026-01-07 21:24:49.47	195.74	43.68	-54.5	-58.8	3.7	0.00e+00	0	47	104	0	80	23882
2026-01-07 21:24:51.04	195.74	42.95	-54.4	-58.7	3.7	0.00e+00	0	47	104	0	80	23498
2026-01-07 21:24:51.66	195.74	42.67	-54.4	-58.6	3.7	0.00e+00	0	47	104	0	80	23242
2026-01-07 21:24:53.24	195.73	41.96	-54.4	-58.9	3.7	0.00e+00	0	47	104	0	80	24125
2026-01-07 21:24:54.08	195.73	41.58	-54.4	-58.9	3.7	0.00e+00	0	47	104	0	80	24163
2026-01-07 21:24:55.66	195.73	40.89	-54.5	-58.8	3.7	0.00e+00	0	47	104	0	80	23808
2026-01-07 21:24:56.26	195.73	40.63	-54.5	-58.8	3.7	0.00e+00	0	47	104	0	80	23840
2026-01-07 21:24:57.84	195.73	39.97	-54.2	-58.4	3.7	0.00e+00	0	47	104	0	80	22873
2026-01-07 21:24:58.43	195.73	39.72	-54.2	-58.5	3.7	0.00e+00	0	47	104	0	80	23132
2026-01-07 21:25:00.00	195.73	39.07	-54.2	-58.5	3.7	0.00e+00	0	47	104	0	80	23006
2026-01-07 21:25:00.57	195.73	38.84	-54.4	-58.6	3.7	0.00e+00	0	47	104	0	80	23393
2026-01-07 21:25:02.34	195.73	38.14	-54.4	-58.6	3.7	0.00e+00	0	47	104	0	80	23196
2026-01-07 21:25:02.91	195.73	37.91	-54.4	-58.6	3.7	0.00e+00	0	47	104	0	80	23212
2026-01-07 21:25:04.51	195.73	37.29	-54.4	-58.5	3.7	0.00e+00	0	47	104	0	80	22988
2026-01-07 21:25:05.08	195.73	37.07	-54.3	-58.5	3.7	0.00e+00	0	47	104	0	80	23145
2026-01-07 21:25:06.67	195.73	36.48	-54.5	-59.0	3.7	0.00e+00	0	47	104	0	80	24375
2026-01-07 21:25:07.57	195.73	36.14	-54.5	-59.0	3.7	0.00e+00	0	47	104	0	80	24304
2026-01-07 21:25:08.57	195.73	35.78	-54.5	-58.9	3.7	0.00e+00	0	47	104	0	80	24196
2026-01-07 21:25:09.57	195.73	35.42	-54.4	-58.9	3.7	0.00e+00	0	47	104	0	80	24008
2026-01-07 21:25:10.57	195.73	35.06	-54.3	-58.6	3.7	0.00e+00	0	47	104	0	80	23320
2026-01-07 21:25:11.58	195.73	34.71	-54.3	-58.7	3.7	0.00e+00	0	47	104	0	80	23474
2026-01-07 21:25:12.58	195.73	34.36	-54.3	-58.5	3.7	0.00e+00	0	47	104	0	80	23118
2026-01-07 21:25:13.58	195.73	34.02	-54.1	-58.3	3.6	0.00e+00	0	47	104	0	80	22409
2026-01-07 21:25:14.59	195.73	33.67	-54.2	-58.6	3.7	0.00e+00	0	47	104	0	80	23353
2026-01-07 21:25:15.76	195.73	33.29	-54.1	-58.5	3.7	0.00e+00	0	47	104	0	80	22902
2026-01-07 21:25:16.65	195.74	32.99	-54.1	-58.6	3.6	0.00e+00	0	47	104	0	80	23217
2026-01-07 21:25:17.80	195.74	32.62	-54.3	-58.9	3.7	0.00e+00	0	47	104	0	80	24148
2026-01-07 21:25:18.72	195.74	32.32	-54.3	-58.9	3.7	0.00e+00	0	47	104	0	80	24233
2026-01-07 21:25:19.90	195.74	31.95	-54.2	-58.9	3.7	0.00e+00	0	47	104	0	80	24032
2026-01-07 21:25:20.76	195.74	31.68	-54.4	-59.0	3.7	0.00e+00	0	47	104	0	80	24333
2026-01-07 21:25:21.91	195.74	31.33	-54.3	-59.0	3.7	0.00e+00	0	47	104	0	80	24254
2026-01-07 21:25:22.77	195.74	31.07	-54.4	-59.0	3.7	0.00e+00	0	47	104	0	80	24291
2026-01-07 21:25:23.92	195.74	30.72	-54.5	-59.0	3.7	0.00e+00	0	47	104	0	80	24520
2026-01-07 21:25:24.78	195.74	30.46	-54.5	-59.0	3.7	0.00e+00	0	47	104	0	80	24349
2026-01-07 21:25:25.93	195.75	30.13	-54.4	-59.0	3.7	0.00e+00	0	47	104	0	80	24380
2026-01-07 21:25:27.10	195.75	29.79	-54.2	-59.1	3.7	0.00e+00	0	47	104	0	80	24732
2026-01-07 21:25:28.14	195.75	29.49	-54.4	-59.0	3.7	0.00e+00	0	47	104	0	80	24369
2026-01-07 21:25:29.14	195.75	29.21	-54.1	-59.0	3.7	0.00e+00	0	47	104	0	80	24512
2026-01-07 21:25:30.14	195.75	28.93	-54.1	-58.8	3.7	0.00e+00	0	47	104	0	80	23888
2026-01-07 21:25:31.14	195.75	28.65	-54.0	-58.6	3.7	0.00e+00	0	47	104	0	79	24763
2026-01-07 21:25:32.14	195.75	28.38	-54.1	-59.0	3.7	0.00e+00	0	47	104	0	79	25797
2026-01-07 21:25:33.14	195.76	28.11	-54.0	-58.7	3.7	0.00e+00	0	47	104	0	79	24972
2026-01-07 21:25:34.15	195.76	27.84	-54.3	-58.9	3.7	0.00e+00	0	47	104	0	79	25405
2026-01-07 21:25:35.15	195.76	27.58	-54.4	-58.9	3.7	0.00e+00	0	47	104	0	79	25544
2026-01-07 21:25:36.15	195.76	27.32	-54.2	-58.9	3.7	0.00e+00	0	47	104	0	79	25487
2026-01-07 21:25:37.16	195.76	27.06	-54.4	-58.9	3.7	0.00e+00	0	47	104	0	79	25589
2026-01-07 21:25:38.16	195.76	26.81	-54.5	-59.0	3.7	0.00e+00	0	47	104	0	79	25876
2026-01-07 21:25:39.17	195.76	26.55	-54.4	-59.0	3.7	0.00e+00	0	47	104	0	79	25812
2026-01-07 21:25:40.17	195.77	26.31	-54.4	-58.9	3.7	0.00e+00	0	47	104	0	79	25510
2026-01-07 21:25:41.17	195.77	26.06	-54.4	-59.0	3.7	0.00e+00	0	47	104	0	79	25688
2026-01-07 21:25:42.26	195.77	25.80	-54.4	-58.9	3.7	0.00e+00	0	47	104	0	79	25532
2026-01-07 21:25:43.15	195.77	25.58	-54.2	-58.8	3.7	0.00e+00	0	47	104	0	79	25208
2026-01-07 21:25:44.29	195.77	25.31	-54.3	-58.8	3.7	0.00e+00	0	47	104	0	79	25265
2026-01-07 21:25:45.21	195.78	25.10	-54.2	-58.7	3.7	0.00e+00	0	47	104	0	79	24895
2026-01-07 21:25:46.39	195.78	24.82	-54.2	-58.9	3.7	0.00e+00	0	47	104	0	79	25571
2026-01-07 21:25:47.25	195.78	24.62	-54.0	-58.7	3.7	0.00e+00	0	47	104	0	79	24871
2026-01-07 21:25:48.62	195.78	24.31	-54.1	-58.8	3.7	0.00e+00	0	47	104	0	79	25207
2026-01-07 21:25:49.34	195.78	24.15	-54.1	-58.6	3.7	0.00e+00	0	47	104	0	79	24796
2026-01-07 21:25:50.63	195.79	23.87	-53.8	-58.5	3.7	0.00e+00	0	47	104	0	79	24398
2026-01-07 21:25:51.34	195.79	23.71	-54.0	-58.6	3.7	0.00e+00	0	47	104	0	79	24671
2026-01-07 21:25:52.63	195.79	23.43	-54.0	-58.5	3.7	0.00e+00	0	47	104	0	79	24367
2026-01-07 21:25:53.35	195.79	23.27	-54.1	-58.7	3.7	0.00e+00	0	47	104	0	79	25067
2026-01-07 21:25:54.64	195.79	23.00	-54.1	-58.7	3.7	0.00e+00	0	47	104	0	79	24943
2026-01-07 21:25:55.48	195.80	22.82	-54.2	-58.8	3.7	0.00e+00	0	47	104	0	79	25119
2026-01-07 21:25:56.63	195.80	22.58	-54.2	-58.8	3.7	0.00e+00	0	47	104	0	79	25296
2026-01-07 21:25:57.49	195.80	22.41	-54.0	-58.4	3.7	0.00e+00	0	47	104	0	79	24181
2026-01-07 21:25:58.64	195.80	22.17	-54.2	-58.7	3.7	0.00e+00	0	47	104	0	79	24924
2026-01-07 21:25:59.50	195.80	22.00	-54.1	-58.5	3.7	0.00e+00	0	47	104	0	79	24444
2026-01-07 21:26:00.65	195.81	21.77	-53.9	-58.4	3.7	0.00e+00	0	47	104	0	79	23966
2026-01-07 21:26:01.51	195.81	21.60	-54.2	-58.7	3.7	0.00e+00	0	47	104	0	79	24835
2026-01-07 21:26:02.66	195.81	21.37	-54.0	-58.5	3.7	0.00e+00	0	47	104	0	79	24451
2026-01-07 21:26:03.52	195.81	21.20	-54.1	-58.5	3.7	0.00e+00	0	47	104	0	79	24482
2026-01-07 21:26:04.67	195.81	20.98	-54.0	-58.6	3.7	0.00e+00	0	47	104	0	79	24536
2026-01-07 21:26:05.53	195.82	20.82	-53.9	-58.5	3.7	0.00e+00	0	47	104	0	79	24391
2026-01-07 21:26:06.67	195.82	20.60	-53.9	-58.5	3.7	0.00e+00	0	47	104	0	79	24321
2026-01-07 21:26:07.53	195.82	20.44	-53.9	-58.5	3.7	0.00e+00	0	47	104	0	79	24513
2026-01-07 21:26:08.68	195.82	20.23	-53.9	-58.5	3.7	0.00e+00	0	47	104	0	79	24445
2026-01-07 21:26:09.65	195.82	20.05	-53.8	-58.3	3.7	0.00e+00	0	47	104	0	79	23867
2026-01-07 21:26:10.66	195.83	19.87	-53.8	-58.3	3.7	0.00e+00	0	47	104	0	79	23718
2026-01-07 21:26:11.66	195.83	19.69	-53.8	-58.4	3.7	0.00e+00	0	47	104	0	79	23969
2026-01-07 21:26:12.66	195.83	19.51	-53.9	-58.4	3.7	0.00e+00	0	47	104	0	79	23973
2026-01-07 21:26:13.96	195.83	19.28	-53.8	-58.3	3.7	0.00e+00	0	47	104	0	79	23818
2026-01-07 21:26:14.69	195.84	19.15	-53.6	-58.1	3.7	0.00e+00	0	47	104	0	79	23378
2026-01-07 21:26:15.98	195.84	18.93	-53.8	-58.2	3.7	0.00e+00	0	47	104	0	78	25082
2026-01-07 21:26:16.69	195.84	18.80	-53.5	-58.2	3.7	0.00e+00	0	47	104	0	78	24845
2026-01-07 21:26:17.98	195.84	18.59	-53.4	-57.9	3.7	0.00e+00	0	47	104	0	78	24051
2026-01-07 21:26:18.70	195.85	18.46	-53.2	-57.8	3.7	0.00e+00	0	47	104	0	78	23821
2026-01-07 21:26:19.99	195.85	18.25	-53.5	-58.0	3.7	0.00e+00	0	47	104	0	78	24489
2026-01-07 21:26:20.71	195.85	18.13	-53.3	-57.9	3.7	0.00e+00	0	47	104	0	78	24188
2026-01-07 21:26:22.03	195.85	17.91	-53.2	-57.8	3.7	0.00e+00	0	47	104	0	78	23911
2026-01-07 21:26:22.75	195.85	17.79	-53.4	-57.9	3.7	0.00e+00	0	47	104	0	78	24182
2026-01-07 21:26:24.08	195.86	17.58	-53.2	-57.8	3.7	0.00e+00	0	47	104	0	78	23878
2026-01-07 21:26:24.80	195.86	17.46	-53.5	-58.1	3.7	0.00e+00	0	47	104	0	78	24594
2026-01-07 21:26:26.19	195.86	17.24	-53.2	-57.9	3.7	0.00e+00	0	47	104	0	78	24141
2026-01-07 21:26:26.91	195.86	17.13	-53.5	-58.1	3.7	0.00e+00	0	47	104	0	78	24786
2026-01-07 21:26:28.20	195.87	16.93	-53.3	-57.9	3.7	0.00e+00	0	47	104	0	78	24100
2026-01-07 21:26:28.91	195.87	16.82	-53.5	-58.1	3.7	0.00e+00	0	47	104	0	78	24805
2026-01-07 21:26:30.20	195.87	16.62	-53.4	-58.1	3.7	0.00e+00	0	47	104	0	78	24546
2026-01-07 21:26:30.92	195.87	16.51	-53.4	-57.8	3.7	0.00e+00	0	47	104	0	78	23857
2026-01-07 21:26:32.20	195.88	16.32	-53.4	-58.1	3.7	0.00e+00	0	47	104	0	78	24662
2026-01-07 21:26:32.92	195.88	16.21	-53.4	-58.0	3.7	0.00e+00	0	47	104	0	78	24308
2026-01-07 21:26:34.21	195.88	16.02	-53.4	-57.8	3.7	0.00e+00	0	47	104	0	78	23936
2026-01-07 21:26:34.93	195.88	15.91	-53.2	-57.8	3.7	0.00e+00	0	47	104	0	78	23838
2026-01-07 21:26:36.22	195.89	15.72	-53.3	-57.8	3.7	0.00e+00	0	47	104	0	78	23855
2026-01-07 21:26:37.00	195.89	15.61	-53.1	-57.6	3.7	0.00e+00	0	47	104	0	78	23203
2026-01-07 21:26:38.29	195.89	15.42	-53.3	-57.9	3.7	0.00e+00	0	47	104	0	78	24132
2026-01-07 21:26:39.00	195.89	15.32	-53.2	-57.9	3.7	0.00e+00	0	47	104	0	78	24103
2026-01-07 21:26:40.29	195.90	15.14	-53.3	-57.8	3.6	0.00e+00	0	47	104	0	78	23699
2026-01-07 21:26:41.17	195.90	15.01	-53.1	-57.7	3.7	0.00e+00	0	47	104	0	78	23564
2026-01-07 21:26:42.63	195.90	14.81	-53.2	-57.9	3.7	0.00e+00	0	47	104	0	78	24018
2026-01-07 21:26:43.35	195.90	14.71	-53.1	-57.9	3.7	0.00e+00	0	47	104	0	78	23968
2026-01-07 21:26:44.64	195.91	14.53	-53.1	-57.9	3.7	0.00e+00	0	47	104	0	78	23978
2026-01-07 21:26:45.35	195.91	14.44	-53.1	-57.8	3.7	0.00e+00	0	47	104	0	78	23831
2026-01-07 21:26:46.65	195.91	14.26	-53.1	-57.9	3.7	0.00e+00	0	47	104	0	78	24188
2026-01-07 21:26:47.36	195.91	14.17	-53.1	-58.0	3.7	0.00e+00	0	47	104	0	78	24244
2026-01-07 21:26:48.99	195.92	13.95	-53.1	-57.7	3.7	0.00e+00	0	47	104	0	78	23568
2026-01-07 21:26:49.56	195.92	13.87	-53.1	-57.9	3.7	0.00e+00	0	47	104	0	78	24233
2026-01-07 21:26:51.17	195.92	13.66	-52.9	-57.7	3.7	0.00e+00	0	47	104	0	77	24942
2026-01-07 21:26:51.92	195.93	13.57	-53.1	-57.9	3.7	0.00e+00	0	47	104	0	77	25534
2026-01-07 21:26:53.21	195.93	13.40	-52.8	-57.6	3.7	0.00e+00	0	47	104	0	77	24806
2026-01-07 21:26:54.18	195.93	13.28	-53.2	-57.9	3.7	0.00e+00	0	47	104	0	77	25415
2026-01-07 21:26:55.50	195.94	13.11	-52.9	-57.7	3.7	0.00e+00	0	47	104	0	77	24930
2026-01-07 21:26:56.22	195.94	13.02	-53.1	-57.8	3.7	0.00e+00	0	47	104	0	77	25198
2026-01-07 21:26:57.86	195.94	12.81	-52.4	-57.3	3.7	0.00e+00	0	47	104	0	76	25154
2026-01-07 21:26:58.43	195.94	12.74	-52.3	-57.2	3.7	0.00e+00	0	47	104	0	76	25024
2026-01-07 21:27:00.01	195.95	12.55	-52.2	-57.0	3.7	0.00e+00	0	47	104	0	76	24514
2026-01-07 21:27:00.62	195.95	12.47	-52.2	-56.9	3.7	0.00e+00	0	47	104	0	76	24180
2026-01-07 21:27:02.20	195.95	12.28	-52.2	-57.1	3.7	0.00e+00	0	47	104	0	76	24536
2026-01-07 21:27:02.78	195.95	12.21	-52.5	-57.3	3.7	0.00e+00	0	47	104	0	76	25099
2026-01-07 21:27:04.40	195.96	12.02	-52.1	-57.0	3.7	0.00e+00	0	47	104	0	75	25915
2026-01-07 21:27:04.97	195.96	11.95	-52.2	-57.0	3.7	0.00e+00	0	47	104	0	75	25973
2026-01-07 21:27:06.57	195.96	11.76	-52.1	-56.9	3.7	0.00e+00	0	47	104	0	75	25407
2026-01-07 21:27:07.14	195.96	11.69	-52.2	-57.1	3.7	0.00e+00	0	47	104	0	75	26274
2026-01-07 21:27:08.73	195.97	11.51	-51.9	-56.6	3.7	0.00e+00	0	47	104	0	75	24795
2026-01-07 21:27:09.32	195.97	11.44	-52.0	-56.6	3.7	0.00e+00	0	47	104	0	75	24785
2026-01-07 21:27:10.90	195.97	11.26	-51.9	-56.7	3.7	0.00e+00	0	47	104	0	75	25070
2026-01-07 21:27:11.50	195.98	11.19	-51.8	-56.7	3.7	0.00e+00	0	47	104	0	75	25062
2026-01-07 21:27:13.08	195.98	11.01	-52.0	-56.7	3.7	0.00e+00	0	47	104	0	75	24859
2026-01-07 21:27:13.68	195.98	10.94	-52.0	-56.8	3.7	0.00e+00	0	47	104	0	75	25309
2026-01-07 21:27:15.25	195.99	10.77	-51.9	-56.7	3.7	0.00e+00	0	47	104	0	75	24931
2026-01-07 21:27:15.84	195.99	10.70	-51.9	-56.7	3.7	0.00e+00	0	47	104	0	75	25047
2026-01-07 21:27:17.42	195.99	10.53	-52.0	-56.9	3.7	0.00e+00	0	47	104	0	75	25440
2026-01-07 21:27:17.99	195.99	10.47	-52.0	-56.9	3.7	0.00e+00	0	47	104	0	75	25558
2026-01-07 21:27:19.57	196.00	10.29	-52.0	-56.9	3.7	0.00e+00	0	47	104	0	75	25387
2026-01-07 21:27:20.17	196.00	10.23	-51.9	-56.9	3.7	0.00e+00	0	47	104	0	75	25477
2026-01-07 21:27:21.75	196.00	10.06	-51.7	-56.7	3.7	0.00e+00	0	47	104	0	75	25058
2026-01-07 21:27:22.33	196.00	10.00	-51.7	-56.8	3.7	0.00e+00	0	47	104	0	75	25153
2026-01-07 21:27:24.07	196.01	9.81	-51.8	-56.9	3.7	0.00e+00	0	47	104	0	75	25441
2026-01-07 21:27:24.64	196.01	9.75	-51.8	-56.8	3.7	0.00e+00	0	47	104	0	75	25210
2026-01-07 21:27:26.27	196.01	9.58	-51.8	-56.7	3.7	0.00e+00	0	47	104	0	75	25004
2026-01-07 21:27:26.84	196.02	9.52	-51.9	-56.9	3.7	0.00e+00	0	47	104	0	75	25403
2026-01-07 21:27:28.43	196.02	9.36	-51.6	-56.7	3.7	0.00e+00	0	47	104	0	75	24893
2026-01-07 21:27:29.01	196.02	9.30	-52.0	-56.9	3.6	0.00e+00	0	47	104	0	75	25501
2026-01-07 21:27:30.60	196.03	9.14	-51.8	-56.7	3.7	0.00e+00	0	47	104	0	75	24980
2026-01-07 21:27:31.17	196.03	9.08	-51.7	-56.7	3.7	0.00e+00	0	47	104	0	75	25005
2026-01-07 21:27:32.96	196.03	8.90	-52.5	-57.8	3.7	0.00e+00	0	47	104	0	75	28224
2026-01-07 21:27:33.53	196.03	8.84	-53.3	-58.1	3.7	0.00e+00	0	47	104	0	77	26098
2026-01-07 21:27:35.11	196.04	8.68	-53.9	-58.4	3.7	0.00e+00	0	47	104	0	78	25397
2026-01-07 21:27:35.68	196.04	8.63	-54.1	-58.7	3.7	0.00e+00	0	47	104	0	79	24999
2026-01-07 21:27:37.28	196.04	8.47	-53.9	-58.7	3.7	0.00e+00	0	47	104	0	79	24826
2026-01-07 21:27:37.85	196.05	8.41	-54.1	-58.4	3.7	0.00e+00	0	47	104	0	79	24024
2026-01-07 21:27:39.44	196.05	8.26	-53.7	-58.0	3.7	0.00e+00	0	47	104	0	79	23045
2026-01-07 21:27:40.02	196.05	8.20	-54.3	-58.6	3.7	0.00e+00	0	47	104	0	79	24733
2026-01-07 21:27:41.60	196.06	8.05	-54.4	-59.0	3.7	0.00e+00	0	47	104	0	79	25826
2026-01-07 21:27:42.17	196.06	8.00	-54.3	-58.6	3.7	0.00e+00	0	47	104	0	79	24651
2026-01-07 21:27:43.77	196.06	7.84	-54.6	-59.0	3.7	0.00e+00	0	47	104	0	79	25885
2026-01-07 21:27:44.34	196.06	7.79	-54.5	-59.0	3.7	0.00e+00	0	47	104	0	80	24326
2026-01-07 21:27:45.92	196.07	7.64	-54.4	-59.0	3.7	0.00e+00	0	47	104	0	80	24288
2026-01-07 21:27:46.51	196.07	7.59	-54.7	-59.2	3.7	0.00e+00	0	47	104	0	80	24925
2026-01-07 21:27:48.09	196.07	7.44	-54.6	-59.0	3.7	0.00e+00	0	47	104	0	80	24454
2026-01-07 21:27:48.67	196.07	7.38	-54.3	-58.8	3.7	0.00e+00	0	47	104	0	80	23835
2026-01-07 21:27:50.25	196.08	7.24	-54.6	-58.8	3.7	0.00e+00	0	47	104	0	80	23956
2026-01-07 21:27:50.83	196.08	7.19	-54.3	-58.7	3.7	0.00e+00	0	47	104	0	80	23516
2026-01-07 21:27:52.42	196.08	7.04	-54.3	-58.5	3.7	0.00e+00	0	47	104	0	79	24335
2026-01-07 21:27:52.99	196.09	6.99	-54.5	-58.8	3.7	0.00e+00	0	47	104	0	79	25348
2026-01-07 21:27:54.57	196.09	6.85	-53.5	-58.5	3.7	0.00e+00	0	47	104	0	79	24411
2026-01-07 21:27:55.14	196.09	6.79	-54.1	-58.8	3.7	0.00e+00	0	47	104	0	79	25202
2026-01-07 21:27:56.72	196.10	6.65	-53.4	-58.1	3.7	0.00e+00	0	47	104	0	78	24750
2026-01-07 21:27:57.33	196.10	6.60	-53.4	-58.2	3.7	0.00e+00	0	47	104	0	78	24893
2026-01-07 21:27:58.91	196.10	6.46	-53.4	-58.1	3.7	0.00e+00	0	47	104	0	78	24758
2026-01-07 21:27:59.50	196.10	6.41	-53.4	-58.1	3.7	0.00e+00	0	47	104	0	78	24768
2026-01-07 21:28:01.07	196.11	6.27	-53.4	-58.2	3.7	0.00e+00	0	47	104	0	78	24832
2026-01-07 21:28:01.65	196.11	6.22	-53.4	-58.2	3.7	0.00e+00	0	47	104	0	78	24825
2026-01-07 21:28:03.23	196.11	6.08	-53.4	-58.1	3.7	0.00e+00	0	47	104	0	78	24777
2026-01-07 21:28:03.83	196.12	6.03	-53.4	-58.2	3.6	0.00e+00	0	47	104	0	78	24856
2026-01-07 21:28:05.41	196.12	5.89	-53.4	-58.2	3.7	0.00e+00	0	47	104	0	78	24856
2026-01-07 21:28:05.98	196.12	5.85	-53.4	-58.1	3.7	0.00e+00	0	47	104	0	78	24762
2026-01-07 21:28:07.56	196.13	5.71	-53.4	-58.1	3.7	0.00e+00	0	47	104	0	78	24773
2026-01-07 21:28:08.14	196.13	5.66	-53.4	-58.1	3.7	0.00e+00	0	47	104	0	78	24793
2026-01-07 21:28:09.73	196.13	5.53	-53.4	-58.2	3.7	0.00e+00	0	47	104	0	78	24827
2026-01-07 21:28:10.30	196.13	5.48	-53.4	-58.2	3.7	0.00e+00	0	47	104	0	78	24840
2026-01-07 21:28:11.88	196.14	5.35	-53.4	-58.1	3.7	0.00e+00	0	47	104	0	78	24796
2026-01-07 21:28:12.47	196.14	5.30	-53.4	-58.1	3.7	0.00e+00	0	47	104	0	78	24792
2026-01-07 21:28:14.05	196.14	5.17	-53.4	-58.1	3.7	0.00e+00	0	47	104	0	78	24776
2026-01-07 21:28:14.62	196.14	5.12	-53.4	-58.1	3.7	0.00e+00	0	47	104	0	78	24729
2026-01-07 21:28:16.20	196.15	4.99	-53.4	-58.1	3.7	0.00e+00	0	47	104	0	78	24671

#Closed at: 2026-01-07 21:28:16
#Recorded file [0 MB]: D:/Data/31040_260108_001909.dat