passes_logs/2026/01/07/T1/T1__20260107_122054_NOAA_20_JPSS-1_rec.log

#Pass ID: 20260107_122054_NOAA 20 (JPSS-1)
#Satellite: NOAA 20 (JPSS-1)
#Configuration: NOAA 20
#almurnet v.1.7.20251203
#Start time: 2026-01-07 12:20:56

#Version: 2.0.20230620
#Station: T1
#Location: 37.570604 lon 55.790049 lat
#TLE: 1 43013U 17073A   26006.30790171  .00000126  00000+0  80695-4 0  9991
#TLE: 2 43013  98.7629 307.3394 0001808  51.8724 308.2615 14.19533762421505

#Time	Az	El	Level	Level2	SNR	BER	BlckErr	Temp	State	Recorded	gain1	gain2
2026-01-07 12:20:56.42	247.32	5.07	-52.3	-67.5	3.8	1.49e+00	0	41	0	0	76	20529
2026-01-07 12:20:57.42	247.45	5.10	-52.3	-67.5	3.8	1.49e+00	0	41	104	0	76	20519
2026-01-07 12:20:58.43	247.58	5.14	-52.3	-67.6	3.8	1.49e+00	0	41	104	0	76	20553
2026-01-07 12:20:59.43	247.71	5.18	-52.3	-67.5	3.8	1.49e+00	0	41	104	0	76	20493
2026-01-07 12:21:00.43	247.85	5.21	-52.3	-67.6	3.8	1.49e+00	0	41	104	0	76	20542
2026-01-07 12:21:01.44	247.98	5.25	-52.3	-67.5	3.8	1.49e+00	0	41	104	0	76	20467
2026-01-07 12:21:02.44	248.11	5.29	-52.3	-67.5	3.8	1.49e+00	0	41	104	0	76	20467
2026-01-07 12:21:03.45	248.25	5.32	-52.3	-67.5	3.8	1.49e+00	0	42	104	0	76	20484
2026-01-07 12:21:04.45	248.38	5.36	-52.3	-67.5	3.8	1.49e+00	0	41	104	0	76	20437
2026-01-07 12:21:05.46	248.52	5.40	-52.3	-67.5	3.8	1.49e+00	0	42	104	0	76	20486
2026-01-07 12:21:06.46	248.65	5.43	-52.3	-67.5	3.8	1.49e+00	0	42	104	0	76	20469
2026-01-07 12:21:07.47	248.79	5.47	-52.3	-67.5	3.8	1.49e+00	0	41	104	0	76	20402
2026-01-07 12:21:08.47	248.92	5.50	-52.3	-67.5	3.8	1.49e+00	0	42	104	0	76	20418
2026-01-07 12:21:09.47	249.06	5.54	-52.3	-67.5	3.8	1.49e+00	0	42	104	0	76	20415
2026-01-07 12:21:10.48	249.19	5.58	-52.3	-67.5	3.8	1.49e+00	0	42	104	0	76	20429
2026-01-07 12:21:11.48	249.33	5.61	-52.3	-67.5	3.8	1.49e+00	0	42	104	0	76	20395
2026-01-07 12:21:12.49	249.47	5.65	-52.3	-67.5	3.8	1.49e+00	0	42	104	0	76	20452
2026-01-07 12:21:13.49	249.60	5.68	-52.3	-67.5	3.8	1.49e+00	0	42	104	0	76	20496
2026-01-07 12:21:14.50	249.74	5.72	-52.3	-67.5	3.8	1.49e+00	0	42	104	0	76	20527
2026-01-07 12:21:15.50	249.88	5.75	-52.3	-67.5	3.8	1.49e+00	0	42	104	0	76	20415
2026-01-07 12:21:16.50	250.01	5.79	-52.3	-67.5	3.8	1.49e+00	0	42	104	0	76	20377
2026-01-07 12:21:17.51	250.15	5.82	-52.3	-67.5	3.8	1.49e+00	0	42	104	0	76	20464
2026-01-07 12:21:18.51	250.29	5.86	-52.3	-67.5	3.8	1.49e+00	0	42	104	0	76	20383
2026-01-07 12:21:19.52	250.43	5.89	-52.3	-67.5	3.8	1.49e+00	0	42	104	0	76	20426
2026-01-07 12:21:20.52	250.57	5.93	-52.3	-67.5	3.8	1.49e+00	0	42	104	0	76	20462
2026-01-07 12:21:21.53	250.71	5.96	-52.3	-67.5	3.8	1.49e+00	0	42	104	0	76	20407
2026-01-07 12:21:22.53	250.85	6.00	-52.3	-67.5	3.8	1.49e+00	0	42	104	0	76	20419
2026-01-07 12:21:23.54	250.99	6.03	-52.3	-67.5	3.8	1.49e+00	0	42	104	0	76	20418
2026-01-07 12:21:24.54	251.13	6.07	-52.3	-67.5	3.8	1.49e+00	0	42	104	0	76	20429
2026-01-07 12:21:25.54	251.27	6.10	-52.3	-67.5	3.8	1.49e+00	0	42	104	0	76	20419
2026-01-07 12:21:26.55	251.41	6.14	-52.3	-67.5	3.8	1.49e+00	0	43	104	0	76	20390
2026-01-07 12:21:27.55	251.55	6.17	-52.3	-67.5	3.8	1.49e+00	0	42	104	0	76	20464
2026-01-07 12:21:28.56	251.69	6.20	-52.3	-67.5	3.8	1.49e+00	0	42	104	0	76	20379
2026-01-07 12:21:29.56	251.84	6.24	-52.3	-67.5	3.8	1.49e+00	0	42	104	0	76	20474
2026-01-07 12:21:30.57	251.98	6.27	-52.3	-67.5	3.8	1.49e+00	0	42	104	0	76	20460
2026-01-07 12:21:31.57	252.12	6.30	-52.3	-67.5	3.8	1.49e+00	0	43	104	0	76	20413
2026-01-07 12:21:32.58	252.27	6.34	-52.3	-67.5	3.8	1.49e+00	0	43	104	0	76	20385
2026-01-07 12:21:33.58	252.41	6.37	-52.3	-67.5	3.8	1.49e+00	0	42	104	0	76	20512
2026-01-07 12:21:34.59	252.55	6.41	-52.2	-67.5	3.8	1.49e+00	0	42	104	0	76	20368
2026-01-07 12:21:35.59	252.70	6.44	-52.3	-67.5	3.8	1.49e+00	0	43	104	0	76	20443
2026-01-07 12:21:36.59	252.84	6.47	-52.3	-67.5	3.8	1.49e+00	0	42	104	0	76	20462
2026-01-07 12:21:37.60	252.99	6.51	-52.3	-67.5	3.8	1.49e+00	0	43	104	0	76	20443
2026-01-07 12:21:38.61	253.13	6.54	-52.3	-67.5	3.8	1.49e+00	0	43	104	0	76	20383
2026-01-07 12:21:39.61	253.28	6.57	-52.3	-67.5	3.8	1.49e+00	0	42	104	0	76	20428
2026-01-07 12:21:40.61	253.42	6.60	-52.3	-67.5	3.8	1.49e+00	0	42	104	0	76	20451
2026-01-07 12:21:41.62	253.57	6.64	-52.3	-67.5	3.8	1.49e+00	0	43	104	0	76	20442
2026-01-07 12:21:42.62	253.71	6.67	-52.3	-67.5	3.8	1.49e+00	0	43	104	0	76	20425
2026-01-07 12:21:43.62	253.86	6.70	-52.3	-67.5	3.8	1.49e+00	0	43	104	0	76	20524
2026-01-07 12:21:44.63	254.01	6.73	-52.3	-67.5	3.8	1.49e+00	0	43	104	0	76	20412
2026-01-07 12:21:45.63	254.15	6.77	-52.3	-67.5	3.8	1.49e+00	0	42	104	0	76	20434
2026-01-07 12:21:46.64	254.30	6.80	-52.3	-67.5	3.8	1.49e+00	0	43	104	0	76	20459
2026-01-07 12:21:47.64	254.45	6.83	-52.3	-67.5	3.8	1.49e+00	0	42	104	0	76	20455
2026-01-07 12:21:48.64	254.60	6.86	-52.3	-67.5	3.8	1.49e+00	0	43	104	0	76	20361
2026-01-07 12:21:49.65	254.74	6.89	-52.3	-67.5	3.8	1.49e+00	0	43	104	0	76	20409
2026-01-07 12:21:50.65	254.89	6.92	-52.3	-67.5	3.8	1.49e+00	0	43	104	0	76	20423
2026-01-07 12:21:51.66	255.04	6.96	-52.3	-67.5	3.8	1.49e+00	0	43	104	0	76	20368
2026-01-07 12:21:52.66	255.19	6.99	-52.3	-67.5	3.8	1.49e+00	0	43	104	0	76	20404
2026-01-07 12:21:53.67	255.34	7.02	-52.3	-67.5	3.8	1.49e+00	0	43	104	0	76	20500
2026-01-07 12:21:54.67	255.49	7.05	-52.3	-67.5	3.8	1.49e+00	0	43	104	0	76	20482
2026-01-07 12:21:55.67	255.64	7.08	-52.3	-67.5	3.8	1.49e+00	0	43	104	0	76	20418
2026-01-07 12:21:56.68	255.79	7.11	-52.3	-67.5	3.8	1.49e+00	0	43	104	0	76	20424
2026-01-07 12:21:57.68	255.94	7.14	-52.3	-67.5	3.8	1.49e+00	0	43	104	0	76	20427
2026-01-07 12:21:58.69	256.09	7.17	-52.3	-67.5	3.8	1.49e+00	0	43	104	0	76	20442
2026-01-07 12:21:59.69	256.24	7.20	-52.3	-67.5	3.8	1.49e+00	0	43	104	0	76	20462
2026-01-07 12:22:00.69	256.40	7.23	-52.3	-67.5	3.8	1.49e+00	0	43	104	0	76	20355
2026-01-07 12:22:01.70	256.55	7.26	-52.3	-67.6	3.8	1.49e+00	0	43	104	0	76	20556
2026-01-07 12:22:02.71	256.70	7.29	-52.3	-67.5	3.8	1.49e+00	0	43	104	0	76	20405
2026-01-07 12:22:03.71	256.85	7.32	-52.3	-67.5	3.8	1.49e+00	0	43	104	0	76	20464
2026-01-07 12:22:04.71	257.01	7.35	-52.3	-67.5	3.8	1.49e+00	0	43	104	0	76	20426
2026-01-07 12:22:05.72	257.16	7.38	-52.2	-67.5	3.8	1.49e+00	0	43	104	0	76	20406
2026-01-07 12:22:06.72	257.31	7.41	-52.3	-67.5	3.8	1.49e+00	0	43	104	0	76	20431
2026-01-07 12:22:07.73	257.47	7.44	-52.3	-67.5	3.8	1.49e+00	0	43	104	0	76	20439
2026-01-07 12:22:08.73	257.62	7.47	-52.3	-67.5	3.8	1.49e+00	0	43	104	0	76	20409
2026-01-07 12:22:09.74	257.78	7.50	-52.3	-67.5	3.8	1.49e+00	0	43	104	0	76	20346
2026-01-07 12:22:10.74	257.93	7.53	-52.3	-67.4	3.8	1.49e+00	0	43	104	0	76	20263
2026-01-07 12:22:11.74	258.09	7.56	-52.3	-67.5	3.8	1.49e+00	0	43	104	0	76	20398
2026-01-07 12:22:12.75	258.24	7.59	-52.3	-67.5	3.8	1.49e+00	0	43	104	0	76	20361
2026-01-07 12:22:13.75	258.40	7.61	-52.3	-67.5	3.8	1.49e+00	0	43	104	0	76	20367
2026-01-07 12:22:14.76	258.55	7.64	-52.3	-67.5	3.8	1.49e+00	0	43	104	0	76	20464
2026-01-07 12:22:15.76	258.71	7.67	-52.3	-67.5	3.8	1.49e+00	0	43	104	0	76	20448
2026-01-07 12:22:16.77	258.87	7.70	-52.3	-67.5	3.8	1.49e+00	0	43	104	0	76	20410
2026-01-07 12:22:17.77	259.02	7.73	-52.3	-67.5	3.8	1.49e+00	0	43	104	0	76	20414
2026-01-07 12:22:18.78	259.18	7.75	-52.3	-67.5	3.8	1.49e+00	0	43	104	0	76	20462
2026-01-07 12:22:19.78	259.34	7.78	-52.3	-67.5	3.8	1.49e+00	0	43	104	0	76	20506
2026-01-07 12:22:20.79	259.50	7.81	-52.3	-67.5	3.8	1.49e+00	0	43	104	0	76	20506
2026-01-07 12:22:21.79	259.65	7.84	-52.3	-67.5	3.8	1.49e+00	0	43	104	0	76	20390
2026-01-07 12:22:22.79	259.81	7.86	-52.3	-67.5	3.8	1.49e+00	0	43	104	0	76	20351
2026-01-07 12:22:23.80	259.97	7.89	-52.3	-67.5	3.8	1.49e+00	0	43	104	0	76	20359
2026-01-07 12:22:24.80	260.13	7.92	-52.3	-67.5	3.8	1.49e+00	0	43	104	0	76	20423
2026-01-07 12:22:25.81	260.29	7.94	-52.3	-67.5	3.8	1.49e+00	0	43	104	0	76	20348
2026-01-07 12:22:26.81	260.45	7.97	-52.3	-67.5	3.8	1.49e+00	0	43	104	0	76	20399
2026-01-07 12:22:27.82	260.61	8.00	-52.3	-67.5	3.8	1.49e+00	0	43	104	0	76	20423
2026-01-07 12:22:28.82	260.77	8.02	-52.3	-67.5	3.8	1.49e+00	0	43	104	0	76	20352
2026-01-07 12:22:29.83	260.93	8.05	-52.3	-67.5	3.8	1.49e+00	0	43	104	0	76	20312
2026-01-07 12:22:30.83	261.09	8.07	-52.3	-67.5	3.8	1.49e+00	0	43	104	0	76	20362
2026-01-07 12:22:31.83	261.25	8.10	-52.3	-67.4	3.8	1.49e+00	0	43	104	0	76	20224
2026-01-07 12:22:32.84	261.41	8.12	-52.3	-67.5	3.8	1.49e+00	0	43	104	0	76	20306
2026-01-07 12:22:33.84	261.57	8.15	-52.3	-67.4	3.8	1.49e+00	0	43	104	0	76	20264
2026-01-07 12:22:34.85	261.73	8.17	-52.3	-67.4	3.8	1.49e+00	0	43	104	0	76	20263
2026-01-07 12:22:35.85	261.89	8.20	-52.3	-67.4	3.8	1.49e+00	0	43	104	0	76	20200
2026-01-07 12:22:36.85	262.05	8.22	-52.3	-67.4	3.8	1.49e+00	0	43	104	0	76	20100
2026-01-07 12:22:37.86	262.22	8.25	-52.2	-67.4	3.8	1.49e+00	0	43	104	0	76	20072
2026-01-07 12:22:38.86	262.38	8.27	-52.2	-67.4	3.8	1.49e+00	0	43	104	0	76	20178
2026-01-07 12:22:39.87	262.54	8.30	-52.2	-67.4	3.8	1.49e+00	0	43	104	0	76	20180
2026-01-07 12:22:40.87	262.71	8.32	-52.2	-67.5	3.8	1.49e+00	0	43	104	0	76	20320
2026-01-07 12:22:41.88	262.87	8.35	-52.3	-67.5	3.8	1.49e+00	0	43	104	0	76	20430
2026-01-07 12:22:42.88	263.03	8.37	-52.2	-67.5	3.8	1.49e+00	0	43	104	0	76	20459
2026-01-07 12:22:43.89	263.20	8.39	-52.3	-67.5	3.8	1.49e+00	0	43	104	0	76	20385
2026-01-07 12:22:44.89	263.36	8.42	-52.3	-67.5	3.8	1.49e+00	0	43	104	0	76	20347
2026-01-07 12:22:45.89	263.52	8.44	-52.3	-67.5	3.8	1.49e+00	0	43	104	0	76	20328
2026-01-07 12:22:46.90	263.69	8.46	-52.2	-67.4	3.8	1.49e+00	0	43	104	0	76	20213
2026-01-07 12:22:47.90	263.85	8.48	-52.3	-67.4	3.8	1.49e+00	0	43	104	0	76	20268
2026-01-07 12:22:48.91	264.02	8.51	-52.3	-67.5	3.8	1.49e+00	0	43	104	0	76	20324
2026-01-07 12:22:49.91	264.18	8.53	-52.3	-67.4	3.8	1.49e+00	0	43	104	0	76	20253
2026-01-07 12:22:50.92	264.35	8.55	-52.3	-67.4	3.8	1.49e+00	0	43	104	0	76	20205
2026-01-07 12:22:51.92	264.52	8.57	-52.3	-67.4	3.8	1.49e+00	0	43	104	0	76	20076
2026-01-07 12:22:52.93	264.68	8.60	-52.3	-67.3	3.8	1.49e+00	0	44	104	0	76	20066
2026-01-07 12:22:53.93	264.85	8.62	-52.3	-67.4	3.8	1.49e+00	0	43	104	0	76	20145
2026-01-07 12:22:54.94	265.02	8.64	-52.3	-67.5	3.8	1.49e+00	0	44	104	0	76	20340
2026-01-07 12:22:55.94	265.18	8.66	-52.3	-67.5	3.8	1.49e+00	0	43	104	0	76	20334
2026-01-07 12:22:56.95	265.35	8.68	-52.3	-67.5	3.8	1.49e+00	0	43	104	0	76	20322
2026-01-07 12:22:57.95	265.52	8.70	-52.2	-67.2	3.8	1.49e+00	0	43	104	0	76	19638
2026-01-07 12:22:58.95	265.68	8.72	-52.2	-66.5	3.8	1.49e+00	0	43	104	0	76	18111
2026-01-07 12:22:59.96	265.85	8.74	-52.1	-65.8	3.8	1.49e+00	0	43	104	0	76	16779
2026-01-07 12:23:00.96	266.02	8.76	-52.1	-65.6	3.8	1.49e+00	0	43	104	0	76	16436
2026-01-07 12:23:01.97	266.19	8.78	-52.2	-66.3	3.8	1.49e+00	0	43	104	0	76	17884
2026-01-07 12:23:02.97	266.36	8.80	-52.2	-66.7	3.8	1.49e+00	0	44	104	0	76	18725
2026-01-07 12:23:03.97	266.52	8.82	-52.0	-63.8	4.2	1.49e+00	0	44	104	0	76	13405
2026-01-07 12:23:04.98	266.69	8.84	-51.4	-59.8	6.4	4.48e-01	0	43	0	1048576	74	9406
2026-01-07 12:23:05.98	266.86	8.86	-50.6	-56.7	9.3	5.85e-02	0	43	0	3145728	73	7028
2026-01-07 12:23:06.99	267.03	8.88	-49.9	-54.8	11.4	4.96e-03	0	44	0	5242880	71	6330
2026-01-07 12:23:07.99	267.20	8.90	-49.3	-53.7	12.6	1.25e-04	0	44	0	7340032	70	5859
2026-01-07 12:23:09.00	267.37	8.92	-49.2	-53.4	12.9	4.04e-05	0	43	0	8388608	70	5665
2026-01-07 12:23:10.00	267.54	8.94	-49.5	-53.9	12.5	4.95e-05	0	44	0	10485760	70	6023
2026-01-07 12:23:11.00	267.71	8.95	-49.9	-54.9	11.4	2.59e-04	0	43	0	12582912	70	6748
2026-01-07 12:23:12.01	267.88	8.97	-50.5	-56.4	9.9	5.22e-03	0	43	0	14680064	71	7564
2026-01-07 12:23:13.01	268.05	8.99	-51.2	-58.5	7.7	4.06e-02	0	44	0	15728640	72	9096
2026-01-07 12:23:14.02	268.22	9.01	-51.6	-60.6	5.9	1.93e-01	0	44	0	17825792	73	10941
2026-01-07 12:23:15.02	268.39	9.03	-51.6	-61.1	5.5	4.42e-01	0	44	0	19922944	73	11569
2026-01-07 12:23:16.02	268.56	9.04	-51.9	-64.0	4.2	9.27e-01	0	44	0	22020096	74	15347
2026-01-07 12:23:17.03	268.74	9.06	-51.7	-61.4	5.4	5.16e-01	0	44	0	23068672	74	11382
2026-01-07 12:23:18.03	268.91	9.08	-49.9	-55.0	11.3	4.22e-03	0	44	0	25165824	71	6451
2026-01-07 12:23:19.03	269.08	9.09	-52.0	-64.6	4.0	8.63e-01	0	44	0	26214400	74	16437
2026-01-07 12:23:20.04	269.25	9.11	-50.0	-55.2	11.0	5.11e-01	0	43	0	26214400	71	6627
2026-01-07 12:23:21.05	269.42	9.13	-49.6	-54.3	12.0	7.02e-04	0	44	0	28311552	71	5964
2026-01-07 12:23:22.05	269.59	9.14	-49.4	-53.9	12.4	1.72e-04	0	44	0	30408704	70	6052
2026-01-07 12:23:23.05	269.77	9.16	-49.4	-53.8	12.5	1.30e-04	0	44	0	31457280	70	5973
2026-01-07 12:23:24.05	269.94	9.17	-49.0	-53.1	13.2	7.32e-05	0	43	0	33554432	70	5520
2026-01-07 12:23:25.06	270.11	9.19	-48.8	-52.8	13.6	8.30e-06	0	43	0	35651584	69	5595
2026-01-07 12:23:26.06	270.28	9.20	-48.5	-52.3	14.1	3.00e-06	0	44	0	37748736	69	5289
2026-01-07 12:23:27.06	270.46	9.22	-48.4	-52.2	14.2	2.20e-06	0	44	0	39845888	68	5581
2026-01-07 12:23:28.06	270.63	9.23	-48.2	-51.9	14.5	1.50e-06	0	43	0	40894464	68	5363
2026-01-07 12:23:29.07	270.80	9.25	-48.2	-51.8	14.6	0.00e+00	0	43	0	42991616	68	5288
2026-01-07 12:23:30.07	270.97	9.26	-48.2	-51.9	14.5	0.00e+00	0	44	0	45088768	68	5349
2026-01-07 12:23:31.07	271.15	9.28	-48.1	-51.7	14.7	0.00e+00	0	44	0	47185920	68	5227
2026-01-07 12:23:32.08	271.32	9.29	-48.1	-51.7	14.6	0.00e+00	0	43	0	49283072	68	5268
2026-01-07 12:23:33.08	271.50	9.30	-48.1	-51.7	14.7	0.00e+00	0	44	0	50331648	68	5240
2026-01-07 12:23:34.08	271.67	9.32	-47.8	-51.5	14.8	7.00e-07	0	43	0	52428800	67	5414
2026-01-07 12:23:35.08	271.84	9.33	-47.8	-51.5	14.7	0.00e+00	0	44	0	54525952	67	5452
2026-01-07 12:23:36.09	272.02	9.34	-47.7	-51.4	14.8	0.00e+00	0	44	0	56623104	67	5379
2026-01-07 12:23:37.09	272.19	9.36	-47.7	-51.3	14.9	0.00e+00	0	43	0	58720256	67	5328
2026-01-07 12:23:38.09	272.37	9.37	-47.7	-51.5	14.8	0.00e+00	0	44	0	59768832	67	5407
2026-01-07 12:23:39.10	272.54	9.38	-47.7	-51.4	14.9	0.00e+00	0	43	0	61865984	67	5351
2026-01-07 12:23:40.10	272.72	9.39	-47.7	-51.4	14.8	0.00e+00	0	44	0	63963136	67	5376
2026-01-07 12:23:41.10	272.89	9.40	-47.8	-51.5	14.8	0.00e+00	0	44	0	66060288	67	5410
2026-01-07 12:23:42.10	273.06	9.41	-47.8	-51.4	14.8	0.00e+00	0	44	0	68157440	67	5390
2026-01-07 12:23:43.11	273.24	9.43	-48.0	-51.6	14.6	0.00e+00	0	43	0	69206016	67	5507
2026-01-07 12:23:44.11	273.42	9.44	-48.0	-51.6	14.6	7.00e-07	0	44	0	71303168	67	5484
2026-01-07 12:23:45.11	273.59	9.45	-48.1	-51.7	14.5	0.00e+00	0	43	0	73400320	67	5562
2026-01-07 12:23:46.11	273.77	9.46	-48.0	-51.6	14.6	7.00e-07	0	44	0	75497472	67	5477
2026-01-07 12:23:47.12	273.94	9.47	-48.0	-51.6	14.7	7.00e-07	0	44	0	76546048	67	5472
2026-01-07 12:23:48.12	274.12	9.48	-48.0	-51.6	14.6	0.00e+00	0	44	0	78643200	67	5479
2026-01-07 12:23:49.13	274.30	9.49	-48.0	-51.6	14.6	0.00e+00	0	44	0	80740352	67	5515
2026-01-07 12:23:50.13	274.47	9.50	-48.0	-51.7	14.5	7.00e-07	0	44	0	82837504	67	5534
2026-01-07 12:23:51.13	274.65	9.51	-48.0	-51.7	14.5	7.00e-07	0	44	0	84934656	67	5588
2026-01-07 12:23:52.13	274.82	9.52	-48.1	-51.8	14.3	0.00e+00	0	44	0	87031808	67	5652
2026-01-07 12:23:53.13	275.00	9.53	-48.2	-52.0	14.2	0.00e+00	0	44	0	88080384	67	5785
2026-01-07 12:23:54.13	275.17	9.53	-48.3	-52.2	14.1	2.20e-06	0	44	0	90177536	67	5875
2026-01-07 12:23:55.14	275.35	9.54	-48.3	-52.2	14.0	2.20e-06	0	44	0	92274688	67	5913
2026-01-07 12:23:56.14	275.53	9.55	-48.4	-52.4	13.9	6.10e-06	0	44	0	94371840	67	6000
2026-01-07 12:23:57.14	275.70	9.56	-48.5	-52.5	13.7	5.30e-06	0	44	0	95420416	67	6068
2026-01-07 12:23:58.14	275.88	9.57	-48.8	-52.8	13.6	6.10e-06	0	43	0	97517568	68	5959
2026-01-07 12:23:59.15	276.06	9.58	-48.8	-52.7	13.7	3.80e-06	0	44	0	99614720	68	5892
2026-01-07 12:24:00.15	276.23	9.58	-48.7	-52.6	13.8	2.20e-06	0	44	0	101711872	68	5811
2026-01-07 12:24:01.15	276.41	9.59	-48.8	-52.6	13.7	2.20e-06	0	44	0	103809024	68	5850
2026-01-07 12:24:02.15	276.59	9.60	-48.7	-52.6	13.8	4.50e-06	0	44	0	104857600	68	5798
2026-01-07 12:24:03.16	276.77	9.60	-48.6	-52.5	13.9	3.00e-06	0	44	0	106954752	68	5730
2026-01-07 12:24:04.16	276.94	9.61	-48.5	-52.3	14.0	1.50e-06	0	43	0	109051904	68	5643
2026-01-07 12:24:05.16	277.12	9.62	-48.5	-52.3	14.1	4.50e-06	0	44	0	111149056	68	5641
2026-01-07 12:24:06.17	277.30	9.62	-48.5	-52.3	14.1	3.00e-06	0	44	0	113246208	68	5626
2026-01-07 12:24:07.17	277.47	9.63	-48.4	-52.2	14.3	1.50e-06	0	44	0	114294784	68	5546
2026-01-07 12:24:08.17	277.65	9.63	-48.3	-52.1	14.2	7.00e-07	0	44	0	116391936	68	5504
2026-01-07 12:24:09.17	277.83	9.64	-48.4	-52.3	14.1	7.00e-07	0	44	0	118489088	68	5614
2026-01-07 12:24:10.17	278.01	9.64	-48.4	-52.2	14.2	2.20e-06	0	44	0	120586240	68	5541
2026-01-07 12:24:11.18	278.19	9.65	-48.4	-52.3	14.1	7.00e-07	0	44	0	122683392	68	5612
2026-01-07 12:24:12.18	278.36	9.65	-48.5	-52.4	14.0	7.00e-07	0	44	0	123731968	68	5659
2026-01-07 12:24:13.18	278.54	9.66	-48.6	-52.5	13.9	3.80e-06	0	44	0	125829120	68	5758
2026-01-07 12:24:14.19	278.72	9.66	-48.6	-52.5	13.9	5.30e-06	0	44	0	127926272	68	5738
2026-01-07 12:24:15.19	278.90	9.66	-48.7	-52.6	13.8	2.20e-06	0	44	0	130023424	68	5811
2026-01-07 12:24:16.19	279.07	9.67	-48.7	-52.6	13.8	5.30e-06	0	44	0	132120576	68	5802
2026-01-07 12:24:17.20	279.25	9.67	-48.6	-52.4	14.0	4.50e-06	0	44	0	133169152	68	5682
2026-01-07 12:24:18.20	279.43	9.67	-48.6	-52.4	14.0	2.20e-06	0	44	0	135266304	68	5700
2026-01-07 12:24:19.20	279.61	9.68	-48.6	-52.4	14.0	5.30e-06	0	44	0	137363456	68	5693
2026-01-07 12:24:20.21	279.79	9.68	-48.6	-52.5	13.9	1.50e-06	0	44	0	139460608	68	5733
2026-01-07 12:24:21.21	279.96	9.68	-48.5	-52.4	14.0	1.50e-06	0	44	0	140509184	68	5675
2026-01-07 12:24:22.21	280.14	9.68	-48.3	-52.1	14.3	2.20e-06	0	44	0	142606336	68	5475
2026-01-07 12:24:23.22	280.32	9.69	-48.4	-52.2	14.2	2.20e-06	0	43	0	144703488	68	5574
2026-01-07 12:24:24.22	280.50	9.69	-48.3	-52.0	14.3	7.00e-07	0	44	0	146800640	68	5461
2026-01-07 12:24:25.22	280.68	9.69	-48.3	-51.9	14.5	1.50e-06	0	44	0	148897792	68	5393
2026-01-07 12:24:26.22	280.85	9.69	-48.3	-51.9	14.5	0.00e+00	0	44	0	149946368	68	5385
2026-01-07 12:24:27.22	281.03	9.69	-48.2	-51.7	14.7	0.00e+00	0	44	0	152043520	68	5269
2026-01-07 12:24:28.22	281.21	9.69	-48.2	-51.7	14.7	0.00e+00	0	44	0	154140672	68	5230
2026-01-07 12:24:29.22	281.39	9.69	-48.2	-51.8	14.6	0.00e+00	0	44	0	156237824	68	5295
2026-01-07 12:24:30.23	281.57	9.69	-48.2	-51.8	14.7	7.00e-07	0	44	0	158334976	68	5281
2026-01-07 12:24:31.23	281.74	9.69	-48.3	-51.9	14.5	0.00e+00	0	44	0	159383552	68	5374
2026-01-07 12:24:32.23	281.92	9.69	-48.5	-52.2	14.2	2.20e-06	0	44	0	161480704	68	5565
2026-01-07 12:24:33.24	282.10	9.69	-48.3	-52.0	14.4	2.20e-06	0	44	0	163577856	68	5422
2026-01-07 12:24:34.23	282.28	9.69	-48.4	-52.1	14.3	7.00e-07	0	44	0	165675008	68	5483
2026-01-07 12:24:35.24	282.46	9.69	-48.4	-51.9	14.5	0.00e+00	0	44	0	167772160	68	5394
2026-01-07 12:24:36.24	282.63	9.69	-48.3	-52.0	14.4	1.50e-06	0	44	0	168820736	68	5429
2026-01-07 12:24:37.24	282.81	9.69	-48.3	-51.8	14.6	2.20e-06	0	44	0	170917888	68	5336
2026-01-07 12:24:38.24	282.99	9.68	-48.2	-51.7	14.6	7.00e-07	0	44	0	173015040	68	5272
2026-01-07 12:24:39.25	283.17	9.68	-48.2	-51.7	14.7	0.00e+00	0	44	0	175112192	68	5235
2026-01-07 12:24:40.25	283.35	9.68	-48.1	-51.5	14.9	0.00e+00	0	44	0	177209344	68	5142
2026-01-07 12:24:41.25	283.52	9.68	-48.1	-51.5	14.9	1.50e-06	0	44	0	178257920	68	5136
2026-01-07 12:24:42.26	283.70	9.67	-47.8	-51.1	15.1	0.00e+00	0	44	0	180355072	67	5177
2026-01-07 12:24:43.26	283.88	9.67	-47.7	-51.0	15.2	0.00e+00	0	44	0	182452224	67	5155
2026-01-07 12:24:44.26	284.06	9.67	-47.7	-51.0	15.2	0.00e+00	0	44	0	184549376	67	5149
2026-01-07 12:24:45.27	284.24	9.66	-47.7	-51.0	15.2	0.00e+00	0	44	0	185597952	67	5123
2026-01-07 12:24:46.27	284.41	9.66	-47.6	-50.9	15.3	0.00e+00	0	44	0	187695104	67	5084
2026-01-07 12:24:47.27	284.59	9.66	-47.7	-51.0	15.3	0.00e+00	0	44	0	189792256	67	5122
2026-01-07 12:24:48.27	284.77	9.65	-47.7	-51.0	15.2	0.00e+00	0	44	0	191889408	67	5116
2026-01-07 12:24:49.27	284.94	9.65	-47.8	-51.1	15.1	0.00e+00	0	44	0	193986560	67	5212
2026-01-07 12:24:50.28	285.12	9.64	-47.8	-51.1	15.1	0.00e+00	0	44	0	195035136	67	5191
2026-01-07 12:24:51.28	285.30	9.64	-47.9	-51.2	15.0	0.00e+00	0	44	0	197132288	67	5247
2026-01-07 12:24:52.28	285.48	9.63	-47.9	-51.3	14.9	0.00e+00	0	44	0	199229440	67	5286
2026-01-07 12:24:53.28	285.65	9.63	-47.7	-51.0	15.2	0.00e+00	0	44	0	201326592	67	5135
2026-01-07 12:24:54.29	285.83	9.62	-47.7	-51.0	15.2	0.00e+00	0	44	0	203423744	67	5142
2026-01-07 12:24:55.29	286.01	9.62	-47.7	-51.1	15.2	0.00e+00	0	44	0	204472320	67	5161
2026-01-07 12:24:56.29	286.19	9.61	-47.6	-50.8	15.4	0.00e+00	0	44	0	206569472	67	5033
2026-01-07 12:24:57.30	286.36	9.60	-47.6	-50.8	15.4	0.00e+00	0	44	0	208666624	67	4996
2026-01-07 12:24:58.30	286.54	9.60	-47.3	-50.4	15.8	0.00e+00	0	44	0	210763776	66	5072
2026-01-07 12:24:59.30	286.72	9.59	-47.3	-50.4	15.9	0.00e+00	0	44	0	212860928	66	5045
2026-01-07 12:25:00.30	286.89	9.58	-47.3	-50.4	15.9	0.00e+00	0	44	0	213909504	66	5052
2026-01-07 12:25:01.30	287.07	9.58	-47.4	-50.5	15.7	0.00e+00	0	44	0	216006656	66	5158
2026-01-07 12:25:02.31	287.25	9.57	-47.4	-50.5	15.7	0.00e+00	0	44	0	218103808	66	5122
2026-01-07 12:25:03.31	287.42	9.56	-47.5	-50.7	15.5	0.00e+00	0	44	0	220200960	66	5253
2026-01-07 12:25:04.31	287.60	9.55	-47.4	-50.6	15.6	0.00e+00	0	44	0	222298112	66	5195
2026-01-07 12:25:05.32	287.78	9.54	-47.4	-50.6	15.6	0.00e+00	0	44	0	223346688	66	5205
2026-01-07 12:25:06.32	287.95	9.54	-47.4	-50.7	15.5	0.00e+00	0	44	0	225443840	66	5223
2026-01-07 12:25:07.33	288.13	9.53	-47.5	-50.7	15.5	0.00e+00	0	44	0	227540992	66	5244
2026-01-07 12:25:08.33	288.31	9.52	-47.4	-50.6	15.6	0.00e+00	0	44	0	229638144	66	5214
2026-01-07 12:25:09.33	288.48	9.51	-47.6	-50.8	15.4	0.00e+00	0	44	0	231735296	66	5328
2026-01-07 12:25:10.33	288.66	9.50	-47.5	-50.7	15.5	0.00e+00	0	44	0	232783872	66	5229
2026-01-07 12:25:11.34	288.83	9.49	-47.5	-50.7	15.5	0.00e+00	0	44	0	234881024	66	5241
2026-01-07 12:25:12.34	289.01	9.48	-47.5	-50.8	15.4	0.00e+00	0	44	0	236978176	66	5280
2026-01-07 12:25:13.34	289.18	9.47	-47.5	-50.7	15.4	0.00e+00	0	44	0	239075328	66	5275
2026-01-07 12:25:14.35	289.36	9.46	-47.5	-50.7	15.5	0.00e+00	0	44	0	240123904	66	5260
2026-01-07 12:25:15.35	289.53	9.45	-47.5	-50.8	15.4	0.00e+00	0	44	0	242221056	66	5280
2026-01-07 12:25:16.35	289.71	9.44	-47.6	-50.8	15.4	0.00e+00	0	44	0	244318208	66	5324
2026-01-07 12:25:17.36	289.88	9.43	-47.5	-50.7	15.5	0.00e+00	0	44	0	246415360	66	5244
2026-01-07 12:25:18.36	290.06	9.42	-47.6	-50.9	15.3	0.00e+00	0	44	0	248512512	66	5376
2026-01-07 12:25:19.36	290.23	9.40	-47.7	-51.0	15.2	0.00e+00	0	44	0	249561088	66	5415
2026-01-07 12:25:20.36	290.41	9.39	-47.8	-51.1	15.1	0.00e+00	0	44	0	251658240	66	5498
2026-01-07 12:25:21.37	290.58	9.38	-47.7	-51.0	15.2	0.00e+00	0	44	0	253755392	66	5446
2026-01-07 12:25:22.37	290.76	9.37	-47.7	-51.0	15.2	0.00e+00	0	44	0	255852544	66	5415
2026-01-07 12:25:23.38	290.93	9.36	-47.7	-51.0	15.2	0.00e+00	0	44	0	257949696	66	5438
2026-01-07 12:25:24.38	291.11	9.34	-47.6	-50.8	15.4	0.00e+00	0	44	0	258998272	66	5320
2026-01-07 12:25:25.38	291.28	9.33	-47.7	-50.9	15.3	0.00e+00	0	44	0	261095424	66	5385
2026-01-07 12:25:26.39	291.45	9.32	-47.6	-50.9	15.3	0.00e+00	0	44	0	263192576	66	5341
2026-01-07 12:25:27.39	291.63	9.30	-47.6	-50.8	15.4	0.00e+00	0	44	0	265289728	66	5337
2026-01-07 12:25:28.40	291.80	9.29	-47.6	-50.8	15.4	0.00e+00	0	44	0	267386880	66	5325
2026-01-07 12:25:29.40	291.97	9.28	-47.6	-50.9	15.3	0.00e+00	0	44	0	268435456	66	5352
2026-01-07 12:25:30.40	292.15	9.26	-47.8	-51.1	15.1	0.00e+00	0	44	0	270532608	66	5474
2026-01-07 12:25:31.40	292.32	9.25	-47.9	-51.2	14.9	0.00e+00	0	44	0	272629760	66	5582
2026-01-07 12:25:32.41	292.49	9.23	-47.8	-51.2	15.0	0.00e+00	0	44	0	274726912	66	5565
2026-01-07 12:25:33.41	292.66	9.22	-47.8	-51.1	15.0	0.00e+00	0	44	0	276824064	66	5526
2026-01-07 12:25:34.41	292.84	9.21	-47.8	-51.1	15.1	0.00e+00	0	44	0	277872640	66	5481
2026-01-07 12:25:35.42	293.01	9.19	-47.8	-51.1	15.1	0.00e+00	0	44	0	279969792	66	5500
2026-01-07 12:25:36.42	293.18	9.18	-47.9	-51.3	14.9	0.00e+00	0	44	0	282066944	66	5623
2026-01-07 12:25:37.42	293.35	9.16	-48.1	-51.5	14.7	0.00e+00	0	44	0	284164096	66	5761
2026-01-07 12:25:38.43	293.53	9.14	-47.9	-51.4	14.8	0.00e+00	0	44	0	286261248	66	5661
2026-01-07 12:25:39.43	293.70	9.13	-48.0	-51.4	14.8	0.00e+00	0	44	0	287309824	66	5706
2026-01-07 12:25:40.43	293.87	9.11	-48.0	-51.5	14.7	0.00e+00	0	44	0	289406976	66	5725
2026-01-07 12:25:41.44	294.04	9.10	-48.0	-51.5	14.7	0.00e+00	0	44	0	291504128	66	5759
2026-01-07 12:25:42.44	294.21	9.08	-48.0	-51.7	14.5	0.00e+00	0	44	0	293601280	66	5894
2026-01-07 12:25:43.44	294.38	9.06	-48.0	-51.7	14.5	0.00e+00	0	44	0	295698432	66	5878
2026-01-07 12:25:44.44	294.55	9.05	-48.1	-51.7	14.5	1.50e-06	0	44	0	296747008	66	5861
2026-01-07 12:25:45.45	294.72	9.03	-48.1	-51.6	14.5	1.50e-06	0	44	0	298844160	66	5855
2026-01-07 12:25:46.45	294.89	9.01	-48.1	-51.7	14.5	3.80e-06	0	44	0	300941312	66	5881
2026-01-07 12:25:47.46	295.06	8.99	-48.1	-51.7	14.5	0.00e+00	0	44	0	303038464	66	5859
2026-01-07 12:25:48.46	295.23	8.98	-52.5	-67.5	3.8	1.49e+00	0	44	104	304087040	75	21666
2026-01-07 12:25:49.46	295.40	8.96	-52.7	-67.8	3.9	1.49e+00	0	44	104	304087040	76	21061
2026-01-07 12:25:50.47	295.57	8.94	-52.8	-67.9	3.8	1.49e+00	0	44	104	304087040	76	21444
2026-01-07 12:25:51.47	295.74	8.92	-52.7	-68.0	3.8	1.49e+00	0	44	104	304087040	76	21629
2026-01-07 12:25:52.48	295.91	8.90	-52.7	-68.1	3.8	1.49e+00	0	44	104	304087040	76	21796
2026-01-07 12:25:53.48	296.08	8.88	-53.0	-68.1	3.8	1.49e+00	0	44	104	304087040	76	21862
2026-01-07 12:25:54.49	296.25	8.87	-52.9	-68.1	3.8	1.49e+00	0	44	104	304087040	76	21958
2026-01-07 12:25:55.49	296.41	8.85	-52.7	-68.1	3.8	1.49e+00	0	44	104	304087040	76	21988
2026-01-07 12:25:56.50	296.58	8.83	-52.9	-68.1	3.8	1.49e+00	0	44	104	304087040	76	21966
2026-01-07 12:25:57.50	296.75	8.81	-52.8	-68.2	3.8	1.49e+00	0	44	104	304087040	76	22075
2026-01-07 12:25:58.50	296.92	8.79	-53.0	-68.2	3.8	1.49e+00	0	44	104	304087040	76	22034
2026-01-07 12:25:59.51	297.09	8.77	-53.0	-68.2	3.8	1.49e+00	0	44	104	304087040	76	22083
2026-01-07 12:26:00.51	297.25	8.75	-53.0	-68.2	3.8	1.49e+00	0	44	104	304087040	76	22107
2026-01-07 12:26:01.52	297.42	8.73	-52.9	-68.2	3.8	1.49e+00	0	44	104	304087040	76	22047
2026-01-07 12:26:02.52	297.59	8.71	-52.9	-68.2	3.8	1.49e+00	0	44	104	304087040	76	22121
2026-01-07 12:26:03.53	297.75	8.69	-52.9	-68.2	3.8	1.49e+00	0	44	104	304087040	76	22124
2026-01-07 12:26:04.53	297.92	8.67	-52.9	-68.2	3.8	1.49e+00	0	44	104	304087040	76	22107
2026-01-07 12:26:05.54	298.09	8.64	-53.0	-68.2	3.8	1.49e+00	0	44	104	304087040	76	22200
2026-01-07 12:26:06.54	298.25	8.62	-52.9	-68.2	3.8	1.49e+00	0	44	104	304087040	76	22099
2026-01-07 12:26:07.54	298.42	8.60	-52.8	-68.2	3.8	1.49e+00	0	44	104	304087040	76	22094
2026-01-07 12:26:08.55	298.58	8.58	-52.9	-68.2	3.8	1.49e+00	0	44	104	304087040	76	22123
2026-01-07 12:26:09.55	298.75	8.56	-52.8	-68.2	3.8	1.49e+00	0	44	104	304087040	76	22075
2026-01-07 12:26:10.56	298.91	8.54	-52.8	-68.2	3.8	1.49e+00	0	44	104	304087040	76	22069
2026-01-07 12:26:11.56	299.08	8.51	-52.8	-68.1	3.8	1.49e+00	0	44	104	304087040	76	22000
2026-01-07 12:26:12.56	299.24	8.49	-52.8	-68.1	3.8	1.49e+00	0	44	104	304087040	76	21976
2026-01-07 12:26:13.57	299.41	8.47	-52.8	-68.1	3.8	1.49e+00	0	44	104	304087040	76	21948
2026-01-07 12:26:14.57	299.57	8.45	-52.8	-68.2	3.8	1.49e+00	0	44	104	304087040	76	22011
2026-01-07 12:26:15.58	299.74	8.42	-52.8	-68.1	3.8	1.49e+00	0	44	104	304087040	76	21993
2026-01-07 12:26:16.58	299.90	8.40	-52.8	-68.1	3.8	1.49e+00	0	44	104	304087040	76	21930
2026-01-07 12:26:17.59	300.06	8.38	-52.8	-68.2	3.8	1.49e+00	0	44	104	304087040	76	22035
2026-01-07 12:26:18.59	300.22	8.35	-52.8	-68.2	3.8	1.49e+00	0	44	104	304087040	76	22011
2026-01-07 12:26:19.59	300.39	8.33	-52.7	-68.1	3.8	1.49e+00	0	44	104	304087040	76	21970
2026-01-07 12:26:20.60	300.55	8.31	-52.8	-68.1	3.8	1.49e+00	0	44	104	304087040	76	21957
2026-01-07 12:26:21.60	300.71	8.28	-52.8	-68.1	3.8	1.49e+00	0	44	104	304087040	76	21985
2026-01-07 12:26:22.61	300.87	8.26	-52.8	-68.1	3.8	1.49e+00	0	44	104	304087040	76	21952
2026-01-07 12:26:23.61	301.04	8.23	-52.8	-68.1	3.8	1.49e+00	0	44	104	304087040	76	21956
2026-01-07 12:26:24.62	301.20	8.21	-52.7	-68.1	3.8	1.49e+00	0	44	104	304087040	76	21970
2026-01-07 12:26:25.62	301.36	8.18	-52.8	-68.1	3.8	1.49e+00	0	44	104	304087040	76	21886
2026-01-07 12:26:26.63	301.52	8.16	-52.8	-68.1	3.8	1.49e+00	0	44	104	304087040	76	21961
2026-01-07 12:26:27.63	301.68	8.13	-52.8	-68.1	3.8	1.49e+00	0	44	104	304087040	76	21988
2026-01-07 12:26:28.63	301.84	8.11	-52.8	-68.1	3.8	1.49e+00	0	44	104	304087040	76	21882
2026-01-07 12:26:29.64	302.00	8.08	-52.8	-68.1	3.8	1.49e+00	0	44	104	304087040	76	21894
2026-01-07 12:26:30.64	302.16	8.06	-52.8	-68.1	3.8	1.49e+00	0	44	104	304087040	76	21950
2026-01-07 12:26:31.65	302.32	8.03	-52.8	-68.1	3.8	1.49e+00	0	44	104	304087040	76	21915
2026-01-07 12:26:32.65	302.48	8.01	-52.8	-68.2	3.8	1.49e+00	0	44	104	304087040	76	22025
2026-01-07 12:26:33.66	302.64	7.98	-52.8	-68.1	3.8	1.49e+00	0	44	104	304087040	76	21940
2026-01-07 12:26:34.66	302.80	7.95	-52.7	-68.1	3.8	1.49e+00	0	44	104	304087040	76	21919
2026-01-07 12:26:35.67	302.95	7.93	-52.8	-68.1	3.8	1.49e+00	0	44	104	304087040	76	21981
2026-01-07 12:26:36.67	303.11	7.90	-52.8	-68.1	3.8	1.49e+00	0	44	104	304087040	76	21973
2026-01-07 12:26:37.68	303.27	7.87	-52.8	-68.1	3.8	1.49e+00	0	44	104	304087040	76	21910
2026-01-07 12:26:38.68	303.43	7.85	-52.8	-68.1	3.8	1.49e+00	0	44	104	304087040	76	21963
2026-01-07 12:26:39.69	303.59	7.82	-52.8	-68.1	3.8	1.49e+00	0	44	104	304087040	76	21973
2026-01-07 12:26:40.69	303.74	7.79	-52.8	-68.2	3.8	1.49e+00	0	44	104	304087040	76	22024
2026-01-07 12:26:41.70	303.90	7.77	-52.8	-68.1	3.8	1.49e+00	0	44	104	304087040	76	21976
2026-01-07 12:26:42.70	304.06	7.74	-52.8	-68.1	3.8	1.49e+00	0	44	104	304087040	76	21964
2026-01-07 12:26:43.70	304.21	7.71	-52.8	-68.1	3.8	1.49e+00	0	44	104	304087040	76	21917
2026-01-07 12:26:44.71	304.37	7.68	-52.8	-68.1	3.8	1.49e+00	0	44	104	304087040	76	21952
2026-01-07 12:26:45.71	304.52	7.66	-52.8	-68.1	3.8	1.49e+00	0	44	104	304087040	76	22004
2026-01-07 12:26:46.71	304.68	7.63	-52.8	-68.1	3.8	1.49e+00	0	44	104	304087040	76	21986
2026-01-07 12:26:47.72	304.83	7.60	-52.8	-68.1	3.8	1.49e+00	0	44	104	304087040	76	21929
2026-01-07 12:26:48.72	304.99	7.57	-52.8	-68.2	3.8	1.49e+00	0	44	104	304087040	76	22042
2026-01-07 12:26:49.73	305.14	7.54	-52.8	-68.1	3.8	1.49e+00	0	44	104	304087040	76	22003
2026-01-07 12:26:50.73	305.30	7.52	-52.8	-68.2	3.8	1.49e+00	0	44	104	304087040	76	22054
2026-01-07 12:26:51.74	305.45	7.49	-52.8	-68.1	3.8	1.49e+00	0	44	104	304087040	76	21892
2026-01-07 12:26:52.74	305.60	7.46	-52.8	-68.1	3.8	1.49e+00	0	44	104	304087040	76	21997
2026-01-07 12:26:53.75	305.76	7.43	-52.8	-68.1	3.8	1.49e+00	0	44	104	304087040	76	21925
2026-01-07 12:26:54.75	305.91	7.40	-52.8	-68.1	3.8	1.49e+00	0	44	104	304087040	76	21927
2026-01-07 12:26:55.75	306.06	7.37	-52.8	-68.1	3.8	1.49e+00	0	44	104	304087040	76	21959
2026-01-07 12:26:56.76	306.21	7.34	-52.8	-68.1	3.8	1.49e+00	0	44	104	304087040	76	21874
2026-01-07 12:26:57.77	306.37	7.31	-52.8	-68.1	3.8	1.49e+00	0	44	104	304087040	76	21903
2026-01-07 12:26:58.77	306.52	7.28	-52.7	-68.1	3.8	1.49e+00	0	44	104	304087040	76	21992
2026-01-07 12:26:59.77	306.67	7.25	-52.7	-68.1	3.8	1.49e+00	0	44	104	304087040	76	21917
2026-01-07 12:27:00.78	306.82	7.22	-52.8	-68.1	3.8	1.49e+00	0	44	104	304087040	76	21924
2026-01-07 12:27:01.78	306.97	7.19	-52.8	-68.1	3.8	1.49e+00	0	44	104	304087040	76	22001
2026-01-07 12:27:02.78	307.12	7.16	-52.8	-68.1	3.8	1.49e+00	0	44	104	304087040	76	21863
2026-01-07 12:27:03.79	307.27	7.13	-52.8	-68.1	3.8	1.49e+00	0	44	104	304087040	76	21896
2026-01-07 12:27:04.79	307.42	7.10	-52.8	-68.1	3.8	1.49e+00	0	44	104	304087040	76	21933
2026-01-07 12:27:05.80	307.57	7.07	-52.8	-68.1	3.8	1.49e+00	0	44	104	304087040	76	21963
2026-01-07 12:27:06.80	307.72	7.04	-52.8	-68.2	3.8	1.49e+00	0	44	104	304087040	76	22012
2026-01-07 12:27:07.80	307.87	7.01	-52.8	-68.2	3.8	1.49e+00	0	44	104	304087040	76	22014
2026-01-07 12:27:08.81	308.02	6.98	-52.8	-68.1	3.8	1.49e+00	0	44	104	304087040	76	21933
2026-01-07 12:27:09.81	308.17	6.95	-52.8	-68.2	3.8	1.49e+00	0	44	104	304087040	76	22045
2026-01-07 12:27:10.82	308.31	6.92	-52.8	-68.1	3.8	1.49e+00	0	44	104	304087040	76	21957
2026-01-07 12:27:11.82	308.46	6.88	-52.8	-68.1	3.8	1.49e+00	0	44	104	304087040	76	21960
2026-01-07 12:27:12.83	308.61	6.85	-52.8	-68.1	3.8	1.49e+00	0	44	104	304087040	76	21979
2026-01-07 12:27:13.83	308.76	6.82	-52.8	-68.1	3.8	1.49e+00	0	44	104	304087040	76	21983
2026-01-07 12:27:14.84	308.90	6.79	-52.8	-68.1	3.8	1.49e+00	0	44	104	304087040	76	21931
2026-01-07 12:27:15.84	309.05	6.76	-52.8	-68.1	3.8	1.49e+00	0	44	104	304087040	76	21975
2026-01-07 12:27:16.84	309.19	6.73	-52.8	-68.1	3.8	1.49e+00	0	44	104	304087040	76	21948
2026-01-07 12:27:17.85	309.34	6.69	-52.8	-68.1	3.8	1.49e+00	0	44	104	304087040	76	21923
2026-01-07 12:27:18.86	309.49	6.66	-52.8	-68.1	3.8	1.49e+00	0	44	104	304087040	76	21986
2026-01-07 12:27:19.86	309.63	6.63	-52.8	-68.1	3.8	1.49e+00	0	44	104	304087040	76	21971
2026-01-07 12:27:20.86	309.78	6.60	-52.8	-68.1	3.8	1.49e+00	0	44	104	304087040	76	21986
2026-01-07 12:27:21.87	309.92	6.56	-52.8	-68.1	3.8	1.49e+00	0	44	104	304087040	76	21920
2026-01-07 12:27:22.87	310.07	6.53	-52.8	-68.1	3.8	1.49e+00	0	44	104	304087040	76	21980
2026-01-07 12:27:23.87	310.21	6.50	-52.8	-68.1	3.8	1.49e+00	0	44	104	304087040	76	21949
2026-01-07 12:27:24.88	310.35	6.47	-52.8	-68.1	3.8	1.49e+00	0	44	104	304087040	76	21998
2026-01-07 12:27:25.88	310.50	6.43	-52.7	-68.1	3.8	1.49e+00	0	44	104	304087040	76	21959
2026-01-07 12:27:26.89	310.64	6.40	-52.8	-68.1	3.8	1.49e+00	0	44	104	304087040	76	22004
2026-01-07 12:27:27.89	310.78	6.37	-52.8	-68.1	3.8	1.49e+00	0	44	104	304087040	76	21912
2026-01-07 12:27:28.89	310.92	6.33	-52.8	-68.1	3.8	1.49e+00	0	44	104	304087040	76	21995
2026-01-07 12:27:29.90	311.07	6.30	-52.8	-68.1	3.8	1.49e+00	0	44	104	304087040	76	21943
2026-01-07 12:27:30.91	311.21	6.27	-52.8	-68.1	3.8	1.49e+00	0	44	104	304087040	76	21920
2026-01-07 12:27:31.91	311.35	6.23	-52.8	-68.1	3.8	1.49e+00	0	44	104	304087040	76	21911
2026-01-07 12:27:32.91	311.49	6.20	-52.8	-68.1	3.8	1.49e+00	0	44	104	304087040	76	21892
2026-01-07 12:27:33.92	311.63	6.17	-52.8	-68.1	3.8	1.49e+00	0	44	104	304087040	76	21998
2026-01-07 12:27:34.92	311.77	6.13	-52.8	-68.1	3.8	1.49e+00	0	44	104	304087040	76	21869
2026-01-07 12:27:35.92	311.91	6.10	-52.8	-68.1	3.8	1.49e+00	0	44	104	304087040	76	21963
2026-01-07 12:27:36.93	312.05	6.06	-52.7	-68.1	3.8	1.49e+00	0	44	104	304087040	76	21949
2026-01-07 12:27:37.93	312.19	6.03	-52.8	-68.1	3.8	1.49e+00	0	44	104	304087040	76	21951
2026-01-07 12:27:38.94	312.33	6.00	-52.7	-68.1	3.8	1.49e+00	0	44	104	304087040	76	21913
2026-01-07 12:27:39.94	312.47	5.96	-52.8	-68.1	3.8	1.49e+00	0	44	104	304087040	76	21990
2026-01-07 12:27:40.95	312.61	5.93	-52.8	-68.1	3.8	1.49e+00	0	44	104	304087040	76	21964
2026-01-07 12:27:41.95	312.75	5.89	-52.8	-68.1	3.8	1.49e+00	0	44	104	304087040	76	21948
2026-01-07 12:27:42.95	312.88	5.86	-52.8	-68.1	3.8	1.49e+00	0	44	104	304087040	76	21952
2026-01-07 12:27:43.96	313.02	5.82	-52.8	-68.1	3.8	1.49e+00	0	44	104	304087040	76	21934
2026-01-07 12:27:44.96	313.16	5.79	-52.8	-68.1	3.8	1.49e+00	0	44	104	304087040	76	21872
2026-01-07 12:27:45.97	313.30	5.75	-52.8	-68.1	3.8	1.49e+00	0	44	104	304087040	76	21969
2026-01-07 12:27:46.97	313.43	5.72	-52.8	-68.1	3.8	1.49e+00	0	44	104	304087040	76	21910
2026-01-07 12:27:47.98	313.57	5.68	-52.8	-68.1	3.8	1.49e+00	0	44	104	304087040	76	21990
2026-01-07 12:27:48.98	313.70	5.65	-52.8	-68.1	3.8	1.49e+00	0	44	104	304087040	76	21982
2026-01-07 12:27:49.98	313.84	5.61	-52.8	-68.1	3.8	1.49e+00	0	44	104	304087040	76	21946
2026-01-07 12:27:50.99	313.98	5.58	-52.8	-68.1	3.8	1.49e+00	0	44	104	304087040	76	21982
2026-01-07 12:27:51.99	314.11	5.54	-52.8	-68.1	3.8	1.49e+00	0	44	104	304087040	76	21938
2026-01-07 12:27:53.00	314.25	5.51	-52.8	-68.1	3.8	1.49e+00	0	44	104	304087040	76	21965
2026-01-07 12:27:54.00	314.38	5.47	-52.8	-68.1	3.8	1.49e+00	0	44	104	304087040	76	21915
2026-01-07 12:27:55.01	314.52	5.44	-52.8	-68.1	3.8	1.49e+00	0	44	104	304087040	76	21874
2026-01-07 12:27:56.01	314.65	5.40	-52.8	-68.1	3.8	1.49e+00	0	44	104	304087040	76	21915
2026-01-07 12:27:57.02	314.78	5.36	-52.8	-68.1	3.8	1.49e+00	0	44	104	304087040	76	22005
2026-01-07 12:27:58.02	314.92	5.33	-52.8	-68.1	3.8	1.49e+00	0	44	104	304087040	76	21982
2026-01-07 12:27:59.02	315.05	5.29	-52.8	-68.1	3.8	1.49e+00	0	44	104	304087040	76	21973
2026-01-07 12:28:00.03	315.18	5.26	-52.8	-68.1	3.8	1.49e+00	0	44	104	304087040	76	21980
2026-01-07 12:28:01.03	315.31	5.22	-52.8	-68.1	3.8	1.49e+00	0	44	104	304087040	76	22004
2026-01-07 12:28:02.04	315.45	5.18	-52.8	-68.1	3.8	1.49e+00	0	44	104	304087040	76	21930
2026-01-07 12:28:03.04	315.58	5.15	-52.8	-68.1	3.8	1.49e+00	0	44	104	304087040	76	22001
2026-01-07 12:28:04.05	315.71	5.11	-52.8	-68.1	3.8	1.49e+00	0	44	104	304087040	76	21958
2026-01-07 12:28:05.05	315.84	5.08	-52.8	-68.1	3.8	1.49e+00	0	44	104	304087040	76	21945
2026-01-07 12:28:06.05	315.97	5.04	-52.8	-68.1	3.8	1.49e+00	0	44	104	304087040	76	21895
2026-01-07 12:28:07.06	316.10	5.00	-52.8	-68.1	3.8	1.49e+00	0	44	104	304087040	76	21972

#Closed at: 2026-01-07 12:28:08
#Recorded file [304 MB]: D:/Data/31040_260107_152056.dat