passes_logs/2026/01/07/T1/T1__20260107_144243_FENGYUN_3E_rec.log

#Pass ID: 20260107_144243_FENGYUN 3E
#Satellite: FENGYUN 3E
#Configuration: FENGYUN 3E
#almurnet v.1.7.20251203
#Start time: 2026-01-07 14:42:43

#Version: 2.0.20230620
#Station: T1
#Location: 37.570604 lon 55.790049 lat
#TLE: 1 49008U 21062A   26006.26767912  .00000427  00000+0  22170-3 0  9993
#TLE: 2 49008  98.7475  11.4982 0001602 156.1158 204.0093 14.19885456233607

#Time	Az	El	Level	Level2	SNR	BER	BlckErr	Temp	State	Recorded	gain1	gain2
2026-01-07 14:42:43.99	176.21	5.04	-53.1	-64.2	3.8	8.48e-01	0	40	0	0	76	13095
2026-01-07 14:42:44.99	176.24	5.11	-52.0	-63.0	3.8	8.46e-01	0	40	104	0	74	12672
2026-01-07 14:42:45.99	176.27	5.18	-52.0	-62.9	3.8	8.47e-01	0	40	104	0	74	12578
2026-01-07 14:42:47.00	176.30	5.26	-51.9	-63.0	3.8	8.47e-01	0	41	104	0	74	12678
2026-01-07 14:42:48.00	176.33	5.33	-52.0	-62.9	3.8	8.48e-01	0	40	104	0	74	12535
2026-01-07 14:42:49.01	176.36	5.40	-52.0	-62.9	3.8	8.47e-01	0	41	104	0	74	12569
2026-01-07 14:42:50.01	176.39	5.47	-51.9	-62.9	3.8	8.46e-01	0	41	104	0	74	12566
2026-01-07 14:42:51.02	176.42	5.54	-51.9	-62.9	3.8	8.47e-01	0	41	104	0	74	12559
2026-01-07 14:42:52.02	176.45	5.61	-52.0	-63.0	3.8	8.46e-01	0	41	104	0	74	12674
2026-01-07 14:42:53.02	176.48	5.69	-52.0	-63.0	3.8	8.46e-01	0	41	104	0	74	12769
2026-01-07 14:42:54.03	176.51	5.76	-52.0	-63.1	3.8	8.47e-01	0	41	104	0	74	12845
2026-01-07 14:42:55.03	176.54	5.83	-52.0	-63.1	3.8	8.46e-01	0	41	104	0	74	12865
2026-01-07 14:42:56.04	176.57	5.91	-52.0	-63.2	3.8	8.47e-01	0	41	104	0	74	12984
2026-01-07 14:42:57.04	176.60	5.98	-52.0	-63.3	3.8	8.46e-01	0	41	104	0	74	13129
2026-01-07 14:42:58.05	176.64	6.05	-52.0	-63.3	3.8	8.47e-01	0	41	104	0	74	13143
2026-01-07 14:42:59.05	176.67	6.13	-52.0	-63.3	3.8	8.46e-01	0	41	104	0	74	13164
2026-01-07 14:43:00.06	176.70	6.20	-52.0	-63.3	3.8	8.47e-01	0	41	104	0	74	13133
2026-01-07 14:43:01.06	176.73	6.27	-52.0	-63.1	3.8	8.46e-01	0	41	104	0	74	12897
2026-01-07 14:43:02.06	176.76	6.35	-51.9	-62.9	3.8	8.46e-01	0	41	104	0	74	12623
2026-01-07 14:43:03.07	176.79	6.42	-51.9	-62.5	3.8	8.47e-01	0	41	104	0	74	12087
2026-01-07 14:43:04.07	176.83	6.50	-51.8	-62.1	3.8	8.47e-01	0	41	104	0	74	11513
2026-01-07 14:43:05.08	176.86	6.57	-51.8	-61.7	3.8	8.46e-01	0	41	104	0	74	10961
2026-01-07 14:43:06.08	176.89	6.65	-51.7	-61.3	3.8	8.45e-01	0	41	104	0	74	10416
2026-01-07 14:43:07.08	176.92	6.72	-51.7	-60.9	4.0	8.44e-01	0	41	104	0	74	10043
2026-01-07 14:43:08.09	176.96	6.80	-51.6	-60.6	4.1	8.42e-01	0	41	0	0	74	9682
2026-01-07 14:43:09.09	176.99	6.87	-51.6	-60.5	4.1	8.40e-01	0	42	0	0	74	9533
2026-01-07 14:43:10.10	177.02	6.95	-51.5	-60.1	4.2	8.37e-01	0	42	0	0	73	9690
2026-01-07 14:43:11.10	177.06	7.03	-51.4	-59.3	4.5	8.25e-01	0	41	0	0	73	8796
2026-01-07 14:43:12.10	177.09	7.10	-51.2	-58.3	5.0	7.99e-01	0	42	0	0	73	7853
2026-01-07 14:43:13.11	177.13	7.18	-50.8	-56.8	5.9	5.19e-01	0	42	0	0	72	7037
2026-01-07 14:43:14.11	177.16	7.26	-50.3	-55.3	7.2	1.81e-01	0	41	0	7340032	71	6272
2026-01-07 14:43:15.12	177.19	7.33	-49.5	-53.5	9.1	5.44e-02	0	42	0	14680064	69	5688
2026-01-07 14:43:16.12	177.23	7.41	-48.8	-52.3	10.3	7.04e-03	0	42	0	22020096	68	5232
2026-01-07 14:43:17.13	177.26	7.49	-47.9	-50.8	11.7	1.31e-03	0	41	0	29360128	66	4980
2026-01-07 14:43:18.13	177.30	7.57	-47.2	-49.8	12.7	8.46e-05	0	42	0	36700160	65	4680
2026-01-07 14:43:19.14	177.33	7.64	-46.5	-48.8	13.7	1.25e-05	0	42	0	44040192	63	4678
2026-01-07 14:43:20.14	177.37	7.72	-46.0	-48.2	14.4	0.00e+00	0	42	0	51380224	62	4620
2026-01-07 14:43:21.14	177.40	7.80	-45.6	-47.7	14.9	0.00e+00	0	41	0	58720256	62	4342
2026-01-07 14:43:22.15	177.44	7.88	-45.1	-47.1	15.5	0.00e+00	0	42	0	66060288	61	4306
2026-01-07 14:43:23.15	177.47	7.96	-45.2	-47.2	15.4	0.00e+00	0	42	0	73400320	61	4361
2026-01-07 14:43:24.16	177.51	8.04	-45.1	-47.0	15.5	0.00e+00	0	42	0	80740352	60	4542
2026-01-07 14:43:25.16	177.54	8.12	-45.2	-47.2	15.4	0.00e+00	0	42	0	87031808	60	4619
2026-01-07 14:43:26.17	177.58	8.20	-45.6	-47.7	14.9	0.00e+00	0	42	0	94371840	60	4888
2026-01-07 14:43:27.17	177.62	8.28	-45.9	-48.1	14.5	0.00e+00	0	42	0	101711872	61	4841
2026-01-07 14:43:28.18	177.65	8.36	-46.7	-49.1	13.5	1.25e-05	0	42	0	109051904	62	5105
2026-01-07 14:43:29.18	177.69	8.44	-47.2	-49.8	12.9	5.37e-05	0	42	0	116391936	63	5222
2026-01-07 14:43:30.18	177.73	8.52	-47.9	-50.8	11.7	5.06e-04	0	42	0	123731968	65	5260
2026-01-07 14:43:31.19	177.76	8.60	-48.6	-52.0	10.5	3.25e-03	0	42	0	131072000	66	5679
2026-01-07 14:43:32.19	177.80	8.68	-49.6	-53.7	8.9	2.65e-02	0	42	0	138412032	68	6165
2026-01-07 14:43:33.20	177.84	8.76	-50.3	-55.3	7.3	9.00e-02	0	42	0	145752064	69	6984
2026-01-07 14:43:34.20	177.88	8.84	-50.7	-56.6	6.2	2.35e-01	0	42	0	153092096	70	7658
2026-01-07 14:43:35.21	177.91	8.93	-51.1	-58.1	5.1	7.29e-01	0	42	0	157286400	71	8572
2026-01-07 14:43:36.21	177.95	9.01	-51.3	-59.1	4.5	8.08e-01	0	42	0	157286400	72	9149
2026-01-07 14:43:37.21	177.99	9.09	-51.5	-60.1	4.2	8.35e-01	0	42	0	157286400	72	10284
2026-01-07 14:43:38.30	178.03	9.18	-51.4	-58.6	4.8	8.16e-01	0	42	0	157286400	72	8574
2026-01-07 14:43:39.20	178.07	9.25	-50.0	-54.3	8.4	1.65e-02	0	42	0	162529280	69	6218
2026-01-07 14:43:40.40	178.11	9.35	-51.8	-62.2	3.8	8.47e-01	0	42	104	164626432	73	12260
2026-01-07 14:43:41.26	178.14	9.43	-51.3	-57.8	5.2	7.80e-01	0	42	0	164626432	73	7430
2026-01-07 14:43:42.59	178.20	9.54	-50.7	-56.0	6.7	2.38e-01	0	42	0	171966464	72	6384
2026-01-07 14:43:43.31	178.22	9.60	-50.6	-55.8	6.8	2.03e-01	0	42	0	177209344	72	6249
2026-01-07 14:43:44.60	178.28	9.71	-50.2	-54.9	7.7	1.22e-01	0	42	0	186646528	71	5947
2026-01-07 14:43:45.31	178.30	9.77	-49.5	-53.4	9.2	3.59e-02	0	42	0	191889408	69	5654
2026-01-07 14:43:46.60	178.36	9.87	-48.8	-52.3	10.3	7.78e-03	0	42	0	201326592	68	5234
2026-01-07 14:43:47.32	178.38	9.94	-48.9	-52.4	10.3	8.99e-03	0	42	0	205520896	68	5301
2026-01-07 14:43:48.99	178.45	10.08	-49.1	-52.9	9.5	5.12e-03	0	42	0	218103808	67	5962
2026-01-07 14:43:49.56	178.47	10.13	-49.1	-53.0	9.6	7.56e-03	0	42	0	222298112	67	6020
2026-01-07 14:43:51.14	178.54	10.26	-48.2	-51.5	11.1	3.50e-03	0	42	0	233832448	67	5050
2026-01-07 14:43:51.96	178.57	10.33	-47.4	-50.2	12.4	1.73e-04	0	43	0	239075328	65	4902
2026-01-07 14:43:53.11	178.62	10.43	-47.1	-49.7	12.8	5.95e-05	0	42	0	247463936	64	4898
2026-01-07 14:43:53.97	178.66	10.51	-46.8	-49.4	13.2	1.18e-03	0	42	0	253755392	64	4727
2026-01-07 14:43:55.12	178.70	10.61	-46.6	-49.0	13.7	5.70e-06	0	42	0	262144000	63	4787
2026-01-07 14:43:55.98	178.74	10.68	-46.4	-48.7	14.1	0.00e+00	0	42	0	268435456	63	4613
2026-01-07 14:43:57.12	178.79	10.78	-46.4	-48.7	14.1	3.40e-06	0	43	0	276824064	63	4601
2026-01-07 14:43:57.98	178.82	10.86	-46.4	-48.7	14.0	1.10e-06	0	43	0	283115520	63	4645
2026-01-07 14:43:59.19	178.88	10.96	-46.1	-48.3	14.5	0.00e+00	0	43	0	291504128	62	4656
2026-01-07 14:44:00.05	178.91	11.04	-46.1	-48.2	14.5	1.10e-06	0	43	0	297795584	62	4631
2026-01-07 14:44:01.20	178.96	11.14	-44.6	-46.3	16.2	0.00e+00	0	43	0	306184192	59	4430
2026-01-07 14:44:02.06	179.00	11.22	-43.7	-45.3	17.1	0.00e+00	0	43	0	312475648	58	4178
2026-01-07 14:44:03.20	179.05	11.32	-44.0	-45.6	16.9	0.00e+00	0	43	0	320864256	58	4299
2026-01-07 14:44:04.06	179.09	11.40	-43.6	-45.1	17.3	0.00e+00	0	43	0	327155712	57	4333
2026-01-07 14:44:05.42	179.15	11.52	-43.8	-45.4	17.1	0.00e+00	0	43	0	336592896	57	4462
2026-01-07 14:44:06.13	179.18	11.59	-43.5	-45.1	17.4	0.00e+00	0	43	0	341835776	57	4298
2026-01-07 14:44:07.42	179.24	11.70	-42.5	-44.0	18.2	0.00e+00	0	42	0	351272960	55	4255
2026-01-07 14:44:08.14	179.27	11.77	-42.4	-43.9	18.3	0.00e+00	0	42	0	356515840	55	4204
2026-01-07 14:44:09.43	179.33	11.89	-42.2	-43.7	18.5	0.00e+00	0	43	0	365953024	55	4114
2026-01-07 14:44:10.16	179.36	11.95	-42.0	-43.4	18.8	0.00e+00	0	42	0	371195904	54	4216
2026-01-07 14:44:11.77	179.44	12.10	-42.0	-43.5	18.7	0.00e+00	0	43	0	382730240	54	4250
2026-01-07 14:44:12.34	179.46	12.16	-42.1	-43.6	18.6	0.00e+00	0	43	0	386924544	54	4300
2026-01-07 14:44:13.92	179.54	12.30	-41.6	-43.0	19.1	0.00e+00	0	43	0	398458880	53	4271
2026-01-07 14:44:14.49	179.56	12.36	-41.6	-43.0	19.1	0.00e+00	0	43	0	401604608	53	4287
2026-01-07 14:44:16.10	179.64	12.51	-41.6	-43.0	19.1	0.00e+00	0	42	0	414187520	53	4251
2026-01-07 14:44:16.77	179.67	12.57	-41.5	-42.9	19.2	0.00e+00	0	43	0	418381824	53	4235
2026-01-07 14:44:18.20	179.74	12.71	-41.5	-42.9	19.2	0.00e+00	0	43	0	428867584	53	4212
2026-01-07 14:44:19.00	179.78	12.78	-41.4	-42.8	19.3	0.00e+00	0	43	0	435159040	53	4189
2026-01-07 14:44:20.14	179.83	12.89	-41.4	-42.8	19.3	0.00e+00	0	43	0	443547648	53	4169
2026-01-07 14:44:21.00	179.87	12.97	-41.3	-42.7	19.4	0.00e+00	0	43	0	448790528	53	4139
2026-01-07 14:44:22.15	179.93	13.08	-41.2	-42.6	19.4	0.00e+00	0	43	0	457179136	53	4091
2026-01-07 14:44:23.31	179.99	13.19	-41.1	-42.6	19.5	0.00e+00	0	43	0	465567744	53	4054
2026-01-07 14:44:24.34	180.04	13.29	-41.2	-42.6	19.5	0.00e+00	0	43	0	473956352	53	4071
2026-01-07 14:44:25.34	180.09	13.39	-41.1	-42.5	19.5	0.00e+00	0	43	0	480247808	53	4050
2026-01-07 14:44:26.57	180.15	13.51	-41.1	-42.5	19.6	0.00e+00	0	43	0	489684992	53	4018
2026-01-07 14:44:27.42	180.19	13.59	-41.1	-42.5	19.5	0.00e+00	0	43	0	495976448	52	4287
2026-01-07 14:44:28.57	180.25	13.71	-41.0	-42.4	19.6	0.00e+00	0	43	0	503316480	52	4223
2026-01-07 14:44:29.44	180.29	13.79	-41.0	-42.4	19.6	0.00e+00	0	43	0	509607936	52	4229
2026-01-07 14:44:30.90	180.37	13.94	-40.9	-42.3	19.7	0.00e+00	0	43	0	521142272	52	4168
2026-01-07 14:44:31.62	180.41	14.01	-41.0	-42.3	19.7	0.00e+00	0	43	0	525336576	52	4178
2026-01-07 14:44:32.91	180.47	14.14	-40.8	-42.1	19.8	0.00e+00	0	43	0	534773760	52	4092
2026-01-07 14:44:33.62	180.51	14.21	-40.7	-42.0	19.9	0.00e+00	0	43	0	540016640	52	4045
2026-01-07 14:44:35.15	180.59	14.36	-40.7	-42.1	19.9	0.00e+00	0	43	0	551550976	52	4056
2026-01-07 14:44:35.87	180.63	14.44	-40.8	-42.1	19.9	0.00e+00	0	43	0	556793856	52	4074
2026-01-07 14:44:37.15	180.70	14.57	-40.7	-42.1	19.9	0.00e+00	0	43	0	566231040	52	4070
2026-01-07 14:44:38.21	180.76	14.68	-40.6	-42.0	20.0	0.00e+00	0	43	0	573571072	52	4029
2026-01-07 14:44:39.44	180.82	14.80	-40.6	-42.0	20.1	0.00e+00	0	43	0	581959680	51	4251
2026-01-07 14:44:40.30	180.87	14.89	-40.8	-42.2	19.9	0.00e+00	0	43	0	588251136	51	4364
2026-01-07 14:44:41.44	180.93	15.01	-40.7	-42.1	19.9	0.00e+00	0	43	0	596639744	51	4312
2026-01-07 14:44:42.30	180.98	15.10	-40.7	-42.1	20.0	0.00e+00	0	43	0	602931200	51	4304
2026-01-07 14:44:43.45	181.05	15.22	-40.7	-42.1	19.9	0.00e+00	0	43	0	611319808	51	4297
2026-01-07 14:44:44.31	181.10	15.31	-40.7	-42.1	20.0	0.00e+00	0	43	0	617611264	51	4300
2026-01-07 14:44:45.46	181.16	15.43	-40.7	-42.1	19.9	0.00e+00	0	43	0	625999872	51	4317
2026-01-07 14:44:46.32	181.21	15.52	-40.7	-42.1	19.9	0.00e+00	0	43	0	632291328	51	4293
2026-01-07 14:44:47.46	181.27	15.64	-40.8	-42.2	19.8	0.00e+00	0	43	0	640679936	51	4380
2026-01-07 14:44:48.32	181.32	15.73	-40.8	-42.2	19.8	0.00e+00	0	43	0	645922816	51	4349
2026-01-07 14:44:49.47	181.39	15.86	-40.8	-42.2	19.7	0.00e+00	0	43	0	654311424	51	4384
2026-01-07 14:44:50.33	181.44	15.95	-40.6	-42.0	20.0	0.00e+00	0	43	0	660602880	51	4271
2026-01-07 14:44:51.60	181.52	16.08	-40.6	-42.0	20.0	0.00e+00	0	43	0	670040064	51	4280
2026-01-07 14:44:52.32	181.56	16.16	-40.6	-42.0	20.0	0.00e+00	0	43	0	675282944	51	4263
2026-01-07 14:44:53.61	181.64	16.30	-40.5	-41.9	20.0	0.00e+00	0	43	0	684720128	51	4226
2026-01-07 14:44:54.33	181.68	16.38	-40.4	-41.8	20.1	0.00e+00	0	43	0	689963008	51	4165
2026-01-07 14:44:55.62	181.76	16.52	-40.5	-41.9	20.0	0.00e+00	0	43	0	699400192	51	4233
2026-01-07 14:44:56.33	181.80	16.60	-40.5	-41.9	20.0	0.00e+00	0	43	0	703594496	51	4235
2026-01-07 14:44:57.62	181.88	16.74	-40.5	-41.9	20.1	0.00e+00	0	43	0	713031680	51	4209
2026-01-07 14:44:58.34	181.93	16.82	-40.5	-41.8	20.0	0.00e+00	0	43	0	718274560	51	4181
2026-01-07 14:44:59.63	182.01	16.97	-40.7	-42.1	19.9	0.00e+00	0	43	0	727711744	51	4292
2026-01-07 14:45:00.60	182.07	17.08	-40.4	-41.7	20.2	0.00e+00	0	43	0	735051776	51	4141
2026-01-07 14:45:01.60	182.13	17.19	-40.3	-41.7	20.2	0.00e+00	0	43	0	742391808	51	4128
2026-01-07 14:45:02.96	182.22	17.34	-40.3	-41.7	20.2	0.00e+00	0	43	0	751828992	51	4127
2026-01-07 14:45:03.70	182.27	17.43	-40.3	-41.6	20.3	0.00e+00	0	43	0	757071872	51	4098
2026-01-07 14:45:04.99	182.35	17.57	-40.0	-41.4	20.5	0.00e+00	0	43	0	766509056	50	4196
2026-01-07 14:45:05.71	182.40	17.66	-40.3	-41.7	20.2	0.00e+00	0	43	0	771751936	50	4352
2026-01-07 14:45:07.00	182.48	17.81	-40.2	-41.6	20.3	0.00e+00	0	43	0	781189120	50	4296
2026-01-07 14:45:07.71	182.53	17.89	-40.2	-41.6	20.3	0.00e+00	0	43	0	786432000	50	4312
2026-01-07 14:45:09.01	182.61	18.04	-40.1	-41.5	20.4	0.00e+00	0	43	0	795869184	50	4267
2026-01-07 14:45:09.72	182.66	18.12	-40.2	-41.6	20.3	0.00e+00	0	43	0	801112064	50	4302
2026-01-07 14:45:11.01	182.75	18.27	-40.0	-41.3	20.5	0.00e+00	0	43	0	810549248	50	4186
2026-01-07 14:45:11.73	182.80	18.36	-40.0	-41.3	20.5	0.00e+00	0	43	0	815792128	50	4184
2026-01-07 14:45:13.06	182.89	18.52	-40.0	-41.3	20.5	0.00e+00	0	43	0	825229312	50	4173
2026-01-07 14:45:14.03	182.96	18.63	-40.1	-41.4	20.5	0.00e+00	0	43	0	831520768	50	4207
2026-01-07 14:45:15.04	183.03	18.75	-39.9	-41.2	20.6	0.00e+00	0	43	0	838860800	50	4130
2026-01-07 14:45:16.04	183.10	18.87	-39.9	-41.2	20.6	0.00e+00	0	43	0	846200832	50	4121
2026-01-07 14:45:17.04	183.17	18.99	-39.7	-41.0	20.8	0.00e+00	0	43	0	853540864	50	4020
2026-01-07 14:45:18.05	183.24	19.11	-39.8	-41.1	20.7	0.00e+00	0	43	0	860880896	50	4095
2026-01-07 14:45:19.05	183.31	19.24	-39.9	-41.2	20.7	0.00e+00	0	43	0	868220928	50	4119
2026-01-07 14:45:20.05	183.39	19.36	-39.9	-41.2	20.7	0.00e+00	0	43	0	875560960	50	4112
2026-01-07 14:45:21.06	183.46	19.48	-40.0	-41.3	20.5	0.00e+00	0	43	0	882900992	50	4173
2026-01-07 14:45:22.06	183.53	19.61	-39.8	-41.2	20.7	0.00e+00	0	43	0	890241024	50	4109
2026-01-07 14:45:23.16	183.62	19.74	-39.8	-41.1	20.7	0.00e+00	0	43	0	897581056	50	4091
2026-01-07 14:45:24.05	183.68	19.85	-39.8	-41.1	20.7	0.00e+00	0	43	0	904921088	50	4088
2026-01-07 14:45:25.28	183.77	20.01	-39.8	-41.1	20.8	0.00e+00	0	43	0	913309696	50	4065
2026-01-07 14:45:26.14	183.84	20.12	-40.0	-41.3	20.6	0.00e+00	0	43	0	919601152	50	4166
2026-01-07 14:45:27.28	183.93	20.26	-39.9	-41.2	20.7	0.00e+00	0	43	0	927989760	50	4135
2026-01-07 14:45:28.20	184.00	20.38	-39.8	-41.1	20.8	0.00e+00	0	43	0	934281216	50	4074
2026-01-07 14:45:29.38	184.09	20.53	-39.8	-41.1	20.7	0.00e+00	0	43	0	942669824	50	4098
2026-01-07 14:45:30.24	184.16	20.64	-39.8	-41.1	20.8	0.00e+00	0	43	0	948961280	50	4090
2026-01-07 14:45:31.61	184.27	20.81	-40.0	-41.3	20.6	0.00e+00	0	43	0	959447040	50	4190
2026-01-07 14:45:32.33	184.32	20.91	-40.1	-41.4	20.6	0.00e+00	0	43	0	963641344	50	4234
2026-01-07 14:45:33.84	184.45	21.10	-40.1	-41.4	20.6	0.00e+00	0	43	0	975175680	50	4209
2026-01-07 14:45:34.56	184.50	21.20	-40.0	-41.3	20.6	0.00e+00	0	43	0	980418560	50	4179
2026-01-07 14:45:35.85	184.61	21.37	-40.1	-41.4	20.6	0.00e+00	0	43	0	989855744	50	4199
2026-01-07 14:45:36.56	184.67	21.46	-40.2	-41.6	20.4	0.00e+00	0	43	0	995098624	50	4293
2026-01-07 14:45:37.85	184.78	21.63	-40.0	-41.3	20.7	0.00e+00	0	43	0	1004535808	50	4157
2026-01-07 14:45:38.57	184.84	21.73	-40.0	-41.3	20.7	0.00e+00	0	43	0	1008730112	50	4156
2026-01-07 14:45:39.86	184.95	21.90	-40.0	-41.3	20.6	0.00e+00	0	43	0	1018167296	50	4167
2026-01-07 14:45:40.58	185.01	22.00	-40.0	-41.3	20.7	0.00e+00	0	43	0	1023410176	50	4146
2026-01-07 14:45:41.87	185.12	22.17	-39.8	-41.1	20.8	0.00e+00	0	43	0	1032847360	50	4087
2026-01-07 14:45:42.59	185.18	22.27	-39.8	-41.1	20.8	0.00e+00	0	43	0	1038090240	50	4082
2026-01-07 14:45:43.87	185.29	22.45	-39.8	-41.1	20.8	0.00e+00	0	43	0	1047527424	50	4057
2026-01-07 14:45:44.59	185.36	22.55	-39.8	-41.1	20.8	0.00e+00	0	43	0	1052770304	50	4068
2026-01-07 14:45:45.88	185.47	22.73	-39.7	-40.9	20.9	0.00e+00	0	43	0	1062207488	50	3995
2026-01-07 14:45:46.60	185.54	22.83	-39.7	-41.0	20.9	0.00e+00	0	43	0	1067450368	50	4017
2026-01-07 14:45:47.89	185.66	23.01	-39.6	-40.9	20.9	0.00e+00	0	43	0	1075838976	49	4216
2026-01-07 14:45:48.61	185.72	23.11	-39.7	-41.0	20.9	0.00e+00	0	43	0	1082130432	49	4250
2026-01-07 14:45:49.90	185.84	23.29	-39.7	-41.0	20.9	0.00e+00	0	43	0	1090519040	49	4249
2026-01-07 14:45:50.61	185.91	23.39	-39.6	-40.8	21.0	0.00e+00	0	43	0	1095761920	49	4177
2026-01-07 14:45:51.90	186.03	23.57	-39.6	-40.9	20.9	0.00e+00	0	43	0	1105199104	49	4219
2026-01-07 14:45:52.62	186.10	23.68	-39.7	-41.0	20.9	0.00e+00	0	43	0	1110441984	49	4247
2026-01-07 14:45:53.91	186.22	23.86	-39.5	-40.7	21.1	0.00e+00	0	43	0	1119879168	49	4126
2026-01-07 14:45:54.62	186.29	23.96	-39.3	-40.5	21.2	0.00e+00	0	43	0	1125122048	49	4029
2026-01-07 14:45:55.91	186.41	24.15	-39.3	-40.5	21.2	0.00e+00	0	43	0	1134559232	49	4043
2026-01-07 14:45:56.63	186.48	24.26	-39.3	-40.5	21.3	0.00e+00	0	43	0	1139802112	49	4018
2026-01-07 14:45:57.92	186.61	24.44	-39.2	-40.5	21.3	0.00e+00	0	43	0	1149239296	48	4244
2026-01-07 14:45:58.64	186.68	24.55	-39.2	-40.4	21.4	0.00e+00	0	43	0	1153433600	48	4219
2026-01-07 14:46:00.25	186.85	24.79	-39.2	-40.5	21.3	0.00e+00	0	43	0	1166016512	48	4258
2026-01-07 14:46:00.82	186.91	24.87	-39.2	-40.5	21.3	0.00e+00	0	43	0	1170210816	48	4263
2026-01-07 14:46:02.40	187.07	25.11	-39.1	-40.4	21.3	0.00e+00	0	43	0	1181745152	48	4206
2026-01-07 14:46:02.97	187.13	25.20	-39.0	-40.3	21.4	0.00e+00	0	43	0	1184890880	48	4161
2026-01-07 14:46:04.56	187.30	25.44	-39.1	-40.3	21.4	0.00e+00	0	43	0	1196425216	48	4186
2026-01-07 14:46:05.14	187.36	25.53	-39.1	-40.4	21.3	0.00e+00	0	43	0	1200619520	48	4209
2026-01-07 14:46:06.76	187.53	25.78	-39.0	-40.3	21.4	0.00e+00	0	43	0	1212153856	48	4178
2026-01-07 14:46:07.33	187.59	25.86	-38.9	-40.2	21.5	0.00e+00	0	43	0	1216348160	48	4107
2026-01-07 14:46:08.91	187.77	26.11	-38.9	-40.2	21.4	0.00e+00	0	43	0	1227882496	48	4139
2026-01-07 14:46:09.52	187.83	26.20	-39.0	-40.3	21.4	0.00e+00	0	43	0	1232076800	48	4171
2026-01-07 14:46:11.09	188.01	26.45	-38.9	-40.2	21.5	0.00e+00	0	43	0	1243611136	48	4130
2026-01-07 14:46:11.68	188.08	26.54	-39.0	-40.3	21.4	0.00e+00	0	43	0	1247805440	48	4161
2026-01-07 14:46:13.26	188.26	26.79	-38.9	-40.2	21.5	0.00e+00	0	43	0	1259339776	48	4105
2026-01-07 14:46:13.86	188.32	26.89	-38.9	-40.2	21.5	0.00e+00	0	43	0	1263534080	48	4138
2026-01-07 14:46:15.44	188.51	27.14	-38.9	-40.2	21.5	0.00e+00	0	43	0	1275068416	48	4141
2026-01-07 14:46:16.01	188.58	27.23	-38.9	-40.1	21.6	0.00e+00	0	43	0	1279262720	48	4095
2026-01-07 14:46:17.72	188.78	27.51	-38.9	-40.1	21.6	0.00e+00	0	43	0	1291845632	48	4081
2026-01-07 14:46:18.29	188.85	27.60	-39.0	-40.2	21.5	0.00e+00	0	43	0	1296039936	48	4145
2026-01-07 14:46:19.87	189.04	27.86	-38.7	-39.9	21.8	0.00e+00	0	43	0	1307574272	48	3992
2026-01-07 14:46:20.47	189.12	27.96	-38.7	-39.9	21.8	0.00e+00	0	43	0	1311768576	48	3998
2026-01-07 14:46:22.04	189.31	28.22	-38.6	-39.8	21.9	0.00e+00	0	43	0	1323302912	48	3928
2026-01-07 14:46:22.62	189.38	28.32	-38.4	-39.6	21.7	0.00e+00	0	43	0	1327497216	47	4065
2026-01-07 14:46:24.21	189.59	28.58	-38.4	-39.6	21.7	0.00e+00	0	43	0	1339031552	46	4301
2026-01-07 14:46:25.05	189.69	28.73	-38.4	-39.6	21.8	0.00e+00	0	43	0	1344274432	46	4308
2026-01-07 14:46:26.20	189.84	28.92	-38.3	-39.5	21.8	0.00e+00	0	43	0	1352663040	46	4289
2026-01-07 14:46:27.06	189.96	29.07	-38.3	-39.5	21.8	0.00e+00	0	43	0	1358954496	46	4291
2026-01-07 14:46:28.22	190.11	29.27	-38.4	-39.6	21.8	0.00e+00	0	43	0	1367343104	46	4307
2026-01-07 14:46:29.08	190.23	29.41	-38.7	-39.9	21.5	0.00e+00	0	43	0	1373634560	46	4480
2026-01-07 14:46:30.31	190.39	29.63	-38.5	-39.7	21.7	0.00e+00	0	43	0	1383071744	46	4378
2026-01-07 14:46:31.16	190.51	29.78	-38.5	-39.7	21.7	0.00e+00	0	43	0	1388314624	46	4364
2026-01-07 14:46:32.31	190.67	29.98	-38.6	-39.8	21.6	0.00e+00	0	43	0	1396703232	46	4429
2026-01-07 14:46:33.17	190.79	30.13	-38.6	-39.8	21.6	0.00e+00	0	43	0	1402994688	46	4436
2026-01-07 14:46:34.32	190.95	30.33	-38.9	-40.3	21.2	0.00e+00	0	43	0	1411383296	47	4399
2026-01-07 14:46:35.18	191.08	30.48	-38.8	-40.1	21.3	0.00e+00	0	43	0	1417674752	47	4330
2026-01-07 14:46:36.32	191.24	30.69	-38.8	-40.1	21.3	0.00e+00	0	43	0	1426063360	47	4337
2026-01-07 14:46:37.18	191.37	30.84	-38.7	-40.0	21.4	0.00e+00	0	43	0	1432354816	47	4284
2026-01-07 14:46:38.33	191.54	31.05	-38.7	-40.0	21.4	0.00e+00	0	43	0	1440743424	47	4270
2026-01-07 14:46:39.19	191.67	31.21	-38.6	-39.9	21.4	0.00e+00	0	43	0	1447034880	47	4219
2026-01-07 14:46:40.34	191.84	31.42	-38.7	-40.1	21.3	0.00e+00	0	43	0	1454374912	47	4314
2026-01-07 14:46:41.20	191.97	31.57	-38.6	-40.0	21.4	0.00e+00	0	43	0	1461714944	47	4263
2026-01-07 14:46:42.35	192.15	31.78	-38.6	-39.9	21.4	0.00e+00	0	43	0	1470103552	47	4239
2026-01-07 14:46:43.21	192.28	31.94	-38.5	-39.8	21.6	0.00e+00	0	43	0	1475346432	47	4163
2026-01-07 14:46:44.35	192.46	32.16	-38.4	-39.7	21.6	0.00e+00	0	43	0	1483735040	47	4137
2026-01-07 14:46:45.21	192.60	32.32	-38.3	-39.6	21.7	0.00e+00	0	43	0	1490026496	47	4074
2026-01-07 14:46:46.36	192.79	32.53	-38.4	-39.7	21.6	0.00e+00	0	43	0	1498415104	47	4145
2026-01-07 14:46:47.22	192.93	32.69	-38.5	-39.8	21.5	0.00e+00	0	43	0	1504706560	47	4186
2026-01-07 14:46:48.44	193.13	32.93	-38.5	-39.8	21.5	0.00e+00	0	43	0	1513095168	47	4176
2026-01-07 14:46:49.30	193.27	33.09	-38.6	-40.0	21.4	0.00e+00	0	43	0	1519386624	47	4251
2026-01-07 14:46:50.45	193.47	33.31	-38.5	-39.8	21.5	0.00e+00	0	43	0	1527775232	47	4163
2026-01-07 14:46:51.31	193.61	33.48	-38.4	-39.7	21.6	0.00e+00	0	43	0	1534066688	47	4124
2026-01-07 14:46:52.46	193.81	33.70	-38.4	-39.7	21.6	0.00e+00	0	43	0	1542455296	47	4129
2026-01-07 14:46:53.32	193.96	33.87	-38.4	-39.7	21.6	0.00e+00	0	43	0	1548746752	47	4117
2026-01-07 14:46:54.45	194.16	34.09	-38.4	-39.7	21.6	0.00e+00	0	43	0	1557135360	47	4127
2026-01-07 14:46:55.31	194.32	34.26	-37.9	-39.1	22.1	0.00e+00	0	43	0	1563426816	46	4075
2026-01-07 14:46:56.46	194.53	34.48	-38.5	-39.8	21.6	0.00e+00	0	43	0	1571815424	46	4398
2026-01-07 14:46:57.31	194.68	34.65	-38.6	-39.9	21.5	0.00e+00	0	43	0	1577058304	46	4460
2026-01-07 14:46:58.46	194.90	34.88	-38.7	-40.0	21.4	0.00e+00	0	43	0	1585446912	46	4505
2026-01-07 14:46:59.32	195.06	35.05	-38.8	-40.1	21.3	0.00e+00	0	43	0	1591738368	47	4333
2026-01-07 14:47:00.46	195.28	35.28	-38.6	-39.9	21.4	0.00e+00	0	43	0	1600126976	47	4213
2026-01-07 14:47:01.33	195.44	35.46	-38.6	-39.9	21.4	0.00e+00	0	43	0	1606418432	47	4220
2026-01-07 14:47:02.47	195.67	35.69	-38.9	-40.1	21.2	0.00e+00	0	44	0	1614807040	47	4339
2026-01-07 14:47:03.33	195.84	35.87	-38.7	-40.0	21.4	0.00e+00	0	43	0	1621098496	47	4264
2026-01-07 14:47:04.57	196.09	36.12	-38.6	-39.9	21.4	0.00e+00	0	43	0	1629487104	47	4222
2026-01-07 14:47:05.43	196.26	36.30	-38.6	-39.9	21.4	0.00e+00	0	43	0	1636827136	47	4210
2026-01-07 14:47:06.57	196.49	36.53	-38.8	-40.0	21.7	0.00e+00	0	44	0	1644167168	48	4018
2026-01-07 14:47:07.43	196.67	36.71	-38.9	-40.2	21.6	0.00e+00	0	43	0	1650458624	48	4099
2026-01-07 14:47:08.58	196.92	36.95	-38.9	-40.2	21.6	0.00e+00	0	43	0	1658847232	48	4120
2026-01-07 14:47:09.49	197.11	37.14	-39.1	-40.4	21.4	0.00e+00	0	43	0	1665138688	48	4231
2026-01-07 14:47:10.49	197.32	37.35	-39.1	-40.5	21.4	0.00e+00	0	43	0	1672478720	48	4245
2026-01-07 14:47:11.50	197.55	37.57	-39.0	-40.3	21.5	0.00e+00	0	43	0	1679818752	48	4167
2026-01-07 14:47:12.74	197.82	37.83	-39.1	-40.4	21.5	0.00e+00	0	43	0	1689255936	48	4221
2026-01-07 14:47:13.59	198.01	38.01	-39.1	-40.4	21.5	0.00e+00	0	43	0	1695547392	48	4205
2026-01-07 14:47:14.98	198.33	38.31	-39.0	-40.2	21.6	0.00e+00	0	43	0	1704984576	48	4132
2026-01-07 14:47:15.69	198.49	38.46	-39.1	-40.3	21.6	0.00e+00	0	43	0	1710227456	48	4186
2026-01-07 14:47:16.99	198.80	38.74	-38.8	-40.1	21.4	0.00e+00	0	43	0	1719664640	47	4298
2026-01-07 14:47:17.70	198.97	38.90	-38.9	-40.2	21.3	0.00e+00	0	43	0	1724907520	47	4363
2026-01-07 14:47:19.26	199.34	39.23	-39.0	-40.3	21.2	0.00e+00	0	43	0	1736441856	47	4427
2026-01-07 14:47:19.97	199.52	39.39	-39.0	-40.4	21.1	0.00e+00	0	43	0	1740636160	47	4463
2026-01-07 14:47:21.33	199.85	39.69	-39.4	-40.8	21.2	0.00e+00	0	43	0	1751121920	48	4399
2026-01-07 14:47:22.04	200.03	39.85	-39.4	-40.7	21.2	0.00e+00	0	43	0	1756364800	48	4391
2026-01-07 14:47:23.33	200.36	40.13	-39.1	-40.4	21.4	0.00e+00	0	43	0	1765801984	48	4229
2026-01-07 14:47:24.05	200.54	40.29	-39.1	-40.4	21.5	0.00e+00	0	44	0	1771044864	48	4201
2026-01-07 14:47:25.48	200.92	40.61	-38.8	-40.0	21.8	0.00e+00	0	43	0	1781530624	48	4027
2026-01-07 14:47:26.20	201.11	40.77	-38.7	-39.8	21.9	0.00e+00	0	43	0	1785724928	48	3958
2026-01-07 14:47:27.48	201.46	41.06	-38.6	-39.9	21.5	0.00e+00	0	43	0	1795162112	47	4200
2026-01-07 14:47:28.20	201.65	41.22	-38.7	-40.0	21.5	0.00e+00	0	43	0	1800404992	47	4267
2026-01-07 14:47:29.49	202.01	41.51	-38.9	-40.2	21.3	0.00e+00	0	43	0	1809842176	47	4367
2026-01-07 14:47:30.21	202.21	41.67	-39.0	-40.4	21.2	0.00e+00	0	43	0	1815085056	47	4455
2026-01-07 14:47:31.50	202.58	41.97	-39.1	-40.5	21.1	0.00e+00	0	43	0	1824522240	47	4500
2026-01-07 14:47:32.22	202.79	42.13	-38.9	-40.2	21.4	0.00e+00	0	43	0	1829765120	47	4355
2026-01-07 14:47:33.51	203.16	42.42	-39.2	-40.4	21.5	0.00e+00	0	43	0	1839202304	48	4232
2026-01-07 14:47:34.22	203.37	42.59	-39.2	-40.4	21.6	0.00e+00	0	44	0	1844445184	48	4211
2026-01-07 14:47:35.51	203.76	42.88	-39.3	-40.5	21.5	0.00e+00	0	43	0	1852833792	48	4275
2026-01-07 14:47:36.22	203.98	43.04	-39.2	-40.5	21.5	0.00e+00	0	44	0	1858076672	48	4256
2026-01-07 14:47:37.51	204.38	43.34	-39.7	-41.0	21.1	0.00e+00	0	43	0	1867513856	48	4529
2026-01-07 14:47:38.23	204.60	43.51	-39.3	-40.5	21.5	0.00e+00	0	43	0	1872756736	48	4260
2026-01-07 14:47:39.55	205.03	43.81	-39.2	-40.5	21.4	0.00e+00	0	43	0	1882193920	48	4247
2026-01-07 14:47:40.53	205.34	44.04	-39.2	-40.4	21.5	0.00e+00	0	43	0	1889533952	48	4224
2026-01-07 14:47:41.53	205.67	44.27	-39.2	-40.4	21.5	0.00e+00	0	44	0	1896873984	48	4233
2026-01-07 14:47:42.53	206.00	44.50	-39.2	-40.4	21.5	0.00e+00	0	44	0	1904214016	48	4242
2026-01-07 14:47:43.54	206.35	44.74	-39.1	-40.4	21.6	0.00e+00	0	43	0	1911554048	48	4203
2026-01-07 14:47:44.54	206.69	44.97	-39.1	-40.3	21.7	0.00e+00	0	43	0	1918894080	48	4169
2026-01-07 14:47:45.55	207.04	45.21	-39.2	-40.4	21.7	0.00e+00	0	43	0	1926234112	48	4199
2026-01-07 14:47:46.55	207.39	45.44	-39.2	-40.4	21.7	0.00e+00	0	44	0	1933574144	48	4196
2026-01-07 14:47:47.56	207.76	45.68	-39.4	-40.6	21.5	0.00e+00	0	43	0	1939865600	48	4299
2026-01-07 14:47:48.56	208.12	45.91	-39.5	-40.7	21.4	0.00e+00	0	44	0	1947205632	48	4369
2026-01-07 14:47:49.73	208.55	46.18	-39.5	-40.8	21.3	0.00e+00	0	43	0	1956642816	48	4395
2026-01-07 14:47:50.62	208.89	46.39	-40.0	-40.9	21.7	0.00e+00	0	43	0	1961885696	49	4200
2026-01-07 14:47:51.76	209.32	46.66	-40.2	-41.0	21.6	0.00e+00	0	44	0	1970274304	49	4283
2026-01-07 14:47:52.62	209.65	46.86	-40.4	-41.3	21.4	0.00e+00	0	44	0	1976565760	50	4166
2026-01-07 14:47:53.77	210.10	47.13	-40.5	-41.4	21.3	0.00e+00	0	43	0	1984954368	50	4209
2026-01-07 14:47:54.63	210.45	47.33	-40.6	-41.5	21.2	0.00e+00	0	43	0	1991245824	50	4264
2026-01-07 14:47:55.78	210.91	47.60	-40.6	-41.5	21.2	0.00e+00	0	44	0	1999634432	50	4250
2026-01-07 14:47:56.64	211.26	47.80	-40.2	-41.1	21.4	0.00e+00	0	43	0	2005925888	50	4084
2026-01-07 14:47:57.79	211.74	48.07	-40.2	-41.1	21.6	0.00e+00	0	44	0	2014314496	50	4054
2026-01-07 14:47:58.65	212.11	48.27	-39.8	-40.7	21.8	0.00e+00	0	43	0	2020605952	50	3879
2026-01-07 14:47:59.79	212.59	48.53	-40.3	-41.1	21.5	0.00e+00	0	43	0	2028994560	50	4094
2026-01-07 14:48:00.65	212.97	48.73	-40.3	-41.2	21.5	0.00e+00	0	44	0	2035286016	50	4102
2026-01-07 14:48:01.85	213.50	49.01	-40.3	-41.2	21.4	0.00e+00	0	43	0	2043674624	50	4129
2026-01-07 14:48:02.71	213.89	49.20	-40.4	-41.3	21.4	0.00e+00	0	43	0	2049966080	50	4147
2026-01-07 14:48:03.93	214.44	49.48	-40.4	-41.3	21.3	0.00e+00	0	43	0	2058354688	50	4191
2026-01-07 14:48:04.79	214.84	49.68	-40.5	-41.4	21.3	0.00e+00	0	44	0	2064646144	50	4198
2026-01-07 14:48:05.99	215.40	49.95	-40.5	-41.4	21.3	0.00e+00	0	43	0	2073034752	50	4196
2026-01-07 14:48:06.85	215.81	50.15	-40.8	-41.7	21.0	0.00e+00	0	43	0	2079326208	51	4122
2026-01-07 14:48:08.08	216.41	50.43	-40.9	-41.8	20.9	0.00e+00	0	44	0	2088763392	51	4173
2026-01-07 14:48:08.94	216.83	50.62	-40.8	-41.7	20.9	0.00e+00	0	43	0	2095054848	51	4141
2026-01-07 14:48:10.08	217.40	50.87	-40.8	-41.7	21.1	0.00e+00	0	43	0	2103443456	51	4101
2026-01-07 14:48:11.42	218.08	51.17	-40.7	-41.6	21.1	0.00e+00	0	43	0	2112880640	51	4068
2026-01-07 14:48:12.14	218.46	51.33	-40.8	-41.7	21.0	0.00e+00	0	43	0	2118123520	51	4117
2026-01-07 14:48:13.42	219.13	51.61	-40.6	-41.5	21.2	0.00e+00	0	43	0	2126512128	51	4027
2026-01-07 14:48:14.14	219.51	51.77	-41.0	-41.9	20.8	0.00e+00	0	43	0	2132803584	51	4230
2026-01-07 14:48:15.43	220.21	52.05	-40.7	-41.6	21.2	0.00e+00	0	43	0	2141192192	51	4052
2026-01-07 14:48:16.15	220.60	52.20	-40.9	-41.8	21.0	0.00e+00	0	43	0	2146435072	51	4165
2026-01-07 14:48:17.44	221.32	52.48	-40.7	-41.6	21.1	0.00e+00	0	43	0	2155872256	51	4093
2026-01-07 14:48:18.15	221.72	52.63	-40.7	-41.6	21.1	0.00e+00	0	43	0	2161115136	51	4096
2026-01-07 14:48:19.44	222.45	52.90	-40.9	-41.8	20.9	0.00e+00	0	43	0	2170552320	51	4183
2026-01-07 14:48:20.16	222.87	53.05	-40.7	-41.6	21.1	0.00e+00	0	43	0	2175795200	51	4091
2026-01-07 14:48:21.45	223.63	53.31	-40.7	-41.6	21.1	0.00e+00	0	43	0	2185232384	51	4079
2026-01-07 14:48:22.16	224.05	53.45	-40.8	-41.7	21.0	0.00e+00	0	43	0	2190475264	51	4131
2026-01-07 14:48:23.45	224.83	53.71	-40.8	-41.7	21.0	0.00e+00	0	43	0	2199912448	51	4099
2026-01-07 14:48:24.17	225.27	53.86	-40.9	-41.8	20.9	0.00e+00	0	43	0	2204106752	51	4183
2026-01-07 14:48:25.46	226.07	54.11	-40.8	-41.7	21.0	0.00e+00	0	43	0	2213543936	51	4118
2026-01-07 14:48:26.17	226.52	54.24	-40.6	-41.5	21.2	0.00e+00	0	44	0	2218786816	51	4038
2026-01-07 14:48:27.46	227.34	54.49	-40.1	-41.0	21.7	0.00e+00	0	43	0	2228224000	51	3795
2026-01-07 14:48:28.18	227.80	54.62	-40.2	-41.1	21.5	0.00e+00	0	44	0	2233466880	51	3848
2026-01-07 14:48:29.47	228.65	54.86	-40.5	-41.3	21.4	0.00e+00	0	43	0	2242904064	51	3951
2026-01-07 14:48:30.19	229.12	54.99	-40.7	-41.6	21.2	0.00e+00	0	44	0	2248146944	51	4057
2026-01-07 14:48:31.59	230.06	55.24	-40.7	-41.6	21.2	0.00e+00	0	43	0	2258632704	51	4057
2026-01-07 14:48:32.30	230.55	55.36	-40.7	-41.6	21.1	0.00e+00	0	43	0	2263875584	51	4095
2026-01-07 14:48:33.67	231.49	55.60	-41.1	-42.0	20.7	0.00e+00	0	44	0	2273312768	51	4264
2026-01-07 14:48:34.66	232.18	55.76	-41.2	-42.2	20.5	0.00e+00	0	43	0	2280652800	52	4111
2026-01-07 14:48:35.66	232.89	55.93	-41.0	-41.9	20.7	0.00e+00	0	43	0	2287992832	52	3997
2026-01-07 14:48:36.67	233.61	56.09	-40.8	-41.7	20.9	0.00e+00	0	43	0	2294284288	52	3911
2026-01-07 14:48:37.67	234.34	56.24	-41.1	-42.1	20.6	0.00e+00	0	44	0	2301624320	52	4055
2026-01-07 14:48:38.67	235.07	56.39	-41.4	-42.4	20.3	0.00e+00	0	44	0	2308964352	52	4216
2026-01-07 14:48:39.68	235.81	56.54	-41.2	-42.2	20.5	0.00e+00	0	44	0	2316304384	52	4100
2026-01-07 14:48:40.68	236.56	56.68	-40.9	-41.8	20.9	0.00e+00	0	43	0	2323644416	52	3939
2026-01-07 14:48:41.68	237.31	56.82	-40.6	-41.5	21.2	0.00e+00	0	44	0	2330984448	51	4039
2026-01-07 14:48:42.75	238.13	56.97	-40.6	-41.5	21.2	0.00e+00	0	43	0	2338324480	51	4014
2026-01-07 14:48:43.60	238.78	57.08	-40.6	-41.5	21.3	0.00e+00	0	44	0	2344615936	51	4006
2026-01-07 14:48:44.99	239.86	57.25	-40.8	-41.7	21.0	0.00e+00	0	43	0	2355101696	51	4123
2026-01-07 14:48:45.71	240.43	57.33	-41.1	-42.0	20.8	0.00e+00	0	43	0	2360344576	51	4262
2026-01-07 14:48:47.22	241.62	57.51	-41.2	-42.2	20.5	0.00e+00	0	43	0	2370830336	52	4114
2026-01-07 14:48:47.94	242.20	57.58	-41.1	-42.0	20.7	0.00e+00	0	43	0	2376073216	52	4044
2026-01-07 14:48:49.23	243.24	57.72	-40.8	-41.8	21.0	0.00e+00	0	43	0	2385510400	52	3915
2026-01-07 14:48:49.94	243.81	57.79	-40.5	-41.4	21.3	0.00e+00	0	43	0	2390753280	51	3966
2026-01-07 14:48:51.23	244.87	57.91	-40.7	-41.6	21.1	0.00e+00	0	44	0	2400190464	51	4091
2026-01-07 14:48:51.95	245.46	57.97	-40.6	-41.5	21.2	0.00e+00	0	43	0	2405433344	51	4040
2026-01-07 14:48:53.24	246.52	58.08	-40.5	-41.4	21.3	0.00e+00	0	43	0	2414870528	51	3976
2026-01-07 14:48:53.96	247.12	58.13	-40.3	-41.1	21.5	0.00e+00	0	43	0	2420113408	51	3853
2026-01-07 14:48:55.24	248.20	58.22	-40.2	-41.1	21.6	0.00e+00	0	44	0	2428502016	50	4062
2026-01-07 14:48:55.96	248.80	58.27	-40.2	-41.1	21.6	0.00e+00	0	43	0	2433744896	50	4058
2026-01-07 14:48:57.25	249.89	58.35	-40.7	-41.6	21.2	0.00e+00	0	44	0	2443182080	50	4295
2026-01-07 14:48:57.97	250.50	58.39	-40.6	-41.5	21.2	0.00e+00	0	43	0	2448424960	50	4286
2026-01-07 14:48:59.26	251.60	58.45	-40.9	-41.8	20.9	0.00e+00	0	44	0	2457862144	51	4188
2026-01-07 14:48:59.98	252.22	58.48	-41.0	-42.0	20.8	0.00e+00	0	43	0	2463105024	51	4243
2026-01-07 14:49:01.27	253.32	58.53	-40.8	-41.7	21.1	0.00e+00	0	44	0	2472542208	51	4121
2026-01-07 14:49:02.19	254.11	58.56	-40.7	-41.6	21.2	0.00e+00	0	43	0	2478833664	51	4052
2026-01-07 14:49:03.19	254.98	58.58	-40.7	-41.6	21.1	0.00e+00	0	43	0	2486173696	51	4096
2026-01-07 14:49:04.54	256.14	58.60	-40.8	-41.7	21.1	0.00e+00	0	44	0	2496659456	51	4109
2026-01-07 14:49:05.26	256.76	58.61	-40.6	-41.5	21.2	0.00e+00	0	44	0	2500853760	51	4036
2026-01-07 14:49:06.55	257.88	58.62	-40.5	-41.4	21.3	0.00e+00	0	43	0	2510290944	51	3972
2026-01-07 14:49:07.26	258.49	58.62	-40.7	-41.6	21.2	0.00e+00	0	44	0	2515533824	51	4062
2026-01-07 14:49:08.55	259.61	58.61	-40.8	-41.7	21.1	0.00e+00	0	44	0	2524971008	51	4131
2026-01-07 14:49:09.27	260.23	58.60	-40.8	-41.7	21.0	0.00e+00	0	44	0	2530213888	51	4126
2026-01-07 14:49:10.56	261.34	58.58	-40.6	-41.5	21.3	0.00e+00	0	44	0	2539651072	51	4007
2026-01-07 14:49:11.28	261.96	58.56	-40.6	-41.5	21.3	0.00e+00	0	43	0	2544893952	51	4008
2026-01-07 14:49:12.57	263.07	58.52	-40.5	-41.4	21.3	0.00e+00	0	44	0	2554331136	51	3964
2026-01-07 14:49:13.28	263.68	58.50	-40.8	-41.7	21.1	0.00e+00	0	44	0	2559574016	51	4107
2026-01-07 14:49:14.57	264.78	58.44	-40.9	-41.8	21.0	0.00e+00	0	43	0	2567962624	51	4158
2026-01-07 14:49:15.71	265.75	58.38	-40.8	-41.8	21.0	0.00e+00	0	43	0	2576351232	51	4148
2026-01-07 14:49:16.56	266.47	58.34	-40.8	-41.7	21.1	0.00e+00	0	43	0	2582642688	51	4118
2026-01-07 14:49:17.71	267.44	58.27	-40.7	-41.6	21.2	0.00e+00	0	43	0	2591031296	51	4070
2026-01-07 14:49:18.57	268.17	58.21	-40.7	-41.6	21.2	0.00e+00	0	44	0	2597322752	51	4061
2026-01-07 14:49:19.76	269.16	58.13	-40.8	-41.7	21.0	0.00e+00	0	43	0	2605711360	51	4133
2026-01-07 14:49:20.62	269.88	58.06	-41.0	-42.0	20.8	0.00e+00	0	44	0	2612002816	51	4247
2026-01-07 14:49:21.77	270.83	57.96	-41.0	-42.0	20.8	0.00e+00	0	43	0	2620391424	51	4244
2026-01-07 14:49:22.63	271.53	57.89	-40.9	-41.9	20.9	0.00e+00	0	44	0	2626682880	51	4202
2026-01-07 14:49:23.86	272.53	57.77	-40.6	-41.4	21.2	0.00e+00	0	44	0	2635071488	51	4004
2026-01-07 14:49:24.72	273.23	57.69	-40.5	-41.4	21.3	0.00e+00	0	44	0	2641362944	51	3969
2026-01-07 14:49:25.92	274.19	57.56	-40.6	-41.4	21.3	0.00e+00	0	43	0	2649751552	51	4001
2026-01-07 14:49:26.78	274.88	57.47	-40.7	-41.5	21.2	0.00e+00	0	44	0	2657091584	51	4048
2026-01-07 14:49:27.93	275.79	57.34	-40.7	-41.6	21.2	0.00e+00	0	43	0	2665480192	51	4069
2026-01-07 14:49:28.78	276.45	57.23	-40.4	-41.3	21.3	0.00e+00	0	44	0	2670723072	51	3919
2026-01-07 14:49:29.93	277.34	57.09	-40.4	-41.3	21.5	0.00e+00	0	44	0	2679111680	51	3922
2026-01-07 14:49:30.79	278.00	56.98	-40.3	-41.2	21.5	0.00e+00	0	44	0	2685403136	51	3870
2026-01-07 14:49:32.13	279.02	56.80	-40.4	-41.3	21.4	0.00e+00	0	44	0	2695888896	51	3938
2026-01-07 14:49:33.26	279.87	56.64	-41.0	-41.9	20.9	0.00e+00	0	44	0	2703228928	51	4215
2026-01-07 14:49:34.12	280.51	56.52	-41.2	-42.1	20.6	0.00e+00	0	44	0	2709520384	52	4094
2026-01-07 14:49:35.27	281.36	56.35	-41.2	-42.1	20.6	0.00e+00	0	44	0	2717908992	52	4069
2026-01-07 14:49:36.13	281.99	56.22	-41.2	-42.1	20.6	0.00e+00	0	43	0	2724200448	52	4072
2026-01-07 14:49:37.32	282.84	56.04	-40.9	-41.8	20.9	0.00e+00	0	44	0	2732589056	52	3944
2026-01-07 14:49:38.18	283.45	55.90	-40.7	-41.6	21.1	0.00e+00	0	44	0	2738880512	51	4077
2026-01-07 14:49:39.39	284.31	55.70	-40.7	-41.6	21.1	0.00e+00	0	44	0	2747269120	51	4078
2026-01-07 14:49:40.25	284.90	55.56	-40.7	-41.6	21.1	0.00e+00	0	44	0	2753560576	51	4074
2026-01-07 14:49:41.49	285.75	55.34	-40.7	-41.6	21.1	0.00e+00	0	44	0	2762997760	51	4079
2026-01-07 14:49:42.35	286.34	55.19	-41.2	-42.1	20.7	0.00e+00	0	44	0	2769289216	51	4318
2026-01-07 14:49:43.49	287.10	54.99	-41.1	-42.1	20.7	0.00e+00	0	44	0	2777677824	52	4070
2026-01-07 14:49:44.35	287.67	54.84	-40.9	-41.9	20.8	0.00e+00	0	44	0	2783969280	52	3965
2026-01-07 14:49:45.50	288.42	54.62	-40.8	-41.8	20.9	0.00e+00	0	43	0	2791309312	52	3914
2026-01-07 14:49:46.36	288.97	54.46	-40.9	-41.8	20.9	0.00e+00	0	44	0	2797600768	52	3927
2026-01-07 14:49:47.50	289.70	54.25	-40.8	-41.7	21.0	0.00e+00	0	44	0	2805989376	52	3883
2026-01-07 14:49:48.36	290.23	54.08	-41.0	-41.9	20.8	0.00e+00	0	43	0	2812280832	52	3988
2026-01-07 14:49:49.51	290.95	53.86	-41.0	-41.9	20.8	0.00e+00	0	44	0	2820669440	52	3988
2026-01-07 14:49:50.59	291.60	53.64	-40.7	-41.5	21.2	0.00e+00	0	43	0	2829058048	51	4041
2026-01-07 14:49:51.63	292.23	53.44	-40.8	-41.7	21.0	0.00e+00	0	44	0	2836398080	51	4124
2026-01-07 14:49:52.63	292.82	53.23	-40.5	-41.4	21.3	0.00e+00	0	43	0	2843738112	51	3980
2026-01-07 14:49:53.63	293.41	53.03	-40.6	-41.5	21.2	0.00e+00	0	43	0	2851078144	51	4024
2026-01-07 14:49:54.63	293.98	52.82	-40.6	-41.5	21.1	0.00e+00	0	43	0	2857369600	51	4044
2026-01-07 14:49:55.63	294.55	52.61	-41.1	-42.1	20.7	0.00e+00	0	43	0	2864709632	51	4298
2026-01-07 14:49:56.64	295.11	52.40	-41.2	-42.1	20.7	0.00e+00	0	43	0	2872049664	51	4324
2026-01-07 14:49:57.64	295.67	52.19	-41.1	-42.0	20.7	0.00e+00	0	43	0	2879389696	51	4279
2026-01-07 14:49:58.64	296.21	51.97	-40.8	-41.7	21.0	0.00e+00	0	43	0	2886729728	51	4143
2026-01-07 14:49:59.65	296.75	51.75	-40.7	-41.6	21.1	0.00e+00	0	44	0	2894069760	51	4073
2026-01-07 14:50:00.65	297.28	51.54	-41.0	-42.0	20.8	0.00e+00	0	44	0	2901409792	51	4251
2026-01-07 14:50:01.65	297.80	51.32	-41.3	-42.2	20.5	0.00e+00	0	43	0	2908749824	52	4130
2026-01-07 14:50:02.66	298.32	51.10	-41.3	-42.2	20.5	0.00e+00	0	44	0	2915041280	52	4143
2026-01-07 14:50:03.74	298.87	50.86	-41.1	-42.0	20.7	0.00e+00	0	43	0	2923429888	52	4045
2026-01-07 14:50:04.63	299.31	50.66	-40.9	-41.8	20.9	0.00e+00	0	43	0	2929721344	52	3922
2026-01-07 14:50:05.78	299.87	50.40	-40.7	-41.6	21.1	0.00e+00	0	43	0	2938109952	52	3852
2026-01-07 14:50:06.70	300.32	50.19	-40.8	-41.7	20.8	0.00e+00	0	44	0	2944401408	52	3882
2026-01-07 14:50:07.88	300.88	49.93	-40.8	-41.7	20.9	0.00e+00	0	44	0	2953838592	52	3887
2026-01-07 14:50:08.74	301.28	49.73	-40.7	-41.6	21.1	0.00e+00	0	43	0	2959081472	52	3833
2026-01-07 14:50:10.10	301.91	49.42	-40.6	-41.5	21.2	0.00e+00	0	44	0	2969567232	51	4025
2026-01-07 14:50:10.81	302.23	49.26	-40.4	-41.3	21.3	0.00e+00	0	43	0	2974810112	51	3935
2026-01-07 14:50:12.10	302.81	48.96	-40.2	-41.0	21.6	0.00e+00	0	44	0	2984247296	51	3818
2026-01-07 14:50:13.26	303.32	48.70	-40.1	-41.0	21.6	0.00e+00	0	44	0	2991587328	51	3813
2026-01-07 14:50:14.12	303.69	48.50	-40.2	-41.1	21.6	0.00e+00	0	44	0	2997878784	51	3827
2026-01-07 14:50:15.27	304.18	48.23	-40.4	-41.2	20.8	0.00e+00	0	44	0	3006267392	51	3913
2026-01-07 14:50:16.50	304.70	47.95	-40.6	-41.5	21.3	0.00e+00	0	44	0	3015704576	51	4031
2026-01-07 14:50:17.36	305.05	47.75	-40.7	-41.6	21.1	0.00e+00	0	43	0	3021996032	51	4081
2026-01-07 14:50:18.50	305.52	47.48	-40.7	-41.7	21.0	0.00e+00	0	44	0	3030384640	51	4106
2026-01-07 14:50:19.36	305.86	47.28	-40.6	-41.5	21.2	0.00e+00	0	44	0	3035627520	51	4037
2026-01-07 14:50:20.51	306.31	47.02	-40.5	-41.3	21.1	0.00e+00	0	44	0	3044016128	51	3949
2026-01-07 14:50:21.37	306.65	46.82	-40.3	-41.2	21.4	0.00e+00	0	43	0	3050307584	51	3887
2026-01-07 14:50:22.51	307.09	46.55	-40.1	-40.9	21.6	0.00e+00	0	44	0	3058696192	50	4000
2026-01-07 14:50:23.37	307.41	46.35	-39.9	-40.8	21.9	0.00e+00	0	44	0	3064987648	50	3921
2026-01-07 14:50:24.52	307.84	46.08	-39.7	-40.6	22.1	0.00e+00	0	43	0	3073376256	50	3826
2026-01-07 14:50:25.38	308.15	45.88	-39.7	-40.6	22.0	0.00e+00	0	44	0	3079667712	50	3826
2026-01-07 14:50:26.61	308.60	45.60	-39.7	-40.6	22.0	0.00e+00	0	44	0	3088056320	50	3831
2026-01-07 14:50:27.47	308.90	45.40	-39.7	-40.5	22.1	0.00e+00	0	44	0	3094347776	50	3808
2026-01-07 14:50:28.61	309.30	45.13	-39.6	-40.4	22.1	0.00e+00	0	43	0	3102736384	49	3993
2026-01-07 14:50:29.47	309.60	44.93	-39.8	-40.6	22.0	0.00e+00	0	44	0	3109027840	49	4092
2026-01-07 14:50:30.62	309.99	44.67	-39.9	-40.8	21.7	0.00e+00	0	43	0	3117416448	49	4188
2026-01-07 14:50:31.48	310.28	44.47	-39.8	-40.7	21.9	0.00e+00	0	44	0	3123707904	49	4101
2026-01-07 14:50:32.62	310.66	44.20	-39.6	-40.5	22.1	0.00e+00	0	44	0	3132096512	49	4026
2026-01-07 14:50:33.60	310.98	43.98	-39.6	-40.5	22.0	0.00e+00	0	43	0	3139436544	49	4005
2026-01-07 14:50:34.77	311.35	43.71	-39.4	-40.3	22.3	0.00e+00	0	44	0	3146776576	49	3926
2026-01-07 14:50:35.63	311.62	43.51	-39.4	-40.2	22.3	0.00e+00	0	43	0	3154116608	49	3889
2026-01-07 14:50:37.00	312.05	43.20	-39.2	-40.0	22.5	0.00e+00	0	43	0	3163553792	49	3801
2026-01-07 14:50:37.72	312.27	43.03	-39.2	-40.0	22.5	0.00e+00	0	43	0	3168796672	49	3809
2026-01-07 14:50:39.23	312.73	42.69	-39.3	-40.2	22.4	0.00e+00	0	44	0	3179282432	49	3877
2026-01-07 14:50:39.95	312.94	42.52	-39.4	-40.3	22.2	0.00e+00	0	44	0	3184525312	49	3935
2026-01-07 14:50:41.24	313.32	42.23	-39.6	-40.5	21.5	0.00e+00	0	44	0	3193962496	49	4031
2026-01-07 14:50:41.95	313.53	42.07	-39.8	-40.6	21.9	0.00e+00	0	44	0	3199205376	49	4093
2026-01-07 14:50:43.24	313.89	41.78	-39.8	-40.6	21.9	0.00e+00	0	43	0	3208642560	49	4095
2026-01-07 14:50:43.96	314.10	41.61	-39.8	-40.7	21.9	0.00e+00	0	43	0	3213885440	49	4113
2026-01-07 14:50:45.25	314.45	41.33	-39.6	-40.4	22.1	0.00e+00	0	43	0	3223322624	49	4001
2026-01-07 14:50:45.96	314.65	41.17	-39.5	-40.3	22.2	0.00e+00	0	44	0	3228565504	49	3956
2026-01-07 14:50:47.25	315.00	40.88	-39.4	-40.3	22.3	0.00e+00	0	44	0	3238002688	49	3937
2026-01-07 14:50:48.00	315.20	40.71	-39.3	-40.2	22.3	0.00e+00	0	43	0	3243245568	49	3880
2026-01-07 14:50:49.29	315.53	40.42	-39.4	-40.3	22.2	0.00e+00	0	44	0	3252682752	49	3938
2026-01-07 14:50:50.00	315.72	40.27	-39.5	-40.3	22.2	0.00e+00	0	43	0	3256877056	49	3941
2026-01-07 14:50:51.30	316.05	39.98	-39.4	-40.3	22.3	0.00e+00	0	44	0	3266314240	49	3917
2026-01-07 14:50:52.17	316.27	39.79	-39.3	-40.1	22.4	0.00e+00	0	44	0	3272605696	49	3864
2026-01-07 14:50:53.64	316.63	39.47	-39.3	-40.1	22.4	0.00e+00	0	44	0	3284140032	49	3854
2026-01-07 14:50:54.36	316.81	39.31	-39.4	-40.2	22.3	0.00e+00	0	44	0	3288334336	49	3896
2026-01-07 14:50:55.65	317.12	39.03	-39.5	-40.3	22.2	0.00e+00	0	43	0	3297771520	49	3951
2026-01-07 14:50:56.36	317.29	38.88	-39.5	-40.4	22.2	0.00e+00	0	44	0	3303014400	49	3971
2026-01-07 14:50:57.65	317.59	38.60	-39.6	-40.5	22.1	0.00e+00	0	43	0	3312451584	49	4005
2026-01-07 14:50:58.37	317.76	38.45	-39.6	-40.4	22.1	0.00e+00	0	43	0	3317694464	49	4003
2026-01-07 14:50:59.66	318.06	38.17	-39.6	-40.5	22.1	0.00e+00	0	44	0	3327131648	49	4037
2026-01-07 14:51:00.38	318.22	38.02	-39.7	-40.6	22.0	0.00e+00	0	44	0	3332374528	49	4068
2026-01-07 14:51:01.66	318.50	37.75	-39.6	-40.5	22.1	0.00e+00	0	43	0	3341811712	49	4006
2026-01-07 14:51:02.59	318.71	37.55	-39.4	-40.2	22.2	0.00e+00	0	44	0	3348103168	49	3912
2026-01-07 14:51:03.59	318.93	37.34	-39.3	-40.1	22.4	0.00e+00	0	44	0	3355443200	49	3859
2026-01-07 14:51:04.60	319.14	37.13	-39.2	-40.1	22.4	0.00e+00	0	44	0	3362783232	49	3828
2026-01-07 14:51:05.60	319.35	36.92	-39.3	-40.1	22.4	0.00e+00	0	43	0	3370123264	49	3836
2026-01-07 14:51:06.60	319.56	36.72	-39.0	-39.8	22.6	0.00e+00	0	44	0	3377463296	48	3951
2026-01-07 14:51:07.60	319.77	36.51	-39.0	-39.8	22.7	0.00e+00	0	43	0	3384803328	48	3924
2026-01-07 14:51:08.60	319.97	36.30	-38.8	-39.7	22.8	0.00e+00	0	43	0	3391094784	48	3875
2026-01-07 14:51:09.64	320.18	36.09	-38.9	-39.7	22.7	0.00e+00	0	43	0	3399483392	48	3905
2026-01-07 14:51:10.64	320.38	35.89	-38.9	-39.8	22.7	0.00e+00	0	43	0	3406823424	48	3928
2026-01-07 14:51:11.64	320.58	35.69	-38.9	-39.7	22.7	0.00e+00	0	43	0	3413114880	48	3906
2026-01-07 14:51:12.74	320.79	35.46	-39.0	-39.8	22.6	0.00e+00	0	43	0	3421503488	48	3942
2026-01-07 14:51:13.63	320.96	35.28	-39.0	-39.8	22.3	0.00e+00	0	43	0	3427794944	48	3950
2026-01-07 14:51:14.77	321.18	35.06	-39.1	-40.0	22.5	0.00e+00	0	44	0	3436183552	48	4029
2026-01-07 14:51:15.63	321.34	34.89	-39.2	-40.1	22.4	0.00e+00	0	43	0	3442475008	48	4056
2026-01-07 14:51:16.78	321.56	34.66	-39.4	-40.2	22.3	0.00e+00	0	44	0	3450863616	48	4145
2026-01-07 14:51:17.63	321.71	34.49	-39.5	-40.4	22.1	0.00e+00	0	43	0	3457155072	48	4201
2026-01-07 14:51:18.78	321.92	34.27	-39.5	-40.4	22.1	0.00e+00	0	43	0	3465543680	48	4231
2026-01-07 14:51:19.64	322.07	34.10	-39.5	-40.4	22.1	0.00e+00	0	44	0	3471835136	48	4226
2026-01-07 14:51:20.78	322.27	33.88	-39.5	-40.4	22.1	0.00e+00	0	44	0	3479175168	48	4219
2026-01-07 14:51:21.64	322.42	33.71	-39.4	-40.3	22.2	0.00e+00	0	43	0	3485466624	48	4181
2026-01-07 14:51:22.78	322.62	33.49	-39.3	-40.2	22.3	0.00e+00	0	44	0	3493855232	48	4120
2026-01-07 14:51:23.64	322.77	33.33	-39.3	-40.1	22.3	0.00e+00	0	43	0	3500146688	48	4097
2026-01-07 14:51:24.79	322.96	33.11	-39.1	-39.9	22.6	0.00e+00	0	43	0	3508535296	48	3990
2026-01-07 14:51:25.65	323.10	32.94	-39.1	-39.9	22.5	0.00e+00	0	43	0	3514826752	48	3995
2026-01-07 14:51:26.79	323.29	32.73	-38.8	-39.7	22.8	0.00e+00	0	43	0	3523215360	48	3882
2026-01-07 14:51:27.65	323.43	32.57	-38.8	-39.7	22.8	0.00e+00	0	43	0	3529506816	48	3880
2026-01-07 14:51:29.02	323.65	32.31	-38.8	-39.6	22.8	0.00e+00	0	43	0	3538944000	48	3859
2026-01-07 14:51:29.74	323.77	32.18	-38.9	-39.8	22.7	0.00e+00	0	44	0	3544186880	48	3922
2026-01-07 14:51:31.24	324.00	31.90	-38.9	-39.8	22.6	0.00e+00	0	43	0	3554672640	48	3928
2026-01-07 14:51:31.95	324.11	31.77	-39.0	-39.9	22.6	0.00e+00	0	43	0	3559915520	48	3966
2026-01-07 14:51:33.24	324.31	31.54	-39.1	-39.9	22.5	0.00e+00	0	43	0	3569352704	48	3991
2026-01-07 14:51:33.96	324.42	31.41	-39.1	-40.0	22.2	0.00e+00	0	44	0	3574595584	48	4023
2026-01-07 14:51:35.25	324.61	31.17	-39.1	-40.0	22.5	0.00e+00	0	43	0	3584032768	48	4025
2026-01-07 14:51:35.96	324.72	31.04	-39.2	-40.0	22.4	0.00e+00	0	43	0	3589275648	48	4045
2026-01-07 14:51:37.26	324.91	30.81	-39.2	-40.1	22.4	0.00e+00	0	44	0	3598712832	48	4055
2026-01-07 14:51:37.97	325.01	30.69	-39.2	-40.0	22.4	0.00e+00	0	44	0	3603955712	48	4040
2026-01-07 14:51:39.26	325.20	30.46	-39.3	-40.2	22.3	0.00e+00	0	44	0	3612344320	48	4108
2026-01-07 14:51:39.98	325.30	30.33	-39.4	-40.2	22.2	0.00e+00	0	43	0	3618635776	48	4125
2026-01-07 14:51:41.61	325.53	30.04	-39.3	-40.2	22.3	0.00e+00	0	43	0	3630170112	48	4123
2026-01-07 14:51:42.18	325.61	29.95	-39.3	-40.2	22.2	0.00e+00	0	43	0	3634364416	48	4113
2026-01-07 14:51:43.98	325.86	29.63	-39.4	-40.3	22.2	0.00e+00	0	43	0	3646947328	48	4154
2026-01-07 14:51:44.55	325.93	29.54	-39.4	-40.3	22.2	0.00e+00	0	44	0	3651141632	48	4156
2026-01-07 14:51:46.13	326.15	29.27	-39.5	-40.3	22.2	0.00e+00	0	44	0	3662675968	48	4186
2026-01-07 14:51:46.72	326.22	29.17	-39.5	-40.4	22.1	0.00e+00	0	43	0	3666870272	48	4217
2026-01-07 14:51:48.29	326.43	28.90	-39.5	-40.4	22.1	0.00e+00	0	43	0	3678404608	48	4224
2026-01-07 14:51:48.88	326.51	28.80	-39.5	-40.4	22.1	0.00e+00	0	43	0	3682598912	48	4205
2026-01-07 14:51:50.46	326.71	28.54	-39.5	-40.4	22.1	0.00e+00	0	44	0	3694133248	48	4230
2026-01-07 14:51:51.05	326.78	28.44	-39.5	-40.5	22.1	0.00e+00	0	43	0	3698327552	48	4244
2026-01-07 14:51:52.62	326.98	28.18	-39.5	-40.5	22.0	0.00e+00	0	44	0	3708813312	48	4256
2026-01-07 14:51:53.39	327.08	28.05	-39.5	-40.4	22.1	0.00e+00	0	44	0	3715104768	48	4232
2026-01-07 14:51:54.68	327.24	27.84	-39.6	-40.5	22.0	0.00e+00	0	44	0	3724541952	48	4257
2026-01-07 14:51:55.57	327.34	27.70	-39.6	-40.5	22.0	0.00e+00	0	43	0	3730833408	48	4255
2026-01-07 14:51:56.60	327.47	27.53	-39.6	-40.5	21.9	0.00e+00	0	43	0	3738173440	48	4270
2026-01-07 14:51:57.60	327.59	27.37	-39.6	-40.4	22.1	0.00e+00	0	43	0	3745513472	48	4241
2026-01-07 14:51:58.96	327.75	27.15	-39.7	-40.6	21.9	0.00e+00	0	43	0	3754950656	48	4317
2026-01-07 14:51:59.70	327.83	27.03	-39.6	-40.5	22.0	0.00e+00	0	43	0	3760193536	48	4247
2026-01-07 14:52:00.99	327.98	26.83	-39.6	-40.5	22.0	0.00e+00	0	44	0	3769630720	48	4246
2026-01-07 14:52:01.71	328.07	26.71	-39.5	-40.4	22.1	0.00e+00	0	44	0	3774873600	48	4209
2026-01-07 14:52:03.00	328.21	26.51	-39.4	-40.3	22.2	0.00e+00	0	44	0	3784310784	48	4163
2026-01-07 14:52:03.71	328.29	26.40	-39.4	-40.3	22.2	0.00e+00	0	43	0	3789553664	48	4148
2026-01-07 14:52:05.00	328.43	26.20	-39.5	-40.3	22.2	0.00e+00	0	43	0	3798990848	48	4174
2026-01-07 14:52:05.72	328.51	26.09	-39.5	-40.3	22.2	0.00e+00	0	44	0	3804233728	48	4182
2026-01-07 14:52:07.02	328.66	25.89	-39.4	-40.3	22.2	0.00e+00	0	43	0	3813670912	48	4167
2026-01-07 14:52:07.74	328.73	25.78	-39.4	-40.3	22.1	0.00e+00	0	43	0	3818913792	48	4179
2026-01-07 14:52:09.03	328.87	25.58	-39.4	-40.3	22.2	0.00e+00	0	44	0	3828350976	48	4187
2026-01-07 14:52:09.74	328.95	25.48	-39.4	-40.3	22.2	0.00e+00	0	44	0	3832545280	48	4192
2026-01-07 14:52:11.16	329.10	25.26	-39.4	-40.4	22.1	0.00e+00	0	44	0	3843031040	48	4200
2026-01-07 14:52:12.13	329.20	25.12	-39.6	-40.5	22.0	0.00e+00	0	44	0	3850371072	48	4265
2026-01-07 14:52:13.44	329.33	24.92	-39.6	-40.5	21.9	0.00e+00	0	44	0	3859808256	48	4290
2026-01-07 14:52:14.19	329.41	24.81	-39.6	-40.5	22.0	0.00e+00	0	43	0	3865051136	48	4267
2026-01-07 14:52:15.48	329.54	24.62	-39.7	-40.6	22.0	0.00e+00	0	43	0	3874488320	48	4297
2026-01-07 14:52:16.19	329.61	24.52	-39.7	-40.6	21.9	0.00e+00	0	43	0	3879731200	48	4294
2026-01-07 14:52:17.48	329.74	24.33	-39.7	-40.5	21.9	0.00e+00	0	44	0	3889168384	48	4285
2026-01-07 14:52:18.20	329.81	24.23	-39.6	-40.5	22.0	0.00e+00	0	43	0	3894411264	48	4274
2026-01-07 14:52:19.49	329.93	24.04	-39.8	-40.6	21.9	0.00e+00	0	43	0	3903848448	48	4336
2026-01-07 14:52:20.20	330.00	23.94	-39.8	-40.7	21.8	0.00e+00	0	43	0	3908042752	49	4118
2026-01-07 14:52:21.53	330.13	23.75	-39.8	-40.7	21.9	0.00e+00	0	43	0	3918528512	49	4109
2026-01-07 14:52:22.24	330.20	23.65	-39.8	-40.7	21.8	0.00e+00	0	44	0	3923771392	49	4116
2026-01-07 14:52:23.53	330.32	23.46	-39.9	-40.7	21.8	0.00e+00	0	43	0	3932160000	49	4144
2026-01-07 14:52:24.25	330.39	23.36	-39.9	-40.8	21.8	0.00e+00	0	43	0	3937402880	49	4154
2026-01-07 14:52:25.68	330.52	23.16	-40.0	-40.9	21.7	0.00e+00	0	44	0	3947888640	49	4209
2026-01-07 14:52:26.40	330.58	23.06	-39.9	-40.8	21.7	0.00e+00	0	43	0	3953131520	49	4187
2026-01-07 14:52:27.77	330.71	22.87	-39.9	-40.8	21.8	0.00e+00	0	44	0	3962568704	49	4166
2026-01-07 14:52:28.48	330.77	22.77	-40.0	-40.9	21.6	0.00e+00	0	43	0	3968860160	49	4222
2026-01-07 14:52:29.85	330.89	22.59	-39.9	-40.8	21.7	0.00e+00	0	43	0	3978297344	49	4175
2026-01-07 14:52:30.57	330.96	22.49	-40.0	-40.9	21.6	0.00e+00	0	43	0	3983540224	49	4196
2026-01-07 14:52:31.86	331.07	22.31	-40.1	-41.0	21.6	0.00e+00	0	43	0	3992977408	49	4254
2026-01-07 14:52:32.57	331.13	22.22	-39.9	-40.8	21.7	0.00e+00	0	43	0	3997171712	49	4177
2026-01-07 14:52:33.98	331.25	22.03	-40.0	-41.0	21.6	0.00e+00	0	44	0	4007657472	49	4246
2026-01-07 14:52:34.69	331.31	21.93	-39.9	-40.8	21.7	0.00e+00	0	43	0	4012900352	49	4188
2026-01-07 14:52:36.05	331.43	21.75	-39.9	-40.8	21.7	0.00e+00	0	44	0	4023386112	49	4187
2026-01-07 14:52:36.76	331.49	21.66	-39.9	-40.8	21.6	0.00e+00	0	43	0	4027580416	49	4191
2026-01-07 14:52:38.13	331.60	21.48	-39.9	-40.8	21.7	0.00e+00	0	43	0	4038066176	49	4178
2026-01-07 14:52:38.84	331.66	21.39	-39.9	-40.9	21.6	0.00e+00	0	44	0	4043309056	49	4205
2026-01-07 14:52:40.18	331.77	21.21	-40.1	-41.0	21.6	0.00e+00	0	44	0	4052746240	49	4261
2026-01-07 14:52:41.15	331.85	21.08	-40.1	-41.0	21.5	0.00e+00	0	43	0	4060086272	49	4278
2026-01-07 14:52:42.47	331.96	20.91	-40.1	-41.0	21.5	0.00e+00	0	44	0	4069523456	49	4282
2026-01-07 14:52:43.19	332.01	20.82	-40.2	-41.1	21.4	0.00e+00	0	43	0	4074766336	49	4328
2026-01-07 14:52:44.48	332.12	20.66	-40.3	-41.2	21.3	0.00e+00	0	44	0	4084203520	50	4126
2026-01-07 14:52:45.20	332.17	20.57	-40.3	-41.2	21.3	0.00e+00	0	44	0	4089446400	50	4123
2026-01-07 14:52:46.49	332.27	20.40	-40.4	-41.3	21.3	0.00e+00	0	43	0	4097835008	50	4161
2026-01-07 14:52:47.20	332.33	20.31	-40.4	-41.3	21.2	0.00e+00	0	44	0	4103077888	50	4164
2026-01-07 14:52:48.49	332.43	20.15	-40.4	-41.3	21.3	0.00e+00	0	44	0	4112515072	50	4177
2026-01-07 14:52:49.21	332.48	20.06	-40.5	-41.4	21.2	0.00e+00	0	43	0	4117757952	50	4237
2026-01-07 14:52:50.53	332.58	19.90	-40.5	-41.4	21.2	0.00e+00	0	44	0	4127195136	50	4227
2026-01-07 14:52:51.24	332.64	19.81	-40.6	-41.5	21.0	0.00e+00	0	44	0	4132438016	50	4291
2026-01-07 14:52:52.53	332.73	19.65	-40.8	-41.7	20.9	0.00e+00	0	43	0	4141875200	50	4383
2026-01-07 14:52:53.25	332.79	19.56	-40.8	-41.7	20.9	0.00e+00	0	43	0	4147118080	51	4126
2026-01-07 14:52:54.67	332.89	19.39	-40.8	-41.8	20.9	0.00e+00	0	43	0	4157603840	51	4147
2026-01-07 14:52:55.66	332.96	19.27	-40.8	-41.8	20.8	0.00e+00	0	44	0	4163895296	51	4150
2026-01-07 14:52:56.97	333.06	19.11	-40.6	-41.6	20.9	0.00e+00	0	43	0	4173332480	51	4081
2026-01-07 14:52:57.69	333.11	19.03	-40.6	-41.6	20.9	0.00e+00	0	44	0	4179623936	51	4092
2026-01-07 14:52:58.98	333.20	18.87	-40.8	-41.8	20.8	0.00e+00	0	44	0	4188012544	51	4165
2026-01-07 14:52:59.70	333.25	18.79	-40.8	-41.8	20.8	0.00e+00	0	44	0	4193255424	51	4154
2026-01-07 14:53:00.99	333.34	18.63	-40.9	-41.9	20.7	0.00e+00	0	44	0	4202692608	51	4236
2026-01-07 14:53:01.70	333.39	18.55	-40.8	-41.8	20.8	0.00e+00	0	44	0	4207935488	51	4186
2026-01-07 14:53:02.99	333.48	18.40	-40.8	-41.8	20.8	0.00e+00	0	44	0	4217372672	51	4171
2026-01-07 14:53:03.71	333.53	18.31	-40.8	-41.8	20.8	0.00e+00	0	44	0	4222615552	51	4170
2026-01-07 14:53:05.00	333.61	18.16	-40.8	-41.8	20.8	0.00e+00	0	44	0	4232052736	51	4158
2026-01-07 14:53:05.71	333.66	18.08	-40.8	-41.8	20.8	0.00e+00	0	43	0	4237295616	51	4156
2026-01-07 14:53:07.09	333.75	17.92	-40.7	-41.6	21.0	0.00e+00	0	44	0	4246732800	51	4083
2026-01-07 14:53:08.07	333.82	17.81	-40.9	-41.8	20.8	0.00e+00	0	43	0	4254072832	51	4178
2026-01-07 14:53:09.40	333.91	17.66	-40.8	-41.7	20.8	0.00e+00	0	44	0	4263510016	51	4140
2026-01-07 14:53:10.11	333.95	17.58	-40.7	-41.7	20.9	0.00e+00	0	43	0	4268752896	51	4126
2026-01-07 14:53:11.77	334.06	17.39	-40.8	-41.8	20.8	0.00e+00	0	44	0	4280287232	51	4151
2026-01-07 14:53:12.34	334.10	17.33	-40.8	-41.8	20.8	0.00e+00	0	44	0	4284481536	51	4164
2026-01-07 14:53:14.19	334.22	17.12	-40.8	-41.8	20.8	0.00e+00	0	43	0	4298113024	51	4178
2026-01-07 14:53:14.76	334.25	17.06	-41.0	-42.0	20.6	0.00e+00	0	44	0	4302307328	51	4256
2026-01-07 14:53:16.34	334.35	16.88	-41.0	-42.0	20.6	0.00e+00	0	43	0	4313841664	51	4265
2026-01-07 14:53:16.93	334.39	16.82	-41.0	-42.0	20.6	0.00e+00	0	44	0	4318035968	51	4246
2026-01-07 14:53:18.50	334.48	16.64	-41.0	-41.9	20.6	0.00e+00	0	44	0	4329570304	51	4233
2026-01-07 14:53:19.09	334.52	16.58	-41.0	-42.0	20.6	0.00e+00	0	44	0	4333764608	51	4248
2026-01-07 14:53:20.91	334.63	16.38	-41.1	-42.1	20.5	0.00e+00	0	44	0	4346347520	51	4317
2026-01-07 14:53:21.49	334.67	16.32	-41.1	-42.1	20.5	0.00e+00	0	44	0	4350541824	51	4302
2026-01-07 14:53:23.06	334.76	16.15	-41.2	-42.2	20.4	0.00e+00	0	43	0	4362076160	51	4361
2026-01-07 14:53:23.67	334.80	16.08	-41.2	-42.2	20.4	0.00e+00	0	44	0	4366270464	51	4345
2026-01-07 14:53:25.24	334.89	15.92	-41.3	-42.3	20.2	0.00e+00	0	44	0	4377804800	52	4183
2026-01-07 14:53:25.83	334.92	15.85	-41.3	-42.3	20.2	0.00e+00	0	43	0	4381999104	52	4170
2026-01-07 14:53:27.41	335.02	15.69	-41.2	-42.2	20.4	0.00e+00	0	43	0	4393533440	52	4104
2026-01-07 14:53:28.01	335.05	15.62	-41.2	-42.1	20.4	0.00e+00	0	44	0	4397727744	52	4091
2026-01-07 14:53:29.58	335.14	15.46	-41.3	-42.3	20.3	0.00e+00	0	43	0	4409262080	52	4157
2026-01-07 14:53:30.35	335.19	15.38	-41.5	-42.5	20.1	0.00e+00	0	44	0	4414504960	52	4260
2026-01-07 14:53:31.64	335.26	15.25	-41.5	-42.6	20.0	0.00e+00	0	43	0	4423942144	52	4296
2026-01-07 14:53:32.36	335.30	15.17	-41.4	-42.4	20.0	0.00e+00	0	44	0	4429185024	52	4241
2026-01-07 14:53:33.64	335.37	15.04	-41.4	-42.4	20.1	0.00e+00	0	44	0	4438622208	52	4227
2026-01-07 14:53:34.60	335.42	14.94	-41.4	-42.4	20.1	0.00e+00	0	44	0	4445962240	52	4231
2026-01-07 14:53:35.60	335.48	14.84	-41.4	-42.5	20.1	0.00e+00	0	43	0	4452253696	52	4253
2026-01-07 14:53:36.95	335.55	14.70	-41.4	-42.4	20.1	0.00e+00	0	43	0	4462739456	52	4229
2026-01-07 14:53:37.70	335.59	14.63	-41.5	-42.5	20.0	0.00e+00	0	44	0	4467982336	52	4257
2026-01-07 14:53:38.99	335.66	14.50	-41.5	-42.5	20.0	0.00e+00	0	44	0	4477419520	52	4288
2026-01-07 14:53:39.71	335.70	14.42	-41.5	-42.5	20.0	0.00e+00	0	43	0	4482662400	52	4284
2026-01-07 14:53:41.00	335.77	14.29	-41.6	-42.6	19.9	0.00e+00	0	44	0	4492099584	52	4310
2026-01-07 14:53:41.71	335.81	14.22	-41.5	-42.6	19.9	0.00e+00	0	43	0	4496293888	52	4294
2026-01-07 14:53:43.00	335.88	14.10	-41.6	-42.6	19.9	0.00e+00	0	44	0	4505731072	52	4311
2026-01-07 14:53:43.90	335.92	14.01	-41.7	-42.7	19.8	0.00e+00	0	44	0	4513071104	52	4361
2026-01-07 14:53:45.25	335.99	13.87	-41.6	-42.7	19.8	0.00e+00	0	44	0	4522508288	52	4353
2026-01-07 14:53:45.96	336.03	13.80	-41.7	-42.7	19.8	0.00e+00	0	44	0	4527751168	52	4369
2026-01-07 14:53:47.25	336.10	13.68	-41.7	-42.7	19.8	0.00e+00	0	44	0	4537188352	52	4378
2026-01-07 14:53:47.97	336.13	13.61	-41.7	-42.8	19.7	0.00e+00	0	44	0	4541382656	52	4401
2026-01-07 14:53:49.26	336.20	13.48	-41.7	-42.7	19.7	0.00e+00	0	44	0	4550819840	52	4390
2026-01-07 14:53:50.01	336.24	13.41	-41.7	-42.7	19.8	0.00e+00	0	44	0	4557111296	52	4391
2026-01-07 14:53:51.30	336.30	13.29	-41.6	-42.7	19.8	0.00e+00	0	44	0	4566548480	52	4375
2026-01-07 14:53:52.02	336.34	13.22	-41.6	-42.7	19.8	0.00e+00	0	44	0	4570742784	52	4380
2026-01-07 14:53:53.65	336.42	13.06	-41.6	-42.7	19.7	0.00e+00	0	44	0	4583325696	52	4381
2026-01-07 14:53:54.23	336.45	13.01	-41.6	-42.7	19.8	0.00e+00	0	44	0	4587520000	52	4379
2026-01-07 14:53:55.81	336.52	12.86	-41.7	-42.8	19.7	0.00e+00	0	44	0	4599054336	52	4404
2026-01-07 14:53:56.57	336.56	12.79	-41.7	-42.8	19.7	0.00e+00	0	44	0	4604297216	52	4412
2026-01-07 14:53:57.85	336.62	12.67	-41.7	-42.8	19.6	0.00e+00	0	44	0	4613734400	52	4428
2026-01-07 14:53:58.57	336.66	12.60	-41.7	-42.8	19.6	0.00e+00	0	44	0	4617928704	52	4427
2026-01-07 14:53:59.86	336.72	12.48	-41.8	-42.9	19.6	0.00e+00	0	44	0	4627365888	53	4203
2026-01-07 14:54:00.58	336.75	12.41	-41.8	-42.9	19.6	0.00e+00	0	44	0	4632608768	53	4209
2026-01-07 14:54:01.87	336.81	12.29	-41.9	-43.0	19.4	0.00e+00	0	44	0	4642045952	53	4284
2026-01-07 14:54:02.58	336.85	12.23	-41.9	-43.0	19.4	0.00e+00	0	44	0	4647288832	53	4273
2026-01-07 14:54:04.03	336.91	12.09	-42.0	-43.1	19.4	0.00e+00	0	44	0	4657774592	53	4302
2026-01-07 14:54:04.75	336.95	12.03	-42.0	-43.1	19.3	0.00e+00	0	44	0	4663017472	53	4324
2026-01-07 14:54:06.04	337.01	11.91	-42.0	-43.1	19.3	0.00e+00	0	44	0	4672454656	53	4329
2026-01-07 14:54:06.75	337.04	11.85	-41.9	-43.1	19.4	0.00e+00	0	43	0	4677697536	53	4303
2026-01-07 14:54:08.17	337.10	11.72	-42.1	-43.2	19.2	0.00e+00	0	43	0	4688183296	53	4382
2026-01-07 14:54:08.89	337.14	11.65	-42.0	-43.2	19.2	0.00e+00	0	44	0	4693426176	53	4367
2026-01-07 14:54:10.18	337.20	11.54	-42.2	-43.4	19.1	0.00e+00	0	44	0	4702863360	53	4445
2026-01-07 14:54:10.90	337.23	11.47	-42.3	-43.5	19.0	0.00e+00	0	44	0	4707057664	54	4262
2026-01-07 14:54:12.18	337.28	11.36	-42.2	-43.5	19.0	0.00e+00	0	44	0	4716494848	54	4247
2026-01-07 14:54:12.90	337.32	11.30	-42.3	-43.5	19.0	0.00e+00	0	44	0	4721737728	54	4250
2026-01-07 14:54:14.19	337.37	11.18	-42.3	-43.5	18.9	0.00e+00	0	44	0	4731174912	54	4271
2026-01-07 14:54:14.90	337.40	11.12	-42.4	-43.6	18.9	0.00e+00	0	44	0	4736417792	54	4301
2026-01-07 14:54:16.20	337.46	11.00	-42.4	-43.6	18.8	0.00e+00	0	44	0	4745854976	54	4321
2026-01-07 14:54:16.91	337.49	10.94	-42.4	-43.6	18.8	0.00e+00	0	44	0	4751097856	54	4319
2026-01-07 14:54:18.20	337.55	10.83	-42.5	-43.7	18.8	0.00e+00	0	44	0	4760535040	54	4367
2026-01-07 14:54:18.91	337.58	10.77	-42.5	-43.7	18.7	0.00e+00	0	44	0	4765777920	54	4385
2026-01-07 14:54:20.20	337.63	10.66	-42.5	-43.7	18.7	0.00e+00	0	43	0	4774166528	54	4373
2026-01-07 14:54:21.11	337.67	10.58	-42.7	-43.9	18.6	0.00e+00	0	43	0	4781506560	54	4443
2026-01-07 14:54:22.11	337.71	10.49	-42.8	-44.0	18.4	0.00e+00	0	44	0	4788846592	55	4261
2026-01-07 14:54:23.12	337.76	10.41	-42.7	-43.9	18.6	0.00e+00	0	43	0	4795138048	55	4203
2026-01-07 14:54:24.12	337.80	10.32	-42.8	-44.0	18.4	0.00e+00	0	43	0	4802478080	55	4267
2026-01-07 14:54:25.13	337.84	10.23	-42.9	-44.2	18.3	0.00e+00	0	44	0	4810866688	55	4360
2026-01-07 14:54:26.13	337.88	10.15	-42.7	-44.0	18.5	0.00e+00	0	43	0	4817158144	55	4244
