passes_logs/2026/01/07/T1/T1__20260107_222615_SUOMI_NPP_rec.log

#Pass ID: 20260107_222615_SUOMI NPP
#Satellite: SUOMI NPP
#Configuration: NPP
#almurnet v.1.7.20251203
#Start time: 2026-01-07 22:26:16

#Version: 2.0.20230620
#Station: T1
#Location: 37.570604 lon 55.790049 lat
#TLE: 1 37849U 11061A   26005.94084933  .00000134  00000+0  84554-4 0  9990
#TLE: 2 37849  98.7803 308.0679 0002567  79.1029 281.0436 14.19522657735426

#Time	Az	El	Level	Level2	SNR	BER	BlckErr	Temp	State	Recorded	gain1	gain2
2026-01-07 22:26:16.82	27.62	5.11	-51.8	-67.6	3.8	1.49e+00	0	39	0	0	75	21773
2026-01-07 22:26:17.81	27.70	5.17	-51.8	-67.5	3.8	1.49e+00	0	39	104	0	74	23042
2026-01-07 22:26:18.82	27.77	5.23	-51.8	-67.5	3.8	1.49e+00	0	39	104	0	74	23039
2026-01-07 22:26:19.82	27.85	5.29	-51.8	-67.5	3.8	1.49e+00	0	39	104	0	74	23013
2026-01-07 22:26:20.83	27.93	5.35	-51.8	-67.5	3.8	1.49e+00	0	39	104	0	74	23014
2026-01-07 22:26:21.83	28.01	5.42	-51.8	-67.6	3.8	1.49e+00	0	40	104	0	74	23046
2026-01-07 22:26:22.84	28.09	5.48	-51.8	-67.5	3.8	1.49e+00	0	40	104	0	74	22934
2026-01-07 22:26:23.84	28.17	5.54	-51.8	-67.5	3.8	1.49e+00	0	40	104	0	74	22955
2026-01-07 22:26:24.84	28.25	5.60	-51.8	-67.5	3.8	1.49e+00	0	39	104	0	74	22951
2026-01-07 22:26:25.85	28.33	5.66	-51.8	-67.5	3.8	1.49e+00	0	40	104	0	74	22912
2026-01-07 22:26:26.85	28.41	5.73	-51.8	-67.5	3.8	1.49e+00	0	40	104	0	74	22908
2026-01-07 22:26:27.86	28.49	5.79	-51.8	-67.5	3.8	1.49e+00	0	40	104	0	74	22910
2026-01-07 22:26:28.86	28.57	5.85	-51.8	-67.5	3.8	1.49e+00	0	40	104	0	74	22865
2026-01-07 22:26:29.86	28.65	5.92	-51.8	-67.4	3.8	1.49e+00	0	40	104	0	74	22738
2026-01-07 22:26:30.87	28.74	5.98	-51.8	-67.4	3.8	1.49e+00	0	40	104	0	74	22731
2026-01-07 22:26:31.87	28.82	6.04	-51.8	-67.4	3.8	1.49e+00	0	40	104	0	74	22710
2026-01-07 22:26:32.88	28.90	6.11	-51.8	-67.4	3.8	1.49e+00	0	40	104	0	74	22548
2026-01-07 22:26:33.88	28.98	6.17	-51.8	-67.4	3.8	1.49e+00	0	40	104	0	74	22666
2026-01-07 22:26:34.89	29.07	6.23	-51.8	-67.4	3.8	1.49e+00	0	40	104	0	74	22645
2026-01-07 22:26:35.89	29.15	6.30	-51.8	-67.4	3.8	1.49e+00	0	40	104	0	74	22602
2026-01-07 22:26:36.89	29.24	6.36	-51.8	-67.5	3.8	1.49e+00	0	40	104	0	74	22794
2026-01-07 22:26:37.90	29.32	6.42	-51.8	-67.4	3.8	1.49e+00	0	40	104	0	74	22711
2026-01-07 22:26:38.90	29.40	6.49	-51.8	-67.5	3.8	1.49e+00	0	40	104	0	74	22869
2026-01-07 22:26:39.90	29.49	6.55	-51.8	-67.5	3.8	1.49e+00	0	40	104	0	74	22869
2026-01-07 22:26:40.91	29.58	6.62	-51.8	-67.5	3.8	1.49e+00	0	40	104	0	74	22973
2026-01-07 22:26:41.91	29.66	6.68	-51.8	-67.5	3.8	1.49e+00	0	40	104	0	74	22803
2026-01-07 22:26:42.92	29.75	6.74	-51.8	-67.4	3.8	1.49e+00	0	40	104	0	74	22614
2026-01-07 22:26:43.92	29.83	6.81	-51.8	-67.4	3.8	1.49e+00	0	40	104	0	74	22602
2026-01-07 22:26:44.92	29.92	6.87	-51.8	-67.3	3.8	1.49e+00	0	40	104	0	74	22475
2026-01-07 22:26:45.93	30.01	6.94	-51.8	-67.3	3.8	1.49e+00	0	40	104	0	74	22303
2026-01-07 22:26:46.94	30.10	7.00	-51.8	-67.2	3.8	1.49e+00	0	40	104	0	74	22163
2026-01-07 22:26:47.94	30.18	7.07	-51.8	-67.3	3.8	1.49e+00	0	40	104	0	74	22429
2026-01-07 22:26:48.94	30.27	7.13	-51.8	-67.3	3.8	1.49e+00	0	40	104	0	74	22485
2026-01-07 22:26:49.95	30.36	7.20	-51.8	-67.4	3.8	1.49e+00	0	41	104	0	74	22650
2026-01-07 22:26:50.95	30.45	7.26	-51.8	-67.5	3.8	1.49e+00	0	40	104	0	74	22870
2026-01-07 22:26:51.95	30.54	7.33	-51.8	-67.5	3.8	1.49e+00	0	40	104	0	74	22851
2026-01-07 22:26:52.96	30.63	7.39	-51.8	-67.4	3.8	1.49e+00	0	40	104	0	74	22718
2026-01-07 22:26:53.96	30.72	7.46	-51.8	-67.3	3.8	1.49e+00	0	41	104	0	74	22509
2026-01-07 22:26:54.97	30.81	7.52	-51.8	-67.2	3.8	1.49e+00	0	41	104	0	74	22185
2026-01-07 22:26:55.97	30.90	7.59	-51.8	-67.2	3.8	1.49e+00	0	41	104	0	74	22092
2026-01-07 22:26:56.98	30.99	7.66	-51.8	-67.2	3.8	1.49e+00	0	40	104	0	74	22069
2026-01-07 22:26:57.98	31.09	7.72	-51.8	-67.2	3.8	1.49e+00	0	41	104	0	74	22223
2026-01-07 22:26:58.99	31.18	7.79	-51.8	-67.3	3.8	1.49e+00	0	41	104	0	74	22474
2026-01-07 22:26:59.99	31.27	7.85	-51.8	-67.4	3.8	1.49e+00	0	41	104	0	74	22628
2026-01-07 22:27:00.99	31.36	7.92	-51.8	-67.4	3.8	1.49e+00	0	41	104	0	74	22680
2026-01-07 22:27:02.00	31.46	7.99	-51.8	-67.4	3.8	1.49e+00	0	41	104	0	74	22586
2026-01-07 22:27:03.00	31.55	8.05	-51.8	-67.3	3.8	1.49e+00	0	41	104	0	74	22501
2026-01-07 22:27:04.01	31.65	8.12	-51.8	-67.3	3.8	1.49e+00	0	41	104	0	74	22518
2026-01-07 22:27:05.01	31.74	8.19	-51.8	-67.4	3.8	1.49e+00	0	41	104	0	74	22651
2026-01-07 22:27:06.01	31.83	8.25	-51.8	-67.4	3.8	1.49e+00	0	41	104	0	74	22672
2026-01-07 22:27:07.02	31.93	8.32	-51.8	-67.4	3.8	1.49e+00	0	41	104	0	74	22635
2026-01-07 22:27:08.02	32.03	8.39	-51.8	-67.2	3.8	1.49e+00	0	41	104	0	74	22206
2026-01-07 22:27:09.03	32.12	8.46	-51.8	-66.9	3.8	1.49e+00	0	41	104	0	74	21456
2026-01-07 22:27:10.03	32.22	8.52	-51.7	-66.5	3.8	1.49e+00	0	41	104	0	74	20529
2026-01-07 22:27:11.04	32.32	8.59	-51.7	-66.2	3.8	1.49e+00	0	41	104	0	74	19770
2026-01-07 22:27:12.04	32.41	8.66	-51.7	-66.0	3.8	1.49e+00	0	41	104	0	74	19249
2026-01-07 22:27:13.05	32.51	8.73	-51.7	-65.9	3.8	1.49e+00	0	41	104	0	74	18987
2026-01-07 22:27:14.05	32.61	8.79	-51.7	-65.8	3.8	1.49e+00	0	41	104	0	74	18930
2026-01-07 22:27:15.05	32.71	8.86	-51.7	-65.3	3.8	1.49e+00	0	41	104	0	74	17868
2026-01-07 22:27:16.06	32.81	8.93	-51.6	-64.4	3.9	1.48e+00	0	41	104	0	74	16087
2026-01-07 22:27:17.06	32.91	9.00	-51.4	-62.6	4.7	1.34e+00	0	41	0	0	74	13041
2026-01-07 22:27:18.07	33.01	9.07	-51.2	-60.5	5.9	4.83e-01	0	41	0	2097152	74	10258
2026-01-07 22:27:19.07	33.11	9.13	-51.3	-60.8	5.8	4.11e-01	0	41	0	4194304	74	10553
2026-01-07 22:27:20.19	33.22	9.21	-52.0	-65.2	3.8	1.18e+00	0	41	104	5242880	74	17488
2026-01-07 22:27:21.05	33.31	9.27	-50.1	-56.3	9.8	1.03e+00	0	41	0	5242880	72	7080
2026-01-07 22:27:22.19	33.43	9.35	-51.9	-64.5	3.9	1.08e+00	0	41	104	6291456	74	16162
2026-01-07 22:27:23.05	33.51	9.41	-48.2	-51.9	14.4	3.85e-02	0	41	0	7340032	68	5379
2026-01-07 22:27:24.20	33.63	9.49	-48.2	-51.9	14.5	7.00e-07	0	41	0	9437184	68	5349
2026-01-07 22:27:25.06	33.72	9.55	-48.1	-51.6	14.6	2.20e-06	0	41	0	10485760	68	5214
2026-01-07 22:27:26.20	33.84	9.62	-47.9	-51.5	14.6	0.00e+00	0	41	0	12582912	67	5413
2026-01-07 22:27:27.06	33.93	9.68	-47.8	-51.2	15.0	0.00e+00	0	41	0	14680064	67	5226
2026-01-07 22:27:28.21	34.05	9.76	-47.6	-51.1	15.1	0.00e+00	0	41	0	16777216	67	5191
2026-01-07 22:27:29.07	34.14	9.82	-47.8	-51.3	14.8	0.00e+00	0	41	0	17825792	67	5318
2026-01-07 22:27:30.22	34.26	9.90	-47.5	-51.0	15.1	0.00e+00	0	41	0	19922944	67	5108
2026-01-07 22:27:31.08	34.35	9.96	-47.4	-50.8	15.3	0.00e+00	0	41	0	22020096	66	5331
2026-01-07 22:27:32.22	34.47	10.04	-47.5	-50.9	15.2	0.00e+00	0	41	0	24117248	66	5373
2026-01-07 22:27:33.08	34.56	10.10	-47.4	-50.8	15.3	0.00e+00	0	41	0	26214400	66	5331
2026-01-07 22:27:34.40	34.71	10.19	-47.7	-51.2	14.9	0.00e+00	0	41	0	28311552	66	5564
2026-01-07 22:27:35.12	34.78	10.24	-47.7	-51.2	14.9	0.00e+00	0	41	0	29360128	66	5579
2026-01-07 22:27:36.40	34.92	10.33	-47.5	-50.9	15.2	0.00e+00	0	41	0	31457280	66	5386
2026-01-07 22:27:37.12	35.00	10.38	-47.5	-50.8	15.3	0.00e+00	0	41	0	33554432	66	5324
2026-01-07 22:27:38.41	35.14	10.47	-47.3	-50.6	15.5	0.00e+00	0	41	0	35651584	66	5191
2026-01-07 22:27:39.18	35.23	10.53	-47.1	-50.2	15.9	0.00e+00	0	41	0	36700160	66	4954
2026-01-07 22:27:40.79	35.40	10.64	-47.2	-50.4	15.8	0.00e+00	0	41	0	39845888	66	5066
2026-01-07 22:27:41.36	35.47	10.68	-47.1	-50.2	16.0	0.00e+00	0	41	0	40894464	66	4961
2026-01-07 22:27:42.95	35.64	10.80	-47.0	-50.1	16.1	0.00e+00	0	41	0	44040192	65	5163
2026-01-07 22:27:43.54	35.71	10.84	-47.0	-50.0	16.1	0.00e+00	0	41	0	45088768	65	5152
2026-01-07 22:27:45.12	35.89	10.95	-46.8	-49.8	16.3	0.00e+00	0	41	0	48234496	65	5040
2026-01-07 22:27:45.77	35.96	11.00	-46.8	-49.9	16.2	0.00e+00	0	41	0	49283072	65	5049
2026-01-07 22:27:47.21	36.13	11.10	-46.8	-49.8	16.2	0.00e+00	0	41	0	52428800	65	5038
2026-01-07 22:27:47.92	36.21	11.15	-46.7	-49.8	16.3	0.00e+00	0	41	0	53477376	65	4996
2026-01-07 22:27:49.21	36.36	11.24	-46.8	-49.9	16.2	0.00e+00	0	41	0	55574528	65	5100
2026-01-07 22:27:49.99	36.45	11.30	-46.9	-50.0	16.1	0.00e+00	0	41	0	57671680	65	5150
2026-01-07 22:27:51.19	36.59	11.38	-46.9	-50.0	16.1	0.00e+00	0	41	0	59768832	65	5128
2026-01-07 22:27:52.05	36.69	11.44	-46.9	-50.1	16.1	0.00e+00	0	41	0	60817408	65	5177
2026-01-07 22:27:53.20	36.82	11.53	-47.0	-50.1	16.1	0.00e+00	0	41	0	62914560	65	5196
2026-01-07 22:27:54.05	36.92	11.59	-47.0	-50.2	16.0	0.00e+00	0	42	0	65011712	65	5247
2026-01-07 22:27:55.20	37.06	11.67	-47.0	-50.1	16.1	0.00e+00	0	41	0	67108864	65	5185
2026-01-07 22:27:56.06	37.16	11.73	-47.0	-50.1	16.0	0.00e+00	0	42	0	69206016	65	5206
2026-01-07 22:27:57.21	37.30	11.82	-46.9	-50.0	16.2	0.00e+00	0	41	0	71303168	65	5106
2026-01-07 22:27:58.07	37.40	11.88	-47.0	-50.0	16.1	0.00e+00	0	42	0	72351744	65	5154
2026-01-07 22:27:59.21	37.54	11.96	-47.0	-50.1	16.1	0.00e+00	0	41	0	74448896	65	5166
2026-01-07 22:28:00.07	37.64	12.02	-46.9	-49.9	16.2	0.00e+00	0	41	0	76546048	65	5077
2026-01-07 22:28:01.22	37.78	12.11	-46.8	-49.8	16.3	0.00e+00	0	41	0	78643200	65	5037
2026-01-07 22:28:02.08	37.89	12.17	-46.7	-49.7	16.4	0.00e+00	0	42	0	79691776	65	4976
2026-01-07 22:28:03.23	38.03	12.25	-46.6	-49.7	16.5	0.00e+00	0	41	0	81788928	65	4938
2026-01-07 22:28:04.09	38.14	12.32	-46.6	-49.7	16.5	0.00e+00	0	41	0	83886080	65	4930
2026-01-07 22:28:05.23	38.28	12.40	-46.6	-49.6	16.5	0.00e+00	0	41	0	85983232	65	4917
2026-01-07 22:28:06.09	38.38	12.46	-46.4	-49.4	16.7	0.00e+00	0	41	0	88080384	64	5084
2026-01-07 22:28:07.24	38.53	12.55	-46.4	-49.4	16.7	0.00e+00	0	42	0	90177536	64	5062
2026-01-07 22:28:08.10	38.64	12.61	-46.3	-49.2	16.8	0.00e+00	0	42	0	91226112	64	4980
2026-01-07 22:28:09.25	38.78	12.70	-46.2	-49.0	17.1	0.00e+00	0	42	0	93323264	64	4846
2026-01-07 22:28:10.10	38.89	12.76	-46.1	-48.9	17.2	0.00e+00	0	42	0	95420416	64	4765
2026-01-07 22:28:11.25	39.04	12.84	-46.1	-48.9	17.2	0.00e+00	0	42	0	97517568	64	4765
2026-01-07 22:28:12.10	39.15	12.91	-46.0	-48.7	17.4	0.00e+00	0	42	0	98566144	64	4685
2026-01-07 22:28:13.25	39.30	12.99	-46.0	-48.8	17.3	0.00e+00	0	41	0	100663296	64	4709
2026-01-07 22:28:14.11	39.41	13.06	-46.1	-48.8	17.3	0.00e+00	0	42	0	102760448	64	4725
2026-01-07 22:28:15.26	39.56	13.14	-46.0	-48.8	17.4	0.00e+00	0	42	0	104857600	64	4708
2026-01-07 22:28:16.11	39.67	13.20	-46.0	-48.7	17.4	0.00e+00	0	42	0	105906176	64	4694
2026-01-07 22:28:17.26	39.82	13.29	-46.1	-48.8	17.3	0.00e+00	0	42	0	108003328	64	4725
2026-01-07 22:28:18.12	39.93	13.35	-46.0	-48.7	17.5	0.00e+00	0	42	0	110100480	64	4667
2026-01-07 22:28:19.27	40.09	13.44	-46.1	-48.8	17.4	0.00e+00	0	42	0	112197632	63	5026
2026-01-07 22:28:20.13	40.20	13.50	-46.1	-48.7	17.5	0.00e+00	0	41	0	114294784	63	4974
2026-01-07 22:28:21.27	40.35	13.59	-46.2	-48.9	17.3	0.00e+00	0	42	0	116391936	63	5045
2026-01-07 22:28:22.13	40.47	13.65	-46.1	-48.7	17.5	0.00e+00	0	42	0	117440512	63	4970
2026-01-07 22:28:23.28	40.63	13.74	-46.1	-48.8	17.4	0.00e+00	0	41	0	119537664	63	5020
2026-01-07 22:28:24.14	40.74	13.80	-46.1	-48.8	17.4	0.00e+00	0	42	0	121634816	63	5020
2026-01-07 22:28:25.29	40.90	13.89	-46.1	-48.8	17.4	0.00e+00	0	41	0	123731968	63	5030
2026-01-07 22:28:26.15	41.02	13.96	-46.3	-49.0	17.2	0.00e+00	0	42	0	124780544	63	5145
2026-01-07 22:28:27.30	41.18	14.04	-46.2	-49.0	17.3	0.00e+00	0	42	0	126877696	63	5101
2026-01-07 22:28:28.16	41.30	14.11	-46.4	-49.1	17.1	0.00e+00	0	42	0	128974848	63	5206
2026-01-07 22:28:29.30	41.46	14.19	-46.6	-49.5	16.8	0.00e+00	0	42	0	131072000	63	5403
2026-01-07 22:28:30.16	41.58	14.26	-46.5	-49.3	16.9	0.00e+00	0	42	0	133169152	64	5001
2026-01-07 22:28:31.50	41.77	14.36	-46.4	-49.2	17.0	0.00e+00	0	41	0	135266304	64	4952
2026-01-07 22:28:32.22	41.87	14.41	-46.7	-49.6	16.7	0.00e+00	0	42	0	136314880	64	5162
2026-01-07 22:28:33.50	42.05	14.51	-46.7	-49.5	16.7	0.00e+00	0	42	0	139460608	64	5151
2026-01-07 22:28:34.22	42.15	14.57	-46.6	-49.4	16.8	0.00e+00	0	41	0	140509184	64	5065
2026-01-07 22:28:35.51	42.34	14.66	-46.7	-49.5	16.7	0.00e+00	0	42	0	142606336	64	5155
2026-01-07 22:28:36.22	42.44	14.72	-46.6	-49.3	16.8	0.00e+00	0	42	0	143654912	64	5040
2026-01-07 22:28:37.51	42.63	14.82	-46.6	-49.4	16.9	0.00e+00	0	42	0	146800640	64	5043
2026-01-07 22:28:38.23	42.73	14.87	-46.4	-49.1	17.1	0.00e+00	0	42	0	147849216	64	4918
2026-01-07 22:28:39.52	42.92	14.97	-46.3	-49.0	17.2	0.00e+00	0	42	0	149946368	64	4856
2026-01-07 22:28:40.24	43.03	15.02	-46.3	-49.0	17.3	0.00e+00	0	42	0	152043520	64	4816
2026-01-07 22:28:41.54	43.22	15.12	-46.2	-48.8	17.3	0.00e+00	0	42	0	154140672	64	4757
2026-01-07 22:28:42.26	43.33	15.18	-46.2	-48.8	17.4	0.00e+00	0	41	0	155189248	64	4740
2026-01-07 22:28:43.55	43.52	15.28	-45.9	-48.5	17.7	0.00e+00	0	42	0	157286400	63	4856
2026-01-07 22:28:44.26	43.63	15.33	-45.9	-48.5	17.7	0.00e+00	0	42	0	159383552	63	4847
2026-01-07 22:28:45.55	43.82	15.43	-45.9	-48.4	17.8	0.00e+00	0	42	0	161480704	63	4789
2026-01-07 22:28:46.26	43.93	15.48	-45.8	-48.3	17.9	0.00e+00	0	42	0	162529280	63	4753
2026-01-07 22:28:47.55	44.13	15.58	-45.7	-48.3	18.0	0.00e+00	0	42	0	165675008	63	4710
2026-01-07 22:28:48.27	44.24	15.64	-45.8	-48.4	17.9	0.00e+00	0	42	0	166723584	63	4762
2026-01-07 22:28:49.55	44.44	15.74	-45.6	-48.1	18.1	0.00e+00	0	41	0	168820736	63	4618
2026-01-07 22:28:50.27	44.55	15.79	-45.6	-48.1	18.1	0.00e+00	0	42	0	170917888	63	4630
2026-01-07 22:28:51.56	44.75	15.89	-45.6	-48.1	18.1	0.00e+00	0	42	0	173015040	63	4635
2026-01-07 22:28:52.27	44.86	15.95	-45.6	-48.1	18.2	0.00e+00	0	42	0	174063616	63	4599
2026-01-07 22:28:53.56	45.06	16.05	-45.6	-48.1	18.1	0.00e+00	0	42	0	176160768	63	4628
2026-01-07 22:28:54.28	45.18	16.10	-45.5	-48.0	18.2	0.00e+00	0	42	0	178257920	63	4572
2026-01-07 22:28:55.57	45.38	16.20	-45.6	-48.1	18.2	0.00e+00	0	42	0	180355072	62	4898
2026-01-07 22:28:56.29	45.50	16.26	-45.4	-47.9	18.3	0.00e+00	0	42	0	181403648	62	4766
2026-01-07 22:28:57.67	45.72	16.36	-45.5	-48.0	18.2	0.00e+00	0	42	0	184549376	62	4867
2026-01-07 22:28:58.39	45.84	16.42	-45.7	-48.2	18.0	0.00e+00	0	42	0	185597952	62	4964
2026-01-07 22:28:59.68	46.05	16.52	-45.8	-48.4	17.8	0.00e+00	0	42	0	187695104	62	5092
2026-01-07 22:29:00.39	46.16	16.57	-45.9	-48.4	17.8	0.00e+00	0	42	0	189792256	62	5095
2026-01-07 22:29:01.81	46.39	16.68	-46.1	-48.8	17.5	0.00e+00	0	42	0	191889408	62	5324
2026-01-07 22:29:02.53	46.51	16.74	-46.0	-48.6	17.7	0.00e+00	0	42	0	192937984	63	4919
2026-01-07 22:29:03.81	46.73	16.84	-46.0	-48.6	17.7	0.00e+00	0	42	0	196083712	63	4926
2026-01-07 22:29:04.53	46.85	16.89	-46.0	-48.6	17.7	0.00e+00	0	42	0	197132288	63	4890
2026-01-07 22:29:05.82	47.06	16.99	-45.9	-48.5	17.8	0.00e+00	0	42	0	199229440	63	4816
2026-01-07 22:29:06.54	47.18	17.05	-46.0	-48.6	17.7	0.00e+00	0	42	0	201326592	63	4876
2026-01-07 22:29:07.83	47.40	17.15	-46.0	-48.6	17.7	0.00e+00	0	42	0	203423744	63	4882
2026-01-07 22:29:08.55	47.52	17.20	-46.0	-48.7	17.6	0.00e+00	0	42	0	204472320	63	4931
2026-01-07 22:29:09.84	47.74	17.30	-46.0	-48.7	17.6	0.00e+00	0	41	0	207618048	63	4940
2026-01-07 22:29:10.60	47.87	17.36	-46.1	-48.8	17.5	0.00e+00	0	42	0	208666624	63	5027
2026-01-07 22:29:11.89	48.10	17.46	-46.0	-48.7	17.6	0.00e+00	0	42	0	210763776	63	4944
2026-01-07 22:29:12.67	48.23	17.52	-46.1	-48.7	17.6	0.00e+00	0	42	0	212860928	63	4972
2026-01-07 22:29:14.28	48.51	17.65	-46.0	-48.6	17.7	0.00e+00	0	42	0	214958080	63	4917
2026-01-07 22:29:14.85	48.61	17.69	-45.8	-48.4	17.8	0.00e+00	0	42	0	216006656	63	4789
2026-01-07 22:29:16.43	48.89	17.82	-45.7	-48.2	18.0	0.00e+00	0	42	0	219152384	63	4683
2026-01-07 22:29:17.00	48.99	17.86	-45.6	-48.0	18.2	0.00e+00	0	42	0	220200960	63	4597
2026-01-07 22:29:18.59	49.28	17.98	-45.3	-47.7	18.4	0.00e+00	0	42	0	223346688	62	4705
2026-01-07 22:29:19.17	49.38	18.03	-45.3	-47.8	18.4	0.00e+00	0	42	0	224395264	62	4707
2026-01-07 22:29:20.85	49.68	18.16	-45.3	-47.7	18.4	0.00e+00	0	42	0	227540992	62	4698
2026-01-07 22:29:21.43	49.79	18.20	-45.2	-47.6	18.5	0.00e+00	0	42	0	228589568	62	4638
2026-01-07 22:29:23.03	50.08	18.33	-45.0	-47.4	18.8	0.00e+00	0	42	0	231735296	62	4532
2026-01-07 22:29:23.60	50.18	18.37	-44.9	-47.3	18.8	0.00e+00	0	42	0	232783872	61	4745
2026-01-07 22:29:25.21	50.48	18.49	-44.8	-47.2	18.9	0.00e+00	0	42	0	235929600	61	4668
2026-01-07 22:29:25.79	50.59	18.54	-44.8	-47.1	19.0	0.00e+00	0	42	0	236978176	61	4640
2026-01-07 22:29:27.36	50.88	18.66	-44.7	-47.1	19.0	0.00e+00	0	42	0	240123904	61	4608
2026-01-07 22:29:27.94	50.99	18.70	-44.7	-47.1	19.1	0.00e+00	0	42	0	241172480	61	4599
2026-01-07 22:29:29.52	51.29	18.83	-44.8	-47.1	19.0	0.00e+00	0	42	0	244318208	61	4640
2026-01-07 22:29:30.10	51.40	18.87	-44.7	-47.0	19.1	0.00e+00	0	42	0	245366784	61	4564
2026-01-07 22:29:31.74	51.71	19.00	-44.7	-47.1	19.0	0.00e+00	0	42	0	248512512	61	4620
2026-01-07 22:29:32.32	51.82	19.04	-44.6	-46.9	19.2	0.00e+00	0	42	0	249561088	61	4539
2026-01-07 22:29:33.92	52.13	19.16	-44.6	-46.9	19.1	0.00e+00	0	42	0	252706816	61	4536
2026-01-07 22:29:34.50	52.24	19.21	-44.5	-46.8	19.2	0.00e+00	0	42	0	253755392	61	4463
2026-01-07 22:29:36.12	52.55	19.33	-44.5	-46.8	19.3	0.00e+00	0	42	0	256901120	60	4736
2026-01-07 22:29:36.69	52.66	19.38	-44.6	-46.9	19.2	0.00e+00	0	42	0	257949696	60	4784
2026-01-07 22:29:38.27	52.98	19.50	-44.5	-46.8	19.3	0.00e+00	0	42	0	260046848	60	4746
2026-01-07 22:29:38.88	53.10	19.54	-44.5	-46.9	19.2	0.00e+00	0	42	0	261095424	60	4761
2026-01-07 22:29:40.45	53.41	19.66	-44.6	-46.9	19.2	0.00e+00	0	42	0	264241152	60	4777
2026-01-07 22:29:41.04	53.53	19.71	-44.5	-46.8	19.3	0.00e+00	0	42	0	265289728	60	4710
2026-01-07 22:29:42.61	53.84	19.83	-44.6	-46.9	19.2	0.00e+00	0	42	0	268435456	60	4796
2026-01-07 22:29:43.28	53.98	19.88	-44.7	-47.0	19.1	0.00e+00	0	42	0	269484032	60	4842
2026-01-07 22:29:44.71	54.27	19.99	-44.7	-47.1	19.0	0.00e+00	0	42	0	272629760	60	4888
2026-01-07 22:29:45.43	54.41	20.04	-44.8	-47.2	19.0	0.00e+00	0	42	0	273678336	60	4932
2026-01-07 22:29:46.72	54.68	20.14	-44.8	-47.1	19.0	0.00e+00	0	42	0	276824064	60	4903
2026-01-07 22:29:47.52	54.84	20.20	-44.7	-47.1	19.0	0.00e+00	0	42	0	277872640	60	4899
2026-01-07 22:29:48.68	55.08	20.29	-44.7	-47.0	19.1	0.00e+00	0	42	0	279969792	60	4859
2026-01-07 22:29:49.75	55.30	20.37	-44.6	-47.0	19.2	0.00e+00	0	42	0	282066944	60	4819
2026-01-07 22:29:50.61	55.48	20.43	-44.6	-46.9	19.2	0.00e+00	0	42	0	283115520	60	4800
2026-01-07 22:29:51.75	55.72	20.52	-44.5	-46.8	19.3	0.00e+00	0	42	0	285212672	60	4734
2026-01-07 22:29:52.85	55.96	20.60	-44.4	-46.7	19.3	0.00e+00	0	42	0	287309824	60	4674
2026-01-07 22:29:53.71	56.14	20.66	-44.4	-46.7	19.4	0.00e+00	0	42	0	289406976	60	4664
2026-01-07 22:29:54.85	56.38	20.75	-44.3	-46.6	19.5	0.00e+00	0	42	0	291504128	60	4603
2026-01-07 22:29:55.71	56.56	20.81	-44.3	-46.5	19.5	0.00e+00	0	42	0	293601280	60	4567
2026-01-07 22:29:56.86	56.81	20.89	-44.3	-46.6	19.5	0.00e+00	0	42	0	295698432	60	4613
2026-01-07 22:29:57.72	57.00	20.96	-44.5	-46.9	19.2	0.00e+00	0	42	0	296747008	60	4762
2026-01-07 22:29:58.86	57.25	21.04	-44.9	-47.3	18.9	0.00e+00	0	42	0	298844160	60	4987
2026-01-07 22:29:59.72	57.43	21.10	-44.9	-47.3	18.8	0.00e+00	0	42	0	300941312	60	5033
2026-01-07 22:30:00.87	57.69	21.19	-45.1	-47.5	18.7	0.00e+00	0	42	0	303038464	60	5132
2026-01-07 22:30:01.73	57.87	21.25	-45.0	-47.4	18.7	0.00e+00	0	42	0	304087040	60	5067
2026-01-07 22:30:02.87	58.13	21.33	-44.9	-47.2	18.9	0.00e+00	0	42	0	306184192	60	4980
2026-01-07 22:30:03.73	58.32	21.40	-44.9	-47.2	18.9	0.00e+00	0	42	0	308281344	60	4959
2026-01-07 22:30:04.87	58.57	21.48	-44.9	-47.3	18.9	0.00e+00	0	42	0	310378496	60	4989
2026-01-07 22:30:05.73	58.77	21.54	-45.0	-47.4	18.8	0.00e+00	0	42	0	311427072	60	5068
2026-01-07 22:30:06.88	59.02	21.62	-45.1	-47.6	18.6	0.00e+00	0	42	0	314572800	61	4889
2026-01-07 22:30:07.74	59.22	21.69	-45.2	-47.7	18.5	0.00e+00	0	42	0	315621376	61	4982
2026-01-07 22:30:08.89	59.48	21.77	-45.1	-47.6	18.6	0.00e+00	0	42	0	317718528	61	4918
2026-01-07 22:30:09.75	59.68	21.83	-44.9	-47.3	18.8	0.00e+00	0	42	0	319815680	61	4736
2026-01-07 22:30:10.89	59.94	21.91	-44.7	-47.1	19.0	0.00e+00	0	42	0	321912832	61	4629
2026-01-07 22:30:12.03	60.20	21.99	-44.7	-47.0	19.1	0.00e+00	0	42	0	324009984	61	4581
2026-01-07 22:30:13.04	60.44	22.06	-45.0	-47.3	18.8	0.00e+00	0	42	0	326107136	61	4759
2026-01-07 22:30:14.05	60.67	22.13	-45.2	-47.7	18.5	0.00e+00	0	42	0	327155712	61	4952
2026-01-07 22:30:15.05	60.90	22.20	-45.6	-48.1	18.2	0.00e+00	0	42	0	329252864	61	5196
2026-01-07 22:30:16.06	61.14	22.27	-46.1	-48.7	17.6	0.00e+00	0	42	0	331350016	62	5278
2026-01-07 22:30:17.06	61.38	22.34	-46.0	-48.7	17.7	0.00e+00	0	42	0	333447168	62	5235
2026-01-07 22:30:18.07	61.62	22.41	-45.9	-48.5	17.9	0.00e+00	0	42	0	334495744	62	5101
2026-01-07 22:30:19.07	61.85	22.48	-45.4	-47.8	18.4	0.00e+00	0	42	0	336592896	62	4730
2026-01-07 22:30:20.07	62.09	22.55	-44.9	-47.2	18.9	0.00e+00	0	42	0	338690048	61	4687
2026-01-07 22:30:21.08	62.34	22.61	-44.9	-47.3	18.9	0.00e+00	0	42	0	340787200	61	4708
2026-01-07 22:30:22.08	62.58	22.68	-45.0	-47.4	18.8	0.00e+00	0	42	0	342884352	61	4785
2026-01-07 22:30:23.10	62.82	22.75	-45.3	-47.7	18.6	0.00e+00	0	42	0	344981504	61	4948
2026-01-07 22:30:24.10	63.07	22.82	-45.4	-47.9	18.4	0.00e+00	0	42	0	346030080	61	5056
2026-01-07 22:30:25.10	63.31	22.88	-45.6	-48.1	18.2	0.00e+00	0	42	0	348127232	62	4918
2026-01-07 22:30:26.17	63.57	22.95	-45.6	-48.0	18.2	0.00e+00	0	42	0	350224384	62	4855
2026-01-07 22:30:27.06	63.79	23.01	-45.5	-47.9	18.4	0.00e+00	0	42	0	352321536	62	4793
2026-01-07 22:30:28.11	64.05	23.08	-45.4	-47.8	18.4	0.00e+00	0	42	0	353370112	62	4742
2026-01-07 22:30:29.00	64.27	23.14	-45.7	-48.1	18.2	0.00e+00	0	42	0	355467264	62	4911
2026-01-07 22:30:30.14	64.56	23.21	-46.0	-48.6	17.8	0.00e+00	0	42	0	357564416	62	5160
2026-01-07 22:30:31.00	64.77	23.27	-46.1	-48.7	17.7	0.00e+00	0	42	0	359661568	63	4950
2026-01-07 22:30:32.15	65.06	23.34	-46.2	-48.9	17.6	0.00e+00	0	42	0	361758720	63	5058
2026-01-07 22:30:33.01	65.28	23.40	-46.2	-48.7	17.6	0.00e+00	0	42	0	362807296	63	4981
2026-01-07 22:30:34.16	65.57	23.47	-46.0	-48.5	17.8	0.00e+00	0	42	0	364904448	63	4849
2026-01-07 22:30:35.37	65.88	23.54	-45.9	-48.4	17.9	0.00e+00	0	42	0	368050176	63	4808
2026-01-07 22:30:36.40	66.14	23.61	-45.8	-48.3	18.0	0.00e+00	0	42	0	369098752	63	4754
2026-01-07 22:30:37.40	66.40	23.67	-46.3	-48.9	17.5	0.00e+00	0	42	0	371195904	63	5096
2026-01-07 22:30:38.40	66.65	23.73	-46.6	-49.3	17.1	0.00e+00	0	42	0	373293056	63	5313
2026-01-07 22:30:39.41	66.92	23.79	-46.6	-49.4	17.0	0.00e+00	0	42	0	375390208	64	5066
2026-01-07 22:30:40.41	67.18	23.85	-46.8	-49.6	16.8	0.00e+00	0	42	0	376438784	64	5191
2026-01-07 22:30:41.41	67.44	23.91	-47.2	-50.1	16.3	0.00e+00	0	42	0	378535936	65	5209
2026-01-07 22:30:42.42	67.70	23.97	-47.3	-50.4	16.1	0.00e+00	0	42	0	380633088	65	5349
2026-01-07 22:30:43.42	67.96	24.03	-47.6	-50.7	15.7	0.00e+00	0	42	0	382730240	65	5571
2026-01-07 22:30:44.42	68.23	24.09	-47.3	-50.3	16.0	0.00e+00	0	42	0	384827392	65	5315
2026-01-07 22:30:45.42	68.49	24.15	-47.2	-50.2	16.2	0.00e+00	0	42	0	385875968	65	5242
2026-01-07 22:30:46.43	68.76	24.20	-46.8	-49.6	16.8	0.00e+00	0	42	0	387973120	65	4883
2026-01-07 22:30:47.46	69.03	24.26	-46.6	-49.4	17.0	0.00e+00	0	42	0	390070272	65	4777
2026-01-07 22:30:48.46	69.30	24.32	-46.2	-48.8	17.5	0.00e+00	0	42	0	392167424	64	4758
2026-01-07 22:30:49.46	69.57	24.37	-46.3	-49.0	17.4	0.00e+00	0	42	0	394264576	64	4840
2026-01-07 22:30:50.47	69.84	24.43	-46.6	-49.4	16.9	0.00e+00	0	42	0	395313152	64	5090
2026-01-07 22:30:51.47	70.11	24.48	-47.2	-50.3	16.1	0.00e+00	0	42	0	397410304	65	5308
2026-01-07 22:30:52.47	70.38	24.54	-47.9	-51.2	15.3	0.00e+00	0	42	0	399507456	66	5562
2026-01-07 22:30:53.48	70.66	24.59	-48.1	-51.6	14.9	0.00e+00	0	42	0	401604608	67	5500
2026-01-07 22:30:54.48	70.93	24.65	-48.4	-52.1	14.4	0.00e+00	0	42	0	403701760	67	5834
2026-01-07 22:30:55.49	71.21	24.70	-48.3	-51.8	14.7	1.50e-06	0	42	0	404750336	67	5647
2026-01-07 22:30:56.49	71.48	24.75	-48.2	-51.8	14.7	0.00e+00	0	42	0	406847488	67	5628
2026-01-07 22:30:57.49	71.76	24.80	-48.3	-51.9	14.6	0.00e+00	0	42	0	408944640	67	5699
2026-01-07 22:30:58.50	72.03	24.85	-48.2	-51.8	14.7	0.00e+00	0	42	0	411041792	67	5596
2026-01-07 22:30:59.50	72.31	24.90	-48.4	-52.1	14.4	0.00e+00	0	42	0	413138944	67	5809
2026-01-07 22:31:00.50	72.59	24.95	-48.1	-51.6	14.9	7.00e-07	0	42	0	414187520	67	5476
2026-01-07 22:31:01.51	72.87	25.00	-47.7	-50.9	15.5	0.00e+00	0	42	0	416284672	67	5061
2026-01-07 22:31:02.51	73.15	25.05	-47.5	-50.6	15.8	0.00e+00	0	42	0	418381824	66	5173
2026-01-07 22:31:03.51	73.43	25.10	-47.3	-50.3	16.1	0.00e+00	0	42	0	420478976	66	5030
2026-01-07 22:31:04.58	73.73	25.15	-47.7	-50.9	15.5	0.00e+00	0	42	0	422576128	66	5387
2026-01-07 22:31:05.44	73.98	25.19	-47.9	-51.3	15.2	7.00e-07	0	42	0	423624704	66	5618
2026-01-07 22:31:06.58	74.30	25.24	-48.2	-51.7	14.7	0.00e+00	0	42	0	425721856	67	5569
2026-01-07 22:31:07.45	74.55	25.28	-48.5	-52.3	14.1	0.00e+00	0	42	0	427819008	67	5962
2026-01-07 22:31:08.59	74.87	25.33	-48.2	-51.7	14.7	0.00e+00	0	42	0	429916160	67	5564
2026-01-07 22:31:09.45	75.12	25.37	-48.0	-51.5	15.0	0.00e+00	0	42	0	430964736	67	5403
2026-01-07 22:31:10.60	75.45	25.42	-47.8	-51.1	15.3	0.00e+00	0	42	0	433061888	67	5209
2026-01-07 22:31:11.46	75.69	25.45	-47.9	-51.3	15.1	0.00e+00	0	42	0	435159040	67	5298
2026-01-07 22:31:12.61	76.03	25.50	-48.2	-51.8	14.6	0.00e+00	0	42	0	437256192	67	5647
2026-01-07 22:31:13.47	76.27	25.54	-48.5	-52.4	14.0	0.00e+00	0	42	0	439353344	67	5993
2026-01-07 22:31:14.61	76.60	25.58	-48.4	-52.1	14.5	7.00e-07	0	42	0	441450496	67	5802
2026-01-07 22:31:15.47	76.85	25.62	-48.2	-51.9	14.6	0.00e+00	0	42	0	442499072	67	5670
2026-01-07 22:31:16.62	77.19	25.66	-47.8	-51.2	15.2	0.00e+00	0	42	0	444596224	67	5264
2026-01-07 22:31:17.84	77.54	25.71	-47.4	-50.6	15.9	0.00e+00	0	42	0	446693376	66	5166
2026-01-07 22:31:18.70	77.80	25.74	-47.2	-50.2	16.2	0.00e+00	0	42	0	448790528	66	4953
2026-01-07 22:31:19.85	78.13	25.78	-47.2	-50.2	16.1	0.00e+00	0	42	0	450887680	66	4981
2026-01-07 22:31:20.71	78.39	25.81	-47.1	-50.1	16.3	0.00e+00	0	42	0	452984832	66	4925
2026-01-07 22:31:21.86	78.72	25.85	-47.3	-50.5	16.0	0.00e+00	0	42	0	455081984	66	5101
2026-01-07 22:31:22.72	78.98	25.88	-47.4	-50.6	15.9	0.00e+00	0	42	0	456130560	66	5166
2026-01-07 22:31:23.87	79.32	25.92	-47.6	-50.8	15.7	0.00e+00	0	42	0	458227712	66	5293
2026-01-07 22:31:24.73	79.57	25.95	-47.6	-50.8	15.6	0.00e+00	0	42	0	460324864	66	5339
2026-01-07 22:31:25.87	79.91	25.99	-47.7	-51.0	15.4	0.00e+00	0	42	0	462422016	66	5449
2026-01-07 22:31:26.74	80.17	26.01	-47.6	-50.8	15.6	0.00e+00	0	42	0	463470592	66	5287
2026-01-07 22:31:28.04	80.56	26.05	-47.5	-50.7	15.7	0.00e+00	0	42	0	466616320	66	5274
2026-01-07 22:31:28.76	80.77	26.07	-47.6	-50.8	15.7	0.00e+00	0	42	0	467664896	66	5318
2026-01-07 22:31:30.05	81.16	26.11	-47.4	-50.6	15.8	0.00e+00	0	42	0	469762048	66	5182
2026-01-07 22:31:30.76	81.37	26.13	-47.2	-50.3	16.2	0.00e+00	0	42	0	470810624	66	4994
2026-01-07 22:31:32.06	81.76	26.17	-46.7	-49.6	16.8	0.00e+00	0	42	0	473956352	65	4885
2026-01-07 22:31:32.77	81.98	26.19	-46.9	-49.8	16.5	0.00e+00	0	42	0	475004928	65	5031
2026-01-07 22:31:34.06	82.37	26.22	-46.8	-49.8	16.6	0.00e+00	0	42	0	477102080	65	5019
2026-01-07 22:31:34.87	82.61	26.24	-47.1	-50.2	16.2	0.00e+00	0	42	0	479199232	65	5248
2026-01-07 22:31:36.02	82.96	26.27	-47.6	-50.9	15.5	0.00e+00	0	42	0	481296384	65	5719
2026-01-07 22:31:36.88	83.22	26.29	-47.8	-51.4	15.1	0.00e+00	0	42	0	482344960	66	5667
2026-01-07 22:31:38.03	83.57	26.31	-47.4	-50.7	15.8	0.00e+00	0	42	0	485490688	66	5239
2026-01-07 22:31:38.89	83.83	26.33	-46.8	-49.9	16.6	0.00e+00	0	42	0	486539264	65	5042
2026-01-07 22:31:40.03	84.17	26.36	-46.5	-49.5	16.9	0.00e+00	0	42	0	488636416	65	4848
2026-01-07 22:31:40.89	84.44	26.37	-46.6	-49.6	16.9	0.00e+00	0	42	0	490733568	65	4874
2026-01-07 22:31:42.04	84.79	26.39	-46.8	-49.8	16.6	0.00e+00	0	42	0	492830720	65	5024
2026-01-07 22:31:42.90	85.05	26.41	-46.9	-50.0	16.4	0.00e+00	0	42	0	493879296	65	5109
2026-01-07 22:31:44.05	85.40	26.43	-47.4	-50.6	15.9	0.00e+00	0	42	0	495976448	65	5496
2026-01-07 22:31:44.91	85.66	26.44	-47.4	-50.6	15.8	0.00e+00	0	42	0	498073600	65	5512
2026-01-07 22:31:46.05	86.01	26.46	-47.3	-50.3	16.1	0.00e+00	0	42	0	500170752	65	5340
2026-01-07 22:31:46.92	86.28	26.48	-47.0	-49.9	16.6	0.00e+00	0	42	0	501219328	65	5073
2026-01-07 22:31:48.06	86.63	26.49	-47.0	-49.9	16.5	0.00e+00	0	42	0	503316480	65	5095
2026-01-07 22:31:49.03	86.93	26.50	-47.1	-50.1	16.3	0.00e+00	0	42	0	505413632	65	5195
2026-01-07 22:31:50.21	87.29	26.52	-47.2	-50.2	16.3	0.00e+00	0	42	0	507510784	65	5245
2026-01-07 22:31:51.07	87.55	26.53	-47.1	-50.0	16.5	0.00e+00	0	42	0	509607936	65	5136
2026-01-07 22:31:52.39	87.96	26.54	-46.8	-49.6	16.8	0.00e+00	0	42	0	511705088	65	4914
2026-01-07 22:31:53.11	88.18	26.55	-46.7	-49.5	17.0	0.00e+00	0	42	0	512753664	65	4816
2026-01-07 22:31:54.64	88.65	26.56	-46.5	-49.2	17.2	0.00e+00	0	42	0	515899392	64	4961
2026-01-07 22:31:55.35	88.87	26.57	-46.8	-49.7	16.8	0.00e+00	0	42	0	516947968	64	5224
2026-01-07 22:31:56.64	89.27	26.58	-47.2	-50.1	16.3	0.00e+00	0	42	0	520093696	65	5210
2026-01-07 22:31:57.36	89.49	26.58	-47.3	-50.4	16.1	0.00e+00	0	42	0	521142272	65	5348
2026-01-07 22:31:58.65	89.89	26.59	-47.3	-50.3	16.1	0.00e+00	0	42	0	523239424	65	5340
2026-01-07 22:31:59.37	90.11	26.59	-47.0	-49.9	16.5	0.00e+00	0	42	0	525336576	65	5077
2026-01-07 22:32:00.66	90.51	26.59	-46.8	-49.6	16.8	0.00e+00	0	42	0	527433728	65	4918
2026-01-07 22:32:01.37	90.73	26.59	-47.0	-49.8	16.6	0.00e+00	0	42	0	528482304	65	5017
2026-01-07 22:32:02.66	91.13	26.60	-47.3	-50.2	16.3	0.00e+00	0	42	0	531628032	65	5262
2026-01-07 22:32:03.38	91.35	26.60	-47.3	-50.2	16.3	0.00e+00	0	42	0	532676608	65	5259
2026-01-07 22:32:04.67	91.75	26.60	-47.2	-50.0	16.4	0.00e+00	0	42	0	534773760	65	5141
2026-01-07 22:32:05.39	91.97	26.60	-47.0	-49.9	16.6	0.00e+00	0	42	0	535822336	65	5050
2026-01-07 22:32:06.68	92.37	26.59	-46.9	-49.7	16.7	0.00e+00	0	42	0	538968064	65	4983
2026-01-07 22:32:07.40	92.60	26.59	-47.0	-49.9	16.5	0.00e+00	0	42	0	540016640	65	5090
2026-01-07 22:32:08.69	92.99	26.59	-47.5	-50.6	15.8	0.00e+00	0	42	0	542113792	65	5526
2026-01-07 22:32:09.68	93.30	26.58	-47.7	-50.8	15.6	0.00e+00	0	42	0	544210944	66	5337
2026-01-07 22:32:10.98	93.70	26.57	-47.9	-51.1	15.4	0.00e+00	0	42	0	546308096	66	5520
2026-01-07 22:32:11.70	93.92	26.57	-48.1	-51.3	15.2	0.00e+00	0	42	0	548405248	67	5319
2026-01-07 22:32:12.99	94.32	26.56	-47.8	-50.9	15.6	0.00e+00	0	42	0	550502400	67	5080
2026-01-07 22:32:13.71	94.54	26.55	-47.6	-50.7	15.8	0.00e+00	0	42	0	551550976	67	4936
2026-01-07 22:32:15.00	94.94	26.54	-47.0	-49.8	16.7	0.00e+00	0	42	0	554696704	66	4718
2026-01-07 22:32:15.71	95.16	26.53	-46.7	-49.3	17.0	0.00e+00	0	42	0	555745280	65	4738
2026-01-07 22:32:17.00	95.56	26.52	-46.4	-49.0	17.4	0.00e+00	0	42	0	557842432	64	4827
2026-01-07 22:32:17.72	95.78	26.51	-46.5	-49.1	17.3	0.00e+00	0	42	0	559939584	64	4886
2026-01-07 22:32:19.01	96.17	26.49	-46.6	-49.2	17.2	0.00e+00	0	42	0	562036736	64	4964
2026-01-07 22:32:19.72	96.39	26.48	-46.9	-49.6	16.8	0.00e+00	0	42	0	563085312	64	5201
2026-01-07 22:32:21.02	96.79	26.46	-46.7	-49.4	16.9	0.00e+00	0	42	0	565182464	64	5086
2026-01-07 22:32:21.73	97.01	26.45	-46.6	-49.2	17.2	0.00e+00	0	42	0	567279616	64	4955
2026-01-07 22:32:23.02	97.40	26.43	-46.3	-48.8	17.6	0.00e+00	0	42	0	569376768	64	4738
2026-01-07 22:32:23.74	97.62	26.42	-46.2	-48.8	17.6	0.00e+00	0	42	0	570425344	64	4711
2026-01-07 22:32:25.03	98.02	26.40	-46.4	-49.1	17.3	0.00e+00	0	42	0	573571072	64	4871
2026-01-07 22:32:25.75	98.24	26.38	-46.5	-49.1	17.3	0.00e+00	0	42	0	574619648	64	4907
2026-01-07 22:32:27.04	98.63	26.36	-46.5	-49.1	17.3	0.00e+00	0	42	0	576716800	64	4909
2026-01-07 22:32:27.75	98.85	26.34	-46.3	-48.9	17.6	0.00e+00	0	42	0	577765376	64	4765
2026-01-07 22:32:29.04	99.24	26.32	-46.0	-48.5	18.0	0.00e+00	0	42	0	580911104	63	4815
2026-01-07 22:32:29.76	99.46	26.30	-46.0	-48.5	17.9	0.00e+00	0	42	0	581959680	63	4830
2026-01-07 22:32:31.17	99.89	26.27	-45.6	-48.1	18.3	0.00e+00	0	42	0	585105408	63	4604
2026-01-07 22:32:31.89	100.11	26.25	-45.7	-48.2	18.2	0.00e+00	0	42	0	586153984	63	4658
2026-01-07 22:32:33.18	100.50	26.22	-46.2	-48.7	17.7	0.00e+00	0	42	0	588251136	63	4970
2026-01-07 22:32:33.89	100.71	26.20	-46.6	-49.3	17.2	0.00e+00	0	42	0	589299712	63	5296
2026-01-07 22:32:35.18	101.10	26.17	-47.0	-49.8	16.6	0.00e+00	0	42	0	592445440	64	5324
2026-01-07 22:32:35.90	101.32	26.15	-47.3	-50.2	16.3	0.00e+00	0	42	0	593494016	65	5236
2026-01-07 22:32:37.19	101.70	26.11	-47.2	-50.1	16.4	0.00e+00	0	42	0	595591168	65	5167
2026-01-07 22:32:37.91	101.92	26.09	-47.3	-50.2	16.2	0.00e+00	0	42	0	597688320	65	5271
2026-01-07 22:32:39.20	102.31	26.05	-47.0	-49.9	16.6	0.00e+00	0	42	0	599785472	65	5053
2026-01-07 22:32:39.91	102.52	26.03	-46.9	-49.7	16.8	0.00e+00	0	42	0	600834048	65	4929
2026-01-07 22:32:41.20	102.90	25.99	-46.6	-49.3	17.1	0.00e+00	0	42	0	602931200	65	4738
2026-01-07 22:32:41.92	103.12	25.97	-46.2	-48.8	17.6	0.00e+00	0	42	0	605028352	64	4748
2026-01-07 22:32:43.21	103.50	25.93	-45.8	-48.2	18.2	0.00e+00	0	42	0	607125504	63	4676
2026-01-07 22:32:43.93	103.71	25.90	-45.5	-47.9	18.5	0.00e+00	0	42	0	608174080	63	4515
2026-01-07 22:32:45.22	104.10	25.86	-45.2	-47.4	18.8	0.00e+00	0	42	0	611319808	62	4533
2026-01-07 22:32:45.93	104.31	25.83	-44.8	-47.0	19.3	0.00e+00	0	42	0	612368384	61	4561
2026-01-07 22:32:47.22	104.69	25.79	-44.7	-46.9	19.3	0.00e+00	0	42	0	614465536	61	4495
2026-01-07 22:32:48.29	105.00	25.75	-45.0	-47.2	19.1	0.00e+00	0	42	0	616562688	61	4669
2026-01-07 22:32:49.15	105.25	25.72	-45.3	-47.6	18.8	0.00e+00	0	42	0	618659840	61	4879
2026-01-07 22:32:50.29	105.59	25.67	-45.8	-48.2	18.2	0.00e+00	0	42	0	620756992	62	4968
2026-01-07 22:32:51.15	105.84	25.64	-46.0	-48.5	17.9	0.00e+00	0	42	0	621805568	62	5147
2026-01-07 22:32:52.30	106.17	25.59	-45.8	-48.2	18.2	0.00e+00	0	42	0	623902720	62	4970
2026-01-07 22:32:53.16	106.42	25.56	-45.5	-47.9	18.5	0.00e+00	0	42	0	625999872	62	4777
2026-01-07 22:32:54.42	106.79	25.51	-44.9	-47.1	19.1	0.00e+00	0	42	0	628097024	61	4625
2026-01-07 22:32:55.19	107.01	25.47	-44.8	-47.0	19.2	0.00e+00	0	42	0	629145600	61	4566
2026-01-07 22:32:56.48	107.38	25.42	-44.8	-47.0	19.2	0.00e+00	0	42	0	632291328	61	4587
2026-01-07 22:32:57.20	107.59	25.39	-44.8	-47.0	19.2	0.00e+00	0	42	0	633339904	61	4579
2026-01-07 22:32:58.49	107.96	25.33	-44.6	-46.7	19.5	0.00e+00	0	42	0	635437056	61	4438
2026-01-07 22:32:59.20	108.16	25.30	-44.7	-46.9	19.3	0.00e+00	0	42	0	637534208	61	4508
2026-01-07 22:33:00.49	108.53	25.24	-44.4	-46.5	19.6	0.00e+00	0	42	0	639631360	60	4585
2026-01-07 22:33:01.21	108.73	25.21	-44.3	-46.5	19.7	0.00e+00	0	42	0	640679936	60	4558
2026-01-07 22:33:02.50	109.10	25.15	-43.8	-45.9	20.1	0.00e+00	0	42	0	643825664	59	4505
2026-01-07 22:33:03.21	109.30	25.12	-43.9	-45.9	20.1	0.00e+00	0	42	0	644874240	59	4529
2026-01-07 22:33:04.50	109.66	25.06	-44.3	-46.4	19.7	0.00e+00	0	42	0	646971392	59	4762
2026-01-07 22:33:05.22	109.87	25.02	-44.6	-46.8	19.3	0.00e+00	0	42	0	648019968	59	5024
2026-01-07 22:33:06.57	110.24	24.96	-45.1	-47.4	18.9	0.00e+00	0	42	0	651165696	60	5073
2026-01-07 22:33:07.29	110.44	24.92	-45.2	-47.5	18.8	0.00e+00	0	42	0	652214272	61	4818
2026-01-07 22:33:08.64	110.82	24.85	-45.2	-47.5	18.8	0.00e+00	0	42	0	655360000	61	4842
2026-01-07 22:33:09.36	111.02	24.82	-45.0	-47.3	19.0	0.00e+00	0	42	0	656408576	61	4720
2026-01-07 22:33:10.74	111.40	24.74	-44.7	-46.9	19.3	0.00e+00	0	42	0	658505728	61	4523
2026-01-07 22:33:11.46	111.60	24.71	-44.7	-46.9	19.3	0.00e+00	0	42	0	660602880	61	4525
2026-01-07 22:33:12.75	111.96	24.64	-44.2	-46.3	19.8	0.00e+00	0	42	0	662700032	60	4487
2026-01-07 22:33:13.46	112.15	24.60	-44.2	-46.4	19.7	0.00e+00	0	42	0	663748608	60	4501
2026-01-07 22:33:14.75	112.50	24.53	-44.2	-46.4	19.7	0.00e+00	0	42	0	665845760	60	4513
2026-01-07 22:33:15.47	112.70	24.49	-44.2	-46.4	19.8	0.00e+00	0	42	0	667942912	60	4512
2026-01-07 22:33:16.76	113.05	24.42	-44.4	-46.6	19.6	0.00e+00	0	42	0	670040064	60	4599
2026-01-07 22:33:17.48	113.24	24.38	-44.6	-46.8	19.4	0.00e+00	0	42	0	671088640	60	4752
2026-01-07 22:33:18.77	113.59	24.31	-44.7	-46.9	19.3	0.00e+00	0	42	0	674234368	60	4803
2026-01-07 22:33:19.49	113.78	24.27	-44.8	-47.0	19.2	0.00e+00	0	42	0	675282944	60	4865
2026-01-07 22:33:20.78	114.13	24.20	-44.9	-47.2	19.1	0.00e+00	0	42	0	677380096	60	4942
2026-01-07 22:33:21.62	114.35	24.15	-44.8	-47.0	19.2	0.00e+00	0	42	0	679477248	60	4853
2026-01-07 22:33:22.77	114.66	24.08	-44.7	-46.9	19.3	0.00e+00	0	42	0	681574400	60	4785
2026-01-07 22:33:23.83	114.94	24.02	-44.6	-46.7	19.4	0.00e+00	0	42	0	683671552	60	4697
2026-01-07 22:33:24.87	115.21	23.96	-44.7	-46.9	19.4	0.00e+00	0	42	0	685768704	60	4771
2026-01-07 22:33:25.87	115.47	23.90	-44.8	-47.0	19.2	0.00e+00	0	42	0	686817280	60	4847
2026-01-07 22:33:26.87	115.73	23.84	-44.9	-47.2	19.1	0.00e+00	0	42	0	688914432	60	4933
2026-01-07 22:33:27.88	116.00	23.78	-45.1	-47.4	18.8	0.00e+00	0	42	0	691011584	60	5047
2026-01-07 22:33:28.88	116.26	23.71	-44.9	-47.1	19.1	0.00e+00	0	42	0	693108736	61	4634
2026-01-07 22:33:29.89	116.52	23.65	-44.7	-46.9	19.3	0.00e+00	0	42	0	695205888	61	4536
2026-01-07 22:33:30.89	116.77	23.59	-44.8	-47.0	19.3	0.00e+00	0	42	0	696254464	61	4546
2026-01-07 22:33:31.89	117.03	23.53	-44.8	-47.0	19.2	0.00e+00	0	42	0	698351616	61	4582
2026-01-07 22:33:32.90	117.29	23.46	-45.2	-47.4	18.9	0.00e+00	0	42	0	700448768	61	4810
2026-01-07 22:33:33.90	117.54	23.40	-45.4	-47.8	18.6	0.00e+00	0	42	0	702545920	61	5001
2026-01-07 22:33:34.90	117.80	23.34	-45.9	-48.4	18.0	0.00e+00	0	42	0	703594496	62	5081
2026-01-07 22:33:35.94	118.06	23.27	-46.2	-48.8	17.6	0.00e+00	0	42	0	705691648	63	4999
2026-01-07 22:33:36.94	118.31	23.21	-46.3	-48.9	17.6	0.00e+00	0	42	0	707788800	63	5059
2026-01-07 22:33:38.05	118.59	23.13	-45.9	-48.5	17.9	0.00e+00	0	42	0	709885952	63	4822
2026-01-07 22:33:38.91	118.80	23.08	-45.7	-48.2	18.2	0.00e+00	0	42	0	711983104	63	4676
2026-01-07 22:33:40.06	119.09	23.00	-45.5	-47.8	18.5	0.00e+00	0	42	0	714080256	63	4480
2026-01-07 22:33:40.91	119.30	22.95	-45.2	-47.5	18.8	0.00e+00	0	42	0	715128832	62	4567
2026-01-07 22:33:42.06	119.58	22.87	-45.1	-47.4	18.9	0.00e+00	0	42	0	717225984	62	4524
2026-01-07 22:33:42.92	119.79	22.81	-45.2	-47.4	18.8	0.00e+00	0	42	0	719323136	62	4537
2026-01-07 22:33:44.07	120.07	22.74	-45.1	-47.4	18.9	0.00e+00	0	42	0	721420288	62	4519
2026-01-07 22:33:45.22	120.35	22.66	-45.2	-47.6	18.7	0.00e+00	0	42	0	723517440	62	4600
2026-01-07 22:33:46.25	120.60	22.59	-45.1	-47.3	19.0	0.00e+00	0	42	0	725614592	62	4478
2026-01-07 22:33:47.46	120.89	22.51	-45.0	-47.3	19.0	0.00e+00	0	42	0	727711744	61	4724
2026-01-07 22:33:48.35	121.10	22.44	-45.1	-47.3	18.9	0.00e+00	0	42	0	729808896	61	4733
2026-01-07 22:33:49.38	121.35	22.37	-45.3	-47.7	18.6	0.00e+00	0	42	0	730857472	61	4927
2026-01-07 22:33:50.56	121.63	22.29	-45.7	-48.1	18.3	0.00e+00	0	42	0	732954624	61	5173
2026-01-07 22:33:51.42	121.83	22.23	-45.8	-48.3	18.1	0.00e+00	0	42	0	735051776	62	4991
2026-01-07 22:33:52.56	122.10	22.15	-45.8	-48.2	18.1	0.00e+00	0	42	0	737148928	62	4983
2026-01-07 22:33:53.42	122.30	22.09	-45.7	-48.0	18.3	0.00e+00	0	42	0	739246080	62	4863
2026-01-07 22:33:54.57	122.57	22.01	-45.6	-47.9	18.4	0.00e+00	0	43	0	741343232	62	4804
2026-01-07 22:33:55.43	122.77	21.95	-45.8	-48.2	18.1	0.00e+00	0	42	0	742391808	62	4966
2026-01-07 22:33:56.58	123.04	21.87	-45.8	-48.3	18.1	0.00e+00	0	42	0	744488960	62	5003
2026-01-07 22:33:57.44	123.24	21.81	-45.9	-48.3	18.0	0.00e+00	0	42	0	746586112	62	5036
2026-01-07 22:33:58.59	123.50	21.72	-45.9	-48.4	18.0	0.00e+00	0	42	0	748683264	62	5045
2026-01-07 22:33:59.45	123.69	21.66	-45.8	-48.2	18.1	0.00e+00	0	42	0	749731840	62	4968
2026-01-07 22:34:00.60	123.96	21.58	-45.8	-48.2	18.2	0.00e+00	0	42	0	751828992	62	4943
2026-01-07 22:34:01.45	124.15	21.52	-45.6	-48.0	18.3	0.00e+00	0	42	0	753926144	62	4837
2026-01-07 22:34:02.60	124.41	21.43	-45.6	-48.1	18.3	0.00e+00	0	42	0	756023296	62	4875
2026-01-07 22:34:03.46	124.60	21.37	-45.9	-48.3	18.0	0.00e+00	0	42	0	758120448	62	5031
2026-01-07 22:34:04.60	124.85	21.29	-46.4	-49.0	17.4	0.00e+00	0	42	0	760217600	63	5101
2026-01-07 22:34:05.47	125.05	21.22	-46.7	-49.4	16.9	0.00e+00	0	42	0	761266176	64	5096
2026-01-07 22:34:06.61	125.30	21.14	-46.8	-49.7	16.7	0.00e+00	0	42	0	763363328	64	5221
2026-01-07 22:34:07.47	125.49	21.08	-46.8	-49.7	16.5	0.00e+00	0	42	0	765460480	64	5276
2026-01-07 22:34:08.62	125.74	20.99	-46.0	-48.5	17.6	0.00e+00	0	42	0	767557632	64	4576
2026-01-07 22:34:09.64	125.96	20.92	-45.7	-48.1	18.1	0.00e+00	0	42	0	769654784	63	4641
2026-01-07 22:34:10.85	126.22	20.83	-45.0	-47.4	18.7	0.00e+00	0	42	0	771751936	62	4518
2026-01-07 22:34:11.74	126.41	20.76	-45.0	-47.4	18.7	0.00e+00	0	42	0	772800512	61	4780
2026-01-07 22:34:12.88	126.66	20.68	-44.9	-47.1	18.9	0.00e+00	0	42	0	774897664	61	4643
2026-01-07 22:34:13.81	126.86	20.61	-45.0	-47.3	18.8	0.00e+00	0	42	0	776994816	61	4748
2026-01-07 22:34:14.99	127.11	20.52	-45.5	-47.9	18.2	0.00e+00	0	42	0	779091968	61	5091
2026-01-07 22:34:15.85	127.29	20.45	-45.9	-48.4	17.9	0.00e+00	0	42	0	781189120	62	5050
2026-01-07 22:34:16.99	127.53	20.37	-46.2	-48.8	17.5	0.00e+00	0	42	0	783286272	63	5004
2026-01-07 22:34:17.85	127.71	20.30	-46.4	-49.0	17.3	0.00e+00	0	42	0	784334848	63	5130
2026-01-07 22:34:19.00	127.95	20.21	-46.3	-49.0	17.3	0.00e+00	0	42	0	786432000	63	5106
2026-01-07 22:34:20.05	128.17	20.14	-46.3	-48.9	17.3	0.00e+00	0	42	0	788529152	63	5081
2026-01-07 22:34:21.13	128.39	20.05	-46.4	-49.1	17.1	0.00e+00	0	42	0	790626304	63	5169
2026-01-07 22:34:22.17	128.60	19.97	-46.4	-49.1	17.2	0.00e+00	0	42	0	792723456	63	5177
2026-01-07 22:34:23.35	128.84	19.88	-46.2	-48.8	17.4	0.00e+00	0	42	0	794820608	63	5008
2026-01-07 22:34:24.25	129.03	19.82	-46.0	-48.6	17.6	0.00e+00	0	42	0	796917760	63	4875
2026-01-07 22:34:25.39	129.26	19.73	-45.5	-47.9	18.2	0.00e+00	0	42	0	799014912	63	4531
2026-01-07 22:34:26.25	129.43	19.66	-45.2	-47.5	18.6	0.00e+00	0	42	0	800063488	62	4594
2026-01-07 22:34:27.39	129.66	19.57	-44.8	-47.0	19.0	0.00e+00	0	42	0	802160640	61	4580
2026-01-07 22:34:28.41	129.86	19.50	-44.6	-46.8	19.2	0.00e+00	0	42	0	804257792	61	4463
2026-01-07 22:34:29.41	130.06	19.42	-44.8	-47.0	18.9	0.00e+00	0	42	0	806354944	61	4593
2026-01-07 22:34:30.42	130.26	19.34	-45.3	-47.7	18.4	0.00e+00	0	43	0	808452096	61	4932
2026-01-07 22:34:31.42	130.45	19.26	-45.7	-48.1	17.9	0.00e+00	0	42	0	810549248	61	5203
2026-01-07 22:34:32.42	130.65	19.19	-46.1	-48.7	17.4	0.00e+00	0	42	0	811597824	62	5266
2026-01-07 22:34:33.43	130.84	19.11	-46.4	-49.0	17.1	0.00e+00	0	42	0	813694976	63	5158
2026-01-07 22:34:34.43	131.04	19.03	-46.2	-48.8	17.3	0.00e+00	0	42	0	815792128	63	5035
2026-01-07 22:34:35.43	131.23	18.95	-46.1	-48.7	17.5	0.00e+00	0	42	0	817889280	63	4957
2026-01-07 22:34:36.44	131.42	18.88	-45.6	-48.0	18.1	0.00e+00	0	42	0	819986432	63	4556
2026-01-07 22:34:37.44	131.61	18.80	-45.4	-47.8	18.3	0.00e+00	0	42	0	821035008	62	4739
2026-01-07 22:34:38.44	131.80	18.72	-45.4	-47.7	18.3	0.00e+00	0	42	0	823132160	62	4695
2026-01-07 22:34:39.44	131.99	18.64	-45.3	-47.6	18.5	0.00e+00	0	42	0	825229312	62	4624
2026-01-07 22:34:40.48	132.19	18.56	-45.3	-47.7	18.4	0.00e+00	0	42	0	827326464	62	4669
2026-01-07 22:34:41.51	132.38	18.48	-45.5	-48.0	18.1	0.00e+00	0	42	0	829423616	62	4839
2026-01-07 22:34:42.51	132.56	18.40	-45.7	-48.1	17.9	0.00e+00	0	42	0	830472192	62	4926
2026-01-07 22:34:43.51	132.75	18.33	-45.6	-48.0	18.0	0.00e+00	0	42	0	832569344	62	4866
2026-01-07 22:34:44.52	132.93	18.25	-45.2	-47.6	18.4	0.00e+00	0	42	0	834666496	62	4635
2026-01-07 22:34:45.52	133.12	18.17	-45.0	-47.3	18.6	0.00e+00	0	42	0	836763648	62	4482
2026-01-07 22:34:46.52	133.30	18.09	-44.9	-47.2	18.8	0.00e+00	0	42	0	838860800	61	4667
2026-01-07 22:34:47.53	133.48	18.01	-44.8	-47.1	18.8	0.00e+00	0	42	0	839909376	61	4628
2026-01-07 22:34:48.53	133.66	17.93	-44.9	-47.2	18.7	0.00e+00	0	42	0	842006528	61	4676
2026-01-07 22:34:49.54	133.84	17.86	-45.1	-47.4	18.5	0.00e+00	0	42	0	844103680	61	4806
2026-01-07 22:34:50.54	134.02	17.78	-45.3	-47.7	18.2	0.00e+00	0	42	0	846200832	61	4974
2026-01-07 22:34:51.54	134.20	17.70	-45.5	-48.0	18.0	0.00e+00	0	42	0	848297984	61	5118
2026-01-07 22:34:52.54	134.37	17.62	-45.6	-48.1	17.9	0.00e+00	0	42	0	849346560	61	5161
2026-01-07 22:34:53.55	134.55	17.54	-45.5	-48.0	18.0	0.00e+00	0	42	0	851443712	61	5133
2026-01-07 22:34:54.55	134.72	17.46	-45.3	-47.7	18.2	0.00e+00	0	42	0	853540864	61	4945
2026-01-07 22:34:55.55	134.90	17.39	-45.3	-47.7	18.2	0.00e+00	0	42	0	855638016	61	4954
2026-01-07 22:34:56.56	135.07	17.31	-45.5	-47.9	18.0	0.00e+00	0	42	0	856686592	61	5074
2026-01-07 22:34:57.56	135.25	17.23	-45.7	-48.2	17.8	0.00e+00	0	42	0	858783744	62	4983
2026-01-07 22:34:58.56	135.42	17.15	-45.9	-48.5	17.5	0.00e+00	0	42	0	860880896	62	5129
2026-01-07 22:34:59.56	135.59	17.07	-46.1	-48.7	17.3	0.00e+00	0	42	0	862978048	63	4979
2026-01-07 22:35:00.57	135.76	16.99	-46.6	-49.3	16.8	0.00e+00	0	43	0	865075200	63	5328
2026-01-07 22:35:01.57	135.93	16.92	-46.6	-49.3	16.8	0.00e+00	0	42	0	866123776	63	5328
2026-01-07 22:35:02.57	136.09	16.84	-46.5	-49.3	16.8	0.00e+00	0	42	0	868220928	63	5300
2026-01-07 22:35:03.58	136.26	16.76	-46.2	-48.9	17.1	0.00e+00	0	42	0	870318080	63	5080
2026-01-07 22:35:04.58	136.43	16.68	-46.0	-48.6	17.4	0.00e+00	0	42	0	872415232	63	4911
2026-01-07 22:35:05.58	136.59	16.60	-45.8	-48.4	17.6	0.00e+00	0	42	0	874512384	63	4790
2026-01-07 22:35:06.59	136.76	16.52	-45.7	-48.3	17.7	0.00e+00	0	42	0	875560960	63	4718
2026-01-07 22:35:07.59	136.92	16.45	-45.6	-48.1	17.9	0.00e+00	0	42	0	877658112	63	4604
2026-01-07 22:35:08.59	137.09	16.37	-45.6	-48.1	17.9	0.00e+00	0	42	0	879755264	63	4621
2026-01-07 22:35:09.59	137.25	16.29	-45.5	-48.1	17.9	0.00e+00	0	42	0	881852416	63	4607
2026-01-07 22:35:10.60	137.41	16.21	-45.5	-48.0	18.0	0.00e+00	0	42	0	883949568	62	4828
2026-01-07 22:35:11.68	137.58	16.13	-45.4	-47.9	18.0	0.00e+00	0	42	0	886046720	62	4810
2026-01-07 22:35:12.57	137.73	16.06	-45.3	-47.7	18.2	0.00e+00	0	42	0	887095296	62	4701
2026-01-07 22:35:13.71	137.91	15.97	-45.1	-47.5	18.4	0.00e+00	0	42	0	889192448	62	4565
2026-01-07 22:35:14.58	138.04	15.90	-45.1	-47.5	18.5	0.00e+00	0	42	0	891289600	62	4560
2026-01-07 22:35:15.95	138.26	15.80	-45.0	-47.4	18.6	0.00e+00	0	42	0	893386752	62	4496
2026-01-07 22:35:16.66	138.37	15.74	-44.9	-47.2	18.7	0.00e+00	0	42	0	894435328	61	4676
2026-01-07 22:35:18.18	138.61	15.62	-45.2	-47.5	18.4	0.00e+00	0	42	0	897581056	61	4859
2026-01-07 22:35:18.89	138.72	15.57	-45.2	-47.6	18.4	0.00e+00	0	42	0	898629632	61	4879
2026-01-07 22:35:20.18	138.91	15.47	-45.5	-47.9	18.1	0.00e+00	0	42	0	901775360	61	5082
2026-01-07 22:35:20.90	139.02	15.41	-45.7	-48.1	17.9	0.00e+00	0	42	0	902823936	62	4915
2026-01-07 22:35:22.19	139.22	15.31	-45.8	-48.4	17.6	0.00e+00	0	42	0	904921088	62	5053
2026-01-07 22:35:22.90	139.33	15.26	-46.1	-48.7	17.3	0.00e+00	0	42	0	907018240	62	5262
2026-01-07 22:35:24.19	139.52	15.16	-46.5	-49.2	16.8	0.00e+00	0	42	0	909115392	63	5267
2026-01-07 22:35:24.91	139.63	15.10	-46.4	-49.1	16.9	0.00e+00	0	42	0	910163968	63	5195
2026-01-07 22:35:26.20	139.82	15.00	-46.5	-49.3	16.8	0.00e+00	0	43	0	912261120	63	5320
2026-01-07 22:35:26.92	139.93	14.95	-46.5	-49.3	16.7	0.00e+00	0	42	0	914358272	64	5018
2026-01-07 22:35:28.21	140.12	14.85	-46.4	-49.2	16.8	0.00e+00	0	43	0	916455424	64	4979
2026-01-07 22:35:28.92	140.22	14.79	-46.4	-49.3	16.8	0.00e+00	0	42	0	917504000	64	4999
2026-01-07 22:35:30.21	140.41	14.69	-46.2	-48.9	17.0	0.00e+00	0	43	0	920649728	64	4806
2026-01-07 22:35:30.93	140.52	14.64	-46.2	-49.0	17.0	0.00e+00	0	42	0	921698304	64	4830
2026-01-07 22:35:32.22	140.70	14.54	-46.1	-48.8	17.1	0.00e+00	0	42	0	923795456	64	4735
2026-01-07 22:35:32.93	140.80	14.49	-45.9	-48.6	17.4	0.00e+00	0	42	0	925892608	63	4907
2026-01-07 22:35:34.22	140.99	14.39	-45.8	-48.4	17.6	0.00e+00	0	42	0	927989760	63	4771
2026-01-07 22:35:34.94	141.09	14.33	-45.8	-48.4	17.6	0.00e+00	0	42	0	929038336	63	4775
2026-01-07 22:35:36.23	141.27	14.23	-45.8	-48.5	17.6	0.00e+00	0	42	0	931135488	63	4818
2026-01-07 22:35:36.95	141.38	14.18	-45.8	-48.4	17.6	0.00e+00	0	42	0	933232640	63	4792
2026-01-07 22:35:38.23	141.56	14.08	-45.7	-48.3	17.6	0.00e+00	0	42	0	935329792	63	4744
2026-01-07 22:35:38.95	141.66	14.03	-45.5	-48.0	17.9	0.00e+00	0	42	0	936378368	63	4597
2026-01-07 22:35:40.24	141.84	13.93	-45.5	-48.1	17.9	0.00e+00	0	42	0	939524096	62	4875
2026-01-07 22:35:40.96	141.93	13.87	-45.4	-48.0	18.0	0.00e+00	0	42	0	940572672	62	4823
2026-01-07 22:35:42.59	142.16	13.75	-45.4	-47.9	18.1	0.00e+00	0	42	0	943718400	62	4768
2026-01-07 22:35:43.16	142.24	13.71	-45.3	-47.8	18.1	0.00e+00	0	42	0	944766976	62	4725
2026-01-07 22:35:44.75	142.45	13.59	-45.3	-47.8	18.2	0.00e+00	0	42	0	947912704	62	4707
2026-01-07 22:35:45.55	142.56	13.53	-45.3	-47.8	18.1	0.00e+00	0	42	0	948961280	62	4720
2026-01-07 22:35:46.70	142.72	13.44	-45.4	-47.8	18.1	0.00e+00	0	42	0	951058432	62	4751
2026-01-07 22:35:47.56	142.83	13.37	-45.6	-48.0	18.0	0.00e+00	0	42	0	953155584	62	4848
2026-01-07 22:35:48.71	142.98	13.29	-45.9	-48.5	17.6	0.00e+00	0	42	0	955252736	62	5108
2026-01-07 22:35:49.57	143.10	13.22	-46.1	-48.6	17.4	0.00e+00	0	42	0	956301312	62	5215
2026-01-07 22:35:50.71	143.25	13.14	-46.3	-48.9	17.1	0.00e+00	0	42	0	958398464	63	5082
2026-01-07 22:35:51.57	143.36	13.07	-46.4	-49.1	16.9	0.00e+00	0	42	0	960495616	63	5214
2026-01-07 22:35:52.72	143.51	12.99	-46.5	-49.2	16.9	0.00e+00	0	42	0	962592768	63	5249
2026-01-07 22:35:53.58	143.62	12.92	-46.7	-49.5	16.5	0.00e+00	0	42	0	963641344	64	5147
2026-01-07 22:35:54.73	143.77	12.84	-46.6	-49.4	16.6	0.00e+00	0	42	0	966787072	64	5091
2026-01-07 22:35:55.59	143.88	12.77	-46.6	-49.4	16.6	0.00e+00	0	42	0	967835648	64	5087
2026-01-07 22:35:56.73	144.03	12.69	-46.7	-49.5	16.5	0.00e+00	0	43	0	969932800	64	5133
2026-01-07 22:35:57.82	144.17	12.61	-46.4	-49.2	16.8	0.00e+00	0	42	0	972029952	64	4959
2026-01-07 22:35:58.67	144.27	12.54	-46.4	-49.2	16.8	0.00e+00	0	42	0	974127104	64	4938
2026-01-07 22:35:59.82	144.42	12.46	-46.4	-49.2	16.7	0.00e+00	0	42	0	976224256	64	4957
2026-01-07 22:36:00.68	144.53	12.39	-46.2	-48.9	17.0	0.00e+00	0	42	0	977272832	64	4797
2026-01-07 22:36:01.83	144.67	12.31	-46.3	-49.1	17.0	0.00e+00	0	42	0	979369984	64	4874
2026-01-07 22:36:02.69	144.78	12.25	-46.3	-49.0	17.0	0.00e+00	0	42	0	981467136	64	4858
2026-01-07 22:36:03.83	144.92	12.16	-46.5	-49.2	16.8	0.00e+00	0	42	0	983564288	64	4971
2026-01-07 22:36:04.70	145.03	12.10	-46.4	-49.2	16.9	0.00e+00	0	42	0	984612864	64	4929
2026-01-07 22:36:05.95	145.18	12.01	-46.5	-49.4	16.7	0.00e+00	0	42	0	987758592	64	5050
2026-01-07 22:36:06.70	145.27	11.95	-46.7	-49.6	16.4	0.00e+00	0	42	0	988807168	64	5191
2026-01-07 22:36:07.99	145.43	11.86	-46.7	-49.7	16.3	0.00e+00	0	42	0	990904320	64	5265
2026-01-07 22:36:08.71	145.51	11.80	-46.8	-49.9	16.1	0.00e+00	0	43	0	991952896	64	5389
2026-01-07 22:36:09.99	145.67	11.71	-47.1	-50.3	15.8	0.00e+00	0	43	0	995098624	64	5594
2026-01-07 22:36:10.71	145.75	11.66	-46.9	-49.9	16.1	0.00e+00	0	42	0	996147200	64	5389
2026-01-07 22:36:12.00	145.91	11.56	-47.0	-50.1	16.0	0.00e+00	0	42	0	998244352	64	5481
2026-01-07 22:36:12.72	145.99	11.51	-47.0	-50.1	15.9	0.00e+00	0	42	0	1000341504	64	5526
2026-01-07 22:36:14.00	146.14	11.42	-46.8	-49.8	16.3	0.00e+00	0	42	0	1002438656	64	5285
2026-01-07 22:36:14.72	146.23	11.36	-46.9	-49.9	16.1	0.00e+00	0	42	0	1003487232	64	5399
2026-01-07 22:36:16.01	146.38	11.27	-46.6	-49.4	16.6	0.00e+00	0	42	0	1006632960	64	5099
2026-01-07 22:36:16.73	146.46	11.22	-46.5	-49.4	16.6	0.00e+00	0	42	0	1007681536	64	5051
2026-01-07 22:36:18.09	146.62	11.12	-46.7	-49.6	16.4	0.00e+00	0	42	0	1009778688	64	5167
2026-01-07 22:36:19.07	146.73	11.05	-46.8	-49.7	16.3	0.00e+00	0	42	0	1011875840	64	5219
2026-01-07 22:36:20.39	146.88	10.96	-47.0	-50.0	16.0	0.00e+00	0	42	0	1013972992	64	5432
2026-01-07 22:36:21.11	146.96	10.90	-47.0	-50.0	16.0	2.66e-04	0	42	0	1016070144	64	5439
2026-01-07 22:36:22.75	147.15	10.79	-47.1	-50.2	15.8	0.00e+00	0	43	0	1019215872	64	5562
2026-01-07 22:36:23.32	147.21	10.75	-47.2	-50.3	15.8	0.00e+00	0	42	0	1020264448	64	5599
2026-01-07 22:36:24.94	147.39	10.63	-47.0	-50.1	15.9	0.00e+00	0	43	0	1023410176	64	5512
2026-01-07 22:36:25.52	147.46	10.59	-47.2	-50.4	15.7	0.00e+00	0	42	0	1024458752	64	5663
2026-01-07 22:36:27.11	147.63	10.47	-47.1	-50.2	15.7	0.00e+00	0	42	0	1026555904	65	5266
2026-01-07 22:36:27.73	147.70	10.43	-47.1	-50.2	15.8	0.00e+00	0	42	0	1028653056	65	5244
2026-01-07 22:36:29.31	147.88	10.32	-46.9	-49.8	16.1	0.00e+00	0	42	0	1030750208	65	5031
2026-01-07 22:36:29.91	147.94	10.28	-46.8	-49.7	16.3	0.00e+00	0	42	0	1031798784	65	4940
2026-01-07 22:36:31.48	148.11	10.16	-46.7	-49.6	16.3	0.00e+00	0	42	0	1034944512	65	4892
2026-01-07 22:36:32.09	148.18	10.12	-46.7	-49.6	16.4	0.00e+00	0	42	0	1035993088	65	4886
2026-01-07 22:36:33.66	148.35	10.01	-46.9	-49.8	16.2	0.00e+00	0	42	0	1039138816	65	4996
2026-01-07 22:36:34.25	148.41	9.97	-46.9	-49.9	16.0	0.00e+00	0	42	0	1040187392	65	5063
2026-01-07 22:36:35.97	148.59	9.85	-47.0	-50.1	15.9	0.00e+00	0	42	0	1043333120	65	5180
2026-01-07 22:36:36.55	148.65	9.81	-47.1	-50.1	15.8	0.00e+00	0	42	0	1044381696	65	5217
2026-01-07 22:36:38.13	148.82	9.70	-47.1	-50.1	15.8	0.00e+00	0	43	0	1047527424	65	5214
2026-01-07 22:36:38.70	148.88	9.66	-47.4	-50.6	15.4	0.00e+00	0	43	0	1048576000	65	5484
2026-01-07 22:36:40.28	149.04	9.55	-47.4	-50.7	15.3	0.00e+00	0	42	0	1051721728	65	5559
2026-01-07 22:36:40.89	149.11	9.50	-47.5	-50.9	15.1	0.00e+00	0	42	0	1052770304	65	5675
2026-01-07 22:36:42.47	149.27	9.39	-47.9	-51.5	14.5	1.50e-06	0	43	0	1055916032	66	5742
2026-01-07 22:36:43.06	149.33	9.35	-48.0	-51.6	14.5	0.00e+00	0	42	0	1056964608	66	5795
2026-01-07 22:36:44.76	149.50	9.24	-48.2	-51.9	14.2	1.50e-06	0	42	0	1060110336	67	5692
2026-01-07 22:36:45.33	149.56	9.20	-48.1	-51.9	14.2	2.20e-06	0	43	0	1061158912	67	5657
2026-01-07 22:36:46.96	149.73	9.08	-48.0	-51.6	14.4	1.50e-06	0	43	0	1064304640	67	5522
2026-01-07 22:36:47.53	149.78	9.05	-48.2	-51.8	14.3	1.50e-06	0	43	0	1065353216	67	5611
2026-01-07 22:36:49.11	149.94	8.94	-52.2	-66.2	3.8	2.34e-01	0	42	104	1067450368	75	18630
2026-01-07 22:36:49.70	150.00	8.90	-52.4	-67.7	3.8	1.49e+00	0	43	104	1067450368	75	22026
2026-01-07 22:36:51.27	150.16	8.79	-52.7	-67.9	3.8	1.49e+00	0	42	104	1067450368	76	21456
2026-01-07 22:36:51.85	150.21	8.75	-52.3	-68.0	3.8	1.49e+00	0	42	104	1067450368	76	21511
2026-01-07 22:36:53.43	150.37	8.64	-52.8	-68.1	3.8	1.49e+00	0	42	104	1067450368	76	21779
2026-01-07 22:36:54.00	150.42	8.60	-52.8	-68.1	3.8	1.49e+00	0	42	104	1067450368	76	21807
2026-01-07 22:36:55.58	150.58	8.49	-53.0	-68.1	3.8	1.49e+00	0	43	104	1067450368	76	21936
2026-01-07 22:36:56.17	150.63	8.45	-52.9	-68.2	3.8	1.49e+00	0	43	104	1067450368	76	22016
2026-01-07 22:36:57.75	150.79	8.35	-53.0	-68.2	3.8	1.49e+00	0	43	104	1067450368	76	22008
2026-01-07 22:36:58.32	150.84	8.31	-53.0	-68.2	3.8	1.49e+00	0	43	104	1067450368	76	22075
2026-01-07 22:36:59.92	150.99	8.20	-52.9	-68.2	3.8	1.49e+00	0	43	104	1067450368	76	22089
2026-01-07 22:37:00.57	151.06	8.16	-53.1	-68.2	3.8	1.49e+00	0	42	104	1067450368	76	22255
2026-01-07 22:37:02.00	151.19	8.06	-53.1	-68.2	3.8	1.49e+00	0	43	104	1067450368	76	22194
2026-01-07 22:37:02.72	151.26	8.01	-52.9	-68.2	3.8	1.49e+00	0	43	104	1067450368	76	22230
2026-01-07 22:37:04.01	151.38	7.93	-53.0	-68.3	3.8	1.49e+00	0	43	104	1067450368	76	22332
2026-01-07 22:37:04.73	151.45	7.88	-53.2	-68.2	3.8	1.49e+00	0	43	104	1067450368	77	20971
2026-01-07 22:37:06.02	151.57	7.79	-53.0	-68.3	3.8	1.49e+00	0	42	104	1067450368	77	21064
2026-01-07 22:37:06.74	151.63	7.74	-53.1	-68.2	3.8	1.49e+00	0	43	104	1067450368	77	20982
2026-01-07 22:37:08.03	151.75	7.66	-53.0	-68.2	3.8	1.49e+00	0	43	104	1067450368	77	20967
2026-01-07 22:37:08.75	151.82	7.61	-53.0	-68.2	3.8	1.49e+00	0	42	104	1067450368	77	20995
2026-01-07 22:37:10.04	151.93	7.52	-52.8	-68.2	3.8	1.49e+00	0	42	104	1067450368	77	20903
2026-01-07 22:37:10.76	152.00	7.48	-52.6	-68.2	3.8	1.49e+00	0	43	104	1067450368	77	20888
2026-01-07 22:37:12.05	152.12	7.39	-52.6	-68.2	3.8	1.49e+00	0	43	104	1067450368	77	20869
2026-01-07 22:37:12.76	152.18	7.35	-52.6	-68.2	3.8	1.49e+00	0	42	104	1067450368	77	20874
2026-01-07 22:37:14.05	152.29	7.26	-52.6	-68.2	3.8	1.49e+00	0	43	104	1067450368	77	20849
2026-01-07 22:37:14.77	152.36	7.21	-52.6	-68.2	3.8	1.49e+00	0	42	104	1067450368	77	20904
2026-01-07 22:37:16.06	152.47	7.13	-52.6	-68.2	3.8	1.49e+00	0	43	104	1067450368	77	20905
2026-01-07 22:37:16.78	152.54	7.08	-52.6	-68.2	3.8	1.49e+00	0	42	104	1067450368	77	20829
2026-01-07 22:37:18.07	152.65	7.00	-52.6	-68.2	3.8	1.49e+00	0	43	104	1067450368	77	20792
2026-01-07 22:37:18.79	152.71	6.95	-52.6	-68.1	3.8	1.49e+00	0	43	104	1067450368	77	20721
2026-01-07 22:37:20.08	152.83	6.87	-52.6	-68.2	3.8	1.49e+00	0	43	104	1067450368	77	20894
2026-01-07 22:37:20.80	152.89	6.82	-52.6	-68.2	3.8	1.49e+00	0	43	104	1067450368	77	20808
2026-01-07 22:37:22.09	153.00	6.73	-52.6	-68.2	3.8	1.49e+00	0	42	104	1067450368	77	20872
2026-01-07 22:37:22.81	153.06	6.69	-52.6	-68.2	3.8	1.49e+00	0	43	104	1067450368	77	20788
2026-01-07 22:37:24.10	153.17	6.60	-52.6	-68.2	3.8	1.49e+00	0	43	104	1067450368	77	20789
2026-01-07 22:37:24.81	153.23	6.56	-52.6	-68.2	3.8	1.49e+00	0	43	104	1067450368	77	20831
2026-01-07 22:37:26.10	153.34	6.48	-52.6	-68.2	3.8	1.49e+00	0	42	104	1067450368	77	20781
2026-01-07 22:37:26.82	153.40	6.43	-52.6	-68.2	3.8	1.49e+00	0	42	104	1067450368	77	20871
2026-01-07 22:37:28.11	153.51	6.35	-52.6	-68.2	3.8	1.49e+00	0	43	104	1067450368	77	20781
2026-01-07 22:37:28.83	153.57	6.30	-52.6	-68.2	3.8	1.49e+00	0	42	104	1067450368	77	20864
2026-01-07 22:37:30.12	153.68	6.22	-52.6	-68.2	3.8	1.49e+00	0	42	104	1067450368	77	20794
2026-01-07 22:37:30.84	153.74	6.17	-52.6	-68.1	3.8	1.49e+00	0	42	104	1067450368	77	20755
2026-01-07 22:37:32.13	153.85	6.09	-52.6	-68.1	3.8	1.49e+00	0	43	104	1067450368	77	20749
2026-01-07 22:37:32.85	153.91	6.04	-52.6	-68.1	3.8	1.49e+00	0	42	104	1067450368	77	20775
2026-01-07 22:37:34.14	154.01	5.96	-52.6	-68.2	3.8	1.49e+00	0	43	104	1067450368	77	20836
2026-01-07 22:37:34.86	154.07	5.91	-52.6	-68.2	3.8	1.49e+00	0	43	104	1067450368	77	20801
2026-01-07 22:37:36.15	154.18	5.83	-52.6	-68.1	3.8	1.49e+00	0	43	104	1067450368	77	20731
2026-01-07 22:37:36.86	154.23	5.79	-52.6	-68.2	3.8	1.49e+00	0	42	104	1067450368	77	20876
2026-01-07 22:37:38.15	154.34	5.71	-52.6	-68.2	3.8	1.49e+00	0	43	104	1067450368	77	20786
2026-01-07 22:37:38.87	154.40	5.66	-52.6	-68.2	3.8	1.49e+00	0	43	104	1067450368	77	20790
2026-01-07 22:37:40.16	154.50	5.58	-52.6	-68.2	3.8	1.49e+00	0	43	104	1067450368	77	20805
2026-01-07 22:37:40.88	154.56	5.53	-52.6	-68.2	3.8	1.49e+00	0	43	104	1067450368	77	20823
2026-01-07 22:37:42.17	154.66	5.45	-52.6	-68.2	3.8	1.49e+00	0	42	104	1067450368	77	20862
2026-01-07 22:37:42.89	154.72	5.41	-52.6	-68.1	3.8	1.49e+00	0	43	104	1067450368	77	20771
2026-01-07 22:37:44.18	154.82	5.33	-52.6	-68.2	3.8	1.49e+00	0	43	104	1067450368	77	20880
2026-01-07 22:37:44.89	154.87	5.28	-52.6	-68.2	3.8	1.49e+00	0	42	104	1067450368	77	20858
2026-01-07 22:37:46.19	154.97	5.20	-52.6	-68.2	3.8	1.49e+00	0	43	104	1067450368	77	20909
2026-01-07 22:37:46.90	155.03	5.16	-52.6	-68.2	3.8	1.49e+00	0	43	104	1067450368	77	20858
2026-01-07 22:37:48.19	155.13	5.08	-52.6	-68.1	3.8	1.49e+00	0	42	104	1067450368	77	20776
2026-01-07 22:37:48.91	155.19	5.03	-52.6	-68.2	3.8	1.49e+00	0	43	104	1067450368	77	20785
2026-01-07 22:37:50.20	155.28	4.95	-52.6	-68.2	3.8	1.49e+00	0	42	104	1067450368	77	20877

#Closed at: 2026-01-07 22:37:51
#Recorded file [1067 MB]: D:/Data/31040_260108_012616.dat