passes_logs/2026/01/07/T1/T1__20260107_021203_AQUA_rec.log

#Pass ID: 20260107_021203_AQUA
#Satellite: AQUA
#Configuration: AQUA
#almurnet v.1.7.20251203
#Start time: 2026-01-07 02:12:05

#Version: 2.0.20230620
#Station: T1
#Location: 37.570604 lon 55.790049 lat
#TLE: 1 27424U 02022A   26004.96787593  .00001598  00000+0  32997-3 0  9996
#TLE: 2 27424  98.4069 331.2279 0002002  90.2377   0.6092 14.61798176259425

#Time	Az	El	Level	Level2	SNR	BER	BlckErr	Temp	State	Recorded	gain1	gain2
2026-01-07 02:12:05.35	8.62	5.10	-47.5	-70.6	3.8	7.43e-01	0	36	0	0	66	51923
2026-01-07 02:12:06.34	8.57	5.18	-47.5	-70.6	3.8	7.47e-01	0	36	104	0	65	55174
2026-01-07 02:12:07.35	8.51	5.25	-47.5	-70.6	3.8	7.47e-01	0	36	104	0	65	55163
2026-01-07 02:12:08.35	8.46	5.32	-47.5	-70.6	3.8	7.46e-01	0	36	104	0	65	55201
2026-01-07 02:12:09.36	8.41	5.39	-47.5	-70.7	3.8	7.49e-01	0	37	104	0	65	55568
2026-01-07 02:12:10.36	8.35	5.46	-47.5	-70.7	3.8	7.47e-01	0	37	104	0	65	55823
2026-01-07 02:12:11.37	8.30	5.54	-47.5	-70.7	3.8	7.44e-01	0	37	104	0	65	55757
2026-01-07 02:12:12.37	8.25	5.61	-47.5	-70.8	3.8	7.48e-01	0	36	104	0	65	55946
2026-01-07 02:12:13.37	8.19	5.68	-47.5	-70.8	3.8	7.43e-01	0	36	104	0	65	56311
2026-01-07 02:12:14.38	8.14	5.76	-47.5	-70.9	3.8	7.45e-01	0	36	104	0	65	56766
2026-01-07 02:12:15.38	8.08	5.83	-47.5	-70.9	3.8	7.45e-01	0	37	104	0	65	56880
2026-01-07 02:12:16.39	8.03	5.90	-47.5	-70.9	3.8	7.44e-01	0	37	104	0	65	56730
2026-01-07 02:12:17.39	7.97	5.98	-47.5	-70.8	3.8	7.46e-01	0	37	104	0	65	56347
2026-01-07 02:12:18.39	7.91	6.05	-47.5	-70.7	3.8	7.45e-01	0	37	104	0	65	55657
2026-01-07 02:12:19.40	7.86	6.13	-47.5	-70.6	3.8	7.49e-01	0	37	104	0	65	54877
2026-01-07 02:12:20.40	7.80	6.20	-47.5	-70.5	3.8	7.47e-01	0	37	104	0	65	54306
2026-01-07 02:12:21.41	7.74	6.28	-47.6	-70.4	3.8	7.48e-01	0	37	104	0	65	53836
2026-01-07 02:12:22.41	7.69	6.35	-47.5	-70.4	3.8	7.46e-01	0	37	104	0	65	53920
2026-01-07 02:12:23.42	7.63	6.43	-47.5	-70.5	3.8	7.46e-01	0	37	104	0	65	54234
2026-01-07 02:12:24.42	7.57	6.50	-47.6	-70.6	3.8	7.45e-01	0	37	104	0	65	54939
2026-01-07 02:12:25.42	7.51	6.58	-47.5	-70.7	3.8	7.47e-01	0	37	104	0	65	55345
2026-01-07 02:12:26.43	7.45	6.65	-47.5	-70.7	3.8	7.45e-01	0	37	104	0	65	55752
2026-01-07 02:12:27.43	7.39	6.73	-47.5	-70.7	3.8	7.45e-01	0	37	104	0	65	55673
2026-01-07 02:12:28.44	7.33	6.81	-47.5	-70.6	3.8	7.43e-01	0	37	104	0	65	55250
2026-01-07 02:12:29.44	7.27	6.88	-47.5	-70.5	3.8	7.46e-01	0	37	104	0	65	54423
2026-01-07 02:12:30.45	7.21	6.96	-47.5	-70.3	3.8	7.46e-01	0	37	104	0	65	53060
2026-01-07 02:12:31.45	7.15	7.04	-47.6	-69.7	3.8	7.43e-01	0	37	104	0	65	49517
2026-01-07 02:12:32.45	7.09	7.11	-47.5	-68.8	3.9	7.47e-01	0	37	104	0	65	44653
2026-01-07 02:12:33.46	7.03	7.19	-47.5	-67.6	4.2	7.32e-01	0	37	104	0	65	38736
2026-01-07 02:12:34.46	6.97	7.27	-47.5	-66.5	3.9	7.29e-01	0	37	104	0	65	34323
2026-01-07 02:12:35.47	6.90	7.35	-47.4	-65.5	5.0	7.11e-01	0	37	0	0	65	30390
2026-01-07 02:12:36.47	6.84	7.42	-47.4	-64.8	5.4	7.02e-01	0	37	0	0	65	28231
2026-01-07 02:12:37.48	6.78	7.50	-47.4	-64.4	5.6	6.94e-01	0	37	0	524288	65	27064
2026-01-07 02:12:38.48	6.71	7.58	-47.4	-64.5	5.6	6.96e-01	0	37	0	1048576	65	27342
2026-01-07 02:12:39.48	6.65	7.66	-47.4	-65.1	5.2	7.04e-01	0	37	0	1572864	65	29257
2026-01-07 02:12:40.49	6.59	7.74	-47.4	-66.5	4.0	7.38e-01	0	37	104	1572864	65	34183
2026-01-07 02:12:41.49	6.52	7.82	-47.5	-66.8	4.4	7.28e-01	0	37	104	1572864	65	35640
2026-01-07 02:12:42.49	6.46	7.90	-47.5	-67.4	4.0	7.40e-01	0	38	104	1572864	65	38155
2026-01-07 02:12:43.50	6.39	7.98	-47.5	-66.6	4.0	7.23e-01	0	38	104	1572864	65	34765
2026-01-07 02:12:44.50	6.32	8.06	-47.4	-64.6	5.4	6.96e-01	0	37	0	1572864	65	27677
2026-01-07 02:12:45.51	6.26	8.14	-47.4	-62.8	6.9	6.63e-01	0	37	0	2621440	65	22431
2026-01-07 02:12:46.51	6.19	8.22	-47.3	-60.9	8.7	6.34e-01	0	38	0	4718592	65	17920
2026-01-07 02:12:47.52	6.12	8.30	-47.2	-59.6	10.1	6.20e-01	0	37	0	6815744	65	15446
2026-01-07 02:12:48.52	6.06	8.38	-47.0	-58.0	11.8	6.07e-01	0	38	0	8388608	65	12905
2026-01-07 02:12:49.52	5.99	8.46	-46.8	-56.7	13.1	6.06e-01	0	38	0	10485760	65	11098
2026-01-07 02:12:50.53	5.92	8.54	-46.7	-55.9	14.0	6.07e-01	0	37	0	12058624	65	10065
2026-01-07 02:12:51.53	5.85	8.63	-46.5	-55.0	14.9	6.02e-01	0	38	0	14155776	65	9121
2026-01-07 02:12:52.54	5.78	8.71	-46.4	-54.5	15.4	6.02e-01	0	37	0	15728640	64	9118
2026-01-07 02:12:53.54	5.71	8.79	-46.3	-54.1	15.9	6.06e-01	0	37	0	17825792	64	8676
2026-01-07 02:12:54.55	5.64	8.87	-46.3	-53.9	16.0	6.02e-01	0	38	0	19922944	64	8491
2026-01-07 02:12:55.55	5.57	8.96	-46.4	-54.3	15.6	6.03e-01	0	38	0	21495808	64	8931
2026-01-07 02:12:56.55	5.50	9.04	-46.5	-54.9	15.1	6.02e-01	0	37	0	23592960	64	9503
2026-01-07 02:12:57.56	5.43	9.12	-46.7	-58.0	12.1	6.07e-01	0	38	0	25165824	64	13714
2026-01-07 02:12:58.56	5.35	9.21	-46.5	-56.2	13.5	6.05e-01	0	38	0	27262976	64	11130
2026-01-07 02:12:59.56	5.28	9.29	-46.5	-55.6	14.5	6.01e-01	0	38	0	29360128	64	10313
2026-01-07 02:13:00.56	5.21	9.37	-46.7	-61.8	8.5	6.47e-01	0	38	0	30932992	65	19951
2026-01-07 02:13:01.57	5.14	9.46	-46.3	-53.1	15.9	6.04e-01	0	38	0	33030144	64	7732
2026-01-07 02:13:02.58	5.06	9.54	-44.2	-48.1	21.7	6.06e-01	0	38	0	34603008	60	5498
2026-01-07 02:13:03.58	4.99	9.63	-44.0	-47.9	21.9	6.01e-01	0	38	0	36700160	60	5388
2026-01-07 02:13:04.58	4.91	9.71	-44.3	-48.2	21.8	6.03e-01	0	38	0	38273024	59	5905
2026-01-07 02:13:05.59	4.84	9.80	-44.2	-47.9	22.0	6.01e-01	0	38	0	40370176	59	5700
2026-01-07 02:13:06.59	4.76	9.89	-43.9	-47.6	22.4	6.03e-01	0	38	0	42467328	59	5486
2026-01-07 02:13:07.59	4.68	9.97	-43.7	-47.2	22.8	6.04e-01	0	38	0	44040192	59	5243
2026-01-07 02:13:08.59	4.61	10.06	-43.6	-47.2	22.8	6.03e-01	0	38	0	46137344	59	5237
2026-01-07 02:13:09.59	4.53	10.14	-43.5	-47.1	22.9	6.01e-01	0	38	0	47710208	59	5178
2026-01-07 02:13:10.60	4.45	10.23	-43.6	-47.2	22.8	6.02e-01	0	38	0	49807360	59	5249
2026-01-07 02:13:11.60	4.37	10.32	-43.4	-47.0	23.0	6.02e-01	0	38	0	51904512	58	5443
2026-01-07 02:13:12.60	4.29	10.41	-43.4	-47.1	22.9	6.02e-01	0	38	0	53477376	58	5492
2026-01-07 02:13:13.61	4.21	10.49	-43.5	-47.0	22.9	6.03e-01	0	38	0	55574528	58	5457
2026-01-07 02:13:14.61	4.13	10.58	-43.5	-47.0	23.0	6.06e-01	0	38	0	57147392	58	5435
2026-01-07 02:13:15.61	4.05	10.67	-43.5	-47.1	22.9	6.03e-01	0	38	0	59244544	58	5478
2026-01-07 02:13:16.69	3.96	10.77	-43.4	-46.9	23.1	6.02e-01	0	38	0	61341696	58	5398
2026-01-07 02:13:17.55	3.89	10.84	-43.6	-47.0	23.1	6.03e-01	0	38	0	62914560	58	5411
2026-01-07 02:13:18.70	3.80	10.94	-43.6	-47.0	23.1	6.01e-01	0	38	0	65011712	58	5422
2026-01-07 02:13:19.66	3.72	11.03	-43.5	-46.9	23.1	6.02e-01	0	38	0	66584576	58	5382
2026-01-07 02:13:20.66	3.64	11.12	-43.6	-47.0	23.1	6.06e-01	0	38	0	68681728	58	5416
2026-01-07 02:13:21.66	3.55	11.21	-43.6	-46.9	23.1	6.01e-01	0	38	0	70778880	58	5378
2026-01-07 02:13:22.66	3.47	11.30	-43.7	-47.0	23.1	6.03e-01	0	38	0	72351744	58	5412
2026-01-07 02:13:23.67	3.38	11.39	-43.7	-46.9	23.1	6.02e-01	0	38	0	74448896	58	5344
2026-01-07 02:13:24.67	3.30	11.48	-43.7	-46.9	23.1	6.03e-01	0	38	0	76021760	58	5356
2026-01-07 02:13:25.67	3.21	11.57	-43.8	-47.0	23.0	6.04e-01	0	38	0	78118912	58	5454
2026-01-07 02:13:26.68	3.12	11.67	-43.7	-47.0	23.1	6.03e-01	0	38	0	80216064	58	5404
2026-01-07 02:13:27.68	3.04	11.76	-43.7	-46.8	23.2	6.01e-01	0	38	0	81788928	58	5324
2026-01-07 02:13:28.68	2.95	11.85	-43.7	-46.8	23.2	6.02e-01	0	38	0	83886080	58	5298
2026-01-07 02:13:29.68	2.86	11.94	-43.6	-46.7	23.4	5.99e-01	0	38	0	85458944	58	5238
2026-01-07 02:13:30.69	2.77	12.04	-43.7	-46.8	23.3	6.02e-01	0	38	0	87556096	58	5322
2026-01-07 02:13:31.77	2.67	12.14	-43.7	-46.6	23.5	6.04e-01	0	38	0	89653248	58	5207
2026-01-07 02:13:32.66	2.59	12.22	-43.7	-46.6	23.5	6.05e-01	0	38	0	91226112	58	5190
2026-01-07 02:13:33.99	2.47	12.35	-43.6	-46.5	23.6	6.04e-01	0	38	0	93847552	58	5158
2026-01-07 02:13:34.71	2.40	12.41	-43.6	-46.5	23.6	6.03e-01	0	38	0	94896128	58	5103
2026-01-07 02:13:36.00	2.28	12.54	-43.6	-46.5	23.6	6.02e-01	0	38	0	97517568	58	5107
2026-01-07 02:13:36.71	2.22	12.60	-43.6	-46.5	23.7	6.02e-01	0	38	0	98566144	58	5102
2026-01-07 02:13:38.00	2.09	12.73	-43.5	-46.4	23.7	6.05e-01	0	38	0	101187584	58	5071
2026-01-07 02:13:38.72	2.03	12.79	-43.5	-46.5	23.6	6.03e-01	0	38	0	102760448	58	5117
2026-01-07 02:13:40.01	1.90	12.92	-43.5	-46.5	23.6	6.06e-01	0	38	0	104857600	58	5139
2026-01-07 02:13:40.73	1.83	12.99	-43.4	-46.4	23.7	6.02e-01	0	38	0	106430464	58	5065
2026-01-07 02:13:42.01	1.71	13.11	-43.4	-46.3	23.8	6.03e-01	0	38	0	108527616	58	5040
2026-01-07 02:13:42.73	1.64	13.18	-43.4	-46.3	23.8	6.03e-01	0	38	0	110100480	58	5026
2026-01-07 02:13:44.02	1.51	13.31	-43.5	-46.4	23.8	6.02e-01	0	38	0	112721920	58	5043
2026-01-07 02:13:44.74	1.44	13.38	-43.5	-46.3	23.9	6.03e-01	0	38	0	113770496	58	5004
2026-01-07 02:13:46.17	1.30	13.52	-43.5	-46.3	23.9	6.03e-01	0	38	0	116391936	58	4992
2026-01-07 02:13:46.88	1.23	13.59	-43.4	-46.3	23.9	6.05e-01	0	38	0	117964800	58	4990
2026-01-07 02:13:48.24	1.09	13.72	-43.5	-46.4	23.8	6.05e-01	0	38	0	120586240	58	5048
2026-01-07 02:13:48.96	1.01	13.79	-43.5	-46.3	23.8	6.04e-01	0	38	0	121634816	58	5011
2026-01-07 02:13:50.24	0.88	13.92	-43.5	-46.4	23.8	6.02e-01	0	38	0	124256256	58	5050
2026-01-07 02:13:50.96	0.81	13.99	-43.6	-46.4	23.8	6.01e-01	0	38	0	125304832	58	5067
2026-01-07 02:13:52.26	0.67	14.12	-43.5	-46.4	23.8	6.02e-01	0	38	0	127926272	58	5062
2026-01-07 02:13:52.97	0.60	14.19	-43.6	-46.5	23.6	6.04e-01	0	38	0	129499136	58	5106
2026-01-07 02:13:54.26	0.46	14.33	-43.4	-46.3	23.8	6.04e-01	0	38	0	131596288	58	5009
2026-01-07 02:13:54.98	0.38	14.40	-43.4	-46.3	23.8	6.03e-01	0	38	0	133169152	58	5026
2026-01-07 02:13:56.27	0.24	14.53	-43.4	-46.4	23.8	6.04e-01	0	38	0	135266304	58	5058
2026-01-07 02:13:56.98	0.17	14.60	-43.4	-46.3	23.8	6.06e-01	0	38	0	136839168	58	5032
2026-01-07 02:13:58.27	0.03	14.73	-43.4	-46.3	23.8	6.00e-01	0	38	0	139460608	58	5034
2026-01-07 02:13:59.08	359.94	14.82	-43.4	-46.3	23.9	6.03e-01	0	38	0	140509184	58	5003
2026-01-07 02:14:00.54	359.77	14.97	-43.5	-46.4	23.7	6.01e-01	0	38	0	143654912	58	5076
2026-01-07 02:14:01.26	359.69	15.04	-43.5	-46.4	23.7	6.04e-01	0	38	0	144703488	58	5070
2026-01-07 02:14:02.75	359.53	15.20	-43.5	-46.3	23.8	6.05e-01	0	38	0	147849216	58	5038
2026-01-07 02:14:03.47	359.44	15.27	-43.6	-46.4	23.7	6.04e-01	0	38	0	148897792	58	5097
2026-01-07 02:14:04.76	359.30	15.41	-43.4	-46.2	23.9	6.03e-01	0	38	0	151519232	58	4941
2026-01-07 02:14:05.48	359.21	15.49	-43.3	-46.1	24.1	6.03e-01	0	38	0	152567808	58	4896
2026-01-07 02:14:06.76	359.06	15.62	-43.3	-46.1	24.1	6.02e-01	0	38	0	155189248	58	4908
2026-01-07 02:14:07.48	358.98	15.70	-43.4	-46.1	24.1	6.04e-01	0	38	0	156237824	58	4895
2026-01-07 02:14:08.77	358.82	15.83	-43.5	-46.2	24.0	6.02e-01	0	38	0	158859264	58	4959
2026-01-07 02:14:09.49	358.74	15.91	-43.4	-46.1	24.1	6.00e-01	0	38	0	160432128	58	4908
2026-01-07 02:14:10.78	358.58	16.05	-43.3	-46.1	24.1	6.01e-01	0	38	0	162529280	58	4884
2026-01-07 02:14:11.49	358.50	16.13	-43.4	-46.1	24.1	6.03e-01	0	38	0	164102144	58	4887
2026-01-07 02:14:12.78	358.34	16.27	-43.3	-46.2	24.1	6.04e-01	0	38	0	166199296	58	4937
2026-01-07 02:14:13.56	358.24	16.35	-43.2	-46.0	24.2	6.03e-01	0	38	0	167772160	58	4870
2026-01-07 02:14:14.85	358.08	16.49	-43.2	-46.1	24.1	6.02e-01	0	38	0	170393600	58	4924
2026-01-07 02:14:15.56	357.99	16.57	-43.1	-46.1	24.1	6.00e-01	0	38	0	171442176	58	4910
2026-01-07 02:14:16.86	357.83	16.71	-43.0	-46.1	24.1	6.03e-01	0	38	0	174063616	58	4896
2026-01-07 02:14:17.70	357.72	16.80	-42.9	-46.2	24.1	6.02e-01	0	38	0	175636480	57	5222
2026-01-07 02:14:18.84	357.57	16.93	-42.8	-46.0	24.2	6.03e-01	0	38	0	177733632	57	5128
2026-01-07 02:14:19.70	357.46	17.03	-42.8	-46.0	24.2	5.99e-01	0	38	0	179306496	57	5157
2026-01-07 02:14:20.85	357.31	17.15	-42.8	-46.1	24.2	6.01e-01	0	38	0	181403648	57	5167
2026-01-07 02:14:21.71	357.20	17.25	-42.7	-45.9	24.2	6.01e-01	0	38	0	182976512	57	5080
2026-01-07 02:14:22.85	357.05	17.38	-42.9	-46.0	24.2	6.01e-01	0	38	0	185597952	57	5110
2026-01-07 02:14:23.71	356.93	17.48	-42.9	-45.9	24.3	6.04e-01	0	38	0	187170816	57	5081
2026-01-07 02:14:24.86	356.78	17.61	-42.9	-46.0	24.2	6.04e-01	0	38	0	189267968	57	5131
2026-01-07 02:14:25.72	356.66	17.70	-43.1	-46.1	24.1	6.06e-01	0	38	0	190840832	57	5179
2026-01-07 02:14:27.04	356.48	17.85	-43.1	-45.9	24.2	6.01e-01	0	38	0	192937984	57	5056
2026-01-07 02:14:27.76	356.38	17.94	-43.2	-45.9	24.2	6.05e-01	0	38	0	194510848	57	5064
2026-01-07 02:14:29.05	356.20	18.08	-43.3	-46.0	24.1	6.04e-01	0	38	0	197132288	57	5103
2026-01-07 02:14:29.76	356.10	18.17	-43.3	-45.9	24.2	6.05e-01	0	38	0	198180864	57	5089
2026-01-07 02:14:31.05	355.92	18.32	-43.2	-45.9	24.2	6.02e-01	0	38	0	200802304	57	5053
2026-01-07 02:14:31.77	355.81	18.40	-43.1	-45.8	24.3	6.04e-01	0	38	0	201850880	57	5007
2026-01-07 02:14:33.06	355.63	18.55	-43.1	-45.9	23.9	6.05e-01	0	38	0	204472320	57	5078
2026-01-07 02:14:33.89	355.51	18.65	-43.0	-45.8	23.9	6.03e-01	0	38	0	206045184	57	5010
2026-01-07 02:14:35.04	355.34	18.78	-43.1	-45.9	23.8	6.01e-01	0	38	0	208142336	57	5074
2026-01-07 02:14:35.90	355.21	18.88	-43.0	-45.9	23.8	5.99e-01	0	38	0	209715200	57	5071
2026-01-07 02:14:37.04	355.04	19.02	-43.0	-45.9	24.1	6.03e-01	0	38	0	211812352	57	5056
2026-01-07 02:14:37.90	354.91	19.12	-43.0	-45.9	24.2	6.05e-01	0	38	0	213385216	57	5088
2026-01-07 02:14:39.05	354.74	19.26	-42.8	-45.9	23.1	6.05e-01	0	38	0	215482368	57	5051
2026-01-07 02:14:39.91	354.61	19.36	-43.0	-46.0	23.1	6.00e-01	0	38	0	217055232	57	5116
2026-01-07 02:14:41.09	354.42	19.50	-43.1	-46.0	23.1	6.02e-01	0	38	0	219676672	57	5149
2026-01-07 02:14:41.95	354.29	19.61	-43.1	-46.0	22.6	6.04e-01	0	38	0	221249536	57	5148
2026-01-07 02:14:43.09	354.11	19.74	-43.2	-46.1	22.2	6.03e-01	0	38	0	223346688	57	5218
2026-01-07 02:14:43.95	353.97	19.85	-43.3	-46.2	23.0	6.02e-01	0	38	0	224919552	57	5250
2026-01-07 02:14:45.22	353.77	20.00	-43.2	-46.2	22.7	6.03e-01	0	38	0	227016704	57	5238
2026-01-07 02:14:45.94	353.65	20.09	-43.0	-46.1	21.5	6.02e-01	0	38	0	228589568	57	5216
2026-01-07 02:14:47.47	353.41	20.28	-42.8	-46.0	19.9	6.02e-01	0	38	0	231211008	57	5148
2026-01-07 02:14:48.18	353.29	20.37	-39.9	-46.0	13.1	6.06e-01	0	38	0	232783872	51	7228
2026-01-07 02:14:49.52	353.07	20.53	-35.2	-45.2	7.3	6.58e-01	0	38	0	235405312	42	11037
2026-01-07 02:14:50.24	352.95	20.62	-34.6	-44.9	7.0	6.62e-01	0	38	0	236453888	41	11305
2026-01-07 02:14:51.64	352.71	20.79	-37.5	-45.4	10.1	6.22e-01	0	38	0	239075328	45	9554
2026-01-07 02:14:52.35	352.59	20.88	-39.7	-45.9	12.7	6.05e-01	0	38	0	240648192	49	8018
2026-01-07 02:14:53.64	352.37	21.05	-43.0	-46.1	20.8	6.03e-01	0	38	0	242745344	56	5491
2026-01-07 02:14:54.36	352.24	21.14	-43.3	-46.2	22.0	6.01e-01	0	38	0	244318208	57	5222
2026-01-07 02:14:55.79	351.99	21.32	-43.5	-46.2	23.0	6.06e-01	0	38	0	246939648	57	5252
2026-01-07 02:14:56.51	351.86	21.41	-43.5	-46.1	23.7	6.02e-01	0	38	0	248512512	57	5202
2026-01-07 02:14:57.79	351.64	21.57	-43.4	-46.0	24.0	6.04e-01	0	38	0	250609664	57	5133
2026-01-07 02:14:58.51	351.51	21.66	-43.3	-46.0	24.0	6.02e-01	0	38	0	252182528	57	5117
2026-01-07 02:14:59.80	351.27	21.83	-43.1	-45.9	24.1	6.03e-01	0	38	0	254803968	57	5090
2026-01-07 02:15:00.52	351.14	21.92	-43.1	-45.9	24.1	6.04e-01	0	38	0	255852544	57	5097
2026-01-07 02:15:01.81	350.90	22.09	-43.2	-46.0	24.2	6.04e-01	0	38	0	258473984	57	5149
2026-01-07 02:15:02.52	350.77	22.18	-43.3	-46.1	24.3	6.04e-01	0	38	0	259522560	57	5180
2026-01-07 02:15:03.81	350.53	22.34	-43.3	-46.1	24.1	6.02e-01	0	38	0	262144000	57	5181
2026-01-07 02:15:04.53	350.39	22.44	-43.5	-46.2	24.1	6.04e-01	0	38	0	263192576	57	5245
2026-01-07 02:15:05.82	350.14	22.61	-43.5	-46.0	24.3	6.04e-01	0	38	0	265814016	57	5147
2026-01-07 02:15:06.58	350.00	22.70	-43.5	-46.0	24.3	6.04e-01	0	38	0	267386880	57	5144
2026-01-07 02:15:08.19	349.68	22.92	-43.6	-46.1	24.3	6.04e-01	0	38	0	270532608	57	5214
2026-01-07 02:15:09.04	349.52	23.03	-43.5	-46.3	24.1	6.02e-01	0	38	0	272105472	57	5305
2026-01-07 02:15:10.18	349.29	23.18	-43.5	-46.3	24.1	6.03e-01	0	38	0	274202624	57	5323
2026-01-07 02:15:11.04	349.12	23.29	-43.4	-46.4	24.0	6.05e-01	0	38	0	275775488	57	5357
2026-01-07 02:15:12.19	348.88	23.44	-43.4	-46.4	23.8	6.04e-01	0	38	0	277872640	57	5383
2026-01-07 02:15:13.05	348.71	23.56	-43.4	-46.4	23.9	6.03e-01	0	38	0	279445504	57	5399
2026-01-07 02:15:14.19	348.47	23.71	-43.4	-46.4	23.9	6.03e-01	0	38	0	281542656	57	5387
2026-01-07 02:15:15.10	348.28	23.83	-43.4	-46.4	23.9	6.02e-01	0	38	0	283115520	57	5370
2026-01-07 02:15:16.30	348.03	23.99	-43.5	-46.3	24.1	6.04e-01	0	38	0	285736960	57	5302
2026-01-07 02:15:17.17	347.84	24.11	-43.5	-46.2	24.1	6.04e-01	0	38	0	287309824	57	5276
2026-01-07 02:15:18.31	347.60	24.26	-43.6	-46.1	24.2	6.05e-01	0	38	0	289406976	57	5201
2026-01-07 02:15:19.17	347.41	24.38	-43.5	-46.0	24.3	6.04e-01	0	38	0	290979840	57	5147
2026-01-07 02:15:20.54	347.11	24.57	-43.4	-46.0	24.4	6.02e-01	0	38	0	293601280	57	5115
2026-01-07 02:15:21.26	346.95	24.66	-43.3	-46.0	24.4	6.03e-01	0	38	0	294649856	57	5128
2026-01-07 02:15:22.55	346.67	24.84	-43.3	-46.0	24.4	6.05e-01	0	38	0	297271296	57	5131
2026-01-07 02:15:23.26	346.51	24.94	-43.4	-46.2	24.3	6.04e-01	0	38	0	298844160	57	5236
2026-01-07 02:15:24.55	346.21	25.11	-43.3	-46.1	24.3	6.07e-01	0	38	0	300941312	57	5218
2026-01-07 02:15:25.26	346.05	25.21	-43.3	-46.1	24.3	6.02e-01	0	38	0	302514176	57	5211
2026-01-07 02:15:26.56	345.75	25.39	-43.6	-46.3	24.1	6.02e-01	0	38	0	304611328	57	5314
2026-01-07 02:15:27.27	345.59	25.49	-43.6	-46.2	24.2	6.04e-01	0	38	0	306184192	57	5252
2026-01-07 02:15:28.56	345.28	25.67	-43.6	-46.2	24.3	6.06e-01	0	38	0	308281344	57	5245
2026-01-07 02:15:29.28	345.11	25.76	-43.6	-46.1	24.3	6.00e-01	0	38	0	309854208	57	5216
2026-01-07 02:15:30.57	344.80	25.94	-43.5	-46.1	24.3	6.06e-01	0	38	0	312475648	57	5188
2026-01-07 02:15:31.28	344.63	26.04	-43.4	-46.0	24.4	6.05e-01	0	38	0	313524224	57	5117
2026-01-07 02:15:32.57	344.32	26.22	-43.2	-45.8	24.6	6.01e-01	0	38	0	316145664	57	5039
2026-01-07 02:15:33.29	344.14	26.32	-43.2	-45.9	24.5	6.03e-01	0	38	0	317194240	57	5070
2026-01-07 02:15:34.58	343.82	26.50	-43.1	-46.0	24.5	6.03e-01	0	38	0	319815680	57	5101
2026-01-07 02:15:35.29	343.64	26.60	-43.1	-46.0	24.4	6.03e-01	0	38	0	320864256	57	5111
2026-01-07 02:15:36.58	343.31	26.78	-43.0	-45.9	24.4	6.02e-01	0	38	0	323485696	57	5058
2026-01-07 02:15:37.68	343.03	26.93	-43.1	-45.9	24.6	6.01e-01	0	38	0	325582848	57	5047
2026-01-07 02:15:38.86	342.72	27.10	-43.1	-45.8	24.6	6.03e-01	0	38	0	327680000	57	4993
2026-01-07 02:15:39.72	342.50	27.22	-43.2	-45.7	24.7	6.03e-01	0	38	0	329252864	57	4983
2026-01-07 02:15:40.87	342.20	27.38	-43.3	-45.7	24.7	6.03e-01	0	38	0	331350016	57	4976
2026-01-07 02:15:41.73	341.97	27.50	-43.3	-45.8	24.6	6.04e-01	0	38	0	332922880	57	4986
2026-01-07 02:15:42.87	341.66	27.66	-43.3	-45.9	24.5	6.03e-01	0	38	0	335544320	57	5067
2026-01-07 02:15:43.73	341.43	27.78	-43.2	-45.8	24.6	6.04e-01	0	38	0	337117184	57	5041
2026-01-07 02:15:44.87	341.12	27.94	-43.1	-45.8	24.6	6.04e-01	0	38	0	339214336	57	5006
2026-01-07 02:15:45.73	340.88	28.07	-43.2	-45.8	24.6	6.04e-01	0	38	0	340787200	57	5028
2026-01-07 02:15:46.88	340.56	28.23	-43.0	-45.5	24.9	6.03e-01	0	38	0	342884352	57	4867
2026-01-07 02:15:47.74	340.31	28.35	-43.0	-45.5	24.9	6.05e-01	0	38	0	344457216	57	4829
2026-01-07 02:15:49.02	339.95	28.53	-43.0	-45.4	25.0	6.04e-01	0	38	0	347078656	57	4787
2026-01-07 02:15:49.74	339.74	28.63	-43.1	-45.5	24.9	6.02e-01	0	38	0	348127232	57	4846
2026-01-07 02:15:51.24	339.31	28.84	-43.0	-45.4	24.9	6.05e-01	0	38	0	350748672	57	4814
2026-01-07 02:15:51.95	339.10	28.94	-43.0	-45.6	24.9	6.02e-01	0	38	0	352321536	57	4909
2026-01-07 02:15:53.24	338.72	29.12	-43.0	-45.6	24.7	6.03e-01	0	38	0	354942976	57	4905
2026-01-07 02:15:53.96	338.51	29.22	-43.0	-45.6	24.8	6.06e-01	0	38	0	355991552	57	4888
2026-01-07 02:15:55.25	338.12	29.41	-42.9	-45.4	25.0	6.03e-01	0	38	0	358612992	57	4778
2026-01-07 02:15:55.97	337.90	29.51	-42.9	-45.4	25.0	6.03e-01	0	38	0	359661568	57	4809
2026-01-07 02:15:57.26	337.50	29.69	-42.9	-45.3	25.1	6.02e-01	0	38	0	362283008	57	4753
2026-01-07 02:15:57.97	337.28	29.79	-42.8	-45.4	25.1	6.04e-01	0	38	0	363855872	57	4774
2026-01-07 02:15:59.26	336.88	29.97	-42.8	-45.5	24.9	6.03e-01	0	38	0	365953024	57	4825
2026-01-07 02:16:00.08	336.62	30.08	-42.6	-45.4	25.0	6.04e-01	0	38	0	367525888	57	4800
2026-01-07 02:16:01.54	336.16	30.29	-42.4	-45.1	25.1	6.03e-01	0	38	0	370147328	56	4892
2026-01-07 02:16:02.26	335.93	30.39	-42.4	-45.1	25.2	6.04e-01	0	38	0	371720192	56	4916
2026-01-07 02:16:03.55	335.51	30.57	-42.5	-45.2	25.1	6.01e-01	0	38	0	373817344	56	4953
2026-01-07 02:16:04.26	335.27	30.66	-42.7	-45.3	25.1	6.02e-01	0	39	0	375390208	56	5024
2026-01-07 02:16:05.55	334.85	30.84	-42.8	-45.4	25.0	6.05e-01	0	38	0	378011648	56	5076
2026-01-07 02:16:06.27	334.61	30.94	-43.0	-45.5	24.9	6.03e-01	0	38	0	379060224	56	5143
2026-01-07 02:16:07.55	334.18	31.12	-42.8	-45.4	25.0	6.04e-01	0	38	0	381681664	56	5044
2026-01-07 02:16:08.27	333.93	31.22	-42.7	-45.2	25.2	6.02e-01	0	38	0	382730240	56	4935
2026-01-07 02:16:09.56	333.49	31.39	-42.7	-45.3	25.1	6.06e-01	0	38	0	385351680	56	4987
2026-01-07 02:16:10.27	333.25	31.49	-42.6	-45.0	25.2	6.04e-01	0	38	0	386924544	56	4867
2026-01-07 02:16:11.56	332.80	31.67	-42.5	-45.1	25.3	6.02e-01	0	38	0	389021696	56	4904
2026-01-07 02:16:12.28	332.54	31.76	-42.6	-45.3	25.1	6.05e-01	0	39	0	390594560	56	5005
2026-01-07 02:16:13.57	332.09	31.94	-42.8	-45.6	24.8	6.02e-01	0	38	0	392691712	56	5189
2026-01-07 02:16:14.29	331.83	32.03	-42.7	-45.5	24.8	6.05e-01	0	38	0	394264576	56	5154
2026-01-07 02:16:15.58	331.36	32.21	-42.7	-45.5	24.9	6.00e-01	0	38	0	396886016	56	5110
2026-01-07 02:16:16.30	331.10	32.30	-42.6	-45.4	25.0	6.02e-01	0	38	0	397934592	56	5049
2026-01-07 02:16:17.59	330.63	32.47	-42.7	-45.3	25.0	6.01e-01	0	38	0	400556032	56	5032
2026-01-07 02:16:18.70	330.22	32.62	-43.0	-45.5	24.8	6.04e-01	0	38	0	402653184	56	5155
2026-01-07 02:16:19.56	329.90	32.73	-43.1	-45.6	24.9	6.02e-01	0	38	0	404226048	56	5181
2026-01-07 02:16:20.70	329.47	32.88	-42.9	-45.4	25.0	6.07e-01	0	38	0	406323200	56	5058
2026-01-07 02:16:21.56	329.14	32.99	-43.0	-45.4	24.9	6.03e-01	0	39	0	407896064	56	5073
2026-01-07 02:16:22.71	328.70	33.14	-43.1	-45.5	24.9	6.03e-01	0	38	0	409993216	57	4847
2026-01-07 02:16:23.57	328.37	33.25	-43.4	-45.8	24.7	6.04e-01	0	38	0	411566080	57	5019
2026-01-07 02:16:24.71	327.92	33.39	-43.3	-45.8	24.6	6.02e-01	0	38	0	413663232	57	5012
2026-01-07 02:16:25.59	327.58	33.50	-43.4	-46.0	24.5	6.02e-01	0	38	0	415236096	57	5115
2026-01-07 02:16:26.73	327.13	33.65	-42.9	-45.4	25.0	6.04e-01	0	38	0	417333248	57	4806
2026-01-07 02:16:27.70	326.74	33.77	-42.8	-45.5	24.9	6.04e-01	0	38	0	419430400	57	4844
2026-01-07 02:16:28.88	326.26	33.91	-43.0	-45.8	24.7	6.04e-01	0	38	0	421527552	57	5001
2026-01-07 02:16:29.74	325.91	34.01	-43.2	-46.0	24.4	6.05e-01	0	39	0	423100416	57	5143
2026-01-07 02:16:31.10	325.36	34.18	-43.5	-46.2	24.2	6.02e-01	0	39	0	425721856	57	5239
2026-01-07 02:16:31.81	325.07	34.26	-43.4	-46.0	24.4	6.03e-01	0	38	0	427294720	57	5159
2026-01-07 02:16:33.10	324.53	34.41	-43.2	-45.8	24.6	6.02e-01	0	38	0	429391872	57	5029
2026-01-07 02:16:33.81	324.23	34.50	-43.2	-45.8	24.7	6.03e-01	0	38	0	430964736	57	5001
2026-01-07 02:16:35.10	323.69	34.65	-43.5	-46.1	24.4	6.02e-01	0	39	0	433061888	57	5184
2026-01-07 02:16:35.87	323.36	34.73	-43.6	-46.2	24.3	6.04e-01	0	38	0	434634752	57	5260
2026-01-07 02:16:37.15	322.81	34.88	-43.7	-46.3	24.2	6.05e-01	0	38	0	437256192	58	5012
2026-01-07 02:16:37.97	322.46	34.97	-43.7	-46.4	23.8	6.05e-01	0	39	0	438829056	58	5042
2026-01-07 02:16:39.11	321.96	35.10	-43.6	-46.4	24.2	6.01e-01	0	38	0	440926208	58	5060
2026-01-07 02:16:39.97	321.59	35.19	-43.6	-46.4	24.1	6.03e-01	0	38	0	442499072	58	5083
2026-01-07 02:16:41.12	321.08	35.31	-43.9	-46.9	23.6	6.03e-01	0	38	0	444596224	58	5357
2026-01-07 02:16:41.98	320.70	35.40	-43.6	-46.5	24.0	6.04e-01	0	38	0	446169088	58	5127
2026-01-07 02:16:43.12	320.19	35.52	-43.6	-46.4	24.1	6.05e-01	0	38	0	448266240	58	5055
2026-01-07 02:16:44.32	319.65	35.64	-43.9	-46.7	23.8	6.05e-01	0	39	0	450363392	58	5236
2026-01-07 02:16:45.35	319.18	35.75	-44.0	-46.8	23.7	6.02e-01	0	38	0	452460544	58	5284
2026-01-07 02:16:46.36	318.72	35.85	-43.8	-46.4	24.1	6.02e-01	0	39	0	454557696	58	5070
2026-01-07 02:16:47.57	318.17	35.96	-43.8	-46.4	24.1	6.02e-01	0	39	0	456654848	58	5057
2026-01-07 02:16:48.43	317.77	36.05	-44.3	-47.0	23.6	6.03e-01	0	38	0	458227712	59	5109
2026-01-07 02:16:49.57	317.24	36.15	-44.3	-46.9	23.6	6.00e-01	0	38	0	460324864	59	5092
2026-01-07 02:16:50.42	316.84	36.23	-43.8	-46.3	24.2	6.03e-01	0	38	0	461897728	59	4747
2026-01-07 02:16:51.57	316.30	36.33	-44.0	-46.6	23.9	6.05e-01	0	38	0	463994880	59	4887
2026-01-07 02:16:52.43	315.90	36.41	-44.4	-47.1	23.4	6.02e-01	0	38	0	465567744	59	5217
2026-01-07 02:16:53.57	315.36	36.50	-44.1	-46.6	23.9	6.05e-01	0	38	0	467664896	59	4920
2026-01-07 02:16:54.43	314.94	36.58	-43.9	-46.5	24.1	6.04e-01	0	38	0	469237760	59	4815
2026-01-07 02:16:55.58	314.39	36.67	-44.3	-47.0	23.6	6.03e-01	0	38	0	471859200	59	5111
2026-01-07 02:16:56.44	313.98	36.74	-44.3	-47.0	23.5	6.02e-01	0	38	0	473432064	59	5142
2026-01-07 02:16:57.59	313.42	36.83	-44.2	-46.8	23.7	6.04e-01	0	38	0	475529216	59	5040
2026-01-07 02:16:58.87	312.79	36.92	-44.5	-47.2	23.4	6.01e-01	0	39	0	477626368	59	5252
2026-01-07 02:16:59.59	312.44	36.98	-44.2	-46.8	23.7	6.02e-01	0	39	0	479199232	59	5018
2026-01-07 02:17:00.88	311.81	37.07	-43.9	-46.5	24.0	6.04e-01	0	38	0	481820672	59	4823
2026-01-07 02:17:01.60	311.45	37.12	-44.1	-46.9	23.6	6.02e-01	0	38	0	482869248	59	5054
2026-01-07 02:17:02.89	310.81	37.20	-44.2	-47.1	23.3	6.04e-01	0	38	0	485490688	59	5215
2026-01-07 02:17:03.60	310.45	37.25	-44.1	-46.9	23.6	6.04e-01	0	38	0	486539264	59	5097
2026-01-07 02:17:04.89	309.81	37.33	-44.3	-47.1	23.5	6.02e-01	0	38	0	489160704	59	5204
2026-01-07 02:17:05.61	309.45	37.37	-44.1	-46.8	23.7	6.01e-01	0	38	0	490733568	59	5016
2026-01-07 02:17:06.89	308.80	37.44	-44.0	-46.6	23.9	6.06e-01	0	38	0	492830720	59	4893
2026-01-07 02:17:07.61	308.43	37.48	-44.4	-47.2	23.3	6.03e-01	0	38	0	494403584	59	5278
2026-01-07 02:17:08.90	307.78	37.55	-44.4	-47.2	23.1	6.02e-01	0	39	0	496500736	60	4981
2026-01-07 02:17:09.68	307.38	37.58	-44.3	-47.2	23.3	6.00e-01	0	38	0	498073600	60	4941
2026-01-07 02:17:11.27	306.57	37.66	-44.6	-47.6	22.8	6.05e-01	0	38	0	501219328	60	5197
2026-01-07 02:17:11.84	306.27	37.68	-44.0	-46.7	23.8	6.03e-01	0	39	0	502267904	59	4944
2026-01-07 02:17:13.42	305.46	37.75	-44.6	-47.5	23.0	6.02e-01	0	38	0	504889344	59	5462
2026-01-07 02:17:13.99	305.17	37.77	-43.9	-46.6	23.7	6.02e-01	0	38	0	505937920	59	4880
2026-01-07 02:17:15.57	304.35	37.83	-43.9	-46.5	24.0	6.02e-01	0	38	0	509083648	59	4853
2026-01-07 02:17:16.19	304.03	37.85	-44.2	-47.0	23.1	6.05e-01	0	38	0	510132224	60	4824
2026-01-07 02:17:17.76	303.21	37.89	-44.0	-46.6	23.9	6.04e-01	0	39	0	513277952	59	4925
2026-01-07 02:17:18.33	302.91	37.91	-44.4	-47.3	23.0	6.01e-01	0	38	0	514326528	60	5016
2026-01-07 02:17:19.94	302.07	37.95	-43.8	-46.5	24.0	6.02e-01	0	38	0	517472256	59	4849
2026-01-07 02:17:20.51	301.78	37.96	-45.0	-48.2	22.2	6.00e-01	0	39	0	518520832	60	5541
2026-01-07 02:17:22.12	300.93	37.99	-43.8	-46.3	23.8	6.03e-01	0	39	0	521666560	59	4729
2026-01-07 02:17:22.69	300.63	38.00	-44.7	-47.6	22.7	6.02e-01	0	39	0	522715136	60	5187
2026-01-07 02:17:24.54	299.66	38.02	-43.5	-46.1	24.1	6.05e-01	0	38	0	525860864	59	4634
2026-01-07 02:17:25.11	299.36	38.03	-44.2	-47.0	23.5	6.03e-01	0	38	0	526909440	58	5442
2026-01-07 02:17:26.74	298.51	38.04	-44.4	-47.3	23.1	6.01e-01	0	38	0	530055168	60	5028
2026-01-07 02:17:27.31	298.21	38.04	-44.0	-46.6	23.9	6.03e-01	0	38	0	531103744	59	4904
2026-01-07 02:17:28.92	297.36	38.04	-44.7	-47.7	22.9	6.01e-01	0	38	0	534249472	60	5254
2026-01-07 02:17:29.49	297.06	38.04	-44.0	-46.6	23.8	6.02e-01	0	38	0	535298048	59	4903
2026-01-07 02:17:31.31	296.11	38.02	-44.6	-47.6	22.7	6.04e-01	0	38	0	538443776	60	5194
2026-01-07 02:17:31.88	295.81	38.02	-44.2	-47.0	23.2	6.05e-01	0	38	0	539492352	60	4861
2026-01-07 02:17:33.47	294.97	38.00	-43.8	-46.5	24.0	6.05e-01	0	39	0	542638080	59	4828
2026-01-07 02:17:34.05	294.67	37.99	-44.6	-47.5	23.0	6.03e-01	0	39	0	543686656	60	5126
2026-01-07 02:17:35.64	293.84	37.96	-44.6	-47.4	23.1	6.06e-01	0	38	0	546832384	60	5068
2026-01-07 02:17:36.51	293.38	37.94	-44.4	-47.1	23.5	6.03e-01	0	39	0	548405248	60	4903
2026-01-07 02:17:37.66	292.78	37.92	-44.6	-47.4	23.1	6.04e-01	0	38	0	550502400	60	5060
2026-01-07 02:17:38.52	292.33	37.89	-45.0	-48.0	22.6	6.04e-01	0	38	0	552075264	60	5442
2026-01-07 02:17:39.66	291.74	37.86	-44.5	-47.2	23.3	6.04e-01	0	39	0	554172416	60	4954
2026-01-07 02:17:40.52	291.29	37.83	-44.9	-47.8	22.6	6.03e-01	0	39	0	555745280	60	5316
2026-01-07 02:17:41.67	290.69	37.79	-45.1	-47.9	22.6	6.02e-01	0	39	0	557842432	60	5390
2026-01-07 02:17:42.53	290.25	37.76	-45.1	-48.0	22.5	6.02e-01	0	38	0	559939584	61	5157
2026-01-07 02:17:43.68	289.66	37.72	-45.5	-48.5	22.1	6.02e-01	0	39	0	562036736	61	5458
2026-01-07 02:17:44.53	289.22	37.68	-44.9	-47.7	22.7	6.03e-01	0	39	0	563609600	61	4966
2026-01-07 02:17:45.68	288.63	37.63	-44.8	-47.6	23.0	6.03e-01	0	38	0	565706752	61	4880
2026-01-07 02:17:46.54	288.19	37.59	-45.0	-47.9	22.6	6.05e-01	0	39	0	567279616	61	5091
2026-01-07 02:17:47.69	287.60	37.53	-44.7	-47.5	23.1	6.04e-01	0	39	0	569376768	61	4852
2026-01-07 02:17:48.55	287.16	37.49	-45.6	-48.7	21.7	6.04e-01	0	39	0	570949632	61	5565
2026-01-07 02:17:49.69	286.59	37.43	-45.0	-47.9	22.6	6.03e-01	0	38	0	573046784	61	5056
2026-01-07 02:17:50.84	286.00	37.36	-45.2	-48.1	22.4	6.03e-01	0	38	0	575143936	62	4901
2026-01-07 02:17:51.70	285.57	37.31	-45.9	-49.1	21.4	6.06e-01	0	38	0	576716800	62	5502
2026-01-07 02:17:52.85	285.00	37.24	-45.1	-47.9	22.5	6.05e-01	0	39	0	579338240	62	4791
2026-01-07 02:17:53.71	284.57	37.18	-45.5	-48.5	22.1	6.03e-01	0	39	0	580911104	61	5435
2026-01-07 02:17:54.85	284.00	37.11	-45.4	-48.3	22.2	6.03e-01	0	38	0	583008256	62	5010
2026-01-07 02:17:55.71	283.57	37.05	-45.9	-49.1	21.5	6.02e-01	0	38	0	584581120	62	5490
2026-01-07 02:17:56.86	283.01	36.97	-45.5	-48.5	22.1	6.04e-01	0	39	0	586678272	62	5109
2026-01-07 02:17:57.72	282.58	36.90	-46.3	-49.6	20.9	6.07e-01	0	39	0	588251136	63	5525
2026-01-07 02:17:58.96	281.98	36.81	-45.7	-48.7	21.8	6.02e-01	0	38	0	590348288	63	4948
2026-01-07 02:17:59.82	281.56	36.74	-46.6	-50.1	20.4	6.01e-01	0	38	0	591921152	64	5504
2026-01-07 02:18:00.96	281.01	36.65	-45.2	-48.1	22.5	6.07e-01	0	38	0	594018304	62	4897
2026-01-07 02:18:01.82	280.60	36.58	-46.0	-49.4	21.3	6.01e-01	0	38	0	596115456	62	5664
2026-01-07 02:18:02.97	280.04	36.48	-45.6	-48.6	21.9	6.02e-01	0	39	0	598212608	63	4887
2026-01-07 02:18:03.83	279.64	36.41	-45.4	-48.3	22.2	6.05e-01	0	39	0	599785472	62	5038
2026-01-07 02:18:04.97	279.10	36.31	-45.4	-48.3	22.3	6.03e-01	0	38	0	601882624	62	5002
2026-01-07 02:18:05.83	278.69	36.23	-45.1	-48.0	22.6	6.01e-01	0	39	0	603455488	62	4822
2026-01-07 02:18:06.98	278.15	36.13	-45.2	-48.2	22.4	6.03e-01	0	38	0	605552640	62	4941
2026-01-07 02:18:07.84	277.75	36.05	-45.3	-48.2	22.4	6.03e-01	0	39	0	607125504	62	4975
2026-01-07 02:18:08.99	277.22	35.94	-44.5	-47.3	23.1	6.02e-01	0	38	0	609222656	61	4748
2026-01-07 02:18:09.85	276.82	35.85	-44.2	-46.7	23.7	6.03e-01	0	38	0	610795520	59	4978
2026-01-07 02:18:11.00	276.30	35.74	-44.6	-47.4	23.1	6.08e-01	0	39	0	612892672	60	5049
2026-01-07 02:18:11.86	275.91	35.65	-44.6	-47.3	23.0	6.00e-01	0	38	0	614465536	60	5015
2026-01-07 02:18:13.02	275.38	35.54	-43.8	-46.3	24.1	6.00e-01	0	38	0	617086976	59	4745
2026-01-07 02:18:13.88	275.00	35.45	-44.6	-47.5	22.9	6.05e-01	0	39	0	618659840	60	5127
2026-01-07 02:18:15.09	274.46	35.32	-43.8	-46.3	24.0	6.04e-01	0	38	0	620756992	59	4746
2026-01-07 02:18:15.95	274.08	35.23	-44.0	-46.6	23.9	6.01e-01	0	39	0	622329856	59	4882
2026-01-07 02:18:17.09	273.58	35.10	-45.0	-48.0	22.4	6.02e-01	0	38	0	624427008	60	5450
2026-01-07 02:18:17.96	273.20	35.01	-43.9	-46.4	23.9	6.02e-01	0	39	0	625999872	59	4782
2026-01-07 02:18:19.10	272.71	34.88	-44.1	-46.6	23.8	6.03e-01	0	38	0	628097024	59	4913
2026-01-07 02:18:19.96	272.34	34.78	-44.6	-47.4	23.1	6.00e-01	0	38	0	629669888	60	5055
2026-01-07 02:18:21.11	271.84	34.65	-44.1	-46.7	23.6	6.02e-01	0	38	0	632291328	60	4688
2026-01-07 02:18:21.97	271.48	34.55	-44.0	-46.5	23.9	6.04e-01	0	39	0	633864192	59	4846
2026-01-07 02:18:23.11	271.00	34.42	-44.7	-47.6	22.9	6.05e-01	0	38	0	635961344	60	5188
2026-01-07 02:18:23.97	270.64	34.32	-44.3	-47.0	23.3	6.04e-01	0	39	0	637534208	60	4857
2026-01-07 02:18:25.12	270.16	34.18	-43.7	-46.1	24.3	6.02e-01	0	38	0	639631360	59	4645
2026-01-07 02:18:26.22	269.71	34.05	-44.1	-46.7	23.7	6.00e-01	0	39	0	641728512	59	4966
2026-01-07 02:18:27.25	269.29	33.92	-44.7	-47.6	22.9	6.04e-01	0	39	0	643825664	60	5191
2026-01-07 02:18:28.25	268.89	33.80	-44.1	-46.7	23.5	6.02e-01	0	39	0	645398528	60	4689
2026-01-07 02:18:29.46	268.40	33.65	-43.8	-46.3	24.2	6.02e-01	0	39	0	647495680	59	4726
2026-01-07 02:18:30.36	268.04	33.54	-44.4	-47.0	23.5	6.03e-01	0	39	0	649592832	59	5153
2026-01-07 02:18:31.50	267.59	33.39	-44.5	-47.2	23.4	6.02e-01	0	39	0	651689984	59	5232
2026-01-07 02:18:32.36	267.26	33.28	-44.4	-47.1	23.4	6.04e-01	0	39	0	653262848	59	5194
2026-01-07 02:18:33.73	266.72	33.11	-44.2	-46.8	23.7	6.02e-01	0	39	0	655884288	59	5015
2026-01-07 02:18:34.44	266.45	33.02	-44.3	-46.9	23.7	6.05e-01	0	39	0	656932864	59	5080
2026-01-07 02:18:35.73	265.96	32.85	-44.1	-46.8	23.8	6.03e-01	0	39	0	659554304	59	5004
2026-01-07 02:18:36.45	265.69	32.76	-44.4	-47.1	23.5	6.01e-01	0	39	0	660602880	59	5177
2026-01-07 02:18:37.74	265.20	32.59	-44.1	-46.8	23.7	6.00e-01	0	39	0	663224320	59	4985
2026-01-07 02:18:38.46	264.93	32.49	-44.2	-46.9	23.5	6.02e-01	0	39	0	664797184	59	5060
2026-01-07 02:18:39.75	264.46	32.32	-44.1	-46.7	23.7	6.01e-01	0	39	0	666894336	59	4974
2026-01-07 02:18:40.59	264.15	32.21	-44.0	-46.6	23.9	6.04e-01	0	39	0	668467200	59	4919
2026-01-07 02:18:41.74	263.73	32.06	-44.0	-46.6	23.9	6.02e-01	0	39	0	670564352	59	4891
2026-01-07 02:18:42.60	263.42	31.94	-44.0	-46.7	23.8	6.05e-01	0	39	0	672137216	59	4960
2026-01-07 02:18:43.75	263.01	31.78	-43.9	-46.5	23.9	6.04e-01	0	39	0	674758656	59	4866
2026-01-07 02:18:44.61	262.71	31.67	-43.9	-46.5	23.9	6.02e-01	0	39	0	676331520	59	4857
2026-01-07 02:18:45.75	262.31	31.51	-44.1	-46.7	23.8	6.04e-01	0	39	0	678428672	59	4955
2026-01-07 02:18:46.61	262.01	31.39	-44.1	-46.7	23.8	6.03e-01	0	39	0	680001536	59	4950
2026-01-07 02:18:47.76	261.62	31.24	-44.1	-46.7	23.8	6.04e-01	0	39	0	682098688	59	4942
2026-01-07 02:18:48.62	261.32	31.12	-44.1	-46.7	23.8	6.05e-01	0	39	0	683671552	59	4950
2026-01-07 02:18:49.77	260.93	30.96	-44.1	-46.7	23.8	6.02e-01	0	39	0	685768704	59	4957
2026-01-07 02:18:50.63	260.65	30.84	-43.9	-46.5	23.9	6.02e-01	0	39	0	687341568	59	4868
2026-01-07 02:18:51.77	260.27	30.68	-44.1	-46.8	23.7	6.01e-01	0	38	0	689438720	59	5017
2026-01-07 02:18:52.71	259.96	30.55	-44.3	-47.0	23.5	6.01e-01	0	39	0	691535872	59	5150
2026-01-07 02:18:53.89	259.57	30.39	-44.0	-46.7	23.8	6.05e-01	0	39	0	693633024	59	4928
2026-01-07 02:18:54.75	259.30	30.27	-43.9	-46.5	24.0	6.00e-01	0	39	0	695205888	59	4829
2026-01-07 02:18:56.10	258.86	30.08	-44.1	-46.8	23.7	6.04e-01	0	39	0	697827328	59	5023
2026-01-07 02:18:56.82	258.63	29.97	-44.1	-46.8	23.7	6.02e-01	0	39	0	698875904	59	5005
2026-01-07 02:18:58.11	258.23	29.79	-44.0	-46.7	23.8	6.04e-01	0	39	0	701497344	59	4944
2026-01-07 02:18:58.82	258.01	29.69	-44.0	-46.6	23.9	6.03e-01	0	39	0	702545920	59	4920
2026-01-07 02:19:00.11	257.61	29.51	-44.1	-46.8	23.6	6.03e-01	0	39	0	705167360	59	5025
2026-01-07 02:19:00.88	257.38	29.40	-44.1	-46.8	23.7	6.04e-01	0	39	0	706740224	59	4988
2026-01-07 02:19:02.17	256.98	29.22	-44.1	-46.8	23.7	6.02e-01	0	39	0	708837376	59	5003
2026-01-07 02:19:02.98	256.74	29.11	-43.9	-46.7	23.8	6.02e-01	0	39	0	710410240	59	4940
2026-01-07 02:19:04.13	256.40	28.94	-44.0	-46.8	23.7	6.03e-01	0	39	0	712507392	59	5013
2026-01-07 02:19:05.23	256.08	28.79	-43.9	-46.7	23.8	6.04e-01	0	39	0	714604544	59	4937
2026-01-07 02:19:06.26	255.78	28.64	-44.0	-46.7	23.8	6.03e-01	0	39	0	716701696	59	4948
2026-01-07 02:19:07.26	255.49	28.50	-44.4	-47.2	23.3	6.04e-01	0	39	0	718798848	59	5259
2026-01-07 02:19:08.26	255.20	28.36	-44.3	-47.2	23.3	6.02e-01	0	39	0	720371712	59	5269
2026-01-07 02:19:09.27	254.92	28.22	-44.2	-47.1	23.4	6.04e-01	0	39	0	722468864	59	5171
2026-01-07 02:19:10.27	254.63	28.07	-43.8	-46.6	23.9	6.02e-01	0	39	0	724041728	59	4879
2026-01-07 02:19:11.27	254.36	27.93	-43.9	-46.6	23.9	6.02e-01	0	39	0	726138880	59	4887
2026-01-07 02:19:12.27	254.08	27.79	-44.0	-46.8	23.7	6.04e-01	0	39	0	727711744	59	5013
2026-01-07 02:19:13.27	253.81	27.65	-44.3	-47.1	23.4	6.03e-01	0	39	0	729808896	59	5210
2026-01-07 02:19:14.28	253.53	27.51	-44.2	-47.1	23.4	6.02e-01	0	39	0	731906048	59	5171
2026-01-07 02:19:15.28	253.27	27.37	-44.2	-47.0	23.5	6.02e-01	0	39	0	733478912	59	5132
2026-01-07 02:19:16.28	253.00	27.23	-44.1	-46.9	23.6	6.02e-01	0	39	0	735576064	59	5042
2026-01-07 02:19:17.28	252.74	27.08	-44.0	-46.7	23.7	6.03e-01	0	39	0	737148928	59	4970
2026-01-07 02:19:18.35	252.46	26.93	-43.8	-46.5	23.9	6.04e-01	0	39	0	739246080	59	4850
2026-01-07 02:19:19.24	252.23	26.81	-43.9	-46.6	23.8	6.03e-01	0	39	0	741343232	59	4906
2026-01-07 02:19:20.39	251.93	26.65	-44.2	-47.0	23.4	6.04e-01	0	39	0	742916096	59	5151
2026-01-07 02:19:21.25	251.72	26.53	-44.3	-47.2	23.3	6.00e-01	0	39	0	745013248	59	5227
2026-01-07 02:19:22.39	251.43	26.37	-44.1	-47.1	23.5	6.03e-01	0	39	0	747110400	59	5168
2026-01-07 02:19:23.26	251.21	26.24	-44.2	-47.2	23.3	6.02e-01	0	39	0	748683264	59	5254
2026-01-07 02:19:24.40	250.93	26.09	-44.1	-47.0	23.5	6.06e-01	0	39	0	750780416	59	5114
2026-01-07 02:19:25.26	250.72	25.97	-44.2	-47.1	23.5	6.04e-01	0	39	0	752353280	59	5165
2026-01-07 02:19:26.41	250.44	25.81	-44.2	-47.0	23.5	6.05e-01	0	39	0	754450432	59	5102
2026-01-07 02:19:27.27	250.24	25.69	-44.2	-46.8	23.6	6.04e-01	0	39	0	756023296	59	5041
2026-01-07 02:19:28.42	249.96	25.53	-44.2	-46.9	23.7	6.03e-01	0	39	0	758120448	59	5043
2026-01-07 02:19:29.28	249.76	25.41	-44.3	-47.0	23.5	6.05e-01	0	39	0	759693312	59	5140
2026-01-07 02:19:30.43	249.49	25.25	-44.4	-47.1	23.4	6.03e-01	0	39	0	761790464	59	5218
2026-01-07 02:19:31.29	249.29	25.13	-44.3	-47.0	23.4	6.04e-01	0	39	0	763363328	59	5158
2026-01-07 02:19:32.54	249.01	24.96	-44.3	-47.0	23.5	6.02e-01	0	39	0	765984768	59	5133
2026-01-07 02:19:33.29	248.84	24.85	-44.2	-47.0	23.4	6.01e-01	0	39	0	767557632	59	5150
2026-01-07 02:19:34.58	248.55	24.68	-44.3	-47.1	23.4	6.01e-01	0	39	0	769654784	59	5190
2026-01-07 02:19:35.30	248.39	24.58	-44.2	-47.0	23.5	6.02e-01	0	39	0	771227648	59	5145
2026-01-07 02:19:36.58	248.11	24.41	-44.3	-47.1	23.4	6.03e-01	0	39	0	773324800	59	5166
2026-01-07 02:19:37.30	247.95	24.31	-44.3	-47.0	23.5	6.03e-01	0	39	0	774897664	59	5159
2026-01-07 02:19:38.59	247.67	24.13	-44.4	-47.1	23.4	6.02e-01	0	39	0	777519104	59	5188
2026-01-07 02:19:39.31	247.51	24.03	-44.4	-47.1	23.4	6.04e-01	0	39	0	778567680	59	5183
2026-01-07 02:19:40.60	247.24	23.86	-44.3	-47.0	23.4	6.01e-01	0	39	0	781189120	59	5138
2026-01-07 02:19:41.31	247.09	23.76	-44.3	-47.1	23.4	6.02e-01	0	39	0	782237696	59	5177
2026-01-07 02:19:42.61	246.82	23.59	-44.3	-47.0	23.5	6.00e-01	0	39	0	784859136	59	5118
2026-01-07 02:19:43.32	246.67	23.49	-44.3	-47.0	23.5	6.02e-01	0	39	0	786432000	59	5120
2026-01-07 02:19:44.61	246.41	23.32	-44.3	-47.0	23.5	5.99e-01	0	39	0	788529152	59	5122
2026-01-07 02:19:45.33	246.26	23.23	-44.4	-47.1	23.3	6.02e-01	0	39	0	790102016	59	5198
2026-01-07 02:19:46.62	246.00	23.06	-44.7	-47.4	23.0	6.00e-01	0	39	0	792199168	59	5392
2026-01-07 02:19:47.69	245.79	22.91	-44.7	-47.4	23.1	6.03e-01	0	39	0	794296320	59	5392
2026-01-07 02:19:48.55	245.62	22.80	-44.6	-47.3	23.1	6.01e-01	0	39	0	795869184	59	5307
2026-01-07 02:19:49.69	245.39	22.65	-44.3	-47.0	23.5	6.01e-01	0	39	0	797966336	59	5125
2026-01-07 02:19:50.94	245.15	22.49	-44.2	-46.8	23.6	6.02e-01	0	39	0	800587776	59	5034
2026-01-07 02:19:51.79	244.99	22.37	-44.2	-46.8	23.6	6.04e-01	0	39	0	802160640	59	5037
2026-01-07 02:19:52.94	244.77	22.22	-44.3	-47.0	23.4	6.02e-01	0	39	0	804257792	59	5145
2026-01-07 02:19:53.80	244.61	22.11	-44.5	-47.2	23.3	6.04e-01	0	39	0	805830656	59	5246
2026-01-07 02:19:54.94	244.39	21.96	-44.4	-47.1	23.3	6.04e-01	0	39	0	807927808	59	5207
2026-01-07 02:19:55.80	244.23	21.85	-44.5	-47.2	23.3	6.02e-01	0	39	0	809500672	59	5249
2026-01-07 02:19:56.95	244.02	21.71	-44.6	-47.3	23.1	6.03e-01	0	39	0	811597824	59	5313
2026-01-07 02:19:57.81	243.87	21.60	-44.4	-47.1	23.3	6.08e-01	0	39	0	813170688	59	5186
2026-01-07 02:19:59.03	243.65	21.44	-44.4	-47.0	23.3	6.04e-01	0	39	0	815792128	59	5153
2026-01-07 02:19:59.90	243.49	21.33	-44.4	-47.1	23.3	6.03e-01	0	39	0	817364992	59	5185
2026-01-07 02:20:01.04	243.29	21.18	-44.4	-47.1	23.3	6.02e-01	0	39	0	819462144	59	5168
2026-01-07 02:20:01.90	243.14	21.07	-44.4	-47.1	23.4	6.02e-01	0	39	0	821035008	59	5176
2026-01-07 02:20:03.05	242.94	20.93	-44.5	-47.2	23.3	6.04e-01	0	39	0	823132160	59	5244
2026-01-07 02:20:03.91	242.79	20.82	-44.5	-47.2	23.2	6.04e-01	0	39	0	824705024	59	5256
2026-01-07 02:20:05.05	242.59	20.68	-44.5	-47.3	23.1	6.02e-01	0	39	0	826802176	59	5318
2026-01-07 02:20:05.92	242.44	20.57	-44.5	-47.3	21.5	6.02e-01	0	39	0	828375040	59	5319
2026-01-07 02:20:07.07	242.25	20.43	-44.2	-46.9	23.5	6.05e-01	0	39	0	830472192	59	5056
2026-01-07 02:20:07.92	242.11	20.32	-44.1	-46.8	23.6	6.05e-01	0	39	0	832045056	59	5034
2026-01-07 02:20:09.07	241.92	20.18	-44.3	-47.1	23.3	6.04e-01	0	39	0	834666496	59	5194
2026-01-07 02:20:10.17	241.74	20.04	-44.2	-47.0	23.4	6.03e-01	0	39	0	836763648	59	5159
2026-01-07 02:20:11.22	241.57	19.91	-44.2	-47.0	23.4	6.04e-01	0	39	0	838336512	59	5136
2026-01-07 02:20:12.29	241.40	19.78	-44.1	-46.9	23.5	6.05e-01	0	39	0	840433664	59	5065
2026-01-07 02:20:13.32	241.23	19.66	-44.1	-46.9	23.5	6.04e-01	0	39	0	842530816	59	5065
2026-01-07 02:20:14.49	241.05	19.52	-44.1	-46.8	23.6	6.03e-01	0	39	0	844627968	59	5017
2026-01-07 02:20:15.35	240.91	19.41	-44.1	-46.8	23.6	6.02e-01	0	39	0	846200832	59	5021
2026-01-07 02:20:16.50	240.73	19.27	-44.1	-46.9	23.5	6.05e-01	0	39	0	848297984	59	5054
2026-01-07 02:20:17.36	240.60	19.17	-44.2	-46.9	23.5	6.02e-01	0	39	0	849870848	59	5069
2026-01-07 02:20:18.51	240.43	19.03	-44.2	-47.0	23.4	6.04e-01	0	39	0	851968000	59	5108
2026-01-07 02:20:19.36	240.30	18.93	-44.2	-46.9	23.5	6.04e-01	0	39	0	853540864	59	5055
2026-01-07 02:20:20.51	240.13	18.79	-44.2	-46.9	23.5	6.02e-01	0	39	0	856162304	59	5053
2026-01-07 02:20:21.37	240.00	18.69	-44.1	-46.7	23.7	6.05e-01	0	39	0	857735168	59	4967
2026-01-07 02:20:22.52	239.83	18.56	-44.1	-46.7	23.7	6.06e-01	0	39	0	859832320	59	4964
2026-01-07 02:20:23.37	239.70	18.46	-44.2	-46.9	23.5	6.04e-01	0	39	0	861405184	59	5068
2026-01-07 02:20:24.52	239.54	18.32	-44.4	-47.1	23.3	6.04e-01	0	39	0	863502336	59	5180
2026-01-07 02:20:25.38	239.41	18.22	-44.3	-47.0	23.4	6.02e-01	0	39	0	865075200	59	5104
2026-01-07 02:20:26.54	239.25	18.09	-44.2	-46.9	23.5	6.03e-01	0	39	0	867172352	59	5047
2026-01-07 02:20:27.40	239.13	17.99	-44.2	-46.8	23.5	6.03e-01	0	39	0	868745216	59	5025
2026-01-07 02:20:28.55	238.96	17.85	-44.0	-46.7	23.7	6.03e-01	0	39	0	870842368	59	4945
2026-01-07 02:20:29.41	238.84	17.76	-44.0	-46.6	23.8	6.04e-01	0	39	0	872415232	59	4897
2026-01-07 02:20:30.56	238.68	17.62	-44.1	-46.8	23.5	6.04e-01	0	39	0	874512384	59	5032
2026-01-07 02:20:31.42	238.57	17.53	-44.2	-47.0	23.4	6.03e-01	0	39	0	876609536	59	5156
2026-01-07 02:20:32.56	238.41	17.40	-44.4	-47.3	23.1	5.99e-01	0	39	0	878706688	59	5291
2026-01-07 02:20:33.42	238.30	17.30	-44.4	-47.3	23.1	6.02e-01	0	39	0	880279552	59	5294
2026-01-07 02:20:34.57	238.14	17.17	-44.4	-47.3	23.1	6.05e-01	0	39	0	882376704	59	5293
2026-01-07 02:20:35.43	238.03	17.07	-44.3	-47.1	23.3	6.02e-01	0	39	0	883949568	59	5206
2026-01-07 02:20:36.57	237.88	16.94	-44.2	-46.9	23.4	6.02e-01	0	39	0	886046720	59	5098
2026-01-07 02:20:37.43	237.77	16.85	-44.2	-46.9	23.4	6.01e-01	0	39	0	887619584	59	5093
2026-01-07 02:20:38.58	237.62	16.72	-44.1	-46.9	23.4	6.01e-01	0	39	0	889716736	59	5077
2026-01-07 02:20:39.44	237.51	16.63	-44.2	-47.0	23.3	6.03e-01	0	39	0	891289600	59	5111
2026-01-07 02:20:40.60	237.36	16.50	-44.2	-47.0	23.3	6.06e-01	0	39	0	893386752	59	5134
2026-01-07 02:20:41.46	237.25	16.40	-44.2	-47.0	23.3	6.03e-01	0	39	0	894959616	59	5109
2026-01-07 02:20:42.60	237.11	16.28	-44.2	-47.0	23.3	6.02e-01	0	39	0	897581056	59	5123
2026-01-07 02:20:43.47	237.00	16.18	-44.1	-46.9	23.4	6.00e-01	0	39	0	899153920	59	5056
2026-01-07 02:20:44.61	236.86	16.06	-44.2	-46.9	23.3	6.06e-01	0	39	0	901251072	59	5085
2026-01-07 02:20:45.47	236.75	15.97	-44.2	-46.9	23.4	6.03e-01	0	39	0	902823936	59	5096
2026-01-07 02:20:46.62	236.61	15.84	-44.5	-47.3	23.0	6.00e-01	0	39	0	904921088	59	5304
2026-01-07 02:20:47.48	236.51	15.75	-44.4	-47.3	23.1	6.06e-01	0	39	0	906493952	59	5284
2026-01-07 02:20:48.63	236.37	15.63	-44.4	-47.3	23.0	6.04e-01	0	39	0	908591104	59	5281
2026-01-07 02:20:49.61	236.26	15.52	-44.6	-47.4	22.9	6.03e-01	0	39	0	910688256	59	5372
2026-01-07 02:20:50.77	236.12	15.40	-44.5	-47.3	23.0	6.02e-01	0	39	0	912785408	59	5300
2026-01-07 02:20:51.65	236.02	15.31	-44.4	-47.2	23.1	6.03e-01	0	39	0	914358272	59	5242
2026-01-07 02:20:52.80	235.88	15.18	-44.4	-47.2	23.0	6.02e-01	0	39	0	916455424	59	5276
2026-01-07 02:20:53.65	235.78	15.09	-44.2	-47.0	23.3	6.05e-01	0	39	0	918028288	59	5132
2026-01-07 02:20:54.80	235.65	14.97	-44.1	-46.9	23.4	6.03e-01	0	39	0	920125440	59	5072
2026-01-07 02:20:55.80	235.54	14.87	-44.2	-47.0	23.3	6.05e-01	0	39	0	922222592	59	5102
2026-01-07 02:20:56.98	235.41	14.75	-44.2	-47.1	23.2	6.01e-01	0	39	0	924319744	59	5160
2026-01-07 02:20:57.83	235.31	14.66	-44.3	-47.2	23.1	6.03e-01	0	39	0	925892608	59	5239
2026-01-07 02:20:58.98	235.19	14.54	-44.4	-47.3	23.0	6.05e-01	0	39	0	927989760	59	5295
2026-01-07 02:20:59.84	235.09	14.45	-44.5	-47.4	22.9	6.03e-01	0	39	0	929562624	59	5365
2026-01-07 02:21:00.99	234.97	14.34	-44.5	-47.4	22.9	6.04e-01	0	39	0	931659776	59	5354
2026-01-07 02:21:01.84	234.87	14.25	-44.4	-47.2	23.0	6.01e-01	0	39	0	933232640	59	5261
2026-01-07 02:21:02.99	234.75	14.13	-44.3	-47.2	23.1	6.01e-01	0	39	0	935854080	59	5229
2026-01-07 02:21:03.85	234.66	14.05	-44.3	-47.1	23.2	6.04e-01	0	39	0	937426944	59	5187
2026-01-07 02:21:05.00	234.54	13.93	-44.3	-47.1	23.2	6.02e-01	0	39	0	939524096	59	5190
2026-01-07 02:21:05.86	234.45	13.84	-44.3	-47.1	23.1	6.04e-01	0	39	0	941096960	59	5179
2026-01-07 02:21:07.00	234.33	13.73	-44.3	-47.3	23.0	6.00e-01	0	39	0	943194112	59	5290
2026-01-07 02:21:07.86	234.24	13.64	-44.4	-47.3	22.9	6.00e-01	0	39	0	944766976	59	5318
2026-01-07 02:21:09.01	234.12	13.53	-44.5	-47.5	22.8	6.03e-01	0	39	0	946864128	59	5414
2026-01-07 02:21:09.87	234.03	13.44	-44.5	-47.6	22.5	6.04e-01	0	39	0	948436992	59	5479
2026-01-07 02:21:11.02	233.92	13.33	-44.5	-47.5	22.7	6.04e-01	0	39	0	950534144	59	5464
2026-01-07 02:21:11.88	233.83	13.25	-44.6	-47.6	22.6	6.04e-01	0	39	0	952107008	59	5511
2026-01-07 02:21:13.03	233.72	13.13	-44.5	-47.4	22.7	6.03e-01	0	39	0	954204160	59	5400
2026-01-07 02:21:13.89	233.63	13.05	-44.5	-47.5	22.7	6.04e-01	0	39	0	955777024	59	5404
2026-01-07 02:21:15.03	233.52	12.94	-44.5	-47.5	22.7	6.03e-01	0	39	0	957874176	59	5403
2026-01-07 02:21:15.89	233.44	12.86	-44.5	-47.4	22.8	6.01e-01	0	39	0	959447040	59	5389
2026-01-07 02:21:17.04	233.33	12.74	-44.6	-47.4	22.8	6.03e-01	0	39	0	962068480	59	5395
2026-01-07 02:21:17.90	233.24	12.66	-44.6	-47.5	22.7	6.01e-01	0	39	0	963641344	59	5423
2026-01-07 02:21:19.04	233.13	12.55	-44.6	-47.4	22.8	6.04e-01	0	39	0	965738496	59	5378
2026-01-07 02:21:19.90	233.05	12.47	-44.6	-47.5	22.7	6.02e-01	0	39	0	967311360	59	5417
2026-01-07 02:21:21.05	232.94	12.36	-44.6	-47.5	22.7	6.01e-01	0	39	0	969408512	59	5443
2026-01-07 02:21:21.91	232.86	12.28	-44.5	-47.4	22.7	6.01e-01	0	39	0	970981376	60	5067
2026-01-07 02:21:23.05	232.76	12.17	-44.4	-47.3	22.8	6.03e-01	0	39	0	973078528	60	5002
2026-01-07 02:21:23.91	232.68	12.09	-44.4	-47.2	22.9	6.01e-01	0	39	0	974651392	60	4964
2026-01-07 02:21:25.06	232.57	11.98	-44.4	-47.3	22.8	6.03e-01	0	39	0	976748544	60	5010
2026-01-07 02:21:26.03	232.49	11.89	-44.5	-47.4	22.7	6.03e-01	0	39	0	978845696	60	5065
2026-01-07 02:21:27.04	232.40	11.80	-44.6	-47.5	22.5	6.03e-01	0	39	0	980418560	60	5148
2026-01-07 02:21:28.04	232.31	11.71	-44.7	-47.6	22.4	6.03e-01	0	39	0	982515712	60	5211
2026-01-07 02:21:29.04	232.22	11.61	-44.6	-47.5	22.5	6.03e-01	0	39	0	984612864	60	5132
2026-01-07 02:21:30.04	232.13	11.52	-44.6	-47.5	22.5	6.03e-01	0	39	0	986185728	60	5135
2026-01-07 02:21:31.05	232.04	11.43	-44.7	-47.6	22.4	6.03e-01	0	39	0	988282880	60	5194
2026-01-07 02:21:32.05	231.95	11.34	-44.7	-47.7	22.4	6.00e-01	0	39	0	989855744	60	5241
2026-01-07 02:21:33.05	231.87	11.25	-44.7	-47.7	22.3	6.02e-01	0	39	0	991952896	60	5252
2026-01-07 02:21:34.06	231.78	11.15	-44.8	-47.8	22.3	6.05e-01	0	39	0	994050048	60	5284
2026-01-07 02:21:35.06	231.69	11.06	-44.6	-47.5	22.5	6.00e-01	0	39	0	995622912	60	5146
2026-01-07 02:21:36.06	231.61	10.97	-44.7	-47.6	22.4	6.02e-01	0	39	0	997720064	60	5192
2026-01-07 02:21:37.06	231.53	10.88	-44.6	-47.5	22.5	6.03e-01	0	39	0	999292928	60	5130
2026-01-07 02:21:38.06	231.44	10.79	-44.7	-47.6	22.4	6.05e-01	0	39	0	1001390080	60	5184
2026-01-07 02:21:39.07	231.36	10.70	-44.7	-47.6	22.4	6.04e-01	0	39	0	1002962944	60	5178
2026-01-07 02:21:40.25	231.26	10.60	-44.8	-47.7	22.3	6.03e-01	0	39	0	1005584384	60	5249
2026-01-07 02:21:41.14	231.19	10.52	-44.9	-47.8	22.2	6.04e-01	0	39	0	1007157248	60	5340
2026-01-07 02:21:42.29	231.10	10.42	-44.9	-47.9	22.1	6.03e-01	0	39	0	1009254400	60	5354
2026-01-07 02:21:43.21	231.02	10.34	-44.7	-47.7	22.3	6.03e-01	0	39	0	1010827264	60	5229
2026-01-07 02:21:44.39	230.93	10.23	-44.9	-47.9	22.0	6.01e-01	0	39	0	1012924416	60	5398
2026-01-07 02:21:45.25	230.86	10.16	-44.8	-48.0	22.0	6.00e-01	0	39	0	1015021568	60	5407
2026-01-07 02:21:46.59	230.75	10.04	-44.7	-47.9	22.1	6.05e-01	0	39	0	1017118720	60	5347
2026-01-07 02:21:47.31	230.70	9.98	-44.9	-48.0	21.9	6.02e-01	0	39	0	1018691584	60	5460
2026-01-07 02:21:48.60	230.60	9.87	-44.7	-47.8	22.1	6.02e-01	0	39	0	1021313024	60	5324
2026-01-07 02:21:49.31	230.54	9.81	-44.7	-47.8	22.1	6.04e-01	0	39	0	1022361600	60	5283
2026-01-07 02:21:50.60	230.44	9.70	-44.8	-47.9	22.1	6.01e-01	0	39	0	1024983040	60	5365
2026-01-07 02:21:51.32	230.39	9.63	-44.8	-47.9	22.0	6.04e-01	0	39	0	1026031616	60	5365
2026-01-07 02:21:52.61	230.29	9.52	-44.8	-47.9	22.0	6.01e-01	0	39	0	1028653056	60	5350
2026-01-07 02:21:53.33	230.23	9.46	-44.7	-47.8	22.1	6.03e-01	0	39	0	1029701632	60	5300
2026-01-07 02:21:54.62	230.14	9.35	-44.8	-47.9	22.0	6.01e-01	0	39	0	1032323072	60	5364
2026-01-07 02:21:55.34	230.08	9.29	-44.9	-48.0	22.0	6.06e-01	0	39	0	1033895936	60	5429
2026-01-07 02:21:56.63	229.99	9.18	-44.8	-47.9	21.9	6.03e-01	0	39	0	1035993088	60	5386
2026-01-07 02:21:57.34	229.94	9.12	-44.8	-48.0	21.9	6.04e-01	0	39	0	1037565952	60	5405
2026-01-07 02:21:58.64	229.84	9.02	-46.6	-50.5	20.2	5.99e-01	0	39	0	1039663104	63	6076
2026-01-07 02:21:59.35	229.79	8.96	-50.9	-71.0	3.6	7.47e-01	0	39	104	1040187392	72	38449
2026-01-07 02:22:00.64	229.70	8.85	-50.7	-71.6	3.8	7.49e-01	0	39	104	1040187392	72	41182
2026-01-07 02:22:01.36	229.65	8.79	-51.2	-71.9	3.8	7.44e-01	0	39	104	1040187392	73	40260
2026-01-07 02:22:02.65	229.55	8.68	-51.1	-71.7	3.8	7.45e-01	0	39	104	1040187392	73	39405
2026-01-07 02:22:03.37	229.50	8.62	-51.4	-71.8	3.8	7.44e-01	0	39	104	1040187392	73	39630
2026-01-07 02:22:04.66	229.41	8.52	-51.5	-71.9	3.8	7.44e-01	0	39	104	1040187392	73	40155
2026-01-07 02:22:05.38	229.36	8.46	-51.5	-71.9	3.8	7.48e-01	0	39	104	1040187392	73	40332
2026-01-07 02:22:06.67	229.27	8.35	-51.3	-71.9	3.8	7.45e-01	0	39	104	1040187392	73	40409
2026-01-07 02:22:07.39	229.22	8.30	-51.5	-71.9	3.8	7.47e-01	0	39	104	1040187392	73	40439
2026-01-07 02:22:08.68	229.13	8.19	-51.3	-71.9	3.8	7.50e-01	0	39	104	1040187392	73	40500
2026-01-07 02:22:09.40	229.09	8.13	-51.1	-72.0	3.8	7.46e-01	0	39	104	1040187392	74	38392
2026-01-07 02:22:10.69	229.00	8.03	-51.6	-72.0	3.9	7.47e-01	0	39	104	1040187392	74	38466
2026-01-07 02:22:11.41	228.95	7.97	-51.2	-72.0	3.8	7.45e-01	0	39	104	1040187392	74	38429
2026-01-07 02:22:12.70	228.86	7.87	-51.3	-72.0	3.8	7.43e-01	0	39	104	1040187392	74	38532
2026-01-07 02:22:13.42	228.82	7.81	-51.3	-72.0	3.8	7.45e-01	0	39	104	1040187392	74	38459
2026-01-07 02:22:14.71	228.73	7.71	-51.4	-72.0	3.8	7.47e-01	0	39	104	1040187392	74	38456
2026-01-07 02:22:15.43	228.68	7.65	-51.3	-72.0	3.8	7.47e-01	0	39	104	1040187392	74	38473
2026-01-07 02:22:16.73	228.60	7.55	-51.3	-72.0	3.8	7.46e-01	0	39	104	1040187392	74	38366
2026-01-07 02:22:17.45	228.55	7.49	-51.0	-72.0	3.8	7.46e-01	0	39	104	1040187392	74	38290
2026-01-07 02:22:18.79	228.47	7.39	-51.1	-72.0	3.8	7.45e-01	0	39	104	1040187392	74	38382
2026-01-07 02:22:19.51	228.42	7.33	-50.8	-71.9	3.8	7.47e-01	0	39	104	1040187392	73	40412
2026-01-07 02:22:20.83	228.34	7.23	-50.7	-72.0	3.8	7.47e-01	0	39	104	1040187392	73	40571
2026-01-07 02:22:21.55	228.29	7.17	-50.7	-71.9	3.8	7.49e-01	0	39	104	1040187392	73	40415
2026-01-07 02:22:22.84	228.21	7.07	-50.7	-71.9	3.8	7.47e-01	0	39	104	1040187392	73	40435
2026-01-07 02:22:23.56	228.16	7.01	-50.7	-71.9	3.8	7.45e-01	0	39	104	1040187392	73	40351
2026-01-07 02:22:24.85	228.08	6.91	-50.7	-71.9	3.8	7.46e-01	0	39	104	1040187392	73	40275
2026-01-07 02:22:25.57	228.04	6.86	-50.7	-71.9	3.8	7.47e-01	0	39	104	1040187392	73	40359
2026-01-07 02:22:26.86	227.96	6.76	-50.6	-71.9	3.8	7.48e-01	0	39	104	1040187392	73	40383
2026-01-07 02:22:27.57	227.92	6.71	-50.7	-71.9	3.8	7.49e-01	0	39	104	1040187392	73	40354
2026-01-07 02:22:28.87	227.84	6.61	-50.7	-71.9	3.8	7.44e-01	0	39	104	1040187392	73	40335
2026-01-07 02:22:29.58	227.80	6.55	-50.6	-71.9	3.8	7.49e-01	0	39	104	1040187392	73	40399
2026-01-07 02:22:30.87	227.72	6.46	-50.6	-71.9	3.8	7.48e-01	0	39	104	1040187392	73	40361
2026-01-07 02:22:31.59	227.68	6.40	-50.6	-71.9	3.8	7.44e-01	0	39	104	1040187392	73	40342
2026-01-07 02:22:32.88	227.60	6.30	-50.6	-71.9	3.8	7.46e-01	0	39	104	1040187392	73	40366
2026-01-07 02:22:33.60	227.56	6.25	-50.6	-71.9	3.8	7.45e-01	0	39	104	1040187392	73	40321
2026-01-07 02:22:34.89	227.48	6.15	-50.6	-71.9	3.8	7.47e-01	0	39	104	1040187392	73	40296
2026-01-07 02:22:35.61	227.44	6.10	-50.6	-71.9	3.8	7.49e-01	0	39	104	1040187392	73	40345
2026-01-07 02:22:36.90	227.37	6.00	-50.6	-71.9	3.8	7.46e-01	0	39	104	1040187392	73	40300
2026-01-07 02:22:37.62	227.32	5.95	-50.6	-71.9	3.8	7.45e-01	0	39	104	1040187392	73	40348
2026-01-07 02:22:38.91	227.25	5.85	-50.6	-71.9	3.8	7.49e-01	0	39	104	1040187392	73	40289
2026-01-07 02:22:39.63	227.21	5.80	-50.7	-71.9	3.8	7.47e-01	0	39	104	1040187392	73	40370
2026-01-07 02:22:40.92	227.14	5.71	-50.6	-71.9	3.8	7.45e-01	0	39	104	1040187392	73	40362
2026-01-07 02:22:41.63	227.10	5.65	-50.6	-71.9	3.8	7.45e-01	0	39	104	1040187392	73	40369
2026-01-07 02:22:42.93	227.02	5.56	-50.6	-71.9	3.8	7.46e-01	0	39	104	1040187392	73	40419
2026-01-07 02:22:43.64	226.98	5.51	-50.7	-71.9	3.8	7.47e-01	0	39	104	1040187392	73	40445
2026-01-07 02:22:44.93	226.91	5.41	-50.7	-71.9	3.8	7.45e-01	0	39	104	1040187392	73	40417
2026-01-07 02:22:45.65	226.87	5.36	-50.7	-71.9	3.8	7.43e-01	0	39	104	1040187392	73	40398
2026-01-07 02:22:46.95	226.80	5.27	-50.7	-71.9	3.8	7.48e-01	0	39	104	1040187392	73	40388
2026-01-07 02:22:47.66	226.76	5.21	-50.7	-71.9	3.8	7.46e-01	0	39	104	1040187392	73	40325
2026-01-07 02:22:48.95	226.69	5.12	-50.7	-71.9	3.8	7.47e-01	0	39	104	1040187392	73	40427
2026-01-07 02:22:49.67	226.66	5.07	-50.6	-71.9	3.8	7.46e-01	0	39	104	1040187392	73	40352
2026-01-07 02:22:50.96	226.59	4.98	-50.7	-71.9	3.8	7.46e-01	0	39	104	1040187392	73	40325

#Closed at: 2026-01-07 02:22:51
#Recorded file [1040 MB]: D:/Data/31040_260107_051205.dat