passes_logs/2026/01/07/T1/T1__20260107_125652_FENGYUN_3D_rec.log

#Pass ID: 20260107_125652_FENGYUN 3D
#Satellite: FENGYUN 3D
#Configuration: FENGYUN 3D
#almurnet v.1.7.20251203
#Start time: 2026-01-07 12:56:52

#Version: 2.0.20230620
#Station: T1
#Location: 37.570604 lon 55.790049 lat
#TLE: 1 43010U 17072A   26006.26440730  .00000376  00000+0  19957-3 0  9994
#TLE: 2 43010  98.9925 337.9455 0002045 123.9195 236.2175 14.19693586422016

#Time	Az	El	Level	Level2	SNR	BER	BlckErr	Temp	State	Recorded	gain1	gain2
2026-01-07 12:56:52.33	191.83	5.03	-51.5	-64.5	3.8	8.47e-01	0	38	0	0	75	15318
2026-01-07 12:56:53.33	191.88	5.09	-51.4	-64.4	3.8	8.46e-01	0	38	104	0	73	16988
2026-01-07 12:56:54.34	191.94	5.16	-51.4	-64.4	3.8	8.47e-01	0	38	104	0	73	17024
2026-01-07 12:56:55.34	192.00	5.23	-51.4	-64.3	3.8	8.46e-01	0	38	104	0	73	16884
2026-01-07 12:56:56.35	192.06	5.29	-51.4	-64.3	3.8	8.46e-01	0	38	104	0	73	16754
2026-01-07 12:56:57.35	192.11	5.36	-51.4	-64.2	3.8	8.47e-01	0	38	104	0	73	16505
2026-01-07 12:56:58.35	192.17	5.43	-51.4	-63.9	3.8	8.47e-01	0	38	104	0	73	16118
2026-01-07 12:56:59.36	192.23	5.50	-51.3	-63.5	3.8	8.46e-01	0	38	104	0	73	15400
2026-01-07 12:57:00.36	192.29	5.57	-51.3	-63.5	3.8	8.47e-01	0	38	104	0	73	15356
2026-01-07 12:57:01.37	192.35	5.63	-51.3	-63.4	3.8	8.46e-01	0	39	104	0	73	15145
2026-01-07 12:57:02.37	192.41	5.70	-51.3	-63.3	3.8	8.46e-01	0	39	104	0	73	15008
2026-01-07 12:57:03.38	192.47	5.77	-51.3	-63.3	3.8	8.47e-01	0	38	104	0	73	15016
2026-01-07 12:57:04.38	192.53	5.84	-51.3	-63.4	3.8	8.47e-01	0	39	104	0	73	15127
2026-01-07 12:57:05.38	192.59	5.91	-51.3	-63.5	3.8	8.46e-01	0	39	104	0	73	15328
2026-01-07 12:57:06.39	192.65	5.98	-51.3	-63.6	3.8	8.45e-01	0	39	104	0	73	15436
2026-01-07 12:57:07.39	192.71	6.05	-51.3	-63.6	3.8	8.47e-01	0	39	104	0	73	15412
2026-01-07 12:57:08.39	192.77	6.12	-51.3	-63.6	3.8	8.47e-01	0	39	104	0	73	15409
2026-01-07 12:57:09.40	192.83	6.19	-51.3	-63.4	3.8	8.48e-01	0	39	104	0	73	15062
2026-01-07 12:57:10.41	192.90	6.26	-51.3	-63.1	3.8	8.45e-01	0	39	104	0	73	14604
2026-01-07 12:57:11.41	192.96	6.33	-51.3	-63.0	3.8	8.47e-01	0	39	104	0	73	14418
2026-01-07 12:57:12.41	193.02	6.40	-51.2	-62.8	3.8	8.48e-01	0	39	104	0	73	14057
2026-01-07 12:57:13.42	193.08	6.47	-51.3	-62.8	3.8	8.46e-01	0	39	104	0	73	14134
2026-01-07 12:57:14.42	193.14	6.54	-51.3	-62.9	3.8	8.45e-01	0	39	104	0	73	14358
2026-01-07 12:57:15.43	193.21	6.61	-51.3	-63.1	3.8	8.45e-01	0	39	104	0	73	14704
2026-01-07 12:57:16.43	193.27	6.68	-51.3	-63.4	3.8	8.47e-01	0	39	104	0	73	15169
2026-01-07 12:57:17.44	193.34	6.75	-51.4	-63.7	3.8	8.47e-01	0	39	104	0	73	15696
2026-01-07 12:57:18.44	193.40	6.82	-51.3	-63.7	3.8	8.47e-01	0	39	104	0	73	15739
2026-01-07 12:57:19.45	193.46	6.89	-51.3	-63.6	3.8	8.47e-01	0	39	104	0	73	15501
2026-01-07 12:57:20.45	193.53	6.96	-51.3	-63.1	3.8	8.46e-01	0	39	104	0	73	14579
2026-01-07 12:57:21.46	193.59	7.03	-51.2	-62.4	3.8	8.47e-01	0	39	104	0	73	13459
2026-01-07 12:57:22.46	193.66	7.11	-51.2	-61.8	3.9	8.45e-01	0	39	104	0	73	12616
2026-01-07 12:57:23.46	193.72	7.18	-51.1	-61.5	4.0	8.41e-01	0	39	0	0	73	12216
2026-01-07 12:57:24.47	193.79	7.25	-51.1	-61.9	3.8	8.43e-01	0	39	104	0	73	12700
2026-01-07 12:57:25.47	193.86	7.32	-51.2	-62.8	3.8	8.45e-01	0	39	104	0	73	14139
2026-01-07 12:57:26.48	193.92	7.39	-51.4	-64.1	3.8	8.47e-01	0	39	104	0	73	16421
2026-01-07 12:57:27.48	193.99	7.47	-51.4	-64.2	3.8	8.47e-01	0	39	104	0	73	16558
2026-01-07 12:57:28.49	194.06	7.54	-51.0	-60.9	4.2	8.46e-01	0	39	104	0	73	11319
2026-01-07 12:57:29.49	194.12	7.61	-50.2	-56.9	6.3	7.40e-01	0	39	0	1048576	72	7618
2026-01-07 12:57:30.50	194.19	7.69	-49.1	-54.0	9.2	4.92e-02	0	40	0	6291456	70	6088
2026-01-07 12:57:31.50	194.26	7.76	-47.5	-51.1	11.9	3.59e-03	0	40	0	12582912	67	5201
2026-01-07 12:57:32.50	194.33	7.83	-46.3	-49.3	13.8	1.48e-05	0	40	0	17825792	64	5041
2026-01-07 12:57:33.51	194.40	7.91	-45.2	-47.8	15.4	0.00e+00	0	39	0	23068672	62	4744
2026-01-07 12:57:34.52	194.47	7.98	-44.3	-46.7	16.5	0.00e+00	0	40	0	29360128	60	4665
2026-01-07 12:57:35.52	194.53	8.05	-43.5	-45.8	17.2	0.00e+00	0	39	0	34603008	59	4476
2026-01-07 12:57:36.52	194.60	8.13	-43.1	-45.2	17.8	0.00e+00	0	40	0	39845888	58	4433
2026-01-07 12:57:37.53	194.67	8.20	-43.0	-45.2	17.8	0.00e+00	0	39	0	46137344	57	4663
2026-01-07 12:57:38.53	194.74	8.28	-42.9	-45.1	17.9	0.00e+00	0	40	0	51380224	57	4632
2026-01-07 12:57:39.53	194.82	8.35	-43.3	-45.5	17.5	0.00e+00	0	40	0	57671680	57	4861
2026-01-07 12:57:40.54	194.89	8.43	-43.8	-46.1	16.9	0.00e+00	0	40	0	62914560	58	4903
2026-01-07 12:57:41.54	194.96	8.50	-44.4	-46.8	16.3	0.00e+00	0	40	0	69206016	59	5034
2026-01-07 12:57:42.55	195.03	8.58	-45.2	-47.9	15.3	0.00e+00	0	40	0	74448896	61	5081
2026-01-07 12:57:43.55	195.10	8.65	-46.2	-49.2	14.0	2.20e-06	0	40	0	79691776	63	5231
2026-01-07 12:57:44.55	195.17	8.73	-46.9	-50.3	12.8	3.54e-05	0	40	0	85983232	64	5628
2026-01-07 12:57:45.56	195.25	8.80	-48.0	-51.9	11.1	1.57e-03	0	40	0	91226112	66	6055
2026-01-07 12:57:46.57	195.32	8.88	-48.9	-53.7	9.5	9.78e-03	0	40	0	96468992	68	6574
2026-01-07 12:57:47.57	195.39	8.96	-49.6	-55.2	7.9	4.50e-02	0	40	0	102760448	69	7408
2026-01-07 12:57:48.57	195.47	9.03	-50.1	-56.4	6.8	1.65e-01	0	40	0	108003328	70	8034
2026-01-07 12:57:49.58	195.54	9.11	-49.1	-54.0	9.1	2.66e-01	0	40	0	113246208	70	6098
2026-01-07 12:57:50.58	195.62	9.19	-50.2	-56.6	6.8	3.81e-02	0	40	0	119537664	70	8221
2026-01-07 12:57:51.59	195.69	9.26	-50.1	-56.8	6.5	7.35e-01	0	40	0	121634816	72	7508
2026-01-07 12:57:52.59	195.77	9.34	-48.8	-53.3	9.8	2.70e-01	0	40	0	125829120	69	5985
2026-01-07 12:57:53.59	195.84	9.42	-50.5	-58.2	5.5	1.87e-02	0	40	0	131072000	71	9288
2026-01-07 12:57:54.59	195.92	9.50	-49.9	-55.7	7.4	6.11e-01	0	40	0	132120576	71	6991
2026-01-07 12:57:55.59	196.00	9.57	-46.7	-49.9	13.3	1.51e-04	0	40	0	137363456	65	5077
2026-01-07 12:57:56.59	196.07	9.65	-45.4	-48.1	15.2	0.00e+00	0	40	0	143654912	62	4898
2026-01-07 12:57:57.60	196.15	9.73	-44.0	-46.3	16.9	0.00e+00	0	40	0	148897792	60	4492
2026-01-07 12:57:58.60	196.23	9.81	-43.1	-45.2	17.8	0.00e+00	0	40	0	154140672	58	4436
2026-01-07 12:57:59.60	196.31	9.89	-42.6	-44.6	18.4	0.00e+00	0	40	0	160432128	57	4384
2026-01-07 12:58:00.60	196.38	9.96	-42.7	-44.8	18.3	0.00e+00	0	40	0	165675008	57	4458
2026-01-07 12:58:01.61	196.46	10.04	-42.7	-44.7	18.3	0.00e+00	0	40	0	170917888	57	4434
2026-01-07 12:58:02.61	196.54	10.12	-42.5	-44.5	18.5	0.00e+00	0	40	0	177209344	57	4338
2026-01-07 12:58:03.61	196.62	10.20	-42.6	-44.6	18.4	0.00e+00	0	40	0	182452224	57	4388
2026-01-07 12:58:04.62	196.70	10.28	-42.6	-44.6	18.4	0.00e+00	0	40	0	188743680	57	4385
2026-01-07 12:58:05.62	196.78	10.36	-42.6	-44.7	18.4	0.00e+00	0	40	0	193986560	57	4415
2026-01-07 12:58:06.62	196.86	10.44	-42.6	-44.7	18.4	0.00e+00	0	40	0	199229440	57	4433
2026-01-07 12:58:07.62	196.95	10.52	-42.7	-44.8	18.3	0.00e+00	0	40	0	205520896	57	4478
2026-01-07 12:58:08.62	197.03	10.60	-42.8	-44.9	18.2	0.00e+00	0	40	0	210763776	57	4529
2026-01-07 12:58:09.62	197.11	10.68	-42.9	-45.0	18.1	0.00e+00	0	40	0	216006656	57	4589
2026-01-07 12:58:10.63	197.19	10.76	-42.7	-44.9	18.2	0.00e+00	0	40	0	222298112	57	4507
2026-01-07 12:58:11.63	197.28	10.84	-42.6	-44.7	18.4	0.00e+00	0	40	0	227540992	57	4418
2026-01-07 12:58:12.63	197.36	10.92	-42.6	-44.7	18.4	0.00e+00	0	40	0	233832448	57	4407
2026-01-07 12:58:13.64	197.44	11.01	-42.7	-44.8	18.3	0.00e+00	0	40	0	239075328	57	4446
2026-01-07 12:58:14.64	197.53	11.09	-42.5	-44.6	18.5	0.00e+00	0	40	0	244318208	57	4371
2026-01-07 12:58:15.64	197.61	11.17	-42.4	-44.5	18.6	0.00e+00	0	40	0	250609664	56	4576
2026-01-07 12:58:16.65	197.70	11.25	-42.5	-44.5	18.5	0.00e+00	0	40	0	255852544	56	4591
2026-01-07 12:58:17.65	197.78	11.34	-42.4	-44.5	18.6	0.00e+00	0	40	0	262144000	56	4578
2026-01-07 12:58:18.65	197.87	11.42	-42.3	-44.4	18.7	0.00e+00	0	40	0	267386880	56	4509
2026-01-07 12:58:19.66	197.96	11.50	-42.3	-44.4	18.7	0.00e+00	0	40	0	272629760	56	4503
2026-01-07 12:58:20.66	198.04	11.58	-42.4	-44.5	18.7	0.00e+00	0	40	0	278921216	56	4551
2026-01-07 12:58:21.66	198.13	11.67	-42.3	-44.3	18.8	0.00e+00	0	40	0	284164096	56	4492
2026-01-07 12:58:22.66	198.22	11.75	-42.4	-44.4	18.7	0.00e+00	0	40	0	289406976	56	4534
2026-01-07 12:58:23.66	198.31	11.83	-42.2	-44.3	18.8	0.00e+00	0	40	0	295698432	56	4442
2026-01-07 12:58:24.67	198.40	11.92	-42.2	-44.2	18.9	0.00e+00	0	40	0	300941312	56	4416
2026-01-07 12:58:25.67	198.49	12.00	-41.7	-43.7	19.2	0.00e+00	0	40	0	307232768	55	4423
2026-01-07 12:58:26.67	198.58	12.09	-41.6	-43.6	19.3	0.00e+00	0	40	0	312475648	55	4364
2026-01-07 12:58:27.68	198.67	12.17	-41.7	-43.7	19.3	0.00e+00	0	40	0	317718528	55	4403
2026-01-07 12:58:28.68	198.76	12.26	-41.7	-43.6	19.3	0.00e+00	0	40	0	324009984	55	4368
2026-01-07 12:58:29.68	198.85	12.34	-41.7	-43.7	19.2	0.00e+00	0	40	0	329252864	55	4414
2026-01-07 12:58:30.69	198.94	12.43	-41.6	-43.6	19.3	0.00e+00	0	40	0	335544320	55	4342
2026-01-07 12:58:31.69	199.04	12.51	-41.6	-43.6	19.3	0.00e+00	0	40	0	340787200	55	4357
2026-01-07 12:58:32.69	199.13	12.60	-41.7	-43.6	19.3	0.00e+00	0	40	0	346030080	55	4378
2026-01-07 12:58:33.69	199.22	12.68	-41.6	-43.6	19.4	0.00e+00	0	40	0	352321536	55	4346
2026-01-07 12:58:34.70	199.32	12.77	-41.6	-43.5	19.4	0.00e+00	0	40	0	357564416	55	4330
2026-01-07 12:58:35.70	199.41	12.86	-41.6	-43.6	19.3	0.00e+00	0	40	0	362807296	55	4359
2026-01-07 12:58:36.70	199.51	12.94	-41.6	-43.6	19.3	0.00e+00	0	40	0	369098752	55	4355
2026-01-07 12:58:37.70	199.60	13.03	-41.7	-43.7	19.3	0.00e+00	0	40	0	374341632	55	4412
2026-01-07 12:58:38.70	199.70	13.12	-41.7	-43.7	19.3	0.00e+00	0	41	0	380633088	55	4403
2026-01-07 12:58:39.71	199.80	13.20	-41.8	-43.7	19.2	0.00e+00	0	40	0	385875968	55	4420
2026-01-07 12:58:40.71	199.89	13.29	-41.7	-43.6	19.3	0.00e+00	0	40	0	391118848	55	4388
2026-01-07 12:58:41.71	199.99	13.38	-41.7	-43.6	19.3	0.00e+00	0	40	0	397410304	55	4378
2026-01-07 12:58:42.71	200.09	13.47	-41.7	-43.7	19.3	0.00e+00	0	40	0	402653184	55	4397
2026-01-07 12:58:43.72	200.19	13.56	-41.5	-43.4	19.5	0.00e+00	0	40	0	407896064	55	4278
2026-01-07 12:58:44.72	200.29	13.65	-41.4	-43.3	19.6	0.00e+00	0	40	0	414187520	54	4481
2026-01-07 12:58:45.72	200.39	13.73	-41.5	-43.4	19.5	0.00e+00	0	40	0	419430400	54	4545
2026-01-07 12:58:46.72	200.49	13.82	-41.4	-43.3	19.6	0.00e+00	0	40	0	424673280	54	4475
2026-01-07 12:58:47.72	200.59	13.91	-41.4	-43.3	19.7	0.00e+00	0	40	0	430964736	54	4468
2026-01-07 12:58:48.73	200.70	14.00	-41.4	-43.3	19.6	0.00e+00	0	40	0	436207616	54	4477
2026-01-07 12:58:49.73	200.80	14.09	-41.4	-43.3	19.7	0.00e+00	0	40	0	442499072	54	4453
2026-01-07 12:58:50.73	200.90	14.18	-41.4	-43.3	19.6	0.00e+00	0	40	0	447741952	54	4492
2026-01-07 12:58:51.73	201.00	14.27	-41.4	-43.3	19.6	0.00e+00	0	40	0	454033408	54	4483
2026-01-07 12:58:52.74	201.11	14.36	-41.5	-43.4	19.5	0.00e+00	0	40	0	459276288	54	4538
2026-01-07 12:58:53.74	201.22	14.45	-41.4	-43.4	19.6	0.00e+00	0	40	0	464519168	54	4507
2026-01-07 12:58:54.75	201.32	14.55	-41.5	-43.4	19.5	0.00e+00	0	40	0	470810624	54	4520
2026-01-07 12:58:55.75	201.43	14.64	-41.5	-43.5	19.5	0.00e+00	0	40	0	476053504	54	4563
2026-01-07 12:58:56.75	201.53	14.73	-41.4	-43.4	19.6	0.00e+00	0	40	0	481296384	54	4507
2026-01-07 12:58:57.76	201.64	14.82	-41.3	-43.2	19.7	0.00e+00	0	41	0	487587840	54	4440
2026-01-07 12:58:58.76	201.75	14.91	-41.3	-43.2	19.7	0.00e+00	0	40	0	492830720	54	4439
2026-01-07 12:58:59.76	201.86	15.01	-41.2	-43.2	19.8	0.00e+00	0	40	0	498073600	54	4392
2026-01-07 12:59:00.76	201.97	15.10	-41.1	-43.0	19.9	0.00e+00	0	40	0	504365056	54	4335
2026-01-07 12:59:01.77	202.08	15.19	-41.1	-43.0	19.9	0.00e+00	0	40	0	509607936	54	4329
2026-01-07 12:59:02.77	202.19	15.28	-41.2	-43.1	19.8	0.00e+00	0	40	0	515899392	54	4378
2026-01-07 12:59:03.78	202.30	15.38	-41.3	-43.2	19.8	0.00e+00	0	40	0	521142272	54	4403
2026-01-07 12:59:04.78	202.42	15.47	-41.2	-43.1	19.9	0.00e+00	0	40	0	526385152	54	4357
2026-01-07 12:59:05.78	202.53	15.57	-41.2	-43.1	19.9	0.00e+00	0	41	0	532676608	54	4358
2026-01-07 12:59:06.79	202.64	15.66	-41.2	-43.1	19.8	0.00e+00	0	41	0	537919488	54	4369
2026-01-07 12:59:07.79	202.76	15.76	-41.0	-42.9	20.0	0.00e+00	0	41	0	544210944	54	4275
2026-01-07 12:59:08.79	202.87	15.85	-41.0	-42.9	20.0	0.00e+00	0	40	0	549453824	54	4276
2026-01-07 12:59:09.80	202.99	15.95	-40.9	-42.8	20.1	0.00e+00	0	41	0	554696704	53	4459
2026-01-07 12:59:10.80	203.11	16.04	-40.9	-42.7	20.2	0.00e+00	0	40	0	560988160	53	4430
2026-01-07 12:59:11.80	203.22	16.14	-40.7	-42.6	20.3	0.00e+00	0	40	0	566231040	53	4350
2026-01-07 12:59:12.81	203.34	16.23	-40.9	-42.7	20.2	0.00e+00	0	40	0	571473920	53	4434
2026-01-07 12:59:13.81	203.46	16.33	-40.8	-42.6	20.3	0.00e+00	0	40	0	577765376	53	4374
2026-01-07 12:59:14.81	203.58	16.42	-40.6	-42.5	20.4	0.00e+00	0	41	0	583008256	53	4292
2026-01-07 12:59:15.81	203.70	16.52	-40.5	-42.4	20.5	0.00e+00	0	40	0	589299712	53	4249
2026-01-07 12:59:16.82	203.82	16.62	-40.6	-42.4	20.4	0.00e+00	0	40	0	594542592	53	4273
2026-01-07 12:59:17.82	203.94	16.72	-40.5	-42.3	20.5	0.00e+00	0	41	0	599785472	53	4240
2026-01-07 12:59:18.82	204.06	16.81	-40.6	-42.4	20.5	0.00e+00	0	41	0	606076928	53	4259
2026-01-07 12:59:19.82	204.19	16.91	-40.6	-42.5	20.4	0.00e+00	0	40	0	611319808	53	4300
2026-01-07 12:59:20.82	204.31	17.01	-40.7	-42.5	20.4	0.00e+00	0	40	0	616562688	53	4313
2026-01-07 12:59:21.83	204.44	17.11	-40.7	-42.5	20.4	0.00e+00	0	40	0	622854144	53	4307
2026-01-07 12:59:22.83	204.56	17.21	-40.7	-42.6	20.4	0.00e+00	0	40	0	628097024	53	4342
2026-01-07 12:59:23.84	204.69	17.31	-40.8	-42.7	20.2	0.00e+00	0	40	0	634388480	53	4414
2026-01-07 12:59:24.84	204.82	17.40	-40.8	-42.7	20.2	0.00e+00	0	41	0	639631360	53	4400
2026-01-07 12:59:25.84	204.94	17.50	-40.8	-42.6	20.3	0.00e+00	0	40	0	644874240	53	4391
2026-01-07 12:59:26.84	205.07	17.60	-40.8	-42.7	20.2	0.00e+00	0	41	0	651165696	53	4406
2026-01-07 12:59:27.85	205.20	17.70	-40.8	-42.6	20.3	0.00e+00	0	40	0	656408576	53	4374
2026-01-07 12:59:28.85	205.33	17.80	-40.6	-42.4	20.4	0.00e+00	0	40	0	662700032	53	4287
2026-01-07 12:59:29.85	205.46	17.90	-40.7	-42.5	20.4	0.00e+00	0	41	0	667942912	53	4337
2026-01-07 12:59:30.85	205.60	18.00	-40.6	-42.5	20.5	0.00e+00	0	41	0	673185792	53	4293
2026-01-07 12:59:31.85	205.73	18.10	-40.4	-42.3	20.6	0.00e+00	0	40	0	679477248	52	4457
2026-01-07 12:59:32.86	205.86	18.21	-40.5	-42.3	20.6	0.00e+00	0	40	0	684720128	52	4474
2026-01-07 12:59:33.86	206.00	18.31	-40.5	-42.4	20.6	0.00e+00	0	40	0	689963008	52	4496
2026-01-07 12:59:34.86	206.13	18.41	-40.4	-42.2	20.7	0.00e+00	0	41	0	696254464	52	4403
2026-01-07 12:59:35.86	206.27	18.51	-40.3	-42.1	20.8	0.00e+00	0	41	0	701497344	52	4377
2026-01-07 12:59:36.86	206.41	18.61	-40.4	-42.2	20.7	0.00e+00	0	41	0	706740224	52	4419
2026-01-07 12:59:37.87	206.55	18.72	-40.3	-42.1	20.8	0.00e+00	0	40	0	713031680	52	4370
2026-01-07 12:59:38.87	206.69	18.82	-40.3	-42.1	20.8	0.00e+00	0	41	0	718274560	52	4361
2026-01-07 12:59:39.88	206.83	18.92	-40.2	-42.0	20.9	0.00e+00	0	40	0	724566016	52	4310
2026-01-07 12:59:40.88	206.97	19.02	-40.1	-41.9	20.9	0.00e+00	0	40	0	729808896	52	4285
2026-01-07 12:59:41.88	207.11	19.13	-40.2	-42.0	20.8	0.00e+00	0	40	0	735051776	52	4330
2026-01-07 12:59:42.89	207.25	19.23	-40.1	-41.9	20.9	0.00e+00	0	40	0	741343232	52	4264
2026-01-07 12:59:43.89	207.40	19.34	-40.2	-42.0	20.8	0.00e+00	0	41	0	746586112	52	4328
2026-01-07 12:59:44.89	207.54	19.44	-40.2	-42.0	20.9	0.00e+00	0	40	0	752877568	52	4324
2026-01-07 12:59:45.89	207.69	19.55	-40.1	-41.9	20.9	0.00e+00	0	40	0	758120448	52	4267
2026-01-07 12:59:46.90	207.83	19.65	-40.2	-42.0	20.9	0.00e+00	0	41	0	763363328	52	4303
2026-01-07 12:59:47.90	207.98	19.76	-40.0	-41.8	21.1	0.00e+00	0	41	0	769654784	52	4197
2026-01-07 12:59:48.90	208.13	19.86	-40.0	-41.8	21.1	0.00e+00	0	41	0	774897664	51	4461
2026-01-07 12:59:49.91	208.28	19.97	-39.9	-41.7	21.2	0.00e+00	0	41	0	780140544	51	4423
2026-01-07 12:59:50.91	208.43	20.07	-40.1	-41.9	21.0	0.00e+00	0	40	0	786432000	51	4503
2026-01-07 12:59:51.91	208.58	20.18	-40.1	-41.9	21.1	0.00e+00	0	41	0	791674880	51	4500
2026-01-07 12:59:52.92	208.74	20.29	-40.0	-41.8	21.1	0.00e+00	0	41	0	797966336	51	4475
2026-01-07 12:59:53.92	208.89	20.39	-40.1	-41.9	21.1	0.00e+00	0	40	0	803209216	51	4509
2026-01-07 12:59:54.92	209.05	20.50	-40.1	-41.9	21.1	0.00e+00	0	41	0	808452096	51	4507
2026-01-07 12:59:55.92	209.20	20.61	-40.0	-41.8	21.2	0.00e+00	0	41	0	814743552	51	4448
2026-01-07 12:59:56.92	209.36	20.71	-40.0	-41.8	21.2	0.00e+00	0	41	0	819986432	51	4454
2026-01-07 12:59:57.92	209.52	20.82	-39.9	-41.7	21.2	0.00e+00	0	41	0	825229312	51	4408
2026-01-07 12:59:58.93	209.68	20.93	-39.8	-41.6	21.2	0.00e+00	0	40	0	831520768	51	4383
2026-01-07 12:59:59.93	209.84	21.04	-39.9	-41.7	21.2	0.00e+00	0	41	0	836763648	51	4397
2026-01-07 13:00:00.93	210.00	21.15	-39.7	-41.5	21.3	0.00e+00	0	40	0	842006528	51	4328
2026-01-07 13:00:01.93	210.16	21.25	-39.8	-41.6	21.3	0.00e+00	0	41	0	848297984	51	4369
2026-01-07 13:00:02.94	210.32	21.36	-39.9	-41.6	21.2	0.00e+00	0	40	0	853540864	51	4383
2026-01-07 13:00:03.94	210.49	21.47	-39.9	-41.7	21.2	0.00e+00	0	40	0	859832320	51	4412
2026-01-07 13:00:04.95	210.65	21.58	-39.9	-41.6	21.2	0.00e+00	0	41	0	865075200	51	4386
2026-01-07 13:00:05.95	210.82	21.69	-39.9	-41.7	21.2	0.00e+00	0	41	0	871366656	51	4410
2026-01-07 13:00:06.95	210.99	21.80	-39.9	-41.7	21.3	0.00e+00	0	41	0	876609536	51	4392
2026-01-07 13:00:07.96	211.16	21.91	-39.9	-41.7	21.2	0.00e+00	0	40	0	881852416	51	4427
2026-01-07 13:00:08.96	211.33	22.02	-39.9	-41.7	21.2	0.00e+00	0	41	0	888143872	51	4425
2026-01-07 13:00:09.96	211.50	22.13	-39.8	-41.6	21.3	0.00e+00	0	41	0	893386752	51	4370
2026-01-07 13:00:10.96	211.67	22.24	-39.8	-41.6	21.3	0.00e+00	0	41	0	898629632	51	4377
2026-01-07 13:00:11.96	211.85	22.35	-39.8	-41.6	21.3	0.00e+00	0	41	0	904921088	51	4360
2026-01-07 13:00:12.97	212.02	22.47	-39.7	-41.5	21.4	0.00e+00	0	40	0	910163968	51	4296
2026-01-07 13:00:13.97	212.20	22.58	-39.5	-41.3	21.5	0.00e+00	0	40	0	915406848	51	4229
2026-01-07 13:00:14.97	212.38	22.69	-39.5	-41.3	21.5	0.00e+00	0	41	0	921698304	51	4234
2026-01-07 13:00:15.98	212.56	22.80	-39.4	-41.2	21.6	0.00e+00	0	40	0	926941184	50	4421
2026-01-07 13:00:16.98	212.74	22.91	-39.4	-41.2	21.7	0.00e+00	0	41	0	933232640	50	4395
2026-01-07 13:00:17.98	212.92	23.02	-39.3	-41.1	21.7	0.00e+00	0	41	0	938475520	50	4357
2026-01-07 13:00:18.99	213.10	23.14	-39.2	-41.0	21.8	0.00e+00	0	41	0	944766976	50	4318
2026-01-07 13:00:19.99	213.29	23.25	-39.2	-41.0	21.8	0.00e+00	0	40	0	950009856	50	4305
2026-01-07 13:00:20.99	213.47	23.36	-39.3	-41.1	21.7	0.00e+00	0	40	0	955252736	50	4350
2026-01-07 13:00:21.99	213.66	23.48	-39.3	-41.1	21.7	0.00e+00	0	40	0	961544192	50	4343
2026-01-07 13:00:23.00	213.85	23.59	-39.2	-40.9	21.9	0.00e+00	0	41	0	966787072	50	4270
2026-01-07 13:00:24.00	214.04	23.70	-39.2	-40.9	21.9	0.00e+00	0	41	0	972029952	50	4275
2026-01-07 13:00:25.00	214.23	23.82	-39.2	-41.0	21.8	0.00e+00	0	41	0	978321408	50	4311
2026-01-07 13:00:26.00	214.42	23.93	-39.3	-41.1	21.8	0.00e+00	0	41	0	983564288	50	4346
2026-01-07 13:00:27.00	214.61	24.04	-39.3	-41.1	21.8	0.00e+00	0	41	0	988807168	50	4343
2026-01-07 13:00:28.01	214.81	24.16	-39.3	-41.1	21.7	0.00e+00	0	40	0	995098624	50	4365
2026-01-07 13:00:29.01	215.00	24.27	-39.3	-41.1	21.7	0.00e+00	0	40	0	1000341504	50	4361
2026-01-07 13:00:30.01	215.20	24.39	-39.4	-41.2	21.7	0.00e+00	0	41	0	1006632960	50	4396
2026-01-07 13:00:31.02	215.40	24.50	-39.4	-41.2	21.7	0.00e+00	0	41	0	1011875840	50	4402
2026-01-07 13:00:32.02	215.60	24.61	-39.2	-41.0	21.9	0.00e+00	0	41	0	1017118720	50	4311
2026-01-07 13:00:33.02	215.80	24.73	-39.2	-41.0	21.9	0.00e+00	0	41	0	1023410176	50	4300
2026-01-07 13:00:34.03	216.01	24.85	-39.2	-41.0	21.8	0.00e+00	0	40	0	1028653056	50	4301
2026-01-07 13:00:35.03	216.21	24.96	-39.3	-41.0	21.8	0.00e+00	0	41	0	1033895936	50	4337
2026-01-07 13:00:36.03	216.42	25.07	-39.3	-41.0	21.8	0.00e+00	0	41	0	1040187392	50	4322
2026-01-07 13:00:37.04	216.63	25.19	-39.3	-41.0	21.8	0.00e+00	0	41	0	1045430272	50	4339
2026-01-07 13:00:38.04	216.83	25.31	-39.2	-41.0	21.8	0.00e+00	0	41	0	1051721728	50	4308
2026-01-07 13:00:39.04	217.04	25.42	-39.3	-41.1	21.8	0.00e+00	0	41	0	1056964608	50	4344
2026-01-07 13:00:40.04	217.26	25.54	-39.3	-41.1	21.8	0.00e+00	0	41	0	1062207488	50	4341
2026-01-07 13:00:41.04	217.47	25.65	-39.3	-41.0	21.8	0.00e+00	0	41	0	1068498944	50	4324
2026-01-07 13:00:42.05	217.69	25.77	-39.1	-40.9	21.9	0.00e+00	0	40	0	1073741824	50	4269
2026-01-07 13:00:43.05	217.90	25.88	-39.1	-40.8	22.0	0.00e+00	0	40	0	1080033280	50	4231
2026-01-07 13:00:44.05	218.12	26.00	-39.1	-40.8	22.0	0.00e+00	0	41	0	1085276160	50	4228
2026-01-07 13:00:45.05	218.34	26.12	-39.0	-40.8	22.0	0.00e+00	0	41	0	1090519040	50	4200
2026-01-07 13:00:46.06	218.56	26.23	-39.0	-40.7	22.0	0.00e+00	0	41	0	1096810496	49	4425
2026-01-07 13:00:47.06	218.79	26.35	-38.9	-40.6	22.1	0.00e+00	0	41	0	1102053376	49	4383
2026-01-07 13:00:48.06	219.01	26.46	-38.9	-40.6	22.1	0.00e+00	0	41	0	1107296256	49	4371
2026-01-07 13:00:49.07	219.24	26.58	-39.0	-40.7	22.0	0.00e+00	0	40	0	1113587712	49	4425
2026-01-07 13:00:50.07	219.46	26.70	-39.0	-40.8	22.0	0.00e+00	0	41	0	1118830592	49	4460
2026-01-07 13:00:51.07	219.69	26.81	-39.1	-40.9	21.9	0.00e+00	0	41	0	1125122048	49	4503
2026-01-07 13:00:52.08	219.93	26.93	-39.0	-40.8	22.0	0.00e+00	0	41	0	1130364928	49	4452
2026-01-07 13:00:53.08	220.16	27.05	-38.8	-40.6	22.2	0.00e+00	0	41	0	1135607808	49	4355
2026-01-07 13:00:54.09	220.40	27.16	-38.8	-40.5	22.2	0.00e+00	0	41	0	1141899264	49	4337
2026-01-07 13:00:55.09	220.63	27.28	-38.7	-40.4	22.3	0.00e+00	0	41	0	1147142144	49	4268
2026-01-07 13:00:56.09	220.87	27.39	-38.7	-40.4	22.3	0.00e+00	0	41	0	1153433600	49	4289
2026-01-07 13:00:57.09	221.11	27.51	-38.7	-40.4	22.3	0.00e+00	0	41	0	1158676480	49	4277
2026-01-07 13:00:58.10	221.35	27.63	-38.8	-40.5	22.2	0.00e+00	0	41	0	1163919360	49	4322
2026-01-07 13:00:59.10	221.59	27.74	-38.8	-40.5	22.2	0.00e+00	0	41	0	1170210816	49	4320
2026-01-07 13:01:00.10	221.84	27.86	-38.8	-40.5	22.2	0.00e+00	0	41	0	1175453696	49	4323
2026-01-07 13:01:01.11	222.09	27.98	-38.7	-40.5	22.3	0.00e+00	0	41	0	1180696576	49	4295
2026-01-07 13:01:02.11	222.33	28.09	-38.7	-40.4	22.3	0.00e+00	0	41	0	1186988032	49	4261
2026-01-07 13:01:03.11	222.58	28.21	-38.7	-40.4	22.3	0.00e+00	0	41	0	1192230912	49	4280
2026-01-07 13:01:04.11	222.83	28.32	-38.8	-40.5	22.2	0.00e+00	0	41	0	1198522368	49	4313
2026-01-07 13:01:05.12	223.09	28.44	-38.8	-40.6	22.2	0.00e+00	0	41	0	1203765248	49	4342
2026-01-07 13:01:06.12	223.34	28.55	-38.7	-40.5	22.2	0.00e+00	0	41	0	1209008128	49	4305
2026-01-07 13:01:07.12	223.60	28.67	-38.7	-40.4	22.3	0.00e+00	0	41	0	1215299584	49	4275
2026-01-07 13:01:08.13	223.86	28.78	-38.7	-40.5	22.3	0.00e+00	0	41	0	1220542464	49	4297
2026-01-07 13:01:09.13	224.12	28.90	-38.7	-40.4	22.3	0.00e+00	0	40	0	1225785344	49	4274
2026-01-07 13:01:10.13	224.38	29.01	-38.6	-40.3	22.4	0.00e+00	0	40	0	1232076800	49	4236
2026-01-07 13:01:11.14	224.65	29.13	-38.6	-40.3	22.3	0.00e+00	0	41	0	1237319680	49	4237
2026-01-07 13:01:12.14	224.92	29.24	-38.7	-40.4	22.3	0.00e+00	0	40	0	1243611136	49	4291
2026-01-07 13:01:13.14	225.18	29.36	-38.7	-40.4	22.3	0.00e+00	0	40	0	1248854016	49	4265
2026-01-07 13:01:14.14	225.45	29.47	-38.6	-40.4	22.4	0.00e+00	0	41	0	1254096896	49	4247
2026-01-07 13:01:15.15	225.73	29.59	-38.7	-40.4	22.4	0.00e+00	0	41	0	1260388352	49	4254
2026-01-07 13:01:16.15	226.00	29.70	-38.7	-40.5	22.3	0.00e+00	0	40	0	1265631232	49	4300
2026-01-07 13:01:17.16	226.28	29.81	-38.5	-40.2	22.5	0.00e+00	0	41	0	1271922688	49	4151
2026-01-07 13:01:18.15	226.55	29.93	-38.2	-39.9	22.7	0.00e+00	0	41	0	1277165568	48	4283
2026-01-07 13:01:19.16	226.83	30.04	-38.3	-39.9	22.7	0.00e+00	0	41	0	1282408448	48	4291
2026-01-07 13:01:20.16	227.11	30.15	-38.3	-40.0	22.7	0.00e+00	0	41	0	1288699904	48	4325
2026-01-07 13:01:21.16	227.40	30.26	-38.5	-40.2	22.5	0.00e+00	0	41	0	1293942784	48	4404
2026-01-07 13:01:22.17	227.68	30.38	-38.6	-40.3	22.4	0.00e+00	0	41	0	1299185664	48	4470
2026-01-07 13:01:23.17	227.97	30.49	-38.4	-40.2	22.5	0.00e+00	0	40	0	1305477120	48	4407
2026-01-07 13:01:24.17	228.26	30.60	-38.5	-40.2	22.5	0.00e+00	0	40	0	1310720000	48	4399
2026-01-07 13:01:25.17	228.55	30.71	-38.4	-40.2	22.6	0.00e+00	0	41	0	1315962880	48	4396
2026-01-07 13:01:26.18	228.85	30.82	-38.5	-40.2	22.5	0.00e+00	0	40	0	1322254336	48	4413
2026-01-07 13:01:27.18	229.14	30.93	-38.5	-40.3	22.4	0.00e+00	0	41	0	1327497216	48	4451
2026-01-07 13:01:28.18	229.44	31.04	-38.6	-40.4	22.3	0.00e+00	0	41	0	1333788672	48	4510
2026-01-07 13:01:29.18	229.73	31.15	-38.7	-40.5	22.2	0.00e+00	0	40	0	1339031552	48	4551
2026-01-07 13:01:30.19	230.04	31.26	-38.5	-40.3	22.4	0.00e+00	0	40	0	1345323008	48	4444
2026-01-07 13:01:31.19	230.34	31.37	-38.4	-40.1	22.5	0.00e+00	0	41	0	1350565888	48	4369
2026-01-07 13:01:32.19	230.64	31.47	-38.5	-40.2	22.5	0.00e+00	0	40	0	1355808768	48	4415
2026-01-07 13:01:33.19	230.95	31.58	-38.4	-40.1	22.5	0.00e+00	0	40	0	1362100224	48	4356
2026-01-07 13:01:34.19	231.26	31.69	-38.5	-40.2	22.5	0.00e+00	0	41	0	1367343104	48	4407
2026-01-07 13:01:35.20	231.57	31.79	-38.5	-40.3	22.4	0.00e+00	0	41	0	1372585984	48	4444
2026-01-07 13:01:36.20	231.89	31.90	-38.6	-40.4	22.3	0.00e+00	0	40	0	1378877440	48	4509
2026-01-07 13:01:37.20	232.20	32.00	-38.7	-40.4	22.3	0.00e+00	0	40	0	1384120320	48	4515
2026-01-07 13:01:38.21	232.52	32.11	-38.6	-40.3	22.3	0.00e+00	0	40	0	1389363200	48	4465
2026-01-07 13:01:39.21	232.84	32.21	-38.7	-40.4	22.2	0.00e+00	0	40	0	1395654656	48	4542
2026-01-07 13:01:40.21	233.16	32.32	-38.5	-40.2	22.4	0.00e+00	0	40	0	1400897536	48	4431
2026-01-07 13:01:41.21	233.48	32.42	-38.5	-40.2	22.4	0.00e+00	0	41	0	1407188992	48	4422
2026-01-07 13:01:42.22	233.81	32.52	-38.5	-40.2	22.4	0.00e+00	0	40	0	1412431872	48	4430
2026-01-07 13:01:43.22	234.13	32.62	-38.5	-40.2	22.4	0.00e+00	0	41	0	1417674752	48	4422
2026-01-07 13:01:44.22	234.46	32.72	-38.4	-40.1	22.6	0.00e+00	0	41	0	1423966208	48	4371
2026-01-07 13:01:45.22	234.79	32.82	-38.4	-40.2	22.5	0.00e+00	0	41	0	1429209088	48	4396
2026-01-07 13:01:46.23	235.13	32.92	-38.5	-40.3	22.4	0.00e+00	0	41	0	1434451968	48	4449
2026-01-07 13:01:47.23	235.46	33.02	-38.5	-40.2	22.5	0.00e+00	0	40	0	1440743424	48	4415
2026-01-07 13:01:48.24	235.80	33.12	-38.6	-40.3	22.4	0.00e+00	0	41	0	1445986304	48	4488
2026-01-07 13:01:49.24	236.14	33.22	-38.6	-40.4	22.3	0.00e+00	0	40	0	1452277760	48	4508
2026-01-07 13:01:50.24	236.48	33.31	-38.6	-40.4	22.3	0.00e+00	0	41	0	1457520640	48	4497
2026-01-07 13:01:51.24	236.82	33.41	-38.5	-40.3	22.4	0.00e+00	0	41	0	1462763520	48	4457
2026-01-07 13:01:52.24	237.17	33.50	-38.4	-40.2	22.5	0.00e+00	0	41	0	1469054976	48	4393
2026-01-07 13:01:53.25	237.52	33.60	-38.4	-40.1	22.6	0.00e+00	0	41	0	1474297856	48	4357
2026-01-07 13:01:54.25	237.86	33.69	-38.3	-40.0	22.6	0.00e+00	0	40	0	1480589312	48	4324
2026-01-07 13:01:55.26	238.22	33.78	-38.3	-40.1	22.6	0.00e+00	0	41	0	1485832192	48	4344
2026-01-07 13:01:56.26	238.57	33.87	-38.6	-40.3	22.4	0.00e+00	0	41	0	1491075072	48	4463
2026-01-07 13:01:57.26	238.92	33.96	-38.6	-40.3	22.3	0.00e+00	0	40	0	1497366528	48	4492
2026-01-07 13:01:58.26	239.28	34.05	-38.5	-40.2	22.4	0.00e+00	0	41	0	1502609408	48	4421
2026-01-07 13:01:59.27	239.64	34.14	-38.3	-40.1	22.5	0.00e+00	0	41	0	1507852288	48	4343
2026-01-07 13:02:00.27	240.00	34.23	-38.3	-40.0	22.6	0.00e+00	0	41	0	1514143744	48	4339
2026-01-07 13:02:01.27	240.36	34.31	-38.3	-39.9	22.7	0.00e+00	0	41	0	1519386624	48	4287
2026-01-07 13:02:02.27	240.73	34.40	-38.3	-40.0	22.6	0.00e+00	0	41	0	1524629504	48	4312
2026-01-07 13:02:03.28	241.09	34.48	-38.4	-40.2	22.5	0.00e+00	0	41	0	1530920960	48	4396
2026-01-07 13:02:04.28	241.46	34.57	-38.5	-40.2	22.4	0.00e+00	0	40	0	1536163840	48	4435
2026-01-07 13:02:05.28	241.83	34.65	-38.5	-40.2	22.4	0.00e+00	0	41	0	1542455296	48	4411
2026-01-07 13:02:06.29	242.21	34.73	-38.4	-40.2	22.5	0.00e+00	0	41	0	1547698176	48	4394
2026-01-07 13:02:07.29	242.58	34.81	-38.3	-40.0	22.6	0.00e+00	0	41	0	1553989632	48	4322
2026-01-07 13:02:08.29	242.95	34.89	-38.2	-39.9	22.7	0.00e+00	0	41	0	1559232512	48	4265
2026-01-07 13:02:09.29	243.33	34.97	-38.1	-39.8	22.8	0.00e+00	0	41	0	1564475392	48	4219
2026-01-07 13:02:10.29	243.71	35.04	-38.1	-39.8	22.8	0.00e+00	0	41	0	1570766848	48	4225
2026-01-07 13:02:11.30	244.09	35.12	-38.2	-39.9	22.8	0.00e+00	0	41	0	1576009728	48	4258
2026-01-07 13:02:12.30	244.47	35.19	-38.2	-39.9	22.7	0.00e+00	0	41	0	1581252608	48	4289
2026-01-07 13:02:13.31	244.86	35.27	-38.4	-40.2	22.5	0.00e+00	0	41	0	1587544064	48	4394
2026-01-07 13:02:14.31	245.24	35.34	-38.4	-40.2	22.5	0.00e+00	0	40	0	1592786944	48	4407
2026-01-07 13:02:15.31	245.63	35.41	-38.4	-40.2	22.5	0.00e+00	0	41	0	1598029824	48	4392
2026-01-07 13:02:16.32	246.02	35.48	-38.2	-39.9	22.8	0.00e+00	0	41	0	1604321280	48	4268
2026-01-07 13:02:17.32	246.41	35.54	-38.1	-39.8	22.9	0.00e+00	0	41	0	1609564160	48	4203
2026-01-07 13:02:18.32	246.80	35.61	-38.2	-39.9	22.8	0.00e+00	0	41	0	1615855616	48	4268
2026-01-07 13:02:19.33	247.20	35.67	-38.2	-39.9	22.7	0.00e+00	0	40	0	1621098496	48	4280
2026-01-07 13:02:20.33	247.59	35.74	-38.1	-39.9	22.8	0.00e+00	0	41	0	1626341376	48	4252
2026-01-07 13:02:21.33	247.99	35.80	-38.1	-39.8	22.8	0.00e+00	0	41	0	1632632832	48	4227
2026-01-07 13:02:22.33	248.39	35.86	-38.0	-39.7	22.9	0.00e+00	0	40	0	1637875712	48	4162
2026-01-07 13:02:23.34	248.79	35.92	-38.0	-39.7	22.9	0.00e+00	0	40	0	1644167168	48	4170
2026-01-07 13:02:24.34	249.19	35.98	-38.1	-39.7	22.9	0.00e+00	0	41	0	1649410048	48	4183
2026-01-07 13:02:25.34	249.59	36.03	-38.2	-39.8	22.8	0.00e+00	0	41	0	1654652928	48	4241
2026-01-07 13:02:26.34	249.99	36.09	-38.3	-40.0	22.6	0.00e+00	0	41	0	1660944384	48	4332
2026-01-07 13:02:27.34	250.40	36.14	-38.3	-40.0	22.6	0.00e+00	0	40	0	1666187264	48	4317
2026-01-07 13:02:28.35	250.81	36.19	-38.3	-40.0	22.6	0.00e+00	0	41	0	1671430144	48	4338
2026-01-07 13:02:29.35	251.21	36.25	-38.2	-39.9	22.7	0.00e+00	0	40	0	1677721600	48	4272
2026-01-07 13:02:30.35	251.62	36.29	-38.1	-39.8	22.8	0.00e+00	0	41	0	1682964480	48	4217
2026-01-07 13:02:31.35	252.03	36.34	-38.0	-39.7	22.9	0.00e+00	0	41	0	1689255936	48	4179
2026-01-07 13:02:32.35	252.44	36.39	-38.0	-39.7	22.9	0.00e+00	0	40	0	1694498816	48	4183
2026-01-07 13:02:33.35	252.85	36.43	-38.1	-39.8	22.9	0.00e+00	0	40	0	1699741696	48	4218
2026-01-07 13:02:34.36	253.27	36.47	-38.2	-39.9	22.7	0.00e+00	0	40	0	1706033152	48	4288
2026-01-07 13:02:35.36	253.68	36.52	-38.3	-40.0	22.6	0.00e+00	0	41	0	1711276032	48	4334
2026-01-07 13:02:36.36	254.09	36.55	-38.2	-39.9	22.7	0.00e+00	0	40	0	1716518912	48	4273
2026-01-07 13:02:37.37	254.51	36.59	-38.1	-39.8	22.9	0.00e+00	0	41	0	1722810368	48	4202
2026-01-07 13:02:38.37	254.93	36.63	-38.1	-39.8	22.9	0.00e+00	0	41	0	1728053248	48	4199
2026-01-07 13:02:39.38	255.35	36.66	-38.0	-39.7	22.9	0.00e+00	0	41	0	1733296128	48	4155
2026-01-07 13:02:40.38	255.77	36.70	-37.9	-39.6	23.0	0.00e+00	0	41	0	1739587584	47	4346
2026-01-07 13:02:41.38	256.19	36.73	-37.8	-39.5	22.7	0.00e+00	0	40	0	1744830464	47	4338
2026-01-07 13:02:42.38	256.61	36.76	-37.9	-39.7	22.6	0.00e+00	0	41	0	1751121920	47	4401
2026-01-07 13:02:43.39	257.03	36.79	-38.0	-39.7	22.5	0.00e+00	0	41	0	1756364800	47	4441
2026-01-07 13:02:44.39	257.45	36.81	-38.0	-39.7	22.6	0.00e+00	0	40	0	1762656256	47	4423
2026-01-07 13:02:45.40	257.88	36.84	-37.9	-39.6	22.6	0.00e+00	0	40	0	1767899136	47	4378
2026-01-07 13:02:46.40	258.30	36.86	-37.9	-39.6	22.6	0.00e+00	0	41	0	1773142016	47	4364
2026-01-07 13:02:47.40	258.72	36.88	-37.9	-39.6	22.6	0.00e+00	0	41	0	1779433472	47	4388
2026-01-07 13:02:48.40	259.15	36.90	-38.0	-39.8	22.5	0.00e+00	0	40	0	1784676352	47	4461
2026-01-07 13:02:49.40	259.57	36.92	-38.0	-39.8	22.5	0.00e+00	0	40	0	1789919232	47	4462
2026-01-07 13:02:50.40	259.99	36.93	-38.1	-39.8	22.5	0.00e+00	0	40	0	1796210688	47	4476
2026-01-07 13:02:51.41	260.42	36.95	-38.1	-39.8	22.5	0.00e+00	0	40	0	1801453568	47	4472
2026-01-07 13:02:52.41	260.85	36.96	-38.1	-39.8	22.5	0.00e+00	0	40	0	1806696448	47	4467
2026-01-07 13:02:53.41	261.27	36.97	-38.1	-39.9	22.4	0.00e+00	0	40	0	1812987904	47	4517
2026-01-07 13:02:54.41	261.70	36.98	-38.2	-39.9	22.4	0.00e+00	0	40	0	1818230784	47	4532
2026-01-07 13:02:55.42	262.13	36.99	-38.1	-39.8	22.5	0.00e+00	0	41	0	1824522240	47	4477
2026-01-07 13:02:56.42	262.55	36.99	-38.0	-39.7	23.0	0.00e+00	0	41	0	1829765120	47	4419
2026-01-07 13:02:57.42	262.98	37.00	-38.1	-39.8	23.0	0.00e+00	0	40	0	1835008000	47	4457
2026-01-07 13:02:58.42	263.40	37.00	-38.1	-39.7	22.9	0.00e+00	0	41	0	1841299456	47	4441
2026-01-07 13:02:59.43	263.84	37.00	-38.0	-39.7	23.0	0.00e+00	0	41	0	1846542336	47	4420
2026-01-07 13:03:00.43	264.26	37.00	-38.0	-39.6	23.1	0.00e+00	0	41	0	1851785216	47	4389
2026-01-07 13:03:01.43	264.69	37.00	-38.0	-39.6	23.1	0.00e+00	0	40	0	1858076672	47	4364
2026-01-07 13:03:02.44	265.12	36.99	-38.1	-39.8	23.0	0.00e+00	0	41	0	1863319552	47	4457
2026-01-07 13:03:03.44	265.54	36.98	-38.1	-39.7	23.0	0.00e+00	0	41	0	1869611008	47	4429
2026-01-07 13:03:04.44	265.97	36.97	-37.9	-39.6	23.1	0.00e+00	0	40	0	1874853888	47	4364
2026-01-07 13:03:05.44	266.39	36.96	-38.0	-39.6	23.0	0.00e+00	0	40	0	1880096768	47	4376
2026-01-07 13:03:06.44	266.82	36.95	-37.9	-39.6	23.1	0.00e+00	0	40	0	1886388224	47	4348
2026-01-07 13:03:07.45	267.25	36.94	-38.1	-39.7	23.0	0.00e+00	0	40	0	1891631104	47	4422
2026-01-07 13:03:08.45	267.67	36.92	-38.2	-39.9	22.9	0.00e+00	0	41	0	1897922560	47	4519
2026-01-07 13:03:09.46	268.10	36.91	-38.3	-39.9	22.8	0.00e+00	0	40	0	1903165440	47	4545
2026-01-07 13:03:10.46	268.52	36.89	-38.3	-40.0	22.8	0.00e+00	0	40	0	1908408320	47	4548
2026-01-07 13:03:11.46	268.94	36.87	-38.2	-39.8	22.9	0.00e+00	0	40	0	1914699776	47	4475
2026-01-07 13:03:12.47	269.37	36.84	-38.0	-39.6	23.1	0.00e+00	0	40	0	1919942656	47	4376
2026-01-07 13:03:13.47	269.79	36.82	-38.0	-39.7	23.0	0.00e+00	0	41	0	1925185536	47	4397
2026-01-07 13:03:14.47	270.21	36.79	-38.1	-39.8	23.0	0.00e+00	0	40	0	1931476992	47	4457
2026-01-07 13:03:15.47	270.63	36.77	-37.9	-39.5	23.2	0.00e+00	0	40	0	1936719872	47	4340
2026-01-07 13:03:16.48	271.06	36.74	-37.8	-39.4	23.3	0.00e+00	0	40	0	1941962752	47	4291
2026-01-07 13:03:17.48	271.47	36.71	-37.9	-39.5	23.2	0.00e+00	0	40	0	1948254208	47	4307
2026-01-07 13:03:18.48	271.89	36.68	-38.0	-39.6	23.1	0.00e+00	0	40	0	1953497088	47	4375
2026-01-07 13:03:19.49	272.31	36.64	-38.1	-39.8	23.0	0.00e+00	0	40	0	1959788544	47	4445
2026-01-07 13:03:20.49	272.73	36.61	-38.2	-39.8	22.9	0.00e+00	0	41	0	1965031424	47	4490
2026-01-07 13:03:21.49	273.14	36.57	-38.2	-39.9	22.9	0.00e+00	0	40	0	1971322880	47	4513
2026-01-07 13:03:22.50	273.56	36.53	-38.1	-39.7	23.1	0.00e+00	0	41	0	1976565760	47	4417
2026-01-07 13:03:23.50	273.98	36.49	-38.0	-39.7	23.0	0.00e+00	0	40	0	1981808640	47	4392
2026-01-07 13:03:24.50	274.39	36.45	-38.0	-39.7	23.1	0.00e+00	0	40	0	1988100096	47	4407
2026-01-07 13:03:25.50	274.80	36.40	-38.2	-39.8	23.0	0.00e+00	0	40	0	1993342976	47	4474
2026-01-07 13:03:26.51	275.21	36.36	-38.1	-39.7	23.0	0.00e+00	0	41	0	1998585856	47	4421
2026-01-07 13:03:27.51	275.62	36.31	-37.9	-39.5	23.2	0.00e+00	0	41	0	2004877312	47	4307
2026-01-07 13:03:28.51	276.03	36.26	-37.9	-39.5	23.2	0.00e+00	0	40	0	2010120192	47	4321
2026-01-07 13:03:29.51	276.44	36.21	-38.0	-39.6	23.1	0.00e+00	0	41	0	2015363072	47	4347
2026-01-07 13:03:30.52	276.84	36.16	-38.1	-39.8	23.0	0.00e+00	0	41	0	2021654528	47	4449
2026-01-07 13:03:31.52	277.25	36.11	-38.1	-39.8	23.0	0.00e+00	0	41	0	2026897408	47	4445
2026-01-07 13:03:32.52	277.65	36.05	-38.0	-39.7	23.1	0.00e+00	0	41	0	2033188864	47	4396
2026-01-07 13:03:33.52	278.05	36.00	-38.0	-39.6	23.1	0.00e+00	0	41	0	2038431744	47	4387
2026-01-07 13:03:34.53	278.46	35.94	-37.9	-39.6	23.1	0.00e+00	0	40	0	2043674624	47	4352
2026-01-07 13:03:35.53	278.85	35.88	-38.1	-39.7	23.0	0.00e+00	0	40	0	2049966080	47	4422
2026-01-07 13:03:36.53	279.25	35.82	-38.3	-40.0	22.8	0.00e+00	0	40	0	2055208960	47	4549
2026-01-07 13:03:37.53	279.65	35.76	-38.4	-40.1	22.8	0.00e+00	0	40	0	2061500416	47	4615
2026-01-07 13:03:38.54	280.04	35.70	-38.4	-40.1	22.7	0.00e+00	0	40	0	2066743296	47	4610
2026-01-07 13:03:39.54	280.44	35.63	-38.4	-40.1	22.7	0.00e+00	0	40	0	2071986176	47	4634
2026-01-07 13:03:40.54	280.83	35.57	-38.4	-40.1	22.7	0.00e+00	0	40	0	2078277632	47	4601
2026-01-07 13:03:41.54	281.22	35.50	-38.1	-39.7	23.0	0.00e+00	0	40	0	2083520512	47	4411
2026-01-07 13:03:42.54	281.60	35.43	-38.0	-39.6	23.1	0.00e+00	0	40	0	2089811968	47	4360
2026-01-07 13:03:43.55	281.99	35.36	-38.0	-39.6	23.1	0.00e+00	0	41	0	2095054848	47	4378
2026-01-07 13:03:44.55	282.38	35.29	-38.1	-39.8	23.0	0.00e+00	0	40	0	2100297728	47	4446
2026-01-07 13:03:45.55	282.76	35.22	-38.2	-39.9	22.9	0.00e+00	0	40	0	2106589184	47	4500
2026-01-07 13:03:46.55	283.14	35.15	-38.3	-40.0	22.8	0.00e+00	0	41	0	2111832064	47	4560
2026-01-07 13:03:47.56	283.53	35.07	-38.4	-40.1	22.7	0.00e+00	0	40	0	2117074944	47	4604
2026-01-07 13:03:48.56	283.90	35.00	-38.3	-40.0	22.8	0.00e+00	0	40	0	2123366400	47	4562
2026-01-07 13:03:49.56	284.28	34.92	-38.3	-39.9	22.8	0.00e+00	0	40	0	2128609280	47	4521
2026-01-07 13:03:50.56	284.65	34.84	-38.2	-39.9	22.9	0.00e+00	0	40	0	2133852160	47	4518
2026-01-07 13:03:51.56	285.03	34.76	-38.2	-39.9	22.9	0.00e+00	0	40	0	2140143616	47	4509
2026-01-07 13:03:52.57	285.40	34.68	-38.3	-39.9	22.9	0.00e+00	0	40	0	2145386496	47	4530
2026-01-07 13:03:53.57	285.77	34.60	-38.3	-39.9	22.8	0.00e+00	0	40	0	2151677952	47	4542
2026-01-07 13:03:54.57	286.14	34.52	-38.3	-39.9	22.9	0.00e+00	0	41	0	2156920832	47	4531
2026-01-07 13:03:55.57	286.50	34.44	-38.1	-39.7	23.0	0.00e+00	0	41	0	2162163712	47	4436
2026-01-07 13:03:56.58	286.87	34.35	-38.2	-39.9	22.9	0.00e+00	0	40	0	2168455168	47	4506
2026-01-07 13:03:57.58	287.23	34.27	-38.5	-40.2	22.6	0.00e+00	0	40	0	2173698048	47	4674
2026-01-07 13:03:58.59	287.59	34.18	-38.6	-40.3	22.5	0.00e+00	0	40	0	2179989504	47	4746
2026-01-07 13:03:59.59	287.95	34.09	-38.6	-40.3	22.6	0.00e+00	0	40	0	2185232384	47	4706
2026-01-07 13:04:00.59	288.30	34.00	-38.6	-40.3	22.5	0.00e+00	0	40	0	2190475264	47	4726
2026-01-07 13:04:01.59	288.66	33.91	-38.7	-40.4	22.8	0.00e+00	0	40	0	2196766720	48	4506
2026-01-07 13:04:02.60	289.01	33.82	-38.7	-40.3	22.8	0.00e+00	0	40	0	2202009600	48	4482
2026-01-07 13:04:03.60	289.36	33.73	-38.9	-40.6	22.6	0.00e+00	0	40	0	2207252480	48	4624
2026-01-07 13:04:04.60	289.71	33.64	-38.7	-40.4	22.8	0.00e+00	0	40	0	2213543936	48	4501
2026-01-07 13:04:05.61	290.06	33.55	-38.6	-40.2	22.9	0.00e+00	0	40	0	2218786816	48	4439
2026-01-07 13:04:06.61	290.40	33.45	-38.6	-40.2	22.9	0.00e+00	0	40	0	2225078272	48	4406
2026-01-07 13:04:07.61	290.75	33.36	-38.7	-40.3	22.8	0.00e+00	0	40	0	2230321152	48	4472
2026-01-07 13:04:08.62	291.09	33.26	-38.6	-40.2	22.9	0.00e+00	0	40	0	2235564032	48	4440
2026-01-07 13:04:09.61	291.42	33.17	-38.7	-40.4	22.8	0.00e+00	0	40	0	2241855488	48	4504
2026-01-07 13:04:10.61	291.76	33.07	-38.7	-40.4	22.7	0.00e+00	0	40	0	2247098368	48	4525
2026-01-07 13:04:11.62	292.10	32.97	-38.7	-40.4	22.8	0.00e+00	0	41	0	2252341248	48	4498
2026-01-07 13:04:12.62	292.43	32.87	-38.7	-40.3	22.8	0.00e+00	0	41	0	2258632704	48	4475
2026-01-07 13:04:13.63	292.76	32.77	-38.7	-40.4	22.8	0.00e+00	0	40	0	2263875584	48	4501
2026-01-07 13:04:14.63	293.09	32.67	-38.8	-40.5	22.7	0.00e+00	0	40	0	2269118464	48	4556
2026-01-07 13:04:15.63	293.42	32.57	-38.9	-40.5	22.6	0.00e+00	0	40	0	2275409920	48	4594
2026-01-07 13:04:16.64	293.74	32.47	-38.9	-40.5	22.7	0.00e+00	0	40	0	2280652800	48	4589
2026-01-07 13:04:17.64	294.07	32.37	-38.9	-40.5	22.6	0.00e+00	0	40	0	2286944256	48	4592
2026-01-07 13:04:18.63	294.38	32.27	-38.8	-40.5	22.7	0.00e+00	0	40	0	2292187136	48	4547
2026-01-07 13:04:19.64	294.70	32.16	-38.8	-40.4	22.8	0.00e+00	0	40	0	2298478592	48	4527
2026-01-07 13:04:20.64	295.02	32.06	-38.8	-40.4	22.7	0.00e+00	0	41	0	2303721472	48	4530
2026-01-07 13:04:21.64	295.33	31.96	-38.9	-40.6	22.6	0.00e+00	0	40	0	2308964352	48	4607
2026-01-07 13:04:22.65	295.65	31.85	-38.8	-40.5	22.7	0.00e+00	0	40	0	2315255808	48	4579
2026-01-07 13:04:23.65	295.96	31.75	-38.9	-40.5	22.7	0.00e+00	0	40	0	2320498688	48	4585
2026-01-07 13:04:24.65	296.27	31.64	-38.8	-40.5	22.7	0.00e+00	0	41	0	2325741568	48	4559
2026-01-07 13:04:25.66	296.58	31.53	-38.9	-40.6	22.6	0.00e+00	0	40	0	2332033024	48	4608
2026-01-07 13:04:26.66	296.88	31.43	-38.7	-40.4	22.7	0.00e+00	0	40	0	2337275904	48	4512
2026-01-07 13:04:27.66	297.18	31.32	-38.7	-40.3	22.8	0.00e+00	0	40	0	2342518784	48	4476
2026-01-07 13:04:28.67	297.49	31.21	-38.5	-40.2	22.9	0.00e+00	0	40	0	2348810240	48	4396
2026-01-07 13:04:29.67	297.79	31.10	-38.5	-40.1	23.0	0.00e+00	0	41	0	2354053120	48	4381
2026-01-07 13:04:30.67	298.08	30.99	-38.6	-40.3	22.9	0.00e+00	0	40	0	2360344576	48	4448
2026-01-07 13:04:31.67	298.38	30.88	-38.8	-40.4	22.7	0.00e+00	0	40	0	2365587456	48	4539
2026-01-07 13:04:32.68	298.67	30.77	-38.9	-40.6	22.6	0.00e+00	0	40	0	2370830336	48	4605
2026-01-07 13:04:33.68	298.96	30.66	-38.9	-40.6	22.6	0.00e+00	0	40	0	2377121792	48	4634
2026-01-07 13:04:34.68	299.25	30.55	-38.9	-40.6	22.6	0.00e+00	0	40	0	2382364672	48	4616
2026-01-07 13:04:35.69	299.54	30.44	-38.7	-40.4	22.7	0.00e+00	0	40	0	2388656128	48	4516
2026-01-07 13:04:36.69	299.82	30.33	-38.7	-40.4	22.8	0.00e+00	0	41	0	2393899008	48	4497
2026-01-07 13:04:37.69	300.11	30.22	-38.8	-40.5	22.7	0.00e+00	0	41	0	2399141888	48	4549
2026-01-07 13:04:38.70	300.39	30.11	-38.8	-40.5	22.6	0.00e+00	0	40	0	2405433344	48	4585
2026-01-07 13:04:39.69	300.67	30.00	-38.9	-40.6	22.6	0.00e+00	0	40	0	2410676224	48	4600
2026-01-07 13:04:40.70	300.94	29.88	-38.8	-40.5	22.7	0.00e+00	0	40	0	2415919104	48	4563
2026-01-07 13:04:41.70	301.22	29.77	-38.8	-40.5	22.6	0.00e+00	0	40	0	2422210560	48	4580
2026-01-07 13:04:42.70	301.49	29.66	-38.8	-40.5	22.7	0.00e+00	0	41	0	2427453440	48	4572
2026-01-07 13:04:43.70	301.76	29.55	-38.9	-40.5	22.6	0.00e+00	0	40	0	2433744896	48	4594
2026-01-07 13:04:44.71	302.04	29.43	-38.8	-40.4	22.7	0.00e+00	0	41	0	2438987776	48	4537
2026-01-07 13:04:45.71	302.30	29.32	-38.9	-40.5	22.6	0.00e+00	0	40	0	2444230656	48	4588
2026-01-07 13:04:46.71	302.57	29.21	-38.9	-40.5	22.6	0.00e+00	0	40	0	2450522112	48	4578
2026-01-07 13:04:47.71	302.83	29.09	-38.9	-40.5	22.6	0.00e+00	0	40	0	2455764992	48	4596
2026-01-07 13:04:48.72	303.10	28.98	-38.9	-40.5	22.6	0.00e+00	0	41	0	2461007872	48	4590
2026-01-07 13:04:49.72	303.36	28.86	-38.9	-40.5	22.6	0.00e+00	0	40	0	2467299328	48	4592
2026-01-07 13:04:50.72	303.62	28.75	-39.0	-40.6	22.5	0.00e+00	0	40	0	2472542208	48	4639
2026-01-07 13:04:51.72	303.87	28.64	-39.1	-40.7	22.5	0.00e+00	0	40	0	2477785088	48	4698
2026-01-07 13:04:52.73	304.13	28.52	-39.1	-40.8	22.4	0.00e+00	0	40	0	2484076544	48	4747
2026-01-07 13:04:53.73	304.38	28.41	-39.2	-40.9	22.3	0.00e+00	0	40	0	2489319424	49	4514
2026-01-07 13:04:54.73	304.63	28.29	-39.2	-40.9	22.3	0.00e+00	0	40	0	2495610880	49	4507
2026-01-07 13:04:55.74	304.89	28.18	-39.1	-40.8	22.4	0.00e+00	0	41	0	2500853760	49	4467
2026-01-07 13:04:56.74	305.13	28.06	-39.0	-40.6	22.5	0.00e+00	0	40	0	2507145216	49	4385
2026-01-07 13:04:57.74	305.38	27.95	-38.8	-40.5	22.6	0.00e+00	0	40	0	2512388096	49	4309
2026-01-07 13:04:58.75	305.63	27.83	-38.8	-40.5	22.6	0.00e+00	0	40	0	2517630976	49	4298
2026-01-07 13:04:59.75	305.87	27.71	-38.8	-40.5	22.7	0.00e+00	0	40	0	2523922432	49	4303
2026-01-07 13:05:00.75	306.11	27.60	-39.0	-40.7	22.5	0.00e+00	0	41	0	2529165312	49	4408
2026-01-07 13:05:01.76	306.35	27.48	-39.1	-40.8	22.4	0.00e+00	0	40	0	2534408192	49	4454
2026-01-07 13:05:02.76	306.59	27.37	-39.2	-40.9	22.3	0.00e+00	0	40	0	2540699648	49	4527
2026-01-07 13:05:03.76	306.82	27.25	-39.3	-41.0	22.2	0.00e+00	0	40	0	2545942528	49	4559
2026-01-07 13:05:04.77	307.06	27.14	-39.3	-41.0	22.2	0.00e+00	0	40	0	2551185408	49	4586
2026-01-07 13:05:05.77	307.29	27.02	-39.3	-41.0	22.2	0.00e+00	0	40	0	2557476864	49	4588
2026-01-07 13:05:06.77	307.52	26.91	-39.3	-41.0	22.2	0.00e+00	0	40	0	2562719744	49	4590
2026-01-07 13:05:07.78	307.75	26.79	-39.2	-40.9	22.3	0.00e+00	0	40	0	2569011200	49	4524
2026-01-07 13:05:08.78	307.98	26.68	-39.3	-41.0	22.2	0.00e+00	0	41	0	2574254080	49	4558
2026-01-07 13:05:09.78	308.21	26.56	-39.2	-40.9	22.3	0.00e+00	0	40	0	2580545536	49	4521
2026-01-07 13:05:10.79	308.43	26.44	-39.1	-40.8	22.4	0.00e+00	0	40	0	2585788416	49	4467
2026-01-07 13:05:11.78	308.65	26.33	-39.2	-40.8	22.3	0.00e+00	0	40	0	2591031296	49	4485
2026-01-07 13:05:12.78	308.87	26.21	-39.1	-40.8	22.4	0.00e+00	0	40	0	2596274176	49	4480
2026-01-07 13:05:13.78	309.09	26.10	-39.1	-40.8	22.3	0.00e+00	0	40	0	2602565632	49	4481
2026-01-07 13:05:14.77	309.31	25.99	-39.1	-40.8	22.3	0.00e+00	0	40	0	2607808512	49	4474
2026-01-07 13:05:15.77	309.53	25.87	-39.2	-40.9	22.3	0.00e+00	0	40	0	2613051392	49	4501
2026-01-07 13:05:16.76	309.74	25.76	-39.0	-40.7	22.5	0.00e+00	0	40	0	2619342848	49	4402
2026-01-07 13:05:17.76	309.95	25.64	-38.9	-40.6	22.5	0.00e+00	0	40	0	2624585728	49	4374
2026-01-07 13:05:18.76	310.16	25.53	-38.9	-40.6	22.5	0.00e+00	0	40	0	2630877184	49	4345
2026-01-07 13:05:19.76	310.37	25.41	-38.8	-40.5	22.6	0.00e+00	0	40	0	2636120064	49	4311
2026-01-07 13:05:20.76	310.58	25.30	-38.9	-40.6	22.5	0.00e+00	0	40	0	2641362944	49	4358
2026-01-07 13:05:21.75	310.79	25.19	-39.0	-40.6	22.5	0.00e+00	0	40	0	2647654400	49	4387
2026-01-07 13:05:22.74	310.99	25.07	-39.0	-40.6	22.5	0.00e+00	0	40	0	2652897280	49	4385
2026-01-07 13:05:23.74	311.20	24.96	-39.1	-40.8	22.4	0.00e+00	0	40	0	2658140160	49	4452
2026-01-07 13:05:24.73	311.40	24.85	-39.2	-40.9	22.3	0.00e+00	0	40	0	2663383040	49	4502
2026-01-07 13:05:25.73	311.60	24.73	-39.2	-40.9	22.2	0.00e+00	0	40	0	2669674496	49	4534
2026-01-07 13:05:26.73	311.80	24.62	-39.2	-40.9	22.2	0.00e+00	0	40	0	2674917376	49	4523
2026-01-07 13:05:27.73	312.00	24.51	-39.3	-41.0	22.1	0.00e+00	0	40	0	2681208832	49	4595
2026-01-07 13:05:28.73	312.20	24.39	-39.3	-41.1	22.1	0.00e+00	0	40	0	2686451712	49	4600
2026-01-07 13:05:29.72	312.39	24.28	-39.4	-41.2	22.0	0.00e+00	0	40	0	2691694592	49	4663
2026-01-07 13:05:30.72	312.58	24.17	-39.3	-41.0	22.1	0.00e+00	0	40	0	2697986048	49	4588
2026-01-07 13:05:31.72	312.78	24.06	-39.3	-41.0	22.1	0.00e+00	0	40	0	2703228928	49	4585
2026-01-07 13:05:32.72	312.97	23.94	-39.4	-41.1	22.1	0.00e+00	0	40	0	2708471808	49	4609
2026-01-07 13:05:33.71	313.16	23.83	-39.4	-41.0	22.1	0.00e+00	0	40	0	2714763264	49	4597
2026-01-07 13:05:34.71	313.35	23.72	-39.5	-41.2	22.0	0.00e+00	0	40	0	2720006144	49	4661
2026-01-07 13:05:35.71	313.54	23.61	-39.5	-41.1	22.0	0.00e+00	0	40	0	2725249024	49	4645
2026-01-07 13:05:36.70	313.72	23.50	-39.6	-41.3	21.9	0.00e+00	0	40	0	2731540480	49	4712
2026-01-07 13:05:37.70	313.91	23.38	-39.6	-41.3	21.9	0.00e+00	0	40	0	2736783360	49	4732
2026-01-07 13:05:38.70	314.09	23.27	-39.7	-41.4	21.8	0.00e+00	0	40	0	2743074816	50	4523
2026-01-07 13:05:39.69	314.27	23.16	-39.7	-41.4	21.8	0.00e+00	0	40	0	2748317696	50	4515
2026-01-07 13:05:40.69	314.45	23.05	-39.7	-41.5	21.8	0.00e+00	0	40	0	2753560576	50	4549
2026-01-07 13:05:41.68	314.63	22.94	-39.8	-41.6	21.7	0.00e+00	0	40	0	2758803456	50	4605
2026-01-07 13:05:42.68	314.81	22.83	-39.8	-41.5	21.7	0.00e+00	0	40	0	2765094912	50	4561
2026-01-07 13:05:43.67	314.99	22.72	-39.7	-41.4	21.8	0.00e+00	0	40	0	2770337792	50	4545
2026-01-07 13:05:44.67	315.16	22.61	-39.7	-41.4	21.8	0.00e+00	0	40	0	2775580672	50	4542
2026-01-07 13:05:45.67	315.34	22.50	-39.8	-41.5	21.7	0.00e+00	0	40	0	2781872128	50	4575
2026-01-07 13:05:46.67	315.51	22.39	-39.7	-41.4	21.8	0.00e+00	0	40	0	2787115008	50	4518
2026-01-07 13:05:47.66	315.68	22.28	-39.7	-41.4	21.8	0.00e+00	0	40	0	2793406464	50	4504
2026-01-07 13:05:48.65	315.85	22.17	-39.7	-41.4	21.8	0.00e+00	0	40	0	2798649344	50	4524
2026-01-07 13:05:49.65	316.02	22.06	-39.7	-41.5	21.8	0.00e+00	0	40	0	2803892224	50	4550
2026-01-07 13:05:50.65	316.19	21.95	-39.7	-41.4	21.8	0.00e+00	0	40	0	2810183680	50	4523
2026-01-07 13:05:51.65	316.36	21.85	-39.7	-41.4	21.8	0.00e+00	0	40	0	2815426560	50	4511
2026-01-07 13:05:52.65	316.53	21.74	-39.8	-41.5	21.7	0.00e+00	0	40	0	2820669440	50	4561
2026-01-07 13:05:53.64	316.69	21.63	-39.9	-41.6	21.7	0.00e+00	0	40	0	2826960896	50	4608
2026-01-07 13:05:54.64	316.86	21.52	-39.9	-41.7	21.6	0.00e+00	0	40	0	2832203776	50	4665
2026-01-07 13:05:55.64	317.02	21.41	-40.0	-41.8	21.5	0.00e+00	0	40	0	2837446656	50	4725
2026-01-07 13:05:56.64	317.18	21.31	-40.1	-41.8	21.4	0.00e+00	0	40	0	2843738112	50	4740
2026-01-07 13:05:57.63	317.34	21.20	-40.1	-41.9	21.4	0.00e+00	0	40	0	2848980992	50	4773
2026-01-07 13:05:58.63	317.50	21.09	-40.2	-41.9	21.4	0.00e+00	0	40	0	2854223872	51	4519
2026-01-07 13:05:59.64	317.67	20.98	-40.1	-41.9	21.4	0.00e+00	0	40	0	2860515328	51	4510
2026-01-07 13:06:00.64	317.82	20.88	-40.2	-41.9	21.4	0.00e+00	0	40	0	2865758208	51	4521
2026-01-07 13:06:01.63	317.98	20.77	-40.2	-41.9	21.3	0.00e+00	0	40	0	2872049664	51	4526
2026-01-07 13:06:02.63	318.14	20.66	-40.0	-41.8	21.5	0.00e+00	0	40	0	2877292544	51	4448
2026-01-07 13:06:03.62	318.29	20.56	-39.9	-41.7	21.5	0.00e+00	0	40	0	2882535424	51	4403
2026-01-07 13:06:04.62	318.44	20.45	-39.9	-41.7	21.5	0.00e+00	0	40	0	2888826880	51	4404
2026-01-07 13:06:05.62	318.60	20.35	-40.1	-41.8	21.4	0.00e+00	0	40	0	2894069760	51	4464
2026-01-07 13:06:06.61	318.75	20.24	-40.1	-41.9	21.4	0.00e+00	0	40	0	2899312640	51	4502
2026-01-07 13:06:07.61	318.90	20.14	-40.2	-41.9	21.3	0.00e+00	0	40	0	2905604096	51	4523
2026-01-07 13:06:08.60	319.05	20.04	-40.3	-42.0	21.2	0.00e+00	0	40	0	2910846976	51	4594
2026-01-07 13:06:09.60	319.20	19.93	-40.3	-42.1	21.2	0.00e+00	0	40	0	2916089856	51	4629
2026-01-07 13:06:10.60	319.34	19.83	-40.5	-42.2	21.1	0.00e+00	0	40	0	2922381312	51	4701
2026-01-07 13:06:11.59	319.49	19.72	-40.5	-42.3	21.0	0.00e+00	0	40	0	2927624192	51	4732
2026-01-07 13:06:12.58	319.64	19.62	-40.6	-42.4	20.9	0.00e+00	0	40	0	2932867072	51	4775
2026-01-07 13:06:13.58	319.78	19.52	-40.6	-42.4	20.9	0.00e+00	0	40	0	2939158528	51	4793
2026-01-07 13:06:14.57	319.92	19.41	-40.6	-42.4	20.9	0.00e+00	0	41	0	2944401408	51	4772
2026-01-07 13:06:15.56	320.07	19.31	-40.6	-42.4	20.9	0.00e+00	0	40	0	2949644288	51	4806
2026-01-07 13:06:16.56	320.21	19.21	-40.7	-42.5	20.8	0.00e+00	0	40	0	2955935744	51	4835
2026-01-07 13:06:17.57	320.35	19.11	-40.6	-42.4	20.8	0.00e+00	0	40	0	2961178624	52	4536
2026-01-07 13:06:18.56	320.49	19.00	-40.6	-42.4	20.8	0.00e+00	0	40	0	2966421504	52	4522
2026-01-07 13:06:19.56	320.63	18.90	-40.7	-42.5	20.7	0.00e+00	0	40	0	2972712960	52	4591
2026-01-07 13:06:20.56	320.77	18.80	-40.7	-42.5	20.7	0.00e+00	0	40	0	2977955840	52	4592
2026-01-07 13:06:21.56	320.91	18.70	-40.7	-42.5	20.7	0.00e+00	0	40	0	2983198720	52	4581
2026-01-07 13:06:22.55	321.04	18.60	-40.8	-42.6	20.6	0.00e+00	0	40	0	2989490176	52	4614
2026-01-07 13:06:23.55	321.18	18.50	-40.9	-42.7	20.6	0.00e+00	0	40	0	2994733056	52	4653
2026-01-07 13:06:24.55	321.31	18.40	-40.8	-42.6	20.6	0.00e+00	0	40	0	3001024512	52	4644
2026-01-07 13:06:25.55	321.45	18.30	-40.9	-42.7	20.5	0.00e+00	0	40	0	3006267392	52	4693
2026-01-07 13:06:26.55	321.58	18.20	-41.0	-42.8	20.4	0.00e+00	0	40	0	3011510272	52	4752
2026-01-07 13:06:27.54	321.71	18.10	-41.0	-42.8	20.4	0.00e+00	0	40	0	3017801728	52	4756
2026-01-07 13:06:28.53	321.84	18.00	-41.0	-42.8	20.5	0.00e+00	0	40	0	3023044608	52	4709
2026-01-07 13:06:29.53	321.97	17.90	-40.9	-42.7	20.5	0.00e+00	0	40	0	3028287488	52	4697
2026-01-07 13:06:30.53	322.10	17.80	-40.9	-42.7	20.5	0.00e+00	0	40	0	3033530368	52	4697
2026-01-07 13:06:31.52	322.23	17.70	-40.9	-42.7	20.5	0.00e+00	0	40	0	3039821824	52	4689
2026-01-07 13:06:32.52	322.36	17.60	-40.9	-42.7	20.5	0.00e+00	0	41	0	3045064704	52	4699
2026-01-07 13:06:33.52	322.49	17.51	-40.8	-42.7	20.6	0.00e+00	0	40	0	3051356160	52	4653
2026-01-07 13:06:34.52	322.62	17.41	-40.8	-42.6	20.6	0.00e+00	0	40	0	3056599040	52	4649
2026-01-07 13:06:35.51	322.74	17.31	-40.9	-42.7	20.5	0.00e+00	0	40	0	3061841920	52	4702
2026-01-07 13:06:36.51	322.87	17.21	-40.8	-42.7	20.5	0.00e+00	0	40	0	3068133376	52	4674
2026-01-07 13:06:37.50	322.99	17.12	-40.8	-42.6	20.6	0.00e+00	0	40	0	3073376256	52	4650
2026-01-07 13:06:38.50	323.11	17.02	-40.8	-42.7	20.5	0.00e+00	0	40	0	3078619136	52	4660
2026-01-07 13:06:39.50	323.24	16.92	-40.9	-42.8	20.4	0.00e+00	0	40	0	3084910592	52	4733
2026-01-07 13:06:40.49	323.36	16.83	-40.9	-42.8	20.4	0.00e+00	0	40	0	3090153472	52	4714
2026-01-07 13:06:41.49	323.48	16.73	-40.9	-42.7	20.5	0.00e+00	0	40	0	3095396352	52	4670
2026-01-07 13:06:42.49	323.60	16.64	-41.0	-42.8	20.4	0.00e+00	0	40	0	3101687808	52	4713
2026-01-07 13:06:43.48	323.72	16.54	-40.9	-42.7	20.5	0.00e+00	0	40	0	3106930688	52	4693
2026-01-07 13:06:44.48	323.84	16.45	-41.0	-42.8	20.4	0.00e+00	0	40	0	3112173568	52	4723
2026-01-07 13:06:45.47	323.96	16.35	-41.1	-42.9	20.4	0.00e+00	0	40	0	3118465024	52	4765
2026-01-07 13:06:46.47	324.07	16.26	-41.0	-42.8	20.4	0.00e+00	0	40	0	3123707904	52	4724
2026-01-07 13:06:47.47	324.19	16.16	-41.0	-42.8	20.4	0.00e+00	0	40	0	3128950784	52	4720
2026-01-07 13:06:48.46	324.31	16.07	-41.0	-42.8	20.4	0.00e+00	0	40	0	3135242240	52	4734
2026-01-07 13:06:49.46	324.42	15.97	-41.0	-42.8	20.4	0.00e+00	0	40	0	3140485120	52	4729
2026-01-07 13:06:50.45	324.54	15.88	-41.0	-42.8	20.4	0.00e+00	0	40	0	3145728000	52	4737
2026-01-07 13:06:51.45	324.65	15.79	-41.1	-42.9	20.3	0.00e+00	0	41	0	3152019456	52	4787
2026-01-07 13:06:52.45	324.77	15.69	-41.0	-42.8	20.4	0.00e+00	0	40	0	3157262336	52	4747
2026-01-07 13:06:53.45	324.88	15.60	-41.0	-42.9	20.3	0.00e+00	0	41	0	3163553792	52	4788
2026-01-07 13:06:54.44	324.99	15.51	-41.1	-42.9	20.3	0.00e+00	0	40	0	3168796672	52	4807
2026-01-07 13:06:55.44	325.10	15.42	-41.2	-43.1	20.2	0.00e+00	0	40	0	3174039552	52	4878
2026-01-07 13:06:56.44	325.21	15.32	-41.2	-43.1	20.1	0.00e+00	0	40	0	3180331008	53	4623
2026-01-07 13:06:57.44	325.32	15.23	-41.3	-43.2	20.1	0.00e+00	0	40	0	3185573888	53	4657
2026-01-07 13:06:58.44	325.43	15.14	-41.3	-43.2	20.0	0.00e+00	0	40	0	3190816768	53	4672
2026-01-07 13:06:59.44	325.54	15.05	-41.4	-43.3	19.9	0.00e+00	0	40	0	3197108224	53	4743
2026-01-07 13:07:00.43	325.65	14.96	-41.4	-43.3	19.9	0.00e+00	0	40	0	3202351104	53	4736
2026-01-07 13:07:01.43	325.76	14.87	-41.4	-43.4	19.9	0.00e+00	0	40	0	3207593984	53	4761
2026-01-07 13:07:02.43	325.86	14.78	-41.4	-43.3	19.9	0.00e+00	0	40	0	3213885440	53	4721
2026-01-07 13:07:03.42	325.97	14.69	-41.4	-43.3	19.9	0.00e+00	0	40	0	3219128320	53	4719
2026-01-07 13:07:04.42	326.08	14.60	-41.3	-43.2	20.0	0.00e+00	0	40	0	3224371200	53	4660
2026-01-07 13:07:05.41	326.18	14.51	-41.3	-43.2	19.9	0.00e+00	0	40	0	3230662656	53	4691
2026-01-07 13:07:06.41	326.29	14.42	-41.3	-43.2	20.0	0.00e+00	0	41	0	3235905536	53	4684
2026-01-07 13:07:07.41	326.39	14.33	-41.4	-43.3	19.9	0.00e+00	0	40	0	3241148416	53	4742
2026-01-07 13:07:08.41	326.49	14.24	-41.4	-43.3	19.9	0.00e+00	0	40	0	3247439872	53	4706
2026-01-07 13:07:09.41	326.60	14.15	-41.4	-43.3	19.9	0.00e+00	0	40	0	3252682752	53	4725
2026-01-07 13:07:10.41	326.70	14.06	-41.4	-43.3	19.9	0.00e+00	0	40	0	3257925632	53	4735
2026-01-07 13:07:11.40	326.80	13.97	-41.5	-43.4	19.7	0.00e+00	0	40	0	3264217088	53	4813
2026-01-07 13:07:12.40	326.90	13.88	-41.6	-43.5	19.7	0.00e+00	0	40	0	3269459968	53	4838
2026-01-07 13:07:13.40	327.00	13.80	-41.6	-43.5	19.7	0.00e+00	0	40	0	3275751424	53	4838
2026-01-07 13:07:14.40	327.10	13.71	-41.7	-43.7	19.5	0.00e+00	0	40	0	3280994304	54	4661
2026-01-07 13:07:15.40	327.20	13.62	-41.7	-43.6	19.6	0.00e+00	0	40	0	3286237184	54	4631
2026-01-07 13:07:16.40	327.30	13.53	-41.8	-43.7	19.4	0.00e+00	0	41	0	3292528640	54	4693
2026-01-07 13:07:17.40	327.40	13.45	-41.9	-43.8	19.4	0.00e+00	0	40	0	3297771520	54	4738
2026-01-07 13:07:18.39	327.49	13.36	-41.9	-43.8	19.3	0.00e+00	0	40	0	3303014400	54	4752
2026-01-07 13:07:19.39	327.59	13.27	-41.9	-43.8	19.3	0.00e+00	0	40	0	3309305856	54	4759
2026-01-07 13:07:20.39	327.69	13.19	-42.0	-44.0	19.2	0.00e+00	0	40	0	3314548736	54	4820
2026-01-07 13:07:21.39	327.79	13.10	-42.0	-44.0	19.2	0.00e+00	0	41	0	3319791616	54	4818
2026-01-07 13:07:22.38	327.88	13.01	-42.0	-43.9	19.3	0.00e+00	0	40	0	3326083072	54	4789
2026-01-07 13:07:23.38	327.98	12.93	-42.1	-44.0	19.2	0.00e+00	0	41	0	3331325952	54	4830
2026-01-07 13:07:24.38	328.07	12.84	-42.0	-43.9	19.3	0.00e+00	0	41	0	3336568832	54	4785
2026-01-07 13:07:25.38	328.16	12.76	-42.0	-43.9	19.2	0.00e+00	0	40	0	3342860288	54	4808
2026-01-07 13:07:26.37	328.26	12.67	-42.0	-43.9	19.3	0.00e+00	0	40	0	3348103168	54	4798
2026-01-07 13:07:27.37	328.35	12.59	-42.0	-43.9	19.2	0.00e+00	0	40	0	3353346048	54	4799
2026-01-07 13:07:28.37	328.44	12.50	-42.0	-44.0	19.2	0.00e+00	0	41	0	3359637504	54	4820
2026-01-07 13:07:29.37	328.53	12.42	-42.1	-44.0	19.2	0.00e+00	0	41	0	3364880384	54	4832
2026-01-07 13:07:30.36	328.63	12.34	-42.1	-44.0	19.1	0.00e+00	0	40	0	3370123264	54	4864
2026-01-07 13:07:31.36	328.72	12.25	-42.2	-44.1	19.1	0.00e+00	0	40	0	3376414720	55	4626
2026-01-07 13:07:32.35	328.81	12.17	-42.2	-44.1	19.0	0.00e+00	0	40	0	3381657600	55	4648
2026-01-07 13:07:33.35	328.90	12.09	-42.2	-44.2	19.0	0.00e+00	0	41	0	3387949056	55	4665
2026-01-07 13:07:34.35	328.99	12.00	-42.2	-44.1	19.0	0.00e+00	0	40	0	3393191936	55	4650
2026-01-07 13:07:35.34	329.07	11.92	-42.3	-44.3	18.9	0.00e+00	0	40	0	3398434816	55	4729
2026-01-07 13:07:36.34	329.16	11.84	-42.3	-44.3	18.9	0.00e+00	0	40	0	3404726272	55	4720
2026-01-07 13:07:37.34	329.25	11.76	-42.4	-44.4	18.8	0.00e+00	0	40	0	3409969152	55	4771
2026-01-07 13:07:38.34	329.34	11.67	-42.4	-44.4	18.8	0.00e+00	0	40	0	3415212032	55	4791
2026-01-07 13:07:39.34	329.43	11.59	-42.4	-44.4	18.8	0.00e+00	0	40	0	3421503488	55	4770
2026-01-07 13:07:40.34	329.51	11.51	-42.5	-44.4	18.7	0.00e+00	0	40	0	3426746368	55	4802
2026-01-07 13:07:41.34	329.60	11.43	-42.5	-44.5	18.7	0.00e+00	0	40	0	3431989248	55	4823
2026-01-07 13:07:42.33	329.68	11.35	-42.5	-44.5	18.7	0.00e+00	0	40	0	3438280704	55	4834
2026-01-07 13:07:43.33	329.77	11.27	-42.6	-44.6	18.6	0.00e+00	0	40	0	3443523584	55	4872
2026-01-07 13:07:44.33	329.85	11.19	-42.6	-44.6	18.6	0.00e+00	0	40	0	3448766464	55	4907
2026-01-07 13:07:45.32	329.94	11.11	-42.7	-44.7	18.5	0.00e+00	0	40	0	3455057920	55	4939
2026-01-07 13:07:46.32	330.02	11.02	-42.5	-44.5	18.7	0.00e+00	0	40	0	3460300800	55	4817
2026-01-07 13:07:47.32	330.11	10.94	-42.5	-44.5	18.6	0.00e+00	0	40	0	3465543680	55	4859
2026-01-07 13:07:48.31	330.19	10.86	-42.6	-44.6	18.6	0.00e+00	0	40	0	3471835136	55	4874
2026-01-07 13:07:49.31	330.27	10.78	-42.6	-44.5	18.6	0.00e+00	0	40	0	3477078016	55	4858
2026-01-07 13:07:50.31	330.35	10.71	-42.6	-44.5	18.6	0.00e+00	0	40	0	3483369472	55	4855
2026-01-07 13:07:51.30	330.44	10.63	-42.6	-44.5	18.6	0.00e+00	0	40	0	3488612352	55	4853
2026-01-07 13:07:52.30	330.52	10.55	-42.5	-44.5	18.6	0.00e+00	0	40	0	3493855232	55	4832
2026-01-07 13:07:53.30	330.60	10.47	-42.5	-44.5	18.7	0.00e+00	0	40	0	3500146688	55	4815
2026-01-07 13:07:54.30	330.68	10.39	-42.5	-44.4	18.7	0.00e+00	0	41	0	3505389568	55	4814
2026-01-07 13:07:55.30	330.76	10.31	-42.5	-44.5	18.6	0.00e+00	0	40	0	3510632448	55	4853
2026-01-07 13:07:56.29	330.84	10.23	-42.5	-44.5	18.6	0.00e+00	0	40	0	3516923904	55	4839
2026-01-07 13:07:57.29	330.92	10.15	-42.5	-44.5	18.6	0.00e+00	0	40	0	3522166784	55	4853
2026-01-07 13:07:58.29	331.00	10.08	-42.5	-44.5	18.6	0.00e+00	0	40	0	3527409664	55	4839
2026-01-07 13:07:59.29	331.08	10.00	-42.6	-44.6	18.5	0.00e+00	0	40	0	3533701120	55	4876
2026-01-07 13:08:00.29	331.15	9.92	-42.6	-44.6	18.5	0.00e+00	0	40	0	3538944000	55	4898
2026-01-07 13:08:01.28	331.23	9.84	-42.6	-44.6	18.5	0.00e+00	0	41	0	3544186880	55	4887
2026-01-07 13:08:02.27	331.31	9.77	-42.6	-44.7	18.4	0.00e+00	0	40	0	3550478336	55	4937
2026-01-07 13:08:03.27	331.39	9.69	-42.9	-45.0	18.3	0.00e+00	0	40	0	3555721216	56	4828
2026-01-07 13:08:04.27	331.46	9.61	-42.9	-45.0	18.3	0.00e+00	0	40	0	3560964096	56	4819
2026-01-07 13:08:05.27	331.54	9.54	-42.8	-44.9	18.3	0.00e+00	0	40	0	3567255552	56	4786
2026-01-07 13:08:06.27	331.61	9.46	-42.8	-44.9	18.4	0.00e+00	0	40	0	3572498432	56	4774
2026-01-07 13:08:07.26	331.69	9.38	-42.9	-45.0	18.2	0.00e+00	0	40	0	3577741312	56	4833
2026-01-07 13:08:08.26	331.77	9.31	-42.9	-45.0	18.2	0.00e+00	0	40	0	3584032768	56	4833
2026-01-07 13:08:09.26	331.84	9.23	-42.9	-44.9	18.3	0.00e+00	0	40	0	3589275648	56	4812
2026-01-07 13:08:10.26	331.91	9.16	-43.0	-45.1	18.1	0.00e+00	0	40	0	3595567104	56	4892
2026-01-07 13:08:11.26	331.99	9.08	-43.0	-45.1	18.1	0.00e+00	0	40	0	3600809984	56	4893
2026-01-07 13:08:12.26	332.06	9.01	-43.0	-45.1	18.2	0.00e+00	0	40	0	3606052864	56	4876
2026-01-07 13:08:13.25	332.14	8.93	-52.1	-64.6	3.8	8.43e-01	0	40	104	3610247168	74	16397
2026-01-07 13:08:14.25	332.21	8.86	-52.2	-64.7	3.8	8.46e-01	0	40	104	3610247168	75	15652
2026-01-07 13:08:15.24	332.28	8.78	-51.3	-64.9	3.8	8.47e-01	0	41	104	3610247168	74	16996
