passes_logs/2026/01/07/T1/T1__20260107_215658_NOAA_21_JPSS-2_rec.log

#Pass ID: 20260107_215658_NOAA 21 (JPSS-2)
#Satellite: NOAA 21 (JPSS-2)
#Configuration: NOAA 21
#almurnet v.1.7.20251203
#Start time: 2026-01-07 21:57:00

#Version: 2.0.20230620
#Station: T1
#Location: 37.570604 lon 55.790049 lat
#TLE: 1 54234U 22150A   26005.56767909  .00000152  00000+0  92756-4 0  9990
#TLE: 2 54234  98.7490 306.5820 0001036 340.2747  19.8389 14.19532370163472

#Time	Az	El	Level	Level2	SNR	BER	BlckErr	Temp	State	Recorded	gain1	gain2
2026-01-07 21:57:00.74	32.78	5.13	-52.1	-65.3	3.8	1.49e+00	0	37	0	0	76	15888
2026-01-07 21:57:01.74	32.88	5.18	-52.1	-65.3	3.8	1.49e+00	0	37	104	0	74	17835
2026-01-07 21:57:02.74	32.98	5.23	-52.0	-65.3	3.8	1.49e+00	0	37	104	0	74	17781
2026-01-07 21:57:03.74	33.08	5.29	-52.0	-65.3	3.8	1.49e+00	0	37	104	0	74	17888
2026-01-07 21:57:04.75	33.18	5.34	-52.0	-65.3	3.8	1.49e+00	0	37	104	0	74	17748
2026-01-07 21:57:05.75	33.28	5.39	-52.0	-65.3	3.8	1.49e+00	0	37	104	0	74	17809
2026-01-07 21:57:06.76	33.38	5.45	-52.0	-65.3	3.8	1.49e+00	0	37	104	0	74	17718
2026-01-07 21:57:07.76	33.49	5.50	-52.0	-65.3	3.8	1.49e+00	0	37	104	0	74	17748
2026-01-07 21:57:08.77	33.59	5.56	-52.0	-65.3	3.8	1.49e+00	0	37	104	0	74	17772
2026-01-07 21:57:09.77	33.69	5.61	-52.0	-65.3	3.8	1.49e+00	0	37	104	0	74	17814
2026-01-07 21:57:10.77	33.80	5.67	-52.0	-65.3	3.8	1.49e+00	0	37	104	0	74	17802
2026-01-07 21:57:11.78	33.90	5.72	-52.0	-65.3	3.8	1.49e+00	0	37	104	0	74	17698
2026-01-07 21:57:12.78	34.00	5.77	-52.0	-65.3	3.8	1.49e+00	0	37	104	0	74	17722
2026-01-07 21:57:13.79	34.11	5.83	-52.0	-65.3	3.8	1.49e+00	0	37	104	0	74	17699
2026-01-07 21:57:14.79	34.21	5.88	-52.0	-65.2	3.8	1.49e+00	0	37	104	0	74	17668
2026-01-07 21:57:15.80	34.32	5.94	-52.0	-65.3	3.8	1.49e+00	0	37	104	0	74	17761
2026-01-07 21:57:16.80	34.43	5.99	-52.0	-65.3	3.8	1.49e+00	0	37	104	0	74	17778
2026-01-07 21:57:17.81	34.53	6.05	-52.0	-65.3	3.8	1.49e+00	0	37	104	0	74	17722
2026-01-07 21:57:18.81	34.64	6.10	-52.0	-65.3	3.8	1.49e+00	0	37	104	0	74	17776
2026-01-07 21:57:19.81	34.75	6.16	-52.0	-65.3	3.8	1.49e+00	0	37	104	0	74	17823
2026-01-07 21:57:20.82	34.85	6.21	-52.0	-65.2	3.8	1.49e+00	0	37	104	0	74	17676
2026-01-07 21:57:21.83	34.96	6.27	-52.0	-65.3	3.8	1.49e+00	0	37	104	0	74	17807
2026-01-07 21:57:22.83	35.07	6.32	-52.0	-65.3	3.8	1.49e+00	0	37	104	0	74	17782
2026-01-07 21:57:23.83	35.18	6.37	-52.0	-65.3	3.8	1.49e+00	0	38	104	0	74	17741
2026-01-07 21:57:24.84	35.29	6.43	-52.0	-65.3	3.8	1.49e+00	0	37	104	0	74	17823
2026-01-07 21:57:25.84	35.40	6.48	-52.0	-65.3	3.8	1.49e+00	0	37	104	0	74	17781
2026-01-07 21:57:26.85	35.51	6.54	-52.0	-65.3	3.8	1.49e+00	0	37	104	0	74	17792
2026-01-07 21:57:27.85	35.62	6.59	-52.0	-65.3	3.8	1.49e+00	0	37	104	0	74	17744
2026-01-07 21:57:28.85	35.73	6.65	-52.0	-65.3	3.8	1.49e+00	0	38	104	0	74	17686
2026-01-07 21:57:29.86	35.84	6.70	-52.0	-65.3	3.8	1.49e+00	0	38	104	0	74	17733
2026-01-07 21:57:30.86	35.95	6.76	-52.0	-65.2	3.8	1.49e+00	0	38	104	0	74	17653
2026-01-07 21:57:31.87	36.06	6.81	-52.0	-65.2	3.8	1.49e+00	0	38	104	0	74	17524
2026-01-07 21:57:32.87	36.17	6.87	-52.0	-65.2	3.8	1.49e+00	0	37	104	0	74	17514
2026-01-07 21:57:33.88	36.28	6.92	-52.0	-65.2	3.8	1.49e+00	0	38	104	0	74	17492
2026-01-07 21:57:34.88	36.40	6.98	-52.0	-65.1	3.8	1.49e+00	0	38	104	0	74	17457
2026-01-07 21:57:35.89	36.51	7.03	-52.0	-65.1	3.8	1.49e+00	0	38	104	0	74	17469
2026-01-07 21:57:36.89	36.62	7.09	-52.0	-65.2	3.8	1.49e+00	0	38	104	0	74	17526
2026-01-07 21:57:37.89	36.74	7.14	-52.0	-65.2	3.8	1.49e+00	0	38	104	0	74	17616
2026-01-07 21:57:38.90	36.85	7.20	-52.0	-65.2	3.8	1.49e+00	0	38	104	0	74	17682
2026-01-07 21:57:39.90	36.97	7.25	-52.0	-65.2	3.8	1.49e+00	0	38	104	0	74	17683
2026-01-07 21:57:40.91	37.08	7.31	-52.0	-65.3	3.8	1.49e+00	0	38	104	0	74	17757
2026-01-07 21:57:41.91	37.20	7.36	-52.0	-65.3	3.8	1.49e+00	0	38	104	0	74	17735
2026-01-07 21:57:42.92	37.32	7.42	-52.0	-65.3	3.8	1.49e+00	0	38	104	0	74	17712
2026-01-07 21:57:43.92	37.43	7.48	-52.0	-65.2	3.8	1.49e+00	0	38	104	0	74	17670
2026-01-07 21:57:44.92	37.55	7.53	-52.0	-65.1	3.8	1.49e+00	0	38	104	0	74	17481
2026-01-07 21:57:45.93	37.67	7.59	-52.0	-65.2	3.8	1.49e+00	0	38	104	0	74	17492
2026-01-07 21:57:46.93	37.78	7.64	-52.0	-65.2	3.8	1.49e+00	0	38	104	0	74	17489
2026-01-07 21:57:47.94	37.90	7.70	-52.0	-65.2	3.8	1.49e+00	0	38	104	0	74	17601
2026-01-07 21:57:48.94	38.02	7.75	-52.0	-65.3	3.8	1.49e+00	0	38	104	0	74	17690
2026-01-07 21:57:49.95	38.14	7.81	-52.0	-65.2	3.8	1.49e+00	0	38	104	0	74	17627
2026-01-07 21:57:50.95	38.26	7.86	-52.0	-65.2	3.8	1.49e+00	0	38	104	0	74	17540
2026-01-07 21:57:51.96	38.38	7.92	-52.0	-65.0	3.8	1.49e+00	0	38	104	0	74	17182
2026-01-07 21:57:52.96	38.50	7.97	-52.0	-64.9	3.8	1.49e+00	0	38	104	0	74	17075
2026-01-07 21:57:53.96	38.62	8.03	-52.0	-64.8	3.8	1.49e+00	0	38	104	0	74	16866
2026-01-07 21:57:54.97	38.74	8.08	-52.0	-64.9	3.8	1.49e+00	0	38	104	0	74	16915
2026-01-07 21:57:55.97	38.86	8.14	-52.0	-64.9	3.8	1.49e+00	0	38	104	0	74	17052
2026-01-07 21:57:56.98	38.99	8.20	-52.0	-65.0	3.8	1.49e+00	0	38	104	0	74	17223
2026-01-07 21:57:57.98	39.11	8.25	-52.0	-65.2	3.8	1.49e+00	0	38	104	0	74	17508
2026-01-07 21:57:58.99	39.23	8.31	-52.0	-65.1	3.8	1.49e+00	0	38	104	0	74	17481
2026-01-07 21:57:59.99	39.36	8.36	-52.0	-65.2	3.8	1.49e+00	0	38	104	0	74	17594
2026-01-07 21:58:01.00	39.48	8.42	-52.0	-65.3	3.8	1.49e+00	0	38	104	0	74	17744
2026-01-07 21:58:02.00	39.61	8.47	-52.0	-65.2	3.8	1.49e+00	0	38	104	0	74	17672
2026-01-07 21:58:03.00	39.73	8.53	-52.0	-65.0	3.8	1.49e+00	0	38	104	0	74	17269
2026-01-07 21:58:04.01	39.86	8.58	-52.0	-64.6	3.8	1.49e+00	0	38	104	0	74	16471
2026-01-07 21:58:05.01	39.98	8.64	-51.9	-64.3	3.8	1.49e+00	0	38	104	0	74	15823
2026-01-07 21:58:06.02	40.11	8.70	-51.9	-63.8	3.8	1.49e+00	0	38	104	0	74	14886
2026-01-07 21:58:07.02	40.23	8.75	-51.9	-63.2	3.9	1.49e+00	0	39	104	0	74	14014
2026-01-07 21:58:08.03	40.36	8.81	-51.8	-63.5	3.9	1.49e+00	0	38	104	0	74	14407
2026-01-07 21:58:09.03	40.49	8.86	-51.8	-63.5	3.8	1.49e+00	0	39	104	0	74	14415
2026-01-07 21:58:10.04	40.62	8.92	-51.8	-63.0	3.9	1.48e+00	0	38	104	0	74	13664
2026-01-07 21:58:11.04	40.75	8.97	-51.6	-61.3	4.0	1.46e+00	0	38	104	0	74	11277
2026-01-07 21:58:12.04	40.88	9.03	-51.0	-58.2	5.9	4.58e-01	0	38	0	0	74	7893
2026-01-07 21:58:13.05	41.01	9.09	-51.2	-58.2	6.1	3.22e-01	0	39	0	0	73	8274
2026-01-07 21:58:14.28	41.17	9.15	-51.8	-62.5	3.9	1.48e+00	0	39	104	0	74	12894
2026-01-07 21:58:15.15	41.28	9.20	-49.3	-53.5	10.6	4.38e-03	0	39	0	0	70	5759
2026-01-07 21:58:16.29	41.43	9.26	-51.2	-59.8	4.1	1.49e+00	0	38	104	0	74	9486
2026-01-07 21:58:17.16	41.54	9.31	-46.6	-49.3	14.7	5.30e-06	0	38	0	0	65	4729
2026-01-07 21:58:18.56	41.73	9.39	-46.5	-49.1	15.0	0.00e+00	0	38	0	0	65	4617
2026-01-07 21:58:19.28	41.82	9.43	-46.1	-48.5	15.5	0.00e+00	0	39	0	0	64	4581
2026-01-07 21:58:20.57	41.99	9.50	-45.6	-47.9	16.1	0.00e+00	0	39	0	0	63	4541
2026-01-07 21:58:21.28	42.09	9.54	-45.5	-47.7	16.3	0.00e+00	0	39	0	0	62	4676
2026-01-07 21:58:22.57	42.26	9.61	-45.3	-47.5	16.6	0.00e+00	0	39	0	0	62	4564
2026-01-07 21:58:23.29	42.36	9.65	-45.3	-47.5	16.5	0.00e+00	0	39	0	0	62	4595
2026-01-07 21:58:24.58	42.53	9.72	-45.2	-47.3	16.7	0.00e+00	0	39	0	0	62	4477
2026-01-07 21:58:25.29	42.63	9.76	-45.1	-47.2	16.7	0.00e+00	0	39	0	0	62	4441
2026-01-07 21:58:26.58	42.80	9.83	-44.9	-47.0	17.0	0.00e+00	0	39	0	0	61	4555
2026-01-07 21:58:27.30	42.90	9.87	-44.8	-46.9	17.0	0.00e+00	0	39	0	0	61	4525
2026-01-07 21:58:28.62	43.08	9.95	-44.8	-46.8	17.1	0.00e+00	0	38	0	0	61	4489
2026-01-07 21:58:29.34	43.18	9.99	-44.7	-46.8	17.1	0.00e+00	0	39	0	0	61	4464
2026-01-07 21:58:30.63	43.36	10.06	-44.8	-46.9	17.1	0.00e+00	0	39	0	0	61	4513
2026-01-07 21:58:31.34	43.45	10.10	-44.8	-46.9	17.1	0.00e+00	0	39	0	0	61	4516
2026-01-07 21:58:32.76	43.65	10.18	-44.8	-46.9	17.1	0.00e+00	0	39	0	0	61	4511
2026-01-07 21:58:33.48	43.75	10.21	-44.8	-46.8	17.2	0.00e+00	0	39	0	0	61	4493
2026-01-07 21:58:34.76	43.93	10.29	-44.8	-46.8	17.2	0.00e+00	0	39	0	0	61	4480
2026-01-07 21:58:35.48	44.03	10.33	-44.8	-46.8	17.2	0.00e+00	0	39	0	0	61	4480
2026-01-07 21:58:36.77	44.21	10.40	-44.7	-46.8	17.3	0.00e+00	0	39	0	0	61	4450
2026-01-07 21:58:37.49	44.31	10.44	-44.6	-46.6	17.4	0.00e+00	0	39	0	0	61	4362
2026-01-07 21:58:38.78	44.50	10.51	-44.5	-46.5	17.5	0.00e+00	0	39	0	0	60	4569
2026-01-07 21:58:39.50	44.60	10.55	-44.4	-46.4	17.5	0.00e+00	0	39	0	0	60	4540
2026-01-07 21:58:40.78	44.78	10.62	-44.3	-46.3	17.7	0.00e+00	0	39	0	0	60	4473
2026-01-07 21:58:41.50	44.89	10.66	-44.3	-46.3	17.7	0.00e+00	0	39	0	0	60	4486
2026-01-07 21:58:42.79	45.07	10.73	-44.3	-46.3	17.7	0.00e+00	0	39	0	0	60	4461
2026-01-07 21:58:43.51	45.18	10.77	-44.3	-46.3	17.7	0.00e+00	0	39	0	0	60	4459
2026-01-07 21:58:44.80	45.36	10.84	-44.4	-46.4	17.6	0.00e+00	0	39	0	0	60	4514
2026-01-07 21:58:45.52	45.47	10.88	-44.4	-46.4	17.6	0.00e+00	0	39	0	0	60	4504
2026-01-07 21:58:46.81	45.66	10.95	-44.3	-46.3	17.7	0.00e+00	0	39	0	0	60	4464
2026-01-07 21:58:47.52	45.76	10.99	-44.3	-46.3	17.7	0.00e+00	0	39	0	0	60	4473
2026-01-07 21:58:48.82	45.95	11.06	-44.3	-46.3	17.6	0.00e+00	0	39	0	0	60	4490
2026-01-07 21:58:49.53	46.06	11.10	-44.3	-46.3	17.6	0.00e+00	0	39	0	0	60	4481
2026-01-07 21:58:50.82	46.25	11.17	-44.3	-46.3	17.7	0.00e+00	0	39	0	0	60	4483
2026-01-07 21:58:51.54	46.35	11.21	-44.3	-46.3	17.7	0.00e+00	0	39	0	0	60	4476
2026-01-07 21:58:52.83	46.55	11.28	-44.4	-46.3	17.7	0.00e+00	0	39	0	0	60	4481
2026-01-07 21:58:53.55	46.65	11.32	-44.3	-46.3	17.7	0.00e+00	0	39	0	0	60	4478
2026-01-07 21:58:55.03	46.88	11.40	-44.3	-46.3	17.7	0.00e+00	0	39	0	0	60	4470
2026-01-07 21:58:55.74	46.98	11.43	-44.5	-46.5	17.6	0.00e+00	0	39	0	0	60	4549
2026-01-07 21:58:57.10	47.19	11.51	-44.5	-46.5	17.6	0.00e+00	0	39	0	0	60	4550
2026-01-07 21:58:57.81	47.30	11.55	-44.5	-46.5	17.6	0.00e+00	0	39	0	0	60	4558
2026-01-07 21:58:59.18	47.51	11.62	-44.4	-46.3	17.7	0.00e+00	0	39	0	0	60	4482
2026-01-07 21:59:00.14	47.65	11.67	-44.4	-46.3	17.7	0.00e+00	0	39	0	0	60	4489
2026-01-07 21:59:01.48	47.86	11.74	-44.2	-46.2	17.9	0.00e+00	0	39	0	0	60	4412
2026-01-07 21:59:02.19	47.97	11.78	-44.2	-46.2	17.9	0.00e+00	0	39	0	0	60	4419
2026-01-07 21:59:03.48	48.17	11.85	-44.2	-46.1	18.0	0.00e+00	0	39	0	0	60	4365
2026-01-07 21:59:04.20	48.28	11.89	-44.2	-46.2	17.9	0.00e+00	0	39	0	0	60	4398
2026-01-07 21:59:05.49	48.48	11.96	-44.1	-46.0	18.0	0.00e+00	0	39	0	0	60	4312
2026-01-07 21:59:06.21	48.60	12.00	-44.0	-45.9	18.1	0.00e+00	0	39	0	0	60	4269
2026-01-07 21:59:07.50	48.80	12.07	-44.0	-45.9	18.1	0.00e+00	0	39	0	0	60	4276
2026-01-07 21:59:08.21	48.91	12.11	-44.0	-45.9	18.1	0.00e+00	0	39	0	0	59	4497
2026-01-07 21:59:09.51	49.12	12.18	-44.0	-45.9	18.1	0.00e+00	0	39	0	0	59	4523
2026-01-07 21:59:10.22	49.23	12.21	-44.0	-45.9	18.0	0.00e+00	0	39	0	0	59	4541
2026-01-07 21:59:11.58	49.45	12.29	-44.1	-46.0	18.0	0.00e+00	0	39	0	0	59	4561
2026-01-07 21:59:12.30	49.56	12.32	-44.1	-46.0	18.0	0.00e+00	0	39	0	0	59	4562
2026-01-07 21:59:13.66	49.78	12.40	-44.1	-46.0	18.0	0.00e+00	0	39	0	0	59	4549
2026-01-07 21:59:14.38	49.90	12.43	-44.1	-46.0	17.9	0.00e+00	0	39	0	0	59	4591
2026-01-07 21:59:15.68	50.11	12.50	-44.0	-45.9	18.1	0.00e+00	0	39	0	0	59	4524
2026-01-07 21:59:16.39	50.22	12.54	-44.1	-46.0	18.0	0.00e+00	0	39	0	0	59	4566
2026-01-07 21:59:17.84	50.46	12.62	-44.1	-46.0	18.0	0.00e+00	0	39	0	0	59	4565
2026-01-07 21:59:18.56	50.58	12.66	-44.1	-46.0	18.0	0.00e+00	0	39	0	0	59	4590
2026-01-07 21:59:19.84	50.79	12.72	-44.1	-46.0	18.0	0.00e+00	0	39	0	0	59	4584
2026-01-07 21:59:20.56	50.90	12.76	-44.2	-46.1	17.9	0.00e+00	0	39	0	0	59	4650
2026-01-07 21:59:21.85	51.12	12.83	-44.2	-46.2	17.9	0.00e+00	0	39	0	0	59	4655
2026-01-07 21:59:22.58	51.24	12.87	-44.3	-46.2	17.8	0.00e+00	0	39	0	0	59	4688
2026-01-07 21:59:24.08	51.49	12.94	-44.2	-46.2	17.9	0.00e+00	0	39	0	0	59	4654
2026-01-07 21:59:24.80	51.61	12.98	-44.1	-46.0	18.0	0.00e+00	0	39	0	0	59	4594
2026-01-07 21:59:26.08	51.82	13.05	-44.1	-46.0	18.0	0.00e+00	0	39	0	0	59	4597
2026-01-07 21:59:26.80	51.95	13.09	-44.1	-46.0	18.0	0.00e+00	0	39	0	0	59	4596
2026-01-07 21:59:28.19	52.18	13.16	-44.1	-46.1	18.0	0.00e+00	0	39	0	0	59	4601
2026-01-07 21:59:28.90	52.30	13.19	-44.1	-46.0	18.0	0.00e+00	0	39	0	0	59	4550
2026-01-07 21:59:30.19	52.52	13.26	-44.1	-46.0	18.0	0.00e+00	0	39	0	0	59	4582
2026-01-07 21:59:31.23	52.70	13.31	-44.2	-46.1	17.9	0.00e+00	0	39	0	0	59	4637
2026-01-07 21:59:32.56	52.93	13.38	-44.2	-46.1	17.9	0.00e+00	0	39	0	0	59	4629
2026-01-07 21:59:33.28	53.05	13.42	-44.2	-46.1	17.9	0.00e+00	0	39	0	0	59	4635
2026-01-07 21:59:34.57	53.27	13.48	-44.3	-46.3	17.7	0.00e+00	0	39	0	0	59	4725
2026-01-07 21:59:35.28	53.40	13.52	-44.3	-46.3	17.7	0.00e+00	0	39	0	0	59	4707
2026-01-07 21:59:36.57	53.62	13.59	-44.4	-46.4	17.7	0.00e+00	0	39	0	0	59	4762
2026-01-07 21:59:37.29	53.75	13.62	-44.4	-46.4	17.6	0.00e+00	0	39	0	0	59	4799
2026-01-07 21:59:38.58	53.97	13.69	-44.4	-46.4	17.6	0.00e+00	0	39	0	0	59	4795
2026-01-07 21:59:39.55	54.14	13.74	-44.3	-46.3	17.8	0.00e+00	0	39	0	0	59	4734
2026-01-07 21:59:40.55	54.32	13.79	-44.2	-46.2	17.9	0.00e+00	0	39	0	0	59	4675
2026-01-07 21:59:41.55	54.49	13.84	-44.3	-46.2	17.9	0.00e+00	0	39	0	0	59	4678
2026-01-07 21:59:42.56	54.67	13.89	-44.2	-46.1	17.9	0.00e+00	0	39	0	0	59	4645
2026-01-07 21:59:43.56	54.85	13.93	-44.3	-46.2	17.9	0.00e+00	0	39	0	0	59	4665
2026-01-07 21:59:44.56	55.03	13.98	-44.1	-46.0	18.0	0.00e+00	0	39	0	0	59	4590
2026-01-07 21:59:45.57	55.21	14.03	-44.1	-46.0	18.0	0.00e+00	0	39	0	0	59	4586
2026-01-07 21:59:46.57	55.39	14.08	-44.1	-46.0	18.1	0.00e+00	0	39	0	0	59	4563
2026-01-07 21:59:47.57	55.57	14.13	-44.1	-46.0	18.0	0.00e+00	0	39	0	0	59	4574
2026-01-07 21:59:48.58	55.75	14.18	-44.1	-46.1	18.0	0.00e+00	0	39	0	0	59	4601
2026-01-07 21:59:49.67	55.95	14.23	-44.1	-46.0	18.0	0.00e+00	0	39	0	0	59	4563
2026-01-07 21:59:50.55	56.11	14.28	-44.2	-46.1	17.9	0.00e+00	0	39	0	0	59	4616
2026-01-07 21:59:51.70	56.32	14.33	-44.3	-46.2	17.8	0.00e+00	0	39	0	0	59	4678
2026-01-07 21:59:52.59	56.49	14.38	-44.2	-46.1	18.0	0.00e+00	0	39	0	0	59	4628
2026-01-07 21:59:53.87	56.72	14.44	-44.2	-46.1	17.9	0.00e+00	0	39	0	0	59	4650
2026-01-07 21:59:54.60	56.86	14.47	-44.2	-46.1	18.0	0.00e+00	0	39	0	0	59	4646
2026-01-07 21:59:55.90	57.10	14.53	-44.2	-46.2	17.9	0.00e+00	0	39	0	0	59	4666
2026-01-07 21:59:56.61	57.23	14.57	-44.2	-46.1	18.0	0.00e+00	0	39	0	0	59	4624
2026-01-07 21:59:57.90	57.47	14.63	-44.1	-46.0	18.1	0.00e+00	0	39	0	0	59	4563
2026-01-07 21:59:58.62	57.60	14.66	-44.0	-45.9	18.3	0.00e+00	0	39	0	0	59	4505
2026-01-07 22:00:00.26	57.91	14.74	-43.9	-45.8	18.3	0.00e+00	0	39	0	0	59	4473
2026-01-07 22:00:01.07	58.06	14.78	-43.9	-45.8	18.2	0.00e+00	0	39	0	0	59	4481
2026-01-07 22:00:02.22	58.28	14.83	-44.0	-45.9	18.2	0.00e+00	0	39	0	0	59	4494
2026-01-07 22:00:03.08	58.44	14.87	-43.9	-45.8	18.2	0.00e+00	0	39	0	0	59	4471
2026-01-07 22:00:04.26	58.67	14.92	-44.0	-45.9	18.1	0.00e+00	0	39	0	0	59	4509
2026-01-07 22:00:05.11	58.83	14.96	-44.1	-46.0	18.0	0.00e+00	0	39	0	0	59	4546
2026-01-07 22:00:06.34	59.06	15.02	-44.0	-45.9	18.1	0.00e+00	0	39	0	0	59	4512
2026-01-07 22:00:07.20	59.23	15.06	-44.0	-45.9	18.1	0.00e+00	0	39	0	0	59	4517
2026-01-07 22:00:08.35	59.45	15.11	-44.1	-46.0	18.0	0.00e+00	0	39	0	0	59	4590
2026-01-07 22:00:09.21	59.61	15.15	-44.1	-46.0	18.1	0.00e+00	0	39	0	0	59	4566
2026-01-07 22:00:10.48	59.86	15.20	-44.0	-45.9	18.2	0.00e+00	0	39	0	0	59	4506
2026-01-07 22:00:11.19	60.00	15.24	-43.9	-45.8	18.3	0.00e+00	0	39	0	0	59	4477
2026-01-07 22:00:12.49	60.25	15.29	-44.0	-45.9	18.2	0.00e+00	0	39	0	0	59	4541
2026-01-07 22:00:13.20	60.39	15.32	-44.0	-45.9	18.2	0.00e+00	0	39	0	0	59	4496
2026-01-07 22:00:14.49	60.64	15.38	-43.8	-45.6	18.4	0.00e+00	0	39	0	0	59	4376
2026-01-07 22:00:15.21	60.78	15.41	-43.7	-45.6	18.4	0.00e+00	0	39	0	0	59	4363
2026-01-07 22:00:16.50	61.04	15.47	-43.9	-45.7	18.3	0.00e+00	0	39	0	0	59	4427
2026-01-07 22:00:17.22	61.18	15.50	-44.0	-45.9	18.2	0.00e+00	0	39	0	0	59	4497
2026-01-07 22:00:18.51	61.43	15.55	-43.8	-45.7	18.3	0.00e+00	0	39	0	0	59	4415
2026-01-07 22:00:19.38	61.61	15.59	-43.8	-45.6	18.4	0.00e+00	0	39	0	0	59	4369
2026-01-07 22:00:20.83	61.90	15.65	-43.7	-45.6	18.4	0.00e+00	0	39	0	0	59	4351
2026-01-07 22:00:21.55	62.04	15.68	-43.7	-45.6	18.5	0.00e+00	0	39	0	0	59	4368
2026-01-07 22:00:22.84	62.30	15.74	-43.8	-45.6	18.4	0.00e+00	0	39	0	0	59	4388
2026-01-07 22:00:23.56	62.44	15.77	-43.7	-45.6	18.4	0.00e+00	0	39	0	0	59	4368
2026-01-07 22:00:24.85	62.70	15.82	-43.5	-45.3	18.7	0.00e+00	0	39	0	0	59	4235
2026-01-07 22:00:25.60	62.85	15.85	-43.5	-45.4	18.7	0.00e+00	0	39	0	0	59	4249
2026-01-07 22:00:27.22	63.18	15.92	-43.5	-45.3	18.7	0.00e+00	0	39	0	0	59	4234
2026-01-07 22:00:27.80	63.30	15.94	-43.6	-45.4	18.6	0.00e+00	0	39	0	0	59	4274
2026-01-07 22:00:29.37	63.62	16.00	-43.7	-45.5	18.5	0.00e+00	0	39	0	0	59	4315
2026-01-07 22:00:29.96	63.74	16.03	-43.6	-45.4	18.6	0.00e+00	0	39	0	0	59	4290
2026-01-07 22:00:31.54	64.07	16.09	-43.7	-45.5	18.5	0.00e+00	0	39	0	0	59	4339
2026-01-07 22:00:32.18	64.20	16.11	-43.7	-45.6	18.5	0.00e+00	0	39	0	0	59	4352
2026-01-07 22:00:33.62	64.49	16.17	-43.7	-45.5	18.5	0.00e+00	0	39	0	0	59	4309
2026-01-07 22:00:34.33	64.64	16.20	-43.7	-45.5	18.6	0.00e+00	0	39	0	0	59	4324
2026-01-07 22:00:35.62	64.91	16.25	-43.7	-45.5	18.6	0.00e+00	0	39	0	0	59	4328
2026-01-07 22:00:36.45	65.08	16.28	-43.7	-45.5	18.5	0.00e+00	0	39	0	0	59	4325
2026-01-07 22:00:37.60	65.32	16.32	-43.6	-45.4	18.6	0.00e+00	0	39	0	0	59	4269
2026-01-07 22:00:38.46	65.50	16.35	-43.4	-45.2	18.8	0.00e+00	0	39	0	0	58	4416
2026-01-07 22:00:39.60	65.74	16.39	-43.4	-45.2	18.8	0.00e+00	0	39	0	0	58	4436
2026-01-07 22:00:40.46	65.92	16.43	-43.4	-45.2	18.8	0.00e+00	0	39	0	0	58	4437
2026-01-07 22:00:41.61	66.16	16.47	-43.5	-45.3	18.8	0.00e+00	0	39	0	0	58	4461
2026-01-07 22:00:42.47	66.34	16.50	-43.4	-45.2	18.8	0.00e+00	0	39	0	0	58	4436
2026-01-07 22:00:43.62	66.58	16.54	-43.3	-45.1	18.9	0.00e+00	0	39	0	0	58	4353
2026-01-07 22:00:44.48	66.77	16.57	-43.3	-45.1	18.9	0.00e+00	0	40	0	0	58	4385
2026-01-07 22:00:45.62	67.01	16.61	-43.3	-45.1	18.9	0.00e+00	0	39	0	0	58	4382
2026-01-07 22:00:46.48	67.19	16.64	-43.2	-45.0	19.0	0.00e+00	0	39	0	0	58	4331
2026-01-07 22:00:47.63	67.44	16.68	-43.3	-45.1	18.9	0.00e+00	0	40	0	0	58	4353
2026-01-07 22:00:48.49	67.62	16.71	-43.3	-45.1	18.9	0.00e+00	0	39	0	0	58	4368
2026-01-07 22:00:49.64	67.87	16.75	-43.4	-45.2	18.9	0.00e+00	0	39	0	0	58	4396
2026-01-07 22:00:50.50	68.05	16.78	-43.3	-45.1	18.9	0.00e+00	0	39	0	0	58	4389
2026-01-07 22:00:51.64	68.30	16.81	-43.4	-45.2	18.8	0.00e+00	0	39	0	0	58	4404
2026-01-07 22:00:52.50	68.48	16.84	-43.3	-45.0	19.0	0.00e+00	0	39	0	0	58	4340
2026-01-07 22:00:53.65	68.73	16.88	-43.3	-45.0	18.9	0.00e+00	0	40	0	0	58	4335
2026-01-07 22:00:54.51	68.92	16.91	-43.2	-44.9	19.1	0.00e+00	0	39	0	0	58	4288
2026-01-07 22:00:55.66	69.17	16.94	-43.2	-45.0	19.0	0.00e+00	0	40	0	0	58	4307
2026-01-07 22:00:56.52	69.35	16.97	-43.2	-45.0	19.0	0.00e+00	0	39	0	0	58	4313
2026-01-07 22:00:57.67	69.60	17.01	-43.3	-45.1	18.9	0.00e+00	0	39	0	0	58	4352
2026-01-07 22:00:58.53	69.79	17.03	-43.2	-45.0	18.9	0.00e+00	0	39	0	0	58	4322
2026-01-07 22:00:59.68	70.04	17.07	-43.3	-45.1	18.8	0.00e+00	0	40	0	0	58	4377
2026-01-07 22:01:00.54	70.23	17.09	-43.4	-45.2	18.8	0.00e+00	0	39	0	0	58	4411
2026-01-07 22:01:01.68	70.48	17.13	-43.4	-45.2	18.8	0.00e+00	0	40	0	0	58	4433
2026-01-07 22:01:02.54	70.67	17.15	-43.4	-45.2	18.9	0.00e+00	0	39	0	0	58	4395
2026-01-07 22:01:03.88	70.97	17.19	-43.2	-45.0	19.0	0.00e+00	0	39	0	0	58	4327
2026-01-07 22:01:04.60	71.13	17.21	-43.3	-45.1	19.0	0.00e+00	0	39	0	0	58	4347
2026-01-07 22:01:06.08	71.45	17.25	-43.2	-45.0	19.0	0.00e+00	0	40	0	0	58	4303
2026-01-07 22:01:06.80	71.61	17.27	-43.2	-45.0	19.0	0.00e+00	0	39	0	0	58	4306
2026-01-07 22:01:08.15	71.91	17.31	-43.3	-45.1	18.9	0.00e+00	0	40	0	0	58	4369
2026-01-07 22:01:08.86	72.07	17.33	-43.2	-45.0	19.0	0.00e+00	0	39	0	0	58	4321
2026-01-07 22:01:10.15	72.36	17.36	-43.3	-45.1	18.9	0.00e+00	0	39	0	0	58	4381
2026-01-07 22:01:10.87	72.52	17.38	-43.3	-45.1	18.9	0.00e+00	0	39	0	0	58	4380
2026-01-07 22:01:12.16	72.81	17.41	-43.3	-45.1	19.0	0.00e+00	0	40	0	0	58	4360
2026-01-07 22:01:12.88	72.97	17.43	-43.3	-45.1	19.0	0.00e+00	0	40	0	0	58	4351
2026-01-07 22:01:14.16	73.26	17.46	-43.2	-45.0	19.0	0.00e+00	0	39	0	0	58	4320
2026-01-07 22:01:14.88	73.42	17.48	-43.1	-44.9	19.1	0.00e+00	0	40	0	0	58	4263
2026-01-07 22:01:16.17	73.71	17.51	-43.2	-45.0	19.0	0.00e+00	0	39	0	0	58	4322
2026-01-07 22:01:16.89	73.87	17.53	-43.3	-45.1	18.9	0.00e+00	0	40	0	0	58	4363
2026-01-07 22:01:18.18	74.16	17.56	-43.4	-45.2	18.8	0.00e+00	0	40	0	0	58	4401
2026-01-07 22:01:18.99	74.35	17.58	-43.3	-45.1	18.9	0.00e+00	0	40	0	0	58	4364
2026-01-07 22:01:20.14	74.61	17.60	-43.5	-45.3	18.7	0.00e+00	0	39	0	0	58	4482
2026-01-07 22:01:21.20	74.85	17.63	-43.6	-45.4	18.7	0.00e+00	0	40	0	0	58	4520
2026-01-07 22:01:22.24	75.08	17.65	-43.6	-45.4	18.7	0.00e+00	0	39	0	0	58	4542
2026-01-07 22:01:23.24	75.31	17.67	-43.5	-45.3	18.8	0.00e+00	0	40	0	0	58	4474
2026-01-07 22:01:24.24	75.54	17.69	-43.4	-45.2	18.9	0.00e+00	0	40	0	0	58	4432
2026-01-07 22:01:25.24	75.77	17.71	-43.4	-45.2	18.9	0.00e+00	0	39	0	0	58	4423
2026-01-07 22:01:26.24	76.00	17.73	-43.5	-45.3	18.8	0.00e+00	0	40	0	0	58	4460
2026-01-07 22:01:27.24	76.23	17.75	-43.5	-45.4	18.7	0.00e+00	0	39	0	0	58	4496
2026-01-07 22:01:28.25	76.46	17.77	-43.6	-45.5	18.6	0.00e+00	0	39	0	0	58	4549
2026-01-07 22:01:29.25	76.69	17.79	-43.8	-45.6	18.5	0.00e+00	0	39	0	0	58	4642
2026-01-07 22:01:30.25	76.92	17.81	-43.6	-45.5	18.6	0.00e+00	0	40	0	0	58	4563
2026-01-07 22:01:31.26	77.15	17.82	-43.5	-45.3	18.8	0.00e+00	0	40	0	0	58	4466
2026-01-07 22:01:32.26	77.38	17.84	-43.5	-45.3	18.8	0.00e+00	0	40	0	0	58	4491
2026-01-07 22:01:33.26	77.61	17.86	-43.5	-45.3	18.9	0.00e+00	0	39	0	0	58	4455
2026-01-07 22:01:34.27	77.84	17.88	-43.3	-45.1	19.0	0.00e+00	0	40	0	0	58	4358
2026-01-07 22:01:35.35	78.09	17.89	-43.3	-45.0	19.0	0.00e+00	0	40	0	0	58	4338
2026-01-07 22:01:36.24	78.30	17.91	-43.3	-45.0	19.0	0.00e+00	0	39	0	0	58	4333
2026-01-07 22:01:37.38	78.56	17.92	-43.5	-45.3	18.8	0.00e+00	0	39	0	0	58	4442
2026-01-07 22:01:38.25	78.76	17.94	-43.4	-45.2	18.9	0.00e+00	0	40	0	0	58	4427
2026-01-07 22:01:39.39	79.03	17.95	-43.4	-45.3	18.8	0.00e+00	0	40	0	0	58	4449
2026-01-07 22:01:40.25	79.23	17.96	-43.4	-45.1	19.0	0.00e+00	0	40	0	0	58	4390
2026-01-07 22:01:41.40	79.50	17.98	-43.5	-45.3	18.8	0.00e+00	0	39	0	0	58	4451
2026-01-07 22:01:42.26	79.70	17.99	-43.4	-45.3	18.8	0.00e+00	0	40	0	0	58	4442
2026-01-07 22:01:43.40	79.96	18.00	-43.4	-45.2	18.9	0.00e+00	0	39	0	0	58	4402
2026-01-07 22:01:44.26	80.16	18.01	-43.5	-45.3	18.8	0.00e+00	0	40	0	0	58	4455
2026-01-07 22:01:45.41	80.43	18.03	-43.5	-45.4	18.7	0.00e+00	0	39	0	0	58	4511
2026-01-07 22:01:46.27	80.63	18.04	-43.4	-45.3	18.8	0.00e+00	0	39	0	0	58	4447
2026-01-07 22:01:47.42	80.90	18.05	-43.4	-45.2	18.9	0.00e+00	0	40	0	0	58	4427
2026-01-07 22:01:48.28	81.10	18.06	-43.3	-45.1	18.9	0.00e+00	0	40	0	0	58	4390
2026-01-07 22:01:49.43	81.37	18.07	-43.3	-45.2	18.9	0.00e+00	0	40	0	0	58	4398
2026-01-07 22:01:50.30	81.57	18.08	-43.3	-45.1	18.9	0.00e+00	0	40	0	0	58	4391
2026-01-07 22:01:51.63	81.88	18.09	-43.3	-45.2	18.9	0.00e+00	0	39	0	0	58	4394
2026-01-07 22:01:52.34	82.05	18.09	-43.4	-45.2	18.8	0.00e+00	0	40	0	0	58	4437
2026-01-07 22:01:53.63	82.35	18.10	-43.2	-45.0	19.0	0.00e+00	0	40	0	0	58	4332
2026-01-07 22:01:54.35	82.52	18.11	-43.3	-45.1	19.0	0.00e+00	0	40	0	0	58	4359
2026-01-07 22:01:55.64	82.82	18.12	-43.3	-45.1	18.9	0.00e+00	0	40	0	0	58	4382
2026-01-07 22:01:56.36	82.99	18.12	-43.4	-45.2	18.9	0.00e+00	0	39	0	0	58	4407
2026-01-07 22:01:57.65	83.30	18.13	-43.2	-45.0	19.0	0.00e+00	0	39	0	0	58	4333
2026-01-07 22:01:58.37	83.46	18.13	-43.2	-45.1	19.0	0.00e+00	0	40	0	0	58	4350
2026-01-07 22:01:59.65	83.77	18.14	-43.3	-45.1	19.0	0.00e+00	0	40	0	0	58	4373
2026-01-07 22:02:00.37	83.93	18.14	-43.3	-45.1	19.0	0.00e+00	0	40	0	0	58	4369
2026-01-07 22:02:01.66	84.24	18.15	-43.2	-45.1	19.0	0.00e+00	0	40	0	0	58	4344
2026-01-07 22:02:02.69	84.48	18.15	-43.2	-45.1	19.0	0.00e+00	0	40	0	0	58	4343
2026-01-07 22:02:03.68	84.71	18.16	-43.2	-45.1	19.0	0.00e+00	0	40	0	0	58	4358
2026-01-07 22:02:04.68	84.95	18.16	-43.2	-45.1	19.0	0.00e+00	0	40	0	0	58	4352
2026-01-07 22:02:05.69	85.19	18.16	-43.3	-45.1	18.9	0.00e+00	0	40	0	0	58	4367
2026-01-07 22:02:06.69	85.42	18.16	-43.4	-45.2	18.9	0.00e+00	0	40	0	0	58	4416
2026-01-07 22:02:07.70	85.66	18.16	-43.4	-45.3	18.8	0.00e+00	0	40	0	0	58	4444
2026-01-07 22:02:08.70	85.90	18.16	-43.4	-45.3	18.8	0.00e+00	0	40	0	0	58	4452
2026-01-07 22:02:09.73	86.14	18.16	-43.5	-45.3	18.8	0.00e+00	0	40	0	0	58	4485
2026-01-07 22:02:10.75	86.38	18.16	-43.4	-45.3	18.8	0.00e+00	0	40	0	0	58	4466
2026-01-07 22:02:11.79	86.62	18.16	-43.5	-45.3	18.8	0.00e+00	0	40	0	0	58	4485
2026-01-07 22:02:12.78	86.86	18.16	-43.5	-45.3	18.7	0.00e+00	0	40	0	0	58	4483
2026-01-07 22:02:13.87	87.11	18.16	-43.6	-45.4	18.6	0.00e+00	0	40	0	0	58	4545
2026-01-07 22:02:14.76	87.32	18.16	-43.6	-45.4	18.6	0.00e+00	0	40	0	0	58	4543
2026-01-07 22:02:16.07	87.63	18.15	-43.6	-45.5	18.6	0.00e+00	0	39	0	0	58	4577
2026-01-07 22:02:16.79	87.80	18.15	-43.5	-45.4	18.7	0.00e+00	0	40	0	0	58	4518
2026-01-07 22:02:18.08	88.10	18.15	-43.4	-45.2	18.9	0.00e+00	0	40	0	0	58	4441
2026-01-07 22:02:18.80	88.27	18.14	-43.3	-45.2	18.9	0.00e+00	0	40	0	0	58	4400
2026-01-07 22:02:20.09	88.58	18.14	-43.3	-45.1	19.0	0.00e+00	0	40	0	0	58	4367
2026-01-07 22:02:20.80	88.74	18.13	-43.3	-45.1	18.9	0.00e+00	0	40	0	0	58	4371
2026-01-07 22:02:22.09	89.05	18.13	-43.3	-45.1	18.9	0.00e+00	0	40	0	0	58	4369
2026-01-07 22:02:22.81	89.22	18.12	-43.4	-45.2	18.8	0.00e+00	0	40	0	0	58	4424
2026-01-07 22:02:24.10	89.52	18.11	-43.4	-45.3	18.7	0.00e+00	0	40	0	0	58	4465
2026-01-07 22:02:24.82	89.69	18.11	-43.4	-45.3	18.8	0.00e+00	0	40	0	0	58	4445
2026-01-07 22:02:26.11	89.99	18.10	-43.4	-45.2	18.9	0.00e+00	0	40	0	0	58	4422
2026-01-07 22:02:26.83	90.16	18.09	-43.4	-45.3	18.9	0.00e+00	0	40	0	0	58	4444
2026-01-07 22:02:28.16	90.47	18.08	-43.2	-45.0	19.0	0.00e+00	0	40	0	0	58	4320
2026-01-07 22:02:29.15	90.70	18.07	-43.4	-45.2	18.8	0.00e+00	0	40	0	0	58	4416
2026-01-07 22:02:30.47	91.01	18.06	-43.4	-45.2	18.8	0.00e+00	0	40	0	0	58	4420
2026-01-07 22:02:31.19	91.18	18.05	-43.5	-45.3	18.8	0.00e+00	0	40	0	0	58	4452
2026-01-07 22:02:32.48	91.48	18.04	-43.6	-45.4	18.7	0.00e+00	0	40	0	0	58	4538
2026-01-07 22:02:33.19	91.65	18.03	-43.6	-45.4	18.7	0.00e+00	0	40	0	0	58	4530
2026-01-07 22:02:34.48	91.95	18.02	-43.6	-45.4	18.7	0.00e+00	0	40	0	0	58	4522
2026-01-07 22:02:35.20	92.12	18.01	-43.5	-45.3	18.8	0.00e+00	0	40	0	0	58	4469
2026-01-07 22:02:36.49	92.42	17.99	-43.4	-45.3	18.8	0.00e+00	0	40	0	0	58	4446
2026-01-07 22:02:37.21	92.59	17.99	-43.2	-45.0	18.9	0.00e+00	0	40	0	0	58	4340
2026-01-07 22:02:38.58	92.91	17.97	-43.2	-44.9	19.0	0.00e+00	0	40	0	0	58	4291
2026-01-07 22:02:39.29	93.07	17.96	-43.2	-45.0	19.0	0.00e+00	0	40	0	0	58	4296
2026-01-07 22:02:40.58	93.37	17.94	-43.1	-44.9	19.1	0.00e+00	0	40	0	0	58	4259
2026-01-07 22:02:41.30	93.54	17.93	-43.1	-44.9	19.1	0.00e+00	0	40	0	0	58	4267
2026-01-07 22:02:42.69	93.86	17.91	-43.2	-45.0	19.1	0.00e+00	0	40	0	0	58	4297
2026-01-07 22:02:43.67	94.09	17.89	-43.2	-44.9	19.1	0.00e+00	0	40	0	0	58	4290
2026-01-07 22:02:44.99	94.39	17.87	-43.0	-44.8	19.1	0.00e+00	0	40	0	0	58	4210
2026-01-07 22:02:45.71	94.56	17.86	-43.1	-44.9	19.0	0.00e+00	0	40	0	0	58	4271
2026-01-07 22:02:47.00	94.86	17.84	-43.3	-45.0	18.9	0.00e+00	0	40	0	0	58	4338
2026-01-07 22:02:47.71	95.02	17.83	-43.2	-45.0	18.9	0.00e+00	0	40	0	0	58	4308
2026-01-07 22:02:49.00	95.32	17.80	-43.2	-45.0	19.0	0.00e+00	0	40	0	0	58	4314
2026-01-07 22:02:49.72	95.48	17.79	-43.3	-45.0	19.0	0.00e+00	0	40	0	0	58	4334
2026-01-07 22:02:51.01	95.78	17.77	-43.1	-44.9	19.1	0.00e+00	0	40	0	0	58	4244
2026-01-07 22:02:51.72	95.94	17.75	-43.0	-44.8	19.2	0.00e+00	0	40	0	0	58	4204
2026-01-07 22:02:53.01	96.24	17.73	-43.2	-44.9	19.1	0.00e+00	0	40	0	0	58	4267
2026-01-07 22:02:53.73	96.40	17.71	-43.1	-44.9	19.1	0.00e+00	0	40	0	0	58	4267
2026-01-07 22:02:55.16	96.73	17.68	-43.1	-44.8	19.2	0.00e+00	0	40	0	0	58	4225
2026-01-07 22:02:56.13	96.95	17.66	-43.1	-44.9	19.1	0.00e+00	0	40	0	0	58	4246
2026-01-07 22:02:57.47	97.26	17.64	-43.1	-44.9	19.1	0.00e+00	0	40	0	0	58	4266
2026-01-07 22:02:58.19	97.42	17.62	-43.2	-45.0	19.0	0.00e+00	0	40	0	0	58	4308
2026-01-07 22:02:59.81	97.79	17.58	-43.2	-45.0	19.0	0.00e+00	0	40	0	0	58	4299
2026-01-07 22:03:00.38	97.92	17.57	-43.2	-45.0	19.0	0.00e+00	0	40	0	0	58	4316
2026-01-07 22:03:02.04	98.30	17.53	-43.3	-45.0	19.0	0.00e+00	0	40	0	0	58	4331
2026-01-07 22:03:02.61	98.43	17.52	-43.3	-45.0	19.0	0.00e+00	0	40	0	0	58	4331
2026-01-07 22:03:04.20	98.78	17.48	-43.4	-45.2	18.9	0.00e+00	0	40	0	0	58	4402
2026-01-07 22:03:04.78	98.92	17.47	-43.3	-45.1	19.0	0.00e+00	0	40	0	0	58	4362
2026-01-07 22:03:06.35	99.27	17.43	-43.3	-45.1	19.0	0.00e+00	0	40	0	0	58	4342
2026-01-07 22:03:06.93	99.40	17.41	-43.3	-45.1	19.0	0.00e+00	0	40	0	0	58	4356
2026-01-07 22:03:08.51	99.75	17.37	-43.2	-45.0	19.1	0.00e+00	0	39	0	0	58	4297
2026-01-07 22:03:09.11	99.89	17.36	-43.2	-45.0	19.0	0.00e+00	0	40	0	0	58	4324
2026-01-07 22:03:11.05	100.32	17.30	-43.2	-45.0	19.0	0.00e+00	0	40	0	0	58	4323
2026-01-07 22:03:11.63	100.45	17.29	-43.2	-45.0	19.1	0.00e+00	0	40	0	0	58	4307
2026-01-07 22:03:13.22	100.80	17.24	-43.1	-44.9	19.2	0.00e+00	0	40	0	0	58	4243
2026-01-07 22:03:13.79	100.93	17.23	-43.0	-44.8	19.3	0.00e+00	0	40	0	0	58	4198
2026-01-07 22:03:15.37	101.28	17.18	-43.1	-44.9	19.2	0.00e+00	0	40	0	0	58	4256
2026-01-07 22:03:15.98	101.42	17.17	-43.1	-44.9	19.2	0.00e+00	0	40	0	0	58	4252
2026-01-07 22:03:17.77	101.81	17.11	-43.1	-44.8	19.2	0.00e+00	0	40	0	0	58	4226
2026-01-07 22:03:18.34	101.94	17.10	-43.1	-44.9	19.2	0.00e+00	0	40	0	0	58	4244
2026-01-07 22:03:19.98	102.30	17.05	-43.1	-44.9	19.1	0.00e+00	0	40	0	0	58	4266
2026-01-07 22:03:20.56	102.42	17.03	-43.2	-45.0	19.1	0.00e+00	0	40	0	0	58	4308
2026-01-07 22:03:22.13	102.77	16.98	-43.2	-45.0	19.1	0.00e+00	0	40	0	0	58	4297
2026-01-07 22:03:22.71	102.90	16.96	-43.2	-44.9	19.1	0.00e+00	0	40	0	0	58	4291
2026-01-07 22:03:24.28	103.24	16.91	-43.2	-45.0	19.1	0.00e+00	0	40	0	0	58	4325
2026-01-07 22:03:24.87	103.37	16.89	-43.2	-44.9	19.2	0.00e+00	0	40	0	0	58	4272
2026-01-07 22:03:26.45	103.71	16.84	-43.2	-45.0	19.1	0.00e+00	0	40	0	0	58	4299
2026-01-07 22:03:27.05	103.84	16.82	-43.2	-45.0	19.0	0.00e+00	0	40	0	0	58	4334
2026-01-07 22:03:28.62	104.18	16.77	-43.3	-45.0	19.0	0.00e+00	0	40	0	0	58	4338
2026-01-07 22:03:29.21	104.30	16.75	-43.2	-45.0	19.1	0.00e+00	0	40	0	0	58	4298
2026-01-07 22:03:30.78	104.64	16.70	-43.1	-44.9	19.1	0.00e+00	0	40	0	0	58	4259
2026-01-07 22:03:31.36	104.77	16.68	-43.2	-45.0	19.0	0.00e+00	0	40	0	0	58	4310
2026-01-07 22:03:32.94	105.10	16.62	-43.4	-45.2	18.9	0.00e+00	0	40	0	0	58	4408
2026-01-07 22:03:33.55	105.23	16.60	-43.4	-45.2	18.9	0.00e+00	0	40	0	0	58	4404
2026-01-07 22:03:35.13	105.57	16.54	-43.5	-45.3	18.8	0.00e+00	0	40	0	0	58	4459
2026-01-07 22:03:35.73	105.70	16.52	-43.5	-45.3	18.8	0.00e+00	0	40	0	0	58	4466
2026-01-07 22:03:37.45	106.06	16.46	-43.4	-45.2	18.9	0.00e+00	0	40	0	0	58	4404
2026-01-07 22:03:38.02	106.18	16.44	-43.4	-45.2	18.9	0.00e+00	0	40	0	0	58	4397
2026-01-07 22:03:39.61	106.52	16.38	-43.3	-45.1	19.0	0.00e+00	0	40	0	0	58	4375
2026-01-07 22:03:40.18	106.64	16.36	-43.2	-45.0	19.1	0.00e+00	0	40	0	0	58	4326
2026-01-07 22:03:41.77	106.97	16.30	-43.2	-45.0	19.0	0.00e+00	0	40	0	0	58	4335
2026-01-07 22:03:42.35	107.09	16.28	-43.3	-45.2	18.9	0.00e+00	0	40	0	0	58	4393
2026-01-07 22:03:43.94	107.42	16.22	-43.4	-45.3	18.8	0.00e+00	0	40	0	0	58	4448
2026-01-07 22:03:44.51	107.54	16.20	-43.4	-45.3	18.8	0.00e+00	0	40	0	0	58	4460
2026-01-07 22:03:46.12	107.88	16.13	-43.5	-45.4	18.7	0.00e+00	0	40	0	0	58	4500
2026-01-07 22:03:46.82	108.02	16.11	-43.7	-45.5	18.6	0.00e+00	0	40	0	0	58	4596
2026-01-07 22:03:48.14	108.29	16.05	-43.6	-45.5	18.6	0.00e+00	0	40	0	0	58	4553
2026-01-07 22:03:48.86	108.44	16.03	-43.7	-45.6	18.6	0.00e+00	0	40	0	0	58	4608
2026-01-07 22:03:50.15	108.71	15.97	-43.7	-45.6	18.6	0.00e+00	0	40	0	0	58	4600
2026-01-07 22:03:50.86	108.85	15.95	-43.7	-45.5	18.6	0.00e+00	0	40	0	0	58	4583
2026-01-07 22:03:52.15	109.11	15.89	-43.6	-45.4	18.7	0.00e+00	0	40	0	0	58	4518
2026-01-07 22:03:52.87	109.26	15.86	-43.6	-45.4	18.7	0.00e+00	0	40	0	0	58	4522
2026-01-07 22:03:54.16	109.52	15.81	-43.6	-45.4	18.7	0.00e+00	0	40	0	0	58	4508
2026-01-07 22:03:55.26	109.75	15.77	-43.6	-45.4	18.6	0.00e+00	0	40	0	0	58	4535
2026-01-07 22:03:56.12	109.92	15.73	-43.6	-45.4	18.6	0.00e+00	0	40	0	0	58	4531
2026-01-07 22:03:57.26	110.15	15.68	-43.7	-45.5	18.5	0.00e+00	0	40	0	0	58	4593
2026-01-07 22:03:58.12	110.32	15.65	-43.8	-45.7	18.4	0.00e+00	0	40	0	0	58	4662
2026-01-07 22:03:59.32	110.56	15.59	-43.9	-45.8	18.3	0.00e+00	0	40	0	0	58	4719
2026-01-07 22:04:00.17	110.73	15.56	-43.9	-45.8	18.3	0.00e+00	0	40	0	0	58	4741
2026-01-07 22:04:01.38	110.97	15.51	-44.0	-45.9	18.2	0.00e+00	0	40	0	0	58	4762
2026-01-07 22:04:02.24	111.14	15.47	-43.9	-45.8	18.3	0.00e+00	0	40	0	0	58	4749
2026-01-07 22:04:03.39	111.37	15.42	-43.9	-45.7	18.4	0.00e+00	0	40	0	0	58	4704
2026-01-07 22:04:04.25	111.54	15.38	-43.8	-45.7	18.4	0.00e+00	0	40	0	0	58	4680
2026-01-07 22:04:05.52	111.79	15.33	-43.8	-45.7	18.4	0.00e+00	0	40	0	0	58	4662
2026-01-07 22:04:06.25	111.93	15.29	-43.7	-45.6	18.5	0.00e+00	0	40	0	0	58	4605
2026-01-07 22:04:07.55	112.19	15.23	-43.7	-45.6	18.5	0.00e+00	0	40	0	0	58	4600
2026-01-07 22:04:08.26	112.33	15.20	-43.7	-45.5	18.5	0.00e+00	0	40	0	0	58	4582
2026-01-07 22:04:09.55	112.58	15.15	-43.7	-45.6	18.5	0.00e+00	0	40	0	0	58	4610
2026-01-07 22:04:10.26	112.71	15.11	-43.8	-45.7	18.4	0.00e+00	0	40	0	0	58	4670
2026-01-07 22:04:11.55	112.96	15.05	-43.9	-45.7	18.3	0.00e+00	0	40	0	0	58	4703
2026-01-07 22:04:12.27	113.10	15.02	-43.9	-45.8	18.3	0.00e+00	0	40	0	0	58	4730
2026-01-07 22:04:13.56	113.35	14.96	-43.9	-45.8	18.3	0.00e+00	0	40	0	0	58	4729
2026-01-07 22:04:14.28	113.49	14.93	-43.9	-45.8	18.3	0.00e+00	0	40	0	0	58	4736
2026-01-07 22:04:15.56	113.73	14.87	-44.0	-45.9	18.2	0.00e+00	0	40	0	0	58	4789
2026-01-07 22:04:16.28	113.87	14.84	-43.9	-45.8	18.3	0.00e+00	0	40	0	0	58	4731
2026-01-07 22:04:17.57	114.11	14.78	-44.0	-45.9	18.2	0.00e+00	0	40	0	0	58	4773
2026-01-07 22:04:18.29	114.25	14.74	-44.0	-45.9	18.2	0.00e+00	0	40	0	0	58	4777
2026-01-07 22:04:19.68	114.51	14.68	-43.9	-45.7	18.3	0.00e+00	0	40	0	0	58	4697
2026-01-07 22:04:20.39	114.65	14.64	-43.9	-45.8	18.3	0.00e+00	0	40	0	0	58	4726
2026-01-07 22:04:21.68	114.89	14.58	-43.8	-45.6	18.4	0.00e+00	0	40	0	0	58	4647
2026-01-07 22:04:22.40	115.02	14.55	-43.6	-45.5	18.5	0.00e+00	0	40	0	0	58	4553
2026-01-07 22:04:23.69	115.26	14.49	-43.7	-45.6	18.5	0.00e+00	0	40	0	0	58	4599
2026-01-07 22:04:24.41	115.40	14.45	-43.8	-45.7	18.3	0.00e+00	0	40	0	0	58	4664
2026-01-07 22:04:25.70	115.64	14.39	-43.8	-45.7	18.4	0.00e+00	0	40	0	0	58	4666
2026-01-07 22:04:26.42	115.77	14.35	-43.8	-45.7	18.4	0.00e+00	0	40	0	0	58	4672
2026-01-07 22:04:27.70	116.00	14.29	-43.9	-45.7	18.3	0.00e+00	0	40	0	0	58	4687
2026-01-07 22:04:28.42	116.14	14.26	-43.9	-45.7	18.3	0.00e+00	0	40	0	0	58	4701
2026-01-07 22:04:29.71	116.37	14.19	-44.0	-45.9	18.2	0.00e+00	0	40	0	0	58	4772
2026-01-07 22:04:30.43	116.50	14.16	-44.0	-45.8	18.2	0.00e+00	0	40	0	0	58	4753
2026-01-07 22:04:31.72	116.74	14.10	-44.1	-46.0	18.1	0.00e+00	0	40	0	0	58	4822
2026-01-07 22:04:32.43	116.87	14.06	-44.1	-45.9	18.1	0.00e+00	0	40	0	0	58	4805
2026-01-07 22:04:33.72	117.10	14.00	-44.1	-45.9	18.1	0.00e+00	0	40	0	0	58	4812
2026-01-07 22:04:34.68	117.27	13.95	-44.1	-46.0	18.1	0.00e+00	0	40	0	0	58	4841
2026-01-07 22:04:36.00	117.51	13.88	-44.0	-45.9	18.1	0.00e+00	0	40	0	0	58	4804
2026-01-07 22:04:36.72	117.64	13.85	-43.9	-45.8	18.2	0.00e+00	0	40	0	0	58	4746
2026-01-07 22:04:38.01	117.87	13.78	-43.9	-45.8	18.2	0.00e+00	0	40	0	0	58	4748
2026-01-07 22:04:38.72	117.99	13.75	-44.0	-45.9	18.1	0.00e+00	0	40	0	0	58	4782
2026-01-07 22:04:40.01	118.22	13.68	-43.9	-45.8	18.3	0.00e+00	0	40	0	0	58	4734
2026-01-07 22:04:40.92	118.38	13.63	-43.8	-45.7	18.4	0.00e+00	0	40	0	0	58	4657
2026-01-07 22:04:41.92	118.56	13.58	-43.9	-45.8	18.2	0.00e+00	0	40	0	0	58	4755
2026-01-07 22:04:43.28	118.79	13.51	-44.0	-45.9	18.2	0.00e+00	0	40	0	0	58	4764
2026-01-07 22:04:43.99	118.92	13.48	-43.9	-45.8	18.3	0.00e+00	0	40	0	0	58	4736
2026-01-07 22:04:45.63	119.20	13.39	-44.0	-46.0	18.1	0.00e+00	0	40	0	0	58	4820
2026-01-07 22:04:46.21	119.30	13.36	-44.1	-45.9	18.1	0.00e+00	0	40	0	0	58	4812
2026-01-07 22:04:47.80	119.58	13.28	-44.2	-46.1	18.0	0.00e+00	0	40	0	0	58	4891
2026-01-07 22:04:48.37	119.67	13.25	-44.1	-46.0	18.0	0.00e+00	0	40	0	0	58	4870
2026-01-07 22:04:50.06	119.96	13.16	-44.2	-46.1	17.9	0.00e+00	0	40	0	0	59	4623
2026-01-07 22:04:50.64	120.06	13.13	-44.2	-46.2	17.9	0.00e+00	0	40	0	0	59	4655
2026-01-07 22:04:52.24	120.33	13.05	-44.1	-46.0	18.0	0.00e+00	0	40	0	0	59	4569
2026-01-07 22:04:52.81	120.43	13.02	-44.0	-45.9	18.1	0.00e+00	0	40	0	0	59	4536
2026-01-07 22:04:54.39	120.70	12.94	-44.0	-45.9	18.1	0.00e+00	0	40	0	0	59	4523
2026-01-07 22:04:54.98	120.80	12.91	-43.9	-45.8	18.2	0.00e+00	0	40	0	0	59	4466
2026-01-07 22:04:56.56	121.06	12.82	-43.8	-45.8	18.2	0.00e+00	0	40	0	0	59	4464
2026-01-07 22:04:57.15	121.16	12.79	-44.0	-45.9	18.2	0.00e+00	0	40	0	0	59	4504
2026-01-07 22:04:58.91	121.45	12.70	-43.9	-45.8	18.2	0.00e+00	0	40	0	0	59	4452
2026-01-07 22:04:59.48	121.54	12.67	-43.8	-45.7	18.3	0.00e+00	0	40	0	0	59	4425
2026-01-07 22:05:01.06	121.80	12.59	-43.9	-45.8	18.2	0.00e+00	0	40	0	0	59	4486
2026-01-07 22:05:01.64	121.90	12.56	-44.0	-45.9	18.1	0.00e+00	0	40	0	0	59	4508
2026-01-07 22:05:03.21	122.16	12.47	-44.1	-46.0	18.0	0.00e+00	0	40	0	0	59	4551
2026-01-07 22:05:03.80	122.25	12.44	-43.9	-45.9	18.1	0.00e+00	0	40	0	0	59	4500
2026-01-07 22:05:05.38	122.51	12.36	-44.1	-46.0	18.0	0.00e+00	0	40	0	0	59	4576
2026-01-07 22:05:05.99	122.61	12.32	-44.1	-46.0	18.0	0.00e+00	0	40	0	0	59	4597
2026-01-07 22:05:07.57	122.86	12.24	-44.1	-46.0	18.1	0.00e+00	0	40	0	0	59	4563
2026-01-07 22:05:08.16	122.96	12.21	-44.1	-46.0	18.0	0.00e+00	0	40	0	0	59	4587
2026-01-07 22:05:09.78	123.22	12.12	-44.1	-46.0	18.0	0.00e+00	0	40	0	0	59	4590
2026-01-07 22:05:10.35	123.31	12.09	-44.0	-46.0	18.1	0.00e+00	0	40	0	0	59	4558
2026-01-07 22:05:11.93	123.56	12.00	-44.1	-46.0	18.0	0.00e+00	0	40	0	0	59	4584
2026-01-07 22:05:12.54	123.65	11.97	-44.1	-46.0	18.0	0.00e+00	0	40	0	0	59	4582
2026-01-07 22:05:14.11	123.90	11.88	-44.0	-45.9	18.1	0.00e+00	0	40	0	0	59	4499
2026-01-07 22:05:14.72	123.99	11.85	-44.0	-45.9	18.2	0.00e+00	0	40	0	0	59	4504
2026-01-07 22:05:16.29	124.24	11.77	-44.0	-45.9	18.1	0.00e+00	0	40	0	0	59	4535
2026-01-07 22:05:16.87	124.33	11.73	-44.1	-46.0	18.0	0.00e+00	0	40	0	0	59	4569
2026-01-07 22:05:18.44	124.57	11.65	-44.1	-46.0	18.0	0.00e+00	0	40	0	0	59	4577
2026-01-07 22:05:19.05	124.67	11.62	-44.1	-46.0	18.0	0.00e+00	0	40	0	0	59	4577
2026-01-07 22:05:20.62	124.91	11.53	-44.0	-45.9	18.1	0.00e+00	0	40	0	0	59	4523
2026-01-07 22:05:21.22	125.00	11.50	-44.1	-46.0	18.0	0.00e+00	0	40	0	0	59	4547
2026-01-07 22:05:22.80	125.24	11.41	-44.0	-46.0	18.1	0.00e+00	0	40	0	0	59	4551
2026-01-07 22:05:23.38	125.33	11.38	-44.0	-45.9	18.0	0.00e+00	0	40	0	0	59	4540
2026-01-07 22:05:24.97	125.57	11.29	-44.1	-46.0	17.9	0.00e+00	0	40	0	0	59	4595
2026-01-07 22:05:25.54	125.66	11.26	-44.1	-46.0	18.0	0.00e+00	0	40	0	0	59	4575
2026-01-07 22:05:27.12	125.89	11.17	-44.3	-46.3	17.7	0.00e+00	0	40	0	0	59	4709
2026-01-07 22:05:27.73	125.98	11.14	-44.2	-46.2	17.8	0.00e+00	0	40	0	0	59	4670
2026-01-07 22:05:29.31	126.22	11.05	-44.3	-46.3	17.7	0.00e+00	0	40	0	0	59	4719
2026-01-07 22:05:30.06	126.33	11.01	-44.4	-46.4	17.6	0.00e+00	0	40	0	0	59	4784
2026-01-07 22:05:31.35	126.52	10.94	-44.4	-46.4	17.6	0.00e+00	0	40	0	0	59	4762
2026-01-07 22:05:32.07	126.63	10.90	-44.4	-46.4	17.6	0.00e+00	0	40	0	0	59	4798
2026-01-07 22:05:33.39	126.82	10.83	-44.5	-46.5	17.4	0.00e+00	0	40	0	0	59	4857
2026-01-07 22:05:34.10	126.92	10.79	-44.5	-46.5	17.4	0.00e+00	0	40	0	0	59	4859
2026-01-07 22:05:35.46	127.12	10.71	-44.6	-46.6	17.3	0.00e+00	0	40	0	0	59	4922
2026-01-07 22:05:36.17	127.22	10.67	-44.7	-46.7	17.3	0.00e+00	0	40	0	0	60	4704
2026-01-07 22:05:37.46	127.41	10.60	-44.7	-46.8	17.2	0.00e+00	0	40	0	0	60	4711
2026-01-07 22:05:38.18	127.51	10.56	-44.7	-46.7	17.3	0.00e+00	0	40	0	0	60	4702
2026-01-07 22:05:39.47	127.70	10.49	-44.8	-46.9	17.1	0.00e+00	0	40	0	0	60	4765
2026-01-07 22:05:40.19	127.80	10.45	-44.9	-47.0	17.0	0.00e+00	0	40	0	0	60	4826
2026-01-07 22:05:41.48	127.99	10.38	-44.9	-47.0	17.0	0.00e+00	0	40	0	0	60	4843
2026-01-07 22:05:42.20	128.09	10.34	-44.9	-47.1	17.0	0.00e+00	0	40	0	0	60	4877
2026-01-07 22:05:43.49	128.27	10.27	-44.9	-47.1	16.9	0.00e+00	0	40	0	0	60	4900
2026-01-07 22:05:44.20	128.37	10.23	-44.9	-47.1	16.9	0.00e+00	0	40	0	0	60	4897
2026-01-07 22:05:45.49	128.55	10.15	-44.9	-47.1	16.9	0.00e+00	0	40	0	0	60	4899
2026-01-07 22:05:46.21	128.65	10.11	-45.0	-47.2	16.8	0.00e+00	0	40	0	0	60	4953
2026-01-07 22:05:47.50	128.83	10.04	-45.1	-47.3	16.7	0.00e+00	0	40	0	0	60	5035
2026-01-07 22:05:48.22	128.93	10.00	-45.0	-47.3	16.7	0.00e+00	0	40	0	0	61	4722
2026-01-07 22:05:49.51	129.11	9.93	-44.9	-47.1	16.8	0.00e+00	0	40	0	0	61	4635
2026-01-07 22:05:50.23	129.21	9.89	-44.9	-47.2	16.8	0.00e+00	0	40	0	0	61	4661
2026-01-07 22:05:51.52	129.38	9.82	-45.1	-47.2	16.8	0.00e+00	0	40	0	0	61	4678
2026-01-07 22:05:52.23	129.48	9.78	-45.0	-47.1	16.9	0.00e+00	0	40	0	0	61	4624
2026-01-07 22:05:53.57	129.66	9.70	-45.0	-47.2	16.8	0.00e+00	0	40	0	0	61	4664
2026-01-07 22:05:54.29	129.76	9.66	-44.9	-47.0	16.9	0.00e+00	0	40	0	0	61	4589
2026-01-07 22:05:55.58	129.94	9.59	-45.0	-47.1	16.8	0.00e+00	0	40	0	0	61	4612
2026-01-07 22:05:56.30	130.03	9.55	-44.9	-46.9	17.0	0.00e+00	0	40	0	0	61	4541
2026-01-07 22:05:57.58	130.20	9.48	-45.0	-47.1	16.8	0.00e+00	0	40	0	0	61	4626
2026-01-07 22:05:58.30	130.30	9.44	-45.0	-47.1	16.8	0.00e+00	0	40	0	0	61	4633
2026-01-07 22:05:59.59	130.47	9.37	-44.9	-47.1	16.9	0.00e+00	0	40	0	0	61	4603
2026-01-07 22:06:00.31	130.57	9.33	-45.1	-47.2	16.8	0.00e+00	0	40	0	0	61	4674
2026-01-07 22:06:01.60	130.74	9.25	-45.1	-47.3	16.7	0.00e+00	0	40	0	0	61	4708
2026-01-07 22:06:02.31	130.83	9.21	-45.1	-47.3	16.7	0.00e+00	0	40	0	0	61	4713
2026-01-07 22:06:03.60	131.00	9.14	-45.2	-47.4	16.6	0.00e+00	0	40	0	0	61	4767
2026-01-07 22:06:04.32	131.09	9.10	-45.2	-47.4	16.6	0.00e+00	0	40	0	0	61	4767
2026-01-07 22:06:05.61	131.26	9.03	-45.2	-47.4	16.5	0.00e+00	0	40	0	0	61	4800
2026-01-07 22:06:06.32	131.35	8.99	-45.3	-47.5	16.5	0.00e+00	0	40	0	0	61	4816
2026-01-07 22:06:07.61	131.52	8.92	-52.5	-65.5	3.8	1.49e+00	0	40	104	0	75	17198
2026-01-07 22:06:08.33	131.61	8.88	-52.8	-65.7	3.8	1.49e+00	0	40	104	0	76	16616
2026-01-07 22:06:09.62	131.78	8.80	-52.3	-65.9	3.8	1.49e+00	0	40	104	0	76	16890
2026-01-07 22:06:10.34	131.87	8.76	-52.7	-65.9	3.8	1.49e+00	0	40	104	0	76	16921
2026-01-07 22:06:11.63	132.03	8.69	-52.9	-65.9	3.8	1.49e+00	0	40	104	0	76	16997
2026-01-07 22:06:12.35	132.13	8.65	-52.8	-66.0	3.8	1.49e+00	0	40	104	0	76	17088
2026-01-07 22:06:13.64	132.29	8.58	-52.8	-66.0	3.8	1.49e+00	0	40	104	0	76	17180
2026-01-07 22:06:14.36	132.38	8.54	-52.8	-66.0	3.8	1.49e+00	0	40	104	0	76	17151
2026-01-07 22:06:15.65	132.54	8.47	-53.0	-66.0	3.8	1.49e+00	0	40	104	0	76	17236
2026-01-07 22:06:16.36	132.63	8.43	-53.0	-66.0	3.8	1.49e+00	0	40	104	0	76	17255
2026-01-07 22:06:17.66	132.79	8.35	-52.9	-66.1	3.8	1.49e+00	0	40	104	0	76	17287
2026-01-07 22:06:18.37	132.88	8.31	-52.8	-66.0	3.8	1.49e+00	0	40	104	0	76	17233
2026-01-07 22:06:19.66	133.04	8.24	-52.9	-66.0	3.8	1.49e+00	0	40	104	0	76	17272
2026-01-07 22:06:20.38	133.13	8.20	-52.9	-66.1	3.8	1.49e+00	0	40	104	0	76	17323
2026-01-07 22:06:21.67	133.29	8.13	-52.7	-66.1	3.8	1.49e+00	0	40	104	0	76	17286
2026-01-07 22:06:22.39	133.37	8.09	-52.7	-66.0	3.8	1.49e+00	0	40	104	0	76	17273
2026-01-07 22:06:23.68	133.53	8.02	-52.6	-66.0	3.8	1.49e+00	0	40	104	0	76	17251
2026-01-07 22:06:24.40	133.62	7.98	-52.6	-66.1	3.8	1.49e+00	0	40	104	0	76	17349
2026-01-07 22:06:25.69	133.77	7.91	-52.6	-66.0	3.8	1.49e+00	0	40	104	0	76	17248
2026-01-07 22:06:26.40	133.86	7.87	-52.6	-66.1	3.8	1.49e+00	0	40	104	0	76	17314
2026-01-07 22:06:27.70	134.02	7.79	-52.6	-66.1	3.8	1.49e+00	0	40	104	0	76	17286
2026-01-07 22:06:28.41	134.10	7.75	-52.6	-66.1	3.8	1.49e+00	0	40	104	0	76	17301
2026-01-07 22:06:29.71	134.26	7.68	-52.6	-66.0	3.8	1.49e+00	0	40	104	0	76	17260
2026-01-07 22:06:30.42	134.34	7.64	
