passes_logs/2026/01/07/T1/T1__20260107_031158_FENGYUN_3E_rec.log

#Pass ID: 20260107_031158_FENGYUN 3E
#Satellite: FENGYUN 3E
#Configuration: FENGYUN 3E
#almurnet v.1.7.20251203
#Start time: 2026-01-07 03:11:58

#Version: 2.0.20230620
#Station: T1
#Location: 37.570604 lon 55.790049 lat
#TLE: 1 49008U 21062A   26006.26767912  .00000427  00000+0  22170-3 0  9993
#TLE: 2 49008  98.7475  11.4982 0001602 156.1158 204.0093 14.19885456233607

#Time	Az	El	Level	Level2	SNR	BER	BlckErr	Temp	State	Recorded	gain1	gain2
2026-01-07 03:11:58.97	22.07	5.04	-49.4	-60.7	3.8	8.47e-01	0	40	0	0	69	13054
2026-01-07 03:11:59.97	22.12	5.10	-49.4	-60.7	3.8	8.46e-01	0	40	104	0	69	12971
2026-01-07 03:12:00.97	22.16	5.17	-49.4	-60.6	3.8	8.47e-01	0	40	104	0	69	12820
2026-01-07 03:12:01.97	22.21	5.24	-49.4	-60.5	3.8	8.47e-01	0	40	104	0	69	12789
2026-01-07 03:12:02.98	22.26	5.31	-49.4	-60.5	3.8	8.47e-01	0	40	104	0	69	12722
2026-01-07 03:12:03.98	22.30	5.38	-49.4	-60.4	3.8	8.47e-01	0	40	104	0	69	12570
2026-01-07 03:12:04.99	22.35	5.45	-49.4	-60.4	3.8	8.46e-01	0	40	104	0	69	12530
2026-01-07 03:12:05.99	22.40	5.52	-49.4	-60.3	3.8	8.46e-01	0	40	104	0	69	12487
2026-01-07 03:12:06.99	22.45	5.58	-49.4	-60.4	3.8	8.47e-01	0	40	104	0	69	12525
2026-01-07 03:12:08.00	22.49	5.65	-49.4	-60.4	3.8	8.47e-01	0	40	104	0	69	12538
2026-01-07 03:12:09.00	22.54	5.72	-49.4	-60.5	3.8	8.47e-01	0	40	104	0	69	12707
2026-01-07 03:12:10.01	22.59	5.79	-49.4	-60.5	3.8	8.47e-01	0	41	104	0	69	12678
2026-01-07 03:12:11.01	22.64	5.86	-49.4	-60.5	3.8	8.46e-01	0	40	104	0	69	12787
2026-01-07 03:12:12.01	22.69	5.93	-49.4	-60.6	3.8	8.46e-01	0	40	104	0	69	12856
2026-01-07 03:12:13.02	22.74	6.00	-49.4	-60.6	3.8	8.48e-01	0	41	104	0	69	12938
2026-01-07 03:12:14.02	22.79	6.07	-49.4	-60.6	3.8	8.47e-01	0	41	104	0	69	12933
2026-01-07 03:12:15.02	22.84	6.14	-49.4	-60.6	3.8	8.47e-01	0	41	104	0	69	12922
2026-01-07 03:12:16.03	22.89	6.22	-49.4	-60.7	3.8	8.45e-01	0	41	104	0	69	12963
2026-01-07 03:12:17.03	22.94	6.29	-49.4	-60.7	3.8	8.47e-01	0	41	104	0	69	12960
2026-01-07 03:12:18.04	22.99	6.36	-49.3	-60.6	3.8	8.47e-01	0	41	104	0	69	12888
2026-01-07 03:12:19.04	23.04	6.43	-49.3	-60.5	3.8	8.48e-01	0	41	104	0	69	12766
2026-01-07 03:12:20.04	23.09	6.50	-49.3	-60.4	3.8	8.47e-01	0	41	104	0	69	12535
2026-01-07 03:12:21.05	23.14	6.57	-49.3	-60.2	3.8	8.46e-01	0	41	104	0	69	12361
2026-01-07 03:12:22.05	23.19	6.64	-49.3	-60.1	3.8	8.47e-01	0	41	104	0	69	12179
2026-01-07 03:12:23.06	23.24	6.72	-49.3	-59.9	3.8	8.47e-01	0	41	104	0	69	11947
2026-01-07 03:12:24.06	23.29	6.79	-49.3	-59.9	3.8	8.47e-01	0	41	104	0	69	11863
2026-01-07 03:12:25.07	23.34	6.86	-49.3	-59.9	3.8	8.46e-01	0	41	104	0	69	11905
2026-01-07 03:12:26.07	23.40	6.93	-49.3	-60.0	3.8	8.47e-01	0	41	104	0	69	12006
2026-01-07 03:12:27.07	23.45	7.01	-49.3	-60.2	3.8	8.45e-01	0	41	104	0	69	12317
2026-01-07 03:12:28.08	23.50	7.08	-49.3	-60.4	3.8	8.47e-01	0	41	104	0	69	12538
2026-01-07 03:12:29.08	23.55	7.15	-49.3	-60.5	3.8	8.47e-01	0	41	104	0	69	12765
2026-01-07 03:12:30.09	23.61	7.23	-49.3	-60.5	3.8	8.47e-01	0	41	104	0	69	12700
2026-01-07 03:12:31.09	23.66	7.30	-49.3	-60.3	3.8	8.48e-01	0	41	104	0	69	12408
2026-01-07 03:12:32.09	23.71	7.37	-49.3	-59.9	3.8	8.47e-01	0	41	104	0	69	11932
2026-01-07 03:12:33.10	23.77	7.45	-49.3	-59.5	3.8	8.47e-01	0	41	104	0	69	11289
2026-01-07 03:12:34.10	23.82	7.52	-49.2	-59.0	3.8	8.45e-01	0	41	104	0	69	10680
2026-01-07 03:12:35.11	23.88	7.60	-49.1	-58.6	3.8	8.46e-01	0	41	104	0	69	10273
2026-01-07 03:12:36.11	23.93	7.67	-49.1	-58.5	3.8	8.45e-01	0	41	104	0	69	10092
2026-01-07 03:12:37.12	23.98	7.75	-49.1	-58.3	3.9	8.46e-01	0	41	104	0	69	9942
2026-01-07 03:12:38.12	24.04	7.82	-49.1	-58.4	3.8	8.45e-01	0	41	104	0	69	9994
2026-01-07 03:12:39.12	24.09	7.90	-49.1	-58.6	3.8	8.45e-01	0	41	104	0	69	10213
2026-01-07 03:12:40.13	24.15	7.97	-49.2	-58.8	3.8	8.45e-01	0	41	104	0	69	10530
2026-01-07 03:12:41.13	24.21	8.05	-49.2	-59.0	3.8	8.45e-01	0	41	104	0	69	10722
2026-01-07 03:12:42.14	24.26	8.12	-49.2	-59.2	3.8	8.47e-01	0	41	104	0	69	10912
2026-01-07 03:12:43.14	24.32	8.20	-49.2	-59.1	3.8	8.45e-01	0	41	104	0	69	10850
2026-01-07 03:12:44.15	24.38	8.28	-49.1	-58.9	3.8	8.46e-01	0	42	104	0	69	10591
2026-01-07 03:12:45.15	24.43	8.35	-49.1	-58.5	3.8	8.45e-01	0	41	104	0	69	10112
2026-01-07 03:12:46.15	24.49	8.43	-49.1	-58.2	4.0	8.44e-01	0	42	104	0	69	9742
2026-01-07 03:12:47.16	24.55	8.51	-49.0	-57.7	4.0	8.45e-01	0	41	104	0	68	9807
2026-01-07 03:12:48.16	24.60	8.58	-48.9	-57.4	4.2	8.39e-01	0	42	0	0	68	9396
2026-01-07 03:12:49.17	24.66	8.66	-48.9	-56.7	4.3	8.34e-01	0	42	0	0	68	8746
2026-01-07 03:12:50.17	24.72	8.74	-48.6	-55.6	4.8	8.08e-01	0	42	0	0	68	7693
2026-01-07 03:12:51.17	24.78	8.82	-48.3	-54.5	5.3	7.44e-01	0	42	0	0	67	7204
2026-01-07 03:12:52.18	24.84	8.89	-47.8	-52.9	6.5	2.54e-01	0	41	0	4194304	66	6286
2026-01-07 03:12:53.18	24.90	8.97	-47.2	-51.5	7.9	8.60e-02	0	42	0	11534336	65	5659
2026-01-07 03:12:54.19	24.96	9.05	-46.7	-50.4	8.9	3.45e-02	0	42	0	18874368	64	5327
2026-01-07 03:12:55.40	25.03	9.15	-48.0	-53.7	6.0	2.24e-01	0	42	0	27262976	65	7289
2026-01-07 03:12:56.26	25.08	9.21	-48.4	-55.5	4.7	8.37e-01	0	42	0	28311552	66	8513
2026-01-07 03:12:57.61	25.16	9.32	-46.5	-49.9	9.7	1.18e-04	0	42	0	37748736	62	5639
2026-01-07 03:12:58.33	25.20	9.38	-46.3	-49.6	9.8	5.05e-02	0	42	0	42991616	63	5148
2026-01-07 03:12:59.62	25.28	9.48	-40.6	-41.8	17.6	0.00e+00	0	42	0	51380224	51	4188
2026-01-07 03:13:00.33	25.33	9.54	-40.5	-41.7	17.7	0.00e+00	0	42	0	56623104	51	4118
2026-01-07 03:13:01.62	25.41	9.64	-40.2	-41.4	18.1	0.00e+00	0	42	0	66060288	51	3959
2026-01-07 03:13:02.37	25.45	9.70	-40.4	-41.6	17.8	0.00e+00	0	42	0	72351744	51	4072
2026-01-07 03:13:03.66	25.53	9.80	-40.2	-41.3	18.1	0.00e+00	0	42	0	80740352	51	3937
2026-01-07 03:13:04.38	25.58	9.86	-39.7	-40.9	18.6	0.00e+00	0	42	0	85983232	50	3962
2026-01-07 03:13:05.66	25.66	9.96	-39.5	-40.6	18.9	0.00e+00	0	42	0	95420416	49	4057
2026-01-07 03:13:06.49	25.71	10.03	-39.5	-40.6	18.8	0.00e+00	0	42	0	101711872	49	4078
2026-01-07 03:13:07.64	25.78	10.12	-39.5	-40.6	18.9	0.00e+00	0	42	0	110100480	49	4053
2026-01-07 03:13:08.70	25.85	10.21	-39.2	-40.3	19.1	0.00e+00	0	42	0	117440512	49	3920
2026-01-07 03:13:09.74	25.92	10.30	-39.2	-40.2	19.2	0.00e+00	0	42	0	124780544	49	3910
2026-01-07 03:13:10.74	25.98	10.38	-39.0	-40.1	19.3	0.00e+00	0	42	0	132120576	48	4075
2026-01-07 03:13:11.95	26.06	10.48	-39.0	-40.1	19.4	0.00e+00	0	42	0	140509184	48	4055
2026-01-07 03:13:12.84	26.12	10.55	-39.2	-40.3	19.2	0.00e+00	0	42	0	146800640	48	4148
2026-01-07 03:13:13.87	26.18	10.64	-39.2	-40.2	19.2	0.00e+00	0	42	0	155189248	48	4131
2026-01-07 03:13:14.87	26.25	10.72	-39.1	-40.2	19.3	0.00e+00	0	42	0	162529280	48	4111
2026-01-07 03:13:15.87	26.32	10.80	-39.1	-40.1	19.4	0.00e+00	0	42	0	168820736	48	4078
2026-01-07 03:13:16.88	26.38	10.89	-39.1	-40.2	19.3	0.00e+00	0	42	0	176160768	48	4106
2026-01-07 03:13:17.88	26.45	10.97	-39.1	-40.2	19.3	0.00e+00	0	42	0	183500800	48	4122
2026-01-07 03:13:18.88	26.52	11.05	-39.1	-40.1	19.4	0.00e+00	0	42	0	190840832	48	4083
2026-01-07 03:13:19.88	26.59	11.14	-39.1	-40.1	19.4	0.00e+00	0	42	0	198180864	48	4095
2026-01-07 03:13:20.89	26.65	11.22	-39.1	-40.2	19.3	0.00e+00	0	42	0	205520896	48	4113
2026-01-07 03:13:21.89	26.72	11.31	-39.1	-40.1	19.4	0.00e+00	0	42	0	212860928	48	4078
2026-01-07 03:13:22.89	26.79	11.39	-39.0	-40.0	19.5	0.00e+00	0	42	0	220200960	48	4035
2026-01-07 03:13:23.89	26.86	11.48	-39.0	-40.1	19.4	0.00e+00	0	42	0	227540992	48	4067
2026-01-07 03:13:24.90	26.93	11.57	-39.0	-40.1	19.4	0.00e+00	0	42	0	233832448	48	4054
2026-01-07 03:13:25.90	27.00	11.65	-39.1	-40.1	19.4	0.00e+00	0	42	0	241172480	48	4090
2026-01-07 03:13:26.99	27.08	11.75	-39.0	-40.1	19.4	0.00e+00	0	42	0	249561088	48	4065
2026-01-07 03:13:27.85	27.14	11.82	-38.8	-39.9	19.6	0.00e+00	0	42	0	255852544	48	3971
2026-01-07 03:13:28.99	27.22	11.92	-39.0	-40.0	19.4	0.00e+00	0	42	0	264241152	48	4049
2026-01-07 03:13:29.85	27.28	11.99	-38.9	-40.0	19.5	0.00e+00	0	42	0	270532608	48	4006
2026-01-07 03:13:30.99	27.36	12.09	-38.8	-39.8	19.6	0.00e+00	0	42	0	277872640	48	3957
2026-01-07 03:13:31.85	27.42	12.17	-38.8	-39.8	19.7	0.00e+00	0	42	0	284164096	48	3936
2026-01-07 03:13:33.00	27.51	12.27	-38.4	-39.4	19.8	0.00e+00	0	42	0	292552704	47	4001
2026-01-07 03:13:33.86	27.57	12.35	-38.7	-39.7	19.5	0.00e+00	0	42	0	298844160	47	4145
2026-01-07 03:13:35.01	27.65	12.45	-38.6	-39.6	19.6	0.00e+00	0	42	0	307232768	47	4090
2026-01-07 03:13:35.86	27.72	12.52	-38.6	-39.6	19.6	0.00e+00	0	42	0	313524224	47	4096
2026-01-07 03:13:37.01	27.80	12.62	-38.6	-39.6	19.7	0.00e+00	0	42	0	321912832	47	4094
2026-01-07 03:13:37.87	27.87	12.70	-38.7	-39.7	19.6	0.00e+00	0	42	0	328204288	47	4122
2026-01-07 03:13:39.12	27.96	12.81	-38.6	-39.6	19.7	0.00e+00	0	42	0	337641472	47	4093
2026-01-07 03:13:39.87	28.02	12.88	-38.5	-39.6	19.7	0.00e+00	0	42	0	342884352	47	4061
2026-01-07 03:13:41.16	28.11	13.00	-38.5	-39.6	19.7	0.00e+00	0	42	0	351272960	47	4062
2026-01-07 03:13:41.87	28.17	13.06	-38.5	-39.5	19.8	0.00e+00	0	42	0	356515840	47	4038
2026-01-07 03:13:43.16	28.27	13.18	-38.5	-39.5	19.7	0.00e+00	0	42	0	365953024	47	4050
2026-01-07 03:13:43.90	28.33	13.25	-38.4	-39.4	19.9	0.00e+00	0	42	0	371195904	47	3981
2026-01-07 03:13:45.18	28.43	13.36	-38.5	-39.5	19.8	0.00e+00	0	42	0	380633088	47	4021
2026-01-07 03:13:45.96	28.49	13.43	-38.3	-39.4	19.9	0.00e+00	0	42	0	385875968	47	3961
2026-01-07 03:13:47.25	28.59	13.55	-38.4	-39.5	19.8	0.00e+00	0	42	0	395313152	47	4009
2026-01-07 03:13:48.06	28.65	13.63	-38.2	-39.2	20.1	0.00e+00	0	42	0	401604608	47	3888
2026-01-07 03:13:49.53	28.77	13.76	-38.2	-39.2	20.1	0.00e+00	0	42	0	412090368	47	3879
2026-01-07 03:13:50.24	28.83	13.83	-38.2	-39.2	20.1	0.00e+00	0	42	0	417333248	47	3897
2026-01-07 03:13:51.53	28.93	13.95	-38.2	-39.2	20.1	0.00e+00	0	42	0	426770432	47	3910
2026-01-07 03:13:52.25	28.99	14.02	-38.2	-39.2	20.2	0.00e+00	0	42	0	432013312	47	3869
2026-01-07 03:13:53.54	29.09	14.14	-38.1	-39.1	20.2	0.00e+00	0	42	0	441450496	47	3859
2026-01-07 03:13:54.28	29.16	14.21	-38.1	-39.1	20.3	0.00e+00	0	42	0	446693376	46	4054
2026-01-07 03:13:55.57	29.26	14.33	-38.2	-39.1	20.2	0.00e+00	0	42	0	455081984	46	4095
2026-01-07 03:13:56.28	29.32	14.40	-38.2	-39.1	20.2	0.00e+00	0	42	0	461373440	46	4087
2026-01-07 03:13:57.57	29.43	14.52	-38.2	-39.2	20.1	0.00e+00	0	42	0	470810624	46	4108
2026-01-07 03:13:58.29	29.49	14.59	-38.1	-39.1	20.2	0.00e+00	0	42	0	475004928	46	4058
2026-01-07 03:13:59.58	29.60	14.71	-38.0	-39.0	20.3	0.00e+00	0	42	0	484442112	46	4022
2026-01-07 03:14:00.29	29.66	14.78	-38.1	-39.1	20.2	0.00e+00	0	42	0	489684992	46	4069
2026-01-07 03:14:01.58	29.77	14.90	-38.1	-39.1	20.2	0.00e+00	0	43	0	499122176	46	4071
2026-01-07 03:14:02.56	29.86	15.00	-38.0	-38.9	20.4	0.00e+00	0	42	0	506462208	46	3992
2026-01-07 03:14:03.56	29.94	15.10	-37.9	-38.9	20.4	0.00e+00	0	42	0	513802240	46	3983
2026-01-07 03:14:04.56	30.03	15.19	-38.1	-39.0	20.4	0.00e+00	0	42	0	520093696	46	4050
2026-01-07 03:14:05.56	30.12	15.29	-38.0	-38.9	20.4	0.00e+00	0	42	0	527433728	46	3998
2026-01-07 03:14:06.57	30.21	15.39	-38.0	-38.9	20.5	0.00e+00	0	42	0	534773760	46	3986
2026-01-07 03:14:07.57	30.30	15.49	-38.0	-38.9	20.4	0.00e+00	0	42	0	542113792	46	3997
2026-01-07 03:14:08.57	30.39	15.59	-37.9	-38.8	20.5	0.00e+00	0	43	0	549453824	46	3933
2026-01-07 03:14:09.58	30.48	15.69	-37.8	-38.7	20.7	0.00e+00	0	42	0	556793856	46	3883
2026-01-07 03:14:10.58	30.57	15.79	-37.9	-38.8	20.6	0.00e+00	0	42	0	564133888	46	3942
2026-01-07 03:14:11.58	30.66	15.89	-38.0	-38.9	20.5	0.00e+00	0	42	0	571473920	46	3984
2026-01-07 03:14:12.58	30.75	15.99	-37.9	-38.8	20.6	0.00e+00	0	43	0	578813952	46	3943
2026-01-07 03:14:13.59	30.84	16.09	-37.8	-38.8	20.6	0.00e+00	0	42	0	586153984	46	3926
2026-01-07 03:14:14.59	30.94	16.19	-37.8	-38.8	20.6	0.00e+00	0	42	0	593494016	46	3924
2026-01-07 03:14:15.85	31.06	16.32	-37.8	-38.7	20.6	0.00e+00	0	42	0	601882624	45	4141
2026-01-07 03:14:16.63	31.13	16.40	-37.7	-38.7	20.7	0.00e+00	0	43	0	608174080	45	4104
2026-01-07 03:14:17.92	31.25	16.53	-37.8	-38.8	20.6	0.00e+00	0	43	0	617611264	45	4151
2026-01-07 03:14:18.64	31.32	16.60	-37.8	-38.8	20.5	0.00e+00	0	42	0	621805568	45	4184
2026-01-07 03:14:20.29	31.48	16.77	-37.5	-38.4	20.9	0.00e+00	0	42	0	634388480	45	3989
2026-01-07 03:14:20.87	31.54	16.83	-37.7	-38.7	20.6	0.00e+00	0	42	0	638582784	45	4123
2026-01-07 03:14:22.45	31.69	17.00	-37.5	-38.5	20.8	0.00e+00	0	43	0	650117120	45	4028
2026-01-07 03:14:23.05	31.75	17.06	-37.6	-38.5	20.8	0.00e+00	0	42	0	654311424	45	4038
2026-01-07 03:14:24.63	31.91	17.22	-37.4	-38.3	21.0	0.00e+00	0	42	0	665845760	45	3955
2026-01-07 03:14:25.20	31.97	17.28	-37.5	-38.5	20.8	0.00e+00	0	43	0	670040064	45	4020
2026-01-07 03:14:26.79	32.13	17.45	-37.2	-38.1	21.2	0.00e+00	0	42	0	681574400	45	3860
2026-01-07 03:14:27.36	32.18	17.51	-37.2	-38.1	21.2	0.00e+00	0	42	0	684720128	45	3829
2026-01-07 03:14:28.94	32.35	17.68	-37.2	-38.2	21.1	0.00e+00	0	42	0	696254464	45	3870
2026-01-07 03:14:29.53	32.41	17.74	-37.2	-38.1	21.1	0.00e+00	0	43	0	701497344	45	3848
2026-01-07 03:14:31.10	32.57	17.91	-37.2	-38.2	21.0	0.00e+00	0	42	0	711983104	44	4112
2026-01-07 03:14:31.68	32.63	17.97	-37.1	-38.0	21.1	0.00e+00	0	43	0	716177408	44	4045
2026-01-07 03:14:33.51	32.82	18.17	-37.1	-38.0	21.1	0.00e+00	0	42	0	729808896	44	4027
2026-01-07 03:14:34.08	32.88	18.23	-36.9	-37.9	21.2	0.00e+00	0	43	0	734003200	44	3961
2026-01-07 03:14:35.68	33.05	18.40	-36.9	-37.8	21.1	0.00e+00	0	43	0	745537536	44	3947
2026-01-07 03:14:36.26	33.12	18.47	-36.6	-37.5	21.3	0.00e+00	0	42	0	749731840	43	4048
2026-01-07 03:14:37.83	33.29	18.64	-36.9	-37.8	21.2	0.00e+00	0	43	0	761266176	43	4162
2026-01-07 03:14:38.45	33.35	18.71	-36.7	-37.6	21.4	0.00e+00	0	43	0	765460480	43	4076
2026-01-07 03:14:40.02	33.53	18.88	-36.7	-37.6	21.4	0.00e+00	0	43	0	776994816	43	4089
2026-01-07 03:14:40.63	33.60	18.95	-36.6	-37.6	21.5	0.00e+00	0	43	0	781189120	43	4052
2026-01-07 03:14:42.20	33.77	19.12	-36.8	-37.7	21.4	0.00e+00	0	43	0	792723456	43	4112
2026-01-07 03:14:42.79	33.84	19.19	-36.7	-37.6	21.6	0.00e+00	0	43	0	796917760	43	4063
2026-01-07 03:14:44.36	34.02	19.37	-36.7	-37.6	21.5	0.00e+00	0	43	0	807403520	43	4095
2026-01-07 03:14:44.97	34.09	19.43	-36.8	-37.7	21.5	0.00e+00	0	43	0	812646400	43	4111
2026-01-07 03:14:46.54	34.27	19.61	-36.7	-37.6	21.5	0.00e+00	0	43	0	824180736	43	4094
2026-01-07 03:14:47.14	34.34	19.68	-36.6	-37.5	21.6	0.00e+00	0	42	0	828375040	43	4025
2026-01-07 03:14:48.72	34.52	19.86	-36.7	-37.6	21.5	0.00e+00	0	43	0	838860800	43	4084
2026-01-07 03:14:49.61	34.63	19.96	-36.7	-37.6	21.6	0.00e+00	0	43	0	846200832	43	4062
2026-01-07 03:14:50.75	34.76	20.09	-36.5	-37.4	21.8	0.00e+00	0	43	0	853540864	43	3988
2026-01-07 03:14:51.61	34.87	20.19	-36.5	-37.3	21.9	0.00e+00	0	43	0	859832320	43	3948
2026-01-07 03:14:52.76	35.01	20.32	-36.5	-37.3	21.8	0.00e+00	0	43	0	868220928	43	3953
2026-01-07 03:14:53.61	35.11	20.42	-36.4	-37.3	21.9	0.00e+00	0	42	0	874512384	43	3938
2026-01-07 03:14:54.76	35.25	20.56	-36.5	-37.4	21.8	0.00e+00	0	43	0	882900992	43	3969
2026-01-07 03:14:55.62	35.36	20.66	-36.3	-37.1	22.0	0.00e+00	0	43	0	889192448	43	3862
2026-01-07 03:14:56.77	35.50	20.79	-36.2	-37.1	22.1	0.00e+00	0	43	0	897581056	43	3830
2026-01-07 03:14:57.62	35.61	20.89	-36.2	-37.1	22.1	0.00e+00	0	43	0	903872512	43	3834
2026-01-07 03:14:58.99	35.78	21.05	-36.1	-37.0	22.2	0.00e+00	0	43	0	913309696	43	3803
2026-01-07 03:14:59.71	35.87	21.14	-36.1	-36.9	22.2	0.00e+00	0	43	0	918552576	42	3997
2026-01-07 03:15:01.19	36.06	21.32	-36.0	-36.9	22.2	0.00e+00	0	43	0	929038336	42	3979
2026-01-07 03:15:02.17	36.19	21.43	-36.0	-36.9	22.2	0.00e+00	0	43	0	936378368	42	3966
2026-01-07 03:15:03.49	36.36	21.59	-35.9	-36.8	22.3	0.00e+00	0	43	0	945815552	42	3917
2026-01-07 03:15:04.21	36.46	21.68	-35.9	-36.7	22.3	0.00e+00	0	43	0	951058432	42	3913
2026-01-07 03:15:05.85	36.68	21.88	-35.8	-36.7	22.3	0.00e+00	0	43	0	962592768	42	3884
2026-01-07 03:15:06.43	36.75	21.95	-35.9	-36.8	22.3	0.00e+00	0	43	0	967835648	42	3930
2026-01-07 03:15:08.03	36.97	22.14	-35.9	-36.8	22.3	0.00e+00	0	42	0	979369984	42	3936
2026-01-07 03:15:08.60	37.05	22.21	-36.0	-36.8	22.2	0.00e+00	0	43	0	982515712	42	3955
2026-01-07 03:15:10.20	37.27	22.41	-36.1	-36.9	22.1	0.00e+00	0	43	0	994050048	42	4003
2026-01-07 03:15:10.77	37.35	22.48	-36.1	-37.0	22.1	0.00e+00	0	43	0	998244352	42	4006
2026-01-07 03:15:12.37	37.57	22.68	-36.2	-37.1	22.0	0.00e+00	0	43	0	1010827264	42	4054
2026-01-07 03:15:12.95	37.65	22.75	-36.1	-37.0	22.1	0.00e+00	0	43	0	1013972992	42	4020
2026-01-07 03:15:14.54	37.88	22.95	-36.2	-37.0	22.0	0.00e+00	0	43	0	1025507328	42	4041
2026-01-07 03:15:15.11	37.96	23.02	-36.2	-37.0	22.1	0.00e+00	0	43	0	1029701632	42	4034
2026-01-07 03:15:17.04	38.24	23.26	-36.1	-36.9	22.1	0.00e+00	0	43	0	1044381696	42	3999
2026-01-07 03:15:17.61	38.32	23.34	-36.1	-36.9	22.1	0.00e+00	0	43	0	1047527424	42	3998
2026-01-07 03:15:19.65	38.62	23.59	-36.0	-36.9	22.2	0.00e+00	0	43	0	1062207488	42	3968
2026-01-07 03:15:20.22	38.71	23.67	-36.0	-36.9	22.1	0.00e+00	0	43	0	1067450368	42	3984
2026-01-07 03:15:21.80	38.95	23.87	-35.8	-36.7	22.4	0.00e+00	0	43	0	1077936128	42	3882
2026-01-07 03:15:22.39	39.04	23.95	-35.9	-36.7	22.3	0.00e+00	0	43	0	1082130432	42	3896
2026-01-07 03:15:23.97	39.28	24.15	-35.9	-36.8	22.3	0.00e+00	0	43	0	1093664768	42	3934
2026-01-07 03:15:24.57	39.37	24.23	-35.8	-36.6	22.4	0.00e+00	0	43	0	1098907648	42	3858
2026-01-07 03:15:26.15	39.62	24.43	-35.9	-36.7	22.4	0.00e+00	0	43	0	1109393408	42	3912
2026-01-07 03:15:26.99	39.75	24.54	-36.1	-36.9	22.2	0.00e+00	0	42	0	1115684864	42	3991
2026-01-07 03:15:28.13	39.93	24.69	-35.9	-36.8	22.3	0.00e+00	0	42	0	1124073472	42	3922
2026-01-07 03:15:29.31	40.12	24.85	-36.0	-36.9	22.2	0.00e+00	0	43	0	1132462080	42	3978
2026-01-07 03:15:30.35	40.29	24.98	-35.9	-36.7	22.4	0.00e+00	0	43	0	1139802112	42	3900
2026-01-07 03:15:31.35	40.45	25.12	-35.9	-36.7	22.4	0.00e+00	0	43	0	1147142144	42	3899
2026-01-07 03:15:32.35	40.62	25.25	-35.8	-36.6	22.5	0.00e+00	0	43	0	1154482176	42	3849
2026-01-07 03:15:33.35	40.78	25.38	-35.8	-36.7	22.5	0.00e+00	0	43	0	1161822208	42	3870
2026-01-07 03:15:34.36	40.95	25.52	-35.9	-36.8	22.4	0.00e+00	0	43	0	1169162240	42	3925
2026-01-07 03:15:35.36	41.12	25.65	-35.8	-36.6	22.5	0.00e+00	0	43	0	1176502272	42	3863
2026-01-07 03:15:36.36	41.29	25.78	-35.8	-36.6	22.5	0.00e+00	0	43	0	1182793728	42	3852
2026-01-07 03:15:37.36	41.46	25.92	-35.9	-36.8	22.4	0.00e+00	0	43	0	1190133760	42	3918
2026-01-07 03:15:38.36	41.63	26.06	-35.8	-36.7	22.5	0.00e+00	0	43	0	1197473792	42	3870
2026-01-07 03:15:39.36	41.81	26.19	-35.7	-36.5	22.6	0.00e+00	0	43	0	1204813824	42	3800
2026-01-07 03:15:40.37	41.98	26.33	-35.5	-36.3	22.8	0.00e+00	0	43	0	1212153856	41	3933
2026-01-07 03:15:41.37	42.16	26.47	-35.4	-36.2	22.9	0.00e+00	0	43	0	1219493888	41	3887
2026-01-07 03:15:42.37	42.34	26.60	-35.4	-36.3	22.8	0.00e+00	0	43	0	1226833920	41	3924
2026-01-07 03:15:43.38	42.52	26.74	-35.4	-36.2	22.9	0.00e+00	0	43	0	1234173952	41	3885
2026-01-07 03:15:44.38	42.70	26.88	-35.4	-36.2	22.8	0.00e+00	0	43	0	1241513984	41	3906
2026-01-07 03:15:45.38	42.89	27.02	-35.5	-36.3	22.7	0.00e+00	0	43	0	1248854016	41	3950
2026-01-07 03:15:46.39	43.07	27.16	-35.5	-36.4	22.7	0.00e+00	0	43	0	1256194048	41	3967
2026-01-07 03:15:47.39	43.26	27.30	-35.6	-36.5	22.6	0.00e+00	0	43	0	1262485504	41	4025
2026-01-07 03:15:48.40	43.45	27.44	-35.6	-36.5	22.6	0.00e+00	0	43	0	1269825536	41	4027
2026-01-07 03:15:49.40	43.64	27.58	-35.6	-36.4	22.7	0.00e+00	0	43	0	1277165568	41	3995
2026-01-07 03:15:50.40	43.83	27.72	-35.6	-36.5	22.7	0.00e+00	0	42	0	1284505600	41	4013
2026-01-07 03:15:51.40	44.02	27.86	-35.7	-36.5	22.6	0.00e+00	0	43	0	1291845632	41	4039
2026-01-07 03:15:52.40	44.22	28.00	-35.6	-36.4	22.7	0.00e+00	0	43	0	1299185664	41	4000
2026-01-07 03:15:53.40	44.41	28.14	-35.6	-36.4	22.7	0.00e+00	0	43	0	1306525696	41	4001
2026-01-07 03:15:54.41	44.61	28.28	-35.5	-36.4	22.8	0.00e+00	0	43	0	1313865728	41	3965
2026-01-07 03:15:55.41	44.81	28.43	-35.5	-36.3	22.8	0.00e+00	0	43	0	1321205760	41	3954
2026-01-07 03:15:56.42	45.02	28.57	-35.6	-36.4	22.7	0.00e+00	0	43	0	1328545792	41	3986
2026-01-07 03:15:57.42	45.22	28.71	-35.4	-36.2	22.9	0.00e+00	0	43	0	1334837248	41	3908
2026-01-07 03:15:58.42	45.43	28.86	-35.3	-36.1	23.0	0.00e+00	0	42	0	1343225856	41	3854
2026-01-07 03:15:59.42	45.63	29.00	-35.5	-36.3	22.8	0.00e+00	0	43	0	1349517312	41	3932
2026-01-07 03:16:00.43	45.84	29.14	-35.6	-36.4	22.7	0.00e+00	0	43	0	1356857344	41	3988
2026-01-07 03:16:01.43	46.05	29.29	-35.6	-36.5	22.6	0.00e+00	0	43	0	1364197376	41	4031
2026-01-07 03:16:02.43	46.27	29.43	-35.7	-36.6	22.6	0.00e+00	0	43	0	1371537408	41	4064
2026-01-07 03:16:03.43	46.48	29.58	-35.8	-36.6	22.5	0.00e+00	0	43	0	1378877440	41	4082
2026-01-07 03:16:04.43	46.70	29.72	-35.7	-36.6	22.6	0.00e+00	0	43	0	1386217472	41	4056
2026-01-07 03:16:05.44	46.92	29.87	-35.6	-36.4	22.7	0.00e+00	0	43	0	1393557504	41	4004
2026-01-07 03:16:06.44	47.14	30.02	-35.8	-36.6	22.5	0.00e+00	0	43	0	1400897536	41	4095
2026-01-07 03:16:07.44	47.36	30.16	-35.6	-36.5	22.7	0.00e+00	0	43	0	1407188992	41	4012
2026-01-07 03:16:08.45	47.58	30.31	-35.8	-36.7	22.5	0.00e+00	0	43	0	1414529024	41	4115
2026-01-07 03:16:09.45	47.81	30.46	-35.6	-36.4	22.7	0.00e+00	0	43	0	1421869056	41	4004
2026-01-07 03:16:10.45	48.04	30.60	-35.8	-36.6	22.5	0.00e+00	0	43	0	1429209088	41	4081
2026-01-07 03:16:11.45	48.27	30.75	-35.9	-36.8	22.4	0.00e+00	0	43	0	1436549120	41	4169
2026-01-07 03:16:12.45	48.50	30.90	-36.0	-36.8	22.3	0.00e+00	0	43	0	1443889152	41	4187
2026-01-07 03:16:13.46	48.74	31.05	-36.0	-36.9	22.3	0.00e+00	0	43	0	1451229184	41	4215
2026-01-07 03:16:14.46	48.97	31.20	-36.1	-37.0	22.2	0.00e+00	0	43	0	1458569216	41	4276
2026-01-07 03:16:15.46	49.21	31.34	-36.0	-36.9	22.3	0.00e+00	0	43	0	1465909248	41	4222
2026-01-07 03:16:16.47	49.46	31.49	-36.0	-36.8	22.4	0.00e+00	0	43	0	1472200704	41	4192
2026-01-07 03:16:17.47	49.70	31.64	-36.0	-36.9	22.4	0.00e+00	0	43	0	1480589312	41	4213
2026-01-07 03:16:18.47	49.94	31.79	-36.0	-36.8	22.4	0.00e+00	0	43	0	1487929344	41	4186
2026-01-07 03:16:19.48	50.19	31.94	-35.7	-36.6	22.6	0.00e+00	0	43	0	1494220800	41	4058
2026-01-07 03:16:20.48	50.44	32.09	-35.6	-36.4	22.7	0.00e+00	0	43	0	1501560832	41	4000
2026-01-07 03:16:21.49	50.70	32.24	-35.5	-36.4	22.8	0.00e+00	0	43	0	1508900864	41	3967
2026-01-07 03:16:22.49	50.95	32.39	-35.7	-36.6	22.6	0.00e+00	0	43	0	1516240896	41	4060
2026-01-07 03:16:23.49	51.21	32.54	-35.7	-36.5	22.6	0.00e+00	0	43	0	1523580928	41	4045
2026-01-07 03:16:24.49	51.47	32.69	-35.6	-36.5	22.7	0.00e+00	0	43	0	1530920960	41	4023
2026-01-07 03:16:25.50	51.73	32.84	-35.7	-36.5	22.7	0.00e+00	0	43	0	1538260992	41	4041
2026-01-07 03:16:26.50	51.99	32.99	-35.6	-36.5	22.7	0.00e+00	0	43	0	1545601024	41	4018
2026-01-07 03:16:27.50	52.26	33.14	-35.6	-36.5	22.8	0.00e+00	0	43	0	1552941056	41	4008
2026-01-07 03:16:28.50	52.53	33.29	-35.6	-36.4	22.7	0.00e+00	0	43	0	1559232512	41	4004
2026-01-07 03:16:29.51	52.80	33.45	-35.6	-36.5	22.7	0.00e+00	0	43	0	1566572544	41	4017
2026-01-07 03:16:30.51	53.07	33.60	-35.6	-36.4	22.7	0.00e+00	0	43	0	1573912576	41	3998
2026-01-07 03:16:31.51	53.35	33.75	-35.5	-36.4	22.8	0.00e+00	0	43	0	1581252608	41	3966
2026-01-07 03:16:32.52	53.63	33.90	-35.7	-36.5	22.6	0.00e+00	0	43	0	1588592640	41	4048
2026-01-07 03:16:33.52	53.91	34.05	-35.6	-36.5	22.7	0.00e+00	0	43	0	1595932672	41	4016
2026-01-07 03:16:34.52	54.20	34.20	-35.5	-36.4	22.8	0.00e+00	0	43	0	1603272704	41	3964
2026-01-07 03:16:35.52	54.48	34.35	-35.5	-36.4	22.8	0.00e+00	0	43	0	1610612736	41	3966
2026-01-07 03:16:36.53	54.77	34.50	-35.5	-36.3	22.8	0.00e+00	0	43	0	1617952768	41	3958
2026-01-07 03:16:37.53	55.07	34.65	-35.5	-36.4	22.8	0.00e+00	0	43	0	1625292800	41	3968
2026-01-07 03:16:38.54	55.36	34.80	-35.4	-36.3	22.9	0.00e+00	0	43	0	1632632832	41	3915
2026-01-07 03:16:39.54	55.66	34.95	-35.5	-36.3	22.8	0.00e+00	0	43	0	1638924288	41	3954
2026-01-07 03:16:40.54	55.96	35.10	-35.5	-36.4	22.8	0.00e+00	0	43	0	1646264320	41	3962
2026-01-07 03:16:41.54	56.26	35.25	-35.5	-36.4	22.8	0.00e+00	0	43	0	1653604352	41	3972
2026-01-07 03:16:42.56	56.57	35.41	-35.6	-36.4	22.7	0.00e+00	0	43	0	1660944384	41	3992
2026-01-07 03:16:43.57	56.88	35.56	-35.5	-36.4	22.8	0.00e+00	0	43	0	1668284416	41	3969
2026-01-07 03:16:44.57	57.19	35.71	-35.5	-36.4	22.8	0.00e+00	0	43	0	1675624448	41	3959
2026-01-07 03:16:45.57	57.51	35.85	-35.5	-36.3	22.9	0.00e+00	0	43	0	1682964480	41	3935
2026-01-07 03:16:46.58	57.83	36.00	-35.5	-36.4	22.8	0.00e+00	0	43	0	1690304512	41	3972
2026-01-07 03:16:47.58	58.15	36.15	-35.5	-36.3	22.9	0.00e+00	0	43	0	1697644544	41	3947
2026-01-07 03:16:48.58	58.47	36.30	-35.7	-36.6	22.6	0.00e+00	0	43	0	1704984576	41	4073
2026-01-07 03:16:49.57	58.79	36.45	-35.6	-36.4	22.8	0.00e+00	0	43	0	1712324608	41	3994
2026-01-07 03:16:50.58	59.12	36.60	-35.5	-36.4	22.9	0.00e+00	0	43	0	1719664640	41	3960
2026-01-07 03:16:51.58	59.45	36.74	-35.4	-36.2	23.0	0.00e+00	0	43	0	1725956096	41	3902
2026-01-07 03:16:52.58	59.79	36.89	-35.4	-36.2	23.0	0.00e+00	0	43	0	1733296128	41	3890
2026-01-07 03:16:53.58	60.12	37.04	-35.5	-36.3	22.9	0.00e+00	0	43	0	1740636160	41	3940
2026-01-07 03:16:54.95	60.59	37.24	-35.6	-36.5	22.8	0.00e+00	0	43	0	1751121920	41	4014
2026-01-07 03:16:55.70	60.85	37.35	-35.8	-36.6	22.7	0.00e+00	0	43	0	1756364800	41	4091
2026-01-07 03:16:56.99	61.29	37.53	-35.9	-36.8	22.5	0.00e+00	0	43	0	1765801984	41	4146
2026-01-07 03:16:57.71	61.54	37.64	-35.8	-36.7	22.6	0.00e+00	0	43	0	1771044864	41	4110
2026-01-07 03:16:59.00	62.00	37.82	-35.8	-36.7	22.5	0.00e+00	0	43	0	1779433472	41	4122
2026-01-07 03:16:59.72	62.26	37.92	-35.8	-36.7	22.6	0.00e+00	0	43	0	1785724928	41	4105
2026-01-07 03:17:01.01	62.72	38.11	-35.7	-36.5	22.7	0.00e+00	0	43	0	1794113536	41	4034
2026-01-07 03:17:01.72	62.98	38.21	-35.6	-36.5	22.8	0.00e+00	0	43	0	1799356416	41	4007
2026-01-07 03:17:03.03	63.45	38.39	-35.6	-36.4	22.8	0.00e+00	0	43	0	1808793600	41	3981
2026-01-07 03:17:03.75	63.72	38.50	-35.4	-36.2	23.0	0.00e+00	0	43	0	1814036480	41	3910
2026-01-07 03:17:05.11	64.23	38.69	-35.3	-36.1	23.1	0.00e+00	0	43	0	1824522240	41	3840
2026-01-07 03:17:05.83	64.50	38.79	-35.3	-36.1	23.1	0.00e+00	0	43	0	1829765120	41	3831
2026-01-07 03:17:07.12	64.98	38.96	-35.4	-36.2	23.0	0.00e+00	0	43	0	1838153728	41	3887
2026-01-07 03:17:08.19	65.39	39.11	-35.5	-36.3	22.9	0.00e+00	0	43	0	1846542336	41	3948
2026-01-07 03:17:09.05	65.72	39.23	-35.6	-36.5	22.7	0.00e+00	0	43	0	1852833792	41	4024
2026-01-07 03:17:10.19	66.17	39.38	-35.8	-36.7	22.6	0.00e+00	0	43	0	1860173824	41	4108
2026-01-07 03:17:11.05	66.50	39.50	-35.8	-36.7	22.6	0.00e+00	0	43	0	1866465280	41	4104
2026-01-07 03:17:12.23	66.97	39.66	-35.9	-36.8	22.5	0.00e+00	0	43	0	1875902464	41	4148
2026-01-07 03:17:13.09	67.31	39.77	-35.8	-36.6	22.6	0.00e+00	0	43	0	1881145344	41	4077
2026-01-07 03:17:14.23	67.77	39.92	-35.8	-36.6	22.6	0.00e+00	0	43	0	1889533952	41	4095
2026-01-07 03:17:15.09	68.12	40.03	-35.8	-36.7	22.6	0.00e+00	0	43	0	1895825408	41	4106
2026-01-07 03:17:16.38	68.64	40.20	-35.9	-36.7	22.5	0.00e+00	0	43	0	1905262592	41	4130
2026-01-07 03:17:17.10	68.94	40.29	-35.9	-36.7	22.5	0.00e+00	0	43	0	1910505472	41	4124
2026-01-07 03:17:18.39	69.47	40.45	-36.3	-37.2	22.1	0.00e+00	0	43	0	1919942656	42	4121
2026-01-07 03:17:19.11	69.77	40.54	-36.2	-37.1	22.2	0.00e+00	0	43	0	1925185536	42	4078
2026-01-07 03:17:20.39	70.31	40.70	-36.4	-37.3	22.0	0.00e+00	0	43	0	1934622720	42	4167
2026-01-07 03:17:21.11	70.62	40.79	-36.1	-37.0	22.3	0.00e+00	0	43	0	1939865600	42	4024
2026-01-07 03:17:22.74	71.32	40.99	-35.7	-36.5	22.7	0.00e+00	0	43	0	1951399936	42	3823
2026-01-07 03:17:23.31	71.56	41.06	-35.6	-36.5	22.8	0.00e+00	0	43	0	1955594240	42	3787
2026-01-07 03:17:24.90	72.25	41.25	-35.4	-36.3	23.0	0.00e+00	0	43	0	1967128576	41	3914
2026-01-07 03:17:25.47	72.50	41.31	-35.4	-36.2	23.0	0.00e+00	0	43	0	1971322880	41	3902
2026-01-07 03:17:27.05	73.20	41.50	-35.5	-36.3	22.9	0.00e+00	0	43	0	1981808640	41	3940
2026-01-07 03:17:27.79	73.53	41.58	-35.4	-36.2	23.0	0.00e+00	0	43	0	1988100096	41	3892
2026-01-07 03:17:29.08	74.11	41.73	-35.4	-36.2	23.0	0.00e+00	0	43	0	1997537280	41	3907
2026-01-07 03:17:29.96	74.51	41.82	-35.5	-36.3	22.9	0.00e+00	0	43	0	2003828736	41	3936
2026-01-07 03:17:31.10	75.02	41.95	-35.4	-36.2	23.0	0.00e+00	0	43	0	2011168768	41	3898
2026-01-07 03:17:32.21	75.53	42.07	-35.5	-36.3	22.8	0.00e+00	0	43	0	2019557376	41	3947
2026-01-07 03:17:33.25	76.01	42.18	-35.5	-36.4	22.8	0.00e+00	0	43	0	2027945984	41	3962
2026-01-07 03:17:34.25	76.48	42.28	-35.7	-36.5	22.7	0.00e+00	0	43	0	2034237440	41	4028
2026-01-07 03:17:35.25	76.94	42.38	-35.7	-36.5	22.7	0.00e+00	0	43	0	2041577472	41	4047
2026-01-07 03:17:36.26	77.42	42.48	-35.7	-36.6	22.7	0.00e+00	0	43	0	2048917504	41	4064
2026-01-07 03:17:37.51	78.01	42.60	-35.8	-36.6	22.6	0.00e+00	0	43	0	2058354688	41	4088
2026-01-07 03:17:38.26	78.37	42.67	-35.9	-36.7	22.5	0.00e+00	0	43	0	2063597568	41	4132
2026-01-07 03:17:39.55	78.99	42.80	-35.8	-36.7	22.6	0.00e+00	0	43	0	2073034752	41	4105
2026-01-07 03:17:40.26	79.33	42.86	-35.7	-36.6	22.6	0.00e+00	0	43	0	2078277632	41	4066
2026-01-07 03:17:41.56	79.96	42.98	-35.8	-36.6	22.6	0.00e+00	0	43	0	2087714816	41	4084
2026-01-07 03:17:42.27	80.31	43.04	-35.7	-36.5	22.7	0.00e+00	0	43	0	2091909120	41	4027
2026-01-07 03:17:43.56	80.94	43.15	-35.7	-36.5	22.7	0.00e+00	0	43	0	2101346304	41	4034
2026-01-07 03:17:44.28	81.29	43.21	-35.6	-36.5	22.8	0.00e+00	0	43	0	2106589184	41	4008
2026-01-07 03:17:45.57	81.93	43.31	-35.8	-36.6	22.6	0.00e+00	0	43	0	2116026368	41	4088
2026-01-07 03:17:46.30	82.30	43.37	-35.9	-36.7	22.5	0.00e+00	0	43	0	2121269248	41	4142
2026-01-07 03:17:47.67	82.98	43.48	-36.2	-37.1	22.2	0.00e+00	0	43	0	2131755008	41	4299
2026-01-07 03:17:48.66	83.48	43.55	-36.3	-37.2	22.1	0.00e+00	0	43	0	2139095040	42	4145
2026-01-07 03:17:49.97	84.14	43.64	-36.5	-37.4	21.9	0.00e+00	0	43	0	2147483648	42	4241
2026-01-07 03:17:50.69	84.51	43.69	-36.4	-37.3	22.0	0.00e+00	0	43	0	2152726528	42	4162
2026-01-07 03:17:51.98	85.17	43.78	-36.5	-37.4	21.9	0.00e+00	0	43	0	2162163712	42	4238
2026-01-07 03:17:52.69	85.53	43.83	-36.3	-37.3	22.1	0.00e+00	0	43	0	2167406592	42	4147
2026-01-07 03:17:53.98	86.19	43.91	-36.2	-37.1	22.2	0.00e+00	0	43	0	2176843776	42	4080
2026-01-07 03:17:54.70	86.56	43.95	-36.2	-37.1	22.2	0.00e+00	0	43	0	2182086656	42	4075
2026-01-07 03:17:55.98	87.23	44.02	-36.2	-37.1	22.2	0.00e+00	0	43	0	2191523840	42	4056
2026-01-07 03:17:56.70	87.60	44.06	-36.2	-37.1	22.2	0.00e+00	0	43	0	2196766720	42	4078
2026-01-07 03:17:57.99	88.28	44.13	-36.3	-37.1	22.2	0.00e+00	0	43	0	2206203904	42	4098
2026-01-07 03:17:58.71	88.65	44.16	-36.1	-37.0	22.3	0.00e+00	0	43	0	2211446784	42	4043
2026-01-07 03:18:00.00	89.33	44.23	-36.2	-37.1	22.3	0.00e+00	0	43	0	2219835392	42	4054
2026-01-07 03:18:00.71	89.70	44.26	-36.2	-37.1	22.2	0.00e+00	0	43	0	2225078272	42	4070
2026-01-07 03:18:02.00	90.38	44.31	-36.3	-37.2	22.1	0.00e+00	0	43	0	2234515456	42	4124
2026-01-07 03:18:02.72	90.77	44.34	-36.5	-37.4	21.9	0.00e+00	0	43	0	2239758336	42	4201
2026-01-07 03:18:04.01	91.45	44.39	-36.6	-37.5	21.8	0.00e+00	0	43	0	2249195520	42	4286
2026-01-07 03:18:04.72	91.83	44.41	-36.4	-37.3	22.1	0.00e+00	0	43	0	2254438400	42	4160
2026-01-07 03:18:06.04	92.53	44.45	-36.1	-37.0	22.3	0.00e+00	0	43	0	2263875584	42	4006
2026-01-07 03:18:06.76	92.92	44.47	-36.1	-37.0	22.4	0.00e+00	0	43	0	2269118464	42	4005
2026-01-07 03:18:08.04	93.60	44.51	-36.1	-37.0	22.3	0.00e+00	0	43	0	2278555648	42	4024
2026-01-07 03:18:09.13	94.18	44.53	-36.2	-37.1	22.2	0.00e+00	0	43	0	2285895680	42	4065
2026-01-07 03:18:10.32	94.82	44.55	-36.4	-37.3	22.0	0.00e+00	0	43	0	2295332864	42	4190
2026-01-07 03:18:11.18	95.28	44.57	-36.5	-37.4	21.9	0.00e+00	0	43	0	2300575744	42	4225
2026-01-07 03:18:12.66	96.08	44.59	-36.5	-37.4	21.9	0.00e+00	0	43	0	2312110080	42	4232
2026-01-07 03:18:13.38	96.47	44.60	-36.6	-37.5	21.9	0.00e+00	0	43	0	2317352960	42	4269
2026-01-07 03:18:14.67	97.16	44.61	-36.5	-37.4	21.9	0.00e+00	0	43	0	2326790144	42	4208
2026-01-07 03:18:15.40	97.56	44.61	-36.5	-37.4	22.0	0.00e+00	0	43	0	2330984448	42	4195
2026-01-07 03:18:16.68	98.25	44.61	-36.4	-37.3	22.0	0.00e+00	0	43	0	2340421632	42	4167
2026-01-07 03:18:17.40	98.64	44.61	-36.4	-37.2	22.1	0.00e+00	0	43	0	2345664512	42	4136
2026-01-07 03:18:18.69	99.33	44.61	-36.4	-37.3	22.0	0.00e+00	0	43	0	2355101696	42	4180
2026-01-07 03:18:19.55	99.79	44.60	-36.5	-37.3	22.0	0.00e+00	0	43	0	2361393152	42	4191
2026-01-07 03:18:20.70	100.41	44.59	-36.4	-37.3	22.0	0.00e+00	0	43	0	2369781760	42	4168
2026-01-07 03:18:21.56	100.88	44.58	-36.3	-37.2	22.1	0.00e+00	0	43	0	2376073216	42	4122
2026-01-07 03:18:22.70	101.49	44.57	-36.2	-37.1	22.2	0.00e+00	0	43	0	2384461824	42	4072
2026-01-07 03:18:23.84	102.10	44.55	-36.0	-36.8	22.4	0.00e+00	0	43	0	2392850432	42	3956
2026-01-07 03:18:24.70	102.56	44.53	-36.0	-36.8	22.4	0.00e+00	0	43	0	2398093312	42	3953
2026-01-07 03:18:25.84	103.17	44.50	-36.3	-37.1	22.2	0.00e+00	0	43	0	2406481920	42	4088
2026-01-07 03:18:26.70	103.64	44.48	-36.5	-37.3	21.9	0.00e+00	0	43	0	2412773376	42	4175
2026-01-07 03:18:27.85	104.25	44.45	-36.8	-37.7	21.7	0.00e+00	0	43	0	2421161984	42	4352
2026-01-07 03:18:28.70	104.70	44.42	-36.6	-37.5	21.9	0.00e+00	0	43	0	2427453440	43	4017
2026-01-07 03:18:29.85	105.32	44.38	-36.4	-37.2	22.1	0.00e+00	0	43	0	2435842048	43	3912
2026-01-07 03:18:30.71	105.77	44.35	-36.1	-37.0	22.3	0.00e+00	0	43	0	2442133504	43	3789
2026-01-07 03:18:31.92	106.41	44.30	-36.2	-37.1	22.2	0.00e+00	0	43	0	2450522112	43	3854
2026-01-07 03:18:32.78	106.87	44.27	-36.3	-37.2	22.1	0.00e+00	0	43	0	2456813568	43	3875
2026-01-07 03:18:33.93	107.47	44.22	-36.5	-37.4	21.9	0.00e+00	0	43	0	2465202176	43	3973
2026-01-07 03:18:34.79	107.93	44.18	-36.4	-37.3	22.0	0.00e+00	0	43	0	2471493632	43	3939
2026-01-07 03:18:35.93	108.52	44.12	-36.3	-37.1	22.1	0.00e+00	0	43	0	2479882240	43	3857
2026-01-07 03:18:36.79	108.97	44.07	-36.0	-36.9	22.4	0.00e+00	0	43	0	2486173696	42	3975
2026-01-07 03:18:37.94	109.57	44.01	-36.0	-36.8	22.5	0.00e+00	0	43	0	2494562304	42	3935
2026-01-07 03:18:38.80	110.02	43.96	-35.9	-36.7	22.5	0.00e+00	0	43	0	2499805184	42	3898
2026-01-07 03:18:39.94	110.61	43.89	-35.9	-36.7	22.5	0.00e+00	0	43	0	2508193792	42	3890
2026-01-07 03:18:40.80	111.05	43.84	-36.0	-36.8	22.4	0.00e+00	0	43	0	2514485248	42	3953
2026-01-07 03:18:41.95	111.64	43.77	-35.9	-36.8	22.4	0.00e+00	0	43	0	2522873856	42	3932
2026-01-07 03:18:42.81	112.08	43.71	-36.0	-36.9	22.4	0.00e+00	0	43	0	2529165312	42	3960
2026-01-07 03:18:43.98	112.68	43.63	-36.0	-36.9	22.4	0.00e+00	0	43	0	2537553920	42	3971
2026-01-07 03:18:44.84	113.11	43.57	-36.1	-36.9	22.4	0.00e+00	0	43	0	2543845376	42	3979
2026-01-07 03:18:45.99	113.69	43.48	-36.0	-36.9	22.4	0.00e+00	0	43	0	2552233984	42	3960
2026-01-07 03:18:46.85	114.12	43.42	-36.1	-36.9	22.3	0.00e+00	0	43	0	2558525440	42	3994
2026-01-07 03:18:47.99	114.69	43.33	-36.2	-37.1	22.1	0.00e+00	0	43	0	2566914048	42	4075
2026-01-07 03:18:48.85	115.12	43.26	-36.3	-37.1	22.2	0.00e+00	0	43	0	2573205504	42	4085
2026-01-07 03:18:50.00	115.69	43.16	-36.3	-37.1	22.1	0.00e+00	0	43	0	2581594112	42	4088
2026-01-07 03:18:50.86	116.11	43.09	-36.3	-37.1	22.0	0.00e+00	0	43	0	2587885568	42	4074
2026-01-07 03:18:52.01	116.68	42.99	-36.1	-37.0	22.3	0.00e+00	0	43	0	2596274176	42	4005
2026-01-07 03:18:52.86	117.09	42.91	-36.1	-37.0	22.3	0.00e+00	0	43	0	2601517056	42	4005
2026-01-07 03:18:54.01	117.65	42.81	-36.2	-37.1	22.2	0.00e+00	0	43	0	2609905664	42	4054
2026-01-07 03:18:54.87	118.06	42.73	-36.2	-37.1	22.2	0.00e+00	0	43	0	2616197120	42	4070
2026-01-07 03:18:56.02	118.61	42.62	-36.3	-37.2	22.0	0.00e+00	0	43	0	2624585728	42	4131
2026-01-07 03:18:56.87	119.01	42.54	-36.3	-37.2	22.1	0.00e+00	0	43	0	2630877184	42	4105
2026-01-07 03:18:58.02	119.56	42.42	-36.2	-37.1	22.2	0.00e+00	0	43	0	2639265792	42	4067
2026-01-07 03:18:58.88	119.96	42.34	-35.9	-36.8	22.5	0.00e+00	0	43	0	2645557248	42	3924
2026-01-07 03:19:00.12	120.54	42.21	-35.8	-36.7	22.6	0.00e+00	0	43	0	2653945856	42	3872
2026-01-07 03:19:00.98	120.94	42.12	-35.8	-36.7	22.6	0.00e+00	0	43	0	2660237312	42	3883
2026-01-07 03:19:02.12	121.47	42.00	-35.9	-36.8	22.5	0.00e+00	0	43	0	2668625920	42	3932
2026-01-07 03:19:02.98	121.86	41.90	-36.0	-36.9	22.4	0.00e+00	0	43	0	2674917376	42	3960
2026-01-07 03:19:04.13	122.38	41.78	-36.2	-37.1	22.2	0.00e+00	0	43	0	2683305984	42	4062
2026-01-07 03:19:04.99	122.77	41.68	-36.2	-37.1	22.2	0.00e+00	0	43	0	2689597440	42	4075
2026-01-07 03:19:06.13	123.28	41.55	-36.3	-37.2	22.1	0.00e+00	0	43	0	2697986048	42	4101
2026-01-07 03:19:07.02	123.68	41.45	-36.1	-36.9	22.2	0.00e+00	0	43	0	2704277504	42	3988
2026-01-07 03:19:08.16	124.18	41.32	-36.1	-36.9	22.3	0.00e+00	0	43	0	2712666112	42	3997
2026-01-07 03:19:09.03	124.57	41.22	-36.1	-36.9	22.3	0.00e+00	0	43	0	2718957568	42	3991
2026-01-07 03:19:10.17	125.06	41.08	-35.7	-36.5	22.7	0.00e+00	0	43	0	2727346176	42	3803
2026-01-07 03:19:11.03	125.44	40.98	-35.7	-36.5	22.7	0.00e+00	0	43	0	2732589056	42	3801
2026-01-07 03:19:12.18	125.93	40.84	-35.7	-36.5	22.7	0.00e+00	0	43	0	2740977664	42	3813
2026-01-07 03:19:13.04	126.30	40.73	-35.6	-36.5	22.7	0.00e+00	0	43	0	2747269120	42	3786
2026-01-07 03:19:14.64	126.97	40.53	-35.8	-36.6	22.5	0.00e+00	0	43	0	2758803456	42	3857
2026-01-07 03:19:15.21	127.21	40.46	-35.9	-36.7	22.5	0.00e+00	0	43	0	2762997760	42	3906
2026-01-07 03:19:16.80	127.87	40.26	-36.1	-36.9	22.3	0.00e+00	0	43	0	2774532096	42	3993
2026-01-07 03:19:17.37	128.11	40.18	-36.1	-36.9	22.3	0.00e+00	0	43	0	2778726400	42	4000
2026-01-07 03:19:19.01	128.78	39.97	-36.1	-37.0	22.3	0.00e+00	0	43	0	2791309312	42	4028
2026-01-07 03:19:19.59	129.01	39.89	-36.2	-37.0	22.1	0.00e+00	0	43	0	2794455040	42	4049
2026-01-07 03:19:21.21	129.66	39.68	-36.1	-36.9	22.3	0.00e+00	0	43	0	2807037952	42	4003
2026-01-07 03:19:21.84	129.91	39.59	-36.1	-36.9	22.3	0.00e+00	0	43	0	2811232256	42	4001
2026-01-07 03:19:23.28	130.48	39.40	-35.9	-36.8	22.5	0.00e+00	0	43	0	2821718016	42	3916
2026-01-07 03:19:23.99	130.76	39.30	-35.8	-36.7	22.5	0.00e+00	0	43	0	2826960896	42	3869
2026-01-07 03:19:25.28	131.26	39.13	-35.7	-36.5	22.7	0.00e+00	0	43	0	2836398080	42	3822
2026-01-07 03:19:26.00	131.54	39.03	-35.6	-36.5	22.7	0.00e+00	0	43	0	2840592384	42	3781
2026-01-07 03:19:27.29	132.03	38.85	-35.5	-36.4	22.9	0.00e+00	0	43	0	2850029568	41	3965
2026-01-07 03:19:28.01	132.30	38.75	-35.6	-36.4	22.7	0.00e+00	0	43	0	2855272448	41	3999
2026-01-07 03:19:29.29	132.78	38.57	-35.7	-36.6	22.6	0.00e+00	0	43	0	2864709632	41	4071
2026-01-07 03:19:30.01	133.05	38.47	-35.8	-36.6	22.5	0.00e+00	0	43	0	2869952512	41	4091
2026-01-07 03:19:31.30	133.52	38.29	-35.9	-36.7	22.5	0.00e+00	0	43	0	2879389696	41	4128
2026-01-07 03:19:32.02	133.79	38.18	-35.9	-36.8	22.5	0.00e+00	0	43	0	2884632576	41	4157
2026-01-07 03:19:33.31	134.25	38.00	-35.9	-36.8	22.5	0.00e+00	0	43	0	2894069760	41	4154
2026-01-07 03:19:34.03	134.51	37.90	-35.8	-36.7	22.6	0.00e+00	0	43	0	2899312640	41	4101
2026-01-07 03:19:35.31	134.97	37.71	-35.6	-36.4	22.7	0.00e+00	0	43	0	2908749824	41	4003
2026-01-07 03:19:36.05	135.23	37.60	-35.6	-36.5	22.7	0.00e+00	0	43	0	2913992704	41	4009
2026-01-07 03:19:37.69	135.80	37.37	-35.5	-36.3	22.9	0.00e+00	0	43	0	2925527040	41	3935
2026-01-07 03:19:38.26	136.00	37.28	-35.5	-36.3	22.8	0.00e+00	0	43	0	2929721344	41	3935
2026-01-07 03:19:40.06	136.62	37.02	-35.6	-36.5	22.7	0.00e+00	0	43	0	2942304256	41	4015
2026-01-07 03:19:40.64	136.81	36.93	-35.7	-36.5	22.6	0.00e+00	0	43	0	2946498560	41	4043
2026-01-07 03:19:42.21	137.34	36.70	-35.8	-36.7	22.5	0.00e+00	0	43	0	2958032896	41	4102
2026-01-07 03:19:42.80	137.53	36.61	-35.8	-36.6	22.6	0.00e+00	0	43	0	2962227200	41	4095
2026-01-07 03:19:44.37	138.05	36.38	-35.7	-36.5	22.7	0.00e+00	0	43	0	2973761536	41	4048
2026-01-07 03:19:44.99	138.25	36.29	-35.7	-36.5	22.7	0.00e+00	0	43	0	2977955840	41	4034
2026-01-07 03:19:46.57	138.76	36.05	-35.5	-36.4	22.8	0.00e+00	0	43	0	2989490176	41	3971
2026-01-07 03:19:47.15	138.95	35.97	-35.5	-36.3	22.9	0.00e+00	0	43	0	2993684480	41	3938
2026-01-07 03:19:48.94	139.51	35.70	-35.2	-36.0	23.1	0.00e+00	0	43	0	3006267392	41	3803
2026-01-07 03:19:49.52	139.70	35.61	-35.1	-35.9	23.2	0.00e+00	0	43	0	3010461696	41	3765
2026-01-07 03:19:51.12	140.19	35.37	-35.2	-36.1	23.0	0.00e+00	0	43	0	3021996032	41	3829
2026-01-07 03:19:51.69	140.37	35.29	-35.3	-36.1	23.0	0.00e+00	0	43	0	3026190336	41	3856
2026-01-07 03:19:53.30	140.85	35.04	-35.5	-36.3	22.8	0.00e+00	0	43	0	3037724672	41	3942
2026-01-07 03:19:53.87	141.03	34.96	-35.5	-36.4	22.8	0.00e+00	0	43	0	3041918976	41	3969
2026-01-07 03:19:55.45	141.50	34.72	-35.8	-36.6	22.5	0.00e+00	0	43	0	3053453312	41	4080
2026-01-07 03:19:56.06	141.68	34.63	-35.8	-36.7	22.3	0.00e+00	0	43	0	3058696192	41	4125
2026-01-07 03:19:57.63	142.13	34.39	-36.1	-37.0	22.2	0.00e+00	0	43	0	3069181952	41	4267
2026-01-07 03:19:58.21	142.30	34.30	-36.2	-37.1	22.2	0.00e+00	0	43	0	3073376256	41	4295
2026-01-07 03:19:59.82	142.76	34.06	-36.0	-36.9	22.3	0.00e+00	0	43	0	3084910592	41	4215
2026-01-07 03:20:00.39	142.92	33.97	-36.0	-36.9	22.3	0.00e+00	0	43	0	3089104896	41	4208
2026-01-07 03:20:01.98	143.37	33.73	-35.8	-36.7	22.5	0.00e+00	0	43	0	3100639232	41	4100
2026-01-07 03:20:02.55	143.53	33.64	-35.7	-36.5	22.6	0.00e+00	0	43	0	3104833536	41	4048
2026-01-07 03:20:04.13	143.96	33.40	-35.4	-36.2	22.9	0.00e+00	0	43	0	3116367872	41	3891
2026-01-07 03:20:05.18	144.25	33.25	-35.3	-36.2	23.0	0.00e+00	0	43	0	3123707904	41	3875
2026-01-07 03:20:06.07	144.49	33.11	-35.3	-36.1	22.9	0.00e+00	0	43	0	3129999360	41	3848
2026-01-07 03:20:07.21	144.79	32.94	-35.3	-36.1	23.0	0.00e+00	0	43	0	3138387968	41	3859
2026-01-07 03:20:08.07	145.02	32.81	-35.4	-36.2	22.9	0.00e+00	0	43	0	3144679424	41	3894
2026-01-07 03:20:09.34	145.35	32.62	-35.5	-36.3	22.8	0.00e+00	0	43	0	3154116608	41	3931
2026-01-07 03:20:10.06	145.54	32.51	-35.4	-36.3	22.8	0.00e+00	0	43	0	3159359488	41	3921
2026-01-07 03:20:11.57	145.93	32.28	-35.6	-36.4	22.7	0.00e+00	0	43	0	3169845248	41	3982
2026-01-07 03:20:12.29	146.11	32.17	-35.7	-36.5	22.6	0.00e+00	0	43	0	3175088128	41	4033
2026-01-07 03:20:13.64	146.45	31.97	-35.8	-36.6	22.5	0.00e+00	0	43	0	3184525312	41	4085
2026-01-07 03:20:14.36	146.63	31.86	-35.8	-36.7	22.5	0.00e+00	0	43	0	3190816768	41	4106
2026-01-07 03:20:15.65	146.95	31.67	-35.9	-36.8	22.4	0.00e+00	0	43	0	3199205376	41	4177
2026-01-07 03:20:16.37	147.13	31.56	-36.0	-36.9	22.4	0.00e+00	0	43	0	3204448256	41	4196
2026-01-07 03:20:17.78	147.47	31.35	-35.8	-36.7	22.4	0.00e+00	0	43	0	3214934016	41	4123
2026-01-07 03:20:18.50	147.64	31.24	-35.8	-36.7	22.5	0.00e+00	0	43	0	3220176896	41	4115
2026-01-07 03:20:19.79	147.95	31.05	-35.8	-36.7	22.5	0.00e+00	0	43	0	3229614080	41	4100
2026-01-07 03:20:20.50	148.12	30.94	-35.8	-36.6	22.5	0.00e+00	0	43	0	3234856960	41	4089
2026-01-07 03:20:21.79	148.42	30.75	-35.7	-36.6	22.6	0.00e+00	0	43	0	3243245568	41	4052
2026-01-07 03:20:22.51	148.58	30.64	-35.6	-36.4	22.7	0.00e+00	0	43	0	3249537024	41	4002
2026-01-07 03:20:23.80	148.88	30.45	-35.6	-36.4	22.7	0.00e+00	0	43	0	3257925632	41	3998
2026-01-07 03:20:24.56	149.05	30.34	-35.5	-36.4	22.7	0.00e+00	0	43	0	3264217088	41	3968
2026-01-07 03:20:25.85	149.34	30.15	-35.6	-36.5	22.7	0.00e+00	0	43	0	3273654272	41	4012
2026-01-07 03:20:26.65	149.52	30.03	-35.6	-36.4	22.7	0.00e+00	0	43	0	3278897152	41	3986
2026-01-07 03:20:28.13	149.85	29.81	-35.7	-36.5	22.6	0.00e+00	0	43	0	3289382912	41	4029
2026-01-07 03:20:28.84	150.01	29.71	-35.7	-36.6	22.6	0.00e+00	0	43	0	3294625792	41	4063
2026-01-07 03:20:30.13	150.29	29.52	-36.0	-36.8	22.4	0.00e+00	0	43	0	3304062976	41	4188
2026-01-07 03:20:30.85	150.44	29.42	-36.0	-36.9	22.3	0.00e+00	0	43	0	3309305856	41	4217
2026-01-07 03:20:32.14	150.72	29.23	-36.3	-37.2	22.0	0.00e+00	0	43	0	3318743040	42	4110
2026-01-07 03:20:32.95	150.89	29.11	-36.4	-37.3	21.9	0.00e+00	0	43	0	3323985920	42	4189
2026-01-07 03:20:34.10	151.13	28.94	-36.5	-37.4	21.8	0.00e+00	0	43	0	3332374528	42	4230
2026-01-07 03:20:34.96	151.31	28.82	-36.5	-37.4	21.8	0.00e+00	0	43	0	3338665984	42	4238
2026-01-07 03:20:36.10	151.54	28.65	-36.4	-37.3	21.9	0.00e+00	0	43	0	3347054592	42	4192
2026-01-07 03:20:37.25	151.78	28.49	-36.4	-37.3	21.9	0.00e+00	0	43	0	3355443200	42	4178
2026-01-07 03:20:38.30	151.99	28.34	-36.2	-37.1	22.1	0.00e+00	0	43	0	3362783232	42	4096
2026-01-07 03:20:39.35	152.20	28.19	-36.1	-37.0	22.2	0.00e+00	0	43	0	3370123264	42	4007
2026-01-07 03:20:40.21	152.37	28.07	-36.2	-37.0	22.2	0.00e+00	0	43	0	3377463296	42	4051
2026-01-07 03:20:41.69	152.66	27.85	-36.1	-37.0	22.2	0.00e+00	0	43	0	3386900480	42	4029
2026-01-07 03:20:42.41	152.80	27.75	-36.0	-36.9	22.3	0.00e+00	0	43	0	3393191936	42	3985
2026-01-07 03:20:43.70	153.05	27.57	-35.9	-36.7	22.5	0.00e+00	0	43	0	3401580544	42	3905
2026-01-07 03:20:44.41	153.18	27.47	-35.8	-36.7	22.5	0.00e+00	0	43	0	3406823424	42	3891
2026-01-07 03:20:45.71	153.43	27.29	-35.9	-36.8	22.4	0.00e+00	0	43	0	3416260608	42	3935
2026-01-07 03:20:46.42	153.56	27.19	-35.9	-36.8	22.4	0.00e+00	0	43	0	3421503488	42	3928
2026-01-07 03:20:47.71	153.80	27.01	-35.9	-36.7	22.4	0.00e+00	0	43	0	3430940672	42	3905
2026-01-07 03:20:48.52	153.95	26.89	-35.9	-36.7	22.4	0.00e+00	0	43	0	3437232128	42	3897
2026-01-07 03:20:49.67	154.16	26.73	-35.8	-36.7	22.4	0.00e+00	0	43	0	3445620736	42	3894
2026-01-07 03:20:50.75	154.36	26.58	-35.9	-36.7	22.5	0.00e+00	0	43	0	3452960768	42	3908
2026-01-07 03:20:51.61	154.51	26.46	-36.0	-36.9	22.3	0.00e+00	0	43	0	3459252224	42	3968
2026-01-07 03:20:52.76	154.72	26.31	-36.0	-36.8	22.3	0.00e+00	0	43	0	3467640832	42	3957
2026-01-07 03:20:53.61	154.87	26.19	-36.0	-36.9	22.3	0.00e+00	0	43	0	3473932288	42	3976
2026-01-07 03:20:54.76	155.07	26.03	-36.1	-36.9	22.2	0.00e+00	0	43	0	3482320896	42	4003
2026-01-07 03:20:55.62	155.22	25.91	-36.1	-37.0	22.2	0.00e+00	0	43	0	3488612352	42	4031
2026-01-07 03:20:56.76	155.42	25.76	-36.2	-37.1	22.1	0.00e+00	0	43	0	3495952384	42	4058
2026-01-07 03:20:57.62	155.56	25.64	-36.1	-36.9	22.3	0.00e+00	0	43	0	3502243840	42	3989
2026-01-07 03:20:58.77	155.76	25.49	-36.1	-36.9	22.3	0.00e+00	0	43	0	3510632448	42	3993
2026-01-07 03:20:59.63	155.90	25.37	-36.0	-36.9	22.3	0.00e+00	0	43	0	3516923904	42	3981
2026-01-07 03:21:00.92	156.12	25.20	-35.9	-36.8	22.4	0.00e+00	0	43	0	3526361088	42	3926
2026-01-07 03:21:01.63	156.23	25.10	-35.9	-36.8	22.4	0.00e+00	0	43	0	3531603968	42	3914
2026-01-07 03:21:02.92	156.45	24.93	-35.9	-36.7	22.4	0.00e+00	0	43	0	3541041152	42	3913
2026-01-07 03:21:03.64	156.56	24.83	-35.9	-36.7	22.4	0.00e+00	0	43	0	3546284032	42	3908
2026-01-07 03:21:04.93	156.77	24.66	-35.9	-36.8	22.4	0.00e+00	0	43	0	3555721216	42	3930
2026-01-07 03:21:05.65	156.89	24.57	-36.0	-36.9	22.3	0.00e+00	0	43	0	3559915520	42	3963
2026-01-07 03:21:06.94	157.09	24.40	-36.0	-36.8	22.3	0.00e+00	0	43	0	3569352704	42	3957
2026-01-07 03:21:07.65	157.20	24.31	-36.0	-36.8	22.3	0.00e+00	0	43	0	3574595584	42	3941
2026-01-07 03:21:08.94	157.40	24.14	-36.0	-36.9	22.2	0.00e+00	0	43	0	3584032768	42	3979
2026-01-07 03:21:09.65	157.51	24.04	-36.0	-36.9	22.3	0.00e+00	0	43	0	3589275648	42	3980
2026-01-07 03:21:10.94	157.71	23.88	-36.1	-36.9	22.2	0.00e+00	0	43	0	3598712832	42	3998
2026-01-07 03:21:11.66	157.82	23.78	-36.0	-36.9	22.3	0.00e+00	0	43	0	3603955712	42	3964
2026-01-07 03:21:12.95	158.02	23.62	-36.1	-36.9	22.2	0.00e+00	0	43	0	3613392896	42	3996
2026-01-07 03:21:13.66	158.12	23.53	-36.1	-37.0	22.2	0.00e+00	0	43	0	3618635776	42	4016
2026-01-07 03:21:14.95	158.31	23.36	-36.1	-36.9	22.2	0.00e+00	0	43	0	3628072960	42	3990
2026-01-07 03:21:15.67	158.42	23.27	-36.1	-37.0	22.2	0.00e+00	0	43	0	3633315840	42	4005
2026-01-07 03:21:16.96	158.61	23.10	-36.1	-36.9	22.2	0.00e+00	0	43	0	3641704448	42	3980
2026-01-07 03:21:17.68	158.71	23.01	-36.1	-36.9	22.1	0.00e+00	0	43	0	3646947328	42	4004
2026-01-07 03:21:18.96	158.90	22.85	-36.2	-37.1	22.1	0.00e+00	0	43	0	3656384512	42	4056
2026-01-07 03:21:19.68	159.00	22.76	-36.2	-37.1	22.1	0.00e+00	0	43	0	3661627392	42	4076
2026-01-07 03:21:20.97	159.18	22.60	-36.2	-37.0	22.1	0.00e+00	0	43	0	3671064576	42	4035
2026-01-07 03:21:21.68	159.28	22.51	-36.2	-37.0	22.1	0.00e+00	0	43	0	3676307456	42	4051
2026-01-07 03:21:22.97	159.46	22.35	-36.2	-37.1	22.0	0.00e+00	0	43	0	3685744640	42	4067
2026-01-07 03:21:23.69	159.56	22.26	-36.2	-37.1	22.1	0.00e+00	0	43	0	3690987520	42	4071
2026-01-07 03:21:25.04	159.75	22.09	-36.3	-37.1	22.0	0.00e+00	0	43	0	3700424704	42	4084
2026-01-07 03:21:25.76	159.85	22.00	-36.3	-37.2	21.9	0.00e+00	0	43	0	3705667584	42	4122
2026-01-07 03:21:27.05	160.02	21.84	-36.4	-37.3	21.9	0.00e+00	0	43	0	3715104768	42	4176
2026-01-07 03:21:27.77	160.12	21.76	-36.4	-37.3	21.8	0.00e+00	0	43	0	3720347648	42	4175
2026-01-07 03:21:29.19	160.31	21.58	-36.4	-37.2	21.9	0.00e+00	0	43	0	3729784832	42	4142
2026-01-07 03:21:29.90	160.40	21.50	-36.4	-37.3	21.9	0.00e+00	0	43	0	3736076288	42	4148
2026-01-07 03:21:31.26	160.58	21.33	-36.5	-37.3	21.8	0.00e+00	0	43	0	3745513472	42	4190
2026-01-07 03:21:32.25	160.71	21.21	-36.5	-37.3	21.8	0.00e+00	0	43	0	3751804928	42	4184
2026-01-07 03:21:33.57	160.88	21.05	-36.5	-37.4	21.8	0.00e+00	0	43	0	3762290688	42	4209
2026-01-07 03:21:34.28	160.97	20.97	-36.6	-37.5	21.7	0.00e+00	0	43	0	3767533568	42	4281
2026-01-07 03:21:35.57	161.13	20.82	-36.6	-37.5	21.7	0.00e+00	0	43	0	3776970752	42	4267
2026-01-07 03:21:36.29	161.22	20.73	-36.6	-37.5	21.7	0.00e+00	0	43	0	3781165056	42	4252
2026-01-07 03:21:37.58	161.38	20.58	-36.7	-37.6	21.6	0.00e+00	0	43	0	3790602240	42	4324
2026-01-07 03:21:38.45	161.49	20.47	-36.7	-37.6	21.6	0.00e+00	0	43	0	3796893696	42	4298
2026-01-07 03:21:39.60	161.63	20.34	-36.8	-37.7	21.5	0.00e+00	0	43	0	3805282304	43	4140
2026-01-07 03:21:40.46	161.74	20.24	-36.8	-37.7	21.4	0.00e+00	0	43	0	3811573760	43	4136
2026-01-07 03:21:41.60	161.87	20.11	-36.8	-37.7	21.4	0.00e+00	0	43	0	3819962368	43	4139
2026-01-07 03:21:42.73	162.01	19.97	-36.8	-37.7	21.4	0.00e+00	0	43	0	3828350976	43	4133
2026-01-07 03:21:43.59	162.11	19.87	-36.8	-37.7	21.4	0.00e+00	0	43	0	3834642432	43	4115
2026-01-07 03:21:45.09	162.29	19.70	-36.9	-37.8	21.4	0.00e+00	0	43	0	3845128192	43	4152
2026-01-07 03:21:45.80	162.37	19.62	-37.0	-37.9	21.2	0.00e+00	0	43	0	3850371072	43	4231
2026-01-07 03:21:47.09	162.52	19.47	-36.8	-37.7	21.4	0.00e+00	0	43	0	3859808256	43	4139
2026-01-07 03:21:47.81	162.61	19.39	-36.8	-37.7	21.5	0.00e+00	0	43	0	3865051136	43	4123
2026-01-07 03:21:49.10	162.75	19.24	-36.9	-37.8	21.3	0.00e+00	0	43	0	3873439744	43	4170
2026-01-07 03:21:49.81	162.84	19.16	-36.8	-37.7	21.4	0.00e+00	0	43	0	3879731200	43	4134
2026-01-07 03:21:51.10	162.98	19.02	-36.9	-37.8	21.3	0.00e+00	0	43	0	3888119808	43	4184
2026-01-07 03:21:51.86	163.07	18.93	-36.9	-37.8	21.3	0.00e+00	0	43	0	3894411264	43	4173
2026-01-07 03:21:53.15	163.21	18.79	-37.0	-37.9	21.3	0.00e+00	0	43	0	3903848448	43	4229
2026-01-07 03:21:53.97	163.30	18.70	-37.0	-37.9	21.3	0.00e+00	0	43	0	3909091328	43	4213
2026-01-07 03:21:55.11	163.43	18.57	-37.0	-37.9	21.3	0.00e+00	0	43	0	3917479936	43	4205
2026-01-07 03:21:56.21	163.55	18.45	-37.0	-37.9	21.3	0.00e+00	0	43	0	3925868544	43	4221
2026-01-07 03:21:57.24	163.66	18.34	-37.0	-37.9	21.2	0.00e+00	0	43	0	3933208576	43	4230
2026-01-07 03:21:58.24	163.77	18.23	-37.0	-37.9	21.2	0.00e+00	0	43	0	3939500032	43	4223
2026-01-07 03:21:59.45	163.89	18.09	-37.0	-37.9	21.2	0.00e+00	0	43	0	3948937216	43	4219
2026-01-07 03:22:00.31	163.99	18.00	-37.0	-37.9	21.3	0.00e+00	0	43	0	3955228672	43	4206
2026-01-07 03:22:01.46	164.11	17.88	-37.0	-37.9	21.2	0.00e+00	0	43	0	3963617280	43	4232
2026-01-07 03:22:02.32	164.20	17.78	-37.0	-37.9	21.3	0.00e+00	0	43	0	3969908736	43	4211
2026-01-07 03:22:03.46	164.31	17.66	-37.0	-38.0	21.1	0.00e+00	0	43	0	3978297344	43	4254
2026-01-07 03:22:04.32	164.40	17.57	-37.0	-38.0	21.2	0.00e+00	0	43	0	3983540224	43	4258
2026-01-07 03:22:05.47	164.52	17.44	-37.2	-38.2	21.0	0.00e+00	0	43	0	3991928832	43	4342
2026-01-07 03:22:06.33	164.61	17.35	-37.1	-38.1	21.1	0.00e+00	0	43	0	3998220288	43	4300
2026-01-07 03:22:07.48	164.72	17.23	-37.5	-38.4	20.9	0.00e+00	0	43	0	4006608896	44	4231
2026-01-07 03:22:08.33	164.81	17.14	-37.4	-38.3	21.0	0.00e+00	0	43	0	4012900352	44	4167
2026-01-07 03:22:09.48	164.92	17.02	-37.4	-38.3	21.0	0.00e+00	0	43	0	4021288960	44	4185
2026-01-07 03:22:10.34	165.01	16.93	-37.4	-38.4	20.9	0.00e+00	0	43	0	4027580416	44	4218
2026-01-07 03:22:11.49	165.12	16.81	-37.4	-38.4	20.9	0.00e+00	0	43	0	4035969024	44	4200
2026-01-07 03:22:12.35	165.21	16.72	-37.5	-38.4	20.9	0.00e+00	0	43	0	4042260480	44	4238
2026-01-07 03:22:13.50	165.32	16.60	-37.5	-38.4	20.9	0.00e+00	0	43	0	4049600512	44	4239
2026-01-07 03:22:14.35	165.40	16.51	-37.5	-38.4	20.9	0.00e+00	0	43	0	4056940544	44	4237
2026-01-07 03:22:15.50	165.51	16.39	-37.6	-38.5	20.7	0.00e+00	0	43	0	4064280576	44	4286
2026-01-07 03:22:16.36	165.59	16.30	-37.6	-38.5	20.8	0.00e+00	0	43	0	4070572032	44	4286
2026-01-07 03:22:17.50	165.70	16.19	-37.6	-38.5	20.8	0.00e+00	0	43	0	4078960640	44	4272
2026-01-07 03:22:18.36	165.78	16.10	-37.6	-38.5	20.8	0.00e+00	0	43	0	4085252096	44	4287
2026-01-07 03:22:19.51	165.89	15.98	-37.6	-38.5	20.8	0.00e+00	0	43	0	4093640704	44	4272
2026-01-07 03:22:20.37	165.96	15.89	-37.6	-38.6	20.7	0.00e+00	0	43	0	4099932160	44	4302
2026-01-07 03:22:21.52	166.07	15.78	-37.7	-38.6	20.7	0.00e+00	0	43	0	4108320768	44	4339
2026-01-07 03:22:22.38	166.15	15.69	-37.8	-38.8	20.4	0.00e+00	0	43	0	4114612224	45	4167
2026-01-07 03:22:23.52	166.25	15.58	-37.8	-38.7	20.6	0.00e+00	0	43	0	4123000832	45	4143
2026-01-07 03:22:24.38	166.33	15.49	-37.8	-38.7	20.5	0.00e+00	0	43	0	4128243712	45	4125
2026-01-07 03:22:25.52	166.43	15.38	-37.8	-38.8	20.5	0.00e+00	0	43	0	4136632320	45	4155
2026-01-07 03:22:26.38	166.51	15.29	-37.8	-38.8	20.5	0.00e+00	0	43	0	4142923776	45	4168
2026-01-07 03:22:27.53	166.61	15.18	-37.9	-38.8	20.5	0.00e+00	0	43	0	4151312384	45	4177
2026-01-07 03:22:28.39	166.69	15.09	-37.9	-38.9	20.4	0.00e+00	0	43	0	4157603840	45	4221
2026-01-07 03:22:29.58	166.79	14.98	-37.9	-38.8	20.4	0.00e+00	0	43	0	4165992448	45	4193
2026-01-07 03:22:30.45	166.87	14.89	-38.0	-39.0	20.3	0.00e+00	0	43	0	4172283904	45	4270
2026-01-07 03:22:31.70	166.97	14.77	-38.1	-39.1	20.3	0.00e+00	0	43	0	4181721088	45	4292
2026-01-07 03:22:32.47	167.04	14.69	-38.0	-39.0	20.3	0.00e+00	0	43	0	4186963968	45	4245
2026-01-07 03:22:33.75	167.15	14.57	-38.1	-39.1	20.2	0.00e+00	0	43	0	4196401152	45	4302
2026-01-07 03:22:34.47	167.21	14.50	-37.9	-38.9	20.3	0.00e+00	0	43	0	4201644032	45	4235
2026-01-07 03:22:35.76	167.32	14.38	-38.1	-39.1	20.2	0.00e+00	0	43	0	4211081216	45	4306
2026-01-07 03:22:36.48	167.38	14.31	-38.1	-39.1	20.2	0.00e+00	0	43	0	4216324096	45	4305
2026-01-07 03:22:37.77	167.48	14.18	-38.2	-39.2	20.1	0.00e+00	0	43	0	4225761280	46	4113
2026-01-07 03:22:38.48	167.54	14.12	-38.2	-39.2	20.1	0.00e+00	0	43	0	4231004160	46	4124
2026-01-07 03:22:39.77	167.65	13.99	-38.1	-39.1	20.3	0.00e+00	0	43	0	4239392768	46	4059
2026-01-07 03:22:40.49	167.71	13.93	-38.2	-39.2	20.2	0.00e+00	0	43	0	4244635648	46	4109
2026-01-07 03:22:41.78	167.81	13.80	-38.2	-39.2	20.1	0.00e+00	0	43	0	4254072832	46	4136
2026-01-07 03:22:42.49	167.87	13.74	-38.2	-39.2	20.1	0.00e+00	0	43	0	4259315712	46	4129
2026-01-07 03:22:43.78	167.97	13.62	-38.3	-39.3	20.1	0.00e+00	0	43	0	4268752896	46	4146
2026-01-07 03:22:44.50	168.03	13.55	-38.3	-39.3	20.0	0.00e+00	0	43	0	4273995776	46	4168
2026-01-07 03:22:45.79	168.13	13.43	-38.3	-39.3	20.0	0.00e+00	0	43	0	4283432960	46	4191
2026-01-07 03:22:46.50	168.19	13.36	-38.3	-39.3	20.0	0.00e+00	0	43	0	4288675840	46	4162
2026-01-07 03:22:47.79	168.29	13.24	-38.3	-39.3	20.0	0.00e+00	0	43	0	4298113024	46	4165
2026-01-07 03:22:48.51	168.34	13.18	-38.3	-39.3	20.0	0.00e+00	0	43	0	4303355904	46	4187
2026-01-07 03:22:49.80	168.44	13.06	-38.4	-39.4	19.9	0.00e+00	0	43	0	4311744512	46	4223
2026-01-07 03:22:50.51	168.50	12.99	-38.4	-39.4	19.9	0.00e+00	0	43	0	4318035968	46	4212
2026-01-07 03:22:51.80	168.60	12.88	-38.6	-39.6	19.7	0.00e+00	0	43	0	4326424576	46	4303
2026-01-07 03:22:52.51	168.65	12.81	-38.5	-39.5	19.9	0.00e+00	0	43	0	4331667456	46	4256
2026-01-07 03:22:53.80	168.75	12.70	-38.6	-39.6	19.7	0.00e+00	0	43	0	4341104640	46	4304
2026-01-07 03:22:54.66	168.81	12.62	-38.6	-39.7	19.6	0.00e+00	0	43	0	4347396096	46	4348
2026-01-07 03:22:56.13	168.92	12.49	-38.6	-39.6	19.6	0.00e+00	0	43	0	4357881856	47	4082
2026-01-07 03:22:56.84	168.97	12.42	-38.6	-39.6	19.6	0.00e+00	0	43	0	4363124736	47	4066
2026-01-07 03:22:58.13	169.07	12.31	-38.6	-39.6	19.6	0.00e+00	0	43	0	4372561920	47	4094
2026-01-07 03:22:58.85	169.12	12.24	-38.7	-39.7	19.6	0.00e+00	0	43	0	4377804800	47	4142
2026-01-07 03:23:00.14	169.21	12.13	-38.7	-39.8	19.5	0.00e+00	0	43	0	4387241984	47	4158
2026-01-07 03:23:00.88	169.27	12.06	-38.7	-39.8	18.0	0.00e+00	0	43	0	4392484864	47	4154
2026-01-07 03:23:02.17	169.36	11.95	-39.0	-40.1	19.2	0.00e+00	0	43	0	4401922048	47	4296
2026-01-07 03:23:02.97	169.42	11.88	-38.9	-40.0	19.3	0.00e+00	0	43	0	4407164928	47	4252
2026-01-07 03:23:04.11	169.50	11.78	-39.0	-40.1	19.2	3.31e-04	0	43	0	4415553536	47	4297
2026-01-07 03:23:04.98	169.56	11.70	-38.9	-40.0	19.3	0.00e+00	0	43	0	4421844992	47	4245
2026-01-07 03:23:06.12	169.64	11.60	-39.0	-40.1	19.1	0.00e+00	0	43	0	4430233600	47	4314
2026-01-07 03:23:06.98	169.70	11.53	-38.9	-40.0	19.2	1.11e-04	0	43	0	4436525056	47	4261
2026-01-07 03:23:08.13	169.78	11.43	-38.9	-40.1	19.2	0.00e+00	0	43	0	4444913664	47	4298
2026-01-07 03:23:08.99	169.84	11.35	-39.0	-40.1	19.1	0.00e+00	0	43	0	4451205120	47	4329
2026-01-07 03:23:10.13	169.92	11.26	-39.0	-40.2	19.0	0.00e+00	0	43	0	4458545152	47	4386
2026-01-07 03:23:11.42	170.00	11.15	-39.0	-40.2	19.0	0.00e+00	0	43	0	4467982336	47	4391
2026-01-07 03:23:12.13	170.05	11.08	-39.1	-40.3	18.9	0.00e+00	0	43	0	4473225216	47	4427
2026-01-07 03:23:13.42	170.14	10.98	-39.1	-40.3	18.9	0.00e+00	0	43	0	4482662400	47	4421
2026-01-07 03:23:14.14	170.19	10.91	-39.1	-40.3	18.9	0.00e+00	0	43	0	4487905280	47	4426
2026-01-07 03:23:15.43	170.27	10.80	-39.1	-40.4	18.8	0.00e+00	0	43	0	4497342464	47	4465
2026-01-07 03:23:16.14	170.32	10.74	-39.1	-40.4	18.8	0.00e+00	0	43	0	4502585344	47	4463
2026-01-07 03:23:17.43	170.40	10.64	-39.5	-40.7	18.8	0.00e+00	0	43	0	4512022528	48	4365
2026-01-07 03:23:18.15	170.45	10.58	-39.4	-40.7	18.8	0.00e+00	0	43	0	4517265408	48	4343
2026-01-07 03:23:19.65	170.55	10.45	-39.6	-40.8	18.7	0.00e+00	0	43	0	4527751168	49	4176
2026-01-07 03:23:20.37	170.60	10.39	-39.6	-40.8	18.7	0.00e+00	0	43	0	4532994048	49	4168
2026-01-07 03:23:21.72	170.68	10.28	-39.5	-40.7	18.7	0.00e+00	0	43	0	4542431232	49	4131
2026-01-07 03:23:22.44	170.73	10.22	-39.5	-40.8	18.6	0.00e+00	0	43	0	4547674112	49	4171
2026-01-07 03:23:23.73	170.81	10.11	-39.7	-40.9	18.5	0.00e+00	0	43	0	4557111296	49	4229
2026-01-07 03:23:24.44	170.86	10.05	-39.6	-40.8	18.6	0.00e+00	0	43	0	4562354176	49	4191
2026-01-07 03:23:25.74	170.94	9.95	-39.8	-41.1	18.4	0.00e+00	0	43	0	4571791360	49	4305
2026-01-07 03:23:26.45	170.98	9.89	-39.7	-41.0	18.5	0.00e+00	0	43	0	4577034240	49	4248
2026-01-07 03:23:27.74	171.06	9.78	-39.7	-41.0	18.5	0.00e+00	0	43	0	4586471424	49	4264
2026-01-07 03:23:28.46	171.11	9.73	-39.7	-41.0	18.4	0.00e+00	0	43	0	4591714304	49	4263
2026-01-07 03:23:29.75	171.19	9.62	-39.7	-41.0	18.4	0.00e+00	0	43	0	4600102912	49	4283
2026-01-07 03:23:30.46	171.23	9.56	-39.6	-40.9	18.5	0.00e+00	0	43	0	4606394368	49	4233
2026-01-07 03:23:31.75	171.31	9.46	-39.8	-41.2	18.3	0.00e+00	0	43	0	4614782976	49	4341
2026-01-07 03:23:32.57	171.36	9.39	-39.4	-40.8	18.6	0.00e+00	0	43	0	4621074432	49	4147
2026-01-07 03:23:33.71	171.43	9.30	-39.6	-41.0	18.4	0.00e+00	0	43	0	4629463040	49	4260
2026-01-07 03:23:34.80	171.49	9.21	-39.7	-41.0	18.4	0.00e+00	0	43	0	4636803072	49	4271
2026-01-07 03:23:35.81	171.55	9.13	-39.8	-41.1	18.3	0.00e+00	0	43	0	4644143104	49	4304
2026-01-07 03:23:36.98	171.62	9.04	-39.7	-41.0	18.4	0.00e+00	0	43	0	4652531712	49	4272
2026-01-07 03:23:37.87	171.68	8.97	-46.1	-51.2	8.7	0.00e+00	0	43	0	4658823168	61	6882
2026-01-07 03:23:38.90	171.74	8.89	-49.6	-59.8	3.8	8.46e-01	0	43	104	4659871744	68	12514
2026-01-07 03:23:39.90	171.79	8.81	-49.6	-60.8	3.8	8.47e-01	0	43	104	4659871744	69	13198
2026-01-07 03:23:40.91	171.85	8.73	-50.1	-61.1	3.8	8.46e-01	0	43	104	4659871744	69	13662
2026-01-07 03:23:41.91	171.91	8.65	-50.1	-61.2	3.8	8.47e-01	0	43	104	4659871744	69	13728
2026-01-07 03:23:42.91	171.97	8.58	-50.3	-61.3	3.8	8.46e-01	0	43	104	4659871744	70	13180
2026-01-07 03:23:43.92	172.03	8.50	-50.5	-61.4	3.8	8.48e-01	0	43	104	4659871744	70	13354
2026-01-07 03:23:44.92	172.08	8.42	-50.4	-61.4	3.8	8.47e-01	0	43	104	4659871744	70	13319
2026-01-07 03:23:45.93	172.14	8.34	-50.7	-61.4	3.8	8.48e-01	0	43	104	4659871744	70	13364
