passes_logs/2026/01/07/T1/T1__20260107_065221_KHAYYAM_rec.log

#Pass ID: 20260107_065221_KHAYYAM
#Satellite: KHAYYAM
#Configuration: KHAYYAM_480M
#almurnet v.1.7.20251203
#Start time: 2026-01-07 06:52:23

#Version: 2.0.20230620
#Station: T1
#Location: 37.570604 lon 55.790049 lat
#TLE: 1 53370U 22096A   26005.63766736  .00008095  00000+0  32978-3 0  9997
#TLE: 2 53370  97.3565 272.8146 0001238  87.7645 272.3734 15.24731212189819

#Time	Az	El	Level	Level2	SNR	BER	BlckErr	Temp	State	Recorded	gain1	gain2
2026-01-07 06:52:23.03	124.95	5.11	-52.5	-57.1	3.6	0.00e+00	0	44	0	0	77	23219
2026-01-07 06:52:24.02	124.86	5.18	-52.5	-57.0	3.7	0.00e+00	0	44	104	0	75	25790
2026-01-07 06:52:25.02	124.76	5.26	-52.5	-57.0	3.7	0.00e+00	0	44	104	0	75	25883
2026-01-07 06:52:26.02	124.66	5.33	-52.5	-57.0	3.7	0.00e+00	0	44	104	0	75	25874
2026-01-07 06:52:27.02	124.56	5.40	-52.5	-57.0	3.7	0.00e+00	0	44	104	0	75	25916
2026-01-07 06:52:28.02	124.46	5.48	-52.5	-57.0	3.7	0.00e+00	0	44	104	0	75	25879
2026-01-07 06:52:29.02	124.36	5.55	-52.5	-57.0	3.7	0.00e+00	0	44	104	0	75	25900
2026-01-07 06:52:30.02	124.26	5.63	-52.5	-57.0	3.7	0.00e+00	0	44	104	0	75	25847
2026-01-07 06:52:31.02	124.16	5.70	-52.5	-57.0	3.7	0.00e+00	0	45	104	0	75	25883
2026-01-07 06:52:32.01	124.06	5.78	-52.5	-57.0	3.7	0.00e+00	0	45	104	0	75	25854
2026-01-07 06:52:33.01	123.95	5.85	-52.4	-57.0	3.7	0.00e+00	0	45	104	0	75	25796
2026-01-07 06:52:34.01	123.85	5.93	-52.4	-57.0	3.7	0.00e+00	0	45	104	0	75	25790
2026-01-07 06:52:35.01	123.74	6.00	-52.5	-57.0	3.7	0.00e+00	0	45	104	0	75	25753
2026-01-07 06:52:36.01	123.64	6.08	-52.4	-57.0	3.7	0.00e+00	0	45	104	0	75	25819
2026-01-07 06:52:37.01	123.53	6.16	-52.4	-57.0	3.7	0.00e+00	0	45	104	0	75	25777
2026-01-07 06:52:38.00	123.43	6.23	-52.5	-57.0	3.7	0.00e+00	0	45	104	0	75	25826
2026-01-07 06:52:39.00	123.32	6.31	-52.4	-57.0	3.7	0.00e+00	0	45	104	0	75	25785
2026-01-07 06:52:40.00	123.21	6.38	-52.5	-57.0	3.7	0.00e+00	0	45	104	0	75	25799
2026-01-07 06:52:41.00	123.10	6.46	-52.5	-57.0	3.7	0.00e+00	0	45	104	0	75	25798
2026-01-07 06:52:42.00	122.99	6.54	-52.4	-57.0	3.7	0.00e+00	0	45	104	0	75	25770
2026-01-07 06:52:43.00	122.88	6.62	-52.5	-57.0	3.7	0.00e+00	0	45	104	0	75	25801
2026-01-07 06:52:44.00	122.77	6.69	-52.5	-57.0	3.7	0.00e+00	0	46	104	0	75	25786
2026-01-07 06:52:45.00	122.66	6.77	-52.5	-57.0	3.7	0.00e+00	0	46	104	0	75	25883
2026-01-07 06:52:45.99	122.54	6.85	-52.5	-57.0	3.7	0.00e+00	0	45	104	0	75	25822
2026-01-07 06:52:46.99	122.43	6.93	-52.5	-57.0	3.7	0.00e+00	0	46	104	0	75	25759
2026-01-07 06:52:47.99	122.32	7.01	-52.4	-57.0	3.7	0.00e+00	0	46	104	0	75	25807
2026-01-07 06:52:48.99	122.20	7.09	-52.5	-57.0	3.7	0.00e+00	0	46	104	0	75	25771
2026-01-07 06:52:49.98	122.09	7.16	-52.4	-57.0	3.7	0.00e+00	0	46	104	0	75	25755
2026-01-07 06:52:50.98	121.97	7.24	-52.5	-57.0	3.7	0.00e+00	0	46	104	0	75	25788
2026-01-07 06:52:51.98	121.85	7.32	-52.5	-57.0	3.7	0.00e+00	0	46	104	0	75	25832
2026-01-07 06:52:52.97	121.73	7.40	-52.5	-57.0	3.7	0.00e+00	0	46	104	0	75	25894
2026-01-07 06:52:53.97	121.61	7.48	-52.4	-57.0	3.7	0.00e+00	0	46	104	0	75	25746
2026-01-07 06:52:54.97	121.49	7.56	-52.5	-57.0	3.7	0.00e+00	0	46	104	0	75	25853
2026-01-07 06:52:55.97	121.37	7.64	-52.4	-57.0	3.7	0.00e+00	0	46	104	0	75	25741
2026-01-07 06:52:56.97	121.25	7.73	-52.4	-57.0	3.7	0.00e+00	0	46	104	0	75	25749
2026-01-07 06:52:57.97	121.13	7.81	-52.4	-57.0	3.7	0.00e+00	0	46	104	0	75	25781
2026-01-07 06:52:58.96	121.01	7.89	-52.4	-56.9	3.7	0.00e+00	0	46	104	0	75	25665
2026-01-07 06:52:59.96	120.88	7.97	-52.5	-57.0	3.7	0.00e+00	0	46	104	0	75	25760
2026-01-07 06:53:00.96	120.75	8.05	-52.4	-57.0	3.7	0.00e+00	0	47	104	0	75	25730
2026-01-07 06:53:01.96	120.63	8.13	-52.4	-57.0	3.7	0.00e+00	0	46	104	0	75	25710
2026-01-07 06:53:02.95	120.50	8.21	-52.4	-56.9	3.7	0.00e+00	0	47	104	0	75	25441
2026-01-07 06:53:03.96	120.37	8.30	-52.3	-56.7	3.7	0.00e+00	0	47	104	0	75	24988
2026-01-07 06:53:04.95	120.24	8.38	-52.3	-56.7	3.7	0.00e+00	0	47	104	0	75	24832
2026-01-07 06:53:05.95	120.11	8.46	-52.1	-56.4	3.7	0.00e+00	0	47	104	0	75	24107
2026-01-07 06:53:06.95	119.98	8.55	-52.1	-56.4	3.7	0.00e+00	0	47	104	0	75	24048
2026-01-07 06:53:07.94	119.85	8.63	-52.1	-56.4	3.7	0.00e+00	0	47	104	0	75	24075
2026-01-07 06:53:08.94	119.72	8.71	-52.2	-56.5	3.7	0.00e+00	0	47	104	0	75	24327
2026-01-07 06:53:09.94	119.59	8.80	-52.3	-56.6	3.7	0.00e+00	0	47	104	0	75	24741
2026-01-07 06:53:10.94	119.45	8.88	-52.4	-56.8	3.7	0.00e+00	0	47	104	0	75	25341
2026-01-07 06:53:11.94	119.31	8.97	-52.4	-56.9	3.6	0.00e+00	0	47	104	0	75	25564
2026-01-07 06:53:12.94	119.18	9.05	-52.5	-57.0	3.7	0.00e+00	0	47	104	0	75	25744
2026-01-07 06:53:13.94	119.04	9.14	-52.5	-57.0	3.7	0.00e+00	0	47	104	0	75	25694
2026-01-07 06:53:14.94	118.90	9.22	-52.5	-57.0	3.7	0.00e+00	0	47	104	0	75	25930
2026-01-07 06:53:15.94	118.76	9.31	-52.5	-57.0	3.7	0.00e+00	0	47	104	0	75	25840
2026-01-07 06:53:16.95	118.62	9.40	-52.6	-57.0	3.7	0.00e+00	0	47	104	0	75	25760
2026-01-07 06:53:17.95	118.48	9.48	-52.5	-57.0	3.7	0.00e+00	0	47	104	0	75	25880
2026-01-07 06:53:18.95	118.33	9.57	-52.7	-57.2	3.7	0.00e+00	0	47	104	0	76	25018
2026-01-07 06:53:19.95	118.19	9.65	-52.3	-56.9	3.7	0.00e+00	0	47	104	0	76	24035
2026-01-07 06:53:20.95	118.04	9.74	-52.5	-57.0	3.7	0.00e+00	0	47	104	0	76	24252
2026-01-07 06:53:21.95	117.90	9.83	-52.6	-57.1	3.7	0.00e+00	0	47	104	0	76	24615
2026-01-07 06:53:22.95	117.75	9.92	-52.6	-57.1	3.7	0.00e+00	0	47	104	0	76	24667
2026-01-07 06:53:23.95	117.60	10.00	-52.3	-56.9	3.7	0.00e+00	0	47	104	0	76	24165
2026-01-07 06:53:24.96	117.45	10.09	-52.6	-57.1	3.7	0.00e+00	0	47	104	0	76	24527
2026-01-07 06:53:25.95	117.30	10.18	-52.6	-57.1	3.7	0.00e+00	0	47	104	0	76	24680
2026-01-07 06:53:26.96	117.15	10.27	-52.6	-57.2	3.7	0.00e+00	0	47	104	0	76	24838
2026-01-07 06:53:27.96	116.99	10.36	-52.5	-57.1	3.7	0.00e+00	0	47	104	0	76	24800
2026-01-07 06:53:28.96	116.84	10.45	-52.7	-57.2	3.7	0.00e+00	0	47	104	0	76	24920
2026-01-07 06:53:29.95	116.68	10.54	-52.6	-57.3	3.7	0.00e+00	0	47	104	0	76	25119
2026-01-07 06:53:30.95	116.53	10.63	-52.7	-57.3	3.7	0.00e+00	0	48	104	0	76	25268
2026-01-07 06:53:31.95	116.37	10.72	-52.8	-57.3	3.7	0.00e+00	0	47	104	0	76	25379
2026-01-07 06:53:32.95	116.21	10.81	-52.9	-57.3	3.7	0.00e+00	0	48	104	0	76	25324
2026-01-07 06:53:33.95	116.05	10.90	-52.8	-57.3	3.7	0.00e+00	0	48	104	0	76	25320
2026-01-07 06:53:34.95	115.89	10.99	-52.9	-57.4	3.7	0.00e+00	0	48	104	0	76	25564
2026-01-07 06:53:35.94	115.73	11.08	-52.8	-57.4	3.7	0.00e+00	0	48	104	0	76	25506
2026-01-07 06:53:36.94	115.56	11.17	-52.8	-57.3	3.6	0.00e+00	0	48	104	0	76	25240
2026-01-07 06:53:37.93	115.40	11.26	-52.9	-57.4	3.7	0.00e+00	0	48	104	0	76	25501
2026-01-07 06:53:38.93	115.23	11.35	-52.9	-57.4	3.7	0.00e+00	0	48	104	0	76	25396
2026-01-07 06:53:39.93	115.06	11.44	-52.7	-57.3	3.7	0.00e+00	0	48	104	0	76	25135
2026-01-07 06:53:40.93	114.89	11.54	-52.7	-57.2	3.7	0.00e+00	0	48	104	0	76	25059
2026-01-07 06:53:41.93	114.72	11.63	-52.8	-57.3	3.7	0.00e+00	0	48	104	0	76	25143
2026-01-07 06:53:42.92	114.55	11.72	-52.7	-57.2	3.7	0.00e+00	0	48	104	0	76	25081
2026-01-07 06:53:43.92	114.38	11.81	-52.6	-57.2	3.7	0.00e+00	0	48	104	0	76	25046
2026-01-07 06:53:44.92	114.20	11.91	-52.8	-57.3	3.7	0.00e+00	0	48	104	0	76	25158
2026-01-07 06:53:45.92	114.03	12.00	-52.7	-57.2	3.7	0.00e+00	0	48	104	0	76	25002
2026-01-07 06:53:46.92	113.85	12.10	-52.7	-57.2	3.7	0.00e+00	0	48	104	0	76	25055
2026-01-07 06:53:47.92	113.67	12.19	-52.8	-57.4	3.7	0.00e+00	0	48	104	0	76	25421
2026-01-07 06:53:48.91	113.49	12.28	-52.9	-57.4	3.7	0.00e+00	0	48	104	0	76	25668
2026-01-07 06:53:49.91	113.31	12.38	-52.8	-57.3	3.7	0.00e+00	0	48	104	0	76	25245
2026-01-07 06:53:50.91	113.13	12.47	-53.0	-57.5	3.7	0.00e+00	0	48	104	0	76	25867
2026-01-07 06:53:51.91	112.94	12.57	-53.0	-57.5	3.7	0.00e+00	0	48	104	0	76	25735
2026-01-07 06:53:52.91	112.76	12.66	-52.8	-57.4	3.7	0.00e+00	0	48	104	0	76	25524
2026-01-07 06:53:53.91	112.57	12.76	-53.0	-57.5	3.7	0.00e+00	0	48	104	0	76	25869
2026-01-07 06:53:54.90	112.38	12.85	-52.9	-57.5	3.7	0.00e+00	0	48	104	0	76	25811
2026-01-07 06:53:55.90	112.19	12.95	-52.8	-57.4	3.7	0.00e+00	0	48	104	0	76	25626
2026-01-07 06:53:56.90	112.00	13.05	-52.6	-57.2	3.7	0.00e+00	0	48	104	0	76	25039
2026-01-07 06:53:57.89	111.81	13.14	-52.8	-57.4	3.7	0.00e+00	0	48	104	0	76	25535
2026-01-07 06:53:58.89	111.61	13.24	-52.7	-57.4	3.7	0.00e+00	0	48	104	0	76	25470
2026-01-07 06:53:59.88	111.42	13.33	-52.7	-57.4	3.7	0.00e+00	0	48	104	0	76	25432
2026-01-07 06:54:00.88	111.22	13.43	-52.7	-57.3	3.7	0.00e+00	0	48	104	0	76	25345
2026-01-07 06:54:01.88	111.02	13.53	-52.6	-57.3	3.7	0.00e+00	0	48	104	0	76	25311
2026-01-07 06:54:02.88	110.82	13.63	-52.9	-57.6	3.7	0.00e+00	0	48	104	0	76	26038
2026-01-07 06:54:03.88	110.62	13.72	-52.9	-57.5	3.7	0.00e+00	0	48	104	0	76	25939
2026-01-07 06:54:04.88	110.41	13.82	-52.8	-57.4	3.7	0.00e+00	0	48	104	0	76	25532
2026-01-07 06:54:05.87	110.21	13.92	-53.0	-57.6	3.7	0.00e+00	0	48	104	0	76	25981
2026-01-07 06:54:06.87	110.00	14.02	-53.0	-57.6	3.7	0.00e+00	0	48	104	0	76	25996
2026-01-07 06:54:07.87	109.79	14.12	-53.0	-57.6	3.7	0.00e+00	0	48	104	0	76	26070
2026-01-07 06:54:08.86	109.58	14.21	-53.0	-57.5	3.7	0.00e+00	0	48	104	0	76	25852
2026-01-07 06:54:09.86	109.37	14.31	-53.0	-57.5	3.7	0.00e+00	0	48	104	0	76	25903
2026-01-07 06:54:10.86	109.15	14.41	-53.1	-57.6	3.7	0.00e+00	0	48	104	0	76	26075
2026-01-07 06:54:11.86	108.93	14.51	-53.1	-57.6	3.7	0.00e+00	0	48	104	0	76	26164
2026-01-07 06:54:12.85	108.72	14.61	-53.1	-57.6	3.7	0.00e+00	0	48	104	0	76	26211
2026-01-07 06:54:13.85	108.50	14.71	-53.1	-57.6	3.7	0.00e+00	0	48	104	0	76	26262
2026-01-07 06:54:14.85	108.28	14.81	-53.2	-57.7	3.7	0.00e+00	0	48	104	0	77	25050
2026-01-07 06:54:15.84	108.05	14.91	-53.1	-57.6	3.7	0.00e+00	0	48	104	0	77	24733
2026-01-07 06:54:16.84	107.83	15.01	-53.0	-57.6	3.6	0.00e+00	0	48	104	0	77	24766
2026-01-07 06:54:17.83	107.60	15.11	-53.2	-57.7	3.7	0.00e+00	0	48	104	0	77	25090
2026-01-07 06:54:18.83	107.38	15.21	-53.0	-57.7	3.7	0.00e+00	0	48	104	0	77	24930
2026-01-07 06:54:19.83	107.14	15.31	-53.0	-57.6	3.7	0.00e+00	0	48	104	0	77	24719
2026-01-07 06:54:20.82	106.91	15.41	-52.8	-57.5	3.7	0.00e+00	0	48	104	0	77	24311
2026-01-07 06:54:21.83	106.68	15.51	-52.8	-57.6	3.6	0.00e+00	0	48	104	0	77	24605
2026-01-07 06:54:22.83	106.44	15.61	-52.9	-57.5	3.7	0.00e+00	0	48	104	0	77	24461
2026-01-07 06:54:23.82	106.20	15.71	-52.9	-57.6	3.7	0.00e+00	0	48	104	0	77	24550
2026-01-07 06:54:24.82	105.96	15.81	-53.2	-57.7	3.7	0.00e+00	0	49	104	0	77	24894
2026-01-07 06:54:25.82	105.72	15.92	-53.1	-57.7	3.7	0.00e+00	0	49	104	0	77	24888
2026-01-07 06:54:26.81	105.48	16.02	-53.2	-57.7	3.7	0.00e+00	0	49	104	0	77	24864
2026-01-07 06:54:27.81	105.23	16.12	-53.3	-57.8	3.7	0.00e+00	0	49	104	0	77	25245
2026-01-07 06:54:28.81	104.98	16.22	-53.3	-57.8	3.7	0.00e+00	0	48	104	0	77	25109
2026-01-07 06:54:29.81	104.73	16.32	-53.3	-57.9	3.7	0.00e+00	0	48	104	0	77	25388
2026-01-07 06:54:30.81	104.48	16.42	-53.2	-57.8	3.7	0.00e+00	0	49	104	0	77	25243
2026-01-07 06:54:31.81	104.23	16.53	-53.3	-57.7	3.7	0.00e+00	0	49	104	0	77	25092
2026-01-07 06:54:32.81	103.97	16.63	-53.1	-57.6	3.7	0.00e+00	0	49	104	0	77	24736
2026-01-07 06:54:33.80	103.71	16.73	-53.2	-57.7	3.7	0.00e+00	0	49	104	0	77	24973
2026-01-07 06:54:34.80	103.45	16.83	-53.2	-57.7	3.7	0.00e+00	0	49	104	0	77	25026
2026-01-07 06:54:35.80	103.19	16.93	-53.0	-57.6	3.7	0.00e+00	0	49	104	0	77	24719
2026-01-07 06:54:36.80	102.93	17.03	-53.2	-57.8	3.7	0.00e+00	0	49	104	0	77	25198
2026-01-07 06:54:37.80	102.66	17.14	-53.2	-57.7	3.7	0.00e+00	0	49	104	0	77	24950
2026-01-07 06:54:38.80	102.39	17.24	-53.3	-57.8	3.7	0.00e+00	0	49	104	0	77	25231
2026-01-07 06:54:39.80	102.12	17.34	-53.3	-57.8	3.7	0.00e+00	0	49	104	0	77	25352
2026-01-07 06:54:40.80	101.85	17.44	-53.2	-57.6	3.7	0.00e+00	0	48	104	0	77	24796
2026-01-07 06:54:41.80	101.57	17.54	-53.2	-57.7	3.7	0.00e+00	0	48	104	0	77	24928
2026-01-07 06:54:42.80	101.29	17.65	-53.2	-57.7	3.7	0.00e+00	0	49	104	0	77	24893
2026-01-07 06:54:43.79	101.02	17.75	-53.2	-57.7	3.7	0.00e+00	0	49	104	0	77	24956
2026-01-07 06:54:44.79	100.73	17.85	-53.3	-57.6	3.7	0.00e+00	0	49	104	0	77	24764
2026-01-07 06:54:45.79	100.45	17.95	-53.3	-57.7	3.7	0.00e+00	0	48	104	0	77	24834
2026-01-07 06:54:46.79	100.16	18.05	-53.3	-57.7	3.7	0.00e+00	0	49	104	0	77	24994
2026-01-07 06:54:47.78	99.88	18.15	-53.2	-57.7	3.7	0.00e+00	0	49	104	0	77	24995
2026-01-07 06:54:48.78	99.59	18.25	-53.3	-57.7	3.7	0.00e+00	0	49	104	0	77	25000
2026-01-07 06:54:49.78	99.29	18.36	-53.2	-57.7	3.7	0.00e+00	0	49	104	0	77	24946
2026-01-07 06:54:50.78	99.00	18.46	-53.3	-57.8	3.7	0.00e+00	0	49	104	0	77	25290
2026-01-07 06:54:51.77	98.70	18.56	-53.3	-57.8	3.7	0.00e+00	0	49	104	0	77	25148
2026-01-07 06:54:52.77	98.40	18.66	-53.3	-57.7	3.7	0.00e+00	0	49	104	0	77	24854
2026-01-07 06:54:53.77	98.10	18.76	-53.3	-57.7	3.7	0.00e+00	0	49	104	0	77	25007
2026-01-07 06:54:54.77	97.79	18.86	-53.2	-57.6	3.7	0.00e+00	0	49	104	0	77	24548
2026-01-07 06:54:55.76	97.49	18.96	-53.2	-57.7	3.7	0.00e+00	0	49	104	0	77	24858
2026-01-07 06:54:56.76	97.18	19.06	-53.3	-57.8	3.7	0.00e+00	0	49	104	0	77	25277
2026-01-07 06:54:57.75	96.87	19.16	-53.2	-57.7	3.7	0.00e+00	0	49	104	0	77	24938
2026-01-07 06:54:58.75	96.56	19.25	-53.3	-57.7	3.7	0.00e+00	0	49	104	0	77	25015
2026-01-07 06:54:59.75	96.24	19.35	-53.3	-57.6	3.7	0.00e+00	0	49	104	0	77	24682
2026-01-07 06:55:00.75	95.92	19.45	-53.1	-57.2	3.7	0.00e+00	0	49	104	0	77	23445
2026-01-07 06:55:01.75	95.60	19.55	-53.2	-57.4	3.7	0.00e+00	0	49	104	0	77	24233
2026-01-07 06:55:02.74	95.28	19.65	-53.2	-57.4	3.7	0.00e+00	0	49	104	0	77	24063
2026-01-07 06:55:03.74	94.95	19.75	-52.8	-56.7	3.7	0.00e+00	0	49	104	0	77	22316
2026-01-07 06:55:04.73	94.63	19.84	-52.9	-57.1	3.7	0.00e+00	0	49	104	0	77	23194
2026-01-07 06:55:05.73	94.30	19.94	-52.9	-56.9	3.7	0.00e+00	0	49	104	0	77	22730
2026-01-07 06:55:06.73	93.97	20.03	-52.8	-57.1	3.7	0.00e+00	0	49	104	0	76	24630
2026-01-07 06:55:07.72	93.63	20.13	-52.7	-57.0	3.7	0.00e+00	0	49	104	0	76	24473
2026-01-07 06:55:08.72	93.29	20.23	-52.7	-57.0	3.7	0.00e+00	0	49	104	0	76	24444
2026-01-07 06:55:09.72	92.95	20.32	-52.8	-56.9	3.7	0.00e+00	0	49	104	0	76	24006
2026-01-07 06:55:10.71	92.61	20.41	-52.8	-56.8	3.7	0.00e+00	0	49	104	0	76	23790
2026-01-07 06:55:11.72	92.27	20.51	-52.9	-57.0	3.7	0.00e+00	0	49	104	0	76	24501
2026-01-07 06:55:12.71	91.92	20.60	-52.5	-56.4	3.7	0.00e+00	0	49	104	0	76	22855
2026-01-07 06:55:13.71	91.57	20.69	-52.6	-56.6	3.7	0.00e+00	0	49	104	0	76	23393
2026-01-07 06:55:14.71	91.22	20.79	-52.5	-56.6	3.7	0.00e+00	0	49	104	0	76	23233
2026-01-07 06:55:15.70	90.87	20.88	-52.8	-56.9	3.7	0.00e+00	0	49	104	0	76	24147
2026-01-07 06:55:16.70	90.51	20.97	-52.9	-57.1	3.7	0.00e+00	0	49	104	0	76	24717
2026-01-07 06:55:17.70	90.15	21.06	-52.9	-57.2	3.7	0.00e+00	0	49	104	0	76	25056
2026-01-07 06:55:18.70	89.79	21.15	-52.9	-57.3	3.7	0.00e+00	0	49	104	0	76	25238
2026-01-07 06:55:19.70	89.42	21.24	-52.7	-57.4	3.7	0.00e+00	0	49	104	0	76	25587
2026-01-07 06:55:20.70	89.06	21.33	-52.7	-57.5	3.7	0.00e+00	0	49	104	0	76	25752
2026-01-07 06:55:21.69	88.69	21.41	-52.6	-56.9	3.7	0.00e+00	0	49	104	0	76	24107
2026-01-07 06:55:22.69	88.32	21.50	-52.5	-56.9	3.7	0.00e+00	0	49	104	0	76	24193
2026-01-07 06:55:23.69	87.94	21.59	-52.5	-56.8	3.7	0.00e+00	0	49	104	0	76	23918
2026-01-07 06:55:24.68	87.57	21.67	-52.9	-57.3	3.7	0.00e+00	0	49	104	0	76	25383
2026-01-07 06:55:25.68	87.19	21.76	-53.0	-57.6	3.7	0.00e+00	0	49	104	0	76	26157
2026-01-07 06:55:26.68	86.81	21.84	-52.8	-57.6	3.7	0.00e+00	0	49	104	0	76	25982
2026-01-07 06:55:27.68	86.43	21.92	-52.7	-57.4	3.7	0.00e+00	0	49	104	0	76	25638
2026-01-07 06:55:28.68	86.04	22.00	-52.5	-57.4	3.7	0.00e+00	0	49	104	0	76	25412
2026-01-07 06:55:29.68	85.65	22.09	-52.7	-57.4	3.7	0.00e+00	0	49	104	0	76	25616
2026-01-07 06:55:30.68	85.26	22.17	-52.8	-57.5	3.7	0.00e+00	0	49	104	0	76	25753
2026-01-07 06:55:31.67	84.88	22.24	-52.9	-57.6	3.6	0.00e+00	0	49	104	0	76	26202
2026-01-07 06:55:32.67	84.48	22.32	-52.8	-57.7	3.7	0.00e+00	0	49	104	0	76	26305
2026-01-07 06:55:33.67	84.08	22.40	-52.8	-57.6	3.7	0.00e+00	0	49	104	0	76	26144
2026-01-07 06:55:34.67	83.68	22.48	-52.6	-57.5	3.7	0.00e+00	0	49	104	0	76	25868
2026-01-07 06:55:35.67	83.28	22.55	-52.5	-57.4	3.7	0.00e+00	0	49	104	0	76	25610
2026-01-07 06:55:36.66	82.88	22.62	-52.6	-57.4	3.7	0.00e+00	0	49	104	0	76	25646
2026-01-07 06:55:37.66	82.48	22.70	-52.8	-57.5	3.7	0.00e+00	0	49	104	0	76	25754
2026-01-07 06:55:38.66	82.07	22.77	-52.8	-57.5	3.7	0.00e+00	0	49	104	0	76	25946
2026-01-07 06:55:39.66	81.66	22.84	-52.8	-57.7	3.7	0.00e+00	0	49	104	0	76	26401
2026-01-07 06:55:40.66	81.25	22.91	-52.8	-57.7	3.7	0.00e+00	0	49	104	0	76	26401
2026-01-07 06:55:41.65	80.84	22.98	-52.8	-57.7	3.7	0.00e+00	0	49	104	0	76	26278
2026-01-07 06:55:42.65	80.42	23.04	-53.1	-57.7	3.7	0.00e+00	0	49	104	0	76	26415
2026-01-07 06:55:43.65	80.00	23.11	-53.2	-57.6	3.7	0.00e+00	0	49	104	0	77	24767
2026-01-07 06:55:44.65	79.58	23.17	-53.2	-57.7	3.7	0.00e+00	0	49	104	0	77	24817
2026-01-07 06:55:45.65	79.16	23.24	-53.2	-57.6	3.7	0.00e+00	0	49	104	0	77	24773
2026-01-07 06:55:46.65	78.74	23.30	-53.0	-57.6	3.7	0.00e+00	0	49	104	0	77	24710
2026-01-07 06:55:47.64	78.31	23.36	-53.1	-57.6	3.7	0.00e+00	0	49	104	0	77	24770
2026-01-07 06:55:48.64	77.89	23.42	-53.1	-57.6	3.7	0.00e+00	0	49	104	0	77	24771
2026-01-07 06:55:49.64	77.46	23.47	-53.2	-57.5	3.7	0.00e+00	0	49	104	0	77	24443
2026-01-07 06:55:50.64	77.03	23.53	-53.3	-57.8	3.7	0.00e+00	0	49	104	0	77	25198
2026-01-07 06:55:51.64	76.59	23.58	-53.1	-57.7	3.7	0.00e+00	0	49	104	0	77	25080
2026-01-07 06:55:52.64	76.16	23.64	-53.1	-57.8	3.7	0.00e+00	0	49	104	0	77	25096
2026-01-07 06:55:53.63	75.73	23.69	-53.0	-57.7	3.7	0.00e+00	0	49	104	0	77	24924
2026-01-07 06:55:54.63	75.29	23.74	-53.3	-57.8	3.7	0.00e+00	0	49	104	0	77	25371
2026-01-07 06:55:55.62	74.86	23.79	-53.3	-57.8	3.7	0.00e+00	0	49	104	0	77	25222
2026-01-07 06:55:56.62	74.41	23.84	-53.3	-57.8	3.7	0.00e+00	0	49	104	0	77	25312
2026-01-07 06:55:57.62	73.97	23.88	-53.3	-57.9	3.7	0.00e+00	0	49	104	0	77	25451
2026-01-07 06:55:58.62	73.53	23.93	-53.1	-57.4	3.7	0.00e+00	0	49	104	0	77	24225
2026-01-07 06:55:59.62	73.08	23.97	-53.2	-57.6	3.7	0.00e+00	0	49	104	0	77	24667
2026-01-07 06:56:00.61	72.64	24.01	-53.2	-57.6	3.7	0.00e+00	0	49	104	0	77	24774
2026-01-07 06:56:01.61	72.19	24.05	-53.3	-57.8	3.7	0.00e+00	0	49	104	0	77	25348
2026-01-07 06:56:02.61	71.75	24.09	-53.3	-57.7	3.7	0.00e+00	0	49	104	0	77	24895
2026-01-07 06:56:03.61	71.30	24.12	-53.2	-57.3	3.7	0.00e+00	0	49	104	0	77	23962
2026-01-07 06:56:04.61	70.84	24.16	-53.2	-57.3	3.7	0.00e+00	0	49	104	0	77	23964
2026-01-07 06:56:05.61	70.39	24.19	-53.3	-57.7	3.7	0.00e+00	0	49	104	0	77	24949
2026-01-07 06:56:06.61	69.94	24.22	-53.2	-57.6	3.7	0.00e+00	0	49	104	0	77	24551
2026-01-07 06:56:07.60	69.49	24.25	-53.2	-57.8	3.7	0.00e+00	0	49	104	0	77	25157
2026-01-07 06:56:08.60	69.03	24.28	-53.2	-57.5	3.7	0.00e+00	0	49	104	0	77	24264
2026-01-07 06:56:09.60	68.58	24.30	-53.1	-57.4	3.7	0.00e+00	0	49	104	0	77	24051
2026-01-07 06:56:10.60	68.12	24.33	-53.3	-57.5	3.7	0.00e+00	0	49	104	0	77	24481
2026-01-07 06:56:11.59	67.67	24.35	-53.4	-57.9	3.7	0.00e+00	0	49	104	0	77	25441
2026-01-07 06:56:12.59	67.21	24.37	-53.2	-57.6	3.7	0.00e+00	0	49	104	0	77	24597
2026-01-07 06:56:13.59	66.75	24.39	-53.3	-57.6	3.7	0.00e+00	0	49	104	0	77	24738
2026-01-07 06:56:14.59	66.29	24.41	-53.3	-57.8	3.7	0.00e+00	0	49	104	0	77	25230
2026-01-07 06:56:15.59	65.83	24.42	-53.4	-58.0	3.7	0.00e+00	0	49	104	0	77	25862
2026-01-07 06:56:16.59	65.37	24.43	-53.3	-57.9	3.7	0.00e+00	0	49	104	0	77	25590
2026-01-07 06:56:17.59	64.91	24.45	-53.3	-57.9	3.7	0.00e+00	0	49	104	0	77	25425
2026-01-07 06:56:18.59	64.45	24.46	-53.3	-57.6	3.7	0.00e+00	0	49	104	0	77	24662
2026-01-07 06:56:19.59	63.99	24.46	-53.5	-57.8	3.7	0.00e+00	0	49	104	0	77	25134
2026-01-07 06:56:20.59	63.53	24.47	-53.3	-57.7	3.7	0.00e+00	0	49	104	0	77	24843
2026-01-07 06:56:21.58	63.07	24.47	-53.2	-57.6	3.7	0.00e+00	0	49	104	0	77	24795
2026-01-07 06:56:22.58	62.61	24.48	-53.2	-57.6	3.7	0.00e+00	0	49	104	0	77	24622
2026-01-07 06:56:23.58	62.15	24.48	-53.3	-57.8	3.7	0.00e+00	0	49	104	0	77	25231
2026-01-07 06:56:24.57	61.69	24.48	-53.2	-57.5	3.7	0.00e+00	0	49	104	0	77	24265
2026-01-07 06:56:25.56	61.23	24.47	-53.0	-57.4	3.7	0.00e+00	0	49	104	0	77	24040
2026-01-07 06:56:26.56	60.77	24.47	-53.0	-57.4	3.7	0.00e+00	0	49	104	0	77	24118
2026-01-07 06:56:27.55	60.32	24.46	-53.0	-57.6	3.7	0.00e+00	0	49	104	0	77	24663
2026-01-07 06:56:28.55	59.86	24.45	-53.3	-57.7	3.7	0.00e+00	0	49	104	0	77	24883
2026-01-07 06:56:29.55	59.39	24.44	-53.4	-57.7	3.7	0.00e+00	0	49	104	0	77	25085
2026-01-07 06:56:30.54	58.94	24.43	-53.3	-57.8	3.7	0.00e+00	0	49	104	0	77	25112
2026-01-07 06:56:31.54	58.48	24.42	-53.0	-57.6	3.7	0.00e+00	0	49	104	0	77	24706
2026-01-07 06:56:32.54	58.02	24.40	-52.8	-57.3	3.7	0.00e+00	0	49	104	0	77	23725
2026-01-07 06:56:33.54	57.56	24.38	-52.9	-57.4	3.7	0.00e+00	0	49	104	0	77	24086
2026-01-07 06:56:34.54	57.10	24.36	-53.0	-57.4	3.7	0.00e+00	0	49	104	0	77	24161
2026-01-07 06:56:35.54	56.65	24.34	-52.9	-56.8	3.7	0.00e+00	0	49	104	0	77	22550
2026-01-07 06:56:36.53	56.19	24.32	-52.8	-56.8	3.7	0.00e+00	0	49	104	0	76	23904
2026-01-07 06:56:37.53	55.74	24.30	-53.0	-57.2	3.7	0.00e+00	0	49	104	0	76	24826
2026-01-07 06:56:38.53	55.28	24.27	-53.1	-57.4	3.7	0.00e+00	0	49	104	0	76	25577
2026-01-07 06:56:39.53	54.83	24.24	-53.3	-57.8	3.7	0.00e+00	0	49	104	0	77	25165
2026-01-07 06:56:40.53	54.37	24.21	-53.2	-57.5	3.7	0.00e+00	0	49	104	0	77	24490
2026-01-07 06:56:41.53	53.92	24.18	-52.8	-57.4	3.7	0.00e+00	0	50	104	0	77	24038
2026-01-07 06:56:42.53	53.47	24.15	-52.7	-56.9	3.6	0.00e+00	0	49	104	0	77	22776
2026-01-07 06:56:43.53	53.02	24.11	-52.7	-56.6	3.7	0.00e+00	0	49	104	0	77	21959
2026-01-07 06:56:44.54	52.57	24.08	-52.5	-56.4	3.7	0.00e+00	0	49	104	0	77	21373
2026-01-07 06:56:45.54	52.12	24.04	-53.0	-57.0	3.7	0.00e+00	0	49	104	0	77	23003
2026-01-07 06:56:46.54	51.67	24.00	-52.8	-56.8	3.7	0.00e+00	0	49	104	0	77	22476
2026-01-07 06:56:47.54	51.23	23.96	-53.1	-57.4	3.7	0.00e+00	0	49	104	0	77	24043
2026-01-07 06:56:48.54	50.79	23.92	-53.0	-57.3	3.7	0.00e+00	0	49	104	0	77	23761
2026-01-07 06:56:49.54	50.34	23.87	-53.1	-57.3	3.7	0.00e+00	0	49	104	0	77	23945
2026-01-07 06:56:50.55	49.90	23.82	-53.2	-57.4	3.7	0.00e+00	0	50	104	0	77	24226
2026-01-07 06:56:51.55	49.46	23.78	-53.2	-57.4	3.7	0.00e+00	0	50	104	0	77	24217
2026-01-07 06:56:52.55	49.02	23.73	-53.0	-57.1	3.6	0.00e+00	0	49	104	0	77	23366
2026-01-07 06:56:53.55	48.58	23.68	-53.1	-57.3	3.7	0.00e+00	0	49	104	0	77	23934
2026-01-07 06:56:54.55	48.15	23.62	-53.1	-57.5	3.7	0.00e+00	0	49	104	0	77	24262
2026-01-07 06:56:55.55	47.72	23.57	-53.2	-57.5	3.7	0.00e+00	0	49	104	0	77	24431
2026-01-07 06:56:56.56	47.28	23.52	-53.1	-57.3	3.7	0.00e+00	0	49	104	0	77	23922
2026-01-07 06:56:57.55	46.86	23.46	-53.1	-57.4	3.7	0.00e+00	0	49	104	0	77	24087
2026-01-07 06:56:58.56	46.42	23.40	-53.1	-57.3	3.7	0.00e+00	0	49	104	0	77	23856
2026-01-07 06:56:59.56	46.00	23.34	-53.2	-57.4	3.7	0.00e+00	0	49	104	0	77	24221
2026-01-07 06:57:00.55	45.58	23.28	-53.4	-57.9	3.7	0.00e+00	0	49	104	0	77	25676
2026-01-07 06:57:01.56	45.15	23.22	-53.2	-57.6	3.7	0.00e+00	0	49	104	0	77	24675
2026-01-07 06:57:02.55	44.74	23.16	-53.4	-57.9	3.7	0.00e+00	0	49	104	0	77	25505
2026-01-07 06:57:03.55	44.32	23.09	-53.4	-57.8	3.7	0.00e+00	0	49	104	0	77	25189
2026-01-07 06:57:04.56	43.90	23.03	-53.3	-57.9	3.7	0.00e+00	0	49	104	0	77	25406
2026-01-07 06:57:05.56	43.48	22.96	-53.3	-57.6	3.7	0.00e+00	0	49	104	0	77	24527
2026-01-07 06:57:06.55	43.08	22.89	-53.0	-57.3	3.7	0.00e+00	0	49	104	0	77	23829
2026-01-07 06:57:07.56	42.66	22.82	-52.9	-57.3	3.7	0.00e+00	0	50	104	0	77	23793
2026-01-07 06:57:08.56	42.25	22.75	-52.5	-56.5	3.7	0.00e+00	0	49	104	0	77	21721
2026-01-07 06:57:09.55	41.85	22.68	-51.9	-55.4	3.7	0.00e+00	0	49	104	0	75	21423
2026-01-07 06:57:10.55	41.45	22.61	-51.9	-55.1	3.7	0.00e+00	0	49	104	0	75	20760
2026-01-07 06:57:11.55	41.05	22.53	-51.7	-54.9	3.7	0.00e+00	0	50	104	0	75	20255
2026-01-07 06:57:12.55	40.65	22.46	-51.0	-53.7	3.8	0.00e+00	0	49	104	0	74	18718
2026-01-07 06:57:13.56	40.25	22.38	-50.7	-53.3	3.9	0.00e+00	0	49	104	0	73	18998
2026-01-07 06:57:14.56	39.85	22.30	-51.4	-54.4	3.7	0.00e+00	0	49	104	0	73	21427
2026-01-07 06:57:15.56	39.46	22.23	-51.0	-53.7	3.8	0.00e+00	0	49	104	0	73	19824
2026-01-07 06:57:16.56	39.07	22.15	-51.1	-54.0	3.9	0.00e+00	0	49	104	0	72	21825
2026-01-07 06:57:17.57	38.68	22.07	-51.3	-54.4	3.8	0.00e+00	0	49	104	0	74	20371
2026-01-07 06:57:18.57	38.29	21.99	-51.4	-54.5	3.8	0.00e+00	0	49	104	0	74	20509
2026-01-07 06:57:19.57	37.91	21.90	-50.8	-53.6	3.8	0.00e+00	0	50	104	0	73	19488
2026-01-07 06:57:20.57	37.53	21.82	-50.9	-53.6	3.8	0.00e+00	0	49	104	0	73	19647
2026-01-07 06:57:21.58	37.14	21.74	-51.3	-54.2	3.7	0.00e+00	0	49	104	0	73	21112
2026-01-07 06:57:22.58	36.77	21.65	-50.6	-53.2	3.7	0.00e+00	0	49	104	0	73	18795
2026-01-07 06:57:23.58	36.39	21.57	-50.9	-53.7	3.7	0.00e+00	0	49	104	0	72	20956
2026-01-07 06:57:24.58	36.02	21.48	-50.6	-53.4	3.7	0.00e+00	0	49	104	0	73	19111
2026-01-07 06:57:25.58	35.65	21.39	-50.8	-53.5	3.7	0.00e+00	0	49	104	0	73	19475
2026-01-07 06:57:26.58	35.29	21.31	-52.3	-56.1	3.7	0.00e+00	0	49	104	0	75	23179
2026-01-07 06:57:27.58	34.92	21.22	-51.8	-55.3	3.7	0.00e+00	0	49	104	0	75	21258
2026-01-07 06:57:28.58	34.56	21.13	-51.7	-55.2	3.7	0.00e+00	0	50	104	0	75	20925
2026-01-07 06:57:29.58	34.20	21.04	-51.5	-55.0	3.7	0.00e+00	0	49	104	0	75	20423
2026-01-07 06:57:30.58	33.84	20.95	-51.3	-54.6	3.7	0.00e+00	0	49	104	0	74	20752
2026-01-07 06:57:31.58	33.49	20.86	-51.1	-54.3	3.7	0.00e+00	0	49	104	0	74	19973
2026-01-07 06:57:32.59	33.13	20.77	-51.2	-54.4	3.7	0.00e+00	0	49	104	0	74	20218
2026-01-07 06:57:33.58	32.78	20.67	-51.4	-54.7	3.7	0.00e+00	0	49	104	0	74	21099
2026-01-07 06:57:34.58	32.44	20.58	-52.0	-55.9	3.7	0.00e+00	0	49	104	0	74	24011
2026-01-07 06:57:35.58	32.09	20.49	-49.8	-52.5	3.7	0.00e+00	0	49	104	0	71	19337
2026-01-07 06:57:36.59	31.75	20.39	-47.8	-49.8	3.8	0.00e+00	0	50	104	0	67	17914
2026-01-07 06:57:37.59	31.41	20.30	-47.6	-49.5	3.9	0.00e+00	0	49	104	0	66	18348
2026-01-07 06:57:38.59	31.07	20.21	-48.9	-51.1	3.9	0.00e+00	0	49	104	0	68	19558
2026-01-07 06:57:39.59	30.73	20.11	-52.0	-55.5	3.7	0.00e+00	0	50	104	0	74	22893
2026-01-07 06:57:40.59	30.40	20.01	-52.7	-56.9	3.7	0.00e+00	0	50	104	0	76	24074
2026-01-07 06:57:41.59	30.07	19.92	-52.4	-56.5	3.7	0.00e+00	0	50	104	0	76	22916
2026-01-07 06:57:42.59	29.74	19.82	-51.3	-54.5	3.7	0.00e+00	0	50	104	0	74	20616
2026-01-07 06:57:43.60	29.41	19.72	-50.9	-54.0	3.7	0.00e+00	0	50	104	0	73	20525
2026-01-07 06:57:44.60	29.09	19.63	-51.0	-54.1	3.7	0.00e+00	0	49	104	0	73	20836
2026-01-07 06:57:45.60	28.77	19.53	-51.6	-55.2	3.7	0.00e+00	0	49	104	0	73	23681
2026-01-07 06:57:46.61	28.45	19.43	-51.9	-55.6	3.7	0.00e+00	0	50	104	0	74	23333
2026-01-07 06:57:47.61	28.13	19.33	-51.8	-55.4	3.7	0.00e+00	0	49	104	0	74	22797
2026-01-07 06:57:48.61	27.82	19.23	-51.1	-54.0	3.7	0.00e+00	0	50	104	0	74	19433
2026-01-07 06:57:49.61	27.50	19.14	-51.3	-54.2	3.7	0.00e+00	0	49	104	0	74	19878
2026-01-07 06:57:50.61	27.20	19.04	-51.9	-55.2	3.7	0.00e+00	0	49	104	0	74	22192
2026-01-07 06:57:51.61	26.89	18.94	-52.0	-56.4	3.7	0.00e+00	0	49	104	0	74	25393
2026-01-07 06:57:52.62	26.58	18.84	-52.2	-56.6	3.7	0.00e+00	0	49	104	0	74	26057
2026-01-07 06:57:53.62	26.28	18.74	-52.2	-56.6	3.7	0.00e+00	0	50	104	0	75	24704
2026-01-07 06:57:54.62	25.98	18.64	-51.8	-56.8	3.7	0.00e+00	0	49	104	0	75	25238
2026-01-07 06:57:55.62	25.68	18.54	-51.4	-56.7	3.7	0.00e+00	0	50	104	0	74	26306
2026-01-07 06:57:56.62	25.39	18.44	-51.0	-56.4	3.7	0.00e+00	0	49	104	0	74	25426
2026-01-07 06:57:57.62	25.09	18.34	-50.4	-55.9	3.7	0.00e+00	0	50	104	0	72	27197
2026-01-07 06:57:58.61	24.81	18.24	-50.7	-56.3	3.7	0.00e+00	0	50	104	0	72	28268
2026-01-07 06:57:59.62	24.52	18.13	-51.6	-56.8	3.7	0.00e+00	0	49	104	0	73	28336
2026-01-07 06:58:00.62	24.23	18.03	-51.8	-56.7	3.7	0.00e+00	0	50	104	0	75	25018
2026-01-07 06:58:01.62	23.95	17.93	-52.0	-56.9	3.7	0.00e+00	0	50	104	0	74	27043
2026-01-07 06:58:02.62	23.66	17.83	-52.1	-57.0	3.7	0.00e+00	0	50	104	0	75	25704
2026-01-07 06:58:03.62	23.39	17.73	-52.5	-57.3	3.7	0.00e+00	0	50	104	0	75	26855
2026-01-07 06:58:04.62	23.11	17.63	-52.6	-57.2	3.7	0.00e+00	0	50	104	0	75	26575
2026-01-07 06:58:05.62	22.83	17.53	-52.8	-57.4	3.7	0.00e+00	0	49	104	0	76	25473
2026-01-07 06:58:06.62	22.56	17.43	-52.1	-56.5	3.7	0.00e+00	0	49	104	0	76	23055
2026-01-07 06:58:07.62	22.29	17.33	-52.0	-57.0	3.7	0.00e+00	0	50	104	0	76	24326
2026-01-07 06:58:08.62	22.02	17.22	-51.7	-56.5	3.7	0.00e+00	0	50	104	0	75	24442
2026-01-07 06:58:09.62	21.76	17.12	-51.2	-55.8	3.7	0.00e+00	0	50	104	0	74	23694
2026-01-07 06:58:10.62	21.49	17.02	-51.1	-55.6	3.7	0.00e+00	0	50	104	0	74	23419
2026-01-07 06:58:11.63	21.23	16.92	-51.3	-55.8	3.7	0.00e+00	0	50	104	0	74	23945
2026-01-07 06:58:12.63	20.97	16.82	-51.5	-56.1	3.7	0.00e+00	0	49	104	0	74	24716
2026-01-07 06:58:13.63	20.71	16.72	-51.8	-56.4	3.7	0.00e+00	0	49	104	0	74	25440
2026-01-07 06:58:14.63	20.45	16.61	-52.2	-56.6	3.7	0.00e+00	0	50	104	0	75	24551
2026-01-07 06:58:15.63	20.20	16.51	-52.6	-57.1	3.7	0.00e+00	0	49	104	0	75	26014
2026-01-07 06:58:16.63	19.95	16.41	-52.8	-57.2	3.7	0.00e+00	0	49	104	0	76	25068
2026-01-07 06:58:17.63	19.70	16.31	-52.6	-57.0	3.7	0.00e+00	0	50	104	0	76	24324
2026-01-07 06:58:18.63	19.45	16.21	-52.4	-57.0	3.7	0.00e+00	0	50	104	0	76	24281
2026-01-07 06:58:19.64	19.20	16.11	-52.5	-57.2	3.7	0.00e+00	0	50	104	0	76	25005
2026-01-07 06:58:20.64	18.96	16.01	-52.2	-56.7	3.7	0.00e+00	0	50	104	0	76	23606
2026-01-07 06:58:21.64	18.72	15.91	-51.2	-56.3	3.7	0.00e+00	0	50	104	0	74	25250
2026-01-07 06:58:22.65	18.47	15.80	-50.8	-56.0	3.7	0.00e+00	0	50	104	0	73	25947
2026-01-07 06:58:23.65	18.24	15.70	-50.5	-55.8	3.7	0.00e+00	0	50	104	0	73	25326
2026-01-07 06:58:24.65	18.00	15.60	-51.0	-56.2	3.7	0.00e+00	0	49	104	0	72	27915
2026-01-07 06:58:25.65	17.77	15.50	-51.7	-56.4	3.7	0.00e+00	0	49	104	0	74	25469
2026-01-07 06:58:26.65	17.53	15.40	-52.0	-56.3	3.7	0.00e+00	0	50	104	0	74	25315
2026-01-07 06:58:27.65	17.30	15.30	-51.9	-56.1	3.7	0.00e+00	0	50	104	0	74	24528
2026-01-07 06:58:28.66	17.07	15.20	-52.1	-56.4	3.7	0.00e+00	0	49	104	0	74	25490
2026-01-07 06:58:29.66	16.85	15.10	-52.5	-57.0	3.7	0.00e+00	0	50	104	0	75	25776
2026-01-07 06:58:30.66	16.62	15.00	-52.1	-56.1	3.7	0.00e+00	0	49	104	0	75	23386
2026-01-07 06:58:31.66	16.40	14.90	-52.7	-57.0	3.7	0.00e+00	0	50	104	0	75	25708
2026-01-07 06:58:32.67	16.18	14.80	-52.4	-56.4	3.7	0.00e+00	0	50	104	0	76	22817
2026-01-07 06:58:33.66	15.96	14.70	-52.4	-56.4	3.7	0.00e+00	0	50	104	0	76	22735
2026-01-07 06:58:34.67	15.74	14.60	-52.8	-57.1	3.7	0.00e+00	0	50	104	0	76	24801
2026-01-07 06:58:35.67	15.52	14.51	-52.9	-57.5	3.7	0.00e+00	0	49	104	0	76	25731
2026-01-07 06:58:36.67	15.31	14.41	-52.6	-57.3	3.7	0.00e+00	0	49	104	0	76	25192
2026-01-07 06:58:37.67	15.10	14.31	-51.7	-56.3	3.7	0.00e+00	0	49	104	0	75	23848
2026-01-07 06:58:38.67	14.89	14.21	-51.1	-56.1	3.7	0.00e+00	0	50	104	0	74	24574
2026-01-07 06:58:39.67	14.68	14.11	-49.8	-55.5	3.7	0.00e+00	0	50	104	0	71	27219
2026-01-07 06:58:40.67	14.47	14.01	-49.6	-55.2	3.7	0.00e+00	0	49	104	0	71	26378
2026-01-07 06:58:41.67	14.27	13.92	-49.6	-55.1	3.7	0.00e+00	0	50	104	0	71	26172
2026-01-07 06:58:42.67	14.06	13.82	-49.5	-55.2	3.7	0.00e+00	0	50	104	0	71	26435
2026-01-07 06:58:43.67	13.86	13.72	-49.5	-55.3	3.7	0.00e+00	0	50	104	0	71	26886
2026-01-07 06:58:44.67	13.66	13.62	-49.5	-55.5	3.7	0.00e+00	0	49	104	0	70	28850
2026-01-07 06:58:45.67	13.46	13.53	-49.7	-55.6	3.7	0.00e+00	0	50	104	0	70	29176
2026-01-07 06:58:46.67	13.26	13.43	-49.9	-55.7	3.7	0.00e+00	0	50	104	0	70	29508
2026-01-07 06:58:47.67	13.07	13.33	-50.7	-56.2	3.7	0.00e+00	0	50	104	0	72	28002
2026-01-07 06:58:48.67	12.87	13.24	-50.0	-55.9	3.7	0.00e+00	0	50	104	0	71	28526
2026-01-07 06:58:49.68	12.68	13.14	-49.8	-55.6	3.7	0.00e+00	0	50	104	0	71	27590
2026-01-07 06:58:50.68	12.49	13.05	-50.4	-56.0	3.7	0.00e+00	0	49	104	0	71	29137
2026-01-07 06:58:51.68	12.30	12.95	-50.8	-56.3	3.7	0.00e+00	0	50	104	0	72	28253
2026-01-07 06:58:52.68	12.11	12.85	-51.3	-56.5	3.7	0.00e+00	0	50	104	0	73	27512
2026-01-07 06:58:53.68	11.92	12.76	-51.7	-56.7	3.7	0.00e+00	0	50	104	0	74	26576
2026-01-07 06:58:54.68	11.74	12.66	-52.0	-56.9	3.7	0.00e+00	0	50	104	0	74	26909
2026-01-07 06:58:55.69	11.55	12.57	-51.5	-56.5	3.7	0.00e+00	0	49	104	0	74	25932
2026-01-07 06:58:56.69	11.37	12.47	-51.4	-56.7	3.7	0.00e+00	0	50	104	0	74	26340
2026-01-07 06:58:57.69	11.19	12.38	-51.5	-56.5	3.7	0.00e+00	0	49	104	0	74	25940
2026-01-07 06:58:58.69	11.01	12.29	-51.5	-56.6	3.7	0.00e+00	0	50	104	0	74	26151
2026-01-07 06:58:59.69	10.83	12.19	-51.6	-56.8	3.7	0.00e+00	0	50	104	0	74	26657
2026-01-07 06:59:00.70	10.65	12.10	-49.9	-55.7	3.7	0.00e+00	0	50	104	0	71	27915
2026-01-07 06:59:01.70	10.48	12.01	-51.1	-56.3	3.7	0.00e+00	0	50	104	0	72	28268
2026-01-07 06:59:02.70	10.30	11.91	-49.5	-55.3	3.7	0.00e+00	0	49	104	0	71	26857
2026-01-07 06:59:03.70	10.13	11.82	-49.1	-55.2	3.7	0.00e+00	0	50	104	0	69	29607
2026-01-07 06:59:04.70	9.96	11.73	-49.3	-55.3	3.7	0.00e+00	0	50	104	0	69	30115
2026-01-07 06:59:05.71	9.79	11.63	-49.6	-55.6	3.7	0.00e+00	0	50	104	0	69	31060
2026-01-07 06:59:06.71	9.62	11.54	-49.8	-55.7	3.7	0.00e+00	0	50	104	0	70	29739
2026-01-07 06:59:07.71	9.45	11.45	-49.6	-55.7	3.7	0.00e+00	0	50	104	0	70	29520
2026-01-07 06:59:08.72	9.28	11.36	-49.1	-55.1	3.7	0.00e+00	0	50	104	0	70	27536
2026-01-07 06:59:09.71	9.12	11.27	-48.5	-54.7	3.7	0.00e+00	0	50	104	0	68	29517
2026-01-07 06:59:10.72	8.96	11.18	-49.4	-55.5	3.7	0.00e+00	0	50	104	0	69	30683
2026-01-07 06:59:11.72	8.79	11.09	-48.2	-54.5	3.7	0.00e+00	0	50	104	0	68	28912
2026-01-07 06:59:12.72	8.63	11.00	-47.3	-53.8	3.8	0.00e+00	0	50	104	0	66	30139
2026-01-07 06:59:13.72	8.47	10.91	-47.5	-53.8	3.7	0.00e+00	0	50	104	0	66	30119
2026-01-07 06:59:14.72	8.32	10.82	-47.8	-54.0	3.7	0.00e+00	0	50	104	0	66	30789
2026-01-07 06:59:15.72	8.16	10.73	-48.3	-54.4	3.7	0.00e+00	0	50	104	0	67	30313
2026-01-07 06:59:16.72	8.00	10.64	-48.9	-54.7	3.7	0.00e+00	0	50	104	0	68	29628
2026-01-07 06:59:17.73	7.85	10.55	-49.6	-55.3	3.7	0.00e+00	0	50	104	0	69	30080
2026-01-07 06:59:18.73	7.69	10.46	-50.1	-55.9	3.7	0.00e+00	0	50	104	0	70	30502
2026-01-07 06:59:19.73	7.54	10.37	-48.7	-55.0	3.7	0.00e+00	0	50	104	0	69	29073
2026-01-07 06:59:20.73	7.39	10.28	-48.8	-54.8	3.7	0.00e+00	0	50	104	0	68	30153
2026-01-07 06:59:21.73	7.24	10.19	-49.2	-55.0	3.7	0.00e+00	0	50	104	0	69	29144
2026-01-07 06:59:22.74	7.09	10.11	-49.7	-55.4	3.7	0.00e+00	0	50	104	0	70	28731
2026-01-07 06:59:23.74	6.94	10.02	-50.1	-55.7	3.7	0.00e+00	0	50	104	0	70	29549
2026-01-07 06:59:24.74	6.80	9.93	-50.5	-55.9	3.7	0.00e+00	0	50	104	0	71	28675
2026-01-07 06:59:25.74	6.65	9.84	-50.7	-56.1	3.7	0.00e+00	0	50	104	0	72	27555
2026-01-07 06:59:26.74	6.51	9.76	-50.9	-56.5	3.7	0.00e+00	0	49	104	0	72	29111
2026-01-07 06:59:27.74	6.36	9.67	-50.8	-56.3	3.7	0.00e+00	0	50	104	0	72	28322
2026-01-07 06:59:28.74	6.22	9.59	-49.7	-55.6	3.7	0.00e+00	0	50	104	0	71	27664
2026-01-07 06:59:29.75	6.08	9.50	-48.8	-54.6	3.7	0.00e+00	0	50	104	0	69	27683
2026-01-07 06:59:30.75	5.94	9.41	-49.5	-55.5	3.7	0.00e+00	0	50	104	0	69	30714
2026-01-07 06:59:31.75	5.80	9.33	-49.2	-54.9	3.7	0.00e+00	0	50	104	0	70	27021
2026-01-07 06:59:32.75	5.66	9.24	-49.3	-55.0	3.7	0.00e+00	0	50	104	0	70	27438
2026-01-07 06:59:33.75	5.52	9.16	-49.6	-55.2	3.7	0.00e+00	0	50	104	0	70	27872
2026-01-07 06:59:34.75	5.39	9.07	-50.0	-55.4	3.7	0.00e+00	0	50	104	0	70	28685
2026-01-07 06:59:35.76	5.25	8.99	-49.3	-55.2	3.7	0.00e+00	0	50	104	0	70	27888
2026-01-07 06:59:36.76	5.12	8.90	-50.3	-55.8	3.7	0.00e+00	0	50	104	0	72	26858
2026-01-07 06:59:37.76	4.98	8.82	-50.7	-55.9	3.7	0.00e+00	0	50	104	0	72	27123
2026-01-07 06:59:38.76	4.85	8.74	-51.3	-56.6	3.7	0.00e+00	0	50	104	0	74	26246
2026-01-07 06:59:39.76	4.72	8.65	-50.8	-55.8	3.7	0.00e+00	0	50	104	0	72	26855
2026-01-07 06:59:40.77	4.59	8.57	-52.9	-57.5	3.7	0.00e+00	0	50	104	0	76	25735
2026-01-07 06:59:41.77	4.46	8.49	-52.9	-57.3	3.7	0.00e+00	0	50	104	0	76	25264
2026-01-07 06:59:42.77	4.33	8.40	-53.1	-57.9	3.7	0.00e+00	0	50	104	0	76	27112
2026-01-07 06:59:43.77	4.20	8.32	-52.8	-57.7	3.7	0.00e+00	0	50	104	0	76	26355
2026-01-07 06:59:44.77	4.08	8.24	-53.4	-57.9	3.7	0.00e+00	0	50	104	0	77	25478
2026-01-07 06:59:45.77	3.95	8.16	-53.0	-57.9	3.7	0.00e+00	0	50	104	0	77	25621
2026-01-07 06:59:46.78	3.83	8.08	-52.8	-57.5	3.7	0.00e+00	0	50	104	0	76	25828
2026-01-07 06:59:47.78	3.70	7.99	-53.5	-58.0	3.7	0.00e+00	0	50	104	0	77	25887
2026-01-07 06:59:48.78	3.58	7.91	-53.7	-58.1	3.7	0.00e+00	0	50	104	0	78	24753
2026-01-07 06:59:49.78	3.46	7.83	-52.9	-57.7	3.7	0.00e+00	0	50	104	0	77	24877
2026-01-07 06:59:50.78	3.34	7.75	-52.9	-57.7	3.7	0.00e+00	0	50	104	0	77	25047
2026-01-07 06:59:51.78	3.22	7.67	-53.1	-57.9	3.7	0.00e+00	0	50	104	0	78	24117
2026-01-07 06:59:52.78	3.10	7.59	-53.5	-58.1	3.7	0.00e+00	0	50	104	0	77	26033
2026-01-07 06:59:53.78	2.98	7.51	-53.8	-58.2	3.7	0.00e+00	0	50	104	0	78	24993
2026-01-07 06:59:54.78	2.86	7.43	-53.6	-58.2	3.7	0.00e+00	0	50	104	0	78	24962
2026-01-07 06:59:55.79	2.74	7.35	-53.5	-58.2	3.7	0.00e+00	0	50	104	0	78	24833
2026-01-07 06:59:56.79	2.63	7.27	-53.6	-58.2	3.7	0.00e+00	0	50	104	0	78	25015
2026-01-07 06:59:57.79	2.51	7.19	-53.6	-58.2	3.7	0.00e+00	0	50	104	0	78	24964
2026-01-07 06:59:58.79	2.40	7.12	-53.5	-58.0	3.7	0.00e+00	0	50	104	0	78	24339
2026-01-07 06:59:59.79	2.29	7.04	-53.4	-57.9	3.7	0.00e+00	0	50	104	0	78	24149
2026-01-07 07:00:00.80	2.17	6.96	-53.2	-57.8	3.7	0.00e+00	0	50	104	0	78	23883
2026-01-07 07:00:01.80	2.06	6.88	-53.1	-57.3	3.7	0.00e+00	0	50	104	0	78	22367
2026-01-07 07:00:02.80	1.95	6.80	-53.1	-57.4	3.7	0.00e+00	0	50	104	0	77	24027
2026-01-07 07:00:03.80	1.84	6.73	-52.6	-57.3	3.7	0.00e+00	0	50	104	0	77	23900
2026-01-07 07:00:04.81	1.73	6.65	-52.7	-57.4	3.7	0.00e+00	0	50	104	0	77	23981
2026-01-07 07:00:05.81	1.62	6.57	-52.6	-57.3	3.7	0.00e+00	0	50	104	0	77	23829
2026-01-07 07:00:06.81	1.51	6.49	-52.6	-57.3	3.7	0.00e+00	0	50	104	0	77	23887
2026-01-07 07:00:07.81	1.40	6.42	-52.7	-57.3	3.7	0.00e+00	0	50	104	0	77	23888
2026-01-07 07:00:08.81	1.30	6.34	-52.6	-57.3	3.7	0.00e+00	0	50	104	0	77	23886
2026-01-07 07:00:09.81	1.19	6.26	-52.6	-57.3	3.7	0.00e+00	0	50	104	0	77	23881
2026-01-07 07:00:10.82	1.08	6.19	-52.6	-57.3	3.7	0.00e+00	0	50	104	0	77	23914
2026-01-07 07:00:11.82	0.98	6.11	-52.6	-57.3	3.7	0.00e+00	0	50	104	0	77	23816
2026-01-07 07:00:12.82	0.88	6.04	-52.7	-57.3	3.7	0.00e+00	0	50	104	0	77	23851
2026-01-07 07:00:13.82	0.77	5.96	-52.7	-57.4	3.7	0.00e+00	0	50	104	0	77	23986
2026-01-07 07:00:14.82	0.67	5.89	-52.6	-57.3	3.7	0.00e+00	0	50	104	0	77	23868
2026-01-07 07:00:15.82	0.57	5.81	-52.6	-57.3	3.7	0.00e+00	0	50	104	0	77	23883
2026-01-07 07:00:16.82	0.47	5.74	-52.6	-57.3	3.7	0.00e+00	0	50	104	0	77	23951
2026-01-07 07:00:17.83	0.37	5.66	-52.6	-57.3	3.7	0.00e+00	0	50	104	0	77	23903
2026-01-07 07:00:18.83	0.27	5.59	-52.6	-57.3	3.7	0.00e+00	0	50	104	0	77	23869
2026-01-07 07:00:19.83	0.17	5.51	-52.6	-57.3	3.7	0.00e+00	0	50	104	0	77	23809
2026-01-07 07:00:20.83	0.07	5.44	-52.6	-57.4	3.7	0.00e+00	0	50	104	0	77	23969
2026-01-07 07:00:21.83	359.97	5.37	-52.6	-57.3	3.7	0.00e+00	0	50	104	0	77	23784
2026-01-07 07:00:22.83	359.88	5.29	-52.6	-57.3	3.7	0.00e+00	0	50	104	0	77	23889
2026-01-07 07:00:23.84	359.78	5.22	-52.6	-57.3	3.7	0.00e+00	0	50	104	0	77	23892
2026-01-07 07:00:24.84	359.68	5.15	-52.6	-57.3	3.7	0.00e+00	0	50	104	0	77	23813
2026-01-07 07:00:25.84	359.59	5.07	-52.6	-57.3	3.7	0.00e+00	0	50	104	0	77	23864
2026-01-07 07:00:26.84	359.49	5.00	-52.7	-57.4	3.7	0.00e+00	0	50	104	0	77	23968
2026-01-07 07:00:27.85	359.40	4.93	-52.6	-57.3	3.7	0.00e+00	0	50	104	0	77	23785

#Closed at: 2026-01-07 07:00:28
#Recorded file [0 MB]: D:/Data/31040_260107_095223.dat