passes_logs/2026/01/07/T1/T1__20260107_033749_FENGYUN_3G_rec.log

#Pass ID: 20260107_033749_FENGYUN 3G
#Satellite: FENGYUN 3G
#Configuration: FENGYUN 3G
#almurnet v.1.7.20251203
#Start time: 2026-01-07 03:37:49

#Version: 2.0.20230620
#Station: T1
#Location: 37.570604 lon 55.790049 lat
#TLE: 1 56232U 23055A   26005.65670112  .00041871  00000+0  66206-3 0  9997
#TLE: 2 56232  49.9942 104.1198 0004242 344.1257  15.9577 15.52986726154745

#Time	Az	El	Level	Level2	SNR	BER	BlckErr	Temp	State	Recorded	gain1	gain2
2026-01-07 03:37:49.52	256.58	5.10	-49.4	-68.3	3.8	8.47e-01	0	40	0	0	70	31563
2026-01-07 03:37:50.52	256.49	5.17	-49.4	-68.0	3.8	8.38e-01	0	40	104	0	70	30725
2026-01-07 03:37:51.52	256.39	5.25	-49.4	-68.1	3.8	8.47e-01	0	40	104	0	70	30923
2026-01-07 03:37:52.53	256.30	5.32	-49.4	-68.2	3.8	8.46e-01	0	40	104	0	70	31362
2026-01-07 03:37:53.53	256.21	5.40	-49.4	-68.3	3.8	8.46e-01	0	40	104	0	70	31502
2026-01-07 03:37:54.53	256.11	5.47	-49.4	-68.3	3.8	8.47e-01	0	40	104	0	70	31555
2026-01-07 03:37:55.54	256.02	5.55	-49.4	-68.3	3.8	8.47e-01	0	40	104	0	70	31559
2026-01-07 03:37:56.54	255.92	5.63	-49.4	-68.3	3.8	8.47e-01	0	40	104	0	70	31625
2026-01-07 03:37:57.54	255.82	5.70	-49.4	-68.3	3.8	8.46e-01	0	40	104	0	70	31480
2026-01-07 03:37:58.55	255.73	5.78	-49.4	-68.3	3.8	8.46e-01	0	40	104	0	70	31452
2026-01-07 03:37:59.55	255.63	5.86	-49.4	-68.2	3.8	8.46e-01	0	40	104	0	70	31422
2026-01-07 03:38:00.56	255.53	5.94	-49.4	-68.3	3.8	8.45e-01	0	40	104	0	70	31528
2026-01-07 03:38:01.56	255.43	6.02	-49.4	-68.3	3.8	8.47e-01	0	40	104	0	70	31527
2026-01-07 03:38:02.56	255.33	6.09	-49.4	-68.3	3.8	8.47e-01	0	40	104	0	70	31644
2026-01-07 03:38:03.57	255.23	6.17	-49.4	-68.3	3.8	8.48e-01	0	40	104	0	70	31464
2026-01-07 03:38:04.57	255.12	6.25	-49.5	-68.2	3.8	8.47e-01	0	41	104	0	70	31237
2026-01-07 03:38:05.58	255.02	6.33	-49.4	-68.1	3.8	8.46e-01	0	41	104	0	70	30951
2026-01-07 03:38:06.58	254.92	6.41	-49.5	-68.1	3.8	8.46e-01	0	41	104	0	70	30821
2026-01-07 03:38:07.58	254.81	6.49	-49.4	-68.0	3.8	8.47e-01	0	41	104	0	70	30605
2026-01-07 03:38:08.59	254.71	6.57	-49.4	-68.0	3.8	8.47e-01	0	41	104	0	70	30706
2026-01-07 03:38:09.59	254.60	6.65	-49.4	-68.1	3.8	8.47e-01	0	41	104	0	70	30868
2026-01-07 03:38:10.59	254.49	6.73	-49.4	-68.2	3.8	8.47e-01	0	41	104	0	70	31132
2026-01-07 03:38:11.60	254.38	6.81	-49.4	-68.2	3.8	8.47e-01	0	41	104	0	70	31399
2026-01-07 03:38:12.60	254.28	6.89	-49.4	-68.2	3.8	8.47e-01	0	41	104	0	70	31353
2026-01-07 03:38:13.60	254.17	6.97	-49.4	-68.2	3.8	8.47e-01	0	41	104	0	70	31405
2026-01-07 03:38:14.61	254.06	7.06	-49.4	-68.3	3.8	8.46e-01	0	41	104	0	70	31627
2026-01-07 03:38:15.61	253.94	7.14	-49.4	-68.3	3.8	8.46e-01	0	41	104	0	70	31790
2026-01-07 03:38:16.62	253.83	7.22	-49.4	-68.4	3.8	8.47e-01	0	41	104	0	70	32124
2026-01-07 03:38:17.62	253.72	7.30	-49.4	-68.5	3.8	8.46e-01	0	41	104	0	70	32240
2026-01-07 03:38:18.63	253.60	7.39	-49.4	-68.5	3.8	8.46e-01	0	41	104	0	70	32331
2026-01-07 03:38:19.63	253.49	7.47	-49.4	-68.5	3.8	8.46e-01	0	41	104	0	70	32221
2026-01-07 03:38:20.63	253.37	7.56	-49.4	-68.4	3.8	8.48e-01	0	41	104	0	70	31908
2026-01-07 03:38:21.64	253.26	7.64	-49.4	-68.2	3.8	8.48e-01	0	41	104	0	70	31288
2026-01-07 03:38:22.64	253.14	7.72	-49.4	-67.7	3.8	8.48e-01	0	41	104	0	70	29677
2026-01-07 03:38:23.65	253.02	7.81	-49.3	-67.3	3.8	8.47e-01	0	41	104	0	70	28185
2026-01-07 03:38:24.65	252.90	7.90	-49.4	-66.8	3.8	8.47e-01	0	41	104	0	70	26755
2026-01-07 03:38:25.66	252.78	7.98	-49.3	-66.6	3.9	8.47e-01	0	41	104	0	70	25910
2026-01-07 03:38:26.66	252.66	8.07	-49.3	-66.8	3.8	8.47e-01	0	41	104	0	70	26531
2026-01-07 03:38:27.66	252.53	8.15	-49.4	-67.4	3.8	8.47e-01	0	41	104	0	70	28368
2026-01-07 03:38:28.67	252.41	8.24	-49.3	-68.1	3.8	8.47e-01	0	41	104	0	70	30901
2026-01-07 03:38:29.67	252.28	8.33	-49.4	-68.4	3.8	8.46e-01	0	41	104	0	70	32078
2026-01-07 03:38:30.67	252.16	8.41	-49.3	-68.1	3.8	8.46e-01	0	41	104	0	70	31034
2026-01-07 03:38:31.68	252.03	8.50	-49.4	-67.4	3.8	8.46e-01	0	41	104	0	70	28634
2026-01-07 03:38:32.68	251.90	8.59	-49.4	-66.5	3.8	8.47e-01	0	41	104	0	70	25632
2026-01-07 03:38:33.69	251.77	8.68	-49.3	-65.4	4.1	8.45e-01	0	42	0	0	70	22713
2026-01-07 03:38:34.69	251.64	8.77	-49.3	-64.2	4.4	8.38e-01	0	41	0	0	70	19745
2026-01-07 03:38:35.69	251.51	8.86	-49.1	-62.1	5.5	8.38e-01	0	41	0	0	70	15580
2026-01-07 03:38:36.70	251.38	8.95	-48.9	-59.5	7.5	7.00e-01	0	42	0	0	69	12219
2026-01-07 03:38:37.70	251.25	9.04	-48.5	-57.2	9.9	1.04e-01	0	41	0	0	69	9380
2026-01-07 03:38:38.71	251.11	9.13	-48.2	-56.0	11.3	1.04e-01	0	42	0	0	68	8575
2026-01-07 03:38:39.71	250.98	9.22	-47.5	-54.1	13.1	4.43e-03	0	42	0	0	67	7351
2026-01-07 03:38:40.71	250.84	9.31	-48.6	-58.2	9.2	2.35e-04	0	41	0	0	67	11718
2026-01-07 03:38:41.76	250.70	9.40	-48.6	-61.8	6.2	2.35e-04	0	42	0	0	68	16864
2026-01-07 03:38:42.70	250.56	9.49	-46.4	-51.5	14.9	1.69e-01	0	42	0	0	64	6483
2026-01-07 03:38:43.81	250.41	9.59	-45.4	-49.4	17.9	1.91e-01	0	42	0	0	62	5721
2026-01-07 03:38:44.67	250.29	9.67	-44.9	-48.7	18.6	1.91e-01	0	41	0	0	61	5545
2026-01-07 03:38:46.02	250.09	9.80	-43.9	-47.2	20.2	0.00e+00	0	42	0	0	59	5240
2026-01-07 03:38:46.74	249.99	9.86	-43.5	-46.7	20.7	0.00e+00	0	42	0	0	59	4927
2026-01-07 03:38:48.24	249.77	10.00	-43.3	-46.4	21.0	0.00e+00	0	42	0	0	58	5074
2026-01-07 03:38:48.95	249.67	10.07	-43.3	-46.3	21.1	0.00e+00	0	42	0	0	58	5005
2026-01-07 03:38:50.24	249.48	10.19	-42.7	-45.5	21.8	0.00e+00	0	42	0	0	57	4869
2026-01-07 03:38:50.95	249.37	10.26	-42.6	-45.4	22.0	0.00e+00	0	42	0	0	57	4778
2026-01-07 03:38:52.24	249.18	10.38	-41.5	-44.1	23.0	0.00e+00	0	42	0	0	55	4606
2026-01-07 03:38:52.96	249.07	10.45	-41.2	-43.6	23.5	0.00e+00	0	42	0	0	54	4629
2026-01-07 03:38:54.24	248.87	10.57	-41.0	-43.3	23.8	0.00e+00	0	42	0	0	53	4724
2026-01-07 03:38:54.96	248.76	10.64	-41.0	-43.3	23.8	0.00e+00	0	42	0	0	53	4740
2026-01-07 03:38:56.25	248.56	10.77	-40.9	-43.2	23.9	0.00e+00	0	42	0	0	53	4682
2026-01-07 03:38:56.97	248.45	10.84	-40.8	-43.1	23.9	0.00e+00	0	42	0	0	53	4628
2026-01-07 03:38:58.26	248.24	10.96	-40.9	-43.2	23.8	0.00e+00	0	42	0	0	53	4700
2026-01-07 03:38:58.97	248.13	11.03	-41.3	-43.8	23.4	0.00e+00	0	42	0	0	53	4993
2026-01-07 03:39:00.26	247.92	11.16	-41.3	-43.7	23.4	0.00e+00	0	42	0	0	53	4965
2026-01-07 03:39:00.99	247.80	11.23	-41.3	-43.7	23.4	0.00e+00	0	42	0	0	53	4972
2026-01-07 03:39:02.28	247.59	11.36	-41.2	-43.6	23.5	0.00e+00	0	42	0	0	53	4892
2026-01-07 03:39:02.99	247.47	11.43	-41.0	-43.4	23.6	0.00e+00	0	42	0	0	53	4811
2026-01-07 03:39:04.28	247.25	11.56	-40.7	-43.1	24.0	0.00e+00	0	42	0	0	53	4601
2026-01-07 03:39:05.00	247.13	11.63	-40.6	-43.0	24.1	0.00e+00	0	42	0	0	53	4548
2026-01-07 03:39:06.29	246.91	11.76	-40.2	-42.4	24.6	0.00e+00	0	42	0	0	52	4515
2026-01-07 03:39:07.00	246.79	11.83	-40.2	-42.4	24.6	0.00e+00	0	42	0	0	52	4537
2026-01-07 03:39:08.29	246.56	11.96	-40.4	-42.6	24.4	0.00e+00	0	42	0	0	52	4627
2026-01-07 03:39:09.01	246.44	12.04	-40.3	-42.5	24.5	0.00e+00	0	42	0	0	52	4565
2026-01-07 03:39:10.30	246.21	12.17	-40.2	-42.4	24.5	0.00e+00	0	42	0	0	52	4521
2026-01-07 03:39:11.02	246.08	12.24	-40.5	-42.7	24.3	0.00e+00	0	42	0	0	52	4704
2026-01-07 03:39:12.31	245.84	12.38	-40.3	-42.6	24.3	0.00e+00	0	42	0	0	52	4606
2026-01-07 03:39:13.02	245.71	12.45	-40.2	-42.5	24.5	0.00e+00	0	42	0	0	52	4575
2026-01-07 03:39:14.31	245.48	12.59	-40.3	-42.6	24.4	0.00e+00	0	42	0	0	52	4629
2026-01-07 03:39:15.03	245.34	12.66	-40.3	-42.6	24.4	0.00e+00	0	42	0	0	52	4600
2026-01-07 03:39:16.32	245.10	12.80	-40.1	-42.4	24.7	0.00e+00	0	42	0	0	52	4501
2026-01-07 03:39:17.04	244.97	12.87	-40.0	-42.2	24.9	0.00e+00	0	42	0	0	51	4682
2026-01-07 03:39:18.32	244.72	13.01	-40.4	-42.6	24.6	0.00e+00	0	42	0	0	51	4892
2026-01-07 03:39:19.04	244.58	13.08	-40.5	-42.7	24.4	0.00e+00	0	42	0	0	51	4956
2026-01-07 03:39:20.32	244.33	13.22	-40.5	-42.7	24.5	0.00e+00	0	42	0	0	51	4979
2026-01-07 03:39:21.04	244.19	13.30	-40.6	-43.0	24.2	0.00e+00	0	42	0	0	52	4818
2026-01-07 03:39:22.33	243.94	13.44	-40.6	-42.9	24.2	0.00e+00	0	42	0	0	52	4765
2026-01-07 03:39:23.04	243.79	13.51	-40.6	-42.9	24.3	0.00e+00	0	42	0	0	52	4760
2026-01-07 03:39:24.33	243.53	13.65	-40.2	-42.4	24.6	0.00e+00	0	42	0	0	52	4521
2026-01-07 03:39:25.04	243.39	13.73	-40.2	-42.4	24.6	0.00e+00	0	42	0	0	52	4532
2026-01-07 03:39:26.33	243.12	13.87	-39.9	-42.0	25.1	0.00e+00	0	42	0	0	51	4563
2026-01-07 03:39:27.04	242.97	13.95	-39.8	-41.9	25.2	0.00e+00	0	42	0	0	51	4508
2026-01-07 03:39:28.33	242.70	14.09	-39.6	-41.7	25.3	0.00e+00	0	42	0	0	51	4437
2026-01-07 03:39:29.05	242.55	14.17	-39.6	-41.7	25.4	0.00e+00	0	42	0	0	51	4410
2026-01-07 03:39:30.34	242.27	14.31	-39.8	-42.0	25.1	0.00e+00	0	42	0	0	51	4553
2026-01-07 03:39:31.05	242.12	14.39	-39.5	-41.5	25.4	0.00e+00	0	42	0	0	50	4580
2026-01-07 03:39:32.34	241.84	14.54	-39.7	-41.8	25.3	0.00e+00	0	42	0	0	50	4718
2026-01-07 03:39:33.06	241.68	14.62	-39.4	-41.5	25.5	0.00e+00	0	42	0	0	50	4569
2026-01-07 03:39:34.35	241.39	14.76	-39.4	-41.5	25.5	0.00e+00	0	42	0	0	50	4561
2026-01-07 03:39:35.07	241.23	14.84	-39.2	-41.3	25.7	0.00e+00	0	42	0	0	50	4469
2026-01-07 03:39:36.35	240.94	14.99	-39.1	-41.2	25.8	0.00e+00	0	42	0	0	50	4421
2026-01-07 03:39:37.07	240.77	15.07	-39.4	-41.4	25.6	0.00e+00	0	42	0	0	50	4544
2026-01-07 03:39:38.36	240.48	15.22	-39.5	-41.6	25.4	0.00e+00	0	42	0	0	50	4630
2026-01-07 03:39:39.07	240.31	15.30	-39.7	-41.9	25.2	0.00e+00	0	42	0	0	50	4774
2026-01-07 03:39:40.36	240.00	15.45	-39.4	-41.5	25.5	0.00e+00	0	42	0	0	50	4593
2026-01-07 03:39:41.08	239.83	15.53	-39.5	-41.6	25.5	0.00e+00	0	42	0	0	50	4635
2026-01-07 03:39:42.37	239.52	15.68	-39.1	-41.2	25.8	0.00e+00	0	42	0	0	50	4435
2026-01-07 03:39:43.08	239.35	15.76	-39.2	-41.3	25.7	0.00e+00	0	42	0	0	50	4442
2026-01-07 03:39:44.37	239.03	15.91	-39.2	-41.3	25.8	0.00e+00	0	42	0	0	50	4450
2026-01-07 03:39:45.08	238.86	15.99	-39.2	-41.3	25.7	0.00e+00	0	42	0	0	50	4465
2026-01-07 03:39:46.49	238.50	16.16	-39.1	-41.1	25.9	0.00e+00	0	42	0	0	50	4381
2026-01-07 03:39:47.20	238.32	16.24	-38.9	-40.9	26.0	0.00e+00	0	42	0	0	49	4533
2026-01-07 03:39:48.49	237.99	16.39	-38.7	-40.7	26.2	0.00e+00	0	42	0	0	49	4398
2026-01-07 03:39:49.21	237.81	16.48	-38.5	-40.5	26.4	0.00e+00	0	42	0	0	49	4311
2026-01-07 03:39:50.49	237.47	16.63	-38.4	-40.4	26.5	0.00e+00	0	42	0	0	48	4529
2026-01-07 03:39:51.21	237.28	16.72	-38.5	-40.5	26.4	0.00e+00	0	42	0	0	48	4562
2026-01-07 03:39:52.50	236.94	16.87	-38.7	-40.7	26.2	0.00e+00	0	42	0	0	48	4690
2026-01-07 03:39:53.21	236.75	16.95	-38.8	-40.9	26.1	0.00e+00	0	42	0	0	48	4773
2026-01-07 03:39:54.50	236.40	17.11	-38.8	-40.8	26.1	0.00e+00	0	42	0	0	48	4759
2026-01-07 03:39:55.26	236.19	17.20	-38.9	-41.0	26.0	0.00e+00	0	42	0	0	48	4846
2026-01-07 03:39:56.54	235.84	17.35	-38.8	-40.8	26.2	0.00e+00	0	42	0	0	48	4725
2026-01-07 03:39:57.26	235.64	17.44	-38.7	-40.7	26.2	0.00e+00	0	42	0	0	48	4677
2026-01-07 03:39:58.55	235.27	17.59	-38.3	-40.3	26.6	0.00e+00	0	42	0	0	48	4480
2026-01-07 03:39:59.27	235.07	17.68	-38.5	-40.5	26.4	0.00e+00	0	42	0	0	48	4559
2026-01-07 03:40:00.55	234.70	17.84	-38.1	-40.1	26.8	0.00e+00	0	42	0	0	48	4365
2026-01-07 03:40:01.27	234.49	17.92	-38.2	-40.2	26.6	0.00e+00	0	42	0	0	48	4406
2026-01-07 03:40:02.56	234.11	18.08	-38.0	-40.0	26.8	0.00e+00	0	42	0	0	48	4318
2026-01-07 03:40:03.27	233.90	18.17	-38.0	-40.0	26.8	0.00e+00	0	42	0	0	48	4319
2026-01-07 03:40:04.56	233.51	18.32	-38.1	-40.1	26.7	0.00e+00	0	42	0	0	48	4367
2026-01-07 03:40:05.28	233.29	18.41	-38.2	-40.2	26.6	0.00e+00	0	42	0	0	48	4414
2026-01-07 03:40:06.73	232.85	18.59	-38.2	-40.2	26.7	0.00e+00	0	42	0	0	48	4411
2026-01-07 03:40:07.44	232.63	18.68	-38.1	-40.1	26.7	0.00e+00	0	42	0	0	48	4345
2026-01-07 03:40:08.73	232.23	18.83	-38.0	-40.0	26.8	0.00e+00	0	42	0	0	48	4316
2026-01-07 03:40:09.45	232.00	18.92	-37.9	-39.8	26.9	0.00e+00	0	42	0	0	47	4491
2026-01-07 03:40:10.73	231.59	19.08	-38.0	-39.9	26.8	0.00e+00	0	42	0	0	47	4543
2026-01-07 03:40:11.45	231.36	19.17	-38.0	-39.9	26.8	0.00e+00	0	42	0	0	47	4545
2026-01-07 03:40:12.74	230.94	19.32	-38.2	-40.2	26.5	0.00e+00	0	42	0	0	47	4687
2026-01-07 03:40:13.45	230.71	19.41	-38.0	-39.9	26.5	0.00e+00	0	42	0	0	47	4538
2026-01-07 03:40:14.74	230.28	19.57	-37.8	-39.8	26.9	0.00e+00	0	42	0	0	47	4446
2026-01-07 03:40:15.46	230.04	19.66	-37.7	-39.6	27.0	0.00e+00	0	42	0	0	47	4371
2026-01-07 03:40:16.75	229.60	19.82	-38.0	-39.9	26.8	0.00e+00	0	42	0	0	47	4545
2026-01-07 03:40:17.48	229.35	19.90	-38.2	-40.2	26.7	0.00e+00	0	42	0	0	47	4662
2026-01-07 03:40:18.77	228.91	20.06	-38.1	-40.1	26.7	0.00e+00	0	42	0	0	47	4606
2026-01-07 03:40:19.49	228.66	20.15	-38.0	-40.0	26.7	0.00e+00	0	42	0	0	47	4591
2026-01-07 03:40:20.77	228.21	20.31	-37.9	-39.8	26.9	0.00e+00	0	42	0	0	47	4490
2026-01-07 03:40:21.49	227.95	20.39	-37.7	-39.7	27.0	0.00e+00	0	42	0	0	47	4421
2026-01-07 03:40:22.86	227.46	20.56	-37.8	-39.8	27.0	0.00e+00	0	42	0	0	47	4461
2026-01-07 03:40:23.57	227.21	20.65	-38.0	-40.0	26.8	0.00e+00	0	42	0	0	47	4586
2026-01-07 03:40:24.86	226.74	20.80	-38.1	-40.1	26.7	0.00e+00	0	42	0	0	47	4643
2026-01-07 03:40:25.58	226.47	20.89	-38.2	-40.2	26.7	0.00e+00	0	42	0	0	47	4673
2026-01-07 03:40:26.86	225.99	21.05	-38.1	-40.1	26.7	0.00e+00	0	42	0	0	47	4650
2026-01-07 03:40:27.58	225.72	21.13	-38.0	-39.9	26.8	0.00e+00	0	42	0	0	47	4537
2026-01-07 03:40:28.87	225.23	21.29	-37.9	-39.8	27.0	0.00e+00	0	42	0	0	47	4475
2026-01-07 03:40:29.59	224.96	21.37	-37.8	-39.8	26.9	0.00e+00	0	42	0	0	47	4467
2026-01-07 03:40:30.88	224.46	21.53	-37.5	-39.5	27.2	0.00e+00	0	43	0	0	47	4310
2026-01-07 03:40:31.59	224.18	21.61	-37.3	-39.2	27.4	0.00e+00	0	43	0	0	46	4436
2026-01-07 03:40:32.88	223.68	21.76	-37.3	-39.2	27.3	0.00e+00	0	42	0	0	46	4438
2026-01-07 03:40:33.60	223.39	21.85	-37.4	-39.3	27.4	0.00e+00	0	43	0	0	46	4479
2026-01-07 03:40:34.89	222.87	22.00	-37.5	-39.5	27.2	0.00e+00	0	42	0	0	46	4568
2026-01-07 03:40:35.61	222.58	22.08	-37.7	-39.6	27.1	0.00e+00	0	42	0	0	46	4633
2026-01-07 03:40:36.90	222.06	22.23	-37.7	-39.7	27.1	0.00e+00	0	43	0	0	46	4671
2026-01-07 03:40:37.61	221.76	22.32	-37.8	-39.8	27.0	0.00e+00	0	42	0	0	46	4734
2026-01-07 03:40:38.90	221.23	22.46	-37.8	-39.8	26.9	0.00e+00	0	42	0	0	46	4726
2026-01-07 03:40:39.61	220.93	22.54	-37.7	-39.7	27.1	0.00e+00	0	42	0	0	46	4658
2026-01-07 03:40:41.06	220.32	22.71	-37.7	-39.6	27.1	0.00e+00	0	42	0	0	46	4630
2026-01-07 03:40:41.78	220.01	22.79	-37.6	-39.5	27.2	0.00e+00	0	42	0	0	46	4595
2026-01-07 03:40:43.13	219.43	22.94	-37.5	-39.5	27.3	0.00e+00	0	42	0	0	46	4560
2026-01-07 03:40:43.85	219.12	23.02	-37.5	-39.4	27.3	0.00e+00	0	42	0	0	46	4529
2026-01-07 03:40:45.14	218.55	23.16	-37.1	-39.0	27.6	0.00e+00	0	42	0	0	46	4333
2026-01-07 03:40:45.85	218.24	23.24	-37.0	-38.9	27.6	0.00e+00	0	42	0	0	46	4285
2026-01-07 03:40:47.14	217.66	23.38	-37.0	-38.9	27.6	0.00e+00	0	42	0	0	46	4256
2026-01-07 03:40:47.86	217.34	23.45	-37.0	-38.9	27.6	0.00e+00	0	42	0	0	46	4287
2026-01-07 03:40:49.15	216.76	23.59	-37.1	-39.0	27.6	0.00e+00	0	42	0	0	46	4310
2026-01-07 03:40:49.86	216.43	23.66	-37.0	-38.9	27.7	0.00e+00	0	42	0	0	46	4286
2026-01-07 03:40:51.15	215.84	23.80	-37.2	-39.2	27.5	0.00e+00	0	42	0	0	46	4398
2026-01-07 03:40:51.87	215.51	23.87	-37.2	-39.1	27.6	0.00e+00	0	42	0	0	46	4364
2026-01-07 03:40:53.16	214.91	24.00	-37.1	-39.0	27.6	0.00e+00	0	42	0	0	46	4316
2026-01-07 03:40:53.87	214.57	24.07	-37.1	-39.0	27.6	0.00e+00	0	42	0	0	46	4322
2026-01-07 03:40:55.16	213.96	24.20	-37.1	-39.0	27.7	0.00e+00	0	42	0	0	46	4313
2026-01-07 03:40:55.87	213.62	24.27	-36.9	-38.8	27.7	0.00e+00	0	42	0	0	45	4454
2026-01-07 03:40:57.16	213.00	24.39	-37.0	-38.9	27.8	0.00e+00	0	42	0	0	45	4512
2026-01-07 03:40:57.88	212.66	24.46	-37.1	-39.1	27.6	0.00e+00	0	42	0	0	45	4615
2026-01-07 03:40:59.25	211.99	24.58	-36.8	-38.7	27.8	0.00e+00	0	42	0	0	45	4440
2026-01-07 03:40:59.97	211.64	24.65	-36.7	-38.6	28.0	0.00e+00	0	43	0	0	45	4377
2026-01-07 03:41:01.25	211.00	24.76	-36.8	-38.7	27.9	0.00e+00	0	42	0	0	45	4407
2026-01-07 03:41:01.97	210.65	24.83	-36.7	-38.5	27.9	0.00e+00	0	42	0	0	45	4338
2026-01-07 03:41:03.26	210.00	24.94	-36.5	-38.4	28.1	0.00e+00	0	42	0	0	44	4524
2026-01-07 03:41:03.97	209.64	25.00	-36.2	-38.1	28.4	0.00e+00	0	42	0	0	44	4365
2026-01-07 03:41:05.26	208.99	25.10	-36.9	-38.8	27.8	0.00e+00	0	42	0	0	44	4718
2026-01-07 03:41:05.97	208.63	25.16	-36.7	-38.6	27.9	0.00e+00	0	42	0	0	44	4604
2026-01-07 03:41:07.26	207.97	25.26	-36.4	-38.3	28.2	0.00e+00	0	42	0	0	44	4444
2026-01-07 03:41:08.06	207.56	25.32	-36.8	-38.7	27.9	0.00e+00	0	42	0	0	44	4656
2026-01-07 03:41:09.52	206.80	25.43	-36.6	-38.5	28.1	0.00e+00	0	42	0	0	44	4548
2026-01-07 03:41:10.24	206.42	25.48	-36.4	-38.2	28.2	0.00e+00	0	42	0	0	44	4433
2026-01-07 03:41:11.52	205.75	25.57	-36.5	-38.4	28.1	0.00e+00	0	42	0	0	44	4517
2026-01-07 03:41:12.24	205.37	25.62	-36.5	-38.4	28.1	0.00e+00	0	42	0	0	44	4515
2026-01-07 03:41:13.53	204.69	25.71	-36.5	-38.3	28.1	0.00e+00	0	42	0	0	44	4483
2026-01-07 03:41:14.25	204.31	25.75	-36.5	-38.4	27.5	0.00e+00	0	42	0	0	44	4510
2026-01-07 03:41:15.54	203.62	25.83	-36.4	-38.3	28.0	0.00e+00	0	42	0	0	44	4481
2026-01-07 03:41:16.25	203.24	25.87	-36.2	-38.1	28.3	0.00e+00	0	42	0	0	44	4355
2026-01-07 03:41:17.54	202.54	25.95	-36.3	-38.2	28.2	0.00e+00	0	42	0	0	44	4402
2026-01-07 03:41:18.26	202.15	25.98	-36.5	-38.4	28.1	0.00e+00	0	42	0	0	44	4500
2026-01-07 03:41:19.55	201.45	26.05	-36.6	-38.5	28.1	0.00e+00	0	42	0	0	44	4550
2026-01-07 03:41:20.27	201.06	26.09	-36.6	-38.5	28.0	0.00e+00	0	42	0	0	44	4581
2026-01-07 03:41:21.56	200.35	26.15	-36.4	-38.3	28.1	0.00e+00	0	42	0	0	44	4480
2026-01-07 03:41:22.27	199.96	26.18	-36.2	-38.1	28.3	0.00e+00	0	42	0	0	44	4370
2026-01-07 03:41:23.56	199.25	26.24	-36.3	-38.2	28.3	0.00e+00	0	42	0	0	44	4407
2026-01-07 03:41:24.28	198.85	26.26	-36.5	-38.4	28.1	0.00e+00	0	42	0	0	44	4503
2026-01-07 03:41:25.77	198.03	26.32	-36.6	-38.5	28.1	0.00e+00	0	42	0	0	44	4551
2026-01-07 03:41:26.49	197.63	26.34	-36.6	-38.5	28.0	0.00e+00	0	43	0	0	44	4567
2026-01-07 03:41:27.86	196.87	26.39	-36.3	-38.2	28.2	0.00e+00	0	42	0	0	44	4405
2026-01-07 03:41:28.58	196.46	26.41	-35.7	-37.5	28.6	0.00e+00	0	42	0	0	43	4337
2026-01-07 03:41:29.87	195.74	26.44	-36.1	-38.0	28.2	0.00e+00	0	42	0	0	43	4578
2026-01-07 03:41:30.59	195.34	26.46	-36.2	-38.1	28.2	0.00e+00	0	42	0	0	43	4632
2026-01-07 03:41:31.87	194.62	26.49	-36.4	-38.3	28.0	0.00e+00	0	42	0	0	43	4710
2026-01-07 03:41:32.59	194.22	26.50	-36.9	-38.9	27.7	0.00e+00	0	42	0	0	44	4760
2026-01-07 03:41:33.88	193.49	26.52	-36.9	-38.9	27.7	0.00e+00	0	42	0	0	44	4767
2026-01-07 03:41:34.59	193.09	26.53	-36.7	-38.6	27.9	0.00e+00	0	42	0	0	44	4626
2026-01-07 03:41:35.88	192.36	26.54	-36.8	-38.7	27.9	0.00e+00	0	42	0	0	44	4705
2026-01-07 03:41:36.60	191.96	26.55	-36.7	-38.7	27.8	0.00e+00	0	42	0	0	44	4662
2026-01-07 03:41:38.25	191.02	26.55	-37.1	-39.0	27.7	0.00e+00	0	42	0	0	44	4851
2026-01-07 03:41:38.82	190.70	26.55	-37.6	-39.6	27.3	0.00e+00	0	42	0	0	45	4872
2026-01-07 03:41:40.49	189.76	26.55	-36.7	-38.5	28.0	0.00e+00	0	42	0	0	45	4334
2026-01-07 03:41:41.07	189.43	26.55	-36.6	-38.4	28.0	0.00e+00	0	42	0	0	45	4281
2026-01-07 03:41:42.66	188.53	26.54	-36.4	-38.3	28.2	0.00e+00	0	42	0	0	44	4451
2026-01-07 03:41:43.23	188.21	26.53	-36.5	-38.3	28.1	0.00e+00	0	42	0	0	44	4489
2026-01-07 03:41:44.82	187.32	26.51	-36.8	-38.8	27.8	0.00e+00	0	42	0	0	44	4706
2026-01-07 03:41:45.39	187.00	26.50	-36.8	-38.7	27.8	0.00e+00	0	42	0	0	44	4686
2026-01-07 03:41:46.97	186.11	26.47	-37.2	-39.1	27.6	0.00e+00	0	42	0	0	44	4890
2026-01-07 03:41:47.60	185.76	26.45	-37.4	-39.3	27.4	0.00e+00	0	43	0	0	45	4758
2026-01-07 03:41:49.32	184.79	26.41	-37.5	-39.4	27.4	0.00e+00	0	42	0	0	45	4788
2026-01-07 03:41:50.02	184.40	26.39	-37.5	-39.5	27.2	0.00e+00	0	43	0	0	45	4836
2026-01-07 03:41:51.32	183.68	26.35	-37.7	-39.7	27.1	0.00e+00	0	42	0	0	46	4652
2026-01-07 03:41:52.04	183.28	26.33	-37.9	-39.9	27.0	0.00e+00	0	42	0	0	46	4786
2026-01-07 03:41:53.33	182.56	26.28	-38.0	-40.0	26.8	0.00e+00	0	43	0	0	46	4868
2026-01-07 03:41:54.05	182.16	26.25	-37.8	-39.7	26.9	0.00e+00	0	42	0	0	47	4436
2026-01-07 03:41:55.34	181.45	26.20	-37.6	-39.5	27.3	0.00e+00	0	42	0	0	46	4587
2026-01-07 03:41:56.05	181.06	26.17	-37.3	-39.2	27.5	0.00e+00	0	42	0	0	46	4432
2026-01-07 03:41:57.34	180.36	26.11	-37.3	-39.2	27.5	0.00e+00	0	42	0	0	46	4406
2026-01-07 03:41:58.06	179.96	26.07	-36.9	-38.8	27.7	0.00e+00	0	43	0	0	45	4477
2026-01-07 03:41:59.35	179.26	26.00	-37.1	-39.0	27.5	0.00e+00	0	42	0	0	45	4554
2026-01-07 03:42:00.06	178.88	25.97	-37.0	-38.9	27.6	0.00e+00	0	42	0	0	45	4518
2026-01-07 03:42:01.64	178.02	25.88	-37.2	-39.1	27.6	0.00e+00	0	43	0	0	45	4621
2026-01-07 03:42:02.24	177.70	25.84	-37.0	-38.9	27.7	0.00e+00	0	42	0	0	45	4539
2026-01-07 03:42:03.81	176.86	25.75	-37.1	-39.1	27.0	0.00e+00	0	43	0	0	45	4604
2026-01-07 03:42:04.56	176.46	25.70	-37.3	-39.2	27.4	0.00e+00	0	42	0	0	45	4689
2026-01-07 03:42:05.85	175.78	25.61	-36.9	-38.8	27.7	0.00e+00	0	42	0	0	45	4465
2026-01-07 03:42:06.57	175.40	25.56	-36.6	-38.5	28.0	0.00e+00	0	42	0	0	45	4312
2026-01-07 03:42:07.86	174.73	25.47	-36.3	-38.2	28.1	0.00e+00	0	42	0	0	44	4423
2026-01-07 03:42:08.58	174.35	25.42	-36.4	-38.3	28.2	0.00e+00	0	43	0	0	44	4450
2026-01-07 03:42:09.87	173.68	25.33	-36.4	-38.3	28.1	0.00e+00	0	42	0	0	44	4481
2026-01-07 03:42:10.58	173.32	25.27	-36.4	-38.3	28.0	0.00e+00	0	42	0	0	43	4727
2026-01-07 03:42:11.87	172.66	25.17	-36.4	-38.3	27.9	0.00e+00	0	42	0	0	43	4739
2026-01-07 03:42:12.58	172.29	25.11	-36.6	-38.5	27.9	0.00e+00	0	42	0	0	43	4839
2026-01-07 03:42:13.87	171.64	25.01	-36.6	-38.5	27.8	0.00e+00	0	42	0	0	43	4866
2026-01-07 03:42:14.59	171.28	24.95	-36.9	-38.9	27.7	0.00e+00	0	42	0	0	44	4769
2026-01-07 03:42:15.87	170.64	24.84	-36.8	-38.7	27.8	0.00e+00	0	42	0	0	44	4695
2026-01-07 03:42:16.59	170.28	24.78	-36.7	-38.6	27.9	0.00e+00	0	42	0	0	44	4643
2026-01-07 03:42:18.12	169.52	24.64	-36.8	-38.8	27.5	0.00e+00	0	42	0	0	44	4708
2026-01-07 03:42:18.84	169.17	24.57	-36.7	-38.6	27.8	0.00e+00	0	42	0	0	44	4629
2026-01-07 03:42:20.13	168.54	24.46	-36.7	-38.6	27.8	0.00e+00	0	42	0	0	44	4641
2026-01-07 03:42:21.19	168.03	24.36	-37.1	-39.0	27.5	0.00e+00	0	42	0	0	44	4869
2026-01-07 03:42:22.05	167.62	24.27	-36.8	-38.7	27.7	0.00e+00	0	42	0	0	44	4704
2026-01-07 03:42:23.20	167.07	24.16	-36.9	-38.9	27.7	0.00e+00	0	42	0	0	44	4770
2026-01-07 03:42:24.06	166.67	24.08	-36.9	-38.8	27.7	0.00e+00	0	42	0	0	44	4755
2026-01-07 03:42:25.29	166.09	23.95	-36.9	-38.9	27.7	0.00e+00	0	42	0	0	44	4773
2026-01-07 03:42:26.14	165.69	23.87	-36.6	-38.6	27.8	0.00e+00	0	42	0	0	44	4613
2026-01-07 03:42:27.29	165.16	23.75	-36.4	-38.3	28.0	0.00e+00	0	42	0	0	44	4488
2026-01-07 03:42:28.15	164.77	23.66	-36.6	-38.5	28.0	0.00e+00	0	43	0	0	44	4558
2026-01-07 03:42:29.29	164.25	23.54	-36.8	-38.7	27.8	0.00e+00	0	42	0	0	44	4704
2026-01-07 03:42:30.15	163.86	23.45	-36.8	-38.7	27.8	0.00e+00	0	42	0	0	44	4673
2026-01-07 03:42:31.51	163.25	23.31	-36.9	-38.8	27.7	0.00e+00	0	43	0	0	44	4731
2026-01-07 03:42:32.22	162.94	23.23	-36.9	-38.8	27.7	0.00e+00	0	42	0	0	44	4755
2026-01-07 03:42:33.51	162.37	23.09	-36.7	-38.6	27.8	0.00e+00	0	42	0	0	44	4618
2026-01-07 03:42:34.23	162.06	23.01	-36.8	-38.8	27.7	0.00e+00	0	43	0	0	44	4724
2026-01-07 03:42:35.52	161.50	22.87	-37.0	-38.9	27.6	0.00e+00	0	43	0	0	44	4796
2026-01-07 03:42:36.23	161.19	22.79	-37.1	-39.0	27.5	0.00e+00	0	43	0	0	44	4845
2026-01-07 03:42:37.85	160.51	22.60	-36.7	-38.6	27.9	0.00e+00	0	42	0	0	44	4603
2026-01-07 03:42:38.43	160.26	22.54	-36.5	-38.4	28.0	0.00e+00	0	43	0	0	44	4528
2026-01-07 03:42:40.02	159.60	22.36	-36.9	-38.8	27.8	0.00e+00	0	42	0	0	44	4741
2026-01-07 03:42:40.59	159.36	22.29	-37.0	-38.9	27.6	0.00e+00	0	42	0	0	44	4780
2026-01-07 03:42:42.33	158.65	22.09	-37.2	-39.1	27.5	0.00e+00	0	43	0	0	44	4904
2026-01-07 03:42:42.90	158.42	22.02	-37.1	-39.1	27.5	0.00e+00	0	43	0	0	45	4603
2026-01-07 03:42:44.48	157.79	21.84	-37.2	-39.1	27.4	0.00e+00	0	42	0	0	45	4644
2026-01-07 03:42:45.08	157.55	21.77	-37.4	-39.3	27.3	0.00e+00	0	42	0	0	45	4752
2026-01-07 03:42:46.66	156.93	21.58	-37.8	-39.8	26.9	0.00e+00	0	43	0	0	46	4709
2026-01-07 03:42:47.53	156.59	21.48	-37.7	-39.7	27.0	0.00e+00	0	42	0	0	46	4688
2026-01-07 03:42:48.68	156.15	21.34	-37.4	-39.4	27.2	0.00e+00	0	42	0	0	46	4515
2026-01-07 03:42:49.54	155.82	21.24	-37.4	-39.3	27.3	0.00e+00	0	42	0	0	46	4490
2026-01-07 03:42:50.68	155.39	21.10	-37.5	-39.4	27.2	0.00e+00	0	42	0	0	46	4528
2026-01-07 03:42:51.54	155.07	21.00	-37.5	-39.4	27.2	0.00e+00	0	42	0	0	46	4541
2026-01-07 03:42:52.69	154.64	20.86	-37.7	-39.6	27.0	0.00e+00	0	43	0	0	46	4647
2026-01-07 03:42:53.55	154.32	20.75	-37.5	-39.5	27.1	0.00e+00	0	42	0	0	46	4563
2026-01-07 03:42:54.69	153.91	20.61	-37.7	-39.7	27.0	0.00e+00	0	42	0	0	46	4664
2026-01-07 03:42:55.61	153.58	20.50	-37.5	-39.4	27.2	0.00e+00	0	42	0	0	46	4538
2026-01-07 03:42:56.79	153.16	20.36	-37.8	-39.8	26.8	0.00e+00	0	42	0	0	46	4711
2026-01-07 03:42:57.70	152.84	20.25	-37.8	-39.8	26.9	0.00e+00	0	43	0	0	46	4734
2026-01-07 03:42:58.86	152.43	20.11	-38.2	-40.2	26.6	0.00e+00	0	42	0	0	47	4680
2026-01-07 03:42:59.80	152.10	19.99	-37.9	-39.9	26.8	0.00e+00	0	42	0	0	47	4511
2026-01-07 03:43:00.81	151.76	19.87	-37.6	-39.6	27.0	0.00e+00	0	43	0	0	47	4367
2026-01-07 03:43:01.81	151.42	19.75	-37.8	-39.8	26.9	0.00e+00	0	43	0	0	47	4469
2026-01-07 03:43:02.81	151.08	19.62	-37.8	-39.8	26.9	0.00e+00	0	43	0	0	47	4442
2026-01-07 03:43:03.82	150.75	19.50	-37.9	-39.9	26.8	0.00e+00	0	43	0	0	47	4518
2026-01-07 03:43:04.82	150.42	19.38	-38.1	-40.1	26.7	0.00e+00	0	43	0	0	47	4632
2026-01-07 03:43:05.82	150.09	19.25	-38.1	-40.1	26.7	0.00e+00	0	43	0	0	47	4605
2026-01-07 03:43:06.82	149.77	19.13	-38.0	-40.0	26.7	0.00e+00	0	42	0	0	47	4566
2026-01-07 03:43:07.83	149.44	19.01	-38.1	-40.1	26.7	0.00e+00	0	42	0	0	47	4606
2026-01-07 03:43:08.88	149.11	18.88	-38.3	-40.3	26.4	0.00e+00	0	43	0	0	47	4743
2026-01-07 03:43:09.77	148.83	18.77	-38.3	-40.4	26.4	0.00e+00	0	43	0	0	47	4780
2026-01-07 03:43:11.10	148.42	18.61	-38.3	-40.3	26.4	0.00e+00	0	42	0	0	47	4734
2026-01-07 03:43:11.82	148.19	18.52	-38.2	-40.2	26.6	0.00e+00	0	42	0	0	47	4674
2026-01-07 03:43:13.11	147.80	18.36	-37.8	-39.8	26.8	0.00e+00	0	43	0	0	47	4469
2026-01-07 03:43:13.83	147.58	18.28	-37.8	-39.8	26.9	0.00e+00	0	42	0	0	47	4480
2026-01-07 03:43:15.12	147.20	18.12	-38.2	-40.2	26.6	0.00e+00	0	42	0	0	47	4669
2026-01-07 03:43:15.90	146.97	18.02	-38.5	-40.5	26.2	0.00e+00	0	43	0	0	47	4865
2026-01-07 03:43:17.19	146.59	17.87	-38.9	-40.9	25.9	0.00e+00	0	42	0	0	48	4799
2026-01-07 03:43:17.98	146.36	17.77	-38.9	-40.9	25.9	0.00e+00	0	43	0	0	48	4802
2026-01-07 03:43:19.14	146.03	17.63	-38.8	-40.9	26.0	0.00e+00	0	43	0	0	48	4774
2026-01-07 03:43:20.23	145.72	17.50	-38.6	-40.6	26.2	0.00e+00	0	43	0	0	48	4630
2026-01-07 03:43:21.26	145.43	17.38	-38.5	-40.5	26.4	0.00e+00	0	42	0	0	48	4565
2026-01-07 03:43:22.47	145.10	17.23	-38.4	-40.4	26.4	0.00e+00	0	43	0	0	48	4535
2026-01-07 03:43:23.36	144.85	17.12	-38.5	-40.5	26.3	0.00e+00	0	43	0	0	48	4582
2026-01-07 03:43:24.50	144.54	16.99	-38.7	-40.8	26.2	0.00e+00	0	43	0	0	48	4719
2026-01-07 03:43:25.36	144.31	16.89	-38.7	-40.7	26.2	0.00e+00	0	42	0	0	48	4673
2026-01-07 03:43:26.51	144.00	16.75	-38.4	-40.4	26.4	0.00e+00	0	43	0	0	48	4504
2026-01-07 03:43:27.37	143.78	16.65	-38.2	-40.2	26.6	0.00e+00	0	43	0	0	48	4420
2026-01-07 03:43:28.52	143.48	16.51	-38.3	-40.2	26.5	0.00e+00	0	42	0	0	48	4439
2026-01-07 03:43:29.38	143.25	16.41	-38.4	-40.4	26.5	0.00e+00	0	42	0	0	48	4501
2026-01-07 03:43:30.52	142.96	16.28	-38.6	-40.6	26.2	0.00e+00	0	42	0	0	48	4611
2026-01-07 03:43:31.38	142.74	16.17	-38.9	-40.9	26.0	0.00e+00	0	42	0	0	48	4804
2026-01-07 03:43:32.53	142.45	16.04	-39.1	-41.1	25.8	0.00e+00	0	42	0	0	48	4923
2026-01-07 03:43:33.39	142.24	15.94	-39.1	-41.1	25.8	0.00e+00	0	42	0	0	48	4924
2026-01-07 03:43:34.53	141.96	15.81	-39.0	-41.1	25.9	0.00e+00	0	43	0	0	48	4874
2026-01-07 03:43:35.39	141.75	15.71	-38.9	-40.9	26.0	0.00e+00	0	42	0	0	48	4814
2026-01-07 03:43:36.53	141.47	15.58	-38.9	-40.9	26.0	0.00e+00	0	42	0	0	48	4795
2026-01-07 03:43:37.39	141.27	15.48	-39.0	-41.1	25.8	0.00e+00	0	42	0	0	48	4893
2026-01-07 03:43:38.54	141.00	15.34	-39.0	-41.1	25.9	0.00e+00	0	42	0	0	48	4871
2026-01-07 03:43:39.40	140.80	15.25	-39.2	-41.3	25.6	0.00e+00	0	42	0	0	49	4741
2026-01-07 03:43:40.55	140.53	15.11	-39.1	-41.2	25.8	0.00e+00	0	42	0	0	49	4658
2026-01-07 03:43:41.40	140.33	15.02	-38.9	-41.0	25.9	0.00e+00	0	42	0	0	49	4547
2026-01-07 03:43:42.55	140.07	14.89	-39.0	-41.1	25.8	0.00e+00	0	42	0	0	49	4624
2026-01-07 03:43:43.41	139.88	14.79	-39.2	-41.3	25.7	0.00e+00	0	43	0	0	49	4720
2026-01-07 03:43:44.55	139.62	14.66	-39.4	-41.5	25.5	0.00e+00	0	43	0	0	49	4819
2026-01-07 03:43:45.41	139.43	14.57	-39.6	-41.7	25.3	0.00e+00	0	43	0	0	49	4962
2026-01-07 03:43:46.56	139.18	14.44	-39.9	-42.0	25.0	0.00e+00	0	42	0	0	50	4845
2026-01-07 03:43:47.42	138.99	14.34	-39.8	-41.9	25.1	0.00e+00	0	42	0	0	50	4798
2026-01-07 03:43:48.57	138.75	14.21	-39.8	-41.9	25.1	0.00e+00	0	42	0	0	50	4790
2026-01-07 03:43:49.43	138.56	14.12	-39.7	-41.8	25.2	0.00e+00	0	42	0	0	50	4758
2026-01-07 03:43:50.57	138.32	13.99	-39.6	-41.7	25.3	0.00e+00	0	42	0	0	50	4682
2026-01-07 03:43:51.43	138.14	13.90	-39.6	-41.7	25.3	0.00e+00	0	43	0	0	50	4691
2026-01-07 03:43:52.61	137.90	13.77	-39.6	-41.7	25.3	0.00e+00	0	43	0	0	50	4693
2026-01-07 03:43:53.47	137.72	13.68	-39.7	-41.9	25.1	0.00e+00	0	42	0	0	50	4776
2026-01-07 03:43:54.61	137.49	13.55	-39.9	-42.0	25.0	0.00e+00	0	43	0	0	50	4856
2026-01-07 03:43:55.47	137.32	13.46	-40.1	-42.3	24.8	0.00e+00	0	42	0	0	50	5005
2026-01-07 03:43:56.62	137.09	13.34	-40.5	-42.8	24.4	0.00e+00	0	43	0	0	51	4990
2026-01-07 03:43:57.47	136.92	13.25	-40.6	-42.9	24.2	0.00e+00	0	42	0	0	52	4772
2026-01-07 03:43:58.62	136.70	13.12	-40.6	-42.9	24.2	0.00e+00	0	42	0	0	52	4767
2026-01-07 03:43:59.48	136.53	13.03	-40.6	-42.8	24.2	0.00e+00	0	42	0	0	52	4749
2026-01-07 03:44:00.63	136.31	12.91	-40.4	-42.6	24.4	0.00e+00	0	42	0	0	52	4638
2026-01-07 03:44:01.63	136.12	12.80	-40.3	-42.6	24.4	0.00e+00	0	43	0	0	52	4603
2026-01-07 03:44:02.63	135.93	12.70	-40.3	-42.5	24.5	0.00e+00	0	42	0	0	52	4568
2026-01-07 03:44:03.63	135.75	12.59	-40.2	-42.4	24.5	0.00e+00	0	43	0	0	52	4526
2026-01-07 03:44:04.64	135.56	12.49	-40.0	-42.2	24.7	0.00e+00	0	43	0	0	52	4422
2026-01-07 03:44:05.64	135.38	12.38	-40.2	-42.4	24.6	0.00e+00	0	43	0	0	52	4498
2026-01-07 03:44:06.64	135.20	12.28	-40.4	-42.6	24.4	0.00e+00	0	43	0	0	52	4610
2026-01-07 03:44:07.64	135.02	12.18	-40.6	-42.9	24.1	0.00e+00	0	43	0	0	52	4779
2026-01-07 03:44:08.65	134.84	12.08	-40.8	-43.1	23.9	0.00e+00	0	43	0	0	52	4917
2026-01-07 03:44:09.65	134.66	11.97	-41.0	-43.2	23.8	0.00e+00	0	42	0	0	52	4982
2026-01-07 03:44:10.65	134.49	11.87	-41.1	-43.5	23.6	0.00e+00	0	43	0	0	52	5118
2026-01-07 03:44:11.66	134.32	11.77	-41.2	-43.5	23.6	0.00e+00	0	43	0	0	53	4830
2026-01-07 03:44:12.66	134.14	11.67	-41.1	-43.4	23.7	0.00e+00	0	43	0	0	53	4775
2026-01-07 03:44:13.74	133.96	11.56	-41.0	-43.3	23.7	0.00e+00	0	42	0	0	53	4725
2026-01-07 03:44:14.60	133.82	11.47	-41.0	-43.4	23.6	0.00e+00	0	43	0	0	53	4763
2026-01-07 03:44:16.00	133.58	11.33	-41.0	-43.3	23.6	0.00e+00	0	42	0	0	53	4752
2026-01-07 03:44:16.71	133.47	11.26	-40.8	-43.1	23.9	0.00e+00	0	43	0	0	53	4635
2026-01-07 03:44:18.01	133.25	11.14	-40.7	-43.0	23.9	0.00e+00	0	43	0	0	53	4571
2026-01-07 03:44:18.72	133.14	11.07	-40.7	-43.0	23.9	0.00e+00	0	42	0	0	53	4586
2026-01-07 03:44:20.28	132.89	10.91	-40.9	-43.3	23.7	0.00e+00	0	43	0	0	53	4708
2026-01-07 03:44:20.99	132.78	10.84	-41.1	-43.4	23.6	0.00e+00	0	43	0	0	53	4789
2026-01-07 03:44:22.28	132.57	10.72	-41.4	-43.8	23.2	0.00e+00	0	42	0	0	53	5028
2026-01-07 03:44:23.00	132.46	10.65	-41.4	-43.8	23.2	0.00e+00	0	43	0	0	53	4999
2026-01-07 03:44:24.28	132.26	10.53	-41.5	-44.0	23.0	0.00e+00	0	42	0	0	53	5117
2026-01-07 03:44:25.00	132.15	10.46	-41.5	-43.9	23.1	0.00e+00	0	42	0	0	53	5071
2026-01-07 03:44:26.29	131.96	10.33	-41.7	-44.2	22.9	0.00e+00	0	43	0	0	53	5220
2026-01-07 03:44:27.00	131.85	10.27	-41.9	-44.4	22.6	0.00e+00	0	43	0	0	54	5063
2026-01-07 03:44:28.29	131.66	10.15	-41.8	-44.3	22.7	0.00e+00	0	43	0	0	54	5040
2026-01-07 03:44:29.01	131.55	10.08	-41.8	-44.3	22.6	0.00e+00	0	42	0	0	54	5031
2026-01-07 03:44:30.30	131.36	9.96	-41.8	-44.3	22.7	0.00e+00	0	43	0	0	54	5028
2026-01-07 03:44:31.01	131.26	9.89	-41.8	-44.3	22.7	0.00e+00	0	43	0	0	54	5016
2026-01-07 03:44:32.30	131.07	9.77	-41.8	-44.3	22.6	0.00e+00	0	43	0	0	54	5033
2026-01-07 03:44:33.21	130.94	9.69	-41.8	-44.3	22.7	0.00e+00	0	43	0	0	54	5005
2026-01-07 03:44:34.23	130.80	9.59	-41.6	-44.1	22.9	0.00e+00	0	43	0	0	54	4871
2026-01-07 03:44:35.23	130.66	9.50	-41.5	-43.9	23.0	0.00e+00	0	42	0	0	54	4792
2026-01-07 03:44:36.24	130.52	9.41	-41.4	-43.9	23.0	0.00e+00	0	43	0	0	54	4770
2026-01-07 03:44:37.24	130.38	9.32	-41.4	-43.8	23.1	0.00e+00	0	42	0	0	54	4736
2026-01-07 03:44:38.24	130.24	9.23	-41.5	-43.9	23.0	0.00e+00	0	43	0	0	54	4803
2026-01-07 03:44:39.24	130.11	9.14	-41.6	-44.1	22.8	0.00e+00	0	43	0	0	54	4888
2026-01-07 03:44:40.25	129.97	9.04	-41.7	-44.1	22.7	0.00e+00	0	43	0	0	54	4922
2026-01-07 03:44:41.29	129.84	8.95	-49.4	-64.5	4.2	0.00e+00	0	43	104	0	69	21559
2026-01-07 03:44:42.32	129.70	8.86	-49.6	-68.7	3.8	4.89e-01	0	43	104	0	70	33074
2026-01-07 03:44:43.35	129.56	8.77	-49.8	-68.8	3.8	8.47e-01	0	43	104	0	70	33406
2026-01-07 03:44:44.40	129.43	8.68	-50.2	-69.0	3.8	8.47e-01	0	43	104	0	71	32411
2026-01-07 03:44:45.32	129.31	8.59	-50.2	-68.8	3.8	8.47e-01	0	43	104	0	71	31798
2026-01-07 03:44:46.47	129.16	8.49	-50.2	-69.0	3.8	8.47e-01	0	43	104	0	71	32309
2026-01-07 03:44:47.36	129.05	8.42	-50.1	-69.0	3.8	8.47e-01	0	43	104	0	71	32378
2026-01-07 03:44:48.68	128.89	8.30	-50.3	-69.1	3.8	8.46e-01	0	43	104	0	71	32569
2026-01-07 03:44:49.39	128.80	8.24	-50.4	-69.1	3.8	8.47e-01	0	43	104	0	71	32561
2026-01-07 03:44:50.68	128.64	8.13	-50.3	-69.1	3.8	8.48e-01	0	43	104	0	71	32631
2026-01-07 03:44:51.40	128.55	8.07	-50.2	-69.1	3.8	8.48e-01	0	43	104	0	71	32725
2026-01-07 03:44:52.69	128.39	7.96	-50.3	-69.1	3.8	8.48e-01	0	43	104	0	71	32902
2026-01-07 03:44:53.41	128.31	7.89	-50.3	-69.1	3.8	8.48e-01	0	43	104	0	71	32775
2026-01-07 03:44:54.70	128.15	7.79	-50.1	-69.1	3.8	8.46e-01	0	43	104	0	71	32825
2026-01-07 03:44:55.41	128.07	7.73	-50.2	-69.1	3.8	8.47e-01	0	43	104	0	71	32748
2026-01-07 03:44:56.71	127.92	7.62	-50.0	-69.1	3.8	8.46e-01	0	42	104	0	71	32850
2026-01-07 03:44:57.42	127.83	7.56	-49.9	-69.1	3.8	8.46e-01	0	43	104	0	71	32734
2026-01-07 03:44:58.71	127.68	7.45	-49.9	-69.1	3.8	8.47e-01	0	43	104	0	71	32791
2026-01-07 03:44:59.43	127.60	7.39	-49.9	-69.1	3.8	8.47e-01	0	43	104	0	71	32782
2026-01-07 03:45:00.77	127.45	7.28	-50.0	-69.1	3.8	8.47e-01	0	43	104	0	71	32872
2026-01-07 03:45:01.49	127.37	7.22	-50.0	-69.1	3.8	8.46e-01	0	43	104	0	71	32829
2026-01-07 03:45:02.84	127.22	7.11	-50.0	-69.1	3.8	8.46e-01	0	43	104	0	71	32693
2026-01-07 03:45:03.56	127.14	7.05	-50.0	-69.1	3.8	8.46e-01	0	43	104	0	71	32743
2026-01-07 03:45:04.85	127.00	6.94	-50.0	-69.1	3.8	8.48e-01	0	43	104	0	71	32674
2026-01-07 03:45:05.56	126.92	6.89	-50.0	-69.1	3.8	8.47e-01	0	43	104	0	71	32666
2026-01-07 03:45:06.85	126.78	6.78	-50.0	-69.1	3.8	8.47e-01	0	43	104	0	71	32649
2026-01-07 03:45:07.57	126.70	6.72	-50.0	-69.1	3.8	8.47e-01	0	43	104	0	71	32659
2026-01-07 03:45:08.86	126.56	6.62	-50.0	-69.1	3.8	8.47e-01	0	42	104	0	71	32624
2026-01-07 03:45:09.58	126.49	6.56	-50.0	-69.1	3.8	8.47e-01	0	43	104	0	71	32618
2026-01-07 03:45:10.87	126.35	6.46	-50.0	-69.0	3.8	8.47e-01	0	43	104	0	71	32539
2026-01-07 03:45:11.58	126.28	6.40	-50.0	-69.1	3.8	8.48e-01	0	43	104	0	71	32554
2026-01-07 03:45:12.87	126.15	6.30	-49.9	-69.0	3.8	8.47e-01	0	43	104	0	71	32416
2026-01-07 03:45:13.59	126.07	6.24	-49.9	-69.0	3.8	8.47e-01	0	43	104	0	71	32486
2026-01-07 03:45:14.88	125.94	6.14	-50.0	-69.0	3.8	8.47e-01	0	43	104	0	71	32510
2026-01-07 03:45:15.60	125.87	6.09	-50.0	-69.0	3.8	8.47e-01	0	43	104	0	71	32488
2026-01-07 03:45:16.89	125.74	5.99	-49.9	-69.0	3.8	8.48e-01	0	43	104	0	71	32536
2026-01-07 03:45:17.61	125.67	5.93	-49.9	-69.1	3.8	8.48e-01	0	43	104	0	71	32581
2026-01-07 03:45:18.90	125.54	5.83	-50.0	-69.0	3.8	8.48e-01	0	43	104	0	71	32467
2026-01-07 03:45:19.61	125.47	5.78	-50.0	-69.0	3.8	8.48e-01	0	43	104	0	71	32459
2026-01-07 03:45:20.91	125.34	5.68	-50.0	-69.0	3.8	8.47e-01	0	43	104	0	71	32475
2026-01-07 03:45:21.62	125.27	5.62	-50.0	-69.0	3.8	8.46e-01	0	43	104	0	71	32487
2026-01-07 03:45:22.91	125.15	5.52	-50.0	-69.0	3.8	8.47e-01	0	43	104	0	71	32463
2026-01-07 03:45:23.63	125.08	5.47	-50.0	-69.0	3.8	8.47e-01	0	43	104	0	71	32544
2026-01-07 03:45:24.92	124.96	5.37	-50.0	-69.0	3.8	8.46e-01	0	43	104	0	71	32470
2026-01-07 03:45:25.64	124.89	5.32	-50.0	-69.1	3.8	8.47e-01	0	43	104	0	71	32569
2026-01-07 03:45:26.93	124.77	5.22	-50.0	-69.1	3.8	8.47e-01	0	43	104	0	71	32558
2026-01-07 03:45:27.64	124.71	5.17	-49.9	-69.0	3.8	8.48e-01	0	43	104	0	71	32522
2026-01-07 03:45:28.93	124.59	5.07	-50.0	-69.1	3.8	8.47e-01	0	43	104	0	71	32565
2026-01-07 03:45:29.65	124.53	5.02	-50.0	-69.0	3.8	8.47e-01	0	43	104	0	71	32445
2026-01-07 03:45:30.94	124.41	4.92	-50.0	-69.0	3.8	8.48e-01	0	43	104	0	71	32521
2026-01-07 03:45:31.66	124.34	4.87	-50.0	-69.0	3.8	8.47e-01	0	43	104	0	71	32524

#Closed at: 2026-01-07 03:45:32
#Recorded file [0 MB]: D:/Data/31040_260107_063749.dat