passes_logs/2026/01/07/T1/T1__20260107_115830_SUOMI_NPP_rec.log

#Pass ID: 20260107_115830_SUOMI NPP
#Satellite: SUOMI NPP
#Configuration: NPP
#almurnet v.1.7.20251203
#Start time: 2026-01-07 11:58:31

#Version: 2.0.20230620
#Station: T1
#Location: 37.570604 lon 55.790049 lat
#TLE: 1 37849U 11061A   26005.94084933  .00000134  00000+0  84554-4 0  9990
#TLE: 2 37849  98.7803 308.0679 0002567  79.1029 281.0436 14.19522657735426

#Time	Az	El	Level	Level2	SNR	BER	BlckErr	Temp	State	Recorded	gain1	gain2
2026-01-07 11:58:31.30	227.55	5.05	-51.5	-67.3	3.8	1.49e+00	0	42	0	0	75	21171
2026-01-07 11:58:32.30	227.66	5.11	-51.5	-67.3	3.8	1.49e+00	0	42	104	0	75	21130
2026-01-07 11:58:33.31	227.77	5.16	-51.5	-67.3	3.8	1.49e+00	0	42	104	0	75	21158
2026-01-07 11:58:34.31	227.88	5.21	-51.5	-67.3	3.8	1.49e+00	0	42	104	0	75	21128
2026-01-07 11:58:35.31	227.99	5.26	-51.5	-67.3	3.8	1.49e+00	0	42	104	0	75	21148
2026-01-07 11:58:36.32	228.10	5.31	-51.5	-67.3	3.8	1.49e+00	0	42	104	0	75	21137
2026-01-07 11:58:37.32	228.21	5.36	-51.5	-67.3	3.8	1.49e+00	0	42	104	0	75	21183
2026-01-07 11:58:38.33	228.32	5.41	-51.5	-67.3	3.8	1.49e+00	0	43	104	0	75	21177
2026-01-07 11:58:39.33	228.44	5.46	-51.5	-67.3	3.8	1.49e+00	0	42	104	0	75	21117
2026-01-07 11:58:40.34	228.55	5.51	-51.5	-67.3	3.8	1.49e+00	0	43	104	0	75	21167
2026-01-07 11:58:41.34	228.66	5.56	-51.5	-67.3	3.8	1.49e+00	0	42	104	0	75	21109
2026-01-07 11:58:42.35	228.78	5.61	-51.5	-67.3	3.8	1.49e+00	0	42	104	0	75	21086
2026-01-07 11:58:43.35	228.89	5.66	-51.5	-67.3	3.8	1.49e+00	0	42	104	0	75	21152
2026-01-07 11:58:44.35	229.00	5.71	-51.5	-67.3	3.8	1.49e+00	0	43	104	0	75	21051
2026-01-07 11:58:45.36	229.12	5.76	-51.5	-67.3	3.8	1.49e+00	0	42	104	0	75	21052
2026-01-07 11:58:46.36	229.23	5.81	-51.5	-67.3	3.8	1.49e+00	0	43	104	0	75	21078
2026-01-07 11:58:47.37	229.35	5.86	-51.5	-67.2	3.8	1.49e+00	0	42	104	0	75	21003
2026-01-07 11:58:48.37	229.47	5.91	-51.5	-67.3	3.8	1.49e+00	0	42	104	0	75	21062
2026-01-07 11:58:49.38	229.58	5.96	-51.5	-67.3	3.8	1.49e+00	0	43	104	0	75	21095
2026-01-07 11:58:50.38	229.70	6.01	-51.5	-67.3	3.8	1.49e+00	0	43	104	0	75	21097
2026-01-07 11:58:51.38	229.82	6.06	-51.5	-67.3	3.8	1.49e+00	0	43	104	0	75	21053
2026-01-07 11:58:52.39	229.93	6.12	-51.5	-67.3	3.8	1.49e+00	0	43	104	0	75	21122
2026-01-07 11:58:53.39	230.05	6.17	-51.5	-67.3	3.8	1.49e+00	0	43	104	0	75	21033
2026-01-07 11:58:54.40	230.17	6.22	-51.5	-67.3	3.8	1.49e+00	0	43	104	0	75	21023
2026-01-07 11:58:55.40	230.29	6.27	-51.5	-67.3	3.8	1.49e+00	0	43	104	0	75	21038
2026-01-07 11:58:56.41	230.41	6.32	-51.5	-67.2	3.8	1.49e+00	0	43	104	0	75	20963
2026-01-07 11:58:57.41	230.53	6.37	-51.5	-67.2	3.8	1.49e+00	0	43	104	0	75	21003
2026-01-07 11:58:58.42	230.65	6.42	-51.5	-67.2	3.8	1.49e+00	0	43	104	0	75	20905
2026-01-07 11:58:59.42	230.77	6.47	-51.5	-67.2	3.8	1.49e+00	0	43	104	0	75	20856
2026-01-07 11:59:00.42	230.89	6.52	-51.5	-67.2	3.8	1.49e+00	0	43	104	0	75	20949
2026-01-07 11:59:01.43	231.01	6.57	-51.5	-67.2	3.8	1.49e+00	0	43	104	0	75	20953
2026-01-07 11:59:02.43	231.13	6.62	-51.5	-67.2	3.8	1.49e+00	0	43	104	0	75	20958
2026-01-07 11:59:03.44	231.25	6.67	-51.5	-67.2	3.8	1.49e+00	0	43	104	0	75	20995
2026-01-07 11:59:04.44	231.38	6.72	-51.5	-67.2	3.8	1.49e+00	0	43	104	0	75	20919
2026-01-07 11:59:05.45	231.50	6.77	-51.5	-67.2	3.8	1.49e+00	0	43	104	0	75	20912
2026-01-07 11:59:06.45	231.62	6.82	-51.6	-67.1	3.8	1.49e+00	0	43	104	0	75	20758
2026-01-07 11:59:07.46	231.75	6.87	-51.5	-67.2	3.8	1.49e+00	0	43	104	0	75	20794
2026-01-07 11:59:08.46	231.87	6.92	-51.5	-67.2	3.8	1.49e+00	0	43	104	0	75	20836
2026-01-07 11:59:09.46	231.99	6.97	-51.5	-67.2	3.8	1.49e+00	0	43	104	0	75	20845
2026-01-07 11:59:10.47	232.12	7.02	-51.5	-67.1	3.8	1.49e+00	0	43	104	0	75	20742
2026-01-07 11:59:11.47	232.24	7.07	-51.5	-67.1	3.8	1.49e+00	0	43	104	0	75	20714
2026-01-07 11:59:12.48	232.37	7.12	-51.5	-67.1	3.8	1.49e+00	0	43	104	0	75	20614
2026-01-07 11:59:13.48	232.50	7.17	-51.5	-67.1	3.8	1.49e+00	0	43	104	0	75	20597
2026-01-07 11:59:14.49	232.62	7.22	-51.5	-67.1	3.8	1.49e+00	0	43	104	0	75	20626
2026-01-07 11:59:15.49	232.75	7.27	-51.5	-67.2	3.8	1.49e+00	0	43	104	0	75	20782
2026-01-07 11:59:16.50	232.88	7.33	-51.5	-67.2	3.8	1.49e+00	0	43	104	0	75	20960
2026-01-07 11:59:17.50	233.00	7.38	-51.5	-67.2	3.8	1.49e+00	0	43	104	0	75	20930
2026-01-07 11:59:18.51	233.13	7.43	-51.5	-67.2	3.8	1.49e+00	0	43	104	0	75	20946
2026-01-07 11:59:19.51	233.26	7.48	-51.5	-67.1	3.8	1.49e+00	0	43	104	0	74	21968
2026-01-07 11:59:20.51	233.39	7.53	-51.5	-67.1	3.8	1.49e+00	0	43	104	0	74	21915
2026-01-07 11:59:21.52	233.52	7.58	-51.5	-67.1	3.8	1.49e+00	0	43	104	0	74	22003
2026-01-07 11:59:22.53	233.65	7.63	-51.5	-67.2	3.8	1.49e+00	0	43	104	0	74	22146
2026-01-07 11:59:23.53	233.78	7.68	-51.5	-67.2	3.8	1.49e+00	0	43	104	0	74	22214
2026-01-07 11:59:24.53	233.91	7.73	-51.5	-67.2	3.8	1.49e+00	0	43	104	0	74	22209
2026-01-07 11:59:25.54	234.04	7.78	-51.5	-67.2	3.8	1.49e+00	0	43	104	0	74	22174
2026-01-07 11:59:26.54	234.17	7.83	-51.5	-67.2	3.8	1.49e+00	0	43	104	0	74	22098
2026-01-07 11:59:27.55	234.31	7.88	-51.5	-67.1	3.8	1.49e+00	0	43	104	0	74	21943
2026-01-07 11:59:28.55	234.44	7.93	-51.5	-67.2	3.8	1.49e+00	0	43	104	0	74	22033
2026-01-07 11:59:29.56	234.57	7.98	-51.5	-67.2	3.8	1.49e+00	0	43	104	0	74	22133
2026-01-07 11:59:30.56	234.70	8.03	-51.5	-67.2	3.8	1.49e+00	0	43	104	0	74	22201
2026-01-07 11:59:31.56	234.84	8.08	-51.5	-67.1	3.8	1.49e+00	0	43	104	0	74	21766
2026-01-07 11:59:32.57	234.97	8.13	-51.5	-66.4	3.8	1.49e+00	0	44	104	0	74	20279
2026-01-07 11:59:33.57	235.11	8.18	-51.4	-65.6	3.8	1.49e+00	0	43	104	0	74	18474
2026-01-07 11:59:34.58	235.24	8.23	-51.4	-65.0	3.8	1.49e+00	0	44	104	0	74	17197
2026-01-07 11:59:35.58	235.38	8.27	-51.4	-65.2	3.8	1.49e+00	0	44	104	0	74	17632
2026-01-07 11:59:36.59	235.51	8.32	-51.5	-66.3	3.8	1.49e+00	0	43	104	0	74	19930
2026-01-07 11:59:37.59	235.65	8.37	-51.5	-66.7	3.8	1.49e+00	0	43	104	0	74	20817
2026-01-07 11:59:38.59	235.79	8.42	-51.3	-64.3	3.9	1.49e+00	0	43	104	0	74	15808
2026-01-07 11:59:39.60	235.93	8.47	-50.8	-59.9	6.1	5.96e-01	0	43	0	1048576	73	10172
2026-01-07 11:59:40.60	236.06	8.52	-50.1	-56.8	9.0	8.75e-02	0	43	0	2097152	72	7489
2026-01-07 11:59:41.61	236.20	8.57	-49.4	-54.7	11.3	8.04e-03	0	43	0	4194304	70	6615
2026-01-07 11:59:42.61	236.34	8.62	-48.7	-53.2	12.8	1.59e-04	0	43	0	6291456	69	5901
2026-01-07 11:59:43.62	236.48	8.67	-48.4	-52.6	13.5	1.37e-05	0	43	0	8388608	68	5791
2026-01-07 11:59:44.62	236.62	8.72	-48.1	-52.0	14.0	6.10e-06	0	44	0	10485760	68	5450
2026-01-07 11:59:45.62	236.76	8.77	-48.6	-53.1	13.0	2.51e-05	0	43	0	11534336	68	6135
2026-01-07 11:59:46.63	236.90	8.82	-49.0	-53.7	12.3	8.62e-05	0	43	0	13631488	68	6634
2026-01-07 11:59:47.63	237.04	8.87	-49.5	-55.0	11.0	5.11e-04	0	43	0	15728640	69	7265
2026-01-07 11:59:48.63	237.18	8.92	-50.1	-56.7	9.3	5.16e-03	0	44	0	17825792	70	8303
2026-01-07 11:59:49.64	237.32	8.97	-50.6	-58.5	7.5	6.95e-02	0	43	0	19922944	71	9644
2026-01-07 11:59:50.64	237.47	9.01	-50.9	-60.2	5.9	2.05e-01	0	43	0	20971520	72	11134
2026-01-07 11:59:51.65	237.61	9.06	-51.8	-63.5	4.4	4.63e-01	0	43	0	23068672	74	14451
2026-01-07 11:59:52.65	237.75	9.11	-49.5	-54.3	11.6	1.00e+00	0	43	0	23068672	71	5956
2026-01-07 11:59:53.66	237.90	9.16	-51.1	-61.6	5.1	5.66e-02	0	43	0	24117248	72	13039
2026-01-07 11:59:54.66	238.04	9.21	-51.3	-63.0	4.4	1.23e+00	0	44	0	26214400	73	14540
2026-01-07 11:59:55.66	238.18	9.26	-50.5	-57.4	8.3	5.22e-01	0	43	0	27262976	73	7611
2026-01-07 11:59:56.67	238.33	9.31	-50.5	-57.1	8.8	6.12e-02	0	43	0	29360128	73	7327
2026-01-07 11:59:57.67	238.48	9.36	-50.6	-57.3	8.6	4.85e-02	0	43	0	31457280	73	7473
2026-01-07 11:59:58.67	238.62	9.40	-50.4	-56.8	9.2	2.76e-02	0	44	0	33554432	72	7468
2026-01-07 11:59:59.68	238.77	9.45	-50.3	-56.2	9.7	1.86e-02	0	43	0	34603008	72	7031
2026-01-07 12:00:00.68	238.92	9.50	-49.7	-54.8	11.3	3.91e-03	0	44	0	36700160	71	6283
2026-01-07 12:00:01.68	239.06	9.55	-49.1	-53.4	12.8	3.72e-04	0	44	0	38797312	70	5685
2026-01-07 12:00:02.68	239.21	9.60	-49.2	-53.6	12.5	6.71e-05	0	44	0	40894464	69	6187
2026-01-07 12:00:03.69	239.36	9.64	-48.8	-52.8	13.4	3.28e-05	0	44	0	41943040	69	5605
2026-01-07 12:00:04.69	239.51	9.69	-48.0	-51.5	14.6	6.80e-06	0	44	0	44040192	68	5119
2026-01-07 12:00:05.69	239.66	9.74	-47.2	-50.3	15.6	0.00e+00	0	43	0	46137344	66	5024
2026-01-07 12:00:06.69	239.81	9.79	-46.7	-49.8	16.2	0.00e+00	0	43	0	48234496	65	4984
2026-01-07 12:00:07.70	239.96	9.84	-46.6	-49.7	16.3	0.00e+00	0	43	0	50331648	65	4933
2026-01-07 12:00:08.70	240.11	9.88	-46.5	-49.6	16.4	0.00e+00	0	43	0	51380224	65	4882
2026-01-07 12:00:09.70	240.26	9.93	-46.5	-49.5	16.5	0.00e+00	0	43	0	53477376	64	5124
2026-01-07 12:00:10.71	240.41	9.98	-46.4	-49.3	16.6	0.00e+00	0	43	0	55574528	64	5015
2026-01-07 12:00:11.71	240.56	10.03	-46.4	-49.3	16.5	0.00e+00	0	44	0	57671680	64	5040
2026-01-07 12:00:12.71	240.71	10.07	-46.6	-49.5	16.4	0.00e+00	0	43	0	59768832	64	5153
2026-01-07 12:00:13.72	240.87	10.12	-46.6	-49.5	16.4	0.00e+00	0	43	0	60817408	64	5128
2026-01-07 12:00:14.72	241.02	10.17	-46.4	-49.3	16.6	0.00e+00	0	43	0	62914560	64	5005
2026-01-07 12:00:15.72	241.18	10.21	-46.4	-49.3	16.5	0.00e+00	0	44	0	65011712	64	5023
2026-01-07 12:00:16.72	241.33	10.26	-46.4	-49.3	16.5	0.00e+00	0	44	0	67108864	64	5011
2026-01-07 12:00:17.73	241.49	10.31	-46.2	-49.0	16.7	0.00e+00	0	43	0	69206016	64	4857
2026-01-07 12:00:18.73	241.64	10.35	-46.2	-49.0	16.7	0.00e+00	0	44	0	70254592	64	4857
2026-01-07 12:00:19.74	241.80	10.40	-46.1	-49.0	16.8	0.00e+00	0	44	0	72351744	64	4834
2026-01-07 12:00:20.74	241.95	10.45	-46.0	-49.0	16.8	0.00e+00	0	44	0	74448896	63	5111
2026-01-07 12:00:21.74	242.11	10.49	-45.8	-48.9	16.9	0.00e+00	0	43	0	76546048	63	5085
2026-01-07 12:00:22.74	242.27	10.54	-45.8	-49.1	16.7	0.00e+00	0	44	0	78643200	63	5184
2026-01-07 12:00:23.74	242.42	10.59	-45.8	-49.1	16.7	0.00e+00	0	43	0	79691776	63	5180
2026-01-07 12:00:24.74	242.58	10.63	-45.7	-48.9	16.8	0.00e+00	0	44	0	81788928	63	5090
2026-01-07 12:00:25.75	242.74	10.68	-45.8	-48.9	16.8	0.00e+00	0	44	0	83886080	63	5097
2026-01-07 12:00:26.75	242.90	10.73	-45.9	-49.0	16.7	0.00e+00	0	44	0	85983232	63	5119
2026-01-07 12:00:27.75	243.06	10.77	-46.0	-48.9	16.8	0.00e+00	0	43	0	88080384	63	5045
2026-01-07 12:00:28.76	243.22	10.82	-46.1	-48.9	16.8	0.00e+00	0	44	0	89128960	63	5048
2026-01-07 12:00:29.76	243.38	10.86	-46.2	-49.0	16.7	0.00e+00	0	44	0	91226112	63	5132
2026-01-07 12:00:30.76	243.54	10.91	-46.3	-49.1	16.6	0.00e+00	0	44	0	93323264	63	5174
2026-01-07 12:00:31.77	243.71	10.95	-46.1	-48.8	16.8	0.00e+00	0	44	0	95420416	63	5025
2026-01-07 12:00:32.77	243.87	11.00	-45.9	-48.6	17.0	0.00e+00	0	44	0	96468992	63	4910
2026-01-07 12:00:33.77	244.03	11.04	-46.0	-48.8	16.8	0.00e+00	0	44	0	98566144	63	4993
2026-01-07 12:00:34.78	244.19	11.09	-45.9	-48.6	16.9	0.00e+00	0	44	0	100663296	63	4914
2026-01-07 12:00:35.78	244.36	11.13	-46.0	-48.9	16.7	0.00e+00	0	43	0	102760448	63	5056
2026-01-07 12:00:36.79	244.52	11.18	-45.9	-48.7	16.8	0.00e+00	0	43	0	104857600	63	4965
2026-01-07 12:00:37.79	244.69	11.22	-45.8	-48.7	16.8	0.00e+00	0	44	0	105906176	63	4960
2026-01-07 12:00:38.80	244.85	11.27	-45.9	-48.8	16.7	0.00e+00	0	43	0	108003328	63	5013
2026-01-07 12:00:39.80	245.02	11.31	-45.6	-48.3	17.1	0.00e+00	0	44	0	110100480	63	4744
2026-01-07 12:00:40.80	245.18	11.36	-45.5	-48.3	17.1	0.00e+00	0	44	0	112197632	63	4722
2026-01-07 12:00:41.80	245.35	11.40	-45.4	-48.3	17.1	0.00e+00	0	44	0	114294784	62	4988
2026-01-07 12:00:42.81	245.52	11.44	-45.4	-48.3	17.1	0.00e+00	0	44	0	115343360	62	5000
2026-01-07 12:00:43.81	245.69	11.49	-45.4	-48.5	16.9	0.00e+00	0	44	0	117440512	62	5104
2026-01-07 12:00:44.81	245.85	11.53	-45.4	-48.5	16.9	0.00e+00	0	43	0	119537664	62	5154
2026-01-07 12:00:45.81	246.02	11.57	-45.6	-48.7	16.7	0.00e+00	0	44	0	121634816	62	5231
2026-01-07 12:00:46.82	246.19	11.62	-45.6	-48.7	16.7	0.00e+00	0	44	0	123731968	62	5223
2026-01-07 12:00:47.82	246.36	11.66	-45.9	-48.8	16.5	0.00e+00	0	44	0	124780544	62	5336
2026-01-07 12:00:48.82	246.53	11.70	-46.0	-49.0	16.4	0.00e+00	0	43	0	126877696	62	5405
2026-01-07 12:00:49.83	246.70	11.75	-45.9	-48.8	16.5	0.00e+00	0	44	0	128974848	62	5316
2026-01-07 12:00:50.83	246.87	11.79	-45.9	-48.8	16.5	0.00e+00	0	44	0	131072000	62	5313
2026-01-07 12:00:51.83	247.04	11.83	-45.7	-48.5	16.8	0.00e+00	0	44	0	133169152	62	5147
2026-01-07 12:00:52.83	247.21	11.88	-45.6	-48.4	16.9	0.00e+00	0	44	0	134217728	62	5045
2026-01-07 12:00:53.83	247.39	11.92	-45.6	-48.4	16.9	0.00e+00	0	44	0	136314880	62	5063
2026-01-07 12:00:54.84	247.56	11.96	-45.7	-48.5	16.8	0.00e+00	0	44	0	138412032	62	5134
2026-01-07 12:00:55.84	247.73	12.00	-45.7	-48.6	16.7	0.00e+00	0	44	0	140509184	62	5186
2026-01-07 12:00:56.84	247.91	12.04	-45.7	-48.6	16.7	0.00e+00	0	44	0	142606336	62	5198
2026-01-07 12:00:57.85	248.08	12.09	-45.9	-48.9	16.4	0.00e+00	0	44	0	143654912	62	5357
2026-01-07 12:00:58.85	248.26	12.13	-46.0	-48.9	16.4	0.00e+00	0	44	0	145752064	62	5395
2026-01-07 12:00:59.86	248.43	12.17	-45.9	-48.9	16.3	0.00e+00	0	44	0	147849216	62	5369
2026-01-07 12:01:00.86	248.61	12.21	-46.0	-49.1	16.2	0.00e+00	0	44	0	149946368	62	5476
2026-01-07 12:01:01.86	248.78	12.25	-45.9	-49.0	16.2	0.00e+00	0	44	0	152043520	62	5441
2026-01-07 12:01:02.87	248.96	12.29	-45.7	-48.6	16.6	0.00e+00	0	44	0	153092096	62	5213
2026-01-07 12:01:03.87	249.14	12.33	-45.7	-48.7	16.5	0.00e+00	0	44	0	155189248	62	5219
2026-01-07 12:01:04.87	249.32	12.37	-45.8	-48.8	16.4	0.00e+00	0	44	0	157286400	62	5319
2026-01-07 12:01:05.88	249.49	12.41	-45.7	-48.7	16.5	0.00e+00	0	44	0	159383552	62	5258
2026-01-07 12:01:06.88	249.67	12.45	-45.9	-48.9	16.3	0.00e+00	0	44	0	160432128	62	5389
2026-01-07 12:01:07.89	249.85	12.49	-45.7	-48.6	16.6	0.00e+00	0	44	0	162529280	62	5208
2026-01-07 12:01:08.89	250.03	12.53	-45.8	-48.9	16.3	0.00e+00	0	44	0	164626432	62	5342
2026-01-07 12:01:09.89	250.21	12.57	-45.7	-48.7	16.5	0.00e+00	0	44	0	166723584	62	5244
2026-01-07 12:01:10.89	250.39	12.61	-45.7	-48.7	16.4	0.00e+00	0	44	0	168820736	62	5279
2026-01-07 12:01:11.90	250.57	12.65	-45.7	-48.8	16.3	0.00e+00	0	44	0	169869312	62	5292
2026-01-07 12:01:12.90	250.75	12.69	-45.9	-49.0	16.1	0.00e+00	0	44	0	171966464	62	5409
2026-01-07 12:01:13.90	250.94	12.73	-45.9	-49.1	16.1	0.00e+00	0	44	0	174063616	62	5471
2026-01-07 12:01:14.90	251.12	12.77	-46.1	-49.3	15.9	0.00e+00	0	44	0	176160768	62	5594
2026-01-07 12:01:15.91	251.30	12.80	-46.2	-49.4	15.8	0.00e+00	0	44	0	178257920	63	5362
2026-01-07 12:01:16.91	251.48	12.84	-46.2	-49.4	15.8	0.00e+00	0	44	0	179306496	63	5381
2026-01-07 12:01:17.91	251.67	12.88	-46.2	-49.4	15.9	0.00e+00	0	44	0	181403648	63	5351
2026-01-07 12:01:18.92	251.85	12.92	-46.1	-49.2	16.0	0.00e+00	0	44	0	183500800	63	5264
2026-01-07 12:01:19.92	252.04	12.95	-46.2	-49.3	15.9	0.00e+00	0	44	0	185597952	63	5296
2026-01-07 12:01:20.92	252.22	12.99	-46.3	-49.4	15.8	0.00e+00	0	44	0	187695104	63	5401
2026-01-07 12:01:21.93	252.41	13.03	-46.3	-49.4	15.7	0.00e+00	0	44	0	188743680	63	5397
2026-01-07 12:01:22.93	252.59	13.07	-46.4	-49.6	15.6	0.00e+00	0	44	0	190840832	63	5479
2026-01-07 12:01:23.94	252.78	13.10	-46.5	-49.7	15.5	0.00e+00	0	44	0	192937984	63	5537
2026-01-07 12:01:24.94	252.97	13.14	-46.7	-50.0	15.2	0.00e+00	0	44	0	195035136	63	5733
2026-01-07 12:01:25.94	253.15	13.18	-46.5	-49.8	15.3	0.00e+00	0	44	0	197132288	64	5307
2026-01-07 12:01:26.94	253.34	13.21	-46.6	-50.0	15.1	0.00e+00	0	44	0	198180864	64	5413
2026-01-07 12:01:27.94	253.53	13.25	-46.5	-49.8	15.3	0.00e+00	0	44	0	200278016	64	5320
2026-01-07 12:01:28.95	253.72	13.28	-46.6	-49.9	15.1	0.00e+00	0	44	0	202375168	64	5391
2026-01-07 12:01:29.95	253.91	13.32	-46.6	-49.9	15.2	0.00e+00	0	44	0	204472320	64	5372
2026-01-07 12:01:30.96	254.10	13.35	-46.5	-49.8	15.2	0.00e+00	0	44	0	206569472	64	5337
2026-01-07 12:01:31.96	254.29	13.39	-46.4	-49.7	15.4	0.00e+00	0	44	0	207618048	64	5253
2026-01-07 12:01:32.96	254.48	13.42	-46.6	-50.1	15.0	0.00e+00	0	44	0	209715200	64	5518
2026-01-07 12:01:33.97	254.67	13.46	-46.5	-50.0	15.0	0.00e+00	0	44	0	211812352	64	5459
2026-01-07 12:01:34.97	254.86	13.49	-46.7	-50.4	14.7	0.00e+00	0	44	0	213909504	64	5664
2026-01-07 12:01:35.97	255.05	13.52	-46.7	-50.3	14.8	0.00e+00	0	44	0	216006656	64	5643
2026-01-07 12:01:36.97	255.24	13.56	-46.7	-50.3	14.8	0.00e+00	0	44	0	217055232	64	5598
2026-01-07 12:01:37.97	255.44	13.59	-46.7	-50.2	14.9	0.00e+00	0	44	0	219152384	64	5550
2026-01-07 12:01:38.98	255.63	13.62	-46.6	-50.1	15.0	0.00e+00	0	44	0	221249536	64	5474
2026-01-07 12:01:39.98	255.82	13.66	-46.6	-50.0	15.1	0.00e+00	0	44	0	223346688	64	5407
2026-01-07 12:01:40.98	256.02	13.69	-46.6	-49.9	15.1	0.00e+00	0	44	0	224395264	64	5384
2026-01-07 12:01:41.98	256.21	13.72	-46.6	-50.0	15.1	0.00e+00	0	44	0	226492416	64	5425
2026-01-07 12:01:42.98	256.40	13.75	-46.6	-50.0	15.1	0.00e+00	0	43	0	228589568	64	5420
2026-01-07 12:01:43.98	256.60	13.78	-46.6	-50.1	14.9	0.00e+00	0	44	0	230686720	64	5470
2026-01-07 12:01:44.99	256.79	13.82	-46.6	-50.0	15.0	0.00e+00	0	44	0	232783872	64	5459
2026-01-07 12:01:45.99	256.99	13.85	-46.6	-49.9	15.1	0.00e+00	0	44	0	233832448	64	5398
2026-01-07 12:01:46.99	257.18	13.88	-46.8	-50.2	14.8	0.00e+00	0	44	0	235929600	64	5591
2026-01-07 12:01:47.99	257.38	13.91	-46.6	-50.0	15.1	0.00e+00	0	44	0	238026752	64	5425
2026-01-07 12:01:48.99	257.58	13.94	-46.5	-49.8	15.2	0.00e+00	0	44	0	240123904	64	5334
2026-01-07 12:01:50.00	257.78	13.97	-46.4	-49.7	15.3	0.00e+00	0	44	0	242221056	64	5255
2026-01-07 12:01:51.00	257.97	14.00	-46.4	-49.7	15.3	0.00e+00	0	44	0	243269632	64	5247
2026-01-07 12:01:52.00	258.17	14.03	-46.5	-49.8	15.2	0.00e+00	0	44	0	245366784	64	5335
2026-01-07 12:01:53.00	258.37	14.06	-46.4	-49.7	15.3	0.00e+00	0	44	0	247463936	64	5242
2026-01-07 12:01:54.01	258.57	14.09	-46.1	-49.3	15.7	0.00e+00	0	44	0	249561088	64	4991
2026-01-07 12:01:55.01	258.77	14.12	-45.9	-48.9	16.1	0.00e+00	0	44	0	251658240	63	5094
2026-01-07 12:01:56.01	258.97	14.14	-45.8	-48.8	16.2	0.00e+00	0	43	0	252706816	63	5010
2026-01-07 12:01:57.02	259.17	14.17	-45.5	-48.4	16.6	0.00e+00	0	44	0	254803968	63	4775
2026-01-07 12:01:58.02	259.37	14.20	-45.4	-48.2	16.7	0.00e+00	0	44	0	256901120	62	4983
2026-01-07 12:01:59.03	259.57	14.23	-45.3	-48.1	16.9	0.00e+00	0	44	0	258998272	62	4898
2026-01-07 12:02:00.03	259.77	14.25	-44.9	-47.6	17.3	0.00e+00	0	44	0	261095424	61	4913
2026-01-07 12:02:01.03	259.97	14.28	-45.1	-47.9	17.0	0.00e+00	0	44	0	262144000	61	5063
2026-01-07 12:02:02.04	260.17	14.31	-45.0	-47.8	17.1	0.00e+00	0	44	0	264241152	61	5039
2026-01-07 12:02:03.03	260.37	14.33	-45.0	-47.8	17.2	0.00e+00	0	44	0	266338304	61	4985
2026-01-07 12:02:04.04	260.58	14.36	-45.0	-47.8	17.1	0.00e+00	0	44	0	268435456	61	5008
2026-01-07 12:02:05.04	260.78	14.39	-45.1	-47.9	17.0	0.00e+00	0	44	0	269484032	61	5063
2026-01-07 12:02:06.04	260.98	14.41	-45.0	-47.8	17.1	0.00e+00	0	44	0	271581184	61	5004
2026-01-07 12:02:07.05	261.19	14.44	-45.2	-48.0	16.9	0.00e+00	0	44	0	273678336	61	5122
2026-01-07 12:02:08.05	261.39	14.46	-45.2	-47.9	16.9	0.00e+00	0	44	0	275775488	61	5086
2026-01-07 12:02:09.06	261.59	14.49	-45.2	-48.0	16.8	0.00e+00	0	43	0	277872640	61	5144
2026-01-07 12:02:10.06	261.80	14.51	-45.2	-48.0	16.8	0.00e+00	0	44	0	278921216	61	5130
2026-01-07 12:02:11.07	262.00	14.53	-45.2	-48.0	16.8	0.00e+00	0	44	0	281018368	61	5144
2026-01-07 12:02:12.07	262.21	14.56	-45.0	-47.8	17.1	0.00e+00	0	44	0	283115520	61	4986
2026-01-07 12:02:13.07	262.41	14.58	-44.9	-47.6	17.2	0.00e+00	0	44	0	285212672	61	4900
2026-01-07 12:02:14.07	262.62	14.60	-44.7	-47.4	17.4	0.00e+00	0	44	0	287309824	61	4791
2026-01-07 12:02:15.08	262.83	14.63	-44.7	-47.4	17.4	0.00e+00	0	44	0	288358400	61	4773
2026-01-07 12:02:16.08	263.03	14.65	-44.9	-47.6	17.2	0.00e+00	0	44	0	290455552	61	4883
2026-01-07 12:02:17.08	263.24	14.67	-45.1	-47.9	16.9	0.00e+00	0	44	0	292552704	61	5077
2026-01-07 12:02:18.08	263.44	14.69	-45.3	-48.3	16.6	0.00e+00	0	44	0	294649856	61	5288
2026-01-07 12:02:19.09	263.65	14.71	-45.3	-48.2	16.6	0.00e+00	0	44	0	296747008	61	5265
2026-01-07 12:02:20.09	263.86	14.73	-45.3	-48.2	16.6	0.00e+00	0	44	0	297795584	61	5225
2026-01-07 12:02:21.10	264.07	14.76	-45.1	-47.9	16.8	0.00e+00	0	44	0	299892736	61	5089
2026-01-07 12:02:22.10	264.28	14.78	-45.0	-47.7	17.0	0.00e+00	0	43	0	301989888	61	4969
2026-01-07 12:02:23.10	264.48	14.80	-44.9	-47.5	17.2	0.00e+00	0	43	0	304087040	61	4867
2026-01-07 12:02:24.10	264.69	14.82	-44.7	-47.3	17.4	0.00e+00	0	44	0	306184192	61	4750
2026-01-07 12:02:25.11	264.90	14.83	-45.0	-47.8	17.0	0.00e+00	0	44	0	307232768	61	4998
2026-01-07 12:02:26.11	265.11	14.85	-45.3	-48.1	16.7	0.00e+00	0	44	0	309329920	61	5180
2026-01-07 12:02:27.11	265.32	14.87	-45.7	-48.7	16.2	0.00e+00	0	44	0	311427072	62	5219
2026-01-07 12:02:28.12	265.53	14.89	-45.6	-48.6	16.2	0.00e+00	0	43	0	313524224	62	5184
2026-01-07 12:02:29.12	265.74	14.91	-45.6	-48.5	16.2	0.00e+00	0	44	0	315621376	62	5130
2026-01-07 12:02:30.12	265.95	14.93	-45.3	-48.1	16.6	0.00e+00	0	44	0	316669952	62	4892
2026-01-07 12:02:31.13	266.16	14.94	-45.2	-48.0	16.7	0.00e+00	0	44	0	318767104	62	4868
2026-01-07 12:02:32.13	266.37	14.96	-45.3	-48.2	16.6	0.00e+00	0	44	0	320864256	62	4947
2026-01-07 12:02:33.13	266.58	14.98	-45.4	-48.4	16.4	0.00e+00	0	44	0	322961408	62	5053
2026-01-07 12:02:34.14	266.79	14.99	-45.8	-49.0	15.8	0.00e+00	0	44	0	324009984	62	5407
2026-01-07 12:02:35.14	267.00	15.01	-46.2	-49.6	15.2	0.00e+00	0	44	0	326107136	63	5481
2026-01-07 12:02:36.14	267.21	15.02	-46.4	-49.8	15.0	0.00e+00	0	44	0	328204288	63	5653
2026-01-07 12:02:37.15	267.43	15.04	-46.4	-49.7	15.1	0.00e+00	0	44	0	330301440	63	5576
2026-01-07 12:02:38.15	267.64	15.05	-46.1	-49.3	15.5	0.00e+00	0	44	0	332398592	63	5336
2026-01-07 12:02:39.16	267.85	15.07	-45.7	-48.8	16.0	0.00e+00	0	44	0	334495744	63	4998
2026-01-07 12:02:40.16	268.06	15.08	-45.5	-48.5	16.2	0.00e+00	0	44	0	335544320	62	5136
2026-01-07 12:02:41.17	268.28	15.10	-45.2	-48.0	16.7	0.00e+00	0	43	0	337641472	62	4864
2026-01-07 12:02:42.17	268.49	15.11	-45.0	-47.8	16.9	0.00e+00	0	43	0	339738624	62	4732
2026-01-07 12:02:43.17	268.70	15.12	-45.2	-48.0	16.7	0.00e+00	0	44	0	341835776	62	4835
2026-01-07 12:02:44.18	268.92	15.14	-45.4	-48.3	16.4	0.00e+00	0	44	0	342884352	62	5041
2026-01-07 12:02:45.18	269.13	15.15	-45.7	-48.7	16.1	0.00e+00	0	44	0	344981504	62	5237
2026-01-07 12:02:46.19	269.34	15.16	-45.7	-48.7	16.1	0.00e+00	0	44	0	347078656	62	5239
2026-01-07 12:02:47.19	269.56	15.17	-45.4	-48.3	16.4	0.00e+00	0	44	0	349175808	62	5015
2026-01-07 12:02:48.19	269.77	15.18	-45.2	-48.0	16.7	0.00e+00	0	44	0	351272960	62	4849
2026-01-07 12:02:49.19	269.98	15.19	-44.9	-47.7	17.0	0.00e+00	0	43	0	352321536	61	4947
2026-01-07 12:02:50.20	270.20	15.20	-44.8	-47.6	17.1	0.00e+00	0	44	0	354418688	61	4892
2026-01-07 12:02:51.19	270.41	15.21	-44.8	-47.6	17.1	0.00e+00	0	44	0	356515840	61	4880
2026-01-07 12:02:52.20	270.62	15.22	-44.8	-47.6	17.1	0.00e+00	0	44	0	358612992	61	4888
2026-01-07 12:02:53.20	270.84	15.23	-44.9	-47.7	17.0	0.00e+00	0	44	0	360710144	61	4962
2026-01-07 12:02:54.20	271.05	15.24	-45.0	-47.8	16.9	0.00e+00	0	44	0	361758720	61	5022
2026-01-07 12:02:55.21	271.27	15.25	-44.9	-47.7	17.0	0.00e+00	0	44	0	363855872	61	4966
2026-01-07 12:02:56.21	271.48	15.26	-44.9	-47.6	17.1	0.00e+00	0	44	0	365953024	61	4884
2026-01-07 12:02:57.21	271.69	15.27	-44.7	-47.3	17.3	0.00e+00	0	44	0	368050176	61	4750
2026-01-07 12:02:58.21	271.91	15.27	-44.6	-47.2	17.4	0.00e+00	0	44	0	370147328	61	4686
2026-01-07 12:02:59.22	272.12	15.28	-44.7	-47.4	17.3	0.00e+00	0	44	0	371195904	61	4772
2026-01-07 12:03:00.22	272.34	15.29	-44.9	-47.6	17.1	0.00e+00	0	43	0	373293056	61	4891
2026-01-07 12:03:01.23	272.56	15.29	-45.2	-48.0	16.7	0.00e+00	0	44	0	375390208	61	5126
2026-01-07 12:03:02.23	272.77	15.30	-45.3	-48.2	16.5	0.00e+00	0	44	0	377487360	61	5275
2026-01-07 12:03:03.23	272.98	15.30	-45.4	-48.4	16.4	0.00e+00	0	44	0	379584512	61	5356
2026-01-07 12:03:04.24	273.20	15.31	-45.1	-47.9	16.7	0.00e+00	0	44	0	380633088	61	5098
2026-01-07 12:03:05.24	273.42	15.31	-45.1	-48.0	16.8	0.00e+00	0	44	0	382730240	61	5111
2026-01-07 12:03:06.24	273.63	15.32	-44.8	-47.5	17.1	0.00e+00	0	44	0	384827392	61	4870
2026-01-07 12:03:07.25	273.85	15.32	-44.9	-47.7	17.1	0.00e+00	0	44	0	386924544	61	4948
2026-01-07 12:03:08.25	274.06	15.33	-45.0	-47.8	17.0	0.00e+00	0	44	0	387973120	61	4999
2026-01-07 12:03:09.25	274.28	15.33	-45.3	-48.2	16.6	0.00e+00	0	44	0	390070272	61	5229
2026-01-07 12:03:10.26	274.49	15.33	-45.5	-48.5	16.3	0.00e+00	0	44	0	392167424	61	5442
2026-01-07 12:03:11.26	274.71	15.34	-45.6	-48.5	16.2	0.00e+00	0	44	0	394264576	62	5157
2026-01-07 12:03:12.26	274.92	15.34	-45.7	-48.8	16.0	0.00e+00	0	44	0	396361728	62	5297
2026-01-07 12:03:13.26	275.14	15.34	-45.6	-48.5	16.3	0.00e+00	0	43	0	397410304	62	5140
2026-01-07 12:03:14.26	275.35	15.34	-45.5	-48.4	16.4	0.00e+00	0	43	0	399507456	62	5075
2026-01-07 12:03:15.27	275.57	15.34	-45.5	-48.4	16.3	0.00e+00	0	44	0	401604608	62	5090
2026-01-07 12:03:16.27	275.79	15.34	-45.5	-48.4	16.4	0.00e+00	0	44	0	403701760	62	5073
2026-01-07 12:03:17.27	276.00	15.34	-45.4	-48.4	16.4	0.00e+00	0	44	0	405798912	62	5045
2026-01-07 12:03:18.27	276.22	15.34	-45.4	-48.3	16.5	0.00e+00	0	44	0	406847488	62	5002
2026-01-07 12:03:19.28	276.43	15.34	-45.3	-48.2	16.5	0.00e+00	0	44	0	408944640	62	4961
2026-01-07 12:03:20.28	276.65	15.34	-45.3	-48.1	16.6	0.00e+00	0	44	0	411041792	62	4915
2026-01-07 12:03:21.29	276.87	15.34	-45.2	-48.0	16.8	0.00e+00	0	44	0	413138944	62	4833
2026-01-07 12:03:22.29	277.08	15.34	-45.2	-48.1	16.7	0.00e+00	0	44	0	415236096	62	4878
2026-01-07 12:03:23.29	277.30	15.34	-45.2	-48.1	16.7	0.00e+00	0	44	0	416284672	62	4884
2026-01-07 12:03:24.30	277.51	15.33	-45.3	-48.2	16.6	0.00e+00	0	44	0	418381824	62	4945
2026-01-07 12:03:25.30	277.73	15.33	-45.4	-48.4	16.3	0.00e+00	0	44	0	420478976	62	5100
2026-01-07 12:03:26.30	277.94	15.33	-45.5	-48.5	16.2	0.00e+00	0	44	0	422576128	62	5157
2026-01-07 12:03:27.30	278.16	15.32	-45.4	-48.3	16.4	0.00e+00	0	44	0	424673280	62	5034
2026-01-07 12:03:28.31	278.38	15.32	-45.2	-48.1	16.7	0.00e+00	0	44	0	425721856	62	4880
2026-01-07 12:03:29.31	278.59	15.32	-45.0	-47.8	16.9	0.00e+00	0	44	0	427819008	62	4751
2026-01-07 12:03:30.31	278.80	15.31	-44.7	-47.3	17.4	0.00e+00	0	44	0	429916160	61	4729
2026-01-07 12:03:31.32	279.02	15.31	-44.7	-47.3	17.4	0.00e+00	0	44	0	432013312	61	4748
2026-01-07 12:03:32.32	279.24	15.30	-44.7	-47.4	17.3	0.00e+00	0	44	0	434110464	61	4799
2026-01-07 12:03:33.32	279.45	15.29	-44.9	-47.7	17.0	0.00e+00	0	44	0	435159040	61	4936
2026-01-07 12:03:34.33	279.67	15.29	-45.0	-47.7	17.0	0.00e+00	0	44	0	437256192	61	4975
2026-01-07 12:03:35.33	279.88	15.28	-45.1	-47.9	16.8	0.00e+00	0	44	0	439353344	61	5067
2026-01-07 12:03:36.33	280.09	15.27	-45.1	-47.9	16.9	0.00e+00	0	44	0	441450496	61	5068
2026-01-07 12:03:37.33	280.31	15.27	-44.9	-47.7	17.1	0.00e+00	0	44	0	442499072	61	4936
2026-01-07 12:03:38.34	280.52	15.26	-44.7	-47.4	17.3	0.00e+00	0	44	0	444596224	61	4775
2026-01-07 12:03:39.34	280.74	15.25	-44.7	-47.4	17.3	0.00e+00	0	44	0	446693376	61	4762
2026-01-07 12:03:40.34	280.95	15.24	-44.7	-47.4	17.3	0.00e+00	0	44	0	448790528	61	4789
2026-01-07 12:03:41.35	281.17	15.23	-44.7	-47.3	17.4	0.00e+00	0	44	0	450887680	61	4746
2026-01-07 12:03:42.35	281.38	15.23	-44.9	-47.6	17.2	0.00e+00	0	44	0	451936256	61	4884
2026-01-07 12:03:43.35	281.59	15.22	-45.0	-47.8	17.0	0.00e+00	0	44	0	454033408	61	4987
2026-01-07 12:03:44.35	281.81	15.21	-45.1	-47.8	16.9	0.00e+00	0	44	0	456130560	61	5036
2026-01-07 12:03:45.36	282.02	15.20	-44.9	-47.6	17.1	0.00e+00	0	44	0	458227712	61	4898
2026-01-07 12:03:46.36	282.23	15.18	-44.7	-47.3	17.3	0.00e+00	0	43	0	460324864	61	4758
2026-01-07 12:03:47.37	282.45	15.17	-44.6	-47.2	17.5	0.00e+00	0	44	0	461373440	61	4664
2026-01-07 12:03:48.37	282.66	15.16	-44.3	-46.8	17.8	0.00e+00	0	44	0	463470592	60	4755
2026-01-07 12:03:49.37	282.87	15.15	-44.3	-46.8	17.9	0.00e+00	0	44	0	465567744	60	4723
2026-01-07 12:03:50.38	283.09	15.14	-44.3	-46.8	17.9	0.00e+00	0	44	0	467664896	60	4724
2026-01-07 12:03:51.38	283.30	15.13	-44.5	-47.1	17.6	0.00e+00	0	44	0	469762048	60	4876
2026-01-07 12:03:52.38	283.51	15.11	-44.7	-47.4	17.4	0.00e+00	0	44	0	470810624	60	5043
2026-01-07 12:03:53.38	283.72	15.10	-45.0	-47.7	17.0	0.00e+00	0	44	0	472907776	60	5259
2026-01-07 12:03:54.39	283.94	15.09	-45.0	-47.8	16.9	0.00e+00	0	44	0	475004928	60	5312
2026-01-07 12:03:55.39	284.15	15.07	-44.9	-47.7	17.1	0.00e+00	0	44	0	477102080	60	5240
2026-01-07 12:03:56.40	284.36	15.06	-45.0	-47.8	16.9	0.00e+00	0	44	0	479199232	60	5295
2026-01-07 12:03:57.40	284.57	15.04	-45.0	-47.8	17.0	0.00e+00	0	44	0	480247808	60	5302
2026-01-07 12:03:58.40	284.78	15.03	-45.0	-47.8	16.9	0.00e+00	0	44	0	482344960	60	5323
2026-01-07 12:03:59.40	284.99	15.01	-45.0	-47.7	17.1	0.00e+00	0	44	0	484442112	60	5229
2026-01-07 12:04:00.40	285.20	15.00	-44.9	-47.6	17.1	0.00e+00	0	43	0	486539264	60	5162
2026-01-07 12:04:01.40	285.41	14.98	-44.9	-47.6	17.1	0.00e+00	0	44	0	488636416	60	5186
2026-01-07 12:04:02.41	285.63	14.97	-45.0	-47.7	17.0	0.00e+00	0	44	0	489684992	60	5267
2026-01-07 12:04:03.41	285.83	14.95	-45.0	-47.7	17.0	0.00e+00	0	43	0	491782144	60	5259
2026-01-07 12:04:04.41	286.04	14.93	-45.1	-47.9	16.9	0.00e+00	0	44	0	493879296	60	5373
2026-01-07 12:04:05.41	286.25	14.91	-45.1	-48.0	16.8	0.00e+00	0	44	0	495976448	60	5405
2026-01-07 12:04:06.42	286.46	14.90	-45.0	-47.7	17.0	0.00e+00	0	43	0	498073600	60	5277
2026-01-07 12:04:07.42	286.67	14.88	-45.1	-48.0	16.8	0.00e+00	0	44	0	499122176	60	5430
2026-01-07 12:04:08.43	286.88	14.86	-45.2	-48.0	16.7	0.00e+00	0	44	0	501219328	61	5154
2026-01-07 12:04:09.43	287.09	14.84	-45.2	-48.1	16.6	0.00e+00	0	43	0	503316480	61	5201
2026-01-07 12:04:10.43	287.30	14.82	-45.3	-48.1	16.6	0.00e+00	0	44	0	505413632	61	5207
2026-01-07 12:04:11.43	287.51	14.80	-45.2	-48.1	16.7	0.00e+00	0	44	0	506462208	61	5161
2026-01-07 12:04:12.43	287.71	14.78	-45.1	-47.9	16.8	0.00e+00	0	44	0	508559360	61	5074
2026-01-07 12:04:13.44	287.92	14.76	-45.0	-47.8	16.9	0.00e+00	0	44	0	510656512	61	5007
2026-01-07 12:04:14.44	288.13	14.74	-44.9	-47.6	17.2	0.00e+00	0	43	0	512753664	61	4876
2026-01-07 12:04:15.44	288.34	14.72	-44.8	-47.5	17.3	0.00e+00	0	44	0	514850816	61	4820
2026-01-07 12:04:16.45	288.54	14.70	-44.7	-47.4	17.3	0.00e+00	0	44	0	515899392	61	4780
2026-01-07 12:04:17.45	288.75	14.68	-44.6	-47.3	17.4	0.00e+00	0	44	0	517996544	61	4729
2026-01-07 12:04:18.45	288.95	14.66	-44.6	-47.2	17.5	0.00e+00	0	44	0	520093696	61	4680
2026-01-07 12:04:19.46	289.16	14.63	-44.4	-47.0	17.7	0.00e+00	0	44	0	522190848	60	4843
2026-01-07 12:04:20.46	289.37	14.61	-44.1	-46.5	18.1	0.00e+00	0	44	0	524288000	60	4598
2026-01-07 12:04:21.46	289.57	14.59	-44.0	-46.4	18.2	0.00e+00	0	44	0	525336576	60	4545
2026-01-07 12:04:22.46	289.78	14.57	-44.0	-46.4	18.1	0.00e+00	0	44	0	527433728	59	4800
2026-01-07 12:04:23.47	289.98	14.54	-44.0	-46.4	18.1	0.00e+00	0	44	0	529530880	59	4776
2026-01-07 12:04:24.47	290.19	14.52	-44.1	-46.6	18.0	0.00e+00	0	44	0	531628032	59	4893
2026-01-07 12:04:25.47	290.39	14.50	-44.1	-46.6	18.0	0.00e+00	0	44	0	533725184	59	4897
2026-01-07 12:04:26.47	290.59	14.47	-44.2	-46.7	17.9	0.00e+00	0	44	0	534773760	59	4960
2026-01-07 12:04:27.48	290.80	14.45	-44.0	-46.5	18.1	0.00e+00	0	44	0	536870912	59	4817
2026-01-07 12:04:28.48	291.00	14.42	-44.0	-46.4	18.2	0.00e+00	0	44	0	538968064	59	4779
2026-01-07 12:04:29.48	291.20	14.40	-43.9	-46.3	18.3	0.00e+00	0	44	0	541065216	59	4740
2026-01-07 12:04:30.49	291.40	14.37	-43.9	-46.3	18.3	0.00e+00	0	44	0	543162368	59	4706
2026-01-07 12:04:31.49	291.61	14.35	-44.1	-46.6	18.0	0.00e+00	0	43	0	544210944	59	4873
2026-01-07 12:04:32.49	291.81	14.32	-44.2	-46.7	17.9	0.00e+00	0	44	0	546308096	59	4972
2026-01-07 12:04:33.49	292.01	14.29	-44.3	-46.9	17.7	0.00e+00	0	44	0	548405248	59	5057
2026-01-07 12:04:34.50	292.21	14.27	-44.5	-47.1	17.5	0.00e+00	0	44	0	550502400	59	5202
2026-01-07 12:04:35.50	292.41	14.24	-44.7	-47.4	17.3	0.00e+00	0	44	0	551550976	60	5068
2026-01-07 12:04:36.50	292.61	14.21	-44.7	-47.3	17.4	0.00e+00	0	44	0	553648128	60	5012
2026-01-07 12:04:37.50	292.81	14.18	-44.7	-47.4	17.3	0.00e+00	0	44	0	555745280	60	5077
2026-01-07 12:04:38.51	293.01	14.16	-44.8	-47.6	17.2	0.00e+00	0	44	0	557842432	60	5160
2026-01-07 12:04:39.51	293.21	14.13	-44.7	-47.4	17.3	0.00e+00	0	44	0	559939584	60	5049
2026-01-07 12:04:40.52	293.41	14.10	-44.8	-47.5	17.2	0.00e+00	0	44	0	562036736	60	5140
2026-01-07 12:04:41.52	293.60	14.07	-44.8	-47.5	17.2	0.00e+00	0	44	0	563085312	60	5126
2026-01-07 12:04:42.52	293.80	14.04	-44.8	-47.5	17.2	0.00e+00	0	44	0	565182464	60	5114
2026-01-07 12:04:43.53	294.00	14.01	-44.8	-47.5	17.1	0.00e+00	0	44	0	567279616	60	5147
2026-01-07 12:04:44.53	294.20	13.98	-44.7	-47.3	17.3	0.00e+00	0	44	0	569376768	60	5023
2026-01-07 12:04:45.53	294.39	13.95	-44.4	-47.0	17.6	0.00e+00	0	44	0	570425344	60	4850
2026-01-07 12:04:46.53	294.59	13.92	-44.3	-46.9	17.8	0.00e+00	0	44	0	572522496	60	4770
2026-01-07 12:04:47.54	294.79	13.89	-44.3	-46.8	17.8	0.00e+00	0	44	0	574619648	60	4750
2026-01-07 12:04:48.54	294.98	13.86	-44.2	-46.7	17.9	0.00e+00	0	44	0	576716800	60	4670
2026-01-07 12:04:49.54	295.18	13.83	-44.2	-46.8	17.8	0.00e+00	0	44	0	578813952	60	4710
2026-01-07 12:04:50.55	295.37	13.80	-44.0	-46.5	18.1	0.00e+00	0	44	0	579862528	60	4571
2026-01-07 12:04:51.55	295.57	13.77	-43.8	-46.2	18.3	0.00e+00	0	44	0	581959680	59	4704
2026-01-07 12:04:52.55	295.76	13.74	-43.8	-46.2	18.3	0.00e+00	0	44	0	584056832	59	4680
2026-01-07 12:04:53.56	295.95	13.70	-43.8	-46.2	18.3	0.00e+00	0	43	0	586153984	59	4668
2026-01-07 12:04:54.56	296.15	13.67	-43.8	-46.2	18.3	0.00e+00	0	44	0	588251136	59	4696
2026-01-07 12:04:55.56	296.34	13.64	-43.9	-46.3	18.2	0.00e+00	0	44	0	589299712	59	4732
2026-01-07 12:04:56.56	296.53	13.61	-44.1	-46.6	17.9	0.00e+00	0	44	0	591396864	59	4902
2026-01-07 12:04:57.57	296.72	13.57	-44.0	-46.4	18.0	0.00e+00	0	44	0	593494016	59	4804
2026-01-07 12:04:58.57	296.91	13.54	-44.1	-46.6	17.9	0.00e+00	0	44	0	595591168	59	4873
2026-01-07 12:04:59.58	297.11	13.51	-44.1	-46.5	18.0	0.00e+00	0	44	0	597688320	59	4860
2026-01-07 12:05:00.58	297.30	13.47	-44.0	-46.5	18.0	0.00e+00	0	44	0	598736896	59	4854
2026-01-07 12:05:01.58	297.49	13.44	-44.1	-46.7	17.9	0.00e+00	0	44	0	600834048	59	4928
2026-01-07 12:05:02.59	297.68	13.41	-44.3	-46.9	17.6	0.00e+00	0	44	0	602931200	59	5074
2026-01-07 12:05:03.59	297.87	13.37	-44.4	-47.0	17.6	0.00e+00	0	44	0	605028352	59	5118
2026-01-07 12:05:04.59	298.05	13.34	-44.5	-47.2	17.4	0.00e+00	0	44	0	607125504	59	5225
2026-01-07 12:05:05.59	298.24	13.30	-44.7	-47.3	17.2	0.00e+00	0	44	0	608174080	59	5334
2026-01-07 12:05:06.59	298.43	13.27	-44.7	-47.3	17.3	0.00e+00	0	44	0	610271232	60	5024
2026-01-07 12:05:07.60	298.62	13.23	-44.6	-47.3	17.3	0.00e+00	0	44	0	612368384	60	5002
2026-01-07 12:05:08.60	298.80	13.20	-44.6	-47.2	17.4	0.00e+00	0	44	0	614465536	60	4949
2026-01-07 12:05:09.61	298.99	13.16	-44.4	-47.0	17.6	0.00e+00	0	43	0	616562688	60	4851
2026-01-07 12:05:10.61	299.18	13.12	-44.5	-47.0	17.5	0.00e+00	0	44	0	617611264	60	4869
2026-01-07 12:05:11.62	299.37	13.09	-44.5	-47.1	17.5	0.00e+00	0	44	0	619708416	60	4871
2026-01-07 12:05:12.62	299.55	13.05	-44.4	-47.0	17.5	0.00e+00	0	44	0	621805568	60	4868
2026-01-07 12:05:13.62	299.73	13.01	-44.6	-47.3	17.3	0.00e+00	0	44	0	623902720	60	5014
2026-01-07 12:05:14.63	299.92	12.98	-44.6	-47.3	17.3	0.00e+00	0	44	0	624951296	60	5015
2026-01-07 12:05:15.63	300.10	12.94	-44.6	-47.2	17.4	0.00e+00	0	44	0	627048448	60	4970
2026-01-07 12:05:16.64	300.29	12.90	-44.5	-47.1	17.4	0.00e+00	0	44	0	629145600	60	4922
2026-01-07 12:05:17.64	300.47	12.87	-44.4	-47.0	17.6	0.00e+00	0	43	0	631242752	60	4841
2026-01-07 12:05:18.64	300.65	12.83	-44.3	-46.9	17.6	0.00e+00	0	44	0	633339904	60	4801
2026-01-07 12:05:19.65	300.84	12.79	-44.4	-47.0	17.5	0.00e+00	0	44	0	634388480	60	4865
2026-01-07 12:05:20.65	301.02	12.75	-44.5	-47.1	17.4	0.00e+00	0	44	0	636485632	60	4917
2026-01-07 12:05:21.65	301.20	12.71	-44.6	-47.3	17.3	0.00e+00	0	44	0	638582784	60	5024
2026-01-07 12:05:22.65	301.38	12.68	-44.7	-47.4	17.2	0.00e+00	0	44	0	640679936	60	5091
2026-01-07 12:05:23.66	301.56	12.64	-45.0	-47.9	16.8	0.00e+00	0	44	0	642777088	60	5343
2026-01-07 12:05:24.66	301.74	12.60	-45.1	-47.9	16.7	0.00e+00	0	44	0	643825664	60	5368
2026-01-07 12:05:25.66	301.92	12.56	-45.2	-48.0	16.6	0.00e+00	0	44	0	645922816	61	5135
2026-01-07 12:05:26.66	302.10	12.52	-45.3	-48.1	16.5	0.00e+00	0	44	0	648019968	61	5210
2026-01-07 12:05:27.67	302.28	12.48	-45.2	-48.0	16.6	0.00e+00	0	44	0	650117120	61	5159
2026-01-07 12:05:28.67	302.45	12.44	-45.3	-48.2	16.5	0.00e+00	0	44	0	652214272	61	5235
2026-01-07 12:05:29.68	302.63	12.40	-45.4	-48.3	16.4	0.00e+00	0	44	0	653262848	61	5304
2026-01-07 12:05:30.68	302.81	12.36	-45.4	-48.3	16.4	0.00e+00	0	44	0	655360000	61	5284
2026-01-07 12:05:31.68	302.98	12.32	-45.3	-48.2	16.4	0.00e+00	0	44	0	657457152	61	5274
2026-01-07 12:05:32.69	303.16	12.28	-45.2	-48.1	16.5	0.00e+00	0	44	0	659554304	61	5196
2026-01-07 12:05:33.69	303.34	12.24	-45.3	-48.2	16.5	0.00e+00	0	44	0	661651456	61	5233
2026-01-07 12:05:34.69	303.51	12.20	-45.3	-48.2	16.5	0.00e+00	0	44	0	662700032	61	5234
2026-01-07 12:05:35.69	303.69	12.16	-45.6	-48.7	16.0	0.00e+00	0	44	0	664797184	61	5538
2026-01-07 12:05:36.70	303.86	12.12	-45.8	-48.9	15.8	0.00e+00	0	44	0	666894336	62	5381
2026-01-07 12:05:37.70	304.03	12.08	-45.9	-49.1	15.6	0.00e+00	0	44	0	668991488	62	5504
2026-01-07 12:05:38.70	304.21	12.03	-46.0	-49.4	15.4	0.00e+00	0	44	0	670040064	62	5661
2026-01-07 12:05:39.70	304.38	11.99	-46.2	-49.5	15.2	0.00e+00	0	44	0	672137216	63	5444
2026-01-07 12:05:40.71	304.55	11.95	-46.2	-49.6	15.1	0.00e+00	0	44	0	674234368	63	5488
2026-01-07 12:05:41.71	304.72	11.91	-46.2	-49.5	15.2	0.00e+00	0	44	0	676331520	63	5431
2026-01-07 12:05:42.71	304.89	11.87	-46.1	-49.4	15.3	0.00e+00	0	44	0	678428672	63	5359
2026-01-07 12:05:43.72	305.07	11.82	-46.0	-49.2	15.5	0.00e+00	0	44	0	680525824	63	5266
2026-01-07 12:05:44.72	305.24	11.78	-46.2	-49.5	15.2	0.00e+00	0	44	0	681574400	63	5446
2026-01-07 12:05:45.73	305.41	11.74	-46.3	-49.7	15.1	1.50e-06	0	44	0	683671552	63	5554
2026-01-07 12:05:46.73	305.58	11.70	-46.4	-49.8	14.9	0.00e+00	0	44	0	685768704	63	5625
2026-01-07 12:05:47.73	305.75	11.65	-46.4	-49.9	14.9	0.00e+00	0	44	0	687865856	63	5663
2026-01-07 12:05:48.74	305.91	11.61	-46.5	-50.0	14.7	0.00e+00	0	44	0	688914432	63	5783
2026-01-07 12:05:49.74	306.08	11.57	-46.2	-49.6	15.1	0.00e+00	0	44	0	691011584	63	5517
2026-01-07 12:05:50.74	306.25	11.53	-46.0	-49.4	15.3	0.00e+00	0	44	0	693108736	63	5343
2026-01-07 12:05:51.74	306.42	11.48	-45.9	-49.1	15.7	0.00e+00	0	44	0	695205888	63	5162
2026-01-07 12:05:52.75	306.58	11.44	-45.8	-49.0	15.7	0.00e+00	0	44	0	697303040	63	5103
2026-01-07 12:05:53.75	306.75	11.40	-45.5	-48.6	16.0	0.00e+00	0	44	0	698351616	62	5184
2026-01-07 12:05:54.75	306.91	11.35	-45.7	-49.0	15.6	0.00e+00	0	44	0	700448768	62	5419
2026-01-07 12:05:55.76	307.08	11.31	-45.9	-49.1	15.5	0.00e+00	0	44	0	702545920	62	5491
2026-01-07 12:05:56.76	307.24	11.26	-45.9	-49.3	15.2	7.00e-07	0	44	0	704643072	62	5632
2026-01-07 12:05:57.76	307.41	11.22	-46.1	-49.7	14.9	0.00e+00	0	44	0	706740224	62	5884
2026-01-07 12:05:58.77	307.57	11.17	-46.2	-49.9	14.6	1.50e-06	0	44	0	707788800	63	5683
2026-01-07 12:05:59.77	307.74	11.13	-46.5	-50.4	14.1	7.00e-07	0	44	0	709885952	63	6036
2026-01-07 12:06:00.77	307.90	11.09	-46.4	-50.3	14.2	1.50e-06	0	44	0	711983104	63	5947
2026-01-07 12:06:01.78	308.06	11.04	-46.3	-50.3	14.3	0.00e+00	0	44	0	714080256	63	5927
2026-01-07 12:06:02.78	308.22	11.00	-46.4	-50.6	13.9	3.80e-06	0	44	0	716177408	63	6159
2026-01-07 12:06:03.78	308.38	10.95	-46.4	-50.4	14.1	1.50e-06	0	44	0	717225984	63	5999
2026-01-07 12:06:04.79	308.54	10.91	-46.4	-50.5	14.0	7.00e-07	0	44	0	719323136	63	6077
2026-01-07 12:06:05.79	308.70	10.86	-46.4	-50.5	14.0	3.00e-06	0	44	0	721420288	63	6082
2026-01-07 12:06:06.79	308.86	10.82	-46.4	-50.5	14.0	3.00e-06	0	44	0	723517440	63	6079
2026-01-07 12:06:07.80	309.02	10.77	-46.4	-50.3	14.2	4.50e-06	0	44	0	725614592	63	5941
2026-01-07 12:06:08.79	309.18	10.73	-46.2	-49.9	14.6	1.50e-06	0	44	0	726663168	63	5705
2026-01-07 12:06:09.79	309.34	10.68	-46.4	-50.1	14.4	0.00e+00	0	44	0	728760320	63	5829
2026-01-07 12:06:10.80	309.50	10.63	-46.2	-49.8	14.7	0.00e+00	0	44	0	730857472	63	5647
2026-01-07 12:06:11.81	309.66	10.59	-46.0	-49.5	14.9	0.00e+00	0	44	0	732954624	63	5452
2026-01-07 12:06:12.81	309.81	10.54	-46.1	-49.7	14.8	0.00e+00	0	44	0	735051776	63	5550
2026-01-07 12:06:13.81	309.97	10.50	-46.1	-49.6	14.9	7.00e-07	0	44	0	736100352	63	5516
2026-01-07 12:06:14.81	310.12	10.45	-46.2	-49.8	14.7	0.00e+00	0	44	0	738197504	63	5633
2026-01-07 12:06:15.81	310.28	10.41	-46.3	-49.9	14.6	0.00e+00	0	44	0	740294656	63	5712
2026-01-07 12:06:16.82	310.43	10.36	-46.3	-49.9	14.6	7.00e-07	0	44	0	742391808	63	5680
2026-01-07 12:06:17.82	310.59	10.31	-46.4	-50.0	14.5	0.00e+00	0	44	0	743440384	63	5780
2026-01-07 12:06:18.82	310.74	10.27	-46.2	-49.8	14.7	0.00e+00	0	44	0	745537536	63	5623
2026-01-07 12:06:19.82	310.90	10.22	-46.1	-49.7	14.9	0.00e+00	0	44	0	747634688	63	5543
2026-01-07 12:06:20.82	311.05	10.17	-46.0	-49.5	15.0	0.00e+00	0	44	0	749731840	63	5445
2026-01-07 12:06:21.83	311.20	10.13	-46.0	-49.5	15.0	7.00e-07	0	44	0	751828992	63	5440
2026-01-07 12:06:22.83	311.35	10.08	-45.8	-49.2	15.3	0.00e+00	0	44	0	752877568	63	5229
2026-01-07 12:06:23.83	311.50	10.03	-45.7	-49.1	15.4	0.00e+00	0	44	0	754974720	63	5204
2026-01-07 12:06:24.83	311.66	9.99	-45.8	-49.3	15.3	0.00e+00	0	44	0	757071872	63	5284
2026-01-07 12:06:25.84	311.81	9.94	-45.7	-49.2	15.4	0.00e+00	0	44	0	759169024	63	5225
2026-01-07 12:06:26.84	311.96	9.89	-45.8	-49.4	15.2	0.00e+00	0	44	0	761266176	63	5368
2026-01-07 12:06:27.84	312.11	9.85	-45.8	-49.4	15.1	0.00e+00	0	44	0	762314752	63	5379
2026-01-07 12:06:28.85	312.26	9.80	-45.9	-49.6	14.9	7.00e-07	0	44	0	764411904	63	5513
2026-01-07 12:06:29.85	312.41	9.75	-46.1	-50.0	14.5	0.00e+00	0	44	0	766509056	63	5763
2026-01-07 12:06:30.85	312.55	9.70	-46.2	-50.2	14.4	7.00e-07	0	44	0	768606208	63	5866
2026-01-07 12:06:31.86	312.70	9.66	-46.3	-50.4	14.2	0.00e+00	0	44	0	770703360	63	6008
2026-01-07 12:06:32.86	312.85	9.61	-46.5	-50.7	13.9	1.50e-06	0	44	0	771751936	63	6212
2026-01-07 12:06:33.86	313.00	9.56	-46.3	-50.4	14.2	7.00e-07	0	44	0	773849088	63	6004
2026-01-07 12:06:34.87	313.14	9.51	-46.4	-50.5	14.0	7.00e-07	0	44	0	775946240	63	6100
2026-01-07 12:06:35.87	313.29	9.46	-46.4	-50.3	14.2	4.50e-06	0	44	0	778043392	63	5984
2026-01-07 12:06:36.87	313.43	9.42	-46.2	-50.0	14.6	0.00e+00	0	44	0	780140544	63	5739
2026-01-07 12:06:37.88	313.58	9.37	-46.2	-49.9	14.6	1.50e-06	0	44	0	781189120	63	5699
2026-01-07 12:06:38.88	313.72	9.32	-46.1	-49.7	14.8	7.00e-07	0	44	0	783286272	63	5555
2026-01-07 12:06:39.88	313.87	9.27	-46.2	-49.8	14.8	7.00e-07	0	44	0	785383424	63	5593
2026-01-07 12:06:40.89	314.01	9.22	-46.1	-49.7	14.8	0.00e+00	0	44	0	787480576	63	5564
2026-01-07 12:06:41.89	314.16	9.18	-45.9	-49.3	15.2	0.00e+00	0	44	0	788529152	63	5329
2026-01-07 12:06:42.89	314.30	9.13	-45.9	-49.4	15.1	0.00e+00	0	44	0	790626304	63	5363
2026-01-07 12:06:43.90	314.44	9.08	-45.7	-49.1	15.4	0.00e+00	0	44	0	792723456	63	5160
2026-01-07 12:06:44.90	314.58	9.03	-45.7	-49.1	15.3	0.00e+00	0	44	0	794820608	63	5218
2026-01-07 12:06:45.91	314.72	8.98	-50.3	-64.1	3.8	1.30e-04	0	44	104	796917760	71	18336
2026-01-07 12:06:46.91	314.87	8.93	-50.6	-66.0	3.9	1.49e+00	0	44	104	796917760	72	21711
2026-01-07 12:06:47.92	315.01	8.89	-50.4	-66.2	3.8	1.49e+00	0	44	104	796917760	72	22075
2026-01-07 12:06:48.92	315.15	8.84	-50.8	-66.3	3.8	1.49e+00	0	44	104	796917760	72	22344
2026-01-07 12:06:49.93	315.29	8.79	-51.0	-66.4	3.8	1.49e+00	0	44	104	796917760	72	22576
2026-01-07 12:06:50.93	315.43	8.74	-51.0	-66.4	3.8	1.49e+00	0	44	104	796917760	73	21429
2026-01-07 12:06:51.94	315.57	8.69	-50.7	-66.5	3.8	1.49e+00	0	44	104	796917760	73	21529
2026-01-07 12:06:52.94	315.70	8.64	-51.2	-66.5	3.8	1.49e+00	0	44	104	796917760	73	21616
2026-01-07 12:06:53.95	315.84	8.59	-51.2	-66.5	3.8	1.49e+00	0	44	104	796917760	73	21644
2026-01-07 12:06:54.95	315.98	8.54	-51.3	-66.5	3.8	1.49e+00	0	44	104	796917760	73	21644
2026-01-07 12:06:55.95	316.12	8.50	-51.3	-66.5	3.8	1.49e+00	0	44	104	796917760	73	21754
2026-01-07 12:06:56.96	316.25	8.45	-51.4	-66.5	3.8	1.49e+00	0	44	104	796917760	73	21753
2026-01-07 12:06:57.96	316.39	8.40	-51.4	-66.5	3.8	1.49e+00	0	44	104	796917760	73	21744
2026-01-07 12:06:58.97	316.53	8.35	-51.0	-66.6	3.8	1.49e+00	0	44	104	796917760	73	21817
2026-01-07 12:06:59.97	316.66	8.30	-51.3	-66.5	3.8	1.49e+00	0	44	104	796917760	73	21721
2026-01-07 12:07:00.97	316.79	8.25	-51.3	-66.6	3.8	1.49e+00	0	44	104	796917760	73	21799
2026-01-07 12:07:01.98	316.93	8.20	-51.1	-66.6	3.8	1.49e+00	0	44	104	796917760	73	21801
2026-01-07 12:07:02.98	317.06	8.15	-51.2	-66.6	3.8	1.49e+00	0	44	104	796917760	73	21795
2026-01-07 12:07:03.99	317.20	8.10	-51.2	-66.5	3.8	1.49e+00	0	44	104	796917760	73	21729
2026-01-07 12:07:04.99	317.33	8.05	-51.1	-66.5	3.8	1.49e+00	0	44	104	796917760	73	21701
2026-01-07 12:07:06.00	317.46	8.00	-51.2	-66.5	3.8	1.49e+00	0	44	104	796917760	73	21694
2026-01-07 12:07:07.00	317.60	7.95	-51.1	-66.5	3.8	1.49e+00	0	44	104	796917760	73	21672
2026-01-07 12:07:08.01	317.73	7.91	-51.1	-66.5	3.8	1.49e+00	0	44	104	796917760	73	21667
2026-01-07 12:07:09.01	317.86	7.86	-51.1	-66.5	3.8	1.49e+00	0	44	104	796917760	73	21637
2026-01-07 12:07:10.01	317.99	7.81	-51.1	-66.5	3.8	1.49e+00	0	44	104	796917760	73	21641
2026-01-07 12:07:11.02	318.12	7.76	-51.0	-66.5	3.8	1.49e+00	0	44	104	796917760	73	21623
2026-01-07 12:07:12.02	318.25	7.71	-51.1	-66.5	3.8	1.49e+00	0	44	104	796917760	73	21592
2026-01-07 12:07:13.03	318.38	7.66	-51.1	-66.5	3.8	1.49e+00	0	44	104	796917760	73	21652
2026-01-07 12:07:14.03	318.51	7.61	-51.1	-66.5	3.8	1.49e+00	0	44	104	796917760	73	21630
2026-01-07 12:07:15.04	318.64	7.56	-51.1	-66.5	3.8	1.49e+00	0	44	104	796917760	73	21660
2026-01-07 12:07:16.04	318.77	7.51	-51.1	-66.5	3.8	1.49e+00	0	44	104	796917760	73	21653
2026-01-07 12:07:17.05	318.90	7.46	-51.1	-66.5	3.8	1.49e+00	0	44	104	796917760	73	21577
2026-01-07 12:07:18.05	319.02	7.41	-51.1	-66.5	3.8	1.49e+00	0	44	104	796917760	73	21591
2026-01-07 12:07:19.06	319.15	7.36	-51.0	-66.5	3.8	1.49e+00	0	44	104	796917760	73	21635
2026-01-07 12:07:20.06	319.28	7.31	-51.0	-66.5	3.8	1.49e+00	0	44	104	796917760	73	21608
2026-01-07 12:07:21.07	319.40	7.26	-51.0	-66.5	3.8	1.49e+00	0	44	104	796917760	73	21544
2026-01-07 12:07:22.07	319.53	7.21	-51.0	-66.5	3.8	1.49e+00	0	44	104	796917760	73	21546
2026-01-07 12:07:23.07	319.65	7.16	-51.0	-66.5	3.8	1.49e+00	0	44	104	796917760	73	21531
2026-01-07 12:07:24.08	319.78	7.11	-51.0	-66.5	3.8	1.49e+00	0	44	104	796917760	73	21521
2026-01-07 12:07:25.08	319.90	7.06	-51.0	-66.5	3.8	1.49e+00	0	44	104	796917760	73	21583
2026-01-07 12:07:26.09	320.03	7.01	-51.1	-66.5	3.8	1.49e+00	0	44	104	796917760	73	21563
2026-01-07 12:07:27.09	320.15	6.96	-51.0	-66.5	3.8	1.49e+00	0	44	104	796917760	73	21584
2026-01-07 12:07:28.10	320.28	6.91	-51.0	-66.5	3.8	1.49e+00	0	44	104	796917760	73	21631
2026-01-07 12:07:29.10	320.40	6.86	-51.0	-66.5	3.8	1.49e+00	0	44	104	796917760	73	21574
2026-01-07 12:07:30.11	320.52	6.81	-51.1	-66.5	3.8	1.49e+00	0	44	104	796917760	73	21562
2026-01-07 12:07:31.11	320.64	6.76	-51.0	-66.5	3.8	1.49e+00	0	44	104	796917760	73	21599
2026-01-07 12:07:32.11	320.77	6.71	-51.0	-66.5	3.8	1.49e+00	0	44	104	796917760	73	21541
2026-01-07 12:07:33.12	320.89	6.66	-51.0	-66.5	3.8	1.49e+00	0	44	104	796917760	73	21596
2026-01-07 12:07:34.12	321.01	6.61	-51.0	-66.5	3.8	1.49e+00	0	44	104	796917760	73	21653
2026-01-07 12:07:35.12	321.13	6.56	-51.0	-66.4	3.8	1.49e+00	0	44	104	796917760	73	21499
2026-01-07 12:07:36.13	321.25	6.51	-51.0	-66.4	3.8	1.49e+00	0	44	104	796917760	73	21479
2026-01-07 12:07:37.13	321.37	6.46	-51.0	-66.4	3.8	1.49e+00	0	44	104	796917760	73	21477
2026-01-07 12:07:38.14	321.49	6.41	-51.0	-66.5	3.8	1.49e+00	0	44	104	796917760	73	21609
2026-01-07 12:07:39.14	321.61	6.36	-51.0	-66.5	3.8	1.49e+00	0	44	104	796917760	73	21543
2026-01-07 12:07:40.15	321.73	6.31	-51.0	-66.5	3.8	1.49e+00	0	44	104	796917760	73	21513
2026-01-07 12:07:41.15	321.84	6.26	-51.0	-66.5	3.8	1.49e+00	0	44	104	796917760	73	21581
2026-01-07 12:07:42.16	321.96	6.21	-51.0	-66.5	3.8	1.49e+00	0	44	104	796917760	73	21517
2026-01-07 12:07:43.16	322.08	6.16	-51.0	-66.4	3.8	1.49e+00	0	44	104	796917760	73	21489
2026-01-07 12:07:44.16	322.20	6.12	-51.0	-66.5	3.8	1.49e+00	0	44	104	796917760	73	21509
2026-01-07 12:07:45.17	322.31	6.06	-51.0	-66.5	3.8	1.49e+00	0	44	104	796917760	73	21567
2026-01-07 12:07:46.17	322.43	6.02	-51.0	-66.4	3.8	1.49e+00	0	44	104	796917760	73	21491
2026-01-07 12:07:47.18	322.55	5.97	-51.0	-66.4	3.8	1.49e+00	0	44	104	796917760	73	21483
2026-01-07 12:07:48.18	322.66	5.92	-51.0	-66.5	3.8	1.49e+00	0	44	104	796917760	73	21520
2026-01-07 12:07:49.18	322.78	5.87	-51.0	-66.5	3.8	1.49e+00	0	44	104	796917760	73	21570
2026-01-07 12:07:50.19	322.89	5.82	-51.0	-66.5	3.8	1.49e+00	0	44	104	796917760	73	21564
2026-01-07 12:07:51.19	323.01	5.77	-51.0	-66.5	3.8	1.49e+00	0	44	104	796917760	73	21531
2026-01-07 12:07:52.20	323.12	5.72	-51.0	-66.4	3.8	1.49e+00	0	44	104	796917760	73	21490
2026-01-07 12:07:53.20	323.23	5.67	-51.0	-66.5	3.8	1.49e+00	0	44	104	796917760	73	21514
2026-01-07 12:07:54.21	323.35	5.62	-51.0	-66.5	3.8	1.49e+00	0	44	104	796917760	73	21543
2026-01-07 12:07:55.21	323.46	5.57	-51.0	-66.5	3.8	1.49e+00	0	44	104	796917760	73	21539
2026-01-07 12:07:56.21	323.57	5.52	-51.0	-66.5	3.8	1.49e+00	0	44	104	796917760	73	21536
2026-01-07 12:07:57.22	323.68	5.47	-51.0	-66.5	3.8	1.49e+00	0	44	104	796917760	73	21522
2026-01-07 12:07:58.22	323.80	5.42	-51.0	-66.5	3.8	1.49e+00	0	44	104	796917760	73	21574
2026-01-07 12:07:59.23	323.91	5.37	-51.0	-66.4	3.8	1.49e+00	0	44	104	796917760	73	21492
2026-01-07 12:08:00.23	324.02	5.32	-51.0	-66.4	3.8	1.49e+00	0	44	104	796917760	73	21466
2026-01-07 12:08:01.23	324.13	5.27	-51.0	-66.4	3.8	1.49e+00	0	44	104	796917760	73	21478
2026-01-07 12:08:02.24	324.24	5.22	-51.0	-66.5	3.8	1.49e+00	0	44	104	796917760	73	21524
2026-01-07 12:08:03.25	324.35	5.17	-51.0	-66.5	3.8	1.49e+00	0	44	104	796917760	73	21526
2026-01-07 12:08:04.25	324.46	5.12	-51.0	-66.5	3.8	1.49e+00	0	44	104	796917760	73	21565
2026-01-07 12:08:05.25	324.57	5.07	-51.0	-66.5	3.8	1.49e+00	0	44	104	796917760	73	21514
2026-01-07 12:08:06.26	324.68	5.02	-51.0	-66.5	3.8	1.49e+00	0	44	104	796917760	73	21574
2026-01-07 12:08:07.26	324.79	4.97	-51.0	-66.5	3.8	1.49e+00	0	44	104	796917760	73	21555

#Closed at: 2026-01-07 12:08:08
#Recorded file [796 MB]: D:/Data/31040_260107_145831.dat