passes_logs/2026/01/07/T1/T1__20260107_085644_NOAA_20_JPSS-1_rec.log

#Pass ID: 20260107_085644_NOAA 20 (JPSS-1)
#Satellite: NOAA 20 (JPSS-1)
#Configuration: NOAA 20
#almurnet v.1.7.20251203
#Start time: 2026-01-07 08:56:43

#Version: 2.0.20230620
#Station: T1
#Location: 37.570604 lon 55.790049 lat
#TLE: 1 43013U 17073A   26006.30790171  .00000126  00000+0  80695-4 0  9991
#TLE: 2 43013  98.7629 307.3394 0001808  51.8724 308.2615 14.19533762421505

#Time	Az	El	Level	Level2	SNR	BER	BlckErr	Temp	State	Recorded	gain1	gain2
2026-01-07 08:56:43.63	129.50	4.96	-49.7	-64.8	3.8	1.49e+00	0	41	0	0	71	19904
2026-01-07 08:56:44.62	129.45	5.03	-49.7	-64.8	3.8	1.49e+00	0	40	104	0	71	19892
2026-01-07 08:56:45.61	129.40	5.10	-49.7	-64.8	3.8	1.49e+00	0	40	104	0	71	19902
2026-01-07 08:56:46.61	129.35	5.16	-49.7	-64.8	3.8	1.49e+00	0	40	104	0	71	20035
2026-01-07 08:56:47.60	129.30	5.23	-49.7	-64.8	3.8	1.49e+00	0	41	104	0	71	20021
2026-01-07 08:56:48.60	129.25	5.30	-49.7	-64.8	3.8	1.49e+00	0	41	104	0	71	19964
2026-01-07 08:56:49.59	129.20	5.37	-49.7	-64.8	3.8	1.49e+00	0	41	104	0	71	20045
2026-01-07 08:56:50.58	129.15	5.43	-49.7	-64.8	3.8	1.49e+00	0	41	104	0	71	19997
2026-01-07 08:56:51.57	129.09	5.50	-49.7	-64.8	3.8	1.49e+00	0	41	104	0	71	20071
2026-01-07 08:56:52.57	129.04	5.57	-49.7	-64.8	3.8	1.49e+00	0	41	104	0	71	20054
2026-01-07 08:56:53.56	128.99	5.64	-49.7	-64.8	3.8	1.49e+00	0	41	104	0	71	20025
2026-01-07 08:56:54.56	128.94	5.71	-49.7	-64.9	3.8	1.49e+00	0	41	104	0	71	20096
2026-01-07 08:56:55.55	128.88	5.78	-49.7	-64.8	3.8	1.49e+00	0	41	104	0	71	20066
2026-01-07 08:56:56.54	128.83	5.85	-49.7	-64.8	3.8	1.49e+00	0	41	104	0	71	20042
2026-01-07 08:56:57.54	128.78	5.92	-49.7	-64.8	3.8	1.49e+00	0	41	104	0	71	19850
2026-01-07 08:56:58.53	128.72	5.99	-49.7	-64.7	3.8	1.49e+00	0	41	104	0	71	19761
2026-01-07 08:56:59.52	128.67	6.06	-49.7	-64.6	3.8	1.49e+00	0	41	104	0	71	19479
2026-01-07 08:57:00.51	128.62	6.12	-49.7	-64.5	3.8	1.49e+00	0	41	104	0	71	19276
2026-01-07 08:57:01.51	128.56	6.20	-49.7	-64.4	3.8	1.49e+00	0	41	104	0	71	18958
2026-01-07 08:57:02.50	128.51	6.27	-49.6	-64.2	3.8	1.49e+00	0	41	104	0	71	18668
2026-01-07 08:57:03.50	128.45	6.34	-49.7	-64.1	3.8	1.49e+00	0	41	104	0	71	18496
2026-01-07 08:57:04.49	128.40	6.41	-49.7	-64.0	3.8	1.49e+00	0	41	104	0	71	18283
2026-01-07 08:57:05.47	128.34	6.48	-49.7	-64.0	3.8	1.49e+00	0	41	104	0	71	18215
2026-01-07 08:57:06.48	128.29	6.55	-49.7	-64.0	3.8	1.49e+00	0	41	104	0	71	18181
2026-01-07 08:57:07.47	128.23	6.62	-49.6	-64.1	3.8	1.49e+00	0	41	104	0	71	18516
2026-01-07 08:57:08.46	128.17	6.69	-49.7	-64.2	3.8	1.49e+00	0	41	104	0	71	18726
2026-01-07 08:57:09.46	128.12	6.76	-49.7	-64.5	3.8	1.49e+00	0	41	104	0	71	19280
2026-01-07 08:57:10.46	128.06	6.83	-49.6	-64.7	3.8	1.49e+00	0	41	104	0	71	19651
2026-01-07 08:57:11.45	128.00	6.90	-49.7	-64.8	3.8	1.49e+00	0	42	104	0	71	19986
2026-01-07 08:57:12.44	127.95	6.98	-49.7	-64.7	3.8	1.49e+00	0	41	104	0	71	19813
2026-01-07 08:57:13.44	127.89	7.05	-49.6	-64.6	3.8	1.49e+00	0	41	104	0	71	19410
2026-01-07 08:57:14.43	127.83	7.12	-49.7	-64.2	3.8	1.49e+00	0	41	104	0	71	18623
2026-01-07 08:57:15.43	127.77	7.19	-49.6	-63.7	3.8	1.49e+00	0	41	104	0	71	17577
2026-01-07 08:57:16.42	127.71	7.27	-49.6	-63.3	3.8	1.49e+00	0	42	104	0	71	16737
2026-01-07 08:57:17.41	127.65	7.34	-49.6	-62.6	3.9	1.49e+00	0	42	104	0	71	15532
2026-01-07 08:57:18.41	127.59	7.41	-49.5	-62.1	3.9	1.48e+00	0	42	104	0	71	14657
2026-01-07 08:57:19.41	127.53	7.48	-49.5	-61.3	4.2	1.45e+00	0	42	0	0	70	14158
2026-01-07 08:57:20.40	127.47	7.56	-49.4	-60.2	4.6	1.10e+00	0	41	0	1048576	70	12430
2026-01-07 08:57:21.40	127.41	7.63	-49.1	-58.5	5.4	6.95e-01	0	42	0	2097152	70	10280
2026-01-07 08:57:22.39	127.35	7.70	-48.8	-56.8	6.7	3.19e-01	0	42	0	4194304	69	8945
2026-01-07 08:57:23.39	127.29	7.78	-48.4	-55.1	8.4	1.13e-01	0	42	0	6291456	68	7765
2026-01-07 08:57:24.38	127.23	7.85	-47.7	-53.4	10.0	1.54e-02	0	42	0	8388608	67	6751
2026-01-07 08:57:25.38	127.17	7.93	-47.2	-52.3	11.1	3.19e-03	0	42	0	9437184	66	6321
2026-01-07 08:57:26.37	127.11	8.00	-46.8	-51.4	12.0	7.10e-04	0	42	0	11534336	65	6038
2026-01-07 08:57:27.37	127.05	8.08	-46.5	-50.7	12.8	1.53e-04	0	42	0	13631488	65	5565
2026-01-07 08:57:28.36	126.98	8.15	-46.0	-50.0	13.5	9.10e-06	0	42	0	15728640	64	5411
2026-01-07 08:57:29.36	126.92	8.23	-46.1	-50.1	13.4	1.75e-05	0	42	0	17825792	64	5480
2026-01-07 08:57:30.36	126.86	8.30	-46.2	-50.2	13.3	1.37e-05	0	42	0	18874368	64	5560
2026-01-07 08:57:31.36	126.79	8.38	-46.2	-50.2	13.3	1.44e-05	0	42	0	20971520	64	5559
2026-01-07 08:57:32.35	126.73	8.45	-46.4	-50.6	12.9	4.65e-05	0	42	0	23068672	64	5823
2026-01-07 08:57:33.35	126.66	8.53	-46.7	-51.2	12.3	7.32e-05	0	42	0	25165824	64	6215
2026-01-07 08:57:34.35	126.60	8.61	-47.0	-51.9	11.6	3.82e-04	0	42	0	27262976	64	6733
2026-01-07 08:57:35.35	126.53	8.68	-47.5	-53.0	10.4	2.98e-03	0	42	0	28311552	65	7241
2026-01-07 08:57:36.34	126.47	8.76	-48.0	-54.2	9.2	9.84e-03	0	42	0	30408704	66	7847
2026-01-07 08:57:37.34	126.40	8.83	-48.4	-55.6	7.8	3.55e-02	0	42	0	32505856	67	8701
2026-01-07 08:57:38.33	126.34	8.91	-48.9	-57.5	6.2	2.08e-01	0	42	0	34603008	68	10177
2026-01-07 08:57:39.33	126.27	8.99	-49.2	-59.1	5.1	4.88e-01	0	42	0	35651584	69	11650
2026-01-07 08:57:40.33	126.20	9.07	-49.4	-60.6	4.4	9.49e-01	0	42	0	37748736	69	13823
2026-01-07 08:57:41.32	126.14	9.14	-49.2	-58.8	5.3	8.46e-01	0	42	0	39845888	69	11180
2026-01-07 08:57:42.32	126.07	9.22	-48.2	-55.2	8.4	7.76e-03	0	42	0	41943040	67	8357
2026-01-07 08:57:43.32	126.00	9.30	-49.6	-63.6	3.8	1.49e+00	0	42	104	41943040	69	19599
2026-01-07 08:57:44.31	125.93	9.38	-48.4	-55.0	8.6	1.04e+00	0	42	0	41943040	68	7664
2026-01-07 08:57:45.31	125.86	9.46	-48.2	-55.0	8.3	5.44e-02	0	42	0	44040192	67	8176
2026-01-07 08:57:46.30	125.80	9.53	-47.9	-54.0	9.5	1.29e-02	0	42	0	45088768	67	7205
2026-01-07 08:57:47.30	125.73	9.61	-47.2	-52.6	11.0	5.82e-03	0	42	0	47185920	66	6502
2026-01-07 08:57:48.29	125.66	9.69	-46.8	-51.2	12.3	8.87e-04	0	42	0	49283072	65	5918
2026-01-07 08:57:49.29	125.59	9.77	-46.1	-50.2	13.5	2.97e-05	0	42	0	51380224	64	5538
2026-01-07 08:57:50.28	125.52	9.85	-45.7	-49.3	14.5	3.80e-06	0	42	0	53477376	63	5295
2026-01-07 08:57:51.28	125.44	9.93	-45.4	-48.9	14.9	0.00e+00	0	42	0	54525952	62	5375
2026-01-07 08:57:52.27	125.37	10.01	-45.3	-48.6	15.1	7.00e-07	0	42	0	56623104	62	5189
2026-01-07 08:57:53.27	125.30	10.09	-45.3	-48.9	15.0	7.00e-07	0	42	0	58720256	62	5341
2026-01-07 08:57:54.27	125.23	10.17	-45.4	-49.0	14.9	0.00e+00	0	42	0	60817408	62	5417
2026-01-07 08:57:55.27	125.16	10.25	-45.6	-49.1	14.8	0.00e+00	0	42	0	61865984	62	5482
2026-01-07 08:57:56.26	125.08	10.33	-45.4	-48.8	15.0	0.00e+00	0	42	0	63963136	62	5328
2026-01-07 08:57:57.26	125.01	10.41	-45.3	-48.7	15.2	0.00e+00	0	42	0	66060288	62	5234
2026-01-07 08:57:58.26	124.94	10.49	-45.4	-48.8	15.0	0.00e+00	0	42	0	68157440	62	5297
2026-01-07 08:57:59.25	124.86	10.57	-45.2	-48.4	15.4	0.00e+00	0	42	0	70254592	62	5100
2026-01-07 08:58:00.25	124.79	10.65	-45.1	-48.3	15.6	0.00e+00	0	42	0	71303168	62	4995
2026-01-07 08:58:01.25	124.71	10.74	-45.1	-48.3	15.5	0.00e+00	0	42	0	73400320	62	5013
2026-01-07 08:58:02.25	124.64	10.82	-45.0	-48.2	15.7	0.00e+00	0	42	0	75497472	62	4965
2026-01-07 08:58:03.24	124.56	10.90	-44.9	-48.1	15.8	0.00e+00	0	42	0	77594624	61	5176
2026-01-07 08:58:04.24	124.48	10.98	-45.2	-48.5	15.4	0.00e+00	0	42	0	79691776	61	5419
2026-01-07 08:58:05.24	124.41	11.07	-45.1	-48.6	15.3	0.00e+00	0	42	0	80740352	61	5493
2026-01-07 08:58:06.24	124.33	11.15	-45.2	-48.7	15.2	0.00e+00	0	42	0	82837504	61	5538
2026-01-07 08:58:07.23	124.25	11.23	-45.2	-48.3	15.6	0.00e+00	0	42	0	84934656	61	5324
2026-01-07 08:58:08.23	124.17	11.32	-44.8	-48.2	15.8	0.00e+00	0	42	0	87031808	61	5220
2026-01-07 08:58:09.23	124.09	11.40	-45.0	-48.2	15.7	0.00e+00	0	42	0	88080384	61	5219
2026-01-07 08:58:10.23	124.01	11.48	-44.8	-47.9	16.0	0.00e+00	0	42	0	90177536	61	5092
2026-01-07 08:58:11.22	123.93	11.57	-44.8	-47.9	16.0	0.00e+00	0	42	0	92274688	61	5090
2026-01-07 08:58:12.22	123.85	11.65	-44.8	-47.8	16.0	0.00e+00	0	42	0	94371840	61	5035
2026-01-07 08:58:13.22	123.77	11.74	-44.9	-48.0	15.9	0.00e+00	0	42	0	96468992	61	5147
2026-01-07 08:58:14.22	123.69	11.82	-44.9	-47.9	16.0	0.00e+00	0	42	0	97517568	61	5088
2026-01-07 08:58:15.22	123.61	11.91	-45.0	-48.1	15.8	0.00e+00	0	42	0	99614720	61	5215
2026-01-07 08:58:16.22	123.53	11.99	-45.0	-48.1	15.8	0.00e+00	0	42	0	101711872	61	5203
2026-01-07 08:58:17.21	123.44	12.08	-44.9	-48.1	15.9	0.00e+00	0	42	0	103809024	61	5174
2026-01-07 08:58:18.22	123.36	12.16	-44.8	-47.8	16.2	0.00e+00	0	43	0	104857600	61	4989
2026-01-07 08:58:19.22	123.28	12.25	-44.4	-47.3	16.6	0.00e+00	0	42	0	106954752	60	5011
2026-01-07 08:58:20.21	123.19	12.34	-44.3	-47.2	16.7	0.00e+00	0	42	0	109051904	60	4953
2026-01-07 08:58:21.21	123.11	12.42	-44.4	-47.3	16.7	0.00e+00	0	42	0	111149056	60	4985
2026-01-07 08:58:22.21	123.02	12.51	-44.4	-47.3	16.6	0.00e+00	0	42	0	113246208	60	5028
2026-01-07 08:58:23.21	122.94	12.60	-44.5	-47.4	16.5	0.00e+00	0	42	0	114294784	60	5090
2026-01-07 08:58:24.20	122.85	12.68	-44.7	-47.7	16.3	0.00e+00	0	42	0	116391936	60	5226
2026-01-07 08:58:25.21	122.76	12.77	-44.7	-47.7	16.3	0.00e+00	0	42	0	118489088	60	5238
2026-01-07 08:58:26.20	122.68	12.86	-44.6	-47.6	16.4	0.00e+00	0	42	0	120586240	60	5185
2026-01-07 08:58:27.20	122.59	12.95	-44.5	-47.4	16.6	0.00e+00	0	42	0	122683392	60	5077
2026-01-07 08:58:28.20	122.50	13.04	-44.4	-47.3	16.7	0.00e+00	0	42	0	123731968	60	4985
2026-01-07 08:58:29.20	122.41	13.12	-44.2	-47.1	16.9	0.00e+00	0	42	0	125829120	60	4881
2026-01-07 08:58:30.20	122.32	13.21	-44.3	-47.1	16.9	0.00e+00	0	42	0	127926272	60	4889
2026-01-07 08:58:31.19	122.23	13.30	-44.3	-47.2	16.9	0.00e+00	0	42	0	130023424	60	4936
2026-01-07 08:58:32.19	122.14	13.39	-44.4	-47.3	16.7	0.00e+00	0	42	0	131072000	60	5027
2026-01-07 08:58:33.19	122.05	13.48	-44.7	-47.6	16.5	0.00e+00	0	42	0	133169152	60	5173
2026-01-07 08:58:34.19	121.96	13.57	-44.7	-47.7	16.4	0.00e+00	0	42	0	135266304	60	5233
2026-01-07 08:58:35.18	121.87	13.66	-44.4	-47.6	16.5	0.00e+00	0	42	0	137363456	60	5164
2026-01-07 08:58:36.18	121.77	13.75	-44.6	-47.4	16.6	0.00e+00	0	42	0	139460608	60	5087
2026-01-07 08:58:37.18	121.68	13.84	-44.5	-47.3	16.7	0.00e+00	0	42	0	140509184	60	5023
2026-01-07 08:58:38.18	121.58	13.93	-44.2	-47.2	16.8	0.00e+00	0	42	0	142606336	60	4981
2026-01-07 08:58:39.17	121.49	14.02	-44.4	-47.1	16.9	0.00e+00	0	42	0	144703488	60	4916
2026-01-07 08:58:40.17	121.40	14.11	-44.3	-47.2	16.8	0.00e+00	0	42	0	146800640	60	4972
2026-01-07 08:58:41.16	121.30	14.20	-44.4	-47.3	16.7	0.00e+00	0	43	0	147849216	60	5015
2026-01-07 08:58:42.16	121.20	14.30	-44.4	-47.2	16.8	0.00e+00	0	43	0	149946368	60	4971
2026-01-07 08:58:43.16	121.11	14.39	-44.4	-47.2	16.8	0.00e+00	0	43	0	152043520	60	4982
2026-01-07 08:58:44.15	121.01	14.48	-44.4	-47.2	16.8	0.00e+00	0	42	0	154140672	60	4973
2026-01-07 08:58:45.15	120.91	14.57	-44.3	-47.0	17.1	0.00e+00	0	43	0	156237824	60	4831
2026-01-07 08:58:46.15	120.81	14.67	-44.3	-47.0	17.0	0.00e+00	0	43	0	157286400	60	4860
2026-01-07 08:58:47.14	120.71	14.76	-44.2	-47.0	17.1	0.00e+00	0	42	0	159383552	60	4831
2026-01-07 08:58:48.14	120.61	14.85	-44.3	-47.1	16.9	0.00e+00	0	42	0	161480704	60	4905
2026-01-07 08:58:49.14	120.51	14.95	-44.4	-47.2	16.8	0.00e+00	0	42	0	163577856	60	4968
2026-01-07 08:58:50.13	120.41	15.04	-44.4	-47.2	16.9	0.00e+00	0	43	0	165675008	60	4958
2026-01-07 08:58:51.13	120.31	15.14	-44.4	-47.2	16.9	0.00e+00	0	42	0	166723584	60	4949
2026-01-07 08:58:52.13	120.21	15.23	-43.9	-46.5	17.5	0.00e+00	0	42	0	168820736	59	4842
2026-01-07 08:58:53.12	120.10	15.32	-44.3	-47.0	17.0	0.00e+00	0	42	0	170917888	59	5117
2026-01-07 08:58:54.12	120.00	15.42	-44.2	-47.0	17.1	0.00e+00	0	42	0	173015040	59	5105
2026-01-07 08:58:55.12	119.89	15.51	-44.1	-46.9	17.1	0.00e+00	0	42	0	174063616	59	5087
2026-01-07 08:58:56.11	119.79	15.61	-44.3	-47.0	17.0	0.00e+00	0	43	0	176160768	59	5147
2026-01-07 08:58:57.11	119.68	15.71	-44.3	-47.1	17.0	0.00e+00	0	42	0	178257920	59	5180
2026-01-07 08:58:58.11	119.57	15.80	-44.1	-46.9	17.2	0.00e+00	0	43	0	180355072	59	5057
2026-01-07 08:58:59.10	119.47	15.90	-44.3	-47.1	17.0	0.00e+00	0	42	0	182452224	59	5168
2026-01-07 08:59:00.10	119.36	16.00	-44.3	-47.0	17.0	0.00e+00	0	43	0	183500800	59	5122
2026-01-07 08:59:01.10	119.25	16.09	-44.2	-47.0	17.1	0.00e+00	0	43	0	185597952	59	5117
2026-01-07 08:59:02.10	119.14	16.19	-44.2	-46.9	17.2	0.00e+00	0	42	0	187695104	59	5053
2026-01-07 08:59:03.09	119.03	16.29	-44.2	-46.9	17.2	0.00e+00	0	42	0	189792256	59	5056
2026-01-07 08:59:04.09	118.92	16.38	-44.3	-47.0	17.1	0.00e+00	0	42	0	191889408	59	5117
2026-01-07 08:59:05.09	118.81	16.48	-44.3	-47.1	17.0	0.00e+00	0	42	0	192937984	59	5170
2026-01-07 08:59:06.08	118.69	16.58	-44.3	-47.0	17.0	0.00e+00	0	43	0	195035136	59	5153
2026-01-07 08:59:07.08	118.58	16.68	-44.3	-47.0	17.1	0.00e+00	0	43	0	197132288	59	5152
2026-01-07 08:59:08.08	118.47	16.78	-44.3	-47.0	17.1	0.00e+00	0	42	0	199229440	59	5118
2026-01-07 08:59:09.07	118.35	16.88	-44.3	-46.9	17.1	0.00e+00	0	43	0	200278016	59	5090
2026-01-07 08:59:10.07	118.24	16.98	-44.2	-46.9	17.2	0.00e+00	0	42	0	202375168	59	5047
2026-01-07 08:59:11.07	118.12	17.08	-44.1	-46.8	17.3	0.00e+00	0	43	0	204472320	59	4984
2026-01-07 08:59:12.06	118.00	17.18	-44.2	-46.9	17.2	0.00e+00	0	42	0	206569472	59	5054
2026-01-07 08:59:13.06	117.88	17.28	-44.4	-47.1	16.9	0.00e+00	0	43	0	208666624	59	5218
2026-01-07 08:59:14.06	117.77	17.38	-44.4	-47.1	17.0	0.00e+00	0	42	0	209715200	59	5190
2026-01-07 08:59:15.05	117.65	17.48	-44.4	-47.1	17.0	0.00e+00	0	43	0	211812352	59	5197
2026-01-07 08:59:16.05	117.53	17.58	-44.3	-47.0	17.1	0.00e+00	0	43	0	213909504	59	5134
2026-01-07 08:59:17.05	117.40	17.68	-44.3	-47.0	17.1	0.00e+00	0	43	0	216006656	59	5139
2026-01-07 08:59:18.04	117.28	17.78	-44.4	-47.0	17.0	0.00e+00	0	42	0	217055232	59	5155
2026-01-07 08:59:19.03	117.16	17.88	-44.3	-47.0	17.1	0.00e+00	0	42	0	219152384	59	5117
2026-01-07 08:59:20.03	117.04	17.99	-44.4	-47.1	17.0	0.00e+00	0	43	0	221249536	59	5189
2026-01-07 08:59:21.03	116.91	18.09	-44.3	-47.0	17.1	0.00e+00	0	42	0	223346688	59	5151
2026-01-07 08:59:22.02	116.79	18.19	-44.4	-47.2	16.9	0.00e+00	0	42	0	225443840	59	5235
2026-01-07 08:59:23.02	116.66	18.30	-44.5	-47.2	16.9	0.00e+00	0	43	0	226492416	59	5275
2026-01-07 08:59:24.02	116.53	18.40	-44.5	-47.3	16.8	0.00e+00	0	42	0	228589568	59	5328
2026-01-07 08:59:25.02	116.40	18.50	-44.6	-47.3	16.8	0.00e+00	0	42	0	230686720	59	5329
2026-01-07 08:59:26.02	116.27	18.61	-44.5	-47.2	16.9	0.00e+00	0	42	0	232783872	59	5257
2026-01-07 08:59:27.01	116.14	18.71	-44.5	-47.2	16.9	0.00e+00	0	43	0	233832448	59	5265
2026-01-07 08:59:28.00	116.01	18.82	-44.5	-47.2	16.9	0.00e+00	0	42	0	235929600	59	5267
2026-01-07 08:59:29.00	115.88	18.92	-44.6	-47.3	16.8	0.00e+00	0	42	0	238026752	59	5307
2026-01-07 08:59:29.99	115.75	19.03	-44.6	-47.4	16.7	0.00e+00	0	43	0	240123904	59	5395
2026-01-07 08:59:30.99	115.62	19.13	-44.8	-47.7	16.5	0.00e+00	0	43	0	242221056	60	5240
2026-01-07 08:59:31.99	115.48	19.24	-44.8	-47.7	16.5	0.00e+00	0	42	0	243269632	60	5244
2026-01-07 08:59:32.99	115.35	19.34	-44.8	-47.8	16.5	0.00e+00	0	42	0	245366784	60	5280
2026-01-07 08:59:33.98	115.21	19.45	-44.7	-47.6	16.6	0.00e+00	0	42	0	247463936	60	5193
2026-01-07 08:59:34.98	115.07	19.56	-44.8	-47.7	16.6	0.00e+00	0	43	0	249561088	60	5222
2026-01-07 08:59:35.98	114.93	19.66	-44.8	-47.7	16.6	0.00e+00	0	43	0	250609664	60	5219
2026-01-07 08:59:36.97	114.80	19.77	-44.9	-47.8	16.4	0.00e+00	0	43	0	252706816	60	5334
2026-01-07 08:59:37.97	114.65	19.88	-45.0	-48.0	16.2	0.00e+00	0	43	0	254803968	60	5416
2026-01-07 08:59:38.97	114.51	19.99	-44.9	-47.9	16.3	0.00e+00	0	42	0	256901120	60	5364
2026-01-07 08:59:39.96	114.37	20.09	-44.8	-47.7	16.5	0.00e+00	0	42	0	258998272	60	5264
2026-01-07 08:59:40.96	114.23	20.20	-44.8	-47.6	16.6	0.00e+00	0	42	0	260046848	60	5198
2026-01-07 08:59:41.96	114.08	20.31	-44.7	-47.6	16.6	0.00e+00	0	42	0	262144000	60	5169
2026-01-07 08:59:42.95	113.94	20.42	-44.7	-47.5	16.7	0.00e+00	0	42	0	264241152	60	5122
2026-01-07 08:59:43.95	113.79	20.53	-44.6	-47.4	16.8	0.00e+00	0	42	0	266338304	60	5073
2026-01-07 08:59:44.95	113.64	20.64	-44.7	-47.5	16.7	0.00e+00	0	42	0	268435456	60	5149
2026-01-07 08:59:45.95	113.49	20.75	-44.6	-47.4	16.8	0.00e+00	0	43	0	269484032	60	5064
2026-01-07 08:59:46.94	113.34	20.86	-44.7	-47.5	16.7	0.00e+00	0	42	0	271581184	60	5138
2026-01-07 08:59:47.94	113.19	20.97	-44.4	-47.2	17.0	0.00e+00	0	42	0	273678336	60	4935
2026-01-07 08:59:48.93	113.04	21.08	-44.5	-47.2	17.0	0.00e+00	0	42	0	275775488	60	4975
2026-01-07 08:59:49.93	112.89	21.19	-44.5	-47.2	17.0	0.00e+00	0	43	0	277872640	60	4965
2026-01-07 08:59:50.93	112.73	21.30	-44.5	-47.3	16.9	0.00e+00	0	43	0	278921216	60	5023
2026-01-07 08:59:51.93	112.58	21.41	-44.5	-47.3	16.9	0.00e+00	0	42	0	281018368	60	5017
2026-01-07 08:59:52.92	112.42	21.52	-44.4	-47.1	17.1	0.00e+00	0	42	0	283115520	60	4907
2026-01-07 08:59:53.92	112.26	21.64	-44.3	-47.0	17.2	0.00e+00	0	43	0	285212672	60	4845
2026-01-07 08:59:54.92	112.11	21.75	-44.2	-46.9	17.3	0.00e+00	0	42	0	286261248	60	4806
2026-01-07 08:59:55.92	111.94	21.86	-44.3	-47.0	17.3	0.00e+00	0	43	0	288358400	60	4828
2026-01-07 08:59:56.92	111.78	21.97	-44.3	-47.1	17.2	0.00e+00	0	42	0	290455552	60	4885
2026-01-07 08:59:57.92	111.62	22.09	-44.3	-47.1	17.2	0.00e+00	0	42	0	292552704	60	4887
2026-01-07 08:59:58.91	111.46	22.20	-44.4	-47.1	17.1	0.00e+00	0	42	0	294649856	60	4921
2026-01-07 08:59:59.91	111.29	22.31	-44.2	-46.9	17.3	0.00e+00	0	42	0	295698432	60	4811
2026-01-07 09:00:00.91	111.13	22.43	-44.1	-46.8	17.5	0.00e+00	0	42	0	297795584	60	4711
2026-01-07 09:00:01.91	110.96	22.54	-44.2	-46.9	17.3	0.00e+00	0	42	0	299892736	60	4789
2026-01-07 09:00:02.90	110.79	22.66	-44.3	-46.9	17.3	0.00e+00	0	42	0	301989888	60	4803
2026-01-07 09:00:03.90	110.62	22.77	-44.3	-47.0	17.2	0.00e+00	0	42	0	303038464	60	4870
2026-01-07 09:00:04.89	110.45	22.88	-44.4	-47.2	17.1	0.00e+00	0	43	0	305135616	60	4940
2026-01-07 09:00:05.89	110.28	23.00	-44.4	-47.2	17.1	0.00e+00	0	43	0	307232768	60	4946
2026-01-07 09:00:06.88	110.11	23.11	-44.2	-46.8	17.4	0.00e+00	0	42	0	309329920	60	4754
2026-01-07 09:00:07.88	109.93	23.23	-44.2	-46.9	17.4	0.00e+00	0	42	0	311427072	60	4766
2026-01-07 09:00:08.88	109.75	23.34	-44.2	-46.9	17.4	0.00e+00	0	42	0	312475648	60	4770
2026-01-07 09:00:09.87	109.58	23.46	-44.2	-46.8	17.4	0.00e+00	0	42	0	314572800	60	4758
2026-01-07 09:00:10.87	109.40	23.58	-44.2	-46.9	17.4	0.00e+00	0	43	0	316669952	60	4760
2026-01-07 09:00:11.87	109.22	23.69	-44.2	-46.9	17.4	0.00e+00	0	42	0	318767104	60	4765
2026-01-07 09:00:12.86	109.04	23.81	-44.1	-46.8	17.5	0.00e+00	0	42	0	319815680	60	4725
2026-01-07 09:00:13.87	108.85	23.93	-44.2	-46.9	17.4	0.00e+00	0	42	0	321912832	60	4796
2026-01-07 09:00:14.86	108.67	24.04	-44.3	-47.0	17.3	0.00e+00	0	42	0	324009984	60	4825
2026-01-07 09:00:15.86	108.48	24.16	-44.4	-47.1	17.2	0.00e+00	0	42	0	326107136	60	4898
2026-01-07 09:00:16.86	108.30	24.28	-44.5	-47.3	17.0	0.00e+00	0	42	0	328204288	60	5012
2026-01-07 09:00:17.86	108.11	24.39	-44.6	-47.4	16.9	0.00e+00	0	42	0	329252864	60	5066
2026-01-07 09:00:18.85	107.92	24.51	-44.7	-47.5	16.8	0.00e+00	0	42	0	331350016	60	5116
2026-01-07 09:00:19.85	107.73	24.63	-44.8	-47.6	16.7	0.00e+00	0	43	0	333447168	60	5215
2026-01-07 09:00:20.85	107.53	24.75	-44.8	-47.6	16.7	0.00e+00	0	42	0	335544320	60	5203
2026-01-07 09:00:21.85	107.34	24.87	-45.1	-48.0	16.2	0.00e+00	0	42	0	337641472	60	5461
2026-01-07 09:00:22.84	107.14	24.98	-45.1	-48.1	16.2	0.00e+00	0	43	0	338690048	60	5521
2026-01-07 09:00:23.84	106.95	25.10	-45.1	-48.1	16.2	0.00e+00	0	42	0	340787200	60	5517
2026-01-07 09:00:24.83	106.75	25.22	-45.1	-48.1	16.2	0.00e+00	0	43	0	342884352	60	5474
2026-01-07 09:00:25.83	106.55	25.34	-45.2	-48.2	16.1	0.00e+00	0	42	0	344981504	61	5250
2026-01-07 09:00:26.83	106.35	25.46	-45.2	-48.2	16.1	0.00e+00	0	42	0	346030080	61	5258
2026-01-07 09:00:27.82	106.14	25.58	-45.2	-48.2	16.1	0.00e+00	0	42	0	348127232	61	5253
2026-01-07 09:00:28.82	105.94	25.70	-45.4	-48.5	15.8	0.00e+00	0	42	0	350224384	61	5414
2026-01-07 09:00:29.82	105.73	25.82	-45.4	-48.6	15.8	0.00e+00	0	42	0	352321536	61	5470
2026-01-07 09:00:30.82	105.52	25.94	-45.4	-48.6	15.7	0.00e+00	0	42	0	354418688	61	5508
2026-01-07 09:00:31.82	105.31	26.06	-45.6	-48.8	15.5	0.00e+00	0	42	0	355467264	61	5643
2026-01-07 09:00:32.81	105.10	26.17	-45.5	-48.7	15.6	0.00e+00	0	43	0	357564416	61	5551
2026-01-07 09:00:33.81	104.89	26.29	-45.5	-48.7	15.6	0.00e+00	0	42	0	359661568	61	5562
2026-01-07 09:00:34.80	104.68	26.41	-45.6	-48.7	15.6	0.00e+00	0	42	0	361758720	61	5565
2026-01-07 09:00:35.80	104.46	26.53	-45.4	-48.5	15.8	0.00e+00	0	42	0	363855872	61	5457
2026-01-07 09:00:36.80	104.24	26.65	-45.3	-48.3	16.1	0.00e+00	0	42	0	364904448	61	5286
2026-01-07 09:00:37.80	104.02	26.77	-45.2	-48.2	16.1	0.00e+00	0	42	0	367001600	61	5276
2026-01-07 09:00:38.80	103.80	26.90	-45.4	-48.5	15.8	0.00e+00	0	42	0	369098752	61	5417
2026-01-07 09:00:39.80	103.58	27.02	-45.3	-48.3	16.0	0.00e+00	0	42	0	371195904	61	5324
2026-01-07 09:00:40.79	103.36	27.14	-45.4	-48.5	15.8	0.00e+00	0	42	0	372244480	61	5413
2026-01-07 09:00:41.78	103.13	27.25	-45.5	-48.7	15.7	0.00e+00	0	42	0	374341632	61	5538
2026-01-07 09:00:42.78	102.90	27.38	-45.5	-48.6	15.8	0.00e+00	0	42	0	376438784	61	5497
2026-01-07 09:00:43.78	102.67	27.50	-45.4	-48.5	15.8	0.00e+00	0	42	0	378535936	61	5419
2026-01-07 09:00:44.78	102.44	27.62	-45.5	-48.6	15.8	0.00e+00	0	42	0	380633088	61	5504
2026-01-07 09:00:45.77	102.21	27.74	-45.4	-48.5	15.7	0.00e+00	0	42	0	381681664	61	5455
2026-01-07 09:00:46.77	101.97	27.86	-45.4	-48.5	15.8	0.00e+00	0	42	0	383778816	61	5451
2026-01-07 09:00:47.77	101.74	27.98	-45.4	-48.5	15.8	0.00e+00	0	42	0	385875968	61	5423
2026-01-07 09:00:48.76	101.50	28.10	-45.5	-48.6	15.7	0.00e+00	0	42	0	387973120	61	5511
2026-01-07 09:00:49.76	101.26	28.22	-45.5	-48.6	15.8	0.00e+00	0	42	0	389021696	61	5473
2026-01-07 09:00:50.76	101.02	28.34	-45.5	-48.7	15.6	0.00e+00	0	42	0	391118848	61	5543
2026-01-07 09:00:51.75	100.77	28.46	-45.5	-48.6	15.7	0.00e+00	0	42	0	393216000	61	5502
2026-01-07 09:00:52.75	100.53	28.58	-45.5	-48.6	15.7	0.00e+00	0	42	0	395313152	61	5507
2026-01-07 09:00:53.75	100.28	28.70	-45.4	-48.5	15.9	0.00e+00	0	43	0	397410304	61	5428
2026-01-07 09:00:54.75	100.03	28.82	-45.4	-48.6	15.8	0.00e+00	0	42	0	398458880	61	5476
2026-01-07 09:00:55.74	99.78	28.94	-45.5	-48.7	15.7	0.00e+00	0	42	0	400556032	61	5544
2026-01-07 09:00:56.74	99.53	29.06	-45.5	-48.7	15.6	0.00e+00	0	42	0	402653184	61	5564
2026-01-07 09:00:57.74	99.27	29.18	-45.6	-48.8	15.6	0.00e+00	0	42	0	404750336	61	5610
2026-01-07 09:00:58.73	99.02	29.30	-45.6	-48.8	15.6	0.00e+00	0	42	0	406847488	61	5615
2026-01-07 09:00:59.72	98.76	29.41	-45.5	-48.6	15.8	0.00e+00	0	42	0	407896064	61	5504
2026-01-07 09:01:00.72	98.50	29.53	-45.4	-48.5	15.8	0.00e+00	0	42	0	409993216	61	5422
2026-01-07 09:01:01.72	98.23	29.65	-45.5	-48.6	15.7	0.00e+00	0	42	0	412090368	61	5511
2026-01-07 09:01:02.72	97.97	29.77	-45.5	-48.6	15.7	0.00e+00	0	42	0	414187520	61	5514
2026-01-07 09:01:03.71	97.70	29.89	-45.4	-48.5	15.8	0.00e+00	0	42	0	415236096	61	5446
2026-01-07 09:01:04.71	97.43	30.01	-45.4	-48.5	15.9	0.00e+00	0	42	0	417333248	61	5427
2026-01-07 09:01:05.71	97.16	30.13	-45.4	-48.4	15.9	0.00e+00	0	43	0	419430400	61	5393
2026-01-07 09:01:06.70	96.89	30.24	-45.4	-48.5	15.8	0.00e+00	0	42	0	421527552	61	5436
2026-01-07 09:01:07.70	96.62	30.36	-45.5	-48.6	15.7	0.00e+00	0	42	0	423624704	61	5526
2026-01-07 09:01:08.70	96.34	30.48	-45.8	-49.1	15.3	0.00e+00	0	42	0	424673280	62	5512
2026-01-07 09:01:09.70	96.06	30.60	-46.3	-49.8	14.6	0.00e+00	0	42	0	426770432	63	5654
2026-01-07 09:01:10.70	95.78	30.71	-46.4	-50.0	14.4	0.00e+00	0	42	0	428867584	63	5759
2026-01-07 09:01:11.70	95.49	30.83	-46.6	-50.3	14.1	7.00e-07	0	42	0	430964736	63	5947
2026-01-07 09:01:12.69	95.21	30.95	-46.6	-50.4	13.9	6.10e-06	0	42	0	432013312	64	5687
2026-01-07 09:01:13.69	94.92	31.06	-46.6	-50.5	13.8	3.80e-06	0	42	0	434110464	64	5759
2026-01-07 09:01:14.69	94.63	31.18	-46.7	-50.6	13.7	5.30e-06	0	42	0	436207616	64	5845
2026-01-07 09:01:15.69	94.34	31.29	-46.8	-50.9	13.5	1.06e-05	0	42	0	438304768	64	6000
2026-01-07 09:01:16.69	94.05	31.41	-46.9	-51.1	13.3	1.52e-05	0	42	0	440401920	64	6151
2026-01-07 09:01:17.68	93.76	31.52	-46.9	-51.1	13.2	9.90e-06	0	42	0	441450496	64	6174
2026-01-07 09:01:18.68	93.46	31.64	-46.9	-51.2	13.1	2.28e-05	0	42	0	443547648	64	6206
2026-01-07 09:01:19.68	93.16	31.75	-46.9	-51.0	13.2	1.44e-05	0	42	0	445644800	64	6128
2026-01-07 09:01:20.68	92.86	31.86	-47.1	-51.3	13.0	2.74e-05	0	42	0	447741952	64	6314
2026-01-07 09:01:21.68	92.55	31.98	-47.1	-51.4	12.9	6.17e-05	0	42	0	449839104	64	6400
2026-01-07 09:01:22.68	92.24	32.09	-47.2	-51.6	12.7	7.17e-05	0	42	0	450887680	65	6144
2026-01-07 09:01:23.68	91.94	32.20	-47.3	-51.7	12.5	6.02e-05	0	42	0	452984832	65	6266
2026-01-07 09:01:24.67	91.63	32.31	-47.3	-51.7	12.6	9.76e-05	0	42	0	455081984	65	6232
2026-01-07 09:01:25.67	91.31	32.42	-47.4	-51.9	12.4	1.17e-04	0	42	0	457179136	65	6389
2026-01-07 09:01:26.67	91.00	32.53	-47.7	-52.3	11.9	3.02e-04	0	42	0	458227712	65	6717
2026-01-07 09:01:27.67	90.68	32.64	-47.9	-52.8	11.5	6.29e-04	0	42	0	460324864	66	6669
2026-01-07 09:01:28.66	90.37	32.75	-47.9	-52.8	11.5	1.26e-03	0	42	0	462422016	66	6698
2026-01-07 09:01:29.66	90.04	32.86	-47.9	-52.8	11.4	9.46e-04	0	42	0	464519168	66	6720
2026-01-07 09:01:30.66	89.72	32.97	-48.0	-53.2	11.0	1.13e-03	0	42	0	466616320	66	6982
2026-01-07 09:01:31.65	89.40	33.07	-48.0	-53.3	11.0	2.67e-03	0	42	0	467664896	66	7088
2026-01-07 09:01:32.65	89.07	33.18	-48.0	-53.3	10.9	1.89e-03	0	42	0	469762048	66	7071
2026-01-07 09:01:33.65	88.74	33.28	-48.0	-53.3	10.9	2.35e-03	0	42	0	471859200	66	7116
2026-01-07 09:01:34.65	88.41	33.39	-48.0	-53.6	10.7	2.70e-03	0	43	0	473956352	66	7301
2026-01-07 09:01:35.65	88.07	33.49	-47.9	-53.2	11.0	1.95e-03	0	42	0	476053504	66	7005
2026-01-07 09:01:36.64	87.74	33.60	-47.6	-52.5	11.8	6.27e-04	0	42	0	477102080	66	6460
2026-01-07 09:01:37.64	87.40	33.70	-47.3	-51.9	12.4	2.77e-04	0	42	0	479199232	66	6056
2026-01-07 09:01:38.63	87.06	33.80	-47.0	-51.3	13.0	8.23e-05	0	42	0	481296384	66	5612
2026-01-07 09:01:39.63	86.72	33.90	-46.9	-51.2	13.0	3.05e-05	0	42	0	483393536	65	5889
2026-01-07 09:01:40.63	86.38	34.00	-46.7	-50.8	13.5	1.37e-05	0	42	0	484442112	65	5609
2026-01-07 09:01:41.62	86.03	34.10	-46.6	-50.6	13.7	7.60e-06	0	42	0	486539264	65	5506
2026-01-07 09:01:42.62	85.68	34.20	-46.7	-50.8	13.6	6.80e-06	0	42	0	488636416	65	5602
2026-01-07 09:01:43.62	85.33	34.29	-46.6	-50.6	13.8	5.30e-06	0	42	0	490733568	65	5465
2026-01-07 09:01:44.61	84.98	34.39	-46.5	-50.3	14.0	4.50e-06	0	42	0	492830720	64	5651
2026-01-07 09:01:45.61	84.63	34.49	-46.3	-50.1	14.2	1.50e-06	0	42	0	493879296	64	5513
2026-01-07 09:01:46.61	84.27	34.58	-46.2	-49.9	14.5	0.00e+00	0	42	0	495976448	64	5358
2026-01-07 09:01:47.60	83.91	34.67	-46.1	-49.8	14.6	0.00e+00	0	42	0	498073600	64	5290
2026-01-07 09:01:48.60	83.55	34.77	-46.0	-49.7	14.7	0.00e+00	0	42	0	500170752	64	5223
2026-01-07 09:01:49.60	83.19	34.86	-45.9	-49.3	15.1	0.00e+00	0	42	0	501219328	63	5339
2026-01-07 09:01:50.60	82.82	34.95	-45.5	-48.7	15.7	0.00e+00	0	42	0	503316480	63	4975
2026-01-07 09:01:51.59	82.46	35.04	-45.3	-48.4	16.1	0.00e+00	0	42	0	505413632	62	5051
2026-01-07 09:01:52.59	82.09	35.12	-45.0	-47.9	16.5	0.00e+00	0	42	0	507510784	62	4811
2026-01-07 09:01:53.59	81.72	35.21	-44.9	-47.9	16.5	0.00e+00	0	42	0	509607936	61	5051
2026-01-07 09:01:54.59	81.34	35.30	-45.0	-47.9	16.5	0.00e+00	0	42	0	510656512	61	5096
2026-01-07 09:01:55.58	80.97	35.38	-45.0	-47.9	16.5	0.00e+00	0	42	0	512753664	61	5093
2026-01-07 09:01:56.58	80.59	35.47	-44.9	-47.8	16.6	0.00e+00	0	42	0	514850816	61	5014
2026-01-07 09:01:57.57	80.22	35.55	-44.8	-47.7	16.8	0.00e+00	0	42	0	516947968	61	4928
2026-01-07 09:01:58.57	79.84	35.63	-44.8	-47.6	16.8	0.00e+00	0	42	0	517996544	61	4897
2026-01-07 09:01:59.57	79.45	35.71	-44.8	-47.6	16.8	0.00e+00	0	42	0	520093696	61	4878
2026-01-07 09:02:00.56	79.07	35.79	-44.8	-47.6	16.8	0.00e+00	0	42	0	522190848	61	4879
2026-01-07 09:02:01.56	78.68	35.87	-44.7	-47.4	17.0	0.00e+00	0	42	0	524288000	61	4803
2026-01-07 09:02:02.56	78.29	35.94	-44.7	-47.5	17.0	0.00e+00	0	42	0	526385152	61	4832
2026-01-07 09:02:03.55	77.91	36.02	-44.6	-47.4	17.0	0.00e+00	0	42	0	527433728	61	4796
2026-01-07 09:02:04.55	77.51	36.09	-44.5	-47.2	17.1	0.00e+00	0	42	0	529530880	61	4699
2026-01-07 09:02:05.55	77.12	36.16	-44.4	-47.1	17.3	0.00e+00	0	42	0	531628032	60	4902
2026-01-07 09:02:06.54	76.73	36.23	-44.2	-46.9	17.5	0.00e+00	0	42	0	533725184	60	4768
2026-01-07 09:02:07.54	76.33	36.30	-44.0	-46.5	17.8	0.00e+00	0	42	0	535822336	60	4582
2026-01-07 09:02:08.54	75.93	36.37	-44.0	-46.5	17.8	0.00e+00	0	42	0	536870912	59	4846
2026-01-07 09:02:09.54	75.53	36.44	-43.9	-46.4	17.9	0.00e+00	0	42	0	538968064	59	4776
2026-01-07 09:02:10.53	75.13	36.50	-43.9	-46.4	17.9	0.00e+00	0	42	0	541065216	59	4804
2026-01-07 09:02:11.53	74.73	36.56	-43.7	-46.1	18.2	0.00e+00	0	42	0	543162368	59	4639
2026-01-07 09:02:12.52	74.33	36.62	-43.7	-46.1	18.2	0.00e+00	0	42	0	544210944	59	4605
2026-01-07 09:02:13.52	73.92	36.69	-43.4	-45.8	18.5	0.00e+00	0	42	0	546308096	58	4730
2026-01-07 09:02:14.52	73.51	36.74	-43.2	-45.6	18.7	0.00e+00	0	42	0	548405248	58	4610
2026-01-07 09:02:15.52	73.10	36.80	-43.2	-45.5	18.8	0.00e+00	0	42	0	550502400	58	4594
2026-01-07 09:02:16.51	72.69	36.86	-43.3	-45.6	18.6	0.00e+00	0	42	0	552599552	58	4643
2026-01-07 09:02:17.51	72.28	36.91	-43.3	-45.7	18.6	0.00e+00	0	42	0	553648128	58	4673
2026-01-07 09:02:18.51	71.86	36.96	-43.5	-45.9	18.4	0.00e+00	0	42	0	555745280	58	4789
2026-01-07 09:02:19.50	71.45	37.01	-43.4	-45.9	18.5	0.00e+00	0	42	0	557842432	58	4765
2026-01-07 09:02:20.51	71.03	37.06	-43.6	-46.0	18.3	0.00e+00	0	42	0	559939584	58	4850
2026-01-07 09:02:21.50	70.62	37.11	-43.6	-46.1	18.3	0.00e+00	0	42	0	562036736	58	4872
2026-01-07 09:02:22.49	70.20	37.16	-43.5	-45.9	18.3	0.00e+00	0	42	0	563085312	58	4809
2026-01-07 09:02:23.49	69.78	37.20	-43.4	-45.8	18.5	0.00e+00	0	42	0	565182464	58	4728
2026-01-07 09:02:24.49	69.36	37.24	-43.4	-45.8	18.5	0.00e+00	0	42	0	567279616	58	4756
2026-01-07 09:02:25.49	68.94	37.29	-43.0	-45.3	19.0	0.00e+00	0	42	0	569376768	58	4471
2026-01-07 09:02:26.48	68.52	37.32	-43.0	-45.3	19.0	0.00e+00	0	42	0	570425344	58	4491
2026-01-07 09:02:27.48	68.09	37.36	-42.9	-45.2	19.0	0.00e+00	0	42	0	572522496	57	4674
2026-01-07 09:02:28.48	67.67	37.40	-42.9	-45.1	19.1	0.00e+00	0	42	0	574619648	57	4639
2026-01-07 09:02:29.47	67.24	37.43	-43.1	-45.4	18.9	0.00e+00	0	42	0	576716800	57	4783
2026-01-07 09:02:30.47	66.82	37.46	-43.2	-45.5	18.8	0.00e+00	0	42	0	578813952	57	4838
2026-01-07 09:02:31.47	66.39	37.49	-43.2	-45.5	18.8	0.00e+00	0	42	0	579862528	57	4847
2026-01-07 09:02:32.46	65.96	37.52	-43.5	-45.8	18.5	0.00e+00	0	42	0	581959680	57	5039
2026-01-07 09:02:33.46	65.53	37.55	-43.6	-46.0	18.3	0.00e+00	0	42	0	584056832	57	5140
2026-01-07 09:02:34.45	65.11	37.57	-43.7	-46.1	18.2	0.00e+00	0	42	0	586153984	58	4925
2026-01-07 09:02:35.45	64.68	37.60	-43.7	-46.2	18.2	0.00e+00	0	42	0	587202560	58	4946
2026-01-07 09:02:36.45	64.24	37.62	-43.8	-46.3	18.0	0.00e+00	0	42	0	589299712	58	5023
2026-01-07 09:02:37.44	63.82	37.64	-44.1	-46.7	17.7	0.00e+00	0	42	0	591396864	58	5257
2026-01-07 09:02:38.44	63.38	37.66	-44.5	-47.1	17.2	0.00e+00	0	42	0	593494016	59	5217
2026-01-07 09:02:39.44	62.95	37.67	-44.4	-47.1	17.3	0.00e+00	0	42	0	595591168	59	5196
2026-01-07 09:02:40.43	62.52	37.68	-44.5	-47.2	17.2	0.00e+00	0	42	0	596639744	59	5248
2026-01-07 09:02:41.43	62.09	37.70	-44.6	-47.3	17.0	0.00e+00	0	42	0	598736896	59	5313
2026-01-07 09:02:42.43	61.65	37.71	-44.7	-47.4	17.0	0.00e+00	0	42	0	600834048	59	5354
2026-01-07 09:02:43.43	61.22	37.72	-44.6	-47.3	17.1	0.00e+00	0	42	0	602931200	60	5016
2026-01-07 09:02:44.43	60.78	37.72	-44.7	-47.4	17.1	0.00e+00	0	42	0	603979776	60	5081
2026-01-07 09:02:45.42	60.35	37.73	-44.5	-47.2	17.2	0.00e+00	0	42	0	606076928	60	4976
2026-01-07 09:02:46.42	59.92	37.73	-44.6	-47.3	17.1	0.00e+00	0	42	0	608174080	60	5022
2026-01-07 09:02:47.42	59.48	37.73	-44.7	-47.5	16.9	0.00e+00	0	42	0	610271232	60	5125
2026-01-07 09:02:48.42	59.05	37.73	-44.7	-47.6	16.9	0.00e+00	0	42	0	612368384	60	5160
2026-01-07 09:02:49.41	58.62	37.73	-44.8	-47.6	16.9	0.00e+00	0	42	0	613416960	60	5189
2026-01-07 09:02:50.41	58.18	37.72	-44.8	-47.6	16.8	0.00e+00	0	42	0	615514112	60	5196
2026-01-07 09:02:51.41	57.75	37.72	-45.0	-47.8	16.6	0.00e+00	0	42	0	617611264	60	5327
2026-01-07 09:02:52.41	57.32	37.71	-45.0	-47.8	16.6	0.00e+00	0	42	0	619708416	60	5304
2026-01-07 09:02:53.41	56.88	37.70	-44.8	-47.6	16.9	0.00e+00	0	42	0	621805568	60	5162
2026-01-07 09:02:54.41	56.45	37.68	-44.6	-47.3	17.1	0.00e+00	0	42	0	622854144	60	5030
2026-01-07 09:02:55.40	56.02	37.67	-44.7	-47.5	16.9	0.00e+00	0	42	0	624951296	60	5132
2026-01-07 09:02:56.40	55.59	37.65	-44.9	-47.7	16.7	0.00e+00	0	42	0	627048448	60	5278
2026-01-07 09:02:57.39	55.16	37.64	-45.2	-48.2	16.2	0.00e+00	0	42	0	629145600	61	5245
2026-01-07 09:02:58.39	54.73	37.62	-45.4	-48.4	16.0	0.00e+00	0	42	0	630194176	61	5378
2026-01-07 09:02:59.39	54.30	37.60	-45.4	-48.5	15.9	0.00e+00	0	42	0	632291328	61	5446
2026-01-07 09:03:00.39	53.86	37.57	-45.5	-48.6	15.8	0.00e+00	0	42	0	634388480	61	5502
2026-01-07 09:03:01.39	53.43	37.55	-45.6	-48.7	15.7	0.00e+00	0	42	0	636485632	61	5556
2026-01-07 09:03:02.39	53.00	37.52	-45.5	-48.5	15.9	0.00e+00	0	42	0	638582784	61	5438
2026-01-07 09:03:03.39	52.58	37.49	-45.6	-48.7	15.7	0.00e+00	0	42	0	639631360	61	5555
2026-01-07 09:03:04.38	52.15	37.46	-45.7	-48.9	15.5	0.00e+00	0	42	0	641728512	62	5357
2026-01-07 09:03:05.38	51.73	37.43	-45.8	-49.1	15.3	0.00e+00	0	42	0	643825664	62	5469
2026-01-07 09:03:06.38	51.30	37.40	-45.8	-49.0	15.4	0.00e+00	0	42	0	645922816	62	5431
2026-01-07 09:03:07.38	50.87	37.36	-45.7	-48.9	15.6	0.00e+00	0	42	0	648019968	62	5362
2026-01-07 09:03:08.37	50.45	37.32	-45.9	-49.1	15.3	0.00e+00	0	42	0	649068544	62	5486
2026-01-07 09:03:09.37	50.03	37.28	-46.1	-49.4	15.0	0.00e+00	0	42	0	651165696	62	5711
2026-01-07 09:03:10.37	49.61	37.24	-46.1	-49.5	14.9	0.00e+00	0	42	0	653262848	62	5732
2026-01-07 09:03:11.37	49.19	37.20	-46.1	-49.5	15.0	0.00e+00	0	42	0	655360000	62	5750
2026-01-07 09:03:12.37	48.77	37.15	-46.0	-49.3	15.1	0.00e+00	0	42	0	656408576	62	5611
2026-01-07 09:03:13.37	48.35	37.11	-46.1	-49.5	15.0	0.00e+00	0	42	0	658505728	62	5744
2026-01-07 09:03:14.37	47.93	37.06	-46.2	-49.6	14.8	0.00e+00	0	42	0	660602880	63	5513
2026-01-07 09:03:15.36	47.52	37.01	-46.0	-49.3	15.1	0.00e+00	0	42	0	662700032	63	5315
2026-01-07 09:03:16.36	47.10	36.96	-45.8	-49.1	15.4	0.00e+00	0	42	0	664797184	63	5177
2026-01-07 09:03:17.36	46.69	36.91	-45.7	-48.8	15.6	0.00e+00	0	42	0	665845760	63	5014
2026-01-07 09:03:18.35	46.28	36.85	-45.7	-48.8	15.6	0.00e+00	0	42	0	667942912	63	5007
2026-01-07 09:03:19.35	45.87	36.80	-45.7	-48.9	15.5	0.00e+00	0	42	0	670040064	63	5067
2026-01-07 09:03:20.35	45.46	36.74	-45.5	-48.6	15.8	0.00e+00	0	42	0	672137216	63	4899
2026-01-07 09:03:21.35	45.05	36.68	-45.4	-48.4	16.1	0.00e+00	0	42	0	674234368	62	5060
2026-01-07 09:03:22.35	44.65	36.62	-45.0	-47.9	16.5	0.00e+00	0	42	0	675282944	62	4782
2026-01-07 09:03:23.35	44.24	36.56	-44.7	-47.5	17.0	0.00e+00	0	42	0	677380096	61	4822
2026-01-07 09:03:24.35	43.84	36.50	-44.8	-47.6	16.8	0.00e+00	0	42	0	679477248	61	4880
2026-01-07 09:03:25.34	43.44	36.43	-44.6	-47.3	17.1	0.00e+00	0	42	0	681574400	61	4738
2026-01-07 09:03:26.34	43.04	36.36	-44.3	-47.0	17.4	0.00e+00	0	42	0	682622976	60	4829
2026-01-07 09:03:27.34	42.64	36.30	-44.2	-46.9	17.5	0.00e+00	0	42	0	684720128	60	4765
2026-01-07 09:03:28.34	42.25	36.23	-44.0	-46.6	17.8	0.00e+00	0	42	0	686817280	60	4615
2026-01-07 09:03:29.34	41.85	36.16	-44.0	-46.5	17.8	0.00e+00	0	42	0	688914432	59	4841
2026-01-07 09:03:30.33	41.46	36.09	-43.9	-46.4	17.9	0.00e+00	0	42	0	691011584	59	4773
2026-01-07 09:03:31.33	41.07	36.01	-43.8	-46.3	18.1	0.00e+00	0	42	0	692060160	59	4718
2026-01-07 09:03:32.33	40.68	35.94	-43.7	-46.2	18.1	0.00e+00	0	42	0	694157312	59	4667
2026-01-07 09:03:33.33	40.29	35.86	-43.7	-46.2	18.1	0.00e+00	0	42	0	696254464	59	4652
2026-01-07 09:03:34.33	39.91	35.78	-43.6	-46.0	18.3	0.00e+00	0	42	0	698351616	59	4571
2026-01-07 09:03:35.33	39.52	35.70	-43.6	-46.0	18.3	0.00e+00	0	42	0	699400192	59	4583
2026-01-07 09:03:36.33	39.14	35.62	-43.7	-46.2	18.1	0.00e+00	0	42	0	701497344	59	4672
2026-01-07 09:03:37.32	38.76	35.54	-43.9	-46.4	17.9	0.00e+00	0	42	0	703594496	59	4795
2026-01-07 09:03:38.32	38.38	35.46	-44.0	-46.5	17.8	0.00e+00	0	42	0	705691648	59	4861
2026-01-07 09:03:39.31	38.01	35.38	-44.0	-46.6	17.7	0.00e+00	0	42	0	707788800	59	4882
2026-01-07 09:03:40.31	37.64	35.29	-44.1	-46.6	17.7	0.00e+00	0	42	0	708837376	59	4906
2026-01-07 09:03:41.32	37.26	35.21	-44.2	-46.9	17.5	0.00e+00	0	42	0	710934528	59	5048
2026-01-07 09:03:42.31	36.89	35.12	-44.4	-47.1	17.2	0.00e+00	0	42	0	713031680	59	5195
2026-01-07 09:03:43.31	36.52	35.03	-44.6	-47.3	17.0	0.00e+00	0	42	0	715128832	59	5337
2026-01-07 09:03:44.31	36.16	34.94	-44.7	-47.5	16.9	0.00e+00	0	42	0	717225984	60	5134
2026-01-07 09:03:45.30	35.80	34.85	-44.9	-47.8	16.6	0.00e+00	0	42	0	718274560	60	5300
2026-01-07 09:03:46.30	35.43	34.76	-44.9	-47.9	16.5	0.00e+00	0	42	0	720371712	60	5346
2026-01-07 09:03:47.30	35.07	34.67	-44.9	-47.9	16.6	0.00e+00	0	42	0	722468864	60	5352
2026-01-07 09:03:48.30	34.72	34.58	-44.9	-47.8	16.7	0.00e+00	0	42	0	724566016	60	5295
2026-01-07 09:03:49.30	34.36	34.48	-44.9	-47.7	16.7	0.00e+00	0	42	0	726663168	60	5259
2026-01-07 09:03:50.30	34.01	34.39	-44.9	-47.8	16.6	0.00e+00	0	42	0	727711744	60	5334
2026-01-07 09:03:51.30	33.65	34.29	-44.9	-47.8	16.7	0.00e+00	0	42	0	729808896	60	5287
2026-01-07 09:03:52.30	33.30	34.19	-44.9	-47.7	16.7	0.00e+00	0	42	0	731906048	60	5253
2026-01-07 09:03:53.31	32.95	34.09	-44.8	-47.7	16.7	0.00e+00	0	42	0	734003200	60	5235
2026-01-07 09:03:54.31	32.61	33.99	-44.9	-47.7	16.6	0.00e+00	0	42	0	735051776	60	5278
2026-01-07 09:03:55.31	32.26	33.89	-44.9	-47.8	16.6	0.00e+00	0	42	0	737148928	60	5310
2026-01-07 09:03:56.31	31.92	33.79	-44.9	-47.8	16.6	0.00e+00	0	42	0	739246080	60	5319
2026-01-07 09:03:57.31	31.58	33.69	-45.0	-47.9	16.5	0.00e+00	0	42	0	741343232	60	5349
2026-01-07 09:03:58.31	31.24	33.59	-45.1	-48.1	16.3	0.00e+00	0	42	0	743440384	61	5176
2026-01-07 09:03:59.32	30.91	33.49	-45.1	-48.0	16.4	0.00e+00	0	42	0	744488960	61	5140
2026-01-07 09:04:00.31	30.58	33.38	-45.2	-48.1	16.3	0.00e+00	0	42	0	746586112	61	5209
2026-01-07 09:04:01.32	30.24	33.28	-45.2	-48.2	16.2	0.00e+00	0	42	0	748683264	61	5239
2026-01-07 09:04:02.32	29.91	33.17	-45.0	-48.0	16.4	0.00e+00	0	42	0	750780416	61	5101
2026-01-07 09:04:03.32	29.59	33.07	-44.9	-47.8	16.6	0.00e+00	0	42	0	752877568	61	5023
2026-01-07 09:04:04.33	29.26	32.96	-44.9	-47.9	16.6	0.00e+00	0	42	0	753926144	61	5046
2026-01-07 09:04:05.33	28.94	32.85	-44.8	-47.7	16.7	0.00e+00	0	42	0	756023296	61	4959
2026-01-07 09:04:06.32	28.62	32.74	-44.9	-47.9	16.5	0.00e+00	0	42	0	758120448	61	5074
2026-01-07 09:04:07.33	28.30	32.63	-44.9	-48.0	16.4	0.00e+00	0	42	0	760217600	61	5124
2026-01-07 09:04:08.33	27.98	32.52	-45.2	-48.4	16.0	0.00e+00	0	42	0	762314752	61	5393
2026-01-07 09:04:09.33	27.67	32.41	-45.5	-48.8	15.6	0.00e+00	0	42	0	763363328	61	5611
2026-01-07 09:04:10.34	27.36	32.30	-45.6	-49.0	15.5	0.00e+00	0	42	0	765460480	61	5725
2026-01-07 09:04:11.34	27.05	32.19	-45.5	-48.7	15.7	0.00e+00	0	42	0	767557632	61	5543
2026-01-07 09:04:12.35	26.74	32.08	-45.5	-48.7	15.7	0.00e+00	0	42	0	769654784	61	5533
2026-01-07 09:04:13.35	26.43	31.97	-45.5	-48.7	15.7	0.00e+00	0	42	0	771751936	61	5539
2026-01-07 09:04:14.36	26.13	31.85	-45.7	-49.0	15.4	7.00e-07	0	42	0	772800512	62	5418
2026-01-07 09:04:15.36	25.83	31.74	-45.7	-49.1	15.3	0.00e+00	0	42	0	774897664	62	5480
2026-01-07 09:04:16.36	25.53	31.63	-45.9	-49.3	15.1	0.00e+00	0	42	0	776994816	62	5641
2026-01-07 09:04:17.36	25.23	31.51	-46.0	-49.5	14.9	0.00e+00	0	42	0	779091968	62	5741
2026-01-07 09:04:18.36	24.94	31.40	-45.9	-49.5	14.9	0.00e+00	0	42	0	780140544	62	5748
2026-01-07 09:04:19.37	24.64	31.28	-45.8	-49.4	15.1	0.00e+00	0	42	0	782237696	62	5659
2026-01-07 09:04:20.37	24.35	31.17	-45.9	-49.4	15.0	0.00e+00	0	42	0	784334848	62	5711
2026-01-07 09:04:21.38	24.06	31.05	-45.9	-49.4	14.9	0.00e+00	0	42	0	786432000	62	5713
2026-01-07 09:04:22.38	23.77	30.94	-46.0	-49.6	14.8	0.00e+00	0	42	0	788529152	62	5821
2026-01-07 09:04:23.38	23.49	30.82	-46.0	-49.6	14.9	0.00e+00	0	42	0	789577728	62	5797
2026-01-07 09:04:24.39	23.21	30.70	-45.9	-49.5	15.0	0.00e+00	0	42	0	791674880	62	5728
2026-01-07 09:04:25.39	22.93	30.59	-45.8	-49.2	15.2	0.00e+00	0	42	0	793772032	62	5547
2026-01-07 09:04:26.40	22.64	30.47	-45.7	-49.0	15.4	0.00e+00	0	42	0	795869184	62	5409
2026-01-07 09:04:27.40	22.37	30.35	-45.6	-48.8	15.6	0.00e+00	0	42	0	797966336	62	5295
2026-01-07 09:04:28.40	22.10	30.23	-45.5	-48.7	15.8	0.00e+00	0	42	0	799014912	62	5229
2026-01-07 09:04:29.41	21.82	30.11	-45.4	-48.5	15.9	0.00e+00	0	42	0	801112064	62	5140
2026-01-07 09:04:30.41	21.55	30.00	-45.5	-48.7	15.8	0.00e+00	0	42	0	803209216	62	5228
2026-01-07 09:04:31.41	21.28	29.88	-45.6	-48.8	15.7	0.00e+00	0	42	0	805306368	62	5282
2026-01-07 09:04:32.41	21.02	29.76	-45.3	-48.4	16.0	0.00e+00	0	42	0	807403520	62	5047
2026-01-07 09:04:33.41	20.75	29.64	-45.2	-48.2	16.1	0.00e+00	0	42	0	808452096	62	4977
2026-01-07 09:04:34.42	20.49	29.52	-45.1	-48.2	16.3	0.00e+00	0	42	0	810549248	62	4937
2026-01-07 09:04:35.42	20.23	29.40	-45.0	-47.9	16.5	0.00e+00	0	42	0	812646400	61	5084
2026-01-07 09:04:36.42	19.97	29.28	-45.0	-47.9	16.5	0.00e+00	0	42	0	814743552	61	5077
2026-01-07 09:04:37.43	19.71	29.16	-44.9	-47.8	16.5	0.00e+00	0	42	0	816840704	61	5008
2026-01-07 09:04:38.43	19.46	29.04	-44.8	-47.7	16.7	0.00e+00	0	42	0	817889280	61	4935
2026-01-07 09:04:39.43	19.21	28.92	-44.6	-47.4	16.9	0.00e+00	0	42	0	819986432	61	4804
2026-01-07 09:04:40.43	18.96	28.80	-44.5	-47.4	17.0	0.00e+00	0	42	0	822083584	61	4768
2026-01-07 09:04:41.44	18.71	28.68	-44.5	-47.4	17.0	0.00e+00	0	42	0	824180736	60	5057
2026-01-07 09:04:42.44	18.46	28.56	-44.6	-47.4	16.9	0.00e+00	0	42	0	826277888	60	5089
2026-01-07 09:04:43.44	18.22	28.44	-44.5	-47.4	17.0	0.00e+00	0	42	0	827326464	60	5077
2026-01-07 09:04:44.44	17.97	28.32	-44.3	-47.2	17.2	0.00e+00	0	42	0	829423616	60	4932
2026-01-07 09:04:45.44	17.73	28.20	-44.4	-47.2	17.2	0.00e+00	0	42	0	831520768	60	4939
2026-01-07 09:04:46.45	17.49	28.08	-44.3	-47.1	17.2	0.00e+00	0	42	0	833617920	60	4924
2026-01-07 09:04:47.45	17.25	27.96	-44.3	-47.1	17.2	0.00e+00	0	42	0	834666496	60	4915
2026-01-07 09:04:48.46	17.02	27.84	-44.4	-47.1	17.2	0.00e+00	0	42	0	836763648	60	4903
2026-01-07 09:04:49.46	16.78	27.72	-44.3	-47.0	17.4	0.00e+00	0	42	0	838860800	60	4820
2026-01-07 09:04:50.46	16.55	27.60	-44.2	-46.9	17.4	0.00e+00	0	42	0	840957952	60	4774
2026-01-07 09:04:51.46	16.32	27.48	-44.2	-46.8	17.5	0.00e+00	0	42	0	843055104	60	4741
2026-01-07 09:04:52.46	16.09	27.36	-44.2	-46.8	17.5	0.00e+00	0	42	0	844103680	60	4758
2026-01-07 09:04:53.47	15.86	27.24	-44.2	-46.9	17.5	0.00e+00	0	42	0	846200832	60	4784
2026-01-07 09:04:54.47	15.64	27.12	-44.2	-46.8	17.5	0.00e+00	0	42	0	848297984	60	4753
2026-01-07 09:04:55.47	15.42	27.00	-44.1	-46.8	17.6	0.00e+00	0	42	0	850395136	60	4729
2026-01-07 09:04:56.48	15.19	26.88	-44.2	-46.8	17.5	0.00e+00	0	42	0	852492288	60	4750
2026-01-07 09:04:57.48	14.97	26.76	-44.2	-46.8	17.5	0.00e+00	0	42	0	853540864	60	4757
2026-01-07 09:04:58.48	14.76	26.64	-44.2	-46.8	17.5	0.00e+00	0	42	0	855638016	60	4751
2026-01-07 09:04:59.49	14.54	26.52	-44.2	-46.9	17.4	0.00e+00	0	42	0	857735168	60	4767
2026-01-07 09:05:00.49	14.32	26.40	-44.2	-46.9	17.4	0.00e+00	0	42	0	859832320	60	4801
2026-01-07 09:05:01.49	14.11	26.28	-44.2	-46.9	17.4	0.00e+00	0	42	0	861929472	60	4778
2026-01-07 09:05:02.50	13.90	26.16	-44.3	-47.1	17.3	0.00e+00	0	42	0	862978048	60	4875
2026-01-07 09:05:03.50	13.69	26.04	-44.2	-47.0	17.3	0.00e+00	0	42	0	865075200	60	4831
2026-01-07 09:05:04.50	13.48	25.92	-44.0	-46.8	17.5	0.00e+00	0	42	0	867172352	60	4713
2026-01-07 09:05:05.51	13.27	25.80	-44.0	-46.7	17.5	0.00e+00	0	42	0	869269504	60	4702
2026-01-07 09:05:06.51	13.06	25.68	-44.0	-46.7	17.6	0.00e+00	0	42	0	871366656	60	4696
2026-01-07 09:05:07.52	12.86	25.56	-44.0	-46.7	17.6	0.00e+00	0	42	0	872415232	60	4666
2026-01-07 09:05:08.52	12.66	25.44	-44.0	-46.7	17.6	0.00e+00	0	42	0	874512384	60	4670
2026-01-07 09:05:09.52	12.46	25.32	-44.1	-46.7	17.6	0.00e+00	0	42	0	876609536	60	4689
2026-01-07 09:05:10.53	12.25	25.20	-44.1	-46.7	17.6	0.00e+00	0	42	0	878706688	60	4692
2026-01-07 09:05:11.53	12.06	25.08	-44.1	-46.8	17.5	0.00e+00	0	42	0	880803840	60	4712
2026-01-07 09:05:12.53	11.86	24.97	-44.1	-46.7	17.6	0.00e+00	0	42	0	881852416	60	4680
2026-01-07 09:05:13.54	11.67	24.85	-44.0	-46.5	17.7	0.00e+00	0	41	0	883949568	59	4866
2026-01-07 09:05:14.54	11.47	24.73	-44.0	-46.6	17.6	0.00e+00	0	42	0	886046720	59	4904
2026-01-07 09:05:15.54	11.28	24.61	-44.0	-46.6	17.6	0.00e+00	0	42	0	888143872	59	4905
2026-01-07 09:05:16.55	11.09	24.49	-43.9	-46.5	17.7	0.00e+00	0	42	0	890241024	59	4819
2026-01-07 09:05:17.55	10.90	24.38	-44.0	-46.6	17.7	0.00e+00	0	41	0	891289600	59	4898
2026-01-07 09:05:18.55	10.71	24.26	-44.0	-46.6	17.6	0.00e+00	0	42	0	893386752	59	4911
2026-01-07 09:05:19.56	10.53	24.14	-44.2	-46.8	17.4	0.00e+00	0	42	0	895483904	59	5036
2026-01-07 09:05:20.56	10.34	24.02	-44.2	-47.0	17.2	0.00e+00	0	42	0	897581056	59	5107
2026-01-07 09:05:21.56	10.16	23.91	-44.3	-47.1	17.1	0.00e+00	0	42	0	898629632	59	5170
2026-01-07 09:05:22.57	9.98	23.79	-44.3	-47.1	17.1	0.00e+00	0	42	0	900726784	59	5185
2026-01-07 09:05:23.58	9.79	23.67	-44.2	-46.9	17.3	0.00e+00	0	42	0	902823936	59	5084
2026-01-07 09:05:24.58	9.61	23.56	-44.2	-47.0	17.2	0.00e+00	0	42	0	904921088	59	5107
2026-01-07 09:05:25.58	9.44	23.44	-44.3	-47.1	17.1	0.00e+00	0	42	0	907018240	59	5184
2026-01-07 09:05:26.58	9.26	23.33	-44.2	-47.0	17.3	0.00e+00	0	42	0	908066816	59	5103
2026-01-07 09:05:27.58	9.09	23.21	-44.2	-46.9	17.3	0.00e+00	0	42	0	910163968	59	5078
2026-01-07 09:05:28.59	8.91	23.09	-44.4	-47.2	17.0	0.00e+00	0	42	0	912261120	59	5245
2026-01-07 09:05:29.59	8.74	22.98	-44.5	-47.3	16.9	0.00e+00	0	42	0	914358272	59	5329
2026-01-07 09:05:30.59	8.57	22.87	-44.6	-47.5	16.7	0.00e+00	0	42	0	916455424	59	5455
2026-01-07 09:05:31.60	8.40	22.75	-44.6	-47.7	16.6	0.00e+00	0	42	0	917504000	60	5230
2026-01-07 09:05:32.60	8.23	22.64	-44.8	-47.9	16.4	0.00e+00	0	42	0	919601152	60	5353
2026-01-07 09:05:33.60	8.06	22.52	-44.8	-47.9	16.3	0.00e+00	0	42	0	921698304	60	5376
2026-01-07 09:05:34.60	7.90	22.41	-44.8	-48.0	16.3	0.00e+00	0	42	0	923795456	60	5439
2026-01-07 09:05:35.61	7.73	22.29	-44.7	-48.0	16.2	0.00e+00	0	42	0	925892608	60	5450
2026-01-07 09:05:36.61	7.57	22.18	-44.6	-47.8	16.4	0.00e+00	0	42	0	926941184	60	5336
2026-01-07 09:05:37.61	7.40	22.07	-44.5	-47.9	16.4	0.00e+00	0	41	0	929038336	60	5343
2026-01-07 09:05:38.62	7.24	21.95	-44.6	-48.0	16.3	0.00e+00	0	42	0	931135488	60	5413
2026-01-07 09:05:39.62	7.08	21.84	-44.7	-47.9	16.3	0.00e+00	0	42	0	933232640	60	5393
2026-01-07 09:05:40.63	6.92	21.73	-44.7	-47.9	16.3	0.00e+00	0	42	0	935329792	60	5368
2026-01-07 09:05:41.63	6.76	21.62	-44.8	-47.9	16.3	0.00e+00	0	41	0	936378368	60	5380
2026-01-07 09:05:42.63	6.61	21.51	-44.7	-47.7	16.5	0.00e+00	0	42	0	938475520	60	5277
2026-01-07 09:05:43.64	6.45	21.39	-44.8	-47.8	16.4	0.00e+00	0	42	0	940572672	60	5325
2026-01-07 09:05:44.64	6.30	21.28	-44.8	-47.7	16.5	0.00e+00	0	42	0	942669824	60	5265
2026-01-07 09:05:45.65	6.14	21.17	-44.7	-47.8	16.5	0.00e+00	0	42	0	944766976	60	5284
2026-01-07 09:05:46.65	5.99	21.06	-44.7	-47.7	16.5	0.00e+00	0	42	0	945815552	60	5250
2026-01-07 09:05:47.65	5.84	20.95	-44.5	-47.6	16.6	0.00e+00	0	42	0	947912704	60	5179
2026-01-07 09:05:48.65	5.69	20.84	-44.6	-47.6	16.6	0.00e+00	0	42	0	950009856	60	5215
2026-01-07 09:05:49.66	5.54	20.73	-44.6	-47.7	16.5	0.00e+00	0	42	0	952107008	60	5244
2026-01-07 09:05:50.66	5.39	20.62	-44.6	-47.8	16.4	0.00e+00	0	41	0	954204160	60	5303
2026-01-07 09:05:51.66	5.25	20.51	-44.7	-47.8	16.4	0.00e+00	0	42	0	955252736	60	5331
2026-01-07 09:05:52.67	5.10	20.40	-44.9	-48.0	16.2	0.00e+00	0	42	0	957349888	60	5462
2026-01-07 09:05:53.67	4.96	20.29	-44.9	-48.0	16.2	0.00e+00	0	41	0	959447040	60	5444
2026-01-07 09:05:54.67	4.81	20.18	-45.1	-48.1	16.1	0.00e+00	0	42	0	961544192	60	5524
2026-01-07 09:05:55.67	4.67	20.08	-45.1	-48.1	16.1	0.00e+00	0	42	0	962592768	60	5527
2026-01-07 09:05:56.68	4.53	19.97	-45.1	-48.3	16.0	0.00e+00	0	41	0	964689920	60	5605
2026-01-07 09:05:57.68	4.39	19.86	-45.0	-48.1	16.1	0.00e+00	0	42	0	966787072	60	5517
2026-01-07 09:05:58.68	4.25	19.75	-44.9	-48.1	16.1	0.00e+00	0	42	0	968884224	60	5484
2026-01-07 09:05:59.69	4.11	19.65	-44.9	-48.2	16.1	0.00e+00	0	42	0	970981376	60	5547
2026-01-07 09:06:00.69	3.97	19.54	-44.9	-48.2	16.0	0.00e+00	0	42	0	972029952	60	5571
2026-01-07 09:06:01.69	3.84	19.43	-44.7	-47.9	16.3	0.00e+00	0	42	0	974127104	60	5395
2026-01-07 09:06:02.69	3.70	19.33	-44.6	-47.8	16.4	0.00e+00	0	42	0	976224256	60	5313
2026-01-07 09:06:03.69	3.57	19.22	-44.7	-47.8	16.4	0.00e+00	0	41	0	978321408	60	5314
2026-01-07 09:06:04.70	3.43	19.11	-44.6	-47.7	16.5	0.00e+00	0	42	0	980418560	60	5231
2026-01-07 09:06:05.70	3.30	19.01	-44.7	-47.8	16.4	0.00e+00	0	41	0	981467136	60	5308
2026-01-07 09:06:06.71	3.17	18.90	-44.7	-47.8	16.5	0.00e+00	0	41	0	983564288	60	5282
2026-01-07 09:06:07.71	3.04	18.80	-44.5	-47.6	16.5	0.00e+00	0	42	0	985661440	60	5215
2026-01-07 09:06:08.72	2.91	18.69	-44.5	-47.6	16.6	0.00e+00	0	42	0	987758592	60	5169
2026-01-07 09:06:09.72	2.78	18.59	-44.5	-47.7	16.5	0.00e+00	0	42	0	989855744	60	5220
2026-01-07 09:06:10.72	2.65	18.49	-44.5	-47.7	16.6	0.00e+00	0	42	0	990904320	60	5220
2026-01-07 09:06:11.72	2.52	18.38	-44.5	-47.6	16.6	0.00e+00	0	42	0	993001472	60	5208
2026-01-07 09:06:12.73	2.40	18.28	-44.6	-47.8	16.4	0.00e+00	0	42	0	995098624	60	5296
2026-01-07 09:06:13.73	2.27	18.18	-44.8	-47.9	16.3	0.00e+00	0	42	0	997195776	60	5347
2026-01-07 09:06:14.73	2.15	18.07	-44.8	-47.8	16.3	0.00e+00	0	41	0	999292928	60	5338
2026-01-07 09:06:15.73	2.02	17.97	-44.9	-47.9	16.3	0.00e+00	0	42	0	1000341504	60	5382
2026-01-07 09:06:16.74	1.90	17.87	-44.9	-48.0	16.2	0.00e+00	0	42	0	1002438656	60	5410
2026-01-07 09:06:17.74	1.78	17.77	-44.8	-48.0	16.2	0.00e+00	0	41	0	1004535808	60	5411
2026-01-07 09:06:18.74	1.66	17.67	-44.8	-48.1	16.1	0.00e+00	0	41	0	1006632960	60	5467
2026-01-07 09:06:19.74	1.54	17.56	-44.6	-47.9	16.2	0.00e+00	0	41	0	1008730112	60	5399
2026-01-07 09:06:20.75	1.42	17.46	-44.5	-47.9	16.3	0.00e+00	0	42	0	1009778688	60	5345
2026-01-07 09:06:21.75	1.30	17.36	-44.5	-47.9	16.3	0.00e+00	0	42	0	1011875840	60	5353
2026-01-07 09:06:22.75	1.18	17.26	-44.4	-47.7	16.4	0.00e+00	0	42	0	1013972992	60	5274
2026-01-07 09:06:23.76	1.07	17.16	-44.4	-47.7	16.5	0.00e+00	0	42	0	1016070144	60	5226
2026-01-07 09:06:24.76	0.95	17.06	-44.5	-47.8	16.4	0.00e+00	0	42	0	1017118720	60	5302
2026-01-07 09:06:25.76	0.83	16.96	-44.7	-47.9	16.2	0.00e+00	0	42	0	1019215872	60	5388
2026-01-07 09:06:26.76	0.72	16.86	-44.7	-47.9	16.3	0.00e+00	0	41	0	1021313024	60	5361
2026-01-07 09:06:27.77	0.61	16.76	-44.7	-47.8	16.4	0.00e+00	0	42	0	1023410176	60	5295
2026-01-07 09:06:28.77	0.49	16.66	-44.7	-47.8	16.4	0.00e+00	0	41	0	1025507328	60	5288
2026-01-07 09:06:29.77	0.38	16.57	-44.5	-47.7	16.5	0.00e+00	0	42	0	1026555904	60	5227
2026-01-07 09:06:30.77	0.27	16.47	-44.3	-47.6	16.5	0.00e+00	0	42	0	1028653056	60	5201
2026-01-07 09:06:31.78	0.16	16.37	-44.2	-47.6	16.5	0.00e+00	0	41	0	1030750208	60	5175
2026-01-07 09:06:32.78	0.05	16.27	-44.1	-47.7	16.5	0.00e+00	0	42	0	1032847360	60	5233
2026-01-07 09:06:33.78	359.94	16.17	-44.0	-47.5	16.6	0.00e+00	0	42	0	1034944512	60	5131
2026-01-07 09:06:34.79	359.83	16.08	-44.0	-47.4	16.7	0.00e+00	0	42	0	1035993088	60	5095
2026-01-07 09:06:35.79	359.72	15.98	-44.2	-47.4	16.7	0.00e+00	0	41	0	1038090240	60	5092
2026-01-07 09:06:36.79	359.61	15.88	-44.4	-47.6	16.5	0.00e+00	0	42	0	1040187392	60	5173
2026-01-07 09:06:37.80	359.51	15.79	-44.4	-47.5	16.6	0.00e+00	0	41	0	1042284544	60	5141
2026-01-07 09:06:38.80	359.40	15.69	-44.5	-47.6	16.6	0.00e+00	0	42	0	1044381696	60	5170
2026-01-07 09:06:39.80	359.30	15.60	-44.6	-47.7	16.4	0.00e+00	0	42	0	1045430272	60	5264
2026-01-07 09:06:40.81	359.19	15.50	-44.7	-47.8	16.3	0.00e+00	0	42	0	1047527424	60	5339
2026-01-07 09:06:41.81	359.09	15.40	-44.7	-47.9	16.2	0.00e+00	0	42	0	1049624576	60	5352
2026-01-07 09:06:42.81	358.99	15.31	-44.7	-48.0	16.1	0.00e+00	0	42	0	1051721728	60	5453
2026-01-07 09:06:43.82	358.88	15.22	-44.8	-48.2	15.9	0.00e+00	0	42	0	1053818880	60	5553
2026-01-07 09:06:44.82	358.78	15.12	-44.9	-48.2	15.9	0.00e+00	0	42	0	1054867456	60	5578
2026-01-07 09:06:45.82	358.68	15.03	-44.8	-48.2	15.9	0.00e+00	0	41	0	1056964608	60	5555
2026-01-07 09:06:46.83	358.58	14.93	-45.0	-48.4	15.7	0.00e+00	0	42	0	1059061760	60	5666
2026-01-07 09:06:47.83	358.48	14.84	-45.1	-48.4	15.7	0.00e+00	0	42	0	1061158912	60	5665
2026-01-07 09:06:48.83	358.38	14.75	-45.1	-48.3	15.8	0.00e+00	0	42	0	1063256064	60	5593
2026-01-07 09:06:49.83	358.28	14.65	-45.2	-48.4	15.7	0.00e+00	0	42	0	1064304640	61	5356
2026-01-07 09:06:50.84	358.19	14.56	-45.1	-48.3	15.9	0.00e+00	0	41	0	1066401792	61	5288
2026-01-07 09:06:51.84	358.09	14.47	-45.0	-48.2	15.9	0.00e+00	0	41	0	1068498944	61	5260
2026-01-07 09:06:52.85	357.99	14.38	-45.0	-48.2	15.9	0.00e+00	0	42	0	1070596096	61	5231
2026-01-07 09:06:53.85	357.90	14.28	-45.0	-48.2	15.9	0.00e+00	0	41	0	1072693248	61	5255
2026-01-07 09:06:54.85	357.80	14.19	-45.0	-48.2	15.9	0.00e+00	0	42	0	1073741824	61	5240
2026-01-07 09:06:55.86	357.71	14.10	-45.0	-48.2	15.9	0.00e+00	0	42	0	1075838976	61	5250
2026-01-07 09:06:56.86	357.61	14.01	-45.1	-48.3	15.8	0.00e+00	0	41	0	1077936128	61	5314
2026-01-07 09:06:57.86	357.52	13.92	-45.1	-48.4	15.7	0.00e+00	0	42	0	1080033280	61	5341
2026-01-07 09:06:58.86	357.43	13.83	-45.1	-48.3	15.7	0.00e+00	0	41	0	1081081856	61	5322
2026-01-07 09:06:59.87	357.33	13.74	-45.2	-48.5	15.6	0.00e+00	0	42	0	1083179008	61	5439
2026-01-07 09:07:00.87	357.24	13.65	-45.3	-48.6	15.5	0.00e+00	0	42	0	1085276160	61	5496
2026-01-07 09:07:01.87	357.15	13.56	-45.3	-48.7	15.3	0.00e+00	0	42	0	1087373312	61	5570
2026-01-07 09:07:02.88	357.06	13.47	-45.4	-48.9	15.2	0.00e+00	0	42	0	1089470464	61	5657
2026-01-07 09:07:03.88	356.97	13.38	-45.4	-48.9	15.1	0.00e+00	0	42	0	1090519040	61	5704
2026-01-07 09:07:04.88	356.88	13.29	-45.3	-48.9	15.1	0.00e+00	0	41	0	1092616192	61	5704
2026-01-07 09:07:05.88	356.79	13.20	-45.4	-49.1	14.9	0.00e+00	0	42	0	1094713344	61	5840
2026-01-07 09:07:06.88	356.70	13.11	-45.3	-49.0	15.0	0.00e+00	0	42	0	1096810496	61	5787
2026-01-07 09:07:07.89	356.62	13.02	-45.4	-49.2	14.8	7.00e-07	0	42	0	1098907648	61	5910
2026-01-07 09:07:08.89	356.53	12.94	-45.5	-49.3	14.7	0.00e+00	0	41	0	1099956224	61	5991
2026-01-07 09:07:09.89	356.44	12.85	-45.2	-49.2	14.9	0.00e+00	0	42	0	1102053376	61	5867
2026-01-07 09:07:10.89	356.36	12.76	-45.2	-49.2	14.8	0.00e+00	0	41	0	1104150528	61	5902
2026-01-07 09:07:11.90	356.27	12.67	-45.2	-49.3	14.7	0.00e+00	0	41	0	1106247680	61	5974
2026-01-07 09:07:12.90	356.19	12.59	-45.1	-49.3	14.7	7.00e-07	0	41	0	1108344832	61	5959
2026-01-07 09:07:13.90	356.10	12.50	-45.0	-49.3	14.7	0.00e+00	0	42	0	1109393408	61	5964
2026-01-07 09:07:14.91	356.02	12.41	-45.0	-49.3	14.7	0.00e+00	0	41	0	1111490560	61	5989
2026-01-07 09:07:15.91	355.93	12.33	-45.0	-49.4	14.7	0.00e+00	0	41	0	1113587712	61	6017
2026-01-07 09:07:16.91	355.85	12.24	-45.0	-49.5	14.5	0.00e+00	0	42	0	1115684864	61	6116
2026-01-07 09:07:17.92	355.77	12.15	-45.0	-49.7	14.4	0.00e+00	0	42	0	1117782016	61	6220
2026-01-07 09:07:18.92	355.69	12.07	-44.9	-49.5	14.5	7.00e-07	0	41	0	1118830592	61	6080
2026-01-07 09:07:19.92	355.60	11.98	-44.9	-49.6	14.4	1.50e-06	0	42	0	1120927744	61	6156
2026-01-07 09:07:20.92	355.52	11.90	-45.0	-49.7	14.3	0.00e+00	0	41	0	1123024896	61	6259
2026-01-07 09:07:21.93	355.44	11.81	-45.0	-49.7	14.3	7.00e-07	0	41	0	1125122048	61	6236
2026-01-07 09:07:22.93	355.36	11.73	-45.1	-49.7	14.3	0.00e+00	0	42	0	1126170624	61	6258
2026-01-07 09:07:23.93	355.28	11.65	-45.0	-49.6	14.4	0.00e+00	0	42	0	1128267776	61	6161
2026-01-07 09:07:24.93	355.20	11.56	-45.1	-49.8	14.2	3.80e-06	0	41	0	1130364928	61	6320
2026-01-07 09:07:25.93	355.13	11.48	-45.0	-49.6	14.4	1.50e-06	0	41	0	1132462080	61	6177
2026-01-07 09:07:26.94	355.05	11.39	-45.1	-49.8	14.2	7.00e-07	0	42	0	1134559232	61	6299
2026-01-07 09:07:27.94	354.97	11.31	-45.1	-49.7	14.2	7.00e-07	0	42	0	1135607808	61	6263
2026-01-07 09:07:28.94	354.89	11.23	-45.1	-49.8	14.2	1.50e-06	0	42	0	1137704960	61	6276
2026-01-07 09:07:29.95	354.82	11.14	-45.2	-49.8	14.2	4.50e-06	0	41	0	1139802112	61	6321
2026-01-07 09:07:30.95	354.74	11.06	-45.0	-49.7	14.3	3.00e-06	0	41	0	1141899264	61	6224
2026-01-07 09:07:31.95	354.66	10.98	-45.0	-49.8	14.2	1.50e-06	0	42	0	1143996416	61	6283
2026-01-07 09:07:32.95	354.59	10.90	-44.9	-49.9	14.0	2.20e-06	0	42	0	1145044992	61	6382
2026-01-07 09:07:33.96	354.51	10.81	-44.7	-49.7	14.3	0.00e+00	0	41	0	1147142144	61	6211
2026-01-07 09:07:34.96	354.44	10.73	-44.6	-49.8	14.1	7.00e-07	0	41	0	1149239296	61	6306
2026-01-07 09:07:35.96	354.37	10.65	-44.5	-49.8	14.1	3.00e-06	0	41	0	1151336448	60	6685
2026-01-07 09:07:36.96	354.29	10.57	-44.4	-49.7	14.2	7.00e-07	0	41	0	1153433600	60	6591
2026-01-07 09:07:37.97	354.22	10.49	-44.4	-49.9	14.0	0.00e+00	0	42	0	1154482176	60	6763
2026-01-07 09:07:38.97	354.15	10.41	-44.4	-49.7	14.2	1.50e-06	0	41	0	1156579328	60	6613
2026-01-07 09:07:39.97	354.07	10.33	-44.5	-49.7	14.2	2.20e-06	0	42	0	1158676480	60	6627
2026-01-07 09:07:40.97	354.00	10.25	-44.5	-49.7	14.2	1.50e-06	0	42	0	1160773632	60	6575
2026-01-07 09:07:41.98	353.93	10.17	-44.6	-49.8	14.1	3.00e-06	0	42	0	1162870784	60	6716
2026-01-07 09:07:42.98	353.86	10.09	-44.6	-49.9	14.0	2.20e-06	0	42	0	1163919360	60	6751
2026-01-07 09:07:43.99	353.79	10.00	-44.6	-49.9	14.0	3.80e-06	0	41	0	1166016512	60	6732
2026-01-07 09:07:44.99	353.72	9.93	-44.3	-49.9	14.0	2.20e-06	0	41	0	1168113664	60	6763
2026-01-07 09:07:45.99	353.65	9.85	-44.2	-49.9	14.0	1.50e-06	0	41	0	1170210816	60	6764
2026-01-07 09:07:47.00	353.58	9.77	-44.3	-50.2	13.7	3.80e-06	0	41	0	1172307968	60	6985
2026-01-07 09:07:48.00	353.51	9.69	-44.1	-50.3	13.6	8.30e-06	0	41	0	1173356544	60	7071
2026-01-07 09:07:49.00	353.44	9.61	-44.0	-50.0	13.8	7.60e-06	0	41	0	1175453696	59	7274
2026-01-07 09:07:50.00	353.37	9.53	-43.9	-50.1	13.7	5.30e-06	0	41	0	1177550848	59	7307
2026-01-07 09:07:51.01	353.30	9.45	-44.1	-50.2	13.6	6.80e-06	0	41	0	1179648000	59	7374
2026-01-07 09:07:52.01	353.24	9.37	-44.2	-50.2	13.6	4.50e-06	0	41	0	1180696576	59	7416
2026-01-07 09:07:53.01	353.17	9.30	-44.3	-50.2	13.5	6.10e-06	0	41	0	1182793728	59	7427
2026-01-07 09:07:54.02	353.10	9.22	-44.5	-50.2	13.5	9.10e-06	0	41	0	1184890880	59	7446
2026-01-07 09:07:55.02	353.04	9.14	-44.6	-50.1	13.7	6.10e-06	0	41	0	1186988032	59	7312
2026-01-07 09:07:56.03	352.97	9.06	-44.6	-50.4	13.5	4.50e-06	0	41	0	1189085184	60	7148
2026-01-07 09:07:57.03	352.90	8.99	-47.2	-64.1	3.8	2.98e-02	0	41	104	1190133760	64	27420
2026-01-07 09:07:58.03	352.84	8.91	-47.8	-65.2	3.8	1.49e+00	0	41	104	1190133760	67	26308
2026-01-07 09:07:59.04	352.77	8.83	-49.7	-65.5	3.8	1.49e+00	0	41	104	1190133760	70	22835
2026-01-07 09:08:00.04	352.71	8.75	-49.1	-65.6	3.8	1.49e+00	0	41	104	1190133760	69	24427
2026-01-07 09:08:01.04	352.64	8.68	-49.7	-65.6	3.8	1.49e+00	0	42	104	1190133760	71	21861
2026-01-07 09:08:02.05	352.58	8.60	-50.3	-65.7	3.8	1.49e+00	0	41	104	1190133760	71	22009
2026-01-07 09:08:03.05	352.52	8.53	-50.3	-65.7	3.8	1.49e+00	0	41	104	1190133760	71	22089
2026-01-07 09:08:04.05	352.45	8.45	-50.4	-65.7	3.8	1.49e+00	0	41	104	1190133760	71	22209
2026-01-07 09:08:05.06	352.39	8.37	-50.2	-65.7	3.8	1.49e+00	0	41	104	1190133760	71	22206
2026-01-07 09:08:06.06	352.33	8.30	-50.3	-65.8	3.8	1.49e+00	0	41	104	1190133760	71	22287
2026-01-07 09:08:07.06	352.27	8.22	-50.4	-65.7	3.8	1.49e+00	0	41	104	1190133760	71	22234
2026-01-07 09:08:08.06	352.21	8.15	-50.4	-65.8	3.8	1.49e+00	0	41	104	1190133760	71	22394
2026-01-07 09:08:09.07	352.14	8.07	-50.3	-65.8	3.8	1.49e+00	0	41	104	1190133760	71	22288
2026-01-07 09:08:10.07	352.08	8.00	-50.5	-65.8	3.8	1.49e+00	0	41	104	1190133760	71	22451
2026-01-07 09:08:11.07	352.02	7.92	-50.7	-65.8	3.8	1.49e+00	0	41	104	1190133760	71	22408
2026-01-07 09:08:12.08	351.96	7.85	-50.3	-65.8	3.8	1.49e+00	0	42	104	1190133760	72	21062
2026-01-07 09:08:13.08	351.90	7.78	-50.3	-65.8	3.8	1.49e+00	0	41	104	1190133760	72	21066
