passes_logs/2026/01/07/T1/T1__20260107_132511_AQUA_rec.log

#Pass ID: 20260107_132511_AQUA
#Satellite: AQUA
#Configuration: AQUA
#almurnet v.1.7.20251203
#Start time: 2026-01-07 13:25:12

#Version: 2.0.20230620
#Station: T1
#Location: 37.570604 lon 55.790049 lat
#TLE: 1 27424U 02022A   26004.96787593  .00001598  00000+0  32997-3 0  9996
#TLE: 2 27424  98.4069 331.2279 0002002  90.2377   0.6092 14.61798176259425

#Time	Az	El	Level	Level2	SNR	BER	BlckErr	Temp	State	Recorded	gain1	gain2
2026-01-07 13:25:12.26	224.94	5.04	-53.4	-74.3	3.8	7.41e-01	0	37	0	0	78	39964
2026-01-07 13:25:13.24	225.06	5.09	-53.4	-74.3	3.8	7.45e-01	0	37	104	0	77	42255
2026-01-07 13:25:14.24	225.18	5.14	-53.4	-74.3	3.8	7.46e-01	0	37	104	0	77	42112
2026-01-07 13:25:15.24	225.31	5.20	-53.4	-74.3	3.8	7.46e-01	0	37	104	0	77	42165
2026-01-07 13:25:16.24	225.43	5.25	-53.3	-74.3	3.8	7.46e-01	0	37	104	0	77	42084
2026-01-07 13:25:17.24	225.55	5.31	-53.4	-74.2	3.8	7.46e-01	0	37	104	0	77	41906
2026-01-07 13:25:18.23	225.67	5.36	-53.3	-74.2	3.8	7.45e-01	0	37	104	0	77	41799
2026-01-07 13:25:19.23	225.80	5.41	-53.3	-74.2	3.8	7.43e-01	0	37	104	0	77	41537
2026-01-07 13:25:20.22	225.92	5.47	-53.3	-74.2	3.8	7.46e-01	0	37	104	0	77	41696
2026-01-07 13:25:21.22	226.05	5.52	-53.4	-74.2	3.8	7.46e-01	0	37	104	0	77	41617
2026-01-07 13:25:22.22	226.17	5.58	-53.3	-74.2	3.8	7.45e-01	0	37	104	0	77	41748
2026-01-07 13:25:23.22	226.30	5.63	-53.3	-74.2	3.8	7.49e-01	0	37	104	0	77	41914
2026-01-07 13:25:24.22	226.42	5.68	-53.3	-74.3	3.8	7.46e-01	0	37	104	0	77	41999
2026-01-07 13:25:25.21	226.55	5.74	-53.3	-74.3	3.8	7.42e-01	0	37	104	0	77	42106
2026-01-07 13:25:26.20	226.67	5.79	-53.3	-74.3	3.8	7.49e-01	0	37	104	0	77	42108
2026-01-07 13:25:27.20	226.80	5.84	-53.3	-74.3	3.8	7.45e-01	0	37	104	0	77	42015
2026-01-07 13:25:28.20	226.93	5.90	-53.3	-74.3	3.8	7.45e-01	0	37	104	0	77	42063
2026-01-07 13:25:29.20	227.06	5.95	-53.3	-74.3	3.8	7.48e-01	0	38	104	0	77	42237
2026-01-07 13:25:30.20	227.19	6.01	-53.3	-74.3	3.8	7.45e-01	0	37	104	0	77	42191
2026-01-07 13:25:31.20	227.32	6.06	-53.3	-74.3	3.8	7.46e-01	0	38	104	0	77	42189
2026-01-07 13:25:32.19	227.45	6.11	-53.3	-74.3	3.8	7.46e-01	0	38	104	0	77	42182
2026-01-07 13:25:33.19	227.58	6.17	-53.3	-74.3	3.8	7.45e-01	0	38	104	0	77	42041
2026-01-07 13:25:34.19	227.71	6.22	-53.3	-74.2	3.8	7.40e-01	0	38	104	0	77	41696
2026-01-07 13:25:35.18	227.84	6.28	-53.3	-74.2	3.8	7.44e-01	0	38	104	0	77	41514
2026-01-07 13:25:36.18	227.97	6.33	-53.3	-74.1	3.8	7.44e-01	0	37	104	0	77	41425
2026-01-07 13:25:37.18	228.10	6.39	-53.3	-74.1	3.8	7.49e-01	0	38	104	0	77	41398
2026-01-07 13:25:38.18	228.24	6.44	-53.3	-74.1	3.8	7.43e-01	0	38	104	0	77	41337
2026-01-07 13:25:39.18	228.37	6.49	-53.3	-74.1	3.8	7.45e-01	0	38	104	0	77	41261
2026-01-07 13:25:40.18	228.50	6.55	-53.3	-74.1	3.8	7.47e-01	0	38	104	0	77	41202
2026-01-07 13:25:41.17	228.64	6.60	-53.3	-74.1	3.8	7.44e-01	0	38	104	0	77	41231
2026-01-07 13:25:42.17	228.77	6.66	-53.3	-74.0	3.8	7.45e-01	0	38	104	0	77	40977
2026-01-07 13:25:43.17	228.91	6.71	-53.3	-74.1	3.8	7.48e-01	0	38	104	0	77	41086
2026-01-07 13:25:44.17	229.05	6.76	-53.3	-74.1	3.8	7.45e-01	0	38	104	0	77	41195
2026-01-07 13:25:45.17	229.18	6.82	-53.3	-74.2	3.8	7.44e-01	0	38	104	0	77	41519
2026-01-07 13:25:46.17	229.32	6.87	-53.3	-74.1	3.8	7.41e-01	0	38	104	0	77	41353
2026-01-07 13:25:47.16	229.46	6.93	-53.3	-74.1	3.8	7.48e-01	0	38	104	0	77	41183
2026-01-07 13:25:48.16	229.60	6.98	-53.3	-74.0	3.8	7.45e-01	0	38	104	0	77	40891
2026-01-07 13:25:49.15	229.73	7.03	-53.3	-74.0	3.8	7.43e-01	0	38	104	0	77	40567
2026-01-07 13:25:50.15	229.87	7.09	-53.3	-73.9	3.8	7.43e-01	0	38	104	0	77	40253
2026-01-07 13:25:51.15	230.01	7.14	-53.3	-73.8	3.8	7.44e-01	0	38	104	0	77	39966
2026-01-07 13:25:52.14	230.15	7.20	-53.3	-73.6	3.8	7.44e-01	0	38	104	0	77	39051
2026-01-07 13:25:53.15	230.30	7.25	-53.3	-73.5	3.8	7.45e-01	0	38	104	0	77	38317
2026-01-07 13:25:54.14	230.44	7.30	-53.3	-73.6	3.8	7.47e-01	0	38	104	0	77	38967
2026-01-07 13:25:55.14	230.58	7.36	-53.3	-74.0	3.8	7.43e-01	0	38	104	0	77	40742
2026-01-07 13:25:56.14	230.72	7.41	-53.3	-74.3	3.8	7.47e-01	0	38	104	0	77	42028
2026-01-07 13:25:57.14	230.87	7.47	-53.3	-74.2	3.8	7.46e-01	0	38	104	0	77	41688
2026-01-07 13:25:58.13	231.01	7.52	-53.3	-73.8	3.8	7.45e-01	0	38	104	0	77	39754
2026-01-07 13:25:59.13	231.15	7.57	-53.3	-73.5	3.8	7.44e-01	0	38	104	0	77	38555
2026-01-07 13:26:00.13	231.30	7.63	-53.3	-73.6	3.8	7.42e-01	0	38	104	0	77	38911
2026-01-07 13:26:01.13	231.44	7.68	-53.3	-74.0	3.8	7.47e-01	0	38	104	0	77	40696
2026-01-07 13:26:02.13	231.59	7.74	-53.3	-74.2	3.8	7.47e-01	0	38	104	0	77	41894
2026-01-07 13:26:03.12	231.74	7.79	-53.3	-74.0	3.8	7.44e-01	0	38	104	0	77	40966
2026-01-07 13:26:04.12	231.88	7.84	-53.3	-73.5	3.8	7.41e-01	0	38	104	0	77	38269
2026-01-07 13:26:05.11	232.03	7.90	-53.3	-73.0	3.8	7.42e-01	0	38	104	0	77	36110
2026-01-07 13:26:06.11	232.18	7.95	-53.3	-73.0	3.8	7.48e-01	0	39	104	0	77	36286
2026-01-07 13:26:07.10	232.33	8.00	-53.3	-73.3	3.8	7.48e-01	0	38	104	0	77	37801
2026-01-07 13:26:08.10	232.48	8.06	-53.3	-73.9	3.8	7.48e-01	0	39	104	0	77	40379
2026-01-07 13:26:09.10	232.63	8.11	-53.3	-73.2	3.8	7.45e-01	0	39	104	0	77	37063
2026-01-07 13:26:10.10	232.78	8.17	-53.3	-70.5	4.2	7.32e-01	0	38	104	0	77	27315
2026-01-07 13:26:11.09	232.93	8.22	-53.2	-68.6	5.0	7.08e-01	0	38	0	0	77	21948
2026-01-07 13:26:12.09	233.08	8.27	-53.2	-68.1	5.4	7.01e-01	0	39	0	0	77	20674
2026-01-07 13:26:13.09	233.23	8.33	-53.3	-70.4	4.0	7.41e-01	0	38	104	0	77	26926
2026-01-07 13:26:14.09	233.39	8.38	-53.3	-72.0	3.9	7.42e-01	0	38	104	0	77	32366
2026-01-07 13:26:15.09	233.54	8.43	-53.0	-65.6	7.1	6.62e-01	0	38	0	0	77	15539
2026-01-07 13:26:16.08	233.69	8.49	-52.2	-60.4	12.5	6.12e-01	0	38	0	1572864	76	9036
2026-01-07 13:26:17.08	233.85	8.54	-51.2	-57.0	16.0	6.07e-01	0	38	0	3670016	74	6862
2026-01-07 13:26:18.08	234.01	8.59	-50.2	-54.8	18.2	6.08e-01	0	39	0	5242880	72	5965
2026-01-07 13:26:19.07	234.16	8.65	-49.6	-53.8	19.3	6.08e-01	0	38	0	7340032	71	5593
2026-01-07 13:26:20.07	234.32	8.70	-49.5	-53.6	19.6	6.06e-01	0	39	0	9437184	71	5471
2026-01-07 13:26:21.07	234.47	8.75	-49.9	-54.1	19.0	6.07e-01	0	39	0	11010048	71	5834
2026-01-07 13:26:22.07	234.63	8.81	-50.5	-55.5	17.8	6.07e-01	0	38	0	13107200	71	6820
2026-01-07 13:26:23.06	234.79	8.86	-51.3	-57.4	15.9	6.07e-01	0	38	0	14680064	73	7563
2026-01-07 13:26:24.06	234.95	8.91	-52.0	-59.6	13.6	6.11e-01	0	38	0	16777216	74	9232
2026-01-07 13:26:25.06	235.11	8.97	-52.5	-61.6	11.6	6.15e-01	0	39	0	18350080	75	10909
2026-01-07 13:26:26.06	235.27	9.02	-52.8	-63.5	9.6	6.30e-01	0	39	0	20447232	76	12845
2026-01-07 13:26:27.04	235.43	9.07	-50.4	-54.9	18.3	6.07e-01	0	39	0	22020096	72	6060
2026-01-07 13:26:28.04	235.59	9.12	-51.8	-58.6	14.7	6.06e-01	0	39	0	24117248	74	8178
2026-01-07 13:26:29.03	235.75	9.18	-53.0	-66.2	6.8	6.67e-01	0	39	0	26214400	76	17607
2026-01-07 13:26:30.03	235.91	9.23	-53.1	-66.1	7.0	6.66e-01	0	39	0	27787264	76	17307
2026-01-07 13:26:31.03	236.08	9.28	-51.5	-57.5	15.8	6.07e-01	0	39	0	29884416	74	7211
2026-01-07 13:26:32.03	236.24	9.33	-51.4	-57.0	16.3	6.09e-01	0	39	0	31457280	74	6836
2026-01-07 13:26:33.03	236.41	9.39	-51.2	-56.4	16.8	6.09e-01	0	39	0	33554432	74	6374
2026-01-07 13:26:34.02	236.57	9.44	-50.7	-55.4	17.8	6.06e-01	0	39	0	35127296	73	6044
2026-01-07 13:26:35.02	236.74	9.49	-50.0	-54.1	19.1	6.05e-01	0	39	0	37224448	72	5493
2026-01-07 13:26:36.02	236.90	9.54	-49.5	-53.2	19.9	6.06e-01	0	39	0	39321600	71	5257
2026-01-07 13:26:37.02	237.07	9.60	-49.0	-52.4	20.8	6.09e-01	0	39	0	40894464	70	5085
2026-01-07 13:26:38.02	237.24	9.65	-49.0	-52.5	20.6	6.06e-01	0	39	0	42991616	69	5415
2026-01-07 13:26:39.01	237.41	9.70	-48.8	-52.2	21.0	6.06e-01	0	39	0	44564480	69	5234
2026-01-07 13:26:40.01	237.58	9.75	-48.4	-51.6	21.5	6.06e-01	0	39	0	46661632	68	5205
2026-01-07 13:26:41.01	237.75	9.80	-48.2	-51.4	21.7	6.05e-01	0	39	0	48234496	68	5097
2026-01-07 13:26:42.01	237.92	9.85	-48.1	-51.3	21.8	6.07e-01	0	39	0	50331648	68	5014
2026-01-07 13:26:43.00	238.09	9.91	-48.2	-51.4	21.8	6.07e-01	0	39	0	51904512	68	5046
2026-01-07 13:26:44.00	238.26	9.96	-48.0	-51.1	22.0	6.05e-01	0	39	0	54001664	68	4918
2026-01-07 13:26:45.00	238.43	10.01	-48.2	-51.3	21.9	6.05e-01	0	39	0	56098816	68	4997
2026-01-07 13:26:46.00	238.60	10.06	-48.2	-51.3	21.8	6.07e-01	0	39	0	57671680	68	5026
2026-01-07 13:26:47.00	238.78	10.11	-48.1	-51.2	21.9	6.08e-01	0	39	0	59768832	68	4956
2026-01-07 13:26:48.00	238.95	10.16	-48.2	-51.2	21.9	6.08e-01	0	39	0	61341696	68	4974
2026-01-07 13:26:48.99	239.13	10.21	-48.1	-51.1	22.0	6.07e-01	0	39	0	63438848	68	4898
2026-01-07 13:26:49.99	239.30	10.27	-48.1	-51.1	22.0	6.06e-01	0	39	0	65011712	68	4919
2026-01-07 13:26:50.99	239.48	10.32	-48.0	-51.1	22.0	6.07e-01	0	39	0	67108864	68	4910
2026-01-07 13:26:51.99	239.65	10.37	-48.0	-51.2	21.9	6.06e-01	0	39	0	69206016	68	4937
2026-01-07 13:26:52.99	239.83	10.42	-47.9	-51.0	22.0	6.05e-01	0	39	0	70778880	67	5111
2026-01-07 13:26:53.98	240.01	10.47	-47.8	-50.8	22.2	6.07e-01	0	39	0	72876032	67	5025
2026-01-07 13:26:54.98	240.19	10.52	-47.8	-50.8	22.2	6.06e-01	0	39	0	74448896	67	5023
2026-01-07 13:26:55.98	240.37	10.57	-47.9	-50.9	22.1	6.08e-01	0	39	0	76546048	67	5068
2026-01-07 13:26:56.98	240.55	10.62	-47.9	-50.9	22.1	6.07e-01	0	39	0	78118912	67	5071
2026-01-07 13:26:57.98	240.73	10.67	-47.7	-50.7	22.3	6.08e-01	0	39	0	80216064	67	4950
2026-01-07 13:26:58.99	240.91	10.72	-47.7	-50.8	22.3	6.07e-01	0	39	0	82313216	67	4985
2026-01-07 13:26:59.99	241.09	10.77	-47.8	-50.8	22.3	6.09e-01	0	39	0	83886080	67	4990
2026-01-07 13:27:00.98	241.28	10.82	-47.8	-50.8	22.2	6.05e-01	0	39	0	85983232	67	5017
2026-01-07 13:27:01.98	241.46	10.87	-47.8	-50.9	22.1	6.07e-01	0	39	0	87556096	67	5087
2026-01-07 13:27:02.98	241.64	10.92	-47.7	-51.0	22.1	6.05e-01	0	39	0	89653248	67	5101
2026-01-07 13:27:03.98	241.83	10.97	-47.5	-50.7	22.3	6.06e-01	0	39	0	91750400	67	4979
2026-01-07 13:27:04.97	242.01	11.02	-47.3	-50.6	22.4	6.07e-01	0	39	0	93323264	66	5198
2026-01-07 13:27:05.97	242.20	11.06	-47.3	-50.6	22.4	6.06e-01	0	39	0	95420416	66	5216
2026-01-07 13:27:06.97	242.38	11.11	-47.3	-50.7	22.3	6.06e-01	0	39	0	96993280	66	5279
2026-01-07 13:27:07.97	242.57	11.16	-47.5	-50.7	22.3	6.06e-01	0	39	0	99090432	66	5244
2026-01-07 13:27:08.97	242.76	11.21	-47.7	-50.8	22.2	6.06e-01	0	39	0	100663296	66	5303
2026-01-07 13:27:09.96	242.95	11.26	-47.8	-50.8	22.3	6.08e-01	0	39	0	102760448	66	5280
2026-01-07 13:27:10.96	243.14	11.31	-47.7	-50.6	22.4	6.08e-01	0	39	0	104857600	66	5190
2026-01-07 13:27:11.96	243.33	11.36	-47.7	-50.6	22.5	6.07e-01	0	39	0	106430464	66	5167
2026-01-07 13:27:12.96	243.52	11.40	-47.8	-50.6	22.4	6.06e-01	0	39	0	108527616	66	5197
2026-01-07 13:27:13.96	243.71	11.45	-47.7	-50.5	22.6	6.08e-01	0	39	0	110100480	66	5139
2026-01-07 13:27:14.96	243.90	11.50	-47.8	-50.7	22.4	6.06e-01	0	39	0	112197632	66	5220
2026-01-07 13:27:15.95	244.09	11.55	-47.7	-50.6	22.5	6.05e-01	0	39	0	113770496	66	5182
2026-01-07 13:27:16.95	244.28	11.59	-47.6	-50.5	22.5	6.07e-01	0	39	0	115867648	66	5140
2026-01-07 13:27:17.95	244.48	11.64	-47.5	-50.4	22.6	6.06e-01	0	39	0	117440512	66	5095
2026-01-07 13:27:18.95	244.67	11.69	-47.6	-50.6	22.5	6.06e-01	0	39	0	119537664	66	5196
2026-01-07 13:27:19.95	244.87	11.73	-47.6	-50.5	22.5	6.09e-01	0	39	0	121634816	66	5145
2026-01-07 13:27:20.94	245.06	11.78	-47.5	-50.4	22.6	6.04e-01	0	39	0	123207680	66	5067
2026-01-07 13:27:21.94	245.26	11.83	-46.7	-50.4	22.6	6.08e-01	0	39	0	125304832	65	5386
2026-01-07 13:27:22.94	245.45	11.87	-46.5	-50.5	22.5	6.07e-01	0	39	0	126877696	65	5428
2026-01-07 13:27:23.94	245.65	11.92	-46.7	-50.5	22.0	6.06e-01	0	39	0	128974848	64	5787
2026-01-07 13:27:24.93	245.85	11.96	-46.6	-50.6	22.3	6.08e-01	0	39	0	130547712	64	5798
2026-01-07 13:27:25.93	246.05	12.01	-46.3	-50.5	22.4	6.08e-01	0	39	0	132644864	64	5746
2026-01-07 13:27:26.93	246.25	12.05	-46.4	-50.4	22.5	6.08e-01	0	39	0	134742016	63	6021
2026-01-07 13:27:27.92	246.45	12.10	-45.6	-50.4	22.5	6.07e-01	0	39	0	136314880	63	6026
2026-01-07 13:27:28.92	246.65	12.14	-46.2	-50.4	22.6	6.06e-01	0	39	0	138412032	63	6007
2026-01-07 13:27:29.91	246.85	12.19	-46.4	-50.5	22.2	6.07e-01	0	39	0	139984896	63	6114
2026-01-07 13:27:30.91	247.05	12.23	-46.2	-50.5	22.1	6.08e-01	0	39	0	142082048	63	6129
2026-01-07 13:27:31.91	247.25	12.28	-46.7	-50.5	22.2	6.07e-01	0	39	0	143654912	64	5760
2026-01-07 13:27:32.91	247.46	12.32	-46.3	-50.6	21.9	6.07e-01	0	39	0	145752064	64	5804
2026-01-07 13:27:33.90	247.66	12.36	-46.4	-50.4	22.4	6.06e-01	0	39	0	147324928	63	5998
2026-01-07 13:27:34.90	247.86	12.41	-45.3	-50.5	22.4	6.08e-01	0	39	0	149422080	62	6470
2026-01-07 13:27:35.90	248.07	12.45	-44.9	-50.3	22.4	6.08e-01	0	39	0	151519232	61	6690
2026-01-07 13:27:36.89	248.27	12.49	-45.0	-50.3	22.3	6.05e-01	0	39	0	153092096	61	6722
2026-01-07 13:27:37.89	248.48	12.54	-45.3	-50.4	22.1	6.08e-01	0	39	0	155189248	62	6372
2026-01-07 13:27:38.88	248.68	12.58	-45.6	-50.4	22.0	6.06e-01	0	39	0	156762112	62	6420
2026-01-07 13:27:39.88	248.89	12.62	-46.0	-50.4	21.9	6.05e-01	0	39	0	158859264	63	6042
2026-01-07 13:27:40.88	249.10	12.66	-46.2	-50.4	21.9	6.06e-01	0	39	0	160432128	63	6044
2026-01-07 13:27:41.87	249.31	12.71	-45.7	-50.5	22.0	6.08e-01	0	39	0	162529280	63	6077
2026-01-07 13:27:42.87	249.52	12.75	-44.8	-50.6	22.2	6.06e-01	0	39	0	164626432	61	6918
2026-01-07 13:27:43.87	249.73	12.79	-45.4	-50.5	22.4	6.07e-01	0	39	0	166199296	61	6856
2026-01-07 13:27:44.87	249.94	12.83	-45.0	-50.4	22.3	6.04e-01	0	39	0	168296448	61	6760
2026-01-07 13:27:45.87	250.15	12.87	-45.1	-50.3	22.2	6.09e-01	0	39	0	169869312	61	6709
2026-01-07 13:27:46.87	250.36	12.91	-47.4	-50.4	22.5	6.08e-01	0	39	0	171966464	65	5402
2026-01-07 13:27:47.87	250.57	12.95	-47.4	-50.4	22.6	6.05e-01	0	39	0	174063616	65	5363
2026-01-07 13:27:48.86	250.79	12.99	-47.3	-50.3	22.8	6.06e-01	0	39	0	175636480	65	5282
2026-01-07 13:27:49.86	251.00	13.03	-47.3	-50.2	22.9	6.09e-01	0	39	0	177733632	65	5258
2026-01-07 13:27:50.85	251.21	13.07	-47.4	-50.3	22.8	6.09e-01	0	39	0	179306496	65	5281
2026-01-07 13:27:51.84	251.43	13.11	-47.5	-50.5	22.6	6.07e-01	0	39	0	181403648	65	5404
2026-01-07 13:27:52.84	251.64	13.15	-47.4	-50.3	22.8	6.06e-01	0	39	0	182976512	65	5283
2026-01-07 13:27:53.84	251.86	13.19	-47.5	-50.3	22.8	6.06e-01	0	39	0	185073664	65	5327
2026-01-07 13:27:54.83	252.07	13.23	-47.5	-50.3	22.8	6.08e-01	0	39	0	186646528	65	5288
2026-01-07 13:27:55.83	252.29	13.26	-47.3	-50.1	23.0	6.06e-01	0	39	0	188743680	65	5190
2026-01-07 13:27:56.83	252.51	13.30	-47.4	-50.1	22.9	6.08e-01	0	39	0	190840832	65	5208
2026-01-07 13:27:57.83	252.73	13.34	-47.4	-50.2	22.9	6.05e-01	0	39	0	192413696	65	5233
2026-01-07 13:27:58.82	252.94	13.38	-47.4	-50.2	22.9	6.08e-01	0	39	0	194510848	65	5267
2026-01-07 13:27:59.82	253.16	13.41	-47.3	-50.1	23.0	6.08e-01	0	39	0	196083712	65	5162
2026-01-07 13:28:00.82	253.38	13.45	-47.1	-49.9	23.1	6.05e-01	0	39	0	198180864	65	5079
2026-01-07 13:28:01.82	253.61	13.49	-47.2	-50.0	23.1	6.07e-01	0	39	0	199753728	65	5130
2026-01-07 13:28:02.82	253.83	13.52	-47.3	-50.1	23.0	6.08e-01	0	39	0	201850880	65	5195
2026-01-07 13:28:03.82	254.05	13.56	-47.3	-50.1	23.0	6.07e-01	0	39	0	203948032	65	5201
2026-01-07 13:28:04.81	254.27	13.59	-47.2	-50.1	23.0	6.08e-01	0	39	0	205520896	65	5193
2026-01-07 13:28:05.81	254.49	13.63	-47.1	-50.0	23.0	6.08e-01	0	39	0	207618048	65	5158
2026-01-07 13:28:06.81	254.72	13.66	-47.2	-50.1	23.0	6.07e-01	0	39	0	209190912	65	5183
2026-01-07 13:28:07.81	254.94	13.70	-47.2	-50.1	23.0	6.07e-01	0	39	0	211288064	65	5188
2026-01-07 13:28:08.81	255.17	13.73	-47.2	-50.2	22.9	6.07e-01	0	39	0	212860928	65	5226
2026-01-07 13:28:09.81	255.39	13.76	-47.1	-49.9	23.1	6.06e-01	0	39	0	214958080	65	5099
2026-01-07 13:28:10.80	255.62	13.80	-47.2	-50.0	23.1	6.07e-01	0	39	0	216530944	65	5125
2026-01-07 13:28:11.80	255.84	13.83	-47.3	-50.1	22.9	6.06e-01	0	39	0	218628096	65	5213
2026-01-07 13:28:12.80	256.07	13.86	-47.3	-50.2	23.0	6.09e-01	0	39	0	220725248	65	5221
2026-01-07 13:28:13.80	256.30	13.90	-47.2	-50.0	23.0	6.08e-01	0	39	0	222298112	65	5145
2026-01-07 13:28:14.80	256.52	13.93	-47.2	-50.0	23.0	6.06e-01	0	39	0	224395264	65	5149
2026-01-07 13:28:15.79	256.75	13.96	-47.3	-50.2	22.9	6.07e-01	0	39	0	225968128	65	5245
2026-01-07 13:28:16.79	256.98	13.99	-47.3	-50.1	22.9	6.08e-01	0	39	0	228065280	65	5208
2026-01-07 13:28:17.79	257.21	14.02	-47.4	-50.2	22.8	6.06e-01	0	39	0	229638144	65	5260
2026-01-07 13:28:18.79	257.44	14.05	-47.4	-50.3	22.8	6.07e-01	0	39	0	231735296	65	5303
2026-01-07 13:28:19.79	257.67	14.08	-47.4	-50.2	22.9	6.07e-01	0	39	0	233832448	65	5249
2026-01-07 13:28:20.79	257.90	14.11	-47.1	-49.8	23.2	6.05e-01	0	39	0	235405312	65	5034
2026-01-07 13:28:21.79	258.13	14.14	-47.2	-49.9	23.1	6.07e-01	0	39	0	237502464	65	5097
2026-01-07 13:28:22.78	258.36	14.17	-47.4	-50.3	22.8	6.07e-01	0	39	0	239075328	65	5291
2026-01-07 13:28:23.78	258.59	14.20	-47.4	-50.2	22.8	6.08e-01	0	39	0	241172480	65	5278
2026-01-07 13:28:24.78	258.83	14.23	-47.3	-50.1	23.0	6.07e-01	0	39	0	242745344	65	5181
2026-01-07 13:28:25.77	259.06	14.25	-47.3	-50.1	22.9	6.06e-01	0	39	0	244842496	65	5200
2026-01-07 13:28:26.77	259.29	14.28	-47.2	-50.0	23.0	6.05e-01	0	39	0	246939648	65	5148
2026-01-07 13:28:27.77	259.53	14.31	-47.2	-50.0	23.1	6.06e-01	0	39	0	248512512	65	5110
2026-01-07 13:28:28.77	259.76	14.34	-47.2	-50.0	23.1	6.06e-01	0	39	0	250609664	65	5124
2026-01-07 13:28:29.77	260.00	14.36	-47.2	-50.0	23.0	6.06e-01	0	39	0	252182528	65	5153
2026-01-07 13:28:30.78	260.23	14.39	-47.1	-49.9	23.2	6.05e-01	0	39	0	254279680	65	5089
2026-01-07 13:28:31.78	260.47	14.41	-47.2	-50.1	23.1	6.06e-01	0	39	0	256376832	65	5162
2026-01-07 13:28:32.77	260.70	14.44	-47.2	-50.0	23.0	6.07e-01	0	39	0	257949696	65	5152
2026-01-07 13:28:33.77	260.94	14.46	-47.2	-50.1	23.0	6.05e-01	0	39	0	260046848	65	5162
2026-01-07 13:28:34.77	261.18	14.49	-47.3	-50.1	23.0	6.06e-01	0	39	0	261619712	65	5173
2026-01-07 13:28:35.77	261.41	14.51	-47.2	-50.0	23.1	6.09e-01	0	39	0	263716864	65	5114
2026-01-07 13:28:36.77	261.65	14.54	-47.2	-50.0	23.1	6.05e-01	0	39	0	265289728	65	5115
2026-01-07 13:28:37.77	261.89	14.56	-47.2	-50.0	23.1	6.08e-01	0	39	0	267386880	65	5116
2026-01-07 13:28:38.77	262.13	14.58	-47.2	-49.9	23.1	6.07e-01	0	39	0	269484032	65	5091
2026-01-07 13:28:39.77	262.37	14.60	-47.2	-49.9	23.1	6.07e-01	0	39	0	271056896	65	5092
2026-01-07 13:28:40.77	262.61	14.63	-47.2	-49.9	23.1	6.05e-01	0	40	0	273154048	65	5100
2026-01-07 13:28:41.76	262.85	14.65	-47.0	-49.8	23.2	6.09e-01	0	39	0	274726912	65	5032
2026-01-07 13:28:42.76	263.09	14.67	-47.0	-49.8	23.3	6.06e-01	0	39	0	276824064	65	5021
2026-01-07 13:28:43.76	263.33	14.69	-47.0	-49.8	23.3	6.07e-01	0	39	0	278396928	65	5004
2026-01-07 13:28:44.76	263.57	14.71	-47.0	-49.8	23.2	6.06e-01	0	39	0	280494080	65	5034
2026-01-07 13:28:45.75	263.81	14.73	-47.1	-49.8	23.2	6.06e-01	0	39	0	282066944	65	5024
2026-01-07 13:28:46.75	264.05	14.75	-47.1	-49.8	23.2	6.05e-01	0	39	0	284164096	65	5024
2026-01-07 13:28:47.75	264.29	14.77	-47.2	-49.9	23.2	6.08e-01	0	39	0	286261248	65	5059
2026-01-07 13:28:48.75	264.53	14.78	-47.2	-50.0	23.1	6.07e-01	0	39	0	287834112	65	5114
2026-01-07 13:28:49.75	264.77	14.80	-47.3	-50.0	23.1	6.08e-01	0	39	0	289931264	65	5118
2026-01-07 13:28:50.75	265.02	14.82	-47.3	-50.1	23.0	6.06e-01	0	39	0	291504128	65	5161
2026-01-07 13:28:51.75	265.26	14.84	-47.3	-50.0	23.1	6.05e-01	0	39	0	293601280	65	5132
2026-01-07 13:28:52.74	265.50	14.85	-47.3	-50.0	23.0	6.07e-01	0	39	0	295174144	65	5134
2026-01-07 13:28:53.74	265.74	14.87	-47.2	-50.0	23.1	6.07e-01	0	39	0	297271296	65	5115
2026-01-07 13:28:54.74	265.99	14.89	-47.2	-49.9	23.2	6.05e-01	0	39	0	299368448	65	5079
2026-01-07 13:28:55.73	266.23	14.90	-47.2	-49.9	23.1	6.05e-01	0	39	0	300941312	65	5086
2026-01-07 13:28:56.73	266.47	14.92	-47.3	-50.1	23.0	6.06e-01	0	39	0	303038464	65	5204
2026-01-07 13:28:57.73	266.72	14.93	-47.3	-50.1	23.0	6.06e-01	0	39	0	304611328	65	5194
2026-01-07 13:28:58.73	266.96	14.94	-47.3	-50.1	22.9	6.08e-01	0	39	0	306708480	65	5206
2026-01-07 13:28:59.73	267.21	14.96	-47.3	-50.1	23.0	6.07e-01	0	39	0	308281344	65	5174
2026-01-07 13:29:00.73	267.45	14.97	-47.3	-50.0	23.1	6.06e-01	0	39	0	310378496	65	5153
2026-01-07 13:29:01.72	267.70	14.98	-47.2	-50.0	23.1	6.05e-01	0	39	0	312475648	65	5107
2026-01-07 13:29:02.72	267.94	14.99	-47.2	-50.0	23.1	6.07e-01	0	39	0	314048512	65	5142
2026-01-07 13:29:03.72	268.19	15.01	-47.1	-49.9	23.2	6.07e-01	0	39	0	316145664	65	5048
2026-01-07 13:29:04.72	268.43	15.02	-47.2	-49.9	23.2	6.06e-01	0	39	0	317718528	65	5085
2026-01-07 13:29:05.72	268.68	15.03	-47.2	-49.9	23.1	6.08e-01	0	39	0	319815680	65	5095
2026-01-07 13:29:06.72	268.93	15.04	-47.2	-49.9	23.2	6.09e-01	0	39	0	321912832	65	5070
2026-01-07 13:29:07.72	269.17	15.05	-47.2	-50.0	23.1	6.06e-01	0	39	0	323485696	65	5104
2026-01-07 13:29:08.72	269.42	15.06	-47.3	-50.0	23.1	6.06e-01	0	39	0	325582848	65	5120
2026-01-07 13:29:09.72	269.67	15.07	-47.2	-49.9	23.2	6.05e-01	0	39	0	327155712	65	5065
2026-01-07 13:29:10.71	269.91	15.07	-47.1	-49.8	23.2	6.07e-01	0	39	0	329252864	65	5022
2026-01-07 13:29:11.71	270.16	15.08	-47.1	-49.8	23.3	6.05e-01	0	39	0	330825728	65	5011
2026-01-07 13:29:12.71	270.40	15.09	-47.2	-50.0	23.1	6.06e-01	0	39	0	332922880	65	5102
2026-01-07 13:29:13.71	270.65	15.10	-47.1	-49.9	23.2	6.06e-01	0	39	0	335020032	65	5067
2026-01-07 13:29:14.71	270.90	15.10	-47.1	-49.9	23.2	6.08e-01	0	39	0	336592896	65	5058
2026-01-07 13:29:15.71	271.15	15.11	-47.3	-50.0	23.1	6.06e-01	0	39	0	338690048	65	5134
2026-01-07 13:29:16.70	271.39	15.11	-47.2	-50.0	23.1	6.06e-01	0	39	0	340262912	65	5106
2026-01-07 13:29:17.70	271.64	15.12	-47.2	-49.9	23.2	6.06e-01	0	39	0	342360064	65	5044
2026-01-07 13:29:18.69	271.89	15.12	-47.2	-49.9	23.2	6.06e-01	0	39	0	343932928	65	5044
2026-01-07 13:29:19.69	272.13	15.13	-47.2	-49.9	23.2	6.08e-01	0	39	0	346030080	65	5053
2026-01-07 13:29:20.69	272.38	15.13	-47.2	-50.0	23.1	6.05e-01	0	39	0	347602944	65	5111
2026-01-07 13:29:21.69	272.63	15.13	-47.2	-49.9	23.1	6.06e-01	0	39	0	349700096	65	5092
2026-01-07 13:29:22.68	272.88	15.14	-47.0	-49.7	23.4	6.06e-01	0	39	0	351797248	65	4977
2026-01-07 13:29:23.68	273.12	15.14	-47.0	-49.7	23.4	6.06e-01	0	40	0	353370112	65	4969
2026-01-07 13:29:24.68	273.37	15.14	-47.0	-49.8	23.3	6.04e-01	0	39	0	355467264	65	4993
2026-01-07 13:29:25.67	273.62	15.14	-47.1	-49.9	23.2	6.06e-01	0	39	0	357040128	65	5078
2026-01-07 13:29:26.67	273.87	15.14	-47.2	-50.0	23.1	6.06e-01	0	39	0	359137280	65	5101
2026-01-07 13:29:27.67	274.11	15.14	-47.2	-49.9	23.2	6.05e-01	0	39	0	360710144	65	5078
2026-01-07 13:29:28.67	274.36	15.14	-47.2	-49.9	23.2	6.06e-01	0	39	0	362807296	65	5068
2026-01-07 13:29:29.67	274.61	15.14	-47.2	-50.0	23.1	6.05e-01	0	39	0	364904448	65	5118
2026-01-07 13:29:30.66	274.86	15.14	-47.2	-49.9	23.1	6.05e-01	0	39	0	366477312	65	5095
2026-01-07 13:29:31.66	275.10	15.14	-47.1	-49.8	23.3	6.06e-01	0	39	0	368574464	65	5026
2026-01-07 13:29:32.66	275.35	15.14	-47.1	-49.8	23.2	6.08e-01	0	39	0	370147328	65	5038
2026-01-07 13:29:33.66	275.60	15.13	-47.2	-49.9	23.2	6.07e-01	0	39	0	372244480	65	5090
2026-01-07 13:29:34.66	275.85	15.13	-47.2	-49.9	23.1	6.07e-01	0	39	0	373817344	65	5095
2026-01-07 13:29:35.65	276.09	15.13	-47.3	-50.1	23.0	6.07e-01	0	39	0	375914496	65	5170
2026-01-07 13:29:36.65	276.34	15.12	-47.2	-50.0	23.1	6.06e-01	0	39	0	377487360	65	5104
2026-01-07 13:29:37.65	276.59	15.12	-47.2	-49.9	23.2	6.07e-01	0	39	0	379584512	65	5062
2026-01-07 13:29:38.65	276.84	15.11	-47.1	-49.8	23.3	6.07e-01	0	39	0	381681664	65	5028
2026-01-07 13:29:39.65	277.08	15.11	-47.2	-49.8	23.3	6.06e-01	0	39	0	383254528	65	5040
2026-01-07 13:29:40.65	277.33	15.10	-47.2	-49.9	23.2	6.07e-01	0	39	0	385351680	65	5051
2026-01-07 13:29:41.64	277.58	15.10	-47.2	-50.0	23.1	6.06e-01	0	39	0	386924544	65	5125
2026-01-07 13:29:42.65	277.82	15.09	-47.1	-49.9	23.1	6.04e-01	0	39	0	389021696	65	5100
2026-01-07 13:29:43.64	278.07	15.08	-47.1	-49.9	23.2	6.07e-01	0	39	0	390594560	65	5091
2026-01-07 13:29:44.65	278.32	15.07	-47.1	-49.9	23.2	6.06e-01	0	39	0	392691712	65	5078
2026-01-07 13:29:45.64	278.56	15.07	-47.3	-50.0	23.1	6.07e-01	0	39	0	394788864	65	5125
2026-01-07 13:29:46.64	278.81	15.06	-47.3	-50.0	23.1	6.03e-01	0	39	0	396361728	65	5156
2026-01-07 13:29:47.64	279.06	15.05	-47.3	-50.0	23.1	6.07e-01	0	39	0	398458880	65	5146
2026-01-07 13:29:48.64	279.30	15.04	-47.1	-49.8	23.3	6.06e-01	0	39	0	400031744	65	5021
2026-01-07 13:29:49.64	279.55	15.03	-47.0	-49.7	23.4	6.06e-01	0	39	0	402128896	65	4962
2026-01-07 13:29:50.63	279.79	15.02	-47.2	-49.9	23.2	6.06e-01	0	39	0	404226048	65	5075
2026-01-07 13:29:51.63	280.04	15.01	-47.2	-49.9	23.2	6.06e-01	0	39	0	405798912	65	5070
2026-01-07 13:29:52.63	280.28	14.99	-47.2	-50.0	23.1	6.05e-01	0	39	0	407896064	65	5124
2026-01-07 13:29:53.63	280.53	14.98	-47.2	-49.9	23.2	6.08e-01	0	39	0	409468928	65	5084
2026-01-07 13:29:54.62	280.77	14.97	-47.0	-49.7	23.4	6.08e-01	0	39	0	411566080	65	4955
2026-01-07 13:29:55.62	281.02	14.96	-47.0	-49.7	23.4	6.07e-01	0	39	0	413138944	65	4947
2026-01-07 13:29:56.62	281.26	14.94	-47.1	-49.8	23.3	6.06e-01	0	39	0	415236096	65	5007
2026-01-07 13:29:57.62	281.50	14.93	-47.3	-50.0	23.1	6.07e-01	0	39	0	417333248	65	5115
2026-01-07 13:29:58.62	281.75	14.91	-47.3	-50.0	23.1	6.05e-01	0	39	0	418906112	65	5114
2026-01-07 13:29:59.62	281.99	14.90	-47.2	-49.8	23.3	6.08e-01	0	39	0	421003264	65	5033
2026-01-07 13:30:00.62	282.24	14.88	-47.2	-49.9	23.2	6.05e-01	0	39	0	422576128	65	5067
2026-01-07 13:30:01.61	282.48	14.87	-47.2	-49.8	23.3	6.07e-01	0	39	0	424673280	65	5035
2026-01-07 13:30:02.61	282.72	14.85	-47.2	-49.9	23.2	6.06e-01	0	39	0	426246144	65	5065
2026-01-07 13:30:03.61	282.96	14.84	-47.2	-49.9	23.2	6.08e-01	0	40	0	428343296	65	5082
2026-01-07 13:30:04.61	283.21	14.82	-47.1	-49.8	23.2	6.07e-01	0	39	0	430440448	65	5020
2026-01-07 13:30:05.61	283.45	14.80	-47.1	-49.8	23.3	6.06e-01	0	39	0	432013312	65	5011
2026-01-07 13:30:06.62	283.69	14.78	-47.1	-49.8	23.3	6.07e-01	0	39	0	434110464	65	5013
2026-01-07 13:30:07.61	283.93	14.76	-47.2	-49.9	23.2	6.07e-01	0	39	0	435683328	65	5045
2026-01-07 13:30:08.61	284.17	14.75	-47.2	-49.9	23.2	6.07e-01	0	39	0	437780480	65	5081
2026-01-07 13:30:09.61	284.41	14.73	-47.2	-50.0	23.1	6.05e-01	0	39	0	439353344	65	5101
2026-01-07 13:30:10.61	284.65	14.71	-47.2	-49.9	23.2	6.08e-01	0	39	0	441450496	65	5071
2026-01-07 13:30:11.61	284.89	14.69	-47.2	-49.9	23.2	6.06e-01	0	39	0	443547648	65	5071
2026-01-07 13:30:12.61	285.13	14.67	-47.3	-50.0	23.1	6.06e-01	0	39	0	445120512	65	5131
2026-01-07 13:30:13.61	285.37	14.65	-47.4	-50.1	23.0	6.07e-01	0	39	0	447217664	65	5181
2026-01-07 13:30:14.61	285.61	14.62	-47.2	-49.9	23.2	6.07e-01	0	39	0	448790528	65	5092
2026-01-07 13:30:15.61	285.85	14.60	-47.1	-49.8	23.3	6.06e-01	0	39	0	450887680	65	5025
2026-01-07 13:30:16.61	286.09	14.58	-47.1	-49.8	23.3	6.08e-01	0	39	0	452460544	65	4997
2026-01-07 13:30:17.61	286.33	14.56	-47.2	-49.9	23.2	6.06e-01	0	39	0	454557696	65	5063
2026-01-07 13:30:18.61	286.56	14.53	-47.2	-50.0	23.1	6.06e-01	0	39	0	456654848	65	5106
2026-01-07 13:30:19.61	286.80	14.51	-47.3	-50.1	23.0	6.05e-01	0	39	0	458227712	65	5170
2026-01-07 13:30:20.61	287.04	14.49	-47.2	-49.9	23.1	6.06e-01	0	39	0	460324864	65	5100
2026-01-07 13:30:21.61	287.28	14.46	-47.2	-49.9	23.2	6.08e-01	0	39	0	461897728	65	5056
2026-01-07 13:30:22.60	287.51	14.44	-47.2	-49.9	23.2	6.05e-01	0	39	0	463994880	65	5056
2026-01-07 13:30:23.60	287.74	14.41	-47.3	-49.9	23.2	6.08e-01	0	39	0	465567744	65	5084
2026-01-07 13:30:24.60	287.98	14.39	-47.2	-49.9	23.2	6.07e-01	0	39	0	467664896	65	5071
2026-01-07 13:30:25.60	288.21	14.36	-47.2	-50.0	23.1	6.06e-01	0	39	0	469237760	65	5114
2026-01-07 13:30:26.60	288.45	14.34	-47.2	-49.9	23.2	6.07e-01	0	39	0	471334912	65	5080
2026-01-07 13:30:27.60	288.68	14.31	-47.2	-50.0	23.0	6.07e-01	0	39	0	473432064	65	5143
2026-01-07 13:30:28.59	288.91	14.28	-47.2	-50.0	23.1	6.07e-01	0	39	0	475004928	65	5136
2026-01-07 13:30:29.60	289.15	14.25	-47.2	-50.0	23.1	6.06e-01	0	39	0	477102080	65	5123
2026-01-07 13:30:30.60	289.38	14.23	-47.2	-50.0	22.4	6.05e-01	0	39	0	478674944	65	5106
2026-01-07 13:30:31.59	289.61	14.20	-47.3	-50.1	23.0	6.06e-01	0	39	0	480772096	65	5172
2026-01-07 13:30:32.60	289.84	14.17	-47.3	-50.0	23.0	6.06e-01	0	39	0	482869248	65	5156
2026-01-07 13:30:33.59	290.07	14.14	-47.3	-50.1	22.9	6.06e-01	0	39	0	484442112	65	5184
2026-01-07 13:30:34.59	290.30	14.11	-47.3	-50.0	23.1	6.08e-01	0	39	0	486539264	65	5127
2026-01-07 13:30:35.59	290.53	14.08	-47.3	-50.0	23.1	6.08e-01	0	39	0	488112128	65	5117
2026-01-07 13:30:36.59	290.76	14.05	-47.3	-50.1	23.0	6.07e-01	0	39	0	490209280	65	5182
2026-01-07 13:30:37.59	290.99	14.02	-47.4	-50.1	23.0	6.06e-01	0	39	0	491782144	65	5194
2026-01-07 13:30:38.59	291.22	13.99	-47.4	-50.1	22.9	6.04e-01	0	39	0	493879296	65	5205
2026-01-07 13:30:39.58	291.45	13.96	-47.4	-50.2	22.9	6.06e-01	0	39	0	495976448	65	5269
2026-01-07 13:30:40.58	291.67	13.93	-47.3	-50.1	23.0	6.06e-01	0	39	0	497549312	65	5185
2026-01-07 13:30:41.58	291.90	13.90	-47.4	-50.1	23.0	6.06e-01	0	39	0	499646464	65	5205
2026-01-07 13:30:42.58	292.13	13.86	-47.3	-50.1	23.0	6.08e-01	0	39	0	501219328	65	5177
2026-01-07 13:30:43.57	292.35	13.83	-47.4	-50.2	22.8	6.06e-01	0	39	0	503316480	65	5277
2026-01-07 13:30:44.57	292.58	13.80	-47.4	-50.2	22.9	6.07e-01	0	39	0	504889344	65	5249
2026-01-07 13:30:45.57	292.80	13.77	-47.5	-50.3	22.9	6.07e-01	0	39	0	506986496	65	5284
2026-01-07 13:30:46.57	293.03	13.73	-47.4	-50.2	22.9	6.06e-01	0	39	0	509083648	65	5247
2026-01-07 13:30:47.57	293.25	13.70	-47.4	-50.2	22.9	6.08e-01	0	39	0	510656512	65	5241
2026-01-07 13:30:48.57	293.47	13.66	-47.4	-50.2	22.9	6.07e-01	0	39	0	512753664	65	5234
2026-01-07 13:30:49.57	293.70	13.63	-47.5	-50.3	22.8	6.06e-01	0	39	0	514326528	65	5324
2026-01-07 13:30:50.56	293.92	13.60	-47.5	-50.4	22.7	6.06e-01	0	39	0	516423680	65	5354
2026-01-07 13:30:51.56	294.14	13.56	-47.6	-50.4	22.6	6.05e-01	0	39	0	517996544	65	5378
2026-01-07 13:30:52.56	294.36	13.52	-47.5	-50.3	22.8	6.08e-01	0	39	0	520093696	65	5299
2026-01-07 13:30:53.56	294.58	13.49	-47.5	-50.3	22.8	6.07e-01	0	39	0	522190848	65	5290
2026-01-07 13:30:54.56	294.80	13.45	-47.4	-50.2	22.9	6.04e-01	0	39	0	523763712	65	5248
2026-01-07 13:30:55.56	295.02	13.42	-47.6	-50.5	22.6	6.08e-01	0	39	0	525860864	65	5408
2026-01-07 13:30:56.56	295.24	13.38	-47.6	-50.5	22.6	6.08e-01	0	39	0	527433728	66	5145
2026-01-07 13:30:57.56	295.46	13.34	-47.7	-50.6	22.5	6.07e-01	0	39	0	529530880	66	5198
2026-01-07 13:30:58.55	295.67	13.31	-47.6	-50.4	22.7	6.08e-01	0	39	0	531103744	66	5099
2026-01-07 13:30:59.55	295.89	13.27	-47.6	-50.4	22.6	6.04e-01	0	39	0	533200896	66	5082
2026-01-07 13:31:00.55	296.11	13.23	-47.6	-50.5	22.6	6.08e-01	0	39	0	534773760	66	5125
2026-01-07 13:31:01.55	296.32	13.19	-47.6	-50.4	22.7	6.06e-01	0	39	0	536870912	66	5066
2026-01-07 13:31:02.55	296.54	13.15	-47.7	-50.6	22.5	6.05e-01	0	39	0	538968064	66	5161
2026-01-07 13:31:03.55	296.75	13.11	-47.6	-50.4	22.7	6.07e-01	0	39	0	540540928	66	5081
2026-01-07 13:31:04.54	296.96	13.08	-47.5	-50.3	22.8	6.08e-01	0	39	0	542638080	66	5014
2026-01-07 13:31:05.54	297.18	13.04	-47.5	-50.3	22.7	6.06e-01	0	39	0	544210944	66	5017
2026-01-07 13:31:06.53	297.39	13.00	-47.5	-50.4	22.6	6.05e-01	0	39	0	546308096	66	5096
2026-01-07 13:31:07.52	297.60	12.96	-47.5	-50.4	22.6	6.07e-01	0	40	0	548405248	66	5086
2026-01-07 13:31:08.52	297.81	12.92	-47.5	-50.5	22.5	6.07e-01	0	39	0	549978112	66	5127
2026-01-07 13:31:09.52	298.02	12.88	-47.7	-50.7	22.4	6.07e-01	0	39	0	552075264	66	5221
2026-01-07 13:31:10.51	298.23	12.84	-47.7	-50.6	22.4	6.03e-01	0	39	0	553648128	66	5208
2026-01-07 13:31:11.51	298.44	12.80	-47.6	-50.5	22.6	6.07e-01	0	39	0	555745280	66	5114
2026-01-07 13:31:12.51	298.65	12.76	-47.6	-50.4	22.6	6.08e-01	0	39	0	557318144	66	5070
2026-01-07 13:31:13.51	298.86	12.71	-47.6	-50.4	22.6	6.07e-01	0	39	0	559415296	66	5088
2026-01-07 13:31:14.51	299.07	12.67	-47.7	-50.5	22.5	6.08e-01	0	39	0	561512448	66	5148
2026-01-07 13:31:15.51	299.27	12.63	-47.6	-50.4	22.6	6.08e-01	0	39	0	563085312	66	5092
2026-01-07 13:31:16.50	299.48	12.59	-47.6	-50.5	22.6	6.08e-01	0	39	0	565182464	66	5117
2026-01-07 13:31:17.51	299.69	12.55	-47.6	-50.6	22.5	6.07e-01	0	39	0	566755328	66	5175
2026-01-07 13:31:18.51	299.89	12.50	-47.6	-50.5	22.5	6.07e-01	0	39	0	568852480	66	5158
2026-01-07 13:31:19.51	300.10	12.46	-47.8	-50.7	22.3	6.06e-01	0	39	0	570425344	66	5254
2026-01-07 13:31:20.51	300.30	12.42	-47.7	-50.6	22.5	6.07e-01	0	39	0	572522496	66	5181
2026-01-07 13:31:21.50	300.50	12.37	-47.8	-50.7	22.3	6.06e-01	0	39	0	574095360	66	5234
2026-01-07 13:31:22.50	300.71	12.33	-47.7	-50.6	22.5	6.06e-01	0	40	0	576192512	66	5164
2026-01-07 13:31:23.50	300.91	12.29	-47.7	-50.6	22.4	6.07e-01	0	40	0	578289664	66	5188
2026-01-07 13:31:24.50	301.11	12.24	-47.7	-50.5	22.5	6.07e-01	0	39	0	579862528	66	5153
2026-01-07 13:31:25.50	301.31	12.20	-47.7	-50.6	22.4	6.07e-01	0	39	0	581959680	66	5191
2026-01-07 13:31:26.50	301.51	12.16	-47.7	-50.7	22.4	6.03e-01	0	39	0	583532544	66	5229
2026-01-07 13:31:27.50	301.71	12.11	-47.7	-50.6	22.4	6.06e-01	0	39	0	585629696	66	5218
2026-01-07 13:31:28.50	301.91	12.07	-47.8	-50.8	22.2	6.07e-01	0	39	0	587202560	66	5286
2026-01-07 13:31:29.50	302.11	12.02	-47.8	-50.7	22.3	6.05e-01	0	39	0	589299712	66	5251
2026-01-07 13:31:30.50	302.31	11.98	-47.8	-50.8	22.3	6.07e-01	0	39	0	591396864	66	5285
2026-01-07 13:31:31.50	302.51	11.93	-47.8	-50.6	22.4	6.08e-01	0	39	0	592969728	66	5207
2026-01-07 13:31:32.50	302.70	11.88	-47.7	-50.6	22.4	6.08e-01	0	39	0	595066880	66	5186
2026-01-07 13:31:33.50	302.90	11.84	-47.6	-50.5	22.5	6.04e-01	0	39	0	596639744	66	5141
2026-01-07 13:31:34.49	303.09	11.79	-47.7	-50.6	22.4	6.07e-01	0	39	0	598736896	66	5216
2026-01-07 13:31:35.49	303.29	11.75	-47.7	-50.6	22.4	6.07e-01	0	39	0	600309760	66	5213
2026-01-07 13:31:36.49	303.48	11.70	-47.8	-50.8	22.2	6.06e-01	0	39	0	602406912	66	5292
2026-01-07 13:31:37.49	303.68	11.65	-47.8	-50.8	22.2	6.09e-01	0	39	0	604504064	66	5317
2026-01-07 13:31:38.48	303.87	11.61	-47.8	-50.8	22.2	6.08e-01	0	39	0	606076928	66	5315
2026-01-07 13:31:39.49	304.06	11.56	-47.8	-50.8	22.2	6.08e-01	0	39	0	608174080	66	5339
2026-01-07 13:31:40.48	304.25	11.51	-47.8	-50.8	22.2	6.06e-01	0	40	0	609746944	66	5313
2026-01-07 13:31:41.48	304.44	11.47	-47.7	-50.6	22.4	6.07e-01	0	39	0	611844096	66	5163
2026-01-07 13:31:42.48	304.63	11.42	-47.7	-50.7	22.4	6.06e-01	0	40	0	613416960	66	5226
2026-01-07 13:31:43.48	304.82	11.37	-47.8	-50.8	22.3	6.06e-01	0	39	0	615514112	66	5285
2026-01-07 13:31:44.48	305.01	11.32	-47.9	-50.9	22.1	6.09e-01	0	39	0	617611264	66	5368
2026-01-07 13:31:45.48	305.20	11.28	-47.9	-50.9	22.1	6.06e-01	0	39	0	619184128	66	5358
2026-01-07 13:31:46.47	305.38	11.23	-47.8	-50.8	22.2	6.08e-01	0	39	0	621281280	66	5331
2026-01-07 13:31:47.47	305.57	11.18	-47.8	-50.8	22.2	6.08e-01	0	39	0	622854144	66	5314
2026-01-07 13:31:48.47	305.76	11.13	-47.7	-50.7	22.3	6.06e-01	0	39	0	624951296	66	5234
2026-01-07 13:31:49.46	305.94	11.09	-47.7	-50.9	22.2	6.06e-01	0	39	0	627048448	66	5343
2026-01-07 13:31:50.46	306.13	11.04	-47.7	-50.9	22.1	6.05e-01	0	39	0	628621312	66	5372
2026-01-07 13:31:51.46	306.31	10.99	-47.6	-50.8	22.2	6.08e-01	0	39	0	630718464	66	5337
2026-01-07 13:31:52.46	306.49	10.94	-47.9	-51.1	22.0	6.07e-01	0	39	0	632291328	66	5472
2026-01-07 13:31:53.46	306.68	10.89	-47.9	-50.9	22.1	6.07e-01	0	39	0	634388480	66	5397
2026-01-07 13:31:54.46	306.86	10.84	-48.1	-51.2	21.9	6.06e-01	0	39	0	635961344	66	5538
2026-01-07 13:31:55.46	307.04	10.79	-48.0	-51.1	22.0	6.07e-01	0	39	0	638058496	66	5480
2026-01-07 13:31:56.46	307.22	10.74	-48.0	-51.1	22.0	6.06e-01	0	39	0	640155648	66	5467
2026-01-07 13:31:57.45	307.40	10.69	-47.9	-50.9	22.0	6.08e-01	0	39	0	641728512	66	5398
2026-01-07 13:31:58.45	307.58	10.64	-47.8	-51.0	21.9	6.05e-01	0	39	0	643825664	66	5463
2026-01-07 13:31:59.46	307.76	10.59	-47.6	-51.0	22.0	6.08e-01	0	39	0	645398528	66	5454
2026-01-07 13:32:00.45	307.94	10.54	-47.7	-51.0	22.0	6.07e-01	0	39	0	647495680	66	5456
2026-01-07 13:32:01.45	308.12	10.49	-47.7	-51.0	21.9	6.06e-01	0	39	0	649068544	66	5462
2026-01-07 13:32:02.45	308.29	10.44	-47.6	-51.0	21.9	6.07e-01	0	39	0	651165696	66	5447
2026-01-07 13:32:03.45	308.47	10.39	-47.7	-51.1	21.8	6.08e-01	0	39	0	652738560	66	5506
2026-01-07 13:32:04.45	308.65	10.34	-47.5	-51.1	21.7	6.08e-01	0	39	0	654835712	66	5484
2026-01-07 13:32:05.45	308.82	10.29	-47.3	-51.0	21.7	6.09e-01	0	39	0	656932864	66	5428
2026-01-07 13:32:06.45	309.00	10.24	-47.1	-51.1	21.4	6.05e-01	0	39	0	658505728	66	5505
2026-01-07 13:32:07.45	309.17	10.19	-46.4	-51.0	21.0	6.08e-01	0	39	0	660602880	64	6121
2026-01-07 13:32:08.44	309.34	10.14	-45.9	-51.0	20.7	6.07e-01	0	39	0	662175744	63	6421
2026-01-07 13:32:09.43	309.51	10.09	-45.5	-51.1	20.1	6.09e-01	0	39	0	664272896	62	6943
2026-01-07 13:32:10.43	309.69	10.04	-45.6	-51.3	19.8	6.09e-01	0	39	0	665845760	62	7099
2026-01-07 13:32:11.43	309.86	9.99	-46.1	-51.3	20.2	6.06e-01	0	39	0	667942912	63	6690
2026-01-07 13:32:12.42	310.03	9.94	-46.8	-51.1	20.9	6.06e-01	0	39	0	670040064	64	6182
2026-01-07 13:32:13.42	310.20	9.89	-47.8	-51.2	21.5	6.08e-01	0	39	0	671612928	66	5587
2026-01-07 13:32:14.42	310.37	9.84	-48.1	-51.3	21.6	6.05e-01	0	39	0	673710080	66	5621
2026-01-07 13:32:15.42	310.54	9.78	-48.2	-51.4	21.6	6.09e-01	0	39	0	675282944	67	5351
2026-01-07 13:32:16.41	310.70	9.73	-48.0	-51.1	21.9	6.09e-01	0	39	0	677380096	67	5163
2026-01-07 13:32:17.41	310.87	9.68	-48.0	-51.1	21.9	6.05e-01	0	39	0	678952960	67	5169
2026-01-07 13:32:18.41	311.04	9.63	-48.0	-51.2	21.7	6.08e-01	0	39	0	681050112	67	5239
2026-01-07 13:32:19.41	311.21	9.58	-47.9	-51.0	21.9	6.07e-01	0	39	0	683147264	67	5139
2026-01-07 13:32:20.40	311.37	9.53	-47.9	-51.1	21.8	6.07e-01	0	39	0	684720128	67	5204
2026-01-07 13:32:21.40	311.53	9.48	-47.9	-51.2	21.8	6.09e-01	0	39	0	686817280	67	5232
2026-01-07 13:32:22.40	311.70	9.42	-47.8	-51.2	21.7	6.05e-01	0	39	0	688390144	67	5249
2026-01-07 13:32:23.39	311.86	9.37	-47.9	-51.2	21.7	6.07e-01	0	39	0	690487296	67	5260
2026-01-07 13:32:24.38	312.02	9.32	-48.0	-51.3	21.7	6.06e-01	0	39	0	692060160	67	5293
2026-01-07 13:32:25.38	312.19	9.27	-48.0	-51.3	21.7	6.08e-01	0	39	0	694157312	67	5303
2026-01-07 13:32:26.38	312.35	9.22	-48.0	-51.3	21.6	6.08e-01	0	39	0	695730176	67	5329
2026-01-07 13:32:27.38	312.51	9.16	-48.0	-51.4	21.5	6.06e-01	0	39	0	697827328	67	5397
2026-01-07 13:32:28.38	312.67	9.11	-48.0	-51.4	21.5	6.08e-01	0	39	0	699924480	67	5387
2026-01-07 13:32:29.38	312.83	9.06	-47.9	-51.4	21.6	6.08e-01	0	39	0	701497344	67	5348
2026-01-07 13:32:30.38	312.99	9.01	-47.8	-51.2	21.8	6.07e-01	0	39	0	703594496	67	5223
2026-01-07 13:32:31.37	313.15	8.95	-53.7	-74.3	3.7	7.44e-01	0	39	104	704643072	78	39747
2026-01-07 13:32:32.37	313.31	8.90	-53.4	-74.5	3.8	7.45e-01	0	40	104	704643072	78	40813
2026-01-07 13:32:33.37	313.47	8.85	-54.3	-74.7	3.8	7.45e-01	0	40	104	704643072	79	39533
2026-01-07 13:32:34.37	313.62	8.80	-54.3	-74.8	3.8	7.45e-01	0	40	104	704643072	79	39951
2026-01-07 13:32:35.37	313.78	8.74	-54.3	-74.9	3.8	7.47e-01	0	39	104	704643072	79	40406
2026-01-07 13:32:36.37	313.94	8.69	-53.9	-75.0	3.8	7.47e-01	0	39	104	704643072	79	40609
2026-01-07 13:32:37.37	314.09	8.64	-54.4	-75.0	3.8	7.46e-01	0	39	104	704643072	79	40860
2026-01-07 13:32:38.36	314.25	8.59	-54.2	-75.1	3.8	7.44e-01	0	39	104	704643072	79	41001
2026-01-07 13:32:39.36	314.40	8.53	-54.5	-75.1	3.8	7.49e-01	0	39	104	704643072	79	41140
2026-01-07 13:32:40.36	314.55	8.48	-54.5	-75.0	3.8	7.48e-01	0	40	104	704643072	80	38571
2026-01-07 13:32:41.36	314.71	8.43	-54.4	-75.0	3.8	7.48e-01	0	39	104	704643072	80	38625
2026-01-07 13:32:42.36	314.86	8.37	-54.7	-75.0	3.8	7.43e-01	0	39	104	704643072	80	38630
2026-01-07 13:32:43.36	315.01	8.32	-54.4	-75.0	3.8	7.46e-01	0	39	104	704643072	80	38644
2026-01-07 13:32:44.36	315.16	8.27	-54.5	-75.1	3.8	7.45e-01	0	39	104	704643072	79	41113
2026-01-07 13:32:45.36	315.31	8.21	-54.4	-75.0	3.8	7.46e-01	0	39	104	704643072	80	38682
2026-01-07 13:32:46.36	315.47	8.16	-54.3	-75.1	3.8	7.47e-01	0	40	104	704643072	80	38791
2026-01-07 13:32:47.36	315.61	8.11	-54.2	-75.0	3.8	7.43e-01	0	39	104	704643072	80	38591
2026-01-07 13:32:48.36	315.76	8.05	-54.3	-75.0	3.8	7.46e-01	0	40	104	704643072	80	38477
2026-01-07 13:32:49.36	315.91	8.00	-54.2	-75.0	3.8	7.45e-01	0	39	104	704643072	80	38510
2026-01-07 13:32:50.35	316.06	7.95	-54.3	-75.0	3.8	7.46e-01	0	40	104	704643072	80	38410
2026-01-07 13:32:51.35	316.21	7.90	-54.1	-75.0	3.8	7.46e-01	0	39	104	704643072	80	38325
2026-01-07 13:32:52.34	316.35	7.84	-54.0	-75.0	3.8	7.45e-01	0	39	104	704643072	80	38260
2026-01-07 13:32:53.34	316.50	7.79	-54.0	-75.0	3.8	7.43e-01	0	39	104	704643072	80	38257
2026-01-07 13:32:54.34	316.64	7.74	-54.0	-74.9	3.8	7.47e-01	0	39	104	704643072	80	38157
2026-01-07 13:32:55.34	316.79	7.68	-54.0	-74.9	3.8	7.48e-01	0	39	104	704643072	80	38222
2026-01-07 13:32:56.33	316.93	7.63	-54.0	-74.9	3.8	7.46e-01	0	39	104	704643072	80	38191
2026-01-07 13:32:57.33	317.08	7.58	-54.0	-74.9	3.8	7.47e-01	0	39	104	704643072	80	38240
2026-01-07 13:32:58.33	317.22	7.52	-54.0	-74.9	3.8	7.47e-01	0	39	104	704643072	80	38093
2026-01-07 13:32:59.32	317.36	7.47	-54.0	-74.9	3.8	7.44e-01	0	39	104	704643072	80	38233
2026-01-07 13:33:00.32	317.50	7.42	-54.0	-74.9	3.8	7.45e-01	0	39	104	704643072	80	38225
2026-01-07 13:33:01.33	317.65	7.36	-54.0	-74.9	3.8	7.44e-01	0	39	104	704643072	80	38228
2026-01-07 13:33:02.32	317.79	7.31	-54.0	-74.9	3.8	7.47e-01	0	39	104	704643072	80	38195
2026-01-07 13:33:03.32	317.93	7.26	-54.0	-74.9	3.8	7.47e-01	0	39	104	704643072	80	38133
2026-01-07 13:33:04.31	318.07	7.20	-54.0	-75.0	3.8	7.47e-01	0	40	104	704643072	80	38335
2026-01-07 13:33:05.31	318.21	7.15	-54.0	-74.9	3.8	7.45e-01	0	40	104	704643072	80	38172
2026-01-07 13:33:06.31	318.35	7.10	-54.0	-74.9	3.8	7.46e-01	0	39	104	704643072	80	38140
2026-01-07 13:33:07.31	318.49	7.04	-54.0	-74.9	3.8	7.48e-01	0	40	104	704643072	80	38152
2026-01-07 13:33:08.30	318.62	6.99	-54.0	-74.9	3.8	7.48e-01	0	39	104	704643072	80	38238
2026-01-07 13:33:09.30	318.76	6.93	-54.0	-74.9	3.8	7.45e-01	0	39	104	704643072	80	38183
2026-01-07 13:33:10.30	318.90	6.88	-54.0	-75.0	3.8	7.44e-01	0	39	104	704643072	80	38247
2026-01-07 13:33:11.30	319.03	6.83	-54.0	-74.9	3.8	7.46e-01	0	39	104	704643072	80	38155
2026-01-07 13:33:12.30	319.17	6.77	-54.0	-74.9	3.8	7.45e-01	0	39	104	704643072	80	38167
2026-01-07 13:33:13.30	319.30	6.72	-54.0	-74.9	3.8	7.47e-01	0	39	104	704643072	80	38187
2026-01-07 13:33:14.30	319.44	6.67	-54.0	-74.9	3.8	7.47e-01	0	40	104	704643072	80	38145
2026-01-07 13:33:15.30	319.57	6.61	-54.0	-74.9	3.8	7.48e-01	0	39	104	704643072	80	38161
2026-01-07 13:33:16.30	319.71	6.56	-54.0	-74.9	3.8	7.46e-01	0	39	104	704643072	80	38173
2026-01-07 13:33:17.30	319.84	6.51	-54.0	-74.9	3.8	7.46e-01	0	40	104	704643072	80	38149
2026-01-07 13:33:18.30	319.97	6.45	-54.0	-74.9	3.8	7.47e-01	0	40	104	704643072	80	38149
2026-01-07 13:33:19.30	320.11	6.40	-54.0	-74.9	3.8	7.46e-01	0	40	104	704643072	80	38104
2026-01-07 13:33:20.30	320.24	6.35	-54.0	-74.9	3.8	7.49e-01	0	39	104	704643072	80	38197
2026-01-07 13:33:21.30	320.37	6.29	-54.0	-74.9	3.8	7.47e-01	0	39	104	704643072	80	38188
2026-01-07 13:33:22.30	320.50	6.24	-54.0	-74.9	3.8	7.49e-01	0	39	104	704643072	80	38045
2026-01-07 13:33:23.30	320.63	6.18	-54.0	-74.9	3.8	7.46e-01	0	39	104	704643072	80	38119
2026-01-07 13:33:24.29	320.76	6.13	-54.0	-74.9	3.8	7.46e-01	0	39	104	704643072	80	38167
2026-01-07 13:33:25.29	320.89	6.08	-54.0	-74.9	3.8	7.45e-01	0	39	104	704643072	80	38183
2026-01-07 13:33:26.29	321.02	6.02	-54.0	-74.9	3.8	7.47e-01	0	40	104	704643072	80	38183
2026-01-07 13:33:27.29	321.15	5.97	-54.0	-74.9	3.8	7.45e-01	0	39	104	704643072	80	38144
2026-01-07 13:33:28.29	321.27	5.92	-54.0	-74.9	3.8	7.43e-01	0	39	104	704643072	80	38075
2026-01-07 13:33:29.29	321.40	5.86	-54.0	-74.9	3.8	7.48e-01	0	39	104	704643072	80	38179
2026-01-07 13:33:30.29	321.53	5.81	-54.0	-74.9	3.8	7.47e-01	0	39	104	704643072	80	3801
