passes_logs/2026/01/07/T1/T1__20260107_035033_AQUA_rec.log

#Pass ID: 20260107_035033_AQUA
#Satellite: AQUA
#Configuration: AQUA
#almurnet v.1.7.20251203
#Start time: 2026-01-07 03:50:32

#Version: 2.0.20230620
#Station: T1
#Location: 37.570604 lon 55.790049 lat
#TLE: 1 27424U 02022A   26004.96787593  .00001598  00000+0  32997-3 0  9996
#TLE: 2 27424  98.4069 331.2279 0002002  90.2377   0.6092 14.61798176259425

#Time	Az	El	Level	Level2	SNR	BER	BlckErr	Temp	State	Recorded	gain1	gain2
2026-01-07 03:50:32.81	353.23	4.98	-50.5	-71.5	3.8	7.48e-01	0	40	0	0	71	42976
2026-01-07 03:50:33.81	353.09	5.02	-50.5	-71.4	3.8	7.44e-01	0	40	104	0	71	42801
2026-01-07 03:50:34.82	352.95	5.06	-50.5	-71.5	3.8	7.44e-01	0	40	104	0	71	42927
2026-01-07 03:50:35.82	352.81	5.10	-50.5	-71.5	3.8	7.46e-01	0	40	104	0	71	42975
2026-01-07 03:50:36.83	352.66	5.15	-50.5	-71.4	3.8	7.47e-01	0	40	104	0	71	42874
2026-01-07 03:50:37.83	352.52	5.19	-50.5	-71.5	3.8	7.44e-01	0	41	104	0	71	42927
2026-01-07 03:50:38.84	352.37	5.23	-50.5	-71.4	3.8	7.48e-01	0	40	104	0	71	42897
2026-01-07 03:50:39.84	352.23	5.27	-50.3	-71.5	3.8	7.47e-01	0	41	104	0	71	42938
2026-01-07 03:50:40.84	352.09	5.31	-50.5	-71.5	3.8	7.47e-01	0	41	104	0	71	42927
2026-01-07 03:50:41.85	351.94	5.35	-50.5	-71.4	3.8	7.50e-01	0	41	104	0	71	42910
2026-01-07 03:50:42.85	351.79	5.39	-50.5	-71.5	3.8	7.45e-01	0	41	104	0	71	42961
2026-01-07 03:50:43.86	351.65	5.43	-50.5	-71.5	3.8	7.45e-01	0	41	104	0	71	42961
2026-01-07 03:50:44.86	351.50	5.47	-50.4	-71.5	3.8	7.45e-01	0	41	104	0	71	42916
2026-01-07 03:50:45.87	351.35	5.52	-50.4	-71.5	3.8	7.45e-01	0	41	104	0	71	42914
2026-01-07 03:50:46.87	351.20	5.56	-50.5	-71.5	3.8	7.46e-01	0	41	104	0	71	42962
2026-01-07 03:50:47.87	351.06	5.60	-50.4	-71.5	3.8	7.47e-01	0	41	104	0	71	42989
2026-01-07 03:50:48.88	350.91	5.64	-50.5	-71.5	3.8	7.49e-01	0	41	104	0	71	42935
2026-01-07 03:50:49.88	350.76	5.68	-50.5	-71.4	3.8	7.48e-01	0	41	104	0	71	42910
2026-01-07 03:50:50.89	350.61	5.72	-50.4	-71.4	3.8	7.44e-01	0	41	104	0	71	42812
2026-01-07 03:50:51.89	350.46	5.76	-50.5	-71.5	3.8	7.43e-01	0	41	104	0	71	42936
2026-01-07 03:50:52.90	350.31	5.80	-50.5	-71.4	3.8	7.47e-01	0	41	104	0	71	42862
2026-01-07 03:50:53.90	350.16	5.84	-50.5	-71.4	3.8	7.46e-01	0	41	104	0	71	42835
2026-01-07 03:50:54.90	350.00	5.88	-50.4	-71.4	3.8	7.43e-01	0	41	104	0	71	42848
2026-01-07 03:50:55.91	349.85	5.92	-50.5	-71.4	3.8	7.45e-01	0	41	104	0	71	42909
2026-01-07 03:50:56.91	349.70	5.96	-50.4	-71.4	3.8	7.48e-01	0	41	104	0	71	42893
2026-01-07 03:50:57.92	349.55	6.00	-50.4	-71.5	3.8	7.48e-01	0	41	104	0	71	42918
2026-01-07 03:50:58.92	349.39	6.03	-50.4	-71.4	3.8	7.47e-01	0	41	104	0	71	42884
2026-01-07 03:50:59.93	349.24	6.07	-50.4	-71.5	3.8	7.46e-01	0	41	104	0	71	42948
2026-01-07 03:51:00.93	349.08	6.11	-50.5	-71.4	3.8	7.47e-01	0	41	104	0	71	42888
2026-01-07 03:51:01.93	348.93	6.15	-50.5	-71.4	3.8	7.44e-01	0	41	104	0	71	42894
2026-01-07 03:51:02.94	348.77	6.19	-50.5	-71.4	3.8	7.45e-01	0	41	104	0	71	42866
2026-01-07 03:51:03.94	348.62	6.23	-50.5	-71.5	3.8	7.45e-01	0	41	104	0	71	42919
2026-01-07 03:51:04.94	348.46	6.27	-50.4	-71.4	3.8	7.44e-01	0	42	104	0	71	42842
2026-01-07 03:51:05.95	348.31	6.31	-50.4	-71.4	3.8	7.47e-01	0	42	104	0	71	42885
2026-01-07 03:51:06.95	348.15	6.35	-50.5	-71.4	3.8	7.44e-01	0	41	104	0	71	42764
2026-01-07 03:51:07.96	347.99	6.38	-50.4	-71.4	3.8	7.44e-01	0	41	104	0	71	42733
2026-01-07 03:51:08.96	347.83	6.42	-50.4	-71.4	3.8	7.46e-01	0	41	104	0	71	42753
2026-01-07 03:51:09.96	347.67	6.46	-50.4	-71.4	3.8	7.48e-01	0	42	104	0	71	42784
2026-01-07 03:51:10.97	347.51	6.50	-50.4	-71.4	3.8	7.45e-01	0	42	104	0	71	42776
2026-01-07 03:51:11.97	347.36	6.54	-50.4	-71.4	3.8	7.48e-01	0	42	104	0	71	42809
2026-01-07 03:51:12.98	347.20	6.57	-50.5	-71.4	3.8	7.47e-01	0	42	104	0	71	42785
2026-01-07 03:51:13.98	347.04	6.61	-50.4	-71.4	3.8	7.48e-01	0	42	104	0	71	42840
2026-01-07 03:51:14.99	346.87	6.65	-50.5	-71.4	3.8	7.45e-01	0	42	104	0	71	42882
2026-01-07 03:51:15.99	346.71	6.69	-50.5	-71.4	3.8	7.48e-01	0	42	104	0	71	42761
2026-01-07 03:51:16.99	346.55	6.72	-50.5	-71.4	3.8	7.47e-01	0	42	104	0	71	42858
2026-01-07 03:51:18.00	346.39	6.76	-50.5	-71.4	3.8	7.47e-01	0	42	104	0	71	42791
2026-01-07 03:51:19.00	346.23	6.80	-50.5	-71.4	3.8	7.47e-01	0	42	104	0	71	42810
2026-01-07 03:51:20.01	346.06	6.83	-50.5	-71.4	3.8	7.46e-01	0	42	104	0	71	42798
2026-01-07 03:51:21.01	345.90	6.87	-50.5	-71.5	3.8	7.44e-01	0	42	104	0	71	42913
2026-01-07 03:51:22.02	345.73	6.91	-50.5	-71.4	3.8	7.45e-01	0	42	104	0	71	42764
2026-01-07 03:51:23.02	345.57	6.94	-50.4	-71.4	3.8	7.45e-01	0	42	104	0	71	42798
2026-01-07 03:51:24.03	345.40	6.98	-50.5	-71.4	3.8	7.44e-01	0	42	104	0	71	42726
2026-01-07 03:51:25.03	345.24	7.01	-50.5	-71.4	3.8	7.46e-01	0	42	104	0	71	42734
2026-01-07 03:51:26.04	345.07	7.05	-50.4	-71.5	3.8	7.44e-01	0	42	104	0	71	42926
2026-01-07 03:51:27.04	344.91	7.09	-50.4	-71.4	3.8	7.48e-01	0	42	104	0	71	42861
2026-01-07 03:51:28.04	344.74	7.12	-50.4	-71.4	3.8	7.45e-01	0	42	104	0	71	42748
2026-01-07 03:51:29.05	344.57	7.16	-50.5	-71.4	3.8	7.46e-01	0	42	104	0	71	42780
2026-01-07 03:51:30.05	344.41	7.19	-50.5	-71.4	3.8	7.48e-01	0	42	104	0	71	42769
2026-01-07 03:51:31.06	344.24	7.23	-50.5	-71.4	3.8	7.46e-01	0	42	104	0	71	42684
2026-01-07 03:51:32.06	344.07	7.26	-50.4	-71.4	3.8	7.44e-01	0	42	104	0	71	42794
2026-01-07 03:51:33.07	343.90	7.30	-50.4	-71.4	3.8	7.47e-01	0	42	104	0	71	42776
2026-01-07 03:51:34.07	343.73	7.33	-50.5	-71.4	3.8	7.47e-01	0	42	104	0	71	42761
2026-01-07 03:51:35.07	343.56	7.36	-50.5	-71.4	3.8	7.46e-01	0	42	104	0	71	42776
2026-01-07 03:51:36.08	343.39	7.40	-50.5	-71.4	3.8	7.46e-01	0	42	104	0	71	42761
2026-01-07 03:51:37.08	343.22	7.43	-50.5	-71.4	3.8	7.46e-01	0	42	104	0	71	42771
2026-01-07 03:51:38.09	343.05	7.47	-50.3	-71.4	3.8	7.45e-01	0	42	104	0	71	42722
2026-01-07 03:51:39.09	342.88	7.50	-50.4	-71.4	3.8	7.47e-01	0	42	104	0	71	42759
2026-01-07 03:51:40.09	342.70	7.53	-50.5	-71.4	3.8	7.48e-01	0	42	104	0	71	42834
2026-01-07 03:51:41.10	342.53	7.57	-50.4	-71.4	3.8	7.46e-01	0	42	104	0	71	42723
2026-01-07 03:51:42.10	342.36	7.60	-50.5	-71.4	3.8	7.46e-01	0	42	104	0	71	42752
2026-01-07 03:51:43.11	342.18	7.63	-50.5	-71.4	3.8	7.47e-01	0	42	104	0	71	42751
2026-01-07 03:51:44.11	342.01	7.66	-50.4	-71.4	3.8	7.49e-01	0	42	104	0	71	42783
2026-01-07 03:51:45.12	341.84	7.70	-50.5	-71.4	3.8	7.46e-01	0	42	104	0	71	42839
2026-01-07 03:51:46.12	341.66	7.73	-50.5	-71.4	3.8	7.46e-01	0	42	104	0	71	42828
2026-01-07 03:51:47.13	341.49	7.76	-50.5	-71.4	3.8	7.46e-01	0	42	104	0	71	42651
2026-01-07 03:51:48.13	341.31	7.79	-50.4	-71.4	3.8	7.47e-01	0	42	104	0	71	42692
2026-01-07 03:51:49.13	341.14	7.83	-50.5	-71.4	3.8	7.46e-01	0	42	104	0	71	42570
2026-01-07 03:51:50.14	340.96	7.86	-50.5	-71.4	3.8	7.45e-01	0	42	104	0	71	42521
2026-01-07 03:51:51.14	340.78	7.89	-50.4	-71.4	3.8	7.48e-01	0	42	104	0	71	42593
2026-01-07 03:51:52.15	340.60	7.92	-50.5	-71.4	3.8	7.47e-01	0	42	104	0	71	42443
2026-01-07 03:51:53.15	340.43	7.95	-50.5	-71.3	3.8	7.45e-01	0	42	104	0	71	42253
2026-01-07 03:51:54.16	340.25	7.98	-50.5	-71.3	3.8	7.47e-01	0	42	104	0	71	42067
2026-01-07 03:51:55.16	340.07	8.01	-50.4	-71.3	3.8	7.46e-01	0	42	104	0	71	41968
2026-01-07 03:51:56.16	339.89	8.04	-50.4	-71.3	3.8	7.45e-01	0	42	104	0	71	42156
2026-01-07 03:51:57.17	339.71	8.07	-50.5	-71.4	3.8	7.46e-01	0	42	104	0	71	42484
2026-01-07 03:51:58.17	339.53	8.10	-50.4	-71.4	3.8	7.49e-01	0	42	104	0	71	42662
2026-01-07 03:51:59.18	339.35	8.13	-50.4	-71.4	3.8	7.45e-01	0	42	104	0	71	42715
2026-01-07 03:52:00.18	339.17	8.16	-50.4	-71.4	3.8	7.45e-01	0	42	104	0	71	42628
2026-01-07 03:52:01.18	338.99	8.19	-50.4	-71.4	3.8	7.46e-01	0	42	104	0	71	42496
2026-01-07 03:52:02.19	338.81	8.22	-50.4	-71.3	3.8	7.47e-01	0	42	104	0	71	42238
2026-01-07 03:52:03.19	338.63	8.25	-50.5	-71.3	3.8	7.47e-01	0	42	104	0	71	42315
2026-01-07 03:52:04.19	338.45	8.28	-50.4	-71.3	3.8	7.49e-01	0	42	104	0	71	42350
2026-01-07 03:52:05.20	338.26	8.30	-50.5	-71.3	3.8	7.47e-01	0	42	104	0	71	42270
2026-01-07 03:52:06.20	338.08	8.33	-50.5	-71.3	3.8	7.44e-01	0	43	104	0	71	42038
2026-01-07 03:52:07.20	337.90	8.36	-50.4	-71.1	3.8	7.44e-01	0	42	104	0	71	41270
2026-01-07 03:52:08.21	337.71	8.39	-50.5	-70.9	3.8	7.42e-01	0	43	104	0	71	40403
2026-01-07 03:52:09.21	337.53	8.42	-50.5	-70.8	3.8	7.47e-01	0	43	104	0	71	39735
2026-01-07 03:52:10.21	337.34	8.44	-50.4	-70.7	3.8	7.46e-01	0	42	104	0	71	39367
2026-01-07 03:52:11.22	337.16	8.47	-50.5	-70.7	3.8	7.46e-01	0	42	104	0	71	39558
2026-01-07 03:52:12.22	336.97	8.50	-50.4	-71.0	3.8	7.46e-01	0	42	104	0	71	40548
2026-01-07 03:52:13.23	336.79	8.52	-50.5	-71.2	3.8	7.45e-01	0	43	104	0	71	41478
2026-01-07 03:52:14.23	336.60	8.55	-50.4	-71.1	3.8	7.46e-01	0	42	104	0	71	41172
2026-01-07 03:52:15.24	336.41	8.58	-50.5	-70.4	3.8	7.48e-01	0	42	104	0	71	38204
2026-01-07 03:52:16.24	336.23	8.60	-50.4	-69.6	3.8	7.46e-01	0	43	104	0	71	34768
2026-01-07 03:52:17.24	336.04	8.63	-50.4	-69.2	3.9	7.43e-01	0	42	104	0	71	33026
2026-01-07 03:52:18.25	335.85	8.65	-50.5	-70.1	3.8	7.47e-01	0	43	104	0	71	36929
2026-01-07 03:52:19.25	335.67	8.68	-50.5	-71.2	3.8	7.47e-01	0	43	104	0	71	41618
2026-01-07 03:52:20.26	335.48	8.70	-50.5	-71.2	3.8	7.44e-01	0	42	104	0	71	41789
2026-01-07 03:52:21.26	335.29	8.73	-50.4	-70.2	3.8	7.45e-01	0	42	104	0	71	37200
2026-01-07 03:52:22.26	335.10	8.75	-50.4	-70.0	3.8	7.47e-01	0	42	104	0	71	36299
2026-01-07 03:52:23.27	334.91	8.78	-50.4	-70.7	3.8	7.45e-01	0	43	104	0	71	39547
2026-01-07 03:52:24.27	334.72	8.80	-50.5	-71.3	3.8	7.48e-01	0	43	104	0	71	42017
2026-01-07 03:52:25.27	334.53	8.82	-50.4	-70.2	3.8	7.44e-01	0	43	104	0	71	37094
2026-01-07 03:52:26.28	334.34	8.85	-50.4	-68.0	4.1	7.33e-01	0	43	104	0	71	28888
2026-01-07 03:52:27.29	334.15	8.87	-50.3	-66.9	4.4	7.25e-01	0	42	104	0	71	25441
2026-01-07 03:52:28.29	333.96	8.89	-50.4	-67.1	4.0	7.42e-01	0	43	104	0	71	25905
2026-01-07 03:52:29.29	333.77	8.91	-50.3	-66.2	4.8	7.18e-01	0	43	104	0	71	23442
2026-01-07 03:52:30.30	333.58	8.94	-50.3	-65.4	5.2	7.02e-01	0	43	0	0	71	21418
2026-01-07 03:52:31.30	333.38	8.96	-50.3	-63.9	6.3	6.77e-01	0	43	0	1048576	71	18045
2026-01-07 03:52:32.31	333.19	8.98	-50.0	-61.2	8.7	6.35e-01	0	43	0	2621440	71	13172
2026-01-07 03:52:33.31	333.00	9.00	-49.5	-58.0	12.1	6.05e-01	0	43	0	4718592	71	9110
2026-01-07 03:52:34.31	332.81	9.02	-48.6	-54.9	15.4	6.03e-01	0	42	0	6291456	69	7200
2026-01-07 03:52:35.32	332.61	9.04	-48.8	-55.9	14.6	6.03e-01	0	43	0	8388608	68	8555
2026-01-07 03:52:36.32	332.42	9.07	-49.4	-59.2	10.3	6.16e-01	0	43	0	10485760	70	11103
2026-01-07 03:52:37.32	332.23	9.09	-46.2	-50.2	19.9	6.01e-01	0	43	0	12058624	64	5545
2026-01-07 03:52:38.34	332.03	9.11	-46.6	-51.0	18.5	6.02e-01	0	43	0	14155776	65	5757
2026-01-07 03:52:39.38	331.83	9.13	-46.9	-51.6	18.4	6.02e-01	0	43	0	16252928	65	6149
2026-01-07 03:52:40.37	331.64	9.15	-46.4	-50.5	19.7	6.02e-01	0	43	0	17825792	64	5738
2026-01-07 03:52:41.42	331.43	9.17	-46.0	-49.8	20.5	6.01e-01	0	42	0	19922944	63	5613
2026-01-07 03:52:42.39	331.24	9.18	-46.4	-50.3	20.0	6.02e-01	0	43	0	21495808	63	5981
2026-01-07 03:52:43.39	331.05	9.20	-46.2	-50.0	20.2	6.02e-01	0	43	0	23592960	63	5732
2026-01-07 03:52:44.39	330.85	9.22	-46.1	-49.8	20.5	6.02e-01	0	42	0	25165824	63	5611
2026-01-07 03:52:45.39	330.66	9.24	-45.9	-49.5	20.8	6.04e-01	0	43	0	27262976	63	5414
2026-01-07 03:52:46.40	330.46	9.26	-45.8	-49.4	20.7	6.03e-01	0	43	0	29360128	63	5360
2026-01-07 03:52:47.40	330.27	9.27	-46.0	-49.7	20.5	6.03e-01	0	43	0	30932992	63	5535
2026-01-07 03:52:48.40	330.07	9.29	-45.7	-49.2	20.9	6.02e-01	0	43	0	33030144	63	5247
2026-01-07 03:52:49.40	329.87	9.31	-45.5	-49.0	21.1	6.03e-01	0	43	0	34603008	63	5102
2026-01-07 03:52:50.41	329.67	9.33	-44.9	-48.1	22.0	6.02e-01	0	43	0	36700160	61	5204
2026-01-07 03:52:51.41	329.48	9.34	-45.1	-48.4	21.8	6.00e-01	0	43	0	38273024	61	5383
2026-01-07 03:52:52.41	329.28	9.36	-45.0	-48.2	21.9	6.00e-01	0	43	0	40370176	61	5255
2026-01-07 03:52:53.41	329.08	9.37	-44.9	-48.1	22.0	6.04e-01	0	43	0	42467328	61	5176
2026-01-07 03:52:54.42	328.88	9.39	-44.6	-47.7	22.4	6.01e-01	0	43	0	44040192	61	4963
2026-01-07 03:52:55.42	328.69	9.40	-44.9	-48.0	22.2	6.02e-01	0	43	0	46137344	61	5129
2026-01-07 03:52:56.43	328.49	9.42	-44.9	-48.0	22.2	6.02e-01	0	43	0	48234496	61	5116
2026-01-07 03:52:57.48	328.28	9.44	-44.7	-47.9	22.3	6.02e-01	0	43	0	49807360	61	5082
2026-01-07 03:52:58.44	328.09	9.45	-44.5	-47.6	22.5	6.03e-01	0	43	0	51904512	61	4918
2026-01-07 03:52:59.44	327.89	9.46	-44.5	-47.8	22.3	6.02e-01	0	43	0	53477376	60	5282
2026-01-07 03:53:00.44	327.69	9.48	-44.5	-47.6	22.5	6.03e-01	0	43	0	55574528	60	5201
2026-01-07 03:53:01.45	327.49	9.49	-44.4	-47.5	22.5	6.03e-01	0	43	0	57147392	60	5150
2026-01-07 03:53:02.45	327.29	9.50	-44.5	-47.6	22.5	6.03e-01	0	43	0	59244544	60	5191
2026-01-07 03:53:03.45	327.09	9.52	-44.5	-47.5	22.6	6.01e-01	0	43	0	61341696	60	5153
2026-01-07 03:53:04.45	326.89	9.53	-44.6	-47.7	22.5	6.04e-01	0	43	0	62914560	60	5225
2026-01-07 03:53:05.45	326.69	9.54	-44.5	-47.6	22.5	6.03e-01	0	43	0	65011712	60	5196
2026-01-07 03:53:06.46	326.49	9.55	-44.3	-47.6	22.5	6.02e-01	0	43	0	66584576	60	5165
2026-01-07 03:53:07.46	326.29	9.56	-44.2	-47.6	22.7	6.03e-01	0	43	0	68681728	59	5493
2026-01-07 03:53:08.46	326.09	9.58	-44.2	-47.8	22.4	6.01e-01	0	43	0	70254592	59	5635
2026-01-07 03:53:09.47	325.88	9.59	-44.1	-47.8	22.4	6.02e-01	0	43	0	72351744	59	5652
2026-01-07 03:53:10.47	325.68	9.60	-44.1	-47.9	22.3	6.02e-01	0	43	0	74448896	59	5678
2026-01-07 03:53:11.47	325.48	9.61	-44.2	-47.8	22.4	6.01e-01	0	43	0	76021760	59	5642
2026-01-07 03:53:12.48	325.28	9.62	-44.3	-47.9	22.3	6.02e-01	0	43	0	78118912	59	5691
2026-01-07 03:53:13.48	325.08	9.63	-44.3	-47.8	22.5	6.05e-01	0	43	0	79691776	59	5593
2026-01-07 03:53:14.48	324.88	9.64	-44.3	-47.7	22.5	6.00e-01	0	43	0	81788928	59	5590
2026-01-07 03:53:15.48	324.67	9.65	-44.4	-47.9	22.3	5.98e-01	0	43	0	83886080	59	5698
2026-01-07 03:53:16.48	324.47	9.65	-44.3	-47.8	22.4	6.03e-01	0	43	0	85458944	59	5596
2026-01-07 03:53:17.48	324.27	9.66	-44.3	-47.8	22.5	6.01e-01	0	43	0	87556096	59	5602
2026-01-07 03:53:18.49	324.07	9.67	-44.3	-47.9	22.4	6.03e-01	0	43	0	89128960	59	5662
2026-01-07 03:53:19.49	323.87	9.68	-44.4	-47.9	22.3	6.03e-01	0	43	0	91226112	59	5701
2026-01-07 03:53:20.49	323.66	9.69	-44.4	-47.9	22.3	6.02e-01	0	43	0	93323264	59	5705
2026-01-07 03:53:21.49	323.46	9.69	-44.5	-48.0	22.3	6.02e-01	0	43	0	94896128	59	5728
2026-01-07 03:53:22.50	323.26	9.70	-44.3	-47.7	22.5	6.02e-01	0	43	0	96993280	59	5537
2026-01-07 03:53:23.50	323.05	9.71	-44.5	-47.9	22.3	6.01e-01	0	43	0	98566144	59	5700
2026-01-07 03:53:24.51	322.85	9.71	-44.5	-47.9	22.3	6.00e-01	0	43	0	100663296	59	5698
2026-01-07 03:53:25.51	322.65	9.72	-44.5	-47.9	22.2	6.04e-01	0	43	0	102236160	60	5370
2026-01-07 03:53:26.51	322.44	9.72	-44.3	-47.5	22.6	6.01e-01	0	43	0	104333312	60	5146
2026-01-07 03:53:27.52	322.24	9.73	-44.5	-47.6	22.5	6.00e-01	0	43	0	106430464	60	5208
2026-01-07 03:53:28.52	322.04	9.73	-44.6	-47.7	22.4	5.99e-01	0	43	0	108003328	60	5238
2026-01-07 03:53:29.52	321.83	9.74	-44.8	-47.9	22.2	6.02e-01	0	43	0	110100480	60	5382
2026-01-07 03:53:30.52	321.63	9.74	-44.6	-47.7	22.4	6.03e-01	0	43	0	111673344	60	5266
2026-01-07 03:53:31.52	321.43	9.75	-44.4	-47.5	22.5	6.01e-01	0	43	0	113770496	60	5159
2026-01-07 03:53:32.52	321.22	9.75	-44.4	-47.7	22.5	6.04e-01	0	43	0	115867648	60	5237
2026-01-07 03:53:33.53	321.02	9.75	-44.3	-47.5	22.6	6.02e-01	0	43	0	117440512	60	5136
2026-01-07 03:53:34.53	320.81	9.76	-44.6	-48.0	22.2	6.01e-01	0	43	0	119537664	60	5423
2026-01-07 03:53:35.53	320.61	9.76	-44.2	-47.5	22.5	6.01e-01	0	43	0	121110528	60	5117
2026-01-07 03:53:36.53	320.41	9.76	-44.4	-47.8	22.3	6.02e-01	0	43	0	123207680	60	5322
2026-01-07 03:53:37.53	320.20	9.76	-44.4	-47.9	22.2	6.00e-01	0	43	0	124780544	60	5401
2026-01-07 03:53:38.54	320.00	9.77	-44.0	-47.5	22.6	6.03e-01	0	43	0	126877696	60	5120
2026-01-07 03:53:39.54	319.80	9.77	-44.3	-47.9	22.3	6.04e-01	0	43	0	128974848	60	5362
2026-01-07 03:53:40.54	319.59	9.77	-44.0	-47.4	22.6	6.04e-01	0	43	0	130547712	60	5095
2026-01-07 03:53:41.54	319.39	9.77	-44.2	-47.7	22.5	6.01e-01	0	43	0	132644864	60	5240
2026-01-07 03:53:42.54	319.18	9.77	-44.4	-47.8	22.3	6.01e-01	0	43	0	134217728	60	5285
2026-01-07 03:53:43.54	318.98	9.77	-44.6	-47.8	22.4	6.02e-01	0	43	0	136314880	60	5331
2026-01-07 03:53:44.55	318.78	9.77	-44.9	-48.2	22.0	6.01e-01	0	43	0	138412032	60	5531
2026-01-07 03:53:45.55	318.57	9.77	-44.5	-47.5	22.6	6.00e-01	0	43	0	139984896	60	5111
2026-01-07 03:53:46.54	318.37	9.77	-45.0	-48.2	22.0	6.02e-01	0	43	0	142082048	60	5551
2026-01-07 03:53:47.55	318.16	9.77	-44.6	-47.5	22.5	6.00e-01	0	43	0	143654912	60	5139
2026-01-07 03:53:48.55	317.96	9.76	-44.8	-47.8	22.4	6.00e-01	0	43	0	145752064	60	5287
2026-01-07 03:53:49.55	317.76	9.76	-45.1	-48.1	22.0	6.02e-01	0	43	0	147324928	61	5190
2026-01-07 03:53:50.55	317.55	9.76	-44.7	-47.7	22.4	6.00e-01	0	43	0	149422080	61	4954
2026-01-07 03:53:51.55	317.35	9.76	-44.8	-47.9	22.2	6.02e-01	0	43	0	151519232	61	5099
2026-01-07 03:53:52.55	317.15	9.75	-44.6	-47.7	22.4	6.03e-01	0	43	0	153092096	61	4978
2026-01-07 03:53:53.55	316.94	9.75	-44.5	-47.8	22.4	6.00e-01	0	43	0	155189248	60	5284
2026-01-07 03:53:54.56	316.74	9.75	-44.7	-48.1	22.1	6.01e-01	0	43	0	156762112	60	5467
2026-01-07 03:53:55.56	316.53	9.74	-44.6	-47.8	22.3	6.00e-01	0	43	0	158859264	60	5335
2026-01-07 03:53:56.56	316.33	9.74	-44.8	-48.2	22.1	6.02e-01	0	43	0	160432128	60	5559
2026-01-07 03:53:57.56	316.13	9.74	-44.9	-48.2	22.0	6.02e-01	0	43	0	162529280	60	5546
2026-01-07 03:53:58.56	315.93	9.73	-44.6	-47.6	22.5	6.03e-01	0	43	0	164626432	60	5191
2026-01-07 03:53:59.56	315.72	9.73	-45.1	-48.1	22.1	6.01e-01	0	43	0	166199296	60	5513
2026-01-07 03:54:00.57	315.52	9.72	-44.7	-47.6	22.5	6.03e-01	0	43	0	168296448	60	5194
2026-01-07 03:54:01.57	315.31	9.71	-44.9	-47.9	22.3	6.02e-01	0	43	0	170393600	60	5379
2026-01-07 03:54:02.57	315.11	9.71	-44.9	-48.0	22.1	6.04e-01	0	43	0	171966464	60	5451
2026-01-07 03:54:03.58	314.91	9.70	-44.7	-47.9	22.3	6.02e-01	0	43	0	174063616	60	5354
2026-01-07 03:54:04.58	314.70	9.69	-44.9	-48.2	22.0	6.03e-01	0	43	0	175636480	60	5536
2026-01-07 03:54:05.58	314.50	9.69	-44.9	-48.1	22.1	6.01e-01	0	43	0	177733632	60	5499
2026-01-07 03:54:06.58	314.30	9.68	-45.1	-48.2	22.0	6.01e-01	0	43	0	179306496	60	5556
2026-01-07 03:54:07.99	314.01	9.67	-45.1	-48.5	21.6	6.02e-01	0	43	0	181927936	61	5427
2026-01-07 03:54:08.71	313.87	9.66	-44.8	-48.1	22.0	6.05e-01	0	43	0	183500800	61	5214
2026-01-07 03:54:10.00	313.61	9.65	-45.2	-49.0	21.3	6.01e-01	0	43	0	186122240	61	5726
2026-01-07 03:54:10.71	313.46	9.65	-45.0	-48.6	21.5	6.03e-01	0	43	0	187170816	61	5516
2026-01-07 03:54:12.00	313.20	9.63	-45.0	-48.7	21.4	6.02e-01	0	43	0	189792256	61	5592
2026-01-07 03:54:12.72	313.06	9.63	-44.9	-48.8	21.4	6.02e-01	0	43	0	190840832	61	5607
2026-01-07 03:54:14.04	312.79	9.61	-44.4	-47.9	22.2	6.00e-01	0	43	0	193462272	60	5392
2026-01-07 03:54:14.75	312.65	9.61	-44.8	-48.5	21.7	6.02e-01	0	43	0	195035136	60	5770
2026-01-07 03:54:16.04	312.39	9.59	-44.9	-48.3	21.8	6.03e-01	0	43	0	197132288	61	5334
2026-01-07 03:54:16.76	312.25	9.59	-44.8	-48.1	22.0	6.04e-01	0	43	0	198705152	61	5213
2026-01-07 03:54:18.04	311.99	9.57	-45.4	-48.9	21.2	6.03e-01	0	43	0	200802304	61	5697
2026-01-07 03:54:18.76	311.84	9.56	-44.8	-48.0	22.1	6.04e-01	0	43	0	202375168	61	5137
2026-01-07 03:54:20.05	311.59	9.55	-45.3	-48.6	21.6	6.00e-01	0	43	0	204472320	61	5470
2026-01-07 03:54:20.76	311.44	9.54	-44.9	-48.1	22.0	6.01e-01	0	43	0	206045184	61	5167
2026-01-07 03:54:22.05	311.19	9.53	-45.3	-48.5	21.6	6.04e-01	0	43	0	208666624	61	5443
2026-01-07 03:54:22.77	311.04	9.52	-44.7	-47.6	22.5	6.02e-01	0	43	0	209715200	61	4914
2026-01-07 03:54:24.06	310.78	9.50	-45.2	-48.4	21.7	6.04e-01	0	43	0	212336640	61	5370
2026-01-07 03:54:24.96	310.60	9.49	-45.0	-48.1	22.0	6.02e-01	0	43	0	213909504	61	5185
2026-01-07 03:54:25.98	310.40	9.47	-45.4	-48.6	21.5	6.02e-01	0	43	0	216006656	61	5523
2026-01-07 03:54:26.98	310.20	9.46	-45.1	-48.2	21.9	6.03e-01	0	43	0	217579520	61	5256
2026-01-07 03:54:27.99	310.00	9.45	-45.2	-48.3	21.8	6.01e-01	0	43	0	219676672	61	5329
2026-01-07 03:54:28.99	309.80	9.43	-45.1	-48.2	21.9	6.03e-01	0	43	0	221249536	61	5266
2026-01-07 03:54:29.99	309.60	9.42	-45.2	-48.4	21.7	6.02e-01	0	43	0	223346688	61	5386
2026-01-07 03:54:30.99	309.41	9.40	-45.2	-48.6	21.6	6.02e-01	0	43	0	225443840	61	5490
2026-01-07 03:54:31.99	309.21	9.39	-44.8	-48.1	22.0	6.02e-01	0	43	0	227016704	61	5175
2026-01-07 03:54:33.00	309.01	9.37	-45.0	-48.4	21.8	6.01e-01	0	43	0	229113856	61	5341
2026-01-07 03:54:34.00	308.81	9.36	-44.9	-48.4	21.7	6.04e-01	0	43	0	230686720	61	5355
2026-01-07 03:54:35.00	308.61	9.34	-44.8	-48.5	21.7	6.04e-01	0	43	0	232783872	61	5434
2026-01-07 03:54:36.00	308.41	9.32	-45.0	-48.8	21.4	6.00e-01	0	43	0	234881024	61	5617
2026-01-07 03:54:37.00	308.22	9.31	-45.1	-48.4	21.7	6.03e-01	0	43	0	236453888	61	5397
2026-01-07 03:54:38.00	308.02	9.29	-45.3	-48.7	21.4	6.04e-01	0	43	0	238551040	61	5572
2026-01-07 03:54:39.00	307.82	9.27	-45.3	-48.6	21.6	6.02e-01	0	43	0	240123904	61	5468
2026-01-07 03:54:40.01	307.63	9.25	-45.6	-48.9	21.2	6.03e-01	0	43	0	242221056	61	5722
2026-01-07 03:54:41.01	307.43	9.24	-45.4	-48.6	21.5	6.01e-01	0	43	0	243793920	61	5496
2026-01-07 03:54:42.01	307.23	9.22	-45.5	-48.8	21.4	6.08e-01	0	43	0	245891072	61	5635
2026-01-07 03:54:43.01	307.04	9.20	-45.5	-48.9	21.3	6.03e-01	0	43	0	247988224	61	5663
2026-01-07 03:54:44.01	306.84	9.18	-45.3	-48.7	21.4	6.00e-01	0	43	0	249561088	61	5587
2026-01-07 03:54:45.02	306.65	9.16	-45.3	-48.8	21.4	6.01e-01	0	43	0	251658240	61	5601
2026-01-07 03:54:46.02	306.45	9.14	-45.1	-48.5	21.6	6.01e-01	0	43	0	253231104	61	5461
2026-01-07 03:54:47.02	306.26	9.12	-45.6	-49.3	20.9	6.03e-01	0	43	0	255328256	61	5943
2026-01-07 03:54:48.02	306.06	9.10	-45.4	-48.7	21.3	6.02e-01	0	43	0	257425408	62	5245
2026-01-07 03:54:49.02	305.87	9.08	-45.1	-48.4	21.7	5.99e-01	0	43	0	258998272	62	5043
2026-01-07 03:54:50.01	305.68	9.06	-45.7	-49.3	20.8	6.02e-01	0	43	0	261095424	62	5641
2026-01-07 03:54:51.02	305.48	9.04	-45.2	-48.5	21.5	6.03e-01	0	43	0	262668288	62	5136
2026-01-07 03:54:52.02	305.29	9.02	-44.9	-48.0	22.1	6.04e-01	0	43	0	264765440	61	5128
2026-01-07 03:54:53.02	305.10	9.00	-45.3	-48.7	21.4	6.02e-01	0	43	0	266862592	61	5556
2026-01-07 03:54:54.02	304.91	8.98	-50.7	-66.6	5.1	7.22e-01	0	43	0	268435456	72	23121
2026-01-07 03:54:55.02	304.71	8.96	-51.2	-71.3	3.8	7.43e-01	0	43	104	268435456	73	37648
2026-01-07 03:54:56.02	304.52	8.94	-51.2	-71.6	3.8	7.45e-01	0	43	104	268435456	73	38794
2026-01-07 03:54:57.03	304.33	8.91	-51.2	-71.9	3.8	7.41e-01	0	43	104	268435456	73	40226
2026-01-07 03:54:58.03	304.14	8.89	-51.3	-72.0	3.8	7.45e-01	0	43	104	268435456	73	40552
2026-01-07 03:54:59.03	303.95	8.87	-51.3	-72.0	3.8	7.49e-01	0	43	104	268435456	73	40828
2026-01-07 03:55:00.03	303.76	8.85	-51.6	-72.1	3.8	7.48e-01	0	43	104	268435456	74	38794
2026-01-07 03:55:01.04	303.57	8.82	-51.7	-72.1	3.8	7.44e-01	0	43	104	268435456	74	39095
2026-01-07 03:55:02.04	303.38	8.80	-51.7	-72.1	3.8	7.46e-01	0	43	104	268435456	74	39076
2026-01-07 03:55:03.04	303.19	8.77	-51.7	-72.2	3.8	7.46e-01	0	43	104	268435456	74	39158
2026-01-07 03:55:04.04	303.00	8.75	-51.3	-72.2	3.8	7.48e-01	0	43	104	268435456	74	39259
2026-01-07 03:55:05.04	302.81	8.73	-51.6	-72.2	3.8	7.44e-01	0	43	104	268435456	74	39365
2026-01-07 03:55:06.05	302.62	8.70	-51.7	-72.2	3.8	7.45e-01	0	43	104	268435456	74	39226
2026-01-07 03:55:07.05	302.43	8.68	-51.6	-72.2	3.8	7.47e-01	0	43	104	268435456	74	39290
2026-01-07 03:55:08.05	302.24	8.65	-51.4	-72.2	3.8	7.46e-01	0	43	104	268435456	74	39224
2026-01-07 03:55:09.06	302.05	8.63	-51.6	-72.2	3.8	7.47e-01	0	43	104	268435456	74	39196
2026-01-07 03:55:10.06	301.87	8.60	-51.7	-72.2	3.8	7.47e-01	0	43	104	268435456	74	39284
2026-01-07 03:55:11.06	301.68	8.57	-51.5	-72.1	3.8	7.44e-01	0	43	104	268435456	74	39126
2026-01-07 03:55:12.07	301.49	8.55	-51.5	-72.1	3.8	7.49e-01	0	43	104	268435456	74	39084
2026-01-07 03:55:13.07	301.31	8.52	-51.4	-72.1	3.8	7.46e-01	0	43	104	268435456	74	39012
2026-01-07 03:55:14.08	301.12	8.50	-51.2	-72.1	3.8	7.46e-01	0	43	104	268435456	74	38997
2026-01-07 03:55:15.08	300.93	8.47	-50.9	-72.1	3.8	7.43e-01	0	43	104	268435456	73	41177
2026-01-07 03:55:16.08	300.75	8.44	-50.8	-72.1	3.8	7.43e-01	0	43	104	268435456	73	41128
2026-01-07 03:55:17.08	300.56	8.41	-50.8	-72.1	3.8	7.49e-01	0	43	104	268435456	73	41015
2026-01-07 03:55:18.09	300.38	8.39	-50.9	-72.1	3.8	7.46e-01	0	43	104	268435456	73	41167
2026-01-07 03:55:19.09	300.20	8.36	-50.8	-72.1	3.8	7.43e-01	0	43	104	268435456	73	41143
2026-01-07 03:55:20.10	300.01	8.33	-50.8	-72.1	3.8	7.44e-01	0	43	104	268435456	73	41061
2026-01-07 03:55:21.10	299.83	8.30	-50.9	-72.1	3.8	7.45e-01	0	43	104	268435456	73	41071
2026-01-07 03:55:22.11	299.64	8.27	-50.9	-72.1	3.8	7.45e-01	0	43	104	268435456	73	41105
2026-01-07 03:55:23.11	299.46	8.25	-50.8	-72.1	3.8	7.48e-01	0	43	104	268435456	73	41003
2026-01-07 03:55:24.12	299.28	8.22	-50.8	-72.1	3.8	7.47e-01	0	43	104	268435456	73	40985
2026-01-07 03:55:25.12	299.10	8.19	-50.8	-72.0	3.8	7.47e-01	0	43	104	268435456	73	40926
2026-01-07 03:55:26.12	298.92	8.16	-50.9	-72.1	3.8	7.46e-01	0	43	104	268435456	73	41074
2026-01-07 03:55:27.13	298.73	8.13	-50.9	-72.1	3.8	7.42e-01	0	43	104	268435456	73	41124
2026-01-07 03:55:28.14	298.55	8.10	-50.9	-72.1	3.8	7.44e-01	0	43	104	268435456	73	41175
2026-01-07 03:55:29.14	298.37	8.07	-50.8	-72.1	3.8	7.46e-01	0	43	104	268435456	73	41085
2026-01-07 03:55:30.14	298.19	8.04	-50.9	-72.1	3.8	7.46e-01	0	43	104	268435456	73	41118
2026-01-07 03:55:31.15	298.01	8.01	-50.9	-72.1	3.8	7.49e-01	0	43	104	268435456	73	41168
2026-01-07 03:55:32.15	297.83	7.98	-51.0	-72.1	3.8	7.47e-01	0	43	104	268435456	73	41309
2026-01-07 03:55:33.15	297.66	7.95	-50.9	-72.1	3.8	7.45e-01	0	43	104	268435456	73	41293
2026-01-07 03:55:34.16	297.48	7.92	-50.8	-72.1	3.8	7.46e-01	0	43	104	268435456	73	41335
2026-01-07 03:55:35.16	297.30	7.89	-50.9	-72.1	3.8	7.46e-01	0	43	104	268435456	73	41169
2026-01-07 03:55:36.17	297.12	7.85	-50.9	-72.1	3.8	7.46e-01	0	43	104	268435456	73	41146
2026-01-07 03:55:37.17	296.94	7.82	-50.9	-72.1	3.8	7.45e-01	0	43	104	268435456	73	41347
2026-01-07 03:55:38.17	296.77	7.79	-50.9	-72.1	3.8	7.46e-01	0	43	104	268435456	73	41231
2026-01-07 03:55:39.18	296.59	7.76	-50.9	-72.1	3.8	7.48e-01	0	43	104	268435456	73	41057
2026-01-07 03:55:40.18	296.42	7.73	-50.8	-72.1	3.8	7.46e-01	0	43	104	268435456	73	41115
2026-01-07 03:55:41.19	296.24	7.69	-50.8	-72.1	3.8	7.45e-01	0	43	104	268435456	73	41031
2026-01-07 03:55:42.19	296.06	7.66	-50.8	-72.1	3.8	7.45e-01	0	43	104	268435456	73	41018
2026-01-07 03:55:43.20	295.89	7.63	-50.9	-72.1	3.8	7.43e-01	0	43	104	268435456	73	41037
2026-01-07 03:55:44.20	295.72	7.60	-50.8	-72.0	3.8	7.44e-01	0	43	104	268435456	73	40909
2026-01-07 03:55:45.20	295.54	7.56	-50.8	-72.0	3.8	7.49e-01	0	43	104	268435456	73	40937
2026-01-07 03:55:46.21	295.37	7.53	-50.8	-72.0	3.8	7.47e-01	0	43	104	268435456	73	40879
2026-01-07 03:55:47.21	295.20	7.50	-50.8	-72.0	3.8	7.45e-01	0	43	104	268435456	73	40971
2026-01-07 03:55:48.22	295.02	7.46	-50.8	-72.0	3.8	7.43e-01	0	43	104	268435456	73	40912
2026-01-07 03:55:49.22	294.85	7.43	-50.8	-72.0	3.8	7.43e-01	0	43	104	268435456	73	40889
2026-01-07 03:55:50.22	294.68	7.39	-50.8	-72.0	3.8	7.46e-01	0	43	104	268435456	73	40884
2026-01-07 03:55:51.23	294.51	7.36	-50.8	-72.0	3.8	7.45e-01	0	43	104	268435456	73	40802
2026-01-07 03:55:52.23	294.34	7.33	-50.8	-72.0	3.8	7.48e-01	0	43	104	268435456	73	40873
2026-01-07 03:55:53.24	294.17	7.29	-50.8	-72.0	3.8	7.46e-01	0	43	104	268435456	73	40820
2026-01-07 03:55:54.24	294.00	7.26	-50.8	-72.0	3.8	7.45e-01	0	43	104	268435456	73	40826
2026-01-07 03:55:55.25	293.83	7.22	-50.8	-72.0	3.8	7.49e-01	0	43	104	268435456	73	40895
2026-01-07 03:55:56.25	293.66	7.19	-50.8	-72.0	3.8	7.46e-01	0	43	104	268435456	73	40882
2026-01-07 03:55:57.26	293.49	7.15	-50.8	-72.0	3.8	7.46e-01	0	43	104	268435456	73	40821
2026-01-07 03:55:58.26	293.32	7.12	-50.8	-72.0	3.8	7.45e-01	0	43	104	268435456	73	40809
2026-01-07 03:55:59.26	293.16	7.08	-50.8	-72.0	3.8	7.45e-01	0	43	104	268435456	73	40819
2026-01-07 03:56:00.27	292.99	7.05	-50.8	-72.0	3.8	7.49e-01	0	43	104	268435456	73	40796
2026-01-07 03:56:01.27	292.82	7.01	-50.8	-72.0	3.8	7.45e-01	0	43	104	268435456	73	40844
2026-01-07 03:56:02.28	292.66	6.97	-50.8	-72.0	3.8	7.44e-01	0	43	104	268435456	73	40819
2026-01-07 03:56:03.28	292.49	6.94	-50.8	-72.0	3.8	7.47e-01	0	43	104	268435456	73	40811
2026-01-07 03:56:04.29	292.32	6.90	-50.8	-72.0	3.8	7.46e-01	0	43	104	268435456	73	40835
2026-01-07 03:56:05.29	292.16	6.86	-50.8	-72.0	3.8	7.48e-01	0	43	104	268435456	73	40854
2026-01-07 03:56:06.29	292.00	6.83	-50.8	-72.0	3.8	7.46e-01	0	43	104	268435456	73	40857
2026-01-07 03:56:07.30	291.83	6.79	-50.8	-72.0	3.8	7.43e-01	0	43	104	268435456	73	40865
2026-01-07 03:56:08.30	291.67	6.75	-50.8	-72.0	3.8	7.47e-01	0	43	104	268435456	73	40922
2026-01-07 03:56:09.31	291.50	6.72	-50.8	-72.0	3.8	7.42e-01	0	43	104	268435456	73	40814
2026-01-07 03:56:10.31	291.34	6.68	-50.8	-72.0	3.8	7.49e-01	0	43	104	268435456	73	40899
2026-01-07 03:56:11.31	291.18	6.64	-50.8	-72.0	3.8	7.49e-01	0	43	104	268435456	73	40886
2026-01-07 03:56:12.32	291.02	6.61	-50.8	-72.0	3.8	7.48e-01	0	43	104	268435456	73	40882
2026-01-07 03:56:13.32	290.86	6.57	-50.8	-72.0	3.8	7.46e-01	0	43	104	268435456	73	40833
2026-01-07 03:56:14.32	290.70	6.53	-50.8	-72.0	3.8	7.44e-01	0	43	104	268435456	73	40773
2026-01-07 03:56:15.32	290.54	6.49	-50.8	-72.0	3.8	7.45e-01	0	43	104	268435456	73	40824
2026-01-07 03:56:16.33	290.38	6.45	-50.8	-72.0	3.8	7.44e-01	0	43	104	268435456	73	40779
2026-01-07 03:56:17.33	290.22	6.42	-50.8	-72.0	3.8	7.51e-01	0	43	104	268435456	73	40880
2026-01-07 03:56:18.34	290.06	6.38	-50.8	-72.0	3.8	7.47e-01	0	43	104	268435456	73	40895
2026-01-07 03:56:19.34	289.90	6.34	-50.8	-72.0	3.8	7.47e-01	0	43	104	268435456	73	40791
2026-01-07 03:56:20.35	289.74	6.30	-50.8	-72.0	3.8	7.44e-01	0	43	104	268435456	73	40767
2026-01-07 03:56:21.35	289.59	6.26	-50.8	-72.0	3.8	7.49e-01	0	43	104	268435456	73	40896
2026-01-07 03:56:22.35	289.43	6.22	-50.8	-72.0	3.8	7.43e-01	0	43	104	268435456	73	40857
2026-01-07 03:56:23.36	289.27	6.19	-50.8	-72.0	3.8	7.48e-01	0	43	104	268435456	73	40825
2026-01-07 03:56:24.36	289.12	6.15	-50.8	-72.0	3.8	7.47e-01	0	43	104	268435456	73	40849
2026-01-07 03:56:25.37	288.96	6.11	-50.8	-72.0	3.8	7.46e-01	0	43	104	268435456	73	40795
2026-01-07 03:56:26.37	288.80	6.07	-50.8	-72.0	3.8	7.44e-01	0	43	104	268435456	73	40842
2026-01-07 03:56:27.37	288.65	6.03	-50.8	-72.0	3.8	7.43e-01	0	43	104	268435456	73	40833
2026-01-07 03:56:28.38	288.50	5.99	-50.8	-72.0	3.8	7.46e-01	0	43	104	268435456	73	40812
2026-01-07 03:56:29.38	288.34	5.95	-50.8	-72.0	3.8	7.41e-01	0	43	104	268435456	73	40863
2026-01-07 03:56:30.38	288.19	5.91	-50.8	-72.0	3.8	7.47e-01	0	43	104	268435456	73	40909
2026-01-07 03:56:31.39	288.04	5.87	-50.8	-72.0	3.8	7.47e-01	0	43	104	268435456	73	40815
2026-01-07 03:56:32.39	287.88	5.83	-50.8	-72.0	3.8	7.46e-01	0	43	104	268435456	73	40853
2026-01-07 03:56:33.40	287.73	5.79	-50.8	-72.0	3.8	7.43e-01	0	43	104	268435456	73	40850
2026-01-07 03:56:34.40	287.58	5.75	-50.8	-72.0	3.8	7.51e-01	0	43	104	268435456	73	40935
2026-01-07 03:56:35.40	287.43	5.71	-50.8	-72.0	3.8	7.47e-01	0	43	104	268435456	73	40916
2026-01-07 03:56:36.41	287.28	5.67	-50.8	-72.0	3.8	7.48e-01	0	43	104	268435456	73	40940
2026-01-07 03:56:37.41	287.13	5.63	-50.8	-72.0	3.8	7.46e-01	0	43	104	268435456	73	40898
2026-01-07 03:56:38.42	286.98	5.59	-50.8	-72.0	3.8	7.47e-01	0	43	104	268435456	73	40885
2026-01-07 03:56:39.42	286.83	5.55	-50.8	-72.0	3.8	7.44e-01	0	43	104	268435456	73	40882
2026-01-07 03:56:40.43	286.68	5.51	-50.8	-72.0	3.8	7.47e-01	0	43	104	268435456	73	40868
2026-01-07 03:56:41.43	286.53	5.47	-50.8	-72.0	3.8	7.45e-01	0	43	104	268435456	73	40950
2026-01-07 03:56:42.44	286.38	5.43	-50.8	-72.0	3.8	7.45e-01	0	43	104	268435456	73	40875
2026-01-07 03:56:43.44	286.24	5.38	-50.8	-72.0	3.8	7.49e-01	0	43	104	268435456	73	40864
2026-01-07 03:56:44.44	286.09	5.34	-50.8	-72.0	3.8	7.45e-01	0	43	104	268435456	73	40864
2026-01-07 03:56:45.45	285.94	5.30	-50.8	-72.0	3.8	7.48e-01	0	43	104	268435456	73	40853
2026-01-07 03:56:46.46	285.80	5.26	-50.8	-72.0	3.8	7.44e-01	0	43	104	268435456	73	40926
2026-01-07 03:56:47.46	285.65	5.22	-50.8	-72.0	3.8	7.43e-01	0	43	104	268435456	73	40966
2026-01-07 03:56:48.46	285.51	5.18	-50.8	-72.0	3.8	7.41e-01	0	43	104	268435456	73	40883
2026-01-07 03:56:49.47	285.36	5.14	-50.8	-72.0	3.8	7.49e-01	0	43	104	268435456	73	40918
2026-01-07 03:56:50.47	285.22	5.10	-50.8	-72.0	3.8	7.46e-01	0	43	104	268435456	73	40901
2026-01-07 03:56:51.48	285.07	5.05	-50.8	-72.0	3.8	7.45e-01	0	43	104	268435456	73	40844
2026-01-07 03:56:52.48	284.93	5.01	-50.8	-72.0	3.8	7.44e-01	0	43	104	268435456	73	40937
2026-01-07 03:56:53.48	284.79	4.97	-50.8	-72.0	3.8	7.50e-01	0	43	104	268435456	73	40877

#Closed at: 2026-01-07 03:56:54
#Recorded file [268 MB]: D:/Data/31040_260107_065032.dat