passes_logs/2026/01/07/T1/T1__20260107_080748_NOAA_21_JPSS-2_rec.log

#Pass ID: 20260107_080748_NOAA 21 (JPSS-2)
#Satellite: NOAA 21 (JPSS-2)
#Configuration: NOAA 21
#almurnet v.1.7.20251203
#Start time: 2026-01-07 08:07:48

#Version: 2.0.20230620
#Station: T1
#Location: 37.570604 lon 55.790049 lat
#TLE: 1 54234U 22150A   26005.56767909  .00000152  00000+0  92756-4 0  9990
#TLE: 2 54234  98.7490 306.5820 0001036 340.2747  19.8389 14.19532370163472

#Time	Az	El	Level	Level2	SNR	BER	BlckErr	Temp	State	Recorded	gain1	gain2
2026-01-07 08:07:48.89	103.02	5.02	-49.6	-62.5	3.8	1.49e+00	0	40	0	0	71	15358
2026-01-07 08:07:49.89	102.93	5.07	-49.6	-62.5	3.8	1.49e+00	0	40	104	0	71	15378
2026-01-07 08:07:50.89	102.84	5.13	-49.6	-62.5	3.8	1.49e+00	0	40	104	0	71	15371
2026-01-07 08:07:51.90	102.75	5.19	-49.6	-62.5	3.8	1.49e+00	0	40	104	0	71	15346
2026-01-07 08:07:52.90	102.66	5.25	-49.6	-62.5	3.8	1.49e+00	0	40	104	0	71	15367
2026-01-07 08:07:53.91	102.57	5.31	-49.6	-62.5	3.8	1.49e+00	0	41	104	0	71	15395
2026-01-07 08:07:54.91	102.48	5.37	-49.6	-62.5	3.8	1.49e+00	0	41	104	0	71	15362
2026-01-07 08:07:55.91	102.39	5.43	-49.6	-62.5	3.8	1.49e+00	0	41	104	0	71	15359
2026-01-07 08:07:56.92	102.29	5.49	-49.6	-62.5	3.8	1.49e+00	0	41	104	0	71	15383
2026-01-07 08:07:57.92	102.20	5.54	-49.6	-62.6	3.8	1.49e+00	0	41	104	0	71	15437
2026-01-07 08:07:58.93	102.11	5.60	-49.6	-62.6	3.8	1.49e+00	0	41	104	0	71	15413
2026-01-07 08:07:59.93	102.02	5.66	-49.6	-62.6	3.8	1.49e+00	0	41	104	0	71	15504
2026-01-07 08:08:00.94	101.92	5.72	-49.6	-62.6	3.8	1.49e+00	0	41	104	0	71	15462
2026-01-07 08:08:01.94	101.83	5.78	-49.6	-62.6	3.8	1.49e+00	0	41	104	0	71	15446
2026-01-07 08:08:02.95	101.73	5.84	-49.6	-62.6	3.8	1.49e+00	0	41	104	0	71	15512
2026-01-07 08:08:03.95	101.64	5.90	-49.6	-62.6	3.8	1.49e+00	0	41	104	0	71	15462
2026-01-07 08:08:04.95	101.54	5.96	-49.6	-62.6	3.8	1.49e+00	0	41	104	0	71	15494
2026-01-07 08:08:05.96	101.45	6.02	-49.6	-62.6	3.8	1.49e+00	0	41	104	0	71	15480
2026-01-07 08:08:06.96	101.35	6.08	-49.6	-62.6	3.8	1.49e+00	0	41	104	0	71	15490
2026-01-07 08:08:07.97	101.26	6.14	-49.6	-62.6	3.8	1.49e+00	0	41	104	0	71	15436
2026-01-07 08:08:08.97	101.16	6.20	-49.6	-62.5	3.8	1.49e+00	0	41	104	0	71	15310
2026-01-07 08:08:09.98	101.06	6.26	-49.6	-62.5	3.8	1.49e+00	0	41	104	0	71	15259
2026-01-07 08:08:10.98	100.96	6.32	-49.6	-62.4	3.8	1.49e+00	0	41	104	0	71	15157
2026-01-07 08:08:11.98	100.87	6.38	-49.6	-62.3	3.8	1.49e+00	0	41	104	0	71	15029
2026-01-07 08:08:12.99	100.77	6.44	-49.6	-62.3	3.8	1.49e+00	0	41	104	0	71	15041
2026-01-07 08:08:13.99	100.67	6.49	-49.6	-62.3	3.8	1.49e+00	0	41	104	0	71	15050
2026-01-07 08:08:15.00	100.57	6.56	-49.6	-62.3	3.8	1.49e+00	0	41	104	0	71	15037
2026-01-07 08:08:16.00	100.47	6.61	-49.6	-62.4	3.8	1.49e+00	0	41	104	0	71	15091
2026-01-07 08:08:17.00	100.37	6.67	-49.6	-62.4	3.8	1.49e+00	0	41	104	0	71	15212
2026-01-07 08:08:18.01	100.27	6.74	-49.6	-62.5	3.8	1.49e+00	0	41	104	0	71	15231
2026-01-07 08:08:19.01	100.17	6.80	-49.6	-62.5	3.8	1.49e+00	0	42	104	0	71	15288
2026-01-07 08:08:20.02	100.07	6.86	-49.6	-62.5	3.8	1.49e+00	0	41	104	0	71	15292
2026-01-07 08:08:21.02	99.97	6.92	-49.6	-62.5	3.8	1.49e+00	0	42	104	0	71	15268
2026-01-07 08:08:22.02	99.86	6.98	-49.6	-62.5	3.8	1.49e+00	0	41	104	0	71	15259
2026-01-07 08:08:23.03	99.76	7.04	-49.6	-62.4	3.8	1.49e+00	0	42	104	0	71	15100
2026-01-07 08:08:24.03	99.66	7.10	-49.6	-62.3	3.8	1.49e+00	0	41	104	0	71	15000
2026-01-07 08:08:25.03	99.55	7.16	-49.6	-62.2	3.8	1.49e+00	0	42	104	0	71	14826
2026-01-07 08:08:26.04	99.45	7.22	-49.5	-62.2	3.8	1.49e+00	0	42	104	0	71	14723
2026-01-07 08:08:27.04	99.35	7.28	-49.5	-62.2	3.8	1.49e+00	0	42	104	0	71	14728
2026-01-07 08:08:28.04	99.24	7.34	-49.6	-62.2	3.8	1.49e+00	0	42	104	0	71	14770
2026-01-07 08:08:29.05	99.14	7.40	-49.6	-62.2	3.8	1.49e+00	0	42	104	0	71	14847
2026-01-07 08:08:30.05	99.03	7.46	-49.6	-62.2	3.8	1.49e+00	0	42	104	0	71	14877
2026-01-07 08:08:31.06	98.92	7.52	-49.6	-62.3	3.8	1.49e+00	0	42	104	0	71	14950
2026-01-07 08:08:32.06	98.82	7.58	-49.6	-62.3	3.8	1.49e+00	0	42	104	0	71	14946
2026-01-07 08:08:33.06	98.71	7.64	-49.6	-62.1	3.8	1.49e+00	0	42	104	0	71	14660
2026-01-07 08:08:34.07	98.60	7.70	-49.5	-61.7	3.8	1.49e+00	0	42	104	0	71	13989
2026-01-07 08:08:35.07	98.49	7.76	-49.5	-61.3	3.8	1.49e+00	0	42	104	0	70	14137
2026-01-07 08:08:36.07	98.39	7.83	-49.4	-60.7	3.9	1.49e+00	0	42	104	0	70	13243
2026-01-07 08:08:37.08	98.28	7.89	-49.4	-60.5	3.9	1.49e+00	0	42	104	0	70	12918
2026-01-07 08:08:38.08	98.17	7.95	-49.4	-60.7	3.9	1.49e+00	0	42	104	0	70	13169
2026-01-07 08:08:39.09	98.06	8.01	-49.4	-61.2	3.8	1.49e+00	0	42	104	0	70	14040
2026-01-07 08:08:40.09	97.95	8.07	-49.5	-61.6	3.8	1.49e+00	0	42	104	0	70	14673
2026-01-07 08:08:41.09	97.84	8.13	-49.4	-60.0	4.0	1.49e+00	0	42	104	0	70	12188
2026-01-07 08:08:42.10	97.73	8.19	-48.7	-56.2	5.4	6.75e-01	0	42	0	0	69	8347
2026-01-07 08:08:43.10	97.61	8.25	-47.6	-52.9	8.2	1.53e-01	0	42	0	0	67	6390
2026-01-07 08:08:44.10	97.50	8.32	-46.3	-50.1	11.0	7.00e-03	0	42	0	0	64	5507
2026-01-07 08:08:45.11	97.39	8.38	-45.1	-48.2	13.2	7.32e-05	0	42	0	0	62	4932
2026-01-07 08:08:46.11	97.28	8.44	-44.1	-46.7	14.6	2.20e-06	0	42	0	0	60	4673
2026-01-07 08:08:47.11	97.16	8.50	-43.1	-45.4	15.9	0.00e+00	0	42	0	0	58	4499
2026-01-07 08:08:48.12	97.05	8.56	-42.7	-45.0	16.3	0.00e+00	0	42	0	0	57	4549
2026-01-07 08:08:49.12	96.93	8.62	-42.8	-45.0	16.2	0.00e+00	0	42	0	0	57	4573
2026-01-07 08:08:50.12	96.82	8.69	-43.0	-45.2	16.0	0.00e+00	0	42	0	0	57	4702
2026-01-07 08:08:51.13	96.70	8.75	-43.8	-46.3	14.9	0.00e+00	0	42	0	0	58	5012
2026-01-07 08:08:52.13	96.59	8.81	-44.7	-47.6	13.7	2.20e-06	0	42	0	0	60	5173
2026-01-07 08:08:53.13	96.47	8.87	-45.9	-49.5	11.8	2.52e-04	0	42	0	0	62	5725
2026-01-07 08:08:54.14	96.35	8.93	-47.1	-51.7	9.4	4.84e-03	0	42	0	0	64	6616
2026-01-07 08:08:55.14	96.24	8.99	-48.1	-54.3	6.8	9.59e-02	0	42	0	0	66	7943
2026-01-07 08:08:56.14	96.12	9.06	-49.0	-57.4	4.8	5.80e-01	0	42	0	0	68	10088
2026-01-07 08:08:57.15	96.00	9.12	-48.7	-56.0	5.7	3.30e-01	0	42	0	0	68	8580
2026-01-07 08:08:58.26	95.87	9.19	-48.9	-57.0	5.1	5.72e-01	0	42	0	0	68	9630
2026-01-07 08:08:59.12	95.76	9.24	-49.5	-61.0	3.8	1.40e+00	0	42	104	0	69	14513
2026-01-07 08:09:00.49	95.60	9.32	-47.8	-53.6	8.0	7.55e-03	0	42	0	0	66	7312
2026-01-07 08:09:01.21	95.51	9.37	-49.4	-61.1	3.8	1.49e+00	0	42	104	0	69	14573
2026-01-07 08:09:02.49	95.36	9.45	-47.5	-52.7	8.5	5.58e-02	0	42	0	0	67	6233
2026-01-07 08:09:03.21	95.27	9.49	-47.4	-52.4	8.9	4.06e-02	0	42	0	0	66	6385
2026-01-07 08:09:04.50	95.11	9.57	-47.0	-51.6	9.5	2.62e-02	0	42	0	0	66	5845
2026-01-07 08:09:05.22	95.02	9.62	-46.4	-50.4	10.8	3.91e-03	0	43	0	0	64	5720
2026-01-07 08:09:06.84	94.83	9.72	-45.5	-48.7	12.7	1.33e-04	0	43	0	0	63	4959
2026-01-07 08:09:07.41	94.75	9.75	-44.8	-47.8	13.7	2.36e-05	0	43	0	0	61	4990
2026-01-07 08:09:09.00	94.56	9.85	-43.9	-46.4	15.0	7.00e-07	0	42	0	0	59	4786
2026-01-07 08:09:09.57	94.49	9.89	-43.4	-45.7	15.7	0.00e+00	0	43	0	0	58	4704
2026-01-07 08:09:11.18	94.28	9.99	-42.9	-45.1	16.2	0.00e+00	0	43	0	0	57	4639
2026-01-07 08:09:11.83	94.20	10.03	-42.7	-44.8	16.5	0.00e+00	0	42	0	0	57	4486
2026-01-07 08:09:13.27	94.02	10.12	-42.4	-44.5	16.9	0.00e+00	0	43	0	0	56	4556
2026-01-07 08:09:14.07	93.92	10.17	-42.3	-44.4	17.0	0.00e+00	0	43	0	0	56	4511
2026-01-07 08:09:15.54	93.73	10.26	-41.7	-43.7	17.5	0.00e+00	0	42	0	0	55	4406
2026-01-07 08:09:16.25	93.64	10.30	-41.6	-43.6	17.6	0.00e+00	0	43	0	0	55	4380
2026-01-07 08:09:17.54	93.47	10.38	-41.4	-43.4	17.9	0.00e+00	0	43	0	0	54	4497
2026-01-07 08:09:18.26	93.38	10.43	-41.5	-43.4	17.8	0.00e+00	0	42	0	0	54	4535
2026-01-07 08:09:19.55	93.21	10.51	-41.4	-43.4	17.9	0.00e+00	0	43	0	0	54	4497
2026-01-07 08:09:20.26	93.12	10.55	-41.4	-43.4	17.9	0.00e+00	0	43	0	0	54	4511
2026-01-07 08:09:21.55	92.95	10.63	-41.4	-43.3	17.9	0.00e+00	0	43	0	0	54	4463
2026-01-07 08:09:22.27	92.85	10.68	-41.2	-43.1	18.0	0.00e+00	0	42	0	0	54	4385
2026-01-07 08:09:23.56	92.68	10.76	-41.3	-43.2	18.0	0.00e+00	0	43	0	0	54	4429
2026-01-07 08:09:24.28	92.59	10.80	-41.3	-43.3	17.9	0.00e+00	0	43	0	0	54	4443
2026-01-07 08:09:25.57	92.41	10.88	-41.3	-43.3	17.9	0.00e+00	0	43	0	0	54	4453
2026-01-07 08:09:26.28	92.32	10.93	-41.4	-43.3	17.9	0.00e+00	0	43	0	0	54	4470
2026-01-07 08:09:27.57	92.15	11.01	-41.4	-43.3	17.9	0.00e+00	0	43	0	0	54	4486
2026-01-07 08:09:28.29	92.05	11.05	-41.4	-43.4	17.9	0.00e+00	0	43	0	0	54	4517
2026-01-07 08:09:29.68	91.86	11.14	-41.4	-43.4	17.9	0.00e+00	0	43	0	0	54	4505
2026-01-07 08:09:30.66	91.72	11.20	-41.4	-43.3	18.0	0.00e+00	0	43	0	0	54	4460
2026-01-07 08:09:31.98	91.54	11.28	-41.1	-43.0	18.3	0.00e+00	0	43	0	0	54	4316
2026-01-07 08:09:32.70	91.44	11.33	-41.2	-43.1	18.1	0.00e+00	0	43	0	0	54	4391
2026-01-07 08:09:33.99	91.27	11.41	-41.1	-43.0	18.2	0.00e+00	0	43	0	0	54	4335
2026-01-07 08:09:34.70	91.17	11.45	-41.1	-43.0	18.3	0.00e+00	0	43	0	0	54	4317
2026-01-07 08:09:36.00	90.99	11.53	-41.4	-43.3	18.0	0.00e+00	0	43	0	0	54	4466
2026-01-07 08:09:36.71	90.89	11.58	-41.3	-43.2	18.1	0.00e+00	0	43	0	0	54	4429
2026-01-07 08:09:38.00	90.70	11.66	-41.1	-43.0	18.3	0.00e+00	0	43	0	0	54	4321
2026-01-07 08:09:38.72	90.60	11.70	-41.0	-42.8	18.4	0.00e+00	0	43	0	0	53	4492
2026-01-07 08:09:40.08	90.41	11.79	-41.0	-42.9	18.4	0.00e+00	0	43	0	0	53	4528
2026-01-07 08:09:41.07	90.27	11.85	-40.9	-42.8	18.5	0.00e+00	0	43	0	0	53	4475
2026-01-07 08:09:42.39	90.08	11.93	-40.9	-42.8	18.5	0.00e+00	0	43	0	0	53	4477
2026-01-07 08:09:43.11	89.97	11.98	-40.9	-42.8	18.5	0.00e+00	0	43	0	0	53	4480
2026-01-07 08:09:44.76	89.73	12.08	-40.9	-42.8	18.5	0.00e+00	0	43	0	0	53	4474
2026-01-07 08:09:45.33	89.65	12.12	-41.0	-42.8	18.4	0.00e+00	0	43	0	0	53	4486
2026-01-07 08:09:47.18	89.38	12.23	-41.1	-43.0	18.2	0.00e+00	0	43	0	0	53	4592
2026-01-07 08:09:47.75	89.30	12.27	-41.2	-43.2	18.1	0.00e+00	0	43	0	0	53	4662
2026-01-07 08:09:49.38	89.06	12.37	-41.2	-43.1	18.1	0.00e+00	0	43	0	0	53	4651
2026-01-07 08:09:49.95	88.97	12.40	-41.3	-43.2	18.1	0.00e+00	0	43	0	0	53	4696
2026-01-07 08:09:51.55	88.73	12.50	-41.4	-43.4	17.9	0.00e+00	0	43	0	0	53	4796
2026-01-07 08:09:52.12	88.65	12.54	-41.3	-43.2	18.1	0.00e+00	0	43	0	0	53	4687
2026-01-07 08:09:53.95	88.37	12.65	-41.3	-43.2	18.2	0.00e+00	0	43	0	0	53	4668
2026-01-07 08:09:54.52	88.28	12.69	-41.3	-43.2	18.2	0.00e+00	0	43	0	0	53	4672
2026-01-07 08:09:56.11	88.04	12.78	-41.3	-43.2	18.1	0.00e+00	0	43	0	0	53	4697
2026-01-07 08:09:57.05	87.90	12.84	-41.3	-43.2	18.1	0.00e+00	0	43	0	0	53	4703
2026-01-07 08:09:58.06	87.74	12.91	-41.3	-43.3	18.1	0.00e+00	0	43	0	0	53	4718
2026-01-07 08:09:59.06	87.59	12.97	-41.4	-43.3	18.0	0.00e+00	0	43	0	0	53	4742
2026-01-07 08:10:00.09	87.43	13.03	-41.5	-43.5	17.8	0.00e+00	0	43	0	0	53	4867
2026-01-07 08:10:01.09	87.27	13.09	-41.5	-43.5	17.9	0.00e+00	0	43	0	0	53	4819
2026-01-07 08:10:02.09	87.12	13.15	-41.2	-43.1	18.2	0.00e+00	0	43	0	0	53	4635
2026-01-07 08:10:03.16	86.95	13.22	-41.2	-43.1	18.2	0.00e+00	0	43	0	0	53	4651
2026-01-07 08:10:04.02	86.81	13.27	-41.5	-43.5	18.0	0.00e+00	0	43	0	0	54	4555
2026-01-07 08:10:05.16	86.63	13.34	-41.1	-43.0	18.4	0.00e+00	0	43	0	0	54	4302
2026-01-07 08:10:06.03	86.49	13.40	-41.0	-42.9	18.5	0.00e+00	0	43	0	0	54	4255
2026-01-07 08:10:07.18	86.31	13.47	-40.9	-42.8	18.6	0.00e+00	0	43	0	0	53	4450
2026-01-07 08:10:08.03	86.17	13.52	-40.8	-42.6	18.7	0.00e+00	0	43	0	0	53	4383
2026-01-07 08:10:09.18	85.99	13.59	-40.9	-42.8	18.5	0.00e+00	0	43	0	0	53	4487
2026-01-07 08:10:10.04	85.85	13.64	-40.9	-42.8	18.5	0.00e+00	0	43	0	0	53	4465
2026-01-07 08:10:11.19	85.66	13.71	-41.0	-42.9	18.4	0.00e+00	0	43	0	0	53	4513
2026-01-07 08:10:12.05	85.52	13.76	-40.9	-42.8	18.5	0.00e+00	0	43	0	0	53	4476
2026-01-07 08:10:13.19	85.34	13.83	-40.9	-42.8	18.5	0.00e+00	0	43	0	0	53	4470
2026-01-07 08:10:14.05	85.20	13.89	-41.0	-42.9	18.4	0.00e+00	0	43	0	0	53	4511
2026-01-07 08:10:15.20	85.01	13.96	-40.8	-42.6	18.7	0.00e+00	0	43	0	0	53	4390
2026-01-07 08:10:16.05	84.87	14.01	-40.8	-42.7	18.6	0.00e+00	0	43	0	0	53	4409
2026-01-07 08:10:17.34	84.65	14.08	-40.8	-42.7	18.6	0.00e+00	0	43	0	0	53	4433
2026-01-07 08:10:18.06	84.53	14.13	-40.8	-42.7	18.6	0.00e+00	0	43	0	0	53	4433
2026-01-07 08:10:19.35	84.31	14.21	-41.0	-42.9	18.5	0.00e+00	0	43	0	0	53	4513
2026-01-07 08:10:20.07	84.19	14.25	-41.0	-43.0	18.4	0.00e+00	0	43	0	0	53	4557
2026-01-07 08:10:21.36	83.97	14.33	-41.1	-43.1	18.3	0.00e+00	0	43	0	0	53	4616
2026-01-07 08:10:22.08	83.85	14.37	-41.2	-43.1	18.3	0.00e+00	0	43	0	0	53	4634
2026-01-07 08:10:23.37	83.63	14.45	-41.2	-43.1	18.3	0.00e+00	0	43	0	0	53	4647
2026-01-07 08:10:24.09	83.51	14.49	-41.2	-43.2	18.2	0.00e+00	0	43	0	0	53	4677
2026-01-07 08:10:25.38	83.29	14.57	-41.3	-43.2	18.2	0.00e+00	0	43	0	0	53	4673
2026-01-07 08:10:26.09	83.16	14.61	-41.3	-43.2	18.2	0.00e+00	0	43	0	0	53	4694
2026-01-07 08:10:27.38	82.94	14.69	-41.3	-43.2	18.2	0.00e+00	0	43	0	0	53	4675
2026-01-07 08:10:28.10	82.82	14.73	-41.2	-43.1	18.4	0.00e+00	0	43	0	0	53	4602
2026-01-07 08:10:29.45	82.58	14.81	-41.1	-43.0	18.4	0.00e+00	0	43	0	0	53	4588
2026-01-07 08:10:30.17	82.45	14.85	-41.2	-43.1	18.3	0.00e+00	0	43	0	0	53	4632
2026-01-07 08:10:31.46	82.23	14.93	-41.1	-43.0	18.5	0.00e+00	0	43	0	0	53	4549
2026-01-07 08:10:32.17	82.10	14.97	-41.2	-43.2	18.3	0.00e+00	0	43	0	0	53	4659
2026-01-07 08:10:33.47	81.87	15.05	-41.2	-43.2	18.2	0.00e+00	0	43	0	0	53	4683
2026-01-07 08:10:34.18	81.74	15.09	-41.3	-43.3	18.2	0.00e+00	0	43	0	0	53	4711
2026-01-07 08:10:35.47	81.51	15.16	-41.1	-43.0	18.5	0.00e+00	0	43	0	0	53	4556
2026-01-07 08:10:36.19	81.38	15.20	-41.1	-43.0	18.5	0.00e+00	0	43	0	0	53	4551
2026-01-07 08:10:37.76	81.10	15.30	-41.1	-42.9	18.5	0.00e+00	0	43	0	0	53	4544
2026-01-07 08:10:38.34	80.99	15.33	-40.9	-42.8	18.6	0.00e+00	0	43	0	0	53	4460
2026-01-07 08:10:39.93	80.70	15.42	-41.1	-42.9	18.5	0.00e+00	0	43	0	0	53	4543
2026-01-07 08:10:40.50	80.60	15.45	-41.1	-42.9	18.5	0.00e+00	0	43	0	0	53	4545
2026-01-07 08:10:42.14	80.30	15.55	-41.3	-43.3	18.2	0.00e+00	0	43	0	0	53	4710
2026-01-07 08:10:42.71	80.19	15.58	-41.3	-43.2	18.2	0.00e+00	0	43	0	0	53	4694
2026-01-07 08:10:44.34	79.89	15.67	-41.3	-43.2	18.3	0.00e+00	0	43	0	0	53	4683
2026-01-07 08:10:44.92	79.78	15.71	-41.3	-43.1	18.3	0.00e+00	0	43	0	0	53	4650
2026-01-07 08:10:46.50	79.49	15.80	-41.2	-43.1	18.4	0.00e+00	0	43	0	0	53	4619
2026-01-07 08:10:47.11	79.37	15.83	-41.3	-43.2	18.3	0.00e+00	0	43	0	0	53	4666
2026-01-07 08:10:48.96	79.02	15.93	-41.4	-43.3	18.2	0.00e+00	0	43	0	0	53	4727
2026-01-07 08:10:49.54	78.91	15.97	-41.5	-43.4	18.1	0.00e+00	0	43	0	0	53	4784
2026-01-07 08:10:51.13	78.61	16.06	-41.2	-43.1	18.4	0.00e+00	0	43	0	0	53	4603
2026-01-07 08:10:51.70	78.50	16.09	-41.2	-43.0	18.4	0.00e+00	0	43	0	0	53	4598
2026-01-07 08:10:53.28	78.20	16.18	-41.2	-43.0	18.4	0.00e+00	0	43	0	0	53	4590
2026-01-07 08:10:53.87	78.09	16.21	-41.2	-43.1	18.4	0.00e+00	0	43	0	0	53	4602
2026-01-07 08:10:55.44	77.78	16.29	-41.3	-43.2	18.3	0.00e+00	0	43	0	0	53	4663
2026-01-07 08:10:56.03	77.67	16.33	-41.3	-43.2	18.3	0.00e+00	0	43	0	0	53	4664
2026-01-07 08:10:57.61	77.36	16.41	-41.2	-43.1	18.4	0.00e+00	0	43	0	0	53	4614
2026-01-07 08:10:58.20	77.25	16.44	-41.2	-43.1	18.4	0.00e+00	0	43	0	0	53	4623
2026-01-07 08:10:59.88	76.92	16.54	-40.9	-42.7	18.7	0.00e+00	0	43	0	0	53	4437
2026-01-07 08:11:00.46	76.80	16.57	-40.8	-42.6	18.8	0.00e+00	0	43	0	0	53	4364
2026-01-07 08:11:02.05	76.49	16.65	-40.8	-42.6	18.8	0.00e+00	0	43	0	0	53	4385
2026-01-07 08:11:02.63	76.37	16.68	-40.8	-42.6	18.8	0.00e+00	0	43	0	0	53	4352
2026-01-07 08:11:04.55	75.99	16.78	-40.8	-42.6	18.7	0.00e+00	0	43	0	0	53	4387
2026-01-07 08:11:05.12	75.88	16.81	-40.8	-42.6	18.7	0.00e+00	0	43	0	0	53	4390
2026-01-07 08:11:06.72	75.55	16.90	-40.7	-42.5	18.9	0.00e+00	0	43	0	0	53	4314
2026-01-07 08:11:07.29	75.44	16.93	-40.8	-42.6	18.8	0.00e+00	0	43	0	0	53	4367
2026-01-07 08:11:08.88	75.12	17.01	-40.9	-42.7	18.7	0.00e+00	0	43	0	0	53	4424
2026-01-07 08:11:09.45	75.00	17.04	-40.9	-42.8	18.6	0.00e+00	0	43	0	0	53	4448
2026-01-07 08:11:11.05	74.67	17.12	-40.9	-42.7	18.7	0.00e+00	0	43	0	0	53	4436
2026-01-07 08:11:11.64	74.55	17.15	-41.0	-42.8	18.6	0.00e+00	0	43	0	0	53	4479
2026-01-07 08:11:13.42	74.19	17.24	-40.9	-42.8	18.6	0.00e+00	0	43	0	0	53	4444
2026-01-07 08:11:13.99	74.07	17.27	-40.8	-42.7	18.7	0.00e+00	0	43	0	0	53	4402
2026-01-07 08:11:15.58	73.74	17.35	-40.9	-42.8	18.6	0.00e+00	0	43	0	0	53	4445
2026-01-07 08:11:16.55	73.54	17.40	-41.0	-42.9	18.5	0.00e+00	0	43	0	0	53	4520
2026-01-07 08:11:17.55	73.33	17.45	-41.0	-42.9	18.6	0.00e+00	0	43	0	0	53	4502
2026-01-07 08:11:18.56	73.12	17.50	-41.1	-43.0	18.5	0.00e+00	0	43	0	0	53	4548
2026-01-07 08:11:19.56	72.91	17.55	-40.9	-42.8	18.7	0.00e+00	0	43	0	0	53	4459
2026-01-07 08:11:20.56	72.70	17.60	-40.9	-42.8	18.7	0.00e+00	0	43	0	0	53	4453
2026-01-07 08:11:21.57	72.48	17.64	-40.7	-42.6	18.9	0.00e+00	0	43	0	0	53	4342
2026-01-07 08:11:22.57	72.27	17.69	-40.5	-42.3	19.1	0.00e+00	0	43	0	0	53	4203
2026-01-07 08:11:23.57	72.06	17.74	-40.5	-42.2	19.2	0.00e+00	0	43	0	0	52	4431
2026-01-07 08:11:24.57	71.84	17.79	-40.4	-42.2	19.2	0.00e+00	0	43	0	0	52	4408
2026-01-07 08:11:25.58	71.63	17.83	-40.4	-42.2	19.2	0.00e+00	0	43	0	0	52	4429
2026-01-07 08:11:26.58	71.41	17.88	-40.4	-42.1	19.2	0.00e+00	0	43	0	0	52	4386
2026-01-07 08:11:27.58	71.20	17.93	-40.4	-42.2	19.2	0.00e+00	0	43	0	0	52	4393
2026-01-07 08:11:28.58	70.98	17.97	-40.5	-42.3	19.1	0.00e+00	0	43	0	0	52	4447
2026-01-07 08:11:29.59	70.76	18.02	-40.6	-42.3	19.1	0.00e+00	0	43	0	0	52	4492
2026-01-07 08:11:30.59	70.54	18.06	-40.4	-42.1	19.3	0.00e+00	0	43	0	0	52	4384
2026-01-07 08:11:31.59	70.32	18.11	-40.3	-42.0	19.4	0.00e+00	0	43	0	0	52	4338
2026-01-07 08:11:32.96	70.02	18.17	-40.3	-42.0	19.3	0.00e+00	0	43	0	0	52	4323
2026-01-07 08:11:33.68	69.87	18.20	-40.3	-42.0	19.3	0.00e+00	0	43	0	0	52	4324
2026-01-07 08:11:34.97	69.58	18.26	-40.2	-42.0	19.4	0.00e+00	0	43	0	0	52	4294
2026-01-07 08:11:35.68	69.43	18.29	-40.3	-42.1	19.3	0.00e+00	0	43	0	0	52	4357
2026-01-07 08:11:36.97	69.14	18.34	-40.4	-42.1	19.3	0.00e+00	0	43	0	0	52	4372
2026-01-07 08:11:37.69	68.98	18.38	-40.3	-42.1	19.3	0.00e+00	0	43	0	0	52	4358
2026-01-07 08:11:38.98	68.69	18.43	-40.4	-42.1	19.2	0.00e+00	0	43	0	0	52	4385
2026-01-07 08:11:39.70	68.53	18.46	-40.4	-42.1	19.3	0.00e+00	0	43	0	0	52	4371
2026-01-07 08:11:41.06	68.23	18.52	-40.3	-42.1	19.3	0.00e+00	0	43	0	0	52	4351
2026-01-07 08:11:41.78	68.06	18.55	-40.4	-42.2	19.2	0.00e+00	0	43	0	0	52	4403
2026-01-07 08:11:43.14	67.76	18.60	-40.3	-42.1	19.3	0.00e+00	0	43	0	0	52	4351
2026-01-07 08:11:44.14	67.53	18.64	-40.4	-42.1	19.2	0.00e+00	0	43	0	0	52	4388
2026-01-07 08:11:45.48	67.23	18.70	-40.4	-42.2	19.2	0.00e+00	0	43	0	0	52	4396
2026-01-07 08:11:46.20	67.06	18.72	-40.4	-42.2	19.2	0.00e+00	0	43	0	0	52	4419
2026-01-07 08:11:47.48	66.77	18.77	-40.3	-42.0	19.4	0.00e+00	0	43	0	0	52	4328
2026-01-07 08:11:48.20	66.61	18.80	-40.2	-42.0	19.4	0.00e+00	0	43	0	0	52	4314
2026-01-07 08:11:49.49	66.31	18.85	-40.3	-42.0	19.4	0.00e+00	0	43	0	0	52	4335
2026-01-07 08:11:50.21	66.15	18.88	-40.2	-41.9	19.4	0.00e+00	0	43	0	0	52	4272
2026-01-07 08:11:51.50	65.85	18.93	-40.3	-42.0	19.3	0.00e+00	0	43	0	0	52	4325
2026-01-07 08:11:52.21	65.69	18.95	-40.3	-42.0	19.4	0.00e+00	0	43	0	0	52	4327
2026-01-07 08:11:53.50	65.39	19.00	-40.2	-42.0	19.4	0.00e+00	0	43	0	0	52	4299
2026-01-07 08:11:54.22	65.22	19.03	-40.1	-41.8	19.5	0.00e+00	0	43	0	0	52	4238
2026-01-07 08:11:55.57	64.91	19.07	-40.2	-41.9	19.5	0.00e+00	0	43	0	0	52	4267
2026-01-07 08:11:56.29	64.74	19.10	-40.2	-41.9	19.5	0.00e+00	0	43	0	0	52	4280
2026-01-07 08:11:57.58	64.44	19.14	-40.2	-41.9	19.5	0.00e+00	0	43	0	0	52	4275
2026-01-07 08:11:58.29	64.27	19.17	-40.2	-42.0	19.4	0.00e+00	0	43	0	0	52	4302
2026-01-07 08:11:59.58	63.97	19.21	-40.2	-41.9	19.5	0.00e+00	0	43	0	0	52	4286
2026-01-07 08:12:00.30	63.80	19.23	-40.2	-41.9	19.5	0.00e+00	0	43	0	0	52	4254
2026-01-07 08:12:01.78	63.45	19.28	-40.3	-42.0	19.4	0.00e+00	0	43	0	0	52	4318
2026-01-07 08:12:02.49	63.28	19.31	-40.1	-41.9	19.5	0.00e+00	0	43	0	0	52	4259
2026-01-07 08:12:03.85	62.96	19.35	-40.1	-41.9	19.5	0.00e+00	0	43	0	0	52	4252
2026-01-07 08:12:04.56	62.79	19.37	-40.3	-42.0	19.4	0.00e+00	0	43	0	0	52	4329
2026-01-07 08:12:05.85	62.48	19.41	-40.3	-42.1	19.3	0.00e+00	0	43	0	0	52	4366
2026-01-07 08:12:06.57	62.31	19.43	-40.3	-42.1	19.3	0.00e+00	0	43	0	0	52	4367
2026-01-07 08:12:07.86	62.00	19.47	-40.3	-42.1	19.3	0.00e+00	0	43	0	0	52	4360
2026-01-07 08:12:08.58	61.83	19.49	-40.3	-42.1	19.3	0.00e+00	0	43	0	0	52	4355
2026-01-07 08:12:09.87	61.52	19.53	-40.3	-42.1	19.3	0.00e+00	0	43	0	0	52	4359
2026-01-07 08:12:10.59	61.35	19.55	-40.4	-42.2	19.2	0.00e+00	0	43	0	0	52	4394
2026-01-07 08:12:11.87	61.04	19.59	-40.4	-42.1	19.3	0.00e+00	0	43	0	0	52	4381
2026-01-07 08:12:12.59	60.87	19.61	-40.5	-42.2	19.2	0.00e+00	0	43	0	0	52	4430
2026-01-07 08:12:14.25	60.47	19.65	-40.3	-42.1	19.3	0.00e+00	0	43	0	0	52	4349
2026-01-07 08:12:14.83	60.33	19.67	-40.3	-42.1	19.3	0.00e+00	0	43	0	0	52	4363
2026-01-07 08:12:16.48	59.93	19.71	-40.4	-42.2	19.2	0.00e+00	0	43	0	0	52	4421
2026-01-07 08:12:17.05	59.79	19.72	-40.5	-42.3	19.2	0.00e+00	0	43	0	0	52	4442
2026-01-07 08:12:18.65	59.40	19.76	-40.5	-42.3	19.2	0.00e+00	0	43	0	0	52	4457
2026-01-07 08:12:19.22	59.26	19.78	-40.4	-42.2	19.2	0.00e+00	0	43	0	0	52	4418
2026-01-07 08:12:20.84	58.87	19.81	-40.6	-42.4	19.1	0.00e+00	0	43	0	0	52	4499
2026-01-07 08:12:21.41	58.73	19.83	-40.7	-42.5	19.0	0.00e+00	0	43	0	0	52	4556
2026-01-07 08:12:22.99	58.34	19.86	-40.8	-42.6	18.9	0.00e+00	0	43	0	0	52	4621
2026-01-07 08:12:23.60	58.19	19.87	-40.8	-42.6	18.9	0.00e+00	0	43	0	0	52	4628
2026-01-07 08:12:25.18	57.80	19.91	-40.9	-42.7	18.7	0.00e+00	0	43	0	0	52	4687
2026-01-07 08:12:26.01	57.60	19.93	-40.7	-42.5	19.0	0.00e+00	0	43	0	0	52	4558
2026-01-07 08:12:27.15	57.32	19.95	-40.6	-42.4	19.1	0.00e+00	0	43	0	0	52	4505
2026-01-07 08:12:28.31	57.03	19.97	-40.6	-42.4	19.0	0.00e+00	0	43	0	0	52	4521
2026-01-07 08:12:29.34	56.78	19.99	-40.6	-42.3	19.1	0.00e+00	0	43	0	0	52	4481
2026-01-07 08:12:30.34	56.53	20.01	-40.5	-42.2	19.3	0.00e+00	0	43	0	0	52	4428
2026-01-07 08:12:31.56	56.23	20.03	-40.5	-42.2	19.3	0.00e+00	0	43	0	0	52	4438
2026-01-07 08:12:32.42	56.01	20.04	-40.4	-42.1	19.4	0.00e+00	0	43	0	0	52	4375
2026-01-07 08:12:33.56	55.73	20.06	-40.4	-42.2	19.3	0.00e+00	0	43	0	0	52	4412
2026-01-07 08:12:34.42	55.52	20.08	-40.4	-42.2	19.2	0.00e+00	0	43	0	0	52	4422
2026-01-07 08:12:35.57	55.23	20.09	-40.6	-42.4	19.1	0.00e+00	0	43	0	0	52	4495
2026-01-07 08:12:36.43	55.02	20.11	-40.6	-42.4	19.1	0.00e+00	0	43	0	0	52	4515
2026-01-07 08:12:37.58	54.73	20.12	-40.6	-42.3	19.1	0.00e+00	0	43	0	0	52	4493
2026-01-07 08:12:38.43	54.52	20.13	-40.5	-42.3	19.2	0.00e+00	0	43	0	0	52	4455
2026-01-07 08:12:39.58	54.23	20.15	-40.4	-42.2	19.2	0.00e+00	0	43	0	0	52	4407
2026-01-07 08:12:40.44	54.01	20.16	-40.5	-42.2	19.2	0.00e+00	0	43	0	0	52	4427
2026-01-07 08:12:41.59	53.73	20.17	-40.6	-42.4	19.1	0.00e+00	0	43	0	0	52	4504
2026-01-07 08:12:42.44	53.51	20.18	-40.4	-42.2	19.2	0.00e+00	0	43	0	0	52	4411
2026-01-07 08:12:43.59	53.23	20.20	-40.4	-42.2	19.2	0.00e+00	0	43	0	0	52	4409
2026-01-07 08:12:44.45	53.01	20.20	-40.5	-42.2	19.2	0.00e+00	0	43	0	0	52	4440
2026-01-07 08:12:45.64	52.71	20.22	-40.5	-42.3	19.2	0.00e+00	0	43	0	0	52	4460
2026-01-07 08:12:46.50	52.50	20.22	-40.5	-42.3	19.2	0.00e+00	0	43	0	0	52	4444
2026-01-07 08:12:47.65	52.21	20.23	-40.5	-42.3	19.2	0.00e+00	0	43	0	0	52	4457
2026-01-07 08:12:48.51	51.99	20.24	-40.5	-42.3	19.2	0.00e+00	0	43	0	0	52	4449
2026-01-07 08:12:49.66	51.70	20.25	-40.5	-42.2	19.2	0.00e+00	0	43	0	0	52	4434
2026-01-07 08:12:50.56	51.48	20.26	-40.5	-42.2	19.2	0.00e+00	0	43	0	0	52	4427
2026-01-07 08:12:51.57	51.22	20.26	-40.4	-42.2	19.2	0.00e+00	0	43	0	0	52	4394
2026-01-07 08:12:52.57	50.97	20.27	-40.4	-42.2	19.2	0.00e+00	0	43	0	0	52	4417
2026-01-07 08:12:53.57	50.72	20.27	-40.5	-42.3	19.2	0.00e+00	0	43	0	0	52	4458
2026-01-07 08:12:54.58	50.46	20.28	-40.5	-42.2	19.3	0.00e+00	0	43	0	0	52	4426
2026-01-07 08:12:55.58	50.21	20.28	-40.5	-42.3	19.2	0.00e+00	0	43	0	0	52	4451
2026-01-07 08:12:56.58	49.96	20.28	-40.5	-42.2	19.3	0.00e+00	0	43	0	0	52	4428
2026-01-07 08:12:57.58	49.71	20.29	-40.4	-42.2	19.3	0.00e+00	0	43	0	0	52	4401
2026-01-07 08:12:58.59	49.45	20.29	-40.4	-42.2	19.3	0.00e+00	0	43	0	0	52	4419
2026-01-07 08:12:59.59	49.20	20.29	-40.5	-42.3	19.2	0.00e+00	0	43	0	0	52	4474
2026-01-07 08:13:00.59	48.95	20.29	-40.5	-42.3	19.2	0.00e+00	0	43	0	0	52	4485
2026-01-07 08:13:01.60	48.70	20.29	-40.6	-42.3	19.1	0.00e+00	0	43	0	0	52	4491
2026-01-07 08:13:02.60	48.44	20.29	-40.6	-42.4	19.0	0.00e+00	0	43	0	0	52	4520
2026-01-07 08:13:03.60	48.19	20.29	-40.6	-42.4	19.0	0.00e+00	0	43	0	0	52	4525
2026-01-07 08:13:04.75	47.90	20.29	-40.5	-42.3	19.1	0.00e+00	0	43	0	0	52	4472
2026-01-07 08:13:05.62	47.68	20.29	-40.4	-42.2	19.3	0.00e+00	0	43	0	0	52	4401
2026-01-07 08:13:06.92	47.36	20.28	-40.3	-42.0	19.4	0.00e+00	0	43	0	0	52	4324
2026-01-07 08:13:07.64	47.17	20.28	-40.2	-41.9	19.5	0.00e+00	0	43	0	0	52	4279
2026-01-07 08:13:08.93	46.85	20.28	-40.1	-41.8	19.6	0.00e+00	0	43	0	0	52	4236
2026-01-07 08:13:09.65	46.67	20.27	-40.1	-41.8	19.6	0.00e+00	0	43	0	0	52	4206
2026-01-07 08:13:10.94	46.34	20.27	-40.1	-41.8	19.6	0.00e+00	0	43	0	0	52	4228
2026-01-07 08:13:11.65	46.17	20.26	-40.1	-41.8	19.5	0.00e+00	0	43	0	0	52	4234
2026-01-07 08:13:12.94	45.84	20.25	-40.3	-42.0	19.4	0.00e+00	0	43	0	0	52	4323
2026-01-07 08:13:13.66	45.66	20.25	-40.2	-42.0	19.5	0.00e+00	0	43	0	0	52	4293
2026-01-07 08:13:14.95	45.34	20.24	-40.2	-41.9	19.5	0.00e+00	0	43	0	0	52	4263
2026-01-07 08:13:15.66	45.16	20.23	-40.2	-41.9	19.5	0.00e+00	0	43	0	0	52	4270
2026-01-07 08:13:16.95	44.83	20.22	-40.2	-42.0	19.5	0.00e+00	0	43	0	0	52	4296
2026-01-07 08:13:17.67	44.65	20.22	-40.3	-42.0	19.4	0.00e+00	0	43	0	0	52	4336
2026-01-07 08:13:19.05	44.31	20.20	-40.3	-42.1	19.4	0.00e+00	0	43	0	0	52	4344
2026-01-07 08:13:19.77	44.13	20.20	-40.4	-42.2	19.3	0.00e+00	0	43	0	0	52	4423
2026-01-07 08:13:21.16	43.78	20.18	-40.5	-42.2	19.2	0.00e+00	0	43	0	0	52	4440
2026-01-07 08:13:21.87	43.60	20.17	-40.5	-42.3	19.2	0.00e+00	0	43	0	0	52	4466
2026-01-07 08:13:23.23	43.26	20.16	-40.4	-42.2	19.3	0.00e+00	0	43	0	0	52	4401
2026-01-07 08:13:23.94	43.09	20.15	-40.5	-42.2	19.3	0.00e+00	0	43	0	0	52	4432
2026-01-07 08:13:25.30	42.75	20.13	-40.5	-42.3	19.2	0.00e+00	0	43	0	0	52	4459
2026-01-07 08:13:26.02	42.57	20.12	-40.5	-42.3	19.3	0.00e+00	0	43	0	0	52	4443
2026-01-07 08:13:27.30	42.25	20.10	-40.5	-42.3	19.2	0.00e+00	0	43	0	0	52	4474
2026-01-07 08:13:28.02	42.07	20.09	-40.5	-42.2	19.3	0.00e+00	0	43	0	0	52	4436
2026-01-07 08:13:29.31	41.75	20.07	-40.2	-42.0	19.4	0.00e+00	0	43	0	0	52	4308
2026-01-07 08:13:30.02	41.57	20.06	-40.2	-41.9	19.4	0.00e+00	0	43	0	0	52	4286
2026-01-07 08:13:31.31	41.25	20.04	-40.2	-41.9	19.5	0.00e+00	0	43	0	0	52	4274
2026-01-07 08:13:32.06	41.07	20.03	-40.2	-41.9	19.5	0.00e+00	0	43	0	0	52	4278
2026-01-07 08:13:33.35	40.75	20.00	-40.3	-42.0	19.4	0.00e+00	0	43	0	0	52	4325
2026-01-07 08:13:34.17	40.55	19.99	-40.3	-42.1	19.4	0.00e+00	0	43	0	0	52	4360
2026-01-07 08:13:35.63	40.19	19.96	-40.3	-42.1	19.4	0.00e+00	0	43	0	0	52	4370
2026-01-07 08:13:36.35	40.01	19.95	-40.4	-42.2	19.3	0.00e+00	0	43	0	0	52	4399
2026-01-07 08:13:37.64	39.69	19.92	-40.5	-42.3	19.2	0.00e+00	0	43	0	0	52	4453
2026-01-07 08:13:38.35	39.52	19.91	-40.6	-42.4	19.1	0.00e+00	0	43	0	0	52	4521
2026-01-07 08:13:39.64	39.20	19.88	-40.7	-42.5	19.0	0.00e+00	0	43	0	0	52	4552
2026-01-07 08:13:40.36	39.02	19.86	-40.6	-42.4	19.1	0.00e+00	0	43	0	0	52	4526
2026-01-07 08:13:41.64	38.71	19.83	-40.4	-42.2	19.3	0.00e+00	0	43	0	0	52	4427
2026-01-07 08:13:42.45	38.51	19.82	-40.4	-42.2	19.3	0.00e+00	0	43	0	0	52	4415
2026-01-07 08:13:43.60	38.23	19.79	-40.4	-42.2	19.2	0.00e+00	0	43	0	0	52	4415
2026-01-07 08:13:44.65	37.98	19.76	-40.4	-42.1	19.3	0.00e+00	0	43	0	0	52	4389
2026-01-07 08:13:45.56	37.76	19.74	-40.3	-42.0	19.4	0.00e+00	0	43	0	0	52	4334
2026-01-07 08:13:46.56	37.51	19.72	-40.2	-42.0	19.4	0.00e+00	0	43	0	0	52	4302
2026-01-07 08:13:47.56	37.27	19.69	-40.2	-42.0	19.4	0.00e+00	0	43	0	0	52	4308
2026-01-07 08:13:48.57	37.03	19.67	-40.3	-42.0	19.4	0.00e+00	0	43	0	0	52	4338
2026-01-07 08:13:49.57	36.78	19.64	-40.4	-42.1	19.4	0.00e+00	0	43	0	0	52	4372
2026-01-07 08:13:50.57	36.54	19.61	-40.4	-42.2	19.3	0.00e+00	0	43	0	0	52	4397
2026-01-07 08:13:51.58	36.30	19.59	-40.5	-42.2	19.3	0.00e+00	0	43	0	0	52	4441
2026-01-07 08:13:52.58	36.06	19.56	-40.5	-42.2	19.3	0.00e+00	0	43	0	0	52	4437
2026-01-07 08:13:53.58	35.82	19.53	-40.5	-42.3	19.2	0.00e+00	0	43	0	0	52	4459
2026-01-07 08:13:54.58	35.58	19.50	-40.5	-42.3	19.2	0.00e+00	0	43	0	0	52	4460
2026-01-07 08:13:55.59	35.34	19.47	-40.6	-42.3	19.2	0.00e+00	0	43	0	0	52	4488
2026-01-07 08:13:56.59	35.10	19.44	-40.5	-42.3	19.2	0.00e+00	0	43	0	0	52	4466
2026-01-07 08:13:57.59	34.86	19.41	-40.6	-42.4	19.1	0.00e+00	0	43	0	0	52	4510
2026-01-07 08:13:58.76	34.59	19.38	-40.6	-42.4	19.0	0.00e+00	0	43	0	0	52	4545
2026-01-07 08:13:59.64	34.38	19.35	-40.6	-42.4	19.0	0.00e+00	0	43	0	0	52	4540
2026-01-07 08:14:00.79	34.11	19.31	-40.6	-42.4	19.1	0.00e+00	0	43	0	0	52	4524
2026-01-07 08:14:01.65	33.90	19.28	-40.6	-42.4	19.1	0.00e+00	0	43	0	0	52	4517
2026-01-07 08:14:02.79	33.64	19.25	-40.6	-42.4	19.1	0.00e+00	0	43	0	0	52	4520
2026-01-07 08:14:03.65	33.43	19.22	-40.6	-42.4	19.0	0.00e+00	0	43	0	0	52	4542
2026-01-07 08:14:04.80	33.17	19.18	-40.7	-42.5	19.0	0.00e+00	0	43	0	0	52	4557
2026-01-07 08:14:05.65	32.97	19.15	-40.6	-42.4	19.1	0.00e+00	0	43	0	0	52	4498
2026-01-07 08:14:06.80	32.70	19.11	-40.4	-42.2	19.2	0.00e+00	0	43	0	0	52	4409
2026-01-07 08:14:07.66	32.50	19.08	-40.5	-42.3	19.2	0.00e+00	0	43	0	0	52	4468
2026-01-07 08:14:08.80	32.23	19.04	-40.4	-42.2	19.3	0.00e+00	0	43	0	0	52	4401
2026-01-07 08:14:09.66	32.03	19.01	-40.3	-42.1	19.4	0.00e+00	0	43	0	0	52	4355
2026-01-07 08:14:10.81	31.77	18.97	-40.4	-42.2	19.3	0.00e+00	0	43	0	0	52	4427
2026-01-07 08:14:11.67	31.57	18.94	-40.4	-42.2	19.4	0.00e+00	0	43	0	0	52	4403
2026-01-07 08:14:12.82	31.31	18.89	-40.4	-42.2	19.3	0.00e+00	0	43	0	0	52	4402
2026-01-07 08:14:13.67	31.11	18.86	-40.5	-42.3	19.2	0.00e+00	0	43	0	0	52	4451
2026-01-07 08:14:14.81	30.85	18.82	-40.4	-42.2	19.3	0.00e+00	0	43	0	0	52	4411
2026-01-07 08:14:15.82	30.62	18.78	-40.4	-42.2	19.4	0.00e+00	0	43	0	0	52	4400
2026-01-07 08:14:16.82	30.39	18.74	-40.4	-42.2	19.3	0.00e+00	0	43	0	0	52	4416
2026-01-07 08:14:17.81	30.17	18.70	-40.3	-42.1	19.4	0.00e+00	0	43	0	0	52	4343
2026-01-07 08:14:18.81	29.94	18.66	-40.4	-42.2	19.3	0.00e+00	0	43	0	0	52	4417
2026-01-07 08:14:19.81	29.72	18.62	-40.5	-42.4	19.1	0.00e+00	0	43	0	0	52	4498
2026-01-07 08:14:20.80	29.49	18.58	-40.7	-42.5	19.0	0.00e+00	0	43	0	0	52	4556
2026-01-07 08:14:21.80	29.27	18.54	-40.8	-42.6	18.9	0.00e+00	0	43	0	0	52	4613
2026-01-07 08:14:22.80	29.05	18.50	-40.9	-42.7	18.8	0.00e+00	0	43	0	0	52	4700
2026-01-07 08:14:23.80	28.82	18.46	-40.8	-42.7	18.8	0.00e+00	0	43	0	0	52	4657
2026-01-07 08:14:24.79	28.60	18.42	-40.7	-42.5	19.0	0.00e+00	0	43	0	0	52	4548
2026-01-07 08:14:25.79	28.38	18.38	-40.7	-42.5	19.0	0.00e+00	0	43	0	0	52	4592
2026-01-07 08:14:26.79	28.16	18.33	-40.8	-42.6	18.9	0.00e+00	0	43	0	0	52	4648
2026-01-07 08:14:27.79	27.94	18.29	-40.6	-42.4	19.1	0.00e+00	0	43	0	0	52	4530
2026-01-07 08:14:28.79	27.72	18.25	-40.5	-42.3	19.3	0.00e+00	0	44	0	0	52	4451
2026-01-07 08:14:29.78	27.50	18.20	-40.4	-42.2	19.3	0.00e+00	0	43	0	0	52	4433
2026-01-07 08:14:30.78	27.28	18.16	-40.4	-42.2	19.3	0.00e+00	0	43	0	0	52	4438
2026-01-07 08:14:31.78	27.06	18.12	-40.4	-42.2	19.3	0.00e+00	0	43	0	0	52	4435
2026-01-07 08:14:32.78	26.85	18.07	-40.4	-42.3	19.2	0.00e+00	0	43	0	0	52	4445
2026-01-07 08:14:33.78	26.63	18.03	-40.5	-42.4	19.1	0.00e+00	0	43	0	0	52	4511
2026-01-07 08:14:34.77	26.42	17.98	-40.5	-42.5	19.0	0.00e+00	0	43	0	0	52	4557
2026-01-07 08:14:35.77	26.20	17.93	-40.6	-42.6	19.0	0.00e+00	0	43	0	0	52	4604
2026-01-07 08:14:36.76	25.99	17.89	-40.7	-42.7	18.5	7.00e-07	0	43	0	0	52	4668
2026-01-07 08:14:37.76	25.77	17.84	-40.7	-42.6	18.7	0.00e+00	0	43	0	0	52	4624
2026-01-07 08:14:38.76	25.56	17.80	-40.6	-42.5	18.8	0.00e+00	0	43	0	0	52	4590
2026-01-07 08:14:39.76	25.35	17.75	-40.5	-42.3	19.0	0.00e+00	0	43	0	0	52	4491
2026-01-07 08:14:40.76	25.13	17.70	-40.4	-42.2	19.2	0.00e+00	0	43	0	0	52	4406
2026-01-07 08:14:41.76	24.92	17.65	-40.4	-42.2	19.1	0.00e+00	0	43	0	0	52	4410
2026-01-07 08:14:42.76	24.71	17.61	-40.4	-42.2	19.1	0.00e+00	0	43	0	0	52	4410
2026-01-07 08:14:43.76	24.50	17.56	-40.5	-42.3	19.1	0.00e+00	0	43	0	0	52	4455
2026-01-07 08:14:44.76	24.29	17.51	-40.4	-42.2	19.1	0.00e+00	0	43	0	0	52	4435
2026-01-07 08:14:45.76	24.08	17.46	-40.5	-42.4	19.0	0.00e+00	0	43	0	0	52	4509
2026-01-07 08:14:46.76	23.88	17.41	-40.6	-42.5	18.8	0.00e+00	0	43	0	0	52	4577
2026-01-07 08:14:47.76	23.67	17.36	-40.7	-42.6	18.7	0.00e+00	0	43	0	0	52	4608
2026-01-07 08:14:48.76	23.46	17.31	-40.8	-42.7	18.6	2.20e-06	0	43	0	0	52	4675
2026-01-07 08:14:49.75	23.26	17.26	-40.8	-42.7	18.6	0.00e+00	0	43	0	0	52	4689
2026-01-07 08:14:50.75	23.05	17.21	-40.8	-42.7	18.7	0.00e+00	0	43	0	0	52	4672
2026-01-07 08:14:51.74	22.85	17.16	-40.7	-42.7	18.8	0.00e+00	0	43	0	0	52	4658
2026-01-07 08:14:52.74	22.65	17.11	-40.5	-42.4	19.0	0.00e+00	0	43	0	0	52	4533
2026-01-07 08:14:53.73	22.44	17.06	-40.4	-42.3	19.0	0.00e+00	0	43	0	0	52	4469
2026-01-07 08:14:54.73	22.24	17.01	-40.5	-42.4	18.9	0.00e+00	0	43	0	0	52	4494
2026-01-07 08:14:55.73	22.04	16.96	-40.4	-42.3	19.0	0.00e+00	0	43	0	0	52	4481
2026-01-07 08:14:56.73	21.84	16.90	-40.4	-42.3	18.9	0.00e+00	0	43	0	0	52	4470
2026-01-07 08:14:57.73	21.64	16.85	-40.5	-42.3	18.7	0.00e+00	0	43	0	0	52	4484
2026-01-07 08:14:58.74	21.44	16.80	-40.5	-42.3	19.0	0.00e+00	0	43	0	0	52	4466
2026-01-07 08:14:59.73	21.24	16.75	-40.5	-42.3	19.1	0.00e+00	0	43	0	0	52	4466
2026-01-07 08:15:00.74	21.04	16.69	-40.6	-42.4	19.0	0.00e+00	0	43	0	0	52	4502
2026-01-07 08:15:01.74	20.84	16.64	-40.6	-42.4	19.0	0.00e+00	0	43	0	0	52	4533
2026-01-07 08:15:02.74	20.65	16.59	-40.8	-42.6	18.9	0.00e+00	0	43	0	0	52	4626
2026-01-07 08:15:03.73	20.45	16.53	-40.7	-42.6	18.9	0.00e+00	0	43	0	0	52	4612
2026-01-07 08:15:04.73	20.26	16.48	-40.7	-42.6	18.9	0.00e+00	0	43	0	0	52	4608
2026-01-07 08:15:05.73	20.06	16.43	-40.8	-42.7	18.8	0.00e+00	0	43	0	0	52	4664
2026-01-07 08:15:06.73	19.87	16.37	-40.9	-42.7	18.7	0.00e+00	0	43	0	0	52	4697
2026-01-07 08:15:07.73	19.67	16.32	-40.8	-42.7	18.7	0.00e+00	0	43	0	0	52	4675
2026-01-07 08:15:08.73	19.48	16.26	-40.9	-42.8	18.6	0.00e+00	0	43	0	0	52	4738
2026-01-07 08:15:09.73	19.29	16.21	-40.8	-42.7	18.7	0.00e+00	0	43	0	0	52	4684
2026-01-07 08:15:10.73	19.10	16.15	-40.8	-42.7	18.7	0.00e+00	0	43	0	0	52	4701
2026-01-07 08:15:11.73	18.91	16.10	-40.8	-42.7	18.7	0.00e+00	0	43	0	0	52	4686
2026-01-07 08:15:12.73	18.72	16.04	-40.8	-42.7	18.8	0.00e+00	0	43	0	0	52	4670
2026-01-07 08:15:13.72	18.53	15.99	-40.9	-42.8	18.6	0.00e+00	0	43	0	0	52	4726
2026-01-07 08:15:14.73	18.34	15.93	-40.9	-42.8	18.7	0.00e+00	0	43	0	0	52	4718
2026-01-07 08:15:15.72	18.16	15.88	-40.9	-42.8	18.7	0.00e+00	0	43	0	0	52	4731
2026-01-07 08:15:16.72	17.97	15.82	-40.9	-42.8	18.6	0.00e+00	0	43	0	0	52	4737
2026-01-07 08:15:17.73	17.78	15.76	-41.0	-42.8	18.6	0.00e+00	0	43	0	0	52	4752
2026-01-07 08:15:18.73	17.59	15.71	-41.0	-42.9	18.6	0.00e+00	0	43	0	0	52	4789
2026-01-07 08:15:19.73	17.41	15.65	-41.0	-42.9	18.6	0.00e+00	0	43	0	0	52	4790
2026-01-07 08:15:20.73	17.23	15.59	-41.0	-42.9	18.6	0.00e+00	0	43	0	0	52	4770
2026-01-07 08:15:21.73	17.04	15.54	-41.1	-43.0	18.4	0.00e+00	0	43	0	0	53	4593
2026-01-07 08:15:22.72	16.86	15.48	-41.2	-43.1	18.4	0.00e+00	0	43	0	0	53	4618
2026-01-07 08:15:23.72	16.68	15.42	-41.1	-43.0	18.5	0.00e+00	0	43	0	0	53	4586
2026-01-07 08:15:24.72	16.50	15.36	-41.1	-43.0	18.5	0.00e+00	0	43	0	0	53	4572
2026-01-07 08:15:25.72	16.32	15.31	-41.0	-42.9	18.6	0.00e+00	0	43	0	0	53	4511
2026-01-07 08:15:26.72	16.14	15.25	-41.1	-43.0	18.5	0.00e+00	0	43	0	0	53	4577
2026-01-07 08:15:27.72	15.96	15.19	-41.0	-43.0	18.5	0.00e+00	0	43	0	0	53	4550
2026-01-07 08:15:28.72	15.78	15.13	-41.0	-42.9	18.5	0.00e+00	0	43	0	0	53	4545
2026-01-07 08:15:29.72	15.60	15.07	-41.1	-43.0	18.4	0.00e+00	0	43	0	0	53	4585
2026-01-07 08:15:30.72	15.43	15.02	-40.8	-42.8	18.6	0.00e+00	0	43	0	0	53	4469
2026-01-07 08:15:31.73	15.25	14.96	-40.8	-42.8	18.6	0.00e+00	0	43	0	0	53	4468
2026-01-07 08:15:32.73	15.07	14.90	-40.8	-42.8	18.7	0.00e+00	0	43	0	0	53	4454
2026-01-07 08:15:33.73	14.90	14.84	-40.7	-42.8	18.7	0.00e+00	0	43	0	0	53	4449
2026-01-07 08:15:34.73	14.72	14.78	-40.7	-42.8	18.7	0.00e+00	0	43	0	0	53	4449
2026-01-07 08:15:35.72	14.55	14.72	-40.6	-42.6	18.8	0.00e+00	0	43	0	0	53	4374
2026-01-07 08:15:36.72	14.38	14.66	-40.6	-42.6	18.8	0.00e+00	0	43	0	0	53	4388
2026-01-07 08:15:37.72	14.21	14.60	-40.5	-42.6	18.9	0.00e+00	0	44	0	0	53	4356
2026-01-07 08:15:38.72	14.04	14.54	-40.5	-42.6	18.9	0.00e+00	0	43	0	0	53	4358
2026-01-07 08:15:39.71	13.87	14.49	-40.7	-42.7	18.7	0.00e+00	0	43	0	0	53	4438
2026-01-07 08:15:40.72	13.70	14.42	-40.8	-42.9	18.6	0.00e+00	0	43	0	0	53	4520
2026-01-07 08:15:41.72	13.53	14.37	-40.9	-43.0	18.5	0.00e+00	0	43	0	0	53	4595
2026-01-07 08:15:42.71	13.36	14.31	-40.9	-43.0	18.5	0.00e+00	0	43	0	0	53	4550
2026-01-07 08:15:43.71	13.19	14.25	-41.0	-43.1	18.4	0.00e+00	0	43	0	0	53	4616
2026-01-07 08:15:44.71	13.03	14.19	-41.0	-43.1	18.4	0.00e+00	0	43	0	0	53	4609
2026-01-07 08:15:45.71	12.86	14.13	-41.0	-43.0	18.5	0.00e+00	0	43	0	0	53	4554
2026-01-07 08:15:46.71	12.69	14.07	-41.0	-43.0	18.5	0.00e+00	0	43	0	0	53	4569
2026-01-07 08:15:47.71	12.53	14.01	-41.1	-43.0	18.5	0.00e+00	0	43	0	0	53	4575
2026-01-07 08:15:48.71	12.36	13.95	-41.1	-43.1	18.4	0.00e+00	0	43	0	0	53	4599
2026-01-07 08:15:49.71	12.20	13.88	-40.9	-42.8	18.7	0.00e+00	0	43	0	0	53	4460
2026-01-07 08:15:50.71	12.04	13.82	-40.8	-42.7	18.8	0.00e+00	0	43	0	0	53	4399
2026-01-07 08:15:51.71	11.87	13.76	-40.8	-42.7	18.7	0.00e+00	0	43	0	0	53	4435
2026-01-07 08:15:52.71	11.71	13.70	-40.8	-42.7	18.7	0.00e+00	0	43	0	0	53	4418
2026-01-07 08:15:53.71	11.55	13.64	-40.8	-42.8	18.7	0.00e+00	0	43	0	0	53	4442
2026-01-07 08:15:54.71	11.39	13.58	-41.1	-43.1	18.4	0.00e+00	0	43	0	0	53	4616
2026-01-07 08:15:55.71	11.23	13.52	-41.2	-43.2	18.3	0.00e+00	0	43	0	0	53	4669
2026-01-07 08:15:56.71	11.07	13.46	-41.3	-43.3	18.2	0.00e+00	0	43	0	0	53	4716
2026-01-07 08:15:57.71	10.91	13.40	-41.3	-43.3	18.1	0.00e+00	0	43	0	0	53	4743
2026-01-07 08:15:58.71	10.76	13.34	-41.1	-43.2	18.3	0.00e+00	0	43	0	0	53	4659
2026-01-07 08:15:59.71	10.60	13.28	-41.1	-43.2	18.3	0.00e+00	0	43	0	0	53	4655
2026-01-07 08:16:00.71	10.44	13.21	-41.0	-43.1	18.3	0.00e+00	0	44	0	0	53	4642
2026-01-07 08:16:01.71	10.29	13.15	-40.9	-43.1	18.3	0.00e+00	0	43	0	0	53	4606
2026-01-07 08:16:02.71	10.13	13.09	-41.0	-43.1	18.2	0.00e+00	0	43	0	0	53	4642
2026-01-07 08:16:03.71	9.98	13.03	-40.9	-43.1	18.3	0.00e+00	0	43	0	0	53	4608
2026-01-07 08:16:04.72	9.82	12.97	-41.0	-43.1	18.2	0.00e+00	0	43	0	0	53	4645
2026-01-07 08:16:05.71	9.67	12.91	-40.8	-42.9	18.4	0.00e+00	0	43	0	0	53	4536
2026-01-07 08:16:06.71	9.52	12.85	-41.0	-43.1	18.3	0.00e+00	0	43	0	0	53	4604
2026-01-07 08:16:07.71	9.37	12.78	-41.0	-43.0	18.4	0.00e+00	0	43	0	0	53	4570
2026-01-07 08:16:08.70	9.22	12.72	-41.0	-43.0	18.3	0.00e+00	0	43	0	0	53	4589
2026-01-07 08:16:09.70	9.07	12.66	-40.9	-43.0	18.4	0.00e+00	0	43	0	0	53	4576
2026-01-07 08:16:10.70	8.92	12.60	-40.9	-43.0	18.4	0.00e+00	0	43	0	0	53	4591
2026-01-07 08:16:11.70	8.77	12.54	-41.0	-43.2	18.2	0.00e+00	0	44	0	0	53	4701
2026-01-07 08:16:12.69	8.62	12.48	-41.0	-43.2	18.2	0.00e+00	0	44	0	0	53	4704
2026-01-07 08:16:13.70	8.47	12.41	-40.9	-43.2	18.2	0.00e+00	0	43	0	0	53	4692
2026-01-07 08:16:14.70	8.33	12.35	-40.9	-43.2	18.2	0.00e+00	0	43	0	0	53	4668
2026-01-07 08:16:15.70	8.18	12.29	-41.0	-43.4	18.0	0.00e+00	0	43	0	0	53	4778
2026-01-07 08:16:16.69	8.03	12.23	-41.1	-43.5	17.9	0.00e+00	0	43	0	0	53	4832
2026-01-07 08:16:17.69	7.89	12.17	-41.2	-43.5	17.9	0.00e+00	0	44	0	0	53	4868
2026-01-07 08:16:18.69	7.74	12.11	-41.4	-43.8	17.7	0.00e+00	0	43	0	0	53	5001
2026-01-07 08:16:19.69	7.60	12.04	-41.6	-44.0	17.4	0.00e+00	0	43	0	0	53	5124
2026-01-07 08:16:20.68	7.46	11.98	-41.5	-43.8	17.5	0.00e+00	0	43	0	0	53	5037
2026-01-07 08:16:21.68	7.31	11.92	-41.7	-44.0	17.5	0.00e+00	0	44	0	0	54	4819
2026-01-07 08:16:22.68	7.17	11.86	-41.6	-43.8	17.5	0.00e+00	0	43	0	0	54	4756
2026-01-07 08:16:23.68	7.03	11.80	-41.7	-43.9	17.5	0.00e+00	0	43	0	0	54	4809
2026-01-07 08:16:24.68	6.89	11.73	-41.8	-43.9	17.5	0.00e+00	0	43	0	0	54	4812
2026-01-07 08:16:25.67	6.75	11.67	-41.8	-44.0	17.4	0.00e+00	0	43	0	0	54	4836
2026-01-07 08:16:26.67	6.61	11.61	-41.5	-43.5	17.9	0.00e+00	0	43	0	0	54	4589
2026-01-07 08:16:27.67	6.47	11.55	-41.5	-43.6	17.8	0.00e+00	0	43	0	0	54	4604
2026-01-07 08:16:28.67	6.33	11.49	-41.4	-43.5	17.9	0.00e+00	0	43	0	0	54	4584
2026-01-07 08:16:29.66	6.20	11.43	-41.3	-43.4	18.0	0.00e+00	0	43	0	0	54	4511
2026-01-07 08:16:30.66	6.06	11.36	-41.3	-43.5	17.9	0.00e+00	0	43	0	0	54	4580
2026-01-07 08:16:31.66	5.92	11.30	-41.3	-43.5	17.9	0.00e+00	0	43	0	0	54	4582
2026-01-07 08:16:32.65	5.79	11.24	-41.5	-43.8	17.6	0.00e+00	0	43	0	0	54	4759
2026-01-07 08:16:33.65	5.65	11.18	-41.7	-44.0	17.4	0.00e+00	0	43	0	0	54	4868
2026-01-07 08:16:34.65	5.52	11.11	-41.6	-44.0	17.4	0.00e+00	0	43	0	0	54	4869
2026-01-07 08:16:35.65	5.38	11.05	-41.8	-44.2	17.3	0.00e+00	0	43	0	0	54	4977
2026-01-07 08:16:36.64	5.25	10.99	-41.8	-44.2	17.3	0.00e+00	0	43	0	0	54	4975
2026-01-07 08:16:37.64	5.12	10.93	-41.9	-44.3	17.1	0.00e+00	0	43	0	0	54	5035
2026-01-07 08:16:38.64	4.98	10.87	-42.1	-44.4	17.0	0.00e+00	0	43	0	0	54	5089
2026-01-07 08:16:39.63	4.85	10.81	-42.0	-44.3	17.1	0.00e+00	0	43	0	0	54	5039
2026-01-07 08:16:40.63	4.72	10.74	-42.1	-44.4	17.0	0.00e+00	0	43	0	0	55	4802
2026-01-07 08:16:41.63	4.59	10.68	-42.0	-44.3	17.1	0.00e+00	0	43	0	0	55	4723
2026-01-07 08:16:42.63	4.46	10.62	-41.9	-44.3	17.1	0.00e+00	0	43	0	0	55	4731
2026-01-07 08:16:43.63	4.33	10.56	-41.9	-44.3	17.1	0.00e+00	0	43	0	0	55	4735
2026-01-07 08:16:44.62	4.20	10.50	-41.9	-44.2	17.2	0.00e+00	0	43	0	0	55	4693
2026-01-07 08:16:45.63	4.07	10.43	-41.9	-44.2	17.2	0.00e+00	0	43	0	0	55	4683
2026-01-07 08:16:46.62	3.94	10.37	-42.0	-44.4	17.0	0.00e+00	0	43	0	0	55	4768
2026-01-07 08:16:47.62	3.82	10.31	-41.8	-44.1	17.3	0.00e+00	0	43	0	0	55	4623
2026-01-07 08:16:48.62	3.69	10.25	-42.1	-44.3	17.1	0.00e+00	0	43	0	0	55	4726
2026-01-07 08:16:49.60	3.57	10.19	-42.4	-44.5	16.9	0.00e+00	0	43	0	0	55	4863
2026-01-07 08:16:50.60	3.44	10.13	-42.5	-44.6	16.8	0.00e+00	0	43	0	0	55	4920
2026-01-07 08:16:51.60	3.31	10.06	-42.5	-44.7	16.6	0.00e+00	0	43	0	0	55	4982
2026-01-07 08:16:52.60	3.19	10.00	-42.5	-45.0	16.4	0.00e+00	0	43	0	0	55	5106
2026-01-07 08:16:53.60	3.06	9.94	-42.5	-45.2	16.2	0.00e+00	0	43	0	0	55	5253
2026-01-07 08:16:54.59	2.94	9.88	-42.3	-45.1	16.2	0.00e+00	0	43	0	0	55	5215
2026-01-07 08:16:55.59	2.82	9.82	-42.0	-44.9	16.4	0.00e+00	0	43	0	0	55	5065
2026-01-07 08:16:56.59	2.70	9.75	-42.0	-44.8	16.5	0.00e+00	0	44	0	0	55	5012
2026-01-07 08:16:57.59	2.57	9.69	-42.0	-44.7	16.6	0.00e+00	0	43	0	0	55	4942
2026-01-07 08:16:58.60	2.45	9.63	-42.1	-44.7	16.6	0.00e+00	0	43	0	0	55	4953
2026-01-07 08:16:59.59	2.33	9.57	-42.2	-44.8	16.5	0.00e+00	0	43	0	0	55	5028
2026-01-07 08:17:00.59	2.21	9.51	-42.2	-44.6	16.7	0.00e+00	0	43	0	0	55	4900
2026-01-07 08:17:01.59	2.09	9.45	-42.1	-44.5	16.8	0.00e+00	0	43	0	0	55	4828
2026-01-07 08:17:02.59	1.97	9.38	-42.0	-44.4	16.9	0.00e+00	0	44	0	0	55	4805
2026-01-07 08:17:03.59	1.85	9.32	-42.1	-44.7	16.6	0.00e+00	0	44	0	0	55	4960
2026-01-07 08:17:04.59	1.73	9.26	-41.9	-44.6	16.8	0.00e+00	0	43	0	0	55	4873
2026-01-07 08:17:05.58	1.62	9.20	-42.2	-44.9	16.5	0.00e+00	0	43	0	0	55	5063
2026-01-07 08:17:06.58	1.50	9.14	-42.3	-45.0	16.3	0.00e+00	0	43	0	0	55	5154
2026-01-07 08:17:07.57	1.38	9.08	-42.2	-44.9	16.5	0.00e+00	0	43	0	0	55	5055
2026-01-07 08:17:08.58	1.26	9.02	-43.1	-46.1	15.5	0.00e+00	0	43	0	0	56	5518
2026-01-07 08:17:09.57	1.15	8.95	-49.2	-63.3	3.9	1.49e+00	0	43	104	0	69	18836
2026-01-07 08:17:10.57	1.03	8.89	-48.8	-62.9	3.8	1.49e+00	0	43	104	0	69	18054
2026-01-07 08:17:11.57	0.92	8.83	-49.9	-63.3	3.8	1.49e+00	0	43	104	0	70	17760
2026-01-07 08:17:12.57	0.81	8.77	-49.4	-63.3	3.8	1.49e+00	0	43	104	0	70	17850
2026-01-07 08:17:13.57	0.69	8.71	-50.3	-63.4	3.8	1.49e+00	0	43	104	0	71	16999
2026-01-07 08:17:14.57	0.58	8.65	-50.3	-63.4	3.8	1.49e+00	0	43	104	0	71	17032
2026-01-07 08:17:15.56	0.47	8.59	-50.4	-63.5	3.8	1.49e+00	0	44	104	0	71	17128
2026-01-07 08:17:16.56	0.35	8.53	-50.3	-63.5	3.8	1.49e+00	0	43	104	0	71	17157
2026-01-07 08:17:17.56	0.24	8.47	-50.2	-63.5	3.8	1.49e+00	0	43	104	0	71	17206
2026-01-07 08:17:18.56	0.13	8.40	-49.9	-63.5	3.8	1.49e+00	0	44	104	0	71	17276
2026-01-07 08:17:19.56	0.02	8.34	-50.5	-63.5	3.8	1.49e+00	0	43	104	0	71	17178
2026-01-07 08:17:20.56	359.91	8.28	-50.0	-63.5	3.8	1.49e+00	0	43	104	0	71	17272
2026-01-07 08:17:21.56	359.80	8.22	-50.4	-63.5	3.8	1.49e+00	0	43	104	0	71	17263
2026-01-07 08:17:22.56	359.69	8.16	-50.6	-63.5	3.8	1.49e+00	0	43	104	0	71	17253
2026-01-07 08:17:23.55	359.58	8.10	-50.4	-63.6	3.8	1.49e+00	0	43	104	0	71	17322
2026-01-07 08:17:24.55	359.47	8.04	-50.2	-63.5	3.8	1.49e+00	0	43	104	0	71	17268
2026-01-07 08:17:25.55	359.36	7.98	-50.6	-63.6	3.8	1.49e+00	0	43	104	0	71	17323
2026-01-07 08:17:26.54	359.26	7.92	-50.5	-63.5	3.8	1.49e+00	0	43	104	0	71	17270
2026-01-07 08:17:27.54	359.15	7.86	-50.5	-63.6	3.8	1.49e+00	0	43	104	0	71	17287
2026-01-07 08:17:28.54	359.04	7.80	-50.3	-63.6	3.8	1.49e+00	0	43	104	0	71	17342
2026-01-07 08:17:29.54	358.94	7.74	-50.5	-63.6	3.8	1.49e+00	0	43	104	0	71	17285
2026-01-07 08:17:30.54	358.83	7.68	-50.5	-63.5	3.8	1.49e+00	0	44	104	0	71	17276
2026-01-07 08:17:31.53	358.72	7.62	-50.6	-63.5	3.8	1.49e+00	0	43	104	0	71	17269
2026-01-07 08:17:32.53	358.62	7.56	-50.5	-63.5	3.8	1.49e+00	0	44	104	0	71	17258
2026-01-07 08:17:33.53	358.51	7.50	-50.4	-63.5	3.8	1.49e+00	0	43	104	0	71	17226
2026-01-07 08:17:34.52	358.41	7.44	-50.4	-63.5	3.8	1.49e+00	0	43	104	0	71	17183
2026-01-07 08:17:35.52	358.31	7.38	-50.4	-63.5	3.8	1.49e+00	0	43	104	0	71	17218
2026-01-07 08:17:36.52	358.20	7.32	-50.4	-63.5	3.8	1.49e+00	0	43	104	0	71	17236
2026-01-07 08:17:37.52	358.10	7.26	-50.2	-63.5	3.8	1.49e+00	0	43	104	0	71	17207
2026-01-07 08:17:38.51	358.00	7.20	-50.2	-63.5	3.8	1.49e+00	0	43	104	0	71	17242
2026-01-07 08:17:39.51	357.90	7.14	-50.2	-63.5	3.8	1.49e+00	0	43	104	0	71	17211
2026-01-07 08:17:40.51	357.80	7.08	-50.2	-63.5	3.8	1.49e+00	0	44	104	0	71	17257
2026-01-07 08:17:41.51	357.70	7.02	-50.2	-63.5	3.8	1.49e+00	0	43	104	0	71	17199
2026-01-07 08:17:42.51	357.60	6.96	-50.2	-63.5	3.8	1.49e+00	0	43	104	0	71	17249
2026-01-07 08:17:43.51	357.49	6.90	-50.2	-63.5	3.8	1.49e+00	0	43	104	0	71	17238
2026-01-07 08:17:44.51	357.40	6.84	-50.2	-63.5	3.8	1.49e+00	0	43	104	0	71	17245
2026-01-07 08:17:45.51	357.30	6.78	-50.2	-63.5	3.8	1.49e+00	0	43	104	0	71	17210
2026-01-07 08:17:46.51	357.20	6.72	-50.2	-63.5	3.8	1.49e+00	0	44	104	0	71	17187
2026-01-07 08:17:47.50	357.10	6.66	-50.2	-63.5	3.8	1.49e+00	0	44	104	0	71	17200
2026-01-07 08:17:48.50	357.00	6.60	-50.2	-63.5	3.8	1.49e+00	0	43	104	0	71	17200
2026-01-07 08:17:49.50	356.90	6.54	-50.2	-63.5	3.8	1.49e+00	0	44	104	0	71	17213
2026-01-07 08:17:50.50	356.81	6.48	-50.2	-63.5	3.8	1.49e+00	0	43	104	0	71	17235
2026-01-07 08:17:51.49	356.71	6.42	-50.2	-63.5	3.8	1.49e+00	0	43	104	0	71	17227
2026-01-07 08:17:52.50	356.61	6.36	-50.2	-63.5	3.8	1.49e+00	0	43	104	0	71	17264
2026-01-07 08:17:53.49	356.52	6.30	-50.2	-63.5	3.8	1.49e+00	0	43	104	0	71	17194
2026-01-07 08:17:54.49	356.42	6.24	-50.2	-63.5	3.8	1.49e+00	0	44	104	0	71	17280
2026-01-07 08:17:55.49	356.33	6.18	-50.2	-63.6	3.8	1.49e+00	0	43	104	0	71	17284
2026-01-07 08:17:56.49	356.23	6.13	-50.2	-63.5	3.8	1.49e+00	0	43	104	0	71	17195
2026-01-07 08:17:57.49	356.14	6.07	-50.2	-63.5	3.8	1.49e+00	0	44	104	0	71	17238
2026-01-07 08:17:58.48	356.04	6.01	-50.2	-63.5	3.8	1.49e+00	0	43	104	0	71	17202
2026-01-07 08:17:59.48	355.95	5.95	-50.2	-63.5	3.8	1.49e+00	0	43	104	0	71	17188
2026-01-07 08:18:00.47	355.86	5.89	-50.2	-63.5	3.8	1.49e+00	0	43	104	0	71	17196
2026-01-07 08:18:01.47	355.76	5.83	-50.2	-63.5	3.8	1.49e+00	0	44	104	0	71	17159
2026-01-07 08:18:02.47	355.67	5.77	-50.2	-63.5	3.8	1.49e+00	0	43	104	0	71	17242
2026-01-07 08:18:03.47	355.58	5.71	-50.2	-63.5	3.8	1.49e+00	0	44	104	0	71	17209
2026-01-07 08:18:04.47	355.49	5.66	-50.2	-63.5	3.8	1.49e+00	0	44	104	0	71	17208
2026-01-07 08:18:05.47	355.40	5.60	-50.2	-63.5	3.8	1.49e+00	0	44	104	0	71	17240
2026-01-07 08:18:06.47	355.31	5.54	-50.2	-63.5	3.8	1.49e+00	0	44	104	0	71	17188
2026-01-07 08:18:07.47	355.22	5.48	-50.2	-63.5	3.8	1.49e+00	0	43	104	0	71	17191
2026-01-07 08:18:08.47	355.13	5.42	-50.2	-63.5	3.8	1.49e+00	0	44	104	0	71	17205
2026-01-07 08:18:09.47	355.04	5.36	-50.2	-63.5	3.8	1.49e+00	0	44	104	0	71	17189
2026-01-07 08:18:10.47	354.95	5.31	-50.2	-63.5	3.8	1.49e+00	0	44	104	0	71	17225
2026-01-07 08:18:11.46	354.86	5.25	-50.2	-63.5	3.8	1.49e+00	0	44	104	0	71	17208
2026-01-07 08:18:12.46	354.77	5.19	-50.2	-63.5	3.8	1.49e+00	0	43	104	0	71	17120
2026-01-07 08:18:13.46	354.68	5.13	-50.2	-63.5	3.8	1.49e+00	0	44	104	0	71	17211
2026-01-07 08:18:14.46	354.59	5.07	-50.2	-63.5	3.8	1.49e+00	0	44	104	0	71	17219
2026-01-07 08:18:15.45	354.51	5.02	-50.2	-63.5	3.8	1.49e+00	0	44	104	0	71	17219
2026-01-07 08:18:16.45	354.42	4.96	-50.2	-63.5	3.8	1.49e+00	0	44	104	0	71	17210

#Closed at: 2026-01-07 08:18:17
#Recorded file [0 MB]: D:/Data/31040_260107_110748.dat