passes_logs/2026/01/07/T1/T1__20260107_094604_NOAA_21_JPSS-2_rec.log

#Pass ID: 20260107_094604_NOAA 21 (JPSS-2)
#Satellite: NOAA 21 (JPSS-2)
#Configuration: NOAA 21
#almurnet v.1.7.20251203
#Start time: 2026-01-07 09:46:06

#Version: 2.0.20230620
#Station: T1
#Location: 37.570604 lon 55.790049 lat
#TLE: 1 54234U 22150A   26005.56767909  .00000152  00000+0  92756-4 0  9990
#TLE: 2 54234  98.7490 306.5820 0001036 340.2747  19.8389 14.19532370163472

#Time	Az	El	Level	Level2	SNR	BER	BlckErr	Temp	State	Recorded	gain1	gain2
2026-01-07 09:46:06.50	155.32	5.13	-49.9	-62.9	3.8	1.49e+00	0	36	0	0	71	16017
2026-01-07 09:46:07.50	155.31	5.20	-49.9	-62.6	3.8	1.49e+00	0	36	104	0	71	15507
2026-01-07 09:46:08.51	155.30	5.28	-49.9	-62.6	3.8	1.49e+00	0	36	104	0	71	15575
2026-01-07 09:46:09.51	155.30	5.35	-49.9	-62.7	3.8	1.49e+00	0	36	104	0	71	15693
2026-01-07 09:46:10.52	155.29	5.42	-49.9	-62.8	3.8	1.49e+00	0	36	104	0	71	15789
2026-01-07 09:46:11.52	155.28	5.50	-49.9	-62.8	3.8	1.49e+00	0	37	104	0	71	15929
2026-01-07 09:46:12.53	155.27	5.57	-49.9	-62.9	3.8	1.49e+00	0	36	104	0	71	16107
2026-01-07 09:46:13.53	155.27	5.64	-49.9	-63.0	3.8	1.49e+00	0	37	104	0	71	16211
2026-01-07 09:46:14.53	155.26	5.72	-49.9	-63.0	3.8	1.49e+00	0	37	104	0	71	16150
2026-01-07 09:46:15.54	155.25	5.79	-49.9	-62.8	3.8	1.49e+00	0	37	104	0	71	15932
2026-01-07 09:46:16.54	155.24	5.87	-49.9	-62.7	3.8	1.49e+00	0	37	104	0	71	15627
2026-01-07 09:46:17.55	155.24	5.94	-49.9	-62.5	3.8	1.49e+00	0	37	104	0	71	15236
2026-01-07 09:46:18.55	155.23	6.01	-49.9	-62.2	3.8	1.49e+00	0	37	104	0	71	14866
2026-01-07 09:46:19.55	155.22	6.09	-49.8	-62.0	3.8	1.49e+00	0	37	104	0	71	14438
2026-01-07 09:46:20.56	155.21	6.16	-49.8	-61.8	3.8	1.49e+00	0	37	104	0	71	14114
2026-01-07 09:46:21.56	155.21	6.24	-49.8	-61.6	3.8	1.49e+00	0	37	104	0	71	13829
2026-01-07 09:46:22.57	155.20	6.32	-49.8	-61.6	3.8	1.49e+00	0	37	104	0	71	13748
2026-01-07 09:46:23.57	155.19	6.39	-49.8	-61.6	3.8	1.49e+00	0	37	104	0	71	13831
2026-01-07 09:46:24.58	155.18	6.47	-49.9	-61.9	3.8	1.49e+00	0	37	104	0	71	14220
2026-01-07 09:46:25.58	155.17	6.54	-49.9	-62.0	3.8	1.49e+00	0	37	104	0	71	14490
2026-01-07 09:46:26.59	155.17	6.62	-49.9	-62.2	3.8	1.49e+00	0	37	104	0	71	14852
2026-01-07 09:46:27.59	155.16	6.70	-49.9	-62.5	3.8	1.49e+00	0	37	104	0	71	15325
2026-01-07 09:46:28.59	155.15	6.77	-49.9	-62.6	3.8	1.49e+00	0	37	104	0	71	15488
2026-01-07 09:46:29.60	155.14	6.85	-49.9	-62.7	3.8	1.49e+00	0	37	104	0	71	15588
2026-01-07 09:46:30.60	155.13	6.93	-49.9	-62.6	3.8	1.49e+00	0	37	104	0	71	15475
2026-01-07 09:46:31.61	155.12	7.01	-49.9	-62.3	3.8	1.49e+00	0	37	104	0	71	15010
2026-01-07 09:46:32.61	155.12	7.08	-49.9	-61.9	3.8	1.49e+00	0	37	104	0	71	14277
2026-01-07 09:46:33.62	155.11	7.16	-49.8	-61.4	3.8	1.49e+00	0	37	104	0	71	13424
2026-01-07 09:46:34.62	155.10	7.24	-49.7	-60.3	4.0	1.48e+00	0	37	104	0	71	11899
2026-01-07 09:46:35.62	155.09	7.32	-49.6	-59.4	4.0	1.46e+00	0	37	104	0	71	10667
2026-01-07 09:46:36.63	155.08	7.40	-49.5	-59.1	4.0	1.20e+00	0	38	104	0	71	10314
2026-01-07 09:46:37.63	155.07	7.48	-49.3	-57.4	5.1	1.12e+00	0	37	0	0	70	8993
2026-01-07 09:46:38.64	155.06	7.56	-49.1	-56.4	5.7	4.71e-01	0	38	0	0	70	8055
2026-01-07 09:46:39.64	155.06	7.64	-48.8	-55.6	6.3	2.93e-01	0	37	0	0	69	7734
2026-01-07 09:46:40.64	155.05	7.72	-48.5	-54.6	7.2	1.56e-01	0	38	0	0	69	6919
2026-01-07 09:46:41.65	155.04	7.80	-48.2	-53.7	8.0	7.38e-02	0	38	0	0	68	6625
2026-01-07 09:46:42.66	155.03	7.88	-47.8	-52.8	8.8	3.33e-02	0	38	0	0	67	6323
2026-01-07 09:46:43.66	155.02	7.96	-47.5	-52.2	9.4	1.87e-02	0	38	0	0	67	5921
2026-01-07 09:46:44.66	155.01	8.04	-47.3	-51.8	9.9	1.04e-02	0	37	0	0	66	5928
2026-01-07 09:46:45.67	155.00	8.12	-47.1	-51.3	10.3	5.92e-03	0	38	0	0	66	5656
2026-01-07 09:46:46.67	154.99	8.20	-47.0	-51.2	10.5	3.67e-03	0	38	0	0	65	5872
2026-01-07 09:46:47.68	154.98	8.28	-47.0	-51.1	10.5	3.63e-03	0	38	0	0	65	5833
2026-01-07 09:46:48.68	154.97	8.37	-47.0	-51.2	10.4	4.24e-03	0	38	0	0	65	5897
2026-01-07 09:46:49.66	154.96	8.45	-47.1	-51.4	10.3	5.54e-03	0	38	0	0	65	6008
2026-01-07 09:46:50.67	154.95	8.53	-47.4	-51.9	9.7	8.80e-03	0	38	0	0	65	6383
2026-01-07 09:46:51.67	154.94	8.61	-47.5	-52.4	9.2	1.55e-02	0	38	0	0	65	6727
2026-01-07 09:46:52.68	154.93	8.69	-47.8	-53.0	8.6	3.48e-02	0	38	0	0	66	6810
2026-01-07 09:46:53.68	154.92	8.78	-48.2	-54.1	7.5	8.94e-02	0	38	0	0	67	7332
2026-01-07 09:46:54.69	154.91	8.86	-48.6	-55.2	6.5	1.98e-01	0	38	0	0	67	8332
2026-01-07 09:46:55.69	154.90	8.95	-49.0	-56.4	5.7	3.66e-01	0	38	0	0	68	9062
2026-01-07 09:46:56.69	154.89	9.03	-49.3	-57.8	4.9	6.34e-01	0	38	0	0	69	9996
2026-01-07 09:46:57.70	154.88	9.11	-49.3	-58.7	4.0	1.11e+00	0	38	104	0	69	11104
2026-01-07 09:46:58.70	154.87	9.20	-47.4	-52.1	9.6	1.48e-01	0	38	0	0	66	6163
2026-01-07 09:46:59.70	154.86	9.28	-49.9	-61.7	3.8	1.06e+00	0	38	104	0	70	14799
2026-01-07 09:47:00.71	154.85	9.37	-49.6	-59.5	3.9	1.49e+00	0	38	104	0	70	11437
2026-01-07 09:47:01.71	154.84	9.45	-46.7	-50.8	10.9	2.55e-01	0	38	0	0	65	5614
2026-01-07 09:47:02.71	154.83	9.54	-46.0	-49.4	12.5	1.78e-04	0	38	0	0	63	5353
2026-01-07 09:47:03.71	154.82	9.63	-45.7	-48.9	12.9	9.99e-05	0	38	0	0	63	5099
2026-01-07 09:47:04.71	154.81	9.71	-45.3	-48.3	13.6	1.06e-05	0	38	0	0	62	5024
2026-01-07 09:47:05.72	154.80	9.80	-45.1	-48.0	13.9	3.00e-06	0	38	0	0	62	4834
2026-01-07 09:47:06.72	154.79	9.89	-44.8	-47.6	14.3	7.00e-07	0	38	0	0	61	4887
2026-01-07 09:47:07.72	154.78	9.97	-44.1	-46.6	15.3	0.00e+00	0	38	0	0	60	4599
2026-01-07 09:47:08.72	154.77	10.06	-43.3	-45.6	16.3	0.00e+00	0	38	0	0	58	4630
2026-01-07 09:47:09.72	154.76	10.15	-43.4	-45.7	16.2	0.00e+00	0	38	0	0	58	4705
2026-01-07 09:47:10.73	154.75	10.24	-43.2	-45.4	16.4	0.00e+00	0	38	0	0	58	4542
2026-01-07 09:47:11.73	154.73	10.32	-42.7	-44.9	17.0	0.00e+00	0	38	0	0	57	4515
2026-01-07 09:47:12.73	154.72	10.41	-42.5	-44.5	17.4	0.00e+00	0	38	0	0	56	4586
2026-01-07 09:47:13.73	154.71	10.50	-42.4	-44.5	17.4	0.00e+00	0	38	0	0	56	4556
2026-01-07 09:47:14.74	154.70	10.59	-42.4	-44.5	17.4	0.00e+00	0	38	0	0	56	4546
2026-01-07 09:47:15.74	154.69	10.68	-42.3	-44.3	17.6	0.00e+00	0	38	0	0	56	4468
2026-01-07 09:47:16.74	154.68	10.77	-42.1	-44.2	17.7	0.00e+00	0	38	0	0	56	4403
2026-01-07 09:47:17.75	154.67	10.86	-42.0	-44.1	17.8	0.00e+00	0	38	0	0	56	4343
2026-01-07 09:47:18.75	154.65	10.95	-42.1	-44.1	17.8	0.00e+00	0	38	0	0	56	4368
2026-01-07 09:47:19.75	154.64	11.04	-42.2	-44.2	17.7	0.00e+00	0	38	0	0	56	4410
2026-01-07 09:47:20.76	154.63	11.14	-42.0	-44.0	17.8	0.00e+00	0	38	0	0	56	4306
2026-01-07 09:47:21.76	154.62	11.23	-41.7	-43.7	18.0	0.00e+00	0	38	0	0	55	4418
2026-01-07 09:47:22.76	154.61	11.32	-41.8	-43.8	17.9	0.00e+00	0	38	0	0	55	4467
2026-01-07 09:47:23.76	154.59	11.41	-41.7	-43.7	18.0	0.00e+00	0	38	0	0	55	4415
2026-01-07 09:47:24.77	154.58	11.50	-41.8	-43.9	17.8	0.00e+00	0	39	0	0	55	4494
2026-01-07 09:47:25.77	154.57	11.60	-41.8	-43.9	17.8	0.00e+00	0	38	0	0	55	4495
2026-01-07 09:47:26.77	154.56	11.69	-41.8	-43.9	17.8	0.00e+00	0	38	0	0	55	4499
2026-01-07 09:47:27.77	154.54	11.78	-41.5	-43.5	18.2	0.00e+00	0	38	0	0	55	4308
2026-01-07 09:47:28.77	154.53	11.88	-41.6	-43.6	18.1	0.00e+00	0	38	0	0	54	4608
2026-01-07 09:47:29.78	154.52	11.97	-41.5	-43.5	18.2	0.00e+00	0	38	0	0	54	4575
2026-01-07 09:47:30.78	154.51	12.07	-41.5	-43.5	18.2	0.00e+00	0	38	0	0	54	4547
2026-01-07 09:47:31.78	154.49	12.16	-41.5	-43.5	18.2	0.00e+00	0	38	0	0	54	4555
2026-01-07 09:47:32.78	154.48	12.26	-41.4	-43.4	18.3	0.00e+00	0	38	0	0	54	4514
2026-01-07 09:47:33.79	154.47	12.36	-41.4	-43.4	18.3	0.00e+00	0	38	0	0	54	4503
2026-01-07 09:47:34.79	154.45	12.45	-41.5	-43.4	18.2	0.00e+00	0	38	0	0	54	4532
2026-01-07 09:47:35.79	154.44	12.55	-41.4	-43.3	18.3	0.00e+00	0	38	0	0	54	4488
2026-01-07 09:47:36.80	154.43	12.65	-41.4	-43.3	18.4	0.00e+00	0	38	0	0	54	4470
2026-01-07 09:47:37.80	154.41	12.74	-41.4	-43.3	18.4	0.00e+00	0	38	0	0	54	4482
2026-01-07 09:47:38.81	154.40	12.84	-41.4	-43.4	18.3	0.00e+00	0	38	0	0	54	4497
2026-01-07 09:47:39.81	154.38	12.94	-41.3	-43.2	18.5	0.00e+00	0	38	0	0	54	4431
2026-01-07 09:47:40.81	154.37	13.04	-41.3	-43.2	18.5	0.00e+00	0	39	0	0	54	4428
2026-01-07 09:47:41.81	154.36	13.14	-41.3	-43.2	18.5	0.00e+00	0	38	0	0	54	4403
2026-01-07 09:47:42.82	154.34	13.24	-41.3	-43.3	18.4	0.00e+00	0	38	0	0	54	4442
2026-01-07 09:47:43.82	154.33	13.34	-41.3	-43.2	18.5	0.00e+00	0	38	0	0	54	4404
2026-01-07 09:47:44.82	154.31	13.44	-41.3	-43.2	18.5	0.00e+00	0	39	0	0	54	4428
2026-01-07 09:47:45.83	154.30	13.54	-41.3	-43.1	18.5	0.00e+00	0	38	0	0	54	4390
2026-01-07 09:47:46.83	154.28	13.64	-41.2	-43.1	18.6	0.00e+00	0	38	0	0	54	4368
2026-01-07 09:47:47.83	154.27	13.74	-41.2	-43.1	18.6	0.00e+00	0	38	0	0	54	4350
2026-01-07 09:47:48.84	154.25	13.85	-41.2	-43.0	18.7	0.00e+00	0	38	0	0	54	4339
2026-01-07 09:47:49.84	154.24	13.95	-41.2	-43.0	18.6	0.00e+00	0	38	0	0	54	4339
2026-01-07 09:47:50.84	154.22	14.05	-41.3	-43.2	18.5	0.00e+00	0	38	0	0	54	4409
2026-01-07 09:47:51.85	154.21	14.16	-41.3	-43.2	18.5	0.00e+00	0	38	0	0	54	4417
2026-01-07 09:47:52.85	154.19	14.26	-41.2	-43.1	18.6	0.00e+00	0	38	0	0	54	4352
2026-01-07 09:47:53.85	154.18	14.36	-41.2	-43.1	18.6	0.00e+00	0	38	0	0	54	4358
2026-01-07 09:47:54.86	154.16	14.47	-41.1	-43.0	18.7	0.00e+00	0	38	0	0	54	4322
2026-01-07 09:47:55.86	154.15	14.57	-41.2	-43.1	18.6	0.00e+00	0	38	0	0	54	4367
2026-01-07 09:47:56.86	154.13	14.68	-41.2	-43.1	18.6	0.00e+00	0	38	0	0	54	4390
2026-01-07 09:47:57.86	154.11	14.78	-41.2	-43.1	18.7	0.00e+00	0	38	0	0	54	4343
2026-01-07 09:47:58.87	154.10	14.89	-41.1	-43.0	18.7	0.00e+00	0	38	0	0	54	4312
2026-01-07 09:47:59.87	154.08	15.00	-41.2	-43.1	18.6	0.00e+00	0	38	0	0	54	4360
2026-01-07 09:48:00.87	154.07	15.11	-41.3	-43.2	18.5	0.00e+00	0	38	0	0	54	4409
2026-01-07 09:48:01.87	154.05	15.21	-41.4	-43.3	18.5	0.00e+00	0	39	0	0	54	4449
2026-01-07 09:48:02.88	154.03	15.32	-41.2	-43.0	18.7	0.00e+00	0	38	0	0	54	4339
2026-01-07 09:48:03.88	154.01	15.43	-41.4	-43.3	18.5	0.00e+00	0	39	0	0	54	4453
2026-01-07 09:48:04.88	154.00	15.54	-41.4	-43.3	18.5	0.00e+00	0	38	0	0	54	4464
2026-01-07 09:48:05.89	153.98	15.65	-41.3	-43.2	18.6	0.00e+00	0	38	0	0	54	4426
2026-01-07 09:48:06.89	153.96	15.76	-41.2	-43.1	18.7	0.00e+00	0	38	0	0	54	4352
2026-01-07 09:48:07.89	153.95	15.87	-41.3	-43.2	18.6	0.00e+00	0	39	0	0	54	4413
2026-01-07 09:48:08.89	153.93	15.98	-41.3	-43.2	18.5	0.00e+00	0	38	0	0	54	4434
2026-01-07 09:48:09.90	153.91	16.10	-41.4	-43.3	18.5	0.00e+00	0	39	0	0	54	4454
2026-01-07 09:48:10.90	153.89	16.21	-41.3	-43.2	18.5	0.00e+00	0	39	0	0	54	4423
2026-01-07 09:48:11.90	153.87	16.32	-41.3	-43.2	18.5	0.00e+00	0	38	0	0	54	4430
2026-01-07 09:48:12.91	153.86	16.44	-41.4	-43.4	18.4	0.00e+00	0	39	0	0	54	4495
2026-01-07 09:48:13.90	153.84	16.55	-41.3	-43.2	18.5	0.00e+00	0	38	0	0	54	4430
2026-01-07 09:48:14.91	153.82	16.66	-41.4	-43.3	18.5	0.00e+00	0	38	0	0	54	4443
2026-01-07 09:48:15.91	153.80	16.78	-41.3	-43.2	18.6	0.00e+00	0	39	0	0	54	4425
2026-01-07 09:48:16.92	153.78	16.89	-41.4	-43.3	18.5	0.00e+00	0	38	0	0	54	4478
2026-01-07 09:48:17.92	153.76	17.01	-41.5	-43.4	18.4	0.00e+00	0	39	0	0	54	4520
2026-01-07 09:48:18.92	153.74	17.13	-41.4	-43.3	18.5	0.00e+00	0	39	0	0	54	4491
2026-01-07 09:48:19.93	153.72	17.24	-41.5	-43.4	18.4	0.00e+00	0	39	0	0	54	4526
2026-01-07 09:48:20.93	153.70	17.36	-41.5	-43.4	18.4	0.00e+00	0	39	0	0	54	4537
2026-01-07 09:48:21.94	153.68	17.48	-41.5	-43.4	18.4	0.00e+00	0	38	0	0	54	4516
2026-01-07 09:48:22.94	153.66	17.60	-41.5	-43.4	18.4	0.00e+00	0	38	0	0	54	4534
2026-01-07 09:48:23.94	153.64	17.72	-41.5	-43.4	18.4	0.00e+00	0	38	0	0	54	4526
2026-01-07 09:48:24.95	153.62	17.84	-41.5	-43.5	18.4	0.00e+00	0	38	0	0	54	4549
2026-01-07 09:48:25.95	153.60	17.96	-41.5	-43.4	18.4	0.00e+00	0	39	0	0	54	4528
2026-01-07 09:48:26.95	153.58	18.08	-41.5	-43.4	18.4	0.00e+00	0	38	0	0	54	4531
2026-01-07 09:48:27.95	153.56	18.20	-41.6	-43.5	18.3	0.00e+00	0	39	0	0	54	4575
2026-01-07 09:48:28.96	153.54	18.33	-41.6	-43.6	18.3	0.00e+00	0	39	0	0	54	4604
2026-01-07 09:48:29.96	153.52	18.45	-41.5	-43.4	18.4	0.00e+00	0	39	0	0	54	4539
2026-01-07 09:48:30.96	153.50	18.57	-41.6	-43.5	18.3	0.00e+00	0	38	0	0	54	4593
2026-01-07 09:48:31.96	153.48	18.70	-41.6	-43.5	18.4	0.00e+00	0	38	0	0	54	4566
2026-01-07 09:48:32.97	153.46	18.82	-41.6	-43.6	18.3	0.00e+00	0	39	0	0	54	4599
2026-01-07 09:48:33.97	153.43	18.95	-41.6	-43.5	18.4	0.00e+00	0	39	0	0	54	4575
2026-01-07 09:48:34.97	153.41	19.07	-41.5	-43.4	18.5	0.00e+00	0	39	0	0	54	4510
2026-01-07 09:48:35.97	153.39	19.20	-41.6	-43.5	18.3	0.00e+00	0	39	0	0	54	4596
2026-01-07 09:48:36.97	153.37	19.33	-41.5	-43.4	18.4	0.00e+00	0	39	0	0	54	4530
2026-01-07 09:48:37.97	153.34	19.46	-41.5	-43.4	18.4	0.00e+00	0	39	0	0	54	4521
2026-01-07 09:48:38.97	153.32	19.58	-41.5	-43.4	18.4	0.00e+00	0	39	0	0	54	4535
2026-01-07 09:48:39.98	153.30	19.72	-41.4	-43.3	18.5	0.00e+00	0	39	0	0	54	4475
2026-01-07 09:48:40.98	153.27	19.85	-41.4	-43.2	18.6	0.00e+00	0	39	0	0	54	4437
2026-01-07 09:48:41.98	153.25	19.98	-41.4	-43.3	18.6	0.00e+00	0	39	0	0	54	4454
2026-01-07 09:48:42.99	153.23	20.11	-41.3	-43.2	18.7	0.00e+00	0	39	0	0	54	4414
2026-01-07 09:48:43.99	153.20	20.24	-41.3	-43.2	18.6	0.00e+00	0	38	0	0	54	4425
2026-01-07 09:48:45.00	153.18	20.37	-41.2	-43.0	18.8	0.00e+00	0	39	0	0	54	4327
2026-01-07 09:48:46.00	153.15	20.51	-41.1	-43.0	18.9	0.00e+00	0	39	0	0	54	4305
2026-01-07 09:48:47.00	153.13	20.64	-41.1	-42.9	18.9	0.00e+00	0	39	0	0	54	4281
2026-01-07 09:48:48.01	153.10	20.78	-41.0	-42.8	19.0	0.00e+00	0	39	0	0	54	4237
2026-01-07 09:48:49.01	153.08	20.91	-40.8	-42.6	19.2	0.00e+00	0	39	0	0	53	4360
2026-01-07 09:48:50.01	153.05	21.05	-40.8	-42.6	19.3	0.00e+00	0	38	0	0	53	4352
2026-01-07 09:48:51.01	153.03	21.19	-40.9	-42.7	19.2	0.00e+00	0	39	0	0	53	4394
2026-01-07 09:48:52.01	153.00	21.32	-40.7	-42.4	19.4	0.00e+00	0	39	0	0	53	4286
2026-01-07 09:48:53.02	152.97	21.46	-40.5	-42.2	19.6	0.00e+00	0	39	0	0	53	4182
2026-01-07 09:48:54.02	152.95	21.60	-40.5	-42.2	19.6	0.00e+00	0	39	0	0	53	4176
2026-01-07 09:48:55.02	152.92	21.74	-40.4	-42.2	19.6	0.00e+00	0	39	0	0	52	4399
2026-01-07 09:48:56.03	152.89	21.88	-40.4	-42.2	19.6	0.00e+00	0	39	0	0	52	4400
2026-01-07 09:48:57.03	152.86	22.03	-40.3	-42.0	19.8	0.00e+00	0	39	0	0	52	4307
2026-01-07 09:48:58.04	152.84	22.17	-40.1	-41.8	20.0	0.00e+00	0	39	0	0	52	4216
2026-01-07 09:48:59.04	152.81	22.31	-40.0	-41.7	20.0	0.00e+00	0	39	0	0	52	4168
2026-01-07 09:49:00.04	152.78	22.46	-40.1	-41.9	19.9	0.00e+00	0	39	0	0	52	4244
2026-01-07 09:49:01.05	152.75	22.60	-40.0	-41.7	20.1	0.00e+00	0	39	0	0	52	4153
2026-01-07 09:49:02.05	152.72	22.75	-40.0	-41.7	20.1	0.00e+00	0	39	0	0	51	4411
2026-01-07 09:49:03.05	152.69	22.89	-40.1	-41.8	20.1	0.00e+00	0	39	0	0	51	4456
2026-01-07 09:49:04.05	152.66	23.04	-40.0	-41.7	20.2	0.00e+00	0	39	0	0	51	4412
2026-01-07 09:49:05.06	152.63	23.19	-39.8	-41.5	20.3	0.00e+00	0	38	0	0	51	4325
2026-01-07 09:49:06.06	152.60	23.34	-39.9	-41.6	20.3	0.00e+00	0	39	0	0	51	4345
2026-01-07 09:49:07.07	152.57	23.49	-39.8	-41.5	20.3	0.00e+00	0	39	0	0	51	4309
2026-01-07 09:49:08.07	152.54	23.64	-39.9	-41.6	20.2	0.00e+00	0	39	0	0	51	4353
2026-01-07 09:49:09.07	152.51	23.79	-39.8	-41.5	20.3	0.00e+00	0	39	0	0	51	4330
2026-01-07 09:49:10.07	152.48	23.95	-39.8	-41.5	20.2	0.00e+00	0	39	0	0	51	4328
2026-01-07 09:49:11.08	152.45	24.10	-39.8	-41.5	20.3	0.00e+00	0	39	0	0	51	4317
2026-01-07 09:49:12.08	152.42	24.25	-39.9	-41.6	20.3	0.00e+00	0	39	0	0	51	4351
2026-01-07 09:49:13.08	152.38	24.41	-39.9	-41.6	20.2	0.00e+00	0	39	0	0	51	4369
2026-01-07 09:49:14.08	152.35	24.57	-40.0	-41.7	20.2	0.00e+00	0	39	0	0	51	4400
2026-01-07 09:49:15.09	152.32	24.72	-40.0	-41.7	20.2	0.00e+00	0	39	0	0	51	4392
2026-01-07 09:49:16.09	152.28	24.88	-40.1	-41.7	20.2	0.00e+00	0	38	0	0	51	4434
2026-01-07 09:49:17.09	152.25	25.04	-40.2	-41.9	20.1	0.00e+00	0	39	0	0	51	4504
2026-01-07 09:49:18.09	152.22	25.20	-40.3	-42.1	19.9	0.00e+00	0	39	0	0	51	4602
2026-01-07 09:49:19.09	152.18	25.36	-40.4	-42.1	19.9	0.00e+00	0	39	0	0	51	4612
2026-01-07 09:49:20.10	152.15	25.52	-40.4	-42.1	19.9	0.00e+00	0	39	0	0	51	4643
2026-01-07 09:49:21.10	152.11	25.69	-40.5	-42.2	19.8	0.00e+00	0	39	0	0	51	4682
2026-01-07 09:49:22.10	152.08	25.85	-40.5	-42.3	19.8	0.00e+00	0	39	0	0	51	4712
2026-01-07 09:49:23.11	152.04	26.02	-40.6	-42.4	19.6	0.00e+00	0	38	0	0	51	4784
2026-01-07 09:49:24.11	152.00	26.18	-40.6	-42.4	19.6	0.00e+00	0	39	0	0	52	4516
2026-01-07 09:49:25.11	151.97	26.35	-40.7	-42.5	19.5	0.00e+00	0	39	0	0	52	4575
2026-01-07 09:49:26.11	151.93	26.52	-40.8	-42.6	19.4	0.00e+00	0	39	0	0	52	4622
2026-01-07 09:49:27.11	151.89	26.68	-40.9	-42.7	19.2	0.00e+00	0	39	0	0	52	4698
2026-01-07 09:49:28.12	151.85	26.86	-40.9	-42.8	19.2	0.00e+00	0	39	0	0	52	4711
2026-01-07 09:49:29.12	151.81	27.03	-40.9	-42.8	19.2	0.00e+00	0	39	0	0	52	4729
2026-01-07 09:49:30.12	151.77	27.20	-41.0	-42.9	19.1	0.00e+00	0	39	0	0	52	4764
2026-01-07 09:49:31.13	151.73	27.37	-41.0	-42.9	19.1	0.00e+00	0	39	0	0	52	4767
2026-01-07 09:49:32.13	151.69	27.55	-41.1	-42.9	19.1	0.00e+00	0	39	0	0	52	4799
2026-01-07 09:49:33.13	151.65	27.72	-41.2	-43.0	18.9	0.00e+00	0	39	0	0	53	4595
2026-01-07 09:49:34.14	151.61	27.90	-41.2	-43.1	18.9	0.00e+00	0	39	0	0	53	4630
2026-01-07 09:49:35.14	151.57	28.08	-41.3	-43.2	18.8	0.00e+00	0	39	0	0	53	4670
2026-01-07 09:49:36.14	151.53	28.25	-41.4	-43.3	18.7	0.00e+00	0	39	0	0	53	4734
2026-01-07 09:49:37.15	151.49	28.44	-41.5	-43.3	18.6	0.00e+00	0	38	0	0	53	4757
2026-01-07 09:49:38.15	151.44	28.62	-41.4	-43.3	18.7	0.00e+00	0	39	0	0	53	4737
2026-01-07 09:49:39.15	151.40	28.80	-41.5	-43.4	18.6	0.00e+00	0	39	0	0	53	4766
2026-01-07 09:49:40.16	151.36	28.98	-41.4	-43.3	18.6	0.00e+00	0	39	0	0	53	4729
2026-01-07 09:49:41.16	151.31	29.17	-41.4	-43.3	18.6	0.00e+00	0	39	0	0	53	4732
2026-01-07 09:49:42.16	151.27	29.35	-41.4	-43.2	18.7	0.00e+00	0	39	0	0	53	4685
2026-01-07 09:49:43.16	151.22	29.54	-41.4	-43.2	18.7	0.00e+00	0	39	0	0	53	4692
2026-01-07 09:49:44.16	151.17	29.73	-41.3	-43.1	18.8	0.00e+00	0	39	0	0	53	4648
2026-01-07 09:49:45.16	151.13	29.92	-41.0	-42.8	19.0	0.00e+00	0	39	0	0	53	4493
2026-01-07 09:49:46.17	151.08	30.11	-40.8	-42.6	19.3	0.00e+00	0	39	0	0	53	4380
2026-01-07 09:49:47.17	151.03	30.30	-40.8	-42.5	19.3	0.00e+00	0	39	0	0	53	4337
2026-01-07 09:49:48.17	150.98	30.49	-40.6	-42.4	19.5	0.00e+00	0	39	0	0	53	4266
2026-01-07 09:49:49.18	150.93	30.69	-40.6	-42.4	19.5	0.00e+00	0	39	0	0	53	4271
2026-01-07 09:49:50.18	150.88	30.88	-40.7	-42.4	19.5	0.00e+00	0	39	0	0	53	4288
2026-01-07 09:49:51.18	150.83	31.08	-40.5	-42.3	19.7	0.00e+00	0	39	0	0	53	4204
2026-01-07 09:49:52.18	150.78	31.28	-40.5	-42.2	19.7	0.00e+00	0	39	0	0	53	4176
2026-01-07 09:49:53.19	150.73	31.48	-40.6	-42.3	19.6	0.00e+00	0	39	0	0	53	4227
2026-01-07 09:49:54.19	150.68	31.68	-40.6	-42.3	19.6	0.00e+00	0	39	0	0	53	4217
2026-01-07 09:49:55.19	150.62	31.88	-40.7	-42.4	19.5	0.00e+00	0	39	0	0	53	4284
2026-01-07 09:49:56.20	150.57	32.09	-40.6	-42.4	19.6	0.00e+00	0	39	0	0	53	4246
2026-01-07 09:49:57.20	150.51	32.29	-40.7	-42.5	19.5	0.00e+00	0	39	0	0	53	4301
2026-01-07 09:49:58.20	150.46	32.50	-40.7	-42.5	19.4	0.00e+00	0	39	0	0	53	4307
2026-01-07 09:49:59.21	150.40	32.71	-40.9	-42.6	19.3	0.00e+00	0	39	0	0	53	4388
2026-01-07 09:50:00.21	150.35	32.92	-40.8	-42.6	19.4	0.00e+00	0	39	0	0	53	4357
2026-01-07 09:50:01.21	150.29	33.13	-41.0	-42.8	19.2	0.00e+00	0	39	0	0	53	4478
2026-01-07 09:50:02.22	150.23	33.34	-41.0	-42.8	19.2	0.00e+00	0	39	0	0	53	4477
2026-01-07 09:50:03.22	150.17	33.55	-41.1	-42.9	19.0	0.00e+00	0	39	0	0	53	4545
2026-01-07 09:50:04.22	150.11	33.77	-41.2	-43.0	19.0	0.00e+00	0	39	0	0	53	4577
2026-01-07 09:50:05.22	150.05	33.98	-41.3	-43.2	18.8	0.00e+00	0	39	0	0	53	4669
2026-01-07 09:50:06.22	149.99	34.20	-41.5	-43.4	18.6	0.00e+00	0	39	0	0	53	4770
2026-01-07 09:50:07.23	149.92	34.42	-41.5	-43.3	18.7	0.00e+00	0	39	0	0	53	4744
2026-01-07 09:50:08.23	149.86	34.64	-41.6	-43.5	18.5	0.00e+00	0	39	0	0	53	4843
2026-01-07 09:50:09.23	149.80	34.86	-41.8	-43.7	18.4	0.00e+00	0	39	0	0	54	4676
2026-01-07 09:50:10.24	149.73	35.09	-41.9	-43.9	18.2	0.00e+00	0	39	0	0	54	4780
2026-01-07 09:50:11.24	149.66	35.32	-42.2	-44.2	17.9	0.00e+00	0	39	0	0	55	4660
2026-01-07 09:50:12.24	149.60	35.54	-42.2	-44.2	17.9	0.00e+00	0	39	0	0	55	4673
2026-01-07 09:50:13.25	149.53	35.77	-42.4	-44.4	17.7	0.00e+00	0	39	0	0	55	4783
2026-01-07 09:50:14.25	149.46	36.00	-42.5	-44.5	17.5	0.00e+00	0	39	0	0	55	4866
2026-01-07 09:50:15.25	149.39	36.23	-42.5	-44.5	17.6	0.00e+00	0	39	0	0	55	4868
2026-01-07 09:50:16.25	149.32	36.47	-42.6	-44.7	17.4	0.00e+00	0	39	0	0	55	4944
2026-01-07 09:50:17.25	149.24	36.70	-42.9	-45.0	17.3	0.00e+00	0	39	0	0	56	4860
2026-01-07 09:50:18.26	149.17	36.94	-43.0	-45.0	17.3	0.00e+00	0	39	0	0	56	4859
2026-01-07 09:50:19.26	149.10	37.18	-42.9	-45.0	17.3	0.00e+00	0	39	0	0	56	4834
2026-01-07 09:50:20.26	149.02	37.42	-42.8	-44.9	17.3	0.00e+00	0	39	0	0	56	4772
2026-01-07 09:50:21.27	148.94	37.66	-42.9	-44.9	17.3	0.00e+00	0	39	0	0	56	4791
2026-01-07 09:50:22.27	148.86	37.91	-42.8	-44.8	17.5	0.00e+00	0	39	0	0	56	4734
2026-01-07 09:50:23.27	148.78	38.15	-42.7	-44.7	17.6	0.00e+00	0	39	0	0	56	4659
2026-01-07 09:50:24.28	148.70	38.40	-42.6	-44.6	17.7	0.00e+00	0	39	0	0	56	4632
2026-01-07 09:50:25.28	148.62	38.65	-42.6	-44.5	17.7	0.00e+00	0	39	0	0	56	4575
2026-01-07 09:50:26.28	148.54	38.90	-42.5	-44.5	17.8	0.00e+00	0	39	0	0	56	4556
2026-01-07 09:50:27.29	148.45	39.15	-42.5	-44.4	17.8	0.00e+00	0	39	0	0	56	4543
2026-01-07 09:50:28.29	148.37	39.41	-42.5	-44.4	17.8	0.00e+00	0	39	0	0	56	4543
2026-01-07 09:50:29.29	148.28	39.66	-42.5	-44.5	17.7	0.00e+00	0	39	0	0	56	4561
2026-01-07 09:50:30.29	148.19	39.92	-42.6	-44.6	17.7	0.00e+00	0	39	0	0	56	4599
2026-01-07 09:50:31.30	148.10	40.18	-42.6	-44.7	17.6	0.00e+00	0	39	0	0	56	4654
2026-01-07 09:50:32.30	148.01	40.44	-42.7	-44.7	17.5	0.00e+00	0	39	0	0	56	4685
2026-01-07 09:50:33.30	147.92	40.70	-42.7	-44.7	17.6	0.00e+00	0	39	0	0	56	4654
2026-01-07 09:50:34.30	147.82	40.97	-42.8	-44.8	17.5	0.00e+00	0	39	0	0	56	4709
2026-01-07 09:50:35.31	147.72	41.24	-43.0	-45.1	17.2	0.00e+00	0	39	0	0	56	4876
2026-01-07 09:50:36.31	147.62	41.51	-43.0	-45.1	17.2	0.00e+00	0	39	0	0	56	4876
2026-01-07 09:50:37.31	147.53	41.78	-43.2	-45.3	17.0	0.00e+00	0	39	0	0	56	4988
2026-01-07 09:50:38.32	147.42	42.05	-43.3	-45.4	16.9	0.00e+00	0	39	0	0	57	4777
2026-01-07 09:50:39.32	147.32	42.32	-43.3	-45.5	16.8	0.00e+00	0	38	0	0	57	4815
2026-01-07 09:50:40.32	147.21	42.60	-43.4	-45.5	16.7	0.00e+00	0	39	0	0	57	4855
2026-01-07 09:50:41.33	147.11	42.88	-43.5	-45.7	16.6	0.00e+00	0	39	0	0	57	4950
2026-01-07 09:50:42.33	147.00	43.16	-43.6	-45.8	16.4	0.00e+00	0	39	0	0	57	5041
2026-01-07 09:50:43.33	146.89	43.44	-44.1	-46.4	15.9	0.00e+00	0	39	0	0	58	5048
2026-01-07 09:50:44.33	146.77	43.73	-44.1	-46.4	16.0	0.00e+00	0	39	0	0	58	5084
2026-01-07 09:50:45.34	146.66	44.01	-44.0	-46.4	16.0	0.00e+00	0	39	0	0	58	5042
2026-01-07 09:50:46.34	146.54	44.30	-44.0	-46.2	16.2	0.00e+00	0	39	0	0	58	4982
2026-01-07 09:50:47.34	146.42	44.59	-43.8	-46.1	16.3	0.00e+00	0	39	0	0	58	4876
2026-01-07 09:50:48.35	146.30	44.89	-43.8	-46.0	16.4	0.00e+00	0	39	0	0	58	4863
2026-01-07 09:50:49.35	146.17	45.18	-43.6	-45.8	16.6	0.00e+00	0	39	0	0	58	4729
2026-01-07 09:50:50.35	146.05	45.47	-43.7	-46.0	16.4	0.00e+00	0	39	0	0	58	4818
2026-01-07 09:50:51.35	145.92	45.77	-43.9	-46.1	16.2	0.00e+00	0	39	0	0	58	4902
2026-01-07 09:50:52.36	145.79	46.08	-43.7	-45.9	16.5	0.00e+00	0	39	0	0	58	4781
2026-01-07 09:50:53.36	145.65	46.38	-43.4	-45.5	16.7	0.00e+00	0	39	0	0	58	4590
2026-01-07 09:50:54.37	145.51	46.68	-43.2	-45.3	16.9	0.00e+00	0	39	0	0	58	4484
2026-01-07 09:50:55.37	145.37	46.99	-43.0	-45.0	17.2	0.00e+00	0	39	0	0	57	4568
2026-01-07 09:50:56.37	145.23	47.30	-42.9	-44.9	17.4	0.00e+00	0	39	0	0	57	4514
2026-01-07 09:50:57.37	145.09	47.61	-42.8	-44.7	17.6	0.00e+00	0	39	0	0	57	4438
2026-01-07 09:50:58.38	144.94	47.92	-42.8	-44.8	17.6	0.00e+00	0	39	0	0	57	4452
2026-01-07 09:50:59.38	144.79	48.24	-42.8	-44.8	17.5	0.00e+00	0	39	0	0	57	4470
2026-01-07 09:51:00.38	144.63	48.55	-42.7	-44.7	17.6	0.00e+00	0	39	0	0	57	4392
2026-01-07 09:51:01.38	144.48	48.87	-42.7	-44.7	17.6	0.00e+00	0	39	0	0	57	4411
2026-01-07 09:51:02.39	144.31	49.19	-42.8	-44.8	17.5	0.00e+00	0	39	0	0	57	4466
2026-01-07 09:51:03.39	144.15	49.52	-42.5	-44.5	17.7	0.00e+00	0	39	0	0	57	4323
2026-01-07 09:51:04.40	143.98	49.84	-42.4	-44.4	17.9	0.00e+00	0	39	0	0	56	4510
2026-01-07 09:51:05.40	143.81	50.17	-42.2	-44.0	18.2	0.00e+00	0	39	0	0	56	4340
2026-01-07 09:51:06.40	143.63	50.50	-42.2	-44.1	18.1	0.00e+00	0	39	0	0	56	4373
2026-01-07 09:51:07.40	143.45	50.83	-42.2	-44.1	18.1	0.00e+00	0	39	0	0	56	4365
2026-01-07 09:51:08.41	143.27	51.16	-42.4	-44.3	17.9	0.00e+00	0	39	0	0	56	4471
2026-01-07 09:51:09.41	143.08	51.50	-42.7	-44.7	17.6	0.00e+00	0	39	0	0	56	4655
2026-01-07 09:51:10.41	142.89	51.84	-42.7	-44.7	17.7	0.00e+00	0	39	0	0	56	4653
2026-01-07 09:51:11.42	142.69	52.18	-42.5	-44.5	17.7	0.00e+00	0	39	0	0	56	4583
2026-01-07 09:51:12.42	142.49	52.52	-42.5	-44.4	17.8	0.00e+00	0	39	0	0	56	4528
2026-01-07 09:51:13.42	142.28	52.86	-42.4	-44.3	17.9	0.00e+00	0	39	0	0	56	4473
2026-01-07 09:51:14.42	142.07	53.21	-42.1	-44.0	18.2	0.00e+00	0	39	0	0	56	4327
2026-01-07 09:51:15.43	141.85	53.56	-41.7	-43.5	18.6	0.00e+00	0	39	0	0	55	4326
2026-01-07 09:51:16.43	141.63	53.90	-41.5	-43.3	18.6	0.00e+00	0	39	0	0	55	4228
2026-01-07 09:51:17.43	141.40	54.25	-41.5	-43.3	18.6	0.00e+00	0	39	0	0	54	4488
2026-01-07 09:51:18.43	141.17	54.61	-41.4	-43.2	18.7	0.00e+00	0	39	0	0	54	4440
2026-01-07 09:51:19.44	140.93	54.96	-41.4	-43.3	18.7	0.00e+00	0	39	0	0	54	4445
2026-01-07 09:51:20.44	140.69	55.32	-41.4	-43.3	18.7	0.00e+00	0	39	0	0	54	4449
2026-01-07 09:51:21.45	140.43	55.68	-41.3	-43.1	19.0	0.00e+00	0	39	0	0	54	4357
2026-01-07 09:51:22.45	140.17	56.04	-41.0	-42.8	19.2	0.00e+00	0	39	0	0	54	4207
2026-01-07 09:51:23.45	139.91	56.40	-41.2	-43.0	19.1	0.00e+00	0	39	0	0	54	4301
2026-01-07 09:51:24.45	139.64	56.77	-40.6	-42.3	19.6	0.00e+00	0	39	0	0	53	4224
2026-01-07 09:51:25.46	139.36	57.14	-40.5	-42.2	19.7	0.00e+00	0	39	0	0	52	4404
2026-01-07 09:51:26.46	139.07	57.50	-40.5	-42.2	19.6	0.00e+00	0	39	0	0	52	4429
2026-01-07 09:51:27.46	138.78	57.87	-40.6	-42.3	19.6	0.00e+00	0	39	0	0	52	4466
2026-01-07 09:51:28.47	138.47	58.24	-40.4	-42.1	19.7	0.00e+00	0	39	0	0	52	4374
2026-01-07 09:51:29.47	138.16	58.62	-40.3	-42.1	19.8	0.00e+00	0	39	0	0	52	4341
2026-01-07 09:51:30.47	137.84	58.99	-40.3	-42.1	19.8	0.00e+00	0	39	0	0	52	4361
2026-01-07 09:51:31.47	137.51	59.36	-40.4	-42.1	19.8	0.00e+00	0	39	0	0	52	4369
2026-01-07 09:51:32.48	137.17	59.74	-40.1	-41.9	20.0	0.00e+00	0	39	0	0	52	4244
2026-01-07 09:51:33.48	136.82	60.12	-40.0	-41.7	20.1	0.00e+00	0	39	0	0	52	4171
2026-01-07 09:51:34.48	136.46	60.50	-40.4	-42.1	19.8	0.00e+00	0	39	0	0	52	4358
2026-01-07 09:51:35.49	136.08	60.88	-40.5	-42.2	19.8	0.00e+00	0	39	0	0	52	4414
2026-01-07 09:51:36.49	135.70	61.26	-40.5	-42.2	19.6	0.00e+00	0	39	0	0	52	4429
2026-01-07 09:51:37.49	135.30	61.64	-40.3	-42.0	19.8	0.00e+00	0	39	0	0	52	4316
2026-01-07 09:51:38.49	134.90	62.03	-40.0	-41.7	20.3	0.00e+00	0	39	0	0	52	4154
2026-01-07 09:51:39.50	134.47	62.41	-39.9	-41.5	20.5	0.00e+00	0	39	0	0	51	4321
2026-01-07 09:51:40.50	134.04	62.80	-39.6	-41.2	20.7	0.00e+00	0	39	0	0	51	4175
2026-01-07 09:51:41.50	133.59	63.18	-39.5	-41.1	20.8	0.00e+00	0	39	0	0	50	4351
2026-01-07 09:51:42.51	133.12	63.57	-39.4	-41.0	20.8	0.00e+00	0	39	0	0	50	4336
2026-01-07 09:51:43.51	132.64	63.96	-39.6	-41.3	20.5	0.00e+00	0	39	0	0	50	4465
2026-01-07 09:51:44.51	132.15	64.34	-39.6	-41.3	20.6	0.00e+00	0	39	0	0	50	4443
2026-01-07 09:51:45.52	131.63	64.73	-39.6	-41.3	20.5	0.00e+00	0	39	0	0	50	4442
2026-01-07 09:51:46.52	131.10	65.12	-39.8	-41.5	20.4	0.00e+00	0	39	0	0	50	4572
2026-01-07 09:51:47.52	130.55	65.51	-39.7	-41.4	20.6	0.00e+00	0	39	0	0	50	4503
2026-01-07 09:51:48.53	129.98	65.90	-40.0	-41.7	20.2	0.00e+00	0	39	0	0	50	4657
2026-01-07 09:51:49.53	129.39	66.28	-40.0	-41.7	20.2	0.00e+00	0	39	0	0	50	4688
2026-01-07 09:51:50.53	128.78	66.67	-40.0	-41.6	20.4	0.00e+00	0	39	0	0	50	4639
2026-01-07 09:51:51.54	128.14	67.06	-39.9	-41.6	20.4	0.00e+00	0	39	0	0	50	4625
2026-01-07 09:51:52.54	127.48	67.44	-40.1	-41.8	20.2	0.00e+00	0	39	0	0	50	4731
2026-01-07 09:51:53.54	126.80	67.82	-39.6	-41.3	20.7	0.00e+00	0	39	0	0	50	4453
2026-01-07 09:51:54.55	126.08	68.21	-39.4	-41.0	20.9	0.00e+00	0	39	0	0	50	4328
2026-01-07 09:51:55.55	125.35	68.59	-39.3	-40.9	21.0	0.00e+00	0	39	0	0	50	4282
2026-01-07 09:51:56.55	124.58	68.97	-39.1	-40.7	21.1	0.00e+00	0	39	0	0	50	4170
2026-01-07 09:51:57.56	123.78	69.35	-39.2	-40.8	21.0	0.00e+00	0	39	0	0	50	4220
2026-01-07 09:51:58.56	122.95	69.72	-39.4	-41.0	20.8	0.00e+00	0	39	0	0	50	4319
2026-01-07 09:51:59.56	122.09	70.09	-39.4	-41.0	20.9	0.00e+00	0	39	0	0	50	4295
2026-01-07 09:52:00.57	121.19	70.46	-39.2	-40.8	21.1	0.00e+00	0	39	0	0	50	4208
2026-01-07 09:52:01.57	120.26	70.82	-39.3	-40.9	20.9	0.00e+00	0	39	0	0	50	4243
2026-01-07 09:52:02.57	119.29	71.18	-39.5	-41.2	20.7	0.00e+00	0	39	0	0	50	4400
2026-01-07 09:52:03.58	118.26	71.54	-39.5	-41.2	20.6	0.00e+00	0	39	0	0	50	4396
2026-01-07 09:52:04.58	117.21	71.90	-39.8	-41.5	20.4	0.00e+00	0	39	0	0	50	4572
2026-01-07 09:52:05.58	116.11	72.24	-39.8	-41.4	20.5	0.00e+00	0	39	0	0	50	4525
2026-01-07 09:52:06.58	114.97	72.59	-39.6	-41.2	20.5	0.00e+00	0	39	0	0	50	4429
2026-01-07 09:52:07.58	113.78	72.92	-39.4	-41.0	20.8	0.00e+00	0	39	0	0	50	4334
2026-01-07 09:52:08.58	112.54	73.25	-39.6	-41.2	20.7	0.00e+00	0	38	0	0	50	4415
2026-01-07 09:52:09.59	111.23	73.58	-39.4	-41.0	20.9	0.00e+00	0	39	0	0	50	4294
2026-01-07 09:52:10.59	109.89	73.89	-38.9	-40.5	21.2	0.00e+00	0	39	0	0	49	4312
2026-01-07 09:52:11.60	108.47	74.20	-39.1	-40.7	21.1	0.00e+00	0	39	0	0	49	4412
2026-01-07 09:52:12.60	107.01	74.50	-39.2	-40.8	21.1	0.00e+00	0	39	0	0	49	4471
2026-01-07 09:52:13.60	105.49	74.79	-39.3	-40.9	20.9	0.00e+00	0	39	0	0	49	4541
2026-01-07 09:52:14.60	103.92	75.06	-39.2	-40.8	21.0	0.00e+00	0	39	0	0	49	4481
2026-01-07 09:52:15.60	102.28	75.33	-39.3	-40.9	20.9	0.00e+00	0	39	0	0	49	4516
2026-01-07 09:52:16.61	100.56	75.59	-39.5	-41.2	20.7	0.00e+00	0	39	0	0	49	4665
2026-01-07 09:52:17.61	98.79	75.83	-39.5	-41.1	20.8	0.00e+00	0	39	0	0	49	4638
2026-01-07 09:52:18.61	96.97	76.06	-39.2	-40.8	21.0	0.00e+00	0	39	0	0	49	4488
2026-01-07 09:52:19.62	95.06	76.28	-39.3	-40.9	21.0	0.00e+00	0	39	0	0	49	4521
2026-01-07 09:52:20.62	93.11	76.48	-39.6	-41.2	20.6	0.00e+00	0	39	0	0	49	4701
2026-01-07 09:52:21.62	91.10	76.67	-39.8	-41.5	20.5	0.00e+00	0	39	0	0	50	4547
2026-01-07 09:52:22.62	89.04	76.84	-39.7	-41.3	20.6	0.00e+00	0	39	0	0	50	4486
2026-01-07 09:52:23.63	86.90	77.00	-39.3	-40.9	20.8	0.00e+00	0	39	0	0	50	4280
2026-01-07 09:52:24.63	84.73	77.13	-39.5	-41.1	20.6	0.00e+00	0	39	0	0	50	4378
2026-01-07 09:52:25.63	82.52	77.25	-39.5	-41.1	20.7	0.00e+00	0	39	0	0	50	4374
2026-01-07 09:52:26.64	80.25	77.35	-39.8	-41.5	20.3	0.00e+00	0	39	0	0	50	4571
2026-01-07 09:52:27.64	77.97	77.43	-39.9	-41.6	20.2	0.00e+00	0	39	0	0	50	4620
2026-01-07 09:52:28.65	75.64	77.49	-39.8	-41.5	20.1	0.00e+00	0	39	0	0	50	4583
2026-01-07 09:52:29.65	73.31	77.53	-40.0	-41.7	20.0	0.00e+00	0	39	0	0	50	4692
2026-01-07 09:52:30.65	70.98	77.54	-40.1	-41.9	20.0	0.00e+00	0	39	0	0	51	4496
2026-01-07 09:52:31.66	68.61	77.54	-40.1	-41.7	20.1	0.00e+00	0	39	0	0	51	4441
2026-01-07 09:52:32.65	66.30	77.52	-39.9	-41.5	20.3	0.00e+00	0	39	0	0	51	4324
2026-01-07 09:52:33.65	63.97	77.48	-39.9	-41.6	20.3	0.00e+00	0	39	0	0	51	4373
2026-01-07 09:52:34.66	61.65	77.42	-39.7	-41.4	20.3	0.00e+00	0	39	0	0	51	4261
2026-01-07 09:52:35.66	59.37	77.34	-39.8	-41.5	20.4	0.00e+00	0	39	0	0	51	4307
2026-01-07 09:52:36.66	57.12	77.24	-39.8	-41.4	20.5	0.00e+00	0	39	0	0	51	4273
2026-01-07 09:52:37.67	54.90	77.11	-40.0	-41.7	20.2	0.00e+00	0	39	0	0	51	4426
2026-01-07 09:52:38.67	52.74	76.98	-39.6	-41.3	20.5	0.00e+00	0	39	0	0	51	4208
2026-01-07 09:52:39.67	50.63	76.82	-39.4	-41.1	20.6	0.00e+00	0	39	0	0	50	4348
2026-01-07 09:52:40.67	48.57	76.65	-39.7	-41.3	20.4	0.00e+00	0	39	0	0	50	4486
2026-01-07 09:52:41.67	46.57	76.46	-40.0	-41.7	20.1	0.00e+00	0	39	0	0	50	4675
2026-01-07 09:52:42.68	44.61	76.26	-40.1	-41.8	20.1	0.00e+00	0	39	0	0	50	4750
2026-01-07 09:52:43.68	42.73	76.04	-40.3	-42.0	20.0	0.00e+00	0	39	0	0	51	4567
2026-01-07 09:52:44.68	40.92	75.81	-40.3	-42.0	20.0	0.00e+00	0	39	0	0	51	4569
2026-01-07 09:52:45.69	39.14	75.56	-39.9	-41.6	20.4	0.00e+00	0	39	0	0	51	4360
2026-01-07 09:52:46.69	37.45	75.30	-39.6	-41.3	20.7	0.00e+00	0	39	0	0	51	4201
2026-01-07 09:52:47.69	35.82	75.03	-39.6	-41.2	20.7	0.00e+00	0	39	0	0	51	4182
2026-01-07 09:52:48.70	34.23	74.75	-39.7	-41.4	20.6	0.00e+00	0	39	0	0	51	4245
2026-01-07 09:52:49.70	32.72	74.46	-39.3	-40.9	21.0	0.00e+00	0	39	0	0	50	4248
2026-01-07 09:52:50.70	31.27	74.17	-39.1	-40.7	20.9	0.00e+00	0	39	0	0	50	4163
2026-01-07 09:52:51.71	29.86	73.86	-39.1	-40.7	20.6	0.00e+00	0	39	0	0	50	4171
2026-01-07 09:52:52.71	28.53	73.54	-39.1	-40.7	20.7	0.00e+00	0	39	0	0	50	4175
2026-01-07 09:52:53.71	27.24	73.22	-39.1	-40.7	20.9	0.00e+00	0	39	0	0	50	4185
2026-01-07 09:52:54.72	25.99	72.88	-39.7	-41.3	20.4	0.00e+00	0	39	0	0	50	4462
2026-01-07 09:52:55.72	24.81	72.55	-40.3	-42.0	19.8	0.00e+00	0	39	0	0	51	4547
2026-01-07 09:52:56.73	23.66	72.20	-40.5	-42.2	19.4	0.00e+00	0	39	0	0	51	4682
2026-01-07 09:52:57.73	22.57	71.86	-39.9	-41.5	20.1	0.00e+00	0	39	0	0	51	4325
2026-01-07 09:52:58.74	21.52	71.50	-39.4	-41.0	20.6	0.00e+00	0	39	0	0	50	4332
2026-01-07 09:52:59.74	20.51	71.15	-39.6	-41.3	20.5	0.00e+00	0	39	0	0	50	4448
2026-01-07 09:53:00.74	19.55	70.79	-39.7	-41.4	20.5	0.00e+00	0	39	0	0	50	4510
2026-01-07 09:53:01.74	18.62	70.42	-39.7	-41.3	20.6	0.00e+00	0	39	0	0	50	4459
2026-01-07 09:53:02.75	17.72	70.05	-39.9	-41.5	20.1	0.00e+00	0	39	0	0	50	4598
2026-01-07 09:53:03.75	16.87	69.68	-39.5	-41.1	20.3	0.00e+00	0	39	0	0	50	4380
2026-01-07 09:53:04.76	16.04	69.30	-38.9	-40.5	21.0	0.00e+00	0	39	0	0	49	4320
2026-01-07 09:53:05.76	15.25	68.93	-38.6	-40.1	21.6	0.00e+00	0	39	0	0	49	4124
2026-01-07 09:53:06.76	14.49	68.55	-39.0	-40.5	21.3	0.00e+00	0	39	0	0	49	4335
2026-01-07 09:53:07.76	13.76	68.17	-40.0	-41.7	20.3	0.00e+00	0	39	0	0	50	4678
2026-01-07 09:53:08.76	13.05	67.79	-41.0	-42.8	19.0	0.00e+00	0	39	0	0	52	4740
2026-01-07 09:53:09.77	12.37	67.41	-40.7	-42.4	19.0	0.00e+00	0	39	0	0	52	4530
2026-01-07 09:53:10.77	11.71	67.02	-40.0	-41.6	19.6	0.00e+00	0	39	0	0	51	4381
2026-01-07 09:53:11.77	11.09	66.64	-39.5	-41.1	20.2	0.00e+00	0	39	0	0	50	4368
2026-01-07 09:53:12.78	10.47	66.25	-39.5	-41.1	20.6	0.00e+00	0	39	0	0	50	4374
2026-01-07 09:53:13.78	9.89	65.87	-40.0	-41.7	20.3	0.00e+00	0	39	0	0	50	4673
2026-01-07 09:53:14.79	9.32	65.48	-41.1	-42.9	19.1	0.00e+00	0	39	0	0	52	4800
2026-01-07 09:53:15.79	8.77	65.09	-41.8	-43.8	18.4	0.00e+00	0	39	0	0	54	4716
2026-01-07 09:53:16.79	8.24	64.71	-40.8	-42.6	19.3	0.00e+00	0	39	0	0	53	4374
2026-01-07 09:53:17.80	7.73	64.32	-39.6	-41.2	20.5	0.00e+00	0	39	0	0	51	4191
2026-01-07 09:53:18.80	7.24	63.93	-39.4	-40.9	20.7	0.00e+00	0	39	0	0	50	4290
2026-01-07 09:53:19.81	6.75	63.54	-39.4	-40.9	20.7	0.00e+00	0	39	0	0	50	4287
2026-01-07 09:53:20.81	6.29	63.16	-40.3	-42.0	20.0	0.00e+00	0	39	0	0	51	4561
2026-01-07 09:53:21.81	5.85	62.78	-40.9	-42.7	19.3	0.00e+00	0	39	0	0	52	4661
2026-01-07 09:53:22.81	5.42	62.39	-41.4	-43.3	18.8	0.00e+00	0	39	0	0	53	4738
2026-01-07 09:53:23.82	4.99	62.01	-41.9	-43.9	18.3	0.00e+00	0	39	0	0	54	4785
2026-01-07 09:53:24.82	4.59	61.63	-41.1	-42.9	19.0	0.00e+00	0	39	0	0	54	4283
2026-01-07 09:53:25.82	4.20	61.25	-39.9	-41.6	20.0	0.00e+00	0	39	0	0	52	4122
2026-01-07 09:53:26.83	3.81	60.86	-39.8	-41.4	20.3	0.00e+00	0	39	0	0	51	4291
2026-01-07 09:53:27.83	3.44	60.48	-39.8	-41.4	20.4	0.00e+00	0	39	0	0	51	4280
2026-01-07 09:53:28.84	3.08	60.10	-40.3	-42.0	20.0	0.00e+00	0	38	0	0	51	4583
2026-01-07 09:53:29.84	2.73	59.73	-40.9	-42.7	19.2	0.00e+00	0	39	0	0	52	4666
2026-01-07 09:53:30.85	2.39	59.35	-41.9	-43.8	18.2	0.00e+00	0	39	0	0	54	4755
2026-01-07 09:53:31.85	2.06	58.98	-42.3	-44.4	17.5	0.00e+00	0	39	0	0	55	4790
2026-01-07 09:53:32.85	1.75	58.61	-42.4	-44.5	17.4	0.00e+00	0	39	0	0	55	4818
2026-01-07 09:53:33.85	1.44	58.24	-41.6	-43.6	18.2	0.00e+00	0	39	0	0	55	4354
2026-01-07 09:53:34.86	1.13	57.86	-40.6	-42.4	19.5	0.00e+00	0	39	0	0	53	4248
2026-01-07 09:53:35.86	0.84	57.50	-40.1	-41.8	20.2	0.00e+00	0	39	0	0	52	4200
2026-01-07 09:53:36.86	0.55	57.13	-40.1	-41.8	20.2	0.00e+00	0	39	0	0	52	4212
2026-01-07 09:53:37.87	0.27	56.76	-41.1	-42.8	19.2	0.00e+00	0	39	0	0	52	4759
2026-01-07 09:53:38.87	0.00	56.40	-42.4	-44.4	17.8	0.00e+00	0	39	0	0	55	4813
2026-01-07 09:53:39.87	359.74	56.04	-43.0	-45.2	17.1	0.00e+00	0	39	0	0	56	4932
2026-01-07 09:53:40.87	359.48	55.68	-42.9	-45.0	17.2	0.00e+00	0	39	0	0	56	4870
2026-01-07 09:53:41.87	359.23	55.33	-42.4	-44.4	17.8	0.00e+00	0	39	0	0	56	4509
2026-01-07 09:53:42.88	358.99	54.97	-41.5	-43.3	18.7	0.00e+00	0	39	0	0	55	4227
2026-01-07 09:53:43.88	358.75	54.62	-41.0	-42.7	19.2	0.00e+00	0	39	0	0	54	4178
2026-01-07 09:53:44.88	358.52	54.27	-40.6	-42.3	19.6	0.00e+00	0	39	0	0	53	4206
2026-01-07 09:53:45.89	358.29	53.91	-40.5	-42.2	19.6	0.00e+00	0	39	0	0	53	4160
2026-01-07 09:53:46.89	358.07	53.57	-40.9	-42.7	19.3	0.00e+00	0	39	0	0	53	4392
2026-01-07 09:53:47.89	357.86	53.22	-41.8	-43.6	18.5	0.00e+00	0	39	0	0	54	4639
2026-01-07 09:53:48.89	357.65	52.88	-43.2	-45.3	17.5	0.00e+00	0	39	0	0	56	4986
2026-01-07 09:53:49.90	357.44	52.53	-43.7	-45.9	16.4	0.00e+00	0	39	0	0	57	5095
2026-01-07 09:53:50.90	357.24	52.20	-43.5	-45.7	16.6	0.00e+00	0	39	0	0	57	4943
2026-01-07 09:53:51.91	357.04	51.85	-42.9	-45.0	17.2	0.00e+00	0	39	0	0	57	4568
2026-01-07 09:53:52.91	356.85	51.52	-42.6	-44.6	17.6	0.00e+00	0	39	0	0	57	4355
2026-01-07 09:53:53.91	356.66	51.19	-42.1	-44.0	18.2	0.00e+00	0	39	0	0	56	4292
2026-01-07 09:53:54.91	356.48	50.86	-42.0	-43.9	18.3	0.00e+00	0	39	0	0	56	4267
2026-01-07 09:53:55.92	356.30	50.52	-42.4	-44.3	17.9	0.00e+00	0	39	0	0	56	4477
2026-01-07 09:53:56.92	356.13	50.20	-42.8	-44.9	17.4	0.00e+00	0	39	0	0	56	4765
2026-01-07 09:53:57.92	355.96	49.87	-42.9	-44.9	17.4	0.00e+00	0	39	0	0	56	4773
2026-01-07 09:53:58.92	355.79	49.55	-43.0	-45.0	17.3	0.00e+00	0	39	0	0	56	4866
2026-01-07 09:53:59.93	355.62	49.22	-43.2	-45.3	17.1	0.00e+00	0	39	0	0	57	4744
2026-01-07 09:54:00.93	355.46	48.91	-43.4	-45.5	16.9	0.00e+00	0	39	0	0	57	4833
2026-01-07 09:54:01.93	355.31	48.59	-43.5	-45.7	16.7	0.00e+00	0	39	0	0	57	4946
2026-01-07 09:54:02.93	355.15	48.27	-43.5	-45.7	16.7	0.00e+00	0	39	0	0	57	4953
2026-01-07 09:54:03.94	355.00	47.96	-43.4	-45.5	16.9	0.00e+00	0	39	0	0	57	4850
2026-01-07 09:54:04.94	354.85	47.65	-43.0	-45.0	17.2	0.00e+00	0	39	0	0	57	4578
2026-01-07 09:54:05.94	354.71	47.34	-42.7	-44.8	17.5	0.00e+00	0	39	0	0	57	4446
2026-01-07 09:54:06.94	354.57	47.03	-42.7	-44.7	17.5	0.00e+00	0	39	0	0	57	4435
2026-01-07 09:54:07.95	354.43	46.73	-42.8	-44.8	17.5	0.00e+00	0	39	0	0	57	4451
2026-01-07 09:54:08.95	354.29	46.42	-43.0	-45.1	17.3	0.00e+00	0	39	0	0	57	4602
2026-01-07 09:54:09.96	354.16	46.12	-43.4	-45.5	16.9	0.00e+00	0	39	0	0	57	4861
2026-01-07 09:54:10.96	354.03	45.82	-43.6	-45.8	16.7	0.00e+00	0	39	0	0	57	5000
2026-01-07 09:54:11.96	353.90	45.53	-43.5	-45.6	16.8	0.00e+00	0	39	0	0	57	4892
2026-01-07 09:54:12.97	353.77	45.23	-43.2	-45.2	17.2	0.00e+00	0	39	0	0	57	4704
2026-01-07 09:54:13.97	353.65	44.94	-43.1	-45.2	17.2	0.00e+00	0	39	0	0	57	4670
2026-01-07 09:54:14.98	353.53	44.64	-43.4	-45.6	16.8	0.00e+00	0	39	0	0	57	4890
2026-01-07 09:54:15.98	353.41	44.36	-44.0	-46.4	16.0	0.00e+00	0	39	0	0	58	5064
2026-01-07 09:54:16.98	353.29	44.07	-44.4	-47.0	15.4	0.00e+00	0	39	0	0	59	5141
2026-01-07 09:54:17.99	353.18	43.78	-44.7	-47.4	15.1	0.00e+00	0	39	0	0	60	5071
2026-01-07 09:54:18.99	353.06	43.50	-45.0	-47.8	14.6	7.00e-07	0	39	0	0	60	5337
2026-01-07 09:54:19.99	352.95	43.22	-45.1	-48.0	14.5	0.00e+00	0	39	0	0	60	5417
2026-01-07 09:54:20.99	352.85	42.94	-44.6	-47.3	15.2	1.50e-06	0	39	0	0	60	4992
2026-01-07 09:54:22.00	352.74	42.66	-44.0	-46.3	16.0	0.00e+00	0	39	0	0	60	4491
2026-01-07 09:54:23.00	352.63	42.39	-43.6	-45.8	16.5	0.00e+00	0	39	0	0	59	4443
2026-01-07 09:54:24.00	352.53	42.12	-43.6	-45.8	16.6	0.00e+00	0	39	0	0	58	4713
2026-01-07 09:54:25.01	352.43	41.84	-43.4	-45.5	16.9	0.00e+00	0	39	0	0	58	4546
2026-01-07 09:54:26.01	352.33	41.57	-42.7	-44.7	17.6	0.00e+00	0	39	0	0	57	4410
2026-01-07 09:54:27.01	352.23	41.31	-42.5	-44.4	17.9	0.00e+00	0	39	0	0	56	4513
2026-01-07 09:54:28.02	352.14	41.04	-42.4	-44.3	18.0	0.00e+00	0	39	0	0	56	4469
2026-01-07 09:54:29.02	352.04	40.78	-42.7	-44.7	17.6	0.00e+00	0	39	0	0	56	4703
2026-01-07 09:54:30.02	351.95	40.51	-42.9	-45.0	17.3	0.00e+00	0	39	0	0	56	4841
2026-01-07 09:54:31.02	351.86	40.25	-43.2	-45.3	17.0	0.00e+00	0	39	0	0	57	4721
2026-01-07 09:54:32.02	351.77	40.00	-43.2	-45.3	17.0	0.00e+00	0	39	0	0	57	4729
2026-01-07 09:54:33.02	351.68	39.74	-43.1	-45.1	17.1	0.00e+00	0	39	0	0	57	4637
2026-01-07 09:54:34.02	351.59	39.49	-43.0	-45.1	17.1	0.00e+00	0	39	0	0	57	4610
2026-01-07 09:54:35.03	351.51	39.23	-43.0	-45.0	17.2	0.00e+00	0	39	0	0	57	4597
2026-01-07 09:54:36.03	351.42	38.98	-43.1	-45.2	17.1	0.00e+00	0	39	0	0	57	4654
2026-01-07 09:54:37.03	351.34	38.73	-43.1	-45.2	17.1	0.00e+00	0	39	0	0	57	4693
2026-01-07 09:54:38.04	351.26	38.48	-43.1	-45.2	17.1	0.00e+00	0	39	0	0	57	4695
2026-01-07 09:54:39.04	351.18	38.24	-42.9	-45.0	17.3	0.00e+00	0	39	0	0	57	4586
2026-01-07 09:54:40.04	351.10	37.99	-42.9	-45.0	17.3	0.00e+00	0	39	0	0	57	4577
2026-01-07 09:54:41.04	351.02	37.75	-42.9	-45.0	17.3	0.00e+00	0	39	0	0	57	4587
2026-01-07 09:54:42.05	350.95	37.51	-42.8	-44.9	17.5	0.00e+00	0	39	0	0	57	4504
2026-01-07 09:54:43.05	350.87	37.27	-42.7	-44.8	17.6	0.00e+00	0	39	0	0	57	4448
2026-01-07 09:54:44.05	350.80	37.03	-42.7	-44.8	17.6	0.00e+00	0	39	0	0	57	4444
2026-01-07 09:54:45.06	350.72	36.80	-42.7	-44.7	17.6	0.00e+00	0	39	0	0	57	4431
2026-01-07 09:54:46.06	350.65	36.56	-42.6	-44.7	17.6	0.00e+00	0	39	0	0	57	4404
2026-01-07 09:54:47.06	350.58	36.33	-42.4	-44.5	17.8	0.00e+00	0	39	0	0	56	4551
2026-01-07 09:54:48.06	350.51	36.10	-42.2	-44.1	18.1	0.00e+00	0	39	0	0	56	4376
2026-01-07 09:54:49.07	350.44	35.87	-42.0	-43.9	18.3	0.00e+00	0	39	0	0	56	4285
2026-01-07 09:54:50.07	350.37	35.64	-42.0	-44.0	18.3	0.00e+00	0	39	0	0	56	4302
2026-01-07 09:54:51.07	350.31	35.42	-42.1	-44.0	18.2	0.00e+00	0	39	0	0	56	4336
2026-01-07 09:54:52.07	350.24	35.19	-42.1	-44.0	18.2	0.00e+00	0	39	0	0	56	4326
2026-01-07 09:54:53.08	350.18	34.97	-41.7	-43.6	18.4	0.00e+00	0	39	0	0	55	4380
2026-01-07 09:54:54.08	350.11	34.75	-41.8	-43.7	18.4	0.00e+00	0	39	0	0	55	4414
2026-01-07 09:54:55.08	350.05	34.53	-41.7	-43.6	18.4	0.00e+00	0	39	0	0	55	4374
2026-01-07 09:54:56.09	349.99	34.31	-41.6	-43.5	18.6	0.00e+00	0	39	0	0	55	4315
2026-01-07 09:54:57.09	349.92	34.09	-41.4	-43.2	18.8	0.00e+00	0	39	0	0	54	4428
2026-01-07 09:54:58.09	349.86	33.87	-41.2	-43.0	18.9	0.00e+00	0	39	0	0	54	4319
2026-01-07 09:54:59.10	349.80	33.66	-41.1	-42.9	19.0	0.00e+00	0	39	0	0	54	4278
2026-01-07 09:55:00.10	349.75	33.45	-41.0	-42.8	19.0	0.00e+00	0	39	0	0	54	4241
2026-01-07 09:55:01.10	349.69	33.24	-41.0	-42.8	19.1	0.00e+00	0	39	0	0	54	4229
2026-01-07 09:55:02.11	349.63	33.02	-41.2	-43.0	18.9	0.00e+00	0	39	0	0	54	4307
2026-01-07 09:55:03.11	349.57	32.82	-41.2	-43.0	18.9	0.00e+00	0	39	0	0	54	4299
2026-01-07 09:55:04.12	349.52	32.61	-41.2	-43.1	18.9	0.00e+00	0	39	0	0	54	4353
2026-01-07 09:55:05.12	349.46	32.40	-41.4	-43.3	18.7	0.00e+00	0	39	0	0	54	4468
2026-01-07 09:55:06.13	349.41	32.20	-41.5	-43.4	18.6	0.00e+00	0	39	0	0	54	4521
2026-01-07 09:55:07.13	349.36	32.00	-41.5	-43.4	18.6	0.00e+00	0	39	0	0	54	4524
2026-01-07 09:55:08.14	349.30	31.79	-41.5	-43.4	18.6	0.00e+00	0	39	0	0	54	4525
2026-01-07 09:55:09.14	349.25	31.59	-41.4	-43.3	18.7	0.00e+00	0	39	0	0	54	4484
2026-01-07 09:55:10.14	349.20	31.39	-41.4	-43.3	18.8	0.00e+00	0	39	0	0	54	4443
2026-01-07 09:55:11.15	349.15	31.20	-41.5	-43.3	18.7	0.00e+00	0	39	0	0	54	4478
2026-01-07 09:55:12.15	349.10	31.00	-41.2	-43.0	18.9	0.00e+00	0	39	0	0	54	4335
2026-01-07 09:55:13.15	349.05	30.81	-41.2	-43.0	19.0	0.00e+00	0	39	0	0	54	4320
2026-01-07 09:55:14.16	349.00	30.61	-41.3	-43.1	18.9	0.00e+00	0	39	0	0	54	4363
2026-01-07 09:55:15.16	348.95	30.42	-41.3	-43.1	18.9	0.00e+00	0	39	0	0	54	4364
2026-01-07 09:55:16.16	348.90	30.23	-41.0	-42.8	19.1	0.00e+00	0	39	0	0	54	4236
2026-01-07 09:55:17.17	348.86	30.04	-41.0	-42.8	19.2	0.00e+00	0	39	0	0	53	4444
2026-01-07 09:55:18.17	348.81	29.85	-40.9	-42.7	19.2	0.00e+00	0	39	0	0	53	4434
2026-01-07 09:55:19.18	348.77	29.66	-41.0	-42.8	19.1	0.00e+00	0	39	0	0	53	4489
2026-01-07 09:55:20.18	348.72	29.47	-41.0	-42.8	19.1	0.00e+00	0	39	0	0	53	4476
2026-01-07 09:55:21.18	348.68	29.29	-41.1	-42.9	19.1	0.00e+00	0	39	0	0	53	4497
2026-01-07 09:55:22.19	348.63	29.10	-41.0	-42.8	19.1	0.00e+00	0	39	0	0	53	4486
2026-01-07 09:55:23.19	348.59	28.92	-41.0	-42.8	19.1	0.00e+00	0	39	0	0	53	4474
2026-01-07 09:55:24.20	348.54	28.74	-41.1	-42.9	19.0	0.00e+00	0	39	0	0	53	4508
2026-01-07 09:55:25.20	348.50	28.56	-41.1	-42.9	19.0	0.00e+00	0	39	0	0	53	4519
2026-01-07 09:55:26.21	348.46	28.38	-41.1	-42.9	19.0	0.00e+00	0	39	0	0	53	4520
2026-01-07 09:55:27.21	348.42	28.20	-40.9	-42.8	19.1	0.00e+00	0	39	0	0	53	4455
2026-01-07 09:55:28.21	348.38	28.02	-40.9	-42.8	19.1	0.00e+00	0	39	0	0	53	4455
2026-01-07 09:55:29.21	348.34	27.85	-41.0	-42.8	19.1	0.00e+00	0	39	0	0	53	4485
2026-01-07 09:55:30.22	348.30	27.67	-40.8	-42.6	19.2	0.00e+00	0	39	0	0	53	4376
2026-01-07 09:55:31.22	348.26	27.50	-40.7	-42.5	19.3	0.00e+00	0	39	0	0	53	4339
2026-01-07 09:55:32.22	348.22	27.33	-40.8	-42.6	19.3	0.00e+00	0	39	0	0	53	4348
2026-01-07 09:55:33.22	348.18	27.16	-40.7	-42.4	19.4	0.00e+00	0	39	0	0	53	4285
2026-01-07 09:55:34.23	348.14	26.99	-40.6	-42.3	19.5	0.00e+00	0	39	0	0	53	4232
2026-01-07 09:55:35.23	348.10	26.82	-40.5	-42.3	19.6	0.00e+00	0	39	0	0	53	4216
2026-01-07 09:55:36.23	348.07	26.65	-40.4	-42.2	19.6	0.00e+00	0	39	0	0	52	4409
2026-01-07 09:55:37.23	348.03	26.48	-40.4	-42.1	19.7	0.00e+00	0	39	0	0	52	4360
2026-01-07 09:55:38.24	347.99	26.31	-40.5	-42.3	19.6	0.00e+00	0	39	0	0	52	4447
2026-01-07 09:55:39.24	347.96	26.15	-40.3	-42.1	19.7	0.00e+00	0	39	0	0	52	4344
2026-01-07 09:55:40.25	347.92	25.98	-40.4	-42.1	19.7	0.00e+00	0	39	0	0	52	4384
2026-01-07 09:55:41.25	347.89	25.82	-40.3	-42.0	19.7	0.00e+00	0	38	0	0	52	4335
2026-01-07 09:55:42.25	347.85	25.66	-40.4	-42.1	19.7	0.00e+00	0	39	0	0	52	4379
2026-01-07 09:55:43.26	347.82	25.50	-40.4	-42.2	19.6	0.00e+00	0	39	0	0	52	4403
2026-01-07 09:55:44.26	347.78	25.34	-40.4	-42.2	19.6	0.00e+00	0	39	0	0	52	4397
2026-01-07 09:55:45.26	347.75	25.18	-40.5	-42.3	19.6	0.00e+00	0	39	0	0	52	4453
2026-01-07 09:55:46.27	347.72	25.02	-40.4	-42.2	19.6	0.00e+00	0	39	0	0	52	4411
2026-01-07 09:55:47.27	347.68	24.86	-40.5	-42.3	19.5	0.00e+00	0	39	0	0	52	4473
2026-01-07 09:55:48.27	347.65	24.71	-40.6	-42.3	19.4	0.00e+00	0	39	0	0	52	4484
2026-01-07 09:55:49.27	347.62	24.55	-40.6	-42.4	19.4	0.00e+00	0	39	0	0	52	4509
2026-01-07 09:55:50.28	347.59	24.39	-40.6	-42.3	19.4	0.00e+00	0	39	0	0	52	4481
2026-01-07 09:55:51.28	347.56	24.24	-40.6	-42.4	19.4	0.00e+00	0	39	0	0	52	4515
2026-01-07 09:55:52.28	347.53	24.09	-40.7	-42.5	19.2	0.00e+00	0	39	0	0	52	4593
2026-01-07 09:55:53.29	347.50	23.94	-40.7	-42.5	19.3	0.00e+00	0	39	0	0	52	4574
2026-01-07 09:55:54.29	347.46	23.78	-40.7	-42.5	19.2	0.00e+00	0	39	0	0	52	4585
2026-01-07 09:55:55.29	347.43	23.63	-40.7	-42.6	19.2	0.00e+00	0	39	0	0	52	4637
2026-01-07 09:55:56.29	347.41	23.49	-40.7	-42.6	19.2	0.00e+00	0	39	0	0	52	4606
2026-01-07 09:55:57.30	347.38	23.34	-40.8	-42.7	19.1	0.00e+00	0	39	0	0	52	4674
2026-01-07 09:55:58.30	347.35	23.19	-40.7	-42.5	19.2	0.00e+00	0	38	0	0	52	4595
2026-01-07 09:55:59.31	347.32	23.04	-40.6	-42.4	19.4	0.00e+00	0	39	0	0	52	4537
2026-01-07 09:56:00.31	347.29	22.89	-40.6	-42.4	19.4	0.00e+00	0	39	0	0	52	4525
2026-01-07 09:56:01.31	347.26	22.75	-40.7	-42.5	19.3	0.00e+00	0	39	0	0	52	4584
2026-01-07 09:56:02.32	347.23	22.60	-40.8	-42.5	19.3	0.00e+00	0	39	0	0	52	4598
2026-01-07 09:56:03.32	347.21	22.46	-40.6	-42.4	19.4	0.00e+00	0	39	0	0	52	4521
2026-01-07 09:56:04.32	347.18	22.32	-40.6	-42.4	19.4	0.00e+00	0	39	0	0	52	4522
2026-01-07 09:56:05.33	347.15	22.18	-40.6	-42.4	19.4	0.00e+00	0	39	0	0	52	4511
2026-01-07 09:56:06.33	347.12	22.03	-40.4	-42.1	19.7	0.00e+00	0	39	0	0	52	4367
2026-01-07 09:56:07.34	347.10	21.89	-40.4	-42.1	19.7	0.00e+00	0	39	0	0	52	4387
2026-01-07 09:56:08.34	347.07	21.75	-40.3	-42.0	19.8	0.00e+00	0	39	0	0	52	4332
2026-01-07 09:56:09.34	347.05	21.62	-40.3	-42.1	19.7	0.00e+00	0	39	0	0	52	4360
2026-01-07 09:56:10.35	347.02	21.48	-40.2	-42.0	19.8	0.00e+00	0	39	0	0	52	4337
2026-01-07 09:56:11.35	346.99	21.34	-40.1	-41.9	19.9	0.00e+00	0	39	0	0	52	4269
2026-01-07 09:56:12.36	346.97	21.20	-40.3	-42.1	19.7	0.00e+00	0	39	0	0	52	4356
2026-01-07 09:56:13.36	346.94	21.07	-40.2	-42.0	19.8	0.00e+00	0	39	0	0	52	4305
2026-01-07 09:56:14.36	346.92	20.93	-40.2	-42.0	19.8	0.00e+00	0	39	0	0	52	4315
2026-01-07 09:56:15.37	346.89	20.79	-40.3	-42.0	19.8	0.00e+00	0	39	0	0	52	4325
2026-01-07 09:56:16.37	346.87	20.66	-40.3	-42.0	19.8	0.00e+00	0	39	0	0	52	4333
2026-01-07 09:56:17.37	346.85	20.53	-40.3	-42.1	19.7	0.00e+00	0	39	0	0	52	4343
2026-01-07 09:56:18.37	346.82	20.40	-40.4	-42.1	19.7	0.00e+00	0	39	0	0	52	4380
2026-01-07 09:56:19.38	346.80	20.26	-40.4	-42.2	19.6	0.00e+00	0	39	0	0	52	4402
2026-01-07 09:56:20.38	346.78	20.13	-40.5	-42.2	19.5	0.00e+00	0	39	0	0	52	4439
2026-01-07 09:56:21.38	346.75	20.00	-40.6	-42.3	19.4	0.00e+00	0	39	0	0	52	4492
2026-01-07 09:56:22.38	346.73	19.87	-40.6	-42.4	19.5	0.00e+00	0	39	0	0	52	4497
2026-01-07 09:56:23.39	346.71	19.74	-40.7	-42.5	19.4	0.00e+00	0	39	0	0	52	4551
2026-01-07 09:56:24.39	346.69	19.62	-40.6	-42.4	19.4	0.00e+00	0	39	0	0	52	4507
2026-01-07 09:56:25.39	346.66	19.49	-40.6	-42.5	19.3	0.00e+00	0	39	0	0	52	4562
2026-01-07 09:56:26.39	346.64	19.36	-40.7	-42.6	19.2	0.00e+00	0	39	0	0	52	4623
2026-01-07 09:56:27.39	346.62	19.24	-40.7	-42.6	19.3	0.00e+00	0	39	0	0	52	4604
2026-01-07 09:56:28.39	346.60	19.11	-40.7	-42.6	19.2	0.00e+00	0	39	0	0	52	4638
2026-01-07 09:56:29.40	346.58	18.98	-40.7	-42.6	19.2	0.00e+00	0	39	0	0	52	4630
2026-01-07 09:56:30.40	346.56	18.86	-40.8	-42.7	19.1	0.00e+00	0	39	0	0	52	4674
2026-01-07 09:56:31.41	346.54	18.74	-40.9	-42.8	19.0	0.00e+00	0	38	0	0	52	4733
2026-01-07 09:56:32.41	346.52	18.61	-40.9	-42.8	19.0	0.00e+00	0	39	0	0	52	4724
2026-01-07 09:56:33.41	346.49	18.49	-41.0	-42.8	19.0	0.00e+00	0	39	0	0	52	4746
2026-01-07 09:56:34.42	346.47	18.37	-41.0	-42.8	19.0	0.00e+00	0	39	0	0	52	4738
2026-01-07 09:56:35.42	346.45	18.25	-41.0	-42.9	18.9	0.00e+00	0	39	0	0	52	4784
2026-01-07 09:56:36.42	346.43	18.13	-41.1	-43.0	18.9	0.00e+00	0	39	0	0	52	4825
2026-01-07 09:56:37.42	346.41	18.01	-41.1	-43.1	18.8	0.00e+00	0	39	0	0	52	4873
2026-01-07 09:56:38.43	346.40	17.88	-41.1	-43.1	18.8	0.00e+00	0	39	0	0	52	4883
2026-01-07 09:56:39.43	346.38	17.77	-41.1	-43.2	18.7	0.00e+00	0	39	0	0	53	4658
2026-01-07 09:56:40.43	346.36	17.65	-41.2	-43.3	18.5	0.00e+00	0	38	0	0	53	4738
2026-01-07 09:56:41.44	346.34	17.53	-41.2	-43.3	18.5	0.00e+00	0	39	0	0	53	4755
2026-01-07 09:56:42.44	346.32	17.41	-41.2	-43.3	18.5	0.00e+00	0	39	0	0	53	4759
2026-01-07 09:56:43.44	346.30	17.29	-41.2	-43.4	18.5	0.00e+00	0	39	0	0	53	4776
2026-01-07 09:56:44.45	346.28	17.18	-41.1	-43.4	18.5	0.00e+00	0	39	0	0	53	4772
2026-01-07 09:56:45.45	346.26	17.06	-41.3	-43.5	18.3	0.00e+00	0	39	0	0	53	4865
2026-01-07 09:56:46.45	346.25	16.95	-41.3	-43.5	18.4	0.00e+00	0	39	0	0	53	4828
2026-01-07 09:56:47.46	346.23	16.83	-41.2	-43.4	18.4	0.00e+00	0	39	0	0	53	4800
2026-01-07 09:56:48.46	346.21	16.72	-41.4	-43.5	18.4	0.00e+00	0	39	0	0	53	4837
2026-01-07 09:56:49.46	346.19	16.60	-41.4	-43.5	18.4	0.00e+00	0	39	0	0	53	4833
2026-01-07 09:56:50.46	346.18	16.49	-41.5	-43.5	18.4	0.00e+00	0	39	0	0	53	4824
2026-01-07 09:56:51.47	346.16	16.38	-41.5	-43.5	18.4	0.00e+00	0	39	0	0	53	4846
2026-01-07 09:56:52.47	346.14	16.27	-41.5	-43.5	18.4	0.00e+00	0	39	0	0	53	4847
2026-01-07 09:56:53.48	346.12	16.15	-41.6	-43.6	18.3	0.00e+00	0	39	0	0	53	4876
2026-01-07 09:56:54.48	346.11	16.04	-41.4	-43.4	18.4	0.00e+00	0	39	0	0	53	4800
2026-01-07 09:56:55.48	346.09	15.93	-41.5	-43.5	18.4	0.00e+00	0	39	0	0	53	4824
2026-01-07 09:56:56.49	346.07	15.82	-41.5	-43.5	18.4	0.00e+00	0	39	0	0	53	4830
2026-01-07 09:56:57.49	346.06	15.71	-41.5	-43.5	18.3	0.00e+00	0	39	0	0	53	4857
2026-01-07 09:56:58.49	346.04	15.60	-41.4	-43.5	18.3	0.00e+00	0	39	0	0	53	4860
2026-01-07 09:56:59.49	346.03	15.50	-41.4	-43.5	18.4	0.00e+00	0	39	0	0	53	4825
2026-01-07 09:57:00.49	346.01	15.39	-41.4	-43.6	18.3	0.00e+00	0	39	0	0	53	4885
2026-01-07 09:57:01.50	345.99	15.28	-41.4	-43.6	18.3	0.00e+00	0	39	0	0	53	4880
2026-01-07 09:57:02.50	345.98	15.17	-41.5	-43.7	18.2	0.00e+00	0	39	0	0	53	4927
2026-01-07 09:57:03.51	345.96	15.07	-41.4	-43.5	18.3	0.00e+00	0	39	0	0	53	4856
2026-01-07 09:57:04.51	345.95	14.96	-41.5	-43.6	18.2	0.00e+00	0	39	0	0	53	4913
2026-01-07 09:57:05.52	345.93	14.85	-41.5	-43.7	18.2	0.00e+00	0	39	0	0	53	4959
2026-01-07 09:57:06.52	345.92	14.75	-41.6	-43.7	18.1	0.00e+00	0	39	0	0	53	4961
2026-01-07 09:57:07.52	345.90	14.64	-41.6	-43.7	18.1	0.00e+00	0	39	0	0	53	4950
2026-01-07 09:57:08.53	345.89	14.54	-41.7	-43.8	18.0	0.00e+00	0	39	0	0	54	4744
2026-01-07 09:57:09.53	345.87	14.43	-41.7	-43.8	18.0	0.00e+00	0	39	0	0	54	4745
2026-01-07 09:57:10.53	345.86	14.33	-41.9	-44.0	17.9	0.00e+00	0	39	0	0	54	4818
2026-01-07 09:57:11.54	345.84	14.23	-41.8	-43.8	18.1	0.00e+00	0	39	0	0	54	4727
2026-01-07 09:57:12.54	345.83	14.13	-41.9	-43.9	18.0	0.00e+00	0	39	0	0	54	4784
2026-01-07 09:57:13.55	345.82	14.02	-41.9	-43.9	17.9	0.00e+00	0	39	0	0	54	4807
2026-01-07 09:57:14.55	345.80	13.92	-41.9	-43.9	17.9	0.00e+00	0	39	0	0	54	4807
2026-01-07 09:57:15.55	345.79	13.82	-41.8	-43.9	18.0	0.00e+00	0	39	0	0	54	4767
2026-01-07 09:57:16.56	345.77	13.72	-41.9	-43.9	17.9	0.00e+00	0	39	0	0	54	4809
2026-01-07 09:57:17.56	345.76	13.62	-41.9	-44.0	17.9	0.00e+00	0	39	0	0	54	4839
2026-01-07 09:57:18.56	345.75	13.52	-41.9	-44.0	17.9	0.00e+00	0	39	0	0	54	4818
2026-01-07 09:57:19.56	345.73	13.42	-41.8	-43.9	17.9	0.00e+00	0	39	0	0	54	4811
2026-01-07 09:57:20.57	345.72	13.32	-41.8	-44.0	17.9	0.00e+00	0	39	0	0	54	4827
2026-01-07 09:57:21.57	345.71	13.22	-41.8	-44.0	17.8	0.00e+00	0	39	0	0	54	4864
2026-01-07 09:57:22.57	345.69	13.12	-41.8	-44.0	17.9	0.00e+00	0	39	0	0	54	4846
2026-01-07 09:57:23.58	345.68	13.02	-41.8	-44.1	17.8	0.00e+00	0	39	0	0	54	4894
2026-01-07 09:57:24.58	345.67	12.93	-41.9	-44.2	17.7	0.00e+00	0	39	0	0	54	4945
2026-01-07 09:57:25.58	345.66	12.83	-41.8	-44.1	17.8	0.00e+00	0	39	0	0	54	4874
2026-01-07 09:57:26.58	345.64	12.73	-41.9	-44.1	17.8	0.00e+00	0	39	0	0	54	4918
2026-01-07 09:57:27.58	345.63	12.64	-42.0	-44.2	17.7	0.00e+00	0	39	0	0	54	4970
2026-01-07 09:57:28.59	345.62	12.54	-41.9	-44.1	17.8	0.00e+00	0	39	0	0	54	4908
2026-01-07 09:57:29.59	345.61	12.44	-41.9	-44.1	17.8	0.00e+00	0	39	0	0	54	4872
2026-01-07 09:57:30.59	345.59	12.35	-41.9	-44.0	17.8	0.00e+00	0	39	0	0	54	4857
2026-01-07 09:57:31.60	345.58	12.25	-41.9	-44.1	17.8	0.00e+00	0	39	0	0	54	4880
2026-01-07 09:57:32.60	345.57	12.16	-41.9	-44.1	17.8	0.00e+00	0	39	0	0	54	4872
2026-01-07 09:57:33.61	345.56	12.06	-42.0	-44.1	17.8	0.00e+00	0	39	0	0	54	4886
2026-01-07 09:57:34.61	345.55	11.97	-42.0	-44.1	17.7	0.00e+00	0	39	0	0	54	4912
2026-01-07 09:57:35.61	345.53	11.88	-42.0	-44.2	17.7	0.00e+00	0	39	0	0	54	4941
2026-01-07 09:57:36.62	345.52	11.78	-41.9	-44.1	17.8	0.00e+00	0	39	0	0	54	4884
2026-01-07 09:57:37.62	345.51	11.69	-41.9	-44.2	17.6	0.00e+00	0	39	0	0	54	4979
2026-01-07 09:57:38.62	345.50	11.60	-41.9	-44.3	17.6	0.00e+00	0	39	0	0	54	4988
2026-01-07 09:57:39.63	345.49	11.50	-41.8	-44.3	17.6	0.00e+00	0	39	0	0	54	5001
2026-01-07 09:57:40.63	345.48	11.41	-41.7	-44.3	17.6	0.00e+00	0	39	0	0	54	5009
2026-01-07 09:57:41.63	345.47	11.32	-41.8	-44.4	17.5	0.00e+00	0	39	0	0	54	5058
2026-01-07 09:57:42.63	345.45	11.23	-41.7	-44.4	17.5	0.00e+00	0	39	0	0	54	5050
2026-01-07 09:57:43.64	345.44	11.14	-41.6	-44.3	17.6	0.00e+00	0	39	0	0	54	4989
2026-01-07 09:57:44.64	345.43	11.05	-41.8	-44.5	17.4	0.00e+00	0	39	0	0	54	5103
2026-01-07 09:57:45.64	345.42	10.96	-41.8	-44.5	17.4	0.00e+00	0	39	0	0	54	5146
2026-01-07 09:57:46.64	345.41	10.87	-41.8	-44.5	17.4	0.00e+00	0	39	0	0	54	5131
2026-01-07 09:57:47.65	345.40	10.78	-41.8	-44.5	17.4	0.00e+00	0	39	0	0	54	5141
2026-01-07 09:57:48.65	345.39	10.69	-41.9	-44.6	17.3	0.00e+00	0	39	0	0	54	5175
2026-01-07 09:57:49.65	345.38	10.60	-41.9	-44.6	17.3	0.00e+00	0	39	0	0	54	5198
2026-01-07 09:57:50.66	345.37	10.51	-42.0	-44.7	17.2	0.00e+00	0	39	0	0	54	5268
2026-01-07 09:57:51.66	345.36	10.42	-42.0	-44.7	17.2	0.00e+00	0	39	0	0	54	5224
2026-01-07 09:57:52.67	345.35	10.34	-42.1	-44.8	17.1	0.00e+00	0	39	0	0	54	5299
2026-01-07 09:57:53.67	345.34	10.25	-42.2	-44.9	17.0	0.00e+00	0	39	0	0	55	5071
2026-01-07 09:57:54.67	345.33	10.16	-42.2	-44.8	17.0	0.00e+00	0	39	0	0	55	5032
2026-01-07 09:57:55.68	345.32	10.07	-42.2	-44.8	17.0	0.00e+00	0	39	0	0	55	5026
2026-01-07 09:57:56.68	345.31	9.99	-42.3	-45.0	16.8	0.00e+00	0	39	0	0	55	5148
2026-01-07 09:57:57.68	345.30	9.90	-42.3	-45.0	16.9	0.00e+00	0	39	0	0	55	5130
2026-01-07 09:57:58.69	345.29	9.81	-42.3	-45.1	16.8	0.00e+00	0	39	0	0	55	5187
2026-01-07 09:57:59.69	345.28	9.73	-42.2	-45.1	16.7	0.00e+00	0	38	0	0	55	5215
2026-01-07 09:58:00.70	345.27	9.64	-42.2	-45.2	16.7	0.00e+00	0	39	0	0	55	5243
2026-01-07 09:58:01.70	345.26	9.56	-42.1	-45.2	16.6	0.00e+00	0	39	0	0	55	5271
2026-01-07 09:58:02.71	345.25	9.47	-42.1	-45.4	16.5	0.00e+00	0	39	0	0	55	5343
2026-01-07 09:58:03.71	345.24	9.39	-42.0	-45.2	16.6	0.00e+00	0	39	0	0	55	5269
2026-01-07 09:58:04.71	345.24	9.30	-41.9	-45.2	16.6	0.00e+00	0	39	0	0	55	5250
2026-01-07 09:58:05.72	345.23	9.22	-41.9	-45.2	16.7	0.00e+00	0	39	0	0	55	5225
2026-01-07 09:58:06.72	345.22	9.14	-42.0	-45.4	16.5	0.00e+00	0	39	0	0	55	5351
2026-01-07 09:58:07.72	345.21	9.05	-41.9	-45.2	16.6	0.00e+00	0	39	0	0	55	5235
2026-01-07 09:58:08.73	345.20	8.97	-44.1	-48.7	13.6	0.00e+00	0	39	0	0	58	6622
2026-01-07 09:58:09.73	345.19	8.89	-48.5	-63.5	3.8	1.49e+00	0	39	104	0	68	20399
2026-01-07 09:58:10.74	345.18	8.80	-49.2	-63.7	3.8	1.49e+00	0	39	104	0	69	19667
2026-01-07 09:58:11.74	345.17	8.72	-50.3	-63.7	3.8	1.49e+00	0	39	104	0	71	17601
2026-01-07 09:58:12.75	345.16	8.64	-50.2	-63.8	3.8	1.49e+00	0	39	104	0	71	17847
2026-01-07 09:58:13.75	345.16	8.56	-50.3	-64.0	3.8	1.49e+00	0	39	104	0	71	18122
2026-01-07 09:58:14.76	345.15	8.47	-50.5	-63.9	3.8	1.49e+00	0	39	104	0	72	17047
2026-01-07 09:58:15.76	345.14	8.39	-50.7	-64.0	3.8	1.49e+00	0	39	104	0	72	17175
2026-01-07 09:58:16.76	345.13	8.31	-50.7	-64.0	3.8	1.49e+00	0	39	104	0	72	17230
2026-01-07 09:58:17.77	345.12	8.23	-50.6	-64.0	3.8	1.49e+00	0	39	104	0	72	17203
2026-01-07 09:58:18.77	345.12	8.15	-50.9	-64.0	3.8	1.49e+00	0	39	104	0	72	17274
2026-01-07 09:58:19.78	345.11	8.07	-50.7	-64.1	3.8	1.49e+00	0	39	104	0	72	17297
2026-01-07 09:58:20.78	345.10	7.99	-50.9	-64.1	3.8	1.49e+00	0	39	104	0	72	17317
2026-01-07 09:58:21.79	345.09	7.91	-51.1	-64.1	3.8	1.49e+00	0	39	104	0	72	17331
2026-01-07 09:58:22.79	345.08	7.83	-51.0	-64.1	3.8	1.49e+00	0	39	104	0	72	17320
2026-01-07 09:58:23.80	345.08	7.75	-51.0	-64.1	3.8	1.49e+00	0	39	104	0	72	17358
2026-01-07 09:58:24.80	345.07	7.67	-51.0	-64.1	3.8	1.49e+00	0	39	104	0	72	17339
2026-01-07 09:58:25.80	345.06	7.59	-51.1	-64.1	3.8	1.49e+00	0	39	104	0	72	17350
2026-01-07 09:58:26.81	345.05	7.51	-51.0	-64.1	3.8	1.49e+00	0	39	104	0	72	17320
2026-01-07 09:58:27.81	345.05	7.44	-51.1	-64.1	3.8	1.49e+00	0	39	104	0	72	17325
2026-01-07 09:58:28.81	345.04	7.36	-51.0	-64.1	3.8	1.49e+00	0	39	104	0	72	17289
2026-01-07 09:58:29.82	345.03	7.28	-51.1	-64.1	3.8	1.49e+00	0	39	104	0	72	17316
2026-01-07 09:58:30.82	345.02	7.20	-51.1	-64.1	3.8	1.49e+00	0	39	104	0	72	17293
2026-01-07 09:58:31.83	345.02	7.12	-51.0	-64.0	3.8	1.49e+00	0	39	104	0	72	17268
2026-01-07 09:58:32.83	345.01	7.05	-51.0	-64.1	3.8	1.49e+00	0	39	104	0	72	17330
2026-01-07 09:58:33.84	345.00	6.97	-50.9	-64.1	3.8	1.49e+00	0	39	104	0	72	17285
2026-01-07 09:58:34.84	344.99	6.89	-50.8	-64.0	3.8	1.49e+00	0	39	104	0	72	17234
2026-01-07 09:58:35.85	344.99	6.82	-50.9	-64.1	3.8	1.49e+00	0	39	104	0	72	17308
2026-01-07 09:58:36.85	344.98	6.74	-50.8	-64.0	3.8	1.49e+00	0	39	104	0	72	17244
2026-01-07 09:58:37.85	344.97	6.66	-50.8	-64.1	3.8	1.49e+00	0	39	104	0	72	17285
2026-01-07 09:58:38.86	344.97	6.59	-50.8	-64.0	3.8	1.49e+00	0	39	104	0	72	17260
2026-01-07 09:58:39.86	344.96	6.51	-50.8	-64.0	3.8	1.49e+00	0	39	104	0	72	17226
2026-01-07 09:58:40.87	344.95	6.44	-50.8	-64.0	3.8	1.49e+00	0	39	104	0	72	17216
2026-01-07 09:58:41.87	344.95	6.36	-50.8	-64.0	3.8	1.49e+00	0	39	104	0	72	17194
