passes_logs/2026/01/07/T1/T1__20260107_114536_AQUA_rec.log

#Pass ID: 20260107_114536_AQUA
#Satellite: AQUA
#Configuration: AQUA
#almurnet v.1.7.20251203
#Start time: 2026-01-07 11:45:36

#Version: 2.0.20230620
#Station: T1
#Location: 37.570604 lon 55.790049 lat
#TLE: 1 27424U 02022A   26004.96787593  .00001598  00000+0  32997-3 0  9996
#TLE: 2 27424  98.4069 331.2279 0002002  90.2377   0.6092 14.61798176259425

#Time	Az	El	Level	Level2	SNR	BER	BlckErr	Temp	State	Recorded	gain1	gain2
2026-01-07 11:45:36.15	164.35	4.99	-53.2	-74.1	3.8	7.48e-01	0	41	0	0	78	38839
2026-01-07 11:45:37.15	164.36	5.06	-51.2	-73.5	3.8	7.47e-01	0	41	104	0	73	48221
2026-01-07 11:45:38.16	164.37	5.14	-51.2	-73.1	3.8	7.45e-01	0	41	104	0	73	46114
2026-01-07 11:45:39.16	164.38	5.21	-51.2	-72.7	3.8	7.44e-01	0	41	104	0	73	44302
2026-01-07 11:45:40.17	164.39	5.29	-51.2	-72.3	3.8	7.45e-01	0	41	104	0	73	42368
2026-01-07 11:45:41.17	164.40	5.37	-51.2	-72.0	3.9	7.45e-01	0	41	104	0	73	40845
2026-01-07 11:45:42.18	164.40	5.44	-51.2	-71.9	3.8	7.42e-01	0	41	104	0	73	40358
2026-01-07 11:45:43.18	164.41	5.52	-51.2	-72.1	3.8	7.44e-01	0	41	104	0	73	41223
2026-01-07 11:45:44.18	164.42	5.60	-51.1	-72.3	3.8	7.45e-01	0	41	104	0	73	42288
2026-01-07 11:45:45.19	164.43	5.68	-51.1	-72.7	3.8	7.47e-01	0	41	104	0	73	44143
2026-01-07 11:45:46.19	164.44	5.75	-51.1	-73.0	3.8	7.45e-01	0	41	104	0	73	45747
2026-01-07 11:45:47.20	164.45	5.83	-51.2	-73.2	3.8	7.46e-01	0	41	104	0	73	46705
2026-01-07 11:45:48.20	164.45	5.91	-51.2	-73.0	3.8	7.46e-01	0	41	104	0	73	45935
2026-01-07 11:45:49.21	164.46	5.99	-51.1	-72.3	3.8	7.50e-01	0	41	104	0	73	42172
2026-01-07 11:45:50.21	164.47	6.07	-51.1	-71.0	4.0	7.40e-01	0	41	104	0	73	36213
2026-01-07 11:45:51.22	164.48	6.15	-51.1	-69.7	4.3	7.28e-01	0	41	104	0	73	31239
2026-01-07 11:45:52.22	164.49	6.23	-51.1	-69.2	4.0	7.38e-01	0	41	104	0	73	29365
2026-01-07 11:45:53.22	164.50	6.31	-51.0	-67.7	5.3	7.03e-01	0	42	0	0	73	24709
2026-01-07 11:45:54.23	164.51	6.39	-51.1	-67.0	5.7	6.90e-01	0	41	0	524288	73	22807
2026-01-07 11:45:55.23	164.52	6.47	-51.0	-66.7	6.0	6.83e-01	0	42	0	2097152	73	22172
2026-01-07 11:45:56.24	164.52	6.55	-51.0	-66.6	6.1	6.87e-01	0	42	0	3670016	73	21784
2026-01-07 11:45:57.24	164.53	6.63	-51.0	-66.6	6.0	6.88e-01	0	42	0	5242880	73	21997
2026-01-07 11:45:58.25	164.54	6.71	-51.0	-67.1	5.7	6.87e-01	0	41	104	6291456	73	23261
2026-01-07 11:45:59.25	164.55	6.79	-51.0	-67.8	5.2	7.05e-01	0	42	0	6815744	73	25092
2026-01-07 11:46:00.26	164.56	6.87	-51.1	-69.1	4.5	7.36e-01	0	42	104	6815744	73	29028
2026-01-07 11:46:01.26	164.57	6.95	-51.1	-69.9	3.9	7.44e-01	0	42	104	6815744	73	32132
2026-01-07 11:46:02.27	164.58	7.04	-51.1	-70.8	3.8	7.46e-01	0	42	104	6815744	73	35569
2026-01-07 11:46:03.27	164.59	7.12	-51.1	-71.1	4.0	7.39e-01	0	42	104	6815744	73	36836
2026-01-07 11:46:04.27	164.60	7.20	-51.0	-70.5	4.2	7.32e-01	0	42	104	6815744	73	34128
2026-01-07 11:46:05.28	164.60	7.29	-51.0	-69.8	3.9	7.39e-01	0	42	104	6815744	73	31729
2026-01-07 11:46:06.28	164.61	7.37	-51.0	-68.0	5.1	7.08e-01	0	42	0	6815744	73	25709
2026-01-07 11:46:07.29	164.62	7.45	-51.0	-66.3	6.3	6.74e-01	0	42	0	7340032	73	21045
2026-01-07 11:46:08.29	164.63	7.54	-50.9	-64.8	7.6	6.54e-01	0	42	0	9437184	73	17771
2026-01-07 11:46:09.30	164.64	7.62	-50.8	-63.3	9.1	6.34e-01	0	42	0	11534336	73	14992
2026-01-07 11:46:10.30	164.65	7.71	-50.6	-61.9	10.6	6.22e-01	0	42	0	13107200	73	12804
2026-01-07 11:46:11.30	164.66	7.79	-50.5	-60.8	11.7	6.16e-01	0	42	0	15204352	73	11261
2026-01-07 11:46:12.31	164.67	7.88	-50.4	-60.1	12.5	6.13e-01	0	42	0	16777216	72	11026
2026-01-07 11:46:13.31	164.68	7.96	-50.2	-59.2	13.4	6.08e-01	0	42	0	18874368	72	9858
2026-01-07 11:46:14.32	164.69	8.05	-50.1	-58.8	13.8	6.08e-01	0	42	0	20971520	72	9419
2026-01-07 11:46:15.32	164.70	8.14	-50.0	-58.3	14.4	6.08e-01	0	42	0	22544384	72	8892
2026-01-07 11:46:16.33	164.71	8.22	-50.1	-58.3	14.4	6.09e-01	0	42	0	24641536	71	9464
2026-01-07 11:46:17.33	164.72	8.31	-50.1	-58.3	14.4	6.09e-01	0	42	0	26214400	71	9473
2026-01-07 11:46:18.34	164.73	8.40	-50.2	-58.7	14.1	6.10e-01	0	42	0	28311552	71	9852
2026-01-07 11:46:19.34	164.74	8.49	-50.3	-59.1	13.6	6.10e-01	0	42	0	29884416	71	10389
2026-01-07 11:46:20.34	164.75	8.57	-50.5	-60.1	12.6	6.12e-01	0	42	0	31981568	71	11666
2026-01-07 11:46:21.35	164.76	8.66	-50.6	-61.1	11.6	6.16e-01	0	42	0	34078720	71	13042
2026-01-07 11:46:22.35	164.77	8.75	-50.8	-62.5	10.1	6.26e-01	0	42	0	35651584	72	14473
2026-01-07 11:46:23.36	164.78	8.84	-50.9	-64.2	8.4	6.43e-01	0	43	0	37748736	72	17488
2026-01-07 11:46:24.36	164.79	8.93	-51.1	-66.4	6.3	6.78e-01	0	42	0	39845888	72	22533
2026-01-07 11:46:25.36	164.80	9.02	-51.1	-67.7	5.3	7.02e-01	0	42	0	40894464	72	26287
2026-01-07 11:46:26.37	164.81	9.11	-51.1	-69.0	4.0	7.40e-01	0	42	104	40894464	72	30602
2026-01-07 11:46:27.37	164.82	9.20	-51.1	-69.1	4.0	7.38e-01	0	42	104	40894464	72	31019
2026-01-07 11:46:28.37	164.83	9.29	-50.9	-69.3	3.9	7.38e-01	0	43	104	40894464	72	31735
2026-01-07 11:46:29.37	164.84	9.38	-49.5	-59.9	12.5	6.11e-01	0	43	0	41943040	71	11361
2026-01-07 11:46:30.38	164.85	9.47	-48.9	-57.6	16.1	6.05e-01	0	43	0	44040192	68	10398
2026-01-07 11:46:31.38	164.86	9.57	-50.2	-68.7	3.9	7.30e-01	0	42	104	44564480	72	29424
2026-01-07 11:46:32.39	164.87	9.66	-47.9	-53.7	18.7	6.09e-01	0	42	0	45613056	67	6999
2026-01-07 11:46:33.39	164.88	9.75	-47.8	-53.2	19.7	6.07e-01	0	42	0	47710208	67	6643
2026-01-07 11:46:34.39	164.89	9.84	-47.5	-52.3	20.3	6.06e-01	0	42	0	49283072	67	5941
2026-01-07 11:46:35.40	164.90	9.94	-47.7	-52.4	20.4	6.08e-01	0	43	0	51380224	67	6036
2026-01-07 11:46:36.40	164.91	10.03	-47.7	-52.1	20.4	6.08e-01	0	43	0	52953088	67	5815
2026-01-07 11:46:37.40	164.92	10.13	-47.6	-51.7	20.9	6.08e-01	0	43	0	55050240	67	5587
2026-01-07 11:46:38.41	164.93	10.22	-47.5	-51.3	21.3	6.04e-01	0	43	0	57147392	67	5329
2026-01-07 11:46:39.41	164.94	10.32	-47.4	-51.1	21.7	6.09e-01	0	43	0	58720256	66	5487
2026-01-07 11:46:40.41	164.95	10.41	-47.2	-50.7	22.1	6.06e-01	0	43	0	60817408	66	5248
2026-01-07 11:46:41.41	164.96	10.51	-47.1	-50.7	22.0	6.07e-01	0	43	0	62914560	65	5531
2026-01-07 11:46:42.42	164.98	10.60	-47.2	-50.7	22.1	6.07e-01	0	43	0	64487424	65	5578
2026-01-07 11:46:43.42	164.99	10.70	-47.1	-50.5	22.3	6.09e-01	0	43	0	66584576	65	5437
2026-01-07 11:46:44.42	165.00	10.80	-47.0	-50.3	22.3	6.07e-01	0	43	0	68157440	65	5337
2026-01-07 11:46:45.43	165.01	10.90	-46.9	-50.1	22.4	6.08e-01	0	43	0	70254592	65	5191
2026-01-07 11:46:46.43	165.02	10.99	-47.0	-50.2	22.6	6.06e-01	0	43	0	71827456	65	5245
2026-01-07 11:46:47.44	165.03	11.09	-47.0	-50.2	22.5	6.08e-01	0	43	0	73924608	65	5261
2026-01-07 11:46:48.44	165.04	11.19	-46.8	-49.9	22.9	6.07e-01	0	43	0	76021760	65	5048
2026-01-07 11:46:49.44	165.05	11.29	-46.8	-49.8	22.3	6.06e-01	0	43	0	77594624	65	5025
2026-01-07 11:46:50.44	165.06	11.39	-46.6	-49.5	23.2	6.06e-01	0	43	0	79691776	65	4838
2026-01-07 11:46:51.44	165.08	11.49	-46.4	-49.3	23.4	6.07e-01	0	43	0	81264640	64	4994
2026-01-07 11:46:52.44	165.09	11.59	-46.4	-49.4	23.4	6.07e-01	0	43	0	83361792	64	5045
2026-01-07 11:46:53.45	165.10	11.69	-46.4	-49.3	23.3	6.09e-01	0	43	0	84934656	64	5027
2026-01-07 11:46:54.43	165.11	11.79	-46.5	-49.5	23.2	6.07e-01	0	43	0	87031808	64	5111
2026-01-07 11:46:55.44	165.12	11.89	-46.3	-49.3	23.4	6.07e-01	0	43	0	89128960	64	4993
2026-01-07 11:46:56.44	165.13	12.00	-46.4	-49.4	23.3	6.06e-01	0	43	0	90701824	64	5061
2026-01-07 11:46:57.44	165.15	12.10	-46.4	-49.4	23.3	6.08e-01	0	43	0	92798976	64	5042
2026-01-07 11:46:58.44	165.16	12.20	-46.3	-49.2	23.4	6.06e-01	0	43	0	94371840	64	4972
2026-01-07 11:46:59.45	165.17	12.31	-46.4	-49.4	23.3	6.06e-01	0	43	0	96468992	64	5084
2026-01-07 11:47:00.45	165.18	12.41	-46.3	-49.3	23.4	6.08e-01	0	43	0	98566144	64	5005
2026-01-07 11:47:01.45	165.19	12.52	-46.4	-49.4	23.4	6.09e-01	0	43	0	100139008	64	5046
2026-01-07 11:47:02.46	165.21	12.62	-46.5	-49.4	23.3	6.06e-01	0	43	0	102236160	64	5070
2026-01-07 11:47:03.46	165.22	12.73	-46.4	-49.3	23.4	6.07e-01	0	43	0	103809024	64	5007
2026-01-07 11:47:04.46	165.23	12.84	-46.4	-49.3	23.4	6.07e-01	0	43	0	105906176	64	5012
2026-01-07 11:47:05.47	165.24	12.94	-46.4	-49.3	23.4	6.05e-01	0	43	0	108003328	64	5015
2026-01-07 11:47:06.47	165.26	13.05	-46.3	-49.2	23.5	6.08e-01	0	43	0	109576192	64	4960
2026-01-07 11:47:07.47	165.27	13.16	-46.3	-49.2	23.6	6.07e-01	0	43	0	111673344	64	4930
2026-01-07 11:47:08.48	165.28	13.27	-46.3	-49.2	23.6	6.06e-01	0	43	0	113246208	64	4963
2026-01-07 11:47:09.48	165.29	13.38	-46.1	-48.9	23.8	6.06e-01	0	43	0	115343360	64	4806
2026-01-07 11:47:10.48	165.31	13.49	-46.1	-49.0	23.7	6.08e-01	0	43	0	116916224	64	4826
2026-01-07 11:47:11.49	165.32	13.60	-46.2	-49.0	23.8	6.08e-01	0	43	0	119013376	64	4825
2026-01-07 11:47:12.49	165.33	13.71	-46.2	-49.0	23.1	6.06e-01	0	43	0	121110528	64	4861
2026-01-07 11:47:13.49	165.35	13.82	-46.1	-48.8	23.9	6.07e-01	0	43	0	122683392	64	4746
2026-01-07 11:47:14.50	165.36	13.93	-46.0	-48.7	24.0	6.06e-01	0	43	0	124780544	64	4698
2026-01-07 11:47:15.50	165.37	14.05	-46.1	-48.8	24.0	6.08e-01	0	43	0	126353408	64	4716
2026-01-07 11:47:16.50	165.39	14.16	-46.1	-48.7	24.0	6.06e-01	0	43	0	128450560	64	4695
2026-01-07 11:47:17.50	165.40	14.27	-46.0	-48.6	24.1	6.07e-01	0	43	0	130547712	64	4634
2026-01-07 11:47:18.51	165.41	14.39	-46.1	-48.7	24.0	6.08e-01	0	43	0	132120576	64	4703
2026-01-07 11:47:19.51	165.43	14.50	-46.2	-48.8	24.0	6.06e-01	0	43	0	134217728	64	4731
2026-01-07 11:47:20.51	165.44	14.62	-46.1	-48.8	24.0	6.07e-01	0	43	0	135790592	64	4710
2026-01-07 11:47:21.52	165.45	14.73	-46.1	-48.7	24.1	6.07e-01	0	43	0	137887744	64	4657
2026-01-07 11:47:22.52	165.47	14.85	-46.2	-48.7	24.0	6.07e-01	0	43	0	139460608	64	4701
2026-01-07 11:47:23.52	165.48	14.97	-46.2	-48.8	24.1	6.04e-01	0	43	0	141557760	64	4725
2026-01-07 11:47:24.52	165.49	15.09	-46.1	-48.6	24.1	6.08e-01	0	43	0	143654912	64	4647
2026-01-07 11:47:25.53	165.51	15.21	-46.2	-48.8	24.0	6.06e-01	0	43	0	145227776	64	4710
2026-01-07 11:47:26.53	165.52	15.33	-46.3	-48.9	23.9	6.06e-01	0	43	0	147324928	64	4765
2026-01-07 11:47:27.53	165.54	15.44	-46.2	-48.8	24.0	6.08e-01	0	43	0	148897792	64	4740
2026-01-07 11:47:28.54	165.55	15.57	-46.2	-48.8	24.0	6.07e-01	0	43	0	150994944	64	4733
2026-01-07 11:47:29.54	165.57	15.69	-46.2	-48.8	24.0	6.05e-01	0	43	0	153092096	64	4741
2026-01-07 11:47:30.54	165.58	15.81	-46.1	-48.8	24.0	6.07e-01	0	43	0	154664960	64	4737
2026-01-07 11:47:31.55	165.60	15.93	-46.0	-48.7	24.1	6.05e-01	0	43	0	156762112	64	4678
2026-01-07 11:47:32.55	165.61	16.06	-46.1	-48.8	24.0	6.06e-01	0	43	0	158334976	64	4735
2026-01-07 11:47:33.55	165.63	16.18	-46.0	-48.7	24.1	6.06e-01	0	43	0	160432128	64	4665
2026-01-07 11:47:34.56	165.64	16.31	-46.1	-48.8	24.1	6.06e-01	0	43	0	162529280	63	4988
2026-01-07 11:47:35.56	165.66	16.43	-46.0	-48.7	24.2	6.06e-01	0	43	0	164102144	63	4966
2026-01-07 11:47:36.57	165.67	16.56	-46.1	-48.7	24.2	6.06e-01	0	43	0	166199296	63	4975
2026-01-07 11:47:37.57	165.69	16.68	-45.9	-48.6	24.3	6.05e-01	0	43	0	167772160	63	4881
2026-01-07 11:47:38.57	165.70	16.81	-46.0	-48.6	24.3	6.07e-01	0	43	0	169869312	63	4898
2026-01-07 11:47:39.58	165.72	16.94	-46.0	-48.7	24.2	6.05e-01	0	43	0	171442176	63	4958
2026-01-07 11:47:40.58	165.73	17.07	-46.1	-48.7	24.2	6.06e-01	0	43	0	173539328	63	4949
2026-01-07 11:47:41.58	165.75	17.20	-46.0	-48.7	24.2	6.08e-01	0	43	0	175636480	63	4946
2026-01-07 11:47:42.59	165.76	17.33	-45.9	-48.5	24.5	6.05e-01	0	43	0	177209344	63	4826
2026-01-07 11:47:43.59	165.78	17.46	-45.9	-48.5	24.4	6.07e-01	0	43	0	179306496	63	4853
2026-01-07 11:47:44.59	165.80	17.59	-45.9	-48.4	24.4	6.06e-01	0	43	0	181403648	63	4814
2026-01-07 11:47:45.59	165.81	17.73	-46.0	-48.6	24.3	6.06e-01	0	43	0	182976512	63	4902
2026-01-07 11:47:46.60	165.83	17.86	-46.0	-48.7	24.3	6.07e-01	0	43	0	185073664	63	4930
2026-01-07 11:47:47.60	165.85	18.00	-46.0	-48.6	24.3	6.06e-01	0	43	0	186646528	63	4921
2026-01-07 11:47:48.61	165.86	18.13	-46.1	-48.8	24.2	6.07e-01	0	43	0	188743680	63	4993
2026-01-07 11:47:49.61	165.88	18.27	-46.1	-48.8	24.2	6.07e-01	0	43	0	190316544	63	4999
2026-01-07 11:47:50.61	165.90	18.41	-46.1	-48.8	24.1	6.06e-01	0	43	0	192413696	63	5030
2026-01-07 11:47:51.62	165.91	18.55	-46.1	-48.8	24.1	6.06e-01	0	43	0	194510848	63	5024
2026-01-07 11:47:52.62	165.93	18.68	-46.2	-48.9	24.1	6.08e-01	0	43	0	196083712	63	5048
2026-01-07 11:47:53.62	165.95	18.82	-46.2	-48.8	24.1	6.08e-01	0	43	0	198180864	63	5040
2026-01-07 11:47:54.63	165.97	18.96	-46.2	-48.8	24.2	6.06e-01	0	43	0	199753728	63	5026
2026-01-07 11:47:55.63	165.98	19.11	-46.2	-48.8	24.1	6.07e-01	0	43	0	201850880	63	5041
2026-01-07 11:47:56.63	166.00	19.25	-46.3	-48.9	24.1	6.04e-01	0	43	0	203423744	63	5059
2026-01-07 11:47:57.64	166.02	19.39	-46.2	-48.8	24.2	6.08e-01	0	43	0	205520896	63	4995
2026-01-07 11:47:58.64	166.04	19.54	-46.3	-48.9	24.2	6.09e-01	0	43	0	207618048	63	5046
2026-01-07 11:47:59.64	166.05	19.68	-46.3	-48.9	24.1	6.07e-01	0	43	0	209190912	63	5054
2026-01-07 11:48:00.65	166.07	19.83	-46.3	-48.9	24.1	6.07e-01	0	43	0	211288064	63	5054
2026-01-07 11:48:01.65	166.09	19.97	-46.3	-49.0	24.0	6.07e-01	0	43	0	213385216	63	5116
2026-01-07 11:48:02.65	166.11	20.12	-46.4	-49.1	24.0	6.08e-01	0	43	0	214958080	63	5162
2026-01-07 11:48:03.65	166.13	20.27	-46.3	-49.0	24.0	6.07e-01	0	43	0	217055232	63	5153
2026-01-07 11:48:04.66	166.15	20.42	-46.3	-49.1	23.9	6.07e-01	0	43	0	218628096	63	5206
2026-01-07 11:48:05.66	166.17	20.57	-46.3	-49.1	23.9	6.08e-01	0	43	0	220725248	63	5179
2026-01-07 11:48:06.66	166.19	20.72	-46.4	-49.1	22.2	6.08e-01	0	43	0	222298112	63	5211
2026-01-07 11:48:07.67	166.21	20.88	-46.4	-49.2	23.9	6.05e-01	0	43	0	224395264	63	5221
2026-01-07 11:48:08.67	166.23	21.03	-46.4	-49.2	23.9	6.06e-01	0	43	0	226492416	63	5243
2026-01-07 11:48:09.67	166.25	21.19	-46.6	-49.3	23.8	6.07e-01	0	43	0	228065280	63	5311
2026-01-07 11:48:10.68	166.27	21.34	-46.6	-49.3	23.7	6.07e-01	0	43	0	230162432	63	5323
2026-01-07 11:48:11.68	166.29	21.50	-46.7	-49.4	23.7	6.05e-01	0	43	0	231735296	63	5353
2026-01-07 11:48:12.68	166.31	21.66	-46.5	-49.2	23.8	6.06e-01	0	43	0	233832448	63	5250
2026-01-07 11:48:13.68	166.33	21.82	-46.5	-49.2	23.9	6.05e-01	0	43	0	235405312	63	5269
2026-01-07 11:48:14.69	166.35	21.98	-46.5	-49.2	23.9	6.06e-01	0	43	0	237502464	63	5228
2026-01-07 11:48:15.69	166.37	22.14	-46.5	-49.1	23.9	6.07e-01	0	43	0	239599616	63	5194
2026-01-07 11:48:16.69	166.39	22.30	-46.5	-49.1	24.0	6.07e-01	0	43	0	241172480	63	5203
2026-01-07 11:48:17.70	166.41	22.46	-46.6	-49.2	23.9	6.07e-01	0	43	0	243269632	63	5233
2026-01-07 11:48:18.70	166.43	22.63	-46.6	-49.2	23.9	6.06e-01	0	43	0	244842496	63	5262
2026-01-07 11:48:19.70	166.45	22.79	-46.7	-49.3	23.8	6.06e-01	0	43	0	246939648	63	5301
2026-01-07 11:48:20.71	166.48	22.96	-46.7	-49.3	23.7	6.07e-01	0	43	0	249036800	64	5033
2026-01-07 11:48:21.71	166.50	23.13	-46.7	-49.4	23.7	6.05e-01	0	43	0	250609664	64	5066
2026-01-07 11:48:22.72	166.52	23.30	-46.7	-49.4	23.6	6.07e-01	0	43	0	252706816	64	5075
2026-01-07 11:48:23.72	166.54	23.47	-46.7	-49.4	23.6	6.09e-01	0	43	0	254279680	64	5097
2026-01-07 11:48:24.72	166.57	23.64	-46.5	-49.3	23.7	6.06e-01	0	43	0	256376832	64	5013
2026-01-07 11:48:25.72	166.59	23.82	-46.5	-49.3	23.7	6.07e-01	0	43	0	258473984	64	5001
2026-01-07 11:48:26.73	166.61	23.99	-46.6	-49.3	23.7	6.07e-01	0	43	0	260046848	64	5034
2026-01-07 11:48:27.73	166.64	24.17	-46.5	-49.3	23.7	6.07e-01	0	43	0	262144000	64	5005
2026-01-07 11:48:28.73	166.66	24.34	-46.4	-49.1	23.9	6.07e-01	0	43	0	263716864	64	4916
2026-01-07 11:48:29.74	166.68	24.52	-46.5	-49.1	24.0	6.06e-01	0	43	0	265814016	64	4896
2026-01-07 11:48:30.74	166.71	24.70	-46.6	-49.3	23.8	6.05e-01	0	43	0	267911168	64	4999
2026-01-07 11:48:31.74	166.73	24.88	-46.5	-49.2	23.9	6.07e-01	0	43	0	269484032	64	4950
2026-01-07 11:48:32.75	166.76	25.07	-46.6	-49.3	23.8	6.07e-01	0	43	0	271581184	64	4994
2026-01-07 11:48:33.75	166.78	25.25	-46.6	-49.3	23.8	6.07e-01	0	43	0	273154048	64	4989
2026-01-07 11:48:34.76	166.81	25.44	-46.8	-49.5	23.6	6.07e-01	0	43	0	275251200	64	5106
2026-01-07 11:48:35.76	166.83	25.62	-46.7	-49.4	23.7	6.07e-01	0	43	0	276824064	64	5050
2026-01-07 11:48:36.76	166.86	25.81	-46.6	-49.2	23.8	6.05e-01	0	43	0	278921216	64	4983
2026-01-07 11:48:37.77	166.89	26.00	-46.4	-49.0	23.8	6.06e-01	0	43	0	281018368	64	4826
2026-01-07 11:48:38.77	166.91	26.19	-46.3	-48.9	24.1	6.04e-01	0	43	0	282591232	64	4764
2026-01-07 11:48:39.77	166.94	26.38	-46.2	-48.8	24.3	6.05e-01	0	43	0	284688384	64	4707
2026-01-07 11:48:40.77	166.96	26.58	-46.2	-48.7	24.3	6.08e-01	0	43	0	286261248	64	4674
2026-01-07 11:48:41.78	166.99	26.77	-46.2	-48.8	24.3	6.08e-01	0	43	0	288358400	64	4724
2026-01-07 11:48:42.78	167.02	26.97	-46.3	-48.9	24.2	6.05e-01	0	43	0	289931264	64	4781
2026-01-07 11:48:43.78	167.05	27.17	-46.3	-48.9	24.2	6.09e-01	0	43	0	292028416	64	4778
2026-01-07 11:48:44.79	167.08	27.37	-46.3	-48.9	24.2	6.07e-01	0	43	0	294125568	64	4779
2026-01-07 11:48:45.79	167.10	27.57	-46.3	-48.9	24.2	6.07e-01	0	43	0	295698432	64	4777
2026-01-07 11:48:46.79	167.13	27.77	-46.2	-48.7	24.3	6.06e-01	0	43	0	297795584	64	4666
2026-01-07 11:48:47.80	167.16	27.98	-46.0	-48.5	24.5	6.08e-01	0	43	0	299892736	64	4590
2026-01-07 11:48:48.80	167.19	28.18	-46.0	-48.5	24.5	6.06e-01	0	43	0	301465600	64	4598
2026-01-07 11:48:49.80	167.22	28.39	-46.1	-48.5	24.6	6.05e-01	0	43	0	303562752	63	4870
2026-01-07 11:48:50.80	167.25	28.60	-46.0	-48.4	24.7	6.07e-01	0	43	0	305135616	63	4789
2026-01-07 11:48:51.81	167.28	28.81	-46.0	-48.5	24.7	6.07e-01	0	43	0	307232768	63	4824
2026-01-07 11:48:52.81	167.31	29.02	-46.0	-48.5	24.6	6.05e-01	0	43	0	308805632	63	4847
2026-01-07 11:48:53.81	167.35	29.24	-46.1	-48.6	24.6	6.09e-01	0	43	0	310902784	63	4881
2026-01-07 11:48:54.82	167.38	29.46	-46.1	-48.6	24.5	6.06e-01	0	43	0	312999936	63	4889
2026-01-07 11:48:55.82	167.41	29.68	-46.1	-48.7	24.5	6.07e-01	0	43	0	314572800	63	4932
2026-01-07 11:48:56.82	167.44	29.89	-46.2	-48.8	24.4	6.06e-01	0	43	0	316669952	63	4991
2026-01-07 11:48:57.83	167.48	30.12	-46.0	-48.5	24.7	6.06e-01	0	43	0	318242816	63	4834
2026-01-07 11:48:58.83	167.51	30.34	-46.1	-48.6	24.6	6.07e-01	0	43	0	320339968	63	4873
2026-01-07 11:48:59.83	167.54	30.57	-46.0	-48.5	24.6	6.04e-01	0	43	0	321912832	63	4863
2026-01-07 11:49:00.84	167.58	30.80	-46.1	-48.6	24.5	6.08e-01	0	43	0	324009984	63	4924
2026-01-07 11:49:01.84	167.61	31.03	-46.2	-48.8	24.2	6.06e-01	0	43	0	326107136	63	5000
2026-01-07 11:49:02.84	167.65	31.26	-46.3	-48.8	24.3	6.08e-01	0	43	0	327680000	63	5028
2026-01-07 11:49:03.85	167.68	31.49	-46.3	-48.8	24.3	6.08e-01	0	43	0	329777152	63	5013
2026-01-07 11:49:04.85	167.72	31.73	-46.2	-48.7	24.5	6.06e-01	0	43	0	331874304	63	4969
2026-01-07 11:49:05.85	167.76	31.96	-46.2	-48.7	24.5	6.06e-01	0	43	0	333447168	63	4953
2026-01-07 11:49:06.86	167.79	32.20	-46.3	-48.8	24.4	6.08e-01	0	43	0	335544320	63	4985
2026-01-07 11:49:07.86	167.83	32.44	-46.3	-48.8	24.4	6.06e-01	0	43	0	337117184	63	4991
2026-01-07 11:49:08.86	167.87	32.69	-46.4	-48.9	24.3	6.07e-01	0	43	0	339214336	63	5076
2026-01-07 11:49:09.87	167.91	32.94	-46.5	-49.0	24.2	6.08e-01	0	43	0	340787200	63	5151
2026-01-07 11:49:10.87	167.95	33.18	-46.6	-49.1	24.1	6.07e-01	0	43	0	342884352	63	5209
2026-01-07 11:49:11.87	167.99	33.43	-46.6	-49.2	23.9	6.07e-01	0	43	0	344981504	64	4971
2026-01-07 11:49:12.88	168.03	33.69	-46.6	-49.2	24.0	6.06e-01	0	43	0	346554368	64	4959
2026-01-07 11:49:13.88	168.07	33.94	-46.6	-49.2	23.9	6.06e-01	0	43	0	348651520	64	4945
2026-01-07 11:49:14.88	168.11	34.20	-46.7	-49.3	23.9	6.07e-01	0	43	0	350224384	64	4987
2026-01-07 11:49:15.89	168.16	34.46	-46.7	-49.3	23.8	6.06e-01	0	43	0	352321536	64	5035
2026-01-07 11:49:16.89	168.20	34.72	-46.9	-49.6	23.6	6.05e-01	0	43	0	354418688	64	5175
2026-01-07 11:49:17.90	168.24	34.98	-47.1	-49.8	23.4	6.07e-01	0	43	0	355991552	64	5318
2026-01-07 11:49:18.90	168.29	35.25	-47.2	-49.9	23.3	6.07e-01	0	43	0	358088704	65	5096
2026-01-07 11:49:19.90	168.33	35.52	-47.3	-50.1	23.2	6.06e-01	0	43	0	359661568	65	5160
2026-01-07 11:49:20.90	168.38	35.79	-47.3	-50.1	23.2	6.07e-01	0	43	0	361758720	65	5162
2026-01-07 11:49:21.91	168.42	36.06	-47.4	-50.2	23.1	6.06e-01	0	43	0	363855872	65	5250
2026-01-07 11:49:22.91	168.47	36.34	-47.5	-50.3	23.0	6.08e-01	0	43	0	365428736	65	5312
2026-01-07 11:49:23.91	168.52	36.61	-47.6	-50.5	22.8	6.07e-01	0	43	0	367525888	65	5442
2026-01-07 11:49:24.92	168.57	36.90	-47.8	-50.7	22.6	6.10e-01	0	43	0	369098752	66	5255
2026-01-07 11:49:25.92	168.62	37.18	-48.0	-51.1	22.3	6.04e-01	0	43	0	371195904	66	5466
2026-01-07 11:49:26.92	168.67	37.46	-48.1	-51.1	22.3	6.06e-01	0	43	0	372768768	66	5506
2026-01-07 11:49:27.93	168.72	37.75	-48.1	-51.1	22.3	6.07e-01	0	43	0	374865920	66	5512
2026-01-07 11:49:28.93	168.77	38.04	-48.2	-51.2	22.2	6.08e-01	0	43	0	376963072	67	5262
2026-01-07 11:49:29.93	168.83	38.34	-48.4	-51.4	22.0	6.08e-01	0	43	0	378535936	67	5349
2026-01-07 11:49:30.94	168.88	38.64	-48.3	-51.3	22.0	6.09e-01	0	43	0	380633088	67	5316
2026-01-07 11:49:31.93	168.93	38.93	-48.2	-51.2	22.1	6.08e-01	0	43	0	382205952	67	5269
2026-01-07 11:49:32.94	168.99	39.23	-48.1	-51.1	22.3	6.09e-01	0	43	0	384303104	67	5178
2026-01-07 11:49:33.94	169.05	39.54	-48.1	-51.0	22.3	6.06e-01	0	43	0	386400256	67	5136
2026-01-07 11:49:34.94	169.11	39.84	-48.0	-50.9	22.5	6.08e-01	0	43	0	387973120	67	5062
2026-01-07 11:49:35.95	169.17	40.16	-48.1	-51.1	22.3	6.06e-01	0	43	0	390070272	67	5165
2026-01-07 11:49:36.95	169.23	40.47	-47.7	-50.6	22.8	6.07e-01	0	43	0	391643136	67	4874
2026-01-07 11:49:37.95	169.29	40.78	-47.7	-50.6	22.8	6.09e-01	0	43	0	393740288	67	4879
2026-01-07 11:49:38.95	169.35	41.10	-47.6	-50.4	22.9	6.08e-01	0	43	0	395313152	67	4809
2026-01-07 11:49:39.96	169.41	41.43	-47.4	-50.2	23.1	6.05e-01	0	43	0	397410304	66	4950
2026-01-07 11:49:40.96	169.48	41.75	-47.1	-49.8	23.5	6.05e-01	0	43	0	399507456	66	4709
2026-01-07 11:49:41.96	169.54	42.08	-47.0	-49.7	23.6	6.08e-01	0	43	0	401080320	66	4657
2026-01-07 11:49:42.97	169.61	42.41	-46.9	-49.6	23.7	6.06e-01	0	43	0	403177472	65	4893
2026-01-07 11:49:43.97	169.68	42.74	-46.9	-49.5	23.8	6.07e-01	0	43	0	404750336	65	4833
2026-01-07 11:49:44.97	169.75	43.08	-46.7	-49.3	24.0	6.06e-01	0	43	0	406847488	65	4722
2026-01-07 11:49:45.97	169.82	43.42	-46.6	-49.2	24.1	6.05e-01	0	43	0	408944640	65	4660
2026-01-07 11:49:46.98	169.90	43.77	-46.5	-49.1	24.2	6.08e-01	0	43	0	410517504	65	4603
2026-01-07 11:49:47.98	169.97	44.11	-46.6	-49.1	24.2	6.05e-01	0	43	0	412614656	65	4605
2026-01-07 11:49:48.98	170.05	44.46	-46.7	-49.2	24.1	6.07e-01	0	43	0	414187520	65	4683
2026-01-07 11:49:49.98	170.13	44.81	-46.6	-49.1	24.1	6.07e-01	0	43	0	416284672	65	4636
2026-01-07 11:49:50.99	170.21	45.17	-46.7	-49.2	24.1	6.07e-01	0	43	0	418381824	65	4664
2026-01-07 11:49:51.99	170.29	45.53	-46.8	-49.4	23.9	6.07e-01	0	43	0	419954688	65	4761
2026-01-07 11:49:53.00	170.37	45.90	-46.6	-49.2	24.1	6.07e-01	0	43	0	422051840	65	4654
2026-01-07 11:49:54.00	170.46	46.26	-46.7	-49.2	24.1	6.07e-01	0	43	0	423624704	65	4679
2026-01-07 11:49:55.00	170.54	46.63	-46.5	-49.0	24.3	6.06e-01	0	43	0	425721856	65	4576
2026-01-07 11:49:56.00	170.63	47.00	-46.5	-49.0	24.3	6.08e-01	0	43	0	427294720	65	4576
2026-01-07 11:49:57.01	170.73	47.38	-46.6	-49.1	24.2	6.05e-01	0	43	0	429391872	65	4625
2026-01-07 11:49:58.01	170.82	47.76	-46.4	-48.8	24.4	6.07e-01	0	43	0	431489024	64	4753
2026-01-07 11:49:59.02	170.92	48.15	-46.3	-48.7	24.5	6.06e-01	0	43	0	433061888	64	4687
2026-01-07 11:50:00.02	171.01	48.53	-46.3	-48.8	24.4	6.07e-01	0	43	0	435159040	64	4725
2026-01-07 11:50:01.02	171.11	48.92	-46.4	-48.9	24.3	6.05e-01	0	43	0	436731904	64	4810
2026-01-07 11:50:02.03	171.22	49.32	-46.4	-48.9	24.4	6.06e-01	0	43	0	438829056	64	4789
2026-01-07 11:50:03.03	171.32	49.71	-46.5	-49.0	24.3	6.06e-01	0	43	0	440401920	64	4832
2026-01-07 11:50:04.03	171.43	50.11	-46.4	-48.9	24.4	6.08e-01	0	43	0	442499072	64	4782
2026-01-07 11:50:05.04	171.54	50.52	-46.2	-48.6	24.7	6.07e-01	0	43	0	444596224	64	4620
2026-01-07 11:50:06.04	171.66	50.93	-46.3	-48.7	24.6	6.08e-01	0	43	0	446169088	64	4687
2026-01-07 11:50:07.05	171.78	51.34	-46.3	-48.8	24.5	6.06e-01	0	43	0	448266240	64	4718
2026-01-07 11:50:08.05	171.90	51.76	-45.8	-48.1	25.1	6.06e-01	0	43	0	450363392	63	4643
2026-01-07 11:50:09.05	172.02	52.18	-45.5	-47.8	25.4	6.07e-01	0	43	0	451936256	63	4469
2026-01-07 11:50:10.06	172.15	52.60	-45.7	-48.0	25.2	6.06e-01	0	43	0	454033408	63	4584
2026-01-07 11:50:11.06	172.28	53.03	-45.7	-48.0	25.2	6.05e-01	0	43	0	455606272	63	4576
2026-01-07 11:50:12.06	172.42	53.46	-45.7	-48.0	25.3	6.05e-01	0	43	0	457703424	63	4582
2026-01-07 11:50:13.07	172.56	53.89	-45.8	-48.1	25.1	6.06e-01	0	43	0	459276288	63	4635
2026-01-07 11:50:14.07	172.70	54.33	-45.7	-48.1	25.2	6.07e-01	0	43	0	461373440	63	4605
2026-01-07 11:50:15.07	172.85	54.77	-45.8	-48.2	25.1	6.06e-01	0	43	0	463470592	63	4702
2026-01-07 11:50:16.07	173.00	55.22	-45.9	-48.4	24.9	6.06e-01	0	43	0	465043456	63	4771
2026-01-07 11:50:17.08	173.16	55.67	-46.1	-48.5	24.8	6.05e-01	0	43	0	467140608	63	4863
2026-01-07 11:50:18.08	173.32	56.12	-46.6	-49.2	24.1	6.06e-01	0	43	0	468713472	64	4927
2026-01-07 11:50:19.09	173.49	56.58	-46.4	-48.8	24.4	6.07e-01	0	43	0	470810624	64	4756
2026-01-07 11:50:20.09	173.66	57.04	-46.7	-49.2	24.1	6.05e-01	0	43	0	472907776	64	4962
2026-01-07 11:50:21.09	173.84	57.50	-46.8	-49.4	23.9	6.07e-01	0	43	0	474480640	64	5066
2026-01-07 11:50:22.10	174.02	57.97	-47.4	-50.1	23.3	6.08e-01	0	43	0	476577792	65	5165
2026-01-07 11:50:23.10	174.22	58.44	-47.1	-49.7	23.7	6.08e-01	0	43	0	478150656	65	4935
2026-01-07 11:50:24.10	174.41	58.91	-47.5	-50.2	23.2	6.07e-01	0	43	0	480247808	65	5255
2026-01-07 11:50:25.11	174.62	59.39	-47.4	-50.0	23.3	6.07e-01	0	43	0	482344960	65	5156
2026-01-07 11:50:26.11	174.83	59.87	-47.3	-50.0	23.4	6.06e-01	0	43	0	483917824	65	5125
2026-01-07 11:50:27.11	175.05	60.36	-47.6	-50.4	23.0	6.07e-01	0	43	0	486014976	65	5364
2026-01-07 11:50:28.12	175.29	60.85	-47.7	-50.5	22.9	6.05e-01	0	43	0	487587840	66	5126
2026-01-07 11:50:29.12	175.52	61.34	-47.7	-50.6	22.8	6.08e-01	0	43	0	489684992	66	5170
2026-01-07 11:50:30.13	175.78	61.84	-48.2	-51.2	22.3	6.08e-01	0	43	0	491257856	66	5548
2026-01-07 11:50:31.13	176.03	62.33	-48.4	-51.4	22.1	6.08e-01	0	43	0	493355008	67	5357
2026-01-07 11:50:32.13	176.30	62.83	-48.8	-51.8	21.8	6.08e-01	0	43	0	495452160	68	5320
2026-01-07 11:50:33.14	176.58	63.34	-48.8	-51.9	21.8	6.08e-01	0	43	0	497025024	68	5341
2026-01-07 11:50:34.14	176.88	63.85	-49.3	-52.7	21.0	6.06e-01	0	43	0	499122176	69	5541
2026-01-07 11:50:35.14	177.18	64.36	-49.6	-53.2	20.5	6.07e-01	0	43	0	500695040	69	5893
2026-01-07 11:50:36.15	177.50	64.88	-49.6	-53.2	20.5	6.09e-01	0	43	0	502792192	69	5865
2026-01-07 11:50:37.15	177.84	65.39	-49.8	-53.5	20.2	6.07e-01	0	43	0	504889344	70	5746
2026-01-07 11:50:38.15	178.19	65.91	-50.2	-54.1	19.5	6.07e-01	0	43	0	506462208	71	5855
2026-01-07 11:50:39.16	178.56	66.44	-50.2	-53.9	19.8	6.08e-01	0	43	0	508559360	71	5678
2026-01-07 11:50:40.16	178.94	66.96	-50.3	-54.0	19.6	6.06e-01	0	43	0	510132224	71	5783
2026-01-07 11:50:41.16	179.35	67.49	-50.2	-54.1	19.6	6.06e-01	0	43	0	512229376	71	5831
2026-01-07 11:50:42.16	179.77	68.02	-50.3	-54.7	19.0	6.08e-01	0	43	0	514326528	71	6208
2026-01-07 11:50:43.17	180.23	68.55	-50.3	-54.3	19.4	6.08e-01	0	44	0	515899392	71	5934
2026-01-07 11:50:44.17	180.70	69.08	-50.6	-54.4	19.3	6.08e-01	0	43	0	517996544	71	6055
2026-01-07 11:50:45.17	181.20	69.62	-50.6	-54.4	19.3	6.05e-01	0	43	0	519569408	71	6054
2026-01-07 11:50:46.18	181.73	70.16	-50.9	-55.0	18.6	6.05e-01	0	43	0	521666560	72	6130
2026-01-07 11:50:47.18	182.30	70.70	-50.1	-53.6	20.0	6.07e-01	0	43	0	523239424	72	5187
2026-01-07 11:50:48.18	182.89	71.24	-50.2	-53.8	19.9	6.06e-01	0	44	0	525336576	72	5307
2026-01-07 11:50:49.19	183.53	71.78	-50.4	-54.3	19.3	6.09e-01	0	43	0	527433728	72	5602
2026-01-07 11:50:50.19	184.20	72.32	-49.9	-53.4	20.3	6.06e-01	0	44	0	529006592	71	5360
2026-01-07 11:50:51.19	184.92	72.86	-49.6	-52.9	20.8	6.07e-01	0	44	0	531103744	71	5088
2026-01-07 11:50:52.19	185.68	73.40	-49.6	-53.0	20.7	6.07e-01	0	43	0	532676608	71	5134
2026-01-07 11:50:53.20	186.51	73.95	-49.3	-52.6	21.0	6.06e-01	0	43	0	534773760	70	5209
2026-01-07 11:50:54.20	187.39	74.48	-49.3	-52.7	21.0	6.08e-01	0	43	0	536870912	70	5248
2026-01-07 11:50:55.20	188.34	75.02	-48.9	-52.4	21.2	6.06e-01	0	44	0	538443776	69	5346
2026-01-07 11:50:56.20	189.36	75.56	-48.9	-52.3	21.3	6.06e-01	0	43	0	540540928	69	5291
2026-01-07 11:50:57.20	190.46	76.09	-49.0	-52.2	21.5	6.07e-01	0	43	0	542113792	69	5250
2026-01-07 11:50:58.21	191.66	76.62	-48.8	-51.8	21.9	6.08e-01	0	43	0	544210944	69	4990
2026-01-07 11:50:59.21	192.95	77.15	-48.6	-51.6	22.0	6.08e-01	0	43	0	545783808	69	4926
2026-01-07 11:51:00.21	194.35	77.67	-48.4	-51.4	22.1	6.07e-01	0	43	0	547880960	68	5084
2026-01-07 11:51:01.22	195.90	78.19	-48.5	-51.5	22.1	6.08e-01	0	43	0	549978112	68	5135
2026-01-07 11:51:02.22	197.57	78.70	-48.1	-51.0	22.5	6.05e-01	0	43	0	551550976	68	4870
2026-01-07 11:51:03.22	199.41	79.20	-47.7	-50.6	22.8	6.09e-01	0	43	0	553648128	67	4892
2026-01-07 11:51:04.23	201.44	79.69	-47.6	-50.4	23.1	6.07e-01	0	43	0	555220992	67	4773
2026-01-07 11:51:05.23	203.65	80.16	-47.3	-49.9	23.5	6.07e-01	0	43	0	557318144	66	4813
2026-01-07 11:51:06.23	206.09	80.62	-47.3	-50.0	23.5	6.07e-01	0	43	0	559415296	66	4816
2026-01-07 11:51:07.23	208.77	81.07	-46.6	-49.3	24.2	6.08e-01	0	43	0	560988160	65	4715
2026-01-07 11:51:08.24	211.77	81.49	-46.8	-49.5	23.9	6.07e-01	0	43	0	563085312	65	4861
2026-01-07 11:51:09.24	215.04	81.89	-46.6	-49.2	24.1	6.06e-01	0	43	0	564658176	65	4682
2026-01-07 11:51:10.24	218.64	82.26	-46.5	-49.1	24.3	6.06e-01	0	43	0	566755328	64	4907
2026-01-07 11:51:11.25	222.63	82.60	-46.6	-49.3	24.0	6.06e-01	0	43	0	568852480	64	5015
2026-01-07 11:51:12.25	226.94	82.90	-47.0	-49.6	23.7	6.08e-01	0	43	0	570425344	64	5214
2026-01-07 11:51:13.25	231.60	83.16	-46.8	-49.4	23.9	6.08e-01	0	43	0	572522496	64	5080
2026-01-07 11:51:14.25	236.60	83.37	-47.1	-49.9	23.5	6.06e-01	0	43	0	574095360	65	5061
2026-01-07 11:51:15.26	241.93	83.52	-47.1	-49.8	23.5	6.08e-01	0	43	0	576192512	65	5031
2026-01-07 11:51:16.26	247.42	83.62	-47.0	-49.7	23.7	6.09e-01	0	43	0	577765376	65	4955
2026-01-07 11:51:17.26	253.03	83.66	-47.0	-49.7	23.6	6.07e-01	0	43	0	579862528	65	4970
2026-01-07 11:51:18.26	258.65	83.64	-47.0	-49.7	23.7	6.07e-01	0	43	0	581959680	65	4927
2026-01-07 11:51:19.27	264.24	83.56	-46.7	-49.4	23.9	6.06e-01	0	43	0	583532544	65	4770
2026-01-07 11:51:20.27	269.59	83.42	-46.8	-49.4	24.0	6.09e-01	0	43	0	585629696	65	4771
2026-01-07 11:51:21.27	274.66	83.22	-46.8	-49.4	23.9	6.07e-01	0	43	0	587202560	65	4797
2026-01-07 11:51:22.28	279.47	82.97	-46.7	-49.4	24.0	6.07e-01	0	43	0	589299712	64	5071
2026-01-07 11:51:23.28	283.87	82.69	-47.0	-49.7	23.6	6.07e-01	0	43	0	590872576	64	5266
2026-01-07 11:51:24.28	287.92	82.36	-46.8	-49.4	24.0	6.08e-01	0	43	0	592969728	64	5061
2026-01-07 11:51:25.29	291.65	81.99	-46.9	-49.5	23.9	6.07e-01	0	44	0	595066880	64	5116
2026-01-07 11:51:26.29	295.00	81.60	-47.0	-49.6	23.8	6.07e-01	0	43	0	596639744	64	5197
2026-01-07 11:51:27.29	298.05	81.19	-47.4	-50.2	23.1	6.06e-01	0	43	0	598736896	65	5235
2026-01-07 11:51:28.29	300.81	80.75	-47.2	-49.9	23.4	6.07e-01	0	43	0	600834048	65	5093
2026-01-07 11:51:29.29	303.31	80.30	-47.5	-50.4	23.0	6.07e-01	0	43	0	602406912	65	5354
2026-01-07 11:51:30.30	305.61	79.82	-47.5	-50.3	23.1	6.06e-01	0	44	0	604504064	65	5317
2026-01-07 11:51:31.30	307.67	79.34	-47.6	-50.3	23.1	6.06e-01	0	44	0	606076928	65	5338
2026-01-07 11:51:32.31	309.57	78.84	-48.0	-51.0	22.5	6.06e-01	0	44	0	608174080	66	5438
2026-01-07 11:51:33.31	311.28	78.33	-47.9	-50.9	22.3	6.08e-01	0	43	0	609746944	66	5367
2026-01-07 11:51:34.31	312.85	77.82	-48.1	-51.1	22.4	6.08e-01	0	44	0	611844096	67	5178
2026-01-07 11:51:35.31	314.28	77.30	-48.4	-51.5	22.0	6.06e-01	0	44	0	613941248	67	5431
2026-01-07 11:51:36.32	315.62	76.77	-48.7	-52.0	21.6	6.06e-01	0	44	0	615514112	68	5450
2026-01-07 11:51:37.32	316.83	76.25	-48.9	-52.5	21.1	6.08e-01	0	44	0	617611264	68	5742
2026-01-07 11:51:38.33	317.97	75.71	-48.8	-52.1	21.6	6.07e-01	0	43	0	619184128	68	5503
2026-01-07 11:51:39.33	319.01	75.17	-49.2	-52.5	21.1	6.07e-01	0	44	0	621281280	69	5453
2026-01-07 11:51:40.34	319.98	74.63	-49.0	-52.2	21.4	6.07e-01	0	44	0	622854144	69	5226
2026-01-07 11:51:41.34	320.88	74.10	-49.3	-52.8	20.9	6.06e-01	0	43	0	624951296	69	5620
2026-01-07 11:51:42.34	321.71	73.56	-49.3	-52.6	21.1	6.07e-01	0	43	0	627048448	69	5491
2026-01-07 11:51:43.35	322.50	73.01	-49.2	-52.4	21.3	6.07e-01	0	43	0	628621312	69	5356
2026-01-07 11:51:44.35	323.23	72.47	-49.7	-53.1	20.5	6.05e-01	0	43	0	630718464	70	5525
2026-01-07 11:51:45.36	323.92	71.93	-49.4	-52.7	21.0	6.08e-01	0	44	0	632815616	70	5252
2026-01-07 11:51:46.36	324.56	71.39	-49.1	-52.4	21.3	6.06e-01	0	44	0	634388480	70	5074
2026-01-07 11:51:47.36	325.17	70.85	-49.4	-52.7	21.0	6.07e-01	0	43	0	636485632	70	5238
2026-01-07 11:51:48.37	325.74	70.31	-49.7	-53.2	20.6	6.08e-01	0	44	0	638058496	70	5541
2026-01-07 11:51:49.37	326.28	69.78	-49.4	-52.8	20.9	6.09e-01	0	44	0	640155648	70	5310
2026-01-07 11:51:50.37	326.78	69.24	-49.3	-52.6	21.0	6.07e-01	0	43	0	641728512	70	5212
2026-01-07 11:51:51.38	327.27	68.71	-49.4	-52.9	20.9	6.08e-01	0	43	0	643825664	70	5345
2026-01-07 11:51:52.38	327.72	68.18	-50.2	-53.9	19.8	6.07e-01	0	43	0	645922816	71	5671
2026-01-07 11:51:53.39	328.16	67.64	-49.6	-52.9	20.8	6.07e-01	0	44	0	647495680	71	5071
2026-01-07 11:51:54.39	328.57	67.12	-49.5	-52.9	20.8	6.07e-01	0	44	0	649592832	71	5044
2026-01-07 11:51:55.39	328.96	66.60	-49.4	-52.7	21.0	6.08e-01	0	43	0	651165696	70	5246
2026-01-07 11:51:56.40	329.33	66.07	-50.1	-53.7	20.0	6.06e-01	0	44	0	653262848	70	5899
2026-01-07 11:51:57.40	329.69	65.55	-49.1	-52.2	21.3	6.07e-01	0	44	0	655360000	70	4970
2026-01-07 11:51:58.40	330.03	65.04	-48.5	-51.5	22.1	6.05e-01	0	44	0	656932864	68	5121
2026-01-07 11:51:59.40	330.35	64.53	-48.5	-51.7	21.9	6.08e-01	0	43	0	659030016	68	5231
2026-01-07 11:52:00.40	330.66	64.02	-48.5	-51.6	22.0	6.08e-01	0	43	0	660602880	68	5186
2026-01-07 11:52:01.41	330.96	63.50	-48.0	-50.9	22.7	6.07e-01	0	43	0	662700032	68	4781
2026-01-07 11:52:02.41	331.24	63.00	-47.9	-50.7	22.8	6.06e-01	0	44	0	664272896	67	4937
2026-01-07 11:52:03.42	331.51	62.50	-47.6	-50.3	23.1	6.07e-01	0	43	0	666370048	67	4745
2026-01-07 11:52:04.42	331.77	62.00	-47.7	-50.5	23.0	6.08e-01	0	43	0	668467200	67	4820
2026-01-07 11:52:05.42	332.02	61.51	-47.2	-49.9	23.5	6.07e-01	0	43	0	670040064	66	4786
2026-01-07 11:52:06.43	332.27	61.01	-47.4	-50.1	23.3	6.06e-01	0	43	0	672137216	66	4892
2026-01-07 11:52:07.43	332.50	60.53	-47.2	-49.8	23.5	6.06e-01	0	43	0	673710080	66	4755
2026-01-07 11:52:08.44	332.72	60.04	-47.0	-49.5	23.8	6.05e-01	0	43	0	675807232	66	4576
2026-01-07 11:52:09.44	332.94	59.56	-47.3	-50.0	23.5	6.06e-01	0	43	0	677904384	66	4832
2026-01-07 11:52:10.44	333.15	59.08	-47.1	-49.7	23.7	6.07e-01	0	43	0	679477248	66	4683
2026-01-07 11:52:11.45	333.35	58.61	-46.9	-49.5	23.9	6.06e-01	0	44	0	681574400	65	4849
2026-01-07 11:52:12.45	333.54	58.14	-46.9	-49.5	23.9	6.07e-01	0	43	0	683147264	65	4829
2026-01-07 11:52:13.45	333.73	57.67	-46.8	-49.5	23.9	6.07e-01	0	44	0	685244416	65	4825
2026-01-07 11:52:14.45	333.91	57.21	-46.6	-49.3	24.0	6.06e-01	0	43	0	687341568	65	4724
2026-01-07 11:52:15.46	334.08	56.75	-46.2	-48.8	24.5	6.07e-01	0	44	0	688914432	64	4759
2026-01-07 11:52:16.46	334.25	56.29	-46.0	-48.5	24.8	6.07e-01	0	44	0	691011584	64	4563
2026-01-07 11:52:17.46	334.42	55.84	-46.1	-48.5	24.8	6.06e-01	0	43	0	692584448	63	4861
2026-01-07 11:52:18.47	334.58	55.39	-46.2	-48.6	24.7	6.07e-01	0	43	0	694681600	63	4912
2026-01-07 11:52:19.47	334.73	54.95	-45.9	-48.4	24.9	6.06e-01	0	44	0	696254464	63	4810
2026-01-07 11:52:20.47	334.88	54.51	-45.6	-48.1	25.2	6.06e-01	0	44	0	698351616	63	4650
2026-01-07 11:52:21.48	335.02	54.07	-45.8	-48.3	25.0	6.06e-01	0	43	0	700448768	63	4724
2026-01-07 11:52:22.48	335.16	53.64	-45.8	-48.3	25.0	6.07e-01	0	44	0	702021632	63	4736
2026-01-07 11:52:23.48	335.30	53.21	-46.0	-48.4	25.0	6.04e-01	0	43	0	704118784	63	4763
2026-01-07 11:52:24.48	335.43	52.78	-45.8	-48.1	25.1	6.07e-01	0	43	0	705691648	63	4642
2026-01-07 11:52:25.48	335.56	52.36	-45.9	-48.3	25.0	6.06e-01	0	43	0	707788800	63	4710
2026-01-07 11:52:26.48	335.69	51.94	-46.2	-48.7	24.6	6.09e-01	0	43	0	709885952	63	4978
2026-01-07 11:52:27.49	335.81	51.52	-46.2	-48.8	24.6	6.06e-01	0	43	0	711458816	63	5013
2026-01-07 11:52:28.49	335.93	51.11	-46.2	-48.7	24.6	6.07e-01	0	44	0	713555968	63	4956
2026-01-07 11:52:29.49	336.04	50.71	-46.1	-48.7	24.7	6.05e-01	0	43	0	715128832	63	4938
2026-01-07 11:52:30.50	336.16	50.30	-46.6	-49.2	24.2	6.04e-01	0	43	0	717225984	63	5252
2026-01-07 11:52:31.50	336.27	49.90	-46.7	-49.3	24.0	6.07e-01	0	43	0	719323136	64	5039
2026-01-07 11:52:32.51	336.37	49.50	-46.8	-49.3	24.0	6.09e-01	0	43	0	720896000	64	5014
2026-01-07 11:52:33.51	336.48	49.11	-46.9	-49.4	23.9	6.07e-01	0	43	0	722993152	64	5095
2026-01-07 11:52:34.52	336.58	48.71	-46.6	-49.2	24.1	6.07e-01	0	43	0	724566016	64	4942
2026-01-07 11:52:35.52	336.68	48.33	-46.5	-49.1	24.2	6.06e-01	0	43	0	726663168	64	4889
2026-01-07 11:52:36.52	336.77	47.95	-46.5	-49.1	24.2	6.08e-01	0	43	0	728236032	64	4926
2026-01-07 11:52:37.53	336.87	47.57	-46.5	-49.1	24.2	6.09e-01	0	44	0	730333184	64	4902
2026-01-07 11:52:38.53	336.96	47.19	-46.5	-49.1	24.2	6.05e-01	0	43	0	732430336	64	4892
2026-01-07 11:52:39.53	337.05	46.82	-46.6	-49.2	24.1	6.06e-01	0	44	0	734003200	64	4959
2026-01-07 11:52:40.54	337.14	46.45	-46.7	-49.3	24.0	6.06e-01	0	43	0	736100352	64	5030
2026-01-07 11:52:41.54	337.23	46.08	-46.8	-49.4	23.9	6.06e-01	0	43	0	738197504	64	5075
2026-01-07 11:52:42.54	337.31	45.72	-46.8	-49.5	23.8	6.09e-01	0	43	0	739770368	64	5135
2026-01-07 11:52:43.55	337.39	45.36	-46.9	-49.6	23.7	6.06e-01	0	43	0	741867520	64	5199
2026-01-07 11:52:44.55	337.47	45.00	-47.0	-49.6	23.7	6.07e-01	0	43	0	743440384	64	5215
2026-01-07 11:52:45.55	337.55	44.65	-47.0	-49.6	23.8	6.07e-01	0	43	0	745537536	64	5201
2026-01-07 11:52:46.56	337.63	44.30	-47.0	-49.6	23.7	6.07e-01	0	43	0	747110400	64	5209
2026-01-07 11:52:47.56	337.71	43.95	-46.7	-49.3	24.0	6.06e-01	0	44	0	749207552	64	5041
2026-01-07 11:52:48.56	337.78	43.61	-46.6	-49.4	23.9	6.07e-01	0	44	0	751304704	64	5052
2026-01-07 11:52:49.57	337.85	43.27	-46.7	-49.5	23.8	6.06e-01	0	44	0	752877568	64	5150
2026-01-07 11:52:50.57	337.92	42.93	-46.9	-49.8	23.5	6.06e-01	0	44	0	754974720	64	5327
2026-01-07 11:52:51.58	337.99	42.60	-46.9	-49.9	23.4	6.07e-01	0	43	0	756547584	64	5379
2026-01-07 11:52:52.58	338.06	42.27	-46.9	-49.9	23.5	6.08e-01	0	44	0	758644736	64	5356
2026-01-07 11:52:53.58	338.13	41.94	-47.0	-49.9	23.5	6.07e-01	0	43	0	760217600	64	5362
2026-01-07 11:52:54.59	338.19	41.61	-47.1	-49.9	23.4	6.05e-01	0	43	0	762314752	64	5364
2026-01-07 11:52:55.59	338.26	41.29	-47.2	-49.9	23.4	6.07e-01	0	44	0	764411904	65	5084
2026-01-07 11:52:56.59	338.32	40.98	-47.3	-50.0	23.4	6.06e-01	0	43	0	765984768	65	5142
2026-01-07 11:52:57.59	338.38	40.66	-47.6	-50.4	23.0	6.07e-01	0	44	0	768081920	65	5390
2026-01-07 11:52:58.60	338.44	40.35	-47.7	-50.7	22.7	6.06e-01	0	44	0	769654784	66	5247
2026-01-07 11:52:59.60	338.50	40.04	-47.7	-50.6	22.8	6.08e-01	0	43	0	771751936	66	5199
2026-01-07 11:53:00.61	338.56	39.73	-47.7	-50.6	22.8	6.06e-01	0	43	0	773849088	66	5202
2026-01-07 11:53:01.61	338.62	39.43	-47.6	-50.3	23.0	6.08e-01	0	43	0	775421952	66	5041
2026-01-07 11:53:02.61	338.68	39.12	-47.6	-50.4	23.0	6.06e-01	0	44	0	777519104	66	5073
2026-01-07 11:53:03.61	338.73	38.83	-47.8	-50.7	22.7	6.06e-01	0	43	0	779091968	66	5251
2026-01-07 11:53:04.62	338.79	38.53	-47.8	-50.8	22.6	6.06e-01	0	44	0	781189120	66	5305
2026-01-07 11:53:05.62	338.84	38.24	-47.7	-50.6	22.8	6.08e-01	0	43	0	783286272	66	5191
2026-01-07 11:53:06.62	338.89	37.95	-47.5	-50.3	23.0	6.06e-01	0	43	0	784859136	66	5037
2026-01-07 11:53:07.62	338.95	37.66	-47.5	-50.3	23.0	6.08e-01	0	44	0	786956288	66	5024
2026-01-07 11:53:08.62	339.00	37.37	-47.5	-50.3	23.1	6.07e-01	0	43	0	788529152	66	4998
2026-01-07 11:53:09.63	339.05	37.09	-47.1	-49.8	23.5	6.06e-01	0	44	0	790626304	66	4746
2026-01-07 11:53:10.63	339.10	36.81	-46.8	-49.5	23.7	6.05e-01	0	43	0	792199168	65	4866
2026-01-07 11:53:11.63	339.15	36.53	-46.7	-49.5	23.8	6.06e-01	0	43	0	794296320	65	4820
2026-01-07 11:53:12.64	339.19	36.26	-46.5	-49.3	24.0	6.08e-01	0	44	0	796393472	65	4731
2026-01-07 11:53:13.64	339.24	35.98	-46.5	-49.4	23.9	6.08e-01	0	44	0	797966336	64	5056
2026-01-07 11:53:14.64	339.29	35.71	-46.4	-49.3	24.0	6.08e-01	0	43	0	800063488	64	4988
2026-01-07 11:53:15.64	339.33	35.45	-46.4	-49.3	24.0	6.07e-01	0	44	0	801636352	64	5006
2026-01-07 11:53:16.65	339.38	35.18	-46.4	-49.2	24.0	6.07e-01	0	44	0	803733504	64	4981
2026-01-07 11:53:17.65	339.42	34.92	-46.4	-49.1	24.1	6.05e-01	0	44	0	805830656	64	4923
2026-01-07 11:53:18.65	339.47	34.66	-46.5	-49.1	24.1	6.07e-01	0	44	0	807403520	64	4908
2026-01-07 11:53:19.65	339.51	34.40	-46.5	-49.1	24.1	6.08e-01	0	43	0	809500672	64	4926
2026-01-07 11:53:20.65	339.55	34.14	-46.4	-49.0	24.3	6.07e-01	0	43	0	811073536	64	4839
2026-01-07 11:53:21.66	339.59	33.89	-46.4	-49.0	24.2	6.07e-01	0	44	0	813170688	64	4845
2026-01-07 11:53:22.66	339.63	33.63	-46.1	-48.7	24.5	6.06e-01	0	44	0	814743552	64	4683
2026-01-07 11:53:23.66	339.67	33.39	-46.0	-48.6	24.7	6.08e-01	0	43	0	816840704	63	4892
2026-01-07 11:53:24.67	339.71	33.14	-46.1	-48.6	24.7	6.06e-01	0	43	0	818937856	63	4900
2026-01-07 11:53:25.67	339.75	32.89	-45.9	-48.4	24.8	6.06e-01	0	44	0	820510720	63	4786
2026-01-07 11:53:26.67	339.79	32.65	-45.6	-48.2	23.1	6.07e-01	0	43	0	822607872	63	4688
2026-01-07 11:53:27.68	339.83	32.41	-45.5	-48.2	25.0	6.05e-01	0	44	0	824180736	63	4693
2026-01-07 11:53:28.68	339.87	32.17	-45.5	-48.3	24.9	6.07e-01	0	44	0	826277888	63	4722
2026-01-07 11:53:29.68	339.91	31.93	-45.5	-48.2	24.9	6.07e-01	0	43	0	828375040	63	4678
2026-01-07 11:53:30.68	339.94	31.70	-45.5	-48.2	25.0	6.06e-01	0	44	0	829947904	63	4687
2026-01-07 11:53:31.69	339.98	31.46	-45.6	-48.2	25.0	6.06e-01	0	44	0	832045056	63	4688
2026-01-07 11:53:32.69	340.02	31.23	-45.7	-48.3	24.9	6.04e-01	0	44	0	833617920	63	4722
2026-01-07 11:53:33.69	340.05	31.00	-45.7	-48.4	24.9	6.06e-01	0	44	0	835715072	63	4763
2026-01-07 11:53:34.70	340.09	30.77	-45.8	-48.4	24.8	6.06e-01	0	43	0	837812224	63	4786
2026-01-07 11:53:35.70	340.12	30.55	-45.8	-48.4	24.8	6.07e-01	0	43	0	839385088	63	4795
2026-01-07 11:53:36.70	340.15	30.32	-45.8	-48.4	24.8	6.05e-01	0	44	0	841482240	63	4791
2026-01-07 11:53:37.71	340.19	30.10	-45.8	-48.4	24.8	6.07e-01	0	43	0	843055104	63	4804
2026-01-07 11:53:38.71	340.22	29.88	-45.8	-48.4	24.8	6.06e-01	0	43	0	845152256	63	4797
2026-01-07 11:53:39.72	340.25	29.66	-45.8	-48.4	24.8	6.06e-01	0	43	0	846725120	63	4798
2026-01-07 11:53:40.72	340.29	29.45	-45.9	-48.4	24.8	6.06e-01	0	43	0	848822272	63	4798
2026-01-07 11:53:41.72	340.32	29.23	-45.9	-48.4	24.8	6.06e-01	0	43	0	850919424	63	4762
2026-01-07 11:53:42.72	340.35	29.02	-45.9	-48.3	24.9	6.06e-01	0	43	0	852492288	63	4743
2026-01-07 11:53:43.73	340.38	28.81	-45.9	-48.4	24.8	6.06e-01	0	43	0	854589440	63	4779
2026-01-07 11:53:44.73	340.41	28.60	-45.9	-48.4	24.8	6.06e-01	0	44	0	856162304	63	4792
2026-01-07 11:53:45.73	340.44	28.39	-45.9	-48.4	24.8	6.06e-01	0	43	0	858259456	63	4813
2026-01-07 11:53:46.74	340.47	28.18	-45.9	-48.5	24.7	6.06e-01	0	44	0	860356608	63	4845
2026-01-07 11:53:47.74	340.50	27.98	-45.9	-48.6	24.6	6.06e-01	0	43	0	861929472	63	4895
2026-01-07 11:53:48.75	340.53	27.77	-46.1	-48.8	24.4	6.07e-01	0	43	0	864026624	63	5017
2026-01-07 11:53:49.75	340.56	27.57	-46.1	-48.8	24.4	6.08e-01	0	44	0	865599488	63	5037
2026-01-07 11:53:50.75	340.59	27.37	-46.2	-49.0	24.3	6.08e-01	0	44	0	867696640	63	5105
2026-01-07 11:53:51.76	340.62	27.17	-46.3	-49.0	24.2	6.06e-01	0	44	0	869793792	63	5136
2026-01-07 11:53:52.76	340.65	26.98	-46.4	-49.1	24.2	6.09e-01	0	44	0	871366656	63	5182
2026-01-07 11:53:53.76	340.68	26.78	-46.5	-49.1	24.1	6.08e-01	0	43	0	873463808	63	5196
2026-01-07 11:53:54.76	340.70	26.59	-46.5	-49.2	24.1	6.05e-01	0	44	0	875036672	63	5237
2026-01-07 11:53:55.77	340.73	26.40	-46.4	-49.3	24.0	6.05e-01	0	44	0	877133824	63	5280
2026-01-07 11:53:56.77	340.76	26.21	-46.3	-49.3	23.9	6.06e-01	0	43	0	878706688	63	5318
2026-01-07 11:53:57.77	340.78	26.02	-46.3	-49.3	24.0	6.05e-01	0	43	0	880803840	63	5330
2026-01-07 11:53:58.77	340.81	25.83	-46.2	-49.3	23.9	6.06e-01	0	44	0	882900992	63	5338
2026-01-07 11:53:59.77	340.84	25.65	-46.3	-49.5	23.8	6.07e-01	0	43	0	884473856	63	5417
2026-01-07 11:54:00.78	340.86	25.46	-46.3	-49.6	23.7	6.07e-01	0	43	0	886571008	63	5491
2026-01-07 11:54:01.78	340.89	25.28	-46.4	-49.7	23.6	6.08e-01	0	44	0	888143872	63	5537
2026-01-07 11:54:02.78	340.91	25.09	-46.4	-49.5	23.8	6.09e-01	0	43	0	890241024	63	5440
2026-01-07 11:54:03.78	340.94	24.91	-46.6	-49.5	23.7	6.06e-01	0	44	0	891813888	63	5462
2026-01-07 11:54:04.79	340.96	24.73	-46.6	-49.6	23.7	6.08e-01	0	44	0	893911040	63	5483
2026-01-07 11:54:05.79	340.99	24.56	-46.7	-49.6	23.6	6.06e-01	0	43	0	896008192	64	5197
2026-01-07 11:54:06.79	341.01	24.38	-46.7	-49.5	23.7	6.05e-01	0	43	0	897581056	64	5146
2026-01-07 11:54:07.79	341.04	24.20	-46.6	-49.5	23.7	6.06e-01	0	43	0	899678208	64	5119
2026-01-07 11:54:08.80	341.06	24.03	-46.7	-49.6	23.6	6.06e-01	0	43	0	901775360	64	5177
2026-01-07 11:54:09.80	341.08	23.86	-46.7	-49.7	23.6	6.09e-01	0	44	0	903348224	64	5221
2026-01-07 11:54:10.80	341.11	23.68	-46.5	-49.5	23.7	6.08e-01	0	43	0	905445376	64	5153
2026-01-07 11:54:11.80	341.13	23.51	-46.4	-49.5	23.7	6.03e-01	0	44	0	907018240	64	5130
2026-01-07 11:54:12.81	341.15	23.34	-46.2	-49.5	23.7	6.05e-01	0	44	0	909115392	64	5117
2026-01-07 11:54:13.81	341.18	23.18	-46.1	-49.4	23.7	6.03e-01	0	44	0	910688256	64	5078
2026-01-07 11:54:14.81	341.20	23.01	-46.0	-49.4	23.7	6.02e-01	0	44	0	912785408	64	5087
2026-01-07 11:54:15.82	341.22	22.84	-46.0	-49.5	23.7	6.04e-01	0	44	0	914882560	64	5107
2026-01-07 11:54:16.82	341.24	22.68	-46.1	-49.4	23.7	6.00e-01	0	43	0	916455424	64	5082
2026-01-07 11:54:17.82	341.27	22.52	-46.2	-49.4	23.8	6.04e-01	0	43	0	918552576	64	5048
2026-01-07 11:54:18.83	341.29	22.35	-46.4	-49.3	23.8	6.03e-01	0	44	0	920125440	64	5030
2026-01-07 11:54:19.83	341.31	22.19	-46.5	-49.2	23.9	6.04e-01	0	44	0	922222592	64	4979
2026-01-07 11:54:20.83	341.33	22.03	-46.5	-49.2	23.9	6.02e-01	0	43	0	923795456	64	4965
2026-01-07 11:54:21.83	341.35	21.87	-46.6	-49.2	23.9	6.04e-01	0	43	0	925892608	64	4975
2026-01-07 11:54:22.84	341.37	21.71	-46.5	-49.2	24.0	6.03e-01	0	43	0	927989760	64	4957
2026-01-07 11:54:23.84	341.39	21.56	-46.4	-49.1	24.0	6.05e-01	0	43	0	929562624	64	4920
2026-01-07 11:54:24.84	341.41	21.40	-46.3	-49.2	24.0	6.02e-01	0	43	0	931659776	64	4930
2026-01-07 11:54:25.85	341.43	21.25	-46.1	-49.0	24.1	6.03e-01	0	44	0	933756928	64	4832
2026-01-07 11:54:26.85	341.45	21.09	-46.0	-49.0	24.1	6.04e-01	0	44	0	935329792	64	4862
2026-01-07 11:54:27.85	341.47	20.94	-46.0	-49.0	24.1	6.01e-01	0	44	0	937426944	64	4834
2026-01-07 11:54:28.86	341.49	20.79	-46.0	-49.0	24.1	6.04e-01	0	44	0	938999808	64	4846
2026-01-07 11:54:29.86	341.51	20.64	-46.2	-49.1	24.0	6.03e-01	0	44	0	941096960	64	4897
2026-01-07 11:54:30.87	341.53	20.49	-46.4	-49.1	24.0	6.03e-01	0	43	0	942669824	64	4918
2026-01-07 11:54:31.87	341.55	20.34	-46.5	-49.1	24.0	6.02e-01	0	43	0	944766976	64	4925
2026-01-07 11:54:32.87	341.57	20.19	-46.5	-49.1	24.0	6.03e-01	0	43	0	946864128	64	4906
2026-01-07 11:54:33.88	341.59	20.04	-46.5	-49.1	24.0	6.04e-01	0	43	0	948436992	64	4895
2026-01-07 11:54:34.88	341.61	19.90	-46.5	-49.1	24.1	6.05e-01	0	43	0	950534144	64	4894
2026-01-07 11:54:35.88	341.63	19.75	-46.4	-49.0	24.1	6.04e-01	0	43	0	952107008	64	4855
2026-01-07 11:54:36.89	341.65	19.61	-46.4	-49.0	24.1	6.02e-01	0	43	0	954204160	64	4857
2026-01-07 11:54:37.89	341.67	19.46	-46.3	-49.0	24.1	6.04e-01	0	43	0	956301312	64	4845
2026-01-07 11:54:38.89	341.69	19.32	-46.4	-49.1	24.0	6.06e-01	0	43	0	957874176	64	4884
2026-01-07 11:54:39.90	341.70	19.18	-46.2	-49.0	24.1	6.03e-01	0	44	0	959971328	64	4844
2026-01-07 11:54:40.90	341.72	19.04	-46.1	-49.0	24.2	6.04e-01	0	43	0	961544192	64	4815
2026-01-07 11:54:41.90	341.74	18.90	-46.1	-49.0	24.2	6.06e-01	0	44	0	963641344	64	4815
2026-01-07 11:54:42.91	341.76	18.76	-46.1	-48.9	24.1	6.02e-01	0	43	0	965214208	64	4813
2026-01-07 11:54:43.91	341.78	18.62	-46.0	-48.9	24.2	6.01e-01	0	43	0	967311360	64	4764
2026-01-07 11:54:44.92	341.79	18.49	-46.0	-48.9	24.3	6.04e-01	0	44	0	969408512	63	5055
2026-01-07 11:54:45.92	341.81	18.35	-46.1	-48.9	24.2	6.05e-01	0	44	0	970981376	63	5075
2026-01-07 11:54:46.92	341.83	18.21	-46.2	-48.9	24.2	6.02e-01	0	43	0	973078528	63	5099
2026-01-07 11:54:47.93	341.85	18.08	-46.2	-48.9	24.2	6.04e-01	0	44	0	974651392	63	5082
2026-01-07 11:54:48.93	341.86	17.95	-46.2	-48.9	24.2	6.02e-01	0	44	0	976748544	63	5077
2026-01-07 11:54:49.93	341.88	17.81	-46.3	-49.0	24.2	6.03e-01	0	44	0	978845696	63	5105
2026-01-07 11:54:50.94	341.90	17.68	-46.2	-48.9	24.2	6.02e-01	0	44	0	980418560	63	5095
2026-01-07 11:54:51.94	341.91	17.55	-46.2	-49.0	24.2	6.03e-01	0	43	0	982515712	63	5108
2026-01-07 11:54:52.95	341.93	17.42	-46.0	-49.0	24.1	6.02e-01	0	43	0	984088576	63	5124
2026-01-07 11:54:53.95	341.95	17.29	-45.9	-49.0	24.1	6.04e-01	0	43	0	986185728	63	5120
2026-01-07 11:54:54.95	341.96	17.16	-45.9	-49.1	24.0	6.03e-01	0	43	0	988282880	63	5196
2026-01-07 11:54:55.95	341.98	17.03	-45.7	-49.1	24.0	6.05e-01	0	44	0	989855744	63	5202
2026-01-07 11:54:56.95	342.00	16.90	-45.6	-49.1	24.0	6.05e-01	0	44	0	991952896	63	5178
2026-01-07 11:54:57.96	342.01	16.78	-45.6	-49.0	24.1	6.00e-01	0	43	0	993525760	63	5130
2026-01-07 11:54:58.96	342.03	16.65	-45.7	-49.1	24.0	6.03e-01	0	43	0	995622912	63	5166
2026-01-07 11:54:59.96	342.04	16.53	-45.8	-49.0	24.0	6.04e-01	0	44	0	997195776	63	5148
2026-01-07 11:55:00.97	342.06	16.40	-45.9	-49.1	24.0	6.04e-01	0	44	0	999292928	63	5170
2026-01-07 11:55:01.97	342.07	16.28	-46.1	-49.2	23.8	6.04e-01	0	44	0	1001390080	63	5269
2026-01-07 11:55:02.97	342.09	16.15	-46.2	-49.2	23.8	6.04e-01	0	43	0	1002962944	63	5256
2026-01-07 11:55:03.98	342.11	16.03	-46.4	-49.2	23.8	6.07e-01	0	43	0	1005060096	63	5260
2026-01-07 11:55:04.98	342.12	15.91	-46.4	-49.1	23.9	6.04e-01	0	44	0	1006632960	63	5214
2026-01-07 11:55:05.98	342.14	15.79	-46.4	-49.2	23.9	6.05e-01	0	43	0	1008730112	63	5234
2026-01-07 11:55:06.98	342.15	15.67	-46.5	-49.2	23.9	6.04e-01	0	43	0	1010302976	63	5276
2026-01-07 11:55:07.99	342.17	15.55	-46.3	-49.1	24.0	6.02e-01	0	43	0	1012400128	63	5178
2026-01-07 11:55:08.99	342.18	15.43	-46.2	-49.2	23.9	6.04e-01	0	44	0	1014497280	63	5241
2026-01-07 11:55:09.99	342.20	15.31	-46.0	-49.1	24.0	6.06e-01	0	44	0	1016070144	63	5189
2026-01-07 11:55:10.99	342.21	15.19	-46.0	-49.1	23.9	6.04e-01	0	44	0	1018167296	63	5197
2026-01-07 11:55:11.99	342.23	15.07	-45.9	-49.1	24.0	6.03e-01	0	43	0	1020264448	63	5174
2026-01-07 11:55:13.00	342.24	14.96	-46.0	-49.1	23.9	6.03e-01	0	43	0	1021837312	63	5214
2026-01-07 11:55:14.00	342.25	14.84	-45.9	-49.0	24.0	6.04e-01	0	44	0	1023934464	63	5142
2026-01-07 11:55:15.00	342.27	14.72	-45.9	-48.9	24.0	6.04e-01	0	44	0	1025507328	63	5098
2026-01-07 11:55:16.01	342.28	14.61	-45.9	-49.0	24.1	6.02e-01	0	44	0	1027604480	63	5106
2026-01-07 11:55:17.01	342.30	14.49	-45.9	-49.0	24.1	6.03e-01	0	43	0	1029177344	63	5106
2026-01-07 11:55:18.01	342.31	14.38	-45.9	-49.0	24.1	6.05e-01	0	44	0	1031274496	63	5106
2026-01-07 11:55:19.02	342.33	14.27	-46.0	-49.0	24.0	6.04e-01	0	43	0	1033371648	63	5155
2026-01-07 11:55:20.02	342.34	14.16	-46.0	-49.0	24.0	6.04e-01	0	44	0	1034944512	63	5153
2026-01-07 11:55:21.02	342.35	14.04	-46.0	-49.0	24.0	6.04e-01	0	43	0	1037041664	63	5156
2026-01-07 11:55:22.02	342.37	13.93	-46.1	-49.1	23.9	6.05e-01	0	43	0	1038614528	63	5182
2026-01-07 11:55:23.03	342.38	13.82	-46.1	-49.1	23.9	6.04e-01	0	44	0	1040711680	63	5179
2026-01-07 11:55:24.03	342.40	13.71	-46.1	-49.2	23.9	6.06e-01	0	44	0	1042284544	63	5231
2026-01-07 11:55:25.03	342.41	13.60	-46.0	-49.1	23.9	6.04e-01	0	43	0	1044381696	63	5183
2026-01-07 11:55:26.04	342.42	13.49	-46.0	-49.2	23.9	6.04e-01	0	43	0	1046478848	63	5222
2026-01-07 11:55:27.04	342.44	13.38	-45.8	-49.1	23.9	6.03e-01	0	44	0	1048051712	63	5187
2026-01-07 11:55:28.04	342.45	13.27	-45.8	-49.2	23.8	6.03e-01	0	44	0	1050148864	63	5259
2026-01-07 11:55:29.05	342.46	13.17	-45.8	-49.2	23.8	6.01e-01	0	44	0	1052246016	63	5264
2026-01-07 11:55:30.05	342.48	13.06	-45.8	-49.2	23.7	6.06e-01	0	43	0	1053818880	63	5262
2026-01-07 11:55:31.05	342.49	12.95	-45.8	-49.2	23.8	6.04e-01	0	44	0	1055916032	63	5220
2026-01-07 11:55:32.06	342.50	12.85	-46.0	-49.3	23.7	6.06e-01	0	44	0	1057488896	63	5289
2026-01-07 11:55:33.06	342.52	12.74	-46.1	-49.4	23.6	6.03e-01	0	43	0	1059586048	63	5358
2026-01-07 11:55:34.06	342.53	12.64	-46.1	-49.3	23.7	6.02e-01	0	44	0	1061158912	63	5308
2026-01-07 11:55:35.07	342.54	12.53	-46.2	-49.4	23.6	6.00e-01	0	43	0	1063256064	63	5347
2026-01-07 11:55:36.07	342.55	12.43	-46.2	-49.3	23.6	6.04e-01	0	44	0	1065353216	63	5331
2026-01-07 11:55:37.07	342.57	12.32	-46.4	-49.5	23.5	6.05e-01	0	43	0	1066926080	63	5423
2026-01-07 11:55:38.08	342.58	12.22	-46.5	-49.5	23.5	6.02e-01	0	44	0	1069023232	63	5441
2026-01-07 11:55:39.08	342.59	12.12	-46.6	-49.7	23.3	6.05e-01	0	44	0	1070596096	63	5568
2026-01-07 11:55:40.08	342.61	12.02	-46.5	-49.6	23.4	6.04e-01	0	43	0	1072693248	63	5492
2026-01-07 11:55:41.09	342.62	11.91	-46.5	-49.6	23.4	6.03e-01	0	44	0	1074266112	63	5482
2026-01-07 11:55:42.09	342.63	11.81	-46.5	-49.7	23.3	6.03e-01	0	43	0	1076363264	63	5540
2026-01-07 11:55:43.09	342.64	11.71	-46.5	-49.8	23.2	6.05e-01	0	43	0	1078460416	63	5601
2026-01-07 11:55:44.10	342.66	11.61	-46.5	-49.9	23.0	6.06e-01	0	44	0	1080033280	63	5693
2026-01-07 11:55:45.10	342.67	11.51	-46.4	-49.8	23.2	6.05e-01	0	44	0	1082130432	63	5638
2026-01-07 11:55:46.10	342.68	11.41	-46.3	-49.9	23.1	6.02e-01	0	43	0	1083703296	63	5694
2026-01-07 11:55:47.11	342.69	11.31	-46.3	-50.0	23.0	6.04e-01	0	43	0	1085800448	63	5723
2026-01-07 11:55:48.11	342.70	11.22	-46.0	-49.8	23.2	6.03e-01	0	44	0	1087897600	63	5595
2026-01-07 11:55:49.12	342.72	11.12	-46.1	-49.8	23.1	6.05e-01	0	43	0	1089470464	63	5630
2026-01-07 11:55:50.12	342.73	11.02	-46.1	-49.8	23.1	6.03e-01	0	44	0	1091567616	63	5643
2026-01-07 11:55:51.12	342.74	10.92	-46.0	-49.8	23.1	6.03e-01	0	43	0	1093140480	63	5604
2026-01-07 11:55:52.13	342.75	10.83	-46.1	-49.9	23.0	6.05e-01	0	44	0	1095237632	63	5714
2026-01-07 11:55:53.13	342.76	10.73	-46.1	-49.9	23.1	6.04e-01	0	43	0	1097334784	63	5679
2026-01-07 11:55:54.13	342.78	10.63	-46.2	-50.1	22.8	6.03e-01	0	43	0	1098907648	63	5839
2026-01-07 11:55:55.14	342.79	10.54	-46.2	-50.1	22.9	6.04e-01	0	43	0	1101004800	63	5789
2026-01-07 11:55:56.14	342.80	10.44	-46.1	-49.9	23.0	6.03e-01	0	43	0	1102577664	63	5702
2026-01-07 11:55:57.14	342.81	10.35	-46.2	-50.2	22.7	6.04e-01	0	44	0	1104674816	63	5891
2026-01-07 11:55:58.15	342.82	10.25	-46.2	-50.1	22.9	6.01e-01	0	43	0	1106771968	63	5818
2026-01-07 11:55:59.15	342.83	10.16	-46.2	-50.1	22.8	6.04e-01	0	43	0	1108344832	63	5834
2026-01-07 11:56:00.16	342.85	10.07	-46.0	-49.9	23.0	6.04e-01	0	43	0	1110441984	63	5659
2026-01-07 11:56:01.16	342.86	9.97	-46.1	-50.2	22.7	6.04e-01	0	43	0	1112014848	63	5901
2026-01-07 11:56:02.17	342.87	9.88	-45.7	-50.0	22.9	6.05e-01	0	44	0	1114112000	63	5739
2026-01-07 11:56:03.17	342.88	9.79	-45.9	-50.3	22.6	6.04e-01	0	43	0	1115684864	63	5992
2026-01-07 11:56:04.17	342.89	9.70	-45.4	-50.1	22.8	6.02e-01	0	44	0	1117782016	62	6163
2026-01-07 11:56:05.18	342.90	9.60	-45.2	-50.2	22.6	6.05e-01	0	43	0	1119879168	62	6218
2026-01-07 11:56:06.18	342.91	9.51	-45.2	-50.4	22.4	6.03e-01	0	44	0	1121452032	62	6415
2026-01-07 11:56:07.18	342.92	9.42	-45.0	-50.4	22.5	6.04e-01	0	44	0	1123549184	61	6768
2026-01-07 11:56:08.19	342.94	9.33	-44.8	-50.1	22.6	6.03e-01	0	43	0	1125122048	61	6549
2026-01-07 11:56:09.19	342.95	9.24	-45.0	-50.5	22.3	6.04e-01	0	43	0	1127219200	61	6840
2026-01-07 11:56:10.19	342.96	9.15	-44.9	-50.5	22.3	6.04e-01	0	43	0	1129316352	61	6867
2026-01-07 11:56:11.20	342.97	9.06	-44.9	-50.5	22.2	6.06e-01	0	43	0	1130889216	61	6848
2026-01-07 11:56:12.20	342.98	8.97	-50.4	-68.3	5.6	7.04e-01	0	44	0	1132462080	71	30016
2026-01-07 11:56:13.20	342.99	8.89	-51.1	-74.4	3.8	7.48e-01	0	43	104	1132462080	73	53519
2026-01-07 11:56:14.21	343.00	8.80	-51.9	-74.5	3.8	7.45e-01	0	44	104	1132462080	75	48385
2026-01-07 11:56:15.21	343.01	8.71	-53.0	-74.5	3.8	7.43e-01	0	44	104	1132462080	78	40802
2026-01-07 11:56:16.22	343.02	8.62	-52.7	-74.7	3.8	7.45e-01	0	43	104	1132462080	76	46739
2026-01-07 11:56:17.22	343.03	8.53	-53.4	-74.7	3.8	7.43e-01	0	43	104	1132462080	78	41853
2026-01-07 11:56:18.22	343.04	8.45	-52.9	-74.8	3.8	7.48e-01	0	43	104	1132462080	77	44640
2026-01-07 11:56:19.23	343.05	8.36	-53.8	-74.8	3.9	7.45e-01	0	44	104	1132462080	78	42215
2026-01-07 11:56:20.23	343.06	8.27	-53.5	-74.9	3.8	7.46e-01	0	44	104	1132462080	77	44990
2026-01-07 11:56:21.24	343.08	8.19	-54.3	-74.9	3.8	7.45e-01	0	44	104	1132462080	79	40123
2026-01-07 11:56:22.24	343.09	8.10	-53.1	-74.9	3.8	7.43e-01	0	44	104	1132462080	77	45241
2026-01-07 11:56:23.25	343.10	8.02	-54.3	-74.9	3.8	7.49e-01	0	44	104	1132462080	79	40294
2026-01-07 11:56:24.25	343.11	7.93	-54.6	-74.9	3.8	7.44e-01	0	44	104	1132462080	79	40302
2026-01-07 11:56:25.25	343.12	7.85	-54.4	-74.9	3.8	7.48e-01	0	44	104	1132462080	79	40368
2026-01-07 11:56:26.26	343.13	7.76	-54.3	-74.9	3.8	7.47e-01	0	44	104	1132462080	79	40409
2026-01-07 11:56:27.26	343.14	7.68	-54.6	-74.9	3.8	7.46e-01	0	43	104	1132462080	79	40223
2026-01-07 11:56:28.27	343.15	7.60	-54.3	-74.8	3.8	7.46e-01	0	44	104	1132462080	80	37667
2026-01-07 11:56:29.27	343.16	7.51	-54.3	-74.8	3.8	7.45e-01	0	43	104	1132462080	80	37737
2026-01-07 11:56:30.28	343.17	7.43	-54.6	-74.9	3.8	7.45e-01	0	44	104	1132462080	80	37816
2026-01-07 11:56:31.28	343.18	7.35	-54.4	-74.8	3.8	7.47e-01	0	44	104	1132462080	80	37701
2026-01-07 11:56:32.28	343.19	7.26	-54.4	-74.9	3.8	7.48e-01	0	44	104	1132462080	80	37842
2026-01-07 11:56:33.29	343.20	7.18	-54.5	-74.8	3.8	7.46e-01	0	44	104	1132462080	80	37730
2026-01-07 11:56:34.29	343.21	7.10	-54.4	-74.9	3.8	7.45e-01	0	43	104	1132462080	79	40244
2026-01-07 11:56:35.30	343.22	7.02	-54.5	-74.9	3.8	7.46e-01	0	43	104	1132462080	79	40105
2026-01-07 11:56:36.30	343.23	6.94	-54.2	-74.9	3.8	7.43e-01	0	44	104	1132462080	79	40156
2026-01-07 11:56:37.30	343.24	6.86	-53.8	-74.9	3.8	7.45e-01	0	43	104	1132462080	79	40211
2026-01-07 11:56:38.31	343.25	6.77	-54.2	-74.9	3.8	7.46e-01	0	44	104	1132462080	79	40131
2026-01-07 11:56:39.31	343.26	6.69	-54.1	-74.9	3.8	7.47e-01	0	44	104	1132462080	79	40078
2026-01-07 11:56:40.32	343.27	6.61	-54.0	-74.9	3.8	7.48e-01	0	43	104	1132462080	79	40111
2026-01-07 11:56:41.32	343.28	6.53	-54.1	-74.9	3.8	7.47e-01	0	43	104	1132462080	79	40203
2026-01-07 11:56:42.32	343.29	6.45	-54.0	-74.8	3.8	7.47e-01	0	43	104	1132462080	79	40032
2026-01-07 11:56:43.33	343.30	6.37	-54.1	-74.9	3.8	7.49e-01	0	44	104	1132462080	79	40067
2026-01-07 11:56:44.33	343.31	6.30	-54.1	-74.8	3.8	7.46e-01	0	44	104	1132462080	79	40011
2026-01-07 11:56:45.34	343.32	6.22	-54.0	-74.8	3.8	7.48e-01	0	44	104	1132462080	79	40026
2026-01-07 11:56:46.34	343.33	6.14	-54.1	-74.8	3.8	7.47e-01	0	44	104	1132462080	79	40020
2026-01-07 11:56:47.35	343.34	6.06	-54.0	-74.8	3.8	7.46e-01	0	44	104	1132462080	79	39890
2026-01-07 11:56:48.35	343.35	5.98	-54.0	-74.8	3.8	7.44e-01	0	44	104	1132462080	79	39995
2026-01-07 11:56:49.35	343.36	5.90	-54.0	-74.8	3.8	7.46e-01	0	44	104	1132462080	79	39939
2026-01-07 11:56:50.36	343.36	5.83	-54.0	-74.8	3.8	7.47e-01	0	44	104	1132462080	79	40008
2026-01-07 11:56:51.36	343.37	5.75	-54.0	-74.8	3.8	7.46e-01	0	43	104	1132462080	79	40022
2026-01-07 11:56:52.37	343.38	5.67	-54.0	-74.8	3.8	7.46e-01	0	44	104	1132462080	79	39979
2026-01-07 11:56:53.37	343.39	5.60	-54.0	-74.8	3.8	7.49e-01	0	44	104	1132462080	79	40012
2026-01-07 11:56:54.37	343.40	5.52	-54.1	-74.8	3.8	7.46e-01	0	44	104	1132462080	79	39988
2026-01-07 11:56:55.38	343.41	5.44	-54.0	-74.8	3.8	7.47e-01	0	44	104	1132462080	79	40044
2026-01-07 11:56:56.39	343.42	5.37	-54.1	-74.8	3.8	7.47e-01	0	44	104	1132462080	79	39926
2026-01-07 11:56:57.39	343.43	5.29	-54.0	-74.8	3.8	7.47e-01	0	43	104	1132462080	79	39898
2026-01-07 11:56:58.39	343.44	5.21	-54.0	-74.8	3.8	7.47e-01	0	44	104	1132462080	79	39924
2026-01-07 11:56:59.40	343.45	5.14	-54.1	-74.8	3.8	7.46e-01	0	44	104	1132462080	79	39924
2026-01-07 11:57:00.40	343.46	5.06	-54.0	-74.8	3.8	7.44e-01	0	43	104	1132462080	79	39901
2026-01-07 11:57:01.41	343.47	4.99	-54.0	-74.8	3.8	7.47e-01	0	44	104	1132462080	79	39902

#Closed at: 2026-01-07 11:57:02
#Recorded file [1132 MB]: D:/Data/31040_260107_144536.dat