passes_logs/2026/01/07/T1/T1__20260107_101539_SUOMI_NPP_rec.log

#Pass ID: 20260107_101539_SUOMI NPP
#Satellite: SUOMI NPP
#Configuration: NPP
#almurnet v.1.7.20251203
#Start time: 2026-01-07 10:15:40

#Version: 2.0.20230620
#Station: T1
#Location: 37.570604 lon 55.790049 lat
#TLE: 1 37849U 11061A   26005.94084933  .00000134  00000+0  84554-4 0  9990
#TLE: 2 37849  98.7803 308.0679 0002567  79.1029 281.0436 14.19522657735426

#Time	Az	El	Level	Level2	SNR	BER	BlckErr	Temp	State	Recorded	gain1	gain2
2026-01-07 10:15:40.89	168.51	5.10	-47.6	-65.2	3.8	1.49e+00	0	37	0	0	67	26221
2026-01-07 10:15:41.89	168.53	5.17	-47.2	-65.0	3.8	1.49e+00	0	37	104	0	65	28869
2026-01-07 10:15:42.90	168.55	5.25	-47.2	-65.1	3.8	1.49e+00	0	37	104	0	65	29012
2026-01-07 10:15:43.90	168.56	5.32	-47.2	-65.0	3.8	1.49e+00	0	37	104	0	65	28998
2026-01-07 10:15:44.90	168.58	5.39	-47.3	-65.0	3.8	1.49e+00	0	37	104	0	65	28921
2026-01-07 10:15:45.90	168.60	5.46	-47.2	-65.0	3.8	1.49e+00	0	37	104	0	65	29007
2026-01-07 10:15:46.91	168.61	5.54	-47.2	-65.1	3.8	1.49e+00	0	37	104	0	65	29101
2026-01-07 10:15:47.91	168.63	5.61	-47.1	-65.2	3.8	1.49e+00	0	38	104	0	65	29414
2026-01-07 10:15:48.91	168.65	5.68	-47.2	-65.2	3.8	1.49e+00	0	38	104	0	65	29459
2026-01-07 10:15:49.92	168.66	5.76	-47.2	-65.1	3.8	1.49e+00	0	38	104	0	65	29237
2026-01-07 10:15:50.91	168.68	5.83	-47.1	-65.1	3.8	1.49e+00	0	38	104	0	65	29179
2026-01-07 10:15:51.91	168.70	5.91	-47.2	-65.1	3.8	1.49e+00	0	38	104	0	65	29025
2026-01-07 10:15:52.90	168.71	5.98	-47.2	-64.9	3.9	1.49e+00	0	38	104	0	65	28615
2026-01-07 10:15:53.90	168.73	6.05	-47.2	-64.9	3.8	1.49e+00	0	38	104	0	65	28582
2026-01-07 10:15:54.90	168.75	6.13	-47.1	-64.8	3.8	1.49e+00	0	38	104	0	65	28339
2026-01-07 10:15:55.90	168.77	6.20	-47.1	-64.6	3.8	1.49e+00	0	38	104	0	65	27695
2026-01-07 10:15:56.90	168.78	6.28	-47.1	-64.5	3.8	1.49e+00	0	38	104	0	65	27259
2026-01-07 10:15:57.90	168.80	6.35	-47.1	-64.5	3.8	1.49e+00	0	38	104	0	65	27200
2026-01-07 10:15:58.90	168.82	6.43	-47.0	-64.4	3.8	1.49e+00	0	38	104	0	65	26897
2026-01-07 10:15:59.90	168.84	6.50	-47.2	-64.4	3.8	1.49e+00	0	38	104	0	65	26985
2026-01-07 10:16:00.90	168.85	6.58	-47.2	-64.5	3.8	1.49e+00	0	38	104	0	65	27282
2026-01-07 10:16:01.90	168.87	6.65	-47.2	-64.5	3.8	1.49e+00	0	38	104	0	65	27375
2026-01-07 10:16:02.90	168.89	6.73	-47.2	-64.7	3.8	1.49e+00	0	38	104	0	65	27778
2026-01-07 10:16:03.90	168.91	6.81	-47.2	-64.8	3.8	1.49e+00	0	38	104	0	65	28330
2026-01-07 10:16:04.90	168.92	6.88	-47.2	-64.9	3.8	1.49e+00	0	38	104	0	65	28483
2026-01-07 10:16:05.90	168.94	6.96	-47.2	-65.0	3.8	1.49e+00	0	38	104	0	65	28743
2026-01-07 10:16:06.89	168.96	7.04	-47.2	-64.9	3.8	1.49e+00	0	38	104	0	65	28362
2026-01-07 10:16:07.90	168.98	7.11	-47.2	-64.8	3.8	1.49e+00	0	38	104	0	65	28074
2026-01-07 10:16:08.89	169.00	7.19	-47.2	-64.6	3.8	1.49e+00	0	38	104	0	65	27427
2026-01-07 10:16:09.90	169.02	7.27	-47.2	-64.2	3.8	1.49e+00	0	38	104	0	65	26383
2026-01-07 10:16:10.89	169.03	7.35	-47.1	-63.8	3.8	1.49e+00	0	38	104	0	65	25111
2026-01-07 10:16:11.90	169.05	7.43	-47.1	-63.1	3.8	1.49e+00	0	38	104	0	65	23058
2026-01-07 10:16:12.89	169.07	7.50	-47.1	-62.3	4.0	1.46e+00	0	38	0	0	65	21091
2026-01-07 10:16:13.89	169.09	7.58	-47.0	-61.4	4.3	1.40e+00	0	38	0	0	65	19087
2026-01-07 10:16:14.89	169.11	7.66	-47.0	-60.6	4.5	1.20e+00	0	38	0	1048576	65	17303
2026-01-07 10:16:15.88	169.13	7.74	-47.0	-59.7	5.0	7.21e-01	0	38	0	3145728	65	15674
2026-01-07 10:16:16.88	169.15	7.82	-46.9	-58.8	5.5	5.66e-01	0	39	0	4194304	65	14118
2026-01-07 10:16:17.88	169.16	7.90	-46.8	-58.1	6.0	3.97e-01	0	39	0	6291456	65	12998
2026-01-07 10:16:18.87	169.18	7.98	-46.8	-57.7	6.3	2.97e-01	0	39	0	8388608	65	12462
2026-01-07 10:16:19.87	169.20	8.06	-46.7	-56.9	7.0	1.69e-01	0	39	0	10485760	65	11385
2026-01-07 10:16:20.87	169.22	8.14	-46.7	-56.7	7.2	1.39e-01	0	38	0	12582912	65	11119
2026-01-07 10:16:21.86	169.24	8.22	-46.7	-56.7	7.2	1.49e-01	0	39	0	13631488	65	11103
2026-01-07 10:16:22.87	169.26	8.30	-46.7	-56.8	7.1	1.42e-01	0	39	0	15728640	65	11272
2026-01-07 10:16:23.87	169.28	8.38	-46.7	-57.2	6.7	1.54e-01	0	39	0	17825792	65	11770
2026-01-07 10:16:24.87	169.30	8.46	-46.8	-57.6	6.4	1.94e-01	0	39	0	19922944	65	12295
2026-01-07 10:16:25.87	169.32	8.55	-46.9	-58.0	6.2	2.49e-01	0	39	0	22020096	65	12881
2026-01-07 10:16:26.87	169.34	8.63	-47.0	-59.1	5.4	4.54e-01	0	39	0	23068672	65	14674
2026-01-07 10:16:27.87	169.36	8.71	-47.1	-60.0	4.8	6.73e-01	0	39	0	25165824	65	16267
2026-01-07 10:16:28.87	169.38	8.79	-47.1	-61.0	4.4	9.05e-01	0	39	0	27262976	65	18261
2026-01-07 10:16:29.87	169.40	8.88	-47.2	-62.3	4.1	1.43e+00	0	39	0	27262976	65	21117
2026-01-07 10:16:30.88	169.42	8.96	-47.2	-63.4	3.8	1.49e+00	0	38	104	27262976	65	23997
2026-01-07 10:16:31.87	169.44	9.04	-47.3	-64.0	3.8	1.49e+00	0	39	104	27262976	65	25692
2026-01-07 10:16:32.87	169.46	9.13	-47.4	-64.0	3.8	1.49e+00	0	39	104	27262976	65	25726
2026-01-07 10:16:33.88	169.48	9.21	-47.6	-57.9	6.2	1.03e+00	0	39	0	27262976	65	12679
2026-01-07 10:16:34.88	169.50	9.30	-47.2	-63.9	3.8	1.16e+00	0	39	104	28311552	66	23926
2026-01-07 10:16:35.88	169.52	9.38	-47.8	-62.2	3.9	1.49e+00	0	39	104	28311552	66	19677
2026-01-07 10:16:36.89	169.54	9.47	-46.6	-53.5	10.3	2.39e-01	0	39	0	29360128	65	7644
2026-01-07 10:16:37.88	169.57	9.55	-46.4	-52.7	11.4	1.84e-03	0	39	0	30408704	64	7445
2026-01-07 10:16:38.88	169.59	9.64	-46.0	-51.3	12.6	5.04e-04	0	39	0	32505856	63	6713
2026-01-07 10:16:39.88	169.61	9.72	-45.6	-50.3	13.9	2.82e-05	0	39	0	34603008	63	5927
2026-01-07 10:16:40.89	169.63	9.81	-45.4	-49.7	14.5	0.00e+00	0	39	0	36700160	62	5863
2026-01-07 10:16:41.89	169.65	9.89	-45.3	-49.4	14.8	0.00e+00	0	39	0	38797312	62	5697
2026-01-07 10:16:42.89	169.67	9.98	-45.3	-49.3	14.9	0.00e+00	0	39	0	39845888	62	5639
2026-01-07 10:16:43.89	169.69	10.07	-45.0	-48.7	15.5	0.00e+00	0	39	0	41943040	62	5252
2026-01-07 10:16:44.89	169.72	10.16	-44.9	-48.5	15.7	0.00e+00	0	39	0	44040192	61	5430
2026-01-07 10:16:45.90	169.74	10.24	-44.7	-48.3	15.7	0.00e+00	0	39	0	46137344	61	5308
2026-01-07 10:16:46.90	169.76	10.33	-44.6	-48.2	16.0	0.00e+00	0	39	0	48234496	61	5247
2026-01-07 10:16:47.90	169.78	10.42	-44.9	-48.7	15.6	0.00e+00	0	39	0	49283072	61	5536
2026-01-07 10:16:48.90	169.80	10.51	-44.6	-48.2	16.0	0.00e+00	0	39	0	51380224	61	5267
2026-01-07 10:16:49.90	169.83	10.60	-44.6	-48.2	16.0	0.00e+00	0	39	0	53477376	61	5262
2026-01-07 10:16:50.90	169.85	10.69	-44.6	-48.3	16.0	0.00e+00	0	39	0	55574528	61	5296
2026-01-07 10:16:51.90	169.87	10.78	-44.6	-48.3	16.0	0.00e+00	0	39	0	57671680	61	5287
2026-01-07 10:16:52.91	169.89	10.87	-44.6	-48.2	16.0	0.00e+00	0	39	0	58720256	61	5249
2026-01-07 10:16:53.90	169.92	10.96	-44.7	-48.3	16.0	0.00e+00	0	39	0	60817408	61	5283
2026-01-07 10:16:54.89	169.94	11.04	-44.7	-48.3	16.0	0.00e+00	0	39	0	62914560	61	5324
2026-01-07 10:16:55.89	169.96	11.14	-44.7	-48.2	16.1	0.00e+00	0	39	0	65011712	61	5250
2026-01-07 10:16:56.89	169.99	11.23	-44.9	-48.3	16.0	0.00e+00	0	39	0	67108864	61	5338
2026-01-07 10:16:57.89	170.01	11.32	-44.8	-48.2	16.1	8.30e-06	0	39	0	68157440	61	5239
2026-01-07 10:16:58.88	170.03	11.41	-44.7	-48.0	16.2	0.00e+00	0	39	0	70254592	61	5138
2026-01-07 10:16:59.88	170.06	11.50	-44.8	-48.0	16.3	0.00e+00	0	39	0	72351744	61	5141
2026-01-07 10:17:00.89	170.08	11.59	-44.6	-47.7	16.6	0.00e+00	0	39	0	74448896	61	4951
2026-01-07 10:17:01.88	170.10	11.69	-44.7	-47.8	16.6	0.00e+00	0	39	0	75497472	61	4990
2026-01-07 10:17:02.88	170.13	11.78	-44.6	-47.6	16.7	0.00e+00	0	39	0	77594624	61	4907
2026-01-07 10:17:03.89	170.15	11.87	-44.5	-47.5	16.8	7.00e-07	0	39	0	79691776	61	4844
2026-01-07 10:17:04.89	170.18	11.97	-44.4	-47.4	16.9	0.00e+00	0	39	0	81788928	60	5061
2026-01-07 10:17:05.88	170.20	12.06	-44.4	-47.3	17.0	0.00e+00	0	39	0	83886080	60	5032
2026-01-07 10:17:06.88	170.22	12.16	-44.4	-47.2	17.1	0.00e+00	0	39	0	84934656	60	4964
2026-01-07 10:17:07.89	170.25	12.25	-44.4	-47.2	17.1	0.00e+00	0	39	0	87031808	60	4980
2026-01-07 10:17:08.89	170.27	12.35	-44.3	-47.2	17.0	0.00e+00	0	39	0	89128960	60	4932
2026-01-07 10:17:09.89	170.30	12.44	-44.2	-47.1	17.3	0.00e+00	0	39	0	91226112	60	4875
2026-01-07 10:17:10.89	170.32	12.54	-44.3	-47.1	17.2	0.00e+00	0	39	0	93323264	60	4897
2026-01-07 10:17:11.89	170.35	12.63	-44.3	-47.0	17.3	0.00e+00	0	39	0	94371840	60	4863
2026-01-07 10:17:12.89	170.37	12.73	-44.2	-46.9	17.4	0.00e+00	0	39	0	96468992	60	4794
2026-01-07 10:17:13.89	170.40	12.83	-44.3	-47.0	17.3	0.00e+00	0	39	0	98566144	60	4855
2026-01-07 10:17:14.89	170.43	12.93	-44.2	-46.8	17.5	0.00e+00	0	40	0	100663296	60	4753
2026-01-07 10:17:15.89	170.45	13.02	-44.3	-47.0	17.4	0.00e+00	0	39	0	101711872	60	4819
2026-01-07 10:17:16.89	170.48	13.12	-44.3	-47.0	17.4	0.00e+00	0	40	0	103809024	60	4845
2026-01-07 10:17:17.88	170.50	13.22	-44.2	-46.9	17.4	0.00e+00	0	39	0	105906176	60	4792
2026-01-07 10:17:18.89	170.53	13.32	-44.3	-47.0	17.4	0.00e+00	0	40	0	108003328	60	4820
2026-01-07 10:17:19.89	170.56	13.42	-44.1	-46.7	17.6	0.00e+00	0	40	0	110100480	60	4695
2026-01-07 10:17:20.89	170.58	13.52	-44.2	-46.9	17.5	0.00e+00	0	39	0	111149056	60	4766
2026-01-07 10:17:21.89	170.61	13.62	-44.2	-46.9	17.5	0.00e+00	0	40	0	113246208	60	4792
2026-01-07 10:17:22.88	170.64	13.72	-44.2	-46.8	17.5	0.00e+00	0	39	0	115343360	60	4744
2026-01-07 10:17:23.88	170.66	13.82	-44.2	-46.9	17.5	0.00e+00	0	40	0	117440512	60	4789
2026-01-07 10:17:24.88	170.69	13.92	-44.2	-46.9	17.4	0.00e+00	0	40	0	119537664	60	4814
2026-01-07 10:17:25.88	170.72	14.03	-44.1	-46.8	17.5	0.00e+00	0	39	0	120586240	60	4753
2026-01-07 10:17:26.88	170.75	14.13	-44.2	-47.0	17.4	0.00e+00	0	40	0	122683392	60	4833
2026-01-07 10:17:27.89	170.77	14.23	-44.0	-46.7	17.6	0.00e+00	0	39	0	124780544	60	4689
2026-01-07 10:17:28.89	170.80	14.33	-44.1	-46.8	17.6	0.00e+00	0	39	0	126877696	60	4716
2026-01-07 10:17:29.89	170.83	14.44	-44.0	-46.7	17.7	0.00e+00	0	39	0	128974848	60	4663
2026-01-07 10:17:30.89	170.86	14.54	-44.0	-46.7	17.7	0.00e+00	0	39	0	130023424	60	4672
2026-01-07 10:17:31.89	170.89	14.65	-44.1	-46.8	17.5	0.00e+00	0	39	0	132120576	60	4735
2026-01-07 10:17:32.89	170.92	14.75	-44.0	-46.6	17.7	0.00e+00	0	40	0	134217728	59	4920
2026-01-07 10:17:33.89	170.94	14.86	-43.9	-46.5	17.8	0.00e+00	0	40	0	136314880	59	4835
2026-01-07 10:17:34.89	170.97	14.96	-44.0	-46.6	17.7	0.00e+00	0	40	0	137363456	59	4909
2026-01-07 10:17:35.89	171.00	15.07	-43.8	-46.3	18.0	0.00e+00	0	40	0	139460608	59	4750
2026-01-07 10:17:36.89	171.03	15.18	-43.8	-46.4	17.9	0.00e+00	0	40	0	141557760	59	4796
2026-01-07 10:17:37.89	171.06	15.28	-43.7	-46.2	18.1	0.00e+00	0	40	0	143654912	59	4694
2026-01-07 10:17:38.89	171.09	15.39	-43.8	-46.4	18.0	0.00e+00	0	40	0	145752064	59	4784
2026-01-07 10:17:39.89	171.12	15.50	-43.8	-46.4	17.9	0.00e+00	0	40	0	146800640	59	4786
2026-01-07 10:17:40.89	171.15	15.61	-44.0	-46.6	17.7	0.00e+00	0	40	0	148897792	59	4907
2026-01-07 10:17:41.89	171.18	15.72	-44.0	-46.6	17.8	0.00e+00	0	40	0	150994944	59	4877
2026-01-07 10:17:42.89	171.21	15.83	-43.8	-46.3	18.1	0.00e+00	0	40	0	153092096	59	4737
2026-01-07 10:17:43.89	171.24	15.94	-43.8	-46.3	18.0	0.00e+00	0	40	0	155189248	59	4726
2026-01-07 10:17:44.89	171.27	16.05	-43.8	-46.3	18.0	0.00e+00	0	40	0	156237824	59	4730
2026-01-07 10:17:45.89	171.31	16.16	-43.8	-46.4	18.0	0.00e+00	0	40	0	158334976	59	4776
2026-01-07 10:17:46.89	171.34	16.27	-43.9	-46.5	17.9	0.00e+00	0	40	0	160432128	59	4820
2026-01-07 10:17:47.90	171.37	16.39	-43.8	-46.3	18.1	0.00e+00	0	40	0	162529280	59	4744
2026-01-07 10:17:48.89	171.40	16.50	-43.8	-46.3	18.1	0.00e+00	0	40	0	163577856	59	4748
2026-01-07 10:17:49.89	171.43	16.61	-43.8	-46.4	18.0	0.00e+00	0	40	0	165675008	59	4767
2026-01-07 10:17:50.89	171.46	16.73	-43.9	-46.4	18.0	0.00e+00	0	40	0	167772160	59	4789
2026-01-07 10:17:51.89	171.50	16.84	-44.0	-46.5	17.9	0.00e+00	0	40	0	169869312	59	4854
2026-01-07 10:17:52.88	171.53	16.95	-43.9	-46.5	17.9	0.00e+00	0	40	0	171966464	59	4823
2026-01-07 10:17:53.88	171.56	17.07	-43.8	-46.3	18.0	0.00e+00	0	40	0	173015040	59	4755
2026-01-07 10:17:54.88	171.60	17.19	-44.0	-46.5	17.9	0.00e+00	0	40	0	175112192	59	4867
2026-01-07 10:17:55.88	171.63	17.30	-43.9	-46.4	18.0	0.00e+00	0	40	0	177209344	59	4799
2026-01-07 10:17:56.88	171.66	17.42	-44.0	-46.6	17.9	0.00e+00	0	40	0	179306496	59	4875
2026-01-07 10:17:57.88	171.70	17.54	-44.0	-46.5	17.9	0.00e+00	0	40	0	181403648	59	4861
2026-01-07 10:17:58.89	171.73	17.66	-44.0	-46.5	17.9	0.00e+00	0	40	0	182452224	59	4842
2026-01-07 10:17:59.89	171.77	17.77	-44.0	-46.5	17.9	0.00e+00	0	40	0	184549376	59	4853
2026-01-07 10:18:00.89	171.80	17.89	-44.0	-46.5	17.9	0.00e+00	0	40	0	186646528	59	4852
2026-01-07 10:18:01.90	171.83	18.02	-44.1	-46.6	17.8	0.00e+00	0	40	0	188743680	59	4911
2026-01-07 10:18:02.90	171.87	18.14	-44.1	-46.7	17.8	0.00e+00	0	40	0	190840832	59	4928
2026-01-07 10:18:03.90	171.91	18.26	-44.2	-46.8	17.7	0.00e+00	0	40	0	191889408	59	5006
2026-01-07 10:18:04.90	171.94	18.38	-44.2	-46.8	17.8	0.00e+00	0	40	0	193986560	59	4987
2026-01-07 10:18:05.90	171.98	18.50	-44.2	-46.8	17.7	0.00e+00	0	40	0	196083712	59	5039
2026-01-07 10:18:06.90	172.01	18.62	-44.5	-47.2	17.3	0.00e+00	0	40	0	198180864	59	5227
2026-01-07 10:18:07.90	172.05	18.75	-44.5	-47.3	17.2	0.00e+00	0	40	0	199229440	59	5289
2026-01-07 10:18:08.90	172.09	18.87	-44.6	-47.3	17.2	0.00e+00	0	40	0	201326592	59	5297
2026-01-07 10:18:09.90	172.12	19.00	-44.7	-47.4	17.1	0.00e+00	0	40	0	203423744	59	5388
2026-01-07 10:18:10.89	172.16	19.12	-44.7	-47.5	17.1	0.00e+00	0	40	0	205520896	60	5143
2026-01-07 10:18:11.89	172.20	19.25	-44.7	-47.5	17.1	0.00e+00	0	39	0	207618048	60	5140
2026-01-07 10:18:12.89	172.24	19.37	-44.7	-47.5	17.1	0.00e+00	0	40	0	208666624	60	5152
2026-01-07 10:18:13.89	172.27	19.50	-44.7	-47.5	17.1	0.00e+00	0	40	0	210763776	60	5134
2026-01-07 10:18:14.89	172.31	19.63	-44.7	-47.5	17.1	0.00e+00	0	40	0	212860928	60	5137
2026-01-07 10:18:15.90	172.35	19.76	-44.8	-47.7	16.9	0.00e+00	0	40	0	214958080	60	5240
2026-01-07 10:18:16.89	172.39	19.89	-44.7	-47.6	17.0	0.00e+00	0	40	0	217055232	60	5192
2026-01-07 10:18:17.89	172.43	20.02	-44.8	-47.7	17.0	0.00e+00	0	40	0	218103808	60	5222
2026-01-07 10:18:18.89	172.47	20.15	-44.9	-47.9	16.8	0.00e+00	0	40	0	220200960	60	5346
2026-01-07 10:18:19.89	172.51	20.28	-45.0	-48.0	16.7	0.00e+00	0	40	0	222298112	60	5407
2026-01-07 10:18:20.89	172.55	20.41	-45.1	-48.1	16.4	0.00e+00	0	40	0	224395264	61	5163
2026-01-07 10:18:21.89	172.59	20.54	-45.2	-48.2	16.5	0.00e+00	0	40	0	226492416	61	5235
2026-01-07 10:18:22.89	172.63	20.67	-45.3	-48.2	16.4	0.00e+00	0	40	0	227540992	61	5276
2026-01-07 10:18:23.88	172.67	20.81	-45.1	-48.1	16.6	0.00e+00	0	40	0	229638144	61	5185
2026-01-07 10:18:24.88	172.71	20.94	-45.3	-48.3	16.4	0.00e+00	0	40	0	231735296	61	5297
2026-01-07 10:18:25.88	172.75	21.08	-45.2	-48.2	16.5	0.00e+00	0	40	0	233832448	61	5236
2026-01-07 10:18:26.88	172.80	21.21	-45.3	-48.4	16.3	0.00e+00	0	40	0	234881024	61	5345
2026-01-07 10:18:27.88	172.84	21.35	-45.2	-48.1	16.5	0.00e+00	0	40	0	236978176	61	5218
2026-01-07 10:18:28.88	172.88	21.49	-45.3	-48.3	16.3	0.00e+00	0	40	0	239075328	61	5311
2026-01-07 10:18:29.88	172.92	21.63	-45.1	-48.0	16.7	0.00e+00	0	40	0	241172480	61	5129
2026-01-07 10:18:30.87	172.97	21.76	-45.2	-48.1	16.5	0.00e+00	0	40	0	243269632	61	5197
2026-01-07 10:18:31.87	173.01	21.90	-45.1	-48.0	16.6	0.00e+00	0	40	0	244318208	61	5117
2026-01-07 10:18:32.87	173.06	22.04	-45.2	-48.2	16.5	0.00e+00	0	40	0	246415360	61	5235
2026-01-07 10:18:33.87	173.10	22.19	-45.3	-48.3	16.5	0.00e+00	0	40	0	248512512	61	5286
2026-01-07 10:18:34.87	173.15	22.33	-45.3	-48.2	16.5	0.00e+00	0	40	0	250609664	61	5266
2026-01-07 10:18:35.87	173.19	22.47	-45.4	-48.3	16.4	0.00e+00	0	40	0	251658240	61	5333
2026-01-07 10:18:36.87	173.24	22.61	-45.3	-48.3	16.5	0.00e+00	0	40	0	253755392	61	5299
2026-01-07 10:18:37.87	173.28	22.76	-45.4	-48.4	16.4	0.00e+00	0	40	0	255852544	61	5342
2026-01-07 10:18:38.87	173.33	22.90	-45.4	-48.4	16.4	0.00e+00	0	40	0	257949696	61	5342
2026-01-07 10:18:39.88	173.38	23.05	-45.1	-47.9	16.8	0.00e+00	0	40	0	260046848	61	5100
2026-01-07 10:18:40.88	173.43	23.20	-45.2	-48.1	16.7	0.00e+00	0	40	0	261095424	61	5160
2026-01-07 10:18:41.87	173.47	23.34	-45.2	-48.1	16.6	0.00e+00	0	40	0	263192576	61	5167
2026-01-07 10:18:42.87	173.52	23.49	-45.1	-47.9	16.8	0.00e+00	0	40	0	265289728	61	5058
2026-01-07 10:18:43.87	173.57	23.64	-45.2	-48.0	16.7	0.00e+00	0	40	0	267386880	61	5152
2026-01-07 10:18:44.86	173.62	23.79	-44.9	-47.6	17.2	0.00e+00	0	40	0	269484032	61	4915
2026-01-07 10:18:45.87	173.67	23.94	-44.9	-47.6	17.1	0.00e+00	0	40	0	270532608	61	4878
2026-01-07 10:18:46.87	173.72	24.10	-45.0	-47.8	16.9	0.00e+00	0	40	0	272629760	61	5002
2026-01-07 10:18:47.87	173.77	24.25	-44.9	-47.7	17.1	0.00e+00	0	40	0	274726912	61	4935
2026-01-07 10:18:48.87	173.82	24.40	-45.0	-47.8	17.0	0.00e+00	0	40	0	276824064	61	5003
2026-01-07 10:18:49.87	173.87	24.56	-45.0	-47.9	16.9	0.00e+00	0	40	0	277872640	61	5043
2026-01-07 10:18:50.87	173.92	24.71	-45.1	-47.9	16.8	0.00e+00	0	40	0	279969792	61	5076
2026-01-07 10:18:51.88	173.98	24.87	-44.9	-47.7	17.1	0.00e+00	0	40	0	282066944	61	4939
2026-01-07 10:18:52.88	174.03	25.03	-44.9	-47.6	17.1	0.00e+00	0	40	0	284164096	61	4917
2026-01-07 10:18:53.88	174.08	25.19	-44.8	-47.5	17.2	0.00e+00	0	40	0	286261248	61	4840
2026-01-07 10:18:54.88	174.14	25.34	-44.8	-47.5	17.2	0.00e+00	0	40	0	287309824	61	4846
2026-01-07 10:18:55.87	174.19	25.50	-44.9	-47.6	17.2	0.00e+00	0	40	0	289406976	61	4891
2026-01-07 10:18:56.87	174.25	25.66	-44.7	-47.4	17.4	0.00e+00	0	40	0	291504128	61	4777
2026-01-07 10:18:57.88	174.30	25.83	-44.6	-47.2	17.6	0.00e+00	0	40	0	293601280	61	4673
2026-01-07 10:18:58.88	174.36	25.99	-44.8	-47.5	17.3	0.00e+00	0	40	0	295698432	61	4834
2026-01-07 10:18:59.88	174.42	26.15	-44.5	-47.1	17.7	0.00e+00	0	40	0	296747008	60	4914
2026-01-07 10:19:00.88	174.47	26.32	-44.9	-47.6	17.1	0.00e+00	0	40	0	298844160	60	5168
2026-01-07 10:19:01.88	174.53	26.48	-44.8	-47.5	17.3	0.00e+00	0	40	0	300941312	60	5119
2026-01-07 10:19:02.87	174.59	26.65	-45.0	-47.7	17.2	0.00e+00	0	40	0	303038464	60	5249
2026-01-07 10:19:03.87	174.65	26.82	-45.0	-47.7	17.1	0.00e+00	0	40	0	305135616	60	5260
2026-01-07 10:19:04.87	174.71	26.99	-45.1	-47.9	17.1	0.00e+00	0	40	0	306184192	60	5343
2026-01-07 10:19:05.86	174.77	27.15	-45.1	-47.8	17.0	0.00e+00	0	40	0	308281344	60	5319
2026-01-07 10:19:06.85	174.83	27.32	-44.9	-47.6	17.3	0.00e+00	0	40	0	310378496	61	4891
2026-01-07 10:19:07.85	174.89	27.50	-45.1	-47.8	17.1	0.00e+00	0	40	0	312475648	61	5038
2026-01-07 10:19:08.84	174.95	27.67	-44.8	-47.5	17.3	0.00e+00	0	40	0	313524224	61	4843
2026-01-07 10:19:09.84	175.01	27.84	-44.9	-47.6	17.4	0.00e+00	0	40	0	315621376	61	4876
2026-01-07 10:19:10.83	175.07	28.01	-44.9	-47.5	17.3	0.00e+00	0	40	0	317718528	61	4867
2026-01-07 10:19:11.82	175.14	28.19	-45.0	-47.7	17.2	0.00e+00	0	40	0	319815680	61	4963
2026-01-07 10:19:12.82	175.20	28.37	-45.3	-48.1	16.8	0.00e+00	0	40	0	321912832	61	5205
2026-01-07 10:19:13.82	175.27	28.55	-45.4	-48.3	16.7	0.00e+00	0	40	0	322961408	61	5289
2026-01-07 10:19:14.82	175.33	28.72	-45.3	-48.2	16.9	0.00e+00	0	40	0	325058560	61	5219
2026-01-07 10:19:15.82	175.40	28.91	-45.8	-48.8	16.2	0.00e+00	0	40	0	327155712	62	5323
2026-01-07 10:19:16.81	175.47	29.09	-45.8	-48.7	16.4	0.00e+00	0	40	0	329252864	62	5243
2026-01-07 10:19:17.81	175.53	29.27	-45.9	-48.9	16.2	0.00e+00	0	40	0	330301440	62	5363
2026-01-07 10:19:18.81	175.60	29.45	-45.9	-48.9	16.1	0.00e+00	0	40	0	332398592	62	5387
2026-01-07 10:19:19.81	175.67	29.64	-45.8	-48.8	16.2	0.00e+00	0	40	0	334495744	62	5295
2026-01-07 10:19:20.80	175.74	29.82	-45.9	-49.0	16.0	0.00e+00	0	40	0	336592896	62	5464
2026-01-07 10:19:21.80	175.81	30.01	-45.9	-49.0	16.1	0.00e+00	0	40	0	338690048	62	5429
2026-01-07 10:19:22.81	175.88	30.20	-46.1	-49.2	15.9	0.00e+00	0	40	0	339738624	62	5570
2026-01-07 10:19:23.81	175.96	30.39	-45.9	-49.0	16.1	0.00e+00	0	40	0	341835776	63	5149
2026-01-07 10:19:24.80	176.03	30.58	-46.2	-49.3	15.7	0.00e+00	0	40	0	343932928	63	5296
2026-01-07 10:19:25.81	176.11	30.77	-46.4	-49.6	15.5	0.00e+00	0	40	0	346030080	63	5497
2026-01-07 10:19:26.81	176.18	30.97	-46.6	-50.0	15.2	0.00e+00	0	40	0	348127232	63	5723
2026-01-07 10:19:27.81	176.26	31.16	-46.6	-49.8	15.3	0.00e+00	0	40	0	349175808	64	5323
2026-01-07 10:19:28.81	176.33	31.36	-46.4	-49.6	15.5	0.00e+00	0	40	0	351272960	64	5199
2026-01-07 10:19:29.81	176.41	31.56	-46.3	-49.4	15.7	0.00e+00	0	40	0	353370112	64	5095
2026-01-07 10:19:30.81	176.49	31.75	-46.6	-49.9	15.2	0.00e+00	0	40	0	355467264	64	5356
2026-01-07 10:19:31.80	176.57	31.95	-46.4	-49.6	15.5	0.00e+00	0	40	0	356515840	64	5188
2026-01-07 10:19:32.79	176.65	32.15	-46.6	-49.9	15.3	0.00e+00	0	40	0	358612992	64	5347
2026-01-07 10:19:33.79	176.73	32.35	-46.6	-50.0	15.1	0.00e+00	0	40	0	360710144	64	5419
2026-01-07 10:19:34.79	176.81	32.56	-46.5	-49.8	15.3	0.00e+00	0	40	0	362807296	64	5323
2026-01-07 10:19:35.78	176.90	32.76	-46.7	-50.1	15.1	0.00e+00	0	40	0	364904448	64	5478
2026-01-07 10:19:36.79	176.98	32.97	-46.4	-49.5	15.7	0.00e+00	0	40	0	365953024	64	5128
2026-01-07 10:19:37.79	177.07	33.18	-46.6	-49.8	15.4	0.00e+00	0	40	0	368050176	64	5306
2026-01-07 10:19:38.78	177.15	33.39	-46.3	-49.4	15.8	0.00e+00	0	40	0	370147328	64	5095
2026-01-07 10:19:39.78	177.24	33.60	-46.2	-49.2	15.9	0.00e+00	0	40	0	372244480	64	4974
2026-01-07 10:19:40.78	177.33	33.81	-46.2	-49.2	16.0	0.00e+00	0	40	0	374341632	64	4982
2026-01-07 10:19:41.77	177.42	34.02	-46.2	-49.2	16.0	0.00e+00	0	40	0	375390208	64	4947
2026-01-07 10:19:42.78	177.51	34.24	-46.2	-49.2	16.0	0.00e+00	0	41	0	377487360	64	4954
2026-01-07 10:19:43.78	177.60	34.45	-46.3	-49.4	15.8	0.00e+00	0	40	0	379584512	64	5087
2026-01-07 10:19:44.78	177.70	34.67	-46.8	-50.1	15.1	0.00e+00	0	40	0	381681664	64	5520
2026-01-07 10:19:45.78	177.79	34.89	-46.7	-50.0	15.3	0.00e+00	0	40	0	383778816	64	5417
2026-01-07 10:19:46.77	177.88	35.11	-46.6	-49.8	15.5	0.00e+00	0	40	0	384827392	64	5310
2026-01-07 10:19:47.77	177.98	35.33	-46.7	-50.0	15.4	0.00e+00	0	40	0	386924544	64	5428
2026-01-07 10:19:48.77	178.08	35.55	-46.5	-49.8	15.7	0.00e+00	0	40	0	389021696	64	5300
2026-01-07 10:19:49.77	178.18	35.78	-46.4	-49.6	15.7	0.00e+00	0	40	0	391118848	64	5172
2026-01-07 10:19:50.77	178.28	36.00	-46.5	-49.8	15.6	0.00e+00	0	40	0	392167424	64	5281
2026-01-07 10:19:51.77	178.38	36.23	-46.6	-49.8	15.5	0.00e+00	0	40	0	394264576	64	5335
2026-01-07 10:19:52.77	178.49	36.46	-46.4	-49.6	15.7	0.00e+00	0	41	0	396361728	64	5164
2026-01-07 10:19:53.77	178.59	36.69	-46.3	-49.4	15.9	0.00e+00	0	40	0	398458880	64	5064
2026-01-07 10:19:54.77	178.70	36.93	-46.8	-50.2	15.2	0.00e+00	0	40	0	400556032	64	5563
2026-01-07 10:19:55.77	178.81	37.16	-46.2	-49.3	16.1	0.00e+00	0	40	0	401604608	64	4995
2026-01-07 10:19:56.76	178.92	37.39	-46.1	-49.1	16.0	0.00e+00	0	40	0	403701760	64	4915
2026-01-07 10:19:57.76	179.03	37.63	-46.1	-49.1	16.3	0.00e+00	0	40	0	405798912	63	5175
2026-01-07 10:19:58.76	179.14	37.87	-46.1	-49.1	16.4	0.00e+00	0	40	0	407896064	63	5170
2026-01-07 10:19:59.76	179.25	38.11	-46.4	-49.4	16.0	0.00e+00	0	40	0	408944640	63	5391
2026-01-07 10:20:00.76	179.37	38.35	-46.1	-49.0	16.5	0.00e+00	0	40	0	411041792	63	5114
2026-01-07 10:20:01.76	179.49	38.60	-46.2	-49.2	16.4	0.00e+00	0	40	0	413138944	63	5227
2026-01-07 10:20:02.76	179.61	38.84	-45.8	-48.5	16.9	0.00e+00	0	40	0	415236096	63	4853
2026-01-07 10:20:03.76	179.73	39.09	-46.2	-49.2	16.3	0.00e+00	0	40	0	417333248	63	5240
2026-01-07 10:20:04.76	179.85	39.34	-46.3	-49.3	16.3	0.00e+00	0	40	0	418381824	63	5291
2026-01-07 10:20:05.76	179.98	39.59	-46.1	-49.1	16.4	0.00e+00	0	40	0	420478976	63	5163
2026-01-07 10:20:06.76	180.10	39.84	-46.6	-49.8	15.6	0.00e+00	0	40	0	422576128	64	5340
2026-01-07 10:20:07.76	180.23	40.09	-47.0	-50.4	15.1	0.00e+00	0	40	0	424673280	64	5707
2026-01-07 10:20:08.76	180.36	40.35	-47.4	-51.0	14.5	7.00e-07	0	40	0	426770432	65	5748
2026-01-07 10:20:09.76	180.50	40.61	-47.2	-50.6	14.9	7.00e-07	0	40	0	427819008	65	5507
2026-01-07 10:20:10.76	180.63	40.86	-47.8	-51.6	13.9	7.00e-07	0	40	0	429916160	66	5820
2026-01-07 10:20:11.76	180.77	41.12	-47.4	-50.9	14.6	0.00e+00	0	40	0	432013312	66	5374
2026-01-07 10:20:12.76	180.91	41.39	-47.3	-50.7	14.7	0.00e+00	0	40	0	434110464	66	5277
2026-01-07 10:20:13.76	181.05	41.65	-47.2	-50.6	14.9	0.00e+00	0	40	0	436207616	65	5505
2026-01-07 10:20:14.76	181.19	41.92	-47.0	-50.2	15.4	0.00e+00	0	40	0	437256192	65	5229
2026-01-07 10:20:15.76	181.34	42.18	-46.8	-49.9	15.7	0.00e+00	0	40	0	439353344	65	5062
2026-01-07 10:20:16.76	181.49	42.45	-46.1	-48.9	16.6	0.00e+00	0	40	0	441450496	64	4783
2026-01-07 10:20:17.76	181.64	42.72	-46.0	-48.7	16.9	0.00e+00	0	40	0	443547648	63	4977
2026-01-07 10:20:18.76	181.79	42.99	-45.6	-48.1	17.4	0.00e+00	0	40	0	444596224	63	4643
2026-01-07 10:20:19.77	181.95	43.27	-45.4	-47.9	17.6	0.00e+00	0	40	0	446693376	62	4794
2026-01-07 10:20:20.77	182.11	43.55	-45.5	-48.1	17.5	0.00e+00	0	40	0	448790528	62	4887
2026-01-07 10:20:21.77	182.27	43.83	-45.7	-48.2	17.4	0.00e+00	0	40	0	450887680	62	4971
2026-01-07 10:20:22.77	182.43	44.11	-46.2	-49.0	16.6	0.00e+00	0	41	0	452984832	63	5156
2026-01-07 10:20:23.78	182.60	44.39	-46.2	-49.0	16.7	0.00e+00	0	40	0	454033408	63	5128
2026-01-07 10:20:24.78	182.77	44.67	-46.5	-49.4	16.2	0.00e+00	0	40	0	456130560	64	5072
2026-01-07 10:20:25.78	182.94	44.96	-46.8	-49.8	15.9	0.00e+00	0	40	0	458227712	64	5333
2026-01-07 10:20:26.79	183.12	45.25	-46.9	-49.9	15.7	0.00e+00	0	40	0	460324864	64	5373
2026-01-07 10:20:27.78	183.30	45.53	-46.8	-49.8	15.8	0.00e+00	0	41	0	462422016	64	5325
2026-01-07 10:20:28.79	183.48	45.83	-47.1	-50.2	15.1	0.00e+00	0	40	0	463470592	65	5247
2026-01-07 10:20:29.79	183.67	46.12	-47.0	-50.0	15.6	0.00e+00	0	40	0	465567744	65	5156
2026-01-07 10:20:30.79	183.86	46.41	-46.9	-50.0	15.7	0.00e+00	0	40	0	467664896	65	5140
2026-01-07 10:20:31.79	184.05	46.71	-47.2	-50.4	15.4	0.00e+00	0	40	0	469762048	65	5364
2026-01-07 10:20:32.79	184.24	47.00	-47.6	-51.0	14.7	0.00e+00	0	40	0	471859200	66	5428
2026-01-07 10:20:33.79	184.44	47.30	-47.8	-51.3	14.5	0.00e+00	0	40	0	472907776	66	5643
2026-01-07 10:20:34.79	184.65	47.60	-47.8	-51.4	14.4	0.00e+00	0	40	0	475004928	66	5700
2026-01-07 10:20:35.79	184.85	47.91	-48.5	-52.5	13.3	3.00e-06	0	40	0	477102080	68	5784
2026-01-07 10:20:36.79	185.07	48.21	-48.4	-52.3	13.9	8.30e-06	0	40	0	479199232	68	5634
2026-01-07 10:20:37.78	185.28	48.51	-48.3	-52.1	13.8	1.14e-05	0	40	0	481296384	68	5525
2026-01-07 10:20:38.79	185.50	48.82	-47.3	-50.6	15.3	0.00e+00	0	40	0	482344960	66	5162
2026-01-07 10:20:39.79	185.73	49.13	-46.5	-49.4	16.4	0.00e+00	0	40	0	484442112	64	5077
2026-01-07 10:20:40.79	185.95	49.44	-46.0	-48.7	17.1	0.00e+00	0	41	0	486539264	63	4965
2026-01-07 10:20:41.79	186.19	49.76	-45.8	-48.4	17.4	0.00e+00	0	40	0	488636416	63	4798
2026-01-07 10:20:42.79	186.43	50.07	-45.3	-47.8	18.0	0.00e+00	0	41	0	489684992	62	4736
2026-01-07 10:20:43.79	186.67	50.39	-45.7	-48.2	17.6	0.00e+00	0	41	0	491782144	62	4977
2026-01-07 10:20:44.80	186.92	50.71	-45.7	-48.3	17.7	0.00e+00	0	40	0	493879296	62	5030
2026-01-07 10:20:45.80	187.17	51.03	-44.9	-47.3	18.5	0.00e+00	0	40	0	495976448	61	4740
2026-01-07 10:20:46.80	187.43	51.35	-45.0	-47.4	18.5	0.00e+00	0	41	0	498073600	61	4766
2026-01-07 10:20:47.80	187.70	51.67	-44.7	-47.0	18.9	0.00e+00	0	41	0	499122176	61	4576
2026-01-07 10:20:48.80	187.97	52.00	-44.8	-47.1	18.8	0.00e+00	0	40	0	501219328	61	4650
2026-01-07 10:20:49.80	188.24	52.32	-44.0	-46.2	19.6	0.00e+00	0	40	0	503316480	60	4422
2026-01-07 10:20:50.80	188.52	52.65	-44.0	-46.1	19.6	0.00e+00	0	40	0	505413632	59	4643
2026-01-07 10:20:51.80	188.81	52.98	-43.9	-46.0	19.8	0.00e+00	0	41	0	507510784	59	4579
2026-01-07 10:20:52.81	189.11	53.31	-43.9	-46.0	19.7	0.00e+00	0	41	0	508559360	59	4580
2026-01-07 10:20:53.81	189.41	53.64	-44.0	-46.2	19.6	0.00e+00	0	41	0	510656512	59	4661
2026-01-07 10:20:54.81	189.72	53.97	-44.3	-46.6	19.3	0.00e+00	0	40	0	512753664	59	4875
2026-01-07 10:20:55.81	190.04	54.31	-44.0	-46.2	19.6	0.00e+00	0	40	0	514850816	59	4679
2026-01-07 10:20:56.82	190.36	54.65	-43.8	-45.9	19.9	0.00e+00	0	40	0	515899392	59	4531
2026-01-07 10:20:57.82	190.69	54.98	-43.1	-45.1	20.6	0.00e+00	0	40	0	517996544	58	4373
2026-01-07 10:20:58.82	191.03	55.32	-43.0	-45.0	20.7	0.00e+00	0	40	0	520093696	57	4569
2026-01-07 10:20:59.82	191.38	55.66	-42.9	-44.9	20.8	0.00e+00	0	40	0	522190848	57	4508
2026-01-07 10:21:00.82	191.73	56.00	-43.1	-45.1	20.6	0.00e+00	0	41	0	524288000	57	4619
2026-01-07 10:21:01.83	192.10	56.35	-43.5	-45.6	20.2	0.00e+00	0	40	0	526385152	57	4903
2026-01-07 10:21:02.83	192.47	56.69	-43.7	-45.8	20.0	0.00e+00	0	40	0	527433728	58	4719
2026-01-07 10:21:03.83	192.85	57.03	-43.7	-45.8	20.0	0.00e+00	0	40	0	529530880	58	4750
2026-01-07 10:21:04.83	193.25	57.38	-43.4	-45.5	20.2	0.00e+00	0	40	0	531628032	58	4558
2026-01-07 10:21:05.83	193.65	57.72	-43.3	-45.3	20.4	0.00e+00	0	41	0	533725184	58	4473
2026-01-07 10:21:06.83	194.06	58.07	-43.5	-45.6	20.1	0.00e+00	0	40	0	534773760	58	4649
2026-01-07 10:21:07.84	194.49	58.41	-43.5	-45.6	20.2	0.00e+00	0	40	0	536870912	58	4635
2026-01-07 10:21:08.84	194.92	58.76	-43.7	-45.9	20.0	0.00e+00	0	40	0	538968064	58	4768
2026-01-07 10:21:09.84	195.36	59.11	-43.3	-45.3	20.4	0.00e+00	0	40	0	541065216	58	4478
2026-01-07 10:21:10.84	195.82	59.46	-42.7	-44.7	21.0	0.00e+00	0	40	0	543162368	57	4404
2026-01-07 10:21:11.85	196.29	59.81	-42.5	-44.4	21.1	0.00e+00	0	40	0	544210944	57	4270
2026-01-07 10:21:12.85	196.78	60.16	-42.8	-44.7	21.0	0.00e+00	0	40	0	546308096	56	4683
2026-01-07 10:21:13.85	197.27	60.50	-43.0	-44.9	20.8	0.00e+00	0	41	0	548405248	56	4809
2026-01-07 10:21:14.85	197.78	60.85	-43.0	-45.0	20.8	0.00e+00	0	40	0	550502400	56	4819
2026-01-07 10:21:15.85	198.30	61.20	-43.1	-45.1	20.7	0.00e+00	0	40	0	552599552	56	4881
2026-01-07 10:21:16.85	198.84	61.55	-43.5	-45.6	20.1	0.00e+00	0	41	0	553648128	58	4613
2026-01-07 10:21:17.86	199.40	61.90	-44.7	-47.1	19.0	0.00e+00	0	40	0	555745280	60	4872
2026-01-07 10:21:18.85	199.96	62.24	-45.5	-48.0	18.2	0.00e+00	0	40	0	557842432	61	5141
2026-01-07 10:21:19.85	200.55	62.59	-45.6	-48.1	18.1	0.00e+00	0	40	0	559939584	62	4889
2026-01-07 10:21:20.86	201.15	62.94	-44.8	-47.1	19.0	0.00e+00	0	40	0	560988160	61	4605
2026-01-07 10:21:21.85	201.77	63.28	-43.9	-46.0	19.9	0.00e+00	0	40	0	563085312	59	4555
2026-01-07 10:21:22.86	202.41	63.62	-43.5	-45.5	20.3	0.00e+00	0	40	0	565182464	59	4339
2026-01-07 10:21:23.86	203.06	63.96	-43.8	-45.9	19.9	0.00e+00	0	40	0	567279616	58	4799
2026-01-07 10:21:24.86	203.74	64.31	-44.1	-46.2	19.7	0.00e+00	0	41	0	569376768	59	4698
2026-01-07 10:21:25.86	204.44	64.64	-44.9	-47.2	18.9	0.00e+00	0	40	0	570425344	60	4972
2026-01-07 10:21:26.86	205.15	64.98	-44.9	-47.2	18.9	0.00e+00	0	41	0	572522496	60	4980
2026-01-07 10:21:27.86	205.89	65.31	-44.5	-46.7	19.3	0.00e+00	0	41	0	574619648	60	4693
2026-01-07 10:21:28.87	206.66	65.65	-43.9	-46.0	20.0	0.00e+00	0	41	0	576716800	59	4556
2026-01-07 10:21:29.87	207.44	65.98	-43.8	-45.8	20.0	0.00e+00	0	40	0	578813952	59	4488
2026-01-07 10:21:30.87	208.25	66.31	-45.0	-47.3	18.9	0.00e+00	0	41	0	579862528	60	5009
2026-01-07 10:21:31.87	209.08	66.63	-46.1	-48.7	17.5	0.00e+00	0	41	0	581959680	62	5270
2026-01-07 10:21:32.88	209.95	66.95	-46.5	-49.2	17.3	0.00e+00	0	41	0	584056832	63	5226
2026-01-07 10:21:33.88	210.83	67.27	-45.9	-48.4	17.8	0.00e+00	0	40	0	586153984	63	4807
2026-01-07 10:21:34.88	211.74	67.58	-46.1	-48.8	17.4	0.00e+00	0	40	0	588251136	63	5011
2026-01-07 10:21:35.89	212.69	67.90	-46.2	-49.0	17.1	0.00e+00	0	40	0	589299712	63	5109
2026-01-07 10:21:36.89	213.66	68.20	-45.9	-48.6	17.6	0.00e+00	0	41	0	591396864	63	4893
2026-01-07 10:21:37.89	214.65	68.50	-45.6	-48.2	18.0	0.00e+00	0	41	0	593494016	62	4930
2026-01-07 10:21:38.89	215.68	68.79	-45.7	-48.3	17.8	0.00e+00	0	41	0	595591168	62	5005
2026-01-07 10:21:39.89	216.74	69.08	-46.3	-49.2	17.0	0.00e+00	0	40	0	597688320	63	5239
2026-01-07 10:21:40.90	217.84	69.37	-46.3	-49.1	17.0	0.00e+00	0	41	0	598736896	63	5173
2026-01-07 10:21:41.90	218.96	69.64	-46.2	-49.0	17.3	0.00e+00	0	41	0	600834048	63	5114
2026-01-07 10:21:42.90	220.11	69.91	-46.6	-49.4	16.9	0.00e+00	0	40	0	602931200	63	5345
2026-01-07 10:21:43.90	221.30	70.18	-46.6	-49.4	16.8	0.00e+00	0	40	0	605028352	64	5050
2026-01-07 10:21:44.90	222.52	70.43	-46.3	-49.0	17.1	0.00e+00	0	41	0	606076928	64	4851
2026-01-07 10:21:45.90	223.77	70.68	-46.5	-49.3	16.9	0.00e+00	0	41	0	608174080	63	5317
2026-01-07 10:21:46.90	225.06	70.92	-47.7	-51.1	15.2	0.00e+00	0	41	0	610271232	65	5833
2026-01-07 10:21:47.91	226.40	71.15	-48.1	-52.0	14.2	0.00e+00	0	41	0	612368384	67	5733
2026-01-07 10:21:48.91	227.75	71.37	-47.3	-50.6	15.5	0.00e+00	0	40	0	614465536	66	5203
2026-01-07 10:21:49.91	229.14	71.58	-46.7	-49.8	16.3	0.00e+00	0	40	0	615514112	65	4991
2026-01-07 10:21:50.91	230.57	71.78	-46.3	-49.2	16.9	0.00e+00	0	41	0	617611264	64	4977
2026-01-07 10:21:51.91	232.02	71.98	-46.0	-48.8	17.5	0.00e+00	0	41	0	619708416	63	4987
2026-01-07 10:21:52.92	233.53	72.16	-45.4	-47.9	18.2	0.00e+00	0	40	0	621805568	62	4790
2026-01-07 10:21:53.91	235.03	72.32	-45.9	-48.6	17.6	0.00e+00	0	40	0	623902720	62	5183
2026-01-07 10:21:54.91	236.58	72.48	-46.0	-48.7	17.3	0.00e+00	0	41	0	624951296	64	4697
2026-01-07 10:21:55.92	238.17	72.63	-45.7	-48.3	17.8	0.00e+00	0	40	0	627048448	63	4748
2026-01-07 10:21:56.92	239.77	72.76	-45.4	-47.9	18.1	0.00e+00	0	41	0	629145600	62	4776
2026-01-07 10:21:57.92	241.40	72.88	-45.3	-47.9	18.1	0.00e+00	0	40	0	631242752	61	5064
2026-01-07 10:21:58.92	243.05	72.99	-45.9	-48.8	17.5	0.00e+00	0	41	0	633339904	62	5312
2026-01-07 10:21:59.93	244.74	73.08	-45.9	-48.8	17.5	0.00e+00	0	41	0	634388480	63	4989
2026-01-07 10:22:00.92	246.42	73.16	-44.9	-47.3	18.8	0.00e+00	0	40	0	636485632	61	4754
2026-01-07 10:22:01.93	248.14	73.22	-44.6	-47.0	19.1	0.00e+00	0	41	0	638582784	60	4821
2026-01-07 10:22:02.93	249.85	73.28	-44.9	-47.3	18.9	0.00e+00	0	40	0	640679936	60	4991
2026-01-07 10:22:03.93	251.58	73.31	-44.1	-46.4	19.6	0.00e+00	0	41	0	642777088	60	4506
2026-01-07 10:22:04.94	253.33	73.33	-44.4	-46.7	19.4	0.00e+00	0	40	0	643825664	59	4933
2026-01-07 10:22:05.94	255.07	73.34	-44.0	-46.2	19.7	0.00e+00	0	40	0	645922816	59	4689
2026-01-07 10:22:06.94	256.80	73.34	-43.8	-46.0	19.9	0.00e+00	0	40	0	648019968	59	4562
2026-01-07 10:22:07.94	258.54	73.31	-44.4	-46.6	19.3	0.00e+00	0	41	0	650117120	59	4926
2026-01-07 10:22:08.95	260.28	73.28	-45.4	-47.9	18.3	0.00e+00	0	41	0	651165696	61	5077
2026-01-07 10:22:09.94	261.98	73.23	-44.8	-47.2	18.9	0.00e+00	0	41	0	653262848	61	4665
2026-01-07 10:22:10.95	263.70	73.16	-44.5	-46.7	19.4	0.00e+00	0	40	0	655360000	60	4694
2026-01-07 10:22:11.95	265.39	73.08	-44.7	-47.1	19.0	0.00e+00	0	41	0	657457152	60	4882
2026-01-07 10:22:12.95	267.06	72.99	-46.1	-48.8	17.5	0.00e+00	0	41	0	659554304	62	5323
2026-01-07 10:22:13.95	268.72	72.89	-47.5	-50.9	15.4	0.00e+00	0	41	0	660602880	65	5671
2026-01-07 10:22:14.95	270.34	72.77	-47.9	-51.5	14.8	0.00e+00	0	41	0	662700032	66	5747
2026-01-07 10:22:15.95	271.95	72.64	-48.4	-52.4	14.0	7.00e-07	0	41	0	664797184	67	5998
2026-01-07 10:22:16.96	273.54	72.49	-48.1	-51.7	14.5	4.50e-06	0	40	0	666894336	67	5560
2026-01-07 10:22:17.96	275.09	72.33	-47.4	-50.5	15.7	0.00e+00	0	40	0	668991488	66	5134
2026-01-07 10:22:18.96	276.61	72.17	-47.7	-51.1	15.3	0.00e+00	0	41	0	670040064	65	5793
2026-01-07 10:22:19.96	278.10	71.99	-47.3	-50.4	15.9	0.00e+00	0	41	0	672137216	65	5397
2026-01-07 10:22:20.96	279.56	71.80	-46.7	-49.5	16.7	0.00e+00	0	41	0	674234368	65	4826
2026-01-07 10:22:21.96	280.98	71.60	-47.9	-51.3	15.2	0.00e+00	0	40	0	676331520	66	5655
2026-01-07 10:22:22.96	282.37	71.38	-49.4	-54.3	12.1	6.10e-06	0	41	0	678428672	69	6658
2026-01-07 10:22:23.97	283.74	71.16	-48.7	-52.6	13.8	4.73e-05	0	40	0	679477248	69	5517
2026-01-07 10:22:24.97	285.06	70.93	-47.9	-51.4	14.9	0.00e+00	0	41	0	681574400	67	5361
2026-01-07 10:22:25.97	286.35	70.69	-50.1	-55.5	10.9	1.60e-05	0	41	0	683671552	70	7270
2026-01-07 10:22:26.97	287.61	70.45	-50.1	-55.7	10.6	1.19e-02	0	41	0	685768704	71	6996
2026-01-07 10:22:27.97	288.83	70.19	-49.3	-53.8	12.6	3.00e-04	0	41	0	686817280	70	5968
2026-01-07 10:22:28.97	290.02	69.93	-47.8	-51.3	15.1	7.00e-07	0	40	0	688914432	67	5296
2026-01-07 10:22:29.97	291.17	69.66	-46.9	-49.8	16.4	0.00e+00	0	40	0	691011584	65	5017
2026-01-07 10:22:30.97	292.29	69.39	-46.5	-49.3	17.0	0.00e+00	0	41	0	693108736	64	5030
2026-01-07 10:22:31.97	293.38	69.11	-47.6	-50.9	15.4	0.00e+00	0	40	0	695205888	65	5680
2026-01-07 10:22:32.97	294.44	68.82	-48.0	-51.6	14.8	0.00e+00	0	40	0	696254464	66	5800
2026-01-07 10:22:33.97	295.47	68.52	-47.6	-51.1	15.1	0.00e+00	0	40	0	698351616	66	5474
2026-01-07 10:22:34.98	296.48	68.22	-47.6	-51.1	15.2	0.00e+00	0	41	0	700448768	66	5513
2026-01-07 10:22:35.98	297.44	67.92	-47.8	-51.3	15.0	0.00e+00	0	41	0	702545920	67	5290
2026-01-07 10:22:36.98	298.38	67.61	-47.7	-51.2	15.0	0.00e+00	0	41	0	704643072	66	5584
2026-01-07 10:22:37.99	299.30	67.30	-47.2	-50.4	15.8	0.00e+00	0	40	0	705691648	65	5396
2026-01-07 10:22:38.99	300.19	66.98	-47.0	-50.2	16.0	0.00e+00	0	41	0	707788800	65	5249
2026-01-07 10:22:39.99	301.05	66.66	-47.3	-50.7	15.6	0.00e+00	0	40	0	709885952	65	5548
2026-01-07 10:22:41.00	301.89	66.34	-46.9	-50.2	16.0	0.00e+00	0	41	0	711983104	65	5243
2026-01-07 10:22:42.00	302.70	66.01	-46.0	-48.8	17.2	0.00e+00	0	41	0	714080256	64	4747
2026-01-07 10:22:43.00	303.48	65.68	-45.4	-48.0	18.0	0.00e+00	0	40	0	715128832	62	4847
2026-01-07 10:22:44.00	304.24	65.35	-44.2	-46.6	19.3	0.00e+00	0	41	0	717225984	60	4613
2026-01-07 10:22:45.01	304.99	65.01	-44.2	-46.7	19.3	0.00e+00	0	41	0	719323136	60	4655
2026-01-07 10:22:46.01	305.70	64.68	-44.5	-47.0	19.0	0.00e+00	0	40	0	721420288	60	4831
2026-01-07 10:22:47.01	306.40	64.34	-44.4	-46.8	19.2	0.00e+00	0	41	0	723517440	60	4749
2026-01-07 10:22:48.01	307.07	64.00	-44.0	-46.3	19.6	0.00e+00	0	41	0	724566016	60	4469
2026-01-07 10:22:49.01	307.73	63.66	-44.0	-46.3	19.6	0.00e+00	0	41	0	726663168	60	4468
2026-01-07 10:22:50.02	308.37	63.32	-44.2	-46.6	19.3	0.00e+00	0	40	0	728760320	59	4900
2026-01-07 10:22:51.02	308.99	62.97	-43.9	-46.2	19.6	0.00e+00	0	40	0	730857472	59	4676
2026-01-07 10:22:52.02	309.60	62.63	-43.0	-45.1	20.6	0.00e+00	0	41	0	731906048	58	4376
2026-01-07 10:22:53.02	310.18	62.28	-42.5	-44.6	21.0	0.00e+00	0	41	0	734003200	57	4351
2026-01-07 10:22:54.02	310.75	61.94	-42.8	-44.9	20.8	0.00e+00	0	41	0	736100352	56	4778
2026-01-07 10:22:55.02	311.30	61.59	-43.6	-45.9	19.9	0.00e+00	0	41	0	738197504	57	5054
2026-01-07 10:22:56.02	311.84	61.24	-44.5	-46.9	19.1	0.00e+00	0	40	0	740294656	59	5065
2026-01-07 10:22:57.02	312.36	60.90	-44.3	-46.8	19.2	0.00e+00	0	41	0	741343232	60	4712
2026-01-07 10:22:58.02	312.87	60.55	-43.6	-45.8	20.0	0.00e+00	0	41	0	743440384	59	4456
2026-01-07 10:22:59.02	313.37	60.20	-43.1	-45.3	20.4	0.00e+00	0	40	0	745537536	57	4724
2026-01-07 10:23:00.02	313.85	59.86	-44.5	-47.0	18.9	0.00e+00	0	40	0	747634688	59	5159
2026-01-07 10:23:01.02	314.32	59.51	-45.2	-47.9	18.1	0.00e+00	0	40	0	749731840	61	5071
2026-01-07 10:23:02.03	314.78	59.16	-43.5	-45.8	19.9	0.00e+00	0	40	0	750780416	59	4451
2026-01-07 10:23:03.03	315.23	58.81	-43.0	-45.1	20.5	0.00e+00	0	41	0	752877568	57	4633
2026-01-07 10:23:04.03	315.66	58.47	-44.0	-46.3	19.5	0.00e+00	0	40	0	754974720	58	5032
2026-01-07 10:23:05.03	316.08	58.12	-44.5	-47.0	18.9	0.00e+00	0	41	0	757071872	59	5114
2026-01-07 10:23:06.03	316.50	57.78	-44.7	-47.3	18.6	0.00e+00	0	41	0	759169024	60	5009
2026-01-07 10:23:07.04	316.90	57.43	-44.8	-47.4	18.5	0.00e+00	0	41	0	760217600	60	5062
2026-01-07 10:23:08.04	317.29	57.09	-44.4	-46.9	19.0	0.00e+00	0	40	0	762314752	60	4784
2026-01-07 10:23:09.04	317.68	56.75	-44.2	-46.5	19.2	0.00e+00	0	41	0	764411904	59	4863
2026-01-07 10:23:10.04	318.05	56.41	-43.2	-45.3	20.2	0.00e+00	0	41	0	766509056	58	4477
2026-01-07 10:23:11.04	318.41	56.07	-43.1	-45.3	20.2	0.00e+00	0	41	0	768606208	57	4710
2026-01-07 10:23:12.04	318.77	55.73	-44.1	-46.6	19.1	0.00e+00	0	41	0	769654784	58	5197
2026-01-07 10:23:13.04	319.12	55.39	-44.5	-47.1	18.7	0.00e+00	0	41	0	771751936	59	5180
2026-01-07 10:23:14.05	319.46	55.05	-43.9	-46.3	19.4	0.00e+00	0	41	0	773849088	59	4751
2026-01-07 10:23:15.05	319.79	54.71	-42.9	-45.1	20.4	0.00e+00	0	41	0	775946240	57	4609
2026-01-07 10:23:16.05	320.11	54.38	-43.0	-45.2	20.3	0.00e+00	0	41	0	776994816	57	4679
2026-01-07 10:23:17.06	320.43	54.04	-44.0	-46.4	19.3	0.00e+00	0	41	0	779091968	58	5063
2026-01-07 10:23:18.06	320.74	53.71	-44.8	-47.5	18.4	0.00e+00	0	41	0	781189120	60	5109
2026-01-07 10:23:19.06	321.04	53.38	-44.5	-47.1	18.7	0.00e+00	0	41	0	783286272	60	4913
2026-01-07 10:23:20.07	321.34	53.05	-44.5	-47.1	18.7	0.00e+00	0	41	0	785383424	60	4920
2026-01-07 10:23:21.07	321.63	52.72	-43.8	-46.2	19.5	0.00e+00	0	41	0	786432000	59	4694
2026-01-07 10:23:22.07	321.91	52.40	-43.2	-45.5	20.0	0.00e+00	0	41	0	788529152	58	4569
2026-01-07 10:23:23.07	322.19	52.07	-42.8	-45.0	20.5	0.00e+00	0	41	0	790626304	57	4555
2026-01-07 10:23:24.08	322.46	51.74	-42.7	-44.9	20.6	0.00e+00	0	41	0	792723456	57	4496
2026-01-07 10:23:25.08	322.72	51.42	-43.2	-45.5	20.1	0.00e+00	0	41	0	794820608	57	4830
2026-01-07 10:23:26.08	322.98	51.10	-43.9	-46.3	19.3	0.00e+00	0	41	0	795869184	58	5030
2026-01-07 10:23:27.08	323.24	50.79	-44.9	-47.7	18.2	0.00e+00	0	41	0	797966336	60	5260
2026-01-07 10:23:28.08	323.49	50.47	-45.4	-48.3	17.6	0.00e+00	0	41	0	800063488	61	5306
2026-01-07 10:23:29.08	323.73	50.15	-44.9	-47.6	18.3	0.00e+00	0	41	0	802160640	61	4925
2026-01-07 10:23:30.08	323.97	49.84	-44.3	-46.8	19.0	0.00e+00	0	41	0	804257792	60	4719
2026-01-07 10:23:31.08	324.20	49.53	-44.7	-47.3	18.5	0.00e+00	0	41	0	805306368	60	5028
2026-01-07 10:23:32.09	324.43	49.22	-45.3	-48.1	17.8	0.00e+00	0	41	0	807403520	61	5200
2026-01-07 10:23:33.09	324.66	48.91	-46.1	-49.2	16.8	0.00e+00	0	41	0	809500672	62	5531
2026-01-07 10:23:34.09	324.88	48.60	-45.8	-48.9	17.2	0.00e+00	0	41	0	811597824	62	5362
2026-01-07 10:23:35.09	325.09	48.30	-46.7	-50.2	15.9	0.00e+00	0	41	0	813694976	63	5881
2026-01-07 10:23:36.10	325.31	47.99	-47.6	-51.9	14.1	0.00e+00	0	41	0	814743552	65	6372
2026-01-07 10:23:37.09	325.51	47.69	-47.9	-52.5	13.6	6.80e-06	0	41	0	816840704	66	6468
2026-01-07 10:23:38.10	325.72	47.39	-47.7	-52.0	13.8	1.06e-05	0	41	0	818937856	66	6094
2026-01-07 10:23:39.10	325.92	47.09	-47.6	-51.7	14.3	2.20e-06	0	41	0	821035008	66	5897
2026-01-07 10:23:40.10	326.12	46.79	-47.4	-51.3	14.7	1.50e-06	0	41	0	822083584	66	5617
2026-01-07 10:23:41.10	326.31	46.50	-46.1	-49.1	16.7	0.00e+00	0	41	0	824180736	64	4910
2026-01-07 10:23:42.10	326.50	46.21	-45.8	-48.6	17.5	0.00e+00	0	41	0	826277888	63	4898
2026-01-07 10:23:43.10	326.68	45.92	-45.9	-48.7	17.3	0.00e+00	0	41	0	828375040	63	4976
2026-01-07 10:23:44.10	326.87	45.63	-46.7	-49.9	16.1	0.00e+00	0	41	0	830472192	64	5393
2026-01-07 10:23:45.10	327.04	45.34	-47.4	-51.2	14.9	0.00e+00	0	41	0	831520768	65	5890
2026-01-07 10:23:46.11	327.22	45.05	-47.8	-51.8	14.3	1.50e-06	0	41	0	833617920	66	5965
2026-01-07 10:23:47.11	327.40	44.77	-47.6	-51.6	14.4	0.00e+00	0	41	0	835715072	66	5808
2026-01-07 10:23:48.11	327.57	44.49	-46.4	-49.6	16.3	0.00e+00	0	41	0	837812224	64	5195
2026-01-07 10:23:49.12	327.73	44.20	-45.8	-48.7	17.3	0.00e+00	0	41	0	839909376	63	4961
2026-01-07 10:23:50.12	327.90	43.92	-45.0	-47.7	18.3	0.00e+00	0	41	0	840957952	62	4653
2026-01-07 10:23:51.12	328.06	43.65	-44.8	-47.4	18.4	0.00e+00	0	41	0	843055104	61	4787
2026-01-07 10:23:52.12	328.22	43.37	-44.8	-47.5	18.4	0.00e+00	0	41	0	845152256	61	4817
2026-01-07 10:23:53.13	328.38	43.10	-45.6	-48.5	17.4	0.00e+00	0	41	0	847249408	61	5448
2026-01-07 10:23:54.13	328.53	42.83	-46.5	-49.8	16.3	0.00e+00	0	41	0	849346560	63	5648
2026-01-07 10:23:55.13	328.68	42.56	-46.8	-50.3	15.6	0.00e+00	0	41	0	850395136	64	5642
2026-01-07 10:23:56.14	328.83	42.29	-46.4	-49.6	16.3	0.00e+00	0	41	0	852492288	64	5218
2026-01-07 10:23:57.14	328.98	42.02	-45.6	-48.5	17.5	0.00e+00	0	41	0	854589440	63	4843
2026-01-07 10:23:58.14	329.12	41.75	-44.5	-47.1	18.8	0.00e+00	0	41	0	856686592	61	4612
2026-01-07 10:23:59.15	329.26	41.49	-43.9	-46.2	19.4	0.00e+00	0	41	0	858783744	59	4686
2026-01-07 10:24:00.15	329.40	41.23	-43.3	-45.5	20.1	0.00e+00	0	41	0	859832320	58	4595
2026-01-07 10:24:01.15	329.54	40.97	-43.1	-45.2	20.3	0.00e+00	0	41	0	861929472	58	4432
2026-01-07 10:24:02.15	329.68	40.71	-43.8	-46.0	19.6	0.00e+00	0	41	0	864026624	58	4857
2026-01-07 10:24:03.15	329.81	40.46	-44.9	-47.6	18.3	0.00e+00	0	41	0	866123776	60	5176
2026-01-07 10:24:04.15	329.94	40.20	-45.2	-48.0	17.8	0.00e+00	0	41	0	867172352	61	5145
2026-01-07 10:24:05.15	330.07	39.95	-45.7	-48.8	17.1	0.00e+00	0	41	0	869269504	61	5596
2026-01-07 10:24:06.15	330.20	39.70	-45.8	-49.0	16.9	0.00e+00	0	41	0	871366656	62	5411
2026-01-07 10:24:07.14	330.32	39.45	-45.7	-48.9	16.9	0.00e+00	0	41	0	873463808	62	5365
2026-01-07 10:24:08.14	330.44	39.20	-45.1	-48.0	17.6	0.00e+00	0	41	0	875560960	62	4856
2026-01-07 10:24:09.14	330.57	38.96	-45.2	-48.1	17.6	0.00e+00	0	41	0	876609536	61	5208
2026-01-07 10:24:10.15	330.69	38.71	-45.3	-48.3	17.6	0.00e+00	0	41	0	878706688	61	5281
2026-01-07 10:24:11.15	330.81	38.47	-45.4	-48.3	17.5	0.00e+00	0	41	0	880803840	61	5283
2026-01-07 10:24:12.15	330.92	38.23	-45.8	-48.9	16.9	0.00e+00	0	41	0	882900992	62	5348
2026-01-07 10:24:13.15	331.04	37.99	-45.5	-48.4	17.3	0.00e+00	0	41	0	884998144	62	5093
2026-01-07 10:24:14.15	331.15	37.75	-45.0	-47.8	17.9	0.00e+00	0	41	0	886046720	62	4734
2026-01-07 10:24:15.16	331.26	37.51	-44.6	-47.3	18.4	0.00e+00	0	41	0	888143872	60	5028
2026-01-07 10:24:16.16	331.37	37.27	-44.5	-47.2	18.5	0.00e+00	0	41	0	890241024	60	4955
2026-01-07 10:24:17.16	331.48	37.04	-44.4	-47.1	18.5	0.00e+00	0	41	0	892338176	60	4884
2026-01-07 10:24:18.16	331.59	36.81	-44.7	-47.4	18.2	0.00e+00	0	41	0	894435328	60	5065
2026-01-07 10:24:19.16	331.69	36.58	-45.5	-48.5	17.2	0.00e+00	0	41	0	895483904	61	5424
2026-01-07 10:24:20.16	331.80	36.35	-45.6	-48.5	17.1	0.00e+00	0	41	0	897581056	62	5143
2026-01-07 10:24:21.17	331.90	36.12	-45.8	-48.8	16.9	0.00e+00	0	41	0	899678208	62	5329
2026-01-07 10:24:22.17	332.00	35.90	-45.9	-48.9	16.7	0.00e+00	0	41	0	901775360	63	5071
2026-01-07 10:24:23.17	332.10	35.67	-45.7	-48.7	16.9	0.00e+00	0	41	0	902823936	63	4937
2026-01-07 10:24:24.17	332.20	35.45	-45.6	-48.5	17.1	0.00e+00	0	41	0	904921088	62	5151
2026-01-07 10:24:25.17	332.30	35.23	-45.5	-48.4	17.1	0.00e+00	0	41	0	907018240	62	5084
2026-01-07 10:24:26.17	332.40	35.01	-45.6	-48.5	17.0	0.00e+00	0	41	0	909115392	62	5149
2026-01-07 10:24:27.18	332.49	34.79	-45.3	-48.1	17.5	0.00e+00	0	41	0	911212544	62	4913
2026-01-07 10:24:28.18	332.59	34.57	-45.8	-48.8	16.8	0.00e+00	0	41	0	912261120	62	5337
2026-01-07 10:24:29.18	332.68	34.36	-45.7	-48.7	17.0	0.00e+00	0	41	0	914358272	62	5275
2026-01-07 10:24:30.18	332.77	34.14	-46.2	-49.4	16.3	0.00e+00	0	41	0	916455424	63	5392
2026-01-07 10:24:31.18	332.86	33.93	-46.4	-49.8	15.9	0.00e+00	0	41	0	918552576	63	5652
2026-01-07 10:24:32.18	332.95	33.72	-46.6	-50.2	15.5	0.00e+00	0	41	0	920649728	64	5571
2026-01-07 10:24:33.18	333.04	33.51	-46.7	-50.3	15.3	0.00e+00	0	41	0	921698304	64	5656
2026-01-07 10:24:34.18	333.12	33.30	-46.7	-50.6	15.2	0.00e+00	0	41	0	923795456	64	5798
2026-01-07 10:24:35.18	333.21	33.09	-47.1	-51.3	14.3	0.00e+00	0	41	0	925892608	64	6334
2026-01-07 10:24:36.19	333.30	32.88	-46.6	-50.4	15.3	0.00e+00	0	41	0	927989760	64	5663
2026-01-07 10:24:37.19	333.38	32.68	-46.6	-50.5	15.2	0.00e+00	0	41	0	930086912	64	5726
2026-01-07 10:24:38.19	333.46	32.48	-46.3	-49.8	15.9	0.00e+00	0	41	0	931135488	64	5296
2026-01-07 10:24:39.19	333.54	32.28	-46.0	-49.3	16.3	0.00e+00	0	41	0	933232640	64	5007
2026-01-07 10:24:40.19	333.63	32.07	-46.2	-49.6	16.2	0.00e+00	0	41	0	935329792	63	5467
2026-01-07 10:24:41.19	333.71	31.88	-45.9	-49.1	16.6	0.00e+00	0	41	0	937426944	63	5169
2026-01-07 10:24:42.19	333.79	31.68	-45.5	-48.4	17.2	0.00e+00	0	41	0	939524096	63	4785
2026-01-07 10:24:43.19	333.86	31.48	-45.5	-48.3	17.3	0.00e+00	0	41	0	940572672	62	5026
2026-01-07 10:24:44.19	333.94	31.29	-45.4	-48.2	17.5	0.00e+00	0	41	0	942669824	62	4929
2026-01-07 10:24:45.19	334.02	31.09	-45.3	-48.1	17.6	0.00e+00	0	41	0	944766976	62	4888
2026-01-07 10:24:46.19	334.09	30.90	-45.5	-48.4	17.3	0.00e+00	0	41	0	946864128	62	5054
2026-01-07 10:24:47.19	334.17	30.71	-45.7	-48.6	17.1	0.00e+00	0	41	0	947912704	62	5207
2026-01-07 10:24:48.20	334.24	30.51	-45.3	-48.1	17.5	0.00e+00	0	41	0	950009856	62	4906
2026-01-07 10:24:49.20	334.31	30.33	-45.7	-48.7	17.0	0.00e+00	0	41	0	952107008	62	5245
2026-01-07 10:24:50.20	334.39	30.14	-45.8	-48.8	16.8	0.00e+00	0	41	0	954204160	62	5315
2026-01-07 10:24:51.20	334.46	29.95	-45.5	-48.5	17.2	0.00e+00	0	41	0	956301312	62	5105
2026-01-07 10:24:52.20	334.53	29.77	-45.6	-48.7	17.0	0.00e+00	0	41	0	957349888	62	5237
2026-01-07 10:24:53.20	334.60	29.58	-45.8	-49.2	16.4	0.00e+00	0	41	0	959447040	62	5584
2026-01-07 10:24:54.20	334.67	29.40	-46.1	-49.6	16.0	0.00e+00	0	41	0	961544192	63	5480
2026-01-07 10:24:55.20	334.74	29.22	-46.4	-50.0	15.6	0.00e+00	0	41	0	963641344	63	5772
2026-01-07 10:24:56.20	334.80	29.03	-46.9	-50.9	14.6	0.00e+00	0	41	0	965738496	64	6043
2026-01-07 10:24:57.20	334.87	28.85	-47.2	-51.3	14.2	0.00e+00	0	41	0	966787072	64	6307
2026-01-07 10:24:58.21	334.94	28.67	-47.7	-52.1	13.7	5.30e-06	0	41	0	968884224	65	6527
2026-01-07 10:24:59.21	335.00	28.50	-47.8	-52.4	13.1	2.28e-05	0	41	0	970981376	66	6365
2026-01-07 10:25:00.21	335.07	28.32	-47.7	-52.1	13.3	8.30e-06	0	41	0	973078528	66	6134
2026-01-07 10:25:01.21	335.13	28.14	-47.7	-52.2	13.3	9.10e-06	0	41	0	974127104	66	6229
2026-01-07 10:25:02.21	335.20	27.97	-47.2	-51.2	14.3	4.50e-06	0	41	0	976224256	66	5559
2026-01-07 10:25:03.22	335.26	27.80	-46.6	-50.2	15.2	0.00e+00	0	41	0	978321408	65	5257
2026-01-07 10:25:04.22	335.32	27.62	-46.1	-49.4	16.0	0.00e+00	0	41	0	980418560	64	5054
2026-01-07 10:25:05.22	335.38	27.45	-45.4	-48.4	17.0	0.00e+00	0	41	0	982515712	62	5048
2026-01-07 10:25:06.23	335.45	27.28	-44.8	-47.4	17.9	0.00e+00	0	41	0	984612864	61	4804
2026-01-07 10:25:07.23	335.51	27.11	-44.3	-46.8	18.5	0.00e+00	0	41	0	985661440	60	4743
2026-01-07 10:25:08.23	335.57	26.94	-44.1	-46.5	18.8	0.00e+00	0	41	0	987758592	60	4553
2026-01-07 10:25:09.23	335.63	26.78	-43.5	-45.8	19.3	0.00e+00	0	41	0	989855744	59	4447
2026-01-07 10:25:10.23	335.69	26.61	-43.2	-45.4	19.7	0.00e+00	0	41	0	991952896	58	4510
2026-01-07 10:25:11.24	335.74	26.44	-43.1	-45.3	19.7	0.00e+00	0	41	0	993001472	58	4468
2026-01-07 10:25:12.24	335.80	26.28	-43.0	-45.2	19.8	0.00e+00	0	41	0	995098624	57	4684
2026-01-07 10:25:13.24	335.86	26.12	-43.1	-45.4	19.7	0.00e+00	0	41	0	997195776	57	4789
2026-01-07 10:25:14.24	335.92	25.95	-43.4	-45.7	19.4	0.00e+00	0	41	0	999292928	57	4956
2026-01-07 10:25:15.24	335.97	25.79	-43.6	-46.0	19.1	0.00e+00	0	41	0	1001390080	57	5159
2026-01-07 10:25:16.24	336.03	25.63	-44.3	-46.9	18.3	0.00e+00	0	41	0	1002438656	59	5061
2026-01-07 10:25:17.25	336.08	25.47	-44.4	-47.1	18.1	0.00e+00	0	41	0	1004535808	59	5164
2026-01-07 10:25:18.25	336.14	25.31	-45.0	-47.9	17.5	0.00e+00	0	41	0	1006632960	60	5357
2026-01-07 10:25:19.25	336.19	25.15	-45.3	-48.2	17.1	0.00e+00	0	41	0	1008730112	61	5274
2026-01-07 10:25:20.25	336.24	25.00	-45.3	-48.3	17.1	0.00e+00	0	41	0	1010827264	61	5282
2026-01-07 10:25:21.25	336.30	24.84	-45.0	-47.9	17.3	0.00e+00	0	41	0	1011875840	61	5081
2026-01-07 10:25:22.25	336.35	24.69	-45.0	-47.9	17.3	0.00e+00	0	41	0	1013972992	61	5078
2026-01-07 10:25:23.25	336.40	24.53	-44.8	-47.6	17.6	0.00e+00	0	41	0	1016070144	61	4910
2026-01-07 10:25:24.25	336.45	24.38	-44.5	-47.2	18.0	0.00e+00	0	41	0	1018167296	61	4705
2026-01-07 10:25:25.25	336.50	24.23	-44.2	-46.8	18.4	0.00e+00	0	41	0	1019215872	60	4725
2026-01-07 10:25:26.25	336.55	24.08	-44.3	-47.0	18.2	0.00e+00	0	41	0	1021313024	60	4844
2026-01-07 10:25:27.26	336.61	23.93	-43.9	-46.5	18.6	0.00e+00	0	41	0	1023410176	59	4860
2026-01-07 10:25:28.26	336.65	23.78	-43.9	-46.5	18.6	0.00e+00	0	41	0	1025507328	59	4819
2026-01-07 10:25:29.26	336.70	23.63	-43.9	-46.5	18.5	0.00e+00	0	41	0	1027604480	59	4837
2026-01-07 10:25:30.27	336.75	23.48	-43.8	-46.4	18.7	0.00e+00	0	41	0	1028653056	59	4768
2026-01-07 10:25:31.27	336.80	23.33	-43.8	-46.3	18.7	0.00e+00	0	41	0	1030750208	59	4750
2026-01-07 10:25:32.27	336.85	23.18	-43.7	-46.2	18.8	0.00e+00	0	41	0	1032847360	59	4702
2026-01-07 10:25:33.27	336.90	23.04	-43.6	-46.2	18.8	0.00e+00	0	41	0	1034944512	59	4661
2026-01-07 10:25:34.27	336.95	22.89	-43.5	-46.1	18.9	0.00e+00	0	41	0	1037041664	59	4621
2026-01-07 10:25:35.28	336.99	22.75	-43.5	-46.0	18.9	0.00e+00	0	41	0	1038090240	58	4869
2026-01-07 10:25:36.28	337.04	22.61	-43.4	-45.9	19.1	0.00e+00	0	41	0	1040187392	58	4773
2026-01-07 10:25:37.28	337.08	22.46	-43.3	-45.8	19.2	0.00e+00	0	41	0	1042284544	58	4708
2026-01-07 10:25:38.29	337.13	22.32	-43.3	-45.8	19.1	0.00e+00	0	41	0	1044381696	58	4757
2026-01-07 10:25:39.29	337.18	22.18	-43.3	-45.8	19.1	0.00e+00	0	41	0	1046478848	58	4718
2026-01-07 10:25:40.29	337.22	22.04	-43.4	-45.8	19.1	0.00e+00	0	41	0	1047527424	58	4756
2026-01-07 10:25:41.30	337.27	21.90	-43.6	-46.1	18.8	0.00e+00	0	41	0	1049624576	58	4924
2026-01-07 10:25:42.30	337.31	21.76	-43.5	-46.0	19.0	0.00e+00	0	41	0	1051721728	58	4830
2026-01-07 10:25:43.29	337.35	21.63	-43.7	-46.3	18.7	0.00e+00	0	41	0	1053818880	58	5002
2026-01-07 10:25:44.30	337.40	21.49	-43.9	-46.6	18.4	0.00e+00	0	41	0	1055916032	58	5172
2026-01-07 10:25:45.30	337.44	21.35	-44.0	-46.7	18.3	0.00e+00	0	41	0	1056964608	58	5277
2026-01-07 10:25:46.30	337.48	21.22	-44.2	-47.0	18.0	0.00e+00	0	41	0	1059061760	59	5138
2026-01-07 10:25:47.30	337.53	21.08	-44.4	-47.3	17.7	0.00e+00	0	41	0	1061158912	59	5309
2026-01-07 10:25:48.30	337.57	20.95	-44.4	-47.4	17.6	0.00e+00	0	41	0	1063256064	59	5356
2026-01-07 10:25:49.30	337.61	20.81	-44.3	-47.3	17.7	0.00e+00	0	41	0	1065353216	59	5320
2026-01-07 10:25:50.30	337.65	20.68	-44.3	-47.3	17.7	0.00e+00	0	41	0	1066401792	59	5338
2026-01-07 10:25:51.30	337.69	20.55	-44.1	-47.1	17.9	0.00e+00	0	41	0	1068498944	59	5168
2026-01-07 10:25:52.30	337.73	20.42	-43.9	-46.8	18.2	0.00e+00	0	41	0	1070596096	59	4995
2026-01-07 10:25:53.30	337.77	20.29	-43.8	-46.5	18.4	0.00e+00	0	41	0	1072693248	59	4859
2026-01-07 10:25:54.31	337.81	20.16	-43.6	-46.2	18.6	0.00e+00	0	41	0	1073741824	59	4689
2026-01-07 10:25:55.31	337.85	20.03	-43.4	-45.9	18.9	0.00e+00	0	41	0	1075838976	58	4812
2026-01-07 10:25:56.31	337.89	19.90	-43.3	-45.7	19.1	0.00e+00	0	41	0	1077936128	58	4687
2026-01-07 10:25:57.31	337.93	19.77	-43.2	-45.6	19.2	0.00e+00	0	41	0	1080033280	58	4617
2026-01-07 10:25:58.32	337.97	19.64	-43.1	-45.4	19.3	0.00e+00	0	41	0	1082130432	58	4538
2026-01-07 10:25:59.32	338.01	19.52	-43.2	-45.5	19.2	0.00e+00	0	41	0	1083179008	58	4587
2026-01-07 10:26:00.32	338.05	19.39	-43.0	-45.2	19.5	0.00e+00	0	41	0	1085276160	57	4704
2026-01-07 10:26:01.32	338.09	19.26	-42.8	-45.1	19.6	0.00e+00	0	41	0	1087373312	57	4626
2026-01-07 10:26:02.32	338.13	19.14	-42.8	-45.0	19.6	0.00e+00	0	41	0	1089470464	57	4592
2026-01-07 10:26:03.33	338.16	19.01	-42.8	-45.1	19.6	0.00e+00	0	41	0	1091567616	57	4626
2026-01-07 10:26:04.33	338.20	18.89	-42.9	-45.2	19.5	0.00e+00	0	41	0	1092616192	57	4687
2026-01-07 10:26:05.33	338.24	18.77	-43.1	-45.4	19.3	0.00e+00	0	41	0	1094713344	57	4807
2026-01-07 10:26:06.34	338.28	18.64	-43.0	-45.4	19.3	0.00e+00	0	41	0	1096810496	57	4787
2026-01-07 10:26:07.34	338.31	18.52	-43.1	-45.5	19.2	0.00e+00	0	41	0	1098907648	57	4826
2026-01-07 10:26:08.34	338.35	18.40	-43.3	-45.7	19.0	0.00e+00	0	41	0	1101004800	57	4967
2026-01-07 10:26:09.34	338.38	18.28	-43.4	-45.8	18.9	0.00e+00	0	41	0	1102053376	57	5023
2026-01-07 10:26:10.34	338.42	18.16	-43.4	-45.8	18.9	0.00e+00	0	41	0	1104150528	57	5004
2026-01-07 10:26:11.35	338.46	18.04	-43.5	-46.0	18.7	0.00e+00	0	41	0	1106247680	57	5120
2026-01-07 10:26:12.35	338.49	17.92	-43.6	-46.0	18.7	0.00e+00	0	41	0	1108344832	57	5152
2026-01-07 10:26:13.36	338.53	17.80	-43.6	-46.0	18.7	0.00e+00	0	41	0	1110441984	58	4834
2026-01-07 10:26:14.36	338.56	17.68	-43.6	-46.0	18.7	0.00e+00	0	41	0	1111490560	58	4857
2026-01-07 10:26:15.36	338.60	17.57	-43.7	-46.2	18.5	0.00e+00	0	41	0	1113587712	58	4942
2026-01-07 10:26:16.36	338.63	17.45	-43.8	-46.3	18.4	0.00e+00	0	41	0	1115684864	58	5002
2026-01-07 10:26:17.36	338.66	17.33	-43.7	-46.1	18.6	0.00e+00	0	41	0	1117782016	58	4904
2026-01-07 10:26:18.36	338.70	17.22	-43.7	-46.1	18.5	0.00e+00	0	41	0	1118830592	58	4924
2026-01-07 10:26:19.37	338.73	17.10	-43.8	-46.3	18.4	0.00e+00	0	41	0	1120927744	58	5016
2026-01-07 10:26:20.37	338.77	16.99	-43.7	-46.2	18.5	0.00e+00	0	41	0	1123024896	58	4942
2026-01-07 10:26:21.36	338.80	16.88	-43.6	-46.1	18.6	0.00e+00	0	41	0	1125122048	58	4879
2026-01-07 10:26:22.36	338.83	16.76	-43.6	-46.2	18.5	0.00e+00	0	41	0	1127219200	58	4943
2026-01-07 10:26:23.36	338.86	16.65	-43.5	-46.0	18.6	0.00e+00	0	41	0	1128267776	58	4839
2026-01-07 10:26:24.36	338.90	16.54	-43.6	-46.2	18.4	0.00e+00	0	41	0	1130364928	58	4971
2026-01-07 10:26:25.36	338.93	16.42	-43.5	-46.2	18.5	0.00e+00	0	41	0	1132462080	58	4935
2026-01-07 10:26:26.36	338.96	16.31	-43.6	-46.3	18.3	0.00e+00	0	41	0	1134559232	58	5011
2026-01-07 10:26:27.36	338.99	16.20	-43.6	-46.3	18.3	0.00e+00	0	41	0	1136656384	58	5034
2026-01-07 10:26:28.36	339.03	16.09	-43.6	-46.3	18.3	0.00e+00	0	41	0	1137704960	58	5000
2026-01-07 10:26:29.37	339.06	15.98	-43.7	-46.5	18.1	0.00e+00	0	41	0	1139802112	58	5120
2026-01-07 10:26:30.37	339.09	15.87	-43.6	-46.4	18.2	0.00e+00	0	41	0	1141899264	58	5057
2026-01-07 10:26:31.37	339.12	15.76	-43.7	-46.5	18.1	0.00e+00	0	41	0	1143996416	58	5115
2026-01-07 10:26:32.38	339.15	15.65	-43.9	-46.6	18.0	0.00e+00	0	41	0	1145044992	58	5203
2026-01-07 10:26:33.38	339.18	15.55	-43.7	-46.4	18.1	0.00e+00	0	41	0	1147142144	58	5059
2026-01-07 10:26:34.37	339.21	15.44	-43.8	-46.6	17.9	0.00e+00	0	41	0	1149239296	58	5199
2026-01-07 10:26:35.37	339.24	15.33	-43.9	-46.7	17.8	0.00e+00	0	41	0	1151336448	58	5266
2026-01-07 10:26:36.38	339.27	15.23	-44.0	-46.8	17.7	0.00e+00	0	41	0	1153433600	58	5340
2026-01-07 10:26:37.38	339.30	15.12	-44.0	-47.0	17.6	0.00e+00	0	41	0	1155530752	58	5407
2026-01-07 10:26:38.38	339.33	15.01	-44.1	-47.1	17.5	0.00e+00	0	41	0	1156579328	58	5489
2026-01-07 10:26:39.38	339.36	14.91	-43.9	-47.0	17.5	0.00e+00	0	41	0	1158676480	58	5416
2026-01-07 10:26:40.38	339.39	14.80	-44.1	-47.4	17.2	0.00e+00	0	41	0	1160773632	58	5675
2026-01-07 10:26:41.39	339.42	14.70	-44.0	-47.3	17.2	0.00e+00	0	41	0	1162870784	58	5633
2026-01-07 10:26:42.39	339.45	14.59	-44.1	-47.6	16.9	0.00e+00	0	41	0	1163919360	58	5807
2026-01-07 10:26:43.39	339.48	14.49	-44.1	-47.7	16.8	0.00e+00	0	41	0	1166016512	59	5541
2026-01-07 10:26:44.39	339.51	14.39	-44.1	-47.7	16.8	0.00e+00	0	41	0	1168113664	59	5531
2026-01-07 10:26:45.40	339.54	14.29	-44.2	-47.9	16.6	0.00e+00	0	41	0	1170210816	59	5696
2026-01-07 10:26:46.40	339.57	14.18	-44.3	-48.1	16.4	0.00e+00	0	41	0	1172307968	59	5798
2026-01-07 10:26:47.40	339.59	14.08	-44.3	-48.0	16.5	0.00e+00	0	41	0	1173356544	59	5734
2026-01-07 10:26:48.40	339.62	13.98	-44.6	-48.4	16.1	0.00e+00	0	41	0	1175453696	59	6006
2026-01-07 10:26:49.40	339.65	13.88	-44.7	-48.2	16.2	0.00e+00	0	41	0	1177550848	59	5920
2026-01-07 10:26:50.41	339.68	13.78	-44.9	-48.6	15.9	0.00e+00	0	41	0	1179648000	60	5828
2026-01-07 10:26:51.41	339.71	13.68	-45.1	-48.6	15.9	7.00e-07	0	41	0	1181745152	60	5853
2026-01-07 10:26:52.41	339.73	13.58	-45.1	-48.8	15.7	0.00e+00	0	41	0	1182793728	61	5596
2026-01-07 10:26:53.41	339.76	13.48	-45.4	-49.1	15.4	0.00e+00	0	41	0	1184890880	61	5809
2026-01-07 10:26:54.41	339.79	13.38	-45.6	-49.3	15.1	0.00e+00	0	41	0	1186988032	61	5954
2026-01-07 10:26:55.42	339.81	13.28	-45.5	-49.3	15.1	0.00e+00	0	41	0	1189085184	61	5934
2026-01-07 10:26:56.42	339.84	13.18	-45.7	-49.6	14.8	0.00e+00	0	41	0	1190133760	62	5824
2026-01-07 10:26:57.42	339.87	13.09	-45.7	-49.6	14.8	0.00e+00	0	41	0	1192230912	62	5837
2026-01-07 10:26:58.42	339.89	12.99	-45.6	-49.7	14.7	0.00e+00	0	41	0	1194328064	62	5899
2026-01-07 10:26:59.42	339.92	12.89	-45.5	-49.6	14.8	0.00e+00	0	41	0	1196425216	62	5835
2026-01-07 10:27:00.42	339.95	12.80	-45.4	-49.5	14.8	0.00e+00	0	41	0	1198522368	62	5765
2026-01-07 10:27:01.42	339.97	12.70	-45.3	-49.4	15.0	0.00e+00	0	41	0	1199570944	62	5681
2026-01-07 10:27:02.42	340.00	12.60	-45.1	-49.2	15.2	0.00e+00	0	41	0	1201668096	62	5537
2026-01-07 10:27:03.42	340.02	12.51	-45.1	-49.3	15.0	0.00e+00	0	41	0	1203765248	62	5652
2026-01-07 10:27:04.42	340.05	12.41	-44.9	-49.1	15.2	0.00e+00	0	41	0	1205862400	61	5814
2026-01-07 10:27:05.43	340.08	12.32	-44.9	-49.1	15.1	0.00e+00	0	41	0	1207959552	61	5848
2026-01-07 10:27:06.43	340.10	12.22	-44.8	-49.1	15.1	0.00e+00	0	41	0	1209008128	61	5839
2026-01-07 10:27:07.43	340.13	12.13	-44.8	-49.0	15.2	0.00e+00	0	41	0	1211105280	61	5786
