passes_logs/2026/01/07/T1/T1__20260107_082526_KHAYYAM_rec.log

#Pass ID: 20260107_082526_KHAYYAM
#Satellite: KHAYYAM
#Configuration: KHAYYAM_480M
#almurnet v.1.7.20251203
#Start time: 2026-01-07 08:25:26

#Version: 2.0.20230620
#Station: T1
#Location: 37.570604 lon 55.790049 lat
#TLE: 1 53370U 22096A   26005.63766736  .00008095  00000+0  32978-3 0  9997
#TLE: 2 53370  97.3565 272.8146 0001238  87.7645 272.3734 15.24731212189819

#Time	Az	El	Level	Level2	SNR	BER	BlckErr	Temp	State	Recorded	gain1	gain2
2026-01-07 08:25:26.52	185.78	5.04	-51.5	-56.2	3.4	0.00e+00	0	45	0	0	74	25002
2026-01-07 08:25:27.51	185.84	5.12	-51.3	-56.3	3.7	0.00e+00	0	46	104	0	73	26589
2026-01-07 08:25:28.51	185.90	5.20	-51.4	-56.3	3.7	0.00e+00	0	46	104	0	73	26633
2026-01-07 08:25:29.50	185.96	5.28	-51.4	-56.2	3.7	0.00e+00	0	46	104	0	73	26578
2026-01-07 08:25:30.50	186.02	5.36	-51.4	-56.3	3.7	0.00e+00	0	46	104	0	73	26634
2026-01-07 08:25:31.50	186.09	5.44	-51.3	-56.3	3.7	0.00e+00	0	46	104	0	73	26628
2026-01-07 08:25:32.50	186.15	5.52	-51.3	-56.3	3.7	0.00e+00	0	46	104	0	73	26616
2026-01-07 08:25:33.49	186.21	5.60	-51.4	-56.3	3.7	0.00e+00	0	46	104	0	73	26659
2026-01-07 08:25:34.49	186.28	5.68	-51.3	-56.3	3.7	0.00e+00	0	47	104	0	73	26684
2026-01-07 08:25:35.49	186.34	5.76	-51.4	-56.4	3.7	0.00e+00	0	47	104	0	73	26915
2026-01-07 08:25:36.48	186.40	5.84	-51.4	-56.3	3.7	0.00e+00	0	46	104	0	73	26746
2026-01-07 08:25:37.48	186.47	5.92	-51.4	-56.3	3.7	0.00e+00	0	47	104	0	73	26719
2026-01-07 08:25:38.48	186.53	6.00	-51.4	-56.3	3.7	0.00e+00	0	47	104	0	73	26658
2026-01-07 08:25:39.48	186.60	6.09	-51.4	-56.3	3.7	0.00e+00	0	47	104	0	73	26655
2026-01-07 08:25:40.47	186.67	6.17	-51.3	-56.3	3.7	0.00e+00	0	47	104	0	73	26684
2026-01-07 08:25:41.47	186.73	6.25	-51.3	-56.3	3.7	0.00e+00	0	47	104	0	73	26607
2026-01-07 08:25:42.47	186.80	6.33	-51.4	-56.3	3.7	0.00e+00	0	47	104	0	73	26830
2026-01-07 08:25:43.47	186.87	6.42	-51.4	-56.3	3.7	0.00e+00	0	47	104	0	73	26798
2026-01-07 08:25:44.46	186.93	6.50	-51.4	-56.3	3.7	0.00e+00	0	47	104	0	73	26871
2026-01-07 08:25:45.46	187.00	6.59	-51.4	-56.3	3.7	0.00e+00	0	47	104	0	73	26625
2026-01-07 08:25:46.46	187.07	6.67	-51.4	-56.3	3.7	0.00e+00	0	47	104	0	73	26664
2026-01-07 08:25:47.46	187.14	6.76	-51.4	-56.3	3.7	0.00e+00	0	47	104	0	73	26778
2026-01-07 08:25:48.45	187.21	6.84	-51.4	-56.3	3.7	0.00e+00	0	47	104	0	73	26687
2026-01-07 08:25:49.45	187.28	6.93	-51.4	-56.3	3.7	0.00e+00	0	47	104	0	73	26864
2026-01-07 08:25:50.45	187.35	7.01	-51.4	-56.3	3.7	0.00e+00	0	48	104	0	73	26614
2026-01-07 08:25:51.44	187.42	7.10	-51.4	-56.3	3.7	0.00e+00	0	48	104	0	73	26673
2026-01-07 08:25:52.44	187.50	7.19	-51.3	-56.3	3.7	0.00e+00	0	48	104	0	73	26740
2026-01-07 08:25:53.43	187.57	7.27	-51.3	-56.3	3.7	0.00e+00	0	48	104	0	73	26719
2026-01-07 08:25:54.43	187.64	7.36	-51.4	-56.3	3.7	0.00e+00	0	48	104	0	73	26700
2026-01-07 08:25:55.42	187.71	7.45	-51.4	-56.3	3.7	0.00e+00	0	48	104	0	73	26667
2026-01-07 08:25:56.42	187.79	7.54	-51.3	-56.2	3.7	0.00e+00	0	48	104	0	73	26579
2026-01-07 08:25:57.42	187.86	7.62	-51.3	-56.2	3.7	0.00e+00	0	48	104	0	73	26577
2026-01-07 08:25:58.42	187.94	7.71	-51.3	-56.2	3.7	0.00e+00	0	48	104	0	73	26471
2026-01-07 08:25:59.42	188.01	7.80	-51.4	-56.3	3.7	0.00e+00	0	48	104	0	73	26584
2026-01-07 08:26:00.41	188.09	7.89	-51.3	-56.2	3.7	0.00e+00	0	48	104	0	73	26472
2026-01-07 08:26:01.41	188.17	7.98	-51.3	-56.2	3.7	0.00e+00	0	48	104	0	73	26522
2026-01-07 08:26:02.41	188.25	8.07	-51.3	-56.2	3.6	0.00e+00	0	48	104	0	73	26386
2026-01-07 08:26:03.41	188.32	8.17	-51.3	-56.2	3.7	0.00e+00	0	48	104	0	73	26409
2026-01-07 08:26:04.40	188.40	8.26	-51.3	-56.2	3.7	0.00e+00	0	49	104	0	73	26482
2026-01-07 08:26:05.40	188.48	8.35	-51.3	-56.2	3.7	0.00e+00	0	49	104	0	73	26540
2026-01-07 08:26:06.40	188.56	8.44	-51.4	-56.3	3.7	0.00e+00	0	49	104	0	73	26612
2026-01-07 08:26:07.40	188.64	8.53	-51.4	-56.3	3.7	0.00e+00	0	49	104	0	73	26671
2026-01-07 08:26:08.39	188.72	8.63	-51.4	-56.3	3.7	0.00e+00	0	49	104	0	73	26620
2026-01-07 08:26:09.39	188.80	8.72	-51.4	-56.3	3.7	0.00e+00	0	49	104	0	73	26613
2026-01-07 08:26:10.39	188.89	8.81	-51.4	-56.3	3.7	0.00e+00	0	49	104	0	73	26650
2026-01-07 08:26:11.39	188.97	8.91	-51.3	-56.2	3.7	0.00e+00	0	49	104	0	73	26569
2026-01-07 08:26:12.38	189.05	9.00	-51.3	-56.3	3.7	0.00e+00	0	49	104	0	73	26640
2026-01-07 08:26:13.38	189.14	9.10	-51.3	-56.2	3.7	0.00e+00	0	49	104	0	73	26433
2026-01-07 08:26:14.38	189.22	9.19	-51.1	-56.1	3.7	0.00e+00	0	49	104	0	73	26178
2026-01-07 08:26:15.37	189.31	9.29	-51.1	-56.1	3.7	0.00e+00	0	49	104	0	73	26222
2026-01-07 08:26:16.37	189.39	9.39	-51.2	-56.2	3.7	0.00e+00	0	49	104	0	73	26313
2026-01-07 08:26:17.37	189.48	9.48	-51.1	-56.1	3.7	0.00e+00	0	49	104	0	73	26015
2026-01-07 08:26:18.37	189.57	9.58	-51.3	-56.2	3.7	0.00e+00	0	49	104	0	73	26303
2026-01-07 08:26:19.37	189.66	9.68	-51.4	-56.4	3.7	0.00e+00	0	49	104	0	73	26951
2026-01-07 08:26:20.36	189.75	9.78	-51.1	-56.2	3.7	0.00e+00	0	49	104	0	73	26289
2026-01-07 08:26:21.36	189.84	9.88	-51.4	-56.3	3.7	0.00e+00	0	49	104	0	73	26801
2026-01-07 08:26:22.35	189.93	9.98	-51.4	-56.4	3.7	0.00e+00	0	49	104	0	73	27198
2026-01-07 08:26:23.35	190.02	10.08	-51.4	-56.3	3.7	0.00e+00	0	49	104	0	73	26640
2026-01-07 08:26:24.35	190.11	10.18	-51.4	-56.4	3.7	0.00e+00	0	49	104	0	73	26901
2026-01-07 08:26:25.35	190.20	10.28	-51.3	-56.1	3.7	0.00e+00	0	49	104	0	73	26182
2026-01-07 08:26:26.35	190.30	10.38	-51.2	-56.2	3.7	0.00e+00	0	49	104	0	73	26562
2026-01-07 08:26:27.35	190.39	10.48	-50.9	-55.9	3.7	0.00e+00	0	50	104	0	73	25522
2026-01-07 08:26:28.35	190.49	10.59	-51.3	-56.1	3.7	0.00e+00	0	50	104	0	73	26254
2026-01-07 08:26:29.35	190.58	10.69	-50.7	-55.6	3.7	0.00e+00	0	50	104	0	73	24706
2026-01-07 08:26:30.34	190.68	10.79	-50.8	-55.7	3.7	0.00e+00	0	49	104	0	73	24940
2026-01-07 08:26:31.34	190.78	10.90	-50.6	-55.6	3.7	0.00e+00	0	50	104	0	73	24761
2026-01-07 08:26:32.34	190.87	11.00	-50.9	-55.8	3.7	0.00e+00	0	49	104	0	73	25349
2026-01-07 08:26:33.34	190.97	11.11	-50.5	-55.6	3.7	0.00e+00	0	49	104	0	72	26060
2026-01-07 08:26:34.33	191.07	11.21	-50.6	-55.4	3.7	0.00e+00	0	50	104	0	72	25591
2026-01-07 08:26:35.33	191.17	11.32	-50.5	-55.4	3.7	0.00e+00	0	50	104	0	72	25486
2026-01-07 08:26:36.33	191.28	11.43	-50.6	-55.6	3.7	0.00e+00	0	49	104	0	72	26036
2026-01-07 08:26:37.33	191.38	11.53	-50.6	-55.7	3.7	0.00e+00	0	50	104	0	72	26406
2026-01-07 08:26:38.33	191.48	11.64	-50.7	-55.5	3.7	0.00e+00	0	50	104	0	72	25954
2026-01-07 08:26:39.33	191.59	11.75	-51.0	-55.8	3.7	0.00e+00	0	50	104	0	73	25259
2026-01-07 08:26:40.32	191.69	11.86	-50.6	-55.6	3.7	0.00e+00	0	50	104	0	73	24551
2026-01-07 08:26:41.32	191.80	11.97	-51.0	-55.9	3.7	0.00e+00	0	50	104	0	73	25587
2026-01-07 08:26:42.31	191.91	12.08	-51.5	-56.1	3.7	0.00e+00	0	50	104	0	73	26265
2026-01-07 08:26:43.31	192.01	12.19	-51.7	-56.4	3.7	0.00e+00	0	50	104	0	74	25419
2026-01-07 08:26:44.31	192.12	12.30	-51.2	-56.0	3.7	0.00e+00	0	50	104	0	74	24363
2026-01-07 08:26:45.31	192.23	12.41	-51.6	-56.3	3.7	0.00e+00	0	50	104	0	74	25353
2026-01-07 08:26:46.30	192.34	12.53	-52.1	-56.6	3.7	0.00e+00	0	50	104	0	74	26014
2026-01-07 08:26:47.30	192.46	12.64	-51.7	-56.4	3.7	0.00e+00	0	50	104	0	74	25416
2026-01-07 08:26:48.30	192.57	12.75	-51.8	-56.4	3.7	0.00e+00	0	50	104	0	74	25634
2026-01-07 08:26:49.29	192.68	12.87	-51.8	-56.5	3.7	0.00e+00	0	50	104	0	74	25703
2026-01-07 08:26:50.29	192.80	12.98	-51.5	-56.1	3.7	0.00e+00	0	50	104	0	74	24710
2026-01-07 08:26:51.29	192.92	13.10	-51.6	-56.1	3.7	0.00e+00	0	50	104	0	74	24770
2026-01-07 08:26:52.29	193.03	13.22	-51.7	-56.4	3.7	0.00e+00	0	50	104	0	74	25445
2026-01-07 08:26:53.28	193.15	13.33	-51.6	-56.3	3.7	0.00e+00	0	50	104	0	74	25143
2026-01-07 08:26:54.28	193.27	13.45	-51.6	-56.3	3.7	0.00e+00	0	50	104	0	74	25130
2026-01-07 08:26:55.28	193.39	13.57	-51.6	-56.2	3.7	0.00e+00	0	50	104	0	74	25053
2026-01-07 08:26:56.28	193.51	13.69	-51.7	-56.2	3.7	0.00e+00	0	50	104	0	74	24940
2026-01-07 08:26:57.28	193.64	13.81	-51.5	-56.2	3.7	0.00e+00	0	50	104	0	74	25072
2026-01-07 08:26:58.27	193.76	13.93	-51.4	-56.0	3.7	0.00e+00	0	50	104	0	74	24354
2026-01-07 08:26:59.27	193.89	14.05	-51.1	-55.8	3.7	0.00e+00	0	50	104	0	74	23732
2026-01-07 08:27:00.27	194.01	14.17	-51.4	-56.1	3.7	0.00e+00	0	50	104	0	74	24737
2026-01-07 08:27:01.27	194.14	14.29	-51.4	-56.1	3.7	0.00e+00	0	50	104	0	74	24697
2026-01-07 08:27:02.27	194.27	14.42	-51.3	-56.0	3.7	0.00e+00	0	50	104	0	74	24420
2026-01-07 08:27:03.27	194.40	14.54	-51.8	-56.2	3.7	0.00e+00	0	50	104	0	74	25074
2026-01-07 08:27:04.26	194.53	14.67	-51.3	-55.9	3.7	0.00e+00	0	50	104	0	74	24110
2026-01-07 08:27:05.26	194.66	14.79	-51.8	-56.3	3.7	0.00e+00	0	50	104	0	74	25353
2026-01-07 08:27:06.26	194.80	14.92	-51.9	-56.5	3.7	0.00e+00	0	50	104	0	74	25713
2026-01-07 08:27:07.26	194.93	15.05	-52.0	-56.4	3.7	0.00e+00	0	50	104	0	74	25484
2026-01-07 08:27:08.25	195.07	15.17	-51.8	-56.4	3.7	0.00e+00	0	50	104	0	74	25501
2026-01-07 08:27:09.25	195.21	15.30	-52.1	-56.6	3.7	0.00e+00	0	50	104	0	74	26272
2026-01-07 08:27:10.25	195.35	15.43	-52.3	-56.9	3.7	0.00e+00	0	50	104	0	75	25416
2026-01-07 08:27:11.25	195.49	15.56	-52.3	-56.8	3.7	0.00e+00	0	50	104	0	75	25264
2026-01-07 08:27:12.25	195.63	15.69	-52.0	-56.4	3.7	0.00e+00	0	50	104	0	75	24181
2026-01-07 08:27:13.24	195.78	15.82	-52.3	-56.8	3.7	0.00e+00	0	50	104	0	75	25234
2026-01-07 08:27:14.24	195.92	15.96	-52.4	-56.9	3.7	0.00e+00	0	50	104	0	75	25446
2026-01-07 08:27:15.24	196.07	16.09	-52.4	-56.9	3.7	0.00e+00	0	51	104	0	75	25591
2026-01-07 08:27:16.24	196.22	16.22	-52.4	-56.8	3.7	0.00e+00	0	51	104	0	75	25261
2026-01-07 08:27:17.24	196.37	16.36	-52.2	-56.8	3.7	0.00e+00	0	51	104	0	75	25231
2026-01-07 08:27:18.24	196.52	16.49	-52.3	-57.0	3.7	0.00e+00	0	50	104	0	75	25828
2026-01-07 08:27:19.24	196.67	16.63	-52.3	-57.0	3.7	0.00e+00	0	51	104	0	75	25742
2026-01-07 08:27:20.24	196.83	16.77	-52.2	-56.9	3.7	0.00e+00	0	51	104	0	75	25500
2026-01-07 08:27:21.24	196.98	16.91	-52.4	-57.1	3.7	0.00e+00	0	50	104	0	75	26048
2026-01-07 08:27:22.24	197.14	17.04	-52.6	-57.2	3.7	0.00e+00	0	51	104	0	75	26484
2026-01-07 08:27:23.24	197.30	17.18	-52.7	-57.3	3.7	0.00e+00	0	51	104	0	75	26735
2026-01-07 08:27:24.23	197.46	17.32	-52.6	-57.3	3.7	0.00e+00	0	51	104	0	76	25254
2026-01-07 08:27:25.23	197.63	17.47	-52.7	-57.4	3.7	0.00e+00	0	51	104	0	76	25443
2026-01-07 08:27:26.23	197.79	17.61	-52.7	-57.4	3.7	0.00e+00	0	51	104	0	76	25437
2026-01-07 08:27:27.23	197.96	17.75	-52.8	-57.5	3.7	0.00e+00	0	51	104	0	76	25702
2026-01-07 08:27:28.22	198.12	17.89	-52.6	-57.4	3.7	0.00e+00	0	51	104	0	76	25446
2026-01-07 08:27:29.22	198.30	18.04	-52.9	-57.5	3.7	0.00e+00	0	51	104	0	76	25909
2026-01-07 08:27:30.22	198.47	18.19	-53.1	-57.6	3.7	0.00e+00	0	51	104	0	76	26207
2026-01-07 08:27:31.22	198.64	18.33	-53.0	-57.6	3.7	0.00e+00	0	51	104	0	76	26017
2026-01-07 08:27:32.21	198.82	18.48	-53.0	-57.6	3.7	0.00e+00	0	51	104	0	76	26205
2026-01-07 08:27:33.21	198.99	18.63	-53.0	-57.5	3.7	0.00e+00	0	51	104	0	76	25893
2026-01-07 08:27:34.21	199.18	18.78	-52.9	-57.6	3.7	0.00e+00	0	51	104	0	76	25998
2026-01-07 08:27:35.21	199.36	18.93	-53.2	-57.7	3.7	0.00e+00	0	51	104	0	77	25065
2026-01-07 08:27:36.20	199.54	19.08	-53.1	-57.7	3.7	0.00e+00	0	51	104	0	77	24987
2026-01-07 08:27:37.20	199.73	19.23	-53.2	-57.8	3.7	0.00e+00	0	50	104	0	77	25178
2026-01-07 08:27:38.20	199.91	19.38	-53.0	-57.4	3.7	0.00e+00	0	51	104	0	77	24162
2026-01-07 08:27:39.19	200.10	19.54	-52.9	-57.4	3.7	0.00e+00	0	51	104	0	77	24098
2026-01-07 08:27:40.19	200.30	19.69	-53.2	-57.7	3.7	0.00e+00	0	51	104	0	77	24931
2026-01-07 08:27:41.19	200.49	19.85	-52.8	-57.4	3.7	0.00e+00	0	51	104	0	77	23999
2026-01-07 08:27:42.18	200.69	20.00	-52.8	-57.4	3.7	0.00e+00	0	51	104	0	77	24060
2026-01-07 08:27:43.18	200.89	20.16	-52.9	-57.4	3.7	0.00e+00	0	51	104	0	77	24146
2026-01-07 08:27:44.18	201.09	20.32	-52.7	-57.2	3.7	0.00e+00	0	51	104	0	77	23464
2026-01-07 08:27:45.18	201.29	20.48	-52.9	-57.3	3.7	0.00e+00	0	51	104	0	77	23910
2026-01-07 08:27:46.18	201.50	20.64	-53.2	-57.6	3.7	0.00e+00	0	51	104	0	77	24627
2026-01-07 08:27:47.18	201.71	20.80	-53.1	-57.5	3.7	0.00e+00	0	51	104	0	77	24324
2026-01-07 08:27:48.17	201.92	20.97	-53.1	-57.6	3.7	0.00e+00	0	51	104	0	77	24604
2026-01-07 08:27:49.17	202.13	21.13	-53.1	-57.6	3.7	0.00e+00	0	51	104	0	77	24707
2026-01-07 08:27:50.17	202.35	21.30	-53.2	-57.7	3.7	0.00e+00	0	51	104	0	77	24945
2026-01-07 08:27:51.17	202.57	21.46	-53.3	-57.7	3.7	0.00e+00	0	51	104	0	77	24841
2026-01-07 08:27:52.17	202.79	21.63	-53.2	-57.8	3.7	0.00e+00	0	51	104	0	77	25162
2026-01-07 08:27:53.16	203.01	21.79	-53.4	-57.9	3.7	0.00e+00	0	51	104	0	77	25510
2026-01-07 08:27:54.16	203.24	21.96	-53.4	-57.8	3.7	0.00e+00	0	51	104	0	77	25345
2026-01-07 08:27:55.16	203.47	22.13	-53.2	-57.7	3.7	0.00e+00	0	51	104	0	77	24942
2026-01-07 08:27:56.16	203.70	22.30	-53.4	-57.9	3.7	0.00e+00	0	51	104	0	77	25495
2026-01-07 08:27:57.16	203.94	22.48	-53.3	-57.8	3.7	0.00e+00	0	51	104	0	77	25155
2026-01-07 08:27:58.16	204.18	22.65	-53.3	-57.8	3.7	0.00e+00	0	51	104	0	77	25180
2026-01-07 08:27:59.15	204.42	22.82	-53.1	-57.6	3.7	0.00e+00	0	51	104	0	77	24699
2026-01-07 08:28:00.15	204.66	23.00	-53.3	-57.9	3.7	0.00e+00	0	51	104	0	77	25441
2026-01-07 08:28:01.15	204.91	23.17	-53.0	-57.7	3.7	0.00e+00	0	51	104	0	77	24874
2026-01-07 08:28:02.15	205.16	23.35	-52.9	-57.5	3.7	0.00e+00	0	51	104	0	77	24281
2026-01-07 08:28:03.14	205.41	23.53	-53.1	-57.5	3.7	0.00e+00	0	51	104	0	77	24465
2026-01-07 08:28:04.14	205.67	23.70	-53.1	-57.6	3.7	0.00e+00	0	51	104	0	77	24774
2026-01-07 08:28:05.14	205.93	23.88	-53.1	-57.7	3.7	0.00e+00	0	51	104	0	77	24867
2026-01-07 08:28:06.14	206.19	24.06	-53.2	-57.6	3.7	0.00e+00	0	51	104	0	77	24543
2026-01-07 08:28:07.14	206.46	24.25	-53.4	-57.8	3.7	0.00e+00	0	51	104	0	77	25237
2026-01-07 08:28:08.13	206.73	24.43	-53.4	-57.8	3.7	0.00e+00	0	51	104	0	77	25371
2026-01-07 08:28:09.13	207.00	24.61	-53.4	-58.0	3.7	0.00e+00	0	51	104	0	77	25727
2026-01-07 08:28:10.13	207.28	24.80	-53.3	-57.7	3.7	0.00e+00	0	51	104	0	77	24985
2026-01-07 08:28:11.13	207.56	24.98	-53.2	-57.6	3.7	0.00e+00	0	51	104	0	77	24685
2026-01-07 08:28:12.13	207.84	25.17	-53.2	-57.7	3.7	0.00e+00	0	51	104	0	77	25000
2026-01-07 08:28:13.13	208.13	25.36	-53.3	-57.6	3.7	0.00e+00	0	51	104	0	77	24771
2026-01-07 08:28:14.13	208.42	25.54	-53.5	-57.9	3.7	0.00e+00	0	51	104	0	77	25654
2026-01-07 08:28:15.12	208.72	25.73	-53.3	-57.7	3.7	0.00e+00	0	51	104	0	77	24841
2026-01-07 08:28:16.12	209.02	25.92	-53.2	-57.7	3.7	0.00e+00	0	51	104	0	77	24876
2026-01-07 08:28:17.12	209.32	26.11	-53.2	-57.6	3.7	0.00e+00	0	51	104	0	77	24730
2026-01-07 08:28:18.12	209.63	26.31	-53.5	-58.0	3.7	0.00e+00	0	51	104	0	77	25871
2026-01-07 08:28:19.12	209.94	26.50	-53.3	-57.5	3.7	0.00e+00	0	51	104	0	77	24401
2026-01-07 08:28:20.12	210.26	26.69	-53.5	-58.0	3.7	0.00e+00	0	51	104	0	77	25741
2026-01-07 08:28:21.11	210.57	26.89	-53.4	-57.9	3.7	0.00e+00	0	51	104	0	77	25402
2026-01-07 08:28:22.11	210.90	27.08	-53.2	-57.7	3.7	0.00e+00	0	51	104	0	77	25043
2026-01-07 08:28:23.11	211.23	27.28	-52.9	-57.2	3.7	0.00e+00	0	51	104	0	77	23675
2026-01-07 08:28:24.10	211.56	27.47	-53.1	-57.6	3.7	0.00e+00	0	51	104	0	77	24587
2026-01-07 08:28:25.09	211.89	27.67	-53.0	-57.6	3.7	0.00e+00	0	51	104	0	77	24531
2026-01-07 08:28:26.09	212.23	27.87	-53.4	-57.9	3.7	0.00e+00	0	51	104	0	77	25635
2026-01-07 08:28:27.09	212.58	28.07	-53.2	-57.5	3.7	0.00e+00	0	51	104	0	77	24317
2026-01-07 08:28:28.09	212.93	28.27	-53.5	-58.1	3.7	0.00e+00	0	51	104	0	77	26033
2026-01-07 08:28:29.09	213.29	28.47	-53.5	-58.0	3.7	0.00e+00	0	51	104	0	77	25957
2026-01-07 08:28:30.09	213.65	28.67	-53.4	-57.6	3.7	0.00e+00	0	51	104	0	77	24556
2026-01-07 08:28:31.08	214.01	28.87	-53.1	-57.1	3.7	0.00e+00	0	51	104	0	77	23383
2026-01-07 08:28:32.08	214.38	29.07	-53.4	-57.5	3.7	0.00e+00	0	51	104	0	77	24488
2026-01-07 08:28:33.08	214.76	29.27	-53.1	-57.4	3.7	0.00e+00	0	51	104	0	77	24184
2026-01-07 08:28:34.08	215.14	29.48	-53.0	-57.6	3.7	0.00e+00	0	51	104	0	77	24635
2026-01-07 08:28:35.08	215.53	29.68	-53.1	-57.4	3.7	0.00e+00	0	51	104	0	77	24154
2026-01-07 08:28:36.07	215.92	29.88	-53.0	-57.5	3.7	0.00e+00	0	51	104	0	77	24496
2026-01-07 08:28:37.07	216.31	30.09	-53.3	-57.5	3.7	0.00e+00	0	51	104	0	77	24507
2026-01-07 08:28:38.08	216.72	30.29	-53.3	-57.7	3.7	0.00e+00	0	51	104	0	77	24960
2026-01-07 08:28:39.08	217.13	30.50	-53.3	-57.9	3.7	0.00e+00	0	51	104	0	77	25515
2026-01-07 08:28:40.08	217.54	30.70	-53.3	-57.8	3.7	0.00e+00	0	51	104	0	77	25150
2026-01-07 08:28:41.08	217.96	30.91	-53.3	-58.0	3.7	0.00e+00	0	51	104	0	77	25786
2026-01-07 08:28:42.08	218.39	31.11	-53.5	-58.1	3.7	0.00e+00	0	51	104	0	77	26039
2026-01-07 08:28:43.08	218.82	31.32	-53.6	-58.1	3.7	0.00e+00	0	51	104	0	77	26204
2026-01-07 08:28:44.08	219.25	31.53	-53.5	-58.1	3.7	0.00e+00	0	51	104	0	77	26116
2026-01-07 08:28:45.09	219.70	31.73	-53.5	-58.0	3.7	0.00e+00	0	51	104	0	77	25918
2026-01-07 08:28:46.09	220.15	31.94	-53.3	-57.9	3.7	0.00e+00	0	51	104	0	77	25463
2026-01-07 08:28:47.09	220.61	32.15	-53.3	-57.9	3.7	0.00e+00	0	51	104	0	77	25513
2026-01-07 08:28:48.09	221.07	32.35	-53.4	-58.0	3.7	0.00e+00	0	51	104	0	77	25873
2026-01-07 08:28:49.10	221.54	32.56	-53.4	-58.1	3.7	0.00e+00	0	51	104	0	77	26196
2026-01-07 08:28:50.10	222.01	32.76	-53.4	-58.0	3.7	0.00e+00	0	51	104	0	77	25911
2026-01-07 08:28:51.10	222.49	32.97	-53.6	-58.0	3.7	0.00e+00	0	51	104	0	77	25972
2026-01-07 08:28:52.10	222.98	33.17	-53.6	-58.1	3.7	0.00e+00	0	51	104	0	77	26180
2026-01-07 08:28:53.10	223.47	33.38	-53.7	-58.1	3.7	0.00e+00	0	51	104	0	78	24774
2026-01-07 08:28:54.09	223.97	33.58	-53.4	-58.0	3.7	0.00e+00	0	51	104	0	78	24308
2026-01-07 08:28:55.09	224.47	33.78	-53.4	-57.9	3.7	0.00e+00	0	51	104	0	78	24015
2026-01-07 08:28:56.09	224.99	33.98	-53.4	-57.9	3.7	0.00e+00	0	51	104	0	78	24207
2026-01-07 08:28:57.09	225.51	34.18	-53.5	-58.0	3.7	0.00e+00	0	51	104	0	78	24325
2026-01-07 08:28:58.09	226.03	34.38	-53.4	-58.2	3.7	0.00e+00	0	51	104	0	78	24822
2026-01-07 08:28:59.09	226.56	34.58	-53.1	-57.8	3.7	0.00e+00	0	51	104	0	78	23736
2026-01-07 08:29:00.09	227.10	34.77	-53.2	-58.0	3.7	0.00e+00	0	51	104	0	78	24464
2026-01-07 08:29:01.09	227.65	34.97	-53.4	-58.1	3.7	0.00e+00	0	51	104	0	78	24686
2026-01-07 08:29:02.09	228.21	35.16	-53.6	-58.1	3.7	0.00e+00	0	51	104	0	78	24716
2026-01-07 08:29:03.09	228.77	35.36	-53.3	-57.7	3.7	0.00e+00	0	51	104	0	78	23447
2026-01-07 08:29:04.09	229.33	35.55	-53.8	-58.4	3.7	0.00e+00	0	51	104	0	78	25545
2026-01-07 08:29:05.09	229.91	35.74	-53.2	-57.7	3.7	0.00e+00	0	51	104	0	78	23682
2026-01-07 08:29:06.09	230.49	35.93	-52.8	-56.9	3.7	0.00e+00	0	51	104	0	77	22711
2026-01-07 08:29:07.09	231.08	36.11	-52.9	-56.8	3.7	0.00e+00	0	51	104	0	77	22415
2026-01-07 08:29:08.09	231.67	36.30	-52.7	-56.4	3.7	0.00e+00	0	51	104	0	77	21376
2026-01-07 08:29:09.08	232.27	36.48	-52.7	-56.3	3.7	0.00e+00	0	51	104	0	77	21307
2026-01-07 08:29:10.08	232.88	36.65	-52.8	-56.5	3.7	0.00e+00	0	51	104	0	77	21749
2026-01-07 08:29:11.08	233.50	36.83	-52.5	-56.5	3.7	0.00e+00	0	51	104	0	77	21654
2026-01-07 08:29:12.07	234.12	37.01	-52.9	-57.2	3.7	0.00e+00	0	51	104	0	76	25085
2026-01-07 08:29:13.07	234.75	37.18	-53.4	-58.2	3.7	0.00e+00	0	51	104	0	77	26278
2026-01-07 08:29:14.07	235.38	37.35	-53.2	-57.8	3.7	0.00e+00	0	51	104	0	77	25287
2026-01-07 08:29:15.07	236.03	37.51	-53.0	-57.0	3.7	0.00e+00	0	51	104	0	77	22954
2026-01-07 08:29:16.07	236.68	37.68	-53.2	-57.0	3.7	0.00e+00	0	51	104	0	77	23134
2026-01-07 08:29:17.07	237.34	37.84	-53.2	-57.1	3.7	0.00e+00	0	51	104	0	77	23328
2026-01-07 08:29:18.07	238.00	38.00	-53.4	-57.4	3.7	0.00e+00	0	51	104	0	77	24096
2026-01-07 08:29:19.07	238.68	38.15	-53.1	-57.2	3.7	0.00e+00	0	51	104	0	77	23480
2026-01-07 08:29:20.06	239.35	38.30	-52.9	-56.9	3.7	0.00e+00	0	51	104	0	77	22790
2026-01-07 08:29:21.06	240.03	38.45	-53.2	-57.4	3.7	0.00e+00	0	51	104	0	77	23971
2026-01-07 08:29:22.06	240.72	38.59	-53.5	-58.0	3.7	0.00e+00	0	51	104	0	77	25817
2026-01-07 08:29:23.06	241.42	38.73	-53.7	-58.1	3.6	0.00e+00	0	51	104	0	78	24757
2026-01-07 08:29:24.06	242.12	38.87	-53.3	-57.7	3.7	0.00e+00	0	51	104	0	78	23631
2026-01-07 08:29:25.06	242.83	39.00	-53.4	-57.8	3.7	0.00e+00	0	51	104	0	78	23940
2026-01-07 08:29:26.06	243.55	39.13	-52.9	-57.6	3.7	0.00e+00	0	51	104	0	77	24572
2026-01-07 08:29:27.06	244.27	39.25	-52.9	-57.5	3.7	0.00e+00	0	51	104	0	77	24404
2026-01-07 08:29:28.06	245.00	39.37	-52.8	-57.2	3.7	0.00e+00	0	51	104	0	77	23455
2026-01-07 08:29:29.06	245.73	39.48	-53.6	-58.2	3.7	0.00e+00	0	51	104	0	77	26305
2026-01-07 08:29:30.05	246.46	39.59	-53.2	-57.7	3.7	0.00e+00	0	51	104	0	77	24912
2026-01-07 08:29:31.05	247.20	39.70	-53.4	-57.9	3.7	0.00e+00	0	51	104	0	77	25645
2026-01-07 08:29:32.05	247.95	39.80	-53.5	-58.1	3.7	0.00e+00	0	51	104	0	77	26147
2026-01-07 08:29:33.05	248.70	39.89	-53.5	-58.0	3.7	0.00e+00	0	51	104	0	77	25821
2026-01-07 08:29:34.05	249.46	39.98	-53.3	-57.9	3.7	0.00e+00	0	52	104	0	77	25454
2026-01-07 08:29:35.05	250.22	40.07	-53.4	-58.1	3.7	0.00e+00	0	51	104	0	77	26076
2026-01-07 08:29:36.05	250.98	40.15	-52.9	-57.5	3.7	0.00e+00	0	51	104	0	77	24416
2026-01-07 08:29:37.04	251.75	40.22	-46.3	-49.8	4.0	0.00e+00	0	51	104	0	64	21200
2026-01-07 08:29:38.05	252.53	40.29	-50.1	-53.9	3.8	0.00e+00	0	51	104	0	70	24201
2026-01-07 08:29:39.05	253.30	40.36	-53.0	-57.3	3.7	0.00e+00	0	51	104	0	76	25149
2026-01-07 08:29:40.05	254.08	40.42	-53.3	-57.6	3.7	0.00e+00	0	51	104	0	77	24736
2026-01-07 08:29:41.04	254.85	40.47	-53.3	-57.7	3.7	0.00e+00	0	51	104	0	77	25004
2026-01-07 08:29:42.04	255.64	40.52	-52.9	-56.9	3.7	0.00e+00	0	51	104	0	77	22708
2026-01-07 08:29:43.03	256.41	40.56	-53.3	-57.8	3.7	0.00e+00	0	51	104	0	77	25352
2026-01-07 08:29:44.03	257.20	40.60	-53.4	-58.0	3.7	0.00e+00	0	51	104	0	77	25833
2026-01-07 08:29:45.03	257.99	40.63	-53.3	-57.5	3.7	0.00e+00	0	52	104	0	77	24398
2026-01-07 08:29:46.03	258.78	40.65	-53.8	-58.3	3.7	0.00e+00	0	51	104	0	78	25223
2026-01-07 08:29:47.03	259.58	40.67	-53.3	-57.8	3.7	0.00e+00	0	51	104	0	78	23906
2026-01-07 08:29:48.03	260.37	40.68	-53.4	-57.9	3.7	0.00e+00	0	51	104	0	78	24198
2026-01-07 08:29:49.03	261.16	40.69	-53.3	-57.9	3.7	0.00e+00	0	52	104	0	78	24148
2026-01-07 08:29:50.03	261.95	40.69	-53.4	-57.9	3.7	0.00e+00	0	51	104	0	78	24021
2026-01-07 08:29:51.03	262.75	40.69	-52.9	-57.7	3.7	0.00e+00	0	51	104	0	77	24810
2026-01-07 08:29:52.03	263.54	40.68	-52.9	-57.4	3.7	0.00e+00	0	51	104	0	77	24212
2026-01-07 08:29:53.03	264.33	40.66	-53.2	-57.8	3.7	0.00e+00	0	51	104	0	77	25269
2026-01-07 08:29:54.02	265.12	40.64	-53.3	-57.9	3.7	0.00e+00	0	51	104	0	77	25571
2026-01-07 08:29:55.02	265.91	40.61	-34.8	-35.7	4.6	0.00e+00	0	51	104	0	49	9878
2026-01-07 08:29:56.02	266.69	40.58	-33.3	-34.3	4.6	0.00e+00	0	51	104	0	37	16826
2026-01-07 08:29:57.01	267.47	40.54	-33.8	-34.7	4.6	0.00e+00	0	51	104	0	38	16769
2026-01-07 08:29:58.01	268.26	40.49	-32.2	-33.1	4.6	0.00e+00	0	51	104	0	36	15600
2026-01-07 08:29:59.01	269.04	40.44	-30.7	-31.6	4.6	0.00e+00	0	51	104	0	33	15557
2026-01-07 08:30:00.02	269.83	40.39	-24.9	-25.7	4.6	0.00e+00	0	51	104	0	21	15829
2026-01-07 08:30:01.02	270.60	40.33	-31.8	-32.8	4.6	0.00e+00	0	51	104	0	34	16807
2026-01-07 08:30:02.01	271.37	40.26	-37.3	-38.3	4.6	0.00e+00	0	51	104	0	45	16821
2026-01-07 08:30:03.00	272.13	40.19	-27.8	-28.7	4.6	0.00e+00	0	51	104	0	27	15677
2026-01-07 08:30:04.00	272.90	40.11	-39.8	-40.8	4.5	0.00e+00	0	51	104	0	50	16886
2026-01-07 08:30:05.00	273.66	40.03	-27.8	-28.6	4.6	0.00e+00	0	51	104	0	27	15631
2026-01-07 08:30:06.00	274.41	39.94	-28.1	-29.0	4.6	0.00e+00	0	51	104	0	27	16205
2026-01-07 08:30:07.00	275.17	39.85	-27.1	-28.0	4.6	0.00e+00	0	51	104	0	26	15435
2026-01-07 08:30:08.00	275.92	39.75	-26.0	-26.8	4.6	0.00e+00	0	51	104	0	24	15101
2026-01-07 08:30:09.00	276.66	39.65	-42.6	-43.8	4.4	0.00e+00	0	51	104	0	55	17824
2026-01-07 08:30:09.99	277.39	39.54	-26.2	-27.1	4.6	0.00e+00	0	51	104	0	23	16484
2026-01-07 08:30:10.99	278.12	39.43	-40.1	-41.1	4.6	0.00e+00	0	51	104	0	50	17556
2026-01-07 08:30:11.99	278.85	39.31	-34.8	-35.6	18.3	0.00e+00	0	52	0	25165824	40	16577
2026-01-07 08:30:12.98	279.57	39.19	-24.9	-25.7	22.0	0.00e+00	0	52	0	83886080	20	16716
2026-01-07 08:30:13.98	280.28	39.07	-24.9	-25.8	21.9	0.00e+00	0	52	0	142606336	21	15835
2026-01-07 08:30:14.97	280.99	38.94	-24.9	-25.7	22.0	0.00e+00	0	52	0	201326592	21	15786
2026-01-07 08:30:15.97	281.69	38.80	-24.9	-25.8	21.9	0.00e+00	0	52	0	260046848	20	16815
2026-01-07 08:30:16.97	282.39	38.67	-24.5	-25.4	22.0	0.00e+00	0	52	0	318767104	20	16065
2026-01-07 08:30:17.97	283.09	38.53	-25.6	-26.5	21.5	0.00e+00	0	52	0	385875968	21	17179
2026-01-07 08:30:18.96	283.76	38.38	-24.1	-24.9	22.2	0.00e+00	0	52	0	444596224	20	15171
2026-01-07 08:30:19.96	284.44	38.23	-24.6	-25.4	22.0	0.00e+00	0	52	0	503316480	19	17074
2026-01-07 08:30:20.96	285.12	38.08	-24.2	-25.0	22.2	0.00e+00	0	52	0	562036736	19	16262
2026-01-07 08:30:21.96	285.78	37.93	-24.1	-24.9	22.1	0.00e+00	0	52	0	620756992	19	16145
2026-01-07 08:30:22.96	286.44	37.77	-23.9	-24.7	22.2	0.00e+00	0	52	0	679477248	19	15721
2026-01-07 08:30:23.96	287.10	37.61	-24.0	-24.9	22.2	0.00e+00	0	52	0	738197504	19	16035
2026-01-07 08:30:24.96	287.74	37.44	-24.1	-24.9	22.2	0.00e+00	0	52	0	805306368	19	16065
2026-01-07 08:30:25.96	288.38	37.28	-24.2	-25.1	22.2	0.00e+00	0	52	0	864026624	19	16421
2026-01-07 08:30:26.96	289.02	37.11	-24.4	-25.2	22.1	0.00e+00	0	52	0	922746880	20	15709
2026-01-07 08:30:27.96	289.64	36.93	-24.0	-24.8	22.2	0.00e+00	0	52	0	981467136	19	16007
2026-01-07 08:30:28.96	290.26	36.76	-24.7	-25.5	22.0	0.00e+00	0	52	0	1040187392	20	16370
2026-01-07 08:30:29.96	290.87	36.58	-24.1	-25.0	22.2	0.00e+00	0	52	0	1098907648	20	15299
2026-01-07 08:30:30.96	291.47	36.40	-25.0	-25.9	21.8	0.00e+00	0	52	0	1166016512	20	17037
2026-01-07 08:30:31.95	292.07	36.22	-24.6	-25.4	21.9	0.00e+00	0	52	0	1224736768	20	16202
2026-01-07 08:30:32.95	292.66	36.04	-24.3	-25.1	22.1	0.00e+00	0	52	0	1283457024	20	15550
2026-01-07 08:30:33.94	293.23	35.85	-24.3	-25.1	22.2	0.00e+00	0	52	0	1342177280	20	15614
2026-01-07 08:30:34.94	293.81	35.66	-24.6	-25.4	22.1	0.00e+00	0	52	0	1400897536	20	16087
2026-01-07 08:30:35.94	294.38	35.47	-24.5	-25.4	22.0	0.00e+00	0	53	0	1459617792	21	15136
2026-01-07 08:30:36.94	294.94	35.28	-24.7	-25.6	21.9	0.00e+00	0	52	0	1518338048	21	15511
2026-01-07 08:30:37.94	295.50	35.09	-25.6	-26.4	21.4	0.00e+00	0	53	0	1585446912	21	17074
2026-01-07 08:30:38.94	296.05	34.90	-24.5	-25.4	22.0	0.00e+00	0	52	0	1644167168	21	15142
2026-01-07 08:30:39.93	296.58	34.70	-24.8	-25.6	21.9	0.00e+00	0	53	0	1702887424	21	15568
2026-01-07 08:30:40.93	297.12	34.51	-24.8	-25.6	21.8	0.00e+00	0	52	0	1761607680	21	15528
2026-01-07 08:30:41.93	297.64	34.31	-25.0	-25.8	21.8	0.00e+00	0	52	0	1820327936	21	15871
2026-01-07 08:30:42.92	298.16	34.11	-25.7	-26.6	21.4	0.00e+00	0	52	0	1879048192	22	16410
2026-01-07 08:30:43.92	298.68	33.91	-25.0	-25.8	21.7	0.00e+00	0	52	0	1937768448	21	16001
2026-01-07 08:30:44.91	299.18	33.72	-25.1	-26.0	21.7	0.00e+00	0	52	0	1996488704	21	16246
2026-01-07 08:30:45.91	299.68	33.52	-25.2	-26.0	21.8	0.00e+00	0	52	0	2055208960	22	15408
2026-01-07 08:30:46.91	300.17	33.31	-24.9	-25.7	21.8	0.00e+00	0	52	0	2122317824	21	15790
2026-01-07 08:30:47.91	300.66	33.11	-25.5	-26.4	21.5	0.00e+00	0	53	0	2181038080	21	16969
2026-01-07 08:30:48.90	301.14	32.91	-25.0	-25.9	21.7	0.00e+00	0	53	0	2239758336	21	16055
2026-01-07 08:30:49.90	301.61	32.71	-25.3	-26.1	21.6	0.00e+00	0	53	0	2298478592	21	16446
2026-01-07 08:30:50.90	302.08	32.50	-25.2	-26.0	21.7	0.00e+00	0	53	0	2357198848	22	15417
2026-01-07 08:30:51.90	302.55	32.30	-25.3	-26.1	21.7	0.00e+00	0	52	0	2415919104	22	15647
2026-01-07 08:30:52.90	303.00	32.10	-25.6	-26.4	21.6	0.00e+00	0	53	0	2483027968	22	16070
2026-01-07 08:30:53.90	303.45	31.89	-25.5	-26.3	21.7	0.00e+00	0	53	0	2541748224	22	15943
2026-01-07 08:30:54.90	303.90	31.69	-25.6	-26.4	21.7	0.00e+00	0	52	0	2600468480	22	16108
2026-01-07 08:30:55.90	304.34	31.48	-26.3	-27.2	21.3	0.00e+00	0	53	0	2659188736	23	16628
2026-01-07 08:30:56.90	304.77	31.28	-25.7	-26.6	21.7	0.00e+00	0	53	0	2717908992	23	15505
2026-01-07 08:30:57.90	305.20	31.07	-25.9	-26.7	21.6	0.00e+00	0	53	0	2776629248	23	15800
2026-01-07 08:30:58.89	305.61	30.87	-26.8	-27.6	20.9	0.00e+00	0	53	0	2835349504	24	16557
2026-01-07 08:30:59.89	306.03	30.67	-25.7	-26.6	21.6	0.00e+00	0	52	0	2902458368	23	15503
2026-01-07 08:31:00.89	306.44	30.46	-25.8	-26.7	21.7	0.00e+00	0	53	0	2961178624	23	15672
2026-01-07 08:31:01.89	306.84	30.26	-25.7	-26.5	21.8	0.00e+00	0	53	0	3019898880	23	15436
2026-01-07 08:31:02.89	307.24	30.06	-25.8	-26.7	21.7	0.00e+00	0	53	0	3078619136	23	15706
2026-01-07 08:31:03.89	307.64	29.85	-26.0	-26.8	21.6	0.00e+00	0	53	0	3137339392	23	15919
2026-01-07 08:31:04.89	308.03	29.65	-25.9	-26.8	21.7	0.00e+00	0	53	0	3196059648	23	15842
2026-01-07 08:31:05.89	308.41	29.45	-26.1	-26.9	21.6	0.00e+00	0	53	0	3254779904	23	16114
2026-01-07 08:31:06.88	308.78	29.25	-26.2	-27.1	21.6	0.00e+00	0	53	0	3321888768	23	16416
2026-01-07 08:31:07.88	309.16	29.05	-26.8	-27.7	21.3	0.00e+00	0	53	0	3380609024	24	16609
2026-01-07 08:31:08.88	309.52	28.85	-26.2	-27.1	21.6	0.00e+00	0	53	0	3439329280	24	15503
2026-01-07 08:31:09.87	309.88	28.65	-26.4	-27.3	21.5	0.00e+00	0	53	0	3498049536	24	15870
2026-01-07 08:31:10.87	310.24	28.45	-26.9	-27.8	21.0	0.00e+00	0	53	0	3556769792	24	16838
2026-01-07 08:31:11.87	310.59	28.25	-26.5	-27.3	21.3	0.00e+00	0	53	0	3615490048	24	15924
2026-01-07 08:31:12.87	310.94	28.05	-26.6	-27.4	21.3	0.00e+00	0	53	0	3674210304	24	16180
2026-01-07 08:31:13.86	311.28	27.86	-26.8	-27.6	21.2	0.00e+00	0	53	0	3732930560	24	16557
2026-01-07 08:31:14.86	311.62	27.66	-26.6	-27.5	21.4	0.00e+00	0	53	0	3800039424	25	15341
2026-01-07 08:31:15.86	311.96	27.46	-26.8	-27.6	21.3	0.00e+00	0	53	0	3858759680	25	15563
2026-01-07 08:31:16.86	312.29	27.27	-26.9	-27.7	21.3	0.00e+00	0	53	0	3917479936	25	15747
2026-01-07 08:31:17.85	312.61	27.07	-26.8	-27.6	21.2	0.00e+00	0	53	0	3976200192	25	15643
2026-01-07 08:31:18.85	312.93	26.88	-26.9	-27.8	21.0	0.00e+00	0	53	0	4034920448	25	15848
2026-01-07 08:31:19.85	313.25	26.69	-27.1	-27.9	20.8	0.00e+00	0	53	0	4093640704	25	16091
2026-01-07 08:31:20.85	313.56	26.50	-27.1	-28.0	20.5	0.00e+00	0	53	0	4152360960	25	16292
2026-01-07 08:31:21.84	313.87	26.31	-27.0	-27.8	20.5	0.00e+00	0	53	0	4219469824	25	15928
2026-01-07 08:31:22.84	314.18	26.12	-27.2	-28.0	20.5	0.00e+00	0	53	0	4278190080	25	16296
2026-01-07 08:31:23.84	314.48	25.93	-27.2	-28.1	20.6	0.00e+00	0	53	0	4336910336	25	16440
2026-01-07 08:31:24.84	314.77	25.74	-27.5	-28.3	20.6	0.00e+00	0	53	0	4395630592	25	16909
2026-01-07 08:31:25.84	315.07	25.55	-27.3	-28.2	21.0	0.00e+00	0	53	0	4454350848	26	15663
2026-01-07 08:31:26.84	315.36	25.36	-27.4	-28.2	20.9	0.00e+00	0	53	0	4513071104	26	15809
2026-01-07 08:31:27.84	315.64	25.18	-27.6	-28.5	20.7	0.00e+00	0	53	0	4571791360	26	16211
2026-01-07 08:31:28.84	315.93	24.99	-27.5	-28.3	20.8	0.00e+00	0	53	0	4638900224	26	15953
2026-01-07 08:31:29.84	316.20	24.81	-27.6	-28.4	20.8	0.00e+00	0	53	0	4697620480	26	16143
2026-01-07 08:31:30.84	316.48	24.62	-27.6	-28.5	20.7	0.00e+00	0	53	0	4756340736	26	16206
2026-01-07 08:31:31.84	316.75	24.44	-27.8	-28.7	20.5	0.00e+00	0	53	0	4815060992	26	16590
2026-01-07 08:31:32.84	317.02	24.26	-27.6	-28.5	20.6	0.00e+00	0	53	0	4873781248	27	15319
2026-01-07 08:31:33.83	317.28	24.08	-27.7	-28.5	20.5	0.00e+00	0	53	0	4932501504	27	15428
2026-01-07 08:31:34.83	317.54	23.90	-28.2	-29.1	20.1	0.00e+00	0	53	0	4999610368	27	16411
2026-01-07 08:31:35.83	317.80	23.73	-28.5	-29.3	19.9	0.00e+00	0	53	0	5058330624	27	16911
2026-01-07 08:31:36.83	318.06	23.55	-28.0	-28.9	20.1	0.00e+00	0	53	0	5117050880	28	15234
2026-01-07 08:31:37.83	318.31	23.37	-28.2	-29.1	20.0	0.00e+00	0	53	0	5175771136	28	15534
2026-01-07 08:31:38.83	318.56	23.20	-28.3	-29.2	20.0	0.00e+00	0	53	0	5234491392	28	15735
2026-01-07 08:31:39.82	318.80	23.02	-28.4	-29.3	20.0	0.00e+00	0	53	0	5293211648	28	15925
2026-01-07 08:31:40.82	319.04	22.85	-28.6	-29.5	19.8	0.00e+00	0	53	0	5351931904	28	16362
2026-01-07 08:31:41.82	319.28	22.68	-28.4	-29.3	19.8	0.00e+00	0	53	0	5410652160	28	15884
2026-01-07 08:31:42.82	319.52	22.51	-28.5	-29.4	19.9	0.00e+00	0	53	0	5469372416	28	16045
2026-01-07 08:31:43.81	319.75	22.34	-28.6	-29.5	19.7	0.00e+00	0	53	0	5536481280	28	16259
2026-01-07 08:31:44.81	319.98	22.17	-28.7	-29.6	19.5	0.00e+00	0	53	0	5595201536	28	16502
2026-01-07 08:31:45.81	320.21	22.00	-28.5	-29.4	19.8	0.00e+00	0	53	0	5653921792	29	15170
2026-01-07 08:31:46.81	320.44	21.83	-28.7	-29.5	19.8	0.00e+00	0	53	0	5712642048	29	15433
2026-01-07 08:31:47.80	320.66	21.67	-28.8	-29.6	19.7	0.00e+00	0	53	0	5771362304	29	15636
2026-01-07 08:31:48.80	320.88	21.50	-28.8	-29.6	19.7	0.00e+00	0	53	0	5830082560	29	15634
2026-01-07 08:31:49.80	321.10	21.34	-28.9	-29.8	19.5	0.00e+00	0	53	0	5888802816	29	15903
2026-01-07 08:31:50.80	321.31	21.18	-28.7	-29.6	19.5	0.00e+00	0	53	0	5955911680	29	15547
2026-01-07 08:31:51.80	321.53	21.01	-28.9	-29.8	19.4	0.00e+00	0	53	0	6014631936	29	15873
2026-01-07 08:31:52.80	321.74	20.85	-28.9	-29.8	19.5	0.00e+00	0	53	0	6073352192	29	15835
2026-01-07 08:31:53.79	321.94	20.69	-29.1	-29.9	19.6	0.00e+00	0	53	0	6132072448	29	16142
2026-01-07 08:31:54.79	322.15	20.53	-29.2	-30.0	19.6	0.00e+00	0	53	0	6190792704	29	16376
2026-01-07 08:31:55.78	322.35	20.38	-29.0	-29.9	19.9	0.00e+00	0	53	0	6249512960	29	16118
2026-01-07 08:31:56.78	322.55	20.22	-29.4	-30.3	19.5	0.00e+00	0	53	0	6316621824	29	16815
2026-01-07 08:31:57.78	322.75	20.06	-29.6	-30.4	19.4	0.00e+00	0	53	0	6375342080	29	17123
2026-01-07 08:31:58.77	322.94	19.91	-29.6	-30.5	19.3	0.00e+00	0	53	0	6434062336	29	17177
2026-01-07 08:31:59.77	323.13	19.75	-29.8	-30.6	19.2	0.00e+00	0	53	0	6492782592	30	16560
2026-01-07 08:32:00.77	323.33	19.60	-29.5	-30.4	19.4	0.00e+00	0	53	0	6551502848	31	15221
2026-01-07 08:32:01.77	323.52	19.44	-29.6	-30.5	19.2	0.00e+00	0	53	0	6610223104	31	15384
2026-01-07 08:32:02.77	323.70	19.29	-29.8	-30.7	18.9	0.00e+00	0	53	0	6668943360	31	15679
2026-01-07 08:32:03.77	323.89	19.14	-29.8	-30.7	18.9	0.00e+00	0	53	0	6727663616	31	15727
2026-01-07 08:32:04.77	324.07	18.99	-29.8	-30.7	18.8	0.00e+00	0	53	0	6786383872	31	15768
2026-01-07 08:32:05.76	324.25	18.84	-30.1	-30.9	18.6	0.00e+00	0	53	0	6853492736	31	16154
2026-01-07 08:32:06.76	324.43	18.70	-29.8	-30.6	19.0	0.00e+00	0	53	0	6912212992	31	15650
2026-01-07 08:32:07.76	324.61	18.55	-29.9	-30.8	19.0	0.00e+00	0	53	0	6970933248	31	15852
2026-01-07 08:32:08.76	324.78	18.40	-30.0	-30.9	19.1	0.00e+00	0	53	0	7029653504	31	16065
2026-01-07 08:32:09.76	324.96	18.26	-30.1	-31.0	19.0	0.00e+00	0	53	0	7088373760	31	16296
2026-01-07 08:32:10.76	325.13	18.11	-30.2	-31.1	19.0	0.00e+00	0	53	0	7147094016	31	16482
2026-01-07 08:32:11.75	325.30	17.97	-30.3	-31.2	18.9	0.00e+00	0	53	0	7205814272	31	16620
2026-01-07 08:32:12.75	325.46	17.83	-30.1	-31.0	19.0	0.00e+00	0	53	0	7272923136	31	16225
2026-01-07 08:32:13.74	325.63	17.68	-30.4	-31.3	18.5	0.00e+00	0	53	0	7331643392	31	16869
2026-01-07 08:32:14.73	325.79	17.54	-30.6	-31.5	18.3	0.00e+00	0	53	0	7390363648	31	17255
2026-01-07 08:32:15.73	325.95	17.40	-30.6	-31.5	18.2	0.00e+00	0	53	0	7449083904	31	17291
2026-01-07 08:32:16.73	326.11	17.26	-30.8	-31.7	18.1	0.00e+00	0	53	0	7507804160	32	16687
2026-01-07 08:32:17.73	326.27	17.13	-30.9	-31.8	18.0	0.00e+00	0	53	0	7566524416	32	16933
2026-01-07 08:32:18.72	326.43	16.99	-30.8	-31.6	18.2	0.00e+00	0	53	0	7633633280	33	15625
2026-01-07 08:32:19.72	326.59	16.85	-30.8	-31.7	18.2	0.00e+00	0	53	0	7692353536	33	15709
2026-01-07 08:32:20.73	326.74	16.71	-30.8	-31.7	18.1	0.00e+00	0	53	0	7751073792	33	15782
2026-01-07 08:32:21.73	326.89	16.58	-30.9	-31.8	18.0	0.00e+00	0	53	0	7809794048	33	15949
2026-01-07 08:32:22.72	327.04	16.45	-31.0	-31.9	17.9	0.00e+00	0	53	0	7868514304	33	16071
2026-01-07 08:32:23.71	327.19	16.31	-31.1	-32.0	17.7	0.00e+00	0	53	0	7927234560	33	16286
2026-01-07 08:32:24.71	327.34	16.18	-31.2	-32.1	17.5	0.00e+00	0	53	0	7985954816	33	16448
2026-01-07 08:32:25.71	327.49	16.05	-30.9	-31.8	17.7	0.00e+00	0	53	0	8044675072	33	15986
2026-01-07 08:32:26.71	327.63	15.92	-31.1	-31.9	17.7	0.00e+00	0	53	0	8103395328	33	16199
2026-01-07 08:32:27.71	327.78	15.79	-31.1	-32.0	17.8	0.00e+00	0	53	0	8170504192	33	16281
2026-01-07 08:32:28.70	327.92	15.66	-31.2	-32.1	18.1	0.00e+00	0	53	0	8229224448	33	16486
2026-01-07 08:32:29.70	328.06	15.53	-31.2	-32.1	18.3	0.00e+00	0	53	0	8287944704	33	16466
2026-01-07 08:32:30.70	328.20	15.40	-31.7	-32.6	18.0	0.00e+00	0	53	0	8346664960	34	16526
2026-01-07 08:32:31.69	328.33	15.27	-31.8	-32.7	18.1	0.00e+00	0	53	0	8405385216	34	16644
2026-01-07 08:32:32.69	328.47	15.15	-31.5	-32.4	18.4	0.00e+00	0	53	0	8464105472	35	15238
2026-01-07 08:32:33.68	328.60	15.02	-31.6	-32.5	18.3	0.00e+00	0	53	0	8522825728	35	15367
2026-01-07 08:32:34.68	328.74	14.89	-31.7	-32.5	18.2	0.00e+00	0	53	0	8589934592	35	15439
2026-01-07 08:32:35.68	328.87	14.77	-31.7	-32.5	18.2	0.00e+00	0	53	0	8648654848	35	15464
2026-01-07 08:32:36.68	329.00	14.65	-31.7	-32.6	18.2	0.00e+00	0	53	0	8707375104	35	15522
2026-01-07 08:32:37.67	329.13	14.52	-31.7	-32.6	18.1	0.00e+00	0	53	0	8766095360	35	15572
2026-01-07 08:32:38.67	329.26	14.40	-32.0	-32.9	17.9	0.00e+00	0	53	0	8824815616	35	16087
2026-01-07 08:32:39.67	329.39	14.28	-32.1	-32.9	17.8	0.00e+00	0	53	0	8883535872	35	16199
2026-01-07 08:32:40.67	329.52	14.16	-31.9	-32.8	18.1	0.00e+00	0	53	0	8942256128	35	15842
2026-01-07 08:32:41.67	329.64	14.04	-31.8	-32.7	18.2	0.00e+00	0	53	0	9000976384	35	15687
2026-01-07 08:32:42.67	329.77	13.92	-31.9	-32.7	18.2	0.00e+00	0	53	0	9059696640	35	15799
2026-01-07 08:32:43.66	329.89	13.80	-32.0	-32.8	18.2	0.00e+00	0	53	0	9126805504	35	15972
2026-01-07 08:32:44.66	330.01	13.68	-32.0	-32.8	18.2	0.00e+00	0	53	0	9185525760	35	15966
2026-01-07 08:32:45.66	330.13	13.56	-32.1	-32.9	18.0	0.00e+00	0	53	0	9244246016	35	16173
2026-01-07 08:32:46.65	330.25	13.45	-32.1	-33.0	17.9	0.00e+00	0	53	0	9302966272	35	16341
2026-01-07 08:32:47.65	330.37	13.33	-32.5	-33.4	17.4	0.00e+00	0	53	0	9361686528	35	17027
2026-01-07 08:32:48.65	330.48	13.21	-33.5	-34.4	18.0	0.00e+00	0	53	0	9420406784	38	16073
2026-01-07 08:32:49.65	330.60	13.10	-33.7	-34.6	17.9	0.00e+00	0	53	0	9487515648	38	16444
2026-01-07 08:32:50.65	330.72	12.98	-33.7	-34.6	18.0	0.00e+00	0	53	0	9546235904	38	16428
2026-01-07 08:32:51.64	330.83	12.87	-33.8	-34.7	18.0	0.00e+00	0	53	0	9604956160	38	16605
2026-01-07 08:32:52.64	330.94	12.76	-33.7	-34.6	18.1	0.00e+00	0	53	0	9663676416	38	16522
2026-01-07 08:32:53.64	331.06	12.65	-33.9	-34.8	18.0	0.00e+00	0	53	0	9722396672	38	16908
2026-01-07 08:32:54.64	331.17	12.53	-34.0	-34.9	18.0	0.00e+00	0	53	0	9781116928	38	17152
2026-01-07 08:32:55.63	331.28	12.42	-34.0	-34.9	18.0	0.00e+00	0	53	0	9839837184	38	17004
2026-01-07 08:32:56.63	331.39	12.31	-34.1	-35.0	17.9	0.00e+00	0	53	0	9906946048	38	17230
2026-01-07 08:32:57.63	331.49	12.20	-33.9	-34.8	18.1	0.00e+00	0	53	0	9965666304	39	15914
2026-01-07 08:32:58.63	331.60	12.09	-34.0	-34.9	18.0	0.00e+00	0	53	0	10024386560	39	16057
2026-01-07 08:32:59.63	331.71	11.98	-34.0	-34.9	18.0	0.00e+00	0	53	0	10083106816	39	16174
2026-01-07 08:33:00.62	331.81	11.88	-34.1	-35.0	17.9	0.00e+00	0	53	0	10141827072	39	16236
2026-01-07 08:33:01.62	331.92	11.77	-34.2	-35.1	17.9	0.00e+00	0	53	0	10200547328	39	16413
2026-01-07 08:33:02.62	332.02	11.66	-34.2	-35.1	17.9	0.00e+00	0	53	0	10267656192	39	16474
2026-01-07 08:33:03.62	332.12	11.55	-34.3	-35.1	17.9	0.00e+00	0	53	0	10326376448	39	16563
2026-01-07 08:33:04.62	332.23	11.45	-34.4	-35.3	17.8	0.00e+00	0	53	0	10376708096	39	16853
2026-01-07 08:33:05.62	332.33	11.34	-34.5	-35.4	17.5	0.00e+00	0	53	0	10443816960	39	17104
2026-01-07 08:33:06.62	332.43	11.24	-52.1	-57.1	3.7	1.32e-02	0	53	104	10494148608	74	27587
2026-01-07 08:33:07.61	332.53	11.13	-52.2	-57.1	3.7	1.32e-02	0	53	104	10494148608	75	26081
2026-01-07 08:33:08.61	332.63	11.03	-52.2	-57.1	3.7	1.32e-02	0	53	104	10494148608	75	26177
2026-01-07 08:33:09.61	332.72	10.92	-52.2	-57.1	3.7	1.32e-02	0	53	104	10494148608	75	26247
2026-01-07 08:33:10.60	332.82	10.82	-52.3	-57.4	3.7	1.32e-02	0	52	104	10494148608	75	27058
2026-01-07 08:33:11.60	332.92	10.72	-52.4	-57.3	3.7	1.32e-02	0	53	104	10494148608	75	26727
2026-01-07 08:33:12.60	333.01	10.62	-52.2	-57.3	3.7	1.32e-02	0	52	104	10494148608	75	26831
2026-01-07 08:33:13.60	333.11	10.51	-52.3	-57.4	3.7	1.32e-02	0	52	104	10494148608	75	27165
2026-01-07 08:33:14.59	333.20	10.41	-52.5	-57.6	3.7	1.32e-02	0	53	104	10494148608	75	27685
2026-01-07 08:33:15.59	333.29	10.31	-52.4	-57.6	3.7	1.32e-02	0	53	104	10494148608	75	27601
2026-01-07 08:33:16.59	333.38	10.21	-52.4	-57.5	3.7	1.32e-02	0	52	104	10494148608	75	27491
2026-01-07 08:33:17.59	333.48	10.11	-52.4	-57.6	3.7	1.32e-02	0	53	104	10494148608	75	27722
2026-01-07 08:33:18.59	333.57	10.02	-51.8	-57.1	3.7	1.32e-02	0	52	104	10494148608	75	26176
2026-01-07 08:33:19.58	333.66	9.92	-52.1	-57.3	3.7	1.32e-02	0	52	104	10494148608	74	28473
2026-01-07 08:33:20.58	333.75	9.82	-51.7	-56.8	3.7	1.32e-02	0	52	104	10494148608	75	25280
2026-01-07 08:33:21.58	333.83	9.72	-51.2	-56.5	3.7	1.32e-02	0	53	104	10494148608	74	25804
2026-01-07 08:33:22.58	333.92	9.62	-51.4	-56.6	3.7	1.32e-02	0	53	104	10494148608	74	26018
2026-01-07 08:33:23.58	334.01	9.53	-51.5	-56.6	3.7	1.32e-02	0	52	104	10494148608	74	26160
2026-01-07 08:33:24.58	334.10	9.43	-51.8	-56.8	3.7	1.32e-02	0	53	104	10494148608	74	26717
2026-01-07 08:33:25.57	334.18	9.34	-52.1	-57.0	3.7	1.32e-02	0	52	104	10494148608	74	27235
2026-01-07 08:33:26.57	334.27	9.24	-52.3	-57.1	3.7	1.32e-02	0	52	104	10494148608	75	25999
2026-01-07 08:33:27.56	334.35	9.15	-52.3	-57.1	3.7	1.32e-02	0	52	104	10494148608	75	26093
2026-01-07 08:33:28.56	334.44	9.05	-52.0	-56.9	3.7	1.32e-02	0	52	104	10494148608	75	25619
2026-01-07 08:33:29.56	334.52	8.96	-51.3	-56.5	3.7	1.32e-02	0	52	104	10494148608	74	25780
2026-01-07 08:33:30.56	334.60	8.86	-52.4	-57.4	3.7	1.32e-02	0	52	104	10494148608	75	27096
2026-01-07 08:33:31.55	334.68	8.77	-52.6	-57.4	3.7	1.32e-02	0	52	104	10494148608	75	27076
2026-01-07 08:33:32.55	334.76	8.68	-50.3	-56.2	3.7	1.32e-02	0	52	104	10494148608	72	27910
2026-01-07 08:33:33.55	334.85	8.59	-52.7	-57.5	3.7	1.32e-02	0	52	104	10494148608	76	25771
2026-01-07 08:33:34.54	334.93	8.50	-53.1	-57.9	3.7	1.32e-02	0	52	104	10494148608	76	27052
2026-01-07 08:33:35.54	335.01	8.40	-52.2	-57.3	3.7	1.32e-02	0	52	104	10494148608	75	26617
2026-01-07 08:33:36.53	335.08	8.31	-51.8	-56.7	3.7	1.32e-02	0	52	104	10494148608	75	25088
2026-01-07 08:33:37.53	335.16	8.22	-52.8	-57.4	3.7	1.32e-02	0	52	104	10494148608	76	25582
2026-01-07 08:33:38.53	335.24	8.13	-53.1	-57.9	3.7	1.32e-02	0	52	104	10494148608	76	27026
2026-01-07 08:33:39.52	335.32	8.04	-53.6	-58.2	3.7	1.32e-02	0	52	104	10494148608	77	26284
2026-01-07 08:33:40.52	335.39	7.95	-52.4	-57.5	3.7	1.32e-02	0	52	104	10494148608	76	25870
2026-01-07 08:33:41.52	335.47	7.87	-53.2	-57.7	3.7	1.32e-02	0	52	104	10494148608	77	25038
2026-01-07 08:33:42.52	335.55	7.78	-52.9	-57.7	3.7	1.32e-02	0	52	104	10494148608	77	25005
2026-01-07 08:33:43.52	335.62	7.69	-54.0	-58.5	3.7	1.32e-02	0	52	104	10494148608	78	25795
2026-01-07 08:33:44.52	335.70	7.60	-53.8	-58.5	3.7	1.32e-02	0	52	104	10494148608	78	25680
2026-01-07 08:33:45.52	335.77	7.51	-53.9	-58.5	3.7	1.32e-02	0	53	104	10494148608	78	25838
2026-01-07 08:33:46.52	335.84	7.43	-54.0	-58.5	3.7	1.32e-02	0	52	104	10494148608	78	25816
2026-01-07 08:33:47.52	335.92	7.34	-54.0	-58.5	3.7	1.32e-02	0	52	104	10494148608	78	25876
2026-01-07 08:33:48.52	335.99	7.25	-53.9	-58.3	3.7	1.32e-02	0	52	104	10494148608	78	25189
2026-01-07 08:33:49.51	336.06	7.17	-53.5	-58.1	3.7	1.32e-02	0	52	104	10494148608	78	24545
2026-01-07 08:33:50.51	336.13	7.08	-53.5	-57.9	3.7	1.32e-02	0	52	104	10494148608	78	24078
2026-01-07 08:33:51.51	336.20	7.00	-53.3	-57.7	3.7	1.32e-02	0	52	104	10494148608	78	23422
2026-01-07 08:33:52.51	336.27	6.91	-53.2	-57.6	3.7	1.32e-02	0	52	104	10494148608	77	24574
2026-01-07 08:33:53.50	336.34	6.83	-52.9	-57.5	3.7	1.32e-02	0	52	104	10494148608	77	24466
2026-01-07 08:33:54.50	336.41	6.74	-52.8	-57.4	3.7	1.32e-02	0	52	104	10494148608	77	24194
2026-01-07 08:33:55.50	336.48	6.66	-52.8	-57.5	3.7	1.32e-02	0	52	104	10494148608	77	24245
2026-01-07 08:33:56.50	336.55	6.58	-52.8	-57.5	3.7	1.32e-02	0	52	104	10494148608	77	24307
2026-01-07 08:33:57.49	336.62	6.49	-52.8	-57.4	3.7	1.32e-02	0	52	104	10494148608	77	24202
2026-01-07 08:33:58.49	336.69	6.41	-52.8	-57.5	3.7	1.32e-02	0	52	104	10494148608	77	24263
2026-01-07 08:33:59.49	336.75	6.33	-52.8	-57.4	3.7	1.32e-02	0	52	104	10494148608	77	24162
2026-01-07 08:34:00.49	336.82	6.24	-52.7	-57.4	3.7	1.32e-02	0	52	104	10494148608	77	24189
2026-01-07 08:34:01.49	336.89	6.16	-52.8	-57.5	3.7	1.32e-02	0	52	104	10494148608	77	24260
2026-01-07 08:34:02.49	336.95	6.08	-52.7	-57.4	3.7	1.32e-02	0	52	104	10494148608	77	24150
2026-01-07 08:34:03.48	337.02	6.00	-52.7	-57.4	3.7	1.32e-02	0	52	104	10494148608	77	24097
2026-01-07 08:34:04.48	337.08	5.92	-52.7	-57.4	3.7	1.32e-02	0	52	104	10494148608	77	24142
2026-01-07 08:34:05.48	337.15	5.84	-52.7	-57.4	3.7	1.32e-02	0	52	104	10494148608	77	24242
2026-01-07 08:34:06.48	337.21	5.76	-52.7	-57.4	3.7	1.32e-02	0	52	104	10494148608	77	24170
2026-01-07 08:34:07.48	337.28	5.68	-52.7	-57.4	3.7	1.32e-02	0	52	104	10494148608	77	24214
2026-01-07 08:34:08.48	337.34	5.60	-52.7	-57.4	3.7	1.32e-02	0	52	104	10494148608	77	24119
2026-01-07 08:34:09.47	337.40	5.52	-52.7	-57.5	3.7	1.32e-02	0	52	104	10494148608	77	24244
2026-01-07 08:34:10.47	337.46	5.44	-52.7	-57.4	3.7	1.32e-02	0	52	104	10494148608	77	24192
2026-01-07 08:34:11.47	337.53	5.36	-52.7	-57.4	3.7	1.32e-02	0	52	104	10494148608	77	24226
2026-01-07 08:34:12.47	337.59	5.28	-52.8	-57.5	3.7	1.32e-02	0	52	104	10494148608	77	24283
2026-01-07 08:34:13.47	337.65	5.20	-52.8	-57.4	3.7	1.32e-02	0	52	104	10494148608	77	24240
2026-01-07 08:34:14.47	337.71	5.13	-52.8	-57.4	3.7	1.32e-02	0	52	104	10494148608	77	24203
2026-01-07 08:34:15.47	337.77	5.05	-52.8	-57.4	3.7	1.32e-02	0	52	104	10494148608	77	24238
2026-01-07 08:34:16.46	337.83	4.97	-52.7	-57.4	3.7	1.32e-02	0	52	104	10494148608	77	24132

#Closed at: 2026-01-07 08:34:17
#Recorded file [10494 MB]: D:/Data/31040_260107_112526.dat