passes_logs/2026/01/07/T1/T1__20260107_063318_FENGYUN_3E_rec.log

#Pass ID: 20260107_063318_FENGYUN 3E
#Satellite: FENGYUN 3E
#Configuration: FENGYUN 3E
#almurnet v.1.7.20251203
#Start time: 2026-01-07 06:33:20

#Version: 2.0.20230620
#Station: T1
#Location: 37.570604 lon 55.790049 lat
#TLE: 1 49008U 21062A   26006.26767912  .00000427  00000+0  22170-3 0  9993
#TLE: 2 49008  98.7475  11.4982 0001602 156.1158 204.0093 14.19885456233607

#Time	Az	El	Level	Level2	SNR	BER	BlckErr	Temp	State	Recorded	gain1	gain2
2026-01-07 06:33:20.74	0.77	5.09	-47.4	-60.7	3.8	8.47e-01	0	38	0	0	64	17472
2026-01-07 06:33:21.73	0.65	5.13	-47.7	-60.8	3.8	8.47e-01	0	38	104	0	64	17486
2026-01-07 06:33:22.73	0.54	5.18	-47.7	-60.7	3.8	8.46e-01	0	38	104	0	64	17341
2026-01-07 06:33:23.74	0.42	5.22	-47.7	-60.7	3.8	8.47e-01	0	38	104	0	64	17427
2026-01-07 06:33:24.73	0.30	5.27	-47.7	-60.7	3.8	8.46e-01	0	38	104	0	64	17430
2026-01-07 06:33:25.73	0.18	5.31	-47.7	-60.8	3.8	8.47e-01	0	38	104	0	64	17499
2026-01-07 06:33:26.73	0.06	5.36	-47.7	-60.7	3.8	8.47e-01	0	38	104	0	64	17423
2026-01-07 06:33:27.73	359.94	5.40	-47.7	-60.7	3.8	8.47e-01	0	38	104	0	64	17464
2026-01-07 06:33:28.72	359.82	5.45	-47.7	-60.7	3.8	8.47e-01	0	38	104	0	64	17432
2026-01-07 06:33:29.72	359.70	5.49	-47.7	-60.7	3.8	8.47e-01	0	38	104	0	64	17353
2026-01-07 06:33:30.72	359.58	5.54	-47.7	-60.7	3.8	8.46e-01	0	38	104	0	64	17436
2026-01-07 06:33:31.72	359.46	5.58	-47.6	-60.7	3.8	8.47e-01	0	38	104	0	64	17415
2026-01-07 06:33:32.72	359.34	5.63	-47.6	-60.7	3.8	8.47e-01	0	38	104	0	64	17455
2026-01-07 06:33:33.71	359.22	5.67	-47.6	-60.8	3.8	8.47e-01	0	38	104	0	64	17495
2026-01-07 06:33:34.71	359.10	5.72	-47.7	-60.7	3.8	8.48e-01	0	38	104	0	64	17345
2026-01-07 06:33:35.71	358.98	5.76	-47.6	-60.8	3.8	8.48e-01	0	38	104	0	64	17485
2026-01-07 06:33:36.70	358.85	5.81	-47.6	-60.7	3.8	8.46e-01	0	38	104	0	64	17351
2026-01-07 06:33:37.71	358.73	5.85	-47.6	-60.7	3.8	8.46e-01	0	39	104	0	64	17364
2026-01-07 06:33:38.70	358.61	5.90	-47.6	-60.7	3.8	8.47e-01	0	38	104	0	64	17457
2026-01-07 06:33:39.70	358.48	5.94	-47.7	-60.7	3.8	8.48e-01	0	39	104	0	64	17394
2026-01-07 06:33:40.70	358.36	5.99	-47.6	-60.7	3.8	8.47e-01	0	39	104	0	64	17413
2026-01-07 06:33:41.70	358.23	6.03	-47.6	-60.7	3.8	8.48e-01	0	39	104	0	64	17427
2026-01-07 06:33:42.69	358.11	6.07	-47.6	-60.7	3.8	8.46e-01	0	39	104	0	64	17395
2026-01-07 06:33:43.69	357.99	6.12	-47.6	-60.7	3.8	8.46e-01	0	39	104	0	64	17318
2026-01-07 06:33:44.69	357.86	6.16	-47.6	-60.7	3.8	8.47e-01	0	39	104	0	64	17403
2026-01-07 06:33:45.69	357.73	6.21	-47.6	-60.7	3.8	8.48e-01	0	39	104	0	64	17406
2026-01-07 06:33:46.69	357.61	6.25	-47.6	-60.7	3.8	8.48e-01	0	39	104	0	64	17424
2026-01-07 06:33:47.69	357.48	6.29	-47.6	-60.7	3.8	8.48e-01	0	39	104	0	64	17366
2026-01-07 06:33:48.68	357.35	6.34	-47.6	-60.7	3.8	8.47e-01	0	39	104	0	64	17367
2026-01-07 06:33:49.68	357.23	6.38	-47.6	-60.7	3.8	8.45e-01	0	39	104	0	64	17335
2026-01-07 06:33:50.68	357.10	6.43	-47.6	-60.7	3.8	8.47e-01	0	39	104	0	64	17406
2026-01-07 06:33:51.68	356.97	6.47	-47.6	-60.7	3.8	8.46e-01	0	39	104	0	64	17438
2026-01-07 06:33:52.68	356.84	6.51	-47.6	-60.7	3.8	8.46e-01	0	39	104	0	64	17324
2026-01-07 06:33:53.68	356.71	6.56	-47.6	-60.7	3.8	8.48e-01	0	39	104	0	64	17353
2026-01-07 06:33:54.68	356.58	6.60	-47.6	-60.7	3.8	8.48e-01	0	39	104	0	64	17399
2026-01-07 06:33:55.68	356.45	6.64	-47.6	-60.7	3.8	8.46e-01	0	39	104	0	64	17330
2026-01-07 06:33:56.68	356.32	6.69	-47.6	-60.7	3.8	8.48e-01	0	39	104	0	64	17469
2026-01-07 06:33:57.68	356.19	6.73	-47.6	-60.7	3.8	8.47e-01	0	39	104	0	64	17363
2026-01-07 06:33:58.67	356.06	6.77	-47.6	-60.7	3.8	8.48e-01	0	39	104	0	64	17371
2026-01-07 06:33:59.67	355.93	6.82	-47.6	-60.7	3.8	8.47e-01	0	39	104	0	64	17376
2026-01-07 06:34:00.67	355.79	6.86	-47.6	-60.7	3.8	8.47e-01	0	39	104	0	64	17321
2026-01-07 06:34:01.67	355.66	6.90	-47.6	-60.7	3.8	8.48e-01	0	39	104	0	64	17320
2026-01-07 06:34:02.67	355.53	6.95	-47.6	-60.7	3.8	8.46e-01	0	39	104	0	64	17318
2026-01-07 06:34:03.67	355.39	6.99	-47.6	-60.7	3.8	8.47e-01	0	39	104	0	64	17346
2026-01-07 06:34:04.66	355.26	7.03	-47.6	-60.6	3.8	8.47e-01	0	39	104	0	64	17266
2026-01-07 06:34:05.66	355.13	7.08	-47.6	-60.6	3.8	8.47e-01	0	39	104	0	64	17230
2026-01-07 06:34:06.66	354.99	7.12	-47.7	-60.6	3.8	8.47e-01	0	39	104	0	64	17171
2026-01-07 06:34:07.65	354.86	7.16	-47.6	-60.6	3.8	8.46e-01	0	39	104	0	64	17278
2026-01-07 06:34:08.65	354.72	7.20	-47.6	-60.7	3.8	8.46e-01	0	39	104	0	64	17298
2026-01-07 06:34:09.65	354.59	7.25	-47.6	-60.6	3.8	8.46e-01	0	39	104	0	64	17224
2026-01-07 06:34:10.65	354.45	7.29	-47.6	-60.7	3.8	8.46e-01	0	39	104	0	64	17362
2026-01-07 06:34:11.65	354.31	7.33	-47.6	-60.7	3.8	8.45e-01	0	39	104	0	64	17422
2026-01-07 06:34:12.65	354.18	7.37	-47.6	-60.7	3.8	8.46e-01	0	39	104	0	64	17414
2026-01-07 06:34:13.65	354.04	7.42	-47.6	-60.7	3.8	8.47e-01	0	39	104	0	64	17329
2026-01-07 06:34:14.65	353.90	7.46	-47.6	-60.7	3.8	8.46e-01	0	39	104	0	64	17323
2026-01-07 06:34:15.64	353.76	7.50	-47.6	-60.7	3.8	8.47e-01	0	39	104	0	64	17382
2026-01-07 06:34:16.64	353.63	7.54	-47.6	-60.7	3.8	8.47e-01	0	40	104	0	64	17322
2026-01-07 06:34:17.64	353.49	7.58	-47.6	-60.7	3.8	8.46e-01	0	40	104	0	64	17382
2026-01-07 06:34:18.64	353.35	7.63	-47.6	-60.7	3.8	8.46e-01	0	40	104	0	64	17339
2026-01-07 06:34:19.64	353.21	7.67	-47.6	-60.7	3.8	8.47e-01	0	40	104	0	64	17376
2026-01-07 06:34:20.64	353.07	7.71	-47.6	-60.7	3.8	8.47e-01	0	39	104	0	64	17301
2026-01-07 06:34:21.64	352.93	7.75	-47.5	-60.7	3.8	8.47e-01	0	40	104	0	64	17351
2026-01-07 06:34:22.64	352.78	7.79	-47.6	-60.7	3.8	8.48e-01	0	40	104	0	64	17283
2026-01-07 06:34:23.64	352.64	7.83	-47.6	-60.6	3.8	8.47e-01	0	40	104	0	64	17253
2026-01-07 06:34:24.63	352.50	7.87	-47.5	-60.6	3.8	8.47e-01	0	40	104	0	64	17242
2026-01-07 06:34:25.63	352.36	7.91	-47.6	-60.5	3.8	8.47e-01	0	40	104	0	64	17069
2026-01-07 06:34:26.63	352.22	7.96	-47.5	-60.4	3.8	8.47e-01	0	40	104	0	64	16865
2026-01-07 06:34:27.63	352.07	8.00	-47.6	-60.4	3.8	8.47e-01	0	40	104	0	64	16759
2026-01-07 06:34:28.63	351.93	8.04	-47.6	-60.5	3.8	8.47e-01	0	40	104	0	64	16971
2026-01-07 06:34:29.63	351.79	8.08	-47.6	-60.6	3.8	8.47e-01	0	40	104	0	64	17102
2026-01-07 06:34:30.62	351.64	8.12	-47.6	-60.6	3.8	8.47e-01	0	40	104	0	64	17174
2026-01-07 06:34:31.62	351.50	8.16	-47.6	-60.6	3.8	8.48e-01	0	40	104	0	64	17279
2026-01-07 06:34:32.62	351.35	8.20	-47.6	-60.7	3.8	8.47e-01	0	40	104	0	64	17357
2026-01-07 06:34:33.62	351.21	8.24	-47.6	-60.7	3.8	8.47e-01	0	40	104	0	64	17355
2026-01-07 06:34:34.62	351.06	8.28	-47.6	-60.6	3.8	8.47e-01	0	40	104	0	64	17198
2026-01-07 06:34:35.62	350.91	8.32	-47.6	-60.4	3.8	8.47e-01	0	40	104	0	64	16753
2026-01-07 06:34:36.62	350.77	8.36	-47.5	-60.2	3.8	8.47e-01	0	40	104	0	64	16492
2026-01-07 06:34:37.62	350.62	8.40	-47.5	-60.1	3.8	8.46e-01	0	40	104	0	64	16221
2026-01-07 06:34:38.62	350.47	8.44	-47.6	-60.3	3.8	8.47e-01	0	40	104	0	64	16692
2026-01-07 06:34:39.61	350.32	8.48	-47.6	-60.4	3.8	8.47e-01	0	40	104	0	64	16886
2026-01-07 06:34:40.61	350.17	8.52	-47.6	-60.3	3.8	8.47e-01	0	40	104	0	64	16657
2026-01-07 06:34:41.61	350.03	8.56	-47.5	-59.6	3.8	8.47e-01	0	40	104	0	64	15355
2026-01-07 06:34:42.61	349.88	8.60	-47.5	-58.9	3.8	8.46e-01	0	40	104	0	64	14165
2026-01-07 06:34:43.61	349.73	8.64	-47.3	-58.3	4.0	8.46e-01	0	40	104	0	64	13167
2026-01-07 06:34:44.61	349.58	8.67	-47.3	-57.7	4.1	8.45e-01	0	40	0	0	64	12338
2026-01-07 06:34:45.61	349.43	8.71	-47.3	-57.5	4.1	8.42e-01	0	40	0	0	64	12052
2026-01-07 06:34:46.61	349.27	8.75	-47.3	-57.2	4.2	8.39e-01	0	40	0	0	64	11596
2026-01-07 06:34:47.61	349.12	8.79	-47.2	-56.8	4.3	8.35e-01	0	40	0	0	64	11108
2026-01-07 06:34:48.61	348.97	8.83	-47.2	-56.3	4.5	8.27e-01	0	40	0	0	64	10434
2026-01-07 06:34:49.61	348.82	8.87	-47.0	-55.3	4.9	7.87e-01	0	40	0	0	64	9377
2026-01-07 06:34:50.61	348.67	8.91	-46.8	-54.5	5.4	7.41e-01	0	40	0	0	64	8505
2026-01-07 06:34:51.61	348.51	8.94	-46.6	-53.1	6.5	2.96e-01	0	40	0	5242880	63	7662
2026-01-07 06:34:52.61	348.36	8.98	-45.8	-50.5	9.0	4.61e-02	0	40	0	12582912	62	6032
2026-01-07 06:34:53.61	348.20	9.02	-44.9	-48.5	11.1	5.13e-03	0	40	0	18874368	60	5382
2026-01-07 06:34:54.60	348.05	9.06	-44.2	-47.3	12.2	1.83e-04	0	40	0	26214400	59	4951
2026-01-07 06:34:55.60	347.90	9.09	-45.6	-51.2	8.4	3.17e-03	0	40	0	33554432	60	7317
2026-01-07 06:34:56.60	347.74	9.13	-43.6	-46.5	12.9	6.60e-02	0	40	0	40894464	58	4802
2026-01-07 06:34:57.60	347.59	9.17	-44.8	-48.5	11.2	2.97e-05	0	40	0	48234496	58	6012
2026-01-07 06:34:58.60	347.43	9.21	-40.9	-42.7	16.8	2.00e-03	0	40	0	55574528	52	4344
2026-01-07 06:34:59.60	347.27	9.24	-40.8	-42.5	16.9	0.00e+00	0	40	0	62914560	52	4257
2026-01-07 06:35:00.60	347.12	9.28	-40.3	-42.0	17.5	0.00e+00	0	40	0	70254592	51	4245
2026-01-07 06:35:01.60	346.96	9.32	-40.1	-41.7	17.7	0.00e+00	0	40	0	77594624	51	4134
2026-01-07 06:35:02.59	346.80	9.35	-39.9	-41.5	18.0	0.00e+00	0	40	0	83886080	50	4250
2026-01-07 06:35:03.59	346.64	9.39	-40.0	-41.7	17.8	0.00e+00	0	40	0	91226112	50	4379
2026-01-07 06:35:04.59	346.49	9.42	-39.8	-41.4	18.1	0.00e+00	0	40	0	98566144	50	4214
2026-01-07 06:35:05.59	346.33	9.46	-39.9	-41.5	18.0	0.00e+00	0	40	0	105906176	50	4286
2026-01-07 06:35:06.59	346.17	9.50	-39.7	-41.4	18.1	0.00e+00	0	40	0	113246208	50	4200
2026-01-07 06:35:07.59	346.01	9.53	-39.9	-41.6	17.9	0.00e+00	0	40	0	119537664	50	4329
2026-01-07 06:35:08.59	345.85	9.57	-39.7	-41.4	18.1	0.00e+00	0	40	0	126877696	50	4219
2026-01-07 06:35:09.59	345.69	9.60	-39.7	-41.6	17.9	0.00e+00	0	40	0	134217728	50	4316
2026-01-07 06:35:10.58	345.53	9.64	-39.7	-41.6	17.9	0.00e+00	0	40	0	141557760	50	4304
2026-01-07 06:35:11.59	345.37	9.67	-39.8	-41.6	18.0	0.00e+00	0	40	0	148897792	50	4292
2026-01-07 06:35:12.58	345.21	9.71	-39.8	-41.5	18.0	0.00e+00	0	40	0	156237824	50	4280
2026-01-07 06:35:13.58	345.04	9.74	-39.9	-41.5	18.0	0.00e+00	0	40	0	163577856	50	4283
2026-01-07 06:35:14.58	344.88	9.78	-39.9	-41.5	18.0	0.00e+00	0	40	0	170917888	50	4249
2026-01-07 06:35:15.58	344.72	9.81	-39.9	-41.5	18.1	0.00e+00	0	40	0	178257920	50	4247
2026-01-07 06:35:16.58	344.55	9.84	-39.9	-41.5	18.0	0.00e+00	0	40	0	184549376	50	4267
2026-01-07 06:35:17.58	344.39	9.88	-39.9	-41.6	17.9	0.00e+00	0	40	0	191889408	50	4318
2026-01-07 06:35:18.58	344.23	9.91	-39.8	-41.5	18.0	0.00e+00	0	40	0	199229440	50	4269
2026-01-07 06:35:19.58	344.06	9.95	-39.8	-41.6	18.0	0.00e+00	0	40	0	206569472	50	4309
2026-01-07 06:35:20.58	343.90	9.98	-39.6	-41.4	18.2	0.00e+00	0	40	0	213909504	50	4206
2026-01-07 06:35:21.57	343.73	10.01	-39.5	-41.2	18.3	0.00e+00	0	40	0	221249536	49	4388
2026-01-07 06:35:22.57	343.57	10.05	-39.3	-40.9	18.6	0.00e+00	0	40	0	228589568	49	4219
2026-01-07 06:35:23.57	343.40	10.08	-39.3	-40.9	18.6	0.00e+00	0	40	0	235929600	49	4216
2026-01-07 06:35:24.56	343.24	10.11	-39.4	-40.9	18.6	0.00e+00	0	40	0	243269632	49	4215
2026-01-07 06:35:25.56	343.07	10.14	-39.6	-41.0	18.5	0.00e+00	0	40	0	249561088	49	4287
2026-01-07 06:35:26.56	342.90	10.18	-39.6	-41.0	18.6	0.00e+00	0	40	0	256901120	49	4255
2026-01-07 06:35:27.56	342.74	10.21	-39.6	-41.0	18.5	0.00e+00	0	41	0	264241152	49	4287
2026-01-07 06:35:28.56	342.57	10.24	-39.8	-41.2	18.3	0.00e+00	0	40	0	271581184	49	4355
2026-01-07 06:35:29.56	342.40	10.27	-39.7	-41.0	18.5	0.00e+00	0	41	0	278921216	49	4280
2026-01-07 06:35:30.56	342.23	10.30	-39.5	-40.8	18.7	0.00e+00	0	40	0	286261248	49	4190
2026-01-07 06:35:31.56	342.06	10.33	-39.6	-40.9	18.6	0.00e+00	0	40	0	293601280	49	4223
2026-01-07 06:35:32.56	341.89	10.36	-39.7	-41.0	18.5	0.00e+00	0	40	0	300941312	49	4280
2026-01-07 06:35:33.56	341.72	10.40	-39.8	-41.1	18.4	0.00e+00	0	40	0	307232768	49	4327
2026-01-07 06:35:34.56	341.55	10.43	-39.9	-41.2	18.3	0.00e+00	0	40	0	314572800	49	4391
2026-01-07 06:35:35.56	341.38	10.46	-39.9	-41.2	18.4	0.00e+00	0	40	0	321912832	49	4348
2026-01-07 06:35:36.56	341.21	10.49	-39.8	-41.1	18.4	0.00e+00	0	40	0	329252864	49	4320
2026-01-07 06:35:37.56	341.04	10.52	-39.9	-41.2	18.4	0.00e+00	0	40	0	336592896	49	4353
2026-01-07 06:35:38.56	340.87	10.55	-39.8	-41.0	18.5	0.00e+00	0	40	0	343932928	49	4281
2026-01-07 06:35:39.56	340.70	10.58	-39.8	-41.0	18.6	0.00e+00	0	40	0	351272960	49	4267
2026-01-07 06:35:40.55	340.53	10.61	-39.9	-41.1	18.4	0.00e+00	0	41	0	358612992	49	4333
2026-01-07 06:35:41.55	340.36	10.64	-39.8	-40.9	18.6	0.00e+00	0	40	0	365953024	49	4237
2026-01-07 06:35:42.55	340.18	10.66	-39.8	-41.0	18.6	0.00e+00	0	40	0	372244480	49	4243
2026-01-07 06:35:43.55	340.01	10.69	-39.7	-40.8	18.8	0.00e+00	0	40	0	379584512	49	4175
2026-01-07 06:35:44.55	339.84	10.72	-39.7	-40.8	18.7	0.00e+00	0	40	0	386924544	49	4193
2026-01-07 06:35:45.55	339.66	10.75	-39.6	-40.7	18.9	0.00e+00	0	40	0	394264576	49	4123
2026-01-07 06:35:46.55	339.49	10.78	-39.6	-40.8	18.8	0.00e+00	0	40	0	401604608	49	4163
2026-01-07 06:35:47.55	339.31	10.81	-39.5	-40.7	18.9	0.00e+00	0	40	0	408944640	49	4113
2026-01-07 06:35:48.55	339.14	10.83	-39.4	-40.6	19.0	0.00e+00	0	40	0	416284672	49	4073
2026-01-07 06:35:49.54	338.96	10.86	-39.4	-40.7	18.9	0.00e+00	0	40	0	423624704	49	4111
2026-01-07 06:35:50.54	338.79	10.89	-39.3	-40.5	19.1	0.00e+00	0	40	0	429916160	49	4028
2026-01-07 06:35:51.54	338.61	10.92	-39.3	-40.5	19.1	0.00e+00	0	40	0	437256192	49	4016
2026-01-07 06:35:52.54	338.44	10.94	-39.2	-40.4	19.2	0.00e+00	0	40	0	444596224	49	3966
2026-01-07 06:35:53.54	338.26	10.97	-39.2	-40.4	19.2	0.00e+00	0	41	0	451936256	49	3968
2026-01-07 06:35:54.53	338.08	10.99	-39.2	-40.4	19.2	0.00e+00	0	40	0	459276288	49	3964
2026-01-07 06:35:55.53	337.91	11.02	-39.3	-40.4	19.2	0.00e+00	0	41	0	466616320	49	3974
2026-01-07 06:35:56.54	337.73	11.05	-39.1	-40.2	19.4	0.00e+00	0	40	0	472907776	49	3883
2026-01-07 06:35:57.53	337.55	11.07	-39.1	-40.3	19.3	0.00e+00	0	40	0	480247808	48	4166
2026-01-07 06:35:58.53	337.37	11.10	-39.1	-40.3	19.3	0.00e+00	0	40	0	487587840	48	4158
2026-01-07 06:35:59.53	337.19	11.12	-38.9	-40.1	19.4	0.00e+00	0	40	0	494927872	48	4072
2026-01-07 06:36:00.53	337.02	11.15	-39.0	-40.1	19.4	0.00e+00	0	41	0	502267904	48	4096
2026-01-07 06:36:01.53	336.84	11.17	-39.2	-40.3	19.2	0.00e+00	0	40	0	509607936	48	4192
2026-01-07 06:36:02.53	336.66	11.20	-39.2	-40.3	19.2	0.00e+00	0	40	0	516947968	48	4175
2026-01-07 06:36:03.53	336.48	11.22	-39.2	-40.4	19.2	0.00e+00	0	40	0	524288000	48	4213
2026-01-07 06:36:04.53	336.30	11.24	-39.2	-40.4	19.2	0.00e+00	0	40	0	531628032	48	4196
2026-01-07 06:36:05.53	336.12	11.27	-39.4	-40.5	19.1	0.00e+00	0	40	0	537919488	48	4269
2026-01-07 06:36:06.53	335.94	11.29	-39.3	-40.4	19.2	0.00e+00	0	40	0	545259520	48	4223
2026-01-07 06:36:07.52	335.76	11.31	-39.3	-40.4	19.2	0.00e+00	0	41	0	552599552	48	4217
2026-01-07 06:36:08.52	335.58	11.34	-39.4	-40.5	19.1	0.00e+00	0	40	0	559939584	48	4281
2026-01-07 06:36:09.52	335.39	11.36	-39.5	-40.7	18.9	0.00e+00	0	41	0	567279616	48	4351
2026-01-07 06:36:10.52	335.21	11.38	-39.6	-40.7	18.8	0.00e+00	0	40	0	574619648	48	4382
2026-01-07 06:36:11.53	335.03	11.40	-39.6	-40.7	18.9	0.00e+00	0	41	0	581959680	48	4376
2026-01-07 06:36:12.53	334.85	11.43	-39.8	-40.9	18.7	0.00e+00	0	40	0	589299712	49	4222
2026-01-07 06:36:13.53	334.66	11.45	-39.8	-40.9	18.7	0.00e+00	0	40	0	595591168	49	4218
2026-01-07 06:36:14.53	334.48	11.47	-39.7	-40.8	18.7	0.00e+00	0	41	0	602931200	49	4193
2026-01-07 06:36:15.53	334.30	11.49	-39.7	-40.8	18.8	0.00e+00	0	41	0	610271232	49	4191
2026-01-07 06:36:16.53	334.11	11.51	-39.7	-40.8	18.8	0.00e+00	0	41	0	617611264	49	4190
2026-01-07 06:36:17.53	333.93	11.53	-39.8	-41.0	18.7	0.00e+00	0	41	0	624951296	49	4244
2026-01-07 06:36:18.53	333.75	11.55	-39.6	-40.7	18.9	0.00e+00	0	41	0	632291328	49	4136
2026-01-07 06:36:19.52	333.56	11.57	-39.7	-40.8	18.8	0.00e+00	0	41	0	639631360	49	4168
2026-01-07 06:36:20.52	333.38	11.59	-39.8	-40.9	18.7	0.00e+00	0	41	0	646971392	49	4207
2026-01-07 06:36:21.52	333.19	11.61	-39.7	-40.8	18.8	0.00e+00	0	41	0	654311424	49	4170
2026-01-07 06:36:22.52	333.01	11.63	-39.6	-40.7	18.9	0.00e+00	0	41	0	660602880	49	4102
2026-01-07 06:36:23.52	332.82	11.65	-39.5	-40.6	19.0	0.00e+00	0	41	0	667942912	49	4060
2026-01-07 06:36:24.52	332.64	11.67	-39.4	-40.6	19.0	0.00e+00	0	40	0	675282944	49	4053
2026-01-07 06:36:25.52	332.45	11.68	-39.4	-40.5	19.0	0.00e+00	0	41	0	682622976	49	4049
2026-01-07 06:36:26.51	332.27	11.70	-39.3	-40.3	19.3	0.00e+00	0	40	0	689963008	49	3951
2026-01-07 06:36:27.51	332.08	11.72	-39.2	-40.3	19.3	0.00e+00	0	40	0	697303040	49	3923
2026-01-07 06:36:28.51	331.90	11.74	-39.3	-40.4	19.2	0.00e+00	0	40	0	704643072	49	3963
2026-01-07 06:36:29.51	331.71	11.75	-39.2	-40.3	19.3	0.00e+00	0	40	0	711983104	49	3932
2026-01-07 06:36:30.51	331.52	11.77	-39.3	-40.3	19.2	0.00e+00	0	40	0	719323136	49	3948
2026-01-07 06:36:31.51	331.33	11.79	-39.4	-40.5	19.1	0.00e+00	0	41	0	725614592	49	4022
2026-01-07 06:36:32.51	331.15	11.80	-39.3	-40.4	19.2	0.00e+00	0	40	0	732954624	49	3964
2026-01-07 06:36:33.51	330.96	11.82	-39.4	-40.5	19.1	0.00e+00	0	41	0	740294656	49	4042
2026-01-07 06:36:34.50	330.77	11.84	-39.3	-40.4	19.2	0.00e+00	0	40	0	747634688	49	3965
2026-01-07 06:36:35.50	330.59	11.85	-39.4	-40.5	19.1	0.00e+00	0	40	0	754974720	49	4014
2026-01-07 06:36:36.50	330.40	11.87	-39.4	-40.4	19.2	0.00e+00	0	41	0	762314752	49	3990
2026-01-07 06:36:37.50	330.21	11.88	-39.3	-40.4	19.2	0.00e+00	0	40	0	769654784	49	3983
2026-01-07 06:36:38.50	330.02	11.90	-39.4	-40.5	19.1	0.00e+00	0	41	0	776994816	49	4014
2026-01-07 06:36:39.50	329.83	11.91	-39.6	-40.7	18.9	0.00e+00	0	40	0	783286272	49	4100
2026-01-07 06:36:40.50	329.64	11.92	-39.6	-40.7	18.9	0.00e+00	0	41	0	790626304	49	4115
2026-01-07 06:36:41.50	329.45	11.94	-39.6	-40.7	18.9	0.00e+00	0	41	0	797966336	49	4102
2026-01-07 06:36:42.50	329.26	11.95	-39.5	-40.6	19.0	0.00e+00	0	41	0	805306368	49	4059
2026-01-07 06:36:43.49	329.08	11.96	-39.7	-40.8	18.8	0.00e+00	0	41	0	812646400	49	4157
2026-01-07 06:36:44.49	328.89	11.98	-39.6	-40.7	18.7	0.00e+00	0	41	0	819986432	49	4105
2026-01-07 06:36:45.49	328.70	11.99	-39.6	-40.7	18.9	0.00e+00	0	41	0	826277888	49	4134
2026-01-07 06:36:46.49	328.51	12.00	-39.7	-40.8	18.9	0.00e+00	0	40	0	833617920	49	4148
2026-01-07 06:36:47.49	328.32	12.01	-39.7	-40.8	18.8	0.00e+00	0	41	0	840957952	49	4161
2026-01-07 06:36:48.48	328.13	12.03	-39.6	-40.7	18.9	0.00e+00	0	41	0	848297984	49	4114
2026-01-07 06:36:49.48	327.94	12.04	-39.7	-40.8	18.8	0.00e+00	0	41	0	855638016	49	4159
2026-01-07 06:36:50.48	327.75	12.05	-39.7	-40.8	18.8	0.00e+00	0	41	0	862978048	49	4158
2026-01-07 06:36:51.48	327.56	12.06	-39.5	-40.6	19.0	0.00e+00	0	41	0	870318080	49	4083
2026-01-07 06:36:52.48	327.37	12.07	-39.6	-40.7	18.9	0.00e+00	0	41	0	877658112	49	4134
2026-01-07 06:36:53.48	327.17	12.08	-39.4	-40.6	19.0	0.00e+00	0	41	0	884998144	49	4059
2026-01-07 06:36:54.48	326.98	12.09	-39.5	-40.6	19.0	0.00e+00	0	41	0	891289600	49	4085
2026-01-07 06:36:55.47	326.79	12.10	-39.3	-40.4	19.2	0.00e+00	0	41	0	898629632	49	3977
2026-01-07 06:36:56.47	326.60	12.11	-39.2	-40.4	19.2	0.00e+00	0	41	0	905969664	49	3974
2026-01-07 06:36:57.47	326.41	12.12	-39.4	-40.6	19.0	0.00e+00	0	41	0	913309696	49	4065
2026-01-07 06:36:58.47	326.22	12.12	-39.2	-40.4	19.2	0.00e+00	0	40	0	920649728	49	3971
2026-01-07 06:36:59.47	326.03	12.13	-39.3	-40.4	19.2	0.00e+00	0	41	0	927989760	49	3985
2026-01-07 06:37:00.45	325.84	12.14	-39.4	-40.5	19.1	0.00e+00	0	41	0	935329792	49	4037
2026-01-07 06:37:01.44	325.65	12.15	-39.3	-40.5	19.1	0.00e+00	0	41	0	941621248	49	4019
2026-01-07 06:37:02.44	325.46	12.16	-39.3	-40.5	19.1	0.00e+00	0	41	0	948961280	49	4019
2026-01-07 06:37:03.44	325.27	12.16	-39.3	-40.4	19.2	0.00e+00	0	41	0	956301312	49	4004
2026-01-07 06:37:04.43	325.08	12.17	-39.1	-40.2	19.3	0.00e+00	0	41	0	963641344	49	3908
2026-01-07 06:37:05.43	324.88	12.18	-39.3	-40.4	19.2	0.00e+00	0	41	0	970981376	49	3983
2026-01-07 06:37:06.42	324.69	12.18	-39.3	-40.4	19.2	0.00e+00	0	41	0	978321408	49	3986
2026-01-07 06:37:07.42	324.50	12.19	-39.3	-40.5	19.1	0.00e+00	0	41	0	985661440	49	4019
2026-01-07 06:37:08.42	324.31	12.19	-39.4	-40.5	19.0	0.00e+00	0	41	0	991952896	49	4045
2026-01-07 06:37:09.41	324.12	12.20	-39.3	-40.4	19.2	0.00e+00	0	41	0	999292928	49	3982
2026-01-07 06:37:10.41	323.92	12.20	-39.2	-40.3	19.3	0.00e+00	0	41	0	1006632960	49	3937
2026-01-07 06:37:11.41	323.73	12.21	-39.1	-40.2	19.4	0.00e+00	0	41	0	1013972992	48	4137
2026-01-07 06:37:12.40	323.54	12.21	-39.2	-40.3	19.3	0.00e+00	0	41	0	1021313024	48	4149
2026-01-07 06:37:13.40	323.35	12.21	-39.1	-40.1	19.4	0.00e+00	0	41	0	1028653056	48	4094
2026-01-07 06:37:14.40	323.15	12.22	-39.3	-40.4	19.2	0.00e+00	0	41	0	1035993088	48	4204
2026-01-07 06:37:15.39	322.96	12.22	-39.3	-40.3	19.3	0.00e+00	0	41	0	1043333120	48	4193
2026-01-07 06:37:16.39	322.77	12.22	-39.4	-40.4	19.2	0.00e+00	0	41	0	1049624576	48	4223
2026-01-07 06:37:17.38	322.58	12.23	-39.4	-40.4	19.2	0.00e+00	0	41	0	1056964608	48	4217
2026-01-07 06:37:18.38	322.39	12.23	-39.3	-40.4	19.2	0.00e+00	0	41	0	1064304640	48	4216
2026-01-07 06:37:19.38	322.19	12.23	-39.3	-40.4	19.2	0.00e+00	0	41	0	1071644672	48	4208
2026-01-07 06:37:20.38	322.00	12.23	-39.4	-40.5	19.1	0.00e+00	0	41	0	1078984704	48	4261
2026-01-07 06:37:21.37	321.81	12.23	-39.4	-40.5	19.1	0.00e+00	0	41	0	1086324736	48	4281
2026-01-07 06:37:22.37	321.61	12.23	-39.4	-40.5	19.1	0.00e+00	0	41	0	1092616192	48	4271
2026-01-07 06:37:23.37	321.42	12.24	-39.2	-40.3	19.3	0.00e+00	0	41	0	1099956224	48	4169
2026-01-07 06:37:24.37	321.23	12.24	-39.3	-40.3	19.3	0.00e+00	0	41	0	1107296256	48	4185
2026-01-07 06:37:25.36	321.04	12.24	-39.4	-40.5	19.1	0.00e+00	0	41	0	1114636288	48	4258
2026-01-07 06:37:26.36	320.84	12.24	-39.3	-40.4	19.2	0.00e+00	0	41	0	1121976320	48	4221
2026-01-07 06:37:27.36	320.65	12.24	-39.3	-40.4	19.2	0.00e+00	0	41	0	1129316352	48	4205
2026-01-07 06:37:28.36	320.46	12.23	-39.1	-40.2	19.4	0.00e+00	0	41	0	1136656384	48	4133
2026-01-07 06:37:29.36	320.26	12.23	-39.3	-40.4	19.2	0.00e+00	0	41	0	1143996416	48	4224
2026-01-07 06:37:30.36	320.07	12.23	-39.2	-40.3	19.3	0.00e+00	0	41	0	1151336448	48	4184
2026-01-07 06:37:31.35	319.88	12.23	-39.3	-40.4	19.2	0.00e+00	0	41	0	1157627904	48	4210
2026-01-07 06:37:32.35	319.69	12.23	-39.2	-40.3	19.3	0.00e+00	0	41	0	1164967936	48	4166
2026-01-07 06:37:33.35	319.49	12.22	-39.2	-40.2	19.3	0.00e+00	0	41	0	1172307968	48	4136
2026-01-07 06:37:34.35	319.30	12.22	-39.1	-40.1	19.4	0.00e+00	0	41	0	1179648000	48	4096
2026-01-07 06:37:35.35	319.11	12.22	-39.1	-40.1	19.5	0.00e+00	0	41	0	1186988032	48	4072
2026-01-07 06:37:36.35	318.91	12.22	-39.1	-40.1	19.5	0.00e+00	0	41	0	1194328064	48	4077
2026-01-07 06:37:37.34	318.72	12.21	-39.0	-40.1	19.5	0.00e+00	0	41	0	1201668096	48	4055
2026-01-07 06:37:38.34	318.53	12.21	-39.0	-40.0	19.6	0.00e+00	0	41	0	1209008128	48	4051
2026-01-07 06:37:39.34	318.34	12.20	-38.9	-39.9	19.6	0.00e+00	0	41	0	1216348160	48	3998
2026-01-07 06:37:40.34	318.14	12.20	-38.9	-39.9	19.6	0.00e+00	0	41	0	1222639616	48	3996
2026-01-07 06:37:41.34	317.95	12.19	-39.0	-40.0	19.6	0.00e+00	0	41	0	1229979648	48	4021
2026-01-07 06:37:42.34	317.76	12.19	-39.0	-40.0	19.6	0.00e+00	0	41	0	1237319680	48	4010
2026-01-07 06:37:43.34	317.57	12.18	-39.1	-40.1	19.5	0.00e+00	0	41	0	1244659712	48	4085
2026-01-07 06:37:44.34	317.37	12.18	-39.1	-40.1	19.5	0.00e+00	0	41	0	1251999744	48	4087
2026-01-07 06:37:45.34	317.18	12.17	-39.2	-40.2	19.4	0.00e+00	0	41	0	1258291200	48	4131
2026-01-07 06:37:46.34	316.99	12.16	-39.3	-40.3	19.3	0.00e+00	0	41	0	1265631232	48	4167
2026-01-07 06:37:47.34	316.80	12.16	-39.4	-40.4	19.1	0.00e+00	0	41	0	1272971264	48	4240
2026-01-07 06:37:48.33	316.60	12.15	-39.4	-40.4	19.2	0.00e+00	0	41	0	1280311296	48	4242
2026-01-07 06:37:49.33	316.41	12.14	-39.5	-40.5	19.1	0.00e+00	0	41	0	1287651328	48	4286
2026-01-07 06:37:50.33	316.22	12.13	-39.4	-40.5	19.0	0.00e+00	0	41	0	1294991360	48	4284
2026-01-07 06:37:51.33	316.03	12.13	-39.5	-40.6	19.0	0.00e+00	0	41	0	1302331392	48	4319
2026-01-07 06:37:52.33	315.84	12.12	-39.5	-40.6	19.0	0.00e+00	0	41	0	1309671424	48	4322
2026-01-07 06:37:53.32	315.65	12.11	-39.5	-40.6	19.0	0.00e+00	0	41	0	1317011456	48	4293
2026-01-07 06:37:54.32	315.46	12.10	-39.4	-40.5	19.1	0.00e+00	0	41	0	1323302912	48	4250
2026-01-07 06:37:55.32	315.26	12.09	-39.2	-40.3	19.3	0.00e+00	0	41	0	1330642944	48	4161
2026-01-07 06:37:56.32	315.07	12.08	-39.3	-40.4	19.2	0.00e+00	0	41	0	1337982976	48	4197
2026-01-07 06:37:57.33	314.88	12.07	-39.4	-40.4	19.2	0.00e+00	0	41	0	1345323008	48	4231
2026-01-07 06:37:58.32	314.69	12.06	-39.4	-40.4	19.2	0.00e+00	0	41	0	1352663040	48	4231
2026-01-07 06:37:59.32	314.50	12.05	-39.6	-40.7	18.9	0.00e+00	0	41	0	1360003072	48	4367
2026-01-07 06:38:00.32	314.31	12.04	-39.6	-40.7	18.9	0.00e+00	0	41	0	1367343104	48	4354
2026-01-07 06:38:01.32	314.12	12.03	-39.6	-40.7	18.9	0.00e+00	0	41	0	1374683136	48	4367
2026-01-07 06:38:02.32	313.93	12.02	-39.6	-40.6	18.9	0.00e+00	0	41	0	1382023168	48	4340
2026-01-07 06:38:03.32	313.74	12.00	-39.6	-40.7	18.9	0.00e+00	0	41	0	1388314624	48	4344
2026-01-07 06:38:04.31	313.55	11.99	-39.6	-40.7	18.9	0.00e+00	0	41	0	1395654656	48	4352
2026-01-07 06:38:05.32	313.36	11.98	-39.5	-40.6	19.0	0.00e+00	0	41	0	1402994688	48	4308
2026-01-07 06:38:06.32	313.17	11.97	-39.5	-40.6	19.0	0.00e+00	0	41	0	1410334720	48	4315
2026-01-07 06:38:07.32	312.98	11.95	-39.6	-40.7	18.9	0.00e+00	0	41	0	1417674752	48	4349
2026-01-07 06:38:08.32	312.79	11.94	-39.6	-40.7	18.9	0.00e+00	0	41	0	1425014784	48	4360
2026-01-07 06:38:09.31	312.60	11.93	-39.7	-40.8	18.7	0.00e+00	0	41	0	1432354816	48	4432
2026-01-07 06:38:10.31	312.41	11.91	-39.6	-40.7	18.9	0.00e+00	0	41	0	1439694848	48	4355
2026-01-07 06:38:11.32	312.22	11.90	-39.6	-40.7	18.9	0.00e+00	0	41	0	1445986304	48	4365
2026-01-07 06:38:12.31	312.03	11.88	-39.6	-40.7	18.9	0.00e+00	0	41	0	1453326336	48	4366
2026-01-07 06:38:13.31	311.84	11.87	-39.7	-40.8	18.8	0.00e+00	0	41	0	1460666368	48	4404
2026-01-07 06:38:14.31	311.65	11.85	-39.8	-40.9	18.7	0.00e+00	0	41	0	1468006400	49	4201
2026-01-07 06:38:15.31	311.47	11.84	-39.7	-40.8	18.8	0.00e+00	0	41	0	1475346432	49	4178
2026-01-07 06:38:16.31	311.28	11.82	-39.8	-40.9	18.5	0.00e+00	0	41	0	1482686464	49	4239
2026-01-07 06:38:17.31	311.09	11.81	-39.6	-40.7	18.9	0.00e+00	0	41	0	1490026496	49	4131
2026-01-07 06:38:18.30	310.90	11.79	-39.6	-40.7	18.9	0.00e+00	0	41	0	1497366528	49	4134
2026-01-07 06:38:19.30	310.72	11.78	-39.6	-40.7	18.9	0.00e+00	0	41	0	1504706560	49	4103
2026-01-07 06:38:20.30	310.53	11.76	-39.6	-40.7	18.9	0.00e+00	0	41	0	1510998016	49	4129
2026-01-07 06:38:21.30	310.34	11.74	-39.5	-40.6	19.0	0.00e+00	0	41	0	1518338048	49	4058
2026-01-07 06:38:22.30	310.16	11.72	-39.6	-40.7	18.9	0.00e+00	0	41	0	1525678080	49	4106
2026-01-07 06:38:23.30	309.97	11.71	-39.7	-40.8	18.8	0.00e+00	0	41	0	1533018112	49	4157
2026-01-07 06:38:24.30	309.78	11.69	-39.7	-40.8	18.8	0.00e+00	0	41	0	1540358144	49	4149
2026-01-07 06:38:25.29	309.60	11.67	-39.6	-40.7	18.8	0.00e+00	0	41	0	1547698176	49	4132
2026-01-07 06:38:26.30	309.41	11.65	-39.6	-40.7	18.9	0.00e+00	0	41	0	1555038208	49	4116
2026-01-07 06:38:27.30	309.22	11.63	-39.6	-40.6	18.9	0.00e+00	0	41	0	1562378240	49	4090
2026-01-07 06:38:28.30	309.04	11.61	-39.6	-40.7	18.8	0.00e+00	0	41	0	1568669696	49	4132
2026-01-07 06:38:29.29	308.86	11.59	-39.7	-40.8	18.8	0.00e+00	0	41	0	1576009728	49	4147
2026-01-07 06:38:30.29	308.67	11.57	-39.5	-40.6	18.9	0.00e+00	0	41	0	1583349760	49	4088
2026-01-07 06:38:31.29	308.49	11.56	-39.5	-40.6	18.9	0.00e+00	0	41	0	1590689792	49	4094
2026-01-07 06:38:32.30	308.30	11.53	-39.6	-40.7	18.8	0.00e+00	0	41	0	1598029824	49	4121
2026-01-07 06:38:33.30	308.12	11.51	-39.6	-40.7	18.9	0.00e+00	0	41	0	1605369856	49	4126
2026-01-07 06:38:34.30	307.93	11.49	-39.7	-40.8	18.8	0.00e+00	0	41	0	1612709888	49	4146
2026-01-07 06:38:35.29	307.75	11.47	-39.6	-40.7	18.9	0.00e+00	0	41	0	1619001344	49	4108
2026-01-07 06:38:36.29	307.57	11.45	-39.7	-40.8	18.8	0.00e+00	0	41	0	1626341376	49	4148
2026-01-07 06:38:37.29	307.38	11.43	-39.7	-40.8	18.8	0.00e+00	0	41	0	1633681408	49	4174
2026-01-07 06:38:38.29	307.20	11.41	-39.6	-40.6	18.9	0.00e+00	0	41	0	1641021440	49	4094
2026-01-07 06:38:39.29	307.02	11.39	-39.8	-40.9	18.7	0.00e+00	0	41	0	1648361472	49	4194
2026-01-07 06:38:40.29	306.83	11.36	-39.7	-40.8	18.8	0.00e+00	0	41	0	1655701504	49	4165
2026-01-07 06:38:41.28	306.65	11.34	-39.9	-41.0	18.6	0.00e+00	0	41	0	1663041536	49	4258
2026-01-07 06:38:42.29	306.47	11.32	-39.8	-40.9	18.7	0.00e+00	0	41	0	1670381568	49	4204
2026-01-07 06:38:43.29	306.29	11.30	-39.8	-40.9	18.7	0.00e+00	0	41	0	1676673024	49	4196
2026-01-07 06:38:44.28	306.11	11.27	-39.8	-40.8	18.7	0.00e+00	0	41	0	1684013056	49	4190
2026-01-07 06:38:45.28	305.93	11.25	-39.8	-40.9	18.7	0.00e+00	0	41	0	1691353088	49	4216
2026-01-07 06:38:46.28	305.75	11.22	-39.6	-40.7	18.9	0.00e+00	0	41	0	1698693120	49	4122
2026-01-07 06:38:47.28	305.57	11.20	-39.5	-40.6	18.9	0.00e+00	0	41	0	1706033152	49	4069
2026-01-07 06:38:48.27	305.39	11.18	-39.6	-40.6	18.9	0.00e+00	0	41	0	1713373184	49	4083
2026-01-07 06:38:49.27	305.21	11.15	-39.7	-40.7	18.8	0.00e+00	0	41	0	1720713216	49	4135
2026-01-07 06:38:50.27	305.03	11.13	-39.5	-40.6	19.0	0.00e+00	0	41	0	1728053248	49	4074
2026-01-07 06:38:51.27	304.85	11.10	-39.5	-40.6	18.9	0.00e+00	0	41	0	1734344704	49	4071
2026-01-07 06:38:52.27	304.67	11.08	-39.9	-41.0	18.6	0.00e+00	0	41	0	1741684736	49	4258
2026-01-07 06:38:53.27	304.49	11.05	-39.7	-40.8	18.8	0.00e+00	0	41	0	1749024768	49	4153
2026-01-07 06:38:54.27	304.32	11.03	-39.7	-40.8	18.8	0.00e+00	0	41	0	1756364800	49	4157
2026-01-07 06:38:55.26	304.14	11.00	-39.7	-40.8	18.7	0.00e+00	0	41	0	1763704832	49	4161
2026-01-07 06:38:56.26	303.96	10.97	-39.9	-41.0	18.6	0.00e+00	0	41	0	1771044864	49	4243
2026-01-07 06:38:57.26	303.78	10.95	-39.9	-41.0	18.5	0.00e+00	0	41	0	1778384896	49	4281
2026-01-07 06:38:58.25	303.61	10.92	-40.1	-41.2	18.4	0.00e+00	0	41	0	1785724928	49	4358
2026-01-07 06:38:59.25	303.43	10.89	-39.9	-41.0	18.6	0.00e+00	0	41	0	1793064960	49	4244
2026-01-07 06:39:00.25	303.26	10.87	-40.1	-41.3	18.3	0.00e+00	0	41	0	1799356416	49	4394
2026-01-07 06:39:01.24	303.08	10.84	-39.9	-41.1	18.5	0.00e+00	0	41	0	1806696448	49	4296
2026-01-07 06:39:02.24	302.91	10.81	-40.0	-41.1	18.4	0.00e+00	0	41	0	1814036480	49	4339
2026-01-07 06:39:03.24	302.73	10.78	-39.8	-41.0	18.6	0.00e+00	0	41	0	1821376512	49	4243
2026-01-07 06:39:04.24	302.56	10.76	-40.0	-41.1	18.4	0.00e+00	0	41	0	1828716544	49	4307
2026-01-07 06:39:05.24	302.38	10.73	-40.1	-41.2	18.4	0.00e+00	0	41	0	1836056576	49	4360
2026-01-07 06:39:06.24	302.21	10.70	-40.0	-41.1	18.4	0.00e+00	0	41	0	1842348032	49	4331
2026-01-07 06:39:07.23	302.04	10.67	-40.0	-41.1	18.4	0.00e+00	0	41	0	1849688064	49	4339
2026-01-07 06:39:08.24	301.86	10.64	-40.0	-41.1	18.5	0.00e+00	0	41	0	1857028096	49	4298
2026-01-07 06:39:09.23	301.69	10.61	-40.1	-41.2	18.3	0.00e+00	0	41	0	1864368128	49	4366
2026-01-07 06:39:10.23	301.52	10.58	-40.0	-41.1	18.4	0.00e+00	0	41	0	1871708160	49	4311
2026-01-07 06:39:11.23	301.34	10.55	-40.1	-41.3	18.3	0.00e+00	0	41	0	1879048192	49	4392
2026-01-07 06:39:12.23	301.17	10.52	-40.2	-41.3	18.2	0.00e+00	0	41	0	1886388224	49	4426
2026-01-07 06:39:13.23	301.00	10.49	-40.1	-41.2	18.4	0.00e+00	0	41	0	1893728256	50	4104
2026-01-07 06:39:14.22	300.83	10.46	-39.9	-40.9	18.6	0.00e+00	0	41	0	1900019712	50	3997
2026-01-07 06:39:15.22	300.66	10.43	-39.9	-41.0	18.5	0.00e+00	0	41	0	1907359744	50	4044
2026-01-07 06:39:16.22	300.49	10.40	-40.1	-41.2	18.3	0.00e+00	0	41	0	1914699776	50	4120
2026-01-07 06:39:17.23	300.32	10.37	-39.9	-41.0	18.6	0.00e+00	0	41	0	1922039808	50	4021
2026-01-07 06:39:18.23	300.15	10.34	-40.1	-41.2	18.4	0.00e+00	0	41	0	1929379840	50	4121
2026-01-07 06:39:19.23	299.98	10.31	-40.1	-41.3	18.3	0.00e+00	0	41	0	1936719872	50	4148
2026-01-07 06:39:20.23	299.81	10.28	-40.3	-41.4	18.1	0.00e+00	0	41	0	1944059904	50	4233
2026-01-07 06:39:21.23	299.64	10.24	-40.2	-41.4	18.2	0.00e+00	0	41	0	1951399936	50	4197
2026-01-07 06:39:22.23	299.47	10.21	-40.3	-41.4	18.1	0.00e+00	0	41	0	1958739968	50	4225
2026-01-07 06:39:23.23	299.30	10.18	-40.4	-41.6	18.0	0.00e+00	0	41	0	1965031424	50	4298
2026-01-07 06:39:24.23	299.13	10.15	-40.5	-41.6	17.9	0.00e+00	0	41	0	1972371456	50	4330
2026-01-07 06:39:25.23	298.97	10.12	-40.6	-41.8	17.8	0.00e+00	0	41	0	1979711488	50	4398
2026-01-07 06:39:26.23	298.80	10.08	-40.4	-41.6	17.9	0.00e+00	0	41	0	1987051520	50	4330
2026-01-07 06:39:27.23	298.63	10.05	-40.7	-41.9	17.6	0.00e+00	0	41	0	1994391552	50	4478
2026-01-07 06:39:28.23	298.47	10.02	-40.5	-41.6	17.9	0.00e+00	0	41	0	2001731584	50	4339
2026-01-07 06:39:29.23	298.30	9.98	-40.5	-41.6	17.9	0.00e+00	0	41	0	2009071616	50	4310
2026-01-07 06:39:30.23	298.13	9.95	-40.5	-41.6	17.9	0.00e+00	0	41	0	2016411648	50	4320
2026-01-07 06:39:31.23	297.97	9.92	-40.4	-41.6	18.0	0.00e+00	0	41	0	2023751680	50	4293
2026-01-07 06:39:32.22	297.81	9.88	-40.3	-41.4	18.1	0.00e+00	0	41	0	2030043136	50	4226
2026-01-07 06:39:33.23	297.64	9.85	-40.4	-41.5	18.0	0.00e+00	0	41	0	2037383168	50	4272
2026-01-07 06:39:34.23	297.48	9.81	-40.5	-41.6	17.9	0.00e+00	0	41	0	2044723200	50	4326
2026-01-07 06:39:35.22	297.31	9.78	-40.4	-41.5	18.0	0.00e+00	0	41	0	2052063232	50	4285
2026-01-07 06:39:36.22	297.15	9.75	-40.3	-41.4	18.1	0.00e+00	0	41	0	2059403264	50	4214
2026-01-07 06:39:37.22	296.99	9.71	-40.3	-41.5	18.0	0.00e+00	0	41	0	2066743296	50	4258
2026-01-07 06:39:38.21	296.83	9.68	-40.3	-41.5	18.0	0.00e+00	0	41	0	2074083328	50	4263
2026-01-07 06:39:39.22	296.66	9.64	-40.4	-41.5	18.0	0.00e+00	0	41	0	2081423360	50	4276
2026-01-07 06:39:40.22	296.50	9.61	-40.6	-41.7	17.8	0.00e+00	0	41	0	2087714816	50	4390
2026-01-07 06:39:41.22	296.34	9.57	-40.3	-41.4	18.1	0.00e+00	0	41	0	2095054848	50	4232
2026-01-07 06:39:42.22	296.18	9.54	-40.4	-41.5	18.0	0.00e+00	0	41	0	2102394880	50	4271
2026-01-07 06:39:43.22	296.02	9.50	-40.2	-41.3	18.2	0.00e+00	0	41	0	2109734912	50	4186
2026-01-07 06:39:44.21	295.86	9.46	-40.3	-41.4	18.1	0.00e+00	0	41	0	2117074944	50	4220
2026-01-07 06:39:45.21	295.70	9.43	-40.4	-41.6	17.9	0.00e+00	0	41	0	2124414976	50	4320
2026-01-07 06:39:46.21	295.54	9.39	-40.4	-41.5	18.0	0.00e+00	0	41	0	2131755008	50	4284
2026-01-07 06:39:47.21	295.38	9.36	-40.2	-41.4	18.1	0.00e+00	0	41	0	2139095040	50	4198
2026-01-07 06:39:48.22	295.22	9.32	-40.2	-41.3	18.2	0.00e+00	0	41	0	2146435072	50	4186
2026-01-07 06:39:49.22	295.06	9.28	-40.4	-41.6	17.9	0.00e+00	0	41	0	2152726528	50	4320
2026-01-07 06:39:50.21	294.91	9.25	-40.3	-41.4	18.0	0.00e+00	0	41	0	2160066560	50	4224
2026-01-07 06:39:51.21	294.75	9.21	-40.5	-41.6	17.9	0.00e+00	0	41	0	2167406592	50	4323
2026-01-07 06:39:52.22	294.59	9.17	-40.4	-41.6	17.9	0.00e+00	0	41	0	2174746624	50	4313
2026-01-07 06:39:53.21	294.44	9.13	-40.5	-41.7	17.9	0.00e+00	0	41	0	2182086656	50	4342
2026-01-07 06:39:54.21	294.28	9.10	-40.4	-41.6	17.9	0.00e+00	0	41	0	2189426688	50	4296
2026-01-07 06:39:55.21	294.13	9.06	-40.6	-41.7	17.7	0.00e+00	0	41	0	2196766720	50	4390
2026-01-07 06:39:56.21	293.97	9.02	-40.5	-41.6	17.9	0.00e+00	0	41	0	2204106752	50	4324
2026-01-07 06:39:57.21	293.82	8.98	-49.9	-59.0	3.8	5.48e-01	0	41	104	2209349632	69	10671
2026-01-07 06:39:58.21	293.66	8.95	-50.4	-61.2	3.8	8.48e-01	0	41	104	2209349632	70	12960
2026-01-07 06:39:59.21	293.51	8.91	-50.5	-61.3	3.8	8.46e-01	0	41	104	2209349632	70	13160
2026-01-07 06:40:00.22	293.35	8.87	-50.5	-61.4	3.8	8.47e-01	0	41	104	2209349632	70	13330
2026-01-07 06:40:01.22	293.20	8.83	-50.6	-61.5	3.8	8.47e-01	0	41	104	2209349632	70	13422
2026-01-07 06:40:02.21	293.05	8.79	-50.7	-61.5	3.8	8.48e-01	0	41	104	2209349632	70	13568
2026-01-07 06:40:03.21	292.89	8.75	-50.6	-61.5	3.8	8.47e-01	0	41	104	2209349632	70	13550
2026-01-07 06:40:04.21	292.74	8.72	-50.6	-61.6	3.8	8.47e-01	0	41	104	2209349632	71	12829
2026-01-07 06:40:05.21	292.59	8.68	-50.8	-61.6	3.8	8.47e-01	0	41	104	2209349632	71	12851
2026-01-07 06:40:06.20	292.44	8.64	-50.6	-61.6	3.8	8.46e-01	0	41	104	2209349632	71	12889
2026-01-07 06:40:07.20	292.29	8.60	-50.8	-61.6	3.8	8.47e-01	0	41	104	2209349632	71	12913
2026-01-07 06:40:08.19	292.14	8.56	-50.7	-61.6	3.8	8.46e-01	0	41	104	2209349632	71	12913
2026-01-07 06:40:09.19	291.99	8.52	-50.7	-61.6	3.8	8.46e-01	0	41	104	2209349632	71	12915
2026-01-07 06:40:10.19	291.84	8.48	-50.7	-61.6	3.8	8.48e-01	0	41	104	2209349632	71	12900
2026-01-07 06:40:11.19	291.69	8.44	-50.7	-61.7	3.8	8.47e-01	0	41	104	2209349632	71	12997
2026-01-07 06:40:12.19	291.54	8.40	-50.8	-61.6	3.8	8.47e-01	0	41	104	2209349632	71	12913
2026-01-07 06:40:13.19	291.40	8.36	-50.9	-61.6	3.8	8.47e-01	0	41	104	2209349632	71	12933
2026-01-07 06:40:14.19	291.25	8.32	-50.8	-61.6	3.8	8.47e-01	0	41	104	2209349632	71	12853
2026-01-07 06:40:15.18	291.10	8.28	-50.7	-61.6	3.8	8.46e-01	0	41	104	2209349632	71	12896
2026-01-07 06:40:16.18	290.95	8.24	-50.7	-61.6	3.8	8.47e-01	0	41	104	2209349632	71	12853
2026-01-07 06:40:17.18	290.81	8.20	-50.5	-61.6	3.8	8.46e-01	0	41	104	2209349632	71	12823
2026-01-07 06:40:18.18	290.66	8.16	-50.4	-61.5	3.8	8.47e-01	0	41	104	2209349632	71	12780
2026-01-07 06:40:19.17	290.52	8.12	-50.4	-61.5	3.8	8.46e-01	0	41	104	2209349632	71	12765
2026-01-07 06:40:20.17	290.37	8.08	-50.4	-61.5	3.8	8.47e-01	0	41	104	2209349632	71	12793
2026-01-07 06:40:21.17	290.23	8.04	-50.4	-61.5	3.8	8.47e-01	0	41	104	2209349632	71	12739
2026-01-07 06:40:22.17	290.08	8.00	-50.4	-61.5	3.8	8.47e-01	0	41	104	2209349632	71	12770
2026-01-07 06:40:23.17	289.94	7.96	-50.4	-61.5	3.8	8.46e-01	0	41	104	2209349632	71	12738
2026-01-07 06:40:24.17	289.79	7.92	-50.4	-61.5	3.8	8.47e-01	0	41	104	2209349632	71	12725
2026-01-07 06:40:25.17	289.65	7.88	-50.4	-61.5	3.8	8.46e-01	0	41	104	2209349632	71	12683
2026-01-07 06:40:26.16	289.51	7.83	-50.4	-61.5	3.8	8.46e-01	0	41	104	2209349632	71	12780
2026-01-07 06:40:27.16	289.37	7.79	-50.4	-61.5	3.8	8.49e-01	0	41	104	2209349632	71	12729
2026-01-07 06:40:28.16	289.22	7.75	-50.4	-61.5	3.8	8.46e-01	0	41	104	2209349632	71	12758
2026-01-07 06:40:29.16	289.08	7.71	-50.4	-61.5	3.8	8.46e-01	0	41	104	2209349632	71	12734
2026-01-07 06:40:30.16	288.94	7.67	-50.4	-61.5	3.8	8.46e-01	0	41	104	2209349632	71	12715
2026-01-07 06:40:31.16	288.80	7.63	-50.3	-61.5	3.8	8.47e-01	0	41	104	2209349632	71	12758
2026-01-07 06:40:32.16	288.66	7.58	-50.4	-61.5	3.8	8.47e-01	0	41	104	2209349632	71	12710
2026-01-07 06:40:33.15	288.52	7.54	-50.4	-61.4	3.8	8.47e-01	0	41	104	2209349632	71	12651
2026-01-07 06:40:34.15	288.38	7.50	-50.4	-61.5	3.8	8.47e-01	0	41	104	2209349632	71	12779
2026-01-07 06:40:35.15	288.24	7.46	-50.4	-61.5	3.8	8.47e-01	0	41	104	2209349632	71	12742
2026-01-07 06:40:36.15	288.10	7.42	-50.4	-61.5	3.8	8.47e-01	0	41	104	2209349632	71	12709
2026-01-07 06:40:37.15	287.96	7.37	-50.4	-61.5	3.8	8.47e-01	0	41	104	2209349632	71	12704
2026-01-07 06:40:38.15	287.83	7.33	-50.4	-61.5	3.8	8.47e-01	0	41	104	2209349632	71	12781
2026-01-07 06:40:39.15	287.69	7.29	-50.4	-61.5	3.8	8.48e-01	0	41	104	2209349632	71	12706
2026-01-07 06:40:40.15	287.55	7.25	-50.4	-61.5	3.8	8.47e-01	0	41	104	2209349632	71	12713
2026-01-07 06:40:41.14	287.42	7.20	-50.4	-61.4	3.8	8.47e-01	0	41	104	2209349632	71	12647
2026-01-07 06:40:42.14	287.28	7.16	-50.4	-61.5	3.8	8.47e-01	0	41	104	2209349632	71	12723
2026-01-07 06:40:43.14	287.14	7.12	-50.4	-61.5	3.8	8.46e-01	0	41	104	2209349632	71	12687
2026-01-07 06:40:44.14	287.01	7.08	-50.4	-61.5	3.8	8.47e-01	0	41	104	2209349632	71	12699
2026-01-07 06:40:45.14	286.87	7.03	-50.3	-61.5	3.8	8.47e-01	0	41	104	2209349632	71	12693
2026-01-07 06:40:46.14	286.74	6.99	-50.4	-61.5	3.8	8.47e-01	0	41	104	2209349632	71	12755
2026-01-07 06:40:47.14	286.60	6.95	-50.3	-61.5	3.8	8.46e-01	0	41	104	2209349632	71	12716
2026-01-07 06:40:48.13	286.47	6.90	-50.3	-61.5	3.8	8.46e-01	0	41	104	2209349632	71	12700
2026-01-07 06:40:49.14	286.34	6.86	-50.4	-61.5	3.8	8.46e-01	0	41	104	2209349632	71	12734
2026-01-07 06:40:50.13	286.20	6.82	-50.3	-61.4	3.8	8.47e-01	0	41	104	2209349632	71	12653
2026-01-07 06:40:51.13	286.07	6.77	-50.4	-61.5	3.8	8.47e-01	0	41	104	2209349632	71	12672
2026-01-07 06:40:52.13	285.94	6.73	-50.4	-61.5	3.8	8.47e-01	0	41	104	2209349632	71	12709
2026-01-07 06:40:53.13	285.81	6.69	-50.4	-61.5	3.8	8.47e-01	0	41	104	2209349632	71	12681
2026-01-07 06:40:54.13	285.67	6.64	-50.3	-61.5	3.8	8.47e-01	0	41	104	2209349632	71	12675
2026-01-07 06:40:55.12	285.55	6.60	-50.3	-61.5	3.8	8.47e-01	0	41	104	2209349632	71	12684
2026-01-07 06:40:56.12	285.41	6.56	-50.3	-61.5	3.8	8.47e-01	0	41	104	2209349632	71	12726
2026-01-07 06:40:57.12	285.28	6.51	-50.4	-61.5	3.8	8.48e-01	0	41	104	2209349632	71	12686
2026-01-07 06:40:58.12	285.15	6.47	-50.4	-61.5	3.8	8.47e-01	0	41	104	2209349632	71	12684
2026-01-07 06:40:59.12	285.02	6.42	-50.3	-61.4	3.8	8.46e-01	0	41	104	2209349632	71	12647
2026-01-07 06:41:00.12	284.89	6.38	-50.3	-61.5	3.8	8.47e-01	0	41	104	2209349632	71	12703
2026-01-07 06:41:01.12	284.77	6.34	-50.3	-61.4	3.8	8.48e-01	0	41	104	2209349632	71	12617
2026-01-07 06:41:02.11	284.64	6.29	-50.3	-61.5	3.8	8.47e-01	0	41	104	2209349632	71	12721
2026-01-07 06:41:03.11	284.51	6.25	-50.3	-61.5	3.8	8.47e-01	0	41	104	2209349632	71	12706
2026-01-07 06:41:04.11	284.38	6.20	-50.3	-61.5	3.8	8.47e-01	0	41	104	2209349632	71	12717
2026-01-07 06:41:05.11	284.26	6.16	-50.4	-61.5	3.8	8.47e-01	0	41	104	2209349632	71	12731
2026-01-07 06:41:06.11	284.13	6.12	-50.3	-61.5	3.8	8.48e-01	0	41	104	2209349632	71	12737
2026-01-07 06:41:07.11	284.00	6.07	-50.3	-61.5	3.8	8.47e-01	0	41	104	2209349632	71	12686
2026-01-07 06:41:08.11	283.88	6.03	-50.2	-61.4	3.8	8.47e-01	0	41	104	2209349632	71	12647
2026-01-07 06:41:09.11	283.75	5.98	-50.3	-61.5	3.8	8.47e-01	0	41	104	2209349632	71	12692
2026-01-07 06:41:10.10	283.63	5.94	-50.3	-61.5	3.8	8.47e-01	0	41	104	2209349632	71	12709
2026-01-07 06:41:11.10	283.50	5.89	-50.2	-61.5	3.8	8.46e-01	0	41	104	2209349632	71	12665
2026-01-07 06:41:12.09	283.38	5.85	-50.3	-61.4	3.8	8.48e-01	0	41	104	2209349632	71	12632
2026-01-07 06:41:13.09	283.25	5.80	-50.3	-61.5	3.8	8.47e-01	0	41	104	2209349632	71	12732
2026-01-07 06:41:14.08	283.13	5.76	-50.3	-61.5	3.8	8.47e-01	0	41	104	2209349632	71	12678
2026-01-07 06:41:15.08	283.01	5.72	-50.4	-61.5	3.8	8.47e-01	0	41	104	2209349632	71	12714
2026-01-07 06:41:16.08	282.89	5.67	-50.4	-61.5	3.8	8.46e-01	0	41	104	2209349632	71	12733
2026-01-07 06:41:17.07	282.76	5.63	-50.4	-61.4	3.8	8.49e-01	0	41	104	2209349632	71	12639
2026-01-07 06:41:18.06	282.64	5.58	-50.3	-61.5	3.8	8.46e-01	0	41	104	2209349632	71	12665
2026-01-07 06:41:19.06	282.52	5.54	-50.3	-61.5	3.8	8.46e-01	0	41	104	2209349632	71	12687
2026-01-07 06:41:20.05	282.40	5.49	-50.4	-61.5	3.8	8.48e-01	0	41	104	2209349632	71	12674
2026-01-07 06:41:21.05	282.28	5.45	-50.4	-61.5	3.8	8.45e-01	0	41	104	2209349632	71	12698
2026-01-07 06:41:22.05	282.16	5.40	-50.4	-61.5	3.8	8.46e-01	0	41	104	2209349632	71	12708
2026-01-07 06:41:23.05	282.04	5.36	-50.3	-61.5	3.8	8.48e-01	0	41	104	2209349632	71	12703
2026-01-07 06:41:24.05	281.92	5.31	-50.3	-61.4	3.8	8.47e-01	0	41	104	2209349632	71	12633
2026-01-07 06:41:25.05	281.80	5.27	-50.3	-61.4	3.8	8.47e-01	0	41	104	2209349632	71	12647
2026-01-07 06:41:26.05	281.68	5.22	-50.4	-61.5	3.8	8.47e-01	0	41	104	2209349632	71	12716
2026-01-07 06:41:27.05	281.56	5.18	-50.3	-61.5	3.8	8.47e-01	0	41	104	2209349632	71	12740
2026-01-07 06:41:28.04	281.44	5.13	-50.4	-61.4	3.8	8.46e-01	0	41	104	2209349632	71	12630
2026-01-07 06:41:29.04	281.33	5.09	-50.4	-61.5	3.8	8.45e-01	0	41	104	2209349632	71	12694
2026-01-07 06:41:30.04	281.21	5.04	-50.4	-61.5	3.8	8.47e-01	0	41	104	2209349632	71	12669
2026-01-07 06:41:31.04	281.09	4.99	-50.4	-61.5	3.8	8.47e-01	0	41	104	2209349632	71	12665

#Closed at: 2026-01-07 06:41:32
#Recorded file [2209 MB]: D:/Data/31040_260107_093320.dat