passes_logs/2026/01/07/T1/T1__20260107_194628_KHAYYAM_rec.log

#Pass ID: 20260107_194628_KHAYYAM
#Satellite: KHAYYAM
#Configuration: KHAYYAM_480M
#almurnet v.1.7.20251203
#Start time: 2026-01-07 19:46:30

#Version: 2.0.20230620
#Station: T1
#Location: 37.570604 lon 55.790049 lat
#TLE: 1 53370U 22096A   26005.63766736  .00008095  00000+0  32978-3 0  9997
#TLE: 2 53370  97.3565 272.8146 0001238  87.7645 272.3734 15.24731212189819

#Time	Az	El	Level	Level2	SNR	BER	BlckErr	Temp	State	Recorded	gain1	gain2
2026-01-07 19:46:30.70	43.18	5.13	-55.5	-59.8	3.6	0.00e+00	0	46	0	0	83	22377
2026-01-07 19:46:31.70	43.34	5.18	-55.5	-59.7	3.7	0.00e+00	0	46	104	0	81	24853
2026-01-07 19:46:32.70	43.51	5.23	-55.5	-59.7	3.7	0.00e+00	0	46	104	0	81	24946
2026-01-07 19:46:33.70	43.67	5.28	-55.5	-59.7	3.7	0.00e+00	0	46	104	0	81	24925
2026-01-07 19:46:34.70	43.84	5.33	-55.5	-59.7	3.7	0.00e+00	0	46	104	0	81	24999
2026-01-07 19:46:35.71	44.01	5.39	-55.5	-59.7	3.7	0.00e+00	0	46	104	0	81	25018
2026-01-07 19:46:36.71	44.17	5.44	-55.5	-59.7	3.7	0.00e+00	0	46	104	0	81	24963
2026-01-07 19:46:37.71	44.34	5.49	-55.5	-59.7	3.7	0.00e+00	0	46	104	0	81	24977
2026-01-07 19:46:38.71	44.51	5.54	-55.5	-59.7	3.7	0.00e+00	0	47	104	0	81	24994
2026-01-07 19:46:39.72	44.68	5.60	-55.5	-59.7	3.7	0.00e+00	0	47	104	0	81	24986
2026-01-07 19:46:40.72	44.85	5.65	-55.5	-59.7	3.7	0.00e+00	0	47	104	0	81	24902
2026-01-07 19:46:41.72	45.02	5.70	-55.5	-59.7	3.7	0.00e+00	0	47	104	0	81	24988
2026-01-07 19:46:42.72	45.19	5.75	-55.5	-59.7	3.7	0.00e+00	0	47	104	0	81	24954
2026-01-07 19:46:43.72	45.37	5.80	-55.5	-59.7	3.7	0.00e+00	0	47	104	0	81	24952
2026-01-07 19:46:44.72	45.54	5.85	-55.5	-59.7	3.7	0.00e+00	0	47	104	0	81	24972
2026-01-07 19:46:45.73	45.72	5.91	-55.5	-59.7	3.7	0.00e+00	0	47	104	0	81	24964
2026-01-07 19:46:46.73	45.89	5.96	-55.5	-59.7	3.7	0.00e+00	0	47	104	0	81	24943
2026-01-07 19:46:47.73	46.07	6.01	-55.5	-59.7	3.7	0.00e+00	0	47	104	0	81	24997
2026-01-07 19:46:48.74	46.25	6.06	-55.5	-59.7	3.7	0.00e+00	0	47	104	0	81	25020
2026-01-07 19:46:49.74	46.42	6.11	-55.5	-59.7	3.7	0.00e+00	0	47	104	0	81	24902
2026-01-07 19:46:50.74	46.60	6.16	-55.5	-59.7	3.7	0.00e+00	0	48	104	0	81	24988
2026-01-07 19:46:51.74	46.78	6.22	-55.5	-59.7	3.7	0.00e+00	0	47	104	0	81	24929
2026-01-07 19:46:52.75	46.96	6.27	-55.5	-59.7	3.7	0.00e+00	0	48	104	0	81	24900
2026-01-07 19:46:53.75	47.14	6.32	-55.5	-59.7	3.7	0.00e+00	0	48	104	0	81	24941
2026-01-07 19:46:54.73	47.32	6.37	-55.5	-59.7	3.7	0.00e+00	0	48	104	0	81	24916
2026-01-07 19:46:55.74	47.50	6.42	-55.5	-59.7	3.7	0.00e+00	0	48	104	0	81	25022
2026-01-07 19:46:56.74	47.69	6.47	-55.5	-59.7	3.7	0.00e+00	0	48	104	0	81	25067
2026-01-07 19:46:57.74	47.87	6.52	-55.5	-59.7	3.7	0.00e+00	0	48	104	0	81	24970
2026-01-07 19:46:58.75	48.06	6.57	-55.5	-59.7	3.7	0.00e+00	0	48	104	0	81	24952
2026-01-07 19:46:59.75	48.24	6.62	-55.5	-59.7	3.7	0.00e+00	0	48	104	0	81	24972
2026-01-07 19:47:00.75	48.43	6.67	-55.5	-59.7	3.7	0.00e+00	0	48	104	0	81	24995
2026-01-07 19:47:01.75	48.61	6.73	-55.5	-59.7	3.7	0.00e+00	0	48	104	0	81	24923
2026-01-07 19:47:02.76	48.80	6.78	-55.5	-59.7	3.7	0.00e+00	0	48	104	0	81	24951
2026-01-07 19:47:03.76	48.99	6.83	-55.5	-59.7	3.7	0.00e+00	0	48	104	0	81	24935
2026-01-07 19:47:04.76	49.18	6.88	-55.5	-59.7	3.7	0.00e+00	0	48	104	0	81	25055
2026-01-07 19:47:05.77	49.37	6.93	-55.5	-59.7	3.7	0.00e+00	0	48	104	0	81	24942
2026-01-07 19:47:06.77	49.56	6.98	-55.5	-59.7	3.7	0.00e+00	0	48	104	0	81	24979
2026-01-07 19:47:07.77	49.76	7.03	-55.5	-59.7	3.7	0.00e+00	0	49	104	0	81	25010
2026-01-07 19:47:08.77	49.95	7.08	-55.5	-59.7	3.7	0.00e+00	0	49	104	0	81	24965
2026-01-07 19:47:09.77	50.14	7.13	-55.5	-59.7	3.7	0.00e+00	0	49	104	0	81	24934
2026-01-07 19:47:10.78	50.34	7.18	-55.5	-59.7	3.7	0.00e+00	0	49	104	0	81	24921
2026-01-07 19:47:11.78	50.53	7.23	-55.5	-59.7	3.7	0.00e+00	0	49	104	0	81	25038
2026-01-07 19:47:12.78	50.73	7.28	-55.5	-59.7	3.7	0.00e+00	0	49	104	0	81	24978
2026-01-07 19:47:13.79	50.93	7.33	-55.5	-59.7	3.7	0.00e+00	0	49	104	0	81	24940
2026-01-07 19:47:14.79	51.12	7.38	-55.5	-59.7	3.7	0.00e+00	0	49	104	0	81	24950
2026-01-07 19:47:15.79	51.32	7.43	-55.5	-59.7	3.7	0.00e+00	0	49	104	0	81	25011
2026-01-07 19:47:16.79	51.52	7.47	-55.5	-59.7	3.7	0.00e+00	0	49	104	0	81	25010
2026-01-07 19:47:17.80	51.72	7.52	-55.5	-59.7	3.7	0.00e+00	0	49	104	0	81	25022
2026-01-07 19:47:18.80	51.93	7.57	-55.5	-59.7	3.7	0.00e+00	0	49	104	0	81	24986
2026-01-07 19:47:19.80	52.13	7.62	-55.5	-59.7	3.7	0.00e+00	0	49	104	0	81	25031
2026-01-07 19:47:20.80	52.33	7.67	-55.5	-59.7	3.7	0.00e+00	0	49	104	0	81	24961
2026-01-07 19:47:21.81	52.53	7.72	-55.5	-59.7	3.7	0.00e+00	0	49	104	0	81	24893
2026-01-07 19:47:22.81	52.74	7.77	-55.5	-59.7	3.7	0.00e+00	0	49	104	0	81	24967
2026-01-07 19:47:23.81	52.94	7.82	-55.5	-59.7	3.7	0.00e+00	0	49	104	0	81	24992
2026-01-07 19:47:24.81	53.15	7.86	-55.5	-59.7	3.7	0.00e+00	0	49	104	0	81	24933
2026-01-07 19:47:25.81	53.36	7.91	-55.5	-59.7	3.7	0.00e+00	0	49	104	0	81	25035
2026-01-07 19:47:26.82	53.57	7.96	-55.5	-59.7	3.7	0.00e+00	0	49	104	0	81	25027
2026-01-07 19:47:27.82	53.77	8.01	-55.5	-59.7	3.7	0.00e+00	0	49	104	0	81	25003
2026-01-07 19:47:28.82	53.98	8.05	-55.5	-59.7	3.7	0.00e+00	0	49	104	0	81	25086
2026-01-07 19:47:29.83	54.20	8.10	-55.5	-59.7	3.7	0.00e+00	0	49	104	0	81	24946
2026-01-07 19:47:30.83	54.41	8.15	-55.5	-59.7	3.7	0.00e+00	0	50	104	0	81	24975
2026-01-07 19:47:31.83	54.62	8.20	-55.5	-59.7	3.7	0.00e+00	0	49	104	0	81	25028
2026-01-07 19:47:32.84	54.83	8.24	-55.5	-59.7	3.7	0.00e+00	0	49	104	0	81	24998
2026-01-07 19:47:33.84	55.05	8.29	-55.5	-59.7	3.7	0.00e+00	0	49	104	0	81	25018
2026-01-07 19:47:34.84	55.26	8.34	-55.5	-59.7	3.7	0.00e+00	0	50	104	0	81	25088
2026-01-07 19:47:35.85	55.48	8.38	-55.5	-59.7	3.7	0.00e+00	0	49	104	0	81	25050
2026-01-07 19:47:36.85	55.69	8.43	-55.5	-59.8	3.7	0.00e+00	0	50	104	0	81	25096
2026-01-07 19:47:37.85	55.91	8.48	-55.5	-59.7	3.7	0.00e+00	0	49	104	0	81	25066
2026-01-07 19:47:38.86	56.13	8.52	-55.5	-59.7	3.7	0.00e+00	0	50	104	0	81	25030
2026-01-07 19:47:39.86	56.35	8.57	-55.5	-59.7	3.7	0.00e+00	0	49	104	0	81	25008
2026-01-07 19:47:40.86	56.57	8.61	-55.5	-59.7	3.7	0.00e+00	0	50	104	0	81	25093
2026-01-07 19:47:41.86	56.79	8.66	-55.5	-59.7	3.7	0.00e+00	0	49	104	0	81	25007
2026-01-07 19:47:42.87	57.01	8.70	-55.5	-59.7	3.7	0.00e+00	0	50	104	0	81	25073
2026-01-07 19:47:43.87	57.23	8.75	-55.5	-59.7	3.7	0.00e+00	0	50	104	0	81	25063
2026-01-07 19:47:44.87	57.46	8.79	-55.5	-59.7	3.7	0.00e+00	0	50	104	0	81	25060
2026-01-07 19:47:45.87	57.68	8.84	-55.5	-59.8	3.7	0.00e+00	0	50	104	0	81	25099
2026-01-07 19:47:46.87	57.90	8.88	-55.5	-59.8	3.7	0.00e+00	0	50	104	0	81	25156
2026-01-07 19:47:47.88	58.13	8.92	-55.5	-59.7	3.7	0.00e+00	0	50	104	0	81	25014
2026-01-07 19:47:48.88	58.36	8.97	-55.5	-59.7	3.7	0.00e+00	0	50	104	0	81	25057
2026-01-07 19:47:49.88	58.59	9.01	-55.5	-59.8	3.7	0.00e+00	0	50	104	0	81	25097
2026-01-07 19:47:50.88	58.81	9.05	-55.6	-59.9	3.7	0.00e+00	0	50	104	0	81	25662
2026-01-07 19:47:51.88	59.04	9.10	-55.3	-59.6	3.7	0.00e+00	0	50	104	0	81	24744
2026-01-07 19:47:52.88	59.27	9.14	-55.5	-60.0	3.7	0.00e+00	0	50	104	0	81	25843
2026-01-07 19:47:53.88	59.50	9.18	-54.4	-58.3	3.7	0.00e+00	0	50	104	0	80	22456
2026-01-07 19:47:54.88	59.73	9.22	-54.6	-58.5	3.7	0.00e+00	0	50	104	0	80	22888
2026-01-07 19:47:55.89	59.97	9.27	-54.3	-58.1	3.7	0.00e+00	0	50	104	0	80	22031
2026-01-07 19:47:56.89	60.20	9.31	-54.2	-58.0	3.7	0.00e+00	0	50	104	0	80	21691
2026-01-07 19:47:57.89	60.43	9.35	-54.3	-58.2	3.7	0.00e+00	0	50	104	0	80	22174
2026-01-07 19:47:58.89	60.67	9.39	-54.3	-58.2	3.7	0.00e+00	0	50	104	0	80	22120
2026-01-07 19:47:59.89	60.90	9.43	-54.6	-58.5	3.7	0.00e+00	0	50	104	0	80	22941
2026-01-07 19:48:00.90	61.14	9.47	-54.6	-58.4	3.7	0.00e+00	0	50	104	0	80	22761
2026-01-07 19:48:01.89	61.37	9.51	-55.8	-60.4	3.7	0.00e+00	0	50	104	0	82	25491
2026-01-07 19:48:02.90	61.61	9.55	-55.3	-60.0	3.7	0.00e+00	0	50	104	0	82	24501
2026-01-07 19:48:03.90	61.85	9.59	-55.1	-59.5	3.7	0.00e+00	0	50	104	0	82	23006
2026-01-07 19:48:04.90	62.09	9.63	-55.2	-59.8	3.7	0.00e+00	0	50	104	0	82	23878
2026-01-07 19:48:05.90	62.33	9.67	-55.3	-60.0	3.7	0.00e+00	0	50	104	0	82	24422
2026-01-07 19:48:06.91	62.57	9.71	-55.4	-60.1	3.7	0.00e+00	0	50	104	0	82	24746
2026-01-07 19:48:07.91	62.82	9.75	-55.6	-60.2	3.7	0.00e+00	0	50	104	0	82	25049
2026-01-07 19:48:08.91	63.06	9.79	-55.9	-60.4	3.7	0.00e+00	0	50	104	0	82	25474
2026-01-07 19:48:09.91	63.30	9.82	-55.8	-60.2	3.7	0.00e+00	0	50	104	0	82	24934
2026-01-07 19:48:10.91	63.55	9.86	-55.5	-60.1	3.7	0.00e+00	0	50	104	0	82	24618
2026-01-07 19:48:11.91	63.79	9.90	-55.5	-59.9	3.7	0.00e+00	0	50	104	0	82	24035
2026-01-07 19:48:12.92	64.04	9.94	-55.6	-60.3	3.7	0.00e+00	0	50	104	0	82	25283
2026-01-07 19:48:13.92	64.28	9.97	-55.6	-60.2	3.7	0.00e+00	0	50	104	0	82	24894
2026-01-07 19:48:14.92	64.53	10.01	-55.5	-60.1	3.7	0.00e+00	0	50	104	0	82	24773
2026-01-07 19:48:15.93	64.78	10.05	-55.3	-59.5	3.7	0.00e+00	0	50	104	0	82	23082
2026-01-07 19:48:16.93	65.03	10.08	-56.0	-60.6	3.7	0.00e+00	0	50	104	0	82	26166
2026-01-07 19:48:17.93	65.28	10.12	-55.6	-59.8	3.7	0.00e+00	0	50	104	0	82	23908
2026-01-07 19:48:18.93	65.53	10.15	-55.4	-59.5	3.7	0.00e+00	0	50	104	0	82	23098
2026-01-07 19:48:19.93	65.78	10.19	-55.2	-59.2	3.7	0.00e+00	0	50	104	0	82	22353
2026-01-07 19:48:20.93	66.03	10.22	-54.9	-59.0	3.7	0.00e+00	0	50	104	0	81	22961
2026-01-07 19:48:21.93	66.28	10.25	-54.8	-59.1	3.7	0.00e+00	0	50	104	0	81	23179
2026-01-07 19:48:22.93	66.54	10.29	-55.3	-60.0	3.7	0.00e+00	0	50	104	0	81	25756
2026-01-07 19:48:23.93	66.79	10.32	-55.4	-60.0	3.7	0.00e+00	0	50	104	0	81	25808
2026-01-07 19:48:24.93	67.04	10.35	-55.6	-60.1	3.7	0.00e+00	0	51	104	0	81	26036
2026-01-07 19:48:25.93	67.30	10.39	-55.4	-60.0	3.7	0.00e+00	0	50	104	0	81	25774
2026-01-07 19:48:26.94	67.56	10.42	-55.7	-60.2	3.7	0.00e+00	0	50	104	0	81	26460
2026-01-07 19:48:27.94	67.81	10.45	-55.8	-60.3	3.7	0.00e+00	0	50	104	0	82	25221
2026-01-07 19:48:28.94	68.07	10.48	-55.8	-60.4	3.7	0.00e+00	0	50	104	0	82	25669
2026-01-07 19:48:29.94	68.33	10.51	-55.8	-60.3	3.7	0.00e+00	0	51	104	0	82	25299
2026-01-07 19:48:30.95	68.59	10.54	-55.7	-60.2	3.7	0.00e+00	0	50	104	0	82	24933
2026-01-07 19:48:31.95	68.85	10.57	-55.7	-60.1	3.7	0.00e+00	0	51	104	0	82	24551
2026-01-07 19:48:32.96	69.11	10.60	-55.5	-59.6	3.7	0.00e+00	0	51	104	0	82	23347
2026-01-07 19:48:33.96	69.37	10.63	-55.7	-60.2	3.7	0.00e+00	0	51	104	0	82	25062
2026-01-07 19:48:34.96	69.63	10.66	-55.6	-59.8	3.7	0.00e+00	0	51	104	0	82	23870
2026-01-07 19:48:35.96	69.89	10.69	-55.4	-59.3	3.7	0.00e+00	0	50	104	0	82	22430
2026-01-07 19:48:36.97	70.16	10.72	-55.4	-59.6	3.7	0.00e+00	0	50	104	0	82	23242
2026-01-07 19:48:37.97	70.42	10.75	-55.2	-59.2	3.7	0.00e+00	0	51	104	0	82	22322
2026-01-07 19:48:38.97	70.68	10.77	-55.1	-59.0	3.7	0.00e+00	0	50	104	0	82	21726
2026-01-07 19:48:39.98	70.95	10.80	-55.1	-59.0	3.7	0.00e+00	0	51	104	0	82	21719
2026-01-07 19:48:40.98	71.21	10.83	-55.2	-59.4	3.7	0.00e+00	0	51	104	0	82	22649
2026-01-07 19:48:41.98	71.48	10.85	-55.0	-58.9	3.7	0.00e+00	0	51	104	0	82	21576
2026-01-07 19:48:42.98	71.74	10.88	-55.2	-59.0	3.7	0.00e+00	0	51	104	0	81	22979
2026-01-07 19:48:43.98	72.01	10.90	-55.3	-59.0	3.7	0.00e+00	0	51	104	0	81	23090
2026-01-07 19:48:44.99	72.28	10.93	-55.0	-58.6	3.7	0.00e+00	0	51	104	0	81	21960
2026-01-07 19:48:45.99	72.55	10.95	-55.5	-59.4	3.7	0.00e+00	0	51	104	0	81	24230
2026-01-07 19:48:46.99	72.81	10.98	-55.9	-60.1	3.7	0.00e+00	0	51	104	0	82	24692
2026-01-07 19:48:47.99	73.08	11.00	-55.8	-60.2	3.7	0.00e+00	0	51	104	0	82	24822
2026-01-07 19:48:48.99	73.35	11.02	-55.7	-60.3	3.7	0.00e+00	0	51	104	0	82	25107
2026-01-07 19:48:49.99	73.62	11.04	-55.7	-60.4	3.7	0.00e+00	0	50	104	0	82	25449
2026-01-07 19:48:50.99	73.89	11.07	-55.8	-60.5	3.7	0.00e+00	0	51	104	0	82	25938
2026-01-07 19:48:51.99	74.16	11.09	-55.8	-60.3	3.7	0.00e+00	0	51	104	0	82	25233
2026-01-07 19:48:53.00	74.44	11.11	-55.4	-59.4	3.7	0.00e+00	0	51	104	0	82	22852
2026-01-07 19:48:53.99	74.70	11.13	-55.7	-60.1	3.7	0.00e+00	0	51	104	0	82	24588
2026-01-07 19:48:54.99	74.98	11.15	-55.5	-59.6	3.7	0.00e+00	0	51	104	0	82	23214
2026-01-07 19:48:56.08	75.27	11.17	-55.5	-59.8	3.7	0.00e+00	0	51	104	0	82	23800
2026-01-07 19:48:56.94	75.51	11.19	-55.3	-59.5	3.7	0.00e+00	0	51	104	0	82	23126
2026-01-07 19:48:58.08	75.82	11.21	-55.1	-59.3	3.7	0.00e+00	0	51	104	0	82	22518
2026-01-07 19:48:58.94	76.05	11.22	-55.0	-59.1	3.7	0.00e+00	0	51	104	0	82	21928
2026-01-07 19:49:00.08	76.37	11.24	-54.8	-58.8	3.7	0.00e+00	0	51	104	0	81	22452
2026-01-07 19:49:00.95	76.61	11.26	-54.8	-58.6	3.7	0.00e+00	0	51	104	0	81	22067
2026-01-07 19:49:02.09	76.92	11.28	-55.1	-59.3	3.7	0.00e+00	0	51	104	0	81	23786
2026-01-07 19:49:02.95	77.16	11.29	-55.9	-60.5	3.7	0.00e+00	0	51	104	0	82	25873
2026-01-07 19:49:04.10	77.47	11.31	-55.5	-59.7	3.7	0.00e+00	0	51	104	0	82	23591
2026-01-07 19:49:05.33	77.81	11.33	-55.6	-59.9	3.7	0.00e+00	0	51	104	0	82	24093
2026-01-07 19:49:06.19	78.05	11.34	-55.2	-59.4	3.7	0.00e+00	0	51	104	0	82	22736
2026-01-07 19:49:07.33	78.37	11.36	-55.5	-59.9	3.7	0.00e+00	0	51	104	0	82	23968
2026-01-07 19:49:08.19	78.60	11.37	-55.7	-60.2	3.7	0.00e+00	0	51	104	0	82	24907
2026-01-07 19:49:09.34	78.92	11.38	-55.5	-59.9	3.7	0.00e+00	0	51	104	0	82	23991
2026-01-07 19:49:10.20	79.16	11.39	-54.7	-58.3	3.7	0.00e+00	0	51	104	0	81	21350
2026-01-07 19:49:11.35	79.48	11.41	-55.0	-59.0	3.7	0.00e+00	0	51	104	0	81	23138
2026-01-07 19:49:12.21	79.72	11.42	-54.9	-58.5	3.7	0.00e+00	0	51	104	0	81	21803
2026-01-07 19:49:13.35	80.04	11.43	-55.2	-59.2	3.7	0.00e+00	0	51	104	0	81	23552
2026-01-07 19:49:14.21	80.28	11.44	-54.9	-58.6	3.7	0.00e+00	0	51	104	0	81	21875
2026-01-07 19:49:15.36	80.60	11.45	-55.2	-59.2	3.7	0.00e+00	0	51	104	0	81	23497
2026-01-07 19:49:16.22	80.84	11.46	-55.3	-59.6	3.7	0.00e+00	0	51	104	0	81	24650
2026-01-07 19:49:17.59	81.22	11.47	-55.1	-59.6	3.7	0.00e+00	0	51	104	0	81	24773
2026-01-07 19:49:18.31	81.42	11.47	-55.0	-59.5	3.7	0.00e+00	0	51	104	0	81	24397
2026-01-07 19:49:19.60	81.78	11.48	-55.0	-59.2	3.7	0.00e+00	0	51	104	0	81	23533
2026-01-07 19:49:20.31	81.98	11.49	-55.0	-59.1	3.7	0.00e+00	0	51	104	0	81	23196
2026-01-07 19:49:21.60	82.34	11.50	-55.3	-59.6	3.7	0.00e+00	0	51	104	0	81	24727
2026-01-07 19:49:22.32	82.55	11.50	-55.3	-59.6	3.7	0.00e+00	0	51	104	0	81	24533
2026-01-07 19:49:23.61	82.91	11.51	-55.5	-60.2	3.7	0.00e+00	0	51	104	0	82	24952
2026-01-07 19:49:24.44	83.14	11.51	-55.3	-60.1	3.7	0.00e+00	0	51	104	0	82	24596
2026-01-07 19:49:25.58	83.46	11.52	-55.1	-60.0	3.7	0.00e+00	0	51	104	0	82	24465
2026-01-07 19:49:26.45	83.71	11.52	-55.0	-60.1	3.7	0.00e+00	0	51	104	0	82	24541
2026-01-07 19:49:27.60	84.03	11.53	-55.0	-60.0	3.7	0.00e+00	0	51	104	0	82	24453
2026-01-07 19:49:28.45	84.27	11.53	-55.0	-59.9	3.7	0.00e+00	0	51	104	0	82	24055
2026-01-07 19:49:29.60	84.59	11.53	-55.0	-59.8	3.7	0.00e+00	0	51	104	0	81	25170
2026-01-07 19:49:30.80	84.93	11.53	-55.3	-60.0	3.7	0.00e+00	0	51	104	0	81	25880
2026-01-07 19:49:31.66	85.17	11.53	-55.1	-59.9	3.7	0.00e+00	0	51	104	0	81	25666
2026-01-07 19:49:32.81	85.49	11.53	-55.4	-60.1	3.7	0.00e+00	0	51	104	0	81	26040
2026-01-07 19:49:33.67	85.74	11.53	-55.3	-60.0	3.7	0.00e+00	0	51	104	0	81	25839
2026-01-07 19:49:34.81	86.06	11.53	-55.3	-59.8	3.7	0.00e+00	0	51	104	0	81	25381
2026-01-07 19:49:35.68	86.30	11.53	-55.2	-59.8	3.7	0.00e+00	0	51	104	0	81	25241
2026-01-07 19:49:36.82	86.62	11.53	-55.2	-59.7	3.7	0.00e+00	0	51	104	0	81	24817
2026-01-07 19:49:37.68	86.86	11.53	-55.1	-59.5	3.7	0.00e+00	0	51	104	0	81	24502
2026-01-07 19:49:38.90	87.21	11.53	-55.1	-59.5	3.7	0.00e+00	0	51	104	0	81	24370
2026-01-07 19:49:39.77	87.45	11.52	-55.1	-59.5	3.7	0.00e+00	0	51	104	0	81	24370
2026-01-07 19:49:40.98	87.79	11.52	-55.1	-59.5	3.7	0.00e+00	0	51	104	0	81	24335
2026-01-07 19:49:41.84	88.03	11.51	-55.1	-59.6	3.7	0.00e+00	0	51	104	0	81	24666
2026-01-07 19:49:43.08	88.38	11.51	-55.6	-60.3	3.7	0.00e+00	0	51	104	0	81	26616
2026-01-07 19:49:43.93	88.62	11.50	-55.3	-59.9	3.7	0.00e+00	0	51	104	0	81	25584
2026-01-07 19:49:45.08	88.94	11.50	-55.7	-60.3	3.7	0.00e+00	0	51	104	0	82	25200
2026-01-07 19:49:45.94	89.18	11.49	-55.7	-60.4	3.7	0.00e+00	0	51	104	0	82	25517
2026-01-07 19:49:47.08	89.50	11.48	-55.8	-60.5	3.7	0.00e+00	0	51	104	0	82	25744
2026-01-07 19:49:47.99	89.76	11.48	-55.7	-60.4	3.7	0.00e+00	0	51	104	0	82	25582
2026-01-07 19:49:49.19	90.09	11.47	-55.9	-60.5	3.7	0.00e+00	0	51	104	0	82	25835
2026-01-07 19:49:50.04	90.33	11.46	-55.8	-60.4	3.7	0.00e+00	0	51	104	0	82	25559
2026-01-07 19:49:51.38	90.71	11.45	-55.6	-59.9	3.7	0.00e+00	0	51	104	0	82	24198
2026-01-07 19:49:52.10	90.91	11.44	-55.7	-60.2	3.7	0.00e+00	0	51	104	0	82	24900
2026-01-07 19:49:53.39	91.27	11.43	-55.4	-59.7	3.7	0.00e+00	0	51	104	0	82	23566
2026-01-07 19:49:54.11	91.47	11.42	-55.3	-59.7	3.7	0.00e+00	0	51	104	0	82	23533
2026-01-07 19:49:55.40	91.83	11.40	-55.4	-59.8	3.7	0.00e+00	0	51	104	0	82	23885
2026-01-07 19:49:56.11	92.03	11.40	-55.6	-60.1	3.7	0.00e+00	0	51	104	0	82	24586
2026-01-07 19:49:57.40	92.38	11.38	-55.9	-60.3	3.7	0.00e+00	0	51	104	0	82	25336
2026-01-07 19:49:58.18	92.60	11.37	-55.9	-60.4	3.7	0.00e+00	0	51	104	0	82	25561
2026-01-07 19:49:59.47	92.96	11.35	-55.9	-60.4	3.7	0.00e+00	0	51	104	0	82	25420
2026-01-07 19:50:00.19	93.16	11.34	-55.9	-60.4	3.7	0.00e+00	0	51	104	0	82	25609
2026-01-07 19:50:01.48	93.52	11.32	-55.9	-60.3	3.7	0.00e+00	0	51	104	0	82	25381
2026-01-07 19:50:02.19	93.71	11.31	-56.0	-60.4	3.7	0.00e+00	0	51	104	0	82	25593
2026-01-07 19:50:03.49	94.07	11.29	-56.0	-60.5	3.7	0.00e+00	0	51	104	0	82	25863
2026-01-07 19:50:04.44	94.33	11.28	-56.0	-60.5	3.7	0.00e+00	0	51	104	0	82	25822
2026-01-07 19:50:05.44	94.61	11.26	-55.8	-60.3	3.7	0.00e+00	0	51	104	0	82	25208
2026-01-07 19:50:06.45	94.89	11.24	-55.7	-60.2	3.7	0.00e+00	0	51	104	0	82	24975
2026-01-07 19:50:07.45	95.16	11.23	-55.7	-60.1	3.7	0.00e+00	0	51	104	0	82	24593
2026-01-07 19:50:08.46	95.44	11.21	-55.7	-60.0	3.7	0.00e+00	0	51	104	0	82	24439
2026-01-07 19:50:09.46	95.71	11.19	-55.8	-60.3	3.7	0.00e+00	0	51	104	0	82	25158
2026-01-07 19:50:10.46	95.99	11.17	-56.0	-60.5	3.7	0.00e+00	0	51	104	0	82	25788
2026-01-07 19:50:11.47	96.26	11.15	-56.0	-60.5	3.6	0.00e+00	0	51	104	0	82	25748
2026-01-07 19:50:12.47	96.54	11.13	-55.9	-60.4	3.7	0.00e+00	0	51	104	0	82	25590
2026-01-07 19:50:13.47	96.81	11.11	-55.7	-60.3	3.7	0.00e+00	0	51	104	0	82	25097
2026-01-07 19:50:14.48	97.08	11.09	-55.7	-60.0	3.7	0.00e+00	0	51	104	0	82	24515
2026-01-07 19:50:15.48	97.35	11.07	-55.7	-60.0	3.7	0.00e+00	0	51	104	0	82	24370
2026-01-07 19:50:16.49	97.63	11.04	-55.7	-60.0	3.7	0.00e+00	0	51	104	0	82	24354
2026-01-07 19:50:17.49	97.90	11.02	-55.8	-60.2	3.7	0.00e+00	0	51	104	0	82	24938
2026-01-07 19:50:18.49	98.17	11.00	-56.0	-60.5	3.7	0.00e+00	0	51	104	0	82	25697
2026-01-07 19:50:19.50	98.44	10.98	-55.9	-60.4	3.7	0.00e+00	0	51	104	0	82	25633
2026-01-07 19:50:20.50	98.71	10.95	-55.8	-60.4	3.7	0.00e+00	0	51	104	0	82	25475
2026-01-07 19:50:21.51	98.98	10.93	-55.9	-60.4	3.7	0.00e+00	0	51	104	0	82	25588
2026-01-07 19:50:22.51	99.25	10.90	-55.8	-60.2	3.7	0.00e+00	0	51	104	0	82	24992
2026-01-07 19:50:23.51	99.52	10.88	-55.8	-60.2	3.7	0.00e+00	0	51	104	0	82	25041
2026-01-07 19:50:24.52	99.78	10.85	-55.9	-60.3	3.7	0.00e+00	0	51	104	0	82	25355
2026-01-07 19:50:25.53	100.05	10.83	-55.8	-60.2	3.7	0.00e+00	0	51	104	0	82	24954
2026-01-07 19:50:26.53	100.32	10.80	-55.9	-60.3	3.7	0.00e+00	0	51	104	0	82	25153
2026-01-07 19:50:27.53	100.58	10.77	-55.7	-60.2	3.7	0.00e+00	0	51	104	0	82	24889
2026-01-07 19:50:28.53	100.85	10.74	-55.7	-60.2	3.7	0.00e+00	0	51	104	0	82	24851
2026-01-07 19:50:29.53	101.11	10.72	-55.8	-60.3	3.7	0.00e+00	0	51	104	0	82	25311
2026-01-07 19:50:30.54	101.38	10.69	-56.0	-60.5	3.7	0.00e+00	0	51	104	0	82	25792
2026-01-07 19:50:31.54	101.64	10.66	-56.0	-60.5	3.7	0.00e+00	0	51	104	0	82	25757
2026-01-07 19:50:32.55	101.91	10.63	-55.9	-60.5	3.7	0.00e+00	0	51	104	0	82	25782
2026-01-07 19:50:33.55	102.17	10.60	-55.9	-60.4	3.7	0.00e+00	0	51	104	0	82	25490
2026-01-07 19:50:34.56	102.43	10.57	-55.7	-60.2	3.7	0.00e+00	0	51	104	0	82	24838
2026-01-07 19:50:35.56	102.69	10.54	-55.7	-60.1	3.7	0.00e+00	0	51	104	0	82	24713
2026-01-07 19:50:36.56	102.95	10.51	-55.7	-60.1	3.7	0.00e+00	0	51	104	0	82	24770
2026-01-07 19:50:37.57	103.21	10.48	-55.7	-60.1	3.7	0.00e+00	0	51	104	0	82	24588
2026-01-07 19:50:38.57	103.47	10.45	-55.9	-60.3	3.7	0.00e+00	0	51	104	0	82	25247
2026-01-07 19:50:39.64	103.75	10.41	-55.9	-60.2	3.7	0.00e+00	0	51	104	0	82	25081
2026-01-07 19:50:40.55	103.98	10.38	-55.9	-60.3	3.7	0.00e+00	0	51	104	0	82	25373
2026-01-07 19:50:41.55	104.24	10.35	-56.0	-60.6	3.7	0.00e+00	0	51	104	0	82	26051
2026-01-07 19:50:42.55	104.49	10.32	-56.0	-60.6	3.7	0.00e+00	0	51	104	0	82	26034
2026-01-07 19:50:43.55	104.75	10.28	-55.9	-60.6	3.7	0.00e+00	0	51	104	0	82	26013
2026-01-07 19:50:44.56	105.00	10.25	-55.8	-60.5	3.7	0.00e+00	0	51	104	0	82	25736
2026-01-07 19:50:45.56	105.26	10.22	-55.8	-60.4	3.7	0.00e+00	0	51	104	0	82	25557
2026-01-07 19:50:46.56	105.51	10.18	-55.5	-60.3	3.7	0.00e+00	0	51	104	0	82	25190
2026-01-07 19:50:47.93	105.85	10.13	-55.7	-60.3	3.7	0.00e+00	0	51	104	0	82	25266
2026-01-07 19:50:48.68	106.04	10.11	-55.6	-60.3	3.7	0.00e+00	0	51	104	0	82	25292
2026-01-07 19:50:49.98	106.37	10.06	-55.8	-60.4	3.7	0.00e+00	0	51	104	0	82	25579
2026-01-07 19:50:50.69	106.54	10.04	-55.7	-60.4	3.7	0.00e+00	0	51	104	0	82	25462
2026-01-07 19:50:51.98	106.87	9.99	-55.7	-60.4	3.7	0.00e+00	0	51	104	0	82	25450
2026-01-07 19:50:52.70	107.04	9.96	-55.7	-60.3	3.7	0.00e+00	0	51	104	0	82	25269
2026-01-07 19:50:53.99	107.36	9.91	-55.7	-60.4	3.7	0.00e+00	0	51	104	0	82	25572
2026-01-07 19:50:54.70	107.54	9.89	-55.8	-60.4	3.7	0.00e+00	0	51	104	0	82	25407
2026-01-07 19:50:55.99	107.85	9.84	-55.7	-60.3	3.7	0.00e+00	0	51	104	0	82	25264
2026-01-07 19:50:56.71	108.03	9.81	-55.7	-60.2	3.7	0.00e+00	0	51	104	0	82	25091
2026-01-07 19:50:58.00	108.35	9.76	-55.9	-60.4	3.7	0.00e+00	0	51	104	0	82	25420
2026-01-07 19:50:58.71	108.52	9.74	-55.8	-60.4	3.7	0.00e+00	0	51	104	0	82	25524
2026-01-07 19:51:00.16	108.87	9.68	-55.8	-60.3	3.7	0.00e+00	0	51	104	0	82	25263
2026-01-07 19:51:00.88	109.05	9.65	-55.7	-60.3	3.7	0.00e+00	0	51	104	0	82	25223
2026-01-07 19:51:02.17	109.36	9.60	-55.7	-60.4	3.7	0.00e+00	0	51	104	0	82	25663
2026-01-07 19:51:02.89	109.53	9.57	-55.6	-60.3	3.7	0.00e+00	0	51	104	0	82	25146
2026-01-07 19:51:04.18	109.84	9.52	-55.7	-60.3	3.7	0.00e+00	0	51	104	0	82	25296
2026-01-07 19:51:04.89	110.01	9.49	-55.5	-60.2	3.7	0.00e+00	0	51	104	0	82	24964
2026-01-07 19:51:06.19	110.32	9.44	-55.7	-60.4	3.7	0.00e+00	0	51	104	0	82	25386
2026-01-07 19:51:06.90	110.48	9.41	-55.4	-60.1	3.7	0.00e+00	0	51	104	0	82	24731
2026-01-07 19:51:08.19	110.79	9.36	-55.5	-60.2	3.7	0.00e+00	0	51	104	0	82	25044
2026-01-07 19:51:08.91	110.96	9.33	-55.4	-60.1	3.7	0.00e+00	0	51	104	0	82	24672
2026-01-07 19:51:10.20	111.26	9.27	-55.5	-60.2	3.7	0.00e+00	0	51	104	0	82	24833
2026-01-07 19:51:10.92	111.43	9.24	-55.6	-60.2	3.7	0.00e+00	0	51	104	0	82	24970
2026-01-07 19:51:12.21	111.73	9.19	-55.3	-60.0	3.7	0.00e+00	0	51	104	0	82	24430
2026-01-07 19:51:12.92	111.90	9.16	-55.6	-60.2	3.7	0.00e+00	0	51	104	0	82	25093
2026-01-07 19:51:14.22	112.20	9.10	-55.8	-60.4	3.7	0.00e+00	0	51	104	0	82	25505
2026-01-07 19:51:15.15	112.41	9.06	-55.7	-60.2	3.7	0.00e+00	0	51	104	0	82	25067
2026-01-07 19:51:16.16	112.64	9.02	-55.8	-60.4	3.7	0.00e+00	0	51	104	0	82	25418
2026-01-07 19:51:17.16	112.87	8.97	-55.7	-60.4	3.7	0.00e+00	0	51	104	0	82	25425
2026-01-07 19:51:18.57	113.19	8.91	-56.1	-60.7	3.7	0.00e+00	0	51	104	0	83	24924
2026-01-07 19:51:19.28	113.35	8.88	-56.2	-60.9	3.7	0.00e+00	0	51	104	0	83	25576
2026-01-07 19:51:20.58	113.65	8.82	-56.3	-60.9	3.7	0.00e+00	0	51	104	0	83	25635
2026-01-07 19:51:21.29	113.81	8.79	-56.0	-60.3	3.6	0.00e+00	0	51	104	0	83	23772
2026-01-07 19:51:22.58	114.10	8.73	-56.3	-60.5	3.7	0.00e+00	0	51	104	0	83	24499
2026-01-07 19:51:23.30	114.26	8.70	-56.5	-61.1	3.7	0.00e+00	0	51	104	0	83	26059
2026-01-07 19:51:24.59	114.54	8.64	-56.1	-60.9	3.7	0.00e+00	0	52	104	0	83	25440
2026-01-07 19:51:25.31	114.70	8.61	-55.8	-60.7	3.7	0.00e+00	0	51	104	0	83	24954
2026-01-07 19:51:26.60	114.99	8.55	-55.6	-60.6	3.7	0.00e+00	0	51	104	0	82	26180
2026-01-07 19:51:27.32	115.15	8.52	-55.6	-60.6	3.7	0.00e+00	0	51	104	0	82	26132
2026-01-07 19:51:28.61	115.43	8.46	-55.7	-60.7	3.7	0.00e+00	0	51	104	0	82	26575
2026-01-07 19:51:29.33	115.59	8.42	-55.9	-60.8	3.7	0.00e+00	0	51	104	0	82	26794
2026-01-07 19:51:30.62	115.87	8.37	-55.6	-60.4	3.7	0.00e+00	0	52	104	0	82	25454
2026-01-07 19:51:31.33	116.02	8.33	-55.7	-60.4	3.7	0.00e+00	0	51	104	0	82	25646
2026-01-07 19:51:32.63	116.30	8.27	-55.9	-60.7	3.7	0.00e+00	0	51	104	0	82	26467
2026-01-07 19:51:33.34	116.46	8.24	-56.1	-60.9	3.7	0.00e+00	0	51	104	0	82	26893
2026-01-07 19:51:34.63	116.73	8.18	-55.8	-60.6	3.7	0.00e+00	0	51	104	0	82	26156
2026-01-07 19:51:35.35	116.89	8.14	-55.7	-60.6	3.7	0.00e+00	0	51	104	0	82	26238
2026-01-07 19:51:36.64	117.16	8.08	-55.5	-60.2	3.7	0.00e+00	0	51	104	0	82	25081
2026-01-07 19:51:37.36	117.31	8.05	-55.4	-60.2	3.7	0.00e+00	0	51	104	0	82	24810
2026-01-07 19:51:38.65	117.58	7.99	-55.5	-60.3	3.7	0.00e+00	0	51	104	0	82	25280
2026-01-07 19:51:39.37	117.73	7.95	-55.6	-60.3	3.7	0.00e+00	0	51	104	0	82	25336
2026-01-07 19:51:40.66	118.00	7.89	-55.5	-60.3	3.7	0.00e+00	0	52	104	0	82	25275
2026-01-07 19:51:41.38	118.15	7.85	-55.5	-60.3	3.7	0.00e+00	0	51	104	0	82	25339
2026-01-07 19:51:42.67	118.42	7.79	-55.5	-60.3	3.7	0.00e+00	0	51	104	0	82	25324
2026-01-07 19:51:43.38	118.57	7.76	-55.5	-60.3	3.7	0.00e+00	0	52	104	0	82	25311
2026-01-07 19:51:44.68	118.84	7.69	-55.5	-60.3	3.7	0.00e+00	0	51	104	0	82	25342
2026-01-07 19:51:45.39	118.98	7.66	-55.5	-60.3	3.7	0.00e+00	0	51	104	0	82	25229
2026-01-07 19:51:46.68	119.24	7.60	-55.5	-60.3	3.7	0.00e+00	0	51	104	0	82	25383
2026-01-07 19:51:47.40	119.39	7.56	-55.5	-60.3	3.7	0.00e+00	0	51	104	0	82	25330
2026-01-07 19:51:48.69	119.65	7.50	-55.6	-60.3	3.7	0.00e+00	0	51	104	0	82	25325
2026-01-07 19:51:49.41	119.80	7.46	-55.5	-60.3	3.7	0.00e+00	0	51	104	0	82	25356
2026-01-07 19:51:50.70	120.06	7.40	-55.5	-60.4	3.7	0.00e+00	0	52	104	0	82	25385
2026-01-07 19:51:51.42	120.20	7.36	-55.5	-60.3	3.7	0.00e+00	0	51	104	0	82	25354
2026-01-07 19:51:52.71	120.46	7.30	-55.5	-60.3	3.7	0.00e+00	0	52	104	0	82	25246
2026-01-07 19:51:53.43	120.60	7.26	-55.5	-60.3	3.7	0.00e+00	0	51	104	0	82	25219
2026-01-07 19:51:54.72	120.85	7.20	-55.5	-60.3	3.7	0.00e+00	0	52	104	0	82	25344
2026-01-07 19:51:55.43	120.99	7.16	-55.5	-60.3	3.7	0.00e+00	0	51	104	0	82	25203
2026-01-07 19:51:56.73	121.25	7.10	-55.5	-60.3	3.7	0.00e+00	0	51	104	0	82	25290
2026-01-07 19:51:57.44	121.39	7.06	-55.5	-60.3	3.7	0.00e+00	0	51	104	0	82	25235
2026-01-07 19:51:58.73	121.64	6.99	-55.5	-60.3	3.7	0.00e+00	0	51	104	0	82	25258
2026-01-07 19:51:59.45	121.77	6.96	-55.5	-60.3	3.7	0.00e+00	0	51	104	0	82	25247
2026-01-07 19:52:00.74	122.02	6.89	-55.5	-60.3	3.7	0.00e+00	0	51	104	0	82	25268
2026-01-07 19:52:01.46	122.16	6.86	-55.5	-60.3	3.7	0.00e+00	0	51	104	0	82	25265
2026-01-07 19:52:02.75	122.41	6.79	-55.5	-60.3	3.7	0.00e+00	0	51	104	0	82	25327
2026-01-07 19:52:03.47	122.54	6.75	-55.5	-60.3	3.7	0.00e+00	0	52	104	0	82	25304
2026-01-07 19:52:04.76	122.79	6.69	-55.6	-60.3	3.7	0.00e+00	0	51	104	0	82	25247
2026-01-07 19:52:05.48	122.92	6.65	-55.5	-60.3	3.7	0.00e+00	0	52	104	0	82	25251
2026-01-07 19:52:06.77	123.16	6.59	-55.5	-60.3	3.7	0.00e+00	0	51	104	0	82	25262
2026-01-07 19:52:07.48	123.30	6.55	-55.5	-60.3	3.7	0.00e+00	0	51	104	0	82	25264
2026-01-07 19:52:08.78	123.54	6.48	-55.5	-60.3	3.7	0.00e+00	0	52	104	0	82	25247
2026-01-07 19:52:09.49	123.67	6.45	-55.5	-60.3	3.7	0.00e+00	0	51	104	0	82	25194
2026-01-07 19:52:10.78	123.91	6.38	-55.5	-60.3	3.7	0.00e+00	0	52	104	0	82	25149
2026-01-07 19:52:11.50	124.04	6.34	-55.5	-60.3	3.7	0.00e+00	0	51	104	0	82	25206
2026-01-07 19:52:12.79	124.27	6.27	-55.5	-60.3	3.7	0.00e+00	0	51	104	0	82	25108
2026-01-07 19:52:13.51	124.41	6.24	-55.5	-60.3	3.7	0.00e+00	0	51	104	0	82	25139
2026-01-07 19:52:14.80	124.64	6.17	-55.5	-60.3	3.7	0.00e+00	0	51	104	0	82	25141
2026-01-07 19:52:15.52	124.77	6.13	-55.5	-60.3	3.7	0.00e+00	0	51	104	0	82	25197
2026-01-07 19:52:16.81	125.00	6.07	-55.5	-60.3	3.7	0.00e+00	0	51	104	0	82	25160
2026-01-07 19:52:17.53	125.13	6.03	-55.5	-60.3	3.7	0.00e+00	0	51	104	0	82	25184
2026-01-07 19:52:18.82	125.36	5.96	-55.5	-60.2	3.7	0.00e+00	0	51	104	0	82	25087
2026-01-07 19:52:19.54	125.49	5.92	-55.5	-60.3	3.7	0.00e+00	0	52	104	0	82	25157
2026-01-07 19:52:20.83	125.71	5.86	-55.5	-60.3	3.7	0.00e+00	0	51	104	0	82	25196
2026-01-07 19:52:21.54	125.84	5.82	-55.5	-60.3	3.7	0.00e+00	0	51	104	0	82	25158
2026-01-07 19:52:22.84	126.06	5.75	-55.5	-60.3	3.7	0.00e+00	0	51	104	0	82	25116
2026-01-07 19:52:23.55	126.19	5.72	-55.5	-60.2	3.7	0.00e+00	0	51	104	0	82	25083
2026-01-07 19:52:24.84	126.41	5.65	-55.5	-60.3	3.7	0.00e+00	0	51	104	0	82	25100
2026-01-07 19:52:25.56	126.53	5.61	-55.5	-60.3	3.7	0.00e+00	0	52	104	0	82	25119
2026-01-07 19:52:26.85	126.76	5.54	-55.5	-60.2	3.7	0.00e+00	0	51	104	0	82	25083
2026-01-07 19:52:27.57	126.88	5.50	-55.5	-60.3	3.7	0.00e+00	0	51	104	0	82	25199
2026-01-07 19:52:28.86	127.10	5.44	-55.5	-60.3	3.7	0.00e+00	0	52	104	0	82	25176
2026-01-07 19:52:29.58	127.22	5.40	-55.5	-60.2	3.7	0.00e+00	0	51	104	0	82	25065
2026-01-07 19:52:30.87	127.44	5.33	-55.5	-60.2	3.7	0.00e+00	0	51	104	0	82	25055
2026-01-07 19:52:31.58	127.56	5.29	-55.5	-60.3	3.7	0.00e+00	0	51	104	0	82	25137
2026-01-07 19:52:32.87	127.77	5.23	-55.4	-60.2	3.7	0.00e+00	0	52	104	0	82	25084
2026-01-07 19:52:33.59	127.89	5.19	-55.5	-60.3	3.7	0.00e+00	0	51	104	0	82	25140
2026-01-07 19:52:34.88	128.10	5.12	-55.5	-60.2	3.7	0.00e+00	0	51	104	0	82	25049
2026-01-07 19:52:35.60	128.22	5.08	-55.4	-60.2	3.7	0.00e+00	0	51	104	0	82	25037
2026-01-07 19:52:36.89	128.43	5.01	-55.5	-60.3	3.7	0.00e+00	0	52	104	0	82	25113
2026-01-07 19:52:37.61	128.55	4.98	-55.5	-60.2	3.7	0.00e+00	0	52	104	0	82	25036

#Closed at: 2026-01-07 19:52:38
#Recorded file [0 MB]: D:/Data/31040_260107_224630.dat