passes_logs/2026/01/07/T1/T1__20260107_022704_NOAA_20_JPSS-1_rec.log

#Pass ID: 20260107_022704_NOAA 20 (JPSS-1)
#Satellite: NOAA 20 (JPSS-1)
#Configuration: NOAA 20
#almurnet v.1.7.20251203
#Start time: 2026-01-07 02:27:04

#Version: 2.0.20230620
#Station: T1
#Location: 37.570604 lon 55.790049 lat
#TLE: 1 43013U 17073A   26006.30790171  .00000126  00000+0  80695-4 0  9991
#TLE: 2 43013  98.7629 307.3394 0001808  51.8724 308.2615 14.19533762421505

#Time	Az	El	Level	Level2	SNR	BER	BlckErr	Temp	State	Recorded	gain1	gain2
2026-01-07 02:27:04.31	359.84	5.01	-47.4	-64.7	3.8	1.49e+00	0	37	0	0	66	26409
2026-01-07 02:27:05.30	359.72	5.05	-45.8	-64.6	3.8	1.49e+00	0	37	104	0	62	32744
2026-01-07 02:27:06.31	359.60	5.09	-45.8	-64.6	3.8	1.49e+00	0	37	104	0	62	32735
2026-01-07 02:27:07.31	359.47	5.14	-45.8	-64.6	3.8	1.49e+00	0	37	104	0	62	32735
2026-01-07 02:27:08.32	359.35	5.18	-45.8	-64.6	3.8	1.49e+00	0	37	104	0	62	32727
2026-01-07 02:27:09.32	359.23	5.22	-45.7	-64.6	3.8	1.49e+00	0	38	104	0	62	32768
2026-01-07 02:27:10.33	359.10	5.26	-45.7	-64.6	3.8	1.49e+00	0	37	104	0	62	32812
2026-01-07 02:27:11.33	358.98	5.30	-45.7	-64.6	3.8	1.49e+00	0	38	104	0	62	32804
2026-01-07 02:27:12.33	358.85	5.34	-45.7	-64.6	3.8	1.49e+00	0	37	104	0	62	32845
2026-01-07 02:27:13.34	358.72	5.39	-45.8	-64.6	3.8	1.49e+00	0	38	104	0	62	32780
2026-01-07 02:27:14.34	358.60	5.43	-45.8	-64.6	3.8	1.49e+00	0	38	104	0	62	32749
2026-01-07 02:27:15.35	358.47	5.47	-45.7	-64.6	3.8	1.49e+00	0	38	104	0	62	32870
2026-01-07 02:27:16.35	358.35	5.51	-45.8	-64.6	3.8	1.49e+00	0	38	104	0	62	32857
2026-01-07 02:27:17.35	358.22	5.55	-45.8	-64.6	3.8	1.49e+00	0	38	104	0	62	32796
2026-01-07 02:27:18.36	358.09	5.59	-45.8	-64.6	3.8	1.49e+00	0	38	104	0	62	32785
2026-01-07 02:27:19.36	357.96	5.63	-45.7	-64.6	3.8	1.49e+00	0	38	104	0	62	32760
2026-01-07 02:27:20.37	357.83	5.67	-45.7	-64.6	3.8	1.49e+00	0	38	104	0	62	32710
2026-01-07 02:27:21.37	357.71	5.72	-45.7	-64.6	3.8	1.49e+00	0	38	104	0	62	32777
2026-01-07 02:27:22.38	357.58	5.76	-45.8	-64.6	3.8	1.49e+00	0	38	104	0	62	32776
2026-01-07 02:27:23.38	357.45	5.80	-45.8	-64.6	3.8	1.49e+00	0	38	104	0	62	32773
2026-01-07 02:27:24.39	357.32	5.84	-45.8	-64.6	3.8	1.49e+00	0	38	104	0	62	32774
2026-01-07 02:27:25.39	357.19	5.88	-45.8	-64.6	3.8	1.49e+00	0	38	104	0	62	32781
2026-01-07 02:27:26.39	357.06	5.92	-45.7	-64.6	3.8	1.49e+00	0	38	104	0	62	32690
2026-01-07 02:27:27.40	356.93	5.96	-45.8	-64.6	3.8	1.49e+00	0	38	104	0	62	32722
2026-01-07 02:27:28.41	356.80	6.00	-45.7	-64.6	3.8	1.49e+00	0	38	104	0	62	32675
2026-01-07 02:27:29.41	356.66	6.04	-45.8	-64.6	3.8	1.49e+00	0	38	104	0	62	32783
2026-01-07 02:27:30.41	356.53	6.08	-45.7	-64.6	3.8	1.49e+00	0	38	104	0	62	32794
2026-01-07 02:27:31.42	356.40	6.12	-45.8	-64.6	3.8	1.49e+00	0	38	104	0	62	32752
2026-01-07 02:27:32.42	356.27	6.16	-45.8	-64.6	3.8	1.49e+00	0	38	104	0	62	32720
2026-01-07 02:27:33.42	356.13	6.20	-45.8	-64.6	3.8	1.49e+00	0	38	104	0	62	32759
2026-01-07 02:27:34.43	356.00	6.24	-45.7	-64.6	3.8	1.49e+00	0	38	104	0	62	32790
2026-01-07 02:27:35.43	355.87	6.28	-45.8	-64.6	3.8	1.49e+00	0	38	104	0	62	32710
2026-01-07 02:27:36.44	355.73	6.32	-45.8	-64.6	3.8	1.49e+00	0	38	104	0	62	32781
2026-01-07 02:27:37.44	355.60	6.36	-45.7	-64.6	3.8	1.49e+00	0	38	104	0	62	32793
2026-01-07 02:27:38.44	355.46	6.40	-45.8	-64.6	3.8	1.49e+00	0	38	104	0	62	32663
2026-01-07 02:27:39.45	355.33	6.44	-45.7	-64.6	3.8	1.49e+00	0	38	104	0	62	32826
2026-01-07 02:27:40.46	355.19	6.48	-45.7	-64.6	3.8	1.49e+00	0	38	104	0	62	32786
2026-01-07 02:27:41.46	355.06	6.52	-45.7	-64.6	3.8	1.49e+00	0	39	104	0	62	32693
2026-01-07 02:27:42.46	354.92	6.56	-45.7	-64.6	3.8	1.49e+00	0	39	104	0	62	32655
2026-01-07 02:27:43.47	354.78	6.60	-45.7	-64.6	3.8	1.49e+00	0	39	104	0	62	32627
2026-01-07 02:27:44.47	354.65	6.64	-45.8	-64.6	3.8	1.49e+00	0	39	104	0	62	32804
2026-01-07 02:27:45.47	354.51	6.67	-45.7	-64.6	3.8	1.49e+00	0	39	104	0	62	32681
2026-01-07 02:27:46.48	354.37	6.71	-45.7	-64.6	3.8	1.49e+00	0	39	104	0	62	32638
2026-01-07 02:27:47.48	354.23	6.75	-45.7	-64.6	3.8	1.49e+00	0	39	104	0	62	32706
2026-01-07 02:27:48.49	354.09	6.79	-45.7	-64.6	3.8	1.49e+00	0	39	104	0	62	32640
2026-01-07 02:27:49.49	353.95	6.83	-45.7	-64.6	3.8	1.49e+00	0	39	104	0	62	32687
2026-01-07 02:27:50.50	353.81	6.87	-45.7	-64.6	3.8	1.49e+00	0	39	104	0	62	32721
2026-01-07 02:27:51.50	353.67	6.91	-45.7	-64.6	3.8	1.49e+00	0	39	104	0	62	32804
2026-01-07 02:27:52.51	353.53	6.95	-45.7	-64.6	3.8	1.49e+00	0	39	104	0	62	32669
2026-01-07 02:27:53.51	353.39	6.98	-45.7	-64.6	3.8	1.49e+00	0	39	104	0	62	32670
2026-01-07 02:27:54.51	353.25	7.02	-45.7	-64.6	3.8	1.49e+00	0	39	104	0	62	32801
2026-01-07 02:27:55.52	353.11	7.06	-45.7	-64.6	3.8	1.49e+00	0	39	104	0	62	32752
2026-01-07 02:27:56.52	352.97	7.10	-45.7	-64.6	3.8	1.49e+00	0	39	104	0	62	32664
2026-01-07 02:27:57.53	352.83	7.13	-45.8	-64.6	3.8	1.49e+00	0	39	104	0	62	32697
2026-01-07 02:27:58.53	352.69	7.17	-45.7	-64.6	3.8	1.49e+00	0	39	104	0	62	32710
2026-01-07 02:27:59.53	352.54	7.21	-45.7	-64.6	3.8	1.49e+00	0	39	104	0	62	32773
2026-01-07 02:28:00.54	352.40	7.25	-45.7	-64.6	3.8	1.49e+00	0	39	104	0	62	32709
2026-01-07 02:28:01.54	352.26	7.28	-45.8	-64.6	3.8	1.49e+00	0	39	104	0	62	32826
2026-01-07 02:28:02.55	352.11	7.32	-45.7	-64.6	3.8	1.49e+00	0	39	104	0	62	32690
2026-01-07 02:28:03.55	351.97	7.36	-45.7	-64.6	3.8	1.49e+00	0	39	104	0	62	32692
2026-01-07 02:28:04.55	351.82	7.40	-45.8	-64.6	3.8	1.49e+00	0	39	104	0	62	32658
2026-01-07 02:28:05.56	351.68	7.43	-45.7	-64.6	3.8	1.49e+00	0	39	104	0	62	32664
2026-01-07 02:28:06.56	351.53	7.47	-45.7	-64.6	3.8	1.49e+00	0	39	104	0	62	32561
2026-01-07 02:28:07.57	351.39	7.51	-45.7	-64.5	3.8	1.49e+00	0	39	104	0	62	32551
2026-01-07 02:28:08.57	351.24	7.54	-45.7	-64.6	3.8	1.49e+00	0	39	104	0	62	32573
2026-01-07 02:28:09.57	351.09	7.58	-45.8	-64.5	3.8	1.49e+00	0	39	104	0	62	32520
2026-01-07 02:28:10.58	350.95	7.61	-45.7	-64.5	3.8	1.49e+00	0	39	104	0	62	32491
2026-01-07 02:28:11.58	350.80	7.65	-45.7	-64.5	3.8	1.49e+00	0	39	104	0	62	32446
2026-01-07 02:28:12.59	350.65	7.69	-45.7	-64.5	3.8	1.49e+00	0	39	104	0	62	32344
2026-01-07 02:28:13.59	350.50	7.72	-45.7	-64.5	3.8	1.49e+00	0	39	104	0	62	32343
2026-01-07 02:28:14.59	350.36	7.76	-45.7	-64.5	3.8	1.49e+00	0	39	104	0	62	32510
2026-01-07 02:28:15.60	350.21	7.79	-45.7	-64.5	3.8	1.49e+00	0	39	104	0	62	32441
2026-01-07 02:28:16.60	350.06	7.83	-45.7	-64.5	3.8	1.49e+00	0	39	104	0	62	32454
2026-01-07 02:28:17.60	349.91	7.86	-45.8	-64.5	3.8	1.49e+00	0	39	104	0	62	32418
2026-01-07 02:28:18.61	349.76	7.90	-45.8	-64.5	3.8	1.49e+00	0	39	104	0	62	32535
2026-01-07 02:28:19.61	349.61	7.93	-45.8	-64.5	3.8	1.49e+00	0	39	104	0	62	32405
2026-01-07 02:28:20.62	349.46	7.97	-45.7	-64.5	3.8	1.49e+00	0	39	104	0	62	32529
2026-01-07 02:28:21.62	349.31	8.00	-45.7	-64.6	3.8	1.49e+00	0	39	104	0	62	32622
2026-01-07 02:28:22.62	349.15	8.04	-45.8	-64.6	3.8	1.49e+00	0	39	104	0	62	32718
2026-01-07 02:28:23.63	349.00	8.07	-45.8	-64.6	3.8	1.49e+00	0	40	104	0	62	32683
2026-01-07 02:28:24.63	348.85	8.11	-45.8	-64.5	3.8	1.49e+00	0	39	104	0	62	32495
2026-01-07 02:28:25.63	348.70	8.14	-45.8	-64.4	3.8	1.49e+00	0	39	104	0	62	32021
2026-01-07 02:28:26.64	348.54	8.17	-45.7	-64.3	3.8	1.49e+00	0	39	104	0	62	31780
2026-01-07 02:28:27.64	348.39	8.21	-45.7	-64.3	3.8	1.49e+00	0	39	104	0	62	31780
2026-01-07 02:28:28.65	348.24	8.24	-45.8	-64.4	3.8	1.49e+00	0	40	104	0	62	31932
2026-01-07 02:28:29.65	348.08	8.28	-45.8	-64.5	3.8	1.49e+00	0	40	104	0	62	32206
2026-01-07 02:28:30.65	347.93	8.31	-45.7	-64.6	3.8	1.49e+00	0	40	104	0	62	32562
2026-01-07 02:28:31.66	347.77	8.34	-45.7	-64.6	3.8	1.49e+00	0	40	104	0	62	32622
2026-01-07 02:28:32.66	347.62	8.38	-45.7	-64.5	3.8	1.49e+00	0	40	104	0	62	32550
2026-01-07 02:28:33.67	347.46	8.41	-45.7	-64.5	3.8	1.49e+00	0	39	104	0	62	32339
2026-01-07 02:28:34.67	347.31	8.44	-45.7	-64.3	3.8	1.49e+00	0	39	104	0	62	31732
2026-01-07 02:28:35.67	347.15	8.47	-45.7	-64.2	3.8	1.49e+00	0	40	104	0	62	31129
2026-01-07 02:28:36.68	347.00	8.51	-45.7	-64.1	3.8	1.49e+00	0	39	104	0	62	30851
2026-01-07 02:28:37.68	346.84	8.54	-45.7	-64.2	3.8	1.49e+00	0	40	104	0	62	31287
2026-01-07 02:28:38.69	346.68	8.57	-45.7	-64.4	3.8	1.49e+00	0	40	104	0	62	32013
2026-01-07 02:28:39.69	346.52	8.60	-45.7	-64.5	3.8	1.49e+00	0	40	104	0	62	32387
2026-01-07 02:28:40.70	346.37	8.63	-45.7	-64.3	3.8	1.49e+00	0	40	104	0	62	31674
2026-01-07 02:28:41.70	346.21	8.67	-45.7	-63.9	3.8	1.49e+00	0	40	104	0	62	30033
2026-01-07 02:28:42.70	346.05	8.70	-45.7	-63.4	3.8	1.49e+00	0	40	104	0	62	28504
2026-01-07 02:28:43.71	345.89	8.73	-45.7	-63.1	3.8	1.49e+00	0	39	104	0	62	27498
2026-01-07 02:28:44.71	345.73	8.76	-45.6	-62.9	3.8	1.49e+00	0	40	104	0	62	26975
2026-01-07 02:28:45.71	345.57	8.79	-45.6	-62.8	3.8	1.49e+00	0	40	104	0	62	26643
2026-01-07 02:28:46.72	345.41	8.82	-45.7	-62.5	3.8	1.49e+00	0	40	104	0	62	25646
2026-01-07 02:28:47.72	345.25	8.85	-45.7	-62.1	3.8	1.48e+00	0	40	104	0	62	24595
2026-01-07 02:28:48.73	345.09	8.88	-45.7	-61.5	4.1	1.46e+00	0	40	104	0	62	22844
2026-01-07 02:28:49.73	344.93	8.91	-45.6	-60.4	4.4	1.35e+00	0	40	0	0	62	20146
2026-01-07 02:28:50.73	344.77	8.94	-45.5	-58.7	5.1	8.48e-01	0	40	0	2097152	62	16685
2026-01-07 02:28:51.74	344.61	8.97	-45.3	-56.5	6.8	3.89e-01	0	40	0	3145728	62	12814
2026-01-07 02:28:52.74	344.45	9.00	-45.0	-53.9	9.3	3.49e-02	0	40	0	5242880	62	9520
2026-01-07 02:28:53.75	344.28	9.03	-44.4	-51.9	11.4	2.40e-03	0	40	0	7340032	60	8465
2026-01-07 02:28:54.80	344.11	9.06	-45.2	-58.2	5.5	5.66e-03	0	40	0	9437184	61	16605
2026-01-07 02:28:55.74	343.96	9.09	-44.0	-51.0	12.1	4.91e-01	0	40	0	10485760	60	7699
2026-01-07 02:28:56.85	343.78	9.12	-45.3	-56.5	6.9	4.77e-03	0	40	0	12582912	61	13640
2026-01-07 02:28:57.76	343.63	9.15	-43.8	-49.8	13.6	4.32e-02	0	40	0	14680064	59	7076
2026-01-07 02:28:58.76	343.47	9.18	-43.8	-49.8	13.5	4.50e-05	0	40	0	16777216	59	7099
2026-01-07 02:28:59.76	343.30	9.20	-43.7	-49.5	13.7	2.20e-06	0	40	0	18874368	59	6867
2026-01-07 02:29:00.76	343.14	9.23	-43.7	-49.1	14.1	3.00e-06	0	40	0	20971520	59	6566
2026-01-07 02:29:01.77	342.97	9.26	-43.6	-48.9	14.5	0.00e+00	0	40	0	22020096	59	6366
2026-01-07 02:29:02.77	342.81	9.29	-44.0	-49.1	14.2	0.00e+00	0	40	0	24117248	59	6525
2026-01-07 02:29:03.77	342.64	9.32	-44.1	-49.0	14.4	3.00e-06	0	40	0	26214400	59	6456
2026-01-07 02:29:04.78	342.48	9.34	-43.9	-48.5	14.8	0.00e+00	0	40	0	28311552	59	6112
2026-01-07 02:29:05.78	342.31	9.37	-43.8	-48.3	15.1	0.00e+00	0	40	0	29360128	59	5925
2026-01-07 02:29:06.78	342.14	9.40	-43.7	-47.9	15.5	0.00e+00	0	40	0	31457280	59	5673
2026-01-07 02:29:07.79	341.98	9.42	-43.6	-47.7	15.7	0.00e+00	0	40	0	33554432	59	5529
2026-01-07 02:29:08.80	341.81	9.45	-43.6	-47.6	15.7	0.00e+00	0	40	0	35651584	59	5523
2026-01-07 02:29:09.81	341.64	9.48	-43.6	-47.6	15.8	0.00e+00	0	40	0	37748736	59	5497
2026-01-07 02:29:10.81	341.47	9.50	-43.7	-47.4	15.9	0.00e+00	0	40	0	38797312	59	5386
2026-01-07 02:29:11.94	341.28	9.53	-43.8	-47.5	15.9	0.00e+00	0	40	0	40894464	59	5408
2026-01-07 02:29:12.83	341.13	9.56	-43.7	-47.3	16.0	0.00e+00	0	40	0	42991616	59	5316
2026-01-07 02:29:13.88	340.96	9.58	-43.8	-47.3	16.1	0.00e+00	0	40	0	45088768	59	5331
2026-01-07 02:29:14.76	340.81	9.60	-43.9	-47.3	16.0	0.00e+00	0	40	0	47185920	59	5334
2026-01-07 02:29:15.90	340.62	9.63	-44.0	-47.3	16.1	0.00e+00	0	40	0	49283072	59	5317
2026-01-07 02:29:16.76	340.47	9.65	-44.1	-47.5	15.9	0.00e+00	0	40	0	50331648	59	5408
2026-01-07 02:29:17.91	340.28	9.68	-44.1	-47.4	16.0	0.00e+00	0	40	0	52428800	59	5351
2026-01-07 02:29:18.77	340.13	9.70	-44.1	-47.4	16.0	0.00e+00	0	40	0	54525952	59	5376
2026-01-07 02:29:19.92	339.94	9.73	-44.2	-47.5	15.9	0.00e+00	0	40	0	56623104	59	5425
2026-01-07 02:29:20.78	339.79	9.75	-44.1	-47.4	16.0	0.00e+00	0	40	0	57671680	59	5374
2026-01-07 02:29:21.92	339.60	9.78	-44.1	-47.3	16.1	0.00e+00	0	40	0	59768832	59	5310
2026-01-07 02:29:22.78	339.45	9.80	-44.1	-47.3	16.1	0.00e+00	0	40	0	61865984	59	5308
2026-01-07 02:29:23.99	339.24	9.83	-44.1	-47.2	16.1	0.00e+00	0	40	0	63963136	59	5268
2026-01-07 02:29:24.85	339.09	9.85	-44.1	-47.4	16.0	0.00e+00	0	40	0	66060288	59	5347
2026-01-07 02:29:26.00	338.90	9.87	-44.1	-47.4	16.0	0.00e+00	0	40	0	68157440	59	5355
2026-01-07 02:29:26.86	338.75	9.89	-44.0	-47.4	16.0	0.00e+00	0	40	0	69206016	59	5353
2026-01-07 02:29:28.13	338.53	9.92	-44.0	-47.5	15.9	0.00e+00	0	40	0	71303168	59	5416
2026-01-07 02:29:29.28	338.33	9.95	-44.0	-47.6	15.8	0.00e+00	0	40	0	73400320	59	5471
2026-01-07 02:29:30.41	338.14	9.97	-44.0	-47.6	15.7	0.00e+00	0	40	0	75497472	59	5526
2026-01-07 02:29:31.27	337.99	9.99	-44.1	-47.7	15.7	0.00e+00	0	40	0	77594624	59	5550
2026-01-07 02:29:32.41	337.79	10.01	-44.1	-47.6	15.8	0.00e+00	0	40	0	79691776	59	5492
2026-01-07 02:29:33.27	337.64	10.03	-44.2	-47.7	15.7	0.00e+00	0	40	0	81788928	59	5585
2026-01-07 02:29:34.42	337.44	10.06	-44.1	-47.6	15.8	0.00e+00	0	40	0	83886080	59	5484
2026-01-07 02:29:35.28	337.29	10.07	-44.1	-47.6	15.8	0.00e+00	0	40	0	84934656	59	5503
2026-01-07 02:29:36.42	337.09	10.10	-44.1	-47.7	15.7	0.00e+00	0	40	0	87031808	59	5543
2026-01-07 02:29:37.29	336.94	10.11	-44.1	-47.8	15.5	0.00e+00	0	40	0	89128960	59	5651
2026-01-07 02:29:38.43	336.74	10.14	-44.1	-47.8	15.5	0.00e+00	0	40	0	91226112	59	5647
2026-01-07 02:29:39.29	336.59	10.15	-44.2	-47.9	15.5	0.00e+00	0	40	0	92274688	59	5696
2026-01-07 02:29:40.44	336.39	10.18	-44.4	-48.2	15.2	7.00e-07	0	40	0	94371840	59	5880
2026-01-07 02:29:41.30	336.24	10.19	-44.5	-48.2	15.2	0.00e+00	0	40	0	96468992	59	5922
2026-01-07 02:29:42.54	336.02	10.22	-44.6	-48.1	15.2	0.00e+00	0	40	0	98566144	59	5854
2026-01-07 02:29:43.40	335.87	10.23	-44.6	-48.1	15.3	0.00e+00	0	40	0	100663296	59	5808
2026-01-07 02:29:44.54	335.67	10.25	-44.6	-48.1	15.3	0.00e+00	0	40	0	102760448	59	5810
2026-01-07 02:29:45.40	335.52	10.27	-44.6	-48.1	15.4	0.00e+00	0	40	0	103809024	60	5500
2026-01-07 02:29:46.55	335.31	10.29	-44.6	-48.1	15.3	0.00e+00	0	40	0	105906176	60	5523
2026-01-07 02:29:47.41	335.16	10.30	-44.7	-48.3	15.1	7.00e-07	0	40	0	108003328	60	5623
2026-01-07 02:29:48.55	334.96	10.32	-44.7	-48.2	15.2	0.00e+00	0	40	0	110100480	60	5564
2026-01-07 02:29:49.41	334.81	10.34	-44.8	-48.3	15.2	7.00e-07	0	40	0	112197632	60	5628
2026-01-07 02:29:50.56	334.60	10.36	-44.9	-48.4	15.0	0.00e+00	0	40	0	114294784	60	5708
2026-01-07 02:29:51.42	334.45	10.37	-44.9	-48.5	15.0	7.00e-07	0	40	0	115343360	60	5748
2026-01-07 02:29:52.57	334.25	10.39	-44.8	-48.4	15.1	0.00e+00	0	40	0	117440512	60	5663
2026-01-07 02:29:53.43	334.09	10.41	-44.8	-48.4	15.0	0.00e+00	0	40	0	119537664	60	5717
2026-01-07 02:29:54.57	333.89	10.42	-44.7	-48.3	15.1	0.00e+00	0	40	0	121634816	60	5637
2026-01-07 02:29:55.43	333.73	10.44	-44.7	-48.4	15.0	0.00e+00	0	40	0	122683392	60	5678
2026-01-07 02:29:56.58	333.53	10.46	-44.6	-48.2	15.3	0.00e+00	0	40	0	124780544	60	5547
2026-01-07 02:29:57.80	333.31	10.47	-44.5	-48.0	15.4	0.00e+00	0	40	0	126877696	60	5450
2026-01-07 02:29:58.84	333.12	10.49	-44.5	-48.0	15.4	0.00e+00	0	40	0	128974848	60	5452
2026-01-07 02:29:59.84	332.95	10.50	-44.5	-48.0	15.5	0.00e+00	0	40	0	131072000	60	5421
2026-01-07 02:30:00.84	332.77	10.52	-44.5	-47.9	15.5	0.00e+00	0	40	0	133169152	60	5397
2026-01-07 02:30:01.85	332.58	10.53	-44.5	-47.9	15.5	0.00e+00	0	40	0	135266304	60	5393
2026-01-07 02:30:02.85	332.40	10.55	-44.6	-48.1	15.3	0.00e+00	0	40	0	136314880	60	5524
2026-01-07 02:30:03.85	332.22	10.56	-44.6	-48.1	15.3	0.00e+00	0	40	0	138412032	60	5525
2026-01-07 02:30:04.85	332.04	10.57	-44.6	-48.0	15.4	0.00e+00	0	40	0	140509184	60	5445
2026-01-07 02:30:05.86	331.86	10.59	-44.5	-47.9	15.6	0.00e+00	0	40	0	142606336	60	5378
2026-01-07 02:30:06.86	331.68	10.60	-44.3	-47.5	15.9	7.00e-07	0	40	0	144703488	60	5148
2026-01-07 02:30:07.94	331.49	10.61	-44.3	-47.5	15.9	0.00e+00	0	40	0	146800640	60	5141
2026-01-07 02:30:08.82	331.33	10.62	-44.2	-47.4	16.1	0.00e+00	0	40	0	147849216	60	5055
2026-01-07 02:30:10.14	331.09	10.64	-44.2	-47.4	16.0	0.00e+00	0	40	0	150994944	60	5096
2026-01-07 02:30:10.85	330.96	10.65	-44.2	-47.4	16.0	0.00e+00	0	40	0	152043520	60	5083
2026-01-07 02:30:12.14	330.72	10.66	-44.1	-47.3	16.2	0.00e+00	0	40	0	154140672	60	5001
2026-01-07 02:30:12.86	330.59	10.67	-44.2	-47.4	16.1	0.00e+00	0	40	0	155189248	60	5064
2026-01-07 02:30:14.14	330.36	10.68	-44.2	-47.3	16.1	0.00e+00	0	40	0	158334976	60	5023
2026-01-07 02:30:14.86	330.23	10.69	-44.2	-47.3	16.1	0.00e+00	0	40	0	159383552	60	5035
2026-01-07 02:30:16.15	330.00	10.70	-44.3	-47.4	16.1	0.00e+00	0	40	0	161480704	60	5087
2026-01-07 02:30:16.87	329.86	10.71	-44.3	-47.5	16.0	0.00e+00	0	40	0	163577856	60	5107
2026-01-07 02:30:18.16	329.63	10.72	-44.3	-47.4	16.0	0.00e+00	0	40	0	165675008	60	5094
2026-01-07 02:30:19.08	329.46	10.73	-44.2	-47.3	16.1	0.00e+00	0	40	0	167772160	60	5034
2026-01-07 02:30:20.40	329.22	10.74	-44.3	-47.4	16.1	0.00e+00	0	40	0	169869312	60	5094
2026-01-07 02:30:21.12	329.09	10.75	-44.2	-47.4	16.1	0.00e+00	0	40	0	170917888	60	5042
2026-01-07 02:30:22.74	328.79	10.76	-44.3	-47.4	16.1	0.00e+00	0	40	0	174063616	60	5086
2026-01-07 02:30:23.32	328.69	10.77	-44.3	-47.5	16.0	0.00e+00	0	40	0	175112192	60	5119
2026-01-07 02:30:24.91	328.40	10.78	-44.2	-47.4	16.1	0.00e+00	0	40	0	178257920	60	5045
2026-01-07 02:30:25.48	328.29	10.78	-44.2	-47.4	16.1	0.00e+00	0	40	0	179306496	60	5076
2026-01-07 02:30:27.07	328.00	10.80	-44.2	-47.5	16.0	0.00e+00	0	40	0	182452224	60	5105
2026-01-07 02:30:27.65	327.90	10.80	-44.2	-47.4	16.0	0.00e+00	0	40	0	183500800	60	5095
2026-01-07 02:30:29.23	327.61	10.81	-44.1	-47.3	16.1	0.00e+00	0	40	0	186646528	60	5023
2026-01-07 02:30:29.87	327.49	10.81	-44.1	-47.3	16.1	0.00e+00	0	40	0	187695104	60	5022
2026-01-07 02:30:31.30	327.23	10.82	-44.1	-47.3	16.2	0.00e+00	0	40	0	189792256	60	4995
2026-01-07 02:30:32.06	327.09	10.83	-44.1	-47.3	16.2	0.00e+00	0	40	0	191889408	60	5006
2026-01-07 02:30:33.67	326.79	10.84	-44.1	-47.3	16.2	0.00e+00	0	40	0	195035136	59	5294
2026-01-07 02:30:34.49	326.64	10.84	-44.0	-47.2	16.2	0.00e+00	0	40	0	196083712	59	5279
2026-01-07 02:30:35.63	326.43	10.84	-43.9	-47.2	16.3	0.00e+00	0	40	0	198180864	59	5239
2026-01-07 02:30:36.84	326.21	10.85	-43.8	-47.2	16.2	0.00e+00	0	40	0	200278016	59	5231
2026-01-07 02:30:37.71	326.05	10.85	-43.7	-47.0	16.4	0.00e+00	0	40	0	202375168	59	5137
2026-01-07 02:30:38.85	325.84	10.86	-43.6	-46.9	16.5	0.00e+00	0	40	0	204472320	59	5069
2026-01-07 02:30:39.71	325.68	10.86	-43.6	-46.9	16.5	0.00e+00	0	40	0	205520896	59	5070
2026-01-07 02:30:40.86	325.47	10.86	-43.5	-46.8	16.7	0.00e+00	0	40	0	208666624	59	4997
2026-01-07 02:30:41.72	325.31	10.87	-43.5	-46.8	16.7	0.00e+00	0	40	0	209715200	58	5287
2026-01-07 02:30:42.86	325.10	10.87	-43.5	-46.7	16.8	0.00e+00	0	40	0	211812352	58	5238
2026-01-07 02:30:43.72	324.94	10.87	-43.5	-46.7	16.8	0.00e+00	0	40	0	213909504	58	5242
2026-01-07 02:30:44.87	324.73	10.87	-43.5	-46.7	16.8	0.00e+00	0	40	0	216006656	58	5240
2026-01-07 02:30:45.73	324.57	10.88	-43.6	-46.7	16.7	0.00e+00	0	40	0	217055232	58	5256
2026-01-07 02:30:46.87	324.36	10.88	-43.6	-46.7	16.7	0.00e+00	0	40	0	219152384	58	5241
2026-01-07 02:30:47.73	324.20	10.88	-43.7	-46.8	16.6	0.00e+00	0	40	0	221249536	58	5331
2026-01-07 02:30:48.88	323.99	10.88	-43.5	-46.6	16.8	0.00e+00	0	40	0	223346688	58	5204
2026-01-07 02:30:49.74	323.83	10.88	-43.5	-46.6	16.8	0.00e+00	0	40	0	224395264	58	5207
2026-01-07 02:30:50.88	323.62	10.88	-43.5	-46.7	16.8	0.00e+00	0	40	0	226492416	58	5227
2026-01-07 02:30:51.74	323.46	10.88	-43.5	-46.7	16.8	0.00e+00	0	40	0	228589568	58	5234
2026-01-07 02:30:52.89	323.25	10.88	-43.5	-46.6	16.8	0.00e+00	0	40	0	230686720	58	5186
2026-01-07 02:30:53.75	323.09	10.88	-43.6	-46.6	16.8	0.00e+00	0	40	0	231735296	58	5194
2026-01-07 02:30:54.89	322.88	10.88	-43.6	-46.6	16.8	0.00e+00	0	40	0	234881024	58	5169
2026-01-07 02:30:55.76	322.72	10.88	-43.7	-46.7	16.7	0.00e+00	0	40	0	235929600	58	5243
2026-01-07 02:30:56.90	322.51	10.88	-43.9	-46.9	16.6	0.00e+00	0	40	0	238026752	58	5343
2026-01-07 02:30:57.76	322.35	10.88	-43.9	-46.8	16.6	0.00e+00	0	40	0	240123904	58	5329
2026-01-07 02:30:58.91	322.14	10.87	-44.0	-47.0	16.5	0.00e+00	0	40	0	242221056	58	5407
2026-01-07 02:30:59.77	321.98	10.87	-43.9	-47.0	16.5	0.00e+00	0	40	0	243269632	58	5405
2026-01-07 02:31:01.03	321.75	10.87	-43.9	-47.0	16.4	0.00e+00	0	40	0	246415360	58	5428
2026-01-07 02:31:01.77	321.61	10.87	-43.8	-46.9	16.5	0.00e+00	0	40	0	247463936	58	5372
2026-01-07 02:31:03.06	321.38	10.86	-43.8	-46.9	16.5	0.00e+00	0	40	0	249561088	58	5397
2026-01-07 02:31:03.78	321.24	10.86	-43.8	-46.9	16.5	0.00e+00	0	40	0	250609664	58	5386
2026-01-07 02:31:05.07	321.01	10.86	-43.8	-46.9	16.6	0.00e+00	0	40	0	253755392	58	5341
2026-01-07 02:31:05.78	320.88	10.85	-43.7	-46.7	16.7	0.00e+00	0	40	0	254803968	58	5259
2026-01-07 02:31:07.07	320.64	10.85	-43.7	-46.8	16.6	0.00e+00	0	40	0	256901120	58	5282
2026-01-07 02:31:07.79	320.51	10.84	-43.6	-46.6	16.8	0.00e+00	0	40	0	258998272	58	5218
2026-01-07 02:31:09.08	320.27	10.84	-43.5	-46.4	17.0	0.00e+00	0	40	0	261095424	58	5088
2026-01-07 02:31:09.80	320.14	10.83	-43.4	-46.4	17.0	0.00e+00	0	40	0	262144000	58	5087
2026-01-07 02:31:11.09	319.90	10.83	-43.5	-46.5	16.9	0.00e+00	0	40	0	265289728	58	5138
2026-01-07 02:31:11.80	319.77	10.82	-43.6	-46.6	16.8	0.00e+00	0	40	0	266338304	58	5187
2026-01-07 02:31:13.09	319.53	10.82	-43.6	-46.7	16.7	0.00e+00	0	40	0	268435456	58	5234
2026-01-07 02:31:13.81	319.40	10.81	-43.8	-46.8	16.6	0.00e+00	0	40	0	269484032	58	5324
2026-01-07 02:31:15.28	319.13	10.80	-43.9	-47.0	16.4	0.00e+00	0	40	0	272629760	58	5429
2026-01-07 02:31:15.99	319.00	10.80	-44.1	-47.2	16.2	0.00e+00	0	40	0	273678336	58	5552
2026-01-07 02:31:17.28	318.76	10.79	-44.2	-47.4	16.0	0.00e+00	0	40	0	276824064	59	5372
2026-01-07 02:31:17.99	318.63	10.78	-44.3	-47.5	15.9	0.00e+00	0	40	0	277872640	59	5444
2026-01-07 02:31:19.28	318.40	10.77	-44.5	-47.8	15.6	0.00e+00	0	40	0	279969792	59	5627
2026-01-07 02:31:20.00	318.27	10.77	-44.5	-47.8	15.6	0.00e+00	0	40	0	281018368	59	5614
2026-01-07 02:31:21.29	318.03	10.76	-44.6	-47.8	15.6	0.00e+00	0	40	0	284164096	59	5623
2026-01-07 02:31:22.00	317.90	10.75	-44.6	-47.8	15.6	0.00e+00	0	40	0	285212672	59	5634
2026-01-07 02:31:23.30	317.66	10.74	-44.6	-47.8	15.6	0.00e+00	0	40	0	287309824	59	5617
2026-01-07 02:31:24.01	317.53	10.73	-44.5	-47.8	15.6	0.00e+00	0	40	0	289406976	59	5608
2026-01-07 02:31:25.30	317.30	10.72	-44.6	-47.8	15.6	0.00e+00	0	40	0	291504128	59	5623
2026-01-07 02:31:26.02	317.17	10.71	-44.6	-47.9	15.5	0.00e+00	0	40	0	292552704	59	5700
2026-01-07 02:31:27.30	316.93	10.70	-44.6	-47.8	15.6	0.00e+00	0	40	0	294649856	59	5653
2026-01-07 02:31:28.16	316.78	10.69	-44.6	-47.9	15.5	0.00e+00	0	40	0	296747008	59	5658
2026-01-07 02:31:29.31	316.57	10.68	-44.6	-47.9	15.5	0.00e+00	0	40	0	298844160	59	5701
2026-01-07 02:31:30.17	316.41	10.67	-44.6	-48.0	15.5	0.00e+00	0	40	0	300941312	60	5425
2026-01-07 02:31:31.32	316.20	10.66	-44.6	-47.9	15.5	0.00e+00	0	40	0	303038464	60	5401
2026-01-07 02:31:32.18	316.05	10.65	-44.7	-48.0	15.5	0.00e+00	0	40	0	304087040	60	5410
2026-01-07 02:31:33.32	315.84	10.63	-44.7	-48.0	15.5	0.00e+00	0	40	0	306184192	60	5419
2026-01-07 02:31:34.18	315.68	10.62	-44.7	-48.0	15.5	0.00e+00	0	40	0	308281344	60	5419
2026-01-07 02:31:35.33	315.48	10.61	-44.7	-48.1	15.4	0.00e+00	0	40	0	310378496	60	5478
2026-01-07 02:31:36.19	315.32	10.60	-44.6	-47.9	15.5	0.00e+00	0	40	0	311427072	60	5371
2026-01-07 02:31:37.33	315.11	10.59	-44.5	-47.8	15.6	0.00e+00	0	40	0	313524224	60	5314
2026-01-07 02:31:38.20	314.96	10.57	-44.5	-47.8	15.7	0.00e+00	0	40	0	315621376	60	5300
2026-01-07 02:31:39.34	314.75	10.56	-44.6	-47.9	15.5	0.00e+00	0	40	0	317718528	60	5368
2026-01-07 02:31:40.20	314.60	10.55	-44.6	-47.9	15.5	0.00e+00	0	40	0	319815680	60	5374
2026-01-07 02:31:41.34	314.39	10.53	-44.6	-47.9	15.6	0.00e+00	0	40	0	321912832	60	5342
2026-01-07 02:31:42.20	314.24	10.52	-44.6	-48.0	15.4	0.00e+00	0	40	0	322961408	60	5432
2026-01-07 02:31:43.35	314.03	10.50	-44.6	-48.1	15.3	0.00e+00	0	40	0	325058560	60	5486
2026-01-07 02:31:44.21	313.87	10.49	-44.7	-48.3	15.2	0.00e+00	0	40	0	327155712	60	5614
2026-01-07 02:31:45.35	313.67	10.47	-44.8	-48.4	15.0	0.00e+00	0	40	0	329252864	60	5699
2026-01-07 02:31:46.21	313.52	10.46	-44.8	-48.6	14.8	0.00e+00	0	40	0	330301440	60	5790
2026-01-07 02:31:47.36	313.31	10.44	-44.9	-48.8	14.7	0.00e+00	0	40	0	332398592	60	5935
2026-01-07 02:31:48.22	313.16	10.43	-44.8	-48.7	14.7	0.00e+00	0	40	0	334495744	60	5879
2026-01-07 02:31:49.36	312.95	10.41	-44.9	-48.8	14.7	0.00e+00	0	40	0	336592896	60	5925
2026-01-07 02:31:50.23	312.80	10.40	-44.9	-48.8	14.6	0.00e+00	0	40	0	338690048	60	5958
2026-01-07 02:31:51.45	312.58	10.38	-45.0	-48.7	14.7	7.00e-07	0	40	0	340787200	60	5902
2026-01-07 02:31:52.31	312.43	10.36	-44.8	-48.4	15.0	0.00e+00	0	40	0	341835776	60	5677
2026-01-07 02:31:53.54	312.21	10.34	-44.8	-48.4	15.0	0.00e+00	0	40	0	343932928	60	5686
2026-01-07 02:31:54.39	312.06	10.33	-44.8	-48.4	15.0	0.00e+00	0	40	0	346030080	60	5704
2026-01-07 02:31:55.60	311.84	10.31	-44.8	-48.3	15.1	0.00e+00	0	40	0	348127232	60	5631
2026-01-07 02:31:56.46	311.69	10.29	-44.9	-48.4	15.0	0.00e+00	0	40	0	350224384	60	5675
2026-01-07 02:31:57.61	311.49	10.27	-44.7	-48.1	15.2	0.00e+00	0	40	0	352321536	60	5520
2026-01-07 02:31:58.47	311.33	10.26	-44.8	-48.2	15.1	0.00e+00	0	40	0	353370112	60	5584
2026-01-07 02:31:59.61	311.13	10.24	-44.9	-48.3	15.1	7.00e-07	0	40	0	355467264	60	5620
2026-01-07 02:32:00.47	310.98	10.22	-44.9	-48.4	15.0	0.00e+00	0	40	0	357564416	60	5686
2026-01-07 02:32:01.62	310.78	10.20	-44.9	-48.4	15.0	0.00e+00	0	40	0	359661568	60	5661
2026-01-07 02:32:02.48	310.63	10.18	-45.0	-48.4	15.0	0.00e+00	0	40	0	360710144	60	5678
2026-01-07 02:32:03.63	310.42	10.16	-45.1	-48.6	14.8	1.50e-06	0	40	0	362807296	60	5810
2026-01-07 02:32:04.66	310.24	10.14	-45.1	-48.6	14.8	0.00e+00	0	40	0	364904448	60	5827
2026-01-07 02:32:05.66	310.07	10.12	-45.2	-48.7	14.7	0.00e+00	0	40	0	367001600	61	5566
2026-01-07 02:32:06.66	309.89	10.10	-45.2	-48.8	14.7	0.00e+00	0	40	0	369098752	61	5594
2026-01-07 02:32:07.67	309.72	10.08	-45.1	-48.7	14.6	1.50e-06	0	40	0	371195904	61	5583
2026-01-07 02:32:08.67	309.54	10.06	-45.1	-48.8	14.6	0.00e+00	0	40	0	373293056	61	5610
2026-01-07 02:32:09.67	309.37	10.04	-45.1	-48.8	14.6	0.00e+00	0	40	0	374341632	61	5632
2026-01-07 02:32:10.67	309.20	10.02	-45.1	-48.8	14.6	0.00e+00	0	41	0	376438784	61	5612
2026-01-07 02:32:11.68	309.02	9.99	-45.0	-48.6	14.8	0.00e+00	0	40	0	378535936	61	5485
2026-01-07 02:32:12.68	308.85	9.97	-45.0	-48.6	14.8	0.00e+00	0	40	0	380633088	61	5470
2026-01-07 02:32:13.68	308.67	9.95	-45.0	-48.6	14.8	0.00e+00	0	40	0	381681664	61	5472
2026-01-07 02:32:14.69	308.50	9.93	-44.9	-48.4	14.9	0.00e+00	0	40	0	383778816	61	5389
2026-01-07 02:32:15.69	308.33	9.91	-44.9	-48.3	15.1	0.00e+00	0	40	0	385875968	61	5306
2026-01-07 02:32:16.75	308.14	9.88	-44.9	-48.3	15.1	0.00e+00	0	40	0	387973120	61	5319
2026-01-07 02:32:17.64	307.99	9.86	-44.8	-48.2	15.2	0.00e+00	0	40	0	390070272	61	5234
2026-01-07 02:32:19.00	307.76	9.83	-44.9	-48.4	15.0	0.00e+00	0	40	0	392167424	61	5385
2026-01-07 02:32:19.71	307.63	9.81	-44.9	-48.4	15.0	0.00e+00	0	40	0	393216000	61	5366
2026-01-07 02:32:21.24	307.37	9.78	-45.0	-48.5	14.8	0.00e+00	0	40	0	396361728	61	5450
2026-01-07 02:32:21.96	307.25	9.76	-45.1	-48.7	14.7	0.00e+00	0	40	0	397410304	61	5545
2026-01-07 02:32:23.25	307.03	9.73	-45.2	-48.8	14.5	0.00e+00	0	40	0	400556032	61	5649
2026-01-07 02:32:23.96	306.91	9.71	-45.3	-48.9	14.4	7.00e-07	0	40	0	401604608	61	5710
2026-01-07 02:32:25.25	306.69	9.68	-45.3	-49.0	14.4	2.20e-06	0	41	0	403701760	61	5725
2026-01-07 02:32:25.97	306.57	9.66	-45.2	-48.9	14.5	1.50e-06	0	40	0	404750336	61	5670
2026-01-07 02:32:27.26	306.35	9.63	-45.1	-48.8	14.6	7.00e-07	0	40	0	407896064	61	5616
2026-01-07 02:32:27.97	306.23	9.61	-45.0	-48.6	14.7	0.00e+00	0	40	0	408944640	61	5523
2026-01-07 02:32:29.26	306.01	9.58	-44.9	-48.5	14.9	0.00e+00	0	40	0	411041792	61	5410
2026-01-07 02:32:30.07	305.87	9.56	-44.9	-48.4	14.9	0.00e+00	0	40	0	413138944	61	5367
2026-01-07 02:32:31.22	305.68	9.53	-44.8	-48.3	15.0	7.00e-07	0	40	0	415236096	61	5287
2026-01-07 02:32:32.08	305.54	9.51	-44.8	-48.1	15.2	0.00e+00	0	41	0	416284672	61	5200
2026-01-07 02:32:33.22	305.35	9.48	-44.8	-48.2	15.2	0.00e+00	0	40	0	418381824	61	5235
2026-01-07 02:32:34.08	305.20	9.46	-44.8	-48.2	15.1	7.00e-07	0	41	0	420478976	61	5258
2026-01-07 02:32:35.22	305.01	9.43	-44.8	-48.2	15.1	0.00e+00	0	40	0	422576128	61	5264
2026-01-07 02:32:36.09	304.87	9.40	-44.9	-48.3	15.0	0.00e+00	0	41	0	424673280	61	5336
2026-01-07 02:32:37.23	304.68	9.37	-45.0	-48.6	14.8	0.00e+00	0	40	0	426770432	61	5468
2026-01-07 02:32:38.09	304.53	9.35	-45.0	-48.5	14.9	7.00e-07	0	40	0	427819008	61	5412
2026-01-07 02:32:39.35	304.32	9.32	-45.1	-48.7	14.6	0.00e+00	0	40	0	429916160	61	5591
2026-01-07 02:32:40.08	304.20	9.30	-45.1	-48.8	14.6	7.00e-07	0	41	0	432013312	61	5597
2026-01-07 02:32:41.37	303.99	9.26	-45.2	-48.8	14.5	1.50e-06	0	40	0	434110464	61	5647
2026-01-07 02:32:42.09	303.87	9.24	-45.2	-48.8	14.5	0.00e+00	0	41	0	435159040	61	5621
2026-01-07 02:32:43.63	303.62	9.20	-45.2	-48.8	14.6	0.00e+00	0	40	0	438304768	61	5601
2026-01-07 02:32:44.34	303.50	9.18	-45.1	-48.6	14.7	0.00e+00	0	40	0	439353344	61	5510
2026-01-07 02:32:45.63	303.29	9.14	-45.0	-48.5	14.8	7.00e-07	0	40	0	442499072	61	5420
2026-01-07 02:32:46.66	303.12	9.11	-45.0	-48.5	14.8	0.00e+00	0	40	0	443547648	61	5428
2026-01-07 02:32:47.99	302.91	9.07	-44.8	-48.2	15.0	7.00e-07	0	41	0	446693376	61	5278
2026-01-07 02:32:48.71	302.79	9.05	-44.8	-48.2	15.0	0.00e+00	0	40	0	447741952	61	5270
2026-01-07 02:32:50.00	302.58	9.01	-44.7	-48.1	15.1	0.00e+00	0	41	0	449839104	61	5204
2026-01-07 02:32:50.72	302.46	8.99	-46.7	-51.5	12.3	0.00e+00	0	40	0	451936256	63	6824
2026-01-07 02:32:52.01	302.25	8.95	-49.5	-64.7	3.8	1.49e+00	0	40	104	451936256	69	22235
2026-01-07 02:32:52.73	302.14	8.93	-49.6	-64.9	3.8	1.49e+00	0	40	104	451936256	69	22597
2026-01-07 02:32:54.02	301.93	8.89	-49.9	-65.2	3.8	1.49e+00	0	40	104	451936256	70	22010
2026-01-07 02:32:54.73	301.82	8.87	-49.9	-65.2	3.8	1.49e+00	0	40	104	451936256	70	22262
2026-01-07 02:32:56.02	301.61	8.83	-50.0	-65.3	3.8	1.49e+00	0	40	104	451936256	70	22417
2026-01-07 02:32:56.74	301.49	8.81	-50.1	-65.4	3.8	1.49e+00	0	40	104	451936256	70	22549
2026-01-07 02:32:58.03	301.29	8.77	-50.0	-65.4	3.8	1.49e+00	0	41	104	451936256	70	22536
2026-01-07 02:32:58.75	301.17	8.75	-49.8	-65.4	3.8	1.49e+00	0	40	104	451936256	70	22598
2026-01-07 02:33:00.04	300.97	8.71	-50.0	-65.4	3.8	1.49e+00	0	40	104	451936256	71	21434
2026-01-07 02:33:00.75	300.85	8.69	-50.1	-65.4	3.8	1.49e+00	0	40	104	451936256	71	21434
2026-01-07 02:33:02.04	300.65	8.65	-50.1	-65.4	3.8	1.49e+00	0	40	104	451936256	71	21460
2026-01-07 02:33:02.76	300.54	8.62	-50.1	-65.5	3.8	1.49e+00	0	40	104	451936256	71	21547
2026-01-07 02:33:04.05	300.33	8.58	-50.0	-65.4	3.8	1.49e+00	0	40	104	451936256	71	21506
2026-01-07 02:33:04.77	300.22	8.56	-50.0	-65.5	3.8	1.49e+00	0	40	104	451936256	71	21545
2026-01-07 02:33:06.06	300.02	8.52	-50.1	-65.5	3.8	1.49e+00	0	41	104	451936256	71	21582
2026-01-07 02:33:06.78	299.90	8.49	-50.2	-65.5	3.8	1.49e+00	0	41	104	451936256	71	21539
2026-01-07 02:33:08.07	299.70	8.45	-50.2	-65.4	3.8	1.49e+00	0	40	104	451936256	71	21440
2026-01-07 02:33:08.79	299.59	8.43	-50.1	-65.5	3.8	1.49e+00	0	41	104	451936256	71	21534
2026-01-07 02:33:10.08	299.39	8.39	-50.0	-65.4	3.8	1.49e+00	0	40	104	451936256	71	21409
2026-01-07 02:33:10.79	299.28	8.36	-49.9	-65.4	3.8	1.49e+00	0	40	104	451936256	71	21411
2026-01-07 02:33:12.09	299.08	8.32	-49.8	-65.4	3.8	1.49e+00	0	40	104	451936256	71	21354
2026-01-07 02:33:12.80	298.97	8.30	-49.8	-65.4	3.8	1.49e+00	0	40	104	451936256	71	21386
2026-01-07 02:33:14.09	298.77	8.25	-49.8	-65.4	3.8	1.49e+00	0	40	104	451936256	71	21338
2026-01-07 02:33:14.81	298.66	8.23	-49.8	-65.4	3.8	1.49e+00	0	40	104	451936256	71	21310
2026-01-07 02:33:16.10	298.46	8.19	-49.8	-65.4	3.8	1.49e+00	0	40	104	451936256	71	21296
2026-01-07 02:33:16.82	298.35	8.16	-49.8	-65.4	3.8	1.49e+00	0	41	104	451936256	71	21355
2026-01-07 02:33:18.11	298.16	8.12	-49.8	-65.4	3.8	1.49e+00	0	41	104	451936256	71	21277
2026-01-07 02:33:18.83	298.05	8.09	-49.8	-65.4	3.8	1.49e+00	0	40	104	451936256	71	21304
2026-01-07 02:33:20.12	297.85	8.05	-49.8	-65.4	3.8	1.49e+00	0	40	104	451936256	71	21265
2026-01-07 02:33:20.84	297.74	8.03	-49.8	-65.4	3.8	1.49e+00	0	41	104	451936256	71	21311
2026-01-07 02:33:22.13	297.55	7.98	-49.8	-65.4	3.8	1.49e+00	0	41	104	451936256	71	21283
2026-01-07 02:33:22.84	297.44	7.96	-49.8	-65.3	3.8	1.49e+00	0	41	104	451936256	71	21231
2026-01-07 02:33:24.14	297.24	7.91	-49.8	-65.4	3.8	1.49e+00	0	40	104	451936256	71	21268
2026-01-07 02:33:24.85	297.14	7.89	-49.7	-65.4	3.8	1.49e+00	0	40	104	451936256	71	21307
2026-01-07 02:33:26.14	296.94	7.84	-49.7	-65.4	3.8	1.49e+00	0	41	104	451936256	71	21279
2026-01-07 02:33:26.86	296.84	7.82	-49.7	-65.3	3.8	1.49e+00	0	41	104	451936256	71	21221
2026-01-07 02:33:28.15	296.64	7.77	-49.7	-65.4	3.8	1.49e+00	0	41	104	451936256	71	21272
2026-01-07 02:33:28.87	296.54	7.74	-49.7	-65.4	3.8	1.49e+00	0	41	104	451936256	71	21265
2026-01-07 02:33:30.16	296.34	7.70	-49.7	-65.3	3.8	1.49e+00	0	40	104	451936256	71	21217
2026-01-07 02:33:30.88	296.24	7.67	-49.7	-65.3	3.8	1.49e+00	0	41	104	451936256	71	21245
2026-01-07 02:33:32.17	296.05	7.63	-49.7	-65.3	3.8	1.49e+00	0	41	104	451936256	71	21227
2026-01-07 02:33:32.88	295.94	7.60	-49.7	-65.3	3.8	1.49e+00	0	40	104	451936256	71	21244
2026-01-07 02:33:34.17	295.75	7.55	-49.7	-65.4	3.8	1.49e+00	0	41	104	451936256	71	21284
2026-01-07 02:33:34.89	295.65	7.53	-49.7	-65.4	3.8	1.49e+00	0	40	104	451936256	71	21290
2026-01-07 02:33:36.19	295.46	7.48	-49.7	-65.3	3.8	1.49e+00	0	41	104	451936256	71	21205
2026-01-07 02:33:36.90	295.36	7.46	-49.7	-65.3	3.8	1.49e+00	0	41	104	451936256	71	21219
2026-01-07 02:33:38.19	295.17	7.41	-49.7	-65.3	3.8	1.49e+00	0	41	104	451936256	71	21216
2026-01-07 02:33:38.91	295.06	7.38	-49.7	-65.3	3.8	1.49e+00	0	41	104	451936256	71	21246
2026-01-07 02:33:40.20	294.88	7.33	-49.7	-65.4	3.8	1.49e+00	0	41	104	451936256	71	21324
2026-01-07 02:33:40.92	294.77	7.31	-49.7	-65.3	3.8	1.49e+00	0	41	104	451936256	71	21202
2026-01-07 02:33:42.21	294.59	7.26	-49.7	-65.3	3.8	1.49e+00	0	41	104	451936256	71	21245
2026-01-07 02:33:42.93	294.48	7.23	-49.7	-65.3	3.8	1.49e+00	0	41	104	451936256	71	21214
2026-01-07 02:33:44.22	294.30	7.18	-49.7	-65.3	3.8	1.49e+00	0	41	104	451936256	71	21258
2026-01-07 02:33:44.94	294.20	7.16	-49.7	-65.3	3.8	1.49e+00	0	41	104	451936256	71	21216
2026-01-07 02:33:46.23	294.01	7.11	-49.7	-65.3	3.8	1.49e+00	0	40	104	451936256	71	21223
2026-01-07 02:33:46.95	293.91	7.08	-49.8	-65.3	3.8	1.49e+00	0	40	104	451936256	71	21204
2026-01-07 02:33:48.24	293.73	7.03	-49.8	-65.3	3.8	1.49e+00	0	40	104	451936256	71	21190
2026-01-07 02:33:48.95	293.63	7.01	-49.7	-65.3	3.8	1.49e+00	0	40	104	451936256	71	21258
2026-01-07 02:33:50.25	293.45	6.96	-49.8	-65.3	3.8	1.49e+00	0	41	104	451936256	71	21221
2026-01-07 02:33:50.96	293.35	6.93	-49.8	-65.4	3.8	1.49e+00	0	40	104	451936256	71	21287
2026-01-07 02:33:52.25	293.16	6.88	-49.7	-65.4	3.8	1.49e+00	0	41	104	451936256	71	21267
2026-01-07 02:33:52.97	293.06	6.85	-49.8	-65.4	3.8	1.49e+00	0	41	104	451936256	71	21304
2026-01-07 02:33:54.26	292.88	6.80	-49.7	-65.4	3.8	1.49e+00	0	41	104	451936256	71	21282
2026-01-07 02:33:54.98	292.78	6.78	-49.7	-65.3	3.8	1.49e+00	0	40	104	451936256	71	21192
2026-01-07 02:33:56.27	292.61	6.73	-49.8	-65.4	3.8	1.49e+00	0	41	104	451936256	71	21278
2026-01-07 02:33:56.99	292.51	6.70	-49.7	-65.3	3.8	1.49e+00	0	41	104	451936256	71	21176
2026-01-07 02:33:58.28	292.33	6.65	-49.8	-65.4	3.8	1.49e+00	0	41	104	451936256	71	21273
2026-01-07 02:33:59.00	292.23	6.62	-49.8	-65.4	3.8	1.49e+00	0	41	104	451936256	71	21271
2026-01-07 02:34:00.29	292.05	6.57	-49.8	-65.4	3.8	1.49e+00	0	41	104	451936256	71	21289
2026-01-07 02:34:01.00	291.96	6.54	-49.8	-65.3	3.8	1.49e+00	0	41	104	451936256	71	21259
2026-01-07 02:34:02.29	291.78	6.49	-49.7	-65.3	3.8	1.49e+00	0	41	104	451936256	71	21203
2026-01-07 02:34:03.01	291.68	6.46	-49.8	-65.3	3.8	1.49e+00	0	41	104	451936256	71	21234
2026-01-07 02:34:04.30	291.51	6.41	-49.8	-65.3	3.8	1.49e+00	0	41	104	451936256	71	21251
2026-01-07 02:34:05.02	291.41	6.38	-49.8	-65.4	3.8	1.49e+00	0	41	104	451936256	71	21319
2026-01-07 02:34:06.31	291.24	6.33	-49.8	-65.4	3.8	1.49e+00	0	41	104	451936256	71	21286
2026-01-07 02:34:07.03	291.14	6.30	-49.7	-65.4	3.8	1.49e+00	0	40	104	451936256	71	21288
2026-01-07 02:34:08.32	290.97	6.25	-49.8	-65.4	3.8	1.49e+00	0	41	104	451936256	71	21347
2026-01-07 02:34:09.04	290.87	6.23	-49.7	-65.3	3.8	1.49e+00	0	40	104	451936256	71	21206
2026-01-07 02:34:10.33	290.70	6.17	-49.7	-65.3	3.8	1.49e+00	0	41	104	451936256	71	21259
2026-01-07 02:34:11.05	290.60	6.14	-49.8	-65.3	3.8	1.49e+00	0	41	104	451936256	71	21202
2026-01-07 02:34:12.34	290.43	6.09	-49.8	-65.4	3.8	1.49e+00	0	41	104	451936256	71	21305
2026-01-07 02:34:13.05	290.34	6.06	-49.8	-65.3	3.8	1.49e+00	0	41	104	451936256	71	21199
2026-01-07 02:34:14.35	290.17	6.01	-49.8	-65.3	3.8	1.49e+00	0	40	104	451936256	71	21243
2026-01-07 02:34:15.06	290.07	5.98	-49.8	-65.4	3.8	1.49e+00	0	41	104	451936256	71	21278
2026-01-07 02:34:16.35	289.90	5.93	-49.8	-65.3	3.8	1.49e+00	0	41	104	451936256	71	21164
2026-01-07 02:34:17.07	289.81	5.90	-49.8	-65.3	3.8	1.49e+00	0	41	104	451936256	71	21224
2026-01-07 02:34:18.36	289.64	5.85	-49.8	-65.3	3.8	1.49e+00	0	41	104	451936256	71	21200
2026-01-07 02:34:19.08	289.55	5.82	-49.8	-65.3	3.8	1.49e+00	0	40	104	451936256	71	21259
2026-01-07 02:34:20.37	289.38	5.77	-49.8	-65.4	3.8	1.49e+00	0	41	104	451936256	71	21298
2026-01-07 02:34:21.09	289.29	5.74	-49.8	-65.4	3.8	1.49e+00	0	41	104	451936256	71	21317
2026-01-07 02:34:22.38	289.12	5.69	-49.8	-65.4	3.8	1.49e+00	0	41	104	451936256	71	21266
2026-01-07 02:34:23.10	289.03	5.66	-49.8	-65.4	3.8	1.49e+00	0	41	104	451936256	71	21274
2026-01-07 02:34:24.39	288.86	5.60	-49.8	-65.4	3.8	1.49e+00	0	41	104	451936256	71	21264
2026-01-07 02:34:25.11	288.77	5.58	-49.7	-65.3	3.8	1.49e+00	0	41	104	451936256	71	21227
2026-01-07 02:34:26.40	288.61	5.52	-49.8	-65.4	3.8	1.49e+00	0	41	104	451936256	71	21262
2026-01-07 02:34:27.11	288.52	5.49	-49.7	-65.4	3.8	1.49e+00	0	41	104	451936256	71	21267
2026-01-07 02:34:28.40	288.35	5.44	-49.8	-65.3	3.8	1.49e+00	0	41	104	451936256	71	21247
2026-01-07 02:34:29.12	288.26	5.41	-49.8	-65.3	3.8	1.49e+00	0	41	104	451936256	71	21180
2026-01-07 02:34:30.42	288.10	5.36	-49.8	-65.3	3.8	1.49e+00	0	41	104	451936256	71	21241
2026-01-07 02:34:31.13	288.01	5.33	-49.7	-65.4	3.8	1.49e+00	0	41	104	451936256	71	21300
2026-01-07 02:34:32.42	287.85	5.27	-49.8	-65.3	3.8	1.49e+00	0	41	104	451936256	71	21246
2026-01-07 02:34:33.14	287.76	5.24	-49.8	-65.4	3.8	1.49e+00	0	41	104	451936256	71	21305
2026-01-07 02:34:34.43	287.60	5.19	-49.8	-65.3	3.8	1.49e+00	0	41	104	451936256	71	21260
2026-01-07 02:34:35.15	287.51	5.16	-49.8	-65.3	3.8	1.49e+00	0	41	104	451936256	71	21222
2026-01-07 02:34:36.44	287.35	5.11	-49.8	-65.4	3.8	1.49e+00	0	41	104	451936256	71	21292
2026-01-07 02:34:37.16	287.26	5.08	-49.8	-65.3	3.8	1.49e+00	0	41	104	451936256	71	21242
2026-01-07 02:34:38.45	287.10	5.02	-49.7	-65.3	3.8	1.49e+00	0	41	104	451936256	71	21258
2026-01-07 02:34:39.16	287.01	4.99	-49.8	-65.4	3.8	1.49e+00	0	41	104	451936256	71	21343

#Closed at: 2026-01-07 02:34:40
#Recorded file [451 MB]: D:/Data/31040_260107_052704.dat