passes_logs/2026/01/07/T1/T1__20260107_103637_NOAA_20_JPSS-1_rec.log

#Pass ID: 20260107_103637_NOAA 20 (JPSS-1)
#Satellite: NOAA 20 (JPSS-1)
#Configuration: NOAA 20
#almurnet v.1.7.20251203
#Start time: 2026-01-07 10:36:37

#Version: 2.0.20230620
#Station: T1
#Location: 37.570604 lon 55.790049 lat
#TLE: 1 43013U 17073A   26006.30790171  .00000126  00000+0  80695-4 0  9991
#TLE: 2 43013  98.7629 307.3394 0001808  51.8724 308.2615 14.19533762421505

#Time	Az	El	Level	Level2	SNR	BER	BlckErr	Temp	State	Recorded	gain1	gain2
2026-01-07 10:36:37.50	181.95	5.03	-49.8	-65.5	3.8	1.49e+00	0	39	0	0	71	21610
2026-01-07 10:36:38.50	181.99	5.10	-49.2	-65.1	3.8	1.49e+00	0	39	104	0	70	21838
2026-01-07 10:36:39.50	182.03	5.17	-49.2	-65.1	3.8	1.49e+00	0	39	104	0	70	21880
2026-01-07 10:36:40.50	182.07	5.24	-49.2	-65.1	3.8	1.49e+00	0	39	104	0	70	21878
2026-01-07 10:36:41.51	182.11	5.31	-49.3	-65.1	3.8	1.49e+00	0	39	104	0	70	21906
2026-01-07 10:36:42.51	182.15	5.38	-49.1	-65.1	3.8	1.49e+00	0	39	104	0	70	22001
2026-01-07 10:36:43.51	182.19	5.45	-49.2	-65.1	3.8	1.49e+00	0	40	104	0	70	21988
2026-01-07 10:36:44.51	182.23	5.52	-49.2	-65.2	3.8	1.49e+00	0	40	104	0	70	22120
2026-01-07 10:36:45.52	182.27	5.59	-49.3	-65.2	3.8	1.49e+00	0	40	104	0	70	22021
2026-01-07 10:36:46.52	182.31	5.66	-49.2	-65.1	3.8	1.49e+00	0	40	104	0	70	22006
2026-01-07 10:36:47.52	182.35	5.74	-49.2	-65.1	3.8	1.49e+00	0	40	104	0	70	21987
2026-01-07 10:36:48.53	182.39	5.81	-49.2	-65.1	3.8	1.49e+00	0	40	104	0	70	21837
2026-01-07 10:36:49.53	182.44	5.88	-49.2	-65.1	3.8	1.49e+00	0	39	104	0	70	21817
2026-01-07 10:36:50.53	182.48	5.95	-49.2	-65.1	3.8	1.49e+00	0	40	104	0	70	21855
2026-01-07 10:36:51.54	182.52	6.02	-49.2	-65.0	3.8	1.49e+00	0	40	104	0	70	21725
2026-01-07 10:36:52.54	182.56	6.10	-49.2	-65.1	3.8	1.49e+00	0	40	104	0	70	21847
2026-01-07 10:36:53.54	182.60	6.17	-49.2	-65.1	3.8	1.49e+00	0	40	104	0	70	21976
2026-01-07 10:36:54.55	182.65	6.24	-49.2	-65.2	3.8	1.49e+00	0	40	104	0	70	22087
2026-01-07 10:36:55.55	182.69	6.31	-49.2	-65.1	3.8	1.49e+00	0	40	104	0	70	21850
2026-01-07 10:36:56.55	182.73	6.39	-49.2	-64.9	3.8	1.49e+00	0	40	104	0	70	21462
2026-01-07 10:36:57.56	182.78	6.46	-49.2	-64.7	3.8	1.49e+00	0	40	104	0	70	20803
2026-01-07 10:36:58.56	182.82	6.53	-49.1	-64.2	3.8	1.49e+00	0	40	104	0	70	19821
2026-01-07 10:36:59.56	182.86	6.61	-49.1	-63.8	3.8	1.49e+00	0	40	104	0	70	18829
2026-01-07 10:37:00.54	182.91	6.68	-49.1	-63.6	3.8	1.49e+00	0	40	104	0	70	18315
2026-01-07 10:37:01.54	182.95	6.75	-49.1	-63.3	3.9	1.49e+00	0	40	104	0	70	17776
2026-01-07 10:37:02.54	182.99	6.83	-49.1	-63.4	3.8	1.49e+00	0	40	104	0	70	18003
2026-01-07 10:37:03.55	183.04	6.90	-49.1	-63.8	3.8	1.49e+00	0	40	104	0	70	18862
2026-01-07 10:37:04.55	183.08	6.98	-49.1	-64.5	3.8	1.49e+00	0	40	104	0	70	20405
2026-01-07 10:37:05.56	183.13	7.05	-49.2	-65.0	3.8	1.49e+00	0	40	104	0	70	21526
2026-01-07 10:37:06.56	183.17	7.13	-49.2	-64.7	3.8	1.49e+00	0	40	104	0	70	20927
2026-01-07 10:37:07.57	183.22	7.20	-49.1	-63.2	3.9	1.49e+00	0	40	104	0	70	17502
2026-01-07 10:37:08.57	183.27	7.28	-48.9	-60.6	4.5	1.32e+00	0	40	0	0	69	13758
2026-01-07 10:37:09.57	183.31	7.35	-48.6	-58.0	6.0	5.36e-01	0	40	0	2097152	69	10246
2026-01-07 10:37:10.58	183.36	7.43	-48.2	-56.0	7.7	1.68e-01	0	40	0	3145728	68	8618
2026-01-07 10:37:11.58	183.40	7.51	-47.5	-53.9	9.7	4.22e-02	0	41	0	5242880	67	7195
2026-01-07 10:37:12.59	183.45	7.58	-47.0	-52.6	11.1	3.38e-03	0	40	0	7340032	66	6531
2026-01-07 10:37:13.59	183.50	7.66	-46.5	-51.3	12.4	4.39e-04	0	40	0	9437184	65	5957
2026-01-07 10:37:14.59	183.54	7.74	-46.0	-50.4	13.3	5.72e-05	0	41	0	11534336	64	5720
2026-01-07 10:37:15.60	183.59	7.81	-45.8	-49.9	14.0	3.80e-06	0	40	0	12582912	63	5680
2026-01-07 10:37:16.60	183.64	7.89	-45.6	-49.5	14.3	7.00e-07	0	40	0	14680064	63	5464
2026-01-07 10:37:17.60	183.69	7.97	-45.5	-49.3	14.5	7.00e-07	0	41	0	16777216	63	5330
2026-01-07 10:37:18.61	183.73	8.05	-45.5	-49.3	14.5	0.00e+00	0	40	0	18874368	62	5656
2026-01-07 10:37:19.61	183.78	8.12	-45.7	-49.7	14.2	1.50e-06	0	41	0	20971520	62	5857
2026-01-07 10:37:20.62	183.83	8.20	-45.9	-50.0	13.8	2.20e-06	0	41	0	22020096	62	6120
2026-01-07 10:37:21.62	183.88	8.28	-46.3	-50.8	13.0	7.60e-06	0	41	0	24117248	63	6291
2026-01-07 10:37:22.63	183.93	8.36	-46.6	-51.5	12.3	1.14e-04	0	41	0	26214400	63	6812
2026-01-07 10:37:23.63	183.98	8.44	-46.9	-52.5	11.3	5.81e-04	0	41	0	28311552	64	7205
2026-01-07 10:37:24.63	184.03	8.52	-47.4	-53.5	10.1	3.03e-03	0	41	0	30408704	65	7700
2026-01-07 10:37:25.64	184.08	8.60	-47.8	-54.9	8.7	2.40e-02	0	41	0	31457280	66	8521
2026-01-07 10:37:26.64	184.13	8.68	-48.1	-56.2	7.4	7.97e-02	0	41	0	33554432	66	9930
2026-01-07 10:37:27.65	184.18	8.76	-48.3	-57.5	6.2	1.87e-01	0	41	0	35651584	67	10826
2026-01-07 10:37:28.65	184.23	8.84	-48.5	-58.9	5.3	4.92e-01	0	41	0	37748736	67	12746
2026-01-07 10:37:29.65	184.28	8.92	-48.7	-60.0	4.7	7.80e-01	0	41	0	39845888	67	14412
2026-01-07 10:37:30.66	184.33	9.00	-48.9	-60.9	4.4	1.07e+00	0	41	0	40894464	68	15219
2026-01-07 10:37:31.66	184.38	9.08	-48.9	-61.5	4.2	1.35e+00	0	41	0	41943040	68	16214
2026-01-07 10:37:32.66	184.43	9.16	-48.5	-57.7	6.2	9.88e-01	0	41	0	41943040	68	10417
2026-01-07 10:37:33.66	184.48	9.24	-49.0	-62.3	4.0	3.34e-01	0	41	0	44040192	68	17862
2026-01-07 10:37:34.66	184.54	9.32	-48.8	-60.2	4.6	1.49e+00	0	41	0	44040192	68	13935
2026-01-07 10:37:35.67	184.59	9.40	-47.7	-54.5	9.0	2.11e-01	0	41	0	45088768	67	7708
2026-01-07 10:37:36.67	184.64	9.48	-47.7	-54.4	9.3	2.48e-02	0	41	0	47185920	67	7560
2026-01-07 10:37:37.67	184.69	9.57	-47.6	-54.1	9.7	1.81e-02	0	41	0	49283072	67	7325
2026-01-07 10:37:38.67	184.75	9.65	-47.6	-54.0	9.8	8.75e-03	0	41	0	51380224	66	7655
2026-01-07 10:37:39.67	184.80	9.73	-47.5	-54.0	9.7	1.18e-02	0	41	0	53477376	66	7669
2026-01-07 10:37:40.67	184.85	9.81	-47.5	-54.2	9.6	1.21e-02	0	41	0	54525952	66	7840
2026-01-07 10:37:41.68	184.91	9.90	-47.2	-53.3	10.5	8.52e-03	0	41	0	56623104	66	7109
2026-01-07 10:37:42.68	184.96	9.98	-47.2	-53.4	10.4	2.41e-03	0	41	0	58720256	65	7544
2026-01-07 10:37:43.68	185.02	10.06	-47.1	-52.9	10.8	2.47e-03	0	41	0	60817408	65	7154
2026-01-07 10:37:44.68	185.07	10.15	-46.8	-52.1	11.6	7.64e-04	0	41	0	62914560	65	6527
2026-01-07 10:37:45.68	185.13	10.23	-46.9	-52.4	11.4	5.19e-04	0	41	0	63963136	65	6748
2026-01-07 10:37:46.68	185.18	10.32	-46.5	-51.5	12.3	4.17e-04	0	41	0	66060288	65	6071
2026-01-07 10:37:47.69	185.24	10.40	-46.7	-51.7	12.1	4.68e-04	0	41	0	68157440	65	6235
2026-01-07 10:37:48.69	185.29	10.49	-46.9	-52.0	11.9	4.10e-04	0	41	0	70254592	65	6492
2026-01-07 10:37:49.69	185.35	10.57	-46.9	-52.2	11.8	4.00e-04	0	41	0	71303168	65	6590
2026-01-07 10:37:50.69	185.41	10.66	-46.7	-51.4	12.5	1.72e-04	0	41	0	73400320	65	6045
2026-01-07 10:37:51.69	185.46	10.74	-46.8	-51.7	12.1	1.91e-04	0	41	0	75497472	65	6262
2026-01-07 10:37:52.70	185.52	10.83	-46.5	-51.1	12.8	1.31e-04	0	41	0	77594624	64	6142
2026-01-07 10:37:53.70	185.58	10.92	-46.5	-51.0	12.9	9.00e-05	0	41	0	79691776	64	6101
2026-01-07 10:37:54.70	185.64	11.00	-46.4	-50.7	13.2	6.71e-05	0	41	0	81788928	64	5913
2026-01-07 10:37:55.70	185.69	11.09	-46.3	-50.5	13.4	3.58e-05	0	41	0	82837504	64	5778
2026-01-07 10:37:56.70	185.75	11.18	-46.2	-50.4	13.6	1.90e-05	0	41	0	84934656	64	5677
2026-01-07 10:37:57.70	185.81	11.26	-46.1	-50.2	13.7	1.06e-05	0	41	0	87031808	63	5881
2026-01-07 10:37:58.70	185.87	11.35	-45.8	-49.8	14.1	3.00e-06	0	41	0	89128960	63	5607
2026-01-07 10:37:59.70	185.93	11.44	-45.7	-49.6	14.2	7.00e-07	0	42	0	90177536	63	5496
2026-01-07 10:38:00.70	185.99	11.53	-45.5	-49.2	14.8	0.00e+00	0	41	0	92274688	63	5249
2026-01-07 10:38:01.70	186.05	11.62	-45.3	-49.0	15.1	0.00e+00	0	41	0	94371840	62	5405
2026-01-07 10:38:02.71	186.11	11.71	-45.4	-49.1	14.9	0.00e+00	0	41	0	96468992	62	5498
2026-01-07 10:38:03.71	186.17	11.80	-45.4	-49.0	15.1	0.00e+00	0	41	0	98566144	62	5423
2026-01-07 10:38:04.71	186.23	11.88	-45.3	-48.9	15.1	0.00e+00	0	41	0	99614720	62	5353
2026-01-07 10:38:05.71	186.30	11.97	-45.1	-48.5	15.5	0.00e+00	0	41	0	101711872	62	5129
2026-01-07 10:38:06.72	186.36	12.07	-45.0	-48.3	15.7	0.00e+00	0	41	0	103809024	62	4996
2026-01-07 10:38:07.72	186.42	12.16	-45.0	-48.3	15.7	0.00e+00	0	41	0	105906176	61	5332
2026-01-07 10:38:08.72	186.48	12.25	-44.9	-48.1	15.9	0.00e+00	0	42	0	108003328	61	5168
2026-01-07 10:38:09.72	186.55	12.34	-44.7	-47.8	16.1	0.00e+00	0	41	0	109051904	61	5040
2026-01-07 10:38:10.72	186.61	12.43	-44.8	-48.0	16.1	0.00e+00	0	41	0	111149056	61	5101
2026-01-07 10:38:11.72	186.67	12.52	-44.8	-48.0	16.1	0.00e+00	0	41	0	113246208	61	5115
2026-01-07 10:38:12.72	186.74	12.61	-44.6	-47.7	16.3	0.00e+00	0	41	0	115343360	61	4969
2026-01-07 10:38:13.73	186.80	12.70	-44.5	-47.5	16.5	0.00e+00	0	41	0	116391936	60	5126
2026-01-07 10:38:14.73	186.87	12.80	-44.4	-47.4	16.6	0.00e+00	0	41	0	118489088	60	5085
2026-01-07 10:38:15.73	186.93	12.89	-44.3	-47.3	16.7	0.00e+00	0	42	0	120586240	60	4987
2026-01-07 10:38:16.73	187.00	12.98	-44.4	-47.4	16.6	0.00e+00	0	42	0	122683392	60	5072
2026-01-07 10:38:17.73	187.06	13.08	-44.4	-47.4	16.5	0.00e+00	0	41	0	124780544	60	5085
2026-01-07 10:38:18.74	187.13	13.17	-44.3	-47.2	16.8	0.00e+00	0	42	0	125829120	60	4954
2026-01-07 10:38:19.74	187.20	13.27	-44.2	-47.1	16.9	0.00e+00	0	41	0	127926272	60	4917
2026-01-07 10:38:20.74	187.27	13.36	-44.0	-46.8	17.2	0.00e+00	0	41	0	130023424	60	4756
2026-01-07 10:38:21.74	187.33	13.45	-44.1	-46.9	17.1	0.00e+00	0	41	0	132120576	60	4796
2026-01-07 10:38:22.75	187.40	13.55	-44.0	-46.9	17.1	0.00e+00	0	42	0	134217728	60	4780
2026-01-07 10:38:23.75	187.47	13.65	-44.0	-46.9	17.2	0.00e+00	0	41	0	135266304	60	4762
2026-01-07 10:38:24.75	187.54	13.74	-44.0	-46.8	17.2	0.00e+00	0	41	0	137363456	59	5028
2026-01-07 10:38:25.75	187.61	13.84	-43.9	-46.8	17.2	0.00e+00	0	41	0	139460608	59	4999
2026-01-07 10:38:26.75	187.68	13.93	-43.9	-46.8	17.2	0.00e+00	0	41	0	141557760	59	4990
2026-01-07 10:38:27.76	187.75	14.03	-43.9	-46.7	17.2	0.00e+00	0	42	0	143654912	59	4971
2026-01-07 10:38:28.76	187.82	14.13	-43.9	-46.7	17.3	0.00e+00	0	42	0	144703488	59	4946
2026-01-07 10:38:29.76	187.89	14.23	-44.0	-46.8	17.2	0.00e+00	0	41	0	146800640	59	5034
2026-01-07 10:38:30.77	187.96	14.33	-43.9	-46.7	17.2	0.00e+00	0	41	0	148897792	59	4977
2026-01-07 10:38:31.77	188.04	14.42	-43.9	-46.7	17.3	0.00e+00	0	42	0	150994944	59	4979
2026-01-07 10:38:32.77	188.11	14.52	-43.9	-46.8	17.2	0.00e+00	0	42	0	153092096	59	4997
2026-01-07 10:38:33.77	188.18	14.62	-43.9	-46.7	17.3	0.00e+00	0	41	0	154140672	59	4967
2026-01-07 10:38:34.78	188.26	14.72	-43.9	-46.7	17.3	0.00e+00	0	41	0	156237824	59	4931
2026-01-07 10:38:35.78	188.33	14.82	-43.8	-46.6	17.4	0.00e+00	0	42	0	158334976	59	4905
2026-01-07 10:38:36.78	188.40	14.92	-43.8	-46.6	17.4	0.00e+00	0	42	0	160432128	59	4877
2026-01-07 10:38:37.78	188.48	15.02	-43.8	-46.5	17.5	0.00e+00	0	42	0	161480704	59	4832
2026-01-07 10:38:38.77	188.55	15.12	-43.7	-46.5	17.5	0.00e+00	0	42	0	163577856	59	4817
2026-01-07 10:38:39.77	188.63	15.22	-43.8	-46.5	17.5	0.00e+00	0	42	0	165675008	59	4835
2026-01-07 10:38:40.77	188.71	15.33	-43.7	-46.4	17.5	0.00e+00	0	42	0	167772160	59	4808
2026-01-07 10:38:41.77	188.78	15.43	-43.7	-46.4	17.6	0.00e+00	0	42	0	169869312	59	4783
2026-01-07 10:38:42.78	188.86	15.53	-43.7	-46.4	17.6	0.00e+00	0	42	0	170917888	59	4768
2026-01-07 10:38:43.78	188.94	15.63	-43.8	-46.5	17.5	0.00e+00	0	41	0	173015040	59	4821
2026-01-07 10:38:44.78	189.02	15.74	-43.6	-46.2	17.7	0.00e+00	0	42	0	175112192	59	4695
2026-01-07 10:38:45.78	189.10	15.84	-43.5	-46.2	17.8	0.00e+00	0	42	0	177209344	59	4668
2026-01-07 10:38:46.78	189.18	15.94	-43.6	-46.2	17.8	0.00e+00	0	42	0	179306496	59	4672
2026-01-07 10:38:47.78	189.26	16.05	-43.5	-46.2	17.9	0.00e+00	0	42	0	180355072	59	4660
2026-01-07 10:38:48.78	189.34	16.15	-43.5	-46.1	17.9	0.00e+00	0	41	0	182452224	59	4616
2026-01-07 10:38:49.78	189.42	16.26	-43.6	-46.2	17.9	0.00e+00	0	42	0	184549376	59	4665
2026-01-07 10:38:50.78	189.50	16.36	-43.5	-46.0	18.0	0.00e+00	0	42	0	186646528	59	4591
2026-01-07 10:38:51.78	189.58	16.47	-43.5	-46.1	18.0	0.00e+00	0	42	0	188743680	59	4645
2026-01-07 10:38:52.79	189.66	16.58	-43.4	-46.0	18.1	0.00e+00	0	42	0	189792256	58	4833
2026-01-07 10:38:53.79	189.75	16.68	-43.5	-46.0	18.1	0.00e+00	0	42	0	191889408	58	4854
2026-01-07 10:38:54.79	189.83	16.79	-43.5	-46.0	18.1	0.00e+00	0	42	0	193986560	58	4856
2026-01-07 10:38:55.79	189.92	16.90	-43.4	-46.0	18.1	0.00e+00	0	42	0	196083712	58	4816
2026-01-07 10:38:56.79	190.00	17.01	-43.3	-45.9	18.2	0.00e+00	0	42	0	197132288	58	4799
2026-01-07 10:38:57.80	190.09	17.12	-43.2	-45.7	18.3	0.00e+00	0	42	0	199229440	58	4699
2026-01-07 10:38:58.80	190.17	17.23	-43.2	-45.8	18.4	0.00e+00	0	41	0	201326592	58	4711
2026-01-07 10:38:59.80	190.26	17.34	-43.2	-45.7	18.4	0.00e+00	0	42	0	203423744	58	4677
2026-01-07 10:39:00.80	190.35	17.44	-43.2	-45.7	18.4	0.00e+00	0	42	0	205520896	58	4684
2026-01-07 10:39:01.80	190.44	17.55	-43.3	-45.8	18.3	0.00e+00	0	42	0	206569472	58	4731
2026-01-07 10:39:02.80	190.52	17.67	-43.2	-45.7	18.5	0.00e+00	0	42	0	208666624	58	4653
2026-01-07 10:39:03.81	190.61	17.78	-43.1	-45.6	18.5	0.00e+00	0	42	0	210763776	58	4636
2026-01-07 10:39:04.81	190.70	17.89	-43.2	-45.7	18.5	0.00e+00	0	42	0	212860928	58	4654
2026-01-07 10:39:05.81	190.79	18.00	-43.1	-45.5	18.6	0.00e+00	0	42	0	214958080	58	4576
2026-01-07 10:39:06.82	190.89	18.11	-43.1	-45.5	18.6	0.00e+00	0	42	0	216006656	58	4583
2026-01-07 10:39:07.82	190.98	18.23	-43.1	-45.6	18.5	0.00e+00	0	42	0	218103808	58	4636
2026-01-07 10:39:08.82	191.07	18.34	-43.1	-45.5	18.6	0.00e+00	0	42	0	220200960	58	4581
2026-01-07 10:39:09.82	191.16	18.45	-43.1	-45.5	18.6	0.00e+00	0	42	0	222298112	58	4577
2026-01-07 10:39:10.82	191.26	18.57	-43.1	-45.5	18.6	0.00e+00	0	42	0	224395264	58	4581
2026-01-07 10:39:11.82	191.35	18.68	-43.0	-45.5	18.7	0.00e+00	0	42	0	225443840	58	4557
2026-01-07 10:39:12.82	191.45	18.80	-43.0	-45.5	18.6	0.00e+00	0	42	0	227540992	58	4550
2026-01-07 10:39:13.83	191.54	18.91	-43.0	-45.5	18.7	0.00e+00	0	42	0	229638144	58	4552
2026-01-07 10:39:14.83	191.64	19.03	-43.2	-45.6	18.6	0.00e+00	0	42	0	231735296	58	4610
2026-01-07 10:39:15.83	191.74	19.15	-43.1	-45.5	18.7	0.00e+00	0	42	0	233832448	58	4557
2026-01-07 10:39:16.83	191.84	19.26	-43.1	-45.5	18.7	0.00e+00	0	42	0	234881024	58	4553
2026-01-07 10:39:17.84	191.94	19.38	-43.0	-45.4	18.7	0.00e+00	0	42	0	236978176	58	4540
2026-01-07 10:39:18.84	192.04	19.50	-43.1	-45.6	18.6	0.00e+00	0	42	0	239075328	58	4605
2026-01-07 10:39:19.84	192.14	19.62	-43.1	-45.6	18.6	0.00e+00	0	42	0	241172480	58	4606
2026-01-07 10:39:20.84	192.24	19.74	-43.1	-45.6	18.6	0.00e+00	0	42	0	242221056	58	4611
2026-01-07 10:39:21.84	192.34	19.86	-43.2	-45.7	18.5	0.00e+00	0	42	0	244318208	58	4658
2026-01-07 10:39:22.83	192.44	19.98	-43.3	-45.8	18.4	0.00e+00	0	42	0	246415360	58	4717
2026-01-07 10:39:23.84	192.54	20.10	-43.2	-45.7	18.5	0.00e+00	0	42	0	248512512	58	4671
2026-01-07 10:39:24.84	192.65	20.22	-43.2	-45.6	18.6	0.00e+00	0	42	0	250609664	58	4614
2026-01-07 10:39:25.84	192.75	20.34	-43.3	-45.7	18.5	0.00e+00	0	42	0	251658240	58	4668
2026-01-07 10:39:26.84	192.86	20.46	-43.3	-45.7	18.5	0.00e+00	0	42	0	253755392	58	4676
2026-01-07 10:39:27.84	192.96	20.58	-43.4	-45.8	18.4	0.00e+00	0	42	0	255852544	58	4735
2026-01-07 10:39:28.84	193.07	20.71	-43.4	-45.8	18.4	0.00e+00	0	42	0	257949696	58	4752
2026-01-07 10:39:29.84	193.18	20.83	-43.3	-45.8	18.4	0.00e+00	0	42	0	260046848	58	4713
2026-01-07 10:39:30.84	193.29	20.95	-43.3	-45.7	18.4	0.00e+00	0	42	0	261095424	58	4703
2026-01-07 10:39:31.85	193.40	21.08	-43.4	-45.8	18.4	0.00e+00	0	42	0	263192576	58	4734
2026-01-07 10:39:32.84	193.51	21.20	-43.2	-45.7	18.5	0.00e+00	0	42	0	265289728	58	4662
2026-01-07 10:39:33.85	193.62	21.33	-43.2	-45.6	18.7	0.00e+00	0	42	0	267386880	58	4599
2026-01-07 10:39:34.85	193.73	21.46	-43.1	-45.5	18.7	0.00e+00	0	42	0	269484032	58	4563
2026-01-07 10:39:35.85	193.85	21.58	-43.2	-45.6	18.7	0.00e+00	0	42	0	270532608	58	4603
2026-01-07 10:39:36.86	193.96	21.71	-43.1	-45.4	18.8	0.00e+00	0	42	0	272629760	58	4540
2026-01-07 10:39:37.86	194.08	21.84	-43.0	-45.3	18.9	0.00e+00	0	42	0	274726912	58	4470
2026-01-07 10:39:38.86	194.19	21.97	-42.9	-45.3	18.9	0.00e+00	0	42	0	276824064	57	4722
2026-01-07 10:39:39.87	194.31	22.10	-42.8	-45.1	19.1	0.00e+00	0	42	0	278921216	57	4632
2026-01-07 10:39:40.87	194.43	22.23	-42.9	-45.2	19.0	0.00e+00	0	42	0	279969792	57	4657
2026-01-07 10:39:41.87	194.55	22.35	-42.8	-45.1	19.1	0.00e+00	0	42	0	282066944	57	4619
2026-01-07 10:39:42.87	194.67	22.49	-42.8	-45.2	19.1	0.00e+00	0	42	0	284164096	57	4653
2026-01-07 10:39:43.88	194.79	22.62	-42.9	-45.2	19.0	0.00e+00	0	42	0	286261248	57	4695
2026-01-07 10:39:44.88	194.91	22.75	-42.9	-45.2	19.0	0.00e+00	0	42	0	287309824	57	4691
2026-01-07 10:39:45.88	195.04	22.88	-42.8	-45.1	19.1	0.00e+00	0	42	0	289406976	57	4651
2026-01-07 10:39:46.88	195.16	23.01	-42.9	-45.2	19.1	0.00e+00	0	42	0	291504128	57	4664
2026-01-07 10:39:47.88	195.28	23.15	-42.9	-45.3	18.9	0.00e+00	0	42	0	293601280	57	4730
2026-01-07 10:39:48.87	195.41	23.28	-42.9	-45.2	19.0	0.00e+00	0	42	0	295698432	57	4689
2026-01-07 10:39:49.87	195.54	23.41	-42.9	-45.3	19.0	0.00e+00	0	42	0	296747008	57	4714
2026-01-07 10:39:50.87	195.66	23.55	-43.0	-45.3	18.9	0.00e+00	0	42	0	298844160	57	4751
2026-01-07 10:39:51.87	195.79	23.68	-43.0	-45.4	18.9	0.00e+00	0	42	0	300941312	57	4766
2026-01-07 10:39:52.87	195.92	23.82	-43.0	-45.3	19.0	0.00e+00	0	42	0	303038464	57	4722
2026-01-07 10:39:53.87	196.06	23.95	-43.1	-45.5	18.8	0.00e+00	0	42	0	305135616	57	4824
2026-01-07 10:39:54.87	196.19	24.09	-43.0	-45.3	18.9	0.00e+00	0	42	0	306184192	57	4753
2026-01-07 10:39:55.88	196.32	24.23	-43.1	-45.5	18.8	0.00e+00	0	42	0	308281344	57	4836
2026-01-07 10:39:56.88	196.46	24.37	-43.2	-45.6	18.7	0.00e+00	0	42	0	310378496	57	4892
2026-01-07 10:39:57.88	196.59	24.51	-43.3	-45.7	18.6	0.00e+00	0	42	0	312475648	57	4946
2026-01-07 10:39:58.89	196.73	24.65	-43.4	-45.8	18.5	0.00e+00	0	42	0	314572800	57	5004
2026-01-07 10:39:59.89	196.87	24.79	-43.5	-45.9	18.4	0.00e+00	0	42	0	315621376	57	5064
2026-01-07 10:40:00.89	197.01	24.93	-43.5	-45.9	18.4	0.00e+00	0	42	0	317718528	57	5099
2026-01-07 10:40:01.89	197.15	25.07	-43.6	-46.0	18.3	0.00e+00	0	42	0	319815680	57	5127
2026-01-07 10:40:02.89	197.29	25.21	-43.6	-46.0	18.3	0.00e+00	0	42	0	321912832	57	5143
2026-01-07 10:40:03.89	197.43	25.35	-43.6	-46.0	18.3	0.00e+00	0	42	0	322961408	57	5154
2026-01-07 10:40:04.89	197.58	25.49	-43.6	-46.0	18.3	0.00e+00	0	42	0	325058560	57	5140
2026-01-07 10:40:05.89	197.72	25.64	-43.6	-46.1	18.2	0.00e+00	0	42	0	327155712	58	4902
2026-01-07 10:40:06.90	197.87	25.78	-43.7	-46.1	18.2	0.00e+00	0	42	0	329252864	58	4921
2026-01-07 10:40:07.90	198.02	25.92	-43.7	-46.2	18.2	0.00e+00	0	42	0	331350016	58	4963
2026-01-07 10:40:08.90	198.17	26.07	-43.8	-46.3	18.1	0.00e+00	0	42	0	332398592	58	4989
2026-01-07 10:40:09.90	198.32	26.22	-43.8	-46.3	18.1	0.00e+00	0	42	0	334495744	58	4995
2026-01-07 10:40:10.90	198.47	26.36	-43.8	-46.3	18.1	0.00e+00	0	42	0	336592896	58	5023
2026-01-07 10:40:11.91	198.63	26.51	-43.8	-46.2	18.1	0.00e+00	0	42	0	338690048	58	4980
2026-01-07 10:40:12.91	198.78	26.66	-43.8	-46.3	18.0	0.00e+00	0	42	0	340787200	58	5007
2026-01-07 10:40:13.91	198.94	26.80	-43.9	-46.4	18.0	0.00e+00	0	42	0	341835776	58	5063
2026-01-07 10:40:14.91	199.10	26.95	-43.8	-46.4	18.0	0.00e+00	0	42	0	343932928	58	5051
2026-01-07 10:40:15.91	199.26	27.10	-43.7	-46.1	18.3	0.00e+00	0	42	0	346030080	58	4906
2026-01-07 10:40:16.92	199.42	27.25	-43.8	-46.3	18.1	0.00e+00	0	42	0	348127232	58	4994
2026-01-07 10:40:17.92	199.58	27.40	-43.8	-46.3	18.1	0.00e+00	0	42	0	350224384	58	5011
2026-01-07 10:40:18.92	199.74	27.55	-44.0	-46.5	17.9	0.00e+00	0	42	0	351272960	58	5148
2026-01-07 10:40:19.93	199.91	27.71	-44.1	-46.7	17.7	0.00e+00	0	42	0	353370112	58	5231
2026-01-07 10:40:20.92	200.08	27.86	-44.3	-46.9	17.5	0.00e+00	0	42	0	355467264	59	5087
2026-01-07 10:40:21.92	200.24	28.01	-44.4	-47.1	17.3	0.00e+00	0	42	0	357564416	59	5166
2026-01-07 10:40:22.93	200.42	28.16	-44.5	-47.2	17.2	0.00e+00	0	42	0	359661568	59	5277
2026-01-07 10:40:23.92	200.59	28.32	-44.7	-47.5	16.9	0.00e+00	0	42	0	360710144	59	5431
2026-01-07 10:40:24.92	200.76	28.47	-44.8	-47.7	16.8	0.00e+00	0	42	0	362807296	60	5248
2026-01-07 10:40:25.93	200.94	28.63	-44.9	-47.8	16.7	0.00e+00	0	42	0	364904448	60	5312
2026-01-07 10:40:26.92	201.11	28.78	-45.0	-47.9	16.6	0.00e+00	0	42	0	367001600	60	5378
2026-01-07 10:40:27.93	201.29	28.94	-45.1	-48.0	16.5	0.00e+00	0	42	0	368050176	60	5421
2026-01-07 10:40:28.93	201.47	29.10	-45.1	-48.0	16.5	0.00e+00	0	42	0	370147328	60	5444
2026-01-07 10:40:29.93	201.65	29.25	-45.2	-48.1	16.4	0.00e+00	0	42	0	372244480	61	5204
2026-01-07 10:40:30.93	201.83	29.41	-45.3	-48.3	16.2	0.00e+00	0	42	0	374341632	61	5325
2026-01-07 10:40:31.94	202.02	29.57	-45.4	-48.5	16.0	0.00e+00	0	42	0	376438784	61	5422
2026-01-07 10:40:32.94	202.21	29.73	-45.5	-48.5	16.0	0.00e+00	0	42	0	377487360	61	5432
2026-01-07 10:40:33.94	202.40	29.89	-45.5	-48.5	16.0	0.00e+00	0	42	0	379584512	61	5455
2026-01-07 10:40:34.94	202.59	30.05	-45.5	-48.5	16.0	0.00e+00	0	42	0	381681664	61	5454
2026-01-07 10:40:35.94	202.78	30.21	-45.5	-48.5	16.0	0.00e+00	0	42	0	383778816	61	5445
2026-01-07 10:40:36.94	202.97	30.37	-45.6	-48.7	15.8	0.00e+00	0	42	0	385875968	61	5590
2026-01-07 10:40:37.94	203.17	30.53	-45.7	-48.9	15.7	0.00e+00	0	42	0	386924544	62	5366
2026-01-07 10:40:38.94	203.37	30.69	-45.7	-48.9	15.6	0.00e+00	0	42	0	389021696	62	5384
2026-01-07 10:40:39.95	203.57	30.86	-45.7	-48.9	15.7	0.00e+00	0	42	0	391118848	62	5362
2026-01-07 10:40:40.95	203.77	31.02	-45.7	-48.9	15.6	0.00e+00	0	42	0	393216000	62	5352
2026-01-07 10:40:41.95	203.98	31.18	-45.6	-48.8	15.7	0.00e+00	0	42	0	395313152	62	5300
2026-01-07 10:40:42.95	204.18	31.35	-45.7	-48.8	15.8	0.00e+00	0	42	0	396361728	62	5318
2026-01-07 10:40:43.96	204.39	31.52	-45.7	-48.9	15.7	0.00e+00	0	42	0	398458880	62	5355
2026-01-07 10:40:44.96	204.60	31.68	-45.7	-48.9	15.7	0.00e+00	0	42	0	400556032	62	5381
2026-01-07 10:40:45.96	204.81	31.85	-45.6	-48.7	15.8	0.00e+00	0	42	0	402653184	62	5276
2026-01-07 10:40:46.96	205.03	32.01	-45.6	-48.7	15.8	0.00e+00	0	42	0	404750336	62	5249
2026-01-07 10:40:47.96	205.24	32.18	-45.5	-48.7	15.9	0.00e+00	0	42	0	405798912	62	5235
2026-01-07 10:40:48.97	205.47	32.35	-45.4	-48.6	15.9	0.00e+00	0	42	0	407896064	62	5207
2026-01-07 10:40:49.97	205.69	32.52	-45.4	-48.6	16.0	0.00e+00	0	42	0	409993216	62	5174
2026-01-07 10:40:50.97	205.91	32.69	-45.3	-48.4	16.1	0.00e+00	0	42	0	412090368	62	5100
2026-01-07 10:40:51.97	206.14	32.85	-45.3	-48.4	16.1	0.00e+00	0	42	0	413138944	62	5063
2026-01-07 10:40:52.97	206.36	33.02	-45.3	-48.3	16.2	0.00e+00	0	42	0	415236096	62	5039
2026-01-07 10:40:53.97	206.59	33.19	-45.0	-47.9	16.6	0.00e+00	0	42	0	417333248	62	4801
2026-01-07 10:40:54.98	206.83	33.37	-44.8	-47.6	16.9	0.00e+00	0	42	0	419430400	61	4910
2026-01-07 10:40:55.98	207.06	33.54	-44.8	-47.6	16.9	0.00e+00	0	42	0	421527552	61	4906
2026-01-07 10:40:56.98	207.30	33.71	-44.7	-47.6	17.0	0.00e+00	0	42	0	422576128	61	4884
2026-01-07 10:40:57.98	207.54	33.88	-44.8	-47.7	16.8	0.00e+00	0	42	0	424673280	61	4953
2026-01-07 10:40:58.98	207.78	34.05	-44.9	-47.8	16.8	0.00e+00	0	42	0	426770432	61	5001
2026-01-07 10:40:59.99	208.03	34.22	-44.9	-47.8	16.7	0.00e+00	0	42	0	428867584	61	4990
2026-01-07 10:41:00.99	208.28	34.40	-44.7	-47.5	17.0	0.00e+00	0	42	0	430964736	61	4866
2026-01-07 10:41:01.99	208.53	34.57	-44.5	-47.3	17.2	0.00e+00	0	42	0	432013312	61	4725
2026-01-07 10:41:02.99	208.78	34.74	-44.3	-47.0	17.5	0.00e+00	0	42	0	434110464	60	4860
2026-01-07 10:41:03.99	209.04	34.92	-44.3	-47.0	17.5	0.00e+00	0	42	0	436207616	60	4847
2026-01-07 10:41:05.00	209.30	35.09	-44.4	-47.1	17.4	0.00e+00	0	42	0	438304768	60	4914
2026-01-07 10:41:06.00	209.56	35.27	-44.5	-47.3	17.3	0.00e+00	0	42	0	439353344	60	4990
2026-01-07 10:41:07.00	209.82	35.44	-44.4	-47.2	17.4	0.00e+00	0	42	0	441450496	60	4928
2026-01-07 10:41:08.00	210.09	35.62	-44.2	-46.9	17.6	0.00e+00	0	42	0	443547648	60	4789
2026-01-07 10:41:09.00	210.36	35.79	-43.9	-46.4	18.1	0.00e+00	0	42	0	445644800	59	4792
2026-01-07 10:41:10.00	210.63	35.97	-43.6	-46.1	18.4	0.00e+00	0	42	0	447741952	59	4612
2026-01-07 10:41:11.01	210.91	36.15	-43.5	-45.9	18.5	0.00e+00	0	42	0	449839104	59	4537
2026-01-07 10:41:12.00	211.18	36.32	-43.6	-46.0	18.4	0.00e+00	0	42	0	450887680	59	4576
2026-01-07 10:41:13.01	211.46	36.50	-43.6	-46.0	18.4	0.00e+00	0	42	0	452984832	59	4565
2026-01-07 10:41:14.01	211.75	36.67	-43.6	-46.1	18.4	0.00e+00	0	42	0	455081984	59	4610
2026-01-07 10:41:15.01	212.03	36.85	-43.8	-46.2	18.2	0.00e+00	0	42	0	457179136	59	4688
2026-01-07 10:41:16.02	212.33	37.03	-43.7	-46.2	18.2	0.00e+00	0	42	0	458227712	59	4689
2026-01-07 10:41:17.02	212.62	37.21	-43.7	-46.2	18.2	0.00e+00	0	42	0	460324864	59	4702
2026-01-07 10:41:18.02	212.92	37.38	-43.6	-46.1	18.3	0.00e+00	0	42	0	462422016	59	4646
2026-01-07 10:41:19.03	213.22	37.56	-43.4	-45.9	18.6	0.00e+00	0	42	0	464519168	58	4768
2026-01-07 10:41:20.03	213.52	37.74	-43.2	-45.5	18.9	0.00e+00	0	42	0	466616320	58	4582
2026-01-07 10:41:21.03	213.83	37.92	-43.1	-45.5	19.0	0.00e+00	0	42	0	467664896	58	4553
2026-01-07 10:41:22.03	214.14	38.09	-43.3	-45.6	18.8	0.00e+00	0	42	0	469762048	58	4640
2026-01-07 10:41:23.04	214.45	38.27	-43.0	-45.4	19.0	0.00e+00	0	42	0	471859200	58	4502
2026-01-07 10:41:24.04	214.77	38.45	-42.9	-45.2	19.2	0.00e+00	0	42	0	473956352	57	4684
2026-01-07 10:41:25.04	215.09	38.63	-43.0	-45.3	19.1	0.00e+00	0	42	0	476053504	57	4755
2026-01-07 10:41:26.05	215.41	38.81	-43.3	-45.6	18.8	0.00e+00	0	42	0	477102080	57	4908
2026-01-07 10:41:27.04	215.74	38.98	-43.6	-46.0	18.4	0.00e+00	0	42	0	479199232	57	5145
2026-01-07 10:41:28.04	216.07	39.16	-43.9	-46.4	18.0	0.00e+00	0	42	0	481296384	58	5073
2026-01-07 10:41:29.04	216.40	39.34	-44.0	-46.5	18.0	0.00e+00	0	42	0	483393536	58	5122
2026-01-07 10:41:30.05	216.74	39.51	-44.0	-46.4	18.0	0.00e+00	0	42	0	485490688	58	5100
2026-01-07 10:41:31.05	217.08	39.69	-43.8	-46.3	18.1	0.00e+00	0	42	0	486539264	58	5021
2026-01-07 10:41:32.05	217.42	39.87	-43.7	-46.2	18.2	0.00e+00	0	42	0	488636416	58	4953
2026-01-07 10:41:33.05	217.77	40.04	-43.8	-46.2	18.2	0.00e+00	0	42	0	490733568	58	4981
2026-01-07 10:41:34.06	218.13	40.22	-43.8	-46.2	18.3	0.00e+00	0	42	0	492830720	58	4966
2026-01-07 10:41:35.05	218.48	40.39	-43.9	-46.5	18.0	0.00e+00	0	42	0	494927872	58	5105
2026-01-07 10:41:36.05	218.84	40.57	-44.1	-46.7	17.8	0.00e+00	0	42	0	495976448	58	5245
2026-01-07 10:41:37.06	219.21	40.74	-44.3	-46.9	17.6	0.00e+00	0	42	0	498073600	59	5073
2026-01-07 10:41:38.06	219.57	40.92	-44.4	-47.0	17.4	0.00e+00	0	42	0	500170752	59	5141
2026-01-07 10:41:39.06	219.94	41.09	-44.3	-46.9	17.6	0.00e+00	0	42	0	502267904	59	5074
2026-01-07 10:41:40.06	220.32	41.26	-44.1	-46.7	17.8	0.00e+00	0	42	0	503316480	59	4965
2026-01-07 10:41:41.07	220.70	41.44	-44.3	-46.9	17.6	0.00e+00	0	42	0	505413632	59	5050
2026-01-07 10:41:42.06	221.08	41.61	-44.4	-47.0	17.5	0.00e+00	0	42	0	507510784	59	5144
2026-01-07 10:41:43.06	221.47	41.78	-44.6	-47.3	17.2	0.00e+00	0	42	0	509607936	59	5305
2026-01-07 10:41:44.07	221.86	41.95	-44.8	-47.7	16.9	0.00e+00	0	42	0	511705088	60	5225
2026-01-07 10:41:45.07	222.26	42.12	-44.9	-47.7	16.9	0.00e+00	0	42	0	512753664	60	5223
2026-01-07 10:41:46.07	222.66	42.29	-44.7	-47.4	17.2	0.00e+00	0	42	0	514850816	60	5099
2026-01-07 10:41:47.07	223.06	42.46	-44.6	-47.3	17.2	0.00e+00	0	42	0	516947968	60	5020
2026-01-07 10:41:48.07	223.47	42.63	-44.5	-47.1	17.4	0.00e+00	0	42	0	519045120	60	4922
2026-01-07 10:41:49.08	223.88	42.80	-44.5	-47.1	17.4	0.00e+00	0	42	0	521142272	60	4921
2026-01-07 10:41:50.08	224.30	42.96	-44.3	-47.0	17.6	0.00e+00	0	42	0	522190848	60	4845
2026-01-07 10:41:51.08	224.72	43.13	-44.2	-46.9	17.7	0.00e+00	0	42	0	524288000	60	4766
2026-01-07 10:41:52.09	225.15	43.29	-44.3	-47.0	17.6	0.00e+00	0	42	0	526385152	60	4833
2026-01-07 10:41:53.09	225.58	43.46	-44.5	-47.1	17.5	0.00e+00	0	42	0	528482304	60	4898
2026-01-07 10:41:54.09	226.01	43.62	-44.5	-47.1	17.4	0.00e+00	0	42	0	530579456	60	4918
2026-01-07 10:41:55.10	226.45	43.78	-44.4	-47.0	17.5	0.00e+00	0	42	0	531628032	60	4850
2026-01-07 10:41:56.10	226.89	43.94	-44.2	-46.8	17.7	0.00e+00	0	42	0	533725184	60	4750
2026-01-07 10:41:57.10	227.34	44.10	-44.3	-46.9	17.6	0.00e+00	0	42	0	535822336	60	4779
2026-01-07 10:41:58.10	227.79	44.26	-44.1	-46.7	17.8	0.00e+00	0	42	0	537919488	60	4655
2026-01-07 10:41:59.11	228.25	44.41	-44.1	-46.7	17.8	0.00e+00	0	42	0	540016640	60	4694
2026-01-07 10:42:00.11	228.71	44.57	-44.2	-46.9	17.7	0.00e+00	0	42	0	541065216	60	4765
2026-01-07 10:42:01.11	229.17	44.72	-44.4	-47.0	17.6	0.00e+00	0	42	0	543162368	60	4865
2026-01-07 10:42:02.11	229.64	44.87	-44.3	-47.1	17.5	0.00e+00	0	43	0	545259520	60	4875
2026-01-07 10:42:03.12	230.12	45.02	-44.2	-46.8	17.7	0.00e+00	0	42	0	547356672	60	4758
2026-01-07 10:42:04.12	230.59	45.17	-44.0	-46.7	17.9	0.00e+00	0	42	0	548405248	60	4682
2026-01-07 10:42:05.12	231.08	45.32	-43.9	-46.5	18.0	0.00e+00	0	42	0	550502400	59	4816
2026-01-07 10:42:06.13	231.57	45.47	-43.9	-46.4	18.1	0.00e+00	0	42	0	552599552	59	4760
2026-01-07 10:42:07.13	232.06	45.61	-44.2	-46.8	17.7	0.00e+00	0	42	0	554696704	59	5012
2026-01-07 10:42:08.13	232.55	45.75	-44.6	-47.2	17.3	0.00e+00	0	42	0	556793856	59	5273
2026-01-07 10:42:09.13	233.05	45.89	-44.7	-47.4	17.1	0.00e+00	0	42	0	557842432	60	5083
2026-01-07 10:42:10.13	233.55	46.03	-44.6	-47.3	17.3	0.00e+00	0	42	0	559939584	60	5019
2026-01-07 10:42:11.13	234.06	46.16	-44.5	-47.2	17.4	0.00e+00	0	42	0	562036736	60	4961
2026-01-07 10:42:12.13	234.57	46.30	-44.2	-46.8	17.7	0.00e+00	0	42	0	564133888	60	4744
2026-01-07 10:42:13.14	235.09	46.43	-44.2	-46.8	17.7	0.00e+00	0	42	0	566231040	60	4747
2026-01-07 10:42:14.14	235.62	46.56	-44.3	-46.9	17.7	0.00e+00	0	42	0	567279616	60	4775
2026-01-07 10:42:15.14	236.14	46.69	-44.6	-47.2	17.3	0.00e+00	0	42	0	569376768	60	4975
2026-01-07 10:42:16.14	236.67	46.81	-44.9	-47.6	16.9	0.00e+00	0	42	0	571473920	60	5210
2026-01-07 10:42:17.14	237.20	46.94	-45.1	-48.0	16.6	0.00e+00	0	42	0	573571072	61	5140
2026-01-07 10:42:18.14	237.74	47.06	-45.1	-48.1	16.4	0.00e+00	0	42	0	575668224	61	5168
2026-01-07 10:42:19.15	238.29	47.18	-45.3	-48.3	16.3	0.00e+00	0	42	0	576716800	61	5286
2026-01-07 10:42:20.15	238.83	47.29	-45.3	-48.4	16.3	0.00e+00	0	42	0	578813952	61	5346
2026-01-07 10:42:21.15	239.38	47.41	-45.6	-48.7	16.0	0.00e+00	0	42	0	580911104	61	5544
2026-01-07 10:42:22.16	239.94	47.52	-45.8	-49.0	15.6	0.00e+00	0	42	0	583008256	62	5417
2026-01-07 10:42:23.16	240.50	47.63	-45.8	-49.0	15.6	0.00e+00	0	42	0	585105408	62	5438
2026-01-07 10:42:24.16	241.06	47.73	-45.6	-48.8	15.8	0.00e+00	0	42	0	586153984	62	5303
2026-01-07 10:42:25.16	241.62	47.84	-45.2	-48.2	16.4	0.00e+00	0	42	0	588251136	62	4949
2026-01-07 10:42:26.16	242.19	47.94	-45.2	-48.2	16.3	0.00e+00	0	42	0	590348288	62	4963
2026-01-07 10:42:27.16	242.76	48.03	-45.4	-48.4	16.1	0.00e+00	0	42	0	592445440	62	5099
2026-01-07 10:42:28.17	243.35	48.13	-45.9	-49.1	15.5	0.00e+00	0	42	0	593494016	62	5517
2026-01-07 10:42:29.17	243.93	48.22	-46.2	-49.6	15.0	0.00e+00	0	42	0	595591168	63	5478
2026-01-07 10:42:30.17	244.51	48.31	-46.2	-49.5	15.0	0.00e+00	0	42	0	597688320	63	5454
2026-01-07 10:42:31.17	245.09	48.40	-46.0	-49.2	15.4	0.00e+00	0	42	0	599785472	63	5267
2026-01-07 10:42:32.17	245.68	48.48	-45.7	-48.9	15.7	0.00e+00	0	42	0	601882624	63	5054
2026-01-07 10:42:33.18	246.28	48.56	-45.5	-48.6	16.1	0.00e+00	0	42	0	602931200	63	4871
2026-01-07 10:42:34.18	246.88	48.64	-45.7	-48.8	15.8	0.00e+00	0	42	0	605028352	62	5303
2026-01-07 10:42:35.18	247.47	48.71	-46.0	-49.3	15.3	0.00e+00	0	42	0	607125504	62	5640
2026-01-07 10:42:36.18	248.07	48.78	-46.2	-49.6	15.1	0.00e+00	0	42	0	609222656	63	5476
2026-01-07 10:42:37.18	248.68	48.85	-46.0	-49.3	15.3	0.00e+00	0	42	0	611319808	63	5304
2026-01-07 10:42:38.19	249.29	48.91	-45.6	-48.7	15.9	0.00e+00	0	42	0	612368384	63	4950
2026-01-07 10:42:39.18	249.89	48.97	-45.1	-48.0	16.6	0.00e+00	0	42	0	614465536	62	4851
2026-01-07 10:42:40.19	250.51	49.03	-44.9	-47.8	16.8	0.00e+00	0	42	0	616562688	61	4999
2026-01-07 10:42:41.19	251.12	49.08	-45.0	-47.9	16.7	0.00e+00	0	42	0	618659840	61	5046
2026-01-07 10:42:42.19	251.73	49.13	-45.4	-48.4	16.3	0.00e+00	0	42	0	620756992	61	5348
2026-01-07 10:42:43.19	252.35	49.18	-45.6	-48.7	15.9	0.00e+00	0	42	0	621805568	61	5566
2026-01-07 10:42:44.19	252.97	49.22	-45.9	-49.1	15.6	0.00e+00	0	42	0	623902720	62	5481
2026-01-07 10:42:45.20	253.60	49.26	-45.6	-48.7	15.8	0.00e+00	0	42	0	625999872	62	5268
2026-01-07 10:42:46.20	254.22	49.30	-45.4	-48.5	16.1	0.00e+00	0	42	0	628097024	62	5107
2026-01-07 10:42:47.19	254.83	49.33	-45.4	-48.4	16.3	0.00e+00	0	42	0	629145600	62	5057
2026-01-07 10:42:48.19	255.46	49.36	-45.4	-48.4	16.1	0.00e+00	0	42	0	631242752	62	5093
2026-01-07 10:42:49.19	256.08	49.39	-45.4	-48.4	16.2	0.00e+00	0	42	0	633339904	62	5064
2026-01-07 10:42:50.19	256.71	49.41	-45.1	-48.1	16.5	0.00e+00	0	42	0	635437056	62	4878
2026-01-07 10:42:51.20	257.34	49.43	-44.8	-47.7	16.9	0.00e+00	0	42	0	637534208	61	4930
2026-01-07 10:42:52.20	257.97	49.44	-44.7	-47.4	17.2	0.00e+00	0	42	0	638582784	61	4794
2026-01-07 10:42:53.20	258.60	49.45	-44.5	-47.1	17.5	0.00e+00	0	42	0	640679936	60	4900
2026-01-07 10:42:54.20	259.23	49.46	-44.5	-47.1	17.5	0.00e+00	0	42	0	642777088	60	4903
2026-01-07 10:42:55.21	259.86	49.47	-44.6	-47.3	17.3	0.00e+00	0	42	0	644874240	60	5018
2026-01-07 10:42:56.21	260.49	49.47	-44.2	-46.8	17.8	0.00e+00	0	42	0	646971392	60	4755
2026-01-07 10:42:57.21	261.12	49.46	-43.9	-46.4	18.1	0.00e+00	0	42	0	648019968	59	4803
2026-01-07 10:42:58.21	261.75	49.46	-44.0	-46.6	18.0	0.00e+00	0	42	0	650117120	59	4880
2026-01-07 10:42:59.21	262.38	49.45	-44.5	-47.2	17.3	0.00e+00	0	42	0	652214272	59	5235
2026-01-07 10:43:00.21	263.00	49.43	-44.7	-47.5	17.1	0.00e+00	0	42	0	654311424	60	5126
2026-01-07 10:43:01.22	263.64	49.42	-44.7	-47.5	17.1	0.00e+00	0	42	0	656408576	60	5135
2026-01-07 10:43:02.22	264.26	49.39	-44.5	-47.2	17.4	0.00e+00	0	42	0	657457152	60	4945
2026-01-07 10:43:03.22	264.89	49.37	-44.5	-47.2	17.5	0.00e+00	0	42	0	659554304	60	4937
2026-01-07 10:43:04.23	265.52	49.34	-44.3	-47.0	17.6	0.00e+00	0	42	0	661651456	60	4821
2026-01-07 10:43:05.23	266.14	49.31	-44.6	-47.4	17.2	0.00e+00	0	42	0	663748608	60	5054
2026-01-07 10:43:06.23	266.76	49.27	-45.1	-48.1	16.6	0.00e+00	0	42	0	665845760	60	5503
2026-01-07 10:43:07.23	267.39	49.24	-45.0	-47.9	16.7	0.00e+00	0	42	0	666894336	61	5071
2026-01-07 10:43:08.24	268.01	49.19	-44.7	-47.4	17.2	0.00e+00	0	42	0	668991488	61	4795
2026-01-07 10:43:09.24	268.63	49.15	-44.8	-47.6	17.0	0.00e+00	0	43	0	671088640	61	4900
2026-01-07 10:43:10.24	269.24	49.10	-45.1	-48.0	16.6	0.00e+00	0	42	0	673185792	61	5145
2026-01-07 10:43:11.25	269.86	49.05	-45.2	-48.2	16.4	0.00e+00	0	42	0	674234368	61	5267
2026-01-07 10:43:12.25	270.47	48.99	-45.2	-48.2	16.5	0.00e+00	0	42	0	676331520	61	5219
2026-01-07 10:43:13.25	271.08	48.93	-44.9	-47.7	16.8	0.00e+00	0	42	0	678428672	61	4971
2026-01-07 10:43:14.25	271.68	48.87	-45.1	-48.0	16.7	0.00e+00	0	42	0	680525824	61	5112
2026-01-07 10:43:15.25	272.29	48.80	-45.4	-48.4	16.3	0.00e+00	0	42	0	682622976	61	5367
2026-01-07 10:43:16.25	272.89	48.73	-45.8	-49.0	15.6	0.00e+00	0	42	0	683671552	62	5457
2026-01-07 10:43:17.26	273.49	48.66	-45.7	-48.8	15.8	0.00e+00	0	42	0	685768704	62	5316
2026-01-07 10:43:18.26	274.09	48.58	-45.3	-48.3	16.2	0.00e+00	0	42	0	687865856	62	5034
2026-01-07 10:43:19.26	274.68	48.51	-45.1	-48.0	16.6	0.00e+00	0	42	0	689963008	62	4851
2026-01-07 10:43:20.26	275.27	48.42	-45.1	-48.0	16.6	0.00e+00	0	42	0	692060160	62	4865
2026-01-07 10:43:21.26	275.85	48.34	-45.4	-48.4	16.2	0.00e+00	0	42	0	693108736	62	5099
2026-01-07 10:43:22.26	276.44	48.25	-46.0	-49.2	15.4	0.00e+00	0	42	0	695205888	62	5564
2026-01-07 10:43:23.26	277.02	48.16	-46.3	-49.7	14.9	0.00e+00	0	42	0	697303040	63	5549
2026-01-07 10:43:24.26	277.59	48.07	-46.3	-49.7	14.9	0.00e+00	0	42	0	699400192	63	5572
2026-01-07 10:43:25.27	278.17	47.97	-46.3	-49.7	14.9	0.00e+00	0	42	0	701497344	63	5560
2026-01-07 10:43:26.27	278.74	47.87	-46.7	-50.5	14.2	0.00e+00	0	42	0	702545920	63	6086
2026-01-07 10:43:27.27	279.30	47.77	-47.1	-51.5	13.0	2.05e-05	0	42	0	704643072	64	6433
2026-01-07 10:43:28.28	279.87	47.66	-47.1	-51.4	13.1	4.04e-05	0	42	0	706740224	65	6031
2026-01-07 10:43:29.28	280.43	47.56	-46.7	-50.6	13.9	1.06e-05	0	42	0	708837376	65	5484
2026-01-07 10:43:30.28	280.98	47.45	-46.5	-50.1	14.5	0.00e+00	0	42	0	710934528	64	5499
2026-01-07 10:43:31.29	281.54	47.33	-47.1	-51.1	13.5	4.50e-06	0	42	0	711983104	64	6148
2026-01-07 10:43:32.29	282.08	47.22	-47.6	-52.1	12.4	4.27e-05	0	42	0	714080256	65	6515
2026-01-07 10:43:33.29	282.63	47.10	-47.8	-52.5	12.0	3.49e-04	0	42	0	716177408	66	6465
2026-01-07 10:43:34.29	283.16	46.98	-47.2	-51.4	13.0	1.67e-04	0	42	0	718274560	66	5704
2026-01-07 10:43:35.29	283.70	46.86	-46.6	-50.3	14.2	1.50e-06	0	42	0	719323136	65	5314
2026-01-07 10:43:36.30	284.23	46.73	-46.4	-50.0	14.6	0.00e+00	0	42	0	721420288	64	5416
2026-01-07 10:43:37.30	284.76	46.61	-46.8	-50.7	13.9	7.00e-07	0	42	0	723517440	64	5869
2026-01-07 10:43:38.30	285.28	46.48	-47.4	-51.7	12.8	2.74e-05	0	42	0	725614592	65	6255
2026-01-07 10:43:39.30	285.79	46.35	-46.7	-50.6	13.8	1.52e-05	0	43	0	727711744	65	5498
2026-01-07 10:43:40.30	286.31	46.22	-46.0	-49.3	15.2	0.00e+00	0	42	0	729808896	63	5314
2026-01-07 10:43:41.31	286.82	46.08	-45.6	-48.7	15.9	0.00e+00	0	42	0	730857472	63	4960
2026-01-07 10:43:42.31	287.32	45.94	-45.7	-48.8	15.7	0.00e+00	0	42	0	732954624	63	5031
2026-01-07 10:43:43.31	287.82	45.81	-45.9	-49.1	15.5	0.00e+00	0	42	0	735051776	63	5163
2026-01-07 10:43:44.31	288.32	45.66	-45.4	-48.3	16.2	0.00e+00	0	42	0	737148928	62	5026
2026-01-07 10:43:45.31	288.81	45.52	-45.0	-47.8	16.8	0.00e+00	0	42	0	738197504	62	4734
2026-01-07 10:43:46.31	289.29	45.38	-44.6	-47.4	17.2	0.00e+00	0	42	0	740294656	61	4763
2026-01-07 10:43:47.31	289.78	45.23	-44.4	-47.1	17.4	0.00e+00	0	42	0	742391808	60	4898
2026-01-07 10:43:48.31	290.25	45.09	-44.4	-47.1	17.4	0.00e+00	0	42	0	744488960	60	4919
2026-01-07 10:43:49.31	290.73	44.94	-44.8	-47.6	17.1	0.00e+00	0	42	0	746586112	60	5163
2026-01-07 10:43:50.32	291.20	44.78	-45.1	-47.9	16.6	0.00e+00	0	43	0	747634688	60	5385
2026-01-07 10:43:51.31	291.66	44.63	-44.9	-47.6	16.9	0.00e+00	0	42	0	749731840	60	5211
2026-01-07 10:43:52.31	292.12	44.48	-44.6	-47.2	17.3	0.00e+00	0	43	0	751828992	60	4983
2026-01-07 10:43:53.31	292.57	44.33	-44.5	-47.1	17.4	0.00e+00	0	42	0	753926144	60	4918
2026-01-07 10:43:54.31	293.02	44.17	-44.3	-46.9	17.6	0.00e+00	0	42	0	756023296	60	4799
2026-01-07 10:43:55.31	293.47	44.01	-43.7	-46.2	18.3	0.00e+00	0	42	0	757071872	59	4668
2026-01-07 10:43:56.31	293.91	43.86	-43.4	-45.7	18.7	0.00e+00	0	42	0	759169024	58	4686
2026-01-07 10:43:57.31	294.35	43.70	-43.2	-45.5	18.9	0.00e+00	0	42	0	761266176	58	4566
2026-01-07 10:43:58.31	294.78	43.53	-43.6	-46.0	18.5	0.00e+00	0	42	0	763363328	58	4848
2026-01-07 10:43:59.32	295.22	43.37	-43.9	-46.4	18.0	0.00e+00	0	42	0	764411904	58	5093
2026-01-07 10:44:00.32	295.64	43.21	-43.8	-46.3	18.1	0.00e+00	0	42	0	766509056	58	5026
2026-01-07 10:44:01.32	296.06	43.04	-43.6	-46.0	18.4	0.00e+00	0	42	0	768606208	58	4829
2026-01-07 10:44:02.33	296.48	42.88	-43.6	-46.0	18.4	0.00e+00	0	42	0	770703360	58	4852
2026-01-07 10:44:03.32	296.89	42.71	-43.6	-46.1	18.4	0.00e+00	0	43	0	772800512	58	4876
2026-01-07 10:44:04.33	297.30	42.55	-44.0	-46.6	17.9	0.00e+00	0	42	0	773849088	58	5172
2026-01-07 10:44:05.33	297.71	42.38	-44.1	-46.7	17.8	0.00e+00	0	42	0	775946240	58	5260
2026-01-07 10:44:06.33	298.11	42.21	-43.8	-46.4	18.1	0.00e+00	0	43	0	778043392	58	5061
2026-01-07 10:44:07.34	298.51	42.04	-43.4	-45.9	18.6	0.00e+00	0	43	0	780140544	58	4771
2026-01-07 10:44:08.34	298.90	41.87	-43.6	-46.0	18.4	0.00e+00	0	42	0	782237696	58	4864
2026-01-07 10:44:09.34	299.29	41.70	-44.2	-46.7	17.8	0.00e+00	0	42	0	783286272	58	5275
2026-01-07 10:44:10.34	299.67	41.53	-45.0	-47.9	16.6	0.00e+00	0	43	0	785383424	60	5389
2026-01-07 10:44:11.35	300.05	41.36	-45.2	-48.2	16.4	0.00e+00	0	43	0	787480576	61	5253
2026-01-07 10:44:12.35	300.43	41.18	-44.5	-47.2	17.3	0.00e+00	0	42	0	789577728	60	4954
2026-01-07 10:44:13.35	300.80	41.01	-44.0	-46.6	17.9	0.00e+00	0	42	0	791674880	60	4606
2026-01-07 10:44:14.35	301.17	40.84	-43.8	-46.2	18.3	0.00e+00	0	42	0	792723456	59	4690
2026-01-07 10:44:15.35	301.53	40.67	-44.5	-47.1	17.4	0.00e+00	0	42	0	794820608	59	5190
2026-01-07 10:44:16.36	301.89	40.49	-45.4	-48.4	16.2	0.00e+00	0	42	0	796917760	61	5352
2026-01-07 10:44:17.36	302.25	40.32	-45.6	-48.8	15.8	0.00e+00	0	42	0	799014912	62	5286
2026-01-07 10:44:18.36	302.60	40.14	-45.1	-48.1	16.5	0.00e+00	0	42	0	801112064	62	4892
2026-01-07 10:44:19.36	302.95	39.97	-44.7	-47.5	17.0	0.00e+00	0	42	0	802160640	61	4845
2026-01-07 10:44:20.37	303.30	39.79	-44.4	-47.1	17.5	0.00e+00	0	42	0	804257792	60	4884
2026-01-07 10:44:21.37	303.64	39.61	-44.7	-47.5	17.1	0.00e+00	0	42	0	806354944	60	5112
2026-01-07 10:44:22.37	303.98	39.44	-45.6	-48.7	15.9	0.00e+00	0	42	0	808452096	61	5552
2026-01-07 10:44:23.37	304.31	39.26	-46.1	-49.4	15.2	0.00e+00	0	42	0	809500672	62	5708
2026-01-07 10:44:24.37	304.64	39.09	-45.8	-48.9	15.6	0.00e+00	0	42	0	811597824	62	5394
2026-01-07 10:44:25.37	304.97	38.91	-45.2	-48.2	16.4	0.00e+00	0	42	0	813694976	62	4931
2026-01-07 10:44:26.37	305.29	38.74	-45.0	-47.8	16.7	0.00e+00	0	42	0	815792128	61	5041
2026-01-07 10:44:27.36	305.61	38.56	-44.7	-47.4	17.1	0.00e+00	0	42	0	817889280	61	4808
2026-01-07 10:44:28.37	305.93	38.38	-45.5	-48.6	15.9	0.00e+00	0	42	0	818937856	61	5494
2026-01-07 10:44:29.37	306.24	38.21	-46.6	-50.5	13.9	0.00e+00	0	42	0	821035008	64	5774
2026-01-07 10:44:30.37	306.55	38.03	-47.2	-51.6	12.7	1.90e-05	0	42	0	823132160	65	6191
2026-01-07 10:44:31.37	306.85	37.85	-46.1	-49.7	14.7	1.50e-06	0	42	0	825229312	64	5256
2026-01-07 10:44:32.37	307.16	37.68	-45.1	-48.1	16.4	0.00e+00	0	42	0	827326464	62	4918
2026-01-07 10:44:33.37	307.46	37.50	-44.6	-47.4	17.1	0.00e+00	0	42	0	828375040	61	4788
2026-01-07 10:44:34.37	307.75	37.33	-44.7	-47.5	17.0	0.00e+00	0	42	0	830472192	61	4853
2026-01-07 10:44:35.37	308.05	37.15	-45.5	-48.6	16.0	0.00e+00	0	42	0	832569344	61	5493
2026-01-07 10:44:36.37	308.34	36.97	-46.5	-50.1	14.5	0.00e+00	0	42	0	834666496	63	5816
2026-01-07 10:44:37.38	308.63	36.80	-46.8	-50.7	13.7	2.20e-06	0	42	0	836763648	64	5910
2026-01-07 10:44:38.38	308.91	36.62	-46.2	-49.9	14.6	2.20e-06	0	42	0	837812224	64	5355
2026-01-07 10:44:39.38	309.19	36.45	-45.3	-48.5	16.0	0.00e+00	0	42	0	839909376	62	5149
2026-01-07 10:44:40.39	309.48	36.27	-44.5	-47.4	17.1	0.00e+00	0	42	0	842006528	61	4770
2026-01-07 10:44:41.39	309.75	36.09	-44.6	-47.4	17.1	0.00e+00	0	42	0	844103680	61	4809
2026-01-07 10:44:42.39	310.02	35.92	-44.5	-47.3	17.3	0.00e+00	0	42	0	845152256	60	4988
2026-01-07 10:44:43.39	310.29	35.75	-45.2	-48.2	16.4	0.00e+00	0	42	0	847249408	61	5255
2026-01-07 10:44:44.39	310.56	35.57	-46.2	-49.6	14.9	0.00e+00	0	42	0	849346560	62	5846
2026-01-07 10:44:45.39	310.82	35.40	-46.6	-50.4	14.1	7.00e-07	0	43	0	851443712	63	6040
2026-01-07 10:44:46.40	311.09	35.22	-46.4	-50.1	14.5	0.00e+00	0	42	0	853540864	63	5789
2026-01-07 10:44:47.40	311.35	35.05	-45.8	-49.0	15.5	0.00e+00	0	42	0	854589440	63	5133
2026-01-07 10:44:48.40	311.60	34.88	-45.5	-48.6	16.0	0.00e+00	0	42	0	856686592	63	4892
2026-01-07 10:44:49.40	311.86	34.70	-45.4	-48.3	16.2	0.00e+00	0	42	0	858783744	62	5022
2026-01-07 10:44:50.40	312.11	34.53	-45.4	-48.4	16.1	0.00e+00	0	42	0	860880896	62	5080
2026-01-07 10:44:51.40	312.35	34.36	-46.0	-49.3	15.3	0.00e+00	0	42	0	862978048	62	5606
2026-01-07 10:44:52.41	312.60	34.19	-46.7	-50.5	14.0	7.00e-07	0	42	0	864026624	64	5723
2026-01-07 10:44:53.41	312.84	34.02	-47.3	-51.6	12.8	1.67e-05	0	42	0	866123776	65	6178
2026-01-07 10:44:54.41	313.09	33.85	-47.5	-52.1	12.4	1.37e-04	0	42	0	868220928	65	6501
2026-01-07 10:44:55.42	313.33	33.67	-46.9	-51.0	13.4	3.81e-05	0	42	0	870318080	65	5748
2026-01-07 10:44:56.42	313.56	33.50	-45.9	-49.2	15.3	0.00e+00	0	42	0	872415232	63	5277
2026-01-07 10:44:57.42	313.79	33.34	-45.0	-47.9	16.5	0.00e+00	0	42	0	873463808	62	4807
2026-01-07 10:44:58.42	314.02	33.17	-44.7	-47.4	17.1	0.00e+00	0	42	0	875560960	61	4800
2026-01-07 10:44:59.43	314.26	33.00	-44.5	-47.2	17.3	0.00e+00	0	42	0	877658112	60	4942
2026-01-07 10:45:00.42	314.48	32.83	-44.8	-47.6	16.9	0.00e+00	0	42	0	879755264	60	5207
2026-01-07 10:45:01.42	314.70	32.66	-45.4	-48.6	15.9	0.00e+00	0	42	0	881852416	61	5517
2026-01-07 10:45:02.43	314.93	32.49	-46.4	-50.2	14.3	0.00e+00	0	42	0	882900992	63	5880
2026-01-07 10:45:03.43	315.15	32.33	-47.1	-51.5	12.9	1.44e-05	0	42	0	884998144	64	6484
2026-01-07 10:45:04.42	315.36	32.16	-47.5	-52.6	11.8	2.27e-04	0	42	0	887095296	65	6881
2026-01-07 10:45:05.43	315.58	32.00	-47.2	-51.8	12.6	4.16e-04	0	42	0	889192448	65	6304
2026-01-07 10:45:06.42	315.79	31.83	-46.2	-50.0	14.4	3.80e-06	0	42	0	890241024	64	5452
2026-01-07 10:45:07.43	316.00	31.67	-45.5	-49.0	15.5	0.00e+00	0	42	0	892338176	63	5101
2026-01-07 10:45:08.43	316.21	31.50	-44.7	-47.8	16.6	0.00e+00	0	42	0	894435328	61	5032
2026-01-07 10:45:09.43	316.42	31.34	-44.4	-47.4	17.0	0.00e+00	0	42	0	896532480	60	5086
2026-01-07 10:45:10.43	316.62	31.18	-44.3	-47.2	17.3	0.00e+00	0	42	0	898629632	60	4974
2026-01-07 10:45:11.44	316.83	31.01	-44.5	-47.5	17.0	0.00e+00	0	42	0	899678208	60	5153
2026-01-07 10:45:12.44	317.03	30.85	-45.0	-48.2	16.3	0.00e+00	0	42	0	901775360	60	5574
2026-01-07 10:45:13.44	317.23	30.69	-45.5	-49.1	15.4	0.00e+00	0	42	0	903872512	61	5792
2026-01-07 10:45:14.44	317.42	30.53	-46.1	-49.9	14.7	0.00e+00	0	42	0	905969664	62	6009
2026-01-07 10:45:15.44	317.62	30.37	-46.1	-49.8	14.7	0.00e+00	0	42	0	908066816	62	5963
2026-01-07 10:45:16.44	317.81	30.21	-46.0	-49.6	14.9	0.00e+00	0	43	0	909115392	62	5850
2026-01-07 10:45:17.45	318.00	30.05	-45.7	-49.1	15.4	0.00e+00	0	43	0	911212544	62	5476
2026-01-07 10:45:18.45	318.19	29.89	-45.5	-48.7	15.8	0.00e+00	0	42	0	913309696	62	5277
2026-01-07 10:45:19.46	318.38	29.73	-45.3	-48.5	16.0	0.00e+00	0	42	0	915406848	62	5106
2026-01-07 10:45:20.46	318.57	29.57	-44.9	-47.9	16.5	0.00e+00	0	43	0	917504000	61	5099
2026-01-07 10:45:21.46	318.75	29.41	-45.0	-48.0	16.5	0.00e+00	0	43	0	918552576	61	5122
2026-01-07 10:45:22.46	318.93	29.26	-45.2	-48.3	16.3	0.00e+00	0	42	0	920649728	61	5300
2026-01-07 10:45:23.47	319.11	29.10	-45.4	-48.6	16.0	0.00e+00	0	42	0	922746880	61	5470
2026-01-07 10:45:24.47	319.29	28.94	-45.6	-48.9	15.6	0.00e+00	0	42	0	924844032	61	5701
2026-01-07 10:45:25.47	319.47	28.79	-45.6	-49.1	15.5	0.00e+00	0	42	0	926941184	61	5789
2026-01-07 10:45:26.47	319.65	28.64	-45.3	-48.8	15.7	0.00e+00	0	43	0	927989760	61	5604
2026-01-07 10:45:27.47	319.82	28.48	-45.0	-48.2	16.2	0.00e+00	0	42	0	930086912	61	5268
2026-01-07 10:45:28.47	319.99	28.33	-44.8	-48.0	16.4	0.00e+00	0	42	0	932184064	61	5146
2026-01-07 10:45:29.48	320.16	28.18	-44.4	-47.4	17.1	0.00e+00	0	43	0	934281216	60	5055
2026-01-07 10:45:30.48	320.33	28.02	-44.0	-46.8	17.6	0.00e+00	0	43	0	935329792	60	4744
2026-01-07 10:45:31.48	320.50	27.87	-43.9	-46.6	17.8	0.00e+00	0	43	0	937426944	59	4890
2026-01-07 10:45:32.48	320.66	27.72	-43.7	-46.3	18.1	0.00e+00	0	42	0	939524096	59	4725
2026-01-07 10:45:33.48	320.83	27.57	-43.6	-46.2	18.1	0.00e+00	0	42	0	941621248	59	4697
2026-01-07 10:45:34.49	320.99	27.42	-43.8	-46.5	17.9	0.00e+00	0	42	0	943718400	59	4819
2026-01-07 10:45:35.49	321.15	27.27	-44.0	-46.7	17.7	0.00e+00	0	42	0	944766976	59	4931
2026-01-07 10:45:36.49	321.31	27.12	-44.2	-46.9	17.4	0.00e+00	0	42	0	946864128	59	5089
2026-01-07 10:45:37.49	321.47	26.98	-44.4	-47.2	17.2	0.00e+00	0	42	0	948961280	59	5246
2026-01-07 10:45:38.50	321.63	26.83	-44.5	-47.3	17.1	0.00e+00	0	42	0	951058432	59	5322
2026-01-07 10:45:39.50	321.79	26.68	-44.6	-47.4	17.0	0.00e+00	0	42	0	953155584	59	5399
2026-01-07 10:45:40.50	321.94	26.53	-44.6	-47.5	17.0	0.00e+00	0	42	0	954204160	59	5428
2026-01-07 10:45:41.50	322.09	26.39	-44.5	-47.4	17.0	0.00e+00	0	42	0	956301312	59	5359
2026-01-07 10:45:42.50	322.25	26.24	-44.4	-47.3	17.1	0.00e+00	0	43	0	958398464	59	5291
2026-01-07 10:45:43.50	322.40	26.10	-44.3	-47.1	17.3	0.00e+00	0	43	0	960495616	59	5200
2026-01-07 10:45:44.50	322.54	25.96	-44.2	-47.1	17.3	0.00e+00	0	42	0	962592768	59	5173
2026-01-07 10:45:45.50	322.69	25.81	-44.2	-47.0	17.4	0.00e+00	0	42	0	963641344	59	5137
2026-01-07 10:45:46.50	322.84	25.67	-44.2	-47.0	17.3	0.00e+00	0	42	0	965738496	59	5155
2026-01-07 10:45:47.50	322.98	25.53	-44.0	-46.7	17.6	0.00e+00	0	42	0	967835648	59	4957
2026-01-07 10:45:48.51	323.13	25.39	-44.0	-46.8	17.6	0.00e+00	0	42	0	969932800	59	4998
2026-01-07 10:45:49.51	323.27	25.25	-44.1	-46.9	17.5	0.00e+00	0	43	0	972029952	59	5062
2026-01-07 10:45:50.51	323.41	25.11	-43.9	-46.6	17.7	0.00e+00	0	42	0	973078528	59	4912
2026-01-07 10:45:51.51	323.55	24.97	-44.0	-46.8	17.6	0.00e+00	0	42	0	975175680	59	5008
2026-01-07 10:45:52.52	323.69	24.83	-44.1	-46.9	17.5	0.00e+00	0	42	0	977272832	59	5043
2026-01-07 10:45:53.52	323.83	24.69	-44.2	-47.1	17.2	0.00e+00	0	43	0	979369984	59	5209
2026-01-07 10:45:54.52	323.97	24.55	-44.4	-47.4	17.0	0.00e+00	0	43	0	980418560	59	5377
2026-01-07 10:45:55.52	324.10	24.41	-44.6	-47.7	16.7	0.00e+00	0	42	0	982515712	59	5549
2026-01-07 10:45:56.52	324.24	24.27	-44.9	-48.1	16.4	0.00e+00	0	43	0	984612864	60	5468
2026-01-07 10:45:57.53	324.37	24.14	-45.1	-48.4	16.0	0.00e+00	0	42	0	986710016	60	5669
2026-01-07 10:45:58.53	324.50	24.00	-45.2	-48.4	16.0	0.00e+00	0	42	0	988807168	61	5374
2026-01-07 10:45:59.53	324.63	23.87	-45.3	-48.5	15.9	0.00e+00	0	42	0	989855744	61	5429
2026-01-07 10:46:00.53	324.76	23.73	-45.1	-48.2	16.2	0.00e+00	0	42	0	991952896	61	5221
2026-01-07 10:46:01.53	324.89	23.60	-44.9	-47.9	16.5	0.00e+00	0	42	0	994050048	61	5088
2026-01-07 10:46:02.53	325.02	23.46	-44.8	-47.7	16.7	0.00e+00	0	42	0	996147200	61	4980
2026-01-07 10:46:03.53	325.15	23.33	-44.4	-47.3	17.1	0.00e+00	0	43	0	998244352	60	5008
2026-01-07 10:46:04.54	325.27	23.20	-44.2	-47.0	17.4	0.00e+00	0	43	0	999292928	60	4821
2026-01-07 10:46:05.54	325.40	23.07	-44.1	-46.9	17.5	0.00e+00	0	42	0	1001390080	60	4763
2026-01-07 10:46:06.54	325.52	22.94	-44.2	-47.0	17.4	0.00e+00	0	42	0	1003487232	60	4835
2026-01-07 10:46:07.54	325.64	22.80	-44.3	-47.2	17.2	0.00e+00	0	42	0	1005584384	60	4936
2026-01-07 10:46:08.54	325.76	22.67	-44.5	-47.5	16.9	0.00e+00	0	43	0	1007681536	60	5109
2026-01-07 10:46:09.54	325.88	22.54	-44.4	-47.5	16.9	0.00e+00	0	43	0	1008730112	60	5104
2026-01-07 10:46:10.54	326.00	22.42	-44.3	-47.5	16.8	0.00e+00	0	43	0	1010827264	60	5149
2026-01-07 10:46:11.54	326.12	22.29	-44.4	-47.7	16.7	0.00e+00	0	42	0	1012924416	60	5220
2026-01-07 10:46:12.54	326.24	22.16	-44.4	-47.7	16.7	0.00e+00	0	43	0	1015021568	60	5225
2026-01-07 10:46:13.55	326.36	22.03	-44.3	-47.6	16.8	0.00e+00	0	42	0	1016070144	60	5160
2026-01-07 10:46:14.55	326.47	21.90	-44.2	-47.5	16.9	0.00e+00	0	42	0	1018167296	60	5107
2026-01-07 10:46:15.55	326.59	21.78	-44.1	-47.2	17.2	0.00e+00	0	43	0	1020264448	60	4931
2026-01-07 10:46:16.55	326.70	21.65	-44.1	-47.1	17.2	0.00e+00	0	42	0	1022361600	60	4922
2026-01-07 10:46:17.55	326.82	21.53	-44.0	-46.9	17.4	0.00e+00	0	43	0	1024458752	60	4784
2026-01-07 10:46:18.55	326.93	21.40	-44.1	-46.9	17.5	0.00e+00	0	42	0	1025507328	60	4772
2026-01-07 10:46:19.56	327.04	21.27	-44.1	-46.8	17.5	0.00e+00	0	43	0	1027604480	60	4758
2026-01-07 10:46:20.56	327.15	21.15	-44.1	-46.8	17.6	0.00e+00	0	43	0	1029701632	60	4722
2026-01-07 10:46:21.56	327.26	21.03	-44.1	-46.9	17.4	0.00e+00	0	42	0	1031798784	60	4780
2026-01-07 10:46:22.56	327.37	20.90	-44.2	-47.0	17.3	0.00e+00	0	43	0	1033895936	60	4853
2026-01-07 10:46:23.56	327.48	20.78	-44.2	-47.0	17.4	0.00e+00	0	43	0	1034944512	60	4827
2026-01-07 10:46:24.57	327.59	20.66	-44.3	-47.1	17.2	0.00e+00	0	42	0	1037041664	60	4909
2026-01-07 10:46:25.57	327.69	20.54	-44.3	-47.1	17.3	0.00e+00	0	42	0	1039138816	60	4892
2026-01-07 10:46:26.57	327.80	20.42	-44.3	-47.2	17.1	0.00e+00	0	43	0	1041235968	60	4940
2026-01-07 10:46:27.57	327.90	20.30	-44.4	-47.3	17.1	0.00e+00	0	42	0	1043333120	60	4990
2026-01-07 10:46:28.57	328.01	20.18	-44.4	-47.3	17.0	0.00e+00	0	42	0	1044381696	60	5039
2026-01-07 10:46:29.58	328.11	20.06	-44.4	-47.4	17.0	0.00e+00	0	43	0	1046478848	60	5061
2026-01-07 10:46:30.58	328.21	19.94	-44.3	-47.3	17.0	0.00e+00	0	43	0	1048576000	60	5033
2026-01-07 10:46:31.58	328.32	19.82	-44.3	-47.3	17.0	0.00e+00	0	42	0	1050673152	60	5020
2026-01-07 10:46:32.58	328.42	19.70	-44.2	-47.3	17.0	0.00e+00	0	43	0	1052770304	60	4998
2026-01-07 10:46:33.58	328.52	19.58	-44.2	-47.3	17.0	0.00e+00	0	43	0	1053818880	60	5037
2026-01-07 10:46:34.58	328.62	19.47	-44.2	-47.5	16.8	0.00e+00	0	43	0	1055916032	60	5128
2026-01-07 10:46:35.58	328.72	19.35	-44.3	-47.6	16.7	0.00e+00	0	43	0	1058013184	60	5218
2026-01-07 10:46:36.58	328.81	19.23	-44.4	-47.8	16.5	0.00e+00	0	42	0	1060110336	60	5305
2026-01-07 10:46:37.59	328.91	19.12	-44.4	-47.8	16.5	0.00e+00	0	42	0	1061158912	60	5334
2026-01-07 10:46:38.59	329.01	19.00	-44.5	-47.9	16.4	0.00e+00	0	43	0	1063256064	60	5373
2026-01-07 10:46:39.59	329.10	18.89	-44.6	-48.0	16.4	0.00e+00	0	43	0	1065353216	60	5427
2026-01-07 10:46:40.59	329.20	18.77	-44.5	-47.9	16.4	0.00e+00	0	43	0	1067450368	60	5370
2026-01-07 10:46:41.59	329.29	18.66	-44.5	-47.8	16.5	0.00e+00	0	43	0	1069547520	60	5288
2026-01-07 10:46:42.59	329.39	18.55	-44.7	-47.9	16.4	0.00e+00	0	43	0	1070596096	60	5380
2026-01-07 10:46:43.59	329.48	18.43	-44.7	-47.9	16.4	0.00e+00	0	43	0	1072693248	60	5360
2026-01-07 10:46:44.59	329.57	18.32	-44.7	-47.8	16.5	0.00e+00	0	42	0	1074790400	60	5331
2026-01-07 10:46:45.60	329.67	18.21	-44.6	-47.7	16.7	0.00e+00	0	43	0	1076887552	60	5228
2026-01-07 10:46:46.60	329.76	18.10	-44.6	-47.6	16.8	0.00e+00	0	43	0	1078984704	60	5160
2026-01-07 10:46:47.60	329.85	17.99	-44.7	-47.7	16.7	0.00e+00	0	43	0	1080033280	60	5221
2026-01-07 10:46:48.60	329.94	17.88	-44.6	-47.5	16.8	0.00e+00	0	43	0	1082130432	60	5140
2026-01-07 10:46:49.60	330.03	17.77	-44.6	-47.5	16.8	0.00e+00	0	43	0	1084227584	60	5128
2026-01-07 10:46:50.60	330.12	17.66	-44.7	-47.6	16.7	0.00e+00	0	43	0	1086324736	60	5195
2026-01-07 10:46:51.61	330.21	17.55	-44.6	-47.6	16.7	0.00e+00	0	42	0	1088421888	60	5174
2026-01-07 10:46:52.61	330.29	17.44	-44.7	-47.6	16.7	0.00e+00	0	42	0	1089470464	60	5203
2026-01-07 10:46:53.61	330.38	17.33	-44.7	-47.6	16.7	0.00e+00	0	43	0	1091567616	60	5192
2026-01-07 10:46:54.60	330.47	17.22	-44.6	-47.6	16.7	0.00e+00	0	43	0	1093664768	60	5186
2026-01-07 10:46:55.60	330.55	17.11	-44.7	-47.7	16.6	0.00e+00	0	43	0	1095761920	60	5230
2026-01-07 10:46:56.60	330.64	17.01	-44.7	-47.6	16.5	0.00e+00	0	43	0	1097859072	60	5208
2026-01-07 10:46:57.60	330.72	16.90	-44.8	-47.8	16.5	0.00e+00	0	43	0	1098907648	60	5281
2026-01-07 10:46:58.61	330.81	16.79	-44.7	-47.7	16.6	0.00e+00	0	43	0	1101004800	60	5227
2026-01-07 10:46:59.61	330.89	16.69	-44.7	-47.7	16.6	0.00e+00	0	43	0	1103101952	60	5255
2026-01-07 10:47:00.61	330.97	16.58	-44.5	-47.5	16.8	0.00e+00	0	43	0	1105199104	60	5126
2026-01-07 10:47:01.62	331.06	16.47	-44.6	-47.6	16.6	0.00e+00	0	43	0	1106247680	60	5212
2026-01-07 10:47:02.62	331.14	16.37	-44.5	-47.5	16.8	0.00e+00	0	42	0	1108344832	60	5109
2026-01-07 10:47:03.62	331.22	16.27	-44.4	-47.4	16.9	0.00e+00	0	42	0	1110441984	60	5049
2026-01-07 10:47:04.62	331.30	16.16	-44.3	-47.4	16.9	0.00e+00	0	42	0	1112539136	60	5043
2026-01-07 10:47:05.63	331.38	16.06	-44.3	-47.3	17.0	0.00e+00	0	43	0	1114636288	60	4991
2026-01-07 10:47:06.63	331.46	15.95	-44.3	-47.3	17.0	0.00e+00	0	43	0	1115684864	60	4994
2026-01-07 10:47:07.63	331.54	15.85	-44.2	-47.1	17.1	0.00e+00	0	43	0	1117782016	60	4924
2026-01-07 10:47:08.63	331.62	15.75	-44.3	-47.2	17.0	0.00e+00	0	43	0	1119879168	60	4983
2026-01-07 10:47:09.63	331.70	15.65	-44.3	-47.3	17.0	0.00e+00	0	43	0	1121976320	60	4991
2026-01-07 10:47:10.63	331.77	15.54	-44.4	-47.3	16.9	0.00e+00	0	43	0	1124073472	60	5030
2026-01-07 10:47:11.64	331.85	15.44	-44.4	-47.4	16.9	0.00e+00	0	43	0	1125122048	60	5049
2026-01-07 10:47:12.64	331.93	15.34	-44.3	-47.3	16.9	0.00e+00	0	42	0	1127219200	60	5028
2026-01-07 10:47:13.64	332.00	15.24	-44.4	-47.5	16.8	0.00e+00	0	42	0	1129316352	60	5112
2026-01-07 10:47:14.64	332.08	15.14	-44.5	-47.6	16.6	0.00e+00	0	43	0	1131413504	60	5192
2026-01-07 10:47:15.64	332.16	15.04	-44.5	-47.6	16.7	0.00e+00	0	43	0	1133510656	60	5183
2026-01-07 10:47:16.64	332.23	14.94	-44.6	-47.7	16.5	0.00e+00	0	42	0	1134559232	60	5267
2026-01-07 10:47:17.64	332.31	14.84	-44.6	-47.9	16.4	0.00e+00	0	43	0	1136656384	60	5353
2026-01-07 10:47:18.64	332.38	14.74	-44.7	-47.9	16.3	0.00e+00	0	43	0	1138753536	60	5382
2026-01-07 10:47:19.64	332.45	14.65	-44.7	-48.0	16.2	0.00e+00	0	43	0	1140850688	60	5433
2026-01-07 10:47:20.64	332.53	14.55	-44.8	-48.1	16.1	0.00e+00	0	42	0	1142947840	60	5501
2026-01-07 10:47:21.64	332.60	14.45	-45.0	-48.4	15.8	0.00e+00	0	42	0	1143996416	60	5668
2026-01-07 10:47:22.64	332.67	14.35	-45.0	-48.4	15.8	0.00e+00	0	42	0	1146093568	60	5658
2026-01-07 10:47:23.65	332.74	14.26	-45.1	-48.5	15.7	0.00e+00	0	42	0	1148190720	60	5738
2026-01-07 10:47:24.65	332.81	14.16	-45.1	-48.5	15.7	0.00e+00	0	43	0	1150287872	60	5778
2026-01-07 10:47:25.65	332.88	14.06	-45.2	-48.6	15.5	0.00e+00	0	43	0	1151336448	61	5500
2026-01-07 10:47:26.65	332.95	13.97	-45.1	-48.5	15.7	0.00e+00	0	42	0	1153433600	61	5451
2026-01-07 10:47:27.65	333.02	13.87	-45.1	-48.5	15.7	0.00e+00	0	42	0	1155530752	61	5446
2026-01-07 10:47:28.65	333.09	13.78	-45.1	-48.4	15.8	0.00e+00	0	43	0	1157627904	61	5382
2026-01-07 10:47:29.66	333.16	13.68	-45.1	-48.4	15.7	0.00e+00	0	43	0	1159725056	61	5374
2026-01-07 10:47:30.66	333.23	13.59	-45.0	-48.3	15.9	0.00e+00	0	42	0	1160773632	61	5286
2026-01-07 10:47:31.66	333.30	13.49	-45.0	-48.2	16.0	0.00e+00	0	43	0	1162870784	61	5259
2026-01-07 10:47:32.66	333.37	13.40	-44.9	-48.1	16.0	0.00e+00	0	43	0	1164967936	61	5205
2026-01-07 10:47:33.66	333.44	13.30	-44.9	-48.1	16.0	0.00e+00	0	43	0	1167065088	61	5205
2026-01-07 10:47:34.67	333.50	13.21	-44.9	-48.1	16.0	0.00e+00	0	43	0	1169162240	61	5209
2026-01-07 10:47:35.67	333.57	13.12	-44.8	-47.9	16.2	0.00e+00	0	43	0	1170210816	61	5094
2026-01-07 10:47:36.67	333.64	13.03	-44.6	-47.6	16.5	0.00e+00	0	43	0	1172307968	61	4908
2026-01-07 10:47:37.67	333.70	12.93	-44.7	-47.7	16.4	0.00e+00	0	42	0	1174405120	61	4973
2026-01-07 10:47:38.68	333.77	12.84	-44.5	-47.5	16.6	0.00e+00	0	43	0	1176502272	61	4859
2026-01-07 10:47:39.68	333.83	12.75	-44.3	-47.3	16.9	0.00e+00	0	43	0	1177550848	60	5008
2026-01-07 10:47:40.68	333.90	12.66	-44.4	-47.4	16.7	0.00e+00	0	42	0	1179648000	60	5065
2026-01-07 10:47:41.68	333.96	12.57	-44.5	-47.5	16.6	0.00e+00	0	43	0	1181745152	60	5130
2026-01-07 10:47:42.68	334.03	12.48	-44.5	-47.5	16.6	0.00e+00	0	43	0	1183842304	60	5120
2026-01-07 10:47:43.68	334.09	12.39	-44.4	-47.4	16.7	0.00e+00	0	42	0	1185939456	60	5064
2026-01-07 10:47:44.69	334.15	12.30	-44.4	-47.4	16.7	0.00e+00	0	42	0	1188036608	60	5070
2026-01-07 10:47:45.69	334.22	12.21	-44.4	-47.4	16.7	0.00e+00	0	43	0	1189085184	60	5090
2026-01-07 10:47:46.69	334.28	12.12	-44.5	-47.5	16.6	0.00e+00	0	43	0	1191182336	60	5128
2026-01-07 10:47:47.70	334.34	12.03	-44.5	-47.5	16.6	0.00e+00	0	43	0	1193279488	60	5135
2026-01-07 10:47:48.70	334.40	11.94	-44.6	-47.7	16.5	0.00e+00	0	43	0	1195376640	60	5221
2026-01-07 10:47:49.70	334.47	11.85	-44.7	-47.7	16.4	0.00e+00	0	42	0	1196425216	60	5276
2026-01-07 10:47:50.70	334.53	11.76	-44.8	-47.9	16.2	0.00e+00	0	43	0	1198522368	60	5389
2026-01-07 10:47:51.70	334.59	11.67	-44.9	-48.1	16.0	0.00e+00	0	43	0	1200619520	60	5514
2026-01-07 10:47:52.70	334.65	11.59	-45.0	-48.1	16.0	0.00e+00	0	42	0	1202716672	60	5515
2026-01-07 10:47:53.70	334.71	11.50	-45.1	-48.3	15.8	0.00e+00	0	42	0	1204813824	60	5614
2026-01-07 10:47:54.70	334.77	11.41	-45.3	-48.6	15.5	0.00e+00	0	43	0	1205862400	61	5485
2026-01-07 10:47:55.70	334.83	11.32	-45.3	-48.6	15.5	0.00e+00	0	42	0	1207959552	61	5526
2026-01-07 10:47:56.71	334.89	11.24	-45.5	-48.9	15.2	0.00e+00	0	42	0	1210056704	61	5687
2026-01-07 10:47:57.70	334.94	11.15	-45.7	-49.2	14.9	0.00e+00	0	43	0	1212153856	61	5896
2026-01-07 10:47:58.71	335.00	11.06	-45.7	-49.2	14.9	0.00e+00	0	43	0	1214251008	62	5569
2026-01-07 10:47:59.71	335.06	10.98	-45.7	-49.3	14.9	0.00e+00	0	43	0	1215299584	62	5600
2026-01-07 10:48:00.71	335.12	10.89	-45.8	-49.5	14.6	1.50e-06	0	43	0	1217396736	62	5753
2026-01-07 10:48:01.71	335.18	10.81	-45.7	-49.4	14.7	0.00e+00	0	43	0	1219493888	62	5714
2026-01-07 10:48:02.72	335.24	10.72	-45.7	-49.5	14.5	0.00e+00	0	42	0	1221591040	62	5786
2026-01-07 10:48:03.72	335.29	10.64	-45.7	-49.5	14.6	0.00e+00	0	43	0	1222639616	62	5783
