passes_logs/2026/01/07/T1/T1__20260107_012533_FENGYUN_3D_rec.log

#Pass ID: 20260107_012533_FENGYUN 3D
#Satellite: FENGYUN 3D
#Configuration: FENGYUN 3D
#almurnet v.1.7.20251203
#Start time: 2026-01-07 01:25:33

#Version: 2.0.20230620
#Station: T1
#Location: 37.570604 lon 55.790049 lat
#TLE: 1 43010U 17072A   26006.26440730  .00000376  00000+0  19957-3 0  9994
#TLE: 2 43010  98.9925 337.9455 0002045 123.9195 236.2175 14.19693586422016

#Time	Az	El	Level	Level2	SNR	BER	BlckErr	Temp	State	Recorded	gain1	gain2
2026-01-07 01:25:33.66	19.07	5.04	-46.9	-61.0	3.8	8.46e-01	0	37	0	0	65	18195
2026-01-07 01:25:34.66	19.09	5.11	-47.0	-60.8	3.8	8.46e-01	0	38	104	0	64	18823
2026-01-07 01:25:35.66	19.11	5.18	-47.0	-60.7	3.8	8.47e-01	0	37	104	0	64	18551
2026-01-07 01:25:36.66	19.13	5.25	-47.0	-60.5	3.8	8.47e-01	0	37	104	0	64	18245
2026-01-07 01:25:37.67	19.16	5.32	-46.9	-60.5	3.8	8.46e-01	0	38	104	0	64	18115
2026-01-07 01:25:38.67	19.18	5.39	-46.9	-60.4	3.8	8.46e-01	0	37	104	0	64	17909
2026-01-07 01:25:39.68	19.20	5.46	-46.9	-60.3	3.8	8.48e-01	0	38	104	0	64	17882
2026-01-07 01:25:40.68	19.22	5.53	-46.9	-60.3	3.8	8.46e-01	0	38	104	0	64	17801
2026-01-07 01:25:41.69	19.25	5.61	-46.9	-60.3	3.8	8.47e-01	0	38	104	0	64	17833
2026-01-07 01:25:42.69	19.27	5.68	-46.9	-60.3	3.8	8.47e-01	0	38	104	0	64	17824
2026-01-07 01:25:43.69	19.29	5.75	-47.0	-60.4	3.8	8.46e-01	0	38	104	0	64	17971
2026-01-07 01:25:44.70	19.31	5.82	-46.9	-60.4	3.8	8.47e-01	0	38	104	0	64	18062
2026-01-07 01:25:45.70	19.34	5.90	-46.9	-60.5	3.8	8.47e-01	0	38	104	0	64	18205
2026-01-07 01:25:46.70	19.36	5.97	-46.9	-60.6	3.8	8.46e-01	0	38	104	0	64	18390
2026-01-07 01:25:47.71	19.38	6.04	-46.9	-60.7	3.8	8.46e-01	0	38	104	0	64	18571
2026-01-07 01:25:48.72	19.41	6.12	-46.9	-60.8	3.8	8.46e-01	0	38	104	0	64	18747
2026-01-07 01:25:49.72	19.43	6.19	-46.9	-60.8	3.8	8.47e-01	0	38	104	0	64	18913
2026-01-07 01:25:50.72	19.45	6.27	-47.0	-60.9	3.8	8.47e-01	0	38	104	0	64	19080
2026-01-07 01:25:51.73	19.48	6.34	-46.9	-60.9	3.8	8.47e-01	0	38	104	0	64	19154
2026-01-07 01:25:52.73	19.50	6.41	-46.9	-61.1	3.8	8.47e-01	0	38	104	0	64	19393
2026-01-07 01:25:53.74	19.53	6.49	-46.9	-61.0	3.8	8.47e-01	0	38	104	0	64	19332
2026-01-07 01:25:54.74	19.55	6.56	-46.9	-61.0	3.8	8.47e-01	0	38	104	0	64	19230
2026-01-07 01:25:55.74	19.57	6.64	-46.9	-60.9	3.8	8.45e-01	0	38	104	0	64	19110
2026-01-07 01:25:56.75	19.60	6.71	-46.9	-60.8	3.8	8.47e-01	0	38	104	0	64	18861
2026-01-07 01:25:57.75	19.62	6.79	-46.9	-60.5	3.8	8.46e-01	0	39	104	0	64	18196
2026-01-07 01:25:58.75	19.65	6.87	-46.9	-60.1	3.8	8.47e-01	0	38	104	0	64	17422
2026-01-07 01:25:59.76	19.67	6.94	-46.9	-59.7	3.8	8.46e-01	0	38	104	0	64	16537
2026-01-07 01:26:00.76	19.70	7.02	-46.8	-59.2	3.8	8.46e-01	0	39	104	0	64	15626
2026-01-07 01:26:01.77	19.72	7.09	-46.8	-58.6	3.8	8.44e-01	0	39	104	0	64	14666
2026-01-07 01:26:02.77	19.75	7.17	-46.7	-58.3	3.9	8.43e-01	0	38	104	0	64	14128
2026-01-07 01:26:03.77	19.77	7.25	-46.6	-57.8	4.1	8.43e-01	0	39	0	0	64	13296
2026-01-07 01:26:04.78	19.80	7.32	-46.6	-57.5	4.2	8.39e-01	0	39	0	0	64	12839
2026-01-07 01:26:05.78	19.82	7.40	-46.6	-57.3	4.2	8.37e-01	0	39	0	0	64	12553
2026-01-07 01:26:06.78	19.85	7.48	-46.6	-57.1	4.3	8.34e-01	0	39	0	0	64	12283
2026-01-07 01:26:07.79	19.87	7.56	-46.6	-57.0	4.3	8.34e-01	0	39	0	0	64	12193
2026-01-07 01:26:08.79	19.90	7.63	-46.6	-57.0	4.3	8.34e-01	0	39	0	0	64	12186
2026-01-07 01:26:09.80	19.92	7.71	-46.6	-57.2	4.2	8.34e-01	0	39	0	0	64	12385
2026-01-07 01:26:10.80	19.95	7.79	-46.6	-57.2	4.3	8.36e-01	0	39	0	0	64	12410
2026-01-07 01:26:11.80	19.97	7.87	-46.6	-57.3	4.2	8.36e-01	0	39	0	0	64	12531
2026-01-07 01:26:12.81	20.00	7.95	-46.6	-57.3	4.2	8.37e-01	0	39	0	0	64	12600
2026-01-07 01:26:13.81	20.02	8.03	-46.6	-57.3	4.2	8.35e-01	0	39	0	0	64	12652
2026-01-07 01:26:14.81	20.05	8.11	-46.6	-57.2	4.2	8.37e-01	0	39	0	0	64	12494
2026-01-07 01:26:15.82	20.08	8.19	-46.5	-57.0	4.3	8.34e-01	0	39	0	0	64	12130
2026-01-07 01:26:16.82	20.10	8.27	-46.6	-56.8	4.4	8.32e-01	0	39	0	0	64	11829
2026-01-07 01:26:17.83	20.13	8.35	-46.5	-56.2	4.6	8.22e-01	0	39	0	0	64	11151
2026-01-07 01:26:18.83	20.16	8.43	-46.4	-55.9	4.7	8.04e-01	0	39	0	0	64	10744
2026-01-07 01:26:19.84	20.18	8.51	-46.2	-54.9	5.3	7.83e-01	0	39	0	0	64	9507
2026-01-07 01:26:20.84	20.21	8.59	-46.2	-54.7	5.4	7.16e-01	0	39	0	0	64	9286
2026-01-07 01:26:21.85	20.24	8.67	-46.1	-53.8	6.1	3.45e-01	0	39	0	4194304	63	8877
2026-01-07 01:26:22.84	20.26	8.75	-45.9	-53.0	6.8	2.22e-01	0	39	0	9437184	63	8126
2026-01-07 01:26:23.85	20.29	8.83	-45.5	-51.9	7.8	1.17e-01	0	39	0	15728640	63	7127
2026-01-07 01:26:24.85	20.32	8.92	-45.2	-51.0	8.7	6.34e-02	0	39	0	20971520	62	6852
2026-01-07 01:26:25.85	20.35	9.00	-45.0	-50.5	9.2	2.96e-02	0	39	0	27262976	62	6477
2026-01-07 01:26:26.86	20.37	9.08	-45.7	-51.7	8.1	1.96e-03	0	39	0	32505856	62	7442
2026-01-07 01:26:27.86	20.40	9.16	-46.2	-53.9	6.2	1.01e-01	0	39	0	38797312	63	8986
2026-01-07 01:26:28.86	20.43	9.25	-44.6	-49.7	10.1	5.49e-02	0	39	0	44040192	61	6206
2026-01-07 01:26:29.94	20.46	9.34	-46.5	-57.5	4.2	7.40e-01	0	39	0	48234496	63	13638
2026-01-07 01:26:30.81	20.48	9.41	-41.5	-44.3	15.3	5.95e-02	0	39	0	50331648	55	4726
2026-01-07 01:26:32.13	20.52	9.52	-40.6	-43.2	16.5	0.00e+00	0	39	0	57671680	53	4678
2026-01-07 01:26:32.85	20.54	9.58	-40.6	-43.2	16.6	0.00e+00	0	39	0	61865984	52	4946
2026-01-07 01:26:34.14	20.58	9.69	-40.6	-43.2	16.6	1.10e-06	0	39	0	69206016	52	4930
2026-01-07 01:26:34.85	20.60	9.75	-40.4	-42.9	16.9	0.00e+00	0	39	0	73400320	52	4799
2026-01-07 01:26:36.14	20.64	9.86	-40.8	-43.4	16.3	0.00e+00	0	39	0	80740352	52	5083
2026-01-07 01:26:36.89	20.66	9.92	-40.5	-43.0	16.8	0.00e+00	0	39	0	84934656	52	4820
2026-01-07 01:26:38.17	20.69	10.03	-39.9	-42.2	17.7	0.00e+00	0	39	0	92274688	51	4657
2026-01-07 01:26:38.89	20.72	10.09	-39.6	-41.8	18.1	0.00e+00	0	39	0	95420416	51	4458
2026-01-07 01:26:40.18	20.75	10.20	-39.4	-41.6	18.3	0.00e+00	0	39	0	102760448	50	4622
2026-01-07 01:26:40.89	20.77	10.26	-39.4	-41.6	18.3	0.00e+00	0	39	0	106954752	50	4607
2026-01-07 01:26:42.17	20.81	10.38	-39.3	-41.4	18.4	0.00e+00	0	39	0	114294784	50	4538
2026-01-07 01:26:43.10	20.84	10.46	-39.1	-41.3	18.6	0.00e+00	0	39	0	119537664	50	4447
2026-01-07 01:26:44.10	20.87	10.54	-38.9	-41.0	18.8	0.00e+00	0	39	0	124780544	49	4587
2026-01-07 01:26:45.44	20.91	10.66	-38.8	-40.9	19.0	0.00e+00	0	39	0	133169152	49	4516
2026-01-07 01:26:46.18	20.93	10.73	-38.9	-41.0	18.8	0.00e+00	0	40	0	137363456	49	4574
2026-01-07 01:26:47.47	20.97	10.84	-38.8	-40.9	18.9	0.00e+00	0	39	0	144703488	49	4518
2026-01-07 01:26:48.23	21.00	10.91	-38.9	-41.0	18.9	0.00e+00	0	40	0	148897792	49	4572
2026-01-07 01:26:49.51	21.04	11.02	-38.9	-41.0	18.9	0.00e+00	0	40	0	156237824	49	4561
2026-01-07 01:26:50.23	21.06	11.08	-38.9	-40.9	18.9	0.00e+00	0	39	0	159383552	49	4537
2026-01-07 01:26:51.51	21.10	11.20	-38.8	-40.8	19.1	0.00e+00	0	40	0	166723584	49	4493
2026-01-07 01:26:52.22	21.12	11.26	-38.7	-40.7	19.2	0.00e+00	0	39	0	170917888	49	4421
2026-01-07 01:26:53.51	21.16	11.38	-38.9	-40.9	19.1	0.00e+00	0	39	0	178257920	49	4523
2026-01-07 01:26:54.22	21.18	11.44	-38.8	-40.8	19.1	0.00e+00	0	40	0	182452224	49	4487
2026-01-07 01:26:55.56	21.23	11.56	-38.9	-40.9	19.0	0.00e+00	0	40	0	189792256	49	4535
2026-01-07 01:26:56.27	21.25	11.63	-38.8	-40.8	19.2	0.00e+00	0	40	0	193986560	49	4467
2026-01-07 01:26:57.56	21.29	11.75	-38.8	-40.8	19.2	0.00e+00	0	39	0	201326592	49	4477
2026-01-07 01:26:58.27	21.31	11.81	-38.9	-40.8	19.2	0.00e+00	0	39	0	204472320	49	4490
2026-01-07 01:26:59.67	21.36	11.94	-39.1	-41.1	18.9	0.00e+00	0	40	0	212860928	49	4599
2026-01-07 01:27:00.38	21.38	12.01	-39.0	-41.0	19.0	0.00e+00	0	39	0	217055232	49	4579
2026-01-07 01:27:01.72	21.42	12.13	-39.2	-41.1	18.9	0.00e+00	0	39	0	224395264	49	4646
2026-01-07 01:27:02.43	21.45	12.20	-38.9	-40.9	19.1	0.00e+00	0	40	0	228589568	49	4520
2026-01-07 01:27:03.72	21.49	12.32	-38.8	-40.8	19.2	0.00e+00	0	40	0	235929600	49	4462
2026-01-07 01:27:04.44	21.52	12.39	-38.9	-40.8	19.2	0.00e+00	0	40	0	239075328	49	4493
2026-01-07 01:27:05.72	21.56	12.51	-38.8	-40.8	19.2	0.00e+00	0	40	0	246415360	49	4456
2026-01-07 01:27:06.44	21.58	12.57	-38.9	-40.9	19.2	0.00e+00	0	40	0	250609664	49	4511
2026-01-07 01:27:07.72	21.63	12.70	-38.9	-40.8	19.2	0.00e+00	0	39	0	257949696	49	4474
2026-01-07 01:27:08.44	21.65	12.76	-39.1	-41.0	19.0	0.00e+00	0	40	0	262144000	49	4583
2026-01-07 01:27:09.73	21.69	12.89	-39.0	-41.0	19.0	0.00e+00	0	40	0	269484032	49	4570
2026-01-07 01:27:10.47	21.72	12.96	-38.8	-40.7	19.3	0.00e+00	0	39	0	273678336	49	4436
2026-01-07 01:27:11.76	21.77	13.08	-38.9	-40.9	19.2	0.00e+00	0	40	0	281018368	49	4497
2026-01-07 01:27:12.48	21.79	13.15	-39.0	-40.9	19.1	0.00e+00	0	39	0	285212672	49	4516
2026-01-07 01:27:13.76	21.84	13.28	-38.8	-40.7	19.3	0.00e+00	0	40	0	292552704	49	4439
2026-01-07 01:27:14.48	21.86	13.35	-38.8	-40.7	19.3	0.00e+00	0	39	0	295698432	49	4421
2026-01-07 01:27:15.77	21.91	13.47	-38.8	-40.7	19.3	0.00e+00	0	40	0	303038464	49	4431
2026-01-07 01:27:16.48	21.93	13.54	-38.7	-40.6	19.4	0.00e+00	0	40	0	307232768	49	4375
2026-01-07 01:27:17.76	21.98	13.67	-38.7	-40.5	19.5	0.00e+00	0	40	0	314572800	49	4329
2026-01-07 01:27:18.48	22.00	13.74	-38.8	-40.6	19.4	0.00e+00	0	40	0	318767104	49	4390
2026-01-07 01:27:19.77	22.05	13.87	-38.9	-40.8	19.3	0.00e+00	0	40	0	326107136	49	4466
2026-01-07 01:27:20.49	22.08	13.94	-38.9	-40.8	19.3	0.00e+00	0	40	0	330301440	49	4464
2026-01-07 01:27:21.78	22.13	14.07	-38.6	-40.5	19.6	0.00e+00	0	40	0	337641472	49	4306
2026-01-07 01:27:22.49	22.15	14.14	-38.8	-40.7	19.4	0.00e+00	0	40	0	340787200	49	4398
2026-01-07 01:27:23.78	22.20	14.27	-38.7	-40.5	19.6	0.00e+00	0	40	0	348127232	49	4326
2026-01-07 01:27:24.49	22.23	14.35	-38.5	-40.3	19.8	0.00e+00	0	40	0	352321536	49	4229
2026-01-07 01:27:25.78	22.28	14.48	-38.5	-40.3	19.7	0.00e+00	0	40	0	359661568	48	4483
2026-01-07 01:27:26.50	22.30	14.55	-38.4	-40.3	19.8	0.00e+00	0	40	0	363855872	48	4451
2026-01-07 01:27:27.78	22.35	14.68	-38.4	-40.3	19.8	0.00e+00	0	40	0	371195904	48	4447
2026-01-07 01:27:28.69	22.39	14.78	-38.3	-40.1	19.9	0.00e+00	0	40	0	376438784	48	4389
2026-01-07 01:27:29.71	22.43	14.88	-38.3	-40.1	20.0	0.00e+00	0	40	0	381681664	48	4373
2026-01-07 01:27:30.71	22.47	14.99	-38.3	-40.2	19.9	0.00e+00	0	40	0	387973120	48	4401
2026-01-07 01:27:31.71	22.50	15.09	-38.2	-40.1	20.0	0.00e+00	0	40	0	393216000	48	4348
2026-01-07 01:27:32.71	22.54	15.20	-38.2	-40.0	20.1	0.00e+00	0	40	0	398458880	48	4315
2026-01-07 01:27:33.71	22.58	15.30	-38.2	-40.0	20.0	0.00e+00	0	40	0	404750336	48	4318
2026-01-07 01:27:34.73	22.62	15.41	-38.0	-39.8	20.2	0.00e+00	0	40	0	409993216	48	4223
2026-01-07 01:27:35.79	22.67	15.52	-38.1	-39.9	20.1	0.00e+00	0	40	0	416284672	48	4286
2026-01-07 01:27:36.65	22.70	15.62	-38.0	-39.9	20.2	0.00e+00	0	40	0	420478976	48	4247
2026-01-07 01:27:38.00	22.76	15.76	-37.7	-39.5	20.3	0.00e+00	0	40	0	427819008	47	4310
2026-01-07 01:27:38.71	22.79	15.84	-37.7	-39.5	20.3	0.00e+00	0	40	0	432013312	47	4340
2026-01-07 01:27:40.17	22.85	16.00	-37.7	-39.5	20.4	0.00e+00	0	40	0	440401920	47	4329
2026-01-07 01:27:40.89	22.88	16.07	-37.7	-39.5	20.4	0.00e+00	0	40	0	444596224	47	4308
2026-01-07 01:27:42.22	22.93	16.22	-37.6	-39.5	20.4	0.00e+00	0	40	0	451936256	47	4297
2026-01-07 01:27:42.94	22.96	16.30	-37.6	-39.4	20.5	0.00e+00	0	40	0	456130560	47	4273
2026-01-07 01:27:44.26	23.02	16.45	-37.6	-39.4	20.5	0.00e+00	0	40	0	463470592	47	4263
2026-01-07 01:27:45.21	23.06	16.55	-37.5	-39.3	20.6	0.00e+00	0	40	0	468713472	47	4223
2026-01-07 01:27:46.21	23.10	16.66	-37.5	-39.3	20.5	0.00e+00	0	40	0	475004928	47	4235
2026-01-07 01:27:47.54	23.16	16.81	-37.5	-39.3	20.6	0.00e+00	0	40	0	482344960	46	4493
2026-01-07 01:27:48.25	23.19	16.89	-37.5	-39.3	20.6	0.00e+00	0	40	0	485490688	46	4491
2026-01-07 01:27:49.54	23.25	17.04	-37.5	-39.3	20.6	0.00e+00	0	40	0	492830720	46	4489
2026-01-07 01:27:50.26	23.28	17.12	-37.5	-39.3	20.5	0.00e+00	0	40	0	497025024	46	4488
2026-01-07 01:27:51.55	23.34	17.27	-37.3	-39.1	20.8	0.00e+00	0	40	0	504365056	46	4371
2026-01-07 01:27:52.27	23.37	17.35	-37.4	-39.2	20.8	0.00e+00	0	40	0	508559360	46	4404
2026-01-07 01:27:53.55	23.43	17.50	-37.4	-39.2	20.8	0.00e+00	0	40	0	515899392	46	4404
2026-01-07 01:27:54.27	23.46	17.58	-37.4	-39.2	20.8	0.00e+00	0	40	0	520093696	46	4396
2026-01-07 01:27:55.56	23.52	17.73	-37.2	-39.0	20.9	0.00e+00	0	40	0	527433728	46	4329
2026-01-07 01:27:56.29	23.55	17.81	-37.3	-39.0	20.9	0.00e+00	0	40	0	531628032	46	4338
2026-01-07 01:27:57.57	23.61	17.96	-37.3	-39.0	20.9	0.00e+00	0	40	0	538968064	46	4338
2026-01-07 01:27:58.29	23.65	18.05	-37.3	-39.0	20.9	0.00e+00	0	40	0	542113792	46	4328
2026-01-07 01:27:59.57	23.71	18.20	-37.5	-39.2	20.7	0.00e+00	0	40	0	549453824	46	4438
2026-01-07 01:28:00.29	23.74	18.29	-37.5	-39.3	20.7	0.00e+00	0	40	0	553648128	46	4447
2026-01-07 01:28:01.58	23.80	18.44	-37.2	-39.0	20.9	0.00e+00	0	40	0	560988160	46	4315
2026-01-07 01:28:02.30	23.84	18.53	-37.2	-38.9	21.0	0.00e+00	0	40	0	565182464	46	4280
2026-01-07 01:28:03.58	23.90	18.68	-37.1	-38.8	21.1	0.00e+00	0	40	0	572522496	46	4239
2026-01-07 01:28:04.30	23.93	18.77	-37.1	-38.9	21.0	0.00e+00	0	40	0	576716800	46	4261
2026-01-07 01:28:05.60	24.00	18.93	-36.9	-38.7	21.2	0.00e+00	0	40	0	584056832	45	4412
2026-01-07 01:28:06.31	24.03	19.02	-36.9	-38.6	21.3	0.00e+00	0	40	0	588251136	45	4375
2026-01-07 01:28:07.60	24.10	19.17	-36.7	-38.5	21.4	0.00e+00	0	40	0	594542592	45	4298
2026-01-07 01:28:08.31	24.13	19.26	-36.7	-38.4	21.5	0.00e+00	0	40	0	598736896	45	4264
2026-01-07 01:28:09.60	24.20	19.42	-36.7	-38.4	21.4	0.00e+00	0	40	0	606076928	45	4288
2026-01-07 01:28:10.32	24.24	19.51	-36.7	-38.4	21.5	0.00e+00	0	40	0	610271232	45	4270
2026-01-07 01:28:11.64	24.30	19.68	-36.6	-38.4	21.5	0.00e+00	0	40	0	617611264	45	4248
2026-01-07 01:28:12.35	24.34	19.77	-36.7	-38.4	21.5	0.00e+00	0	40	0	621805568	45	4274
2026-01-07 01:28:13.64	24.41	19.93	-36.6	-38.4	21.6	0.00e+00	0	40	0	629145600	45	4255
2026-01-07 01:28:14.36	24.45	20.02	-36.5	-38.3	21.6	0.00e+00	0	40	0	633339904	45	4208
2026-01-07 01:28:15.78	24.52	20.20	-36.6	-38.4	21.5	0.00e+00	0	40	0	640679936	45	4250
2026-01-07 01:28:16.49	24.56	20.30	-36.6	-38.4	21.6	0.00e+00	0	40	0	644874240	45	4248
2026-01-07 01:28:17.84	24.63	20.47	-36.6	-38.3	21.6	0.00e+00	0	40	0	652214272	45	4234
2026-01-07 01:28:18.55	24.67	20.56	-36.6	-38.4	21.5	0.00e+00	0	40	0	656408576	45	4249
2026-01-07 01:28:19.84	24.74	20.73	-36.5	-38.3	21.7	0.00e+00	0	40	0	663748608	45	4204
2026-01-07 01:28:20.56	24.78	20.83	-36.6	-38.3	21.6	0.00e+00	0	40	0	667942912	45	4228
2026-01-07 01:28:21.85	24.86	21.00	-36.6	-38.3	21.6	0.00e+00	0	40	0	675282944	45	4220
2026-01-07 01:28:22.56	24.90	21.09	-36.7	-38.4	21.5	0.00e+00	0	40	0	679477248	45	4268
2026-01-07 01:28:23.85	24.97	21.26	-36.6	-38.3	21.6	0.00e+00	0	40	0	685768704	45	4218
2026-01-07 01:28:24.57	25.01	21.36	-36.6	-38.4	21.5	0.00e+00	0	40	0	689963008	45	4257
2026-01-07 01:28:25.85	25.08	21.53	-36.4	-38.2	21.8	0.00e+00	0	40	0	697303040	44	4403
2026-01-07 01:28:26.56	25.12	21.63	-36.5	-38.2	21.7	0.00e+00	0	40	0	701497344	44	4421
2026-01-07 01:28:27.85	25.20	21.81	-36.5	-38.3	21.6	0.00e+00	0	40	0	708837376	44	4462
2026-01-07 01:28:28.57	25.24	21.90	-36.4	-38.2	21.8	0.00e+00	0	40	0	713031680	44	4398
2026-01-07 01:28:29.85	25.32	22.08	-36.3	-38.1	21.8	0.00e+00	0	40	0	720371712	44	4363
2026-01-07 01:28:30.57	25.36	22.18	-36.4	-38.1	21.8	0.00e+00	0	40	0	724566016	44	4386
2026-01-07 01:28:31.85	25.44	22.36	-36.3	-38.0	21.9	0.00e+00	0	40	0	730857472	44	4323
2026-01-07 01:28:32.56	25.48	22.46	-36.3	-38.0	21.9	0.00e+00	0	40	0	735051776	44	4337
2026-01-07 01:28:33.85	25.56	22.64	-36.2	-37.9	22.0	0.00e+00	0	40	0	742391808	44	4273
2026-01-07 01:28:34.57	25.61	22.74	-36.2	-37.9	22.0	0.00e+00	0	40	0	746586112	44	4280
2026-01-07 01:28:35.86	25.69	22.92	-36.2	-37.9	22.0	0.00e+00	0	40	0	753926144	44	4264
2026-01-07 01:28:36.57	25.73	23.03	-36.1	-37.8	22.1	0.00e+00	0	40	0	758120448	44	4199
2026-01-07 01:28:37.86	25.81	23.21	-35.8	-37.5	22.3	0.00e+00	0	40	0	765460480	43	4298
2026-01-07 01:28:38.57	25.86	23.31	-35.8	-37.5	22.2	0.00e+00	0	40	0	769654784	43	4304
2026-01-07 01:28:39.86	25.94	23.50	-35.8	-37.4	22.3	0.00e+00	0	40	0	776994816	43	4287
2026-01-07 01:28:40.57	25.99	23.60	-35.8	-37.4	22.3	0.00e+00	0	40	0	780140544	43	4291
2026-01-07 01:28:41.86	26.08	23.79	-35.8	-37.5	22.2	0.00e+00	0	40	0	787480576	43	4313
2026-01-07 01:28:42.58	26.12	23.90	-35.8	-37.4	22.3	0.00e+00	0	40	0	791674880	43	4288
2026-01-07 01:28:43.87	26.21	24.09	-35.8	-37.5	22.2	0.00e+00	0	40	0	799014912	43	4324
2026-01-07 01:28:44.58	26.26	24.20	-35.8	-37.5	22.2	0.00e+00	0	40	0	803209216	43	4316
2026-01-07 01:28:45.87	26.35	24.39	-35.9	-37.6	22.2	0.00e+00	0	40	0	810549248	43	4352
2026-01-07 01:28:46.58	26.39	24.50	-35.8	-37.5	22.2	0.00e+00	0	40	0	813694976	43	4309
2026-01-07 01:28:47.87	26.48	24.69	-35.8	-37.5	22.3	0.00e+00	0	40	0	821035008	43	4316
2026-01-07 01:28:48.59	26.54	24.80	-35.9	-37.6	22.2	0.00e+00	0	40	0	825229312	43	4345
2026-01-07 01:28:49.87	26.63	25.00	-35.9	-37.6	22.2	0.00e+00	0	40	0	832569344	43	4372
2026-01-07 01:28:50.59	26.68	25.11	-36.0	-37.6	22.1	0.00e+00	0	40	0	836763648	43	4390
2026-01-07 01:28:52.15	26.79	25.35	-36.1	-37.8	22.0	0.00e+00	0	40	0	845152256	43	4451
2026-01-07 01:28:52.86	26.84	25.47	-36.0	-37.7	22.0	0.00e+00	0	40	0	849346560	43	4433
2026-01-07 01:28:54.14	26.94	25.67	-36.1	-37.8	22.0	0.00e+00	0	40	0	856686592	43	4464
2026-01-07 01:28:55.17	27.01	25.83	-36.0	-37.7	22.1	0.00e+00	0	40	0	862978048	43	4400
2026-01-07 01:28:56.17	27.09	25.99	-35.9	-37.6	22.2	0.00e+00	0	40	0	868220928	43	4369
2026-01-07 01:28:57.17	27.16	26.15	-35.9	-37.6	22.2	0.00e+00	0	40	0	873463808	43	4362
2026-01-07 01:28:58.17	27.24	26.31	-35.7	-37.4	22.4	0.00e+00	0	40	0	879755264	43	4259
2026-01-07 01:28:59.18	27.32	26.47	-35.6	-37.3	22.5	0.00e+00	0	40	0	884998144	43	4225
2026-01-07 01:29:00.18	27.40	26.64	-35.7	-37.4	22.4	0.00e+00	0	40	0	890241024	43	4255
2026-01-07 01:29:01.18	27.48	26.80	-35.7	-37.3	22.5	0.00e+00	0	40	0	896532480	43	4239
2026-01-07 01:29:02.18	27.56	26.96	-35.6	-37.3	22.5	0.00e+00	0	40	0	901775360	43	4209
2026-01-07 01:29:03.25	27.64	27.14	-35.6	-37.3	22.5	0.00e+00	0	40	0	908066816	43	4227
2026-01-07 01:29:04.10	27.71	27.28	-35.6	-37.3	22.5	0.00e+00	0	40	0	912261120	43	4205
2026-01-07 01:29:05.48	27.83	27.52	-35.6	-37.2	22.5	0.00e+00	0	40	0	920649728	43	4184
2026-01-07 01:29:06.20	27.89	27.64	-35.5	-37.1	22.6	0.00e+00	0	40	0	924844032	42	4384
2026-01-07 01:29:07.69	28.01	27.89	-35.5	-37.1	22.6	0.00e+00	0	40	0	933232640	42	4390
2026-01-07 01:29:08.66	28.09	28.06	-35.5	-37.2	22.6	0.00e+00	0	40	0	938475520	42	4422
2026-01-07 01:29:09.98	28.21	28.28	-35.5	-37.1	22.6	0.00e+00	0	40	0	945815552	42	4381
2026-01-07 01:29:10.70	28.27	28.41	-35.4	-37.1	22.7	0.00e+00	0	40	0	950009856	42	4341
2026-01-07 01:29:11.98	28.38	28.63	-35.5	-37.1	22.7	0.00e+00	0	40	0	957349888	42	4387
2026-01-07 01:29:12.69	28.44	28.76	-35.4	-37.1	22.7	0.00e+00	0	40	0	960495616	42	4357
2026-01-07 01:29:13.98	28.56	28.98	-35.5	-37.2	22.6	0.00e+00	0	40	0	967835648	42	4418
2026-01-07 01:29:14.70	28.63	29.11	-35.6	-37.2	22.6	0.00e+00	0	40	0	972029952	42	4431
2026-01-07 01:29:15.99	28.74	29.34	-35.6	-37.3	22.5	0.00e+00	0	40	0	979369984	42	4459
2026-01-07 01:29:16.71	28.81	29.47	-35.7	-37.3	22.5	0.00e+00	0	40	0	983564288	42	4491
2026-01-07 01:29:18.07	28.94	29.72	-35.7	-37.4	22.4	0.00e+00	0	40	0	990904320	42	4537
2026-01-07 01:29:18.79	29.01	29.85	-35.8	-37.4	22.4	0.00e+00	0	40	0	995098624	42	4545
2026-01-07 01:29:20.14	29.14	30.09	-35.9	-37.6	22.2	0.00e+00	0	40	0	1002438656	42	4631
2026-01-07 01:29:20.85	29.20	30.22	-35.9	-37.6	22.3	0.00e+00	0	40	0	1006632960	42	4610
2026-01-07 01:29:22.14	29.33	30.46	-36.0	-37.7	22.2	0.00e+00	0	40	0	1013972992	42	4675
2026-01-07 01:29:23.17	29.43	30.66	-35.7	-37.4	22.4	0.00e+00	0	40	0	1020264448	42	4522
2026-01-07 01:29:24.49	29.57	30.90	-35.6	-37.3	22.5	0.00e+00	0	40	0	1027604480	42	4476
2026-01-07 01:29:25.20	29.64	31.04	-35.6	-37.3	22.5	0.00e+00	0	40	0	1031798784	42	4477
2026-01-07 01:29:26.84	29.81	31.35	-35.4	-37.0	22.8	0.00e+00	0	40	0	1040187392	42	4333
2026-01-07 01:29:27.41	29.87	31.46	-35.4	-37.1	22.8	0.00e+00	0	40	0	1044381696	42	4349
2026-01-07 01:29:29.02	30.04	31.77	-35.5	-37.1	22.7	0.00e+00	0	40	0	1052770304	42	4387
2026-01-07 01:29:29.59	30.10	31.88	-35.5	-37.1	22.7	0.00e+00	0	40	0	1055916032	42	4390
2026-01-07 01:29:31.17	30.27	32.19	-35.4	-37.1	22.8	0.00e+00	0	40	0	1065353216	42	4345
2026-01-07 01:29:31.81	30.34	32.32	-35.3	-37.0	22.8	0.00e+00	0	40	0	1068498944	42	4324
2026-01-07 01:29:33.24	30.50	32.60	-35.4	-37.0	22.8	0.00e+00	0	40	0	1076887552	42	4326
2026-01-07 01:29:33.96	30.58	32.74	-35.3	-37.0	22.8	0.00e+00	0	40	0	1081081856	42	4310
2026-01-07 01:29:35.25	30.73	33.00	-35.2	-36.8	23.0	0.00e+00	0	40	0	1087373312	42	4228
2026-01-07 01:29:35.96	30.81	33.14	-35.2	-36.8	23.0	0.00e+00	0	40	0	1091567616	42	4229
2026-01-07 01:29:37.26	30.96	33.41	-35.1	-36.8	23.0	0.00e+00	0	40	0	1098907648	42	4211
2026-01-07 01:29:37.98	31.04	33.55	-35.0	-36.6	23.2	0.00e+00	0	40	0	1103101952	42	4145
2026-01-07 01:29:39.27	31.20	33.82	-35.1	-36.7	23.1	0.00e+00	0	40	0	1110441984	42	4189
2026-01-07 01:29:39.98	31.28	33.97	-35.0	-36.6	23.2	0.00e+00	0	40	0	1114636288	42	4119
2026-01-07 01:29:41.27	31.44	34.23	-35.0	-36.6	23.1	0.00e+00	0	40	0	1121976320	41	4389
2026-01-07 01:29:41.98	31.53	34.38	-35.1	-36.7	23.0	0.00e+00	0	40	0	1126170624	41	4435
2026-01-07 01:29:43.27	31.69	34.65	-35.1	-36.8	23.0	0.00e+00	0	40	0	1133510656	41	4463
2026-01-07 01:29:43.98	31.78	34.81	-35.2	-36.8	23.0	0.00e+00	0	40	0	1136656384	41	4492
2026-01-07 01:29:45.26	31.95	35.08	-35.3	-37.0	22.8	0.00e+00	0	40	0	1143996416	41	4579
2026-01-07 01:29:45.98	32.04	35.23	-35.3	-37.0	22.8	0.00e+00	0	40	0	1148190720	41	4559
2026-01-07 01:29:47.26	32.21	35.51	-35.4	-37.0	22.8	0.00e+00	0	40	0	1155530752	41	4585
2026-01-07 01:29:48.11	32.32	35.69	-35.3	-37.0	22.8	0.00e+00	0	40	0	1160773632	41	4565
2026-01-07 01:29:49.25	32.48	35.94	-35.2	-36.8	22.9	0.00e+00	0	40	0	1167065088	41	4473
2026-01-07 01:29:50.11	32.60	36.13	-35.0	-36.6	23.2	0.00e+00	0	40	0	1171259392	41	4389
2026-01-07 01:29:51.25	32.76	36.38	-34.7	-36.4	23.4	0.00e+00	0	40	0	1177550848	41	4256
2026-01-07 01:29:52.11	32.88	36.57	-34.7	-36.4	23.3	0.00e+00	0	40	0	1182793728	41	4253
2026-01-07 01:29:53.26	33.04	36.83	-34.8	-36.4	23.3	0.00e+00	0	40	0	1189085184	41	4266
2026-01-07 01:29:54.11	33.16	37.02	-34.7	-36.4	23.3	0.00e+00	0	40	0	1194328064	41	4262
2026-01-07 01:29:55.32	33.34	37.30	-34.8	-36.5	23.3	0.00e+00	0	40	0	1200619520	41	4293
2026-01-07 01:29:56.18	33.47	37.49	-34.8	-36.4	23.3	0.00e+00	0	40	0	1205862400	41	4275
2026-01-07 01:29:57.41	33.66	37.78	-34.7	-36.4	23.4	0.00e+00	0	40	0	1213202432	41	4253
2026-01-07 01:29:58.26	33.79	37.97	-34.7	-36.3	23.4	0.00e+00	0	40	0	1217396736	41	4239
2026-01-07 01:29:59.41	33.97	38.24	-34.8	-36.5	23.3	0.00e+00	0	40	0	1223688192	41	4301
2026-01-07 01:30:00.26	34.10	38.44	-34.9	-36.6	22.6	0.00e+00	0	40	0	1228931072	41	4367
2026-01-07 01:30:01.55	34.31	38.74	-35.2	-36.9	22.4	0.00e+00	0	40	0	1236271104	41	4535
2026-01-07 01:30:02.27	34.42	38.91	-35.3	-37.0	22.3	0.00e+00	0	40	0	1240465408	41	4581
2026-01-07 01:30:03.78	34.67	39.27	-35.2	-37.0	22.3	0.00e+00	0	40	0	1248854016	41	4566
2026-01-07 01:30:04.50	34.79	39.44	-35.2	-36.9	22.4	0.00e+00	0	40	0	1251999744	41	4519
2026-01-07 01:30:05.78	35.01	39.75	-35.0	-36.7	22.6	0.00e+00	0	40	0	1259339776	41	4422
2026-01-07 01:30:06.50	35.13	39.93	-35.0	-36.7	22.6	0.00e+00	0	40	0	1263534080	41	4430
2026-01-07 01:30:07.79	35.36	40.24	-34.9	-36.6	22.7	0.00e+00	0	40	0	1270874112	41	4355
2026-01-07 01:30:08.50	35.49	40.42	-34.9	-36.6	22.8	0.00e+00	0	40	0	1275068416	41	4349
2026-01-07 01:30:09.79	35.72	40.73	-34.8	-36.5	22.8	0.00e+00	0	40	0	1282408448	41	4335
2026-01-07 01:30:10.51	35.85	40.91	-35.0	-36.7	22.7	0.00e+00	0	40	0	1286602752	41	4397
2026-01-07 01:30:11.80	36.09	41.24	-35.1	-36.8	22.6	0.00e+00	0	40	0	1293942784	41	4473
2026-01-07 01:30:12.61	36.24	41.44	-35.1	-36.9	22.5	0.00e+00	0	40	0	1298137088	41	4496
2026-01-07 01:30:14.08	36.53	41.81	-35.2	-37.0	22.4	0.00e+00	0	40	0	1306525696	41	4551
2026-01-07 01:30:14.80	36.67	41.99	-35.2	-37.0	22.4	0.00e+00	0	40	0	1310720000	41	4557
2026-01-07 01:30:16.09	36.92	42.32	-35.2	-36.9	22.4	0.00e+00	0	40	0	1318060032	41	4536
2026-01-07 01:30:16.81	37.07	42.51	-35.2	-36.9	22.4	0.00e+00	0	40	0	1322254336	41	4545
2026-01-07 01:30:18.10	37.33	42.84	-35.1	-36.9	22.5	0.00e+00	0	40	0	1328545792	41	4496
2026-01-07 01:30:18.86	37.49	43.04	-35.2	-37.0	22.4	0.00e+00	0	40	0	1333788672	41	4555
2026-01-07 01:30:20.15	37.76	43.38	-35.0	-36.7	22.6	0.00e+00	0	40	0	1340080128	41	4432
2026-01-07 01:30:20.96	37.94	43.59	-35.2	-36.9	22.5	0.00e+00	0	40	0	1345323008	41	4507
2026-01-07 01:30:22.10	38.19	43.89	-35.2	-37.0	22.4	0.00e+00	0	40	0	1351614464	41	4562
2026-01-07 01:30:22.96	38.38	44.12	-35.4	-37.2	22.2	0.00e+00	0	40	0	1356857344	41	4678
2026-01-07 01:30:24.11	38.64	44.42	-35.6	-37.4	22.0	0.00e+00	0	40	0	1363148800	41	4766
2026-01-07 01:30:24.97	38.84	44.66	-35.7	-37.5	22.0	0.00e+00	0	40	0	1367343104	42	4571
2026-01-07 01:30:26.11	39.10	44.96	-35.7	-37.5	22.0	0.00e+00	0	40	0	1374683136	42	4560
2026-01-07 01:30:26.97	39.31	45.20	-35.6	-37.3	22.1	0.00e+00	0	40	0	1378877440	42	4482
2026-01-07 01:30:28.15	39.59	45.52	-35.4	-37.1	22.4	0.00e+00	0	40	0	1385168896	42	4369
2026-01-07 01:30:29.00	39.80	45.75	-35.2	-37.0	22.5	0.00e+00	0	40	0	1390411776	42	4293
2026-01-07 01:30:30.15	40.09	46.07	-35.2	-36.9	22.5	0.00e+00	0	40	0	1396703232	42	4284
2026-01-07 01:30:31.00	40.30	46.30	-35.2	-36.9	22.5	0.00e+00	0	40	0	1401946112	42	4286
2026-01-07 01:30:32.15	40.60	46.62	-35.2	-36.9	22.6	0.00e+00	0	40	0	1408237568	42	4280
2026-01-07 01:30:33.02	40.83	46.86	-35.5	-37.3	22.3	0.00e+00	0	40	0	1413480448	42	4447
2026-01-07 01:30:34.17	41.14	47.18	-35.6	-37.4	22.2	0.00e+00	0	40	0	1419771904	42	4500
2026-01-07 01:30:35.12	41.40	47.45	-35.5	-37.3	22.3	0.00e+00	0	40	0	1425014784	42	4446
2026-01-07 01:30:36.29	41.73	47.78	-35.5	-37.2	22.3	0.00e+00	0	40	0	1431306240	42	4423
2026-01-07 01:30:37.15	41.97	48.03	-35.5	-37.2	22.4	0.00e+00	0	40	0	1436549120	42	4424
2026-01-07 01:30:38.50	42.36	48.41	-35.6	-37.3	22.3	0.00e+00	0	40	0	1443889152	42	4480
2026-01-07 01:30:39.22	42.57	48.62	-35.8	-37.5	22.1	0.00e+00	0	40	0	1448083456	42	4575
2026-01-07 01:30:40.69	43.01	49.04	-35.7	-37.5	22.1	0.00e+00	0	40	0	1456472064	42	4554
2026-01-07 01:30:41.68	43.32	49.32	-35.6	-37.4	22.2	0.00e+00	0	40	0	1461714944	42	4510
2026-01-07 01:30:42.68	43.63	49.61	-35.6	-37.3	22.2	0.00e+00	0	40	0	1466957824	42	4477
2026-01-07 01:30:43.68	43.95	49.90	-35.8	-37.5	22.0	0.00e+00	0	40	0	1473249280	42	4590
2026-01-07 01:30:44.68	44.28	50.19	-36.0	-37.8	21.8	0.00e+00	0	40	0	1478492160	42	4726
2026-01-07 01:30:45.69	44.61	50.49	-36.0	-37.8	21.7	0.00e+00	0	40	0	1483735040	42	4744
2026-01-07 01:30:46.69	44.95	50.78	-36.1	-37.8	21.8	0.00e+00	0	40	0	1490026496	42	4742
2026-01-07 01:30:47.69	45.30	51.08	-36.0	-37.8	21.8	0.00e+00	0	40	0	1495269376	42	4707
2026-01-07 01:30:48.75	45.67	51.39	-36.0	-37.8	21.9	0.00e+00	0	40	0	1501560832	42	4707
2026-01-07 01:30:49.65	45.99	51.66	-36.0	-37.8	21.9	0.00e+00	0	40	0	1506803712	42	4719
2026-01-07 01:30:50.69	46.37	51.96	-35.9	-37.6	22.0	0.00e+00	0	40	0	1512046592	42	4637
2026-01-07 01:30:51.84	46.80	52.30	-36.1	-37.9	21.8	0.00e+00	0	40	0	1518338048	42	4780
2026-01-07 01:30:52.75	47.15	52.58	-36.3	-38.1	21.6	0.00e+00	0	40	0	1523580928	43	4616
2026-01-07 01:30:53.75	47.54	52.87	-36.3	-38.0	21.7	0.00e+00	0	40	0	1529872384	43	4585
2026-01-07 01:30:54.75	47.93	53.17	-36.1	-37.8	21.9	0.00e+00	0	40	0	1535115264	43	4482
2026-01-07 01:30:55.75	48.34	53.47	-36.1	-37.8	21.9	0.00e+00	0	40	0	1540358144	43	4473
2026-01-07 01:30:56.75	48.75	53.77	-36.3	-38.1	21.7	0.00e+00	0	40	0	1546649600	43	4602
2026-01-07 01:30:57.76	49.18	54.07	-36.2	-38.0	21.7	0.00e+00	0	40	0	1551892480	43	4546
2026-01-07 01:30:58.76	49.61	54.37	-36.2	-37.9	21.8	0.00e+00	0	40	0	1558183936	43	4520
2026-01-07 01:30:59.76	50.05	54.67	-36.2	-38.0	21.7	0.00e+00	0	40	0	1563426816	43	4547
2026-01-07 01:31:00.76	50.50	54.97	-36.7	-38.5	21.2	0.00e+00	0	40	0	1568669696	43	4820
2026-01-07 01:31:01.76	50.96	55.27	-37.0	-38.9	21.0	0.00e+00	0	40	0	1574961152	44	4776
2026-01-07 01:31:02.76	51.42	55.57	-36.9	-38.7	21.1	0.00e+00	0	40	0	1580204032	44	4677
2026-01-07 01:31:03.75	51.90	55.87	-36.6	-38.3	21.5	0.00e+00	0	40	0	1585446912	44	4492
2026-01-07 01:31:04.80	52.41	56.18	-36.4	-38.2	21.7	0.00e+00	0	40	0	1591738368	44	4402
2026-01-07 01:31:05.71	52.86	56.45	-36.3	-38.0	21.9	0.00e+00	0	40	0	1596981248	44	4319
2026-01-07 01:31:06.87	53.46	56.80	-36.1	-37.8	22.0	0.00e+00	0	40	0	1603272704	44	4232
2026-01-07 01:31:07.76	53.92	57.06	-36.3	-38.1	21.8	0.00e+00	0	40	0	1608515584	44	4353
2026-01-07 01:31:08.90	54.53	57.40	-36.6	-38.4	21.5	0.00e+00	0	40	0	1614807040	44	4512
2026-01-07 01:31:09.76	55.00	57.66	-36.3	-38.0	21.8	0.00e+00	0	40	0	1620049920	44	4338
2026-01-07 01:31:10.90	55.63	57.99	-36.1	-37.9	21.9	0.00e+00	0	40	0	1626341376	44	4256
2026-01-07 01:31:11.76	56.12	58.25	-36.1	-37.8	22.0	0.00e+00	0	40	0	1630535680	44	4225
2026-01-07 01:31:12.91	56.79	58.58	-35.8	-37.5	22.1	0.00e+00	0	40	0	1637875712	43	4317
2026-01-07 01:31:13.77	57.30	58.83	-35.9	-37.6	22.0	0.00e+00	0	40	0	1642070016	43	4383
2026-01-07 01:31:14.91	57.99	59.16	-35.7	-37.5	22.2	0.00e+00	0	40	0	1648361472	43	4292
2026-01-07 01:31:15.77	58.53	59.41	-35.6	-37.3	22.3	0.00e+00	0	40	0	1653604352	43	4233
2026-01-07 01:31:16.91	59.25	59.74	-35.4	-37.1	22.5	0.00e+00	0	40	0	1659895808	42	4383
2026-01-07 01:31:17.77	59.81	59.98	-35.1	-36.8	22.8	0.00e+00	0	40	0	1665138688	42	4210
2026-01-07 01:31:19.03	60.65	60.34	-35.5	-37.2	22.5	0.00e+00	0	40	0	1671430144	42	4394
2026-01-07 01:31:19.81	61.18	60.56	-35.5	-37.2	22.4	0.00e+00	0	40	0	1675624448	42	4440
2026-01-07 01:31:21.09	62.06	60.91	-35.3	-37.0	22.5	0.00e+00	0	40	0	1682964480	42	4301
2026-01-07 01:31:22.20	62.86	61.22	-35.0	-36.7	22.7	0.00e+00	0	40	0	1689255936	42	4188
2026-01-07 01:31:23.06	63.48	61.45	-34.8	-36.5	22.9	0.00e+00	0	40	0	1694498816	41	4317
2026-01-07 01:31:24.20	64.33	61.76	-34.5	-36.2	23.2	0.00e+00	0	40	0	1700790272	41	4164
2026-01-07 01:31:25.06	64.99	61.99	-34.8	-36.5	22.9	0.00e+00	0	40	0	1704984576	41	4293
2026-01-07 01:31:26.20	65.87	62.29	-35.5	-37.2	22.3	0.00e+00	0	40	0	1712324608	41	4676
2026-01-07 01:31:27.06	66.56	62.51	-35.1	-36.8	22.6	0.00e+00	0	40	0	1716518912	41	4460
2026-01-07 01:31:28.20	67.48	62.80	-34.9	-36.6	22.9	0.00e+00	0	40	0	1722810368	41	4345
2026-01-07 01:31:29.11	68.24	63.03	-34.8	-36.5	22.9	0.00e+00	0	40	0	1728053248	41	4312
2026-01-07 01:31:30.13	69.10	63.29	-35.0	-36.7	22.8	0.00e+00	0	40	0	1734344704	41	4420
2026-01-07 01:31:31.35	70.15	63.58	-35.1	-36.8	22.6	0.00e+00	0	40	0	1740636160	41	4491
2026-01-07 01:31:32.24	70.94	63.79	-35.0	-36.8	22.7	0.00e+00	0	40	0	1745879040	41	4442
2026-01-07 01:31:33.38	71.97	64.06	-34.6	-36.3	23.0	0.00e+00	0	40	0	1752170496	41	4238
2026-01-07 01:31:34.24	72.76	64.26	-34.6	-36.3	23.0	0.00e+00	0	40	0	1757413376	41	4238
2026-01-07 01:31:35.38	73.83	64.51	-35.0	-36.7	22.7	0.00e+00	0	40	0	1763704832	41	4434
2026-01-07 01:31:36.41	74.82	64.73	-34.6	-36.3	23.0	0.00e+00	0	40	0	1769996288	41	4217
2026-01-07 01:31:37.41	75.80	64.94	-34.6	-36.3	23.0	0.00e+00	0	40	0	1775239168	41	4221
2026-01-07 01:31:38.41	76.80	65.15	-34.8	-36.6	22.8	0.00e+00	0	40	0	1780482048	41	4346
2026-01-07 01:31:39.41	77.81	65.35	-34.7	-36.3	23.0	0.00e+00	0	40	0	1786773504	41	4239
2026-01-07 01:31:40.42	78.85	65.54	-34.6	-36.3	23.1	0.00e+00	0	40	0	1792016384	41	4215
2026-01-07 01:31:41.42	79.90	65.72	-34.9	-36.6	22.8	0.00e+00	0	40	0	1797259264	41	4366
2026-01-07 01:31:42.42	80.97	65.90	-34.8	-36.5	22.8	0.00e+00	0	40	0	1803550720	41	4317
2026-01-07 01:31:43.42	82.05	66.07	-34.6	-36.3	23.1	0.00e+00	0	40	0	1808793600	41	4200
2026-01-07 01:31:44.43	83.16	66.24	-34.6	-36.3	23.0	0.00e+00	0	40	0	1815085056	41	4224
2026-01-07 01:31:45.43	84.28	66.39	-34.5	-36.2	23.1	0.00e+00	0	40	0	1820327936	41	4181
2026-01-07 01:31:46.43	85.41	66.54	-34.5	-36.2	23.1	0.00e+00	0	40	0	1825570816	40	4436
2026-01-07 01:31:47.47	86.61	66.69	-34.5	-36.2	23.2	0.00e+00	0	40	0	1831862272	40	4397
2026-01-07 01:31:48.50	87.81	66.82	-34.5	-36.2	23.1	0.00e+00	0	40	0	1837105152	40	4403
2026-01-07 01:31:49.49	88.97	66.94	-34.4	-36.1	23.3	0.00e+00	0	40	0	1843396608	40	4351
2026-01-07 01:31:50.49	90.17	67.05	-34.5	-36.2	23.2	0.00e+00	0	40	0	1848639488	40	4423
2026-01-07 01:31:51.49	91.37	67.16	-34.5	-36.2	23.1	0.00e+00	0	40	0	1853882368	40	4425
2026-01-07 01:31:52.49	92.58	67.25	-34.6	-36.3	23.0	0.00e+00	0	40	0	1860173824	40	4481
2026-01-07 01:31:53.49	93.81	67.34	-34.7	-36.4	22.9	0.00e+00	0	40	0	1865416704	40	4543
2026-01-07 01:31:54.49	95.05	67.42	-34.6	-36.3	23.1	0.00e+00	0	40	0	1870659584	40	4452
2026-01-07 01:31:55.49	96.29	67.48	-34.2	-35.9	23.4	0.00e+00	0	40	0	1876951040	40	4251
2026-01-07 01:31:56.49	97.54	67.54	-34.1	-35.7	23.5	0.00e+00	0	40	0	1882193920	40	4180
2026-01-07 01:31:57.50	98.81	67.59	-34.1	-35.7	23.5	0.00e+00	0	40	0	1888485376	40	4182
2026-01-07 01:31:58.50	100.08	67.63	-34.1	-35.8	23.4	0.00e+00	0	40	0	1893728256	40	4222
2026-01-07 01:31:59.50	101.34	67.65	-34.3	-36.0	23.2	0.00e+00	0	40	0	1898971136	40	4326
2026-01-07 01:32:00.50	102.61	67.67	-34.5	-36.2	23.2	0.00e+00	0	40	0	1905262592	40	4396
2026-01-07 01:32:01.49	103.87	67.68	-34.8	-36.5	22.9	0.00e+00	0	40	0	1910505472	40	4571
2026-01-07 01:32:02.50	105.16	67.68	-34.5	-36.2	23.2	0.00e+00	0	40	0	1915748352	40	4401
2026-01-07 01:32:03.50	106.43	67.66	-34.4	-36.1	23.2	0.00e+00	0	40	0	1922039808	40	4367
2026-01-07 01:32:04.50	107.70	67.64	-34.4	-36.1	23.2	0.00e+00	0	40	0	1927282688	40	4383
2026-01-07 01:32:05.50	108.96	67.61	-34.5	-36.2	23.1	0.00e+00	0	40	0	1932525568	40	4412
2026-01-07 01:32:06.50	110.22	67.56	-34.9	-36.6	22.8	0.00e+00	0	40	0	1938817024	40	4610
2026-01-07 01:32:07.50	111.48	67.51	-34.9	-36.6	22.7	0.00e+00	0	40	0	1944059904	40	4643
2026-01-07 01:32:08.49	112.71	67.45	-34.6	-36.3	23.1	0.00e+00	0	40	0	1950351360	40	4453
2026-01-07 01:32:09.50	113.97	67.38	-34.3	-36.0	23.3	0.00e+00	0	40	0	1955594240	40	4317
2026-01-07 01:32:10.49	115.19	67.30	-34.4	-36.1	23.2	0.00e+00	0	40	0	1960837120	40	4386
2026-01-07 01:32:11.49	116.41	67.21	-34.5	-36.2	23.2	0.00e+00	0	40	0	1967128576	40	4404
2026-01-07 01:32:12.49	117.62	67.11	-34.6	-36.3	23.0	0.00e+00	0	40	0	1972371456	40	4475
2026-01-07 01:32:13.49	118.82	67.00	-34.6	-36.3	23.1	0.00e+00	0	40	0	1977614336	40	4451
2026-01-07 01:32:14.49	120.00	66.88	-34.5	-36.2	23.1	0.00e+00	0	40	0	1983905792	40	4436
2026-01-07 01:32:15.49	121.17	66.76	-34.6	-36.3	23.0	0.00e+00	0	40	0	1989148672	40	4473
2026-01-07 01:32:16.50	122.34	66.62	-34.5	-36.2	23.0	0.00e+00	0	40	0	1994391552	40	4421
2026-01-07 01:32:17.58	123.58	66.46	-34.4	-36.2	23.1	0.00e+00	0	40	0	2000683008	40	4395
2026-01-07 01:32:18.43	124.54	66.34	-34.5	-36.2	23.1	0.00e+00	0	40	0	2005925888	40	4400
2026-01-07 01:32:19.57	125.80	66.15	-34.6	-36.3	23.0	0.00e+00	0	40	0	2012217344	40	4468
2026-01-07 01:32:20.43	126.74	66.01	-34.7	-36.4	22.9	0.00e+00	0	40	0	2017460224	40	4544
2026-01-07 01:32:21.57	127.97	65.81	-34.7	-36.4	23.0	0.00e+00	0	40	0	2023751680	40	4530
2026-01-07 01:32:22.43	128.89	65.66	-34.7	-36.4	23.0	0.00e+00	0	40	0	2027945984	40	4522
2026-01-07 01:32:23.57	130.07	65.44	-35.0	-36.7	22.7	0.00e+00	0	40	0	2035286016	40	4663
2026-01-07 01:32:24.43	130.96	65.27	-34.9	-36.6	22.8	0.00e+00	0	40	0	2039480320	40	4632
2026-01-07 01:32:25.57	132.10	65.04	-34.8	-36.5	22.9	0.00e+00	0	40	0	2045771776	40	4549
2026-01-07 01:32:26.43	132.95	64.87	-34.6	-36.3	23.0	0.00e+00	0	40	0	2051014656	40	4478
2026-01-07 01:32:27.57	134.06	64.62	-34.6	-36.3	23.0	0.00e+00	0	40	0	2057306112	40	4461
2026-01-07 01:32:28.43	134.88	64.43	-34.6	-36.3	23.1	0.00e+00	0	40	0	2062548992	40	4468
2026-01-07 01:32:29.60	135.97	64.17	-34.6	-36.3	23.0	0.00e+00	0	40	0	2068840448	40	4491
2026-01-07 01:32:30.46	136.76	63.97	-34.7	-36.4	23.0	0.00e+00	0	40	0	2074083328	40	4505
2026-01-07 01:32:31.61	137.79	63.70	-34.5	-36.2	23.1	0.00e+00	0	40	0	2079326208	40	4410
2026-01-07 01:32:32.46	138.54	63.50	-34.6	-36.3	23.0	0.00e+00	0	40	0	2084569088	40	4488
2026-01-07 01:32:33.61	139.53	63.22	-34.7	-36.4	22.9	0.00e+00	0	40	0	2090860544	40	4544
2026-01-07 01:32:34.46	140.25	63.00	-34.7	-36.4	23.0	0.00e+00	0	40	0	2096103424	40	4524
2026-01-07 01:32:35.61	141.20	62.71	-34.9	-36.6	22.8	0.00e+00	0	40	0	2102394880	40	4638
2026-01-07 01:32:36.46	141.89	62.50	-34.9	-36.7	22.8	0.00e+00	0	40	0	2107637760	40	4664
2026-01-07 01:32:37.61	142.80	62.20	-35.0	-36.7	22.8	0.00e+00	0	40	0	2113929216	40	4683
2026-01-07 01:32:38.64	143.60	61.92	-35.2	-36.9	22.6	0.00e+00	0	40	0	2119172096	40	4795
2026-01-07 01:32:39.84	144.51	61.60	-35.2	-36.9	22.6	0.00e+00	0	40	0	2126512128	41	4540
2026-01-07 01:32:40.74	145.17	61.36	-35.1	-36.8	22.7	0.00e+00	0	40	0	2131755008	41	4468
2026-01-07 01:32:41.83	145.96	61.06	-35.0	-36.7	22.7	0.00e+00	0	40	0	2136997888	41	4440
2026-01-07 01:32:42.69	146.57	60.82	-35.0	-36.7	22.8	0.00e+00	0	40	0	2142240768	41	4429
2026-01-07 01:32:43.84	147.36	60.50	-34.9	-36.5	22.9	0.00e+00	0	40	0	2148532224	41	4332
2026-01-07 01:32:44.70	147.95	60.26	-34.9	-36.6	22.9	0.00e+00	0	40	0	2153775104	41	4369
2026-01-07 01:32:45.84	148.70	59.93	-35.3	-37.0	22.6	0.00e+00	0	40	0	2160066560	41	4566
2026-01-07 01:32:46.69	149.25	59.69	-35.4	-37.2	22.5	0.00e+00	0	40	0	2164260864	41	4653
2026-01-07 01:32:47.84	149.98	59.36	-35.2	-36.9	22.6	0.00e+00	0	40	0	2171600896	41	4518
2026-01-07 01:32:48.69	150.51	59.11	-35.2	-36.9	22.6	0.00e+00	0	40	0	2175795200	41	4543
2026-01-07 01:32:49.83	151.20	58.78	-35.5	-37.2	22.4	0.00e+00	0	40	0	2182086656	41	4675
2026-01-07 01:32:50.69	151.71	58.53	-35.6	-37.4	22.2	0.00e+00	0	40	0	2187329536	41	4774
2026-01-07 01:32:52.01	152.48	58.14	-35.5	-37.2	22.3	0.00e+00	0	40	0	2194669568	41	4690
2026-01-07 01:32:52.72	152.88	57.93	-35.5	-37.2	22.4	0.00e+00	0	40	0	2198863872	41	4661
2026-01-07 01:32:54.23	153.71	57.48	-35.8	-37.5	22.1	0.00e+00	0	40	0	2207252480	42	4578
2026-01-07 01:32:54.94	154.10	57.27	-36.1	-37.9	21.8	0.00e+00	0	40	0	2211446784	42	4763
2026-01-07 01:32:56.26	154.80	56.88	-36.3	-38.1	21.6	0.00e+00	0	40	0	2218786816	43	4610
2026-01-07 01:32:56.98	155.17	56.66	-36.2	-38.0	21.7	0.00e+00	0	40	0	2222981120	43	4561
2026-01-07 01:32:58.29	155.83	56.27	-36.0	-37.8	21.8	0.00e+00	0	40	0	2230321152	43	4448
2026-01-07 01:32:59.01	156.19	56.05	-36.1	-37.8	21.8	0.00e+00	0	40	0	2234515456	43	4477
2026-01-07 01:33:00.29	156.81	55.67	-36.1	-37.8	21.8	0.00e+00	0	40	0	2240806912	43	4475
2026-01-07 01:33:01.01	157.15	55.45	-36.1	-37.9	21.7	0.00e+00	0	40	0	2245001216	43	4513
2026-01-07 01:33:02.29	157.74	55.07	-36.2	-38.0	21.7	0.00e+00	0	40	0	2252341248	43	4564
2026-01-07 01:33:03.01	158.07	54.85	-36.2	-38.0	21.7	0.00e+00	0	40	0	2256535552	43	4575
2026-01-07 01:33:04.29	158.64	54.47	-36.2	-38.0	21.7	0.00e+00	0	40	0	2263875584	43	4551
2026-01-07 01:33:05.01	158.95	54.25	-36.1	-37.8	21.9	0.00e+00	0	40	0	2268069888	43	4486
2026-01-07 01:33:06.29	159.50	53.86	-36.1	-37.8	21.8	0.00e+00	0	40	0	2275409920	43	4490
2026-01-07 01:33:07.01	159.80	53.65	-36.2	-38.0	21.8	0.00e+00	0	40	0	2279604224	43	4556
2026-01-07 01:33:08.30	160.33	53.26	-36.3	-38.1	21.6	0.00e+00	0	40	0	2285895680	43	4610
2026-01-07 01:33:09.01	160.62	53.05	-36.2	-38.0	21.6	0.00e+00	0	40	0	2290089984	43	4575
2026-01-07 01:33:10.30	161.12	52.66	-36.2	-37.9	21.7	0.00e+00	0	40	0	2297430016	43	4545
2026-01-07 01:33:11.02	161.40	52.45	-36.4	-38.1	21.5	0.00e+00	0	40	0	2301624320	43	4640
2026-01-07 01:33:12.30	161.89	52.06	-36.2	-37.9	21.7	0.00e+00	0	40	0	2308964352	43	4538
2026-01-07 01:33:13.01	162.15	51.85	-36.0	-37.8	21.8	0.00e+00	0	40	0	2313158656	43	4453
2026-01-07 01:33:14.30	162.62	51.47	-35.8	-37.5	22.0	0.00e+00	0	40	0	2320498688	43	4340
2026-01-07 01:33:15.01	162.87	51.26	-35.7	-37.4	22.2	0.00e+00	0	40	0	2324692992	43	4284
2026-01-07 01:33:16.31	163.33	50.87	-35.5	-37.3	22.3	0.00e+00	0	40	0	2330984448	43	4194
2026-01-07 01:33:17.02	163.57	50.67	-35.5	-37.2	22.3	0.00e+00	0	40	0	2335178752	43	4190
2026-01-07 01:33:18.31	164.00	50.29	-35.6	-37.4	22.2	0.00e+00	0	40	0	2342518784	43	4250
2026-01-07 01:33:19.02	164.24	50.08	-35.5	-37.3	22.3	0.00e+00	0	40	0	2346713088	43	4219
2026-01-07 01:33:20.31	164.65	49.70	-35.5	-37.2	22.4	0.00e+00	0	40	0	2354053120	43	4180
2026-01-07 01:33:21.12	164.91	49.46	-35.3	-37.0	22.5	0.00e+00	0	40	0	2358247424	42	4333
2026-01-07 01:33:22.26	165.27	49.13	-35.2	-36.9	22.6	0.00e+00	0	40	0	2364538880	42	4291
2026-01-07 01:33:23.11	165.53	48.89	-35.4	-37.1	22.5	0.00e+00	0	40	0	2369781760	42	4375
2026-01-07 01:33:24.26	165.87	48.56	-35.3	-37.0	22.5	0.00e+00	0	40	0	2376073216	42	4334
2026-01-07 01:33:25.43	166.22	48.22	-35.4	-37.1	22.5	0.00e+00	0	40	0	2382364672	42	4352
2026-01-07 01:33:26.29	166.46	47.97	-35.4	-37.2	22.4	0.00e+00	0	40	0	2387607552	42	4397
2026-01-07 01:33:27.43	166.79	47.65	-35.7	-37.5	22.1	0.00e+00	0	40	0	2393899008	42	4576
2026-01-07 01:33:28.28	167.02	47.41	-35.9	-37.7	21.9	0.00e+00	0	40	0	2399141888	42	4673
2026-01-07 01:33:29.43	167.34	47.08	-35.8	-37.6	21.9	0.00e+00	0	40	0	2405433344	42	4651
2026-01-07 01:33:30.28	167.57	46.85	-35.9	-37.6	21.9	0.00e+00	0	40	0	2409627648	42	4639
2026-01-07 01:33:31.43	167.87	46.52	-35.4	-37.2	22.3	0.00e+00	0	40	0	2416967680	42	4408
2026-01-07 01:33:32.29	168.09	46.28	-35.1	-36.8	22.6	0.00e+00	0	40	0	2421161984	42	4224
2026-01-07 01:33:33.43	168.38	45.97	-35.1	-36.8	22.6	0.00e+00	0	40	0	2427453440	42	4214
2026-01-07 01:33:34.29	168.60	45.73	-35.1	-36.8	22.6	0.00e+00	0	40	0	2432696320	42	4217
2026-01-07 01:33:35.53	168.90	45.39	-35.1	-36.8	22.5	0.00e+00	0	40	0	2440036352	42	4234
2026-01-07 01:33:36.38	169.11	45.16	-35.1	-36.8	22.5	0.00e+00	0	40	0	2444230656	42	4240
2026-01-07 01:33:37.52	169.38	44.85	-35.1	-36.9	22.5	0.00e+00	0	40	0	2450522112	42	4247
2026-01-07 01:33:38.38	169.58	44.61	-35.1	-36.8	22.6	0.00e+00	0	40	0	2455764992	42	4220
2026-01-07 01:33:39.52	169.84	44.31	-35.0	-36.7	22.6	0.00e+00	0	40	0	2462056448	41	4422
2026-01-07 01:33:40.38	170.04	44.08	-35.1	-36.7	22.6	0.00e+00	0	40	0	2467299328	41	4439
2026-01-07 01:33:41.53	170.29	43.77	-34.9	-36.6	22.7	0.00e+00	0	40	0	2473590784	41	4387
2026-01-07 01:33:42.39	170.48	43.54	-35.1	-36.8	22.6	0.00e+00	0	40	0	2477785088	41	4467
2026-01-07 01:33:43.53	170.72	43.24	-35.2	-36.9	22.5	0.00e+00	0	40	0	2484076544	41	4525
2026-01-07 01:33:44.39	170.91	43.02	-35.1	-36.9	22.5	0.00e+00	0	40	0	2489319424	41	4519
2026-01-07 01:33:45.53	171.14	42.72	-35.1	-36.8	22.6	0.00e+00	0	40	0	2495610880	41	4475
2026-01-07 01:33:46.39	171.32	42.49	-35.0	-36.7	22.6	0.00e+00	0	40	0	2500853760	41	4432
2026-01-07 01:33:47.54	171.55	42.20	-34.9	-36.6	22.7	0.00e+00	0	40	0	2507145216	41	4347
2026-01-07 01:33:48.39	171.72	41.98	-34.8	-36.5	22.8	0.00e+00	0	40	0	2511339520	41	4334
2026-01-07 01:33:49.53	171.94	41.69	-34.9	-36.6	22.7	0.00e+00	0	40	0	2518679552	41	4384
2026-01-07 01:33:50.39	172.11	41.47	-35.0	-36.8	22.6	0.00e+00	0	40	0	2522873856	41	4455
2026-01-07 01:33:51.63	172.34	41.16	-35.2	-36.9	22.4	0.00e+00	0	40	0	2530213888	41	4527
2026-01-07 01:33:52.49	172.50	40.94	-35.2	-36.9	22.4	0.00e+00	0	40	0	2534408192	41	4533
2026-01-07 01:33:53.63	172.71	40.66	-35.1	-36.8	22.5	0.00e+00	0	40	0	2541748224	41	4481
2026-01-07 01:33:54.49	172.87	40.44	-35.1	-36.9	22.5	0.00e+00	0	40	0	2545942528	41	4499
2026-01-07 01:33:55.71	173.09	40.14	-35.0	-36.7	22.6	0.00e+00	0	40	0	2553282560	41	4424
2026-01-07 01:33:56.57	173.24	39.93	-34.9	-36.6	22.7	0.00e+00	0	40	0	2557476864	41	4360
2026-01-07 01:33:57.71	173.43	39.65	-34.9	-36.6	22.7	0.00e+00	0	40	0	2564816896	41	4381
2026-01-07 01:33:58.57	173.58	39.44	-35.0	-36.7	22.6	0.00e+00	0	40	0	2569011200	41	4437
2026-01-07 01:33:59.71	173.77	39.17	-34.9	-36.7	22.6	0.00e+00	0	40	0	2575302656	41	4397
2026-01-07 01:34:00.62	173.92	38.95	-35.0	-36.8	22.5	0.00e+00	0	40	0	2580545536	41	4452
2026-01-07 01:34:01.80	174.12	38.67	-35.0	-36.8	22.4	0.00e+00	0	40	0	2586836992	41	4479
2026-01-07 01:34:02.65	174.25	38.47	-35.0	-36.8	22.5	0.00e+00	0	40	0	2592079872	41	4444
2026-01-07 01:34:04.02	174.47	38.15	-35.1	-36.9	22.4	0.00e+00	0	40	0	2599419904	41	4494
2026-01-07 01:34:04.74	174.58	37.98	-35.0	-36.7	22.5	0.00e+00	0	40	0	2603614208	41	4434
2026-01-07 01:34:06.03	174.78	37.68	-34.7	-36.4	22.8	0.00e+00	0	40	0	2610954240	41	4268
2026-01-07 01:34:06.74	174.89	37.51	-34.7	-36.4	22.8	0.00e+00	0	40	0	2615148544	41	4257
2026-01-07 01:34:08.03	175.08	37.22	-34.7	-36.5	22.7	0.00e+00	0	40	0	2622488576	41	4301
2026-01-07 01:34:08.74	175.18	37.06	-34.7	-36.4	22.8	0.00e+00	0	40	0	2626682880	41	4269
2026-01-07 01:34:10.03	175.37	36.76	-34.8	-36.6	22.6	0.00e+00	0	40	0	2634022912	41	4360
2026-01-07 01:34:10.74	175.47	36.60	-34.9	-36.6	22.6	0.00e+00	0	40	0	2637168640	41	4390
2026-01-07 01:34:12.03	175.66	36.31	-35.0	-36.8	22.5	0.00e+00	0	40	0	2644508672	41	4469
2026-01-07 01:34:12.74	175.76	36.16	-34.9	-36.7	22.6	0.00e+00	0	40	0	2648702976	41	4400
2026-01-07 01:34:14.03	175.93	35.87	-34.8	-36.6	22.6	0.00e+00	0	40	0	2656043008	41	4348
2026-01-07 01:34:14.74	176.03	35.71	-34.8	-36.5	22.6	0.00e+00	0	40	0	2660237312	41	4326
2026-01-07 01:34:16.14	176.22	35.41	-34.7	-36.4	22.7	0.00e+00	0	40	0	2667577344	41	4272
2026-01-07 01:34:16.85	176.31	35.25	-34.7	-36.4	22.8	0.00e+00	0	40	0	2671771648	41	4255
2026-01-07 01:34:18.25	176.49	34.95	-34.8	-36.5	22.7	0.00e+00	0	40	0	2680160256	41	4309
2026-01-07 01:34:18.96	176.59	34.80	-34.9	-36.6	22.6	0.00e+00	0	40	0	2684354560	41	4353
2026-01-07 01:34:20.25	176.75	34.52	-34.8	-36.6	22.7	0.00e+00	0	40	0	2690646016	41	4345
2026-01-07 01:34:20.96	176.84	34.37	-34.8	-36.6	22.6	0.00e+00	0	40	0	2694840320	41	4357
2026-01-07 01:34:22.25	177.00	34.10	-35.0	-36.7	22.5	0.00e+00	0	40	0	2702180352	41	4431
2026-01-07 01:34:22.97	177.09	33.95	-35.0	-36.8	22.5	0.00e+00	0	40	0	2706374656	41	4444
2026-01-07 01:34:24.25	177.24	33.69	-35.0	-36.8	22.5	0.00e+00	0	40	0	2713714688	41	4456
2026-01-07 01:34:24.96	177.33	33.54	-35.1	-36.9	22.4	0.00e+00	0	40	0	2717908992	41	4517
2026-01-07 01:34:26.25	177.48	33.27	-35.0	-36.8	22.4	0.00e+00	0	40	0	2724200448	41	4473
2026-01-07 01:34:26.96	177.56	33.13	-35.0	-36.7	22.5	0.00e+00	0	40	0	2729443328	41	4436
2026-01-07 01:34:28.25	177.71	32.87	-35.0	-36.8	22.4	0.00e+00	0	40	0	2735734784	41	4454
2026-01-07 01:34:28.97	177.79	32.72	-35.2	-37.0	22.3	0.00e+00	0	40	0	2739929088	41	4551
2026-01-07 01:34:30.25	177.94	32.47	-35.0	-36.7	22.4	0.00e+00	0	40	0	2747269120	41	4419
2026-01-07 01:34:31.22	178.05	32.27	-35.0	-36.8	22.4	0.00e+00	0	40	0	2752512000	41	4453
2026-01-07 01:34:32.22	178.15	32.07	-35.1	-36.9	22.3	0.00e+00	0	40	0	2758803456	41	4510
2026-01-07 01:34:33.22	178.26	31.88	-35.1	-36.9	22.3	0.00e+00	0	40	0	2764046336	41	4504
2026-01-07 01:34:34.22	178.37	31.68	-35.2	-37.0	22.2	0.00e+00	0	40	0	2769289216	41	4567
2026-01-07 01:34:35.23	178.48	31.49	-35.3	-37.1	22.1	0.00e+00	0	40	0	2775580672	41	4624
2026-01-07 01:34:36.23	178.58	31.29	-35.3	-37.1	22.2	0.00e+00	0	40	0	2780823552	41	4603
2026-01-07 01:34:37.23	178.69	31.10	-35.2	-37.0	22.2	0.00e+00	0	40	0	2786066432	41	4572
2026-01-07 01:34:38.23	178.79	30.91	-35.2	-37.0	22.1	0.00e+00	0	40	0	2792357888	41	4592
2026-01-07 01:34:39.23	178.89	30.72	-35.3	-37.1	22.2	0.00e+00	0	40	0	2797600768	41	4599
2026-01-07 01:34:40.28	178.99	30.52	-35.2	-37.0	22.2	0.00e+00	0	40	0	2803892224	41	4572
2026-01-07 01:34:41.25	179.09	30.34	-35.2	-37.0	22.3	0.00e+00	0	40	0	2809135104	41	4550
2026-01-07 01:34:42.25	179.19	30.15	-35.1	-36.9	22.3	0.00e+00	0	40	0	2814377984	41	4505
2026-01-07 01:34:43.25	179.28	29.97	-35.1	-36.9	22.3	0.00e+00	0	40	0	2820669440	41	4514
2026-01-07 01:34:44.42	179.40	29.75	-35.1	-36.8	22.4	0.00e+00	0	40	0	2826960896	41	4490
2026-01-07 01:34:45.28	179.48	29.60	-35.2	-36.9	22.3	0.00e+00	0	40	0	2832203776	41	4532
2026-01-07 01:34:46.63	179.60	29.35	-35.1	-36.8	22.4	0.00e+00	0	40	0	2839543808	41	4493
2026-01-07 01:34:47.35	179.67	29.22	-35.1	-36.9	22.4	0.00e+00	0	40	0	2843738112	41	4499
2026-01-07 01:34:48.63	179.79	28.99	-35.1	-36.8	22.4	0.00e+00	0	40	0	2851078144	41	4479
2026-01-07 01:34:49.35	179.85	28.86	-35.1	-36.8	22.4	0.00e+00	0	40	0	2854223872	41	4482
2026-01-07 01:34:50.63	179.97	28.64	-35.1	-36.9	22.4	0.00e+00	0	40	0	2861563904	41	4504
2026-01-07 01:34:51.41	180.04	28.50	-35.3	-37.0	22.3	0.00e+00	0	40	0	2866806784	41	4577
2026-01-07 01:34:52.70	180.15	28.27	-35.2	-37.0	22.3	0.00e+00	0	40	0	2873098240	41	4555
2026-01-07 01:34:53.47	180.22	28.14	-35.2	-37.0	22.3	0.00e+00	0	40	0	2878341120	41	4563
2026-01-07 01:34:54.75	180.33	27.92	-35.2	-37.0	22.3	0.00e+00	0	40	0	2884632576	41	4566
2026-01-07 01:34:55.47	180.39	27.79	-35.2	-37.0	22.3	0.00e+00	0	40	0	2888826880	41	4565
2026-01-07 01:34:56.75	180.49	27.58	-35.3	-37.0	22.2	0.00e+00	0	40	0	2896166912	41	4590
2026-01-07 01:34:57.47	180.55	27.45	-35.2	-37.0	22.3	0.00e+00	0	40	0	2900361216	41	4565
2026-01-07 01:34:58.76	180.66	27.24	-35.3	-37.0	22.2	0.00e+00	0	40	0	2907701248	41	4585
2026-01-07 01:34:59.47	180.72	27.12	-35.3	-37.1	22.2	0.00e+00	0	40	0	2911895552	41	4609
2026-01-07 01:35:00.78	180.82	26.90	-35.2	-36.9	22.3	0.00e+00	0	40	0	2919235584	41	4539
2026-01-07 01:35:01.49	180.88	26.78	-35.1	-36.9	22.3	0.00e+00	0	40	0	2923429888	41	4505
2026-01-07 01:35:02.84	180.99	26.56	-35.1	-36.9	22.4	0.00e+00	0	40	0	2930769920	41	4497
2026-01-07 01:35:03.56	181.04	26.44	-35.2	-37.0	22.2	0.00e+00	0	40	0	2934964224	41	4571
2026-01-07 01:35:04.85	181.14	26.23	-35.2	-37.0	22.2	0.00e+00	0	40	0	2942304256	41	4561
2026-01-07 01:35:05.56	181.20	26.11	-35.2	-36.9	22.3	0.00e+00	0	40	0	2946498560	41	4542
2026-01-07 01:35:06.85	181.29	25.90	-35.4	-37.1	22.1	0.00e+00	0	40	0	2952790016	41	4635
2026-01-07 01:35:07.56	181.35	25.79	-35.4	-37.2	22.1	0.00e+00	0	40	0	2956984320	41	4660
2026-01-07 01:35:08.85	181.44	25.59	-35.4	-37.2	22.0	0.00e+00	0	40	0	2964324352	41	4689
2026-01-07 01:35:09.58	181.50	25.47	-35.6	-37.4	22.0	0.00e+00	0	40	0	2968518656	41	4766
2026-01-07 01:35:10.87	181.59	25.27	-35.6	-37.4	21.9	0.00e+00	0	40	0	2975858688	41	4761
2026-01-07 01:35:11.58	181.64	25.15	-35.6	-37.4	21.9	0.00e+00	0	40	0	2980052992	41	4772
2026-01-07 01:35:12.87	181.74	24.95	-35.8	-37.6	21.8	0.00e+00	0	40	0	2987393024	42	4612
2026-01-07 01:35:13.59	181.79	24.84	-35.8	-37.6	21.7	0.00e+00	0	40	0	2990538752	42	4644
2026-01-07 01:35:14.87	181.88	24.64	-35.8	-37.6	21.7	0.00e+00	0	40	0	2997878784	42	4624
2026-01-07 01:35:15.59	181.93	24.53	-35.8	-37.6	21.7	0.00e+00	0	40	0	3002073088	42	4638
2026-01-07 01:35:16.88	182.02	24.34	-35.9	-37.7	21.7	0.00e+00	0	40	0	3009413120	42	4693
2026-01-07 01:35:17.59	182.06	24.23	-36.0	-37.8	21.5	0.00e+00	0	40	0	3013607424	42	4747
2026-01-07 01:35:18.88	182.15	24.04	-35.9	-37.8	21.6	0.00e+00	0	40	0	3020947456	42	4710
2026-01-07 01:35:19.60	182.20	23.93	-36.0	-37.8	21.6	0.00e+00	0	40	0	3025141760	42	4724
2026-01-07 01:35:20.89	182.29	23.74	-36.1	-37.9	21.4	0.00e+00	0	40	0	3032481792	43	4539
2026-01-07 01:35:21.60	182.33	23.63	-36.1	-37.9	21.5	0.00e+00	0	40	0	3035627520	43	4511
2026-01-07 01:35:22.89	182.42	23.44	-36.0	-37.8	21.5	0.00e+00	0	40	0	3042967552	43	4484
2026-01-07 01:35:23.61	182.46	23.33	-36.0	-37.8	21.5	0.00e+00	0	39	0	3047161856	43	4491
2026-01-07 01:35:24.90	182.55	23.15	-36.0	-37.8	21.6	0.00e+00	0	40	0	3054501888	43	4453
2026-01-07 01:35:25.68	182.60	23.03	-36.1	-37.9	21.5	0.00e+00	0	40	0	3058696192	43	4503
2026-01-07 01:35:27.28	182.70	22.80	-36.1	-37.9	21.5	0.00e+00	0	40	0	3068133376	43	4530
2026-01-07 01:35:27.86	182.73	22.72	-35.9	-37.7	21.6	0.00e+00	0	40	0	3071279104	43	4441
2026-01-07 01:35:29.43	182.83	22.50	-36.1	-37.9	21.5	0.00e+00	0	40	0	3080716288	43	4531
2026-01-07 01:35:30.03	182.87	22.41	-36.0	-37.8	21.5	0.00e+00	0	40	0	3083862016	43	4483
2026-01-07 01:35:31.61	182.96	22.19	-36.0	-37.8	21.6	0.00e+00	0	40	0	3092250624	43	4461
2026-01-07 01:35:32.34	183.01	22.09	-36.0	-37.8	21.5	0.00e+00	0	40	0	3096444928	43	4472
2026-01-07 01:35:33.63	183.08	21.91	-36.1	-37.9	21.5	0.00e+00	0	40	0	3103784960	43	4513
2026-01-07 01:35:34.35	183.13	21.81	-36.0	-37.8	21.6	0.00e+00	0	40	0	3107979264	43	4447
2026-01-07 01:35:35.65	183.20	21.63	-36.1	-37.9	21.5	0.00e+00	0	40	0	3115319296	43	4513
2026-01-07 01:35:36.37	183.24	21.53	-36.1	-37.9	21.5	0.00e+00	0	40	0	3119513600	43	4510
2026-01-07 01:35:37.65	183.32	21.36	-36.1	-37.9	21.5	0.00e+00	0	40	0	3126853632	43	4511
2026-01-07 01:35:38.37	183.36	21.26	-36.1	-37.9	21.5	0.00e+00	0	40	0	3131047936	43	4529
2026-01-07 01:35:39.78	183.44	21.07	-36.2	-38.0	21.4	0.00e+00	0	40	0	3138387968	43	4582
2026-01-07 01:35:40.49	183.48	20.97	-36.1	-38.0	21.4	0.00e+00	0	40	0	3142582272	43	4550
2026-01-07 01:35:41.78	183.55	20.80	-36.2	-38.0	21.4	0.00e+00	0	40	0	3149922304	43	4571
2026-01-07 01:35:42.50	183.59	20.70	-36.3	-38.1	21.3	0.00e+00	0	40	0	3154116608	43	4616
2026-01-07 01:35:43.78	183.66	20.54	-36.3	-38.2	21.2	0.00e+00	0	40	0	3160408064	43	4660
2026-01-07 01:35:44.50	183.70	20.44	-36.4	-38.2	21.2	0.00e+00	0	40	0	3164602368	43	4682
2026-01-07 01:35:45.79	183.77	20.27	-36.4	-38.2	21.2	0.00e+00	0	40	0	3171942400	43	4687
2026-01-07 01:35:46.50	183.81	20.18	-36.4	-38.2	21.1	0.00e+00	0	40	0	3176136704	43	4679
2026-01-07 01:35:47.79	183.88	20.01	-36.5	-38.3	21.1	0.00e+00	0	40	0	3183476736	43	4737
2026-01-07 01:35:48.53	183.91	19.92	-36.6	-38.4	21.0	0.00e+00	0	40	0	3187671040	43	4800
2026-01-07 01:35:49.82	183.98	19.75	-36.7	-38.5	20.9	0.00e+00	0	40	0	3195011072	43	4865
2026-01-07 01:35:50.54	184.02	19.66	-36.8	-38.7	20.9	0.00e+00	0	40	0	3199205376	44	4670
2026-01-07 01:35:51.82	184.08	19.50	-36.9	-38.8	20.9	0.00e+00	0	40	0	3206545408	44	4706
2026-01-07 01:35:52.67	184.13	19.39	-37.0	-38.9	20.7	0.00e+00	0	40	0	3210739712	44	4798
2026-01-07 01:35:54.13	184.20	19.21	-37.0	-38.9	20.6	0.00e+00	0	40	0	3219128320	44	4814
2026-01-07 01:35:54.85	184.24	19.12	-37.2	-39.1	20.5	0.00e+00	0	40	0	3223322624	44	4883
2026-01-07 01:35:56.14	184.30	18.96	-37.1	-39.1	20.5	0.00e+00	0	40	0	3230662656	44	4872
2026-01-07 01:35:56.86	184.34	18.87	-37.1	-39.0	20.6	0.00e+00	0	40	0	3234856960	44	4852
2026-01-07 01:35:58.15	184.40	18.71	-37.3	-39.2	20.4	0.00e+00	0	40	0	3241148416	45	4667
2026-01-07 01:35:58.87	184.44	18.62	-37.3	-39.2	20.4	0.00e+00	0	40	0	3245342720	45	4671
2026-01-07 01:36:00.15	184.50	18.47	-37.2	-39.1	20.5	0.00e+00	0	40	0	3252682752	45	4637
2026-01-07 01:36:00.87	184.53	18.38	-37.3	-39.2	20.4	0.00e+00	0	40	0	3256877056	45	4687
2026-01-07 01:36:02.16	184.59	18.22	-37.3	-39.2	20.4	0.00e+00	0	40	0	3264217088	45	4672
2026-01-07 01:36:02.87	184.63	18.14	-37.3	-39.2	20.4	0.00e+00	0	40	0	3268411392	45	4696
2026-01-07 01:36:04.16	184.69	17.98	-37.3	-39.2	20.4	0.00e+00	0	40	0	3275751424	45	4686
2026-01-07 01:36:04.88	184.72	17.90	-37.4	-39.3	20.3	0.00e+00	0	40	0	3279945728	45	4733
2026-01-07 01:36:06.25	184.78	17.74	-37.3	-39.2	20.4	0.00e+00	0	40	0	3287285760	45	4690
2026-01-07 01:36:06.96	184.82	17.65	-37.2	-39.2	20.4	0.00e+00	0	40	0	3291480064	45	4653
2026-01-07 01:36:08.25	184.87	17.50	-37.3	-39.2	20.4	0.00e+00	0	40	0	3298820096	45	4691
2026-01-07 01:36:08.97	184.91	17.42	-37.3	-39.2	20.4	0.00e+00	0	40	0	3303014400	45	4689
2026-01-07 01:36:10.26	184.96	17.27	-37.3	-39.2	20.4	0.00e+00	0	40	0	3309305856	45	4665
2026-01-07 01:36:10.97	185.00	17.19	-37.3	-39.2	20.4	0.00e+00	0	40	0	3313500160	45	4675
2026-01-07 01:36:12.26	185.05	17.04	-37.3	-39.2	20.4	0.00e+00	0	40	0	3320840192	45	4664
2026-01-07 01:36:12.98	185.08	16.96	-37.4	-39.2	20.3	0.00e+00	0	40	0	3325034496	45	4696
2026-01-07 01:36:14.26	185.14	16.81	-37.4	-39.3	20.3	0.00e+00	0	40	0	3332374528	45	4710
2026-01-07 01:36:14.98	185.17	16.73	-37.4	-39.3	20.3	0.00e+00	0	40	0	3336568832	45	4722
2026-01-07 01:36:16.27	185.23	16.58	-37.4	-39.2	20.4	0.00e+00	0	40	0	3343908864	45	4699
2026-01-07 01:36:16.98	185.26	16.50	-37.4	-39.3	20.3	0.00e+00	0	40	0	3348103168	45	4750
2026-01-07 01:36:18.30	185.31	16.35	-37.4	-39.3	20.3	0.00e+00	0	40	0	3355443200	45	4736
2026-01-07 01:36:19.25	185.35	16.25	-37.5	-39.4	20.2	0.00e+00	0	40	0	3360686080	45	4802
2026-01-07 01:36:20.56	185.41	16.10	-37.5	-39.4	20.3	0.00e+00	0	40	0	3368026112	45	4760
2026-01-07 01:36:21.27	185.44	16.03	-37.4	-39.3	20.3	0.00e+00	0	40	0	3372220416	45	4743
2026-01-07 01:36:22.56	185.49	15.88	-37.6	-39.5	20.2	0.00e+00	0	40	0	3378511872	45	4822
2026-01-07 01:36:23.27	185.52	15.81	-37.6	-39.5	20.2	0.00e+00	0	40	0	3382706176	45	4821
2026-01-07 01:36:24.55	185.57	15.67	-37.6	-39.5	20.1	0.00e+00	0	40	0	3390046208	45	4861
2026-01-07 01:36:25.27	185.60	15.59	-37.8	-39.7	19.9	0.00e+00	0	40	0	3394240512	46	4700
2026-01-07 01:36:26.57	185.65	15.45	-37.7	-39.6	20.1	0.00e+00	0	40	0	3401580544	46	4613
2026-01-07 01:36:27.28	185.68	15.37	-37.8	-39.7	20.0	0.00e+00	0	40	0	3405774848	46	4663
2026-01-07 01:36:28.57	185.73	15.23	-37.8	-39.7	19.9	0.00e+00	0	40	0	3413114880	46	4692
2026-01-07 01:36:29.29	185.76	15.16	-37.9	-39.8	19.8	0.00e+00	0	40	0	3417309184	46	4759
2026-01-07 01:36:30.58	185.81	15.02	-38.0	-39.9	19.8	0.00e+00	0	40	0	3424649216	46	4760
2026-01-07 01:36:31.29	185.84	14.95	-38.0	-39.9	19.8	0.00e+00	0	40	0	3427794944	46	4799
2026-01-07 01:36:32.58	185.89	14.81	-37.9	-39.8	19.9	0.00e+00	0	40	0	3435134976	46	4726
2026-01-07 01:36:33.30	185.91	14.73	-38.0	-40.0	19.7	0.00e+00	0	40	0	3439329280	46	4824
2026-01-07 01:36:34.59	185.96	14.60	-38.1	-40.0	19.7	0.00e+00	0	40	0	3446669312	46	4859
2026-01-07 01:36:35.31	185.99	14.52	-38.2	-40.1	19.5	0.00e+00	0	40	0	3450863616	47	4646
2026-01-07 01:36:36.59	186.04	14.39	-38.3	-40.2	19.5	0.00e+00	0	40	0	3458203648	47	4699
2026-01-07 01:36:37.31	186.06	14.32	-38.2	-40.2	19.5	0.00e+00	0	40	0	3462397952	47	4677
2026-01-07 01:36:38.59	186.11	14.19	-38.3	-40.3	19.4	0.00e+00	0	40	0	3468689408	47	4721
2026-01-07 01:36:39.31	186.14	14.11	-38.3	-40.2	19.4	0.00e+00	0	40	0	3472883712	47	4692
2026-01-07 01:36:40.67	186.19	13.98	-38.4	-40.4	19.3	0.00e+00	0	40	0	3481272320	47	4764
2026-01-07 01:36:41.67	186.22	13.87	-38.4	-40.4	19.3	0.00e+00	0	40	0	3486515200	47	4783
2026-01-07 01:36:42.99	186.27	13.74	-38.4	-40.4	19.3	0.00e+00	0	40	0	3493855232	47	4788
2026-01-07 01:36:43.71	186.30	13.67	-38.5	-40.5	19.2	0.00e+00	0	40	0	3498049536	47	4851
2026-01-07 01:36:45.00	186.34	13.54	-38.5	-40.5	19.2	0.00e+00	0	40	0	3505389568	47	4827
2026-01-07 01:36:45.71	186.37	13.47	-38.6	-40.6	19.1	0.00e+00	0	40	0	3509583872	47	4902
2026-01-07 01:36:47.00	186.41	13.34	-38.6	-40.6	19.1	0.00e+00	0	40	0	3516923904	47	4916
2026-01-07 01:36:47.72	186.44	13.27	-38.5	-40.6	19.1	0.00e+00	0	40	0	3521118208	47	4880
2026-01-07 01:36:49.05	186.49	13.14	-38.6	-40.7	19.0	0.00e+00	0	40	0	3528458240	47	4927
2026-01-07 01:36:49.77	186.51	13.07	-38.8	-40.8	19.1	0.00e+00	0	40	0	3532652544	48	4735
2026-01-07 01:36:51.15	186.56	12.93	-38.8	-40.8	19.1	0.00e+00	0	40	0	3539992576	48	4746
2026-01-07 01:36:51.86	186.58	12.87	-38.8	-40.8	19.1	0.00e+00	0	40	0	3544186880	48	4733
2026-01-07 01:36:53.15	186.63	12.74	-38.8	-40.8	19.1	0.00e+00	0	40	0	3551526912	48	4730
2026-01-07 01:36:54.22	186.66	12.64	-38.8	-40.8	19.1	0.00e+00	0	40	0	3556769792	48	4752
2026-01-07 01:36:55.08	186.69	12.56	-38.9	-40.9	19.0	0.00e+00	0	40	0	3562012672	48	4792
2026-01-07 01:36:56.22	186.73	12.45	-38.9	-40.9	19.0	0.00e+00	0	40	0	3568304128	48	4789
2026-01-07 01:36:57.08	186.76	12.36	-38.9	-40.9	19.0	0.00e+00	0	40	0	3573547008	48	4798
2026-01-07 01:36:58.22	186.79	12.26	-38.9	-41.0	18.9	0.00e+00	0	40	0	3579838464	48	4832
2026-01-07 01:36:59.08	186.82	12.17	-39.0	-41.0	18.9	0.00e+00	0	40	0	3584032768	48	4857
2026-01-07 01:37:00.22	186.86	12.07	-38.9	-40.9	19.0	0.00e+00	0	40	0	3591372800	48	4804
2026-01-07 01:37:01.06	186.89	11.99	-38.8	-40.9	19.0	0.00e+00	0	40	0	3595567104	48	4765
2026-01-07 01:37:02.20	186.92	11.88	-38.9	-40.9	19.0	0.00e+00	0	40	0	3601858560	48	4774
2026-01-07 01:37:03.06	186.95	11.80	-38.9	-40.9	18.9	0.00e+00	0	40	0	3607101440	48	4812
2026-01-07 01:37:04.21	186.99	11.70	-38.9	-40.9	19.0	0.00e+00	0	40	0	3613392896	48	4784
2026-01-07 01:37:05.06	187.01	11.62	-38.9	-40.9	19.0	0.00e+00	0	40	0	3618635776	48	4794
2026-01-07 01:37:06.21	187.05	11.51	-38.8	-40.9	19.0	0.00e+00	0	40	0	3624927232	48	4766
2026-01-07 01:37:07.07	187.08	11.43	-39.0	-41.1	18.8	0.00e+00	0	40	0	3629121536	48	4872
2026-01-07 01:37:08.21	187.11	11.33	-39.1	-41.1	18.8	0.00e+00	0	40	0	3636461568	48	4900
2026-01-07 01:37:09.07	187.14	11.25	-38.9	-40.9	18.9	0.00e+00	0	40	0	3640655872	48	4808
2026-01-07 01:37:10.21	187.17	11.15	-38.9	-41.0	18.9	0.00e+00	0	40	0	3646947328	48	4825
2026-01-07 01:37:11.06	187.20	11.07	-39.1	-41.1	18.7	0.00e+00	0	40	0	3652190208	48	4916
2026-01-07 01:37:12.20	187.23	10.97	-39.0	-41.1	18.8	0.00e+00	0	40	0	3658481664	49	4622
