passes_logs/2026/01/07/T1/T1__20260107_020138_FENGYUN_3G_rec.log

#Pass ID: 20260107_020138_FENGYUN 3G
#Satellite: FENGYUN 3G
#Configuration: FENGYUN 3G
#almurnet v.1.7.20251203
#Start time: 2026-01-07 02:01:40

#Version: 2.0.20230620
#Station: T1
#Location: 37.570604 lon 55.790049 lat
#TLE: 1 56232U 23055A   26005.65670112  .00041871  00000+0  66206-3 0  9997
#TLE: 2 56232  49.9942 104.1198 0004242 344.1257  15.9577 15.52986726154745

#Time	Az	El	Level	Level2	SNR	BER	BlckErr	Temp	State	Recorded	gain1	gain2
2026-01-07 02:01:40.32	237.62	5.26	-49.2	-68.0	3.8	8.46e-01	0	36	0	0	70	30541
2026-01-07 02:01:41.31	237.53	5.33	-49.2	-68.1	3.8	8.40e-01	0	36	104	0	70	30779
2026-01-07 02:01:42.32	237.44	5.41	-49.2	-68.0	3.8	8.47e-01	0	36	104	0	70	30714
2026-01-07 02:01:43.32	237.35	5.48	-49.2	-68.1	3.8	8.46e-01	0	36	104	0	70	30795
2026-01-07 02:01:44.33	237.25	5.56	-49.2	-68.0	3.8	8.46e-01	0	36	104	0	70	30621
2026-01-07 02:01:45.33	237.16	5.64	-49.2	-68.0	3.8	8.47e-01	0	36	104	0	70	30662
2026-01-07 02:01:46.34	237.07	5.72	-49.2	-68.0	3.8	8.46e-01	0	36	104	0	70	30463
2026-01-07 02:01:47.34	236.97	5.80	-49.2	-67.9	3.8	8.46e-01	0	36	104	0	70	30273
2026-01-07 02:01:48.35	236.87	5.87	-49.2	-67.9	3.8	8.48e-01	0	36	104	0	70	30368
2026-01-07 02:01:49.35	236.78	5.95	-49.2	-67.9	3.8	8.47e-01	0	36	104	0	70	30249
2026-01-07 02:01:50.35	236.68	6.03	-49.1	-67.9	3.8	8.47e-01	0	36	104	0	70	30085
2026-01-07 02:01:51.36	236.58	6.11	-49.1	-67.8	3.8	8.47e-01	0	36	104	0	70	29953
2026-01-07 02:01:52.37	236.48	6.19	-49.2	-67.8	3.8	8.46e-01	0	36	104	0	70	29775
2026-01-07 02:01:53.37	236.38	6.27	-49.2	-67.7	3.8	8.46e-01	0	36	104	0	70	29556
2026-01-07 02:01:54.37	236.28	6.35	-49.2	-67.6	3.8	8.46e-01	0	36	104	0	70	29340
2026-01-07 02:01:55.38	236.18	6.43	-49.2	-67.6	3.8	8.46e-01	0	36	104	0	70	29294
2026-01-07 02:01:56.38	236.08	6.51	-49.1	-67.7	3.8	8.46e-01	0	36	104	0	70	29551
2026-01-07 02:01:57.39	235.98	6.59	-49.1	-67.8	3.8	8.46e-01	0	36	104	0	70	29889
2026-01-07 02:01:58.39	235.87	6.67	-49.2	-67.8	3.8	8.46e-01	0	36	104	0	70	29745
2026-01-07 02:01:59.39	235.77	6.75	-49.1	-67.8	3.8	8.49e-01	0	36	104	0	70	29716
2026-01-07 02:02:00.40	235.66	6.84	-49.2	-67.7	3.8	8.49e-01	0	37	104	0	70	29640
2026-01-07 02:02:01.40	235.56	6.92	-49.2	-67.8	3.8	8.46e-01	0	37	104	0	70	29711
2026-01-07 02:02:02.40	235.45	7.00	-49.1	-67.8	3.8	8.47e-01	0	37	104	0	70	29944
2026-01-07 02:02:03.41	235.34	7.08	-49.1	-67.9	3.8	8.47e-01	0	37	104	0	70	30371
2026-01-07 02:02:04.41	235.23	7.17	-49.1	-68.0	3.8	8.47e-01	0	36	104	0	70	30699
2026-01-07 02:02:05.42	235.12	7.25	-49.1	-68.1	3.8	8.47e-01	0	37	104	0	70	30813
2026-01-07 02:02:06.42	235.01	7.34	-49.2	-68.0	3.8	8.47e-01	0	37	104	0	70	30643
2026-01-07 02:02:07.43	234.90	7.42	-49.1	-68.1	3.8	8.47e-01	0	37	104	0	70	30737
2026-01-07 02:02:08.43	234.79	7.50	-49.1	-68.0	3.8	8.48e-01	0	37	104	0	70	30418
2026-01-07 02:02:09.43	234.68	7.59	-49.2	-67.7	3.8	8.47e-01	0	37	104	0	70	29500
2026-01-07 02:02:10.44	234.56	7.67	-49.1	-67.0	3.8	8.47e-01	0	37	104	0	70	27314
2026-01-07 02:02:11.44	234.45	7.76	-49.1	-66.6	3.8	8.46e-01	0	37	104	0	70	25981
2026-01-07 02:02:12.45	234.33	7.85	-49.1	-66.1	3.8	8.46e-01	0	37	104	0	70	24517
2026-01-07 02:02:13.45	234.21	7.93	-49.1	-66.1	3.8	8.46e-01	0	37	104	0	70	24602
2026-01-07 02:02:14.46	234.09	8.02	-49.1	-66.6	3.8	8.47e-01	0	37	104	0	70	25964
2026-01-07 02:02:15.46	233.98	8.11	-49.1	-67.2	3.8	8.46e-01	0	37	104	0	70	27834
2026-01-07 02:02:16.46	233.86	8.19	-49.1	-67.7	3.8	8.46e-01	0	37	104	0	70	29618
2026-01-07 02:02:17.47	233.73	8.28	-49.1	-67.9	3.8	8.46e-01	0	37	104	0	70	30174
2026-01-07 02:02:18.47	233.61	8.37	-49.1	-67.5	3.8	8.48e-01	0	37	104	0	70	28796
2026-01-07 02:02:19.48	233.49	8.46	-49.1	-66.8	3.8	8.48e-01	0	37	104	0	70	26518
2026-01-07 02:02:20.48	233.36	8.55	-49.1	-66.2	3.8	8.47e-01	0	37	104	0	70	24882
2026-01-07 02:02:21.49	233.24	8.64	-49.1	-65.7	3.8	8.46e-01	0	37	104	0	70	23510
2026-01-07 02:02:22.49	233.11	8.73	-49.0	-64.3	4.2	8.46e-01	0	37	0	0	70	19899
2026-01-07 02:02:23.49	232.99	8.82	-48.9	-62.2	5.1	8.43e-01	0	37	0	0	69	16685
2026-01-07 02:02:24.50	232.86	8.91	-48.7	-59.6	7.0	7.47e-01	0	37	0	0	69	12296
2026-01-07 02:02:25.50	232.73	9.00	-48.4	-57.5	9.1	1.42e-01	0	37	0	0	68	10264
2026-01-07 02:02:26.51	232.60	9.09	-48.2	-56.4	10.3	1.42e-01	0	37	0	0	68	9019
2026-01-07 02:02:27.59	232.45	9.19	-48.6	-59.1	8.3	1.09e-02	0	37	0	0	68	12311
2026-01-07 02:02:28.50	232.33	9.27	-48.3	-57.5	8.7	1.92e-01	0	37	0	0	68	10214
2026-01-07 02:02:29.50	232.20	9.36	-46.9	-52.5	13.7	1.92e-01	0	37	0	0	65	6831
2026-01-07 02:02:30.50	232.07	9.46	-47.4	-54.2	13.7	9.38e-03	0	37	0	0	65	8350
2026-01-07 02:02:31.50	231.93	9.55	-48.0	-56.6	9.1	1.58e-01	0	37	0	0	67	9764
2026-01-07 02:02:32.51	231.79	9.64	-44.8	-48.4	18.4	1.58e-01	0	37	0	0	61	5389
2026-01-07 02:02:33.51	231.65	9.74	-43.8	-46.9	20.0	2.12e-02	0	37	0	0	59	5069
2026-01-07 02:02:34.51	231.51	9.83	-43.2	-46.1	20.8	0.00e+00	0	37	0	0	58	4923
2026-01-07 02:02:35.52	231.37	9.93	-43.2	-46.1	21.0	0.00e+00	0	37	0	0	58	4886
2026-01-07 02:02:36.52	231.23	10.02	-43.0	-45.9	21.1	0.00e+00	0	37	0	0	58	4769
2026-01-07 02:02:37.52	231.09	10.12	-42.8	-45.6	21.4	0.00e+00	0	37	0	0	57	4883
2026-01-07 02:02:38.52	230.94	10.21	-42.4	-45.1	21.8	0.00e+00	0	37	0	0	56	4911
2026-01-07 02:02:39.53	230.79	10.31	-42.2	-44.8	22.2	0.00e+00	0	37	0	0	56	4718
2026-01-07 02:02:40.55	230.64	10.41	-41.7	-44.3	22.4	0.00e+00	0	37	0	0	55	4750
2026-01-07 02:02:41.55	230.50	10.51	-41.5	-44.0	22.8	0.00e+00	0	37	0	0	54	4840
2026-01-07 02:02:42.55	230.35	10.60	-41.0	-43.4	23.3	0.00e+00	0	37	0	0	54	4525
2026-01-07 02:02:43.56	230.19	10.70	-40.8	-43.2	23.4	0.00e+00	0	37	0	0	53	4689
2026-01-07 02:02:44.56	230.04	10.80	-40.7	-43.0	23.6	0.00e+00	0	37	0	0	53	4597
2026-01-07 02:02:45.57	229.88	10.90	-40.7	-43.0	23.6	0.00e+00	0	37	0	0	53	4594
2026-01-07 02:02:46.57	229.73	11.00	-40.8	-43.3	23.4	0.00e+00	0	37	0	0	53	4739
2026-01-07 02:02:47.57	229.57	11.10	-41.1	-43.6	23.2	0.00e+00	0	37	0	0	53	4875
2026-01-07 02:02:48.57	229.41	11.20	-40.8	-43.3	23.5	0.00e+00	0	37	0	0	53	4714
2026-01-07 02:02:49.57	229.25	11.30	-40.4	-42.7	23.9	0.00e+00	0	37	0	0	52	4703
2026-01-07 02:02:50.58	229.09	11.40	-40.7	-43.0	23.7	0.00e+00	0	37	0	0	52	4863
2026-01-07 02:02:51.58	228.93	11.50	-40.6	-43.0	23.8	0.00e+00	0	37	0	0	52	4827
2026-01-07 02:02:52.58	228.76	11.60	-40.6	-42.9	23.9	0.00e+00	0	38	0	0	52	4763
2026-01-07 02:02:53.58	228.60	11.71	-40.6	-42.9	23.8	0.00e+00	0	37	0	0	52	4801
2026-01-07 02:02:54.59	228.43	11.81	-40.6	-42.8	23.9	0.00e+00	0	37	0	0	52	4751
2026-01-07 02:02:55.59	228.26	11.91	-40.2	-42.4	24.2	0.00e+00	0	38	0	0	52	4538
2026-01-07 02:02:56.59	228.09	12.02	-40.1	-42.3	24.4	0.00e+00	0	37	0	0	52	4485
2026-01-07 02:02:57.60	227.92	12.12	-40.2	-42.4	24.3	0.00e+00	0	37	0	0	52	4520
2026-01-07 02:02:58.60	227.74	12.23	-40.1	-42.2	24.5	0.00e+00	0	38	0	0	51	4702
2026-01-07 02:02:59.60	227.57	12.33	-40.3	-42.6	24.2	0.00e+00	0	38	0	0	51	4882
2026-01-07 02:03:00.61	227.39	12.44	-40.5	-42.8	24.0	0.00e+00	0	38	0	0	51	5027
2026-01-07 02:03:01.61	227.21	12.54	-40.4	-42.7	24.1	0.00e+00	0	37	0	0	51	4970
2026-01-07 02:03:02.61	227.03	12.65	-40.4	-42.7	24.1	0.00e+00	0	38	0	0	51	4932
2026-01-07 02:03:03.61	226.85	12.76	-40.3	-42.6	24.2	0.00e+00	0	38	0	0	51	4902
2026-01-07 02:03:04.62	226.66	12.86	-40.5	-42.7	24.1	0.00e+00	0	37	0	0	51	4974
2026-01-07 02:03:05.62	226.48	12.97	-40.4	-42.7	24.2	0.00e+00	0	37	0	0	51	4932
2026-01-07 02:03:06.62	226.29	13.08	-40.0	-42.2	24.5	0.00e+00	0	38	0	0	51	4693
2026-01-07 02:03:07.62	226.10	13.19	-39.9	-42.0	24.7	0.00e+00	0	37	0	0	51	4584
2026-01-07 02:03:08.63	225.91	13.30	-40.0	-42.2	24.5	0.00e+00	0	38	0	0	51	4699
2026-01-07 02:03:09.63	225.72	13.41	-40.3	-42.5	24.3	0.00e+00	0	38	0	0	51	4854
2026-01-07 02:03:10.63	225.52	13.52	-40.2	-42.5	24.4	0.00e+00	0	38	0	0	51	4823
2026-01-07 02:03:11.63	225.32	13.63	-40.3	-42.5	24.4	0.00e+00	0	38	0	0	51	4821
2026-01-07 02:03:12.63	225.13	13.74	-40.2	-42.4	24.4	0.00e+00	0	38	0	0	51	4793
2026-01-07 02:03:13.63	224.93	13.85	-40.2	-42.4	24.5	0.00e+00	0	38	0	0	51	4764
2026-01-07 02:03:14.63	224.72	13.96	-40.1	-42.3	24.5	0.00e+00	0	38	0	0	51	4735
2026-01-07 02:03:15.84	224.48	14.10	-39.7	-41.9	24.9	0.00e+00	0	37	0	0	51	4503
2026-01-07 02:03:16.72	224.29	14.20	-39.5	-41.6	25.2	0.00e+00	0	38	0	0	50	4599
2026-01-07 02:03:18.02	224.02	14.35	-39.3	-41.3	25.4	0.00e+00	0	38	0	0	50	4481
2026-01-07 02:03:18.74	223.87	14.43	-39.2	-41.3	25.4	0.00e+00	0	38	0	0	50	4447
2026-01-07 02:03:20.03	223.59	14.58	-39.0	-41.1	25.6	0.00e+00	0	37	0	0	50	4347
2026-01-07 02:03:20.74	223.44	14.66	-39.2	-41.2	25.5	0.00e+00	0	38	0	0	50	4423
2026-01-07 02:03:22.03	223.16	14.81	-39.4	-41.5	25.3	0.00e+00	0	38	0	0	50	4572
2026-01-07 02:03:22.75	223.00	14.89	-39.4	-41.5	25.3	0.00e+00	0	38	0	0	50	4574
2026-01-07 02:03:24.04	222.72	15.04	-39.1	-41.2	25.6	0.00e+00	0	38	0	0	50	4392
2026-01-07 02:03:24.75	222.56	15.12	-38.8	-40.9	25.8	0.00e+00	0	38	0	0	49	4510
2026-01-07 02:03:26.04	222.27	15.27	-38.8	-40.9	25.8	0.00e+00	0	38	0	0	49	4504
2026-01-07 02:03:26.76	222.10	15.36	-38.8	-40.8	25.8	0.00e+00	0	38	0	0	49	4488
2026-01-07 02:03:28.05	221.80	15.51	-39.0	-41.0	25.7	0.00e+00	0	38	0	0	49	4598
2026-01-07 02:03:28.77	221.64	15.59	-39.2	-41.2	25.6	0.00e+00	0	38	0	0	49	4705
2026-01-07 02:03:30.05	221.33	15.75	-39.4	-41.6	25.2	0.00e+00	0	37	0	0	49	4879
2026-01-07 02:03:30.77	221.16	15.83	-39.2	-41.3	25.4	0.00e+00	0	38	0	0	49	4737
2026-01-07 02:03:32.05	220.86	15.98	-39.2	-41.3	25.5	0.00e+00	0	38	0	0	49	4739
2026-01-07 02:03:32.77	220.68	16.07	-39.1	-41.2	25.5	0.00e+00	0	38	0	0	49	4692
2026-01-07 02:03:34.23	220.32	16.25	-38.9	-40.9	25.8	0.00e+00	0	38	0	0	49	4525
2026-01-07 02:03:34.95	220.14	16.33	-38.8	-40.9	25.9	0.00e+00	0	38	0	0	49	4497
2026-01-07 02:03:36.24	219.82	16.49	-38.8	-40.9	25.8	0.00e+00	0	38	0	0	49	4513
2026-01-07 02:03:36.96	219.64	16.58	-38.7	-40.7	26.0	0.00e+00	0	38	0	0	49	4417
2026-01-07 02:03:38.25	219.31	16.73	-38.5	-40.5	26.1	0.00e+00	0	38	0	0	49	4320
2026-01-07 02:03:38.96	219.12	16.82	-38.4	-40.4	26.2	0.00e+00	0	38	0	0	48	4513
2026-01-07 02:03:40.25	218.79	16.98	-38.3	-40.3	26.1	0.00e+00	0	38	0	0	48	4447
2026-01-07 02:03:40.97	218.60	17.07	-38.5	-40.5	25.9	0.00e+00	0	38	0	0	48	4563
2026-01-07 02:03:42.26	218.25	17.23	-38.5	-40.5	26.2	0.00e+00	0	38	0	0	48	4573
2026-01-07 02:03:43.07	218.04	17.33	-38.6	-40.7	26.0	0.00e+00	0	38	0	0	48	4654
2026-01-07 02:03:44.53	217.64	17.51	-38.5	-40.5	26.2	0.00e+00	0	38	0	0	48	4578
2026-01-07 02:03:45.25	217.44	17.60	-38.4	-40.4	26.2	0.00e+00	0	38	0	0	48	4519
2026-01-07 02:03:46.54	217.08	17.76	-38.1	-40.1	26.5	0.00e+00	0	38	0	0	48	4360
2026-01-07 02:03:47.25	216.88	17.85	-38.1	-40.0	26.6	0.00e+00	0	38	0	0	48	4329
2026-01-07 02:03:48.54	216.51	18.01	-38.1	-40.0	26.5	0.00e+00	0	38	0	0	47	4577
2026-01-07 02:03:49.26	216.31	18.10	-38.2	-40.1	26.4	0.00e+00	0	38	0	0	47	4646
2026-01-07 02:03:50.54	215.94	18.26	-38.2	-40.1	26.4	0.00e+00	0	38	0	0	47	4645
2026-01-07 02:03:51.26	215.73	18.35	-38.1	-40.1	26.4	0.00e+00	0	38	0	0	47	4641
2026-01-07 02:03:52.55	215.34	18.52	-38.2	-40.2	26.4	0.00e+00	0	38	0	0	47	4683
2026-01-07 02:03:53.27	215.13	18.61	-38.1	-40.1	26.5	0.00e+00	0	38	0	0	47	4635
2026-01-07 02:03:54.56	214.74	18.77	-37.9	-39.9	26.7	0.00e+00	0	38	0	0	47	4497
2026-01-07 02:03:55.27	214.52	18.86	-37.8	-39.8	26.7	0.00e+00	0	38	0	0	47	4464
2026-01-07 02:03:56.56	214.12	19.03	-37.6	-39.6	26.9	0.00e+00	0	38	0	0	47	4343
2026-01-07 02:03:57.28	213.90	19.12	-37.5	-39.5	27.0	0.00e+00	0	38	0	0	47	4314
2026-01-07 02:03:58.57	213.49	19.28	-37.9	-39.9	26.6	0.00e+00	0	38	0	0	47	4516
2026-01-07 02:03:59.28	213.27	19.37	-38.0	-40.0	26.6	0.00e+00	0	38	0	0	47	4558
2026-01-07 02:04:00.70	212.81	19.55	-37.9	-39.9	26.6	0.00e+00	0	38	0	0	47	4514
2026-01-07 02:04:01.42	212.58	19.65	-38.0	-39.9	26.6	0.00e+00	0	38	0	0	47	4535
2026-01-07 02:04:02.79	212.13	19.82	-38.0	-40.0	26.6	0.00e+00	0	38	0	0	47	4567
2026-01-07 02:04:03.50	211.89	19.91	-38.2	-40.2	26.4	0.00e+00	0	38	0	0	47	4675
2026-01-07 02:04:04.79	211.46	20.08	-37.9	-39.9	26.5	0.00e+00	0	38	0	0	47	4540
2026-01-07 02:04:05.51	211.21	20.17	-37.8	-39.8	26.7	0.00e+00	0	38	0	0	47	4476
2026-01-07 02:04:06.80	210.77	20.34	-37.6	-39.5	27.0	0.00e+00	0	38	0	0	47	4324
2026-01-07 02:04:07.51	210.53	20.43	-37.8	-39.7	26.8	0.00e+00	0	38	0	0	47	4428
2026-01-07 02:04:08.80	210.08	20.59	-38.0	-40.0	26.6	0.00e+00	0	38	0	0	47	4578
2026-01-07 02:04:09.52	209.82	20.69	-37.8	-39.8	26.7	0.00e+00	0	38	0	0	47	4474
2026-01-07 02:04:10.81	209.36	20.85	-37.8	-39.8	26.8	0.00e+00	0	38	0	0	47	4464
2026-01-07 02:04:11.52	209.11	20.94	-37.8	-39.8	26.8	0.00e+00	0	38	0	0	47	4459
2026-01-07 02:04:12.81	208.64	21.11	-37.7	-39.7	26.9	0.00e+00	0	38	0	0	47	4406
2026-01-07 02:04:13.53	208.38	21.20	-37.6	-39.6	26.9	0.00e+00	0	38	0	0	47	4362
2026-01-07 02:04:14.82	207.90	21.36	-37.7	-39.7	26.9	0.00e+00	0	38	0	0	47	4423
2026-01-07 02:04:15.54	207.63	21.45	-37.8	-39.8	26.8	0.00e+00	0	38	0	0	47	4471
2026-01-07 02:04:16.83	207.14	21.62	-37.8	-39.7	26.8	0.00e+00	0	38	0	0	47	4428
2026-01-07 02:04:17.54	206.87	21.71	-37.3	-39.2	27.3	0.00e+00	0	38	0	0	46	4425
2026-01-07 02:04:18.83	206.37	21.87	-37.6	-39.6	27.0	0.00e+00	0	38	0	0	46	4618
2026-01-07 02:04:19.55	206.09	21.96	-37.6	-39.6	27.0	0.00e+00	0	38	0	0	46	4617
2026-01-07 02:04:20.84	205.58	22.12	-37.1	-39.0	27.4	0.00e+00	0	38	0	0	46	4306
2026-01-07 02:04:21.55	205.30	22.21	-37.1	-39.0	27.4	0.00e+00	0	38	0	0	46	4332
2026-01-07 02:04:22.84	204.79	22.37	-37.0	-38.9	27.5	0.00e+00	0	38	0	0	46	4277
2026-01-07 02:04:23.56	204.49	22.46	-37.2	-39.1	27.3	0.00e+00	0	38	0	0	46	4386
2026-01-07 02:04:24.85	203.97	22.62	-37.2	-39.1	27.4	0.00e+00	0	38	0	0	46	4359
2026-01-07 02:04:25.57	203.67	22.71	-37.3	-39.2	27.2	0.00e+00	0	38	0	0	46	4437
2026-01-07 02:04:26.86	203.14	22.87	-37.3	-39.2	27.3	0.00e+00	0	38	0	0	46	4435
2026-01-07 02:04:27.57	202.84	22.95	-37.2	-39.1	27.4	0.00e+00	0	38	0	0	46	4360
2026-01-07 02:04:28.86	202.29	23.11	-37.4	-39.3	27.2	0.00e+00	0	38	0	0	46	4469
2026-01-07 02:04:29.58	201.98	23.20	-37.4	-39.4	27.2	0.00e+00	0	38	0	0	46	4499
2026-01-07 02:04:30.87	201.43	23.35	-37.6	-39.6	27.0	0.00e+00	0	38	0	0	46	4619
2026-01-07 02:04:31.58	201.12	23.44	-37.6	-39.6	27.0	0.00e+00	0	38	0	0	46	4602
2026-01-07 02:04:32.87	200.55	23.59	-37.5	-39.5	27.0	0.00e+00	0	38	0	0	46	4552
2026-01-07 02:04:33.59	200.23	23.67	-37.6	-39.6	27.0	0.00e+00	0	38	0	0	46	4602
2026-01-07 02:04:34.88	199.66	23.82	-37.3	-39.3	27.2	0.00e+00	0	38	0	0	46	4458
2026-01-07 02:04:35.59	199.34	23.90	-37.1	-39.0	27.5	0.00e+00	0	38	0	0	46	4306
2026-01-07 02:04:36.88	198.75	24.05	-36.9	-38.8	27.6	0.00e+00	0	38	0	0	45	4469
2026-01-07 02:04:37.59	198.42	24.13	-36.8	-38.7	27.7	0.00e+00	0	38	0	0	45	4419
2026-01-07 02:04:38.88	197.83	24.28	-36.6	-38.5	27.7	0.00e+00	0	38	0	0	45	4292
2026-01-07 02:04:39.60	197.49	24.36	-36.5	-38.4	27.9	0.00e+00	0	38	0	0	45	4260
2026-01-07 02:04:40.88	196.89	24.50	-36.9	-38.8	27.6	0.00e+00	0	38	0	0	45	4478
2026-01-07 02:04:41.60	196.55	24.57	-36.9	-38.8	27.6	0.00e+00	0	38	0	0	45	4492
2026-01-07 02:04:42.89	195.93	24.71	-36.8	-38.7	27.7	0.00e+00	0	38	0	0	45	4396
2026-01-07 02:04:43.61	195.59	24.79	-36.7	-38.6	27.7	0.00e+00	0	38	0	0	45	4385
2026-01-07 02:04:44.96	194.93	24.93	-36.7	-38.7	27.7	0.00e+00	0	38	0	0	45	4395
2026-01-07 02:04:45.68	194.58	25.00	-36.6	-38.5	27.7	0.00e+00	0	38	0	0	45	4327
2026-01-07 02:04:47.03	193.91	25.14	-37.0	-38.9	27.5	0.00e+00	0	38	0	0	45	4517
2026-01-07 02:04:47.75	193.56	25.21	-36.8	-38.7	27.6	0.00e+00	0	38	0	0	45	4440
2026-01-07 02:04:49.12	192.87	25.35	-36.8	-38.7	27.7	0.00e+00	0	38	0	0	45	4435
2026-01-07 02:04:49.83	192.51	25.41	-36.9	-38.8	27.6	0.00e+00	0	38	0	0	45	4475
2026-01-07 02:04:51.16	191.84	25.54	-36.5	-38.3	27.9	0.00e+00	0	38	0	0	45	4241
2026-01-07 02:04:51.87	191.48	25.61	-36.2	-38.0	28.2	0.00e+00	0	38	0	0	44	4336
2026-01-07 02:04:53.23	190.78	25.73	-35.8	-37.7	28.3	0.00e+00	0	38	0	0	43	4393
2026-01-07 02:04:53.94	190.41	25.79	-36.1	-38.0	28.1	0.00e+00	0	38	0	0	43	4580
2026-01-07 02:04:55.23	189.74	25.90	-36.2	-38.0	28.1	0.00e+00	0	38	0	0	43	4588
2026-01-07 02:04:55.95	189.36	25.97	-35.9	-37.8	28.2	0.00e+00	0	38	0	0	43	4444
2026-01-07 02:04:57.24	188.68	26.07	-36.1	-38.0	28.1	0.00e+00	0	38	0	0	43	4561
2026-01-07 02:04:57.95	188.30	26.13	-36.2	-38.1	28.0	0.00e+00	0	38	0	0	43	4611
2026-01-07 02:04:59.24	187.61	26.23	-35.7	-37.5	28.4	0.00e+00	0	38	0	0	43	4331
2026-01-07 02:04:59.97	187.22	26.29	-35.7	-37.5	28.4	0.00e+00	0	38	0	0	43	4332
2026-01-07 02:05:01.26	186.52	26.38	-36.2	-38.1	28.1	0.00e+00	0	38	0	0	43	4638
2026-01-07 02:05:02.06	186.09	26.44	-36.1	-38.0	28.1	0.00e+00	0	38	0	0	43	4553
2026-01-07 02:05:03.20	185.47	26.52	-36.1	-37.9	28.1	0.00e+00	0	38	0	0	43	4540
2026-01-07 02:05:04.30	184.86	26.60	-36.2	-38.1	27.6	0.00e+00	0	38	0	0	43	4628
2026-01-07 02:05:05.33	184.30	26.66	-36.0	-37.8	28.2	0.00e+00	0	38	0	0	43	4492
2026-01-07 02:05:06.50	183.65	26.73	-36.2	-38.1	28.0	0.00e+00	0	38	0	0	43	4635
2026-01-07 02:05:07.36	183.17	26.79	-36.4	-38.3	27.8	0.00e+00	0	38	0	0	43	4727
2026-01-07 02:05:08.72	182.41	26.86	-36.5	-38.4	27.8	0.00e+00	0	38	0	0	43	4787
2026-01-07 02:05:09.43	182.01	26.90	-36.4	-38.3	27.9	0.00e+00	0	38	0	0	43	4723
2026-01-07 02:05:10.72	181.28	26.97	-36.1	-38.0	28.1	0.00e+00	0	38	0	0	43	4583
2026-01-07 02:05:11.44	180.88	27.00	-36.0	-37.9	28.1	0.00e+00	0	38	0	0	43	4505
2026-01-07 02:05:12.73	180.14	27.06	-36.2	-38.1	28.1	0.00e+00	0	38	0	0	43	4624
2026-01-07 02:05:13.48	179.72	27.10	-36.0	-37.9	28.2	0.00e+00	0	38	0	0	43	4525
2026-01-07 02:05:14.76	178.99	27.15	-36.1	-38.0	28.1	0.00e+00	0	38	0	0	43	4555
2026-01-07 02:05:15.56	178.53	27.18	-36.3	-38.2	28.0	0.00e+00	0	38	0	0	43	4683
2026-01-07 02:05:16.71	177.87	27.22	-36.2	-38.0	28.0	0.00e+00	0	38	0	0	43	4590
2026-01-07 02:05:17.57	177.37	27.25	-35.9	-37.7	28.3	0.00e+00	0	38	0	0	43	4440
2026-01-07 02:05:18.71	176.71	27.28	-36.3	-38.1	28.0	0.00e+00	0	38	0	0	43	4648
2026-01-07 02:05:19.57	176.22	27.31	-36.3	-38.1	28.0	0.00e+00	0	38	0	0	43	4646
2026-01-07 02:05:20.71	175.56	27.33	-36.4	-38.3	27.9	0.00e+00	0	38	0	0	43	4740
2026-01-07 02:05:21.57	175.06	27.35	-37.2	-39.1	27.4	0.00e+00	0	38	0	0	44	4891
2026-01-07 02:05:22.72	174.39	27.37	-36.7	-38.6	27.7	0.00e+00	0	38	0	0	45	4389
2026-01-07 02:05:23.58	173.89	27.39	-36.3	-38.2	28.1	0.00e+00	0	38	0	0	44	4412
2026-01-07 02:05:24.73	173.22	27.40	-36.3	-38.1	28.1	0.00e+00	0	38	0	0	44	4384
2026-01-07 02:05:25.59	172.72	27.41	-36.3	-38.2	28.1	0.00e+00	0	38	0	0	44	4392
2026-01-07 02:05:26.73	172.06	27.42	-36.3	-38.2	27.9	0.00e+00	0	38	0	0	44	4409
2026-01-07 02:05:27.59	171.55	27.42	-36.5	-38.4	28.0	0.00e+00	0	38	0	0	44	4497
2026-01-07 02:05:28.74	170.88	27.42	-36.1	-37.9	28.3	0.00e+00	0	38	0	0	44	4278
2026-01-07 02:05:29.60	170.38	27.42	-36.0	-37.9	28.3	0.00e+00	0	38	0	0	44	4269
2026-01-07 02:05:30.75	169.71	27.41	-36.1	-37.9	28.3	0.00e+00	0	38	0	0	44	4282
2026-01-07 02:05:31.61	169.21	27.41	-36.1	-38.0	28.3	0.00e+00	0	38	0	0	44	4294
2026-01-07 02:05:32.75	168.55	27.39	-36.3	-38.2	28.1	0.00e+00	0	38	0	0	44	4398
2026-01-07 02:05:33.61	168.05	27.38	-36.3	-38.2	28.2	0.00e+00	0	38	0	0	44	4402
2026-01-07 02:05:34.76	167.38	27.36	-36.1	-38.0	28.3	0.00e+00	0	38	0	0	44	4302
2026-01-07 02:05:35.61	166.88	27.35	-36.2	-38.1	28.2	0.00e+00	0	38	0	0	44	4379
2026-01-07 02:05:36.76	166.22	27.32	-36.2	-38.1	28.1	0.00e+00	0	38	0	0	44	4380
2026-01-07 02:05:37.62	165.72	27.30	-36.4	-38.3	28.0	0.00e+00	0	38	0	0	44	4470
2026-01-07 02:05:38.76	165.06	27.27	-36.4	-38.3	28.0	0.00e+00	0	38	0	0	44	4491
2026-01-07 02:05:39.62	164.57	27.24	-36.1	-38.0	28.1	0.00e+00	0	38	0	0	43	4564
2026-01-07 02:05:40.95	163.80	27.19	-36.1	-38.0	28.1	0.00e+00	0	38	0	0	43	4585
2026-01-07 02:05:41.66	163.40	27.17	-36.2	-38.1	28.1	0.00e+00	0	38	0	0	43	4607
2026-01-07 02:05:43.16	162.54	27.11	-36.2	-38.1	28.0	0.00e+00	0	38	0	0	43	4601
2026-01-07 02:05:44.13	161.99	27.07	-36.1	-38.0	28.2	0.00e+00	0	38	0	0	43	4559
2026-01-07 02:05:45.45	161.24	27.01	-35.9	-37.7	28.3	0.00e+00	0	38	0	0	43	4440
2026-01-07 02:05:46.17	160.83	26.97	-35.8	-37.7	28.4	0.00e+00	0	38	0	0	43	4420
2026-01-07 02:05:47.46	160.11	26.90	-36.2	-38.1	28.1	0.00e+00	0	38	0	0	43	4602
2026-01-07 02:05:48.17	159.71	26.87	-36.2	-38.1	27.9	0.00e+00	0	38	0	0	43	4651
2026-01-07 02:05:49.47	158.98	26.79	-36.3	-38.2	27.9	0.00e+00	0	38	0	0	43	4683
2026-01-07 02:05:50.18	158.59	26.75	-36.3	-38.2	27.9	0.00e+00	0	38	0	0	43	4680
2026-01-07 02:05:51.48	157.87	26.67	-35.9	-37.7	28.3	0.00e+00	0	38	0	0	43	4430
2026-01-07 02:05:52.19	157.47	26.62	-35.9	-37.8	28.1	0.00e+00	0	38	0	0	43	4482
2026-01-07 02:05:53.48	156.77	26.54	-35.8	-37.7	28.3	0.00e+00	0	38	0	0	43	4416
2026-01-07 02:05:54.20	156.37	26.49	-35.9	-37.8	28.3	0.00e+00	0	38	0	0	43	4455
2026-01-07 02:05:55.49	155.67	26.40	-36.0	-37.9	28.2	0.00e+00	0	38	0	0	43	4501
2026-01-07 02:05:56.20	155.29	26.34	-36.1	-38.1	28.1	0.00e+00	0	38	0	0	43	4601
2026-01-07 02:05:57.49	154.59	26.25	-36.0	-37.9	28.2	0.00e+00	0	38	0	0	43	4501
2026-01-07 02:05:58.21	154.21	26.19	-36.1	-38.0	28.1	0.00e+00	0	38	0	0	43	4592
2026-01-07 02:05:59.49	153.53	26.09	-36.3	-38.2	28.0	0.00e+00	0	38	0	0	43	4680
2026-01-07 02:06:00.21	153.15	26.03	-36.3	-38.2	28.0	0.00e+00	0	38	0	0	43	4677
2026-01-07 02:06:01.50	152.47	25.92	-36.2	-38.1	28.1	0.00e+00	0	38	0	0	43	4609
2026-01-07 02:06:02.22	152.09	25.86	-36.4	-38.3	27.9	0.00e+00	0	38	0	0	43	4757
2026-01-07 02:06:03.51	151.43	25.75	-35.9	-37.8	28.3	0.00e+00	0	38	0	0	43	4482
2026-01-07 02:06:04.22	151.06	25.68	-35.8	-37.7	28.4	0.00e+00	0	38	0	0	43	4401
2026-01-07 02:06:05.57	150.37	25.56	-36.2	-38.1	28.1	0.00e+00	0	38	0	0	43	4599
2026-01-07 02:06:06.29	150.00	25.49	-36.2	-38.1	28.1	0.00e+00	0	38	0	0	43	4634
2026-01-07 02:06:07.58	149.35	25.37	-36.5	-38.4	27.8	0.00e+00	0	38	0	0	43	4811
2026-01-07 02:06:08.30	148.99	25.30	-36.9	-38.9	27.6	0.00e+00	0	38	0	0	44	4785
2026-01-07 02:06:09.70	148.29	25.16	-36.5	-38.5	27.8	0.00e+00	0	38	0	0	44	4558
2026-01-07 02:06:10.41	147.94	25.09	-36.3	-38.2	28.1	0.00e+00	0	38	0	0	44	4435
2026-01-07 02:06:11.78	147.27	24.95	-36.4	-38.3	28.0	0.00e+00	0	38	0	0	44	4449
2026-01-07 02:06:12.50	146.92	24.88	-36.3	-38.2	28.0	0.00e+00	0	38	0	0	44	4415
2026-01-07 02:06:13.79	146.30	24.74	-36.3	-38.2	28.1	0.00e+00	0	38	0	0	44	4431
2026-01-07 02:06:14.51	145.96	24.67	-36.4	-38.3	27.9	0.00e+00	0	38	0	0	44	4484
2026-01-07 02:06:15.79	145.35	24.53	-36.6	-38.5	27.9	0.00e+00	0	38	0	0	44	4565
2026-01-07 02:06:16.51	145.01	24.45	-36.5	-38.4	27.9	0.00e+00	0	38	0	0	44	4536
2026-01-07 02:06:17.80	144.41	24.31	-36.8	-38.7	27.6	0.00e+00	0	38	0	0	44	4700
2026-01-07 02:06:18.51	144.08	24.23	-37.1	-39.0	27.5	0.00e+00	0	38	0	0	44	4848
2026-01-07 02:06:19.80	143.48	24.08	-37.0	-39.0	27.4	0.00e+00	0	38	0	0	44	4825
2026-01-07 02:06:20.52	143.16	24.00	-36.9	-38.8	27.6	0.00e+00	0	38	0	0	44	4751
2026-01-07 02:06:21.81	142.57	23.86	-36.8	-38.7	27.6	0.00e+00	0	38	0	0	44	4696
2026-01-07 02:06:22.64	142.20	23.76	-36.9	-38.8	27.6	0.00e+00	0	38	0	0	44	4755
2026-01-07 02:06:24.12	141.55	23.59	-36.7	-38.6	27.7	0.00e+00	0	38	0	0	44	4649
2026-01-07 02:06:24.84	141.23	23.50	-36.7	-38.7	27.7	0.00e+00	0	38	0	0	44	4659
2026-01-07 02:06:26.34	140.58	23.33	-37.3	-39.3	27.1	0.00e+00	0	38	0	0	45	4717
2026-01-07 02:06:27.05	140.27	23.24	-37.4	-39.4	27.2	0.00e+00	0	38	0	0	45	4765
2026-01-07 02:06:28.34	139.72	23.09	-37.4	-39.4	27.1	0.00e+00	0	38	0	0	46	4507
2026-01-07 02:06:29.06	139.42	23.00	-37.5	-39.5	27.1	0.00e+00	0	38	0	0	46	4556
2026-01-07 02:06:30.34	138.88	22.84	-37.6	-39.6	26.9	0.00e+00	0	38	0	0	46	4606
2026-01-07 02:06:31.06	138.58	22.76	-37.3	-39.3	27.2	0.00e+00	0	38	0	0	46	4467
2026-01-07 02:06:32.35	138.05	22.60	-37.3	-39.2	27.2	0.00e+00	0	38	0	0	46	4419
2026-01-07 02:06:33.08	137.75	22.51	-37.4	-39.4	27.1	0.00e+00	0	38	0	0	46	4508
2026-01-07 02:06:34.64	137.13	22.31	-37.5	-39.4	27.1	0.00e+00	0	38	0	0	46	4544
2026-01-07 02:06:35.35	136.84	22.23	-37.6	-39.6	26.9	0.00e+00	0	38	0	0	46	4643
2026-01-07 02:06:36.64	136.33	22.07	-38.0	-40.0	26.7	0.00e+00	0	38	0	0	46	4839
2026-01-07 02:06:37.67	135.93	21.94	-38.2	-40.2	26.5	0.00e+00	0	38	0	0	47	4680
2026-01-07 02:06:39.01	135.41	21.77	-38.1	-40.1	26.4	0.00e+00	0	38	0	0	47	4642
2026-01-07 02:06:39.72	135.14	21.68	-38.1	-40.1	26.5	0.00e+00	0	38	0	0	47	4626
2026-01-07 02:06:41.01	134.65	21.51	-38.1	-40.1	26.4	0.00e+00	0	38	0	0	47	4642
2026-01-07 02:06:41.73	134.38	21.42	-38.3	-40.4	26.2	0.00e+00	0	38	0	0	47	4773
2026-01-07 02:06:43.02	133.91	21.26	-38.5	-40.5	26.2	0.00e+00	0	38	0	0	48	4568
2026-01-07 02:06:43.74	133.64	21.17	-38.7	-40.8	25.7	0.00e+00	0	38	0	0	48	4732
2026-01-07 02:06:45.02	133.18	21.01	-38.8	-40.8	25.8	0.00e+00	0	38	0	0	48	4744
2026-01-07 02:06:45.74	132.92	20.91	-38.6	-40.6	26.2	0.00e+00	0	38	0	0	48	4615
2026-01-07 02:06:47.03	132.46	20.75	-38.3	-40.3	26.4	0.00e+00	0	38	0	0	48	4448
2026-01-07 02:06:47.74	132.20	20.66	-38.4	-40.4	26.4	0.00e+00	0	38	0	0	48	4503
2026-01-07 02:06:49.03	131.75	20.49	-38.1	-40.1	26.5	0.00e+00	0	38	0	0	47	4645
2026-01-07 02:06:49.75	131.50	20.40	-38.5	-40.5	26.0	0.00e+00	0	38	0	0	47	4848
2026-01-07 02:06:51.03	131.07	20.24	-38.3	-40.3	26.3	0.00e+00	0	38	0	0	48	4493
2026-01-07 02:06:51.75	130.82	20.15	-38.4	-40.4	26.3	0.00e+00	0	38	0	0	48	4540
2026-01-07 02:06:53.04	130.39	19.98	-38.8	-40.9	26.0	0.00e+00	0	38	0	0	48	4771
2026-01-07 02:06:53.76	130.15	19.89	-38.5	-40.5	26.2	0.00e+00	0	38	0	0	48	4577
2026-01-07 02:06:55.04	129.73	19.73	-38.4	-40.4	26.4	0.00e+00	0	38	0	0	48	4530
2026-01-07 02:06:55.76	129.49	19.63	-38.0	-40.0	26.7	0.00e+00	0	38	0	0	48	4315
2026-01-07 02:06:57.04	129.08	19.47	-38.4	-40.5	26.3	0.00e+00	0	38	0	0	47	4822
2026-01-07 02:06:57.76	128.85	19.38	-37.8	-39.8	26.8	0.00e+00	0	38	0	0	47	4470
2026-01-07 02:06:59.11	128.42	19.21	-37.8	-39.8	26.7	0.00e+00	0	38	0	0	47	4480
2026-01-07 02:06:59.83	128.20	19.11	-38.0	-40.0	26.6	0.00e+00	0	38	0	0	47	4566
2026-01-07 02:07:01.18	127.78	18.94	-38.1	-40.1	26.5	0.00e+00	0	38	0	0	47	4651
2026-01-07 02:07:01.90	127.56	18.85	-38.4	-40.5	26.2	0.00e+00	0	38	0	0	47	4818
2026-01-07 02:07:03.26	127.15	18.68	-38.4	-40.5	26.2	0.00e+00	0	38	0	0	47	4827
2026-01-07 02:07:03.98	126.93	18.59	-38.4	-40.5	26.0	0.00e+00	0	38	0	0	47	4817
2026-01-07 02:07:05.27	126.55	18.43	-38.2	-40.2	26.4	0.00e+00	0	38	0	0	47	4680
2026-01-07 02:07:05.98	126.34	18.34	-37.9	-39.9	26.6	0.00e+00	0	38	0	0	47	4529
2026-01-07 02:07:07.27	125.97	18.17	-38.1	-40.1	26.5	0.00e+00	0	38	0	0	47	4612
2026-01-07 02:07:07.99	125.76	18.08	-38.1	-40.1	26.5	0.00e+00	0	38	0	0	47	4625
2026-01-07 02:07:09.28	125.39	17.92	-38.3	-40.3	26.3	0.00e+00	0	38	0	0	47	4757
2026-01-07 02:07:09.99	125.19	17.83	-38.4	-40.5	26.2	0.00e+00	0	38	0	0	47	4843
2026-01-07 02:07:11.28	124.84	17.67	-38.4	-40.5	26.2	0.00e+00	0	38	0	0	47	4831
2026-01-07 02:07:12.00	124.64	17.58	-38.3	-40.4	26.2	0.00e+00	0	38	0	0	47	4792
2026-01-07 02:07:13.29	124.28	17.42	-38.3	-40.4	26.3	0.00e+00	0	38	0	0	47	4774
2026-01-07 02:07:14.07	124.07	17.33	-38.4	-40.4	26.2	0.00e+00	0	38	0	0	47	4804
2026-01-07 02:07:15.67	123.65	17.13	-38.5	-40.5	26.1	0.00e+00	0	38	0	0	47	4864
2026-01-07 02:07:16.52	123.42	17.03	-38.5	-40.5	26.1	0.00e+00	0	38	0	0	47	4855
2026-01-07 02:07:17.67	123.12	16.89	-38.6	-40.6	26.0	0.00e+00	0	38	0	0	47	4916
2026-01-07 02:07:18.86	122.81	16.74	-38.6	-40.7	26.0	0.00e+00	0	38	0	0	48	4659
2026-01-07 02:07:19.72	122.60	16.64	-38.6	-40.7	26.1	0.00e+00	0	38	0	0	48	4667
2026-01-07 02:07:20.86	122.31	16.50	-38.5	-40.6	26.0	0.00e+00	0	38	0	0	48	4606
2026-01-07 02:07:21.72	122.09	16.39	-38.8	-40.8	25.9	0.00e+00	0	38	0	0	48	4754
2026-01-07 02:07:22.87	121.81	16.25	-38.9	-41.0	25.7	0.00e+00	0	38	0	0	48	4856
2026-01-07 02:07:23.73	121.60	16.15	-39.1	-41.1	25.6	0.00e+00	0	38	0	0	48	4918
2026-01-07 02:07:24.87	121.32	16.02	-38.7	-40.8	25.9	0.00e+00	0	38	0	0	48	4750
2026-01-07 02:07:25.73	121.11	15.91	-38.4	-40.4	26.1	0.00e+00	0	38	0	0	48	4544
2026-01-07 02:07:26.88	120.84	15.78	-38.3	-40.4	26.3	0.00e+00	0	38	0	0	48	4498
2026-01-07 02:07:27.74	120.64	15.67	-38.5	-40.5	26.1	0.00e+00	0	38	0	0	48	4578
2026-01-07 02:07:29.03	120.34	15.52	-39.0	-41.1	25.7	0.00e+00	0	38	0	0	48	4890
2026-01-07 02:07:29.74	120.17	15.44	-39.3	-41.4	25.4	0.00e+00	0	38	0	0	49	4803
2026-01-07 02:07:31.22	119.84	15.27	-39.7	-41.8	25.1	0.00e+00	0	38	0	0	50	4732
2026-01-07 02:07:31.94	119.67	15.18	-39.8	-41.9	24.9	0.00e+00	0	38	0	0	50	4811
2026-01-07 02:07:33.23	119.39	15.03	-39.6	-41.8	25.0	0.00e+00	0	38	0	0	50	4718
2026-01-07 02:07:33.95	119.23	14.95	-39.6	-41.7	25.1	0.00e+00	0	38	0	0	50	4673
2026-01-07 02:07:35.24	118.94	14.80	-39.3	-41.4	25.4	0.00e+00	0	38	0	0	50	4508
2026-01-07 02:07:35.95	118.79	14.72	-39.3	-41.4	25.4	0.00e+00	0	38	0	0	50	4511
2026-01-07 02:07:37.24	118.51	14.57	-39.2	-41.3	25.5	0.00e+00	0	38	0	0	50	4484
2026-01-07 02:07:37.97	118.36	14.49	-39.2	-41.2	25.5	0.00e+00	0	38	0	0	50	4439
2026-01-07 02:07:39.26	118.09	14.34	-39.2	-41.3	25.4	0.00e+00	0	38	0	0	50	4488
2026-01-07 02:07:40.07	117.92	14.25	-39.5	-41.7	25.1	0.00e+00	0	38	0	0	50	4662
2026-01-07 02:07:41.54	117.62	14.09	-39.7	-41.9	24.9	0.00e+00	0	38	0	0	50	4793
2026-01-07 02:07:42.26	117.47	14.00	-39.9	-42.1	24.8	0.00e+00	0	38	0	0	50	4906
2026-01-07 02:07:43.54	117.21	13.86	-40.1	-42.3	24.6	0.00e+00	0	38	0	0	50	4997
2026-01-07 02:07:44.26	117.07	13.78	-40.1	-42.3	24.6	0.00e+00	0	38	0	0	50	5003
2026-01-07 02:07:45.55	116.81	13.64	-40.1	-42.3	24.5	0.00e+00	0	38	0	0	50	5024
2026-01-07 02:07:46.26	116.67	13.56	-40.2	-42.4	24.4	0.00e+00	0	38	0	0	51	4783
2026-01-07 02:07:47.55	116.42	13.42	-40.1	-42.3	24.6	0.00e+00	0	38	0	0	51	4722
2026-01-07 02:07:48.27	116.28	13.34	-40.1	-42.3	24.6	0.00e+00	0	38	0	0	51	4719
2026-01-07 02:07:49.56	116.04	13.20	-40.1	-42.3	24.5	0.00e+00	0	38	0	0	51	4728
2026-01-07 02:07:50.28	115.90	13.12	-40.0	-42.2	24.6	0.00e+00	0	38	0	0	51	4683
2026-01-07 02:07:51.56	115.66	12.99	-40.2	-42.4	24.4	0.00e+00	0	38	0	0	51	4794
2026-01-07 02:07:52.28	115.53	12.91	-40.3	-42.5	24.3	0.00e+00	0	38	0	0	51	4838
2026-01-07 02:07:53.59	115.29	12.77	-40.4	-42.6	24.2	0.00e+00	0	38	0	0	51	4916
2026-01-07 02:07:54.30	115.16	12.69	-40.4	-42.6	24.2	0.00e+00	0	38	0	0	51	4917
2026-01-07 02:07:55.66	114.92	12.55	-40.6	-42.9	24.0	0.00e+00	0	38	0	0	51	5059
2026-01-07 02:07:56.38	114.79	12.47	-40.6	-42.9	23.9	0.00e+00	0	38	0	0	52	4793
2026-01-07 02:07:57.66	114.57	12.34	-40.7	-43.0	23.7	0.00e+00	0	38	0	0	52	4843
2026-01-07 02:07:58.68	114.39	12.23	-40.6	-42.9	23.9	0.00e+00	0	38	0	0	52	4769
2026-01-07 02:08:00.00	114.16	12.09	-40.8	-43.2	23.6	0.00e+00	0	38	0	0	52	4946
2026-01-07 02:08:00.72	114.04	12.02	-40.8	-43.1	23.6	0.00e+00	0	38	0	0	52	4913
2026-01-07 02:08:02.01	113.82	11.89	-40.5	-42.8	23.9	0.00e+00	0	38	0	0	52	4742
2026-01-07 02:08:02.72	113.70	11.81	-40.5	-42.8	23.9	0.00e+00	0	38	0	0	52	4740
2026-01-07 02:08:04.01	113.49	11.68	-40.5	-42.8	23.9	0.00e+00	0	38	0	0	52	4738
2026-01-07 02:08:04.72	113.37	11.61	-40.8	-43.1	23.7	0.00e+00	0	38	0	0	52	4888
2026-01-07 02:08:06.01	113.16	11.48	-40.8	-43.1	23.6	0.00e+00	0	38	0	0	52	4914
2026-01-07 02:08:06.72	113.04	11.41	-40.9	-43.3	23.5	0.00e+00	0	38	0	0	52	4986
2026-01-07 02:08:08.06	112.83	11.27	-41.1	-43.5	23.2	0.00e+00	0	38	0	0	52	5156
2026-01-07 02:08:08.78	112.72	11.20	-41.3	-43.7	23.1	0.00e+00	0	38	0	0	53	4973
2026-01-07 02:08:10.13	112.50	11.07	-41.2	-43.7	23.0	0.00e+00	0	38	0	0	53	4964
2026-01-07 02:08:10.85	112.39	11.00	-41.3	-43.8	23.0	0.00e+00	0	38	0	0	53	5033
2026-01-07 02:08:12.14	112.19	10.87	-41.2	-43.6	23.1	0.00e+00	0	38	0	0	53	4906
2026-01-07 02:08:12.86	112.08	10.80	-41.3	-43.8	23.0	0.00e+00	0	38	0	0	53	4999
2026-01-07 02:08:14.28	111.87	10.66	-41.1	-43.5	23.2	0.00e+00	0	38	0	0	53	4831
2026-01-07 02:08:14.99	111.76	10.59	-40.9	-43.3	23.4	0.00e+00	0	38	0	0	53	4713
2026-01-07 02:08:16.28	111.57	10.47	-40.9	-43.2	23.5	0.00e+00	0	38	0	0	53	4686
2026-01-07 02:08:17.00	111.47	10.40	-41.0	-43.4	23.4	0.00e+00	0	38	0	0	53	4766
2026-01-07 02:08:18.28	111.28	10.27	-40.9	-43.2	23.5	0.00e+00	0	38	0	0	53	4673
2026-01-07 02:08:19.00	111.17	10.20	-41.0	-43.4	23.3	0.00e+00	0	38	0	0	53	4769
2026-01-07 02:08:20.29	110.99	10.08	-41.0	-43.3	23.3	0.00e+00	0	38	0	0	53	4748
2026-01-07 02:08:21.02	110.89	10.01	-41.0	-43.4	23.3	0.00e+00	0	38	0	0	53	4768
2026-01-07 02:08:22.31	110.70	9.89	-41.2	-43.6	23.0	0.00e+00	0	38	0	0	53	4922
2026-01-07 02:08:23.03	110.60	9.82	-41.4	-43.9	22.8	0.00e+00	0	38	0	0	53	5099
2026-01-07 02:08:24.32	110.43	9.70	-41.8	-44.3	22.4	0.00e+00	0	38	0	0	54	5018
2026-01-07 02:08:25.03	110.33	9.64	-41.9	-44.5	22.2	0.00e+00	0	38	0	0	54	5135
2026-01-07 02:08:26.32	110.15	9.52	-42.2	-44.8	22.0	0.00e+00	0	38	0	0	54	5298
2026-01-07 02:08:27.04	110.06	9.45	-42.3	-44.9	21.8	0.00e+00	0	38	0	0	55	5082
2026-01-07 02:08:28.33	109.88	9.33	-42.3	-45.0	21.7	0.00e+00	0	38	0	0	55	5130
2026-01-07 02:08:29.05	109.79	9.27	-42.3	-45.0	21.7	0.00e+00	0	38	0	0	55	5134
2026-01-07 02:08:30.34	109.62	9.15	-42.5	-45.2	21.5	0.00e+00	0	38	0	0	55	5262
2026-01-07 02:08:31.05	109.53	9.08	-42.5	-45.3	21.5	0.00e+00	0	38	0	0	55	5290
2026-01-07 02:08:32.34	109.36	8.97	-49.4	-65.7	4.1	0.00e+00	0	38	104	0	69	24827
2026-01-07 02:08:33.06	109.27	8.90	-49.6	-68.0	3.8	3.57e-01	0	38	104	0	69	32529
2026-01-07 02:08:34.35	109.11	8.79	-49.9	-68.6	3.8	8.46e-01	0	38	104	0	70	32855
2026-01-07 02:08:35.07	109.01	8.72	-49.9	-68.7	3.8	8.46e-01	0	38	104	0	70	33004
2026-01-07 02:08:36.36	108.85	8.61	-50.0	-68.7	3.8	8.47e-01	0	38	104	0	70	33252
2026-01-07 02:08:37.08	108.77	8.54	-50.0	-68.8	3.8	8.46e-01	0	38	104	0	70	33430
2026-01-07 02:08:38.37	108.61	8.43	-50.0	-68.9	3.8	8.46e-01	0	38	104	0	70	33781
2026-01-07 02:08:39.09	108.52	8.37	-49.9	-68.9	3.8	8.48e-01	0	38	104	0	70	33773
2026-01-07 02:08:40.38	108.36	8.25	-49.8	-68.9	3.8	8.47e-01	0	38	104	0	70	33837
2026-01-07 02:08:41.10	108.28	8.19	-49.8	-68.9	3.8	8.47e-01	0	38	104	0	70	33980
2026-01-07 02:08:42.39	108.13	8.08	-50.0	-68.9	3.8	8.48e-01	0	38	104	0	70	34044
2026-01-07 02:08:43.10	108.04	8.02	-50.0	-69.0	3.8	8.47e-01	0	38	104	0	70	34140
2026-01-07 02:08:44.40	107.89	7.91	-50.0	-69.0	3.8	8.46e-01	0	38	104	0	70	34247
2026-01-07 02:08:45.11	107.81	7.85	-50.0	-69.0	3.8	8.46e-01	0	38	104	0	70	34257
2026-01-07 02:08:46.55	107.64	7.72	-49.9	-69.0	3.8	8.47e-01	0	38	104	0	70	34237
2026-01-07 02:08:47.26	107.56	7.66	-50.1	-69.0	3.8	8.47e-01	0	38	104	0	70	34362
2026-01-07 02:08:48.65	107.41	7.55	-49.9	-69.0	3.8	8.47e-01	0	38	104	0	70	34271
2026-01-07 02:08:49.37	107.33	7.49	-49.8	-69.0	3.8	8.47e-01	0	38	104	0	70	34269
2026-01-07 02:08:50.71	107.18	7.37	-49.8	-69.0	3.8	8.46e-01	0	38	104	0	70	34168
2026-01-07 02:08:51.43	107.10	7.31	-49.8	-69.0	3.8	8.46e-01	0	38	104	0	70	34097
2026-01-07 02:08:52.80	106.95	7.20	-49.9	-69.0	3.8	8.47e-01	0	38	104	0	70	34122
2026-01-07 02:08:53.51	106.87	7.14	-49.9	-69.0	3.8	8.46e-01	0	38	104	0	70	34101
2026-01-07 02:08:54.87	106.73	7.03	-49.8	-69.0	3.8	8.47e-01	0	38	104	0	70	34087
2026-01-07 02:08:55.59	106.65	6.97	-49.9	-68.9	3.8	8.47e-01	0	38	104	0	70	34052
2026-01-07 02:08:56.88	106.51	6.86	-49.9	-69.0	3.8	8.48e-01	0	38	104	0	70	34156
2026-01-07 02:08:57.60	106.44	6.81	-49.8	-68.9	3.8	8.47e-01	0	38	104	0	70	34041
2026-01-07 02:08:58.89	106.31	6.70	-49.9	-68.9	3.8	8.48e-01	0	38	104	0	70	34068
2026-01-07 02:08:59.60	106.23	6.64	-49.9	-69.0	3.8	8.48e-01	0	38	104	0	70	34176
2026-01-07 02:09:00.89	106.10	6.54	-49.9	-69.0	3.8	8.46e-01	0	38	104	0	70	34098
2026-01-07 02:09:01.61	106.03	6.48	-49.8	-68.9	3.8	8.46e-01	0	38	104	0	70	34077
2026-01-07 02:09:02.90	105.90	6.38	-49.8	-68.9	3.8	8.46e-01	0	38	104	0	70	33838
2026-01-07 02:09:03.62	105.83	6.32	-49.8	-68.9	3.8	8.47e-01	0	38	104	0	70	33917
2026-01-07 02:09:04.91	105.70	6.22	-49.8	-68.9	3.8	8.47e-01	0	38	104	0	70	33892
2026-01-07 02:09:05.63	105.63	6.16	-49.8	-68.9	3.8	8.47e-01	0	38	104	0	70	33875
2026-01-07 02:09:06.92	105.50	6.06	-49.8	-68.9	3.8	8.47e-01	0	38	104	0	70	33994
2026-01-07 02:09:07.63	105.43	6.01	-49.8	-68.9	3.8	8.47e-01	0	38	104	0	70	33912
2026-01-07 02:09:08.93	105.31	5.90	-49.8	-68.9	3.8	8.47e-01	0	38	104	0	70	33854
2026-01-07 02:09:09.64	105.24	5.85	-49.8	-68.9	3.8	8.47e-01	0	38	104	0	70	33870
2026-01-07 02:09:10.94	105.12	5.75	-49.8	-68.9	3.8	8.47e-01	0	38	104	0	70	33926
2026-01-07 02:09:11.65	105.05	5.69	-49.8	-68.9	3.8	8.47e-01	0	38	104	0	70	33924
2026-01-07 02:09:12.94	104.93	5.59	-49.8	-68.9	3.8	8.48e-01	0	38	104	0	70	33776
2026-01-07 02:09:13.66	104.87	5.54	-49.8	-68.9	3.8	8.47e-01	0	38	104	0	70	33883
2026-01-07 02:09:14.95	104.75	5.44	-49.8	-68.9	3.8	8.46e-01	0	38	104	0	70	33943
2026-01-07 02:09:15.67	104.68	5.39	-49.8	-68.9	3.8	8.46e-01	0	38	104	0	70	33929
2026-01-07 02:09:16.96	104.57	5.29	-49.8	-68.9	3.8	8.47e-01	0	38	104	0	70	34030
2026-01-07 02:09:17.68	104.50	5.23	-49.8	-68.9	3.8	8.47e-01	0	38	104	0	70	33970
2026-01-07 02:09:18.97	104.39	5.14	-49.8	-68.9	3.8	8.47e-01	0	38	104	0	70	33937
2026-01-07 02:09:19.69	104.32	5.08	-49.8	-68.9	3.8	8.47e-01	0	38	104	0	70	34010
2026-01-07 02:09:20.98	104.21	4.99	-49.8	-68.9	3.8	8.46e-01	0	38	104	0	70	33990
2026-01-07 02:09:21.69	104.15	4.93	-49.8	-68.9	3.8	8.46e-01	0	38	104	0	70	33924
2026-01-07 02:09:22.99	104.04	4.84	-49.8	-68.9	3.8	8.47e-01	0	39	104	0	70	33866

#Closed at: 2026-01-07 02:09:23
#Recorded file [0 MB]: D:/Data/31040_260107_050140.dat