passes_logs/2026/01/07/T1/T1__20260107_083635_SUOMI_NPP_rec.log

#Pass ID: 20260107_083635_SUOMI NPP
#Satellite: SUOMI NPP
#Configuration: NPP
#almurnet v.1.7.20251203
#Start time: 2026-01-07 08:36:35

#Version: 2.0.20230620
#Station: T1
#Location: 37.570604 lon 55.790049 lat
#TLE: 1 37849U 11061A   26005.94084933  .00000134  00000+0  84554-4 0  9990
#TLE: 2 37849  98.7803 308.0679 0002567  79.1029 281.0436 14.19522657735426

#Time	Az	El	Level	Level2	SNR	BER	BlckErr	Temp	State	Recorded	gain1	gain2
2026-01-07 08:36:35.82	116.40	5.00	-49.5	-64.8	3.8	1.49e+00	0	42	0	0	70	21166
2026-01-07 08:36:36.82	116.33	5.06	-49.5	-64.8	3.8	1.49e+00	0	42	104	0	70	21128
2026-01-07 08:36:37.82	116.26	5.13	-49.5	-64.8	3.8	1.49e+00	0	42	104	0	70	21197
2026-01-07 08:36:38.82	116.19	5.19	-49.5	-64.8	3.8	1.49e+00	0	42	104	0	70	21201
2026-01-07 08:36:39.82	116.12	5.25	-49.5	-64.8	3.8	1.49e+00	0	42	104	0	70	21212
2026-01-07 08:36:40.82	116.05	5.32	-49.5	-64.8	3.8	1.49e+00	0	42	104	0	70	21164
2026-01-07 08:36:41.81	115.98	5.38	-49.4	-64.8	3.8	1.49e+00	0	42	104	0	70	21080
2026-01-07 08:36:42.81	115.90	5.45	-49.5	-64.8	3.8	1.49e+00	0	42	104	0	70	21187
2026-01-07 08:36:43.80	115.83	5.51	-49.5	-64.8	3.8	1.49e+00	0	42	104	0	70	21134
2026-01-07 08:36:44.80	115.76	5.57	-49.4	-64.8	3.8	1.49e+00	0	42	104	0	70	21091
2026-01-07 08:36:45.80	115.69	5.64	-49.5	-64.8	3.8	1.49e+00	0	42	104	0	70	21038
2026-01-07 08:36:46.80	115.61	5.70	-49.5	-64.8	3.8	1.49e+00	0	42	104	0	70	21054
2026-01-07 08:36:47.80	115.54	5.77	-49.5	-64.8	3.8	1.49e+00	0	42	104	0	70	21080
2026-01-07 08:36:48.80	115.46	5.83	-49.5	-64.8	3.8	1.49e+00	0	42	104	0	70	21030
2026-01-07 08:36:49.80	115.39	5.90	-49.5	-64.8	3.8	1.49e+00	0	42	104	0	70	21042
2026-01-07 08:36:50.80	115.31	5.96	-49.4	-64.8	3.8	1.49e+00	0	43	104	0	70	21040
2026-01-07 08:36:51.80	115.24	6.03	-49.5	-64.8	3.8	1.49e+00	0	43	104	0	70	21051
2026-01-07 08:36:52.80	115.16	6.09	-49.4	-64.7	3.8	1.49e+00	0	42	104	0	70	21015
2026-01-07 08:36:53.80	115.09	6.16	-49.4	-64.8	3.8	1.49e+00	0	42	104	0	70	21047
2026-01-07 08:36:54.80	115.01	6.23	-49.5	-64.8	3.8	1.49e+00	0	42	104	0	70	21063
2026-01-07 08:36:55.80	114.93	6.29	-49.4	-64.8	3.8	1.49e+00	0	42	104	0	70	21053
2026-01-07 08:36:56.79	114.86	6.36	-49.5	-64.8	3.8	1.49e+00	0	43	104	0	70	21102
2026-01-07 08:36:57.79	114.78	6.42	-49.5	-64.8	3.8	1.49e+00	0	43	104	0	70	21127
2026-01-07 08:36:58.79	114.70	6.49	-49.4	-64.8	3.8	1.49e+00	0	43	104	0	70	21123
2026-01-07 08:36:59.79	114.62	6.56	-49.4	-64.8	3.8	1.49e+00	0	43	104	0	70	21169
2026-01-07 08:37:00.76	114.55	6.62	-49.4	-64.8	3.8	1.49e+00	0	43	104	0	70	21079
2026-01-07 08:37:01.77	114.47	6.69	-49.4	-64.8	3.8	1.49e+00	0	43	104	0	70	21048
2026-01-07 08:37:02.77	114.39	6.75	-49.5	-64.7	3.8	1.49e+00	0	43	104	0	70	20940
2026-01-07 08:37:03.77	114.31	6.82	-49.5	-64.7	3.8	1.49e+00	0	43	104	0	70	20885
2026-01-07 08:37:04.77	114.23	6.89	-49.4	-64.6	3.8	1.49e+00	0	43	104	0	70	20695
2026-01-07 08:37:05.77	114.15	6.95	-49.4	-64.6	3.8	1.49e+00	0	43	104	0	70	20558
2026-01-07 08:37:06.77	114.07	7.02	-49.5	-64.6	3.8	1.49e+00	0	43	104	0	70	20575
2026-01-07 08:37:07.77	113.99	7.09	-49.4	-64.5	3.8	1.49e+00	0	43	104	0	70	20476
2026-01-07 08:37:08.76	113.90	7.16	-49.4	-64.6	3.8	1.49e+00	0	43	104	0	70	20656
2026-01-07 08:37:09.76	113.82	7.22	-49.5	-64.6	3.8	1.49e+00	0	43	104	0	70	20685
2026-01-07 08:37:10.76	113.74	7.29	-49.4	-64.5	3.8	1.49e+00	0	43	104	0	70	20471
2026-01-07 08:37:11.76	113.66	7.36	-49.4	-64.4	3.8	1.49e+00	0	43	104	0	70	20103
2026-01-07 08:37:12.76	113.57	7.43	-49.5	-64.0	3.8	1.49e+00	0	43	104	0	70	19313
2026-01-07 08:37:13.76	113.49	7.49	-49.4	-63.7	3.8	1.49e+00	0	43	104	0	70	18677
2026-01-07 08:37:14.77	113.41	7.56	-49.4	-63.5	3.8	1.49e+00	0	43	104	0	70	18134
2026-01-07 08:37:15.76	113.32	7.63	-49.5	-63.4	3.8	1.49e+00	0	43	104	0	70	17939
2026-01-07 08:37:16.76	113.24	7.70	-49.4	-63.3	3.8	1.49e+00	0	43	104	0	70	17849
2026-01-07 08:37:17.75	113.15	7.77	-49.3	-62.7	3.8	1.49e+00	0	43	104	0	70	16608
2026-01-07 08:37:18.75	113.07	7.84	-49.3	-61.2	4.2	1.45e+00	0	43	0	0	70	13938
2026-01-07 08:37:19.75	112.98	7.91	-49.0	-59.4	4.9	9.40e-01	0	43	0	1048576	70	11327
2026-01-07 08:37:20.75	112.89	7.97	-48.7	-57.0	6.5	5.51e-01	0	43	0	3145728	69	9097
2026-01-07 08:37:21.74	112.81	8.04	-48.2	-54.9	8.5	1.24e-01	0	43	0	4194304	68	7592
2026-01-07 08:37:22.74	112.72	8.11	-47.4	-53.2	10.1	1.08e-02	0	43	0	6291456	66	6975
2026-01-07 08:37:23.74	112.63	8.18	-46.6	-51.2	12.1	1.35e-03	0	43	0	8388608	65	5906
2026-01-07 08:37:24.74	112.55	8.25	-46.1	-50.1	13.2	8.85e-05	0	43	0	10485760	64	5511
2026-01-07 08:37:25.75	112.46	8.32	-45.7	-49.6	13.8	6.80e-06	0	43	0	12582912	63	5468
2026-01-07 08:37:26.74	112.37	8.39	-45.7	-49.4	14.1	7.00e-07	0	43	0	13631488	62	5685
2026-01-07 08:37:27.74	112.28	8.46	-45.7	-49.5	14.0	3.00e-06	0	43	0	15728640	62	5728
2026-01-07 08:37:28.74	112.19	8.53	-46.3	-50.6	12.9	1.98e-05	0	43	0	17825792	63	6137
2026-01-07 08:37:29.74	112.10	8.60	-46.8	-51.6	11.8	1.47e-04	0	43	0	19922944	64	6536
2026-01-07 08:37:30.74	112.01	8.67	-47.2	-52.6	10.8	8.44e-04	0	43	0	22020096	65	6912
2026-01-07 08:37:31.74	111.92	8.74	-47.4	-53.3	10.0	3.27e-03	0	43	0	23068672	65	7488
2026-01-07 08:37:32.74	111.82	8.81	-48.0	-54.6	8.7	2.02e-02	0	43	0	25165824	66	8196
2026-01-07 08:37:33.74	111.73	8.88	-48.4	-56.1	7.3	8.31e-02	0	43	0	27262976	67	9199
2026-01-07 08:37:34.74	111.64	8.95	-48.8	-58.1	5.7	2.15e-01	0	43	0	29360128	68	10907
2026-01-07 08:37:35.73	111.55	9.02	-49.2	-60.3	4.5	8.85e-01	0	43	0	31457280	69	13395
2026-01-07 08:37:36.73	111.45	9.09	-47.5	-53.1	10.1	6.50e-01	0	43	0	32505856	67	6540
2026-01-07 08:37:37.73	111.36	9.16	-47.5	-53.3	10.1	3.70e-03	0	43	0	34603008	66	7041
2026-01-07 08:37:38.73	111.26	9.23	-49.4	-63.7	3.8	3.55e-02	0	43	104	35651584	69	19733
2026-01-07 08:37:39.73	111.17	9.31	-48.7	-56.8	4.8	1.47e+00	0	43	104	35651584	69	8890
2026-01-07 08:37:40.73	111.07	9.38	-48.5	-56.2	7.4	5.24e-02	0	43	0	36700160	68	8838
2026-01-07 08:37:41.73	110.98	9.45	-48.1	-54.5	9.0	3.51e-01	0	43	0	38797312	68	7227
2026-01-07 08:37:42.72	110.88	9.52	-47.6	-53.5	9.9	2.30e-02	0	43	0	39845888	67	6817
2026-01-07 08:37:43.72	110.79	9.59	-47.1	-52.0	11.4	2.15e-03	0	43	0	41943040	66	6119
2026-01-07 08:37:44.72	110.69	9.66	-47.0	-51.7	11.7	9.87e-04	0	43	0	44040192	65	6236
2026-01-07 08:37:45.72	110.59	9.74	-46.4	-50.7	12.8	1.59e-04	0	43	0	46137344	64	5896
2026-01-07 08:37:46.72	110.49	9.81	-46.6	-51.0	12.5	8.31e-05	0	43	0	47185920	64	6118
2026-01-07 08:37:47.72	110.39	9.88	-46.1	-50.0	13.5	2.36e-05	0	43	0	49283072	64	5423
2026-01-07 08:37:48.72	110.29	9.95	-46.1	-50.1	13.4	1.22e-05	0	43	0	51380224	64	5472
2026-01-07 08:37:49.72	110.19	10.03	-46.1	-50.0	13.5	4.50e-06	0	43	0	53477376	64	5443
2026-01-07 08:37:50.73	110.09	10.10	-45.9	-49.6	14.0	1.50e-06	0	43	0	55574528	63	5515
2026-01-07 08:37:51.73	109.99	10.17	-45.9	-49.7	14.0	7.00e-07	0	43	0	56623104	63	5536
2026-01-07 08:37:52.72	109.89	10.24	-45.7	-49.3	14.4	2.20e-06	0	43	0	58720256	63	5292
2026-01-07 08:37:53.72	109.79	10.32	-45.8	-49.4	14.4	0.00e+00	0	43	0	60817408	63	5342
2026-01-07 08:37:54.72	109.69	10.39	-45.6	-49.0	14.7	0.00e+00	0	43	0	62914560	63	5135
2026-01-07 08:37:55.72	109.58	10.46	-45.5	-49.0	14.7	7.00e-07	0	43	0	65011712	62	5417
2026-01-07 08:37:56.72	109.48	10.54	-45.3	-48.5	15.1	0.00e+00	0	43	0	66060288	62	5154
2026-01-07 08:37:57.72	109.38	10.61	-45.5	-48.8	14.9	0.00e+00	0	43	0	68157440	62	5307
2026-01-07 08:37:58.72	109.27	10.68	-45.5	-48.9	14.8	0.00e+00	0	43	0	70254592	62	5360
2026-01-07 08:37:59.72	109.17	10.76	-45.3	-48.6	15.1	7.00e-07	0	44	0	72351744	62	5210
2026-01-07 08:38:00.72	109.06	10.83	-45.4	-48.8	14.9	0.00e+00	0	44	0	73400320	62	5312
2026-01-07 08:38:01.71	108.96	10.91	-45.5	-48.9	14.9	0.00e+00	0	44	0	75497472	62	5353
2026-01-07 08:38:02.71	108.85	10.98	-45.5	-49.0	14.8	0.00e+00	0	43	0	77594624	62	5424
2026-01-07 08:38:03.71	108.74	11.06	-45.5	-49.0	14.8	0.00e+00	0	43	0	79691776	62	5415
2026-01-07 08:38:04.70	108.63	11.13	-45.5	-48.9	14.8	0.00e+00	0	43	0	81788928	62	5390
2026-01-07 08:38:05.70	108.53	11.20	-45.1	-48.3	15.5	0.00e+00	0	43	0	82837504	62	4996
2026-01-07 08:38:06.70	108.42	11.28	-44.8	-47.9	15.8	0.00e+00	0	43	0	84934656	61	5079
2026-01-07 08:38:07.70	108.31	11.35	-44.7	-47.7	16.0	0.00e+00	0	43	0	87031808	61	4958
2026-01-07 08:38:08.70	108.20	11.43	-45.0	-48.1	15.6	0.00e+00	0	43	0	89128960	61	5208
2026-01-07 08:38:09.69	108.09	11.50	-45.1	-48.4	15.4	0.00e+00	0	43	0	91226112	61	5358
2026-01-07 08:38:10.69	107.98	11.58	-45.3	-48.7	15.1	0.00e+00	0	44	0	92274688	61	5548
2026-01-07 08:38:11.69	107.86	11.65	-45.3	-48.6	15.2	0.00e+00	0	43	0	94371840	61	5480
2026-01-07 08:38:12.69	107.75	11.73	-45.3	-48.6	15.2	0.00e+00	0	44	0	96468992	61	5476
2026-01-07 08:38:13.69	107.64	11.80	-45.2	-48.5	15.3	0.00e+00	0	43	0	98566144	61	5425
2026-01-07 08:38:14.69	107.53	11.88	-45.0	-48.2	15.5	0.00e+00	0	43	0	100663296	61	5275
2026-01-07 08:38:15.69	107.41	11.96	-45.1	-48.3	15.5	0.00e+00	0	44	0	101711872	61	5296
2026-01-07 08:38:16.69	107.30	12.03	-45.0	-48.2	15.6	0.00e+00	0	43	0	103809024	61	5238
2026-01-07 08:38:17.69	107.18	12.11	-45.3	-48.7	15.1	0.00e+00	0	43	0	105906176	61	5551
2026-01-07 08:38:18.69	107.07	12.18	-45.3	-48.7	15.2	0.00e+00	0	43	0	108003328	61	5537
2026-01-07 08:38:19.68	106.95	12.26	-45.4	-48.9	14.8	0.00e+00	0	43	0	109051904	61	5697
2026-01-07 08:38:20.68	106.83	12.34	-45.5	-48.9	14.9	0.00e+00	0	44	0	111149056	61	5710
2026-01-07 08:38:21.69	106.71	12.41	-45.6	-49.0	14.8	0.00e+00	0	44	0	113246208	62	5459
2026-01-07 08:38:22.69	106.59	12.49	-45.7	-49.3	14.6	0.00e+00	0	44	0	115343360	62	5597
2026-01-07 08:38:23.69	106.48	12.57	-45.8	-49.3	14.5	0.00e+00	0	44	0	117440512	62	5620
2026-01-07 08:38:24.69	106.36	12.65	-45.7	-49.1	14.7	0.00e+00	0	43	0	118489088	62	5512
2026-01-07 08:38:25.69	106.24	12.72	-45.6	-49.1	14.7	0.00e+00	0	43	0	120586240	62	5510
2026-01-07 08:38:26.69	106.11	12.80	-45.7	-49.1	14.8	0.00e+00	0	43	0	122683392	62	5496
2026-01-07 08:38:27.68	105.99	12.88	-45.7	-49.2	14.7	7.00e-07	0	44	0	124780544	62	5532
2026-01-07 08:38:28.68	105.87	12.95	-45.2	-48.4	15.4	0.00e+00	0	43	0	126877696	62	5083
2026-01-07 08:38:29.68	105.75	13.03	-45.0	-48.0	15.8	0.00e+00	0	43	0	127926272	61	5143
2026-01-07 08:38:30.68	105.62	13.11	-45.0	-48.1	15.7	0.00e+00	0	43	0	130023424	61	5203
2026-01-07 08:38:31.68	105.50	13.19	-44.9	-48.0	15.8	0.00e+00	0	44	0	132120576	61	5102
2026-01-07 08:38:32.69	105.37	13.27	-45.0	-48.2	15.7	0.00e+00	0	44	0	134217728	61	5231
2026-01-07 08:38:33.68	105.25	13.34	-44.9	-48.0	15.9	0.00e+00	0	44	0	136314880	61	5106
2026-01-07 08:38:34.68	105.12	13.42	-44.7	-47.7	16.1	0.00e+00	0	44	0	137363456	61	4975
2026-01-07 08:38:35.69	104.99	13.50	-44.3	-47.1	16.7	0.00e+00	0	44	0	139460608	60	4903
2026-01-07 08:38:36.68	104.87	13.58	-44.2	-46.9	16.9	0.00e+00	0	44	0	141557760	60	4781
2026-01-07 08:38:37.68	104.74	13.66	-44.0	-46.7	17.0	0.00e+00	0	44	0	143654912	60	4691
2026-01-07 08:38:38.68	104.61	13.73	-44.3	-47.1	16.7	0.00e+00	0	43	0	144703488	60	4902
2026-01-07 08:38:39.68	104.48	13.81	-44.2	-47.0	16.8	0.00e+00	0	44	0	146800640	60	4858
2026-01-07 08:38:40.67	104.35	13.89	-44.5	-47.4	16.5	0.00e+00	0	44	0	148897792	60	5058
2026-01-07 08:38:41.67	104.22	13.97	-44.3	-47.1	16.7	0.00e+00	0	44	0	150994944	60	4922
2026-01-07 08:38:42.67	104.09	14.05	-44.3	-47.1	16.8	0.00e+00	0	44	0	153092096	60	4890
2026-01-07 08:38:43.67	103.96	14.13	-44.2	-47.0	16.9	0.00e+00	0	44	0	154140672	60	4828
2026-01-07 08:38:44.67	103.82	14.21	-44.0	-46.8	17.1	0.00e+00	0	44	0	156237824	60	4708
2026-01-07 08:38:45.67	103.69	14.29	-43.9	-46.6	17.2	0.00e+00	0	44	0	158334976	59	4897
2026-01-07 08:38:46.67	103.55	14.37	-44.3	-47.1	16.7	0.00e+00	0	44	0	160432128	59	5187
2026-01-07 08:38:47.67	103.42	14.45	-44.5	-47.3	16.5	0.00e+00	0	44	0	161480704	59	5315
2026-01-07 08:38:48.66	103.28	14.53	-44.6	-47.5	16.3	0.00e+00	0	43	0	163577856	59	5424
2026-01-07 08:38:49.66	103.15	14.61	-44.6	-47.5	16.4	0.00e+00	0	43	0	165675008	60	5121
2026-01-07 08:38:50.66	103.01	14.68	-44.1	-46.9	17.0	0.00e+00	0	44	0	167772160	60	4763
2026-01-07 08:38:51.66	102.87	14.76	-44.2	-46.9	16.9	0.00e+00	0	44	0	169869312	60	4803
2026-01-07 08:38:52.66	102.73	14.84	-44.1	-46.8	17.0	0.00e+00	0	44	0	170917888	60	4751
2026-01-07 08:38:53.66	102.59	14.93	-44.0	-46.6	17.2	0.00e+00	0	44	0	173015040	59	4895
2026-01-07 08:38:54.66	102.45	15.01	-44.1	-46.8	17.1	0.00e+00	0	44	0	175112192	59	4985
2026-01-07 08:38:55.66	102.31	15.09	-44.3	-47.1	16.7	0.00e+00	0	44	0	177209344	59	5173
2026-01-07 08:38:56.66	102.17	15.17	-44.1	-46.9	16.9	0.00e+00	0	44	0	179306496	59	5064
2026-01-07 08:38:57.66	102.02	15.25	-44.2	-46.9	16.9	0.00e+00	0	44	0	180355072	59	5052
2026-01-07 08:38:58.66	101.88	15.33	-43.9	-46.5	17.3	0.00e+00	0	44	0	182452224	59	4838
2026-01-07 08:38:59.66	101.73	15.41	-44.0	-46.7	17.1	0.00e+00	0	43	0	184549376	59	4927
2026-01-07 08:39:00.65	101.59	15.49	-43.8	-46.5	17.3	0.00e+00	0	44	0	186646528	59	4815
2026-01-07 08:39:01.65	101.44	15.57	-43.9	-46.5	17.3	0.00e+00	0	44	0	187695104	59	4837
2026-01-07 08:39:02.65	101.30	15.65	-44.1	-46.8	17.0	0.00e+00	0	44	0	189792256	59	5007
2026-01-07 08:39:03.65	101.15	15.73	-44.2	-47.0	16.9	0.00e+00	0	44	0	191889408	59	5110
2026-01-07 08:39:04.65	101.00	15.81	-44.4	-47.3	16.6	0.00e+00	0	43	0	193986560	59	5280
2026-01-07 08:39:05.65	100.85	15.89	-44.4	-47.2	16.6	0.00e+00	0	44	0	196083712	59	5273
2026-01-07 08:39:06.65	100.70	15.97	-44.0	-46.7	17.1	0.00e+00	0	44	0	197132288	59	4944
2026-01-07 08:39:07.64	100.55	16.05	-43.9	-46.5	17.3	0.00e+00	0	43	0	199229440	59	4843
2026-01-07 08:39:08.64	100.40	16.14	-44.0	-46.6	17.2	0.00e+00	0	44	0	201326592	59	4922
2026-01-07 08:39:09.64	100.24	16.22	-44.2	-47.0	16.9	0.00e+00	0	44	0	203423744	59	5104
2026-01-07 08:39:10.64	100.09	16.30	-44.8	-47.7	16.2	0.00e+00	0	44	0	205520896	60	5267
2026-01-07 08:39:11.64	99.94	16.38	-45.1	-48.1	15.8	0.00e+00	0	44	0	206569472	60	5519
2026-01-07 08:39:12.64	99.78	16.46	-45.0	-48.1	15.9	0.00e+00	0	44	0	208666624	60	5473
2026-01-07 08:39:13.64	99.62	16.54	-44.7	-47.5	16.4	0.00e+00	0	44	0	210763776	60	5142
2026-01-07 08:39:14.64	99.47	16.62	-44.5	-47.2	16.7	0.00e+00	0	44	0	212860928	60	4969
2026-01-07 08:39:15.63	99.31	16.71	-44.4	-47.2	16.7	0.00e+00	0	44	0	214958080	60	4954
2026-01-07 08:39:16.63	99.15	16.79	-44.9	-47.9	16.1	0.00e+00	0	44	0	216006656	60	5358
2026-01-07 08:39:17.63	98.99	16.87	-45.2	-48.4	15.6	0.00e+00	0	44	0	218103808	61	5394
2026-01-07 08:39:18.62	98.83	16.95	-45.5	-48.8	15.2	0.00e+00	0	43	0	220200960	61	5639
2026-01-07 08:39:19.63	98.67	17.03	-45.4	-48.6	15.3	0.00e+00	0	44	0	222298112	61	5519
2026-01-07 08:39:20.63	98.51	17.12	-44.9	-48.0	16.0	0.00e+00	0	44	0	223346688	61	5104
2026-01-07 08:39:21.62	98.35	17.20	-44.8	-47.8	16.2	0.00e+00	0	44	0	225443840	61	4997
2026-01-07 08:39:22.63	98.18	17.28	-45.0	-48.0	15.9	0.00e+00	0	43	0	227540992	61	5151
2026-01-07 08:39:23.62	98.02	17.36	-45.2	-48.3	15.7	0.00e+00	0	44	0	229638144	61	5302
2026-01-07 08:39:24.62	97.85	17.44	-45.3	-48.5	15.5	0.00e+00	0	43	0	231735296	61	5434
2026-01-07 08:39:25.63	97.68	17.53	-45.4	-48.6	15.4	0.00e+00	0	44	0	232783872	61	5502
2026-01-07 08:39:26.63	97.51	17.61	-44.9	-47.9	16.1	0.00e+00	0	44	0	234881024	61	5092
2026-01-07 08:39:27.63	97.35	17.69	-44.7	-47.6	16.3	0.00e+00	0	43	0	236978176	61	4880
2026-01-07 08:39:28.63	97.18	17.77	-44.8	-47.8	16.2	0.00e+00	0	44	0	239075328	61	4999
2026-01-07 08:39:29.63	97.01	17.85	-44.9	-47.8	16.1	0.00e+00	0	44	0	241172480	61	5027
2026-01-07 08:39:30.63	96.83	17.94	-45.1	-48.1	15.9	0.00e+00	0	43	0	242221056	61	5195
2026-01-07 08:39:31.63	96.66	18.02	-44.9	-47.9	16.1	0.00e+00	0	44	0	244318208	61	5074
2026-01-07 08:39:32.63	96.49	18.10	-44.8	-47.7	16.3	0.00e+00	0	43	0	246415360	61	4951
2026-01-07 08:39:33.63	96.31	18.18	-44.7	-47.6	16.4	0.00e+00	0	44	0	248512512	61	4871
2026-01-07 08:39:34.63	96.14	18.27	-44.5	-47.3	16.7	0.00e+00	0	44	0	249561088	60	5007
2026-01-07 08:39:35.63	95.96	18.35	-44.3	-46.9	17.0	0.00e+00	0	44	0	251658240	60	4814
2026-01-07 08:39:36.63	95.78	18.43	-44.4	-47.2	16.8	0.00e+00	0	43	0	253755392	60	4944
2026-01-07 08:39:37.63	95.61	18.51	-44.5	-47.2	16.8	0.00e+00	0	44	0	255852544	60	4976
2026-01-07 08:39:38.63	95.43	18.59	-44.5	-47.3	16.7	0.00e+00	0	44	0	257949696	60	4998
2026-01-07 08:39:39.63	95.25	18.68	-44.7	-47.6	16.4	0.00e+00	0	43	0	258998272	60	5185
2026-01-07 08:39:40.63	95.07	18.76	-44.8	-47.7	16.3	0.00e+00	0	44	0	261095424	60	5252
2026-01-07 08:39:41.63	94.88	18.84	-44.9	-47.9	16.1	0.00e+00	0	44	0	263192576	60	5394
2026-01-07 08:39:42.63	94.70	18.92	-45.1	-48.2	15.9	0.00e+00	0	44	0	265289728	60	5574
2026-01-07 08:39:43.63	94.52	19.00	-44.7	-47.7	16.4	0.00e+00	0	44	0	267386880	60	5221
2026-01-07 08:39:44.63	94.33	19.09	-44.5	-47.3	16.7	0.00e+00	0	44	0	268435456	60	5031
2026-01-07 08:39:45.62	94.15	19.17	-44.5	-47.3	16.6	0.00e+00	0	44	0	270532608	60	5039
2026-01-07 08:39:46.62	93.96	19.25	-44.8	-47.7	16.3	0.00e+00	0	44	0	272629760	60	5275
2026-01-07 08:39:47.62	93.77	19.33	-44.8	-47.7	16.3	0.00e+00	0	44	0	274726912	60	5273
2026-01-07 08:39:48.62	93.58	19.41	-44.8	-47.7	16.3	0.00e+00	0	44	0	275775488	60	5271
2026-01-07 08:39:49.61	93.39	19.49	-44.4	-47.2	16.8	0.00e+00	0	44	0	277872640	60	4975
2026-01-07 08:39:50.60	93.20	19.57	-43.9	-46.4	17.4	0.00e+00	0	44	0	279969792	59	4813
2026-01-07 08:39:51.59	93.01	19.66	-43.9	-46.4	17.5	0.00e+00	0	44	0	282066944	59	4809
2026-01-07 08:39:52.59	92.82	19.74	-44.0	-46.6	17.3	0.00e+00	0	44	0	284164096	59	4873
2026-01-07 08:39:53.57	92.63	19.82	-44.1	-46.7	17.2	0.00e+00	0	43	0	285212672	59	4979
2026-01-07 08:39:54.57	92.43	19.90	-44.4	-47.3	16.7	0.00e+00	0	44	0	287309824	59	5288
2026-01-07 08:39:55.56	92.24	19.98	-44.7	-47.7	16.4	0.00e+00	0	44	0	289406976	60	5225
2026-01-07 08:39:56.56	92.04	20.06	-44.7	-47.6	16.4	0.00e+00	0	44	0	291504128	60	5190
2026-01-07 08:39:57.55	91.85	20.14	-44.4	-47.2	16.8	0.00e+00	0	44	0	292552704	60	4967
2026-01-07 08:39:58.55	91.65	20.22	-44.5	-47.4	16.6	0.00e+00	0	44	0	294649856	60	5079
2026-01-07 08:39:59.54	91.45	20.30	-44.4	-47.3	16.7	0.00e+00	0	44	0	296747008	60	4996
2026-01-07 08:40:00.54	91.25	20.38	-44.4	-47.3	16.8	0.00e+00	0	44	0	298844160	60	4996
2026-01-07 08:40:01.53	91.05	20.46	-44.3	-47.1	17.0	0.00e+00	0	44	0	300941312	60	4880
2026-01-07 08:40:02.52	90.84	20.54	-44.3	-47.0	17.0	0.00e+00	0	44	0	301989888	60	4852
2026-01-07 08:40:03.52	90.64	20.62	-44.2	-47.0	17.1	0.00e+00	0	44	0	304087040	60	4825
2026-01-07 08:40:04.52	90.43	20.70	-44.1	-46.8	17.2	0.00e+00	0	44	0	306184192	60	4718
2026-01-07 08:40:05.51	90.23	20.78	-43.8	-46.4	17.5	0.00e+00	0	44	0	308281344	59	4788
2026-01-07 08:40:06.52	90.02	20.86	-43.6	-46.2	17.7	0.00e+00	0	44	0	309329920	59	4655
2026-01-07 08:40:07.51	89.81	20.94	-43.6	-46.2	17.7	0.00e+00	0	44	0	311427072	59	4670
2026-01-07 08:40:08.51	89.60	21.02	-43.6	-46.3	17.6	0.00e+00	0	44	0	313524224	58	4991
2026-01-07 08:40:09.50	89.39	21.10	-43.8	-46.5	17.5	0.00e+00	0	44	0	315621376	58	5143
2026-01-07 08:40:10.50	89.18	21.18	-43.7	-46.3	17.6	0.00e+00	0	44	0	317718528	58	5033
2026-01-07 08:40:11.50	88.96	21.26	-43.6	-46.3	17.6	0.00e+00	0	44	0	318767104	58	4996
2026-01-07 08:40:12.50	88.75	21.34	-43.5	-46.0	17.9	0.00e+00	0	44	0	320864256	58	4859
2026-01-07 08:40:13.50	88.53	21.42	-43.4	-45.9	18.0	0.00e+00	0	44	0	322961408	58	4789
2026-01-07 08:40:14.50	88.32	21.50	-43.5	-46.1	17.9	0.00e+00	0	44	0	325058560	58	4873
2026-01-07 08:40:15.50	88.10	21.57	-43.6	-46.1	17.7	0.00e+00	0	44	0	327155712	58	4924
2026-01-07 08:40:16.49	87.88	21.65	-43.4	-46.0	17.9	0.00e+00	0	44	0	328204288	58	4829
2026-01-07 08:40:17.49	87.66	21.73	-43.3	-45.7	18.2	0.00e+00	0	44	0	330301440	58	4702
2026-01-07 08:40:18.49	87.44	21.81	-42.9	-45.3	18.6	0.00e+00	0	44	0	332398592	57	4746
2026-01-07 08:40:19.48	87.22	21.88	-42.6	-44.9	18.9	0.00e+00	0	44	0	334495744	57	4527
2026-01-07 08:40:20.48	87.00	21.96	-42.9	-45.3	18.6	0.00e+00	0	44	0	335544320	57	4709
2026-01-07 08:40:21.48	86.77	22.04	-43.1	-45.6	18.3	0.00e+00	0	44	0	337641472	57	4907
2026-01-07 08:40:22.48	86.55	22.12	-42.9	-45.4	18.4	0.00e+00	0	44	0	339738624	57	4768
2026-01-07 08:40:23.48	86.32	22.19	-42.9	-45.3	18.2	0.00e+00	0	44	0	341835776	57	4722
2026-01-07 08:40:24.47	86.09	22.27	-42.9	-45.3	18.5	0.00e+00	0	44	0	343932928	57	4740
2026-01-07 08:40:25.47	85.86	22.34	-43.2	-45.7	18.2	0.00e+00	0	44	0	344981504	57	4968
2026-01-07 08:40:26.46	85.64	22.42	-43.2	-45.6	18.3	0.00e+00	0	44	0	347078656	57	4914
2026-01-07 08:40:27.46	85.40	22.50	-43.3	-45.7	18.2	0.00e+00	0	44	0	349175808	57	4971
2026-01-07 08:40:28.46	85.17	22.57	-42.9	-45.3	18.6	0.00e+00	0	44	0	351272960	57	4729
2026-01-07 08:40:29.45	84.94	22.65	-42.9	-45.3	18.5	0.00e+00	0	44	0	352321536	57	4730
2026-01-07 08:40:30.45	84.71	22.72	-42.8	-45.2	18.7	0.00e+00	0	44	0	354418688	57	4669
2026-01-07 08:40:31.45	84.47	22.79	-42.7	-45.0	18.8	0.00e+00	0	44	0	356515840	57	4579
2026-01-07 08:40:32.45	84.23	22.87	-42.5	-44.8	19.0	0.00e+00	0	44	0	358612992	56	4715
2026-01-07 08:40:33.45	83.99	22.94	-42.5	-44.8	19.0	0.00e+00	0	44	0	360710144	56	4744
2026-01-07 08:40:34.45	83.76	23.02	-42.6	-45.0	18.9	0.00e+00	0	44	0	361758720	56	4839
2026-01-07 08:40:35.45	83.51	23.09	-42.8	-45.1	18.7	0.00e+00	0	44	0	363855872	56	4925
2026-01-07 08:40:36.44	83.28	23.16	-42.8	-45.2	18.7	0.00e+00	0	44	0	365953024	56	4939
2026-01-07 08:40:37.44	83.03	23.23	-42.8	-45.3	18.4	0.00e+00	0	44	0	368050176	56	5037
2026-01-07 08:40:38.43	82.79	23.31	-42.4	-44.9	18.8	0.00e+00	0	44	0	370147328	56	4772
2026-01-07 08:40:39.43	82.55	23.38	-42.3	-44.6	19.0	0.00e+00	0	44	0	371195904	56	4649
2026-01-07 08:40:40.42	82.30	23.45	-42.3	-44.7	19.0	0.00e+00	0	44	0	373293056	56	4676
2026-01-07 08:40:41.42	82.06	23.52	-42.5	-45.0	18.7	0.00e+00	0	44	0	375390208	56	4837
2026-01-07 08:40:42.42	81.81	23.59	-42.5	-44.9	18.8	0.00e+00	0	44	0	377487360	56	4793
2026-01-07 08:40:43.42	81.56	23.66	-42.4	-44.8	18.9	0.00e+00	0	44	0	378535936	56	4752
2026-01-07 08:40:44.42	81.31	23.73	-42.8	-45.3	18.5	0.00e+00	0	44	0	380633088	56	4989
2026-01-07 08:40:45.42	81.06	23.80	-43.0	-45.5	18.3	0.00e+00	0	44	0	382730240	56	5115
2026-01-07 08:40:46.42	80.80	23.87	-43.4	-46.0	17.8	0.00e+00	0	44	0	384827392	57	5155
2026-01-07 08:40:47.41	80.55	23.94	-43.3	-45.9	17.9	0.00e+00	0	44	0	386924544	57	5085
2026-01-07 08:40:48.41	80.30	24.01	-43.2	-45.8	18.1	0.00e+00	0	44	0	387973120	57	4995
2026-01-07 08:40:49.41	80.04	24.07	-43.2	-45.7	18.1	0.00e+00	0	44	0	390070272	57	4968
2026-01-07 08:40:50.41	79.78	24.14	-43.0	-45.6	18.2	0.00e+00	0	44	0	392167424	57	4874
2026-01-07 08:40:51.41	79.52	24.21	-43.1	-45.7	18.1	0.00e+00	0	44	0	394264576	57	4952
2026-01-07 08:40:52.40	79.27	24.27	-42.9	-45.4	18.4	0.00e+00	0	44	0	396361728	57	4782
2026-01-07 08:40:53.40	79.01	24.34	-42.9	-45.4	18.3	0.00e+00	0	44	0	397410304	57	4813
2026-01-07 08:40:54.40	78.74	24.40	-42.9	-45.4	18.3	0.00e+00	0	44	0	399507456	57	4807
2026-01-07 08:40:55.40	78.48	24.47	-42.8	-45.2	18.5	0.00e+00	0	43	0	401604608	57	4701
2026-01-07 08:40:56.39	78.22	24.53	-42.6	-45.0	18.7	0.00e+00	0	44	0	403701760	57	4551
2026-01-07 08:40:57.39	77.96	24.60	-42.6	-45.0	18.6	0.00e+00	0	44	0	404750336	57	4597
2026-01-07 08:40:58.39	77.69	24.66	-42.6	-45.1	18.7	0.00e+00	0	44	0	406847488	57	4608
2026-01-07 08:40:59.39	77.42	24.72	-42.7	-45.2	18.6	0.00e+00	0	44	0	408944640	57	4675
2026-01-07 08:41:00.38	77.16	24.79	-42.8	-45.3	18.5	0.00e+00	0	43	0	411041792	57	4712
2026-01-07 08:41:01.38	76.89	24.85	-42.6	-45.0	18.7	0.00e+00	0	44	0	413138944	57	4598
2026-01-07 08:41:02.37	76.62	24.91	-42.5	-44.9	18.9	0.00e+00	0	44	0	414187520	57	4510
2026-01-07 08:41:03.37	76.35	24.97	-42.4	-44.8	19.0	0.00e+00	0	44	0	416284672	56	4720
2026-01-07 08:41:04.37	76.08	25.03	-42.4	-44.7	19.0	0.00e+00	0	43	0	418381824	56	4683
2026-01-07 08:41:05.37	75.80	25.09	-42.2	-44.4	19.2	0.00e+00	0	44	0	420478976	56	4534
2026-01-07 08:41:06.37	75.53	25.15	-42.1	-44.3	19.4	0.00e+00	0	44	0	421527552	56	4464
2026-01-07 08:41:07.37	75.25	25.21	-42.1	-44.4	19.3	0.00e+00	0	44	0	423624704	56	4518
2026-01-07 08:41:08.37	74.98	25.26	-42.3	-44.6	19.1	0.00e+00	0	44	0	425721856	56	4643
2026-01-07 08:41:09.37	74.70	25.32	-42.4	-44.7	19.1	0.00e+00	0	44	0	427819008	56	4659
2026-01-07 08:41:10.36	74.42	25.38	-42.7	-45.1	18.7	0.00e+00	0	44	0	429916160	56	4902
2026-01-07 08:41:11.36	74.14	25.43	-42.6	-45.0	18.7	0.00e+00	0	44	0	430964736	56	4852
2026-01-07 08:41:12.36	73.86	25.49	-42.8	-45.2	18.6	0.00e+00	0	44	0	433061888	56	4976
2026-01-07 08:41:13.35	73.59	25.54	-42.9	-45.4	18.4	0.00e+00	0	44	0	435159040	56	5073
2026-01-07 08:41:14.35	73.30	25.60	-42.9	-45.4	18.4	0.00e+00	0	44	0	437256192	56	5074
2026-01-07 08:41:15.35	73.02	25.65	-42.9	-45.3	18.5	0.00e+00	0	44	0	439353344	56	5039
2026-01-07 08:41:16.34	72.74	25.70	-43.0	-45.5	18.4	0.00e+00	0	44	0	440401920	56	5105
2026-01-07 08:41:17.34	72.45	25.75	-42.9	-45.4	18.4	0.00e+00	0	44	0	442499072	56	5051
2026-01-07 08:41:18.34	72.17	25.81	-42.7	-45.1	18.6	0.00e+00	0	44	0	444596224	56	4919
2026-01-07 08:41:19.34	71.88	25.86	-43.0	-45.5	18.4	0.00e+00	0	44	0	446693376	56	5101
2026-01-07 08:41:20.34	71.59	25.91	-43.1	-45.6	18.2	0.00e+00	0	44	0	447741952	56	5181
2026-01-07 08:41:21.34	71.30	25.96	-43.0	-45.5	18.3	0.00e+00	0	43	0	449839104	56	5144
2026-01-07 08:41:22.33	71.02	26.00	-43.1	-45.6	18.3	0.00e+00	0	44	0	451936256	57	4873
2026-01-07 08:41:23.33	70.72	26.05	-43.4	-46.0	17.9	0.00e+00	0	44	0	454033408	57	5124
2026-01-07 08:41:24.32	70.44	26.10	-43.6	-46.3	17.6	0.00e+00	0	44	0	456130560	57	5291
2026-01-07 08:41:25.32	70.14	26.15	-43.7	-46.5	17.5	0.00e+00	0	44	0	457179136	58	5103
2026-01-07 08:41:26.31	69.85	26.19	-43.8	-46.5	17.4	0.00e+00	0	44	0	459276288	58	5150
2026-01-07 08:41:27.31	69.56	26.24	-44.0	-46.8	17.2	0.00e+00	0	44	0	461373440	58	5307
2026-01-07 08:41:28.31	69.26	26.28	-44.3	-47.1	16.8	0.00e+00	0	44	0	463470592	59	5199
2026-01-07 08:41:29.31	68.97	26.32	-44.2	-47.1	16.9	0.00e+00	0	44	0	464519168	59	5174
2026-01-07 08:41:30.30	68.68	26.37	-44.2	-47.0	16.9	0.00e+00	0	43	0	466616320	59	5130
2026-01-07 08:41:31.30	68.38	26.41	-44.1	-46.9	17.0	0.00e+00	0	44	0	468713472	59	5097
2026-01-07 08:41:32.30	68.08	26.45	-44.0	-46.8	17.2	0.00e+00	0	44	0	470810624	59	4999
2026-01-07 08:41:33.30	67.78	26.49	-43.9	-46.6	17.3	0.00e+00	0	44	0	472907776	59	4897
2026-01-07 08:41:34.29	67.48	26.53	-43.9	-46.6	17.4	0.00e+00	0	44	0	473956352	59	4878
2026-01-07 08:41:35.29	67.18	26.57	-43.9	-46.6	17.3	0.00e+00	0	44	0	476053504	59	4898
2026-01-07 08:41:36.29	66.88	26.61	-44.1	-46.9	17.0	0.00e+00	0	44	0	478150656	59	5062
2026-01-07 08:41:37.29	66.58	26.64	-44.4	-47.3	16.6	0.00e+00	0	44	0	480247808	59	5310
2026-01-07 08:41:38.28	66.28	26.68	-44.7	-47.8	16.2	0.00e+00	0	44	0	482344960	60	5309
2026-01-07 08:41:39.28	65.98	26.71	-44.8	-47.9	16.1	0.00e+00	0	44	0	483393536	60	5380
2026-01-07 08:41:40.27	65.68	26.75	-44.7	-47.8	16.2	0.00e+00	0	44	0	485490688	60	5311
2026-01-07 08:41:41.27	65.37	26.78	-44.7	-47.8	16.2	0.00e+00	0	43	0	487587840	60	5309
2026-01-07 08:41:42.27	65.07	26.82	-44.7	-47.8	16.2	0.00e+00	0	44	0	489684992	60	5326
2026-01-07 08:41:43.27	64.76	26.85	-44.5	-47.5	16.5	0.00e+00	0	44	0	490733568	60	5113
2026-01-07 08:41:44.27	64.46	26.88	-44.2	-47.1	16.9	0.00e+00	0	44	0	492830720	60	4890
2026-01-07 08:41:45.27	64.15	26.91	-43.9	-46.7	17.2	0.00e+00	0	44	0	494927872	59	4934
2026-01-07 08:41:46.26	63.84	26.94	-44.3	-47.2	16.7	0.00e+00	0	44	0	497025024	59	5272
2026-01-07 08:41:47.26	63.54	26.97	-44.4	-47.3	16.6	0.00e+00	0	44	0	499122176	59	5318
2026-01-07 08:41:48.25	63.23	26.99	-44.4	-47.4	16.5	0.00e+00	0	44	0	500170752	59	5396
2026-01-07 08:41:49.25	62.92	27.02	-44.4	-47.4	16.5	0.00e+00	0	44	0	502267904	59	5369
2026-01-07 08:41:50.25	62.61	27.05	-44.2	-47.2	16.7	0.00e+00	0	44	0	504365056	59	5227
2026-01-07 08:41:51.24	62.31	27.07	-44.0	-46.9	17.0	0.00e+00	0	44	0	506462208	59	5070
2026-01-07 08:41:52.24	61.99	27.10	-43.9	-46.7	17.2	0.00e+00	0	44	0	508559360	59	4945
2026-01-07 08:41:53.24	61.68	27.12	-43.7	-46.4	17.5	0.00e+00	0	44	0	509607936	59	4768
2026-01-07 08:41:54.24	61.37	27.14	-43.6	-46.3	17.5	0.00e+00	0	44	0	511705088	59	4750
2026-01-07 08:41:55.24	61.06	27.16	-43.9	-46.8	17.1	0.00e+00	0	44	0	513802240	59	4988
2026-01-07 08:41:56.24	60.75	27.18	-44.0	-46.8	17.0	0.00e+00	0	44	0	515899392	59	5031
2026-01-07 08:41:57.23	60.44	27.20	-44.1	-47.1	16.8	0.00e+00	0	44	0	516947968	59	5161
2026-01-07 08:41:58.23	60.13	27.22	-44.3	-47.2	16.7	0.00e+00	0	44	0	519045120	59	5261
2026-01-07 08:41:59.23	59.81	27.24	-44.6	-47.7	16.3	0.00e+00	0	44	0	521142272	59	5566
2026-01-07 08:42:00.23	59.50	27.26	-45.0	-48.3	15.7	0.00e+00	0	44	0	523239424	60	5624
2026-01-07 08:42:01.22	59.19	27.27	-45.2	-48.6	15.4	0.00e+00	0	44	0	525336576	61	5499
2026-01-07 08:42:02.22	58.87	27.29	-45.1	-48.5	15.5	0.00e+00	0	44	0	526385152	61	5413
2026-01-07 08:42:03.21	58.56	27.30	-44.8	-48.0	16.0	0.00e+00	0	44	0	528482304	61	5122
2026-01-07 08:42:04.21	58.25	27.31	-44.6	-47.8	16.3	0.00e+00	0	44	0	530579456	60	5287
2026-01-07 08:42:05.21	57.93	27.32	-44.4	-47.4	16.6	0.00e+00	0	44	0	532676608	60	5056
2026-01-07 08:42:06.21	57.62	27.34	-44.0	-46.9	17.0	0.00e+00	0	44	0	533725184	60	4790
2026-01-07 08:42:07.21	57.30	27.35	-43.8	-46.5	17.5	0.00e+00	0	44	0	535822336	59	4833
2026-01-07 08:42:08.21	56.99	27.36	-43.5	-46.1	17.8	0.00e+00	0	44	0	537919488	59	4617
2026-01-07 08:42:09.21	56.67	27.36	-43.4	-46.0	17.8	0.00e+00	0	44	0	540016640	58	4870
2026-01-07 08:42:10.20	56.36	27.37	-43.5	-46.2	17.8	0.00e+00	0	44	0	542113792	58	4942
2026-01-07 08:42:11.20	56.04	27.38	-44.0	-46.8	17.2	0.00e+00	0	43	0	543162368	58	5285
2026-01-07 08:42:12.20	55.72	27.38	-44.2	-47.0	16.8	0.00e+00	0	44	0	545259520	59	5159
2026-01-07 08:42:13.20	55.41	27.39	-44.2	-47.1	16.8	0.00e+00	0	44	0	547356672	59	5188
2026-01-07 08:42:14.19	55.09	27.39	-44.1	-46.8	17.0	0.00e+00	0	44	0	549453824	59	5041
2026-01-07 08:42:15.19	54.78	27.39	-44.0	-46.8	17.1	0.00e+00	0	44	0	551550976	59	5008
2026-01-07 08:42:16.18	54.46	27.39	-44.0	-46.8	17.1	0.00e+00	0	44	0	552599552	59	5012
2026-01-07 08:42:17.17	54.15	27.39	-43.9	-46.7	17.3	0.00e+00	0	44	0	554696704	59	4937
2026-01-07 08:42:18.17	53.83	27.39	-43.8	-46.5	17.6	0.00e+00	0	44	0	556793856	59	4845
2026-01-07 08:42:19.17	53.52	27.39	-43.6	-46.2	17.7	0.00e+00	0	44	0	558891008	59	4696
2026-01-07 08:42:20.17	53.20	27.39	-43.5	-46.2	17.7	0.00e+00	0	44	0	559939584	59	4659
2026-01-07 08:42:21.17	52.89	27.39	-43.7	-46.5	17.5	0.00e+00	0	44	0	562036736	58	5102
2026-01-07 08:42:22.16	52.57	27.38	-43.6	-46.2	17.7	0.00e+00	0	44	0	564133888	58	4979
2026-01-07 08:42:23.16	52.26	27.38	-43.8	-46.5	17.4	0.00e+00	0	44	0	566231040	58	5120
2026-01-07 08:42:24.16	51.94	27.37	-43.7	-46.4	17.5	0.00e+00	0	44	0	568328192	58	5061
2026-01-07 08:42:25.16	51.62	27.36	-44.0	-46.8	17.2	0.00e+00	0	44	0	569376768	58	5298
2026-01-07 08:42:26.15	51.31	27.36	-44.0	-46.8	17.0	0.00e+00	0	44	0	571473920	59	5027
2026-01-07 08:42:27.15	51.00	27.35	-44.3	-47.2	16.8	0.00e+00	0	44	0	573571072	59	5245
2026-01-07 08:42:28.15	50.68	27.34	-44.2	-47.1	16.9	0.00e+00	0	44	0	575668224	59	5181
2026-01-07 08:42:29.14	50.37	27.33	-43.8	-46.6	17.4	0.00e+00	0	44	0	577765376	59	4878
2026-01-07 08:42:30.14	50.05	27.31	-43.1	-45.6	18.2	0.00e+00	0	44	0	578813952	58	4641
2026-01-07 08:42:31.14	49.74	27.30	-42.8	-45.2	18.6	0.00e+00	0	44	0	580911104	57	4655
2026-01-07 08:42:32.13	49.43	27.29	-42.6	-44.9	18.9	0.00e+00	0	44	0	583008256	57	4531
2026-01-07 08:42:33.13	49.11	27.27	-42.6	-44.9	18.9	0.00e+00	0	44	0	585105408	57	4515
2026-01-07 08:42:34.13	48.80	27.26	-42.7	-45.1	18.6	0.00e+00	0	44	0	586153984	57	4636
2026-01-07 08:42:35.13	48.49	27.24	-42.9	-45.4	18.5	0.00e+00	0	44	0	588251136	57	4760
2026-01-07 08:42:36.12	48.18	27.22	-43.2	-45.7	18.2	0.00e+00	0	44	0	590348288	57	4951
2026-01-07 08:42:37.12	47.86	27.20	-42.9	-45.4	18.4	0.00e+00	0	44	0	592445440	57	4813
2026-01-07 08:42:38.12	47.55	27.18	-42.9	-45.3	18.4	0.00e+00	0	44	0	594542592	57	4750
2026-01-07 08:42:39.12	47.24	27.16	-42.8	-45.2	18.6	0.00e+00	0	44	0	595591168	57	4694
2026-01-07 08:42:40.12	46.93	27.14	-42.8	-45.3	18.5	0.00e+00	0	44	0	597688320	57	4710
2026-01-07 08:42:41.12	46.62	27.12	-42.9	-45.4	18.5	0.00e+00	0	44	0	599785472	57	4762
2026-01-07 08:42:42.11	46.31	27.10	-43.1	-45.7	18.2	0.00e+00	0	44	0	601882624	57	4936
2026-01-07 08:42:43.11	46.00	27.07	-43.4	-45.9	17.9	0.00e+00	0	44	0	602931200	57	5096
2026-01-07 08:42:44.11	45.69	27.05	-43.5	-46.1	17.8	0.00e+00	0	44	0	605028352	57	5168
2026-01-07 08:42:45.10	45.38	27.02	-43.4	-46.0	17.9	0.00e+00	0	44	0	607125504	57	5146
2026-01-07 08:42:46.10	45.07	27.00	-43.7	-46.4	17.5	0.00e+00	0	44	0	609222656	58	5052
2026-01-07 08:42:47.10	44.76	26.97	-43.5	-46.0	17.8	0.00e+00	0	43	0	611319808	58	4863
2026-01-07 08:42:48.10	44.46	26.94	-43.3	-45.8	18.1	0.00e+00	0	43	0	612368384	58	4714
2026-01-07 08:42:49.09	44.15	26.91	-43.4	-45.9	18.0	0.00e+00	0	44	0	614465536	58	4803
2026-01-07 08:42:50.09	43.85	26.88	-43.7	-46.3	17.7	0.00e+00	0	44	0	616562688	58	5024
2026-01-07 08:42:51.08	43.54	26.85	-44.0	-46.7	17.2	0.00e+00	0	44	0	618659840	58	5263
2026-01-07 08:42:52.08	43.24	26.82	-44.0	-46.8	17.2	0.00e+00	0	43	0	620756992	58	5282
2026-01-07 08:42:53.07	42.94	26.79	-44.1	-46.8	17.2	0.00e+00	0	44	0	621805568	58	5322
2026-01-07 08:42:54.07	42.63	26.75	-43.9	-46.6	17.4	0.00e+00	0	44	0	623902720	58	5177
2026-01-07 08:42:55.07	42.33	26.72	-43.8	-46.5	17.5	0.00e+00	0	44	0	625999872	58	5111
2026-01-07 08:42:56.07	42.03	26.68	-43.7	-46.3	17.6	0.00e+00	0	44	0	628097024	58	5038
2026-01-07 08:42:57.06	41.73	26.65	-43.7	-46.3	17.6	0.00e+00	0	44	0	629145600	58	5038
2026-01-07 08:42:58.06	41.43	26.61	-43.5	-46.1	17.8	0.00e+00	0	44	0	631242752	58	4902
2026-01-07 08:42:59.05	41.13	26.57	-43.4	-45.9	18.0	0.00e+00	0	44	0	633339904	58	4763
2026-01-07 08:43:00.05	40.83	26.53	-43.3	-45.8	18.1	0.00e+00	0	44	0	635437056	58	4732
2026-01-07 08:43:01.05	40.53	26.49	-43.5	-46.0	17.9	0.00e+00	0	44	0	637534208	58	4844
2026-01-07 08:43:02.05	40.23	26.45	-43.6	-46.1	17.8	0.00e+00	0	44	0	638582784	58	4912
2026-01-07 08:43:03.05	39.93	26.41	-43.5	-46.0	17.9	0.00e+00	0	44	0	640679936	58	4836
2026-01-07 08:43:04.05	39.64	26.37	-43.4	-45.9	18.0	0.00e+00	0	44	0	642777088	58	4805
2026-01-07 08:43:05.04	39.34	26.33	-43.5	-46.0	17.9	0.00e+00	0	44	0	644874240	58	4866
2026-01-07 08:43:06.04	39.05	26.29	-43.7	-46.4	17.6	0.00e+00	0	44	0	646971392	58	5043
2026-01-07 08:43:07.04	38.75	26.24	-43.8	-46.4	17.5	0.00e+00	0	44	0	648019968	58	5083
2026-01-07 08:43:08.03	38.46	26.20	-43.9	-46.6	17.4	0.00e+00	0	44	0	650117120	58	5163
2026-01-07 08:43:09.03	38.17	26.15	-43.9	-46.6	17.4	0.00e+00	0	44	0	652214272	58	5163
2026-01-07 08:43:10.03	37.88	26.11	-43.9	-46.7	17.3	0.00e+00	0	44	0	654311424	58	5239
2026-01-07 08:43:11.02	37.59	26.06	-44.2	-47.0	17.0	0.00e+00	0	44	0	655360000	59	5142
2026-01-07 08:43:12.02	37.30	26.01	-44.5	-47.5	16.5	0.00e+00	0	44	0	657457152	60	5137
2026-01-07 08:43:13.02	37.01	25.96	-44.4	-47.5	16.6	0.00e+00	0	44	0	659554304	60	5103
2026-01-07 08:43:14.02	36.72	25.91	-44.6	-47.7	16.4	0.00e+00	0	44	0	661651456	60	5222
2026-01-07 08:43:15.02	36.44	25.86	-44.6	-47.7	16.4	0.00e+00	0	44	0	663748608	60	5226
2026-01-07 08:43:16.01	36.15	25.81	-44.7	-47.8	16.3	0.00e+00	0	44	0	664797184	60	5292
2026-01-07 08:43:17.01	35.87	25.76	-44.6	-47.7	16.4	0.00e+00	0	44	0	666894336	60	5223
2026-01-07 08:43:18.01	35.58	25.71	-44.7	-47.7	16.3	0.00e+00	0	44	0	668991488	60	5267
2026-01-07 08:43:19.01	35.30	25.66	-44.7	-47.7	16.3	0.00e+00	0	44	0	671088640	60	5246
2026-01-07 08:43:20.00	35.02	25.61	-44.7	-47.8	16.2	0.00e+00	0	44	0	672137216	60	5326
2026-01-07 08:43:20.99	34.74	25.55	-44.8	-47.9	16.1	0.00e+00	0	44	0	674234368	60	5361
2026-01-07 08:43:21.99	34.46	25.50	-44.5	-47.5	16.5	0.00e+00	0	44	0	676331520	60	5124
2026-01-07 08:43:22.99	34.18	25.44	-44.4	-47.3	16.7	0.00e+00	0	44	0	678428672	60	5016
2026-01-07 08:43:23.98	33.90	25.39	-44.2	-47.2	16.8	0.00e+00	0	44	0	680525824	60	4944
2026-01-07 08:43:24.98	33.63	25.33	-44.4	-47.4	16.6	0.00e+00	0	44	0	681574400	60	5097
2026-01-07 08:43:25.98	33.35	25.27	-44.3	-47.3	16.7	0.00e+00	0	44	0	683671552	60	5035
2026-01-07 08:43:26.97	33.08	25.22	-44.2	-47.3	16.7	0.00e+00	0	44	0	685768704	60	4991
2026-01-07 08:43:27.97	32.80	25.16	-44.1	-47.0	16.9	0.00e+00	0	44	0	687865856	60	4862
2026-01-07 08:43:28.97	32.53	25.10	-44.1	-47.0	17.0	0.00e+00	0	44	0	688914432	60	4832
2026-01-07 08:43:29.96	32.26	25.04	-44.1	-47.0	16.9	0.00e+00	0	44	0	691011584	60	4833
2026-01-07 08:43:30.96	31.99	24.98	-44.2	-47.1	16.8	0.00e+00	0	44	0	693108736	59	5176
2026-01-07 08:43:31.95	31.72	24.92	-44.0	-46.9	17.0	0.00e+00	0	44	0	695205888	59	5045
2026-01-07 08:43:32.95	31.45	24.86	-43.9	-46.8	17.2	0.00e+00	0	44	0	697303040	59	4984
2026-01-07 08:43:33.95	31.18	24.80	-43.5	-46.2	17.6	0.00e+00	0	44	0	698351616	58	4956
2026-01-07 08:43:34.95	30.91	24.74	-43.1	-45.8	18.0	0.00e+00	0	44	0	700448768	58	4720
2026-01-07 08:43:35.95	30.65	24.67	-43.4	-46.1	17.7	0.00e+00	0	44	0	702545920	58	4901
2026-01-07 08:43:36.95	30.38	24.61	-43.8	-46.7	17.2	0.00e+00	0	44	0	704643072	58	5242
2026-01-07 08:43:37.94	30.12	24.55	-44.3	-47.3	16.6	0.00e+00	0	44	0	706740224	59	5303
2026-01-07 08:43:38.94	29.86	24.48	-44.5	-47.5	16.4	0.00e+00	0	44	0	707788800	59	5456
2026-01-07 08:43:39.94	29.59	24.42	-44.6	-47.7	16.2	0.00e+00	0	44	0	709885952	59	5583
2026-01-07 08:43:40.93	29.34	24.35	-44.5	-47.6	16.4	0.00e+00	0	44	0	711983104	60	5179
2026-01-07 08:43:41.93	29.08	24.29	-44.7	-48.0	15.9	0.00e+00	0	44	0	714080256	60	5440
2026-01-07 08:43:42.92	28.82	24.22	-44.7	-47.9	16.0	0.00e+00	0	44	0	715128832	60	5393
2026-01-07 08:43:43.92	28.56	24.16	-44.9	-48.3	15.7	0.00e+00	0	44	0	717225984	60	5613
2026-01-07 08:43:44.92	28.31	24.09	-44.5	-47.7	16.3	0.00e+00	0	44	0	719323136	60	5252
2026-01-07 08:43:45.92	28.05	24.02	-44.4	-47.5	16.5	0.00e+00	0	44	0	721420288	60	5135
2026-01-07 08:43:46.92	27.80	23.95	-44.2	-47.1	16.8	0.00e+00	0	44	0	723517440	60	4926
2026-01-07 08:43:47.92	27.54	23.89	-44.0	-47.0	17.0	0.00e+00	0	44	0	724566016	60	4829
2026-01-07 08:43:48.91	27.29	23.82	-44.0	-46.8	17.2	0.00e+00	0	44	0	726663168	59	5030
2026-01-07 08:43:49.91	27.04	23.75	-43.9	-46.7	17.2	0.00e+00	0	44	0	728760320	59	4964
2026-01-07 08:43:50.91	26.79	23.68	-44.0	-46.9	17.0	0.00e+00	0	44	0	730857472	59	5051
2026-01-07 08:43:51.90	26.55	23.61	-44.3	-47.3	16.6	0.00e+00	0	44	0	731906048	59	5308
2026-01-07 08:43:52.90	26.30	23.54	-44.3	-47.4	16.6	0.00e+00	0	44	0	734003200	59	5353
2026-01-07 08:43:53.90	26.05	23.47	-44.4	-47.4	16.5	0.00e+00	0	44	0	736100352	59	5382
2026-01-07 08:43:54.90	25.81	23.40	-44.5	-47.6	16.3	0.00e+00	0	44	0	738197504	59	5493
2026-01-07 08:43:55.89	25.56	23.33	-43.9	-46.8	17.0	0.00e+00	0	44	0	740294656	59	5035
2026-01-07 08:43:56.89	25.32	23.25	-43.7	-46.5	17.5	0.00e+00	0	44	0	741343232	59	4839
2026-01-07 08:43:57.88	25.08	23.18	-43.3	-46.1	17.8	0.00e+00	0	44	0	743440384	58	4887
2026-01-07 08:43:58.88	24.84	23.11	-43.1	-45.9	18.0	0.00e+00	0	44	0	745537536	58	4770
2026-01-07 08:43:59.88	24.60	23.04	-42.7	-45.4	18.3	0.00e+00	0	44	0	747634688	57	4776
2026-01-07 08:44:00.87	24.37	22.96	-42.9	-45.6	18.2	0.00e+00	0	44	0	748683264	57	4901
2026-01-07 08:44:01.87	24.13	22.89	-42.9	-45.6	18.2	0.00e+00	0	44	0	750780416	57	4905
2026-01-07 08:44:02.86	23.89	22.82	-43.0	-45.7	18.1	0.00e+00	0	44	0	752877568	57	4977
2026-01-07 08:44:03.86	23.66	22.74	-42.9	-45.6	18.2	0.00e+00	0	44	0	754974720	57	4885
2026-01-07 08:44:04.85	23.43	22.67	-42.8	-45.5	18.3	0.00e+00	0	44	0	757071872	57	4838
2026-01-07 08:44:05.85	23.19	22.60	-42.8	-45.5	18.3	0.00e+00	0	44	0	758120448	57	4836
2026-01-07 08:44:06.85	22.96	22.52	-42.7	-45.4	18.4	0.00e+00	0	44	0	760217600	57	4765
2026-01-07 08:44:07.84	22.73	22.45	-42.8	-45.4	18.4	0.00e+00	0	44	0	762314752	57	4786
2026-01-07 08:44:08.84	22.50	22.37	-42.7	-45.2	18.6	0.00e+00	0	44	0	764411904	57	4668
2026-01-07 08:44:09.84	22.28	22.29	-42.6	-45.1	18.7	0.00e+00	0	44	0	766509056	56	4881
2026-01-07 08:44:10.84	22.05	22.22	-42.3	-44.7	19.0	0.00e+00	0	44	0	767557632	56	4697
2026-01-07 08:44:11.84	21.82	22.14	-42.1	-44.5	19.2	0.00e+00	0	44	0	769654784	56	4575
2026-01-07 08:44:12.84	21.60	22.07	-42.0	-44.4	19.3	0.00e+00	0	44	0	771751936	56	4504
2026-01-07 08:44:13.83	21.38	21.99	-42.1	-44.5	19.2	0.00e+00	0	44	0	773849088	56	4551
2026-01-07 08:44:14.83	21.15	21.91	-42.4	-44.8	18.9	0.00e+00	0	44	0	775946240	56	4726
2026-01-07 08:44:15.83	20.93	21.83	-42.4	-44.9	18.9	0.00e+00	0	44	0	776994816	56	4777
2026-01-07 08:44:16.82	20.71	21.76	-42.7	-45.2	18.6	0.00e+00	0	44	0	779091968	56	4962
2026-01-07 08:44:17.82	20.49	21.68	-42.9	-45.4	18.4	0.00e+00	0	44	0	781189120	56	5083
2026-01-07 08:44:18.82	20.28	21.60	-43.1	-45.7	18.2	0.00e+00	0	44	0	783286272	56	5238
2026-01-07 08:44:19.82	20.06	21.52	-43.3	-46.0	17.9	0.00e+00	0	44	0	784334848	57	5111
2026-01-07 08:44:20.82	19.84	21.45	-43.5	-46.2	17.7	0.00e+00	0	44	0	786432000	57	5267
2026-01-07 08:44:21.82	19.63	21.37	-43.5	-46.3	17.5	0.00e+00	0	44	0	788529152	57	5328
2026-01-07 08:44:22.81	19.42	21.29	-43.5	-46.3	17.6	0.00e+00	0	44	0	790626304	57	5281
2026-01-07 08:44:23.81	19.20	21.21	-43.2	-45.9	17.9	0.00e+00	0	44	0	792723456	57	5088
2026-01-07 08:44:24.80	18.99	21.13	-43.2	-45.9	18.0	0.00e+00	0	44	0	793772032	57	5044
2026-01-07 08:44:25.80	18.78	21.05	-43.2	-45.9	17.9	0.00e+00	0	44	0	795869184	57	5086
2026-01-07 08:44:26.80	18.57	20.97	-43.3	-46.0	17.8	0.00e+00	0	44	0	797966336	57	5123
2026-01-07 08:44:27.79	18.37	20.89	-43.4	-46.1	17.8	0.00e+00	0	43	0	800063488	57	5180
2026-01-07 08:44:28.78	18.16	20.82	-43.5	-46.2	17.6	0.00e+00	0	44	0	801112064	57	5263
2026-01-07 08:44:29.78	17.96	20.74	-43.4	-46.1	17.7	0.00e+00	0	44	0	803209216	57	5180
2026-01-07 08:44:30.78	17.75	20.66	-43.0	-45.6	18.2	0.00e+00	0	44	0	805306368	57	4892
2026-01-07 08:44:31.77	17.55	20.58	-42.3	-44.7	19.1	0.00e+00	0	44	0	807403520	56	4661
2026-01-07 08:44:32.77	17.35	20.50	-41.8	-44.1	19.4	0.00e+00	0	44	0	809500672	55	4630
2026-01-07 08:44:33.77	17.14	20.42	-41.7	-44.0	19.6	0.00e+00	0	44	0	810549248	55	4556
2026-01-07 08:44:34.77	16.94	20.34	-41.7	-43.9	19.6	0.00e+00	0	44	0	812646400	55	4534
2026-01-07 08:44:35.77	16.74	20.26	-41.8	-44.1	19.5	0.00e+00	0	44	0	814743552	55	4602
2026-01-07 08:44:36.77	16.54	20.17	-41.8	-44.1	19.4	0.00e+00	0	44	0	816840704	55	4619
2026-01-07 08:44:37.76	16.35	20.09	-41.8	-44.1	19.4	0.00e+00	0	44	0	817889280	55	4645
2026-01-07 08:44:38.76	16.15	20.01	-42.0	-44.3	19.3	0.00e+00	0	44	0	819986432	55	4732
2026-01-07 08:44:39.76	15.96	19.93	-42.1	-44.5	19.1	0.00e+00	0	44	0	822083584	55	4824
2026-01-07 08:44:40.76	15.76	19.85	-42.2	-44.5	19.1	0.00e+00	0	44	0	824180736	55	4867
2026-01-07 08:44:41.75	15.57	19.77	-42.2	-44.5	19.1	0.00e+00	0	43	0	826277888	55	4831
2026-01-07 08:44:42.75	15.38	19.69	-42.2	-44.5	19.1	0.00e+00	0	44	0	827326464	55	4864
2026-01-07 08:44:43.74	15.19	19.61	-42.2	-44.5	19.0	0.00e+00	0	44	0	829423616	55	4864
2026-01-07 08:44:44.74	15.00	19.53	-42.3	-44.7	18.9	0.00e+00	0	44	0	831520768	55	4943
2026-01-07 08:44:45.74	14.81	19.45	-42.3	-44.6	19.0	0.00e+00	0	44	0	833617920	55	4911
2026-01-07 08:44:46.74	14.62	19.37	-42.3	-44.7	18.9	0.00e+00	0	44	0	835715072	55	4934
2026-01-07 08:44:47.73	14.44	19.28	-42.2	-44.5	19.1	0.00e+00	0	44	0	836763648	55	4846
2026-01-07 08:44:48.73	14.25	19.20	-42.3	-44.7	19.0	0.00e+00	0	44	0	838860800	55	4945
2026-01-07 08:44:49.73	14.06	19.12	-42.4	-44.9	18.7	0.00e+00	0	44	0	840957952	55	5045
2026-01-07 08:44:50.72	13.88	19.04	-42.5	-45.0	18.6	0.00e+00	0	44	0	843055104	55	5118
2026-01-07 08:44:51.72	13.70	18.96	-42.4	-44.9	18.8	0.00e+00	0	44	0	844103680	55	5070
2026-01-07 08:44:52.72	13.52	18.88	-42.5	-45.0	18.6	0.00e+00	0	44	0	846200832	55	5125
2026-01-07 08:44:53.71	13.34	18.80	-42.9	-45.5	18.4	0.00e+00	0	44	0	848297984	56	5113
2026-01-07 08:44:54.71	13.16	18.71	-42.8	-45.3	18.5	0.00e+00	0	44	0	850395136	56	5036
2026-01-07 08:44:55.71	12.98	18.63	-42.8	-45.4	18.4	0.00e+00	0	44	0	852492288	56	5065
2026-01-07 08:44:56.70	12.80	18.55	-42.8	-45.4	18.4	0.00e+00	0	44	0	853540864	56	5055
2026-01-07 08:44:57.70	12.62	18.47	-42.7	-45.2	18.6	0.00e+00	0	44	0	855638016	56	4964
2026-01-07 08:44:58.70	12.45	18.39	-42.3	-44.8	18.9	0.00e+00	0	44	0	857735168	56	4737
2026-01-07 08:44:59.70	12.27	18.31	-42.2	-44.8	19.0	0.00e+00	0	44	0	859832320	56	4720
2026-01-07 08:45:00.69	12.10	18.23	-42.2	-44.8	18.9	0.00e+00	0	44	0	861929472	56	4746
2026-01-07 08:45:01.69	11.92	18.14	-42.1	-44.6	19.1	0.00e+00	0	44	0	862978048	56	4646
2026-01-07 08:45:02.68	11.75	18.06	-42.1	-44.8	19.0	0.00e+00	0	44	0	865075200	56	4720
2026-01-07 08:45:03.68	11.58	17.98	-42.2	-44.9	18.9	0.00e+00	0	44	0	867172352	56	4764
2026-01-07 08:45:04.68	11.41	17.90	-42.6	-45.4	18.4	0.00e+00	0	44	0	869269504	56	5089
2026-01-07 08:45:05.67	11.24	17.82	-43.0	-45.8	18.0	0.00e+00	0	44	0	870318080	56	5324
2026-01-07 08:45:06.67	11.07	17.74	-43.3	-46.2	17.6	0.00e+00	0	44	0	872415232	57	5269
2026-01-07 08:45:07.66	10.91	17.65	-43.3	-46.2	17.7	0.00e+00	0	44	0	874512384	57	5228
2026-01-07 08:45:08.66	10.74	17.57	-43.4	-46.3	17.6	0.00e+00	0	44	0	876609536	57	5301
2026-01-07 08:45:09.66	10.58	17.49	-43.3	-46.1	17.7	0.00e+00	0	44	0	878706688	57	5200
2026-01-07 08:45:10.66	10.41	17.41	-43.3	-46.0	17.8	0.00e+00	0	44	0	879755264	57	5140
2026-01-07 08:45:11.66	10.25	17.33	-43.3	-46.0	17.9	0.00e+00	0	44	0	881852416	57	5128
2026-01-07 08:45:12.66	10.08	17.25	-43.0	-45.7	18.2	0.00e+00	0	44	0	883949568	57	4938
2026-01-07 08:45:13.66	9.92	17.16	-43.1	-45.8	18.1	0.00e+00	0	44	0	886046720	57	4989
2026-01-07 08:45:14.65	9.76	17.08	-42.9	-45.6	18.2	0.00e+00	0	44	0	887095296	57	4907
2026-01-07 08:45:15.65	9.60	17.00	-42.9	-45.7	18.2	0.00e+00	0	44	0	889192448	57	4939
2026-01-07 08:45:16.65	9.44	16.92	-43.0	-45.7	18.1	0.00e+00	0	44	0	891289600	57	4966
2026-01-07 08:45:17.64	9.28	16.84	-43.1	-45.9	18.0	0.00e+00	0	44	0	893386752	57	5061
2026-01-07 08:45:18.64	9.12	16.76	-43.1	-45.8	18.1	0.00e+00	0	44	0	895483904	57	5004
2026-01-07 08:45:19.64	8.97	16.68	-43.3	-46.1	17.8	0.00e+00	0	44	0	896532480	57	5164
2026-01-07 08:45:20.64	8.81	16.60	-43.4	-46.1	17.7	0.00e+00	0	44	0	898629632	57	5202
2026-01-07 08:45:21.64	8.66	16.51	-43.7	-46.5	17.3	0.00e+00	0	44	0	900726784	58	5145
2026-01-07 08:45:22.63	8.50	16.43	-44.1	-47.1	16.9	0.00e+00	0	44	0	902823936	58	5469
2026-01-07 08:45:23.63	8.35	16.35	-44.1	-47.2	16.7	0.00e+00	0	44	0	904921088	58	5543
2026-01-07 08:45:24.63	8.20	16.27	-44.0	-47.1	16.8	0.00e+00	0	44	0	905969664	58	5521
2026-01-07 08:45:25.63	8.04	16.19	-43.8	-47.0	16.9	0.00e+00	0	44	0	908066816	58	5412
2026-01-07 08:45:26.62	7.89	16.11	-43.9	-47.0	16.9	0.00e+00	0	44	0	910163968	58	5437
2026-01-07 08:45:27.62	7.74	16.03	-43.6	-46.6	17.3	0.00e+00	0	44	0	912261120	58	5170
2026-01-07 08:45:28.62	7.59	15.95	-43.3	-46.2	17.6	0.00e+00	0	44	0	913309696	58	4955
2026-01-07 08:45:29.62	7.45	15.87	-43.3	-46.1	17.7	0.00e+00	0	44	0	915406848	58	4913
2026-01-07 08:45:30.61	7.30	15.79	-43.0	-45.7	18.1	0.00e+00	0	44	0	917504000	58	4667
2026-01-07 08:45:31.61	7.15	15.71	-43.2	-45.9	17.9	0.00e+00	0	44	0	919601152	57	5071
2026-01-07 08:45:32.61	7.01	15.63	-43.2	-46.0	17.8	0.00e+00	0	44	0	921698304	57	5134
2026-01-07 08:45:33.61	6.86	15.55	-43.3	-46.2	17.6	0.00e+00	0	44	0	922746880	57	5249
2026-01-07 08:45:34.61	6.72	15.47	-43.4	-46.3	17.5	0.00e+00	0	44	0	924844032	57	5320
2026-01-07 08:45:35.61	6.57	15.39	-43.7	-46.7	17.0	0.00e+00	0	44	0	926941184	58	5264
2026-01-07 08:45:36.60	6.43	15.31	-43.7	-46.8	17.1	0.00e+00	0	44	0	929038336	58	5296
2026-01-07 08:45:37.60	6.29	15.23	-43.6	-46.7	17.2	0.00e+00	0	44	0	930086912	58	5244
2026-01-07 08:45:38.60	6.15	15.15	-43.9	-47.0	16.9	0.00e+00	0	44	0	932184064	58	5442
2026-01-07 08:45:39.60	6.01	15.07	-43.6	-46.6	17.2	0.00e+00	0	44	0	934281216	58	5206
2026-01-07 08:45:40.59	5.87	14.99	-43.5	-46.4	17.4	0.00e+00	0	44	0	936378368	58	5070
2026-01-07 08:45:41.59	5.73	14.91	-43.3	-46.2	17.5	0.00e+00	0	44	0	938475520	58	4967
2026-01-07 08:45:42.59	5.59	14.83	-43.4	-46.3	17.5	0.00e+00	0	44	0	939524096	58	5034
2026-01-07 08:45:43.58	5.45	14.75	-43.2	-46.0	17.8	0.00e+00	0	44	0	941621248	58	4860
2026-01-07 08:45:44.58	5.32	14.67	-43.1	-45.9	17.8	0.00e+00	0	44	0	943718400	58	4812
2026-01-07 08:45:45.58	5.18	14.59	-43.0	-45.9	17.8	0.00e+00	0	44	0	945815552	58	4801
2026-01-07 08:45:46.58	5.04	14.51	-42.9	-45.7	18.0	0.00e+00	0	44	0	947912704	57	4971
2026-01-07 08:45:47.58	4.91	14.43	-43.0	-45.8	18.0	0.00e+00	0	44	0	948961280	57	5001
2026-01-07 08:45:48.57	4.78	14.35	-42.9	-45.7	18.0	0.00e+00	0	44	0	951058432	57	4944
2026-01-07 08:45:49.57	4.64	14.27	-43.2	-45.9	17.8	0.00e+00	0	44	0	953155584	57	5079
2026-01-07 08:45:50.56	4.51	14.19	-43.0	-45.6	18.1	0.00e+00	0	44	0	955252736	57	4914
2026-01-07 08:45:51.56	4.38	14.12	-43.2	-45.9	17.9	0.00e+00	0	44	0	956301312	57	5091
2026-01-07 08:45:52.55	4.25	14.04	-43.3	-46.1	17.6	0.00e+00	0	44	0	958398464	57	5188
2026-01-07 08:45:53.55	4.12	13.96	-43.2	-46.0	17.7	0.00e+00	0	44	0	960495616	57	5155
2026-01-07 08:45:54.55	3.99	13.88	-43.5	-46.5	17.2	0.00e+00	0	44	0	962592768	57	5464
2026-01-07 08:45:55.55	3.86	13.80	-43.5	-46.6	17.2	0.00e+00	0	44	0	964689920	57	5483
2026-01-07 08:45:56.54	3.74	13.72	-43.6	-46.7	17.1	0.00e+00	0	44	0	965738496	57	5557
2026-01-07 08:45:57.54	3.61	13.65	-43.5	-46.6	17.2	0.00e+00	0	44	0	967835648	58	5163
2026-01-07 08:45:58.54	3.48	13.57	-43.8	-46.8	17.0	0.00e+00	0	44	0	969932800	58	5301
2026-01-07 08:45:59.54	3.35	13.49	-43.7	-46.7	16.9	0.00e+00	0	44	0	972029952	58	5223
2026-01-07 08:46:00.53	3.23	13.41	-43.7	-46.5	17.2	0.00e+00	0	44	0	974127104	58	5107
2026-01-07 08:46:01.53	3.11	13.34	-43.9	-46.7	17.0	0.00e+00	0	44	0	975175680	58	5237
2026-01-07 08:46:02.53	2.98	13.26	-43.7	-46.4	17.1	0.00e+00	0	44	0	977272832	58	5088
2026-01-07 08:46:03.52	2.86	13.18	-43.9	-46.7	17.0	0.00e+00	0	44	0	979369984	58	5219
2026-01-07 08:46:04.52	2.74	13.10	-44.0	-46.8	16.8	0.00e+00	0	43	0	981467136	58	5325
2026-01-07 08:46:05.51	2.62	13.03	-44.1	-47.1	16.5	0.00e+00	0	44	0	982515712	59	5205
2026-01-07 08:46:06.51	2.49	12.95	-44.1	-47.1	16.6	0.00e+00	0	44	0	984612864	59	5201
2026-01-07 08:46:07.51	2.37	12.87	-44.3	-47.4	16.3	0.00e+00	0	44	0	986710016	59	5366
2026-01-07 08:46:08.50	2.25	12.80	-44.5	-47.9	16.0	0.00e+00	0	44	0	988807168	60	5358
2026-01-07 08:46:09.50	2.13	12.72	-44.8	-48.3	15.4	0.00e+00	0	44	0	990904320	60	5644
2026-01-07 08:46:10.50	2.02	12.64	-44.9	-48.7	15.1	0.00e+00	0	44	0	991952896	60	5856
2026-01-07 08:46:11.49	1.90	12.57	-44.8	-48.6	15.0	0.00e+00	0	44	0	994050048	60	5833
2026-01-07 08:46:12.49	1.78	12.49	-44.7	-48.6	14.8	0.00e+00	0	44	0	996147200	60	5816
2026-01-07 08:46:13.48	1.66	12.41	-44.5	-48.2	15.2	0.00e+00	0	44	0	998244352	60	5549
2026-01-07 08:46:14.48	1.55	12.34	-44.3	-47.8	15.7	0.00e+00	0	44	0	999292928	60	5289
2026-01-07 08:46:15.48	1.43	12.26	-44.3	-47.7	16.0	0.00e+00	0	44	0	1001390080	60	5224
2026-01-07 08:46:16.48	1.32	12.19	-44.1	-47.2	16.5	0.00e+00	0	44	0	1003487232	60	4960
2026-01-07 08:46:17.47	1.20	12.11	-43.8	-46.8	16.8	0.00e+00	0	44	0	1005584384	59	5015
2026-01-07 08:46:18.47	1.09	12.04	-43.6	-46.6	17.0	0.00e+00	0	44	0	1007681536	59	4895
2026-01-07 08:46:19.47	0.98	11.96	-43.4	-46.5	16.9	0.00e+00	0	44	0	1008730112	58	5152
2026-01-07 08:46:20.46	0.86	11.88	-43.1	-46.4	16.9	0.00e+00	0	44	0	1010827264	58	5068
2026-01-07 08:46:21.46	0.75	11.81	-43.1	-46.6	16.4	0.00e+00	0	44	0	1012924416	58	5162
2026-01-07 08:46:22.46	0.64	11.73	-43.3	-46.8	16.1	0.00e+00	0	44	0	1015021568	58	5290
2026-01-07 08:46:23.45	0.53	11.66	-43.5	-47.0	15.8	0.00e+00	0	44	0	1016070144	58	5459
2026-01-07 08:46:24.45	0.42	11.58	-43.7	-47.3	15.4	0.00e+00	0	44	0	1018167296	58	5628
2026-01-07 08:46:25.45	0.31	11.51	-44.1	-47.7	14.9	0.00e+00	0	44	0	1020264448	58	5916
2026-01-07 08:46:26.44	0.20	11.44	-44.4	-48.1	14.3	0.00e+00	0	44	0	1022361600	59	5845
2026-01-07 08:46:27.44	0.09	11.36	-44.6	-48.6	13.8	2.20e-06	0	44	0	1024458752	60	5840
2026-01-07 08:46:28.44	359.98	11.29	-44.8	-49.0	13.2	6.80e-06	0	44	0	1025507328	60	6075
2026-01-07 08:46:29.44	359.88	11.21	-45.1	-49.5	12.3	2.51e-05	0	44	0	1027604480	60	6423
2026-01-07 08:46:30.43	359.77	11.14	-45.3	-49.7	11.6	2.07e-04	0	44	0	1029701632	61	6239
2026-01-07 08:46:31.43	359.66	11.06	-45.4	-49.7	11.4	4.48e-04	0	44	0	1031798784	61	6209
2026-01-07 08:46:32.43	359.56	10.99	-45.6	-49.9	11.0	7.26e-04	0	44	0	1033895936	61	6419
2026-01-07 08:46:33.43	359.45	10.92	-45.7	-50.1	10.9	1.37e-03	0	44	0	1034944512	62	6193
2026-01-07 08:46:34.43	359.35	10.84	-45.7	-49.9	11.7	9.38e-04	0	44	0	1037041664	62	6058
2026-01-07 08:46:35.42	359.25	10.77	-45.7	-50.1	12.1	2.53e-04	0	44	0	1039138816	62	6148
2026-01-07 08:46:36.42	359.14	10.70	-45.8	-50.3	12.8	1.56e-04	0	44	0	1041235968	62	6330
2026-01-07 08:46:37.42	359.04	10.62	-45.7	-50.2	13.4	2.28e-05	0	44	0	1042284544	62	6217
2026-01-07 08:46:38.41	358.94	10.55	-45.5	-49.9	13.9	2.20e-06	0	44	0	1044381696	62	6041
2026-01-07 08:46:39.41	358.83	10.48	-45.6	-49.9	13.8	5.30e-06	0	44	0	1046478848	62	6025
2026-01-07 08:46:40.41	358.73	10.40	-45.6	-49.8	13.4	1.14e-05	0	44	0	1048576000	62	5977
2026-01-07 08:46:41.40	358.63	10.33	-45.6	-49.7	13.5	1.06e-05	0	44	0	1050673152	62	5871
2026-01-07 08:46:42.40	358.53	10.26	-45.5	-49.5	13.8	6.80e-06	0	44	0	1051721728	62	5754
2026-01-07 08:46:43.40	358.43	10.19	-45.3	-49.2	14.3	3.00e-06	0	44	0	1053818880	62	5586
2026-01-07 08:46:44.40	358.33	10.11	-45.4	-49.3	14.4	7.00e-07	0	44	0	1055916032	62	5648
2026-01-07 08:46:45.40	358.23	10.04	-45.3	-49.2	14.6	0.00e+00	0	44	0	1058013184	62	5590
2026-01-07 08:46:46.40	358.14	9.97	-45.4	-49.3	14.5	3.00e-06	0	44	0	1060110336	62	5614
2026-01-07 08:46:47.40	358.04	9.90	-45.6	-49.7	13.9	1.50e-06	0	44	0	1061158912	62	5862
2026-01-07 08:46:48.39	357.94	9.83	-45.4	-49.5	13.8	3.80e-06	0	44	0	1063256064	62	5754
2026-01-07 08:46:49.37	357.85	9.76	-45.6	-49.8	13.4	6.80e-06	0	44	0	1065353216	62	5977
2026-01-07 08:46:50.37	357.75	9.68	-45.7	-50.1	13.2	1.60e-05	0	43	0	1067450368	62	6132
2026-01-07 08:46:51.37	357.65	9.61	-45.5	-50.2	13.2	1.44e-05	0	44	0	1068498944	62	6227
2026-01-07 08:46:52.37	357.56	9.54	-45.3	-49.9	13.6	1.06e-05	0	44	0	1070596096	62	6020
2026-01-07 08:46:53.36	357.46	9.47	-45.2	-50.0	13.6	5.30e-06	0	44	0	1072693248	62	6085
2026-01-07 08:46:54.37	357.37	9.40	-45.3	-50.2	13.4	1.29e-05	0	44	0	1074790400	62	6239
2026-01-07 08:46:55.36	357.27	9.33	-44.7	-49.8	13.7	3.80e-06	0	44	0	1076887552	61	6308
2026-01-07 08:46:56.36	357.18	9.26	-44.6	-49.5	14.1	0.00e+00	0	44	0	1077936128	61	6109
2026-01-07 08:46:57.35	357.09	9.19	-44.5	-49.5	14.2	1.50e-06	0	44	0	1080033280	60	6460
2026-01-07 08:46:58.35	357.00	9.12	-44.1	-49.1	14.6	3.80e-06	0	44	0	1082130432	60	6137
2026-01-07 08:46:59.34	356.90	9.05	-44.2	-49.3	14.4	0.00e+00	0	44	0	1084227584	59	6649
2026-01-07 08:47:00.35	356.81	8.97	-48.2	-64.3	3.8	5.39e-01	0	44	104	1085276160	67	23852
2026-01-07 08:47:01.35	356.72	8.90	-49.6	-63.3	3.8	1.49e+00	0	44	104	1085276160	69	18796
2026-01-07 08:47:02.34	356.63	8.83	-49.6	-65.4	3.8	1.49e+00	0	44	104	1085276160	70	22575
2026-01-07 08:47:03.34	356.54	8.76	-49.7	-65.4	3.8	1.49e+00	0	44	104	1085276160	70	22670
2026-01-07 08:47:04.34	356.45	8.69	-49.8	-65.5	3.8	1.49e+00	0	44	104	1085276160	71	21624
2026-01-07 08:47:05.34	356.36	8.62	-50.3	-65.6	3.8	1.49e+00	0	44	104	1085276160	71	21871
2026-01-07 08:47:06.33	356.27	8.56	-50.2	-65.6	3.8	1.49e+00	0	44	104	1085276160	71	21826
2026-01-07 08:47:07.33	356.18	8.49	-50.5	-65.7	3.8	1.49e+00	0	44	104	1085276160	71	22034
2026-01-07 08:47:08.33	356.10	8.42	-50.0	-65.7	3.8	1.49e+00	0	44	104	1085276160	71	22079
2026-01-07 08:47:09.32	356.01	8.35	-50.3	-65.7	3.8	1.49e+00	0	44	104	1085276160	71	22060
2026-01-07 08:47:10.32	355.92	8.28	-50.4	-65.7	3.8	1.49e+00	0	44	104	1085276160	71	22135
2026-01-07 08:47:11.32	355.83	8.21	-50.3	-65.7	3.8	1.49e+00	0	44	104	1085276160	71	22209
2026-01-07 08:47:12.32	355.75	8.14	-50.5	-65.7	3.8	1.49e+00	0	44	104	1085276160	71	22153
2026-01-07 08:47:13.31	355.66	8.07	-50.5	-65.7	3.8	1.49e+00	0	44	104	1085276160	71	22221
2026-01-07 08:47:14.31	355.58	8.00	-50.6	-65.7	3.8	1.49e+00	0	44	104	1085276160	71	22233
2026-01-07 08:47:15.30	355.49	7.94	-50.3	-65.8	3.8	1.49e+00	0	44	104	1085276160	71	22308
2026-01-07 08:47:16.30	355.41	7.87	-50.4	-65.8	3.8	1.49e+00	0	44	104	1085276160	71	22287
2026-01-07 08:47:17.30	355.32	7.80	-50.3	-65.8	3.8	1.49e+00	0	44	104	1085276160	71	22342
2026-01-07 08:47:18.29	355.24	7.73	-50.6	-65.8	3.8	1.49e+00	0	44	104	1085276160	71	22355
2026-01-07 08:47:19.29	355.16	7.66	-50.7	-65.8	3.8	1.49e+00	0	44	104	1085276160	71	22305
2026-01-07 08:47:20.29	355.07	7.59	-50.5	-65.8	3.8	1.49e+00	0	44	104	1085276160	71	22307
2026-01-07 08:47:21.29	354.99	7.53	-50.5	-65.8	3.8	1.49e+00	0	44	104	1085276160	71	22296
2026-01-07 08:47:22.28	354.91	7.46	-50.5	-65.8	3.8	1.49e+00	0	44	104	1085276160	71	22274
2026-01-07 08:47:23.28	354.83	7.39	-50.5	-65.8	3.8	1.49e+00	0	44	104	1085276160	72	21031
2026-01-07 08:47:24.27	354.75	7.33	-50.5	-65.7	3.8	1.49e+00	0	44	104	1085276160	72	20968
2026-01-07 08:47:25.27	354.67	7.26	-50.4	-65.7	3.8	1.49e+00	0	44	104	1085276160	72	20918
2026-01-07 08:47:26.27	354.59	7.19	-50.4	-65.7	3.8	1.49e+00	0	44	104	1085276160	72	20953
2026-01-07 08:47:27.27	354.51	7.12	-50.4	-65.7	3.8	1.49e+00	0	44	104	1085276160	72	20940
2026-01-07 08:47:28.27	354.43	7.06	-50.4	-65.7	3.8	1.49e+00	0	44	104	1085276160	72	20945
2026-01-07 08:47:29.26	354.35	6.99	-50.2	-65.7	3.8	1.49e+00	0	44	104	1085276160	72	20918
2026-01-07 08:47:30.26	354.27	6.92	-50.2	-65.7	3.8	1.49e+00	0	44	104	1085276160	72	20961
2026-01-07 08:47:31.25	354.19	6.86	-50.2	-65.7	3.8	1.49e+00	0	44	104	1085276160	72	20917
2026-01-07 08:47:32.25	354.11	6.79	-50.2	-65.7	3.8	1.49e+00	0	44	104	1085276160	72	20974
2026-01-07 08:47:33.25	354.03	6.72	-50.2	-65.7	3.8	1.49e+00	0	44	104	1085276160	72	21007
2026-01-07 08:47:34.25	353.95	6.66	-50.2	-65.7	3.8	1.49e+00	0	44	104	1085276160	72	20952
2026-01-07 08:47:35.25	353.88	6.59	-50.2	-65.7	3.8	1.49e+00	0	44	104	1085276160	72	20845
2026-01-07 08:47:36.24	353.80	6.53	-50.2	-65.7	3.8	1.49e+00	0	44	104	1085276160	72	20975
2026-01-07 08:47:37.24	353.72	6.46	-50.2	-65.7	3.8	1.49e+00	0	44	104	1085276160	72	20932
2026-01-07 08:47:38.24	353.65	6.39	-50.2	-65.7	3.8	1.49e+00	0	44	104	1085276160	72	20939
2026-01-07 08:47:39.24	353.57	6.33	-50.2	-65.7	3.8	1.49e+00	0	44	104	1085276160	72	20900
2026-01-07 08:47:40.24	353.50	6.26	-50.2	-65.7	3.8	1.49e+00	0	44	104	1085276160	72	20913
2026-01-07 08:47:41.24	353.42	6.20	-50.2	-65.7	3.8	1.49e+00	0	44	104	1085276160	72	20897
2026-01-07 08:47:42.23	353.35	6.13	-50.2	-65.7	3.8	1.49e+00	0	44	104	1085276160	72	20848
2026-01-07 08:47:43.23	353.27	6.07	-50.2	-65.7	3.8	1.49e+00	0	44	104	1085276160	72	20880
2026-01-07 08:47:44.23	353.20	6.00	-50.2	-65.7	3.8	1.49e+00	0	44	104	1085276160	72	20894
2026-01-07 08:47:45.22	353.13	5.94	-50.2	-65.7	3.8	1.49e+00	0	44	104	1085276160	72	20906
2026-01-07 08:47:46.22	353.05	5.87	-50.2	-65.7	3.8	1.49e+00	0	44	104	1085276160	72	20918
2026-01-07 08:47:47.22	352.98	5.81	-50.2	-65.7	3.8	1.49e+00	0	44	104	1085276160	72	20879
2026-01-07 08:47:48.21	352.91	5.74	-50.2	-65.7	3.8	1.49e+00	0	44	104	1085276160	72	20912
2026-01-07 08:47:49.21	352.84	5.68	-50.2	-65.7	3.8	1.49e+00	0	44	104	1085276160	72	20924
2026-01-07 08:47:50.21	352.76	5.62	-50.2	-65.7	3.8	1.49e+00	0	44	104	1085276160	72	20908
2026-01-07 08:47:51.21	352.69	5.55	-50.2	-65.7	3.8	1.49e+00	0	44	104	1085276160	72	20923
2026-01-07 08:47:52.20	352.62	5.49	-50.2	-65.7	3.8	1.49e+00	0	44	104	1085276160	72	20882
2026-01-07 08:47:53.19	352.55	5.42	-50.2	-65.7	3.8	1.49e+00	0	44	104	1085276160	72	20893
2026-01-07 08:47:54.19	352.48	5.36	-50.2	-65.7	3.8	1.49e+00	0	44	104	1085276160	72	20917
2026-01-07 08:47:55.19	352.41	5.30	-50.2	-65.7	3.8	1.49e+00	0	44	104	1085276160	72	20860
2026-01-07 08:47:56.19	352.34	5.23	-50.2	-65.7	3.8	1.49e+00	0	44	104	1085276160	72	20836
2026-01-07 08:47:57.19	352.27	5.17	-50.2	-65.7	3.8	1.49e+00	0	44	104	1085276160	72	20954
2026-01-07 08:47:58.19	352.20	5.11	-50.2	-65.7	3.8	1.49e+00	0	44	104	1085276160	72	20915
2026-01-07 08:47:59.19	352.13	5.04	-50.2	-65.7	3.8	1.49e+00	0	44	104	1085276160	72	20877
2026-01-07 08:48:00.18	352.06	4.98	-50.2	-65.7	3.8	1.49e+00	0	44	104	1085276160	72	20859

#Closed at: 2026-01-07 08:48:01
#Recorded file [1085 MB]: D:/Data/31040_260107_113635.dat