passes_logs/2026/01/07/T1/T1__20260107_111623_FENGYUN_3D_rec.log

#Pass ID: 20260107_111623_FENGYUN 3D
#Satellite: FENGYUN 3D
#Configuration: FENGYUN 3D
#almurnet v.1.7.20251203
#Start time: 2026-01-07 11:16:24

#Version: 2.0.20230620
#Station: T1
#Location: 37.570604 lon 55.790049 lat
#TLE: 1 43010U 17072A   26006.26440730  .00000376  00000+0  19957-3 0  9994
#TLE: 2 43010  98.9925 337.9455 0002045 123.9195 236.2175 14.19693586422016

#Time	Az	El	Level	Level2	SNR	BER	BlckErr	Temp	State	Recorded	gain1	gain2
2026-01-07 11:16:24.35	138.69	5.11	-51.5	-63.7	3.8	8.46e-01	0	40	0	0	75	13920
2026-01-07 11:16:25.35	138.66	5.18	-51.5	-63.5	3.8	8.47e-01	0	41	104	0	74	14535
2026-01-07 11:16:26.36	138.62	5.25	-51.5	-63.5	3.8	8.48e-01	0	41	104	0	74	14468
2026-01-07 11:16:27.36	138.59	5.32	-51.5	-63.5	3.8	8.46e-01	0	41	104	0	74	14439
2026-01-07 11:16:28.36	138.55	5.39	-51.5	-63.4	3.8	8.46e-01	0	41	104	0	74	14351
2026-01-07 11:16:29.37	138.51	5.46	-51.4	-63.4	3.8	8.47e-01	0	41	104	0	74	14227
2026-01-07 11:16:30.37	138.48	5.53	-51.4	-63.3	3.8	8.47e-01	0	41	104	0	74	14148
2026-01-07 11:16:31.37	138.44	5.61	-51.4	-63.2	3.8	8.46e-01	0	41	104	0	74	13949
2026-01-07 11:16:32.38	138.41	5.68	-51.4	-63.1	3.8	8.46e-01	0	41	104	0	74	13775
2026-01-07 11:16:33.38	138.37	5.75	-51.4	-62.8	3.8	8.47e-01	0	41	104	0	74	13345
2026-01-07 11:16:34.39	138.33	5.82	-51.4	-62.5	3.8	8.46e-01	0	41	104	0	74	12949
2026-01-07 11:16:35.39	138.30	5.89	-51.3	-62.3	3.8	8.48e-01	0	41	104	0	74	12549
2026-01-07 11:16:36.40	138.26	5.97	-51.3	-62.0	3.8	8.47e-01	0	41	104	0	74	12115
2026-01-07 11:16:37.40	138.22	6.04	-51.3	-61.8	3.8	8.45e-01	0	41	104	0	74	11918
2026-01-07 11:16:38.41	138.18	6.11	-51.2	-61.5	3.9	8.46e-01	0	41	104	0	74	11488
2026-01-07 11:16:39.41	138.15	6.19	-51.2	-61.4	3.9	8.45e-01	0	42	104	0	74	11359
2026-01-07 11:16:40.41	138.11	6.26	-51.2	-61.6	3.8	8.45e-01	0	41	104	0	74	11568
2026-01-07 11:16:41.42	138.07	6.33	-51.2	-61.7	3.8	8.46e-01	0	41	104	0	74	11805
2026-01-07 11:16:42.42	138.03	6.41	-51.3	-62.0	3.8	8.44e-01	0	41	104	0	74	12169
2026-01-07 11:16:43.43	137.99	6.48	-51.3	-62.3	3.8	8.46e-01	0	42	104	0	74	12662
2026-01-07 11:16:44.43	137.96	6.55	-51.4	-62.8	3.8	8.47e-01	0	41	104	0	74	13413
2026-01-07 11:16:45.44	137.92	6.63	-51.4	-63.4	3.8	8.46e-01	0	41	104	0	74	14215
2026-01-07 11:16:46.44	137.88	6.70	-51.5	-63.6	3.8	8.48e-01	0	42	104	0	74	14695
2026-01-07 11:16:47.44	137.84	6.78	-51.5	-63.7	3.8	8.47e-01	0	42	104	0	74	14779
2026-01-07 11:16:48.45	137.80	6.85	-51.5	-63.5	3.8	8.47e-01	0	41	104	0	74	14388
2026-01-07 11:16:49.45	137.76	6.93	-51.4	-62.8	3.8	8.47e-01	0	42	104	0	74	13389
2026-01-07 11:16:50.46	137.72	7.00	-51.3	-61.9	3.8	8.47e-01	0	41	104	0	74	12017
2026-01-07 11:16:51.46	137.68	7.08	-51.2	-60.9	3.9	8.45e-01	0	42	104	0	74	10774
2026-01-07 11:16:52.46	137.64	7.15	-51.0	-59.9	4.3	8.39e-01	0	42	0	0	74	9537
2026-01-07 11:16:53.47	137.60	7.23	-50.8	-58.9	4.6	8.18e-01	0	42	0	0	73	8975
2026-01-07 11:16:54.46	137.56	7.31	-50.6	-57.9	5.1	7.88e-01	0	42	0	0	73	8058
2026-01-07 11:16:55.46	137.52	7.38	-50.3	-57.0	5.7	6.45e-01	0	42	0	0	72	7707
2026-01-07 11:16:56.47	137.47	7.46	-50.0	-55.9	6.6	3.07e-01	0	42	0	6291456	71	7140
2026-01-07 11:16:57.47	137.43	7.54	-49.6	-54.8	7.6	1.27e-01	0	42	0	11534336	71	6337
2026-01-07 11:16:58.47	137.39	7.61	-49.1	-53.7	8.7	4.96e-02	0	42	0	16777216	70	5894
2026-01-07 11:16:59.48	137.35	7.69	-48.4	-52.4	10.0	1.85e-02	0	42	0	23068672	68	5708
2026-01-07 11:17:00.48	137.31	7.77	-47.6	-51.2	11.1	3.39e-03	0	42	0	28311552	67	5252
2026-01-07 11:17:01.49	137.26	7.85	-46.8	-50.0	12.4	4.19e-04	0	42	0	33554432	65	5122
2026-01-07 11:17:02.49	137.22	7.92	-46.2	-49.2	13.2	4.92e-05	0	42	0	39845888	64	4930
2026-01-07 11:17:03.50	137.18	8.00	-45.7	-48.4	14.1	1.14e-05	0	42	0	45088768	63	4790
2026-01-07 11:17:04.50	137.14	8.08	-45.4	-48.0	14.4	1.10e-06	0	42	0	51380224	62	4866
2026-01-07 11:17:05.50	137.09	8.16	-45.2	-47.8	14.6	1.10e-06	0	42	0	56623104	62	4752
2026-01-07 11:17:06.51	137.05	8.24	-45.0	-47.6	14.9	0.00e+00	0	42	0	62914560	61	4885
2026-01-07 11:17:07.51	137.00	8.32	-44.9	-47.5	15.0	0.00e+00	0	42	0	68157440	61	4820
2026-01-07 11:17:08.52	136.96	8.40	-45.2	-47.8	14.7	0.00e+00	0	42	0	73400320	61	5023
2026-01-07 11:17:09.52	136.92	8.48	-45.5	-48.2	14.3	2.20e-06	0	42	0	79691776	61	5232
2026-01-07 11:17:10.52	136.87	8.56	-45.9	-48.7	13.8	1.10e-06	0	42	0	84934656	62	5232
2026-01-07 11:17:11.53	136.83	8.64	-46.5	-49.4	13.0	3.54e-05	0	42	0	90177536	63	5396
2026-01-07 11:17:12.53	136.78	8.72	-46.9	-50.2	12.2	2.91e-04	0	42	0	96468992	64	5562
2026-01-07 11:17:13.53	136.74	8.80	-47.9	-51.6	10.7	2.50e-03	0	42	0	101711872	66	5849
2026-01-07 11:17:14.54	136.69	8.88	-48.7	-53.1	9.2	1.45e-02	0	42	0	108003328	67	6510
2026-01-07 11:17:15.54	136.64	8.96	-49.7	-55.1	7.4	9.75e-02	0	42	0	113246208	69	7331
2026-01-07 11:17:16.55	136.60	9.04	-50.3	-56.6	6.1	2.70e-01	0	42	0	118489088	71	7799
2026-01-07 11:17:17.55	136.55	9.12	-50.5	-57.4	5.5	7.27e-01	0	42	0	121634816	71	8534
2026-01-07 11:17:18.56	136.50	9.20	-48.6	-52.9	9.5	2.54e-01	0	42	0	126877696	69	5677
2026-01-07 11:17:19.56	136.46	9.28	-50.8	-58.7	4.9	4.01e-03	0	42	0	132120576	72	9354
2026-01-07 11:17:20.56	136.41	9.37	-50.5	-57.7	5.2	8.43e-01	0	42	104	132120576	73	7835
2026-01-07 11:17:21.56	136.36	9.45	-46.6	-49.8	12.7	3.07e-02	0	42	0	136314880	65	4992
2026-01-07 11:17:22.57	136.31	9.53	-46.4	-49.4	13.1	9.95e-05	0	43	0	142606336	64	5082
2026-01-07 11:17:23.57	136.26	9.61	-46.3	-49.2	13.3	3.20e-05	0	42	0	147849216	64	4973
2026-01-07 11:17:24.57	136.22	9.70	-46.0	-48.8	13.8	1.37e-05	0	42	0	153092096	63	5017
2026-01-07 11:17:25.57	136.17	9.78	-45.2	-47.7	15.0	0.00e+00	0	42	0	159383552	62	4679
2026-01-07 11:17:26.58	136.12	9.86	-44.5	-46.9	15.8	0.00e+00	0	42	0	164626432	61	4539
2026-01-07 11:17:27.58	136.07	9.95	-44.3	-46.7	16.0	0.00e+00	0	42	0	169869312	60	4676
2026-01-07 11:17:28.58	136.02	10.03	-43.7	-45.9	16.7	0.00e+00	0	43	0	176160768	59	4537
2026-01-07 11:17:29.59	135.97	10.12	-43.7	-45.9	16.7	0.00e+00	0	42	0	181403648	59	4530
2026-01-07 11:17:30.59	135.92	10.20	-43.2	-45.4	17.2	0.00e+00	0	42	0	187695104	58	4524
2026-01-07 11:17:31.59	135.87	10.29	-43.1	-45.3	17.3	0.00e+00	0	42	0	192937984	58	4461
2026-01-07 11:17:32.60	135.82	10.37	-43.1	-45.3	17.3	0.00e+00	0	43	0	199229440	58	4465
2026-01-07 11:17:33.60	135.77	10.46	-43.0	-45.1	17.5	0.00e+00	0	42	0	204472320	58	4360
2026-01-07 11:17:34.61	135.71	10.54	-42.8	-44.9	17.7	0.00e+00	0	43	0	209715200	57	4545
2026-01-07 11:17:35.61	135.66	10.63	-43.0	-45.1	17.5	0.00e+00	0	43	0	216006656	57	4629
2026-01-07 11:17:36.61	135.61	10.72	-42.8	-45.0	17.7	0.00e+00	0	42	0	221249536	57	4546
2026-01-07 11:17:37.62	135.56	10.80	-42.8	-44.9	17.7	0.00e+00	0	42	0	226492416	57	4534
2026-01-07 11:17:38.62	135.50	10.89	-42.7	-44.8	17.8	0.00e+00	0	43	0	232783872	57	4468
2026-01-07 11:17:39.62	135.45	10.98	-42.8	-44.9	17.8	0.00e+00	0	43	0	238026752	57	4513
2026-01-07 11:17:40.63	135.40	11.07	-42.8	-45.0	17.7	0.00e+00	0	43	0	243269632	57	4547
2026-01-07 11:17:41.63	135.34	11.15	-42.6	-44.7	17.9	0.00e+00	0	43	0	249561088	57	4418
2026-01-07 11:17:42.63	135.29	11.24	-42.5	-44.5	18.1	0.00e+00	0	43	0	254803968	56	4588
2026-01-07 11:17:43.64	135.24	11.33	-42.5	-44.5	18.1	0.00e+00	0	43	0	261095424	56	4590
2026-01-07 11:17:44.64	135.18	11.42	-42.5	-44.5	18.2	0.00e+00	0	43	0	266338304	56	4588
2026-01-07 11:17:45.64	135.13	11.51	-42.3	-44.3	18.3	0.00e+00	0	43	0	272629760	56	4492
2026-01-07 11:17:46.64	135.07	11.60	-42.3	-44.3	18.4	0.00e+00	0	43	0	277872640	56	4453
2026-01-07 11:17:47.65	135.01	11.69	-42.2	-44.2	18.5	0.00e+00	0	43	0	283115520	56	4423
2026-01-07 11:17:48.65	134.96	11.78	-42.2	-44.2	18.5	0.00e+00	0	43	0	289406976	56	4397
2026-01-07 11:17:49.66	134.90	11.87	-42.2	-44.1	18.5	0.00e+00	0	43	0	294649856	56	4389
2026-01-07 11:17:50.66	134.84	11.96	-42.1	-44.1	18.6	0.00e+00	0	43	0	299892736	56	4354
2026-01-07 11:17:51.67	134.79	12.05	-42.2	-44.2	18.5	0.00e+00	0	43	0	306184192	56	4400
2026-01-07 11:17:52.67	134.73	12.14	-42.2	-44.2	18.5	0.00e+00	0	43	0	311427072	56	4419
2026-01-07 11:17:53.67	134.67	12.23	-42.2	-44.2	18.5	0.00e+00	0	43	0	316669952	56	4421
2026-01-07 11:17:54.68	134.61	12.32	-42.2	-44.2	18.5	0.00e+00	0	43	0	322961408	56	4422
2026-01-07 11:17:55.68	134.55	12.42	-42.1	-44.1	18.6	0.00e+00	0	43	0	328204288	56	4354
2026-01-07 11:17:56.69	134.49	12.51	-41.8	-43.8	18.7	0.00e+00	0	43	0	334495744	55	4470
2026-01-07 11:17:57.69	134.43	12.60	-41.8	-43.8	18.8	0.00e+00	0	43	0	339738624	55	4452
2026-01-07 11:17:58.69	134.37	12.69	-41.8	-43.8	18.7	0.00e+00	0	43	0	344981504	55	4486
2026-01-07 11:17:59.69	134.31	12.79	-41.8	-43.8	18.7	0.00e+00	0	43	0	351272960	55	4485
2026-01-07 11:18:00.70	134.25	12.88	-41.7	-43.7	18.8	0.00e+00	0	43	0	356515840	55	4421
2026-01-07 11:18:01.70	134.19	12.97	-41.7	-43.6	18.9	0.00e+00	0	43	0	362807296	55	4385
2026-01-07 11:18:02.70	134.13	13.07	-41.6	-43.6	19.0	0.00e+00	0	43	0	368050176	55	4362
2026-01-07 11:18:03.71	134.07	13.16	-41.7	-43.6	18.9	0.00e+00	0	43	0	373293056	55	4386
2026-01-07 11:18:04.71	134.00	13.26	-41.6	-43.5	19.0	0.00e+00	0	43	0	379584512	55	4332
2026-01-07 11:18:05.71	133.94	13.35	-41.5	-43.5	19.0	0.00e+00	0	43	0	384827392	55	4309
2026-01-07 11:18:06.72	133.88	13.45	-41.4	-43.4	19.2	0.00e+00	0	43	0	390070272	54	4502
2026-01-07 11:18:07.72	133.81	13.55	-41.4	-43.4	19.2	0.00e+00	0	43	0	396361728	54	4511
2026-01-07 11:18:08.72	133.75	13.64	-41.4	-43.4	19.1	0.00e+00	0	43	0	401604608	54	4515
2026-01-07 11:18:09.73	133.69	13.74	-41.3	-43.2	19.3	0.00e+00	0	43	0	407896064	54	4423
2026-01-07 11:18:10.73	133.62	13.84	-41.3	-43.3	19.3	0.00e+00	0	43	0	413138944	54	4451
2026-01-07 11:18:11.73	133.56	13.93	-41.4	-43.3	19.2	0.00e+00	0	43	0	418381824	54	4459
2026-01-07 11:18:12.74	133.49	14.03	-41.4	-43.3	19.2	0.00e+00	0	43	0	424673280	54	4487
2026-01-07 11:18:13.74	133.42	14.13	-41.4	-43.3	19.2	0.00e+00	0	43	0	429916160	54	4480
2026-01-07 11:18:14.74	133.36	14.23	-41.4	-43.3	19.1	0.00e+00	0	43	0	436207616	54	4493
2026-01-07 11:18:15.74	133.29	14.33	-41.4	-43.3	19.2	0.00e+00	0	43	0	441450496	54	4472
2026-01-07 11:18:16.74	133.22	14.43	-41.2	-43.2	19.3	0.00e+00	0	43	0	446693376	54	4397
2026-01-07 11:18:17.75	133.15	14.53	-41.2	-43.1	19.4	0.00e+00	0	43	0	452984832	54	4385
2026-01-07 11:18:18.75	133.08	14.63	-41.3	-43.3	19.3	0.00e+00	0	43	0	458227712	54	4452
2026-01-07 11:18:19.75	133.02	14.73	-41.2	-43.1	19.4	0.00e+00	0	43	0	463470592	54	4372
2026-01-07 11:18:20.75	132.95	14.83	-41.2	-43.1	19.4	0.00e+00	0	43	0	469762048	54	4363
2026-01-07 11:18:21.76	132.87	14.93	-41.2	-43.1	19.4	0.00e+00	0	43	0	475004928	54	4356
2026-01-07 11:18:22.76	132.80	15.03	-41.2	-43.1	19.4	0.00e+00	0	43	0	481296384	54	4343
2026-01-07 11:18:23.76	132.73	15.13	-41.1	-43.0	19.5	0.00e+00	0	42	0	486539264	54	4334
2026-01-07 11:18:24.77	132.66	15.23	-41.0	-42.9	19.6	0.00e+00	0	43	0	491782144	54	4271
2026-01-07 11:18:25.77	132.59	15.34	-41.0	-42.9	19.6	0.00e+00	0	43	0	498073600	54	4263
2026-01-07 11:18:26.77	132.52	15.44	-41.0	-42.9	19.6	0.00e+00	0	43	0	503316480	54	4275
2026-01-07 11:18:27.78	132.44	15.54	-40.9	-42.8	19.7	0.00e+00	0	43	0	508559360	53	4450
2026-01-07 11:18:28.78	132.37	15.65	-41.0	-42.9	19.6	0.00e+00	0	43	0	514850816	53	4504
2026-01-07 11:18:29.78	132.30	15.75	-41.0	-42.9	19.6	0.00e+00	0	43	0	520093696	53	4543
2026-01-07 11:18:30.79	132.22	15.85	-40.9	-42.8	19.6	0.00e+00	0	43	0	526385152	53	4483
2026-01-07 11:18:31.79	132.14	15.96	-41.0	-42.9	19.6	0.00e+00	0	43	0	531628032	53	4515
2026-01-07 11:18:32.80	132.07	16.07	-41.1	-43.0	19.6	0.00e+00	0	43	0	536870912	53	4564
2026-01-07 11:18:33.80	131.99	16.17	-41.0	-42.9	19.6	0.00e+00	0	43	0	543162368	53	4540
2026-01-07 11:18:34.80	131.92	16.28	-41.1	-43.0	19.5	0.00e+00	0	43	0	548405248	53	4572
2026-01-07 11:18:35.81	131.84	16.38	-41.0	-42.9	19.6	0.00e+00	0	43	0	554696704	53	4522
2026-01-07 11:18:36.81	131.76	16.49	-41.0	-42.9	19.6	0.00e+00	0	43	0	559939584	53	4507
2026-01-07 11:18:37.81	131.68	16.60	-41.0	-42.9	19.6	0.00e+00	0	43	0	565182464	53	4501
2026-01-07 11:18:38.82	131.60	16.71	-40.9	-42.8	19.7	0.00e+00	0	43	0	571473920	53	4485
2026-01-07 11:18:39.82	131.52	16.81	-40.7	-42.6	19.9	0.00e+00	0	43	0	576716800	53	4365
2026-01-07 11:18:40.82	131.44	16.92	-40.6	-42.5	20.0	0.00e+00	0	43	0	581959680	53	4336
2026-01-07 11:18:41.83	131.36	17.03	-40.5	-42.4	20.1	0.00e+00	0	43	0	588251136	53	4278
2026-01-07 11:18:42.83	131.28	17.14	-40.5	-42.3	20.2	0.00e+00	0	43	0	593494016	52	4482
2026-01-07 11:18:43.83	131.20	17.25	-40.3	-42.2	20.3	0.00e+00	0	43	0	598736896	52	4414
2026-01-07 11:18:44.84	131.11	17.36	-40.4	-42.2	20.2	0.00e+00	0	43	0	605028352	52	4433
2026-01-07 11:18:45.84	131.03	17.47	-40.3	-42.2	20.3	0.00e+00	0	43	0	610271232	52	4419
2026-01-07 11:18:46.84	130.94	17.58	-40.4	-42.2	20.3	0.00e+00	0	43	0	616562688	52	4414
2026-01-07 11:18:47.84	130.86	17.70	-40.4	-42.2	20.3	0.00e+00	0	43	0	621805568	52	4436
2026-01-07 11:18:48.85	130.77	17.81	-40.4	-42.2	20.2	0.00e+00	0	43	0	628097024	52	4441
2026-01-07 11:18:49.85	130.69	17.92	-40.4	-42.2	20.3	0.00e+00	0	43	0	633339904	52	4416
2026-01-07 11:18:50.85	130.60	18.03	-40.3	-42.2	20.3	0.00e+00	0	43	0	638582784	52	4404
2026-01-07 11:18:51.86	130.51	18.15	-40.5	-42.3	20.2	0.00e+00	0	43	0	644874240	52	4475
2026-01-07 11:18:52.86	130.43	18.26	-40.4	-42.3	20.2	0.00e+00	0	43	0	650117120	52	4486
2026-01-07 11:18:53.86	130.34	18.38	-40.4	-42.3	20.2	0.00e+00	0	43	0	655360000	52	4476
2026-01-07 11:18:54.86	130.25	18.49	-40.5	-42.4	20.1	0.00e+00	0	43	0	661651456	52	4521
2026-01-07 11:18:55.86	130.16	18.60	-40.6	-42.4	20.1	0.00e+00	0	43	0	666894336	52	4542
2026-01-07 11:18:56.87	130.07	18.72	-40.5	-42.4	20.1	0.00e+00	0	43	0	673185792	52	4531
2026-01-07 11:18:57.87	129.97	18.84	-40.6	-42.5	20.1	0.00e+00	0	43	0	678428672	52	4548
2026-01-07 11:18:58.87	129.88	18.95	-40.3	-42.2	20.3	0.00e+00	0	43	0	683671552	52	4404
2026-01-07 11:18:59.87	129.79	19.07	-40.4	-42.3	20.2	0.00e+00	0	43	0	689963008	52	4457
2026-01-07 11:19:00.88	129.70	19.19	-40.2	-42.0	20.5	0.00e+00	0	43	0	695205888	52	4328
2026-01-07 11:19:01.88	129.60	19.31	-40.0	-41.9	20.6	0.00e+00	0	43	0	700448768	52	4249
2026-01-07 11:19:02.89	129.50	19.43	-40.0	-41.9	20.7	0.00e+00	0	43	0	706740224	51	4498
2026-01-07 11:19:03.89	129.41	19.54	-40.0	-41.9	20.7	0.00e+00	0	43	0	711983104	51	4494
2026-01-07 11:19:04.89	129.31	19.66	-40.0	-41.8	20.7	0.00e+00	0	43	0	718274560	51	4465
2026-01-07 11:19:05.90	129.21	19.79	-40.0	-41.8	20.7	0.00e+00	0	43	0	723517440	51	4447
2026-01-07 11:19:06.90	129.12	19.91	-39.9	-41.7	20.8	0.00e+00	0	43	0	728760320	51	4397
2026-01-07 11:19:07.90	129.02	20.03	-39.9	-41.7	20.8	0.00e+00	0	43	0	735051776	51	4439
2026-01-07 11:19:08.91	128.92	20.15	-39.9	-41.7	20.8	0.00e+00	0	43	0	740294656	51	4417
2026-01-07 11:19:09.91	128.82	20.27	-39.9	-41.7	20.8	0.00e+00	0	43	0	746586112	51	4424
2026-01-07 11:19:10.91	128.71	20.39	-39.9	-41.7	20.8	0.00e+00	0	43	0	751828992	51	4435
2026-01-07 11:19:11.92	128.61	20.52	-39.9	-41.7	20.8	0.00e+00	0	43	0	757071872	51	4437
2026-01-07 11:19:12.92	128.51	20.64	-39.9	-41.7	20.8	0.00e+00	0	43	0	763363328	51	4401
2026-01-07 11:19:13.92	128.40	20.76	-39.9	-41.7	20.8	0.00e+00	0	43	0	768606208	51	4440
2026-01-07 11:19:14.93	128.30	20.89	-39.9	-41.7	20.8	0.00e+00	0	43	0	773849088	51	4436
2026-01-07 11:19:15.93	128.19	21.01	-39.9	-41.8	20.8	0.00e+00	0	43	0	780140544	51	4455
2026-01-07 11:19:16.93	128.09	21.14	-39.9	-41.7	20.8	0.00e+00	0	43	0	785383424	51	4433
2026-01-07 11:19:17.94	127.98	21.27	-39.9	-41.7	20.8	0.00e+00	0	43	0	790626304	51	4421
2026-01-07 11:19:18.94	127.87	21.39	-39.8	-41.6	20.9	0.00e+00	0	43	0	796917760	51	4358
2026-01-07 11:19:19.94	127.76	21.52	-39.6	-41.4	21.1	0.00e+00	0	43	0	802160640	51	4263
2026-01-07 11:19:20.95	127.65	21.65	-39.7	-41.5	21.0	0.00e+00	0	43	0	808452096	51	4298
2026-01-07 11:19:21.95	127.54	21.78	-39.6	-41.4	21.1	0.00e+00	0	43	0	813694976	51	4289
2026-01-07 11:19:22.95	127.43	21.90	-39.7	-41.5	21.1	0.00e+00	0	43	0	819986432	51	4296
2026-01-07 11:19:23.95	127.31	22.03	-39.4	-41.2	21.3	0.00e+00	0	43	0	825229312	50	4410
2026-01-07 11:19:24.96	127.20	22.16	-39.4	-41.1	21.4	0.00e+00	0	43	0	830472192	50	4383
2026-01-07 11:19:25.96	127.08	22.29	-39.4	-41.2	21.3	0.00e+00	0	43	0	836763648	50	4415
2026-01-07 11:19:26.97	126.97	22.43	-39.4	-41.2	21.3	0.00e+00	0	43	0	842006528	50	4424
2026-01-07 11:19:27.97	126.85	22.56	-39.4	-41.2	21.3	0.00e+00	0	43	0	847249408	50	4414
2026-01-07 11:19:28.97	126.73	22.69	-39.4	-41.2	21.3	0.00e+00	0	43	0	853540864	50	4440
2026-01-07 11:19:29.98	126.61	22.82	-39.4	-41.2	21.3	0.00e+00	0	43	0	858783744	50	4420
2026-01-07 11:19:30.98	126.49	22.95	-39.3	-41.1	21.4	0.00e+00	0	43	0	864026624	50	4362
2026-01-07 11:19:31.99	126.37	23.09	-39.3	-41.1	21.4	0.00e+00	0	43	0	870318080	50	4362
2026-01-07 11:19:32.99	126.25	23.22	-39.3	-41.1	21.3	0.00e+00	0	43	0	875560960	50	4386
2026-01-07 11:19:33.99	126.12	23.36	-39.4	-41.2	21.3	0.00e+00	0	43	0	881852416	50	4392
2026-01-07 11:19:35.00	126.00	23.49	-39.3	-41.1	21.3	0.00e+00	0	43	0	887095296	50	4382
2026-01-07 11:19:36.00	125.87	23.63	-39.4	-41.2	21.3	0.00e+00	0	43	0	893386752	50	4399
2026-01-07 11:19:37.00	125.75	23.77	-39.2	-40.9	21.5	0.00e+00	0	43	0	898629632	50	4290
2026-01-07 11:19:38.01	125.62	23.90	-39.2	-41.0	21.4	0.00e+00	0	43	0	903872512	50	4330
2026-01-07 11:19:39.01	125.49	24.04	-39.2	-40.9	21.5	0.00e+00	0	43	0	910163968	50	4279
2026-01-07 11:19:40.01	125.36	24.18	-39.2	-41.0	21.5	0.00e+00	0	43	0	915406848	50	4305
2026-01-07 11:19:41.01	125.23	24.32	-39.0	-40.8	21.7	0.00e+00	0	43	0	920649728	50	4194
2026-01-07 11:19:42.02	125.09	24.46	-39.0	-40.7	21.7	0.00e+00	0	43	0	926941184	50	4181
2026-01-07 11:19:43.02	124.96	24.60	-38.9	-40.7	21.7	0.00e+00	0	43	0	932184064	49	4396
2026-01-07 11:19:44.02	124.82	24.74	-38.9	-40.7	21.7	0.00e+00	0	43	0	937426944	49	4404
2026-01-07 11:19:45.03	124.69	24.88	-39.0	-40.8	21.6	0.00e+00	0	43	0	943718400	49	4473
2026-01-07 11:19:46.03	124.55	25.02	-39.0	-40.8	21.6	0.00e+00	0	43	0	948961280	49	4470
2026-01-07 11:19:47.03	124.41	25.16	-39.1	-40.8	21.6	0.00e+00	0	43	0	955252736	49	4491
2026-01-07 11:19:48.04	124.27	25.31	-39.1	-40.9	21.6	0.00e+00	0	43	0	960495616	49	4510
2026-01-07 11:19:49.04	124.13	25.45	-39.1	-40.8	21.6	0.00e+00	0	43	0	966787072	49	4491
2026-01-07 11:19:50.04	123.99	25.59	-39.0	-40.7	21.7	0.00e+00	0	43	0	972029952	49	4438
2026-01-07 11:19:51.04	123.84	25.74	-38.8	-40.6	21.8	0.00e+00	0	43	0	977272832	49	4380
2026-01-07 11:19:52.05	123.70	25.88	-38.8	-40.6	21.8	0.00e+00	0	43	0	983564288	49	4341
2026-01-07 11:19:53.05	123.55	26.03	-38.7	-40.5	21.9	0.00e+00	0	43	0	988807168	49	4310
2026-01-07 11:19:54.05	123.40	26.17	-38.7	-40.5	21.9	0.00e+00	0	43	0	994050048	49	4308
2026-01-07 11:19:55.06	123.25	26.32	-38.8	-40.5	21.8	0.00e+00	0	43	0	1000341504	49	4340
2026-01-07 11:19:56.06	123.10	26.47	-38.7	-40.4	21.9	0.00e+00	0	43	0	1005584384	49	4289
2026-01-07 11:19:57.07	122.95	26.62	-38.7	-40.5	21.9	0.00e+00	0	43	0	1010827264	49	4314
2026-01-07 11:19:58.07	122.80	26.77	-38.7	-40.5	21.9	0.00e+00	0	43	0	1017118720	49	4302
2026-01-07 11:19:59.07	122.64	26.91	-38.7	-40.5	21.9	0.00e+00	0	43	0	1022361600	49	4298
2026-01-07 11:20:00.08	122.48	27.07	-38.8	-40.6	21.8	0.00e+00	0	43	0	1028653056	49	4347
2026-01-07 11:20:01.08	122.33	27.22	-38.8	-40.5	21.9	0.00e+00	0	43	0	1033895936	49	4339
2026-01-07 11:20:02.08	122.17	27.37	-38.8	-40.6	21.9	0.00e+00	0	43	0	1039138816	49	4346
2026-01-07 11:20:03.09	122.00	27.52	-38.8	-40.5	21.9	0.00e+00	0	43	0	1045430272	49	4324
2026-01-07 11:20:04.09	121.84	27.67	-38.8	-40.5	21.9	0.00e+00	0	43	0	1050673152	49	4336
2026-01-07 11:20:05.09	121.68	27.82	-38.7	-40.4	22.0	0.00e+00	0	43	0	1056964608	49	4273
2026-01-07 11:20:06.10	121.51	27.98	-38.6	-40.3	22.0	0.00e+00	0	43	0	1062207488	49	4225
2026-01-07 11:20:07.10	121.34	28.13	-38.4	-40.1	22.2	0.00e+00	0	43	0	1067450368	48	4385
2026-01-07 11:20:08.10	121.17	28.28	-38.4	-40.1	22.2	0.00e+00	0	43	0	1073741824	48	4375
2026-01-07 11:20:09.10	121.00	28.44	-38.4	-40.1	22.3	0.00e+00	0	43	0	1078984704	48	4361
2026-01-07 11:20:10.11	120.83	28.60	-38.3	-40.1	22.3	0.00e+00	0	43	0	1084227584	48	4352
2026-01-07 11:20:11.11	120.66	28.75	-38.4	-40.1	22.3	0.00e+00	0	43	0	1090519040	48	4373
2026-01-07 11:20:12.12	120.48	28.91	-38.5	-40.2	22.2	0.00e+00	0	43	0	1095761920	48	4413
2026-01-07 11:20:13.12	120.30	29.07	-38.5	-40.2	22.1	0.00e+00	0	43	0	1102053376	48	4439
2026-01-07 11:20:14.12	120.12	29.22	-38.5	-40.2	22.1	0.00e+00	0	43	0	1107296256	48	4423
2026-01-07 11:20:15.13	119.94	29.38	-38.6	-40.3	22.0	0.00e+00	0	43	0	1112539136	48	4486
2026-01-07 11:20:16.13	119.76	29.54	-38.7	-40.4	22.0	0.00e+00	0	43	0	1118830592	48	4540
2026-01-07 11:20:17.13	119.57	29.70	-38.7	-40.4	22.0	0.00e+00	0	43	0	1124073472	48	4543
2026-01-07 11:20:18.14	119.38	29.86	-38.7	-40.4	22.0	0.00e+00	0	43	0	1130364928	48	4527
2026-01-07 11:20:19.14	119.20	30.02	-38.7	-40.5	21.9	0.00e+00	0	43	0	1135607808	48	4558
2026-01-07 11:20:20.15	119.00	30.19	-38.7	-40.5	21.9	0.00e+00	0	43	0	1140850688	48	4569
2026-01-07 11:20:21.15	118.81	30.35	-38.8	-40.6	21.9	0.00e+00	0	43	0	1147142144	48	4599
2026-01-07 11:20:22.16	118.62	30.51	-38.6	-40.4	22.0	0.00e+00	0	43	0	1152385024	48	4511
2026-01-07 11:20:23.16	118.42	30.67	-38.5	-40.2	22.2	0.00e+00	0	43	0	1157627904	48	4440
2026-01-07 11:20:24.17	118.22	30.84	-38.6	-40.3	22.1	0.00e+00	0	43	0	1163919360	48	4487
2026-01-07 11:20:25.17	118.02	31.00	-38.6	-40.3	22.1	0.00e+00	0	43	0	1169162240	48	4490
2026-01-07 11:20:26.17	117.82	31.16	-38.6	-40.4	22.0	0.00e+00	0	43	0	1175453696	48	4518
2026-01-07 11:20:27.18	117.61	31.33	-38.6	-40.3	22.1	0.00e+00	0	43	0	1180696576	48	4476
2026-01-07 11:20:28.18	117.40	31.50	-38.6	-40.3	22.1	0.00e+00	0	43	0	1185939456	48	4467
2026-01-07 11:20:29.18	117.20	31.66	-38.5	-40.2	22.2	0.00e+00	0	43	0	1192230912	48	4422
2026-01-07 11:20:30.19	116.98	31.83	-38.6	-40.3	22.1	0.00e+00	0	43	0	1197473792	48	4481
2026-01-07 11:20:31.19	116.77	32.00	-38.6	-40.4	22.1	0.00e+00	0	43	0	1202716672	48	4515
2026-01-07 11:20:32.19	116.55	32.16	-38.6	-40.4	22.1	0.00e+00	0	43	0	1209008128	48	4518
2026-01-07 11:20:33.19	116.34	32.33	-38.6	-40.3	22.1	0.00e+00	0	43	0	1214251008	48	4492
2026-01-07 11:20:34.20	116.12	32.50	-38.4	-40.2	22.2	0.00e+00	0	43	0	1220542464	48	4418
2026-01-07 11:20:35.20	115.89	32.67	-38.5	-40.2	22.2	0.00e+00	0	43	0	1225785344	48	4429
2026-01-07 11:20:36.20	115.67	32.84	-38.3	-40.1	22.3	0.00e+00	0	43	0	1231028224	48	4354
2026-01-07 11:20:37.21	115.44	33.01	-38.2	-39.9	22.4	0.00e+00	0	43	0	1237319680	48	4280
2026-01-07 11:20:38.21	115.21	33.18	-38.1	-39.9	22.5	0.00e+00	0	43	0	1242562560	48	4245
2026-01-07 11:20:39.21	114.98	33.35	-38.2	-39.9	22.5	0.00e+00	0	43	0	1248854016	48	4266
2026-01-07 11:20:40.21	114.75	33.52	-38.2	-39.9	22.4	0.00e+00	0	43	0	1254096896	48	4273
2026-01-07 11:20:41.21	114.51	33.69	-38.3	-40.0	22.4	0.00e+00	0	43	0	1259339776	48	4322
2026-01-07 11:20:42.22	114.27	33.86	-38.4	-40.2	22.2	0.00e+00	0	43	0	1265631232	48	4399
2026-01-07 11:20:43.22	114.03	34.03	-38.2	-40.0	22.4	0.00e+00	0	43	0	1270874112	48	4310
2026-01-07 11:20:44.22	113.78	34.21	-38.2	-40.0	22.4	0.00e+00	0	43	0	1276116992	48	4295
2026-01-07 11:20:45.22	113.54	34.38	-38.3	-40.0	22.3	0.00e+00	0	43	0	1282408448	48	4322
2026-01-07 11:20:46.23	113.28	34.55	-38.3	-40.0	22.3	0.00e+00	0	43	0	1287651328	48	4326
2026-01-07 11:20:47.23	113.03	34.73	-38.3	-40.0	22.3	0.00e+00	0	43	0	1292894208	48	4318
2026-01-07 11:20:48.23	112.78	34.90	-38.3	-40.1	22.2	0.00e+00	0	43	0	1299185664	48	4366
2026-01-07 11:20:49.24	112.52	35.07	-38.4	-40.2	22.2	0.00e+00	0	43	0	1304428544	48	4398
2026-01-07 11:20:50.24	112.26	35.25	-38.4	-40.1	22.2	0.00e+00	0	43	0	1310720000	48	4378
2026-01-07 11:20:51.24	111.99	35.42	-38.4	-40.1	22.3	0.00e+00	0	43	0	1315962880	48	4386
2026-01-07 11:20:52.25	111.72	35.60	-38.3	-40.0	22.4	0.00e+00	0	43	0	1322254336	48	4306
2026-01-07 11:20:53.25	111.46	35.77	-38.2	-39.9	22.5	0.00e+00	0	43	0	1327497216	48	4277
2026-01-07 11:20:54.25	111.18	35.95	-38.3	-40.0	22.4	0.00e+00	0	43	0	1332740096	48	4304
2026-01-07 11:20:55.26	110.91	36.13	-38.4	-40.1	22.3	0.00e+00	0	43	0	1339031552	48	4354
2026-01-07 11:20:56.26	110.63	36.30	-38.3	-40.0	22.4	0.00e+00	0	43	0	1344274432	48	4306
2026-01-07 11:20:57.27	110.34	36.48	-38.3	-40.0	22.4	0.00e+00	0	43	0	1349517312	48	4313
2026-01-07 11:20:58.27	110.06	36.65	-38.3	-40.0	22.4	0.00e+00	0	44	0	1355808768	48	4311
2026-01-07 11:20:59.27	109.77	36.83	-38.3	-40.1	22.3	0.00e+00	0	43	0	1361051648	48	4342
2026-01-07 11:21:00.28	109.48	37.01	-38.2	-39.9	22.5	0.00e+00	0	43	0	1366294528	48	4287
2026-01-07 11:21:01.28	109.19	37.18	-38.2	-40.0	22.5	0.00e+00	0	43	0	1372585984	48	4297
2026-01-07 11:21:02.28	108.89	37.36	-38.1	-39.8	22.5	0.00e+00	0	43	0	1377828864	48	4238
2026-01-07 11:21:03.29	108.59	37.54	-38.2	-39.9	22.5	0.00e+00	0	43	0	1384120320	48	4282
2026-01-07 11:21:04.29	108.28	37.71	-38.3	-40.0	22.4	0.00e+00	0	43	0	1389363200	48	4312
2026-01-07 11:21:05.29	107.98	37.89	-38.3	-40.0	22.4	0.00e+00	0	43	0	1395654656	48	4319
2026-01-07 11:21:06.30	107.67	38.07	-38.3	-40.0	22.4	0.00e+00	0	43	0	1400897536	48	4306
2026-01-07 11:21:07.30	107.35	38.24	-38.2	-39.9	22.5	0.00e+00	0	43	0	1406140416	48	4272
2026-01-07 11:21:08.30	107.04	38.42	-38.4	-40.1	22.3	0.00e+00	0	43	0	1412431872	48	4368
2026-01-07 11:21:09.31	106.71	38.60	-38.5	-40.3	22.2	0.00e+00	0	43	0	1417674752	48	4454
2026-01-07 11:21:10.31	106.39	38.77	-38.6	-40.4	22.1	0.00e+00	0	43	0	1422917632	48	4511
2026-01-07 11:21:11.31	106.06	38.95	-38.6	-40.3	22.1	0.00e+00	0	43	0	1429209088	48	4489
2026-01-07 11:21:12.32	105.73	39.13	-38.7	-40.4	22.1	0.00e+00	0	43	0	1434451968	48	4522
2026-01-07 11:21:13.32	105.39	39.30	-38.7	-40.5	22.0	0.00e+00	0	43	0	1439694848	48	4561
2026-01-07 11:21:14.33	105.05	39.48	-38.5	-40.2	22.2	0.00e+00	0	43	0	1445986304	48	4438
2026-01-07 11:21:15.33	104.71	39.65	-38.4	-40.1	22.3	0.00e+00	0	43	0	1451229184	48	4362
2026-01-07 11:21:16.33	104.36	39.83	-38.2	-39.9	22.5	0.00e+00	0	43	0	1457520640	48	4261
2026-01-07 11:21:17.34	104.01	40.00	-38.2	-39.9	22.5	0.00e+00	0	43	0	1462763520	48	4289
2026-01-07 11:21:18.34	103.66	40.18	-38.2	-39.9	22.5	0.00e+00	0	43	0	1469054976	48	4283
2026-01-07 11:21:19.35	103.30	40.35	-38.2	-39.9	22.5	0.00e+00	0	43	0	1474297856	48	4270
2026-01-07 11:21:20.35	102.94	40.52	-38.4	-40.1	22.4	0.00e+00	0	43	0	1479540736	48	4369
2026-01-07 11:21:21.36	102.57	40.70	-38.5	-40.3	22.2	0.00e+00	0	43	0	1485832192	48	4451
2026-01-07 11:21:22.36	102.20	40.87	-38.6	-40.4	22.2	0.00e+00	0	43	0	1491075072	48	4496
2026-01-07 11:21:23.36	101.83	41.04	-38.6	-40.3	22.2	0.00e+00	0	43	0	1496317952	48	4492
2026-01-07 11:21:24.37	101.45	41.21	-38.4	-40.1	22.4	0.00e+00	0	43	0	1502609408	48	4374
2026-01-07 11:21:25.37	101.07	41.38	-38.1	-39.8	22.6	0.00e+00	0	43	0	1507852288	48	4202
2026-01-07 11:21:26.37	100.68	41.55	-37.9	-39.6	22.6	0.00e+00	0	43	0	1513095168	47	4357
2026-01-07 11:21:27.38	100.29	41.72	-37.9	-39.6	22.5	0.00e+00	0	43	0	1519386624	47	4360
2026-01-07 11:21:28.38	99.90	41.89	-38.0	-39.7	22.4	0.00e+00	0	43	0	1524629504	47	4422
2026-01-07 11:21:29.38	99.50	42.06	-38.1	-39.8	22.3	0.00e+00	0	43	0	1530920960	47	4491
2026-01-07 11:21:30.38	99.10	42.23	-38.0	-39.7	22.3	0.00e+00	0	43	0	1536163840	47	4437
2026-01-07 11:21:31.38	98.70	42.39	-38.0	-39.7	22.4	0.00e+00	0	43	0	1541406720	47	4419
2026-01-07 11:21:32.39	98.28	42.56	-38.1	-39.9	22.3	0.00e+00	0	43	0	1547698176	47	4495
2026-01-07 11:21:33.39	97.87	42.72	-38.2	-40.0	22.2	0.00e+00	0	43	0	1552941056	47	4553
2026-01-07 11:21:34.40	97.45	42.89	-38.3	-40.1	22.1	0.00e+00	0	43	0	1559232512	47	4615
2026-01-07 11:21:35.40	97.02	43.05	-38.3	-40.0	22.2	0.00e+00	0	43	0	1564475392	47	4580
2026-01-07 11:21:36.40	96.60	43.21	-38.3	-40.0	22.2	0.00e+00	0	43	0	1569718272	47	4583
2026-01-07 11:21:37.40	96.17	43.37	-38.3	-40.0	22.2	0.00e+00	0	43	0	1576009728	47	4571
2026-01-07 11:21:38.41	95.73	43.53	-38.4	-40.1	22.1	0.00e+00	0	43	0	1581252608	47	4629
2026-01-07 11:21:39.41	95.29	43.68	-38.4	-40.1	22.1	0.00e+00	0	43	0	1587544064	47	4638
2026-01-07 11:21:40.41	94.85	43.84	-38.1	-39.9	22.3	0.00e+00	0	43	0	1592786944	47	4501
2026-01-07 11:21:41.41	94.40	43.99	-38.1	-39.8	22.4	0.00e+00	0	43	0	1598029824	47	4462
2026-01-07 11:21:42.42	93.94	44.15	-38.2	-39.9	22.3	0.00e+00	0	44	0	1604321280	47	4521
2026-01-07 11:21:43.42	93.48	44.30	-38.0	-39.8	22.4	0.00e+00	0	43	0	1609564160	47	4450
2026-01-07 11:21:44.42	93.02	44.45	-38.0	-39.8	22.4	0.00e+00	0	43	0	1614807040	47	4458
2026-01-07 11:21:45.43	92.55	44.60	-38.1	-39.8	22.3	0.00e+00	0	43	0	1621098496	47	4490
2026-01-07 11:21:46.43	92.08	44.75	-38.1	-39.9	22.3	0.00e+00	0	43	0	1626341376	47	4497
2026-01-07 11:21:47.44	91.60	44.89	-38.1	-39.9	22.3	0.00e+00	0	43	0	1631584256	47	4504
2026-01-07 11:21:48.44	91.13	45.04	-38.3	-40.0	22.2	0.00e+00	0	43	0	1637875712	47	4568
2026-01-07 11:21:49.44	90.64	45.18	-38.6	-40.4	21.8	0.00e+00	0	43	0	1643118592	47	4765
2026-01-07 11:21:50.44	90.16	45.32	-38.8	-40.6	22.0	0.00e+00	0	43	0	1649410048	48	4603
2026-01-07 11:21:51.45	89.66	45.46	-38.5	-40.2	22.3	0.00e+00	0	43	0	1654652928	48	4426
2026-01-07 11:21:52.45	89.16	45.60	-38.3	-40.0	22.5	0.00e+00	0	43	0	1660944384	48	4305
2026-01-07 11:21:53.45	88.66	45.73	-38.3	-40.0	22.5	0.00e+00	0	43	0	1666187264	48	4331
2026-01-07 11:21:54.45	88.16	45.86	-38.5	-40.2	22.4	0.00e+00	0	43	0	1671430144	48	4433
2026-01-07 11:21:55.46	87.64	46.00	-38.7	-40.5	22.2	0.00e+00	0	43	0	1677721600	48	4550
2026-01-07 11:21:56.46	87.13	46.12	-38.7	-40.4	22.2	0.00e+00	0	43	0	1682964480	48	4526
2026-01-07 11:21:57.46	86.61	46.25	-38.4	-40.1	22.4	0.00e+00	0	43	0	1688207360	48	4384
2026-01-07 11:21:58.46	86.09	46.37	-38.7	-40.4	22.2	0.00e+00	0	43	0	1694498816	48	4525
2026-01-07 11:21:59.46	85.57	46.50	-38.8	-40.5	22.0	0.00e+00	0	43	0	1699741696	48	4596
2026-01-07 11:22:00.47	85.03	46.62	-38.8	-40.6	22.0	0.00e+00	0	44	0	1704984576	48	4622
2026-01-07 11:22:01.47	84.50	46.73	-38.7	-40.4	22.2	0.00e+00	0	44	0	1711276032	48	4524
2026-01-07 11:22:02.48	83.96	46.85	-38.5	-40.2	22.3	0.00e+00	0	43	0	1716518912	48	4414
2026-01-07 11:22:03.48	83.42	46.96	-38.6	-40.3	22.3	0.00e+00	0	43	0	1722810368	48	4458
2026-01-07 11:22:04.48	82.87	47.07	-38.7	-40.4	22.1	0.00e+00	0	43	0	1728053248	48	4541
2026-01-07 11:22:05.48	82.32	47.18	-38.9	-40.7	22.0	0.00e+00	0	43	0	1733296128	48	4659
2026-01-07 11:22:06.49	81.76	47.28	-39.0	-40.8	21.9	0.00e+00	0	43	0	1739587584	48	4742
2026-01-07 11:22:07.49	81.21	47.38	-39.1	-40.8	21.8	0.00e+00	0	43	0	1744830464	48	4755
2026-01-07 11:22:08.49	80.65	47.48	-39.0	-40.7	21.9	0.00e+00	0	43	0	1751121920	48	4701
2026-01-07 11:22:09.50	80.08	47.58	-38.9	-40.7	21.9	0.00e+00	0	43	0	1756364800	48	4675
2026-01-07 11:22:10.50	79.51	47.67	-38.9	-40.6	22.0	0.00e+00	0	43	0	1761607680	48	4638
2026-01-07 11:22:11.51	78.94	47.76	-38.9	-40.6	22.0	0.00e+00	0	43	0	1767899136	48	4651
2026-01-07 11:22:12.51	78.36	47.85	-39.0	-40.8	21.9	0.00e+00	0	43	0	1773142016	48	4715
2026-01-07 11:22:13.51	77.79	47.94	-39.1	-40.9	21.8	0.00e+00	0	43	0	1778384896	48	4774
2026-01-07 11:22:14.51	77.21	48.02	-39.2	-41.0	21.7	0.00e+00	0	43	0	1784676352	49	4547
2026-01-07 11:22:15.52	76.62	48.10	-39.2	-40.9	21.7	0.00e+00	0	43	0	1789919232	49	4544
2026-01-07 11:22:16.52	76.03	48.17	-39.3	-41.1	21.6	0.00e+00	0	43	0	1796210688	49	4614
2026-01-07 11:22:17.53	75.44	48.24	-39.2	-40.9	21.8	0.00e+00	0	43	0	1801453568	49	4544
2026-01-07 11:22:18.53	74.85	48.31	-39.3	-41.0	21.7	0.00e+00	0	43	0	1806696448	49	4589
2026-01-07 11:22:19.53	74.25	48.38	-39.1	-40.9	21.8	0.00e+00	0	43	0	1812987904	49	4499
2026-01-07 11:22:20.53	73.66	48.44	-39.0	-40.7	22.0	0.00e+00	0	43	0	1818230784	49	4434
2026-01-07 11:22:21.54	73.05	48.50	-38.8	-40.5	22.2	0.00e+00	0	43	0	1823473664	49	4326
2026-01-07 11:22:22.54	72.45	48.56	-38.9	-40.6	22.0	0.00e+00	0	43	0	1829765120	49	4386
2026-01-07 11:22:23.54	71.85	48.61	-39.1	-40.9	21.8	0.00e+00	0	43	0	1835008000	49	4512
2026-01-07 11:22:24.55	71.24	48.66	-38.9	-40.7	22.0	0.00e+00	0	43	0	1841299456	49	4414
2026-01-07 11:22:25.55	70.63	48.70	-38.7	-40.4	22.2	0.00e+00	0	43	0	1846542336	49	4251
2026-01-07 11:22:26.55	70.02	48.75	-38.9	-40.6	22.0	0.00e+00	0	43	0	1851785216	49	4360
2026-01-07 11:22:27.56	69.41	48.79	-38.9	-40.6	22.0	0.00e+00	0	43	0	1858076672	49	4377
2026-01-07 11:22:28.56	68.79	48.82	-39.0	-40.7	21.9	0.00e+00	0	43	0	1863319552	49	4440
2026-01-07 11:22:29.56	68.18	48.85	-39.0	-40.7	21.9	0.00e+00	0	43	0	1869611008	49	4426
2026-01-07 11:22:30.57	67.56	48.88	-39.0	-40.8	21.9	0.00e+00	0	44	0	1874853888	49	4447
2026-01-07 11:22:31.57	66.95	48.90	-39.1	-40.8	21.9	0.00e+00	0	43	0	1880096768	49	4482
2026-01-07 11:22:32.57	66.33	48.93	-39.2	-41.0	21.7	0.00e+00	0	43	0	1886388224	49	4574
2026-01-07 11:22:33.58	65.71	48.94	-39.3	-41.0	21.7	0.00e+00	0	43	0	1891631104	49	4579
2026-01-07 11:22:34.58	65.09	48.96	-39.0	-40.7	21.9	0.00e+00	0	43	0	1896873984	49	4441
2026-01-07 11:22:35.58	64.47	48.97	-38.9	-40.6	22.1	0.00e+00	0	43	0	1903165440	49	4365
2026-01-07 11:22:36.58	63.85	48.97	-39.0	-40.7	22.0	0.00e+00	0	43	0	1908408320	49	4425
2026-01-07 11:22:37.59	63.23	48.98	-39.2	-41.0	21.7	0.00e+00	0	43	0	1914699776	49	4571
2026-01-07 11:22:38.59	62.61	48.98	-39.3	-41.1	21.6	0.00e+00	0	43	0	1919942656	49	4621
2026-01-07 11:22:39.59	61.99	48.97	-39.2	-41.0	21.8	0.00e+00	0	43	0	1925185536	49	4557
2026-01-07 11:22:40.60	61.37	48.96	-39.1	-40.8	21.9	0.00e+00	0	43	0	1931476992	49	4486
2026-01-07 11:22:41.60	60.75	48.95	-38.9	-40.6	22.0	0.00e+00	0	43	0	1936719872	49	4370
2026-01-07 11:22:42.60	60.13	48.94	-39.0	-40.7	22.0	0.00e+00	0	44	0	1943011328	49	4417
2026-01-07 11:22:43.61	59.51	48.92	-39.2	-41.0	21.7	0.00e+00	0	43	0	1948254208	49	4565
2026-01-07 11:22:44.61	58.89	48.90	-39.3	-41.1	21.6	0.00e+00	0	43	0	1953497088	49	4634
2026-01-07 11:22:45.61	58.28	48.87	-39.2	-41.0	21.7	0.00e+00	0	44	0	1959788544	49	4573
2026-01-07 11:22:46.61	57.67	48.84	-39.2	-41.0	21.8	0.00e+00	0	43	0	1965031424	49	4565
2026-01-07 11:22:47.62	57.05	48.81	-38.8	-40.6	22.1	0.00e+00	0	43	0	1970274304	49	4345
2026-01-07 11:22:48.62	56.44	48.77	-38.8	-40.6	22.2	0.00e+00	0	43	0	1976565760	49	4344
2026-01-07 11:22:49.63	55.82	48.73	-38.7	-40.4	22.2	0.00e+00	0	43	0	1981808640	49	4290
2026-01-07 11:22:50.63	55.21	48.69	-38.9	-40.6	22.1	0.00e+00	0	43	0	1987051520	49	4360
2026-01-07 11:22:51.63	54.61	48.64	-38.9	-40.6	22.1	0.00e+00	0	43	0	1993342976	49	4373
2026-01-07 11:22:52.63	54.00	48.59	-38.9	-40.7	22.0	0.00e+00	0	43	0	1998585856	49	4407
2026-01-07 11:22:53.64	53.40	48.54	-38.9	-40.7	22.0	0.00e+00	0	43	0	2004877312	49	4403
2026-01-07 11:22:54.64	52.80	48.48	-39.0	-40.7	22.0	0.00e+00	0	43	0	2010120192	49	4430
2026-01-07 11:22:55.64	52.20	48.42	-39.1	-40.8	21.9	0.00e+00	0	43	0	2016411648	49	4491
2026-01-07 11:22:56.64	51.60	48.36	-39.1	-40.9	21.8	0.00e+00	0	43	0	2021654528	49	4522
2026-01-07 11:22:57.64	51.01	48.29	-39.1	-40.8	21.9	0.00e+00	0	43	0	2026897408	49	4485
2026-01-07 11:22:58.65	50.42	48.22	-38.9	-40.6	22.0	0.00e+00	0	43	0	2033188864	49	4388
2026-01-07 11:22:59.65	49.83	48.15	-38.9	-40.6	22.1	0.00e+00	0	43	0	2038431744	49	4362
2026-01-07 11:23:00.65	49.24	48.07	-38.8	-40.5	22.1	0.00e+00	0	43	0	2043674624	49	4337
2026-01-07 11:23:01.65	48.66	47.99	-38.7	-40.4	22.2	0.00e+00	0	43	0	2049966080	49	4284
2026-01-07 11:23:02.65	48.09	47.91	-38.9	-40.7	22.0	0.00e+00	0	43	0	2055208960	49	4395
2026-01-07 11:23:03.66	47.50	47.83	-38.9	-40.6	22.0	0.00e+00	0	43	0	2060451840	49	4387
2026-01-07 11:23:04.66	46.93	47.74	-38.8	-40.5	22.1	0.00e+00	0	43	0	2066743296	49	4334
2026-01-07 11:23:05.66	46.36	47.65	-38.9	-40.6	22.1	0.00e+00	0	43	0	2071986176	49	4363
2026-01-07 11:23:06.67	45.79	47.55	-39.0	-40.8	21.9	0.00e+00	0	43	0	2078277632	49	4461
2026-01-07 11:23:07.67	45.23	47.46	-39.0	-40.8	21.9	0.00e+00	0	43	0	2083520512	49	4462
2026-01-07 11:23:08.67	44.67	47.36	-39.1	-40.8	21.9	0.00e+00	0	43	0	2088763392	49	4477
2026-01-07 11:23:09.68	44.11	47.25	-39.0	-40.8	22.0	0.00e+00	0	43	0	2095054848	49	4456
2026-01-07 11:23:10.68	43.56	47.15	-39.0	-40.7	22.0	0.00e+00	0	44	0	2100297728	49	4424
2026-01-07 11:23:11.69	43.01	47.04	-38.9	-40.7	22.0	0.00e+00	0	43	0	2105540608	49	4393
2026-01-07 11:23:12.69	42.47	46.93	-38.9	-40.6	22.0	0.00e+00	0	43	0	2111832064	49	4380
2026-01-07 11:23:13.70	41.92	46.82	-38.6	-40.4	22.2	0.00e+00	0	43	0	2117074944	49	4250
2026-01-07 11:23:14.70	41.39	46.70	-38.5	-40.2	22.3	0.00e+00	0	43	0	2123366400	49	4171
2026-01-07 11:23:15.70	40.86	46.58	-38.5	-40.3	22.3	0.00e+00	0	43	0	2128609280	48	4450
2026-01-07 11:23:16.71	40.32	46.46	-38.7	-40.4	22.2	0.00e+00	0	43	0	2133852160	48	4515
2026-01-07 11:23:17.71	39.80	46.34	-38.8	-40.5	22.1	0.00e+00	0	44	0	2140143616	48	4598
2026-01-07 11:23:18.71	39.28	46.22	-38.7	-40.5	22.2	0.00e+00	0	43	0	2145386496	48	4569
2026-01-07 11:23:19.72	38.76	46.09	-38.6	-40.3	22.3	0.00e+00	0	44	0	2151677952	48	4491
2026-01-07 11:23:20.72	38.25	45.96	-38.5	-40.2	22.5	0.00e+00	0	43	0	2156920832	48	4417
2026-01-07 11:23:21.72	37.75	45.83	-38.5	-40.2	22.5	0.00e+00	0	43	0	2162163712	48	4405
2026-01-07 11:23:22.72	37.24	45.70	-38.3	-40.1	22.6	0.00e+00	0	44	0	2168455168	48	4346
2026-01-07 11:23:23.73	36.74	45.56	-38.4	-40.1	22.5	0.00e+00	0	43	0	2173698048	48	4357
2026-01-07 11:23:24.73	36.25	45.42	-38.3	-40.0	22.6	0.00e+00	0	44	0	2178940928	48	4300
2026-01-07 11:23:25.73	35.76	45.28	-38.3	-40.0	22.6	0.00e+00	0	44	0	2185232384	48	4328
2026-01-07 11:23:26.74	35.27	45.14	-38.3	-40.0	22.6	0.00e+00	0	43	0	2190475264	48	4326
2026-01-07 11:23:27.74	34.79	45.00	-38.3	-40.0	22.5	0.00e+00	0	43	0	2195718144	48	4340
2026-01-07 11:23:28.74	34.31	44.86	-38.4	-40.1	22.5	0.00e+00	0	44	0	2202009600	48	4362
2026-01-07 11:23:29.75	33.83	44.71	-38.4	-40.1	22.5	0.00e+00	0	44	0	2207252480	48	4363
2026-01-07 11:23:30.75	33.37	44.56	-38.3	-40.0	22.5	0.00e+00	0	43	0	2213543936	48	4323
2026-01-07 11:23:31.75	32.90	44.41	-38.2	-39.9	22.6	0.00e+00	0	44	0	2218786816	48	4262
2026-01-07 11:23:32.75	32.45	44.26	-38.2	-40.0	22.6	0.00e+00	0	44	0	2225078272	48	4294
2026-01-07 11:23:33.76	31.99	44.11	-38.2	-39.9	22.6	0.00e+00	0	43	0	2230321152	48	4265
2026-01-07 11:23:34.76	31.54	43.96	-38.1	-39.8	22.7	0.00e+00	0	43	0	2235564032	48	4228
2026-01-07 11:23:35.76	31.09	43.80	-38.1	-39.8	22.7	0.00e+00	0	43	0	2241855488	48	4222
2026-01-07 11:23:36.77	30.65	43.65	-38.2	-39.9	22.7	0.00e+00	0	43	0	2247098368	48	4260
2026-01-07 11:23:37.77	30.21	43.49	-38.2	-39.9	22.6	0.00e+00	0	43	0	2252341248	48	4287
2026-01-07 11:23:38.77	29.78	43.33	-38.2	-39.9	22.6	0.00e+00	0	43	0	2258632704	48	4282
2026-01-07 11:23:39.78	29.34	43.17	-38.1	-39.8	22.7	0.00e+00	0	43	0	2263875584	48	4236
2026-01-07 11:23:40.78	28.92	43.01	-38.1	-39.8	22.7	0.00e+00	0	43	0	2269118464	48	4235
2026-01-07 11:23:41.78	28.50	42.85	-38.1	-39.7	22.8	0.00e+00	0	43	0	2275409920	48	4185
2026-01-07 11:23:42.79	28.08	42.68	-37.9	-39.6	22.6	0.00e+00	0	43	0	2280652800	47	4342
2026-01-07 11:23:43.79	27.67	42.52	-37.8	-39.4	22.7	0.00e+00	0	43	0	2286944256	47	4288
2026-01-07 11:23:44.79	27.26	42.36	-37.9	-39.7	22.5	0.00e+00	0	43	0	2292187136	47	4400
2026-01-07 11:23:45.79	26.86	42.19	-38.0	-39.7	22.5	0.00e+00	0	43	0	2298478592	47	4428
2026-01-07 11:23:46.80	26.46	42.02	-38.2	-39.9	22.3	0.00e+00	0	43	0	2303721472	47	4527
2026-01-07 11:23:47.80	26.06	41.86	-38.3	-40.0	22.2	0.00e+00	0	43	0	2308964352	47	4598
2026-01-07 11:23:48.80	25.67	41.69	-38.3	-40.1	22.1	0.00e+00	0	43	0	2315255808	47	4621
2026-01-07 11:23:49.81	25.28	41.52	-38.6	-40.3	22.4	0.00e+00	0	43	0	2320498688	47	4710
2026-01-07 11:23:50.81	24.90	41.35	-38.5	-40.2	22.5	0.00e+00	0	43	0	2325741568	47	4688
2026-01-07 11:23:51.81	24.52	41.18	-38.5	-40.2	22.5	0.00e+00	0	43	0	2332033024	47	4665
2026-01-07 11:23:52.82	24.14	41.01	-38.5	-40.2	22.5	0.00e+00	0	43	0	2337275904	47	4660
2026-01-07 11:23:53.82	23.77	40.84	-38.3	-40.0	22.7	0.00e+00	0	43	0	2342518784	47	4557
2026-01-07 11:23:54.82	23.41	40.67	-38.2	-39.8	22.8	0.00e+00	0	43	0	2348810240	47	4475
2026-01-07 11:23:55.82	23.04	40.49	-38.3	-40.0	22.7	0.00e+00	0	43	0	2354053120	47	4548
2026-01-07 11:23:56.83	22.68	40.32	-38.4	-40.1	22.6	0.00e+00	0	43	0	2360344576	47	4622
2026-01-07 11:23:57.83	22.33	40.15	-38.4	-40.1	22.6	0.00e+00	0	43	0	2365587456	47	4608
2026-01-07 11:23:58.83	21.98	39.97	-38.4	-40.0	22.6	0.00e+00	0	43	0	2370830336	47	4586
2026-01-07 11:23:59.83	21.63	39.80	-38.3	-40.0	22.7	0.00e+00	0	43	0	2377121792	47	4549
2026-01-07 11:24:00.84	21.28	39.62	-38.2	-39.8	22.8	0.00e+00	0	44	0	2382364672	47	4481
2026-01-07 11:24:01.84	20.94	39.45	-38.3	-39.9	22.7	0.00e+00	0	44	0	2387607552	47	4533
2026-01-07 11:24:02.84	20.61	39.28	-38.3	-40.0	22.7	0.00e+00	0	43	0	2393899008	47	4564
2026-01-07 11:24:03.85	20.27	39.10	-38.2	-39.9	22.7	0.00e+00	0	43	0	2399141888	47	4532
2026-01-07 11:24:04.85	19.94	38.92	-38.2	-39.8	22.8	0.00e+00	0	43	0	2405433344	47	4474
2026-01-07 11:24:05.85	19.62	38.75	-38.1	-39.7	22.9	0.00e+00	0	43	0	2410676224	47	4421
2026-01-07 11:24:06.85	19.30	38.57	-38.0	-39.6	23.0	0.00e+00	0	43	0	2415919104	47	4375
2026-01-07 11:24:07.86	18.98	38.40	-38.0	-39.6	23.0	0.00e+00	0	43	0	2422210560	47	4365
2026-01-07 11:24:08.86	18.66	38.22	-37.8	-39.5	23.1	0.00e+00	0	43	0	2427453440	47	4304
2026-01-07 11:24:09.87	18.35	38.04	-37.9	-39.5	23.1	0.00e+00	0	44	0	2433744896	47	4314
2026-01-07 11:24:10.87	18.04	37.87	-37.9	-39.5	23.1	0.00e+00	0	43	0	2438987776	47	4324
2026-01-07 11:24:11.87	17.73	37.69	-37.9	-39.5	23.0	0.00e+00	0	43	0	2444230656	47	4327
2026-01-07 11:24:12.88	17.43	37.52	-38.0	-39.7	22.9	0.00e+00	0	43	0	2450522112	47	4403
2026-01-07 11:24:13.88	17.13	37.34	-38.1	-39.7	22.9	0.00e+00	0	44	0	2455764992	47	4438
2026-01-07 11:24:14.88	16.84	37.17	-38.2	-39.9	22.8	0.00e+00	0	43	0	2461007872	47	4495
2026-01-07 11:24:15.89	16.54	36.99	-38.3	-40.0	22.7	0.00e+00	0	43	0	2467299328	47	4561
2026-01-07 11:24:16.89	16.25	36.81	-38.3	-40.0	22.6	0.00e+00	0	43	0	2472542208	47	4593
2026-01-07 11:24:17.89	15.97	36.64	-38.2	-39.9	22.7	0.00e+00	0	43	0	2478833664	47	4524
2026-01-07 11:24:18.90	15.68	36.46	-38.2	-39.8	22.8	0.00e+00	0	43	0	2484076544	47	4483
2026-01-07 11:24:19.90	15.41	36.29	-38.0	-39.6	23.0	0.00e+00	0	43	0	2489319424	47	4360
2026-01-07 11:24:20.90	15.13	36.11	-37.9	-39.5	23.1	0.00e+00	0	44	0	2495610880	47	4317
2026-01-07 11:24:21.91	14.85	35.94	-37.9	-39.5	23.1	0.00e+00	0	43	0	2500853760	47	4330
2026-01-07 11:24:22.91	14.58	35.76	-38.0	-39.7	23.0	0.00e+00	0	44	0	2507145216	47	4393
2026-01-07 11:24:23.91	14.32	35.59	-38.1	-39.8	22.8	0.00e+00	0	43	0	2512388096	47	4465
2026-01-07 11:24:24.92	14.05	35.41	-38.0	-39.7	22.9	0.00e+00	0	44	0	2517630976	47	4394
2026-01-07 11:24:25.92	13.79	35.24	-38.0	-39.7	22.9	0.00e+00	0	43	0	2523922432	47	4405
2026-01-07 11:24:26.92	13.53	35.07	-37.9	-39.6	23.0	0.00e+00	0	43	0	2529165312	47	4354
2026-01-07 11:24:27.93	13.27	34.89	-38.0	-39.7	22.9	0.00e+00	0	44	0	2534408192	47	4422
2026-01-07 11:24:28.93	13.02	34.72	-38.0	-39.7	22.9	0.00e+00	0	43	0	2540699648	47	4423
2026-01-07 11:24:29.93	12.77	34.55	-37.9	-39.6	23.0	0.00e+00	0	43	0	2545942528	47	4361
2026-01-07 11:24:30.94	12.52	34.37	-37.8	-39.5	23.1	0.00e+00	0	43	0	2552233984	47	4296
2026-01-07 11:24:31.94	12.27	34.20	-37.8	-39.4	23.1	0.00e+00	0	43	0	2557476864	47	4277
2026-01-07 11:24:32.94	12.03	34.03	-37.9	-39.5	23.1	0.00e+00	0	43	0	2562719744	47	4309
2026-01-07 11:24:33.95	11.79	33.86	-37.8	-39.5	23.1	0.00e+00	0	43	0	2569011200	47	4294
2026-01-07 11:24:34.95	11.55	33.69	-37.9	-39.6	23.0	0.00e+00	0	43	0	2574254080	47	4359
2026-01-07 11:24:35.96	11.31	33.51	-38.1	-39.7	22.9	0.00e+00	0	44	0	2580545536	47	4438
2026-01-07 11:24:36.96	11.08	33.34	-38.2	-39.9	22.7	0.00e+00	0	43	0	2585788416	47	4527
2026-01-07 11:24:37.96	10.85	33.18	-38.3	-39.9	22.7	0.00e+00	0	44	0	2591031296	47	4528
2026-01-07 11:24:38.97	10.62	33.00	-38.3	-39.9	22.7	0.00e+00	0	43	0	2597322752	47	4532
2026-01-07 11:24:39.97	10.39	32.84	-38.4	-40.0	22.6	0.00e+00	0	43	0	2602565632	47	4594
2026-01-07 11:24:40.98	10.17	32.67	-38.4	-40.1	22.6	0.00e+00	0	43	0	2607808512	47	4607
2026-01-07 11:24:41.98	9.95	32.50	-38.4	-40.1	22.5	0.00e+00	0	43	0	2614099968	47	4631
2026-01-07 11:24:42.98	9.73	32.33	-38.3	-40.0	22.6	0.00e+00	0	43	0	2619342848	47	4579
2026-01-07 11:24:43.99	9.51	32.16	-38.2	-39.9	22.7	0.00e+00	0	43	0	2624585728	47	4515
2026-01-07 11:24:44.99	9.30	32.00	-38.1	-39.8	22.8	0.00e+00	0	43	0	2630877184	47	4442
2026-01-07 11:24:45.99	9.09	31.83	-38.0	-39.7	22.9	0.00e+00	0	43	0	2636120064	47	4398
2026-01-07 11:24:47.00	8.88	31.66	-38.1	-39.8	22.8	0.00e+00	0	44	0	2642411520	47	4447
2026-01-07 11:24:48.00	8.67	31.50	-38.3	-40.0	22.7	0.00e+00	0	43	0	2647654400	47	4556
2026-01-07 11:24:49.01	8.46	31.33	-38.4	-40.1	22.6	0.00e+00	0	43	0	2653945856	47	4610
2026-01-07 11:24:50.01	8.26	31.17	-38.4	-40.1	22.5	0.00e+00	0	44	0	2659188736	47	4641
2026-01-07 11:24:51.01	8.06	31.01	-38.5	-40.2	22.4	0.00e+00	0	43	0	2664431616	47	4686
2026-01-07 11:24:52.02	7.86	30.84	-38.5	-40.2	22.5	0.00e+00	0	43	0	2670723072	47	4691
2026-01-07 11:24:53.02	7.66	30.68	-38.5	-40.2	22.5	0.00e+00	0	43	0	2675965952	47	4658
2026-01-07 11:24:54.03	7.47	30.52	-38.6	-40.2	22.4	0.00e+00	0	43	0	2681208832	47	4703
2026-01-07 11:24:55.03	7.27	30.36	-38.6	-40.3	22.4	0.00e+00	0	43	0	2687500288	47	4728
2026-01-07 11:24:56.03	7.08	30.20	-38.8	-40.5	22.6	0.00e+00	0	44	0	2692743168	48	4548
2026-01-07 11:24:57.03	6.89	30.04	-38.8	-40.5	22.6	0.00e+00	0	44	0	2699034624	48	4551
2026-01-07 11:24:58.04	6.70	29.88	-38.7	-40.4	22.6	0.00e+00	0	43	0	2704277504	48	4520
2026-01-07 11:24:59.04	6.52	29.72	-38.8	-40.5	22.5	0.00e+00	0	44	0	2709520384	48	4556
2026-01-07 11:25:00.04	6.34	29.56	-38.9	-40.5	22.4	0.00e+00	0	44	0	2715811840	48	4592
2026-01-07 11:25:01.05	6.15	29.40	-38.8	-40.5	22.5	0.00e+00	0	43	0	2721054720	48	4575
2026-01-07 11:25:02.05	5.97	29.24	-38.9	-40.5	22.5	0.00e+00	0	44	0	2727346176	48	4594
2026-01-07 11:25:03.05	5.80	29.09	-39.0	-40.6	22.4	0.00e+00	0	43	0	2732589056	48	4644
2026-01-07 11:25:04.06	5.62	28.93	-38.9	-40.6	22.4	0.00e+00	0	44	0	2737831936	48	4610
2026-01-07 11:25:05.06	5.44	28.77	-38.9	-40.6	22.4	0.00e+00	0	44	0	2744123392	48	4607
2026-01-07 11:25:06.06	5.27	28.62	-38.9	-40.5	22.5	0.00e+00	0	43	0	2749366272	48	4595
2026-01-07 11:25:07.06	5.10	28.46	-38.9	-40.6	22.5	0.00e+00	0	43	0	2754609152	48	4599
2026-01-07 11:25:08.07	4.93	28.31	-38.8	-40.5	22.5	0.00e+00	0	43	0	2760900608	48	4578
2026-01-07 11:25:09.07	4.76	28.15	-38.9	-40.5	22.4	0.00e+00	0	44	0	2766143488	48	4597
2026-01-07 11:25:10.08	4.59	28.00	-38.9	-40.5	22.4	0.00e+00	0	43	0	2772434944	48	4593
2026-01-07 11:25:11.08	4.43	27.85	-38.9	-40.6	22.4	0.00e+00	0	43	0	2777677824	48	4642
2026-01-07 11:25:12.08	4.27	27.70	-39.1	-40.8	22.2	0.00e+00	0	43	0	2782920704	48	4731
2026-01-07 11:25:13.09	4.10	27.54	-39.0	-40.6	22.4	0.00e+00	0	44	0	2789212160	48	4640
2026-01-07 11:25:14.09	3.94	27.39	-38.9	-40.6	22.4	0.00e+00	0	43	0	2794455040	48	4625
2026-01-07 11:25:15.09	3.79	27.24	-38.9	-40.6	22.4	0.00e+00	0	44	0	2800746496	48	4625
2026-01-07 11:25:16.09	3.63	27.09	-38.8	-40.5	22.5	0.00e+00	0	43	0	2805989376	48	4550
2026-01-07 11:25:17.10	3.47	26.94	-38.9	-40.6	22.4	0.00e+00	0	43	0	2811232256	48	4612
2026-01-07 11:25:18.10	3.32	26.80	-38.9	-40.5	22.4	0.00e+00	0	44	0	2817523712	48	4592
2026-01-07 11:25:19.10	3.17	26.65	-39.0	-40.7	22.3	0.00e+00	0	44	0	2822766592	48	4663
2026-01-07 11:25:20.10	3.02	26.50	-38.9	-40.6	22.4	0.00e+00	0	44	0	2828009472	48	4627
2026-01-07 11:25:21.11	2.87	26.35	-38.9	-40.6	22.4	0.00e+00	0	44	0	2834300928	48	4613
2026-01-07 11:25:22.11	2.72	26.21	-39.0	-40.6	22.3	0.00e+00	0	44	0	2839543808	48	4639
2026-01-07 11:25:23.11	2.57	26.06	-39.1	-40.7	22.3	0.00e+00	0	44	0	2845835264	48	4699
2026-01-07 11:25:24.11	2.43	25.92	-39.0	-40.7	22.3	0.00e+00	0	44	0	2851078144	48	4675
2026-01-07 11:25:25.12	2.28	25.77	-39.1	-40.8	22.2	0.00e+00	0	43	0	2856321024	48	4743
2026-01-07 11:25:26.12	2.14	25.63	-39.1	-40.8	22.2	0.00e+00	0	44	0	2862612480	48	4735
2026-01-07 11:25:27.12	2.00	25.49	-39.2	-40.9	22.1	0.00e+00	0	43	0	2867855360	49	4513
2026-01-07 11:25:28.13	1.86	25.34	-39.0	-40.7	22.3	0.00e+00	0	43	0	2873098240	49	4423
2026-01-07 11:25:29.13	1.72	25.20	-39.0	-40.7	22.3	0.00e+00	0	43	0	2879389696	49	4432
2026-01-07 11:25:30.13	1.58	25.06	-39.1	-40.8	22.2	0.00e+00	0	44	0	2884632576	49	4491
2026-01-07 11:25:31.14	1.44	24.92	-39.1	-40.8	22.2	0.00e+00	0	44	0	2890924032	49	4462
2026-01-07 11:25:32.14	1.31	24.78	-39.1	-40.8	22.2	0.00e+00	0	43	0	2896166912	49	4484
2026-01-07 11:25:33.14	1.17	24.64	-39.0	-40.7	22.3	0.00e+00	0	43	0	2901409792	49	4422
2026-01-07 11:25:34.15	1.04	24.50	-39.1	-40.7	22.2	0.00e+00	0	44	0	2907701248	49	4436
2026-01-07 11:25:35.15	0.91	24.36	-39.0	-40.7	22.3	0.00e+00	0	44	0	2912944128	49	4418
2026-01-07 11:25:36.16	0.78	24.22	-39.0	-40.7	22.3	0.00e+00	0	44	0	2919235584	49	4405
2026-01-07 11:25:37.16	0.65	24.08	-39.1	-40.7	22.2	0.00e+00	0	44	0	2924478464	49	4429
2026-01-07 11:25:38.17	0.52	23.95	-39.1	-40.7	22.3	0.00e+00	0	44	0	2929721344	49	4434
2026-01-07 11:25:39.17	0.39	23.81	-39.1	-40.8	22.3	0.00e+00	0	44	0	2936012800	49	4445
2026-01-07 11:25:40.17	0.27	23.68	-39.0	-40.7	22.3	0.00e+00	0	44	0	2941255680	49	4432
2026-01-07 11:25:41.17	0.14	23.54	-39.0	-40.7	22.3	0.00e+00	0	44	0	2946498560	49	4419
2026-01-07 11:25:42.18	0.02	23.40	-39.1	-40.7	22.2	0.00e+00	0	43	0	2952790016	49	4436
2026-01-07 11:25:43.18	359.90	23.27	-39.0	-40.7	22.3	0.00e+00	0	44	0	2958032896	49	4407
2026-01-07 11:25:44.19	359.78	23.14	-38.9	-40.6	22.4	0.00e+00	0	44	0	2963275776	49	4374
2026-01-07 11:25:45.19	359.66	23.00	-38.9	-40.5	22.4	0.00e+00	0	43	0	2969567232	49	4339
2026-01-07 11:25:46.19	359.54	22.87	-38.9	-40.5	22.4	0.00e+00	0	43	0	2974810112	49	4339
2026-01-07 11:25:47.20	359.42	22.74	-38.9	-40.6	22.4	0.00e+00	0	44	0	2981101568	49	4345
2026-01-07 11:25:48.20	359.30	22.61	-38.9	-40.6	22.4	0.00e+00	0	44	0	2986344448	49	4369
2026-01-07 11:25:49.20	359.19	22.48	-39.0	-40.7	22.3	0.00e+00	0	44	0	2992635904	49	4406
2026-01-07 11:25:50.20	359.07	22.35	-39.1	-40.8	22.2	0.00e+00	0	44	0	2997878784	49	4459
2026-01-07 11:25:51.21	358.96	22.22	-39.2	-40.9	22.1	0.00e+00	0	44	0	3003121664	49	4510
2026-01-07 11:25:52.21	358.84	22.09	-39.3	-41.0	22.0	0.00e+00	0	43	0	3009413120	49	4589
2026-01-07 11:25:53.22	358.73	21.96	-39.4	-41.1	21.9	0.00e+00	0	43	0	3014656000	49	4637
2026-01-07 11:25:54.22	358.62	21.83	-39.4	-41.2	21.8	0.00e+00	0	44	0	3019898880	49	4666
2026-01-07 11:25:55.22	358.51	21.70	-39.6	-41.3	21.7	0.00e+00	0	44	0	3026190336	49	4740
2026-01-07 11:25:56.23	358.40	21.57	-39.6	-41.4	21.7	0.00e+00	0	44	0	3031433216	49	4770
2026-01-07 11:25:57.23	358.29	21.45	-39.7	-41.4	21.6	0.00e+00	0	44	0	3036676096	50	4542
2026-01-07 11:25:58.23	358.18	21.32	-39.6	-41.4	21.7	0.00e+00	0	44	0	3042967552	50	4522
2026-01-07 11:25:59.24	358.08	21.20	-39.7	-41.4	21.6	0.00e+00	0	44	0	3048210432	50	4540
2026-01-07 11:26:00.24	357.97	21.07	-39.6	-41.4	21.7	0.00e+00	0	44	0	3054501888	50	4504
2026-01-07 11:26:01.25	357.86	20.95	-39.7	-41.5	21.6	0.00e+00	0	43	0	3059744768	50	4549
2026-01-07 11:26:02.25	357.76	20.82	-39.7	-41.4	21.7	0.00e+00	0	43	0	3066036224	50	4532
2026-01-07 11:26:03.25	357.66	20.70	-39.7	-41.5	21.6	0.00e+00	0	44	0	3071279104	50	4551
2026-01-07 11:26:04.26	357.55	20.58	-39.6	-41.4	21.7	0.00e+00	0	43	0	3076521984	50	4498
2026-01-07 11:26:05.26	357.45	20.45	-39.7	-41.5	21.5	0.00e+00	0	44	0	3082813440	50	4559
2026-01-07 11:26:06.26	357.35	20.33	-39.8	-41.6	21.5	0.00e+00	0	44	0	3088056320	50	4614
2026-01-07 11:26:07.27	357.25	20.21	-39.8	-41.5	21.5	0.00e+00	0	44	0	3093299200	50	4598
2026-01-07 11:26:08.27	357.15	20.09	-39.8	-41.5	21.6	0.00e+00	0	43	0	3099590656	50	4566
2026-01-07 11:26:09.27	357.06	19.97	-39.8	-41.5	21.6	0.00e+00	0	44	0	3104833536	50	4556
2026-01-07 11:26:10.28	356.96	19.85	-39.8	-41.5	21.5	0.00e+00	0	43	0	3110076416	50	4570
2026-01-07 11:26:11.28	356.86	19.73	-39.8	-41.6	21.5	0.00e+00	0	44	0	3116367872	50	4606
2026-01-07 11:26:12.29	356.76	19.61	-39.8	-41.6	21.5	0.00e+00	0	44	0	3121610752	50	4607
2026-01-07 11:26:13.29	356.67	19.49	-39.9	-41.7	21.4	0.00e+00	0	43	0	3127902208	50	4654
2026-01-07 11:26:14.30	356.57	19.37	-39.9	-41.6	21.4	0.00e+00	0	44	0	3133145088	50	4633
2026-01-07 11:26:15.30	356.48	19.25	-39.9	-41.6	21.4	0.00e+00	0	44	0	3139436544	50	4645
2026-01-07 11:26:16.30	356.39	19.14	-39.8	-41.6	21.5	0.00e+00	0	44	0	3144679424	50	4620
2026-01-07 11:26:17.31	356.30	19.02	-39.9	-41.7	21.3	0.00e+00	0	44	0	3149922304	50	4689
2026-01-07 11:26:18.30	356.21	18.91	-39.9	-41.7	21.3	0.00e+00	0	44	0	3156213760	50	4685
2026-01-07 11:26:19.31	356.11	18.79	-40.0	-41.8	21.2	0.00e+00	0	44	0	3161456640	50	4741
2026-01-07 11:26:20.31	356.02	18.67	-40.1	-41.8	21.3	0.00e+00	0	43	0	3166699520	50	4745
2026-01-07 11:26:21.31	355.94	18.56	-40.1	-41.8	21.2	0.00e+00	0	44	0	3172990976	50	4754
2026-01-07 11:26:22.32	355.85	18.44	-40.1	-41.9	21.2	0.00e+00	0	44	0	3178233856	50	4787
2026-01-07 11:26:23.32	355.76	18.33	-40.3	-42.0	21.1	0.00e+00	0	44	0	3183476736	51	4583
2026-01-07 11:26:24.33	355.67	18.22	-40.3	-42.1	21.0	0.00e+00	0	43	0	3189768192	51	4611
2026-01-07 11:26:25.33	355.58	18.10	-40.3	-42.1	20.9	0.00e+00	0	44	0	3195011072	51	4644
2026-01-07 11:26:26.34	355.50	17.99	-40.3	-42.1	20.9	0.00e+00	0	44	0	3201302528	51	4638
2026-01-07 11:26:27.34	355.41	17.88	-40.4	-42.2	20.9	0.00e+00	0	43	0	3206545408	51	4673
2026-01-07 11:26:28.34	355.33	17.77	-40.4	-42.2	20.8	0.00e+00	0	44	0	3212836864	51	4705
2026-01-07 11:26:29.34	355.25	17.66	-40.3	-42.2	20.9	0.00e+00	0	44	0	3218079744	51	4686
2026-01-07 11:26:30.34	355.16	17.55	-40.5	-42.4	20.8	0.00e+00	0	44	0	3223322624	51	4776
2026-01-07 11:26:31.35	355.08	17.43	-40.3	-42.2	20.9	0.00e+00	0	44	0	3229614080	51	4653
2026-01-07 11:26:32.35	355.00	17.33	-40.4	-42.2	20.9	0.00e+00	0	44	0	3234856960	51	4679
2026-01-07 11:26:33.36	354.92	17.21	-40.4	-42.3	20.8	0.00e+00	0	44	0	3240099840	51	4716
2026-01-07 11:26:34.36	354.84	17.11	-40.4	-42.2	20.9	0.00e+00	0	44	0	3246391296	51	4661
2026-01-07 11:26:35.36	354.76	17.00	-40.4	-42.2	20.9	0.00e+00	0	44	0	3251634176	51	4655
2026-01-07 11:26:36.36	354.68	16.89	-40.5	-42.3	20.8	0.00e+00	0	44	0	3256877056	51	4733
2026-01-07 11:26:37.37	354.60	16.78	-40.5	-42.3	20.8	0.00e+00	0	44	0	3263168512	51	4721
2026-01-07 11:26:38.37	354.52	16.67	-40.5	-42.3	20.8	0.00e+00	0	44	0	3268411392	51	4736
2026-01-07 11:26:39.37	354.44	16.57	-40.4	-42.2	20.8	0.00e+00	0	44	0	3274702848	51	4694
2026-01-07 11:26:40.37	354.36	16.46	-40.5	-42.3	20.8	0.00e+00	0	43	0	3279945728	51	4722
2026-01-07 11:26:41.38	354.29	16.35	-40.5	-42.3	20.7	0.00e+00	0	44	0	3285188608	51	4746
2026-01-07 11:26:42.38	354.21	16.25	-40.6	-42.4	20.6	0.00e+00	0	44	0	3291480064	51	4803
2026-01-07 11:26:43.39	354.14	16.14	-40.6	-42.4	20.6	0.00e+00	0	44	0	3296722944	51	4784
2026-01-07 11:26:44.39	354.06	16.04	-40.6	-42.4	20.6	0.00e+00	0	44	0	3303014400	52	4507
2026-01-07 11:26:45.39	353.99	15.93	-40.7	-42.5	20.5	0.00e+00	0	43	0	3308257280	52	4555
2026-01-07 11:26:46.40	353.91	15.83	-40.7	-42.5	20.5	0.00e+00	0	44	0	3313500160	52	4558
2026-01-07 11:26:47.40	353.84	15.73	-40.7	-42.5	20.4	0.00e+00	0	43	0	3319791616	52	4593
2026-01-07 11:26:48.40	353.77	15.62	-40.7	-42.6	20.4	0.00e+00	0	44	0	3325034496	52	4599
2026-01-07 11:26:49.41	353.69	15.52	-40.8	-42.7	20.3	0.00e+00	0	44	0	3330277376	52	4665
2026-01-07 11:26:50.41	353.62	15.42	-41.0	-42.8	20.2	0.00e+00	0	44	0	3336568832	52	4736
2026-01-07 11:26:51.41	353.55	15.32	-40.9	-42.7	20.3	0.00e+00	0	43	0	3341811712	52	4681
2026-01-07 11:26:52.42	353.48	15.21	-40.9	-42.7	20.3	0.00e+00	0	44	0	3348103168	52	4690
2026-01-07 11:26:53.42	353.41	15.11	-40.9	-42.8	20.2	0.00e+00	0	44	0	3353346048	52	4732
2026-01-07 11:26:54.42	353.34	15.01	-40.9	-42.7	20.2	0.00e+00	0	43	0	3358588928	52	4697
2026-01-07 11:26:55.42	353.27	14.91	-40.9	-42.8	20.2	0.00e+00	0	44	0	3364880384	52	4724
2026-01-07 11:26:56.43	353.20	14.81	-41.0	-42.9	20.1	0.00e+00	0	44	0	3370123264	52	4770
2026-01-07 11:26:57.43	353.13	14.71	-41.0	-42.9	20.1	0.00e+00	0	44	0	3375366144	52	4770
2026-01-07 11:26:58.43	353.07	14.61	-41.0	-42.9	20.1	0.00e+00	0	44	0	3381657600	52	4781
2026-01-07 11:26:59.44	353.00	14.51	-41.1	-43.0	20.0	0.00e+00	0	43	0	3386900480	52	4833
2026-01-07 11:27:00.44	352.93	14.41	-41.2	-43.0	20.0	0.00e+00	0	44	0	3393191936	52	4845
2026-01-07 11:27:01.44	352.87	14.31	-41.3	-43.2	19.8	0.00e+00	0	44	0	3398434816	53	4659
2026-01-07 11:27:02.45	352.80	14.22	-41.3	-43.2	19.8	0.00e+00	0	44	0	3403677696	53	4668
2026-01-07 11:27:03.45	352.73	14.12	-41.2	-43.1	19.9	0.00e+00	0	44	0	3409969152	53	4603
2026-01-07 11:27:04.46	352.67	14.02	-41.1	-43.0	19.9	0.00e+00	0	43	0	3415212032	53	4584
2026-01-07 11:27:05.46	352.61	13.92	-41.1	-43.1	19.9	0.00e+00	0	43	0	3421503488	53	4601
2026-01-07 11:27:06.46	352.54	13.83	-41.1	-43.1	19.9	0.00e+00	0	44	0	3426746368	53	4605
2026-01-07 11:27:07.47	352.48	13.73	-41.2	-43.1	19.8	0.00e+00	0	44	0	3431989248	53	4647
2026-01-07 11:27:08.47	352.41	13.63	-41.2	-43.2	19.8	0.00e+00	0	44	0	3438280704	53	4671
2026-01-07 11:27:09.47	352.35	13.54	-41.3	-43.3	19.7	0.00e+00	0	44	0	3443523584	53	4717
2026-01-07 11:27:10.48	352.29	13.44	-41.2	-43.1	19.8	0.00e+00	0	44	0	3448766464	53	4646
2026-01-07 11:27:11.48	352.23	13.35	-41.1	-43.0	19.9	0.00e+00	0	44	0	3455057920	53	4585
2026-01-07 11:27:12.48	352.17	13.25	-41.1	-43.1	19.9	0.00e+00	0	44	0	3460300800	53	4609
2026-01-07 11:27:13.49	352.10	13.16	-41.1	-43.1	19.8	0.00e+00	0	44	0	3465543680	53	4626
2026-01-07 11:27:14.49	352.04	13.06	-41.0	-43.0	19.9	0.00e+00	0	44	0	3471835136	53	4551
2026-01-07 11:27:15.50	351.98	12.97	-41.0	-43.0	19.9	0.00e+00	0	44	0	3477078016	53	4574
2026-01-07 11:27:16.50	351.92	12.88	-41.1	-43.1	19.8	0.00e+00	0	44	0	3483369472	53	4624
2026-01-07 11:27:17.50	351.86	12.78	-41.1	-43.1	19.8	0.00e+00	0	44	0	3488612352	53	4648
2026-01-07 11:27:18.51	351.81	12.69	-41.2	-43.2	19.7	0.00e+00	0	44	0	3494903808	53	4680
2026-01-07 11:27:19.51	351.75	12.60	-41.0	-43.0	19.8	0.00e+00	0	44	0	3500146688	53	4594
2026-01-07 11:27:20.52	351.69	12.51	-41.0	-43.0	19.9	0.00e+00	0	44	0	3505389568	53	4571
2026-01-07 11:27:21.52	351.63	12.41	-41.1	-43.1	19.8	0.00e+00	0	44	0	3511681024	53	4612
2026-01-07 11:27:22.52	351.57	12.32	-41.2	-43.2	19.7	0.00e+00	0	44	0	3516923904	53	4656
2026-01-07 11:27:23.52	351.52	12.23	-41.3	-43.3	19.6	0.00e+00	0	43	0	3522166784	53	4708
2026-01-07 11:27:24.52	351.46	12.14	-41.3	-43.3	19.6	0.00e+00	0	44	0	3528458240	53	4728
2026-01-07 11:27:25.53	351.40	12.05	-41.3	-43.3	19.6	0.00e+00	0	44	0	3533701120	53	4719
2026-01-07 11:27:26.53	351.35	11.96	-41.4	-43.4	19.4	0.00e+00	0	43	0	3538944000	53	4811
2026-01-07 11:27:27.53	351.29	11.87	-41.3	-43.4	19.5	0.00e+00	0	43	0	3545235456	53	4763
2026-01-07 11:27:28.54	351.24	11.78	-41.4	-43.5	19.4	0.00e+00	0	44	0	3550478336	53	4830
2026-01-07 11:27:29.54	351.18	11.69	-41.4	-43.5	19.4	0.00e+00	0	44	0	3556769792	53	4836
2026-01-07 11:27:30.54	351.13	11.60	-41.4	-43.5	19.4	0.00e+00	0	44	0	3562012672	53	4850
2026-01-07 11:27:31.55	351.07	11.51	-41.3	-43.5	19.4	0.00e+00	0	43	0	3568304128	53	4839
2026-01-07 11:27:32.55	351.02	11.43	-41.4	-43.6	19.3	0.00e+00	0	44	0	3573547008	53	4893
2026-01-07 11:27:33.55	350.97	11.34	-41.5	-43.7	19.2	0.00e+00	0	44	0	3578789888	53	4970
2026-01-07 11:27:34.56	350.91	11.25	-41.4	-43.6	19.3	0.00e+00	0	44	0	3585081344	53	4906
2026-01-07 11:27:35.56	350.86	11.16	-41.5	-43.8	19.1	0.00e+00	0	43	0	3590324224	53	4996
2026-01-07 11:27:36.56	350.81	11.08	-41.6	-43.8	19.1	0.00e+00	0	43	0	3595567104	53	5015
2026-01-07 11:27:37.56	350.75	10.99	-41.4	-43.7	19.2	0.00e+00	0	44	0	3601858560	53	4954
2026-01-07 11:27:38.57	350.70	10.90	-41.5	-43.8	19.1	0.00e+00	0	43	0	3607101440	53	4984
2026-01-07 11:27:39.57	350.65	10.82	-41.4	-43.8	19.1	0.00e+00	0	44	0	3612344320	53	4984
2026-01-07 11:27:40.58	350.60	10.73	-41.4	-43.7	19.1	0.00e+00	0	43	0	3618635776	53	4939
2026-01-07 11:27:41.57	350.55	10.64	-41.5	-43.8	19.0	0.00e+00	0	44	0	3623878656	53	5013
2026-01-07 11:27:42.58	350.50	10.56	-41.4	-43.8	19.1	0.00e+00	0	44	0	3630170112	53	4998
2026-01-07 11:27:43.58	350.45	10.47	-41.4	-43.8	19.1	0.00e+00	0	44	0	3635412992	53	5008
2026-01-07 11:27:44.59	350.40	10.39	-41.6	-43.9	18.9	0.00e+00	0	44	0	3640655872	53	5099
2026-01-07 11:27:45.59	350.35	10.30	-41.5	-43.9	19.0	0.00e+00	0	44	0	3646947328	53	5056
2026-01-07 11:27:46.59	350.30	10.22	-41.7	-44.0	18.9	0.00e+00	0	44	0	3652190208	53	5101
2026-01-07 11:27:47.59	350.25	10.13	-41.7	-44.0	18.8	0.00e+00	0	44	0	3658481664	54	4837
2026-01-07 11:27:48.60	350.20	10.05	-41.9	-44.2	18.7	0.00e+00	0	44	0	3663724544	54	4938
2026-01-07 11:27:49.60	350.15	9.97	-41.9	-44.1	18.7	0.00e+00	0	44	0	3668967424	54	4893
2026-01-07 11:27:50.60	350.11	9.88	-41.8	-44.0	18.9	0.00e+00	0	44	0	3675258880	54	4827
2026-01-07 11:27:51.61	350.06	9.80	-42.0	-44.2	18.7	0.00e+00	0	43	0	3680501760	54	4943
