passes_logs/2026/01/07/T1/T1__20260107_004559_NOAA_20_JPSS-1_rec.log

#Pass ID: 20260107_004559_NOAA 20 (JPSS-1)
#Satellite: NOAA 20 (JPSS-1)
#Configuration: NOAA 20
#almurnet v.1.7.20251203
#Start time: 2026-01-07 00:46:00

#Version: 2.0.20230620
#Station: T1
#Location: 37.570604 lon 55.790049 lat
#TLE: 1 43013U 17073A   26006.30790171  .00000126  00000+0  80695-4 0  9991
#TLE: 2 43013  98.7629 307.3394 0001808  51.8724 308.2615 14.19533762421505

#Time	Az	El	Level	Level2	SNR	BER	BlckErr	Temp	State	Recorded	gain1	gain2
2026-01-07 00:46:00.77	9.80	5.09	-48.1	-64.4	3.8	1.49e+00	0	41	0	0	66	25484
2026-01-07 00:46:01.77	9.75	5.16	-48.1	-64.4	3.8	1.49e+00	0	41	104	0	66	25449
2026-01-07 00:46:02.77	9.69	5.23	-48.1	-64.4	3.8	1.49e+00	0	41	104	0	66	25361
2026-01-07 00:46:03.78	9.64	5.29	-48.1	-64.4	3.8	1.49e+00	0	41	104	0	66	25449
2026-01-07 00:46:04.78	9.59	5.36	-48.2	-64.4	3.8	1.49e+00	0	41	104	0	66	25435
2026-01-07 00:46:05.78	9.53	5.43	-48.1	-64.4	3.8	1.49e+00	0	41	104	0	66	25371
2026-01-07 00:46:06.79	9.48	5.50	-48.1	-64.4	3.8	1.49e+00	0	41	104	0	66	25375
2026-01-07 00:46:07.79	9.43	5.57	-48.1	-64.4	3.8	1.49e+00	0	41	104	0	66	25406
2026-01-07 00:46:08.79	9.37	5.63	-48.1	-64.4	3.8	1.49e+00	0	41	104	0	66	25405
2026-01-07 00:46:09.80	9.32	5.70	-48.1	-64.4	3.8	1.49e+00	0	41	104	0	66	25383
2026-01-07 00:46:10.80	9.26	5.77	-48.1	-64.4	3.8	1.49e+00	0	41	104	0	66	25463
2026-01-07 00:46:11.81	9.21	5.84	-48.1	-64.4	3.8	1.49e+00	0	41	104	0	66	25497
2026-01-07 00:46:12.81	9.15	5.91	-48.1	-64.4	3.8	1.49e+00	0	41	104	0	66	25318
2026-01-07 00:46:13.82	9.10	5.98	-48.1	-64.4	3.8	1.49e+00	0	41	104	0	66	25344
2026-01-07 00:46:14.82	9.04	6.05	-48.1	-64.4	3.8	1.49e+00	0	41	104	0	66	25343
2026-01-07 00:46:15.83	8.98	6.12	-48.1	-64.4	3.8	1.49e+00	0	41	104	0	66	25301
2026-01-07 00:46:16.83	8.93	6.19	-48.1	-64.3	3.8	1.49e+00	0	41	104	0	66	25256
2026-01-07 00:46:17.83	8.87	6.26	-48.1	-64.4	3.8	1.49e+00	0	41	104	0	66	25271
2026-01-07 00:46:18.84	8.81	6.33	-48.1	-64.4	3.8	1.49e+00	0	41	104	0	66	25270
2026-01-07 00:46:19.84	8.76	6.40	-48.1	-64.4	3.8	1.49e+00	0	42	104	0	66	25304
2026-01-07 00:46:20.84	8.70	6.47	-48.1	-64.4	3.8	1.49e+00	0	41	104	0	66	25276
2026-01-07 00:46:21.85	8.64	6.54	-48.1	-64.3	3.8	1.49e+00	0	41	104	0	66	25265
2026-01-07 00:46:22.85	8.58	6.61	-48.1	-64.3	3.8	1.49e+00	0	42	104	0	66	25253
2026-01-07 00:46:23.86	8.52	6.68	-48.1	-64.3	3.8	1.49e+00	0	42	104	0	66	25168
2026-01-07 00:46:24.86	8.46	6.75	-48.1	-64.2	3.8	1.49e+00	0	42	104	0	66	24975
2026-01-07 00:46:25.87	8.40	6.82	-48.1	-64.2	3.8	1.49e+00	0	42	104	0	66	24732
2026-01-07 00:46:26.87	8.34	6.89	-48.1	-63.9	3.8	1.49e+00	0	42	104	0	66	23982
2026-01-07 00:46:27.88	8.28	6.96	-48.1	-63.7	3.8	1.49e+00	0	42	104	0	66	23376
2026-01-07 00:46:28.88	8.22	7.03	-48.0	-63.3	3.8	1.49e+00	0	42	104	0	66	22310
2026-01-07 00:46:29.88	8.16	7.11	-48.0	-63.0	3.8	1.49e+00	0	42	104	0	66	21694
2026-01-07 00:46:30.89	8.10	7.18	-48.0	-62.6	3.8	1.49e+00	0	42	104	0	66	20635
2026-01-07 00:46:31.89	8.04	7.25	-48.0	-62.3	3.9	1.49e+00	0	42	104	0	66	19880
2026-01-07 00:46:32.90	7.98	7.32	-48.0	-62.1	3.9	1.49e+00	0	42	104	0	66	19584
2026-01-07 00:46:33.90	7.92	7.40	-48.0	-62.1	3.8	1.48e+00	0	42	104	0	66	19557
2026-01-07 00:46:34.90	7.86	7.47	-48.0	-62.1	3.9	1.48e+00	0	42	104	0	66	19418
2026-01-07 00:46:35.91	7.79	7.54	-48.0	-62.4	3.8	1.48e+00	0	42	104	0	66	20250
2026-01-07 00:46:36.91	7.73	7.61	-48.0	-63.0	3.8	1.49e+00	0	42	104	0	66	21601
2026-01-07 00:46:37.92	7.67	7.69	-48.1	-63.4	3.8	1.49e+00	0	42	104	0	66	22522
2026-01-07 00:46:38.92	7.60	7.76	-48.1	-63.8	3.8	1.49e+00	0	42	104	0	66	23760
2026-01-07 00:46:39.93	7.54	7.83	-48.1	-64.1	3.8	1.49e+00	0	42	104	0	66	24531
2026-01-07 00:46:40.93	7.48	7.91	-48.1	-64.0	3.8	1.49e+00	0	42	104	0	66	24263
2026-01-07 00:46:41.94	7.41	7.98	-48.1	-63.5	3.8	1.49e+00	0	42	104	0	66	22987
2026-01-07 00:46:42.94	7.35	8.06	-48.0	-62.7	3.8	1.49e+00	0	42	104	0	66	20830
2026-01-07 00:46:43.94	7.28	8.13	-48.0	-61.2	4.1	1.49e+00	0	42	104	0	66	17633
2026-01-07 00:46:44.95	7.21	8.20	-47.9	-59.8	4.6	1.19e+00	0	42	0	0	66	14904
2026-01-07 00:46:45.95	7.15	8.28	-47.7	-58.3	5.3	6.86e-01	0	42	0	2097152	66	12569
2026-01-07 00:46:46.96	7.08	8.35	-47.5	-56.8	6.3	3.68e-01	0	42	0	4194304	66	10644
2026-01-07 00:46:47.96	7.02	8.43	-47.3	-55.6	7.4	1.78e-01	0	42	0	6291456	66	9241
2026-01-07 00:46:48.94	6.95	8.50	-47.1	-54.6	8.4	6.21e-02	0	42	0	7340032	66	8209
2026-01-07 00:46:49.94	6.88	8.58	-46.8	-53.8	9.2	2.70e-02	0	42	0	9437184	65	7952
2026-01-07 00:46:50.94	6.82	8.65	-46.6	-53.0	10.0	1.15e-02	0	42	0	11534336	65	7274
2026-01-07 00:46:51.95	6.75	8.73	-46.5	-52.7	10.4	5.04e-03	0	42	0	13631488	65	7030
2026-01-07 00:46:52.95	6.68	8.80	-46.5	-52.8	10.2	4.64e-03	0	43	0	15728640	64	7529
2026-01-07 00:46:53.95	6.61	8.88	-46.6	-53.0	10.1	5.48e-03	0	43	0	16777216	64	7635
2026-01-07 00:46:54.96	6.54	8.96	-46.7	-53.3	9.8	9.48e-03	0	42	0	18874368	64	7957
2026-01-07 00:46:55.96	6.47	9.03	-46.9	-54.1	9.0	1.79e-02	0	43	0	20971520	64	8673
2026-01-07 00:46:56.96	6.40	9.11	-46.0	-51.9	11.3	6.45e-03	0	43	0	23068672	64	6731
2026-01-07 00:46:57.96	6.33	9.18	-48.2	-61.8	4.0	8.13e-02	0	43	0	24117248	66	18879
2026-01-07 00:46:58.96	6.26	9.26	-45.2	-50.2	13.1	7.95e-03	0	43	0	24117248	62	6210
2026-01-07 00:46:59.97	6.19	9.34	-44.2	-48.3	15.0	0.00e+00	0	43	0	26214400	60	5645
2026-01-07 00:47:00.97	6.12	9.42	-47.0	-55.9	7.2	1.14e-04	0	42	0	28311552	64	10767
2026-01-07 00:47:01.97	6.05	9.49	-44.1	-48.2	15.2	7.00e-07	0	43	0	30408704	60	5537
2026-01-07 00:47:02.97	5.97	9.57	-44.0	-47.9	15.4	0.00e+00	0	43	0	31457280	59	5704
2026-01-07 00:47:03.97	5.90	9.65	-43.7	-47.4	15.9	0.00e+00	0	43	0	33554432	59	5391
2026-01-07 00:47:04.97	5.83	9.73	-43.6	-47.2	16.1	0.00e+00	0	42	0	35651584	59	5259
2026-01-07 00:47:05.97	5.75	9.80	-43.7	-47.3	16.0	0.00e+00	0	43	0	37748736	59	5319
2026-01-07 00:47:06.97	5.68	9.88	-43.8	-47.4	16.0	0.00e+00	0	43	0	38797312	59	5343
2026-01-07 00:47:07.97	5.61	9.96	-43.8	-47.3	16.0	0.00e+00	0	43	0	40894464	59	5340
2026-01-07 00:47:08.98	5.53	10.04	-43.8	-47.4	16.0	0.00e+00	0	43	0	42991616	59	5349
2026-01-07 00:47:09.98	5.46	10.12	-43.9	-47.4	16.0	0.00e+00	0	43	0	45088768	59	5367
2026-01-07 00:47:10.98	5.38	10.20	-43.9	-47.5	15.8	0.00e+00	0	43	0	47185920	59	5439
2026-01-07 00:47:11.98	5.30	10.28	-43.9	-47.5	15.8	0.00e+00	0	43	0	48234496	59	5455
2026-01-07 00:47:12.99	5.23	10.36	-43.8	-47.3	16.0	0.00e+00	0	43	0	50331648	59	5323
2026-01-07 00:47:13.98	5.15	10.44	-43.9	-47.3	16.0	0.00e+00	0	43	0	52428800	59	5339
2026-01-07 00:47:14.99	5.07	10.52	-43.9	-47.3	16.0	0.00e+00	0	43	0	54525952	59	5339
2026-01-07 00:47:15.99	5.00	10.60	-44.0	-47.4	16.0	0.00e+00	0	43	0	56623104	59	5343
2026-01-07 00:47:16.99	4.92	10.68	-44.0	-47.3	16.1	0.00e+00	0	43	0	57671680	59	5330
2026-01-07 00:47:17.99	4.84	10.76	-44.0	-47.3	16.1	0.00e+00	0	43	0	59768832	59	5296
2026-01-07 00:47:18.99	4.76	10.84	-44.0	-47.3	16.1	0.00e+00	0	43	0	61865984	59	5339
2026-01-07 00:47:19.99	4.68	10.92	-44.0	-47.3	16.2	0.00e+00	0	43	0	63963136	59	5293
2026-01-07 00:47:21.00	4.60	11.00	-44.1	-47.3	16.1	0.00e+00	0	43	0	66060288	59	5295
2026-01-07 00:47:22.00	4.52	11.08	-44.0	-47.2	16.2	0.00e+00	0	43	0	67108864	59	5262
2026-01-07 00:47:23.00	4.44	11.16	-44.0	-47.2	16.2	0.00e+00	0	43	0	69206016	59	5258
2026-01-07 00:47:24.00	4.36	11.25	-44.1	-47.4	16.1	0.00e+00	0	43	0	71303168	59	5352
2026-01-07 00:47:25.00	4.28	11.33	-44.1	-47.2	16.3	0.00e+00	0	43	0	73400320	59	5233
2026-01-07 00:47:26.00	4.19	11.41	-44.2	-47.4	16.1	0.00e+00	0	42	0	75497472	59	5341
2026-01-07 00:47:27.00	4.11	11.49	-44.2	-47.3	16.2	0.00e+00	0	43	0	76546048	59	5280
2026-01-07 00:47:28.00	4.03	11.58	-44.2	-47.3	16.2	0.00e+00	0	43	0	78643200	59	5289
2026-01-07 00:47:29.00	3.94	11.66	-44.3	-47.4	16.1	0.00e+00	0	43	0	80740352	59	5355
2026-01-07 00:47:30.01	3.86	11.74	-44.1	-47.2	16.3	0.00e+00	0	43	0	82837504	59	5226
2026-01-07 00:47:31.01	3.77	11.83	-44.2	-47.2	16.2	0.00e+00	0	43	0	84934656	59	5278
2026-01-07 00:47:32.01	3.69	11.91	-44.1	-47.1	16.3	0.00e+00	0	43	0	85983232	59	5206
2026-01-07 00:47:33.01	3.60	11.99	-44.1	-47.2	16.3	0.00e+00	0	43	0	88080384	59	5225
2026-01-07 00:47:34.01	3.52	12.08	-44.1	-47.1	16.3	0.00e+00	0	43	0	90177536	59	5205
2026-01-07 00:47:35.01	3.43	12.16	-44.1	-47.1	16.4	0.00e+00	0	43	0	92274688	59	5193
2026-01-07 00:47:36.01	3.34	12.24	-44.2	-47.2	16.2	0.00e+00	0	43	0	93323264	59	5231
2026-01-07 00:47:37.01	3.25	12.33	-44.2	-47.3	16.2	0.00e+00	0	43	0	95420416	59	5286
2026-01-07 00:47:38.01	3.17	12.41	-44.0	-47.0	16.5	0.00e+00	0	43	0	97517568	59	5117
2026-01-07 00:47:39.01	3.08	12.50	-44.0	-47.0	16.5	0.00e+00	0	43	0	99614720	59	5106
2026-01-07 00:47:40.01	2.99	12.58	-44.1	-47.0	16.5	0.00e+00	0	43	0	101711872	59	5145
2026-01-07 00:47:41.01	2.90	12.67	-44.0	-46.9	16.6	0.00e+00	0	43	0	102760448	59	5081
2026-01-07 00:47:42.01	2.81	12.76	-44.0	-46.9	16.6	0.00e+00	0	43	0	104857600	59	5072
2026-01-07 00:47:43.02	2.71	12.84	-44.0	-47.0	16.5	0.00e+00	0	43	0	106954752	59	5134
2026-01-07 00:47:44.02	2.62	12.93	-44.1	-47.0	16.4	0.00e+00	0	43	0	109051904	59	5155
2026-01-07 00:47:45.02	2.53	13.02	-44.1	-47.0	16.5	0.00e+00	0	43	0	111149056	59	5155
2026-01-07 00:47:46.02	2.44	13.10	-44.0	-46.9	16.6	0.00e+00	0	43	0	112197632	59	5096
2026-01-07 00:47:47.02	2.34	13.19	-44.1	-47.0	16.5	0.00e+00	0	43	0	114294784	59	5152
2026-01-07 00:47:48.02	2.25	13.28	-44.0	-47.0	16.5	0.00e+00	0	43	0	116391936	59	5126
2026-01-07 00:47:49.03	2.16	13.36	-44.0	-47.0	16.5	0.00e+00	0	43	0	118489088	59	5140
2026-01-07 00:47:50.03	2.06	13.45	-44.0	-47.0	16.5	0.00e+00	0	43	0	119537664	59	5127
2026-01-07 00:47:51.03	1.96	13.54	-43.9	-46.9	16.6	0.00e+00	0	43	0	121634816	59	5081
2026-01-07 00:47:52.16	1.86	13.64	-43.9	-46.9	16.6	0.00e+00	0	43	0	123731968	59	5082
2026-01-07 00:47:53.02	1.77	13.72	-44.0	-47.0	16.6	0.00e+00	0	43	0	125829120	59	5120
2026-01-07 00:47:54.16	1.66	13.82	-43.9	-46.8	16.7	0.00e+00	0	43	0	127926272	59	5039
2026-01-07 00:47:55.02	1.58	13.89	-43.9	-46.8	16.7	0.00e+00	0	43	0	128974848	59	5026
2026-01-07 00:47:56.16	1.46	13.99	-43.9	-46.9	16.7	0.00e+00	0	43	0	131072000	59	5047
2026-01-07 00:47:57.02	1.38	14.07	-43.9	-46.9	16.7	0.00e+00	0	43	0	133169152	59	5054
2026-01-07 00:47:58.17	1.26	14.17	-43.9	-46.9	16.7	0.00e+00	0	43	0	135266304	59	5043
2026-01-07 00:47:59.31	1.15	14.28	-44.0	-46.9	16.7	0.00e+00	0	43	0	137363456	59	5084
2026-01-07 00:48:00.17	1.06	14.35	-43.9	-46.8	16.8	0.00e+00	0	43	0	139460608	59	5024
2026-01-07 00:48:01.68	0.91	14.49	-44.0	-47.0	16.6	0.00e+00	0	43	0	141557760	59	5119
2026-01-07 00:48:02.40	0.83	14.56	-44.0	-46.9	16.7	0.00e+00	0	43	0	143654912	59	5079
2026-01-07 00:48:03.68	0.70	14.67	-43.9	-46.8	16.8	0.00e+00	0	43	0	145752064	59	5022
2026-01-07 00:48:04.40	0.63	14.74	-43.8	-46.8	16.9	0.00e+00	0	43	0	146800640	59	4988
2026-01-07 00:48:05.69	0.49	14.86	-43.8	-46.7	16.9	0.00e+00	0	43	0	148897792	59	4971
2026-01-07 00:48:06.45	0.41	14.92	-43.8	-46.8	16.8	0.00e+00	0	43	0	150994944	59	4996
2026-01-07 00:48:07.73	0.28	15.04	-43.8	-46.8	16.8	0.00e+00	0	43	0	153092096	59	5003
2026-01-07 00:48:08.53	0.19	15.12	-43.9	-46.8	16.8	0.00e+00	0	43	0	155189248	59	5032
2026-01-07 00:48:09.67	0.07	15.22	-43.9	-46.9	16.7	0.00e+00	0	43	0	157286400	59	5090
2026-01-07 00:48:10.69	359.96	15.32	-43.9	-46.8	16.8	0.00e+00	0	43	0	158334976	59	5031
2026-01-07 00:48:11.69	359.85	15.41	-43.7	-46.7	16.9	0.00e+00	0	43	0	160432128	59	4961
2026-01-07 00:48:12.69	359.74	15.50	-43.7	-46.6	17.0	0.00e+00	0	43	0	162529280	59	4904
2026-01-07 00:48:13.70	359.63	15.60	-43.7	-46.7	17.0	0.00e+00	0	43	0	164626432	59	4946
2026-01-07 00:48:14.69	359.52	15.69	-43.6	-46.6	17.0	0.00e+00	0	43	0	166723584	59	4880
2026-01-07 00:48:16.02	359.37	15.81	-43.6	-46.6	17.0	0.00e+00	0	43	0	168820736	59	4893
2026-01-07 00:48:16.73	359.29	15.88	-43.7	-46.6	17.0	0.00e+00	0	43	0	169869312	59	4912
2026-01-07 00:48:18.02	359.14	16.00	-43.6	-46.7	17.0	0.00e+00	0	43	0	173015040	59	4942
2026-01-07 00:48:18.74	359.06	16.07	-43.6	-46.7	17.0	0.00e+00	0	43	0	174063616	59	4934
2026-01-07 00:48:20.02	358.91	16.19	-43.6	-46.6	17.0	0.00e+00	0	43	0	176160768	59	4925
2026-01-07 00:48:20.73	358.83	16.26	-43.5	-46.6	17.0	0.00e+00	0	43	0	177209344	59	4901
2026-01-07 00:48:22.02	358.68	16.38	-43.6	-46.7	16.9	0.00e+00	0	43	0	180355072	59	4960
2026-01-07 00:48:22.74	358.60	16.45	-43.6	-46.7	17.0	0.00e+00	0	43	0	181403648	59	4942
2026-01-07 00:48:24.14	358.43	16.59	-43.5	-46.7	17.0	0.00e+00	0	43	0	184549376	59	4956
2026-01-07 00:48:25.15	358.31	16.68	-43.7	-46.9	16.8	0.00e+00	0	43	0	185597952	59	5064
2026-01-07 00:48:26.15	358.19	16.78	-43.6	-46.8	16.9	0.00e+00	0	43	0	187695104	59	4984
2026-01-07 00:48:27.14	358.07	16.87	-43.5	-46.8	16.9	0.00e+00	0	43	0	189792256	58	5282
2026-01-07 00:48:28.15	357.95	16.97	-43.5	-46.8	16.9	0.00e+00	0	43	0	191889408	58	5284
2026-01-07 00:48:29.15	357.83	17.07	-43.6	-46.8	16.9	0.00e+00	0	43	0	192937984	58	5311
2026-01-07 00:48:30.15	357.70	17.17	-43.5	-46.7	17.0	0.00e+00	0	43	0	195035136	58	5220
2026-01-07 00:48:31.14	357.58	17.26	-43.6	-46.6	17.1	0.00e+00	0	43	0	197132288	58	5205
2026-01-07 00:48:32.14	357.46	17.36	-43.6	-46.7	16.9	0.00e+00	0	43	0	199229440	58	5220
2026-01-07 00:48:33.22	357.32	17.47	-43.6	-46.6	17.1	0.00e+00	0	43	0	201326592	58	5181
2026-01-07 00:48:34.11	357.21	17.56	-43.6	-46.5	17.2	0.00e+00	0	43	0	202375168	58	5121
2026-01-07 00:48:35.25	357.06	17.67	-43.7	-46.6	17.1	0.00e+00	0	43	0	204472320	58	5172
2026-01-07 00:48:36.11	356.95	17.75	-43.6	-46.4	17.3	0.00e+00	0	43	0	206569472	58	5067
2026-01-07 00:48:37.25	356.81	17.87	-43.7	-46.6	17.2	0.00e+00	0	43	0	208666624	58	5163
2026-01-07 00:48:38.28	356.67	17.97	-43.6	-46.5	17.2	0.00e+00	0	43	0	210763776	58	5104
2026-01-07 00:48:39.46	356.52	18.09	-43.6	-46.4	17.2	0.00e+00	0	43	0	212860928	58	5097
2026-01-07 00:48:40.32	356.41	18.17	-43.7	-46.5	17.2	0.00e+00	0	43	0	213909504	58	5119
2026-01-07 00:48:41.68	356.23	18.31	-43.6	-46.4	17.3	0.00e+00	0	43	0	217055232	58	5059
2026-01-07 00:48:42.40	356.13	18.38	-43.6	-46.4	17.3	0.00e+00	0	43	0	218103808	58	5100
2026-01-07 00:48:43.68	355.96	18.51	-43.6	-46.4	17.3	0.00e+00	0	43	0	220200960	58	5096
2026-01-07 00:48:44.40	355.86	18.58	-43.6	-46.5	17.3	0.00e+00	0	43	0	222298112	58	5116
2026-01-07 00:48:45.68	355.69	18.71	-43.6	-46.5	17.2	0.00e+00	0	43	0	224395264	58	5143
2026-01-07 00:48:46.41	355.59	18.79	-43.5	-46.4	17.3	0.00e+00	0	43	0	225443840	58	5073
2026-01-07 00:48:47.69	355.41	18.92	-43.6	-46.6	17.2	0.00e+00	0	43	0	228589568	58	5192
2026-01-07 00:48:48.46	355.30	19.00	-43.6	-46.6	17.1	0.00e+00	0	43	0	229638144	58	5179
2026-01-07 00:48:49.74	355.12	19.13	-43.7	-46.7	17.0	0.00e+00	0	43	0	231735296	58	5247
2026-01-07 00:48:50.45	355.02	19.20	-43.7	-46.7	17.0	0.00e+00	0	43	0	233832448	58	5278
2026-01-07 00:48:51.74	354.84	19.33	-43.7	-46.7	17.1	0.00e+00	0	43	0	235929600	58	5230
2026-01-07 00:48:52.46	354.74	19.41	-43.8	-46.8	17.0	0.00e+00	0	43	0	236978176	58	5302
2026-01-07 00:48:53.75	354.55	19.54	-43.9	-46.8	16.9	0.00e+00	0	43	0	239075328	58	5336
2026-01-07 00:48:54.46	354.45	19.61	-43.8	-46.7	17.0	0.00e+00	0	43	0	241172480	58	5269
2026-01-07 00:48:55.75	354.26	19.75	-44.0	-46.9	16.9	0.00e+00	0	43	0	243269632	58	5354
2026-01-07 00:48:56.70	354.12	19.85	-44.0	-46.9	16.9	0.00e+00	0	43	0	245366784	58	5356
2026-01-07 00:48:57.70	353.97	19.95	-44.0	-46.9	16.9	0.00e+00	0	43	0	247463936	58	5364
2026-01-07 00:48:58.70	353.82	20.05	-44.1	-46.9	16.8	0.00e+00	0	43	0	248512512	58	5400
2026-01-07 00:48:59.70	353.67	20.16	-44.1	-47.0	16.8	0.00e+00	0	43	0	250609664	58	5442
2026-01-07 00:49:00.70	353.52	20.26	-44.2	-47.1	16.7	0.00e+00	0	43	0	252706816	59	5170
2026-01-07 00:49:01.70	353.37	20.37	-44.2	-47.0	16.8	0.00e+00	0	43	0	254803968	59	5149
2026-01-07 00:49:02.70	353.21	20.47	-44.3	-47.1	16.6	0.00e+00	0	43	0	255852544	59	5207
2026-01-07 00:49:03.70	353.06	20.58	-44.3	-47.1	16.6	0.00e+00	0	43	0	257949696	59	5217
2026-01-07 00:49:04.70	352.90	20.69	-44.2	-47.1	16.7	0.00e+00	0	43	0	260046848	59	5183
2026-01-07 00:49:05.70	352.75	20.79	-44.3	-47.2	16.6	0.00e+00	0	43	0	262144000	59	5226
2026-01-07 00:49:06.70	352.59	20.90	-44.3	-47.2	16.6	0.00e+00	0	43	0	264241152	59	5241
2026-01-07 00:49:07.92	352.39	21.03	-44.3	-47.2	16.6	0.00e+00	0	43	0	266338304	59	5252
2026-01-07 00:49:08.80	352.25	21.12	-44.4	-47.3	16.5	0.00e+00	0	43	0	267386880	59	5288
2026-01-07 00:49:09.94	352.07	21.24	-44.3	-47.2	16.6	0.00e+00	0	43	0	269484032	59	5229
2026-01-07 00:49:10.80	351.93	21.34	-44.2	-47.1	16.7	0.00e+00	0	43	0	271581184	59	5194
2026-01-07 00:49:11.95	351.74	21.46	-44.3	-47.2	16.6	0.00e+00	0	43	0	273678336	59	5233
2026-01-07 00:49:12.81	351.60	21.55	-44.1	-47.0	16.8	0.00e+00	0	43	0	275775488	59	5151
2026-01-07 00:49:13.95	351.41	21.67	-44.1	-47.1	16.7	0.00e+00	0	43	0	277872640	59	5173
2026-01-07 00:49:14.81	351.27	21.77	-44.2	-47.2	16.7	0.00e+00	0	43	0	278921216	59	5228
2026-01-07 00:49:15.96	351.07	21.89	-44.1	-47.0	16.9	0.00e+00	0	43	0	281018368	59	5132
2026-01-07 00:49:16.82	350.93	21.98	-44.1	-47.1	16.7	0.00e+00	0	43	0	283115520	59	5169
2026-01-07 00:49:17.97	350.73	22.11	-43.9	-46.8	17.0	0.00e+00	0	43	0	285212672	59	4994
2026-01-07 00:49:18.83	350.58	22.20	-43.9	-46.8	17.0	0.00e+00	0	43	0	286261248	59	5037
2026-01-07 00:49:19.98	350.38	22.33	-43.9	-46.7	17.1	0.00e+00	0	43	0	288358400	59	4967
2026-01-07 00:49:20.84	350.23	22.42	-43.9	-46.6	17.2	0.00e+00	0	43	0	290455552	59	4918
2026-01-07 00:49:21.99	350.03	22.55	-43.8	-46.6	17.3	0.00e+00	0	43	0	292552704	59	4877
2026-01-07 00:49:22.84	349.88	22.64	-43.8	-46.5	17.3	0.00e+00	0	43	0	294649856	59	4852
2026-01-07 00:49:23.99	349.67	22.77	-43.8	-46.5	17.3	0.00e+00	0	43	0	295698432	59	4840
2026-01-07 00:49:24.85	349.52	22.86	-43.8	-46.5	17.4	0.00e+00	0	43	0	297795584	59	4826
2026-01-07 00:49:26.00	349.31	22.99	-43.8	-46.6	17.2	0.00e+00	0	43	0	299892736	59	4923
2026-01-07 00:49:26.86	349.15	23.08	-43.7	-46.6	17.2	0.00e+00	0	43	0	301989888	59	4919
2026-01-07 00:49:28.01	348.94	23.21	-43.8	-46.7	17.1	0.00e+00	0	43	0	304087040	59	4963
2026-01-07 00:49:28.86	348.79	23.30	-43.7	-46.7	17.2	0.00e+00	0	43	0	305135616	59	4939
2026-01-07 00:49:30.01	348.57	23.43	-43.6	-46.6	17.2	0.00e+00	0	43	0	307232768	59	4916
2026-01-07 00:49:30.87	348.41	23.52	-43.6	-46.6	17.2	0.00e+00	0	43	0	309329920	59	4885
2026-01-07 00:49:32.01	348.19	23.65	-43.7	-46.7	17.2	0.00e+00	0	43	0	311427072	59	4934
2026-01-07 00:49:32.87	348.03	23.75	-43.7	-46.7	17.2	0.00e+00	0	43	0	312475648	59	4948
2026-01-07 00:49:34.09	347.80	23.88	-43.7	-46.6	17.3	0.00e+00	0	43	0	315621376	59	4901
2026-01-07 00:49:34.95	347.63	23.98	-43.8	-46.6	17.2	0.00e+00	0	43	0	316669952	59	4913
2026-01-07 00:49:36.10	347.41	24.11	-43.8	-46.6	17.2	0.00e+00	0	43	0	318767104	59	4910
2026-01-07 00:49:36.96	347.24	24.20	-44.0	-46.7	17.1	0.00e+00	0	43	0	320864256	59	4948
2026-01-07 00:49:38.10	347.01	24.33	-44.0	-46.7	17.2	0.00e+00	0	43	0	322961408	59	4952
2026-01-07 00:49:39.02	346.83	24.43	-44.0	-46.8	17.1	0.00e+00	0	43	0	324009984	59	4999
2026-01-07 00:49:40.02	346.63	24.54	-43.8	-46.5	17.3	0.00e+00	0	43	0	326107136	59	4860
2026-01-07 00:49:41.02	346.43	24.65	-43.8	-46.6	17.3	0.00e+00	0	43	0	328204288	59	4889
2026-01-07 00:49:42.03	346.22	24.77	-43.9	-46.7	17.2	0.00e+00	0	43	0	330301440	59	4983
2026-01-07 00:49:43.03	346.02	24.88	-44.0	-46.9	17.0	0.00e+00	0	43	0	332398592	59	5055
2026-01-07 00:49:44.03	345.81	24.99	-44.1	-47.1	16.7	0.00e+00	0	43	0	333447168	59	5218
2026-01-07 00:49:45.03	345.60	25.10	-44.3	-47.4	16.5	0.00e+00	0	43	0	335544320	59	5392
2026-01-07 00:49:46.03	345.39	25.22	-44.5	-47.6	16.2	0.00e+00	0	43	0	337641472	59	5511
2026-01-07 00:49:47.03	345.18	25.33	-44.6	-47.7	16.2	0.00e+00	0	43	0	339738624	60	5278
2026-01-07 00:49:48.03	344.97	25.44	-44.7	-47.9	16.1	0.00e+00	0	43	0	340787200	60	5346
2026-01-07 00:49:49.03	344.76	25.55	-44.9	-48.1	15.9	0.00e+00	0	43	0	342884352	60	5489
2026-01-07 00:49:50.03	344.54	25.66	-44.9	-48.1	15.9	0.00e+00	0	43	0	344981504	60	5471
2026-01-07 00:49:51.04	344.32	25.78	-45.0	-48.2	15.8	0.00e+00	0	44	0	347078656	60	5532
2026-01-07 00:49:52.18	344.07	25.91	-44.9	-48.2	15.7	0.00e+00	0	43	0	349175808	60	5576
2026-01-07 00:49:53.04	343.88	26.00	-44.9	-48.2	15.8	0.00e+00	0	43	0	350224384	60	5575
2026-01-07 00:49:54.39	343.59	26.15	-44.8	-48.3	15.7	0.00e+00	0	43	0	353370112	60	5634
2026-01-07 00:49:55.11	343.42	26.24	-44.8	-48.3	15.7	0.00e+00	0	43	0	354418688	60	5651
2026-01-07 00:49:56.40	343.13	26.38	-44.8	-48.5	15.5	0.00e+00	0	43	0	357564416	60	5731
2026-01-07 00:49:57.11	342.97	26.46	-44.8	-48.3	15.6	0.00e+00	0	43	0	358612992	60	5646
2026-01-07 00:49:58.40	342.68	26.61	-44.6	-48.0	16.0	0.00e+00	0	43	0	360710144	60	5449
2026-01-07 00:49:59.12	342.51	26.69	-44.6	-48.0	16.0	0.00e+00	0	43	0	361758720	60	5406
2026-01-07 00:50:00.40	342.22	26.83	-44.6	-47.7	16.3	0.00e+00	0	43	0	364904448	60	5236
2026-01-07 00:50:01.23	342.02	26.92	-44.7	-47.8	16.2	0.00e+00	0	43	0	365953024	60	5303
2026-01-07 00:50:02.37	341.75	27.05	-44.8	-47.9	16.1	0.00e+00	0	43	0	368050176	60	5389
2026-01-07 00:50:03.23	341.55	27.15	-44.9	-48.0	15.9	0.00e+00	0	43	0	370147328	60	5451
2026-01-07 00:50:04.37	341.28	27.27	-44.9	-48.1	15.8	0.00e+00	0	43	0	372244480	60	5512
2026-01-07 00:50:05.23	341.07	27.37	-44.9	-48.1	15.9	0.00e+00	0	43	0	373293056	60	5493
2026-01-07 00:50:06.38	340.79	27.50	-44.9	-48.2	15.8	0.00e+00	0	43	0	375390208	60	5562
2026-01-07 00:50:07.23	340.59	27.59	-44.9	-48.3	15.7	0.00e+00	0	43	0	377487360	60	5616
2026-01-07 00:50:08.37	340.31	27.72	-44.8	-48.1	15.9	0.00e+00	0	43	0	379584512	60	5502
2026-01-07 00:50:09.23	340.09	27.82	-44.8	-48.2	15.8	0.00e+00	0	43	0	380633088	60	5538
2026-01-07 00:50:10.51	339.77	27.96	-44.9	-48.2	15.8	0.00e+00	0	43	0	383778816	60	5564
2026-01-07 00:50:11.24	339.59	28.04	-44.8	-48.0	16.0	0.00e+00	0	43	0	384827392	60	5429
2026-01-07 00:50:12.52	339.27	28.18	-45.0	-48.1	15.9	0.00e+00	0	43	0	386924544	60	5506
2026-01-07 00:50:13.24	339.09	28.26	-44.9	-48.0	16.0	0.00e+00	0	43	0	389021696	60	5432
2026-01-07 00:50:14.53	338.76	28.40	-44.9	-47.9	16.1	0.00e+00	0	43	0	391118848	60	5382
2026-01-07 00:50:15.25	338.57	28.48	-44.9	-48.0	16.0	0.00e+00	0	44	0	392167424	60	5429
2026-01-07 00:50:16.54	338.23	28.63	-44.8	-47.9	16.0	0.00e+00	0	43	0	394264576	60	5399
2026-01-07 00:50:17.25	338.05	28.70	-44.8	-48.0	16.0	0.00e+00	0	43	0	396361728	60	5451
2026-01-07 00:50:18.54	337.71	28.85	-44.9	-48.1	15.9	0.00e+00	0	43	0	398458880	60	5515
2026-01-07 00:50:19.25	337.52	28.92	-44.9	-48.2	15.8	0.00e+00	0	43	0	399507456	60	5552
2026-01-07 00:50:20.54	337.18	29.06	-44.8	-48.1	15.9	0.00e+00	0	43	0	402653184	60	5474
2026-01-07 00:50:21.26	336.98	29.14	-44.8	-48.0	16.0	0.00e+00	0	43	0	403701760	60	5422
2026-01-07 00:50:22.55	336.63	29.28	-44.8	-48.0	16.0	0.00e+00	0	43	0	405798912	60	5441
2026-01-07 00:50:23.26	336.44	29.36	-44.8	-48.0	16.0	0.00e+00	0	43	0	407896064	60	5429
2026-01-07 00:50:24.55	336.09	29.50	-44.7	-47.9	16.1	0.00e+00	0	43	0	409993216	60	5367
2026-01-07 00:50:25.27	335.89	29.58	-44.7	-48.0	16.0	0.00e+00	0	43	0	411041792	60	5434
2026-01-07 00:50:26.55	335.53	29.71	-44.5	-47.9	16.1	0.00e+00	0	43	0	413138944	60	5350
2026-01-07 00:50:27.27	335.33	29.79	-44.5	-47.9	16.1	0.00e+00	0	43	0	415236096	60	5362
2026-01-07 00:50:28.56	334.97	29.93	-44.4	-47.8	16.2	0.00e+00	0	43	0	417333248	60	5305
2026-01-07 00:50:29.27	334.76	30.00	-44.6	-48.0	16.0	0.00e+00	0	43	0	418381824	60	5446
2026-01-07 00:50:30.56	334.40	30.14	-44.7	-48.1	15.9	0.00e+00	0	43	0	421527552	60	5482
2026-01-07 00:50:31.28	334.19	30.21	-44.8	-48.2	15.9	0.00e+00	0	43	0	422576128	60	5534
2026-01-07 00:50:32.56	333.82	30.35	-45.2	-48.6	15.4	0.00e+00	0	43	0	424673280	61	5490
2026-01-07 00:50:33.28	333.61	30.42	-45.5	-48.9	15.1	0.00e+00	0	43	0	425721856	61	5693
2026-01-07 00:50:34.56	333.23	30.56	-45.7	-49.3	14.8	7.00e-07	0	43	0	428867584	62	5597
2026-01-07 00:50:35.28	333.02	30.63	-45.9	-49.6	14.4	7.00e-07	0	43	0	429916160	62	5841
2026-01-07 00:50:36.57	332.64	30.76	-46.0	-49.8	14.2	0.00e+00	0	43	0	432013312	62	5936
2026-01-07 00:50:37.28	332.42	30.84	-45.9	-49.7	14.3	7.00e-07	0	43	0	434110464	62	5876
2026-01-07 00:50:38.63	332.02	30.97	-45.9	-49.8	14.2	1.50e-06	0	43	0	436207616	62	5945
2026-01-07 00:50:39.35	331.80	31.05	-45.9	-50.0	14.0	1.50e-06	0	44	0	437256192	62	6100
2026-01-07 00:50:40.70	331.39	31.18	-46.1	-50.4	13.6	1.06e-05	0	44	0	440401920	62	6412
2026-01-07 00:50:41.41	331.17	31.25	-46.1	-50.6	13.4	1.44e-05	0	43	0	441450496	62	6543
2026-01-07 00:50:42.69	330.78	31.38	-45.9	-50.4	13.5	1.83e-05	0	43	0	443547648	62	6368
2026-01-07 00:50:43.41	330.55	31.45	-45.9	-50.3	13.7	6.10e-06	0	43	0	445644800	62	6315
2026-01-07 00:50:44.70	330.15	31.58	-46.1	-50.5	13.5	8.30e-06	0	43	0	447741952	62	6432
2026-01-07 00:50:45.41	329.92	31.65	-46.3	-50.7	13.3	1.67e-05	0	43	0	448790528	63	6262
2026-01-07 00:50:46.70	329.52	31.77	-46.5	-51.0	13.0	4.42e-05	0	43	0	450887680	63	6464
2026-01-07 00:50:47.41	329.29	31.84	-46.6	-51.0	12.9	4.80e-05	0	43	0	452984832	63	6479
2026-01-07 00:50:48.70	328.88	31.97	-46.7	-51.3	12.6	6.40e-05	0	43	0	455081984	64	6306
2026-01-07 00:50:49.41	328.65	32.03	-46.7	-51.2	12.7	8.08e-05	0	43	0	456130560	64	6206
2026-01-07 00:50:50.70	328.23	32.15	-47.0	-51.5	12.4	1.32e-04	0	43	0	459276288	64	6457
2026-01-07 00:50:51.42	328.00	32.22	-47.1	-51.8	12.0	1.71e-04	0	43	0	460324864	64	6691
2026-01-07 00:50:52.71	327.57	32.34	-47.3	-52.0	11.8	2.84e-04	0	43	0	462422016	65	6443
2026-01-07 00:50:53.64	327.27	32.43	-47.3	-52.1	11.8	3.56e-04	0	43	0	464519168	65	6543
2026-01-07 00:50:54.65	326.93	32.52	-47.2	-52.0	11.8	3.04e-04	0	43	0	466616320	65	6460
2026-01-07 00:50:55.65	326.60	32.61	-47.2	-52.2	11.6	4.21e-04	0	44	0	467664896	65	6585
2026-01-07 00:50:56.65	326.26	32.70	-47.2	-52.3	11.5	7.01e-04	0	43	0	469762048	65	6704
2026-01-07 00:50:57.64	325.93	32.79	-47.2	-52.5	11.3	1.07e-03	0	43	0	471859200	65	6872
2026-01-07 00:50:58.64	325.59	32.87	-47.0	-52.3	11.5	1.02e-03	0	43	0	473956352	65	6710
2026-01-07 00:50:59.64	325.25	32.96	-46.7	-52.0	11.9	5.86e-04	0	44	0	476053504	65	6433
2026-01-07 00:51:00.64	324.90	33.05	-46.2	-50.8	13.1	6.40e-05	0	43	0	477102080	64	5972
2026-01-07 00:51:01.64	324.56	33.13	-46.1	-50.4	13.5	9.10e-06	0	44	0	479199232	64	5708
2026-01-07 00:51:02.64	324.21	33.21	-46.1	-50.2	13.7	9.10e-06	0	43	0	481296384	64	5549
2026-01-07 00:51:03.65	323.86	33.30	-46.2	-50.3	13.6	4.50e-06	0	43	0	483393536	64	5645
2026-01-07 00:51:04.65	323.51	33.38	-46.4	-50.5	13.4	8.30e-06	0	44	0	485490688	64	5750
2026-01-07 00:51:05.84	323.09	33.48	-46.4	-50.5	13.4	1.90e-05	0	43	0	487587840	64	5748
2026-01-07 00:51:06.73	322.77	33.55	-46.2	-50.1	13.9	8.30e-06	0	43	0	488636416	64	5492
2026-01-07 00:51:08.06	322.30	33.65	-46.1	-49.9	14.0	3.00e-06	0	43	0	491782144	64	5378
2026-01-07 00:51:08.77	322.05	33.71	-46.0	-49.8	14.1	7.00e-07	0	43	0	492830720	64	5294
2026-01-07 00:51:10.27	321.51	33.82	-46.1	-49.9	14.0	7.00e-07	0	43	0	495976448	64	5380
2026-01-07 00:51:10.98	321.25	33.87	-46.0	-49.9	14.1	2.20e-06	0	44	0	497025024	63	5672
2026-01-07 00:51:12.27	320.78	33.97	-45.8	-49.9	14.1	2.20e-06	0	43	0	499122176	63	5670
2026-01-07 00:51:12.99	320.52	34.02	-45.7	-49.8	14.2	2.20e-06	0	43	0	500170752	63	5598
2026-01-07 00:51:14.28	320.05	34.12	-45.3	-49.3	14.8	0.00e+00	0	44	0	503316480	62	5604
2026-01-07 00:51:14.99	319.79	34.17	-45.0	-48.7	15.3	0.00e+00	0	43	0	504365056	61	5586
2026-01-07 00:51:16.28	319.31	34.25	-44.9	-48.6	15.4	0.00e+00	0	43	0	506462208	61	5477
2026-01-07 00:51:16.99	319.04	34.30	-44.7	-48.1	15.9	0.00e+00	0	44	0	508559360	61	5166
2026-01-07 00:51:18.28	318.56	34.39	-44.6	-47.8	16.2	7.00e-07	0	43	0	510656512	61	5013
2026-01-07 00:51:19.04	318.28	34.44	-44.7	-47.8	16.2	0.00e+00	0	43	0	511705088	61	5012
2026-01-07 00:51:20.65	317.67	34.54	-44.6	-47.6	16.4	0.00e+00	0	43	0	514850816	61	4874
2026-01-07 00:51:21.49	317.36	34.59	-44.5	-47.4	16.5	0.00e+00	0	43	0	516947968	61	4806
2026-01-07 00:51:22.64	316.92	34.67	-44.4	-47.3	16.6	0.00e+00	0	43	0	519045120	60	5021
2026-01-07 00:51:23.50	316.59	34.72	-44.5	-47.4	16.6	0.00e+00	0	43	0	520093696	60	5084
2026-01-07 00:51:24.65	316.15	34.78	-44.5	-47.3	16.6	0.00e+00	0	43	0	522190848	60	5035
2026-01-07 00:51:25.50	315.83	34.83	-44.5	-47.4	16.6	0.00e+00	0	43	0	524288000	60	5061
2026-01-07 00:51:26.65	315.38	34.90	-44.4	-47.3	16.7	0.00e+00	0	43	0	526385152	60	5004
2026-01-07 00:51:27.50	315.05	34.94	-44.3	-47.0	16.9	0.00e+00	0	44	0	527433728	60	4869
2026-01-07 00:51:28.65	314.61	35.00	-44.1	-46.8	17.2	0.00e+00	0	44	0	529530880	60	4729
2026-01-07 00:51:29.59	314.24	35.05	-44.0	-46.7	17.2	0.00e+00	0	43	0	531628032	60	4689
2026-01-07 00:51:30.75	313.79	35.11	-43.8	-46.4	17.5	0.00e+00	0	44	0	533725184	59	4799
2026-01-07 00:51:31.63	313.45	35.15	-43.8	-46.3	17.6	0.00e+00	0	44	0	535822336	59	4747
2026-01-07 00:51:32.96	312.92	35.22	-43.9	-46.5	17.3	0.00e+00	0	44	0	537919488	59	4865
2026-01-07 00:51:33.67	312.64	35.25	-43.9	-46.6	17.3	0.00e+00	0	44	0	538968064	59	4885
2026-01-07 00:51:35.20	312.04	35.32	-43.9	-46.6	17.4	0.00e+00	0	43	0	542113792	59	4880
2026-01-07 00:51:35.91	311.76	35.35	-43.7	-46.4	17.5	0.00e+00	0	44	0	543162368	59	4763
2026-01-07 00:51:37.27	311.22	35.40	-43.4	-45.9	18.0	0.00e+00	0	43	0	546308096	58	4769
2026-01-07 00:51:38.25	310.83	35.44	-43.2	-45.7	18.2	0.00e+00	0	43	0	548405248	58	4659
2026-01-07 00:51:39.25	310.43	35.48	-43.0	-45.5	18.4	0.00e+00	0	44	0	549453824	58	4565
2026-01-07 00:51:40.25	310.03	35.51	-43.0	-45.5	18.4	0.00e+00	0	44	0	551550976	58	4552
2026-01-07 00:51:41.25	309.62	35.55	-43.1	-45.6	18.2	0.00e+00	0	43	0	553648128	58	4646
2026-01-07 00:51:42.26	309.22	35.58	-43.2	-45.8	18.1	0.00e+00	0	44	0	555745280	58	4720
2026-01-07 00:51:43.25	308.82	35.61	-43.3	-45.8	18.1	0.00e+00	0	43	0	557842432	58	4715
2026-01-07 00:51:44.25	308.42	35.64	-43.0	-45.4	18.4	0.00e+00	0	43	0	558891008	58	4519
2026-01-07 00:51:45.26	308.01	35.67	-43.0	-45.4	18.4	0.00e+00	0	44	0	560988160	57	4776
2026-01-07 00:51:46.26	307.60	35.70	-43.0	-45.4	18.5	0.00e+00	0	43	0	563085312	57	4770
2026-01-07 00:51:47.33	307.17	35.72	-43.0	-45.4	18.4	0.00e+00	0	43	0	565182464	57	4788
2026-01-07 00:51:48.23	306.80	35.74	-42.7	-45.1	18.8	0.00e+00	0	43	0	566231040	57	4620
2026-01-07 00:51:49.25	306.39	35.76	-42.5	-44.8	19.0	0.00e+00	0	43	0	568328192	57	4490
2026-01-07 00:51:50.43	305.91	35.79	-42.4	-44.7	19.0	0.00e+00	0	43	0	570425344	56	4679
2026-01-07 00:51:51.32	305.54	35.80	-42.5	-44.8	19.0	0.00e+00	0	43	0	572522496	56	4739
2026-01-07 00:51:52.46	305.08	35.82	-42.8	-45.2	18.7	0.00e+00	0	44	0	574619648	56	4930
2026-01-07 00:51:53.32	304.73	35.83	-42.9	-45.4	18.5	0.00e+00	0	43	0	576716800	56	5062
2026-01-07 00:51:54.46	304.26	35.85	-43.2	-45.8	18.1	0.00e+00	0	43	0	578813952	57	4994
2026-01-07 00:51:55.32	303.91	35.86	-43.3	-46.0	17.9	0.00e+00	0	43	0	579862528	57	5106
2026-01-07 00:51:56.46	303.44	35.87	-43.4	-46.0	17.9	0.00e+00	0	43	0	581959680	57	5125
2026-01-07 00:51:57.32	303.09	35.88	-43.5	-46.1	17.8	0.00e+00	0	44	0	584056832	57	5164
2026-01-07 00:51:58.47	302.61	35.88	-43.5	-46.1	17.8	0.00e+00	0	43	0	586153984	57	5184
2026-01-07 00:51:59.32	302.27	35.89	-43.7	-46.3	17.6	0.00e+00	0	43	0	587202560	57	5322
2026-01-07 00:52:00.47	301.79	35.89	-43.8	-46.5	17.4	0.00e+00	0	43	0	589299712	58	5142
2026-01-07 00:52:01.33	301.44	35.89	-43.8	-46.6	17.3	0.00e+00	0	43	0	591396864	58	5194
2026-01-07 00:52:02.46	300.98	35.89	-43.9	-46.7	17.2	0.00e+00	0	43	0	593494016	58	5252
2026-01-07 00:52:03.32	300.62	35.89	-43.9	-46.6	17.3	0.00e+00	0	43	0	594542592	58	5185
2026-01-07 00:52:04.47	300.15	35.89	-44.0	-46.7	17.2	0.00e+00	0	43	0	596639744	58	5268
2026-01-07 00:52:05.32	299.80	35.88	-44.0	-46.8	17.1	0.00e+00	0	44	0	598736896	58	5313
2026-01-07 00:52:06.61	299.27	35.87	-44.1	-46.8	17.1	0.00e+00	0	43	0	600834048	58	5300
2026-01-07 00:52:07.33	298.98	35.87	-44.0	-46.7	17.2	0.00e+00	0	44	0	602931200	58	5232
2026-01-07 00:52:08.61	298.45	35.85	-43.8	-46.5	17.4	0.00e+00	0	43	0	605028352	58	5110
2026-01-07 00:52:09.33	298.16	35.84	-43.6	-46.2	17.7	0.00e+00	0	43	0	606076928	58	4940
2026-01-07 00:52:10.62	297.63	35.83	-43.5	-46.0	17.8	0.00e+00	0	43	0	608174080	58	4865
2026-01-07 00:52:11.33	297.34	35.81	-43.5	-46.1	17.8	0.00e+00	0	43	0	610271232	58	4885
2026-01-07 00:52:12.62	296.81	35.79	-43.7	-46.3	17.6	0.00e+00	0	43	0	612368384	58	5025
2026-01-07 00:52:13.33	296.52	35.78	-43.9	-46.5	17.3	0.00e+00	0	43	0	613416960	58	5151
2026-01-07 00:52:14.64	295.99	35.75	-44.3	-47.2	16.7	0.00e+00	0	43	0	616562688	59	5259
2026-01-07 00:52:15.59	295.60	35.73	-44.5	-47.5	16.4	0.00e+00	0	43	0	617611264	59	5408
2026-01-07 00:52:16.60	295.19	35.71	-44.6	-47.6	16.3	0.00e+00	0	43	0	619708416	59	5487
2026-01-07 00:52:17.60	294.79	35.68	-44.4	-47.4	16.6	0.00e+00	0	43	0	621805568	59	5341
2026-01-07 00:52:18.60	294.38	35.65	-44.2	-47.1	16.7	0.00e+00	0	43	0	623902720	59	5183
2026-01-07 00:52:20.00	293.82	35.61	-44.4	-47.3	16.6	0.00e+00	0	43	0	625999872	59	5293
2026-01-07 00:52:20.71	293.53	35.59	-44.5	-47.4	16.4	0.00e+00	0	43	0	628097024	59	5358
2026-01-07 00:52:21.99	293.01	35.55	-44.6	-47.5	16.4	0.00e+00	0	43	0	630194176	59	5418
2026-01-07 00:52:22.71	292.72	35.53	-44.7	-47.6	16.3	0.00e+00	0	44	0	631242752	60	5210
2026-01-07 00:52:24.41	292.04	35.47	-44.9	-48.0	16.0	7.00e-07	0	44	0	634388480	60	5416
2026-01-07 00:52:24.98	291.81	35.44	-45.0	-48.2	15.8	0.00e+00	0	43	0	635437056	60	5546
2026-01-07 00:52:26.68	291.14	35.38	-45.2	-48.5	15.6	0.00e+00	0	43	0	638582784	61	5405
2026-01-07 00:52:27.29	290.89	35.35	-45.2	-48.4	15.5	0.00e+00	0	43	0	639631360	61	5388
2026-01-07 00:52:28.87	290.27	35.28	-45.3	-48.7	15.3	0.00e+00	0	43	0	642777088	61	5532
2026-01-07 00:52:29.48	290.03	35.26	-45.4	-48.7	15.2	0.00e+00	0	44	0	643825664	61	5569
2026-01-07 00:52:31.05	289.41	35.19	-45.5	-48.8	15.2	0.00e+00	0	43	0	646971392	61	5613
2026-01-07 00:52:31.68	289.16	35.16	-45.5	-48.7	15.2	0.00e+00	0	43	0	648019968	61	5576
2026-01-07 00:52:33.41	288.48	35.07	-45.4	-48.6	15.4	0.00e+00	0	43	0	651165696	61	5504
2026-01-07 00:52:33.98	288.26	35.04	-45.3	-48.6	15.4	0.00e+00	0	43	0	652214272	61	5467
2026-01-07 00:52:35.65	287.61	34.95	-45.2	-48.4	15.5	0.00e+00	0	44	0	655360000	61	5364
2026-01-07 00:52:36.22	287.39	34.92	-45.1	-48.2	15.7	0.00e+00	0	43	0	656408576	61	5271
2026-01-07 00:52:37.83	286.77	34.83	-45.0	-48.1	15.9	0.00e+00	0	43	0	659554304	61	5166
2026-01-07 00:52:38.40	286.55	34.80	-45.2	-48.3	15.7	0.00e+00	0	43	0	660602880	61	5322
2026-01-07 00:52:40.06	285.91	34.70	-45.3	-48.5	15.4	0.00e+00	0	44	0	663748608	61	5460
2026-01-07 00:52:40.73	285.66	34.66	-45.4	-48.8	15.2	0.00e+00	0	43	0	664797184	61	5608
2026-01-07 00:52:42.16	285.11	34.57	-45.7	-49.1	14.8	0.00e+00	0	44	0	667942912	62	5471
2026-01-07 00:52:42.88	284.84	34.53	-45.6	-49.0	15.0	0.00e+00	0	44	0	668991488	62	5427
2026-01-07 00:52:44.17	284.35	34.45	-45.4	-48.7	15.2	0.00e+00	0	43	0	671088640	62	5267
2026-01-07 00:52:44.88	284.09	34.40	-45.3	-48.5	15.4	0.00e+00	0	43	0	673185792	62	5137
2026-01-07 00:52:46.17	283.61	34.31	-45.1	-48.3	15.6	0.00e+00	0	44	0	675282944	62	4995
2026-01-07 00:52:46.89	283.34	34.26	-45.0	-48.1	15.8	0.00e+00	0	43	0	676331520	62	4917
2026-01-07 00:52:48.24	282.84	34.17	-44.5	-47.5	16.4	0.00e+00	0	43	0	679477248	61	4816
2026-01-07 00:52:48.96	282.57	34.12	-44.4	-47.3	16.6	0.00e+00	0	43	0	680525824	60	5002
2026-01-07 00:52:50.25	282.10	34.03	-44.5	-47.4	16.5	0.00e+00	0	43	0	682622976	60	5053
2026-01-07 00:52:50.96	281.84	33.98	-44.7	-47.6	16.3	0.00e+00	0	43	0	684720128	60	5194
2026-01-07 00:52:52.26	281.36	33.88	-44.8	-47.8	16.1	0.00e+00	0	44	0	686817280	60	5286
2026-01-07 00:52:52.97	281.11	33.83	-44.9	-47.9	16.0	0.00e+00	0	43	0	687865856	60	5385
2026-01-07 00:52:54.26	280.64	33.73	-45.0	-48.1	15.9	0.00e+00	0	43	0	691011584	60	5483
2026-01-07 00:52:54.98	280.38	33.67	-45.0	-48.1	15.8	0.00e+00	0	43	0	692060160	60	5483
2026-01-07 00:52:56.27	279.92	33.57	-44.9	-48.0	15.9	0.00e+00	0	43	0	694157312	60	5425
2026-01-07 00:52:56.98	279.67	33.51	-44.7	-47.7	16.2	0.00e+00	0	44	0	695205888	60	5238
2026-01-07 00:52:58.27	279.21	33.41	-44.5	-47.5	16.5	0.00e+00	0	43	0	698351616	60	5115
2026-01-07 00:52:58.99	278.96	33.35	-44.5	-47.5	16.5	0.00e+00	0	43	0	699400192	60	5118
2026-01-07 00:53:00.27	278.51	33.25	-44.7	-47.7	16.2	0.00e+00	0	43	0	701497344	60	5278
2026-01-07 00:53:00.99	278.26	33.18	-44.9	-47.9	16.0	0.00e+00	0	44	0	703594496	60	5370
2026-01-07 00:53:02.28	277.81	33.08	-45.0	-48.0	15.9	0.00e+00	0	43	0	705691648	60	5450
2026-01-07 00:53:02.99	277.57	33.02	-45.0	-48.1	15.8	0.00e+00	0	43	0	706740224	60	5499
2026-01-07 00:53:04.28	277.13	32.90	-45.3	-48.6	15.4	0.00e+00	0	43	0	708837376	61	5468
2026-01-07 00:53:04.99	276.88	32.84	-45.4	-48.7	15.3	0.00e+00	0	43	0	710934528	61	5556
2026-01-07 00:53:06.28	276.44	32.73	-45.5	-48.8	15.1	0.00e+00	0	44	0	713031680	61	5642
2026-01-07 00:53:07.00	276.20	32.66	-45.4	-48.7	15.2	0.00e+00	0	44	0	714080256	61	5575
2026-01-07 00:53:08.29	275.77	32.55	-45.4	-48.7	15.3	0.00e+00	0	44	0	717225984	61	5567
2026-01-07 00:53:09.00	275.53	32.48	-45.3	-48.6	15.3	0.00e+00	0	43	0	718274560	61	5487
2026-01-07 00:53:10.29	275.10	32.36	-45.2	-48.4	15.6	0.00e+00	0	44	0	720371712	61	5351
2026-01-07 00:53:11.01	274.87	32.30	-45.1	-48.3	15.6	0.00e+00	0	43	0	721420288	61	5297
2026-01-07 00:53:12.30	274.44	32.18	-45.2	-48.5	15.5	0.00e+00	0	43	0	724566016	61	5419
2026-01-07 00:53:13.01	274.21	32.11	-45.2	-48.4	15.5	0.00e+00	0	43	0	725614592	61	5364
2026-01-07 00:53:14.30	273.79	31.99	-45.4	-48.7	15.3	0.00e+00	0	44	0	727711744	61	5568
2026-01-07 00:53:15.01	273.56	31.92	-45.4	-48.7	15.3	0.00e+00	0	43	0	729808896	61	5567
2026-01-07 00:53:16.30	273.15	31.80	-45.7	-49.2	14.8	0.00e+00	0	43	0	731906048	62	5568
2026-01-07 00:53:17.02	272.92	31.73	-45.8	-49.4	14.6	1.50e-06	0	43	0	732954624	62	5709
2026-01-07 00:53:18.30	272.51	31.60	-45.8	-49.4	14.5	7.00e-07	0	44	0	736100352	62	5711
2026-01-07 00:53:19.02	272.29	31.53	-45.8	-49.3	14.6	0.00e+00	0	43	0	737148928	62	5630
2026-01-07 00:53:20.31	271.88	31.40	-45.8	-49.2	14.7	0.00e+00	0	44	0	739246080	62	5587
2026-01-07 00:53:21.02	271.66	31.33	-45.6	-49.0	14.9	0.00e+00	0	43	0	740294656	62	5462
2026-01-07 00:53:22.31	271.26	31.20	-45.7	-49.1	14.9	0.00e+00	0	43	0	743440384	62	5482
2026-01-07 00:53:23.03	271.04	31.13	-45.5	-48.8	15.2	0.00e+00	0	43	0	744488960	62	5287
2026-01-07 00:53:24.31	270.65	31.00	-45.6	-49.0	15.0	0.00e+00	0	43	0	746586112	62	5407
2026-01-07 00:53:25.03	270.43	30.93	-45.5	-48.8	15.2	0.00e+00	0	43	0	748683264	62	5293
2026-01-07 00:53:26.31	270.05	30.80	-45.5	-48.8	15.1	0.00e+00	0	43	0	750780416	62	5318
2026-01-07 00:53:27.03	269.83	30.72	-45.5	-48.8	15.0	0.00e+00	0	43	0	751828992	62	5333
2026-01-07 00:53:28.32	269.45	30.59	-45.5	-48.9	15.1	7.00e-07	0	44	0	753926144	62	5372
2026-01-07 00:53:29.03	269.24	30.52	-45.4	-48.7	15.2	0.00e+00	0	43	0	756023296	62	5276
2026-01-07 00:53:30.32	268.86	30.38	-45.3	-48.6	15.4	0.00e+00	0	43	0	758120448	62	5165
2026-01-07 00:53:31.04	268.65	30.31	-45.3	-48.5	15.4	0.00e+00	0	43	0	759169024	62	5146
2026-01-07 00:53:32.55	268.21	30.15	-45.2	-48.4	15.6	0.00e+00	0	43	0	762314752	62	5060
2026-01-07 00:53:33.27	268.01	30.07	-45.2	-48.5	15.5	0.00e+00	0	43	0	763363328	62	5130
2026-01-07 00:53:34.56	267.64	29.93	-45.2	-48.4	15.6	0.00e+00	0	43	0	766509056	62	5065
2026-01-07 00:53:35.27	267.43	29.86	-45.3	-48.5	15.4	0.00e+00	0	43	0	767557632	62	5145
2026-01-07 00:53:36.56	267.07	29.72	-45.4	-48.8	15.2	0.00e+00	0	44	0	769654784	62	5292
2026-01-07 00:53:37.29	266.87	29.64	-45.4	-48.8	15.2	0.00e+00	0	43	0	770703360	62	5287
2026-01-07 00:53:38.58	266.51	29.50	-45.3	-48.6	15.3	0.00e+00	0	43	0	773849088	62	5192
2026-01-07 00:53:39.29	266.31	29.43	-45.3	-48.6	15.3	0.00e+00	0	43	0	774897664	62	5213
2026-01-07 00:53:40.58	265.96	29.29	-45.1	-48.3	15.6	0.00e+00	0	43	0	776994816	62	5012
2026-01-07 00:53:41.30	265.76	29.21	-44.9	-48.1	15.8	0.00e+00	0	43	0	779091968	61	5162
2026-01-07 00:53:42.59	265.41	29.07	-44.8	-47.8	16.1	0.00e+00	0	43	0	781189120	61	4993
2026-01-07 00:53:43.43	265.19	28.98	-44.8	-47.8	16.1	0.00e+00	0	43	0	782237696	61	5003
2026-01-07 00:53:44.57	264.88	28.85	-44.9	-48.0	15.9	0.00e+00	0	43	0	784334848	61	5118
2026-01-07 00:53:45.62	264.60	28.74	-44.9	-48.0	15.9	0.00e+00	0	44	0	786432000	61	5148
2026-01-07 00:53:46.70	264.32	28.62	-45.0	-48.3	15.7	0.00e+00	0	43	0	788529152	61	5289
2026-01-07 00:53:47.56	264.09	28.52	-44.8	-48.0	15.9	0.00e+00	0	44	0	790626304	61	5140
2026-01-07 00:53:48.71	263.80	28.39	-44.7	-47.8	16.1	0.00e+00	0	43	0	792723456	61	5020
2026-01-07 00:53:49.56	263.58	28.30	-44.6	-47.6	16.3	0.00e+00	0	44	0	793772032	61	4913
2026-01-07 00:53:50.71	263.28	28.17	-44.4	-47.4	16.5	0.00e+00	0	44	0	795869184	60	5076
2026-01-07 00:53:51.57	263.06	28.08	-44.1	-46.9	17.0	0.00e+00	0	43	0	797966336	60	4794
2026-01-07 00:53:52.71	262.78	27.95	-44.0	-46.7	17.1	0.00e+00	0	44	0	800063488	59	4982
2026-01-07 00:53:53.57	262.56	27.85	-43.9	-46.7	17.2	0.00e+00	0	43	0	802160640	59	4952
2026-01-07 00:53:54.75	262.27	27.72	-44.0	-46.7	17.1	0.00e+00	0	44	0	804257792	59	4970
2026-01-07 00:53:55.61	262.06	27.63	-44.0	-46.7	17.1	0.00e+00	0	44	0	805306368	59	4972
2026-01-07 00:53:56.76	261.77	27.50	-44.0	-46.8	17.0	0.00e+00	0	43	0	807403520	59	5020
2026-01-07 00:53:57.61	261.57	27.40	-44.0	-46.8	17.1	0.00e+00	0	43	0	809500672	59	4999
2026-01-07 00:53:58.76	261.29	27.27	-44.0	-46.7	17.2	0.00e+00	0	44	0	811597824	59	4945
2026-01-07 00:53:59.68	261.07	27.17	-43.8	-46.4	17.4	0.00e+00	0	44	0	812646400	59	4811
2026-01-07 00:54:00.86	260.79	27.04	-43.6	-46.2	17.6	0.00e+00	0	44	0	815792128	59	4676
2026-01-07 00:54:01.72	260.58	26.94	-43.2	-45.7	18.1	0.00e+00	0	44	0	816840704	58	4670
2026-01-07 00:54:03.07	260.27	26.79	-43.0	-45.5	18.3	0.00e+00	0	44	0	819986432	58	4576
2026-01-07 00:54:03.79	260.10	26.71	-42.9	-45.3	18.5	0.00e+00	0	44	0	821035008	57	4732
2026-01-07 00:54:05.07	259.80	26.56	-42.9	-45.3	18.4	0.00e+00	0	44	0	823132160	57	4741
2026-01-07 00:54:05.79	259.64	26.48	-43.1	-45.5	18.3	0.00e+00	0	43	0	824180736	57	4855
2026-01-07 00:54:07.07	259.34	26.34	-42.9	-45.3	18.5	0.00e+00	0	43	0	827326464	57	4724
2026-01-07 00:54:07.84	259.17	26.25	-42.9	-45.4	18.4	0.00e+00	0	44	0	828375040	57	4791
2026-01-07 00:54:09.12	258.88	26.11	-42.7	-45.1	18.7	0.00e+00	0	43	0	830472192	57	4612
2026-01-07 00:54:09.94	258.70	26.01	-42.4	-44.8	19.0	0.00e+00	0	43	0	832569344	56	4710
2026-01-07 00:54:11.08	258.45	25.88	-42.3	-44.6	19.2	0.00e+00	0	44	0	834666496	56	4622
2026-01-07 00:54:11.94	258.26	25.79	-42.2	-44.5	19.3	0.00e+00	0	43	0	835715072	56	4554
2026-01-07 00:54:13.08	258.01	25.66	-42.2	-44.5	19.3	0.00e+00	0	44	0	837812224	56	4560
2026-01-07 00:54:13.94	257.82	25.56	-42.2	-44.5	19.3	0.00e+00	0	44	0	839909376	56	4563
2026-01-07 00:54:15.09	257.58	25.43	-42.1	-44.4	19.4	0.00e+00	0	44	0	842006528	56	4519
2026-01-07 00:54:15.95	257.39	25.33	-42.2	-44.5	19.2	0.00e+00	0	43	0	844103680	56	4581
2026-01-07 00:54:17.09	257.15	25.21	-42.2	-44.5	19.2	0.00e+00	0	43	0	846200832	56	4575
2026-01-07 00:54:17.95	256.97	25.11	-42.3	-44.6	19.2	0.00e+00	0	44	0	847249408	56	4611
2026-01-07 00:54:19.09	256.73	24.98	-42.2	-44.5	19.3	0.00e+00	0	44	0	849346560	56	4577
2026-01-07 00:54:19.96	256.55	24.88	-42.3	-44.6	19.2	0.00e+00	0	43	0	851443712	56	4621
2026-01-07 00:54:21.10	256.31	24.75	-42.4	-44.7	19.0	0.00e+00	0	43	0	853540864	56	4674
2026-01-07 00:54:21.95	256.14	24.66	-42.2	-44.5	19.2	0.00e+00	0	43	0	854589440	56	4592
2026-01-07 00:54:23.10	255.91	24.53	-42.4	-44.7	19.0	0.00e+00	0	44	0	856686592	56	4658
2026-01-07 00:54:23.96	255.73	24.43	-42.1	-44.4	19.3	0.00e+00	0	44	0	858783744	56	4507
2026-01-07 00:54:25.10	255.51	24.31	-42.1	-44.3	19.4	0.00e+00	0	43	0	860880896	56	4493
2026-01-07 00:54:25.96	255.33	24.21	-42.0	-44.2	19.5	0.00e+00	0	43	0	862978048	56	4428
2026-01-07 00:54:27.10	255.11	24.08	-41.9	-44.1	19.4	0.00e+00	0	43	0	865075200	55	4625
2026-01-07 00:54:27.96	254.94	23.99	-42.0	-44.2	19.3	0.00e+00	0	43	0	866123776	55	4692
2026-01-07 00:54:29.11	254.72	23.86	-42.1	-44.4	19.2	0.00e+00	0	44	0	868220928	55	4766
2026-01-07 00:54:30.35	254.48	23.72	-42.2	-44.5	19.0	0.00e+00	0	43	0	870318080	55	4851
2026-01-07 00:54:31.20	254.31	23.62	-42.3	-44.6	19.0	0.00e+00	0	44	0	872415232	55	4901
2026-01-07 00:54:32.35	254.10	23.50	-42.4	-44.7	18.9	0.00e+00	0	44	0	874512384	55	4962
2026-01-07 00:54:33.21	253.93	23.40	-42.3	-44.7	18.9	0.00e+00	0	43	0	875560960	55	4959
2026-01-07 00:54:34.36	253.72	23.27	-42.3	-44.7	18.9	0.00e+00	0	44	0	878706688	55	4930
2026-01-07 00:54:35.22	253.56	23.18	-42.3	-44.7	18.9	0.00e+00	0	43	0	879755264	55	4953
2026-01-07 00:54:36.36	253.35	23.05	-42.3	-44.7	18.9	0.00e+00	0	44	0	881852416	55	4939
2026-01-07 00:54:37.22	253.19	22.96	-42.4	-44.8	18.8	0.00e+00	0	44	0	883949568	55	5007
2026-01-07 00:54:38.36	252.98	22.83	-42.4	-44.8	18.8	0.00e+00	0	44	0	886046720	55	5003
2026-01-07 00:54:39.22	252.83	22.74	-42.5	-45.0	18.6	0.00e+00	0	43	0	887095296	55	5116
2026-01-07 00:54:40.49	252.60	22.60	-42.6	-45.0	18.6	0.00e+00	0	43	0	890241024	55	5137
2026-01-07 00:54:41.21	252.47	22.52	-42.9	-45.4	18.4	0.00e+00	0	43	0	891289600	56	5054
2026-01-07 00:54:42.50	252.24	22.38	-43.1	-45.6	18.2	0.00e+00	0	43	0	893386752	56	5170
2026-01-07 00:54:43.22	252.12	22.30	-43.0	-45.5	18.2	0.00e+00	0	43	0	894435328	56	5158
2026-01-07 00:54:44.51	251.89	22.16	-42.8	-45.3	18.5	0.00e+00	0	43	0	897581056	56	5005
2026-01-07 00:54:45.22	251.77	22.08	-42.7	-45.1	18.6	0.00e+00	0	43	0	898629632	56	4901
2026-01-07 00:54:46.51	251.55	21.94	-42.5	-45.0	18.8	0.00e+00	0	43	0	900726784	56	4823
2026-01-07 00:54:47.23	251.42	21.86	-42.5	-44.9	18.8	0.00e+00	0	43	0	901775360	56	4798
2026-01-07 00:54:48.51	251.21	21.72	-42.6	-45.0	18.7	0.00e+00	0	43	0	904921088	56	4853
2026-01-07 00:54:49.23	251.08	21.64	-42.7	-45.1	18.6	0.00e+00	0	43	0	905969664	56	4905
2026-01-07 00:54:50.55	250.86	21.50	-42.7	-45.2	18.5	0.00e+00	0	43	0	908066816	56	4933
2026-01-07 00:54:51.27	250.74	21.42	-42.8	-45.3	18.4	0.00e+00	0	44	0	910163968	56	5003
2026-01-07 00:54:52.60	250.53	21.28	-42.9	-45.4	18.3	0.00e+00	0	44	0	912261120	56	5090
2026-01-07 00:54:53.32	250.41	21.20	-42.9	-45.4	18.3	0.00e+00	0	43	0	913309696	56	5099
2026-01-07 00:54:54.60	250.20	21.06	-43.0	-45.5	18.3	0.00e+00	0	43	0	916455424	56	5110
2026-01-07 00:54:55.65	250.03	20.95	-43.0	-45.5	18.2	0.00e+00	0	43	0	918552576	56	5158
2026-01-07 00:54:56.88	249.83	20.82	-42.9	-45.4	18.3	0.00e+00	0	43	0	920649728	56	5072
2026-01-07 00:54:57.83	249.68	20.72	-42.8	-45.3	18.4	0.00e+00	0	43	0	921698304	56	4992
2026-01-07 00:54:58.83	249.53	20.61	-42.8	-45.4	18.4	0.00e+00	0	43	0	923795456	56	5047
2026-01-07 00:54:59.83	249.37	20.51	-42.8	-45.3	18.4	0.00e+00	0	43	0	925892608	56	5025
2026-01-07 00:55:00.83	249.21	20.40	-43.0	-45.6	18.1	0.00e+00	0	43	0	927989760	56	5203
2026-01-07 00:55:01.83	249.06	20.29	-43.0	-45.6	18.1	0.00e+00	0	44	0	930086912	56	5187
2026-01-07 00:55:02.84	248.91	20.19	-43.0	-45.7	18.0	0.00e+00	0	43	0	931135488	56	5225
2026-01-07 00:55:03.84	248.75	20.08	-43.2	-45.8	17.9	0.00e+00	0	43	0	933232640	56	5325
2026-01-07 00:55:04.84	248.60	19.98	-43.1	-45.8	17.9	0.00e+00	0	43	0	935329792	56	5283
2026-01-07 00:55:05.84	248.45	19.87	-43.3	-46.0	17.7	0.00e+00	0	43	0	937426944	57	5132
2026-01-07 00:55:06.84	248.30	19.77	-43.2	-45.9	17.7	0.00e+00	0	43	0	939524096	57	5080
2026-01-07 00:55:07.85	248.15	19.66	-43.3	-46.0	17.7	0.00e+00	0	44	0	940572672	57	5135
2026-01-07 00:55:08.93	248.00	19.55	-43.2	-46.0	17.7	0.00e+00	0	44	0	942669824	57	5114
2026-01-07 00:55:09.82	247.87	19.46	-43.3	-46.0	17.7	0.00e+00	0	43	0	944766976	57	5146
2026-01-07 00:55:10.97	247.70	19.34	-43.3	-46.0	17.7	0.00e+00	0	44	0	946864128	57	5126
2026-01-07 00:55:11.83	247.58	19.25	-43.4	-46.2	17.5	0.00e+00	0	44	0	947912704	57	5233
2026-01-07 00:55:12.97	247.41	19.13	-43.4	-46.1	17.5	0.00e+00	0	43	0	951058432	57	5210
2026-01-07 00:55:13.83	247.29	19.04	-43.5	-46.3	17.4	0.00e+00	0	44	0	952107008	57	5281
2026-01-07 00:55:14.98	247.13	18.93	-43.7	-46.5	17.2	0.00e+00	0	43	0	954204160	58	5106
2026-01-07 00:55:15.83	247.01	18.84	-43.8	-46.5	17.2	0.00e+00	0	43	0	956301312	58	5135
2026-01-07 00:55:16.98	246.85	18.72	-43.8	-46.6	17.1	0.00e+00	0	43	0	958398464	58	5179
2026-01-07 00:55:17.84	246.73	18.63	-43.9	-46.7	17.1	0.00e+00	0	43	0	959447040	58	5221
2026-01-07 00:55:18.98	246.57	18.52	-43.9	-46.8	16.9	0.00e+00	0	43	0	961544192	58	5282
2026-01-07 00:55:19.84	246.46	18.43	-43.9	-46.8	16.8	0.00e+00	0	43	0	963641344	58	5337
2026-01-07 00:55:20.99	246.30	18.31	-43.7	-46.6	17.1	0.00e+00	0	43	0	965738496	58	5183
2026-01-07 00:55:21.85	246.19	18.23	-43.5	-46.3	17.3	0.00e+00	0	43	0	966787072	58	5031
2026-01-07 00:55:23.00	246.03	18.11	-43.4	-46.3	17.4	0.00e+00	0	43	0	969932800	58	5018
2026-01-07 00:55:23.86	245.92	18.03	-43.4	-46.3	17.4	0.00e+00	0	43	0	970981376	58	4995
2026-01-07 00:55:25.00	245.77	17.91	-43.5	-46.4	17.3	0.00e+00	0	43	0	973078528	58	5048
2026-01-07 00:55:25.86	245.66	17.83	-43.6	-46.3	17.3	0.00e+00	0	43	0	975175680	58	5032
2026-01-07 00:55:27.01	245.51	17.71	-43.7	-46.5	17.2	0.00e+00	0	43	0	977272832	58	5126
2026-01-07 00:55:27.86	245.40	17.63	-43.8	-46.6	17.0	0.00e+00	0	43	0	978321408	58	5199
2026-01-07 00:55:29.01	245.25	17.51	-44.0	-46.9	16.8	0.00e+00	0	43	0	980418560	58	5346
2026-01-07 00:55:29.87	245.14	17.43	-44.0	-46.8	16.9	0.00e+00	0	43	0	982515712	58	5295
2026-01-07 00:55:31.01	245.00	17.31	-44.2	-47.1	16.5	0.00e+00	0	43	0	984612864	59	5182
2026-01-07 00:55:31.87	244.89	17.23	-44.3	-47.2	16.5	0.00e+00	0	43	0	985661440	59	5220
2026-01-07 00:55:33.02	244.74	17.12	-44.4	-47.3	16.3	0.00e+00	0	44	0	987758592	59	5332
2026-01-07 00:55:33.88	244.64	17.03	-44.4	-47.3	16.3	0.00e+00	0	43	0	989855744	59	5338
2026-01-07 00:55:35.09	244.49	16.91	-44.4	-47.3	16.3	0.00e+00	0	44	0	991952896	59	5329
2026-01-07 00:55:35.95	244.38	16.83	-44.3	-47.3	16.4	0.00e+00	0	43	0	994050048	59	5290
2026-01-07 00:55:37.09	244.24	16.72	-44.2	-47.0	16.6	0.00e+00	0	43	0	996147200	59	5154
2026-01-07 00:55:37.95	244.14	16.64	-44.1	-46.9	16.7	0.00e+00	0	43	0	997195776	59	5054
2026-01-07 00:55:39.09	244.00	16.53	-44.2	-47.1	16.5	0.00e+00	0	43	0	999292928	59	5180
2026-01-07 00:55:39.95	243.90	16.44	-44.3	-47.2	16.4	0.00e+00	0	43	0	1001390080	59	5262
2026-01-07 00:55:41.10	243.77	16.33	-44.3	-47.1	16.5	0.00e+00	0	43	0	1003487232	59	5181
2026-01-07 00:55:42.08	243.65	16.24	-44.1	-46.9	16.7	0.00e+00	0	43	0	1005584384	59	5057
2026-01-07 00:55:43.25	243.51	16.13	-44.2	-47.0	16.6	0.00e+00	0	44	0	1007681536	59	5138
2026-01-07 00:55:44.13	243.41	16.04	-44.3	-47.2	16.4	0.00e+00	0	44	0	1008730112	59	5255
2026-01-07 00:55:45.50	243.25	15.91	-44.3	-47.2	16.4	0.00e+00	0	43	0	1011875840	59	5270
2026-01-07 00:55:46.21	243.17	15.85	-44.4	-47.5	16.2	0.00e+00	0	43	0	1012924416	59	5411
2026-01-07 00:55:47.74	243.00	15.70	-44.4	-47.4	16.2	0.00e+00	0	43	0	1016070144	59	5384
2026-01-07 00:55:48.46	242.92	15.63	-44.3	-47.3	16.2	0.00e+00	0	44	0	1017118720	59	5333
2026-01-07 00:55:49.75	242.77	15.51	-44.2	-47.3	16.3	0.00e+00	0	44	0	1019215872	59	5283
2026-01-07 00:55:50.46	242.69	15.45	-44.2	-47.2	16.3	0.00e+00	0	43	0	1021313024	59	5272
2026-01-07 00:55:51.75	242.55	15.33	-44.1	-47.2	16.4	0.00e+00	0	43	0	1023410176	59	5220
2026-01-07 00:55:52.46	242.47	15.26	-44.1	-47.0	16.5	0.00e+00	0	43	0	1024458752	59	5152
2026-01-07 00:55:53.75	242.33	15.14	-44.1	-47.0	16.5	0.00e+00	0	44	0	1026555904	59	5156
2026-01-07 00:55:54.47	242.25	15.07	-44.1	-47.0	16.5	0.00e+00	0	43	0	1028653056	59	5134
2026-01-07 00:55:55.76	242.12	14.95	-44.0	-46.9	16.7	0.00e+00	0	43	0	1030750208	59	5065
2026-01-07 00:55:56.47	242.04	14.89	-44.1	-46.9	16.7	0.00e+00	0	43	0	1031798784	59	5060
2026-01-07 00:55:57.76	241.90	14.77	-44.1	-46.9	16.6	0.00e+00	0	43	0	1034944512	59	5068
2026-01-07 00:55:58.65	241.81	14.69	-44.2	-47.0	16.5	0.00e+00	0	43	0	1035993088	59	5156
2026-01-07 00:56:00.02	241.66	14.56	-44.4	-47.3	16.2	0.00e+00	0	44	0	1039138816	59	5308
2026-01-07 00:56:00.73	241.59	14.50	-44.4	-47.4	16.2	0.00e+00	0	44	0	1040187392	59	5359
2026-01-07 00:56:02.02	241.46	14.38	-44.4	-47.4	16.2	0.00e+00	0	44	0	1042284544	59	5350
2026-01-07 00:56:02.74	241.38	14.32	-44.4	-47.4	16.1	0.00e+00	0	43	0	1044381696	59	5391
2026-01-07 00:56:04.03	241.25	14.20	-44.5	-47.7	15.8	0.00e+00	0	43	0	1046478848	59	5542
2026-01-07 00:56:04.75	241.18	14.13	-44.6	-47.7	15.8	0.00e+00	0	43	0	1047527424	59	5568
2026-01-07 00:56:06.03	241.05	14.02	-44.4	-47.5	16.0	0.00e+00	0	43	0	1049624576	59	5462
2026-01-07 00:56:06.76	240.97	13.95	-44.3	-47.4	16.1	0.00e+00	0	44	0	1051721728	59	5385
2026-01-07 00:56:08.05	240.85	13.84	-44.4	-47.5	16.1	0.00e+00	0	43	0	1053818880	59	5415
2026-01-07 00:56:08.77	240.77	13.77	-44.3	-47.4	16.1	0.00e+00	0	44	0	1054867456	59	5350
2026-01-07 00:56:10.17	240.64	13.65	-44.3	-47.4	16.1	0.00e+00	0	43	0	1058013184	59	5386
2026-01-07 00:56:11.14	240.54	13.56	-44.3	-47.4	16.1	0.00e+00	0	43	0	1060110336	59	5374
2026-01-07 00:56:12.45	240.41	13.45	-44.3	-47.3	16.2	0.00e+00	0	43	0	1062207488	59	5296
2026-01-07 00:56:13.17	240.34	13.38	-44.3	-47.3	16.2	0.00e+00	0	43	0	1063256064	59	5310
2026-01-07 00:56:14.46	240.22	13.27	-44.4	-47.4	16.1	0.00e+00	0	43	0	1066401792	59	5387
2026-01-07 00:56:15.27	240.14	13.20	-44.4	-47.4	16.1	0.00e+00	0	43	0	1067450368	59	5392
2026-01-07 00:56:16.41	240.03	13.10	-44.4	-47.4	16.0	0.00e+00	0	43	0	1069547520	59	5398
2026-01-07 00:56:17.27	239.95	13.03	-44.5	-47.5	15.9	0.00e+00	0	44	0	1071644672	59	5462
2026-01-07 00:56:18.42	239.85	12.93	-44.4	-47.4	16.0	0.00e+00	0	43	0	1073741824	59	5390
2026-01-07 00:56:19.27	239.77	12.85	-44.5	-47.5	15.9	0.00e+00	0	44	0	1074790400	59	5453
2026-01-07 00:56:20.42	239.66	12.75	-44.5	-47.5	16.0	0.00e+00	0	43	0	1076887552	59	5417
2026-01-07 00:56:21.28	239.58	12.68	-44.6	-47.6	15.8	0.00e+00	0	43	0	1078984704	59	5492
2026-01-07 00:56:22.43	239.48	12.58	-44.5	-47.6	15.9	0.00e+00	0	43	0	1081081856	59	5506
2026-01-07 00:56:23.29	239.40	12.51	-44.4	-47.4	16.0	0.00e+00	0	44	0	1082130432	59	5382
2026-01-07 00:56:24.43	239.29	12.41	-44.5	-47.5	15.9	0.00e+00	0	43	0	1084227584	59	5444
2026-01-07 00:56:25.29	239.22	12.33	-44.3	-47.3	16.1	0.00e+00	0	43	0	1086324736	59	5312
2026-01-07 00:56:26.43	239.12	12.24	-44.4	-47.5	16.0	0.00e+00	0	43	0	1088421888	59	5411
2026-01-07 00:56:27.30	239.04	12.16	-44.3	-47.4	16.1	0.00e+00	0	43	0	1089470464	59	5342
2026-01-07 00:56:28.44	238.94	12.07	-44.4	-47.4	16.0	0.00e+00	0	43	0	1091567616	59	5373
2026-01-07 00:56:29.29	238.86	11.99	-44.5	-47.5	15.9	0.00e+00	0	44	0	1093664768	59	5464
2026-01-07 00:56:30.44	238.76	11.90	-44.4	-47.4	16.0	0.00e+00	0	44	0	1095761920	59	5399
2026-01-07 00:56:31.30	238.69	11.83	-44.6	-47.7	15.7	0.00e+00	0	43	0	1097859072	59	5543
2026-01-07 00:56:32.44	238.59	11.73	-44.8	-48.0	15.5	0.00e+00	0	43	0	1099956224	60	5432
2026-01-07 00:56:33.30	238.52	11.66	-44.7	-47.8	15.6	0.00e+00	0	44	0	1101004800	60	5326
2026-01-07 00:56:34.44	238.42	11.56	-44.9	-48.1	15.3	0.00e+00	0	43	0	1103101952	60	5498
2026-01-07 00:56:35.30	238.35	11.49	-45.0	-48.4	15.0	0.00e+00	0	44	0	1105199104	60	5688
2026-01-07 00:56:36.48	238.25	11.39	-45.0	-48.3	15.1	0.00e+00	0	43	0	1107296256	60	5645
2026-01-07 00:56:37.34	238.17	11.32	-45.0	-48.4	15.0	0.00e+00	0	43	0	1108344832	60	5701
2026-01-07 00:56:38.48	238.08	11.23	-45.1	-48.5	15.0	0.00e+00	0	43	0	1110441984	60	5736
2026-01-07 00:56:39.34	238.01	11.16	-45.0	-48.4	15.0	0.00e+00	0	43	0	1112539136	60	5702
2026-01-07 00:56:40.48	237.91	11.07	-45.1	-48.7	14.8	0.00e+00	0	44	0	1114636288	60	5861
2026-01-07 00:56:41.34	237.84	10.99	-45.1	-48.6	14.8	0.00e+00	0	44	0	1116733440	61	5504
2026-01-07 00:56:42.49	237.75	10.90	-44.9	-48.3	15.1	0.00e+00	0	44	0	1118830592	61	5336
2026-01-07 00:56:43.35	237.68	10.83	-45.0	-48.5	14.9	7.00e-07	0	43	0	1119879168	61	5425
2026-01-07 00:56:44.49	237.59	10.74	-45.1	-48.5	14.8	0.00e+00	0	43	0	1121976320	61	5458
2026-01-07 00:56:45.35	237.52	10.67	-44.9	-48.3	15.1	0.00e+00	0	43	0	1124073472	61	5323
2026-01-07 00:56:46.50	237.43	10.58	-44.9	-48.3	15.1	0.00e+00	0	43	0	1126170624	61	5302
2026-01-07 00:56:47.35	237.36	10.51	-44.9	-48.3	15.1	0.00e+00	0	43	0	1127219200	61	5317
2026-01-07 00:56:48.49	237.27	10.42	-44.8	-48.1	15.2	0.00e+00	0	43	0	1129316352	61	5212
2026-01-07 00:56:49.35	237.21	10.35	-44.9	-48.3	15.1	0.00e+00	0	44	0	1131413504	61	5289
2026-01-07 00:56:50.50	237.12	10.26	-44.9	-48.4	15.0	0.00e+00	0	44	0	1133510656	61	5343
2026-01-07 00:56:51.36	237.05	10.19	-45.0	-48.4	15.0	0.00e+00	0	44	0	1134559232	61	5357
2026-01-07 00:56:52.51	236.96	10.10	-44.9	-48.3	15.0	0.00e+00	0	43	0	1137704960	61	5338
2026-01-07 00:56:53.37	236.90	10.03	-44.9	-48.3	15.0	0.00e+00	0	43	0	1138753536	61	5340
2026-01-07 00:56:54.51	236.81	9.94	-45.0	-48.4	14.9	7.00e-07	0	43	0	1140850688	61	5402
2026-01-07 00:56:55.37	236.74	9.87	-45.2	-48.7	14.6	0.00e+00	0	44	0	1142947840	61	5577
2026-01-07 00:56:56.52	236.66	9.78	-45.2	-48.8	14.5	0.00e+00	0	43	0	1145044992	61	5637
2026-01-07 00:56:57.38	236.59	9.71	-45.1	-48.7	14.6	0.00e+00	0	44	0	1146093568	61	5542
2026-01-07 00:56:58.52	236.51	9.62	-45.4	-49.1	14.2	2.20e-06	0	43	0	1148190720	61	5812
2026-01-07 00:56:59.38	236.44	9.56	-45.2	-48.8	14.5	0.00e+00	0	44	0	1150287872	61	5647
2026-01-07 00:57:00.53	236.36	9.47	-45.2	-48.9	14.4	0.00e+00	0	43	0	1152385024	61	5682
2026-01-07 00:57:01.39	236.30	9.40	-45.3	-49.0	14.3	3.00e-06	0	44	0	1153433600	61	5743
2026-01-07 00:57:02.54	236.21	9.31	-45.4	-49.2	14.1	2.20e-06	0	43	0	1155530752	61	5886
2026-01-07 00:57:03.40	236.15	9.24	-45.3	-49.0	14.3	0.00e+00	0	43	0	1157627904	61	5747
2026-01-07 00:57:04.54	236.07	9.16	-45.3	-49.1	14.2	2.20e-06	0	44	0	1159725056	61	5821
2026-01-07 00:57:05.40	236.01	9.09	-45.3	-49.0	14.3	0.00e+00	0	43	0	1161822208	61	5767
2026-01-07 00:57:06.55	235.93	9.00	-46.5	-51.3	12.4	4.50e-06	0	44	0	1163919360	63	6654
2026-01-07 00:57:07.41	235.87	8.94	-49.4	-64.6	3.8	1.49e+00	0	44	104	1163919360	69	21955
2026-01-07 00:57:08.56	235.78	8.85	-49.6	-64.9	3.8	1.49e+00	0	43	104	1163919360	69	22651
2026-01-07 00:57:09.42	235.72	8.78	-49.6	-65.0	3.8	1.49e+00	0	44	104	1163919360	69	22950
2026-01-07 00:57:10.63	235.64	8.69	-49.9	-65.1	3.8	1.49e+00	0	43	104	1163919360	70	22005
2026-01-07 00:57:11.49	235.58	8.63	-49.9	-65.2	3.8	1.49e+00	0	44	104	1163919360	70	22058
2026-01-07 00:57:12.70	235.50	8.53	-49.9	-65.3	3.8	1.49e+00	0	43	104	1163919360	70	22297
2026-01-07 00:57:13.56	235.44	8.47	-50.1	-65.3	3.8	1.49e+00	0	44	104	1163919360	70	22389
2026-01-07 00:57:14.71	235.36	8.38	-50.2	-65.3	3.8	1.49e+00	0	43	104	1163919360	71	21237
2026-01-07 00:57:15.57	235.30	8.32	-50.0	-65.3	3.8	1.49e+00	0	43	104	1163919360	71	21177
2026-01-07 00:57:16.72	235.22	8.23	-50.0	-65.3	3.8	1.49e+00	0	44	104	1163919360	71	21217
2026-01-07 00:57:17.58	235.17	8.17	-50.1	-65.3	3.8	1.49e+00	0	44	104	1163919360	71	21251
2026-01-07 00:57:18.73	235.09	8.08	-50.1	-65.4	3.8	1.49e+00	0	44	104	1163919360	71	21311
2026-01-07 00:57:19.59	235.03	8.02	-50.1	-65.4	3.8	1.49e+00	0	44	104	1163919360	71	21355
2026-01-07 00:57:20.74	234.96	7.93	-50.0	-65.4	3.8	1.49e+00	0	43	104	1163919360	71	21281
2026-01-07 00:57:21.60	234.90	7.87	-50.1	-65.4	3.8	1.49e+00	0	43	104	1163919360	71	21269
2026-01-07 00:57:22.74	234.83	7.79	-50.2	-65.4	3.8	1.49e+00	0	43	104	1163919360	71	21357
2026-01-07 00:57:23.61	234.77	7.72	-50.2	-65.4	3.8	1.49e+00	0	43	104	1163919360	71	21302
2026-01-07 00:57:24.75	234.70	7.64	-50.1	-65.3	3.8	1.49e+00	0	44	104	1163919360	71	21250
2026-01-07 00:57:25.61	234.64	7.58	-50.0	-65.3	3.8	1.49e+00	0	43	104	1163919360	71	21239
2026-01-07 00:57:26.76	234.57	7.49	-49.9	-65.3	3.8	1.49e+00	0	43	104	1163919360	71	21219
2026-01-07 00:57:27.62	234.51	7.43	-49.8	-65.3	3.8	1.49e+00	0	43	104	1163919360	71	21168
2026-01-07 00:57:28.77	234.44	7.35	-49.8	-65.3	3.8	1.49e+00	0	43	104	1163919360	71	21178
2026-01-07 00:57:29.63	234.39	7.28	-49.8	-65.3	3.8	1.49e+00	0	43	104	1163919360	71	21163
2026-01-07 00:57:30.78	234.31	7.20	-49.8	-65.3	3.8	1.49e+00	0	43	104	1163919360	71	21082
2026-01-07 00:57:31.64	234.26	7.14	-49.8	-65.3	3.8	1.49e+00	0	44	104	1163919360	71	21087
2026-01-07 00:57:32.79	234.19	7.06	-49.8	-65.3	3.8	1.49e+00	0	43	104	1163919360	71	21076
2026-01-07 00:57:33.65	234.14	6.99	-49.8	-65.3	3.8	1.49e+00	0	43	104	1163919360	71	21099
2026-01-07 00:57:34.80	234.07	6.91	-49.8	-65.3	3.8	1.49e+00	0	43	104	1163919360	71	21194
2026-01-07 00:57:35.66	234.01	6.85	-49.8	-65.3	3.8	1.49e+00	0	44	104	1163919360	71	21077
2026-01-07 00:57:36.80	233.94	6.77	-49.8	-65.3	3.8	1.49e+00	0	44	104	1163919360	71	21179
2026-01-07 00:57:37.67	233.89	6.71	-49.8	-65.3	3.8	1.49e+00	0	43	104	1163919360	71	21134
2026-01-07 00:57:38.81	233.82	6.63	-49.8	-65.3	3.8	1.49e+00	0	44	104	1163919360	71	21078
2026-01-07 00:57:39.67	233.77	6.57	-49.8	-65.3	3.8	1.49e+00	0	44	104	1163919360	71	21151
2026-01-07 00:57:40.82	233.70	6.48	-49.8	-65.3	3.8	1.49e+00	0	44	104	1163919360	71	21224
