passes_logs/2026/01/23/R3.2S_Murmansk/R3.2S_Murmansk__20260123_113038_NOAA_21_JPSS-2_rec.log

#Pass ID: 20260123_113038_NOAA 21 (JPSS-2)
#Satellite: NOAA 21 (JPSS-2)
#Configuration: NOAA-21
#almurnet v.1.7.20251203
#Start time: 2026-01-23 11:31:02

#Version: 2.2.20231116
#Station: R3.2S_Murmansk
#Location: 33.079688 lon 68.888172 lat
#TLE: 1 54234U 22150A   26022.41365820  .00000211  00000+0  12084-3 0  9990
#TLE: 2 54234  98.7507 323.2240 0000658 234.5287 125.5828 14.19537645165864

#Time	Az	El	Level	Level2	SNR	BER	BlckErr	Temp	State	Recorded	gain1	gain2
2026-01-23 11:31:02.99	202.92	3.48	-53.4	-65.4	3.8	8.46e-01	0	42	0	0	77	15092
2026-01-23 11:31:03.99	202.98	3.54	-54.3	-67.1	3.8	1.49e+00	0	42	104	0	79	16485
2026-01-23 11:31:05.00	203.05	3.60	-54.3	-67.1	3.8	1.49e+00	0	43	104	0	79	16460
2026-01-23 11:31:06.01	203.11	3.66	-54.4	-67.2	3.8	1.49e+00	0	43	104	0	79	16564
2026-01-23 11:31:07.02	203.18	3.73	-54.4	-67.2	3.8	1.49e+00	0	43	104	0	79	16634
2026-01-23 11:31:08.03	203.25	3.79	-54.5	-67.3	3.8	1.49e+00	0	43	104	0	79	16713
2026-01-23 11:31:09.04	203.31	3.85	-54.5	-67.3	3.8	1.49e+00	0	43	104	0	79	16761
2026-01-23 11:31:10.05	203.38	3.91	-54.5	-67.3	3.8	1.49e+00	0	43	104	0	79	16837
2026-01-23 11:31:11.05	203.45	3.97	-54.5	-67.3	3.8	1.49e+00	0	43	104	0	79	16839
2026-01-23 11:31:12.06	203.51	4.03	-54.5	-67.3	3.8	1.49e+00	0	43	104	0	79	16843
2026-01-23 11:31:13.07	203.58	4.10	-54.6	-67.3	3.8	1.49e+00	0	43	104	0	79	16870
2026-01-23 11:31:14.08	203.65	4.16	-54.6	-67.4	3.8	1.49e+00	0	43	104	0	79	16908
2026-01-23 11:31:15.09	203.72	4.22	-54.6	-67.4	3.8	1.49e+00	0	42	104	0	79	16911
2026-01-23 11:31:16.10	203.79	4.28	-54.6	-67.4	3.8	1.49e+00	0	43	104	0	79	16988
2026-01-23 11:31:17.11	203.86	4.35	-54.6	-67.4	3.8	1.49e+00	0	43	104	0	79	16982
2026-01-23 11:31:18.12	203.93	4.41	-54.6	-67.4	3.8	1.49e+00	0	43	104	0	79	17006
2026-01-23 11:31:19.13	203.99	4.47	-54.6	-67.4	3.8	1.49e+00	0	43	104	0	79	17017
2026-01-23 11:31:20.14	204.06	4.53	-54.6	-67.4	3.8	1.49e+00	0	42	104	0	79	17024
2026-01-23 11:31:21.14	204.13	4.60	-54.6	-67.4	3.8	1.49e+00	0	43	104	0	79	17021
2026-01-23 11:31:22.15	204.20	4.66	-54.6	-67.4	3.8	1.49e+00	0	42	104	0	79	16987
2026-01-23 11:31:23.16	204.28	4.72	-54.6	-67.4	3.8	1.49e+00	0	43	104	0	79	16956
2026-01-23 11:31:24.17	204.35	4.79	-54.6	-67.4	3.8	1.49e+00	0	43	104	0	79	16909
2026-01-23 11:31:25.18	204.42	4.85	-54.6	-67.4	3.8	1.49e+00	0	43	104	0	79	16966
2026-01-23 11:31:26.18	204.49	4.91	-54.6	-67.4	3.8	1.49e+00	0	43	104	0	79	16946
2026-01-23 11:31:27.19	204.56	4.98	-54.6	-67.4	3.8	1.49e+00	0	43	104	0	79	16891
2026-01-23 11:31:28.20	204.63	5.04	-54.6	-67.4	3.8	1.49e+00	0	43	104	0	79	16934
2026-01-23 11:31:29.21	204.70	5.11	-54.6	-67.4	3.8	1.49e+00	0	43	104	0	79	16910
2026-01-23 11:31:30.21	204.78	5.17	-54.5	-67.3	3.8	1.49e+00	0	42	104	0	79	16800
2026-01-23 11:31:31.22	204.85	5.23	-54.5	-67.3	3.8	1.49e+00	0	43	104	0	79	16742
2026-01-23 11:31:32.23	204.92	5.30	-54.5	-67.3	3.8	1.49e+00	0	42	104	0	79	16698
2026-01-23 11:31:33.24	205.00	5.36	-54.5	-67.3	3.8	1.49e+00	0	43	104	0	79	16750
2026-01-23 11:31:34.24	205.07	5.43	-54.5	-67.3	3.8	1.49e+00	0	43	104	0	79	16749
2026-01-23 11:31:35.25	205.14	5.49	-54.5	-67.3	3.8	1.49e+00	0	43	104	0	79	16764
2026-01-23 11:31:36.26	205.22	5.56	-54.5	-67.3	3.8	1.49e+00	0	43	104	0	79	16778
2026-01-23 11:31:37.27	205.29	5.62	-54.5	-67.3	3.8	1.49e+00	0	43	104	0	79	16733
2026-01-23 11:31:38.28	205.37	5.69	-54.5	-67.3	3.8	1.49e+00	0	42	104	0	79	16735
2026-01-23 11:31:39.28	205.44	5.75	-54.5	-67.3	3.8	1.49e+00	0	43	104	0	79	16728
2026-01-23 11:31:40.29	205.52	5.82	-54.4	-67.2	3.8	1.49e+00	0	43	104	0	79	16674
2026-01-23 11:31:41.30	205.59	5.88	-54.4	-67.2	3.8	1.49e+00	0	43	104	0	79	16645
2026-01-23 11:31:42.30	205.67	5.95	-54.4	-67.2	3.8	1.49e+00	0	43	104	0	79	16660
2026-01-23 11:31:43.31	205.75	6.01	-54.4	-67.2	3.8	1.49e+00	0	43	104	0	79	16657
2026-01-23 11:31:44.32	205.82	6.08	-54.4	-67.2	3.8	1.49e+00	0	43	104	0	79	16588
2026-01-23 11:31:45.33	205.90	6.14	-54.4	-67.2	3.8	1.49e+00	0	43	104	0	79	16529
2026-01-23 11:31:46.34	205.98	6.21	-54.4	-67.2	3.8	1.49e+00	0	43	104	0	79	16518
2026-01-23 11:31:47.35	206.06	6.28	-54.4	-67.2	3.8	1.49e+00	0	43	104	0	79	16558
2026-01-23 11:31:48.36	206.14	6.34	-54.4	-67.1	3.8	1.49e+00	0	43	104	0	79	16486
2026-01-23 11:31:49.37	206.21	6.41	-54.4	-67.1	3.8	1.49e+00	0	43	104	0	79	16489
2026-01-23 11:31:50.37	206.29	6.47	-54.4	-67.1	3.8	1.49e+00	0	43	104	0	79	16496
2026-01-23 11:31:51.38	206.37	6.54	-54.4	-67.1	3.8	1.49e+00	0	43	104	0	79	16484
2026-01-23 11:31:52.39	206.45	6.61	-54.3	-67.1	3.8	1.49e+00	0	43	104	0	79	16490
2026-01-23 11:31:53.40	206.53	6.67	-54.3	-67.1	3.8	1.49e+00	0	43	104	0	79	16431
2026-01-23 11:31:54.40	206.61	6.74	-54.3	-67.2	3.8	1.49e+00	0	43	104	0	79	16512
2026-01-23 11:31:55.41	206.69	6.81	-54.3	-67.1	3.8	1.49e+00	0	43	104	0	79	16473
2026-01-23 11:31:56.42	206.77	6.88	-54.3	-67.1	3.8	1.49e+00	0	43	104	0	79	16461
2026-01-23 11:31:57.43	206.86	6.94	-54.4	-67.2	3.8	1.49e+00	0	43	104	0	79	16560
2026-01-23 11:31:58.44	206.94	7.01	-54.6	-67.4	3.8	1.49e+00	0	43	104	0	79	16914
2026-01-23 11:31:59.45	207.02	7.08	-54.6	-67.4	3.8	1.49e+00	0	43	104	0	79	16997
2026-01-23 11:32:00.46	207.10	7.15	-54.7	-67.4	3.8	1.49e+00	0	43	104	0	79	17076
2026-01-23 11:32:01.47	207.18	7.21	-54.7	-67.5	3.8	1.49e+00	0	43	104	0	79	17118
2026-01-23 11:32:02.48	207.27	7.28	-54.6	-67.4	3.8	1.49e+00	0	43	104	0	79	17047
2026-01-23 11:32:03.48	207.35	7.35	-54.6	-67.4	3.8	1.49e+00	0	43	104	0	79	16974
2026-01-23 11:32:04.49	207.44	7.42	-54.6	-67.4	3.8	1.49e+00	0	43	104	0	79	16928
2026-01-23 11:32:05.50	207.52	7.49	-54.5	-67.3	3.8	1.49e+00	0	43	104	0	79	16853
2026-01-23 11:32:06.51	207.60	7.56	-54.5	-67.3	3.8	1.49e+00	0	43	104	0	79	16743
2026-01-23 11:32:07.52	207.69	7.62	-54.5	-67.2	3.8	1.49e+00	0	43	104	0	79	16655
2026-01-23 11:32:08.53	207.78	7.69	-54.4	-67.2	3.8	1.49e+00	0	43	104	0	79	16632
2026-01-23 11:32:09.54	207.86	7.76	-54.4	-67.1	3.8	1.49e+00	0	43	104	0	79	16486
2026-01-23 11:32:10.54	207.95	7.83	-54.4	-67.1	3.8	1.49e+00	0	43	104	0	79	16465
2026-01-23 11:32:11.55	208.03	7.90	-54.3	-67.1	3.8	1.49e+00	0	43	104	0	79	16393
2026-01-23 11:32:12.56	208.12	7.97	-54.3	-67.0	3.8	1.49e+00	0	43	104	0	79	16292
2026-01-23 11:32:13.57	208.21	8.04	-54.2	-67.0	3.8	1.49e+00	0	43	104	0	79	16167
2026-01-23 11:32:14.58	208.30	8.11	-54.1	-66.9	3.8	1.49e+00	0	43	104	0	79	15961
2026-01-23 11:32:15.59	208.38	8.18	-54.1	-66.8	3.8	1.49e+00	0	43	104	0	79	15833
2026-01-23 11:32:16.60	208.47	8.25	-53.9	-66.7	3.8	1.49e+00	0	43	104	0	79	15590
2026-01-23 11:32:17.61	208.56	8.32	-53.8	-66.5	3.8	1.49e+00	0	43	104	0	79	15324
2026-01-23 11:32:18.61	208.65	8.39	-53.6	-66.3	3.8	1.49e+00	0	43	104	0	79	15050
2026-01-23 11:32:19.62	208.74	8.46	-44.8	-45.8	18.3	1.40e+00	0	43	104	0	61	3966
2026-01-23 11:32:20.63	208.83	8.53	-45.5	-46.7	18.2	0.00e+00	0	43	0	2097152	61	4436
2026-01-23 11:32:21.64	208.92	8.60	-48.1	-50.0	15.1	0.00e+00	0	43	0	5242880	66	4838
2026-01-23 11:32:22.65	209.01	8.67	-44.3	-45.3	19.5	0.00e+00	0	43	0	8388608	60	4004
2026-01-23 11:32:23.65	209.10	8.74	-47.7	-49.5	15.6	0.00e+00	0	43	0	11534336	65	4835
2026-01-23 11:32:24.66	209.20	8.81	-44.8	-45.9	19.1	8.30e-06	0	43	0	14680064	61	4011
2026-01-23 11:32:25.67	209.29	8.88	-45.5	-46.7	18.3	0.00e+00	0	43	0	17825792	63	3919
2026-01-23 11:32:26.68	209.38	8.95	-44.7	-45.8	19.1	0.00e+00	0	43	0	20971520	61	3978
2026-01-23 11:32:27.69	209.48	9.03	-44.8	-46.0	18.9	0.00e+00	0	43	0	24117248	61	4062
2026-01-23 11:32:28.69	209.57	9.10	-44.8	-45.9	19.0	0.00e+00	0	43	0	27262976	61	4045
2026-01-23 11:32:29.70	209.66	9.17	-44.9	-46.0	18.9	0.00e+00	0	43	0	30408704	61	4067
2026-01-23 11:32:30.71	209.76	9.24	-44.5	-45.6	19.3	0.00e+00	0	43	0	33554432	61	3900
2026-01-23 11:32:31.72	209.85	9.31	-44.3	-45.3	19.5	0.00e+00	0	43	0	36700160	60	4001
2026-01-23 11:32:32.73	209.95	9.39	-44.3	-45.3	19.5	0.00e+00	0	43	0	39845888	60	3998
2026-01-23 11:32:33.74	210.04	9.46	-44.2	-45.3	19.6	0.00e+00	0	43	0	42991616	60	3964
2026-01-23 11:32:34.74	210.14	9.53	-44.3	-45.4	19.5	0.00e+00	0	43	0	46137344	60	4028
2026-01-23 11:32:35.75	210.24	9.60	-44.4	-45.4	19.5	0.00e+00	0	43	0	49283072	60	4041
2026-01-23 11:32:36.76	210.33	9.67	-44.3	-45.3	19.6	0.00e+00	0	43	0	52428800	60	3993
2026-01-23 11:32:37.77	210.43	9.75	-44.3	-45.3	19.6	0.00e+00	0	43	0	55574528	60	4003
2026-01-23 11:32:38.78	210.53	9.82	-44.1	-45.1	19.8	0.00e+00	0	43	0	58720256	60	3895
2026-01-23 11:32:39.79	210.63	9.89	-44.3	-45.3	19.6	0.00e+00	0	43	0	61865984	60	3987
2026-01-23 11:32:40.80	210.73	9.97	-44.4	-45.4	19.5	0.00e+00	0	43	0	65011712	60	4027
2026-01-23 11:32:41.81	210.83	10.04	-44.5	-45.5	19.4	0.00e+00	0	43	0	68157440	60	4083
2026-01-23 11:32:42.82	210.93	10.11	-44.3	-45.4	19.5	0.00e+00	0	43	0	71303168	60	4024
2026-01-23 11:32:43.82	211.03	10.19	-44.1	-45.1	19.8	0.00e+00	0	43	0	74448896	60	3904
2026-01-23 11:32:44.83	211.13	10.26	-44.3	-45.3	19.9	0.00e+00	0	43	0	77594624	59	4223
2026-01-23 11:32:45.84	211.23	10.34	-44.4	-45.5	19.7	0.00e+00	0	43	0	80740352	59	4313
2026-01-23 11:32:46.85	211.33	10.41	-44.2	-45.2	20.0	0.00e+00	0	43	0	83886080	59	4175
2026-01-23 11:32:47.85	211.44	10.48	-44.2	-45.2	20.0	0.00e+00	0	42	0	87031808	59	4181
2026-01-23 11:32:48.86	211.54	10.56	-44.3	-45.3	19.9	0.00e+00	0	42	0	90177536	59	4239
2026-01-23 11:32:49.87	211.64	10.63	-44.3	-45.3	19.9	0.00e+00	0	43	0	93323264	59	4217
2026-01-23 11:32:50.88	211.75	10.71	-44.3	-45.3	19.9	0.00e+00	0	43	0	96468992	59	4240
2026-01-23 11:32:51.89	211.85	10.78	-44.3	-45.3	20.0	0.00e+00	0	43	0	99614720	59	4204
2026-01-23 11:32:52.90	211.96	10.86	-44.2	-45.2	20.1	0.00e+00	0	43	0	102760448	59	4156
2026-01-23 11:32:53.90	212.06	10.93	-44.2	-45.2	20.0	0.00e+00	0	43	0	105906176	59	4177
2026-01-23 11:32:54.91	212.17	11.01	-44.2	-45.2	20.1	0.00e+00	0	43	0	109051904	59	4153
2026-01-23 11:32:55.92	212.27	11.08	-44.1	-45.0	20.2	0.00e+00	0	42	0	112197632	59	4098
2026-01-23 11:32:56.93	212.38	11.16	-43.8	-44.8	20.4	0.00e+00	0	43	0	115343360	59	3982
2026-01-23 11:32:57.94	212.49	11.24	-43.9	-44.9	20.3	0.00e+00	0	43	0	118489088	59	4018
2026-01-23 11:32:58.95	212.60	11.31	-43.9	-44.9	20.4	0.00e+00	0	43	0	121634816	59	4019
2026-01-23 11:32:59.95	212.71	11.39	-43.9	-44.9	20.3	0.00e+00	0	43	0	124780544	59	4034
2026-01-23 11:33:00.96	212.81	11.46	-43.9	-44.8	20.4	0.00e+00	0	43	0	127926272	59	3992
2026-01-23 11:33:01.97	212.92	11.54	-43.9	-44.8	20.4	0.00e+00	0	43	0	131072000	59	3997
2026-01-23 11:33:02.98	213.04	11.62	-43.8	-44.8	20.5	0.00e+00	0	43	0	134217728	59	3962
2026-01-23 11:33:03.99	213.15	11.69	-43.7	-44.7	20.6	0.00e+00	0	43	0	137363456	59	3920
2026-01-23 11:33:05.00	213.26	11.77	-43.8	-44.7	20.5	0.00e+00	0	42	0	140509184	59	3943
2026-01-23 11:33:06.01	213.37	11.85	-43.6	-44.5	20.7	0.00e+00	0	42	0	143654912	59	3857
2026-01-23 11:33:07.02	213.48	11.92	-43.6	-44.6	20.7	0.00e+00	0	43	0	146800640	59	3874
2026-01-23 11:33:08.03	213.60	12.00	-43.7	-44.7	20.6	0.00e+00	0	42	0	149946368	59	3923
2026-01-23 11:33:09.03	213.71	12.08	-43.7	-44.7	20.6	0.00e+00	0	43	0	153092096	59	3929
2026-01-23 11:33:10.04	213.82	12.16	-43.7	-44.6	20.6	0.00e+00	0	43	0	156237824	59	3904
2026-01-23 11:33:11.05	213.94	12.23	-43.7	-44.7	20.6	0.00e+00	0	43	0	159383552	59	3920
2026-01-23 11:33:12.06	214.05	12.31	-43.7	-44.7	20.6	0.00e+00	0	43	0	162529280	59	3917
2026-01-23 11:33:13.07	214.17	12.39	-43.7	-44.6	20.7	0.00e+00	0	43	0	165675008	59	3903
2026-01-23 11:33:14.08	214.29	12.47	-43.7	-44.6	20.7	0.00e+00	0	43	0	168820736	59	3888
2026-01-23 11:33:15.08	214.40	12.54	-43.6	-44.6	20.7	0.00e+00	0	43	0	171966464	59	3884
2026-01-23 11:33:16.09	214.52	12.62	-43.6	-44.5	20.8	0.00e+00	0	42	0	175112192	59	3844
2026-01-23 11:33:17.10	214.64	12.70	-43.6	-44.6	20.7	0.00e+00	0	42	0	178257920	59	3874
2026-01-23 11:33:18.11	214.76	12.78	-43.7	-44.6	20.6	0.00e+00	0	43	0	181403648	59	3900
2026-01-23 11:33:19.12	214.88	12.86	-43.6	-44.5	20.7	0.00e+00	0	42	0	184549376	59	3863
2026-01-23 11:33:20.12	215.00	12.94	-43.5	-44.4	20.8	0.00e+00	0	43	0	187695104	59	3802
2026-01-23 11:33:21.13	215.12	13.02	-43.5	-44.4	20.9	0.00e+00	0	42	0	190840832	58	4014
2026-01-23 11:33:22.14	215.24	13.10	-43.4	-44.3	20.9	0.00e+00	0	43	0	193986560	58	3991
2026-01-23 11:33:23.15	215.36	13.18	-43.4	-44.3	21.0	0.00e+00	0	43	0	197132288	58	3973
2026-01-23 11:33:24.16	215.49	13.26	-43.5	-44.4	20.8	0.00e+00	0	43	0	200278016	58	4038
2026-01-23 11:33:25.16	215.61	13.33	-43.4	-44.3	20.9	0.00e+00	0	43	0	203423744	58	3993
2026-01-23 11:33:26.17	215.73	13.41	-43.5	-44.4	20.8	0.00e+00	0	43	0	206569472	58	4032
2026-01-23 11:33:27.18	215.86	13.49	-43.4	-44.3	21.0	0.00e+00	0	42	0	209715200	58	3980
2026-01-23 11:33:28.19	215.98	13.57	-43.6	-44.5	20.8	0.00e+00	0	42	0	212860928	58	4075
2026-01-23 11:33:29.20	216.11	13.65	-43.5	-44.4	20.8	0.00e+00	0	43	0	216006656	58	4046
2026-01-23 11:33:30.21	216.24	13.74	-43.5	-44.4	20.9	0.00e+00	0	43	0	219152384	58	4014
2026-01-23 11:33:31.22	216.37	13.82	-43.6	-44.5	20.7	0.00e+00	0	42	0	222298112	58	4086
2026-01-23 11:33:32.22	216.49	13.90	-43.4	-44.3	20.9	0.00e+00	0	43	0	225443840	58	4004
2026-01-23 11:33:33.23	216.62	13.98	-43.5	-44.4	20.9	0.00e+00	0	43	0	228589568	58	4015
2026-01-23 11:33:34.24	216.75	14.06	-43.6	-44.5	20.8	0.00e+00	0	43	0	231735296	58	4067
2026-01-23 11:33:35.25	216.88	14.14	-43.4	-44.3	21.0	0.00e+00	0	43	0	234881024	58	3965
2026-01-23 11:33:36.25	217.01	14.22	-43.5	-44.4	20.8	0.00e+00	0	43	0	238026752	58	4046
2026-01-23 11:33:37.26	217.14	14.30	-43.5	-44.4	20.8	0.00e+00	0	43	0	241172480	58	4048
2026-01-23 11:33:38.27	217.28	14.38	-43.4	-44.4	20.9	0.00e+00	0	42	0	244318208	58	4010
2026-01-23 11:33:39.28	217.41	14.46	-43.5	-44.4	20.8	0.00e+00	0	43	0	247463936	58	4038
2026-01-23 11:33:40.29	217.54	14.55	-43.7	-44.6	20.7	0.00e+00	0	43	0	250609664	58	4120
2026-01-23 11:33:41.30	217.68	14.63	-43.6	-44.5	20.8	0.00e+00	0	43	0	254803968	58	4076
2026-01-23 11:33:42.30	217.81	14.71	-43.5	-44.5	20.8	0.00e+00	0	43	0	256901120	58	4054
2026-01-23 11:33:43.31	217.95	14.79	-43.7	-44.7	20.6	0.00e+00	0	42	0	260046848	58	4153
2026-01-23 11:33:44.32	218.08	14.87	-43.6	-44.5	20.7	0.00e+00	0	43	0	263192576	58	4089
2026-01-23 11:33:45.32	218.22	14.96	-43.6	-44.6	20.7	0.00e+00	0	42	0	266338304	58	4112
2026-01-23 11:33:46.33	218.36	15.04	-43.7	-44.6	20.6	0.00e+00	0	42	0	269484032	58	4133
2026-01-23 11:33:47.34	218.50	15.12	-43.7	-44.6	20.6	0.00e+00	0	42	0	272629760	58	4140
2026-01-23 11:33:48.35	218.64	15.20	-43.9	-44.9	20.4	0.00e+00	0	42	0	275775488	58	4252
2026-01-23 11:33:49.36	218.78	15.29	-43.8	-44.8	20.5	0.00e+00	0	43	0	278921216	58	4222
2026-01-23 11:33:50.36	218.92	15.37	-43.9	-44.9	20.4	0.00e+00	0	43	0	282066944	58	4257
2026-01-23 11:33:51.37	219.06	15.45	-43.8	-44.8	20.5	0.00e+00	0	43	0	285212672	58	4219
2026-01-23 11:33:52.38	219.20	15.54	-43.9	-44.9	20.5	0.00e+00	0	43	0	288358400	58	4258
2026-01-23 11:33:53.38	219.34	15.62	-43.9	-44.9	20.4	0.00e+00	0	43	0	291504128	58	4258
2026-01-23 11:33:54.39	219.49	15.70	-43.9	-44.8	20.5	0.00e+00	0	43	0	294649856	58	4238
2026-01-23 11:33:55.40	219.63	15.79	-43.9	-44.8	20.5	0.00e+00	0	42	0	298844160	58	4241
2026-01-23 11:33:56.41	219.78	15.87	-43.9	-44.9	20.5	0.00e+00	0	43	0	300941312	58	4265
2026-01-23 11:33:57.42	219.92	15.95	-44.0	-45.0	20.4	0.00e+00	0	43	0	304087040	58	4303
2026-01-23 11:33:58.42	220.07	16.04	-44.0	-45.0	20.4	0.00e+00	0	43	0	307232768	58	4317
2026-01-23 11:33:59.43	220.22	16.12	-44.0	-45.0	20.4	0.00e+00	0	43	0	310378496	58	4327
2026-01-23 11:34:00.44	220.37	16.21	-43.9	-44.9	20.5	0.00e+00	0	43	0	313524224	58	4273
2026-01-23 11:34:01.45	220.51	16.29	-43.9	-44.9	20.5	0.00e+00	0	43	0	316669952	58	4251
2026-01-23 11:34:02.45	220.66	16.37	-43.9	-44.9	20.5	0.00e+00	0	43	0	319815680	58	4252
2026-01-23 11:34:03.46	220.82	16.46	-43.9	-44.9	20.5	0.00e+00	0	43	0	322961408	58	4256
2026-01-23 11:34:04.47	220.97	16.54	-43.8	-44.7	20.6	0.00e+00	0	43	0	326107136	58	4191
2026-01-23 11:34:05.48	221.12	16.63	-43.8	-44.7	20.7	0.00e+00	0	42	0	329252864	58	4171
2026-01-23 11:34:06.48	221.27	16.71	-43.8	-44.7	20.6	0.00e+00	0	43	0	332398592	58	4186
2026-01-23 11:34:07.49	221.43	16.80	-43.8	-44.8	20.6	0.00e+00	0	43	0	335544320	58	4201
2026-01-23 11:34:08.50	221.58	16.88	-43.6	-44.5	20.8	0.00e+00	0	43	0	339738624	58	4083
2026-01-23 11:34:09.51	221.74	16.97	-43.5	-44.4	20.9	0.00e+00	0	43	0	342884352	58	4044
2026-01-23 11:34:10.52	221.90	17.05	-43.5	-44.4	20.9	0.00e+00	0	43	0	346030080	58	4016
2026-01-23 11:34:11.52	222.05	17.14	-43.5	-44.4	20.9	0.00e+00	0	43	0	349175808	58	4027
2026-01-23 11:34:12.53	222.21	17.22	-43.5	-44.4	20.9	0.00e+00	0	42	0	352321536	58	4039
2026-01-23 11:34:13.54	222.37	17.31	-43.4	-44.3	21.1	0.00e+00	0	42	0	354418688	58	3965
2026-01-23 11:34:14.55	222.53	17.39	-43.4	-44.3	21.0	0.00e+00	0	42	0	357564416	58	3973
2026-01-23 11:34:15.55	222.69	17.48	-43.3	-44.2	21.1	0.00e+00	0	43	0	360710144	58	3925
2026-01-23 11:34:16.56	222.85	17.56	-43.3	-44.2	21.1	0.00e+00	0	42	0	363855872	58	3948
2026-01-23 11:34:17.57	223.02	17.65	-43.3	-44.2	21.1	0.00e+00	0	43	0	367001600	58	3937
2026-01-23 11:34:18.58	223.18	17.74	-43.3	-44.2	21.1	0.00e+00	0	42	0	370147328	58	3924
2026-01-23 11:34:19.59	223.35	17.82	-43.2	-44.1	21.3	0.00e+00	0	42	0	373293056	58	3872
2026-01-23 11:34:20.60	223.51	17.91	-43.2	-44.1	21.2	0.00e+00	0	43	0	377487360	58	3893
2026-01-23 11:34:21.60	223.68	17.99	-43.3	-44.2	21.1	0.00e+00	0	43	0	380633088	58	3936
2026-01-23 11:34:22.61	223.85	18.08	-43.3	-44.2	21.1	0.00e+00	0	42	0	383778816	58	3940
2026-01-23 11:34:23.62	224.01	18.17	-43.4	-44.3	21.0	0.00e+00	0	42	0	386924544	58	3990
2026-01-23 11:34:24.63	224.18	18.25	-43.5	-44.4	20.9	0.00e+00	0	43	0	390070272	58	4039
2026-01-23 11:34:25.63	224.35	18.34	-43.3	-44.2	21.1	0.00e+00	0	42	0	393216000	58	3954
2026-01-23 11:34:26.64	224.53	18.43	-43.3	-44.2	21.1	0.00e+00	0	43	0	396361728	58	3936
2026-01-23 11:34:27.65	224.70	18.51	-43.4	-44.3	21.0	0.00e+00	0	43	0	399507456	58	3999
2026-01-23 11:34:28.66	224.87	18.60	-43.4	-44.4	20.9	0.00e+00	0	43	0	401604608	58	4014
2026-01-23 11:34:29.67	225.05	18.69	-43.5	-44.4	20.9	0.00e+00	0	43	0	404750336	58	4042
2026-01-23 11:34:30.68	225.22	18.77	-43.5	-44.4	20.9	0.00e+00	0	43	0	407896064	58	4019
2026-01-23 11:34:31.68	225.40	18.86	-43.6	-44.5	20.8	0.00e+00	0	43	0	411041792	58	4076
2026-01-23 11:34:32.69	225.57	18.94	-43.6	-44.5	20.8	0.00e+00	0	43	0	414187520	58	4085
2026-01-23 11:34:33.70	225.75	19.03	-43.5	-44.4	20.9	0.00e+00	0	42	0	418381824	58	4046
2026-01-23 11:34:34.71	225.93	19.12	-43.5	-44.4	20.9	0.00e+00	0	42	0	421527552	58	4042
2026-01-23 11:34:35.72	226.11	19.21	-43.6	-44.5	20.9	0.00e+00	0	42	0	424673280	58	4070
2026-01-23 11:34:36.72	226.29	19.29	-43.5	-44.4	21.0	0.00e+00	0	43	0	427819008	58	4035
2026-01-23 11:34:37.73	226.47	19.38	-43.4	-44.3	21.0	0.00e+00	0	43	0	430964736	58	3999
2026-01-23 11:34:38.74	226.66	19.47	-43.3	-44.2	21.2	0.00e+00	0	42	0	434110464	58	3914
2026-01-23 11:34:39.75	226.84	19.55	-43.3	-44.2	21.1	0.00e+00	0	43	0	437256192	58	3942
2026-01-23 11:34:40.75	227.02	19.64	-43.2	-44.0	21.3	0.00e+00	0	43	0	440401920	58	3862
2026-01-23 11:34:41.76	227.21	19.73	-43.0	-43.8	21.4	0.00e+00	0	42	0	443547648	58	3779
2026-01-23 11:34:42.77	227.40	19.81	-42.8	-43.7	21.6	0.00e+00	0	42	0	446693376	57	3935
2026-01-23 11:34:43.78	227.59	19.90	-42.9	-43.7	21.5	0.00e+00	0	42	0	448790528	57	3940
2026-01-23 11:34:44.78	227.77	19.99	-42.9	-43.8	21.5	0.00e+00	0	43	0	451936256	57	3963
2026-01-23 11:34:45.79	227.96	20.07	-42.6	-43.4	21.8	0.00e+00	0	42	0	455081984	57	3797
2026-01-23 11:34:46.80	228.16	20.16	-42.6	-43.4	21.8	0.00e+00	0	42	0	459276288	57	3797
2026-01-23 11:34:47.81	228.35	20.25	-42.6	-43.4	21.8	0.00e+00	0	42	0	462422016	57	3794
2026-01-23 11:34:48.82	228.54	20.33	-42.5	-43.3	21.9	0.00e+00	0	42	0	465567744	57	3765
2026-01-23 11:34:49.82	228.74	20.42	-42.6	-43.4	21.8	0.00e+00	0	43	0	468713472	57	3798
2026-01-23 11:34:50.83	228.93	20.51	-42.5	-43.3	21.8	0.00e+00	0	43	0	471859200	57	3777
2026-01-23 11:34:51.84	229.13	20.59	-42.6	-43.4	21.8	0.00e+00	0	43	0	475004928	57	3823
2026-01-23 11:34:52.85	229.33	20.68	-42.5	-43.3	21.9	0.00e+00	0	43	0	478150656	57	3760
2026-01-23 11:34:53.86	229.52	20.77	-42.5	-43.3	21.8	0.00e+00	0	43	0	481296384	56	4002
2026-01-23 11:34:54.86	229.72	20.85	-42.4	-43.2	22.0	0.00e+00	0	43	0	484442112	56	3941
2026-01-23 11:34:55.87	229.92	20.94	-42.4	-43.2	21.9	0.00e+00	0	43	0	487587840	56	3950
2026-01-23 11:34:56.88	230.13	21.03	-42.4	-43.2	22.0	0.00e+00	0	42	0	490733568	56	3940
2026-01-23 11:34:57.89	230.33	21.11	-42.4	-43.2	21.9	0.00e+00	0	43	0	493879296	56	3956
2026-01-23 11:34:58.90	230.53	21.20	-42.5	-43.3	21.9	0.00e+00	0	43	0	497025024	56	3989
2026-01-23 11:34:59.91	230.74	21.29	-42.5	-43.3	21.9	0.00e+00	0	43	0	500170752	56	3992
2026-01-23 11:35:00.92	230.95	21.37	-42.5	-43.4	21.9	0.00e+00	0	43	0	503316480	56	4023
2026-01-23 11:35:01.92	231.15	21.46	-42.5	-43.4	21.9	0.00e+00	0	43	0	506462208	56	4014
2026-01-23 11:35:02.93	231.36	21.55	-42.5	-43.4	21.9	0.00e+00	0	43	0	509607936	56	4017
2026-01-23 11:35:03.94	231.57	21.63	-42.5	-43.3	21.9	0.00e+00	0	42	0	512753664	56	3994
2026-01-23 11:35:04.95	231.78	21.72	-42.3	-43.1	22.1	0.00e+00	0	42	0	515899392	56	3888
2026-01-23 11:35:05.96	232.00	21.80	-42.3	-43.1	22.1	0.00e+00	0	43	0	519045120	56	3910
2026-01-23 11:35:06.96	232.21	21.89	-42.3	-43.1	22.1	0.00e+00	0	43	0	522190848	56	3883
2026-01-23 11:35:07.97	232.42	21.97	-42.3	-43.1	22.1	0.00e+00	0	43	0	525336576	56	3908
2026-01-23 11:35:08.98	232.64	22.06	-42.4	-43.2	22.0	0.00e+00	0	43	0	528482304	56	3933
2026-01-23 11:35:09.99	232.86	22.15	-42.1	-42.9	22.3	0.00e+00	0	43	0	531628032	56	3815
2026-01-23 11:35:11.00	233.07	22.23	-42.0	-42.8	22.3	0.00e+00	0	43	0	534773760	56	3775
2026-01-23 11:35:12.01	233.29	22.32	-42.1	-42.9	22.3	0.00e+00	0	43	0	537919488	56	3789
2026-01-23 11:35:13.02	233.51	22.40	-41.9	-42.7	22.4	0.00e+00	0	43	0	541065216	55	3934
2026-01-23 11:35:14.03	233.74	22.49	-42.0	-42.7	22.3	0.00e+00	0	43	0	544210944	55	3958
2026-01-23 11:35:15.03	233.96	22.57	-41.9	-42.7	22.4	0.00e+00	0	43	0	547356672	55	3914
2026-01-23 11:35:16.04	234.18	22.66	-42.0	-42.8	22.3	0.00e+00	0	42	0	550502400	55	3979
2026-01-23 11:35:17.05	234.41	22.74	-42.0	-42.8	22.3	0.00e+00	0	43	0	553648128	55	3993
2026-01-23 11:35:18.06	234.63	22.82	-42.0	-42.8	22.3	0.00e+00	0	43	0	556793856	55	4002
2026-01-23 11:35:19.07	234.86	22.91	-42.1	-42.9	22.2	0.00e+00	0	43	0	559939584	55	4028
2026-01-23 11:35:20.07	235.09	22.99	-42.2	-43.0	22.2	0.00e+00	0	43	0	563085312	55	4058
2026-01-23 11:35:21.08	235.32	23.08	-42.2	-43.0	22.2	0.00e+00	0	43	0	566231040	55	4074
2026-01-23 11:35:22.09	235.55	23.16	-42.2	-43.0	22.2	0.00e+00	0	43	0	569376768	55	4072
2026-01-23 11:35:23.10	235.78	23.24	-42.2	-43.0	22.1	0.00e+00	0	43	0	572522496	55	4089
2026-01-23 11:35:24.11	236.01	23.33	-42.1	-42.9	22.2	0.00e+00	0	43	0	575668224	55	4038
2026-01-23 11:35:25.12	236.25	23.41	-42.1	-42.9	22.3	0.00e+00	0	43	0	578813952	55	4019
2026-01-23 11:35:26.12	236.48	23.49	-42.1	-42.9	22.3	0.00e+00	0	43	0	581959680	55	4008
2026-01-23 11:35:27.13	236.72	23.57	-42.1	-42.9	22.3	0.00e+00	0	43	0	585105408	55	4014
2026-01-23 11:35:28.14	236.96	23.66	-42.0	-42.8	22.3	0.00e+00	0	43	0	588251136	55	3999
2026-01-23 11:35:29.15	237.20	23.74	-42.0	-42.8	22.4	0.00e+00	0	43	0	591396864	55	4002
2026-01-23 11:35:30.15	237.44	23.82	-42.2	-43.0	22.2	0.00e+00	0	43	0	594542592	55	4055
2026-01-23 11:35:31.16	237.68	23.90	-42.1	-42.9	22.2	0.00e+00	0	43	0	597688320	55	4025
2026-01-23 11:35:32.17	237.92	23.98	-42.2	-43.0	22.2	0.00e+00	0	43	0	600834048	55	4078
2026-01-23 11:35:33.18	238.17	24.06	-42.3	-43.1	22.1	0.00e+00	0	43	0	603979776	55	4113
2026-01-23 11:35:34.19	238.41	24.14	-42.3	-43.1	22.2	0.00e+00	0	43	0	607125504	55	4105
2026-01-23 11:35:35.19	238.66	24.22	-42.3	-43.2	22.1	0.00e+00	0	43	0	610271232	55	4149
2026-01-23 11:35:36.21	238.91	24.30	-42.3	-43.2	22.1	0.00e+00	0	43	0	613416960	55	4151
2026-01-23 11:35:37.22	239.16	24.38	-42.4	-43.3	22.0	0.00e+00	0	43	0	616562688	55	4194
2026-01-23 11:35:38.22	239.41	24.46	-42.5	-43.4	21.9	0.00e+00	0	43	0	619708416	55	4249
2026-01-23 11:35:39.23	239.66	24.54	-42.6	-43.4	21.9	0.00e+00	0	43	0	622854144	55	4261
2026-01-23 11:35:40.24	239.91	24.62	-42.6	-43.5	21.8	0.00e+00	0	43	0	625999872	55	4307
2026-01-23 11:35:41.25	240.17	24.70	-42.8	-43.7	21.7	0.00e+00	0	43	0	629145600	56	4159
2026-01-23 11:35:42.26	240.42	24.78	-42.7	-43.5	21.8	0.00e+00	0	43	0	632291328	56	4092
2026-01-23 11:35:43.26	240.68	24.85	-42.6	-43.5	21.8	0.00e+00	0	43	0	635437056	56	4065
2026-01-23 11:35:44.27	240.94	24.93	-42.8	-43.6	21.7	0.00e+00	0	43	0	638582784	56	4143
2026-01-23 11:35:45.28	241.19	25.01	-42.6	-43.5	21.8	0.00e+00	0	43	0	641728512	56	4065
2026-01-23 11:35:46.29	241.46	25.08	-42.5	-43.4	22.0	0.00e+00	0	43	0	644874240	56	4005
2026-01-23 11:35:47.30	241.72	25.16	-42.6	-43.4	21.9	0.00e+00	0	43	0	648019968	56	4033
2026-01-23 11:35:48.30	241.98	25.24	-42.5	-43.4	22.0	0.00e+00	0	43	0	651165696	56	4010
2026-01-23 11:35:49.31	242.24	25.31	-42.6	-43.5	21.9	0.00e+00	0	43	0	654311424	56	4056
2026-01-23 11:35:50.32	242.51	25.39	-42.7	-43.5	21.8	0.00e+00	0	43	0	657457152	56	4081
2026-01-23 11:35:51.33	242.77	25.46	-42.6	-43.5	21.8	0.00e+00	0	43	0	660602880	56	4062
2026-01-23 11:35:52.34	243.04	25.53	-42.8	-43.6	21.7	0.00e+00	0	43	0	663748608	56	4125
2026-01-23 11:35:53.35	243.31	25.61	-42.7	-43.5	21.7	0.00e+00	0	43	0	666894336	56	4090
2026-01-23 11:35:54.36	243.58	25.68	-42.9	-43.7	21.5	0.00e+00	0	43	0	670040064	56	4183
2026-01-23 11:35:55.37	243.85	25.75	-43.0	-43.9	21.4	0.00e+00	0	43	0	673185792	56	4252
2026-01-23 11:35:56.37	244.12	25.83	-43.1	-44.0	21.3	0.00e+00	0	43	0	676331520	56	4322
2026-01-23 11:35:57.38	244.40	25.90	-43.2	-44.1	21.3	0.00e+00	0	43	0	679477248	56	4351
2026-01-23 11:35:58.39	244.67	25.97	-43.2	-44.1	21.2	0.00e+00	0	43	0	682622976	57	4137
2026-01-23 11:35:59.40	244.95	26.04	-43.0	-43.9	21.4	0.00e+00	0	43	0	685768704	57	4017
2026-01-23 11:36:00.39	245.22	26.11	-43.0	-43.8	21.5	0.00e+00	0	43	0	688914432	57	3994
2026-01-23 11:36:01.40	245.50	26.18	-42.8	-43.6	21.7	0.00e+00	0	43	0	692060160	57	3895
2026-01-23 11:36:02.41	245.78	26.25	-42.7	-43.5	21.7	0.00e+00	0	43	0	695205888	57	3842
2026-01-23 11:36:03.42	246.06	26.32	-42.6	-43.4	21.8	0.00e+00	0	43	0	698351616	57	3798
2026-01-23 11:36:04.42	246.34	26.38	-42.6	-43.5	21.7	0.00e+00	0	43	0	701497344	57	3834
2026-01-23 11:36:05.43	246.63	26.45	-42.8	-43.6	21.6	0.00e+00	0	43	0	704643072	57	3897
2026-01-23 11:36:06.44	246.91	26.52	-42.7	-43.6	21.7	0.00e+00	0	43	0	707788800	57	3879
2026-01-23 11:36:07.45	247.20	26.58	-42.7	-43.6	21.7	0.00e+00	0	43	0	710934528	57	3881
2026-01-23 11:36:08.45	247.48	26.65	-42.8	-43.6	21.7	0.00e+00	0	43	0	714080256	57	3900
2026-01-23 11:36:09.46	247.77	26.71	-42.7	-43.5	21.8	0.00e+00	0	43	0	717225984	57	3857
2026-01-23 11:36:10.47	248.06	26.78	-42.6	-43.4	21.9	0.00e+00	0	43	0	720371712	57	3805
2026-01-23 11:36:11.48	248.35	26.84	-42.4	-43.2	22.1	0.00e+00	0	43	0	723517440	56	3939
2026-01-23 11:36:12.48	248.64	26.91	-42.4	-43.2	22.1	0.00e+00	0	43	0	726663168	56	3934
2026-01-23 11:36:13.49	248.93	26.97	-42.3	-43.1	22.2	0.00e+00	0	43	0	729808896	56	3885
2026-01-23 11:36:14.50	249.23	27.03	-42.5	-43.3	22.0	0.00e+00	0	43	0	732954624	56	3969
2026-01-23 11:36:15.51	249.52	27.09	-42.5	-43.4	21.9	0.00e+00	0	43	0	736100352	56	4016
2026-01-23 11:36:16.52	249.82	27.15	-42.7	-43.5	21.8	0.00e+00	0	43	0	739246080	56	4079
2026-01-23 11:36:17.52	250.11	27.21	-42.6	-43.4	21.9	0.00e+00	0	43	0	742391808	56	4033
2026-01-23 11:36:18.53	250.41	27.27	-42.5	-43.3	22.0	0.00e+00	0	43	0	745537536	56	3990
2026-01-23 11:36:19.54	250.71	27.33	-42.5	-43.3	22.1	0.00e+00	0	43	0	748683264	56	3995
2026-01-23 11:36:20.55	251.01	27.39	-42.5	-43.3	22.0	0.00e+00	0	43	0	751828992	56	3987
2026-01-23 11:36:21.55	251.31	27.45	-42.4	-43.2	22.1	0.00e+00	0	43	0	754974720	56	3936
2026-01-23 11:36:22.56	251.61	27.50	-42.5	-43.4	21.9	0.00e+00	0	43	0	758120448	56	4007
2026-01-23 11:36:23.57	251.91	27.56	-42.6	-43.5	21.8	0.00e+00	0	43	0	761266176	56	4052
2026-01-23 11:36:24.58	252.22	27.61	-42.7	-43.5	21.8	0.00e+00	0	43	0	764411904	56	4079
2026-01-23 11:36:25.58	252.52	27.67	-42.6	-43.5	21.9	0.00e+00	0	43	0	767557632	56	4053
2026-01-23 11:36:26.59	252.83	27.72	-42.5	-43.3	22.0	0.00e+00	0	43	0	770703360	56	3967
2026-01-23 11:36:27.60	253.14	27.77	-42.5	-43.3	22.0	0.00e+00	0	43	0	773849088	56	3966
2026-01-23 11:36:28.61	253.44	27.83	-42.4	-43.2	22.1	0.00e+00	0	43	0	776994816	56	3932
2026-01-23 11:36:29.62	253.75	27.88	-42.5	-43.4	21.9	0.00e+00	0	43	0	780140544	56	4011
2026-01-23 11:36:30.62	254.06	27.93	-42.8	-43.6	21.8	0.00e+00	0	43	0	783286272	56	4117
2026-01-23 11:36:31.63	254.37	27.98	-42.8	-43.6	21.8	0.00e+00	0	43	0	786432000	56	4129
2026-01-23 11:36:32.64	254.69	28.03	-42.8	-43.6	21.7	0.00e+00	0	43	0	789577728	56	4128
2026-01-23 11:36:33.65	255.00	28.07	-42.8	-43.7	21.7	0.00e+00	0	43	0	792723456	56	4151
2026-01-23 11:36:34.66	255.31	28.12	-42.7	-43.6	21.8	0.00e+00	0	43	0	795869184	56	4102
2026-01-23 11:36:35.66	255.63	28.17	-42.8	-43.7	21.7	0.00e+00	0	43	0	799014912	56	4151
2026-01-23 11:36:36.67	255.94	28.21	-42.8	-43.6	21.7	0.00e+00	0	43	0	802160640	56	4141
2026-01-23 11:36:37.68	256.26	28.26	-42.8	-43.7	21.7	0.00e+00	0	43	0	805306368	56	4162
2026-01-23 11:36:38.69	256.58	28.30	-43.0	-43.8	21.5	0.00e+00	0	43	0	808452096	56	4236
2026-01-23 11:36:39.69	256.89	28.34	-42.9	-43.7	21.7	0.00e+00	0	43	0	811597824	56	4172
2026-01-23 11:36:40.70	257.21	28.39	-42.9	-43.7	21.7	0.00e+00	0	43	0	814743552	56	4183
2026-01-23 11:36:41.71	257.53	28.43	-42.9	-43.7	21.7	0.00e+00	0	43	0	817889280	56	4172
2026-01-23 11:36:42.72	257.85	28.47	-42.8	-43.6	21.7	0.00e+00	0	43	0	821035008	56	4144
2026-01-23 11:36:43.73	258.17	28.51	-42.9	-43.7	21.7	0.00e+00	0	43	0	824180736	56	4172
2026-01-23 11:36:44.73	258.49	28.54	-42.9	-43.7	21.6	0.00e+00	0	43	0	827326464	56	4187
2026-01-23 11:36:45.74	258.82	28.58	-43.0	-43.8	21.6	0.00e+00	0	43	0	830472192	56	4237
2026-01-23 11:36:46.75	259.14	28.62	-43.1	-43.9	21.5	0.00e+00	0	43	0	833617920	56	4287
2026-01-23 11:36:47.76	259.47	28.65	-42.9	-43.7	21.7	0.00e+00	0	43	0	836763648	56	4181
2026-01-23 11:36:48.77	259.79	28.69	-42.8	-43.6	21.8	0.00e+00	0	43	0	839909376	56	4125
2026-01-23 11:36:49.78	260.12	28.72	-43.0	-43.8	21.6	0.00e+00	0	43	0	843055104	56	4234
2026-01-23 11:36:50.78	260.44	28.76	-42.9	-43.7	21.7	0.00e+00	0	43	0	846200832	56	4164
2026-01-23 11:36:51.79	260.77	28.79	-42.8	-43.7	21.7	0.00e+00	0	43	0	849346560	56	4160
2026-01-23 11:36:52.80	261.10	28.82	-43.0	-43.8	21.7	0.00e+00	0	43	0	852492288	56	4230
2026-01-23 11:36:53.81	261.43	28.85	-43.0	-43.8	21.6	0.00e+00	0	43	0	855638016	56	4219
2026-01-23 11:36:54.82	261.76	28.88	-42.9	-43.8	21.6	0.00e+00	0	43	0	858783744	56	4209
2026-01-23 11:36:55.82	262.08	28.91	-42.9	-43.7	21.7	0.00e+00	0	43	0	861929472	56	4184
2026-01-23 11:36:56.83	262.41	28.93	-43.0	-43.9	21.5	0.00e+00	0	43	0	865075200	56	4253
2026-01-23 11:36:57.84	262.74	28.96	-43.1	-43.9	21.5	0.00e+00	0	43	0	868220928	56	4283
2026-01-23 11:36:58.85	263.07	28.98	-43.1	-44.0	21.5	0.00e+00	0	43	0	871366656	56	4309
2026-01-23 11:36:59.85	263.40	29.01	-43.1	-43.9	21.5	0.00e+00	0	43	0	874512384	57	4046
2026-01-23 11:37:00.86	263.74	29.03	-43.2	-44.0	21.5	0.00e+00	0	43	0	877658112	57	4094
2026-01-23 11:37:01.87	264.07	29.05	-43.2	-44.1	21.4	0.00e+00	0	43	0	880803840	57	4110
2026-01-23 11:37:02.88	264.40	29.07	-43.0	-43.8	21.6	0.00e+00	0	43	0	883949568	57	3990
2026-01-23 11:37:03.89	264.74	29.09	-42.9	-43.7	21.7	0.00e+00	0	43	0	887095296	57	3954
2026-01-23 11:37:04.90	265.07	29.11	-43.1	-44.0	21.5	0.00e+00	0	43	0	890241024	57	4063
2026-01-23 11:37:05.91	265.40	29.13	-43.1	-44.0	21.5	0.00e+00	0	43	0	893386752	57	4064
2026-01-23 11:37:06.92	265.74	29.15	-43.1	-44.0	21.5	0.00e+00	0	43	0	896532480	57	4058
2026-01-23 11:37:07.92	266.07	29.16	-43.1	-44.0	21.5	0.00e+00	0	43	0	899678208	57	4056
2026-01-23 11:37:08.93	266.41	29.18	-42.7	-43.6	21.9	0.00e+00	0	43	0	902823936	57	3876
2026-01-23 11:37:09.94	266.74	29.19	-42.6	-43.4	22.0	0.00e+00	0	43	0	905969664	57	3818
2026-01-23 11:37:10.95	267.08	29.21	-42.8	-43.6	21.8	0.00e+00	0	43	0	909115392	57	3907
2026-01-23 11:37:11.96	267.41	29.22	-42.9	-43.8	21.7	0.00e+00	0	43	0	912261120	57	3959
2026-01-23 11:37:12.97	267.75	29.23	-42.9	-43.8	21.7	0.00e+00	0	43	0	915406848	57	3983
2026-01-23 11:37:13.98	268.09	29.24	-43.0	-43.8	21.6	0.00e+00	0	43	0	918552576	57	4002
2026-01-23 11:37:14.98	268.42	29.25	-43.0	-43.8	21.6	0.00e+00	0	43	0	921698304	57	4004
2026-01-23 11:37:15.99	268.76	29.25	-42.7	-43.6	21.9	0.00e+00	0	43	0	924844032	57	3873
2026-01-23 11:37:17.00	269.10	29.26	-42.7	-43.5	21.9	0.00e+00	0	43	0	927989760	57	3846
2026-01-23 11:37:18.01	269.43	29.27	-42.8	-43.6	21.8	0.00e+00	0	43	0	931135488	57	3880
2026-01-23 11:37:19.02	269.77	29.27	-42.8	-43.6	21.7	0.00e+00	0	43	0	934281216	57	3908
2026-01-23 11:37:20.03	270.11	29.27	-42.9	-43.8	21.6	0.00e+00	0	43	0	937426944	57	3979
2026-01-23 11:37:21.04	270.44	29.28	-42.8	-43.7	21.8	0.00e+00	0	43	0	940572672	57	3924
2026-01-23 11:37:22.05	270.78	29.28	-42.8	-43.6	21.8	0.00e+00	0	43	0	943718400	57	3888
2026-01-23 11:37:23.06	271.12	29.28	-42.9	-43.7	21.7	0.00e+00	0	43	0	946864128	57	3947
2026-01-23 11:37:24.07	271.46	29.28	-42.9	-43.8	21.6	0.00e+00	0	43	0	950009856	57	3966
2026-01-23 11:37:25.08	271.79	29.27	-42.9	-43.8	21.6	0.00e+00	0	43	0	953155584	57	3972
2026-01-23 11:37:26.08	272.13	29.27	-42.9	-43.7	21.6	0.00e+00	0	43	0	956301312	57	3941
2026-01-23 11:37:27.09	272.47	29.27	-42.7	-43.5	21.9	0.00e+00	0	43	0	959447040	57	3844
2026-01-23 11:37:28.10	272.80	29.26	-42.5	-43.3	22.1	0.00e+00	0	43	0	962592768	57	3773
2026-01-23 11:37:29.11	273.14	29.26	-42.6	-43.4	21.9	0.00e+00	0	43	0	965738496	57	3815
2026-01-23 11:37:30.11	273.47	29.25	-42.7	-43.6	21.9	0.00e+00	0	43	0	968884224	57	3870
2026-01-23 11:37:31.12	273.81	29.24	-42.8	-43.7	21.8	0.00e+00	0	43	0	972029952	57	3925
2026-01-23 11:37:32.13	274.15	29.23	-43.0	-43.9	21.6	0.00e+00	0	43	0	975175680	57	4011
2026-01-23 11:37:33.14	274.48	29.22	-42.9	-43.7	21.8	0.00e+00	0	43	0	978321408	57	3942
2026-01-23 11:37:34.15	274.82	29.21	-42.9	-43.8	21.7	0.00e+00	0	43	0	981467136	57	3964
2026-01-23 11:37:35.16	275.16	29.20	-42.9	-43.7	21.8	0.00e+00	0	43	0	984612864	57	3949
2026-01-23 11:37:36.17	275.49	29.18	-42.9	-43.8	21.7	0.00e+00	0	43	0	987758592	57	3966
2026-01-23 11:37:37.18	275.83	29.17	-43.0	-43.8	21.7	0.00e+00	0	43	0	990904320	57	4001
2026-01-23 11:37:38.18	276.16	29.15	-42.9	-43.7	21.8	0.00e+00	0	43	0	994050048	57	3954
2026-01-23 11:37:39.19	276.49	29.14	-43.0	-43.9	21.6	0.00e+00	0	43	0	997195776	57	4012
2026-01-23 11:37:40.20	276.83	29.12	-43.1	-44.0	21.5	0.00e+00	0	43	0	1001390080	57	4064
2026-01-23 11:37:41.21	277.16	29.10	-43.0	-43.9	21.6	0.00e+00	0	43	0	1003487232	57	4025
2026-01-23 11:37:42.22	277.49	29.08	-43.0	-43.9	21.7	0.00e+00	0	43	0	1006632960	57	4008
2026-01-23 11:37:43.23	277.83	29.06	-43.0	-43.8	21.7	0.00e+00	0	43	0	1009778688	57	3993
2026-01-23 11:37:44.24	278.16	29.04	-43.0	-43.9	21.7	0.00e+00	0	43	0	1012924416	57	4018
2026-01-23 11:37:45.25	278.49	29.01	-43.0	-43.9	21.7	0.00e+00	0	43	0	1016070144	57	4008
2026-01-23 11:37:46.26	278.82	28.99	-43.0	-43.8	21.7	0.00e+00	0	43	0	1019215872	57	4001
2026-01-23 11:37:47.27	279.16	28.97	-43.0	-43.8	21.7	0.00e+00	0	43	0	1022361600	57	3991
2026-01-23 11:37:48.28	279.49	28.94	-42.9	-43.8	21.7	0.00e+00	0	43	0	1025507328	57	3975
2026-01-23 11:37:49.28	279.81	28.91	-42.9	-43.7	21.7	0.00e+00	0	43	0	1028653056	57	3948
2026-01-23 11:37:50.29	280.14	28.89	-42.8	-43.6	21.8	0.00e+00	0	43	0	1031798784	57	3912
2026-01-23 11:37:51.30	280.47	28.86	-42.8	-43.7	21.8	0.00e+00	0	43	0	1035993088	57	3917
2026-01-23 11:37:52.31	280.80	28.83	-42.9	-43.8	21.8	0.00e+00	0	43	0	1039138816	57	3966
2026-01-23 11:37:53.32	281.13	28.80	-43.0	-43.9	21.6	0.00e+00	0	43	0	1042284544	57	4010
2026-01-23 11:37:54.33	281.46	28.77	-43.0	-43.8	21.7	0.00e+00	0	43	0	1045430272	57	3998
2026-01-23 11:37:55.34	281.78	28.73	-42.9	-43.8	21.8	0.00e+00	0	43	0	1048576000	57	3960
2026-01-23 11:37:56.34	282.11	28.70	-43.0	-43.8	21.7	0.00e+00	0	43	0	1050673152	57	3998
2026-01-23 11:37:57.35	282.43	28.67	-42.8	-43.6	22.0	0.00e+00	0	43	0	1053818880	57	3884
2026-01-23 11:37:58.36	282.75	28.63	-42.8	-43.7	21.8	0.00e+00	0	43	0	1056964608	57	3914
2026-01-23 11:37:59.37	283.08	28.59	-43.0	-43.8	21.7	0.00e+00	0	43	0	1060110336	57	4001
2026-01-23 11:38:00.38	283.40	28.56	-42.9	-43.8	21.7	0.00e+00	0	43	0	1063256064	57	3977
2026-01-23 11:38:01.38	283.72	28.52	-43.0	-43.8	21.7	0.00e+00	0	43	0	1066401792	57	4002
2026-01-23 11:38:02.39	284.04	28.48	-42.9	-43.8	21.7	0.00e+00	0	43	0	1069547520	57	3967
2026-01-23 11:38:03.40	284.36	28.44	-43.0	-43.9	21.6	0.00e+00	0	43	0	1073741824	57	4020
2026-01-23 11:38:04.40	284.68	28.40	-43.0	-43.9	21.6	0.00e+00	0	43	0	1076887552	57	4023
2026-01-23 11:38:05.41	285.00	28.36	-43.0	-43.8	21.7	0.00e+00	0	43	0	1080033280	57	3998
2026-01-23 11:38:06.42	285.32	28.31	-42.8	-43.6	21.9	0.00e+00	0	43	0	1083179008	57	3896
2026-01-23 11:38:07.43	285.64	28.27	-42.6	-43.4	22.0	0.00e+00	0	43	0	1086324736	57	3809
2026-01-23 11:38:08.44	285.95	28.23	-42.6	-43.4	22.0	0.00e+00	0	43	0	1089470464	57	3824
2026-01-23 11:38:09.45	286.27	28.18	-42.6	-43.4	21.9	0.00e+00	0	43	0	1092616192	57	3815
2026-01-23 11:38:10.45	286.58	28.14	-42.7	-43.5	21.8	0.00e+00	0	43	0	1095761920	57	3861
2026-01-23 11:38:11.47	286.90	28.09	-42.8	-43.6	21.8	0.00e+00	0	43	0	1097859072	57	3899
2026-01-23 11:38:12.47	287.21	28.04	-43.0	-43.9	21.6	0.00e+00	0	43	0	1101004800	57	4010
2026-01-23 11:38:13.48	287.52	27.99	-42.9	-43.8	21.7	0.00e+00	0	43	0	1104150528	57	3970
2026-01-23 11:38:14.49	287.83	27.94	-42.9	-43.8	21.6	0.00e+00	0	43	0	1107296256	57	3971
2026-01-23 11:38:15.50	288.14	27.89	-43.0	-43.8	21.5	0.00e+00	0	43	0	1111490560	57	3984
2026-01-23 11:38:16.51	288.45	27.84	-43.0	-43.9	21.5	0.00e+00	0	43	0	1114636288	57	4011
2026-01-23 11:38:17.52	288.76	27.79	-43.1	-44.0	21.4	0.00e+00	0	43	0	1117782016	57	4069
2026-01-23 11:38:18.53	289.06	27.74	-43.1	-43.9	21.5	0.00e+00	0	43	0	1120927744	57	4049
2026-01-23 11:38:19.54	289.37	27.69	-43.0	-43.9	21.6	0.00e+00	0	43	0	1124073472	57	4025
2026-01-23 11:38:20.55	289.68	27.63	-43.0	-43.8	21.7	0.00e+00	0	43	0	1127219200	57	3985
2026-01-23 11:38:21.56	289.98	27.58	-42.9	-43.7	21.6	0.00e+00	0	43	0	1130364928	57	3955
2026-01-23 11:38:22.57	290.28	27.52	-42.9	-43.7	21.7	0.00e+00	0	43	0	1133510656	57	3957
2026-01-23 11:38:23.57	290.58	27.47	-42.9	-43.8	21.7	0.00e+00	0	43	0	1136656384	57	3972
2026-01-23 11:38:24.58	290.88	27.41	-43.0	-43.9	21.6	0.00e+00	0	43	0	1139802112	57	4008
2026-01-23 11:38:25.59	291.18	27.35	-43.0	-43.8	21.7	0.00e+00	0	43	0	1142947840	57	3991
2026-01-23 11:38:26.60	291.48	27.29	-42.8	-43.6	21.9	0.00e+00	0	43	0	1146093568	57	3882
2026-01-23 11:38:27.61	291.78	27.23	-42.8	-43.7	21.9	0.00e+00	0	43	0	1149239296	57	3915
2026-01-23 11:38:28.62	292.08	27.17	-42.7	-43.5	22.0	0.00e+00	0	43	0	1152385024	57	3850
2026-01-23 11:38:29.63	292.37	27.11	-42.8	-43.6	21.9	0.00e+00	0	43	0	1155530752	57	3895
2026-01-23 11:38:30.64	292.67	27.05	-42.7	-43.5	21.9	0.00e+00	0	43	0	1158676480	57	3863
2026-01-23 11:38:31.64	292.96	26.99	-42.6	-43.4	22.1	0.00e+00	0	43	0	1161822208	57	3790
2026-01-23 11:38:32.66	293.25	26.93	-42.5	-43.3	22.1	0.00e+00	0	43	0	1164967936	57	3776
2026-01-23 11:38:33.66	293.54	26.87	-42.5	-43.3	22.1	0.00e+00	0	43	0	1168113664	57	3764
2026-01-23 11:38:34.67	293.83	26.80	-42.6	-43.4	22.1	0.00e+00	0	43	0	1171259392	57	3793
2026-01-23 11:38:35.68	294.12	26.74	-42.6	-43.5	22.0	0.00e+00	0	43	0	1174405120	57	3828
2026-01-23 11:38:36.69	294.41	26.67	-42.5	-43.3	22.1	0.00e+00	0	43	0	1177550848	57	3777
2026-01-23 11:38:37.69	294.69	26.61	-42.3	-43.1	22.3	0.00e+00	0	43	0	1180696576	56	3900
2026-01-23 11:38:38.71	294.98	26.54	-42.4	-43.2	22.3	0.00e+00	0	43	0	1183842304	56	3935
2026-01-23 11:38:39.72	295.27	26.48	-42.4	-43.2	22.2	0.00e+00	0	43	0	1186988032	56	3954
2026-01-23 11:38:40.72	295.55	26.41	-42.6	-43.4	22.0	0.00e+00	0	43	0	1190133760	56	4018
2026-01-23 11:38:41.73	295.83	26.34	-42.7	-43.5	22.0	0.00e+00	0	43	0	1193279488	56	4059
2026-01-23 11:38:42.74	296.11	26.27	-42.5	-43.2	22.2	0.00e+00	0	43	0	1196425216	56	3958
2026-01-23 11:38:43.75	296.39	26.20	-42.6	-43.4	22.1	0.00e+00	0	43	0	1199570944	56	4007
2026-01-23 11:38:44.75	296.67	26.14	-42.6	-43.4	22.1	0.00e+00	0	43	0	1202716672	56	4009
2026-01-23 11:38:45.76	296.94	26.07	-42.4	-43.2	22.1	0.00e+00	0	43	0	1205862400	56	3925
2026-01-23 11:38:46.77	297.22	26.00	-42.5	-43.3	22.0	0.00e+00	0	43	0	1209008128	56	3963
2026-01-23 11:38:47.78	297.49	25.93	-42.5	-43.3	22.1	0.00e+00	0	43	0	1212153856	56	3986
2026-01-23 11:38:48.79	297.77	25.85	-42.5	-43.3	22.2	0.00e+00	0	43	0	1215299584	56	3967
2026-01-23 11:38:49.80	298.04	25.78	-42.4	-43.2	22.2	0.00e+00	0	43	0	1218445312	56	3915
2026-01-23 11:38:50.81	298.31	25.71	-42.3	-43.1	22.3	0.00e+00	0	43	0	1221591040	56	3882
2026-01-23 11:38:51.82	298.58	25.64	-42.3	-43.1	22.3	0.00e+00	0	43	0	1224736768	56	3885
2026-01-23 11:38:52.83	298.85	25.56	-42.4	-43.2	22.2	0.00e+00	0	43	0	1227882496	56	3940
2026-01-23 11:38:53.84	299.12	25.49	-42.5	-43.3	22.2	0.00e+00	0	43	0	1231028224	56	3993
2026-01-23 11:38:54.84	299.38	25.42	-42.6	-43.4	22.0	0.00e+00	0	43	0	1234173952	56	4049
2026-01-23 11:38:55.85	299.65	25.34	-42.8	-43.7	21.8	0.00e+00	0	43	0	1237319680	56	4153
2026-01-23 11:38:56.86	299.91	25.27	-42.9	-43.8	21.6	0.00e+00	0	43	0	1240465408	56	4201
2026-01-23 11:38:57.87	300.17	25.19	-42.9	-43.8	21.6	0.00e+00	0	43	0	1243611136	56	4199
2026-01-23 11:38:58.87	300.43	25.12	-43.0	-43.8	21.6	0.00e+00	0	43	0	1246756864	56	4242
2026-01-23 11:38:59.88	300.69	25.04	-42.9	-43.8	21.6	0.00e+00	0	43	0	1249902592	56	4194
2026-01-23 11:39:00.90	300.95	24.96	-42.6	-43.4	22.0	0.00e+00	0	43	0	1253048320	56	4041
2026-01-23 11:39:01.90	301.21	24.89	-42.5	-43.3	22.1	0.00e+00	0	43	0	1256194048	56	3977
2026-01-23 11:39:02.91	301.47	24.81	-42.4	-43.2	22.2	0.00e+00	0	43	0	1259339776	56	3944
2026-01-23 11:39:03.92	301.72	24.73	-42.5	-43.3	22.2	0.00e+00	0	43	0	1262485504	56	3968
2026-01-23 11:39:04.93	301.97	24.66	-42.6	-43.5	22.0	0.00e+00	0	43	0	1265631232	56	4058
2026-01-23 11:39:05.94	302.23	24.58	-42.8	-43.7	21.8	0.00e+00	0	43	0	1268776960	56	4163
2026-01-23 11:39:06.94	302.48	24.50	-43.0	-43.9	21.7	0.00e+00	0	43	0	1271922688	56	4246
2026-01-23 11:39:07.95	302.73	24.42	-43.0	-43.9	21.6	0.00e+00	0	43	0	1275068416	56	4265
2026-01-23 11:39:08.96	302.98	24.34	-42.9	-43.8	21.6	0.00e+00	0	43	0	1278214144	56	4211
2026-01-23 11:39:09.97	303.22	24.26	-42.8	-43.7	21.7	0.00e+00	0	43	0	1281359872	56	4176
2026-01-23 11:39:10.97	303.47	24.18	-43.0	-43.8	21.6	0.00e+00	0	43	0	1284505600	56	4236
2026-01-23 11:39:11.98	303.71	24.10	-42.7	-43.5	21.9	0.00e+00	0	43	0	1287651328	56	4076
2026-01-23 11:39:12.99	303.96	24.02	-42.5	-43.4	22.0	0.00e+00	0	43	0	1290797056	56	4019
2026-01-23 11:39:13.99	304.20	23.94	-42.6	-43.5	21.9	0.00e+00	0	43	0	1293942784	56	4054
2026-01-23 11:39:15.00	304.44	23.86	-42.3	-43.1	22.1	0.00e+00	0	43	0	1297088512	56	3879
2026-01-23 11:39:16.01	304.68	23.78	-42.3	-43.1	22.1	0.00e+00	0	43	0	1300234240	56	3882
2026-01-23 11:39:17.02	304.92	23.70	-42.3	-43.1	22.0	0.00e+00	0	43	0	1303379968	56	3881
2026-01-23 11:39:18.03	305.16	23.62	-42.4	-43.2	21.9	0.00e+00	0	43	0	1306525696	56	3925
2026-01-23 11:39:19.04	305.40	23.53	-42.5	-43.3	21.9	0.00e+00	0	43	0	1309671424	56	3991
2026-01-23 11:39:20.05	305.63	23.45	-42.5	-43.3	21.9	0.00e+00	0	43	0	1312817152	56	3987
2026-01-23 11:39:21.05	305.86	23.37	-42.4	-43.2	22.1	0.00e+00	0	43	0	1315962880	56	3956
2026-01-23 11:39:22.06	306.10	23.29	-42.4	-43.2	22.1	0.00e+00	0	43	0	1319108608	56	3937
2026-01-23 11:39:23.07	306.33	23.21	-42.3	-43.2	22.0	0.00e+00	0	43	0	1322254336	56	3917
2026-01-23 11:39:24.08	306.56	23.12	-42.3	-43.1	22.0	0.00e+00	0	43	0	1325400064	56	3878
2026-01-23 11:39:25.09	306.79	23.04	-42.4	-43.2	21.8	0.00e+00	0	43	0	1328545792	56	3941
2026-01-23 11:39:26.09	307.02	22.96	-42.4	-43.2	21.8	0.00e+00	0	43	0	1331691520	56	3946
2026-01-23 11:39:27.10	307.24	22.87	-42.4	-43.3	21.8	0.00e+00	0	43	0	1334837248	56	3969
2026-01-23 11:39:28.11	307.47	22.79	-42.5	-43.3	21.9	0.00e+00	0	43	0	1337982976	56	3983
2026-01-23 11:39:29.12	307.69	22.70	-42.5	-43.4	21.9	0.00e+00	0	43	0	1341128704	56	4011
2026-01-23 11:39:30.13	307.92	22.62	-42.4	-43.2	22.1	0.00e+00	0	43	0	1344274432	56	3928
2026-01-23 11:39:31.14	308.14	22.54	-42.4	-43.3	22.0	0.00e+00	0	43	0	1347420160	56	3968
2026-01-23 11:39:32.15	308.36	22.45	-42.5	-43.4	21.9	0.00e+00	0	43	0	1350565888	56	4020
2026-01-23 11:39:33.16	308.58	22.37	-42.6	-43.4	21.9	0.00e+00	0	43	0	1353711616	56	4027
2026-01-23 11:39:34.16	308.80	22.28	-42.6	-43.5	21.8	0.00e+00	0	43	0	1356857344	56	4057
2026-01-23 11:39:35.17	309.02	22.20	-42.5	-43.3	21.9	0.00e+00	0	43	0	1360003072	56	3980
2026-01-23 11:39:36.18	309.23	22.11	-42.5	-43.3	21.9	0.00e+00	0	43	0	1363148800	56	3978
2026-01-23 11:39:37.19	309.45	22.03	-42.4	-43.3	22.0	0.00e+00	0	43	0	1366294528	56	3964
2026-01-23 11:39:38.20	309.66	21.94	-42.4	-43.2	22.0	0.00e+00	0	43	0	1369440256	56	3945
2026-01-23 11:39:39.20	309.88	21.86	-42.5	-43.3	21.9	0.00e+00	0	43	0	1372585984	56	3984
2026-01-23 11:39:40.21	310.09	21.77	-42.6	-43.4	21.8	0.00e+00	0	43	0	1375731712	56	4029
2026-01-23 11:39:41.22	310.30	21.69	-42.4	-43.2	22.0	0.00e+00	0	43	0	1378877440	56	3930
2026-01-23 11:39:42.23	310.51	21.60	-42.6	-43.4	21.9	0.00e+00	0	43	0	1382023168	56	4024
2026-01-23 11:39:43.24	310.72	21.52	-42.3	-43.1	22.1	0.00e+00	0	43	0	1385168896	56	3907
2026-01-23 11:39:44.24	310.92	21.43	-42.4	-43.2	22.1	0.00e+00	0	43	0	1388314624	56	3923
2026-01-23 11:39:45.25	311.13	21.35	-42.1	-42.9	22.3	0.00e+00	0	43	0	1391460352	56	3801
2026-01-23 11:39:46.26	311.33	21.26	-42.1	-42.9	22.3	0.00e+00	0	43	0	1394606080	56	3796
2026-01-23 11:39:47.27	311.54	21.17	-42.1	-42.9	22.3	0.00e+00	0	43	0	1397751808	56	3806
2026-01-23 11:39:48.28	311.74	21.09	-42.1	-42.9	22.2	0.00e+00	0	43	0	1400897536	56	3819
2026-01-23 11:39:49.29	311.94	21.00	-42.0	-42.8	22.4	0.00e+00	0	43	0	1404043264	56	3748
2026-01-23 11:39:50.30	312.15	20.91	-41.9	-42.7	22.4	0.00e+00	0	43	0	1407188992	55	3929
2026-01-23 11:39:51.30	312.34	20.83	-42.0	-42.8	22.2	0.00e+00	0	43	0	1410334720	55	3987
2026-01-23 11:39:52.31	312.54	20.74	-42.1	-42.9	22.1	0.00e+00	0	43	0	1413480448	55	4038
2026-01-23 11:39:53.32	312.74	20.66	-42.2	-43.0	22.0	0.00e+00	0	43	0	1416626176	55	4090
2026-01-23 11:39:54.33	312.94	20.57	-42.3	-43.1	21.9	0.00e+00	0	43	0	1419771904	55	4143
2026-01-23 11:39:55.33	313.13	20.48	-42.3	-43.2	21.9	0.00e+00	0	43	0	1422917632	55	4158
2026-01-23 11:39:56.34	313.32	20.40	-42.4	-43.3	21.8	0.00e+00	0	43	0	1426063360	55	4198
2026-01-23 11:39:57.35	313.52	20.31	-42.4	-43.3	21.8	0.00e+00	0	43	0	1429209088	55	4210
2026-01-23 11:39:58.36	313.71	20.23	-42.5	-43.3	21.8	0.00e+00	0	43	0	1432354816	55	4238
2026-01-23 11:39:59.36	313.90	20.14	-42.5	-43.3	21.8	0.00e+00	0	43	0	1435500544	55	4232
2026-01-23 11:40:00.37	314.09	20.05	-42.4	-43.2	21.9	0.00e+00	0	43	0	1438646272	55	4167
2026-01-23 11:40:01.38	314.28	19.97	-42.4	-43.2	21.9	0.00e+00	0	43	0	1441792000	55	4163
2026-01-23 11:40:02.39	314.47	19.88	-42.2	-43.1	22.0	0.00e+00	0	43	0	1444937728	55	4099
2026-01-23 11:40:03.39	314.65	19.79	-42.3	-43.1	21.9	0.00e+00	0	43	0	1448083456	55	4109
2026-01-23 11:40:04.40	314.84	19.71	-42.3	-43.1	21.9	0.00e+00	0	43	0	1451229184	55	4115
2026-01-23 11:40:05.41	315.02	19.62	-42.3	-43.1	21.9	0.00e+00	0	43	0	1454374912	55	4112
2026-01-23 11:40:06.42	315.21	19.53	-42.4	-43.2	21.8	0.00e+00	0	43	0	1457520640	55	4178
2026-01-23 11:40:07.43	315.39	19.45	-42.4	-43.2	21.8	0.00e+00	0	43	0	1460666368	55	4187
2026-01-23 11:40:08.43	315.57	19.36	-42.6	-43.4	21.6	0.00e+00	0	43	0	1463812096	55	4267
2026-01-23 11:40:09.44	315.75	19.28	-42.6	-43.5	21.6	0.00e+00	0	43	0	1466957824	55	4295
2026-01-23 11:40:10.45	315.93	19.19	-42.8	-43.6	21.5	0.00e+00	0	43	0	1470103552	56	4142
2026-01-23 11:40:11.46	316.11	19.10	-42.9	-43.8	21.4	0.00e+00	0	43	0	1473249280	56	4204
2026-01-23 11:40:12.47	316.29	19.02	-42.9	-43.7	21.5	0.00e+00	0	43	0	1476395008	56	4189
2026-01-23 11:40:13.47	316.47	18.93	-42.8	-43.7	21.5	0.00e+00	0	43	0	1479540736	56	4174
2026-01-23 11:40:14.48	316.64	18.85	-42.9	-43.8	21.5	0.00e+00	0	43	0	1482686464	56	4196
2026-01-23 11:40:15.49	316.82	18.76	-43.0	-43.8	21.4	0.00e+00	0	43	0	1485832192	56	4231
2026-01-23 11:40:16.50	316.99	18.67	-42.7	-43.6	21.6	0.00e+00	0	43	0	1488977920	56	4119
2026-01-23 11:40:17.51	317.17	18.59	-42.8	-43.6	21.6	0.00e+00	0	43	0	1492123648	56	4127
2026-01-23 11:40:18.52	317.34	18.50	-42.6	-43.5	21.7	0.00e+00	0	43	0	1495269376	56	4062
2026-01-23 11:40:19.52	317.51	18.42	-42.7	-43.5	21.6	0.00e+00	0	43	0	1498415104	56	4094
2026-01-23 11:40:20.53	317.68	18.33	-42.7	-43.5	21.6	0.00e+00	0	43	0	1501560832	56	4087
2026-01-23 11:40:21.54	317.85	18.24	-42.7	-43.5	21.6	0.00e+00	0	43	0	1504706560	56	4088
2026-01-23 11:40:22.55	318.02	18.16	-42.7	-43.6	21.6	0.00e+00	0	43	0	1507852288	56	4119
2026-01-23 11:40:23.56	318.18	18.07	-42.9	-43.8	21.4	0.00e+00	0	43	0	1510998016	56	4206
2026-01-23 11:40:24.57	318.35	17.99	-42.9	-43.8	21.4	0.00e+00	0	43	0	1514143744	56	4227
2026-01-23 11:40:25.58	318.52	17.90	-43.0	-43.9	21.3	0.00e+00	0	43	0	1517289472	56	4277
2026-01-23 11:40:26.58	318.68	17.82	-43.2	-44.1	21.1	0.00e+00	0	43	0	1520435200	56	4364
2026-01-23 11:40:27.59	318.84	17.73	-43.2	-44.1	21.2	0.00e+00	0	43	0	1523580928	56	4347
2026-01-23 11:40:28.60	319.01	17.65	-43.0	-43.9	21.3	0.00e+00	0	43	0	1526726656	56	4272
2026-01-23 11:40:29.61	319.17	17.56	-43.1	-44.0	21.2	0.00e+00	0	43	0	1529872384	56	4304
2026-01-23 11:40:30.62	319.33	17.48	-43.0	-43.8	21.4	0.00e+00	0	43	0	1533018112	56	4238
2026-01-23 11:40:31.62	319.49	17.39	-43.0	-43.9	21.3	0.00e+00	0	43	0	1536163840	56	4274
2026-01-23 11:40:32.63	319.65	17.31	-43.1	-43.9	21.3	0.00e+00	0	43	0	1539309568	56	4283
2026-01-23 11:40:33.64	319.81	17.22	-43.0	-43.9	21.2	0.00e+00	0	43	0	1542455296	56	4280
2026-01-23 11:40:34.65	319.97	17.14	-43.1	-44.0	21.1	0.00e+00	0	43	0	1545601024	56	4328
2026-01-23 11:40:35.66	320.12	17.05	-43.2	-44.1	20.9	0.00e+00	0	43	0	1548746752	57	4138
2026-01-23 11:40:36.67	320.28	16.97	-43.2	-44.2	20.9	0.00e+00	0	43	0	1551892480	57	4153
2026-01-23 11:40:37.68	320.44	16.88	-43.3	-44.2	20.8	0.00e+00	0	43	0	1555038208	57	4179
2026-01-23 11:40:38.69	320.59	16.80	-43.3	-44.3	20.8	0.00e+00	0	43	0	1558183936	57	4205
2026-01-23 11:40:39.69	320.74	16.71	-43.2	-44.2	20.9	0.00e+00	0	43	0	1561329664	57	4155
2026-01-23 11:40:40.70	320.90	16.63	-43.3	-44.2	20.9	0.00e+00	0	43	0	1564475392	57	4171
2026-01-23 11:40:41.71	321.05	16.55	-43.3	-44.2	20.9	0.00e+00	0	43	0	1567621120	57	4154
2026-01-23 11:40:42.72	321.20	16.46	-43.2	-44.1	21.1	0.00e+00	0	43	0	1570766848	57	4110
2026-01-23 11:40:43.73	321.35	16.38	-42.9	-43.8	21.3	0.00e+00	0	43	0	1573912576	57	3992
2026-01-23 11:40:44.74	321.50	16.29	-42.9	-43.8	21.3	0.00e+00	0	43	0	1577058304	57	3978
2026-01-23 11:40:45.74	321.65	16.21	-43.0	-43.8	21.3	0.00e+00	0	43	0	1580204032	57	4003
2026-01-23 11:40:46.75	321.79	16.13	-42.9	-43.8	21.3	0.00e+00	0	43	0	1583349760	57	3972
2026-01-23 11:40:47.76	321.94	16.04	-42.8	-43.7	21.4	0.00e+00	0	43	0	1586495488	57	3919
2026-01-23 11:40:48.77	322.09	15.96	-42.8	-43.7	21.4	0.00e+00	0	43	0	1589641216	57	3935
2026-01-23 11:40:49.78	322.23	15.88	-42.7	-43.6	21.5	0.00e+00	0	43	0	1592786944	57	3883
2026-01-23 11:40:50.79	322.38	15.79	-42.8	-43.7	21.4	0.00e+00	0	43	0	1595932672	57	3914
2026-01-23 11:40:51.79	322.52	15.71	-42.7	-43.5	21.5	0.00e+00	0	43	0	1600126976	57	3860
2026-01-23 11:40:52.80	322.66	15.63	-42.8	-43.7	21.3	0.00e+00	0	43	0	1602224128	57	3936
2026-01-23 11:40:53.81	322.81	15.55	-42.9	-43.7	21.3	0.00e+00	0	43	0	1605369856	57	3948
2026-01-23 11:40:54.82	322.95	15.46	-43.0	-43.9	21.2	0.00e+00	0	43	0	1608515584	57	4018
2026-01-23 11:40:55.83	323.09	15.38	-43.2	-44.1	21.0	0.00e+00	0	43	0	1611661312	57	4122
2026-01-23 11:40:56.84	323.23	15.30	-43.3	-44.2	20.8	0.00e+00	0	43	0	1614807040	57	4175
2026-01-23 11:40:57.85	323.37	15.21	-43.4	-44.4	20.7	0.00e+00	0	43	0	1617952768	57	4243
2026-01-23 11:40:58.86	323.51	15.13	-43.5	-44.5	20.6	0.00e+00	0	43	0	1621098496	57	4316
2026-01-23 11:40:59.86	323.65	15.05	-43.5	-44.5	20.6	0.00e+00	0	43	0	1624244224	57	4310
2026-01-23 11:41:00.87	323.78	14.97	-43.5	-44.5	20.6	0.00e+00	0	43	0	1627389952	57	4312
2026-01-23 11:41:01.88	323.92	14.89	-43.5	-44.4	20.7	0.00e+00	0	43	0	1630535680	57	4259
2026-01-23 11:41:02.89	324.06	14.81	-43.5	-44.4	20.7	0.00e+00	0	43	0	1633681408	57	4285
2026-01-23 11:41:03.90	324.19	14.72	-43.6	-44.5	20.6	0.00e+00	0	43	0	1637875712	57	4324
2026-01-23 11:41:04.91	324.33	14.64	-43.4	-44.3	20.8	0.00e+00	0	43	0	1641021440	57	4215
2026-01-23 11:41:05.92	324.46	14.56	-43.2	-44.1	20.9	0.00e+00	0	43	0	1644167168	57	4127
2026-01-23 11:41:06.93	324.59	14.48	-43.3	-44.2	20.9	0.00e+00	0	43	0	1647312896	57	4175
2026-01-23 11:41:07.94	324.72	14.40	-43.3	-44.2	20.8	0.00e+00	0	43	0	1649410048	57	4190
2026-01-23 11:41:08.95	324.86	14.32	-43.2	-44.1	20.9	0.00e+00	0	43	0	1652555776	57	4129
2026-01-23 11:41:09.96	324.99	14.24	-43.2	-44.1	20.9	0.00e+00	0	43	0	1655701504	57	4139
2026-01-23 11:41:10.96	325.12	14.16	-43.3	-44.2	20.8	0.00e+00	0	43	0	1658847232	57	4173
2026-01-23 11:41:11.97	325.25	14.08	-43.3	-44.2	20.8	0.00e+00	0	43	0	1661992960	57	4160
2026-01-23 11:41:12.98	325.38	14.00	-43.5	-44.4	20.6	0.00e+00	0	43	0	1665138688	57	4266
2026-01-23 11:41:13.99	325.50	13.92	-43.6	-44.5	20.5	0.00e+00	0	43	0	1668284416	57	4317
2026-01-23 11:41:15.00	325.63	13.84	-43.7	-44.7	20.4	0.00e+00	0	43	0	1672478720	57	4400
2026-01-23 11:41:16.00	325.76	13.76	-43.8	-44.8	20.2	0.00e+00	0	43	0	1675624448	58	4237
2026-01-23 11:41:17.01	325.88	13.68	-43.8	-44.8	20.2	0.00e+00	0	43	0	1678770176	58	4231
2026-01-23 11:41:18.02	326.01	13.60	-43.8	-44.8	20.3	0.00e+00	0	43	0	1681915904	58	4204
2026-01-23 11:41:19.03	326.13	13.52	-43.8	-44.8	20.3	0.00e+00	0	43	0	1685061632	58	4214
2026-01-23 11:41:20.04	326.26	13.44	-43.8	-44.8	20.3	0.00e+00	0	43	0	1688207360	58	4213
2026-01-23 11:41:21.05	326.38	13.36	-43.7	-44.7	20.4	0.00e+00	0	43	0	1691353088	58	4166
2026-01-23 11:41:22.06	326.51	13.28	-43.6	-44.5	20.5	0.00e+00	0	43	0	1694498816	58	4080
2026-01-23 11:41:23.07	326.63	13.20	-43.6	-44.6	20.5	0.00e+00	0	43	0	1696595968	58	4121
2026-01-23 11:41:24.08	326.75	13.12	-43.7	-44.7	20.4	0.00e+00	0	43	0	1699741696	58	4161
2026-01-23 11:41:25.09	326.87	13.04	-43.7	-44.7	20.3	0.00e+00	0	43	0	1702887424	58	4165
2026-01-23 11:41:26.10	326.99	12.96	-43.8	-44.8	20.2	0.00e+00	0	43	0	1707081728	58	4208
2026-01-23 11:41:27.11	327.11	12.89	-43.9	-44.9	20.1	0.00e+00	0	43	0	1710227456	58	4269
2026-01-23 11:41:28.11	327.23	12.81	-43.9	-44.9	20.1	0.00e+00	0	43	0	1713373184	58	4284
2026-01-23 11:41:29.12	327.35	12.73	-44.0	-44.9	20.1	0.00e+00	0	43	0	1716518912	58	4290
2026-01-23 11:41:30.13	327.47	12.65	-44.0	-45.0	20.1	0.00e+00	0	43	0	1719664640	58	4307
2026-01-23 11:41:31.14	327.58	12.57	-43.9	-44.9	20.2	0.00e+00	0	43	0	1722810368	58	4247
2026-01-23 11:41:32.15	327.70	12.50	-43.8	-44.7	20.3	0.00e+00	0	43	0	1725956096	58	4191
2026-01-23 11:41:33.16	327.82	12.42	-43.5	-44.5	20.5	0.00e+00	0	43	0	1729101824	58	4064
2026-01-23 11:41:34.16	327.93	12.34	-43.6	-44.6	20.4	0.00e+00	0	43	0	1732247552	58	4103
2026-01-23 11:41:35.18	328.05	12.26	-43.7	-44.7	20.3	0.00e+00	0	43	0	1735393280	58	4156
2026-01-23 11:41:36.18	328.16	12.19	-43.8	-44.8	20.2	0.00e+00	0	43	0	1738539008	58	4210
2026-01-23 11:41:37.19	328.28	12.11	-43.8	-44.8	20.1	0.00e+00	0	43	0	1741684736	58	4230
2026-01-23 11:41:38.20	328.39	12.03	-43.8	-44.8	20.1	0.00e+00	0	43	0	1744830464	58	4202
2026-01-23 11:41:39.21	328.50	11.96	-43.8	-44.8	20.1	0.00e+00	0	43	0	1747976192	58	4199
2026-01-23 11:41:40.22	328.62	11.88	-44.0	-45.0	19.9	0.00e+00	0	43	0	1751121920	58	4315
2026-01-23 11:41:41.23	328.73	11.80	-43.9	-44.9	19.9	0.00e+00	0	43	0	1754267648	58	4287
2026-01-23 11:41:42.24	328.84	11.73	-44.0	-45.0	19.9	0.00e+00	0	43	0	1757413376	58	4332
2026-01-23 11:41:43.25	328.95	11.65	-44.2	-45.2	19.7	0.00e+00	0	43	0	1760559104	58	4440
2026-01-23 11:41:44.26	329.06	11.58	-44.1	-45.1	19.8	0.00e+00	0	43	0	1763704832	58	4389
2026-01-23 11:41:45.27	329.17	11.50	-44.0	-45.0	19.9	0.00e+00	0	43	0	1766850560	58	4334
2026-01-23 11:41:46.27	329.28	11.43	-44.2	-45.3	19.7	0.00e+00	0	43	0	1769996288	58	4442
2026-01-23 11:41:47.28	329.39	11.35	-44.1	-45.1	19.9	0.00e+00	0	43	0	1773142016	59	4115
2026-01-23 11:41:48.29	329.50	11.27	-44.1	-45.1	19.9	0.00e+00	0	43	0	1776287744	59	4142
2026-01-23 11:41:49.30	329.60	11.20	-44.0	-45.0	19.9	0.00e+00	0	43	0	1779433472	59	4094
2026-01-23 11:41:50.31	329.71	11.12	-43.9	-44.9	20.1	0.00e+00	0	43	0	1782579200	59	4033
2026-01-23 11:41:51.32	329.82	11.05	-43.9	-44.9	20.0	0.00e+00	0	43	0	1785724928	59	4045
2026-01-23 11:41:52.32	329.92	10.98	-44.0	-45.0	20.0	0.00e+00	0	43	0	1788870656	59	4065
2026-01-23 11:41:53.33	330.03	10.90	-43.8	-44.7	20.2	0.00e+00	0	43	0	1792016384	59	3957
2026-01-23 11:41:54.34	330.13	10.83	-43.7	-44.7	20.2	0.00e+00	0	43	0	1795162112	59	3943
2026-01-23 11:41:55.34	330.24	10.75	-43.8	-44.8	20.1	0.00e+00	0	43	0	1798307840	59	3999
2026-01-23 11:41:56.35	330.34	10.68	-43.9	-44.9	20.0	0.00e+00	0	43	0	1801453568	59	4007
2026-01-23 11:41:57.37	330.44	10.60	-43.9	-44.9	20.0	0.00e+00	0	43	0	1804599296	59	4034
2026-01-23 11:41:58.37	330.55	10.53	-44.0	-45.0	19.9	0.00e+00	0	43	0	1807745024	59	4074
2026-01-23 11:41:59.38	330.65	10.46	-43.9	-44.9	20.0	0.00e+00	0	43	0	1810890752	59	4022
2026-01-23 11:42:00.39	330.75	10.38	-44.0	-45.1	19.8	0.00e+00	0	43	0	1814036480	59	4099
2026-01-23 11:42:01.40	330.85	10.31	-44.0	-45.0	19.8	0.00e+00	0	43	0	1817182208	59	4095
2026-01-23 11:42:02.41	330.95	10.24	-44.1	-45.1	19.7	0.00e+00	0	43	0	1820327936	59	4136
2026-01-23 11:42:03.42	331.05	10.16	-44.0	-45.1	19.8	0.00e+00	0	43	0	1823473664	59	4105
2026-01-23 11:42:04.43	331.15	10.09	-44.2	-45.2	19.6	0.00e+00	0	43	0	1826619392	59	4193
2026-01-23 11:42:05.44	331.25	10.02	-44.1	-45.2	19.6	0.00e+00	0	43	0	1829765120	59	4166
2026-01-23 11:42:06.45	331.35	9.94	-44.5	-45.6	19.3	0.00e+00	0	43	0	1832910848	59	4376
2026-01-23 11:42:07.46	331.45	9.87	-44.6	-45.7	19.2	0.00e+00	0	43	0	1836056576	59	4407
2026-01-23 11:42:08.46	331.55	9.80	-44.5	-45.6	19.3	0.00e+00	0	43	0	1839202304	59	4366
2026-01-23 11:42:09.48	331.65	9.73	-44.6	-45.7	18.9	0.00e+00	0	43	0	1842348032	60	4183
2026-01-23 11:42:10.49	331.74	9.65	-44.3	-45.4	19.1	0.00e+00	0	43	0	1845493760	60	4037
2026-01-23 11:42:11.50	331.84	9.58	-44.3	-45.4	19.2	0.00e+00	0	43	0	1848639488	60	4020
2026-01-23 11:42:12.50	331.94	9.51	-44.0	-45.1	19.4	0.00e+00	0	43	0	1851785216	60	3880
2026-01-23 11:42:13.51	332.03	9.44	-44.4	-45.5	19.3	0.00e+00	0	43	0	1854930944	59	4319
2026-01-23 11:42:14.52	332.13	9.37	-44.5	-45.6	19.3	0.00e+00	0	43	0	1858076672	59	4344
2026-01-23 11:42:15.54	332.22	9.29	-44.6	-45.7	19.1	0.00e+00	0	43	0	1861222400	59	4404
2026-01-23 11:42:16.54	332.32	9.22	-44.0	-45.1	19.3	0.00e+00	0	43	0	1864368128	60	3890
2026-01-23 11:42:17.55	332.41	9.15	-44.3	-45.4	19.1	0.00e+00	0	43	0	1867513856	60	4009
2026-01-23 11:42:18.56	332.51	9.08	-44.1	-45.2	19.3	0.00e+00	0	43	0	1870659584	60	3917
2026-01-23 11:42:19.57	332.60	9.01	-44.3	-45.3	19.4	0.00e+00	0	43	0	1873805312	59	4233
2026-01-23 11:42:20.58	332.69	8.94	-44.5	-45.6	19.1	0.00e+00	0	43	0	1876951040	59	4390
2026-01-23 11:42:21.59	332.78	8.87	-44.3	-45.4	19.1	0.00e+00	0	43	0	1880096768	60	4018
2026-01-23 11:42:22.59	332.88	8.80	-44.4	-45.5	19.0	0.00e+00	0	43	0	1883242496	60	4075
2026-01-23 11:42:23.60	332.97	8.73	-44.5	-45.6	18.9	0.00e+00	0	43	0	1886388224	60	4108
2026-01-23 11:42:24.61	333.06	8.66	-44.4	-45.5	19.3	0.00e+00	0	43	0	1889533952	59	4328
2026-01-23 11:42:25.62	333.15	8.59	-44.5	-45.7	18.8	0.00e+00	0	43	0	1892679680	60	4156
2026-01-23 11:42:26.63	333.24	8.52	-44.6	-45.7	18.7	0.00e+00	0	43	0	1895825408	60	4193
2026-01-23 11:42:27.64	333.33	8.45	-44.2	-45.3	19.1	0.00e+00	0	43	0	1898971136	60	3978
2026-01-23 11:42:28.64	333.42	8.38	-44.3	-45.4	19.0	0.00e+00	0	43	0	1902116864	60	4028
2026-01-23 11:42:29.65	333.51	8.31	-44.3	-45.4	19.0	0.00e+00	0	43	0	1905262592	60	4016
2026-01-23 11:42:30.66	333.60	8.24	-44.6	-45.7	18.7	0.00e+00	0	43	0	1908408320	60	4184
2026-01-23 11:42:31.67	333.68	8.17	-44.5	-45.7	18.8	0.00e+00	0	43	0	1911554048	60	4154
2026-01-23 11:42:32.68	333.77	8.10	-44.3	-45.4	19.1	0.00e+00	0	43	0	1914699776	60	4021
2026-01-23 11:42:33.69	333.86	8.03	-44.4	-45.6	18.9	0.00e+00	0	42	0	1917845504	60	4105
2026-01-23 11:42:34.70	333.95	7.96	-44.3	-45.5	19.0	0.00e+00	0	43	0	1920991232	60	4056
2026-01-23 11:42:35.71	334.03	7.89	-44.6	-45.7	18.7	0.00e+00	0	43	0	1924136960	60	4184
