passes_logs/2026/01/23/R3.2S_Murmansk/R3.2S_Murmansk__20260123_075818_FENGYUN_3D_rec.log

#Pass ID: 20260123_075818_FENGYUN 3D
#Satellite: FENGYUN 3D
#Configuration: FENGYUN 3D
#almurnet v.1.7.20251203
#Start time: 2026-01-23 07:58:18

#Version: 2.2.20231116
#Station: R3.2S_Murmansk
#Location: 33.079688 lon 68.888172 lat
#TLE: 1 43010U 17072A   26022.47411728  .00000617  00000+0  31375-3 0  9996
#TLE: 2 43010  98.9952 354.4060 0002481  95.7964 264.3494 14.19699924424319

#Time	Az	El	Level	Level2	SNR	BER	BlckErr	Temp	State	Recorded	gain1	gain2
2026-01-23 07:58:18.00	74.54	1.98	-54.5	-66.5	3.8	8.46e-01	0	44	0	0	80	14479
2026-01-23 07:58:19.01	74.48	2.04	-54.6	-66.6	3.8	8.46e-01	0	44	104	0	79	15444
2026-01-23 07:58:20.02	74.42	2.10	-54.5	-66.5	3.8	8.47e-01	0	44	104	0	79	15350
2026-01-23 07:58:21.03	74.36	2.16	-54.6	-66.5	3.8	8.46e-01	0	44	104	0	79	15386
2026-01-23 07:58:22.04	74.29	2.22	-54.5	-66.5	3.8	8.45e-01	0	43	104	0	79	15365
2026-01-23 07:58:23.04	74.23	2.27	-54.5	-66.5	3.8	8.46e-01	0	43	104	0	79	15377
2026-01-23 07:58:24.05	74.17	2.33	-54.5	-66.5	3.8	8.45e-01	0	43	104	0	79	15330
2026-01-23 07:58:25.06	74.11	2.39	-54.5	-66.5	3.8	8.46e-01	0	43	104	0	79	15331
2026-01-23 07:58:26.07	74.04	2.45	-54.5	-66.5	3.8	8.45e-01	0	44	104	0	79	15365
2026-01-23 07:58:27.08	73.98	2.51	-54.5	-66.5	3.8	8.46e-01	0	43	104	0	79	15306
2026-01-23 07:58:28.08	73.92	2.57	-54.5	-66.5	3.8	8.47e-01	0	44	104	0	79	15357
2026-01-23 07:58:29.09	73.85	2.63	-54.7	-66.7	3.8	8.45e-01	0	44	104	0	79	15597
2026-01-23 07:58:30.10	73.79	2.69	-54.7	-66.7	3.8	8.46e-01	0	44	104	0	79	15665
2026-01-23 07:58:31.11	73.73	2.74	-54.6	-66.6	3.8	8.46e-01	0	43	104	0	80	14615
2026-01-23 07:58:32.11	73.66	2.80	-54.6	-66.6	3.8	8.45e-01	0	44	104	0	80	14639
2026-01-23 07:58:33.12	73.60	2.86	-54.6	-66.6	3.8	8.46e-01	0	43	104	0	80	14543
2026-01-23 07:58:34.13	73.53	2.92	-54.6	-66.5	3.8	8.48e-01	0	43	104	0	80	14539
2026-01-23 07:58:35.14	73.47	2.98	-54.5	-66.5	3.8	8.47e-01	0	43	104	0	80	14435
2026-01-23 07:58:36.15	73.40	3.04	-54.5	-66.4	3.8	8.46e-01	0	43	104	0	80	14373
2026-01-23 07:58:37.16	73.34	3.10	-54.4	-66.4	3.8	8.46e-01	0	44	104	0	80	14231
2026-01-23 07:58:38.16	73.27	3.16	-54.4	-66.3	3.8	8.46e-01	0	43	104	0	80	14143
2026-01-23 07:58:39.17	73.20	3.22	-54.3	-66.2	3.8	8.48e-01	0	44	104	0	80	14036
2026-01-23 07:58:40.18	73.14	3.28	-54.2	-66.2	3.8	8.45e-01	0	43	104	0	80	13985
2026-01-23 07:58:41.19	73.07	3.34	-54.2	-66.2	3.8	8.46e-01	0	43	104	0	80	13910
2026-01-23 07:58:42.19	73.00	3.40	-54.1	-66.1	3.8	8.46e-01	0	44	104	0	80	13737
2026-01-23 07:58:43.20	72.94	3.46	-54.0	-66.0	3.8	8.46e-01	0	44	104	0	80	13599
2026-01-23 07:58:44.21	72.87	3.52	-54.0	-65.9	3.8	8.46e-01	0	43	104	0	79	14353
2026-01-23 07:58:45.22	72.80	3.58	-53.9	-65.8	3.8	8.47e-01	0	44	104	0	79	14189
2026-01-23 07:58:46.23	72.73	3.64	-53.7	-65.7	3.8	8.47e-01	0	43	104	0	79	13927
2026-01-23 07:58:47.24	72.66	3.70	-53.5	-65.4	3.8	8.46e-01	0	43	104	0	79	13549
2026-01-23 07:58:48.24	72.59	3.76	-53.3	-65.3	3.8	8.47e-01	0	43	104	0	78	14062
2026-01-23 07:58:49.25	72.52	3.82	-53.1	-65.0	3.8	8.47e-01	0	43	104	0	78	13654
2026-01-23 07:58:50.26	72.46	3.88	-52.7	-64.6	3.8	8.46e-01	0	43	104	0	77	13857
2026-01-23 07:58:51.26	72.39	3.94	-52.5	-63.8	3.8	8.45e-01	0	43	104	0	77	12544
2026-01-23 07:58:52.27	72.32	4.00	-52.4	-63.0	3.8	8.46e-01	0	43	104	0	76	12136
2026-01-23 07:58:53.28	72.25	4.06	-52.4	-62.6	3.8	8.46e-01	0	44	104	0	76	11632
2026-01-23 07:58:54.29	72.17	4.13	-52.3	-62.0	4.0	8.45e-01	0	43	104	0	76	10836
2026-01-23 07:58:55.30	72.10	4.19	-52.2	-61.2	4.1	8.41e-01	0	43	0	0	76	9940
2026-01-23 07:58:56.30	72.03	4.25	-52.2	-61.2	4.1	8.42e-01	0	43	0	0	76	9918
2026-01-23 07:58:57.31	71.96	4.31	-52.1	-60.7	4.3	8.37e-01	0	43	0	0	76	9292
2026-01-23 07:58:58.32	71.89	4.37	-52.0	-60.3	4.4	8.32e-01	0	43	0	0	76	8870
2026-01-23 07:58:59.33	71.82	4.43	-51.7	-58.8	5.1	7.90e-01	0	43	0	0	75	7956
2026-01-23 07:59:00.34	71.74	4.49	-51.4	-57.4	6.0	4.70e-01	0	44	0	2097152	74	7147
2026-01-23 07:59:01.35	71.67	4.56	-50.9	-55.7	7.4	1.75e-01	0	44	0	7340032	73	6249
2026-01-23 07:59:02.35	71.60	4.62	-50.3	-54.4	8.8	5.63e-02	0	43	0	13631488	72	5662
2026-01-23 07:59:03.36	71.52	4.68	-49.9	-53.4	9.9	1.71e-02	0	43	0	18874368	71	5353
2026-01-23 07:59:04.37	71.45	4.74	-49.4	-52.5	10.8	7.39e-03	0	44	0	24117248	70	5143
2026-01-23 07:59:05.38	71.37	4.80	-49.4	-52.4	10.9	3.96e-03	0	43	0	30408704	70	5088
2026-01-23 07:59:06.38	71.30	4.87	-49.2	-52.2	11.2	2.56e-03	0	43	0	35651584	70	4946
2026-01-23 07:59:07.40	71.22	4.93	-49.3	-52.4	11.0	2.55e-03	0	43	0	41943040	70	5065
2026-01-23 07:59:08.40	71.15	4.99	-49.7	-53.1	10.2	4.96e-03	0	43	0	47185920	70	5484
2026-01-23 07:59:09.41	71.07	5.05	-47.4	-49.4	13.8	1.05e-02	0	44	0	53477376	67	4278
2026-01-23 07:59:10.42	71.00	5.12	-45.1	-46.5	17.2	0.00e+00	0	43	0	58720256	60	4546
2026-01-23 07:59:11.43	70.92	5.18	-49.5	-52.8	10.7	3.96e-03	0	43	0	65011712	70	5292
2026-01-23 07:59:12.44	70.84	5.24	-49.0	-51.7	11.3	8.18e-01	0	43	0	67108864	70	4700
2026-01-23 07:59:13.44	70.77	5.31	-46.9	-48.7	15.1	0.00e+00	0	43	0	73400320	64	4665
2026-01-23 07:59:14.45	70.69	5.37	-51.7	-58.6	4.2	8.46e-01	0	44	104	74448896	75	7749
2026-01-23 07:59:15.46	70.61	5.43	-44.2	-45.3	18.6	0.00e+00	0	43	0	76546048	59	4220
2026-01-23 07:59:16.47	70.53	5.50	-43.9	-45.1	18.8	0.00e+00	0	43	0	82837504	59	4111
2026-01-23 07:59:17.47	70.46	5.56	-44.1	-45.3	18.6	0.00e+00	0	43	0	88080384	59	4226
2026-01-23 07:59:18.48	70.38	5.62	-43.9	-45.1	18.8	0.00e+00	0	43	0	93323264	59	4126
2026-01-23 07:59:19.49	70.30	5.69	-44.0	-45.2	18.8	0.00e+00	0	43	0	99614720	59	4151
2026-01-23 07:59:20.50	70.22	5.75	-44.1	-45.3	18.7	0.00e+00	0	43	0	105906176	59	4206
2026-01-23 07:59:21.51	70.14	5.81	-43.7	-44.9	19.1	0.00e+00	0	43	0	111149056	59	4015
2026-01-23 07:59:22.52	70.06	5.88	-44.0	-45.2	18.8	0.00e+00	0	43	0	116391936	59	4166
2026-01-23 07:59:23.52	69.98	5.94	-43.9	-45.0	19.0	0.00e+00	0	43	0	122683392	59	4088
2026-01-23 07:59:24.53	69.90	6.01	-43.4	-44.5	19.4	0.00e+00	0	43	0	127926272	58	4085
2026-01-23 07:59:25.54	69.82	6.07	-43.5	-44.6	19.3	0.00e+00	0	43	0	134217728	58	4136
2026-01-23 07:59:26.55	69.73	6.13	-43.2	-44.2	19.9	0.00e+00	0	43	0	139460608	58	3948
2026-01-23 07:59:27.56	69.65	6.20	-43.4	-44.4	19.7	0.00e+00	0	43	0	144703488	58	4038
2026-01-23 07:59:28.56	69.57	6.26	-43.3	-44.3	19.8	0.00e+00	0	43	0	150994944	58	3991
2026-01-23 07:59:29.57	69.49	6.33	-43.4	-44.4	19.7	0.00e+00	0	43	0	156237824	58	4043
2026-01-23 07:59:30.58	69.40	6.39	-43.3	-44.3	19.8	0.00e+00	0	43	0	161480704	58	3992
2026-01-23 07:59:31.59	69.32	6.46	-43.5	-44.5	19.6	0.00e+00	0	43	0	167772160	58	4073
2026-01-23 07:59:32.59	69.24	6.52	-43.6	-44.7	19.5	0.00e+00	0	43	0	173015040	58	4173
2026-01-23 07:59:33.60	69.15	6.59	-43.6	-44.6	19.5	0.00e+00	0	43	0	179306496	58	4144
2026-01-23 07:59:34.61	69.07	6.65	-43.6	-44.7	19.5	0.00e+00	0	43	0	184549376	58	4170
2026-01-23 07:59:35.62	68.98	6.72	-43.9	-45.0	19.2	0.00e+00	0	43	0	190840832	58	4295
2026-01-23 07:59:36.63	68.90	6.78	-43.7	-44.8	19.4	0.00e+00	0	43	0	196083712	58	4209
2026-01-23 07:59:37.64	68.81	6.85	-43.6	-44.7	19.5	0.00e+00	0	43	0	201326592	58	4152
2026-01-23 07:59:38.65	68.72	6.91	-43.5	-44.5	19.6	0.00e+00	0	44	0	207618048	58	4092
2026-01-23 07:59:39.66	68.64	6.98	-43.5	-44.5	19.7	0.00e+00	0	43	0	212860928	58	4081
2026-01-23 07:59:40.66	68.55	7.05	-43.4	-44.5	19.7	0.00e+00	0	43	0	219152384	58	4056
2026-01-23 07:59:41.67	68.46	7.11	-43.5	-44.6	19.6	0.00e+00	0	43	0	224395264	58	4110
2026-01-23 07:59:42.68	68.37	7.18	-43.2	-44.2	19.9	0.00e+00	0	44	0	229638144	58	3958
2026-01-23 07:59:43.68	68.29	7.24	-43.3	-44.3	19.9	0.00e+00	0	43	0	235929600	58	3983
2026-01-23 07:59:44.69	68.20	7.31	-43.1	-44.1	20.1	0.00e+00	0	43	0	241172480	58	3913
2026-01-23 07:59:45.70	68.11	7.38	-43.3	-44.3	20.0	0.00e+00	0	43	0	247463936	58	3966
2026-01-23 07:59:46.70	68.02	7.44	-43.4	-44.4	19.8	0.00e+00	0	43	0	252706816	58	4026
2026-01-23 07:59:47.71	67.93	7.51	-43.1	-44.1	20.1	0.00e+00	0	43	0	258998272	58	3907
2026-01-23 07:59:48.72	67.84	7.57	-43.2	-44.2	20.0	0.00e+00	0	43	0	264241152	58	3956
2026-01-23 07:59:49.73	67.75	7.64	-43.1	-44.1	20.2	0.00e+00	0	43	0	269484032	58	3878
2026-01-23 07:59:50.73	67.66	7.71	-43.1	-44.1	20.1	0.00e+00	0	43	0	275775488	58	3907
2026-01-23 07:59:51.74	67.56	7.78	-43.3	-44.3	20.0	0.00e+00	0	43	0	281018368	58	3970
2026-01-23 07:59:52.75	67.47	7.84	-43.5	-44.5	19.8	0.00e+00	0	43	0	287309824	58	4073
2026-01-23 07:59:53.76	67.38	7.91	-43.6	-44.6	19.7	0.00e+00	0	43	0	292552704	58	4118
2026-01-23 07:59:54.77	67.29	7.98	-43.3	-44.4	19.9	0.00e+00	0	43	0	297795584	58	4009
2026-01-23 07:59:55.78	67.19	8.04	-43.1	-44.1	20.2	0.00e+00	0	43	0	304087040	58	3881
2026-01-23 07:59:56.78	67.10	8.11	-43.1	-44.1	20.2	0.00e+00	0	43	0	309329920	58	3899
2026-01-23 07:59:57.79	67.00	8.18	-42.9	-43.9	20.4	0.00e+00	0	43	0	314572800	57	4031
2026-01-23 07:59:58.80	66.91	8.25	-42.8	-43.8	20.5	0.00e+00	0	43	0	320864256	57	3960
2026-01-23 07:59:59.80	66.81	8.31	-42.8	-43.8	20.5	0.00e+00	0	43	0	327155712	57	3968
2026-01-23 08:00:00.82	66.72	8.38	-43.0	-43.9	20.3	0.00e+00	0	43	0	332398592	57	4050
2026-01-23 08:00:01.82	66.62	8.45	-43.1	-44.0	20.3	0.00e+00	0	43	0	337641472	57	4086
2026-01-23 08:00:02.83	66.52	8.52	-43.0	-44.0	20.4	0.00e+00	0	43	0	343932928	57	4063
2026-01-23 08:00:03.84	66.43	8.59	-42.8	-43.8	20.5	0.00e+00	0	43	0	349175808	57	3970
2026-01-23 08:00:04.85	66.33	8.65	-42.7	-43.7	20.6	0.00e+00	0	43	0	354418688	57	3932
2026-01-23 08:00:05.85	66.23	8.72	-42.7	-43.6	20.7	0.00e+00	0	43	0	360710144	57	3897
2026-01-23 08:00:06.86	66.13	8.79	-42.6	-43.6	20.7	0.00e+00	0	43	0	365953024	57	3880
2026-01-23 08:00:07.87	66.03	8.86	-42.6	-43.5	20.8	0.00e+00	0	43	0	372244480	57	3858
2026-01-23 08:00:08.87	65.93	8.93	-42.6	-43.5	20.8	0.00e+00	0	43	0	377487360	57	3864
2026-01-23 08:00:09.88	65.83	9.00	-42.4	-43.3	21.0	0.00e+00	0	43	0	382730240	56	3964
2026-01-23 08:00:10.89	65.73	9.07	-42.5	-43.4	20.9	0.00e+00	0	43	0	389021696	56	4025
2026-01-23 08:00:11.90	65.63	9.14	-42.5	-43.4	20.9	0.00e+00	0	43	0	394264576	56	4031
2026-01-23 08:00:12.91	65.53	9.20	-42.3	-43.2	21.1	0.00e+00	0	43	0	400556032	56	3938
2026-01-23 08:00:13.92	65.43	9.27	-42.4	-43.3	21.0	0.00e+00	0	43	0	405798912	56	3965
2026-01-23 08:00:14.92	65.33	9.34	-42.6	-43.5	20.8	0.00e+00	0	43	0	412090368	56	4087
2026-01-23 08:00:15.93	65.22	9.41	-42.5	-43.5	20.9	0.00e+00	0	43	0	417333248	56	4060
2026-01-23 08:00:16.94	65.12	9.48	-42.5	-43.4	20.9	0.00e+00	0	43	0	422576128	56	4034
2026-01-23 08:00:17.95	65.02	9.55	-42.5	-43.4	20.9	0.00e+00	0	43	0	428867584	56	4030
2026-01-23 08:00:18.96	64.91	9.62	-42.6	-43.6	20.8	0.00e+00	0	43	0	434110464	56	4107
2026-01-23 08:00:19.96	64.81	9.69	-42.6	-43.5	20.9	0.00e+00	0	44	0	439353344	56	4071
2026-01-23 08:00:20.97	64.70	9.76	-42.6	-43.5	20.9	0.00e+00	0	43	0	445644800	56	4080
2026-01-23 08:00:21.98	64.59	9.83	-42.5	-43.4	21.0	0.00e+00	0	43	0	450887680	56	4034
2026-01-23 08:00:22.99	64.49	9.90	-42.6	-43.5	20.9	0.00e+00	0	43	0	457179136	56	4074
2026-01-23 08:00:23.99	64.38	9.97	-42.3	-43.2	21.1	0.00e+00	0	43	0	462422016	56	3958
2026-01-23 08:00:25.00	64.27	10.04	-42.2	-43.1	21.2	0.00e+00	0	43	0	468713472	56	3909
2026-01-23 08:00:26.01	64.16	10.11	-42.4	-43.3	21.1	0.00e+00	0	43	0	473956352	56	3981
2026-01-23 08:00:27.02	64.05	10.18	-42.6	-43.5	20.8	0.00e+00	0	43	0	480247808	56	4091
2026-01-23 08:00:28.03	63.95	10.25	-42.5	-43.4	21.0	0.00e+00	0	43	0	485490688	56	4051
2026-01-23 08:00:29.04	63.83	10.32	-42.6	-43.5	20.9	0.00e+00	0	43	0	490733568	56	4087
2026-01-23 08:00:30.05	63.72	10.40	-42.5	-43.4	21.0	0.00e+00	0	43	0	497025024	56	4050
2026-01-23 08:00:31.06	63.61	10.47	-42.4	-43.4	21.1	0.00e+00	0	43	0	502267904	56	4006
2026-01-23 08:00:32.07	63.50	10.54	-42.4	-43.3	21.1	0.00e+00	0	43	0	507510784	56	4000
2026-01-23 08:00:33.07	63.39	10.61	-42.5	-43.5	20.9	0.00e+00	0	43	0	513802240	56	4062
2026-01-23 08:00:34.08	63.28	10.68	-42.5	-43.5	21.0	0.00e+00	0	43	0	519045120	56	4062
2026-01-23 08:00:35.09	63.16	10.75	-42.5	-43.5	21.0	0.00e+00	0	43	0	524288000	56	4056
2026-01-23 08:00:36.10	63.05	10.82	-42.6	-43.5	20.9	0.00e+00	0	43	0	530579456	56	4083
2026-01-23 08:00:37.10	62.94	10.89	-42.2	-43.1	21.3	0.00e+00	0	43	0	536870912	56	3891
2026-01-23 08:00:38.11	62.82	10.96	-42.2	-43.1	21.3	0.00e+00	0	44	0	542113792	56	3897
2026-01-23 08:00:39.12	62.70	11.04	-42.3	-43.2	21.3	0.00e+00	0	43	0	547356672	56	3924
2026-01-23 08:00:40.13	62.59	11.11	-42.3	-43.2	21.2	0.00e+00	0	43	0	553648128	56	3936
2026-01-23 08:00:41.14	62.47	11.18	-42.4	-43.3	21.1	0.00e+00	0	43	0	558891008	56	4002
2026-01-23 08:00:42.14	62.36	11.25	-42.1	-43.0	21.4	0.00e+00	0	43	0	565182464	56	3845
2026-01-23 08:00:43.15	62.24	11.32	-42.1	-43.0	21.5	0.00e+00	0	43	0	570425344	56	3841
2026-01-23 08:00:44.16	62.12	11.40	-41.8	-42.7	21.7	0.00e+00	0	43	0	575668224	55	3942
2026-01-23 08:00:45.17	62.00	11.47	-41.8	-42.6	21.7	0.00e+00	0	43	0	581959680	55	3903
2026-01-23 08:00:46.17	61.88	11.54	-41.8	-42.7	21.7	0.00e+00	0	43	0	587202560	55	3921
2026-01-23 08:00:47.18	61.76	11.61	-41.8	-42.6	21.7	0.00e+00	0	43	0	592445440	55	3906
2026-01-23 08:00:48.19	61.64	11.69	-41.9	-42.7	21.7	0.00e+00	0	43	0	598736896	55	3953
2026-01-23 08:00:49.20	61.52	11.76	-41.9	-42.8	21.6	0.00e+00	0	43	0	605028352	55	3984
2026-01-23 08:00:50.21	61.39	11.83	-41.8	-42.7	21.7	0.00e+00	0	43	0	610271232	55	3919
2026-01-23 08:00:51.22	61.27	11.90	-41.8	-42.7	21.7	0.00e+00	0	43	0	615514112	55	3940
2026-01-23 08:00:52.23	61.15	11.98	-41.7	-42.5	21.9	0.00e+00	0	43	0	621805568	55	3860
2026-01-23 08:00:53.24	61.02	12.05	-41.5	-42.4	22.0	0.00e+00	0	43	0	627048448	55	3788
2026-01-23 08:00:54.24	60.90	12.12	-41.6	-42.5	21.9	0.00e+00	0	43	0	632291328	55	3840
2026-01-23 08:00:55.25	60.77	12.20	-41.6	-42.5	21.9	0.00e+00	0	43	0	638582784	55	3838
2026-01-23 08:00:56.26	60.65	12.27	-41.8	-42.7	21.7	0.00e+00	0	43	0	643825664	55	3923
2026-01-23 08:00:57.27	60.52	12.34	-41.7	-42.6	21.8	0.00e+00	0	43	0	650117120	55	3873
2026-01-23 08:00:58.27	60.39	12.42	-41.7	-42.5	21.8	0.00e+00	0	43	0	655360000	55	3860
2026-01-23 08:00:59.28	60.27	12.49	-41.7	-42.6	21.8	0.00e+00	0	43	0	660602880	55	3869
2026-01-23 08:01:00.29	60.14	12.56	-41.5	-42.3	22.1	0.00e+00	0	43	0	666894336	54	3976
2026-01-23 08:01:01.30	60.01	12.64	-41.5	-42.4	22.0	0.00e+00	0	43	0	673185792	54	4023
2026-01-23 08:01:02.31	59.88	12.71	-41.6	-42.4	22.0	0.00e+00	0	43	0	678428672	54	4030
2026-01-23 08:01:03.32	59.75	12.78	-41.7	-42.5	21.9	0.00e+00	0	43	0	683671552	54	4086
2026-01-23 08:01:04.33	59.62	12.86	-41.6	-42.4	22.0	0.00e+00	0	43	0	689963008	54	4037
2026-01-23 08:01:05.34	59.48	12.93	-41.6	-42.4	22.0	0.00e+00	0	43	0	695205888	54	4035
2026-01-23 08:01:06.34	59.35	13.01	-41.5	-42.3	22.0	0.00e+00	0	43	0	700448768	54	3999
2026-01-23 08:01:07.35	59.22	13.08	-41.4	-42.2	22.2	0.00e+00	0	43	0	706740224	54	3942
2026-01-23 08:01:08.36	59.08	13.15	-41.3	-42.2	22.2	0.00e+00	0	43	0	711983104	54	3919
2026-01-23 08:01:09.37	58.95	13.23	-41.4	-42.3	22.1	0.00e+00	0	43	0	717225984	54	3972
2026-01-23 08:01:10.37	58.82	13.30	-41.4	-42.2	22.2	0.00e+00	0	43	0	723517440	54	3955
2026-01-23 08:01:11.38	58.68	13.38	-41.4	-42.3	22.1	0.00e+00	0	43	0	728760320	54	3972
2026-01-23 08:01:12.39	58.54	13.45	-41.4	-42.3	22.1	0.00e+00	0	43	0	735051776	54	3960
2026-01-23 08:01:13.39	58.41	13.52	-41.2	-42.0	22.4	0.00e+00	0	43	0	740294656	54	3867
2026-01-23 08:01:14.40	58.27	13.60	-41.2	-42.0	22.4	0.00e+00	0	43	0	746586112	54	3860
2026-01-23 08:01:15.41	58.13	13.67	-41.2	-42.0	22.4	0.00e+00	0	43	0	751828992	54	3839
2026-01-23 08:01:16.42	57.99	13.75	-41.2	-42.0	22.4	0.00e+00	0	43	0	758120448	54	3846
2026-01-23 08:01:17.43	57.85	13.82	-41.1	-41.9	22.5	0.00e+00	0	43	0	763363328	54	3809
2026-01-23 08:01:18.44	57.71	13.90	-41.1	-41.9	22.5	0.00e+00	0	43	0	768606208	54	3804
2026-01-23 08:01:19.44	57.57	13.97	-41.1	-41.9	22.5	0.00e+00	0	43	0	774897664	54	3793
2026-01-23 08:01:20.45	57.42	14.05	-41.1	-41.9	22.5	0.00e+00	0	43	0	780140544	54	3824
2026-01-23 08:01:21.46	57.28	14.12	-41.0	-41.9	22.6	0.00e+00	0	43	0	785383424	54	3785
2026-01-23 08:01:22.47	57.14	14.20	-41.0	-41.8	22.6	0.00e+00	0	43	0	791674880	53	3999
2026-01-23 08:01:23.48	56.99	14.27	-41.1	-41.9	22.5	0.00e+00	0	43	0	796917760	53	4045
2026-01-23 08:01:24.48	56.85	14.35	-41.1	-41.9	22.5	0.00e+00	0	43	0	802160640	53	4034
2026-01-23 08:01:25.49	56.70	14.42	-41.1	-41.9	22.5	0.00e+00	0	43	0	808452096	53	4019
2026-01-23 08:01:26.50	56.55	14.50	-41.2	-42.0	22.5	0.00e+00	0	43	0	814743552	53	4063
2026-01-23 08:01:27.51	56.40	14.57	-40.9	-41.7	22.7	0.00e+00	0	43	0	819986432	53	3955
2026-01-23 08:01:28.52	56.26	14.65	-40.9	-41.7	22.7	0.00e+00	0	43	0	825229312	53	3947
2026-01-23 08:01:29.53	56.11	14.72	-40.9	-41.7	22.7	0.00e+00	0	43	0	831520768	53	3949
2026-01-23 08:01:30.54	55.96	14.80	-40.8	-41.6	22.8	0.00e+00	0	43	0	836763648	53	3910
2026-01-23 08:01:31.55	55.80	14.87	-40.9	-41.7	22.8	0.00e+00	0	43	0	843055104	53	3915
2026-01-23 08:01:32.56	55.65	14.95	-40.8	-41.6	22.8	0.00e+00	0	43	0	848297984	53	3887
2026-01-23 08:01:33.57	55.50	15.03	-40.9	-41.7	22.7	0.00e+00	0	43	0	853540864	53	3928
2026-01-23 08:01:34.58	55.35	15.10	-40.8	-41.6	22.9	0.00e+00	0	43	0	859832320	53	3883
2026-01-23 08:01:35.59	55.19	15.18	-40.7	-41.5	22.9	0.00e+00	0	43	0	865075200	53	3859
2026-01-23 08:01:36.59	55.04	15.25	-40.7	-41.5	22.9	0.00e+00	0	43	0	870318080	53	3846
2026-01-23 08:01:37.60	54.88	15.33	-40.8	-41.6	22.9	0.00e+00	0	43	0	876609536	53	3878
2026-01-23 08:01:38.61	54.73	15.40	-40.6	-41.4	23.0	0.00e+00	0	43	0	882900992	53	3820
2026-01-23 08:01:39.62	54.57	15.48	-40.7	-41.5	23.0	0.00e+00	0	43	0	888143872	53	3837
2026-01-23 08:01:40.63	54.41	15.55	-40.6	-41.4	23.0	0.00e+00	0	43	0	893386752	53	3786
2026-01-23 08:01:41.64	54.25	15.63	-40.6	-41.4	23.1	0.00e+00	0	43	0	899678208	53	3799
2026-01-23 08:01:42.64	54.09	15.70	-40.8	-41.6	22.8	0.00e+00	0	43	0	904921088	53	3888
2026-01-23 08:01:43.65	53.93	15.78	-40.6	-41.4	23.1	0.00e+00	0	43	0	910163968	53	3801
2026-01-23 08:01:44.66	53.77	15.86	-40.6	-41.4	23.0	0.00e+00	0	43	0	916455424	53	3814
2026-01-23 08:01:45.67	53.61	15.93	-40.5	-41.3	23.2	0.00e+00	0	43	0	921698304	53	3752
2026-01-23 08:01:46.67	53.45	16.01	-40.6	-41.4	23.1	0.00e+00	0	43	0	927989760	52	4005
2026-01-23 08:01:47.68	53.28	16.08	-40.5	-41.3	23.1	0.00e+00	0	43	0	933232640	52	3981
2026-01-23 08:01:48.69	53.12	16.16	-40.6	-41.4	23.1	0.00e+00	0	43	0	938475520	52	4027
2026-01-23 08:01:49.70	52.95	16.23	-40.6	-41.4	23.0	0.00e+00	0	43	0	944766976	52	4045
2026-01-23 08:01:50.70	52.79	16.31	-40.6	-41.4	23.1	0.00e+00	0	43	0	951058432	52	4017
2026-01-23 08:01:51.71	52.62	16.38	-40.6	-41.4	23.1	0.00e+00	0	43	0	956301312	52	4022
2026-01-23 08:01:52.72	52.45	16.46	-40.6	-41.4	23.0	0.00e+00	0	43	0	961544192	52	4040
2026-01-23 08:01:53.73	52.28	16.53	-40.6	-41.4	23.1	0.00e+00	0	43	0	967835648	52	4010
2026-01-23 08:01:54.74	52.11	16.61	-40.4	-41.2	23.3	0.00e+00	0	43	0	973078528	52	3927
2026-01-23 08:01:55.75	51.94	16.69	-40.5	-41.3	23.2	0.00e+00	0	43	0	978321408	52	3977
2026-01-23 08:01:56.75	51.77	16.76	-40.5	-41.3	23.2	0.00e+00	0	43	0	984612864	52	3978
2026-01-23 08:01:57.76	51.60	16.84	-40.4	-41.2	23.3	0.00e+00	0	43	0	989855744	52	3946
2026-01-23 08:01:58.77	51.43	16.91	-40.3	-41.1	23.4	0.00e+00	0	43	0	995098624	52	3889
2026-01-23 08:01:59.78	51.25	16.99	-40.3	-41.1	23.4	0.00e+00	0	43	0	1001390080	52	3891
2026-01-23 08:02:00.79	51.08	17.06	-40.3	-41.1	23.4	0.00e+00	0	43	0	1006632960	52	3895
2026-01-23 08:02:01.80	50.90	17.14	-40.3	-41.1	23.4	0.00e+00	0	43	0	1012924416	52	3878
2026-01-23 08:02:02.80	50.73	17.21	-40.3	-41.1	23.4	0.00e+00	0	43	0	1018167296	52	3891
2026-01-23 08:02:03.81	50.55	17.29	-40.3	-41.1	23.4	0.00e+00	0	43	0	1024458752	52	3869
2026-01-23 08:02:04.82	50.37	17.36	-40.4	-41.2	23.3	0.00e+00	0	43	0	1029701632	52	3915
2026-01-23 08:02:05.83	50.19	17.44	-40.2	-41.0	23.5	0.00e+00	0	43	0	1035993088	52	3837
2026-01-23 08:02:06.84	50.01	17.51	-40.3	-41.1	23.4	0.00e+00	0	43	0	1041235968	52	3882
2026-01-23 08:02:07.85	49.83	17.59	-40.3	-41.1	23.4	0.00e+00	0	43	0	1046478848	52	3891
2026-01-23 08:02:08.86	49.64	17.66	-40.4	-41.1	23.4	0.00e+00	0	43	0	1052770304	52	3909
2026-01-23 08:02:09.86	49.46	17.73	-40.3	-41.0	23.4	0.00e+00	0	43	0	1058013184	52	3867
2026-01-23 08:02:10.87	49.28	17.81	-40.2	-41.0	23.5	0.00e+00	0	43	0	1063256064	52	3836
2026-01-23 08:02:11.88	49.09	17.88	-40.2	-41.0	23.5	0.00e+00	0	43	0	1069547520	52	3825
2026-01-23 08:02:12.89	48.91	17.96	-40.1	-40.8	23.6	0.00e+00	0	43	0	1074790400	52	3778
2026-01-23 08:02:13.90	48.72	18.03	-40.0	-40.8	23.7	0.00e+00	0	43	0	1080033280	52	3750
2026-01-23 08:02:14.91	48.53	18.11	-40.1	-40.9	23.6	0.00e+00	0	43	0	1086324736	52	3785
2026-01-23 08:02:15.92	48.34	18.18	-40.1	-40.8	23.6	0.00e+00	0	43	0	1092616192	52	3764
2026-01-23 08:02:16.93	48.15	18.26	-40.0	-40.8	23.7	0.00e+00	0	43	0	1097859072	52	3757
2026-01-23 08:02:17.94	47.96	18.33	-40.0	-40.8	23.7	0.00e+00	0	43	0	1103101952	52	3761
2026-01-23 08:02:18.94	47.77	18.40	-40.0	-40.8	23.7	0.00e+00	0	43	0	1109393408	52	3752
2026-01-23 08:02:19.95	47.58	18.48	-40.0	-40.8	23.7	0.00e+00	0	43	0	1114636288	52	3740
2026-01-23 08:02:20.96	47.39	18.55	-40.1	-40.8	23.6	0.00e+00	0	43	0	1120927744	52	3772
2026-01-23 08:02:21.97	47.19	18.62	-40.0	-40.7	23.8	0.00e+00	0	43	0	1126170624	51	3956
2026-01-23 08:02:22.97	47.00	18.70	-40.0	-40.7	23.8	0.00e+00	0	43	0	1131413504	51	3952
2026-01-23 08:02:23.98	46.80	18.77	-39.9	-40.7	23.9	0.00e+00	0	43	0	1137704960	51	3926
2026-01-23 08:02:24.99	46.60	18.84	-39.8	-40.6	24.0	0.00e+00	0	43	0	1142947840	51	3881
2026-01-23 08:02:26.00	46.41	18.92	-39.9	-40.6	23.9	0.00e+00	0	43	0	1148190720	51	3903
2026-01-23 08:02:27.00	46.21	18.99	-39.8	-40.6	23.9	0.00e+00	0	43	0	1154482176	51	3885
2026-01-23 08:02:28.02	46.01	19.06	-39.7	-40.5	24.1	0.00e+00	0	43	0	1160773632	51	3825
2026-01-23 08:02:29.02	45.81	19.13	-39.5	-40.3	24.2	0.00e+00	0	43	0	1166016512	51	3742
2026-01-23 08:02:30.03	45.61	19.21	-39.5	-40.2	24.3	0.00e+00	0	43	0	1171259392	51	3727
2026-01-23 08:02:31.04	45.40	19.28	-39.4	-40.1	24.4	0.00e+00	0	43	0	1177550848	50	3897
2026-01-23 08:02:32.05	45.20	19.35	-39.3	-40.1	24.4	0.00e+00	0	43	0	1182793728	50	3878
2026-01-23 08:02:33.06	44.99	19.42	-39.5	-40.2	24.3	0.00e+00	0	43	0	1188036608	50	3927
2026-01-23 08:02:34.06	44.79	19.49	-39.2	-39.9	24.6	0.00e+00	0	43	0	1194328064	50	3824
2026-01-23 08:02:35.07	44.58	19.56	-39.1	-39.9	24.7	0.00e+00	0	43	0	1199570944	50	3782
2026-01-23 08:02:36.08	44.37	19.64	-39.3	-40.0	24.5	0.00e+00	0	43	0	1205862400	50	3855
2026-01-23 08:02:37.09	44.16	19.71	-39.3	-40.1	24.5	0.00e+00	0	43	0	1211105280	50	3875
2026-01-23 08:02:38.10	43.95	19.78	-39.4	-40.2	24.3	0.00e+00	0	43	0	1216348160	50	3928
2026-01-23 08:02:39.10	43.74	19.85	-39.5	-40.3	24.2	0.00e+00	0	43	0	1222639616	50	3970
2026-01-23 08:02:40.11	43.53	19.92	-39.4	-40.1	24.4	0.00e+00	0	43	0	1228931072	50	3904
2026-01-23 08:02:41.12	43.32	19.99	-39.4	-40.1	24.4	0.00e+00	0	43	0	1234173952	50	3880
2026-01-23 08:02:42.13	43.11	20.06	-39.4	-40.1	24.4	0.00e+00	0	43	0	1239416832	50	3900
2026-01-23 08:02:43.14	42.89	20.13	-39.4	-40.1	24.5	0.00e+00	0	43	0	1245708288	50	3879
2026-01-23 08:02:44.14	42.68	20.20	-39.4	-40.2	24.4	0.00e+00	0	43	0	1250951168	50	3925
2026-01-23 08:02:45.15	42.46	20.27	-39.6	-40.3	24.3	0.00e+00	0	43	0	1256194048	50	3977
2026-01-23 08:02:46.16	42.24	20.34	-39.5	-40.2	24.4	0.00e+00	0	43	0	1262485504	50	3931
2026-01-23 08:02:47.17	42.02	20.41	-39.5	-40.3	24.3	0.00e+00	0	43	0	1267728384	50	3959
2026-01-23 08:02:48.17	41.80	20.47	-39.5	-40.2	24.3	0.00e+00	0	43	0	1272971264	50	3955
2026-01-23 08:02:49.18	41.58	20.54	-39.5	-40.2	24.4	0.00e+00	0	43	0	1279262720	50	3933
2026-01-23 08:02:50.19	41.36	20.61	-39.5	-40.2	24.3	0.00e+00	0	43	0	1284505600	50	3949
2026-01-23 08:02:51.19	41.14	20.68	-39.4	-40.1	24.4	0.00e+00	0	43	0	1290797056	50	3899
2026-01-23 08:02:52.20	40.92	20.74	-39.4	-40.1	24.4	0.00e+00	0	43	0	1296039936	50	3903
2026-01-23 08:02:53.21	40.69	20.81	-39.4	-40.1	24.5	0.00e+00	0	43	0	1302331392	50	3887
2026-01-23 08:02:54.22	40.47	20.88	-39.2	-40.0	24.6	0.00e+00	0	43	0	1307574272	50	3833
2026-01-23 08:02:55.23	40.24	20.95	-39.1	-39.8	24.7	0.00e+00	0	43	0	1313865728	50	3749
2026-01-23 08:02:56.24	40.01	21.01	-39.1	-39.8	24.7	0.00e+00	0	43	0	1319108608	50	3778
2026-01-23 08:02:57.24	39.79	21.08	-39.1	-39.8	24.7	0.00e+00	0	43	0	1324351488	50	3760
2026-01-23 08:02:58.25	39.56	21.14	-39.1	-39.8	24.8	0.00e+00	0	43	0	1330642944	50	3748
2026-01-23 08:02:59.26	39.32	21.21	-39.2	-40.0	24.6	0.00e+00	0	43	0	1335885824	50	3838
2026-01-23 08:03:00.27	39.09	21.27	-39.3	-40.0	24.6	0.00e+00	0	43	0	1341128704	50	3853
2026-01-23 08:03:01.28	38.86	21.34	-39.3	-40.0	24.6	0.00e+00	0	43	0	1347420160	50	3861
2026-01-23 08:03:02.29	38.63	21.40	-39.4	-40.1	24.5	0.00e+00	0	43	0	1352663040	50	3886
2026-01-23 08:03:03.30	38.39	21.47	-39.4	-40.1	24.4	0.00e+00	0	43	0	1357905920	50	3908
2026-01-23 08:03:04.30	38.16	21.53	-39.3	-40.0	24.5	0.00e+00	0	43	0	1364197376	50	3866
2026-01-23 08:03:05.31	37.92	21.59	-39.2	-39.9	24.7	0.00e+00	0	43	0	1370488832	50	3797
2026-01-23 08:03:06.32	37.68	21.66	-39.1	-39.9	24.7	0.00e+00	0	43	0	1375731712	50	3781
2026-01-23 08:03:07.33	37.44	21.72	-39.1	-39.9	24.7	0.00e+00	0	43	0	1380974592	50	3785
2026-01-23 08:03:08.34	37.20	21.78	-39.0	-39.7	24.8	0.00e+00	0	43	0	1387266048	50	3723
2026-01-23 08:03:09.34	36.97	21.84	-39.0	-39.7	24.8	0.00e+00	0	43	0	1392508928	50	3732
2026-01-23 08:03:10.35	36.72	21.90	-39.1	-39.8	24.7	0.00e+00	0	43	0	1398800384	50	3780
2026-01-23 08:03:11.36	36.48	21.96	-39.1	-39.8	24.7	0.00e+00	0	43	0	1404043264	50	3771
2026-01-23 08:03:12.37	36.24	22.02	-39.1	-39.8	24.8	0.00e+00	0	43	0	1409286144	50	3764
2026-01-23 08:03:13.38	35.99	22.09	-39.1	-39.9	24.7	0.00e+00	0	43	0	1415577600	50	3789
2026-01-23 08:03:14.39	35.75	22.14	-39.2	-40.0	24.6	0.00e+00	0	43	0	1420820480	50	3829
2026-01-23 08:03:15.40	35.50	22.20	-39.2	-39.9	24.7	0.00e+00	0	43	0	1426063360	50	3818
2026-01-23 08:03:16.40	35.26	22.26	-39.2	-39.9	24.7	0.00e+00	0	43	0	1432354816	50	3795
2026-01-23 08:03:17.41	35.01	22.32	-39.1	-39.8	24.8	0.00e+00	0	43	0	1438646272	50	3763
2026-01-23 08:03:18.42	34.76	22.38	-39.2	-39.9	24.7	0.00e+00	0	43	0	1443889152	50	3793
2026-01-23 08:03:19.43	34.51	22.44	-39.1	-39.9	24.7	0.00e+00	0	43	0	1449132032	50	3781
2026-01-23 08:03:20.43	34.26	22.49	-39.2	-40.0	24.7	0.00e+00	0	43	0	1455423488	50	3828
2026-01-23 08:03:21.44	34.01	22.55	-39.3	-40.0	24.6	0.00e+00	0	43	0	1460666368	50	3835
2026-01-23 08:03:22.45	33.76	22.61	-39.1	-39.8	24.8	0.00e+00	0	43	0	1465909248	50	3776
2026-01-23 08:03:23.46	33.50	22.66	-39.1	-39.8	24.8	0.00e+00	0	43	0	1472200704	50	3765
2026-01-23 08:03:24.47	33.25	22.72	-39.1	-39.8	24.8	0.00e+00	0	43	0	1477443584	50	3774
2026-01-23 08:03:25.48	32.99	22.77	-39.1	-39.8	24.8	0.00e+00	0	43	0	1483735040	50	3776
2026-01-23 08:03:26.48	32.74	22.83	-39.1	-39.9	24.7	0.00e+00	0	43	0	1488977920	50	3794
2026-01-23 08:03:27.49	32.48	22.88	-39.1	-39.8	24.8	0.00e+00	0	43	0	1494220800	50	3776
2026-01-23 08:03:28.50	32.22	22.93	-39.0	-39.8	24.8	0.00e+00	0	43	0	1500512256	50	3738
2026-01-23 08:03:29.51	31.96	22.99	-39.1	-39.9	24.7	0.00e+00	0	43	0	1506803712	50	3786
2026-01-23 08:03:30.52	31.70	23.04	-39.0	-39.7	24.9	0.00e+00	0	43	0	1512046592	49	3929
2026-01-23 08:03:31.53	31.44	23.09	-38.7	-39.4	25.1	0.00e+00	0	43	0	1517289472	49	3822
2026-01-23 08:03:32.54	31.18	23.14	-38.7	-39.4	25.1	0.00e+00	0	43	0	1523580928	49	3824
2026-01-23 08:03:33.54	30.92	23.19	-38.7	-39.4	25.1	0.00e+00	0	43	0	1528823808	49	3818
2026-01-23 08:03:34.56	30.65	23.24	-38.7	-39.4	25.1	0.00e+00	0	43	0	1534066688	49	3813
2026-01-23 08:03:35.56	30.39	23.29	-38.7	-39.4	25.1	0.00e+00	0	43	0	1540358144	49	3822
2026-01-23 08:03:36.57	30.13	23.34	-38.7	-39.5	25.1	0.00e+00	0	43	0	1545601024	49	3829
2026-01-23 08:03:37.58	29.86	23.39	-38.9	-39.6	25.0	0.00e+00	0	43	0	1550843904	49	3889
2026-01-23 08:03:38.59	29.59	23.43	-38.9	-39.6	25.0	0.00e+00	0	43	0	1557135360	49	3876
2026-01-23 08:03:39.60	29.33	23.48	-38.7	-39.4	25.2	0.00e+00	0	43	0	1562378240	49	3784
2026-01-23 08:03:40.60	29.06	23.53	-38.7	-39.4	25.2	0.00e+00	0	43	0	1568669696	49	3782
2026-01-23 08:03:41.61	28.79	23.57	-38.7	-39.4	25.2	0.00e+00	0	43	0	1573912576	49	3791
2026-01-23 08:03:42.62	28.52	23.62	-38.7	-39.4	25.1	0.00e+00	0	43	0	1580204032	49	3801
2026-01-23 08:03:43.63	28.25	23.66	-38.7	-39.4	25.1	0.00e+00	0	43	0	1585446912	49	3808
2026-01-23 08:03:44.64	27.98	23.71	-38.6	-39.3	25.2	0.00e+00	0	43	0	1591738368	49	3754
2026-01-23 08:03:45.65	27.71	23.75	-38.6	-39.3	25.2	0.00e+00	0	43	0	1596981248	49	3749
2026-01-23 08:03:46.66	27.43	23.79	-38.4	-39.1	25.4	0.00e+00	0	43	0	1602224128	48	3882
2026-01-23 08:03:47.66	27.16	23.84	-38.4	-39.0	25.4	0.00e+00	0	43	0	1608515584	48	3867
2026-01-23 08:03:48.67	26.89	23.88	-38.4	-39.1	25.4	0.00e+00	0	43	0	1613758464	48	3884
2026-01-23 08:03:49.68	26.61	23.92	-38.5	-39.2	25.4	0.00e+00	0	43	0	1619001344	48	3917
2026-01-23 08:03:50.69	26.33	23.96	-38.6	-39.3	25.2	0.00e+00	0	43	0	1625292800	48	3987
2026-01-23 08:03:51.70	26.06	24.00	-38.7	-39.5	25.1	0.00e+00	0	43	0	1631584256	48	4054
2026-01-23 08:03:52.71	25.78	24.04	-38.8	-39.6	25.0	0.00e+00	0	43	0	1636827136	48	4103
2026-01-23 08:03:53.72	25.50	24.08	-38.8	-39.6	25.0	0.00e+00	0	43	0	1642070016	48	4104
2026-01-23 08:03:54.72	25.23	24.11	-38.8	-39.5	25.0	0.00e+00	0	43	0	1648361472	48	4089
2026-01-23 08:03:55.73	24.95	24.15	-38.7	-39.4	25.1	0.00e+00	0	43	0	1653604352	48	4043
2026-01-23 08:03:56.74	24.67	24.19	-38.8	-39.5	25.1	0.00e+00	0	43	0	1658847232	48	4061
2026-01-23 08:03:57.74	24.39	24.22	-38.7	-39.4	25.1	0.00e+00	0	43	0	1665138688	48	4019
2026-01-23 08:03:58.75	24.11	24.26	-38.6	-39.3	25.2	0.00e+00	0	43	0	1670381568	48	4001
2026-01-23 08:03:59.76	23.82	24.29	-38.6	-39.3	25.2	0.00e+00	0	43	0	1676673024	48	3997
2026-01-23 08:04:00.77	23.54	24.32	-38.6	-39.3	25.2	0.00e+00	0	43	0	1681915904	48	3981
2026-01-23 08:04:01.78	23.26	24.36	-38.7	-39.4	25.1	0.00e+00	0	43	0	1687158784	48	4028
2026-01-23 08:04:02.78	22.98	24.39	-38.6	-39.3	25.2	0.00e+00	0	43	0	1693450240	48	3996
2026-01-23 08:04:03.79	22.69	24.42	-38.6	-39.3	25.2	0.00e+00	0	43	0	1698693120	48	3971
2026-01-23 08:04:04.80	22.41	24.45	-38.5	-39.2	25.3	0.00e+00	0	43	0	1704984576	48	3916
2026-01-23 08:04:05.81	22.12	24.48	-38.4	-39.1	25.4	0.00e+00	0	43	0	1710227456	48	3897
2026-01-23 08:04:06.82	21.84	24.51	-38.5	-39.2	25.3	0.00e+00	0	43	0	1716518912	48	3942
2026-01-23 08:04:07.82	21.55	24.54	-38.5	-39.2	25.4	0.00e+00	0	43	0	1721761792	48	3931
2026-01-23 08:04:08.83	21.27	24.56	-38.6	-39.3	25.2	0.00e+00	0	43	0	1727004672	48	3972
2026-01-23 08:04:09.84	20.98	24.59	-38.6	-39.3	25.2	0.00e+00	0	43	0	1733296128	48	3999
2026-01-23 08:04:10.85	20.69	24.62	-38.4	-39.1	25.4	0.00e+00	0	43	0	1738539008	48	3877
2026-01-23 08:04:11.86	20.40	24.64	-38.4	-39.1	25.4	0.00e+00	0	43	0	1743781888	48	3875
2026-01-23 08:04:12.86	20.11	24.67	-38.4	-39.0	25.5	0.00e+00	0	43	0	1750073344	48	3858
2026-01-23 08:04:13.87	19.83	24.69	-38.6	-39.3	25.3	0.00e+00	0	43	0	1755316224	48	3975
2026-01-23 08:04:14.88	19.54	24.71	-38.6	-39.3	25.3	0.00e+00	0	43	0	1761607680	48	3974
2026-01-23 08:04:15.89	19.24	24.73	-38.5	-39.2	25.3	0.00e+00	0	43	0	1766850560	48	3957
2026-01-23 08:04:16.90	18.95	24.76	-38.5	-39.2	25.3	0.00e+00	0	43	0	1772093440	48	3935
2026-01-23 08:04:17.90	18.67	24.78	-38.7	-39.4	25.2	0.00e+00	0	43	0	1778384896	48	4009
2026-01-23 08:04:18.91	18.37	24.80	-38.8	-39.5	25.1	0.00e+00	0	43	0	1784676352	48	4061
2026-01-23 08:04:19.92	18.08	24.82	-38.8	-39.5	25.0	0.00e+00	0	43	0	1789919232	48	4094
2026-01-23 08:04:20.93	17.79	24.83	-38.8	-39.5	25.0	0.00e+00	0	43	0	1795162112	48	4096
2026-01-23 08:04:21.94	17.50	24.85	-38.8	-39.4	25.1	0.00e+00	0	43	0	1801453568	48	4048
2026-01-23 08:04:22.94	17.21	24.87	-38.7	-39.4	25.2	0.00e+00	0	43	0	1806696448	48	4019
2026-01-23 08:04:23.95	16.91	24.88	-38.6	-39.3	25.3	0.00e+00	0	43	0	1811939328	48	3993
2026-01-23 08:04:24.96	16.62	24.90	-38.6	-39.2	25.3	0.00e+00	0	43	0	1818230784	48	3956
2026-01-23 08:04:25.97	16.33	24.91	-38.4	-39.1	25.4	0.00e+00	0	43	0	1823473664	48	3887
2026-01-23 08:04:26.98	16.03	24.93	-38.4	-39.1	25.5	0.00e+00	0	43	0	1828716544	48	3869
2026-01-23 08:04:27.99	15.74	24.94	-38.2	-38.9	25.6	0.00e+00	0	43	0	1835008000	48	3811
2026-01-23 08:04:28.99	15.45	24.95	-38.3	-38.9	25.6	0.00e+00	0	43	0	1840250880	48	3822
2026-01-23 08:04:30.00	15.15	24.96	-38.1	-38.8	25.7	0.00e+00	0	43	0	1846542336	48	3754
2026-01-23 08:04:31.01	14.86	24.97	-38.0	-38.7	25.8	0.00e+00	0	43	0	1851785216	48	3728
2026-01-23 08:04:32.02	14.56	24.98	-38.1	-38.8	25.7	0.00e+00	0	43	0	1858076672	48	3740
2026-01-23 08:04:33.03	14.27	24.99	-38.3	-39.0	25.6	0.00e+00	0	43	0	1863319552	48	3829
2026-01-23 08:04:34.04	13.97	25.00	-38.4	-39.1	25.4	0.00e+00	0	43	0	1869611008	48	3895
2026-01-23 08:04:35.04	13.68	25.00	-38.4	-39.1	25.4	0.00e+00	0	43	0	1874853888	48	3906
2026-01-23 08:04:36.05	13.38	25.01	-38.4	-39.1	25.4	0.00e+00	0	43	0	1880096768	48	3908
2026-01-23 08:04:37.06	13.09	25.01	-38.4	-39.1	25.5	0.00e+00	0	43	0	1886388224	48	3869
2026-01-23 08:04:38.07	12.79	25.02	-38.4	-39.1	25.5	0.00e+00	0	43	0	1891631104	48	3881
2026-01-23 08:04:39.08	12.50	25.02	-38.5	-39.2	25.4	0.00e+00	0	43	0	1896873984	48	3921
2026-01-23 08:04:40.09	12.20	25.02	-38.5	-39.2	25.3	0.00e+00	0	43	0	1903165440	48	3950
2026-01-23 08:04:41.10	11.90	25.02	-38.3	-39.0	25.5	0.00e+00	0	43	0	1908408320	48	3866
2026-01-23 08:04:42.10	11.61	25.03	-38.3	-39.0	25.5	0.00e+00	0	43	0	1914699776	48	3838
2026-01-23 08:04:43.11	11.32	25.03	-38.1	-38.8	25.7	0.00e+00	0	43	0	1919942656	48	3764
2026-01-23 08:04:44.12	11.02	25.03	-38.2	-38.9	25.6	0.00e+00	0	43	0	1926234112	48	3801
2026-01-23 08:04:45.13	10.72	25.02	-38.2	-38.9	25.6	0.00e+00	0	43	0	1931476992	48	3806
2026-01-23 08:04:46.14	10.43	25.02	-38.2	-38.9	25.6	0.00e+00	0	43	0	1936719872	48	3809
2026-01-23 08:04:47.15	10.13	25.02	-38.1	-38.8	25.7	0.00e+00	0	43	0	1943011328	48	3742
2026-01-23 08:04:48.16	9.84	25.01	-38.1	-38.7	25.8	0.00e+00	0	43	0	1948254208	48	3734
2026-01-23 08:04:49.16	9.54	25.01	-38.1	-38.8	25.7	0.00e+00	0	43	0	1954545664	48	3763
2026-01-23 08:04:50.17	9.25	25.00	-38.3	-39.0	25.6	0.00e+00	0	43	0	1959788544	48	3844
2026-01-23 08:04:51.18	8.95	25.00	-38.2	-38.9	25.6	0.00e+00	0	43	0	1965031424	48	3799
2026-01-23 08:04:52.19	8.66	24.99	-38.2	-38.9	25.7	0.00e+00	0	43	0	1971322880	48	3783
2026-01-23 08:04:53.20	8.36	24.98	-38.3	-39.0	25.5	0.00e+00	0	43	0	1976565760	48	3843
2026-01-23 08:04:54.20	8.07	24.97	-38.4	-39.1	25.4	0.00e+00	0	43	0	1982857216	48	3892
2026-01-23 08:04:55.21	7.77	24.96	-38.5	-39.2	25.4	0.00e+00	0	43	0	1988100096	48	3925
2026-01-23 08:04:56.22	7.48	24.95	-38.5	-39.2	25.3	0.00e+00	0	43	0	1994391552	48	3938
2026-01-23 08:04:57.23	7.19	24.94	-38.4	-39.1	25.4	0.00e+00	0	43	0	1999634432	48	3889
2026-01-23 08:04:58.23	6.89	24.93	-38.5	-39.1	25.4	0.00e+00	0	43	0	2004877312	48	3909
2026-01-23 08:04:59.24	6.60	24.91	-38.5	-39.2	25.4	0.00e+00	0	43	0	2011168768	48	3925
2026-01-23 08:05:00.25	6.31	24.90	-38.5	-39.2	25.4	0.00e+00	0	43	0	2016411648	48	3938
2026-01-23 08:05:01.26	6.01	24.89	-38.6	-39.3	25.3	0.00e+00	0	43	0	2021654528	48	3990
2026-01-23 08:05:02.27	5.72	24.87	-38.5	-39.2	25.4	0.00e+00	0	43	0	2027945984	48	3934
2026-01-23 08:05:03.28	5.43	24.85	-38.3	-39.0	25.6	0.00e+00	0	43	0	2033188864	48	3830
2026-01-23 08:05:04.28	5.14	24.84	-38.1	-38.8	25.7	0.00e+00	0	43	0	2039480320	48	3774
2026-01-23 08:05:05.29	4.85	24.82	-38.0	-38.7	25.8	0.00e+00	0	43	0	2044723200	48	3718
2026-01-23 08:05:06.30	4.55	24.80	-38.2	-38.8	25.7	0.00e+00	0	43	0	2049966080	48	3779
2026-01-23 08:05:07.31	4.26	24.78	-38.3	-38.9	25.6	0.00e+00	0	43	0	2056257536	48	3820
2026-01-23 08:05:08.32	3.97	24.76	-38.2	-38.9	25.6	0.00e+00	0	43	0	2062548992	48	3809
2026-01-23 08:05:09.32	3.68	24.74	-38.1	-38.8	25.7	0.00e+00	0	43	0	2067791872	48	3765
2026-01-23 08:05:10.33	3.39	24.72	-38.0	-38.7	25.8	0.00e+00	0	43	0	2073034752	48	3716
2026-01-23 08:05:11.34	3.10	24.69	-37.6	-38.3	25.6	0.00e+00	0	43	0	2079326208	47	3770
2026-01-23 08:05:12.35	2.81	24.67	-37.6	-38.3	25.6	0.00e+00	0	43	0	2084569088	47	3756
2026-01-23 08:05:13.36	2.52	24.65	-37.7	-38.4	25.6	0.00e+00	0	43	0	2089811968	47	3782
2026-01-23 08:05:14.36	2.24	24.62	-37.9	-38.6	25.4	0.00e+00	0	43	0	2096103424	47	3890
2026-01-23 08:05:15.37	1.95	24.59	-37.9	-38.6	25.4	0.00e+00	0	43	0	2101346304	47	3895
2026-01-23 08:05:16.38	1.66	24.57	-37.9	-38.7	25.3	0.00e+00	0	43	0	2106589184	47	3915
2026-01-23 08:05:17.39	1.38	24.54	-37.9	-38.6	25.3	0.00e+00	0	43	0	2112880640	47	3908
2026-01-23 08:05:18.39	1.09	24.51	-38.0	-38.7	25.3	0.00e+00	0	43	0	2118123520	47	3944
2026-01-23 08:05:19.40	0.81	24.48	-38.1	-38.8	25.2	0.00e+00	0	43	0	2124414976	47	3968
2026-01-23 08:05:20.41	0.52	24.45	-38.0	-38.7	25.3	0.00e+00	0	43	0	2129657856	47	3949
2026-01-23 08:05:21.41	0.24	24.42	-38.1	-38.8	25.2	0.00e+00	0	43	0	2135949312	47	3998
2026-01-23 08:05:22.43	359.95	24.39	-38.2	-38.9	25.1	0.00e+00	0	43	0	2141192192	47	4035
2026-01-23 08:05:23.43	359.67	24.36	-38.1	-38.8	25.2	0.00e+00	0	43	0	2147483648	47	4001
2026-01-23 08:05:24.44	359.39	24.33	-38.1	-38.8	25.2	0.00e+00	0	43	0	2152726528	47	3970
2026-01-23 08:05:25.45	359.10	24.30	-38.0	-38.7	25.2	0.00e+00	0	43	0	2157969408	47	3951
2026-01-23 08:05:26.46	358.82	24.26	-37.9	-38.6	25.3	0.00e+00	0	43	0	2164260864	47	3899
2026-01-23 08:05:27.46	358.54	24.23	-37.9	-38.6	25.3	0.00e+00	0	43	0	2169503744	47	3898
2026-01-23 08:05:28.47	358.26	24.19	-37.9	-38.6	25.3	0.00e+00	0	43	0	2174746624	47	3899
2026-01-23 08:05:29.48	357.98	24.16	-37.8	-38.5	25.4	0.00e+00	0	43	0	2181038080	47	3855
2026-01-23 08:05:30.49	357.70	24.12	-37.8	-38.5	25.5	0.00e+00	0	43	0	2186280960	47	3835
2026-01-23 08:05:31.49	357.43	24.08	-37.8	-38.5	25.5	0.00e+00	0	43	0	2191523840	47	3829
2026-01-23 08:05:32.50	357.15	24.04	-37.8	-38.5	25.4	0.00e+00	0	43	0	2197815296	47	3841
2026-01-23 08:05:33.51	356.87	24.01	-38.0	-38.7	25.3	0.00e+00	0	43	0	2204106752	47	3921
2026-01-23 08:05:34.52	356.59	23.97	-38.0	-38.7	25.2	0.00e+00	0	43	0	2209349632	47	3948
2026-01-23 08:05:35.53	356.32	23.93	-38.1	-38.8	25.2	0.00e+00	0	43	0	2214592512	47	3983
2026-01-23 08:05:36.54	356.04	23.88	-38.2	-38.9	25.1	0.00e+00	0	43	0	2220883968	47	4050
2026-01-23 08:05:37.54	355.77	23.84	-38.3	-39.0	25.0	0.00e+00	0	43	0	2226126848	47	4064
2026-01-23 08:05:38.55	355.50	23.80	-38.2	-38.9	25.1	0.00e+00	0	43	0	2232418304	47	4029
2026-01-23 08:05:39.56	355.22	23.76	-38.2	-38.9	25.1	0.00e+00	0	43	0	2237661184	47	4018
2026-01-23 08:05:40.57	354.95	23.72	-38.1	-38.9	25.1	0.00e+00	0	43	0	2242904064	47	4005
2026-01-23 08:05:41.58	354.68	23.67	-38.1	-38.8	25.2	0.00e+00	0	43	0	2249195520	47	3972
2026-01-23 08:05:42.59	354.41	23.63	-37.9	-38.7	25.3	0.00e+00	0	43	0	2254438400	47	3914
2026-01-23 08:05:43.60	354.14	23.58	-38.0	-38.7	25.3	0.00e+00	0	43	0	2259681280	47	3941
2026-01-23 08:05:44.60	353.87	23.54	-38.0	-38.7	25.3	0.00e+00	0	43	0	2265972736	47	3922
2026-01-23 08:05:45.61	353.60	23.49	-37.8	-38.5	25.4	0.00e+00	0	43	0	2272264192	47	3853
2026-01-23 08:05:46.62	353.33	23.44	-37.8	-38.5	25.4	0.00e+00	0	43	0	2277507072	47	3837
2026-01-23 08:05:47.63	353.07	23.40	-37.8	-38.5	25.5	0.00e+00	0	43	0	2282749952	47	3844
2026-01-23 08:05:48.63	352.80	23.35	-37.9	-38.6	25.4	0.00e+00	0	43	0	2289041408	47	3885
2026-01-23 08:05:49.64	352.54	23.30	-38.0	-38.7	25.3	0.00e+00	0	43	0	2294284288	47	3929
2026-01-23 08:05:50.65	352.27	23.25	-38.1	-38.8	25.2	0.00e+00	0	43	0	2299527168	47	3996
2026-01-23 08:05:51.66	352.01	23.20	-38.1	-38.9	25.1	0.00e+00	0	43	0	2305818624	47	4015
2026-01-23 08:05:52.67	351.75	23.15	-38.1	-38.8	25.2	0.00e+00	0	43	0	2311061504	47	3977
2026-01-23 08:05:53.68	351.49	23.10	-38.1	-38.8	25.1	0.00e+00	0	43	0	2317352960	47	3995
2026-01-23 08:05:54.69	351.22	23.05	-38.0	-38.8	25.2	0.00e+00	0	43	0	2322595840	47	3964
2026-01-23 08:05:55.69	350.97	23.00	-38.1	-38.8	25.2	0.00e+00	0	43	0	2327838720	47	3968
2026-01-23 08:05:56.71	350.71	22.94	-38.2	-38.9	25.1	0.00e+00	0	43	0	2334130176	47	4019
2026-01-23 08:05:57.71	350.45	22.89	-38.1	-38.8	25.2	0.00e+00	0	43	0	2340421632	47	3982
2026-01-23 08:05:58.72	350.19	22.84	-38.1	-38.8	25.2	0.00e+00	0	43	0	2345664512	47	3975
2026-01-23 08:05:59.73	349.94	22.78	-38.0	-38.7	25.2	0.00e+00	0	43	0	2350907392	47	3929
2026-01-23 08:06:00.74	349.68	22.73	-38.1	-38.8	25.2	0.00e+00	0	43	0	2357198848	47	3980
2026-01-23 08:06:01.75	349.42	22.67	-38.2	-38.9	25.1	0.00e+00	0	43	0	2362441728	47	4026
2026-01-23 08:06:02.76	349.17	22.62	-38.3	-39.0	25.0	0.00e+00	0	43	0	2367684608	47	4072
2026-01-23 08:06:03.76	348.92	22.56	-38.3	-39.1	24.9	0.00e+00	0	43	0	2373976064	47	4102
2026-01-23 08:06:04.77	348.67	22.50	-38.2	-38.9	25.1	0.00e+00	0	43	0	2379218944	47	4011
2026-01-23 08:06:05.78	348.42	22.45	-38.1	-38.8	25.1	0.00e+00	0	43	0	2384461824	47	4001
2026-01-23 08:06:06.78	348.17	22.39	-38.1	-38.8	25.1	0.00e+00	0	43	0	2390753280	47	3997
2026-01-23 08:06:07.79	347.92	22.33	-38.0	-38.7	25.2	0.00e+00	0	43	0	2395996160	47	3946
2026-01-23 08:06:08.80	347.67	22.27	-37.9	-38.6	25.3	0.00e+00	0	43	0	2402287616	47	3909
2026-01-23 08:06:09.81	347.42	22.21	-37.9	-38.6	25.3	0.00e+00	0	43	0	2407530496	47	3906
2026-01-23 08:06:10.82	347.18	22.16	-38.0	-38.7	25.3	0.00e+00	0	43	0	2413821952	47	3921
2026-01-23 08:06:11.83	346.93	22.10	-38.0	-38.7	25.3	0.00e+00	0	43	0	2419064832	47	3926
2026-01-23 08:06:12.83	346.69	22.04	-38.1	-38.8	25.2	0.00e+00	0	43	0	2425356288	47	3974
2026-01-23 08:06:13.84	346.45	21.98	-38.1	-38.8	25.1	0.00e+00	0	43	0	2430599168	47	3995
2026-01-23 08:06:14.85	346.20	21.91	-38.3	-39.0	25.0	0.00e+00	0	43	0	2435842048	47	4070
2026-01-23 08:06:15.86	345.96	21.85	-38.3	-39.0	25.0	0.00e+00	0	43	0	2442133504	47	4072
2026-01-23 08:06:16.87	345.72	21.79	-38.2	-38.9	25.1	0.00e+00	0	43	0	2447376384	47	4017
2026-01-23 08:06:17.87	345.49	21.73	-38.3	-39.0	25.0	0.00e+00	0	43	0	2452619264	47	4081
2026-01-23 08:06:18.88	345.25	21.67	-38.4	-39.1	24.8	0.00e+00	0	43	0	2458910720	47	4124
2026-01-23 08:06:19.89	345.01	21.60	-38.6	-39.3	24.7	0.00e+00	0	43	0	2464153600	47	4212
2026-01-23 08:06:20.90	344.77	21.54	-39.1	-39.8	24.8	0.00e+00	0	43	0	2470445056	48	4214
2026-01-23 08:06:21.91	344.54	21.48	-39.1	-39.8	24.8	0.00e+00	0	43	0	2475687936	48	4218
2026-01-23 08:06:22.92	344.30	21.41	-38.9	-39.7	24.9	0.00e+00	0	43	0	2481979392	48	4146
2026-01-23 08:06:23.92	344.07	21.35	-38.9	-39.6	25.0	0.00e+00	0	43	0	2487222272	48	4106
2026-01-23 08:06:24.93	343.84	21.29	-38.8	-39.5	25.0	0.00e+00	0	43	0	2492465152	48	4064
2026-01-23 08:06:25.94	343.61	21.22	-38.7	-39.4	25.1	0.00e+00	0	43	0	2498756608	48	4040
2026-01-23 08:06:26.94	343.38	21.16	-38.7	-39.4	25.1	0.00e+00	0	43	0	2503999488	48	4024
2026-01-23 08:06:27.95	343.15	21.09	-38.7	-39.4	25.1	0.00e+00	0	43	0	2510290944	48	4026
2026-01-23 08:06:28.96	342.92	21.02	-38.7	-39.4	25.1	0.00e+00	0	43	0	2515533824	48	4019
2026-01-23 08:06:29.97	342.69	20.96	-38.8	-39.5	25.1	0.00e+00	0	43	0	2520776704	48	4055
2026-01-23 08:06:30.98	342.46	20.89	-38.8	-39.5	25.0	0.00e+00	0	43	0	2527068160	48	4056
2026-01-23 08:06:31.99	342.24	20.82	-38.9	-39.6	24.9	0.00e+00	0	43	0	2532311040	48	4100
2026-01-23 08:06:32.99	342.01	20.76	-39.0	-39.8	24.8	0.00e+00	0	43	0	2537553920	48	4196
2026-01-23 08:06:34.00	341.79	20.69	-39.1	-39.9	24.7	0.00e+00	0	43	0	2543845376	48	4244
2026-01-23 08:06:35.01	341.57	20.62	-39.3	-40.0	24.6	0.00e+00	0	43	0	2550136832	49	4065
2026-01-23 08:06:36.02	341.35	20.56	-39.2	-39.9	24.7	0.00e+00	0	43	0	2555379712	49	4021
2026-01-23 08:06:37.02	341.13	20.49	-39.1	-39.9	24.7	0.00e+00	0	43	0	2560622592	49	4010
2026-01-23 08:06:38.03	340.91	20.42	-39.2	-39.9	24.6	0.00e+00	0	43	0	2566914048	49	4033
2026-01-23 08:06:39.04	340.69	20.35	-39.2	-39.9	24.7	0.00e+00	0	43	0	2572156928	49	4015
2026-01-23 08:06:40.05	340.47	20.28	-39.2	-39.9	24.7	0.00e+00	0	43	0	2577399808	49	4008
2026-01-23 08:06:41.05	340.25	20.21	-39.1	-39.8	24.7	0.00e+00	0	43	0	2583691264	49	3998
2026-01-23 08:06:42.06	340.04	20.14	-39.1	-39.8	24.7	0.00e+00	0	43	0	2588934144	49	3976
2026-01-23 08:06:43.07	339.82	20.07	-39.2	-39.9	24.6	0.00e+00	0	43	0	2595225600	49	4045
2026-01-23 08:06:44.08	339.61	20.00	-39.3	-40.0	24.5	0.00e+00	0	43	0	2600468480	49	4077
2026-01-23 08:06:45.09	339.40	19.93	-39.4	-40.1	24.4	0.00e+00	0	43	0	2605711360	49	4136
2026-01-23 08:06:46.10	339.18	19.86	-39.5	-40.2	24.3	0.00e+00	0	43	0	2612002816	49	4183
2026-01-23 08:06:47.10	338.98	19.79	-39.4	-40.2	24.4	0.00e+00	0	43	0	2618294272	49	4155
2026-01-23 08:06:48.11	338.77	19.72	-39.4	-40.1	24.5	0.00e+00	0	43	0	2623537152	49	4122
2026-01-23 08:06:49.12	338.56	19.65	-39.3	-40.0	24.5	0.00e+00	0	43	0	2628780032	49	4098
2026-01-23 08:06:50.13	338.35	19.58	-39.4	-40.2	24.4	0.00e+00	0	43	0	2635071488	49	4149
2026-01-23 08:06:51.14	338.14	19.51	-39.5	-40.2	24.3	0.00e+00	0	43	0	2640314368	49	4173
2026-01-23 08:06:52.14	337.94	19.44	-39.5	-40.2	24.3	0.00e+00	0	43	0	2645557248	49	4186
2026-01-23 08:06:53.15	337.73	19.37	-39.5	-40.3	24.3	0.00e+00	0	43	0	2651848704	49	4208
2026-01-23 08:06:54.16	337.53	19.29	-39.6	-40.3	24.2	0.00e+00	0	43	0	2657091584	49	4240
2026-01-23 08:06:55.17	337.32	19.22	-39.3	-40.0	24.5	0.00e+00	0	43	0	2662334464	49	4097
2026-01-23 08:06:56.17	337.12	19.15	-39.3	-40.0	24.5	0.00e+00	0	43	0	2668625920	49	4097
2026-01-23 08:06:57.18	336.92	19.08	-39.4	-40.1	24.3	0.00e+00	0	43	0	2673868800	49	4143
2026-01-23 08:06:58.19	336.72	19.00	-39.6	-40.3	24.2	0.00e+00	0	43	0	2680160256	49	4209
2026-01-23 08:06:59.20	336.52	18.93	-39.6	-40.4	24.1	0.00e+00	0	43	0	2685403136	49	4262
2026-01-23 08:07:00.21	336.32	18.86	-39.7	-40.4	24.1	0.00e+00	0	43	0	2691694592	49	4267
2026-01-23 08:07:01.22	336.13	18.79	-39.7	-40.5	24.0	0.00e+00	0	43	0	2696937472	50	4068
2026-01-23 08:07:02.22	335.93	18.71	-39.7	-40.4	24.1	0.00e+00	0	43	0	2703228928	50	4026
2026-01-23 08:07:03.23	335.74	18.64	-39.6	-40.3	24.2	0.00e+00	0	43	0	2708471808	50	4002
2026-01-23 08:07:04.24	335.54	18.57	-39.4	-40.1	24.4	0.00e+00	0	43	0	2713714688	50	3892
2026-01-23 08:07:05.24	335.35	18.49	-39.5	-40.2	24.3	0.00e+00	0	43	0	2720006144	50	3941
2026-01-23 08:07:06.25	335.16	18.42	-39.6	-40.3	24.2	0.00e+00	0	43	0	2725249024	50	3981
2026-01-23 08:07:07.26	334.97	18.35	-39.4	-40.2	24.3	0.00e+00	0	43	0	2730491904	50	3925
2026-01-23 08:07:08.27	334.78	18.27	-39.5	-40.2	24.3	0.00e+00	0	43	0	2736783360	50	3951
2026-01-23 08:07:09.27	334.59	18.20	-39.5	-40.2	24.3	0.00e+00	0	43	0	2742026240	50	3948
2026-01-23 08:07:10.28	334.40	18.12	-39.4	-40.2	24.3	0.00e+00	0	43	0	2747269120	50	3920
2026-01-23 08:07:11.29	334.21	18.05	-39.5	-40.3	24.2	0.00e+00	0	43	0	2753560576	50	3963
2026-01-23 08:07:12.30	334.02	17.98	-39.5	-40.2	24.2	0.00e+00	0	43	0	2759852032	50	3955
2026-01-23 08:07:13.30	333.84	17.90	-39.5	-40.2	24.3	0.00e+00	0	43	0	2765094912	50	3942
2026-01-23 08:07:14.31	333.65	17.83	-39.5	-40.2	24.2	0.00e+00	0	43	0	2770337792	50	3958
2026-01-23 08:07:15.32	333.47	17.75	-39.5	-40.2	24.3	1.10e-06	0	43	0	2776629248	50	3934
2026-01-23 08:07:16.33	333.29	17.68	-39.6	-40.3	24.2	0.00e+00	0	43	0	2781872128	50	3977
2026-01-23 08:07:17.34	333.10	17.60	-39.6	-40.3	24.2	0.00e+00	0	43	0	2788163584	50	4002
2026-01-23 08:07:18.35	332.92	17.53	-39.5	-40.3	24.2	0.00e+00	0	43	0	2793406464	50	3969
2026-01-23 08:07:19.35	332.74	17.45	-39.7	-40.4	24.0	0.00e+00	0	43	0	2798649344	50	4046
2026-01-23 08:07:20.36	332.56	17.38	-39.7	-40.5	24.0	0.00e+00	0	43	0	2804940800	50	4067
2026-01-23 08:07:21.37	332.38	17.30	-39.9	-40.7	23.9	0.00e+00	0	43	0	2810183680	50	4158
2026-01-23 08:07:22.38	332.21	17.23	-40.0	-40.7	23.8	0.00e+00	0	43	0	2815426560	50	4184
2026-01-23 08:07:23.38	332.03	17.16	-39.9	-40.7	23.9	0.00e+00	0	43	0	2821718016	50	4168
2026-01-23 08:07:24.39	331.86	17.08	-40.0	-40.8	23.7	0.00e+00	0	43	0	2826960896	50	4208
2026-01-23 08:07:25.41	331.68	17.00	-40.1	-40.8	23.7	0.00e+00	0	43	0	2833252352	50	4223
2026-01-23 08:07:26.42	331.50	16.93	-40.0	-40.7	23.8	0.00e+00	0	43	0	2838495232	50	4189
2026-01-23 08:07:27.42	331.33	16.85	-40.1	-40.8	23.7	0.00e+00	0	43	0	2844786688	50	4222
2026-01-23 08:07:28.43	331.16	16.78	-40.0	-40.8	23.7	0.00e+00	0	43	0	2850029568	50	4209
2026-01-23 08:07:29.44	330.99	16.70	-40.1	-40.8	23.7	0.00e+00	0	43	0	2855272448	50	4238
2026-01-23 08:07:30.45	330.82	16.63	-40.0	-40.8	23.7	0.00e+00	0	43	0	2861563904	50	4196
2026-01-23 08:07:31.45	330.65	16.55	-39.9	-40.7	23.8	0.00e+00	0	43	0	2866806784	50	4146
2026-01-23 08:07:32.46	330.48	16.48	-40.0	-40.7	23.8	0.00e+00	0	43	0	2873098240	50	4172
2026-01-23 08:07:33.47	330.31	16.40	-39.9	-40.7	23.8	0.00e+00	0	43	0	2878341120	50	4152
2026-01-23 08:07:34.48	330.14	16.33	-40.0	-40.7	23.8	0.00e+00	0	43	0	2883584000	50	4174
2026-01-23 08:07:35.49	329.98	16.25	-40.0	-40.7	23.8	0.00e+00	0	43	0	2889875456	50	4171
2026-01-23 08:07:36.49	329.81	16.18	-40.1	-40.8	23.7	0.00e+00	0	43	0	2895118336	50	4230
2026-01-23 08:07:37.50	329.65	16.10	-40.0	-40.8	23.7	0.00e+00	0	43	0	2901409792	50	4200
2026-01-23 08:07:38.51	329.49	16.03	-40.1	-40.8	23.7	0.00e+00	0	43	0	2906652672	50	4235
2026-01-23 08:07:39.52	329.32	15.95	-40.1	-40.8	23.7	0.00e+00	0	43	0	2912944128	50	4235
2026-01-23 08:07:40.53	329.16	15.87	-40.3	-41.1	23.5	0.00e+00	0	43	0	2918187008	51	4103
2026-01-23 08:07:41.54	329.00	15.80	-40.2	-41.0	23.6	0.00e+00	0	43	0	2923429888	51	4061
2026-01-23 08:07:42.55	328.84	15.72	-40.4	-41.1	23.4	0.00e+00	0	43	0	2929721344	51	4143
2026-01-23 08:07:43.55	328.68	15.65	-40.4	-41.2	23.4	0.00e+00	0	43	0	2934964224	51	4150
2026-01-23 08:07:44.56	328.52	15.57	-40.3	-41.1	23.4	0.00e+00	0	43	0	2940207104	51	4123
2026-01-23 08:07:45.57	328.36	15.50	-40.4	-41.2	23.3	0.00e+00	0	43	0	2946498560	51	4168
2026-01-23 08:07:46.58	328.20	15.42	-40.3	-41.1	23.5	0.00e+00	0	43	0	2951741440	51	4104
2026-01-23 08:07:47.59	328.05	15.35	-40.5	-41.2	23.3	0.00e+00	0	43	0	2958032896	51	4182
2026-01-23 08:07:48.60	327.89	15.27	-40.3	-41.1	23.4	0.00e+00	0	43	0	2963275776	51	4130
2026-01-23 08:07:49.61	327.74	15.19	-40.4	-41.1	23.4	0.00e+00	0	43	0	2969567232	51	4141
2026-01-23 08:07:50.62	327.58	15.12	-40.4	-41.1	23.3	0.00e+00	0	43	0	2974810112	51	4138
2026-01-23 08:07:51.63	327.43	15.04	-40.4	-41.2	23.3	0.00e+00	0	43	0	2981101568	51	4175
2026-01-23 08:07:52.64	327.28	14.97	-40.5	-41.3	23.2	0.00e+00	0	43	0	2986344448	51	4217
2026-01-23 08:07:53.64	327.13	14.89	-40.5	-41.2	23.3	0.00e+00	0	43	0	2991587328	51	4190
2026-01-23 08:07:54.65	326.98	14.82	-40.6	-41.4	23.1	0.00e+00	0	43	0	2997878784	51	4255
2026-01-23 08:07:55.66	326.83	14.74	-40.6	-41.3	23.2	0.00e+00	0	43	0	3003121664	51	4233
2026-01-23 08:07:56.67	326.68	14.67	-40.7	-41.4	23.0	0.00e+00	0	43	0	3008364544	52	4046
2026-01-23 08:07:57.68	326.53	14.59	-40.7	-41.5	23.0	0.00e+00	0	43	0	3014656000	52	4059
2026-01-23 08:07:58.69	326.38	14.52	-40.8	-41.6	22.8	0.00e+00	0	43	0	3019898880	52	4113
2026-01-23 08:07:59.69	326.23	14.44	-40.7	-41.5	22.9	0.00e+00	0	43	0	3025141760	52	4084
2026-01-23 08:08:00.70	326.09	14.37	-40.8	-41.6	22.9	0.00e+00	0	43	0	3031433216	52	4108
2026-01-23 08:08:01.71	325.94	14.29	-40.9	-41.7	22.8	0.00e+00	0	43	0	3037724672	52	4163
2026-01-23 08:08:02.71	325.80	14.22	-40.9	-41.7	22.7	0.00e+00	0	43	0	3042967552	52	4179
2026-01-23 08:08:03.72	325.65	14.14	-40.5	-41.3	23.1	0.00e+00	0	43	0	3048210432	52	3986
2026-01-23 08:08:04.73	325.51	14.07	-40.6	-41.4	23.0	0.00e+00	0	43	0	3054501888	52	4033
2026-01-23 08:08:05.74	325.37	13.99	-40.7	-41.5	23.0	0.00e+00	0	43	0	3059744768	52	4062
2026-01-23 08:08:06.74	325.23	13.92	-40.7	-41.5	22.9	0.00e+00	0	43	0	3066036224	52	4054
2026-01-23 08:08:07.75	325.09	13.84	-40.5	-41.3	23.1	0.00e+00	0	43	0	3071279104	52	3993
2026-01-23 08:08:08.76	324.95	13.77	-40.6	-41.3	23.1	0.00e+00	0	43	0	3076521984	52	3995
2026-01-23 08:08:09.77	324.81	13.70	-40.6	-41.4	23.0	0.00e+00	0	43	0	3082813440	52	4013
2026-01-23 08:08:10.78	324.67	13.62	-40.6	-41.4	22.9	0.00e+00	0	43	0	3088056320	52	4040
2026-01-23 08:08:11.78	324.53	13.55	-40.7	-41.5	22.9	0.00e+00	0	43	0	3093299200	52	4071
2026-01-23 08:08:12.79	324.39	13.47	-40.8	-41.6	22.8	0.00e+00	0	43	0	3099590656	52	4103
2026-01-23 08:08:13.80	324.26	13.40	-40.9	-41.7	22.7	0.00e+00	0	43	0	3105882112	52	4157
2026-01-23 08:08:14.81	324.12	13.32	-41.0	-41.7	22.6	0.00e+00	0	43	0	3111124992	52	4193
2026-01-23 08:08:15.82	323.98	13.25	-40.8	-41.6	22.8	0.00e+00	0	43	0	3116367872	52	4132
2026-01-23 08:08:16.83	323.85	13.17	-40.9	-41.7	22.7	0.00e+00	0	43	0	3122659328	52	4185
2026-01-23 08:08:17.84	323.71	13.10	-41.0	-41.8	22.6	0.00e+00	0	43	0	3127902208	52	4223
2026-01-23 08:08:18.85	323.58	13.03	-41.0	-41.8	22.5	0.00e+00	0	43	0	3133145088	52	4234
2026-01-23 08:08:19.85	323.45	12.95	-41.0	-41.8	22.6	0.00e+00	0	43	0	3139436544	52	4224
2026-01-23 08:08:20.86	323.32	12.88	-41.1	-41.9	22.5	0.00e+00	0	43	0	3144679424	52	4258
2026-01-23 08:08:21.88	323.18	12.80	-41.1	-41.9	22.5	0.00e+00	0	43	0	3150970880	52	4277
2026-01-23 08:08:22.88	323.06	12.73	-41.0	-41.9	22.5	0.00e+00	0	43	0	3156213760	52	4246
2026-01-23 08:08:23.89	322.93	12.66	-40.9	-41.7	22.6	0.00e+00	0	43	0	3161456640	52	4191
2026-01-23 08:08:24.90	322.80	12.58	-41.0	-41.8	22.6	0.00e+00	0	43	0	3167748096	52	4197
2026-01-23 08:08:25.91	322.67	12.51	-41.0	-41.8	22.6	0.00e+00	0	43	0	3174039552	52	4213
2026-01-23 08:08:26.91	322.54	12.44	-41.1	-41.9	22.5	0.00e+00	0	43	0	3179282432	52	4253
2026-01-23 08:08:27.92	322.41	12.36	-41.1	-41.9	22.5	0.00e+00	0	43	0	3184525312	52	4265
2026-01-23 08:08:28.93	322.29	12.29	-41.2	-42.0	22.4	0.00e+00	0	43	0	3190816768	53	4088
2026-01-23 08:08:29.94	322.16	12.22	-41.4	-42.3	22.1	0.00e+00	0	43	0	3196059648	53	4194
2026-01-23 08:08:30.95	322.03	12.14	-41.5	-42.3	22.0	0.00e+00	0	43	0	3201302528	53	4238
2026-01-23 08:08:31.95	321.91	12.07	-41.6	-42.5	21.9	0.00e+00	0	43	0	3207593984	53	4310
2026-01-23 08:08:32.96	321.79	12.00	-41.5	-42.3	22.1	0.00e+00	0	43	0	3212836864	53	4226
2026-01-23 08:08:33.97	321.66	11.93	-41.4	-42.3	22.1	0.00e+00	0	43	0	3218079744	53	4204
2026-01-23 08:08:34.98	321.54	11.85	-41.6	-42.5	21.9	0.00e+00	0	43	0	3224371200	53	4299
2026-01-23 08:08:35.99	321.42	11.78	-41.7	-42.5	21.9	0.00e+00	0	43	0	3229614080	53	4329
2026-01-23 08:08:36.99	321.30	11.71	-41.4	-42.3	22.1	0.00e+00	0	43	0	3235905536	53	4207
2026-01-23 08:08:38.00	321.18	11.64	-41.5	-42.4	22.0	0.00e+00	0	43	0	3241148416	53	4261
2026-01-23 08:08:39.01	321.06	11.56	-41.5	-42.4	22.0	0.00e+00	0	43	0	3247439872	53	4248
2026-01-23 08:08:40.02	320.94	11.49	-41.5	-42.3	22.0	0.00e+00	0	43	0	3252682752	53	4228
2026-01-23 08:08:41.03	320.82	11.42	-41.5	-42.3	22.0	0.00e+00	0	43	0	3258974208	53	4230
2026-01-23 08:08:42.04	320.70	11.35	-41.5	-42.4	22.0	0.00e+00	0	43	0	3264217088	53	4258
2026-01-23 08:08:43.05	320.58	11.27	-41.6	-42.4	21.9	0.00e+00	0	43	0	3269459968	53	4272
2026-01-23 08:08:44.06	320.46	11.20	-41.5	-42.3	22.0	0.00e+00	0	43	0	3275751424	53	4222
2026-01-23 08:08:45.07	320.34	11.13	-41.5	-42.4	22.0	0.00e+00	0	43	0	3280994304	53	4262
2026-01-23 08:08:46.07	320.23	11.06	-41.5	-42.4	22.0	0.00e+00	0	43	0	3286237184	53	4260
2026-01-23 08:08:47.08	320.11	10.99	-41.5	-42.3	22.0	0.00e+00	0	43	0	3292528640	53	4238
2026-01-23 08:08:48.09	320.00	10.91	-41.4	-42.3	22.0	0.00e+00	0	43	0	3297771520	53	4194
2026-01-23 08:08:49.10	319.88	10.84	-41.5	-42.4	22.0	0.00e+00	0	43	0	3304062976	53	4246
2026-01-23 08:08:50.11	319.77	10.77	-41.6	-42.4	21.9	0.00e+00	0	43	0	3309305856	53	4282
2026-01-23 08:08:51.12	319.66	10.70	-41.6	-42.4	21.9	0.00e+00	0	43	0	3315597312	53	4279
2026-01-23 08:08:52.13	319.54	10.63	-41.6	-42.4	21.8	0.00e+00	0	43	0	3320840192	53	4289
2026-01-23 08:08:53.14	319.43	10.56	-41.6	-42.5	21.8	0.00e+00	0	43	0	3326083072	53	4307
2026-01-23 08:08:54.14	319.32	10.49	-41.7	-42.5	21.8	0.00e+00	0	43	0	3332374528	53	4335
2026-01-23 08:08:55.15	319.21	10.42	-41.8	-42.7	21.6	0.00e+00	0	43	0	3337617408	54	4175
2026-01-23 08:08:56.16	319.10	10.35	-41.9	-42.7	21.5	0.00e+00	0	43	0	3343908864	54	4185
2026-01-23 08:08:57.17	318.99	10.27	-42.1	-42.9	21.3	0.00e+00	0	43	0	3349151744	54	4284
2026-01-23 08:08:58.18	318.88	10.20	-42.1	-43.0	21.3	0.00e+00	0	43	0	3354394624	54	4315
2026-01-23 08:08:59.19	318.77	10.13	-41.9	-42.8	21.5	0.00e+00	0	43	0	3360686080	54	4214
2026-01-23 08:09:00.19	318.66	10.06	-41.9	-42.8	21.5	0.00e+00	0	43	0	3365928960	54	4198
2026-01-23 08:09:01.20	318.55	9.99	-42.0	-42.9	21.4	0.00e+00	0	43	0	3372220416	54	4269
2026-01-23 08:09:02.21	318.45	9.92	-41.9	-42.8	21.5	0.00e+00	0	43	0	3377463296	54	4220
2026-01-23 08:09:03.22	318.34	9.85	-41.8	-42.7	21.6	0.00e+00	0	43	0	3383754752	54	4173
2026-01-23 08:09:04.23	318.23	9.78	-41.9	-42.8	21.5	0.00e+00	0	43	0	3388997632	54	4197
2026-01-23 08:09:05.24	318.13	9.71	-42.0	-42.8	21.4	0.00e+00	0	43	0	3394240512	54	4239
2026-01-23 08:09:06.25	318.02	9.64	-41.9	-42.8	21.5	0.00e+00	0	43	0	3400531968	54	4219
2026-01-23 08:09:07.26	317.92	9.57	-42.0	-42.8	21.4	0.00e+00	0	43	0	3405774848	54	4239
2026-01-23 08:09:08.27	317.81	9.50	-42.1	-43.0	21.3	0.00e+00	0	43	0	3411017728	54	4325
2026-01-23 08:09:09.28	317.71	9.43	-42.1	-43.0	21.3	0.00e+00	0	43	0	3417309184	55	4091
2026-01-23 08:09:10.28	317.61	9.36	-42.3	-43.2	21.1	0.00e+00	0	43	0	3422552064	55	4167
2026-01-23 08:09:11.29	317.51	9.29	-42.1	-43.0	21.2	0.00e+00	0	43	0	3428843520	55	4088
2026-01-23 08:09:12.30	317.40	9.23	-42.0	-42.9	21.4	0.00e+00	0	43	0	3434086400	55	4007
2026-01-23 08:09:13.31	317.30	9.16	-42.2	-43.1	21.2	0.00e+00	0	43	0	3440377856	55	4122
2026-01-23 08:09:14.32	317.20	9.09	-42.2	-43.1	21.2	0.00e+00	0	43	0	3445620736	55	4102
2026-01-23 08:09:15.33	317.10	9.02	-42.2	-43.1	21.2	0.00e+00	0	43	0	3451912192	55	4111
2026-01-23 08:09:16.34	317.00	8.95	-42.2	-43.1	21.2	0.00e+00	0	43	0	3457155072	55	4115
2026-01-23 08:09:17.35	316.90	8.88	-42.3	-43.2	21.1	0.00e+00	0	43	0	3462397952	55	4152
2026-01-23 08:09:18.36	316.80	8.81	-42.3	-43.2	21.0	0.00e+00	0	43	0	3468689408	55	4189
2026-01-23 08:09:19.36	316.70	8.74	-42.4	-43.3	20.9	0.00e+00	0	43	0	3473932288	55	4232
2026-01-23 08:09:20.37	316.60	8.68	-42.7	-43.6	20.7	0.00e+00	0	43	0	3479175168	55	4370
2026-01-23 08:09:21.38	316.51	8.61	-42.7	-43.6	20.8	0.00e+00	0	43	0	3485466624	56	4123
2026-01-23 08:09:22.39	316.41	8.54	-42.3	-43.2	21.2	0.00e+00	0	43	0	3490709504	56	3918
2026-01-23 08:09:23.40	316.31	8.47	-42.5	-43.4	20.9	0.00e+00	0	43	0	3495952384	56	4042
2026-01-23 08:09:24.40	316.22	8.40	-42.6	-43.5	20.8	0.00e+00	0	43	0	3502243840	56	4076
2026-01-23 08:09:25.41	316.12	8.34	-42.6	-43.6	20.8	0.00e+00	0	43	0	3508535296	56	4100
2026-01-23 08:09:26.42	316.03	8.27	-42.5	-43.5	20.9	0.00e+00	0	43	0	3513778176	56	4057
2026-01-23 08:09:27.43	315.93	8.20	-42.7	-43.7	20.7	0.00e+00	0	43	0	3519021056	56	4162
2026-01-23 08:09:28.44	315.84	8.13	-42.5	-43.5	20.8	0.00e+00	0	43	0	3525312512	56	4059
2026-01-23 08:09:29.44	315.74	8.07	-42.7	-43.7	20.6	0.00e+00	0	43	0	3530555392	56	4149
2026-01-23 08:09:30.45	315.65	8.00	-42.9	-43.8	20.5	0.00e+00	0	43	0	3536846848	56	4231
2026-01-23 08:09:31.46	315.56	7.93	-42.6	-43.5	20.8	0.00e+00	0	43	0	3542089728	56	4091
2026-01-23 08:09:32.46	315.46	7.86	-42.6	-43.5	20.8	0.00e+00	0	43	0	3547332608	56	4096
2026-01-23 08:09:33.47	315.37	7.80	-42.9	-43.9	20.4	0.00e+00	0	43	0	3553624064	56	4267
2026-01-23 08:09:34.48	315.28	7.73	-42.9	-43.8	20.5	0.00e+00	0	43	0	3558866944	56	4237
2026-01-23 08:09:35.49	315.19	7.66	-42.8	-43.7	20.6	0.00e+00	0	43	0	3564109824	56	4172
2026-01-23 08:09:36.50	315.10	7.60	-42.7	-43.7	20.6	0.00e+00	0	43	0	3570401280	56	4164
2026-01-23 08:09:37.50	315.01	7.53	-42.5	-43.5	20.7	0.00e+00	0	43	0	3576692736	56	4063
2026-01-23 08:09:38.51	314.92	7.46	-42.4	-43.3	20.9	0.00e+00	0	43	0	3581935616	56	3982
2026-01-23 08:09:39.52	314.83	7.40	-42.6	-43.5	20.7	0.00e+00	0	43	0	3587178496	56	4077
2026-01-23 08:09:40.53	314.74	7.33	-42.7	-43.7	20.6	0.00e+00	0	43	0	3593469952	56	4162
2026-01-23 08:09:41.54	314.65	7.26	-42.6	-43.5	20.7	0.00e+00	0	43	0	3598712832	56	4064
2026-01-23 08:09:42.54	314.56	7.20	-42.6	-43.5	20.7	0.00e+00	0	43	0	3603955712	56	4097
2026-01-23 08:09:43.55	314.47	7.13	-42.9	-43.9	20.3	0.00e+00	0	43	0	3610247168	56	4264
2026-01-23 08:09:44.56	314.39	7.07	-42.7	-43.7	20.5	0.00e+00	0	43	0	3615490048	56	4153
2026-01-23 08:09:45.57	314.30	7.00	-42.9	-43.8	20.4	0.00e+00	0	43	0	3621781504	56	4223
2026-01-23 08:09:46.58	314.21	6.93	-42.7	-43.6	20.6	0.00e+00	0	43	0	3627024384	56	4132
2026-01-23 08:09:47.59	314.13	6.87	-42.8	-43.8	20.4	0.00e+00	0	43	0	3632267264	56	4196
2026-01-23 08:09:48.59	314.04	6.80	-42.8	-43.8	20.4	0.00e+00	0	43	0	3638558720	56	4205
2026-01-23 08:09:49.60	313.95	6.74	-42.9	-43.9	20.2	0.00e+00	0	43	0	3643801600	56	4266
2026-01-23 08:09:50.61	313.87	6.67	-42.6	-43.5	20.7	0.00e+00	0	43	0	3650093056	56	4090
2026-01-23 08:09:51.62	313.78	6.61	-42.8	-43.8	20.3	0.00e+00	0	43	0	3655335936	56	4216
