passes_logs/2026/01/23/R3.2S_Murmansk/R3.2S_Murmansk__20260123_210215_NOAA_20_JPSS-1_rec.log

#Pass ID: 20260123_210215_NOAA 20 (JPSS-1)
#Satellite: NOAA 20 (JPSS-1)
#Configuration: NOAA 20
#almurnet v.1.7.20251203
#Start time: 2026-01-23 21:02:16

#Version: 2.2.20231116
#Station: R3.2S_Murmansk
#Location: 33.079688 lon 68.888172 lat
#TLE: 1 43013U 17073A   26022.94240312  .00000200  00000+0  11574-3 0  9998
#TLE: 2 43013  98.7645 323.7982 0001179  28.0279 332.0961 14.19539020423863

#Time	Az	El	Level	Level2	SNR	BER	BlckErr	Temp	State	Recorded	gain1	gain2
2026-01-23 21:02:16.20	18.76	2.04	-54.1	-69.1	3.8	1.49e+00	0	43	0	0	79	20693
2026-01-23 21:02:17.16	18.86	2.08	-54.3	-69.3	3.8	1.49e+00	0	43	104	0	79	21191
2026-01-23 21:02:18.13	18.96	2.12	-54.3	-69.3	3.8	1.49e+00	0	43	104	0	79	21093
2026-01-23 21:02:19.10	19.06	2.16	-54.3	-69.3	3.8	1.49e+00	0	43	104	0	79	21117
2026-01-23 21:02:20.07	19.17	2.20	-54.3	-69.3	3.8	1.49e+00	0	43	104	0	79	21069
2026-01-23 21:02:21.04	19.27	2.24	-54.2	-69.2	3.8	1.49e+00	0	43	104	0	79	21001
2026-01-23 21:02:22.01	19.37	2.28	-54.2	-69.2	3.8	1.49e+00	0	43	104	0	79	20899
2026-01-23 21:02:22.98	19.47	2.32	-54.2	-69.2	3.8	1.49e+00	0	43	104	0	79	20792
2026-01-23 21:02:23.95	19.58	2.36	-54.1	-69.1	3.8	1.49e+00	0	43	104	0	79	20701
2026-01-23 21:02:24.92	19.68	2.40	-54.1	-69.1	3.8	1.49e+00	0	43	104	0	79	20626
2026-01-23 21:02:25.89	19.78	2.44	-54.1	-69.1	3.8	1.49e+00	0	43	104	0	79	20589
2026-01-23 21:02:26.86	19.89	2.48	-54.1	-69.0	3.8	1.49e+00	0	43	104	0	79	20483
2026-01-23 21:02:27.83	19.99	2.52	-54.0	-69.0	3.8	1.49e+00	0	43	104	0	79	20414
2026-01-23 21:02:28.81	20.10	2.56	-53.9	-68.9	3.8	1.49e+00	0	43	104	0	79	20269
2026-01-23 21:02:29.78	20.20	2.60	-53.9	-68.9	3.8	1.49e+00	0	43	104	0	79	20129
2026-01-23 21:02:30.75	20.31	2.64	-53.8	-68.8	3.8	1.49e+00	0	43	104	0	79	19871
2026-01-23 21:02:31.73	20.41	2.68	-53.7	-68.7	3.8	1.49e+00	0	43	104	0	79	19670
2026-01-23 21:02:32.70	20.52	2.72	-53.6	-68.6	3.8	1.49e+00	0	43	104	0	79	19411
2026-01-23 21:02:33.67	20.63	2.76	-53.4	-68.4	3.8	1.49e+00	0	43	104	0	78	20101
2026-01-23 21:02:34.65	20.73	2.80	-53.2	-68.1	3.8	1.49e+00	0	43	104	0	78	19562
2026-01-23 21:02:35.62	20.84	2.84	-52.8	-67.8	3.8	1.49e+00	0	43	104	0	77	20019
2026-01-23 21:02:36.59	20.95	2.88	-52.3	-67.2	3.8	1.49e+00	0	43	104	0	76	19810
2026-01-23 21:02:37.56	21.05	2.92	-51.9	-66.7	3.8	1.49e+00	0	43	104	0	75	19791
2026-01-23 21:02:38.53	21.16	2.96	-51.9	-66.6	3.8	1.49e+00	0	43	104	0	75	19536
2026-01-23 21:02:39.50	21.27	3.00	-51.9	-66.7	3.8	1.49e+00	0	43	104	0	75	19643
2026-01-23 21:02:40.48	21.38	3.04	-51.9	-66.6	3.8	1.49e+00	0	43	104	0	75	19589
2026-01-23 21:02:41.45	21.48	3.08	-51.9	-66.6	3.8	1.49e+00	0	43	104	0	75	19607
2026-01-23 21:02:42.42	21.59	3.12	-51.9	-66.6	3.8	1.49e+00	0	43	104	0	75	19430
2026-01-23 21:02:43.39	21.70	3.16	-51.9	-66.5	3.8	1.49e+00	0	43	104	0	75	19363
2026-01-23 21:02:44.37	21.81	3.20	-51.9	-66.4	3.8	1.49e+00	0	43	104	0	75	19151
2026-01-23 21:02:45.34	21.92	3.24	-51.9	-66.5	3.8	1.49e+00	0	43	104	0	75	19188
2026-01-23 21:02:46.32	22.03	3.27	-51.9	-66.6	3.8	1.49e+00	0	43	104	0	75	19544
2026-01-23 21:02:47.28	22.14	3.31	-51.9	-66.5	3.8	1.49e+00	0	43	104	0	75	19218
2026-01-23 21:02:48.26	22.25	3.35	-51.9	-66.5	3.8	1.49e+00	0	43	104	0	75	19239
2026-01-23 21:02:49.23	22.36	3.39	-51.9	-66.6	3.8	1.49e+00	0	43	104	0	75	19399
2026-01-23 21:02:50.20	22.47	3.43	-51.9	-66.6	3.8	1.49e+00	0	43	104	0	75	19408
2026-01-23 21:02:51.17	22.58	3.47	-51.9	-66.6	3.8	1.49e+00	0	43	104	0	75	19550
2026-01-23 21:02:52.14	22.69	3.51	-51.9	-66.6	3.8	1.49e+00	0	43	104	0	75	19469
2026-01-23 21:02:53.11	22.80	3.55	-51.9	-66.7	3.8	1.49e+00	0	43	104	0	75	19635
2026-01-23 21:02:54.08	22.91	3.59	-51.9	-66.7	3.8	1.49e+00	0	43	104	0	75	19644
2026-01-23 21:02:55.06	23.03	3.63	-51.9	-66.6	3.8	1.49e+00	0	43	104	0	75	19567
2026-01-23 21:02:56.03	23.14	3.67	-51.9	-66.7	3.8	1.49e+00	0	43	104	0	75	19723
2026-01-23 21:02:57.00	23.25	3.71	-51.9	-66.7	3.8	1.49e+00	0	43	104	0	75	19709
2026-01-23 21:02:57.97	23.36	3.74	-51.9	-66.7	3.8	1.49e+00	0	43	104	0	75	19814
2026-01-23 21:02:58.94	23.48	3.78	-51.9	-66.8	3.8	1.49e+00	0	43	104	0	75	19901
2026-01-23 21:02:59.91	23.59	3.82	-51.9	-66.8	3.8	1.49e+00	0	43	104	0	75	19900
2026-01-23 21:03:00.89	23.71	3.86	-51.9	-66.8	3.8	1.49e+00	0	43	104	0	75	19946
2026-01-23 21:03:01.86	23.82	3.90	-51.9	-66.8	3.8	1.49e+00	0	43	104	0	75	19950
2026-01-23 21:03:02.84	23.93	3.94	-51.9	-66.8	3.8	1.49e+00	0	43	104	0	75	19898
2026-01-23 21:03:03.81	24.05	3.98	-51.9	-66.7	3.8	1.49e+00	0	43	104	0	75	19818
2026-01-23 21:03:04.78	24.16	4.02	-51.9	-66.7	3.8	1.49e+00	0	43	104	0	75	19791
2026-01-23 21:03:05.75	24.28	4.06	-51.9	-66.8	3.8	1.49e+00	0	43	104	0	75	19848
2026-01-23 21:03:06.73	24.40	4.09	-51.9	-66.8	3.8	1.49e+00	0	43	104	0	75	19914
2026-01-23 21:03:07.70	24.51	4.13	-51.9	-66.8	3.8	1.49e+00	0	43	104	0	75	19982
2026-01-23 21:03:08.67	24.63	4.17	-51.9	-66.8	3.8	1.49e+00	0	43	104	0	75	20027
2026-01-23 21:03:09.64	24.74	4.21	-51.9	-66.8	3.8	1.49e+00	0	43	104	0	75	19994
2026-01-23 21:03:10.61	24.86	4.25	-51.9	-66.8	3.8	1.49e+00	0	43	104	0	75	19978
2026-01-23 21:03:11.58	24.98	4.29	-51.9	-66.8	3.8	1.49e+00	0	43	104	0	75	19941
2026-01-23 21:03:12.55	25.09	4.33	-51.9	-66.8	3.8	1.49e+00	0	43	104	0	75	19951
2026-01-23 21:03:13.52	25.21	4.36	-51.9	-66.6	3.8	1.49e+00	0	43	104	0	75	19580
2026-01-23 21:03:14.50	25.33	4.40	-51.9	-66.3	3.8	1.49e+00	0	43	104	0	75	18814
2026-01-23 21:03:15.46	25.45	4.44	-51.8	-65.9	3.8	1.49e+00	0	43	104	0	75	18050
2026-01-23 21:03:16.43	25.56	4.48	-51.8	-65.4	3.8	1.49e+00	0	43	104	0	75	17041
2026-01-23 21:03:17.40	25.68	4.52	-51.8	-64.7	3.9	1.49e+00	0	43	104	0	75	15739
2026-01-23 21:03:18.37	25.80	4.55	-51.7	-63.9	4.0	1.48e+00	0	43	104	0	75	14359
2026-01-23 21:03:19.34	25.92	4.59	-51.7	-63.1	4.2	1.40e+00	0	43	0	0	75	13020
2026-01-23 21:03:20.31	26.04	4.63	-51.5	-60.9	5.1	8.07e-01	0	43	0	1048576	74	10766
2026-01-23 21:03:21.28	26.16	4.67	-51.1	-58.5	7.0	3.37e-01	0	43	0	3145728	74	8133
2026-01-23 21:03:22.25	26.28	4.71	-50.6	-56.7	8.8	6.57e-02	0	43	0	4194304	73	7013
2026-01-23 21:03:23.22	26.40	4.74	-50.2	-55.1	10.5	1.70e-02	0	43	0	6291456	72	6181
2026-01-23 21:03:24.20	26.52	4.78	-49.7	-53.8	11.8	6.26e-04	0	43	0	8388608	71	5640
2026-01-23 21:03:25.17	26.64	4.82	-49.6	-53.7	12.1	1.99e-04	0	43	0	10485760	71	5558
2026-01-23 21:03:26.14	26.76	4.86	-49.7	-54.0	11.8	2.68e-04	0	43	0	11534336	71	5775
2026-01-23 21:03:27.12	26.89	4.90	-49.8	-54.0	11.8	6.04e-04	0	43	0	13631488	71	5782
2026-01-23 21:03:28.09	27.01	4.93	-50.2	-55.2	10.5	9.72e-04	0	43	0	15728640	71	6576
2026-01-23 21:03:29.07	27.13	4.97	-50.7	-56.9	8.6	2.47e-02	0	43	0	17825792	72	7625
2026-01-23 21:03:30.04	27.26	5.01	-51.3	-59.9	5.9	1.28e-01	0	43	0	18874368	73	10109
2026-01-23 21:03:31.01	27.38	5.05	-47.6	-50.0	15.9	4.56e-02	0	43	0	20971520	67	4549
2026-01-23 21:03:31.98	27.50	5.08	-49.7	-53.9	12.0	7.00e-07	0	43	0	23068672	69	6356
2026-01-23 21:03:32.95	27.62	5.12	-51.8	-66.2	3.8	9.77e-01	0	43	104	24117248	74	19680
2026-01-23 21:03:33.92	27.75	5.16	-51.8	-66.3	3.8	1.49e+00	0	43	104	24117248	74	20000
2026-01-23 21:03:34.89	27.87	5.20	-47.1	-49.1	16.5	9.83e-01	0	43	0	24117248	65	4634
2026-01-23 21:03:35.86	28.00	5.23	-47.1	-49.3	16.6	0.00e+00	0	43	0	25165824	65	4712
2026-01-23 21:03:36.83	28.12	5.27	-47.2	-49.4	16.5	0.00e+00	0	43	0	27262976	65	4765
2026-01-23 21:03:37.80	28.25	5.31	-47.3	-49.5	16.4	0.00e+00	0	43	0	29360128	65	4848
2026-01-23 21:03:38.77	28.37	5.35	-47.2	-49.3	16.6	0.00e+00	0	43	0	31457280	65	4755
2026-01-23 21:03:39.74	28.50	5.38	-47.2	-49.4	16.5	0.00e+00	0	43	0	32505856	65	4802
2026-01-23 21:03:40.71	28.62	5.42	-47.3	-49.5	16.5	0.00e+00	0	43	0	34603008	65	4825
2026-01-23 21:03:41.69	28.75	5.46	-47.2	-49.3	16.6	0.00e+00	0	43	0	36700160	65	4751
2026-01-23 21:03:42.66	28.88	5.49	-47.1	-49.2	16.8	0.00e+00	0	44	0	38797312	65	4664
2026-01-23 21:03:43.64	29.00	5.53	-47.3	-49.5	16.5	0.00e+00	0	43	0	39845888	65	4837
2026-01-23 21:03:44.61	29.13	5.57	-47.3	-49.5	16.4	0.00e+00	0	43	0	41943040	65	4864
2026-01-23 21:03:45.58	29.26	5.60	-47.4	-49.7	16.3	0.00e+00	0	43	0	44040192	65	4960
2026-01-23 21:03:46.55	29.39	5.64	-47.5	-49.8	16.2	0.00e+00	0	43	0	45088768	65	5015
2026-01-23 21:03:47.52	29.51	5.68	-47.5	-49.9	16.2	0.00e+00	0	43	0	47185920	65	5048
2026-01-23 21:03:48.49	29.64	5.71	-47.5	-49.9	16.2	0.00e+00	0	43	0	49283072	65	5066
2026-01-23 21:03:49.46	29.77	5.75	-47.1	-49.2	16.8	0.00e+00	0	43	0	51380224	65	4702
2026-01-23 21:03:50.43	29.90	5.79	-47.3	-49.5	16.4	0.00e+00	0	43	0	52428800	65	4869
2026-01-23 21:03:51.40	30.03	5.82	-47.7	-50.1	15.9	0.00e+00	0	43	0	54525952	66	4924
2026-01-23 21:03:52.37	30.16	5.86	-47.5	-49.7	16.3	0.00e+00	0	43	0	56623104	66	4695
2026-01-23 21:03:53.34	30.29	5.89	-47.3	-49.6	16.5	0.00e+00	0	43	0	58720256	66	4599
2026-01-23 21:03:54.31	30.42	5.93	-47.4	-49.6	16.5	0.00e+00	0	43	0	59768832	66	4640
2026-01-23 21:03:55.28	30.55	5.97	-47.5	-49.7	16.3	0.00e+00	0	43	0	61865984	66	4701
2026-01-23 21:03:56.24	30.68	6.00	-47.4	-49.7	16.3	0.00e+00	0	43	0	63963136	66	4668
2026-01-23 21:03:57.21	30.81	6.04	-47.4	-49.6	16.4	0.00e+00	0	43	0	66060288	66	4645
2026-01-23 21:03:58.19	30.94	6.07	-47.3	-49.5	16.6	0.00e+00	0	43	0	67108864	66	4558
2026-01-23 21:03:59.16	31.07	6.11	-47.4	-49.7	16.4	0.00e+00	0	43	0	69206016	66	4657
2026-01-23 21:04:00.13	31.21	6.14	-47.3	-49.6	16.5	0.00e+00	0	43	0	71303168	66	4604
2026-01-23 21:04:01.10	31.34	6.18	-47.4	-49.6	16.5	0.00e+00	0	43	0	73400320	66	4606
2026-01-23 21:04:02.07	31.47	6.22	-47.2	-49.4	16.6	0.00e+00	0	43	0	74448896	66	4505
2026-01-23 21:04:03.04	31.60	6.25	-47.3	-49.5	16.6	0.00e+00	0	43	0	76546048	66	4559
2026-01-23 21:04:04.01	31.74	6.29	-47.3	-49.5	16.5	0.00e+00	0	43	0	78643200	66	4592
2026-01-23 21:04:04.98	31.87	6.32	-47.3	-49.4	16.6	0.00e+00	0	43	0	79691776	66	4542
2026-01-23 21:04:05.94	32.00	6.36	-47.3	-49.5	16.6	0.00e+00	0	43	0	81788928	66	4578
2026-01-23 21:04:06.91	32.14	6.39	-47.4	-49.6	16.5	0.00e+00	0	43	0	83886080	66	4633
2026-01-23 21:04:07.89	32.27	6.43	-47.4	-49.6	16.5	0.00e+00	0	43	0	85983232	66	4610
2026-01-23 21:04:08.86	32.41	6.46	-47.3	-49.5	16.6	0.00e+00	0	43	0	87031808	66	4548
2026-01-23 21:04:09.83	32.54	6.50	-47.4	-49.6	16.5	0.00e+00	0	43	0	89128960	66	4607
2026-01-23 21:04:10.80	32.68	6.53	-47.2	-49.3	16.8	0.00e+00	0	43	0	91226112	66	4475
2026-01-23 21:04:11.77	32.81	6.56	-46.8	-48.8	17.3	0.00e+00	0	43	0	93323264	65	4464
2026-01-23 21:04:12.74	32.95	6.60	-47.0	-49.0	17.1	0.00e+00	0	43	0	94371840	65	4588
2026-01-23 21:04:13.71	33.08	6.63	-46.9	-48.9	17.2	0.00e+00	0	43	0	96468992	65	4500
2026-01-23 21:04:14.68	33.22	6.67	-46.8	-48.8	17.3	0.00e+00	0	43	0	98566144	65	4461
2026-01-23 21:04:15.65	33.36	6.70	-46.9	-48.9	17.2	0.00e+00	0	43	0	100663296	65	4544
2026-01-23 21:04:16.62	33.50	6.74	-47.2	-49.4	16.8	0.00e+00	0	44	0	101711872	65	4769
2026-01-23 21:04:17.60	33.63	6.77	-47.2	-49.3	16.8	0.00e+00	0	44	0	103809024	65	4730
2026-01-23 21:04:18.57	33.77	6.80	-47.4	-49.6	16.6	0.00e+00	0	43	0	105906176	65	4919
2026-01-23 21:04:19.54	33.91	6.84	-47.6	-49.9	16.3	0.00e+00	0	43	0	108003328	65	5069
2026-01-23 21:04:20.50	34.05	6.87	-47.4	-49.6	16.6	0.00e+00	0	43	0	109051904	65	4895
2026-01-23 21:04:21.47	34.19	6.91	-47.3	-49.4	16.7	0.00e+00	0	43	0	111149056	65	4787
2026-01-23 21:04:22.45	34.33	6.94	-47.6	-49.8	16.4	0.00e+00	0	43	0	113246208	65	5025
2026-01-23 21:04:23.42	34.47	6.97	-47.6	-49.9	16.3	0.00e+00	0	43	0	114294784	65	5049
2026-01-23 21:04:24.39	34.61	7.01	-47.5	-49.7	16.4	0.00e+00	0	43	0	116391936	66	4685
2026-01-23 21:04:25.36	34.75	7.04	-47.7	-50.1	16.2	0.00e+00	0	43	0	118489088	66	4874
2026-01-23 21:04:26.33	34.89	7.07	-47.4	-49.5	16.7	0.00e+00	0	43	0	120586240	66	4583
2026-01-23 21:04:27.30	35.03	7.11	-46.9	-48.8	17.4	0.00e+00	0	43	0	121634816	65	4462
2026-01-23 21:04:28.28	35.17	7.14	-47.1	-49.1	17.1	0.00e+00	0	43	0	123731968	65	4615
2026-01-23 21:04:29.25	35.31	7.17	-47.2	-49.2	16.9	0.00e+00	0	43	0	125829120	65	4700
2026-01-23 21:04:30.22	35.45	7.20	-47.2	-49.3	16.9	0.00e+00	0	43	0	127926272	65	4752
2026-01-23 21:04:31.19	35.59	7.24	-47.3	-49.4	16.8	0.00e+00	0	43	0	128974848	65	4803
2026-01-23 21:04:32.16	35.74	7.27	-47.1	-49.1	17.0	0.00e+00	0	43	0	131072000	65	4650
2026-01-23 21:04:33.14	35.88	7.30	-47.2	-49.3	16.9	0.00e+00	0	43	0	133169152	65	4749
2026-01-23 21:04:34.11	36.02	7.34	-47.5	-49.8	16.4	0.00e+00	0	43	0	135266304	65	5003
2026-01-23 21:04:35.08	36.17	7.37	-47.0	-49.1	17.1	0.00e+00	0	43	0	136314880	65	4603
2026-01-23 21:04:36.05	36.31	7.40	-47.3	-49.5	16.7	0.00e+00	0	43	0	138412032	65	4843
2026-01-23 21:04:37.02	36.45	7.43	-47.4	-49.6	16.7	0.00e+00	0	43	0	140509184	65	4887
2026-01-23 21:04:37.99	36.60	7.46	-47.4	-49.6	16.6	0.00e+00	0	43	0	141557760	65	4908
2026-01-23 21:04:38.95	36.74	7.49	-47.4	-49.5	16.7	0.00e+00	0	43	0	143654912	65	4846
2026-01-23 21:04:39.92	36.88	7.53	-47.1	-49.1	17.1	0.00e+00	0	44	0	145752064	65	4627
2026-01-23 21:04:40.90	37.03	7.56	-47.2	-49.2	17.0	0.00e+00	0	43	0	147849216	65	4705
2026-01-23 21:04:41.87	37.18	7.59	-47.1	-49.1	17.1	0.00e+00	0	43	0	148897792	65	4645
2026-01-23 21:04:42.84	37.32	7.62	-46.9	-48.9	17.4	0.00e+00	0	43	0	150994944	65	4509
2026-01-23 21:04:43.81	37.47	7.65	-47.3	-49.4	16.9	0.00e+00	0	43	0	153092096	65	4786
2026-01-23 21:04:44.78	37.61	7.68	-47.1	-49.1	17.2	0.00e+00	0	43	0	155189248	65	4619
2026-01-23 21:04:45.75	37.76	7.71	-47.1	-49.1	17.1	0.00e+00	0	43	0	156237824	65	4642
2026-01-23 21:04:46.72	37.91	7.75	-47.0	-48.9	17.3	0.00e+00	0	43	0	158334976	65	4545
2026-01-23 21:04:47.70	38.05	7.78	-46.9	-48.8	17.5	0.00e+00	0	43	0	160432128	65	4461
2026-01-23 21:04:48.67	38.20	7.81	-47.0	-49.0	17.2	0.00e+00	0	43	0	162529280	65	4569
2026-01-23 21:04:49.64	38.35	7.84	-47.2	-49.2	17.1	0.00e+00	0	43	0	163577856	65	4680
2026-01-23 21:04:50.61	38.50	7.87	-47.4	-49.6	16.7	0.00e+00	0	43	0	165675008	65	4876
2026-01-23 21:04:51.58	38.65	7.90	-47.3	-49.4	16.9	0.00e+00	0	43	0	167772160	65	4760
2026-01-23 21:04:52.55	38.79	7.93	-47.4	-49.5	16.7	0.00e+00	0	43	0	169869312	65	4864
2026-01-23 21:04:53.52	38.94	7.96	-47.4	-49.5	16.8	0.00e+00	0	43	0	170917888	65	4842
2026-01-23 21:04:54.49	39.09	7.99	-47.4	-49.6	16.7	0.00e+00	0	43	0	173015040	65	4871
2026-01-23 21:04:55.47	39.24	8.02	-47.5	-49.7	16.6	0.00e+00	0	43	0	175112192	65	4928
2026-01-23 21:04:56.44	39.39	8.05	-47.4	-49.6	16.7	0.00e+00	0	43	0	176160768	65	4880
2026-01-23 21:04:57.41	39.54	8.08	-47.3	-49.4	16.9	0.00e+00	0	43	0	178257920	65	4763
2026-01-23 21:04:58.38	39.69	8.11	-47.3	-49.4	16.9	0.00e+00	0	43	0	180355072	65	4776
2026-01-23 21:04:59.35	39.84	8.14	-47.4	-49.5	16.8	0.00e+00	0	43	0	182452224	65	4865
2026-01-23 21:05:00.33	40.00	8.17	-47.5	-49.7	16.6	0.00e+00	0	43	0	183500800	65	4934
2026-01-23 21:05:01.30	40.15	8.19	-47.5	-49.6	16.7	0.00e+00	0	43	0	185597952	65	4921
2026-01-23 21:05:02.27	40.30	8.22	-47.5	-49.6	16.6	0.00e+00	0	43	0	187695104	65	4925
2026-01-23 21:05:03.24	40.45	8.25	-47.3	-49.4	16.9	0.00e+00	0	43	0	189792256	65	4775
2026-01-23 21:05:04.21	40.60	8.28	-47.3	-49.4	16.9	0.00e+00	0	43	0	190840832	65	4769
2026-01-23 21:05:05.18	40.75	8.31	-47.3	-49.4	16.9	0.00e+00	0	43	0	192937984	65	4766
2026-01-23 21:05:06.16	40.91	8.34	-47.4	-49.5	16.8	0.00e+00	0	43	0	195035136	65	4851
2026-01-23 21:05:07.13	41.06	8.36	-47.3	-49.4	16.8	0.00e+00	0	43	0	197132288	65	4791
2026-01-23 21:05:08.10	41.21	8.39	-47.2	-49.3	17.0	0.00e+00	0	43	0	198180864	65	4740
2026-01-23 21:05:09.07	41.37	8.42	-47.2	-49.3	17.1	0.00e+00	0	43	0	200278016	65	4724
2026-01-23 21:05:10.03	41.52	8.45	-47.1	-49.1	17.2	0.00e+00	0	43	0	202375168	65	4632
2026-01-23 21:05:11.01	41.68	8.48	-47.1	-49.1	17.2	0.00e+00	0	43	0	204472320	65	4643
2026-01-23 21:05:11.98	41.83	8.50	-47.1	-49.2	17.1	0.00e+00	0	43	0	205520896	65	4654
2026-01-23 21:05:12.94	41.98	8.53	-47.1	-49.2	17.2	0.00e+00	0	43	0	207618048	65	4658
2026-01-23 21:05:13.92	42.14	8.56	-47.2	-49.3	17.0	0.00e+00	0	43	0	209715200	65	4742
2026-01-23 21:05:14.89	42.29	8.58	-47.3	-49.3	17.0	0.00e+00	0	43	0	211812352	65	4759
2026-01-23 21:05:15.87	42.45	8.61	-47.3	-49.5	16.8	0.00e+00	0	43	0	212860928	65	4823
2026-01-23 21:05:16.84	42.61	8.64	-47.5	-49.6	16.7	0.00e+00	0	43	0	214958080	65	4908
2026-01-23 21:05:17.81	42.76	8.66	-47.5	-49.7	16.6	0.00e+00	0	43	0	217055232	65	4967
2026-01-23 21:05:18.78	42.92	8.69	-47.5	-49.7	16.6	0.00e+00	0	43	0	218103808	65	4950
2026-01-23 21:05:19.75	43.08	8.72	-47.4	-49.6	16.7	0.00e+00	0	43	0	220200960	65	4883
2026-01-23 21:05:20.72	43.23	8.74	-47.4	-49.6	16.7	0.00e+00	0	43	0	222298112	65	4895
2026-01-23 21:05:21.69	43.39	8.77	-47.6	-49.8	16.5	0.00e+00	0	43	0	224395264	65	5001
2026-01-23 21:05:22.66	43.55	8.79	-47.5	-49.6	16.6	0.00e+00	0	43	0	225443840	65	4920
2026-01-23 21:05:23.63	43.71	8.82	-47.2	-49.3	17.1	0.00e+00	0	43	0	227540992	65	4719
2026-01-23 21:05:24.60	43.86	8.85	-47.2	-49.2	17.1	0.00e+00	0	43	0	229638144	65	4672
2026-01-23 21:05:25.57	44.02	8.87	-47.1	-49.1	17.1	0.00e+00	0	43	0	231735296	65	4650
2026-01-23 21:05:26.54	44.18	8.90	-47.1	-49.1	17.2	0.00e+00	0	43	0	232783872	65	4632
2026-01-23 21:05:27.51	44.34	8.92	-47.3	-49.4	16.9	0.00e+00	0	43	0	234881024	65	4765
2026-01-23 21:05:28.49	44.50	8.95	-47.3	-49.4	16.9	0.00e+00	0	43	0	236978176	65	4792
2026-01-23 21:05:29.45	44.66	8.97	-46.9	-48.9	17.4	0.00e+00	0	43	0	238026752	65	4513
2026-01-23 21:05:30.43	44.82	8.99	-46.9	-48.9	17.4	0.00e+00	0	43	0	240123904	65	4509
2026-01-23 21:05:31.40	44.98	9.02	-47.2	-49.2	17.1	0.00e+00	0	43	0	242221056	65	4685
2026-01-23 21:05:32.37	45.14	9.04	-47.0	-49.0	17.3	0.00e+00	0	43	0	244318208	65	4575
2026-01-23 21:05:33.34	45.30	9.07	-47.0	-49.0	17.4	0.00e+00	0	43	0	245366784	65	4556
2026-01-23 21:05:34.31	45.46	9.09	-47.0	-49.0	17.4	0.00e+00	0	43	0	247463936	65	4574
2026-01-23 21:05:35.28	45.62	9.11	-47.2	-49.2	17.2	0.00e+00	0	43	0	249561088	65	4682
2026-01-23 21:05:36.25	45.78	9.14	-47.1	-49.1	17.3	0.00e+00	0	43	0	251658240	65	4632
2026-01-23 21:05:37.23	45.94	9.16	-47.0	-49.0	17.4	0.00e+00	0	43	0	252706816	65	4573
2026-01-23 21:05:38.20	46.10	9.18	-47.2	-49.2	17.1	0.00e+00	0	43	0	254803968	65	4698
2026-01-23 21:05:39.17	46.27	9.21	-47.0	-48.9	17.4	0.00e+00	0	43	0	256901120	65	4535
2026-01-23 21:05:40.14	46.43	9.23	-46.9	-48.9	17.5	0.00e+00	0	43	0	258998272	65	4502
2026-01-23 21:05:41.12	46.59	9.25	-47.1	-49.1	17.3	0.00e+00	0	43	0	260046848	65	4614
2026-01-23 21:05:42.09	46.75	9.27	-47.1	-49.0	17.4	0.00e+00	0	43	0	262144000	65	4575
2026-01-23 21:05:43.07	46.92	9.30	-47.2	-49.2	17.2	0.00e+00	0	43	0	264241152	65	4655
2026-01-23 21:05:44.04	47.08	9.32	-47.2	-49.2	17.2	0.00e+00	0	43	0	266338304	65	4655
2026-01-23 21:05:45.01	47.24	9.34	-47.0	-48.9	17.5	0.00e+00	0	43	0	267386880	65	4524
2026-01-23 21:05:45.98	47.41	9.36	-47.0	-48.9	17.6	0.00e+00	0	43	0	269484032	65	4505
2026-01-23 21:05:46.95	47.57	9.38	-46.8	-48.7	17.7	0.00e+00	0	43	0	271581184	65	4399
2026-01-23 21:05:47.92	47.74	9.40	-46.9	-48.8	17.6	0.00e+00	0	43	0	273678336	65	4473
2026-01-23 21:05:48.89	47.90	9.43	-47.0	-48.9	17.5	0.00e+00	0	43	0	274726912	65	4508
2026-01-23 21:05:49.87	48.07	9.45	-47.0	-48.9	17.6	0.00e+00	0	43	0	276824064	65	4508
2026-01-23 21:05:50.84	48.23	9.47	-46.8	-48.7	17.7	0.00e+00	0	43	0	278921216	65	4425
2026-01-23 21:05:51.81	48.39	9.49	-46.9	-48.8	17.7	0.00e+00	0	43	0	281018368	65	4447
2026-01-23 21:05:52.78	48.56	9.51	-46.8	-48.7	17.8	0.00e+00	0	43	0	282066944	65	4395
2026-01-23 21:05:53.75	48.73	9.53	-46.9	-48.7	17.7	0.00e+00	0	43	0	284164096	65	4434
2026-01-23 21:05:54.73	48.89	9.55	-47.1	-49.0	17.4	0.00e+00	0	43	0	286261248	65	4576
2026-01-23 21:05:55.70	49.06	9.57	-47.0	-48.9	17.5	0.00e+00	0	44	0	288358400	65	4510
2026-01-23 21:05:56.67	49.22	9.59	-47.0	-49.0	17.4	0.00e+00	0	43	0	289406976	65	4561
2026-01-23 21:05:57.64	49.39	9.61	-47.0	-49.0	17.5	0.00e+00	0	43	0	291504128	65	4556
2026-01-23 21:05:58.61	49.56	9.63	-47.1	-49.0	17.4	0.00e+00	0	43	0	293601280	65	4568
2026-01-23 21:05:59.58	49.72	9.64	-46.9	-48.8	17.6	0.00e+00	0	43	0	294649856	65	4482
2026-01-23 21:06:00.54	49.89	9.66	-46.9	-48.8	17.6	0.00e+00	0	43	0	296747008	65	4473
2026-01-23 21:06:01.51	50.05	9.68	-46.8	-48.6	17.7	0.00e+00	0	43	0	298844160	65	4373
2026-01-23 21:06:02.49	50.22	9.70	-46.9	-48.8	17.7	0.00e+00	0	43	0	300941312	65	4443
2026-01-23 21:06:03.46	50.39	9.72	-46.9	-48.8	17.6	0.00e+00	0	43	0	301989888	65	4476
2026-01-23 21:06:04.43	50.56	9.74	-47.0	-49.0	17.5	0.00e+00	0	43	0	304087040	65	4558
2026-01-23 21:06:05.40	50.73	9.75	-46.9	-48.8	17.7	0.00e+00	0	43	0	306184192	65	4458
2026-01-23 21:06:06.37	50.89	9.77	-46.9	-48.8	17.7	0.00e+00	0	43	0	307232768	65	4451
2026-01-23 21:06:07.35	51.06	9.79	-46.8	-48.7	17.8	0.00e+00	0	43	0	309329920	65	4419
2026-01-23 21:06:08.32	51.23	9.81	-46.9	-48.9	17.6	0.00e+00	0	43	0	311427072	65	4496
2026-01-23 21:06:09.29	51.40	9.82	-47.0	-48.9	17.5	0.00e+00	0	43	0	313524224	65	4536
2026-01-23 21:06:10.26	51.57	9.84	-47.1	-49.0	17.4	0.00e+00	0	43	0	314572800	65	4591
2026-01-23 21:06:11.23	51.74	9.86	-47.1	-49.0	17.4	0.00e+00	0	43	0	316669952	65	4584
2026-01-23 21:06:12.19	51.91	9.87	-47.0	-49.0	17.5	0.00e+00	0	43	0	318767104	65	4551
2026-01-23 21:06:13.16	52.08	9.89	-47.2	-49.2	17.1	0.00e+00	0	43	0	320864256	65	4691
2026-01-23 21:06:14.13	52.25	9.90	-47.1	-49.0	17.5	0.00e+00	0	43	0	321912832	65	4575
2026-01-23 21:06:15.10	52.41	9.92	-47.1	-49.1	17.4	0.00e+00	0	43	0	324009984	65	4622
2026-01-23 21:06:16.07	52.58	9.94	-47.1	-49.1	17.4	0.00e+00	0	43	0	326107136	65	4605
2026-01-23 21:06:17.05	52.76	9.95	-47.1	-49.1	17.4	0.00e+00	0	43	0	328204288	65	4608
2026-01-23 21:06:18.01	52.92	9.97	-47.2	-49.2	17.2	0.00e+00	0	43	0	329252864	65	4679
2026-01-23 21:06:18.98	53.10	9.98	-47.1	-49.1	17.4	0.00e+00	0	43	0	331350016	65	4615
2026-01-23 21:06:19.96	53.27	10.00	-47.2	-49.1	17.3	0.00e+00	0	43	0	333447168	65	4650
2026-01-23 21:06:20.93	53.44	10.01	-47.3	-49.3	17.2	0.00e+00	0	43	0	335544320	65	4734
2026-01-23 21:06:21.90	53.61	10.02	-47.4	-49.5	17.0	0.00e+00	0	43	0	336592896	65	4842
2026-01-23 21:06:22.87	53.78	10.04	-47.4	-49.5	17.1	0.00e+00	0	43	0	338690048	65	4838
2026-01-23 21:06:23.84	53.95	10.05	-47.5	-49.6	16.9	0.00e+00	0	43	0	340787200	65	4913
2026-01-23 21:06:24.81	54.12	10.07	-47.6	-49.7	16.8	0.00e+00	0	43	0	342884352	65	4948
2026-01-23 21:06:25.78	54.29	10.08	-47.7	-49.9	16.7	0.00e+00	0	43	0	343932928	66	4770
2026-01-23 21:06:26.75	54.47	10.09	-47.8	-50.1	16.4	0.00e+00	0	43	0	346030080	66	4894
2026-01-23 21:06:27.73	54.64	10.11	-47.8	-50.1	16.4	0.00e+00	0	43	0	348127232	66	4891
2026-01-23 21:06:28.70	54.81	10.12	-47.8	-50.1	16.4	0.00e+00	0	43	0	350224384	66	4877
2026-01-23 21:06:29.66	54.98	10.13	-47.8	-50.0	16.5	0.00e+00	0	43	0	351272960	66	4855
2026-01-23 21:06:30.64	55.16	10.14	-47.9	-50.1	16.4	0.00e+00	0	43	0	353370112	66	4903
2026-01-23 21:06:31.61	55.33	10.15	-47.8	-50.1	16.5	0.00e+00	0	43	0	355467264	66	4875
2026-01-23 21:06:32.58	55.50	10.17	-47.8	-49.9	16.5	0.00e+00	0	43	0	356515840	66	4813
2026-01-23 21:06:33.54	55.67	10.18	-47.7	-49.8	16.7	0.00e+00	0	43	0	358612992	66	4747
2026-01-23 21:06:34.51	55.84	10.19	-47.7	-49.9	16.6	0.00e+00	0	43	0	360710144	66	4769
2026-01-23 21:06:35.49	56.02	10.20	-47.5	-49.7	16.9	0.00e+00	0	43	0	362807296	66	4655
2026-01-23 21:06:36.46	56.19	10.21	-47.5	-49.6	16.9	0.00e+00	0	43	0	363855872	66	4624
2026-01-23 21:06:37.43	56.37	10.22	-47.6	-49.8	16.7	0.00e+00	0	43	0	365953024	66	4714
2026-01-23 21:06:38.40	56.54	10.23	-47.5	-49.5	17.1	0.00e+00	0	43	0	368050176	66	4582
2026-01-23 21:06:39.37	56.71	10.24	-47.5	-49.5	17.0	0.00e+00	0	43	0	369098752	66	4578
2026-01-23 21:06:40.34	56.89	10.25	-47.3	-49.3	17.3	0.00e+00	0	43	0	371195904	66	4453
2026-01-23 21:06:41.32	57.06	10.26	-47.4	-49.5	17.0	0.00e+00	0	43	0	373293056	66	4577
2026-01-23 21:06:42.28	57.23	10.27	-47.5	-49.6	16.9	0.00e+00	0	43	0	375390208	66	4651
2026-01-23 21:06:43.26	57.41	10.28	-47.8	-50.0	16.5	0.00e+00	0	43	0	376438784	66	4818
2026-01-23 21:06:44.22	57.58	10.29	-47.9	-50.2	16.3	0.00e+00	0	43	0	378535936	66	4977
2026-01-23 21:06:45.19	57.75	10.30	-48.1	-50.4	16.1	0.00e+00	0	43	0	380633088	66	5073
2026-01-23 21:06:46.16	57.93	10.31	-47.7	-49.9	16.7	0.00e+00	0	43	0	382730240	66	4783
2026-01-23 21:06:47.13	58.10	10.32	-47.7	-49.8	16.7	0.00e+00	0	43	0	383778816	66	4751
2026-01-23 21:06:48.10	58.28	10.33	-47.5	-49.6	16.9	0.00e+00	0	43	0	385875968	66	4629
2026-01-23 21:06:49.07	58.45	10.33	-47.3	-49.3	17.2	0.00e+00	0	43	0	387973120	66	4476
2026-01-23 21:06:50.04	58.63	10.34	-47.3	-49.3	17.3	0.00e+00	0	43	0	390070272	66	4460
2026-01-23 21:06:51.01	58.80	10.35	-47.2	-49.1	17.4	0.00e+00	0	43	0	391118848	66	4366
2026-01-23 21:06:51.98	58.98	10.36	-47.3	-49.2	17.3	0.00e+00	0	43	0	393216000	66	4433
2026-01-23 21:06:52.96	59.15	10.36	-47.1	-49.0	17.5	0.00e+00	0	43	0	395313152	66	4299
2026-01-23 21:06:53.92	59.33	10.37	-47.1	-49.0	17.6	0.00e+00	0	43	0	397410304	66	4304
2026-01-23 21:06:54.89	59.50	10.38	-47.1	-49.1	17.5	0.00e+00	0	43	0	398458880	66	4341
2026-01-23 21:06:55.86	59.68	10.38	-47.3	-49.3	17.3	0.00e+00	0	43	0	400556032	66	4447
2026-01-23 21:06:56.83	59.85	10.39	-47.2	-49.1	17.4	0.00e+00	0	43	0	402653184	66	4366
2026-01-23 21:06:57.80	60.03	10.39	-47.2	-49.1	17.4	0.00e+00	0	43	0	404750336	66	4391
2026-01-23 21:06:58.77	60.20	10.40	-47.2	-49.1	17.4	0.00e+00	0	43	0	405798912	66	4389
2026-01-23 21:06:59.74	60.38	10.41	-47.1	-49.0	17.5	0.00e+00	0	43	0	407896064	66	4320
2026-01-23 21:07:00.71	60.55	10.41	-47.2	-49.2	17.4	0.00e+00	0	43	0	409993216	66	4406
2026-01-23 21:07:01.68	60.73	10.42	-47.2	-49.1	17.5	0.00e+00	0	43	0	411041792	66	4373
2026-01-23 21:07:02.65	60.90	10.42	-47.1	-49.0	17.6	0.00e+00	0	43	0	413138944	66	4307
2026-01-23 21:07:03.63	61.08	10.43	-47.1	-49.1	17.5	0.00e+00	0	43	0	415236096	66	4353
2026-01-23 21:07:04.60	61.26	10.43	-47.2	-49.1	17.5	0.00e+00	0	43	0	417333248	66	4366
2026-01-23 21:07:05.56	61.43	10.43	-47.2	-49.2	17.4	0.00e+00	0	43	0	418381824	66	4415
2026-01-23 21:07:06.54	61.61	10.44	-47.1	-49.0	17.5	0.00e+00	0	43	0	420478976	66	4326
2026-01-23 21:07:07.50	61.78	10.44	-47.1	-49.0	17.5	0.00e+00	0	43	0	422576128	66	4331
2026-01-23 21:07:08.47	61.96	10.44	-47.1	-49.1	17.5	0.00e+00	0	43	0	424673280	66	4349
2026-01-23 21:07:09.44	62.13	10.45	-46.9	-48.8	17.7	0.00e+00	0	43	0	425721856	65	4466
2026-01-23 21:07:10.42	62.31	10.45	-46.9	-48.8	17.7	0.00e+00	0	43	0	427819008	65	4452
2026-01-23 21:07:11.39	62.49	10.45	-46.8	-48.7	17.9	0.00e+00	0	43	0	429916160	65	4400
2026-01-23 21:07:12.36	62.66	10.45	-46.7	-48.5	18.0	0.00e+00	0	43	0	430964736	65	4304
2026-01-23 21:07:13.33	62.84	10.46	-46.7	-48.5	18.0	0.00e+00	0	43	0	433061888	65	4315
2026-01-23 21:07:14.31	63.02	10.46	-46.6	-48.4	18.1	0.00e+00	0	43	0	435159040	65	4257
2026-01-23 21:07:15.28	63.19	10.46	-46.7	-48.6	17.9	0.00e+00	0	43	0	437256192	65	4344
2026-01-23 21:07:16.25	63.37	10.46	-46.5	-48.3	18.3	0.00e+00	0	43	0	438304768	64	4444
2026-01-23 21:07:17.22	63.55	10.46	-46.5	-48.3	18.3	0.00e+00	0	43	0	440401920	64	4448
2026-01-23 21:07:18.18	63.72	10.46	-46.5	-48.2	18.2	0.00e+00	0	43	0	442499072	64	4438
2026-01-23 21:07:19.15	63.90	10.46	-46.3	-48.0	18.5	0.00e+00	0	43	0	444596224	64	4326
2026-01-23 21:07:20.12	64.07	10.47	-46.4	-48.1	18.4	0.00e+00	0	43	0	445644800	64	4379
2026-01-23 21:07:21.09	64.25	10.47	-46.5	-48.3	18.2	0.00e+00	0	43	0	447741952	64	4452
2026-01-23 21:07:22.07	64.43	10.47	-46.6	-48.4	18.0	0.00e+00	0	43	0	449839104	64	4528
2026-01-23 21:07:23.04	64.60	10.47	-46.7	-48.5	18.0	0.00e+00	0	43	0	451936256	64	4555
2026-01-23 21:07:24.02	64.78	10.46	-46.6	-48.3	18.1	0.00e+00	0	43	0	452984832	64	4490
2026-01-23 21:07:24.99	64.96	10.46	-46.7	-48.4	18.1	0.00e+00	0	43	0	455081984	64	4534
2026-01-23 21:07:25.96	65.13	10.46	-46.3	-48.0	18.5	0.00e+00	0	43	0	457179136	64	4340
2026-01-23 21:07:26.92	65.31	10.46	-46.0	-47.6	18.9	0.00e+00	0	43	0	459276288	64	4124
2026-01-23 21:07:27.89	65.48	10.46	-46.0	-47.5	19.0	0.00e+00	0	43	0	460324864	63	4328
2026-01-23 21:07:28.86	65.66	10.46	-46.1	-47.7	18.8	0.00e+00	0	43	0	462422016	63	4402
2026-01-23 21:07:29.83	65.83	10.46	-45.9	-47.5	19.1	0.00e+00	0	43	0	464519168	63	4305
2026-01-23 21:07:30.79	66.01	10.45	-45.9	-47.5	19.0	0.00e+00	0	43	0	466616320	63	4292
2026-01-23 21:07:31.77	66.19	10.45	-45.8	-47.3	19.2	0.00e+00	0	43	0	467664896	63	4225
2026-01-23 21:07:32.74	66.36	10.45	-45.9	-47.4	19.2	0.00e+00	0	43	0	469762048	63	4264
2026-01-23 21:07:33.71	66.54	10.45	-46.1	-47.7	18.8	0.00e+00	0	43	0	471859200	63	4425
2026-01-23 21:07:34.68	66.71	10.44	-46.3	-47.9	18.6	0.00e+00	0	43	0	472907776	63	4513
2026-01-23 21:07:35.65	66.89	10.44	-46.3	-47.9	18.7	0.00e+00	0	43	0	475004928	63	4520
2026-01-23 21:07:36.62	67.07	10.44	-46.3	-47.9	18.6	0.00e+00	0	43	0	477102080	63	4533
2026-01-23 21:07:37.60	67.24	10.43	-46.3	-47.9	18.7	0.00e+00	0	43	0	479199232	63	4513
2026-01-23 21:07:38.57	67.42	10.43	-46.3	-47.9	18.6	0.00e+00	0	43	0	480247808	63	4544
2026-01-23 21:07:39.54	67.60	10.42	-46.0	-47.6	18.8	0.00e+00	0	43	0	482344960	63	4351
2026-01-23 21:07:40.51	67.77	10.42	-46.1	-47.7	18.8	0.00e+00	0	43	0	484442112	63	4439
2026-01-23 21:07:41.48	67.95	10.42	-46.2	-47.9	18.6	0.00e+00	0	43	0	486539264	63	4506
2026-01-23 21:07:42.45	68.12	10.41	-46.2	-47.8	18.6	0.00e+00	0	43	0	487587840	63	4467
2026-01-23 21:07:43.43	68.30	10.40	-46.2	-47.8	18.7	0.00e+00	0	43	0	489684992	63	4477
2026-01-23 21:07:44.40	68.48	10.40	-46.2	-47.8	18.7	0.00e+00	0	43	0	491782144	63	4460
2026-01-23 21:07:45.38	68.65	10.39	-46.1	-47.7	18.8	0.00e+00	0	43	0	493879296	63	4404
2026-01-23 21:07:46.35	68.83	10.39	-46.0	-47.6	18.8	0.00e+00	0	43	0	494927872	63	4344
2026-01-23 21:07:47.32	69.00	10.38	-46.1	-47.7	18.8	0.00e+00	0	43	0	497025024	63	4425
2026-01-23 21:07:48.29	69.18	10.37	-46.0	-47.6	18.8	0.00e+00	0	43	0	499122176	63	4351
2026-01-23 21:07:49.26	69.35	10.37	-46.1	-47.7	18.8	0.00e+00	0	43	0	500170752	63	4409
2026-01-23 21:07:50.22	69.53	10.36	-46.3	-47.9	18.7	0.00e+00	0	43	0	502267904	63	4526
2026-01-23 21:07:51.20	69.70	10.35	-46.1	-47.7	18.9	0.00e+00	0	43	0	504365056	63	4405
2026-01-23 21:07:52.17	69.88	10.35	-46.1	-47.7	18.8	0.00e+00	0	43	0	506462208	63	4437
2026-01-23 21:07:53.14	70.05	10.34	-46.2	-47.8	18.8	0.00e+00	0	43	0	507510784	63	4450
2026-01-23 21:07:54.11	70.23	10.33	-46.0	-47.6	18.8	0.00e+00	0	43	0	509607936	63	4361
2026-01-23 21:07:55.08	70.40	10.32	-46.0	-47.6	18.9	0.00e+00	0	43	0	511705088	63	4349
2026-01-23 21:07:56.05	70.58	10.32	-46.0	-47.6	18.8	0.00e+00	0	43	0	513802240	63	4378
2026-01-23 21:07:57.03	70.75	10.31	-46.2	-47.9	18.7	0.00e+00	0	43	0	514850816	63	4509
2026-01-23 21:07:58.00	70.93	10.30	-46.1	-47.7	18.9	0.00e+00	0	43	0	516947968	63	4413
2026-01-23 21:07:58.97	71.10	10.29	-46.1	-47.7	18.9	0.00e+00	0	43	0	519045120	63	4439
2026-01-23 21:07:59.94	71.28	10.28	-46.3	-47.9	18.6	0.00e+00	0	43	0	521142272	63	4522
2026-01-23 21:08:00.91	71.45	10.27	-46.3	-47.9	18.5	0.00e+00	0	43	0	522190848	63	4521
2026-01-23 21:08:01.88	71.62	10.26	-46.3	-48.0	18.5	0.00e+00	0	43	0	524288000	63	4578
2026-01-23 21:08:02.85	71.80	10.25	-46.5	-48.3	18.2	0.00e+00	0	43	0	526385152	63	4717
2026-01-23 21:08:03.82	71.97	10.24	-46.6	-48.3	18.2	0.00e+00	0	43	0	528482304	63	4744
2026-01-23 21:08:04.80	72.15	10.23	-46.5	-48.2	18.3	0.00e+00	0	43	0	529530880	63	4697
2026-01-23 21:08:05.77	72.32	10.22	-46.7	-48.5	18.1	0.00e+00	0	43	0	531628032	63	4819
2026-01-23 21:08:06.74	72.49	10.21	-46.5	-48.3	18.2	0.00e+00	0	43	0	533725184	63	4708
2026-01-23 21:08:07.71	72.67	10.20	-46.6	-48.4	18.0	0.00e+00	0	43	0	535822336	64	4537
2026-01-23 21:08:08.69	72.84	10.19	-46.4	-48.1	18.2	0.00e+00	0	43	0	536870912	64	4382
2026-01-23 21:08:09.66	73.01	10.18	-46.6	-48.4	17.9	0.00e+00	0	43	0	538968064	64	4534
2026-01-23 21:08:10.63	73.19	10.16	-46.6	-48.4	18.0	0.00e+00	0	43	0	541065216	64	4514
2026-01-23 21:08:11.60	73.36	10.15	-46.6	-48.4	18.0	0.00e+00	0	43	0	543162368	64	4504
2026-01-23 21:08:12.57	73.53	10.14	-46.5	-48.2	18.1	0.00e+00	0	43	0	544210944	64	4436
2026-01-23 21:08:13.54	73.71	10.13	-46.6	-48.4	18.0	0.00e+00	0	43	0	546308096	64	4526
2026-01-23 21:08:14.51	73.88	10.11	-46.6	-48.4	18.1	0.00e+00	0	43	0	548405248	64	4504
2026-01-23 21:08:15.48	74.05	10.10	-46.5	-48.3	18.1	0.00e+00	0	43	0	549453824	64	4464
2026-01-23 21:08:16.46	74.22	10.09	-46.5	-48.3	18.1	0.00e+00	0	43	0	551550976	64	4480
2026-01-23 21:08:17.44	74.40	10.08	-46.3	-48.0	18.3	0.00e+00	0	43	0	553648128	64	4321
2026-01-23 21:08:18.41	74.57	10.06	-46.1	-47.8	18.6	0.00e+00	0	43	0	555745280	64	4213
2026-01-23 21:08:19.38	74.74	10.05	-46.1	-47.7	18.8	0.00e+00	0	43	0	556793856	63	4397
2026-01-23 21:08:20.35	74.91	10.03	-45.8	-47.4	19.1	0.00e+00	0	43	0	558891008	63	4243
2026-01-23 21:08:21.32	75.08	10.02	-46.0	-47.6	18.9	0.00e+00	0	43	0	560988160	63	4344
2026-01-23 21:08:22.29	75.25	10.01	-46.0	-47.6	18.9	0.00e+00	0	43	0	563085312	63	4382
2026-01-23 21:08:23.27	75.43	9.99	-46.1	-47.7	18.8	0.00e+00	0	43	0	564133888	63	4416
2026-01-23 21:08:24.23	75.60	9.98	-46.2	-47.8	18.7	0.00e+00	0	43	0	566231040	63	4467
2026-01-23 21:08:25.21	75.77	9.96	-46.2	-47.8	18.7	0.00e+00	0	43	0	568328192	63	4469
2026-01-23 21:08:26.18	75.94	9.95	-46.2	-47.8	18.7	0.00e+00	0	43	0	569376768	63	4489
2026-01-23 21:08:27.15	76.11	9.93	-46.3	-47.9	18.6	0.00e+00	0	43	0	571473920	63	4534
2026-01-23 21:08:28.12	76.28	9.92	-46.3	-47.9	18.7	0.00e+00	0	43	0	573571072	63	4519
2026-01-23 21:08:29.09	76.45	9.90	-46.2	-47.9	18.6	0.00e+00	0	43	0	575668224	63	4517
2026-01-23 21:08:30.06	76.62	9.88	-46.4	-48.0	18.5	0.00e+00	0	43	0	576716800	63	4585
2026-01-23 21:08:31.03	76.79	9.87	-46.3	-48.0	18.4	0.00e+00	0	43	0	578813952	63	4572
2026-01-23 21:08:32.00	76.96	9.85	-46.3	-48.0	18.5	0.00e+00	0	43	0	580911104	63	4590
2026-01-23 21:08:32.97	77.13	9.83	-46.3	-48.0	18.5	0.00e+00	0	43	0	583008256	63	4570
2026-01-23 21:08:33.93	77.29	9.82	-46.2	-47.8	18.7	0.00e+00	0	43	0	584056832	63	4485
2026-01-23 21:08:34.91	77.46	9.80	-46.1	-47.8	18.8	0.00e+00	0	43	0	586153984	63	4446
2026-01-23 21:08:35.88	77.63	9.78	-46.1	-47.7	18.7	0.00e+00	0	43	0	588251136	63	4424
2026-01-23 21:08:36.85	77.80	9.77	-46.2	-47.8	18.7	0.00e+00	0	43	0	590348288	63	4466
2026-01-23 21:08:37.83	77.97	9.75	-46.1	-47.6	18.9	0.00e+00	0	43	0	591396864	63	4391
2026-01-23 21:08:38.80	78.14	9.73	-45.9	-47.4	19.1	0.00e+00	0	43	0	593494016	63	4279
2026-01-23 21:08:39.77	78.31	9.71	-45.8	-47.3	19.2	0.00e+00	0	43	0	595591168	63	4216
2026-01-23 21:08:40.74	78.48	9.69	-45.7	-47.2	19.3	0.00e+00	0	43	0	597688320	63	4164
2026-01-23 21:08:41.70	78.64	9.68	-45.8	-47.3	19.3	0.00e+00	0	43	0	598736896	63	4209
2026-01-23 21:08:42.67	78.81	9.66	-45.8	-47.3	19.2	0.00e+00	0	43	0	600834048	63	4226
2026-01-23 21:08:43.64	78.98	9.64	-45.9	-47.4	19.1	0.00e+00	0	43	0	602931200	63	4272
2026-01-23 21:08:44.61	79.14	9.62	-45.7	-47.2	19.3	0.00e+00	0	43	0	605028352	63	4190
2026-01-23 21:08:45.58	79.31	9.60	-45.6	-47.1	19.4	0.00e+00	0	43	0	606076928	63	4113
2026-01-23 21:08:46.55	79.48	9.58	-45.6	-47.1	19.6	0.00e+00	0	43	0	608174080	62	4344
2026-01-23 21:08:47.52	79.64	9.56	-45.6	-47.0	19.5	0.00e+00	0	43	0	610271232	62	4329
2026-01-23 21:08:48.49	79.81	9.54	-45.5	-47.0	19.5	0.00e+00	0	43	0	612368384	62	4322
2026-01-23 21:08:49.47	79.97	9.52	-45.9	-47.4	19.2	0.00e+00	0	43	0	613416960	62	4516
2026-01-23 21:08:50.44	80.14	9.50	-45.9	-47.4	19.1	0.00e+00	0	43	0	615514112	62	4517
2026-01-23 21:08:51.41	80.31	9.48	-45.8	-47.3	19.1	0.00e+00	0	43	0	617611264	62	4478
2026-01-23 21:08:52.38	80.47	9.46	-45.9	-47.4	19.1	0.00e+00	0	43	0	618659840	62	4542
2026-01-23 21:08:53.35	80.64	9.44	-45.8	-47.4	19.1	0.00e+00	0	43	0	620756992	62	4509
2026-01-23 21:08:54.32	80.80	9.42	-45.9	-47.5	18.9	0.00e+00	0	43	0	622854144	62	4555
2026-01-23 21:08:55.29	80.96	9.40	-45.9	-47.4	19.1	0.00e+00	0	43	0	623902720	62	4526
2026-01-23 21:08:56.25	81.13	9.37	-45.9	-47.4	19.0	0.00e+00	0	43	0	625999872	62	4544
2026-01-23 21:08:57.22	81.29	9.35	-45.8	-47.3	19.1	0.00e+00	0	43	0	628097024	62	4486
2026-01-23 21:08:58.19	81.46	9.33	-46.1	-47.7	18.8	0.00e+00	0	43	0	630194176	63	4398
2026-01-23 21:08:59.16	81.62	9.31	-46.2	-47.8	18.6	0.00e+00	0	43	0	631242752	63	4477
2026-01-23 21:09:00.13	81.78	9.29	-46.0	-47.6	19.0	0.00e+00	0	43	0	633339904	63	4375
2026-01-23 21:09:01.10	81.94	9.27	-45.9	-47.5	19.0	0.00e+00	0	43	0	635437056	63	4292
2026-01-23 21:09:02.08	82.11	9.24	-45.8	-47.4	19.2	0.00e+00	0	43	0	637534208	63	4245
2026-01-23 21:09:03.05	82.27	9.22	-45.8	-47.3	19.2	0.00e+00	0	43	0	638582784	63	4239
2026-01-23 21:09:04.02	82.43	9.20	-45.8	-47.4	19.1	0.00e+00	0	43	0	640679936	63	4262
2026-01-23 21:09:04.99	82.60	9.17	-45.7	-47.2	19.3	0.00e+00	0	43	0	642777088	63	4152
2026-01-23 21:09:05.95	82.76	9.15	-45.6	-47.1	19.4	0.00e+00	0	43	0	644874240	63	4125
2026-01-23 21:09:06.92	82.92	9.13	-45.8	-47.4	19.2	0.00e+00	0	43	0	645922816	63	4248
2026-01-23 21:09:07.89	83.08	9.10	-45.7	-47.2	19.3	0.00e+00	0	43	0	648019968	63	4154
2026-01-23 21:09:08.86	83.24	9.08	-45.8	-47.3	19.2	0.00e+00	0	43	0	650117120	63	4228
2026-01-23 21:09:09.83	83.40	9.06	-46.0	-47.6	19.0	0.00e+00	0	43	0	652214272	63	4341
2026-01-23 21:09:10.80	83.56	9.03	-46.0	-47.6	18.8	0.00e+00	0	43	0	653262848	63	4355
2026-01-23 21:09:11.76	83.72	9.01	-46.3	-48.0	18.5	0.00e+00	0	43	0	655360000	63	4573
2026-01-23 21:09:12.73	83.88	8.98	-46.1	-47.7	18.7	0.00e+00	0	43	0	657457152	63	4406
2026-01-23 21:09:13.71	84.04	8.96	-46.0	-47.6	18.8	0.00e+00	0	43	0	659554304	63	4377
2026-01-23 21:09:14.68	84.20	8.94	-46.3	-47.9	18.6	0.00e+00	0	43	0	660602880	63	4533
2026-01-23 21:09:15.65	84.36	8.91	-46.3	-48.0	18.5	0.00e+00	0	43	0	662700032	63	4586
2026-01-23 21:09:16.63	84.52	8.89	-46.3	-48.0	18.5	0.00e+00	0	43	0	664797184	63	4555
2026-01-23 21:09:17.60	84.68	8.86	-46.1	-47.7	18.7	0.00e+00	0	43	0	666894336	63	4428
2026-01-23 21:09:18.57	84.84	8.83	-46.3	-47.9	18.5	0.00e+00	0	43	0	667942912	63	4540
2026-01-23 21:09:19.54	85.00	8.81	-46.3	-48.0	18.4	0.00e+00	0	43	0	670040064	63	4575
2026-01-23 21:09:20.51	85.15	8.78	-46.4	-48.2	18.4	0.00e+00	0	43	0	672137216	63	4653
2026-01-23 21:09:21.48	85.31	8.76	-46.5	-48.2	18.3	0.00e+00	0	43	0	673185792	63	4663
2026-01-23 21:09:22.46	85.47	8.73	-46.4	-48.1	18.3	0.00e+00	0	43	0	675282944	63	4617
2026-01-23 21:09:23.42	85.63	8.71	-46.4	-48.1	18.3	0.00e+00	0	43	0	677380096	63	4624
2026-01-23 21:09:24.39	85.78	8.68	-46.5	-48.3	18.2	0.00e+00	0	43	0	679477248	63	4727
2026-01-23 21:09:25.36	85.94	8.65	-46.7	-48.5	18.0	0.00e+00	0	43	0	680525824	63	4836
2026-01-23 21:09:26.34	86.10	8.63	-46.7	-48.5	17.8	0.00e+00	0	43	0	682622976	64	4594
2026-01-23 21:09:27.31	86.25	8.60	-46.7	-48.5	17.8	0.00e+00	0	43	0	684720128	64	4598
2026-01-23 21:09:28.28	86.41	8.57	-46.7	-48.6	17.7	0.00e+00	0	43	0	686817280	64	4601
2026-01-23 21:09:29.25	86.57	8.54	-46.6	-48.4	17.9	0.00e+00	0	43	0	687865856	64	4497
2026-01-23 21:09:30.23	86.72	8.52	-47.0	-48.9	17.4	0.00e+00	0	43	0	689963008	64	4802
2026-01-23 21:09:31.20	86.88	8.49	-47.2	-49.2	17.1	0.00e+00	0	43	0	692060160	65	4668
2026-01-23 21:09:32.17	87.03	8.46	-47.1	-49.1	17.2	0.00e+00	0	43	0	693108736	65	4641
2026-01-23 21:09:33.14	87.19	8.43	-47.3	-49.4	16.9	0.00e+00	0	43	0	695205888	65	4764
2026-01-23 21:09:34.11	87.34	8.41	-47.5	-49.6	16.6	0.00e+00	0	43	0	697303040	65	4912
2026-01-23 21:09:35.08	87.49	8.38	-47.6	-49.8	16.4	0.00e+00	0	43	0	699400192	65	5029
2026-01-23 21:09:36.06	87.65	8.35	-47.9	-50.2	16.1	0.00e+00	0	43	0	700448768	66	4958
2026-01-23 21:09:37.03	87.80	8.32	-48.1	-50.5	15.8	0.00e+00	0	43	0	702545920	66	5130
2026-01-23 21:09:38.00	87.96	8.29	-47.9	-50.3	16.0	0.00e+00	0	43	0	704643072	66	4999
2026-01-23 21:09:38.96	88.11	8.27	-47.7	-50.0	16.3	0.00e+00	0	43	0	706740224	66	4865
2026-01-23 21:09:39.93	88.26	8.24	-47.7	-50.0	16.2	0.00e+00	0	43	0	707788800	66	4866
2026-01-23 21:09:40.90	88.41	8.21	-47.8	-50.2	16.1	0.00e+00	0	43	0	709885952	66	4928
2026-01-23 21:09:41.88	88.56	8.18	-47.6	-49.8	16.4	0.00e+00	0	43	0	711983104	66	4745
2026-01-23 21:09:42.85	88.72	8.15	-47.4	-49.5	16.8	0.00e+00	0	43	0	714080256	66	4578
2026-01-23 21:09:43.82	88.87	8.12	-47.4	-49.5	16.7	0.00e+00	0	43	0	715128832	66	4592
2026-01-23 21:09:44.79	89.02	8.09	-47.5	-49.7	16.6	0.00e+00	0	43	0	717225984	66	4683
2026-01-23 21:09:45.76	89.17	8.06	-47.4	-49.6	16.7	0.00e+00	0	43	0	719323136	66	4622
2026-01-23 21:09:46.73	89.32	8.03	-47.6	-49.8	16.4	0.00e+00	0	43	0	721420288	66	4729
2026-01-23 21:09:47.71	89.47	8.00	-47.6	-49.8	16.5	0.00e+00	0	43	0	722468864	66	4731
2026-01-23 21:09:48.68	89.62	7.97	-47.3	-49.5	16.8	0.00e+00	0	43	0	724566016	66	4546
2026-01-23 21:09:49.65	89.77	7.94	-47.5	-49.8	16.6	0.00e+00	0	43	0	726663168	66	4708
2026-01-23 21:09:50.62	89.92	7.91	-47.6	-49.9	16.5	0.00e+00	0	43	0	728760320	66	4776
2026-01-23 21:09:51.59	90.07	7.88	-47.6	-49.8	16.4	0.00e+00	0	43	0	729808896	66	4725
2026-01-23 21:09:52.57	90.22	7.85	-47.8	-50.1	16.1	0.00e+00	0	43	0	731906048	66	4910
2026-01-23 21:09:53.54	90.37	7.82	-47.9	-50.3	16.0	0.00e+00	0	43	0	734003200	66	4992
2026-01-23 21:09:54.51	90.51	7.79	-48.0	-50.5	15.7	0.00e+00	0	43	0	736100352	66	5129
2026-01-23 21:09:55.49	90.66	7.76	-48.1	-50.6	15.6	0.00e+00	0	43	0	737148928	66	5199
2026-01-23 21:09:56.46	90.81	7.73	-48.3	-51.0	15.3	0.00e+00	0	43	0	739246080	67	5124
2026-01-23 21:09:57.43	90.96	7.70	-48.5	-51.3	14.9	0.00e+00	0	43	0	741343232	67	5322
2026-01-23 21:09:58.40	91.11	7.66	-48.7	-51.5	14.7	0.00e+00	0	43	0	743440384	67	5451
2026-01-23 21:09:59.38	91.25	7.63	-48.9	-51.9	14.4	7.00e-07	0	43	0	744488960	68	5354
2026-01-23 21:10:00.34	91.40	7.60	-48.9	-51.9	14.3	7.00e-07	0	43	0	746586112	68	5357
2026-01-23 21:10:01.31	91.54	7.57	-48.9	-51.8	14.5	7.00e-07	0	43	0	748683264	68	5318
2026-01-23 21:10:02.28	91.69	7.54	-48.7	-51.5	14.8	7.00e-07	0	43	0	749731840	68	5130
2026-01-23 21:10:03.25	91.83	7.51	-48.6	-51.3	15.1	0.00e+00	0	43	0	751828992	68	5018
2026-01-23 21:10:04.22	91.98	7.47	-48.7	-51.5	14.8	0.00e+00	0	43	0	753926144	68	5112
2026-01-23 21:10:05.19	92.12	7.44	-48.6	-51.3	14.9	7.00e-07	0	43	0	756023296	68	5018
2026-01-23 21:10:06.16	92.27	7.41	-48.6	-51.3	14.9	0.00e+00	0	43	0	757071872	68	5029
2026-01-23 21:10:07.13	92.41	7.38	-48.7	-51.6	14.7	0.00e+00	0	43	0	759169024	68	5167
2026-01-23 21:10:08.10	92.56	7.35	-48.6	-51.5	14.8	0.00e+00	0	43	0	761266176	68	5102
2026-01-23 21:10:09.07	92.70	7.31	-48.5	-51.3	15.0	0.00e+00	0	43	0	762314752	68	5013
2026-01-23 21:10:10.04	92.84	7.28	-48.4	-51.1	15.2	0.00e+00	0	43	0	764411904	68	4891
2026-01-23 21:10:11.01	92.99	7.25	-48.2	-50.7	15.6	0.00e+00	0	43	0	766509056	68	4688
2026-01-23 21:10:11.98	93.13	7.22	-47.9	-50.3	15.9	0.00e+00	0	43	0	768606208	67	4708
2026-01-23 21:10:12.95	93.27	7.18	-48.1	-50.7	15.5	0.00e+00	0	43	0	769654784	67	4949
2026-01-23 21:10:13.93	93.41	7.15	-48.1	-50.6	15.5	0.00e+00	0	43	0	771751936	67	4925
2026-01-23 21:10:14.90	93.56	7.12	-48.1	-50.6	15.6	0.00e+00	0	43	0	773849088	67	4901
2026-01-23 21:10:15.87	93.70	7.08	-48.2	-50.8	15.3	0.00e+00	0	43	0	775946240	67	5015
2026-01-23 21:10:16.84	93.84	7.05	-48.2	-50.9	15.3	0.00e+00	0	43	0	776994816	67	5042
2026-01-23 21:10:17.81	93.98	7.02	-48.3	-51.0	15.1	0.00e+00	0	43	0	779091968	67	5128
2026-01-23 21:10:18.78	94.12	6.98	-48.5	-51.3	14.8	0.00e+00	0	43	0	781189120	67	5305
2026-01-23 21:10:19.75	94.26	6.95	-48.4	-51.1	15.0	1.50e-06	0	43	0	783286272	67	5174
2026-01-23 21:10:20.71	94.40	6.92	-48.5	-51.3	14.8	0.00e+00	0	43	0	784334848	67	5287
2026-01-23 21:10:21.68	94.54	6.88	-48.3	-51.0	15.1	0.00e+00	0	43	0	786432000	67	5124
2026-01-23 21:10:22.66	94.68	6.85	-48.2	-50.8	15.3	0.00e+00	0	43	0	788529152	67	5006
2026-01-23 21:10:23.63	94.82	6.81	-47.8	-50.2	15.8	0.00e+00	0	43	0	790626304	67	4685
2026-01-23 21:10:24.60	94.95	6.78	-47.8	-50.2	15.9	0.00e+00	0	43	0	791674880	67	4704
2026-01-23 21:10:25.57	95.09	6.74	-47.9	-50.4	15.7	0.00e+00	0	43	0	793772032	67	4803
2026-01-23 21:10:26.54	95.23	6.71	-47.7	-50.0	16.1	0.00e+00	0	43	0	795869184	67	4589
2026-01-23 21:10:27.51	95.37	6.68	-47.6	-49.8	16.2	0.00e+00	0	43	0	797966336	66	4757
2026-01-23 21:10:28.48	95.50	6.64	-47.8	-50.3	15.8	0.00e+00	0	43	0	799014912	66	5000
2026-01-23 21:10:29.45	95.64	6.61	-47.8	-50.2	15.9	0.00e+00	0	43	0	801112064	66	4952
2026-01-23 21:10:30.41	95.78	6.57	-48.1	-50.7	15.3	0.00e+00	0	43	0	803209216	66	5276
2026-01-23 21:10:31.39	95.91	6.54	-48.2	-50.9	15.2	0.00e+00	0	43	0	804257792	67	5052
2026-01-23 21:10:32.36	96.05	6.50	-48.2	-50.9	15.2	0.00e+00	0	43	0	806354944	67	5054
2026-01-23 21:10:33.33	96.19	6.47	-48.4	-51.1	14.9	0.00e+00	0	43	0	808452096	67	5217
2026-01-23 21:10:34.30	96.32	6.43	-48.3	-51.0	15.0	0.00e+00	0	43	0	810549248	67	5124
2026-01-23 21:10:35.27	96.46	6.40	-48.2	-50.8	15.2	0.00e+00	0	43	0	811597824	67	5036
2026-01-23 21:10:36.25	96.59	6.36	-48.2	-50.9	15.1	0.00e+00	0	43	0	813694976	67	5089
2026-01-23 21:10:37.22	96.73	6.33	-48.0	-50.6	15.5	0.00e+00	0	43	0	815792128	67	4873
2026-01-23 21:10:38.20	96.86	6.29	-48.0	-50.5	15.5	0.00e+00	0	43	0	817889280	67	4849
2026-01-23 21:10:39.17	97.00	6.26	-47.8	-50.3	15.7	0.00e+00	0	43	0	818937856	67	4742
2026-01-23 21:10:40.15	97.13	6.22	-47.5	-49.8	16.1	0.00e+00	0	43	0	821035008	67	4493
2026-01-23 21:10:41.13	97.27	6.18	-47.3	-49.5	16.6	0.00e+00	0	43	0	823132160	66	4557
2026-01-23 21:10:42.12	97.40	6.15	-47.3	-49.6	16.4	0.00e+00	0	43	0	825229312	66	4612
2026-01-23 21:10:43.11	97.54	6.11	-47.3	-49.5	16.5	0.00e+00	0	43	0	826277888	66	4569
2026-01-23 21:10:44.10	97.67	6.07	-47.4	-49.7	16.3	0.00e+00	0	43	0	828375040	66	4652
2026-01-23 21:10:45.09	97.81	6.04	-47.4	-49.7	16.3	0.00e+00	0	44	0	830472192	66	4659
2026-01-23 21:10:46.07	97.94	6.00	-47.4	-49.7	16.3	0.00e+00	0	43	0	832569344	66	4663
2026-01-23 21:10:47.05	98.07	5.97	-47.5	-49.8	16.2	0.00e+00	0	43	0	833617920	66	4734
2026-01-23 21:10:48.03	98.20	5.93	-47.4	-49.7	16.2	0.00e+00	0	43	0	835715072	66	4679
2026-01-23 21:10:49.02	98.34	5.89	-47.6	-50.0	16.1	0.00e+00	0	43	0	837812224	66	4822
2026-01-23 21:10:49.99	98.47	5.86	-47.5	-49.9	16.1	0.00e+00	0	43	0	839909376	66	4779
2026-01-23 21:10:50.98	98.60	5.82	-47.5	-49.8	16.2	0.00e+00	0	43	0	840957952	66	4729
2026-01-23 21:10:51.96	98.73	5.78	-47.4	-49.7	16.1	0.00e+00	0	43	0	843055104	66	4679
2026-01-23 21:10:52.94	98.86	5.74	-47.7	-50.1	15.8	0.00e+00	0	43	0	845152256	66	4911
2026-01-23 21:10:53.92	98.99	5.71	-47.5	-49.8	16.0	0.00e+00	0	43	0	847249408	66	4757
2026-01-23 21:10:54.91	99.12	5.67	-47.5	-49.8	16.1	0.00e+00	0	43	0	849346560	66	4731
2026-01-23 21:10:55.90	99.25	5.63	-47.5	-49.9	16.0	0.00e+00	0	43	0	850395136	66	4773
2026-01-23 21:10:56.89	99.39	5.60	-47.9	-50.4	15.4	0.00e+00	0	43	0	852492288	66	5090
2026-01-23 21:10:57.89	99.52	5.56	-47.6	-50.1	15.8	0.00e+00	0	43	0	854589440	66	4905
2026-01-23 21:10:58.89	99.65	5.52	-47.7	-50.2	15.6	0.00e+00	0	43	0	856686592	66	4982
2026-01-23 21:10:59.90	99.78	5.48	-47.4	-49.7	16.1	0.00e+00	0	43	0	857735168	66	4704
2026-01-23 21:11:00.91	99.91	5.44	-47.5	-49.9	15.9	0.00e+00	0	43	0	859832320	66	4786
2026-01-23 21:11:01.91	100.04	5.40	-47.5	-49.8	16.1	0.00e+00	0	44	0	861929472	66	4750
2026-01-23 21:11:02.91	100.17	5.37	-47.5	-49.8	16.1	0.00e+00	0	43	0	864026624	66	4749
2026-01-23 21:11:03.91	100.30	5.33	-47.4	-49.7	16.2	0.00e+00	0	43	0	866123776	66	4666
2026-01-23 21:11:04.91	100.43	5.29	-47.3	-49.6	16.3	0.00e+00	0	43	0	867172352	66	4601
2026-01-23 21:11:05.91	100.56	5.25	-47.1	-49.3	16.6	0.00e+00	0	44	0	869269504	66	4463
2026-01-23 21:11:06.91	100.69	5.21	-47.5	-49.9	16.0	0.00e+00	0	43	0	871366656	66	4796
2026-01-23 21:11:07.91	100.82	5.17	-47.1	-49.3	16.6	0.00e+00	0	43	0	873463808	66	4446
2026-01-23 21:11:08.91	100.95	5.13	-46.8	-48.8	16.9	0.00e+00	0	43	0	875560960	65	4484
2026-01-23 21:11:09.91	101.08	5.10	-46.6	-48.6	17.2	0.00e+00	0	43	0	876609536	65	4368
2026-01-23 21:11:10.90	101.20	5.06	-46.7	-48.7	17.1	0.00e+00	0	43	0	878706688	65	4414
2026-01-23 21:11:11.89	101.33	5.02	-47.0	-49.2	16.6	0.00e+00	0	43	0	880803840	65	4666
2026-01-23 21:11:12.89	101.45	4.98	-52.0	-64.9	3.9	4.00e-01	30	43	0	882900992	74	17037
2026-01-23 21:11:13.89	101.58	4.94	-52.4	-67.3	3.8	1.49e+00	0	44	104	882900992	75	21079
2026-01-23 21:11:14.89	101.71	4.90	-52.6	-67.6	3.8	1.49e+00	0	44	104	882900992	75	21918
2026-01-23 21:11:15.89	101.83	4.86	-52.9	-67.8	3.8	1.49e+00	0	44	104	882900992	76	21235
2026-01-23 21:11:16.88	101.96	4.82	-53.1	-68.0	3.8	1.49e+00	0	44	104	882900992	76	21743
2026-01-23 21:11:17.88	102.08	4.78	-53.2	-68.2	3.8	1.49e+00	0	44	104	882900992	77	20951
2026-01-23 21:11:18.89	102.21	4.74	-53.4	-68.4	3.8	1.49e+00	0	44	104	882900992	77	21337
2026-01-23 21:11:19.90	102.33	4.70	-53.5	-68.5	3.8	1.49e+00	0	43	104	882900992	77	21650
2026-01-23 21:11:20.91	102.46	4.66	-53.6	-68.6	3.8	1.49e+00	0	43	104	882900992	77	21877
2026-01-23 21:11:21.92	102.59	4.62	-53.7	-68.7	3.8	1.49e+00	0	44	104	882900992	77	22157
2026-01-23 21:11:22.93	102.71	4.59	-53.8	-68.8	3.8	1.49e+00	0	44	104	882900992	78	21041
2026-01-23 21:11:23.93	102.83	4.55	-53.9	-68.9	3.8	1.49e+00	0	43	104	882900992	78	21312
2026-01-23 21:11:24.94	102.96	4.51	-53.9	-68.9	3.8	1.49e+00	0	44	104	882900992	78	21441
2026-01-23 21:11:25.95	103.08	4.47	-54.0	-68.9	3.8	1.49e+00	0	44	104	882900992	78	21473
2026-01-23 21:11:26.96	103.21	4.43	-54.0	-69.0	3.8	1.49e+00	0	43	104	882900992	78	21660
2026-01-23 21:11:27.97	103.33	4.39	-54.0	-69.0	3.8	1.49e+00	0	44	104	882900992	78	21643
2026-01-23 21:11:28.97	103.45	4.35	-54.1	-69.1	3.8	1.49e+00	0	44	104	882900992	78	21788
2026-01-23 21:11:29.98	103.57	4.31	-54.1	-69.2	3.8	1.49e+00	0	44	104	882900992	78	22008
2026-01-23 21:11:30.99	103.70	4.26	-54.2	-69.2	3.8	1.49e+00	0	44	104	882900992	78	22059
2026-01-23 21:11:32.00	103.82	4.22	-54.2	-69.2	3.8	1.49e+00	0	44	104	882900992	78	22077
2026-01-23 21:11:33.00	103.94	4.18	-54.2	-69.1	3.8	1.49e+00	0	43	104	882900992	78	21975
2026-01-23 21:11:34.01	104.06	4.14	-54.2	-69.3	3.8	1.49e+00	0	43	104	882900992	79	21019
2026-01-23 21:11:35.02	104.18	4.10	-54.2	-69.2	3.8	1.49e+00	0	44	104	882900992	79	20898
2026-01-23 21:11:36.03	104.30	4.06	-54.3	-69.2	3.8	1.49e+00	0	44	104	882900992	79	21015
2026-01-23 21:11:37.04	104.42	4.02	-54.2	-69.2	3.8	1.49e+00	0	44	104	882900992	79	20961
2026-01-23 21:11:38.05	104.54	3.98	-54.2	-69.2	3.8	1.49e+00	0	43	104	882900992	79	20912
2026-01-23 21:11:39.05	104.66	3.94	-53.9	-68.8	3.9	1.49e+00	0	44	104	882900992	79	20024
2026-01-23 21:11:40.06	104.78	3.90	-54.0	-69.1	3.8	1.49e+00	0	44	104	882900992	79	20657
2026-01-23 21:11:41.07	104.90	3.86	-54.2	-69.3	3.8	1.49e+00	0	44	104	882900992	79	21141
2026-01-23 21:11:42.08	105.02	3.82	-54.4	-69.3	3.8	1.49e+00	0	43	104	882900992	79	21250
2026-01-23 21:11:43.09	105.14	3.78	-54.4	-69.4	3.8	1.49e+00	0	43	104	882900992	79	21274
2026-01-23 21:11:44.10	105.25	3.74	-54.4	-69.4	3.8	1.49e+00	0	44	104	882900992	79	21388
2026-01-23 21:11:45.11	105.37	3.70	-54.4	-69.4	3.8	1.49e+00	0	43	104	882900992	79	21432
2026-01-23 21:11:46.12	105.49	3.66	-54.4	-69.4	3.8	1.49e+00	0	44	104	882900992	79	21461
2026-01-23 21:11:47.13	105.61	3.62	-54.4	-69.5	3.8	1.49e+00	0	44	104	882900992	79	21523
2026-01-23 21:11:48.13	105.72	3.58	-54.4	-69.5	3.8	1.49e+00	0	43	104	882900992	79	21534
2026-01-23 21:11:49.14	105.84	3.53	-54.4	-69.4	3.8	1.49e+00	0	44	104	882900992	79	21468
2026-01-23 21:11:50.15	105.95	3.49	-54.4	-69.4	3.8	1.49e+00	0	44	104	882900992	79	21405
2026-01-23 21:11:51.16	106.07	3.45	-54.4	-69.4	3.8	1.49e+00	0	44	104	882900992	79	21433
2026-01-23 21:11:52.17	106.19	3.41	-54.4	-69.4	3.8	1.49e+00	0	44	104	882900992	79	21387
2026-01-23 21:11:53.18	106.30	3.37	-54.4	-69.4	3.8	1.49e+00	0	44	104	882900992	79	21267
2026-01-23 21:11:54.18	106.42	3.33	-54.3	-69.3	3.8	1.49e+00	0	44	104	882900992	79	21203
2026-01-23 21:11:55.19	106.53	3.29	-54.3	-69.3	3.8	1.49e+00	0	44	104	882900992	79	21158
2026-01-23 21:11:56.20	106.64	3.25	-54.2	-69.3	3.8	1.49e+00	0	43	104	882900992	79	21039
2026-01-23 21:11:57.21	106.76	3.21	-54.2	-69.2	3.8	1.49e+00	0	43	104	882900992	79	20965
2026-01-23 21:11:58.21	106.87	3.16	-54.2	-69.2	3.8	1.49e+00	0	43	104	882900992	79	20882
2026-01-23 21:11:59.22	106.98	3.12	-54.2	-69.2	3.8	1.49e+00	0	43	104	882900992	79	20839
2026-01-23 21:12:00.23	107.10	3.08	-54.1	-69.1	3.8	1.49e+00	0	43	104	882900992	79	20716
2026-01-23 21:12:01.24	107.21	3.04	-54.1	-69.1	3.8	1.49e+00	0	44	104	882900992	79	20545
2026-01-23 21:12:02.25	107.32	3.00	-54.0	-69.0	3.8	1.49e+00	0	43	104	882900992	79	20407
2026-01-23 21:12:03.26	107.44	2.96	-53.9	-69.0	3.8	1.49e+00	0	44	104	882900992	79	20325
2026-01-23 21:12:04.27	107.55	2.92	-53.9	-68.9	3.8	1.49e+00	0	44	104	882900992	79	20152
2026-01-23 21:12:05.27	107.66	2.88	-53.8	-68.8	3.8	1.49e+00	0	44	104	882900992	79	20064
2026-01-23 21:12:06.28	107.77	2.83	-53.7	-68.7	3.8	1.49e+00	0	44	104	882900992	79	19816
2026-01-23 21:12:07.29	107.88	2.79	-53.6	-68.6	3.8	1.49e+00	0	43	104	882900992	79	19476
2026-01-23 21:12:08.29	107.99	2.75	-53.5	-68.5	3.8	1.49e+00	0	44	104	882900992	79	19230
2026-01-23 21:12:09.30	108.10	2.71	-53.2	-68.2	3.8	1.49e+00	0	44	104	882900992	78	19641
2026-01-23 21:12:10.31	108.21	2.67	-53.0	-68.1	3.8	1.49e+00	0	44	104	882900992	78	19436
2026-01-23 21:12:11.32	108.32	2.63	-53.1	-68.0	3.8	1.49e+00	0	44	104	882900992	78	19378
2026-01-23 21:12:12.33	108.43	2.58	-53.0	-68.1	3.8	1.49e+00	0	44	104	882900992	78	19393
2026-01-23 21:12:13.34	108.54	2.54	-52.9	-68.0	3.8	1.49e+00	0	43	104	882900992	77	20448
2026-01-23 21:12:14.35	108.65	2.50	-52.9	-68.0	3.8	1.49e+00	0	44	104	882900992	77	20324
2026-01-23 21:12:15.35	108.76	2.46	-52.8	-67.9	3.8	1.49e+00	0	44	104	882900992	77	20223
2026-01-23 21:12:16.36	108.87	2.42	-52.8	-67.9	3.8	1.49e+00	0	44	104	882900992	77	20188
2026-01-23 21:12:17.37	108.97	2.38	-52.9	-67.9	3.8	1.49e+00	0	44	104	882900992	77	20188
2026-01-23 21:12:18.38	109.08	2.34	-52.7	-67.9	3.8	1.49e+00	0	44	104	882900992	77	20163
2026-01-23 21:12:19.39	109.19	2.29	-52.8	-67.9	3.8	1.49e+00	0	44	104	882900992	77	20183
2026-01-23 21:12:20.40	109.30	2.25	-52.9	-67.9	3.8	1.49e+00	0	44	104	882900992	77	20266
2026-01-23 21:12:21.41	109.40	2.21	-52.9	-67.9	3.8	1.49e+00	0	44	104	882900992	77	20294
2026-01-23 21:12:22.41	109.51	2.17	-52.9	-68.0	3.8	1.49e+00	0	44	104	882900992	77	20325
2026-01-23 21:12:23.42	109.62	2.13	-52.9	-67.9	3.8	1.49e+00	0	44	104	882900992	77	20248
2026-01-23 21:12:24.43	109.72	2.08	-52.9	-67.9	3.8	1.49e+00	0	43	104	882900992	77	20145
2026-01-23 21:12:25.44	109.83	2.04	-52.8	-67.9	3.8	1.49e+00	0	44	104	882900992	77	20109
2026-01-23 21:12:26.45	109.93	2.00	-52.9	-67.9	3.8	1.49e+00	0	43	104	882900992	77	20172

#Closed at: 2026-01-23 21:12:26
#Recorded file [882 MB]: D:/lorett/data/31041_260124_000216.dat