passes_logs/2026/01/23/R3.2S_Murmansk/R3.2S_Murmansk__20260123_000332_KANOPUS-V_5_rec.log

#Pass ID: 20260123_000332_KANOPUS-V 5
#Satellite: KANOPUS-V 5
#Configuration: KANOPUS-V_8320
#almurnet v.1.7.20251203
#Start time: 2026-01-23 00:03:32

#Version: 2.2.20231116
#Station: R3.2S_Murmansk
#Location: 33.079688 lon 68.888172 lat
#TLE: 1 43876U 18111A   26022.52701148  .00004818  00000+0  20478-3 0  9994
#TLE: 2 43876  97.3679 290.9053 0001819  88.4130 271.7316 15.23508812392615

#Time	Az	El	Level	Level2	SNR	BER	BlckErr	Temp	State	Recorded	gain1	gain2
2026-01-23 00:03:32.93	23.43	2.00	-54.2	-63.0	3.8	7.44e-01	0	42	0	0	80	9647
2026-01-23 00:03:33.93	23.36	2.07	-53.5	-62.3	3.8	7.46e-01	0	42	104	0	77	10631
2026-01-23 00:03:34.94	23.29	2.13	-53.4	-62.3	3.8	7.46e-01	0	42	104	0	77	10598
2026-01-23 00:03:35.95	23.22	2.20	-53.4	-62.3	3.8	7.45e-01	0	42	104	0	77	10548
2026-01-23 00:03:36.95	23.15	2.26	-53.4	-62.3	3.8	7.46e-01	0	42	104	0	77	10534
2026-01-23 00:03:37.96	23.07	2.33	-53.4	-62.3	3.8	7.44e-01	0	42	104	0	77	10580
2026-01-23 00:03:38.97	23.00	2.40	-53.4	-62.3	3.8	7.46e-01	0	43	104	0	77	10595
2026-01-23 00:03:39.98	22.93	2.46	-53.4	-62.2	3.8	7.46e-01	0	42	104	0	77	10530
2026-01-23 00:03:40.99	22.85	2.53	-53.4	-62.3	3.8	7.47e-01	0	42	104	0	77	10545
2026-01-23 00:03:42.00	22.78	2.60	-53.4	-62.3	3.8	7.46e-01	0	43	104	0	77	10574
2026-01-23 00:03:43.01	22.70	2.66	-53.4	-62.3	3.8	7.43e-01	0	42	104	0	77	10554
2026-01-23 00:03:44.01	22.63	2.73	-53.4	-62.3	3.8	7.46e-01	0	43	104	0	77	10555
2026-01-23 00:03:45.02	22.55	2.80	-53.4	-62.3	3.8	7.46e-01	0	43	104	0	77	10541
2026-01-23 00:03:46.03	22.47	2.86	-53.4	-62.3	3.8	7.45e-01	0	43	104	0	77	10540
2026-01-23 00:03:47.04	22.39	2.93	-53.4	-62.3	3.8	7.45e-01	0	43	104	0	77	10556
2026-01-23 00:03:48.05	22.32	3.00	-53.4	-62.2	3.8	7.44e-01	0	43	104	0	77	10512
2026-01-23 00:03:49.06	22.24	3.06	-53.4	-62.2	3.8	7.48e-01	0	43	104	0	77	10512
2026-01-23 00:03:50.07	22.16	3.13	-53.4	-62.2	3.8	7.45e-01	0	43	104	0	77	10499
2026-01-23 00:03:51.07	22.08	3.20	-53.4	-62.2	3.8	7.46e-01	0	43	104	0	77	10502
2026-01-23 00:03:52.08	22.00	3.27	-53.4	-62.3	3.8	7.45e-01	0	43	104	0	77	10538
2026-01-23 00:03:53.09	21.92	3.34	-53.4	-62.2	3.8	7.45e-01	0	43	104	0	77	10514
2026-01-23 00:03:54.10	21.84	3.41	-53.4	-62.2	3.8	7.45e-01	0	43	104	0	77	10521
2026-01-23 00:03:55.11	21.76	3.47	-53.4	-62.3	3.8	7.46e-01	0	43	104	0	77	10537
2026-01-23 00:03:56.11	21.68	3.54	-53.4	-62.2	3.8	7.46e-01	0	43	104	0	77	10496
2026-01-23 00:03:57.12	21.59	3.61	-53.4	-62.3	3.8	7.45e-01	0	43	104	0	77	10546
2026-01-23 00:03:58.13	21.51	3.68	-53.4	-62.2	3.8	7.44e-01	0	43	104	0	77	10510
2026-01-23 00:03:59.14	21.43	3.75	-53.4	-62.2	3.8	7.43e-01	0	43	104	0	77	10521
2026-01-23 00:04:00.15	21.34	3.82	-53.4	-62.2	3.8	7.46e-01	0	43	104	0	77	10531
2026-01-23 00:04:01.16	21.26	3.89	-53.4	-62.2	3.8	7.46e-01	0	43	104	0	77	10513
2026-01-23 00:04:02.17	21.17	3.96	-53.4	-62.2	3.8	7.44e-01	0	43	104	0	77	10485
2026-01-23 00:04:03.17	21.09	4.03	-53.4	-62.2	3.8	7.46e-01	0	43	104	0	77	10508
2026-01-23 00:04:04.18	21.00	4.10	-53.4	-62.2	3.8	7.44e-01	0	43	104	0	77	10506
2026-01-23 00:04:05.19	20.92	4.17	-53.4	-62.2	3.8	7.45e-01	0	43	104	0	77	10516
2026-01-23 00:04:06.20	20.83	4.24	-53.4	-62.2	3.8	7.44e-01	0	43	104	0	77	10498
2026-01-23 00:04:07.21	20.74	4.31	-53.4	-62.2	3.8	7.46e-01	0	43	104	0	77	10469
2026-01-23 00:04:08.21	20.65	4.38	-53.4	-62.2	3.8	7.46e-01	0	43	104	0	77	10501
2026-01-23 00:04:09.22	20.56	4.46	-53.4	-62.2	3.8	7.45e-01	0	43	104	0	77	10463
2026-01-23 00:04:10.23	20.47	4.53	-53.4	-62.2	3.8	7.46e-01	0	43	104	0	77	10508
2026-01-23 00:04:11.24	20.38	4.60	-53.4	-62.2	3.8	7.44e-01	0	44	104	0	77	10515
2026-01-23 00:04:12.25	20.29	4.67	-53.4	-62.2	3.8	7.45e-01	0	43	104	0	77	10524
2026-01-23 00:04:13.25	20.20	4.74	-53.4	-62.2	3.8	7.44e-01	0	43	104	0	77	10499
2026-01-23 00:04:14.26	20.11	4.82	-53.4	-62.2	3.8	7.45e-01	0	44	104	0	77	10486
2026-01-23 00:04:15.27	20.02	4.89	-53.4	-62.2	3.8	7.47e-01	0	44	104	0	77	10498
2026-01-23 00:04:16.28	19.93	4.96	-53.4	-62.2	3.8	7.46e-01	0	44	104	0	77	10481
2026-01-23 00:04:17.29	19.83	5.03	-53.4	-62.2	3.8	7.45e-01	0	43	104	0	77	10515
2026-01-23 00:04:18.29	19.74	5.11	-53.4	-62.2	3.8	7.46e-01	0	44	104	0	77	10521
2026-01-23 00:04:19.30	19.64	5.18	-53.5	-62.3	3.8	7.45e-01	0	43	104	0	77	10639
2026-01-23 00:04:20.31	19.55	5.25	-53.3	-62.2	3.8	7.46e-01	0	44	104	0	77	10413
2026-01-23 00:04:21.32	19.45	5.33	-53.5	-62.3	3.8	7.46e-01	0	43	104	0	77	10639
2026-01-23 00:04:22.32	19.35	5.40	-53.4	-62.2	3.8	7.47e-01	0	44	104	0	77	10509
2026-01-23 00:04:23.33	19.26	5.48	-53.5	-62.4	3.8	7.46e-01	0	43	104	0	77	10715
2026-01-23 00:04:24.34	19.16	5.55	-53.4	-62.2	3.8	7.46e-01	0	44	104	0	77	10499
2026-01-23 00:04:25.35	19.06	5.63	-53.5	-62.3	3.8	7.45e-01	0	44	104	0	77	10636
2026-01-23 00:04:26.36	18.96	5.70	-53.5	-62.3	3.8	7.44e-01	0	44	104	0	77	10606
2026-01-23 00:04:27.37	18.86	5.78	-53.6	-62.4	3.8	7.45e-01	0	44	104	0	77	10727
2026-01-23 00:04:28.37	18.76	5.85	-53.4	-62.3	3.8	7.45e-01	0	44	104	0	77	10599
2026-01-23 00:04:29.38	18.66	5.93	-53.6	-62.4	3.8	7.46e-01	0	44	104	0	77	10689
2026-01-23 00:04:30.39	18.56	6.00	-53.5	-62.3	3.8	7.45e-01	0	44	104	0	77	10654
2026-01-23 00:04:31.40	18.45	6.08	-53.6	-62.4	3.8	7.44e-01	0	44	104	0	77	10750
2026-01-23 00:04:32.41	18.35	6.15	-53.5	-62.3	3.8	7.47e-01	0	44	104	0	77	10603
2026-01-23 00:04:33.42	18.24	6.23	-53.6	-62.4	3.8	7.45e-01	0	44	104	0	77	10727
2026-01-23 00:04:34.43	18.14	6.31	-53.6	-62.4	3.8	7.48e-01	0	44	104	0	77	10710
2026-01-23 00:04:35.44	18.03	6.38	-53.6	-62.4	3.8	7.44e-01	0	44	104	0	77	10768
2026-01-23 00:04:36.45	17.93	6.46	-53.6	-62.4	3.8	7.43e-01	0	44	104	0	77	10683
2026-01-23 00:04:37.46	17.82	6.54	-53.6	-62.4	3.8	7.45e-01	0	44	104	0	77	10757
2026-01-23 00:04:38.46	17.71	6.62	-53.6	-62.4	3.8	7.45e-01	0	44	104	0	77	10708
2026-01-23 00:04:39.47	17.60	6.69	-53.6	-62.5	3.8	7.44e-01	0	44	104	0	77	10831
2026-01-23 00:04:40.48	17.49	6.77	-53.6	-62.4	3.8	7.45e-01	0	44	104	0	77	10740
2026-01-23 00:04:41.49	17.38	6.85	-53.6	-62.5	3.8	7.45e-01	0	44	104	0	77	10807
2026-01-23 00:04:42.49	17.27	6.93	-53.6	-62.5	3.8	7.44e-01	0	44	104	0	77	10790
2026-01-23 00:04:43.50	17.16	7.01	-53.7	-62.5	3.8	7.46e-01	0	44	104	0	77	10836
2026-01-23 00:04:44.51	17.05	7.09	-53.6	-62.5	3.8	7.46e-01	0	44	104	0	77	10792
2026-01-23 00:04:45.52	16.93	7.17	-53.7	-62.5	3.8	7.45e-01	0	44	104	0	77	10823
2026-01-23 00:04:46.53	16.82	7.25	-53.7	-62.5	3.8	7.45e-01	0	44	104	0	77	10841
2026-01-23 00:04:47.54	16.70	7.33	-53.7	-62.5	3.8	7.46e-01	0	44	104	0	78	10243
2026-01-23 00:04:48.55	16.59	7.41	-53.7	-62.5	3.8	7.45e-01	0	44	104	0	78	10284
2026-01-23 00:04:49.55	16.47	7.49	-53.7	-62.5	3.8	7.46e-01	0	44	104	0	78	10265
2026-01-23 00:04:50.56	16.35	7.57	-53.7	-62.6	3.8	7.45e-01	0	44	104	0	78	10313
2026-01-23 00:04:51.57	16.24	7.65	-53.7	-62.6	3.8	7.45e-01	0	44	104	0	78	10323
2026-01-23 00:04:52.58	16.12	7.73	-53.7	-62.5	3.8	7.47e-01	0	44	104	0	78	10287
2026-01-23 00:04:53.59	16.00	7.81	-53.7	-62.6	3.8	7.44e-01	0	44	104	0	78	10306
2026-01-23 00:04:54.60	15.87	7.89	-53.8	-62.6	3.8	7.45e-01	0	44	104	0	78	10336
2026-01-23 00:04:55.61	15.75	7.97	-53.8	-62.6	3.8	7.46e-01	0	44	104	0	78	10309
2026-01-23 00:04:56.61	15.63	8.05	-53.8	-62.6	3.8	7.46e-01	0	44	104	0	78	10305
2026-01-23 00:04:57.62	15.51	8.14	-53.8	-62.6	3.8	7.45e-01	0	44	104	0	78	10363
2026-01-23 00:04:58.63	15.38	8.22	-53.8	-62.7	3.8	7.44e-01	0	44	104	0	78	10413
2026-01-23 00:04:59.64	15.26	8.30	-53.8	-62.6	3.8	7.45e-01	0	44	104	0	78	10389
2026-01-23 00:05:00.65	15.13	8.38	-53.8	-62.6	3.8	7.44e-01	0	44	104	0	78	10349
2026-01-23 00:05:01.66	15.00	8.47	-53.8	-62.6	3.8	7.45e-01	0	44	104	0	78	10355
2026-01-23 00:05:02.67	14.87	8.55	-53.8	-62.7	3.8	7.44e-01	0	44	104	0	78	10427
2026-01-23 00:05:03.68	14.74	8.64	-53.8	-62.6	3.8	7.45e-01	0	44	104	0	78	10390
2026-01-23 00:05:04.69	14.61	8.72	-53.8	-62.7	3.8	7.45e-01	0	44	104	0	78	10418
2026-01-23 00:05:05.70	14.48	8.80	-53.8	-62.6	3.8	7.45e-01	0	44	104	0	78	10362
2026-01-23 00:05:06.70	14.35	8.89	-53.9	-62.7	3.8	7.44e-01	0	44	104	0	78	10480
2026-01-23 00:05:07.71	14.22	8.97	-53.8	-62.6	3.8	7.45e-01	0	44	104	0	78	10405
2026-01-23 00:05:08.72	14.08	9.06	-53.9	-62.7	3.8	7.45e-01	0	44	104	0	78	10490
2026-01-23 00:05:09.73	13.95	9.14	-53.8	-62.7	3.8	7.46e-01	0	44	104	0	78	10437
2026-01-23 00:05:10.74	13.81	9.23	-53.9	-62.7	3.8	7.45e-01	0	44	104	0	78	10518
2026-01-23 00:05:11.75	13.67	9.32	-53.8	-62.7	3.8	7.46e-01	0	44	104	0	78	10453
2026-01-23 00:05:12.76	13.54	9.40	-53.9	-62.7	3.8	7.44e-01	0	44	104	0	78	10513
2026-01-23 00:05:13.77	13.40	9.49	-53.9	-62.7	3.8	7.46e-01	0	44	104	0	78	10441
2026-01-23 00:05:14.77	13.26	9.57	-53.9	-62.7	3.8	7.47e-01	0	44	104	0	78	10533
2026-01-23 00:05:15.78	13.12	9.66	-53.9	-62.7	3.8	7.45e-01	0	44	104	0	78	10448
2026-01-23 00:05:16.79	12.97	9.75	-53.9	-62.7	3.8	7.45e-01	0	44	104	0	78	10524
2026-01-23 00:05:17.80	12.83	9.84	-53.9	-62.7	3.8	7.46e-01	0	44	104	0	78	10498
2026-01-23 00:05:18.81	12.68	9.92	-54.0	-62.8	3.8	7.46e-01	0	44	104	0	78	10560
2026-01-23 00:05:19.82	12.54	10.01	-53.9	-62.7	3.8	7.46e-01	0	44	104	0	78	10470
2026-01-23 00:05:20.83	12.39	10.10	-53.9	-62.7	3.8	7.46e-01	0	44	104	0	78	10515
2026-01-23 00:05:21.84	12.24	10.19	-53.9	-62.7	3.8	7.45e-01	0	44	104	0	78	10511
2026-01-23 00:05:22.85	12.09	10.28	-54.0	-62.8	3.8	7.45e-01	0	44	104	0	78	10582
2026-01-23 00:05:23.86	11.94	10.37	-53.9	-62.8	3.8	7.47e-01	0	44	104	0	78	10549
2026-01-23 00:05:24.86	11.79	10.45	-53.9	-62.8	3.8	7.45e-01	0	45	104	0	78	10582
2026-01-23 00:05:25.87	11.64	10.54	-53.9	-62.7	3.8	7.46e-01	0	44	104	0	78	10515
2026-01-23 00:05:26.88	11.49	10.63	-54.0	-62.8	3.8	7.45e-01	0	44	104	0	78	10628
2026-01-23 00:05:27.89	11.33	10.72	-53.9	-62.8	3.8	7.46e-01	0	45	104	0	78	10546
2026-01-23 00:05:28.90	11.17	10.82	-54.0	-62.8	3.8	7.45e-01	0	45	104	0	78	10581
2026-01-23 00:05:29.91	11.02	10.91	-53.9	-62.8	3.8	7.43e-01	0	45	104	0	78	10591
2026-01-23 00:05:30.92	10.86	11.00	-54.0	-62.8	3.8	7.44e-01	0	45	104	0	78	10637
2026-01-23 00:05:31.93	10.70	11.09	-54.0	-62.8	3.8	7.45e-01	0	44	104	0	78	10544
2026-01-23 00:05:32.93	10.54	11.18	-54.0	-62.8	3.8	7.46e-01	0	45	104	0	78	10624
2026-01-23 00:05:33.94	10.38	11.27	-54.0	-62.8	3.8	7.45e-01	0	44	104	0	78	10604
2026-01-23 00:05:34.95	10.21	11.36	-54.0	-62.9	3.8	7.46e-01	0	45	104	0	78	10662
2026-01-23 00:05:35.96	10.05	11.45	-54.0	-62.8	3.8	7.46e-01	0	45	104	0	78	10556
2026-01-23 00:05:36.97	9.88	11.55	-54.0	-62.8	3.8	7.47e-01	0	45	104	0	78	10635
2026-01-23 00:05:37.97	9.71	11.64	-54.0	-62.8	3.8	7.44e-01	0	44	104	0	78	10632
2026-01-23 00:05:38.98	9.55	11.73	-54.1	-62.9	3.8	7.44e-01	0	44	104	0	78	10699
2026-01-23 00:05:39.99	9.38	11.83	-54.0	-62.8	3.8	7.47e-01	0	44	104	0	78	10627
2026-01-23 00:05:41.00	9.20	11.92	-54.1	-62.9	3.8	7.46e-01	0	44	104	0	78	10659
2026-01-23 00:05:42.01	9.03	12.01	-54.0	-62.8	3.8	7.45e-01	0	44	104	0	78	10651
2026-01-23 00:05:43.01	8.86	12.11	-54.1	-62.9	3.8	7.46e-01	0	44	104	0	78	10718
2026-01-23 00:05:44.02	8.68	12.20	-54.0	-62.9	3.8	7.46e-01	0	44	104	0	78	10681
2026-01-23 00:05:45.03	8.50	12.30	-54.1	-62.9	3.8	7.45e-01	0	45	104	0	78	10729
2026-01-23 00:05:46.04	8.33	12.39	-54.0	-62.9	3.8	7.47e-01	0	45	104	0	78	10692
2026-01-23 00:05:47.05	8.15	12.49	-54.1	-62.9	3.8	7.44e-01	0	44	104	0	78	10763
2026-01-23 00:05:48.05	7.97	12.58	-54.0	-62.9	3.8	7.45e-01	0	45	104	0	78	10660
2026-01-23 00:05:49.06	7.78	12.68	-54.1	-62.9	3.8	7.45e-01	0	44	104	0	78	10736
2026-01-23 00:05:50.07	7.60	12.77	-54.1	-62.9	3.8	7.45e-01	0	44	104	0	78	10661
2026-01-23 00:05:51.08	7.41	12.87	-54.1	-62.9	3.8	7.47e-01	0	44	104	0	78	10767
2026-01-23 00:05:52.09	7.22	12.96	-54.1	-62.9	3.8	7.47e-01	0	45	104	0	78	10706
2026-01-23 00:05:53.09	7.04	13.06	-54.1	-62.9	3.8	7.47e-01	0	45	104	0	78	10775
2026-01-23 00:05:54.10	6.85	13.16	-54.1	-62.9	3.8	7.44e-01	0	44	104	0	78	10777
2026-01-23 00:05:55.11	6.66	13.25	-54.1	-63.0	3.8	7.44e-01	0	45	104	0	78	10807
2026-01-23 00:05:56.12	6.46	13.35	-54.1	-62.9	3.8	7.44e-01	0	45	104	0	78	10713
2026-01-23 00:05:57.13	6.27	13.45	-54.1	-62.9	3.8	7.45e-01	0	44	104	0	78	10756
2026-01-23 00:05:58.13	6.07	13.55	-54.1	-62.9	3.8	7.45e-01	0	45	104	0	78	10722
2026-01-23 00:05:59.14	5.87	13.64	-54.1	-63.0	3.8	7.45e-01	0	45	104	0	78	10828
2026-01-23 00:06:00.15	5.67	13.74	-54.1	-62.9	3.8	7.46e-01	0	45	104	0	78	10733
2026-01-23 00:06:01.16	5.47	13.84	-54.1	-62.9	3.8	7.46e-01	0	44	104	0	78	10770
2026-01-23 00:06:02.16	5.27	13.94	-54.1	-63.0	3.8	7.44e-01	0	44	104	0	78	10794
2026-01-23 00:06:03.17	5.07	14.04	-54.2	-63.0	3.8	7.46e-01	0	45	104	0	78	10829
2026-01-23 00:06:04.18	4.86	14.14	-54.1	-62.9	3.8	7.45e-01	0	44	104	0	78	10759
2026-01-23 00:06:05.19	4.65	14.23	-54.2	-63.0	3.8	7.46e-01	0	44	104	0	78	10826
2026-01-23 00:06:06.20	4.44	14.33	-54.1	-63.0	3.8	7.46e-01	0	45	104	0	78	10812
2026-01-23 00:06:07.21	4.23	14.43	-54.2	-63.0	3.8	7.46e-01	0	45	104	0	78	10850
2026-01-23 00:06:08.21	4.02	14.53	-54.1	-63.0	3.8	7.46e-01	0	44	104	0	78	10780
2026-01-23 00:06:09.22	3.80	14.63	-54.2	-63.0	3.8	7.46e-01	0	45	104	0	78	10868
2026-01-23 00:06:10.23	3.59	14.73	-54.2	-63.0	3.8	7.45e-01	0	45	104	0	78	10845
2026-01-23 00:06:11.24	3.37	14.83	-54.2	-63.0	3.8	7.45e-01	0	45	104	0	78	10858
2026-01-23 00:06:12.25	3.15	14.93	-54.1	-63.0	3.8	7.44e-01	0	45	104	0	78	10799
2026-01-23 00:06:13.26	2.93	15.04	-54.2	-63.0	3.8	7.44e-01	0	45	104	0	78	10854
2026-01-23 00:06:14.27	2.70	15.14	-54.2	-63.0	3.8	7.45e-01	0	45	104	0	78	10820
2026-01-23 00:06:15.27	2.48	15.24	-54.2	-63.1	3.8	7.46e-01	0	45	104	0	79	10307
2026-01-23 00:06:16.28	2.25	15.34	-54.2	-63.0	3.8	7.45e-01	0	45	104	0	79	10232
2026-01-23 00:06:17.29	2.02	15.44	-54.2	-63.1	3.8	7.45e-01	0	44	104	0	79	10328
2026-01-23 00:06:18.30	1.79	15.54	-54.2	-63.0	3.8	7.45e-01	0	45	104	0	79	10264
2026-01-23 00:06:19.30	1.56	15.64	-54.2	-63.1	3.8	7.43e-01	0	45	104	0	79	10331
2026-01-23 00:06:20.31	1.32	15.74	-54.2	-63.0	3.8	7.46e-01	0	45	104	0	79	10241
2026-01-23 00:06:21.32	1.09	15.84	-54.2	-63.1	3.8	7.47e-01	0	44	104	0	79	10306
2026-01-23 00:06:22.33	0.85	15.95	-54.2	-63.1	3.8	7.46e-01	0	45	104	0	79	10300
2026-01-23 00:06:23.33	0.61	16.05	-54.3	-63.1	3.8	7.46e-01	0	45	104	0	79	10307
2026-01-23 00:06:24.34	0.36	16.15	-54.2	-63.0	3.8	7.45e-01	0	45	104	0	79	10264
2026-01-23 00:06:25.35	0.12	16.25	-54.2	-63.1	3.8	7.46e-01	0	45	104	0	79	10302
2026-01-23 00:06:26.36	359.87	16.36	-54.2	-63.0	3.8	7.47e-01	0	45	104	0	79	10265
2026-01-23 00:06:27.37	359.62	16.46	-54.3	-63.1	3.8	7.44e-01	0	45	104	0	79	10322
2026-01-23 00:06:28.37	359.38	16.56	-54.2	-63.1	3.8	7.45e-01	0	45	104	0	79	10325
2026-01-23 00:06:29.38	359.12	16.66	-54.3	-63.1	3.8	7.45e-01	0	45	104	0	79	10330
2026-01-23 00:06:30.39	358.87	16.76	-54.2	-63.1	3.8	7.45e-01	0	45	104	0	79	10319
2026-01-23 00:06:31.40	358.61	16.87	-54.3	-63.1	3.8	7.44e-01	0	45	104	0	79	10367
2026-01-23 00:06:32.41	358.35	16.97	-54.2	-63.1	3.8	7.45e-01	0	45	104	0	79	10329
2026-01-23 00:06:33.41	358.09	17.07	-54.3	-63.1	3.8	7.46e-01	0	45	104	0	79	10331
2026-01-23 00:06:34.42	357.83	17.18	-54.3	-63.1	3.8	7.45e-01	0	45	104	0	79	10335
2026-01-23 00:06:35.43	357.56	17.28	-54.3	-63.1	3.8	7.44e-01	0	45	104	0	79	10379
2026-01-23 00:06:36.44	357.29	17.38	-54.3	-63.1	3.8	7.46e-01	0	45	104	0	79	10344
2026-01-23 00:06:37.45	357.02	17.48	-54.3	-63.1	3.8	7.45e-01	0	45	104	0	79	10369
2026-01-23 00:06:38.46	356.75	17.59	-54.3	-63.1	3.8	7.46e-01	0	45	104	0	79	10395
2026-01-23 00:06:39.46	356.48	17.69	-54.3	-63.1	3.8	7.44e-01	0	45	104	0	79	10362
2026-01-23 00:06:40.48	356.20	17.79	-54.3	-63.1	3.8	7.45e-01	0	45	104	0	79	10354
2026-01-23 00:06:41.48	355.93	17.89	-54.3	-63.1	3.8	7.46e-01	0	45	104	0	79	10408
2026-01-23 00:06:42.49	355.64	18.00	-54.3	-63.2	3.8	7.45e-01	0	45	104	0	79	10436
2026-01-23 00:06:43.50	355.36	18.10	-54.3	-63.1	3.8	7.45e-01	0	45	104	0	79	10406
2026-01-23 00:06:44.51	355.08	18.20	-54.3	-63.1	3.8	7.45e-01	0	45	104	0	79	10382
2026-01-23 00:06:45.51	354.79	18.30	-54.3	-63.1	3.8	7.45e-01	0	45	104	0	79	10390
2026-01-23 00:06:46.52	354.50	18.40	-54.3	-63.2	3.8	7.47e-01	0	45	104	0	79	10421
2026-01-23 00:06:47.53	354.21	18.51	-54.3	-63.2	3.8	7.46e-01	0	45	104	0	79	10449
2026-01-23 00:06:48.54	353.91	18.61	-54.3	-63.1	3.8	7.45e-01	0	45	104	0	79	10410
2026-01-23 00:06:49.55	353.62	18.71	-54.3	-63.2	3.8	7.45e-01	0	45	104	0	79	10443
2026-01-23 00:06:50.56	353.32	18.81	-54.3	-63.2	3.8	7.44e-01	0	45	104	0	79	10444
2026-01-23 00:06:51.56	353.02	18.91	-54.3	-63.2	3.8	7.46e-01	0	45	104	0	79	10442
2026-01-23 00:06:52.57	352.71	19.01	-54.3	-63.2	3.8	7.45e-01	0	45	104	0	79	10453
2026-01-23 00:06:53.58	352.41	19.11	-54.3	-63.2	3.8	7.45e-01	0	45	104	0	79	10437
2026-01-23 00:06:54.59	352.10	19.22	-54.4	-63.2	3.8	7.45e-01	0	45	104	0	79	10471
2026-01-23 00:06:55.60	351.79	19.32	-54.4	-63.2	3.8	7.46e-01	0	45	104	0	79	10481
2026-01-23 00:06:56.61	351.47	19.42	-54.4	-63.2	3.8	7.46e-01	0	45	104	0	79	10487
2026-01-23 00:06:57.61	351.16	19.52	-54.4	-63.2	3.8	7.46e-01	0	45	104	0	79	10474
2026-01-23 00:06:58.62	350.84	19.61	-54.4	-63.3	3.8	7.45e-01	0	45	104	0	79	10536
2026-01-23 00:06:59.63	350.52	19.71	-54.4	-63.2	3.8	7.46e-01	0	45	104	0	79	10513
2026-01-23 00:07:00.64	350.20	19.81	-54.4	-63.2	3.8	7.46e-01	0	45	104	0	79	10498
2026-01-23 00:07:01.65	349.87	19.91	-54.4	-63.2	3.8	7.47e-01	0	45	104	0	79	10525
2026-01-23 00:07:02.66	349.55	20.01	-54.4	-63.3	3.8	7.45e-01	0	45	104	0	79	10560
2026-01-23 00:07:03.67	349.22	20.11	-54.4	-63.2	3.8	7.46e-01	0	45	104	0	79	10491
2026-01-23 00:07:04.68	348.88	20.20	-54.4	-63.2	3.8	7.45e-01	0	45	104	0	79	10504
2026-01-23 00:07:05.68	348.55	20.30	-54.4	-63.2	3.8	7.45e-01	0	45	104	0	79	10532
2026-01-23 00:07:06.69	348.21	20.40	-54.4	-63.3	3.8	7.45e-01	0	45	104	0	79	10562
2026-01-23 00:07:07.70	347.87	20.49	-54.4	-63.2	3.8	7.46e-01	0	45	104	0	79	10531
2026-01-23 00:07:08.71	347.53	20.59	-54.4	-63.3	3.8	7.46e-01	0	45	104	0	79	10549
2026-01-23 00:07:09.72	347.18	20.68	-54.4	-63.2	3.8	7.44e-01	0	45	104	0	79	10526
2026-01-23 00:07:10.73	346.84	20.78	-54.5	-63.3	3.8	7.46e-01	0	45	104	0	79	10575
2026-01-23 00:07:11.74	346.49	20.87	-54.4	-63.3	3.8	7.46e-01	0	45	104	0	79	10540
2026-01-23 00:07:12.74	346.14	20.96	-54.4	-63.3	3.8	7.45e-01	0	45	104	0	79	10553
2026-01-23 00:07:13.75	345.78	21.06	-54.4	-63.3	3.8	7.45e-01	0	45	104	0	79	10566
2026-01-23 00:07:14.76	345.43	21.15	-54.5	-63.3	3.8	7.46e-01	0	45	104	0	79	10609
2026-01-23 00:07:15.77	345.07	21.24	-54.4	-63.3	3.8	7.44e-01	0	45	104	0	79	10580
2026-01-23 00:07:16.77	344.71	21.33	-54.4	-63.3	3.8	7.45e-01	0	45	104	0	79	10572
2026-01-23 00:07:17.78	344.34	21.42	-54.4	-63.3	3.8	7.44e-01	0	45	104	0	79	10558
2026-01-23 00:07:18.79	343.98	21.51	-54.5	-63.3	3.8	7.45e-01	0	45	104	0	79	10625
2026-01-23 00:07:19.80	343.61	21.60	-54.5	-63.3	3.8	7.45e-01	0	45	104	0	79	10608
2026-01-23 00:07:20.80	343.24	21.69	-54.5	-63.3	3.8	7.46e-01	0	45	104	0	79	10595
2026-01-23 00:07:21.81	342.86	21.77	-54.5	-63.3	3.8	7.44e-01	0	45	104	0	79	10612
2026-01-23 00:07:22.82	342.49	21.86	-54.5	-63.3	3.8	7.43e-01	0	45	104	0	79	10645
2026-01-23 00:07:23.83	342.11	21.94	-54.5	-63.3	3.8	7.46e-01	0	45	104	0	79	10613
2026-01-23 00:07:24.84	341.73	22.03	-54.5	-63.3	3.8	7.43e-01	0	45	104	0	79	10632
2026-01-23 00:07:25.85	341.34	22.11	-54.5	-63.3	3.8	7.44e-01	0	45	104	0	79	10632
2026-01-23 00:07:26.85	340.96	22.20	-54.5	-63.3	3.8	7.45e-01	0	45	104	0	79	10637
2026-01-23 00:07:27.86	340.57	22.28	-54.5	-63.3	3.8	7.45e-01	0	45	104	0	79	10621
2026-01-23 00:07:28.87	340.18	22.36	-54.5	-63.4	3.8	7.45e-01	0	45	104	0	79	10668
2026-01-23 00:07:29.88	339.79	22.44	-54.5	-63.3	3.8	7.44e-01	0	45	104	0	79	10621
2026-01-23 00:07:30.89	339.39	22.52	-54.5	-63.4	3.8	7.45e-01	0	45	104	0	79	10687
2026-01-23 00:07:31.89	339.00	22.59	-54.5	-63.4	3.8	7.44e-01	0	45	104	0	79	10666
2026-01-23 00:07:32.90	338.60	22.67	-54.5	-63.4	3.8	7.45e-01	0	45	104	0	79	10685
2026-01-23 00:07:33.91	338.19	22.75	-54.5	-63.3	3.8	7.46e-01	0	45	104	0	79	10653
2026-01-23 00:07:34.92	337.79	22.82	-54.6	-63.4	3.8	7.45e-01	0	45	104	0	79	10712
2026-01-23 00:07:35.92	337.39	22.90	-54.5	-63.4	3.8	7.44e-01	0	45	104	0	79	10670
2026-01-23 00:07:36.93	336.98	22.97	-54.5	-63.4	3.8	7.46e-01	0	45	104	0	79	10664
2026-01-23 00:07:37.94	336.57	23.04	-54.5	-63.4	3.8	7.46e-01	0	45	104	0	79	10667
2026-01-23 00:07:38.95	336.15	23.11	-54.6	-63.4	3.8	7.46e-01	0	45	104	0	79	10713
2026-01-23 00:07:39.96	335.74	23.18	-54.5	-63.4	3.8	7.46e-01	0	45	104	0	79	10687
2026-01-23 00:07:40.97	335.32	23.25	-54.6	-63.4	3.8	7.45e-01	0	45	104	0	79	10744
2026-01-23 00:07:41.97	334.91	23.31	-54.5	-63.4	3.8	7.45e-01	0	45	104	0	79	10678
2026-01-23 00:07:42.98	334.48	23.38	-54.6	-63.4	3.8	7.45e-01	0	45	104	0	79	10740
2026-01-23 00:07:43.99	334.06	23.44	-54.6	-63.4	3.8	7.46e-01	0	45	104	0	79	10695
2026-01-23 00:07:45.00	333.64	23.50	-54.6	-63.4	3.8	7.45e-01	0	45	104	0	79	10757
2026-01-23 00:07:46.01	333.21	23.56	-54.6	-63.4	3.8	7.45e-01	0	45	104	0	79	10690
2026-01-23 00:07:47.02	332.78	23.62	-54.6	-63.4	3.8	7.45e-01	0	45	104	0	79	10775
2026-01-23 00:07:48.03	332.35	23.68	-54.6	-63.4	3.8	7.45e-01	0	45	104	0	79	10759
2026-01-23 00:07:49.04	331.92	23.74	-54.6	-63.4	3.8	7.46e-01	0	45	104	0	79	10740
2026-01-23 00:07:50.05	331.48	23.79	-54.6	-63.4	3.8	7.44e-01	0	45	104	0	79	10737
2026-01-23 00:07:51.06	331.05	23.85	-54.6	-63.4	3.8	7.44e-01	0	45	104	0	79	10757
2026-01-23 00:07:52.07	330.61	23.90	-54.6	-63.4	3.8	7.44e-01	0	45	104	0	79	10746
2026-01-23 00:07:53.07	330.17	23.95	-54.6	-63.4	3.8	7.45e-01	0	45	104	0	79	10776
2026-01-23 00:07:54.08	329.73	24.00	-54.6	-63.4	3.8	7.44e-01	0	45	104	0	79	10732
2026-01-23 00:07:55.09	329.29	24.05	-54.6	-63.5	3.8	7.45e-01	0	45	104	0	79	10816
2026-01-23 00:07:56.10	328.84	24.09	-54.6	-63.5	3.8	7.45e-01	0	45	104	0	79	10800
2026-01-23 00:07:57.11	328.40	24.14	-54.6	-63.5	3.8	7.45e-01	0	45	104	0	79	10827
2026-01-23 00:07:58.12	327.95	24.18	-54.6	-63.5	3.8	7.45e-01	0	45	104	0	79	10796
2026-01-23 00:07:59.12	327.51	24.22	-54.7	-63.5	3.8	7.45e-01	0	45	104	0	79	10834
2026-01-23 00:08:00.13	327.06	24.26	-54.6	-63.5	3.8	7.44e-01	0	45	104	0	79	10789
2026-01-23 00:08:01.14	326.61	24.30	-54.7	-63.5	3.8	7.44e-01	0	45	104	0	79	10837
2026-01-23 00:08:02.15	326.16	24.34	-54.6	-63.5	3.8	7.46e-01	0	45	104	0	79	10823
2026-01-23 00:08:03.16	325.70	24.37	-54.7	-63.5	3.8	7.47e-01	0	45	104	0	79	10848
2026-01-23 00:08:04.16	325.25	24.41	-54.7	-63.5	3.8	7.47e-01	0	45	104	0	79	10832
2026-01-23 00:08:05.17	324.80	24.44	-54.7	-63.5	3.8	7.45e-01	0	45	104	0	79	10805
2026-01-23 00:08:06.18	324.34	24.47	-54.7	-63.5	3.8	7.45e-01	0	45	104	0	79	10806
2026-01-23 00:08:07.19	323.88	24.49	-54.7	-63.5	3.8	7.44e-01	0	45	104	0	79	10856
2026-01-23 00:08:08.19	323.43	24.52	-54.7	-63.5	3.8	7.45e-01	0	45	104	0	79	10842
2026-01-23 00:08:09.20	322.97	24.54	-54.7	-63.5	3.8	7.45e-01	0	45	104	0	79	10887
2026-01-23 00:08:10.21	322.51	24.57	-54.7	-63.5	3.8	7.46e-01	0	45	104	0	79	10854
2026-01-23 00:08:11.22	322.05	24.59	-54.7	-63.5	3.8	7.46e-01	0	45	104	0	79	10868
2026-01-23 00:08:12.23	321.59	24.61	-54.7	-63.5	3.8	7.46e-01	0	45	104	0	79	10837
2026-01-23 00:08:13.24	321.13	24.62	-54.7	-63.5	3.8	7.45e-01	0	45	104	0	79	10869
2026-01-23 00:08:14.25	320.66	24.64	-54.7	-63.5	3.8	7.47e-01	0	45	104	0	79	10847
2026-01-23 00:08:15.25	320.21	24.65	-54.6	-63.5	3.8	7.44e-01	0	45	104	0	80	10242
2026-01-23 00:08:16.26	319.74	24.66	-54.6	-63.5	3.8	7.43e-01	0	45	104	0	80	10202
2026-01-23 00:08:17.27	319.28	24.67	-54.7	-63.5	3.8	7.45e-01	0	45	104	0	80	10267
2026-01-23 00:08:18.28	318.81	24.68	-54.6	-63.4	3.8	7.45e-01	0	45	104	0	80	10166
2026-01-23 00:08:19.29	318.35	24.69	-54.7	-63.5	3.8	7.45e-01	0	45	104	0	80	10234
2026-01-23 00:08:20.30	317.89	24.69	-54.6	-63.5	3.8	7.45e-01	0	45	104	0	80	10231
2026-01-23 00:08:21.31	317.42	24.69	-54.7	-63.5	3.8	7.45e-01	0	45	104	0	80	10224
2026-01-23 00:08:22.32	316.96	24.69	-54.6	-63.5	3.8	7.45e-01	0	45	104	0	80	10186
2026-01-23 00:08:23.32	316.50	24.69	-54.7	-63.5	3.8	7.44e-01	0	45	104	0	80	10283
2026-01-23 00:08:24.33	316.03	24.69	-54.7	-63.5	3.8	7.45e-01	0	45	104	0	80	10193
2026-01-23 00:08:25.34	315.57	24.68	-54.7	-63.5	3.8	7.44e-01	0	45	104	0	80	10252
2026-01-23 00:08:26.35	315.10	24.68	-54.7	-63.5	3.8	7.43e-01	0	45	104	0	80	10226
2026-01-23 00:08:27.35	314.64	24.67	-54.7	-63.5	3.8	7.45e-01	0	45	104	0	80	10215
2026-01-23 00:08:28.36	314.18	24.66	-54.7	-63.5	3.8	7.44e-01	0	45	104	0	80	10225
2026-01-23 00:08:29.37	313.72	24.64	-54.7	-63.5	3.8	7.46e-01	0	45	104	0	80	10273
2026-01-23 00:08:30.38	313.25	24.63	-54.7	-63.5	3.8	7.45e-01	0	45	104	0	80	10247
2026-01-23 00:08:31.39	312.79	24.61	-54.7	-63.5	3.8	7.44e-01	0	45	104	0	80	10266
2026-01-23 00:08:32.39	312.34	24.60	-54.7	-63.5	3.8	7.44e-01	0	45	104	0	80	10278
2026-01-23 00:08:33.40	311.87	24.58	-54.7	-63.6	3.8	7.47e-01	0	45	104	0	80	10309
2026-01-23 00:08:34.41	311.41	24.55	-54.7	-63.5	3.8	7.46e-01	0	45	104	0	80	10248
2026-01-23 00:08:35.42	310.95	24.53	-54.7	-63.5	3.8	7.46e-01	0	45	104	0	80	10273
2026-01-23 00:08:36.43	310.49	24.51	-54.7	-63.5	3.8	7.45e-01	0	45	104	0	80	10256
2026-01-23 00:08:37.43	310.04	24.48	-54.7	-63.5	3.8	7.46e-01	0	45	104	0	80	10264
2026-01-23 00:08:38.44	309.58	24.45	-54.7	-63.5	3.8	7.45e-01	0	45	104	0	80	10270
2026-01-23 00:08:39.45	309.13	24.42	-54.7	-63.6	3.8	7.45e-01	0	45	104	0	80	10318
2026-01-23 00:08:40.46	308.67	24.39	-54.7	-63.5	3.8	7.47e-01	0	45	104	0	80	10273
2026-01-23 00:08:41.47	308.22	24.35	-54.7	-63.5	3.8	7.45e-01	0	45	104	0	80	10292
2026-01-23 00:08:42.48	307.77	24.32	-54.7	-63.5	3.8	7.44e-01	0	45	104	0	80	10284
2026-01-23 00:08:43.49	307.31	24.28	-54.7	-63.6	3.8	7.46e-01	0	45	104	0	80	10337
2026-01-23 00:08:44.50	306.86	24.24	-54.7	-63.6	3.8	7.46e-01	0	45	104	0	80	10310
2026-01-23 00:08:45.50	306.42	24.20	-54.7	-63.6	3.8	7.43e-01	0	45	104	0	80	10295
2026-01-23 00:08:46.51	305.97	24.16	-54.7	-63.5	3.8	7.45e-01	0	45	104	0	80	10282
2026-01-23 00:08:47.52	305.52	24.11	-54.7	-63.6	3.8	7.46e-01	0	45	104	0	80	10341
2026-01-23 00:08:48.53	305.08	24.07	-54.8	-63.6	3.8	7.48e-01	0	45	104	0	80	10315
2026-01-23 00:08:49.54	304.63	24.02	-54.7	-63.6	3.8	7.46e-01	0	45	104	0	80	10332
2026-01-23 00:08:50.55	304.19	23.97	-54.7	-63.6	3.8	7.45e-01	0	45	104	0	80	10371
2026-01-23 00:08:51.56	303.75	23.92	-54.7	-63.6	3.8	7.45e-01	0	45	104	0	80	10342
2026-01-23 00:08:52.57	303.31	23.87	-54.8	-63.6	3.8	7.46e-01	0	45	104	0	80	10331
2026-01-23 00:08:53.57	302.88	23.82	-54.8	-63.6	3.8	7.45e-01	0	45	104	0	80	10321
2026-01-23 00:08:54.58	302.44	23.76	-54.8	-63.6	3.8	7.43e-01	0	45	104	0	80	10345
2026-01-23 00:08:55.59	302.01	23.71	-54.8	-63.6	3.8	7.45e-01	0	45	104	0	80	10362
2026-01-23 00:08:56.60	301.58	23.65	-54.8	-63.6	3.8	7.46e-01	0	45	104	0	80	10315
2026-01-23 00:08:57.61	301.15	23.59	-54.8	-63.6	3.8	7.46e-01	0	45	104	0	80	10368
2026-01-23 00:08:58.61	300.72	23.53	-54.8	-63.6	3.8	7.45e-01	0	45	104	0	80	10375
2026-01-23 00:08:59.62	300.29	23.47	-54.8	-63.6	3.8	7.46e-01	0	45	104	0	80	10395
2026-01-23 00:09:00.63	299.87	23.40	-54.8	-63.6	3.8	7.43e-01	0	45	104	0	80	10380
2026-01-23 00:09:01.64	299.45	23.34	-54.8	-63.6	3.8	7.45e-01	0	45	104	0	80	10399
2026-01-23 00:09:02.65	299.02	23.27	-54.8	-63.6	3.8	7.44e-01	0	45	104	0	80	10392
2026-01-23 00:09:03.66	298.61	23.21	-54.8	-63.6	3.8	7.46e-01	0	45	104	0	80	10390
2026-01-23 00:09:04.67	298.19	23.14	-54.8	-63.6	3.8	7.46e-01	0	45	104	0	80	10366
2026-01-23 00:09:05.68	297.77	23.07	-54.8	-63.7	3.8	7.45e-01	0	45	104	0	80	10426
2026-01-23 00:09:06.69	297.36	23.00	-54.8	-63.6	3.8	7.47e-01	0	45	104	0	80	10408
2026-01-23 00:09:07.70	296.95	22.92	-54.8	-63.6	3.8	7.45e-01	0	45	104	0	80	10377
2026-01-23 00:09:08.71	296.54	22.85	-54.8	-63.7	3.8	7.45e-01	0	45	104	0	80	10445
2026-01-23 00:09:09.71	296.14	22.78	-54.8	-63.7	3.8	7.44e-01	0	45	104	0	80	10416
2026-01-23 00:09:10.72	295.74	22.70	-54.8	-63.6	3.8	7.44e-01	0	45	104	0	80	10403
2026-01-23 00:09:11.73	295.33	22.62	-54.8	-63.6	3.8	7.45e-01	0	45	104	0	80	10412
2026-01-23 00:09:12.74	294.93	22.55	-54.8	-63.7	3.8	7.46e-01	0	45	104	0	80	10438
2026-01-23 00:09:13.75	294.54	22.47	-54.9	-63.7	3.8	7.46e-01	0	45	104	0	80	10478
2026-01-23 00:09:14.76	294.14	22.39	-54.8	-63.7	3.8	7.43e-01	0	45	104	0	80	10438
2026-01-23 00:09:15.77	293.75	22.31	-54.8	-63.6	3.8	7.45e-01	0	45	104	0	80	10371
2026-01-23 00:09:16.77	293.36	22.23	-54.9	-63.7	3.8	7.45e-01	0	45	104	0	80	10460
2026-01-23 00:09:17.78	292.97	22.14	-54.9	-63.7	3.8	7.43e-01	0	45	104	0	80	10463
2026-01-23 00:09:18.79	292.59	22.06	-54.9	-63.7	3.8	7.45e-01	0	45	104	0	80	10468
2026-01-23 00:09:19.80	292.20	21.98	-54.8	-63.7	3.8	7.45e-01	0	45	104	0	80	10429
2026-01-23 00:09:20.81	291.82	21.89	-54.9	-63.7	3.8	7.46e-01	0	45	104	0	80	10452
2026-01-23 00:09:21.82	291.44	21.80	-54.9	-63.7	3.8	7.45e-01	0	45	104	0	80	10508
2026-01-23 00:09:22.83	291.07	21.72	-54.9	-63.7	3.8	7.45e-01	0	45	104	0	80	10449
2026-01-23 00:09:23.83	290.70	21.63	-54.8	-63.6	3.8	7.45e-01	0	45	104	0	80	10409
2026-01-23 00:09:24.84	290.33	21.54	-54.8	-63.7	3.8	7.47e-01	0	45	104	0	80	10443
2026-01-23 00:09:25.85	289.96	21.45	-54.8	-63.7	3.8	7.44e-01	0	45	104	0	80	10494
2026-01-23 00:09:26.86	289.59	21.36	-54.8	-63.7	3.8	7.45e-01	0	45	104	0	80	10413
2026-01-23 00:09:27.87	289.23	21.27	-54.8	-63.7	3.8	7.46e-01	0	45	104	0	80	10421
2026-01-23 00:09:28.87	288.87	21.18	-54.8	-63.7	3.8	7.47e-01	0	45	104	0	80	10426
2026-01-23 00:09:29.88	288.51	21.09	-54.8	-63.7	3.8	7.45e-01	0	45	104	0	80	10480
2026-01-23 00:09:30.89	288.15	21.00	-54.8	-63.7	3.8	7.46e-01	0	45	104	0	80	10419
2026-01-23 00:09:31.90	287.80	20.90	-54.8	-63.6	3.8	7.46e-01	0	45	104	0	80	10378
2026-01-23 00:09:32.91	287.45	20.81	-54.8	-63.6	3.8	7.45e-01	0	45	104	0	80	10387
2026-01-23 00:09:33.91	287.10	20.71	-54.8	-63.7	3.8	7.46e-01	0	45	104	0	80	10443
2026-01-23 00:09:34.92	286.75	20.62	-54.8	-63.6	3.8	7.44e-01	0	45	104	0	80	10343
2026-01-23 00:09:35.93	286.41	20.52	-54.8	-63.6	3.8	7.46e-01	0	45	104	0	80	10364
2026-01-23 00:09:36.94	286.07	20.43	-54.8	-63.6	3.8	7.46e-01	0	45	104	0	80	10369
2026-01-23 00:09:37.95	285.73	20.33	-54.8	-63.7	3.8	7.46e-01	0	45	104	0	80	10435
2026-01-23 00:09:38.96	285.39	20.23	-54.8	-63.6	3.8	7.46e-01	0	45	104	0	80	10393
2026-01-23 00:09:39.97	285.05	20.14	-54.8	-63.6	3.8	7.45e-01	0	45	104	0	80	10332
2026-01-23 00:09:40.97	284.72	20.04	-54.8	-63.6	3.8	7.44e-01	0	45	104	0	80	10327
2026-01-23 00:09:41.98	284.39	19.94	-54.8	-63.6	3.8	7.44e-01	0	45	104	0	80	10406
2026-01-23 00:09:42.99	284.07	19.84	-54.8	-63.6	3.8	7.46e-01	0	45	104	0	80	10348
2026-01-23 00:09:44.00	283.74	19.74	-54.7	-63.6	3.8	7.45e-01	0	45	104	0	80	10309
2026-01-23 00:09:45.01	283.42	19.64	-54.7	-63.6	3.8	7.45e-01	0	45	104	0	80	10326
2026-01-23 00:09:46.01	283.10	19.54	-54.8	-63.6	3.8	7.45e-01	0	45	104	0	80	10336
2026-01-23 00:09:47.02	282.78	19.44	-54.7	-63.5	3.8	7.46e-01	0	45	104	0	80	10287
2026-01-23 00:09:48.03	282.47	19.34	-54.7	-63.5	3.8	7.45e-01	0	45	104	0	80	10276
2026-01-23 00:09:49.04	282.16	19.24	-54.7	-63.5	3.8	7.46e-01	0	45	104	0	80	10271
2026-01-23 00:09:50.05	281.84	19.14	-54.7	-63.5	3.8	7.45e-01	0	45	104	0	80	10266
2026-01-23 00:09:51.06	281.54	19.04	-54.7	-63.5	3.8	7.45e-01	0	45	104	0	80	10280
2026-01-23 00:09:52.07	281.23	18.94	-54.7	-63.5	3.8	7.44e-01	0	45	104	0	80	10213
2026-01-23 00:09:53.08	280.93	18.84	-54.7	-63.5	3.8	7.47e-01	0	45	104	0	80	10219
2026-01-23 00:09:54.09	280.63	18.74	-54.7	-63.5	3.8	7.46e-01	0	45	104	0	80	10220
2026-01-23 00:09:55.09	280.33	18.64	-54.7	-63.5	3.8	7.45e-01	0	45	104	0	80	10238
2026-01-23 00:09:56.10	280.03	18.53	-54.6	-63.5	3.8	7.46e-01	0	45	104	0	80	10245
2026-01-23 00:09:57.11	279.74	18.43	-54.6	-63.5	3.8	7.46e-01	0	45	104	0	80	10187
2026-01-23 00:09:58.12	279.45	18.33	-54.7	-63.5	3.8	7.45e-01	0	45	104	0	80	10230
2026-01-23 00:09:59.13	279.16	18.23	-54.6	-63.5	3.8	7.44e-01	0	45	104	0	80	10187
2026-01-23 00:10:00.13	278.87	18.12	-54.6	-63.5	3.8	7.45e-01	0	45	104	0	80	10177
2026-01-23 00:10:01.14	278.59	18.02	-54.6	-63.5	3.8	7.44e-01	0	45	104	0	80	10176
2026-01-23 00:10:02.15	278.30	17.92	-54.6	-63.5	3.8	7.46e-01	0	45	104	0	80	10206
2026-01-23 00:10:03.16	278.02	17.82	-54.6	-63.5	3.8	7.46e-01	0	45	104	0	80	10192
2026-01-23 00:10:04.17	277.75	17.71	-54.6	-63.4	3.8	7.45e-01	0	45	104	0	80	10142
2026-01-23 00:10:05.17	277.47	17.61	-54.6	-63.4	3.8	7.46e-01	0	45	104	0	80	10112
2026-01-23 00:10:06.18	277.20	17.51	-54.6	-63.4	3.8	7.47e-01	0	45	104	0	80	10126
2026-01-23 00:10:07.19	276.93	17.40	-54.6	-63.4	3.8	7.46e-01	0	45	104	0	80	10093
2026-01-23 00:10:08.20	276.66	17.30	-54.6	-63.4	3.8	7.45e-01	0	45	104	0	80	10137
2026-01-23 00:10:09.21	276.39	17.20	-54.6	-63.4	3.8	7.45e-01	0	45	104	0	80	10086
2026-01-23 00:10:10.21	276.13	17.09	-54.6	-63.4	3.8	7.46e-01	0	45	104	0	80	10148
2026-01-23 00:10:11.22	275.86	16.99	-54.6	-63.4	3.8	7.46e-01	0	45	104	0	80	10116
2026-01-23 00:10:12.23	275.60	16.89	-54.5	-63.4	3.8	7.46e-01	0	45	104	0	80	10107
2026-01-23 00:10:13.24	275.34	16.79	-54.5	-63.4	3.8	7.44e-01	0	45	104	0	80	10094
2026-01-23 00:10:14.25	275.09	16.68	-54.5	-63.4	3.8	7.47e-01	0	45	104	0	80	10080
2026-01-23 00:10:15.25	274.83	16.58	-54.5	-63.4	3.8	7.45e-01	0	45	104	0	80	10088
2026-01-23 00:10:16.26	274.58	16.48	-54.5	-63.4	3.8	7.45e-01	0	45	104	0	80	10067
2026-01-23 00:10:17.27	274.33	16.37	-54.5	-63.4	3.8	7.46e-01	0	45	104	0	80	10063
2026-01-23 00:10:18.28	274.08	16.27	-54.5	-63.3	3.8	7.45e-01	0	45	104	0	80	10051
2026-01-23 00:10:19.29	273.83	16.17	-54.5	-63.4	3.8	7.47e-01	0	45	104	0	80	10074
2026-01-23 00:10:20.29	273.59	16.07	-54.5	-63.3	3.8	7.47e-01	0	45	104	0	80	10059
2026-01-23 00:10:21.30	273.35	15.96	-54.5	-63.3	3.8	7.44e-01	0	45	104	0	80	10026
2026-01-23 00:10:22.31	273.11	15.86	-54.5	-63.3	3.8	7.46e-01	0	45	104	0	80	9996
2026-01-23 00:10:23.32	272.87	15.76	-54.5	-63.3	3.8	7.45e-01	0	45	104	0	80	10015
2026-01-23 00:10:24.32	272.63	15.66	-54.4	-63.3	3.8	7.46e-01	0	45	104	0	80	9994
2026-01-23 00:10:25.33	272.40	15.56	-54.4	-63.3	3.8	7.45e-01	0	45	104	0	80	9984
2026-01-23 00:10:26.34	272.17	15.45	-54.4	-63.3	3.8	7.44e-01	0	45	104	0	80	9949
2026-01-23 00:10:27.35	271.94	15.35	-54.4	-63.3	3.8	7.46e-01	0	45	104	0	80	9950
2026-01-23 00:10:28.36	271.71	15.25	-54.4	-63.3	3.8	7.46e-01	0	45	104	0	80	9965
2026-01-23 00:10:29.37	271.48	15.15	-54.4	-63.2	3.8	7.44e-01	0	45	104	0	80	9930
2026-01-23 00:10:30.37	271.26	15.05	-54.4	-63.3	3.8	7.46e-01	0	45	104	0	80	9951
2026-01-23 00:10:31.38	271.03	14.95	-54.4	-63.3	3.8	7.44e-01	0	45	104	0	80	9949
2026-01-23 00:10:32.39	270.81	14.85	-54.4	-63.2	3.8	7.44e-01	0	45	104	0	80	9877
2026-01-23 00:10:33.40	270.59	14.74	-54.4	-63.2	3.8	7.46e-01	0	45	104	0	80	9893
2026-01-23 00:10:34.41	270.37	14.64	-54.4	-63.2	3.8	7.47e-01	0	45	104	0	80	9899
2026-01-23 00:10:35.41	270.16	14.54	-54.4	-63.2	3.8	7.45e-01	0	45	104	0	80	9907
2026-01-23 00:10:36.42	269.94	14.44	-54.3	-63.2	3.8	7.45e-01	0	45	104	0	80	9875
2026-01-23 00:10:37.43	269.73	14.34	-54.3	-63.2	3.8	7.47e-01	0	45	104	0	80	9876
2026-01-23 00:10:38.44	269.52	14.24	-54.3	-63.2	3.8	7.46e-01	0	45	104	0	80	9853
2026-01-23 00:10:39.45	269.31	14.14	-54.3	-63.2	3.8	7.46e-01	0	45	104	0	80	9856
2026-01-23 00:10:40.46	269.10	14.04	-54.3	-63.1	3.8	7.46e-01	0	45	104	0	80	9815
2026-01-23 00:10:41.46	268.89	13.95	-54.3	-63.1	3.8	7.44e-01	0	45	104	0	80	9805
2026-01-23 00:10:42.47	268.69	13.85	-54.3	-63.2	3.8	7.45e-01	0	45	104	0	80	9838
2026-01-23 00:10:43.48	268.49	13.75	-54.3	-63.1	3.8	7.43e-01	0	45	104	0	80	9825
2026-01-23 00:10:44.49	268.29	13.65	-54.3	-63.2	3.8	7.45e-01	0	45	104	0	80	9842
2026-01-23 00:10:45.50	268.09	13.55	-54.3	-63.1	3.8	7.43e-01	0	45	104	0	80	9793
2026-01-23 00:10:46.51	267.89	13.45	-54.3	-63.1	3.8	7.46e-01	0	45	104	0	80	9807
2026-01-23 00:10:47.51	267.69	13.36	-54.3	-63.1	3.8	7.44e-01	0	45	104	0	80	9808
2026-01-23 00:10:48.52	267.50	13.26	-54.3	-63.1	3.8	7.46e-01	0	45	104	0	80	9791
2026-01-23 00:10:49.53	267.30	13.16	-54.3	-63.1	3.8	7.46e-01	0	45	104	0	80	9815
2026-01-23 00:10:50.54	267.11	13.06	-54.3	-63.1	3.8	7.45e-01	0	45	104	0	80	9770
2026-01-23 00:10:51.55	266.92	12.97	-54.3	-63.1	3.8	7.44e-01	0	45	104	0	80	9796
2026-01-23 00:10:52.56	266.73	12.87	-54.2	-63.1	3.8	7.45e-01	0	45	104	0	80	9755
2026-01-23 00:10:53.57	266.55	12.77	-54.2	-63.1	3.8	7.47e-01	0	45	104	0	80	9764
2026-01-23 00:10:54.57	266.36	12.68	-54.2	-63.1	3.8	7.45e-01	0	45	104	0	80	9783
2026-01-23 00:10:55.58	266.18	12.58	-54.2	-63.1	3.8	7.45e-01	0	45	104	0	80	9763
2026-01-23 00:10:56.59	265.99	12.49	-54.2	-63.0	3.8	7.45e-01	0	45	104	0	80	9708
2026-01-23 00:10:57.60	265.81	12.39	-54.2	-63.1	3.8	7.45e-01	0	45	104	0	80	9749
2026-01-23 00:10:58.61	265.63	12.29	-54.2	-63.1	3.8	7.45e-01	0	45	104	0	80	9723
2026-01-23 00:10:59.62	265.45	12.20	-54.2	-63.0	3.8	7.47e-01	0	45	104	0	80	9706
2026-01-23 00:11:00.63	265.28	12.10	-54.2	-63.0	3.8	7.46e-01	0	45	104	0	80	9667
2026-01-23 00:11:01.63	265.10	12.01	-54.2	-63.0	3.8	7.47e-01	0	45	104	0	80	9689
2026-01-23 00:11:02.64	264.93	11.92	-54.2	-63.0	3.8	7.46e-01	0	45	104	0	80	9669
2026-01-23 00:11:03.65	264.76	11.82	-54.2	-63.0	3.8	7.45e-01	0	45	104	0	80	9709
2026-01-23 00:11:04.66	264.58	11.73	-54.2	-63.0	3.8	7.44e-01	0	45	104	0	80	9664
2026-01-23 00:11:05.67	264.41	11.64	-54.2	-63.0	3.8	7.45e-01	0	45	104	0	80	9669
2026-01-23 00:11:06.68	264.25	11.54	-54.2	-63.0	3.8	7.44e-01	0	45	104	0	80	9709
2026-01-23 00:11:07.69	264.08	11.45	-54.1	-63.0	3.8	7.44e-01	0	45	104	0	80	9622
2026-01-23 00:11:08.69	263.91	11.36	-54.1	-63.0	3.8	7.46e-01	0	45	104	0	80	9629
2026-01-23 00:11:09.70	263.75	11.27	-54.1	-63.0	3.8	7.44e-01	0	45	104	0	80	9638
2026-01-23 00:11:10.71	263.58	11.17	-54.1	-63.0	3.8	7.46e-01	0	45	104	0	80	9664
2026-01-23 00:11:11.72	263.42	11.08	-54.1	-63.0	3.8	7.47e-01	0	45	104	0	80	9621
2026-01-23 00:11:12.73	263.26	10.99	-54.1	-63.0	3.8	7.44e-01	0	45	104	0	80	9631
2026-01-23 00:11:13.73	263.10	10.90	-54.1	-62.9	3.8	7.45e-01	0	45	104	0	80	9605
2026-01-23 00:11:14.74	262.94	10.81	-54.1	-63.0	3.8	7.45e-01	0	45	104	0	80	9633
2026-01-23 00:11:15.75	262.79	10.72	-54.1	-62.9	3.8	7.46e-01	0	45	104	0	80	9568
2026-01-23 00:11:16.76	262.63	10.63	-54.1	-62.9	3.8	7.47e-01	0	45	104	0	80	9583
2026-01-23 00:11:17.77	262.47	10.54	-54.1	-62.9	3.8	7.45e-01	0	45	104	0	80	9598
2026-01-23 00:11:18.78	262.32	10.45	-54.1	-63.0	3.8	7.47e-01	0	45	104	0	80	9615
2026-01-23 00:11:19.79	262.17	10.36	-54.1	-62.9	3.8	7.43e-01	0	45	104	0	80	9533
2026-01-23 00:11:20.79	262.02	10.27	-54.1	-62.9	3.8	7.45e-01	0	45	104	0	80	9535
2026-01-23 00:11:21.80	261.87	10.18	-54.1	-62.9	3.8	7.47e-01	0	45	104	0	80	9558
2026-01-23 00:11:22.81	261.72	10.09	-54.1	-62.9	3.8	7.46e-01	0	45	104	0	80	9560
2026-01-23 00:11:23.82	261.57	10.00	-54.0	-62.9	3.8	7.44e-01	0	45	104	0	80	9516
2026-01-23 00:11:24.83	261.42	9.91	-54.0	-62.9	3.8	7.44e-01	0	45	104	0	80	9515
2026-01-23 00:11:25.83	261.28	9.82	-54.0	-62.9	3.8	7.46e-01	0	45	104	0	80	9550
2026-01-23 00:11:26.84	261.13	9.74	-54.1	-62.9	3.8	7.44e-01	0	45	104	0	80	9562
2026-01-23 00:11:27.85	260.99	9.65	-54.0	-62.9	3.8	7.45e-01	0	45	104	0	80	9500
2026-01-23 00:11:28.86	260.85	9.56	-54.0	-62.8	3.8	7.43e-01	0	45	104	0	80	9484
2026-01-23 00:11:29.87	260.70	9.47	-54.0	-62.9	3.8	7.46e-01	0	45	104	0	80	9512
2026-01-23 00:11:30.88	260.56	9.39	-54.0	-62.9	3.8	7.45e-01	0	45	104	0	80	9503
2026-01-23 00:11:31.89	260.42	9.30	-54.0	-62.8	3.8	7.45e-01	0	45	104	0	79	10059
2026-01-23 00:11:32.89	260.29	9.22	-54.0	-62.8	3.8	7.45e-01	0	45	104	0	79	10058
2026-01-23 00:11:33.90	260.15	9.13	-54.0	-62.9	3.8	7.46e-01	0	45	104	0	79	10086
2026-01-23 00:11:34.91	260.01	9.04	-54.1	-62.9	3.8	7.45e-01	0	45	104	0	79	10111
2026-01-23 00:11:35.92	259.88	8.96	-54.0	-62.8	3.8	7.47e-01	0	45	104	0	79	10029
2026-01-23 00:11:36.93	259.74	8.87	-54.0	-62.8	3.8	7.46e-01	0	45	104	0	79	10039
2026-01-23 00:11:37.94	259.61	8.79	-54.0	-62.9	3.8	7.45e-01	0	45	104	0	79	10061
2026-01-23 00:11:38.94	259.48	8.70	-54.0	-62.8	3.8	7.46e-01	0	45	104	0	79	10049
2026-01-23 00:11:39.95	259.35	8.62	-53.9	-62.8	3.8	7.46e-01	0	45	104	0	79	10002
2026-01-23 00:11:40.96	259.22	8.54	-53.6	-62.8	3.8	7.45e-01	0	45	104	0	79	9997
2026-01-23 00:11:41.97	259.09	8.45	-53.4	-62.8	3.8	7.46e-01	0	45	104	0	78	10595
2026-01-23 00:11:42.98	258.96	8.37	-53.7	-62.8	3.8	7.44e-01	0	45	104	0	78	10575
2026-01-23 00:11:43.99	258.83	8.28	-53.9	-62.7	3.8	7.44e-01	0	45	104	0	78	10526
2026-01-23 00:11:45.00	258.70	8.20	-53.9	-62.8	3.8	7.46e-01	0	45	104	0	78	10575
2026-01-23 00:11:46.01	258.58	8.12	-54.0	-62.8	3.8	7.44e-01	0	45	104	0	78	10623
2026-01-23 00:11:47.02	258.45	8.04	-54.0	-62.8	3.8	7.45e-01	0	45	104	0	78	10569
2026-01-23 00:11:48.03	258.33	7.95	-53.9	-62.7	3.8	7.46e-01	0	45	104	0	78	10448
2026-01-23 00:11:49.03	258.21	7.87	-53.9	-62.7	3.8	7.44e-01	0	45	104	0	78	10516
2026-01-23 00:11:50.04	258.09	7.79	-53.9	-62.8	3.8	7.46e-01	0	45	104	0	78	10540
2026-01-23 00:11:51.05	257.96	7.71	-53.9	-62.8	3.8	7.46e-01	0	45	104	0	78	10542
2026-01-23 00:11:52.06	257.84	7.63	-53.8	-62.7	3.8	7.45e-01	0	45	104	0	78	10437
2026-01-23 00:11:53.07	257.72	7.55	-53.8	-62.7	3.8	7.44e-01	0	45	104	0	78	10441
2026-01-23 00:11:54.08	257.61	7.46	-53.9	-62.7	3.8	7.45e-01	0	45	104	0	78	10532
2026-01-23 00:11:55.09	257.49	7.38	-53.9	-62.7	3.8	7.46e-01	0	45	104	0	78	10505
2026-01-23 00:11:56.10	257.37	7.30	-53.8	-62.6	3.8	7.46e-01	0	45	104	0	78	10398
2026-01-23 00:11:57.11	257.25	7.22	-53.8	-62.7	3.8	7.45e-01	0	45	104	0	78	10429
2026-01-23 00:11:58.12	257.14	7.14	-53.8	-62.7	3.8	7.45e-01	0	45	104	0	78	10427
2026-01-23 00:11:59.12	257.03	7.06	-53.9	-62.7	3.8	7.45e-01	0	45	104	0	78	10441
2026-01-23 00:12:00.13	256.91	6.99	-53.8	-62.6	3.8	7.47e-01	0	45	104	0	78	10340
2026-01-23 00:12:01.14	256.80	6.91	-53.8	-62.6	3.8	7.46e-01	0	45	104	0	78	10348
2026-01-23 00:12:02.15	256.69	6.83	-53.8	-62.7	3.8	7.45e-01	0	45	104	0	78	10439
2026-01-23 00:12:03.15	256.58	6.75	-53.8	-62.7	3.8	7.46e-01	0	45	104	0	78	10449
2026-01-23 00:12:04.16	256.47	6.67	-53.7	-62.6	3.8	7.44e-01	0	45	104	0	78	10299
2026-01-23 00:12:05.17	256.36	6.59	-53.7	-62.6	3.8	7.46e-01	0	45	104	0	78	10303
2026-01-23 00:12:06.18	256.25	6.51	-53.8	-62.6	3.8	7.46e-01	0	45	104	0	78	10369
2026-01-23 00:12:07.19	256.14	6.44	-53.8	-62.6	3.8	7.43e-01	0	45	104	0	78	10375
2026-01-23 00:12:08.20	256.03	6.36	-53.7	-62.5	3.8	7.45e-01	0	45	104	0	78	10211
2026-01-23 00:12:09.21	255.92	6.28	-53.7	-62.5	3.8	7.44e-01	0	45	104	0	78	10264
2026-01-23 00:12:10.21	255.82	6.20	-53.7	-62.6	3.8	7.44e-01	0	45	104	0	78	10311
2026-01-23 00:12:11.22	255.71	6.13	-53.7	-62.6	3.8	7.44e-01	0	45	104	0	78	10327
2026-01-23 00:12:12.23	255.61	6.05	-53.6	-62.5	3.8	7.46e-01	0	45	104	0	78	10198
2026-01-23 00:12:13.24	255.50	5.97	-53.7	-62.5	3.8	7.45e-01	0	45	104	0	78	10195
2026-01-23 00:12:14.25	255.40	5.90	-53.7	-62.5	3.8	7.46e-01	0	45	104	0	78	10278
2026-01-23 00:12:15.25	255.30	5.82	-53.7	-62.5	3.8	7.45e-01	0	45	104	0	78	10278
2026-01-23 00:12:16.26	255.20	5.75	-53.6	-62.4	3.8	7.45e-01	0	45	104	0	78	10104
2026-01-23 00:12:17.27	255.10	5.67	-53.6	-62.4	3.8	7.47e-01	0	45	104	0	78	10136
2026-01-23 00:12:18.28	255.00	5.60	-53.6	-62.5	3.8	7.44e-01	0	45	104	0	78	10199
2026-01-23 00:12:19.28	254.90	5.52	-53.6	-62.5	3.8	7.45e-01	0	45	104	0	78	10187
2026-01-23 00:12:20.29	254.80	5.45	-53.5	-62.3	3.8	7.47e-01	0	45	104	0	78	10039
2026-01-23 00:12:21.30	254.70	5.37	-53.5	-62.4	3.8	7.48e-01	0	45	104	0	78	10072
2026-01-23 00:12:22.31	254.60	5.30	-53.6	-62.4	3.8	7.45e-01	0	45	104	0	78	10153
2026-01-23 00:12:23.32	254.50	5.22	-53.6	-62.4	3.8	7.44e-01	0	45	104	0	78	10127
2026-01-23 00:12:24.33	254.41	5.15	-53.4	-62.3	3.8	7.44e-01	0	45	104	0	78	9970
2026-01-23 00:12:25.34	254.31	5.08	-53.5	-62.3	3.8	7.46e-01	0	45	104	0	78	10024
2026-01-23 00:12:26.35	254.22	5.00	-53.6	-62.4	3.8	7.44e-01	0	45	104	0	78	10101
2026-01-23 00:12:27.35	254.12	4.93	-53.8	-62.6	3.8	7.45e-01	0	45	104	0	78	10368
2026-01-23 00:12:28.36	254.03	4.86	-54.0	-62.8	3.8	7.46e-01	0	45	104	0	78	10583
2026-01-23 00:12:29.37	253.93	4.78	-54.1	-62.9	3.8	7.45e-01	0	45	104	0	78	10708
2026-01-23 00:12:30.38	253.84	4.71	-53.9	-62.7	3.8	7.45e-01	0	45	104	0	78	10473
2026-01-23 00:12:31.39	253.75	4.64	-53.9	-62.7	3.8	7.47e-01	0	45	104	0	78	10485
2026-01-23 00:12:32.40	253.66	4.57	-54.2	-63.0	3.8	7.44e-01	0	45	104	0	78	10858
2026-01-23 00:12:33.41	253.57	4.49	-54.2	-63.0	3.8	7.44e-01	0	45	104	0	78	10833
2026-01-23 00:12:34.42	253.48	4.42	-54.1	-62.9	3.8	7.46e-01	0	45	104	0	78	10767
2026-01-23 00:12:35.42	253.39	4.35	-54.0	-62.8	3.8	7.45e-01	0	45	104	0	78	10647
2026-01-23 00:12:36.43	253.30	4.28	-54.0	-62.9	3.8	7.48e-01	0	45	104	0	78	10696
2026-01-23 00:12:37.44	253.21	4.21	-54.1	-63.0	3.8	7.43e-01	0	45	104	0	78	10794
2026-01-23 00:12:38.45	253.12	4.14	-54.2	-63.0	3.8	7.45e-01	0	45	104	0	78	10886
2026-01-23 00:12:39.45	253.03	4.07	-54.3	-63.1	3.8	7.46e-01	0	45	104	0	79	10349
2026-01-23 00:12:40.46	252.95	4.00	-54.3	-63.1	3.8	7.46e-01	0	45	104	0	79	10359
2026-01-23 00:12:41.47	252.86	3.93	-54.3	-63.1	3.8	7.45e-01	0	45	104	0	79	10402
2026-01-23 00:12:42.48	252.77	3.86	-54.4	-63.2	3.8	7.45e-01	0	45	104	0	79	10528
2026-01-23 00:12:43.49	252.69	3.79	-54.4	-63.3	3.8	7.46e-01	0	45	104	0	79	10555
2026-01-23 00:12:44.50	252.60	3.72	-54.5	-63.3	3.8	7.44e-01	0	45	104	0	79	10592
2026-01-23 00:12:45.51	252.52	3.65	-54.5	-63.3	3.8	7.45e-01	0	45	104	0	79	10654
2026-01-23 00:12:46.52	252.44	3.58	-54.5	-63.4	3.8	7.45e-01	0	45	104	0	79	10688
2026-01-23 00:12:47.53	252.35	3.51	-54.6	-63.4	3.8	7.45e-01	0	45	104	0	79	10723
2026-01-23 00:12:48.53	252.27	3.44	-54.5	-63.4	3.8	7.46e-01	0	45	104	0	79	10708
2026-01-23 00:12:49.54	252.19	3.37	-54.5	-63.4	3.8	7.43e-01	0	45	104	0	79	10681
2026-01-23 00:12:50.55	252.11	3.30	-54.5	-63.4	3.8	7.45e-01	0	45	104	0	79	10707
2026-01-23 00:12:51.56	252.03	3.23	-54.5	-63.4	3.8	7.45e-01	0	45	104	0	79	10694
2026-01-23 00:12:52.56	251.95	3.16	-54.5	-63.4	3.8	7.44e-01	0	45	104	0	79	10697
2026-01-23 00:12:53.57	251.87	3.10	-54.5	-63.4	3.8	7.44e-01	0	45	104	0	79	10667
2026-01-23 00:12:54.58	251.79	3.03	-54.5	-63.3	3.8	7.46e-01	0	45	104	0	79	10634
2026-01-23 00:12:55.59	251.71	2.96	-54.5	-63.3	3.8	7.44e-01	0	45	104	0	79	10612
2026-01-23 00:12:56.60	251.63	2.89	-54.5	-63.4	3.8	7.46e-01	0	45	104	0	79	10666
2026-01-23 00:12:57.61	251.55	2.82	-54.5	-63.3	3.8	7.45e-01	0	45	104	0	79	10618
2026-01-23 00:12:58.62	251.47	2.76	-54.5	-63.4	3.8	7.46e-01	0	45	104	0	79	10661
2026-01-23 00:12:59.63	251.39	2.69	-54.5	-63.3	3.8	7.47e-01	0	45	104	0	79	10639
2026-01-23 00:13:00.63	251.32	2.62	-54.5	-63.3	3.8	7.45e-01	0	45	104	0	79	10606
2026-01-23 00:13:01.64	251.24	2.56	-54.5	-63.3	3.8	7.45e-01	0	45	104	0	79	10578
2026-01-23 00:13:02.65	251.17	2.49	-54.5	-63.3	3.8	7.44e-01	0	45	104	0	79	10639
2026-01-23 00:13:03.66	251.09	2.42	-54.5	-63.3	3.8	7.44e-01	0	45	104	0	79	10601
2026-01-23 00:13:04.67	251.02	2.36	-54.5	-63.3	3.8	7.45e-01	0	45	104	0	79	10624
2026-01-23 00:13:05.67	250.94	2.29	-54.5	-63.3	3.8	7.45e-01	0	45	104	0	79	10584
2026-01-23 00:13:06.68	250.87	2.22	-54.5	-63.3	3.8	7.47e-01	0	45	104	0	79	10601
2026-01-23 00:13:07.69	250.79	2.16	-54.5	-63.3	3.8	7.44e-01	0	45	104	0	79	10595
2026-01-23 00:13:08.70	250.72	2.09	-54.5	-63.3	3.8	7.44e-01	0	45	104	0	79	10567
2026-01-23 00:13:09.71	250.65	2.03	-54.5	-63.3	3.8	7.47e-01	0	45	104	0	79	10594
2026-01-23 00:13:10.71	250.58	1.96	-54.5	-63.3	3.8	7.45e-01	0	45	104	0	79	10576

#Closed at: 2026-01-23 00:13:10
#Recorded file [0 MB]: D:/lorett/data/31041_260123_030332.dat