passes_logs/2026/01/23/R3.2S_Murmansk/R3.2S_Murmansk__20260123_080916_NOAA_21_JPSS-2_rec.log

#Pass ID: 20260123_080916_NOAA 21 (JPSS-2)
#Satellite: NOAA 21 (JPSS-2)
#Configuration: NOAA-21
#almurnet v.1.7.20251203
#Start time: 2026-01-23 08:11:15

#Version: 2.2.20231116
#Station: R3.2S_Murmansk
#Location: 33.079688 lon 68.888172 lat
#TLE: 1 54234U 22150A   26022.41365820  .00000211  00000+0  12084-3 0  9990
#TLE: 2 54234  98.7507 323.2240 0000658 234.5287 125.5828 14.19537645165864

#Time	Az	El	Level	Level2	SNR	BER	BlckErr	Temp	State	Recorded	gain1	gain2
2026-01-23 08:11:15.61	114.88	10.59	-53.5	-65.5	3.8	8.45e-01	0	42	0	0	77	15304
2026-01-23 08:11:16.61	114.82	10.67	-54.5	-67.3	3.8	1.49e+00	0	43	104	0	79	16749
2026-01-23 08:11:17.62	114.76	10.76	-54.5	-67.3	3.8	1.49e+00	0	43	104	0	79	16759
2026-01-23 08:11:18.63	114.71	10.84	-54.5	-67.3	3.8	1.49e+00	0	42	104	0	79	16799
2026-01-23 08:11:19.64	114.65	10.93	-54.5	-67.4	3.8	1.49e+00	0	43	104	0	79	16890
2026-01-23 08:11:20.64	114.59	11.02	-54.6	-67.4	3.8	1.49e+00	0	43	104	0	79	16907
2026-01-23 08:11:21.65	114.53	11.10	-54.6	-67.4	3.8	1.49e+00	0	43	104	0	79	16963
2026-01-23 08:11:22.66	114.47	11.19	-54.6	-67.4	3.8	1.49e+00	0	43	104	0	79	16989
2026-01-23 08:11:23.67	114.41	11.28	-54.6	-67.4	3.8	1.49e+00	0	43	104	0	79	17068
2026-01-23 08:11:24.68	114.35	11.37	-54.7	-67.4	3.8	1.49e+00	0	43	104	0	79	17053
2026-01-23 08:11:25.68	114.29	11.45	-54.7	-67.5	3.8	1.49e+00	0	43	104	0	79	17097
2026-01-23 08:11:26.69	114.23	11.54	-54.7	-67.5	3.8	1.49e+00	0	43	104	0	79	17142
2026-01-23 08:11:27.70	114.17	11.63	-54.7	-67.5	3.8	1.49e+00	0	43	104	0	79	17158
2026-01-23 08:11:28.71	114.10	11.72	-54.7	-67.5	3.8	1.49e+00	0	43	104	0	79	17196
2026-01-23 08:11:29.72	114.04	11.81	-54.7	-67.5	3.8	1.49e+00	0	43	104	0	79	17183
2026-01-23 08:11:30.73	113.98	11.90	-54.6	-67.4	3.8	1.49e+00	0	43	104	0	80	16060
2026-01-23 08:11:31.74	113.91	11.99	-54.7	-67.5	3.8	1.49e+00	0	43	104	0	80	16139
2026-01-23 08:11:32.74	113.85	12.08	-54.7	-67.4	3.8	1.49e+00	0	43	104	0	80	16096
2026-01-23 08:11:33.75	113.79	12.17	-54.7	-67.5	3.8	1.49e+00	0	43	104	0	80	16141
2026-01-23 08:11:34.76	113.72	12.26	-54.6	-67.4	3.8	1.49e+00	0	43	104	0	80	16121
2026-01-23 08:11:35.77	113.66	12.35	-54.6	-67.4	3.8	1.49e+00	0	43	104	0	80	16084
2026-01-23 08:11:36.78	113.59	12.44	-54.6	-67.4	3.8	1.49e+00	0	43	104	0	80	16095
2026-01-23 08:11:37.79	113.53	12.53	-54.6	-67.4	3.8	1.49e+00	0	43	104	0	80	16023
2026-01-23 08:11:38.80	113.46	12.63	-54.6	-67.4	3.8	1.49e+00	0	43	104	0	80	16106
2026-01-23 08:11:39.81	113.39	12.72	-54.6	-67.4	3.8	1.49e+00	0	43	104	0	80	16088
2026-01-23 08:11:40.82	113.33	12.81	-54.6	-67.4	3.8	1.49e+00	0	43	104	0	80	16083
2026-01-23 08:11:41.82	113.26	12.90	-54.6	-67.4	3.8	1.49e+00	0	43	104	0	80	16019
2026-01-23 08:11:42.83	113.19	13.00	-54.6	-67.3	3.8	1.49e+00	0	43	104	0	80	15910
2026-01-23 08:11:43.84	113.12	13.09	-54.5	-67.3	3.8	1.49e+00	0	43	104	0	80	15893
2026-01-23 08:11:44.85	113.05	13.18	-54.5	-67.3	3.8	1.49e+00	0	43	104	0	80	15913
2026-01-23 08:11:45.86	112.98	13.28	-54.5	-67.3	3.8	1.49e+00	0	43	104	0	80	15898
2026-01-23 08:11:46.87	112.92	13.37	-54.5	-67.3	3.8	1.49e+00	0	43	104	0	80	15891
2026-01-23 08:11:47.88	112.84	13.47	-54.6	-67.4	3.8	1.49e+00	0	43	104	0	80	15955
2026-01-23 08:11:48.89	112.77	13.56	-54.6	-67.4	3.8	1.49e+00	0	43	104	0	80	15976
2026-01-23 08:11:49.89	112.70	13.66	-54.5	-67.3	3.8	1.49e+00	0	43	104	0	80	15924
2026-01-23 08:11:50.91	112.63	13.75	-54.5	-67.3	3.8	1.49e+00	0	43	104	0	80	15871
2026-01-23 08:11:51.92	112.56	13.85	-54.5	-67.3	3.8	1.49e+00	0	43	104	0	80	15879
2026-01-23 08:11:52.92	112.49	13.94	-54.5	-67.3	3.8	1.49e+00	0	43	104	0	80	15859
2026-01-23 08:11:53.93	112.41	14.04	-54.5	-67.3	3.8	1.49e+00	0	43	104	0	80	15798
2026-01-23 08:11:54.94	112.34	14.14	-54.5	-67.3	3.8	1.49e+00	0	43	104	0	80	15843
2026-01-23 08:11:55.95	112.27	14.24	-54.5	-67.3	3.8	1.49e+00	0	43	104	0	80	15828
2026-01-23 08:11:56.96	112.19	14.33	-54.5	-67.3	3.8	1.49e+00	0	43	104	0	80	15799
2026-01-23 08:11:57.97	112.12	14.43	-54.5	-67.2	3.8	1.49e+00	0	43	104	0	80	15751
2026-01-23 08:11:58.98	112.04	14.53	-54.5	-67.2	3.8	1.49e+00	0	43	104	0	80	15698
2026-01-23 08:11:59.98	111.97	14.63	-54.5	-67.2	3.8	1.49e+00	0	43	104	0	80	15701
2026-01-23 08:12:00.99	111.89	14.73	-54.4	-67.2	3.8	1.49e+00	0	43	104	0	80	15715
2026-01-23 08:12:02.00	111.81	14.83	-54.5	-67.2	3.8	1.49e+00	0	43	104	0	80	15676
2026-01-23 08:12:03.01	111.73	14.93	-54.4	-67.2	3.8	1.49e+00	0	43	104	0	80	15730
2026-01-23 08:12:04.02	111.65	15.03	-54.4	-67.3	3.8	1.49e+00	0	43	104	0	80	15771
2026-01-23 08:12:05.02	111.58	15.13	-54.4	-67.2	3.8	1.49e+00	0	43	104	0	80	15705
2026-01-23 08:12:06.03	111.50	15.23	-54.4	-67.2	3.8	1.49e+00	0	43	104	0	80	15694
2026-01-23 08:12:07.04	111.42	15.33	-54.4	-67.2	3.8	1.49e+00	0	43	104	0	80	15705
2026-01-23 08:12:08.05	111.34	15.43	-54.4	-67.2	3.8	1.49e+00	0	43	104	0	80	15697
2026-01-23 08:12:09.06	111.26	15.53	-54.6	-67.4	3.8	1.49e+00	0	43	104	0	80	15945
2026-01-23 08:12:10.07	111.17	15.63	-54.6	-67.3	3.8	1.49e+00	0	43	104	0	80	15908
2026-01-23 08:12:11.08	111.09	15.74	-54.6	-67.3	3.8	1.49e+00	0	43	104	0	80	15930
2026-01-23 08:12:12.08	111.01	15.84	-54.6	-67.4	3.8	1.49e+00	0	43	104	0	80	15961
2026-01-23 08:12:13.09	110.93	15.94	-54.5	-67.3	3.8	1.49e+00	0	43	104	0	80	15875
2026-01-23 08:12:14.10	110.84	16.05	-54.5	-67.3	3.8	1.49e+00	0	43	104	0	80	15846
2026-01-23 08:12:15.11	110.76	16.15	-54.5	-67.3	3.8	1.49e+00	0	43	104	0	80	15818
2026-01-23 08:12:16.11	110.67	16.25	-54.5	-67.2	3.8	1.49e+00	0	43	104	0	80	15743
2026-01-23 08:12:17.12	110.59	16.36	-54.4	-67.2	3.8	1.49e+00	0	43	104	0	80	15733
2026-01-23 08:12:18.13	110.50	16.47	-54.4	-67.2	3.8	1.49e+00	0	43	104	0	80	15676
2026-01-23 08:12:19.14	110.41	16.57	-54.4	-67.2	3.8	1.49e+00	0	43	104	0	80	15656
2026-01-23 08:12:20.15	110.32	16.68	-54.3	-67.2	3.8	1.49e+00	0	43	104	0	80	15583
2026-01-23 08:12:21.15	110.24	16.78	-54.3	-67.1	3.8	1.49e+00	0	43	104	0	80	15473
2026-01-23 08:12:22.16	110.15	16.89	-54.3	-67.1	3.8	1.49e+00	0	43	104	0	80	15481
2026-01-23 08:12:23.17	110.06	17.00	-54.3	-67.1	3.8	1.49e+00	0	43	104	0	80	15418
2026-01-23 08:12:24.18	109.97	17.10	-54.2	-67.0	3.8	1.49e+00	0	43	104	0	80	15354
2026-01-23 08:12:25.19	109.88	17.21	-54.2	-67.0	3.8	1.49e+00	0	43	104	0	80	15273
2026-01-23 08:12:26.20	109.78	17.32	-54.2	-66.9	3.8	1.49e+00	0	43	104	0	80	15179
2026-01-23 08:12:27.20	109.69	17.43	-54.1	-66.9	3.8	1.49e+00	0	43	104	0	80	15127
2026-01-23 08:12:28.21	109.60	17.54	-54.1	-66.9	3.8	1.49e+00	0	43	104	0	80	15064
2026-01-23 08:12:29.22	109.51	17.65	-54.0	-66.8	3.8	1.49e+00	0	43	104	0	80	14942
2026-01-23 08:12:30.23	109.41	17.76	-54.0	-66.7	3.8	1.49e+00	0	43	104	0	80	14826
2026-01-23 08:12:31.23	109.32	17.87	-54.0	-66.8	3.8	1.49e+00	0	43	104	0	79	15772
2026-01-23 08:12:32.24	109.22	17.98	-53.9	-66.6	3.8	1.49e+00	0	43	104	0	79	15546
2026-01-23 08:12:33.25	109.12	18.09	-53.8	-66.5	3.8	1.49e+00	0	43	104	0	79	15265
2026-01-23 08:12:34.26	109.03	18.20	-45.9	-47.1	18.2	0.00e+00	0	43	0	1048576	62	4353
2026-01-23 08:12:35.27	108.93	18.31	-47.2	-48.8	16.6	0.00e+00	0	43	0	4194304	65	4445
2026-01-23 08:12:36.28	108.83	18.43	-49.2	-51.4	14.0	1.44e-05	0	43	0	6291456	70	4539
2026-01-23 08:12:37.29	108.73	18.54	-46.8	-48.2	17.0	0.00e+00	0	43	0	9437184	65	4180
2026-01-23 08:12:38.30	108.63	18.65	-51.2	-54.8	10.3	1.70e-02	0	43	0	12582912	74	5337
2026-01-23 08:12:39.31	108.53	18.77	-44.0	-45.0	20.4	0.00e+00	0	43	0	15728640	59	4063
2026-01-23 08:12:40.32	108.43	18.88	-51.4	-55.9	4.8	8.26e-01	0	43	104	18874368	74	6027
2026-01-23 08:12:41.32	108.32	19.00	-43.8	-44.7	20.5	0.00e+00	0	43	0	19922944	59	3944
2026-01-23 08:12:42.33	108.22	19.11	-43.8	-44.8	20.5	0.00e+00	0	43	0	23068672	59	3962
2026-01-23 08:12:43.34	108.12	19.23	-43.8	-44.8	20.5	0.00e+00	0	43	0	26214400	59	3971
2026-01-23 08:12:44.35	108.01	19.34	-43.7	-44.7	20.6	0.00e+00	0	43	0	29360128	59	3915
2026-01-23 08:12:45.36	107.91	19.46	-43.6	-44.5	20.8	0.00e+00	0	43	0	32505856	59	3852
2026-01-23 08:12:46.37	107.80	19.58	-43.6	-44.6	20.8	0.00e+00	0	43	0	35651584	59	3881
2026-01-23 08:12:47.37	107.69	19.69	-43.6	-44.5	20.9	0.00e+00	0	43	0	38797312	59	3845
2026-01-23 08:12:48.38	107.58	19.81	-43.5	-44.4	21.0	0.00e+00	0	43	0	41943040	59	3789
2026-01-23 08:12:49.39	107.47	19.93	-43.3	-44.2	21.1	0.00e+00	0	43	0	45088768	58	3937
2026-01-23 08:12:50.40	107.36	20.05	-43.3	-44.2	21.2	0.00e+00	0	43	0	48234496	58	3947
2026-01-23 08:12:51.41	107.25	20.17	-43.1	-44.0	21.3	0.00e+00	0	43	0	51380224	58	3855
2026-01-23 08:12:52.42	107.14	20.29	-43.1	-44.0	21.4	0.00e+00	0	43	0	54525952	58	3851
2026-01-23 08:12:53.43	107.03	20.41	-43.1	-44.0	21.4	0.00e+00	0	43	0	57671680	58	3829
2026-01-23 08:12:54.44	106.91	20.53	-42.7	-43.6	21.7	0.00e+00	0	43	0	60817408	57	3878
2026-01-23 08:12:55.44	106.80	20.65	-42.7	-43.5	21.8	0.00e+00	0	43	0	63963136	57	3841
2026-01-23 08:12:56.45	106.68	20.77	-42.7	-43.6	21.7	0.00e+00	0	43	0	67108864	57	3882
2026-01-23 08:12:57.46	106.57	20.89	-42.6	-43.4	21.9	0.00e+00	0	43	0	70254592	57	3810
2026-01-23 08:12:58.47	106.45	21.01	-42.4	-43.3	22.0	0.00e+00	0	43	0	73400320	56	3960
2026-01-23 08:12:59.48	106.33	21.14	-42.3	-43.1	22.1	0.00e+00	0	43	0	76546048	56	3869
2026-01-23 08:13:00.48	106.21	21.26	-42.3	-43.1	22.0	0.00e+00	0	43	0	79691776	56	3908
2026-01-23 08:13:01.49	106.09	21.38	-42.2	-43.0	22.1	0.00e+00	0	43	0	82837504	56	3849
2026-01-23 08:13:02.50	105.97	21.51	-42.2	-42.9	22.2	0.00e+00	0	43	0	85983232	56	3824
2026-01-23 08:13:03.51	105.85	21.63	-42.1	-42.9	22.2	0.00e+00	0	43	0	89128960	56	3790
2026-01-23 08:13:04.52	105.72	21.76	-42.2	-43.0	22.1	0.00e+00	0	43	0	93323264	56	3856
2026-01-23 08:13:05.53	105.60	21.88	-42.1	-42.9	22.2	0.00e+00	0	42	0	96468992	56	3808
2026-01-23 08:13:06.54	105.47	22.01	-42.1	-42.9	22.3	0.00e+00	0	43	0	99614720	56	3784
2026-01-23 08:13:07.55	105.35	22.13	-42.1	-42.9	22.2	0.00e+00	0	43	0	101711872	56	3820
2026-01-23 08:13:08.56	105.22	22.26	-42.2	-43.0	22.2	0.00e+00	0	43	0	104857600	56	3851
2026-01-23 08:13:09.56	105.09	22.39	-42.1	-42.9	22.2	0.00e+00	0	43	0	108003328	56	3822
2026-01-23 08:13:10.58	104.96	22.52	-42.0	-42.8	22.4	0.00e+00	0	43	0	111149056	56	3753
2026-01-23 08:13:11.58	104.83	22.64	-42.0	-42.8	22.4	0.00e+00	0	42	0	114294784	56	3769
2026-01-23 08:13:12.59	104.70	22.77	-42.1	-42.9	22.3	0.00e+00	0	43	0	117440512	56	3797
2026-01-23 08:13:13.60	104.57	22.90	-42.0	-42.8	22.4	0.00e+00	0	43	0	120586240	56	3748
2026-01-23 08:13:14.61	104.43	23.03	-41.9	-42.7	22.4	0.00e+00	0	43	0	123731968	55	3932
2026-01-23 08:13:15.62	104.30	23.16	-41.8	-42.6	22.5	0.00e+00	0	43	0	127926272	55	3907
2026-01-23 08:13:16.63	104.16	23.29	-41.8	-42.5	22.5	0.00e+00	0	43	0	131072000	55	3862
2026-01-23 08:13:17.64	104.02	23.43	-41.9	-42.6	22.4	0.00e+00	0	43	0	134217728	55	3908
2026-01-23 08:13:18.65	103.88	23.56	-41.8	-42.6	22.5	0.00e+00	0	43	0	137363456	55	3901
2026-01-23 08:13:19.65	103.74	23.69	-41.8	-42.6	22.5	0.00e+00	0	43	0	140509184	55	3880
2026-01-23 08:13:20.66	103.60	23.82	-41.7	-42.5	22.5	0.00e+00	0	43	0	143654912	55	3839
2026-01-23 08:13:21.67	103.46	23.96	-41.6	-42.4	22.7	0.00e+00	0	43	0	146800640	55	3792
2026-01-23 08:13:22.68	103.32	24.09	-41.6	-42.3	22.7	0.00e+00	0	43	0	148897792	55	3774
2026-01-23 08:13:23.69	103.17	24.22	-41.7	-42.5	22.5	0.00e+00	0	43	0	152043520	55	3849
2026-01-23 08:13:24.70	103.02	24.36	-41.7	-42.5	22.5	0.00e+00	0	43	0	155189248	55	3842
2026-01-23 08:13:25.70	102.88	24.49	-41.9	-42.7	22.4	0.00e+00	0	43	0	158334976	55	3921
2026-01-23 08:13:26.71	102.73	24.63	-41.9	-42.7	22.3	0.00e+00	0	43	0	161480704	55	3946
2026-01-23 08:13:27.72	102.58	24.76	-42.0	-42.8	22.3	0.00e+00	0	43	0	165675008	55	3964
2026-01-23 08:13:28.73	102.43	24.90	-42.1	-42.9	22.2	0.00e+00	0	43	0	168820736	55	4027
2026-01-23 08:13:29.74	102.27	25.04	-42.1	-42.9	22.2	0.00e+00	0	43	0	171966464	55	4007
2026-01-23 08:13:30.74	102.12	25.17	-42.0	-42.8	22.3	0.00e+00	0	43	0	175112192	55	3987
2026-01-23 08:13:31.75	101.97	25.31	-42.1	-42.9	22.2	0.00e+00	0	43	0	178257920	55	4024
2026-01-23 08:13:32.76	101.81	25.45	-42.1	-42.9	22.2	0.00e+00	0	43	0	181403648	55	4027
2026-01-23 08:13:33.77	101.65	25.59	-42.2	-43.0	22.2	0.00e+00	0	43	0	184549376	55	4056
2026-01-23 08:13:34.77	101.49	25.73	-42.2	-43.0	22.2	0.00e+00	0	43	0	187695104	55	4061
2026-01-23 08:13:35.78	101.33	25.87	-42.2	-43.1	22.1	0.00e+00	0	43	0	190840832	55	4100
2026-01-23 08:13:36.79	101.17	26.01	-42.3	-43.0	22.1	0.00e+00	0	43	0	193986560	55	4097
2026-01-23 08:13:37.79	101.01	26.15	-42.2	-43.0	22.2	0.00e+00	0	43	0	196083712	55	4060
2026-01-23 08:13:38.80	100.84	26.29	-42.2	-43.0	22.2	0.00e+00	0	43	0	199229440	55	4060
2026-01-23 08:13:39.81	100.67	26.43	-42.3	-43.1	22.1	0.00e+00	0	43	0	202375168	55	4119
2026-01-23 08:13:40.82	100.50	26.58	-42.2	-43.0	22.2	0.00e+00	0	43	0	206569472	55	4077
2026-01-23 08:13:41.83	100.33	26.72	-42.2	-43.0	22.1	0.00e+00	0	43	0	209715200	55	4087
2026-01-23 08:13:42.84	100.16	26.86	-42.3	-43.1	22.0	0.00e+00	0	43	0	212860928	55	4130
2026-01-23 08:13:43.84	99.99	27.00	-42.4	-43.2	21.9	0.00e+00	0	43	0	216006656	55	4192
2026-01-23 08:13:44.85	99.81	27.15	-42.5	-43.3	21.9	0.00e+00	0	43	0	219152384	55	4217
2026-01-23 08:13:45.86	99.64	27.29	-42.6	-43.4	21.8	0.00e+00	0	43	0	222298112	55	4258
2026-01-23 08:13:46.87	99.46	27.44	-42.6	-43.5	21.7	0.00e+00	0	43	0	225443840	55	4302
2026-01-23 08:13:47.87	99.28	27.58	-42.8	-43.6	21.7	0.00e+00	0	43	0	228589568	56	4133
2026-01-23 08:13:48.88	99.10	27.73	-42.7	-43.5	21.8	0.00e+00	0	43	0	231735296	56	4073
2026-01-23 08:13:49.89	98.92	27.88	-42.7	-43.5	21.8	0.00e+00	0	43	0	234881024	56	4072
2026-01-23 08:13:50.90	98.73	28.02	-42.7	-43.5	21.8	0.00e+00	0	43	0	238026752	56	4080
2026-01-23 08:13:51.90	98.55	28.17	-42.8	-43.6	21.7	0.00e+00	0	43	0	241172480	56	4123
2026-01-23 08:13:52.91	98.36	28.32	-42.9	-43.7	21.6	0.00e+00	0	43	0	243269632	56	4168
2026-01-23 08:13:53.92	98.17	28.47	-42.9	-43.8	21.5	0.00e+00	0	43	0	247463936	56	4194
2026-01-23 08:13:54.93	97.98	28.61	-43.1	-43.9	21.3	0.00e+00	0	43	0	250609664	56	4284
2026-01-23 08:13:55.94	97.78	28.76	-43.1	-43.9	21.3	0.00e+00	0	43	0	253755392	56	4290
2026-01-23 08:13:56.94	97.59	28.91	-43.2	-44.1	21.1	0.00e+00	0	43	0	256901120	57	4129
2026-01-23 08:13:57.95	97.39	29.06	-43.3	-44.2	21.1	0.00e+00	0	43	0	260046848	57	4182
2026-01-23 08:13:58.96	97.19	29.21	-43.4	-44.4	21.0	0.00e+00	0	43	0	263192576	57	4244
2026-01-23 08:13:59.97	96.99	29.36	-43.5	-44.4	21.0	0.00e+00	0	43	0	266338304	57	4260
2026-01-23 08:14:00.97	96.79	29.51	-43.5	-44.4	21.0	0.00e+00	0	43	0	269484032	57	4286
2026-01-23 08:14:01.98	96.58	29.66	-43.5	-44.4	21.0	0.00e+00	0	43	0	272629760	57	4268
2026-01-23 08:14:02.99	96.38	29.82	-43.5	-44.4	21.1	0.00e+00	0	43	0	275775488	57	4258
2026-01-23 08:14:04.00	96.17	29.97	-43.5	-44.4	21.0	0.00e+00	0	43	0	278921216	57	4283
2026-01-23 08:14:05.01	95.96	30.12	-43.4	-44.3	21.2	0.00e+00	0	43	0	282066944	57	4206
2026-01-23 08:14:06.02	95.74	30.28	-43.2	-44.1	21.3	0.00e+00	0	43	0	285212672	57	4119
2026-01-23 08:14:07.02	95.53	30.43	-43.2	-44.1	21.2	0.00e+00	0	43	0	288358400	57	4135
2026-01-23 08:14:08.03	95.31	30.58	-43.2	-44.1	21.3	0.00e+00	0	43	0	291504128	57	4120
2026-01-23 08:14:09.04	95.09	30.74	-43.1	-44.0	21.4	0.00e+00	0	43	0	294649856	57	4074
2026-01-23 08:14:10.05	94.87	30.89	-43.1	-44.0	21.4	0.00e+00	0	43	0	297795584	57	4084
2026-01-23 08:14:11.06	94.65	31.04	-43.0	-43.9	21.5	0.00e+00	0	43	0	300941312	57	4008
2026-01-23 08:14:12.07	94.42	31.20	-43.0	-43.8	21.6	0.00e+00	0	43	0	304087040	57	4004
2026-01-23 08:14:13.07	94.20	31.35	-43.0	-43.9	21.5	0.00e+00	0	43	0	307232768	57	4030
2026-01-23 08:14:14.08	93.97	31.51	-43.0	-43.9	21.6	0.00e+00	0	43	0	310378496	57	4019
2026-01-23 08:14:15.09	93.73	31.67	-43.0	-43.8	21.6	0.00e+00	0	43	0	313524224	57	3995
2026-01-23 08:14:16.10	93.50	31.82	-42.9	-43.7	21.7	0.00e+00	0	43	0	316669952	57	3952
2026-01-23 08:14:17.11	93.26	31.98	-42.8	-43.6	21.7	0.00e+00	0	43	0	319815680	57	3906
2026-01-23 08:14:18.11	93.02	32.13	-42.9	-43.7	21.7	0.00e+00	0	43	0	322961408	57	3937
2026-01-23 08:14:19.12	92.78	32.29	-42.8	-43.6	21.7	0.00e+00	0	43	0	326107136	57	3891
2026-01-23 08:14:20.13	92.54	32.45	-42.7	-43.6	21.8	0.00e+00	0	43	0	329252864	57	3876
2026-01-23 08:14:21.14	92.29	32.61	-42.7	-43.6	21.8	0.00e+00	0	43	0	332398592	57	3881
2026-01-23 08:14:22.15	92.04	32.76	-42.9	-43.7	21.7	0.00e+00	0	43	0	335544320	57	3938
2026-01-23 08:14:23.16	91.79	32.92	-42.8	-43.6	21.8	0.00e+00	0	43	0	338690048	57	3907
2026-01-23 08:14:24.17	91.54	33.08	-42.8	-43.7	21.7	0.00e+00	0	43	0	341835776	57	3926
2026-01-23 08:14:25.18	91.28	33.24	-42.8	-43.6	21.7	0.00e+00	0	43	0	344981504	57	3902
2026-01-23 08:14:26.18	91.02	33.40	-42.8	-43.6	21.7	0.00e+00	0	43	0	348127232	57	3902
2026-01-23 08:14:27.19	90.76	33.56	-42.8	-43.7	21.7	0.00e+00	0	43	0	351272960	57	3919
2026-01-23 08:14:28.20	90.50	33.71	-42.7	-43.6	21.8	0.00e+00	0	43	0	354418688	57	3876
2026-01-23 08:14:29.21	90.23	33.87	-42.9	-43.8	21.6	0.00e+00	0	43	0	357564416	57	3972
2026-01-23 08:14:30.22	89.96	34.03	-43.2	-44.0	21.4	0.00e+00	0	43	0	360710144	57	4093
2026-01-23 08:14:31.22	89.69	34.19	-43.4	-44.3	21.2	0.00e+00	0	43	0	363855872	57	4198
2026-01-23 08:14:32.23	89.42	34.35	-43.6	-44.5	21.0	0.00e+00	0	43	0	367001600	57	4314
2026-01-23 08:14:33.24	89.14	34.51	-43.8	-44.8	20.8	0.00e+00	0	43	0	370147328	58	4195
2026-01-23 08:14:34.25	88.86	34.67	-44.0	-45.0	20.6	0.00e+00	0	43	0	373293056	58	4298
2026-01-23 08:14:35.25	88.58	34.83	-44.3	-45.2	20.4	0.00e+00	0	43	0	376438784	59	4190
2026-01-23 08:14:36.26	88.30	34.99	-44.1	-45.1	20.6	0.00e+00	0	43	0	379584512	59	4113
2026-01-23 08:14:37.27	88.01	35.14	-44.1	-45.1	20.6	0.00e+00	0	43	0	382730240	59	4120
2026-01-23 08:14:38.28	87.72	35.30	-44.1	-45.1	20.6	0.00e+00	0	43	0	385875968	59	4114
2026-01-23 08:14:39.29	87.42	35.46	-44.2	-45.2	20.5	0.00e+00	0	43	0	389021696	59	4164
2026-01-23 08:14:40.29	87.13	35.62	-44.2	-45.1	20.6	0.00e+00	0	43	0	392167424	59	4120
2026-01-23 08:14:41.30	86.83	35.78	-44.2	-45.1	20.5	0.00e+00	0	43	0	395313152	59	4141
2026-01-23 08:14:42.31	86.53	35.94	-44.2	-45.2	20.5	0.00e+00	0	43	0	398458880	59	4170
2026-01-23 08:14:43.31	86.22	36.10	-44.1	-45.0	20.6	0.00e+00	0	43	0	401604608	59	4093
2026-01-23 08:14:44.32	85.91	36.25	-44.0	-44.9	20.7	0.00e+00	0	43	0	404750336	59	4016
2026-01-23 08:14:45.33	85.60	36.41	-44.0	-45.0	20.7	0.00e+00	0	43	0	407896064	59	4053
2026-01-23 08:14:46.34	85.29	36.57	-43.9	-44.8	20.7	0.00e+00	0	43	0	411041792	59	4001
2026-01-23 08:14:47.35	84.97	36.73	-44.1	-45.0	20.5	0.00e+00	0	43	0	414187520	59	4073
2026-01-23 08:14:48.35	84.65	36.89	-44.2	-45.2	20.4	0.00e+00	0	43	0	417333248	59	4146
2026-01-23 08:14:49.36	84.33	37.04	-44.4	-45.4	20.2	0.00e+00	0	43	0	420478976	59	4266
2026-01-23 08:14:50.37	84.00	37.20	-44.6	-45.6	20.0	0.00e+00	0	43	0	423624704	59	4389
2026-01-23 08:14:51.38	83.67	37.36	-44.6	-45.5	20.1	0.00e+00	0	43	0	426770432	59	4338
2026-01-23 08:14:52.39	83.33	37.51	-44.7	-45.7	19.9	0.00e+00	0	43	0	429916160	59	4399
2026-01-23 08:14:53.40	83.00	37.67	-44.7	-45.7	19.9	0.00e+00	0	43	0	433061888	59	4411
2026-01-23 08:14:54.41	82.66	37.82	-44.7	-45.7	19.9	0.00e+00	0	43	0	436207616	59	4439
2026-01-23 08:14:55.42	82.31	37.98	-44.6	-45.6	19.8	0.00e+00	0	43	0	439353344	60	4109
2026-01-23 08:14:56.43	81.97	38.13	-44.5	-45.5	19.9	0.00e+00	0	43	0	442499072	60	4058
2026-01-23 08:14:57.44	81.62	38.29	-44.4	-45.4	19.9	0.00e+00	0	43	0	445644800	60	4040
2026-01-23 08:14:58.44	81.26	38.44	-44.5	-45.5	19.9	0.00e+00	0	43	0	448790528	60	4058
2026-01-23 08:14:59.45	80.91	38.59	-44.7	-45.8	19.6	0.00e+00	0	43	0	451936256	60	4197
2026-01-23 08:15:00.46	80.55	38.75	-44.8	-45.8	19.6	0.00e+00	0	43	0	455081984	60	4240
2026-01-23 08:15:01.47	80.18	38.90	-44.6	-45.7	19.7	0.00e+00	0	43	0	458227712	60	4156
2026-01-23 08:15:02.48	79.82	39.05	-44.6	-45.6	19.8	0.00e+00	0	43	0	461373440	60	4141
2026-01-23 08:15:03.48	79.45	39.20	-44.5	-45.5	19.9	0.00e+00	0	43	0	464519168	60	4065
2026-01-23 08:15:04.49	79.08	39.35	-44.5	-45.5	19.9	0.00e+00	0	43	0	467664896	60	4079
2026-01-23 08:15:05.50	78.70	39.50	-44.4	-45.4	20.0	0.00e+00	0	43	0	470810624	60	4037
2026-01-23 08:15:06.51	78.32	39.64	-44.4	-45.3	20.1	0.00e+00	0	43	0	473956352	60	3995
2026-01-23 08:15:07.52	77.93	39.79	-44.4	-45.4	20.0	0.00e+00	0	43	0	477102080	60	4028
2026-01-23 08:15:08.53	77.54	39.94	-44.4	-45.3	20.0	0.00e+00	0	43	0	480247808	60	4000
2026-01-23 08:15:09.53	77.16	40.08	-44.4	-45.3	20.1	0.00e+00	0	43	0	483393536	60	3993
2026-01-23 08:15:10.54	76.76	40.23	-44.3	-45.3	20.1	0.00e+00	0	43	0	486539264	60	3969
2026-01-23 08:15:11.55	76.36	40.37	-44.5	-45.5	19.7	0.00e+00	0	43	0	489684992	60	4075
2026-01-23 08:15:12.56	75.96	40.51	-44.8	-45.8	19.4	0.00e+00	0	43	0	492830720	60	4232
2026-01-23 08:15:13.57	75.56	40.65	-45.2	-46.2	19.2	0.00e+00	0	43	0	495976448	60	4435
2026-01-23 08:15:14.58	75.15	40.80	-45.1	-46.2	19.3	0.00e+00	0	43	0	499122176	60	4424
2026-01-23 08:15:15.59	74.73	40.93	-45.1	-46.1	19.2	0.00e+00	0	43	0	502267904	60	4391
2026-01-23 08:15:16.60	74.32	41.07	-45.0	-46.1	19.3	0.00e+00	0	43	0	505413632	60	4359
2026-01-23 08:15:17.60	73.90	41.21	-45.1	-46.2	19.2	0.00e+00	0	43	0	508559360	60	4421
2026-01-23 08:15:18.61	73.48	41.34	-45.2	-46.2	19.2	0.00e+00	0	43	0	511705088	60	4440
2026-01-23 08:15:19.62	73.05	41.48	-45.3	-46.4	19.1	0.00e+00	0	43	0	514850816	61	4252
2026-01-23 08:15:20.63	72.62	41.61	-45.2	-46.3	19.2	0.00e+00	0	43	0	517996544	61	4214
2026-01-23 08:15:21.64	72.19	41.74	-45.1	-46.1	19.4	0.00e+00	0	43	0	521142272	61	4137
2026-01-23 08:15:22.64	71.75	41.87	-45.2	-46.3	19.3	0.00e+00	0	43	0	524288000	61	4233
2026-01-23 08:15:23.65	71.31	42.00	-45.4	-46.5	19.1	0.00e+00	0	43	0	527433728	61	4313
2026-01-23 08:15:24.66	70.87	42.13	-45.4	-46.6	19.0	0.00e+00	0	43	0	530579456	61	4344
2026-01-23 08:15:25.67	70.42	42.25	-45.4	-46.6	19.0	0.00e+00	0	43	0	533725184	61	4351
2026-01-23 08:15:26.67	69.97	42.38	-45.0	-46.1	19.4	0.00e+00	0	43	0	536870912	61	4112
2026-01-23 08:15:27.68	69.52	42.50	-44.9	-46.0	19.5	0.00e+00	0	43	0	540016640	61	4067
2026-01-23 08:15:28.69	69.06	42.62	-44.6	-45.6	19.9	0.00e+00	0	43	0	543162368	61	3894
2026-01-23 08:15:29.70	68.60	42.74	-44.6	-45.6	19.9	0.00e+00	0	43	0	546308096	61	3906
2026-01-23 08:15:30.71	68.13	42.86	-44.7	-45.7	19.8	0.00e+00	0	43	0	549453824	61	3953
2026-01-23 08:15:31.72	67.66	42.97	-44.6	-45.6	19.9	0.00e+00	0	43	0	552599552	61	3871
2026-01-23 08:15:32.73	67.19	43.09	-44.5	-45.5	20.0	0.00e+00	0	43	0	555745280	60	4062
2026-01-23 08:15:33.73	66.72	43.20	-44.7	-45.7	19.8	0.00e+00	0	43	0	558891008	60	4166
2026-01-23 08:15:34.74	66.24	43.31	-44.7	-45.7	19.8	0.00e+00	0	43	0	562036736	60	4155
2026-01-23 08:15:35.75	65.76	43.42	-44.8	-45.9	19.6	0.00e+00	0	43	0	565182464	60	4245
2026-01-23 08:15:36.76	65.27	43.52	-44.8	-45.8	19.6	0.00e+00	0	43	0	568328192	60	4221
2026-01-23 08:15:37.77	64.78	43.63	-44.7	-45.7	19.6	0.00e+00	0	43	0	571473920	60	4173
2026-01-23 08:15:38.78	64.29	43.73	-45.0	-46.0	19.3	0.00e+00	0	43	0	574619648	60	4336
2026-01-23 08:15:39.78	63.80	43.83	-45.4	-46.6	18.9	0.00e+00	0	43	0	577765376	61	4352
2026-01-23 08:15:40.80	63.30	43.93	-45.2	-46.4	19.1	0.00e+00	0	43	0	580911104	61	4245
2026-01-23 08:15:41.80	62.80	44.02	-45.2	-46.3	19.2	0.00e+00	0	43	0	584056832	61	4209
2026-01-23 08:15:42.81	62.30	44.11	-45.4	-46.5	19.0	0.00e+00	0	43	0	587202560	61	4321
2026-01-23 08:15:43.82	61.79	44.20	-45.5	-46.7	18.9	0.00e+00	0	43	0	590348288	61	4407
2026-01-23 08:15:44.83	61.28	44.29	-45.6	-46.7	18.8	0.00e+00	0	43	0	593494016	61	4426
2026-01-23 08:15:45.84	60.77	44.38	-45.5	-46.6	18.9	0.00e+00	0	43	0	596639744	61	4371
2026-01-23 08:15:46.84	60.26	44.46	-45.3	-46.5	19.1	0.00e+00	0	43	0	599785472	61	4304
2026-01-23 08:15:47.85	59.74	44.54	-45.1	-46.2	19.3	0.00e+00	0	43	0	602931200	61	4161
2026-01-23 08:15:48.86	59.22	44.62	-44.9	-46.0	19.6	0.00e+00	0	43	0	606076928	61	4078
2026-01-23 08:15:49.87	58.70	44.70	-44.9	-46.0	19.5	0.00e+00	0	43	0	609222656	61	4061
2026-01-23 08:15:50.88	58.17	44.77	-45.0	-46.0	19.4	0.00e+00	0	43	0	612368384	61	4086
2026-01-23 08:15:51.89	57.64	44.85	-44.9	-46.0	19.4	0.00e+00	0	43	0	615514112	61	4079
2026-01-23 08:15:52.90	57.11	44.91	-44.8	-45.9	19.6	0.00e+00	0	43	0	618659840	61	4009
2026-01-23 08:15:53.90	56.58	44.98	-45.0	-46.0	19.5	0.00e+00	0	43	0	621805568	61	4082
2026-01-23 08:15:54.91	56.05	45.04	-45.1	-46.2	19.3	0.00e+00	0	43	0	624951296	61	4169
2026-01-23 08:15:55.92	55.51	45.10	-45.0	-46.0	19.5	0.00e+00	0	43	0	628097024	61	4098
2026-01-23 08:15:56.93	54.97	45.16	-45.2	-46.3	19.3	0.00e+00	0	43	0	631242752	61	4219
2026-01-23 08:15:57.94	54.43	45.22	-45.5	-46.7	18.9	0.00e+00	0	43	0	634388480	61	4399
2026-01-23 08:15:58.94	53.89	45.27	-45.4	-46.5	19.0	0.00e+00	0	43	0	637534208	61	4316
2026-01-23 08:15:59.95	53.35	45.32	-45.5	-46.6	19.0	0.00e+00	0	43	0	640679936	61	4368
2026-01-23 08:16:00.96	52.80	45.37	-45.3	-46.5	19.1	0.00e+00	0	43	0	643825664	61	4294
2026-01-23 08:16:01.97	52.26	45.41	-45.1	-46.2	19.3	0.00e+00	0	43	0	646971392	61	4150
2026-01-23 08:16:02.98	51.71	45.45	-45.0	-46.0	19.4	0.00e+00	0	43	0	650117120	61	4070
2026-01-23 08:16:03.99	51.16	45.49	-44.6	-45.6	19.7	0.00e+00	0	43	0	653262848	61	3894
2026-01-23 08:16:04.99	50.61	45.53	-44.4	-45.4	20.0	0.00e+00	0	42	0	656408576	60	4018
2026-01-23 08:16:06.01	50.05	45.56	-44.5	-45.5	19.9	0.00e+00	0	43	0	659554304	60	4074
2026-01-23 08:16:07.02	49.50	45.59	-44.4	-45.3	20.1	0.00e+00	0	43	0	662700032	60	4000
2026-01-23 08:16:08.02	48.95	45.61	-44.5	-45.5	20.0	0.00e+00	0	43	0	665845760	60	4058
2026-01-23 08:16:09.03	48.39	45.64	-44.8	-45.8	19.7	0.00e+00	0	43	0	668991488	60	4212
2026-01-23 08:16:10.04	47.83	45.66	-44.8	-45.9	19.7	0.00e+00	0	43	0	672137216	60	4249
2026-01-23 08:16:11.05	47.28	45.68	-44.8	-45.8	19.7	0.00e+00	0	43	0	675282944	60	4218
2026-01-23 08:16:12.06	46.72	45.69	-44.8	-45.8	19.7	0.00e+00	0	43	0	678428672	60	4218
2026-01-23 08:16:13.07	46.16	45.70	-44.9	-45.9	19.6	0.00e+00	0	43	0	681574400	60	4289
2026-01-23 08:16:14.08	45.60	45.71	-45.3	-46.4	19.2	0.00e+00	0	43	0	684720128	61	4250
2026-01-23 08:16:15.08	45.05	45.72	-45.6	-46.8	18.8	0.00e+00	0	43	0	687865856	61	4459
2026-01-23 08:16:16.09	44.49	45.72	-45.5	-46.7	18.8	0.00e+00	0	43	0	691011584	61	4405
2026-01-23 08:16:17.10	43.93	45.72	-45.4	-46.5	18.9	0.00e+00	0	43	0	694157312	61	4316
2026-01-23 08:16:18.11	43.37	45.72	-45.2	-46.3	19.3	0.00e+00	0	43	0	697303040	61	4198
2026-01-23 08:16:19.11	42.82	45.71	-45.0	-46.1	19.4	0.00e+00	0	43	0	701497344	61	4118
2026-01-23 08:16:20.12	42.26	45.70	-45.2	-46.3	19.2	0.00e+00	0	43	0	703594496	61	4225
2026-01-23 08:16:21.13	41.70	45.69	-45.0	-46.1	19.4	0.00e+00	0	43	0	706740224	61	4120
2026-01-23 08:16:22.14	41.14	45.67	-45.0	-46.1	19.4	0.00e+00	0	43	0	709885952	61	4118
2026-01-23 08:16:23.15	40.58	45.65	-44.8	-45.8	19.7	0.00e+00	0	43	0	713031680	61	3967
2026-01-23 08:16:24.16	40.03	45.63	-44.7	-45.7	19.9	0.00e+00	0	43	0	716177408	61	3919
2026-01-23 08:16:25.16	39.48	45.61	-44.6	-45.6	19.7	0.00e+00	0	43	0	719323136	61	3912
2026-01-23 08:16:26.17	38.92	45.58	-44.7	-45.7	19.8	0.00e+00	0	43	0	722468864	61	3947
2026-01-23 08:16:27.18	38.37	45.55	-44.5	-45.5	20.1	0.00e+00	0	43	0	725614592	60	4053
2026-01-23 08:16:28.19	37.82	45.52	-44.5	-45.5	20.0	0.00e+00	0	43	0	728760320	60	4065
2026-01-23 08:16:29.19	37.27	45.48	-44.7	-45.8	19.8	0.00e+00	0	43	0	731906048	60	4196
2026-01-23 08:16:30.20	36.72	45.44	-45.0	-46.0	19.5	0.00e+00	0	43	0	735051776	60	4332
2026-01-23 08:16:31.21	36.17	45.40	-45.3	-46.4	19.1	0.00e+00	0	43	0	738197504	61	4275
2026-01-23 08:16:32.22	35.62	45.36	-45.1	-46.2	19.3	0.00e+00	0	43	0	742391808	61	4181
2026-01-23 08:16:33.23	35.08	45.31	-44.9	-46.0	19.6	0.00e+00	0	43	0	745537536	61	4054
2026-01-23 08:16:34.24	34.53	45.26	-44.6	-45.6	19.8	0.00e+00	0	43	0	748683264	61	3912
2026-01-23 08:16:35.24	34.00	45.21	-44.5	-45.5	19.8	0.00e+00	0	43	0	750780416	60	4061
2026-01-23 08:16:36.25	33.46	45.15	-45.1	-46.1	19.4	0.00e+00	0	43	0	753926144	60	4377
2026-01-23 08:16:37.26	32.92	45.09	-45.4	-46.5	19.0	0.00e+00	0	43	0	757071872	61	4330
2026-01-23 08:16:38.27	32.38	45.03	-45.3	-46.4	19.2	0.00e+00	0	43	0	760217600	61	4271
2026-01-23 08:16:39.28	31.85	44.97	-45.3	-46.3	19.3	0.00e+00	0	43	0	763363328	61	4237
2026-01-23 08:16:40.29	31.32	44.90	-45.3	-46.4	19.2	0.00e+00	0	43	0	766509056	61	4244
2026-01-23 08:16:41.30	30.79	44.83	-45.2	-46.3	19.3	0.00e+00	0	43	0	769654784	61	4208
2026-01-23 08:16:42.31	30.26	44.76	-45.3	-46.5	19.1	0.00e+00	0	43	0	772800512	61	4293
2026-01-23 08:16:43.32	29.73	44.68	-45.2	-46.3	19.3	0.00e+00	0	43	0	776994816	61	4220
2026-01-23 08:16:44.32	29.22	44.61	-45.0	-46.0	19.6	0.00e+00	0	43	0	780140544	61	4070
2026-01-23 08:16:45.33	28.70	44.53	-44.6	-45.6	20.0	0.00e+00	0	43	0	783286272	61	3890
2026-01-23 08:16:46.34	28.18	44.45	-44.6	-45.5	20.0	0.00e+00	0	43	0	786432000	61	3863
2026-01-23 08:16:47.35	27.67	44.36	-44.8	-45.8	19.7	0.00e+00	0	43	0	789577728	61	3993
2026-01-23 08:16:48.36	27.16	44.27	-45.1	-46.2	19.4	0.00e+00	0	43	0	792723456	61	4169
2026-01-23 08:16:49.37	26.65	44.18	-45.4	-46.5	19.2	0.00e+00	0	43	0	795869184	61	4311
2026-01-23 08:16:50.38	26.14	44.09	-45.5	-46.7	18.8	0.00e+00	0	43	0	797966336	61	4409
2026-01-23 08:16:51.38	25.64	44.00	-45.3	-46.4	18.9	0.00e+00	0	43	0	801112064	61	4268
2026-01-23 08:16:52.40	25.14	43.90	-44.7	-45.7	19.7	0.00e+00	0	43	0	804257792	61	3951
2026-01-23 08:16:53.40	24.65	43.81	-44.3	-45.3	20.2	0.00e+00	0	43	0	807403520	60	3983
2026-01-23 08:16:54.41	24.15	43.71	-44.2	-45.1	20.6	0.00e+00	0	43	0	810549248	59	4129
2026-01-23 08:16:55.42	23.66	43.60	-44.7	-45.6	20.1	0.00e+00	0	43	0	814743552	59	4391
2026-01-23 08:16:56.43	23.17	43.50	-45.3	-46.4	19.2	0.00e+00	0	43	0	817889280	61	4270
2026-01-23 08:16:57.44	22.69	43.39	-46.4	-47.8	17.7	0.00e+00	0	43	0	821035008	63	4462
2026-01-23 08:16:58.44	22.21	43.29	-46.6	-48.1	17.3	0.00e+00	0	43	0	824180736	64	4350
2026-01-23 08:16:59.45	21.74	43.18	-46.1	-47.4	18.1	0.00e+00	0	43	0	827326464	64	4015
2026-01-23 08:17:00.46	21.26	43.06	-45.2	-46.3	19.3	0.00e+00	0	43	0	830472192	62	3959
2026-01-23 08:17:01.47	20.79	42.95	-44.8	-45.8	19.7	0.00e+00	0	43	0	833617920	61	3978
2026-01-23 08:17:02.48	20.32	42.83	-44.8	-45.8	19.8	0.00e+00	0	43	0	836763648	61	3961
2026-01-23 08:17:03.49	19.86	42.72	-45.6	-46.8	18.8	0.00e+00	0	43	0	839909376	61	4462
2026-01-23 08:17:04.49	19.40	42.60	-46.1	-47.3	18.4	0.00e+00	0	43	0	843055104	62	4464
2026-01-23 08:17:05.50	18.95	42.48	-45.9	-47.1	18.5	0.00e+00	0	43	0	845152256	63	4138
2026-01-23 08:17:06.51	18.49	42.35	-45.1	-46.2	19.4	0.00e+00	0	43	0	848297984	62	3926
2026-01-23 08:17:07.52	18.04	42.23	-44.5	-45.5	20.0	0.00e+00	0	43	0	852492288	61	3856
2026-01-23 08:17:08.53	17.59	42.10	-44.4	-45.4	20.1	0.00e+00	0	43	0	855638016	60	4016
2026-01-23 08:17:09.54	17.15	41.98	-44.7	-45.7	19.8	0.00e+00	0	43	0	858783744	60	4182
2026-01-23 08:17:10.55	16.71	41.85	-45.5	-46.7	19.0	0.00e+00	0	43	0	861929472	61	4419
2026-01-23 08:17:11.55	16.28	41.72	-45.9	-47.1	18.5	0.00e+00	0	43	0	865075200	62	4359
2026-01-23 08:17:12.56	15.85	41.59	-45.6	-46.7	18.3	0.00e+00	0	43	0	868220928	62	4182
2026-01-23 08:17:13.57	15.42	41.45	-45.2	-46.3	18.7	0.00e+00	0	43	0	871366656	62	3992
2026-01-23 08:17:14.58	14.99	41.32	-45.3	-46.3	19.0	0.00e+00	0	43	0	874512384	62	3994
2026-01-23 08:17:15.59	14.57	41.18	-44.2	-45.1	20.2	0.00e+00	0	43	0	877658112	60	3892
2026-01-23 08:17:16.60	14.15	41.05	-44.5	-45.4	20.3	0.00e+00	0	43	0	880803840	59	4276
2026-01-23 08:17:17.60	13.74	40.91	-44.9	-46.0	19.3	0.00e+00	0	43	0	883949568	60	4315
2026-01-23 08:17:18.62	13.33	40.77	-46.6	-48.0	17.6	0.00e+00	0	43	0	887095296	63	4572
2026-01-23 08:17:19.63	12.92	40.63	-47.2	-48.8	16.8	0.00e+00	0	43	0	890241024	65	4480
2026-01-23 08:17:20.63	12.52	40.49	-46.6	-48.0	17.1	0.00e+00	0	43	0	893386752	65	4060
2026-01-23 08:17:21.64	12.12	40.35	-45.1	-46.2	18.7	0.00e+00	0	43	0	896532480	62	3953
2026-01-23 08:17:22.65	11.72	40.20	-44.3	-45.2	20.0	0.00e+00	0	43	0	899678208	60	3955
2026-01-23 08:17:23.66	11.33	40.06	-44.2	-45.1	20.2	0.00e+00	0	43	0	902823936	60	3894
2026-01-23 08:17:24.67	10.94	39.91	-44.1	-45.0	20.6	0.00e+00	0	43	0	905969664	59	4062
2026-01-23 08:17:25.68	10.55	39.77	-44.0	-44.9	20.5	0.00e+00	0	43	0	909115392	59	4027
2026-01-23 08:17:26.68	10.17	39.62	-44.7	-45.7	19.9	0.00e+00	0	43	0	912261120	59	4418
2026-01-23 08:17:27.69	9.79	39.47	-44.8	-45.9	19.6	0.00e+00	0	43	0	915406848	60	4253
2026-01-23 08:17:28.70	9.42	39.32	-44.6	-45.7	19.7	0.00e+00	0	43	0	918552576	60	4157
2026-01-23 08:17:29.71	9.04	39.17	-44.2	-45.1	20.0	0.00e+00	0	43	0	921698304	60	3905
2026-01-23 08:17:30.72	8.67	39.02	-44.1	-45.0	20.5	0.00e+00	0	43	0	924844032	59	4068
2026-01-23 08:17:31.73	8.31	38.87	-43.6	-44.5	21.1	0.00e+00	0	43	0	927989760	59	3850
2026-01-23 08:17:32.74	7.95	38.72	-43.8	-44.7	21.0	0.00e+00	0	43	0	931135488	59	3923
2026-01-23 08:17:33.75	7.59	38.57	-44.3	-45.3	20.2	0.00e+00	0	43	0	934281216	59	4202
2026-01-23 08:17:34.76	7.23	38.42	-44.8	-45.8	19.5	0.00e+00	0	43	0	937426944	60	4212
2026-01-23 08:17:35.77	6.88	38.26	-45.3	-46.4	19.1	0.00e+00	0	43	0	940572672	61	4284
2026-01-23 08:17:36.78	6.53	38.11	-45.1	-46.2	19.1	0.00e+00	0	43	0	943718400	61	4176
2026-01-23 08:17:37.79	6.18	37.95	-44.3	-45.3	19.7	0.00e+00	0	43	0	946864128	60	3963
2026-01-23 08:17:38.80	5.84	37.80	-44.1	-45.0	20.4	0.00e+00	0	43	0	950009856	59	4090
2026-01-23 08:17:39.81	5.50	37.64	-43.8	-44.7	21.0	0.00e+00	0	43	0	953155584	59	3921
2026-01-23 08:17:40.82	5.17	37.49	-43.4	-44.2	21.3	0.00e+00	0	43	0	956301312	58	3955
2026-01-23 08:17:41.82	4.84	37.33	-43.6	-44.4	21.2	0.00e+00	0	43	0	959447040	58	4046
2026-01-23 08:17:42.83	4.51	37.18	-44.0	-44.9	20.7	0.00e+00	0	43	0	962592768	58	4278
2026-01-23 08:17:43.84	4.18	37.02	-44.5	-45.5	20.3	0.00e+00	0	43	0	965738496	59	4325
2026-01-23 08:17:44.85	3.86	36.86	-44.6	-45.6	19.9	0.00e+00	0	43	0	968884224	60	4115
2026-01-23 08:17:45.86	3.54	36.71	-44.8	-45.8	19.7	0.00e+00	0	43	0	972029952	60	4236
2026-01-23 08:17:46.87	3.22	36.55	-44.6	-45.6	19.6	0.00e+00	0	43	0	975175680	60	4137
2026-01-23 08:17:47.87	2.91	36.39	-44.2	-45.1	20.0	0.00e+00	0	43	0	978321408	60	3913
2026-01-23 08:17:48.88	2.60	36.23	-43.8	-44.8	20.7	0.00e+00	0	43	0	981467136	59	3959
2026-01-23 08:17:49.89	2.29	36.08	-43.7	-44.6	21.0	0.00e+00	0	43	0	984612864	59	3869
2026-01-23 08:17:50.90	1.99	35.92	-43.7	-44.5	21.0	0.00e+00	0	43	0	987758592	59	3866
2026-01-23 08:17:51.91	1.69	35.76	-44.0	-44.9	20.7	0.00e+00	0	43	0	990904320	59	4033
2026-01-23 08:17:52.92	1.39	35.60	-44.4	-45.4	20.3	0.00e+00	0	43	0	994050048	59	4284
2026-01-23 08:17:53.93	1.09	35.44	-44.7	-45.7	20.0	0.00e+00	0	43	0	997195776	59	4434
2026-01-23 08:17:54.94	0.80	35.28	-44.6	-45.6	19.9	0.00e+00	0	43	0	1000341504	59	4345
2026-01-23 08:17:55.95	0.51	35.12	-44.5	-45.5	20.1	0.00e+00	0	43	0	1003487232	59	4303
2026-01-23 08:17:56.96	0.22	34.96	-44.5	-45.4	20.2	0.00e+00	0	43	0	1006632960	59	4287
2026-01-23 08:17:57.96	359.94	34.81	-44.3	-45.3	20.4	0.00e+00	0	43	0	1009778688	59	4209
2026-01-23 08:17:58.97	359.66	34.65	-43.8	-44.7	20.9	0.00e+00	0	43	0	1012924416	59	3957
2026-01-23 08:17:59.98	359.38	34.49	-43.8	-44.7	20.9	0.00e+00	0	43	0	1016070144	59	3941
2026-01-23 08:18:00.99	359.11	34.33	-44.0	-45.0	20.7	0.00e+00	0	43	0	1019215872	59	4058
2026-01-23 08:18:02.00	358.83	34.17	-44.1	-45.1	20.6	0.00e+00	0	43	0	1022361600	59	4104
2026-01-23 08:18:03.01	358.56	34.01	-44.0	-45.0	20.7	0.00e+00	0	43	0	1025507328	59	4065
2026-01-23 08:18:04.01	358.30	33.86	-44.1	-45.0	20.6	0.00e+00	0	43	0	1028653056	59	4086
2026-01-23 08:18:05.02	358.03	33.70	-44.0	-45.0	20.7	0.00e+00	0	43	0	1031798784	59	4053
2026-01-23 08:18:06.03	357.77	33.54	-43.8	-44.7	20.9	0.00e+00	0	43	0	1034944512	59	3941
2026-01-23 08:18:07.04	357.51	33.38	-43.6	-44.5	21.0	0.00e+00	0	43	0	1038090240	59	3838
2026-01-23 08:18:08.05	357.25	33.22	-43.3	-44.1	21.3	0.00e+00	0	43	0	1041235968	58	3907
2026-01-23 08:18:09.05	357.00	33.07	-42.8	-43.6	21.8	0.00e+00	0	43	0	1044381696	57	3897
2026-01-23 08:18:10.06	356.75	32.91	-42.8	-43.6	21.8	0.00e+00	0	43	0	1047527424	57	3871
2026-01-23 08:18:11.07	356.50	32.75	-42.9	-43.7	21.8	0.00e+00	0	43	0	1050673152	57	3923
2026-01-23 08:18:12.08	356.25	32.59	-43.0	-43.8	21.6	0.00e+00	0	43	0	1053818880	57	4004
2026-01-23 08:18:13.09	356.00	32.44	-43.4	-44.3	21.2	0.00e+00	0	43	0	1056964608	57	4229
2026-01-23 08:18:14.09	355.76	32.28	-43.7	-44.6	21.0	0.00e+00	0	43	0	1060110336	57	4384
2026-01-23 08:18:15.10	355.52	32.12	-43.8	-44.7	20.9	0.00e+00	0	43	0	1063256064	58	4189
2026-01-23 08:18:16.11	355.28	31.97	-43.7	-44.7	20.9	0.00e+00	0	43	0	1066401792	58	4150
2026-01-23 08:18:17.12	355.05	31.81	-43.6	-44.6	20.9	0.00e+00	0	43	0	1069547520	58	4103
2026-01-23 08:18:18.13	354.81	31.66	-43.3	-44.2	21.3	0.00e+00	0	43	0	1072693248	58	3934
2026-01-23 08:18:19.14	354.58	31.50	-43.2	-44.1	21.4	0.00e+00	0	43	0	1075838976	58	3870
2026-01-23 08:18:20.14	354.35	31.35	-43.2	-44.0	21.4	0.00e+00	0	43	0	1078984704	58	3863
2026-01-23 08:18:21.15	354.13	31.19	-43.1	-44.0	21.5	0.00e+00	0	43	0	1082130432	58	3831
2026-01-23 08:18:22.16	353.90	31.04	-43.1	-44.0	21.5	0.00e+00	0	43	0	1085276160	58	3833
2026-01-23 08:18:23.17	353.68	30.88	-43.1	-43.9	21.5	0.00e+00	0	43	0	1088421888	58	3821
2026-01-23 08:18:24.18	353.46	30.73	-43.0	-43.9	21.5	0.00e+00	0	43	0	1091567616	58	3785
2026-01-23 08:18:25.18	353.24	30.58	-43.0	-43.9	21.6	0.00e+00	0	43	0	1094713344	58	3792
2026-01-23 08:18:26.19	353.03	30.42	-43.1	-44.0	21.5	0.00e+00	0	43	0	1097859072	58	3830
2026-01-23 08:18:27.20	352.81	30.27	-42.9	-43.8	21.7	0.00e+00	0	43	0	1101004800	57	3964
2026-01-23 08:18:28.21	352.60	30.12	-43.0	-43.9	21.6	0.00e+00	0	43	0	1104150528	57	4009
2026-01-23 08:18:29.22	352.39	29.96	-43.0	-43.9	21.6	0.00e+00	0	43	0	1107296256	57	4005
2026-01-23 08:18:30.23	352.18	29.81	-42.9	-43.7	21.7	0.00e+00	0	43	0	1110441984	57	3952
2026-01-23 08:18:31.24	351.98	29.66	-42.9	-43.8	21.7	0.00e+00	0	43	0	1113587712	57	3977
2026-01-23 08:18:32.24	351.77	29.51	-42.9	-43.8	21.7	0.00e+00	0	43	0	1116733440	57	3987
2026-01-23 08:18:33.25	351.57	29.36	-43.0	-43.9	21.6	0.00e+00	0	43	0	1119879168	57	4034
2026-01-23 08:18:34.26	351.37	29.21	-42.8	-43.7	21.8	0.00e+00	0	43	0	1123024896	57	3941
2026-01-23 08:18:35.27	351.17	29.06	-42.8	-43.7	21.8	0.00e+00	0	43	0	1126170624	57	3919
2026-01-23 08:18:36.27	350.98	28.91	-42.8	-43.6	21.8	0.00e+00	0	43	0	1129316352	57	3908
2026-01-23 08:18:37.28	350.78	28.76	-42.7	-43.5	21.8	0.00e+00	0	43	0	1132462080	57	3852
2026-01-23 08:18:38.29	350.59	28.61	-42.7	-43.5	21.8	0.00e+00	0	43	0	1135607808	57	3860
2026-01-23 08:18:39.30	350.40	28.47	-42.6	-43.4	21.8	0.00e+00	0	43	0	1138753536	57	3808
2026-01-23 08:18:40.31	350.21	28.32	-42.6	-43.4	21.8	0.00e+00	0	43	0	1141899264	57	3820
2026-01-23 08:18:41.31	350.03	28.17	-42.4	-43.2	22.0	0.00e+00	0	43	0	1145044992	56	3946
2026-01-23 08:18:42.32	349.84	28.02	-42.5	-43.3	22.0	0.00e+00	0	43	0	1148190720	56	3984
2026-01-23 08:18:43.33	349.66	27.88	-42.5	-43.3	22.0	0.00e+00	0	43	0	1151336448	56	3984
2026-01-23 08:18:44.34	349.47	27.73	-42.5	-43.3	22.0	0.00e+00	0	43	0	1154482176	56	3993
2026-01-23 08:18:45.35	349.29	27.59	-42.6	-43.4	22.0	0.00e+00	0	43	0	1157627904	56	4028
2026-01-23 08:18:46.36	349.11	27.44	-42.6	-43.4	21.9	0.00e+00	0	43	0	1160773632	56	4041
2026-01-23 08:18:47.37	348.94	27.30	-42.6	-43.5	21.9	0.00e+00	0	43	0	1163919360	56	4056
2026-01-23 08:18:48.38	348.76	27.15	-42.6	-43.5	21.9	0.00e+00	0	43	0	1167065088	56	4055
2026-01-23 08:18:49.39	348.59	27.01	-42.7	-43.6	21.8	0.00e+00	0	43	0	1170210816	56	4108
2026-01-23 08:18:50.40	348.41	26.86	-42.8	-43.7	21.7	0.00e+00	0	43	0	1173356544	56	4162
2026-01-23 08:18:51.40	348.24	26.72	-42.9	-43.7	21.6	0.00e+00	0	43	0	1176502272	56	4178
2026-01-23 08:18:52.41	348.07	26.58	-42.7	-43.5	21.8	0.00e+00	0	43	0	1179648000	56	4081
2026-01-23 08:18:53.42	347.91	26.44	-42.6	-43.4	21.9	0.00e+00	0	43	0	1182793728	56	4032
2026-01-23 08:18:54.43	347.74	26.30	-42.5	-43.4	22.0	0.00e+00	0	43	0	1185939456	56	4018
2026-01-23 08:18:55.44	347.58	26.16	-42.4	-43.2	22.1	0.00e+00	0	43	0	1189085184	56	3946
2026-01-23 08:18:56.45	347.41	26.02	-42.5	-43.3	22.1	0.00e+00	0	43	0	1192230912	56	3967
2026-01-23 08:18:57.45	347.25	25.88	-42.3	-43.1	22.2	0.00e+00	0	43	0	1195376640	56	3900
2026-01-23 08:18:58.46	347.09	25.74	-42.3	-43.1	22.1	0.00e+00	0	43	0	1198522368	56	3903
2026-01-23 08:18:59.47	346.93	25.60	-42.3	-43.1	22.1	0.00e+00	0	43	0	1201668096	56	3895
2026-01-23 08:19:00.48	346.77	25.46	-42.5	-43.3	22.0	0.00e+00	0	43	0	1204813824	56	3979
2026-01-23 08:19:01.49	346.62	25.32	-42.3	-43.2	22.1	0.00e+00	0	43	0	1207959552	56	3915
2026-01-23 08:19:02.49	346.46	25.18	-42.4	-43.2	22.1	0.00e+00	0	43	0	1211105280	56	3950
2026-01-23 08:19:03.50	346.31	25.05	-42.3	-43.1	22.1	0.00e+00	0	43	0	1214251008	56	3909
2026-01-23 08:19:04.51	346.16	24.91	-42.2	-43.0	22.3	0.00e+00	0	43	0	1217396736	56	3843
2026-01-23 08:19:05.52	346.01	24.77	-42.3	-43.1	22.2	0.00e+00	0	43	0	1220542464	56	3882
2026-01-23 08:19:06.52	345.86	24.64	-42.3	-43.1	22.2	0.00e+00	0	43	0	1223688192	56	3893
2026-01-23 08:19:07.53	345.71	24.50	-42.2	-43.0	22.3	0.00e+00	0	43	0	1226833920	56	3825
2026-01-23 08:19:08.54	345.57	24.37	-42.3	-43.1	22.2	0.00e+00	0	43	0	1229979648	56	3870
2026-01-23 08:19:09.55	345.42	24.24	-42.1	-42.9	22.4	0.00e+00	0	43	0	1233125376	56	3804
2026-01-23 08:19:10.56	345.28	24.10	-42.0	-42.8	22.4	0.00e+00	0	43	0	1236271104	56	3766
2026-01-23 08:19:11.57	345.13	23.97	-42.1	-42.9	22.4	0.00e+00	0	43	0	1239416832	56	3788
2026-01-23 08:19:12.57	344.99	23.84	-42.3	-43.1	22.2	0.00e+00	0	43	0	1242562560	56	3879
2026-01-23 08:19:13.58	344.85	23.70	-42.4	-43.2	22.1	0.00e+00	0	43	0	1245708288	56	3957
2026-01-23 08:19:14.59	344.71	23.57	-42.5	-43.4	21.9	0.00e+00	0	43	0	1248854016	56	4019
2026-01-23 08:19:15.60	344.57	23.44	-42.7	-43.6	21.8	0.00e+00	0	43	0	1251999744	56	4102
2026-01-23 08:19:16.61	344.44	23.31	-42.8	-43.6	21.7	0.00e+00	0	43	0	1255145472	56	4128
2026-01-23 08:19:17.62	344.30	23.18	-42.8	-43.6	21.6	0.00e+00	0	43	0	1258291200	56	4143
2026-01-23 08:19:18.63	344.17	23.05	-42.8	-43.7	21.6	0.00e+00	0	43	0	1261436928	56	4159
2026-01-23 08:19:19.63	344.03	22.92	-42.8	-43.6	21.6	0.00e+00	0	43	0	1264582656	56	4136
2026-01-23 08:19:20.64	343.90	22.79	-42.7	-43.6	21.6	0.00e+00	0	43	0	1267728384	56	4116
2026-01-23 08:19:21.65	343.77	22.66	-42.8	-43.7	21.6	0.00e+00	0	43	0	1270874112	56	4148
2026-01-23 08:19:22.66	343.64	22.54	-42.9	-43.8	21.5	0.00e+00	0	43	0	1274019840	56	4200
2026-01-23 08:19:23.67	343.51	22.41	-42.7	-43.6	21.7	0.00e+00	0	43	0	1277165568	56	4109
2026-01-23 08:19:24.68	343.38	22.28	-42.6	-43.4	21.8	0.00e+00	0	43	0	1280311296	56	4049
2026-01-23 08:19:25.68	343.26	22.16	-42.5	-43.3	21.9	0.00e+00	0	43	0	1283457024	56	3989
2026-01-23 08:19:26.69	343.13	22.03	-42.4	-43.2	22.0	0.00e+00	0	43	0	1286602752	56	3930
2026-01-23 08:19:27.70	343.01	21.90	-42.3	-43.1	22.0	0.00e+00	0	43	0	1289748480	56	3903
2026-01-23 08:19:28.71	342.88	21.78	-42.4	-43.3	21.9	0.00e+00	0	43	0	1292894208	56	3966
2026-01-23 08:19:29.72	342.76	21.65	-42.2	-43.0	22.1	0.00e+00	0	43	0	1297088512	56	3855
2026-01-23 08:19:30.72	342.64	21.53	-42.3	-43.0	22.1	0.00e+00	0	43	0	1300234240	56	3868
2026-01-23 08:19:31.73	342.52	21.41	-42.1	-42.9	22.3	0.00e+00	0	43	0	1303379968	56	3787
2026-01-23 08:19:32.74	342.40	21.28	-42.1	-42.9	22.2	0.00e+00	0	43	0	1305477120	56	3803
2026-01-23 08:19:33.75	342.28	21.16	-42.1	-42.9	22.2	0.00e+00	0	43	0	1308622848	56	3805
2026-01-23 08:19:34.75	342.16	21.04	-42.1	-42.9	22.3	0.00e+00	0	43	0	1311768576	56	3782
2026-01-23 08:19:35.76	342.05	20.92	-42.1	-42.9	22.2	0.00e+00	0	43	0	1314914304	56	3817
2026-01-23 08:19:36.77	341.93	20.80	-42.1	-42.9	22.2	0.00e+00	0	43	0	1318060032	56	3813
2026-01-23 08:19:37.78	341.81	20.67	-42.2	-43.0	22.2	0.00e+00	0	43	0	1321205760	56	3843
2026-01-23 08:19:38.79	341.70	20.55	-42.2	-43.0	22.1	0.00e+00	0	43	0	1324351488	56	3865
2026-01-23 08:19:39.79	341.59	20.43	-42.4	-43.2	22.0	0.00e+00	0	43	0	1327497216	56	3936
2026-01-23 08:19:40.80	341.48	20.31	-42.5	-43.3	21.9	0.00e+00	0	43	0	1330642944	56	3981
2026-01-23 08:19:41.81	341.36	20.20	-42.6	-43.5	21.7	0.00e+00	0	43	0	1333788672	56	4061
2026-01-23 08:19:42.82	341.25	20.08	-42.6	-43.5	21.7	0.00e+00	0	43	0	1337982976	56	4054
2026-01-23 08:19:43.83	341.14	19.96	-42.7	-43.6	21.6	0.00e+00	0	43	0	1341128704	56	4115
2026-01-23 08:19:44.83	341.04	19.84	-42.6	-43.4	21.7	0.00e+00	0	43	0	1344274432	56	4049
2026-01-23 08:19:45.84	340.93	19.72	-42.6	-43.5	21.6	0.00e+00	0	43	0	1347420160	56	4054
2026-01-23 08:19:46.85	340.82	19.61	-42.5	-43.4	21.7	0.00e+00	0	43	0	1350565888	56	4008
2026-01-23 08:19:47.86	340.72	19.49	-42.6	-43.4	21.6	0.00e+00	0	43	0	1352663040	56	4026
2026-01-23 08:19:48.87	340.61	19.37	-42.6	-43.5	21.5	0.00e+00	0	43	0	1355808768	56	4072
2026-01-23 08:19:49.88	340.51	19.26	-42.5	-43.4	21.7	0.00e+00	0	43	0	1358954496	56	4010
2026-01-23 08:19:50.88	340.40	19.14	-42.6	-43.5	21.5	0.00e+00	0	43	0	1362100224	56	4062
2026-01-23 08:19:51.89	340.30	19.03	-42.4	-43.2	21.8	0.00e+00	0	43	0	1365245952	56	3940
2026-01-23 08:19:52.90	340.20	18.92	-42.4	-43.2	21.8	0.00e+00	0	43	0	1368391680	56	3928
2026-01-23 08:19:53.91	340.10	18.80	-42.5	-43.4	21.7	0.00e+00	0	43	0	1371537408	56	4009
2026-01-23 08:19:54.92	340.00	18.69	-42.6	-43.5	21.6	0.00e+00	0	43	0	1375731712	56	4066
2026-01-23 08:19:55.93	339.90	18.57	-42.6	-43.5	21.6	0.00e+00	0	43	0	1378877440	56	4069
2026-01-23 08:19:56.94	339.80	18.46	-42.9	-43.7	21.4	0.00e+00	0	43	0	1382023168	56	4191
2026-01-23 08:19:57.94	339.70	18.35	-42.6	-43.5	21.6	0.00e+00	0	43	0	1385168896	56	4066
2026-01-23 08:19:58.96	339.60	18.24	-42.7	-43.5	21.6	0.00e+00	0	43	0	1388314624	56	4092
2026-01-23 08:19:59.97	339.50	18.13	-42.8	-43.7	21.5	0.00e+00	0	43	0	1391460352	56	4147
2026-01-23 08:20:00.97	339.41	18.02	-42.9	-43.8	21.4	0.00e+00	0	43	0	1394606080	56	4206
2026-01-23 08:20:01.98	339.31	17.91	-43.0	-43.9	21.3	0.00e+00	0	43	0	1397751808	56	4248
2026-01-23 08:20:02.99	339.22	17.80	-43.0	-43.9	21.3	0.00e+00	0	43	0	1399848960	56	4282
2026-01-23 08:20:04.00	339.12	17.69	-43.1	-44.0	21.2	0.00e+00	0	43	0	1402994688	56	4302
2026-01-23 08:20:05.01	339.03	17.58	-43.1	-44.0	21.2	0.00e+00	0	43	0	1406140416	56	4330
2026-01-23 08:20:06.02	338.94	17.47	-43.3	-44.2	21.0	0.00e+00	0	43	0	1410334720	57	4157
2026-01-23 08:20:07.03	338.85	17.36	-43.3	-44.3	21.0	0.00e+00	0	43	0	1413480448	57	4197
2026-01-23 08:20:08.03	338.76	17.25	-43.5	-44.4	20.9	0.00e+00	0	43	0	1416626176	57	4261
2026-01-23 08:20:09.04	338.67	17.14	-43.4	-44.4	20.9	0.00e+00	0	43	0	1419771904	57	4261
2026-01-23 08:20:10.05	338.58	17.04	-43.4	-44.4	20.8	0.00e+00	0	43	0	1422917632	57	4259
2026-01-23 08:20:11.06	338.49	16.93	-43.5	-44.4	20.8	0.00e+00	0	43	0	1426063360	57	4282
2026-01-23 08:20:12.06	338.40	16.82	-43.5	-44.4	20.8	0.00e+00	0	43	0	1429209088	57	4279
2026-01-23 08:20:13.07	338.31	16.72	-43.4	-44.3	20.8	0.00e+00	0	43	0	1432354816	57	4242
2026-01-23 08:20:14.08	338.22	16.61	-43.5	-44.5	20.7	0.00e+00	0	43	0	1435500544	57	4301
2026-01-23 08:20:15.09	338.14	16.51	-43.6	-44.5	20.7	0.00e+00	0	43	0	1438646272	57	4326
2026-01-23 08:20:16.10	338.05	16.40	-43.5	-44.4	20.7	0.00e+00	0	43	0	1441792000	57	4288
2026-01-23 08:20:17.11	337.97	16.30	-43.6	-44.5	20.7	0.00e+00	0	43	0	1444937728	57	4320
2026-01-23 08:20:18.11	337.88	16.19	-43.7	-44.6	20.6	0.00e+00	0	43	0	1447034880	57	4376
2026-01-23 08:20:19.12	337.80	16.09	-43.8	-44.7	20.5	0.00e+00	0	43	0	1451229184	58	4191
2026-01-23 08:20:20.13	337.72	15.98	-43.5	-44.5	20.7	0.00e+00	0	43	0	1454374912	58	4064
2026-01-23 08:20:21.14	337.63	15.88	-43.4	-44.4	20.8	0.00e+00	0	43	0	1457520640	58	4009
2026-01-23 08:20:22.14	337.55	15.78	-43.3	-44.2	20.9	0.00e+00	0	43	0	1460666368	58	3952
2026-01-23 08:20:23.15	337.47	15.68	-43.4	-44.3	20.8	0.00e+00	0	43	0	1463812096	58	3995
2026-01-23 08:20:24.16	337.39	15.58	-43.4	-44.3	20.8	0.00e+00	0	43	0	1466957824	58	3971
2026-01-23 08:20:25.17	337.31	15.47	-43.3	-44.2	21.0	0.00e+00	0	43	0	1470103552	58	3916
2026-01-23 08:20:26.18	337.23	15.37	-43.2	-44.1	21.0	1.50e-06	0	42	0	1473249280	58	3887
2026-01-23 08:20:27.19	337.15	15.27	-43.2	-44.1	21.0	0.00e+00	0	43	0	1476395008	58	3895
2026-01-23 08:20:28.19	337.07	15.17	-43.2	-44.1	21.0	0.00e+00	0	43	0	1479540736	58	3904
2026-01-23 08:20:29.20	336.99	15.07	-43.1	-44.0	21.0	0.00e+00	0	43	0	1482686464	58	3855
2026-01-23 08:20:30.21	336.91	14.97	-43.2	-44.1	21.0	0.00e+00	0	43	0	1485832192	58	3887
2026-01-23 08:20:31.21	336.84	14.87	-43.2	-44.1	21.0	0.00e+00	0	43	0	1488977920	58	3894
2026-01-23 08:20:32.22	336.76	14.77	-43.2	-44.2	21.0	0.00e+00	0	43	0	1492123648	58	3915
2026-01-23 08:20:33.23	336.68	14.67	-43.2	-44.1	21.0	0.00e+00	0	43	0	1495269376	58	3902
2026-01-23 08:20:34.24	336.61	14.58	-43.3	-44.2	20.9	0.00e+00	0	43	0	1498415104	58	3957
2026-01-23 08:20:35.25	336.53	14.48	-43.4	-44.3	20.8	0.00e+00	0	43	0	1501560832	58	3998
2026-01-23 08:20:36.26	336.46	14.38	-43.4	-44.3	20.8	0.00e+00	0	43	0	1504706560	58	4001
2026-01-23 08:20:37.27	336.38	14.28	-43.4	-44.3	20.8	0.00e+00	0	43	0	1507852288	58	3991
2026-01-23 08:20:38.28	336.31	14.19	-43.4	-44.4	20.7	0.00e+00	0	43	0	1510998016	58	4017
2026-01-23 08:20:39.29	336.24	14.09	-43.4	-44.4	20.7	0.00e+00	0	43	0	1514143744	58	4008
2026-01-23 08:20:40.30	336.17	13.99	-43.6	-44.5	20.6	0.00e+00	0	43	0	1517289472	58	4092
2026-01-23 08:20:41.30	336.09	13.90	-43.6	-44.6	20.6	0.00e+00	0	43	0	1520435200	58	4105
2026-01-23 08:20:42.31	336.02	13.80	-43.6	-44.6	20.5	0.00e+00	0	43	0	1523580928	58	4110
2026-01-23 08:20:43.32	335.95	13.71	-43.7	-44.7	20.4	0.00e+00	0	43	0	1526726656	58	4165
2026-01-23 08:20:44.33	335.88	13.61	-43.7	-44.7	20.4	0.00e+00	0	43	0	1529872384	58	4176
2026-01-23 08:20:45.34	335.81	13.52	-43.8	-44.7	20.4	0.00e+00	0	43	0	1533018112	58	4183
2026-01-23 08:20:46.34	335.74	13.42	-43.8	-44.8	20.3	0.00e+00	0	43	0	1536163840	58	4231
2026-01-23 08:20:47.35	335.67	13.33	-44.0	-45.0	20.2	0.00e+00	0	43	0	1539309568	58	4300
2026-01-23 08:20:48.36	335.60	13.23	-43.9	-44.9	20.2	0.00e+00	0	43	0	1542455296	58	4269
2026-01-23 08:20:49.37	335.54	13.14	-44.1	-45.1	20.0	0.00e+00	0	43	0	1545601024	58	4356
2026-01-23 08:20:50.37	335.47	13.05	-44.0	-45.1	20.1	0.00e+00	0	43	0	1548746752	58	4347
2026-01-23 08:20:51.38	335.40	12.95	-44.2	-45.2	19.9	0.00e+00	0	43	0	1551892480	58	4421
2026-01-23 08:20:52.39	335.33	12.86	-44.1	-45.1	20.1	0.00e+00	0	43	0	1555038208	58	4353
2026-01-23 08:20:53.40	335.27	12.77	-44.2	-45.2	19.9	0.00e+00	0	43	0	1558183936	58	4411
2026-01-23 08:20:54.41	335.20	12.68	-44.1	-45.1	20.0	0.00e+00	0	43	0	1561329664	58	4378
2026-01-23 08:20:55.42	335.14	12.59	-44.1	-45.2	19.9	0.00e+00	0	43	0	1564475392	58	4397
2026-01-23 08:20:56.42	335.07	12.50	-44.1	-45.1	19.9	0.00e+00	0	43	0	1567621120	58	4381
2026-01-23 08:20:57.43	335.01	12.40	-44.2	-45.2	19.9	0.00e+00	0	43	0	1570766848	58	4427
2026-01-23 08:20:58.44	334.94	12.31	-44.2	-45.3	19.8	0.00e+00	0	43	0	1573912576	59	4210
2026-01-23 08:20:59.45	334.88	12.22	-44.1	-45.1	19.9	0.00e+00	0	43	0	1577058304	59	4119
2026-01-23 08:21:00.46	334.81	12.13	-44.0	-45.1	19.9	0.00e+00	0	43	0	1580204032	59	4111
2026-01-23 08:21:01.47	334.75	12.04	-44.2	-45.2	19.8	0.00e+00	0	43	0	1583349760	59	4175
2026-01-23 08:21:02.48	334.69	11.95	-44.1	-45.1	19.8	0.00e+00	0	43	0	1586495488	59	4136
2026-01-23 08:21:03.48	334.63	11.86	-44.2	-45.3	19.7	0.00e+00	0	43	0	1589641216	59	4201
2026-01-23 08:21:04.49	334.57	11.78	-43.9	-44.9	20.1	0.00e+00	0	43	0	1592786944	59	4038
2026-01-23 08:21:05.50	334.50	11.69	-43.9	-44.9	20.0	0.00e+00	0	43	0	1595932672	59	4041
2026-01-23 08:21:06.51	334.44	11.60	-43.9	-44.9	20.0	0.00e+00	0	43	0	1599078400	59	4024
2026-01-23 08:21:07.52	334.38	11.51	-44.1	-45.1	19.9	0.00e+00	0	43	0	1602224128	59	4104
2026-01-23 08:21:08.53	334.32	11.42	-44.0	-45.0	20.0	0.00e+00	0	43	0	1605369856	59	4078
2026-01-23 08:21:09.54	334.26	11.33	-43.8	-44.8	20.1	0.00e+00	0	43	0	1608515584	59	3982
2026-01-23 08:21:10.55	334.20	11.25	-43.8	-44.8	20.2	0.00e+00	0	43	0	1611661312	59	3983
2026-01-23 08:21:11.55	334.14	11.16	-43.8	-44.8	20.1	0.00e+00	0	43	0	1614807040	59	3980
2026-01-23 08:21:12.56	334.08	11.07	-43.8	-44.8	20.1	5.30e-06	0	43	0	1617952768	59	3990
2026-01-23 08:21:13.57	334.03	10.99	-43.9	-44.9	20.0	8.30e-06	0	43	0	1621098496	59	4043
2026-01-23 08:21:14.58	333.97	10.90	-43.9	-44.9	20.1	0.00e+00	0	43	0	1624244224	59	4013
2026-01-23 08:21:15.59	333.91	10.82	-43.9	-44.9	20.0	0.00e+00	0	43	0	1627389952	59	4050
2026-01-23 08:21:16.59	333.85	10.73	-44.0	-45.0	19.9	0.00e+00	0	43	0	1630535680	59	4084
2026-01-23 08:21:17.60	333.80	10.65	-44.0	-45.0	19.9	1.50e-06	0	43	0	1633681408	59	4069
2026-01-23 08:21:18.61	333.74	10.56	-44.3	-45.3	19.6	0.00e+00	0	43	0	1636827136	59	4231
2026-01-23 08:21:19.62	333.68	10.47	-44.0	-45.0	19.9	0.00e+00	0	43	0	1639972864	59	4084
2026-01-23 08:21:20.62	333.63	10.39	-44.1	-45.1	19.8	0.00e+00	0	43	0	1643118592	59	4131
2026-01-23 08:21:21.63	333.57	10.31	-44.0	-45.0	19.9	0.00e+00	0	43	0	1646264320	59	4068
2026-01-23 08:21:22.64	333.52	10.22	-43.9	-44.9	20.0	0.00e+00	0	43	0	1649410048	59	4038
2026-01-23 08:21:23.65	333.46	10.14	-44.0	-45.0	19.9	0.00e+00	0	43	0	1652555776	59	4079
2026-01-23 08:21:24.66	333.41	10.06	-44.0	-45.0	19.9	0.00e+00	0	43	0	1655701504	59	4080
2026-01-23 08:21:25.67	333.35	9.97	-44.1	-45.2	19.7	0.00e+00	0	43	0	1658847232	59	4160
2026-01-23 08:21:26.68	333.30	9.89	-44.2	-45.3	19.7	0.00e+00	0	43	0	1661992960	59	4201
2026-01-23 08:21:27.69	333.25	9.81	-44.0	-45.0	19.9	0.00e+00	0	43	0	1665138688	59	4071
2026-01-23 08:21:28.69	333.19	9.72	-44.2	-45.2	19.7	0.00e+00	0	43	0	1668284416	59	4164
2026-01-23 08:21:29.70	333.14	9.64	-44.2	-45.3	19.6	0.00e+00	0	43	0	1671430144	59	4199
2026-01-23 08:21:30.71	333.09	9.56	-44.2	-45.2	19.7	0.00e+00	0	43	0	1674575872	59	4173
2026-01-23 08:21:31.72	333.03	9.48	-44.3	-45.3	19.6	0.00e+00	0	43	0	1677721600	59	4224
2026-01-23 08:21:32.73	332.98	9.40	-44.2	-45.2	19.7	0.00e+00	0	43	0	1680867328	59	4167
2026-01-23 08:21:33.73	332.93	9.32	-44.2	-45.3	19.6	0.00e+00	0	43	0	1684013056	59	4204
2026-01-23 08:21:34.74	332.88	9.23	-44.2	-45.3	19.6	0.00e+00	0	43	0	1687158784	59	4195
2026-01-23 08:21:35.75	332.83	9.15	-44.3	-45.3	19.6	0.00e+00	0	43	0	1690304512	59	4237
2026-01-23 08:21:36.76	332.78	9.07	-44.2	-45.3	19.6	0.00e+00	0	43	0	1693450240	59	4197
2026-01-23 08:21:37.77	332.73	8.99	-44.4	-45.5	19.4	0.00e+00	0	43	0	1696595968	59	4333
2026-01-23 08:21:38.77	332.68	8.91	-44.4	-45.5	19.4	0.00e+00	0	43	0	1699741696	59	4318
2026-01-23 08:21:39.78	332.63	8.83	-44.4	-45.4	19.4	0.00e+00	0	43	0	1702887424	59	4290
2026-01-23 08:21:40.79	332.58	8.75	-44.3	-45.4	19.4	0.00e+00	0	43	0	1706033152	59	4274
2026-01-23 08:21:41.80	332.53	8.67	-44.5	-45.6	19.2	0.00e+00	0	43	0	1709178880	59	4388
2026-01-23 08:21:42.81	332.48	8.59	-44.4	-45.5	19.3	0.00e+00	0	43	0	1712324608	59	4327
2026-01-23 08:21:43.82	332.43	8.51	-44.5	-45.6	19.2	0.00e+00	0	43	0	1715470336	59	4374
2026-01-23 08:21:44.83	332.38	8.44	-44.3	-45.4	19.1	0.00e+00	0	43	0	1718616064	60	4038
2026-01-23 08:21:45.84	332.34	8.36	-44.2	-45.3	19.2	0.00e+00	0	43	0	1721761792	60	4003
2026-01-23 08:21:46.84	332.29	8.28	-44.1	-45.2	19.3	0.00e+00	0	43	0	1724907520	60	3941
2026-01-23 08:21:47.85	332.24	8.20	-44.2	-45.3	19.2	0.00e+00	0	43	0	1728053248	60	3988
2026-01-23 08:21:48.86	332.19	8.12	-44.3	-45.3	19.2	0.00e+00	0	43	0	1731198976	60	4001
2026-01-23 08:21:49.87	332.15	8.05	-44.3	-45.3	19.2	0.00e+00	0	43	0	1734344704	60	4004
2026-01-23 08:21:50.87	332.10	7.97	-44.4	-45.5	19.0	0.00e+00	0	43	0	1737490432	60	4057
2026-01-23 08:21:51.88	332.05	7.89	-44.5	-45.6	18.9	0.00e+00	0	43	0	1740636160	60	4144
2026-01-23 08:21:52.89	332.01	7.81	-44.4	-45.6	18.9	0.00e+00	0	43	0	1743781888	60	4109
2026-01-23 08:21:53.90	331.96	7.74	-44.4	-45.5	19.0	0.00e+00	0	43	0	1746927616	60	4080
2026-01-23 08:21:54.91	331.91	7.66	-44.4	-45.6	18.9	0.00e+00	0	43	0	1750073344	60	4109
2026-01-23 08:21:55.91	331.87	7.59	-44.4	-45.5	19.0	0.00e+00	0	43	0	1753219072	60	4087
2026-01-23 08:21:56.92	331.82	7.51	-44.6	-45.7	18.8	0.00e+00	0	43	0	1756364800	60	4169
2026-01-23 08:21:57.93	331.78	7.43	-44.5	-45.7	18.7	0.00e+00	0	43	0	1759510528	60	4166
2026-01-23 08:21:58.94	331.73	7.36	-44.6	-45.8	18.7	0.00e+00	0	43	0	1762656256	60	4214
2026-01-23 08:21:59.95	331.69	7.28	-44.7	-45.8	18.6	0.00e+00	0	43	0	1765801984	60	4234
2026-01-23 08:22:00.96	331.65	7.21	-44.7	-45.9	18.6	0.00e+00	0	43	0	1768947712	60	4247
2026-01-23 08:22:01.97	331.60	7.13	-44.6	-45.7	18.7	0.00e+00	0	43	0	1772093440	60	4188
2026-01-23 08:22:02.98	331.56	7.06	-44.6	-45.7	18.7	0.00e+00	0	43	0	1775239168	60	4188
2026-01-23 08:22:03.98	331.52	6.98	-44.8	-46.0	18.5	0.00e+00	0	43	0	1778384896	60	4300
2026-01-23 08:22:04.99	331.47	6.91	-44.6	-45.8	18.6	0.00e+00	0	43	0	1781530624	60	4211
2026-01-23 08:22:06.00	331.43	6.83	-44.7	-45.9	18.5	0.00e+00	0	43	0	1784676352	60	4280
2026-01-23 08:22:07.01	331.39	6.76	-44.9	-46.1	18.2	0.00e+00	0	43	0	1787822080	60	4389
2026-01-23 08:22:08.02	331.34	6.68	-44.9	-46.1	18.3	0.00e+00	0	43	0	1790967808	60	4349
2026-01-23 08:22:09.02	331.30	6.61	-44.9	-46.1	18.3	0.00e+00	0	43	0	1794113536	60	4383
2026-01-23 08:22:10.03	331.26	6.54	-44.9	-46.2	18.2	0.00e+00	0	43	0	1797259264	60	4396
2026-01-23 08:22:11.04	331.22	6.46	-45.0	-46.2	18.2	0.00e+00	0	43	0	1800404992	60	4407
2026-01-23 08:22:12.05	331.18	6.39	-45.0	-46.2	18.1	0.00e+00	0	43	0	1803550720	60	4437
2026-01-23 08:22:13.06	331.14	6.32	-45.0	-46.2	18.2	0.00e+00	0	43	0	1806696448	60	4423
2026-01-23 08:22:14.07	331.09	6.25	-45.1	-46.3	18.0	0.00e+00	0	43	0	1809842176	60	4482
2026-01-23 08:22:15.07	331.05	6.17	-44.9	-46.2	18.2	0.00e+00	0	43	0	1812987904	60	4402
2026-01-23 08:22:16.08	331.01	6.10	-45.1	-46.4	18.0	0.00e+00	0	43	0	1816133632	60	4515
2026-01-23 08:22:17.09	330.97	6.03	-45.0	-46.2	18.2	0.00e+00	0	43	0	1819279360	60	4422
2026-01-23 08:22:18.10	330.93	5.96	-45.2	-46.5	17.9	0.00e+00	0	43	0	1822425088	61	4324
2026-01-23 08:22:19.11	330.89	5.88	-45.1	-46.3	18.0	0.00e+00	0	43	0	1825570816	61	4228
2026-01-23 08:22:20.12	330.85	5.81	-45.0	-46.3	18.1	0.00e+00	0	43	0	1828716544	61	4211
2026-01-23 08:22:21.13	330.81	5.74	-45.4	-46.7	17.6	0.00e+00	0	43	0	1831862272	61	4424
2026-01-23 08:22:22.14	330.77	5.67	-45.3	-46.6	17.7	0.00e+00	0	43	0	1835008000	61	4378
2026-01-23 08:22:23.14	330.73	5.60	-45.3	-46.7	17.7	0.00e+00	0	43	0	1838153728	61	4392
2026-01-23 08:22:24.15	330.70	5.53	-45.1	-46.4	17.9	0.00e+00	0	43	0	1841299456	61	4258
2026-01-23 08:22:25.16	330.66	5.46	-45.3	-46.6	17.7	0.00e+00	0	43	0	1844445184	61	4368
2026-01-23 08:22:26.17	330.62	5.39	-45.3	-46.7	17.7	0.00e+00	0	43	0	1847590912	61	4393
2026-01-23 08:22:27.18	330.58	5.32	-45.2	-46.4	17.8	0.00e+00	0	43	0	1850736640	61	4288
2026-01-23 08:22:28.18	330.54	5.25	-45.2	-46.4	17.8	0.00e+00	0	43	0	1853882368	61	4289
2026-01-23 08:22:29.19	330.50	5.18	-45.4	-46.8	17.5	0.00e+00	0	43	0	1857028096	61	4463
2026-01-23 08:22:30.20	330.47	5.11	-45.6	-47.0	17.3	0.00e+00	0	43	0	1860173824	61	4565
2026-01-23 08:22:31.21	330.43	5.04	-45.6	-47.0	17.3	0.00e+00	0	43	0	1863319552	62	4323
2026-01-23 08:22:32.22	330.39	4.97	-52.9	-65.8	3.8	1.49e+00	0	43	104	1865416704	76	16700
2026-01-23 08:22:33.23	330.35	4.90	-53.2	-65.9	3.8	1.49e+00	0	43	104	1865416704	76	17076
2026-01-23 08:22:34.24	330.32	4.83	-53.3	-66.1	3.8	1.49e+00	0	43	104	1865416704	77	16451
2026-01-23 08:22:35.25	330.28	4.76	-53.5	-66.2	3.8	1.49e+00	0	43	104	1865416704	77	16659
2026-01-23 08:22:36.26	330.24	4.69	-53.5	-66.3	3.8	1.49e+00	0	43	104	1865416704	77	16789
2026-01-23 08:22:37.26	330.21	4.62	-53.6	-66.4	3.8	1.49e+00	0	43	104	1865416704	77	16947
2026-01-23 08:22:38.27	330.17	4.55	-53.7	-66.4	3.8	1.49e+00	0	43	104	1865416704	77	17042
2026-01-23 08:22:39.28	330.14	4.48	-53.6	-66.4	3.8	1.49e+00	0	43	104	1865416704	77	16984
2026-01-23 08:22:40.29	330.10	4.42	-53.6	-66.3	3.8	1.49e+00	0	43	104	1865416704	77	16861
2026-01-23 08:22:41.30	330.07	4.35	-53.5	-66.3	3.8	1.49e+00	0	43	104	1865416704	77	16747
2026-01-23 08:22:42.31	330.03	4.28	-53.4	-66.2	3.8	1.49e+00	0	43	104	1865416704	77	16569
2026-01-23 08:22:43.32	329.99	4.21	-53.4	-66.2	3.8	1.49e+00	0	43	104	1865416704	77	16582
2026-01-23 08:22:44.33	329.96	4.14	-53.5	-66.2	3.8	1.49e+00	0	43	104	1865416704	77	16659
2026-01-23 08:22:45.34	329.92	4.08	-53.5	-66.2	3.8	1.49e+00	0	43	104	1865416704	77	16678
2026-01-23 08:22:46.34	329.89	4.01	-53.5	-66.3	3.8	1.49e+00	0	43	104	1865416704	77	16836
2026-01-23 08:22:47.35	329.86	3.94	-53.6	-66.3	3.8	1.49e+00	0	43	104	1865416704	77	16866
2026-01-23 08:22:48.36	329.82	3.88	-53.6	-66.4	3.8	1.49e+00	0	43	104	1865416704	77	16954
2026-01-23 08:22:49.37	329.79	3.81	-53.6	-66.4	3.8	1.49e+00	0	43	104	1865416704	77	16981
2026-01-23 08:22:50.37	329.75	3.74	-53.7	-66.4	3.8	1.49e+00	0	43	104	1865416704	77	17051
