passes_logs/2026/01/23/R3.2S_Murmansk/R3.2S_Murmansk__20260123_025929_FENGYUN_3D_rec.log

#Pass ID: 20260123_025929_FENGYUN 3D
#Satellite: FENGYUN 3D
#Configuration: FENGYUN 3D
#almurnet v.1.7.20251203
#Start time: 2026-01-23 02:59:28

#Version: 2.2.20231116
#Station: R3.2S_Murmansk
#Location: 33.079688 lon 68.888172 lat
#TLE: 1 43010U 17072A   26022.47411728  .00000617  00000+0  31375-3 0  9996
#TLE: 2 43010  98.9952 354.4060 0002481  95.7964 264.3494 14.19699924424319

#Time	Az	El	Level	Level2	SNR	BER	BlckErr	Temp	State	Recorded	gain1	gain2
2026-01-23 02:59:28.40	25.94	1.96	-53.3	-65.3	3.8	8.46e-01	0	41	0	0	78	14109
2026-01-23 02:59:29.41	25.93	2.02	-52.3	-64.2	3.8	8.46e-01	0	42	104	0	76	14000
2026-01-23 02:59:30.42	25.93	2.09	-52.3	-64.2	3.8	8.47e-01	0	41	104	0	76	13992
2026-01-23 02:59:31.42	25.93	2.15	-52.3	-64.2	3.8	8.46e-01	0	41	104	0	76	13959
2026-01-23 02:59:32.43	25.93	2.22	-52.3	-64.2	3.8	8.46e-01	0	41	104	0	76	13906
2026-01-23 02:59:33.45	25.93	2.28	-52.3	-64.2	3.8	8.47e-01	0	42	104	0	76	13939
2026-01-23 02:59:34.45	25.93	2.35	-52.3	-64.2	3.8	8.45e-01	0	42	104	0	76	13978
2026-01-23 02:59:35.46	25.93	2.41	-52.3	-64.2	3.8	8.46e-01	0	42	104	0	76	13974
2026-01-23 02:59:36.47	25.93	2.48	-52.3	-64.2	3.8	8.46e-01	0	42	104	0	76	13937
2026-01-23 02:59:37.48	25.92	2.54	-52.3	-64.2	3.8	8.46e-01	0	42	104	0	76	13952
2026-01-23 02:59:38.49	25.92	2.61	-52.3	-64.2	3.8	8.46e-01	0	42	104	0	76	13956
2026-01-23 02:59:39.50	25.92	2.68	-52.3	-64.2	3.8	8.47e-01	0	42	104	0	76	13934
2026-01-23 02:59:40.51	25.92	2.74	-52.3	-64.2	3.8	8.45e-01	0	42	104	0	76	13907
2026-01-23 02:59:41.52	25.92	2.81	-52.3	-64.1	3.8	8.46e-01	0	42	104	0	76	13876
2026-01-23 02:59:42.53	25.92	2.88	-52.3	-64.2	3.8	8.47e-01	0	42	104	0	76	13914
2026-01-23 02:59:43.54	25.92	2.94	-52.3	-64.2	3.8	8.46e-01	0	42	104	0	76	13922
2026-01-23 02:59:44.55	25.91	3.01	-52.3	-64.2	3.8	8.46e-01	0	42	104	0	76	13934
2026-01-23 02:59:45.55	25.91	3.07	-52.3	-64.2	3.8	8.46e-01	0	42	104	0	76	13896
2026-01-23 02:59:46.56	25.91	3.14	-52.3	-64.1	3.8	8.46e-01	0	42	104	0	76	13866
2026-01-23 02:59:47.57	25.91	3.21	-52.2	-64.0	3.8	8.46e-01	0	42	104	0	76	13694
2026-01-23 02:59:48.58	25.91	3.28	-52.2	-63.9	3.8	8.46e-01	0	42	104	0	76	13466
2026-01-23 02:59:49.59	25.91	3.34	-52.2	-63.6	3.8	8.47e-01	0	42	104	0	76	13034
2026-01-23 02:59:50.60	25.91	3.41	-52.2	-63.1	3.8	8.45e-01	0	42	104	0	76	12310
2026-01-23 02:59:51.61	25.90	3.48	-52.1	-62.3	3.8	8.46e-01	0	42	104	0	76	11232
2026-01-23 02:59:52.62	25.90	3.55	-51.9	-61.3	4.0	8.44e-01	0	42	104	0	75	10544
2026-01-23 02:59:53.63	25.90	3.62	-51.7	-59.6	4.5	8.27e-01	0	42	0	0	75	8686
2026-01-23 02:59:54.63	25.90	3.68	-51.2	-57.4	5.8	7.45e-01	0	42	0	0	74	7164
2026-01-23 02:59:55.64	25.90	3.75	-50.7	-55.7	7.2	1.92e-01	0	42	0	5242880	73	6269
2026-01-23 02:59:56.65	25.89	3.82	-49.7	-53.2	9.7	3.74e-02	0	42	0	11534336	71	5275
2026-01-23 02:59:57.66	25.89	3.89	-49.0	-52.0	11.1	2.47e-03	0	42	0	16777216	70	4840
2026-01-23 02:59:58.67	25.89	3.96	-47.5	-49.6	13.5	1.10e-04	0	42	0	23068672	67	4378
2026-01-23 02:59:59.68	25.89	4.03	-46.3	-47.9	15.1	9.10e-06	0	42	0	28311552	64	4290
2026-01-23 03:00:00.68	25.89	4.10	-45.6	-47.1	16.1	0.00e+00	0	42	0	33554432	63	4112
2026-01-23 03:00:01.69	25.88	4.17	-44.6	-45.9	17.3	0.00e+00	0	42	0	39845888	61	4024
2026-01-23 03:00:02.70	25.88	4.24	-44.2	-45.4	17.8	0.00e+00	0	42	0	46137344	60	4042
2026-01-23 03:00:03.71	25.88	4.31	-44.3	-45.5	18.0	0.00e+00	0	42	0	51380224	59	4324
2026-01-23 03:00:04.72	25.88	4.38	-43.8	-44.9	18.6	0.00e+00	0	42	0	56623104	59	4022
2026-01-23 03:00:05.73	25.88	4.45	-43.8	-44.9	18.6	0.00e+00	0	42	0	62914560	59	4050
2026-01-23 03:00:06.73	25.87	4.52	-43.7	-44.8	18.7	0.00e+00	0	43	0	68157440	59	3996
2026-01-23 03:00:07.74	25.87	4.59	-43.6	-44.7	18.8	0.00e+00	0	43	0	73400320	59	3948
2026-01-23 03:00:08.75	25.87	4.66	-43.8	-44.9	18.6	0.00e+00	0	43	0	79691776	59	4042
2026-01-23 03:00:09.76	25.87	4.73	-44.1	-45.3	18.2	0.00e+00	0	43	0	84934656	59	4222
2026-01-23 03:00:10.77	25.87	4.80	-44.6	-45.9	17.7	0.00e+00	0	42	0	91226112	59	4518
2026-01-23 03:00:11.78	25.86	4.87	-44.9	-46.3	16.9	0.00e+00	0	43	0	96468992	60	4461
2026-01-23 03:00:12.79	25.86	4.94	-45.7	-47.2	16.0	0.00e+00	0	42	0	101711872	61	4672
2026-01-23 03:00:13.80	25.86	5.02	-46.4	-48.1	15.1	0.00e+00	0	43	0	108003328	63	4619
2026-01-23 03:00:14.81	25.86	5.09	-46.4	-48.1	15.1	1.10e-06	0	43	0	113246208	64	4363
2026-01-23 03:00:15.82	25.85	5.16	-48.3	-50.8	12.4	1.10e-06	0	43	0	119537664	67	5036
2026-01-23 03:00:16.83	25.85	5.23	-47.7	-50.0	13.2	3.54e-05	0	43	0	124780544	65	5116
2026-01-23 03:00:17.83	25.85	5.30	-43.4	-44.4	19.3	0.00e+00	0	43	0	131072000	58	4029
2026-01-23 03:00:18.84	25.85	5.38	-52.1	-63.0	3.8	9.10e-06	0	43	0	135266304	74	13627
2026-01-23 03:00:19.85	25.84	5.45	-44.0	-45.2	17.7	4.86e-01	0	43	104	135266304	59	4146
2026-01-23 03:00:20.86	25.84	5.52	-43.2	-44.2	19.5	0.00e+00	0	43	0	139460608	58	3947
2026-01-23 03:00:21.87	25.84	5.60	-43.2	-44.2	19.5	0.00e+00	0	43	0	144703488	57	4173
2026-01-23 03:00:22.87	25.84	5.67	-43.1	-44.1	19.6	0.00e+00	0	43	0	150994944	57	4129
2026-01-23 03:00:23.88	25.83	5.74	-43.2	-44.2	19.5	0.00e+00	0	43	0	156237824	57	4191
2026-01-23 03:00:24.89	25.83	5.82	-42.8	-43.8	19.9	0.00e+00	0	43	0	161480704	57	3990
2026-01-23 03:00:25.90	25.83	5.89	-43.1	-44.1	19.7	0.00e+00	0	43	0	167772160	57	4128
2026-01-23 03:00:26.90	25.82	5.97	-43.1	-44.1	19.7	0.00e+00	0	43	0	174063616	57	4122
2026-01-23 03:00:27.91	25.82	6.04	-43.0	-44.1	19.7	0.00e+00	0	43	0	179306496	57	4100
2026-01-23 03:00:28.92	25.82	6.12	-42.9	-43.9	19.9	0.00e+00	0	43	0	184549376	57	4035
2026-01-23 03:00:29.93	25.82	6.19	-42.8	-43.8	20.1	0.00e+00	0	43	0	190840832	57	3984
2026-01-23 03:00:30.94	25.81	6.27	-42.8	-43.8	20.0	0.00e+00	0	43	0	196083712	57	3986
2026-01-23 03:00:31.95	25.81	6.34	-42.7	-43.6	20.2	0.00e+00	0	43	0	202375168	57	3907
2026-01-23 03:00:32.95	25.81	6.42	-42.8	-43.7	20.1	0.00e+00	0	43	0	207618048	57	3953
2026-01-23 03:00:33.96	25.80	6.49	-42.8	-43.7	20.1	0.00e+00	0	43	0	212860928	57	3953
2026-01-23 03:00:34.97	25.80	6.57	-42.7	-43.6	20.2	0.00e+00	0	43	0	219152384	57	3907
2026-01-23 03:00:35.98	25.80	6.65	-42.7	-43.7	20.2	0.00e+00	0	43	0	224395264	57	3921
2026-01-23 03:00:36.99	25.79	6.72	-42.5	-43.5	20.4	0.00e+00	0	43	0	229638144	57	3855
2026-01-23 03:00:38.00	25.79	6.80	-42.7	-43.6	20.3	0.00e+00	0	43	0	235929600	56	4138
2026-01-23 03:00:39.01	25.79	6.88	-42.6	-43.6	20.4	0.00e+00	0	43	0	242221056	56	4114
2026-01-23 03:00:40.02	25.78	6.95	-42.8	-43.7	20.2	0.00e+00	0	43	0	247463936	56	4193
2026-01-23 03:00:41.03	25.78	7.03	-42.8	-43.8	20.1	0.00e+00	0	43	0	252706816	56	4239
2026-01-23 03:00:42.03	25.78	7.11	-42.7	-43.6	20.3	0.00e+00	0	43	0	258998272	56	4134
2026-01-23 03:00:43.04	25.77	7.19	-42.4	-43.3	20.7	0.00e+00	0	43	0	264241152	56	3996
2026-01-23 03:00:44.05	25.77	7.26	-42.6	-43.6	20.4	0.00e+00	0	43	0	269484032	56	4110
2026-01-23 03:00:45.06	25.77	7.34	-42.4	-43.4	20.6	0.00e+00	0	43	0	275775488	56	4016
2026-01-23 03:00:46.07	25.76	7.42	-42.4	-43.3	20.6	0.00e+00	0	43	0	281018368	56	4004
2026-01-23 03:00:47.08	25.76	7.50	-42.3	-43.2	20.8	0.00e+00	0	43	0	287309824	56	3957
2026-01-23 03:00:48.09	25.76	7.58	-42.3	-43.2	20.8	0.00e+00	0	43	0	292552704	56	3939
2026-01-23 03:00:49.09	25.75	7.66	-42.1	-43.1	21.0	0.00e+00	0	43	0	297795584	56	3870
2026-01-23 03:00:50.10	25.75	7.74	-42.3	-43.2	20.8	0.00e+00	0	43	0	304087040	56	3957
2026-01-23 03:00:51.11	25.74	7.82	-42.3	-43.2	20.8	0.00e+00	0	43	0	310378496	56	3950
2026-01-23 03:00:52.12	25.74	7.90	-42.2	-43.1	21.0	0.00e+00	0	43	0	315621376	56	3883
2026-01-23 03:00:53.13	25.74	7.98	-42.2	-43.1	20.9	0.00e+00	0	43	0	320864256	56	3893
2026-01-23 03:00:54.14	25.73	8.06	-42.2	-43.1	20.9	0.00e+00	0	43	0	327155712	56	3908
2026-01-23 03:00:55.15	25.73	8.14	-42.2	-43.2	20.9	0.00e+00	0	43	0	332398592	56	3925
2026-01-23 03:00:56.16	25.73	8.22	-42.3	-43.2	20.9	0.00e+00	0	43	0	337641472	56	3926
2026-01-23 03:00:57.17	25.72	8.30	-42.1	-43.0	21.1	0.00e+00	0	43	0	343932928	56	3865
2026-01-23 03:00:58.17	25.72	8.39	-42.0	-42.9	21.2	0.00e+00	0	43	0	349175808	56	3816
2026-01-23 03:00:59.18	25.71	8.47	-42.2	-43.1	21.0	0.00e+00	0	43	0	354418688	56	3901
2026-01-23 03:01:00.19	25.71	8.55	-42.2	-43.1	21.0	0.00e+00	0	43	0	360710144	56	3892
2026-01-23 03:01:01.20	25.70	8.63	-42.3	-43.3	20.9	0.00e+00	0	43	0	367001600	56	3961
2026-01-23 03:01:02.20	25.70	8.71	-42.1	-43.0	21.1	0.00e+00	0	43	0	372244480	56	3863
2026-01-23 03:01:03.22	25.70	8.80	-41.8	-42.7	21.3	0.00e+00	0	43	0	377487360	55	3942
2026-01-23 03:01:04.23	25.69	8.88	-42.0	-42.9	21.2	0.00e+00	0	43	0	383778816	55	4026
2026-01-23 03:01:05.23	25.69	8.96	-41.9	-42.8	21.3	0.00e+00	0	43	0	389021696	55	3965
2026-01-23 03:01:06.24	25.68	9.05	-41.9	-42.7	21.3	0.00e+00	0	43	0	395313152	55	3951
2026-01-23 03:01:07.25	25.68	9.13	-41.7	-42.6	21.5	0.00e+00	0	43	0	400556032	55	3893
2026-01-23 03:01:08.26	25.67	9.22	-41.8	-42.7	21.4	0.00e+00	0	43	0	405798912	55	3934
2026-01-23 03:01:09.27	25.67	9.30	-41.8	-42.6	21.5	0.00e+00	0	43	0	412090368	55	3912
2026-01-23 03:01:10.27	25.66	9.39	-41.7	-42.6	21.5	0.00e+00	0	43	0	417333248	55	3886
2026-01-23 03:01:11.28	25.66	9.47	-41.8	-42.6	21.5	0.00e+00	0	43	0	422576128	55	3899
2026-01-23 03:01:12.29	25.65	9.56	-41.8	-42.7	21.4	0.00e+00	0	43	0	428867584	55	3943
2026-01-23 03:01:13.30	25.65	9.64	-41.8	-42.7	21.4	0.00e+00	0	43	0	435159040	55	3944
2026-01-23 03:01:14.31	25.64	9.73	-41.8	-42.6	21.5	0.00e+00	0	43	0	440401920	55	3905
2026-01-23 03:01:15.32	25.64	9.82	-41.8	-42.7	21.4	0.00e+00	0	43	0	445644800	55	3940
2026-01-23 03:01:16.33	25.63	9.90	-41.9	-42.8	21.4	0.00e+00	0	43	0	451936256	55	3962
2026-01-23 03:01:17.33	25.63	9.99	-41.7	-42.6	21.6	0.00e+00	0	43	0	457179136	55	3889
2026-01-23 03:01:18.34	25.62	10.08	-41.8	-42.7	21.5	0.00e+00	0	43	0	462422016	55	3921
2026-01-23 03:01:19.35	25.62	10.17	-41.8	-42.7	21.5	0.00e+00	0	43	0	468713472	55	3927
2026-01-23 03:01:20.36	25.61	10.25	-42.0	-42.9	21.3	0.00e+00	0	43	0	473956352	55	4014
2026-01-23 03:01:21.37	25.61	10.34	-41.8	-42.6	21.5	0.00e+00	0	43	0	480247808	55	3909
2026-01-23 03:01:22.37	25.60	10.43	-41.8	-42.7	21.5	0.00e+00	0	43	0	485490688	55	3945
2026-01-23 03:01:23.38	25.60	10.52	-41.7	-42.6	21.6	0.00e+00	0	43	0	490733568	55	3871
2026-01-23 03:01:24.39	25.59	10.61	-41.7	-42.5	21.6	0.00e+00	0	44	0	497025024	55	3865
2026-01-23 03:01:25.39	25.59	10.70	-41.6	-42.4	21.7	0.00e+00	0	43	0	502267904	54	4041
2026-01-23 03:01:26.40	25.58	10.79	-41.5	-42.4	21.8	0.00e+00	0	43	0	508559360	54	4017
2026-01-23 03:01:27.41	25.57	10.88	-41.5	-42.3	21.9	0.00e+00	0	43	0	513802240	54	3984
2026-01-23 03:01:28.42	25.57	10.97	-41.6	-42.4	21.8	0.00e+00	0	43	0	520093696	54	4032
2026-01-23 03:01:29.43	25.56	11.06	-41.5	-42.4	21.8	0.00e+00	0	43	0	525336576	54	4009
2026-01-23 03:01:30.43	25.56	11.15	-41.6	-42.4	21.8	0.00e+00	0	43	0	530579456	54	4042
2026-01-23 03:01:31.44	25.55	11.24	-41.6	-42.4	21.8	0.00e+00	0	43	0	536870912	54	4041
2026-01-23 03:01:32.45	25.54	11.34	-41.6	-42.5	21.8	0.00e+00	0	43	0	542113792	54	4060
2026-01-23 03:01:33.46	25.54	11.43	-41.5	-42.4	21.8	0.00e+00	0	43	0	547356672	54	4024
2026-01-23 03:01:34.47	25.53	11.52	-41.5	-42.3	21.8	0.00e+00	0	43	0	553648128	54	4004
2026-01-23 03:01:35.48	25.53	11.61	-41.6	-42.4	21.8	0.00e+00	0	43	0	558891008	54	4041
2026-01-23 03:01:36.49	25.52	11.71	-41.4	-42.3	22.0	0.00e+00	0	44	0	565182464	54	3963
2026-01-23 03:01:37.49	25.51	11.80	-41.6	-42.5	21.8	0.00e+00	0	43	0	570425344	54	4053
2026-01-23 03:01:38.50	25.51	11.90	-41.6	-42.4	21.8	0.00e+00	0	44	0	576716800	54	4044
2026-01-23 03:01:39.51	25.50	11.99	-41.7	-42.5	21.7	0.00e+00	0	43	0	581959680	54	4086
2026-01-23 03:01:40.52	25.49	12.09	-41.6	-42.4	21.8	0.00e+00	0	43	0	588251136	54	4034
2026-01-23 03:01:41.53	25.49	12.18	-41.5	-42.3	21.9	0.00e+00	0	43	0	593494016	54	3983
2026-01-23 03:01:42.54	25.48	12.28	-41.5	-42.4	21.9	0.00e+00	0	43	0	598736896	54	4011
2026-01-23 03:01:43.55	25.47	12.37	-41.6	-42.5	21.8	0.00e+00	0	43	0	605028352	54	4057
2026-01-23 03:01:44.56	25.47	12.47	-41.3	-42.2	22.1	0.00e+00	0	43	0	610271232	54	3924
2026-01-23 03:01:45.57	25.46	12.57	-41.3	-42.2	22.1	0.00e+00	0	43	0	615514112	54	3933
2026-01-23 03:01:46.58	25.45	12.66	-41.5	-42.3	21.9	0.00e+00	0	43	0	621805568	54	3994
2026-01-23 03:01:47.59	25.45	12.76	-41.3	-42.2	22.1	0.00e+00	0	43	0	627048448	54	3923
2026-01-23 03:01:48.59	25.44	12.86	-41.2	-42.1	22.2	0.00e+00	0	44	0	632291328	54	3880
2026-01-23 03:01:49.60	25.43	12.96	-41.3	-42.1	22.2	0.00e+00	0	44	0	638582784	54	3886
2026-01-23 03:01:50.61	25.42	13.06	-41.3	-42.2	22.1	0.00e+00	0	43	0	644874240	54	3924
2026-01-23 03:01:51.62	25.42	13.15	-41.2	-42.0	22.3	0.00e+00	0	43	0	650117120	54	3858
2026-01-23 03:01:52.63	25.41	13.25	-41.3	-42.1	22.2	0.00e+00	0	43	0	655360000	54	3891
2026-01-23 03:01:53.64	25.40	13.35	-41.2	-42.1	22.2	0.00e+00	0	43	0	661651456	54	3883
2026-01-23 03:01:54.65	25.39	13.45	-41.1	-42.0	22.3	0.00e+00	0	44	0	666894336	54	3825
2026-01-23 03:01:55.66	25.39	13.56	-41.1	-41.9	22.4	0.00e+00	0	43	0	673185792	54	3816
2026-01-23 03:01:56.67	25.38	13.66	-41.1	-41.9	22.4	0.00e+00	0	43	0	678428672	54	3824
2026-01-23 03:01:57.67	25.37	13.76	-41.0	-41.8	22.5	0.00e+00	0	44	0	683671552	54	3779
2026-01-23 03:01:58.68	25.36	13.86	-41.0	-41.8	22.5	0.00e+00	0	44	0	689963008	53	3982
2026-01-23 03:01:59.69	25.36	13.96	-41.0	-41.8	22.5	0.00e+00	0	44	0	695205888	53	3997
2026-01-23 03:02:00.70	25.35	14.07	-40.9	-41.7	22.5	0.00e+00	0	44	0	701497344	53	3956
2026-01-23 03:02:01.71	25.34	14.17	-40.8	-41.6	22.7	0.00e+00	0	44	0	706740224	53	3889
2026-01-23 03:02:02.72	25.33	14.27	-40.7	-41.5	22.7	0.00e+00	0	44	0	713031680	53	3859
2026-01-23 03:02:03.73	25.32	14.38	-40.7	-41.5	22.8	0.00e+00	0	44	0	718274560	53	3860
2026-01-23 03:02:04.73	25.31	14.48	-40.6	-41.4	22.9	0.00e+00	0	43	0	723517440	53	3803
2026-01-23 03:02:05.74	25.31	14.59	-40.5	-41.3	23.0	0.00e+00	0	43	0	729808896	53	3754
2026-01-23 03:02:06.75	25.30	14.69	-40.6	-41.3	22.9	0.00e+00	0	43	0	735051776	53	3772
2026-01-23 03:02:07.76	25.29	14.80	-40.5	-41.3	23.0	0.00e+00	0	44	0	740294656	53	3751
2026-01-23 03:02:08.77	25.28	14.91	-40.6	-41.3	22.9	0.00e+00	0	43	0	746586112	53	3775
2026-01-23 03:02:09.78	25.27	15.01	-40.4	-41.2	23.1	0.00e+00	0	43	0	751828992	52	3948
2026-01-23 03:02:10.78	25.26	15.12	-40.4	-41.2	23.1	0.00e+00	0	44	0	758120448	52	3947
2026-01-23 03:02:11.79	25.25	15.23	-40.4	-41.2	23.1	0.00e+00	0	43	0	763363328	52	3925
2026-01-23 03:02:12.80	25.24	15.34	-40.4	-41.2	23.1	0.00e+00	0	43	0	769654784	52	3922
2026-01-23 03:02:13.81	25.23	15.44	-40.3	-41.1	23.2	0.00e+00	0	43	0	774897664	52	3897
2026-01-23 03:02:14.81	25.22	15.55	-40.3	-41.1	23.2	0.00e+00	0	44	0	781189120	52	3876
2026-01-23 03:02:15.82	25.21	15.66	-40.3	-41.1	23.2	0.00e+00	0	44	0	786432000	52	3889
2026-01-23 03:02:16.83	25.20	15.77	-40.1	-40.9	23.4	0.00e+00	0	44	0	791674880	52	3805
2026-01-23 03:02:17.84	25.20	15.88	-40.1	-40.9	23.4	0.00e+00	0	44	0	797966336	52	3785
2026-01-23 03:02:18.85	25.19	16.00	-40.1	-40.8	23.5	0.00e+00	0	43	0	803209216	52	3772
2026-01-23 03:02:19.85	25.18	16.11	-40.1	-40.8	23.5	0.00e+00	0	44	0	808452096	52	3773
2026-01-23 03:02:20.86	25.17	16.22	-40.1	-40.9	23.4	0.00e+00	0	44	0	814743552	52	3793
2026-01-23 03:02:21.87	25.16	16.33	-40.0	-40.8	23.5	0.00e+00	0	43	0	819986432	52	3750
2026-01-23 03:02:22.88	25.15	16.45	-40.1	-40.8	23.6	0.00e+00	0	44	0	825229312	51	3988
2026-01-23 03:02:23.88	25.13	16.56	-40.1	-40.8	23.6	0.00e+00	0	44	0	831520768	51	3986
2026-01-23 03:02:24.89	25.12	16.67	-40.0	-40.8	23.6	0.00e+00	0	44	0	836763648	51	3970
2026-01-23 03:02:25.90	25.11	16.79	-39.9	-40.7	23.7	0.00e+00	0	44	0	843055104	51	3939
2026-01-23 03:02:26.91	25.10	16.91	-39.8	-40.6	23.8	0.00e+00	0	44	0	848297984	51	3879
2026-01-23 03:02:27.92	25.09	17.02	-40.0	-40.7	23.7	0.00e+00	0	44	0	854589440	51	3944
2026-01-23 03:02:28.93	25.08	17.14	-39.8	-40.5	23.9	0.00e+00	0	44	0	859832320	51	3846
2026-01-23 03:02:29.93	25.07	17.26	-39.9	-40.6	23.8	0.00e+00	0	44	0	866123776	51	3894
2026-01-23 03:02:30.94	25.06	17.37	-39.8	-40.6	23.8	0.00e+00	0	44	0	871366656	51	3883
2026-01-23 03:02:31.95	25.05	17.49	-39.9	-40.7	23.8	0.00e+00	0	44	0	876609536	51	3918
2026-01-23 03:02:32.96	25.04	17.61	-39.8	-40.6	23.8	0.00e+00	0	44	0	882900992	51	3873
2026-01-23 03:02:33.96	25.02	17.73	-39.6	-40.3	24.1	0.00e+00	0	44	0	888143872	51	3775
2026-01-23 03:02:34.97	25.01	17.85	-39.6	-40.3	24.1	0.00e+00	0	44	0	893386752	51	3777
2026-01-23 03:02:35.98	25.00	17.97	-39.7	-40.4	24.0	0.00e+00	0	44	0	899678208	51	3812
2026-01-23 03:02:36.99	24.99	18.09	-39.6	-40.3	24.1	0.00e+00	0	44	0	904921088	51	3771
2026-01-23 03:02:38.00	24.98	18.21	-39.5	-40.2	24.2	0.00e+00	0	44	0	911212544	51	3734
2026-01-23 03:02:39.01	24.97	18.34	-39.5	-40.3	24.1	0.00e+00	0	44	0	916455424	51	3754
2026-01-23 03:02:40.01	24.95	18.46	-39.6	-40.3	24.1	0.00e+00	0	43	0	922746880	51	3768
2026-01-23 03:02:41.02	24.94	18.58	-39.6	-40.3	24.1	0.00e+00	0	43	0	927989760	51	3755
2026-01-23 03:02:42.03	24.93	18.71	-39.5	-40.2	24.2	0.00e+00	0	43	0	933232640	51	3737
2026-01-23 03:02:43.04	24.92	18.83	-39.5	-40.3	24.1	0.00e+00	0	44	0	939524096	51	3743
2026-01-23 03:02:44.04	24.90	18.96	-39.5	-40.2	24.2	0.00e+00	0	44	0	944766976	51	3732
2026-01-23 03:02:45.05	24.89	19.08	-39.4	-40.1	24.3	0.00e+00	0	44	0	951058432	50	3900
2026-01-23 03:02:46.06	24.88	19.21	-39.4	-40.1	24.3	0.00e+00	0	44	0	956301312	50	3895
2026-01-23 03:02:47.07	24.86	19.34	-39.4	-40.1	24.3	0.00e+00	0	44	0	961544192	50	3892
2026-01-23 03:02:48.08	24.85	19.47	-39.3	-40.0	24.4	0.00e+00	0	44	0	967835648	50	3851
2026-01-23 03:02:49.08	24.84	19.59	-39.3	-40.0	24.4	0.00e+00	0	44	0	973078528	50	3865
2026-01-23 03:02:50.09	24.82	19.72	-39.4	-40.1	24.3	0.00e+00	0	44	0	978321408	50	3903
2026-01-23 03:02:51.10	24.81	19.86	-39.5	-40.2	24.2	0.00e+00	0	44	0	984612864	50	3935
2026-01-23 03:02:52.11	24.79	19.99	-39.2	-39.9	24.5	0.00e+00	0	44	0	990904320	50	3804
2026-01-23 03:02:53.12	24.78	20.12	-39.1	-39.8	24.6	0.00e+00	0	44	0	996147200	50	3771
2026-01-23 03:02:54.12	24.77	20.25	-39.2	-39.9	24.5	0.00e+00	0	44	0	1001390080	50	3803
2026-01-23 03:02:55.13	24.75	20.38	-39.2	-39.9	24.5	0.00e+00	0	44	0	1007681536	50	3820
2026-01-23 03:02:56.14	24.74	20.52	-39.1	-39.9	24.5	0.00e+00	0	44	0	1012924416	50	3782
2026-01-23 03:02:57.15	24.72	20.65	-39.0	-39.7	24.7	0.00e+00	0	44	0	1018167296	49	3922
2026-01-23 03:02:58.16	24.71	20.79	-39.0	-39.7	24.6	0.00e+00	0	44	0	1024458752	49	3951
2026-01-23 03:02:59.16	24.69	20.92	-38.9	-39.6	24.7	0.00e+00	0	44	0	1029701632	49	3913
2026-01-23 03:03:00.17	24.68	21.06	-38.9	-39.7	24.7	0.00e+00	0	44	0	1035993088	49	3917
2026-01-23 03:03:01.18	24.66	21.20	-38.9	-39.6	24.7	0.00e+00	0	43	0	1041235968	49	3903
2026-01-23 03:03:02.19	24.65	21.33	-39.0	-39.7	24.7	0.00e+00	0	44	0	1046478848	49	3931
2026-01-23 03:03:03.20	24.63	21.47	-38.9	-39.6	24.7	0.00e+00	0	44	0	1052770304	49	3901
2026-01-23 03:03:04.20	24.61	21.61	-38.8	-39.6	24.8	0.00e+00	0	44	0	1059061760	49	3875
2026-01-23 03:03:05.21	24.60	21.75	-38.8	-39.5	24.8	0.00e+00	0	44	0	1064304640	49	3850
2026-01-23 03:03:06.22	24.58	21.89	-38.9	-39.7	24.7	0.00e+00	0	43	0	1069547520	49	3920
2026-01-23 03:03:07.23	24.56	22.04	-38.9	-39.6	24.8	0.00e+00	0	44	0	1075838976	49	3882
2026-01-23 03:03:08.23	24.55	22.18	-38.8	-39.5	24.8	0.00e+00	0	44	0	1081081856	49	3843
2026-01-23 03:03:09.24	24.53	22.32	-38.8	-39.5	24.9	0.00e+00	0	44	0	1086324736	49	3853
2026-01-23 03:03:10.25	24.51	22.47	-38.8	-39.5	24.8	0.00e+00	0	44	0	1092616192	49	3844
2026-01-23 03:03:11.26	24.50	22.61	-38.8	-39.5	24.8	0.00e+00	0	44	0	1097859072	49	3859
2026-01-23 03:03:12.26	24.48	22.76	-38.7	-39.4	24.9	0.00e+00	0	44	0	1103101952	49	3823
2026-01-23 03:03:13.27	24.46	22.90	-38.7	-39.4	25.0	0.00e+00	0	44	0	1109393408	49	3793
2026-01-23 03:03:14.28	24.44	23.05	-38.7	-39.4	25.0	0.00e+00	0	44	0	1114636288	49	3811
2026-01-23 03:03:15.29	24.42	23.20	-38.6	-39.4	25.0	0.00e+00	0	44	0	1120927744	49	3783
2026-01-23 03:03:16.30	24.41	23.35	-38.6	-39.3	25.1	0.00e+00	0	44	0	1126170624	49	3750
2026-01-23 03:03:17.31	24.39	23.50	-38.5	-39.2	25.2	0.00e+00	0	44	0	1132462080	49	3711
2026-01-23 03:03:18.31	24.37	23.65	-38.4	-39.1	25.2	0.00e+00	0	44	0	1137704960	48	3906
2026-01-23 03:03:19.32	24.35	23.80	-38.4	-39.1	25.2	0.00e+00	0	44	0	1143996416	48	3904
2026-01-23 03:03:20.33	24.33	23.96	-38.5	-39.2	25.2	0.00e+00	0	44	0	1149239296	48	3920
2026-01-23 03:03:21.34	24.31	24.11	-38.3	-39.0	25.3	0.00e+00	0	44	0	1154482176	48	3848
2026-01-23 03:03:22.35	24.29	24.26	-38.3	-39.0	25.3	0.00e+00	0	44	0	1160773632	48	3832
2026-01-23 03:03:23.35	24.27	24.42	-38.4	-39.0	25.3	0.00e+00	0	44	0	1166016512	48	3864
2026-01-23 03:03:24.36	24.25	24.58	-38.3	-39.0	25.3	0.00e+00	0	44	0	1171259392	48	3852
2026-01-23 03:03:25.37	24.23	24.73	-38.4	-39.0	25.3	0.00e+00	0	44	0	1177550848	48	3863
2026-01-23 03:03:26.38	24.21	24.89	-38.4	-39.1	25.3	0.00e+00	0	44	0	1182793728	48	3874
2026-01-23 03:03:27.38	24.19	25.05	-38.2	-38.9	25.4	0.00e+00	0	44	0	1189085184	48	3803
2026-01-23 03:03:28.39	24.17	25.21	-38.3	-39.0	25.4	0.00e+00	0	44	0	1194328064	48	3829
2026-01-23 03:03:29.40	24.15	25.37	-38.3	-39.0	25.3	0.00e+00	0	44	0	1200619520	48	3846
2026-01-23 03:03:30.41	24.12	25.54	-38.4	-39.1	25.3	0.00e+00	0	44	0	1205862400	48	3872
2026-01-23 03:03:31.41	24.10	25.70	-38.4	-39.1	25.3	0.00e+00	0	44	0	1212153856	48	3871
2026-01-23 03:03:32.42	24.08	25.86	-38.3	-39.0	25.4	0.00e+00	0	44	0	1217396736	48	3830
2026-01-23 03:03:33.43	24.06	26.03	-38.3	-39.0	25.4	0.00e+00	0	44	0	1222639616	48	3843
2026-01-23 03:03:34.44	24.03	26.19	-38.3	-39.0	25.4	0.00e+00	0	43	0	1228931072	48	3843
2026-01-23 03:03:35.44	24.01	26.36	-38.3	-38.9	25.4	0.00e+00	0	44	0	1234173952	48	3819
2026-01-23 03:03:36.45	23.99	26.53	-38.3	-38.9	25.5	0.00e+00	0	44	0	1239416832	48	3819
2026-01-23 03:03:37.46	23.96	26.70	-38.3	-38.9	25.5	0.00e+00	0	44	0	1245708288	48	3824
2026-01-23 03:03:38.47	23.94	26.87	-38.1	-38.8	25.6	0.00e+00	0	44	0	1250951168	48	3760
2026-01-23 03:03:39.48	23.91	27.04	-38.2	-38.9	25.5	0.00e+00	0	44	0	1256194048	48	3800
2026-01-23 03:03:40.49	23.89	27.21	-38.1	-38.8	25.6	0.00e+00	0	44	0	1262485504	48	3761
2026-01-23 03:03:41.49	23.87	27.39	-38.2	-38.9	25.5	0.00e+00	0	44	0	1267728384	48	3795
2026-01-23 03:03:42.50	23.84	27.56	-38.2	-38.9	25.5	0.00e+00	0	44	0	1274019840	48	3797
2026-01-23 03:03:43.51	23.81	27.74	-38.3	-39.0	25.4	0.00e+00	0	44	0	1279262720	48	3860
2026-01-23 03:03:44.52	23.79	27.92	-38.3	-39.0	25.4	0.00e+00	0	44	0	1285554176	48	3855
2026-01-23 03:03:45.53	23.76	28.09	-38.4	-39.1	25.4	0.00e+00	0	44	0	1290797056	48	3888
2026-01-23 03:03:46.53	23.74	28.27	-38.4	-39.1	25.4	0.00e+00	0	44	0	1297088512	48	3888
2026-01-23 03:03:47.54	23.71	28.45	-38.4	-39.1	25.3	0.00e+00	0	44	0	1302331392	48	3898
2026-01-23 03:03:48.55	23.68	28.64	-38.4	-39.1	25.4	0.00e+00	0	44	0	1307574272	48	3886
2026-01-23 03:03:49.56	23.65	28.82	-38.4	-39.1	25.3	0.00e+00	0	44	0	1313865728	48	3909
2026-01-23 03:03:50.57	23.63	29.00	-38.4	-39.1	25.3	0.00e+00	0	44	0	1319108608	48	3907
2026-01-23 03:03:51.57	23.60	29.19	-38.5	-39.2	25.3	0.00e+00	0	44	0	1324351488	48	3924
2026-01-23 03:03:52.58	23.57	29.37	-38.5	-39.3	25.2	0.00e+00	0	44	0	1330642944	48	3966
2026-01-23 03:03:53.59	23.54	29.56	-38.5	-39.2	25.3	0.00e+00	0	44	0	1335885824	48	3926
2026-01-23 03:03:54.60	23.51	29.75	-38.5	-39.2	25.3	0.00e+00	0	44	0	1341128704	48	3952
2026-01-23 03:03:55.60	23.48	29.94	-38.4	-39.2	25.3	0.00e+00	0	44	0	1347420160	48	3918
2026-01-23 03:03:56.61	23.45	30.13	-38.3	-39.0	25.5	0.00e+00	0	44	0	1353711616	48	3854
2026-01-23 03:03:57.62	23.42	30.33	-38.3	-39.0	25.5	0.00e+00	0	44	0	1358954496	48	3862
2026-01-23 03:03:58.63	23.39	30.52	-38.1	-38.8	25.7	0.00e+00	0	44	0	1364197376	48	3752
2026-01-23 03:03:59.64	23.36	30.72	-37.6	-38.4	25.6	0.00e+00	0	44	0	1370488832	47	3783
2026-01-23 03:04:00.65	23.32	30.91	-37.8	-38.5	25.5	0.00e+00	0	44	0	1375731712	47	3829
2026-01-23 03:04:01.65	23.29	31.11	-37.5	-38.2	25.7	0.00e+00	0	44	0	1382023168	47	3706
2026-01-23 03:04:02.66	23.26	31.31	-37.6	-38.3	25.6	0.00e+00	0	44	0	1387266048	47	3756
2026-01-23 03:04:03.67	23.22	31.51	-37.5	-38.2	25.7	0.00e+00	0	44	0	1392508928	47	3729
2026-01-23 03:04:04.68	23.19	31.71	-37.5	-38.2	25.7	0.00e+00	0	44	0	1398800384	47	3715
2026-01-23 03:04:05.69	23.16	31.92	-37.6	-38.3	25.6	0.00e+00	0	44	0	1404043264	47	3745
2026-01-23 03:04:06.69	23.12	32.12	-37.7	-38.4	25.5	0.00e+00	0	44	0	1409286144	47	3808
2026-01-23 03:04:07.70	23.09	32.33	-37.6	-38.3	25.6	0.00e+00	0	44	0	1415577600	47	3777
2026-01-23 03:04:08.71	23.05	32.54	-37.8	-38.5	25.5	0.00e+00	0	44	0	1421869056	47	3832
2026-01-23 03:04:09.72	23.01	32.75	-37.8	-38.5	25.4	0.00e+00	0	44	0	1427111936	47	3866
2026-01-23 03:04:10.72	22.98	32.95	-37.9	-38.6	25.4	0.00e+00	0	44	0	1432354816	47	3888
2026-01-23 03:04:11.73	22.94	33.17	-38.0	-38.8	25.2	0.00e+00	0	44	0	1438646272	47	3964
2026-01-23 03:04:12.74	22.90	33.38	-38.1	-38.8	25.2	0.00e+00	0	44	0	1443889152	47	3974
2026-01-23 03:04:13.75	22.86	33.60	-37.8	-38.5	25.4	0.00e+00	0	44	0	1449132032	47	3864
2026-01-23 03:04:14.76	22.82	33.81	-37.8	-38.5	25.4	0.00e+00	0	44	0	1455423488	47	3852
2026-01-23 03:04:15.76	22.79	34.03	-37.7	-38.4	25.5	0.00e+00	0	44	0	1460666368	47	3801
2026-01-23 03:04:16.77	22.74	34.25	-37.6	-38.3	25.7	0.00e+00	0	44	0	1466957824	47	3760
2026-01-23 03:04:17.78	22.70	34.47	-37.5	-38.2	25.7	0.00e+00	0	44	0	1472200704	47	3736
2026-01-23 03:04:18.79	22.66	34.70	-37.5	-38.2	25.7	0.00e+00	0	44	0	1477443584	46	3946
2026-01-23 03:04:19.80	22.62	34.92	-37.5	-38.2	25.7	0.00e+00	0	44	0	1483735040	46	3933
2026-01-23 03:04:20.81	22.58	35.15	-37.3	-38.0	25.9	0.00e+00	0	44	0	1490026496	46	3849
2026-01-23 03:04:21.81	22.53	35.37	-37.3	-38.0	25.9	0.00e+00	0	44	0	1495269376	46	3844
2026-01-23 03:04:22.82	22.49	35.60	-37.3	-37.9	26.0	0.00e+00	0	44	0	1500512256	46	3824
2026-01-23 03:04:23.83	22.45	35.83	-37.2	-37.9	26.0	0.00e+00	0	44	0	1506803712	46	3810
2026-01-23 03:04:24.84	22.40	36.07	-37.1	-37.8	26.0	0.00e+00	0	44	0	1512046592	46	3768
2026-01-23 03:04:25.84	22.35	36.30	-37.2	-37.8	26.1	0.00e+00	0	44	0	1517289472	46	3771
2026-01-23 03:04:26.85	22.31	36.54	-37.1	-37.8	26.1	0.00e+00	0	44	0	1523580928	46	3756
2026-01-23 03:04:27.86	22.26	36.77	-37.1	-37.8	26.1	0.00e+00	0	44	0	1528823808	46	3760
2026-01-23 03:04:28.87	22.21	37.01	-37.3	-38.0	26.0	0.00e+00	0	44	0	1534066688	46	3829
2026-01-23 03:04:29.87	22.16	37.25	-37.3	-38.0	25.9	0.00e+00	0	44	0	1540358144	46	3852
2026-01-23 03:04:30.88	22.11	37.50	-37.3	-38.0	25.9	0.00e+00	0	44	0	1545601024	46	3832
2026-01-23 03:04:31.89	22.06	37.74	-37.2	-37.9	26.0	0.00e+00	0	44	0	1551892480	46	3807
2026-01-23 03:04:32.90	22.01	37.99	-37.2	-37.9	26.0	0.00e+00	0	44	0	1557135360	46	3797
2026-01-23 03:04:33.90	21.96	38.23	-37.2	-37.9	26.0	0.00e+00	0	44	0	1563426816	46	3799
2026-01-23 03:04:34.91	21.90	38.48	-37.1	-37.8	26.1	0.00e+00	0	44	0	1568669696	46	3770
2026-01-23 03:04:35.92	21.85	38.74	-37.1	-37.8	26.1	0.00e+00	0	44	0	1574961152	46	3757
2026-01-23 03:04:36.93	21.79	38.99	-37.2	-37.9	26.1	0.00e+00	0	44	0	1580204032	46	3789
2026-01-23 03:04:37.94	21.74	39.25	-37.4	-38.1	25.9	0.00e+00	0	44	0	1585446912	46	3877
2026-01-23 03:04:38.95	21.68	39.50	-37.5	-38.2	25.8	0.00e+00	0	44	0	1591738368	46	3918
2026-01-23 03:04:39.95	21.62	39.76	-37.7	-38.4	25.6	0.00e+00	0	44	0	1596981248	46	4011
2026-01-23 03:04:40.96	21.56	40.02	-37.8	-38.5	25.5	0.00e+00	0	44	0	1602224128	46	4077
2026-01-23 03:04:41.97	21.50	40.29	-37.9	-38.6	25.4	0.00e+00	0	44	0	1608515584	46	4128
2026-01-23 03:04:42.98	21.44	40.55	-37.9	-38.7	25.4	0.00e+00	0	44	0	1613758464	46	4153
2026-01-23 03:04:43.98	21.38	40.82	-38.1	-38.8	25.3	0.00e+00	0	44	0	1619001344	46	4219
2026-01-23 03:04:44.99	21.32	41.09	-38.0	-38.7	25.4	0.00e+00	0	44	0	1625292800	46	4151
2026-01-23 03:04:46.00	21.25	41.36	-38.0	-38.7	25.4	0.00e+00	0	44	0	1631584256	46	4178
2026-01-23 03:04:47.01	21.19	41.63	-38.0	-38.7	25.4	0.00e+00	0	44	0	1636827136	46	4159
2026-01-23 03:04:48.02	21.12	41.91	-38.1	-38.8	25.2	0.00e+00	0	44	0	1642070016	46	4239
2026-01-23 03:04:49.02	21.05	42.18	-38.0	-38.8	25.3	0.00e+00	0	44	0	1648361472	46	4198
2026-01-23 03:04:50.03	20.98	42.46	-37.9	-38.6	25.5	0.00e+00	0	44	0	1653604352	46	4137
2026-01-23 03:04:51.04	20.91	42.74	-37.9	-38.5	25.5	0.00e+00	0	44	0	1659895808	46	4097
2026-01-23 03:04:52.05	20.84	43.03	-37.8	-38.4	25.6	0.00e+00	0	44	0	1665138688	46	4044
2026-01-23 03:04:53.06	20.77	43.31	-37.5	-38.1	25.9	0.00e+00	0	44	0	1670381568	46	3905
2026-01-23 03:04:54.07	20.69	43.60	-37.5	-38.2	25.8	0.00e+00	0	44	0	1676673024	46	3934
2026-01-23 03:04:55.07	20.62	43.89	-37.7	-38.4	25.6	0.00e+00	0	44	0	1681915904	46	4039
2026-01-23 03:04:56.08	20.54	44.18	-37.8	-38.5	25.5	0.00e+00	0	44	0	1687158784	46	4082
2026-01-23 03:04:57.09	20.46	44.47	-37.9	-38.6	25.5	0.00e+00	0	44	0	1693450240	46	4108
2026-01-23 03:04:58.10	20.38	44.77	-37.9	-38.6	25.4	0.00e+00	0	44	0	1698693120	46	4143
2026-01-23 03:04:59.11	20.30	45.07	-37.9	-38.6	25.4	0.00e+00	0	44	0	1704984576	46	4135
2026-01-23 03:05:00.11	20.22	45.37	-37.9	-38.6	25.5	0.00e+00	0	44	0	1710227456	46	4144
2026-01-23 03:05:01.12	20.13	45.67	-38.0	-38.7	25.4	0.00e+00	0	44	0	1716518912	46	4160
2026-01-23 03:05:02.13	20.04	45.97	-38.1	-38.8	25.3	0.00e+00	0	44	0	1721761792	46	4232
2026-01-23 03:05:03.14	19.95	46.28	-38.2	-38.9	25.2	0.00e+00	0	44	0	1727004672	47	4041
2026-01-23 03:05:04.15	19.86	46.59	-38.1	-38.8	25.3	0.00e+00	0	44	0	1733296128	47	3985
2026-01-23 03:05:05.15	19.77	46.90	-37.9	-38.6	25.5	0.00e+00	0	44	0	1738539008	47	3880
2026-01-23 03:05:06.16	19.68	47.21	-37.8	-38.5	25.6	0.00e+00	0	44	0	1744830464	47	3837
2026-01-23 03:05:07.17	19.58	47.53	-37.9	-38.6	25.5	0.00e+00	0	44	0	1750073344	47	3882
2026-01-23 03:05:08.18	19.48	47.85	-37.9	-38.6	25.5	0.00e+00	0	44	0	1755316224	47	3893
2026-01-23 03:05:09.19	19.38	48.17	-38.1	-38.8	25.4	0.00e+00	0	44	0	1761607680	47	3963
2026-01-23 03:05:10.20	19.28	48.49	-38.3	-39.0	25.2	0.00e+00	0	44	0	1767899136	47	4071
2026-01-23 03:05:11.21	19.17	48.82	-38.3	-39.0	25.2	0.00e+00	0	44	0	1773142016	47	4067
2026-01-23 03:05:12.22	19.06	49.15	-38.1	-38.8	25.4	0.00e+00	0	44	0	1778384896	47	3975
2026-01-23 03:05:13.23	18.95	49.48	-37.9	-38.6	25.5	0.00e+00	0	44	0	1784676352	47	3901
2026-01-23 03:05:14.23	18.84	49.80	-37.8	-38.5	25.6	0.00e+00	0	44	0	1789919232	47	3857
2026-01-23 03:05:15.24	18.73	50.14	-38.0	-38.7	25.5	0.00e+00	0	44	0	1795162112	47	3919
2026-01-23 03:05:16.25	18.61	50.48	-38.4	-39.1	25.1	0.00e+00	0	44	0	1801453568	47	4100
2026-01-23 03:05:17.26	18.49	50.82	-39.1	-39.8	25.1	0.00e+00	0	44	0	1806696448	48	4215
2026-01-23 03:05:18.27	18.36	51.16	-39.3	-40.0	24.9	0.00e+00	0	44	0	1811939328	49	4064
2026-01-23 03:05:19.28	18.24	51.50	-39.3	-40.0	24.9	0.00e+00	0	44	0	1818230784	49	4065
2026-01-23 03:05:20.29	18.11	51.85	-39.3	-40.0	24.9	0.00e+00	0	44	0	1823473664	49	4063
2026-01-23 03:05:21.29	17.98	52.19	-39.5	-40.2	24.7	0.00e+00	0	44	0	1829765120	49	4161
2026-01-23 03:05:22.30	17.84	52.55	-39.5	-40.2	24.7	0.00e+00	0	44	0	1835008000	49	4188
2026-01-23 03:05:23.31	17.70	52.90	-39.5	-40.2	24.7	0.00e+00	0	44	0	1841299456	49	4162
2026-01-23 03:05:24.32	17.56	53.25	-39.6	-40.3	24.6	0.00e+00	0	44	0	1846542336	49	4204
2026-01-23 03:05:25.32	17.41	53.61	-39.5	-40.2	24.7	0.00e+00	0	44	0	1852833792	49	4154
2026-01-23 03:05:26.33	17.26	53.97	-39.6	-40.3	24.6	0.00e+00	0	44	0	1858076672	49	4221
2026-01-23 03:05:27.34	17.11	54.33	-39.8	-40.5	24.4	0.00e+00	0	44	0	1863319552	50	4095
2026-01-23 03:05:28.35	16.95	54.70	-39.8	-40.5	24.5	0.00e+00	0	44	0	1869611008	50	4069
2026-01-23 03:05:29.36	16.79	55.07	-39.4	-40.1	24.8	0.00e+00	0	44	0	1874853888	50	3893
2026-01-23 03:05:30.36	16.62	55.43	-39.3	-40.0	24.9	0.00e+00	0	44	0	1880096768	50	3850
2026-01-23 03:05:31.37	16.45	55.80	-39.1	-39.8	25.1	0.00e+00	0	44	0	1886388224	50	3758
2026-01-23 03:05:32.38	16.28	56.18	-38.9	-39.6	25.2	0.00e+00	0	44	0	1891631104	49	3902
2026-01-23 03:05:33.39	16.10	56.56	-39.0	-39.7	25.1	0.00e+00	0	44	0	1896873984	49	3943
2026-01-23 03:05:34.40	15.91	56.94	-39.2	-39.9	25.0	0.00e+00	0	44	0	1903165440	49	4035
2026-01-23 03:05:35.41	15.72	57.32	-39.1	-39.8	25.1	0.00e+00	0	44	0	1909456896	49	3977
2026-01-23 03:05:36.42	15.52	57.70	-38.9	-39.6	25.3	0.00e+00	0	44	0	1914699776	49	3882
2026-01-23 03:05:37.43	15.32	58.09	-38.7	-39.4	25.5	0.00e+00	0	44	0	1919942656	49	3795
2026-01-23 03:05:38.43	15.11	58.47	-38.5	-39.1	25.6	0.00e+00	0	44	0	1926234112	48	3912
2026-01-23 03:05:39.44	14.90	58.86	-38.6	-39.2	25.6	0.00e+00	0	44	0	1931476992	48	3956
2026-01-23 03:05:40.45	14.67	59.25	-38.7	-39.4	25.4	0.00e+00	0	44	0	1937768448	48	4031
2026-01-23 03:05:41.46	14.44	59.65	-38.7	-39.3	25.5	0.00e+00	0	44	0	1943011328	48	4002
2026-01-23 03:05:42.47	14.21	60.04	-38.1	-38.7	26.0	0.00e+00	0	44	0	1948254208	48	3720
2026-01-23 03:05:43.47	13.97	60.44	-37.6	-38.3	25.9	0.00e+00	0	44	0	1954545664	47	3749
2026-01-23 03:05:44.48	13.72	60.84	-37.8	-38.5	25.7	0.00e+00	0	44	0	1959788544	47	3827
2026-01-23 03:05:45.49	13.46	61.24	-37.8	-38.5	25.7	0.00e+00	0	44	0	1965031424	47	3854
2026-01-23 03:05:46.50	13.19	61.65	-37.4	-38.1	26.0	0.00e+00	0	44	0	1971322880	46	3885
2026-01-23 03:05:47.50	12.91	62.05	-37.4	-38.1	26.0	0.00e+00	0	44	0	1977614336	46	3891
2026-01-23 03:05:48.51	12.63	62.46	-37.7	-38.4	25.8	0.00e+00	0	44	0	1982857216	46	4035
2026-01-23 03:05:49.52	12.33	62.87	-38.0	-38.8	25.5	0.00e+00	0	44	0	1988100096	46	4195
2026-01-23 03:05:50.53	12.02	63.28	-37.9	-38.6	25.6	0.00e+00	0	44	0	1994391552	46	4128
2026-01-23 03:05:51.54	11.71	63.69	-37.8	-38.5	25.7	0.00e+00	0	44	0	1999634432	46	4062
2026-01-23 03:05:52.55	11.38	64.11	-37.9	-38.6	25.6	0.00e+00	0	44	0	2004877312	46	4117
2026-01-23 03:05:53.56	11.03	64.53	-38.1	-38.8	25.4	0.00e+00	0	44	0	2011168768	46	4237
2026-01-23 03:05:54.57	10.68	64.94	-37.9	-38.6	25.6	0.00e+00	0	44	0	2016411648	46	4114
2026-01-23 03:05:55.57	10.31	65.36	-37.3	-38.0	26.1	0.00e+00	0	44	0	2022703104	46	3840
2026-01-23 03:05:56.58	9.93	65.78	-37.4	-38.1	26.1	0.00e+00	0	44	0	2027945984	46	3871
2026-01-23 03:05:57.59	9.53	66.20	-37.6	-38.3	25.9	0.00e+00	0	44	0	2033188864	46	3982
2026-01-23 03:05:58.60	9.12	66.63	-37.4	-38.2	26.0	0.00e+00	0	44	0	2039480320	46	3914
2026-01-23 03:05:59.61	8.69	67.05	-37.4	-38.0	26.1	0.00e+00	0	44	0	2045771776	46	3864
2026-01-23 03:06:00.62	8.24	67.47	-37.2	-37.9	26.2	0.00e+00	0	44	0	2051014656	46	3791
2026-01-23 03:06:01.63	7.77	67.90	-37.4	-38.1	26.0	0.00e+00	0	44	0	2056257536	46	3894
2026-01-23 03:06:02.63	7.29	68.32	-37.4	-38.1	26.1	0.00e+00	0	44	0	2062548992	46	3889
2026-01-23 03:06:03.64	6.78	68.75	-37.4	-38.1	26.1	0.00e+00	0	44	0	2067791872	46	3881
2026-01-23 03:06:04.65	6.25	69.18	-37.2	-37.8	26.3	0.00e+00	0	44	0	2073034752	46	3773
2026-01-23 03:06:05.66	5.69	69.61	-37.1	-37.8	26.3	0.00e+00	0	44	0	2079326208	46	3757
2026-01-23 03:06:06.66	5.11	70.03	-37.0	-37.7	26.4	0.00e+00	0	44	0	2084569088	46	3720
2026-01-23 03:06:07.67	4.50	70.46	-36.7	-37.4	26.6	0.00e+00	0	44	0	2089811968	45	3792
2026-01-23 03:06:08.68	3.86	70.88	-36.8	-37.5	26.6	0.00e+00	0	44	0	2096103424	45	3829
2026-01-23 03:06:09.69	3.19	71.31	-36.7	-37.4	26.6	0.00e+00	0	44	0	2101346304	45	3806
2026-01-23 03:06:10.70	2.49	71.74	-36.6	-37.3	26.8	0.00e+00	0	44	0	2107637760	45	3748
2026-01-23 03:06:11.70	1.76	72.16	-36.3	-36.9	27.0	0.00e+00	0	44	0	2112880640	44	3815
2026-01-23 03:06:12.71	0.98	72.58	-36.3	-36.9	27.1	0.00e+00	0	44	0	2119172096	44	3806
2026-01-23 03:06:13.72	0.16	73.00	-36.5	-37.2	26.8	0.00e+00	0	44	0	2124414976	44	3917
2026-01-23 03:06:14.73	359.30	73.42	-36.4	-37.0	26.9	0.00e+00	0	44	0	2130706432	44	3856
2026-01-23 03:06:15.73	358.40	73.84	-36.5	-37.1	26.8	0.00e+00	0	44	0	2135949312	44	3897
2026-01-23 03:06:16.74	357.44	74.25	-36.8	-37.4	26.6	0.00e+00	0	44	0	2141192192	44	4041
2026-01-23 03:06:17.75	356.43	74.66	-36.3	-37.0	27.0	0.00e+00	0	44	0	2147483648	44	3834
2026-01-23 03:06:18.76	355.36	75.07	-36.2	-36.9	27.0	0.00e+00	0	44	0	2152726528	44	3788
2026-01-23 03:06:19.77	354.22	75.48	-36.4	-37.0	27.0	0.00e+00	0	44	0	2157969408	44	3861
2026-01-23 03:06:20.78	353.02	75.88	-36.4	-37.0	27.0	0.00e+00	0	44	0	2164260864	44	3858
2026-01-23 03:06:21.78	351.76	76.27	-36.2	-36.9	27.1	0.00e+00	0	44	0	2169503744	44	3802
2026-01-23 03:06:22.79	350.41	76.65	-36.0	-36.7	27.2	0.00e+00	0	44	0	2174746624	44	3718
2026-01-23 03:06:23.80	348.98	77.04	-36.1	-36.7	27.2	0.00e+00	0	44	0	2181038080	44	3737
2026-01-23 03:06:24.81	347.45	77.41	-36.1	-36.7	27.2	0.00e+00	0	44	0	2187329536	44	3728
2026-01-23 03:06:25.82	345.84	77.78	-35.9	-36.6	27.2	0.00e+00	0	44	0	2192572416	43	3895
2026-01-23 03:06:26.83	344.12	78.13	-36.0	-36.7	27.1	0.00e+00	0	44	0	2197815296	43	3934
2026-01-23 03:06:27.84	342.29	78.48	-36.0	-36.6	27.2	0.00e+00	0	44	0	2204106752	43	3904
2026-01-23 03:06:28.84	340.37	78.81	-35.6	-36.3	27.5	0.00e+00	0	44	0	2209349632	43	3740
2026-01-23 03:06:29.85	338.31	79.13	-35.2	-35.9	27.8	0.00e+00	0	44	0	2215641088	42	3788
2026-01-23 03:06:30.86	336.12	79.44	-35.3	-35.9	27.7	0.00e+00	0	44	0	2220883968	42	3817
2026-01-23 03:06:31.87	333.80	79.73	-35.1	-35.7	27.9	0.00e+00	0	44	0	2226126848	42	3724
2026-01-23 03:06:32.88	331.35	80.01	-35.1	-35.7	27.9	0.00e+00	0	44	0	2232418304	42	3734
2026-01-23 03:06:33.89	328.77	80.27	-35.1	-35.7	27.9	0.00e+00	0	44	0	2237661184	42	3721
2026-01-23 03:06:34.89	326.07	80.50	-35.1	-35.7	27.9	0.00e+00	0	44	0	2242904064	42	3730
2026-01-23 03:06:35.90	323.21	80.72	-35.0	-35.6	28.0	0.00e+00	0	44	0	2249195520	42	3684
2026-01-23 03:06:36.91	320.22	80.91	-35.0	-35.7	27.9	0.00e+00	0	44	0	2255486976	41	3916
2026-01-23 03:06:37.92	317.11	81.07	-35.2	-35.8	27.8	0.00e+00	0	44	0	2260729856	41	3983
2026-01-23 03:06:38.92	313.93	81.21	-34.8	-35.5	28.1	0.00e+00	0	44	0	2265972736	41	3825
2026-01-23 03:06:39.93	310.61	81.32	-34.7	-35.3	28.2	0.00e+00	0	44	0	2272264192	41	3779
2026-01-23 03:06:40.94	307.23	81.40	-34.8	-35.4	28.2	0.00e+00	0	44	0	2277507072	41	3799
2026-01-23 03:06:41.95	303.79	81.45	-34.8	-35.4	28.2	0.00e+00	0	44	0	2282749952	41	3793
2026-01-23 03:06:42.96	300.31	81.47	-34.9	-35.5	28.1	0.00e+00	0	44	0	2289041408	41	3840
2026-01-23 03:06:43.96	296.87	81.46	-34.9	-35.5	28.1	0.00e+00	0	44	0	2294284288	41	3854
2026-01-23 03:06:44.97	293.42	81.42	-34.8	-35.4	28.1	0.00e+00	0	44	0	2300575744	41	3794
2026-01-23 03:06:45.98	290.01	81.35	-35.0	-35.6	28.0	0.00e+00	0	44	0	2305818624	41	3913
2026-01-23 03:06:46.99	286.67	81.25	-35.2	-35.8	27.9	0.00e+00	0	44	0	2311061504	41	3985
2026-01-23 03:06:48.00	283.42	81.12	-35.3	-36.0	27.7	0.00e+00	0	44	0	2317352960	41	4054
2026-01-23 03:06:49.01	280.28	80.96	-35.3	-35.9	27.7	0.00e+00	0	44	0	2323644416	41	4045
2026-01-23 03:06:50.01	277.28	80.78	-35.2	-35.8	27.8	0.00e+00	0	44	0	2328887296	41	3989
2026-01-23 03:06:51.02	274.38	80.57	-35.2	-35.9	27.8	0.00e+00	0	44	0	2334130176	41	4014
2026-01-23 03:06:52.03	271.61	80.34	-35.4	-36.1	27.6	0.00e+00	0	44	0	2340421632	41	4111
2026-01-23 03:06:53.04	268.98	80.09	-35.0	-35.7	27.9	0.00e+00	0	44	0	2345664512	41	3923
2026-01-23 03:06:54.04	266.50	79.83	-35.1	-35.7	27.9	0.00e+00	0	44	0	2350907392	41	3938
2026-01-23 03:06:55.05	264.14	79.54	-35.4	-36.1	27.7	0.00e+00	0	44	0	2357198848	41	4109
2026-01-23 03:06:56.06	261.91	79.23	-35.4	-36.0	27.7	0.00e+00	0	44	0	2362441728	41	4074
2026-01-23 03:06:57.07	259.81	78.92	-35.4	-36.1	27.6	0.00e+00	0	44	0	2367684608	41	4104
2026-01-23 03:06:58.08	257.83	78.59	-35.4	-36.0	27.7	0.00e+00	0	44	0	2373976064	41	4089
2026-01-23 03:06:59.08	255.99	78.25	-35.3	-36.0	27.8	0.00e+00	0	44	0	2379218944	41	4065
2026-01-23 03:07:00.09	254.23	77.89	-35.2	-35.8	27.8	0.00e+00	0	44	0	2385510400	41	4002
2026-01-23 03:07:01.10	252.58	77.53	-35.5	-36.1	27.6	0.00e+00	0	44	0	2390753280	41	4128
2026-01-23 03:07:02.11	251.03	77.16	-35.6	-36.3	27.5	0.00e+00	0	44	0	2397044736	41	4198
2026-01-23 03:07:03.12	249.57	76.78	-35.7	-36.4	27.4	0.00e+00	0	44	0	2402287616	41	4243
2026-01-23 03:07:04.12	248.20	76.39	-35.8	-36.4	27.4	0.00e+00	0	44	0	2408579072	42	4040
2026-01-23 03:07:05.13	246.91	76.00	-35.7	-36.4	27.5	0.00e+00	0	44	0	2413821952	42	4028
2026-01-23 03:07:06.14	245.68	75.60	-35.7	-36.3	27.5	0.00e+00	0	44	0	2419064832	42	3999
2026-01-23 03:07:07.15	244.52	75.20	-35.6	-36.2	27.6	0.00e+00	0	44	0	2425356288	42	3937
2026-01-23 03:07:08.16	243.43	74.79	-35.7	-36.4	27.5	0.00e+00	0	44	0	2430599168	42	4008
2026-01-23 03:07:09.16	242.41	74.38	-36.0	-36.7	27.2	0.00e+00	0	44	0	2435842048	42	4149
2026-01-23 03:07:10.17	241.43	73.97	-36.0	-36.7	27.2	0.00e+00	0	44	0	2442133504	42	4147
2026-01-23 03:07:11.18	240.51	73.55	-36.1	-36.8	27.2	0.00e+00	0	44	0	2447376384	42	4202
2026-01-23 03:07:12.19	239.63	73.13	-36.2	-36.9	27.0	0.00e+00	0	44	0	2452619264	43	4017
2026-01-23 03:07:13.20	238.80	72.71	-36.3	-36.9	27.0	0.00e+00	0	44	0	2458910720	43	4041
2026-01-23 03:07:14.21	238.01	72.29	-36.6	-37.3	26.7	0.00e+00	0	44	0	2465202176	43	4204
2026-01-23 03:07:15.21	237.26	71.87	-36.9	-37.6	26.6	0.00e+00	0	44	0	2470445056	44	4117
2026-01-23 03:07:16.22	236.55	71.44	-36.7	-37.3	26.8	0.00e+00	0	44	0	2475687936	44	3997
2026-01-23 03:07:17.23	235.87	71.01	-36.6	-37.3	26.8	0.00e+00	0	44	0	2481979392	44	3964
2026-01-23 03:07:18.23	235.22	70.59	-37.0	-37.7	26.5	0.00e+00	0	44	0	2487222272	44	4152
2026-01-23 03:07:19.24	234.60	70.16	-37.5	-38.2	26.1	0.00e+00	0	44	0	2493513728	45	4183
2026-01-23 03:07:20.25	234.01	69.73	-37.6	-38.3	26.0	0.00e+00	0	44	0	2498756608	45	4219
2026-01-23 03:07:21.26	233.45	69.30	-37.7	-38.3	25.9	0.00e+00	0	44	0	2503999488	45	4236
2026-01-23 03:07:22.27	232.91	68.88	-37.6	-38.3	26.0	0.00e+00	0	44	0	2510290944	46	4000
2026-01-23 03:07:23.28	232.39	68.45	-37.6	-38.3	26.1	0.00e+00	0	44	0	2515533824	46	3966
2026-01-23 03:07:24.29	231.89	68.02	-37.6	-38.3	26.0	0.00e+00	0	44	0	2520776704	46	3984
2026-01-23 03:07:25.29	231.42	67.60	-37.6	-38.3	26.0	0.00e+00	0	44	0	2527068160	46	3965
2026-01-23 03:07:26.30	230.97	67.17	-37.5	-38.2	26.1	0.00e+00	0	44	0	2533359616	46	3917
2026-01-23 03:07:27.31	230.53	66.75	-37.1	-37.8	26.5	0.00e+00	0	44	0	2538602496	46	3739
2026-01-23 03:07:28.32	230.11	66.32	-37.0	-37.7	26.5	0.00e+00	0	44	0	2543845376	45	3935
2026-01-23 03:07:29.33	229.71	65.90	-37.0	-37.7	26.5	0.00e+00	0	44	0	2550136832	45	3923
2026-01-23 03:07:30.33	229.33	65.48	-37.0	-37.7	26.5	0.00e+00	0	44	0	2555379712	45	3930
2026-01-23 03:07:31.34	228.95	65.06	-37.0	-37.6	26.5	0.00e+00	0	44	0	2560622592	45	3910
2026-01-23 03:07:32.35	228.59	64.64	-37.0	-37.6	26.5	0.00e+00	0	44	0	2566914048	45	3908
2026-01-23 03:07:33.36	228.25	64.22	-37.3	-38.0	26.2	0.00e+00	0	44	0	2572156928	45	4060
2026-01-23 03:07:34.36	227.92	63.81	-37.1	-37.8	26.4	0.00e+00	0	44	0	2578448384	45	3983
2026-01-23 03:07:35.37	227.59	63.40	-37.2	-37.8	26.4	0.00e+00	0	44	0	2583691264	45	3986
2026-01-23 03:07:36.38	227.28	62.98	-37.2	-37.8	26.4	0.00e+00	0	44	0	2588934144	45	3994
2026-01-23 03:07:37.38	226.98	62.58	-37.2	-37.9	26.3	0.00e+00	0	44	0	2595225600	45	4019
2026-01-23 03:07:38.39	226.69	62.17	-37.4	-38.1	26.2	0.00e+00	0	44	0	2600468480	45	4102
2026-01-23 03:07:39.40	226.41	61.76	-37.5	-38.2	26.0	0.00e+00	0	44	0	2606759936	45	4186
2026-01-23 03:07:40.41	226.14	61.35	-37.6	-38.3	25.9	0.00e+00	0	44	0	2612002816	45	4235
2026-01-23 03:07:41.42	225.88	60.95	-37.6	-38.3	26.0	0.00e+00	0	44	0	2618294272	45	4231
2026-01-23 03:07:42.43	225.63	60.55	-37.5	-38.2	26.0	0.00e+00	0	44	0	2623537152	45	4167
2026-01-23 03:07:43.44	225.38	60.15	-37.6	-38.3	26.0	0.00e+00	0	44	0	2628780032	45	4204
2026-01-23 03:07:44.44	225.14	59.75	-37.8	-38.5	25.8	0.00e+00	0	44	0	2635071488	46	4057
2026-01-23 03:07:45.45	224.91	59.36	-38.1	-38.8	25.5	0.00e+00	0	44	0	2640314368	46	4220
2026-01-23 03:07:46.46	224.69	58.96	-38.4	-39.2	25.2	0.00e+00	0	44	0	2645557248	47	4159
2026-01-23 03:07:47.47	224.47	58.57	-38.6	-39.3	25.1	0.00e+00	0	44	0	2651848704	47	4227
2026-01-23 03:07:48.48	224.26	58.18	-38.7	-39.4	25.0	0.00e+00	0	44	0	2657091584	47	4282
2026-01-23 03:07:49.48	224.06	57.80	-39.2	-39.9	25.1	0.00e+00	0	44	0	2663383040	48	4244
2026-01-23 03:07:50.49	223.86	57.41	-39.4	-40.1	25.0	0.00e+00	0	44	0	2668625920	49	4102
2026-01-23 03:07:51.50	223.66	57.03	-39.4	-40.1	25.0	0.00e+00	0	44	0	2674917376	49	4103
2026-01-23 03:07:52.51	223.48	56.65	-39.3	-40.0	25.0	0.00e+00	0	44	0	2680160256	49	4070
2026-01-23 03:07:53.52	223.29	56.27	-39.3	-40.0	25.0	0.00e+00	0	44	0	2686451712	49	4091
2026-01-23 03:07:54.52	223.12	55.90	-39.2	-39.9	25.1	0.00e+00	0	44	0	2691694592	49	4023
2026-01-23 03:07:55.53	222.94	55.52	-39.1	-39.8	25.2	0.00e+00	0	44	0	2696937472	49	3984
2026-01-23 03:07:56.54	222.78	55.15	-38.9	-39.6	25.3	0.00e+00	0	44	0	2703228928	49	3876
2026-01-23 03:07:57.55	222.61	54.78	-38.9	-39.6	25.4	0.00e+00	0	44	0	2708471808	49	3888
2026-01-23 03:07:58.55	222.45	54.42	-38.8	-39.5	25.4	0.00e+00	0	44	0	2713714688	49	3857
2026-01-23 03:07:59.56	222.30	54.05	-38.9	-39.6	25.4	0.00e+00	0	44	0	2720006144	49	3897
2026-01-23 03:08:00.57	222.15	53.69	-38.9	-39.6	25.3	0.00e+00	0	44	0	2725249024	49	3898
2026-01-23 03:08:01.58	222.00	53.33	-38.9	-39.6	25.3	0.00e+00	0	44	0	2730491904	49	3880
2026-01-23 03:08:02.59	221.85	52.97	-38.9	-39.6	25.3	0.00e+00	0	44	0	2736783360	49	3883
2026-01-23 03:08:03.59	221.71	52.62	-39.0	-39.7	25.3	0.00e+00	0	44	0	2742026240	49	3926
2026-01-23 03:08:04.60	221.58	52.27	-38.8	-39.5	25.4	0.00e+00	0	44	0	2748317696	49	3838
2026-01-23 03:08:05.61	221.44	51.92	-39.0	-39.7	25.3	0.00e+00	0	44	0	2753560576	49	3921
2026-01-23 03:08:06.61	221.31	51.58	-38.9	-39.6	25.3	0.00e+00	0	44	0	2759852032	49	3903
2026-01-23 03:08:07.62	221.19	51.23	-38.9	-39.6	25.3	0.00e+00	0	44	0	2765094912	49	3891
2026-01-23 03:08:08.63	221.06	50.89	-38.9	-39.6	25.3	0.00e+00	0	44	0	2771386368	49	3903
2026-01-23 03:08:09.64	220.94	50.54	-38.9	-39.6	25.3	0.00e+00	0	44	0	2776629248	49	3881
2026-01-23 03:08:10.65	220.82	50.21	-38.7	-39.3	25.5	0.00e+00	0	44	0	2781872128	49	3776
2026-01-23 03:08:11.66	220.70	49.87	-38.5	-39.2	25.6	0.00e+00	0	44	0	2788163584	49	3725
2026-01-23 03:08:12.67	220.59	49.54	-38.4	-39.1	25.7	0.00e+00	0	44	0	2793406464	48	3905
2026-01-23 03:08:13.68	220.48	49.20	-38.4	-39.1	25.7	0.00e+00	0	44	0	2798649344	48	3906
2026-01-23 03:08:14.68	220.37	48.88	-38.4	-39.1	25.7	0.00e+00	0	44	0	2804940800	48	3894
2026-01-23 03:08:15.69	220.26	48.55	-38.3	-38.9	25.8	0.00e+00	0	44	0	2810183680	48	3821
2026-01-23 03:08:16.70	220.16	48.23	-38.2	-38.9	25.9	0.00e+00	0	44	0	2816475136	48	3791
2026-01-23 03:08:17.71	220.06	47.90	-38.3	-39.0	25.7	0.00e+00	0	44	0	2821718016	48	3847
2026-01-23 03:08:18.72	219.96	47.58	-38.4	-39.0	25.7	0.00e+00	0	44	0	2828009472	48	3868
2026-01-23 03:08:19.72	219.86	47.27	-38.4	-39.1	25.7	0.00e+00	0	44	0	2833252352	48	3906
2026-01-23 03:08:20.73	219.77	46.95	-38.4	-39.0	25.7	0.00e+00	0	44	0	2838495232	48	3867
2026-01-23 03:08:21.74	219.67	46.64	-38.3	-39.0	25.8	0.00e+00	0	44	0	2844786688	48	3827
2026-01-23 03:08:22.75	219.58	46.33	-38.4	-39.1	25.7	0.00e+00	0	44	0	2850029568	48	3876
2026-01-23 03:08:23.75	219.49	46.02	-38.2	-38.9	25.8	0.00e+00	0	44	0	2856321024	48	3807
2026-01-23 03:08:24.76	219.40	45.72	-38.2	-38.9	25.9	0.00e+00	0	44	0	2861563904	48	3784
2026-01-23 03:08:25.77	219.32	45.41	-38.1	-38.8	26.0	0.00e+00	0	44	0	2866806784	48	3750
2026-01-23 03:08:26.78	219.23	45.11	-38.2	-38.9	25.9	0.00e+00	0	44	0	2873098240	48	3794
2026-01-23 03:08:27.79	219.15	44.81	-38.2	-38.9	25.8	0.00e+00	0	44	0	2878341120	48	3801
2026-01-23 03:08:28.79	219.07	44.52	-38.2	-38.9	25.9	0.00e+00	0	44	0	2883584000	48	3786
2026-01-23 03:08:29.80	218.99	44.22	-38.1	-38.8	25.9	0.00e+00	0	44	0	2889875456	48	3761
2026-01-23 03:08:30.81	218.91	43.93	-38.1	-38.8	25.9	0.00e+00	0	44	0	2896166912	48	3772
2026-01-23 03:08:31.82	218.83	43.63	-38.1	-38.8	26.0	0.00e+00	0	44	0	2901409792	48	3738
2026-01-23 03:08:32.82	218.76	43.35	-37.5	-38.2	26.1	0.00e+00	0	44	0	2906652672	47	3697
2026-01-23 03:08:33.83	218.69	43.06	-37.5	-38.1	25.9	0.00e+00	0	44	0	2912944128	46	3911
2026-01-23 03:08:34.84	218.61	42.78	-37.6	-38.2	25.8	0.00e+00	0	44	0	2918187008	46	3957
2026-01-23 03:08:35.85	218.54	42.49	-37.5	-38.2	25.9	0.00e+00	0	44	0	2923429888	46	3943
2026-01-23 03:08:36.86	218.47	42.21	-37.5	-38.2	25.9	0.00e+00	0	44	0	2929721344	46	3947
2026-01-23 03:08:37.86	218.40	41.94	-37.5	-38.2	25.9	0.00e+00	0	44	0	2934964224	46	3955
2026-01-23 03:08:38.87	218.34	41.66	-37.5	-38.2	25.9	0.00e+00	0	44	0	2941255680	46	3937
2026-01-23 03:08:39.88	218.27	41.38	-37.6	-38.3	25.8	0.00e+00	0	44	0	2946498560	46	3965
2026-01-23 03:08:40.89	218.20	41.11	-37.4	-38.1	26.0	0.00e+00	0	44	0	2951741440	46	3895
2026-01-23 03:08:41.89	218.14	40.84	-37.5	-38.2	25.9	0.00e+00	0	44	0	2958032896	46	3935
2026-01-23 03:08:42.90	218.08	40.58	-37.2	-37.9	26.1	0.00e+00	0	44	0	2964324352	46	3799
2026-01-23 03:08:43.91	218.02	40.31	-37.2	-37.8	26.2	0.00e+00	0	44	0	2969567232	46	3767
2026-01-23 03:08:44.92	217.96	40.04	-37.0	-37.7	26.3	0.00e+00	0	44	0	2974810112	46	3713
2026-01-23 03:08:45.93	217.90	39.78	-37.1	-37.7	26.3	0.00e+00	0	44	0	2981101568	46	3726
2026-01-23 03:08:46.93	217.84	39.52	-37.1	-37.7	26.3	0.00e+00	0	44	0	2986344448	46	3731
2026-01-23 03:08:47.94	217.78	39.26	-37.0	-37.7	26.3	0.00e+00	0	44	0	2991587328	46	3720
2026-01-23 03:08:48.94	217.72	39.01	-37.2	-37.9	26.2	0.00e+00	0	44	0	2997878784	46	3796
2026-01-23 03:08:49.95	217.67	38.75	-37.3	-37.9	26.1	0.00e+00	0	44	0	3003121664	46	3821
2026-01-23 03:08:50.96	217.61	38.50	-37.1	-37.8	26.2	0.00e+00	0	44	0	3008364544	46	3771
2026-01-23 03:08:51.97	217.56	38.25	-37.1	-37.8	26.2	0.00e+00	0	44	0	3014656000	46	3745
2026-01-23 03:08:52.98	217.51	38.00	-37.1	-37.8	26.2	0.00e+00	0	44	0	3019898880	46	3739
2026-01-23 03:08:53.99	217.45	37.75	-37.0	-37.7	26.3	0.00e+00	0	44	0	3026190336	46	3697
2026-01-23 03:08:55.00	217.40	37.50	-37.0	-37.7	26.2	0.00e+00	0	44	0	3031433216	45	3935
2026-01-23 03:08:56.00	217.35	37.26	-36.9	-37.6	26.3	0.00e+00	0	44	0	3037724672	45	3902
2026-01-23 03:08:57.01	217.30	37.02	-37.0	-37.6	26.3	0.00e+00	0	44	0	3042967552	45	3913
2026-01-23 03:08:58.02	217.25	36.78	-37.0	-37.7	26.3	0.00e+00	0	44	0	3049259008	45	3924
2026-01-23 03:08:59.03	217.21	36.54	-37.1	-37.8	26.2	0.00e+00	0	44	0	3054501888	45	3980
2026-01-23 03:09:00.04	217.16	36.30	-37.2	-37.8	26.1	0.00e+00	0	44	0	3059744768	45	3998
2026-01-23 03:09:01.05	217.11	36.07	-37.3	-38.0	26.0	0.00e+00	0	44	0	3066036224	45	4081
2026-01-23 03:09:02.06	217.07	35.83	-37.4	-38.1	25.9	0.00e+00	0	44	0	3071279104	45	4109
2026-01-23 03:09:03.07	217.02	35.60	-37.5	-38.2	25.8	0.00e+00	0	44	0	3076521984	45	4166
2026-01-23 03:09:04.07	216.98	35.37	-37.7	-38.4	25.7	0.00e+00	0	44	0	3082813440	45	4243
2026-01-23 03:09:05.08	216.93	35.14	-37.6	-38.3	25.7	0.00e+00	0	44	0	3088056320	45	4233
2026-01-23 03:09:06.09	216.89	34.91	-37.8	-38.5	25.6	0.00e+00	0	44	0	3093299200	46	4070
2026-01-23 03:09:07.10	216.85	34.69	-37.8	-38.5	25.5	0.00e+00	0	44	0	3099590656	46	4076
2026-01-23 03:09:08.11	216.80	34.46	-37.9	-38.6	25.5	0.00e+00	0	44	0	3105882112	46	4110
2026-01-23 03:09:09.12	216.76	34.24	-37.8	-38.5	25.5	0.00e+00	0	44	0	3111124992	46	4092
2026-01-23 03:09:10.12	216.72	34.02	-37.8	-38.5	25.6	0.00e+00	0	44	0	3116367872	46	4054
2026-01-23 03:09:11.13	216.68	33.80	-37.7	-38.4	25.6	0.00e+00	0	44	0	3122659328	46	4017
2026-01-23 03:09:12.14	216.64	33.58	-37.8	-38.5	25.6	0.00e+00	0	44	0	3127902208	46	4057
2026-01-23 03:09:13.15	216.60	33.37	-37.7	-38.4	25.6	0.00e+00	0	44	0	3134193664	46	4034
2026-01-23 03:09:14.16	216.56	33.15	-37.7	-38.4	25.6	0.00e+00	0	44	0	3139436544	46	4014
2026-01-23 03:09:15.16	216.53	32.94	-37.7	-38.4	25.7	0.00e+00	0	44	0	3144679424	46	4005
2026-01-23 03:09:16.17	216.49	32.73	-37.6	-38.2	25.7	0.00e+00	0	44	0	3150970880	46	3951
2026-01-23 03:09:17.18	216.45	32.52	-37.5	-38.2	25.8	0.00e+00	0	44	0	3156213760	46	3950
2026-01-23 03:09:18.19	216.42	32.31	-37.6	-38.3	25.7	0.00e+00	0	44	0	3161456640	46	3978
2026-01-23 03:09:19.20	216.38	32.10	-37.7	-38.4	25.7	0.00e+00	0	44	0	3167748096	46	4013
2026-01-23 03:09:20.21	216.35	31.90	-37.7	-38.4	25.6	0.00e+00	0	44	0	3174039552	46	4043
2026-01-23 03:09:21.22	216.31	31.69	-37.7	-38.4	25.6	0.00e+00	0	44	0	3179282432	46	4020
2026-01-23 03:09:22.23	216.28	31.49	-37.7	-38.4	25.6	0.00e+00	0	44	0	3184525312	46	4049
2026-01-23 03:09:23.23	216.24	31.29	-37.8	-38.5	25.5	0.00e+00	0	44	0	3190816768	46	4062
2026-01-23 03:09:24.24	216.21	31.09	-37.6	-38.3	25.6	0.00e+00	0	44	0	3196059648	46	3992
2026-01-23 03:09:25.25	216.18	30.89	-37.6	-38.3	25.7	0.00e+00	0	44	0	3201302528	46	3967
2026-01-23 03:09:26.26	216.14	30.69	-37.7	-38.4	25.6	0.00e+00	0	44	0	3207593984	46	4014
2026-01-23 03:09:27.27	216.11	30.49	-37.7	-38.4	25.6	0.00e+00	0	44	0	3212836864	46	4014
2026-01-23 03:09:28.28	216.08	30.30	-37.5	-38.2	25.7	0.00e+00	0	44	0	3219128320	46	3949
2026-01-23 03:09:29.29	216.05	30.10	-37.5	-38.2	25.8	0.00e+00	0	44	0	3224371200	46	3918
2026-01-23 03:09:30.29	216.02	29.91	-37.6	-38.2	25.7	0.00e+00	0	44	0	3229614080	46	3958
2026-01-23 03:09:31.30	215.99	29.72	-37.6	-38.2	25.7	0.00e+00	0	44	0	3235905536	46	3957
2026-01-23 03:09:32.31	215.96	29.53	-37.5	-38.2	25.7	0.00e+00	0	44	0	3242196992	46	3914
2026-01-23 03:09:33.32	215.93	29.34	-37.6	-38.3	25.7	0.00e+00	0	44	0	3247439872	46	3967
2026-01-23 03:09:34.33	215.90	29.15	-37.6	-38.3	25.6	0.00e+00	0	44	0	3252682752	46	3986
2026-01-23 03:09:35.34	215.87	28.97	-37.7	-38.4	25.6	0.00e+00	0	44	0	3258974208	46	4009
2026-01-23 03:09:36.35	215.84	28.78	-37.6	-38.3	25.7	0.00e+00	0	44	0	3264217088	46	3972
2026-01-23 03:09:37.35	215.81	28.60	-37.7	-38.4	25.5	0.00e+00	0	44	0	3269459968	46	4037
2026-01-23 03:09:38.36	215.79	28.42	-37.8	-38.5	25.5	0.00e+00	0	44	0	3275751424	46	4061
2026-01-23 03:09:39.37	215.76	28.23	-37.8	-38.5	25.5	0.00e+00	0	44	0	3280994304	46	4075
2026-01-23 03:09:40.38	215.73	28.05	-37.9	-38.6	25.3	0.00e+00	0	44	0	3286237184	46	4143
2026-01-23 03:09:41.39	215.70	27.87	-37.9	-38.7	25.3	0.00e+00	0	44	0	3292528640	46	4151
2026-01-23 03:09:42.40	215.68	27.70	-37.9	-38.6	25.3	0.00e+00	0	44	0	3297771520	46	4138
2026-01-23 03:09:43.41	215.65	27.52	-37.9	-38.7	25.3	0.00e+00	0	44	0	3304062976	46	4159
2026-01-23 03:09:44.42	215.63	27.34	-38.0	-38.7	25.2	0.00e+00	0	44	0	3309305856	46	4191
2026-01-23 03:09:45.43	215.60	27.17	-38.0	-38.7	25.2	0.00e+00	0	44	0	3315597312	46	4188
2026-01-23 03:09:46.44	215.58	26.99	-37.9	-38.7	25.3	0.00e+00	0	44	0	3320840192	46	4151
2026-01-23 03:09:47.45	215.55	26.82	-37.8	-38.5	25.4	0.00e+00	0	44	0	3327131648	46	4091
2026-01-23 03:09:48.45	215.53	26.65	-37.8	-38.6	25.4	0.00e+00	0	44	0	3332374528	46	4104
2026-01-23 03:09:49.46	215.50	26.48	-37.9	-38.6	25.3	0.00e+00	0	44	0	3337617408	46	4145
2026-01-23 03:09:50.47	215.48	26.31	-37.9	-38.6	25.3	0.00e+00	0	44	0	3343908864	46	4138
2026-01-23 03:09:51.48	215.45	26.14	-37.8	-38.5	25.4	0.00e+00	0	44	0	3349151744	46	4075
2026-01-23 03:09:52.48	215.43	25.98	-37.8	-38.5	25.4	0.00e+00	0	44	0	3354394624	46	4078
2026-01-23 03:09:53.49	215.41	25.81	-37.9	-38.6	25.3	0.00e+00	0	44	0	3360686080	46	4121
2026-01-23 03:09:54.50	215.39	25.65	-37.9	-38.6	25.3	0.00e+00	0	44	0	3366977536	46	4142
2026-01-23 03:09:55.51	215.36	25.48	-38.0	-38.7	25.2	0.00e+00	0	44	0	3372220416	46	4178
2026-01-23 03:09:56.52	215.34	25.32	-38.0	-38.7	25.2	0.00e+00	0	44	0	3377463296	46	4186
2026-01-23 03:09:57.53	215.32	25.16	-37.9	-38.6	25.3	0.00e+00	0	44	0	3383754752	46	4122
2026-01-23 03:09:58.54	215.30	25.00	-37.9	-38.6	25.3	0.00e+00	0	44	0	3388997632	46	4129
2026-01-23 03:09:59.54	215.28	24.84	-38.0	-38.7	25.2	0.00e+00	0	44	0	3394240512	46	4176
2026-01-23 03:10:00.55	215.25	24.68	-37.9	-38.6	25.3	0.00e+00	0	44	0	3400531968	46	4140
2026-01-23 03:10:01.56	215.23	24.52	-37.9	-38.6	25.2	0.00e+00	0	44	0	3405774848	46	4141
2026-01-23 03:10:02.57	215.21	24.36	-38.1	-38.8	25.1	0.00e+00	0	44	0	3412066304	46	4202
2026-01-23 03:10:03.58	215.19	24.21	-38.1	-38.8	25.1	0.00e+00	0	44	0	3417309184	46	4201
2026-01-23 03:10:04.59	215.17	24.05	-38.0	-38.8	25.1	0.00e+00	0	44	0	3422552064	46	4195
2026-01-23 03:10:05.60	215.15	23.90	-38.1	-38.8	25.1	0.00e+00	0	44	0	3428843520	46	4229
2026-01-23 03:10:06.61	215.13	23.74	-38.2	-38.9	25.0	0.00e+00	0	44	0	3435134976	46	4259
2026-01-23 03:10:07.62	215.11	23.59	-38.2	-38.9	25.0	0.00e+00	0	44	0	3440377856	47	4046
2026-01-23 03:10:08.63	215.09	23.44	-38.2	-38.9	25.0	0.00e+00	0	44	0	3445620736	47	4044
2026-01-23 03:10:09.63	215.07	23.29	-38.2	-38.9	25.0	0.00e+00	0	44	0	3451912192	47	4043
2026-01-23 03:10:10.64	215.06	23.14	-38.2	-38.9	25.0	0.00e+00	0	44	0	3457155072	47	4033
2026-01-23 03:10:11.65	215.04	22.99	-38.2	-38.9	25.0	0.00e+00	0	44	0	3462397952	47	4032
2026-01-23 03:10:12.66	215.02	22.84	-38.2	-38.9	25.0	0.00e+00	0	44	0	3468689408	47	4037
2026-01-23 03:10:13.67	215.00	22.69	-38.2	-38.9	25.0	0.00e+00	0	44	0	3473932288	47	4038
2026-01-23 03:10:14.67	214.98	22.55	-38.2	-39.0	24.9	0.00e+00	0	44	0	3479175168	47	4059
2026-01-23 03:10:15.68	214.96	22.40	-38.2	-38.9	25.0	0.00e+00	0	44	0	3485466624	47	4039
2026-01-23 03:10:16.69	214.95	22.25	-38.2	-38.9	24.9	0.00e+00	0	44	0	3490709504	47	4047
2026-01-23 03:10:17.70	214.93	22.11	-38.2	-38.9	24.9	0.00e+00	0	44	0	3497000960	47	4047
2026-01-23 03:10:18.71	214.91	21.97	-38.3	-39.0	24.9	0.00e+00	0	44	0	3502243840	47	4064
2026-01-23 03:10:19.72	214.89	21.82	-38.4	-39.1	24.8	0.00e+00	0	44	0	3508535296	47	4130
2026-01-23 03:10:20.73	214.88	21.68	-38.3	-39.0	24.8	0.00e+00	0	44	0	3513778176	47	4087
2026-01-23 03:10:21.74	214.86	21.54	-38.4	-39.1	24.8	0.00e+00	0	44	0	3520069632	47	4136
2026-01-23 03:10:22.75	214.84	21.40	-38.4	-39.2	24.7	0.00e+00	0	44	0	3525312512	47	4153
2026-01-23 03:10:23.76	214.83	21.26	-38.4	-39.2	24.7	0.00e+00	0	44	0	3530555392	47	4151
2026-01-23 03:10:24.77	214.81	21.12	-38.5	-39.3	24.6	0.00e+00	0	44	0	3536846848	47	4200
2026-01-23 03:10:25.77	214.80	20.99	-38.4	-39.1	24.8	0.00e+00	0	44	0	3542089728	47	4140
2026-01-23 03:10:26.79	214.78	20.85	-38.4	-39.2	24.7	0.00e+00	0	44	0	3547332608	47	4148
2026-01-23 03:10:27.79	214.76	20.71	-38.6	-39.3	24.6	0.00e+00	0	44	0	3553624064	47	4222
2026-01-23 03:10:28.80	214.75	20.58	-38.6	-39.3	24.6	0.00e+00	0	44	0	3559915520	47	4232
2026-01-23 03:10:29.81	214.73	20.44	-38.6	-39.3	24.6	0.00e+00	0	44	0	3565158400	47	4227
2026-01-23 03:10:30.82	214.72	20.31	-38.6	-39.4	24.5	0.00e+00	0	44	0	3570401280	47	4254
2026-01-23 03:10:31.83	214.70	20.17	-38.6	-39.4	24.5	0.00e+00	0	44	0	3576692736	47	4255
2026-01-23 03:10:32.83	214.69	20.04	-38.6	-39.4	24.5	0.00e+00	0	44	0	3581935616	47	4245
2026-01-23 03:10:33.84	214.67	19.91	-38.7	-39.4	24.5	0.00e+00	0	44	0	3587178496	47	4266
2026-01-23 03:10:34.85	214.66	19.78	-39.1	-39.8	24.6	0.00e+00	0	44	0	3593469952	48	4209
2026-01-23 03:10:35.86	214.65	19.65	-39.1	-39.9	24.6	0.00e+00	0	44	0	3598712832	48	4248
2026-01-23 03:10:36.87	214.63	19.52	-39.2	-39.9	24.6	0.00e+00	0	44	0	3605004288	48	4258
2026-01-23 03:10:37.88	214.62	19.39	-39.2	-39.9	24.5	0.00e+00	0	44	0	3610247168	48	4271
2026-01-23 03:10:38.89	214.60	19.26	-39.2	-39.9	24.5	0.00e+00	0	44	0	3615490048	49	4050
2026-01-23 03:10:39.89	214.59	19.13	-39.2	-39.9	24.5	0.00e+00	0	44	0	3621781504	49	4036
2026-01-23 03:10:40.90	214.58	19.00	-39.4	-40.1	24.4	0.00e+00	0	44	0	3628072960	49	4108
2026-01-23 03:10:41.91	214.56	18.88	-39.3	-40.0	24.4	0.00e+00	0	44	0	3633315840	49	4064
2026-01-23 03:10:42.92	214.55	18.75	-39.3	-40.0	24.4	0.00e+00	0	44	0	3638558720	49	4078
2026-01-23 03:10:43.92	214.54	18.63	-39.4	-40.1	24.3	0.00e+00	0	44	0	3644850176	49	4117
2026-01-23 03:10:44.93	214.52	18.50	-39.4	-40.2	24.3	0.00e+00	0	44	0	3650093056	49	4157
2026-01-23 03:10:45.94	214.51	18.38	-39.5	-40.3	24.2	0.00e+00	0	44	0	3655335936	49	4196
2026-01-23 03:10:46.95	214.50	18.25	-39.4	-40.2	24.3	0.00e+00	0	44	0	3661627392	49	4155
2026-01-23 03:10:47.96	214.48	18.13	-39.5	-40.3	24.2	0.00e+00	0	44	0	3666870272	49	4196
2026-01-23 03:10:48.96	214.47	18.01	-39.6	-40.4	24.1	0.00e+00	0	44	0	3672113152	49	4243
2026-01-23 03:10:49.97	214.46	17.89	-39.6	-40.3	24.1	0.00e+00	0	44	0	3678404608	50	3987
2026-01-23 03:10:50.98	214.45	17.77	-39.7	-40.4	24.1	0.00e+00	0	44	0	3683647488	50	4027
2026-01-23 03:10:51.99	214.43	17.64	-39.6	-40.4	24.1	0.00e+00	0	44	0	3689938944	50	4009
2026-01-23 03:10:53.00	214.42	17.52	-39.7	-40.4	24.0	0.00e+00	0	44	0	3695181824	50	4039
2026-01-23 03:10:54.00	214.41	17.41	-39.7	-40.5	24.0	0.00e+00	0	44	0	3701473280	50	4069
2026-01-23 03:10:55.01	214.40	17.29	-39.7	-40.4	24.0	0.00e+00	0	44	0	3706716160	50	4042
2026-01-23 03:10:56.02	214.39	17.17	-39.8	-40.6	23.9	0.00e+00	0	44	0	3713007616	50	4113
2026-01-23 03:10:57.03	214.38	17.05	-39.9	-40.7	23.8	0.00e+00	0	44	0	3718250496	50	4153
2026-01-23 03:10:58.04	214.36	16.93	-40.0	-40.7	23.8	0.00e+00	0	44	0	3723493376	50	4176
2026-01-23 03:10:59.05	214.35	16.82	-40.0	-40.7	23.7	0.00e+00	0	44	0	3729784832	50	4191
2026-01-23 03:11:00.06	214.34	16.70	-40.1	-40.9	23.6	0.00e+00	0	44	0	3735027712	50	4259
