passes_logs/2026/01/23/R3.2S_Murmansk/R3.2S_Murmansk__20260123_040934_AQUA_rec.log

#Pass ID: 20260123_040934_AQUA
#Satellite: AQUA
#Configuration: AQUA
#almurnet v.1.7.20251203
#Start time: 2026-01-23 04:09:34

#Version: 2.2.20231116
#Station: R3.2S_Murmansk
#Location: 33.079688 lon 68.888172 lat
#TLE: 1 27424U 02022A   26022.49486490  .00002153  00000+0  44069-3 0  9997
#TLE: 2 27424  98.4099 349.0485 0001970  69.5876  43.4746 14.61847233261984

#Time	Az	El	Level	Level2	SNR	BER	BlckErr	Temp	State	Recorded	gain1	gain2
2026-01-23 04:09:34.51	30.97	2.02	-55.7	-73.6	3.8	7.43e-01	0	41	0	0	82	29026
2026-01-23 04:09:35.50	30.92	2.08	-55.9	-73.7	3.8	7.46e-01	0	41	104	0	82	29682
2026-01-23 04:09:36.51	30.87	2.15	-55.9	-73.7	3.8	7.45e-01	0	41	104	0	82	29552
2026-01-23 04:09:37.52	30.82	2.21	-55.9	-73.7	3.8	7.45e-01	0	41	104	0	82	29605
2026-01-23 04:09:38.53	30.77	2.27	-55.9	-73.7	3.8	7.47e-01	0	41	104	0	82	29537
2026-01-23 04:09:39.54	30.72	2.34	-55.9	-73.7	3.8	7.44e-01	0	41	104	0	82	29568
2026-01-23 04:09:40.55	30.67	2.40	-55.9	-73.7	3.8	7.44e-01	0	41	104	0	82	29595
2026-01-23 04:09:41.56	30.62	2.47	-55.9	-73.7	3.8	7.47e-01	0	41	104	0	82	29479
2026-01-23 04:09:42.57	30.57	2.53	-55.8	-73.7	3.8	7.44e-01	0	41	104	0	82	29370
2026-01-23 04:09:43.57	30.52	2.59	-55.8	-73.6	3.8	7.47e-01	0	41	104	0	82	29168
2026-01-23 04:09:44.58	30.47	2.66	-55.8	-73.6	3.8	7.45e-01	0	41	104	0	82	29166
2026-01-23 04:09:45.59	30.42	2.72	-55.8	-73.6	3.8	7.47e-01	0	41	104	0	82	29218
2026-01-23 04:09:46.60	30.37	2.79	-55.7	-73.6	3.8	7.47e-01	0	41	104	0	82	29020
2026-01-23 04:09:47.61	30.32	2.85	-55.7	-73.5	3.8	7.46e-01	0	41	104	0	82	28811
2026-01-23 04:09:48.61	30.27	2.92	-55.6	-73.4	3.8	7.46e-01	0	41	104	0	82	28638
2026-01-23 04:09:49.62	30.21	2.99	-55.6	-73.4	3.8	7.41e-01	0	41	104	0	82	28388
2026-01-23 04:09:50.63	30.16	3.05	-55.5	-73.3	3.8	7.45e-01	0	41	104	0	82	28233
2026-01-23 04:09:51.64	30.11	3.12	-55.4	-73.2	3.8	7.46e-01	0	41	104	0	82	27929
2026-01-23 04:09:52.65	30.06	3.18	-55.3	-73.0	3.8	7.44e-01	0	41	104	0	82	27311
2026-01-23 04:09:53.65	30.00	3.25	-55.2	-73.0	3.8	7.45e-01	0	41	104	0	82	27193
2026-01-23 04:09:54.66	29.95	3.31	-55.0	-72.8	3.8	7.43e-01	0	41	104	0	82	26513
2026-01-23 04:09:55.67	29.90	3.38	-54.7	-72.3	3.8	7.46e-01	0	41	104	0	81	26673
2026-01-23 04:09:56.68	29.84	3.45	-54.3	-72.0	3.8	7.44e-01	0	41	104	0	80	27172
2026-01-23 04:09:57.69	29.79	3.51	-53.9	-71.3	3.8	7.44e-01	0	41	104	0	79	26686
2026-01-23 04:09:58.70	29.73	3.58	-53.9	-70.9	3.8	7.46e-01	0	41	104	0	79	25297
2026-01-23 04:09:59.70	29.68	3.65	-53.8	-69.9	3.9	7.47e-01	0	42	104	0	78	23972
2026-01-23 04:10:00.71	29.62	3.72	-53.8	-68.4	4.2	7.33e-01	0	42	104	0	78	20089
2026-01-23 04:10:01.72	29.57	3.78	-53.7	-66.8	4.6	7.23e-01	0	42	104	0	78	16804
2026-01-23 04:10:02.73	29.51	3.85	-53.6	-65.8	5.1	7.07e-01	0	42	0	0	78	15023
2026-01-23 04:10:03.74	29.46	3.92	-53.6	-65.3	5.5	6.99e-01	109	42	0	0	78	14184
2026-01-23 04:10:04.75	29.40	3.99	-53.6	-65.0	5.8	6.89e-01	62	42	0	1048576	78	13571
2026-01-23 04:10:05.76	29.34	4.05	-53.5	-64.6	6.0	6.83e-01	182	42	0	2097152	78	12998
2026-01-23 04:10:06.77	29.29	4.12	-53.5	-64.2	6.3	6.81e-01	184	42	0	4194304	78	12467
2026-01-23 04:10:07.77	29.23	4.19	-53.4	-63.3	7.1	6.57e-01	182	42	0	5767168	78	11173
2026-01-23 04:10:08.78	29.17	4.26	-53.2	-61.5	8.8	6.31e-01	0	42	0	7864320	78	9121
2026-01-23 04:10:09.79	29.11	4.33	-52.8	-60.0	10.4	6.16e-01	0	42	0	9437184	77	8119
2026-01-23 04:10:10.80	29.05	4.40	-52.3	-58.0	12.6	6.07e-01	0	42	0	11534336	76	6838
2026-01-23 04:10:11.81	29.00	4.46	-51.8	-56.6	14.0	6.04e-01	0	42	0	13107200	75	6184
2026-01-23 04:10:12.81	28.94	4.53	-51.7	-56.3	14.3	6.06e-01	0	42	0	15204352	75	5972
2026-01-23 04:10:13.82	28.88	4.60	-51.6	-56.1	14.5	6.05e-01	0	42	0	17301504	75	5808
2026-01-23 04:10:14.83	28.82	4.67	-51.3	-55.5	15.2	6.06e-01	0	42	0	19398656	74	5740
2026-01-23 04:10:15.84	28.76	4.74	-51.5	-56.0	14.7	6.04e-01	0	42	0	20971520	74	6096
2026-01-23 04:10:16.85	28.70	4.81	-51.6	-56.3	14.4	6.04e-01	0	42	0	23068672	74	6279
2026-01-23 04:10:17.86	28.64	4.88	-52.1	-57.4	13.2	6.08e-01	0	42	0	24641536	74	7163
2026-01-23 04:10:18.87	28.58	4.95	-52.4	-58.5	12.1	6.11e-01	0	42	0	26738688	75	7664
2026-01-23 04:10:19.87	28.52	5.02	-52.9	-60.5	10.1	6.20e-01	0	42	0	28311552	76	9078
2026-01-23 04:10:20.88	28.45	5.09	-47.9	-49.8	21.1	6.01e-01	0	42	0	30408704	67	4476
2026-01-23 04:10:21.89	28.39	5.16	-51.1	-54.8	16.3	6.03e-01	0	42	0	32505856	72	5982
2026-01-23 04:10:22.90	28.33	5.23	-53.8	-69.9	3.7	7.44e-01	0	42	104	34078720	78	24076
2026-01-23 04:10:23.90	28.27	5.30	-46.6	-48.1	22.3	5.99e-01	0	42	0	34603008	65	4125
2026-01-23 04:10:24.91	28.20	5.38	-53.7	-65.8	5.2	7.05e-01	0	42	0	36175872	78	14965
2026-01-23 04:10:25.92	28.14	5.45	-47.3	-49.0	21.7	5.99e-01	0	42	0	37224448	66	4315
2026-01-23 04:10:26.93	28.08	5.52	-47.1	-48.7	22.3	6.03e-01	0	42	0	39321600	66	4184
2026-01-23 04:10:27.94	28.01	5.59	-46.6	-48.1	22.8	6.01e-01	0	42	0	40894464	65	4130
2026-01-23 04:10:28.95	27.95	5.66	-46.1	-47.6	23.4	6.03e-01	0	42	0	42991616	64	4123
2026-01-23 04:10:29.95	27.88	5.73	-46.0	-47.4	23.5	6.01e-01	0	42	0	45088768	64	4045
2026-01-23 04:10:30.97	27.82	5.81	-46.1	-47.6	23.6	6.03e-01	0	42	0	46661632	63	4344
2026-01-23 04:10:31.97	27.75	5.88	-46.0	-47.4	23.6	6.04e-01	0	42	0	48758784	63	4270
2026-01-23 04:10:32.98	27.69	5.95	-45.8	-47.2	23.9	6.04e-01	0	42	0	50331648	63	4171
2026-01-23 04:10:33.99	27.62	6.03	-45.7	-47.1	23.9	6.05e-01	0	42	0	52428800	63	4131
2026-01-23 04:10:35.00	27.55	6.10	-45.7	-47.1	24.0	6.02e-01	0	42	0	54001664	63	4124
2026-01-23 04:10:36.01	27.49	6.17	-45.8	-47.2	24.0	6.00e-01	0	42	0	56098816	63	4156
2026-01-23 04:10:37.01	27.42	6.24	-45.7	-47.1	24.0	6.06e-01	0	42	0	58195968	63	4144
2026-01-23 04:10:38.02	27.35	6.32	-45.6	-47.0	24.1	6.05e-01	0	42	0	60293120	62	4316
2026-01-23 04:10:39.03	27.28	6.39	-46.0	-47.5	23.7	6.02e-01	0	42	0	61865984	62	4567
2026-01-23 04:10:40.04	27.21	6.47	-45.9	-47.3	23.9	6.00e-01	0	42	0	63963136	62	4469
2026-01-23 04:10:41.05	27.15	6.54	-45.8	-47.3	23.9	5.99e-01	0	42	0	65536000	62	4445
2026-01-23 04:10:42.06	27.08	6.62	-45.6	-46.9	24.2	6.05e-01	0	42	0	67633152	62	4282
2026-01-23 04:10:43.07	27.01	6.69	-45.7	-47.2	24.0	6.06e-01	0	42	0	69206016	62	4393
2026-01-23 04:10:44.07	26.94	6.76	-45.6	-47.0	24.2	6.05e-01	0	42	0	71303168	62	4313
2026-01-23 04:10:45.08	26.87	6.84	-45.7	-47.1	24.1	5.99e-01	0	42	0	73400320	62	4369
2026-01-23 04:10:46.09	26.79	6.91	-45.6	-46.9	24.2	6.00e-01	0	42	0	74973184	62	4285
2026-01-23 04:10:47.10	26.72	6.99	-45.7	-47.1	24.2	6.01e-01	0	42	0	77070336	62	4361
2026-01-23 04:10:48.11	26.65	7.07	-45.7	-47.1	24.2	6.00e-01	0	42	0	79167488	62	4342
2026-01-23 04:10:49.12	26.58	7.14	-45.7	-47.1	24.2	6.01e-01	0	42	0	80740352	62	4381
2026-01-23 04:10:50.13	26.50	7.22	-45.5	-46.9	24.4	6.02e-01	0	42	0	82837504	62	4246
2026-01-23 04:10:51.13	26.43	7.29	-45.3	-46.7	24.6	6.01e-01	0	42	0	84410368	62	4158
2026-01-23 04:10:52.14	26.36	7.37	-45.4	-46.7	24.6	6.04e-01	0	42	0	86507520	62	4161
2026-01-23 04:10:53.15	26.28	7.45	-45.3	-46.7	24.6	6.02e-01	0	42	0	88604672	62	4149
2026-01-23 04:10:54.16	26.21	7.52	-45.2	-46.5	24.9	6.01e-01	0	42	0	90177536	62	4061
2026-01-23 04:10:55.17	26.13	7.60	-45.3	-46.6	24.7	6.03e-01	0	42	0	92274688	62	4134
2026-01-23 04:10:56.17	26.06	7.68	-45.3	-46.6	24.7	6.03e-01	0	42	0	93847552	62	4108
2026-01-23 04:10:57.18	25.98	7.76	-45.3	-46.6	24.7	6.01e-01	0	43	0	95944704	62	4126
2026-01-23 04:10:58.19	25.91	7.83	-45.2	-46.5	24.9	6.02e-01	0	42	0	97517568	62	4056
2026-01-23 04:10:59.20	25.83	7.91	-45.3	-46.6	24.8	6.02e-01	0	42	0	99614720	62	4099
2026-01-23 04:11:00.21	25.75	7.99	-45.3	-46.7	24.7	6.03e-01	0	42	0	101711872	62	4148
2026-01-23 04:11:01.21	25.67	8.07	-45.4	-46.7	24.7	6.03e-01	0	42	0	103809024	62	4178
2026-01-23 04:11:02.22	25.60	8.15	-45.4	-46.7	24.7	6.01e-01	0	43	0	105381888	62	4156
2026-01-23 04:11:03.23	25.52	8.23	-44.9	-46.1	25.2	5.98e-01	0	42	0	107479040	61	4141
2026-01-23 04:11:04.24	25.44	8.31	-45.1	-46.4	25.0	6.03e-01	0	42	0	109051904	61	4279
2026-01-23 04:11:05.25	25.36	8.38	-45.1	-46.4	25.0	6.03e-01	0	42	0	111149056	61	4266
2026-01-23 04:11:06.26	25.28	8.46	-45.1	-46.3	25.0	6.01e-01	0	42	0	112721920	61	4242
2026-01-23 04:11:07.27	25.20	8.54	-45.1	-46.3	25.0	6.03e-01	0	43	0	114819072	61	4239
2026-01-23 04:11:08.27	25.12	8.62	-45.1	-46.4	24.9	6.03e-01	0	42	0	116916224	61	4271
2026-01-23 04:11:09.28	25.03	8.70	-44.9	-46.2	25.1	6.02e-01	0	42	0	118489088	61	4176
2026-01-23 04:11:10.29	24.95	8.78	-44.9	-46.1	25.2	6.02e-01	0	42	0	120586240	61	4134
2026-01-23 04:11:11.30	24.87	8.87	-44.9	-46.2	25.2	6.02e-01	0	42	0	122159104	61	4160
2026-01-23 04:11:12.31	24.78	8.95	-45.0	-46.3	25.1	6.03e-01	0	42	0	124256256	61	4198
2026-01-23 04:11:13.32	24.70	9.03	-45.2	-46.4	24.9	6.02e-01	0	42	0	126353408	61	4281
2026-01-23 04:11:14.33	24.62	9.11	-44.8	-46.1	25.2	6.03e-01	0	42	0	127926272	61	4100
2026-01-23 04:11:15.33	24.53	9.19	-44.9	-46.1	25.3	6.03e-01	0	43	0	130023424	61	4128
2026-01-23 04:11:16.34	24.45	9.27	-44.7	-45.9	25.4	5.99e-01	0	43	0	132120576	61	4046
2026-01-23 04:11:17.35	24.36	9.35	-44.8	-46.0	25.3	6.02e-01	0	43	0	133693440	61	4085
2026-01-23 04:11:18.36	24.27	9.44	-44.7	-45.9	25.4	6.04e-01	0	42	0	135790592	61	4049
2026-01-23 04:11:19.36	24.19	9.52	-44.6	-45.9	25.5	5.98e-01	0	43	0	137363456	61	4005
2026-01-23 04:11:20.37	24.10	9.60	-44.5	-45.7	25.7	6.01e-01	0	43	0	139460608	61	3932
2026-01-23 04:11:21.38	24.01	9.68	-44.7	-45.9	25.5	6.04e-01	0	43	0	141033472	60	4280
2026-01-23 04:11:22.39	23.92	9.77	-44.5	-45.7	25.7	6.00e-01	0	43	0	143130624	60	4193
2026-01-23 04:11:23.40	23.83	9.85	-44.5	-45.7	25.7	6.02e-01	0	43	0	145227776	60	4170
2026-01-23 04:11:24.41	23.74	9.94	-44.4	-45.6	25.9	6.03e-01	0	43	0	146800640	60	4100
2026-01-23 04:11:25.42	23.65	10.02	-44.5	-45.7	25.7	6.01e-01	0	43	0	148897792	60	4190
2026-01-23 04:11:26.43	23.56	10.10	-44.5	-45.7	25.8	6.02e-01	0	42	0	150994944	60	4166
2026-01-23 04:11:27.43	23.47	10.19	-44.6	-45.8	25.6	6.04e-01	0	43	0	152567808	60	4235
2026-01-23 04:11:28.44	23.38	10.27	-44.5	-45.8	25.7	6.02e-01	0	43	0	154664960	60	4195
2026-01-23 04:11:29.45	23.28	10.36	-44.6	-45.9	25.6	6.00e-01	0	43	0	156237824	60	4243
2026-01-23 04:11:30.46	23.19	10.44	-44.6	-45.8	25.7	6.02e-01	0	43	0	158334976	60	4220
2026-01-23 04:11:31.47	23.10	10.53	-44.5	-45.7	25.7	6.04e-01	0	43	0	160432128	60	4189
2026-01-23 04:11:32.47	23.00	10.62	-44.6	-45.8	25.7	6.05e-01	0	43	0	162004992	60	4203
2026-01-23 04:11:33.48	22.91	10.70	-44.5	-45.7	25.8	6.02e-01	0	43	0	164102144	60	4181
2026-01-23 04:11:34.49	22.81	10.79	-44.5	-45.7	25.8	6.00e-01	0	42	0	165675008	60	4161
2026-01-23 04:11:35.50	22.71	10.87	-44.6	-45.8	25.7	6.02e-01	0	43	0	167772160	60	4226
2026-01-23 04:11:36.51	22.61	10.96	-44.6	-45.8	25.7	6.00e-01	0	43	0	169869312	60	4234
2026-01-23 04:11:37.52	22.52	11.05	-44.4	-45.6	25.9	6.02e-01	0	43	0	171442176	60	4122
2026-01-23 04:11:38.52	22.42	11.14	-44.4	-45.6	25.9	6.00e-01	0	43	0	173539328	60	4112
2026-01-23 04:11:39.53	22.32	11.22	-44.4	-45.6	25.9	6.04e-01	0	43	0	175112192	60	4122
2026-01-23 04:11:40.54	22.22	11.31	-44.4	-45.6	25.9	6.02e-01	0	43	0	177209344	60	4115
2026-01-23 04:11:41.55	22.12	11.40	-44.4	-45.6	25.9	6.05e-01	0	43	0	179306496	60	4128
2026-01-23 04:11:42.56	22.02	11.49	-44.4	-45.6	26.0	6.04e-01	0	43	0	180879360	60	4103
2026-01-23 04:11:43.57	21.91	11.58	-44.4	-45.6	25.9	6.01e-01	0	43	0	182976512	60	4115
2026-01-23 04:11:44.57	21.81	11.67	-44.4	-45.6	26.0	6.07e-01	0	43	0	184549376	60	4101
2026-01-23 04:11:45.58	21.71	11.76	-44.3	-45.4	26.1	6.00e-01	0	43	0	186646528	60	4042
2026-01-23 04:11:46.59	21.61	11.85	-44.4	-45.5	26.0	6.05e-01	0	42	0	188743680	60	4087
2026-01-23 04:11:47.60	21.50	11.94	-44.4	-45.6	25.9	6.04e-01	0	43	0	190316544	60	4134
2026-01-23 04:11:48.61	21.39	12.03	-44.5	-45.7	25.8	6.01e-01	0	43	0	192413696	60	4176
2026-01-23 04:11:49.62	21.29	12.12	-44.3	-45.5	26.0	6.00e-01	0	43	0	194510848	60	4083
2026-01-23 04:11:50.63	21.18	12.21	-44.3	-45.5	25.5	6.01e-01	0	43	0	196083712	60	4054
2026-01-23 04:11:51.63	21.07	12.30	-44.3	-45.4	26.1	6.02e-01	0	43	0	198180864	60	4035
2026-01-23 04:11:52.64	20.97	12.39	-44.2	-45.4	26.2	6.05e-01	0	43	0	199753728	60	4012
2026-01-23 04:11:53.65	20.86	12.48	-44.3	-45.4	26.2	6.03e-01	0	43	0	201850880	60	4037
2026-01-23 04:11:54.66	20.75	12.57	-44.3	-45.4	26.2	6.06e-01	0	43	0	203423744	60	4036
2026-01-23 04:11:55.67	20.63	12.66	-44.3	-45.4	26.0	6.03e-01	0	43	0	205520896	60	4035
2026-01-23 04:11:56.67	20.52	12.76	-44.3	-45.4	26.1	6.04e-01	0	43	0	207618048	60	4036
2026-01-23 04:11:57.68	20.41	12.85	-44.2	-45.4	26.2	6.07e-01	0	43	0	209190912	60	4025
2026-01-23 04:11:58.69	20.30	12.94	-44.2	-45.4	26.1	6.01e-01	0	43	0	211288064	60	4022
2026-01-23 04:11:59.70	20.18	13.04	-44.3	-45.5	26.1	6.01e-01	0	43	0	212860928	60	4079
2026-01-23 04:12:00.71	20.07	13.13	-44.0	-45.2	26.4	6.05e-01	0	43	0	214958080	60	3927
2026-01-23 04:12:01.71	19.96	13.22	-44.0	-45.1	26.4	6.04e-01	0	43	0	217055232	60	3913
2026-01-23 04:12:02.72	19.84	13.32	-44.0	-45.1	26.5	6.00e-01	0	43	0	218628096	60	3910
2026-01-23 04:12:03.73	19.72	13.41	-44.0	-45.2	26.4	6.04e-01	0	43	0	220725248	60	3922
2026-01-23 04:12:04.74	19.60	13.51	-44.1	-45.3	26.3	6.03e-01	0	43	0	222822400	60	3982
2026-01-23 04:12:05.75	19.48	13.60	-44.0	-45.1	26.5	6.05e-01	0	43	0	224395264	60	3895
2026-01-23 04:12:06.76	19.36	13.70	-44.0	-45.2	26.3	6.02e-01	0	43	0	226492416	59	4151
2026-01-23 04:12:07.77	19.24	13.79	-44.2	-45.3	26.2	6.01e-01	0	43	0	228065280	59	4221
2026-01-23 04:12:08.77	19.12	13.89	-44.1	-45.3	26.2	6.03e-01	0	43	0	230162432	59	4203
2026-01-23 04:12:09.78	19.00	13.98	-44.1	-45.2	26.3	6.02e-01	0	43	0	231735296	59	4186
2026-01-23 04:12:10.79	18.88	14.08	-43.9	-45.1	26.4	6.01e-01	0	43	0	233832448	59	4108
2026-01-23 04:12:11.80	18.75	14.18	-44.0	-45.1	26.5	6.04e-01	0	43	0	235929600	59	4115
2026-01-23 04:12:12.81	18.63	14.27	-43.9	-45.0	26.5	6.05e-01	0	43	0	238026752	59	4085
2026-01-23 04:12:13.82	18.50	14.37	-44.0	-45.1	26.4	6.02e-01	0	43	0	239599616	59	4130
2026-01-23 04:12:14.83	18.38	14.47	-44.1	-45.2	26.3	6.01e-01	0	43	0	241696768	59	4178
2026-01-23 04:12:15.83	18.25	14.57	-44.1	-45.2	26.3	6.04e-01	0	43	0	243269632	59	4174
2026-01-23 04:12:16.84	18.12	14.67	-44.0	-45.1	26.4	6.05e-01	0	43	0	245366784	59	4145
2026-01-23 04:12:17.85	17.99	14.76	-43.9	-45.0	26.5	6.04e-01	0	43	0	246939648	59	4083
2026-01-23 04:12:18.86	17.86	14.86	-43.9	-45.1	26.5	6.04e-01	0	43	0	249036800	59	4100
2026-01-23 04:12:19.87	17.73	14.96	-43.9	-45.0	26.5	6.03e-01	0	43	0	251133952	59	4065
2026-01-23 04:12:20.87	17.60	15.06	-43.8	-44.9	26.5	6.02e-01	0	43	0	252706816	59	4041
2026-01-23 04:12:21.88	17.46	15.16	-43.8	-44.9	26.7	6.02e-01	0	43	0	254803968	59	4025
2026-01-23 04:12:22.89	17.33	15.26	-43.9	-45.1	26.4	6.04e-01	0	43	0	256376832	59	4100
2026-01-23 04:12:23.90	17.19	15.36	-43.8	-44.9	26.6	6.02e-01	0	43	0	258473984	59	4051
2026-01-23 04:12:24.91	17.06	15.46	-43.8	-44.9	26.6	5.99e-01	0	43	0	260046848	59	4035
2026-01-23 04:12:25.91	16.92	15.56	-43.8	-44.9	26.6	6.02e-01	0	43	0	262144000	59	4046
2026-01-23 04:12:26.92	16.78	15.66	-43.8	-44.9	26.7	6.01e-01	0	43	0	264241152	59	4017
2026-01-23 04:12:27.93	16.64	15.77	-43.9	-45.0	26.5	6.05e-01	0	43	0	266338304	59	4097
2026-01-23 04:12:28.94	16.50	15.87	-43.9	-45.0	26.6	6.00e-01	0	43	0	267911168	59	4068
2026-01-23 04:12:29.95	16.36	15.97	-43.8	-44.9	26.6	6.02e-01	0	43	0	270008320	59	4047
2026-01-23 04:12:30.95	16.22	16.07	-43.8	-44.9	26.6	6.05e-01	0	43	0	271581184	59	4039
2026-01-23 04:12:31.96	16.08	16.17	-43.9	-45.0	26.6	6.02e-01	0	43	0	273678336	59	4073
2026-01-23 04:12:32.97	15.93	16.28	-43.9	-45.0	26.6	6.03e-01	0	43	0	275251200	59	4071
2026-01-23 04:12:33.98	15.79	16.38	-43.9	-45.1	26.5	6.08e-01	0	43	0	277348352	59	4110
2026-01-23 04:12:34.99	15.64	16.48	-43.8	-45.0	26.6	6.03e-01	0	43	0	279445504	59	4057
2026-01-23 04:12:35.99	15.49	16.59	-43.8	-44.9	26.7	6.03e-01	0	43	0	281018368	59	4015
2026-01-23 04:12:37.00	15.34	16.69	-43.9	-45.0	26.6	6.02e-01	0	43	0	283115520	59	4062
2026-01-23 04:12:38.01	15.19	16.80	-43.7	-44.8	26.8	6.04e-01	0	43	0	285212672	59	3961
2026-01-23 04:12:39.02	15.04	16.90	-43.6	-44.7	26.9	6.05e-01	0	43	0	286785536	59	3927
2026-01-23 04:12:40.02	14.89	17.01	-43.8	-44.9	26.7	6.01e-01	0	43	0	288882688	59	4017
2026-01-23 04:12:41.03	14.74	17.11	-43.7	-44.8	26.8	6.02e-01	0	43	0	290455552	59	3990
2026-01-23 04:12:42.04	14.58	17.22	-43.8	-44.9	26.7	6.04e-01	0	43	0	292552704	59	4016
2026-01-23 04:12:43.04	14.43	17.32	-43.7	-44.8	26.7	6.02e-01	0	43	0	294649856	59	4003
2026-01-23 04:12:44.05	14.27	17.43	-43.8	-44.9	26.7	6.01e-01	0	43	0	296222720	59	4034
2026-01-23 04:12:45.06	14.11	17.54	-43.9	-45.0	26.5	6.02e-01	0	43	0	298319872	59	4092
2026-01-23 04:12:46.07	13.95	17.64	-43.9	-45.1	26.5	6.04e-01	0	43	0	299892736	59	4109
2026-01-23 04:12:47.08	13.79	17.75	-44.0	-45.2	26.4	6.02e-01	0	43	0	301989888	59	4146
2026-01-23 04:12:48.08	13.63	17.86	-44.1	-45.2	26.4	6.03e-01	0	43	0	303562752	59	4169
2026-01-23 04:12:49.09	13.47	17.96	-43.9	-45.1	26.6	6.06e-01	0	43	0	305659904	59	4108
2026-01-23 04:12:50.10	13.30	18.07	-44.1	-45.2	26.5	6.02e-01	0	43	0	307757056	59	4164
2026-01-23 04:12:51.11	13.14	18.18	-44.1	-45.3	26.4	6.03e-01	0	43	0	309854208	59	4195
2026-01-23 04:12:52.12	12.97	18.29	-44.0	-45.2	26.5	6.03e-01	0	43	0	311427072	59	4149
2026-01-23 04:12:53.12	12.80	18.40	-44.1	-45.2	26.4	6.03e-01	0	43	0	313524224	59	4184
2026-01-23 04:12:54.13	12.63	18.51	-44.0	-45.1	26.5	6.02e-01	0	43	0	315097088	59	4110
2026-01-23 04:12:55.14	12.46	18.62	-44.0	-45.1	26.5	6.03e-01	0	43	0	317194240	59	4139
2026-01-23 04:12:56.15	12.29	18.73	-43.9	-45.0	26.6	6.01e-01	0	43	0	318767104	59	4080
2026-01-23 04:12:57.16	12.11	18.84	-43.9	-45.1	26.6	6.00e-01	0	43	0	320864256	59	4106
2026-01-23 04:12:58.17	11.94	18.95	-44.0	-45.1	26.6	6.03e-01	0	43	0	322961408	59	4117
2026-01-23 04:12:59.17	11.76	19.06	-43.9	-45.0	26.6	6.03e-01	0	43	0	324534272	59	4080
2026-01-23 04:13:00.18	11.59	19.17	-43.9	-45.0	26.6	6.04e-01	0	43	0	326631424	59	4086
2026-01-23 04:13:01.19	11.41	19.28	-43.8	-44.9	26.7	6.04e-01	0	43	0	328204288	59	4012
2026-01-23 04:13:02.20	11.22	19.39	-43.8	-44.9	26.5	6.02e-01	0	43	0	330301440	59	4042
2026-01-23 04:13:03.21	11.04	19.50	-43.7	-44.8	26.8	6.03e-01	0	43	0	332398592	59	3981
2026-01-23 04:13:04.22	10.86	19.62	-43.8	-44.9	26.7	6.03e-01	0	43	0	333971456	59	4021
2026-01-23 04:13:05.23	10.67	19.73	-43.8	-44.9	26.8	6.03e-01	0	43	0	336068608	59	4035
2026-01-23 04:13:06.23	10.49	19.84	-43.9	-45.0	26.7	6.02e-01	0	43	0	338165760	59	4061
2026-01-23 04:13:07.24	10.30	19.95	-43.9	-45.0	26.7	6.04e-01	0	43	0	339738624	59	4062
2026-01-23 04:13:08.25	10.11	20.06	-43.9	-45.1	26.6	6.02e-01	0	43	0	341835776	59	4100
2026-01-23 04:13:09.26	9.92	20.18	-43.9	-45.1	26.6	6.00e-01	0	43	0	343408640	59	4102
2026-01-23 04:13:10.27	9.73	20.29	-44.2	-45.3	26.4	6.03e-01	0	43	0	345505792	59	4209
2026-01-23 04:13:11.28	9.53	20.40	-44.1	-45.2	26.5	6.02e-01	0	43	0	347078656	59	4192
2026-01-23 04:13:12.29	9.34	20.52	-44.2	-45.4	26.4	6.02e-01	0	43	0	349175808	59	4243
2026-01-23 04:13:13.29	9.14	20.63	-44.0	-45.1	26.5	6.03e-01	0	43	0	351272960	59	4129
2026-01-23 04:13:14.30	8.94	20.75	-43.9	-45.1	26.7	6.05e-01	0	43	0	352845824	59	4103
2026-01-23 04:13:15.31	8.74	20.86	-43.9	-45.0	26.7	6.02e-01	0	43	0	354942976	59	4095
2026-01-23 04:13:16.32	8.54	20.98	-44.1	-45.2	26.5	6.03e-01	0	43	0	357040128	59	4157
2026-01-23 04:13:17.33	8.34	21.09	-44.1	-45.3	26.4	6.02e-01	0	43	0	358612992	59	4203
2026-01-23 04:13:18.33	8.13	21.20	-44.2	-45.4	26.3	6.02e-01	0	43	0	360710144	59	4252
2026-01-23 04:13:19.34	7.93	21.32	-44.3	-45.4	26.3	6.02e-01	0	43	0	362283008	59	4262
2026-01-23 04:13:20.35	7.72	21.44	-44.2	-45.3	26.4	6.02e-01	0	43	0	364380160	59	4227
2026-01-23 04:13:21.36	7.51	21.55	-44.2	-45.3	26.4	6.03e-01	0	43	0	366477312	59	4211
2026-01-23 04:13:22.36	7.30	21.67	-44.2	-45.3	26.5	5.99e-01	0	43	0	368050176	59	4213
2026-01-23 04:13:23.37	7.09	21.78	-44.0	-45.1	26.6	6.00e-01	0	43	0	370147328	59	4135
2026-01-23 04:13:24.38	6.87	21.90	-44.1	-45.2	26.6	6.02e-01	0	43	0	371720192	59	4173
2026-01-23 04:13:25.39	6.65	22.02	-44.0	-45.2	26.6	6.03e-01	0	43	0	373817344	59	4146
2026-01-23 04:13:26.40	6.44	22.13	-44.2	-45.3	26.5	6.02e-01	0	43	0	375390208	59	4207
2026-01-23 04:13:27.41	6.21	22.25	-44.2	-45.3	26.5	6.02e-01	0	43	0	377487360	59	4208
2026-01-23 04:13:28.41	5.99	22.36	-44.1	-45.3	26.5	6.02e-01	0	43	0	379584512	59	4202
2026-01-23 04:13:29.42	5.77	22.48	-44.1	-45.2	26.5	6.03e-01	0	43	0	381681664	59	4178
2026-01-23 04:13:30.43	5.54	22.60	-44.1	-45.2	26.5	6.05e-01	0	43	0	383254528	59	4174
2026-01-23 04:13:31.44	5.32	22.72	-44.1	-45.2	26.5	6.00e-01	0	43	0	385351680	59	4179
2026-01-23 04:13:32.44	5.09	22.83	-44.2	-45.3	26.4	6.03e-01	0	43	0	386924544	59	4231
2026-01-23 04:13:33.45	4.86	22.95	-44.2	-45.4	26.4	6.06e-01	0	43	0	389021696	59	4257
2026-01-23 04:13:34.46	4.63	23.07	-44.3	-45.5	26.3	6.02e-01	0	43	0	390594560	59	4302
2026-01-23 04:13:35.47	4.39	23.18	-44.4	-45.5	26.3	6.03e-01	0	43	0	392691712	59	4333
2026-01-23 04:13:36.48	4.15	23.30	-44.5	-45.7	26.2	5.99e-01	0	43	0	394788864	59	4409
2026-01-23 04:13:37.49	3.92	23.42	-44.5	-45.7	26.1	6.01e-01	0	43	0	396361728	59	4395
2026-01-23 04:13:38.49	3.68	23.54	-44.5	-45.6	26.2	6.04e-01	0	43	0	398458880	59	4391
2026-01-23 04:13:39.50	3.43	23.65	-44.2	-45.3	26.4	6.03e-01	0	43	0	400031744	59	4231
2026-01-23 04:13:40.51	3.19	23.77	-44.5	-55.3	3.8	7.46e-01	0	43	104	401604608	59	13266
2026-01-23 04:13:41.52	2.94	23.89	-44.5	-55.1	3.9	7.41e-01	0	43	104	401604608	59	13048
2026-01-23 04:13:42.53	2.69	24.01	-44.7	-55.4	3.9	7.38e-01	0	43	104	401604608	60	12780
2026-01-23 04:13:43.53	2.45	24.13	-44.5	-55.2	3.9	7.41e-01	0	43	104	401604608	60	12405
2026-01-23 04:13:44.54	2.19	24.24	-51.8	-64.0	3.8	7.47e-01	0	43	104	401604608	73	16214
2026-01-23 04:13:45.55	1.94	24.36	-48.4	-59.5	3.8	7.43e-01	0	43	104	401604608	69	12230
2026-01-23 04:13:46.56	1.68	24.48	-44.8	-55.5	3.8	7.44e-01	0	43	104	401604608	61	12108
2026-01-23 04:13:47.56	1.43	24.60	-45.4	-55.9	3.8	7.43e-01	0	43	104	401604608	62	12000
2026-01-23 04:13:48.57	1.17	24.71	-44.5	-55.2	3.8	7.49e-01	0	43	104	401604608	60	12449
2026-01-23 04:13:49.58	0.90	24.83	-44.5	-55.3	3.8	7.49e-01	0	43	104	401604608	60	12584
2026-01-23 04:13:50.59	0.64	24.95	-45.7	-56.3	3.7	7.47e-01	0	43	104	401604608	61	13386
2026-01-23 04:13:51.60	0.37	25.07	-45.0	-55.7	3.8	7.48e-01	0	43	104	401604608	62	11734
2026-01-23 04:13:52.61	0.10	25.18	-51.3	-63.2	4.2	7.31e-01	0	43	104	401604608	72	15595
2026-01-23 04:13:53.61	359.84	25.30	-47.0	-57.8	3.7	7.57e-01	0	43	104	401604608	66	11926
2026-01-23 04:13:54.62	359.56	25.42	-45.4	-56.1	3.6	7.55e-01	0	43	104	401604608	61	12989
2026-01-23 04:13:55.63	359.29	25.54	-44.6	-55.2	3.6	7.56e-01	0	43	104	401604608	61	11742
2026-01-23 04:13:56.64	359.01	25.65	-44.2	-54.8	3.7	7.58e-01	0	43	104	401604608	60	11885
2026-01-23 04:13:57.65	358.73	25.77	-44.3	-54.9	3.8	7.48e-01	0	43	104	401604608	60	12086
2026-01-23 04:13:58.65	358.45	25.88	-47.9	-59.1	3.8	7.46e-01	0	43	104	401604608	66	13802
2026-01-23 04:13:59.66	358.17	26.00	-44.7	-55.4	3.9	7.44e-01	0	43	104	401604608	61	12019
2026-01-23 04:14:00.67	357.88	26.12	-54.5	-69.6	3.7	7.48e-01	0	43	104	401604608	79	21767
2026-01-23 04:14:01.68	357.59	26.23	-47.4	-58.2	3.8	7.43e-01	0	43	104	401604608	66	12481
2026-01-23 04:14:02.68	357.31	26.35	-45.6	-56.2	3.8	7.43e-01	0	43	104	401604608	61	13219
2026-01-23 04:14:03.69	357.01	26.46	-44.7	-55.5	3.9	7.46e-01	0	43	104	401604608	61	12144
2026-01-23 04:14:04.70	356.72	26.58	-44.3	-55.0	3.8	7.44e-01	0	43	104	401604608	60	12097
2026-01-23 04:14:05.71	356.42	26.69	-44.2	-54.9	3.8	7.44e-01	0	43	104	401604608	60	12081
2026-01-23 04:14:06.72	356.12	26.81	-48.1	-59.2	3.8	7.44e-01	0	43	104	401604608	66	13933
2026-01-23 04:14:07.72	355.82	26.92	-44.2	-54.8	3.8	7.47e-01	0	43	104	401604608	60	11954
2026-01-23 04:14:08.73	355.52	27.04	-55.0	-71.6	3.7	7.50e-01	0	43	104	401604608	80	25997
2026-01-23 04:14:09.74	355.21	27.15	-46.8	-57.6	3.8	7.42e-01	0	43	104	401604608	65	12374
2026-01-23 04:14:10.75	354.90	27.26	-46.4	-57.3	3.8	7.46e-01	0	43	104	401604608	63	13347
2026-01-23 04:14:11.76	354.59	27.38	-44.3	-54.9	3.8	7.45e-01	0	43	104	401604608	60	12056
2026-01-23 04:14:12.76	354.28	27.49	-44.3	-54.9	3.8	7.44e-01	0	43	104	401604608	60	12032
2026-01-23 04:14:13.77	353.97	27.60	-44.2	-54.8	3.8	7.45e-01	0	43	104	401604608	60	11903
2026-01-23 04:14:14.78	353.65	27.71	-47.5	-58.5	3.8	7.43e-01	0	43	104	401604608	65	13665
2026-01-23 04:14:15.79	353.33	27.82	-44.2	-54.9	3.8	7.44e-01	0	43	104	401604608	60	12023
2026-01-23 04:14:16.79	353.01	27.93	-55.0	-71.4	3.7	7.51e-01	0	43	104	401604608	80	25278
2026-01-23 04:14:17.80	352.69	28.04	-46.9	-57.8	3.8	7.43e-01	0	43	104	401604608	65	12533
2026-01-23 04:14:18.81	352.36	28.15	-47.2	-58.1	3.8	7.48e-01	0	43	104	401604608	64	13798
2026-01-23 04:14:19.82	352.03	28.26	-43.9	-54.6	3.8	7.45e-01	0	43	104	401604608	59	12286
2026-01-23 04:14:20.82	351.70	28.37	-43.9	-54.5	3.9	7.47e-01	0	43	104	401604608	59	12205
2026-01-23 04:14:21.83	351.37	28.47	-44.0	-54.6	3.8	7.39e-01	0	43	104	401604608	59	12308
2026-01-23 04:14:22.84	351.03	28.58	-48.9	-60.2	3.8	7.46e-01	0	43	104	401604608	68	14011
2026-01-23 04:14:23.85	350.69	28.69	-44.0	-54.7	3.9	7.45e-01	0	43	104	401604608	60	11740
2026-01-23 04:14:24.86	350.35	28.79	-55.0	-71.5	3.7	7.46e-01	0	43	104	401604608	80	25839
2026-01-23 04:14:25.87	350.01	28.90	-47.1	-58.0	3.8	7.46e-01	0	43	104	401604608	65	12919
2026-01-23 04:14:26.87	349.66	29.00	-47.2	-58.1	3.8	7.42e-01	0	43	104	401604608	64	13811
2026-01-23 04:14:27.88	349.32	29.11	-43.7	-54.3	3.8	7.43e-01	0	43	104	401604608	59	11887
2026-01-23 04:14:28.89	348.97	29.21	-43.7	-54.3	3.8	7.48e-01	0	43	104	401604608	59	11915
2026-01-23 04:14:29.90	348.61	29.31	-43.9	-54.6	3.8	7.43e-01	0	43	104	401604608	59	12354
2026-01-23 04:14:30.91	348.26	29.41	-49.3	-60.8	3.8	7.45e-01	0	43	104	401604608	69	14097
2026-01-23 04:14:31.92	347.90	29.51	-44.0	-54.7	3.8	7.43e-01	0	43	104	401604608	59	12439
2026-01-23 04:14:32.93	347.54	29.61	-54.9	-71.3	3.8	7.47e-01	0	43	104	401604608	80	25104
2026-01-23 04:14:33.93	347.18	29.71	-47.1	-58.0	3.8	7.41e-01	0	43	104	401604608	65	12935
2026-01-23 04:14:34.94	346.82	29.81	-48.1	-59.2	3.8	7.43e-01	0	43	104	401604608	66	13943
2026-01-23 04:14:35.95	346.45	29.91	-43.9	-54.5	3.8	7.41e-01	0	43	104	401604608	59	12232
2026-01-23 04:14:36.96	346.08	30.00	-43.8	-54.4	3.8	7.43e-01	0	43	104	401604608	59	12068
2026-01-23 04:14:37.97	345.71	30.10	-43.9	-54.4	3.8	7.45e-01	0	43	104	401604608	59	12089
2026-01-23 04:14:38.98	345.34	30.19	-50.9	-62.8	3.8	7.42e-01	0	43	104	401604608	72	14913
2026-01-23 04:14:39.99	344.96	30.29	-44.0	-54.7	3.9	7.43e-01	0	43	104	401604608	59	12405
2026-01-23 04:14:40.99	344.59	30.38	-55.0	-71.4	3.8	7.47e-01	0	43	104	401604608	80	25366
2026-01-23 04:14:42.00	344.21	30.47	-47.4	-58.4	3.8	7.47e-01	0	43	104	401604608	66	12723
2026-01-23 04:14:43.01	343.82	30.56	-48.8	-60.1	3.8	7.40e-01	0	43	104	401604608	68	13770
2026-01-23 04:14:44.02	343.44	30.65	-43.8	-54.4	3.8	7.45e-01	0	43	104	401604608	59	12068
2026-01-23 04:14:45.03	343.05	30.74	-43.7	-54.3	3.8	7.45e-01	0	43	104	401604608	59	11896
2026-01-23 04:14:46.03	342.67	30.82	-43.8	-54.4	3.8	7.44e-01	0	43	104	401604608	59	12049
2026-01-23 04:14:47.04	342.27	30.91	-48.5	-59.9	3.8	7.46e-01	0	43	104	401604608	68	13424
2026-01-23 04:14:48.05	341.88	30.99	-44.0	-54.7	3.8	7.43e-01	0	43	104	401604608	60	11775
2026-01-23 04:14:49.05	341.49	31.07	-55.0	-71.4	3.8	7.42e-01	0	43	104	401604608	80	25356
2026-01-23 04:14:50.07	341.09	31.16	-46.9	-57.6	3.8	7.43e-01	0	43	104	401604608	65	12281
2026-01-23 04:14:51.07	340.69	31.24	-48.7	-60.0	3.9	7.44e-01	0	43	104	401604608	68	13649
2026-01-23 04:14:52.08	340.29	31.32	-44.0	-54.6	3.8	7.40e-01	0	43	104	401604608	59	12283
2026-01-23 04:14:53.09	339.89	31.39	-44.0	-54.6	3.8	7.47e-01	0	43	104	401604608	59	12312
2026-01-23 04:14:54.10	339.48	31.47	-43.8	-54.5	3.8	7.44e-01	0	43	104	401604608	59	12097
2026-01-23 04:14:55.11	339.07	31.54	-49.4	-60.9	3.8	7.40e-01	0	43	104	401604608	70	13514
2026-01-23 04:14:56.11	338.67	31.62	-44.0	-54.6	3.8	7.45e-01	0	43	104	401604608	60	11609
2026-01-23 04:14:57.12	338.25	31.69	-55.1	-71.5	3.8	7.47e-01	0	43	104	401604608	80	25825
2026-01-23 04:14:58.13	337.84	31.76	-46.0	-56.8	3.9	7.46e-01	0	43	104	401604608	64	11947
2026-01-23 04:14:59.14	337.43	31.83	-48.5	-59.8	3.8	7.41e-01	0	43	104	401604608	68	13305
2026-01-23 04:15:00.15	337.01	31.90	-44.0	-54.6	3.8	7.42e-01	0	43	104	401604608	59	12303
2026-01-23 04:15:01.15	336.59	31.96	-43.9	-54.5	3.8	7.46e-01	0	43	104	401604608	59	12224
2026-01-23 04:15:02.16	336.17	32.03	-43.9	-54.5	3.8	7.44e-01	0	43	104	401604608	59	12234
2026-01-23 04:15:03.17	335.75	32.09	-50.0	-61.7	3.9	7.49e-01	0	43	104	401604608	72	13222
2026-01-23 04:15:04.18	335.33	32.15	-44.0	-54.7	3.8	7.47e-01	0	44	104	401604608	60	11761
2026-01-23 04:15:05.18	334.90	32.21	-55.1	-71.5	3.8	7.47e-01	0	43	104	401604608	80	25693
2026-01-23 04:15:06.19	334.48	32.27	-46.0	-56.8	3.8	7.43e-01	0	43	104	401604608	64	11861
2026-01-23 04:15:07.20	334.05	32.33	-48.6	-59.9	3.8	7.47e-01	0	43	104	401604608	68	13439
2026-01-23 04:15:08.21	333.62	32.38	-44.0	-54.6	3.8	7.46e-01	0	43	104	401604608	59	12346
2026-01-23 04:15:09.22	333.18	32.44	-44.1	-54.7	3.8	7.45e-01	0	43	104	401604608	59	12477
2026-01-23 04:15:10.22	332.76	32.49	-44.2	-54.7	3.8	7.46e-01	0	43	104	401604608	59	12501
2026-01-23 04:15:11.23	332.32	32.54	-47.1	-58.1	3.9	7.46e-01	0	43	104	401604608	66	12324
2026-01-23 04:15:12.24	331.88	32.59	-44.1	-54.7	3.8	7.45e-01	0	43	104	401604608	60	11773
2026-01-23 04:15:13.25	331.45	32.63	-54.5	-69.9	3.9	7.45e-01	0	43	104	401604608	80	21366
2026-01-23 04:15:14.25	331.01	32.68	-45.4	-56.2	3.8	7.46e-01	0	43	104	401604608	63	11771
2026-01-23 04:15:15.26	330.57	32.72	-48.0	-59.2	3.8	7.42e-01	0	43	104	401604608	68	12444
2026-01-23 04:15:16.28	330.13	32.76	-44.0	-54.6	3.8	7.43e-01	0	43	104	401604608	60	11637
2026-01-23 04:15:17.28	329.69	32.80	-44.1	-54.8	3.8	7.46e-01	0	43	104	401604608	60	11947
2026-01-23 04:15:18.29	329.24	32.84	-44.1	-54.8	3.8	7.44e-01	0	43	104	401604608	60	11939
2026-01-23 04:15:19.30	328.80	32.87	-47.5	-58.6	3.8	7.44e-01	0	43	104	401604608	67	12262
2026-01-23 04:15:20.31	328.35	32.91	-44.3	-54.9	3.8	7.43e-01	0	43	104	401604608	60	12028
2026-01-23 04:15:21.32	327.91	32.94	-52.3	-64.7	3.9	7.45e-01	0	43	104	401604608	76	14807
2026-01-23 04:15:22.32	327.46	32.97	-44.7	-55.4	3.8	7.45e-01	0	43	104	401604608	61	12078
2026-01-23 04:15:23.33	327.02	33.00	-46.4	-57.3	3.9	7.43e-01	0	43	104	401604608	65	11935
2026-01-23 04:15:24.34	326.57	33.02	-44.0	-54.7	3.8	7.43e-01	0	43	104	401604608	60	11731
2026-01-23 04:15:25.35	326.12	33.05	-44.2	-54.9	3.8	7.47e-01	0	43	104	401604608	60	12052
2026-01-23 04:15:26.36	325.67	33.07	-44.7	-55.5	3.8	7.46e-01	0	43	104	401604608	60	12868
2026-01-23 04:15:27.37	325.22	33.09	-47.4	-58.3	3.8	7.46e-01	0	43	104	401604608	67	11917
2026-01-23 04:15:28.38	324.76	33.11	-44.4	-55.1	3.8	7.48e-01	0	43	104	401604608	60	12248
2026-01-23 04:15:29.38	324.32	33.12	-52.1	-64.6	3.9	7.41e-01	0	43	104	401604608	76	14657
2026-01-23 04:15:30.39	323.86	33.14	-44.7	-55.5	3.8	7.44e-01	0	44	104	401604608	61	12104
2026-01-23 04:15:31.40	323.41	33.15	-47.1	-58.1	3.8	7.41e-01	0	43	104	401604608	66	12255
2026-01-23 04:15:32.41	322.96	33.16	-44.3	-55.0	3.8	7.44e-01	0	43	104	401604608	60	12107
2026-01-23 04:15:33.42	322.50	33.17	-44.3	-54.9	3.8	7.43e-01	0	43	104	401604608	60	12025
2026-01-23 04:15:34.42	322.05	33.18	-45.9	-56.9	3.8	7.47e-01	0	43	104	401604608	62	13488
2026-01-23 04:15:35.43	321.60	33.18	-46.5	-57.3	3.9	7.45e-01	0	43	104	401604608	65	11929
2026-01-23 04:15:36.44	321.15	33.18	-45.7	-56.4	3.8	7.45e-01	0	43	104	401604608	61	13417
2026-01-23 04:15:37.45	320.69	33.18	-50.3	-61.7	3.9	7.44e-01	0	43	104	401604608	72	13130
2026-01-23 04:15:38.46	320.24	33.18	-44.6	-55.3	3.8	7.45e-01	0	43	104	401604608	61	11839
2026-01-23 04:15:39.47	319.78	33.18	-46.3	-57.0	3.8	7.44e-01	0	43	104	401604608	64	12162
2026-01-23 04:15:40.48	319.33	33.17	-44.7	-55.5	3.8	7.42e-01	0	43	104	401604608	61	12107
2026-01-23 04:15:41.48	318.88	33.17	-44.3	-55.0	3.8	7.41e-01	0	43	104	401604608	60	12117
2026-01-23 04:15:42.49	318.43	33.16	-46.0	-56.8	3.8	7.49e-01	0	43	104	401604608	62	13314
2026-01-23 04:15:43.50	317.97	33.15	-46.7	-57.6	3.8	7.45e-01	0	43	104	401604608	65	12267
2026-01-23 04:15:44.51	317.52	33.13	-48.2	-59.2	3.8	7.48e-01	0	43	104	401604608	66	13993
2026-01-23 04:15:45.52	317.07	33.12	-48.8	-59.9	3.9	7.40e-01	0	43	104	401604608	69	12711
2026-01-23 04:15:46.52	316.62	33.10	-44.9	-55.7	3.8	7.48e-01	0	43	104	401604608	61	12380
2026-01-23 04:15:47.53	316.17	33.08	-45.3	-56.0	3.8	7.47e-01	0	43	104	401604608	62	12179
2026-01-23 04:15:48.54	315.72	33.06	-44.7	-55.4	3.8	7.44e-01	0	43	104	401604608	61	12033
2026-01-23 04:15:49.55	315.27	33.04	-44.8	-55.5	3.8	7.45e-01	0	43	104	401604608	61	12161
2026-01-23 04:15:50.56	314.82	33.01	-46.8	-57.4	3.9	7.41e-01	0	43	104	401604608	63	13513
2026-01-23 04:15:51.56	314.37	32.99	-45.2	-55.9	3.8	7.47e-01	0	43	104	401604608	62	11987
2026-01-23 04:15:52.57	313.93	32.96	-48.1	-59.1	3.8	7.45e-01	0	43	104	401604608	66	13877
2026-01-23 04:15:53.58	313.48	32.93	-48.7	-60.0	3.8	7.46e-01	0	43	104	401604608	69	12830
2026-01-23 04:15:54.59	313.03	32.89	-45.1	-55.9	3.8	7.46e-01	0	43	104	401604608	61	12710
2026-01-23 04:15:55.60	312.59	32.86	-45.4	-55.9	3.8	7.44e-01	0	43	104	401604608	62	11961
2026-01-23 04:15:56.60	312.15	32.82	-44.7	-55.4	3.8	7.44e-01	0	43	104	401604608	61	12049
2026-01-23 04:15:57.61	311.70	32.78	-44.6	-55.3	3.8	7.46e-01	0	43	104	401604608	61	11907
2026-01-23 04:15:58.62	311.26	32.74	-50.0	-61.6	3.8	7.45e-01	0	43	104	401604608	70	14609
2026-01-23 04:15:59.63	310.82	32.70	-45.9	-56.7	3.9	7.47e-01	0	43	104	401604608	63	12425
2026-01-23 04:16:00.64	310.38	32.66	-50.8	-62.8	3.8	7.46e-01	0	43	104	401604608	72	14949
2026-01-23 04:16:01.64	309.95	32.61	-48.3	-59.2	3.8	7.42e-01	0	43	104	401604608	68	12464
2026-01-23 04:16:02.65	309.51	32.57	-46.1	-56.7	3.8	7.42e-01	0	43	104	401604608	62	13181
2026-01-23 04:16:03.66	309.07	32.52	-45.0	-55.5	3.8	7.43e-01	0	43	104	401604608	62	11498
2026-01-23 04:16:04.67	308.64	32.47	-44.7	-55.3	3.9	7.44e-01	0	43	104	401604608	61	11868
2026-01-23 04:16:05.68	308.20	32.41	-44.8	-55.6	3.8	7.46e-01	0	43	104	401604608	61	12321
2026-01-23 04:16:06.68	307.78	32.36	-47.3	-58.8	3.8	7.45e-01	0	43	104	401604608	65	14114
2026-01-23 04:16:07.69	307.35	32.30	-45.8	-56.7	3.8	7.44e-01	0	43	104	401604608	63	12498
2026-01-23 04:16:08.70	306.92	32.25	-50.5	-62.4	3.8	7.47e-01	0	43	104	401604608	71	15140
2026-01-23 04:16:09.71	306.49	32.19	-48.4	-59.8	3.9	7.46e-01	0	43	104	401604608	68	13308
2026-01-23 04:16:10.72	306.06	32.13	-47.2	-58.1	3.8	7.46e-01	0	43	104	401604608	64	13752
2026-01-23 04:16:11.73	305.64	32.06	-44.9	-55.4	3.8	7.42e-01	0	43	104	401604608	61	11960
2026-01-23 04:16:12.73	305.22	32.00	-44.8	-55.2	3.8	7.45e-01	0	43	104	401604608	61	11782
2026-01-23 04:16:13.74	304.80	31.93	-44.9	-55.4	3.8	7.42e-01	0	43	104	401604608	61	11995
2026-01-23 04:16:14.75	304.38	31.87	-47.2	-58.1	3.9	7.43e-01	0	43	104	401604608	64	13845
2026-01-23 04:16:15.76	303.97	31.80	-45.9	-56.8	3.8	7.47e-01	0	43	104	401604608	63	12589
2026-01-23 04:16:16.76	303.56	31.73	-52.7	-65.5	3.8	7.47e-01	0	43	104	401604608	75	17249
2026-01-23 04:16:17.77	303.14	31.66	-48.3	-59.8	3.8	7.47e-01	0	43	104	401604608	68	13261
2026-01-23 04:16:18.78	302.73	31.58	-47.5	-58.4	3.8	7.45e-01	0	43	104	401604608	65	13511
2026-01-23 04:16:19.79	302.32	31.51	-44.9	-55.2	3.8	7.46e-01	0	43	104	401604608	61	11797
2026-01-23 04:16:20.80	301.91	31.43	-45.1	-55.3	3.8	7.43e-01	0	43	104	401604608	61	11893
2026-01-23 04:16:21.81	301.51	31.36	-44.9	-55.2	3.9	7.42e-01	0	43	104	401604608	61	11726
2026-01-23 04:16:22.81	301.11	31.28	-49.2	-60.0	3.9	7.44e-01	0	43	104	401604608	68	13713
2026-01-23 04:16:23.82	300.71	31.20	-46.4	-56.7	3.8	7.43e-01	0	43	104	401604608	63	12376
2026-01-23 04:16:24.82	300.31	31.12	-53.8	-67.4	3.8	7.47e-01	0	43	104	401604608	78	17950
2026-01-23 04:16:25.83	299.91	31.04	-48.3	-59.0	3.9	7.43e-01	0	43	104	401604608	67	12858
2026-01-23 04:16:26.84	299.52	30.95	-48.8	-60.0	3.9	7.43e-01	0	43	104	401604608	67	14470
2026-01-23 04:16:27.85	299.13	30.87	-45.1	-56.8	3.8	7.47e-01	0	43	104	401604608	62	13290
2026-01-23 04:16:28.86	298.73	30.78	-45.0	-56.7	3.8	7.45e-01	0	43	104	401604608	62	13211
2026-01-23 04:16:29.87	298.35	30.69	-44.9	-56.6	3.8	7.44e-01	0	43	104	401604608	61	13762
2026-01-23 04:16:30.88	297.96	30.61	-52.7	-65.8	3.8	7.45e-01	0	43	104	401604608	75	17844
2026-01-23 04:16:31.89	297.58	30.52	-46.5	-56.7	3.8	7.42e-01	0	43	104	401604608	63	12515
2026-01-23 04:16:32.89	297.20	30.43	-53.6	-66.7	3.8	7.40e-01	0	43	104	401604608	77	17542
2026-01-23 04:16:33.90	296.82	30.34	-48.2	-59.0	3.9	7.46e-01	0	43	104	401604608	67	12922
2026-01-23 04:16:34.91	296.44	30.24	-50.1	-61.2	3.8	7.40e-01	0	43	104	401604608	70	13973
2026-01-23 04:16:35.92	296.06	30.15	-45.1	-55.6	3.8	7.42e-01	0	43	104	401604608	62	11561
2026-01-23 04:16:36.92	295.69	30.05	-45.1	-56.8	3.9	7.45e-01	0	43	104	401604608	62	13361
2026-01-23 04:16:37.93	295.32	29.96	-45.1	-56.5	3.8	7.43e-01	0	43	104	401604608	62	12903
2026-01-23 04:16:38.94	294.95	29.86	-47.8	-58.4	3.8	7.42e-01	0	43	104	401604608	66	12757
2026-01-23 04:16:39.95	294.59	29.76	-46.9	-57.6	3.8	7.45e-01	0	43	104	401604608	64	13029
2026-01-23 04:16:40.96	294.22	29.67	-54.0	-67.8	3.8	7.47e-01	0	43	104	401604608	78	18925
2026-01-23 04:16:41.96	293.87	29.57	-48.3	-59.2	3.9	7.41e-01	0	43	104	401604608	67	13245
2026-01-23 04:16:42.97	293.51	29.47	-50.4	-62.4	3.9	7.45e-01	0	43	104	401604608	71	15204
2026-01-23 04:16:43.98	293.15	29.37	-45.2	-55.6	3.8	7.41e-01	0	43	104	401604608	62	11580
2026-01-23 04:16:44.99	292.79	29.26	-45.1	-55.7	3.8	7.43e-01	0	43	104	401604608	62	11728
2026-01-23 04:16:46.00	292.44	29.16	-45.2	-56.1	3.8	7.45e-01	0	44	104	401604608	62	12279
2026-01-23 04:16:47.00	292.09	29.06	-50.6	-62.1	3.8	7.45e-01	0	43	104	401604608	71	14611
2026-01-23 04:16:48.01	291.75	28.95	-46.9	-58.2	3.8	7.44e-01	0	43	104	401604608	64	14029
2026-01-23 04:16:49.02	291.40	28.85	-53.8	-67.7	3.8	7.46e-01	0	43	104	401604608	78	18665
2026-01-23 04:16:50.03	291.06	28.74	-47.5	-58.0	3.9	7.45e-01	0	43	104	401604608	67	11487
2026-01-23 04:16:51.04	290.72	28.64	-51.0	-63.5	3.9	7.48e-01	0	43	104	401604608	72	16272
2026-01-23 04:16:52.04	290.38	28.53	-45.3	-55.5	3.8	7.46e-01	0	43	104	401604608	62	11532
2026-01-23 04:16:53.05	290.05	28.42	-45.2	-55.6	3.8	7.42e-01	0	43	104	401604608	62	11606
2026-01-23 04:16:54.06	289.71	28.31	-45.2	-56.5	3.9	7.44e-01	0	43	104	401604608	62	12940
2026-01-23 04:16:55.07	289.38	28.21	-53.5	-67.0	3.8	7.43e-01	0	43	104	401604608	78	17238
2026-01-23 04:16:56.08	289.05	28.10	-47.2	-58.4	3.8	7.43e-01	0	43	104	401604608	65	13456
2026-01-23 04:16:57.09	288.73	27.99	-53.7	-67.4	3.8	7.45e-01	0	43	104	401604608	78	18034
2026-01-23 04:16:58.09	288.40	27.88	-48.3	-59.5	3.9	7.46e-01	0	43	104	401604608	68	12927
2026-01-23 04:16:59.10	288.08	27.76	-51.8	-64.0	3.8	7.43e-01	0	43	104	401604608	74	15233
2026-01-23 04:17:00.11	287.76	27.65	-46.0	-56.7	3.8	7.43e-01	0	43	104	401604608	63	12467
2026-01-23 04:17:01.12	287.45	27.54	-45.9	-56.6	3.8	7.44e-01	0	43	104	401604608	63	12241
2026-01-23 04:17:02.12	287.13	27.43	-45.9	-56.9	3.8	7.44e-01	0	43	104	401604608	63	12796
2026-01-23 04:17:03.13	286.82	27.32	-49.2	-60.0	3.9	7.46e-01	0	43	104	401604608	70	12228
2026-01-23 04:17:04.14	286.51	27.20	-47.5	-59.3	3.8	7.45e-01	0	43	104	401604608	67	13331
2026-01-23 04:17:05.15	286.20	27.09	-51.7	-63.4	3.8	7.43e-01	0	43	104	401604608	74	14293
2026-01-23 04:17:06.16	285.90	26.98	-48.0	-59.7	3.8	7.40e-01	0	43	104	401604608	68	13162
2026-01-23 04:17:07.16	285.60	26.86	-53.6	-66.9	3.8	7.44e-01	0	43	104	401604608	78	16910
2026-01-23 04:17:08.17	285.29	26.75	-46.8	-58.1	3.9	7.46e-01	0	43	104	401604608	65	13087
2026-01-23 04:17:09.18	284.99	26.63	-46.8	-57.4	3.8	7.44e-01	0	43	104	401604608	65	12009
2026-01-23 04:17:10.18	284.70	26.52	-46.6	-58.1	3.9	7.46e-01	0	43	104	401604608	65	12973
2026-01-23 04:17:11.19	284.41	26.40	-47.7	-58.3	3.8	7.44e-01	0	43	104	401604608	66	12653
2026-01-23 04:17:12.20	284.11	26.29	-51.1	-63.7	3.9	7.43e-01	0	43	104	401604608	74	14743
2026-01-23 04:17:13.21	283.82	26.17	-47.0	-57.7	3.8	7.41e-01	0	43	104	401604608	66	11748
2026-01-23 04:17:14.22	283.54	26.05	-46.0	-57.2	3.9	7.43e-01	0	43	104	401604608	64	12406
2026-01-23 04:17:15.22	283.25	25.94	-51.6	-63.7	3.9	7.44e-01	0	43	104	401604608	75	13923
2026-01-23 04:17:16.23	282.97	25.82	-45.8	-56.8	3.9	7.44e-01	0	43	104	401604608	63	12578
2026-01-23 04:17:17.24	282.69	25.71	-45.9	-56.3	3.8	7.46e-01	0	43	104	401604608	63	11901
2026-01-23 04:17:18.25	282.41	25.59	-46.2	-57.3	3.8	7.45e-01	0	43	104	401604608	63	13300
2026-01-23 04:17:19.26	282.13	25.47	-50.3	-61.2	3.9	7.45e-01	0	43	104	401604608	72	12390
2026-01-23 04:17:20.27	281.86	25.35	-46.4	-57.6	3.9	7.44e-01	0	43	104	401604608	64	13067
2026-01-23 04:17:21.27	281.59	25.24	-51.6	-63.4	3.9	7.44e-01	0	43	104	401604608	75	13506
2026-01-23 04:17:22.28	281.32	25.12	-47.9	-59.5	3.9	7.41e-01	0	43	104	401604608	67	13605
2026-01-23 04:17:23.29	281.05	25.00	-52.9	-65.2	3.9	7.42e-01	0	43	104	401604608	77	14859
2026-01-23 04:17:24.30	280.78	24.88	-48.4	-59.5	3.8	7.43e-01	0	43	104	401604608	68	12873
2026-01-23 04:17:25.30	280.52	24.77	-48.5	-59.9	3.9	7.45e-01	0	43	104	401604608	68	13495
2026-01-23 04:17:26.31	280.26	24.65	-48.6	-59.2	3.8	7.45e-01	0	43	104	401604608	68	12398
2026-01-23 04:17:27.32	280.00	24.53	-51.5	-64.6	3.8	7.42e-01	0	43	104	401604608	73	17401
2026-01-23 04:17:28.33	279.74	24.41	-48.0	-58.4	3.8	7.42e-01	0	43	104	401604608	68	11410
2026-01-23 04:17:29.34	279.48	24.29	-47.2	-58.6	3.8	7.44e-01	0	43	104	401604608	66	13053
2026-01-23 04:17:30.34	279.23	24.18	-45.8	-56.8	3.8	7.43e-01	0	43	104	401604608	63	12587
2026-01-23 04:17:31.35	278.98	24.06	-50.5	-61.6	3.9	7.46e-01	0	43	104	401604608	73	12287
2026-01-23 04:17:32.36	278.73	23.94	-46.3	-57.8	3.8	7.44e-01	0	43	104	401604608	64	13400
2026-01-23 04:17:33.37	278.48	23.82	-46.0	-56.6	3.8	7.42e-01	0	43	104	401604608	64	11655
2026-01-23 04:17:34.38	278.23	23.70	-46.2	-56.7	3.8	7.45e-01	0	43	104	401604608	63	12379
2026-01-23 04:17:35.39	277.99	23.58	-47.7	-59.7	3.9	7.45e-01	0	43	104	401604608	67	13950
2026-01-23 04:17:36.39	277.75	23.47	-46.1	-56.5	3.9	7.42e-01	0	43	104	401604608	64	11524
2026-01-23 04:17:37.40	277.51	23.35	-50.6	-62.2	3.8	7.44e-01	0	43	104	401604608	73	13122
2026-01-23 04:17:38.41	277.27	23.23	-47.2	-58.8	3.9	7.45e-01	0	43	104	401604608	66	13325
2026-01-23 04:17:39.42	277.03	23.11	-50.6	-61.9	3.9	7.46e-01	0	43	104	401604608	73	12723
2026-01-23 04:17:40.43	276.80	23.00	-48.1	-58.8	3.8	7.46e-01	0	43	104	401604608	67	12582
2026-01-23 04:17:41.43	276.57	22.88	-48.1	-59.7	3.8	7.45e-01	0	43	104	401604608	67	14027
2026-01-23 04:17:42.44	276.34	22.76	-46.9	-57.5	3.8	7.45e-01	0	43	104	401604608	65	12122
2026-01-23 04:17:43.45	276.11	22.64	-49.4	-60.4	3.9	7.44e-01	0	43	104	401604608	69	13508
2026-01-23 04:17:44.46	275.88	22.53	-46.2	-57.4	3.8	7.41e-01	0	43	104	401604608	64	12673
2026-01-23 04:17:45.46	275.66	22.41	-46.9	-58.1	3.8	7.42e-01	0	43	104	401604608	66	12341
2026-01-23 04:17:46.47	275.43	22.29	-46.6	-57.2	3.8	7.45e-01	0	43	104	401604608	63	13231
2026-01-23 04:17:47.48	275.21	22.18	-49.6	-61.2	3.9	7.43e-01	0	43	104	401604608	71	13139
2026-01-23 04:17:48.48	274.99	22.06	-46.7	-58.1	3.8	7.43e-01	0	43	104	401604608	65	12997
2026-01-23 04:17:49.49	274.77	21.94	-46.3	-57.1	3.8	7.44e-01	0	43	104	401604608	64	12291
2026-01-23 04:17:50.50	274.56	21.83	-45.4	-55.7	3.8	7.45e-01	0	43	104	401604608	62	11744
2026-01-23 04:17:51.51	274.34	21.71	-46.3	-57.2	3.8	7.46e-01	0	43	104	401604608	63	13213
2026-01-23 04:17:52.52	274.13	21.59	-46.8	-58.1	3.8	7.44e-01	0	43	104	401604608	64	13764
2026-01-23 04:17:53.53	273.92	21.48	-48.8	-60.0	3.8	7.43e-01	0	43	104	401604608	69	12871
2026-01-23 04:17:54.54	273.71	21.36	-47.8	-59.0	3.8	7.48e-01	0	43	104	401604608	66	13654
2026-01-23 04:17:55.54	273.50	21.25	-48.1	-59.4	3.8	7.47e-01	0	43	104	401604608	68	12754
2026-01-23 04:17:56.55	273.29	21.13	-46.8	-58.0	3.9	7.44e-01	0	43	104	401604608	65	12888
2026-01-23 04:17:57.56	273.09	21.02	-46.7	-57.7	3.8	7.41e-01	0	43	104	401604608	65	12384
2026-01-23 04:17:58.57	272.89	20.90	-47.8	-58.9	3.8	7.48e-01	0	43	104	401604608	66	13444
2026-01-23 04:17:59.58	272.68	20.79	-49.9	-61.5	3.8	7.46e-01	0	43	104	401604608	70	14460
2026-01-23 04:18:00.58	272.49	20.67	-46.1	-57.0	3.8	7.47e-01	0	43	104	401604608	63	12950
2026-01-23 04:18:01.59	272.29	20.56	-46.8	-57.7	3.8	7.44e-01	0	43	104	401604608	65	12405
2026-01-23 04:18:02.60	272.09	20.44	-48.3	-59.2	3.8	7.48e-01	0	43	104	401604608	66	13888
2026-01-23 04:18:03.61	271.89	20.33	-46.5	-57.2	3.8	7.42e-01	0	43	104	401604608	65	11808
2026-01-23 04:18:04.62	271.70	20.21	-46.1	-57.2	3.8	7.44e-01	0	43	104	401604608	63	13139
2026-01-23 04:18:05.62	271.51	20.10	-46.2	-57.3	3.9	7.44e-01	0	43	104	401604608	63	13403
2026-01-23 04:18:06.63	271.32	19.99	-48.5	-59.6	3.8	7.47e-01	0	43	104	401604608	67	13835
2026-01-23 04:18:07.64	271.13	19.88	-47.1	-57.8	3.8	7.43e-01	0	43	104	401604608	64	13350
2026-01-23 04:18:08.65	270.94	19.76	-48.1	-58.9	3.8	7.48e-01	0	43	104	401604608	66	13552
2026-01-23 04:18:09.66	270.76	19.65	-48.2	-59.4	3.8	7.44e-01	0	43	104	401604608	68	12745
2026-01-23 04:18:10.66	270.57	19.54	-49.2	-60.6	3.8	7.45e-01	0	43	104	401604608	68	14546
2026-01-23 04:18:11.67	270.39	19.43	-47.1	-58.2	3.9	7.42e-01	0	43	104	401604608	66	12412
2026-01-23 04:18:12.68	270.21	19.31	-46.7	-57.6	3.8	7.39e-01	0	43	104	401604608	65	12269
2026-01-23 04:18:13.69	270.03	19.20	-46.6	-57.3	3.8	7.43e-01	0	43	104	401604608	65	11854
2026-01-23 04:18:14.70	269.85	19.09	-49.2	-60.4	3.8	7.48e-01	0	43	104	401604608	68	14361
2026-01-23 04:18:15.70	269.67	18.98	-50.1	-61.8	3.8	7.40e-01	0	43	104	401604608	70	14886
2026-01-23 04:18:16.71	269.49	18.87	-48.2	-59.4	3.8	7.44e-01	0	43	104	401604608	66	14306
2026-01-23 04:18:17.72	269.32	18.76	-46.3	-57.3	3.8	7.45e-01	0	43	104	401604608	64	12576
2026-01-23 04:18:18.73	269.14	18.65	-51.0	-63.0	3.8	7.45e-01	0	43	104	401604608	72	15264
2026-01-23 04:18:19.74	268.97	18.54	-46.3	-57.0	3.8	7.41e-01	0	43	104	401604608	64	12127
2026-01-23 04:18:20.75	268.80	18.43	-45.7	-56.4	3.8	7.44e-01	0	43	104	401604608	63	11987
2026-01-23 04:18:21.76	268.63	18.32	-45.4	-56.0	3.8	7.40e-01	0	43	104	401604608	62	12178
2026-01-23 04:18:22.77	268.46	18.21	-47.2	-58.3	3.8	7.43e-01	0	43	104	401604608	64	14158
2026-01-23 04:18:23.78	268.29	18.10	-47.0	-58.2	3.8	7.48e-01	0	43	104	401604608	65	13125
2026-01-23 04:18:24.79	268.13	17.99	-50.4	-62.5	3.8	7.43e-01	0	43	104	401604608	71	15273
2026-01-23 04:18:25.79	267.97	17.89	-49.4	-60.8	3.8	7.46e-01	0	43	104	401604608	70	13394
2026-01-23 04:18:26.80	267.80	17.78	-49.0	-60.1	3.8	7.46e-01	0	43	104	401604608	68	13782
2026-01-23 04:18:27.81	267.64	17.67	-46.3	-57.1	3.8	7.45e-01	0	43	104	401604608	64	12351
2026-01-23 04:18:28.82	267.48	17.56	-46.0	-57.0	3.8	7.45e-01	0	43	104	401604608	63	12819
2026-01-23 04:18:29.83	267.32	17.46	-46.1	-57.0	3.8	7.42e-01	0	43	104	401604608	63	12939
2026-01-23 04:18:30.84	267.16	17.35	-45.5	-56.4	3.8	7.44e-01	0	43	104	401604608	62	12682
2026-01-23 04:18:31.85	267.00	17.24	-50.0	-61.4	3.8	7.47e-01	0	43	104	401604608	70	14360
2026-01-23 04:18:32.86	266.85	17.14	-49.4	-60.8	3.8	7.45e-01	0	43	104	401604608	69	14052
2026-01-23 04:18:33.86	266.69	17.03	-46.4	-57.2	3.8	7.45e-01	0	43	104	401604608	63	13133
2026-01-23 04:18:34.88	266.54	16.92	-52.5	-65.3	3.8	7.47e-01	0	43	104	401604608	75	16882
2026-01-23 04:18:35.88	266.39	16.82	-46.1	-56.9	3.8	7.42e-01	0	43	104	401604608	64	12080
2026-01-23 04:18:36.89	266.24	16.71	-45.9	-56.8	3.8	7.44e-01	0	43	104	401604608	63	12615
2026-01-23 04:18:37.90	266.09	16.61	-45.8	-56.7	3.8	7.44e-01	0	43	104	401604608	63	12475
2026-01-23 04:18:38.91	265.94	16.51	-45.9	-56.7	3.8	7.46e-01	0	43	104	401604608	62	13234
2026-01-23 04:18:39.92	265.79	16.40	-50.2	-61.8	3.9	7.43e-01	0	43	104	401604608	70	14932
2026-01-23 04:18:40.93	265.64	16.30	-50.2	-61.7	3.8	7.42e-01	0	43	104	401604608	70	14830
2026-01-23 04:18:41.93	265.50	16.19	-47.6	-58.6	3.8	7.47e-01	0	43	104	401604608	67	12296
2026-01-23 04:18:42.94	265.35	16.09	-52.0	-64.6	3.8	7.42e-01	0	43	104	401604608	74	16422
2026-01-23 04:18:43.95	265.21	15.99	-46.1	-56.9	3.8	7.43e-01	0	43	104	401604608	63	12755
2026-01-23 04:18:44.96	265.07	15.89	-46.0	-57.0	3.8	7.44e-01	0	43	104	401604608	63	12829
2026-01-23 04:18:45.97	264.92	15.78	-45.8	-56.8	3.8	7.45e-01	0	43	104	401604608	63	12574
2026-01-23 04:18:46.97	264.79	15.68	-46.8	-57.8	3.8	7.45e-01	0	43	104	401604608	64	13390
2026-01-23 04:18:47.98	264.65	15.58	-50.0	-61.8	3.9	7.46e-01	0	44	104	401604608	70	14884
2026-01-23 04:18:48.99	264.51	15.48	-50.3	-62.1	3.8	7.44e-01	0	43	104	401604608	71	14617
2026-01-23 04:18:50.00	264.37	15.38	-46.5	-57.4	3.8	7.45e-01	0	43	104	401604608	64	12674
2026-01-23 04:18:51.00	264.23	15.28	-53.3	-67.2	3.8	7.45e-01	0	43	104	401604608	77	18592
2026-01-23 04:18:52.01	264.10	15.18	-46.2	-57.1	3.8	7.47e-01	0	43	104	401604608	64	12304
2026-01-23 04:18:53.02	263.96	15.08	-45.8	-56.6	3.8	7.44e-01	0	43	104	401604608	63	12363
2026-01-23 04:18:54.03	263.83	14.98	-45.8	-56.7	3.8	7.47e-01	0	43	104	401604608	63	12395
2026-01-23 04:18:55.03	263.70	14.88	-47.0	-58.0	3.8	7.43e-01	0	43	104	401604608	64	13708
2026-01-23 04:18:56.04	263.57	14.78	-50.3	-62.1	3.8	7.42e-01	0	43	104	401604608	71	14630
2026-01-23 04:18:57.05	263.44	14.68	-49.9	-61.5	3.8	7.46e-01	0	44	104	401604608	70	14479
2026-01-23 04:18:58.06	263.31	14.58	-47.4	-58.1	3.8	7.43e-01	0	43	104	401604608	66	12361
2026-01-23 04:18:59.07	263.18	14.48	-51.9	-64.5	3.8	7.43e-01	0	44	104	401604608	74	16169
2026-01-23 04:19:00.08	263.05	14.38	-46.0	-56.8	3.8	7.42e-01	0	43	104	401604608	63	12628
2026-01-23 04:19:01.08	262.93	14.29	-45.9	-56.7	3.9	7.48e-01	0	44	104	401604608	63	12396
2026-01-23 04:19:02.09	262.80	14.19	-46.0	-56.9	3.8	7.46e-01	0	43	104	401604608	63	12692
2026-01-23 04:19:03.10	262.67	14.09	-47.4	-58.5	3.8	7.45e-01	0	43	104	401604608	66	12936
2026-01-23 04:19:04.11	262.55	14.00	-49.6	-61.2	3.8	7.44e-01	0	43	104	401604608	70	14021
2026-01-23 04:19:05.11	262.43	13.90	-49.4	-61.3	3.8	7.41e-01	0	43	104	401604608	71	13348
2026-01-23 04:19:06.12	262.31	13.80	-46.1	-57.1	3.9	7.41e-01	0	43	104	401604608	64	12288
2026-01-23 04:19:07.13	262.18	13.71	-52.9	-66.6	3.8	7.42e-01	0	44	104	401604608	77	17348
2026-01-23 04:19:08.14	262.06	13.61	-46.4	-57.4	3.8	7.45e-01	0	43	104	401604608	64	12753
2026-01-23 04:19:09.14	261.94	13.52	-46.1	-57.0	3.8	7.47e-01	0	43	104	401604608	64	12202
2026-01-23 04:19:10.15	261.82	13.42	-46.0	-56.9	3.8	7.46e-01	0	44	104	401604608	63	12691
2026-01-23 04:19:11.16	261.71	13.33	-46.2	-57.1	3.8	7.45e-01	0	43	104	401604608	63	12991
2026-01-23 04:19:12.17	261.59	13.23	-48.9	-60.5	3.9	7.44e-01	0	44	104	401604608	70	12873
2026-01-23 04:19:13.17	261.47	13.14	-49.3	-60.6	3.9	7.45e-01	0	43	104	401604608	70	12984
2026-01-23 04:19:14.18	261.36	13.04	-47.1	-57.9	3.8	7.46e-01	0	43	104	401604608	66	12082
2026-01-23 04:19:15.19	261.24	12.95	-51.2	-63.5	3.8	7.44e-01	0	43	104	401604608	74	14378
2026-01-23 04:19:16.20	261.13	12.86	-46.1	-56.9	3.8	7.42e-01	0	43	104	401604608	63	12764
2026-01-23 04:19:17.20	261.02	12.77	-46.0	-56.9	3.8	7.44e-01	0	43	104	401604608	63	12776
2026-01-23 04:19:18.22	260.90	12.67	-46.2	-57.2	3.8	7.44e-01	0	44	104	401604608	63	13172
2026-01-23 04:19:19.22	260.79	12.58	-49.7	-61.5	3.8	7.41e-01	0	43	104	401604608	70	14448
2026-01-23 04:19:20.23	260.68	12.49	-47.7	-59.0	3.8	7.42e-01	0	43	104	401604608	67	12899
2026-01-23 04:19:21.24	260.57	12.40	-49.1	-60.7	3.8	7.46e-01	0	43	104	401604608	70	13172
2026-01-23 04:19:22.25	260.46	12.30	-46.0	-56.8	3.8	7.48e-01	0	44	104	401604608	63	12657
2026-01-23 04:19:23.25	260.35	12.21	-52.1	-65.1	3.9	7.43e-01	0	43	104	401604608	76	15423
2026-01-23 04:19:24.26	260.25	12.12	-46.7	-57.6	3.8	7.43e-01	0	43	104	401604608	65	12334
2026-01-23 04:19:25.27	260.14	12.03	-46.3	-57.1	3.8	7.44e-01	0	43	104	401604608	64	12312
2026-01-23 04:19:26.28	260.03	11.94	-45.8	-56.6	3.8	7.43e-01	0	43	104	401604608	63	12289
2026-01-23 04:19:27.28	259.93	11.85	-46.2	-57.0	3.8	7.44e-01	0	44	104	401604608	64	12232
2026-01-23 04:19:28.29	259.82	11.76	-48.3	-59.4	3.8	7.41e-01	0	43	104	401604608	68	12752
2026-01-23 04:19:29.30	259.72	11.67	-48.7	-60.0	3.8	7.45e-01	0	43	104	401604608	69	12951
2026-01-23 04:19:30.31	259.61	11.58	-46.1	-56.9	3.8	7.43e-01	0	43	104	401604608	64	12062
2026-01-23 04:19:31.32	259.51	11.49	-49.2	-60.7	3.8	7.44e-01	0	43	104	401604608	70	13252
2026-01-23 04:19:32.33	259.41	11.40	-46.1	-57.0	3.8	7.46e-01	0	43	104	401604608	64	12203
2026-01-23 04:19:33.33	259.31	11.32	-46.2	-57.1	3.8	7.44e-01	0	43	104	401604608	63	13023
2026-01-23 04:19:34.34	259.21	11.23	-46.1	-57.0	3.8	7.46e-01	0	44	104	401604608	63	12876
2026-01-23 04:19:35.35	259.11	11.14	-47.5	-58.5	3.9	7.45e-01	0	43	104	401604608	65	13687
2026-01-23 04:19:36.36	259.01	11.05	-46.3	-57.1	3.8	7.42e-01	0	43	104	401604608	64	12357
2026-01-23 04:19:37.36	258.91	10.96	-48.3	-59.5	3.8	7.44e-01	0	43	104	401604608	68	12836
2026-01-23 04:19:38.38	258.81	10.88	-46.0	-56.9	3.8	7.43e-01	0	43	104	401604608	63	12680
2026-01-23 04:19:39.38	258.71	10.79	-50.7	-62.9	3.9	7.44e-01	0	43	104	401604608	73	14217
2026-01-23 04:19:40.39	258.62	10.70	-46.8	-57.8	3.8	7.45e-01	0	44	104	401604608	65	12631
2026-01-23 04:19:41.40	258.52	10.62	-46.3	-57.2	3.8	7.47e-01	0	43	104	401604608	64	12496
2026-01-23 04:19:42.41	258.42	10.53	-45.8	-56.7	3.8	7.45e-01	0	43	104	401604608	63	12444
2026-01-23 04:19:43.41	258.33	10.44	-47.1	-58.1	3.8	7.45e-01	0	44	104	401604608	66	12365
2026-01-23 04:19:44.42	258.23	10.36	-46.3	-57.3	3.8	7.46e-01	0	44	104	401604608	63	13270
2026-01-23 04:19:45.43	258.14	10.27	-50.5	-62.5	3.8	7.47e-01	0	44	104	401604608	73	13707
2026-01-23 04:19:46.44	258.05	10.19	-46.0	-56.8	3.8	7.45e-01	0	44	104	401604608	64	11941
2026-01-23 04:19:47.44	257.95	10.10	-47.7	-58.8	3.9	7.44e-01	0	44	104	401604608	67	12625
2026-01-23 04:19:48.45	257.86	10.02	-46.5	-57.3	3.9	7.46e-01	0	44	104	401604608	64	12662
2026-01-23 04:19:49.46	257.77	9.93	-46.3	-57.1	3.8	7.44e-01	0	43	104	401604608	64	12329
2026-01-23 04:19:50.47	257.68	9.85	-46.2	-57.1	3.8	7.44e-01	0	44	104	401604608	64	12305
2026-01-23 04:19:51.48	257.59	9.77	-47.3	-58.5	3.8	7.42e-01	0	44	104	401604608	65	13621
2026-01-23 04:19:52.48	257.50	9.68	-46.1	-57.0	3.8	7.46e-01	0	44	104	401604608	64	12213
2026-01-23 04:19:53.49	257.41	9.60	-47.5	-58.7	3.9	7.44e-01	0	44	104	401604608	67	12446
2026-01-23 04:19:54.50	257.32	9.52	-46.9	-57.9	3.8	7.46e-01	0	43	104	401604608	64	13483
2026-01-23 04:19:55.51	257.24	9.43	-48.0	-59.3	3.8	7.47e-01	0	44	104	401604608	68	12638
2026-01-23 04:19:56.52	257.15	9.35	-46.6	-57.6	3.8	7.43e-01	0	43	104	401604608	65	12300
2026-01-23 04:19:57.53	257.06	9.27	-46.6	-57.6	3.8	7.45e-01	0	44	104	401604608	65	12338
2026-01-23 04:19:58.54	256.97	9.19	-46.8	-57.7	3.8	7.45e-01	0	43	104	401604608	64	13181
2026-01-23 04:19:59.55	256.89	9.10	-48.2	-59.5	3.8	7.48e-01	0	44	104	401604608	66	14455
2026-01-23 04:20:00.55	256.80	9.02	-46.6	-57.4	3.8	7.46e-01	0	44	104	401604608	64	12783
2026-01-23 04:20:01.56	256.72	8.94	-48.1	-59.4	3.8	7.42e-01	0	44	104	401604608	68	12705
2026-01-23 04:20:02.57	256.63	8.86	-47.5	-58.6	3.8	7.46e-01	0	43	104	401604608	65	13787
2026-01-23 04:20:03.58	256.55	8.78	-47.4	-58.3	3.8	7.41e-01	0	44	104	401604608	66	12556
2026-01-23 04:20:04.59	256.47	8.70	-46.3	-57.2	3.8	7.48e-01	0	43	104	401604608	64	12449
2026-01-23 04:20:05.60	256.38	8.62	-46.4	-57.3	3.8	7.46e-01	0	43	104	401604608	64	12608
2026-01-23 04:20:06.61	256.30	8.54	-48.4	-59.8	3.9	7.45e-01	0	44	104	401604608	67	14114
2026-01-23 04:20:07.62	256.22	8.46	-49.2	-60.7	3.8	7.43e-01	0	43	104	401604608	68	14756
2026-01-23 04:20:08.63	256.14	8.38	-48.4	-59.8	3.8	7.44e-01	0	43	104	401604608	67	14196
2026-01-23 04:20:09.63	256.06	8.30	-47.5	-58.7	3.8	7.42e-01	0	43	104	401604608	66	13198
2026-01-23 04:20:10.64	255.98	8.22	-50.0	-61.8	3.8	7.43e-01	0	43	104	401604608	70	15036
2026-01-23 04:20:11.65	255.90	8.14	-47.6	-58.8	3.8	7.45e-01	0	43	104	401604608	67	12569
2026-01-23 04:20:12.66	255.82	8.06	-46.9	-57.9	3.8	7.43e-01	0	43	104	401604608	65	12734
2026-01-23 04:20:13.67	255.74	7.98	-46.7	-57.7	3.8	7.45e-01	0	43	104	401604608	65	12424
2026-01-23 04:20:14.68	255.66	7.90	-47.3	-58.6	3.8	7.47e-01	0	43	104	401604608	65	13837
2026-01-23 04:20:15.69	255.59	7.82	-49.1	-60.6	3.8	7.47e-01	0	43	104	401604608	68	14597
2026-01-23 04:20:16.69	255.51	7.75	-48.3	-59.4	3.8	7.44e-01	0	44	104	401604608	66	14229
2026-01-23 04:20:17.70	255.43	7.67	-48.7	-60.1	3.8	7.46e-01	0	43	104	401604608	68	13814
2026-01-23 04:20:18.71	255.36	7.59	-49.7	-61.4	3.8	7.45e-01	0	43	104	401604608	69	15213
2026-01-23 04:20:19.72	255.28	7.51	-47.6	-58.9	3.9	7.43e-01	0	43	104	401604608	67	12767
2026-01-23 04:20:20.73	255.20	7.44	-47.4	-58.7	3.8	7.44e-01	0	43	104	401604608	66	13124
2026-01-23 04:20:21.73	255.13	7.36	-46.9	-58.0	3.9	7.47e-01	0	43	104	401604608	65	12844
2026-01-23 04:20:22.74	255.06	7.28	-47.5	-58.6	3.8	7.46e-01	0	44	104	401604608	65	13867
2026-01-23 04:20:23.75	254.98	7.21	-49.6	-61.3	3.9	7.47e-01	0	43	104	401604608	69	14915
2026-01-23 04:20:24.76	254.91	7.13	-49.5	-61.2	3.8	7.44e-01	0	43	104	401604608	69	14828
2026-01-23 04:20:25.77	254.83	7.05	-47.8	-59.1	3.8	7.44e-01	0	43	104	401604608	67	13025
2026-01-23 04:20:26.77	254.76	6.98	-51.2	-63.7	3.8	7.46e-01	0	43	104	401604608	72	16576
2026-01-23 04:20:27.78	254.69	6.90	-47.4	-58.5	3.8	7.44e-01	0	43	104	401604608	66	12883
2026-01-23 04:20:28.79	254.62	6.83	-47.0	-58.1	3.8	7.47e-01	0	43	104	401604608	65	12968
2026-01-23 04:20:29.80	254.55	6.75	-46.9	-58.0	3.8	7.46e-01	0	43	104	401604608	65	12905
2026-01-23 04:20:30.81	254.48	6.68	-48.4	-59.8	3.8	7.42e-01	0	43	104	401604608	67	14114
2026-01-23 04:20:31.81	254.41	6.60	-50.6	-62.7	3.8	7.48e-01	0	43	104	401604608	71	15625
2026-01-23 04:20:32.82	254.33	6.53	-49.8	-61.9	3.8	7.47e-01	0	43	104	401604608	70	15167
2026-01-23 04:20:33.83	254.26	6.45	-49.4	-61.1	3.8	7.47e-01	0	44	104	401604608	69	14584
2026-01-23 04:20:34.84	254.20	6.38	-50.5	-62.6	3.8	7.47e-01	0	43	104	401604608	71	15509
2026-01-23 04:20:35.85	254.13	6.30	-47.7	-58.9	3.8	7.42e-01	0	43	104	401604608	67	12714
2026-01-23 04:20:36.86	254.06	6.23	-47.5	-58.6	3.8	7.40e-01	0	44	104	401604608	66	13049
2026-01-23 04:20:37.87	253.99	6.16	-47.5	-58.6	3.9	7.40e-01	0	43	104	401604608	66	13024
2026-01-23 04:20:38.87	253.92	6.08	-48.3	-50.3	20.7	6.03e-01	0	43	0	402128896	67	4716
2026-01-23 04:20:39.88	253.85	6.01	-49.5	-51.9	19.4	6.04e-01	0	43	0	403701760	69	5082
2026-01-23 04:20:40.89	253.79	5.94	-50.1	-52.9	18.8	6.06e-01	0	43	0	405798912	70	5350
2026-01-23 04:20:41.90	253.72	5.86	-48.2	-50.1	21.2	6.03e-01	0	43	0	407371776	67	4644
2026-01-23 04:20:42.91	253.65	5.79	-52.1	-56.7	14.6	6.03e-01	0	43	0	409468928	74	6597
2026-01-23 04:20:43.92	253.59	5.72	-46.9	-48.5	22.7	6.03e-01	0	43	0	411566080	65	4316
2026-01-23 04:20:44.93	253.52	5.65	-47.2	-48.9	22.4	6.03e-01	0	43	0	413663232	65	4509
2026-01-23 04:20:45.93	253.46	5.57	-47.2	-48.9	22.2	6.04e-01	0	43	0	415236096	65	4511
2026-01-23 04:20:46.94	253.39	5.50	-47.2	-48.9	22.4	6.02e-01	0	43	0	417333248	65	4520
2026-01-23 04:20:47.95	253.33	5.43	-46.4	-48.0	23.0	6.01e-01	0	43	0	418906112	64	4302
2026-01-23 04:20:48.95	253.26	5.36	-46.8	-48.5	22.7	6.00e-01	0	44	0	421003264	64	4554
2026-01-23 04:20:49.96	253.20	5.29	-46.6	-48.2	22.8	6.04e-01	0	44	0	422576128	64	4403
2026-01-23 04:20:50.97	253.14	5.22	-46.4	-48.0	23.1	6.02e-01	0	43	0	424673280	64	4312
2026-01-23 04:20:51.98	253.07	5.15	-46.7	-48.3	22.7	6.02e-01	0	43	0	426770432	64	4481
2026-01-23 04:20:52.99	253.01	5.07	-46.5	-48.0	22.9	6.02e-01	0	44	0	428343296	64	4333
2026-01-23 04:20:54.00	252.95	5.00	-46.5	-48.0	23.1	6.03e-01	0	43	0	430440448	64	4326
2026-01-23 04:20:55.00	252.89	4.93	-54.3	-70.8	4.2	7.47e-01	0	43	0	432013312	79	25076
2026-01-23 04:20:56.01	252.83	4.86	-54.6	-72.4	3.8	7.48e-01	0	43	104	432013312	79	30314
2026-01-23 04:20:57.02	252.76	4.79	-54.7	-72.5	3.8	7.47e-01	0	43	104	432013312	80	28950
2026-01-23 04:20:58.03	252.70	4.72	-54.8	-72.6	3.8	7.47e-01	0	44	104	432013312	80	29153
2026-01-23 04:20:59.04	252.64	4.65	-54.4	-72.2	3.8	7.44e-01	0	44	104	432013312	80	27985
2026-01-23 04:21:00.04	252.58	4.58	-54.8	-72.6	3.8	7.49e-01	0	43	104	432013312	80	29274
2026-01-23 04:21:01.05	252.52	4.51	-54.9	-72.7	3.8	7.47e-01	0	43	104	432013312	80	29409
2026-01-23 04:21:02.06	252.46	4.45	-54.8	-72.6	3.8	7.45e-01	0	44	104	432013312	80	29343
