passes_logs/2026/01/23/R3.2S_Murmansk/R3.2S_Murmansk__20260123_004204_NOAA_20_JPSS-1_rec.log

#Pass ID: 20260123_004204_NOAA 20 (JPSS-1)
#Satellite: NOAA 20 (JPSS-1)
#Configuration: NOAA 20
#almurnet v.1.7.20251203
#Start time: 2026-01-23 00:42:05

#Version: 2.2.20231116
#Station: R3.2S_Murmansk
#Location: 33.079688 lon 68.888172 lat
#TLE: 1 43013U 17073A   26022.44900781  .00000193  00000+0  11233-3 0  9999
#TLE: 2 43013  98.7645 323.3100 0001197  28.8413 331.2829 14.19538802423792

#Time	Az	El	Level	Level2	SNR	BER	BlckErr	Temp	State	Recorded	gain1	gain2
2026-01-23 00:42:05.71	24.56	2.08	-54.3	-69.3	3.8	1.49e+00	0	42	0	0	79	21077
2026-01-23 00:42:06.71	24.56	2.15	-54.4	-69.5	3.8	1.49e+00	0	42	104	0	79	21570
2026-01-23 00:42:07.72	24.57	2.21	-54.4	-69.4	3.8	1.49e+00	0	42	104	0	79	21501
2026-01-23 00:42:08.73	24.57	2.28	-54.4	-69.4	3.8	1.49e+00	0	42	104	0	79	21486
2026-01-23 00:42:09.74	24.57	2.34	-54.4	-69.4	3.8	1.49e+00	0	42	104	0	79	21466
2026-01-23 00:42:10.75	24.58	2.41	-54.4	-69.4	3.8	1.49e+00	0	42	104	0	79	21486
2026-01-23 00:42:11.75	24.58	2.47	-54.4	-69.4	3.8	1.49e+00	0	42	104	0	79	21307
2026-01-23 00:42:12.76	24.58	2.54	-54.3	-69.3	3.8	1.49e+00	0	42	104	0	79	21151
2026-01-23 00:42:13.77	24.59	2.60	-54.3	-69.3	3.8	1.49e+00	0	42	104	0	79	21104
2026-01-23 00:42:14.78	24.59	2.67	-54.3	-69.3	3.8	1.49e+00	0	42	104	0	79	21065
2026-01-23 00:42:15.79	24.59	2.74	-54.3	-69.3	3.8	1.49e+00	0	42	104	0	79	21090
2026-01-23 00:42:16.80	24.60	2.80	-54.2	-69.2	3.8	1.49e+00	0	42	104	0	79	20880
2026-01-23 00:42:17.81	24.60	2.87	-54.1	-69.2	3.8	1.49e+00	0	42	104	0	79	20834
2026-01-23 00:42:18.81	24.60	2.94	-54.1	-69.1	3.8	1.49e+00	0	42	104	0	79	20560
2026-01-23 00:42:19.82	24.61	3.00	-54.0	-69.0	3.8	1.49e+00	0	42	104	0	79	20450
2026-01-23 00:42:20.83	24.61	3.07	-53.9	-68.9	3.8	1.49e+00	0	42	104	0	79	20170
2026-01-23 00:42:21.84	24.61	3.14	-53.8	-68.8	3.8	1.49e+00	0	42	104	0	79	19926
2026-01-23 00:42:22.85	24.62	3.20	-53.7	-68.7	3.8	1.49e+00	0	42	104	0	79	19627
2026-01-23 00:42:23.85	24.62	3.27	-53.5	-68.5	3.8	1.49e+00	0	42	104	0	79	19246
2026-01-23 00:42:24.86	24.62	3.34	-53.2	-68.2	3.8	1.49e+00	0	42	104	0	78	19722
2026-01-23 00:42:25.87	24.63	3.40	-52.7	-67.7	3.8	1.49e+00	0	42	104	0	77	19780
2026-01-23 00:42:26.88	24.63	3.47	-52.4	-66.3	3.8	1.49e+00	0	42	104	0	76	17844
2026-01-23 00:42:27.89	24.64	3.54	-52.3	-65.1	3.8	1.49e+00	0	43	104	0	76	15439
2026-01-23 00:42:28.90	24.64	3.61	-52.1	-62.8	4.5	1.39e+00	78	42	0	0	76	11909
2026-01-23 00:42:29.91	24.64	3.68	-51.9	-61.1	5.4	7.42e-01	0	43	0	2097152	75	10351
2026-01-23 00:42:30.91	24.64	3.74	-51.6	-59.0	7.1	2.50e-01	0	43	0	4194304	75	8086
2026-01-23 00:42:31.92	24.65	3.81	-51.3	-57.8	8.3	8.61e-02	0	42	0	5242880	74	7489
2026-01-23 00:42:32.93	24.65	3.88	-51.1	-56.9	9.1	3.17e-02	0	42	0	7340032	74	6782
2026-01-23 00:42:33.94	24.65	3.95	-50.5	-55.4	10.8	4.54e-03	0	43	0	9437184	73	6007
2026-01-23 00:42:34.95	24.66	4.02	-50.1	-54.4	11.8	1.33e-03	0	43	0	11534336	72	5669
2026-01-23 00:42:35.95	24.66	4.09	-49.8	-53.6	12.6	3.62e-04	0	42	0	13631488	71	5511
2026-01-23 00:42:36.96	24.66	4.16	-49.5	-52.9	13.4	9.90e-06	0	43	0	14680064	71	5079
2026-01-23 00:42:37.97	24.67	4.23	-49.5	-52.9	13.5	1.14e-05	0	43	0	16777216	70	5363
2026-01-23 00:42:38.98	24.67	4.30	-49.1	-52.2	14.2	7.60e-06	0	43	0	18874368	70	4952
2026-01-23 00:42:39.99	24.67	4.37	-49.0	-52.0	14.3	7.00e-07	0	43	0	20971520	69	5121
2026-01-23 00:42:40.99	24.68	4.44	-49.0	-52.1	14.2	3.00e-06	0	43	0	22020096	69	5168
2026-01-23 00:42:42.00	24.68	4.51	-48.9	-51.9	14.5	0.00e+00	0	43	0	24117248	69	5046
2026-01-23 00:42:43.01	24.68	4.58	-49.1	-52.3	14.1	0.00e+00	0	43	0	26214400	69	5303
2026-01-23 00:42:44.02	24.69	4.65	-49.2	-52.5	13.8	3.80e-06	0	43	0	28311552	69	5421
2026-01-23 00:42:45.03	24.69	4.72	-49.7	-53.4	12.9	1.98e-05	0	43	0	30408704	69	6047
2026-01-23 00:42:46.03	24.69	4.79	-50.1	-54.2	12.1	1.23e-04	0	43	0	32505856	70	6227
2026-01-23 00:42:47.04	24.70	4.86	-50.4	-55.0	11.2	9.02e-04	0	43	0	33554432	71	6446
2026-01-23 00:42:48.05	24.70	4.93	-50.8	-56.1	10.0	3.49e-03	0	43	0	35651584	72	6923
2026-01-23 00:42:49.06	24.70	5.01	-51.2	-57.5	8.5	1.72e-02	0	43	0	37748736	72	8169
2026-01-23 00:42:50.07	24.71	5.08	-51.2	-57.4	8.6	3.78e-02	0	43	0	39845888	73	7614
2026-01-23 00:42:51.07	24.71	5.15	-51.4	-58.3	7.7	5.68e-02	0	43	0	41943040	73	8400
2026-01-23 00:42:52.08	24.71	5.22	-52.1	-62.8	4.5	1.14e-01	0	43	0	42991616	74	13387
2026-01-23 00:42:53.09	24.72	5.29	-48.6	-51.3	15.2	1.22e-01	0	43	0	45088768	69	4706
2026-01-23 00:42:54.10	24.72	5.37	-52.2	-66.9	3.8	1.15e+00	0	43	104	46137344	75	20187
2026-01-23 00:42:55.10	24.72	5.44	-48.8	-51.6	14.8	6.37e-01	0	43	0	46137344	69	4879
2026-01-23 00:42:56.11	24.73	5.51	-48.9	-51.7	14.8	0.00e+00	0	43	0	48234496	69	4953
2026-01-23 00:42:57.12	24.73	5.59	-48.8	-51.6	15.0	0.00e+00	0	43	0	50331648	69	4899
2026-01-23 00:42:58.13	24.73	5.66	-48.8	-51.4	15.2	0.00e+00	0	43	0	51380224	69	4814
2026-01-23 00:42:59.14	24.74	5.73	-48.8	-51.5	15.1	7.00e-07	0	43	0	53477376	69	4848
2026-01-23 00:43:00.15	24.74	5.81	-48.7	-51.3	15.3	0.00e+00	0	43	0	55574528	69	4720
2026-01-23 00:43:01.15	24.74	5.88	-48.5	-51.1	15.6	0.00e+00	0	43	0	57671680	68	4875
2026-01-23 00:43:02.16	24.74	5.95	-48.5	-51.0	15.6	0.00e+00	0	43	0	58720256	68	4859
2026-01-23 00:43:03.17	24.75	6.03	-48.6	-51.1	15.6	0.00e+00	0	43	0	60817408	68	4900
2026-01-23 00:43:04.18	24.75	6.10	-48.4	-50.8	15.9	0.00e+00	0	43	0	62914560	68	4741
2026-01-23 00:43:05.19	24.75	6.18	-48.4	-50.8	15.9	0.00e+00	0	43	0	65011712	68	4725
2026-01-23 00:43:06.19	24.76	6.25	-48.4	-50.8	15.9	0.00e+00	0	43	0	67108864	68	4713
2026-01-23 00:43:07.20	24.76	6.33	-48.4	-50.7	16.0	0.00e+00	0	43	0	68157440	68	4697
2026-01-23 00:43:08.21	24.76	6.40	-48.3	-50.7	16.0	0.00e+00	0	43	0	70254592	68	4652
2026-01-23 00:43:09.22	24.77	6.48	-48.3	-50.7	16.0	0.00e+00	0	43	0	72351744	68	4692
2026-01-23 00:43:10.23	24.77	6.56	-48.3	-50.6	16.1	0.00e+00	0	43	0	74448896	68	4627
2026-01-23 00:43:11.23	24.77	6.63	-48.3	-50.6	16.2	0.00e+00	0	43	0	76546048	68	4629
2026-01-23 00:43:12.24	24.78	6.71	-48.3	-50.6	16.2	0.00e+00	0	43	0	78643200	68	4632
2026-01-23 00:43:13.25	24.78	6.79	-48.2	-50.5	16.3	0.00e+00	0	43	0	79691776	68	4586
2026-01-23 00:43:14.26	24.78	6.86	-48.2	-50.5	16.3	0.00e+00	0	43	0	81788928	68	4548
2026-01-23 00:43:15.27	24.78	6.94	-48.1	-50.4	16.4	0.00e+00	0	43	0	83886080	68	4518
2026-01-23 00:43:16.27	24.79	7.02	-48.0	-50.2	16.7	0.00e+00	0	43	0	85983232	68	4427
2026-01-23 00:43:17.28	24.79	7.09	-48.1	-50.3	16.6	0.00e+00	0	43	0	87031808	68	4459
2026-01-23 00:43:18.29	24.79	7.17	-48.2	-50.4	16.4	0.00e+00	0	44	0	89128960	68	4527
2026-01-23 00:43:19.30	24.80	7.25	-48.1	-50.4	16.5	0.00e+00	0	43	0	91226112	68	4499
2026-01-23 00:43:20.31	24.80	7.33	-48.1	-50.3	16.6	0.00e+00	0	43	0	93323264	68	4469
2026-01-23 00:43:21.31	24.80	7.41	-48.1	-50.3	16.6	0.00e+00	0	43	0	95420416	68	4444
2026-01-23 00:43:22.32	24.81	7.49	-48.1	-50.3	16.6	0.00e+00	0	43	0	97517568	68	4446
2026-01-23 00:43:23.33	24.81	7.57	-48.0	-50.1	16.7	0.00e+00	0	43	0	98566144	67	4635
2026-01-23 00:43:24.34	24.81	7.64	-47.8	-49.9	16.8	0.00e+00	0	43	0	100663296	67	4542
2026-01-23 00:43:25.35	24.81	7.72	-47.9	-50.0	16.9	0.00e+00	0	44	0	102760448	67	4553
2026-01-23 00:43:26.36	24.82	7.80	-47.9	-50.1	16.8	0.00e+00	0	43	0	104857600	67	4600
2026-01-23 00:43:27.37	24.82	7.88	-47.9	-50.0	16.9	0.00e+00	0	43	0	106954752	67	4553
2026-01-23 00:43:28.37	24.82	7.96	-47.8	-49.9	17.0	0.00e+00	0	44	0	108003328	67	4526
2026-01-23 00:43:29.38	24.83	8.04	-47.8	-49.8	17.1	0.00e+00	0	43	0	110100480	67	4488
2026-01-23 00:43:30.39	24.83	8.13	-47.8	-49.9	17.0	0.00e+00	0	43	0	112197632	67	4523
2026-01-23 00:43:31.40	24.83	8.21	-47.9	-50.0	16.9	0.00e+00	0	43	0	114294784	67	4585
2026-01-23 00:43:32.41	24.84	8.29	-47.7	-49.8	17.1	0.00e+00	0	43	0	115343360	67	4455
2026-01-23 00:43:33.42	24.84	8.37	-47.7	-49.7	17.2	0.00e+00	0	43	0	117440512	67	4435
2026-01-23 00:43:34.43	24.84	8.45	-47.7	-49.8	17.2	0.00e+00	0	43	0	119537664	67	4443
2026-01-23 00:43:35.43	24.84	8.53	-47.6	-49.6	17.3	0.00e+00	0	43	0	121634816	67	4372
2026-01-23 00:43:36.44	24.85	8.62	-47.7	-49.7	17.3	0.00e+00	0	43	0	123731968	67	4395
2026-01-23 00:43:37.45	24.85	8.70	-47.6	-49.6	17.4	0.00e+00	0	43	0	125829120	67	4352
2026-01-23 00:43:38.46	24.85	8.78	-47.7	-49.7	17.3	0.00e+00	0	43	0	126877696	67	4406
2026-01-23 00:43:39.47	24.86	8.87	-47.6	-49.5	17.4	0.00e+00	0	44	0	128974848	67	4339
2026-01-23 00:43:40.47	24.86	8.95	-47.6	-49.6	17.4	0.00e+00	0	43	0	131072000	67	4346
2026-01-23 00:43:41.48	24.86	9.03	-47.6	-49.5	17.5	0.00e+00	0	43	0	133169152	67	4318
2026-01-23 00:43:42.49	24.86	9.12	-47.5	-49.4	17.6	0.00e+00	0	44	0	135266304	67	4262
2026-01-23 00:43:43.50	24.87	9.20	-47.4	-49.3	17.6	0.00e+00	0	44	0	136314880	66	4474
2026-01-23 00:43:44.51	24.87	9.29	-47.5	-49.4	17.6	0.00e+00	0	43	0	138412032	66	4494
2026-01-23 00:43:45.51	24.87	9.37	-47.5	-49.4	17.6	0.00e+00	0	44	0	140509184	66	4514
2026-01-23 00:43:46.52	24.87	9.46	-47.5	-49.4	17.6	0.00e+00	0	43	0	142606336	66	4545
2026-01-23 00:43:47.53	24.88	9.54	-47.5	-49.4	17.6	0.00e+00	0	44	0	144703488	66	4541
2026-01-23 00:43:48.53	24.88	9.63	-47.3	-49.1	17.9	0.00e+00	0	44	0	145752064	66	4386
2026-01-23 00:43:49.54	24.88	9.71	-47.3	-49.2	17.8	0.00e+00	0	44	0	147849216	66	4415
2026-01-23 00:43:50.55	24.89	9.80	-47.3	-49.1	17.9	0.00e+00	0	44	0	149946368	66	4358
2026-01-23 00:43:51.56	24.89	9.89	-47.3	-49.2	17.9	0.00e+00	0	44	0	152043520	66	4399
2026-01-23 00:43:52.57	24.89	9.97	-47.3	-49.1	18.0	0.00e+00	0	44	0	154140672	66	4353
2026-01-23 00:43:53.57	24.89	10.06	-47.2	-49.0	18.0	0.00e+00	0	43	0	155189248	66	4327
2026-01-23 00:43:54.58	24.90	10.15	-47.2	-49.0	18.0	0.00e+00	0	44	0	157286400	66	4333
2026-01-23 00:43:55.59	24.90	10.24	-47.2	-49.0	18.0	0.00e+00	0	44	0	159383552	66	4337
2026-01-23 00:43:56.60	24.90	10.32	-47.3	-49.1	18.0	0.00e+00	0	44	0	161480704	66	4343
2026-01-23 00:43:57.61	24.90	10.41	-47.2	-49.0	18.0	0.00e+00	0	44	0	163577856	66	4317
2026-01-23 00:43:58.61	24.91	10.50	-47.1	-48.9	18.2	0.00e+00	0	44	0	164626432	66	4270
2026-01-23 00:43:59.62	24.91	10.59	-47.2	-48.9	18.1	0.00e+00	0	43	0	166723584	66	4276
2026-01-23 00:44:00.63	24.91	10.68	-47.2	-48.9	18.2	0.00e+00	0	44	0	168820736	66	4275
2026-01-23 00:44:01.64	24.92	10.77	-47.2	-48.9	18.2	0.00e+00	0	44	0	170917888	66	4266
2026-01-23 00:44:02.65	24.92	10.86	-47.1	-48.9	18.2	0.00e+00	0	43	0	173015040	66	4265
2026-01-23 00:44:03.65	24.92	10.95	-47.1	-48.9	18.2	0.00e+00	0	44	0	174063616	66	4244
2026-01-23 00:44:04.66	24.92	11.04	-47.1	-48.9	18.3	0.00e+00	0	44	0	176160768	66	4250
2026-01-23 00:44:05.67	24.93	11.13	-47.2	-48.9	18.2	0.00e+00	0	44	0	178257920	66	4285
2026-01-23 00:44:06.68	24.93	11.22	-47.1	-48.9	18.3	0.00e+00	0	44	0	180355072	66	4245
2026-01-23 00:44:07.69	24.93	11.32	-47.2	-49.0	18.2	0.00e+00	0	44	0	182452224	66	4292
2026-01-23 00:44:08.69	24.93	11.41	-47.1	-48.8	18.4	0.00e+00	0	44	0	183500800	66	4198
2026-01-23 00:44:09.70	24.94	11.50	-47.1	-48.8	18.4	0.00e+00	0	44	0	185597952	66	4200
2026-01-23 00:44:10.71	24.94	11.59	-46.9	-48.5	18.6	0.00e+00	0	44	0	187695104	65	4321
2026-01-23 00:44:11.72	24.94	11.69	-46.9	-48.6	18.5	0.00e+00	0	44	0	189792256	65	4359
2026-01-23 00:44:12.73	24.94	11.78	-47.0	-48.6	18.5	0.00e+00	0	44	0	191889408	65	4381
2026-01-23 00:44:13.73	24.95	11.87	-46.9	-48.6	18.6	0.00e+00	0	44	0	192937984	65	4351
2026-01-23 00:44:14.74	24.95	11.97	-46.8	-48.5	18.7	0.00e+00	0	44	0	195035136	65	4304
2026-01-23 00:44:15.75	24.95	12.06	-46.9	-48.5	18.6	0.00e+00	0	44	0	197132288	65	4336
2026-01-23 00:44:16.76	24.95	12.16	-46.9	-48.5	18.6	0.00e+00	0	44	0	199229440	65	4336
2026-01-23 00:44:17.76	24.96	12.25	-46.8	-48.4	18.8	0.00e+00	0	44	0	201326592	65	4261
2026-01-23 00:44:18.77	24.96	12.35	-46.8	-48.4	18.7	0.00e+00	0	44	0	202375168	65	4267
2026-01-23 00:44:19.78	24.96	12.44	-46.8	-48.4	18.8	0.00e+00	0	44	0	204472320	65	4256
2026-01-23 00:44:20.78	24.96	12.54	-46.8	-48.4	18.8	0.00e+00	0	44	0	206569472	65	4253
2026-01-23 00:44:21.79	24.96	12.64	-46.8	-48.5	18.7	0.00e+00	0	44	0	208666624	65	4301
2026-01-23 00:44:22.80	24.97	12.74	-46.7	-48.3	18.9	0.00e+00	0	44	0	210763776	65	4205
2026-01-23 00:44:23.81	24.97	12.83	-46.7	-48.3	18.8	0.00e+00	0	44	0	211812352	65	4224
2026-01-23 00:44:24.82	24.97	12.93	-46.7	-48.3	18.9	0.00e+00	0	44	0	213909504	65	4218
2026-01-23 00:44:25.82	24.97	13.03	-46.6	-48.2	19.0	0.00e+00	0	44	0	216006656	65	4158
2026-01-23 00:44:26.83	24.98	13.13	-46.7	-48.3	18.9	0.00e+00	0	44	0	218103808	65	4211
2026-01-23 00:44:27.84	24.98	13.23	-46.6	-48.2	19.0	0.00e+00	0	44	0	220200960	65	4170
2026-01-23 00:44:28.85	24.98	13.33	-46.6	-48.2	19.0	0.00e+00	0	44	0	221249536	65	4169
2026-01-23 00:44:29.86	24.98	13.43	-46.6	-48.2	19.0	0.00e+00	0	44	0	223346688	65	4166
2026-01-23 00:44:30.87	24.99	13.53	-46.6	-48.1	19.1	0.00e+00	0	44	0	225443840	65	4122
2026-01-23 00:44:31.87	24.99	13.63	-46.6	-48.2	19.1	0.00e+00	0	44	0	227540992	65	4146
2026-01-23 00:44:32.88	24.99	13.73	-46.5	-48.1	19.2	0.00e+00	0	44	0	229638144	65	4102
2026-01-23 00:44:33.89	24.99	13.83	-46.5	-48.0	19.2	0.00e+00	0	44	0	230686720	65	4091
2026-01-23 00:44:34.90	24.99	13.93	-46.5	-48.0	19.2	0.00e+00	0	44	0	232783872	65	4073
2026-01-23 00:44:35.91	25.00	14.04	-46.6	-48.1	19.1	0.00e+00	0	44	0	234881024	64	4363
2026-01-23 00:44:36.91	25.00	14.14	-46.6	-48.1	19.1	0.00e+00	0	44	0	236978176	64	4382
2026-01-23 00:44:37.92	25.00	14.24	-46.4	-47.9	19.3	0.00e+00	0	44	0	239075328	64	4287
2026-01-23 00:44:38.93	25.00	14.35	-46.4	-47.8	19.4	0.00e+00	0	44	0	241172480	64	4237
2026-01-23 00:44:39.94	25.01	14.45	-46.3	-47.8	19.4	0.00e+00	0	44	0	242221056	64	4195
2026-01-23 00:44:40.94	25.01	14.56	-46.3	-47.8	19.5	0.00e+00	0	44	0	244318208	64	4202
2026-01-23 00:44:41.95	25.01	14.66	-46.2	-47.7	19.5	0.00e+00	0	44	0	246415360	64	4171
2026-01-23 00:44:42.96	25.01	14.77	-46.3	-47.7	19.6	0.00e+00	0	44	0	248512512	64	4178
2026-01-23 00:44:43.97	25.01	14.87	-46.3	-47.7	19.5	0.00e+00	0	44	0	249561088	64	4174
2026-01-23 00:44:44.97	25.02	14.98	-46.3	-47.8	19.5	0.00e+00	0	44	0	251658240	64	4204
2026-01-23 00:44:45.98	25.02	15.09	-46.1	-47.6	19.7	0.00e+00	0	44	0	253755392	64	4109
2026-01-23 00:44:46.99	25.02	15.20	-46.1	-47.6	19.7	0.00e+00	0	44	0	255852544	64	4104
2026-01-23 00:44:48.00	25.02	15.30	-46.1	-47.5	19.7	0.00e+00	0	44	0	257949696	64	4097
2026-01-23 00:44:49.01	25.02	15.41	-46.1	-47.6	19.7	0.00e+00	0	44	0	258998272	64	4105
2026-01-23 00:44:50.02	25.03	15.52	-46.1	-47.5	19.7	0.00e+00	0	44	0	261095424	64	4087
2026-01-23 00:44:51.03	25.03	15.63	-46.1	-47.5	19.9	0.00e+00	0	44	0	263192576	63	4319
2026-01-23 00:44:52.03	25.03	15.74	-46.2	-47.6	19.8	0.00e+00	0	44	0	265289728	63	4342
2026-01-23 00:44:53.04	25.03	15.85	-46.2	-47.6	19.7	0.00e+00	0	44	0	267386880	63	4356
2026-01-23 00:44:54.05	25.03	15.96	-46.1	-47.5	19.8	0.00e+00	0	44	0	269484032	63	4322
2026-01-23 00:44:55.06	25.04	16.08	-46.1	-47.5	19.8	0.00e+00	0	44	0	270532608	63	4305
2026-01-23 00:44:56.07	25.04	16.19	-46.1	-47.4	19.9	0.00e+00	0	44	0	272629760	63	4288
2026-01-23 00:44:57.08	25.04	16.30	-46.0	-47.4	19.9	0.00e+00	0	44	0	274726912	63	4260
2026-01-23 00:44:58.09	25.04	16.41	-46.1	-47.4	19.9	0.00e+00	0	44	0	276824064	63	4285
2026-01-23 00:44:59.09	25.04	16.53	-46.0	-47.4	20.0	0.00e+00	0	44	0	277872640	63	4263
2026-01-23 00:45:00.10	25.04	16.64	-45.9	-47.2	20.2	0.00e+00	0	44	0	279969792	63	4186
2026-01-23 00:45:01.11	25.05	16.76	-45.9	-47.2	20.1	0.00e+00	0	44	0	282066944	63	4191
2026-01-23 00:45:02.11	25.05	16.87	-45.8	-47.2	20.2	0.00e+00	0	44	0	284164096	63	4150
2026-01-23 00:45:03.12	25.05	16.99	-45.9	-47.3	20.1	0.00e+00	0	44	0	286261248	63	4197
2026-01-23 00:45:04.13	25.05	17.10	-45.8	-47.2	20.2	0.00e+00	0	44	0	288358400	63	4162
2026-01-23 00:45:05.14	25.05	17.22	-45.8	-47.1	20.3	0.00e+00	0	44	0	289406976	63	4114
2026-01-23 00:45:06.15	25.05	17.34	-45.8	-47.1	20.2	0.00e+00	0	44	0	291504128	63	4143
2026-01-23 00:45:07.15	25.06	17.46	-45.7	-47.1	20.4	0.00e+00	0	44	0	293601280	63	4099
2026-01-23 00:45:08.16	25.06	17.58	-45.8	-47.2	20.2	0.00e+00	0	44	0	295698432	63	4154
2026-01-23 00:45:09.17	25.06	17.69	-45.7	-47.1	20.3	0.00e+00	0	44	0	297795584	63	4099
2026-01-23 00:45:10.17	25.06	17.81	-45.6	-46.9	20.4	0.00e+00	0	44	0	298844160	63	4049
2026-01-23 00:45:11.18	25.06	17.93	-45.6	-46.9	20.4	0.00e+00	0	44	0	300941312	63	4044
2026-01-23 00:45:12.19	25.06	18.06	-45.6	-46.9	20.4	0.00e+00	0	44	0	303038464	63	4045
2026-01-23 00:45:13.20	25.07	18.18	-45.6	-46.9	20.5	0.00e+00	0	44	0	305135616	63	4014
2026-01-23 00:45:14.21	25.07	18.30	-45.7	-47.0	20.5	0.00e+00	0	44	0	306184192	63	4062
2026-01-23 00:45:15.21	25.07	18.42	-45.7	-47.0	20.5	0.00e+00	0	44	0	308281344	63	4052
2026-01-23 00:45:16.22	25.07	18.55	-45.6	-46.8	20.6	0.00e+00	0	44	0	310378496	63	4003
2026-01-23 00:45:17.23	25.07	18.67	-45.5	-46.7	20.7	0.00e+00	0	44	0	312475648	63	3955
2026-01-23 00:45:18.24	25.07	18.79	-45.5	-46.7	20.7	0.00e+00	0	44	0	314572800	62	4175
2026-01-23 00:45:19.25	25.07	18.92	-45.5	-46.7	20.7	0.00e+00	0	44	0	316669952	62	4189
2026-01-23 00:45:20.25	25.08	19.05	-45.4	-46.7	20.7	0.00e+00	0	44	0	317718528	62	4166
2026-01-23 00:45:21.26	25.08	19.17	-45.4	-46.7	20.7	0.00e+00	0	44	0	319815680	62	4154
2026-01-23 00:45:22.27	25.08	19.30	-45.4	-46.7	20.7	0.00e+00	0	44	0	321912832	62	4172
2026-01-23 00:45:23.28	25.08	19.43	-45.4	-46.7	20.7	0.00e+00	0	44	0	324009984	62	4176
2026-01-23 00:45:24.28	25.08	19.56	-45.4	-46.6	20.8	0.00e+00	0	44	0	326107136	62	4132
2026-01-23 00:45:25.29	25.08	19.69	-45.3	-46.5	20.9	0.00e+00	0	44	0	327155712	62	4087
2026-01-23 00:45:26.30	25.08	19.82	-45.3	-46.6	20.8	0.00e+00	0	44	0	329252864	62	4115
2026-01-23 00:45:27.31	25.08	19.95	-45.4	-46.6	20.8	0.00e+00	0	44	0	331350016	62	4129
2026-01-23 00:45:28.32	25.09	20.08	-45.4	-46.6	20.8	0.00e+00	0	44	0	333447168	62	4136
2026-01-23 00:45:29.32	25.09	20.21	-45.3	-46.6	20.8	0.00e+00	0	44	0	335544320	62	4113
2026-01-23 00:45:30.33	25.09	20.34	-45.5	-46.8	20.6	0.00e+00	0	44	0	336592896	62	4223
2026-01-23 00:45:31.34	25.09	20.48	-45.3	-46.6	20.9	0.00e+00	0	44	0	338690048	62	4107
2026-01-23 00:45:32.35	25.09	20.61	-45.5	-46.8	20.7	0.00e+00	0	44	0	340787200	62	4199
2026-01-23 00:45:33.36	25.09	20.75	-45.4	-46.6	20.8	0.00e+00	0	44	0	342884352	62	4125
2026-01-23 00:45:34.37	25.09	20.88	-45.4	-46.7	20.8	0.00e+00	0	44	0	344981504	62	4156
2026-01-23 00:45:35.37	25.09	21.02	-45.3	-46.5	20.9	0.00e+00	0	44	0	346030080	62	4078
2026-01-23 00:45:36.38	25.09	21.15	-45.2	-46.4	21.1	0.00e+00	0	44	0	348127232	62	4021
2026-01-23 00:45:37.39	25.09	21.29	-45.3	-46.5	21.0	0.00e+00	0	44	0	350224384	62	4075
2026-01-23 00:45:38.40	25.10	21.43	-45.3	-46.5	21.0	0.00e+00	0	44	0	352321536	62	4068
2026-01-23 00:45:39.40	25.10	21.57	-45.2	-46.4	21.0	0.00e+00	0	44	0	354418688	62	4033
2026-01-23 00:45:40.42	25.10	21.71	-45.2	-46.4	21.1	0.00e+00	0	44	0	356515840	62	4022
2026-01-23 00:45:41.42	25.10	21.85	-45.2	-46.5	21.0	0.00e+00	0	44	0	357564416	62	4056
2026-01-23 00:45:42.43	25.10	21.99	-45.1	-46.3	21.1	0.00e+00	0	44	0	359661568	62	3998
2026-01-23 00:45:43.44	25.10	22.14	-45.2	-46.4	21.1	0.00e+00	0	44	0	361758720	62	4031
2026-01-23 00:45:44.45	25.10	22.28	-45.2	-46.4	21.1	0.00e+00	0	44	0	363855872	62	4034
2026-01-23 00:45:45.46	25.10	22.42	-45.3	-46.5	21.0	0.00e+00	0	44	0	364904448	62	4081
2026-01-23 00:45:46.47	25.10	22.57	-45.2	-46.4	21.1	0.00e+00	0	44	0	367001600	62	4045
2026-01-23 00:45:47.47	25.10	22.71	-45.1	-46.3	21.2	0.00e+00	0	44	0	369098752	62	3964
2026-01-23 00:45:48.48	25.10	22.86	-45.2	-46.4	21.1	0.00e+00	0	44	0	371195904	62	4027
2026-01-23 00:45:49.49	25.10	23.01	-45.2	-46.4	21.0	0.00e+00	0	44	0	373293056	62	4044
2026-01-23 00:45:50.50	25.10	23.16	-45.2	-46.4	21.2	0.00e+00	0	43	0	374341632	62	4008
2026-01-23 00:45:51.51	25.10	23.31	-45.2	-46.4	21.1	0.00e+00	0	44	0	376438784	62	4037
2026-01-23 00:45:52.51	25.10	23.45	-45.2	-46.4	21.1	0.00e+00	0	44	0	378535936	62	4015
2026-01-23 00:45:53.52	25.10	23.61	-45.2	-46.4	21.1	0.00e+00	0	44	0	380633088	62	4036
2026-01-23 00:45:54.53	25.11	23.76	-45.2	-46.4	21.1	0.00e+00	0	44	0	382730240	62	4024
2026-01-23 00:45:55.54	25.11	23.91	-45.2	-46.4	21.2	0.00e+00	0	44	0	384827392	62	4009
2026-01-23 00:45:56.54	25.11	24.06	-45.3	-46.5	21.1	0.00e+00	0	44	0	385875968	62	4055
2026-01-23 00:45:57.55	25.11	24.22	-45.3	-46.5	21.1	0.00e+00	0	44	0	387973120	62	4055
2026-01-23 00:45:58.56	25.11	24.37	-45.3	-46.5	21.0	0.00e+00	0	44	0	390070272	62	4092
2026-01-23 00:45:59.56	25.11	24.53	-45.3	-46.5	21.1	0.00e+00	0	44	0	392167424	62	4085
2026-01-23 00:46:00.57	25.11	24.69	-45.3	-46.5	20.9	0.00e+00	0	44	0	393216000	62	4078
2026-01-23 00:46:01.58	25.11	24.84	-45.4	-46.7	20.9	0.00e+00	0	44	0	395313152	62	4160
2026-01-23 00:46:02.59	25.11	25.00	-45.4	-46.7	20.9	0.00e+00	0	44	0	397410304	62	4163
2026-01-23 00:46:03.60	25.11	25.16	-45.5	-46.7	20.8	0.00e+00	0	44	0	399507456	62	4182
2026-01-23 00:46:04.61	25.11	25.33	-45.6	-46.8	20.8	0.00e+00	0	44	0	401604608	62	4218
2026-01-23 00:46:05.62	25.11	25.49	-45.7	-46.9	20.6	0.00e+00	0	44	0	403701760	62	4282
2026-01-23 00:46:06.62	25.11	25.65	-45.7	-46.9	20.7	0.00e+00	0	44	0	404750336	62	4268
2026-01-23 00:46:07.63	25.11	25.81	-45.8	-47.1	20.4	0.00e+00	0	44	0	406847488	62	4370
2026-01-23 00:46:08.64	25.11	25.98	-45.8	-47.1	20.5	0.00e+00	0	44	0	408944640	62	4387
2026-01-23 00:46:09.65	25.11	26.15	-45.9	-47.2	20.4	0.00e+00	0	44	0	411041792	62	4403
2026-01-23 00:46:10.65	25.11	26.31	-46.0	-47.3	20.3	0.00e+00	0	44	0	413138944	62	4461
2026-01-23 00:46:11.66	25.10	26.48	-46.0	-47.3	20.2	0.00e+00	0	44	0	414187520	62	4493
2026-01-23 00:46:12.67	25.10	26.65	-46.2	-47.6	20.1	0.00e+00	0	44	0	416284672	62	4599
2026-01-23 00:46:13.67	25.10	26.82	-46.3	-47.7	19.9	0.00e+00	0	44	0	418381824	63	4428
2026-01-23 00:46:14.68	25.10	26.99	-46.4	-47.9	19.8	0.00e+00	0	44	0	420478976	63	4496
2026-01-23 00:46:15.69	25.10	27.16	-46.6	-48.0	19.7	0.00e+00	0	44	0	421527552	63	4566
2026-01-23 00:46:16.69	25.10	27.34	-46.6	-48.1	19.5	0.00e+00	0	44	0	423624704	64	4371
2026-01-23 00:46:17.70	25.10	27.51	-46.7	-48.2	19.3	0.00e+00	0	44	0	425721856	64	4438
2026-01-23 00:46:18.70	25.10	27.69	-46.9	-48.4	19.2	0.00e+00	0	44	0	427819008	64	4530
2026-01-23 00:46:19.71	25.10	27.86	-47.2	-48.8	18.8	0.00e+00	0	44	0	429916160	64	4706
2026-01-23 00:46:20.72	25.10	28.04	-47.3	-48.9	18.7	0.00e+00	0	44	0	432013312	65	4541
2026-01-23 00:46:21.73	25.10	28.22	-47.5	-49.2	18.4	0.00e+00	0	44	0	433061888	65	4700
2026-01-23 00:46:22.74	25.10	28.40	-47.6	-49.4	18.3	0.00e+00	0	44	0	435159040	65	4762
2026-01-23 00:46:23.75	25.10	28.58	-47.8	-49.5	18.2	0.00e+00	0	44	0	437256192	66	4589
2026-01-23 00:46:24.76	25.09	28.77	-48.0	-49.9	17.8	0.00e+00	0	44	0	439353344	66	4768
2026-01-23 00:46:25.77	25.09	28.95	-48.0	-49.9	17.8	0.00e+00	0	44	0	441450496	66	4762
2026-01-23 00:46:26.77	25.09	29.14	-48.1	-50.0	17.7	0.00e+00	0	44	0	442499072	66	4845
2026-01-23 00:46:27.78	25.09	29.32	-48.3	-50.3	17.4	0.00e+00	0	44	0	444596224	67	4725
2026-01-23 00:46:28.79	25.09	29.51	-48.4	-50.4	17.3	0.00e+00	0	44	0	446693376	67	4771
2026-01-23 00:46:29.80	25.09	29.70	-48.5	-50.6	17.2	0.00e+00	0	44	0	448790528	67	4874
2026-01-23 00:46:30.75	25.09	29.88	-48.6	-50.7	17.0	0.00e+00	0	44	0	449839104	67	4959
2026-01-23 00:46:31.76	25.09	30.07	-48.5	-50.6	17.1	0.00e+00	0	44	0	451936256	67	4885
2026-01-23 00:46:32.77	25.08	30.26	-48.6	-50.7	17.0	0.00e+00	0	44	0	454033408	67	4949
2026-01-23 00:46:33.77	25.08	30.46	-48.6	-50.6	17.2	0.00e+00	0	44	0	456130560	67	4905
2026-01-23 00:46:34.78	25.08	30.65	-48.4	-50.4	17.2	0.00e+00	0	44	0	458227712	67	4774
2026-01-23 00:46:35.79	25.08	30.85	-48.4	-50.4	17.2	0.00e+00	0	44	0	460324864	67	4810
2026-01-23 00:46:36.79	25.08	31.05	-48.5	-50.5	17.1	0.00e+00	0	44	0	461373440	67	4867
2026-01-23 00:46:37.81	25.07	31.25	-48.4	-50.4	17.3	0.00e+00	0	44	0	463470592	67	4775
2026-01-23 00:46:38.81	25.07	31.45	-48.3	-50.2	17.5	0.00e+00	0	44	0	465567744	67	4683
2026-01-23 00:46:39.82	25.07	31.65	-48.2	-50.1	17.5	0.00e+00	0	44	0	467664896	67	4650
2026-01-23 00:46:40.83	25.07	31.85	-48.3	-50.2	17.6	0.00e+00	0	44	0	469762048	67	4660
2026-01-23 00:46:41.84	25.07	32.06	-48.0	-49.9	17.9	0.00e+00	0	44	0	470810624	67	4503
2026-01-23 00:46:42.85	25.06	32.27	-47.9	-49.6	18.0	0.00e+00	0	44	0	472907776	67	4373
2026-01-23 00:46:43.85	25.06	32.47	-47.9	-49.6	18.1	0.00e+00	0	44	0	475004928	67	4382
2026-01-23 00:46:44.86	25.06	32.68	-47.8	-49.6	18.1	0.00e+00	0	44	0	477102080	67	4346
2026-01-23 00:46:45.87	25.06	32.89	-47.6	-49.3	18.5	0.00e+00	0	44	0	479199232	67	4204
2026-01-23 00:46:46.88	25.05	33.11	-47.5	-49.2	18.5	0.00e+00	0	44	0	480247808	66	4411
2026-01-23 00:46:47.88	25.05	33.32	-47.3	-48.9	18.9	0.00e+00	0	44	0	482344960	66	4255
2026-01-23 00:46:48.89	25.05	33.53	-47.0	-48.5	19.2	0.00e+00	0	44	0	484442112	66	4083
2026-01-23 00:46:49.90	25.05	33.75	-46.9	-48.3	19.4	0.00e+00	0	44	0	486539264	65	4238
2026-01-23 00:46:50.91	25.04	33.97	-46.6	-48.0	19.7	0.00e+00	0	44	0	488636416	65	4063
2026-01-23 00:46:51.91	25.04	34.19	-46.0	-47.3	20.3	0.00e+00	0	44	0	489684992	64	3989
2026-01-23 00:46:52.92	25.04	34.41	-45.9	-47.2	20.6	0.00e+00	0	44	0	491782144	63	4163
2026-01-23 00:46:53.93	25.03	34.63	-45.8	-47.0	20.7	0.00e+00	0	44	0	493879296	63	4072
2026-01-23 00:46:54.94	25.03	34.86	-45.4	-46.5	21.2	0.00e+00	0	44	0	495976448	62	4093
2026-01-23 00:46:55.95	25.03	35.08	-45.1	-46.3	21.4	0.00e+00	0	44	0	498073600	62	3976
2026-01-23 00:46:56.95	25.02	35.31	-45.0	-46.1	21.6	0.00e+00	0	44	0	499122176	62	3905
2026-01-23 00:46:57.96	25.02	35.54	-44.8	-45.9	21.8	0.00e+00	0	44	0	501219328	61	4030
2026-01-23 00:46:58.97	25.01	35.77	-44.9	-46.0	21.6	0.00e+00	0	44	0	503316480	61	4083
2026-01-23 00:46:59.98	25.01	36.01	-44.7	-45.8	21.9	0.00e+00	0	44	0	505413632	61	3986
2026-01-23 00:47:00.98	25.01	36.24	-44.8	-45.9	21.8	0.00e+00	0	44	0	507510784	61	4033
2026-01-23 00:47:01.99	25.00	36.48	-44.8	-45.9	21.8	0.00e+00	0	44	0	508559360	61	4024
2026-01-23 00:47:03.00	25.00	36.71	-44.9	-46.0	21.6	0.00e+00	0	44	0	510656512	61	4095
2026-01-23 00:47:04.01	24.99	36.95	-44.7	-45.8	21.8	0.00e+00	0	44	0	512753664	61	4002
2026-01-23 00:47:05.01	24.99	37.19	-44.7	-45.8	21.8	0.00e+00	0	44	0	514850816	61	4003
2026-01-23 00:47:06.02	24.98	37.44	-44.7	-45.8	21.9	0.00e+00	0	44	0	516947968	61	3993
2026-01-23 00:47:07.03	24.98	37.68	-44.8	-45.9	21.8	0.00e+00	0	44	0	517996544	61	4031
2026-01-23 00:47:08.04	24.97	37.93	-44.9	-46.0	21.7	0.00e+00	0	44	0	520093696	61	4077
2026-01-23 00:47:09.04	24.97	38.18	-44.7	-45.8	21.9	0.00e+00	0	44	0	522190848	61	3997
2026-01-23 00:47:10.05	24.96	38.43	-44.6	-45.7	22.0	0.00e+00	0	44	0	524288000	61	3939
2026-01-23 00:47:11.05	24.96	38.68	-44.7	-45.8	22.0	0.00e+00	0	44	0	526385152	61	3959
2026-01-23 00:47:12.06	24.95	38.93	-44.6	-45.7	22.0	0.00e+00	0	44	0	527433728	61	3949
2026-01-23 00:47:13.07	24.95	39.19	-44.6	-45.7	22.0	0.00e+00	0	44	0	529530880	61	3950
2026-01-23 00:47:14.08	24.94	39.45	-44.6	-45.7	22.0	0.00e+00	0	44	0	531628032	61	3925
2026-01-23 00:47:15.08	24.93	39.71	-44.6	-45.6	22.1	0.00e+00	0	44	0	533725184	61	3904
2026-01-23 00:47:16.09	24.93	39.97	-44.5	-45.5	22.2	0.00e+00	0	44	0	535822336	60	4075
2026-01-23 00:47:17.10	24.92	40.24	-44.4	-45.5	22.2	0.00e+00	0	44	0	536870912	60	4061
2026-01-23 00:47:18.11	24.92	40.50	-44.3	-45.4	22.3	0.00e+00	0	44	0	538968064	60	4007
2026-01-23 00:47:19.12	24.91	40.77	-44.3	-45.3	22.4	0.00e+00	0	44	0	541065216	60	3987
2026-01-23 00:47:20.13	24.90	41.04	-44.2	-45.2	22.5	0.00e+00	0	44	0	543162368	60	3924
2026-01-23 00:47:21.13	24.89	41.31	-44.2	-45.2	22.5	0.00e+00	0	44	0	545259520	60	3944
2026-01-23 00:47:22.14	24.89	41.59	-44.3	-45.3	22.4	0.00e+00	0	44	0	546308096	60	3990
2026-01-23 00:47:23.15	24.88	41.86	-44.3	-45.4	22.4	0.00e+00	0	44	0	548405248	60	4006
2026-01-23 00:47:24.15	24.87	42.14	-44.2	-45.2	22.5	0.00e+00	0	44	0	550502400	60	3952
2026-01-23 00:47:25.16	24.86	42.42	-44.2	-45.2	22.5	0.00e+00	0	44	0	552599552	60	3943
2026-01-23 00:47:26.17	24.86	42.70	-44.3	-45.3	22.4	0.00e+00	0	44	0	554696704	60	3992
2026-01-23 00:47:27.18	24.85	42.99	-44.2	-45.2	22.5	0.00e+00	0	44	0	555745280	60	3942
2026-01-23 00:47:28.19	24.84	43.28	-44.4	-45.5	22.3	0.00e+00	0	44	0	557842432	60	4070
2026-01-23 00:47:29.19	24.83	43.56	-44.7	-45.8	22.0	0.00e+00	0	44	0	559939584	60	4206
2026-01-23 00:47:30.20	24.82	43.86	-45.1	-46.2	21.6	0.00e+00	0	44	0	562036736	60	4429
2026-01-23 00:47:31.21	24.81	44.15	-45.7	-47.0	20.9	0.00e+00	0	44	0	564133888	62	4297
2026-01-23 00:47:32.22	24.80	44.45	-46.6	-48.1	19.9	0.00e+00	0	44	0	565182464	63	4599
2026-01-23 00:47:33.23	24.79	44.74	-46.9	-48.4	19.5	0.00e+00	0	44	0	567279616	64	4534
2026-01-23 00:47:34.23	24.78	45.04	-47.3	-48.8	19.0	0.00e+00	0	44	0	569376768	65	4488
2026-01-23 00:47:35.24	24.77	45.35	-47.5	-49.2	18.7	0.00e+00	0	44	0	571473920	65	4653
2026-01-23 00:47:36.25	24.76	45.65	-47.7	-49.4	18.6	0.00e+00	0	44	0	573571072	66	4494
2026-01-23 00:47:37.25	24.75	45.96	-47.5	-49.1	18.8	0.00e+00	0	44	0	574619648	66	4381
2026-01-23 00:47:38.26	24.74	46.27	-47.4	-49.0	18.9	0.00e+00	0	44	0	576716800	66	4306
2026-01-23 00:47:39.27	24.73	46.58	-47.2	-48.8	19.1	0.00e+00	0	44	0	578813952	66	4199
2026-01-23 00:47:40.28	24.72	46.89	-47.0	-48.4	19.4	0.00e+00	0	44	0	580911104	66	4045
2026-01-23 00:47:41.29	24.70	47.21	-47.1	-48.6	19.3	0.00e+00	0	44	0	583008256	66	4112
2026-01-23 00:47:42.30	24.69	47.53	-46.9	-48.4	19.4	0.00e+00	0	44	0	585105408	65	4260
2026-01-23 00:47:43.31	24.68	47.85	-47.0	-48.5	19.4	0.00e+00	0	44	0	586153984	65	4292
2026-01-23 00:47:44.31	24.67	48.17	-46.9	-48.4	19.5	0.00e+00	0	44	0	588251136	65	4270
2026-01-23 00:47:45.32	24.65	48.50	-46.9	-48.4	19.5	0.00e+00	0	44	0	590348288	65	4263
2026-01-23 00:47:46.33	24.64	48.83	-47.1	-48.6	19.3	0.00e+00	0	44	0	592445440	65	4366
2026-01-23 00:47:47.34	24.62	49.16	-47.1	-48.7	19.3	0.00e+00	0	44	0	593494016	65	4397
2026-01-23 00:47:48.35	24.61	49.50	-47.2	-48.7	19.2	0.00e+00	0	44	0	595591168	65	4415
2026-01-23 00:47:49.35	24.60	49.83	-47.3	-48.9	19.0	0.00e+00	0	44	0	597688320	65	4521
2026-01-23 00:47:50.36	24.58	50.17	-47.2	-48.8	19.2	0.00e+00	0	44	0	599785472	65	4444
2026-01-23 00:47:51.37	24.56	50.51	-47.1	-48.6	19.2	0.00e+00	0	44	0	601882624	65	4389
2026-01-23 00:47:52.38	24.55	50.86	-46.5	-47.9	19.9	0.00e+00	0	44	0	603979776	65	4036
2026-01-23 00:47:53.38	24.53	51.20	-46.1	-47.4	20.5	0.00e+00	0	44	0	605028352	64	4018
2026-01-23 00:47:54.39	24.51	51.55	-45.3	-46.4	21.4	0.00e+00	0	44	0	607125504	62	4037
2026-01-23 00:47:55.40	24.50	51.90	-44.7	-45.8	22.0	0.00e+00	0	44	0	609222656	61	3982
2026-01-23 00:47:56.41	24.48	52.26	-44.3	-45.3	22.4	0.00e+00	0	44	0	611319808	60	4000
2026-01-23 00:47:57.41	24.46	52.61	-44.0	-45.0	22.7	0.00e+00	0	44	0	613416960	60	3860
2026-01-23 00:47:58.42	24.44	52.97	-44.2	-45.3	22.8	0.00e+00	0	44	0	614465536	59	4199
2026-01-23 00:47:59.43	24.42	53.33	-43.9	-44.8	23.2	0.00e+00	0	44	0	616562688	59	3999
2026-01-23 00:48:00.44	24.40	53.70	-43.9	-44.9	23.1	0.00e+00	0	44	0	618659840	59	4026
2026-01-23 00:48:01.45	24.38	54.07	-43.6	-44.5	23.5	0.00e+00	0	44	0	620756992	59	3858
2026-01-23 00:48:02.45	24.35	54.43	-43.6	-44.5	23.5	0.00e+00	0	44	0	621805568	58	4089
2026-01-23 00:48:03.46	24.33	54.81	-43.6	-44.5	23.4	0.00e+00	0	44	0	623902720	58	4098
2026-01-23 00:48:04.47	24.31	55.18	-44.2	-45.2	22.9	0.00e+00	0	44	0	625999872	58	4409
2026-01-23 00:48:05.48	24.28	55.56	-44.5	-45.5	22.3	0.00e+00	0	44	0	628097024	60	4073
2026-01-23 00:48:06.48	24.26	55.94	-45.2	-46.5	21.5	0.00e+00	0	44	0	630194176	61	4297
2026-01-23 00:48:07.49	24.23	56.32	-46.1	-47.3	20.7	0.00e+00	0	44	0	632291328	62	4478
2026-01-23 00:48:08.50	24.21	56.71	-46.7	-48.1	19.8	0.00e+00	0	44	0	633339904	64	4379
2026-01-23 00:48:09.50	24.18	57.10	-47.0	-48.5	19.4	0.00e+00	0	44	0	635437056	64	4585
2026-01-23 00:48:10.51	24.15	57.49	-46.9	-48.4	19.5	0.00e+00	0	44	0	637534208	65	4257
2026-01-23 00:48:11.52	24.12	57.88	-46.6	-48.0	19.9	0.00e+00	0	44	0	639631360	65	4085
2026-01-23 00:48:12.53	24.09	58.28	-46.4	-47.7	20.2	0.00e+00	0	44	0	641728512	64	4174
2026-01-23 00:48:13.54	24.06	58.68	-46.3	-47.7	20.2	0.00e+00	0	44	0	642777088	64	4155
2026-01-23 00:48:14.55	24.03	59.08	-46.2	-47.5	20.4	0.00e+00	0	44	0	644874240	64	4059
2026-01-23 00:48:15.55	24.00	59.48	-45.9	-47.1	20.9	0.00e+00	0	44	0	646971392	63	4126
2026-01-23 00:48:16.56	23.96	59.89	-45.4	-46.6	21.4	0.00e+00	0	44	0	649068544	62	4115
2026-01-23 00:48:17.57	23.92	60.30	-44.9	-46.0	21.8	0.00e+00	0	44	0	651165696	61	4089
2026-01-23 00:48:18.57	23.89	60.71	-44.6	-45.7	22.2	0.00e+00	0	44	0	652214272	61	3928
2026-01-23 00:48:19.58	23.85	61.13	-44.5	-45.5	22.3	0.00e+00	0	44	0	654311424	60	4091
2026-01-23 00:48:20.59	23.81	61.55	-44.5	-45.6	22.3	0.00e+00	0	44	0	656408576	60	4102
2026-01-23 00:48:21.60	23.77	61.97	-44.4	-45.5	22.4	0.00e+00	0	44	0	658505728	60	4056
2026-01-23 00:48:22.60	23.72	62.39	-44.3	-45.3	22.8	0.00e+00	0	44	0	660602880	59	4232
2026-01-23 00:48:23.61	23.68	62.81	-44.0	-44.9	23.2	0.00e+00	0	44	0	661651456	59	4040
2026-01-23 00:48:24.62	23.63	63.24	-43.6	-44.5	23.5	0.00e+00	0	44	0	663748608	59	3861
2026-01-23 00:48:25.63	23.58	63.67	-43.5	-44.5	23.5	0.00e+00	0	44	0	665845760	59	3830
2026-01-23 00:48:26.64	23.53	64.11	-43.9	-44.8	23.2	0.00e+00	0	44	0	667942912	59	4003
2026-01-23 00:48:27.64	23.48	64.54	-44.4	-45.4	22.8	0.00e+00	0	44	0	670040064	59	4273
2026-01-23 00:48:28.65	23.43	64.98	-45.1	-46.2	21.7	0.00e+00	0	44	0	671088640	60	4440
2026-01-23 00:48:29.66	23.37	65.42	-46.2	-47.4	20.6	0.00e+00	0	44	0	673185792	62	4541
2026-01-23 00:48:30.67	23.31	65.87	-46.5	-47.9	20.0	0.00e+00	0	44	0	675282944	64	4278
2026-01-23 00:48:31.68	23.25	66.31	-46.7	-48.2	19.8	0.00e+00	0	44	0	677380096	64	4397
2026-01-23 00:48:32.69	23.18	66.76	-46.6	-47.9	20.0	0.00e+00	0	44	0	679477248	64	4280
2026-01-23 00:48:33.69	23.12	67.21	-46.2	-47.5	20.5	0.00e+00	0	44	0	680525824	64	4060
2026-01-23 00:48:34.70	23.04	67.67	-46.3	-47.6	20.4	0.00e+00	0	44	0	682622976	64	4105
2026-01-23 00:48:35.71	22.97	68.12	-46.6	-47.9	20.0	0.00e+00	0	44	0	684720128	64	4290
2026-01-23 00:48:36.72	22.89	68.58	-46.8	-48.2	19.7	0.00e+00	0	44	0	686817280	64	4424
2026-01-23 00:48:37.73	22.81	69.04	-47.3	-48.8	19.2	0.00e+00	0	44	0	688914432	65	4471
2026-01-23 00:48:38.74	22.72	69.51	-47.5	-49.1	18.9	0.00e+00	0	44	0	689963008	65	4607
2026-01-23 00:48:39.74	22.63	69.97	-47.6	-49.3	18.8	0.00e+00	0	44	0	692060160	66	4443
2026-01-23 00:48:40.75	22.54	70.44	-47.7	-49.3	18.8	0.00e+00	0	44	0	694157312	66	4483
2026-01-23 00:48:41.76	22.44	70.91	-47.8	-49.6	18.5	0.00e+00	0	44	0	696254464	66	4602
2026-01-23 00:48:42.77	22.33	71.38	-47.8	-49.5	18.7	0.00e+00	0	44	0	698351616	66	4563
2026-01-23 00:48:43.78	22.22	71.85	-47.5	-49.1	18.9	0.00e+00	0	44	0	699400192	66	4388
2026-01-23 00:48:44.79	22.10	72.33	-47.7	-49.4	18.7	0.00e+00	0	44	0	701497344	66	4502
2026-01-23 00:48:45.79	21.97	72.80	-48.1	-49.8	18.2	0.00e+00	0	44	0	703594496	67	4480
2026-01-23 00:48:46.80	21.84	73.28	-48.0	-49.7	18.4	0.00e+00	0	44	0	705691648	67	4423
2026-01-23 00:48:47.81	21.69	73.77	-47.9	-49.5	18.6	0.00e+00	0	44	0	707788800	67	4329
2026-01-23 00:48:48.82	21.54	74.25	-48.1	-49.8	18.3	0.00e+00	0	44	0	708837376	67	4491
2026-01-23 00:48:49.82	21.38	74.73	-48.8	-50.8	17.3	0.00e+00	0	44	0	710934528	68	4728
2026-01-23 00:48:50.83	21.21	75.22	-48.7	-50.6	17.6	0.00e+00	0	44	0	713031680	68	4610
2026-01-23 00:48:51.84	21.02	75.71	-49.1	-51.1	17.1	0.00e+00	0	44	0	715128832	68	4919
2026-01-23 00:48:52.85	20.82	76.20	-49.3	-51.5	16.7	0.00e+00	0	44	0	717225984	69	4860
2026-01-23 00:48:53.86	20.60	76.69	-49.0	-51.0	17.2	0.00e+00	0	44	0	719323136	69	4564
2026-01-23 00:48:54.86	20.37	77.18	-49.0	-51.0	17.1	0.00e+00	0	44	0	720371712	69	4585
2026-01-23 00:48:55.87	20.11	77.68	-49.3	-51.4	16.8	0.00e+00	0	44	0	722468864	69	4788
2026-01-23 00:48:56.88	19.84	78.17	-49.2	-51.3	16.8	0.00e+00	0	44	0	724566016	69	4722
2026-01-23 00:48:57.88	19.54	78.67	-48.6	-50.4	17.7	0.00e+00	0	44	0	726663168	68	4545
2026-01-23 00:48:58.89	19.21	79.16	-47.3	-48.8	19.2	0.00e+00	0	44	0	727711744	66	4230
2026-01-23 00:48:59.90	18.85	79.66	-46.6	-48.0	20.0	0.00e+00	0	44	0	729808896	65	4074
2026-01-23 00:49:00.91	18.45	80.16	-46.3	-47.7	20.4	0.00e+00	0	44	0	731906048	64	4147
2026-01-23 00:49:01.92	18.00	80.67	-46.8	-48.2	19.7	0.00e+00	0	44	0	734003200	64	4439
2026-01-23 00:49:02.93	17.51	81.17	-47.3	-48.9	19.3	0.00e+00	0	44	0	736100352	65	4504
2026-01-23 00:49:03.93	16.96	81.67	-48.7	-50.6	17.5	0.00e+00	0	44	0	737148928	67	4891
2026-01-23 00:49:04.94	16.33	82.17	-49.2	-51.3	16.7	0.00e+00	0	44	0	739246080	69	4741
2026-01-23 00:49:05.94	15.62	82.67	-47.8	-49.4	18.6	0.00e+00	0	44	0	741343232	67	4268
2026-01-23 00:49:06.95	14.79	83.17	-46.5	-47.8	20.1	0.00e+00	0	44	0	743440384	65	3979
2026-01-23 00:49:07.96	13.83	83.67	-45.8	-47.0	21.0	0.00e+00	0	44	0	745537536	63	4093
2026-01-23 00:49:08.97	12.71	84.17	-45.4	-46.6	21.4	0.00e+00	0	44	0	747634688	62	4109
2026-01-23 00:49:09.98	11.38	84.67	-45.3	-46.5	21.5	0.00e+00	0	44	0	748683264	62	4063
2026-01-23 00:49:10.98	9.78	85.16	-45.4	-46.5	21.5	0.00e+00	0	44	0	750780416	62	4076
2026-01-23 00:49:11.99	7.81	85.65	-45.0	-46.1	21.8	0.00e+00	0	44	0	752877568	62	3877
2026-01-23 00:49:13.00	5.33	86.14	-44.7	-45.7	22.2	0.00e+00	0	44	0	754974720	61	3955
2026-01-23 00:49:14.01	2.14	86.61	-44.9	-46.0	22.0	0.00e+00	0	44	0	756023296	61	4087
2026-01-23 00:49:15.01	357.97	87.07	-45.1	-46.2	21.8	0.00e+00	0	44	0	758120448	61	4185
2026-01-23 00:49:16.02	352.23	87.51	-44.6	-45.6	22.3	0.00e+00	0	44	0	760217600	61	3899
2026-01-23 00:49:17.03	344.12	87.92	-44.1	-45.0	22.9	0.00e+00	0	44	0	762314752	60	3865
2026-01-23 00:49:18.04	332.45	88.27	-43.6	-44.5	23.6	0.00e+00	0	44	0	764411904	59	3840
2026-01-23 00:49:19.05	316.04	88.51	-43.1	-44.0	24.0	0.00e+00	0	44	0	765460480	58	3836
2026-01-23 00:49:20.05	295.89	88.59	-42.9	-43.8	24.1	0.00e+00	0	44	0	767557632	57	3977
2026-01-23 00:49:21.06	275.74	88.49	-43.3	-44.2	24.0	0.00e+00	0	44	0	769654784	57	4160
2026-01-23 00:49:22.07	259.75	88.24	-44.1	-45.1	23.1	0.00e+00	0	44	0	771751936	59	4139
2026-01-23 00:49:23.08	248.43	87.89	-44.7	-45.8	22.3	0.00e+00	0	44	0	773849088	60	4206
2026-01-23 00:49:24.08	240.63	87.48	-46.3	-47.6	20.6	0.00e+00	0	44	0	775946240	63	4364
2026-01-23 00:49:25.09	235.02	87.04	-47.1	-48.6	19.5	0.00e+00	0	44	0	776994816	65	4382
2026-01-23 00:49:26.10	230.91	86.57	-46.0	-47.2	20.9	0.00e+00	0	44	0	779091968	63	4193
2026-01-23 00:49:27.11	227.79	86.10	-45.3	-46.4	21.6	0.00e+00	0	44	0	781189120	62	4038
2026-01-23 00:49:28.12	225.36	85.61	-45.1	-46.2	21.9	0.00e+00	0	44	0	783286272	62	3921
2026-01-23 00:49:29.13	223.42	85.12	-44.2	-45.2	22.7	0.00e+00	0	44	0	784334848	60	3931
2026-01-23 00:49:30.14	221.84	84.62	-44.2	-45.1	22.9	0.00e+00	0	44	0	786432000	60	3908
2026-01-23 00:49:31.15	220.53	84.12	-44.4	-45.4	22.5	0.00e+00	0	44	0	788529152	60	4041
2026-01-23 00:49:32.15	219.43	83.63	-44.9	-46.0	22.0	0.00e+00	0	44	0	790626304	60	4325
2026-01-23 00:49:33.16	218.49	83.12	-46.0	-47.3	20.9	0.00e+00	0	44	0	792723456	62	4455
2026-01-23 00:49:34.17	217.67	82.62	-47.0	-48.5	19.6	0.00e+00	0	44	0	794820608	64	4560
2026-01-23 00:49:35.18	216.96	82.12	-48.0	-49.7	18.6	0.00e+00	0	44	0	795869184	66	4665
2026-01-23 00:49:36.19	216.34	81.62	-47.3	-48.9	19.2	0.00e+00	0	44	0	797966336	66	4247
2026-01-23 00:49:37.19	215.80	81.12	-46.6	-47.9	20.1	0.00e+00	0	44	0	800063488	65	4032
2026-01-23 00:49:38.20	215.30	80.62	-45.8	-47.0	21.1	0.00e+00	0	44	0	802160640	63	4087
2026-01-23 00:49:39.21	214.86	80.11	-45.3	-46.4	21.7	0.00e+00	0	44	0	804257792	62	4014
2026-01-23 00:49:40.22	214.47	79.61	-44.7	-45.7	22.3	0.00e+00	0	44	0	805306368	61	3944
2026-01-23 00:49:41.23	214.11	79.11	-45.2	-46.3	21.8	0.00e+00	0	44	0	807403520	61	4198
2026-01-23 00:49:42.23	213.78	78.62	-45.5	-46.6	21.5	0.00e+00	0	44	0	809500672	61	4368
2026-01-23 00:49:43.24	213.49	78.12	-46.4	-47.7	20.5	0.00e+00	0	44	0	811597824	63	4395
2026-01-23 00:49:44.25	213.21	77.62	-47.4	-48.9	19.3	0.00e+00	0	44	0	812646400	65	4526
2026-01-23 00:49:45.26	212.96	77.13	-46.9	-48.3	19.8	0.00e+00	0	44	0	814743552	65	4220
2026-01-23 00:49:46.27	212.73	76.63	-47.2	-48.7	19.5	0.00e+00	0	44	0	816840704	65	4430
2026-01-23 00:49:47.27	212.51	76.15	-47.9	-49.6	18.5	0.00e+00	0	44	0	818937856	66	4636
2026-01-23 00:49:48.28	212.31	75.65	-48.2	-49.9	18.4	0.00e+00	0	44	0	821035008	67	4508
2026-01-23 00:49:49.29	212.13	75.16	-48.4	-50.2	18.0	0.00e+00	0	44	0	823132160	67	4701
2026-01-23 00:49:50.30	211.96	74.68	-48.8	-50.7	17.7	0.00e+00	0	44	0	824180736	68	4674
2026-01-23 00:49:51.31	211.79	74.19	-47.3	-48.8	19.4	0.00e+00	0	44	0	826277888	66	4207
2026-01-23 00:49:52.31	211.64	73.71	-46.8	-48.2	20.0	0.00e+00	0	44	0	828375040	65	4150
2026-01-23 00:49:53.32	211.50	73.23	-47.0	-48.5	19.7	0.00e+00	0	44	0	830472192	65	4313
2026-01-23 00:49:54.33	211.37	72.75	-46.5	-47.8	20.3	0.00e+00	0	44	0	832569344	65	3998
2026-01-23 00:49:55.34	211.24	72.27	-46.3	-47.5	20.6	0.00e+00	0	44	0	833617920	64	4095
2026-01-23 00:49:56.34	211.12	71.80	-46.5	-47.8	20.4	0.00e+00	0	44	0	835715072	64	4204
2026-01-23 00:49:57.35	211.01	71.32	-46.5	-47.8	20.3	0.00e+00	0	44	0	837812224	64	4204
2026-01-23 00:49:58.36	210.90	70.85	-47.3	-48.9	19.3	0.00e+00	0	44	0	839909376	65	4496
2026-01-23 00:49:59.37	210.80	70.38	-48.5	-50.3	17.8	0.00e+00	0	44	0	842006528	67	4726
2026-01-23 00:50:00.37	210.71	69.91	-48.9	-50.9	17.5	0.00e+00	0	44	0	843055104	68	4776
2026-01-23 00:50:01.38	210.62	69.45	-48.9	-51.0	17.3	0.00e+00	0	44	0	845152256	68	4840
2026-01-23 00:50:02.39	210.53	68.98	-49.2	-51.3	16.7	0.00e+00	0	44	0	847249408	69	4751
2026-01-23 00:50:03.40	210.45	68.52	-49.4	-51.7	16.3	7.00e-07	0	44	0	849346560	69	4962
2026-01-23 00:50:04.41	210.37	68.06	-49.5	-51.7	16.4	0.00e+00	0	44	0	851443712	69	4955
2026-01-23 00:50:05.41	210.30	67.61	-49.3	-51.5	16.6	0.00e+00	0	44	0	852492288	69	4840
2026-01-23 00:50:06.42	210.23	67.15	-48.6	-50.4	17.6	0.00e+00	0	44	0	854589440	69	4261
2026-01-23 00:50:07.43	210.16	66.70	-47.6	-49.2	18.5	0.00e+00	0	44	0	856686592	67	4189
2026-01-23 00:50:08.44	210.10	66.25	-47.4	-48.9	18.9	0.00e+00	0	44	0	858783744	66	4266
2026-01-23 00:50:09.44	210.03	65.81	-47.3	-48.8	19.3	0.00e+00	0	44	0	860880896	66	4225
2026-01-23 00:50:10.45	209.97	65.36	-46.5	-47.8	20.2	0.00e+00	0	44	0	861929472	65	3999
2026-01-23 00:50:11.46	209.92	64.92	-45.6	-46.8	21.2	0.00e+00	0	44	0	864026624	63	3993
2026-01-23 00:50:12.46	209.86	64.49	-44.9	-46.0	21.9	0.00e+00	0	44	0	866123776	61	4083
2026-01-23 00:50:13.46	209.81	64.05	-44.2	-45.2	22.7	0.00e+00	0	44	0	868220928	60	3938
2026-01-23 00:50:14.47	209.76	63.62	-44.0	-45.0	23.2	0.00e+00	0	44	0	870318080	59	4063
2026-01-23 00:50:15.48	209.71	63.19	-44.3	-45.3	23.0	0.00e+00	0	44	0	871366656	59	4202
2026-01-23 00:50:16.49	209.67	62.76	-44.2	-45.2	23.0	0.00e+00	0	44	0	873463808	59	4189
2026-01-23 00:50:17.50	209.62	62.33	-44.4	-45.4	22.8	0.00e+00	0	44	0	875560960	59	4285
2026-01-23 00:50:18.51	209.58	61.90	-43.9	-44.8	23.4	0.00e+00	0	44	0	877658112	59	3981
2026-01-23 00:50:19.51	209.54	61.49	-44.1	-45.1	23.2	0.00e+00	0	44	0	879755264	59	4115
2026-01-23 00:50:20.52	209.50	61.07	-44.8	-45.8	22.2	0.00e+00	0	44	0	880803840	60	4237
2026-01-23 00:50:21.53	209.46	60.65	-46.1	-47.4	20.8	0.00e+00	0	44	0	882900992	62	4501
2026-01-23 00:50:22.54	209.42	60.24	-46.1	-47.4	20.7	0.00e+00	0	44	0	884998144	62	4530
2026-01-23 00:50:23.54	209.38	59.83	-46.4	-47.6	20.5	0.00e+00	0	44	0	887095296	63	4389
2026-01-23 00:50:24.55	209.35	59.42	-46.5	-47.8	20.3	0.00e+00	0	44	0	889192448	63	4473
2026-01-23 00:50:25.56	209.32	59.01	-46.7	-48.1	20.0	0.00e+00	0	44	0	891289600	64	4360
2026-01-23 00:50:26.57	209.28	58.61	-47.2	-48.6	19.4	0.00e+00	0	44	0	892338176	64	4638
2026-01-23 00:50:27.58	209.25	58.21	-48.1	-49.9	18.3	0.00e+00	0	44	0	894435328	66	4775
2026-01-23 00:50:28.59	209.22	57.81	-49.5	-51.8	16.5	0.00e+00	0	44	0	896532480	69	5029
2026-01-23 00:50:29.59	209.19	57.42	-49.9	-52.4	15.8	0.00e+00	0	44	0	898629632	70	5093
2026-01-23 00:50:30.60	209.16	57.03	-48.4	-50.3	17.9	0.00e+00	0	44	0	899678208	68	4464
2026-01-23 00:50:31.61	209.14	56.64	-47.0	-48.4	19.6	0.00e+00	0	44	0	901775360	66	4043
2026-01-23 00:50:32.62	209.11	56.25	-46.6	-47.9	20.0	0.00e+00	0	44	0	903872512	65	4046
2026-01-23 00:50:33.63	209.08	55.87	-46.2	-47.5	20.5	0.00e+00	0	44	0	905969664	64	4079
2026-01-23 00:50:34.63	209.06	55.49	-45.7	-46.9	21.2	0.00e+00	0	44	0	908066816	63	4027
2026-01-23 00:50:35.64	209.04	55.11	-45.8	-47.0	21.1	0.00e+00	0	44	0	909115392	63	4061
2026-01-23 00:50:36.65	209.01	54.73	-45.6	-46.8	21.2	0.00e+00	0	44	0	911212544	63	3998
2026-01-23 00:50:37.66	208.99	54.36	-45.6	-46.9	21.1	0.00e+00	0	44	0	913309696	63	4006
2026-01-23 00:50:38.67	208.97	53.99	-45.7	-46.9	21.1	0.00e+00	0	44	0	915406848	63	4031
2026-01-23 00:50:39.67	208.95	53.62	-44.9	-46.1	21.9	0.00e+00	0	44	0	917504000	61	4103
2026-01-23 00:50:40.68	208.93	53.26	-44.7	-45.7	22.2	0.00e+00	0	44	0	919601152	61	3953
2026-01-23 00:50:41.69	208.91	52.89	-44.7	-45.7	22.2	0.00e+00	0	44	0	920649728	61	3947
2026-01-23 00:50:42.70	208.89	52.53	-45.2	-46.3	21.7	0.00e+00	0	44	0	922746880	61	4216
2026-01-23 00:50:43.70	208.87	52.18	-46.1	-47.4	20.7	0.00e+00	0	44	0	924844032	62	4497
2026-01-23 00:50:44.71	208.85	51.82	-46.9	-48.4	19.6	0.00e+00	0	44	0	926941184	64	4530
2026-01-23 00:50:45.72	208.83	51.47	-46.7	-48.2	19.8	0.00e+00	0	44	0	927989760	64	4392
2026-01-23 00:50:46.73	208.81	51.12	-46.6	-47.9	20.1	0.00e+00	0	44	0	930086912	64	4282
2026-01-23 00:50:47.74	208.80	50.77	-46.4	-47.8	20.2	0.00e+00	0	44	0	932184064	64	4205
2026-01-23 00:50:48.74	208.78	50.43	-47.1	-48.6	19.4	0.00e+00	0	44	0	934281216	64	4638
2026-01-23 00:50:49.75	208.76	50.09	-47.2	-48.8	19.2	0.00e+00	0	44	0	936378368	65	4447
2026-01-23 00:50:50.76	208.75	49.75	-47.3	-48.8	19.2	0.00e+00	0	44	0	938475520	65	4490
2026-01-23 00:50:51.77	208.73	49.41	-47.7	-49.4	18.7	0.00e+00	0	44	0	939524096	66	4503
2026-01-23 00:50:52.78	208.72	49.08	-48.9	-50.9	17.3	0.00e+00	0	44	0	941621248	68	4765
2026-01-23 00:50:53.79	208.70	48.74	-49.9	-52.5	15.8	0.00e+00	0	44	0	943718400	70	5104
2026-01-23 00:50:54.79	208.69	48.42	-50.3	-53.1	15.1	0.00e+00	0	44	0	945815552	71	5175
2026-01-23 00:50:55.80	208.68	48.09	-49.2	-51.4	16.7	0.00e+00	0	44	0	947912704	70	4536
2026-01-23 00:50:56.81	208.66	47.77	-47.4	-49.0	18.9	0.00e+00	0	44	0	948961280	66	4328
2026-01-23 00:50:57.81	208.65	47.45	-46.4	-47.8	20.2	0.00e+00	0	44	0	951058432	64	4200
2026-01-23 00:50:58.82	208.64	47.13	-46.0	-47.3	20.6	0.00e+00	0	44	0	953155584	64	3959
2026-01-23 00:50:59.83	208.62	46.81	-46.3	-47.6	20.3	0.00e+00	0	44	0	955252736	64	4145
2026-01-23 00:51:00.84	208.61	46.49	-46.6	-47.9	20.0	0.00e+00	0	44	0	956301312	64	4282
2026-01-23 00:51:01.85	208.60	46.18	-47.3	-48.9	19.1	0.00e+00	0	44	0	958398464	65	4512
2026-01-23 00:51:02.85	208.59	45.87	-48.0	-49.8	18.2	0.00e+00	0	44	0	960495616	66	4735
2026-01-23 00:51:03.86	208.58	45.56	-48.6	-50.6	17.3	0.00e+00	0	44	0	962592768	67	4923
2026-01-23 00:51:04.87	208.57	45.26	-48.8	-50.8	17.3	0.00e+00	0	44	0	964689920	68	4754
2026-01-23 00:51:05.88	208.56	44.95	-48.7	-50.7	17.4	0.00e+00	0	44	0	966787072	68	4661
2026-01-23 00:51:06.89	208.55	44.65	-48.1	-49.9	18.1	0.00e+00	0	44	0	967835648	68	4281
2026-01-23 00:51:07.89	208.54	44.36	-47.2	-48.8	19.2	0.00e+00	0	44	0	969932800	66	4195
2026-01-23 00:51:08.90	208.53	44.06	-46.7	-48.1	19.8	0.00e+00	0	44	0	972029952	65	4111
2026-01-23 00:51:09.91	208.52	43.76	-46.4	-47.8	20.1	0.00e+00	0	44	0	974127104	64	4199
2026-01-23 00:51:10.92	208.51	43.47	-46.1	-47.3	20.5	0.00e+00	0	44	0	976224256	64	3986
2026-01-23 00:51:11.93	208.50	43.18	-46.4	-47.7	20.1	0.00e+00	0	44	0	977272832	64	4193
2026-01-23 00:51:12.93	208.49	42.90	-47.0	-48.5	19.4	0.00e+00	0	44	0	979369984	64	4568
2026-01-23 00:51:13.94	208.48	42.61	-47.6	-49.2	18.7	0.00e+00	0	44	0	981467136	65	4689
2026-01-23 00:51:14.95	208.47	42.33	-48.3	-50.2	17.7	0.00e+00	0	44	0	983564288	67	4693
2026-01-23 00:51:15.96	208.47	42.05	-49.0	-51.2	16.9	0.00e+00	0	44	0	985661440	68	4978
2026-01-23 00:51:16.96	208.46	41.77	-49.2	-51.5	16.6	0.00e+00	0	44	0	986710016	69	4829
2026-01-23 00:51:17.97	208.45	41.49	-48.9	-51.0	17.0	0.00e+00	0	44	0	988807168	69	4573
2026-01-23 00:51:18.98	208.44	41.22	-48.6	-50.5	17.6	0.00e+00	0	44	0	990904320	69	4320
2026-01-23 00:51:19.99	208.44	40.94	-48.1	-49.9	18.1	0.00e+00	0	44	0	993001472	68	4271
2026-01-23 00:51:20.99	208.43	40.68	-47.5	-49.2	18.7	0.00e+00	0	44	0	995098624	67	4149
2026-01-23 00:51:22.00	208.42	40.41	-47.0	-48.5	19.4	0.00e+00	0	44	0	996147200	66	4084
2026-01-23 00:51:23.01	208.42	40.14	-47.0	-48.4	19.5	0.00e+00	0	44	0	998244352	65	4273
2026-01-23 00:51:24.01	208.41	39.88	-47.1	-48.6	19.2	0.00e+00	0	44	0	1000341504	65	4362
2026-01-23 00:51:25.02	208.40	39.61	-47.5	-49.1	18.8	0.00e+00	0	44	0	1002438656	65	4604
2026-01-23 00:51:26.03	208.40	39.35	-47.9	-49.6	18.3	0.00e+00	0	44	0	1004535808	66	4618
2026-01-23 00:51:27.04	208.39	39.09	-48.5	-50.4	17.5	0.00e+00	0	44	0	1005584384	67	4811
2026-01-23 00:51:28.04	208.38	38.84	-49.2	-51.4	16.6	0.00e+00	0	44	0	1007681536	68	5057
2026-01-23 00:51:29.05	208.38	38.58	-49.4	-51.8	16.2	0.00e+00	0	44	0	1009778688	69	5010
2026-01-23 00:51:30.06	208.37	38.33	-49.6	-52.1	15.9	0.00e+00	0	44	0	1011875840	69	5177
2026-01-23 00:51:31.07	208.37	38.08	-49.5	-51.9	16.1	0.00e+00	0	44	0	1013972992	69	5054
2026-01-23 00:51:32.08	208.36	37.83	-49.2	-51.4	16.6	0.00e+00	0	44	0	1015021568	69	4811
2026-01-23 00:51:33.08	208.36	37.58	-48.8	-50.8	17.1	0.00e+00	0	44	0	1017118720	69	4467
2026-01-23 00:51:34.09	208.35	37.34	-48.6	-50.5	17.5	0.00e+00	0	44	0	1019215872	69	4325
2026-01-23 00:51:35.10	208.35	37.09	-47.9	-49.6	18.3	0.00e+00	0	44	0	1021313024	67	4357
2026-01-23 00:51:36.11	208.34	36.85	-47.5	-49.1	18.7	0.00e+00	0	44	0	1023410176	66	4357
2026-01-23 00:51:37.12	208.34	36.61	-47.3	-48.9	19.0	0.00e+00	0	44	0	1024458752	66	4254
2026-01-23 00:51:38.12	208.33	36.37	-47.3	-48.9	18.9	0.00e+00	0	44	0	1026555904	66	4256
2026-01-23 00:51:39.13	208.33	36.14	-47.3	-48.9	18.9	0.00e+00	0	44	0	1028653056	66	4268
2026-01-23 00:51:40.14	208.32	35.90	-47.5	-49.2	18.7	0.00e+00	0	44	0	1030750208	66	4399
2026-01-23 00:51:41.15	208.32	35.67	-47.8	-49.6	18.3	0.00e+00	0	44	0	1032847360	66	4602
2026-01-23 00:51:42.16	208.31	35.43	-48.2	-50.0	17.8	0.00e+00	0	44	0	1033895936	66	4859
2026-01-23 00:51:43.17	208.31	35.20	-48.4	-50.3	17.5	0.00e+00	0	44	0	1035993088	67	4755
2026-01-23 00:51:44.17	208.31	34.98	-48.8	-50.9	17.0	0.00e+00	0	44	0	1038090240	68	4784
2026-01-23 00:51:45.18	208.30	34.75	-49.2	-51.5	16.5	0.00e+00	0	44	0	1040187392	68	5115
2026-01-23 00:51:46.19	208.30	34.52	-49.3	-51.6	16.4	0.00e+00	0	44	0	1042284544	69	4891
2026-01-23 00:51:47.20	208.30	34.30	-49.4	-51.7	16.3	0.00e+00	0	44	0	1043333120	69	4959
2026-01-23 00:51:48.21	208.29	34.08	-49.4	-51.8	16.1	0.00e+00	0	44	0	1045430272	69	5013
2026-01-23 00:51:49.21	208.29	33.86	-49.3	-51.6	16.4	0.00e+00	0	44	0	1047527424	69	4876
2026-01-23 00:51:50.22	208.29	33.64	-49.2	-51.4	16.5	0.00e+00	0	44	0	1049624576	69	4794
2026-01-23 00:51:51.23	208.28	33.42	-49.1	-51.3	16.6	0.00e+00	0	44	0	1051721728	69	4748
2026-01-23 00:51:52.24	208.28	33.21	-49.0	-51.2	16.7	0.00e+00	0	44	0	1052770304	69	4677
2026-01-23 00:51:53.24	208.28	33.00	-48.9	-51.0	16.9	0.00e+00	0	44	0	1054867456	69	4579
2026-01-23 00:51:54.25	208.27	32.78	-48.9	-51.0	16.9	0.00e+00	0	44	0	1056964608	69	4549
2026-01-23 00:51:55.26	208.27	32.57	-48.7	-50.7	17.2	0.00e+00	0	44	0	1059061760	69	4416
2026-01-23 00:51:56.27	208.27	32.36	-48.4	-50.3	17.6	0.00e+00	0	44	0	1061158912	68	4472
2026-01-23 00:51:57.28	208.26	32.15	-48.0	-49.7	18.1	0.00e+00	0	44	0	1062207488	68	4177
2026-01-23 00:51:58.29	208.26	31.95	-47.7	-49.4	18.4	0.00e+00	0	44	0	1064304640	67	4261
2026-01-23 00:51:59.30	208.26	31.74	-47.5	-49.2	18.6	0.00e+00	0	44	0	1066401792	67	4158
2026-01-23 00:52:00.31	208.26	31.54	-47.5	-49.2	18.6	0.00e+00	0	44	0	1068498944	66	4399
2026-01-23 00:52:01.31	208.25	31.33	-47.7	-49.4	18.4	0.00e+00	0	44	0	1070596096	66	4504
2026-01-23 00:52:02.32	208.25	31.13	-47.7	-49.4	18.3	0.00e+00	0	44	0	1071644672	66	4543
2026-01-23 00:52:03.33	208.25	30.93	-48.0	-49.8	18.0	0.00e+00	0	44	0	1073741824	66	4710
2026-01-23 00:52:04.34	208.25	30.73	-48.2	-50.1	17.6	0.00e+00	0	44	0	1075838976	67	4648
2026-01-23 00:52:05.34	208.25	30.54	-48.3	-50.3	17.5	0.00e+00	0	44	0	1077936128	67	4714
2026-01-23 00:52:06.35	208.24	30.34	-48.4	-50.4	17.3	0.00e+00	0	44	0	1080033280	67	4801
2026-01-23 00:52:07.36	208.24	30.15	-48.5	-50.6	17.2	0.00e+00	0	44	0	1082130432	67	4876
2026-01-23 00:52:08.37	208.24	29.95	-48.6	-50.6	17.2	0.00e+00	0	44	0	1083179008	67	4904
2026-01-23 00:52:09.38	208.24	29.76	-48.5	-50.5	17.2	0.00e+00	0	44	0	1085276160	67	4854
2026-01-23 00:52:10.38	208.24	29.57	-48.5	-50.6	17.2	0.00e+00	0	44	0	1087373312	67	4882
2026-01-23 00:52:11.39	208.23	29.38	-48.5	-50.5	17.3	0.00e+00	0	44	0	1089470464	67	4832
2026-01-23 00:52:12.40	208.23	29.20	-48.4	-50.5	17.3	0.00e+00	0	44	0	1090519040	67	4816
2026-01-23 00:52:13.41	208.23	29.01	-48.2	-50.1	17.5	0.00e+00	0	44	0	1092616192	67	4649
2026-01-23 00:52:14.42	208.23	28.82	-48.0	-49.8	17.9	0.00e+00	0	44	0	1094713344	67	4459
2026-01-23 00:52:15.43	208.23	28.64	-48.0	-49.8	17.9	0.00e+00	0	44	0	1096810496	67	4487
2026-01-23 00:52:16.44	208.23	28.46	-47.6	-49.3	18.5	0.00e+00	0	44	0	1098907648	67	4194
2026-01-23 00:52:17.45	208.23	28.27	-47.4	-49.0	18.7	0.00e+00	0	44	0	1099956224	66	4324
2026-01-23 00:52:18.45	208.22	28.09	-47.2	-48.7	18.9	0.00e+00	0	44	0	1102053376	66	4191
2026-01-23 00:52:19.46	208.22	27.91	-47.0	-48.5	19.2	0.00e+00	0	44	0	1104150528	65	4310
2026-01-23 00:52:20.46	208.22	27.74	-46.6	-48.0	19.6	0.00e+00	0	44	0	1106247680	65	4066
2026-01-23 00:52:21.47	208.22	27.56	-46.4	-47.7	19.9	0.00e+00	0	44	0	1108344832	64	4192
2026-01-23 00:52:22.48	208.22	27.38	-46.1	-47.5	20.1	0.00e+00	0	44	0	1110441984	64	4061
2026-01-23 00:52:23.49	208.22	27.21	-46.1	-47.4	20.3	0.00e+00	0	44	0	1111490560	63	4251
2026-01-23 00:52:24.50	208.22	27.03	-45.9	-47.2	20.5	0.00e+00	0	44	0	1113587712	63	4147
2026-01-23 00:52:25.50	208.22	26.86	-45.8	-47.1	20.6	0.00e+00	0	44	0	1115684864	63	4109
2026-01-23 00:52:26.51	208.22	26.69	-45.9	-47.2	20.5	0.00e+00	0	44	0	1117782016	63	4164
2026-01-23 00:52:27.52	208.21	26.52	-46.0	-47.3	20.4	0.00e+00	0	44	0	1118830592	63	4233
2026-01-23 00:52:28.53	208.21	26.35	-45.9	-47.2	20.5	0.00e+00	0	44	0	1120927744	63	4151
2026-01-23 00:52:29.54	208.21	26.18	-45.8	-47.1	20.5	0.00e+00	0	44	0	1123024896	63	4122
2026-01-23 00:52:30.54	208.21	26.01	-45.9	-47.2	20.5	0.00e+00	0	44	0	1125122048	63	4146
2026-01-23 00:52:31.55	208.21	25.85	-45.8	-47.1	20.5	0.00e+00	0	44	0	1127219200	63	4134
2026-01-23 00:52:32.56	208.21	25.68	-45.9	-47.2	20.5	0.00e+00	0	44	0	1129316352	63	4161
2026-01-23 00:52:33.57	208.21	25.52	-46.0	-47.3	20.3	0.00e+00	0	44	0	1130364928	63	4225
2026-01-23 00:52:34.57	208.21	25.36	-46.0	-47.3	20.4	0.00e+00	0	44	0	1132462080	63	4222
2026-01-23 00:52:35.58	208.21	25.19	-46.0	-47.3	20.3	0.00e+00	0	44	0	1134559232	63	4231
2026-01-23 00:52:36.59	208.21	25.03	-46.0	-47.3	20.3	0.00e+00	0	44	0	1136656384	63	4239
2026-01-23 00:52:37.60	208.21	24.87	-46.0	-47.3	20.4	0.00e+00	0	44	0	1138753536	63	4203
2026-01-23 00:52:38.60	208.21	24.71	-46.0	-47.4	20.3	0.00e+00	0	44	0	1139802112	63	4248
2026-01-23 00:52:39.61	208.21	24.55	-46.1	-47.4	20.2	0.00e+00	0	44	0	1141899264	63	4264
2026-01-23 00:52:40.62	208.21	24.40	-45.8	-47.1	20.5	0.00e+00	0	44	0	1143996416	63	4113
2026-01-23 00:52:41.63	208.21	24.24	-45.9	-47.3	20.4	0.00e+00	0	44	0	1146093568	63	4197
2026-01-23 00:52:42.64	208.21	24.08	-45.9	-47.2	20.4	0.00e+00	0	44	0	1147142144	63	4148
2026-01-23 00:52:43.65	208.21	23.93	-45.9	-47.2	20.4	0.00e+00	0	44	0	1149239296	63	4180
2026-01-23 00:52:44.65	208.21	23.78	-45.9	-47.2	20.4	0.00e+00	0	44	0	1151336448	63	4157
2026-01-23 00:52:45.66	208.21	23.62	-45.6	-46.8	20.7	0.00e+00	0	44	0	1153433600	63	4004
2026-01-23 00:52:46.67	208.21	23.47	-45.8	-47.1	20.6	0.00e+00	0	44	0	1155530752	63	4099
2026-01-23 00:52:47.68	208.21	23.32	-45.4	-46.7	20.8	0.00e+00	0	44	0	1157627904	62	4162
2026-01-23 00:52:48.68	208.21	23.17	-45.4	-46.6	20.8	0.00e+00	0	44	0	1158676480	62	4136
2026-01-23 00:52:49.69	208.21	23.02	-45.4	-46.6	20.9	0.00e+00	0	44	0	1160773632	62	4117
2026-01-23 00:52:50.70	208.21	22.87	-45.4	-46.6	21.0	0.00e+00	0	44	0	1162870784	62	4123
2026-01-23 00:52:51.71	208.21	22.73	-45.2	-46.4	21.1	0.00e+00	0	44	0	1164967936	62	4043
2026-01-23 00:52:52.72	208.21	22.58	-45.2	-46.3	21.2	0.00e+00	0	44	0	1167065088	62	4002
2026-01-23 00:52:53.72	208.21	22.43	-45.2	-46.4	21.1	0.00e+00	0	44	0	1168113664	62	4032
2026-01-23 00:52:54.73	208.21	22.29	-45.1	-46.3	21.2	0.00e+00	0	44	0	1170210816	62	3995
2026-01-23 00:52:55.74	208.21	22.14	-45.2	-46.4	21.2	0.00e+00	0	44	0	1172307968	62	4006
2026-01-23 00:52:56.75	208.21	22.00	-45.2	-46.4	21.1	0.00e+00	0	44	0	1174405120	62	4033
2026-01-23 00:52:57.75	208.21	21.86	-45.2	-46.4	21.1	0.00e+00	0	44	0	1175453696	62	4033
2026-01-23 00:52:58.76	208.21	21.72	-45.4	-46.6	20.9	0.00e+00	0	44	0	1177550848	62	4131
2026-01-23 00:52:59.77	208.21	21.57	-45.5	-46.7	20.8	0.00e+00	0	44	0	1179648000	62	4174
2026-01-23 00:53:00.78	208.21	21.43	-45.5	-46.8	20.8	0.00e+00	0	44	0	1181745152	62	4197
2026-01-23 00:53:01.79	208.21	21.29	-45.7	-47.0	20.6	0.00e+00	0	44	0	1183842304	62	4305
2026-01-23 00:53:02.79	208.21	21.16	-45.8	-47.1	20.5	0.00e+00	0	44	0	1185939456	62	4352
2026-01-23 00:53:03.80	208.21	21.02	-45.8	-47.2	20.3	0.00e+00	0	44	0	1186988032	62	4403
2026-01-23 00:53:04.81	208.21	20.88	-46.0	-47.4	20.1	0.00e+00	0	44	0	1189085184	62	4510
2026-01-23 00:53:05.82	208.21	20.74	-46.1	-47.5	20.0	0.00e+00	0	44	0	1191182336	62	4554
2026-01-23 00:53:06.82	208.21	20.61	-46.3	-47.7	19.9	0.00e+00	0	44	0	1193279488	63	4404
2026-01-23 00:53:07.83	208.21	20.47	-46.3	-47.7	19.8	0.00e+00	0	44	0	1195376640	63	4436
2026-01-23 00:53:08.84	208.21	20.34	-46.4	-47.8	19.7	0.00e+00	0	44	0	1196425216	63	4478
2026-01-23 00:53:09.85	208.21	20.21	-46.5	-48.0	19.6	0.00e+00	0	44	0	1198522368	63	4553
2026-01-23 00:53:10.85	208.22	20.07	-46.5	-48.0	19.5	0.00e+00	0	44	0	1200619520	63	4556
2026-01-23 00:53:11.86	208.22	19.94	-46.5	-48.0	19.6	0.00e+00	0	44	0	1202716672	63	4554
2026-01-23 00:53:12.87	208.22	19.81	-46.5	-48.0	19.5	0.00e+00	0	44	0	1204813824	63	4567
2026-01-23 00:53:13.88	208.22	19.68	-46.5	-48.0	19.5	0.00e+00	0	44	0	1205862400	63	4570
2026-01-23 00:53:14.88	208.22	19.55	-46.4	-47.9	19.6	0.00e+00	0	44	0	1207959552	63	4505
2026-01-23 00:53:15.89	208.22	19.42	-46.4	-47.8	19.6	0.00e+00	0	44	0	1210056704	63	4489
2026-01-23 00:53:16.90	208.22	19.29	-46.4	-47.9	19.6	0.00e+00	0	44	0	1212153856	63	4505
2026-01-23 00:53:17.91	208.22	19.16	-46.4	-47.8	19.6	0.00e+00	0	44	0	1214251008	63	4484
2026-01-23 00:53:18.92	208.22	19.04	-46.4	-47.8	19.7	0.00e+00	0	44	0	1215299584	63	4478
2026-01-23 00:53:19.92	208.22	18.91	-46.3	-47.7	19.8	0.00e+00	0	44	0	1217396736	63	4434
2026-01-23 00:53:20.93	208.22	18.78	-46.3	-47.7	19.8	0.00e+00	0	44	0	1219493888	63	4404
2026-01-23 00:53:21.94	208.22	18.66	-46.3	-47.7	19.7	0.00e+00	0	44	0	1221591040	63	4441
2026-01-23 00:53:22.95	208.23	18.53	-46.3	-47.7	19.8	0.00e+00	0	44	0	1223688192	63	4402
2026-01-23 00:53:23.96	208.23	18.41	-46.3	-47.7	19.8	0.00e+00	0	44	0	1225785344	63	4398
2026-01-23 00:53:24.96	208.23	18.29	-46.4	-47.8	19.6	0.00e+00	0	44	0	1226833920	63	4489
2026-01-23 00:53:25.97	208.23	18.16	-46.3	-47.7	19.7	0.00e+00	0	44	0	1228931072	63	4422
2026-01-23 00:53:26.98	208.23	18.04	-46.4	-47.8	19.6	0.00e+00	0	44	0	1231028224	63	4467
2026-01-23 00:53:27.98	208.23	17.92	-46.4	-47.9	19.6	0.00e+00	0	44	0	1233125376	63	4520
2026-01-23 00:53:28.99	208.23	17.80	-46.4	-47.8	19.7	0.00e+00	0	44	0	1234173952	63	4462
2026-01-23 00:53:30.00	208.23	17.68	-46.4	-47.8	19.6	0.00e+00	0	44	0	1236271104	63	4480
2026-01-23 00:53:31.01	208.23	17.56	-46.3	-47.8	19.7	0.00e+00	0	44	0	1238368256	63	4459
2026-01-23 00:53:32.02	208.23	17.44	-46.5	-47.9	19.5	0.00e+00	0	44	0	1240465408	63	4530
2026-01-23 00:53:33.03	208.24	17.32	-46.5	-47.9	19.5	0.00e+00	0	44	0	1242562560	63	4539
2026-01-23 00:53:34.03	208.24	17.20	-46.5	-48.0	19.5	0.00e+00	0	44	0	1243611136	63	4554
2026-01-23 00:53:35.04	208.24	17.08	-46.5	-48.0	19.4	0.00e+00	0	44	0	1245708288	63	4573
2026-01-23 00:53:36.05	208.24	16.97	-46.6	-48.1	19.3	0.00e+00	0	44	0	1247805440	63	4640
2026-01-23 00:53:37.06	208.24	16.85	-46.6	-48.1	19.3	0.00e+00	0	44	0	1249902592	63	4641
2026-01-23 00:53:38.07	208.24	16.73	-46.6	-48.2	19.3	0.00e+00	0	44	0	1251999744	63	4653
2026-01-23 00:53:39.07	208.24	16.62	-46.7	-48.2	19.2	0.00e+00	0	44	0	1254096896	63	4667
2026-01-23 00:53:40.08	208.24	16.50	-46.7	-48.2	19.1	0.00e+00	0	44	0	1255145472	64	4440
2026-01-23 00:53:41.09	208.25	16.39	-46.7	-48.3	19.1	0.00e+00	0	44	0	1257242624	64	4446
