passes_logs/2026/01/23/R3.2S_Murmansk/R3.2S_Murmansk__20260123_002126_SUOMI_NPP_rec.log

#Pass ID: 20260123_002126_SUOMI NPP
#Satellite: SUOMI NPP
#Configuration: NPP
#almurnet v.1.7.20251203
#Start time: 2026-01-23 00:21:26

#Version: 2.2.20231116
#Station: R3.2S_Murmansk
#Location: 33.079688 lon 68.888172 lat
#TLE: 1 37849U 11061A   26022.50498765  .00000208  00000+0  11976-3 0  9992
#TLE: 2 37849  98.7820 324.4892 0002275  50.8149 309.3229 14.19528284737775

#Time	Az	El	Level	Level2	SNR	BER	BlckErr	Temp	State	Recorded	gain1	gain2
2026-01-23 00:21:26.48	23.11	1.97	-54.3	-69.3	3.8	1.49e+00	0	42	0	0	79	21117
2026-01-23 00:21:27.48	23.13	2.04	-54.3	-69.4	3.8	1.49e+00	0	42	104	0	79	21399
2026-01-23 00:21:28.49	23.14	2.10	-54.5	-69.5	3.8	1.49e+00	0	41	104	0	79	21588
2026-01-23 00:21:29.50	23.16	2.16	-54.5	-69.5	3.8	1.49e+00	0	42	104	0	79	21584
2026-01-23 00:21:30.51	23.17	2.23	-54.5	-69.5	3.8	1.49e+00	0	42	104	0	79	21587
2026-01-23 00:21:31.51	23.19	2.29	-54.5	-69.5	3.8	1.49e+00	0	42	104	0	79	21571
2026-01-23 00:21:32.52	23.20	2.36	-54.5	-69.5	3.8	1.49e+00	0	42	104	0	79	21534
2026-01-23 00:21:33.53	23.22	2.42	-54.5	-69.5	3.8	1.49e+00	0	42	104	0	79	21580
2026-01-23 00:21:34.54	23.23	2.49	-54.4	-69.4	3.8	1.49e+00	0	42	104	0	79	21481
2026-01-23 00:21:35.55	23.25	2.55	-54.4	-69.4	3.8	1.49e+00	0	42	104	0	79	21478
2026-01-23 00:21:36.56	23.26	2.62	-54.4	-69.4	3.8	1.49e+00	0	42	104	0	79	21342
2026-01-23 00:21:37.57	23.28	2.68	-54.3	-69.4	3.8	1.49e+00	0	42	104	0	79	21295
2026-01-23 00:21:38.58	23.29	2.75	-54.3	-69.3	3.8	1.49e+00	0	42	104	0	79	21207
2026-01-23 00:21:39.58	23.31	2.81	-54.3	-69.3	3.8	1.49e+00	0	42	104	0	79	21153
2026-01-23 00:21:40.59	23.32	2.88	-54.2	-69.3	3.8	1.49e+00	0	42	104	0	79	21030
2026-01-23 00:21:41.60	23.34	2.95	-54.2	-69.2	3.8	1.49e+00	0	42	104	0	79	20859
2026-01-23 00:21:42.61	23.36	3.01	-54.1	-69.1	3.8	1.49e+00	0	42	104	0	79	20659
2026-01-23 00:21:43.61	23.37	3.08	-54.0	-69.0	3.8	1.49e+00	0	42	104	0	79	20445
2026-01-23 00:21:44.62	23.39	3.15	-53.9	-69.0	3.8	1.49e+00	0	42	104	0	79	20321
2026-01-23 00:21:45.63	23.40	3.21	-53.8	-68.8	3.8	1.49e+00	0	42	104	0	79	20014
2026-01-23 00:21:46.64	23.42	3.28	-53.7	-68.7	3.8	1.49e+00	0	42	104	0	79	19682
2026-01-23 00:21:47.65	23.44	3.35	-53.5	-68.5	3.8	1.49e+00	0	42	104	0	79	19280
2026-01-23 00:21:48.66	23.45	3.41	-53.3	-68.3	3.8	1.49e+00	0	42	104	0	78	19935
2026-01-23 00:21:49.67	23.47	3.48	-52.9	-67.9	3.8	1.49e+00	0	42	104	0	77	20184
2026-01-23 00:21:50.68	23.48	3.55	-52.4	-64.4	3.9	1.49e+00	0	43	104	0	76	14274
2026-01-23 00:21:51.69	23.50	3.62	-52.2	-62.4	4.7	1.07e+00	0	43	0	0	76	11404
2026-01-23 00:21:52.69	23.52	3.68	-51.9	-60.1	6.2	6.33e-01	0	42	0	2097152	75	9229
2026-01-23 00:21:53.70	23.53	3.75	-51.6	-58.8	7.3	2.23e-01	0	43	0	4194304	75	7962
2026-01-23 00:21:54.71	23.55	3.82	-51.3	-57.3	8.8	4.56e-02	0	43	0	6291456	74	7088
2026-01-23 00:21:55.72	23.56	3.89	-50.8	-55.8	10.4	1.19e-02	0	43	0	7340032	73	6290
2026-01-23 00:21:56.73	23.58	3.96	-50.3	-54.5	11.7	1.46e-03	0	43	0	9437184	72	5784
2026-01-23 00:21:57.73	23.60	4.03	-50.0	-53.8	12.5	1.46e-04	0	43	0	11534336	71	5632
2026-01-23 00:21:58.74	23.61	4.09	-49.4	-52.6	13.8	2.05e-05	0	43	0	13631488	70	5176
2026-01-23 00:21:59.75	23.63	4.16	-49.0	-51.9	14.5	7.00e-07	0	43	0	15728640	70	4779
2026-01-23 00:22:00.76	23.65	4.23	-48.7	-51.5	14.9	1.50e-06	0	43	0	16777216	69	4833
2026-01-23 00:22:01.77	23.66	4.30	-48.4	-50.9	15.5	0.00e+00	0	43	0	18874368	68	4812
2026-01-23 00:22:02.77	23.68	4.37	-48.2	-50.7	15.7	0.00e+00	0	43	0	20971520	68	4703
2026-01-23 00:22:03.78	23.70	4.44	-48.0	-50.4	16.0	0.00e+00	0	43	0	23068672	68	4506
2026-01-23 00:22:04.79	23.71	4.51	-48.1	-50.5	15.8	0.00e+00	0	43	0	25165824	67	4832
2026-01-23 00:22:05.80	23.73	4.58	-48.3	-50.9	15.4	0.00e+00	0	43	0	27262976	67	5053
2026-01-23 00:22:06.81	23.75	4.65	-48.5	-51.2	15.1	0.00e+00	0	43	0	28311552	67	5239
2026-01-23 00:22:07.82	23.77	4.72	-48.5	-51.2	15.1	0.00e+00	0	43	0	30408704	67	5237
2026-01-23 00:22:08.83	23.78	4.79	-49.4	-52.7	13.7	0.00e+00	0	43	0	32505856	69	5539
2026-01-23 00:22:09.84	23.80	4.86	-49.8	-53.4	13.0	2.05e-05	0	43	0	34603008	70	5680
2026-01-23 00:22:10.85	23.82	4.94	-50.3	-54.5	11.9	2.06e-04	0	43	0	35651584	71	6085
2026-01-23 00:22:11.85	23.83	5.01	-50.7	-55.5	10.9	9.96e-04	0	43	0	37748736	71	6809
2026-01-23 00:22:12.86	23.85	5.08	-48.6	-51.3	15.3	3.16e-03	0	43	0	39845888	69	4708
2026-01-23 00:22:13.87	23.87	5.15	-47.8	-50.0	16.4	0.00e+00	0	43	0	41943040	67	4584
2026-01-23 00:22:14.88	23.89	5.22	-52.4	-67.1	3.8	2.12e-01	0	43	104	42991616	75	20760
2026-01-23 00:22:15.89	23.90	5.29	-49.9	-53.5	12.8	1.39e+00	0	43	104	42991616	71	5422
2026-01-23 00:22:16.89	23.92	5.36	-49.0	-51.9	14.7	0.00e+00	0	43	0	44040192	68	5346
2026-01-23 00:22:17.90	23.94	5.44	-48.4	-50.8	15.8	0.00e+00	0	43	0	46137344	68	4755
2026-01-23 00:22:18.91	23.96	5.51	-48.4	-50.9	15.7	0.00e+00	0	43	0	48234496	68	4810
2026-01-23 00:22:19.92	23.97	5.58	-48.1	-50.4	16.2	0.00e+00	0	43	0	50331648	68	4502
2026-01-23 00:22:20.93	23.99	5.66	-47.9	-50.1	16.4	0.00e+00	0	43	0	52428800	67	4648
2026-01-23 00:22:21.93	24.01	5.73	-47.9	-50.1	16.4	0.00e+00	0	43	0	53477376	67	4640
2026-01-23 00:22:22.94	24.03	5.80	-47.9	-50.1	16.5	0.00e+00	0	43	0	55574528	67	4644
2026-01-23 00:22:23.95	24.05	5.88	-48.0	-50.3	16.3	0.00e+00	0	43	0	57671680	67	4738
2026-01-23 00:22:24.96	24.06	5.95	-47.8	-50.0	16.5	0.00e+00	0	43	0	59768832	67	4576
2026-01-23 00:22:25.97	24.08	6.02	-47.7	-49.9	16.7	0.00e+00	0	43	0	60817408	67	4501
2026-01-23 00:22:26.97	24.10	6.10	-47.9	-50.2	16.3	0.00e+00	0	43	0	62914560	67	4678
2026-01-23 00:22:27.98	24.12	6.17	-47.8	-49.9	16.6	0.00e+00	0	43	0	65011712	67	4522
2026-01-23 00:22:28.99	24.14	6.25	-47.8	-49.9	16.7	0.00e+00	0	43	0	67108864	67	4520
2026-01-23 00:22:30.00	24.16	6.32	-48.1	-50.4	16.2	0.00e+00	0	43	0	69206016	67	4789
2026-01-23 00:22:31.01	24.18	6.40	-48.1	-50.4	16.2	0.00e+00	0	43	0	71303168	67	4800
2026-01-23 00:22:32.02	24.19	6.47	-47.8	-49.9	16.7	0.00e+00	0	43	0	72351744	67	4542
2026-01-23 00:22:33.03	24.21	6.55	-47.4	-49.4	17.2	0.00e+00	0	43	0	74448896	66	4530
2026-01-23 00:22:34.04	24.23	6.62	-47.5	-49.5	17.1	0.00e+00	0	43	0	76546048	66	4598
2026-01-23 00:22:35.05	24.25	6.70	-47.5	-49.5	17.1	0.00e+00	0	43	0	78643200	66	4579
2026-01-23 00:22:36.05	24.27	6.78	-47.3	-49.3	17.3	0.00e+00	0	43	0	80740352	66	4479
2026-01-23 00:22:37.06	24.29	6.85	-47.4	-49.4	17.3	0.00e+00	0	43	0	81788928	66	4498
2026-01-23 00:22:38.07	24.31	6.93	-47.2	-49.2	17.5	0.00e+00	0	43	0	83886080	66	4397
2026-01-23 00:22:39.08	24.33	7.01	-47.1	-49.0	17.6	0.00e+00	0	43	0	85983232	66	4312
2026-01-23 00:22:40.09	24.35	7.08	-47.0	-48.9	17.7	0.00e+00	0	43	0	88080384	65	4497
2026-01-23 00:22:41.09	24.36	7.16	-47.1	-48.9	17.7	0.00e+00	0	43	0	90177536	65	4539
2026-01-23 00:22:42.10	24.38	7.24	-47.0	-48.9	17.8	0.00e+00	0	43	0	91226112	65	4495
2026-01-23 00:22:43.11	24.40	7.31	-47.1	-48.9	17.7	0.00e+00	0	43	0	93323264	65	4541
2026-01-23 00:22:44.12	24.42	7.39	-47.0	-48.8	17.9	0.00e+00	0	43	0	95420416	65	4479
2026-01-23 00:22:45.13	24.44	7.47	-46.9	-48.7	18.0	0.00e+00	0	43	0	97517568	65	4407
2026-01-23 00:22:46.13	24.46	7.55	-46.8	-48.6	18.0	0.00e+00	0	43	0	99614720	65	4366
2026-01-23 00:22:47.14	24.48	7.63	-46.7	-48.4	18.2	0.00e+00	0	43	0	100663296	65	4273
2026-01-23 00:22:48.15	24.50	7.71	-46.8	-48.5	18.1	0.00e+00	0	43	0	102760448	65	4337
2026-01-23 00:22:49.16	24.52	7.79	-46.7	-48.4	18.2	0.00e+00	0	43	0	104857600	65	4280
2026-01-23 00:22:50.17	24.54	7.87	-46.6	-48.3	18.4	0.00e+00	0	43	0	106954752	65	4206
2026-01-23 00:22:51.17	24.56	7.95	-46.7	-48.4	18.3	0.00e+00	0	43	0	109051904	65	4272
2026-01-23 00:22:52.18	24.58	8.03	-46.7	-48.4	18.3	0.00e+00	0	43	0	110100480	65	4252
2026-01-23 00:22:53.19	24.60	8.11	-46.6	-48.3	18.4	0.00e+00	0	43	0	112197632	65	4233
2026-01-23 00:22:54.20	24.62	8.19	-46.6	-48.2	18.5	0.00e+00	0	43	0	114294784	65	4184
2026-01-23 00:22:55.21	24.64	8.27	-46.7	-48.4	18.4	0.00e+00	0	44	0	116391936	65	4247
2026-01-23 00:22:56.21	24.66	8.35	-46.7	-48.4	18.3	0.00e+00	0	44	0	118489088	65	4277
2026-01-23 00:22:57.22	24.68	8.43	-46.5	-48.1	18.6	0.00e+00	0	43	0	119537664	64	4383
2026-01-23 00:22:58.23	24.71	8.51	-46.5	-48.2	18.5	0.00e+00	0	43	0	121634816	64	4407
2026-01-23 00:22:59.23	24.73	8.59	-46.5	-48.1	18.6	0.00e+00	0	44	0	123731968	64	4379
2026-01-23 00:23:00.24	24.75	8.67	-46.4	-48.0	18.7	0.00e+00	0	44	0	125829120	64	4323
2026-01-23 00:23:01.25	24.77	8.76	-46.4	-48.0	18.7	0.00e+00	0	43	0	127926272	64	4320
2026-01-23 00:23:02.26	24.79	8.84	-46.3	-47.9	18.9	0.00e+00	0	43	0	128974848	64	4248
2026-01-23 00:23:03.27	24.81	8.92	-46.3	-47.8	18.9	0.00e+00	0	43	0	131072000	64	4229
2026-01-23 00:23:04.28	24.83	9.00	-46.2	-47.8	19.0	0.00e+00	0	43	0	133169152	64	4203
2026-01-23 00:23:05.29	24.85	9.09	-46.3	-47.9	18.9	0.00e+00	0	44	0	135266304	64	4255
2026-01-23 00:23:06.29	24.87	9.17	-46.0	-47.5	19.2	0.00e+00	0	44	0	137363456	64	4085
2026-01-23 00:23:07.30	24.90	9.26	-46.2	-47.7	19.1	0.00e+00	0	43	0	138412032	64	4162
2026-01-23 00:23:08.31	24.92	9.34	-46.2	-47.7	19.1	0.00e+00	0	44	0	140509184	64	4183
2026-01-23 00:23:09.32	24.94	9.42	-46.2	-47.7	19.0	0.00e+00	0	44	0	142606336	64	4183
2026-01-23 00:23:10.33	24.96	9.51	-46.0	-47.5	19.3	0.00e+00	0	44	0	144703488	64	4075
2026-01-23 00:23:11.33	24.98	9.59	-46.1	-47.6	19.2	0.00e+00	0	44	0	146800640	64	4107
2026-01-23 00:23:12.34	25.01	9.68	-46.1	-47.6	19.2	0.00e+00	0	44	0	147849216	64	4105
2026-01-23 00:23:13.35	25.03	9.76	-46.1	-47.5	19.3	0.00e+00	0	44	0	149946368	63	4338
2026-01-23 00:23:14.36	25.05	9.85	-46.0	-47.4	19.5	0.00e+00	0	44	0	152043520	63	4290
2026-01-23 00:23:15.37	25.07	9.94	-46.0	-47.4	19.4	0.00e+00	0	44	0	154140672	63	4283
2026-01-23 00:23:16.38	25.10	10.02	-45.9	-47.3	19.6	0.00e+00	0	44	0	156237824	63	4241
2026-01-23 00:23:17.39	25.12	10.11	-45.9	-47.3	19.5	0.00e+00	0	44	0	158334976	63	4242
2026-01-23 00:23:18.39	25.14	10.20	-45.9	-47.4	19.5	0.00e+00	0	44	0	159383552	63	4267
2026-01-23 00:23:19.40	25.16	10.29	-45.8	-47.2	19.7	0.00e+00	0	44	0	161480704	63	4182
2026-01-23 00:23:20.41	25.19	10.37	-45.8	-47.2	19.7	0.00e+00	0	44	0	163577856	63	4157
2026-01-23 00:23:21.42	25.21	10.46	-45.7	-47.1	19.8	0.00e+00	0	44	0	165675008	63	4107
2026-01-23 00:23:22.43	25.23	10.55	-45.9	-47.3	19.6	0.00e+00	0	44	0	166723584	63	4223
2026-01-23 00:23:23.43	25.26	10.64	-45.6	-47.0	19.9	0.00e+00	0	44	0	168820736	63	4066
2026-01-23 00:23:24.44	25.28	10.73	-45.7	-47.1	19.8	0.00e+00	0	44	0	170917888	63	4100
2026-01-23 00:23:25.45	25.30	10.82	-45.6	-46.9	20.0	0.00e+00	0	44	0	173015040	63	4043
2026-01-23 00:23:26.46	25.33	10.91	-45.6	-47.0	19.9	0.00e+00	0	44	0	175112192	62	4320
2026-01-23 00:23:27.47	25.35	11.00	-45.4	-46.7	20.2	0.00e+00	0	44	0	176160768	62	4193
2026-01-23 00:23:28.47	25.37	11.09	-45.5	-46.9	20.1	0.00e+00	0	44	0	178257920	62	4248
2026-01-23 00:23:29.48	25.40	11.18	-45.4	-46.8	20.1	0.00e+00	0	44	0	180355072	62	4204
2026-01-23 00:23:30.49	25.42	11.27	-45.6	-46.9	20.0	0.00e+00	0	44	0	182452224	62	4272
2026-01-23 00:23:31.50	25.45	11.36	-45.5	-46.8	20.1	0.00e+00	0	44	0	184549376	62	4222
2026-01-23 00:23:32.51	25.47	11.45	-45.5	-46.9	20.0	0.00e+00	0	44	0	186646528	62	4258
2026-01-23 00:23:33.51	25.49	11.54	-45.3	-46.7	20.3	0.00e+00	0	44	0	187695104	62	4147
2026-01-23 00:23:34.52	25.52	11.64	-45.3	-46.6	20.3	0.00e+00	0	44	0	189792256	62	4138
2026-01-23 00:23:35.53	25.54	11.73	-45.4	-46.7	20.2	0.00e+00	0	44	0	191889408	62	4178
2026-01-23 00:23:36.54	25.57	11.82	-45.2	-46.5	20.4	0.00e+00	0	44	0	193986560	62	4073
2026-01-23 00:23:37.55	25.59	11.91	-45.4	-46.8	20.2	0.00e+00	0	44	0	195035136	62	4198
2026-01-23 00:23:38.56	25.62	12.01	-45.5	-46.8	20.1	0.00e+00	0	44	0	197132288	62	4225
2026-01-23 00:23:39.57	25.64	12.10	-45.4	-46.7	20.3	0.00e+00	0	44	0	199229440	62	4162
2026-01-23 00:23:40.58	25.67	12.20	-45.3	-46.6	20.3	0.00e+00	0	44	0	201326592	62	4128
2026-01-23 00:23:41.58	25.69	12.29	-45.2	-46.5	20.4	0.00e+00	0	44	0	203423744	62	4074
2026-01-23 00:23:42.59	25.72	12.39	-45.2	-46.5	20.4	0.00e+00	0	44	0	205520896	62	4083
2026-01-23 00:23:43.60	25.75	12.48	-45.3	-46.6	20.3	0.00e+00	0	44	0	206569472	62	4140
2026-01-23 00:23:44.61	25.77	12.58	-45.3	-46.6	20.4	0.00e+00	0	44	0	208666624	62	4101
2026-01-23 00:23:45.62	25.80	12.68	-45.4	-46.7	20.3	0.00e+00	0	44	0	210763776	62	4164
2026-01-23 00:23:46.63	25.82	12.77	-45.3	-46.6	20.4	0.00e+00	0	44	0	212860928	62	4104
2026-01-23 00:23:47.64	25.85	12.87	-45.4	-46.7	20.3	0.00e+00	0	44	0	214958080	62	4152
2026-01-23 00:23:48.65	25.88	12.97	-45.4	-46.7	20.4	0.00e+00	0	44	0	216006656	62	4146
2026-01-23 00:23:49.66	25.90	13.06	-45.2	-46.5	20.5	0.00e+00	0	44	0	218103808	62	4071
2026-01-23 00:23:50.66	25.93	13.16	-45.3	-46.6	20.4	0.00e+00	0	44	0	220200960	62	4137
2026-01-23 00:23:51.67	25.96	13.26	-45.3	-46.6	20.4	0.00e+00	0	44	0	222298112	62	4131
2026-01-23 00:23:52.68	25.98	13.36	-45.3	-46.6	20.4	0.00e+00	0	44	0	224395264	62	4139
2026-01-23 00:23:53.69	26.01	13.46	-45.3	-46.6	20.4	0.00e+00	0	44	0	225443840	62	4124
2026-01-23 00:23:54.69	26.04	13.56	-45.2	-46.5	20.5	0.00e+00	0	44	0	227540992	62	4085
2026-01-23 00:23:55.70	26.07	13.66	-45.4	-46.7	20.3	0.00e+00	0	44	0	229638144	62	4148
2026-01-23 00:23:56.71	26.09	13.76	-45.4	-46.7	20.3	0.00e+00	0	44	0	231735296	62	4180
2026-01-23 00:23:57.72	26.12	13.86	-45.3	-46.6	20.4	0.00e+00	0	44	0	233832448	62	4104
2026-01-23 00:23:58.73	26.15	13.96	-45.3	-46.5	20.5	0.00e+00	0	44	0	234881024	62	4087
2026-01-23 00:23:59.73	26.18	14.06	-45.2	-46.4	20.6	0.00e+00	0	44	0	236978176	62	4039
2026-01-23 00:24:00.74	26.21	14.17	-45.2	-46.5	20.5	0.00e+00	0	44	0	239075328	62	4081
2026-01-23 00:24:01.75	26.24	14.27	-45.2	-46.5	20.5	0.00e+00	0	44	0	241172480	62	4064
2026-01-23 00:24:02.76	26.26	14.37	-45.5	-46.9	20.2	0.00e+00	0	44	0	243269632	62	4254
2026-01-23 00:24:03.77	26.29	14.48	-45.4	-46.7	20.4	0.00e+00	0	44	0	244318208	62	4171
2026-01-23 00:24:04.77	26.32	14.58	-45.2	-46.5	20.6	0.00e+00	0	44	0	246415360	62	4057
2026-01-23 00:24:05.78	26.35	14.68	-45.0	-46.3	20.7	0.00e+00	0	44	0	248512512	62	3968
2026-01-23 00:24:06.79	26.38	14.79	-45.3	-46.5	20.6	0.00e+00	0	44	0	250609664	62	4076
2026-01-23 00:24:07.80	26.41	14.90	-45.1	-46.4	20.6	0.00e+00	0	44	0	252706816	62	4014
2026-01-23 00:24:08.80	26.44	15.00	-45.3	-46.5	20.5	0.00e+00	0	44	0	253755392	62	4097
2026-01-23 00:24:09.81	26.47	15.11	-45.3	-46.6	20.4	0.00e+00	0	44	0	255852544	62	4121
2026-01-23 00:24:10.82	26.50	15.21	-45.4	-46.6	20.5	0.00e+00	0	44	0	257949696	62	4136
2026-01-23 00:24:11.83	26.53	15.32	-45.2	-46.5	20.6	0.00e+00	0	44	0	260046848	62	4059
2026-01-23 00:24:12.84	26.56	15.43	-45.3	-46.5	20.3	0.00e+00	0	44	0	262144000	62	4096
2026-01-23 00:24:13.85	26.59	15.54	-45.4	-46.7	20.4	0.00e+00	0	44	0	263192576	62	4153
2026-01-23 00:24:14.85	26.62	15.65	-45.5	-46.8	20.3	0.00e+00	0	44	0	265289728	62	4226
2026-01-23 00:24:15.86	26.65	15.75	-45.6	-46.9	20.2	0.00e+00	0	44	0	267386880	62	4284
2026-01-23 00:24:16.87	26.68	15.86	-45.7	-47.0	20.1	0.00e+00	0	44	0	269484032	62	4321
2026-01-23 00:24:17.88	26.72	15.98	-45.8	-47.1	20.0	0.00e+00	0	44	0	271581184	62	4369
2026-01-23 00:24:18.89	26.75	16.09	-45.9	-47.3	19.9	0.00e+00	0	44	0	273678336	62	4472
2026-01-23 00:24:19.90	26.78	16.20	-45.8	-47.2	20.0	0.00e+00	0	44	0	274726912	62	4397
2026-01-23 00:24:20.91	26.81	16.31	-45.8	-47.2	20.0	0.00e+00	0	44	0	276824064	62	4410
2026-01-23 00:24:21.92	26.84	16.42	-45.9	-47.2	19.9	0.00e+00	0	44	0	278921216	62	4429
2026-01-23 00:24:22.93	26.88	16.53	-46.0	-47.4	19.8	0.00e+00	0	44	0	281018368	62	4512
2026-01-23 00:24:23.94	26.91	16.65	-46.0	-47.3	19.8	0.00e+00	0	44	0	282066944	62	4493
2026-01-23 00:24:24.95	26.94	16.76	-45.9	-47.2	19.9	0.00e+00	0	44	0	284164096	62	4428
2026-01-23 00:24:25.95	26.97	16.87	-46.1	-47.5	19.7	0.00e+00	0	44	0	286261248	62	4575
2026-01-23 00:24:26.96	27.01	16.99	-46.0	-47.4	19.8	0.00e+00	0	44	0	288358400	62	4536
2026-01-23 00:24:27.97	27.04	17.11	-46.1	-47.5	19.7	0.00e+00	0	44	0	290455552	62	4564
2026-01-23 00:24:28.98	27.07	17.22	-46.1	-47.5	19.7	0.00e+00	0	44	0	292552704	62	4552
2026-01-23 00:24:29.99	27.11	17.34	-45.9	-47.3	19.9	0.00e+00	0	44	0	293601280	62	4445
2026-01-23 00:24:31.00	27.14	17.45	-46.0	-47.3	19.8	0.00e+00	0	44	0	295698432	62	4488
2026-01-23 00:24:32.01	27.18	17.57	-46.1	-47.5	19.7	0.00e+00	0	44	0	297795584	62	4560
2026-01-23 00:24:33.01	27.21	17.69	-46.1	-47.4	19.8	0.00e+00	0	44	0	299892736	62	4543
2026-01-23 00:24:34.02	27.25	17.81	-46.2	-47.6	19.6	0.00e+00	0	44	0	301989888	63	4388
2026-01-23 00:24:35.03	27.28	17.93	-46.3	-47.7	19.5	0.00e+00	0	44	0	303038464	63	4441
2026-01-23 00:24:36.04	27.32	18.05	-46.6	-48.1	19.1	0.00e+00	0	44	0	305135616	63	4650
2026-01-23 00:24:37.05	27.35	18.17	-46.4	-47.8	19.5	0.00e+00	0	44	0	307232768	63	4479
2026-01-23 00:24:38.05	27.39	18.29	-46.3	-47.7	19.5	0.00e+00	0	44	0	309329920	63	4437
2026-01-23 00:24:39.06	27.42	18.41	-46.3	-47.8	19.5	0.00e+00	0	44	0	310378496	63	4450
2026-01-23 00:24:40.07	27.46	18.53	-46.5	-48.0	19.3	0.00e+00	0	44	0	312475648	63	4561
2026-01-23 00:24:41.08	27.50	18.66	-46.5	-48.0	19.3	0.00e+00	0	44	0	314572800	63	4566
2026-01-23 00:24:42.09	27.53	18.78	-46.6	-48.1	19.2	0.00e+00	0	44	0	316669952	63	4638
2026-01-23 00:24:43.09	27.57	18.90	-46.4	-47.9	19.3	0.00e+00	0	44	0	318767104	64	4262
2026-01-23 00:24:44.10	27.61	19.03	-46.4	-47.9	19.4	0.00e+00	0	44	0	320864256	64	4250
2026-01-23 00:24:45.11	27.65	19.15	-46.6	-48.1	19.1	0.00e+00	0	44	0	321912832	64	4356
2026-01-23 00:24:46.12	27.68	19.28	-46.4	-47.9	19.3	0.00e+00	0	44	0	324009984	64	4255
2026-01-23 00:24:47.13	27.72	19.40	-46.4	-47.9	19.4	0.00e+00	0	44	0	326107136	64	4243
2026-01-23 00:24:48.13	27.76	19.53	-46.2	-47.6	19.6	0.00e+00	0	44	0	328204288	64	4119
2026-01-23 00:24:49.14	27.80	19.66	-46.3	-47.8	19.5	0.00e+00	0	44	0	330301440	64	4197
2026-01-23 00:24:50.15	27.84	19.79	-46.1	-47.5	19.8	0.00e+00	0	44	0	331350016	63	4318
2026-01-23 00:24:51.16	27.88	19.92	-46.0	-47.4	19.9	0.00e+00	0	44	0	333447168	63	4251
2026-01-23 00:24:52.17	27.92	20.05	-46.1	-47.5	19.7	0.00e+00	0	44	0	335544320	63	4331
2026-01-23 00:24:53.18	27.96	20.18	-46.2	-47.6	19.7	0.00e+00	0	44	0	337641472	63	4348
2026-01-23 00:24:54.19	28.00	20.31	-46.1	-47.5	19.7	0.00e+00	0	44	0	339738624	63	4334
2026-01-23 00:24:55.19	28.04	20.44	-46.3	-47.7	19.6	0.00e+00	0	44	0	340787200	63	4413
2026-01-23 00:24:56.20	28.08	20.57	-46.3	-47.7	19.6	0.00e+00	0	44	0	342884352	63	4426
2026-01-23 00:24:57.21	28.12	20.70	-46.1	-47.5	19.8	0.00e+00	0	44	0	344981504	63	4330
2026-01-23 00:24:58.22	28.16	20.84	-46.4	-47.9	19.4	0.00e+00	0	44	0	347078656	63	4520
2026-01-23 00:24:59.23	28.21	20.97	-46.4	-47.9	19.4	0.00e+00	0	44	0	349175808	63	4513
2026-01-23 00:25:00.23	28.25	21.11	-46.4	-47.9	19.5	0.00e+00	0	44	0	350224384	63	4518
2026-01-23 00:25:01.24	28.29	21.24	-46.5	-47.9	19.4	0.00e+00	0	44	0	352321536	63	4541
2026-01-23 00:25:02.25	28.33	21.38	-46.7	-48.3	19.1	0.00e+00	0	44	0	354418688	63	4714
2026-01-23 00:25:03.26	28.38	21.52	-46.3	-47.8	19.4	0.00e+00	0	44	0	356515840	64	4226
2026-01-23 00:25:04.27	28.42	21.66	-46.3	-47.8	19.4	0.00e+00	0	44	0	358612992	64	4236
2026-01-23 00:25:05.27	28.46	21.79	-46.5	-48.1	19.2	0.00e+00	0	44	0	359661568	64	4345
2026-01-23 00:25:06.28	28.51	21.93	-46.4	-47.9	19.4	0.00e+00	0	44	0	361758720	64	4244
2026-01-23 00:25:07.29	28.55	22.07	-46.4	-47.9	19.4	0.00e+00	0	44	0	363855872	64	4258
2026-01-23 00:25:08.30	28.60	22.21	-46.5	-48.0	19.3	0.00e+00	0	44	0	365953024	64	4318
2026-01-23 00:25:09.30	28.64	22.36	-46.4	-47.9	19.3	0.00e+00	0	44	0	368050176	64	4267
2026-01-23 00:25:10.31	28.69	22.50	-46.4	-48.0	19.3	0.00e+00	0	44	0	369098752	64	4304
2026-01-23 00:25:11.32	28.73	22.64	-46.6	-48.1	19.2	0.00e+00	0	44	0	371195904	64	4369
2026-01-23 00:25:12.33	28.78	22.79	-46.2	-47.7	19.6	0.00e+00	0	44	0	373293056	64	4177
2026-01-23 00:25:13.33	28.83	22.93	-46.4	-47.9	19.4	0.00e+00	0	44	0	375390208	64	4253
2026-01-23 00:25:14.34	28.87	23.08	-46.2	-47.7	19.6	0.00e+00	0	44	0	377487360	64	4172
2026-01-23 00:25:15.35	28.92	23.22	-46.3	-47.8	19.5	0.00e+00	0	44	0	378535936	64	4216
2026-01-23 00:25:16.36	28.97	23.37	-46.3	-47.7	19.6	0.00e+00	0	44	0	380633088	64	4182
2026-01-23 00:25:17.37	29.02	23.52	-46.2	-47.7	19.6	0.00e+00	0	44	0	382730240	64	4164
2026-01-23 00:25:18.37	29.07	23.67	-46.0	-47.3	20.0	0.00e+00	0	44	0	384827392	63	4236
2026-01-23 00:25:19.38	29.12	23.82	-46.0	-47.3	20.0	0.00e+00	0	44	0	386924544	63	4237
2026-01-23 00:25:20.39	29.17	23.97	-45.9	-47.3	20.1	0.00e+00	0	44	0	387973120	63	4196
2026-01-23 00:25:21.40	29.22	24.12	-46.0	-47.3	20.0	0.00e+00	0	44	0	390070272	63	4236
2026-01-23 00:25:22.41	29.27	24.27	-45.7	-46.9	20.4	0.00e+00	0	44	0	392167424	62	4289
2026-01-23 00:25:23.41	29.32	24.43	-45.5	-46.7	20.5	0.00e+00	0	44	0	394264576	62	4183
2026-01-23 00:25:24.42	29.37	24.58	-45.3	-46.5	20.8	0.00e+00	0	44	0	396361728	62	4063
2026-01-23 00:25:25.43	29.42	24.74	-45.4	-46.6	20.6	0.00e+00	0	44	0	397410304	62	4143
2026-01-23 00:25:26.44	29.47	24.89	-45.3	-46.5	20.8	0.00e+00	0	44	0	399507456	62	4084
2026-01-23 00:25:27.45	29.53	25.05	-45.3	-46.5	20.8	0.00e+00	0	44	0	401604608	62	4064
2026-01-23 00:25:28.46	29.58	25.21	-45.6	-46.8	20.5	0.00e+00	0	44	0	403701760	62	4236
2026-01-23 00:25:29.47	29.64	25.37	-45.3	-46.6	20.8	0.00e+00	0	44	0	405798912	62	4104
2026-01-23 00:25:30.47	29.69	25.52	-45.6	-46.9	20.5	0.00e+00	0	44	0	407896064	62	4257
2026-01-23 00:25:31.48	29.74	25.69	-45.3	-46.6	20.7	0.00e+00	0	44	0	408944640	62	4102
2026-01-23 00:25:32.49	29.80	25.85	-45.4	-46.6	20.7	0.00e+00	0	44	0	411041792	62	4108
2026-01-23 00:25:33.50	29.86	26.01	-45.2	-46.4	20.9	0.00e+00	0	44	0	413138944	62	4035
2026-01-23 00:25:34.50	29.91	26.17	-45.2	-46.4	20.9	0.00e+00	0	44	0	415236096	62	4035
2026-01-23 00:25:35.51	29.97	26.34	-45.3	-46.5	20.9	0.00e+00	0	44	0	416284672	62	4057
2026-01-23 00:25:36.53	30.03	26.51	-45.1	-46.3	21.0	0.00e+00	0	44	0	418381824	61	4217
2026-01-23 00:25:37.53	30.09	26.67	-45.0	-46.2	21.1	0.00e+00	0	44	0	420478976	61	4147
2026-01-23 00:25:38.54	30.14	26.84	-45.3	-46.5	20.8	0.00e+00	0	44	0	422576128	61	4303
2026-01-23 00:25:39.55	30.20	27.01	-45.2	-46.4	21.0	0.00e+00	0	44	0	424673280	61	4245
2026-01-23 00:25:40.56	30.26	27.18	-45.3	-46.4	20.8	0.00e+00	0	44	0	425721856	61	4290
2026-01-23 00:25:41.57	30.32	27.35	-45.3	-46.5	20.8	0.00e+00	0	44	0	427819008	61	4317
2026-01-23 00:25:42.57	30.39	27.52	-45.2	-46.4	20.9	0.00e+00	0	44	0	429916160	61	4274
2026-01-23 00:25:43.58	30.45	27.69	-45.1	-46.3	21.0	0.00e+00	0	44	0	432013312	61	4215
2026-01-23 00:25:44.59	30.51	27.87	-45.4	-46.5	20.8	0.00e+00	0	44	0	434110464	61	4338
2026-01-23 00:25:45.60	30.57	28.04	-45.2	-46.4	20.9	0.00e+00	0	44	0	436207616	61	4269
2026-01-23 00:25:46.61	30.64	28.22	-45.0	-46.1	21.1	0.00e+00	0	44	0	437256192	61	4132
2026-01-23 00:25:47.62	30.70	28.39	-45.2	-46.4	20.9	0.00e+00	0	44	0	439353344	61	4280
2026-01-23 00:25:48.62	30.77	28.57	-45.4	-46.7	20.7	0.00e+00	0	44	0	441450496	61	4401
2026-01-23 00:25:49.63	30.83	28.75	-45.1	-46.3	21.0	0.00e+00	0	44	0	443547648	61	4212
2026-01-23 00:25:50.64	30.90	28.93	-45.3	-46.5	20.8	0.00e+00	0	44	0	444596224	61	4321
2026-01-23 00:25:51.65	30.97	29.11	-45.2	-46.4	20.8	0.00e+00	0	44	0	446693376	61	4288
2026-01-23 00:25:52.66	31.03	29.30	-45.6	-46.9	20.5	0.00e+00	0	44	0	448790528	61	4537
2026-01-23 00:25:53.67	31.10	29.48	-45.8	-47.1	20.4	0.00e+00	0	44	0	450887680	62	4357
2026-01-23 00:25:54.68	31.17	29.67	-46.1	-47.5	20.0	0.00e+00	0	44	0	452984832	62	4574
2026-01-23 00:25:55.69	31.24	29.85	-46.2	-47.6	19.9	0.00e+00	0	44	0	455081984	62	4617
2026-01-23 00:25:56.69	31.31	30.04	-46.1	-47.5	20.0	0.00e+00	0	44	0	456130560	62	4557
2026-01-23 00:25:57.70	31.38	30.23	-46.3	-47.8	19.7	0.00e+00	0	44	0	458227712	63	4453
2026-01-23 00:25:58.71	31.46	30.42	-46.2	-47.6	19.9	0.00e+00	0	44	0	460324864	63	4363
2026-01-23 00:25:59.72	31.53	30.61	-46.1	-47.5	20.0	0.00e+00	0	44	0	462422016	63	4319
2026-01-23 00:26:00.73	31.60	30.80	-46.3	-47.7	19.8	0.00e+00	0	44	0	464519168	63	4440
2026-01-23 00:26:01.73	31.68	30.99	-46.5	-47.9	19.5	0.00e+00	0	44	0	465567744	63	4534
2026-01-23 00:26:02.74	31.75	31.19	-46.8	-48.3	19.1	0.00e+00	0	44	0	467664896	64	4489
2026-01-23 00:26:03.75	31.83	31.38	-46.8	-48.4	19.2	0.00e+00	0	44	0	469762048	64	4497
2026-01-23 00:26:04.76	31.91	31.58	-47.2	-48.8	18.8	0.00e+00	0	44	0	471859200	64	4727
2026-01-23 00:26:05.77	31.99	31.78	-47.4	-49.0	18.5	0.00e+00	0	44	0	472907776	65	4582
2026-01-23 00:26:06.77	32.06	31.98	-47.4	-49.1	18.4	0.00e+00	0	44	0	475004928	65	4643
2026-01-23 00:26:07.78	32.14	32.18	-47.5	-49.2	18.4	0.00e+00	0	44	0	477102080	66	4405
2026-01-23 00:26:08.79	32.23	32.38	-47.6	-49.4	18.2	0.00e+00	0	44	0	479199232	66	4513
2026-01-23 00:26:09.80	32.31	32.59	-47.9	-49.7	17.9	0.00e+00	0	44	0	481296384	66	4652
2026-01-23 00:26:10.81	32.39	32.79	-47.6	-49.3	18.2	0.00e+00	0	44	0	483393536	66	4481
2026-01-23 00:26:11.81	32.47	33.00	-47.8	-49.6	18.1	0.00e+00	0	44	0	484442112	66	4617
2026-01-23 00:26:12.82	32.56	33.21	-48.0	-49.8	17.7	0.00e+00	0	44	0	486539264	67	4472
2026-01-23 00:26:13.83	32.65	33.42	-47.6	-49.3	18.3	0.00e+00	0	44	0	488636416	67	4220
2026-01-23 00:26:14.84	32.73	33.63	-47.8	-49.5	18.0	0.00e+00	0	44	0	490733568	67	4335
2026-01-23 00:26:15.85	32.82	33.84	-47.4	-49.0	18.6	0.00e+00	0	44	0	492830720	66	4320
2026-01-23 00:26:16.85	32.91	34.05	-47.3	-48.9	18.7	0.00e+00	0	44	0	493879296	65	4503
2026-01-23 00:26:17.86	33.00	34.26	-47.0	-48.6	18.9	0.00e+00	0	44	0	495976448	65	4354
2026-01-23 00:26:18.87	33.09	34.48	-46.4	-47.8	19.7	0.00e+00	0	44	0	498073600	64	4219
2026-01-23 00:26:19.88	33.18	34.70	-46.6	-48.0	19.4	0.00e+00	0	44	0	500170752	64	4319
2026-01-23 00:26:20.89	33.28	34.92	-46.3	-47.6	19.8	0.00e+00	0	44	0	502267904	64	4131
2026-01-23 00:26:21.90	33.37	35.14	-46.2	-47.5	19.9	0.00e+00	0	44	0	503316480	64	4085
2026-01-23 00:26:22.90	33.47	35.36	-46.2	-47.5	20.0	0.00e+00	0	44	0	505413632	64	4086
2026-01-23 00:26:23.91	33.57	35.58	-46.2	-47.5	19.9	0.00e+00	0	44	0	507510784	64	4096
2026-01-23 00:26:24.92	33.67	35.81	-46.9	-48.4	19.1	0.00e+00	0	44	0	509607936	64	4531
2026-01-23 00:26:25.93	33.77	36.04	-46.9	-48.4	19.1	0.00e+00	0	44	0	511705088	64	4498
2026-01-23 00:26:26.94	33.87	36.26	-47.6	-49.4	18.3	0.00e+00	0	44	0	512753664	65	4784
2026-01-23 00:26:27.95	33.97	36.49	-47.2	-48.8	18.8	0.00e+00	0	44	0	514850816	66	4225
2026-01-23 00:26:28.96	34.08	36.73	-47.8	-49.6	18.2	0.00e+00	0	44	0	516947968	66	4641
2026-01-23 00:26:29.97	34.18	36.96	-48.2	-50.1	17.6	0.00e+00	0	44	0	519045120	67	4623
2026-01-23 00:26:30.98	34.29	37.19	-48.3	-50.3	17.4	0.00e+00	0	44	0	521142272	67	4725
2026-01-23 00:26:31.99	34.40	37.43	-48.4	-50.4	17.3	0.00e+00	0	44	0	523239424	67	4770
2026-01-23 00:26:32.99	34.51	37.67	-48.1	-50.0	17.7	0.00e+00	0	44	0	524288000	67	4582
2026-01-23 00:26:34.00	34.62	37.90	-48.0	-49.9	17.8	0.00e+00	0	45	0	526385152	67	4520
2026-01-23 00:26:35.01	34.73	38.15	-47.5	-49.1	18.7	0.00e+00	0	44	0	528482304	66	4366
2026-01-23 00:26:36.02	34.85	38.39	-47.8	-49.5	18.2	0.00e+00	0	44	0	530579456	66	4597
2026-01-23 00:26:37.03	34.97	38.63	-47.8	-49.5	18.1	0.00e+00	0	44	0	531628032	66	4576
2026-01-23 00:26:38.04	35.09	38.88	-47.3	-48.9	18.8	0.00e+00	0	44	0	533725184	65	4494
2026-01-23 00:26:39.05	35.21	39.13	-47.8	-49.5	18.2	0.00e+00	0	44	0	535822336	66	4598
2026-01-23 00:26:40.06	35.33	39.37	-48.1	-49.9	17.9	0.00e+00	0	44	0	537919488	67	4494
2026-01-23 00:26:41.07	35.45	39.63	-48.8	-50.8	17.0	0.00e+00	0	45	0	540016640	68	4723
2026-01-23 00:26:42.07	35.58	39.88	-49.0	-51.1	16.7	0.00e+00	0	45	0	542113792	68	4878
2026-01-23 00:26:43.08	35.70	40.13	-49.1	-51.2	16.7	0.00e+00	0	44	0	543162368	69	4673
2026-01-23 00:26:44.09	35.83	40.39	-49.5	-51.8	16.0	0.00e+00	0	44	0	545259520	69	5007
2026-01-23 00:26:45.10	35.97	40.64	-49.4	-51.7	16.2	0.00e+00	0	44	0	547356672	69	4978
2026-01-23 00:26:46.11	36.10	40.90	-49.2	-51.3	16.5	0.00e+00	0	44	0	549453824	69	4748
2026-01-23 00:26:47.11	36.23	41.16	-48.9	-50.9	16.9	0.00e+00	0	44	0	551550976	69	4510
2026-01-23 00:26:48.12	36.37	41.42	-49.1	-51.3	16.6	0.00e+00	0	45	0	552599552	69	4717
2026-01-23 00:26:49.13	36.51	41.69	-48.2	-50.0	17.8	0.00e+00	0	45	0	554696704	68	4329
2026-01-23 00:26:50.14	36.65	41.95	-47.9	-49.7	18.1	0.00e+00	0	44	0	556793856	67	4392
2026-01-23 00:26:51.15	36.80	42.22	-47.8	-49.6	18.3	0.00e+00	0	44	0	558891008	67	4352
2026-01-23 00:26:52.15	36.95	42.49	-47.8	-49.5	18.2	0.00e+00	0	45	0	559939584	67	4325
2026-01-23 00:26:53.16	37.09	42.76	-47.6	-49.3	18.4	0.00e+00	0	45	0	562036736	67	4233
2026-01-23 00:26:54.17	37.25	43.03	-47.3	-48.9	18.8	0.00e+00	0	44	0	564133888	66	4262
2026-01-23 00:26:55.18	37.40	43.31	-47.5	-49.2	18.5	0.00e+00	0	44	0	566231040	66	4415
2026-01-23 00:26:56.19	37.56	43.59	-47.6	-49.3	18.6	0.00e+00	0	45	0	568328192	66	4465
2026-01-23 00:26:57.19	37.72	43.86	-47.6	-49.3	18.4	0.00e+00	0	44	0	570425344	66	4478
2026-01-23 00:26:58.20	37.88	44.14	-48.2	-50.1	17.7	0.00e+00	0	45	0	571473920	67	4641
2026-01-23 00:26:59.21	38.04	44.42	-49.1	-51.4	16.6	0.00e+00	0	45	0	573571072	68	5044
2026-01-23 00:27:00.22	38.21	44.71	-49.2	-51.5	16.4	0.00e+00	0	45	0	575668224	69	4821
2026-01-23 00:27:01.23	38.38	44.99	-48.9	-51.0	17.0	0.00e+00	0	45	0	577765376	69	4581
2026-01-23 00:27:02.24	38.56	45.28	-48.6	-50.5	17.4	0.00e+00	0	44	0	579862528	69	4335
2026-01-23 00:27:03.24	38.73	45.57	-48.2	-50.1	17.7	0.00e+00	0	44	0	580911104	68	4376
2026-01-23 00:27:04.25	38.91	45.86	-48.1	-49.9	18.1	0.00e+00	0	44	0	583008256	68	4255
2026-01-23 00:27:05.26	39.10	46.15	-47.8	-49.5	18.3	0.00e+00	0	44	0	585105408	67	4304
2026-01-23 00:27:06.27	39.29	46.45	-47.7	-49.4	18.1	0.00e+00	0	45	0	587202560	67	4290
2026-01-23 00:27:07.27	39.47	46.74	-48.0	-49.8	18.0	0.00e+00	0	45	0	589299712	66	4731
2026-01-23 00:27:08.28	39.67	47.04	-48.1	-49.9	17.8	0.00e+00	0	45	0	590348288	66	4808
2026-01-23 00:27:09.29	39.87	47.34	-48.1	-49.9	17.9	0.00e+00	0	44	0	592445440	67	4542
2026-01-23 00:27:10.30	40.07	47.64	-47.8	-49.5	18.2	0.00e+00	0	44	0	594542592	67	4335
2026-01-23 00:27:11.31	40.27	47.94	-47.7	-49.4	18.3	0.00e+00	0	45	0	596639744	67	4264
2026-01-23 00:27:12.31	40.48	48.25	-47.7	-49.4	18.4	0.00e+00	0	44	0	598736896	66	4535
2026-01-23 00:27:13.32	40.69	48.55	-47.2	-48.7	19.0	0.00e+00	0	44	0	599785472	66	4187
2026-01-23 00:27:14.33	40.91	48.86	-46.5	-47.9	19.5	0.00e+00	0	45	0	601882624	65	4023
2026-01-23 00:27:15.34	41.13	49.17	-46.2	-47.5	20.1	0.00e+00	0	44	0	603979776	64	4073
2026-01-23 00:27:16.35	41.36	49.48	-45.7	-46.9	20.7	0.00e+00	0	45	0	606076928	63	4042
2026-01-23 00:27:17.35	41.59	49.80	-45.7	-46.9	20.8	0.00e+00	0	45	0	608174080	62	4281
2026-01-23 00:27:18.36	41.83	50.11	-45.7	-46.9	20.8	0.00e+00	0	45	0	609222656	62	4249
2026-01-23 00:27:19.37	42.07	50.43	-45.7	-47.0	20.7	0.00e+00	0	45	0	611319808	62	4292
2026-01-23 00:27:20.38	42.31	50.75	-45.5	-46.7	21.0	0.00e+00	0	44	0	613416960	62	4169
2026-01-23 00:27:21.39	42.56	51.07	-45.4	-46.6	21.0	0.00e+00	0	45	0	615514112	62	4100
2026-01-23 00:27:22.40	42.82	51.39	-44.6	-45.7	21.8	0.00e+00	0	44	0	617611264	61	3923
2026-01-23 00:27:23.41	43.08	51.72	-44.7	-45.8	21.7	0.00e+00	0	45	0	618659840	60	4211
2026-01-23 00:27:24.41	43.35	52.04	-44.7	-45.8	21.6	0.00e+00	0	45	0	620756992	60	4225
2026-01-23 00:27:25.42	43.62	52.37	-45.1	-46.3	21.3	0.00e+00	0	44	0	622854144	60	4490
2026-01-23 00:27:26.43	43.90	52.69	-45.3	-46.5	21.1	0.00e+00	0	44	0	624951296	61	4298
2026-01-23 00:27:27.44	44.19	53.02	-45.0	-46.2	21.3	0.00e+00	0	44	0	627048448	61	4168
2026-01-23 00:27:28.45	44.48	53.36	-44.5	-45.6	21.9	0.00e+00	0	45	0	628097024	61	3897
2026-01-23 00:27:29.46	44.78	53.69	-43.8	-44.8	22.8	0.00e+00	0	44	0	630194176	59	3973
2026-01-23 00:27:30.47	45.08	54.02	-43.4	-44.3	23.2	0.00e+00	0	44	0	632291328	58	3974
2026-01-23 00:27:31.47	45.39	54.36	-43.3	-44.3	23.1	0.00e+00	0	45	0	634388480	58	3987
2026-01-23 00:27:32.48	45.71	54.69	-43.7	-44.7	22.8	0.00e+00	0	44	0	636485632	58	4187
2026-01-23 00:27:33.49	46.04	55.03	-43.8	-44.8	22.8	0.00e+00	0	44	0	637534208	58	4240
2026-01-23 00:27:34.50	46.38	55.37	-44.1	-45.2	22.5	0.00e+00	0	44	0	639631360	58	4400
2026-01-23 00:27:35.51	46.72	55.71	-43.6	-44.6	22.9	0.00e+00	0	44	0	641728512	58	4112
2026-01-23 00:27:36.52	47.07	56.06	-44.1	-45.1	22.4	0.00e+00	0	44	0	643825664	58	4376
2026-01-23 00:27:37.52	47.43	56.40	-44.2	-45.2	22.5	0.00e+00	0	44	0	645922816	59	4172
2026-01-23 00:27:38.53	47.80	56.74	-44.1	-45.1	22.5	0.00e+00	0	44	0	646971392	59	4120
2026-01-23 00:27:39.54	48.18	57.09	-43.8	-44.8	22.8	0.00e+00	0	44	0	649068544	59	3980
2026-01-23 00:27:40.55	48.56	57.43	-44.1	-45.2	22.6	0.00e+00	0	44	0	651165696	59	4146
2026-01-23 00:27:41.55	48.96	57.78	-44.2	-45.2	22.4	0.00e+00	0	44	0	653262848	59	4191
2026-01-23 00:27:42.56	49.37	58.12	-44.5	-45.6	22.0	0.00e+00	0	44	0	655360000	60	4104
2026-01-23 00:27:43.57	49.79	58.47	-44.3	-45.4	22.0	0.00e+00	0	45	0	656408576	60	4026
2026-01-23 00:27:44.58	50.22	58.82	-44.5	-45.6	22.1	0.00e+00	0	44	0	658505728	59	4382
2026-01-23 00:27:45.59	50.66	59.17	-43.9	-45.0	22.7	0.00e+00	0	44	0	660602880	59	4053
2026-01-23 00:27:46.60	51.11	59.52	-43.3	-44.3	23.2	0.00e+00	0	44	0	662700032	58	3986
2026-01-23 00:27:47.61	51.58	59.87	-43.1	-44.1	23.5	0.00e+00	0	44	0	664797184	58	3872
2026-01-23 00:27:48.62	52.05	60.22	-43.2	-44.1	23.4	0.00e+00	0	44	0	665845760	57	4127
2026-01-23 00:27:49.62	52.54	60.57	-43.1	-44.1	23.4	0.00e+00	0	44	0	667942912	57	4111
2026-01-23 00:27:50.63	53.05	60.92	-43.7	-44.8	22.8	0.00e+00	0	44	0	670040064	58	4196
2026-01-23 00:27:51.64	53.57	61.27	-43.7	-44.7	22.7	0.00e+00	0	44	0	672137216	58	4158
2026-01-23 00:27:52.65	54.10	61.62	-43.4	-44.3	23.1	0.00e+00	0	44	0	674234368	58	3998
2026-01-23 00:27:53.66	54.65	61.98	-43.1	-44.0	23.4	0.00e+00	0	44	0	675282944	58	3835
2026-01-23 00:27:54.67	55.21	62.33	-43.3	-44.2	23.3	0.00e+00	0	44	0	677380096	58	3957
2026-01-23 00:27:55.67	55.79	62.67	-43.8	-44.8	22.9	0.00e+00	0	44	0	679477248	58	4196
2026-01-23 00:27:56.68	56.39	63.02	-44.0	-45.0	22.7	0.00e+00	0	44	0	681574400	58	4339
2026-01-23 00:27:57.69	57.00	63.37	-44.3	-45.3	22.4	0.00e+00	0	44	0	683671552	59	4217
2026-01-23 00:27:58.70	57.64	63.72	-44.8	-45.9	21.7	0.00e+00	0	44	0	685768704	60	4264
2026-01-23 00:27:59.71	58.29	64.06	-45.5	-46.7	21.0	0.00e+00	0	44	0	686817280	61	4433
2026-01-23 00:28:00.72	58.96	64.40	-45.6	-46.8	21.0	0.00e+00	0	44	0	688914432	61	4477
2026-01-23 00:28:01.73	59.66	64.75	-44.9	-46.0	21.6	0.00e+00	0	44	0	691011584	61	4064
2026-01-23 00:28:02.73	60.36	65.08	-44.5	-45.6	22.0	0.00e+00	0	44	0	693108736	60	4106
2026-01-23 00:28:03.74	61.10	65.42	-44.9	-46.0	21.5	0.00e+00	0	44	0	694157312	60	4313
2026-01-23 00:28:04.75	61.86	65.76	-45.4	-46.6	21.1	0.00e+00	0	44	0	696254464	61	4357
2026-01-23 00:28:05.76	62.64	66.09	-45.7	-46.9	20.8	0.00e+00	0	44	0	698351616	62	4257
2026-01-23 00:28:06.77	63.45	66.42	-45.6	-46.8	20.9	0.00e+00	0	44	0	700448768	62	4201
2026-01-23 00:28:07.78	64.28	66.75	-45.9	-47.1	20.7	0.00e+00	0	44	0	702545920	62	4366
2026-01-23 00:28:08.79	65.13	67.08	-46.3	-47.7	20.2	0.00e+00	0	44	0	704643072	63	4408
2026-01-23 00:28:09.79	66.01	67.40	-46.5	-47.9	19.9	0.00e+00	0	44	0	705691648	64	4256
2026-01-23 00:28:10.80	66.92	67.71	-46.1	-47.4	20.2	0.00e+00	0	44	0	707788800	64	4034
2026-01-23 00:28:11.81	67.86	68.03	-46.2	-47.5	20.2	0.00e+00	0	44	0	709885952	63	4311
2026-01-23 00:28:12.82	68.83	68.34	-46.7	-48.2	19.7	0.00e+00	0	44	0	711983104	64	4399
2026-01-23 00:28:13.83	69.83	68.64	-46.8	-48.3	19.4	0.00e+00	0	44	0	714080256	64	4486
2026-01-23 00:28:14.83	70.85	68.94	-46.4	-47.7	20.0	0.00e+00	0	44	0	715128832	64	4173
2026-01-23 00:28:15.84	71.91	69.23	-46.0	-47.2	20.5	0.00e+00	0	44	0	717225984	63	4192
2026-01-23 00:28:16.85	73.00	69.52	-46.3	-47.5	20.3	0.00e+00	0	44	0	719323136	63	4311
2026-01-23 00:28:17.86	74.13	69.80	-46.5	-47.7	20.2	0.00e+00	0	44	0	721420288	63	4436
2026-01-23 00:28:18.87	75.29	70.08	-46.1	-47.3	20.4	0.00e+00	0	44	0	722468864	63	4234
2026-01-23 00:28:19.88	76.48	70.34	-46.5	-47.8	20.1	0.00e+00	0	45	0	724566016	63	4462
2026-01-23 00:28:20.89	77.71	70.60	-48.1	-50.0	17.9	0.00e+00	0	44	0	726663168	66	4832
2026-01-23 00:28:21.89	78.96	70.86	-48.5	-50.5	17.5	0.00e+00	0	44	0	728760320	68	4552
2026-01-23 00:28:22.90	80.26	71.10	-47.6	-49.2	18.5	0.00e+00	0	44	0	730857472	67	4192
2026-01-23 00:28:23.91	81.59	71.34	-47.5	-49.1	18.7	0.00e+00	0	44	0	732954624	66	4349
2026-01-23 00:28:24.92	82.96	71.56	-47.9	-49.7	18.2	0.00e+00	0	44	0	734003200	66	4658
2026-01-23 00:28:25.93	84.37	71.78	-47.1	-48.6	19.2	0.00e+00	0	44	0	736100352	65	4381
2026-01-23 00:28:26.94	85.81	71.99	-46.1	-47.4	20.4	0.00e+00	0	44	0	738197504	63	4245
2026-01-23 00:28:27.95	87.28	72.18	-46.6	-47.9	19.8	0.00e+00	0	44	0	740294656	63	4532
2026-01-23 00:28:28.95	88.77	72.37	-46.7	-48.1	19.7	0.00e+00	0	44	0	742391808	64	4376
2026-01-23 00:28:29.96	90.31	72.54	-46.0	-47.2	20.6	0.00e+00	0	44	0	743440384	63	4151
2026-01-23 00:28:30.97	91.89	72.70	-45.4	-46.5	21.1	0.00e+00	0	44	0	745537536	62	4085
2026-01-23 00:28:31.98	93.49	72.85	-45.4	-46.6	21.1	0.00e+00	0	44	0	747634688	62	4103
2026-01-23 00:28:32.99	95.12	72.99	-46.4	-47.8	20.1	0.00e+00	0	44	0	749731840	63	4457
2026-01-23 00:28:33.99	96.76	73.11	-46.4	-47.8	19.8	0.00e+00	0	44	0	751828992	64	4224
2026-01-23 00:28:35.00	98.44	73.22	-45.2	-46.3	21.3	0.00e+00	0	44	0	752877568	62	3999
2026-01-23 00:28:36.01	100.14	73.32	-44.5	-45.5	22.0	0.00e+00	0	44	0	754974720	60	4089
2026-01-23 00:28:37.02	101.86	73.40	-44.7	-45.8	21.9	0.00e+00	0	44	0	757071872	60	4229
2026-01-23 00:28:38.03	103.60	73.47	-44.7	-45.8	21.8	0.00e+00	0	44	0	759169024	60	4207
2026-01-23 00:28:39.03	105.33	73.52	-44.1	-45.2	22.3	0.00e+00	0	44	0	761266176	60	3914
2026-01-23 00:28:40.04	107.09	73.56	-44.4	-45.4	22.1	0.00e+00	0	44	0	762314752	60	4023
2026-01-23 00:28:41.05	108.86	73.59	-44.4	-45.4	22.4	0.00e+00	0	44	0	764411904	59	4258
2026-01-23 00:28:42.06	110.64	73.59	-45.0	-46.1	21.5	0.00e+00	0	44	0	766509056	60	4357
2026-01-23 00:28:43.07	112.41	73.59	-46.3	-47.7	20.2	0.00e+00	0	44	0	768606208	63	4400
2026-01-23 00:28:44.07	114.16	73.57	-45.5	-46.7	21.0	0.00e+00	0	44	0	770703360	63	3949
2026-01-23 00:28:45.08	115.93	73.53	-44.9	-46.0	21.7	0.00e+00	0	44	0	772800512	61	4061
2026-01-23 00:28:46.09	117.68	73.48	-44.4	-45.5	22.1	0.00e+00	0	44	0	773849088	60	4053
2026-01-23 00:28:47.10	119.42	73.42	-44.9	-46.1	21.5	0.00e+00	0	44	0	775946240	60	4345
2026-01-23 00:28:48.10	121.13	73.34	-45.8	-47.1	20.7	0.00e+00	0	44	0	778043392	62	4383
2026-01-23 00:28:49.11	122.84	73.25	-46.3	-47.7	20.2	0.00e+00	0	44	0	780140544	63	4408
2026-01-23 00:28:50.12	124.53	73.14	-46.9	-48.4	19.4	0.00e+00	0	44	0	781189120	64	4536
2026-01-23 00:28:51.13	126.19	73.02	-47.7	-49.4	18.5	0.00e+00	0	44	0	783286272	65	4790
2026-01-23 00:28:52.13	127.81	72.89	-47.4	-48.9	18.7	0.00e+00	0	44	0	785383424	66	4277
2026-01-23 00:28:53.14	129.42	72.74	-46.8	-48.2	19.6	0.00e+00	0	44	0	787480576	65	4174
2026-01-23 00:28:54.15	131.01	72.59	-47.6	-49.2	18.7	0.00e+00	0	44	0	789577728	66	4416
2026-01-23 00:28:55.16	132.55	72.41	-47.0	-48.4	19.3	0.00e+00	0	44	0	790626304	66	4046
2026-01-23 00:28:56.16	134.06	72.23	-46.7	-48.1	19.6	0.00e+00	0	44	0	792723456	65	4104
2026-01-23 00:28:57.17	135.54	72.04	-47.4	-48.9	18.9	0.00e+00	0	44	0	794820608	65	4532
2026-01-23 00:28:58.18	136.99	71.84	-47.4	-49.0	18.6	0.00e+00	0	44	0	796917760	66	4305
2026-01-23 00:28:59.19	138.41	71.62	-47.1	-48.6	19.3	0.00e+00	0	44	0	799014912	65	4351
2026-01-23 00:29:00.20	139.79	71.40	-48.3	-50.1	17.9	0.00e+00	0	44	0	801112064	67	4646
2026-01-23 00:29:01.20	141.12	71.17	-50.5	-53.3	14.8	0.00e+00	0	44	0	802160640	71	5330
2026-01-23 00:29:02.21	142.43	70.93	-51.1	-54.6	13.4	7.00e-07	0	44	0	804257792	72	5812
2026-01-23 00:29:03.22	143.70	70.68	-51.4	-55.1	12.9	5.34e-05	0	45	0	806354944	73	5854
2026-01-23 00:29:04.23	144.94	70.42	-50.0	-52.7	15.1	3.80e-06	0	44	0	808452096	72	4690
2026-01-23 00:29:05.24	146.15	70.15	-48.2	-50.0	17.9	0.00e+00	0	44	0	809500672	68	4318
2026-01-23 00:29:06.25	147.32	69.88	-46.6	-47.9	19.8	0.00e+00	0	44	0	811597824	65	4032
2026-01-23 00:29:07.25	148.44	69.60	-46.1	-47.3	20.3	0.00e+00	0	44	0	813694976	64	3975
2026-01-23 00:29:08.26	149.55	69.31	-46.7	-48.0	20.1	0.00e+00	0	44	0	815792128	63	4594
2026-01-23 00:29:09.27	150.62	69.02	-47.7	-49.3	18.5	0.00e+00	0	44	0	817889280	66	4485
2026-01-23 00:29:10.28	151.66	68.72	-47.3	-48.8	19.0	0.00e+00	0	44	0	819986432	66	4230
2026-01-23 00:29:11.29	152.67	68.42	-47.5	-49.0	19.0	0.00e+00	0	44	0	821035008	66	4316
2026-01-23 00:29:12.30	153.64	68.11	-48.4	-50.4	17.7	0.00e+00	0	44	0	823132160	67	4761
2026-01-23 00:29:13.31	154.59	67.80	-47.4	-49.0	18.8	0.00e+00	0	45	0	825229312	66	4296
2026-01-23 00:29:14.32	155.51	67.48	-46.4	-47.8	20.0	0.00e+00	0	44	0	827326464	64	4220
2026-01-23 00:29:15.33	156.40	67.16	-46.9	-48.4	19.5	0.00e+00	0	44	0	829423616	64	4522
2026-01-23 00:29:16.34	157.27	66.84	-47.5	-49.2	18.7	0.00e+00	0	44	0	830472192	65	4678
2026-01-23 00:29:17.35	158.11	66.51	-47.1	-48.6	19.2	0.00e+00	0	44	0	832569344	66	4117
2026-01-23 00:29:18.35	158.91	66.18	-46.1	-47.4	20.3	0.00e+00	0	44	0	834666496	64	4005
2026-01-23 00:29:19.36	159.70	65.85	-44.6	-45.6	21.9	0.00e+00	0	44	0	836763648	61	3881
2026-01-23 00:29:20.37	160.47	65.51	-43.9	-44.9	22.8	0.00e+00	0	44	0	838860800	59	4019
2026-01-23 00:29:21.38	161.21	65.17	-44.4	-45.4	22.4	0.00e+00	0	44	0	839909376	59	4268
2026-01-23 00:29:22.39	161.93	64.83	-45.6	-46.9	20.9	0.00e+00	0	44	0	842006528	61	4494
2026-01-23 00:29:23.39	162.62	64.49	-45.9	-47.2	20.6	0.00e+00	0	44	0	844103680	63	4147
2026-01-23 00:29:24.40	163.30	64.15	-44.4	-45.5	22.1	0.00e+00	0	44	0	846200832	60	4065
2026-01-23 00:29:25.41	163.96	63.80	-43.1	-44.0	23.5	0.00e+00	0	44	0	848297984	58	3858
2026-01-23 00:29:26.42	164.60	63.45	-43.1	-44.0	23.5	0.00e+00	0	44	0	849346560	58	3847
2026-01-23 00:29:27.43	165.22	63.11	-43.0	-43.9	23.5	0.00e+00	0	44	0	851443712	58	3819
2026-01-23 00:29:28.44	165.82	62.76	-42.7	-43.6	23.7	0.00e+00	0	44	0	853540864	57	3906
2026-01-23 00:29:29.45	166.41	62.41	-43.1	-44.0	23.5	0.00e+00	0	44	0	855638016	57	4090
2026-01-23 00:29:30.45	166.97	62.06	-43.6	-44.6	23.0	0.00e+00	0	44	0	857735168	58	4130
2026-01-23 00:29:31.46	167.53	61.71	-44.1	-45.2	22.6	0.00e+00	0	45	0	858783744	58	4402
2026-01-23 00:29:32.47	168.07	61.36	-44.5	-45.6	22.0	0.00e+00	0	44	0	860880896	60	4105
2026-01-23 00:29:33.48	168.59	61.00	-44.6	-45.7	21.8	0.00e+00	0	44	0	862978048	60	4158
2026-01-23 00:29:34.49	169.10	60.65	-43.7	-44.7	22.9	0.00e+00	0	44	0	865075200	59	3919
2026-01-23 00:29:35.49	169.59	60.30	-42.4	-43.2	24.0	0.00e+00	0	44	0	867172352	56	3957
2026-01-23 00:29:36.50	170.07	59.95	-43.0	-43.9	23.5	0.00e+00	0	44	0	868220928	56	4243
2026-01-23 00:29:37.51	170.54	59.60	-43.4	-44.3	23.2	0.00e+00	0	44	0	870318080	57	4221
2026-01-23 00:29:38.52	171.00	59.25	-44.6	-45.7	22.2	0.00e+00	0	44	0	872415232	59	4420
2026-01-23 00:29:39.53	171.44	58.90	-45.0	-46.2	21.4	0.00e+00	0	44	0	874512384	60	4428
2026-01-23 00:29:40.53	171.87	58.55	-44.3	-45.4	22.1	0.00e+00	0	44	0	876609536	60	4030
2026-01-23 00:29:41.54	172.29	58.20	-43.4	-44.4	23.1	0.00e+00	0	44	0	877658112	58	4006
2026-01-23 00:29:42.55	172.71	57.85	-42.5	-43.3	24.0	0.00e+00	0	44	0	879755264	56	3998
2026-01-23 00:29:43.56	173.11	57.51	-43.0	-43.8	23.6	0.00e+00	0	44	0	881852416	56	4242
2026-01-23 00:29:44.57	173.50	57.16	-44.2	-45.2	22.5	0.00e+00	0	44	0	883949568	59	4178
2026-01-23 00:29:45.58	173.88	56.81	-44.6	-45.7	21.9	0.00e+00	0	44	0	886046720	60	4161
2026-01-23 00:29:46.59	174.25	56.47	-43.7	-44.7	22.9	0.00e+00	0	44	0	887095296	59	3935
2026-01-23 00:29:47.59	174.61	56.13	-43.1	-44.0	23.5	0.00e+00	0	44	0	889192448	58	3835
2026-01-23 00:29:48.60	174.97	55.78	-43.2	-44.1	23.4	0.00e+00	0	44	0	891289600	57	4138
2026-01-23 00:29:49.61	175.31	55.44	-43.6	-44.6	23.0	0.00e+00	0	44	0	893386752	57	4370
2026-01-23 00:29:50.62	175.65	55.10	-44.5	-45.6	22.1	0.00e+00	0	44	0	895483904	59	4359
2026-01-23 00:29:51.63	175.98	54.76	-44.5	-45.6	21.9	0.00e+00	0	44	0	896532480	60	4102
2026-01-23 00:29:52.63	176.30	54.42	-44.7	-45.8	21.6	0.00e+00	0	44	0	898629632	60	4214
2026-01-23 00:29:53.64	176.61	54.09	-45.0	-46.1	21.5	0.00e+00	0	44	0	900726784	60	4367
2026-01-23 00:29:54.65	176.92	53.75	-45.0	-46.2	21.4	0.00e+00	0	44	0	902823936	61	4158
2026-01-23 00:29:55.66	177.22	53.42	-44.5	-45.6	21.8	0.00e+00	0	44	0	904921088	61	3892
2026-01-23 00:29:56.67	177.52	53.08	-44.6	-45.7	21.8	0.00e+00	0	44	0	905969664	60	4153
2026-01-23 00:29:57.67	177.80	52.75	-44.9	-46.1	21.4	0.00e+00	0	44	0	908066816	60	4373
2026-01-23 00:29:58.68	178.08	52.42	-45.5	-46.8	20.8	0.00e+00	0	44	0	910163968	61	4452
2026-01-23 00:29:59.69	178.36	52.10	-45.6	-46.9	20.8	0.00e+00	0	44	0	912261120	62	4270
2026-01-23 00:30:00.69	178.62	51.77	-44.6	-45.7	21.8	0.00e+00	0	44	0	914358272	61	3936
2026-01-23 00:30:01.70	178.89	51.45	-44.2	-45.3	22.2	0.00e+00	0	44	0	915406848	60	3964
2026-01-23 00:30:02.71	179.15	51.12	-44.8	-45.9	21.7	0.00e+00	0	44	0	917504000	60	4255
2026-01-23 00:30:03.71	179.40	50.80	-45.8	-47.1	20.7	0.00e+00	0	44	0	919601152	62	4364
2026-01-23 00:30:04.72	179.64	50.48	-46.6	-48.0	19.8	0.00e+00	0	44	0	921698304	63	4560
2026-01-23 00:30:05.73	179.88	50.17	-46.9	-48.4	19.4	0.00e+00	0	44	0	923795456	64	4533
2026-01-23 00:30:06.74	180.12	49.85	-46.6	-48.1	19.6	0.00e+00	0	44	0	924844032	64	4349
2026-01-23 00:30:07.75	180.35	49.53	-46.4	-47.7	19.9	0.00e+00	0	44	0	926941184	64	4184
2026-01-23 00:30:08.75	180.58	49.22	-47.0	-48.6	19.1	0.00e+00	0	44	0	929038336	64	4612
2026-01-23 00:30:09.76	180.80	48.91	-46.5	-47.8	19.7	0.00e+00	0	44	0	931135488	64	4241
2026-01-23 00:30:10.77	181.02	48.60	-45.7	-46.9	20.7	0.00e+00	0	44	0	933232640	63	4019
2026-01-23 00:30:11.78	181.24	48.29	-45.2	-46.4	21.2	0.00e+00	0	44	0	935329792	62	4017
2026-01-23 00:30:12.79	181.45	47.98	-44.9	-46.0	21.5	0.00e+00	0	44	0	936378368	61	4057
2026-01-23 00:30:13.79	181.65	47.68	-45.5	-46.6	21.0	0.00e+00	0	44	0	938475520	61	4391
2026-01-23 00:30:14.80	181.86	47.38	-47.2	-48.8	19.0	0.00e+00	0	44	0	940572672	64	4722
2026-01-23 00:30:15.81	182.05	47.08	-49.0	-51.3	16.6	0.00e+00	0	44	0	942669824	68	5007
2026-01-23 00:30:16.82	182.25	46.78	-49.1	-51.4	16.5	0.00e+00	0	44	0	943718400	69	4761
2026-01-23 00:30:17.83	182.44	46.48	-47.8	-49.5	18.2	0.00e+00	0	44	0	945815552	67	4336
2026-01-23 00:30:18.84	182.63	46.19	-46.7	-48.1	19.6	0.00e+00	0	44	0	947912704	65	4131
2026-01-23 00:30:19.85	182.81	45.89	-45.1	-46.2	21.3	0.00e+00	0	44	0	950009856	62	3948
2026-01-23 00:30:20.85	182.99	45.60	-46.0	-47.2	20.3	0.00e+00	0	44	0	952107008	62	4409
2026-01-23 00:30:21.86	183.17	45.31	-47.2	-48.7	18.9	0.00e+00	0	44	0	953155584	65	4421
2026-01-23 00:30:22.87	183.35	45.02	-48.4	-50.4	17.5	0.00e+00	0	45	0	955252736	67	4780
2026-01-23 00:30:23.88	183.52	44.74	-48.1	-49.9	17.8	0.00e+00	0	44	0	957349888	67	4532
2026-01-23 00:30:24.89	183.69	44.45	-47.6	-49.3	18.4	0.00e+00	0	44	0	959447040	67	4231
2026-01-23 00:30:25.90	183.85	44.17	-47.1	-48.6	19.1	0.00e+00	0	44	0	961544192	66	4125
2026-01-23 00:30:26.91	184.02	43.89	-47.1	-48.6	19.0	0.00e+00	0	44	0	963641344	66	4114
2026-01-23 00:30:27.91	184.18	43.61	-47.7	-49.5	18.3	0.00e+00	0	44	0	964689920	66	4556
2026-01-23 00:30:28.92	184.33	43.33	-47.9	-49.6	18.1	0.00e+00	0	44	0	966787072	66	4645
2026-01-23 00:30:29.93	184.49	43.05	-47.2	-48.7	19.0	0.00e+00	0	45	0	968884224	66	4186
2026-01-23 00:30:30.94	184.64	42.78	-46.4	-47.8	19.8	0.00e+00	0	44	0	970981376	64	4200
2026-01-23 00:30:31.95	184.79	42.51	-46.0	-47.3	20.2	0.00e+00	0	44	0	972029952	64	3996
2026-01-23 00:30:32.96	184.94	42.24	-46.1	-47.5	20.0	0.00e+00	0	44	0	974127104	64	4066
2026-01-23 00:30:33.97	185.08	41.97	-46.9	-48.4	19.2	0.00e+00	0	44	0	976224256	64	4539
2026-01-23 00:30:34.98	185.23	41.70	-47.6	-49.3	18.3	0.00e+00	0	44	0	978321408	66	4459
2026-01-23 00:30:35.98	185.37	41.44	-47.4	-49.1	18.6	0.00e+00	0	44	0	980418560	66	4347
2026-01-23 00:30:36.99	185.51	41.17	-45.8	-47.1	20.4	0.00e+00	0	44	0	982515712	63	4121
2026-01-23 00:30:38.00	185.64	40.91	-44.4	-45.4	21.9	0.00e+00	0	44	0	983564288	60	4025
2026-01-23 00:30:39.01	185.78	40.65	-44.1	-45.1	22.5	0.00e+00	0	44	0	985661440	59	4106
2026-01-23 00:30:40.02	185.91	40.39	-43.5	-44.5	23.0	0.00e+00	0	44	0	987758592	58	4061
2026-01-23 00:30:41.03	186.04	40.13	-43.6	-44.6	22.9	0.00e+00	0	44	0	989855744	58	4105
2026-01-23 00:30:42.03	186.17	39.88	-44.3	-45.3	22.3	0.00e+00	0	44	0	991952896	59	4202
2026-01-23 00:30:43.04	186.29	39.63	-44.6	-45.7	21.7	0.00e+00	0	44	0	993001472	60	4175
2026-01-23 00:30:44.05	186.42	39.38	-45.5	-46.7	20.8	0.00e+00	0	44	0	995098624	61	4419
2026-01-23 00:30:45.06	186.54	39.13	-46.6	-48.0	19.5	0.00e+00	0	44	0	997195776	63	4590
2026-01-23 00:30:46.07	186.66	38.88	-47.0	-48.5	19.1	0.00e+00	0	44	0	999292928	64	4588
2026-01-23 00:30:47.08	186.78	38.63	-46.7	-48.1	19.4	0.00e+00	0	44	0	1001390080	64	4385
2026-01-23 00:30:48.08	186.89	38.39	-46.7	-48.3	19.3	0.00e+00	0	44	0	1002438656	64	4444
2026-01-23 00:30:49.09	187.01	38.14	-46.6	-48.1	19.4	0.00e+00	0	44	0	1004535808	64	4354
2026-01-23 00:30:50.10	187.12	37.90	-45.9	-47.2	20.3	0.00e+00	0	44	0	1006632960	63	4181
2026-01-23 00:30:51.11	187.24	37.66	-45.1	-46.2	21.2	0.00e+00	0	44	0	1008730112	62	3954
2026-01-23 00:30:52.11	187.35	37.43	-44.4	-45.5	21.8	0.00e+00	0	44	0	1010827264	60	4084
2026-01-23 00:30:53.12	187.45	37.19	-44.1	-45.1	22.2	0.00e+00	0	44	0	1011875840	60	3892
2026-01-23 00:30:54.13	187.56	36.95	-44.3	-45.4	22.0	0.00e+00	0	44	0	1013972992	60	4011
2026-01-23 00:30:55.14	187.67	36.72	-45.1	-46.2	21.2	0.00e+00	0	44	0	1016070144	60	4440
2026-01-23 00:30:56.15	187.77	36.49	-45.6	-46.9	20.7	0.00e+00	0	44	0	1018167296	61	4496
2026-01-23 00:30:57.16	187.88	36.25	-46.5	-47.9	19.7	0.00e+00	0	44	0	1020264448	63	4528
2026-01-23 00:30:58.17	187.98	36.03	-46.9	-48.4	19.2	0.00e+00	0	44	0	1021313024	64	4508
2026-01-23 00:30:59.17	188.08	35.80	-46.5	-47.9	19.6	0.00e+00	0	44	0	1023410176	64	4264
2026-01-23 00:31:00.18	188.18	35.57	-46.6	-48.1	19.4	0.00e+00	0	44	0	1025507328	64	4366
2026-01-23 00:31:01.19	188.28	35.35	-46.2	-47.6	19.9	0.00e+00	0	44	0	1027604480	64	4129
2026-01-23 00:31:02.20	188.37	35.13	-46.3	-47.6	19.9	0.00e+00	0	44	0	1029701632	63	4380
2026-01-23 00:31:03.21	188.47	34.90	-46.1	-47.4	20.1	0.00e+00	0	44	0	1030750208	63	4268
2026-01-23 00:31:04.22	188.56	34.68	-46.0	-47.3	20.2	0.00e+00	0	44	0	1032847360	63	4224
2026-01-23 00:31:05.22	188.65	34.47	-46.4	-47.8	19.7	0.00e+00	0	44	0	1034944512	63	4492
2026-01-23 00:31:06.23	188.75	34.25	-46.5	-47.9	19.7	0.00e+00	0	44	0	1037041664	63	4542
2026-01-23 00:31:07.24	188.84	34.03	-46.8	-48.3	19.3	0.00e+00	0	44	0	1039138816	64	4461
2026-01-23 00:31:08.25	188.93	33.82	-46.5	-48.0	19.5	0.00e+00	0	44	0	1040187392	64	4301
2026-01-23 00:31:09.26	189.01	33.60	-47.1	-48.7	18.9	0.00e+00	0	45	0	1042284544	64	4675
2026-01-23 00:31:10.27	189.10	33.39	-46.6	-48.0	19.4	0.00e+00	0	45	0	1044381696	65	4095
2026-01-23 00:31:11.27	189.19	33.18	-46.2	-47.5	19.9	0.00e+00	0	44	0	1046478848	64	4080
2026-01-23 00:31:12.28	189.27	32.98	-46.2	-47.5	19.9	0.00e+00	0	44	0	1048576000	64	4080
2026-01-23 00:31:13.29	189.36	32.77	-46.2	-47.5	20.0	0.00e+00	0	45	0	1050673152	63	4301
2026-01-23 00:31:14.30	189.44	32.56	-45.8	-47.1	20.5	0.00e+00	0	44	0	1051721728	63	4106
2026-01-23 00:31:15.31	189.52	32.36	-45.8	-47.0	20.5	0.00e+00	0	44	0	1053818880	63	4093
2026-01-23 00:31:16.31	189.60	32.15	-46.2	-47.6	19.9	0.00e+00	0	44	0	1055916032	63	4366
2026-01-23 00:31:17.32	189.68	31.95	-46.6	-48.0	19.5	0.00e+00	0	44	0	1058013184	63	4588
2026-01-23 00:31:18.33	189.76	31.75	-47.0	-48.6	18.9	0.00e+00	0	44	0	1059061760	64	4636
2026-01-23 00:31:19.34	189.84	31.55	-47.7	-49.5	18.0	0.00e+00	0	45	0	1061158912	65	4854
2026-01-23 00:31:20.35	189.92	31.35	-48.3	-50.2	17.4	0.00e+00	0	44	0	1063256064	67	4693
2026-01-23 00:31:21.36	189.99	31.16	-48.9	-51.2	16.6	0.00e+00	0	44	0	1065353216	68	4940
2026-01-23 00:31:22.37	190.07	30.96	-49.4	-51.8	15.7	0.00e+00	0	45	0	1067450368	69	5032
2026-01-23 00:31:23.37	190.14	30.77	-49.4	-51.9	15.8	0.00e+00	0	45	0	1069547520	69	5080
2026-01-23 00:31:24.38	190.22	30.57	-49.3	-51.7	16.0	0.00e+00	0	44	0	1070596096	69	4947
2026-01-23 00:31:25.39	190.29	30.38	-48.8	-51.0	16.7	0.00e+00	0	44	0	1072693248	69	4548
2026-01-23 00:31:26.40	190.36	30.19	-48.0	-49.8	17.9	0.00e+00	0	45	0	1074790400	67	4489
2026-01-23 00:31:27.41	190.44	30.00	-47.6	-49.4	18.1	0.00e+00	0	45	0	1076887552	66	4531
2026-01-23 00:31:28.42	190.51	29.81	-47.0	-48.6	18.9	0.00e+00	0	44	0	1078984704	66	4122
2026-01-23 00:31:29.43	190.58	29.63	-46.5	-47.9	19.5	0.00e+00	0	44	0	1080033280	64	4284
2026-01-23 00:31:30.44	190.65	29.44	-46.5	-48.0	19.4	0.00e+00	0	45	0	1082130432	64	4333
2026-01-23 00:31:31.45	190.71	29.25	-46.4	-47.8	19.6	0.00e+00	0	44	0	1084227584	64	4224
2026-01-23 00:31:32.46	190.78	29.07	-46.3	-47.7	19.8	0.00e+00	0	44	0	1086324736	63	4421
2026-01-23 00:31:33.47	190.85	28.89	-46.3	-47.7	19.7	0.00e+00	0	44	0	1087373312	63	4418
2026-01-23 00:31:34.48	190.91	28.71	-46.3	-47.7	19.7	0.00e+00	0	44	0	1089470464	63	4416
2026-01-23 00:31:35.49	190.98	28.53	-46.3	-47.7	19.7	0.00e+00	0	44	0	1091567616	63	4425
2026-01-23 00:31:36.49	191.04	28.35	-46.5	-48.0	19.4	0.00e+00	0	44	0	1093664768	64	4300
2026-01-23 00:31:37.50	191.11	28.17	-46.5	-47.9	19.5	0.00e+00	0	44	0	1095761920	64	4272
2026-01-23 00:31:38.51	191.17	27.99	-46.5	-48.0	19.4	0.00e+00	0	44	0	1097859072	64	4302
2026-01-23 00:31:39.52	191.24	27.82	-46.6	-48.1	19.3	0.00e+00	0	45	0	1098907648	64	4345
2026-01-23 00:31:40.53	191.30	27.64	-46.4	-47.8	19.6	0.00e+00	0	44	0	1101004800	64	4215
2026-01-23 00:31:41.53	191.36	27.47	-46.2	-47.6	19.7	0.00e+00	0	44	0	1103101952	64	4132
2026-01-23 00:31:42.54	191.42	27.30	-46.3	-47.7	19.6	0.00e+00	0	44	0	1105199104	64	4170
2026-01-23 00:31:43.55	191.48	27.13	-46.3	-47.8	19.4	0.00e+00	0	45	0	1107296256	64	4221
2026-01-23 00:31:44.56	191.54	26.96	-45.8	-47.1	20.2	0.00e+00	0	44	0	1108344832	63	4143
2026-01-23 00:31:45.57	191.60	26.79	-45.6	-46.9	20.4	0.00e+00	0	45	0	1110441984	63	4036
2026-01-23 00:31:46.58	191.66	26.62	-45.4	-46.7	20.7	0.00e+00	0	44	0	1112539136	62	4153
2026-01-23 00:31:47.59	191.72	26.45	-45.1	-46.3	20.9	0.00e+00	0	45	0	1114636288	62	3987
2026-01-23 00:31:48.59	191.77	26.29	-44.6	-45.8	21.4	0.00e+00	0	45	0	1116733440	61	3968
2026-01-23 00:31:49.60	191.83	26.12	-44.3	-45.4	21.7	0.00e+00	0	44	0	1117782016	60	4039
2026-01-23 00:31:50.61	191.89	25.96	-44.0	-45.1	22.0	0.00e+00	0	45	0	1119879168	60	3891
2026-01-23 00:31:51.62	191.94	25.79	-44.3	-45.4	22.1	0.00e+00	0	45	0	1121976320	59	4267
2026-01-23 00:31:52.63	192.00	25.63	-43.9	-44.9	22.4	0.00e+00	0	45	0	1124073472	59	4047
2026-01-23 00:31:53.63	192.05	25.47	-43.5	-44.5	22.7	0.00e+00	0	45	0	1126170624	59	3849
2026-01-23 00:31:54.64	192.11	25.31	-43.4	-44.3	22.8	0.00e+00	0	44	0	1127219200	58	4000
2026-01-23 00:31:55.65	192.16	25.15	-43.4	-44.3	22.9	0.00e+00	0	44	0	1129316352	58	3995
2026-01-23 00:31:56.66	192.21	24.99	-43.4	-44.3	22.8	0.00e+00	0	44	0	1131413504	58	4002
2026-01-23 00:31:57.67	192.27	24.83	-43.5	-44.5	22.7	0.00e+00	0	44	0	1133510656	58	4055
2026-01-23 00:31:58.68	192.32	24.68	-43.5	-44.5	22.7	0.00e+00	0	44	0	1135607808	58	4065
2026-01-23 00:31:59.69	192.37	24.52	-43.6	-44.5	22.7	0.00e+00	0	44	0	1136656384	58	4098
2026-01-23 00:32:00.68	192.42	24.37	-43.6	-44.6	22.6	0.00e+00	0	44	0	1138753536	58	4111
2026-01-23 00:32:01.69	192.47	24.21	-43.7	-44.7	22.5	0.00e+00	0	44	0	1140850688	58	4183
2026-01-23 00:32:02.70	192.52	24.06	-43.6	-44.6	22.6	0.00e+00	0	44	0	1142947840	58	4138
2026-01-23 00:32:03.71	192.57	23.91	-43.9	-44.9	22.4	0.00e+00	0	44	0	1145044992	58	4272
2026-01-23 00:32:04.72	192.62	23.76	-43.8	-44.9	22.4	0.00e+00	0	44	0	1146093568	58	4251
2026-01-23 00:32:05.73	192.67	23.60	-43.9	-45.0	22.3	0.00e+00	0	44	0	1148190720	58	4301
2026-01-23 00:32:06.73	192.72	23.46	-44.1	-45.2	22.1	0.00e+00	0	44	0	1150287872	58	4409
2026-01-23 00:32:07.74	192.77	23.31	-44.4	-45.5	21.8	0.00e+00	0	45	0	1152385024	59	4334
2026-01-23 00:32:08.75	192.82	23.16	-44.6	-45.7	21.7	0.00e+00	0	44	0	1154482176	59	4418
2026-01-23 00:32:09.76	192.86	23.01	-44.4	-45.5	21.6	0.00e+00	0	44	0	1155530752	60	4084
2026-01-23 00:32:10.77	192.91	22.86	-44.6	-45.7	21.4	0.00e+00	0	44	0	1157627904	60	4165
2026-01-23 00:32:11.77	192.96	22.72	-44.6	-45.8	21.3	0.00e+00	0	44	0	1159725056	60	4213
2026-01-23 00:32:12.78	193.00	22.58	-44.9	-46.1	21.0	0.00e+00	0	44	0	1161822208	60	4369
2026-01-23 00:32:13.79	193.05	22.43	-44.7	-45.9	21.2	0.00e+00	0	44	0	1163919360	60	4249
2026-01-23 00:32:14.80	193.10	22.29	-44.8	-46.0	21.1	0.00e+00	0	44	0	1164967936	60	4329
2026-01-23 00:32:15.81	193.14	22.15	-45.1	-46.3	20.9	0.00e+00	0	44	0	1167065088	60	4448
2026-01-23 00:32:16.82	193.19	22.00	-45.0	-46.2	20.9	0.00e+00	0	45	0	1169162240	60	4420
2026-01-23 00:32:17.83	193.23	21.86	-44.9	-46.0	21.1	0.00e+00	0	44	0	1171259392	60	4336
2026-01-23 00:32:18.83	193.27	21.72	-45.0	-46.2	20.9	0.00e+00	0	44	0	1173356544	60	4397
2026-01-23 00:32:19.84	193.32	21.58	-45.0	-46.2	20.9	0.00e+00	0	44	0	1174405120	60	4410
2026-01-23 00:32:20.85	193.36	21.45	-44.7	-45.8	21.3	0.00e+00	0	44	0	1176502272	60	4214
2026-01-23 00:32:21.86	193.40	21.31	-44.3	-45.3	21.6	0.00e+00	0	44	0	1178599424	60	4003
2026-01-23 00:32:22.87	193.45	21.17	-44.5	-45.6	21.4	0.00e+00	0	45	0	1180696576	60	4144
2026-01-23 00:32:23.87	193.49	21.03	-44.2	-45.3	21.7	0.00e+00	0	44	0	1182793728	60	3998
2026-01-23 00:32:24.88	193.53	20.90	-44.3	-45.4	21.6	0.00e+00	0	44	0	1184890880	60	4011
2026-01-23 00:32:25.89	193.57	20.76	-44.4	-45.5	21.5	0.00e+00	0	44	0	1185939456	60	4090
2026-01-23 00:32:26.90	193.61	20.63	-44.2	-45.3	21.7	0.00e+00	0	44	0	1188036608	60	4003
2026-01-23 00:32:27.91	193.65	20.50	-44.4	-45.5	21.5	0.00e+00	0	44	0	1190133760	60	4078
2026-01-23 00:32:28.91	193.69	20.36	-44.5	-45.6	21.5	0.00e+00	0	44	0	1192230912	60	4120
2026-01-23 00:32:29.92	193.73	20.23	-44.4	-45.6	21.5	0.00e+00	0	44	0	1193279488	60	4099
2026-01-23 00:32:30.93	193.77	20.10	-44.4	-45.6	21.4	0.00e+00	0	44	0	1195376640	60	4102
2026-01-23 00:32:31.94	193.81	19.97	-44.4	-45.5	21.5	0.00e+00	0	44	0	1197473792	60	4087
2026-01-23 00:32:32.95	193.85	19.84	-44.6	-45.8	21.2	0.00e+00	0	44	0	1199570944	60	4196
2026-01-23 00:32:33.95	193.89	19.71	-44.5	-45.6	21.4	0.00e+00	0	44	0	1201668096	60	4128
2026-01-23 00:32:34.96	193.93	19.58	-44.4	-45.6	21.4	0.00e+00	0	44	0	1202716672	60	4107
2026-01-23 00:32:35.97	193.97	19.45	-44.4	-45.6	21.4	0.00e+00	0	44	0	1204813824	60	4103
2026-01-23 00:32:36.98	194.01	19.32	-44.3	-45.4	21.5	0.00e+00	0	44	0	1206910976	60	4041
2026-01-23 00:32:37.99	194.04	19.20	-44.3	-45.4	21.6	0.00e+00	0	44	0	1209008128	60	4045
2026-01-23 00:32:38.99	194.08	19.07	-44.3	-45.4	21.5	0.00e+00	0	44	0	1211105280	60	4030
2026-01-23 00:32:40.00	194.12	18.95	-44.2	-45.3	21.6	0.00e+00	0	44	0	1213202432	60	3982
2026-01-23 00:32:41.01	194.16	18.82	-44.1	-45.2	21.7	0.00e+00	0	44	0	1214251008	60	3940
2026-01-23 00:32:42.02	194.19	18.70	-44.4	-45.5	21.7	0.00e+00	0	44	0	1216348160	59	4315
2026-01-23 00:32:43.02	194.23	18.57	-44.3	-45.4	21.9	0.00e+00	0	44	0	1218445312	59	4252
2026-01-23 00:32:44.03	194.27	18.45	-44.3	-45.4	21.8	0.00e+00	0	44	0	1220542464	59	4261
2026-01-23 00:32:45.04	194.30	18.33	-44.2	-45.3	21.8	0.00e+00	0	44	0	1221591040	59	4237
2026-01-23 00:32:46.05	194.34	18.21	-44.3	-45.4	21.8	0.00e+00	0	44	0	1223688192	59	4252
2026-01-23 00:32:47.05	194.37	18.09	-44.4	-45.5	21.7	0.00e+00	0	44	0	1225785344	59	4339
2026-01-23 00:32:48.06	194.41	17.97	-44.3	-45.5	21.8	0.00e+00	0	44	0	1227882496	59	4292
2026-01-23 00:32:49.07	194.44	17.84	-44.4	-45.5	21.7	0.00e+00	0	44	0	1229979648	59	4318
2026-01-23 00:32:50.08	194.48	17.73	-44.5	-45.7	21.6	0.00e+00	0	44	0	1232076800	59	4392
2026-01-23 00:32:51.09	194.51	17.61	-44.4	-45.5	21.2	0.00e+00	0	44	0	1233125376	60	4097
2026-01-23 00:32:52.10	194.55	17.49	-44.2	-45.3	21.6	0.00e+00	0	44	0	1235222528	60	3999
2026-01-23 00:32:53.11	194.58	17.37	-44.5	-45.6	21.3	0.00e+00	0	44	0	1237319680	60	4134
2026-01-23 00:32:54.11	194.61	17.25	-44.8	-46.0	21.0	0.00e+00	0	44	0	1239416832	60	4312
2026-01-23 00:32:55.12	194.65	17.14	-44.9	-46.0	21.0	0.00e+00	0	44	0	1241513984	60	4340
2026-01-23 00:32:56.13	194.68	17.02	-44.9	-46.1	20.9	0.00e+00	0	44	0	1242562560	60	4391
2026-01-23 00:32:57.14	194.71	16.90	-45.2	-46.4	20.6	0.00e+00	0	44	0	1244659712	61	4291
2026-01-23 00:32:58.15	194.75	16.79	-45.4	-46.7	20.4	0.00e+00	0	44	0	1246756864	61	4419
2026-01-23 00:32:59.16	194.78	16.67	-45.5	-46.8	20.3	0.00e+00	0	44	0	1248854016	61	4469
2026-01-23 00:33:00.16	194.81	16.56	-45.5	-46.8	20.3	0.00e+00	0	44	0	1249902592	61	4472
2026-01-23 00:33:01.17	194.84	16.45	-45.8	-47.1	20.0	0.00e+00	0	44	0	1251999744	62	4362
2026-01-23 00:33:02.18	194.88	16.33	-45.7	-47.1	20.0	0.00e+00	0	44	0	1254096896	62	4355
