passes_logs/2026/01/23/R3.2S_Murmansk/R3.2S_Murmansk__20260123_131424_NOAA_21_JPSS-2_rec.log

#Pass ID: 20260123_131424_NOAA 21 (JPSS-2)
#Satellite: NOAA 21 (JPSS-2)
#Configuration: NOAA-21
#almurnet v.1.7.20251203
#Start time: 2026-01-23 13:14:25

#Version: 2.2.20231116
#Station: R3.2S_Murmansk
#Location: 33.079688 lon 68.888172 lat
#TLE: 1 54234U 22150A   26022.41365820  .00000211  00000+0  12084-3 0  9990
#TLE: 2 54234  98.7507 323.2240 0000658 234.5287 125.5828 14.19537645165864

#Time	Az	El	Level	Level2	SNR	BER	BlckErr	Temp	State	Recorded	gain1	gain2
2026-01-23 13:14:25.66	249.96	2.06	-52.8	-65.6	3.8	1.49e+00	0	41	0	0	77	15427
2026-01-23 13:14:26.67	250.07	2.10	-52.8	-65.5	3.8	1.49e+00	0	41	104	0	76	16313
2026-01-23 13:14:27.68	250.17	2.14	-52.8	-65.5	3.8	1.49e+00	0	41	104	0	76	16281
2026-01-23 13:14:28.69	250.28	2.19	-52.8	-65.5	3.8	1.49e+00	0	41	104	0	76	16305
2026-01-23 13:14:29.69	250.39	2.23	-52.8	-65.5	3.8	1.49e+00	0	41	104	0	76	16256
2026-01-23 13:14:30.70	250.49	2.27	-52.8	-65.5	3.8	1.49e+00	0	41	104	0	76	16255
2026-01-23 13:14:31.71	250.60	2.31	-52.8	-65.5	3.8	1.49e+00	0	41	104	0	76	16288
2026-01-23 13:14:32.72	250.71	2.35	-52.8	-65.5	3.8	1.49e+00	0	41	104	0	76	16314
2026-01-23 13:14:33.73	250.81	2.40	-52.8	-65.5	3.8	1.49e+00	0	41	104	0	76	16284
2026-01-23 13:14:34.74	250.92	2.44	-52.8	-65.5	3.8	1.49e+00	0	41	104	0	76	16269
2026-01-23 13:14:35.75	251.03	2.48	-52.8	-65.5	3.8	1.49e+00	0	41	104	0	76	16217
2026-01-23 13:14:36.75	251.14	2.52	-52.8	-65.5	3.8	1.49e+00	0	41	104	0	76	16244
2026-01-23 13:14:37.76	251.25	2.56	-52.8	-65.5	3.8	1.49e+00	0	41	104	0	76	16253
2026-01-23 13:14:38.77	251.36	2.60	-52.8	-65.5	3.8	1.49e+00	0	41	104	0	76	16265
2026-01-23 13:14:39.78	251.47	2.65	-52.8	-65.5	3.8	1.49e+00	0	41	104	0	76	16213
2026-01-23 13:14:40.79	251.58	2.69	-52.8	-65.5	3.8	1.49e+00	0	41	104	0	76	16255
2026-01-23 13:14:41.79	251.68	2.73	-52.8	-65.5	3.8	1.49e+00	0	41	104	0	76	16248
2026-01-23 13:14:42.80	251.80	2.77	-52.8	-65.5	3.8	1.49e+00	0	41	104	0	76	16235
2026-01-23 13:14:43.81	251.91	2.81	-52.8	-65.5	3.8	1.49e+00	0	42	104	0	76	16261
2026-01-23 13:14:44.82	252.02	2.85	-52.8	-65.5	3.8	1.49e+00	0	41	104	0	76	16230
2026-01-23 13:14:45.83	252.13	2.90	-52.8	-65.5	3.8	1.49e+00	0	41	104	0	76	16175
2026-01-23 13:14:46.84	252.24	2.94	-52.8	-65.5	3.8	1.49e+00	0	41	104	0	76	16239
2026-01-23 13:14:47.85	252.35	2.98	-52.8	-65.5	3.8	1.49e+00	0	42	104	0	76	16258
2026-01-23 13:14:48.86	252.46	3.02	-52.8	-65.5	3.8	1.49e+00	0	42	104	0	76	16200
2026-01-23 13:14:49.87	252.58	3.06	-52.8	-65.5	3.8	1.49e+00	0	42	104	0	76	16181
2026-01-23 13:14:50.88	252.69	3.10	-52.8	-65.5	3.8	1.49e+00	0	41	104	0	76	16231
2026-01-23 13:14:51.88	252.80	3.14	-52.7	-65.5	3.8	1.49e+00	0	42	104	0	76	16224
2026-01-23 13:14:52.89	252.91	3.19	-52.7	-65.5	3.8	1.49e+00	0	41	104	0	76	16143
2026-01-23 13:14:53.90	253.03	3.23	-52.8	-65.5	3.8	1.49e+00	0	42	104	0	76	16220
2026-01-23 13:14:54.91	253.14	3.27	-52.7	-65.5	3.8	1.49e+00	0	42	104	0	76	16226
2026-01-23 13:14:55.92	253.26	3.31	-52.7	-65.5	3.8	1.49e+00	0	42	104	0	76	16184
2026-01-23 13:14:56.93	253.37	3.35	-52.7	-65.5	3.8	1.49e+00	0	42	104	0	76	16179
2026-01-23 13:14:57.93	253.48	3.39	-52.7	-65.5	3.8	1.49e+00	0	42	104	0	76	16218
2026-01-23 13:14:58.94	253.60	3.43	-52.7	-65.5	3.8	1.49e+00	0	42	104	0	76	16225
2026-01-23 13:14:59.95	253.72	3.48	-52.7	-65.5	3.8	1.49e+00	0	42	104	0	76	16208
2026-01-23 13:15:00.96	253.83	3.52	-52.7	-65.5	3.8	1.49e+00	0	42	104	0	76	16177
2026-01-23 13:15:01.97	253.95	3.56	-52.7	-65.5	3.8	1.49e+00	0	42	104	0	76	16181
2026-01-23 13:15:02.97	254.06	3.60	-52.7	-65.4	3.8	1.49e+00	0	42	104	0	76	16115
2026-01-23 13:15:03.98	254.18	3.64	-52.7	-65.5	3.8	1.49e+00	0	42	104	0	76	16135
2026-01-23 13:15:04.99	254.30	3.68	-52.7	-65.4	3.8	1.49e+00	0	42	104	0	76	16095
2026-01-23 13:15:06.00	254.41	3.72	-52.7	-65.4	3.8	1.49e+00	0	42	104	0	76	16099
2026-01-23 13:15:07.01	254.53	3.76	-52.7	-65.4	3.8	1.49e+00	0	42	104	0	76	16076
2026-01-23 13:15:08.02	254.65	3.80	-52.7	-65.5	3.8	1.49e+00	0	42	104	0	76	16149
2026-01-23 13:15:09.03	254.77	3.84	-52.7	-65.5	3.8	1.49e+00	0	42	104	0	76	16172
2026-01-23 13:15:10.03	254.89	3.89	-52.7	-65.5	3.8	1.49e+00	0	42	104	0	76	16185
2026-01-23 13:15:11.04	255.00	3.93	-52.7	-65.5	3.8	1.49e+00	0	42	104	0	76	16177
2026-01-23 13:15:12.05	255.12	3.97	-52.7	-65.4	3.8	1.49e+00	0	42	104	0	76	16115
2026-01-23 13:15:13.06	255.24	4.01	-52.7	-65.5	3.8	1.49e+00	0	42	104	0	76	16139
2026-01-23 13:15:14.07	255.36	4.05	-52.7	-65.4	3.8	1.49e+00	0	42	104	0	76	16116
2026-01-23 13:15:15.08	255.48	4.09	-52.7	-65.4	3.8	1.49e+00	0	42	104	0	76	16099
2026-01-23 13:15:16.08	255.60	4.13	-52.7	-65.4	3.8	1.49e+00	0	42	104	0	76	16028
2026-01-23 13:15:17.09	255.72	4.17	-52.7	-65.3	3.8	1.49e+00	0	42	104	0	76	15892
2026-01-23 13:15:18.10	255.85	4.21	-52.7	-65.3	3.8	1.49e+00	0	42	104	0	76	15810
2026-01-23 13:15:19.11	255.97	4.25	-52.7	-65.3	3.8	1.49e+00	0	42	104	0	76	15894
2026-01-23 13:15:20.12	256.09	4.29	-52.7	-65.4	3.8	1.49e+00	0	42	104	0	76	16013
2026-01-23 13:15:21.13	256.21	4.33	-52.7	-65.4	3.8	1.49e+00	0	42	104	0	76	15952
2026-01-23 13:15:22.14	256.33	4.37	-52.7	-65.3	3.8	1.49e+00	0	42	104	0	76	15933
2026-01-23 13:15:23.15	256.46	4.41	-52.7	-65.4	3.8	1.49e+00	0	42	104	0	76	15969
2026-01-23 13:15:24.16	256.58	4.45	-52.7	-65.4	3.8	1.49e+00	0	42	104	0	76	16032
2026-01-23 13:15:25.16	256.70	4.49	-52.7	-65.4	3.8	1.49e+00	0	42	104	0	76	16048
2026-01-23 13:15:26.17	256.83	4.53	-52.7	-65.2	3.8	1.49e+00	0	42	104	0	76	15602
2026-01-23 13:15:27.18	256.95	4.57	-52.7	-64.6	3.8	1.49e+00	0	42	104	0	76	14625
2026-01-23 13:15:28.19	257.07	4.61	-52.6	-64.0	3.8	1.49e+00	0	42	104	0	76	13612
2026-01-23 13:15:29.20	257.20	4.65	-52.5	-63.0	4.0	1.49e+00	0	42	104	0	76	12229
2026-01-23 13:15:30.21	257.32	4.69	-52.5	-62.8	4.0	1.48e+00	0	42	104	0	76	11879
2026-01-23 13:15:31.22	257.45	4.73	-52.3	-61.3	4.4	1.45e+00	0	42	104	0	76	9962
2026-01-23 13:15:32.23	257.58	4.77	-51.8	-58.3	6.0	4.59e-01	0	42	0	0	75	7516
2026-01-23 13:15:33.23	257.70	4.81	-50.6	-54.6	9.5	3.68e-02	0	42	0	3145728	73	5523
2026-01-23 13:15:34.24	257.83	4.85	-49.0	-51.6	12.7	1.27e-04	0	42	0	6291456	70	4630
2026-01-23 13:15:35.25	257.95	4.89	-48.1	-50.2	14.2	2.20e-06	0	42	0	9437184	68	4406
2026-01-23 13:15:36.26	258.08	4.93	-46.2	-47.7	16.6	0.00e+00	0	42	0	12582912	64	4160
2026-01-23 13:15:37.27	258.21	4.97	-46.1	-47.6	16.8	0.00e+00	0	42	0	15728640	63	4355
2026-01-23 13:15:38.27	258.33	5.01	-46.3	-47.8	16.5	0.00e+00	0	42	0	18874368	63	4493
2026-01-23 13:15:39.28	258.46	5.05	-45.6	-46.9	17.5	0.00e+00	0	42	0	22020096	63	4035
2026-01-23 13:15:40.29	258.59	5.09	-48.3	-50.6	13.6	1.45e-02	0	42	0	25165824	68	4609
2026-01-23 13:15:41.30	258.72	5.13	-48.1	-50.2	14.2	5.30e-06	0	42	0	28311552	67	4682
2026-01-23 13:15:42.31	258.85	5.17	-46.7	-48.3	16.0	3.00e-06	0	42	0	31457280	65	4236
2026-01-23 13:15:43.31	258.98	5.21	-46.8	-48.4	15.8	0.00e+00	0	42	0	34603008	64	4544
2026-01-23 13:15:44.32	259.11	5.25	-45.3	-46.6	17.7	0.00e+00	0	42	0	37748736	62	4136
2026-01-23 13:15:45.33	259.24	5.29	-45.2	-46.5	17.8	0.00e+00	0	42	0	40894464	62	4073
2026-01-23 13:15:46.34	259.37	5.32	-45.3	-46.6	17.8	0.00e+00	0	43	0	44040192	62	4099
2026-01-23 13:15:47.34	259.50	5.36	-45.6	-46.9	17.4	0.00e+00	0	42	0	47185920	62	4281
2026-01-23 13:15:48.35	259.63	5.40	-45.5	-46.9	17.5	0.00e+00	0	42	0	50331648	62	4250
2026-01-23 13:15:49.36	259.76	5.44	-45.2	-46.5	17.9	0.00e+00	0	42	0	53477376	62	4067
2026-01-23 13:15:50.37	259.89	5.48	-45.5	-46.9	17.5	0.00e+00	0	42	0	56623104	62	4258
2026-01-23 13:15:51.38	260.02	5.52	-45.5	-46.8	17.6	0.00e+00	0	42	0	59768832	62	4214
2026-01-23 13:15:52.38	260.15	5.56	-45.2	-46.4	18.0	0.00e+00	0	42	0	62914560	62	4042
2026-01-23 13:15:53.39	260.29	5.60	-45.6	-46.9	17.5	0.00e+00	0	42	0	66060288	62	4287
2026-01-23 13:15:54.40	260.42	5.63	-45.3	-46.6	17.9	0.00e+00	0	43	0	69206016	62	4103
2026-01-23 13:15:55.41	260.55	5.67	-45.2	-46.5	17.9	0.00e+00	0	43	0	72351744	61	4328
2026-01-23 13:15:56.42	260.69	5.71	-45.3	-46.6	17.8	0.00e+00	0	42	0	75497472	61	4385
2026-01-23 13:15:57.43	260.82	5.75	-45.3	-46.5	17.9	0.00e+00	0	43	0	78643200	61	4334
2026-01-23 13:15:58.44	260.95	5.79	-45.4	-46.7	17.7	0.00e+00	0	42	0	81788928	61	4430
2026-01-23 13:15:59.44	261.09	5.83	-45.6	-47.0	17.5	0.00e+00	0	43	0	84934656	61	4551
2026-01-23 13:16:00.45	261.22	5.86	-45.2	-46.5	17.9	0.00e+00	0	42	0	88080384	61	4303
2026-01-23 13:16:01.46	261.36	5.90	-45.3	-46.6	17.9	0.00e+00	0	43	0	92274688	61	4346
2026-01-23 13:16:02.47	261.49	5.94	-45.2	-46.5	18.0	0.00e+00	0	43	0	95420416	61	4299
2026-01-23 13:16:03.48	261.63	5.98	-45.3	-46.6	17.8	0.00e+00	0	42	0	98566144	61	4380
2026-01-23 13:16:04.48	261.77	6.02	-45.4	-46.7	17.8	0.00e+00	0	42	0	100663296	61	4395
2026-01-23 13:16:05.49	261.90	6.05	-45.4	-46.7	17.8	0.00e+00	0	42	0	103809024	61	4400
2026-01-23 13:16:06.50	262.04	6.09	-45.2	-46.5	18.0	0.00e+00	0	43	0	106954752	61	4304
2026-01-23 13:16:07.51	262.18	6.13	-45.2	-46.5	18.0	0.00e+00	0	43	0	110100480	61	4293
2026-01-23 13:16:08.52	262.31	6.17	-45.2	-46.5	18.0	0.00e+00	0	42	0	113246208	61	4303
2026-01-23 13:16:09.53	262.45	6.20	-45.2	-46.5	18.0	0.00e+00	0	43	0	116391936	61	4297
2026-01-23 13:16:10.53	262.59	6.24	-45.1	-46.4	18.1	0.00e+00	0	43	0	119537664	61	4255
2026-01-23 13:16:11.54	262.73	6.28	-45.2	-46.4	18.1	0.00e+00	0	43	0	122683392	61	4266
2026-01-23 13:16:12.55	262.87	6.31	-45.4	-46.7	17.8	0.00e+00	0	43	0	125829120	61	4420
2026-01-23 13:16:13.56	263.01	6.35	-45.2	-46.5	18.0	0.00e+00	0	42	0	128974848	61	4319
2026-01-23 13:16:14.56	263.15	6.39	-45.2	-46.4	18.1	0.00e+00	0	42	0	133169152	61	4275
2026-01-23 13:16:15.58	263.29	6.43	-44.7	-45.8	18.6	0.00e+00	0	42	0	136314880	61	3997
2026-01-23 13:16:16.58	263.43	6.46	-45.1	-46.3	18.2	0.00e+00	0	42	0	139460608	61	4224
2026-01-23 13:16:17.59	263.57	6.50	-45.0	-46.2	18.3	0.00e+00	0	42	0	142606336	61	4160
2026-01-23 13:16:18.60	263.71	6.53	-45.3	-46.6	17.9	0.00e+00	0	43	0	145752064	61	4372
2026-01-23 13:16:19.61	263.85	6.57	-45.1	-46.4	18.2	0.00e+00	0	42	0	147849216	61	4245
2026-01-23 13:16:20.62	263.99	6.61	-45.2	-46.5	18.0	0.00e+00	0	42	0	150994944	61	4323
2026-01-23 13:16:21.63	264.13	6.64	-44.7	-45.9	18.5	0.00e+00	0	42	0	154140672	61	4041
2026-01-23 13:16:22.63	264.27	6.68	-44.9	-46.0	18.5	0.00e+00	0	43	0	157286400	61	4097
2026-01-23 13:16:23.64	264.42	6.72	-45.0	-46.2	18.4	0.00e+00	0	43	0	160432128	61	4154
2026-01-23 13:16:24.65	264.56	6.75	-44.7	-45.9	18.6	0.00e+00	0	43	0	163577856	61	4016
2026-01-23 13:16:25.66	264.70	6.79	-44.7	-45.9	18.6	0.00e+00	0	43	0	166723584	61	4022
2026-01-23 13:16:26.67	264.85	6.82	-45.3	-46.5	18.0	0.00e+00	0	43	0	170917888	61	4330
2026-01-23 13:16:27.67	264.99	6.86	-45.2	-46.5	18.1	0.00e+00	0	43	0	174063616	61	4301
2026-01-23 13:16:28.68	265.14	6.89	-44.8	-46.0	18.5	0.00e+00	0	43	0	177209344	61	4071
2026-01-23 13:16:29.68	265.28	6.93	-44.8	-46.0	18.6	0.00e+00	0	43	0	180355072	61	4057
2026-01-23 13:16:30.69	265.42	6.97	-44.4	-45.6	18.9	0.00e+00	0	43	0	183500800	60	4104
2026-01-23 13:16:31.70	265.57	7.00	-44.6	-45.7	18.8	0.00e+00	0	43	0	186646528	60	4176
2026-01-23 13:16:32.71	265.72	7.04	-44.7	-45.8	18.7	0.00e+00	0	43	0	189792256	60	4213
2026-01-23 13:16:33.72	265.86	7.07	-44.4	-45.5	19.0	0.00e+00	0	43	0	192937984	60	4065
2026-01-23 13:16:34.73	266.01	7.11	-44.3	-45.4	19.1	0.00e+00	0	42	0	195035136	60	4044
2026-01-23 13:16:35.73	266.15	7.14	-44.4	-45.4	19.1	0.00e+00	0	43	0	198180864	60	4048
2026-01-23 13:16:36.74	266.30	7.18	-44.5	-45.6	18.9	0.00e+00	0	42	0	201326592	60	4131
2026-01-23 13:16:37.75	266.45	7.21	-44.5	-45.6	18.9	0.00e+00	0	43	0	204472320	60	4113
2026-01-23 13:16:38.76	266.60	7.24	-44.3	-45.4	19.1	0.00e+00	0	43	0	207618048	60	4038
2026-01-23 13:16:39.77	266.75	7.28	-44.4	-45.5	18.9	0.00e+00	0	43	0	211812352	60	4074
2026-01-23 13:16:40.78	266.89	7.31	-44.6	-45.8	18.7	0.00e+00	0	42	0	214958080	60	4201
2026-01-23 13:16:41.79	267.04	7.35	-44.4	-45.6	18.8	0.00e+00	0	43	0	218103808	60	4108
2026-01-23 13:16:42.79	267.19	7.38	-44.5	-45.7	18.6	0.00e+00	0	43	0	221249536	60	4155
2026-01-23 13:16:43.80	267.34	7.41	-44.8	-46.1	18.2	0.00e+00	0	43	0	224395264	60	4346
2026-01-23 13:16:44.81	267.49	7.45	-45.2	-46.5	17.7	0.00e+00	0	42	0	227540992	60	4578
2026-01-23 13:16:45.82	267.64	7.48	-45.8	-47.3	16.8	0.00e+00	0	42	0	230686720	62	4488
2026-01-23 13:16:46.83	267.79	7.52	-46.5	-48.3	15.7	0.00e+00	0	43	0	233832448	63	4706
2026-01-23 13:16:47.83	267.94	7.55	-47.2	-49.3	14.4	0.00e+00	0	43	0	236978176	64	5006
2026-01-23 13:16:48.84	268.09	7.58	-47.9	-50.4	13.1	6.10e-06	0	43	0	240123904	66	5060
2026-01-23 13:16:49.85	268.24	7.62	-48.3	-51.1	12.3	9.68e-05	0	43	0	242221056	67	5172
2026-01-23 13:16:50.86	268.39	7.65	-48.9	-52.2	11.2	9.68e-04	0	43	0	245366784	68	5552
2026-01-23 13:16:51.86	268.55	7.68	-49.3	-53.1	10.0	6.68e-03	0	43	0	249561088	69	5842
2026-01-23 13:16:52.87	268.70	7.71	-49.1	-52.8	10.4	4.48e-03	0	43	0	252706816	69	5621
2026-01-23 13:16:53.88	268.85	7.75	-49.1	-52.8	10.3	4.65e-03	0	43	0	255852544	69	5628
2026-01-23 13:16:54.89	269.00	7.78	-49.2	-53.0	10.1	7.22e-03	0	43	0	258998272	69	5761
2026-01-23 13:16:55.90	269.16	7.81	-49.2	-53.0	10.0	7.24e-03	0	43	0	262144000	69	5788
2026-01-23 13:16:56.90	269.31	7.84	-49.1	-52.9	10.1	7.59e-03	0	43	0	265289728	69	5676
2026-01-23 13:16:57.91	269.46	7.88	-48.9	-52.4	10.6	3.91e-03	0	43	0	268435456	69	5363
2026-01-23 13:16:58.92	269.62	7.91	-48.8	-52.4	10.6	3.29e-03	0	43	0	271581184	69	5358
2026-01-23 13:16:59.93	269.77	7.94	-48.5	-51.6	11.5	2.36e-03	0	43	0	274726912	69	4907
2026-01-23 13:17:00.94	269.93	7.97	-48.1	-50.8	12.5	2.59e-04	0	43	0	277872640	68	4719
2026-01-23 13:17:01.94	270.08	8.00	-47.5	-49.8	13.7	1.14e-05	0	43	0	281018368	67	4445
2026-01-23 13:17:02.95	270.24	8.03	-46.9	-48.8	14.9	0.00e+00	0	43	0	284164096	65	4455
2026-01-23 13:17:03.96	270.40	8.07	-46.9	-48.8	15.1	0.00e+00	0	43	0	287309824	65	4449
2026-01-23 13:17:04.97	270.55	8.10	-46.3	-47.9	16.1	0.00e+00	0	43	0	290455552	64	4260
2026-01-23 13:17:05.98	270.71	8.13	-45.7	-47.1	17.2	0.00e+00	0	43	0	293601280	63	4117
2026-01-23 13:17:06.99	270.87	8.16	-45.5	-46.8	17.6	0.00e+00	0	43	0	296747008	62	4235
2026-01-23 13:17:07.99	271.02	8.19	-45.3	-46.6	17.9	0.00e+00	0	43	0	299892736	62	4131
2026-01-23 13:17:09.00	271.18	8.22	-45.1	-46.4	18.2	0.00e+00	0	43	0	303038464	62	4010
2026-01-23 13:17:10.01	271.34	8.25	-44.6	-45.8	18.8	0.00e+00	0	43	0	306184192	61	3967
2026-01-23 13:17:11.02	271.50	8.28	-44.7	-45.8	18.8	0.00e+00	0	43	0	309329920	61	3998
2026-01-23 13:17:12.03	271.65	8.31	-44.8	-45.9	18.7	0.00e+00	0	43	0	312475648	61	4045
2026-01-23 13:17:13.03	271.81	8.34	-44.6	-45.7	19.0	0.00e+00	0	43	0	315621376	61	3921
2026-01-23 13:17:14.04	271.97	8.37	-44.4	-45.5	19.1	0.00e+00	0	43	0	318767104	60	4077
2026-01-23 13:17:15.05	272.13	8.40	-44.4	-45.4	19.2	0.00e+00	0	43	0	321912832	60	4050
2026-01-23 13:17:16.06	272.29	8.43	-44.5	-45.6	19.0	0.00e+00	0	43	0	325058560	60	4116
2026-01-23 13:17:17.06	272.45	8.46	-44.2	-45.3	19.3	0.00e+00	0	43	0	328204288	60	3979
2026-01-23 13:17:18.07	272.61	8.49	-44.4	-45.5	19.2	0.00e+00	0	43	0	331350016	60	4057
2026-01-23 13:17:19.08	272.77	8.52	-44.4	-45.5	19.1	0.00e+00	0	43	0	334495744	60	4090
2026-01-23 13:17:20.09	272.93	8.55	-44.4	-45.4	19.2	0.00e+00	0	43	0	337641472	60	4051
2026-01-23 13:17:21.10	273.09	8.57	-44.3	-45.4	19.3	0.00e+00	0	43	0	340787200	60	4028
2026-01-23 13:17:22.10	273.25	8.60	-44.3	-45.4	19.3	0.00e+00	0	43	0	343932928	60	4010
2026-01-23 13:17:23.11	273.42	8.63	-44.2	-45.3	19.3	0.00e+00	0	43	0	347078656	60	3977
2026-01-23 13:17:24.12	273.58	8.66	-44.5	-45.6	19.1	0.00e+00	0	43	0	350224384	60	4102
2026-01-23 13:17:25.13	273.74	8.69	-44.6	-45.7	19.0	0.00e+00	0	43	0	353370112	60	4158
2026-01-23 13:17:26.14	273.90	8.72	-44.4	-45.5	19.2	0.00e+00	0	43	0	356515840	60	4076
2026-01-23 13:17:27.15	274.07	8.74	-44.4	-45.5	19.2	0.00e+00	0	43	0	359661568	60	4083
2026-01-23 13:17:28.16	274.23	8.77	-44.5	-45.6	19.1	0.00e+00	0	43	0	362807296	60	4125
2026-01-23 13:17:29.17	274.39	8.80	-44.6	-45.7	19.0	0.00e+00	0	43	0	365953024	60	4166
2026-01-23 13:17:30.17	274.56	8.82	-44.6	-45.8	18.9	0.00e+00	0	43	0	369098752	60	4196
2026-01-23 13:17:31.18	274.72	8.85	-44.6	-45.7	19.0	0.00e+00	0	43	0	372244480	60	4153
2026-01-23 13:17:32.19	274.89	8.88	-44.5	-45.6	19.1	0.00e+00	0	43	0	375390208	60	4140
2026-01-23 13:17:33.20	275.05	8.91	-44.5	-45.6	19.1	0.00e+00	0	43	0	378535936	60	4119
2026-01-23 13:17:34.20	275.21	8.93	-44.5	-45.6	19.1	0.00e+00	0	43	0	381681664	60	4119
2026-01-23 13:17:35.21	275.38	8.96	-44.4	-45.5	19.3	0.00e+00	0	43	0	384827392	60	4052
2026-01-23 13:17:36.22	275.55	8.98	-44.3	-45.4	19.2	0.00e+00	0	43	0	387973120	60	4033
2026-01-23 13:17:37.23	275.71	9.01	-44.3	-45.3	19.4	0.00e+00	0	43	0	391118848	60	3990
2026-01-23 13:17:38.24	275.88	9.04	-44.2	-45.3	19.4	0.00e+00	0	43	0	394264576	60	3961
2026-01-23 13:17:39.25	276.05	9.06	-44.1	-45.2	19.5	0.00e+00	0	43	0	397410304	60	3931
2026-01-23 13:17:40.26	276.21	9.09	-44.2	-45.3	19.4	0.00e+00	0	43	0	400556032	60	3966
2026-01-23 13:17:41.27	276.38	9.11	-44.2	-45.2	19.4	0.00e+00	0	43	0	403701760	60	3954
2026-01-23 13:17:42.27	276.55	9.14	-44.2	-45.3	19.4	0.00e+00	0	43	0	406847488	60	3973
2026-01-23 13:17:43.28	276.71	9.16	-44.2	-45.2	19.4	0.00e+00	0	43	0	409993216	60	3951
2026-01-23 13:17:44.29	276.88	9.19	-44.2	-45.2	19.5	0.00e+00	0	43	0	413138944	60	3948
2026-01-23 13:17:45.30	277.05	9.21	-44.2	-45.2	19.5	0.00e+00	0	43	0	416284672	60	3943
2026-01-23 13:17:46.31	277.22	9.24	-44.3	-45.4	19.4	0.00e+00	0	43	0	419430400	60	4005
2026-01-23 13:17:47.31	277.39	9.26	-44.2	-45.2	19.4	0.00e+00	0	43	0	422576128	60	3958
2026-01-23 13:17:48.32	277.56	9.28	-44.2	-45.2	19.5	0.00e+00	0	43	0	425721856	60	3945
2026-01-23 13:17:49.33	277.73	9.31	-44.2	-45.2	19.5	0.00e+00	0	43	0	428867584	60	3937
2026-01-23 13:17:50.34	277.90	9.33	-44.2	-45.2	19.4	0.00e+00	0	43	0	432013312	60	3947
2026-01-23 13:17:51.34	278.06	9.35	-44.2	-45.3	19.5	0.00e+00	0	43	0	435159040	60	3963
2026-01-23 13:17:52.35	278.23	9.38	-44.1	-45.2	19.5	0.00e+00	0	43	0	438304768	60	3916
2026-01-23 13:17:53.36	278.40	9.40	-44.1	-45.2	19.5	0.00e+00	0	43	0	441450496	60	3926
2026-01-23 13:17:54.37	278.57	9.42	-44.3	-45.3	19.4	0.00e+00	0	43	0	444596224	60	3997
2026-01-23 13:17:55.38	278.75	9.45	-44.4	-45.4	19.3	0.00e+00	0	43	0	447741952	60	4038
2026-01-23 13:17:56.38	278.92	9.47	-44.3	-45.4	19.4	0.00e+00	0	43	0	450887680	60	4005
2026-01-23 13:17:57.39	279.09	9.49	-44.3	-45.4	19.4	0.00e+00	0	43	0	454033408	60	4005
2026-01-23 13:17:58.40	279.26	9.51	-44.2	-45.3	19.4	0.00e+00	0	43	0	457179136	60	3965
2026-01-23 13:17:59.41	279.43	9.53	-44.3	-45.3	19.4	0.00e+00	0	43	0	460324864	60	3996
2026-01-23 13:18:00.42	279.60	9.55	-44.2	-45.2	19.5	0.00e+00	0	43	0	463470592	60	3949
2026-01-23 13:18:01.43	279.78	9.58	-44.3	-45.4	19.4	0.00e+00	0	43	0	466616320	60	4010
2026-01-23 13:18:02.43	279.95	9.60	-44.3	-45.4	19.4	0.00e+00	0	43	0	469762048	60	4006
2026-01-23 13:18:03.44	280.12	9.62	-44.2	-45.2	19.5	0.00e+00	0	43	0	472907776	60	3953
2026-01-23 13:18:04.45	280.29	9.64	-44.1	-45.2	19.6	0.00e+00	0	43	0	476053504	60	3914
2026-01-23 13:18:05.46	280.47	9.66	-44.1	-45.2	19.6	0.00e+00	0	43	0	479199232	60	3927
2026-01-23 13:18:06.46	280.64	9.68	-44.1	-45.1	19.7	0.00e+00	0	43	0	482344960	60	3900
2026-01-23 13:18:07.47	280.81	9.70	-44.1	-45.1	19.6	0.00e+00	0	43	0	485490688	60	3898
2026-01-23 13:18:08.48	280.99	9.72	-44.3	-45.3	19.5	0.00e+00	0	43	0	488636416	60	3997
2026-01-23 13:18:09.49	281.16	9.74	-44.3	-45.4	19.4	0.00e+00	0	43	0	491782144	60	4033
2026-01-23 13:18:10.50	281.34	9.76	-44.5	-45.5	19.3	0.00e+00	0	43	0	494927872	60	4094
2026-01-23 13:18:11.51	281.51	9.78	-44.3	-45.4	19.4	0.00e+00	0	43	0	498073600	60	4031
2026-01-23 13:18:12.51	281.68	9.80	-44.4	-45.5	19.3	0.00e+00	0	43	0	501219328	60	4081
2026-01-23 13:18:13.52	281.86	9.81	-44.5	-45.6	19.2	0.00e+00	0	43	0	504365056	60	4139
2026-01-23 13:18:14.53	282.03	9.83	-44.4	-45.4	19.4	0.00e+00	0	43	0	507510784	60	4048
2026-01-23 13:18:15.54	282.21	9.85	-44.1	-45.2	19.6	0.00e+00	0	43	0	510656512	60	3923
2026-01-23 13:18:16.55	282.39	9.87	-44.2	-45.3	19.6	0.00e+00	0	43	0	513802240	60	3963
2026-01-23 13:18:17.56	282.56	9.89	-44.3	-45.3	19.5	0.00e+00	0	43	0	516947968	60	3990
2026-01-23 13:18:18.56	282.74	9.91	-44.2	-45.2	19.6	0.00e+00	0	43	0	520093696	60	3953
2026-01-23 13:18:19.57	282.91	9.92	-44.2	-45.2	19.6	0.00e+00	0	43	0	523239424	60	3942
2026-01-23 13:18:20.58	283.09	9.94	-44.3	-45.4	19.4	0.00e+00	0	43	0	526385152	60	4025
2026-01-23 13:18:21.59	283.27	9.96	-44.5	-45.6	19.3	0.00e+00	0	43	0	529530880	60	4114
2026-01-23 13:18:22.59	283.44	9.97	-44.3	-45.4	19.4	0.00e+00	0	43	0	532676608	60	4009
2026-01-23 13:18:23.60	283.62	9.99	-44.4	-45.4	19.4	0.00e+00	0	43	0	535822336	60	4038
2026-01-23 13:18:24.61	283.80	10.01	-44.3	-45.4	19.5	0.00e+00	0	43	0	538968064	60	4007
2026-01-23 13:18:25.62	283.97	10.02	-44.2	-45.3	19.5	0.00e+00	0	43	0	542113792	60	3972
2026-01-23 13:18:26.63	284.15	10.04	-44.4	-45.5	19.4	0.00e+00	0	43	0	545259520	60	4056
2026-01-23 13:18:27.63	284.33	10.05	-44.6	-45.6	19.2	0.00e+00	0	43	0	548405248	60	4138
2026-01-23 13:18:28.64	284.51	10.07	-44.2	-45.3	19.6	0.00e+00	0	43	0	551550976	60	3973
2026-01-23 13:18:29.65	284.68	10.08	-44.2	-45.3	19.6	0.00e+00	0	43	0	554696704	60	3960
2026-01-23 13:18:30.66	284.86	10.10	-44.0	-45.0	19.8	0.00e+00	0	43	0	557842432	60	3851
2026-01-23 13:18:31.67	285.04	10.11	-44.1	-45.1	19.8	0.00e+00	0	43	0	560988160	60	3872
2026-01-23 13:18:32.68	285.22	10.13	-44.2	-45.2	19.6	0.00e+00	0	43	0	564133888	60	3937
2026-01-23 13:18:33.69	285.40	10.14	-44.3	-45.3	19.5	0.00e+00	0	43	0	567279616	60	3994
2026-01-23 13:18:34.69	285.58	10.16	-44.2	-45.3	19.6	0.00e+00	0	43	0	570425344	60	3959
2026-01-23 13:18:35.70	285.76	10.17	-44.3	-45.3	19.6	0.00e+00	0	43	0	573571072	60	3978
2026-01-23 13:18:36.71	285.94	10.18	-44.4	-45.4	19.5	0.00e+00	0	43	0	576716800	60	4033
2026-01-23 13:18:37.72	286.12	10.20	-44.5	-45.5	19.4	0.00e+00	0	43	0	579862528	60	4093
2026-01-23 13:18:38.72	286.29	10.21	-44.3	-45.3	19.6	0.00e+00	0	43	0	583008256	60	3977
2026-01-23 13:18:39.73	286.47	10.22	-44.2	-45.2	19.7	0.00e+00	0	43	0	586153984	60	3928
2026-01-23 13:18:40.74	286.65	10.24	-44.4	-45.4	19.5	0.00e+00	0	43	0	589299712	60	4027
2026-01-23 13:18:41.75	286.83	10.25	-44.1	-45.1	19.8	0.00e+00	0	43	0	592445440	60	3897
2026-01-23 13:18:42.76	287.01	10.26	-44.2	-45.2	19.7	0.00e+00	0	43	0	595591168	60	3945
2026-01-23 13:18:43.77	287.20	10.27	-44.1	-45.1	19.7	0.00e+00	0	43	0	598736896	60	3909
2026-01-23 13:18:44.77	287.37	10.28	-44.2	-45.3	19.6	0.00e+00	0	43	0	601882624	60	3973
2026-01-23 13:18:45.78	287.56	10.29	-44.1	-45.1	19.8	0.00e+00	0	43	0	605028352	60	3891
2026-01-23 13:18:46.79	287.74	10.31	-44.1	-45.2	19.7	0.00e+00	0	43	0	608174080	60	3916
2026-01-23 13:18:47.80	287.92	10.32	-44.4	-45.5	19.4	0.00e+00	0	43	0	611319808	60	4082
2026-01-23 13:18:48.81	288.10	10.33	-44.3	-45.3	19.5	0.00e+00	0	43	0	614465536	60	3999
2026-01-23 13:18:49.82	288.28	10.34	-44.3	-45.3	19.5	0.00e+00	0	43	0	617611264	60	4002
2026-01-23 13:18:50.83	288.46	10.35	-44.2	-45.2	19.6	0.00e+00	0	43	0	620756992	60	3950
2026-01-23 13:18:51.83	288.64	10.36	-44.3	-45.4	19.5	0.00e+00	0	43	0	623902720	60	4013
2026-01-23 13:18:52.84	288.82	10.37	-44.1	-45.2	19.8	0.00e+00	0	43	0	627048448	60	3917
2026-01-23 13:18:53.85	289.00	10.38	-44.2	-45.2	19.7	0.00e+00	0	43	0	630194176	60	3926
2026-01-23 13:18:54.86	289.19	10.38	-44.0	-45.0	19.9	0.00e+00	0	43	0	633339904	60	3848
2026-01-23 13:18:55.87	289.37	10.39	-44.2	-45.2	19.8	0.00e+00	0	43	0	636485632	60	3923
2026-01-23 13:18:56.87	289.55	10.40	-44.3	-45.4	19.6	0.00e+00	0	43	0	639631360	60	4013
2026-01-23 13:18:57.88	289.73	10.41	-44.2	-45.3	19.7	0.00e+00	0	43	0	642777088	60	3960
2026-01-23 13:18:58.89	289.91	10.42	-44.2	-45.3	19.7	0.00e+00	0	43	0	645922816	60	3968
2026-01-23 13:18:59.90	290.10	10.43	-44.3	-45.3	19.7	0.00e+00	0	43	0	649068544	60	4000
2026-01-23 13:19:00.90	290.28	10.43	-44.4	-45.4	19.6	0.00e+00	0	43	0	652214272	60	4023
2026-01-23 13:19:01.91	290.46	10.44	-44.3	-45.3	19.7	0.00e+00	0	43	0	655360000	60	3983
2026-01-23 13:19:02.92	290.64	10.45	-44.4	-45.5	19.5	0.00e+00	0	43	0	658505728	60	4060
2026-01-23 13:19:03.93	290.82	10.46	-44.4	-45.4	19.6	0.00e+00	0	43	0	661651456	60	4040
2026-01-23 13:19:04.94	291.01	10.46	-44.2	-45.2	19.8	0.00e+00	0	43	0	664797184	60	3926
2026-01-23 13:19:05.94	291.19	10.47	-44.1	-45.1	19.9	0.00e+00	0	43	0	667942912	60	3909
2026-01-23 13:19:06.95	291.37	10.47	-44.0	-45.0	20.0	0.00e+00	0	43	0	671088640	60	3857
2026-01-23 13:19:07.96	291.55	10.48	-44.0	-45.0	19.9	0.00e+00	0	43	0	674234368	60	3858
2026-01-23 13:19:08.97	291.74	10.49	-44.1	-45.1	19.9	0.00e+00	0	43	0	677380096	60	3900
2026-01-23 13:19:09.98	291.92	10.49	-44.3	-45.4	19.9	0.00e+00	0	43	0	680525824	59	4256
2026-01-23 13:19:10.99	292.10	10.50	-44.5	-45.5	19.8	0.00e+00	0	43	0	683671552	59	4327
2026-01-23 13:19:11.99	292.29	10.50	-44.3	-45.4	19.9	0.00e+00	0	43	0	686817280	59	4245
2026-01-23 13:19:13.00	292.47	10.51	-44.4	-45.5	19.8	0.00e+00	0	43	0	689963008	59	4304
2026-01-23 13:19:14.01	292.65	10.51	-44.5	-45.5	19.8	0.00e+00	0	43	0	693108736	59	4317
2026-01-23 13:19:15.02	292.84	10.51	-44.4	-45.4	19.9	0.00e+00	0	43	0	696254464	59	4260
2026-01-23 13:19:16.02	293.02	10.52	-44.4	-45.4	19.8	0.00e+00	0	43	0	699400192	59	4271
2026-01-23 13:19:17.03	293.20	10.52	-44.4	-45.5	19.8	0.00e+00	0	43	0	702545920	59	4292
2026-01-23 13:19:18.04	293.38	10.52	-44.3	-45.3	19.9	0.00e+00	0	43	0	705691648	59	4233
2026-01-23 13:19:19.05	293.57	10.53	-44.4	-45.5	19.8	0.00e+00	0	43	0	708837376	59	4297
2026-01-23 13:19:20.06	293.75	10.53	-44.5	-45.6	19.7	0.00e+00	0	43	0	711983104	59	4342
2026-01-23 13:19:21.07	293.94	10.53	-44.4	-45.4	19.8	0.00e+00	0	43	0	715128832	59	4278
2026-01-23 13:19:22.08	294.12	10.53	-44.5	-45.6	19.6	0.00e+00	0	43	0	718274560	59	4357
2026-01-23 13:19:23.08	294.30	10.54	-44.5	-45.6	19.6	0.00e+00	0	43	0	721420288	59	4362
2026-01-23 13:19:24.09	294.48	10.54	-44.4	-45.5	19.8	0.00e+00	0	43	0	724566016	59	4293
2026-01-23 13:19:25.10	294.67	10.54	-44.4	-45.4	19.7	0.00e+00	0	43	0	727711744	59	4290
2026-01-23 13:19:26.11	294.85	10.54	-44.4	-45.4	19.7	0.00e+00	0	43	0	730857472	59	4282
2026-01-23 13:19:27.12	295.04	10.54	-44.5	-45.5	19.7	0.00e+00	0	43	0	734003200	59	4331
2026-01-23 13:19:28.13	295.22	10.54	-44.4	-45.5	19.7	0.00e+00	0	43	0	737148928	59	4294
2026-01-23 13:19:29.14	295.40	10.54	-44.4	-45.4	19.8	0.00e+00	0	43	0	740294656	59	4254
2026-01-23 13:19:30.15	295.59	10.54	-44.4	-45.4	19.8	0.00e+00	0	43	0	743440384	59	4261
2026-01-23 13:19:31.15	295.77	10.54	-44.5	-45.5	19.7	0.00e+00	0	43	0	746586112	59	4333
2026-01-23 13:19:32.16	295.95	10.54	-44.5	-45.5	19.7	0.00e+00	0	43	0	749731840	59	4321
2026-01-23 13:19:33.17	296.14	10.54	-44.4	-45.4	19.7	0.00e+00	0	43	0	752877568	59	4291
2026-01-23 13:19:34.18	296.32	10.54	-44.4	-45.4	19.7	0.00e+00	0	43	0	756023296	59	4290
2026-01-23 13:19:35.18	296.50	10.54	-44.3	-45.4	19.8	0.00e+00	0	43	0	759169024	59	4249
2026-01-23 13:19:36.19	296.69	10.54	-44.4	-45.4	19.7	0.00e+00	0	43	0	762314752	59	4283
2026-01-23 13:19:37.20	296.87	10.54	-44.3	-45.4	19.8	0.00e+00	0	43	0	765460480	59	4249
2026-01-23 13:19:38.21	297.05	10.53	-44.4	-45.4	19.6	0.00e+00	0	43	0	768606208	59	4269
2026-01-23 13:19:39.22	297.24	10.53	-44.3	-45.4	19.8	0.00e+00	0	43	0	771751936	59	4245
2026-01-23 13:19:40.23	297.42	10.53	-44.4	-45.5	19.6	0.00e+00	0	43	0	774897664	59	4316
2026-01-23 13:19:41.23	297.60	10.53	-44.4	-45.4	19.7	0.00e+00	0	43	0	778043392	59	4274
2026-01-23 13:19:42.24	297.79	10.52	-44.4	-45.5	19.6	0.00e+00	0	43	0	781189120	59	4310
2026-01-23 13:19:43.25	297.97	10.52	-44.4	-45.4	19.7	0.00e+00	0	43	0	784334848	59	4288
2026-01-23 13:19:44.26	298.15	10.52	-44.4	-45.4	19.7	0.00e+00	0	43	0	787480576	59	4259
2026-01-23 13:19:45.27	298.34	10.51	-44.3	-45.4	19.7	0.00e+00	0	43	0	791674880	59	4249
2026-01-23 13:19:46.27	298.52	10.51	-44.3	-45.3	19.8	0.00e+00	0	43	0	794820608	59	4227
2026-01-23 13:19:47.28	298.70	10.51	-44.2	-45.2	19.8	0.00e+00	0	43	0	796917760	59	4191
2026-01-23 13:19:48.29	298.89	10.50	-44.2	-45.3	19.8	0.00e+00	0	43	0	800063488	59	4194
2026-01-23 13:19:49.30	299.07	10.50	-44.3	-45.3	19.8	0.00e+00	0	43	0	803209216	59	4220
2026-01-23 13:19:50.31	299.25	10.49	-44.2	-45.2	19.9	0.00e+00	0	43	0	806354944	59	4164
2026-01-23 13:19:51.31	299.43	10.49	-44.1	-45.1	20.0	0.00e+00	0	43	0	809500672	59	4112
2026-01-23 13:19:52.32	299.62	10.48	-44.1	-45.1	20.0	0.00e+00	0	43	0	812646400	59	4124
2026-01-23 13:19:53.33	299.80	10.47	-44.1	-45.1	20.0	0.00e+00	0	43	0	815792128	59	4108
2026-01-23 13:19:54.34	299.98	10.47	-44.2	-45.3	19.8	0.00e+00	0	43	0	818937856	59	4201
2026-01-23 13:19:55.35	300.16	10.46	-44.0	-45.0	20.1	0.00e+00	0	43	0	822083584	59	4072
2026-01-23 13:19:56.35	300.35	10.46	-44.0	-45.0	20.1	0.00e+00	0	43	0	825229312	59	4084
2026-01-23 13:19:57.36	300.53	10.45	-44.1	-45.1	20.0	0.00e+00	0	43	0	829423616	59	4102
2026-01-23 13:19:58.37	300.71	10.44	-44.0	-45.0	20.1	0.00e+00	0	43	0	832569344	59	4084
2026-01-23 13:19:59.38	300.89	10.43	-44.1	-45.1	20.0	0.00e+00	0	43	0	835715072	59	4107
2026-01-23 13:20:00.38	301.07	10.43	-44.2	-45.2	20.0	0.00e+00	0	43	0	838860800	59	4159
2026-01-23 13:20:01.39	301.26	10.42	-44.1	-45.2	20.0	0.00e+00	0	43	0	842006528	59	4152
2026-01-23 13:20:02.40	301.44	10.41	-44.2	-45.3	19.9	0.00e+00	0	43	0	844103680	59	4208
2026-01-23 13:20:03.41	301.62	10.40	-44.2	-45.2	20.0	0.00e+00	0	43	0	847249408	59	4156
2026-01-23 13:20:04.42	301.80	10.39	-44.3	-45.3	19.8	0.00e+00	0	43	0	850395136	59	4228
2026-01-23 13:20:05.42	301.98	10.39	-44.3	-45.3	19.8	0.00e+00	0	43	0	853540864	59	4241
2026-01-23 13:20:06.43	302.16	10.38	-44.2	-45.2	19.9	0.00e+00	0	43	0	856686592	59	4190
2026-01-23 13:20:07.44	302.35	10.37	-44.2	-45.2	19.9	0.00e+00	0	43	0	859832320	59	4157
2026-01-23 13:20:08.45	302.53	10.36	-44.2	-45.2	19.9	0.00e+00	0	43	0	862978048	59	4183
2026-01-23 13:20:09.46	302.71	10.35	-44.3	-45.3	19.8	0.00e+00	0	43	0	866123776	59	4222
2026-01-23 13:20:10.46	302.89	10.34	-44.1	-45.1	20.0	0.00e+00	0	43	0	870318080	59	4119
2026-01-23 13:20:11.47	303.07	10.33	-44.1	-45.1	20.0	0.00e+00	0	43	0	873463808	59	4116
2026-01-23 13:20:12.48	303.25	10.32	-44.2	-45.2	19.9	0.00e+00	0	43	0	876609536	59	4168
2026-01-23 13:20:13.49	303.43	10.31	-44.1	-45.2	19.9	0.00e+00	0	43	0	879755264	59	4148
2026-01-23 13:20:14.50	303.61	10.30	-44.1	-45.1	20.0	0.00e+00	0	43	0	882900992	59	4105
2026-01-23 13:20:15.50	303.79	10.28	-44.0	-45.0	20.0	0.00e+00	0	43	0	886046720	59	4090
2026-01-23 13:20:16.51	303.97	10.27	-44.2	-45.2	19.9	0.00e+00	0	43	0	889192448	59	4190
2026-01-23 13:20:17.52	304.15	10.26	-44.2	-45.2	19.9	0.00e+00	0	43	0	891289600	59	4174
2026-01-23 13:20:18.53	304.33	10.25	-44.2	-45.2	19.8	0.00e+00	0	43	0	894435328	59	4188
2026-01-23 13:20:19.54	304.51	10.24	-44.2	-45.3	19.8	0.00e+00	0	43	0	897581056	59	4197
2026-01-23 13:20:20.54	304.69	10.22	-44.2	-45.3	19.8	0.00e+00	0	43	0	900726784	59	4203
2026-01-23 13:20:21.55	304.87	10.21	-44.2	-45.2	19.9	0.00e+00	0	43	0	903872512	59	4157
2026-01-23 13:20:22.56	305.05	10.20	-44.2	-45.3	19.8	0.00e+00	0	43	0	908066816	59	4196
2026-01-23 13:20:23.57	305.23	10.19	-44.3	-45.3	19.7	0.00e+00	0	43	0	911212544	59	4235
2026-01-23 13:20:24.58	305.41	10.17	-44.4	-45.4	19.6	0.00e+00	0	43	0	914358272	59	4273
2026-01-23 13:20:25.58	305.58	10.16	-44.1	-45.1	19.9	0.00e+00	0	43	0	917504000	59	4134
2026-01-23 13:20:26.59	305.76	10.15	-44.1	-45.1	20.0	0.00e+00	0	43	0	920649728	59	4113
2026-01-23 13:20:27.60	305.94	10.13	-44.2	-45.2	19.8	0.00e+00	0	43	0	923795456	59	4192
2026-01-23 13:20:28.61	306.12	10.12	-44.2	-45.2	19.9	0.00e+00	0	43	0	926941184	59	4160
2026-01-23 13:20:29.62	306.30	10.10	-44.2	-45.2	19.8	0.00e+00	0	43	0	930086912	59	4188
2026-01-23 13:20:30.62	306.48	10.09	-44.3	-45.3	19.8	0.00e+00	0	43	0	933232640	59	4236
2026-01-23 13:20:31.63	306.65	10.07	-44.3	-45.4	19.7	0.00e+00	0	43	0	936378368	59	4244
2026-01-23 13:20:32.64	306.83	10.06	-44.3	-45.4	19.7	0.00e+00	0	43	0	938475520	59	4256
2026-01-23 13:20:33.65	307.01	10.04	-44.2	-45.2	19.8	0.00e+00	0	43	0	941621248	59	4188
2026-01-23 13:20:34.66	307.19	10.03	-44.3	-45.3	19.7	0.00e+00	0	43	0	944766976	59	4222
2026-01-23 13:20:35.66	307.36	10.01	-44.3	-45.3	19.7	0.00e+00	0	43	0	948961280	59	4238
2026-01-23 13:20:36.67	307.54	9.99	-44.2	-45.3	19.7	0.00e+00	0	43	0	952107008	59	4198
2026-01-23 13:20:37.68	307.72	9.98	-44.2	-45.2	19.7	0.00e+00	0	43	0	955252736	59	4193
2026-01-23 13:20:38.69	307.89	9.96	-44.3	-45.3	19.6	0.00e+00	0	43	0	958398464	59	4226
2026-01-23 13:20:39.70	308.07	9.94	-44.4	-45.5	19.5	0.00e+00	0	43	0	961544192	59	4305
2026-01-23 13:20:40.71	308.25	9.93	-44.4	-45.5	19.5	0.00e+00	0	43	0	964689920	59	4315
2026-01-23 13:20:41.71	308.42	9.91	-44.2	-45.3	19.7	0.00e+00	0	43	0	967835648	59	4216
2026-01-23 13:20:42.72	308.60	9.89	-44.5	-45.6	19.5	0.00e+00	0	43	0	970981376	59	4351
2026-01-23 13:20:43.73	308.77	9.87	-44.6	-45.7	19.3	0.00e+00	0	43	0	974127104	59	4424
2026-01-23 13:20:44.74	308.95	9.86	-44.5	-45.5	19.5	0.00e+00	0	43	0	977272832	59	4335
2026-01-23 13:20:45.74	309.12	9.84	-44.4	-45.5	19.5	0.00e+00	0	43	0	980418560	59	4309
2026-01-23 13:20:46.75	309.30	9.82	-44.3	-45.4	19.6	0.00e+00	0	43	0	983564288	59	4269
2026-01-23 13:20:47.76	309.47	9.80	-44.4	-45.5	19.5	0.00e+00	0	43	0	985661440	59	4293
2026-01-23 13:20:48.77	309.65	9.78	-44.4	-45.5	19.5	0.00e+00	0	43	0	989855744	59	4306
2026-01-23 13:20:49.78	309.82	9.76	-44.4	-45.5	19.5	0.00e+00	0	43	0	993001472	59	4320
2026-01-23 13:20:50.78	309.99	9.74	-44.3	-45.4	19.6	0.00e+00	0	43	0	996147200	59	4252
2026-01-23 13:20:51.79	310.17	9.72	-44.4	-45.4	19.5	0.00e+00	0	43	0	999292928	59	4289
2026-01-23 13:20:52.80	310.34	9.70	-44.4	-45.5	19.4	0.00e+00	0	43	0	1002438656	59	4328
2026-01-23 13:20:53.81	310.52	9.68	-44.5	-45.6	19.4	0.00e+00	0	43	0	1005584384	59	4349
2026-01-23 13:20:54.82	310.69	9.66	-44.4	-45.5	19.4	0.00e+00	0	43	0	1008730112	59	4315
2026-01-23 13:20:55.82	310.86	9.64	-44.5	-45.5	19.4	0.00e+00	0	43	0	1011875840	59	4331
2026-01-23 13:20:56.83	311.03	9.62	-44.5	-45.6	19.3	0.00e+00	0	43	0	1015021568	59	4366
2026-01-23 13:20:57.84	311.21	9.60	-44.5	-45.6	19.3	0.00e+00	0	43	0	1018167296	59	4342
2026-01-23 13:20:58.85	311.38	9.58	-44.5	-45.6	19.3	0.00e+00	0	43	0	1021313024	59	4372
2026-01-23 13:20:59.86	311.55	9.56	-44.4	-45.5	19.3	0.00e+00	0	43	0	1024458752	59	4325
2026-01-23 13:21:00.87	311.72	9.54	-44.5	-45.5	19.3	0.00e+00	0	43	0	1027604480	59	4338
2026-01-23 13:21:01.88	311.89	9.52	-44.5	-45.6	19.3	0.00e+00	0	43	0	1030750208	59	4370
2026-01-23 13:21:02.89	312.06	9.50	-44.3	-45.4	19.4	0.00e+00	0	43	0	1033895936	59	4271
2026-01-23 13:21:03.90	312.24	9.47	-44.4	-45.5	19.3	0.00e+00	0	43	0	1037041664	59	4315
2026-01-23 13:21:04.90	312.41	9.45	-44.5	-45.6	19.3	0.00e+00	0	43	0	1040187392	59	4355
2026-01-23 13:21:05.91	312.58	9.43	-44.5	-45.6	19.3	0.00e+00	0	43	0	1043333120	59	4374
2026-01-23 13:21:06.92	312.75	9.41	-44.4	-45.4	19.5	0.00e+00	0	43	0	1046478848	59	4276
2026-01-23 13:21:07.93	312.92	9.38	-44.2	-45.2	19.6	0.00e+00	0	43	0	1049624576	59	4178
2026-01-23 13:21:08.94	313.09	9.36	-44.2	-45.3	19.6	0.00e+00	0	43	0	1052770304	59	4197
2026-01-23 13:21:09.95	313.26	9.34	-44.2	-45.2	19.6	0.00e+00	0	43	0	1055916032	59	4173
2026-01-23 13:21:10.95	313.42	9.31	-44.0	-45.0	19.8	0.00e+00	0	43	0	1059061760	59	4098
2026-01-23 13:21:11.96	313.59	9.29	-44.1	-45.1	19.8	0.00e+00	0	43	0	1062207488	59	4121
2026-01-23 13:21:12.97	313.76	9.27	-44.1	-45.1	19.8	0.00e+00	0	43	0	1065353216	59	4139
2026-01-23 13:21:13.97	313.93	9.24	-44.1	-45.1	19.8	0.00e+00	0	43	0	1068498944	59	4136
2026-01-23 13:21:14.98	314.10	9.22	-44.2	-45.3	19.7	0.00e+00	0	43	0	1071644672	59	4201
2026-01-23 13:21:15.99	314.26	9.19	-44.3	-45.3	19.6	0.00e+00	0	43	0	1074790400	59	4227
2026-01-23 13:21:17.00	314.43	9.17	-44.4	-45.4	19.5	0.00e+00	0	43	0	1077936128	59	4288
2026-01-23 13:21:18.01	314.60	9.15	-44.3	-45.4	19.5	0.00e+00	0	43	0	1081081856	59	4265
2026-01-23 13:21:19.02	314.77	9.12	-44.4	-45.5	19.5	0.00e+00	0	43	0	1084227584	59	4292
2026-01-23 13:21:20.02	314.93	9.10	-44.4	-45.5	19.4	0.00e+00	0	43	0	1087373312	59	4324
2026-01-23 13:21:21.03	315.10	9.07	-44.4	-45.5	19.5	0.00e+00	0	43	0	1090519040	59	4297
2026-01-23 13:21:22.04	315.26	9.04	-44.5	-45.6	19.4	0.00e+00	0	43	0	1093664768	59	4342
2026-01-23 13:21:23.05	315.43	9.02	-44.5	-45.5	19.4	0.00e+00	0	43	0	1096810496	59	4334
2026-01-23 13:21:24.06	315.60	8.99	-44.3	-45.4	19.6	0.00e+00	0	43	0	1099956224	59	4249
2026-01-23 13:21:25.07	315.76	8.97	-44.4	-45.4	19.5	0.00e+00	0	43	0	1103101952	59	4287
2026-01-23 13:21:26.08	315.93	8.94	-44.1	-45.2	19.7	0.00e+00	0	43	0	1106247680	59	4160
2026-01-23 13:21:27.09	316.09	8.91	-44.1	-45.2	19.8	0.00e+00	0	43	0	1109393408	59	4149
2026-01-23 13:21:28.09	316.26	8.89	-44.0	-45.1	19.8	0.00e+00	0	43	0	1112539136	59	4106
2026-01-23 13:21:29.10	316.42	8.86	-44.1	-45.1	19.8	0.00e+00	0	43	0	1115684864	59	4116
2026-01-23 13:21:30.11	316.58	8.83	-44.2	-45.2	19.7	0.00e+00	0	43	0	1118830592	59	4176
2026-01-23 13:21:31.12	316.75	8.81	-44.3	-45.3	19.6	0.00e+00	0	43	0	1121976320	59	4241
2026-01-23 13:21:32.13	316.91	8.78	-44.2	-45.3	19.6	0.00e+00	0	43	0	1125122048	59	4212
2026-01-23 13:21:33.14	317.07	8.75	-44.3	-45.3	19.6	0.00e+00	0	43	0	1128267776	59	4236
2026-01-23 13:21:34.14	317.24	8.73	-44.2	-45.3	19.6	0.00e+00	0	43	0	1131413504	59	4214
2026-01-23 13:21:35.15	317.40	8.70	-44.3	-45.4	19.5	0.00e+00	0	43	0	1134559232	59	4246
2026-01-23 13:21:36.16	317.56	8.67	-44.3	-45.4	19.5	0.00e+00	0	43	0	1137704960	59	4253
2026-01-23 13:21:37.17	317.72	8.64	-44.3	-45.4	19.5	0.00e+00	0	43	0	1140850688	59	4246
2026-01-23 13:21:38.18	317.88	8.61	-44.3	-45.4	19.5	0.00e+00	0	43	0	1143996416	59	4250
2026-01-23 13:21:39.18	318.04	8.59	-44.3	-45.4	19.5	0.00e+00	0	43	0	1147142144	59	4257
2026-01-23 13:21:40.19	318.20	8.56	-44.3	-45.4	19.5	0.00e+00	0	43	0	1150287872	59	4248
2026-01-23 13:21:41.20	318.36	8.53	-44.3	-45.4	19.4	0.00e+00	0	43	0	1153433600	59	4271
2026-01-23 13:21:42.21	318.53	8.50	-44.4	-45.5	19.4	0.00e+00	0	43	0	1156579328	59	4323
2026-01-23 13:21:43.22	318.69	8.47	-44.5	-45.6	19.3	0.00e+00	0	43	0	1159725056	59	4365
2026-01-23 13:21:44.23	318.85	8.44	-44.6	-45.7	19.1	0.00e+00	0	43	0	1162870784	59	4420
2026-01-23 13:21:45.23	319.00	8.41	-44.4	-45.4	19.1	0.00e+00	0	43	0	1166016512	60	4051
2026-01-23 13:21:46.24	319.16	8.38	-44.1	-45.2	19.3	0.00e+00	0	43	0	1169162240	60	3922
2026-01-23 13:21:47.25	319.32	8.35	-44.3	-45.4	19.4	0.00e+00	0	43	0	1172307968	59	4271
2026-01-23 13:21:48.26	319.48	8.32	-44.5	-45.6	19.2	0.00e+00	0	43	0	1175453696	59	4364
2026-01-23 13:21:49.27	319.64	8.29	-44.4	-45.5	19.3	0.00e+00	0	43	0	1178599424	59	4332
2026-01-23 13:21:50.27	319.79	8.26	-44.5	-45.6	19.2	0.00e+00	0	43	0	1181745152	59	4373
2026-01-23 13:21:51.28	319.95	8.23	-44.5	-45.6	19.2	0.00e+00	0	43	0	1184890880	59	4390
2026-01-23 13:21:52.29	320.11	8.20	-44.5	-45.6	19.2	0.00e+00	0	43	0	1188036608	59	4386
2026-01-23 13:21:53.29	320.26	8.17	-44.4	-45.5	19.3	0.00e+00	0	43	0	1191182336	59	4313
2026-01-23 13:21:54.30	320.42	8.14	-44.3	-45.4	19.4	0.00e+00	0	43	0	1194328064	59	4284
2026-01-23 13:21:55.31	320.58	8.11	-44.4	-45.6	19.2	0.00e+00	0	43	0	1197473792	59	4345
2026-01-23 13:21:56.32	320.73	8.08	-44.4	-45.5	19.3	0.00e+00	0	43	0	1200619520	59	4307
2026-01-23 13:21:57.33	320.89	8.05	-44.4	-45.5	19.3	0.00e+00	0	43	0	1203765248	59	4295
2026-01-23 13:21:58.33	321.04	8.02	-44.4	-45.5	19.3	0.00e+00	0	43	0	1206910976	59	4303
2026-01-23 13:21:59.34	321.20	7.99	-44.3	-45.4	19.3	0.00e+00	0	43	0	1210056704	59	4286
2026-01-23 13:22:00.35	321.35	7.96	-44.3	-45.4	19.3	0.00e+00	0	43	0	1213202432	59	4285
2026-01-23 13:22:01.36	321.51	7.92	-44.3	-45.4	19.3	0.00e+00	0	43	0	1216348160	59	4260
2026-01-23 13:22:02.37	321.66	7.89	-44.2	-45.3	19.5	0.00e+00	0	43	0	1219493888	59	4218
2026-01-23 13:22:03.38	321.82	7.86	-44.3	-45.4	19.4	0.00e+00	0	43	0	1222639616	59	4273
2026-01-23 13:22:04.39	321.97	7.83	-44.2	-45.3	19.4	0.00e+00	0	43	0	1225785344	59	4222
2026-01-23 13:22:05.39	322.12	7.80	-44.5	-45.7	19.1	0.00e+00	0	43	0	1228931072	59	4393
2026-01-23 13:22:06.40	322.27	7.76	-44.5	-45.7	19.1	0.00e+00	0	43	0	1232076800	59	4395
2026-01-23 13:22:07.41	322.43	7.73	-44.2	-45.3	19.2	0.00e+00	0	43	0	1235222528	60	3974
2026-01-23 13:22:08.42	322.58	7.70	-44.4	-45.6	18.9	0.00e+00	0	43	0	1238368256	60	4105
2026-01-23 13:22:09.43	322.73	7.67	-44.4	-45.5	18.9	0.00e+00	0	43	0	1241513984	60	4072
2026-01-23 13:22:10.44	322.88	7.63	-44.2	-45.3	19.2	0.00e+00	0	43	0	1244659712	60	3964
2026-01-23 13:22:11.45	323.03	7.60	-44.4	-45.5	19.0	0.00e+00	0	43	0	1247805440	60	4081
2026-01-23 13:22:12.46	323.18	7.57	-44.2	-45.3	19.1	0.00e+00	0	43	0	1250951168	60	3994
2026-01-23 13:22:13.47	323.33	7.53	-44.3	-45.4	19.1	0.00e+00	0	43	0	1254096896	60	4029
2026-01-23 13:22:14.47	323.48	7.50	-44.2	-45.3	19.2	0.00e+00	0	43	0	1257242624	60	3964
2026-01-23 13:22:15.48	323.63	7.47	-44.3	-45.4	19.0	0.00e+00	0	43	0	1260388352	60	4038
2026-01-23 13:22:16.49	323.78	7.43	-44.3	-45.4	19.0	0.00e+00	0	43	0	1263534080	60	4049
2026-01-23 13:22:17.50	323.93	7.40	-44.4	-45.5	18.9	0.00e+00	0	43	0	1266679808	60	4079
2026-01-23 13:22:18.51	324.08	7.37	-44.3	-45.5	19.0	0.00e+00	0	43	0	1269825536	60	4064
2026-01-23 13:22:19.51	324.23	7.33	-44.3	-45.4	19.0	0.00e+00	0	43	0	1272971264	60	4047
2026-01-23 13:22:20.52	324.37	7.30	-44.5	-45.7	18.8	0.00e+00	0	43	0	1276116992	60	4149
2026-01-23 13:22:21.53	324.52	7.26	-44.4	-45.5	19.0	0.00e+00	0	43	0	1279262720	60	4068
2026-01-23 13:22:22.54	324.67	7.23	-44.2	-45.3	19.1	0.00e+00	0	43	0	1282408448	60	3990
2026-01-23 13:22:23.55	324.82	7.20	-44.3	-45.4	19.0	0.00e+00	0	43	0	1285554176	60	4047
2026-01-23 13:22:24.55	324.96	7.16	-44.3	-45.4	19.0	0.00e+00	0	43	0	1288699904	60	4012
2026-01-23 13:22:25.56	325.11	7.13	-44.3	-45.4	19.0	0.00e+00	0	43	0	1291845632	60	4014
2026-01-23 13:22:26.57	325.26	7.09	-44.6	-45.8	18.6	0.00e+00	0	43	0	1294991360	60	4223
2026-01-23 13:22:27.58	325.40	7.06	-44.5	-45.6	18.8	0.00e+00	0	43	0	1298137088	60	4142
2026-01-23 13:22:28.59	325.55	7.02	-44.3	-45.4	19.0	0.00e+00	0	43	0	1301282816	60	4029
2026-01-23 13:22:29.59	325.69	6.99	-44.5	-45.7	18.7	0.00e+00	0	43	0	1304428544	60	4156
2026-01-23 13:22:30.60	325.83	6.95	-44.4	-45.6	18.9	0.00e+00	0	43	0	1307574272	60	4100
2026-01-23 13:22:31.61	325.98	6.92	-44.4	-45.5	18.9	0.00e+00	0	43	0	1310720000	60	4082
2026-01-23 13:22:32.62	326.12	6.88	-44.4	-45.5	18.9	0.00e+00	0	43	0	1313865728	60	4093
2026-01-23 13:22:33.63	326.27	6.85	-44.5	-45.6	18.8	0.00e+00	0	43	0	1317011456	60	4142
2026-01-23 13:22:34.64	326.41	6.81	-44.5	-45.6	18.7	0.00e+00	0	43	0	1320157184	60	4135
2026-01-23 13:22:35.65	326.55	6.78	-44.5	-45.7	18.7	0.00e+00	0	43	0	1323302912	60	4150
2026-01-23 13:22:36.66	326.70	6.74	-44.4	-45.5	18.8	0.00e+00	0	43	0	1326448640	60	4098
2026-01-23 13:22:37.67	326.84	6.70	-44.6	-45.7	18.6	0.00e+00	0	43	0	1329594368	60	4186
2026-01-23 13:22:38.67	326.98	6.67	-44.5	-45.7	18.7	0.00e+00	0	43	0	1332740096	60	4162
2026-01-23 13:22:39.68	327.12	6.63	-44.4	-45.5	18.8	0.00e+00	0	43	0	1335885824	60	4092
2026-01-23 13:22:40.69	327.26	6.60	-44.4	-45.5	18.8	0.00e+00	0	43	0	1339031552	60	4096
2026-01-23 13:22:41.70	327.40	6.56	-44.5	-45.7	18.6	0.00e+00	0	43	0	1342177280	60	4169
2026-01-23 13:22:42.71	327.54	6.52	-44.3	-45.4	18.9	0.00e+00	0	43	0	1345323008	60	4031
2026-01-23 13:22:43.71	327.68	6.49	-44.8	-46.0	18.4	0.00e+00	0	43	0	1348468736	60	4305
2026-01-23 13:22:44.72	327.82	6.45	-44.8	-46.0	18.3	0.00e+00	0	43	0	1351614464	60	4314
2026-01-23 13:22:45.73	327.96	6.42	-44.8	-46.0	18.3	0.00e+00	0	43	0	1354760192	60	4314
2026-01-23 13:22:46.74	328.10	6.38	-44.7	-45.9	18.5	0.00e+00	0	43	0	1357905920	60	4251
2026-01-23 13:22:47.74	328.24	6.34	-44.7	-45.9	18.4	0.00e+00	0	43	0	1361051648	60	4262
2026-01-23 13:22:48.75	328.38	6.31	-44.5	-45.6	18.6	0.00e+00	0	43	0	1364197376	60	4145
2026-01-23 13:22:49.76	328.52	6.27	-44.7	-45.9	18.4	0.00e+00	0	43	0	1367343104	60	4264
2026-01-23 13:22:50.77	328.66	6.23	-45.0	-46.2	18.1	0.00e+00	0	43	0	1370488832	60	4413
2026-01-23 13:22:51.78	328.79	6.19	-45.2	-46.5	17.8	0.00e+00	0	43	0	1373634560	61	4318
2026-01-23 13:22:52.78	328.93	6.16	-45.5	-46.9	17.5	0.00e+00	0	43	0	1376780288	61	4504
2026-01-23 13:22:53.79	329.07	6.12	-44.9	-46.1	18.2	0.00e+00	0	43	0	1379926016	61	4135
2026-01-23 13:22:54.80	329.20	6.08	-44.8	-46.1	18.2	0.00e+00	0	43	0	1383071744	61	4111
2026-01-23 13:22:55.81	329.34	6.05	-45.0	-46.3	18.0	0.00e+00	0	43	0	1386217472	61	4222
2026-01-23 13:22:56.82	329.48	6.01	-44.7	-45.9	18.3	0.00e+00	0	43	0	1389363200	61	4044
2026-01-23 13:22:57.83	329.61	5.97	-44.9	-46.2	18.1	0.00e+00	0	43	0	1392508928	61	4147
2026-01-23 13:22:58.84	329.75	5.93	-45.2	-46.4	17.8	0.00e+00	0	43	0	1395654656	61	4290
2026-01-23 13:22:59.85	329.88	5.90	-45.3	-46.6	17.6	0.00e+00	0	43	0	1398800384	61	4385
2026-01-23 13:23:00.86	330.02	5.86	-45.3	-46.6	17.7	0.00e+00	0	43	0	1401946112	61	4367
2026-01-23 13:23:01.87	330.15	5.82	-45.1	-46.4	17.9	0.00e+00	0	43	0	1405091840	61	4244
2026-01-23 13:23:02.87	330.28	5.78	-45.1	-46.3	17.9	0.00e+00	0	43	0	1408237568	61	4242
2026-01-23 13:23:03.88	330.42	5.74	-45.0	-46.2	18.0	0.00e+00	0	43	0	1411383296	61	4192
2026-01-23 13:23:04.88	330.55	5.71	-45.2	-46.5	17.8	0.00e+00	0	43	0	1414529024	61	4316
2026-01-23 13:23:05.89	330.68	5.67	-44.9	-46.2	18.1	0.00e+00	0	43	0	1417674752	61	4148
2026-01-23 13:23:06.90	330.82	5.63	-44.6	-45.8	18.5	0.00e+00	0	43	0	1420820480	60	4199
2026-01-23 13:23:07.91	330.95	5.59	-45.1	-46.3	17.9	0.00e+00	0	43	0	1423966208	60	4492
2026-01-23 13:23:08.92	331.08	5.55	-45.0	-46.3	17.9	0.00e+00	0	43	0	1427111936	60	4473
2026-01-23 13:23:09.93	331.21	5.51	-45.0	-46.2	18.0	0.00e+00	0	43	0	1430257664	60	4433
2026-01-23 13:23:10.94	331.34	5.48	-44.7	-46.0	18.2	0.00e+00	0	43	0	1433403392	60	4308
2026-01-23 13:23:11.94	331.47	5.44	-45.0	-46.3	17.9	0.00e+00	0	43	0	1436549120	60	4486
2026-01-23 13:23:12.95	331.60	5.40	-45.1	-46.4	17.8	0.00e+00	0	43	0	1439694848	61	4269
2026-01-23 13:23:13.96	331.73	5.36	-44.7	-45.9	18.2	0.00e+00	0	43	0	1442840576	61	4050
2026-01-23 13:23:14.97	331.86	5.32	-44.6	-45.8	18.3	0.00e+00	0	43	0	1445986304	61	3994
2026-01-23 13:23:15.98	331.99	5.28	-44.8	-46.1	18.1	0.00e+00	0	43	0	1449132032	61	4118
2026-01-23 13:23:16.99	332.12	5.24	-45.0	-46.3	17.9	0.00e+00	0	43	0	1452277760	61	4197
2026-01-23 13:23:18.00	332.25	5.21	-44.9	-46.2	18.0	0.00e+00	0	43	0	1455423488	61	4161
2026-01-23 13:23:19.01	332.38	5.17	-45.3	-46.6	17.5	0.00e+00	0	43	0	1458569216	61	4380
2026-01-23 13:23:20.02	332.51	5.13	-45.7	-47.1	17.1	0.00e+00	0	43	0	1461714944	61	4617
2026-01-23 13:23:21.03	332.64	5.09	-45.6	-47.1	17.1	0.00e+00	0	43	0	1464860672	62	4341
2026-01-23 13:23:22.04	332.77	5.05	-44.6	-45.8	18.3	0.00e+00	0	43	0	1468006400	61	3963
2026-01-23 13:23:23.04	332.89	5.01	-44.2	-45.4	18.7	0.00e+00	0	43	0	1471152128	60	4016
2026-01-23 13:23:24.05	333.02	4.97	-52.7	-65.5	3.8	1.41e+00	0	43	104	1473249280	75	17210
2026-01-23 13:23:25.06	333.15	4.93	-53.1	-65.9	3.8	1.49e+00	0	43	104	1473249280	76	16926
2026-01-23 13:23:26.07	333.27	4.89	-53.3	-66.1	3.8	1.49e+00	0	43	104	1473249280	77	16334
2026-01-23 13:23:27.08	333.40	4.85	-53.4	-66.2	3.8	1.49e+00	0	43	104	1473249280	77	16526
2026-01-23 13:23:28.09	333.52	4.81	-53.5	-66.3	3.8	1.49e+00	0	43	104	1473249280	77	16739
2026-01-23 13:23:29.10	333.65	4.77	-53.5	-66.3	3.8	1.49e+00	0	43	104	1473249280	77	16873
2026-01-23 13:23:30.11	333.77	4.73	-53.6	-66.4	3.8	1.49e+00	0	43	104	1473249280	77	16959
2026-01-23 13:23:31.11	333.90	4.69	-53.6	-66.4	3.8	1.49e+00	0	43	104	1473249280	77	16976
2026-01-23 13:23:32.12	334.02	4.65	-53.6	-66.4	3.8	1.49e+00	0	43	104	1473249280	77	17026
2026-01-23 13:23:33.13	334.15	4.61	-53.6	-66.4	3.8	1.49e+00	0	43	104	1473249280	77	16980
2026-01-23 13:23:34.14	334.27	4.57	-53.5	-66.3	3.8	1.49e+00	0	43	104	1473249280	77	16805
2026-01-23 13:23:35.15	334.39	4.54	-53.4	-66.2	3.8	1.49e+00	0	43	104	1473249280	77	16540
2026-01-23 13:23:36.15	334.52	4.50	-53.4	-66.1	3.8	1.49e+00	0	43	104	1473249280	77	16438
2026-01-23 13:23:37.16	334.64	4.46	-53.4	-66.2	3.8	1.49e+00	0	43	104	1473249280	77	16579
2026-01-23 13:23:38.17	334.76	4.42	-53.5	-66.2	3.8	1.49e+00	0	43	104	1473249280	77	16684
2026-01-23 13:23:39.17	334.88	4.38	-53.5	-66.3	3.8	1.49e+00	0	43	104	1473249280	77	16731
2026-01-23 13:23:40.18	335.00	4.34	-53.5	-66.3	3.8	1.49e+00	0	43	104	1473249280	77	16869
2026-01-23 13:23:41.19	335.13	4.30	-53.6	-66.3	3.8	1.49e+00	0	43	104	1473249280	77	16825
2026-01-23 13:23:42.20	335.25	4.26	-53.6	-66.4	3.8	1.49e+00	0	43	104	1473249280	77	16914
2026-01-23 13:23:43.21	335.37	4.22	-53.6	-66.4	3.8	1.49e+00	0	43	104	1473249280	77	16967
2026-01-23 13:23:44.21	335.49	4.18	-53.6	-66.4	3.8	1.49e+00	0	43	104	1473249280	77	16971
2026-01-23 13:23:45.22	335.61	4.14	-53.6	-66.4	3.8	1.49e+00	0	43	104	1473249280	77	17047
2026-01-23 13:23:46.23	335.73	4.09	-53.6	-66.4	3.8	1.49e+00	0	43	104	1473249280	77	16914
2026-01-23 13:23:47.24	335.85	4.05	-53.6	-66.4	3.8	1.49e+00	0	43	104	1473249280	77	16919
2026-01-23 13:23:48.25	335.97	4.01	-53.6	-66.3	3.8	1.49e+00	0	43	104	1473249280	77	16833
2026-01-23 13:23:49.25	336.08	3.97	-53.6	-66.3	3.8	1.49e+00	0	43	104	1473249280	77	16884
2026-01-23 13:23:50.26	336.20	3.93	-53.6	-66.4	3.8	1.49e+00	0	43	104	1473249280	77	16907
2026-01-23 13:23:51.27	336.32	3.89	-53.6	-66.3	3.8	1.49e+00	0	43	104	1473249280	77	16766
2026-01-23 13:23:52.28	336.44	3.85	-53.6	-66.3	3.8	1.49e+00	0	43	104	1473249280	77	16877
2026-01-23 13:23:53.29	336.56	3.81	-53.6	-66.3	3.8	1.49e+00	0	43	104	1473249280	77	16815
2026-01-23 13:23:54.30	336.68	3.77	-53.5	-66.3	3.8	1.49e+00	0	43	104	1473249280	77	16846
2026-01-23 13:23:55.31	336.79	3.73	-53.5	-66.3	3.8	1.49e+00	0	43	104	1473249280	77	16767
2026-01-23 13:23:56.32	336.91	3.69	-53.5	-66.3	3.8	1.49e+00	0	43	104	1473249280	77	16772
2026-01-23 13:23:57.33	337.03	3.65	-53.5	-66.3	3.8	1.49e+00	0	43	104	1473249280	77	16749
2026-01-23 13:23:58.33	337.14	3.61	-53.5	-66.3	3.8	1.49e+00	0	43	104	1473249280	77	16753
2026-01-23 13:23:59.34	337.26	3.57	-53.5	-66.3	3.8	1.49e+00	0	43	104	1473249280	77	16758
2026-01-23 13:24:00.35	337.37	3.53	-53.5	-66.3	3.8	1.49e+00	0	43	104	1473249280	77	16791
2026-01-23 13:24:01.36	337.49	3.49	-53.5	-66.3	3.8	1.49e+00	0	43	104	1473249280	77	16756
2026-01-23 13:24:02.37	337.60	3.44	-53.5	-66.3	3.8	1.49e+00	0	43	104	1473249280	77	16813
2026-01-23 13:24:03.38	337.72	3.40	-53.5	-66.3	3.8	1.49e+00	0	43	104	1473249280	77	16771
2026-01-23 13:24:04.39	337.83	3.36	-53.5	-66.3	3.8	1.49e+00	0	43	104	1473249280	77	16774
2026-01-23 13:24:05.40	337.95	3.32	-53.5	-66.3	3.8	1.49e+00	0	44	104	1473249280	77	16784
2026-01-23 13:24:06.41	338.06	3.28	-53.5	-66.3	3.8	1.49e+00	0	43	104	1473249280	77	16740
2026-01-23 13:24:07.41	338.17	3.24	-53.5	-66.3	3.8	1.49e+00	0	43	104	1473249280	77	16699
2026-01-23 13:24:08.42	338.29	3.20	-53.5	-66.3	3.8	1.49e+00	0	43	104	1473249280	77	16700
2026-01-23 13:24:09.43	338.40	3.16	-53.5	-66.3	3.8	1.49e+00	0	43	104	1473249280	77	16716
2026-01-23 13:24:10.44	338.51	3.12	-53.5	-66.3	3.8	1.49e+00	0	43	104	1473249280	77	16745
2026-01-23 13:24:11.45	338.62	3.08	-53.5	-66.3	3.8	1.49e+00	0	43	104	1473249280	77	16708
2026-01-23 13:24:12.46	338.74	3.03	-53.5	-66.3	3.8	1.49e+00	0	43	104	1473249280	77	16707
2026-01-23 13:24:13.47	338.85	2.99	-53.5	-66.3	3.8	1.49e+00	0	43	104	1473249280	77	16710
2026-01-23 13:24:14.47	338.96	2.95	-53.5	-66.3	3.8	1.49e+00	0	43	104	1473249280	77	16729
2026-01-23 13:24:15.48	339.07	2.91	-53.5	-66.3	3.8	1.49e+00	0	43	104	1473249280	77	16701
2026-01-23 13:24:16.49	339.18	2.87	-53.5	-66.2	3.8	1.49e+00	0	43	104	1473249280	77	16657
2026-01-23 13:24:17.50	339.29	2.83	-53.5	-66.3	3.8	1.49e+00	0	43	104	1473249280	77	16701
2026-01-23 13:24:18.51	339.40	2.79	-53.5	-66.2	3.8	1.49e+00	0	43	104	1473249280	77	16677
2026-01-23 13:24:19.52	339.51	2.75	-53.4	-66.2	3.8	1.49e+00	0	43	104	1473249280	77	16651
2026-01-23 13:24:20.53	339.62	2.70	-53.4	-66.2	3.8	1.49e+00	0	43	104	1473249280	77	16650
2026-01-23 13:24:21.53	339.73	2.66	-53.4	-66.2	3.8	1.49e+00	0	43	104	1473249280	77	16676
2026-01-23 13:24:22.54	339.84	2.62	-53.4	-66.2	3.8	1.49e+00	0	44	104	1473249280	77	16611
2026-01-23 13:24:23.55	339.95	2.58	-53.4	-66.2	3.8	1.49e+00	0	44	104	1473249280	77	16612
2026-01-23 13:24:24.56	340.06	2.54	-53.4	-66.2	3.8	1.49e+00	0	44	104	1473249280	77	16657
2026-01-23 13:24:25.57	340.16	2.50	-53.4	-66.2	3.8	1.49e+00	0	43	104	1473249280	77	16645
2026-01-23 13:24:26.57	340.27	2.46	-53.4	-66.2	3.8	1.49e+00	0	43	104	1473249280	77	16604
2026-01-23 13:24:27.58	340.38	2.42	-53.4	-66.2	3.8	1.49e+00	0	43	104	1473249280	77	16634
2026-01-23 13:24:28.59	340.49	2.37	-53.4	-66.2	3.8	1.49e+00	0	43	104	1473249280	77	16591
2026-01-23 13:24:29.60	340.59	2.33	-53.4	-66.2	3.8	1.49e+00	0	43	104	1473249280	77	16610
2026-01-23 13:24:30.61	340.70	2.29	-53.4	-66.2	3.8	1.49e+00	0	43	104	1473249280	77	16578
2026-01-23 13:24:31.62	340.81	2.25	-53.4	-66.2	3.8	1.49e+00	0	43	104	1473249280	77	16598
2026-01-23 13:24:32.62	340.91	2.21	-53.4	-66.2	3.8	1.49e+00	0	43	104	1473249280	77	16607
2026-01-23 13:24:33.63	341.02	2.17	-53.4	-66.2	3.8	1.49e+00	0	43	104	1473249280	77	16601
2026-01-23 13:24:34.64	341.12	2.12	-53.4	-66.2	3.8	1.49e+00	0	43	104	1473249280	77	16613
2026-01-23 13:24:35.65	341.23	2.08	-53.4	-66.2	3.8	1.49e+00	0	43	104	1473249280	77	16590
2026-01-23 13:24:36.66	341.33	2.04	-53.4	-66.2	3.8	1.49e+00	0	43	104	1473249280	77	16603
2026-01-23 13:24:37.67	341.44	2.00	-53.4	-66.2	3.8	1.49e+00	0	43	104	1473249280	77	16656
2026-01-23 13:24:38.67	341.54	1.96	-53.4	-66.2	3.8	1.49e+00	0	43	104	1473249280	77	16566

#Closed at: 2026-01-23 13:24:39
#Recorded file [1473 MB]: D:/lorett/data/31041_260123_161425.dat