passes_logs/2026/01/23/R3.2S_Murmansk/R3.2S_Murmansk__20260123_023207_AQUA_rec.log

#Pass ID: 20260123_023207_AQUA
#Satellite: AQUA
#Configuration: AQUA
#almurnet v.1.7.20251203
#Start time: 2026-01-23 02:32:09

#Version: 2.2.20231116
#Station: R3.2S_Murmansk
#Location: 33.079688 lon 68.888172 lat
#TLE: 1 27424U 02022A   26022.49486490  .00002153  00000+0  44069-3 0  9997
#TLE: 2 27424  98.4099 349.0485 0001970  69.5876  43.4746 14.61847233261984

#Time	Az	El	Level	Level2	SNR	BER	BlckErr	Temp	State	Recorded	gain1	gain2
2026-01-23 02:32:09.06	24.11	2.09	-55.9	-73.7	3.8	7.43e-01	0	41	0	0	82	29620
2026-01-23 02:32:10.07	24.11	2.15	-55.9	-73.7	3.8	7.48e-01	0	41	104	0	82	29633
2026-01-23 02:32:11.07	24.10	2.22	-55.9	-73.7	3.8	7.44e-01	0	41	104	0	82	29585
2026-01-23 02:32:12.08	24.10	2.29	-55.9	-73.7	3.8	7.47e-01	0	41	104	0	82	29432
2026-01-23 02:32:13.09	24.10	2.36	-55.8	-73.6	3.8	7.50e-01	0	41	104	0	82	29192
2026-01-23 02:32:14.10	24.10	2.42	-55.8	-73.6	3.8	7.47e-01	0	41	104	0	82	29136
2026-01-23 02:32:15.11	24.09	2.49	-55.8	-73.6	3.8	7.44e-01	0	41	104	0	82	29136
2026-01-23 02:32:16.12	24.09	2.56	-55.8	-73.6	3.8	7.46e-01	0	41	104	0	82	29086
2026-01-23 02:32:17.13	24.09	2.63	-55.7	-73.5	3.8	7.45e-01	0	41	104	0	82	28976
2026-01-23 02:32:18.13	24.09	2.70	-55.7	-73.5	3.8	7.45e-01	0	42	104	0	82	28795
2026-01-23 02:32:19.14	24.08	2.77	-55.6	-73.4	3.8	7.47e-01	0	41	104	0	82	28630
2026-01-23 02:32:20.15	24.08	2.83	-55.5	-73.4	3.8	7.46e-01	0	42	104	0	82	28368
2026-01-23 02:32:21.16	24.08	2.90	-55.4	-73.3	3.8	7.44e-01	0	42	104	0	82	28082
2026-01-23 02:32:22.16	24.07	2.97	-55.3	-73.2	3.8	7.46e-01	0	42	104	0	82	27755
2026-01-23 02:32:23.17	24.07	3.04	-55.2	-72.9	3.8	7.47e-01	0	42	104	0	82	26853
2026-01-23 02:32:24.18	24.07	3.11	-55.1	-72.8	3.8	7.45e-01	0	41	104	0	82	26726
2026-01-23 02:32:25.19	24.06	3.18	-54.9	-72.6	3.8	7.43e-01	0	42	104	0	81	27603
2026-01-23 02:32:26.20	24.06	3.25	-54.6	-72.3	3.8	7.46e-01	0	41	104	0	81	26683
2026-01-23 02:32:27.21	24.06	3.32	-54.0	-71.6	3.8	7.48e-01	0	42	104	0	80	25971
2026-01-23 02:32:28.22	24.05	3.39	-54.0	-71.4	3.8	7.46e-01	0	42	104	0	79	26935
2026-01-23 02:32:29.23	24.05	3.46	-54.0	-71.5	3.8	7.45e-01	0	42	104	0	79	27302
2026-01-23 02:32:30.23	24.05	3.53	-53.9	-70.0	3.8	7.45e-01	0	42	104	0	79	22859
2026-01-23 02:32:31.24	24.05	3.60	-53.8	-66.2	5.0	7.10e-01	5	42	104	0	79	14833
2026-01-23 02:32:32.25	24.04	3.67	-53.3	-62.1	8.3	6.42e-01	93	42	0	1048576	78	9746
2026-01-23 02:32:33.26	24.04	3.75	-52.9	-60.0	10.5	6.18e-01	0	42	0	3145728	77	8127
2026-01-23 02:32:34.27	24.03	3.82	-52.1	-57.2	13.5	6.05e-01	0	42	0	4718592	76	6207
2026-01-23 02:32:35.28	24.03	3.89	-51.4	-55.5	15.3	6.05e-01	0	42	0	6815744	74	5754
2026-01-23 02:32:36.29	24.03	3.96	-50.4	-53.6	17.1	6.04e-01	0	42	0	8912896	72	5188
2026-01-23 02:32:37.30	24.02	4.03	-49.1	-51.5	19.3	6.01e-01	0	42	0	10485760	70	4580
2026-01-23 02:32:38.31	24.02	4.11	-48.7	-51.0	19.8	6.00e-01	0	42	0	12582912	69	4556
2026-01-23 02:32:39.31	24.02	4.18	-47.8	-49.7	21.1	6.03e-01	0	42	0	14155776	67	4438
2026-01-23 02:32:40.32	24.01	4.25	-48.0	-49.9	21.0	6.05e-01	0	42	0	16252928	67	4539
2026-01-23 02:32:41.33	24.01	4.32	-46.7	-48.3	22.6	6.01e-01	0	42	0	17825792	65	4225
2026-01-23 02:32:42.34	24.01	4.40	-46.8	-48.4	22.4	6.04e-01	0	42	0	19922944	65	4287
2026-01-23 02:32:43.34	24.00	4.47	-46.3	-47.8	23.0	6.03e-01	0	42	0	22020096	64	4242
2026-01-23 02:32:44.35	24.00	4.54	-46.5	-48.1	22.7	6.05e-01	0	42	0	24117248	64	4347
2026-01-23 02:32:45.36	23.99	4.62	-46.6	-48.2	22.7	6.04e-01	0	42	0	25690112	64	4406
2026-01-23 02:32:46.37	23.99	4.69	-46.7	-48.3	22.5	6.03e-01	0	42	0	27787264	64	4474
2026-01-23 02:32:47.38	23.99	4.77	-47.4	-49.2	21.7	6.03e-01	0	42	0	29360128	65	4660
2026-01-23 02:32:48.39	23.98	4.84	-48.0	-49.9	21.0	6.04e-01	0	42	0	31457280	66	4804
2026-01-23 02:32:49.40	23.98	4.92	-48.7	-50.9	20.1	6.03e-01	0	42	0	33030144	67	5062
2026-01-23 02:32:50.41	23.97	4.99	-49.3	-51.9	19.0	6.03e-01	0	42	0	35127296	69	5042
2026-01-23 02:32:51.42	23.97	5.07	-49.0	-51.3	19.3	6.03e-01	0	42	0	37224448	70	4466
2026-01-23 02:32:52.43	23.97	5.14	-46.6	-48.2	22.7	6.04e-01	0	42	0	38797312	65	4187
2026-01-23 02:32:53.44	23.96	5.22	-47.3	-49.0	22.3	6.03e-01	0	42	0	40894464	64	4855
2026-01-23 02:32:54.45	23.96	5.30	-53.1	-60.7	7.1	6.34e-01	45	42	104	41418752	78	8327
2026-01-23 02:32:55.45	23.95	5.37	-46.3	-47.8	22.7	6.03e-01	0	42	0	42991616	64	4236
2026-01-23 02:32:56.46	23.95	5.45	-46.7	-48.3	22.5	6.04e-01	0	42	0	45088768	65	4211
2026-01-23 02:32:57.47	23.94	5.52	-46.1	-47.6	23.4	6.01e-01	0	43	0	46661632	64	4110
2026-01-23 02:32:58.48	23.94	5.60	-46.2	-47.6	23.4	6.03e-01	0	42	0	48758784	64	4141
2026-01-23 02:32:59.49	23.93	5.68	-46.4	-48.0	23.1	6.03e-01	0	42	0	50855936	64	4310
2026-01-23 02:33:00.50	23.93	5.76	-46.4	-47.9	23.1	6.02e-01	0	42	0	52428800	64	4264
2026-01-23 02:33:01.50	23.93	5.83	-46.4	-48.0	23.1	6.04e-01	0	42	0	54525952	64	4305
2026-01-23 02:33:02.51	23.92	5.91	-46.1	-47.6	23.5	6.03e-01	0	43	0	56098816	64	4110
2026-01-23 02:33:03.52	23.92	5.99	-45.8	-47.2	23.8	6.03e-01	0	42	0	58195968	63	4186
2026-01-23 02:33:04.52	23.91	6.07	-46.0	-47.4	23.7	6.04e-01	0	42	0	59768832	63	4261
2026-01-23 02:33:05.53	23.91	6.15	-45.9	-47.3	23.8	6.04e-01	0	42	0	61865984	63	4210
2026-01-23 02:33:06.53	23.90	6.23	-46.0	-47.4	23.7	6.02e-01	0	43	0	63963136	63	4274
2026-01-23 02:33:07.54	23.90	6.31	-46.1	-47.6	23.5	6.01e-01	0	42	0	65536000	63	4372
2026-01-23 02:33:08.55	23.89	6.39	-45.9	-47.3	23.9	6.04e-01	0	42	0	67633152	63	4228
2026-01-23 02:33:09.56	23.89	6.47	-45.7	-47.1	24.1	6.00e-01	0	42	0	69730304	63	4137
2026-01-23 02:33:10.56	23.88	6.54	-45.6	-47.0	22.7	6.03e-01	0	42	0	71303168	63	4070
2026-01-23 02:33:11.57	23.88	6.63	-46.1	-47.6	23.7	6.04e-01	0	43	0	73400320	63	4341
2026-01-23 02:33:12.58	23.87	6.71	-45.9	-47.3	24.0	6.03e-01	0	43	0	74973184	63	4200
2026-01-23 02:33:13.59	23.86	6.79	-45.6	-47.0	24.2	6.00e-01	0	43	0	77070336	63	4069
2026-01-23 02:33:14.60	23.86	6.87	-45.7	-47.1	24.2	6.03e-01	0	43	0	79167488	63	4112
2026-01-23 02:33:15.61	23.85	6.95	-45.7	-47.1	24.2	6.04e-01	0	43	0	80740352	63	4120
2026-01-23 02:33:16.61	23.85	7.03	-45.6	-46.9	24.3	6.03e-01	0	43	0	82837504	63	4043
2026-01-23 02:33:17.62	23.84	7.11	-45.7	-47.0	24.3	6.02e-01	0	43	0	84410368	62	4327
2026-01-23 02:33:18.63	23.84	7.20	-45.7	-47.0	24.3	6.02e-01	0	43	0	86507520	62	4328
2026-01-23 02:33:19.64	23.83	7.28	-45.5	-46.9	24.4	6.04e-01	0	43	0	88080384	62	4257
2026-01-23 02:33:20.65	23.83	7.36	-45.4	-46.7	24.6	6.01e-01	0	43	0	90177536	62	4183
2026-01-23 02:33:21.66	23.82	7.45	-45.7	-47.0	24.3	6.03e-01	0	43	0	92274688	62	4327
2026-01-23 02:33:22.66	23.81	7.53	-45.5	-46.8	24.5	6.05e-01	0	43	0	94371840	62	4238
2026-01-23 02:33:23.67	23.81	7.61	-45.2	-46.5	24.7	6.02e-01	0	43	0	95944704	62	4090
2026-01-23 02:33:24.68	23.80	7.70	-45.7	-47.0	24.3	6.03e-01	0	43	0	98041856	62	4331
2026-01-23 02:33:25.69	23.80	7.78	-45.4	-46.7	24.6	6.02e-01	0	43	0	99614720	62	4190
2026-01-23 02:33:26.70	23.79	7.87	-45.4	-46.7	24.6	6.02e-01	0	43	0	101711872	62	4184
2026-01-23 02:33:27.71	23.78	7.95	-45.4	-46.7	24.6	6.04e-01	0	43	0	103284736	62	4188
2026-01-23 02:33:28.71	23.78	8.04	-45.6	-46.9	24.5	6.00e-01	0	43	0	105381888	62	4271
2026-01-23 02:33:29.72	23.77	8.12	-45.5	-46.8	24.5	6.02e-01	0	43	0	107479040	62	4237
2026-01-23 02:33:30.73	23.76	8.21	-45.3	-46.6	24.7	6.04e-01	0	43	0	109051904	62	4112
2026-01-23 02:33:31.74	23.76	8.30	-45.2	-46.5	24.9	6.03e-01	0	43	0	111149056	62	4095
2026-01-23 02:33:32.75	23.75	8.38	-45.3	-46.6	24.8	6.03e-01	0	43	0	112721920	62	4106
2026-01-23 02:33:33.76	23.74	8.47	-45.3	-46.6	24.8	6.02e-01	0	43	0	114819072	62	4099
2026-01-23 02:33:34.77	23.74	8.56	-45.4	-46.7	24.7	6.02e-01	0	43	0	116916224	62	4165
2026-01-23 02:33:35.77	23.73	8.65	-45.2	-46.5	24.9	6.04e-01	0	43	0	118489088	62	4068
2026-01-23 02:33:36.78	23.72	8.73	-45.1	-46.3	25.1	6.01e-01	0	43	0	120586240	62	4004
2026-01-23 02:33:37.79	23.72	8.82	-45.1	-46.3	25.0	6.01e-01	0	43	0	122683392	62	4004
2026-01-23 02:33:38.80	23.71	8.91	-45.1	-46.4	25.0	6.03e-01	0	43	0	124256256	62	4006
2026-01-23 02:33:39.81	23.70	9.00	-45.0	-46.2	25.2	6.01e-01	0	43	0	126353408	61	4178
2026-01-23 02:33:40.81	23.70	9.09	-45.0	-46.2	25.1	6.02e-01	0	43	0	127926272	61	4183
2026-01-23 02:33:41.82	23.69	9.18	-44.9	-46.2	25.1	6.01e-01	0	43	0	130023424	61	4149
2026-01-23 02:33:42.83	23.68	9.27	-45.0	-46.3	25.1	6.02e-01	0	43	0	131596288	61	4217
2026-01-23 02:33:43.84	23.67	9.36	-44.8	-46.0	25.3	6.01e-01	0	43	0	133693440	61	4092
2026-01-23 02:33:44.85	23.67	9.45	-44.8	-46.0	25.4	6.02e-01	0	43	0	135790592	61	4089
2026-01-23 02:33:45.86	23.66	9.55	-44.8	-46.1	25.3	6.01e-01	0	43	0	137363456	61	4101
2026-01-23 02:33:46.86	23.65	9.64	-44.8	-46.1	25.3	6.00e-01	0	43	0	139460608	61	4117
2026-01-23 02:33:47.87	23.64	9.73	-44.8	-46.0	25.4	6.01e-01	0	43	0	141557760	61	4078
2026-01-23 02:33:48.89	23.63	9.82	-44.8	-46.0	25.4	6.03e-01	0	43	0	143130624	61	4093
2026-01-23 02:33:49.89	23.63	9.91	-44.8	-46.1	25.4	6.02e-01	0	43	0	145227776	61	4105
2026-01-23 02:33:50.90	23.62	10.01	-44.8	-46.0	25.5	6.03e-01	0	43	0	146800640	61	4082
2026-01-23 02:33:51.91	23.61	10.10	-44.9	-46.1	25.3	6.03e-01	0	43	0	148897792	61	4124
2026-01-23 02:33:52.92	23.60	10.20	-44.8	-46.0	25.4	6.02e-01	0	43	0	150994944	61	4088
2026-01-23 02:33:53.92	23.59	10.29	-44.8	-46.0	25.5	6.03e-01	0	43	0	152567808	61	4074
2026-01-23 02:33:54.93	23.59	10.39	-44.8	-46.0	25.4	6.02e-01	0	43	0	154664960	61	4088
2026-01-23 02:33:55.94	23.58	10.48	-44.7	-45.9	25.5	6.02e-01	0	43	0	156237824	61	4030
2026-01-23 02:33:56.95	23.57	10.58	-44.7	-45.9	25.6	6.02e-01	0	43	0	158334976	61	4032
2026-01-23 02:33:57.96	23.56	10.67	-44.6	-45.8	25.7	6.02e-01	0	43	0	160432128	61	3985
2026-01-23 02:33:58.97	23.55	10.77	-44.7	-45.9	25.6	6.02e-01	0	43	0	162004992	61	4022
2026-01-23 02:33:59.98	23.54	10.87	-44.6	-45.8	25.7	6.02e-01	0	43	0	164102144	61	3995
2026-01-23 02:34:00.98	23.53	10.96	-44.6	-45.8	25.7	6.02e-01	0	43	0	165675008	61	3999
2026-01-23 02:34:01.99	23.53	11.06	-44.6	-45.8	25.7	6.03e-01	0	43	0	167772160	61	3971
2026-01-23 02:34:03.00	23.52	11.16	-44.6	-45.8	25.7	6.02e-01	0	43	0	169869312	61	3975
2026-01-23 02:34:04.01	23.51	11.26	-44.5	-45.7	25.8	6.03e-01	0	43	0	171442176	61	3938
2026-01-23 02:34:05.02	23.50	11.36	-44.5	-45.7	25.8	6.03e-01	0	43	0	173539328	61	3948
2026-01-23 02:34:06.02	23.49	11.46	-44.4	-45.6	25.9	6.01e-01	0	43	0	175112192	60	4127
2026-01-23 02:34:07.03	23.48	11.56	-44.4	-45.5	25.9	6.03e-01	0	43	0	177209344	60	4090
2026-01-23 02:34:08.04	23.47	11.66	-44.3	-45.5	26.0	6.01e-01	0	43	0	179306496	60	4061
2026-01-23 02:34:09.05	23.46	11.76	-44.4	-45.6	25.9	6.02e-01	0	43	0	180879360	60	4115
2026-01-23 02:34:10.06	23.45	11.86	-44.4	-45.5	25.9	6.01e-01	0	43	0	182976512	60	4086
2026-01-23 02:34:11.07	23.44	11.96	-44.3	-45.4	26.0	6.03e-01	0	43	0	185073664	60	4051
2026-01-23 02:34:12.07	23.43	12.07	-44.2	-45.4	26.1	6.01e-01	0	43	0	186646528	60	4028
2026-01-23 02:34:13.08	23.42	12.17	-44.3	-45.4	26.0	6.02e-01	0	43	0	188743680	60	4043
2026-01-23 02:34:14.09	23.41	12.27	-44.2	-45.4	26.1	6.01e-01	0	43	0	190316544	60	4020
2026-01-23 02:34:15.10	23.40	12.38	-44.3	-45.5	26.0	6.03e-01	0	43	0	192413696	60	4059
2026-01-23 02:34:16.10	23.39	12.48	-44.3	-45.5	26.0	6.03e-01	0	43	0	193986560	60	4063
2026-01-23 02:34:17.11	23.38	12.59	-44.2	-45.4	26.0	6.03e-01	0	43	0	196083712	60	4030
2026-01-23 02:34:18.12	23.37	12.69	-44.2	-45.4	26.1	6.01e-01	0	43	0	198180864	60	4023
2026-01-23 02:34:19.13	23.36	12.80	-44.1	-45.2	26.2	6.02e-01	0	43	0	199753728	60	3955
2026-01-23 02:34:20.14	23.35	12.90	-44.2	-45.4	26.1	6.02e-01	0	43	0	201850880	60	4007
2026-01-23 02:34:21.14	23.34	13.01	-44.2	-45.4	26.1	6.02e-01	0	43	0	203423744	60	4023
2026-01-23 02:34:22.15	23.32	13.12	-44.2	-45.3	26.1	6.02e-01	0	43	0	205520896	60	3995
2026-01-23 02:34:23.16	23.31	13.23	-44.2	-45.4	26.1	6.02e-01	0	43	0	207618048	60	4025
2026-01-23 02:34:24.17	23.30	13.33	-44.1	-45.3	26.3	6.02e-01	0	43	0	209190912	60	3965
2026-01-23 02:34:25.18	23.29	13.44	-44.1	-45.2	26.1	6.04e-01	0	43	0	211288064	59	4190
2026-01-23 02:34:26.18	23.28	13.55	-44.2	-45.3	26.1	6.02e-01	0	43	0	213385216	59	4233
2026-01-23 02:34:27.19	23.27	13.66	-44.2	-45.3	26.1	6.02e-01	0	43	0	214958080	59	4225
2026-01-23 02:34:28.20	23.25	13.77	-44.1	-45.3	26.1	6.02e-01	0	43	0	217055232	59	4212
2026-01-23 02:34:29.21	23.24	13.88	-44.1	-45.2	26.2	6.03e-01	0	43	0	218628096	59	4173
2026-01-23 02:34:30.22	23.23	14.00	-44.2	-45.4	26.0	6.00e-01	0	43	0	220725248	59	4255
2026-01-23 02:34:31.22	23.22	14.11	-44.1	-45.3	26.1	6.02e-01	0	43	0	222298112	59	4196
2026-01-23 02:34:32.23	23.21	14.22	-44.0	-45.2	26.2	6.02e-01	0	43	0	224395264	59	4169
2026-01-23 02:34:33.24	23.19	14.34	-44.1	-45.3	26.2	6.04e-01	0	43	0	226492416	59	4208
2026-01-23 02:34:34.25	23.18	14.45	-44.2	-45.4	26.1	6.04e-01	0	43	0	228065280	59	4246
2026-01-23 02:34:35.25	23.17	14.56	-44.1	-45.3	26.2	6.02e-01	0	43	0	230162432	59	4210
2026-01-23 02:34:36.26	23.16	14.68	-44.1	-45.3	26.2	6.03e-01	0	43	0	232259584	59	4200
2026-01-23 02:34:37.27	23.14	14.80	-44.2	-45.3	26.2	6.03e-01	0	43	0	233832448	59	4227
2026-01-23 02:34:38.28	23.13	14.91	-44.3	-45.5	26.0	6.02e-01	0	43	0	235929600	59	4296
2026-01-23 02:34:39.29	23.12	15.03	-44.1	-45.3	26.2	6.02e-01	0	43	0	237502464	59	4202
2026-01-23 02:34:40.30	23.10	15.15	-44.1	-45.2	26.3	6.03e-01	0	43	0	239599616	59	4178
2026-01-23 02:34:41.31	23.09	15.27	-44.2	-45.4	26.2	6.02e-01	0	43	0	241696768	59	4243
2026-01-23 02:34:42.31	23.07	15.38	-44.1	-45.2	26.2	6.03e-01	0	43	0	243269632	59	4191
2026-01-23 02:34:43.32	23.06	15.50	-44.0	-45.1	26.3	6.01e-01	0	43	0	245366784	59	4142
2026-01-23 02:34:44.33	23.05	15.62	-43.9	-45.0	26.4	6.04e-01	0	43	0	246939648	59	4096
2026-01-23 02:34:45.34	23.03	15.75	-44.0	-45.1	26.4	6.02e-01	0	43	0	249036800	59	4125
2026-01-23 02:34:46.35	23.02	15.87	-43.9	-45.0	26.5	6.02e-01	0	43	0	250609664	59	4090
2026-01-23 02:34:47.35	23.00	15.99	-43.9	-45.0	26.5	6.03e-01	0	43	0	252706816	59	4080
2026-01-23 02:34:48.36	22.99	16.11	-43.8	-45.0	26.6	6.05e-01	0	43	0	254803968	59	4056
2026-01-23 02:34:49.37	22.97	16.24	-43.9	-45.0	26.5	6.02e-01	0	43	0	256901120	59	4093
2026-01-23 02:34:50.37	22.96	16.36	-44.0	-45.2	26.4	6.01e-01	0	43	0	258473984	59	4156
2026-01-23 02:34:51.38	22.94	16.49	-43.9	-45.0	26.5	6.01e-01	0	43	0	260571136	59	4069
2026-01-23 02:34:52.39	22.93	16.61	-43.9	-45.0	26.5	6.03e-01	0	43	0	262144000	59	4071
2026-01-23 02:34:53.40	22.91	16.74	-43.9	-45.0	26.5	6.04e-01	0	43	0	264241152	59	4077
2026-01-23 02:34:54.41	22.90	16.87	-44.0	-45.2	26.3	6.03e-01	0	43	0	265814016	59	4151
2026-01-23 02:34:55.42	22.88	16.99	-44.0	-45.2	26.4	6.03e-01	0	43	0	267911168	59	4147
2026-01-23 02:34:56.42	22.86	17.12	-43.9	-45.0	26.6	6.04e-01	0	43	0	270008320	59	4082
2026-01-23 02:34:57.43	22.85	17.25	-44.0	-45.1	26.4	6.02e-01	0	43	0	271581184	59	4142
2026-01-23 02:34:58.44	22.83	17.38	-44.0	-45.2	26.4	6.01e-01	0	43	0	273678336	59	4151
2026-01-23 02:34:59.45	22.81	17.51	-44.0	-45.1	26.5	6.01e-01	0	43	0	275251200	59	4124
2026-01-23 02:35:00.46	22.80	17.65	-44.0	-45.1	26.5	6.02e-01	0	43	0	277348352	59	4128
2026-01-23 02:35:01.47	22.78	17.78	-44.0	-45.1	26.5	6.03e-01	0	43	0	279445504	59	4120
2026-01-23 02:35:02.47	22.76	17.91	-44.1	-45.2	26.4	6.02e-01	0	43	0	281018368	59	4186
2026-01-23 02:35:03.48	22.75	18.04	-44.0	-45.2	26.4	6.03e-01	0	43	0	283115520	59	4154
2026-01-23 02:35:04.49	22.73	18.18	-44.1	-45.3	26.3	6.02e-01	0	43	0	285212672	59	4197
2026-01-23 02:35:05.50	22.71	18.32	-44.3	-45.4	26.2	6.00e-01	0	43	0	286785536	59	4269
2026-01-23 02:35:06.50	22.69	18.45	-44.2	-45.3	26.3	6.03e-01	0	43	0	288882688	59	4227
2026-01-23 02:35:07.51	22.67	18.59	-44.2	-45.4	26.2	6.02e-01	0	43	0	290455552	59	4250
2026-01-23 02:35:08.52	22.65	18.73	-44.2	-45.4	26.2	6.02e-01	0	43	0	292552704	59	4263
2026-01-23 02:35:09.53	22.64	18.87	-44.4	-45.5	26.1	6.03e-01	0	43	0	294125568	59	4332
2026-01-23 02:35:10.54	22.62	19.01	-44.2	-45.4	26.2	6.01e-01	0	43	0	296222720	59	4263
2026-01-23 02:35:11.54	22.60	19.15	-44.3	-45.4	26.2	6.03e-01	0	43	0	298319872	59	4269
2026-01-23 02:35:12.55	22.58	19.29	-44.3	-45.4	26.2	6.01e-01	0	43	0	299892736	59	4266
2026-01-23 02:35:13.56	22.56	19.43	-44.2	-45.4	26.3	6.02e-01	0	43	0	301989888	59	4248
2026-01-23 02:35:14.57	22.54	19.58	-44.3	-45.5	26.2	6.05e-01	0	43	0	304087040	59	4295
2026-01-23 02:35:15.58	22.52	19.72	-44.2	-45.4	26.3	6.04e-01	0	43	0	305659904	59	4249
2026-01-23 02:35:16.59	22.50	19.87	-44.1	-45.3	26.4	6.02e-01	0	43	0	307757056	59	4202
2026-01-23 02:35:17.59	22.48	20.01	-44.2	-45.3	26.3	6.02e-01	0	43	0	309329920	59	4233
2026-01-23 02:35:18.60	22.46	20.16	-44.2	-45.4	26.3	6.01e-01	0	43	0	311427072	59	4257
2026-01-23 02:35:19.61	22.43	20.31	-44.3	-45.5	26.2	6.03e-01	0	43	0	313524224	59	4302
2026-01-23 02:35:20.62	22.41	20.46	-44.2	-45.4	26.3	6.02e-01	0	43	0	315097088	59	4245
2026-01-23 02:35:21.62	22.39	20.61	-44.2	-45.4	26.3	6.02e-01	0	43	0	317194240	59	4244
2026-01-23 02:35:22.63	22.37	20.76	-44.3	-45.5	26.2	6.02e-01	0	43	0	318767104	59	4293
2026-01-23 02:35:23.64	22.35	20.91	-44.4	-45.5	26.1	6.03e-01	0	43	0	320864256	59	4331
2026-01-23 02:35:24.65	22.32	21.06	-44.5	-45.6	26.0	6.00e-01	0	43	0	322437120	59	4391
2026-01-23 02:35:25.66	22.30	21.22	-44.4	-45.6	26.0	6.03e-01	0	43	0	324534272	59	4351
2026-01-23 02:35:26.66	22.28	21.37	-44.5	-45.7	26.0	6.02e-01	0	43	0	326631424	59	4400
2026-01-23 02:35:27.67	22.26	21.53	-44.6	-45.8	25.9	6.02e-01	0	43	0	328728576	59	4464
2026-01-23 02:35:28.68	22.23	21.69	-44.5	-45.6	26.0	6.02e-01	0	43	0	330301440	59	4389
2026-01-23 02:35:29.69	22.21	21.84	-44.4	-45.6	26.1	6.02e-01	0	43	0	332398592	59	4365
2026-01-23 02:35:30.70	22.18	22.00	-44.5	-45.6	26.1	6.02e-01	0	43	0	333971456	59	4391
2026-01-23 02:35:31.71	22.16	22.16	-44.4	-45.6	26.1	6.01e-01	0	44	0	336068608	59	4362
2026-01-23 02:35:32.71	22.13	22.32	-44.6	-45.8	25.9	6.04e-01	0	43	0	337641472	59	4471
2026-01-23 02:35:33.72	22.11	22.49	-44.5	-45.7	26.0	6.02e-01	0	43	0	339738624	59	4398
2026-01-23 02:35:34.73	22.08	22.65	-44.5	-45.7	26.0	6.03e-01	0	43	0	341835776	59	4417
2026-01-23 02:35:35.74	22.06	22.82	-44.5	-45.7	26.0	6.01e-01	0	43	0	343408640	59	4411
2026-01-23 02:35:36.74	22.03	22.98	-44.6	-45.8	26.0	6.03e-01	0	43	0	345505792	59	4464
2026-01-23 02:35:37.75	22.00	23.15	-44.7	-45.9	25.7	6.01e-01	0	43	0	347602944	60	4244
2026-01-23 02:35:38.76	21.98	23.32	-44.5	-45.7	26.2	6.01e-01	0	43	0	349175808	60	4173
2026-01-23 02:35:39.77	21.95	23.49	-44.5	-45.7	26.2	6.00e-01	0	43	0	351272960	60	4163
2026-01-23 02:35:40.78	21.92	23.66	-44.5	-45.7	26.2	6.03e-01	0	43	0	352845824	60	4146
2026-01-23 02:35:41.78	21.90	23.83	-44.3	-45.4	26.5	6.02e-01	0	43	0	354942976	60	4022
2026-01-23 02:35:42.79	21.87	24.00	-44.4	-45.5	26.4	6.00e-01	0	43	0	357040128	60	4093
2026-01-23 02:35:43.80	21.84	24.18	-44.4	-45.5	26.4	6.03e-01	0	43	0	358612992	60	4076
2026-01-23 02:35:44.81	21.81	24.36	-44.3	-45.5	26.4	6.01e-01	0	43	0	360710144	60	4063
2026-01-23 02:35:45.81	21.78	24.53	-44.4	-45.6	26.3	6.02e-01	0	43	0	362283008	60	4102
2026-01-23 02:35:46.82	21.75	24.71	-44.3	-45.4	26.4	6.03e-01	0	43	0	364380160	60	4044
2026-01-23 02:35:47.83	21.72	24.89	-44.3	-45.4	26.4	6.00e-01	0	43	0	365953024	60	4051
2026-01-23 02:35:48.84	21.69	25.07	-44.3	-45.4	26.5	6.00e-01	0	43	0	368050176	60	4042
2026-01-23 02:35:49.84	21.66	25.25	-44.3	-45.5	26.4	6.04e-01	0	43	0	370147328	60	4056
2026-01-23 02:35:50.85	21.63	25.44	-44.4	-45.5	26.3	6.02e-01	0	43	0	371720192	60	4098
2026-01-23 02:35:51.86	21.59	25.62	-44.3	-45.4	26.5	6.04e-01	0	43	0	373817344	60	4044
2026-01-23 02:35:52.87	21.56	25.81	-44.3	-45.4	26.4	6.04e-01	0	43	0	375914496	60	4047
2026-01-23 02:35:53.88	21.53	26.00	-44.3	-45.5	26.2	6.01e-01	0	43	0	377487360	60	4065
2026-01-23 02:35:54.88	21.50	26.19	-44.2	-45.3	26.4	6.02e-01	0	43	0	379584512	60	3990
2026-01-23 02:35:55.89	21.46	26.38	-44.2	-45.3	26.5	6.02e-01	0	43	0	381157376	60	3998
2026-01-23 02:35:56.90	21.43	26.57	-44.1	-45.2	26.6	6.02e-01	0	43	0	383254528	60	3927
2026-01-23 02:35:57.91	21.39	26.76	-44.1	-45.2	26.6	6.02e-01	0	43	0	385351680	60	3943
2026-01-23 02:35:58.92	21.36	26.96	-44.0	-45.1	26.7	6.03e-01	0	43	0	386924544	60	3910
2026-01-23 02:35:59.93	21.32	27.16	-44.0	-45.1	26.6	6.01e-01	0	43	0	389021696	59	4137
2026-01-23 02:36:00.93	21.29	27.35	-44.1	-45.2	26.6	6.01e-01	0	43	0	390594560	59	4153
2026-01-23 02:36:01.94	21.25	27.55	-44.1	-45.2	26.6	6.02e-01	0	44	0	392691712	59	4159
2026-01-23 02:36:02.95	21.21	27.76	-44.2	-45.3	26.5	6.03e-01	0	43	0	394264576	59	4206
2026-01-23 02:36:03.95	21.17	27.96	-44.2	-45.4	26.4	6.02e-01	0	43	0	396361728	59	4252
2026-01-23 02:36:04.96	21.14	28.16	-44.3	-45.4	26.4	6.03e-01	0	43	0	398458880	59	4273
2026-01-23 02:36:05.97	21.10	28.37	-44.4	-45.5	26.3	6.03e-01	0	43	0	400556032	59	4322
2026-01-23 02:36:06.98	21.06	28.58	-44.3	-45.4	26.4	6.02e-01	0	43	0	402128896	59	4275
2026-01-23 02:36:07.98	21.02	28.78	-44.4	-45.5	26.4	6.02e-01	0	43	0	404226048	59	4314
2026-01-23 02:36:08.99	20.98	29.00	-44.1	-45.2	26.6	5.99e-01	0	43	0	405798912	59	4165
2026-01-23 02:36:10.00	20.93	29.21	-43.9	-45.0	26.8	6.00e-01	0	43	0	407896064	59	4058
2026-01-23 02:36:11.01	20.89	29.42	-43.8	-44.9	26.9	6.00e-01	0	43	0	409468928	59	4008
2026-01-23 02:36:12.02	20.85	29.64	-43.8	-44.8	26.9	6.02e-01	0	43	0	411566080	59	4004
2026-01-23 02:36:13.03	20.81	29.86	-43.8	-44.9	26.9	6.03e-01	0	43	0	413663232	59	4044
2026-01-23 02:36:14.03	20.76	30.08	-44.0	-45.1	26.7	6.02e-01	0	44	0	415236096	59	4109
2026-01-23 02:36:15.04	20.72	30.30	-44.0	-45.1	26.8	6.02e-01	0	43	0	417333248	59	4102
2026-01-23 02:36:16.05	20.67	30.52	-44.0	-45.1	26.7	6.03e-01	0	44	0	418906112	59	4128
2026-01-23 02:36:17.06	20.63	30.75	-44.1	-45.2	26.6	6.03e-01	0	43	0	421003264	59	4193
2026-01-23 02:36:18.07	20.58	30.98	-44.0	-45.1	26.6	6.04e-01	0	43	0	423100416	59	4133
2026-01-23 02:36:19.07	20.53	31.21	-44.0	-45.1	26.7	6.03e-01	0	44	0	424673280	59	4137
2026-01-23 02:36:20.08	20.48	31.44	-43.9	-45.0	26.8	6.01e-01	0	44	0	426770432	59	4091
2026-01-23 02:36:21.09	20.43	31.67	-43.8	-44.9	26.9	6.01e-01	0	44	0	428867584	59	4046
2026-01-23 02:36:22.10	20.38	31.91	-43.7	-44.8	27.0	6.04e-01	0	43	0	430440448	59	3993
2026-01-23 02:36:23.11	20.33	32.14	-43.7	-44.8	27.0	6.01e-01	0	43	0	432537600	59	3978
2026-01-23 02:36:24.12	20.28	32.38	-43.8	-44.9	27.0	6.02e-01	0	44	0	434110464	59	4010
2026-01-23 02:36:25.13	20.23	32.63	-43.9	-45.0	26.8	6.03e-01	0	43	0	436207616	59	4093
2026-01-23 02:36:26.13	20.18	32.87	-44.2	-45.3	26.6	6.00e-01	0	44	0	437780480	59	4212
2026-01-23 02:36:27.14	20.12	33.11	-44.2	-45.4	26.5	6.03e-01	0	44	0	439877632	59	4243
2026-01-23 02:36:28.15	20.07	33.36	-44.2	-45.3	26.6	6.02e-01	0	43	0	441974784	59	4211
2026-01-23 02:36:29.16	20.01	33.61	-44.2	-45.4	26.5	6.01e-01	0	43	0	443547648	59	4247
2026-01-23 02:36:30.17	19.95	33.86	-44.3	-45.4	26.4	6.04e-01	0	43	0	445644800	59	4282
2026-01-23 02:36:31.18	19.90	34.12	-44.5	-45.7	26.3	6.01e-01	0	44	0	447741952	59	4398
2026-01-23 02:36:32.18	19.84	34.37	-44.7	-45.8	26.2	6.04e-01	0	44	0	449314816	59	4473
2026-01-23 02:36:33.19	19.78	34.63	-44.7	-45.9	26.2	6.01e-01	0	43	0	451411968	60	4252
2026-01-23 02:36:34.20	19.72	34.89	-44.8	-46.0	26.1	6.01e-01	0	44	0	452984832	60	4300
2026-01-23 02:36:35.21	19.65	35.15	-44.9	-46.1	26.0	6.02e-01	0	44	0	455081984	60	4347
2026-01-23 02:36:36.22	19.59	35.42	-45.0	-46.2	26.0	6.02e-01	0	44	0	457179136	60	4399
2026-01-23 02:36:37.23	19.53	35.69	-45.1	-46.3	25.9	6.03e-01	0	44	0	458752000	60	4476
2026-01-23 02:36:38.23	19.46	35.95	-45.3	-46.5	25.7	6.02e-01	0	44	0	460849152	61	4301
2026-01-23 02:36:39.24	19.39	36.23	-45.3	-46.5	25.7	6.04e-01	0	44	0	462422016	61	4339
2026-01-23 02:36:40.25	19.33	36.50	-45.4	-46.7	25.6	6.03e-01	0	44	0	464519168	61	4397
2026-01-23 02:36:41.26	19.26	36.78	-45.5	-46.7	25.5	6.02e-01	0	43	0	466616320	61	4413
2026-01-23 02:36:42.27	19.19	37.06	-45.6	-46.9	25.4	6.02e-01	0	44	0	468189184	61	4514
2026-01-23 02:36:43.28	19.12	37.34	-45.9	-47.2	25.1	6.03e-01	0	44	0	470286336	62	4399
2026-01-23 02:36:44.29	19.04	37.63	-45.9	-47.2	25.1	6.02e-01	0	43	0	471859200	62	4429
2026-01-23 02:36:45.29	18.97	37.91	-46.0	-47.3	25.0	6.04e-01	0	44	0	473956352	62	4475
2026-01-23 02:36:46.30	18.89	38.20	-46.1	-47.4	24.9	6.03e-01	0	44	0	476053504	62	4496
2026-01-23 02:36:47.31	18.81	38.49	-45.9	-47.2	25.1	6.02e-01	0	44	0	477626368	62	4403
2026-01-23 02:36:48.32	18.74	38.79	-45.8	-47.1	25.2	6.00e-01	0	44	0	479723520	62	4354
2026-01-23 02:36:49.33	18.65	39.09	-45.8	-47.0	25.3	6.01e-01	0	44	0	481296384	62	4322
2026-01-23 02:36:50.33	18.57	39.39	-45.8	-47.1	25.3	6.02e-01	0	44	0	483393536	62	4349
2026-01-23 02:36:51.34	18.49	39.69	-45.9	-47.1	25.2	6.02e-01	0	44	0	485490688	62	4390
2026-01-23 02:36:52.35	18.40	40.00	-46.0	-47.3	25.0	6.02e-01	0	44	0	487063552	62	4465
2026-01-23 02:36:53.36	18.32	40.30	-46.0	-47.3	25.1	6.03e-01	0	44	0	489160704	62	4460
2026-01-23 02:36:54.37	18.23	40.62	-46.0	-47.2	25.1	6.01e-01	0	44	0	491257856	62	4441
2026-01-23 02:36:55.38	18.14	40.93	-45.8	-47.0	25.3	6.02e-01	0	44	0	492830720	62	4339
2026-01-23 02:36:56.38	18.04	41.24	-45.5	-46.7	25.6	6.01e-01	0	44	0	494927872	62	4185
2026-01-23 02:36:57.39	17.95	41.56	-45.5	-46.7	25.5	6.04e-01	0	44	0	496500736	62	4192
2026-01-23 02:36:58.40	17.85	41.89	-45.3	-46.5	25.7	6.03e-01	0	44	0	498597888	62	4087
2026-01-23 02:36:59.41	17.75	42.21	-45.4	-46.6	25.7	6.03e-01	0	44	0	500170752	62	4104
2026-01-23 02:37:00.42	17.65	42.54	-45.4	-46.6	25.7	6.03e-01	0	44	0	502267904	62	4102
2026-01-23 02:37:01.43	17.55	42.87	-45.2	-46.4	25.8	6.05e-01	0	43	0	504365056	62	4037
2026-01-23 02:37:02.43	17.45	43.21	-45.1	-46.2	26.1	6.01e-01	0	44	0	505937920	62	3957
2026-01-23 02:37:03.44	17.34	43.54	-45.1	-46.3	26.0	6.02e-01	0	44	0	508035072	62	3987
2026-01-23 02:37:04.45	17.23	43.88	-45.2	-46.4	25.9	6.01e-01	0	44	0	509607936	62	4034
2026-01-23 02:37:05.46	17.11	44.23	-45.0	-46.2	26.1	6.05e-01	0	44	0	511705088	62	3923
2026-01-23 02:37:06.47	17.00	44.58	-44.6	-45.7	26.6	6.03e-01	0	44	0	513802240	61	3929
2026-01-23 02:37:07.47	16.88	44.92	-44.7	-45.8	26.5	6.02e-01	0	44	0	515375104	61	3973
2026-01-23 02:37:08.48	16.76	45.28	-44.3	-45.5	26.7	6.03e-01	0	44	0	517472256	60	4057
2026-01-23 02:37:09.49	16.64	45.63	-44.4	-45.5	26.7	6.04e-01	0	44	0	519569408	60	4085
2026-01-23 02:37:10.50	16.51	45.99	-44.6	-45.7	26.6	6.02e-01	0	44	0	521142272	60	4167
2026-01-23 02:37:11.51	16.38	46.35	-44.6	-45.7	26.5	6.02e-01	0	44	0	523239424	60	4188
2026-01-23 02:37:12.52	16.25	46.72	-44.2	-45.3	26.8	6.00e-01	0	44	0	524812288	60	4002
2026-01-23 02:37:13.53	16.11	47.09	-44.3	-45.3	26.9	6.02e-01	0	44	0	526909440	60	4004
2026-01-23 02:37:14.53	15.97	47.46	-44.7	-45.8	26.4	6.04e-01	0	44	0	529006592	60	4223
2026-01-23 02:37:15.54	15.83	47.83	-44.7	-45.8	26.3	6.02e-01	0	44	0	530579456	60	4232
2026-01-23 02:37:16.55	15.68	48.21	-44.7	-45.8	26.3	6.02e-01	0	44	0	532676608	60	4236
2026-01-23 02:37:17.56	15.53	48.60	-44.7	-45.8	26.4	6.03e-01	0	43	0	534773760	60	4225
2026-01-23 02:37:18.57	15.38	48.98	-44.6	-45.7	26.5	6.02e-01	0	44	0	536346624	60	4170
2026-01-23 02:37:19.58	15.22	49.37	-44.3	-45.4	26.8	6.02e-01	0	44	0	538443776	60	4046
2026-01-23 02:37:20.58	15.06	49.76	-44.4	-45.5	26.7	6.02e-01	0	44	0	540016640	60	4078
2026-01-23 02:37:21.59	14.89	50.15	-44.5	-45.6	26.6	6.03e-01	0	43	0	542113792	60	4143
2026-01-23 02:37:22.60	14.72	50.55	-44.2	-45.3	26.8	6.05e-01	0	44	0	543686656	60	3979
2026-01-23 02:37:23.61	14.54	50.95	-44.2	-45.3	26.8	6.04e-01	0	44	0	545783808	60	4002
2026-01-23 02:37:24.62	14.36	51.36	-44.2	-45.3	26.9	6.03e-01	0	43	0	547880960	60	3967
2026-01-23 02:37:25.63	14.18	51.77	-44.0	-45.1	26.9	6.03e-01	0	44	0	549453824	59	4107
2026-01-23 02:37:26.64	13.98	52.18	-43.8	-44.9	27.2	6.03e-01	0	44	0	551550976	59	4021
2026-01-23 02:37:27.65	13.79	52.60	-44.0	-45.0	27.0	5.99e-01	0	44	0	553123840	59	4098
2026-01-23 02:37:28.65	13.58	53.01	-43.9	-45.0	27.0	6.03e-01	0	44	0	555220992	59	4052
2026-01-23 02:37:29.66	13.37	53.43	-43.9	-44.9	27.1	6.02e-01	0	44	0	557318144	59	4051
2026-01-23 02:37:30.67	13.16	53.86	-43.6	-44.7	27.3	6.01e-01	0	44	0	558891008	59	3915
2026-01-23 02:37:31.68	12.94	54.29	-43.8	-44.9	27.2	6.02e-01	0	44	0	560988160	59	4028
2026-01-23 02:37:32.69	12.71	54.72	-43.8	-44.9	27.2	6.04e-01	0	44	0	563085312	59	4028
2026-01-23 02:37:33.69	12.47	55.15	-43.9	-45.0	27.1	6.02e-01	0	44	0	564658176	59	4053
2026-01-23 02:37:34.70	12.23	55.59	-44.0	-45.1	27.0	6.03e-01	0	44	0	566755328	59	4111
2026-01-23 02:37:35.71	11.98	56.03	-44.3	-45.4	26.6	6.01e-01	0	44	0	568328192	59	4279
2026-01-23 02:37:36.72	11.71	56.47	-44.3	-45.4	26.6	6.03e-01	0	44	0	570425344	59	4282
2026-01-23 02:37:37.73	11.45	56.92	-44.3	-45.4	26.8	6.02e-01	0	44	0	571998208	59	4248
2026-01-23 02:37:38.73	11.17	57.37	-44.7	-45.8	26.5	6.01e-01	0	44	0	574095360	60	4221
2026-01-23 02:37:39.74	10.88	57.82	-44.6	-45.8	26.6	6.03e-01	0	44	0	576192512	60	4200
2026-01-23 02:37:40.75	10.58	58.28	-45.1	-46.3	26.1	6.02e-01	0	44	0	577765376	60	4469
2026-01-23 02:37:41.76	10.27	58.74	-45.2	-46.4	25.9	6.03e-01	0	44	0	579862528	61	4279
2026-01-23 02:37:42.76	9.96	59.20	-45.2	-46.4	26.0	6.03e-01	0	44	0	581959680	61	4245
2026-01-23 02:37:43.77	9.63	59.66	-45.6	-46.8	25.6	6.03e-01	0	44	0	583532544	61	4481
2026-01-23 02:37:44.78	9.28	60.13	-45.5	-46.7	25.7	6.03e-01	0	44	0	585629696	62	4170
2026-01-23 02:37:45.79	8.93	60.60	-45.8	-47.0	25.4	6.03e-01	0	44	0	587202560	62	4333
2026-01-23 02:37:46.80	8.55	61.08	-45.7	-46.9	25.5	6.01e-01	0	44	0	589299712	62	4261
2026-01-23 02:37:47.81	8.17	61.55	-45.7	-46.9	25.6	6.03e-01	0	44	0	591396864	62	4274
2026-01-23 02:37:48.82	7.77	62.03	-45.8	-47.1	25.4	6.03e-01	0	44	0	592969728	62	4356
2026-01-23 02:37:49.83	7.35	62.51	-45.9	-47.2	25.3	6.03e-01	0	44	0	595066880	62	4409
2026-01-23 02:37:50.83	6.92	62.99	-46.0	-47.2	25.3	6.01e-01	0	44	0	596639744	62	4424
2026-01-23 02:37:51.84	6.47	63.47	-46.3	-47.6	24.9	6.03e-01	0	44	0	598736896	63	4370
2026-01-23 02:37:52.85	6.00	63.96	-46.6	-47.9	24.6	6.01e-01	0	44	0	600309760	63	4540
2026-01-23 02:37:53.86	5.51	64.45	-46.7	-48.1	24.5	6.03e-01	0	44	0	602406912	64	4357
2026-01-23 02:37:54.86	5.00	64.93	-47.1	-48.5	24.1	6.04e-01	0	44	0	604504064	64	4557
2026-01-23 02:37:55.87	4.46	65.43	-47.8	-49.3	23.3	6.03e-01	0	44	0	606601216	66	4452
2026-01-23 02:37:56.88	3.90	65.92	-47.4	-48.9	23.6	6.05e-01	0	44	0	608174080	66	4258
2026-01-23 02:37:57.89	3.31	66.41	-48.0	-49.6	23.1	6.03e-01	0	44	0	610271232	66	4618
2026-01-23 02:37:58.90	2.70	66.91	-48.6	-50.3	22.4	6.02e-01	0	44	0	611844096	67	4733
2026-01-23 02:37:59.91	2.05	67.40	-48.4	-50.0	22.6	6.00e-01	0	44	0	613941248	67	4555
2026-01-23 02:38:00.92	1.38	67.89	-48.5	-50.1	22.6	6.02e-01	0	44	0	615514112	67	4624
2026-01-23 02:38:01.93	0.66	68.39	-48.6	-50.3	22.3	6.04e-01	0	44	0	617611264	68	4452
2026-01-23 02:38:02.93	359.92	68.88	-48.2	-49.8	22.7	6.03e-01	0	44	0	619708416	68	4217
2026-01-23 02:38:03.94	359.14	69.37	-48.0	-49.6	23.1	6.02e-01	0	44	0	621281280	67	4348
2026-01-23 02:38:04.95	358.31	69.86	-48.8	-50.6	22.0	6.03e-01	0	44	0	623378432	68	4620
2026-01-23 02:38:05.96	357.44	70.36	-47.7	-49.2	23.4	6.02e-01	0	44	0	625475584	67	4153
2026-01-23 02:38:06.97	356.52	70.84	-47.7	-49.2	23.4	6.02e-01	0	44	0	627048448	67	4170
2026-01-23 02:38:07.97	355.55	71.33	-48.0	-49.6	23.0	6.01e-01	0	44	0	629145600	67	4360
2026-01-23 02:38:08.98	354.53	71.81	-48.0	-49.5	23.0	6.02e-01	0	44	0	630718464	67	4323
2026-01-23 02:38:09.99	353.44	72.29	-47.9	-49.4	23.3	6.03e-01	0	44	0	632815616	67	4243
2026-01-23 02:38:11.00	352.29	72.77	-48.6	-50.3	22.4	6.04e-01	0	44	0	634912768	67	4753
2026-01-23 02:38:12.01	351.07	73.24	-48.6	-50.2	22.3	6.03e-01	0	44	0	636485632	68	4439
2026-01-23 02:38:13.02	349.78	73.70	-48.4	-50.0	22.5	6.02e-01	0	44	0	638582784	68	4295
2026-01-23 02:38:14.03	348.40	74.16	-49.3	-51.1	21.5	6.02e-01	0	44	0	640155648	69	4631
2026-01-23 02:38:15.03	346.96	74.60	-48.1	-49.6	23.0	6.02e-01	0	44	0	642252800	68	4127
2026-01-23 02:38:16.04	345.41	75.05	-48.1	-49.6	23.0	6.02e-01	0	43	0	643825664	67	4378
2026-01-23 02:38:17.05	343.77	75.48	-47.9	-49.4	23.3	6.02e-01	0	44	0	645922816	67	4266
2026-01-23 02:38:18.06	342.02	75.90	-47.7	-49.2	23.4	6.00e-01	0	44	0	648019968	67	4158
2026-01-23 02:38:19.07	340.16	76.31	-47.3	-48.7	23.9	6.01e-01	0	44	0	650117120	66	4160
2026-01-23 02:38:20.08	338.18	76.71	-47.8	-49.3	23.3	6.04e-01	0	44	0	651689984	66	4472
2026-01-23 02:38:21.09	336.08	77.09	-46.7	-48.1	24.4	6.04e-01	0	43	0	653787136	65	4099
2026-01-23 02:38:22.10	333.86	77.45	-46.6	-47.9	24.6	6.04e-01	0	44	0	655360000	64	4280
2026-01-23 02:38:23.11	331.50	77.79	-46.7	-48.0	24.5	6.03e-01	0	44	0	657457152	64	4335
2026-01-23 02:38:24.12	329.00	78.12	-46.7	-48.0	24.4	6.03e-01	0	44	0	659030016	64	4339
2026-01-23 02:38:25.13	326.36	78.42	-45.9	-47.1	25.5	6.00e-01	0	44	0	661127168	63	4116
2026-01-23 02:38:26.13	323.62	78.69	-46.7	-48.1	24.6	6.00e-01	0	44	0	663224320	64	4354
2026-01-23 02:38:27.14	320.71	78.94	-46.2	-47.5	25.0	6.01e-01	0	44	0	664797184	64	4057
2026-01-23 02:38:28.15	317.67	79.16	-45.8	-47.0	25.6	6.01e-01	0	44	0	666894336	63	4096
2026-01-23 02:38:29.16	314.51	79.35	-46.6	-47.9	24.6	6.01e-01	0	44	0	668991488	64	4283
2026-01-23 02:38:30.17	311.25	79.51	-46.0	-47.2	25.2	6.01e-01	0	44	0	670564352	64	3947
2026-01-23 02:38:31.18	307.89	79.63	-46.1	-47.3	25.3	6.01e-01	0	44	0	672661504	63	4242
2026-01-23 02:38:32.18	304.50	79.72	-45.7	-46.9	25.6	6.03e-01	0	44	0	674234368	63	4035
2026-01-23 02:38:33.19	301.03	79.77	-45.8	-47.0	25.6	6.02e-01	0	44	0	676331520	63	4073
2026-01-23 02:38:34.20	297.53	79.78	-45.5	-46.6	26.0	6.03e-01	0	43	0	678428672	62	4143
2026-01-23 02:38:35.20	294.08	79.76	-46.1	-47.4	25.2	6.03e-01	0	44	0	680001536	62	4519
2026-01-23 02:38:36.21	290.62	79.70	-45.5	-46.6	25.9	6.00e-01	0	44	0	682098688	62	4127
2026-01-23 02:38:37.22	287.21	79.60	-46.0	-47.2	25.4	5.99e-01	0	44	0	683671552	62	4415
2026-01-23 02:38:38.23	283.87	79.47	-46.3	-47.5	25.1	6.03e-01	0	43	0	685768704	63	4332
2026-01-23 02:38:39.24	280.64	79.30	-46.5	-47.7	24.9	6.04e-01	0	43	0	687341568	63	4440
2026-01-23 02:38:40.25	277.51	79.11	-46.0	-47.2	25.4	6.01e-01	0	44	0	689438720	63	4168
2026-01-23 02:38:41.25	274.53	78.88	-46.6	-47.9	24.8	6.04e-01	0	44	0	691535872	63	4529
2026-01-23 02:38:42.26	271.66	78.62	-46.4	-47.7	25.0	6.02e-01	0	44	0	693108736	63	4392
2026-01-23 02:38:43.27	268.92	78.34	-46.4	-47.7	24.9	6.01e-01	0	44	0	695205888	63	4429
2026-01-23 02:38:44.28	266.32	78.03	-46.5	-47.8	24.8	6.02e-01	0	44	0	697303040	63	4474
2026-01-23 02:38:45.29	263.86	77.70	-46.5	-47.8	24.7	6.02e-01	0	44	0	698875904	64	4225
2026-01-23 02:38:46.29	261.56	77.35	-47.0	-48.4	24.3	6.03e-01	0	44	0	700973056	64	4521
2026-01-23 02:38:47.30	259.36	76.99	-47.3	-48.8	24.0	6.03e-01	0	44	0	702545920	65	4446
2026-01-23 02:38:48.31	257.30	76.60	-47.6	-49.1	23.7	6.02e-01	0	43	0	704643072	65	4621
2026-01-23 02:38:49.32	255.35	76.20	-47.6	-49.0	23.6	6.01e-01	0	44	0	706740224	66	4334
2026-01-23 02:38:50.33	253.52	75.79	-48.3	-50.0	22.9	6.02e-01	0	44	0	708313088	67	4554
2026-01-23 02:38:51.33	251.82	75.37	-48.4	-50.1	22.7	6.02e-01	0	44	0	710410240	67	4614
2026-01-23 02:38:52.34	250.19	74.93	-48.4	-50.0	22.9	6.03e-01	0	44	0	711983104	67	4549
2026-01-23 02:38:53.35	248.67	74.49	-48.2	-49.7	22.9	6.03e-01	0	44	0	714080256	68	4183
2026-01-23 02:38:54.36	247.23	74.03	-48.1	-49.6	23.1	6.03e-01	0	44	0	716177408	67	4367
2026-01-23 02:38:55.37	245.88	73.57	-48.7	-50.4	22.3	6.01e-01	0	44	0	717750272	68	4536
2026-01-23 02:38:56.37	244.62	73.11	-48.4	-50.0	22.5	6.03e-01	0	44	0	719847424	68	4340
2026-01-23 02:38:57.38	243.42	72.64	-47.7	-49.2	23.6	6.01e-01	0	44	0	721944576	67	4151
2026-01-23 02:38:58.39	242.28	72.16	-48.3	-49.9	22.9	6.01e-01	0	44	0	723517440	67	4509
2026-01-23 02:38:59.40	241.21	71.68	-48.5	-50.1	22.7	6.03e-01	0	43	0	725614592	67	4620
2026-01-23 02:39:00.41	240.20	71.20	-48.8	-50.5	22.3	6.03e-01	0	44	0	727187456	68	4578
2026-01-23 02:39:01.41	239.25	70.71	-48.5	-50.1	22.6	6.04e-01	0	44	0	729284608	68	4370
2026-01-23 02:39:02.42	238.34	70.22	-50.0	-52.1	20.7	6.01e-01	0	44	0	730857472	70	4884
2026-01-23 02:39:03.43	237.48	69.73	-49.8	-51.7	21.0	6.02e-01	0	44	0	732954624	71	4407
2026-01-23 02:39:04.44	236.66	69.24	-48.9	-50.5	22.2	6.02e-01	0	44	0	735051776	69	4334
2026-01-23 02:39:05.45	235.89	68.74	-50.6	-52.9	20.0	6.03e-01	0	44	0	736624640	71	5051
2026-01-23 02:39:06.45	235.15	68.25	-50.1	-52.2	20.4	6.01e-01	0	43	0	738721792	71	4666
2026-01-23 02:39:07.46	234.45	67.76	-49.3	-51.1	21.6	6.02e-01	0	44	0	740818944	70	4371
2026-01-23 02:39:08.47	233.78	67.26	-49.7	-51.6	21.1	6.02e-01	0	44	0	742391808	70	4645
2026-01-23 02:39:09.48	233.15	66.77	-49.4	-51.3	21.5	6.00e-01	0	44	0	744488960	70	4459
2026-01-23 02:39:10.48	232.54	66.28	-49.6	-51.5	21.1	6.00e-01	0	44	0	746061824	70	4581
2026-01-23 02:39:11.49	231.96	65.78	-48.9	-50.6	21.8	6.03e-01	0	44	0	748158976	69	4359
2026-01-23 02:39:12.50	231.41	65.29	-47.7	-49.1	23.6	6.03e-01	0	43	0	750256128	67	4105
2026-01-23 02:39:13.51	230.88	64.80	-48.4	-50.0	22.7	6.01e-01	0	44	0	751828992	67	4583
2026-01-23 02:39:14.52	230.37	64.31	-48.1	-49.6	23.1	6.03e-01	0	44	0	753926144	67	4380
2026-01-23 02:39:15.53	229.88	63.82	-47.2	-48.5	24.1	6.02e-01	0	44	0	755499008	66	4082
2026-01-23 02:39:16.53	229.42	63.34	-46.6	-47.9	24.7	6.01e-01	0	44	0	757596160	65	4034
2026-01-23 02:39:17.54	228.97	62.85	-46.8	-48.1	24.5	6.02e-01	0	44	0	759169024	65	4131
2026-01-23 02:39:18.55	228.54	62.37	-47.0	-48.4	24.2	6.01e-01	0	44	0	761266176	65	4285
2026-01-23 02:39:19.55	228.13	61.89	-47.3	-48.8	23.9	6.02e-01	0	44	0	763363328	65	4471
2026-01-23 02:39:20.56	227.73	61.41	-46.4	-47.7	24.7	6.04e-01	0	43	0	764936192	64	4188
2026-01-23 02:39:21.57	227.35	60.94	-46.2	-47.5	25.1	6.03e-01	0	44	0	767033344	64	4063
2026-01-23 02:39:22.58	226.99	60.46	-46.4	-47.7	24.9	6.02e-01	0	44	0	769130496	64	4178
2026-01-23 02:39:23.59	226.63	59.99	-46.8	-48.2	24.3	6.03e-01	0	43	0	770703360	64	4405
2026-01-23 02:39:24.59	226.29	59.53	-46.5	-47.8	24.7	6.00e-01	0	44	0	772800512	64	4217
2026-01-23 02:39:25.60	225.96	59.06	-46.1	-47.4	25.1	6.04e-01	0	44	0	774373376	64	4013
2026-01-23 02:39:26.61	225.65	58.60	-45.0	-46.1	26.3	6.00e-01	0	44	0	776470528	62	3910
2026-01-23 02:39:27.62	225.34	58.14	-45.2	-46.3	26.1	6.02e-01	0	44	0	778567680	61	4217
2026-01-23 02:39:28.63	225.05	57.68	-45.6	-46.9	25.6	6.04e-01	0	44	0	780140544	61	4498
2026-01-23 02:39:29.63	224.76	57.23	-45.6	-46.8	25.7	6.01e-01	0	44	0	782237696	62	4232
2026-01-23 02:39:30.64	224.49	56.78	-45.0	-46.1	26.3	6.01e-01	0	43	0	783810560	62	3892
2026-01-23 02:39:31.65	224.22	56.33	-44.8	-45.9	26.4	6.03e-01	0	44	0	785907712	61	4050
2026-01-23 02:39:32.66	223.96	55.89	-44.3	-45.4	27.0	6.03e-01	0	43	0	788004864	60	4006
2026-01-23 02:39:33.66	223.71	55.45	-44.4	-45.5	26.9	6.02e-01	0	43	0	789577728	60	4053
2026-01-23 02:39:34.67	223.47	55.01	-45.2	-46.5	25.9	6.02e-01	0	44	0	791674880	61	4297
2026-01-23 02:39:35.68	223.23	54.58	-44.5	-45.6	26.7	6.01e-01	0	43	0	793247744	60	4119
2026-01-23 02:39:36.69	223.01	54.14	-44.3	-45.4	26.9	6.03e-01	0	43	0	795344896	60	4031
2026-01-23 02:39:37.69	222.79	53.72	-43.9	-45.0	27.1	6.02e-01	0	43	0	797442048	59	4060
2026-01-23 02:39:38.70	222.57	53.29	-43.6	-44.6	27.5	6.02e-01	0	43	0	799014912	59	3887
2026-01-23 02:39:39.71	222.36	52.87	-43.9	-45.0	27.1	6.01e-01	0	43	0	801112064	59	4083
2026-01-23 02:39:40.72	222.16	52.45	-44.0	-45.1	27.1	6.03e-01	0	44	0	802684928	59	4131
2026-01-23 02:39:41.73	221.96	52.04	-44.6	-45.8	26.4	6.04e-01	0	43	0	804782080	59	4455
2026-01-23 02:39:42.73	221.78	51.63	-44.5	-45.6	26.5	6.02e-01	0	43	0	806879232	59	4365
2026-01-23 02:39:43.74	221.59	51.22	-44.3	-45.4	26.7	6.04e-01	0	43	0	808452096	59	4289
2026-01-23 02:39:44.75	221.41	50.81	-44.6	-45.7	26.5	6.01e-01	0	44	0	810549248	59	4420
2026-01-23 02:39:45.76	221.23	50.41	-44.0	-45.0	27.1	6.00e-01	0	43	0	812646400	59	4098
2026-01-23 02:39:46.77	221.06	50.01	-44.3	-45.5	26.7	6.02e-01	0	44	0	814219264	59	4296
2026-01-23 02:39:47.77	220.90	49.62	-44.7	-45.9	26.5	6.03e-01	0	44	0	816316416	60	4248
2026-01-23 02:39:48.78	220.74	49.23	-44.8	-45.9	26.5	6.02e-01	0	43	0	817889280	60	4270
2026-01-23 02:39:49.79	220.58	48.84	-44.8	-46.0	26.4	6.01e-01	0	43	0	819986432	60	4297
2026-01-23 02:39:50.80	220.42	48.46	-44.9	-46.0	26.2	6.00e-01	0	44	0	821559296	60	4329
2026-01-23 02:39:51.81	220.28	48.07	-44.7	-45.9	26.3	6.04e-01	0	43	0	823656448	60	4260
2026-01-23 02:39:52.82	220.13	47.69	-44.6	-45.7	26.5	6.03e-01	0	43	0	825753600	60	4177
2026-01-23 02:39:53.83	219.99	47.32	-44.4	-45.5	26.7	6.02e-01	0	44	0	827326464	60	4087
2026-01-23 02:39:54.83	219.85	46.95	-44.3	-45.4	26.9	6.01e-01	0	43	0	829423616	60	4028
2026-01-23 02:39:55.84	219.71	46.58	-44.6	-45.7	26.6	6.04e-01	0	43	0	830996480	60	4168
2026-01-23 02:39:56.85	219.58	46.21	-44.5	-45.7	26.6	6.02e-01	0	43	0	833093632	60	4154
2026-01-23 02:39:57.86	219.45	45.85	-44.4	-45.5	26.7	6.02e-01	0	43	0	835190784	60	4078
2026-01-23 02:39:58.87	219.33	45.49	-44.5	-45.6	26.7	6.03e-01	0	44	0	836763648	60	4109
2026-01-23 02:39:59.87	219.20	45.14	-44.5	-45.6	26.6	6.03e-01	0	43	0	838860800	60	4130
2026-01-23 02:40:00.88	219.08	44.79	-44.5	-45.6	26.6	6.02e-01	0	44	0	840957952	60	4126
2026-01-23 02:40:01.89	218.97	44.43	-44.1	-45.2	27.0	6.00e-01	0	43	0	842530816	60	3931
2026-01-23 02:40:02.89	218.85	44.09	-44.1	-45.1	27.1	6.03e-01	0	44	0	844627968	60	3909
2026-01-23 02:40:03.90	218.74	43.75	-44.4	-45.4	26.7	6.02e-01	0	44	0	846200832	60	4051
2026-01-23 02:40:04.91	218.63	43.41	-44.5	-45.6	26.6	6.02e-01	0	44	0	848297984	60	4129
2026-01-23 02:40:05.92	218.52	43.07	-44.8	-46.0	26.3	5.99e-01	0	44	0	849870848	60	4297
2026-01-23 02:40:06.93	218.42	42.73	-44.9	-46.1	26.2	6.01e-01	0	44	0	851968000	60	4348
2026-01-23 02:40:07.93	218.32	42.40	-45.2	-46.4	25.9	6.04e-01	0	43	0	854065152	61	4260
2026-01-23 02:40:08.94	218.21	42.08	-45.3	-46.5	25.8	6.01e-01	0	43	0	855638016	61	4292
2026-01-23 02:40:09.95	218.12	41.75	-45.3	-46.5	25.8	6.02e-01	0	44	0	857735168	61	4303
2026-01-23 02:40:10.96	218.02	41.43	-45.5	-46.7	25.7	6.01e-01	0	44	0	859832320	61	4395
2026-01-23 02:40:11.96	217.93	41.11	-45.6	-46.8	25.5	6.01e-01	0	44	0	861405184	61	4479
2026-01-23 02:40:12.97	217.83	40.79	-45.7	-46.9	25.4	6.04e-01	0	44	0	863502336	61	4506
2026-01-23 02:40:13.98	217.74	40.48	-45.8	-47.1	25.3	6.02e-01	0	44	0	865075200	62	4372
2026-01-23 02:40:14.99	217.65	40.17	-46.1	-47.4	25.0	6.01e-01	0	44	0	867172352	62	4536
2026-01-23 02:40:15.99	217.57	39.86	-46.1	-47.4	25.0	6.03e-01	0	44	0	869269504	62	4539
2026-01-23 02:40:17.00	217.48	39.55	-46.2	-47.5	24.8	6.05e-01	0	44	0	870842368	62	4571
2026-01-23 02:40:18.01	217.40	39.25	-46.2	-47.5	24.9	6.01e-01	0	44	0	872939520	63	4293
2026-01-23 02:40:19.02	217.32	38.95	-46.1	-47.4	25.0	6.02e-01	0	43	0	874512384	63	4249
2026-01-23 02:40:20.03	217.24	38.65	-46.3	-47.6	24.8	6.02e-01	0	44	0	876609536	63	4372
2026-01-23 02:40:21.03	217.16	38.36	-46.3	-47.7	24.8	6.03e-01	0	44	0	878182400	63	4396
2026-01-23 02:40:22.04	217.08	38.07	-46.2	-47.5	24.5	6.02e-01	0	44	0	880279552	63	4330
2026-01-23 02:40:23.05	217.00	37.78	-46.0	-47.3	25.0	6.02e-01	0	43	0	882376704	63	4222
2026-01-23 02:40:24.06	216.93	37.49	-45.8	-47.0	25.3	6.01e-01	0	43	0	884473856	63	4093
2026-01-23 02:40:25.07	216.86	37.20	-45.4	-46.6	25.7	6.02e-01	0	43	0	886046720	62	4132
2026-01-23 02:40:26.07	216.79	36.92	-45.5	-46.7	25.6	6.01e-01	0	44	0	888143872	62	4176
2026-01-23 02:40:27.08	216.71	36.64	-45.5	-46.7	25.5	6.03e-01	0	44	0	889716736	62	4193
2026-01-23 02:40:28.09	216.65	36.37	-45.5	-46.7	25.5	6.02e-01	0	44	0	891813888	62	4181
2026-01-23 02:40:29.10	216.58	36.09	-45.6	-46.8	25.4	6.02e-01	0	44	0	893386752	62	4229
2026-01-23 02:40:30.11	216.51	35.82	-45.5	-46.8	25.5	6.05e-01	0	44	0	895483904	62	4215
2026-01-23 02:40:31.11	216.45	35.55	-45.4	-46.6	25.6	6.02e-01	0	44	0	897581056	62	4143
2026-01-23 02:40:32.12	216.38	35.28	-45.3	-46.5	25.7	6.05e-01	0	44	0	899153920	62	4086
2026-01-23 02:40:33.13	216.32	35.02	-45.2	-46.5	25.7	6.02e-01	0	44	0	901251072	62	4054
2026-01-23 02:40:34.14	216.26	34.75	-44.8	-45.9	26.2	6.03e-01	0	44	0	902823936	61	4038
2026-01-23 02:40:35.15	216.19	34.49	-44.4	-45.5	26.6	6.03e-01	0	44	0	904921088	60	4058
2026-01-23 02:40:36.15	216.14	34.24	-44.2	-45.3	26.8	6.01e-01	0	44	0	907018240	60	3981
2026-01-23 02:40:37.16	216.08	33.98	-44.2	-45.3	26.8	6.03e-01	0	44	0	908591104	60	3977
2026-01-23 02:40:38.17	216.02	33.72	-44.2	-45.3	26.8	6.02e-01	0	44	0	910688256	60	3992
2026-01-23 02:40:39.18	215.96	33.47	-44.3	-45.4	26.7	6.03e-01	0	44	0	912785408	60	4045
2026-01-23 02:40:40.19	215.90	33.22	-44.2	-45.4	26.8	6.02e-01	0	44	0	914358272	60	4010
2026-01-23 02:40:41.19	215.85	32.98	-44.1	-45.2	26.9	6.02e-01	0	43	0	916455424	60	3933
2026-01-23 02:40:42.20	215.80	32.73	-44.1	-45.2	26.9	6.02e-01	0	43	0	918028288	60	3940
2026-01-23 02:40:43.21	215.74	32.49	-44.0	-45.1	26.8	6.03e-01	0	44	0	920125440	59	4142
2026-01-23 02:40:44.22	215.69	32.25	-44.0	-45.1	26.8	6.00e-01	0	44	0	921698304	59	4135
2026-01-23 02:40:45.23	215.64	32.01	-44.0	-45.1	26.7	6.02e-01	0	44	0	923795456	59	4141
2026-01-23 02:40:46.23	215.59	31.77	-44.1	-45.2	26.7	5.99e-01	0	44	0	925892608	59	4161
2026-01-23 02:40:47.24	215.54	31.54	-44.1	-45.2	26.6	6.02e-01	0	44	0	927465472	59	4179
2026-01-23 02:40:48.25	215.49	31.30	-43.9	-45.0	26.8	6.03e-01	0	44	0	929562624	59	4075
2026-01-23 02:40:49.26	215.44	31.07	-43.7	-44.8	27.0	6.02e-01	0	44	0	931659776	59	3995
2026-01-23 02:40:50.27	215.39	30.84	-43.8	-44.8	27.0	6.01e-01	0	44	0	933232640	59	4001
2026-01-23 02:40:51.27	215.35	30.61	-43.6	-44.7	27.2	6.01e-01	0	44	0	935329792	59	3935
2026-01-23 02:40:52.28	215.30	30.39	-43.7	-44.8	27.0	6.02e-01	0	44	0	936902656	59	3983
2026-01-23 02:40:53.29	215.25	30.16	-43.6	-44.7	27.2	6.01e-01	0	44	0	938999808	59	3920
2026-01-23 02:40:54.30	215.21	29.94	-43.6	-44.7	27.1	6.03e-01	0	44	0	941096960	59	3936
2026-01-23 02:40:55.31	215.16	29.72	-43.7	-44.7	27.1	6.01e-01	0	44	0	942669824	59	3950
2026-01-23 02:40:56.31	215.12	29.51	-43.6	-44.7	27.1	6.00e-01	0	43	0	944766976	59	3924
2026-01-23 02:40:57.32	215.08	29.29	-43.6	-44.7	27.1	6.00e-01	0	43	0	946339840	59	3916
2026-01-23 02:40:58.33	215.04	29.07	-43.6	-44.7	27.1	6.02e-01	0	43	0	948436992	59	3918
2026-01-23 02:40:59.34	214.99	28.86	-43.6	-44.6	27.2	6.02e-01	0	44	0	950009856	59	3897
2026-01-23 02:41:00.35	214.95	28.65	-43.6	-44.7	27.1	6.03e-01	0	43	0	952107008	59	3924
2026-01-23 02:41:01.35	214.91	28.44	-43.7	-44.7	27.1	6.01e-01	0	44	0	954204160	59	3954
2026-01-23 02:41:02.36	214.87	28.23	-43.9	-45.0	26.9	6.02e-01	0	43	0	956301312	59	4054
2026-01-23 02:41:03.37	214.83	28.02	-44.0	-45.2	26.6	6.04e-01	0	43	0	957874176	59	4151
2026-01-23 02:41:04.38	214.80	27.82	-44.1	-45.2	26.5	6.01e-01	0	43	0	959971328	59	4170
2026-01-23 02:41:05.39	214.76	27.62	-44.2	-45.3	26.5	6.02e-01	0	43	0	961544192	59	4218
2026-01-23 02:41:06.39	214.72	27.42	-44.3	-45.4	26.4	6.00e-01	0	44	0	963641344	59	4270
2026-01-23 02:41:07.40	214.68	27.22	-44.3	-45.4	26.4	6.00e-01	0	43	0	965214208	59	4270
2026-01-23 02:41:08.41	214.65	27.02	-44.3	-45.5	26.4	6.02e-01	0	43	0	967311360	59	4299
2026-01-23 02:41:09.42	214.61	26.82	-44.3	-45.4	26.4	6.03e-01	0	43	0	969408512	59	4291
2026-01-23 02:41:10.43	214.58	26.62	-44.4	-45.6	26.2	6.03e-01	0	44	0	970981376	59	4360
2026-01-23 02:41:11.43	214.54	26.43	-44.3	-45.5	26.3	6.02e-01	0	44	0	973078528	59	4305
2026-01-23 02:41:12.44	214.51	26.24	-44.4	-45.5	26.3	6.02e-01	0	44	0	974651392	59	4326
2026-01-23 02:41:13.45	214.47	26.05	-44.4	-45.5	26.3	6.02e-01	0	44	0	976748544	59	4340
2026-01-23 02:41:14.46	214.44	25.86	-44.5	-45.7	26.1	6.03e-01	0	44	0	978845696	59	4392
2026-01-23 02:41:15.47	214.41	25.67	-44.5	-45.6	26.2	6.02e-01	0	44	0	980418560	59	4363
2026-01-23 02:41:16.47	214.37	25.48	-44.5	-45.7	26.2	6.02e-01	0	44	0	982515712	59	4412
2026-01-23 02:41:17.48	214.34	25.30	-44.6	-45.7	26.2	6.03e-01	0	43	0	984612864	59	4419
2026-01-23 02:41:18.49	214.31	25.11	-44.6	-45.7	26.1	6.03e-01	0	43	0	986185728	59	4431
2026-01-23 02:41:19.50	214.28	24.93	-44.6	-45.8	26.1	6.03e-01	0	44	0	988282880	59	4465
2026-01-23 02:41:20.51	214.25	24.75	-44.7	-45.8	26.0	6.01e-01	0	43	0	989855744	59	4478
2026-01-23 02:41:21.51	214.22	24.57	-44.6	-45.7	26.1	6.01e-01	0	43	0	991952896	59	4430
2026-01-23 02:41:22.52	214.19	24.39	-44.7	-45.8	26.0	6.03e-01	0	44	0	993525760	59	4493
2026-01-23 02:41:23.53	214.16	24.22	-44.6	-45.7	26.2	6.02e-01	0	43	0	995622912	60	4178
2026-01-23 02:41:24.53	214.13	24.04	-44.6	-45.8	26.1	6.01e-01	0	44	0	997720064	60	4227
2026-01-23 02:41:25.54	214.10	23.87	-44.6	-45.8	26.1	6.02e-01	0	43	0	999292928	60	4228
2026-01-23 02:41:26.55	214.07	23.69	-44.6	-45.8	26.1	6.03e-01	0	43	0	1001390080	60	4226
2026-01-23 02:41:27.56	214.04	23.52	-44.8	-45.9	26.0	6.02e-01	0	44	0	1003487232	60	4287
2026-01-23 02:41:28.57	214.01	23.35	-44.6	-45.8	26.1	6.02e-01	0	43	0	1005060096	60	4227
2026-01-23 02:41:29.57	213.99	23.18	-44.7	-45.8	26.1	6.03e-01	0	44	0	1007157248	60	4238
2026-01-23 02:41:30.58	213.96	23.01	-44.6	-45.8	26.1	6.02e-01	0	43	0	1008730112	60	4222
2026-01-23 02:41:31.59	213.93	22.84	-44.7	-45.9	25.9	6.02e-01	0	44	0	1010827264	60	4276
2026-01-23 02:41:32.60	213.91	22.68	-44.7	-45.9	26.0	6.00e-01	0	43	0	1012924416	60	4272
2026-01-23 02:41:33.61	213.88	22.51	-44.7	-45.8	26.0	6.03e-01	0	43	0	1014497280	60	4239
2026-01-23 02:41:34.61	213.85	22.35	-44.6	-45.8	26.1	6.03e-01	0	43	0	1016594432	60	4222
2026-01-23 02:41:35.62	213.83	22.19	-44.7	-45.9	25.9	6.00e-01	0	43	0	1018167296	60	4274
2026-01-23 02:41:36.63	213.80	22.02	-44.6	-45.8	26.0	6.01e-01	0	43	0	1020264448	60	4222
2026-01-23 02:41:37.64	213.78	21.86	-44.7	-45.8	26.0	6.04e-01	0	43	0	1021837312	60	4228
2026-01-23 02:41:38.64	213.75	21.70	-44.6	-45.8	26.1	6.03e-01	0	44	0	1023934464	60	4199
2026-01-23 02:41:39.65	213.73	21.55	-44.6	-45.7	26.1	6.03e-01	0	43	0	1026031616	60	4177
2026-01-23 02:41:40.66	213.71	21.39	-44.6	-45.8	26.1	6.01e-01	0	44	0	1027604480	60	4204
2026-01-23 02:41:41.67	213.68	21.23	-44.7	-45.9	26.0	6.02e-01	0	43	0	1029701632	60	4247
2026-01-23 02:41:42.68	213.66	21.08	-44.5	-45.7	26.2	6.03e-01	0	43	0	1031798784	60	4152
2026-01-23 02:41:43.68	213.64	20.92	-44.5	-45.6	26.2	6.04e-01	0	43	0	1033371648	60	4135
2026-01-23 02:41:44.69	213.61	20.77	-44.5	-45.7	26.2	6.02e-01	0	43	0	1035468800	60	4154
2026-01-23 02:41:45.70	213.59	20.62	-44.5	-45.7	26.1	6.00e-01	0	44	0	1037041664	60	4158
2026-01-23 02:41:46.71	213.57	20.47	-44.5	-45.7	26.2	6.02e-01	0	43	0	1039138816	60	4147
2026-01-23 02:41:47.72	213.55	20.32	-44.4	-45.6	26.3	6.01e-01	0	43	0	1041235968	60	4106
2026-01-23 02:41:48.73	213.52	20.17	-44.4	-45.6	26.3	6.02e-01	0	44	0	1042808832	60	4114
2026-01-23 02:41:49.73	213.50	20.02	-44.4	-45.5	26.3	6.03e-01	0	44	0	1044905984	60	4081
2026-01-23 02:41:50.74	213.48	19.87	-44.4	-45.5	26.3	6.02e-01	0	43	0	1046478848	60	4094
2026-01-23 02:41:51.75	213.46	19.72	-44.4	-45.5	26.3	6.01e-01	0	44	0	1048576000	60	4071
2026-01-23 02:41:52.76	213.44	19.58	-44.3	-45.4	26.4	6.00e-01	0	43	0	1050673152	60	4036
2026-01-23 02:41:53.76	213.42	19.44	-44.4	-45.5	26.3	6.03e-01	0	43	0	1052246016	60	4076
2026-01-23 02:41:54.77	213.40	19.29	-44.4	-45.5	26.3	6.02e-01	0	44	0	1054343168	60	4093
2026-01-23 02:41:55.78	213.38	19.15	-44.3	-45.5	26.3	6.01e-01	0	43	0	1055916032	60	4068
2026-01-23 02:41:56.79	213.36	19.01	-44.4	-45.5	26.3	6.02e-01	0	43	0	1058013184	60	4095
2026-01-23 02:41:57.80	213.34	18.87	-44.4	-45.6	26.2	5.99e-01	0	43	0	1060110336	60	4119
2026-01-23 02:41:58.81	213.32	18.73	-44.5	-45.7	26.1	6.02e-01	0	44	0	1061683200	60	4173
2026-01-23 02:41:59.82	213.30	18.59	-44.4	-45.6	26.2	6.04e-01	0	43	0	1063780352	60	4100
2026-01-23 02:42:00.83	213.28	18.45	-44.5	-45.7	26.1	6.03e-01	0	44	0	1065353216	60	4172
2026-01-23 02:42:01.83	213.26	18.31	-44.5	-45.7	26.1	6.01e-01	0	43	0	1067450368	60	4182
2026-01-23 02:42:02.84	213.24	18.17	-44.4	-45.6	26.2	6.03e-01	0	43	0	1069547520	60	4126
2026-01-23 02:42:03.85	213.23	18.04	-44.5	-45.6	26.1	6.03e-01	0	44	0	1071120384	60	4145
2026-01-23 02:42:04.86	213.21	17.90	-44.5	-45.7	26.1	6.04e-01	0	43	0	1073217536	60	4158
2026-01-23 02:42:05.87	213.19	17.77	-44.4	-45.6	26.2	6.00e-01	0	44	0	1075314688	60	4123
2026-01-23 02:42:06.88	213.17	17.63	-44.3	-45.5	26.3	6.01e-01	0	44	0	1076887552	60	4065
2026-01-23 02:42:07.89	213.15	17.50	-44.3	-45.5	26.3	6.03e-01	0	43	0	1078984704	60	4068
2026-01-23 02:42:08.89	213.14	17.37	-44.3	-45.4	26.3	6.02e-01	0	44	0	1080557568	60	4039
2026-01-23 02:42:09.90	213.12	17.24	-44.4	-45.5	26.2	6.03e-01	0	43	0	1082654720	60	4087
2026-01-23 02:42:10.91	213.10	17.11	-44.4	-45.5	26.2	6.03e-01	0	43	0	1084227584	60	4075
2026-01-23 02:42:11.92	213.09	16.98	-44.4	-45.5	26.2	6.01e-01	0	43	0	1086324736	60	4087
2026-01-23 02:42:12.92	213.07	16.85	-44.3	-45.5	26.3	6.04e-01	0	43	0	1088421888	60	4061
2026-01-23 02:42:13.93	213.05	16.72	-44.4	-45.5	26.2	6.01e-01	0	43	0	1089994752	60	4088
2026-01-23 02:42:14.94	213.04	16.60	-44.3	-45.5	26.2	6.02e-01	0	44	0	1092091904	60	4071
2026-01-23 02:42:15.95	213.02	16.47	-44.4	-45.6	26.1	6.01e-01	0	43	0	1093664768	60	4111
2026-01-23 02:42:16.96	213.01	16.34	-44.4	-45.5	26.1	6.02e-01	0	43	0	1095761920	60	4096
2026-01-23 02:42:17.97	212.99	16.22	-44.3	-45.5	26.2	6.03e-01	0	43	0	1097859072	60	4066
2026-01-23 02:42:18.98	212.97	16.09	-44.4	-45.5	26.2	6.03e-01	0	43	0	1099431936	60	4083
2026-01-23 02:42:19.99	212.96	15.97	-44.3	-45.5	26.1	6.01e-01	0	44	0	1101529088	60	4071
2026-01-23 02:42:20.99	212.94	15.85	-44.4	-45.5	26.1	6.04e-01	0	44	0	1103626240	60	4092
2026-01-23 02:42:22.00	212.93	15.72	-44.3	-45.5	26.1	6.03e-01	0	44	0	1105199104	60	4074
2026-01-23 02:42:23.01	212.91	15.60	-44.4	-45.6	26.0	6.01e-01	0	44	0	1107296256	60	4123
2026-01-23 02:42:24.02	212.90	15.48	-44.5	-45.6	26.0	6.02e-01	0	43	0	1108869120	60	4134
2026-01-23 02:42:25.03	212.88	15.36	-44.4	-45.5	26.0	6.02e-01	0	43	0	1110966272	60	4089
2026-01-23 02:42:26.04	212.87	15.24	-44.4	-45.6	26.0	6.05e-01	0	44	0	1113063424	60	4112
2026-01-23 02:42:27.05	212.86	15.12	-44.4	-45.6	26.0	6.02e-01	0	43	0	1114636288	60	4118
2026-01-23 02:42:28.05	212.84	15.00	-44.4	-45.6	25.9	6.01e-01	0	44	0	1116733440	60	4135
2026-01-23 02:42:29.07	212.83	14.88	-44.4	-45.6	26.0	6.03e-01	0	43	0	1118830592	60	4106
2026-01-23 02:42:30.07	212.81	14.77	-44.4	-45.6	25.9	6.02e-01	0	44	0	1120403456	60	4121
2026-01-23 02:42:31.08	212.80	14.65	-44.4	-45.6	26.0	6.02e-01	0	44	0	1122500608	60	4104
2026-01-23 02:42:32.09	212.79	14.53	-44.4	-45.6	25.9	6.03e-01	0	43	0	1124073472	60	4130
2026-01-23 02:42:33.10	212.77	14.42	-44.5	-45.6	26.0	6.02e-01	0	44	0	1126170624	60	4139
2026-01-23 02:42:34.11	212.76	14.30	-44.3	-45.5	26.0	6.01e-01	0	44	0	1127743488	60	4073
2026-01-23 02:42:35.12	212.75	14.19	-44.5	-45.6	26.0	6.02e-01	0	43	0	1129840640	60	4142
2026-01-23 02:42:36.12	212.73	14.08	-44.5	-45.7	25.9	6.03e-01	0	43	0	1131937792	60	4163
2026-01-23 02:42:37.13	212.72	13.96	-44.4	-45.6	26.0	6.02e-01	0	43	0	1133510656	60	4129
2026-01-23 02:42:38.14	212.71	13.85	-44.5	-45.7	25.9	6.03e-01	0	43	0	1135607808	60	4177
2026-01-23 02:42:39.15	212.70	13.74	-44.4	-45.6	26.0	6.02e-01	0	43	0	1137180672	60	4131
2026-01-23 02:42:40.16	212.68	13.63	-44.6	-45.7	25.9	6.01e-01	0	43	0	1139277824	60	4192
2026-01-23 02:42:41.16	212.67	13.52	-44.6	-45.8	25.8	6.03e-01	0	44	0	1141374976	60	4195
2026-01-23 02:42:42.17	212.66	13.41	-44.6	-45.8	25.8	6.03e-01	0	43	0	1142947840	60	4229
2026-01-23 02:42:43.18	212.65	13.30	-44.6	-45.8	25.8	6.04e-01	0	44	0	1145044992	60	4210
2026-01-23 02:42:44.19	212.64	13.19	-44.5	-45.6	25.9	6.03e-01	0	44	0	1147142144	60	4144
2026-01-23 02:42:45.20	212.62	13.08	-44.5	-45.7	25.9	6.02e-01	0	44	0	1148715008	60	4183
2026-01-23 02:42:46.21	212.61	12.97	-44.6	-45.8	25.8	6.02e-01	0	44	0	1150812160	60	4216
2026-01-23 02:42:47.22	212.60	12.86	-44.6	-45.7	25.8	6.01e-01	0	43	0	1152385024	60	4191
2026-01-23 02:42:48.23	212.59	12.76	-44.6	-45.8	25.7	6.03e-01	0	44	0	1154482176	60	4223
2026-01-23 02:42:49.23	212.58	12.65	-44.6	-45.8	25.7	6.02e-01	0	44	0	1156055040	60	4233
2026-01-23 02:42:50.24	212.57	12.54	-44.8	-46.0	25.5	6.04e-01	0	43	0	1158152192	60	4325
2026-01-23 02:42:51.25	212.56	12.44	-44.8	-46.1	25.5	6.03e-01	0	43	0	1160249344	60	4346
2026-01-23 02:42:52.26	212.54	12.33	-44.7	-45.9	25.6	6.03e-01	0	44	0	1162346496	60	4285
2026-01-23 02:42:53.27	212.53	12.23	-44.6	-45.8	25.7	6.03e-01	0	44	0	1163919360	60	4217
2026-01-23 02:42:54.28	212.52	12.13	-44.7	-45.9	25.6	6.03e-01	0	43	0	1166016512	60	4259
2026-01-23 02:42:55.29	212.51	12.02	-44.7	-45.9	25.6	6.01e-01	0	43	0	1167589376	60	4268
2026-01-23 02:42:56.30	212.50	11.92	-44.6	-45.9	25.7	6.01e-01	0	43	0	1169686528	60	4250
2026-01-23 02:42:57.31	212.49	11.82	-44.7	-46.0	25.5	6.04e-01	0	44	0	1171259392	60	4292
2026-01-23 02:42:58.32	212.48	11.71	-44.6	-45.8	25.6	6.02e-01	0	43	0	1173356544	60	4226
2026-01-23 02:42:59.33	212.47	11.61	-44.7	-45.9	25.6	6.01e-01	0	44	0	1175453696	60	4263
2026-01-23 02:43:00.33	212.46	11.51	-44.7	-45.9	25.6	6.04e-01	0	43	0	1177026560	60	4264
2026-01-23 02:43:01.34	212.45	11.41	-44.7	-45.9	25.6	6.01e-01	0	43	0	1179123712	60	4256
2026-01-23 02:43:02.35	212.44	11.31	-44.7	-45.9	25.5	6.00e-01	0	43	0	1180696576	60	4290
2026-01-23 02:43:03.36	212.43	11.21	-44.7	-45.9	25.6	6.02e-01	0	43	0	1182793728	60	4253
2026-01-23 02:43:04.37	212.42	11.11	-44.7	-45.9	25.6	6.03e-01	0	43	0	1184890880	60	4259
2026-01-23 02:43:05.37	212.41	11.01	-44.7	-45.9	25.6	6.02e-01	0	44	0	1186463744	60	4257
2026-01-23 02:43:06.38	212.40	10.91	-44.8	-46.0	25.5	6.02e-01	0	43	0	1188560896	60	4304
2026-01-23 02:43:07.39	212.39	10.82	-44.7	-45.9	25.5	6.00e-01	0	44	0	1190658048	60	4280
2026-01-23 02:43:08.40	212.38	10.72	-44.6	-45.8	25.6	6.02e-01	0	43	0	1192230912	60	4239
2026-01-23 02:43:09.40	212.37	10.62	-44.7	-45.9	25.6	6.01e-01	0	43	0	1194328064	60	4252
2026-01-23 02:43:10.41	212.36	10.53	-44.7	-45.9	25.5	6.02e-01	0	43	0	1195900928	60	4284
2026-01-23 02:43:11.42	212.35	10.43	-44.7	-45.9	25.5	6.04e-01	0	43	0	1197998080	60	4256
2026-01-23 02:43:12.43	212.35	10.33	-44.8	-46.0	25.4	6.03e-01	0	44	0	1199570944	60	4321
2026-01-23 02:43:13.44	212.34	10.24	-44.7	-45.9	25.5	6.03e-01	0	44	0	1201668096	60	4289
2026-01-23 02:43:14.44	212.33	10.14	-44.7	-45.9	25.5	6.02e-01	0	44	0	1203765248	60	4285
2026-01-23 02:43:15.45	212.32	10.05	-44.7	-46.0	25.4	6.00e-01	0	44	0	1205862400	60	4292
2026-01-23 02:43:16.46	212.31	9.95	-44.7	-45.9	25.4	6.02e-01	0	43	0	1207435264	60	4290
2026-01-23 02:43:17.47	212.30	9.86	-44.7	-45.9	25.4	6.02e-01	0	43	0	1209532416	60	4286
2026-01-23 02:43:18.48	212.29	9.77	-44.7	-45.9	25.5	6.02e-01	0	44	0	1211105280	60	4277
2026-01-23 02:43:19.49	212.28	9.67	-44.8	-46.0	25.3	6.02e-01	0	43	0	1213202432	60	4340
2026-01-23 02:43:20.49	212.28	9.58	-44.8	-46.0	25.4	6.03e-01	0	44	0	1214775296	60	4328
2026-01-23 02:43:21.50	212.27	9.49	-44.8	-46.1	25.3	6.03e-01	0	44	0	1216872448	60	4343
2026-01-23 02:43:22.51	212.26	9.40	-44.9	-46.1	25.3	6.02e-01	0	43	0	1218969600	60	4363
2026-01-23 02:43:23.52	212.25	9.31	-44.9	-46.1	25.3	6.01e-01	0	43	0	1220542464	60	4360
2026-01-23 02:43:24.52	212.24	9.22	-44.9	-46.1	25.2	6.02e-01	0	43	0	1222639616	60	4386
2026-01-23 02:43:25.53	212.24	9.12	-44.9	-46.1	25.3	6.03e-01	0	43	0	1224212480	60	4357
2026-01-23 02:43:26.54	212.23	9.03	-44.9	-46.2	25.1	6.04e-01	0	44	0	1226309632	60	4399
2026-01-23 02:43:27.55	212.22	8.94	-45.0	-46.2	25.1	6.03e-01	0	43	0	1227882496	60	4438
2026-01-23 02:43:28.56	212.21	8.85	-45.0	-46.2	25.1	6.00e-01	0	43	0	1229979648	60	4415
2026-01-23 02:43:29.57	212.20	8.76	-45.0	-46.3	25.0	6.01e-01	0	43	0	1232076800	60	4452
2026-01-23 02:43:30.58	212.20	8.68	-45.0	-46.2	25.0	6.04e-01	0	44	0	1234173952	60	4438
2026-01-23 02:43:31.59	212.19	8.59	-45.0	-46.3	25.0	6.02e-01	0	44	0	1235746816	60	4451
2026-01-23 02:43:32.59	212.18	8.50	-45.2	-46.5	24.8	6.02e-01	0	43	0	1237843968	60	4563
2026-01-23 02:43:33.60	212.17	8.41	-45.2	-46.5	24.8	6.02e-01	0	43	0	1239416832	60	4563
2026-01-23 02:43:34.61	212.17	8.32	-45.1	-46.3	25.0	6.02e-01	0	43	0	1241513984	61	4227
2026-01-23 02:43:35.62	212.16	8.24	-45.1	-46.4	25.0	6.01e-01	0	43	0	1243086848	61	4249
2026-01-23 02:43:36.63	212.15	8.15	-45.1	-46.4	24.9	6.02e-01	0	43	0	1245184000	61	4283
2026-01-23 02:43:37.64	212.15	8.06	-45.4	-46.7	24.6	6.02e-01	0	43	0	1247281152	61	4412
2026-01-23 02:43:38.65	212.14	7.98	-45.4	-46.7	24.6	6.02e-01	0	44	0	1248854016	61	4423
2026-01-23 02:43:39.66	212.13	7.89	-45.5	-46.8	24.5	6.01e-01	0	44	0	1250951168	61	4467
2026-01-23 02:43:40.67	212.12	7.80	-45.4	-46.7	24.6	6.03e-01	0	43	0	1253048320	61	4420
2026-01-23 02:43:41.68	212.12	7.72	-45.5	-46.8	24.4	6.04e-01	0	43	0	1254621184	61	4492
2026-01-23 02:43:42.68	212.11	7.63	-45.5	-46.8	24.5	6.01e-01	0	44	0	1256718336	61	4467
2026-01-23 02:43:43.69	212.10	7.55	-45.5	-46.9	24.5	6.01e-01	0	44	0	1258291200	61	4499
2026-01-23 02:43:44.70	212.10	7.46	-45.5	-46.9	24.4	6.03e-01	0	43	0	1260388352	61	4496
